passes_logs/2026/01/13/R2M6_AANII_01/R2M6_AANII_01__20260113_102548_NOAA_20_JPSS-1_rec.log

#Pass ID: 20260113_102548_NOAA 20 (JPSS-1)
#Satellite: NOAA 20 (JPSS-1)
#Configuration: NOAA 20
#almurnet v.1.7.20240730
#Start time: 2026-01-13 10:25:48

#Version: 2.2.20231116
#Station: R2M6_AANII_01
#Location: 30.233357 lon 59.946436 lat
#TLE: 1 43013U 17073A   26012.29914746  .00000087  00000+0  62270-4 0  9997
#TLE: 2 43013  98.7632 313.2670 0001616  43.2193 316.9110 14.19535514422351

#Time	Az	El	Level	Level2	SNR	BER	BlckErr	Temp	State	Recorded	gain1	gain2
2026-01-13 10:25:48.40	163.55	6.97	-34.0	-47.5	3.8	1.49e+00	0	40	0	0	29	17121
2026-01-13 10:25:49.40	163.56	7.05	-34.0	-47.5	3.8	1.49e+00	0	40	104	0	29	17128
2026-01-13 10:25:50.41	163.57	7.13	-34.0	-47.5	3.8	1.49e+00	0	40	104	0	29	17132
2026-01-13 10:25:51.42	163.59	7.21	-34.0	-47.5	3.8	1.49e+00	0	40	104	0	29	17124
2026-01-13 10:25:52.42	163.60	7.28	-34.0	-47.5	3.8	1.49e+00	0	40	104	0	29	17133
2026-01-13 10:25:53.43	163.61	7.36	-34.0	-47.5	3.8	1.49e+00	0	40	104	0	29	17135
2026-01-13 10:25:54.43	163.62	7.44	-34.0	-47.5	3.8	1.49e+00	0	40	104	0	29	17155
2026-01-13 10:25:55.44	163.63	7.52	-34.0	-47.5	3.8	1.49e+00	0	40	104	0	29	17117
2026-01-13 10:25:56.44	163.64	7.60	-34.0	-47.5	3.8	1.49e+00	0	40	104	0	29	17145
2026-01-13 10:25:57.45	163.65	7.68	-34.0	-47.5	3.8	1.49e+00	0	40	104	0	29	17152
2026-01-13 10:25:58.46	163.66	7.76	-34.0	-47.5	3.8	1.49e+00	0	40	104	0	29	17115
2026-01-13 10:25:59.46	163.67	7.84	-34.0	-47.5	3.8	1.49e+00	0	40	104	0	29	17151
2026-01-13 10:26:00.47	163.69	7.92	-34.0	-47.5	3.8	1.49e+00	0	41	104	0	29	17126
2026-01-13 10:26:01.48	163.70	8.00	-34.0	-47.5	3.8	1.49e+00	0	40	104	0	29	17119
2026-01-13 10:26:02.48	163.71	8.08	-34.0	-47.5	3.8	1.49e+00	0	40	104	0	29	17115
2026-01-13 10:26:03.49	163.72	8.16	-34.0	-47.5	3.8	1.49e+00	0	40	104	0	29	17098
2026-01-13 10:26:04.49	163.73	8.25	-34.0	-47.5	3.8	1.49e+00	0	41	104	0	29	17100
2026-01-13 10:26:05.50	163.74	8.33	-34.0	-47.5	3.8	1.49e+00	0	41	104	0	29	17137
2026-01-13 10:26:06.51	163.76	8.41	-34.0	-47.5	3.8	1.49e+00	0	41	104	0	29	17172
2026-01-13 10:26:07.51	163.77	8.49	-34.0	-47.5	3.8	1.49e+00	0	41	104	0	29	17158
2026-01-13 10:26:08.52	163.78	8.58	-34.0	-47.5	3.8	1.49e+00	0	40	104	0	29	17120
2026-01-13 10:26:09.52	163.79	8.66	-34.0	-47.5	3.8	1.49e+00	0	41	104	0	29	17134
2026-01-13 10:26:10.53	163.80	8.74	-34.0	-47.5	3.8	1.49e+00	0	41	104	0	29	17133
2026-01-13 10:26:11.54	163.81	8.83	-34.0	-47.5	3.8	1.49e+00	0	41	104	0	29	17151
2026-01-13 10:26:12.54	163.83	8.91	-34.0	-47.5	3.8	1.49e+00	0	41	104	0	29	17148
2026-01-13 10:26:13.55	163.84	8.99	-34.0	-47.5	3.8	1.49e+00	0	41	104	0	29	17145
2026-01-13 10:26:14.56	163.85	9.08	-34.0	-47.5	3.8	1.49e+00	0	41	104	0	29	17096
2026-01-13 10:26:15.56	163.86	9.16	-34.0	-47.5	3.8	1.49e+00	0	41	104	0	29	17147
2026-01-13 10:26:16.57	163.88	9.25	-34.0	-47.5	3.8	1.49e+00	0	41	104	0	29	17132
2026-01-13 10:26:17.57	163.89	9.33	-34.0	-47.5	3.8	1.49e+00	0	41	104	0	29	17103
2026-01-13 10:26:18.58	163.90	9.42	-34.0	-47.5	3.8	1.49e+00	0	41	104	0	29	17151
2026-01-13 10:26:19.59	163.91	9.50	-34.0	-47.5	3.8	1.49e+00	0	41	104	0	29	17084
2026-01-13 10:26:20.60	163.92	9.59	-34.0	-47.5	3.8	1.49e+00	0	41	104	0	29	17100
2026-01-13 10:26:21.61	163.94	9.68	-34.0	-47.5	3.8	1.49e+00	0	41	104	0	29	17149
2026-01-13 10:26:22.62	163.95	9.76	-34.0	-47.5	3.8	1.49e+00	0	41	104	0	29	17101
2026-01-13 10:26:23.63	163.96	9.85	-34.0	-47.5	3.8	1.49e+00	0	41	104	0	29	17106
2026-01-13 10:26:24.63	163.97	9.94	-34.0	-47.5	3.8	1.49e+00	0	41	104	0	29	17181
2026-01-13 10:26:25.63	163.99	10.03	-34.0	-47.5	3.8	1.49e+00	0	41	104	0	29	17158
2026-01-13 10:26:26.64	164.00	10.11	-34.0	-47.5	3.8	1.49e+00	0	41	104	0	29	17173
2026-01-13 10:26:27.64	164.01	10.20	-34.0	-47.5	3.8	1.49e+00	0	41	104	0	29	17116
2026-01-13 10:26:28.64	164.03	10.29	-34.0	-47.5	3.8	1.49e+00	0	41	104	0	29	17134
2026-01-13 10:26:29.65	164.04	10.38	-34.0	-47.5	3.8	1.49e+00	0	41	104	0	29	17137
2026-01-13 10:26:30.66	164.05	10.47	-34.0	-47.5	3.8	1.49e+00	0	41	104	0	29	17145
2026-01-13 10:26:31.67	164.06	10.56	-34.0	-47.5	3.8	1.49e+00	0	41	104	0	29	17135
2026-01-13 10:26:32.67	164.08	10.65	-34.0	-47.6	3.8	1.49e+00	0	41	104	0	29	17186
2026-01-13 10:26:33.67	164.09	10.74	-34.0	-47.5	3.8	1.49e+00	0	41	104	0	29	17081
2026-01-13 10:26:34.68	164.10	10.83	-34.0	-47.5	3.8	1.49e+00	0	41	104	0	29	17120
2026-01-13 10:26:35.69	164.12	10.92	-34.0	-47.5	3.8	1.49e+00	0	41	104	0	29	17119
2026-01-13 10:26:36.70	164.13	11.01	-34.0	-47.6	3.8	1.49e+00	0	41	104	0	29	17164
2026-01-13 10:26:37.70	164.14	11.10	-34.0	-47.5	3.8	1.49e+00	0	41	104	0	29	17126
2026-01-13 10:26:38.71	164.16	11.19	-34.0	-47.5	3.8	1.49e+00	0	41	104	0	29	17106
2026-01-13 10:26:39.72	164.17	11.29	-34.0	-47.5	3.8	1.49e+00	0	41	104	0	29	17155
2026-01-13 10:26:40.72	164.19	11.38	-34.0	-47.5	3.8	1.49e+00	0	41	104	0	29	17176
2026-01-13 10:26:41.73	164.20	11.47	-34.0	-47.5	3.8	1.49e+00	0	41	104	0	29	17177
2026-01-13 10:26:42.74	164.21	11.57	-34.0	-47.5	3.8	1.49e+00	0	41	104	0	29	17110
2026-01-13 10:26:43.74	164.23	11.66	-34.0	-47.5	3.8	1.49e+00	0	41	104	0	29	17143
2026-01-13 10:26:44.75	164.24	11.75	-34.0	-47.5	3.8	1.49e+00	0	41	104	0	29	17110
2026-01-13 10:26:45.76	164.25	11.85	-34.0	-47.5	3.8	1.49e+00	0	42	104	0	29	17117
2026-01-13 10:26:46.76	164.27	11.94	-34.0	-47.5	3.8	1.49e+00	0	41	104	0	29	17094
2026-01-13 10:26:47.77	164.28	12.04	-34.0	-47.5	3.8	1.49e+00	0	41	104	0	29	17164
2026-01-13 10:26:48.78	164.30	12.13	-34.0	-47.5	3.8	1.49e+00	0	41	104	0	29	17116
2026-01-13 10:26:49.78	164.31	12.23	-34.0	-47.5	3.8	1.49e+00	0	42	104	0	29	17139
2026-01-13 10:26:50.79	164.33	12.33	-34.0	-47.5	3.8	1.49e+00	0	42	104	0	29	17144
2026-01-13 10:26:51.80	164.34	12.42	-34.0	-47.5	3.8	1.49e+00	0	42	104	0	29	17113
2026-01-13 10:26:52.80	164.35	12.52	-34.0	-47.5	3.8	1.49e+00	0	42	104	0	29	17137
2026-01-13 10:26:53.81	164.37	12.62	-34.0	-47.5	3.8	1.49e+00	0	42	104	0	29	17142
2026-01-13 10:26:54.82	164.38	12.71	-34.0	-47.6	3.8	1.49e+00	0	41	104	0	29	17207
2026-01-13 10:26:55.82	164.40	12.81	-34.0	-47.5	3.8	1.49e+00	0	41	104	0	29	17141
2026-01-13 10:26:56.83	164.41	12.91	-34.0	-47.5	3.8	1.49e+00	0	42	104	0	29	17110
2026-01-13 10:26:57.84	164.43	13.01	-34.0	-47.5	3.8	1.49e+00	0	41	104	0	29	17100
2026-01-13 10:26:58.85	164.44	13.11	-34.0	-47.5	3.8	1.49e+00	0	42	104	0	29	17151
2026-01-13 10:26:59.86	164.46	13.21	-34.0	-47.5	3.8	1.49e+00	0	42	104	0	29	17109
2026-01-13 10:27:00.86	164.47	13.31	-34.0	-47.5	3.8	1.49e+00	0	42	104	0	29	17155
2026-01-13 10:27:01.87	164.49	13.41	-34.0	-47.5	3.8	1.49e+00	0	42	104	0	29	17157
2026-01-13 10:27:02.88	164.50	13.51	-34.0	-47.5	3.8	1.49e+00	0	41	104	0	29	17165
2026-01-13 10:27:03.88	164.52	13.61	-34.0	-47.5	3.8	1.49e+00	0	42	104	0	29	17154
2026-01-13 10:27:04.89	164.53	13.72	-34.0	-47.5	3.8	1.49e+00	0	42	104	0	29	17145
2026-01-13 10:27:05.90	164.55	13.82	-34.0	-47.5	3.8	1.49e+00	0	42	104	0	29	17133
2026-01-13 10:27:06.91	164.57	13.92	-34.0	-47.5	3.8	1.49e+00	0	42	104	0	29	17127
2026-01-13 10:27:07.92	164.58	14.03	-34.0	-47.5	3.8	1.49e+00	0	42	104	0	29	17103
2026-01-13 10:27:08.92	164.60	14.13	-34.0	-47.5	3.8	1.49e+00	0	42	104	0	29	17096
2026-01-13 10:27:09.92	164.61	14.23	-34.0	-47.5	3.8	1.49e+00	0	42	104	0	29	17143
2026-01-13 10:27:10.93	164.63	14.34	-34.0	-47.5	3.8	1.49e+00	0	42	104	0	29	17138
2026-01-13 10:27:11.93	164.64	14.44	-34.0	-47.5	3.8	1.49e+00	0	42	104	0	29	17113
2026-01-13 10:27:12.95	164.66	14.55	-34.0	-47.6	3.8	1.49e+00	0	42	104	0	29	17176
2026-01-13 10:27:13.95	164.68	14.65	-34.0	-47.5	3.8	1.49e+00	0	42	104	0	29	17169
2026-01-13 10:27:14.96	164.69	14.76	-34.0	-47.5	3.8	1.49e+00	0	42	104	0	29	17152
2026-01-13 10:27:15.97	164.71	14.87	-34.0	-47.5	3.8	1.49e+00	0	42	104	0	29	17134
2026-01-13 10:27:16.98	164.73	14.97	-34.0	-47.5	3.8	1.49e+00	0	42	104	0	29	17116
2026-01-13 10:27:17.98	164.74	15.08	-34.0	-47.5	3.8	1.49e+00	0	42	104	0	29	17148
2026-01-13 10:27:18.99	164.76	15.19	-34.0	-47.5	3.8	1.49e+00	0	42	104	0	29	17103
2026-01-13 10:27:20.00	164.78	15.30	-34.0	-47.5	3.8	1.49e+00	0	42	104	0	29	17169
2026-01-13 10:27:21.01	164.79	15.41	-34.0	-47.5	3.8	1.49e+00	0	42	104	0	29	17139
2026-01-13 10:27:22.02	164.81	15.52	-34.0	-47.5	3.8	1.49e+00	0	42	104	0	29	17131
2026-01-13 10:27:23.03	164.83	15.63	-34.0	-47.5	3.8	1.49e+00	0	42	104	0	29	17141
2026-01-13 10:27:24.03	164.85	15.74	-34.0	-47.5	3.8	1.49e+00	0	42	104	0	29	17146
2026-01-13 10:27:25.04	164.86	15.85	-34.0	-47.5	3.8	1.49e+00	0	42	104	0	29	17139
2026-01-13 10:27:26.04	164.88	15.96	-34.0	-47.5	3.8	1.49e+00	0	42	104	0	29	17149
2026-01-13 10:27:27.05	164.90	16.08	-34.0	-47.5	3.8	1.49e+00	0	42	104	0	29	17159
2026-01-13 10:27:28.04	164.91	16.19	-34.0	-47.5	3.8	1.49e+00	0	42	104	0	29	17161
2026-01-13 10:27:29.05	164.93	16.30	-34.0	-47.5	3.8	1.49e+00	0	42	104	0	29	17126
2026-01-13 10:27:30.06	164.95	16.41	-34.0	-47.6	3.8	1.49e+00	0	42	104	0	29	17155
2026-01-13 10:27:31.07	164.97	16.53	-34.0	-47.5	3.8	1.49e+00	0	42	104	0	29	17151
2026-01-13 10:27:32.07	164.99	16.64	-34.0	-47.5	3.8	1.49e+00	0	42	104	0	29	17176
2026-01-13 10:27:33.08	165.00	16.76	-34.0	-47.5	3.8	1.49e+00	0	42	104	0	29	17116
2026-01-13 10:27:34.09	165.02	16.88	-34.0	-47.6	3.8	1.49e+00	0	42	104	0	29	17187
2026-01-13 10:27:35.09	165.04	16.99	-34.0	-47.5	3.8	1.49e+00	0	42	104	0	29	17138
2026-01-13 10:27:36.09	165.06	17.11	-34.0	-47.5	3.8	1.49e+00	0	42	104	0	29	17145
2026-01-13 10:27:37.10	165.08	17.23	-34.0	-47.6	3.8	1.49e+00	0	42	104	0	29	17188
2026-01-13 10:27:38.10	165.10	17.34	-34.0	-47.5	3.8	1.49e+00	0	42	104	0	29	17098
2026-01-13 10:27:39.11	165.12	17.46	-34.0	-47.5	3.8	1.49e+00	0	42	104	0	29	17123
2026-01-13 10:27:40.12	165.14	17.58	-34.0	-47.5	3.8	1.49e+00	0	42	104	0	29	17135
2026-01-13 10:27:41.12	165.15	17.70	-34.0	-47.6	3.8	1.49e+00	0	42	104	0	29	17172
2026-01-13 10:27:42.12	165.17	17.82	-34.0	-47.6	3.8	1.49e+00	0	42	104	0	29	17187
2026-01-13 10:27:43.13	165.19	17.94	-34.0	-47.5	3.8	1.49e+00	0	42	104	0	29	17143
2026-01-13 10:27:44.13	165.21	18.06	-34.0	-47.5	3.8	1.49e+00	0	42	104	0	29	17153
2026-01-13 10:27:45.14	165.23	18.19	-34.0	-47.5	3.8	1.49e+00	0	42	104	0	29	17148
2026-01-13 10:27:46.15	165.25	18.31	-34.0	-47.6	3.8	1.49e+00	0	42	104	0	29	17191
2026-01-13 10:27:47.16	165.27	18.43	-34.0	-47.5	3.8	1.49e+00	0	42	104	0	29	17113
2026-01-13 10:27:48.16	165.29	18.56	-34.0	-47.5	3.8	1.49e+00	0	42	104	0	29	17124
2026-01-13 10:27:49.17	165.31	18.68	-34.0	-47.6	3.8	1.49e+00	0	42	104	0	29	17220
2026-01-13 10:27:50.18	165.33	18.81	-34.0	-47.5	3.8	1.49e+00	0	42	104	0	29	17129
2026-01-13 10:27:51.19	165.35	18.93	-34.0	-47.5	3.8	1.49e+00	0	42	104	0	29	17149
2026-01-13 10:27:52.19	165.37	19.06	-34.0	-47.5	3.8	1.49e+00	0	42	104	0	29	17108
2026-01-13 10:27:53.20	165.40	19.19	-34.0	-47.5	3.8	1.49e+00	0	42	104	0	29	17113
2026-01-13 10:27:54.20	165.42	19.32	-34.0	-47.5	3.8	1.49e+00	0	42	104	0	29	17125
2026-01-13 10:27:55.21	165.44	19.45	-34.0	-47.6	3.8	1.49e+00	0	42	104	0	29	17182
2026-01-13 10:27:56.21	165.46	19.57	-34.0	-47.5	3.8	1.49e+00	0	42	104	0	29	17125
2026-01-13 10:27:57.22	165.48	19.70	-34.0	-47.6	3.8	1.49e+00	0	42	104	0	29	17172
2026-01-13 10:27:58.23	165.50	19.84	-34.0	-47.6	3.8	1.49e+00	0	42	104	0	29	17173
2026-01-13 10:27:59.24	165.52	19.97	-34.0	-47.5	3.8	1.49e+00	0	42	104	0	29	17168
2026-01-13 10:28:00.24	165.54	20.10	-34.0	-47.6	3.8	1.49e+00	0	42	104	0	29	17164
2026-01-13 10:28:01.24	165.57	20.23	-34.0	-47.6	3.8	1.49e+00	0	42	104	0	29	17176
2026-01-13 10:28:02.25	165.59	20.36	-34.0	-47.5	3.8	1.49e+00	0	42	104	0	29	17135
2026-01-13 10:28:03.26	165.61	20.50	-34.0	-47.5	3.8	1.49e+00	0	42	104	0	29	17144
2026-01-13 10:28:04.27	165.63	20.63	-34.0	-47.5	3.8	1.49e+00	0	42	104	0	29	17130
2026-01-13 10:28:05.27	165.66	20.77	-34.0	-47.6	3.8	1.49e+00	0	42	104	0	29	17180
2026-01-13 10:28:06.27	165.68	20.90	-34.0	-47.6	3.8	1.49e+00	0	42	104	0	29	17226
2026-01-13 10:28:07.27	165.70	21.04	-34.0	-47.5	3.8	1.49e+00	0	42	104	0	29	17147
2026-01-13 10:28:08.28	165.73	21.18	-34.0	-47.6	3.8	1.49e+00	0	42	104	0	29	17187
2026-01-13 10:28:09.28	165.75	21.32	-34.0	-47.6	3.8	1.49e+00	0	42	104	0	29	17175
2026-01-13 10:28:10.29	165.77	21.46	-34.0	-47.5	3.8	1.49e+00	0	42	104	0	29	17137
2026-01-13 10:28:11.30	165.80	21.60	-34.0	-47.5	3.8	1.49e+00	0	42	104	0	29	17093
2026-01-13 10:28:12.31	165.82	21.74	-34.0	-47.6	3.8	1.49e+00	0	42	104	0	29	17148
2026-01-13 10:28:13.32	165.84	21.88	-34.0	-47.5	3.8	1.49e+00	0	42	104	0	29	17146
2026-01-13 10:28:14.33	165.87	22.02	-34.0	-47.6	3.8	1.49e+00	0	42	104	0	29	17167
2026-01-13 10:28:15.33	165.89	22.17	-34.0	-47.5	3.8	1.49e+00	0	42	104	0	29	17142
2026-01-13 10:28:16.33	165.92	22.31	-34.0	-47.6	3.8	1.49e+00	0	42	104	0	29	17178
2026-01-13 10:28:17.33	165.94	22.45	-34.0	-47.5	3.8	1.49e+00	0	42	104	0	29	17137
2026-01-13 10:28:18.35	165.97	22.60	-34.0	-47.6	3.8	1.49e+00	0	42	104	0	29	17174
2026-01-13 10:28:19.35	165.99	22.75	-34.0	-47.6	3.8	1.49e+00	0	42	104	0	29	17173
2026-01-13 10:28:20.36	166.02	22.90	-34.0	-47.5	3.8	1.49e+00	0	42	104	0	29	17104
2026-01-13 10:28:21.36	166.04	23.04	-34.0	-47.6	3.8	1.49e+00	0	42	104	0	29	17177
2026-01-13 10:28:22.37	166.07	23.19	-34.0	-47.6	3.8	1.49e+00	0	42	104	0	29	17177
2026-01-13 10:28:23.37	166.10	23.34	-34.0	-47.6	3.8	1.49e+00	0	42	104	0	29	17159
2026-01-13 10:28:24.38	166.12	23.49	-34.0	-47.6	3.8	1.49e+00	0	42	104	0	29	17256
2026-01-13 10:28:25.37	166.15	23.64	-34.0	-47.6	3.8	1.49e+00	0	42	104	0	29	17214
2026-01-13 10:28:26.38	166.18	23.80	-34.0	-47.6	3.8	1.49e+00	0	42	104	0	29	17210
2026-01-13 10:28:27.38	166.20	23.95	-34.0	-47.6	3.8	1.49e+00	0	42	104	0	29	17163
2026-01-13 10:28:28.39	166.23	24.10	-34.0	-47.6	3.8	1.49e+00	0	42	104	0	29	17195
2026-01-13 10:28:29.40	166.26	24.26	-34.0	-47.6	3.8	1.49e+00	0	42	104	0	29	17156
2026-01-13 10:28:30.41	166.29	24.42	-34.0	-47.6	3.8	1.49e+00	0	42	104	0	29	17158
2026-01-13 10:28:31.42	166.31	24.57	-34.0	-47.6	3.8	1.49e+00	0	42	104	0	29	17157
2026-01-13 10:28:32.43	166.34	24.73	-34.0	-47.6	3.8	1.49e+00	0	42	104	0	29	17172
2026-01-13 10:28:33.44	166.37	24.89	-34.0	-47.6	3.8	1.49e+00	0	42	104	0	29	17162
2026-01-13 10:28:34.44	166.40	25.05	-34.0	-47.6	3.8	1.49e+00	0	42	104	0	29	17203
2026-01-13 10:28:35.44	166.43	25.21	-34.0	-47.6	3.8	1.49e+00	0	42	104	0	29	17166
2026-01-13 10:28:36.45	166.46	25.37	-34.0	-47.6	3.8	1.49e+00	0	42	104	0	29	17194
2026-01-13 10:28:37.45	166.49	25.53	-34.0	-47.6	3.8	1.49e+00	0	42	104	0	29	17171
2026-01-13 10:28:38.46	166.52	25.70	-34.0	-47.6	3.8	1.49e+00	0	42	104	0	29	17170
2026-01-13 10:28:39.46	166.55	25.86	-34.0	-47.6	3.8	1.49e+00	0	42	104	0	29	17151
2026-01-13 10:28:40.46	166.58	26.03	-34.0	-47.6	3.8	1.49e+00	0	42	104	0	29	17196
2026-01-13 10:28:41.46	166.61	26.19	-34.0	-47.6	3.8	1.49e+00	0	42	104	0	29	17155
2026-01-13 10:28:42.47	166.64	26.36	-34.0	-47.6	3.8	1.49e+00	0	42	104	0	29	17173
2026-01-13 10:28:43.48	166.67	26.53	-34.0	-47.6	3.8	1.49e+00	0	42	104	0	29	17165
2026-01-13 10:28:44.48	166.70	26.70	-34.0	-47.6	3.8	1.49e+00	0	42	104	0	29	17174
2026-01-13 10:28:45.49	166.73	26.87	-34.0	-47.5	3.8	1.49e+00	0	42	104	0	29	17123
2026-01-13 10:28:46.50	166.77	27.05	-34.0	-47.6	3.8	1.49e+00	0	42	104	0	29	17158
2026-01-13 10:28:47.51	166.80	27.22	-34.0	-47.6	3.8	1.49e+00	0	42	104	0	29	17178
2026-01-13 10:28:48.51	166.83	27.39	-34.0	-47.6	3.8	1.49e+00	0	42	104	0	29	17167
2026-01-13 10:28:49.52	166.87	27.57	-34.0	-47.6	3.8	1.49e+00	0	42	104	0	29	17191
2026-01-13 10:28:50.52	166.90	27.75	-34.0	-47.6	3.8	1.49e+00	0	42	104	0	29	17190
2026-01-13 10:28:51.53	166.93	27.92	-34.0	-47.6	3.8	1.49e+00	0	42	104	0	29	17171
2026-01-13 10:28:52.54	166.97	28.10	-34.0	-47.6	3.8	1.49e+00	0	42	104	0	29	17180
2026-01-13 10:28:53.55	167.00	28.28	-34.0	-47.6	3.8	1.49e+00	0	42	104	0	29	17193
2026-01-13 10:28:54.55	167.04	28.47	-34.0	-47.6	3.8	1.49e+00	0	42	104	0	29	17165
2026-01-13 10:28:55.56	167.07	28.65	-34.0	-47.6	3.8	1.49e+00	0	42	104	0	29	17164
2026-01-13 10:28:56.56	167.11	28.83	-34.0	-47.6	3.8	1.49e+00	0	42	104	0	29	17178
2026-01-13 10:28:57.57	167.14	29.02	-34.0	-47.6	3.8	1.49e+00	0	42	104	0	29	17154
2026-01-13 10:28:58.58	167.18	29.20	-34.0	-47.5	3.8	1.49e+00	0	42	104	0	29	17116
2026-01-13 10:28:59.59	167.22	29.39	-34.0	-47.6	3.8	1.49e+00	0	42	104	0	29	17193
2026-01-13 10:29:00.60	167.25	29.58	-34.0	-47.6	3.8	1.49e+00	0	42	104	0	29	17158
2026-01-13 10:29:01.60	167.29	29.77	-34.0	-47.6	3.8	1.49e+00	0	42	104	0	29	17203
2026-01-13 10:29:02.60	167.33	29.96	-34.0	-47.6	3.8	1.49e+00	0	42	104	0	29	17211
2026-01-13 10:29:03.61	167.37	30.15	-34.0	-47.6	3.8	1.49e+00	0	42	104	0	29	17183
2026-01-13 10:29:04.62	167.41	30.35	-34.0	-47.6	3.8	1.49e+00	0	42	104	0	29	17142
2026-01-13 10:29:05.63	167.44	30.54	-34.0	-47.6	3.8	1.49e+00	0	42	104	0	29	17167
2026-01-13 10:29:06.64	167.48	30.74	-34.0	-47.6	3.8	1.49e+00	0	42	104	0	29	17209
2026-01-13 10:29:07.63	167.52	30.93	-34.0	-47.6	3.8	1.49e+00	0	42	104	0	29	17234
2026-01-13 10:29:08.64	167.56	31.13	-34.0	-47.6	3.8	1.49e+00	0	42	104	0	29	17140
2026-01-13 10:29:09.65	167.61	31.33	-34.0	-47.6	3.8	1.49e+00	0	42	104	0	29	17172
2026-01-13 10:29:10.65	167.65	31.53	-34.0	-47.6	3.8	1.49e+00	0	42	104	0	29	17150
2026-01-13 10:29:11.66	167.69	31.74	-34.0	-47.6	3.8	1.49e+00	0	42	104	0	29	17188
2026-01-13 10:29:12.67	167.73	31.94	-34.0	-47.6	3.8	1.49e+00	0	42	104	0	29	17162
2026-01-13 10:29:13.67	167.77	32.15	-34.0	-47.6	3.8	1.49e+00	0	42	104	0	29	17167
2026-01-13 10:29:14.68	167.82	32.36	-34.0	-47.6	3.8	1.49e+00	0	42	104	0	29	17160
2026-01-13 10:29:15.68	167.86	32.56	-34.0	-47.6	3.8	1.49e+00	0	42	104	0	29	17178
2026-01-13 10:29:16.69	167.91	32.77	-34.0	-47.6	3.8	1.49e+00	0	42	104	0	29	17145
2026-01-13 10:29:17.70	167.95	32.99	-34.0	-47.6	3.8	1.49e+00	0	42	104	0	29	17222
2026-01-13 10:29:18.71	168.00	33.20	-34.0	-47.6	3.8	1.49e+00	0	42	104	0	29	17210
2026-01-13 10:29:19.70	168.04	33.41	-34.0	-47.5	3.8	1.49e+00	0	42	104	0	29	17141
2026-01-13 10:29:20.71	168.09	33.63	-34.0	-47.6	3.8	1.49e+00	0	42	104	0	29	17201
2026-01-13 10:29:21.72	168.14	33.85	-34.0	-47.5	3.8	1.49e+00	0	42	104	0	29	17145
2026-01-13 10:29:22.72	168.18	34.06	-34.0	-47.6	3.8	1.49e+00	0	42	104	0	29	17174
2026-01-13 10:29:23.73	168.23	34.29	-34.0	-47.6	3.8	1.49e+00	0	42	104	0	29	17146
2026-01-13 10:29:24.74	168.28	34.51	-34.0	-47.6	3.8	1.49e+00	0	43	104	0	29	17155
2026-01-13 10:29:25.74	168.33	34.73	-34.0	-47.6	3.8	1.49e+00	0	42	104	0	29	17189
2026-01-13 10:29:26.73	168.38	34.95	-34.0	-47.6	3.8	1.49e+00	0	42	104	0	29	17220
2026-01-13 10:29:27.74	168.43	35.18	-34.0	-47.6	3.8	1.49e+00	0	42	104	0	29	17185
2026-01-13 10:29:28.75	168.48	35.41	-34.0	-47.6	3.8	1.49e+00	0	42	104	0	29	17156
2026-01-13 10:29:29.75	168.53	35.64	-34.0	-47.6	3.8	1.49e+00	0	42	104	0	29	17180
2026-01-13 10:29:30.76	168.59	35.87	-34.0	-47.6	3.8	1.49e+00	0	42	104	0	29	17166
2026-01-13 10:29:31.77	168.64	36.11	-34.0	-47.6	3.8	1.49e+00	0	42	104	0	29	17162
2026-01-13 10:29:32.78	168.70	36.34	-34.0	-47.6	3.8	1.49e+00	0	42	104	0	29	17172
2026-01-13 10:29:33.78	168.75	36.58	-34.0	-47.6	3.8	1.49e+00	0	42	104	0	29	17197
2026-01-13 10:29:34.79	168.81	36.82	-34.0	-47.6	3.8	1.49e+00	0	42	104	0	29	17147
2026-01-13 10:29:35.79	168.86	37.05	-34.0	-47.6	3.8	1.49e+00	0	42	104	0	29	17237
2026-01-13 10:29:36.80	168.92	37.30	-34.0	-47.6	3.8	1.49e+00	0	42	104	0	29	17154
2026-01-13 10:29:37.81	168.98	37.54	-34.0	-47.6	3.8	1.49e+00	0	42	104	0	29	17173
2026-01-13 10:29:38.81	169.04	37.79	-34.0	-47.6	3.8	1.49e+00	0	42	104	0	29	17199
2026-01-13 10:29:39.81	169.10	38.03	-34.0	-47.6	3.8	1.49e+00	0	42	104	0	29	17191
2026-01-13 10:29:40.81	169.16	38.28	-34.0	-47.6	3.8	1.49e+00	0	42	104	0	29	17210
2026-01-13 10:29:41.82	169.22	38.53	-34.0	-47.6	3.8	1.49e+00	0	42	104	0	29	17186
2026-01-13 10:29:42.82	169.28	38.78	-34.0	-47.6	3.8	1.49e+00	0	42	104	0	29	17174
2026-01-13 10:29:43.83	169.34	39.04	-34.0	-47.6	3.8	1.49e+00	0	42	104	0	29	17218
2026-01-13 10:29:44.83	169.41	39.29	-34.0	-47.5	3.8	1.49e+00	0	42	104	0	29	17141
2026-01-13 10:29:45.84	169.47	39.55	-34.0	-47.6	3.8	1.49e+00	0	42	104	0	29	17164
2026-01-13 10:29:46.85	169.54	39.81	-34.0	-47.5	3.8	1.49e+00	0	42	104	0	29	17132
2026-01-13 10:29:47.85	169.61	40.07	-34.0	-47.6	3.8	1.49e+00	0	42	104	0	29	17176
2026-01-13 10:29:48.86	169.68	40.34	-34.0	-47.6	3.8	1.49e+00	0	42	104	0	29	17174
2026-01-13 10:29:49.87	169.75	40.61	-34.0	-47.6	3.8	1.49e+00	0	42	104	0	29	17186
2026-01-13 10:29:50.87	169.82	40.87	-34.0	-47.6	3.8	1.49e+00	0	42	104	0	29	17171
2026-01-13 10:29:51.88	169.89	41.14	-34.0	-47.5	3.8	1.49e+00	0	42	104	0	29	17150
2026-01-13 10:29:52.89	169.96	41.41	-34.0	-47.6	3.8	1.49e+00	0	42	104	0	29	17215
2026-01-13 10:29:53.90	170.04	41.69	-34.0	-47.6	3.8	1.49e+00	0	43	104	0	29	17191
2026-01-13 10:29:54.90	170.11	41.96	-34.0	-47.6	3.8	1.49e+00	0	42	104	0	29	17197
2026-01-13 10:29:55.91	170.19	42.24	-34.0	-47.6	3.8	1.49e+00	0	42	104	0	29	17165
2026-01-13 10:29:56.92	170.27	42.52	-34.0	-47.5	3.8	1.49e+00	0	42	104	0	29	17132
2026-01-13 10:29:57.92	170.34	42.80	-34.0	-47.6	3.8	1.49e+00	0	42	104	0	29	17220
2026-01-13 10:29:58.93	170.42	43.09	-34.0	-47.6	3.8	1.49e+00	0	42	104	0	29	17178
2026-01-13 10:29:59.94	170.51	43.38	-34.0	-47.6	3.8	1.49e+00	0	42	104	0	29	17169
2026-01-13 10:30:00.95	170.59	43.67	-34.0	-47.6	3.8	1.49e+00	0	42	104	0	29	17191
2026-01-13 10:30:01.95	170.67	43.95	-34.0	-47.6	3.8	1.49e+00	0	42	104	0	29	17187
2026-01-13 10:30:02.95	170.76	44.24	-34.0	-47.6	3.8	1.49e+00	0	42	104	0	29	17200
2026-01-13 10:30:03.96	170.85	44.54	-34.0	-47.6	3.8	1.49e+00	0	42	104	0	29	17220
2026-01-13 10:30:04.96	170.94	44.83	-34.0	-47.6	3.8	1.49e+00	0	42	104	0	29	17202
2026-01-13 10:30:05.97	171.03	45.13	-34.0	-47.6	3.8	1.49e+00	0	42	104	0	29	17136
2026-01-13 10:30:06.98	171.12	45.44	-34.0	-47.6	3.8	1.49e+00	0	42	104	0	29	17199
2026-01-13 10:30:07.98	171.21	45.74	-34.0	-47.6	3.8	1.49e+00	0	42	104	0	29	17200
2026-01-13 10:30:08.99	171.31	46.04	-34.0	-47.6	3.8	1.49e+00	0	42	104	0	29	17155
2026-01-13 10:30:09.99	171.41	46.35	-34.0	-47.6	3.8	1.49e+00	0	43	104	0	29	17184
2026-01-13 10:30:11.00	171.51	46.66	-34.0	-47.6	3.8	1.49e+00	0	43	104	0	29	17180
2026-01-13 10:30:12.00	171.61	46.97	-34.0	-47.6	3.8	1.49e+00	0	42	104	0	29	17246
2026-01-13 10:30:13.01	171.71	47.29	-34.0	-47.6	3.8	1.49e+00	0	43	104	0	29	17227
2026-01-13 10:30:14.01	171.82	47.60	-34.0	-47.6	3.8	1.49e+00	0	42	104	0	29	17196
2026-01-13 10:30:15.02	171.93	47.92	-34.0	-47.5	3.8	1.49e+00	0	42	104	0	29	17140
2026-01-13 10:30:16.02	172.03	48.24	-34.0	-47.6	3.8	1.49e+00	0	42	104	0	29	17164
2026-01-13 10:30:17.02	172.15	48.56	-34.0	-47.6	3.8	1.49e+00	0	42	104	0	29	17174
2026-01-13 10:30:18.03	172.26	48.89	-34.0	-47.6	3.8	1.49e+00	0	43	104	0	29	17164
2026-01-13 10:30:19.04	172.38	49.22	-34.0	-47.6	3.8	1.49e+00	0	42	104	0	29	17195
2026-01-13 10:30:20.05	172.50	49.55	-34.0	-47.6	3.8	1.49e+00	0	42	104	0	29	17208
2026-01-13 10:30:21.05	172.62	49.88	-34.0	-47.6	3.8	1.49e+00	0	43	104	0	29	17231
2026-01-13 10:30:22.05	172.74	50.21	-34.0	-47.6	3.8	1.49e+00	0	42	104	0	29	17196
2026-01-13 10:30:23.05	172.87	50.55	-34.0	-47.6	3.8	1.49e+00	0	42	104	0	29	17165
2026-01-13 10:30:24.06	173.00	50.89	-34.0	-47.6	3.8	1.49e+00	0	42	104	0	29	17168
2026-01-13 10:30:25.07	173.13	51.23	-34.0	-47.6	3.8	1.49e+00	0	42	104	0	29	17176
2026-01-13 10:30:26.07	173.27	51.57	-34.0	-47.6	3.8	1.49e+00	0	42	104	0	29	17192
2026-01-13 10:30:27.08	173.41	51.92	-34.0	-47.6	3.8	1.49e+00	0	42	104	0	29	17191
2026-01-13 10:30:28.08	173.55	52.27	-34.0	-47.6	3.8	1.49e+00	0	42	104	0	29	17174
2026-01-13 10:30:29.08	173.69	52.62	-34.0	-47.6	3.8	1.49e+00	0	42	104	0	29	17191
2026-01-13 10:30:30.09	173.84	52.97	-34.0	-47.6	3.8	1.49e+00	0	42	104	0	29	17194
2026-01-13 10:30:31.10	173.99	53.33	-34.0	-47.6	3.8	1.49e+00	0	42	104	0	29	17180
2026-01-13 10:30:32.10	174.15	53.69	-34.0	-47.6	3.8	1.49e+00	0	42	104	0	29	17243
2026-01-13 10:30:33.11	174.31	54.05	-34.0	-47.6	3.8	1.49e+00	0	42	104	0	29	17223
2026-01-13 10:30:34.11	174.47	54.41	-34.0	-47.6	3.8	1.49e+00	0	42	104	0	29	17165
2026-01-13 10:30:35.12	174.64	54.77	-34.0	-47.6	3.8	1.49e+00	0	42	104	0	29	17181
2026-01-13 10:30:36.12	174.81	55.14	-34.0	-47.6	3.8	1.49e+00	0	42	104	0	29	17145
2026-01-13 10:30:37.12	174.98	55.51	-34.0	-47.6	3.8	1.49e+00	0	43	104	0	29	17151
2026-01-13 10:30:38.13	175.17	55.88	-34.0	-47.6	3.8	1.49e+00	0	42	104	0	29	17242
2026-01-13 10:30:39.14	175.35	56.26	-34.0	-47.6	3.8	1.49e+00	0	42	104	0	29	17223
2026-01-13 10:30:40.15	175.54	56.63	-34.0	-47.6	3.8	1.49e+00	0	43	104	0	29	17181
2026-01-13 10:30:41.15	175.74	57.01	-34.0	-47.6	3.8	1.49e+00	0	42	104	0	29	17218
2026-01-13 10:30:42.16	175.94	57.39	-34.0	-47.6	3.8	1.49e+00	0	42	104	0	29	17167
2026-01-13 10:30:43.17	176.15	57.78	-34.0	-47.6	3.8	1.49e+00	0	42	104	0	29	17204
2026-01-13 10:30:44.18	176.36	58.16	-34.0	-47.6	3.8	1.49e+00	0	42	104	0	29	17188
2026-01-13 10:30:45.18	176.58	58.55	-34.0	-47.6	3.8	1.49e+00	0	42	104	0	29	17150
2026-01-13 10:30:46.19	176.81	58.94	-34.0	-47.6	3.8	1.49e+00	0	43	104	0	29	17162
2026-01-13 10:30:47.20	177.04	59.33	-34.0	-47.5	3.8	1.49e+00	0	42	104	0	29	17128
2026-01-13 10:30:48.20	177.28	59.72	-34.0	-47.6	3.8	1.49e+00	0	43	104	0	29	17176
2026-01-13 10:30:49.21	177.53	60.12	-34.0	-47.6	3.8	1.49e+00	0	42	104	0	29	17160
2026-01-13 10:30:50.22	177.78	60.52	-34.0	-47.6	3.8	1.49e+00	0	43	104	0	29	17161
2026-01-13 10:30:51.23	178.04	60.92	-34.0	-47.5	3.8	1.49e+00	0	42	104	0	29	17112
2026-01-13 10:30:52.23	178.31	61.32	-34.0	-47.6	3.8	1.49e+00	0	42	104	0	29	17166
2026-01-13 10:30:53.24	178.59	61.73	-34.0	-47.6	3.8	1.49e+00	0	42	104	0	29	17149
2026-01-13 10:30:54.25	178.88	62.13	-34.0	-47.6	3.8	1.49e+00	0	43	104	0	29	17180
2026-01-13 10:30:55.26	179.18	62.54	-34.0	-47.5	3.8	1.49e+00	0	42	104	0	29	17131
2026-01-13 10:30:56.26	179.49	62.95	-34.0	-47.6	3.8	1.49e+00	0	42	104	0	29	17208
2026-01-13 10:30:57.27	179.81	63.36	-34.0	-47.6	3.8	1.49e+00	0	42	104	0	29	17190
2026-01-13 10:30:58.28	180.14	63.78	-34.0	-47.6	3.8	1.49e+00	0	42	104	0	29	17207
2026-01-13 10:30:59.29	180.48	64.19	-34.0	-47.6	3.8	1.49e+00	0	42	104	0	29	17155
2026-01-13 10:31:00.29	180.83	64.60	-34.0	-47.6	3.8	1.49e+00	0	43	104	0	29	17217
2026-01-13 10:31:01.30	181.20	65.02	-34.0	-47.6	3.8	1.49e+00	0	42	104	0	29	17173
2026-01-13 10:31:02.29	181.58	65.43	-34.0	-47.6	3.8	1.49e+00	0	42	104	0	29	17160
2026-01-13 10:31:03.30	181.97	65.86	-34.0	-47.5	3.8	1.49e+00	0	42	104	0	29	17139
2026-01-13 10:31:04.32	182.39	66.28	-34.0	-47.5	3.8	1.49e+00	0	42	104	0	29	17099
2026-01-13 10:31:05.32	182.81	66.70	-34.0	-47.6	3.8	1.49e+00	0	42	104	0	29	17177
2026-01-13 10:31:06.33	183.26	67.13	-34.0	-47.6	3.8	1.49e+00	0	43	104	0	29	17187
2026-01-13 10:31:07.34	183.72	67.55	-34.0	-47.6	3.8	1.49e+00	0	42	104	0	29	17199
2026-01-13 10:31:08.35	184.21	67.98	-34.0	-47.6	3.8	1.49e+00	0	42	104	0	29	17187
2026-01-13 10:31:09.36	184.71	68.40	-34.0	-47.6	3.8	1.49e+00	0	42	104	0	29	17181
2026-01-13 10:31:10.36	185.23	68.83	-34.0	-47.6	3.8	1.49e+00	0	43	104	0	29	17147
2026-01-13 10:31:11.36	185.77	69.25	-34.0	-47.6	3.8	1.49e+00	0	42	104	0	29	17221
2026-01-13 10:31:12.37	186.35	69.68	-34.0	-47.6	3.8	1.49e+00	0	43	104	0	29	17214
2026-01-13 10:31:13.38	186.95	70.10	-34.0	-47.5	3.8	1.49e+00	0	42	104	0	29	17158
2026-01-13 10:31:14.38	187.57	70.53	-34.0	-47.5	3.8	1.49e+00	0	43	104	0	29	17150
2026-01-13 10:31:15.39	188.22	70.95	-34.0	-47.6	3.8	1.49e+00	0	43	104	0	29	17225
2026-01-13 10:31:16.40	188.91	71.38	-34.0	-47.6	3.8	1.49e+00	0	43	104	0	29	17217
2026-01-13 10:31:17.40	189.63	71.80	-34.0	-47.6	3.8	1.49e+00	0	42	104	0	29	17244
2026-01-13 10:31:18.41	190.39	72.22	-34.0	-47.6	3.8	1.49e+00	0	42	104	0	29	17187
2026-01-13 10:31:19.42	191.19	72.64	-34.0	-47.6	3.8	1.49e+00	0	43	104	0	29	17222
2026-01-13 10:31:20.42	192.02	73.06	-34.0	-47.6	3.8	1.49e+00	0	43	104	0	29	17168
2026-01-13 10:31:21.43	192.90	73.48	-34.0	-47.6	3.8	1.49e+00	0	42	104	0	29	17205
2026-01-13 10:31:22.44	193.83	73.90	-34.0	-47.6	3.8	1.49e+00	0	42	104	0	29	17159
2026-01-13 10:31:23.44	194.80	74.31	-34.0	-47.6	3.8	1.49e+00	0	42	104	0	29	17172
2026-01-13 10:31:24.45	195.84	74.72	-34.0	-47.6	3.8	1.49e+00	0	43	104	0	29	17154
2026-01-13 10:31:25.46	196.94	75.12	-34.0	-47.6	3.8	1.49e+00	0	43	104	0	29	17154
2026-01-13 10:31:26.46	198.08	75.52	-34.0	-47.6	3.8	1.49e+00	0	42	104	0	29	17160
2026-01-13 10:31:27.47	199.31	75.92	-34.0	-47.5	3.8	1.49e+00	0	43	104	0	29	17149
2026-01-13 10:31:28.48	200.61	76.31	-34.0	-47.6	3.8	1.49e+00	0	43	104	0	29	17188
2026-01-13 10:31:29.48	201.97	76.69	-34.0	-47.6	3.8	1.49e+00	0	42	104	0	29	17178
2026-01-13 10:31:30.49	203.43	77.07	-34.0	-47.6	3.8	1.49e+00	0	43	104	0	29	17197
2026-01-13 10:31:31.49	204.97	77.44	-34.0	-47.5	3.8	1.49e+00	0	43	104	0	29	17112
2026-01-13 10:31:32.50	206.61	77.80	-34.0	-47.6	3.8	1.49e+00	0	43	104	0	29	17168
2026-01-13 10:31:33.51	208.36	78.15	-34.0	-47.5	3.8	1.49e+00	0	42	104	0	29	17136
2026-01-13 10:31:34.51	210.19	78.49	-34.0	-47.6	3.8	1.49e+00	0	43	104	0	29	17144
2026-01-13 10:31:35.52	212.16	78.82	-34.0	-47.6	3.8	1.49e+00	0	42	104	0	29	17205
2026-01-13 10:31:36.52	214.22	79.14	-34.0	-47.6	3.8	1.49e+00	0	43	104	0	29	17161
2026-01-13 10:31:37.52	216.41	79.44	-34.0	-47.6	3.8	1.49e+00	0	43	104	0	29	17173
2026-01-13 10:31:38.53	218.75	79.72	-34.0	-47.6	3.8	1.49e+00	0	43	104	0	29	17203
2026-01-13 10:31:39.53	221.20	79.99	-34.0	-47.6	3.8	1.49e+00	0	43	104	0	29	17198
2026-01-13 10:31:40.52	223.75	80.24	-34.0	-47.6	3.8	1.49e+00	0	43	104	0	29	17191
2026-01-13 10:31:41.52	226.45	80.47	-34.0	-47.6	3.8	1.49e+00	0	43	104	0	29	17173
2026-01-13 10:31:42.52	229.29	80.68	-34.0	-47.6	3.8	1.49e+00	0	43	104	0	29	17162
2026-01-13 10:31:43.53	232.28	80.86	-34.0	-47.6	3.8	1.49e+00	0	43	104	0	29	17156
2026-01-13 10:31:44.54	235.39	81.02	-34.0	-47.6	3.8	1.49e+00	0	42	104	0	29	17184
2026-01-13 10:31:45.54	238.57	81.16	-34.0	-47.6	3.8	1.49e+00	0	42	104	0	29	17212
2026-01-13 10:31:46.55	241.87	81.26	-34.0	-47.6	3.8	1.49e+00	0	42	104	0	29	17209
2026-01-13 10:31:47.56	245.24	81.34	-34.0	-47.6	3.8	1.49e+00	0	42	104	0	29	17160
2026-01-13 10:31:48.57	248.66	81.39	-34.0	-47.6	3.8	1.49e+00	0	43	104	0	29	17203
2026-01-13 10:31:49.57	252.07	81.40	-34.0	-47.5	3.8	1.49e+00	0	43	104	0	29	17113
2026-01-13 10:31:50.58	255.52	81.39	-34.0	-47.5	3.8	1.49e+00	0	43	104	0	29	17096
2026-01-13 10:31:51.58	258.91	81.35	-34.0	-47.5	3.8	1.49e+00	0	42	104	0	29	17102
2026-01-13 10:31:52.59	262.28	81.27	-34.0	-47.5	3.8	1.49e+00	0	42	104	0	29	17087
2026-01-13 10:31:53.59	265.56	81.17	-34.0	-47.6	3.8	1.49e+00	0	43	104	0	29	17197
2026-01-13 10:31:54.59	268.75	81.04	-34.0	-47.5	3.8	1.49e+00	0	42	104	0	29	17109
2026-01-13 10:31:55.60	271.87	80.88	-34.0	-47.5	3.8	1.49e+00	0	43	104	0	29	17078
2026-01-13 10:31:56.61	274.87	80.70	-34.0	-47.6	3.8	1.49e+00	0	42	104	0	29	17162
2026-01-13 10:31:57.61	277.72	80.49	-34.0	-47.5	3.8	1.49e+00	0	42	104	0	29	17135
2026-01-13 10:31:58.62	280.47	80.26	-34.0	-47.6	3.8	1.49e+00	0	43	104	0	29	17154
2026-01-13 10:31:59.63	283.08	80.01	-34.0	-47.6	3.8	1.49e+00	0	42	104	0	29	17184
2026-01-13 10:32:00.64	285.56	79.74	-34.0	-47.6	3.8	1.49e+00	0	43	104	0	29	17184
2026-01-13 10:32:01.64	287.88	79.46	-34.0	-47.6	3.8	1.49e+00	0	43	104	0	29	17164
2026-01-13 10:32:02.64	290.08	79.16	-34.0	-47.6	3.8	1.49e+00	0	43	104	0	29	17142
2026-01-13 10:32:03.65	292.17	78.85	-34.0	-47.6	3.8	1.49e+00	0	43	104	0	29	17151
2026-01-13 10:32:04.66	294.15	78.52	-34.0	-47.6	3.8	1.49e+00	0	43	104	0	29	17213
2026-01-13 10:32:05.67	296.01	78.18	-34.0	-47.6	3.8	1.49e+00	0	43	104	0	29	17146
2026-01-13 10:32:06.67	297.74	77.83	-34.0	-47.6	3.8	1.49e+00	0	43	104	0	29	17125
2026-01-13 10:32:07.67	299.38	77.47	-34.0	-47.6	3.8	1.49e+00	0	42	104	0	29	17198
2026-01-13 10:32:08.68	300.93	77.10	-34.0	-47.6	3.8	1.49e+00	0	43	104	0	29	17235
2026-01-13 10:32:09.68	302.38	76.73	-34.0	-47.6	3.8	1.49e+00	0	42	104	0	29	17209
2026-01-13 10:32:10.69	303.77	76.34	-34.0	-47.6	3.8	1.49e+00	0	42	104	0	29	17181
2026-01-13 10:32:11.70	305.07	75.95	-34.0	-47.6	3.8	1.49e+00	0	43	104	0	29	17235
2026-01-13 10:32:12.71	306.30	75.55	-34.0	-47.6	3.8	1.49e+00	0	43	104	0	29	17218
2026-01-13 10:32:13.72	307.46	75.15	-34.0	-47.6	3.8	1.49e+00	0	43	104	0	29	17198
2026-01-13 10:32:14.73	308.56	74.75	-34.0	-47.6	3.8	1.49e+00	0	43	104	0	29	17202
2026-01-13 10:32:15.73	309.59	74.34	-34.0	-47.6	3.8	1.49e+00	0	42	104	0	29	17199
2026-01-13 10:32:16.74	310.58	73.93	-34.0	-47.6	3.8	1.49e+00	0	42	104	0	29	17176
2026-01-13 10:32:17.74	311.50	73.52	-34.0	-47.6	3.8	1.49e+00	0	43	104	0	29	17221
2026-01-13 10:32:18.75	312.39	73.10	-34.0	-47.6	3.8	1.49e+00	0	43	104	0	29	17210
2026-01-13 10:32:19.75	313.22	72.69	-34.0	-47.6	3.8	1.49e+00	0	42	104	0	29	17167
2026-01-13 10:32:20.76	314.02	72.26	-34.0	-47.6	3.8	1.49e+00	0	42	104	0	29	17175
2026-01-13 10:32:21.77	314.78	71.84	-34.0	-47.6	3.8	1.49e+00	0	43	104	0	29	17238
2026-01-13 10:32:22.77	315.50	71.42	-34.0	-47.6	3.8	1.49e+00	0	42	104	0	29	17207
2026-01-13 10:32:23.78	316.19	71.00	-34.0	-47.6	3.8	1.49e+00	0	43	104	0	29	17231
2026-01-13 10:32:24.78	316.84	70.58	-34.0	-47.6	3.8	1.49e+00	0	43	104	0	29	17168
2026-01-13 10:32:25.79	317.47	70.15	-34.0	-47.6	3.8	1.49e+00	0	43	104	0	29	17206
2026-01-13 10:32:26.78	318.06	69.73	-34.0	-47.6	3.8	1.49e+00	0	43	104	0	29	17202
2026-01-13 10:32:27.78	318.63	69.31	-34.0	-47.6	3.8	1.49e+00	0	42	104	0	29	17174
2026-01-13 10:32:28.79	319.18	68.88	-34.0	-47.6	3.8	1.49e+00	0	43	104	0	29	17155
2026-01-13 10:32:29.80	319.71	68.46	-34.0	-47.6	3.8	1.49e+00	0	43	104	0	29	17202
2026-01-13 10:32:30.81	320.22	68.03	-34.0	-47.6	3.8	1.49e+00	0	43	104	0	29	17176
2026-01-13 10:32:31.81	320.70	67.61	-34.0	-47.6	3.8	1.49e+00	0	43	104	0	29	17184
2026-01-13 10:32:32.82	321.16	67.19	-34.0	-47.6	3.8	1.49e+00	0	43	104	0	29	17171
2026-01-13 10:32:33.82	321.60	66.77	-34.0	-47.6	3.8	1.49e+00	0	43	104	0	29	17168
2026-01-13 10:32:34.83	322.03	66.35	-34.0	-47.6	3.8	1.49e+00	0	43	104	0	29	17207
2026-01-13 10:32:35.83	322.44	65.93	-34.0	-47.6	3.8	1.49e+00	0	43	104	0	29	17202
2026-01-13 10:32:36.84	322.84	65.51	-34.0	-47.6	3.8	1.49e+00	0	42	104	0	29	17209
2026-01-13 10:32:37.85	323.23	65.09	-34.0	-47.6	3.8	1.49e+00	0	43	104	0	29	17185
2026-01-13 10:32:38.86	323.60	64.67	-34.0	-47.6	3.8	1.49e+00	0	43	104	0	29	17183
2026-01-13 10:32:39.86	323.95	64.26	-34.0	-47.6	3.8	1.49e+00	0	42	104	0	29	17257
2026-01-13 10:32:40.87	324.29	63.85	-34.0	-47.6	3.8	1.49e+00	0	43	104	0	29	17198
2026-01-13 10:32:41.87	324.62	63.44	-34.0	-47.6	3.8	1.49e+00	0	43	104	0	29	17182
2026-01-13 10:32:42.87	324.94	63.03	-34.0	-47.6	3.8	1.49e+00	0	42	104	0	29	17242
2026-01-13 10:32:43.87	325.25	62.62	-34.0	-47.6	3.8	1.49e+00	0	42	104	0	29	17212
2026-01-13 10:32:44.88	325.55	62.22	-34.0	-47.6	3.8	1.49e+00	0	43	104	0	29	17260
2026-01-13 10:32:45.89	325.84	61.81	-34.0	-47.6	3.8	1.49e+00	0	42	104	0	29	17156
2026-01-13 10:32:46.89	326.12	61.41	-34.0	-47.6	3.8	1.49e+00	0	43	104	0	29	17209
2026-01-13 10:32:47.90	326.39	61.01	-34.0	-47.6	3.8	1.49e+00	0	42	104	0	29	17213
2026-01-13 10:32:48.91	326.65	60.61	-34.0	-47.6	3.8	1.49e+00	0	42	104	0	29	17195
2026-01-13 10:32:49.92	326.91	60.21	-34.0	-47.6	3.8	1.49e+00	0	42	104	0	29	17125
2026-01-13 10:32:50.93	327.16	59.81	-34.0	-47.6	3.8	1.49e+00	0	43	104	0	29	17189
2026-01-13 10:32:51.93	327.40	59.42	-34.0	-47.6	3.8	1.49e+00	0	43	104	0	29	17157
2026-01-13 10:32:52.94	327.63	59.03	-34.0	-47.6	3.8	1.49e+00	0	43	104	0	29	17220
2026-01-13 10:32:53.95	327.86	58.64	-34.0	-47.6	3.8	1.49e+00	0	43	104	0	29	17188
2026-01-13 10:32:54.95	328.07	58.26	-34.0	-47.6	3.8	1.49e+00	0	43	104	0	29	17176
2026-01-13 10:32:55.96	328.29	57.87	-34.0	-47.6	3.8	1.49e+00	0	42	104	0	29	17172
2026-01-13 10:32:56.96	328.50	57.49	-34.0	-47.6	3.8	1.49e+00	0	43	104	0	29	17173
2026-01-13 10:32:57.97	328.70	57.11	-34.0	-47.6	3.8	1.49e+00	0	42	104	0	29	17172
2026-01-13 10:32:58.97	328.89	56.73	-34.0	-47.6	3.8	1.49e+00	0	43	104	0	29	17163
2026-01-13 10:32:59.98	329.09	56.36	-34.0	-47.6	3.8	1.49e+00	0	43	104	0	29	17208
2026-01-13 10:33:00.99	329.27	55.98	-34.0	-47.6	3.8	1.49e+00	0	43	104	0	29	17198
2026-01-13 10:33:02.00	329.46	55.61	-34.0	-47.6	3.8	1.49e+00	0	42	104	0	29	17189
2026-01-13 10:33:03.00	329.63	55.24	-34.0	-47.6	3.8	1.49e+00	0	42	104	0	29	17206
2026-01-13 10:33:04.01	329.81	54.88	-34.0	-47.6	3.8	1.49e+00	0	42	104	0	29	17198
2026-01-13 10:33:05.01	329.97	54.51	-34.0	-47.6	3.8	1.49e+00	0	43	104	0	29	17184
2026-01-13 10:33:06.02	330.14	54.15	-34.0	-47.6	3.8	1.49e+00	0	43	104	0	29	17240
2026-01-13 10:33:07.02	330.30	53.79	-34.0	-47.6	3.8	1.49e+00	0	43	104	0	29	17203
2026-01-13 10:33:08.03	330.45	53.43	-34.0	-47.6	3.8	1.49e+00	0	43	104	0	29	17216
2026-01-13 10:33:09.04	330.61	53.08	-34.0	-47.6	3.8	1.49e+00	0	43	104	0	29	17218
2026-01-13 10:33:10.05	330.76	52.72	-34.0	-47.6	3.8	1.49e+00	0	43	104	0	29	17192
2026-01-13 10:33:11.06	330.90	52.37	-34.0	-47.6	3.8	1.49e+00	0	42	104	0	29	17187
2026-01-13 10:33:12.06	331.05	52.03	-34.0	-47.6	3.8	1.49e+00	0	43	104	0	29	17224
2026-01-13 10:33:13.08	331.19	51.68	-34.0	-47.6	3.8	1.49e+00	0	43	104	0	29	17233
2026-01-13 10:33:14.07	331.32	51.34	-34.0	-47.6	3.8	1.49e+00	0	43	104	0	29	17178
2026-01-13 10:33:15.08	331.45	51.00	-34.0	-47.6	3.8	1.49e+00	0	43	104	0	29	17185
2026-01-13 10:33:16.09	331.58	50.66	-34.0	-47.6	3.8	1.49e+00	0	42	104	0	29	17198
2026-01-13 10:33:17.10	331.71	50.32	-34.0	-47.6	3.8	1.49e+00	0	43	104	0	29	17170
2026-01-13 10:33:18.11	331.84	49.98	-34.0	-47.6	3.8	1.49e+00	0	42	104	0	29	17190
2026-01-13 10:33:19.11	331.96	49.66	-34.0	-47.6	3.8	1.49e+00	0	43	104	0	29	17199
2026-01-13 10:33:20.12	332.08	49.32	-34.0	-47.6	3.8	1.49e+00	0	42	104	0	29	17201
2026-01-13 10:33:21.12	332.20	49.00	-34.0	-47.6	3.8	1.49e+00	0	42	104	0	29	17190
2026-01-13 10:33:22.13	332.31	48.67	-34.0	-47.6	3.8	1.49e+00	0	42	104	0	29	17147
2026-01-13 10:33:23.14	332.42	48.35	-34.0	-47.6	3.8	1.49e+00	0	42	104	0	29	17190
2026-01-13 10:33:24.15	332.53	48.03	-34.0	-47.6	3.8	1.49e+00	0	42	104	0	29	17180
2026-01-13 10:33:25.15	332.64	47.71	-34.0	-47.6	3.8	1.49e+00	0	43	104	0	29	17173
2026-01-13 10:33:26.16	332.75	47.40	-34.0	-47.6	3.8	1.49e+00	0	43	104	0	29	17178
2026-01-13 10:33:27.16	332.85	47.08	-34.0	-47.6	3.8	1.49e+00	0	42	104	0	29	17226
2026-01-13 10:33:28.17	332.95	46.77	-34.0	-47.6	3.8	1.49e+00	0	43	104	0	29	17188
2026-01-13 10:33:29.17	333.05	46.47	-34.0	-47.6	3.8	1.49e+00	0	43	104	0	29	17217
2026-01-13 10:33:30.18	333.15	46.16	-34.0	-47.6	3.8	1.49e+00	0	42	104	0	29	17211
2026-01-13 10:33:31.19	333.25	45.85	-34.0	-47.6	3.8	1.49e+00	0	42	104	0	29	17215
2026-01-13 10:33:32.19	333.34	45.55	-34.0	-47.6	3.8	1.49e+00	0	43	104	0	29	17169
2026-01-13 10:33:33.20	333.44	45.25	-34.0	-47.6	3.8	1.49e+00	0	42	104	0	29	17200
2026-01-13 10:33:34.20	333.53	44.95	-34.0	-47.6	3.8	1.49e+00	0	43	104	0	29	17214
2026-01-13 10:33:35.21	333.62	44.66	-34.0	-47.6	3.8	1.49e+00	0	43	104	0	29	17202
2026-01-13 10:33:36.22	333.70	44.36	-34.0	-47.6	3.8	1.49e+00	0	43	104	0	29	17190
2026-01-13 10:33:37.22	333.79	44.07	-34.0	-47.6	3.8	1.49e+00	0	43	104	0	29	17179
2026-01-13 10:33:38.22	333.87	43.79	-34.0	-47.6	3.8	1.49e+00	0	43	104	0	29	17223
2026-01-13 10:33:39.23	333.96	43.50	-34.0	-47.6	3.8	1.49e+00	0	42	104	0	29	17189
2026-01-13 10:33:40.24	334.04	43.21	-34.0	-47.6	3.8	1.49e+00	0	42	104	0	29	17227
2026-01-13 10:33:41.24	334.12	42.93	-34.0	-47.6	3.8	1.49e+00	0	43	104	0	29	17157
2026-01-13 10:33:42.24	334.20	42.65	-34.0	-47.6	3.8	1.49e+00	0	43	104	0	29	17255
2026-01-13 10:33:43.25	334.28	42.37	-34.0	-47.6	3.8	1.49e+00	0	43	104	0	29	17219
2026-01-13 10:33:44.25	334.36	42.10	-34.0	-47.6	3.8	1.49e+00	0	43	104	0	29	17195
2026-01-13 10:33:45.25	334.43	41.82	-34.0	-47.6	3.8	1.49e+00	0	43	104	0	29	17202
2026-01-13 10:33:46.26	334.51	41.55	-34.0	-47.6	3.8	1.49e+00	0	42	104	0	29	17183
2026-01-13 10:33:47.26	334.58	41.28	-34.0	-47.6	3.8	1.49e+00	0	43	104	0	29	17245
2026-01-13 10:33:48.26	334.65	41.01	-34.0	-47.6	3.8	1.49e+00	0	42	104	0	29	17194
2026-01-13 10:33:49.27	334.72	40.74	-34.0	-47.6	3.8	1.49e+00	0	42	104	0	29	17194
2026-01-13 10:33:50.28	334.79	40.48	-34.0	-47.6	3.8	1.49e+00	0	42	104	0	29	17194
2026-01-13 10:33:51.29	334.86	40.21	-34.0	-47.6	3.8	1.49e+00	0	42	104	0	29	17166
2026-01-13 10:33:52.29	334.93	39.95	-34.0	-47.6	3.8	1.49e+00	0	43	104	0	29	17267
2026-01-13 10:33:53.30	334.99	39.69	-34.0	-47.6	3.8	1.49e+00	0	42	104	0	29	17189
2026-01-13 10:33:54.31	335.06	39.43	-34.0	-47.6	3.8	1.49e+00	0	42	104	0	29	17136
2026-01-13 10:33:55.32	335.13	39.18	-34.0	-47.6	3.8	1.49e+00	0	43	104	0	29	17194
2026-01-13 10:33:56.32	335.19	38.93	-34.0	-47.6	3.8	1.49e+00	0	42	104	0	29	17261
2026-01-13 10:33:57.33	335.25	38.67	-34.0	-47.6	3.8	1.49e+00	0	42	104	0	29	17201
2026-01-13 10:33:58.33	335.31	38.42	-34.0	-47.6	3.8	1.49e+00	0	42	104	0	29	17217
2026-01-13 10:33:59.33	335.37	38.18	-34.0	-47.6	3.8	1.49e+00	0	43	104	0	29	17136
2026-01-13 10:34:00.34	335.44	37.93	-34.0	-47.6	3.8	1.49e+00	0	43	104	0	29	17216
2026-01-13 10:34:01.34	335.49	37.69	-34.0	-47.6	3.8	1.49e+00	0	43	104	0	29	17219
2026-01-13 10:34:02.35	335.55	37.44	-34.0	-47.6	3.8	1.49e+00	0	43	104	0	29	17227
2026-01-13 10:34:03.35	335.61	37.20	-34.0	-47.6	3.8	1.49e+00	0	43	104	0	29	17185
2026-01-13 10:34:04.36	335.67	36.96	-34.0	-47.6	3.8	1.49e+00	0	43	104	0	29	17212
2026-01-13 10:34:05.36	335.72	36.73	-34.0	-47.6	3.8	1.49e+00	0	43	104	0	29	17229
2026-01-13 10:34:06.37	335.78	36.49	-34.0	-47.6	3.8	1.49e+00	0	43	104	0	29	17199
2026-01-13 10:34:07.38	335.83	36.25	-34.0	-47.6	3.8	1.49e+00	0	43	104	0	29	17244
2026-01-13 10:34:08.38	335.89	36.02	-34.0	-47.6	3.8	1.49e+00	0	43	104	0	29	17236
2026-01-13 10:34:09.39	335.94	35.79	-34.0	-47.6	3.8	1.49e+00	0	43	104	0	29	17179
2026-01-13 10:34:10.40	335.99	35.56	-34.0	-47.6	3.8	1.49e+00	0	42	104	0	29	17224
2026-01-13 10:34:11.40	336.05	35.33	-34.0	-47.6	3.8	1.49e+00	0	42	104	0	29	17240
2026-01-13 10:34:12.41	336.10	35.11	-34.0	-47.6	3.8	1.49e+00	0	42	104	0	29	17224
2026-01-13 10:34:13.41	336.15	34.88	-34.0	-47.6	3.8	1.49e+00	0	43	104	0	29	17229
2026-01-13 10:34:14.41	336.20	34.66	-34.0	-47.6	3.8	1.49e+00	0	42	104	0	29	17190
2026-01-13 10:34:15.43	336.25	34.44	-34.0	-47.6	3.8	1.49e+00	0	42	104	0	29	17223
2026-01-13 10:34:16.43	336.30	34.22	-34.0	-47.6	3.8	1.49e+00	0	43	104	0	29	17214
2026-01-13 10:34:17.43	336.34	34.00	-34.0	-47.6	3.8	1.49e+00	0	43	104	0	29	17194
2026-01-13 10:34:18.44	336.39	33.78	-34.0	-47.6	3.8	1.49e+00	0	43	104	0	29	17205
2026-01-13 10:34:19.45	336.44	33.57	-34.0	-47.6	3.8	1.49e+00	0	43	104	0	29	17191
2026-01-13 10:34:20.46	336.49	33.35	-34.0	-47.6	3.8	1.49e+00	0	42	104	0	29	17266
2026-01-13 10:34:21.46	336.53	33.14	-34.0	-47.6	3.8	1.49e+00	0	43	104	0	29	17184
2026-01-13 10:34:22.47	336.58	32.93	-34.0	-47.6	3.8	1.49e+00	0	43	104	0	29	17194
2026-01-13 10:34:23.48	336.62	32.72	-34.0	-47.6	3.8	1.49e+00	0	43	104	0	29	17196
2026-01-13 10:34:24.48	336.67	32.51	-34.0	-47.6	3.8	1.49e+00	0	43	104	0	29	17251
2026-01-13 10:34:25.49	336.71	32.31	-34.0	-47.6	3.8	1.49e+00	0	43	104	0	29	17200
2026-01-13 10:34:26.50	336.75	32.10	-34.0	-47.6	3.8	1.49e+00	0	42	104	0	29	17206
2026-01-13 10:34:27.51	336.80	31.90	-34.0	-47.6	3.8	1.49e+00	0	43	104	0	29	17195
2026-01-13 10:34:28.51	336.84	31.69	-34.0	-47.6	3.8	1.49e+00	0	43	104	0	29	17192
2026-01-13 10:34:29.51	336.88	31.49	-34.0	-47.6	3.8	1.49e+00	0	43	104	0	29	17228
2026-01-13 10:34:30.52	336.92	31.29	-34.0	-47.6	3.8	1.49e+00	0	43	104	0	29	17222
2026-01-13 10:34:31.53	336.96	31.09	-34.0	-47.6	3.8	1.49e+00	0	43	104	0	29	17239
2026-01-13 10:34:32.53	337.00	30.90	-34.0	-47.6	3.8	1.49e+00	0	43	104	0	29	17209
2026-01-13 10:34:33.54	337.04	30.70	-34.0	-47.6	3.8	1.49e+00	0	43	104	0	29	17251
2026-01-13 10:34:34.55	337.08	30.51	-34.0	-47.6	3.8	1.49e+00	0	43	104	0	29	17195
2026-01-13 10:34:35.56	337.12	30.31	-34.0	-47.6	3.8	1.49e+00	0	43	104	0	29	17181
2026-01-13 10:34:36.57	337.16	30.12	-34.0	-47.7	3.8	1.49e+00	0	43	104	0	29	17299
2026-01-13 10:34:37.57	337.20	29.93	-34.0	-47.6	3.8	1.49e+00	0	43	104	0	29	17241
2026-01-13 10:34:38.57	337.24	29.74	-34.0	-47.6	3.8	1.49e+00	0	43	104	0	29	17211
2026-01-13 10:34:39.57	337.28	29.56	-34.0	-47.6	3.8	1.49e+00	0	43	104	0	29	17239
2026-01-13 10:34:40.58	337.31	29.37	-34.0	-47.6	3.8	1.49e+00	0	43	104	0	29	17244
2026-01-13 10:34:41.59	337.35	29.18	-34.0	-47.6	3.8	1.49e+00	0	43	104	0	29	17265
2026-01-13 10:34:42.59	337.39	29.00	-34.0	-47.6	3.8	1.49e+00	0	42	104	0	29	17226
2026-01-13 10:34:43.60	337.42	28.82	-34.0	-47.7	3.8	1.49e+00	0	43	104	0	29	17298
2026-01-13 10:34:44.61	337.46	28.63	-34.0	-47.6	3.8	1.49e+00	0	43	104	0	29	17263
2026-01-13 10:34:45.61	337.49	28.45	-34.0	-47.6	3.8	1.49e+00	0	43	104	0	29	17199
2026-01-13 10:34:46.62	337.53	28.27	-34.0	-47.6	3.8	1.49e+00	0	43	104	0	29	17266
2026-01-13 10:34:47.63	337.56	28.09	-34.0	-47.6	3.8	1.49e+00	0	43	104	0	29	17225
2026-01-13 10:34:48.63	337.60	27.92	-34.0	-47.6	3.8	1.49e+00	0	43	104	0	29	17188
2026-01-13 10:34:49.65	337.63	27.74	-34.0	-47.6	3.8	1.49e+00	0	42	104	0	29	17251
2026-01-13 10:34:50.65	337.66	27.56	-34.0	-47.6	3.8	1.49e+00	0	43	104	0	29	17263
2026-01-13 10:34:51.66	337.70	27.39	-34.0	-47.6	3.8	1.49e+00	0	43	104	0	29	17213
2026-01-13 10:34:52.67	337.73	27.22	-34.0	-47.6	3.8	1.49e+00	0	43	104	0	29	17219
2026-01-13 10:34:53.67	337.76	27.05	-34.0	-47.6	3.8	1.49e+00	0	43	104	0	29	17251
2026-01-13 10:34:54.67	337.80	26.88	-34.0	-47.6	3.8	1.49e+00	0	43	104	0	29	17221
2026-01-13 10:34:55.68	337.83	26.71	-34.0	-47.6	3.8	1.49e+00	0	43	104	0	29	17259
2026-01-13 10:34:56.69	337.86	26.54	-34.0	-47.6	3.8	1.49e+00	0	42	104	0	29	17176
2026-01-13 10:34:57.69	337.89	26.37	-34.0	-47.6	3.8	1.49e+00	0	43	104	0	29	17216
2026-01-13 10:34:58.70	337.92	26.20	-34.0	-47.6	3.8	1.49e+00	0	42	104	0	29	17241
2026-01-13 10:34:59.71	337.95	26.04	-34.0	-47.6	3.8	1.49e+00	0	43	104	0	29	17158
2026-01-13 10:35:00.72	337.98	25.87	-34.0	-47.6	3.8	1.49e+00	0	43	104	0	29	17247
2026-01-13 10:35:01.73	338.02	25.71	-34.0	-47.6	3.8	1.49e+00	0	42	104	0	29	17239
2026-01-13 10:35:02.73	338.05	25.55	-34.0	-47.6	3.8	1.49e+00	0	43	104	0	29	17225
2026-01-13 10:35:03.74	338.08	25.38	-34.0	-47.6	3.8	1.49e+00	0	43	104	0	29	17224
2026-01-13 10:35:04.74	338.10	25.22	-34.0	-47.6	3.8	1.49e+00	0	43	104	0	29	17221
2026-01-13 10:35:05.74	338.13	25.07	-34.0	-47.6	3.8	1.49e+00	0	42	104	0	29	17218
2026-01-13 10:35:06.75	338.16	24.91	-34.0	-47.6	3.8	1.49e+00	0	43	104	0	29	17214
2026-01-13 10:35:07.75	338.19	24.75	-34.0	-47.6	3.8	1.49e+00	0	43	104	0	29	17258
2026-01-13 10:35:08.76	338.22	24.59	-34.0	-47.7	3.8	1.49e+00	0	43	104	0	29	17297
2026-01-13 10:35:09.77	338.25	24.44	-34.0	-47.6	3.8	1.49e+00	0	43	104	0	29	17222
2026-01-13 10:35:10.78	338.28	24.28	-34.0	-47.6	3.8	1.49e+00	0	42	104	0	29	17285
2026-01-13 10:35:11.78	338.31	24.13	-34.0	-47.6	3.8	1.49e+00	0	42	104	0	29	17266
2026-01-13 10:35:12.78	338.33	23.98	-34.0	-47.6	3.8	1.49e+00	0	42	104	0	29	17235
2026-01-13 10:35:13.79	338.36	23.82	-34.0	-47.6	3.8	1.49e+00	0	43	104	0	29	17272
2026-01-13 10:35:14.80	338.39	23.67	-34.0	-47.6	3.8	1.49e+00	0	43	104	0	29	17220
2026-01-13 10:35:15.81	338.41	23.52	-34.0	-47.6	3.8	1.49e+00	0	43	104	0	29	17239
2026-01-13 10:35:16.82	338.44	23.37	-34.0	-47.6	3.8	1.49e+00	0	42	104	0	29	17228
2026-01-13 10:35:17.82	338.47	23.22	-34.0	-47.6	3.8	1.49e+00	0	42	104	0	29	17258
2026-01-13 10:35:18.83	338.49	23.07	-34.0	-47.6	3.8	1.49e+00	0	42	104	0	29	17197
2026-01-13 10:35:19.84	338.52	22.93	-34.0	-47.6	3.8	1.49e+00	0	43	104	0	29	17217
2026-01-13 10:35:20.85	338.55	22.78	-34.0	-47.6	3.8	1.49e+00	0	42	104	0	29	17188
2026-01-13 10:35:21.86	338.57	22.63	-34.0	-47.6	3.8	1.49e+00	0	43	104	0	29	17214
2026-01-13 10:35:22.86	338.60	22.49	-34.0	-47.6	3.8	1.49e+00	0	42	104	0	29	17247
2026-01-13 10:35:23.87	338.62	22.35	-34.0	-47.6	3.8	1.49e+00	0	43	104	0	29	17230
2026-01-13 10:35:24.88	338.65	22.20	-34.0	-47.6	3.8	1.49e+00	0	43	104	0	29	17220
2026-01-13 10:35:25.89	338.67	22.06	-34.0	-47.6	3.8	1.49e+00	0	43	104	0	29	17190
2026-01-13 10:35:26.90	338.70	21.92	-34.0	-47.6	3.8	1.49e+00	0	43	104	0	29	17188
2026-01-13 10:35:27.90	338.72	21.78	-34.0	-47.6	3.8	1.49e+00	0	43	104	0	29	17238
2026-01-13 10:35:28.91	338.75	21.64	-34.0	-47.6	3.8	1.49e+00	0	42	104	0	29	17226
2026-01-13 10:35:29.92	338.77	21.50	-34.0	-47.7	3.8	1.49e+00	0	43	104	0	29	17266
2026-01-13 10:35:30.93	338.80	21.36	-34.0	-47.6	3.8	1.49e+00	0	43	104	0	29	17224
2026-01-13 10:35:31.93	338.82	21.22	-34.0	-47.6	3.8	1.49e+00	0	42	104	0	29	17289
2026-01-13 10:35:32.94	338.84	21.09	-34.0	-47.6	3.8	1.49e+00	0	43	104	0	29	17224
2026-01-13 10:35:33.95	338.87	20.95	-34.0	-47.6	3.8	1.49e+00	0	43	104	0	29	17220
2026-01-13 10:35:34.95	338.89	20.81	-34.0	-47.6	3.8	1.49e+00	0	43	104	0	29	17245
2026-01-13 10:35:35.96	338.91	20.68	-34.0	-47.6	3.8	1.49e+00	0	43	104	0	29	17225
2026-01-13 10:35:36.97	338.94	20.55	-34.0	-47.6	3.8	1.49e+00	0	43	104	0	29	17260
2026-01-13 10:35:37.97	338.96	20.41	-34.0	-47.6	3.8	1.49e+00	0	42	104	0	29	17195
2026-01-13 10:35:38.98	338.98	20.28	-34.0	-47.6	3.8	1.49e+00	0	42	104	0	29	17203
2026-01-13 10:35:39.98	339.00	20.15	-34.0	-47.6	3.8	1.49e+00	0	42	104	0	29	17197
2026-01-13 10:35:40.99	339.03	20.02	-34.0	-47.6	3.8	1.49e+00	0	43	104	0	29	17175
2026-01-13 10:35:41.99	339.05	19.89	-34.0	-47.6	3.8	1.49e+00	0	43	104	0	29	17228
2026-01-13 10:35:42.99	339.07	19.76	-34.0	-47.6	3.8	1.49e+00	0	43	104	0	29	17196
2026-01-13 10:35:44.00	339.09	19.63	-34.0	-47.6	3.8	1.49e+00	0	42	104	0	29	17239
2026-01-13 10:35:45.01	339.11	19.50	-34.0	-47.6	3.8	1.49e+00	0	43	104	0	29	17212
2026-01-13 10:35:46.01	339.14	19.37	-34.0	-47.6	3.8	1.49e+00	0	42	104	0	29	17214
2026-01-13 10:35:47.02	339.16	19.25	-34.0	-47.6	3.8	1.49e+00	0	43	104	0	29	17191
2026-01-13 10:35:48.02	339.18	19.12	-34.0	-47.6	3.8	1.49e+00	0	42	104	0	29	17202
2026-01-13 10:35:49.03	339.20	19.00	-34.0	-47.6	3.8	1.49e+00	0	42	104	0	29	17200
2026-01-13 10:35:50.04	339.22	18.87	-34.0	-47.6	3.8	1.49e+00	0	42	104	0	29	17209
2026-01-13 10:35:51.05	339.24	18.74	-34.0	-47.6	3.8	1.49e+00	0	43	104	0	29	17235
2026-01-13 10:35:52.06	339.26	18.62	-34.0	-47.7	3.8	1.49e+00	0	43	104	0	29	17278
2026-01-13 10:35:53.07	339.28	18.50	-34.0	-47.6	3.8	1.49e+00	0	43	104	0	29	17217
2026-01-13 10:35:54.08	339.30	18.37	-34.0	-47.6	3.8	1.49e+00	0	43	104	0	29	17249
2026-01-13 10:35:55.09	339.32	18.25	-34.0	-47.6	3.8	1.49e+00	0	43	104	0	29	17215
2026-01-13 10:35:56.10	339.34	18.13	-34.0	-47.6	3.8	1.49e+00	0	43	104	0	29	17224
2026-01-13 10:35:57.10	339.36	18.01	-34.0	-47.6	3.8	1.49e+00	0	43	104	0	29	17253
2026-01-13 10:35:58.11	339.38	17.89	-34.0	-47.6	3.8	1.49e+00	0	43	104	0	29	17254
2026-01-13 10:35:59.11	339.40	17.77	-34.0	-47.6	3.8	1.49e+00	0	43	104	0	29	17232
2026-01-13 10:36:00.12	339.42	17.65	-34.0	-47.6	3.8	1.49e+00	0	42	104	0	29	17219
2026-01-13 10:36:01.13	339.44	17.53	-34.0	-47.6	3.8	1.49e+00	0	43	104	0	29	17234
2026-01-13 10:36:02.14	339.46	17.41	-34.0	-47.6	3.8	1.49e+00	0	43	104	0	29	17267
2026-01-13 10:36:03.14	339.48	17.30	-34.0	-47.6	3.8	1.49e+00	0	42	104	0	29	17229
2026-01-13 10:36:04.15	339.50	17.18	-34.0	-47.6	3.8	1.49e+00	0	42	104	0	29	17180
2026-01-13 10:36:05.16	339.52	17.06	-34.0	-47.6	3.8	1.49e+00	0	42	104	0	29	17220
2026-01-13 10:36:06.17	339.54	16.95	-34.0	-47.6	3.8	1.49e+00	0	42	104	0	29	17277
2026-01-13 10:36:07.17	339.56	16.83	-34.0	-47.6	3.8	1.49e+00	0	43	104	0	29	17209
2026-01-13 10:36:08.18	339.58	16.72	-34.0	-47.6	3.8	1.49e+00	0	42	104	0	29	17256
2026-01-13 10:36:09.19	339.60	16.60	-34.0	-47.6	3.8	1.49e+00	0	43	104	0	29	17213
2026-01-13 10:36:10.19	339.62	16.49	-34.0	-47.6	3.8	1.49e+00	0	43	104	0	29	17246
2026-01-13 10:36:11.20	339.63	16.38	-34.0	-47.6	3.8	1.49e+00	0	42	104	0	29	17217
2026-01-13 10:36:12.20	339.65	16.26	-34.0	-47.6	3.8	1.49e+00	0	42	104	0	29	17220
2026-01-13 10:36:13.21	339.67	16.15	-34.0	-47.6	3.8	1.49e+00	0	43	104	0	29	17185
2026-01-13 10:36:14.21	339.69	16.04	-34.0	-47.6	3.8	1.49e+00	0	43	104	0	29	17222
2026-01-13 10:36:15.22	339.71	15.93	-34.0	-47.6	3.8	1.49e+00	0	42	104	0	29	17220
2026-01-13 10:36:16.23	339.72	15.82	-34.0	-47.6	3.8	1.49e+00	0	43	104	0	29	17212
2026-01-13 10:36:17.24	339.74	15.71	-34.0	-47.6	3.8	1.49e+00	0	43	104	0	29	17235
2026-01-13 10:36:18.24	339.76	15.60	-34.0	-47.6	3.8	1.49e+00	0	43	104	0	29	17239
2026-01-13 10:36:19.25	339.78	15.49	-34.0	-47.6	3.8	1.49e+00	0	43	104	0	29	17252
2026-01-13 10:36:20.26	339.80	15.38	-34.0	-47.6	3.8	1.49e+00	0	43	104	0	29	17191
2026-01-13 10:36:21.26	339.81	15.27	-34.0	-47.6	3.8	1.49e+00	0	43	104	0	29	17197
2026-01-13 10:36:22.27	339.83	15.17	-34.0	-47.6	3.8	1.49e+00	0	43	104	0	29	17207
2026-01-13 10:36:23.28	339.85	15.06	-34.0	-47.6	3.8	1.49e+00	0	43	104	0	29	17213
2026-01-13 10:36:24.28	339.86	14.95	-34.0	-47.6	3.8	1.49e+00	0	43	104	0	29	17229
2026-01-13 10:36:25.29	339.88	14.85	-34.0	-47.6	3.8	1.49e+00	0	42	104	0	29	17279
2026-01-13 10:36:26.30	339.90	14.74	-34.0	-47.6	3.8	1.49e+00	0	42	104	0	29	17220
2026-01-13 10:36:27.31	339.92	14.64	-34.0	-47.6	3.8	1.49e+00	0	42	104	0	29	17220
2026-01-13 10:36:28.31	339.93	14.53	-34.0	-47.6	3.8	1.49e+00	0	43	104	0	29	17221
2026-01-13 10:36:29.32	339.95	14.43	-34.0	-47.6	3.8	1.49e+00	0	42	104	0	29	17257
2026-01-13 10:36:30.33	339.97	14.32	-34.0	-47.6	3.8	1.49e+00	0	42	104	0	29	17226
2026-01-13 10:36:31.33	339.98	14.22	-34.0	-47.6	3.8	1.49e+00	0	43	104	0	29	17184
2026-01-13 10:36:32.34	340.00	14.12	-34.0	-47.6	3.8	1.49e+00	0	43	104	0	29	17207
2026-01-13 10:36:33.34	340.02	14.01	-34.0	-47.6	3.8	1.49e+00	0	43	104	0	29	17239
2026-01-13 10:36:34.34	340.03	13.91	-34.0	-47.6	3.8	1.49e+00	0	42	104	0	29	17188
2026-01-13 10:36:35.35	340.05	13.81	-34.0	-47.6	3.8	1.49e+00	0	42	104	0	29	17209
2026-01-13 10:36:36.36	340.06	13.71	-34.0	-47.6	3.8	1.49e+00	0	43	104	0	29	17214
2026-01-13 10:36:37.37	340.08	13.61	-34.0	-47.6	3.8	1.49e+00	0	43	104	0	29	17263
2026-01-13 10:36:38.37	340.10	13.51	-34.0	-47.6	3.8	1.49e+00	0	42	104	0	29	17201
2026-01-13 10:36:39.38	340.11	13.41	-34.0	-47.6	3.8	1.49e+00	0	43	104	0	29	17238
2026-01-13 10:36:40.39	340.13	13.31	-34.0	-47.6	3.8	1.49e+00	0	43	104	0	29	17252
2026-01-13 10:36:41.39	340.14	13.21	-34.0	-47.6	3.8	1.49e+00	0	42	104	0	29	17234
2026-01-13 10:36:42.39	340.16	13.11	-34.0	-47.6	3.8	1.49e+00	0	43	104	0	29	17171
2026-01-13 10:36:43.39	340.18	13.01	-34.0	-47.6	3.8	1.49e+00	0	42	104	0	29	17240
2026-01-13 10:36:44.40	340.19	12.92	-34.0	-47.6	3.8	1.49e+00	0	42	104	0	29	17177
2026-01-13 10:36:45.40	340.21	12.82	-34.0	-47.6	3.8	1.49e+00	0	43	104	0	29	17247
2026-01-13 10:36:46.41	340.22	12.72	-34.0	-47.6	3.8	1.49e+00	0	43	104	0	29	17225
2026-01-13 10:36:47.41	340.24	12.63	-34.0	-47.6	3.8	1.49e+00	0	42	104	0	29	17219
2026-01-13 10:36:48.42	340.25	12.53	-34.0	-47.6	3.8	1.49e+00	0	43	104	0	29	17196
2026-01-13 10:36:49.43	340.27	12.43	-34.0	-47.6	3.8	1.49e+00	0	43	104	0	29	17224
2026-01-13 10:36:50.44	340.28	12.34	-34.0	-47.6	3.8	1.49e+00	0	43	104	0	29	17170
2026-01-13 10:36:51.45	340.30	12.24	-34.0	-47.6	3.8	1.49e+00	0	43	104	0	29	17183
2026-01-13 10:36:52.45	340.31	12.15	-34.0	-47.6	3.8	1.49e+00	0	43	104	0	29	17237
2026-01-13 10:36:53.45	340.33	12.05	-34.0	-47.6	3.8	1.49e+00	0	42	104	0	29	17179
2026-01-13 10:36:54.46	340.34	11.96	-34.0	-47.6	3.8	1.49e+00	0	42	104	0	29	17205
2026-01-13 10:36:55.46	340.36	11.86	-34.0	-47.6	3.8	1.49e+00	0	43	104	0	29	17225
2026-01-13 10:36:56.47	340.37	11.77	-34.0	-47.6	3.8	1.49e+00	0	43	104	0	29	17220
2026-01-13 10:36:57.48	340.39	11.68	-34.0	-47.6	3.8	1.49e+00	0	43	104	0	29	17201
2026-01-13 10:36:58.48	340.40	11.58	-34.0	-47.6	3.8	1.49e+00	0	43	104	0	29	17211
2026-01-13 10:36:59.49	340.42	11.49	-34.0	-47.6	3.8	1.49e+00	0	43	104	0	29	17234
2026-01-13 10:37:00.50	340.43	11.40	-34.0	-47.5	3.8	1.49e+00	0	43	104	0	29	17205
2026-01-13 10:37:01.50	340.44	11.31	-34.0	-47.5	3.8	1.49e+00	0	43	104	0	29	17197
2026-01-13 10:37:02.51	340.46	11.22	-34.0	-47.6	3.8	1.49e+00	0	43	104	0	29	17186
2026-01-13 10:37:03.52	340.47	11.13	-34.0	-47.5	3.8	1.49e+00	0	43	104	0	29	17112
2026-01-13 10:37:04.53	340.49	11.03	-34.0	-47.6	3.8	1.49e+00	0	43	104	0	29	17222
2026-01-13 10:37:05.54	340.50	10.94	-34.0	-47.6	3.8	1.49e+00	0	43	104	0	29	17249
2026-01-13 10:37:06.55	340.52	10.85	-34.0	-47.6	3.8	1.49e+00	0	43	104	0	29	17250
2026-01-13 10:37:07.56	340.53	10.76	-34.0	-47.6	3.8	1.49e+00	0	43	104	0	29	17207
2026-01-13 10:37:08.57	340.54	10.67	-34.0	-47.6	3.8	1.49e+00	0	43	104	0	29	17150
2026-01-13 10:37:09.57	340.56	10.59	-34.0	-47.6	3.8	1.49e+00	0	43	104	0	29	17199
2026-01-13 10:37:10.58	340.57	10.50	-34.0	-47.6	3.8	1.49e+00	0	43	104	0	29	17294
2026-01-13 10:37:11.59	340.58	10.41	-34.0	-47.6	3.8	1.49e+00	0	43	104	0	29	17207
2026-01-13 10:37:12.59	340.60	10.32	-34.0	-47.6	3.8	1.49e+00	0	43	104	0	29	17181
2026-01-13 10:37:13.60	340.61	10.23	-34.0	-47.6	3.8	1.49e+00	0	43	104	0	29	17198
2026-01-13 10:37:14.61	340.63	10.14	-34.0	-47.6	3.8	1.49e+00	0	43	104	0	29	17209
2026-01-13 10:37:15.62	340.64	10.06	-34.0	-47.6	3.8	1.49e+00	0	43	104	0	29	17215
2026-01-13 10:37:16.63	340.65	9.97	-34.0	-47.5	3.8	1.49e+00	0	43	104	0	29	17165
2026-01-13 10:37:17.64	340.67	9.88	-34.0	-47.5	3.8	1.49e+00	0	43	104	0	29	17186
2026-01-13 10:37:18.65	340.68	9.80	-34.0	-47.6	3.8	1.49e+00	0	42	104	0	29	17246
2026-01-13 10:37:19.66	340.69	9.71	-34.0	-47.6	3.8	1.49e+00	0	43	104	0	29	17210
2026-01-13 10:37:20.67	340.71	9.62	-34.0	-47.6	3.8	1.49e+00	0	43	104	0	29	17217
2026-01-13 10:37:21.68	340.72	9.54	-34.0	-47.6	3.8	1.49e+00	0	43	104	0	29	17179
2026-01-13 10:37:22.69	340.73	9.45	-34.0	-47.6	3.8	1.49e+00	0	43	104	0	29	17179
2026-01-13 10:37:23.69	340.75	9.37	-34.0	-47.6	3.8	1.49e+00	0	43	104	0	29	17188
2026-01-13 10:37:24.70	340.76	9.28	-34.0	-47.6	3.8	1.49e+00	0	43	104	0	29	17206
2026-01-13 10:37:25.71	340.77	9.20	-34.0	-47.6	3.8	1.49e+00	0	43	104	0	29	17194
2026-01-13 10:37:26.71	340.79	9.12	-34.0	-47.6	3.8	1.49e+00	0	43	104	0	29	17223
2026-01-13 10:37:27.72	340.80	9.03	-34.0	-47.6	3.8	1.49e+00	0	43	104	0	29	17199
2026-01-13 10:37:28.73	340.81	8.95	-34.0	-47.6	3.8	1.49e+00	0	42	104	0	29	17218
2026-01-13 10:37:29.73	340.82	8.87	-34.0	-47.6	3.8	1.49e+00	0	43	104	0	29	17219
2026-01-13 10:37:30.73	340.84	8.78	-34.0	-47.6	3.8	1.49e+00	0	43	104	0	29	17202
2026-01-13 10:37:31.74	340.85	8.70	-33.9	-47.5	3.8	1.49e+00	0	43	104	0	29	17192
2026-01-13 10:37:32.74	340.86	8.62	-34.0	-47.6	3.8	1.49e+00	0	43	104	0	29	17204
2026-01-13 10:37:33.75	340.87	8.54	-34.0	-47.5	3.8	1.49e+00	0	43	104	0	29	17192
2026-01-13 10:37:34.76	340.89	8.45	-34.0	-47.5	3.8	1.49e+00	0	43	104	0	29	17160
2026-01-13 10:37:35.77	340.90	8.37	-34.0	-47.6	3.8	1.49e+00	0	43	104	0	29	17184
2026-01-13 10:37:36.78	340.91	8.29	-34.0	-47.6	3.8	1.49e+00	0	43	104	0	29	17193
2026-01-13 10:37:37.79	340.92	8.21	-34.0	-47.6	3.8	1.49e+00	0	43	104	0	29	17248
2026-01-13 10:37:38.80	340.94	8.13	-34.0	-47.6	3.8	1.49e+00	0	42	104	0	29	17256
2026-01-13 10:37:39.81	340.95	8.05	-34.0	-47.6	3.8	1.49e+00	0	43	104	0	29	17211
2026-01-13 10:37:40.82	340.96	7.97	-34.0	-47.6	3.8	1.49e+00	0	42	104	0	29	17173
2026-01-13 10:37:41.83	340.97	7.89	-34.0	-47.6	3.8	1.49e+00	0	43	104	0	29	17208
2026-01-13 10:37:42.83	340.99	7.81	-34.0	-47.6	3.8	1.49e+00	0	43	104	0	29	17222
2026-01-13 10:37:43.84	341.00	7.73	-34.0	-47.6	3.8	1.49e+00	0	43	104	0	29	17218
2026-01-13 10:37:44.85	341.01	7.65	-34.0	-47.6	3.8	1.49e+00	0	43	104	0	29	17228
2026-01-13 10:37:45.86	341.02	7.57	-34.0	-47.6	3.8	1.49e+00	0	43	104	0	29	17197
2026-01-13 10:37:46.87	341.04	7.49	-34.0	-47.6	3.8	1.49e+00	0	42	104	0	29	17232
2026-01-13 10:37:47.87	341.05	7.41	-34.0	-47.6	3.8	1.49e+00	0	42	104	0	29	17226
2026-01-13 10:37:48.88	341.06	7.34	-34.0	-47.6	3.8	1.49e+00	0	43	104	0	29	17257
2026-01-13 10:37:49.89	341.07	7.26	-34.0	-47.6	3.8	1.49e+00	0	43	104	0	29	17190
2026-01-13 10:37:50.90	341.08	7.18	-34.0	-47.6	3.8	1.49e+00	0	43	104	0	29	17213
2026-01-13 10:37:51.91	341.10	7.10	-34.0	-47.6	3.8	1.49e+00	0	43	104	0	29	17212
2026-01-13 10:37:52.91	341.11	7.02	-34.0	-47.6	3.8	1.49e+00	0	43	104	0	29	17163
2026-01-13 10:37:53.92	341.12	6.95	-34.0	-47.6	3.8	1.49e+00	0	42	104	0	29	17193
2026-01-13 10:37:54.92	341.13	6.87	-34.0	-47.6	3.8	1.49e+00	0	43	104	0	29	17192
2026-01-13 10:37:55.94	341.14	6.79	-34.0	-47.6	3.8	1.49e+00	0	42	104	0	29	17185

#Closed at: 2026-01-13 10:37:56
#Recorded file [0 MB]: D:/data/31010_260113_132548.dat