passes_logs/2026/01/13/R2M6_AANII_01/R2M6_AANII_01__20260113_100510_SUOMI_NPP_rec.log

#Pass ID: 20260113_100510_SUOMI NPP
#Satellite: SUOMI NPP
#Configuration: NPP
#almurnet v.1.7.20240730
#Start time: 2026-01-13 10:05:11

#Version: 2.2.20231116
#Station: R2M6_AANII_01
#Location: 30.233357 lon 59.946436 lat
#TLE: 1 37849U 11061A   26012.28456845  .00000093  00000+0  65163-4 0  9999
#TLE: 2 37849  98.7807 314.3566 0002508  68.3553 291.7890 14.19524725736322

#Time	Az	El	Level	Level2	SNR	BER	BlckErr	Temp	State	Recorded	gain1	gain2
2026-01-13 10:05:11.85	150.63	7.10	-34.0	-45.7	3.7	1.50e+00	0	40	0	0	29	13831
2026-01-13 10:05:12.84	150.62	7.18	-34.0	-45.7	3.8	1.49e+00	0	40	104	0	29	13873
2026-01-13 10:05:13.85	150.61	7.26	-34.0	-45.7	3.8	1.49e+00	0	40	104	0	29	13876
2026-01-13 10:05:14.85	150.59	7.34	-34.0	-45.7	3.8	1.49e+00	0	40	104	0	29	13827
2026-01-13 10:05:15.86	150.58	7.41	-34.0	-45.7	3.8	1.49e+00	0	40	104	0	29	13838
2026-01-13 10:05:16.87	150.57	7.49	-34.0	-45.7	3.8	1.49e+00	0	40	104	0	29	13913
2026-01-13 10:05:17.87	150.56	7.57	-34.0	-45.7	3.8	1.49e+00	0	40	104	0	29	13857
2026-01-13 10:05:18.88	150.54	7.65	-34.0	-45.7	3.8	1.49e+00	0	40	104	0	29	13821
2026-01-13 10:05:19.89	150.53	7.73	-34.0	-45.7	3.8	1.49e+00	0	40	104	0	29	13862
2026-01-13 10:05:20.89	150.52	7.81	-34.0	-45.7	3.8	1.49e+00	0	40	104	0	29	13879
2026-01-13 10:05:21.89	150.50	7.89	-34.0	-45.7	3.8	1.49e+00	0	40	104	0	29	13933
2026-01-13 10:05:22.90	150.49	7.97	-34.0	-45.7	3.8	1.49e+00	0	40	104	0	29	13858
2026-01-13 10:05:23.90	150.48	8.05	-34.0	-45.7	3.8	1.49e+00	0	40	104	0	29	13863
2026-01-13 10:05:24.90	150.46	8.13	-34.0	-45.7	3.8	1.49e+00	0	40	104	0	29	13861
2026-01-13 10:05:25.91	150.45	8.22	-34.0	-45.7	3.8	1.49e+00	0	41	104	0	29	13872
2026-01-13 10:05:26.91	150.44	8.30	-34.0	-45.7	3.8	1.49e+00	0	41	104	0	29	13883
2026-01-13 10:05:27.92	150.42	8.38	-34.0	-45.7	3.8	1.49e+00	0	40	104	0	29	13860
2026-01-13 10:05:28.93	150.41	8.46	-34.0	-45.7	3.8	1.49e+00	0	40	104	0	29	13856
2026-01-13 10:05:29.93	150.40	8.54	-34.0	-45.7	3.8	1.49e+00	0	41	104	0	29	13872
2026-01-13 10:05:30.94	150.38	8.63	-34.0	-45.7	3.8	1.49e+00	0	40	104	0	29	13860
2026-01-13 10:05:31.94	150.37	8.71	-34.0	-45.7	3.8	1.49e+00	0	40	104	0	29	13889
2026-01-13 10:05:32.95	150.35	8.79	-34.0	-45.7	3.8	1.49e+00	0	41	104	0	29	13884
2026-01-13 10:05:33.95	150.34	8.88	-34.0	-45.7	3.8	1.49e+00	0	41	104	0	29	13844
2026-01-13 10:05:34.96	150.33	8.96	-34.0	-45.7	3.8	1.49e+00	0	41	104	0	29	13916
2026-01-13 10:05:35.96	150.31	9.04	-34.0	-45.7	3.8	1.49e+00	0	41	104	0	29	13878
2026-01-13 10:05:36.97	150.30	9.13	-34.0	-45.7	3.8	1.49e+00	0	41	104	0	29	13858
2026-01-13 10:05:37.97	150.28	9.21	-34.0	-45.7	3.8	1.49e+00	0	41	104	0	29	13900
2026-01-13 10:05:38.98	150.27	9.30	-34.0	-45.7	3.8	1.49e+00	0	41	104	0	29	13900
2026-01-13 10:05:39.99	150.25	9.38	-34.0	-45.7	3.7	1.49e+00	0	41	104	0	29	13845
2026-01-13 10:05:40.98	150.24	9.47	-34.0	-45.7	3.8	1.49e+00	0	41	104	0	29	13875
2026-01-13 10:05:41.98	150.22	9.55	-34.0	-45.7	3.8	1.49e+00	0	41	104	0	29	13865
2026-01-13 10:05:42.99	150.21	9.64	-34.0	-45.7	3.8	1.49e+00	0	41	104	0	29	13882
2026-01-13 10:05:44.00	150.19	9.73	-34.0	-45.7	3.8	1.49e+00	0	41	104	0	29	13840
2026-01-13 10:05:45.01	150.18	9.81	-34.0	-45.7	3.8	1.49e+00	0	41	104	0	29	13834
2026-01-13 10:05:46.01	150.16	9.90	-34.0	-45.7	3.8	1.49e+00	0	41	104	0	29	13823
2026-01-13 10:05:47.02	150.15	9.99	-34.0	-45.7	3.8	1.49e+00	0	41	104	0	29	13873
2026-01-13 10:05:48.03	150.13	10.08	-34.0	-45.7	3.8	1.49e+00	0	41	104	0	29	13863
2026-01-13 10:05:49.03	150.12	10.16	-34.0	-45.7	3.8	1.49e+00	0	41	104	0	29	13887
2026-01-13 10:05:50.04	150.10	10.25	-34.0	-45.7	3.8	1.49e+00	0	41	104	0	29	13889
2026-01-13 10:05:51.05	150.08	10.34	-34.0	-45.7	3.8	1.49e+00	0	41	104	0	29	13857
2026-01-13 10:05:52.05	150.07	10.43	-34.0	-45.7	3.8	1.49e+00	0	41	104	0	29	13856
2026-01-13 10:05:53.05	150.05	10.52	-34.0	-45.7	3.8	1.49e+00	0	41	104	0	29	13830
2026-01-13 10:05:54.06	150.04	10.61	-34.0	-45.7	3.8	1.49e+00	0	41	104	0	29	13908
2026-01-13 10:05:55.06	150.02	10.70	-34.0	-45.7	3.8	1.49e+00	0	41	104	0	29	13875
2026-01-13 10:05:56.06	150.00	10.79	-34.0	-45.7	3.8	1.49e+00	0	41	104	0	29	13878
2026-01-13 10:05:57.06	149.99	10.88	-34.0	-45.7	3.8	1.49e+00	0	41	104	0	29	13871
2026-01-13 10:05:58.07	149.97	10.97	-34.0	-45.7	3.8	1.49e+00	0	41	104	0	29	13879
2026-01-13 10:05:59.07	149.95	11.06	-34.0	-45.7	3.8	1.49e+00	0	41	104	0	29	13852
2026-01-13 10:06:00.07	149.94	11.15	-34.0	-45.7	3.8	1.49e+00	0	41	104	0	29	13828
2026-01-13 10:06:01.07	149.92	11.24	-34.0	-45.7	3.8	1.49e+00	0	41	104	0	29	13891
2026-01-13 10:06:02.08	149.90	11.34	-34.0	-45.7	3.8	1.49e+00	0	41	104	0	29	13847
2026-01-13 10:06:03.08	149.88	11.43	-34.0	-45.7	3.8	1.49e+00	0	41	104	0	29	13885
2026-01-13 10:06:04.09	149.87	11.52	-34.0	-45.7	3.8	1.49e+00	0	41	104	0	29	13834
2026-01-13 10:06:05.09	149.85	11.61	-34.0	-45.7	3.8	1.49e+00	0	41	104	0	29	13907
2026-01-13 10:06:06.10	149.83	11.71	-34.0	-45.7	3.8	1.49e+00	0	41	104	0	29	13825
2026-01-13 10:06:07.10	149.81	11.80	-34.0	-45.7	3.8	1.49e+00	0	42	104	0	29	13860
2026-01-13 10:06:08.10	149.80	11.90	-34.0	-45.7	3.8	1.49e+00	0	41	104	0	29	13841
2026-01-13 10:06:09.10	149.78	11.99	-34.0	-45.7	3.8	1.49e+00	0	41	104	0	29	13885
2026-01-13 10:06:10.10	149.76	12.08	-34.0	-45.7	3.8	1.49e+00	0	41	104	0	29	13843
2026-01-13 10:06:11.11	149.74	12.18	-34.0	-45.7	3.8	1.49e+00	0	41	104	0	29	13868
2026-01-13 10:06:12.12	149.72	12.28	-34.0	-45.7	3.8	1.49e+00	0	41	104	0	29	13932
2026-01-13 10:06:13.12	149.70	12.37	-34.0	-45.7	3.8	1.49e+00	0	42	104	0	29	13872
2026-01-13 10:06:14.13	149.68	12.47	-34.0	-45.7	3.8	1.49e+00	0	42	104	0	29	13886
2026-01-13 10:06:15.13	149.67	12.57	-34.0	-45.7	3.8	1.49e+00	0	41	104	0	29	13865
2026-01-13 10:06:16.14	149.65	12.66	-34.0	-45.7	3.8	1.49e+00	0	42	104	0	29	13873
2026-01-13 10:06:17.14	149.63	12.76	-34.0	-45.7	3.8	1.49e+00	0	42	104	0	29	13809
2026-01-13 10:06:18.15	149.61	12.86	-34.0	-45.7	3.8	1.49e+00	0	42	104	0	29	13914
2026-01-13 10:06:19.16	149.59	12.96	-34.0	-45.7	3.8	1.49e+00	0	42	104	0	29	13881
2026-01-13 10:06:20.16	149.57	13.06	-34.0	-45.7	3.8	1.49e+00	0	42	104	0	29	13843
2026-01-13 10:06:21.17	149.55	13.16	-34.0	-45.7	3.8	1.49e+00	0	41	104	0	29	13864
2026-01-13 10:06:22.18	149.53	13.26	-34.0	-45.7	3.8	1.49e+00	0	42	104	0	29	13904
2026-01-13 10:06:23.19	149.51	13.36	-34.0	-45.7	3.8	1.49e+00	0	42	104	0	29	13912
2026-01-13 10:06:24.20	149.49	13.46	-34.0	-45.7	3.8	1.49e+00	0	42	104	0	29	13831
2026-01-13 10:06:25.21	149.47	13.56	-34.0	-45.7	3.8	1.49e+00	0	42	104	0	29	13873
2026-01-13 10:06:26.21	149.45	13.66	-34.0	-45.7	3.8	1.49e+00	0	42	104	0	29	13842
2026-01-13 10:06:27.22	149.43	13.76	-34.0	-45.7	3.8	1.49e+00	0	42	104	0	29	13873
2026-01-13 10:06:28.23	149.40	13.86	-34.0	-45.7	3.8	1.49e+00	0	42	104	0	29	13842
2026-01-13 10:06:29.23	149.38	13.97	-34.0	-45.7	3.8	1.49e+00	0	42	104	0	29	13902
2026-01-13 10:06:30.24	149.36	14.07	-34.0	-45.7	3.8	1.49e+00	0	42	104	0	29	13874
2026-01-13 10:06:31.25	149.34	14.17	-34.0	-45.7	3.8	1.49e+00	0	42	104	0	29	13880
2026-01-13 10:06:32.25	149.32	14.28	-34.0	-45.7	3.8	1.49e+00	0	42	104	0	29	13896
2026-01-13 10:06:33.26	149.30	14.38	-34.0	-45.7	3.8	1.49e+00	0	42	104	0	29	13893
2026-01-13 10:06:34.26	149.27	14.49	-34.0	-45.7	3.8	1.49e+00	0	42	104	0	29	13888
2026-01-13 10:06:35.27	149.25	14.59	-34.0	-45.7	3.8	1.49e+00	0	42	104	0	29	13878
2026-01-13 10:06:36.28	149.23	14.70	-34.0	-45.7	3.8	1.49e+00	0	42	104	0	29	13826
2026-01-13 10:06:37.28	149.21	14.80	-34.0	-45.7	3.8	1.49e+00	0	42	104	0	29	13832
2026-01-13 10:06:38.29	149.18	14.91	-34.0	-45.7	3.8	1.49e+00	0	42	104	0	29	13884
2026-01-13 10:06:39.29	149.16	15.02	-34.0	-45.7	3.8	1.49e+00	0	42	104	0	29	13864
2026-01-13 10:06:40.29	149.14	15.12	-34.0	-45.7	3.8	1.49e+00	0	42	104	0	29	13874
2026-01-13 10:06:41.30	149.12	15.23	-34.0	-45.7	3.8	1.49e+00	0	42	104	0	29	13876
2026-01-13 10:06:42.31	149.09	15.34	-34.0	-45.7	3.8	1.49e+00	0	42	104	0	29	13870
2026-01-13 10:06:43.31	149.07	15.45	-34.0	-45.7	3.8	1.49e+00	0	42	104	0	29	13850
2026-01-13 10:06:44.32	149.04	15.56	-34.0	-45.7	3.8	1.49e+00	0	42	104	0	29	13833
2026-01-13 10:06:45.33	149.02	15.67	-34.0	-45.7	3.8	1.49e+00	0	42	104	0	29	13906
2026-01-13 10:06:46.33	149.00	15.78	-34.0	-45.7	3.8	1.49e+00	0	42	104	0	29	13874
2026-01-13 10:06:47.34	148.97	15.89	-34.0	-45.7	3.8	1.49e+00	0	42	104	0	29	13872
2026-01-13 10:06:48.34	148.95	16.00	-34.0	-45.7	3.8	1.49e+00	0	42	104	0	29	13881
2026-01-13 10:06:49.34	148.92	16.11	-34.0	-45.7	3.8	1.49e+00	0	42	104	0	29	13891
2026-01-13 10:06:50.35	148.90	16.23	-34.0	-45.7	3.8	1.49e+00	0	42	104	0	29	13867
2026-01-13 10:06:51.36	148.87	16.34	-34.0	-45.7	3.8	1.49e+00	0	42	104	0	29	13873
2026-01-13 10:06:52.36	148.85	16.45	-34.0	-45.7	3.8	1.49e+00	0	42	104	0	29	13902
2026-01-13 10:06:53.37	148.82	16.57	-34.0	-45.7	3.8	1.49e+00	0	42	104	0	29	13893
2026-01-13 10:06:54.37	148.79	16.68	-34.0	-45.7	3.8	1.49e+00	0	42	104	0	29	13853
2026-01-13 10:06:55.38	148.77	16.80	-34.0	-45.7	3.8	1.49e+00	0	42	104	0	29	13925
2026-01-13 10:06:56.39	148.74	16.91	-34.0	-45.7	3.8	1.49e+00	0	42	104	0	29	13891
2026-01-13 10:06:57.40	148.72	17.03	-34.0	-45.7	3.8	1.49e+00	0	42	104	0	29	13884
2026-01-13 10:06:58.40	148.69	17.15	-34.0	-45.7	3.8	1.49e+00	0	42	104	0	29	13896
2026-01-13 10:06:59.41	148.66	17.26	-34.0	-45.7	3.8	1.49e+00	0	42	104	0	29	13891
2026-01-13 10:07:00.41	148.63	17.38	-34.0	-45.7	3.8	1.49e+00	0	42	104	0	29	13917
2026-01-13 10:07:01.41	148.61	17.50	-34.0	-45.7	3.8	1.49e+00	0	42	104	0	29	13882
2026-01-13 10:07:02.42	148.58	17.62	-34.0	-45.7	3.8	1.49e+00	0	42	104	0	29	13833
2026-01-13 10:07:03.42	148.55	17.74	-34.0	-45.7	3.8	1.49e+00	0	42	104	0	29	13887
2026-01-13 10:07:04.43	148.52	17.86	-34.0	-45.7	3.8	1.49e+00	0	42	104	0	29	13898
2026-01-13 10:07:05.44	148.49	17.98	-34.0	-45.7	3.8	1.49e+00	0	42	104	0	29	13899
2026-01-13 10:07:06.45	148.46	18.10	-34.0	-45.7	3.8	1.49e+00	0	42	104	0	29	13866
2026-01-13 10:07:07.46	148.44	18.22	-34.0	-45.7	3.7	1.49e+00	0	42	104	0	29	13882
2026-01-13 10:07:08.46	148.41	18.35	-34.0	-45.7	3.8	1.49e+00	0	42	104	0	29	13877
2026-01-13 10:07:09.46	148.38	18.47	-34.0	-45.8	3.8	1.49e+00	0	42	104	0	29	13935
2026-01-13 10:07:10.47	148.35	18.59	-34.0	-45.7	3.8	1.49e+00	0	42	104	0	29	13868
2026-01-13 10:07:11.47	148.32	18.72	-34.0	-45.7	3.8	1.49e+00	0	42	104	0	29	13902
2026-01-13 10:07:12.48	148.29	18.84	-34.0	-45.7	3.8	1.49e+00	0	42	104	0	29	13891
2026-01-13 10:07:13.49	148.26	18.97	-34.0	-45.7	3.8	1.49e+00	0	42	104	0	29	13864
2026-01-13 10:07:14.49	148.23	19.09	-34.0	-45.7	3.8	1.49e+00	0	42	104	0	29	13876
2026-01-13 10:07:15.50	148.19	19.22	-34.0	-45.7	3.8	1.49e+00	0	42	104	0	29	13863
2026-01-13 10:07:16.50	148.16	19.35	-34.0	-45.7	3.8	1.49e+00	0	42	104	0	29	13863
2026-01-13 10:07:17.50	148.13	19.47	-34.0	-45.7	3.8	1.49e+00	0	42	104	0	29	13884
2026-01-13 10:07:18.51	148.10	19.60	-34.0	-45.7	3.8	1.49e+00	0	42	104	0	29	13847
2026-01-13 10:07:19.51	148.07	19.73	-34.0	-45.7	3.8	1.49e+00	0	42	104	0	29	13818
2026-01-13 10:07:20.52	148.03	19.86	-34.0	-45.7	3.8	1.49e+00	0	42	104	0	29	13849
2026-01-13 10:07:21.53	148.00	20.00	-34.0	-45.7	3.8	1.49e+00	0	42	104	0	29	13844
2026-01-13 10:07:22.53	147.97	20.13	-34.0	-45.7	3.8	1.49e+00	0	42	104	0	29	13901
2026-01-13 10:07:23.54	147.93	20.26	-34.0	-45.7	3.8	1.49e+00	0	42	104	0	29	13874
2026-01-13 10:07:24.55	147.90	20.39	-34.0	-45.7	3.8	1.49e+00	0	42	104	0	29	13858
2026-01-13 10:07:25.55	147.87	20.52	-34.0	-45.7	3.8	1.49e+00	0	42	104	0	29	13872
2026-01-13 10:07:26.55	147.83	20.66	-34.0	-45.7	3.8	1.49e+00	0	42	104	0	29	13860
2026-01-13 10:07:27.55	147.80	20.79	-34.0	-45.7	3.8	1.49e+00	0	42	104	0	29	13886
2026-01-13 10:07:28.55	147.76	20.93	-34.0	-45.7	3.8	1.49e+00	0	42	104	0	29	13923
2026-01-13 10:07:29.56	147.73	21.06	-34.0	-45.7	3.8	1.49e+00	0	42	104	0	29	13878
2026-01-13 10:07:30.56	147.69	21.20	-34.0	-45.7	3.8	1.49e+00	0	42	104	0	29	13911
2026-01-13 10:07:31.56	147.65	21.34	-34.0	-45.7	3.8	1.49e+00	0	42	104	0	29	13880
2026-01-13 10:07:32.56	147.62	21.48	-34.0	-45.7	3.8	1.49e+00	0	42	104	0	29	13921
2026-01-13 10:07:33.57	147.58	21.62	-34.0	-45.7	3.8	1.49e+00	0	42	104	0	29	13864
2026-01-13 10:07:34.58	147.54	21.76	-34.0	-45.7	3.8	1.49e+00	0	42	104	0	29	13839
2026-01-13 10:07:35.59	147.51	21.90	-34.0	-45.7	3.8	1.49e+00	0	42	104	0	29	13911
2026-01-13 10:07:36.60	147.47	22.04	-34.0	-45.7	3.8	1.49e+00	0	42	104	0	29	13865
2026-01-13 10:07:37.60	147.43	22.18	-34.0	-45.7	3.8	1.49e+00	0	42	104	0	29	13908
2026-01-13 10:07:38.61	147.39	22.33	-34.0	-45.7	3.8	1.49e+00	0	42	104	0	29	13894
2026-01-13 10:07:39.61	147.35	22.47	-34.0	-45.7	3.8	1.49e+00	0	42	104	0	29	13884
2026-01-13 10:07:40.62	147.31	22.61	-34.0	-45.7	3.8	1.49e+00	0	42	104	0	29	13852
2026-01-13 10:07:41.62	147.27	22.76	-34.0	-45.7	3.8	1.49e+00	0	42	104	0	29	13861
2026-01-13 10:07:42.62	147.23	22.90	-34.0	-45.7	3.8	1.49e+00	0	42	104	0	29	13917
2026-01-13 10:07:43.62	147.19	23.05	-34.0	-45.7	3.8	1.49e+00	0	42	104	0	29	13871
2026-01-13 10:07:44.63	147.15	23.20	-34.0	-45.7	3.8	1.49e+00	0	42	104	0	29	13920
2026-01-13 10:07:45.64	147.11	23.35	-34.0	-45.7	3.8	1.49e+00	0	42	104	0	29	13887
2026-01-13 10:07:46.63	147.07	23.50	-34.0	-45.7	3.8	1.49e+00	0	42	104	0	29	13896
2026-01-13 10:07:47.64	147.02	23.65	-34.0	-45.7	3.8	1.49e+00	0	42	104	0	29	13845
2026-01-13 10:07:48.64	146.98	23.80	-34.0	-45.7	3.8	1.49e+00	0	42	104	0	29	13887
2026-01-13 10:07:49.64	146.94	23.95	-34.0	-45.7	3.8	1.49e+00	0	42	104	0	29	13873
2026-01-13 10:07:50.64	146.89	24.10	-34.0	-45.7	3.8	1.49e+00	0	42	104	0	29	13878
2026-01-13 10:07:51.65	146.85	24.26	-34.0	-45.8	3.8	1.49e+00	0	42	104	0	29	13953
2026-01-13 10:07:52.66	146.80	24.41	-34.0	-45.7	3.8	1.49e+00	0	42	104	0	29	13889
2026-01-13 10:07:53.66	146.76	24.57	-34.0	-45.7	3.8	1.49e+00	0	42	104	0	29	13883
2026-01-13 10:07:54.67	146.71	24.73	-34.0	-45.7	3.8	1.49e+00	0	42	104	0	29	13880
2026-01-13 10:07:55.67	146.67	24.88	-34.0	-45.7	3.8	1.49e+00	0	42	104	0	29	13893
2026-01-13 10:07:56.67	146.62	25.04	-34.0	-45.7	3.8	1.49e+00	0	42	104	0	29	13866
2026-01-13 10:07:57.67	146.57	25.20	-34.0	-45.7	3.8	1.49e+00	0	42	104	0	29	13913
2026-01-13 10:07:58.68	146.53	25.36	-34.0	-45.7	3.8	1.49e+00	0	42	104	0	29	13869
2026-01-13 10:07:59.68	146.48	25.52	-34.0	-45.7	3.8	1.49e+00	0	42	104	0	29	13922
2026-01-13 10:08:00.69	146.43	25.68	-34.0	-45.7	3.8	1.49e+00	0	42	104	0	29	13891
2026-01-13 10:08:01.69	146.38	25.85	-34.0	-45.8	3.8	1.49e+00	0	42	104	0	29	13932
2026-01-13 10:08:02.69	146.33	26.01	-34.0	-45.7	3.8	1.49e+00	0	42	104	0	29	13836
2026-01-13 10:08:03.70	146.28	26.18	-34.0	-45.8	3.8	1.49e+00	0	42	104	0	29	13923
2026-01-13 10:08:04.70	146.23	26.34	-34.0	-45.7	3.8	1.49e+00	0	42	104	0	29	13884
2026-01-13 10:08:05.71	146.18	26.51	-34.0	-45.7	3.8	1.49e+00	0	42	104	0	29	13878
2026-01-13 10:08:06.71	146.13	26.68	-34.0	-45.7	3.8	1.49e+00	0	42	104	0	29	13897
2026-01-13 10:08:07.71	146.07	26.84	-34.0	-45.7	3.8	1.49e+00	0	42	104	0	29	13879
2026-01-13 10:08:08.71	146.02	27.01	-34.0	-45.7	3.8	1.49e+00	0	42	104	0	29	13851
2026-01-13 10:08:09.71	145.97	27.18	-34.0	-45.7	3.8	1.49e+00	0	42	104	0	29	13868
2026-01-13 10:08:10.71	145.91	27.36	-34.0	-45.8	3.8	1.49e+00	0	42	104	0	29	13921
2026-01-13 10:08:11.71	145.86	27.53	-34.0	-45.7	3.8	1.49e+00	0	42	104	0	29	13916
2026-01-13 10:08:12.71	145.80	27.70	-34.0	-45.7	3.8	1.49e+00	0	42	104	0	29	13916
2026-01-13 10:08:13.71	145.75	27.88	-34.0	-45.7	3.8	1.49e+00	0	42	104	0	29	13862
2026-01-13 10:08:14.72	145.69	28.05	-34.0	-45.7	3.8	1.49e+00	0	42	104	0	29	13854
2026-01-13 10:08:15.72	145.63	28.23	-34.0	-45.7	3.8	1.49e+00	0	42	104	0	29	13896
2026-01-13 10:08:16.72	145.58	28.41	-34.0	-45.7	3.8	1.49e+00	0	42	104	0	29	13872
2026-01-13 10:08:17.73	145.52	28.59	-34.0	-45.7	3.8	1.49e+00	0	42	104	0	29	13887
2026-01-13 10:08:18.73	145.46	28.77	-34.0	-45.7	3.8	1.49e+00	0	42	104	0	29	13890
2026-01-13 10:08:19.73	145.40	28.95	-34.0	-45.7	3.8	1.49e+00	0	42	104	0	29	13905
2026-01-13 10:08:20.74	145.33	29.14	-34.0	-45.7	3.8	1.49e+00	0	42	104	0	29	13917
2026-01-13 10:08:21.74	145.27	29.32	-34.0	-45.7	3.8	1.49e+00	0	42	104	0	29	13904
2026-01-13 10:08:22.75	145.21	29.51	-34.0	-45.7	3.7	1.49e+00	0	42	104	0	29	13886
2026-01-13 10:08:23.76	145.15	29.69	-34.0	-45.7	3.8	1.49e+00	0	42	104	0	29	13881
2026-01-13 10:08:24.76	145.08	29.88	-34.0	-45.8	3.8	1.49e+00	0	42	104	0	29	13939
2026-01-13 10:08:25.76	145.02	30.07	-34.0	-45.7	3.8	1.49e+00	0	42	104	0	29	13857
2026-01-13 10:08:26.76	144.95	30.26	-34.0	-45.7	3.8	1.49e+00	0	42	104	0	29	13890
2026-01-13 10:08:27.76	144.89	30.45	-34.0	-45.7	3.8	1.49e+00	0	42	104	0	29	13886
2026-01-13 10:08:28.76	144.82	30.64	-34.0	-45.8	3.8	1.49e+00	0	42	104	0	29	13925
2026-01-13 10:08:29.77	144.75	30.84	-34.0	-45.7	3.8	1.49e+00	0	42	104	0	29	13822
2026-01-13 10:08:30.77	144.68	31.03	-34.0	-45.7	3.8	1.49e+00	0	42	104	0	29	13901
2026-01-13 10:08:31.78	144.61	31.23	-34.0	-45.7	3.8	1.49e+00	0	42	104	0	29	13912
2026-01-13 10:08:32.78	144.54	31.43	-34.0	-45.8	3.8	1.49e+00	0	42	104	0	29	13933
2026-01-13 10:08:33.79	144.47	31.63	-34.0	-45.7	3.8	1.49e+00	0	42	104	0	29	13911
2026-01-13 10:08:34.80	144.40	31.83	-34.0	-45.7	3.8	1.49e+00	0	42	104	0	29	13882
2026-01-13 10:08:35.81	144.32	32.03	-34.0	-45.7	3.8	1.49e+00	0	42	104	0	29	13890
2026-01-13 10:08:36.80	144.25	32.23	-34.0	-45.8	3.8	1.49e+00	0	42	104	0	29	13945
2026-01-13 10:08:37.80	144.17	32.44	-34.0	-45.7	3.8	1.49e+00	0	42	104	0	29	13902
2026-01-13 10:08:38.80	144.10	32.64	-34.0	-45.7	3.8	1.49e+00	0	42	104	0	29	13922
2026-01-13 10:08:39.81	144.02	32.85	-34.0	-45.7	3.8	1.49e+00	0	42	104	0	29	13916
2026-01-13 10:08:40.81	143.94	33.06	-34.0	-45.7	3.8	1.49e+00	0	42	104	0	29	13872
2026-01-13 10:08:41.81	143.86	33.27	-34.0	-45.7	3.8	1.49e+00	0	43	104	0	29	13909
2026-01-13 10:08:42.82	143.78	33.48	-34.0	-45.7	3.8	1.49e+00	0	42	104	0	29	13879
2026-01-13 10:08:43.82	143.70	33.69	-34.0	-45.7	3.8	1.49e+00	0	42	104	0	29	13852
2026-01-13 10:08:44.82	143.62	33.90	-34.0	-45.7	3.8	1.49e+00	0	42	104	0	29	13837
2026-01-13 10:08:45.83	143.53	34.12	-34.0	-45.6	3.8	1.49e+00	0	42	104	0	29	13795
2026-01-13 10:08:46.82	143.45	34.33	-34.0	-45.6	3.8	1.49e+00	0	42	104	0	29	13820
2026-01-13 10:08:47.83	143.36	34.55	-34.0	-45.6	3.8	1.49e+00	0	42	104	0	29	13808
2026-01-13 10:08:48.83	143.27	34.77	-34.0	-45.8	3.8	1.49e+00	0	42	104	0	29	13899
2026-01-13 10:08:49.84	143.19	35.00	-34.0	-45.7	3.8	1.49e+00	0	42	104	0	29	13916
2026-01-13 10:08:50.84	143.10	35.22	-34.0	-45.7	3.8	1.49e+00	0	42	104	0	29	13874
2026-01-13 10:08:51.85	143.00	35.44	-34.0	-45.8	3.8	1.49e+00	0	43	104	0	29	13932
2026-01-13 10:08:52.86	142.91	35.67	-34.0	-45.7	3.8	1.49e+00	0	42	104	0	29	13890
2026-01-13 10:08:53.86	142.82	35.90	-34.0	-45.7	3.8	1.49e+00	0	42	104	0	29	13874
2026-01-13 10:08:54.87	142.72	36.13	-34.0	-45.8	3.8	1.49e+00	0	42	104	0	29	13916
2026-01-13 10:08:55.87	142.62	36.36	-34.0	-45.8	3.8	1.49e+00	0	42	104	0	29	13930
2026-01-13 10:08:56.87	142.53	36.59	-34.0	-45.8	3.8	1.49e+00	0	42	104	0	29	13914
2026-01-13 10:08:57.87	142.43	36.82	-34.0	-45.6	3.8	1.49e+00	0	42	104	0	29	13716
2026-01-13 10:08:58.88	142.33	37.06	-34.0	-45.6	3.8	1.49e+00	0	42	104	0	29	13793
2026-01-13 10:08:59.88	142.22	37.29	-34.0	-45.6	3.8	1.49e+00	0	42	104	0	29	13723
2026-01-13 10:09:00.89	142.12	37.53	-34.0	-45.6	3.8	1.49e+00	0	42	104	0	29	13736
2026-01-13 10:09:01.89	142.01	37.77	-34.0	-45.6	3.8	1.49e+00	0	43	104	0	29	13769
2026-01-13 10:09:02.90	141.91	38.01	-34.0	-45.6	3.8	1.49e+00	0	42	104	0	29	13772
2026-01-13 10:09:03.91	141.80	38.26	-33.9	-45.6	3.8	1.49e+00	0	42	104	0	29	13745
2026-01-13 10:09:04.90	141.69	38.50	-33.9	-45.5	3.8	1.49e+00	0	42	104	0	29	13658
2026-01-13 10:09:05.90	141.57	38.74	-33.9	-45.5	3.8	1.49e+00	0	42	104	0	29	13655
2026-01-13 10:09:06.90	141.46	38.99	-33.9	-45.5	3.8	1.49e+00	0	42	104	0	29	13706
2026-01-13 10:09:07.90	141.35	39.24	-33.9	-45.6	3.8	1.49e+00	0	42	104	0	29	13725
2026-01-13 10:09:08.90	141.23	39.49	-33.9	-45.6	3.8	1.49e+00	0	42	104	0	29	13704
2026-01-13 10:09:09.90	141.11	39.74	-34.0	-45.7	3.8	1.49e+00	0	42	104	0	29	13895
2026-01-13 10:09:10.90	140.99	39.99	-34.0	-45.7	3.8	1.49e+00	0	42	104	0	29	13859
2026-01-13 10:09:11.90	140.87	40.25	-34.0	-45.7	3.8	1.49e+00	0	42	104	0	29	13860
2026-01-13 10:09:12.90	140.74	40.51	-34.0	-45.7	3.8	1.49e+00	0	42	104	0	29	13901
2026-01-13 10:09:13.90	140.61	40.77	-34.0	-45.7	3.8	1.49e+00	0	42	104	0	29	13908
2026-01-13 10:09:14.90	140.48	41.03	-34.0	-45.7	3.8	1.49e+00	0	42	104	0	29	13859
2026-01-13 10:09:15.90	140.35	41.29	-34.0	-45.7	3.8	1.49e+00	0	42	104	0	29	13885
2026-01-13 10:09:16.91	140.22	41.55	-34.0	-45.7	3.8	1.49e+00	0	43	104	0	29	13885
2026-01-13 10:09:17.91	140.08	41.82	-34.0	-45.7	3.8	1.49e+00	0	42	104	0	29	13806
2026-01-13 10:09:18.91	139.94	42.09	-34.0	-45.7	3.8	1.49e+00	0	43	104	0	29	13838
2026-01-13 10:09:19.91	139.80	42.36	-34.0	-45.7	3.8	1.49e+00	0	42	104	0	29	13862
2026-01-13 10:09:20.92	139.66	42.63	-34.0	-45.7	3.8	1.49e+00	0	42	104	0	29	13840
2026-01-13 10:09:21.92	139.51	42.90	-34.0	-45.7	3.8	1.49e+00	0	42	104	0	29	13905
2026-01-13 10:09:22.93	139.36	43.18	-34.0	-45.7	3.8	1.49e+00	0	42	104	0	29	13874
2026-01-13 10:09:23.93	139.21	43.46	-34.0	-45.7	3.8	1.49e+00	0	42	104	0	29	13907
2026-01-13 10:09:24.94	139.06	43.74	-34.0	-45.7	3.8	1.49e+00	0	42	104	0	29	13861
2026-01-13 10:09:25.95	138.90	44.02	-34.0	-45.7	3.8	1.49e+00	0	42	104	0	29	13846
2026-01-13 10:09:26.96	138.74	44.30	-34.0	-45.7	3.8	1.49e+00	0	42	104	0	29	13888
2026-01-13 10:09:27.96	138.58	44.59	-34.0	-45.7	3.8	1.49e+00	0	42	104	0	29	13843
2026-01-13 10:09:28.97	138.41	44.87	-34.0	-45.7	3.8	1.49e+00	0	42	104	0	29	13841
2026-01-13 10:09:29.97	138.24	45.16	-34.0	-45.7	3.8	1.49e+00	0	42	104	0	29	13880
2026-01-13 10:09:30.98	138.07	45.45	-34.0	-45.7	3.8	1.49e+00	0	42	104	0	29	13912
2026-01-13 10:09:31.99	137.90	45.75	-34.0	-45.8	3.8	1.49e+00	0	42	104	0	29	13918
2026-01-13 10:09:33.00	137.72	46.04	-34.0	-45.7	3.8	1.49e+00	0	42	104	0	29	13862
2026-01-13 10:09:34.00	137.53	46.34	-34.0	-45.8	3.8	1.49e+00	0	42	104	0	29	13924
2026-01-13 10:09:35.01	137.35	46.63	-34.0	-45.7	3.8	1.49e+00	0	43	104	0	29	13879
2026-01-13 10:09:36.02	137.16	46.94	-34.0	-45.8	3.8	1.49e+00	0	43	104	0	29	13914
2026-01-13 10:09:37.03	136.96	47.24	-34.0	-45.8	3.8	1.49e+00	0	42	104	0	29	13922
2026-01-13 10:09:38.03	136.77	47.54	-34.0	-45.7	3.8	1.49e+00	0	42	104	0	29	13891
2026-01-13 10:09:39.04	136.57	47.85	-34.0	-45.8	3.8	1.49e+00	0	43	104	0	29	13924
2026-01-13 10:09:40.04	136.36	48.15	-34.0	-45.7	3.8	1.49e+00	0	43	104	0	29	13866
2026-01-13 10:09:41.04	136.16	48.46	-34.0	-45.7	3.8	1.49e+00	0	42	104	0	29	13875
2026-01-13 10:09:42.05	135.94	48.77	-34.0	-45.7	3.8	1.49e+00	0	42	104	0	29	13876
2026-01-13 10:09:43.05	135.73	49.08	-34.0	-45.7	3.8	1.49e+00	0	42	104	0	29	13907
2026-01-13 10:09:44.05	135.51	49.39	-34.0	-45.7	3.8	1.49e+00	0	43	104	0	29	13873
2026-01-13 10:09:45.05	135.28	49.70	-34.0	-45.8	3.8	1.49e+00	0	43	104	0	29	13916
2026-01-13 10:09:46.06	135.05	50.02	-34.0	-45.7	3.8	1.49e+00	0	42	104	0	29	13872
2026-01-13 10:09:47.06	134.81	50.34	-34.0	-45.8	3.8	1.49e+00	0	43	104	0	29	13931
2026-01-13 10:09:48.06	134.57	50.66	-34.0	-45.7	3.8	1.49e+00	0	43	104	0	29	13867
2026-01-13 10:09:49.06	134.33	50.98	-34.0	-45.7	3.8	1.49e+00	0	43	104	0	29	13890
2026-01-13 10:09:50.06	134.08	51.30	-34.0	-45.8	3.8	1.49e+00	0	43	104	0	29	13935
2026-01-13 10:09:51.07	133.82	51.62	-34.0	-45.7	3.8	1.49e+00	0	42	104	0	29	13895
2026-01-13 10:09:52.08	133.55	51.95	-34.0	-45.8	3.8	1.49e+00	0	42	104	0	29	13912
2026-01-13 10:09:53.09	133.28	52.28	-34.0	-45.8	3.8	1.49e+00	0	43	104	0	29	13928
2026-01-13 10:09:54.09	133.01	52.61	-34.0	-45.7	3.8	1.49e+00	0	42	104	0	29	13898
2026-01-13 10:09:55.09	132.73	52.94	-34.0	-45.7	3.8	1.49e+00	0	42	104	0	29	13895
2026-01-13 10:09:56.10	132.44	53.27	-34.0	-45.7	3.8	1.49e+00	0	43	104	0	29	13897
2026-01-13 10:09:57.10	132.14	53.61	-34.0	-45.7	3.8	1.49e+00	0	42	104	0	29	13900
2026-01-13 10:09:58.10	131.84	53.94	-34.0	-45.7	3.8	1.49e+00	0	42	104	0	29	13880
2026-01-13 10:09:59.11	131.53	54.28	-34.0	-45.8	3.8	1.49e+00	0	43	104	0	29	13921
2026-01-13 10:10:00.11	131.22	54.61	-34.0	-45.7	3.8	1.49e+00	0	43	104	0	29	13896
2026-01-13 10:10:01.12	130.89	54.96	-34.0	-45.8	3.8	1.49e+00	0	43	104	0	29	13922
2026-01-13 10:10:02.12	130.56	55.29	-34.0	-45.7	3.8	1.49e+00	0	42	104	0	29	13872
2026-01-13 10:10:03.12	130.22	55.63	-34.0	-45.8	3.8	1.49e+00	0	42	104	0	29	13922
2026-01-13 10:10:04.12	129.88	55.98	-34.0	-45.8	3.8	1.49e+00	0	42	104	0	29	13928
2026-01-13 10:10:05.12	129.52	56.32	-34.0	-45.8	3.8	1.49e+00	0	42	104	0	29	13936
2026-01-13 10:10:06.13	129.15	56.66	-34.0	-45.8	3.8	1.49e+00	0	42	104	0	29	13901
2026-01-13 10:10:07.13	128.78	57.01	-34.0	-45.7	3.8	1.49e+00	0	43	104	0	29	13869
2026-01-13 10:10:08.12	128.40	57.35	-34.0	-45.8	3.8	1.49e+00	0	42	104	0	29	13922
2026-01-13 10:10:09.13	128.00	57.70	-33.9	-45.6	3.8	1.49e+00	0	42	104	0	29	13767
2026-01-13 10:10:10.13	127.60	58.05	-33.9	-45.6	3.8	1.49e+00	0	42	104	0	29	13799
2026-01-13 10:10:11.12	127.19	58.39	-33.9	-45.6	3.8	1.49e+00	0	42	104	0	29	13797
2026-01-13 10:10:12.13	126.76	58.74	-34.0	-45.6	3.8	1.49e+00	0	43	104	0	29	13781
2026-01-13 10:10:13.14	126.32	59.09	-34.0	-45.6	3.8	1.49e+00	0	42	104	0	29	13826
2026-01-13 10:10:14.15	125.87	59.45	-34.0	-45.7	3.8	1.49e+00	0	42	104	0	29	13884
2026-01-13 10:10:15.15	125.40	59.80	-34.0	-45.7	3.8	1.49e+00	0	42	104	0	29	13866
2026-01-13 10:10:16.16	124.93	60.15	-34.0	-45.7	3.8	1.49e+00	0	43	104	0	29	13941
2026-01-13 10:10:17.16	124.44	60.50	-34.0	-45.7	3.8	1.49e+00	0	42	104	0	29	13850
2026-01-13 10:10:18.15	123.94	60.84	-34.0	-45.7	3.8	1.49e+00	0	43	104	0	29	13858
2026-01-13 10:10:19.15	123.43	61.19	-34.0	-45.7	3.8	1.49e+00	0	42	104	0	29	13887
2026-01-13 10:10:20.15	122.90	61.54	-34.0	-45.8	3.8	1.49e+00	0	42	104	0	29	13965
2026-01-13 10:10:21.15	122.35	61.89	-34.0	-45.7	3.8	1.49e+00	0	43	104	0	29	13930
2026-01-13 10:10:22.15	121.79	62.24	-34.0	-45.8	3.8	1.49e+00	0	42	104	0	29	13955
2026-01-13 10:10:23.16	121.21	62.59	-34.0	-45.7	3.8	1.49e+00	0	43	104	0	29	13913
2026-01-13 10:10:24.15	120.62	62.93	-34.0	-45.7	3.8	1.49e+00	0	42	104	0	29	13859
2026-01-13 10:10:25.15	120.01	63.28	-34.0	-45.7	3.8	1.49e+00	0	42	104	0	29	13891
2026-01-13 10:10:26.15	119.38	63.62	-34.0	-45.7	3.8	1.49e+00	0	42	104	0	29	13869
2026-01-13 10:10:27.16	118.73	63.97	-34.0	-45.7	3.8	1.49e+00	0	42	104	0	29	13903
2026-01-13 10:10:28.16	118.06	64.31	-34.0	-45.7	3.8	1.49e+00	0	42	104	0	29	13814
2026-01-13 10:10:29.17	117.37	64.66	-34.0	-45.8	3.8	1.49e+00	0	42	104	0	29	13924
2026-01-13 10:10:30.17	116.66	64.99	-34.0	-45.7	3.8	1.49e+00	0	42	104	0	29	13849
2026-01-13 10:10:31.17	115.93	65.33	-34.0	-45.7	3.8	1.49e+00	0	42	104	0	29	13864
2026-01-13 10:10:32.17	115.17	65.66	-34.0	-45.7	3.8	1.49e+00	0	43	104	0	29	13877
2026-01-13 10:10:33.17	114.40	65.99	-34.0	-45.7	3.8	1.49e+00	0	43	104	0	29	13838
2026-01-13 10:10:34.17	113.60	66.32	-34.0	-45.8	3.8	1.49e+00	0	42	104	0	29	13913
2026-01-13 10:10:35.18	112.76	66.65	-34.0	-45.8	3.8	1.49e+00	0	42	104	0	29	13947
2026-01-13 10:10:36.18	111.91	66.97	-34.0	-45.7	3.8	1.49e+00	0	42	104	0	29	13866
2026-01-13 10:10:37.19	111.03	67.30	-34.0	-45.7	3.8	1.49e+00	0	42	104	0	29	13903
2026-01-13 10:10:38.20	110.11	67.61	-34.0	-45.7	3.8	1.49e+00	0	43	104	0	29	13867
2026-01-13 10:10:39.21	109.17	67.93	-33.7	-45.8	3.8	1.49e+00	0	43	104	0	28	14537
2026-01-13 10:10:40.22	108.20	68.24	-33.7	-45.8	3.8	1.49e+00	0	43	104	0	28	14559
2026-01-13 10:10:41.22	107.21	68.54	-33.7	-45.8	3.8	1.49e+00	0	43	104	0	28	14583
2026-01-13 10:10:42.22	106.18	68.83	-33.7	-45.8	3.8	1.49e+00	0	42	104	0	28	14618
2026-01-13 10:10:43.24	105.11	69.13	-33.7	-45.8	3.8	1.49e+00	0	42	104	0	28	14556
2026-01-13 10:10:44.24	104.02	69.41	-33.7	-45.8	3.8	1.49e+00	0	42	104	0	28	14593
2026-01-13 10:10:45.25	102.89	69.69	-33.6	-45.8	3.8	1.49e+00	0	42	104	0	28	14548
2026-01-13 10:10:46.25	101.74	69.96	-33.6	-45.8	3.8	1.49e+00	0	42	104	0	28	14565
2026-01-13 10:10:47.25	100.56	70.23	-33.5	-45.6	3.8	1.49e+00	0	43	104	0	28	14495
2026-01-13 10:10:48.26	99.33	70.49	-33.6	-45.7	3.8	1.49e+00	0	43	104	0	28	14496
2026-01-13 10:10:49.27	98.06	70.74	-33.6	-45.7	3.8	1.49e+00	0	42	104	0	28	14478
2026-01-13 10:10:50.27	96.77	70.98	-33.6	-45.6	3.8	1.49e+00	0	42	104	0	28	14407
2026-01-13 10:10:51.27	95.45	71.21	-33.6	-45.6	3.8	1.49e+00	0	42	104	0	28	14415
2026-01-13 10:10:52.28	94.08	71.43	-33.6	-45.6	3.8	1.49e+00	0	42	104	0	28	14370
2026-01-13 10:10:53.27	92.70	71.64	-33.6	-45.6	3.9	1.49e+00	0	42	104	0	28	14356
2026-01-13 10:10:54.27	91.28	71.85	-33.6	-45.6	3.9	1.49e+00	0	43	104	0	28	14399
2026-01-13 10:10:55.27	89.82	72.04	-33.6	-45.7	3.9	1.49e+00	0	43	104	0	28	14389
2026-01-13 10:10:56.28	88.31	72.22	-33.7	-45.7	3.9	1.49e+00	0	42	104	0	28	14396
2026-01-13 10:10:57.29	86.78	72.39	-33.7	-45.7	3.9	1.49e+00	0	43	104	0	28	14407
2026-01-13 10:10:58.29	85.23	72.55	-33.7	-45.7	3.8	1.49e+00	0	42	104	0	28	14402
2026-01-13 10:10:59.28	83.66	72.69	-33.7	-45.7	3.9	1.49e+00	0	42	104	0	28	14439
2026-01-13 10:11:00.29	82.04	72.83	-33.7	-45.7	3.8	1.49e+00	0	43	104	0	28	14399
2026-01-13 10:11:01.29	80.40	72.95	-33.7	-45.7	3.9	1.49e+00	0	42	104	0	28	14351
2026-01-13 10:11:02.29	78.75	73.05	-33.7	-45.7	3.9	1.49e+00	0	42	104	0	28	14352
2026-01-13 10:11:03.30	77.06	73.15	-33.7	-45.7	3.9	1.49e+00	0	42	104	0	28	14382
2026-01-13 10:11:04.30	75.36	73.22	-33.7	-45.7	3.8	1.49e+00	0	42	104	0	28	14347
2026-01-13 10:11:05.31	73.64	73.29	-34.0	-46.3	3.8	1.49e+00	0	42	104	0	28	14728
2026-01-13 10:11:06.32	71.90	73.34	-34.0	-46.3	3.8	1.49e+00	0	42	104	0	28	14774
2026-01-13 10:11:07.32	70.17	73.38	-34.0	-46.2	3.8	1.49e+00	0	42	104	0	28	14719
2026-01-13 10:11:08.32	68.43	73.40	-34.0	-46.2	3.8	1.49e+00	0	42	104	0	28	14729
2026-01-13 10:11:09.32	66.69	73.40	-34.0	-46.2	3.8	1.49e+00	0	42	104	0	28	14666
2026-01-13 10:11:10.33	64.93	73.39	-34.0	-46.2	3.8	1.49e+00	0	42	104	0	28	14730
2026-01-13 10:11:11.33	63.20	73.37	-34.0	-46.2	3.8	1.49e+00	0	42	104	0	28	14714
2026-01-13 10:11:12.33	61.47	73.33	-30.1	-45.9	3.8	1.50e+00	0	42	104	0	20	22384
2026-01-13 10:11:13.34	59.73	73.28	-30.2	-46.1	3.8	1.50e+00	0	42	104	0	20	22314
2026-01-13 10:11:14.34	58.02	73.21	-30.4	-46.3	3.8	1.50e+00	0	42	104	0	20	22325
2026-01-13 10:11:15.35	56.32	73.13	-30.5	-45.8	3.8	1.50e+00	0	42	104	0	21	20970
2026-01-13 10:11:16.35	54.64	73.04	-30.7	-46.0	3.8	1.50e+00	0	42	104	0	21	21139
2026-01-13 10:11:17.36	52.98	72.93	-30.8	-46.1	3.8	1.50e+00	0	42	104	0	21	21063
2026-01-13 10:11:18.36	51.35	72.81	-30.9	-46.2	3.8	1.50e+00	0	42	104	0	21	21036
2026-01-13 10:11:19.37	49.73	72.67	-31.0	-45.9	3.8	1.50e+00	0	42	104	0	22	19987
2026-01-13 10:11:20.38	48.14	72.52	-31.1	-46.0	3.8	1.50e+00	0	42	104	0	22	19959
2026-01-13 10:11:21.38	46.59	72.36	-31.2	-46.1	3.8	1.50e+00	0	42	104	0	22	19995
2026-01-13 10:11:22.39	45.06	72.19	-31.3	-46.2	3.8	1.50e+00	0	42	104	0	22	20096
2026-01-13 10:11:23.40	43.56	72.00	-31.3	-45.7	3.9	1.50e+00	0	42	104	0	23	18878
2026-01-13 10:11:24.40	42.11	71.81	-31.6	-46.1	3.9	1.50e+00	0	42	104	0	23	18974
2026-01-13 10:11:25.40	40.70	71.61	-31.5	-45.9	3.9	1.50e+00	0	42	104	0	23	19019
2026-01-13 10:11:26.41	39.30	71.39	-31.6	-45.5	3.9	1.50e+00	0	42	104	0	24	17871
2026-01-13 10:11:27.41	37.95	71.17	-31.7	-45.7	3.9	1.49e+00	0	42	104	0	24	18021
2026-01-13 10:11:28.42	36.62	70.93	-31.6	-45.6	3.9	1.50e+00	0	42	104	0	24	18057
2026-01-13 10:11:29.42	35.34	70.69	-31.6	-45.6	3.9	1.50e+00	0	42	104	0	24	17991
2026-01-13 10:11:30.42	34.10	70.44	-31.6	-45.6	3.9	1.50e+00	0	42	104	0	24	17998
2026-01-13 10:11:31.42	32.89	70.18	-31.6	-45.6	3.9	1.50e+00	0	42	104	0	24	17980
2026-01-13 10:11:32.42	31.71	69.92	-32.4	-46.3	3.9	1.50e+00	0	42	104	0	24	17925
2026-01-13 10:11:33.42	30.56	69.65	-31.7	-45.6	3.8	1.50e+00	0	42	104	0	24	17849
2026-01-13 10:11:34.43	29.44	69.36	-31.6	-45.6	3.8	1.50e+00	0	42	104	0	24	17921
2026-01-13 10:11:35.43	28.36	69.08	-31.7	-45.6	3.8	1.50e+00	0	42	104	0	24	17833
2026-01-13 10:11:36.42	27.33	68.79	-31.7	-45.4	3.7	1.50e+00	0	42	104	0	24	17394
2026-01-13 10:11:37.42	26.31	68.50	-31.8	-45.3	3.8	1.50e+00	0	42	104	0	25	16926
2026-01-13 10:11:38.42	25.32	68.20	-32.0	-45.4	3.8	1.50e+00	0	42	104	0	25	16928
2026-01-13 10:11:39.42	24.37	67.89	-32.8	-46.2	3.8	1.50e+00	0	42	104	0	25	16896
2026-01-13 10:11:40.42	23.44	67.58	-32.1	-45.5	3.8	1.50e+00	0	42	104	0	25	16840
2026-01-13 10:11:41.43	22.53	67.26	-32.2	-45.7	3.8	1.50e+00	0	42	104	0	25	16901
2026-01-13 10:11:42.44	21.65	66.94	-32.4	-45.4	3.8	1.50e+00	0	42	104	0	26	15963
2026-01-13 10:11:43.45	20.79	66.61	-34.0	-46.2	3.8	1.50e+00	0	42	104	0	28	14654
2026-01-13 10:11:44.45	19.97	66.29	-34.0	-46.2	3.8	1.49e+00	0	42	104	0	28	14670
2026-01-13 10:11:45.45	19.18	65.96	-34.0	-46.2	3.8	1.49e+00	0	42	104	0	28	14683
2026-01-13 10:11:46.46	18.40	65.63	-34.0	-46.2	3.8	1.49e+00	0	42	104	0	28	14657
2026-01-13 10:11:47.46	17.65	65.29	-34.0	-46.2	3.8	1.49e+00	0	42	104	0	28	14663
2026-01-13 10:11:48.47	16.91	64.95	-34.0	-46.2	3.8	1.49e+00	0	42	104	0	28	14649
2026-01-13 10:11:49.47	16.21	64.62	-34.0	-46.2	3.8	1.49e+00	0	42	104	0	28	14707
2026-01-13 10:11:50.47	15.52	64.28	-34.0	-46.2	3.8	1.49e+00	0	42	104	0	28	14712
2026-01-13 10:11:51.47	14.86	63.94	-34.0	-46.2	3.8	1.49e+00	0	42	104	0	28	14688
2026-01-13 10:11:52.47	14.21	63.59	-34.0	-46.2	3.8	1.49e+00	0	42	104	0	28	14717
2026-01-13 10:11:53.47	13.59	63.25	-34.0	-46.2	3.8	1.49e+00	0	42	104	0	28	14682
2026-01-13 10:11:54.48	12.97	62.90	-34.0	-46.2	3.8	1.49e+00	0	42	104	0	28	14698
2026-01-13 10:11:55.48	12.38	62.56	-34.0	-46.2	3.8	1.49e+00	0	42	104	0	28	14707
2026-01-13 10:11:56.49	11.80	62.21	-34.0	-46.2	3.8	1.49e+00	0	42	104	0	28	14685
2026-01-13 10:11:57.49	11.25	61.86	-34.0	-46.2	3.8	1.49e+00	0	42	104	0	28	14691
2026-01-13 10:11:58.49	10.71	61.51	-34.0	-46.2	3.8	1.49e+00	0	42	104	0	28	14668
2026-01-13 10:11:59.50	10.17	61.16	-34.0	-46.2	3.8	1.49e+00	0	42	104	0	28	14676
2026-01-13 10:12:00.49	9.67	60.81	-34.0	-46.2	3.8	1.49e+00	0	42	104	0	28	14675
2026-01-13 10:12:01.50	9.16	60.46	-34.0	-46.2	3.7	1.49e+00	0	42	104	0	28	14706
2026-01-13 10:12:02.50	8.68	60.11	-34.0	-46.2	3.8	1.49e+00	0	42	104	0	28	14660
2026-01-13 10:12:03.50	8.21	59.77	-34.0	-46.2	3.8	1.49e+00	0	42	104	0	28	14730
2026-01-13 10:12:04.51	7.75	59.41	-34.0	-46.2	3.8	1.49e+00	0	42	104	0	28	14680
2026-01-13 10:12:05.51	7.30	59.07	-34.0	-46.2	3.8	1.49e+00	0	42	104	0	28	14710
2026-01-13 10:12:06.50	6.87	58.72	-34.0	-46.2	3.8	1.49e+00	0	42	104	0	28	14732
2026-01-13 10:12:07.50	6.45	58.38	-34.0	-46.2	3.8	1.49e+00	0	42	104	0	28	14741
2026-01-13 10:12:08.51	6.03	58.03	-34.0	-46.2	3.8	1.49e+00	0	42	104	0	28	14688
2026-01-13 10:12:09.52	5.62	57.68	-34.0	-46.2	3.8	1.49e+00	0	42	104	0	28	14707
2026-01-13 10:12:10.52	5.23	57.33	-34.0	-46.2	3.8	1.49e+00	0	42	104	0	28	14666
2026-01-13 10:12:11.52	4.85	56.99	-34.0	-46.2	3.8	1.49e+00	0	42	104	0	28	14709
2026-01-13 10:12:12.52	4.48	56.64	-34.0	-46.2	3.8	1.49e+00	0	42	104	0	28	14670
2026-01-13 10:12:13.52	4.12	56.30	-34.0	-46.2	3.8	1.49e+00	0	42	104	0	28	14709
2026-01-13 10:12:14.53	3.76	55.96	-34.0	-46.2	3.8	1.49e+00	0	42	104	0	28	14703
2026-01-13 10:12:15.52	3.42	55.62	-34.0	-46.2	3.8	1.49e+00	0	42	104	0	28	14707
2026-01-13 10:12:16.52	3.08	55.28	-34.0	-46.3	3.8	1.49e+00	0	42	104	0	28	14744
2026-01-13 10:12:17.53	2.75	54.94	-34.0	-46.2	3.8	1.49e+00	0	42	104	0	28	14719
2026-01-13 10:12:18.53	2.43	54.61	-34.0	-46.2	3.8	1.49e+00	0	42	104	0	28	14724
2026-01-13 10:12:19.54	2.11	54.27	-34.0	-46.2	3.8	1.49e+00	0	42	104	0	28	14711
2026-01-13 10:12:20.53	1.81	53.94	-34.0	-46.2	3.8	1.49e+00	0	42	104	0	28	14700
2026-01-13 10:12:21.52	1.51	53.61	-34.0	-46.2	3.8	1.49e+00	0	42	104	0	28	14698
2026-01-13 10:12:22.53	1.22	53.27	-34.0	-46.2	3.8	1.49e+00	0	42	104	0	28	14748
2026-01-13 10:12:23.53	0.93	52.94	-34.0	-46.2	3.8	1.49e+00	0	42	104	0	28	14722
2026-01-13 10:12:24.53	0.65	52.62	-34.0	-46.2	3.8	1.49e+00	0	42	104	0	28	14679
2026-01-13 10:12:25.54	0.38	52.29	-34.0	-46.3	3.8	1.49e+00	0	42	104	0	28	14747
2026-01-13 10:12:26.54	0.11	51.96	-34.0	-46.2	3.8	1.49e+00	0	42	104	0	28	14697
2026-01-13 10:12:27.53	359.85	51.64	-34.0	-46.2	3.8	1.49e+00	0	42	104	0	28	14722
2026-01-13 10:12:28.52	359.60	51.32	-34.0	-46.2	3.8	1.49e+00	0	42	104	0	28	14685
2026-01-13 10:12:29.51	359.35	51.00	-34.0	-46.2	3.8	1.49e+00	0	42	104	0	28	14705
2026-01-13 10:12:30.51	359.11	50.68	-34.0	-46.2	3.8	1.49e+00	0	42	104	0	28	14688
2026-01-13 10:12:31.50	358.87	50.37	-34.0	-46.2	3.8	1.49e+00	0	42	104	0	28	14735
2026-01-13 10:12:32.50	358.64	50.06	-34.0	-46.2	3.8	1.49e+00	0	42	104	0	28	14682
2026-01-13 10:12:33.50	358.41	49.74	-34.0	-46.2	3.8	1.49e+00	0	42	104	0	28	14701
2026-01-13 10:12:34.50	358.18	49.43	-34.0	-46.2	3.8	1.49e+00	0	42	104	0	28	14704
2026-01-13 10:12:35.50	357.96	49.12	-34.0	-46.2	3.8	1.49e+00	0	42	104	0	28	14720
2026-01-13 10:12:36.50	357.75	48.81	-34.0	-46.2	3.8	1.49e+00	0	42	104	0	28	14736
2026-01-13 10:12:37.49	357.54	48.51	-34.0	-46.2	3.8	1.49e+00	0	42	104	0	28	14670
2026-01-13 10:12:38.50	357.33	48.20	-34.0	-46.2	3.8	1.49e+00	0	42	104	0	28	14731
2026-01-13 10:12:39.49	357.13	47.90	-34.0	-46.2	3.8	1.49e+00	0	42	104	0	28	14711
2026-01-13 10:12:40.49	356.93	47.59	-34.0	-46.2	3.8	1.49e+00	0	42	104	0	28	14709
2026-01-13 10:12:41.49	356.73	47.29	-34.0	-46.2	3.8	1.49e+00	0	42	104	0	28	14738
2026-01-13 10:12:42.49	356.54	47.00	-34.0	-46.2	3.8	1.49e+00	0	42	104	0	28	14720
2026-01-13 10:12:43.49	356.35	46.70	-34.0	-46.2	3.8	1.49e+00	0	42	104	0	28	14735
2026-01-13 10:12:44.50	356.17	46.40	-34.0	-46.2	3.8	1.49e+00	0	42	104	0	28	14722
2026-01-13 10:12:45.50	355.99	46.11	-34.0	-46.3	3.8	1.49e+00	0	42	104	0	28	14760
2026-01-13 10:12:46.49	355.81	45.82	-34.0	-46.2	3.8	1.49e+00	0	42	104	0	28	14723
2026-01-13 10:12:47.49	355.64	45.53	-34.0	-46.2	3.8	1.49e+00	0	42	104	0	28	14702
2026-01-13 10:12:48.49	355.47	45.24	-34.0	-46.2	3.8	1.49e+00	0	42	104	0	28	14670
2026-01-13 10:12:49.49	355.30	44.96	-34.0	-46.2	3.8	1.49e+00	0	42	104	0	28	14715
2026-01-13 10:12:50.49	355.14	44.67	-34.0	-46.2	3.8	1.49e+00	0	42	104	0	28	14752
2026-01-13 10:12:51.48	354.98	44.39	-34.0	-46.2	3.8	1.49e+00	0	42	104	0	28	14717
2026-01-13 10:12:52.49	354.82	44.11	-34.0	-46.2	3.8	1.49e+00	0	42	104	0	28	14726
2026-01-13 10:12:53.49	354.66	43.83	-34.0	-46.2	3.8	1.49e+00	0	42	104	0	28	14707
2026-01-13 10:12:54.50	354.51	43.55	-34.0	-46.2	3.8	1.49e+00	0	42	104	0	28	14726
2026-01-13 10:12:55.50	354.35	43.28	-34.0	-46.2	3.8	1.49e+00	0	42	104	0	28	14665
2026-01-13 10:12:56.50	354.21	43.00	-34.0	-46.2	3.8	1.49e+00	0	42	104	0	28	14712
2026-01-13 10:12:57.51	354.06	42.73	-34.0	-46.3	3.8	1.49e+00	0	42	104	0	28	14724
2026-01-13 10:12:58.51	353.92	42.46	-34.0	-46.2	3.8	1.49e+00	0	42	104	0	28	14721
2026-01-13 10:12:59.51	353.78	42.19	-34.0	-46.2	3.8	1.49e+00	0	42	104	0	28	14704
2026-01-13 10:13:00.51	353.64	41.92	-34.0	-46.2	3.8	1.49e+00	0	42	104	0	28	14665
2026-01-13 10:13:01.51	353.50	41.66	-34.0	-46.2	3.8	1.49e+00	0	43	104	0	28	14677
2026-01-13 10:13:02.51	353.37	41.40	-34.0	-46.2	3.8	1.49e+00	0	42	104	0	28	14720
2026-01-13 10:13:03.51	353.24	41.13	-34.0	-46.2	3.8	1.49e+00	0	42	104	0	28	14702
2026-01-13 10:13:04.52	353.11	40.87	-34.0	-46.2	3.8	1.49e+00	0	42	104	0	28	14726
2026-01-13 10:13:05.52	352.98	40.61	-34.0	-46.2	3.8	1.49e+00	0	42	104	0	28	14717
2026-01-13 10:13:06.52	352.86	40.36	-34.0	-46.2	3.8	1.49e+00	0	42	104	0	28	14686
2026-01-13 10:13:07.51	352.74	40.11	-34.0	-46.2	3.8	1.49e+00	0	42	104	0	28	14726
2026-01-13 10:13:08.52	352.61	39.85	-34.0	-46.2	3.8	1.49e+00	0	42	104	0	28	14691
2026-01-13 10:13:09.52	352.49	39.60	-34.0	-46.3	3.8	1.49e+00	0	42	104	0	28	14747
2026-01-13 10:13:10.51	352.38	39.35	-34.0	-46.2	3.8	1.49e+00	0	42	104	0	28	14701
2026-01-13 10:13:11.51	352.26	39.10	-34.0	-46.2	3.8	1.49e+00	0	42	104	0	28	14709
2026-01-13 10:13:12.51	352.15	38.86	-34.0	-46.2	3.8	1.49e+00	0	42	104	0	28	14695
2026-01-13 10:13:13.50	352.04	38.62	-34.0	-46.2	3.8	1.49e+00	0	42	104	0	28	14732
2026-01-13 10:13:14.50	351.93	38.37	-34.0	-46.2	3.8	1.49e+00	0	42	104	0	28	14701
2026-01-13 10:13:15.50	351.82	38.13	-34.0	-46.3	3.8	1.49e+00	0	42	104	0	28	14748
2026-01-13 10:13:16.50	351.71	37.89	-34.0	-46.2	3.8	1.49e+00	0	42	104	0	28	14726
2026-01-13 10:13:17.50	351.61	37.65	-34.0	-46.2	3.8	1.49e+00	0	42	104	0	28	14700
2026-01-13 10:13:18.50	351.51	37.42	-34.0	-46.2	3.8	1.49e+00	0	42	104	0	28	14707
2026-01-13 10:13:19.49	351.41	37.18	-34.0	-46.2	3.8	1.49e+00	0	42	104	0	28	14687
2026-01-13 10:13:20.49	351.30	36.95	-34.0	-46.2	3.8	1.49e+00	0	43	104	0	28	14704
2026-01-13 10:13:21.49	351.21	36.72	-34.0	-46.2	3.8	1.49e+00	0	42	104	0	28	14738
2026-01-13 10:13:22.50	351.11	36.49	-34.0	-46.2	3.8	1.49e+00	0	42	104	0	28	14702
2026-01-13 10:13:23.50	351.01	36.26	-34.0	-46.2	3.8	1.49e+00	0	42	104	0	28	14712
2026-01-13 10:13:24.49	350.92	36.03	-34.0	-46.2	3.8	1.49e+00	0	42	104	0	28	14700
2026-01-13 10:13:25.49	350.82	35.81	-34.0	-46.2	3.8	1.49e+00	0	42	104	0	28	14689
2026-01-13 10:13:26.49	350.73	35.58	-34.0	-46.3	3.8	1.49e+00	0	42	104	0	28	14755
2026-01-13 10:13:27.48	350.64	35.36	-34.0	-46.2	3.8	1.49e+00	0	43	104	0	28	14695
2026-01-13 10:13:28.48	350.55	35.14	-34.0	-46.2	3.8	1.49e+00	0	42	104	0	28	14727
2026-01-13 10:13:29.48	350.46	34.92	-34.0	-46.2	3.8	1.49e+00	0	42	104	0	28	14723
2026-01-13 10:13:30.47	350.38	34.70	-34.0	-46.2	3.8	1.49e+00	0	42	104	0	28	14727
2026-01-13 10:13:31.47	350.29	34.49	-34.0	-46.2	3.8	1.49e+00	0	42	104	0	28	14693
2026-01-13 10:13:32.46	350.21	34.27	-34.0	-46.2	3.8	1.49e+00	0	42	104	0	28	14713
2026-01-13 10:13:33.46	350.12	34.06	-34.0	-46.2	3.8	1.49e+00	0	42	104	0	28	14654
2026-01-13 10:13:34.47	350.04	33.84	-34.0	-46.2	3.8	1.49e+00	0	42	104	0	28	14717
2026-01-13 10:13:35.47	349.96	33.63	-34.0	-46.2	3.8	1.49e+00	0	42	104	0	28	14683
2026-01-13 10:13:36.47	349.88	33.42	-34.0	-46.2	3.8	1.49e+00	0	42	104	0	28	14724
2026-01-13 10:13:37.47	349.80	33.21	-34.0	-46.2	3.8	1.49e+00	0	42	104	0	28	14718
2026-01-13 10:13:38.48	349.72	33.01	-34.0	-46.2	3.8	1.49e+00	0	43	104	0	28	14705
2026-01-13 10:13:39.48	349.65	32.80	-34.0	-46.2	3.8	1.49e+00	0	42	104	0	28	14695
2026-01-13 10:13:40.49	349.57	32.59	-34.0	-46.2	3.8	1.49e+00	0	42	104	0	28	14701
2026-01-13 10:13:41.50	349.49	32.39	-34.0	-46.3	3.8	1.49e+00	0	42	104	0	28	14760
2026-01-13 10:13:42.51	349.42	32.18	-34.0	-46.2	3.8	1.49e+00	0	42	104	0	28	14721
2026-01-13 10:13:43.51	349.35	31.98	-34.0	-46.2	3.8	1.49e+00	0	42	104	0	28	14733
2026-01-13 10:13:44.52	349.27	31.78	-34.0	-46.2	3.8	1.49e+00	0	43	104	0	28	14748
2026-01-13 10:13:45.52	349.20	31.58	-34.0	-46.2	3.8	1.49e+00	0	43	104	0	28	14700
2026-01-13 10:13:46.52	349.13	31.39	-34.0	-46.2	3.8	1.49e+00	0	42	104	0	28	14710
2026-01-13 10:13:47.52	349.06	31.19	-34.0	-46.2	3.8	1.49e+00	0	42	104	0	28	14687
2026-01-13 10:13:48.52	348.99	31.00	-34.0	-46.2	3.8	1.49e+00	0	42	104	0	28	14732
2026-01-13 10:13:49.52	348.93	30.80	-34.0	-46.2	3.8	1.49e+00	0	42	104	0	28	14730
2026-01-13 10:13:50.53	348.86	30.61	-34.0	-46.3	3.8	1.49e+00	0	43	104	0	28	14750
2026-01-13 10:13:51.53	348.79	30.42	-34.0	-46.2	3.8	1.49e+00	0	42	104	0	28	14738
2026-01-13 10:13:52.54	348.73	30.23	-34.0	-46.2	3.8	1.49e+00	0	42	104	0	28	14676
2026-01-13 10:13:53.54	348.66	30.04	-34.0	-46.2	3.8	1.49e+00	0	42	104	0	28	14713
2026-01-13 10:13:54.55	348.60	29.85	-34.0	-46.2	3.8	1.49e+00	0	43	104	0	28	14719
2026-01-13 10:13:55.56	348.54	29.67	-34.0	-46.2	3.8	1.49e+00	0	42	104	0	28	14705
2026-01-13 10:13:56.56	348.47	29.48	-34.0	-46.2	3.8	1.49e+00	0	42	104	0	28	14686
2026-01-13 10:13:57.57	348.41	29.30	-34.0	-46.2	3.8	1.49e+00	0	43	104	0	28	14724
2026-01-13 10:13:58.58	348.35	29.11	-34.0	-46.2	3.8	1.49e+00	0	42	104	0	28	14700
2026-01-13 10:13:59.58	348.29	28.93	-34.0	-46.2	3.8	1.49e+00	0	43	104	0	28	14689
2026-01-13 10:14:00.59	348.23	28.75	-34.0	-46.2	3.8	1.49e+00	0	42	104	0	28	14703
2026-01-13 10:14:01.59	348.17	28.57	-34.0	-46.2	3.8	1.49e+00	0	43	104	0	28	14742
2026-01-13 10:14:02.60	348.11	28.39	-34.0	-46.3	3.8	1.49e+00	0	43	104	0	28	14763
2026-01-13 10:14:03.60	348.06	28.21	-34.0	-46.3	3.8	1.49e+00	0	43	104	0	28	14744
2026-01-13 10:14:04.61	348.00	28.04	-34.0	-46.2	3.8	1.49e+00	0	43	104	0	28	14714
2026-01-13 10:14:05.61	347.94	27.86	-34.0	-46.2	3.8	1.49e+00	0	43	104	0	28	14691
2026-01-13 10:14:06.62	347.89	27.69	-34.0	-46.2	3.8	1.49e+00	0	43	104	0	28	14713
2026-01-13 10:14:07.63	347.83	27.51	-34.0	-46.3	3.8	1.49e+00	0	43	104	0	28	14734
2026-01-13 10:14:08.63	347.78	27.34	-34.0	-46.2	3.8	1.49e+00	0	43	104	0	28	14681
2026-01-13 10:14:09.64	347.73	27.17	-34.0	-46.2	3.8	1.49e+00	0	43	104	0	28	14695
2026-01-13 10:14:10.65	347.67	27.00	-34.0	-46.3	3.8	1.49e+00	0	43	104	0	28	14776
2026-01-13 10:14:11.66	347.62	26.83	-34.0	-46.2	3.8	1.49e+00	0	43	104	0	28	14716
2026-01-13 10:14:12.66	347.57	26.66	-34.0	-46.2	3.8	1.49e+00	0	43	104	0	28	14681
2026-01-13 10:14:13.67	347.52	26.50	-34.0	-46.2	3.8	1.49e+00	0	43	104	0	28	14710
2026-01-13 10:14:14.68	347.47	26.33	-34.0	-46.2	3.8	1.49e+00	0	43	104	0	28	14716
2026-01-13 10:14:15.69	347.42	26.16	-34.0	-46.2	3.8	1.49e+00	0	43	104	0	28	14725
2026-01-13 10:14:16.69	347.37	26.00	-34.0	-46.2	3.8	1.49e+00	0	43	104	0	28	14713
2026-01-13 10:14:17.70	347.32	25.84	-34.0	-46.3	3.8	1.49e+00	0	43	104	0	28	14741
2026-01-13 10:14:18.70	347.27	25.68	-34.0	-46.2	3.8	1.49e+00	0	43	104	0	28	14684
2026-01-13 10:14:19.70	347.22	25.52	-34.0	-46.2	3.7	1.49e+00	0	43	104	0	28	14699
2026-01-13 10:14:20.71	347.18	25.35	-34.0	-46.2	3.8	1.49e+00	0	43	104	0	28	14695
2026-01-13 10:14:21.73	347.13	25.19	-34.0	-46.3	3.8	1.49e+00	0	43	104	0	28	14761
2026-01-13 10:14:22.73	347.08	25.04	-34.0	-46.3	3.8	1.49e+00	0	43	104	0	28	14744
2026-01-13 10:14:23.73	347.04	24.88	-34.0	-46.2	3.8	1.49e+00	0	43	104	0	28	14719
2026-01-13 10:14:24.73	346.99	24.72	-34.0	-46.2	3.8	1.49e+00	0	43	104	0	28	14712
2026-01-13 10:14:25.73	346.95	24.57	-34.0	-46.2	3.8	1.49e+00	0	43	104	0	28	14731
2026-01-13 10:14:26.73	346.91	24.42	-34.0	-46.2	3.8	1.49e+00	0	43	104	0	28	14729
2026-01-13 10:14:27.73	346.86	24.26	-34.0	-46.2	3.8	1.49e+00	0	43	104	0	28	14735
2026-01-13 10:14:28.73	346.82	24.11	-34.0	-46.2	3.8	1.49e+00	0	43	104	0	28	14685
2026-01-13 10:14:29.73	346.78	23.96	-34.0	-46.3	3.8	1.49e+00	0	43	104	0	28	14747
2026-01-13 10:14:30.74	346.73	23.81	-34.0	-46.2	3.8	1.49e+00	0	43	104	0	28	14716
2026-01-13 10:14:31.75	346.69	23.66	-34.0	-46.3	3.8	1.49e+00	0	43	104	0	28	14759
2026-01-13 10:14:32.76	346.65	23.51	-34.0	-46.2	3.8	1.49e+00	0	43	104	0	28	14719
2026-01-13 10:14:33.76	346.61	23.36	-34.0	-46.2	3.8	1.49e+00	0	43	104	0	28	14704
2026-01-13 10:14:34.77	346.57	23.21	-34.0	-46.3	3.8	1.49e+00	0	43	104	0	28	14732
2026-01-13 10:14:35.78	346.53	23.06	-34.0	-46.3	3.8	1.49e+00	0	43	104	0	28	14759
2026-01-13 10:14:36.79	346.49	22.92	-34.0	-46.3	3.8	1.49e+00	0	42	104	0	28	14741
2026-01-13 10:14:37.80	346.45	22.77	-34.0	-46.3	3.8	1.49e+00	0	43	104	0	28	14744
2026-01-13 10:14:38.80	346.41	22.63	-34.0	-46.2	3.8	1.49e+00	0	42	104	0	28	14733
2026-01-13 10:14:39.80	346.37	22.48	-34.0	-46.2	3.8	1.49e+00	0	43	104	0	28	14681
2026-01-13 10:14:40.82	346.33	22.34	-34.0	-46.3	3.8	1.49e+00	0	43	104	0	28	14764
2026-01-13 10:14:41.81	346.29	22.20	-34.0	-46.2	3.8	1.49e+00	0	43	104	0	28	14676
2026-01-13 10:14:42.82	346.26	22.06	-34.0	-46.2	3.8	1.49e+00	0	43	104	0	28	14740
2026-01-13 10:14:43.82	346.22	21.92	-34.0	-46.3	3.8	1.49e+00	0	43	104	0	28	14762
2026-01-13 10:14:44.82	346.18	21.78	-34.0	-46.2	3.8	1.49e+00	0	43	104	0	28	14701
2026-01-13 10:14:45.82	346.15	21.64	-34.0	-46.3	3.8	1.49e+00	0	43	104	0	28	14774
2026-01-13 10:14:46.83	346.11	21.50	-34.0	-46.2	3.8	1.49e+00	0	43	104	0	28	14726
2026-01-13 10:14:47.83	346.08	21.36	-34.0	-46.3	3.8	1.49e+00	0	43	104	0	28	14718
2026-01-13 10:14:48.84	346.04	21.23	-34.0	-46.3	3.8	1.49e+00	0	43	104	0	28	14752
2026-01-13 10:14:49.84	346.01	21.09	-34.0	-46.2	3.8	1.49e+00	0	43	104	0	28	14727
2026-01-13 10:14:50.85	345.97	20.96	-34.0	-46.2	3.8	1.49e+00	0	43	104	0	28	14700
2026-01-13 10:14:51.86	345.94	20.82	-34.0	-46.3	3.8	1.49e+00	0	43	104	0	28	14735
2026-01-13 10:14:52.86	345.90	20.69	-34.0	-46.2	3.8	1.49e+00	0	43	104	0	28	14708
2026-01-13 10:14:53.87	345.87	20.55	-34.0	-46.2	3.8	1.49e+00	0	43	104	0	28	14735
2026-01-13 10:14:54.88	345.83	20.42	-34.0	-46.2	3.8	1.49e+00	0	43	104	0	28	14729
2026-01-13 10:14:55.89	345.80	20.29	-34.0	-46.3	3.8	1.49e+00	0	43	104	0	28	14738
2026-01-13 10:14:56.89	345.77	20.16	-34.0	-46.3	3.8	1.49e+00	0	43	104	0	28	14741
2026-01-13 10:14:57.90	345.74	20.03	-34.0	-46.2	3.8	1.49e+00	0	43	104	0	28	14721
2026-01-13 10:14:58.90	345.70	19.90	-34.0	-46.3	3.8	1.49e+00	0	43	104	0	28	14770
2026-01-13 10:14:59.91	345.67	19.77	-34.0	-46.2	3.8	1.49e+00	0	43	104	0	28	14723
2026-01-13 10:15:00.92	345.64	19.64	-34.0	-46.2	3.8	1.49e+00	0	43	104	0	28	14743
2026-01-13 10:15:01.92	345.61	19.51	-34.0	-46.2	3.8	1.49e+00	0	43	104	0	28	14699
2026-01-13 10:15:02.93	345.58	19.38	-34.0	-46.2	3.8	1.49e+00	0	43	104	0	28	14720
2026-01-13 10:15:03.93	345.55	19.26	-34.0	-46.2	3.8	1.49e+00	0	43	104	0	28	14725
2026-01-13 10:15:04.94	345.52	19.13	-34.0	-46.3	3.8	1.49e+00	0	43	104	0	28	14743
2026-01-13 10:15:05.95	345.49	19.00	-34.0	-46.3	3.8	1.49e+00	0	43	104	0	28	14777
2026-01-13 10:15:06.95	345.46	18.88	-34.0	-46.2	3.8	1.49e+00	0	43	104	0	28	14728
2026-01-13 10:15:07.96	345.43	18.76	-34.0	-46.3	3.8	1.49e+00	0	43	104	0	28	14746
2026-01-13 10:15:08.96	345.40	18.63	-34.0	-46.2	3.8	1.49e+00	0	43	104	0	28	14729
2026-01-13 10:15:09.96	345.37	18.51	-34.0	-46.2	3.8	1.49e+00	0	43	104	0	28	14720
2026-01-13 10:15:10.97	345.34	18.39	-34.0	-46.2	3.8	1.49e+00	0	43	104	0	28	14728
2026-01-13 10:15:11.97	345.31	18.27	-34.0	-46.2	3.8	1.49e+00	0	43	104	0	28	14746
2026-01-13 10:15:12.97	345.29	18.15	-34.0	-46.2	3.8	1.49e+00	0	43	104	0	28	14696
2026-01-13 10:15:13.98	345.26	18.03	-34.0	-46.3	3.8	1.49e+00	0	43	104	0	28	14778
2026-01-13 10:15:14.99	345.23	17.91	-34.0	-46.3	3.8	1.49e+00	0	43	104	0	28	14733
2026-01-13 10:15:16.00	345.20	17.79	-34.0	-46.3	3.8	1.49e+00	0	43	104	0	28	14747
2026-01-13 10:15:17.00	345.18	17.67	-34.0	-46.2	3.8	1.49e+00	0	43	104	0	28	14710
2026-01-13 10:15:18.01	345.15	17.55	-34.0	-46.2	3.8	1.49e+00	0	43	104	0	28	14717
2026-01-13 10:15:19.01	345.12	17.43	-34.0	-46.2	3.8	1.49e+00	0	43	104	0	28	14705
2026-01-13 10:15:20.02	345.10	17.31	-34.0	-46.2	3.8	1.49e+00	0	43	104	0	28	14734
2026-01-13 10:15:21.03	345.07	17.20	-34.0	-46.2	3.8	1.49e+00	0	43	104	0	28	14699
2026-01-13 10:15:22.04	345.04	17.08	-34.0	-46.3	3.8	1.49e+00	0	43	104	0	28	14760
2026-01-13 10:15:23.05	345.02	16.97	-34.0	-46.2	3.8	1.49e+00	0	43	104	0	28	14711
2026-01-13 10:15:24.06	344.99	16.85	-34.0	-46.2	3.8	1.49e+00	0	43	104	0	28	14752
2026-01-13 10:15:25.07	344.97	16.74	-34.0	-46.2	3.8	1.49e+00	0	43	104	0	28	14685
2026-01-13 10:15:26.07	344.94	16.62	-34.0	-46.2	3.8	1.49e+00	0	43	104	0	28	14736
2026-01-13 10:15:27.08	344.92	16.51	-34.0	-46.2	3.8	1.49e+00	0	43	104	0	28	14710
2026-01-13 10:15:28.09	344.89	16.40	-34.0	-46.2	3.8	1.49e+00	0	43	104	0	28	14727
2026-01-13 10:15:29.09	344.87	16.28	-34.0	-46.3	3.8	1.49e+00	0	43	104	0	28	14744
2026-01-13 10:15:30.10	344.84	16.17	-34.0	-46.2	3.8	1.49e+00	0	43	104	0	28	14722
2026-01-13 10:15:31.11	344.82	16.06	-34.0	-46.3	3.8	1.49e+00	0	43	104	0	28	14758
2026-01-13 10:15:32.12	344.80	15.95	-34.0	-46.3	3.8	1.49e+00	0	43	104	0	28	14758
2026-01-13 10:15:33.13	344.77	15.84	-34.0	-46.3	3.8	1.49e+00	0	43	104	0	28	14763
2026-01-13 10:15:34.13	344.75	15.73	-34.0	-46.2	3.8	1.49e+00	0	43	104	0	28	14688
2026-01-13 10:15:35.14	344.73	15.62	-34.0	-46.2	3.8	1.49e+00	0	43	104	0	28	14718
2026-01-13 10:15:36.15	344.70	15.51	-34.0	-46.2	3.8	1.49e+00	0	43	104	0	28	14690
2026-01-13 10:15:37.16	344.68	15.40	-34.0	-46.2	3.8	1.49e+00	0	43	104	0	28	14691
2026-01-13 10:15:38.16	344.66	15.29	-34.0	-46.2	3.8	1.49e+00	0	43	104	0	28	14680
2026-01-13 10:15:39.17	344.63	15.19	-34.0	-46.2	3.8	1.49e+00	0	43	104	0	28	14706
2026-01-13 10:15:40.18	344.61	15.08	-34.0	-46.2	3.8	1.49e+00	0	43	104	0	28	14686
2026-01-13 10:15:41.18	344.59	14.97	-34.0	-46.2	3.8	1.49e+00	0	43	104	0	28	14741
2026-01-13 10:15:42.19	344.57	14.87	-34.0	-46.2	3.8	1.49e+00	0	43	104	0	28	14705
2026-01-13 10:15:43.19	344.55	14.76	-34.0	-46.2	3.8	1.49e+00	0	43	104	0	28	14738
2026-01-13 10:15:44.20	344.53	14.66	-34.0	-46.2	3.8	1.49e+00	0	43	104	0	28	14710
2026-01-13 10:15:45.20	344.50	14.55	-34.0	-46.2	3.8	1.49e+00	0	43	104	0	28	14711
2026-01-13 10:15:46.21	344.48	14.45	-34.0	-46.2	3.8	1.49e+00	0	43	104	0	28	14683
2026-01-13 10:15:47.22	344.46	14.34	-34.0	-46.3	3.8	1.49e+00	0	43	104	0	28	14755
2026-01-13 10:15:48.23	344.44	14.24	-34.0	-46.2	3.8	1.49e+00	0	43	104	0	28	14762
2026-01-13 10:15:49.23	344.42	14.14	-34.0	-46.2	3.8	1.49e+00	0	43	104	0	28	14738
2026-01-13 10:15:50.24	344.40	14.03	-34.0	-46.2	3.8	1.49e+00	0	43	104	0	28	14682
2026-01-13 10:15:51.24	344.38	13.93	-34.0	-46.2	3.8	1.49e+00	0	43	104	0	28	14738
2026-01-13 10:15:52.25	344.36	13.83	-34.0	-46.2	3.8	1.49e+00	0	43	104	0	28	14723
2026-01-13 10:15:53.26	344.34	13.73	-34.0	-46.2	3.8	1.49e+00	0	43	104	0	28	14692
2026-01-13 10:15:54.27	344.32	13.63	-34.0	-46.2	3.8	1.49e+00	0	43	104	0	28	14715
2026-01-13 10:15:55.28	344.30	13.53	-34.0	-46.2	3.8	1.49e+00	0	43	104	0	28	14719
2026-01-13 10:15:56.28	344.28	13.43	-34.0	-46.2	3.8	1.49e+00	0	43	104	0	28	14702
2026-01-13 10:15:57.28	344.26	13.33	-34.0	-46.3	3.8	1.49e+00	0	43	104	0	28	14738
2026-01-13 10:15:58.29	344.24	13.23	-34.0	-46.2	3.8	1.49e+00	0	43	104	0	28	14686
2026-01-13 10:15:59.30	344.22	13.13	-34.0	-46.3	3.8	1.49e+00	0	43	104	0	28	14750
2026-01-13 10:16:00.30	344.21	13.03	-34.0	-46.2	3.8	1.49e+00	0	43	104	0	28	14702
2026-01-13 10:16:01.30	344.19	12.94	-34.0	-46.2	3.8	1.49e+00	0	43	104	0	28	14641
2026-01-13 10:16:02.31	344.17	12.84	-34.0	-46.2	3.8	1.49e+00	0	43	104	0	28	14694
2026-01-13 10:16:03.32	344.15	12.74	-34.0	-46.2	3.8	1.49e+00	0	43	104	0	28	14733
2026-01-13 10:16:04.33	344.13	12.64	-34.0	-46.2	3.8	1.49e+00	0	43	104	0	28	14745
2026-01-13 10:16:05.33	344.11	12.55	-34.0	-46.2	3.8	1.49e+00	0	43	104	0	28	14719
2026-01-13 10:16:06.34	344.10	12.45	-34.0	-46.2	3.8	1.49e+00	0	43	104	0	28	14722
2026-01-13 10:16:07.35	344.08	12.35	-34.0	-46.2	3.8	1.49e+00	0	43	104	0	28	14712
2026-01-13 10:16:08.36	344.06	12.26	-34.0	-46.2	3.8	1.49e+00	0	43	104	0	28	14708
2026-01-13 10:16:09.36	344.04	12.16	-34.0	-46.2	3.8	1.49e+00	0	43	104	0	28	14664
2026-01-13 10:16:10.37	344.03	12.07	-34.0	-46.2	3.8	1.49e+00	0	43	104	0	28	14744
2026-01-13 10:16:11.38	344.01	11.97	-34.0	-46.2	3.8	1.49e+00	0	43	104	0	28	14719
2026-01-13 10:16:12.39	343.99	11.88	-34.0	-46.2	3.8	1.49e+00	0	43	104	0	28	14713
2026-01-13 10:16:13.40	343.97	11.79	-34.0	-46.2	3.8	1.49e+00	0	43	104	0	28	14740
2026-01-13 10:16:14.40	343.96	11.69	-34.0	-46.2	3.8	1.49e+00	0	43	104	0	28	14721
2026-01-13 10:16:15.40	343.94	11.60	-34.0	-46.2	3.8	1.49e+00	0	43	104	0	28	14666
2026-01-13 10:16:16.40	343.92	11.51	-34.0	-46.2	3.8	1.49e+00	0	43	104	0	28	14732
2026-01-13 10:16:17.41	343.91	11.42	-34.0	-46.2	3.8	1.49e+00	0	43	104	0	28	14721
2026-01-13 10:16:18.41	343.89	11.33	-34.0	-46.2	3.8	1.49e+00	0	43	104	0	28	14707
2026-01-13 10:16:19.41	343.88	11.24	-34.0	-46.2	3.8	1.49e+00	0	43	104	0	28	14681
2026-01-13 10:16:20.42	343.86	11.14	-34.0	-46.2	3.8	1.49e+00	0	43	104	0	28	14716
2026-01-13 10:16:21.43	343.84	11.05	-34.0	-46.2	3.8	1.49e+00	0	43	104	0	28	14704
2026-01-13 10:16:22.43	343.83	10.96	-34.0	-46.2	3.8	1.49e+00	0	43	104	0	28	14690
2026-01-13 10:16:23.44	343.81	10.87	-34.0	-46.2	3.8	1.49e+00	0	43	104	0	28	14699
2026-01-13 10:16:24.44	343.80	10.78	-34.0	-46.2	3.8	1.49e+00	0	43	104	0	28	14742
2026-01-13 10:16:25.45	343.78	10.69	-34.0	-46.2	3.8	1.49e+00	0	43	104	0	28	14675
2026-01-13 10:16:26.46	343.77	10.60	-34.0	-46.2	3.8	1.49e+00	0	43	104	0	28	14728
2026-01-13 10:16:27.47	343.75	10.52	-34.0	-46.2	3.8	1.49e+00	0	43	104	0	28	14683
2026-01-13 10:16:28.47	343.74	10.43	-34.0	-46.2	3.8	1.49e+00	0	43	104	0	28	14712
2026-01-13 10:16:29.48	343.72	10.34	-34.0	-46.2	3.8	1.49e+00	0	43	104	0	28	14683
2026-01-13 10:16:30.48	343.71	10.25	-34.0	-46.2	3.8	1.49e+00	0	43	104	0	28	14686
2026-01-13 10:16:31.48	343.69	10.16	-34.0	-46.2	3.8	1.49e+00	0	43	104	0	28	14683
2026-01-13 10:16:32.49	343.68	10.08	-34.0	-46.2	3.8	1.49e+00	0	43	104	0	28	14710
2026-01-13 10:16:33.49	343.66	9.99	-34.0	-46.2	3.8	1.49e+00	0	43	104	0	28	14690
2026-01-13 10:16:34.50	343.65	9.90	-34.0	-46.2	3.8	1.49e+00	0	43	104	0	28	14731
2026-01-13 10:16:35.51	343.63	9.82	-34.0	-46.2	3.8	1.49e+00	0	43	104	0	28	14738
2026-01-13 10:16:36.51	343.62	9.73	-34.0	-46.2	3.8	1.49e+00	0	43	104	0	28	14691
2026-01-13 10:16:37.52	343.60	9.65	-34.0	-46.2	3.8	1.49e+00	0	43	104	0	28	14720
2026-01-13 10:16:38.53	343.59	9.56	-34.0	-46.2	3.8	1.49e+00	0	43	104	0	28	14675
2026-01-13 10:16:39.54	343.58	9.47	-34.0	-46.2	3.8	1.49e+00	0	43	104	0	28	14678
2026-01-13 10:16:40.54	343.56	9.39	-34.0	-46.2	3.8	1.49e+00	0	43	104	0	28	14735
2026-01-13 10:16:41.55	343.55	9.31	-34.0	-46.2	3.8	1.49e+00	0	43	104	0	28	14655
2026-01-13 10:16:42.56	343.54	9.22	-34.0	-46.2	3.8	1.49e+00	0	43	104	0	28	14708
2026-01-13 10:16:43.57	343.52	9.14	-34.0	-46.2	3.8	1.49e+00	0	43	104	0	28	14729
2026-01-13 10:16:44.58	343.51	9.05	-34.0	-46.2	3.8	1.49e+00	0	43	104	0	28	14709
2026-01-13 10:16:45.58	343.50	8.97	-34.0	-46.2	3.8	1.49e+00	0	43	104	0	28	14748
2026-01-13 10:16:46.59	343.48	8.89	-34.0	-46.2	3.8	1.49e+00	0	43	104	0	28	14718
2026-01-13 10:16:47.59	343.47	8.80	-34.0	-46.2	3.8	1.49e+00	0	43	104	0	28	14665
2026-01-13 10:16:48.60	343.46	8.72	-34.0	-46.2	3.8	1.49e+00	0	43	104	0	28	14687
2026-01-13 10:16:49.61	343.44	8.64	-34.0	-46.2	3.8	1.49e+00	0	43	104	0	28	14693
2026-01-13 10:16:50.61	343.43	8.56	-34.0	-46.2	3.8	1.49e+00	0	43	104	0	28	14687
2026-01-13 10:16:51.62	343.42	8.47	-34.0	-46.2	3.8	1.49e+00	0	43	104	0	28	14708
2026-01-13 10:16:52.63	343.41	8.39	-34.0	-46.2	3.8	1.49e+00	0	43	104	0	28	14670
2026-01-13 10:16:53.63	343.39	8.31	-34.0	-46.2	3.8	1.49e+00	0	43	104	0	28	14688
2026-01-13 10:16:54.64	343.38	8.23	-34.0	-46.2	3.8	1.49e+00	0	43	104	0	28	14734
2026-01-13 10:16:55.64	343.37	8.15	-34.0	-46.2	3.8	1.49e+00	0	43	104	0	28	14709
2026-01-13 10:16:56.65	343.36	8.07	-34.0	-46.2	3.8	1.49e+00	0	43	104	0	28	14667
2026-01-13 10:16:57.65	343.34	7.99	-34.0	-46.2	3.8	1.49e+00	0	43	104	0	28	14679
2026-01-13 10:16:58.66	343.33	7.91	-34.0	-46.2	3.8	1.49e+00	0	43	104	0	28	14720
2026-01-13 10:16:59.67	343.32	7.83	-34.0	-46.2	3.8	1.49e+00	0	43	104	0	28	14665
2026-01-13 10:17:00.67	343.31	7.75	-34.0	-46.2	3.8	1.49e+00	0	43	104	0	28	14716
2026-01-13 10:17:01.68	343.30	7.67	-34.0	-46.2	3.8	1.49e+00	0	43	104	0	28	14727
2026-01-13 10:17:02.69	343.29	7.59	-34.0	-46.2	3.8	1.49e+00	0	43	104	0	28	14684
2026-01-13 10:17:03.70	343.27	7.51	-34.0	-46.2	3.8	1.49e+00	0	43	104	0	28	14678
2026-01-13 10:17:04.70	343.26	7.43	-34.0	-46.2	3.8	1.49e+00	0	43	104	0	28	14709
2026-01-13 10:17:05.71	343.25	7.36	-34.0	-46.2	3.8	1.49e+00	0	43	104	0	28	14662
2026-01-13 10:17:06.72	343.24	7.28	-34.0	-46.2	3.8	1.49e+00	0	43	104	0	28	14698
2026-01-13 10:17:07.72	343.23	7.20	-34.0	-46.2	3.7	1.49e+00	0	43	104	0	28	14663
2026-01-13 10:17:08.73	343.22	7.12	-34.0	-46.2	3.8	1.49e+00	0	43	104	0	28	14712
2026-01-13 10:17:09.73	343.21	7.05	-34.0	-46.2	3.8	1.49e+00	0	43	104	0	28	14733

#Closed at: 2026-01-13 10:17:10
#Recorded file [0 MB]: D:/data/31010_260113_130511.dat