passes_logs/2026/01/13/R2M6_AANII_01/R2M6_AANII_01__20260113_235334_SUOMI_NPP_rec.log

#Pass ID: 20260113_235334_SUOMI NPP
#Satellite: SUOMI NPP
#Configuration: NPP
#almurnet v.1.7.20240730
#Start time: 2026-01-13 23:53:34

#Version: 2.2.20231116
#Station: R2M6_AANII_01
#Location: 30.233357 lon 59.946436 lat
#TLE: 1 37849U 11061A   26013.27136842  .00000065  00000+0  51889-4 0  9990
#TLE: 2 37849  98.7808 315.3349 0002489  66.6776 293.4661 14.19524902736466

#Time	Az	El	Level	Level2	SNR	BER	BlckErr	Temp	State	Recorded	gain1	gain2
2026-01-13 23:53:34.31	21.16	6.97	-31.1	-34.8	5.2	1.25e+00	0	40	0	0	22	5521
2026-01-13 23:53:35.32	21.19	7.05	-31.6	-36.6	4.9	1.31e+00	0	40	104	0	23	6397
2026-01-13 23:53:36.32	21.23	7.13	-31.5	-36.0	7.8	1.19e-01	0	40	0	0	23	6038
2026-01-13 23:53:37.33	21.26	7.20	-31.5	-36.0	7.9	7.01e-02	0	41	0	1048576	23	6002
2026-01-13 23:53:38.33	21.29	7.28	-31.6	-36.4	7.5	1.06e-01	0	40	0	3145728	23	6247
2026-01-13 23:53:39.33	21.33	7.35	-31.5	-35.9	8.0	8.53e-02	0	41	0	5242880	23	5950
2026-01-13 23:53:40.33	21.36	7.43	-31.5	-36.2	8.2	5.66e-02	0	40	0	7340032	22	6178
2026-01-13 23:53:41.34	21.39	7.51	-31.5	-35.9	8.0	6.57e-02	0	41	0	9437184	23	5950
2026-01-13 23:53:42.34	21.43	7.58	-31.7	-36.6	7.4	9.87e-02	0	40	0	10485760	23	6349
2026-01-13 23:53:43.34	21.46	7.66	-31.5	-35.9	8.0	9.02e-02	0	40	0	12582912	23	5972
2026-01-13 23:53:44.34	21.50	7.74	-31.5	-35.7	8.1	5.90e-02	0	41	0	14680064	23	5846
2026-01-13 23:53:45.34	21.53	7.82	-31.4	-35.9	8.4	5.42e-02	0	41	0	16777216	22	6052
2026-01-13 23:53:46.33	21.57	7.89	-31.5	-35.7	8.2	5.18e-02	0	41	0	17825792	23	5849
2026-01-13 23:53:47.34	21.60	7.97	-31.6	-36.3	7.7	6.68e-02	0	41	0	19922944	23	6181
2026-01-13 23:53:48.34	21.64	8.05	-31.8	-37.1	7.1	1.22e-01	0	41	0	22020096	23	6614
2026-01-13 23:53:49.34	21.67	8.13	-31.5	-35.7	8.2	8.80e-02	0	41	0	24117248	23	5849
2026-01-13 23:53:50.35	21.71	8.21	-31.5	-35.5	8.4	5.69e-02	0	41	0	26214400	23	5699
2026-01-13 23:53:51.35	21.74	8.29	-31.3	-35.3	9.0	2.86e-02	0	41	0	27262976	22	5688
2026-01-13 23:53:52.35	21.78	8.37	-31.3	-35.2	9.1	2.38e-02	0	41	0	29360128	22	5639
2026-01-13 23:53:53.35	21.82	8.44	-31.2	-35.0	9.3	2.24e-02	0	41	0	31457280	22	5527
2026-01-13 23:53:54.36	21.85	8.53	-31.2	-34.7	9.5	1.50e-02	0	41	0	33554432	22	5393
2026-01-13 23:53:55.36	21.89	8.61	-31.2	-34.8	9.4	1.49e-02	0	41	0	35651584	22	5462
2026-01-13 23:53:56.37	21.93	8.69	-31.3	-35.2	9.1	2.79e-02	0	41	0	36700160	22	5645
2026-01-13 23:53:57.37	21.96	8.77	-31.0	-34.2	9.8	2.11e-02	0	41	0	38797312	22	5203
2026-01-13 23:53:58.37	22.00	8.85	-31.0	-34.0	10.0	8.65e-03	0	41	0	40894464	22	5099
2026-01-13 23:53:59.38	22.04	8.93	-30.8	-34.0	10.4	4.93e-03	0	41	0	42991616	21	5186
2026-01-13 23:54:00.38	22.07	9.01	-31.0	-34.5	10.0	8.45e-03	0	41	0	45088768	21	5418
2026-01-13 23:54:01.38	22.11	9.09	-31.1	-34.5	9.7	1.18e-02	0	41	0	46137344	22	5284
2026-01-13 23:54:02.39	22.15	9.17	-31.0	-34.0	10.1	8.09e-03	0	41	0	48234496	22	5092
2026-01-13 23:54:03.39	22.19	9.26	-31.0	-34.1	10.0	5.23e-03	0	41	0	50331648	22	5143
2026-01-13 23:54:04.39	22.22	9.34	-31.1	-34.2	9.9	9.39e-03	0	41	0	52428800	22	5178
2026-01-13 23:54:05.40	22.26	9.42	-31.1	-34.4	9.8	8.40e-03	0	41	0	54525952	22	5261
2026-01-13 23:54:06.40	22.30	9.50	-31.1	-34.5	9.8	9.11e-03	0	41	0	55574528	22	5278
2026-01-13 23:54:07.40	22.34	9.59	-31.3	-35.1	9.3	1.50e-02	0	41	0	57671680	22	5583
2026-01-13 23:54:08.41	22.38	9.67	-31.1	-34.2	10.0	9.86e-03	0	41	0	59768832	22	5156
2026-01-13 23:54:09.41	22.42	9.75	-30.9	-33.6	10.4	6.67e-03	0	41	0	61865984	22	4909
2026-01-13 23:54:10.42	22.46	9.84	-30.7	-33.6	10.8	3.69e-03	0	41	0	63963136	21	5001
2026-01-13 23:54:11.42	22.50	9.92	-30.7	-33.5	10.8	2.18e-03	0	42	0	65011712	21	4989
2026-01-13 23:54:12.43	22.54	10.01	-30.6	-33.2	11.0	2.11e-03	0	42	0	67108864	21	4852
2026-01-13 23:54:13.43	22.58	10.09	-30.6	-33.1	11.1	1.98e-03	0	41	0	69206016	21	4829
2026-01-13 23:54:14.44	22.62	10.18	-30.5	-32.7	11.4	1.42e-03	0	41	0	71303168	21	4673
2026-01-13 23:54:15.44	22.66	10.26	-30.4	-32.5	11.6	7.49e-04	0	42	0	73400320	21	4577
2026-01-13 23:54:16.44	22.70	10.35	-30.2	-31.8	12.1	4.06e-04	0	42	0	74448896	21	4355
2026-01-13 23:54:17.44	22.74	10.43	-30.1	-32.3	12.2	2.55e-04	0	42	0	76546048	20	4590
2026-01-13 23:54:18.44	22.78	10.52	-30.2	-32.4	12.0	3.87e-04	0	41	0	78643200	20	4651
2026-01-13 23:54:19.45	22.82	10.61	-30.4	-32.9	11.7	4.56e-04	0	41	0	80740352	20	4816
2026-01-13 23:54:20.45	22.86	10.69	-30.3	-32.6	12.0	3.24e-04	0	42	0	81788928	20	4693
2026-01-13 23:54:21.45	22.90	10.78	-30.4	-33.1	11.6	5.07e-04	0	41	0	83886080	20	4907
2026-01-13 23:54:22.45	22.94	10.87	-30.3	-32.8	11.8	5.83e-04	0	42	0	85983232	20	4763
2026-01-13 23:54:23.46	22.99	10.96	-30.2	-32.3	12.1	2.71e-04	0	42	0	88080384	20	4609
2026-01-13 23:54:24.46	23.03	11.04	-30.1	-32.2	12.2	2.35e-04	0	42	0	90177536	20	4574
2026-01-13 23:54:25.46	23.07	11.13	-30.2	-32.3	12.2	2.29e-04	0	42	0	91226112	20	4598
2026-01-13 23:54:26.46	23.11	11.22	-30.2	-32.4	12.1	2.27e-04	0	42	0	93323264	20	4637
2026-01-13 23:54:27.46	23.15	11.31	-30.2	-32.4	12.1	3.24e-04	0	42	0	95420416	20	4637
2026-01-13 23:54:28.47	23.20	11.40	-30.2	-32.3	12.2	1.81e-04	0	42	0	97517568	20	4587
2026-01-13 23:54:29.47	23.24	11.49	-30.1	-32.1	12.4	1.35e-04	0	42	0	99614720	20	4509
2026-01-13 23:54:30.47	23.28	11.58	-30.0	-31.7	12.6	9.61e-05	0	42	0	100663296	20	4398
2026-01-13 23:54:31.48	23.33	11.67	-30.2	-32.2	12.3	9.47e-04	0	42	0	102760448	20	4542
2026-01-13 23:54:32.48	23.37	11.76	-30.1	-31.9	12.5	1.41e-04	0	42	0	104857600	20	4464
2026-01-13 23:54:33.48	23.42	11.85	-30.1	-32.0	12.4	1.29e-04	0	42	0	106954752	20	4497
2026-01-13 23:54:34.48	23.46	11.94	-30.1	-32.1	12.3	1.50e-04	0	42	0	109051904	20	4515
2026-01-13 23:54:35.48	23.51	12.03	-30.1	-32.0	12.5	7.31e-04	0	42	0	110100480	20	4472
2026-01-13 23:54:36.48	23.55	12.12	-30.1	-32.1	12.1	1.09e-04	0	42	0	112197632	20	4526
2026-01-13 23:54:37.49	23.60	12.22	-30.3	-32.6	12.0	2.07e-04	0	42	0	114294784	20	4695
2026-01-13 23:54:38.49	23.64	12.31	-30.1	-32.0	12.5	7.52e-04	0	42	0	116391936	20	4477
2026-01-13 23:54:39.49	23.69	12.40	-30.0	-31.6	12.7	7.32e-05	0	42	0	118489088	20	4349
2026-01-13 23:54:40.49	23.73	12.49	-30.0	-31.7	12.7	8.77e-05	0	42	0	119537664	20	4379
2026-01-13 23:54:41.50	23.78	12.59	-30.0	-32.1	12.9	5.49e-05	0	42	0	121634816	19	4592
2026-01-13 23:54:42.50	23.83	12.68	-29.9	-32.0	12.9	6.71e-05	0	42	0	123731968	19	4567
2026-01-13 23:54:43.50	23.87	12.78	-29.9	-32.0	12.9	5.64e-05	0	42	0	125829120	19	4562
2026-01-13 23:54:44.51	23.92	12.87	-30.0	-31.6	12.8	7.40e-05	0	42	0	126877696	20	4346
2026-01-13 23:54:45.52	23.97	12.97	-30.0	-31.8	12.7	6.12e-04	0	42	0	128974848	20	4415
2026-01-13 23:54:46.52	24.02	13.06	-30.0	-31.8	12.6	1.42e-03	0	42	0	131072000	20	4417
2026-01-13 23:54:47.53	24.06	13.16	-29.9	-31.5	12.9	7.32e-05	0	42	0	133169152	20	4314
2026-01-13 23:54:48.53	24.11	13.25	-30.1	-32.0	12.6	6.86e-04	0	42	0	135266304	20	4472
2026-01-13 23:54:49.53	24.16	13.35	-30.1	-32.0	12.6	1.68e-03	0	42	0	136314880	20	4470
2026-01-13 23:54:50.54	24.21	13.45	-30.0	-31.6	12.8	6.94e-05	0	42	0	138412032	20	4341
2026-01-13 23:54:51.54	24.26	13.54	-29.8	-31.7	13.2	3.35e-05	0	42	0	140509184	19	4444
2026-01-13 23:54:52.54	24.31	13.64	-29.9	-31.9	13.1	1.98e-03	0	42	0	142606336	19	4511
2026-01-13 23:54:53.54	24.36	13.74	-29.9	-31.8	13.1	1.49e-03	0	42	0	144703488	19	4501
2026-01-13 23:54:54.54	24.41	13.84	-30.0	-31.7	12.8	5.49e-05	0	42	0	145752064	20	4363
2026-01-13 23:54:55.54	24.46	13.94	-30.1	-31.9	12.7	2.15e-03	0	42	0	147849216	20	4439
2026-01-13 23:54:56.55	24.51	14.04	-30.0	-31.6	12.9	1.55e-03	0	42	0	149946368	20	4322
2026-01-13 23:54:57.55	24.56	14.13	-29.9	-31.3	13.1	4.11e-05	0	42	0	152043520	20	4231
2026-01-13 23:54:58.56	24.61	14.24	-29.9	-31.4	13.0	3.28e-05	0	42	0	154140672	20	4278
2026-01-13 23:54:59.57	24.66	14.34	-30.0	-31.7	12.7	1.49e-03	0	42	0	155189248	20	4379
2026-01-13 23:55:00.56	24.72	14.44	-30.0	-31.8	12.8	8.01e-05	0	42	0	157286400	20	4388
2026-01-13 23:55:01.57	24.77	14.54	-29.8	-31.6	13.3	3.50e-05	0	42	0	159383552	19	4414
2026-01-13 23:55:02.57	24.82	14.64	-29.9	-31.4	13.0	8.88e-04	0	42	0	161480704	20	4282
2026-01-13 23:55:03.57	24.87	14.74	-29.9	-31.9	13.0	4.71e-04	0	42	0	163577856	19	4530
2026-01-13 23:55:04.57	24.93	14.84	-29.9	-31.9	13.1	7.09e-04	0	42	0	164626432	19	4500
2026-01-13 23:55:05.57	24.98	14.94	-29.9	-31.4	13.1	6.27e-04	0	42	0	166723584	20	4255
2026-01-13 23:55:06.56	25.03	15.05	-30.0	-31.6	12.9	4.49e-04	0	42	0	168820736	20	4340
2026-01-13 23:55:07.55	25.09	15.15	-30.0	-31.6	12.9	9.52e-04	0	42	0	170917888	20	4345
2026-01-13 23:55:08.55	25.14	15.25	-30.0	-31.9	13.1	3.96e-05	0	42	0	171966464	19	4524
2026-01-13 23:55:09.55	25.20	15.36	-29.9	-31.7	13.2	4.35e-04	0	42	0	174063616	19	4450
2026-01-13 23:55:10.55	25.25	15.46	-29.9	-31.4	13.0	6.38e-04	0	42	0	176160768	20	4278
2026-01-13 23:55:11.55	25.31	15.57	-30.0	-31.7	12.9	2.04e-04	0	42	0	178257920	20	4366
2026-01-13 23:55:12.55	25.36	15.67	-30.0	-31.6	12.9	8.08e-05	0	42	0	180355072	20	4318
2026-01-13 23:55:13.55	25.42	15.78	-29.8	-31.1	13.2	3.88e-04	0	42	0	181403648	20	4182
2026-01-13 23:55:14.55	25.47	15.88	-29.8	-30.9	13.4	1.75e-05	0	42	0	183500800	20	4115
2026-01-13 23:55:15.55	25.53	15.99	-29.8	-31.5	13.4	7.60e-06	0	42	0	185597952	19	4372
2026-01-13 23:55:16.55	25.59	16.10	-29.8	-31.5	13.4	4.14e-04	0	42	0	187695104	19	4377
2026-01-13 23:55:17.55	25.65	16.20	-29.8	-31.6	13.3	3.05e-05	0	42	0	189792256	19	4412
2026-01-13 23:55:18.56	25.71	16.31	-29.8	-31.6	13.3	4.48e-04	0	42	0	190840832	19	4393
2026-01-13 23:55:19.56	25.76	16.42	-29.7	-31.2	13.6	5.68e-04	0	42	0	192937984	19	4268
2026-01-13 23:55:20.57	25.82	16.53	-29.6	-31.0	13.8	3.36e-04	0	42	0	195035136	19	4206
2026-01-13 23:55:21.58	25.88	16.64	-29.6	-30.8	13.9	7.45e-04	0	42	0	197132288	19	4170
2026-01-13 23:55:22.57	25.94	16.75	-29.6	-31.0	13.8	7.38e-04	0	42	0	199229440	19	4224
2026-01-13 23:55:23.58	26.00	16.86	-29.5	-30.8	13.9	8.28e-04	0	42	0	200278016	19	4159
2026-01-13 23:55:24.57	26.06	16.97	-29.6	-30.9	13.8	9.14e-04	0	42	0	202375168	19	4185
2026-01-13 23:55:25.58	26.12	17.08	-29.8	-31.5	13.5	2.16e-03	0	42	0	204472320	19	4372
2026-01-13 23:55:26.58	26.19	17.20	-29.7	-31.3	13.6	6.80e-06	0	42	0	206569472	19	4308
2026-01-13 23:55:27.58	26.25	17.31	-29.6	-31.0	13.8	9.70e-04	0	42	0	208666624	19	4230
2026-01-13 23:55:28.58	26.31	17.42	-29.6	-30.8	13.9	2.57e-03	0	42	0	209715200	19	4163
2026-01-13 23:55:29.58	26.37	17.53	-29.6	-30.9	13.9	3.80e-06	0	42	0	211812352	19	4174
2026-01-13 23:55:30.59	26.44	17.65	-29.5	-30.8	13.9	1.05e-03	0	42	0	213909504	19	4149
2026-01-13 23:55:31.60	26.50	17.76	-29.6	-30.9	13.9	2.68e-03	0	42	0	216006656	19	4176
2026-01-13 23:55:32.60	26.56	17.88	-29.5	-30.7	14.0	1.57e-03	0	42	0	217055232	19	4124
2026-01-13 23:55:33.60	26.63	17.99	-29.4	-31.0	14.2	9.91e-04	0	42	0	219152384	18	4302
2026-01-13 23:55:34.61	26.69	18.11	-29.4	-31.0	14.2	2.35e-03	0	42	0	221249536	18	4302
2026-01-13 23:55:35.62	26.76	18.23	-29.3	-30.7	14.3	1.40e-03	0	42	0	223346688	18	4224
2026-01-13 23:55:36.62	26.83	18.35	-29.3	-30.7	14.3	0.00e+00	0	42	0	225443840	18	4215
2026-01-13 23:55:37.61	26.89	18.46	-29.3	-30.8	14.3	8.16e-04	0	42	0	226492416	18	4230
2026-01-13 23:55:38.62	26.96	18.58	-29.3	-30.6	14.4	1.36e-03	0	42	0	228589568	18	4185
2026-01-13 23:55:39.62	27.03	18.70	-29.2	-30.4	14.5	0.00e+00	0	42	0	230686720	18	4139
2026-01-13 23:55:40.61	27.09	18.82	-29.3	-30.6	14.4	7.00e-07	0	42	0	232783872	18	4190
2026-01-13 23:55:41.61	27.16	18.94	-29.0	-29.9	14.8	6.97e-04	0	42	0	234881024	18	3991
2026-01-13 23:55:42.61	27.23	19.06	-29.2	-30.5	14.5	4.67e-04	0	42	0	235929600	18	4151
2026-01-13 23:55:43.61	27.30	19.18	-29.2	-30.3	14.7	0.00e+00	0	42	0	238026752	18	4089
2026-01-13 23:55:44.61	27.37	19.30	-29.0	-30.0	14.8	0.00e+00	0	42	0	240123904	18	3999
2026-01-13 23:55:45.61	27.44	19.42	-29.0	-30.3	14.9	3.68e-04	0	42	0	242221056	17	4183
2026-01-13 23:55:46.61	27.51	19.54	-28.8	-29.8	15.2	6.01e-04	0	42	0	243269632	17	4060
2026-01-13 23:55:47.62	27.58	19.67	-28.8	-29.8	15.2	0.00e+00	0	42	0	245366784	17	4064
2026-01-13 23:55:48.62	27.65	19.79	-28.7	-29.5	15.4	3.55e-04	0	42	0	247463936	17	3980
2026-01-13 23:55:49.62	27.73	19.91	-28.6	-29.3	15.5	3.93e-04	0	42	0	249561088	17	3910
2026-01-13 23:55:50.62	27.80	20.04	-28.8	-29.7	15.3	0.00e+00	0	42	0	251658240	17	4032
2026-01-13 23:55:51.62	27.87	20.16	-28.7	-29.6	15.3	1.34e-04	0	42	0	253755392	17	4001
2026-01-13 23:55:52.62	27.95	20.29	-28.6	-29.4	15.5	3.46e-04	0	42	0	254803968	17	3926
2026-01-13 23:55:53.61	28.02	20.41	-28.5	-29.2	15.6	0.00e+00	0	42	0	256901120	17	3881
2026-01-13 23:55:54.61	28.10	20.54	-28.5	-29.2	15.6	0.00e+00	0	42	0	258998272	17	3889
2026-01-13 23:55:55.62	28.17	20.67	-28.6	-29.4	15.5	3.35e-04	0	42	0	261095424	17	3939
2026-01-13 23:55:56.62	28.25	20.80	-28.7	-29.6	15.4	0.00e+00	0	42	0	262144000	17	3980
2026-01-13 23:55:57.62	28.33	20.93	-28.8	-29.9	15.2	0.00e+00	0	42	0	264241152	17	4067
2026-01-13 23:55:58.62	28.40	21.06	-28.8	-29.8	15.3	0.00e+00	0	43	0	266338304	17	4051
2026-01-13 23:55:59.62	28.48	21.19	-28.9	-30.0	15.2	0.00e+00	0	42	0	268435456	17	4106
2026-01-13 23:56:00.63	28.56	21.32	-28.8	-29.4	15.2	0.00e+00	0	42	0	270532608	18	3855
2026-01-13 23:56:01.63	28.64	21.45	-28.9	-29.5	15.2	0.00e+00	0	42	0	271581184	18	3858
2026-01-13 23:56:02.62	28.72	21.58	-28.9	-29.5	15.2	0.00e+00	0	42	0	273678336	18	3875
2026-01-13 23:56:03.62	28.80	21.71	-28.7	-29.7	15.4	3.78e-04	0	42	0	275775488	17	4014
2026-01-13 23:56:04.62	28.88	21.84	-28.8	-29.8	15.3	0.00e+00	0	42	0	277872640	17	4052
2026-01-13 23:56:05.62	28.97	21.98	-28.9	-30.1	15.1	0.00e+00	0	42	0	279969792	17	4141
2026-01-13 23:56:06.62	29.05	22.11	-28.8	-29.9	15.2	3.96e-04	0	43	0	281018368	17	4073
2026-01-13 23:56:07.61	29.13	22.25	-28.7	-29.7	15.4	0.00e+00	0	42	0	283115520	17	4006
2026-01-13 23:56:08.61	29.22	22.38	-28.9	-30.1	15.1	0.00e+00	0	43	0	285212672	17	4139
2026-01-13 23:56:09.62	29.30	22.52	-28.9	-30.1	15.2	0.00e+00	0	43	0	287309824	17	4115
2026-01-13 23:56:10.63	29.39	22.66	-28.8	-29.8	15.3	3.89e-04	0	43	0	289406976	17	4048
2026-01-13 23:56:11.63	29.47	22.80	-28.8	-29.8	15.3	0.00e+00	0	42	0	290455552	17	4050
2026-01-13 23:56:12.64	29.56	22.94	-28.8	-29.8	15.3	0.00e+00	0	42	0	292552704	17	4046
2026-01-13 23:56:13.64	29.65	23.08	-28.6	-29.4	15.6	4.00e-04	0	42	0	294649856	17	3942
2026-01-13 23:56:14.64	29.74	23.22	-28.8	-29.9	15.3	0.00e+00	0	43	0	296747008	17	4061
2026-01-13 23:56:15.64	29.83	23.36	-28.7	-29.6	15.4	0.00e+00	0	42	0	297795584	17	3991
2026-01-13 23:56:16.64	29.92	23.50	-28.8	-29.8	15.3	0.00e+00	0	43	0	299892736	17	4052
2026-01-13 23:56:17.64	30.01	23.64	-28.7	-29.7	15.5	0.00e+00	0	42	0	301989888	17	4004
2026-01-13 23:56:18.64	30.10	23.78	-28.5	-29.2	15.7	0.00e+00	0	43	0	304087040	17	3870
2026-01-13 23:56:19.64	30.19	23.93	-28.7	-29.6	15.5	0.00e+00	0	43	0	306184192	17	3985
2026-01-13 23:56:20.65	30.29	24.07	-28.6	-29.3	15.7	0.00e+00	0	42	0	307232768	17	3896
2026-01-13 23:56:21.64	30.38	24.21	-28.5	-29.2	15.7	0.00e+00	0	43	0	309329920	17	3871
2026-01-13 23:56:22.64	30.48	24.36	-28.6	-29.4	15.6	0.00e+00	0	42	0	311427072	17	3938
2026-01-13 23:56:23.65	30.57	24.51	-28.6	-29.3	15.6	0.00e+00	0	43	0	313524224	17	3916
2026-01-13 23:56:24.65	30.67	24.65	-28.5	-29.1	15.8	0.00e+00	0	43	0	315621376	17	3846
2026-01-13 23:56:25.66	30.77	24.80	-28.5	-29.4	15.9	0.00e+00	0	43	0	316669952	16	4029
2026-01-13 23:56:26.66	30.87	24.95	-28.5	-29.1	15.8	0.00e+00	0	42	0	318767104	17	3850
2026-01-13 23:56:27.65	30.96	25.10	-28.4	-28.9	15.9	0.00e+00	0	43	0	320864256	17	3793
2026-01-13 23:56:28.66	31.07	25.25	-28.2	-28.9	16.2	0.00e+00	0	43	0	322961408	16	3929
2026-01-13 23:56:29.66	31.17	25.40	-28.4	-29.3	16.0	0.00e+00	0	43	0	324009984	16	3988
2026-01-13 23:56:30.66	31.27	25.55	-28.4	-29.2	15.8	0.00e+00	0	43	0	326107136	16	3980
2026-01-13 23:56:31.66	31.37	25.71	-28.3	-29.1	15.8	4.57e-05	0	43	0	328204288	16	3935
2026-01-13 23:56:32.66	31.48	25.86	-28.4	-29.3	15.9	0.00e+00	0	43	0	330301440	16	3985
2026-01-13 23:56:33.66	31.58	26.01	-28.4	-28.7	15.9	0.00e+00	0	43	0	332398592	17	3756
2026-01-13 23:56:34.67	31.69	26.17	-28.5	-28.9	15.9	7.09e-05	0	43	0	334495744	17	3806
2026-01-13 23:56:35.67	31.79	26.33	-28.5	-29.1	15.8	0.00e+00	0	42	0	335544320	17	3847
2026-01-13 23:56:36.67	31.90	26.48	-28.7	-29.6	15.6	0.00e+00	0	42	0	337641472	17	3979
2026-01-13 23:56:37.67	32.01	26.64	-28.4	-28.8	16.0	0.00e+00	0	43	0	339738624	17	3781
2026-01-13 23:56:38.67	32.12	26.80	-28.6	-29.4	15.7	0.00e+00	0	43	0	341835776	17	3915
2026-01-13 23:56:39.68	32.23	26.96	-28.0	-28.4	15.9	0.00e+00	0	43	0	342884352	17	3798
2026-01-13 23:56:40.68	32.35	27.12	-28.5	-29.1	15.9	0.00e+00	0	43	0	344981504	17	3847
2026-01-13 23:56:41.68	32.46	27.28	-28.5	-29.1	15.5	0.00e+00	0	43	0	347078656	17	3838
2026-01-13 23:56:42.69	32.57	27.44	-28.6	-29.4	15.4	0.00e+00	0	42	0	349175808	17	3915
2026-01-13 23:56:43.68	32.69	27.60	-28.9	-30.1	15.3	0.00e+00	0	43	0	351272960	17	4114
2026-01-13 23:56:44.69	32.81	27.77	-29.2	-30.2	14.8	0.00e+00	0	43	0	352321536	18	4038
2026-01-13 23:56:45.69	32.92	27.93	-29.4	-30.8	14.6	1.50e-06	0	43	0	354418688	18	4209
2026-01-13 23:56:46.69	33.04	28.10	-29.4	-30.3	14.6	7.00e-07	0	42	0	356515840	19	3973
2026-01-13 23:56:47.69	33.16	28.26	-29.4	-30.2	14.7	7.00e-07	0	43	0	358612992	19	3952
2026-01-13 23:56:48.69	33.29	28.43	-29.4	-30.8	14.6	3.23e-04	0	43	0	360710144	18	4226
2026-01-13 23:56:49.69	33.41	28.60	-29.5	-30.5	14.5	7.00e-07	0	43	0	361758720	19	4028
2026-01-13 23:56:50.69	33.53	28.76	-29.9	-31.5	13.9	0.00e+00	0	43	0	363855872	19	4344
2026-01-13 23:56:51.69	33.66	28.93	-29.8	-31.3	14.0	3.00e-06	0	43	0	365953024	19	4267
2026-01-13 23:56:52.69	33.78	29.10	-29.7	-31.0	14.2	1.50e-06	0	43	0	368050176	19	4192
2026-01-13 23:56:53.69	33.91	29.28	-29.8	-31.4	14.0	7.00e-07	0	42	0	369098752	19	4282
2026-01-13 23:56:54.70	34.04	29.45	-30.0	-31.4	13.6	5.30e-06	0	43	0	371195904	20	4203
2026-01-13 23:56:55.70	34.17	29.62	-30.1	-31.7	13.4	7.60e-06	0	42	0	373293056	20	4301
2026-01-13 23:56:56.70	34.30	29.80	-30.1	-31.6	13.4	1.60e-05	0	43	0	375390208	20	4281
2026-01-13 23:56:57.70	34.44	29.97	-30.4	-32.3	13.0	2.44e-05	0	42	0	377487360	20	4495
2026-01-13 23:56:58.70	34.57	30.15	-30.5	-32.0	12.8	5.26e-05	0	43	0	378535936	21	4322
2026-01-13 23:56:59.71	34.71	30.32	-30.6	-32.4	12.6	2.72e-04	0	43	0	380633088	21	4433
2026-01-13 23:57:00.70	34.84	30.50	-30.7	-32.6	12.4	1.40e-04	0	42	0	382730240	21	4521
2026-01-13 23:57:01.71	34.98	30.68	-30.8	-32.9	12.3	1.72e-04	0	43	0	384827392	21	4625
2026-01-13 23:57:02.72	35.13	30.86	-30.8	-33.1	12.1	4.43e-04	0	43	0	386924544	21	4680
2026-01-13 23:57:03.71	35.27	31.04	-31.1	-33.3	11.7	4.39e-04	0	43	0	387973120	22	4651
2026-01-13 23:57:04.72	35.41	31.22	-31.2	-33.8	11.4	5.96e-04	0	43	0	390070272	22	4835
2026-01-13 23:57:05.71	35.55	31.40	-31.2	-33.8	11.4	1.28e-03	0	43	0	392167424	22	4839
2026-01-13 23:57:06.72	35.70	31.59	-31.0	-33.1	11.9	1.14e-03	0	43	0	394264576	22	4567
2026-01-13 23:57:07.72	35.85	31.77	-30.8	-32.4	12.3	4.68e-04	0	43	0	396361728	22	4361
2026-01-13 23:57:08.71	36.00	31.95	-30.6	-32.5	12.6	1.83e-04	0	43	0	397410304	21	4463
2026-01-13 23:57:09.71	36.15	32.14	-30.9	-33.3	12.0	4.65e-04	0	43	0	399507456	21	4741
2026-01-13 23:57:10.71	36.30	32.33	-30.6	-32.5	12.6	3.00e-04	0	42	0	401604608	21	4479
2026-01-13 23:57:11.71	36.46	32.52	-30.5	-32.3	12.7	1.01e-04	0	42	0	403701760	21	4390
2026-01-13 23:57:12.71	36.62	32.70	-30.6	-32.4	12.7	1.04e-04	0	43	0	404750336	21	4433
2026-01-13 23:57:13.71	36.77	32.89	-30.7	-32.6	12.5	4.92e-04	0	43	0	406847488	21	4510
2026-01-13 23:57:14.72	36.94	33.09	-30.7	-32.8	12.5	1.04e-04	0	43	0	408944640	21	4563
2026-01-13 23:57:15.72	37.10	33.28	-30.7	-32.8	12.4	1.39e-04	0	43	0	411041792	21	4570
2026-01-13 23:57:16.73	37.26	33.47	-30.6	-32.4	12.7	4.84e-04	0	43	0	413138944	21	4444
2026-01-13 23:57:17.74	37.43	33.67	-30.6	-32.3	12.7	9.00e-05	0	43	0	414187520	21	4402
2026-01-13 23:57:18.73	37.60	33.86	-30.6	-32.4	12.7	4.66e-04	0	43	0	416284672	21	4438
2026-01-13 23:57:19.73	37.77	34.06	-30.6	-32.5	12.7	4.24e-04	0	43	0	418381824	21	4451
2026-01-13 23:57:20.73	37.94	34.25	-30.7	-32.7	12.5	8.39e-05	0	43	0	420478976	21	4532
2026-01-13 23:57:21.73	38.11	34.45	-30.7	-32.6	12.6	2.39e-04	0	43	0	422576128	21	4499
2026-01-13 23:57:22.73	38.29	34.65	-30.5	-32.1	12.9	1.95e-04	0	43	0	423624704	21	4337
2026-01-13 23:57:23.74	38.47	34.85	-30.8	-33.1	12.3	1.40e-04	0	43	0	425721856	21	4656
2026-01-13 23:57:24.74	38.65	35.05	-30.7	-32.6	12.6	1.43e-04	0	43	0	427819008	21	4486
2026-01-13 23:57:25.74	38.83	35.25	-30.5	-32.1	12.9	6.33e-05	0	43	0	429916160	21	4347
2026-01-13 23:57:26.74	39.02	35.46	-30.4	-31.9	13.1	4.34e-05	0	43	0	432013312	21	4260
2026-01-13 23:57:27.73	39.20	35.66	-30.5	-32.1	12.9	3.05e-05	0	43	0	433061888	21	4333
2026-01-13 23:57:28.74	39.39	35.86	-30.5	-32.1	12.8	9.53e-05	0	43	0	435159040	21	4327
2026-01-13 23:57:29.73	39.58	36.07	-30.8	-32.8	12.5	1.03e-04	0	43	0	437256192	21	4570
2026-01-13 23:57:30.74	39.78	36.28	-30.7	-32.7	12.4	1.49e-04	0	43	0	439353344	21	4539
2026-01-13 23:57:31.73	39.97	36.48	-30.5	-32.0	13.0	7.93e-05	0	42	0	441450496	21	4295
2026-01-13 23:57:32.74	40.17	36.69	-30.6	-32.3	12.8	3.66e-05	0	43	0	442499072	21	4393
2026-01-13 23:57:33.74	40.38	36.90	-30.3	-31.7	13.2	7.17e-05	0	43	0	444596224	21	4188
2026-01-13 23:57:34.74	40.58	37.11	-30.6	-32.4	12.7	8.69e-05	0	43	0	446693376	21	4422
2026-01-13 23:57:35.74	40.79	37.32	-30.5	-32.0	13.1	4.19e-05	0	43	0	448790528	21	4284
2026-01-13 23:57:36.74	41.00	37.53	-30.7	-32.5	12.7	2.21e-05	0	43	0	449839104	21	4466
2026-01-13 23:57:37.74	41.21	37.75	-30.7	-32.8	12.5	3.04e-04	0	43	0	451936256	21	4575
2026-01-13 23:57:38.74	41.42	37.96	-31.1	-33.4	11.8	2.09e-04	0	43	0	454033408	22	4689
2026-01-13 23:57:39.74	41.64	38.18	-31.3	-33.8	11.5	6.62e-04	0	43	0	456130560	22	4840
2026-01-13 23:57:40.75	41.86	38.39	-31.7	-34.5	10.6	1.99e-03	0	43	0	458227712	23	5021
2026-01-13 23:57:41.75	42.09	38.61	-31.8	-35.0	10.2	2.97e-03	0	43	0	459276288	23	5204
2026-01-13 23:57:42.75	42.31	38.83	-31.3	-33.6	11.3	2.54e-03	0	43	0	461373440	23	4648
2026-01-13 23:57:43.76	42.54	39.05	-31.5	-34.2	10.7	1.76e-03	0	43	0	463470592	23	4903
2026-01-13 23:57:44.75	42.77	39.27	-31.0	-32.6	11.9	1.40e-03	0	43	0	465567744	23	4327
2026-01-13 23:57:45.76	43.01	39.49	-30.8	-32.3	12.5	5.71e-04	0	43	0	467664896	22	4295
2026-01-13 23:57:46.76	43.25	39.71	-30.6	-32.5	12.7	6.25e-05	0	43	0	468713472	21	4448
2026-01-13 23:57:47.77	43.49	39.94	-30.4	-31.8	13.2	3.81e-05	0	43	0	470810624	21	4241
2026-01-13 23:57:48.76	43.74	40.16	-30.2	-31.2	13.6	2.46e-04	0	43	0	472907776	21	4051
2026-01-13 23:57:49.76	43.98	40.38	-29.9	-31.1	14.0	1.42e-04	0	43	0	475004928	20	4093
2026-01-13 23:57:50.76	44.24	40.61	-29.8	-30.7	14.2	3.00e-06	0	43	0	476053504	20	4003
2026-01-13 23:57:51.76	44.49	40.83	-30.1	-31.4	13.8	7.00e-07	0	43	0	478150656	20	4183
2026-01-13 23:57:52.76	44.75	41.06	-30.1	-31.5	13.7	4.57e-05	0	43	0	480247808	20	4222
2026-01-13 23:57:53.77	45.01	41.29	-30.6	-32.4	12.8	4.27e-05	0	43	0	482344960	21	4421
2026-01-13 23:57:54.78	45.28	41.52	-30.6	-32.4	12.8	1.40e-04	0	43	0	484442112	21	4419
2026-01-13 23:57:55.78	45.55	41.75	-31.1	-33.3	11.9	2.58e-04	0	43	0	486539264	22	4623
2026-01-13 23:57:56.78	45.83	41.98	-30.9	-32.7	12.3	4.74e-04	0	43	0	487587840	22	4425
2026-01-13 23:57:57.79	46.11	42.21	-30.6	-31.7	13.0	8.54e-05	0	43	0	489684992	22	4115
2026-01-13 23:57:58.78	46.39	42.44	-30.1	-31.0	13.8	1.37e-05	0	43	0	491782144	21	3982
2026-01-13 23:57:59.78	46.67	42.67	-29.8	-30.6	14.4	0.00e+00	0	43	0	493879296	20	3947
2026-01-13 23:58:00.78	46.96	42.90	-29.7	-30.5	14.4	0.00e+00	0	43	0	494927872	20	3918
2026-01-13 23:58:01.79	47.26	43.14	-29.7	-30.5	14.4	2.20e-06	0	43	0	497025024	20	3935
2026-01-13 23:58:02.78	47.55	43.37	-29.9	-31.0	14.1	7.00e-07	0	43	0	499122176	20	4076
2026-01-13 23:58:03.78	47.85	43.60	-30.3	-31.9	13.5	6.10e-06	0	43	0	501219328	20	4351
2026-01-13 23:58:04.78	48.16	43.84	-30.3	-32.1	13.4	1.83e-05	0	43	0	503316480	20	4406
2026-01-13 23:58:05.78	48.47	44.07	-30.7	-32.7	12.7	1.60e-05	0	43	0	504365056	21	4516
2026-01-13 23:58:06.78	48.79	44.31	-30.3	-31.5	13.5	4.95e-05	0	43	0	506462208	21	4142
2026-01-13 23:58:07.79	49.11	44.55	-30.4	-31.7	13.3	9.10e-06	0	43	0	508559360	21	4197
2026-01-13 23:58:08.80	49.44	44.78	-30.6	-32.2	13.0	2.21e-05	0	43	0	510656512	21	4360
2026-01-13 23:58:09.80	49.77	45.02	-30.7	-32.6	12.8	1.83e-05	0	43	0	512753664	21	4491
2026-01-13 23:58:10.80	50.10	45.26	-30.9	-33.2	12.3	4.95e-05	0	43	0	513802240	21	4674
2026-01-13 23:58:11.80	50.44	45.50	-31.1	-33.3	11.9	2.72e-04	0	43	0	515899392	22	4639
2026-01-13 23:58:12.80	50.79	45.73	-31.1	-33.4	12.0	4.43e-04	0	43	0	517996544	22	4651
2026-01-13 23:58:13.80	51.14	45.97	-31.2	-33.4	11.9	2.61e-04	0	43	0	520093696	22	4651
2026-01-13 23:58:14.81	51.50	46.21	-30.9	-32.6	12.5	1.50e-04	0	43	0	522190848	22	4387
2026-01-13 23:58:15.81	51.86	46.45	-30.7	-32.1	12.9	6.02e-05	0	43	0	523239424	22	4211
2026-01-13 23:58:16.81	52.23	46.69	-31.0	-32.8	12.3	9.68e-05	0	43	0	525336576	22	4443
2026-01-13 23:58:17.82	52.60	46.93	-31.1	-33.3	11.9	1.95e-04	0	43	0	527433728	22	4623
2026-01-13 23:58:18.82	52.98	47.17	-31.6	-34.3	11.0	1.21e-03	0	43	0	529530880	23	4906
2026-01-13 23:58:19.82	53.36	47.41	-31.9	-35.1	10.2	3.15e-03	0	43	0	531628032	23	5253
2026-01-13 23:58:20.82	53.75	47.65	-32.2	-35.8	9.5	6.71e-03	0	43	0	532676608	24	5467
2026-01-13 23:58:21.82	54.15	47.89	-32.3	-36.1	9.2	1.92e-02	0	43	0	534773760	24	5587
2026-01-13 23:58:22.82	54.55	48.13	-32.5	-36.5	8.5	2.91e-02	0	43	0	536870912	25	5705
2026-01-13 23:58:23.82	54.95	48.37	-32.4	-36.0	8.9	2.57e-02	0	43	0	538968064	25	5453
2026-01-13 23:58:24.83	55.37	48.61	-32.1	-34.9	9.8	1.55e-02	0	43	0	540016640	25	4992
2026-01-13 23:58:25.83	55.79	48.85	-31.9	-34.0	10.4	5.70e-03	0	43	0	542113792	25	4634
2026-01-13 23:58:26.83	56.22	49.09	-31.7	-34.1	10.7	3.96e-03	0	43	0	544210944	24	4737
2026-01-13 23:58:27.83	56.65	49.32	-31.5	-33.5	11.2	3.06e-03	0	43	0	546308096	24	4522
2026-01-13 23:58:28.83	57.09	49.56	-31.7	-34.0	11.0	1.70e-03	0	43	0	548405248	24	4687
2026-01-13 23:58:29.83	57.54	49.80	-31.9	-34.8	10.3	3.64e-03	0	43	0	549453824	24	5037
2026-01-13 23:58:30.83	57.99	50.03	-31.7	-34.1	10.8	5.76e-03	0	43	0	551550976	24	4718
2026-01-13 23:58:31.83	58.45	50.27	-31.3	-32.9	11.7	1.20e-03	0	43	0	553648128	24	4303
2026-01-13 23:58:32.83	58.92	50.50	-30.8	-31.9	12.7	2.43e-04	0	43	0	555745280	23	4050
2026-01-13 23:58:33.83	59.40	50.74	-30.9	-32.2	12.6	1.35e-04	0	43	0	557842432	23	4153
2026-01-13 23:58:34.84	59.89	50.97	-30.8	-32.3	12.7	7.70e-05	0	43	0	558891008	22	4288
2026-01-13 23:58:35.84	60.38	51.20	-30.8	-32.4	12.7	9.07e-05	0	43	0	560988160	22	4311
2026-01-13 23:58:36.84	60.87	51.44	-31.0	-32.7	12.3	1.91e-04	0	43	0	563085312	22	4392
2026-01-13 23:58:37.83	61.37	51.66	-31.0	-32.8	12.4	1.72e-04	0	43	0	565182464	22	4437
2026-01-13 23:58:38.84	61.89	51.89	-30.8	-32.1	12.8	1.55e-04	0	43	0	567279616	22	4210
2026-01-13 23:58:39.83	62.41	52.12	-30.6	-31.7	13.1	5.18e-05	0	43	0	568328192	22	4096
2026-01-13 23:58:40.84	62.94	52.35	-30.2	-31.3	13.7	3.80e-06	0	43	0	570425344	21	4049
2026-01-13 23:58:41.84	63.48	52.57	-30.7	-32.6	13.0	2.67e-05	0	43	0	572522496	21	4470
2026-01-13 23:58:42.85	64.03	52.80	-30.9	-33.0	12.6	7.70e-05	0	43	0	574619648	21	4600
2026-01-13 23:58:43.85	64.58	53.02	-30.7	-32.5	12.9	2.82e-05	0	43	0	575668224	21	4438
2026-01-13 23:58:44.86	65.15	53.24	-30.3	-31.3	13.7	3.35e-05	0	43	0	577765376	21	4064
2026-01-13 23:58:45.86	65.72	53.46	-30.3	-31.4	13.7	3.00e-06	0	43	0	579862528	21	4079
2026-01-13 23:58:46.86	66.30	53.67	-29.9	-30.4	14.3	3.00e-06	0	43	0	581959680	21	3798
2026-01-13 23:58:47.87	66.89	53.89	-29.8	-30.6	14.5	0.00e+00	0	43	0	584056832	20	3953
2026-01-13 23:58:48.86	67.48	54.10	-29.9	-30.9	14.3	0.00e+00	0	43	0	585105408	20	4041
2026-01-13 23:58:49.86	68.09	54.31	-30.3	-32.0	13.6	1.50e-06	0	43	0	587202560	20	4354
2026-01-13 23:58:50.86	68.70	54.51	-30.3	-31.8	13.7	7.60e-06	0	43	0	589299712	20	4306
2026-01-13 23:58:51.85	69.32	54.72	-30.7	-32.6	12.9	6.10e-06	0	43	0	591396864	21	4467
2026-01-13 23:58:52.86	69.96	54.92	-30.7	-32.5	13.0	2.82e-05	0	43	0	593494016	21	4440
2026-01-13 23:58:53.86	70.60	55.12	-30.6	-32.2	13.1	2.67e-05	0	43	0	594542592	21	4348
2026-01-13 23:58:54.86	71.25	55.32	-30.8	-32.7	12.8	3.05e-05	0	43	0	596639744	21	4498
2026-01-13 23:58:55.86	71.91	55.51	-30.5	-32.0	13.3	2.36e-05	0	43	0	598736896	21	4267
2026-01-13 23:58:56.87	72.58	55.70	-30.9	-32.9	12.7	7.01e-05	0	43	0	600834048	21	4556
2026-01-13 23:58:57.88	73.26	55.89	-31.0	-32.8	12.5	8.54e-05	0	43	0	602931200	22	4445
2026-01-13 23:58:58.88	73.95	56.08	-30.7	-31.9	13.2	4.95e-05	0	43	0	603979776	22	4129
2026-01-13 23:58:59.88	74.64	56.26	-30.3	-30.8	13.8	3.28e-05	0	43	0	606076928	22	3823
2026-01-13 23:59:00.88	75.35	56.43	-30.1	-30.8	14.1	1.50e-06	0	43	0	608174080	21	3907
2026-01-13 23:59:01.88	76.06	56.61	-30.6	-32.2	13.3	1.22e-05	0	43	0	610271232	21	4326
2026-01-13 23:59:02.88	76.78	56.78	-30.8	-32.8	12.7	4.78e-04	0	43	0	612368384	21	4528
2026-01-13 23:59:03.88	77.51	56.94	-30.4	-32.1	13.5	4.06e-04	0	43	0	613416960	20	4392
2026-01-13 23:59:04.87	78.24	57.10	-30.5	-31.9	13.4	3.00e-06	0	43	0	615514112	21	4220
2026-01-13 23:59:05.88	79.00	57.26	-31.6	-34.2	11.3	5.05e-04	0	43	0	617611264	23	4833
2026-01-13 23:59:06.87	79.75	57.42	-32.1	-35.2	10.1	3.99e-03	0	43	0	619708416	24	5137
2026-01-13 23:59:07.87	80.51	57.57	-32.5	-36.5	9.1	1.13e-02	0	43	0	620756992	24	5756
2026-01-13 23:59:08.87	81.28	57.71	-32.1	-34.6	10.2	1.89e-02	0	43	0	622854144	25	4808
2026-01-13 23:59:09.87	82.07	57.85	-31.9	-34.5	10.7	2.44e-03	0	43	0	624951296	24	4875
2026-01-13 23:59:10.87	82.86	57.99	-31.4	-33.1	11.6	1.55e-03	0	43	0	627048448	24	4351
2026-01-13 23:59:11.87	83.65	58.12	-31.1	-32.7	12.2	3.72e-04	0	43	0	629145600	23	4312
2026-01-13 23:59:12.88	84.47	58.25	-31.3	-33.1	12.0	3.53e-04	0	43	0	630194176	23	4435
2026-01-13 23:59:13.87	85.27	58.37	-31.4	-33.4	11.9	4.51e-04	0	43	0	632291328	23	4526
2026-01-13 23:59:14.87	86.09	58.48	-31.5	-33.8	11.5	8.29e-04	0	43	0	634388480	23	4667
2026-01-13 23:59:15.87	86.92	58.59	-32.1	-35.1	10.2	1.06e-03	0	43	0	636485632	24	5102
2026-01-13 23:59:16.87	87.75	58.70	-32.5	-36.2	8.8	1.97e-02	0	43	0	638582784	25	5528
2026-01-13 23:59:17.87	88.59	58.80	-32.6	-36.6	8.6	4.14e-02	0	43	0	639631360	25	5688
2026-01-13 23:59:18.87	89.43	58.89	-32.0	-35.0	10.2	2.67e-02	0	43	0	641728512	24	5036
2026-01-13 23:59:19.88	90.29	58.98	-31.7	-33.9	10.9	1.80e-03	0	43	0	643825664	24	4638
2026-01-13 23:59:20.88	91.15	59.07	-31.7	-34.4	11.1	2.33e-03	0	43	0	645922816	23	4903
2026-01-13 23:59:21.88	92.01	59.15	-31.7	-34.4	11.3	1.75e-03	0	43	0	646971392	23	4886
2026-01-13 23:59:22.88	92.88	59.22	-31.6	-34.0	11.4	1.05e-03	0	43	0	649068544	23	4739
2026-01-13 23:59:23.88	93.76	59.28	-31.8	-34.6	11.0	1.98e-03	0	43	0	651165696	23	4960
2026-01-13 23:59:24.88	94.63	59.34	-32.1	-35.2	10.3	2.80e-03	0	43	0	653262848	24	5154
2026-01-13 23:59:25.88	95.51	59.40	-31.7	-33.8	11.2	3.17e-03	0	43	0	655360000	24	4579
2026-01-13 23:59:26.88	96.40	59.45	-31.7	-34.4	11.1	1.41e-03	0	43	0	656408576	23	4880
2026-01-13 23:59:27.88	97.28	59.49	-31.4	-33.5	11.8	2.03e-03	0	43	0	658505728	23	4558
2026-01-13 23:59:28.88	98.17	59.52	-31.3	-33.3	11.9	5.43e-04	0	43	0	660602880	23	4486
2026-01-13 23:59:29.87	99.06	59.55	-31.3	-33.6	12.0	1.00e-03	0	43	0	662700032	22	4693
2026-01-13 23:59:30.88	99.96	59.58	-31.2	-33.3	12.2	4.55e-04	0	43	0	664797184	22	4592
2026-01-13 23:59:31.88	100.85	59.59	-31.8	-34.6	10.9	7.07e-04	0	43	0	665845760	23	4990
2026-01-13 23:59:32.89	101.76	59.60	-31.7	-34.3	11.3	2.50e-03	0	43	0	667942912	23	4858
2026-01-13 23:59:33.89	102.65	59.61	-31.0	-32.2	12.7	1.51e-03	0	43	0	670040064	23	4151
2026-01-13 23:59:34.89	103.55	59.61	-30.4	-31.2	13.7	1.52e-05	0	43	0	672137216	22	3915
2026-01-13 23:59:35.90	104.46	59.60	-30.0	-31.0	14.4	4.11e-04	0	43	0	674234368	20	4049
2026-01-13 23:59:36.89	105.34	59.59	-30.3	-31.8	13.9	8.33e-04	0	43	0	675282944	20	4292
2026-01-13 23:59:37.89	106.24	59.56	-30.3	-31.7	13.9	7.60e-06	0	43	0	677380096	20	4264
2026-01-13 23:59:38.90	107.14	59.54	-30.2	-31.5	14.2	2.04e-04	0	43	0	679477248	20	4196
2026-01-13 23:59:39.90	108.03	59.50	-30.1	-31.2	14.3	8.08e-05	0	43	0	681574400	20	4114
2026-01-13 23:59:40.90	108.92	59.46	-30.3	-31.8	13.8	1.50e-06	0	43	0	682622976	20	4281
2026-01-13 23:59:41.90	109.80	59.42	-30.7	-32.5	13.1	1.67e-04	0	43	0	684720128	21	4426
2026-01-13 23:59:42.90	110.69	59.37	-30.8	-32.7	13.0	1.53e-04	0	43	0	686817280	21	4471
2026-01-13 23:59:43.90	111.57	59.31	-31.0	-32.8	12.7	5.79e-05	0	43	0	688914432	22	4398
2026-01-13 23:59:44.90	112.44	59.25	-31.1	-33.1	12.5	1.43e-04	0	43	0	691011584	22	4514
2026-01-13 23:59:45.91	113.32	59.18	-31.1	-33.1	12.5	1.72e-04	0	43	0	692060160	22	4504
2026-01-13 23:59:46.91	114.18	59.10	-30.7	-31.8	13.4	1.17e-04	0	43	0	694157312	22	4087
2026-01-13 23:59:47.92	115.05	59.02	-30.6	-31.5	13.5	7.60e-06	0	43	0	696254464	22	4022
2026-01-13 23:59:48.92	115.91	58.93	-31.3	-33.6	12.2	5.34e-05	0	43	0	698351616	22	4689
2026-01-13 23:59:49.92	116.76	58.84	-31.5	-33.5	11.8	3.16e-04	0	43	0	700448768	23	4567
2026-01-13 23:59:50.92	117.60	58.74	-31.6	-33.9	11.4	5.32e-04	0	43	0	701497344	23	4720
2026-01-13 23:59:51.92	118.44	58.64	-31.4	-33.4	11.8	3.44e-04	0	43	0	703594496	23	4542
2026-01-13 23:59:52.92	119.27	58.53	-31.7	-34.2	11.3	6.62e-04	0	43	0	705691648	23	4803
2026-01-13 23:59:53.92	120.09	58.41	-31.7	-34.3	11.3	1.00e-03	0	43	0	707788800	23	4854
2026-01-13 23:59:54.92	120.91	58.30	-31.5	-33.6	11.7	7.05e-04	0	43	0	709885952	23	4610
2026-01-13 23:59:55.91	121.71	58.17	-30.6	-31.7	13.3	2.08e-04	0	43	0	710934528	22	4074
2026-01-13 23:59:56.92	122.52	58.04	-30.3	-31.2	14.0	3.28e-05	0	43	0	713031680	21	4020
2026-01-13 23:59:57.92	123.31	57.91	-30.4	-31.5	13.8	1.50e-06	0	43	0	715128832	21	4101
2026-01-13 23:59:58.93	124.10	57.77	-30.6	-32.2	13.2	1.14e-05	0	43	0	717225984	21	4323
2026-01-13 23:59:59.92	124.87	57.62	-30.1	-30.8	14.2	1.14e-05	0	43	0	719323136	21	3909
2026-01-14 00:00:00.93	125.65	57.48	-29.9	-30.3	14.6	2.20e-06	0	43	0	720371712	21	3766
2026-01-14 00:00:01.93	126.41	57.32	-29.9	-30.8	14.5	7.00e-07	0	43	0	722468864	20	3990
2026-01-14 00:00:02.94	127.17	57.16	-29.8	-31.0	14.8	6.87e-04	0	43	0	724566016	19	4126
2026-01-14 00:00:03.94	127.91	57.00	-30.1	-31.4	14.1	1.00e-03	0	43	0	726663168	20	4162
2026-01-14 00:00:04.94	128.65	56.84	-29.8	-30.5	14.7	1.50e-06	0	43	0	727711744	20	3895
2026-01-14 00:00:05.94	129.37	56.67	-29.5	-30.4	15.2	0.00e+00	0	43	0	729808896	19	3958
2026-01-14 00:00:06.95	130.10	56.50	-29.2	-29.6	15.6	1.43e-03	0	43	0	731906048	19	3762
2026-01-14 00:00:07.94	130.80	56.32	-29.0	-29.1	15.9	0.00e+00	0	43	0	734003200	19	3637
2026-01-14 00:00:08.94	131.50	56.14	-29.3	-30.3	15.5	0.00e+00	0	43	0	736100352	18	4043
2026-01-14 00:00:09.93	132.18	55.96	-29.0	-29.4	16.0	1.83e-03	0	43	0	737148928	18	3809
2026-01-14 00:00:10.94	132.87	55.77	-28.4	-28.1	16.7	0.00e+00	0	43	0	739246080	18	3475
2026-01-14 00:00:11.94	133.54	55.58	-28.3	-28.9	16.9	0.00e+00	0	43	0	741343232	16	3850
2026-01-14 00:00:12.94	134.20	55.39	-29.3	-30.4	15.4	0.00e+00	0	43	0	743440384	18	4054
2026-01-14 00:00:13.94	134.86	55.19	-30.0	-30.9	14.4	0.00e+00	0	43	0	745537536	20	4032
2026-01-14 00:00:14.94	135.50	54.99	-28.8	-29.0	16.2	0.00e+00	0	43	0	746586112	18	3690
2026-01-14 00:00:15.94	136.14	54.79	-27.6	-27.2	17.8	0.00e+00	0	43	0	748683264	16	3445
2026-01-14 00:00:16.94	136.77	54.59	-27.7	-27.6	17.5	0.00e+00	0	43	0	750780416	16	3545
2026-01-14 00:00:17.93	137.38	54.38	-29.0	-30.0	15.9	9.09e-04	0	43	0	752877568	17	4058
2026-01-14 00:00:18.93	137.99	54.17	-28.6	-28.6	16.4	0.00e+00	0	43	0	753926144	18	3603
2026-01-14 00:00:19.93	138.59	53.96	-28.4	-28.3	16.6	0.00e+00	0	43	0	756023296	18	3521
2026-01-14 00:00:20.93	139.18	53.75	-29.4	-30.5	15.4	1.13e-03	0	43	0	758120448	18	4092
2026-01-14 00:00:21.93	139.76	53.53	-29.6	-30.5	15.0	0.00e+00	0	43	0	760217600	19	3994
2026-01-14 00:00:22.92	140.33	53.32	-29.7	-30.8	14.8	0.00e+00	0	43	0	762314752	19	4084
2026-01-14 00:00:23.92	140.90	53.10	-28.7	-28.9	16.2	0.00e+00	0	43	0	763363328	18	3685
2026-01-14 00:00:24.91	141.45	52.88	-28.3	-28.3	16.8	0.00e+00	0	43	0	765460480	17	3626
2026-01-14 00:00:25.92	142.01	52.66	-28.0	-27.7	17.2	0.00e+00	0	43	0	767557632	17	3483
2026-01-14 00:00:26.92	142.55	52.43	-27.8	-27.7	17.5	0.00e+00	0	43	0	769654784	16	3557
2026-01-14 00:00:27.91	143.08	52.21	-28.2	-28.7	16.9	0.00e+00	0	43	0	771751936	16	3815
2026-01-14 00:00:28.91	143.60	51.98	-28.5	-29.4	16.6	0.00e+00	0	43	0	772800512	16	3983
2026-01-14 00:00:29.91	144.12	51.75	-29.0	-29.7	15.8	0.00e+00	0	43	0	774897664	18	3871
2026-01-14 00:00:30.91	144.63	51.52	-29.4	-30.6	15.3	0.00e+00	0	43	0	776994816	18	4130
2026-01-14 00:00:31.91	145.13	51.29	-29.6	-30.5	15.1	0.00e+00	0	43	0	779091968	19	3990
2026-01-14 00:00:32.90	145.62	51.06	-29.7	-30.9	14.8	7.00e-07	0	43	0	780140544	19	4107
2026-01-14 00:00:33.91	146.11	50.82	-29.3	-29.7	15.5	0.00e+00	0	43	0	782237696	19	3792
2026-01-14 00:00:34.91	146.59	50.59	-29.4	-30.0	15.3	0.00e+00	0	43	0	784334848	19	3875
2026-01-14 00:00:35.91	147.06	50.35	-30.1	-31.2	14.3	0.00e+00	0	43	0	786432000	20	4119
2026-01-14 00:00:36.91	147.53	50.12	-30.2	-31.5	14.3	7.00e-07	0	43	0	788529152	20	4187
2026-01-14 00:00:37.91	147.99	49.88	-30.3	-31.9	13.8	1.50e-06	0	43	0	789577728	20	4323
2026-01-14 00:00:38.91	148.44	49.64	-31.2	-33.2	12.4	4.11e-05	0	43	0	791674880	22	4561
2026-01-14 00:00:39.92	148.89	49.40	-32.5	-36.5	9.1	2.93e-03	0	43	0	793772032	24	5741
2026-01-14 00:00:40.93	149.33	49.16	-33.1	-38.6	6.8	7.18e-02	0	43	0	795869184	26	6749
2026-01-14 00:00:41.93	149.76	48.92	-33.1	-38.4	6.9	3.24e-01	0	43	0	797966336	26	6619
2026-01-14 00:00:42.93	150.18	48.69	-32.5	-35.6	9.0	3.97e-02	0	43	0	799014912	26	5139
2026-01-14 00:00:43.94	150.60	48.44	-32.2	-35.1	9.8	2.02e-02	0	43	0	801112064	25	5037
2026-01-14 00:00:44.95	151.02	48.20	-32.5	-36.0	9.1	7.68e-03	0	43	0	803209216	25	5424
2026-01-14 00:00:45.95	151.42	47.96	-32.7	-36.8	8.6	3.63e-02	0	43	0	805306368	25	5815
2026-01-14 00:00:46.95	151.82	47.72	-32.2	-35.2	9.7	1.71e-02	0	43	0	807403520	25	5065
2026-01-14 00:00:47.95	152.21	47.48	-32.2	-35.0	9.9	1.23e-02	0	43	0	808452096	25	4971
2026-01-14 00:00:48.95	152.60	47.24	-31.8	-34.3	10.7	6.38e-03	0	43	0	810549248	24	4772
2026-01-14 00:00:49.95	152.98	47.00	-31.6	-33.5	11.4	1.58e-03	0	43	0	812646400	24	4486
2026-01-14 00:00:50.94	153.35	46.76	-31.0	-32.3	12.6	2.53e-04	0	43	0	814743552	23	4192
2026-01-14 00:00:51.94	153.72	46.52	-31.3	-33.1	12.0	7.47e-05	0	43	0	816840704	23	4434
2026-01-14 00:00:52.94	154.08	46.28	-31.0	-33.4	11.9	3.09e-04	0	43	0	817889280	22	4743
2026-01-14 00:00:53.95	154.44	46.04	-31.4	-33.5	11.6	6.74e-04	0	43	0	819986432	23	4600
2026-01-14 00:00:54.95	154.80	45.80	-30.5	-31.6	13.3	1.54e-04	0	43	0	822083584	22	4042
2026-01-14 00:00:55.95	155.15	45.56	-29.5	-29.8	15.0	9.91e-05	0	43	0	824180736	20	3724
2026-01-14 00:00:56.95	155.49	45.32	-29.6	-30.5	14.9	0.00e+00	0	43	0	825229312	19	4008
2026-01-14 00:00:57.96	155.83	45.08	-30.3	-31.9	13.8	7.00e-07	0	43	0	827326464	20	4325
2026-01-14 00:00:58.95	156.16	44.85	-31.3	-33.7	12.0	3.81e-05	0	43	0	829423616	22	4744
2026-01-14 00:00:59.95	156.49	44.61	-31.3	-33.1	11.9	6.46e-04	0	43	0	831520768	23	4443
2026-01-14 00:01:00.94	156.81	44.37	-30.7	-32.0	13.0	7.17e-05	0	43	0	833617920	22	4166
2026-01-14 00:01:01.95	157.13	44.13	-29.9	-30.4	14.4	3.00e-06	0	43	0	834666496	21	3794
2026-01-14 00:01:02.95	157.44	43.90	-29.8	-30.6	14.5	1.50e-06	0	43	0	836763648	20	3961
2026-01-14 00:01:03.95	157.75	43.66	-29.7	-30.3	14.7	0.00e+00	0	43	0	838860800	20	3862
2026-01-14 00:01:04.95	158.05	43.43	-30.0	-31.5	14.3	7.00e-07	0	43	0	840957952	19	4306
2026-01-14 00:01:05.96	158.36	43.19	-29.9	-30.9	14.3	2.20e-06	0	43	0	843055104	20	4035
2026-01-14 00:01:06.96	158.65	42.96	-30.4	-32.2	13.4	6.10e-06	0	43	0	844103680	20	4456
2026-01-14 00:01:07.96	158.94	42.72	-30.3	-31.9	13.7	7.60e-06	0	43	0	846200832	20	4323
2026-01-14 00:01:08.96	159.23	42.49	-29.9	-30.8	14.4	7.60e-06	0	43	0	848297984	20	4000
2026-01-14 00:01:09.96	159.52	42.26	-29.5	-29.8	14.9	0.00e+00	0	43	0	850395136	20	3743
2026-01-14 00:01:10.97	159.80	42.02	-29.7	-30.9	14.7	0.00e+00	0	43	0	852492288	19	4107
2026-01-14 00:01:11.97	160.07	41.79	-30.2	-31.8	13.8	7.00e-07	0	43	0	853540864	20	4299
2026-01-14 00:01:12.97	160.34	41.56	-30.6	-32.4	13.0	1.06e-05	0	43	0	855638016	21	4422
2026-01-14 00:01:13.97	160.61	41.33	-30.2	-31.8	13.6	9.18e-04	0	43	0	857735168	20	4317
2026-01-14 00:01:14.96	160.87	41.11	-29.5	-30.4	14.9	7.00e-07	0	43	0	859832320	19	3988
2026-01-14 00:01:15.97	161.14	40.88	-29.4	-30.0	15.2	7.00e-07	0	43	0	861929472	19	3878
2026-01-14 00:01:16.97	161.39	40.65	-29.4	-30.6	15.2	1.39e-03	0	43	0	862978048	18	4134
2026-01-14 00:01:17.97	161.65	40.42	-29.7	-30.8	14.6	1.56e-03	0	43	0	865075200	19	4114
2026-01-14 00:01:18.97	161.90	40.20	-30.3	-31.9	13.6	4.50e-06	0	43	0	867172352	20	4338
2026-01-14 00:01:19.97	162.14	39.97	-30.4	-31.9	13.3	1.51e-03	0	43	0	869269504	21	4235
2026-01-14 00:01:20.97	162.39	39.75	-29.5	-30.4	14.9	1.15e-03	0	43	0	870318080	19	3979
2026-01-14 00:01:21.96	162.63	39.53	-29.0	-29.1	15.7	0.00e+00	0	43	0	872415232	19	3648
2026-01-14 00:01:22.97	162.86	39.31	-29.1	-30.1	15.4	0.00e+00	0	43	0	874512384	18	4029
2026-01-14 00:01:23.97	163.10	39.08	-29.3	-30.2	15.3	3.42e-04	0	43	0	876609536	18	4033
2026-01-14 00:01:24.96	163.33	38.87	-29.1	-30.0	15.5	0.00e+00	0	43	0	878706688	18	3973
2026-01-14 00:01:25.96	163.55	38.65	-29.5	-30.3	14.8	0.00e+00	0	43	0	879755264	19	3963
2026-01-14 00:01:26.97	163.78	38.43	-29.6	-30.6	14.8	4.22e-04	0	43	0	881852416	19	4050
2026-01-14 00:01:27.97	164.00	38.21	-29.6	-30.7	14.7	0.00e+00	0	43	0	883949568	19	4085
2026-01-14 00:01:28.97	164.22	37.99	-29.7	-31.0	14.5	6.99e-04	0	43	0	886046720	19	4166
2026-01-14 00:01:29.97	164.44	37.78	-29.8	-31.2	14.4	1.50e-06	0	43	0	888143872	19	4229
2026-01-14 00:01:30.97	164.65	37.56	-29.9	-31.0	14.1	3.80e-06	0	43	0	889192448	20	4066
2026-01-14 00:01:31.98	164.86	37.35	-30.1	-31.4	13.9	1.42e-03	0	43	0	891289600	20	4203
2026-01-14 00:01:32.98	165.07	37.14	-30.2	-31.8	13.6	1.50e-06	0	43	0	893386752	20	4327
2026-01-14 00:01:33.98	165.28	36.92	-30.0	-31.1	14.1	1.88e-04	0	43	0	895483904	20	4108
2026-01-14 00:01:34.97	165.48	36.71	-29.8	-31.0	14.6	8.10e-04	0	43	0	896532480	19	4160
2026-01-14 00:01:35.97	165.68	36.51	-29.9	-31.4	14.3	5.30e-04	0	43	0	898629632	19	4291
2026-01-14 00:01:36.97	165.87	36.30	-30.4	-32.3	13.3	3.80e-06	0	43	0	900726784	20	4494
2026-01-14 00:01:37.97	166.07	36.09	-31.0	-33.4	12.3	6.51e-04	0	43	0	902823936	21	4758
2026-01-14 00:01:38.97	166.26	35.88	-31.5	-34.0	11.2	1.18e-03	0	43	0	904921088	23	4789
2026-01-14 00:01:39.97	166.45	35.68	-31.7	-34.6	10.7	3.35e-03	0	43	0	905969664	23	5049
2026-01-14 00:01:40.97	166.64	35.47	-31.7	-34.7	10.6	5.03e-03	0	43	0	908066816	23	5088
2026-01-14 00:01:41.97	166.83	35.27	-31.6	-34.3	11.0	3.62e-03	0	43	0	910163968	23	4907
2026-01-14 00:01:42.97	167.01	35.06	-31.1	-32.9	11.8	8.49e-04	0	43	0	912261120	23	4409
2026-01-14 00:01:43.97	167.19	34.86	-30.9	-32.7	12.4	2.35e-04	0	43	0	914358272	22	4441
2026-01-14 00:01:44.96	167.37	34.66	-30.6	-32.7	12.6	1.18e-03	0	43	0	915406848	21	4547
2026-01-14 00:01:45.96	167.55	34.46	-30.7	-32.9	12.5	6.79e-05	0	43	0	917504000	21	4637
2026-01-14 00:01:46.96	167.72	34.26	-31.0	-33.8	11.9	1.84e-03	0	43	0	919601152	21	4956
2026-01-14 00:01:47.97	167.90	34.06	-31.0	-33.3	11.9	1.86e-03	0	43	0	921698304	22	4674
2026-01-14 00:01:48.96	168.06	33.87	-31.4	-34.3	11.2	6.86e-04	0	43	0	922746880	22	5041
2026-01-14 00:01:49.96	168.23	33.67	-31.3	-34.1	11.3	3.22e-03	0	43	0	924844032	22	4962
2026-01-14 00:01:50.96	168.40	33.48	-31.4	-34.3	11.2	2.61e-03	0	43	0	926941184	22	5009
2026-01-14 00:01:51.96	168.57	33.28	-31.6	-34.3	11.0	2.10e-03	0	43	0	929038336	23	4926
2026-01-14 00:01:52.96	168.73	33.09	-31.9	-35.5	10.0	5.67e-03	0	43	0	931135488	23	5421
2026-01-14 00:01:53.96	168.89	32.90	-31.7	-34.8	10.5	7.65e-03	0	43	0	932184064	23	5123
2026-01-14 00:01:54.96	169.05	32.71	-31.5	-34.0	11.1	2.39e-03	0	43	0	934281216	23	4812
2026-01-14 00:01:55.96	169.21	32.52	-31.4	-34.2	11.3	2.51e-03	0	43	0	936378368	22	4959
2026-01-14 00:01:56.96	169.36	32.33	-31.4	-34.2	11.3	2.29e-03	0	43	0	938475520	22	5002
2026-01-14 00:01:57.96	169.52	32.14	-31.3	-34.3	11.2	1.10e-03	0	43	0	940572672	22	5067
2026-01-14 00:01:58.96	169.67	31.95	-31.8	-35.3	10.0	6.91e-03	0	43	0	941621248	23	5385
2026-01-14 00:01:59.96	169.82	31.77	-31.3	-33.7	11.1	4.37e-03	0	43	0	943718400	23	4765
2026-01-14 00:02:00.96	169.97	31.58	-31.6	-34.7	10.5	1.53e-03	0	43	0	945815552	23	5144
2026-01-14 00:02:01.96	170.11	31.40	-31.5	-34.4	10.7	4.90e-03	0	43	0	947912704	23	4996
2026-01-14 00:02:02.96	170.26	31.21	-31.7	-34.9	10.3	4.80e-03	0	43	0	950009856	23	5205
2026-01-14 00:02:03.97	170.41	31.03	-32.1	-35.9	9.2	1.04e-02	0	43	0	951058432	24	5557
2026-01-14 00:02:04.97	170.55	30.85	-31.9	-35.7	9.8	1.10e-02	0	43	0	953155584	23	5536
2026-01-14 00:02:05.97	170.69	30.67	-31.7	-34.8	10.4	6.17e-03	0	43	0	955252736	23	5139
2026-01-14 00:02:06.96	170.83	30.49	-31.6	-34.4	10.8	3.28e-03	0	43	0	957349888	23	4945
2026-01-14 00:02:07.96	170.96	30.31	-31.7	-34.6	10.6	4.03e-03	0	43	0	958398464	23	5042
2026-01-14 00:02:08.96	171.10	30.13	-31.8	-35.1	10.3	5.63e-03	0	43	0	960495616	23	5232
2026-01-14 00:02:09.96	171.24	29.96	-31.9	-35.5	10.0	6.65e-03	0	43	0	962592768	23	5414
2026-01-14 00:02:10.96	171.37	29.78	-32.0	-35.1	9.9	1.39e-02	0	43	0	964689920	24	5169
2026-01-14 00:02:11.96	171.50	29.61	-31.4	-33.9	11.1	6.73e-03	0	43	0	966787072	23	4747
2026-01-14 00:02:12.96	171.63	29.43	-31.5	-34.0	11.0	1.27e-03	0	43	0	967835648	23	4786
2026-01-14 00:02:13.96	171.76	29.26	-31.3	-33.8	11.5	2.53e-03	0	43	0	969932800	22	4833
2026-01-14 00:02:14.95	171.89	29.09	-31.0	-33.0	12.1	1.47e-03	0	43	0	972029952	22	4537
2026-01-14 00:02:15.96	172.02	28.92	-31.4	-34.1	11.4	8.12e-04	0	43	0	974127104	22	4916
2026-01-14 00:02:16.97	172.14	28.74	-31.0	-33.0	12.0	1.92e-03	0	43	0	976224256	22	4516
2026-01-14 00:02:17.97	172.27	28.57	-30.8	-32.8	12.5	9.70e-04	0	43	0	977272832	21	4556
2026-01-14 00:02:18.96	172.39	28.41	-30.9	-33.3	12.2	2.20e-04	0	43	0	979369984	21	4716
2026-01-14 00:02:19.96	172.51	28.24	-31.0	-33.0	12.1	2.81e-04	0	43	0	981467136	22	4539
2026-01-14 00:02:20.96	172.63	28.07	-31.2	-33.6	11.6	1.12e-03	0	43	0	983564288	22	4765
2026-01-14 00:02:21.96	172.75	27.91	-31.2	-33.5	11.7	1.02e-03	0	43	0	984612864	22	4719
2026-01-14 00:02:22.96	172.87	27.74	-31.1	-33.3	11.9	4.01e-04	0	43	0	986710016	22	4628
2026-01-14 00:02:23.96	172.99	27.58	-30.9	-32.8	12.2	7.39e-04	0	43	0	988807168	22	4473
2026-01-14 00:02:24.96	173.10	27.41	-31.0	-33.1	12.0	5.65e-04	0	43	0	990904320	22	4565
2026-01-14 00:02:25.96	173.22	27.25	-30.9	-32.7	12.2	8.89e-04	0	43	0	993001472	22	4440
2026-01-14 00:02:26.96	173.33	27.09	-30.7	-32.8	12.5	7.24e-05	0	43	0	994050048	21	4584
2026-01-14 00:02:27.95	173.44	26.93	-30.6	-32.6	12.6	3.30e-04	0	43	0	996147200	21	4517
2026-01-14 00:02:28.96	173.55	26.77	-30.2	-31.3	13.4	7.36e-04	0	43	0	998244352	21	4112
2026-01-14 00:02:29.96	173.66	26.61	-30.0	-31.4	13.7	7.60e-06	0	43	0	1000341504	20	4221
2026-01-14 00:02:30.96	173.77	26.45	-29.9	-31.0	14.0	1.43e-04	0	43	0	1002438656	20	4086
2026-01-14 00:02:31.96	173.88	26.29	-29.8	-31.1	14.4	4.51e-04	0	43	0	1003487232	19	4194
2026-01-14 00:02:32.97	173.99	26.14	-29.7	-31.0	14.4	0.00e+00	0	43	0	1005584384	19	4170
2026-01-14 00:02:33.98	174.10	25.98	-29.6	-30.7	14.5	1.35e-04	0	43	0	1007681536	19	4085
2026-01-14 00:02:34.98	174.20	25.82	-29.6	-30.7	14.6	4.49e-04	0	43	0	1009778688	19	4081
2026-01-14 00:02:35.98	174.31	25.67	-30.0	-31.7	14.0	3.49e-04	0	43	0	1011875840	19	4369
2026-01-14 00:02:36.98	174.41	25.52	-29.4	-29.7	14.8	1.76e-04	0	43	0	1012924416	20	3725
2026-01-14 00:02:37.98	174.51	25.36	-29.3	-30.0	15.0	1.61e-04	0	43	0	1015021568	19	3886
2026-01-14 00:02:38.98	174.61	25.21	-29.3	-30.5	14.9	3.25e-04	0	43	0	1017118720	18	4126
2026-01-14 00:02:39.99	174.71	25.06	-29.4	-30.7	14.8	1.52e-04	0	43	0	1019215872	18	4173
2026-01-14 00:02:40.99	174.81	24.91	-29.5	-30.5	14.6	1.46e-04	0	43	0	1020264448	19	4029
2026-01-14 00:02:41.98	174.91	24.76	-29.7	-30.9	14.4	0.00e+00	0	43	0	1022361600	19	4135
2026-01-14 00:02:42.99	175.01	24.61	-29.7	-30.9	14.3	1.73e-04	0	43	0	1024458752	19	4131
2026-01-14 00:02:43.99	175.11	24.46	-30.0	-31.2	13.8	1.91e-04	0	43	0	1026555904	20	4149
2026-01-14 00:02:44.99	175.20	24.31	-29.8	-30.9	14.0	3.00e-06	0	43	0	1028653056	20	4046
2026-01-14 00:02:46.00	175.30	24.17	-30.1	-31.6	13.5	2.01e-04	0	43	0	1029701632	20	4277
2026-01-14 00:02:47.00	175.39	24.02	-30.1	-31.7	13.5	2.15e-04	0	43	0	1031798784	20	4295
2026-01-14 00:02:48.00	175.49	23.87	-30.3	-32.0	13.3	1.60e-05	0	43	0	1033895936	20	4385
2026-01-14 00:02:49.00	175.58	23.73	-30.1	-31.5	13.6	2.83e-04	0	43	0	1035993088	20	4252
2026-01-14 00:02:50.00	175.67	23.59	-29.8	-30.7	14.1	1.50e-06	0	43	0	1038090240	20	4009
2026-01-14 00:02:50.99	175.76	23.44	-29.4	-29.8	14.6	0.00e+00	0	43	0	1039138816	20	3768
2026-01-14 00:02:51.99	175.85	23.30	-29.3	-29.9	15.0	2.68e-04	0	43	0	1041235968	19	3860
2026-01-14 00:02:52.99	175.94	23.16	-29.0	-29.2	15.3	2.56e-04	0	43	0	1043333120	19	3682
2026-01-14 00:02:53.99	176.03	23.02	-28.7	-28.9	15.8	0.00e+00	0	43	0	1045430272	18	3705
2026-01-14 00:02:54.99	176.12	22.88	-28.3	-28.6	16.3	2.01e-04	0	43	0	1047527424	17	3714
2026-01-14 00:02:55.99	176.20	22.74	-28.3	-28.6	16.3	2.28e-04	0	43	0	1048576000	17	3702
2026-01-14 00:02:56.98	176.29	22.60	-27.9	-27.6	16.8	0.00e+00	0	43	0	1050673152	17	3473
2026-01-14 00:02:57.98	176.37	22.47	-27.8	-27.9	17.0	2.77e-04	0	43	0	1052770304	16	3629
2026-01-14 00:02:58.98	176.46	22.33	-27.6	-27.9	17.0	2.72e-04	0	43	0	1054867456	15	3737
2026-01-14 00:02:59.98	176.54	22.19	-27.6	-28.0	17.0	0.00e+00	0	43	0	1055916032	15	3757
2026-01-14 00:03:00.97	176.63	22.06	-27.7	-28.2	16.9	7.00e-07	0	43	0	1058013184	15	3817
2026-01-14 00:03:01.97	176.71	21.92	-27.9	-28.7	16.6	3.75e-04	0	43	0	1060110336	15	3930
2026-01-14 00:03:02.97	176.79	21.79	-28.2	-28.9	16.4	0.00e+00	0	43	0	1062207488	16	3868
2026-01-14 00:03:03.98	176.87	21.65	-28.5	-29.4	16.1	2.20e-06	0	43	0	1064304640	16	4019
2026-01-14 00:03:04.98	176.95	21.52	-28.5	-29.1	16.0	0.00e+00	0	43	0	1065353216	17	3843
2026-01-14 00:03:05.98	177.03	21.39	-28.8	-29.6	15.7	0.00e+00	0	43	0	1067450368	17	3978
2026-01-14 00:03:06.98	177.11	21.25	-28.7	-29.5	15.7	3.91e-04	0	43	0	1069547520	17	3946
2026-01-14 00:03:07.98	177.19	21.12	-28.8	-29.7	15.6	0.00e+00	0	43	0	1071644672	17	4013
2026-01-14 00:03:08.98	177.27	20.99	-28.7	-29.6	15.7	0.00e+00	0	43	0	1073741824	17	3963
2026-01-14 00:03:09.98	177.35	20.86	-28.7	-29.5	15.7	3.37e-04	0	43	0	1074790400	17	3945
2026-01-14 00:03:10.97	177.42	20.73	-28.7	-29.6	15.6	0.00e+00	0	43	0	1076887552	17	3976
2026-01-14 00:03:11.97	177.50	20.60	-28.7	-29.5	15.7	0.00e+00	0	43	0	1078984704	17	3949
2026-01-14 00:03:12.97	177.58	20.48	-28.5	-29.1	15.9	2.44e-04	0	43	0	1081081856	17	3845
2026-01-14 00:03:13.98	177.65	20.35	-28.8	-29.6	15.6	2.50e-04	0	43	0	1083179008	17	3991
2026-01-14 00:03:14.98	177.73	20.22	-28.6	-29.2	15.8	0.00e+00	0	43	0	1084227584	17	3880
2026-01-14 00:03:15.98	177.80	20.09	-28.5	-29.0	15.9	2.37e-04	0	43	0	1086324736	17	3825
2026-01-14 00:03:16.98	177.87	19.97	-28.5	-29.0	15.9	2.25e-04	0	43	0	1088421888	17	3829
2026-01-14 00:03:17.98	177.95	19.84	-28.5	-29.0	16.0	0.00e+00	0	43	0	1090519040	17	3815
2026-01-14 00:03:18.98	178.02	19.72	-28.6	-29.2	15.9	1.50e-06	0	43	0	1091567616	17	3861
2026-01-14 00:03:19.98	178.09	19.59	-27.9	-28.7	15.6	2.60e-04	0	43	0	1093664768	17	3934
2026-01-14 00:03:20.98	178.16	19.47	-28.6	-29.4	15.7	0.00e+00	0	43	0	1095761920	17	3917
2026-01-14 00:03:21.97	178.23	19.35	-28.8	-29.8	14.4	0.00e+00	0	43	0	1097859072	17	4046
2026-01-14 00:03:22.98	178.30	19.22	-28.7	-29.7	14.5	0.00e+00	0	43	0	1099956224	17	4002
2026-01-14 00:03:23.98	178.37	19.10	-28.7	-29.5	15.6	0.00e+00	0	43	0	1101004800	17	3964
2026-01-14 00:03:24.98	178.44	18.98	-28.8	-29.8	15.4	0.00e+00	0	43	0	1103101952	17	4037
2026-01-14 00:03:25.98	178.51	18.86	-28.7	-29.6	15.5	0.00e+00	0	43	0	1105199104	17	3987
2026-01-14 00:03:26.98	178.58	18.74	-28.8	-29.9	15.4	0.00e+00	0	43	0	1107296256	17	4070
2026-01-14 00:03:27.98	178.64	18.62	-29.0	-30.2	15.2	4.32e-04	0	43	0	1109393408	17	4146
2026-01-14 00:03:28.98	178.71	18.50	-29.1	-30.2	15.0	0.00e+00	0	43	0	1110441984	18	4046
2026-01-14 00:03:30.01	178.78	18.38	-29.4	-30.9	14.5	0.00e+00	0	43	0	1112539136	18	4257
2026-01-14 00:03:30.92	178.84	18.27	-29.3	-30.1	14.7	4.59e-04	0	43	0	1114636288	19	3927
2026-01-14 00:03:31.92	178.90	18.15	-29.3	-30.6	14.6	4.63e-04	0	43	0	1116733440	18	4174
2026-01-14 00:03:32.92	178.97	18.04	-29.4	-30.2	14.5	7.00e-07	0	43	0	1117782016	19	3975
2026-01-14 00:03:33.92	179.03	17.92	-29.7	-31.0	14.1	1.50e-06	0	43	0	1119879168	19	4198
2026-01-14 00:03:34.91	179.10	17.80	-28.8	-30.4	13.9	5.01e-04	0	43	0	1121976320	19	4333
2026-01-14 00:03:35.91	179.16	17.69	-29.8	-31.4	13.8	3.00e-06	0	43	0	1124073472	19	4318
2026-01-14 00:03:36.91	179.22	17.57	-30.0	-31.8	12.6	6.10e-06	0	43	0	1125122048	19	4442
2026-01-14 00:03:37.91	179.29	17.46	-29.9	-31.7	12.7	5.84e-04	0	43	0	1127219200	19	4412
2026-01-14 00:03:38.92	179.35	17.34	-29.9	-31.2	13.6	6.10e-06	0	43	0	1129316352	20	4154
2026-01-14 00:03:39.92	179.41	17.23	-30.1	-31.8	13.1	1.44e-05	0	43	0	1131413504	20	4367
2026-01-14 00:03:40.92	179.47	17.12	-29.9	-31.1	13.5	1.29e-05	0	43	0	1133510656	20	4153
2026-01-14 00:03:41.92	179.53	17.01	-30.1	-31.7	13.2	7.60e-06	0	43	0	1134559232	20	4322
2026-01-14 00:03:42.92	179.59	16.89	-29.9	-31.6	13.7	1.67e-03	0	43	0	1136656384	19	4372
2026-01-14 00:03:43.92	179.65	16.78	-29.8	-31.4	13.8	7.60e-06	0	43	0	1138753536	19	4331
2026-01-14 00:03:44.92	179.71	16.67	-30.0	-31.4	13.4	9.90e-06	0	43	0	1140850688	20	4247
2026-01-14 00:03:45.92	179.77	16.56	-30.4	-32.4	12.7	4.51e-04	0	43	0	1142947840	20	4576
2026-01-14 00:03:46.92	179.83	16.45	-30.1	-31.6	13.2	3.81e-05	0	43	0	1143996416	20	4306
2026-01-14 00:03:47.93	179.89	16.34	-29.9	-31.2	13.5	1.22e-05	0	43	0	1146093568	20	4174
2026-01-14 00:03:48.93	179.95	16.23	-29.9	-31.2	13.4	2.96e-04	0	43	0	1148190720	20	4191
2026-01-14 00:03:49.93	180.01	16.12	-29.9	-31.6	13.7	1.41e-03	0	43	0	1150287872	19	4380
2026-01-14 00:03:50.93	180.06	16.01	-29.9	-31.2	13.5	8.30e-06	0	43	0	1151336448	20	4171
2026-01-14 00:03:51.94	180.12	15.91	-30.0	-31.3	13.4	9.10e-06	0	43	0	1153433600	20	4212
2026-01-14 00:03:52.94	180.18	15.80	-29.9	-31.3	13.5	3.57e-04	0	43	0	1155530752	20	4198
2026-01-14 00:03:53.94	180.23	15.69	-29.6	-30.4	14.0	3.80e-06	0	43	0	1157627904	20	3943
2026-01-14 00:03:54.94	180.29	15.58	-29.3	-30.6	14.6	0.00e+00	0	43	0	1159725056	18	4178
2026-01-14 00:03:55.94	180.35	15.48	-29.6	-30.8	14.1	3.98e-04	0	43	0	1160773632	19	4148
2026-01-14 00:03:56.94	180.40	15.37	-29.5	-30.5	14.2	3.80e-06	0	43	0	1162870784	19	4057
2026-01-14 00:03:57.95	180.46	15.27	-29.2	-30.4	14.6	7.00e-07	0	43	0	1164967936	18	4120
2026-01-14 00:03:58.95	180.51	15.16	-29.3	-30.5	14.6	0.00e+00	0	43	0	1167065088	18	4160
2026-01-14 00:03:59.95	180.56	15.06	-29.4	-30.8	14.4	7.00e-07	0	43	0	1169162240	18	4235
2026-01-14 00:04:00.95	180.62	14.95	-29.4	-31.0	14.3	5.25e-04	0	43	0	1170210816	18	4287
2026-01-14 00:04:01.96	180.67	14.85	-29.5	-30.6	14.2	0.00e+00	0	43	0	1172307968	19	4083
2026-01-14 00:04:02.96	180.72	14.75	-29.6	-30.9	14.0	7.00e-07	0	43	0	1174405120	19	4161
2026-01-14 00:04:03.96	180.78	14.64	-29.6	-30.9	14.0	3.52e-04	0	43	0	1176502272	19	4166
2026-01-14 00:04:04.97	180.83	14.54	-29.7	-31.1	13.8	4.36e-04	0	43	0	1178599424	19	4248
2026-01-14 00:04:05.97	180.88	14.44	-29.6	-31.0	14.0	3.00e-06	0	43	0	1179648000	19	4194
2026-01-14 00:04:06.97	180.93	14.34	-29.6	-31.0	13.9	2.93e-04	0	43	0	1181745152	19	4205
2026-01-14 00:04:07.97	180.98	14.24	-29.7	-31.1	13.8	2.25e-04	0	43	0	1183842304	19	4239
2026-01-14 00:04:08.98	181.04	14.14	-29.8	-31.4	13.6	3.00e-06	0	43	0	1185939456	19	4327
2026-01-14 00:04:09.99	181.09	14.03	-29.7	-31.1	13.8	3.80e-06	0	43	0	1188036608	19	4245
2026-01-14 00:04:10.99	181.14	13.93	-29.6	-30.8	13.9	1.13e-04	0	43	0	1189085184	19	4163
2026-01-14 00:04:11.98	181.19	13.84	-29.6	-30.9	13.9	6.80e-06	0	43	0	1191182336	19	4186
2026-01-14 00:04:12.99	181.24	13.74	-29.7	-31.1	13.8	1.50e-06	0	43	0	1193279488	19	4228
2026-01-14 00:04:13.99	181.29	13.64	-29.6	-30.9	13.9	1.99e-04	0	43	0	1195376640	19	4172
2026-01-14 00:04:14.99	181.34	13.54	-29.7	-31.0	13.3	7.60e-06	0	43	0	1197473792	19	4225
2026-01-14 00:04:15.99	181.38	13.44	-29.7	-31.2	13.7	1.55e-04	0	43	0	1198522368	19	4268
2026-01-14 00:04:16.98	181.43	13.35	-29.8	-31.5	13.5	1.20e-04	0	43	0	1200619520	19	4372
2026-01-14 00:04:17.98	181.48	13.25	-29.8	-31.5	13.6	1.83e-05	0	43	0	1202716672	19	4360
2026-01-14 00:04:18.98	181.53	13.15	-29.8	-31.4	13.6	1.28e-04	0	43	0	1204813824	19	4333
2026-01-14 00:04:19.97	181.58	13.06	-29.9	-31.6	13.4	5.30e-06	0	43	0	1205862400	19	4406
2026-01-14 00:04:20.97	181.62	12.96	-29.9	-31.7	13.2	1.29e-05	0	43	0	1207959552	19	4430
2026-01-14 00:04:21.97	181.67	12.86	-29.8	-31.4	13.2	1.08e-04	0	43	0	1210056704	19	4348
2026-01-14 00:04:22.97	181.72	12.77	-29.9	-31.6	13.4	1.03e-04	0	43	0	1212153856	19	4402
2026-01-14 00:04:23.96	181.76	12.68	-29.9	-31.7	13.0	4.65e-04	0	43	0	1214251008	19	4449
2026-01-14 00:04:24.95	181.81	12.58	-29.9	-31.7	13.1	1.31e-04	0	43	0	1215299584	19	4420
2026-01-14 00:04:25.95	181.85	12.49	-29.9	-31.4	13.1	1.09e-04	0	43	0	1217396736	20	4254
2026-01-14 00:04:26.95	181.90	12.39	-30.1	-31.9	12.8	4.04e-05	0	43	0	1219493888	20	4430
2026-01-14 00:04:27.95	181.94	12.30	-30.1	-31.8	12.8	1.36e-04	0	43	0	1221591040	20	4401
2026-01-14 00:04:28.95	181.99	12.21	-30.1	-31.8	12.8	1.44e-04	0	43	0	1223688192	20	4373
2026-01-14 00:04:29.95	182.03	12.11	-30.2	-32.2	12.6	6.94e-05	0	43	0	1224736768	20	4514
2026-01-14 00:04:30.94	182.08	12.02	-30.2	-32.2	12.6	6.38e-04	0	43	0	1226833920	20	4515
2026-01-14 00:04:31.95	182.12	11.93	-30.2	-32.2	12.6	2.00e-04	0	43	0	1228931072	20	4511
2026-01-14 00:04:32.95	182.17	11.84	-30.3	-32.4	12.4	1.30e-04	0	43	0	1231028224	20	4575
2026-01-14 00:04:33.94	182.21	11.75	-30.4	-32.7	12.2	3.36e-04	0	43	0	1232076800	20	4682
2026-01-14 00:04:34.95	182.25	11.66	-30.3	-32.6	12.3	2.11e-04	0	43	0	1234173952	20	4644
2026-01-14 00:04:35.95	182.30	11.56	-30.4	-32.8	12.1	2.81e-04	0	43	0	1236271104	20	4744
2026-01-14 00:04:36.96	182.34	11.47	-30.4	-32.3	12.0	3.65e-04	0	43	0	1238368256	21	4470
2026-01-14 00:04:37.95	182.38	11.38	-30.5	-32.5	12.0	4.11e-04	0	43	0	1240465408	21	4533
2026-01-14 00:04:38.95	182.43	11.29	-30.5	-32.5	12.0	3.98e-04	0	43	0	1241513984	21	4541
2026-01-14 00:04:39.95	182.47	11.20	-30.6	-32.9	11.7	4.42e-04	0	43	0	1243611136	21	4667
2026-01-14 00:04:40.94	182.51	11.12	-30.5	-32.7	11.8	5.68e-04	0	43	0	1245708288	21	4593
2026-01-14 00:04:41.94	182.55	11.03	-30.6	-32.8	11.7	8.60e-04	0	43	0	1247805440	21	4667
2026-01-14 00:04:42.95	182.59	10.94	-30.4	-32.9	12.0	6.91e-04	0	43	0	1249902592	20	4760
2026-01-14 00:04:43.95	182.64	10.85	-30.6	-32.8	11.7	6.78e-04	0	43	0	1250951168	21	4662
2026-01-14 00:04:44.95	182.68	10.76	-30.7	-33.3	11.3	1.31e-03	0	43	0	1253048320	21	4827
2026-01-14 00:04:45.95	182.72	10.67	-30.7	-33.1	11.5	1.31e-03	0	43	0	1255145472	21	4746
2026-01-14 00:04:46.96	182.76	10.59	-30.5	-32.6	11.8	9.51e-04	0	43	0	1257242624	21	4590
2026-01-14 00:04:47.96	182.80	10.50	-30.3	-32.4	12.3	3.32e-04	0	43	0	1258291200	20	4600
2026-01-14 00:04:48.97	182.84	10.41	-30.2	-32.1	12.5	7.93e-04	0	43	0	1260388352	20	4496
2026-01-14 00:04:49.96	182.88	10.32	-30.2	-32.1	12.5	3.64e-04	0	43	0	1262485504	20	4499
2026-01-14 00:04:50.96	182.92	10.24	-30.1	-31.9	12.6	9.84e-05	0	43	0	1264582656	20	4431
2026-01-14 00:04:51.96	182.96	10.15	-30.1	-31.9	12.6	4.32e-04	0	43	0	1266679808	20	4422
2026-01-14 00:04:52.96	183.00	10.07	-30.0	-31.7	12.7	3.45e-04	0	43	0	1267728384	20	4376
2026-01-14 00:04:53.96	183.04	9.98	-30.0	-31.8	12.7	7.85e-05	0	43	0	1269825536	20	4403
2026-01-14 00:04:54.96	183.08	9.90	-30.0	-31.7	12.7	3.77e-04	0	43	0	1271922688	20	4378
2026-01-14 00:04:55.96	183.12	9.81	-30.1	-32.1	12.5	8.54e-05	0	43	0	1274019840	20	4500
2026-01-14 00:04:56.96	183.15	9.73	-30.0	-31.8	12.6	1.05e-04	0	43	0	1276116992	20	4413
2026-01-14 00:04:57.96	183.19	9.64	-30.0	-31.8	12.7	4.76e-04	0	43	0	1277165568	20	4405
2026-01-14 00:04:58.96	183.23	9.56	-30.1	-31.9	12.5	1.24e-04	0	43	0	1279262720	20	4434
2026-01-14 00:04:59.96	183.27	9.48	-30.1	-31.9	12.5	4.56e-04	0	43	0	1281359872	20	4443
2026-01-14 00:05:00.96	183.31	9.39	-30.0	-31.7	12.6	7.68e-04	0	43	0	1283457024	20	4397
2026-01-14 00:05:01.96	183.34	9.31	-30.2	-32.4	12.2	1.40e-04	0	43	0	1285554176	20	4616
