passes_logs/2026/01/13/R2M6_AANII_01/R2M6_AANII_01__20260113_161143_FENGYUN_3E_rec.log

#Pass ID: 20260113_161143_FENGYUN 3E
#Satellite: FENGYUN 3E
#Configuration: FENGYUN 3E
#almurnet v.1.7.20240730
#Start time: 2026-01-13 16:11:43

#Version: 2.2.20231116
#Station: R2M6_AANII_01
#Location: 30.233357 lon 59.946436 lat
#TLE: 1 49008U 21062A   26012.89166517 -.00000229  00000+0 -86979-4 0  9993
#TLE: 2 49008  98.7492  18.0449 0001954 141.1957 218.9360 14.19884302234542

#Time	Az	El	Level	Level2	SNR	BER	BlckErr	Temp	State	Recorded	gain1	gain2
2026-01-13 16:11:43.50	212.40	7.00	-33.9	-42.8	3.8	8.47e-01	0	40	0	0	29	9978
2026-01-13 16:11:44.50	212.50	7.07	-33.9	-42.8	3.8	8.46e-01	0	40	104	0	29	9999
2026-01-13 16:11:45.50	212.59	7.13	-33.9	-42.8	3.8	8.46e-01	0	40	104	0	29	9976
2026-01-13 16:11:46.51	212.69	7.19	-33.9	-42.8	3.8	8.45e-01	0	40	104	0	29	9960
2026-01-13 16:11:47.52	212.78	7.26	-33.9	-42.8	3.8	8.47e-01	0	40	104	0	29	9940
2026-01-13 16:11:48.52	212.88	7.32	-33.9	-42.8	3.8	8.46e-01	0	40	104	0	29	9931
2026-01-13 16:11:49.53	212.98	7.39	-33.9	-42.8	3.8	8.46e-01	0	40	104	0	29	10001
2026-01-13 16:11:50.54	213.07	7.45	-33.9	-42.8	3.8	8.46e-01	0	40	104	0	29	9996
2026-01-13 16:11:51.55	213.17	7.52	-33.9	-42.8	3.8	8.46e-01	0	40	104	0	29	9966
2026-01-13 16:11:52.56	213.27	7.58	-34.0	-42.8	3.8	8.47e-01	0	40	104	0	29	9933
2026-01-13 16:11:53.56	213.37	7.65	-33.9	-42.8	3.8	8.47e-01	0	40	104	0	29	9959
2026-01-13 16:11:54.57	213.46	7.71	-33.9	-42.8	3.8	8.46e-01	0	40	104	0	29	9981
2026-01-13 16:11:55.58	213.56	7.78	-34.0	-42.8	3.8	8.47e-01	0	40	104	0	29	9959
2026-01-13 16:11:56.59	213.66	7.84	-33.9	-42.8	3.8	8.46e-01	0	40	104	0	29	9989
2026-01-13 16:11:57.59	213.76	7.91	-33.9	-42.8	3.8	8.46e-01	0	40	104	0	29	9931
2026-01-13 16:11:58.60	213.86	7.97	-33.9	-42.8	3.8	8.45e-01	0	40	104	0	29	10001
2026-01-13 16:11:59.60	213.96	8.04	-33.9	-42.8	3.8	8.46e-01	0	40	104	0	29	9970
2026-01-13 16:12:00.61	214.07	8.10	-34.0	-42.8	3.8	8.46e-01	0	40	104	0	29	9945
2026-01-13 16:12:01.62	214.17	8.17	-33.9	-42.8	3.8	8.46e-01	0	40	104	0	29	9961
2026-01-13 16:12:02.62	214.27	8.23	-33.9	-42.8	3.8	8.46e-01	0	40	104	0	29	10000
2026-01-13 16:12:03.62	214.37	8.30	-33.9	-42.8	3.8	8.47e-01	0	40	104	0	29	9974
2026-01-13 16:12:04.63	214.47	8.36	-33.9	-42.8	3.8	8.46e-01	0	40	104	0	29	9997
2026-01-13 16:12:05.64	214.58	8.43	-33.9	-42.8	3.8	8.47e-01	0	41	104	0	29	9999
2026-01-13 16:12:06.64	214.68	8.50	-33.9	-42.8	3.8	8.46e-01	0	41	104	0	29	9988
2026-01-13 16:12:07.65	214.79	8.56	-33.9	-42.8	3.8	8.45e-01	0	41	104	0	29	9933
2026-01-13 16:12:08.65	214.89	8.63	-33.9	-42.8	3.8	8.46e-01	0	41	104	0	29	9962
2026-01-13 16:12:09.66	214.99	8.69	-34.0	-42.8	3.8	8.46e-01	0	41	104	0	29	9926
2026-01-13 16:12:10.66	215.10	8.76	-33.9	-42.8	3.8	8.46e-01	0	41	104	0	29	9963
2026-01-13 16:12:11.66	215.21	8.83	-33.9	-42.8	3.8	8.46e-01	0	41	104	0	29	9968
2026-01-13 16:12:12.67	215.31	8.89	-33.9	-42.8	3.8	8.46e-01	0	41	104	0	29	9972
2026-01-13 16:12:13.67	215.42	8.96	-34.0	-42.8	3.8	8.46e-01	0	41	104	0	29	9957
2026-01-13 16:12:14.68	215.53	9.03	-33.9	-42.7	3.8	8.46e-01	0	41	104	0	29	9912
2026-01-13 16:12:15.69	215.63	9.09	-34.0	-42.8	3.8	8.45e-01	0	41	104	0	29	9986
2026-01-13 16:12:16.69	215.74	9.16	-34.0	-42.8	3.8	8.47e-01	0	41	104	0	29	9990
2026-01-13 16:12:17.70	215.85	9.23	-33.9	-42.8	3.8	8.45e-01	0	41	104	0	29	10006
2026-01-13 16:12:18.71	215.96	9.29	-33.9	-42.8	3.8	8.45e-01	0	41	104	0	29	9947
2026-01-13 16:12:19.71	216.07	9.36	-34.0	-42.8	3.8	8.48e-01	0	41	104	0	29	9981
2026-01-13 16:12:20.71	216.18	9.43	-34.0	-42.8	3.8	8.45e-01	0	41	104	0	29	9994
2026-01-13 16:12:21.72	216.29	9.49	-34.0	-42.8	3.8	8.46e-01	0	41	104	0	29	10026
2026-01-13 16:12:22.72	216.40	9.56	-34.0	-42.8	3.8	8.46e-01	0	41	104	0	29	9993
2026-01-13 16:12:23.73	216.51	9.63	-33.9	-42.8	3.8	8.46e-01	0	41	104	0	29	9981
2026-01-13 16:12:24.73	216.63	9.70	-33.9	-42.8	3.8	8.45e-01	0	41	104	0	29	9954
2026-01-13 16:12:25.73	216.74	9.76	-34.0	-42.8	3.8	8.46e-01	0	41	104	0	29	9982
2026-01-13 16:12:26.74	216.85	9.83	-34.0	-42.8	3.8	8.47e-01	0	41	104	0	29	9989
2026-01-13 16:12:27.74	216.97	9.90	-34.0	-42.8	3.8	8.45e-01	0	41	104	0	29	10008
2026-01-13 16:12:28.75	217.08	9.97	-34.0	-42.8	3.8	8.45e-01	0	41	104	0	29	9941
2026-01-13 16:12:29.76	217.20	10.04	-34.0	-42.8	3.8	8.46e-01	0	41	104	0	29	9987
2026-01-13 16:12:30.77	217.31	10.10	-33.9	-42.8	3.8	8.46e-01	0	41	104	0	29	9967
2026-01-13 16:12:31.77	217.43	10.17	-34.0	-42.8	3.8	8.47e-01	0	41	104	0	29	9974
2026-01-13 16:12:32.78	217.54	10.24	-34.0	-42.8	3.8	8.47e-01	0	41	104	0	29	10013
2026-01-13 16:12:33.79	217.66	10.31	-34.0	-42.8	3.8	8.45e-01	0	41	104	0	29	10021
2026-01-13 16:12:34.79	217.78	10.38	-34.0	-42.8	3.8	8.47e-01	0	41	104	0	29	9987
2026-01-13 16:12:35.79	217.89	10.45	-33.9	-42.8	3.8	8.46e-01	0	41	104	0	29	9980
2026-01-13 16:12:36.80	218.01	10.51	-33.9	-42.8	3.8	8.46e-01	0	41	104	0	29	9979
2026-01-13 16:12:37.80	218.13	10.58	-33.9	-42.8	3.8	8.46e-01	0	41	104	0	29	9964
2026-01-13 16:12:38.81	218.25	10.65	-34.0	-42.8	3.8	8.46e-01	0	41	104	0	29	9965
2026-01-13 16:12:39.81	218.37	10.72	-34.0	-42.8	3.8	8.47e-01	0	41	104	0	29	10008
2026-01-13 16:12:40.81	218.49	10.79	-34.0	-42.8	3.8	8.45e-01	0	41	104	0	29	9971
2026-01-13 16:12:41.82	218.61	10.86	-34.0	-42.8	3.8	8.47e-01	0	41	104	0	29	9966
2026-01-13 16:12:42.82	218.73	10.93	-34.0	-42.8	3.8	8.47e-01	0	41	104	0	29	9983
2026-01-13 16:12:43.83	218.86	11.00	-34.0	-42.8	3.8	8.46e-01	0	41	104	0	29	9992
2026-01-13 16:12:44.83	218.98	11.06	-34.0	-42.8	3.8	8.46e-01	0	42	104	0	29	9960
2026-01-13 16:12:45.84	219.10	11.13	-33.9	-42.8	3.8	8.47e-01	0	42	104	0	29	9984
2026-01-13 16:12:46.85	219.23	11.20	-34.0	-42.8	3.8	8.45e-01	0	41	104	0	29	9978
2026-01-13 16:12:47.85	219.35	11.27	-34.0	-42.8	3.8	8.45e-01	0	42	104	0	29	9954
2026-01-13 16:12:48.86	219.48	11.34	-34.0	-42.8	3.8	8.45e-01	0	41	104	0	29	9955
2026-01-13 16:12:49.86	219.60	11.41	-34.0	-42.8	3.8	8.45e-01	0	41	104	0	29	9964
2026-01-13 16:12:50.86	219.73	11.48	-34.0	-42.8	3.8	8.46e-01	0	41	104	0	29	9989
2026-01-13 16:12:51.87	219.86	11.55	-34.0	-42.8	3.8	8.45e-01	0	42	104	0	29	10002
2026-01-13 16:12:52.88	219.98	11.62	-34.0	-42.9	3.8	8.46e-01	0	41	104	0	29	10037
2026-01-13 16:12:53.89	220.11	11.69	-34.0	-42.8	3.8	8.46e-01	0	42	104	0	29	9992
2026-01-13 16:12:54.89	220.24	11.76	-34.0	-42.8	3.8	8.46e-01	0	42	104	0	29	9932
2026-01-13 16:12:55.90	220.37	11.83	-34.0	-42.9	3.8	8.46e-01	0	42	104	0	29	10024
2026-01-13 16:12:56.91	220.50	11.90	-33.9	-42.8	3.8	8.46e-01	0	42	104	0	29	9997
2026-01-13 16:12:57.91	220.63	11.97	-34.0	-42.8	3.8	8.46e-01	0	42	104	0	29	9980
2026-01-13 16:12:58.92	220.76	12.04	-34.0	-42.8	3.8	8.47e-01	0	42	104	0	29	10008
2026-01-13 16:12:59.92	220.89	12.11	-34.0	-42.8	3.8	8.45e-01	0	42	104	0	29	10003
2026-01-13 16:13:00.92	221.02	12.18	-34.0	-42.8	3.8	8.47e-01	0	42	104	0	29	10007
2026-01-13 16:13:01.93	221.16	12.25	-34.0	-42.8	3.8	8.46e-01	0	42	104	0	29	10001
2026-01-13 16:13:02.93	221.29	12.32	-34.0	-42.8	3.8	8.46e-01	0	42	104	0	29	9979
2026-01-13 16:13:03.94	221.42	12.39	-33.9	-42.9	3.8	8.46e-01	0	42	104	0	29	10049
2026-01-13 16:13:04.94	221.56	12.47	-34.0	-42.8	3.8	8.46e-01	0	42	104	0	29	9968
2026-01-13 16:13:05.95	221.69	12.54	-34.0	-42.8	3.8	8.45e-01	0	42	104	0	29	9983
2026-01-13 16:13:06.95	221.83	12.61	-33.9	-42.8	3.8	8.46e-01	0	42	104	0	29	9976
2026-01-13 16:13:07.95	221.96	12.68	-34.0	-42.8	3.8	8.45e-01	0	42	104	0	29	9973
2026-01-13 16:13:08.96	222.10	12.75	-34.0	-42.8	3.8	8.45e-01	0	42	104	0	29	9991
2026-01-13 16:13:09.97	222.24	12.82	-34.0	-42.8	3.8	8.46e-01	0	42	104	0	29	9980
2026-01-13 16:13:10.99	222.38	12.89	-34.0	-42.8	3.8	8.45e-01	0	42	104	0	29	9935
2026-01-13 16:13:11.99	222.52	12.96	-34.0	-42.8	3.8	8.46e-01	0	42	104	0	29	9984
2026-01-13 16:13:13.00	222.66	13.03	-34.0	-42.8	3.8	8.46e-01	0	42	104	0	29	10013
2026-01-13 16:13:14.00	222.80	13.10	-34.0	-42.8	3.8	8.45e-01	0	42	104	0	29	9999
2026-01-13 16:13:15.01	222.94	13.18	-34.0	-42.8	3.8	8.45e-01	0	42	104	0	29	10002
2026-01-13 16:13:16.02	223.08	13.25	-34.0	-42.8	3.8	8.46e-01	0	42	104	0	29	9959
2026-01-13 16:13:17.02	223.23	13.32	-34.0	-42.8	3.8	8.46e-01	0	42	104	0	29	10007
2026-01-13 16:13:18.03	223.37	13.39	-34.0	-42.8	3.8	8.46e-01	0	42	104	0	29	9956
2026-01-13 16:13:19.04	223.51	13.46	-34.0	-42.8	3.8	8.46e-01	0	42	104	0	29	9995
2026-01-13 16:13:20.05	223.66	13.53	-34.0	-42.8	3.8	8.46e-01	0	42	104	0	29	10012
2026-01-13 16:13:21.05	223.80	13.61	-34.0	-42.8	3.8	8.46e-01	0	42	104	0	29	9972
2026-01-13 16:13:22.06	223.95	13.68	-34.0	-42.8	3.8	8.45e-01	0	42	104	0	29	9970
2026-01-13 16:13:23.06	224.10	13.75	-34.0	-42.8	3.8	8.47e-01	0	42	104	0	29	9991
2026-01-13 16:13:24.07	224.24	13.82	-34.0	-42.8	3.8	8.46e-01	0	42	104	0	29	10001
2026-01-13 16:13:25.08	224.39	13.89	-33.9	-42.8	3.8	8.46e-01	0	42	104	0	29	9982
2026-01-13 16:13:26.09	224.54	13.96	-34.0	-42.8	3.8	8.46e-01	0	42	104	0	29	9945
2026-01-13 16:13:27.09	224.69	14.04	-34.0	-42.8	3.8	8.46e-01	0	42	104	0	29	9960
2026-01-13 16:13:28.10	224.84	14.11	-34.0	-42.8	3.8	8.46e-01	0	42	104	0	29	9978
2026-01-13 16:13:29.10	224.99	14.18	-34.0	-42.8	3.8	8.46e-01	0	42	104	0	29	9998
2026-01-13 16:13:30.11	225.14	14.25	-34.0	-42.8	3.8	8.47e-01	0	42	104	0	29	10010
2026-01-13 16:13:31.11	225.29	14.32	-34.0	-42.8	3.8	8.46e-01	0	42	104	0	29	9953
2026-01-13 16:13:32.12	225.45	14.40	-34.0	-42.8	3.8	8.45e-01	0	42	104	0	29	10007
2026-01-13 16:13:33.13	225.60	14.47	-34.0	-42.8	3.8	8.47e-01	0	42	104	0	29	10011
2026-01-13 16:13:34.13	225.75	14.54	-34.0	-42.8	3.8	8.46e-01	0	42	104	0	29	10002
2026-01-13 16:13:35.14	225.91	14.61	-34.0	-42.8	3.8	8.47e-01	0	42	104	0	29	9940
2026-01-13 16:13:36.15	226.07	14.68	-34.0	-42.8	3.8	8.46e-01	0	42	104	0	29	9970
2026-01-13 16:13:37.16	226.22	14.76	-34.0	-42.8	3.8	8.45e-01	0	42	104	0	29	9966
2026-01-13 16:13:38.17	226.38	14.83	-34.0	-42.8	3.8	8.45e-01	0	42	104	0	29	10005
2026-01-13 16:13:39.17	226.54	14.90	-34.0	-42.8	3.8	8.46e-01	0	42	104	0	29	9982
2026-01-13 16:13:40.18	226.70	14.97	-34.0	-42.8	3.8	8.46e-01	0	42	104	0	29	10009
2026-01-13 16:13:41.18	226.86	15.04	-34.0	-42.8	3.8	8.46e-01	0	42	104	0	29	9968
2026-01-13 16:13:42.18	227.02	15.12	-34.0	-42.8	3.8	8.46e-01	0	42	104	0	29	9988
2026-01-13 16:13:43.19	227.18	15.19	-34.0	-42.8	3.8	8.45e-01	0	42	104	0	29	10001
2026-01-13 16:13:44.19	227.34	15.26	-34.0	-42.8	3.8	8.47e-01	0	42	104	0	29	9965
2026-01-13 16:13:45.20	227.50	15.33	-33.9	-42.8	3.8	8.45e-01	0	42	104	0	29	9977
2026-01-13 16:13:46.21	227.67	15.41	-34.0	-42.8	3.8	8.46e-01	0	42	104	0	29	10000
2026-01-13 16:13:47.21	227.83	15.48	-34.0	-42.8	3.8	8.47e-01	0	42	104	0	29	9982
2026-01-13 16:13:48.22	227.99	15.55	-34.0	-42.8	3.8	8.45e-01	0	42	104	0	29	9986
2026-01-13 16:13:49.23	228.16	15.62	-34.0	-42.8	3.8	8.47e-01	0	42	104	0	29	9991
2026-01-13 16:13:50.24	228.33	15.69	-34.0	-42.8	3.8	8.46e-01	0	42	104	0	29	10006
2026-01-13 16:13:51.24	228.49	15.77	-34.0	-42.8	3.8	8.45e-01	0	42	104	0	29	9975
2026-01-13 16:13:52.25	228.66	15.84	-34.0	-42.9	3.8	8.45e-01	0	42	104	0	29	10016
2026-01-13 16:13:53.26	228.83	15.91	-34.0	-42.8	3.8	8.45e-01	0	42	104	0	29	9983
2026-01-13 16:13:54.27	229.00	15.98	-34.0	-42.8	3.8	8.45e-01	0	42	104	0	29	9944
2026-01-13 16:13:55.28	229.17	16.06	-34.0	-42.8	3.8	8.46e-01	0	42	104	0	29	9982
2026-01-13 16:13:56.29	229.34	16.13	-34.0	-42.8	3.8	8.45e-01	0	42	104	0	29	9961
2026-01-13 16:13:57.29	229.52	16.20	-34.0	-42.8	3.8	8.46e-01	0	42	104	0	29	9999
2026-01-13 16:13:58.30	229.69	16.27	-34.0	-42.8	3.8	8.46e-01	0	42	104	0	29	9966
2026-01-13 16:13:59.31	229.86	16.34	-34.0	-42.8	3.8	8.46e-01	0	42	104	0	29	10002
2026-01-13 16:14:00.31	230.04	16.41	-34.0	-42.8	3.8	8.46e-01	0	42	104	0	29	9983
2026-01-13 16:14:01.32	230.21	16.49	-34.0	-42.8	3.8	8.46e-01	0	42	104	0	29	9975
2026-01-13 16:14:02.33	230.39	16.56	-34.0	-42.8	3.8	8.46e-01	0	42	104	0	29	9991
2026-01-13 16:14:03.33	230.56	16.63	-34.0	-42.8	3.8	8.46e-01	0	42	104	0	29	10004
2026-01-13 16:14:04.33	230.74	16.70	-34.0	-42.8	3.8	8.46e-01	0	42	104	0	29	9990
2026-01-13 16:14:05.34	230.92	16.77	-34.0	-42.8	3.8	8.46e-01	0	42	104	0	29	9961
2026-01-13 16:14:06.35	231.10	16.85	-34.0	-42.9	3.8	8.46e-01	0	42	104	0	29	10011
2026-01-13 16:14:07.36	231.28	16.92	-34.0	-42.8	3.8	8.46e-01	0	42	104	0	29	10018
2026-01-13 16:14:08.36	231.46	16.99	-34.0	-42.8	3.8	8.46e-01	0	42	104	0	29	9994
2026-01-13 16:14:09.37	231.64	17.06	-34.0	-42.8	3.8	8.46e-01	0	42	104	0	29	9989
2026-01-13 16:14:10.37	231.82	17.13	-34.0	-42.8	3.8	8.47e-01	0	42	104	0	29	9969
2026-01-13 16:14:11.37	232.01	17.20	-34.0	-42.8	3.8	8.47e-01	0	42	104	0	29	9996
2026-01-13 16:14:12.38	232.19	17.27	-34.0	-42.9	3.8	8.45e-01	0	42	104	0	29	10026
2026-01-13 16:14:13.38	232.38	17.34	-34.0	-42.9	3.8	8.46e-01	0	42	104	0	29	10022
2026-01-13 16:14:14.39	232.56	17.41	-34.0	-42.8	3.8	8.45e-01	0	42	104	0	29	10001
2026-01-13 16:14:15.39	232.75	17.49	-34.0	-42.8	3.8	8.46e-01	0	42	104	0	29	9970
2026-01-13 16:14:16.40	232.94	17.56	-34.0	-42.8	3.8	8.44e-01	0	42	104	0	29	10000
2026-01-13 16:14:17.40	233.12	17.63	-34.0	-42.8	3.8	8.46e-01	0	42	104	0	29	9969
2026-01-13 16:14:18.41	233.31	17.70	-34.0	-42.8	3.8	8.46e-01	0	42	104	0	29	10006
2026-01-13 16:14:19.42	233.50	17.77	-34.0	-42.8	3.8	8.46e-01	0	42	104	0	29	10013
2026-01-13 16:14:20.43	233.70	17.84	-34.0	-42.8	3.8	8.46e-01	0	42	104	0	29	9992
2026-01-13 16:14:21.43	233.89	17.91	-34.0	-42.8	3.8	8.46e-01	0	42	104	0	29	9986
2026-01-13 16:14:22.44	234.08	17.98	-34.0	-42.8	3.8	8.45e-01	0	42	104	0	29	9973
2026-01-13 16:14:23.45	234.28	18.05	-34.0	-42.8	3.8	8.45e-01	0	42	104	0	29	10004
2026-01-13 16:14:24.46	234.47	18.12	-34.0	-42.9	3.8	8.45e-01	0	42	104	0	29	10018
2026-01-13 16:14:25.47	234.67	18.19	-34.0	-42.8	3.8	8.45e-01	0	42	104	0	29	9981
2026-01-13 16:14:26.47	234.86	18.26	-34.0	-42.8	3.8	8.46e-01	0	42	104	0	29	9958
2026-01-13 16:14:27.48	235.06	18.33	-34.0	-42.8	3.8	8.47e-01	0	42	104	0	29	9986
2026-01-13 16:14:28.49	235.26	18.40	-34.0	-42.8	3.8	8.45e-01	0	42	104	0	29	10001
2026-01-13 16:14:29.49	235.46	18.47	-34.0	-42.8	3.8	8.46e-01	0	42	104	0	29	9992
2026-01-13 16:14:30.50	235.66	18.54	-34.0	-42.8	3.8	8.46e-01	0	42	104	0	29	9970
2026-01-13 16:14:31.50	235.86	18.61	-34.0	-42.8	3.8	8.48e-01	0	42	104	0	29	9978
2026-01-13 16:14:32.51	236.06	18.68	-34.0	-42.8	3.8	8.46e-01	0	42	104	0	29	9995
2026-01-13 16:14:33.52	236.26	18.75	-34.0	-42.8	3.8	8.48e-01	0	42	104	0	29	10000
2026-01-13 16:14:34.52	236.47	18.81	-34.0	-42.9	3.8	8.46e-01	0	42	104	0	29	10010
2026-01-13 16:14:35.53	236.67	18.88	-34.0	-42.8	3.8	8.45e-01	0	42	104	0	29	9993
2026-01-13 16:14:36.54	236.88	18.95	-34.0	-42.8	3.8	8.46e-01	0	42	104	0	29	9972
2026-01-13 16:14:37.55	237.08	19.02	-34.0	-42.8	3.8	8.45e-01	0	42	104	0	29	10002
2026-01-13 16:14:38.55	237.29	19.09	-34.0	-42.8	3.8	8.47e-01	0	42	104	0	29	9961
2026-01-13 16:14:39.56	237.50	19.16	-34.0	-42.9	3.8	8.46e-01	0	42	104	0	29	9998
2026-01-13 16:14:40.56	237.71	19.22	-34.0	-42.8	3.8	8.46e-01	0	42	104	0	29	9989
2026-01-13 16:14:41.57	237.92	19.29	-34.0	-42.8	3.8	8.46e-01	0	42	104	0	29	9994
2026-01-13 16:14:42.56	238.12	19.36	-34.0	-42.9	3.8	8.46e-01	0	43	104	0	29	10023
2026-01-13 16:14:43.57	238.34	19.42	-34.0	-42.9	3.8	8.47e-01	0	42	104	0	29	10007
2026-01-13 16:14:44.58	238.55	19.49	-34.0	-42.8	3.8	8.46e-01	0	42	104	0	29	9994
2026-01-13 16:14:45.58	238.76	19.56	-34.0	-42.9	3.8	8.47e-01	0	42	104	0	29	10065
2026-01-13 16:14:46.59	238.98	19.62	-34.0	-42.9	3.8	8.46e-01	0	42	104	0	29	10028
2026-01-13 16:14:47.59	239.19	19.69	-34.0	-42.8	3.8	8.47e-01	0	42	104	0	29	9988
2026-01-13 16:14:48.59	239.40	19.75	-34.0	-42.8	3.8	8.47e-01	0	42	104	0	29	10010
2026-01-13 16:14:49.60	239.62	19.82	-34.0	-42.8	3.8	8.46e-01	0	42	104	0	29	9984
2026-01-13 16:14:50.60	239.84	19.89	-34.0	-42.8	3.8	8.47e-01	0	42	104	0	29	9957
2026-01-13 16:14:51.61	240.06	19.95	-34.0	-42.8	3.8	8.47e-01	0	42	104	0	29	9992
2026-01-13 16:14:52.61	240.28	20.02	-34.0	-42.9	3.8	8.45e-01	0	42	104	0	29	10026
2026-01-13 16:14:53.62	240.50	20.08	-34.0	-42.8	3.8	8.46e-01	0	42	104	0	29	9985
2026-01-13 16:14:54.62	240.72	20.14	-34.0	-42.8	3.8	8.45e-01	0	42	104	0	29	9998
2026-01-13 16:14:55.64	240.94	20.21	-34.0	-42.8	3.8	8.46e-01	0	42	104	0	29	9984
2026-01-13 16:14:56.64	241.17	20.27	-34.0	-42.8	3.8	8.46e-01	0	42	104	0	29	9989
2026-01-13 16:14:57.65	241.39	20.34	-34.0	-42.8	3.8	8.46e-01	0	42	104	0	29	9984
2026-01-13 16:14:58.65	241.61	20.40	-34.0	-42.8	3.8	8.46e-01	0	42	104	0	29	9945
2026-01-13 16:14:59.66	241.84	20.46	-34.0	-42.8	3.8	8.46e-01	0	42	104	0	29	9988
2026-01-13 16:15:00.66	242.07	20.53	-34.0	-42.9	3.8	8.46e-01	0	42	104	0	29	9997
2026-01-13 16:15:01.66	242.29	20.59	-34.0	-42.8	3.8	8.46e-01	0	42	104	0	29	9991
2026-01-13 16:15:02.67	242.52	20.65	-34.0	-42.8	3.8	8.45e-01	0	42	104	0	29	9986
2026-01-13 16:15:03.68	242.75	20.71	-34.0	-42.8	3.8	8.47e-01	0	42	104	0	29	9968
2026-01-13 16:15:04.69	242.98	20.78	-34.0	-42.8	3.8	8.48e-01	0	42	104	0	29	9959
2026-01-13 16:15:05.69	243.21	20.84	-34.0	-42.8	3.8	8.46e-01	0	42	104	0	29	9993
2026-01-13 16:15:06.70	243.45	20.90	-34.0	-42.9	3.8	8.46e-01	0	42	104	0	29	10003
2026-01-13 16:15:07.71	243.68	20.96	-34.0	-42.8	3.8	8.45e-01	0	42	104	0	29	9979
2026-01-13 16:15:08.71	243.91	21.02	-34.0	-42.9	3.8	8.46e-01	0	42	104	0	29	10010
2026-01-13 16:15:09.72	244.15	21.08	-34.0	-42.8	3.8	8.45e-01	0	42	104	0	29	9978
2026-01-13 16:15:10.72	244.38	21.14	-34.0	-42.9	3.8	8.46e-01	0	42	104	0	29	10018
2026-01-13 16:15:11.73	244.62	21.20	-34.0	-42.8	3.8	8.45e-01	0	42	104	0	29	9973
2026-01-13 16:15:12.74	244.86	21.26	-34.0	-42.8	3.8	8.46e-01	0	42	104	0	29	9953
2026-01-13 16:15:13.74	245.10	21.32	-34.0	-42.9	3.8	8.45e-01	0	42	104	0	29	10011
2026-01-13 16:15:14.75	245.34	21.37	-34.0	-42.9	3.8	8.46e-01	0	42	104	0	29	10039
2026-01-13 16:15:15.76	245.58	21.43	-34.0	-42.8	3.8	8.46e-01	0	43	104	0	29	9999
2026-01-13 16:15:16.76	245.82	21.49	-34.0	-42.9	3.8	8.46e-01	0	42	104	0	29	10015
2026-01-13 16:15:17.77	246.06	21.55	-34.0	-42.8	3.8	8.46e-01	0	42	104	0	29	9964
2026-01-13 16:15:18.78	246.31	21.60	-34.0	-42.8	3.8	8.45e-01	0	42	104	0	29	9979
2026-01-13 16:15:19.79	246.55	21.66	-34.0	-42.9	3.8	8.47e-01	0	43	104	0	29	10020
2026-01-13 16:15:20.79	246.79	21.72	-34.0	-42.8	3.8	8.45e-01	0	42	104	0	29	10004
2026-01-13 16:15:21.80	247.04	21.77	-34.0	-42.9	3.8	8.46e-01	0	42	104	0	29	10026
2026-01-13 16:15:22.81	247.29	21.83	-34.0	-42.8	3.8	8.45e-01	0	42	104	0	29	9986
2026-01-13 16:15:23.82	247.54	21.88	-34.0	-42.9	3.8	8.47e-01	0	42	104	0	29	10020
2026-01-13 16:15:24.83	247.78	21.94	-34.0	-42.9	3.8	8.46e-01	0	42	104	0	29	10002
2026-01-13 16:15:25.83	248.03	21.99	-34.0	-42.8	3.8	8.46e-01	0	42	104	0	29	9975
2026-01-13 16:15:26.84	248.28	22.04	-34.0	-42.8	3.8	8.47e-01	0	42	104	0	29	9989
2026-01-13 16:15:27.84	248.53	22.10	-34.0	-42.8	3.8	8.46e-01	0	42	104	0	29	9992
2026-01-13 16:15:28.85	248.78	22.15	-34.0	-42.9	3.8	8.45e-01	0	42	104	0	29	10028
2026-01-13 16:15:29.86	249.04	22.20	-34.0	-42.9	3.8	8.47e-01	0	43	104	0	29	10023
2026-01-13 16:15:30.86	249.29	22.25	-34.0	-42.9	3.8	8.45e-01	0	42	104	0	29	10034
2026-01-13 16:15:31.87	249.54	22.31	-34.0	-42.9	3.8	8.46e-01	0	43	104	0	29	10016
2026-01-13 16:15:32.87	249.80	22.36	-34.0	-42.9	3.8	8.46e-01	0	42	104	0	29	10002
2026-01-13 16:15:33.88	250.05	22.41	-34.0	-42.9	3.8	8.46e-01	0	42	104	0	29	10004
2026-01-13 16:15:34.89	250.31	22.46	-34.0	-42.9	3.8	8.47e-01	0	42	104	0	29	10027
2026-01-13 16:15:35.89	250.57	22.51	-34.0	-42.9	3.8	8.46e-01	0	42	104	0	29	10006
2026-01-13 16:15:36.89	250.82	22.55	-34.0	-42.9	3.8	8.46e-01	0	43	104	0	29	10016
2026-01-13 16:15:37.90	251.08	22.60	-34.0	-42.9	3.8	8.46e-01	0	42	104	0	29	10080
2026-01-13 16:15:38.91	251.34	22.65	-34.0	-42.9	3.8	8.46e-01	0	43	104	0	29	10054
2026-01-13 16:15:39.91	251.60	22.70	-34.0	-42.9	3.8	8.46e-01	0	43	104	0	29	10015
2026-01-13 16:15:40.92	251.86	22.74	-34.0	-42.9	3.8	8.46e-01	0	42	104	0	29	10009
2026-01-13 16:15:41.93	252.13	22.79	-34.0	-42.9	3.8	8.46e-01	0	42	104	0	29	10015
2026-01-13 16:15:42.93	252.39	22.84	-34.0	-42.9	3.8	8.46e-01	0	42	104	0	29	10007
2026-01-13 16:15:43.94	252.65	22.88	-34.0	-42.9	3.8	8.46e-01	0	43	104	0	29	10027
2026-01-13 16:15:44.94	252.91	22.93	-34.0	-42.9	3.8	8.45e-01	0	42	104	0	29	10019
2026-01-13 16:15:45.95	253.18	22.97	-34.0	-42.9	3.8	8.46e-01	0	42	104	0	29	10007
2026-01-13 16:15:46.95	253.44	23.01	-34.0	-42.9	3.8	8.47e-01	0	42	104	0	29	10023
2026-01-13 16:15:47.95	253.71	23.06	-34.0	-42.8	3.8	8.46e-01	0	42	104	0	29	9958
2026-01-13 16:15:48.96	253.98	23.10	-34.0	-42.8	3.8	8.46e-01	0	43	104	0	29	9994
2026-01-13 16:15:49.96	254.24	23.14	-34.0	-42.8	3.8	8.47e-01	0	43	104	0	29	9975
2026-01-13 16:15:50.96	254.51	23.18	-34.0	-42.9	3.8	8.46e-01	0	42	104	0	29	10019
2026-01-13 16:15:51.97	254.78	23.22	-34.0	-42.9	3.8	8.46e-01	0	43	104	0	29	10004
2026-01-13 16:15:52.98	255.05	23.26	-34.0	-42.9	3.8	8.47e-01	0	42	104	0	29	10008
2026-01-13 16:15:53.99	255.32	23.30	-34.0	-42.9	3.8	8.45e-01	0	43	104	0	29	9995
2026-01-13 16:15:55.00	255.59	23.34	-34.0	-42.9	3.8	8.45e-01	0	42	104	0	29	10009
2026-01-13 16:15:56.00	255.86	23.38	-34.0	-42.9	3.8	8.47e-01	0	42	104	0	29	9998
2026-01-13 16:15:57.01	256.14	23.42	-34.0	-42.8	3.8	8.46e-01	0	42	104	0	29	9986
2026-01-13 16:15:58.02	256.41	23.46	-34.0	-42.9	3.8	8.46e-01	0	42	104	0	29	10015
2026-01-13 16:15:59.03	256.68	23.49	-34.0	-42.9	3.8	8.46e-01	0	42	104	0	29	10057
2026-01-13 16:16:00.03	256.96	23.53	-34.0	-42.9	3.8	8.46e-01	0	42	104	0	29	10013
2026-01-13 16:16:01.04	257.23	23.56	-34.0	-42.9	3.8	8.46e-01	0	43	104	0	29	10036
2026-01-13 16:16:02.05	257.51	23.60	-34.0	-42.9	3.8	8.46e-01	0	42	104	0	29	9989
2026-01-13 16:16:03.05	257.78	23.63	-34.0	-42.9	3.8	8.46e-01	0	43	104	0	29	10018
2026-01-13 16:16:04.05	258.06	23.67	-34.0	-42.9	3.8	8.47e-01	0	43	104	0	29	9993
2026-01-13 16:16:05.06	258.34	23.70	-34.0	-42.9	3.8	8.46e-01	0	43	104	0	29	10040
2026-01-13 16:16:06.06	258.61	23.73	-34.0	-42.9	3.8	8.45e-01	0	43	104	0	29	10043
2026-01-13 16:16:07.07	258.89	23.76	-34.0	-42.9	3.8	8.45e-01	0	42	104	0	29	10019
2026-01-13 16:16:08.08	259.17	23.79	-34.0	-42.9	3.8	8.47e-01	0	43	104	0	29	10016
2026-01-13 16:16:09.09	259.45	23.82	-34.0	-42.9	3.8	8.48e-01	0	43	104	0	29	10016
2026-01-13 16:16:10.10	259.73	23.85	-34.0	-42.8	3.8	8.45e-01	0	42	104	0	29	9973
2026-01-13 16:16:11.10	260.01	23.88	-34.0	-42.9	3.8	8.46e-01	0	42	104	0	29	9991
2026-01-13 16:16:12.11	260.29	23.91	-34.0	-42.9	3.8	8.46e-01	0	42	104	0	29	10042
2026-01-13 16:16:13.12	260.57	23.94	-34.0	-42.9	3.8	8.46e-01	0	42	104	0	29	10022
2026-01-13 16:16:14.12	260.85	23.96	-34.0	-42.8	3.8	8.45e-01	0	42	104	0	29	9994
2026-01-13 16:16:15.13	261.14	23.99	-34.0	-42.9	3.8	8.47e-01	0	42	104	0	29	9995
2026-01-13 16:16:16.14	261.42	24.02	-34.0	-42.9	3.8	8.46e-01	0	43	104	0	29	10098
2026-01-13 16:16:17.15	261.71	24.04	-34.0	-42.9	3.8	8.46e-01	0	43	104	0	29	10003
2026-01-13 16:16:18.16	261.99	24.07	-34.0	-42.9	3.8	8.46e-01	0	42	104	0	29	10013
2026-01-13 16:16:19.16	262.27	24.09	-34.0	-42.8	3.8	8.46e-01	0	42	104	0	29	9978
2026-01-13 16:16:20.16	262.56	24.11	-34.0	-42.9	3.8	8.46e-01	0	42	104	0	29	10015
2026-01-13 16:16:21.17	262.84	24.13	-34.0	-42.9	3.8	8.45e-01	0	42	104	0	29	10031
2026-01-13 16:16:22.18	263.13	24.15	-34.0	-42.9	3.8	8.46e-01	0	42	104	0	29	10019
2026-01-13 16:16:23.19	263.41	24.18	-34.0	-42.8	3.8	8.46e-01	0	43	104	0	29	9980
2026-01-13 16:16:24.19	263.70	24.20	-34.0	-42.9	3.8	8.46e-01	0	43	104	0	29	10021
2026-01-13 16:16:25.20	263.99	24.21	-34.0	-42.9	3.8	8.46e-01	0	43	104	0	29	10001
2026-01-13 16:16:26.21	264.27	24.23	-34.0	-42.9	3.8	8.47e-01	0	42	104	0	29	10018
2026-01-13 16:16:27.21	264.56	24.25	-34.0	-42.9	3.8	8.46e-01	0	43	104	0	29	10008
2026-01-13 16:16:28.21	264.84	24.27	-34.0	-42.9	3.8	8.45e-01	0	43	104	0	29	9993
2026-01-13 16:16:29.22	265.13	24.28	-34.0	-42.9	3.8	8.46e-01	0	43	104	0	29	10005
2026-01-13 16:16:30.23	265.42	24.30	-34.0	-42.9	3.8	8.45e-01	0	43	104	0	29	10010
2026-01-13 16:16:31.22	265.70	24.31	-34.0	-42.8	3.8	8.46e-01	0	43	104	0	29	9985
2026-01-13 16:16:32.23	265.99	24.33	-34.0	-42.9	3.8	8.45e-01	0	43	104	0	29	10035
2026-01-13 16:16:33.24	266.28	24.34	-34.0	-42.9	3.8	8.47e-01	0	43	104	0	29	10026
2026-01-13 16:16:34.25	266.57	24.35	-34.0	-42.9	3.8	8.48e-01	0	42	104	0	29	9991
2026-01-13 16:16:35.26	266.86	24.36	-34.0	-42.9	3.8	8.46e-01	0	43	104	0	29	10028
2026-01-13 16:16:36.26	267.15	24.38	-34.0	-42.9	3.8	8.46e-01	0	43	104	0	29	10049
2026-01-13 16:16:37.27	267.44	24.39	-34.0	-42.9	3.8	8.47e-01	0	43	104	0	29	10031
2026-01-13 16:16:38.28	267.73	24.40	-34.0	-42.9	3.8	8.45e-01	0	42	104	0	29	10030
2026-01-13 16:16:39.28	268.02	24.40	-34.0	-42.9	3.8	8.47e-01	0	43	104	0	29	10046
2026-01-13 16:16:40.29	268.31	24.41	-34.0	-42.9	3.8	8.45e-01	0	42	104	0	29	10000
2026-01-13 16:16:41.30	268.60	24.42	-34.0	-42.9	3.8	8.46e-01	0	43	104	0	29	10007
2026-01-13 16:16:42.31	268.89	24.43	-34.0	-42.9	3.8	8.45e-01	0	43	104	0	29	10021
2026-01-13 16:16:43.31	269.18	24.43	-34.0	-42.9	3.8	8.46e-01	0	43	104	0	29	10002
2026-01-13 16:16:44.32	269.47	24.44	-34.0	-42.8	3.8	8.46e-01	0	43	104	0	29	9987
2026-01-13 16:16:45.33	269.76	24.44	-34.0	-42.8	3.8	8.45e-01	0	43	104	0	29	9982
2026-01-13 16:16:46.33	270.05	24.44	-34.0	-42.9	3.8	8.45e-01	0	43	104	0	29	10013
2026-01-13 16:16:47.34	270.34	24.45	-34.0	-42.8	3.8	8.46e-01	0	43	104	0	29	9983
2026-01-13 16:16:48.35	270.63	24.45	-34.0	-42.8	3.8	8.46e-01	0	43	104	0	29	9988
2026-01-13 16:16:49.35	270.92	24.45	-34.0	-42.8	3.8	8.46e-01	0	43	104	0	29	9971
2026-01-13 16:16:50.36	271.21	24.45	-34.0	-42.9	3.8	8.46e-01	0	43	104	0	29	10031
2026-01-13 16:16:51.37	271.51	24.45	-34.0	-42.8	3.8	8.49e-01	0	43	104	0	29	9987
2026-01-13 16:16:52.37	271.79	24.45	-34.0	-42.8	3.8	8.46e-01	0	43	104	0	29	9977
2026-01-13 16:16:53.38	272.09	24.45	-34.0	-42.9	3.8	8.47e-01	0	43	104	0	29	10006
2026-01-13 16:16:54.39	272.38	24.44	-34.0	-42.9	3.8	8.46e-01	0	43	104	0	29	9990
2026-01-13 16:16:55.40	272.67	24.44	-34.0	-42.9	3.8	8.46e-01	0	42	104	0	29	10013
2026-01-13 16:16:56.40	272.96	24.44	-34.0	-42.8	3.8	8.46e-01	0	43	104	0	29	9925
2026-01-13 16:16:57.41	273.25	24.43	-34.0	-42.8	3.8	8.45e-01	0	43	104	0	29	9965
2026-01-13 16:16:58.41	273.54	24.43	-34.0	-42.9	3.8	8.46e-01	0	42	104	0	29	10003
2026-01-13 16:16:59.41	273.82	24.42	-34.0	-42.9	3.8	8.47e-01	0	43	104	0	29	10024
2026-01-13 16:17:00.42	274.12	24.41	-34.0	-42.9	3.8	8.46e-01	0	43	104	0	29	10033
2026-01-13 16:17:01.42	274.40	24.41	-34.0	-42.9	3.8	8.46e-01	0	43	104	0	29	10022
2026-01-13 16:17:02.43	274.69	24.40	-34.0	-42.9	3.8	8.45e-01	0	43	104	0	29	10001
2026-01-13 16:17:03.44	274.98	24.39	-34.0	-42.8	3.8	8.47e-01	0	43	104	0	29	9963
2026-01-13 16:17:04.45	275.27	24.38	-34.0	-42.9	3.8	8.46e-01	0	43	104	0	29	10012
2026-01-13 16:17:05.45	275.56	24.37	-34.0	-42.8	3.8	8.45e-01	0	43	104	0	29	9990
2026-01-13 16:17:06.45	275.85	24.35	-34.0	-42.9	3.8	8.46e-01	0	43	104	0	29	10048
2026-01-13 16:17:07.46	276.14	24.34	-34.0	-42.9	3.8	8.47e-01	0	43	104	0	29	10017
2026-01-13 16:17:08.46	276.42	24.33	-34.0	-42.9	3.8	8.46e-01	0	43	104	0	29	10031
2026-01-13 16:17:09.48	276.72	24.32	-34.0	-42.9	3.8	8.47e-01	0	43	104	0	29	10015
2026-01-13 16:17:10.48	277.00	24.30	-34.0	-42.9	3.8	8.46e-01	0	43	104	0	29	10003
2026-01-13 16:17:11.49	277.29	24.29	-34.0	-42.9	3.8	8.46e-01	0	42	104	0	29	10026
2026-01-13 16:17:12.50	277.58	24.27	-34.0	-42.9	3.8	8.46e-01	0	43	104	0	29	10019
2026-01-13 16:17:13.51	277.87	24.25	-34.0	-42.9	3.8	8.46e-01	0	43	104	0	29	10017
2026-01-13 16:17:14.51	278.15	24.24	-34.0	-42.9	3.8	8.47e-01	0	43	104	0	29	10029
2026-01-13 16:17:15.52	278.44	24.22	-34.0	-42.9	3.8	8.46e-01	0	43	104	0	29	10000
2026-01-13 16:17:16.53	278.73	24.20	-34.0	-42.9	3.8	8.47e-01	0	42	104	0	29	10027
2026-01-13 16:17:17.54	279.01	24.18	-34.0	-42.9	3.8	8.46e-01	0	43	104	0	29	10043
2026-01-13 16:17:18.54	279.30	24.16	-34.0	-42.9	3.8	8.46e-01	0	42	104	0	29	10002
2026-01-13 16:17:19.54	279.58	24.14	-34.0	-42.8	3.8	8.46e-01	0	43	104	0	29	9994
2026-01-13 16:17:20.54	279.86	24.12	-34.0	-42.9	3.8	8.45e-01	0	43	104	0	29	10015
2026-01-13 16:17:21.55	280.15	24.09	-34.0	-42.9	3.8	8.45e-01	0	42	104	0	29	10027
2026-01-13 16:17:22.56	280.43	24.07	-34.0	-42.9	3.8	8.45e-01	0	42	104	0	29	10028
2026-01-13 16:17:23.56	280.71	24.05	-34.0	-42.9	3.8	8.47e-01	0	42	104	0	29	10036
2026-01-13 16:17:24.57	281.00	24.02	-34.0	-42.9	3.8	8.46e-01	0	43	104	0	29	10024
2026-01-13 16:17:25.58	281.28	24.00	-34.0	-42.9	3.8	8.47e-01	0	43	104	0	29	10012
2026-01-13 16:17:26.58	281.56	23.97	-34.0	-42.8	3.8	8.45e-01	0	42	104	0	29	9992
2026-01-13 16:17:27.59	281.84	23.94	-34.0	-42.9	3.8	8.47e-01	0	43	104	0	29	10032
2026-01-13 16:17:28.59	282.12	23.92	-34.0	-42.9	3.8	8.46e-01	0	42	104	0	29	10021
2026-01-13 16:17:29.60	282.40	23.89	-34.0	-42.9	3.8	8.46e-01	0	43	104	0	29	10016
2026-01-13 16:17:30.61	282.68	23.86	-34.0	-42.9	3.8	8.45e-01	0	43	104	0	29	10024
2026-01-13 16:17:31.62	282.96	23.83	-34.0	-42.8	3.8	8.47e-01	0	43	104	0	29	9987
2026-01-13 16:17:32.63	283.24	23.80	-34.0	-42.9	3.8	8.46e-01	0	42	104	0	29	10022
2026-01-13 16:17:33.63	283.52	23.77	-34.0	-42.9	3.8	8.46e-01	0	42	104	0	29	10025
2026-01-13 16:17:34.64	283.80	23.74	-34.0	-42.9	3.8	8.46e-01	0	43	104	0	29	10097
2026-01-13 16:17:35.65	284.08	23.71	-34.0	-42.9	3.8	8.47e-01	0	43	104	0	29	10042
2026-01-13 16:17:36.66	284.36	23.67	-34.0	-42.9	3.8	8.46e-01	0	43	104	0	29	10020
2026-01-13 16:17:37.65	284.63	23.64	-34.0	-42.9	3.8	8.46e-01	0	43	104	0	29	10024
2026-01-13 16:17:38.66	284.90	23.61	-34.0	-42.8	3.8	8.46e-01	0	42	104	0	29	9961
2026-01-13 16:17:39.65	285.17	23.57	-34.0	-42.9	3.8	8.45e-01	0	43	104	0	29	10019
2026-01-13 16:17:40.65	285.45	23.54	-34.0	-42.9	3.8	8.46e-01	0	43	104	0	29	10023
2026-01-13 16:17:41.66	285.72	23.50	-34.0	-42.9	3.8	8.47e-01	0	43	104	0	29	10040
2026-01-13 16:17:42.67	286.00	23.46	-34.0	-42.9	3.8	8.46e-01	0	43	104	0	29	10013
2026-01-13 16:17:43.67	286.27	23.43	-34.0	-42.9	3.8	8.46e-01	0	43	104	0	29	10004
2026-01-13 16:17:44.68	286.54	23.39	-34.0	-42.9	3.8	8.45e-01	0	43	104	0	29	10035
2026-01-13 16:17:45.68	286.81	23.35	-34.0	-42.8	3.8	8.45e-01	0	42	104	0	29	9970
2026-01-13 16:17:46.69	287.08	23.31	-34.0	-42.9	3.8	8.46e-01	0	43	104	0	29	10020
2026-01-13 16:17:47.69	287.35	23.27	-34.0	-42.9	3.8	8.47e-01	0	43	104	0	29	10032
2026-01-13 16:17:48.70	287.62	23.23	-34.0	-42.8	3.8	8.46e-01	0	43	104	0	29	9956
2026-01-13 16:17:49.70	287.88	23.19	-34.0	-42.9	3.8	8.46e-01	0	43	104	0	29	10007
2026-01-13 16:17:50.71	288.15	23.15	-34.0	-42.8	3.8	8.46e-01	0	43	104	0	29	9967
2026-01-13 16:17:51.72	288.42	23.11	-34.0	-42.9	3.8	8.45e-01	0	42	104	0	29	10025
2026-01-13 16:17:52.73	288.69	23.07	-34.0	-42.9	3.8	8.47e-01	0	43	104	0	29	10010
2026-01-13 16:17:53.73	288.95	23.03	-34.0	-42.9	3.8	8.46e-01	0	42	104	0	29	10016
2026-01-13 16:17:54.73	289.22	22.98	-34.0	-42.9	3.8	8.45e-01	0	42	104	0	29	10023
2026-01-13 16:17:55.74	289.48	22.94	-34.0	-42.9	3.8	8.48e-01	0	43	104	0	29	10041
2026-01-13 16:17:56.75	289.75	22.89	-34.0	-42.9	3.8	8.46e-01	0	42	104	0	29	10010
2026-01-13 16:17:57.76	290.01	22.85	-34.0	-42.9	3.8	8.47e-01	0	43	104	0	29	10019
2026-01-13 16:17:58.76	290.27	22.80	-34.0	-42.9	3.8	8.46e-01	0	42	104	0	29	10028
2026-01-13 16:17:59.77	290.53	22.76	-34.0	-42.9	3.8	8.45e-01	0	42	104	0	29	10032
2026-01-13 16:18:00.77	290.79	22.71	-34.0	-42.8	3.8	8.47e-01	0	43	104	0	29	9964
2026-01-13 16:18:01.78	291.05	22.66	-34.0	-42.9	3.8	8.47e-01	0	43	104	0	29	10022
2026-01-13 16:18:02.79	291.31	22.62	-34.0	-42.9	3.8	8.46e-01	0	43	104	0	29	10019
2026-01-13 16:18:03.79	291.57	22.57	-34.0	-42.9	3.8	8.47e-01	0	43	104	0	29	10006
2026-01-13 16:18:04.80	291.83	22.52	-34.0	-42.9	3.8	8.46e-01	0	42	104	0	29	10021
2026-01-13 16:18:05.80	292.08	22.47	-34.0	-42.9	3.8	8.47e-01	0	43	104	0	29	10064
2026-01-13 16:18:06.81	292.34	22.42	-34.0	-42.9	3.8	8.47e-01	0	43	104	0	29	10023
2026-01-13 16:18:07.81	292.59	22.37	-34.0	-42.9	3.8	8.46e-01	0	42	104	0	29	10020
2026-01-13 16:18:08.82	292.85	22.32	-34.0	-42.9	3.8	8.45e-01	0	43	104	0	29	10039
2026-01-13 16:18:09.83	293.10	22.27	-34.0	-42.9	3.8	8.45e-01	0	43	104	0	29	10019
2026-01-13 16:18:10.84	293.35	22.22	-34.0	-42.9	3.8	8.46e-01	0	43	104	0	29	10012
2026-01-13 16:18:11.85	293.61	22.17	-34.0	-42.9	3.8	8.46e-01	0	43	104	0	29	10013
2026-01-13 16:18:12.85	293.86	22.11	-34.0	-42.9	3.8	8.46e-01	0	43	104	0	29	10029
2026-01-13 16:18:13.86	294.11	22.06	-34.0	-42.9	3.8	8.46e-01	0	43	104	0	29	10003
2026-01-13 16:18:14.87	294.36	22.01	-34.0	-42.8	3.8	8.46e-01	0	43	104	0	29	9989
2026-01-13 16:18:15.87	294.60	21.96	-34.0	-42.9	3.8	8.46e-01	0	43	104	0	29	10020
2026-01-13 16:18:16.87	294.85	21.90	-34.0	-42.8	3.8	8.45e-01	0	43	104	0	29	9969
2026-01-13 16:18:17.88	295.10	21.85	-34.0	-42.9	3.8	8.46e-01	0	43	104	0	29	10019
2026-01-13 16:18:18.89	295.34	21.79	-34.0	-42.9	3.8	8.47e-01	0	43	104	0	29	10002
2026-01-13 16:18:19.89	295.59	21.74	-34.0	-42.9	3.8	8.47e-01	0	43	104	0	29	10039
2026-01-13 16:18:20.90	295.83	21.68	-34.0	-42.9	3.8	8.47e-01	0	43	104	0	29	10029
2026-01-13 16:18:21.90	296.07	21.63	-34.0	-42.8	3.8	8.46e-01	0	43	104	0	29	9979
2026-01-13 16:18:22.91	296.32	21.57	-34.0	-42.9	3.8	8.46e-01	0	43	104	0	29	10011
2026-01-13 16:18:23.91	296.56	21.51	-34.0	-42.9	3.8	8.46e-01	0	43	104	0	29	10018
2026-01-13 16:18:24.92	296.80	21.46	-34.0	-42.9	3.8	8.46e-01	0	43	104	0	29	10030
2026-01-13 16:18:25.93	297.04	21.40	-34.0	-42.8	3.8	8.45e-01	0	42	104	0	29	9965
2026-01-13 16:18:26.93	297.28	21.34	-34.0	-42.9	3.8	8.46e-01	0	42	104	0	29	10007
2026-01-13 16:18:27.93	297.51	21.28	-34.0	-42.9	3.8	8.46e-01	0	42	104	0	29	10036
2026-01-13 16:18:28.94	297.75	21.22	-34.0	-42.9	3.8	8.46e-01	0	42	104	0	29	10052
2026-01-13 16:18:29.94	297.98	21.16	-34.0	-42.9	3.8	8.46e-01	0	43	104	0	29	10017
2026-01-13 16:18:30.94	298.22	21.11	-34.0	-42.8	3.8	8.47e-01	0	42	104	0	29	9958
2026-01-13 16:18:31.94	298.45	21.05	-34.0	-42.9	3.8	8.46e-01	0	43	104	0	29	9992
2026-01-13 16:18:32.95	298.69	20.99	-34.0	-42.9	3.8	8.45e-01	0	43	104	0	29	10035
2026-01-13 16:18:33.96	298.92	20.93	-34.0	-42.9	3.8	8.46e-01	0	43	104	0	29	10001
2026-01-13 16:18:34.96	299.15	20.87	-34.0	-42.9	3.8	8.46e-01	0	42	104	0	29	10017
2026-01-13 16:18:35.97	299.38	20.80	-34.0	-42.9	3.8	8.45e-01	0	42	104	0	29	10055
2026-01-13 16:18:36.97	299.61	20.74	-34.0	-42.9	3.8	8.46e-01	0	43	104	0	29	10015
2026-01-13 16:18:37.98	299.84	20.68	-34.0	-42.9	3.8	8.46e-01	0	43	104	0	29	10010
2026-01-13 16:18:38.99	300.07	20.62	-34.0	-42.9	3.8	8.47e-01	0	43	104	0	29	10003
2026-01-13 16:18:39.99	300.29	20.56	-34.0	-42.9	3.8	8.46e-01	0	43	104	0	29	10024
2026-01-13 16:18:41.00	300.52	20.50	-34.0	-42.9	3.8	8.46e-01	0	43	104	0	29	9994
2026-01-13 16:18:42.00	300.75	20.43	-34.0	-42.9	3.8	8.47e-01	0	43	104	0	29	10050
2026-01-13 16:18:43.01	300.97	20.37	-34.0	-42.9	3.8	8.46e-01	0	43	104	0	29	10025
2026-01-13 16:18:44.01	301.19	20.31	-34.0	-42.9	3.8	8.46e-01	0	42	104	0	29	10018
2026-01-13 16:18:45.02	301.42	20.24	-34.0	-42.9	3.8	8.45e-01	0	43	104	0	29	10044
2026-01-13 16:18:46.02	301.64	20.18	-34.0	-42.9	3.8	8.46e-01	0	43	104	0	29	9996
2026-01-13 16:18:47.02	301.86	20.12	-34.0	-42.9	3.8	8.46e-01	0	43	104	0	29	10009
2026-01-13 16:18:48.03	302.08	20.05	-34.0	-42.9	3.8	8.45e-01	0	42	104	0	29	10027
2026-01-13 16:18:49.04	302.30	19.99	-34.0	-42.9	3.8	8.46e-01	0	43	104	0	29	10031
2026-01-13 16:18:50.04	302.51	19.92	-34.0	-42.9	3.8	8.45e-01	0	43	104	0	29	10016
2026-01-13 16:18:51.05	302.73	19.86	-34.0	-42.9	3.8	8.46e-01	0	43	104	0	29	10022
2026-01-13 16:18:52.06	302.95	19.79	-34.0	-42.9	3.8	8.46e-01	0	43	104	0	29	10042
2026-01-13 16:18:53.06	303.16	19.73	-34.0	-42.9	3.8	8.46e-01	0	43	104	0	29	9991
2026-01-13 16:18:54.07	303.38	19.66	-34.0	-42.9	3.8	8.46e-01	0	43	104	0	29	10036
2026-01-13 16:18:55.08	303.59	19.59	-34.0	-42.9	3.8	8.46e-01	0	43	104	0	29	10014
2026-01-13 16:18:56.09	303.81	19.53	-34.0	-42.8	3.8	8.47e-01	0	43	104	0	29	9984
2026-01-13 16:18:57.10	304.02	19.46	-34.0	-42.9	3.8	8.44e-01	0	43	104	0	29	10025
2026-01-13 16:18:58.10	304.23	19.40	-34.0	-42.9	3.8	8.47e-01	0	43	104	0	29	10021
2026-01-13 16:18:59.11	304.44	19.33	-34.0	-42.9	3.8	8.47e-01	0	43	104	0	29	10020
2026-01-13 16:19:00.11	304.65	19.26	-34.0	-42.9	3.8	8.47e-01	0	43	104	0	29	9997
2026-01-13 16:19:01.12	304.86	19.20	-34.0	-42.9	3.8	8.46e-01	0	43	104	0	29	10066
2026-01-13 16:19:02.13	305.07	19.13	-34.0	-42.8	3.8	8.46e-01	0	43	104	0	29	9985
2026-01-13 16:19:03.14	305.27	19.06	-34.0	-42.9	3.8	8.46e-01	0	43	104	0	29	10026
2026-01-13 16:19:04.15	305.48	18.99	-34.0	-42.9	3.8	8.47e-01	0	43	104	0	29	9991
2026-01-13 16:19:05.15	305.68	18.92	-34.0	-42.9	3.8	8.46e-01	0	43	104	0	29	10042
2026-01-13 16:19:06.15	305.88	18.86	-34.0	-42.9	3.8	8.45e-01	0	43	104	0	29	9984
2026-01-13 16:19:07.16	306.09	18.79	-34.0	-42.9	3.8	8.46e-01	0	43	104	0	29	10038
2026-01-13 16:19:08.17	306.29	18.72	-34.0	-42.9	3.8	8.46e-01	0	43	104	0	29	10021
2026-01-13 16:19:09.17	306.49	18.65	-34.0	-42.9	3.8	8.45e-01	0	43	104	0	29	10022
2026-01-13 16:19:10.18	306.69	18.58	-34.0	-42.9	3.8	8.45e-01	0	43	104	0	29	10023
2026-01-13 16:19:11.19	306.89	18.51	-34.0	-42.9	3.8	8.47e-01	0	43	104	0	29	10013
2026-01-13 16:19:12.20	307.09	18.45	-34.0	-42.9	3.8	8.46e-01	0	43	104	0	29	10031
2026-01-13 16:19:13.21	307.29	18.38	-34.0	-42.9	3.8	8.46e-01	0	43	104	0	29	9990
2026-01-13 16:19:14.22	307.49	18.31	-34.0	-42.9	3.8	8.46e-01	0	43	104	0	29	10002
2026-01-13 16:19:15.22	307.68	18.24	-34.0	-42.9	3.8	8.46e-01	0	42	104	0	29	10037
2026-01-13 16:19:16.23	307.88	18.17	-34.0	-42.9	3.8	8.47e-01	0	43	104	0	29	9992
2026-01-13 16:19:17.24	308.07	18.10	-34.0	-42.9	3.8	8.45e-01	0	43	104	0	29	10004
2026-01-13 16:19:18.24	308.26	18.03	-34.0	-42.9	3.8	8.45e-01	0	43	104	0	29	10029
2026-01-13 16:19:19.25	308.46	17.96	-34.0	-42.9	3.8	8.45e-01	0	43	104	0	29	10028
2026-01-13 16:19:20.26	308.65	17.89	-34.0	-42.9	3.8	8.46e-01	0	42	104	0	29	10071
2026-01-13 16:19:21.26	308.84	17.82	-34.0	-42.9	3.8	8.46e-01	0	42	104	0	29	10015
2026-01-13 16:19:22.27	309.03	17.75	-34.0	-42.9	3.8	8.46e-01	0	43	104	0	29	10046
2026-01-13 16:19:23.27	309.22	17.68	-34.0	-42.9	3.8	8.46e-01	0	43	104	0	29	10002
2026-01-13 16:19:24.28	309.41	17.61	-34.0	-42.9	3.8	8.46e-01	0	43	104	0	29	10023
2026-01-13 16:19:25.29	309.59	17.54	-34.0	-42.9	3.8	8.47e-01	0	43	104	0	29	10053
2026-01-13 16:19:26.29	309.78	17.47	-34.0	-42.9	3.8	8.47e-01	0	42	104	0	29	10056
2026-01-13 16:19:27.30	309.97	17.40	-34.0	-42.9	3.8	8.45e-01	0	43	104	0	29	10044
2026-01-13 16:19:28.31	310.15	17.33	-34.0	-42.9	3.8	8.45e-01	0	43	104	0	29	10060
2026-01-13 16:19:29.32	310.34	17.26	-34.0	-42.9	3.8	8.47e-01	0	42	104	0	29	10009
2026-01-13 16:19:30.32	310.52	17.19	-34.0	-42.9	3.8	8.45e-01	0	43	104	0	29	10034
2026-01-13 16:19:31.33	310.70	17.12	-34.0	-42.8	3.8	8.45e-01	0	43	104	0	29	9971
2026-01-13 16:19:32.33	310.88	17.05	-34.0	-42.9	3.8	8.47e-01	0	42	104	0	29	10007
2026-01-13 16:19:33.34	311.06	16.97	-34.0	-42.9	3.8	8.45e-01	0	43	104	0	29	10033
2026-01-13 16:19:34.34	311.24	16.90	-34.0	-42.9	3.8	8.47e-01	0	42	104	0	29	10024
2026-01-13 16:19:35.34	311.42	16.83	-34.0	-42.9	3.8	8.46e-01	0	43	104	0	29	10042
2026-01-13 16:19:36.35	311.60	16.76	-34.0	-42.9	3.8	8.46e-01	0	43	104	0	29	10032
2026-01-13 16:19:37.36	311.78	16.69	-34.0	-42.9	3.8	8.45e-01	0	43	104	0	29	10082
2026-01-13 16:19:38.36	311.95	16.62	-34.0	-42.9	3.8	8.46e-01	0	43	104	0	29	10043
2026-01-13 16:19:39.37	312.13	16.55	-34.0	-42.9	3.8	8.46e-01	0	43	104	0	29	10008
2026-01-13 16:19:40.37	312.30	16.48	-34.0	-42.9	3.8	8.45e-01	0	43	104	0	29	10043
2026-01-13 16:19:41.38	312.48	16.41	-34.0	-42.9	3.8	8.46e-01	0	43	104	0	29	9999
2026-01-13 16:19:42.39	312.65	16.33	-34.0	-42.9	3.8	8.45e-01	0	43	104	0	29	9986
2026-01-13 16:19:43.40	312.82	16.26	-34.0	-42.9	3.8	8.46e-01	0	43	104	0	29	10083
2026-01-13 16:19:44.40	312.99	16.19	-34.0	-42.9	3.8	8.45e-01	0	42	104	0	29	10002
2026-01-13 16:19:45.41	313.16	16.12	-34.0	-42.9	3.8	8.46e-01	0	43	104	0	29	10061
2026-01-13 16:19:46.42	313.33	16.05	-34.0	-42.9	3.8	8.46e-01	0	43	104	0	29	10009
2026-01-13 16:19:47.42	313.50	15.98	-34.0	-42.9	3.8	8.46e-01	0	42	104	0	29	10036
2026-01-13 16:19:48.43	313.67	15.91	-34.0	-42.9	3.8	8.45e-01	0	43	104	0	29	10060
2026-01-13 16:19:49.44	313.84	15.83	-34.0	-42.8	3.8	8.46e-01	0	43	104	0	29	9983
2026-01-13 16:19:50.44	314.01	15.76	-34.0	-42.9	3.8	8.46e-01	0	43	104	0	29	10021
2026-01-13 16:19:51.45	314.17	15.69	-34.0	-42.9	3.8	8.45e-01	0	42	104	0	29	10053
2026-01-13 16:19:52.46	314.34	15.62	-34.0	-42.9	3.8	8.46e-01	0	43	104	0	29	10046
2026-01-13 16:19:53.46	314.50	15.55	-34.0	-42.9	3.8	8.45e-01	0	43	104	0	29	9995
2026-01-13 16:19:54.47	314.67	15.48	-34.0	-42.9	3.8	8.46e-01	0	43	104	0	29	10017
2026-01-13 16:19:55.48	314.83	15.40	-34.0	-42.9	3.8	8.46e-01	0	43	104	0	29	10064
2026-01-13 16:19:56.49	314.99	15.33	-34.0	-42.9	3.8	8.47e-01	0	43	104	0	29	9992
2026-01-13 16:19:57.49	315.15	15.26	-34.0	-42.9	3.8	8.45e-01	0	43	104	0	29	10020
2026-01-13 16:19:58.50	315.32	15.19	-34.0	-42.9	3.8	8.46e-01	0	43	104	0	29	10002
2026-01-13 16:19:59.50	315.47	15.12	-34.0	-42.9	3.8	8.44e-01	0	43	104	0	29	10046
2026-01-13 16:20:00.48	315.63	15.05	-34.0	-42.9	3.8	8.45e-01	0	43	104	0	29	10013
2026-01-13 16:20:01.49	315.79	14.98	-34.0	-42.9	3.8	8.45e-01	0	43	104	0	29	10017
2026-01-13 16:20:02.50	315.95	14.91	-34.0	-42.9	3.8	8.44e-01	0	42	104	0	29	10033
2026-01-13 16:20:03.51	316.10	14.83	-34.0	-42.9	3.8	8.46e-01	0	42	104	0	29	10042
2026-01-13 16:20:04.51	316.26	14.76	-34.0	-42.9	3.8	8.47e-01	0	43	104	0	29	10050
2026-01-13 16:20:05.52	316.42	14.69	-34.0	-42.9	3.8	8.46e-01	0	43	104	0	29	10013
2026-01-13 16:20:06.52	316.57	14.62	-34.0	-42.9	3.8	8.46e-01	0	43	104	0	29	10032
2026-01-13 16:20:07.53	316.73	14.55	-34.0	-42.9	3.8	8.46e-01	0	42	104	0	29	9981
2026-01-13 16:20:08.54	316.88	14.48	-34.0	-42.9	3.8	8.46e-01	0	43	104	0	29	10047
2026-01-13 16:20:09.55	317.03	14.40	-34.0	-42.9	3.8	8.46e-01	0	43	104	0	29	10060
2026-01-13 16:20:10.55	317.18	14.33	-34.0	-42.9	3.8	8.46e-01	0	42	104	0	29	10087
2026-01-13 16:20:11.55	317.33	14.26	-34.0	-42.9	3.8	8.46e-01	0	43	104	0	29	10017
2026-01-13 16:20:12.57	317.49	14.19	-34.0	-42.8	3.8	8.46e-01	0	43	104	0	29	9968
2026-01-13 16:20:13.57	317.64	14.12	-34.0	-42.9	3.8	8.46e-01	0	43	104	0	29	10049
2026-01-13 16:20:14.58	317.79	14.05	-34.0	-42.9	3.8	8.46e-01	0	43	104	0	29	10083
2026-01-13 16:20:15.58	317.93	13.98	-34.0	-42.9	3.8	8.47e-01	0	43	104	0	29	9985
2026-01-13 16:20:16.59	318.08	13.91	-34.0	-42.9	3.8	8.47e-01	0	43	104	0	29	10044
2026-01-13 16:20:17.60	318.23	13.83	-34.0	-42.9	3.8	8.46e-01	0	43	104	0	29	10061
2026-01-13 16:20:18.61	318.38	13.76	-34.0	-42.9	3.8	8.46e-01	0	43	104	0	29	10070
2026-01-13 16:20:19.61	318.52	13.69	-34.0	-42.9	3.8	8.48e-01	0	43	104	0	29	10061
2026-01-13 16:20:20.62	318.67	13.62	-34.0	-42.8	3.8	8.46e-01	0	43	104	0	29	9981
2026-01-13 16:20:21.62	318.81	13.55	-34.0	-42.9	3.8	8.46e-01	0	43	104	0	29	10027
2026-01-13 16:20:22.63	318.96	13.48	-34.0	-42.9	3.8	8.47e-01	0	43	104	0	29	10070
2026-01-13 16:20:23.63	319.10	13.41	-34.0	-42.9	3.8	8.45e-01	0	43	104	0	29	10036
2026-01-13 16:20:24.64	319.24	13.34	-34.0	-42.9	3.8	8.47e-01	0	43	104	0	29	10031
2026-01-13 16:20:25.64	319.38	13.27	-34.0	-42.9	3.8	8.45e-01	0	43	104	0	29	10044
2026-01-13 16:20:26.65	319.52	13.20	-34.0	-42.9	3.8	8.47e-01	0	43	104	0	29	10024
2026-01-13 16:20:27.66	319.66	13.13	-34.0	-42.9	3.8	8.46e-01	0	43	104	0	29	10017
2026-01-13 16:20:28.67	319.80	13.06	-34.0	-42.9	3.8	8.47e-01	0	43	104	0	29	10032
2026-01-13 16:20:29.68	319.94	12.98	-34.0	-42.9	3.8	8.46e-01	0	43	104	0	29	10046
2026-01-13 16:20:30.68	320.08	12.91	-34.0	-42.9	3.8	8.47e-01	0	43	104	0	29	10022
2026-01-13 16:20:31.69	320.22	12.84	-34.0	-42.9	3.8	8.46e-01	0	43	104	0	29	10012
2026-01-13 16:20:32.70	320.36	12.77	-34.0	-42.9	3.8	8.45e-01	0	42	104	0	29	10062
2026-01-13 16:20:33.71	320.50	12.70	-34.0	-42.9	3.8	8.45e-01	0	43	104	0	29	10004
2026-01-13 16:20:34.71	320.63	12.63	-34.0	-42.9	3.8	8.47e-01	0	43	104	0	29	10054
2026-01-13 16:20:35.72	320.77	12.56	-34.0	-42.9	3.8	8.46e-01	0	43	104	0	29	10023
2026-01-13 16:20:36.72	320.90	12.49	-34.0	-42.9	3.8	8.46e-01	0	43	104	0	29	10056
2026-01-13 16:20:37.73	321.04	12.42	-34.0	-42.9	3.8	8.46e-01	0	43	104	0	29	10022
2026-01-13 16:20:38.74	321.17	12.35	-34.0	-42.9	3.8	8.46e-01	0	43	104	0	29	10056
2026-01-13 16:20:39.74	321.30	12.28	-34.0	-42.9	3.8	8.47e-01	0	43	104	0	29	10005
2026-01-13 16:20:40.75	321.43	12.21	-34.0	-42.9	3.8	8.45e-01	0	43	104	0	29	10040
2026-01-13 16:20:41.75	321.57	12.14	-34.0	-42.9	3.8	8.46e-01	0	43	104	0	29	10042
2026-01-13 16:20:42.75	321.70	12.07	-34.0	-42.9	3.8	8.45e-01	0	43	104	0	29	10001
2026-01-13 16:20:43.76	321.83	12.00	-34.0	-42.9	3.8	8.46e-01	0	43	104	0	29	10009
2026-01-13 16:20:44.77	321.96	11.93	-34.0	-42.9	3.8	8.46e-01	0	43	104	0	29	10030
2026-01-13 16:20:45.78	322.09	11.86	-34.0	-42.9	3.8	8.46e-01	0	43	104	0	29	10070
2026-01-13 16:20:46.79	322.22	11.79	-34.0	-42.9	3.8	8.46e-01	0	43	104	0	29	10047
2026-01-13 16:20:47.79	322.34	11.73	-34.0	-42.8	3.8	8.46e-01	0	43	104	0	29	9968
2026-01-13 16:20:48.80	322.47	11.66	-34.0	-42.9	3.8	8.46e-01	0	43	104	0	29	10025
2026-01-13 16:20:49.80	322.60	11.59	-34.0	-42.9	3.8	8.46e-01	0	43	104	0	29	10052
2026-01-13 16:20:50.80	322.72	11.52	-34.0	-42.9	3.8	8.46e-01	0	43	104	0	29	10032
2026-01-13 16:20:51.81	322.85	11.45	-34.0	-42.9	3.8	8.47e-01	0	42	104	0	29	10010
2026-01-13 16:20:52.82	322.98	11.38	-34.0	-42.9	3.8	8.46e-01	0	43	104	0	29	10011
2026-01-13 16:20:53.83	323.10	11.31	-34.0	-42.9	3.8	8.47e-01	0	43	104	0	29	10031
2026-01-13 16:20:54.84	323.23	11.24	-34.0	-42.9	3.8	8.46e-01	0	43	104	0	29	10075
2026-01-13 16:20:55.84	323.35	11.17	-34.0	-42.9	3.8	8.47e-01	0	42	104	0	29	10011
2026-01-13 16:20:56.85	323.47	11.10	-34.0	-42.9	3.8	8.46e-01	0	43	104	0	29	10024
2026-01-13 16:20:57.86	323.59	11.03	-34.0	-42.9	3.8	8.46e-01	0	43	104	0	29	10030
2026-01-13 16:20:58.86	323.72	10.97	-34.0	-42.9	3.8	8.46e-01	0	43	104	0	29	10007
2026-01-13 16:20:59.87	323.84	10.90	-34.0	-42.9	3.8	8.47e-01	0	43	104	0	29	10032
2026-01-13 16:21:00.87	323.96	10.83	-34.0	-42.9	3.8	8.45e-01	0	43	104	0	29	10052
2026-01-13 16:21:01.88	324.08	10.76	-34.0	-42.9	3.8	8.47e-01	0	42	104	0	29	10054
2026-01-13 16:21:02.88	324.20	10.69	-34.0	-42.9	3.8	8.46e-01	0	43	104	0	29	10057
2026-01-13 16:21:03.89	324.32	10.63	-34.0	-42.9	3.8	8.46e-01	0	43	104	0	29	9990
2026-01-13 16:21:04.90	324.44	10.56	-34.0	-42.9	3.8	8.47e-01	0	43	104	0	29	10012
2026-01-13 16:21:05.90	324.55	10.49	-34.0	-42.9	3.8	8.45e-01	0	42	104	0	29	10055
2026-01-13 16:21:06.91	324.67	10.42	-34.0	-42.9	3.8	8.46e-01	0	43	104	0	29	10026
2026-01-13 16:21:07.91	324.79	10.35	-34.0	-42.9	3.8	8.46e-01	0	43	104	0	29	10014
2026-01-13 16:21:08.93	324.91	10.29	-34.0	-42.9	3.8	8.45e-01	0	43	104	0	29	10031
2026-01-13 16:21:09.93	325.02	10.22	-34.0	-42.9	3.8	8.47e-01	0	43	104	0	29	9986
2026-01-13 16:21:10.94	325.14	10.15	-34.0	-42.9	3.8	8.46e-01	0	43	104	0	29	10036
2026-01-13 16:21:11.95	325.25	10.08	-34.0	-42.9	3.8	8.46e-01	0	43	104	0	29	10064
2026-01-13 16:21:12.96	325.37	10.01	-34.0	-42.9	3.8	8.46e-01	0	43	104	0	29	10025
2026-01-13 16:21:13.96	325.48	9.95	-34.0	-42.9	3.8	8.46e-01	0	43	104	0	29	10021
2026-01-13 16:21:14.96	325.60	9.88	-34.0	-42.9	3.8	8.48e-01	0	43	104	0	29	10041
2026-01-13 16:21:15.97	325.71	9.81	-34.0	-42.9	3.8	8.47e-01	0	43	104	0	29	10006
2026-01-13 16:21:16.98	325.82	9.75	-34.0	-42.9	3.8	8.47e-01	0	43	104	0	29	10046
2026-01-13 16:21:17.98	325.93	9.68	-34.0	-42.9	3.8	8.46e-01	0	43	104	0	29	10044
2026-01-13 16:21:18.99	326.05	9.61	-34.0	-42.9	3.8	8.45e-01	0	43	104	0	29	10015
2026-01-13 16:21:20.00	326.16	9.55	-34.0	-42.9	3.8	8.47e-01	0	43	104	0	29	10022
2026-01-13 16:21:21.00	326.27	9.48	-34.0	-42.9	3.8	8.45e-01	0	43	104	0	29	10016
2026-01-13 16:21:22.01	326.38	9.41	-34.0	-42.9	3.8	8.46e-01	0	43	104	0	29	10033
2026-01-13 16:21:23.02	326.49	9.35	-34.0	-42.9	3.8	8.46e-01	0	43	104	0	29	10013
2026-01-13 16:21:24.02	326.60	9.28	-34.0	-42.9	3.8	8.46e-01	0	43	104	0	29	10064
2026-01-13 16:21:25.03	326.70	9.21	-34.0	-42.9	3.8	8.46e-01	0	43	104	0	29	10023
2026-01-13 16:21:26.03	326.81	9.15	-34.0	-42.9	3.8	8.47e-01	0	43	104	0	29	10032
2026-01-13 16:21:27.03	326.92	9.08	-34.0	-42.9	3.8	8.47e-01	0	43	104	0	29	10015
2026-01-13 16:21:28.04	327.03	9.02	-34.0	-42.9	3.8	8.48e-01	0	43	104	0	29	10036
2026-01-13 16:21:29.04	327.13	8.95	-34.0	-42.9	3.8	8.45e-01	0	43	104	0	29	10019
2026-01-13 16:21:30.05	327.24	8.88	-34.0	-42.8	3.8	8.47e-01	0	43	104	0	29	9986
2026-01-13 16:21:31.05	327.35	8.82	-34.0	-42.9	3.8	8.46e-01	0	43	104	0	29	10054
2026-01-13 16:21:32.06	327.45	8.75	-34.0	-42.9	3.8	8.46e-01	0	43	104	0	29	10009
2026-01-13 16:21:33.07	327.56	8.69	-34.0	-42.9	3.8	8.47e-01	0	43	104	0	29	10054
2026-01-13 16:21:34.08	327.66	8.62	-34.0	-42.9	3.8	8.46e-01	0	43	104	0	29	10040
2026-01-13 16:21:35.08	327.77	8.56	-34.0	-42.9	3.8	8.46e-01	0	43	104	0	29	10014
2026-01-13 16:21:36.08	327.87	8.49	-34.0	-42.9	3.8	8.47e-01	0	43	104	0	29	10004
2026-01-13 16:21:37.09	327.97	8.43	-34.0	-42.9	3.8	8.46e-01	0	43	104	0	29	10033
2026-01-13 16:21:38.10	328.08	8.36	-34.0	-42.9	3.8	8.46e-01	0	43	104	0	29	10034
2026-01-13 16:21:39.10	328.18	8.30	-34.0	-42.9	3.8	8.45e-01	0	43	104	0	29	10028
2026-01-13 16:21:40.10	328.28	8.23	-34.0	-42.8	3.8	8.47e-01	0	43	104	0	29	9983
2026-01-13 16:21:41.11	328.38	8.17	-34.0	-42.9	3.8	8.46e-01	0	43	104	0	29	10053
2026-01-13 16:21:42.12	328.48	8.10	-34.0	-42.9	3.8	8.47e-01	0	43	104	0	29	10033
2026-01-13 16:21:43.12	328.58	8.04	-34.0	-42.8	3.8	8.45e-01	0	43	104	0	29	9968
2026-01-13 16:21:44.13	328.68	7.97	-34.0	-42.9	3.8	8.47e-01	0	43	104	0	29	10018
2026-01-13 16:21:45.14	328.78	7.91	-34.0	-42.9	3.8	8.46e-01	0	43	104	0	29	10053
2026-01-13 16:21:46.15	328.88	7.84	-34.0	-42.9	3.8	8.47e-01	0	43	104	0	29	10029
2026-01-13 16:21:47.15	328.98	7.78	-34.0	-42.9	3.8	8.46e-01	0	43	104	0	29	10015
2026-01-13 16:21:48.17	329.08	7.71	-34.0	-42.9	3.8	8.45e-01	0	43	104	0	29	10010
2026-01-13 16:21:49.17	329.18	7.65	-34.0	-42.9	3.8	8.46e-01	0	43	104	0	29	10015
2026-01-13 16:21:50.17	329.27	7.59	-34.0	-42.9	3.8	8.46e-01	0	43	104	0	29	9985
2026-01-13 16:21:51.18	329.37	7.52	-34.0	-42.9	3.8	8.46e-01	0	43	104	0	29	10025
2026-01-13 16:21:52.18	329.47	7.46	-34.0	-42.9	3.8	8.45e-01	0	43	104	0	29	10010
2026-01-13 16:21:53.19	329.57	7.40	-34.0	-42.9	3.8	8.46e-01	0	43	104	0	29	10036
2026-01-13 16:21:54.19	329.66	7.33	-34.0	-42.9	3.8	8.46e-01	0	43	104	0	29	10019
2026-01-13 16:21:55.20	329.76	7.27	-34.0	-42.9	3.8	8.46e-01	0	43	104	0	29	10034
2026-01-13 16:21:56.21	329.85	7.20	-34.0	-42.9	3.8	8.47e-01	0	43	104	0	29	10024
2026-01-13 16:21:57.22	329.95	7.14	-34.0	-42.9	3.8	8.46e-01	0	43	104	0	29	10005
2026-01-13 16:21:58.22	330.04	7.08	-34.0	-42.9	3.8	8.46e-01	0	43	104	0	29	9994
2026-01-13 16:21:59.23	330.14	7.02	-34.0	-42.9	3.8	8.46e-01	0	43	104	0	29	10028

#Closed at: 2026-01-13 16:21:59
#Recorded file [0 MB]: D:/data/31010_260113_191143.dat