passes_logs/2026/01/13/R2M6_AANII_01/R2M6_AANII_01__20260113_015253_SUOMI_NPP_rec.log

#Pass ID: 20260113_015253_SUOMI NPP
#Satellite: SUOMI NPP
#Configuration: NPP
#almurnet v.1.7.20240730
#Start time: 2026-01-13 01:52:53

#Version: 2.2.20231116
#Station: R2M6_AANII_01
#Location: 30.233357 lon 59.946436 lat
#TLE: 1 37849U 11061A   26012.28456845  .00000093  00000+0  65163-4 0  9999
#TLE: 2 37849  98.7807 314.3566 0002508  68.3553 291.7890 14.19524725736322

#Time	Az	El	Level	Level2	SNR	BER	BlckErr	Temp	State	Recorded	gain1	gain2
2026-01-13 01:52:53.11	11.95	6.99	-32.0	-39.0	4.3	1.41e+00	0	39	0	0	24	8057
2026-01-13 01:52:54.12	11.88	7.06	-32.1	-39.7	4.2	1.43e+00	0	39	104	0	24	8594
2026-01-13 01:52:55.13	11.81	7.13	-32.1	-39.5	5.0	7.06e-01	0	40	0	0	24	8394
2026-01-13 01:52:56.13	11.74	7.20	-32.1	-39.1	5.3	5.58e-01	0	40	0	1048576	24	8040
2026-01-13 01:52:57.14	11.66	7.27	-32.1	-39.4	5.1	6.20e-01	0	40	0	3145728	24	8295
2026-01-13 01:52:58.15	11.59	7.34	-32.1	-39.1	5.3	5.76e-01	0	40	0	5242880	24	8003
2026-01-13 01:52:59.16	11.52	7.42	-32.0	-38.6	5.6	4.79e-01	0	40	0	7340032	24	7618
2026-01-13 01:53:00.16	11.45	7.49	-32.0	-38.3	5.7	4.03e-01	0	40	0	9437184	24	7425
2026-01-13 01:53:01.16	11.37	7.56	-32.0	-38.0	6.0	3.77e-01	0	40	0	10485760	24	7212
2026-01-13 01:53:02.17	11.30	7.63	-32.0	-38.1	5.9	3.72e-01	0	40	0	12582912	24	7282
2026-01-13 01:53:03.18	11.22	7.70	-31.8	-37.4	6.7	2.34e-01	0	40	0	14680064	23	6862
2026-01-13 01:53:04.19	11.15	7.77	-31.6	-36.3	7.4	1.23e-01	0	40	0	16777216	23	6169
2026-01-13 01:53:05.19	11.08	7.84	-31.4	-35.8	8.3	7.55e-02	0	40	0	18874368	22	6022
2026-01-13 01:53:06.19	11.00	7.91	-31.2	-35.0	8.9	3.05e-02	0	40	0	19922944	22	5601
2026-01-13 01:53:07.20	10.92	7.98	-30.9	-34.6	9.7	1.40e-02	0	40	0	22020096	21	5492
2026-01-13 01:53:08.21	10.85	8.06	-30.8	-34.2	10.0	9.76e-03	0	40	0	24117248	21	5334
2026-01-13 01:53:09.22	10.77	8.13	-30.9	-34.4	9.9	1.40e-02	0	40	0	26214400	21	5401
2026-01-13 01:53:10.23	10.69	8.20	-30.9	-34.5	9.8	8.70e-03	0	40	0	28311552	21	5454
2026-01-13 01:53:11.23	10.62	8.27	-30.9	-34.6	9.8	8.25e-03	0	40	0	29360128	21	5475
2026-01-13 01:53:12.24	10.54	8.34	-30.8	-34.0	10.2	9.08e-03	0	40	0	31457280	21	5222
2026-01-13 01:53:13.24	10.46	8.42	-30.9	-34.4	9.9	1.16e-02	0	40	0	33554432	21	5424
2026-01-13 01:53:14.25	10.38	8.49	-30.9	-34.6	9.7	9.54e-03	0	40	0	35651584	21	5480
2026-01-13 01:53:15.25	10.31	8.56	-30.9	-34.6	9.7	1.06e-02	0	40	0	37748736	21	5500
2026-01-13 01:53:16.26	10.23	8.64	-31.0	-34.7	9.6	1.44e-02	0	40	0	38797312	21	5542
2026-01-13 01:53:17.26	10.15	8.71	-31.1	-34.6	9.4	1.70e-02	0	40	0	40894464	22	5403
2026-01-13 01:53:18.26	10.07	8.78	-30.9	-34.3	9.9	1.09e-02	0	40	0	42991616	21	5365
2026-01-13 01:53:19.27	9.99	8.85	-30.7	-33.6	10.5	7.60e-03	0	40	0	45088768	21	5058
2026-01-13 01:53:20.27	9.91	8.93	-30.5	-33.2	10.8	3.21e-03	0	40	0	47185920	21	4892
2026-01-13 01:53:21.27	9.83	9.00	-30.4	-33.4	11.0	2.37e-03	0	40	0	48234496	20	5068
2026-01-13 01:53:22.28	9.74	9.08	-30.3	-33.1	11.3	1.52e-03	0	40	0	50331648	20	4958
2026-01-13 01:53:23.29	9.66	9.15	-30.3	-33.0	11.4	1.34e-03	0	41	0	52428800	20	4908
2026-01-13 01:53:24.30	9.58	9.22	-30.4	-33.2	11.2	1.97e-03	0	41	0	54525952	20	4996
2026-01-13 01:53:25.30	9.49	9.30	-30.3	-32.9	11.5	1.25e-03	0	40	0	56623104	20	4845
2026-01-13 01:53:26.30	9.41	9.37	-30.3	-32.8	11.6	8.95e-04	0	40	0	57671680	20	4816
2026-01-13 01:53:27.31	9.33	9.45	-30.3	-33.0	11.4	3.69e-03	0	40	0	59768832	20	4887
2026-01-13 01:53:28.32	9.24	9.52	-30.2	-32.7	11.6	8.70e-04	0	41	0	61865984	20	4799
2026-01-13 01:53:29.32	9.16	9.60	-30.3	-32.9	11.4	1.04e-03	0	41	0	63963136	20	4870
2026-01-13 01:53:30.33	9.07	9.67	-30.4	-33.3	11.2	3.78e-03	0	41	0	66060288	20	5032
2026-01-13 01:53:31.34	8.99	9.75	-30.4	-32.9	11.1	4.39e-03	0	41	0	67108864	21	4751
2026-01-13 01:53:32.34	8.90	9.82	-30.4	-32.6	11.4	1.25e-03	0	41	0	69206016	21	4638
2026-01-13 01:53:33.34	8.81	9.90	-30.2	-32.7	11.6	3.92e-03	0	41	0	71303168	20	4782
2026-01-13 01:53:34.35	8.73	9.98	-30.2	-32.7	11.7	3.54e-03	0	40	0	73400320	20	4769
2026-01-13 01:53:35.36	8.64	10.05	-30.3	-32.8	11.6	6.64e-04	0	41	0	74448896	20	4831
2026-01-13 01:53:36.36	8.55	10.13	-30.3	-32.8	11.6	3.75e-03	0	41	0	76546048	20	4799
2026-01-13 01:53:37.37	8.46	10.20	-30.3	-33.0	11.5	3.79e-03	0	41	0	78643200	20	4877
2026-01-13 01:53:38.37	8.37	10.28	-30.5	-33.4	11.2	1.01e-03	0	41	0	80740352	20	5042
2026-01-13 01:53:39.38	8.28	10.36	-30.5	-33.0	11.1	4.02e-03	0	41	0	82837504	21	4786
2026-01-13 01:53:40.38	8.19	10.43	-30.5	-33.0	11.1	5.21e-03	0	41	0	84934656	21	4797
2026-01-13 01:53:41.39	8.10	10.51	-30.3	-32.4	11.5	1.43e-03	0	41	0	85983232	21	4580
2026-01-13 01:53:42.40	8.01	10.59	-30.3	-33.0	11.5	3.65e-03	0	41	0	88080384	20	4873
2026-01-13 01:53:43.41	7.92	10.67	-30.4	-33.0	11.5	3.76e-03	0	41	0	90177536	20	4868
2026-01-13 01:53:44.42	7.83	10.75	-30.3	-33.0	11.5	1.17e-03	0	41	0	92274688	20	4865
2026-01-13 01:53:45.42	7.74	10.82	-30.5	-32.8	11.2	4.01e-03	0	41	0	94371840	21	4719
2026-01-13 01:53:46.43	7.64	10.90	-30.4	-33.3	11.3	3.58e-03	0	41	0	95420416	20	4980
2026-01-13 01:53:47.44	7.55	10.98	-30.3	-32.7	11.8	7.11e-04	0	41	0	97517568	20	4757
2026-01-13 01:53:48.44	7.45	11.06	-30.3	-32.8	11.7	3.19e-03	0	41	0	99614720	20	4814
2026-01-13 01:53:49.44	7.36	11.14	-30.3	-32.8	11.6	8.00e-04	0	41	0	101711872	20	4811
2026-01-13 01:53:50.45	7.26	11.21	-30.4	-33.2	11.4	1.21e-03	0	41	0	102760448	20	4967
2026-01-13 01:53:51.46	7.17	11.29	-30.4	-33.2	11.4	3.74e-03	0	41	0	104857600	20	4967
2026-01-13 01:53:52.47	7.07	11.37	-30.4	-32.5	11.6	8.57e-04	0	41	0	106954752	21	4586
2026-01-13 01:53:53.47	6.98	11.45	-30.3	-32.3	11.7	7.35e-04	0	41	0	109051904	21	4541
2026-01-13 01:53:54.47	6.88	11.53	-30.4	-33.0	11.5	3.22e-03	0	41	0	111149056	20	4893
2026-01-13 01:53:55.48	6.78	11.61	-30.3	-32.8	11.7	2.86e-03	0	41	0	113246208	20	4783
2026-01-13 01:53:56.48	6.68	11.69	-30.3	-32.7	11.8	6.16e-04	0	41	0	114294784	20	4774
2026-01-13 01:53:57.49	6.58	11.77	-30.2	-32.5	12.0	3.04e-03	0	41	0	116391936	20	4680
2026-01-13 01:53:58.49	6.48	11.85	-30.3	-32.9	11.7	3.22e-03	0	41	0	118489088	20	4829
2026-01-13 01:53:59.50	6.38	11.93	-30.2	-32.4	12.0	4.12e-04	0	41	0	120586240	20	4658
2026-01-13 01:54:00.51	6.28	12.01	-30.0	-32.0	12.3	2.86e-04	0	41	0	121634816	20	4497
2026-01-13 01:54:01.51	6.18	12.09	-30.0	-32.0	12.3	2.91e-03	0	41	0	123731968	20	4496
2026-01-13 01:54:02.52	6.08	12.17	-30.1	-32.1	12.3	1.75e-04	0	41	0	125829120	20	4537
2026-01-13 01:54:03.53	5.98	12.25	-30.0	-32.0	12.3	1.69e-04	0	41	0	127926272	20	4498
2026-01-13 01:54:04.53	5.87	12.33	-30.1	-32.1	12.2	4.14e-04	0	41	0	130023424	20	4550
2026-01-13 01:54:05.52	5.77	12.41	-30.2	-32.6	12.0	5.30e-04	0	41	0	131072000	20	4706
2026-01-13 01:54:06.53	5.67	12.49	-30.2	-32.6	12.0	3.20e-04	0	41	0	133169152	20	4701
2026-01-13 01:54:07.53	5.56	12.58	-30.2	-32.4	12.1	2.58e-04	0	41	0	135266304	20	4640
2026-01-13 01:54:08.54	5.46	12.66	-30.1	-32.0	12.4	4.90e-04	0	41	0	137363456	20	4504
2026-01-13 01:54:09.55	5.35	12.74	-30.0	-31.9	12.5	1.67e-04	0	41	0	139460608	20	4476
2026-01-13 01:54:10.55	5.25	12.82	-30.1	-32.1	12.3	1.74e-04	0	41	0	140509184	20	4547
2026-01-13 01:54:11.56	5.14	12.90	-30.1	-32.1	12.4	1.48e-04	0	41	0	142606336	20	4525
2026-01-13 01:54:12.56	5.03	12.99	-30.1	-32.1	12.3	3.18e-03	0	41	0	144703488	20	4544
2026-01-13 01:54:13.56	4.92	13.07	-30.0	-31.9	12.5	1.34e-04	0	41	0	146800640	20	4462
2026-01-13 01:54:14.56	4.81	13.15	-30.0	-31.8	12.6	7.55e-05	0	41	0	148897792	20	4426
2026-01-13 01:54:15.57	4.70	13.23	-29.9	-31.6	12.7	9.38e-04	0	41	0	149946368	20	4357
2026-01-13 01:54:16.58	4.59	13.32	-29.8	-31.7	13.0	5.26e-05	0	41	0	152043520	19	4476
2026-01-13 01:54:17.58	4.48	13.40	-29.9	-31.5	12.8	6.86e-05	0	41	0	154140672	20	4320
2026-01-13 01:54:18.59	4.37	13.49	-29.8	-31.7	13.0	4.11e-05	0	41	0	156237824	19	4472
2026-01-13 01:54:19.59	4.26	13.57	-29.8	-31.6	13.2	2.74e-05	0	41	0	158334976	19	4432
2026-01-13 01:54:20.59	4.15	13.65	-29.9	-31.9	12.9	3.89e-05	0	41	0	159383552	19	4524
2026-01-13 01:54:21.60	4.03	13.74	-29.8	-31.6	13.1	4.50e-05	0	41	0	161480704	19	4437
2026-01-13 01:54:22.60	3.92	13.82	-29.8	-31.7	13.0	3.20e-05	0	41	0	163577856	19	4461
2026-01-13 01:54:23.60	3.80	13.90	-29.9	-31.9	13.0	3.66e-05	0	41	0	165675008	19	4530
2026-01-13 01:54:24.61	3.69	13.99	-29.9	-31.9	12.9	4.19e-05	0	41	0	167772160	19	4539
2026-01-13 01:54:25.62	3.57	14.07	-30.0	-31.7	12.7	5.79e-05	0	41	0	168820736	20	4393
2026-01-13 01:54:26.62	3.46	14.16	-30.0	-31.8	12.6	6.48e-05	0	42	0	170917888	20	4430
2026-01-13 01:54:27.63	3.34	14.24	-30.2	-32.3	12.3	9.23e-05	0	41	0	173015040	20	4584
2026-01-13 01:54:28.64	3.22	14.33	-29.7	-31.9	12.2	2.09e-04	0	41	0	175112192	20	4628
2026-01-13 01:54:29.65	3.10	14.42	-28.6	-30.8	12.4	1.08e-04	0	41	0	177209344	19	4634
2026-01-13 01:54:30.65	2.98	14.50	-30.1	-32.6	12.2	9.15e-05	0	41	0	178257920	19	4771
2026-01-13 01:54:31.66	2.86	14.59	-30.0	-31.7	12.5	8.31e-05	0	42	0	180355072	20	4388
2026-01-13 01:54:32.66	2.74	14.67	-30.0	-31.8	11.4	6.40e-05	0	41	0	182452224	20	4425
2026-01-13 01:54:33.67	2.62	14.76	-29.9	-31.6	12.8	7.09e-05	0	42	0	184549376	20	4352
2026-01-13 01:54:34.68	2.49	14.85	-29.9	-31.4	13.0	5.49e-05	0	42	0	186646528	20	4277
2026-01-13 01:54:35.68	2.37	14.93	-29.9	-31.6	12.7	4.95e-05	0	42	0	187695104	20	4366
2026-01-13 01:54:36.69	2.24	15.02	-30.0	-32.1	12.8	7.55e-05	0	41	0	189792256	19	4625
2026-01-13 01:54:37.70	2.12	15.11	-30.0	-32.2	12.8	4.65e-05	0	42	0	191889408	19	4628
2026-01-13 01:54:38.70	1.99	15.19	-30.1	-32.2	12.4	9.07e-05	0	41	0	193986560	20	4546
2026-01-13 01:54:39.71	1.87	15.28	-30.0	-31.8	12.6	2.73e-03	0	41	0	196083712	20	4422
2026-01-13 01:54:40.71	1.74	15.37	-30.1	-32.0	12.5	9.53e-05	0	42	0	197132288	20	4482
2026-01-13 01:54:41.72	1.61	15.45	-30.2	-32.4	12.2	1.72e-04	0	42	0	199229440	20	4646
2026-01-13 01:54:42.72	1.48	15.54	-30.3	-32.5	12.2	3.10e-03	0	41	0	201326592	20	4665
2026-01-13 01:54:43.73	1.35	15.63	-30.3	-32.5	12.2	4.81e-04	0	42	0	203423744	20	4668
2026-01-13 01:54:44.73	1.22	15.72	-30.3	-32.5	12.1	1.95e-04	0	42	0	205520896	20	4673
2026-01-13 01:54:45.74	1.09	15.81	-30.1	-32.0	12.5	1.17e-04	0	41	0	206569472	20	4490
2026-01-13 01:54:46.74	0.96	15.89	-30.1	-31.9	12.6	2.94e-04	0	42	0	208666624	20	4452
2026-01-13 01:54:47.75	0.83	15.98	-29.8	-31.6	13.2	6.40e-05	0	41	0	210763776	19	4434
2026-01-13 01:54:48.76	0.69	16.07	-29.9	-31.9	13.1	3.66e-05	0	42	0	212860928	19	4515
2026-01-13 01:54:49.76	0.56	16.16	-29.8	-31.7	13.2	2.33e-04	0	42	0	214958080	19	4438
2026-01-13 01:54:50.77	0.43	16.25	-29.8	-31.5	13.4	2.43e-03	0	42	0	216006656	19	4379
2026-01-13 01:54:51.77	0.29	16.34	-29.9	-31.8	13.1	1.83e-05	0	42	0	218103808	19	4498
2026-01-13 01:54:52.78	0.15	16.43	-29.8	-31.6	13.3	2.68e-04	0	42	0	220200960	19	4415
2026-01-13 01:54:53.79	0.01	16.52	-29.8	-31.7	13.3	2.80e-03	0	42	0	222298112	19	4448
2026-01-13 01:54:54.79	359.88	16.61	-29.9	-31.9	13.1	2.78e-03	0	42	0	224395264	19	4521
2026-01-13 01:54:55.79	359.74	16.70	-29.8	-31.5	13.4	2.51e-05	0	42	0	225443840	19	4389
2026-01-13 01:54:56.80	359.60	16.79	-30.1	-32.0	12.7	2.84e-03	0	42	0	227540992	20	4466
2026-01-13 01:54:57.81	359.46	16.88	-30.2	-32.1	12.6	2.63e-03	0	42	0	229638144	20	4501
2026-01-13 01:54:58.81	359.32	16.97	-30.3	-32.4	12.4	7.93e-05	0	42	0	231735296	20	4603
2026-01-13 01:54:59.82	359.17	17.06	-30.5	-32.6	11.9	2.90e-03	0	42	0	233832448	21	4605
2026-01-13 01:55:00.82	359.03	17.15	-30.5	-32.5	11.9	3.48e-03	0	42	0	234881024	21	4541
2026-01-13 01:55:01.83	358.88	17.24	-30.4	-32.4	12.0	4.48e-04	0	42	0	236978176	21	4507
2026-01-13 01:55:02.83	358.74	17.33	-30.4	-32.8	12.1	3.43e-03	0	42	0	239075328	20	4762
2026-01-13 01:55:03.84	358.59	17.42	-30.4	-32.2	12.2	3.45e-03	0	42	0	241172480	21	4459
2026-01-13 01:55:04.85	358.44	17.51	-30.5	-32.7	11.9	6.45e-04	0	42	0	243269632	21	4609
2026-01-13 01:55:05.85	358.30	17.60	-30.6	-33.0	11.7	5.33e-04	0	41	0	244318208	21	4728
2026-01-13 01:55:06.86	358.15	17.69	-30.5	-32.7	11.8	3.11e-03	0	42	0	246415360	21	4627
2026-01-13 01:55:07.87	358.00	17.79	-30.5	-32.6	11.9	7.04e-04	0	42	0	248512512	21	4590
2026-01-13 01:55:08.88	357.85	17.88	-30.4	-32.4	12.0	3.01e-03	0	42	0	250609664	21	4515
2026-01-13 01:55:09.88	357.69	17.97	-30.5	-32.7	11.8	3.46e-03	0	42	0	252706816	21	4632
2026-01-13 01:55:10.89	357.54	18.06	-30.5	-32.7	11.9	7.90e-04	0	42	0	253755392	21	4618
2026-01-13 01:55:11.89	357.39	18.15	-30.4	-32.3	12.2	3.58e-03	0	42	0	255852544	21	4467
2026-01-13 01:55:12.90	357.23	18.25	-30.3	-32.5	12.4	5.43e-04	0	42	0	257949696	20	4632
2026-01-13 01:55:13.90	357.08	18.34	-30.2	-32.1	12.7	4.83e-04	0	42	0	260046848	20	4484
2026-01-13 01:55:14.91	356.92	18.43	-30.1	-31.9	12.7	2.90e-03	0	42	0	261095424	20	4447
2026-01-13 01:55:15.92	356.76	18.52	-30.1	-31.8	12.8	3.55e-04	0	42	0	263192576	20	4421
2026-01-13 01:55:16.92	356.60	18.62	-29.8	-31.1	13.3	3.93e-04	0	42	0	265289728	20	4179
2026-01-13 01:55:17.93	356.44	18.71	-30.0	-31.6	13.0	2.67e-03	0	42	0	267386880	20	4344
2026-01-13 01:55:18.94	356.28	18.80	-30.0	-31.5	13.0	2.91e-03	0	42	0	269484032	20	4319
2026-01-13 01:55:19.94	356.12	18.90	-30.0	-31.6	13.0	2.67e-05	0	42	0	271581184	20	4335
2026-01-13 01:55:20.95	355.96	18.99	-30.2	-32.3	12.6	2.90e-03	0	42	0	272629760	20	4574
2026-01-13 01:55:21.95	355.80	19.08	-30.2	-32.2	12.6	2.81e-03	0	42	0	274726912	20	4551
2026-01-13 01:55:22.96	355.63	19.18	-30.4	-32.7	12.3	1.90e-04	0	42	0	276824064	20	4700
2026-01-13 01:55:23.97	355.46	19.27	-30.3	-32.4	12.5	1.12e-03	0	42	0	278921216	20	4598
2026-01-13 01:55:24.97	355.30	19.36	-30.1	-32.0	12.7	2.75e-03	0	42	0	281018368	20	4457
2026-01-13 01:55:25.98	355.13	19.46	-30.2	-32.1	12.7	7.70e-05	0	42	0	282066944	20	4483
2026-01-13 01:55:26.98	354.96	19.55	-30.1	-32.0	12.8	4.80e-04	0	42	0	284164096	20	4448
2026-01-13 01:55:27.98	354.79	19.64	-30.0	-31.7	13.0	2.84e-03	0	42	0	286261248	20	4368
2026-01-13 01:55:28.98	354.62	19.74	-30.0	-31.7	13.0	3.09e-04	0	42	0	288358400	20	4353
2026-01-13 01:55:29.99	354.45	19.83	-30.0	-31.5	13.1	3.28e-05	0	42	0	289406976	20	4310
2026-01-13 01:55:31.00	354.28	19.93	-29.9	-31.8	13.4	4.00e-04	0	42	0	291504128	19	4470
2026-01-13 01:55:32.01	354.10	20.02	-30.0	-31.6	13.1	3.56e-04	0	42	0	293601280	20	4311
2026-01-13 01:55:33.01	353.93	20.11	-30.3	-32.4	12.5	9.07e-05	0	42	0	295698432	20	4591
2026-01-13 01:55:34.02	353.75	20.21	-30.2	-32.1	12.7	1.14e-04	0	42	0	297795584	20	4503
2026-01-13 01:55:35.01	353.58	20.30	-30.2	-32.3	12.6	3.37e-04	0	42	0	299892736	20	4545
2026-01-13 01:55:36.02	353.40	20.40	-30.5	-32.5	12.1	1.75e-04	0	42	0	300941312	21	4543
2026-01-13 01:55:37.03	353.22	20.49	-30.4	-32.1	12.3	2.10e-04	0	42	0	303038464	21	4409
2026-01-13 01:55:38.03	353.04	20.59	-30.3	-32.1	12.4	1.51e-04	0	42	0	305135616	21	4405
2026-01-13 01:55:39.03	352.85	20.68	-30.3	-32.5	12.5	2.42e-03	0	42	0	307232768	20	4623
2026-01-13 01:55:40.04	352.67	20.77	-30.2	-32.2	12.6	1.01e-04	0	42	0	308281344	20	4539
2026-01-13 01:55:41.04	352.49	20.87	-30.2	-32.2	12.6	5.64e-05	0	42	0	310378496	20	4529
2026-01-13 01:55:42.04	352.30	20.96	-30.0	-31.6	13.0	2.50e-04	0	42	0	312475648	20	4336
2026-01-13 01:55:43.04	352.12	21.06	-29.9	-31.4	13.1	4.57e-05	0	42	0	314572800	20	4260
2026-01-13 01:55:44.05	351.93	21.15	-30.0	-31.8	12.9	4.65e-05	0	42	0	316669952	20	4385
2026-01-13 01:55:45.05	351.74	21.25	-29.8	-31.6	13.4	1.88e-04	0	42	0	317718528	19	4427
2026-01-13 01:55:46.06	351.55	21.34	-29.9	-31.7	13.3	1.67e-03	0	42	0	319815680	19	4463
2026-01-13 01:55:47.07	351.36	21.44	-30.0	-31.6	13.0	2.13e-05	0	42	0	321912832	20	4349
2026-01-13 01:55:48.08	351.16	21.53	-30.2	-32.2	12.6	7.78e-05	0	42	0	324009984	20	4536
2026-01-13 01:55:49.08	350.97	21.63	-30.1	-31.9	12.8	1.74e-04	0	42	0	326107136	20	4420
2026-01-13 01:55:50.09	350.78	21.72	-29.8	-31.1	13.4	1.67e-05	0	42	0	327155712	20	4176
2026-01-13 01:55:51.10	350.58	21.82	-29.8	-31.6	13.5	1.44e-05	0	42	0	329252864	19	4400
2026-01-13 01:55:52.11	350.38	21.91	-29.9	-31.7	13.3	9.10e-06	0	42	0	331350016	19	4455
2026-01-13 01:55:53.11	350.18	22.01	-29.9	-31.8	13.4	1.52e-05	0	42	0	333447168	19	4467
2026-01-13 01:55:54.12	349.98	22.10	-29.8	-31.6	12.8	1.14e-05	0	42	0	335544320	19	4393
2026-01-13 01:55:55.12	349.78	22.20	-30.0	-31.5	13.1	1.29e-05	0	42	0	336592896	20	4281
2026-01-13 01:55:56.13	349.58	22.29	-30.1	-31.7	12.1	3.20e-05	0	42	0	338690048	20	4358
2026-01-13 01:55:57.14	349.38	22.39	-30.2	-32.0	12.2	3.81e-05	0	42	0	340787200	20	4429
2026-01-13 01:55:58.14	349.17	22.48	-30.0	-31.5	13.1	3.35e-05	0	42	0	342884352	20	4298
2026-01-13 01:55:59.15	348.96	22.58	-30.1	-31.7	13.0	2.28e-05	0	42	0	344981504	20	4341
2026-01-13 01:56:00.15	348.76	22.67	-30.1	-31.8	12.9	4.27e-05	0	42	0	346030080	20	4394
2026-01-13 01:56:01.15	348.55	22.76	-30.0	-31.9	13.3	1.98e-05	0	42	0	348127232	19	4506
2026-01-13 01:56:02.16	348.34	22.86	-29.9	-31.6	13.5	1.90e-05	0	42	0	350224384	19	4403
2026-01-13 01:56:03.16	348.13	22.95	-29.8	-31.3	13.7	9.85e-04	0	42	0	352321536	19	4312
2026-01-13 01:56:04.17	347.92	23.05	-29.8	-31.4	13.7	8.30e-06	0	42	0	354418688	19	4332
2026-01-13 01:56:05.18	347.70	23.14	-30.0	-31.4	13.1	9.10e-06	0	42	0	355467264	20	4268
2026-01-13 01:56:06.18	347.49	23.24	-30.1	-31.7	13.0	1.36e-04	0	42	0	357564416	20	4358
2026-01-13 01:56:07.19	347.27	23.33	-30.4	-32.7	12.5	6.40e-05	0	42	0	359661568	20	4670
2026-01-13 01:56:08.19	347.05	23.42	-30.5	-32.4	12.3	1.80e-04	0	42	0	361758720	21	4478
2026-01-13 01:56:09.19	346.84	23.52	-30.3	-32.0	12.6	1.52e-04	0	42	0	363855872	21	4342
2026-01-13 01:56:10.19	346.62	23.61	-30.4	-32.1	12.4	1.41e-04	0	42	0	364904448	21	4393
2026-01-13 01:56:11.20	346.39	23.70	-30.3	-31.8	12.7	1.17e-04	0	42	0	367001600	21	4289
2026-01-13 01:56:12.20	346.17	23.80	-30.2	-32.1	12.7	6.71e-05	0	42	0	369098752	20	4496
2026-01-13 01:56:13.20	345.95	23.89	-30.2	-32.0	12.8	7.93e-05	0	42	0	371195904	20	4431
2026-01-13 01:56:14.21	345.72	23.98	-29.9	-31.1	13.4	1.86e-03	0	42	0	373293056	20	4176
2026-01-13 01:56:15.21	345.50	24.08	-29.9	-31.3	13.3	1.37e-05	0	42	0	374341632	20	4208
2026-01-13 01:56:16.21	345.27	24.17	-29.9	-31.3	13.4	1.44e-05	0	42	0	376438784	20	4217
2026-01-13 01:56:17.22	345.04	24.26	-30.2	-32.1	12.9	2.22e-03	0	42	0	378535936	20	4483
2026-01-13 01:56:18.22	344.81	24.35	-30.4	-32.7	12.5	7.40e-05	0	42	0	380633088	20	4670
2026-01-13 01:56:19.22	344.58	24.45	-30.6	-32.7	12.1	9.53e-05	0	42	0	382730240	21	4583
2026-01-13 01:56:20.23	344.34	24.54	-30.6	-32.7	12.0	2.51e-03	0	42	0	383778816	21	4596
2026-01-13 01:56:21.23	344.11	24.63	-30.3	-32.3	12.7	2.62e-03	0	42	0	385875968	20	4554
2026-01-13 01:56:22.24	343.87	24.72	-30.2	-32.0	12.9	6.10e-05	0	42	0	387973120	20	4434
2026-01-13 01:56:23.25	343.63	24.81	-30.0	-31.5	13.3	2.63e-03	0	42	0	390070272	20	4287
2026-01-13 01:56:24.25	343.39	24.90	-30.0	-31.6	13.2	2.54e-03	0	42	0	391118848	20	4300
2026-01-13 01:56:25.25	343.15	25.00	-30.0	-31.6	13.2	2.21e-05	0	42	0	393216000	20	4327
2026-01-13 01:56:26.26	342.91	25.09	-29.9	-31.1	13.4	2.65e-03	0	42	0	395313152	20	4167
2026-01-13 01:56:27.27	342.66	25.18	-29.9	-31.3	13.4	2.48e-03	0	42	0	397410304	20	4223
2026-01-13 01:56:28.27	342.42	25.27	-30.0	-31.4	13.3	1.98e-05	0	42	0	399507456	20	4251
2026-01-13 01:56:29.27	342.17	25.36	-30.1	-31.8	13.0	2.67e-05	0	42	0	401604608	20	4376
2026-01-13 01:56:30.28	341.92	25.45	-29.9	-31.8	13.5	2.65e-03	0	42	0	402653184	19	4449
2026-01-13 01:56:31.28	341.68	25.54	-29.9	-31.6	13.6	9.10e-06	0	42	0	404750336	19	4399
2026-01-13 01:56:32.28	341.43	25.62	-29.5	-30.6	14.2	2.44e-03	0	42	0	406847488	19	4088
2026-01-13 01:56:33.29	341.17	25.71	-29.2	-30.4	14.7	2.70e-03	0	42	0	408944640	18	4134
2026-01-13 01:56:34.29	340.92	25.80	-29.1	-30.0	14.9	0.00e+00	0	42	0	409993216	18	4019
2026-01-13 01:56:35.30	340.66	25.89	-29.0	-29.8	15.0	2.66e-03	0	42	0	412090368	18	3964
2026-01-13 01:56:36.30	340.41	25.98	-29.2	-30.5	14.6	1.87e-03	0	42	0	414187520	18	4160
2026-01-13 01:56:37.31	340.15	26.07	-29.5	-30.6	14.1	0.00e+00	0	42	0	416284672	19	4114
2026-01-13 01:56:38.31	339.89	26.15	-29.6	-30.9	14.0	2.64e-03	0	42	0	418381824	19	4176
2026-01-13 01:56:39.32	339.63	26.24	-29.8	-31.6	13.5	2.38e-03	0	42	0	419430400	19	4419
2026-01-13 01:56:40.32	339.37	26.33	-29.9	-31.3	13.3	1.14e-05	0	42	0	421527552	20	4242
2026-01-13 01:56:41.33	339.10	26.41	-30.0	-31.7	13.0	3.55e-03	0	42	0	423624704	20	4363
2026-01-13 01:56:42.34	338.84	26.50	-30.0	-31.5	13.2	3.59e-03	0	42	0	425721856	20	4306
2026-01-13 01:56:43.35	338.57	26.58	-30.0	-31.5	13.2	2.13e-05	0	42	0	427819008	20	4288
2026-01-13 01:56:44.35	338.30	26.67	-29.9	-31.7	13.4	3.65e-03	0	42	0	428867584	19	4428
2026-01-13 01:56:45.36	338.03	26.75	-29.8	-31.5	13.6	3.47e-03	0	42	0	430964736	19	4384
2026-01-13 01:56:46.36	337.76	26.84	-29.9	-31.7	13.5	9.10e-06	0	42	0	433061888	19	4436
2026-01-13 01:56:47.37	337.49	26.92	-30.0	-32.0	13.3	3.44e-03	0	42	0	435159040	19	4537
2026-01-13 01:56:48.37	337.21	27.00	-30.1	-31.7	13.0	3.65e-03	0	42	0	437256192	20	4362
2026-01-13 01:56:49.38	336.94	27.08	-30.2	-32.0	13.0	1.26e-04	0	42	0	438304768	20	4446
2026-01-13 01:56:50.38	336.66	27.17	-30.2	-32.2	12.8	1.23e-03	0	42	0	440401920	20	4510
2026-01-13 01:56:51.39	336.38	27.25	-29.9	-31.4	13.3	3.02e-03	0	42	0	442499072	20	4250
2026-01-13 01:56:52.40	336.10	27.33	-29.9	-31.2	13.4	1.83e-04	0	42	0	444596224	20	4205
2026-01-13 01:56:53.41	335.82	27.41	-29.8	-31.1	13.5	1.60e-05	0	42	0	446693376	20	4161
2026-01-13 01:56:54.41	335.54	27.49	-29.9	-31.6	13.6	1.13e-03	0	42	0	447741952	19	4404
2026-01-13 01:56:55.42	335.25	27.57	-29.9	-31.7	13.5	2.28e-04	0	42	0	449839104	19	4417
2026-01-13 01:56:56.43	334.97	27.65	-30.0	-31.6	13.2	1.22e-05	0	42	0	451936256	20	4316
2026-01-13 01:56:57.43	334.68	27.73	-30.0	-31.6	13.1	1.15e-03	0	42	0	454033408	20	4327
2026-01-13 01:56:58.42	334.40	27.80	-29.9	-31.3	13.4	2.62e-04	0	42	0	456130560	20	4240
2026-01-13 01:56:59.43	334.10	27.88	-30.2	-32.0	12.9	1.38e-03	0	42	0	457179136	20	4458
2026-01-13 01:57:00.43	333.81	27.96	-30.1	-31.9	13.0	3.66e-05	0	42	0	459276288	20	4427
2026-01-13 01:57:01.43	333.52	28.03	-30.3	-32.4	12.6	2.59e-05	0	42	0	461373440	20	4587
2026-01-13 01:57:02.43	333.23	28.11	-30.5	-32.8	12.4	4.27e-04	0	42	0	463470592	20	4731
2026-01-13 01:57:03.43	332.94	28.18	-30.6	-32.9	12.0	1.86e-04	0	42	0	465567744	21	4668
2026-01-13 01:57:04.44	332.64	28.25	-30.8	-33.5	11.6	5.48e-04	0	42	0	466616320	21	4901
2026-01-13 01:57:05.45	332.34	28.33	-31.0	-33.9	11.3	1.23e-03	0	42	0	468713472	21	5050
2026-01-13 01:57:06.45	332.04	28.40	-31.4	-34.7	10.4	3.23e-03	0	42	0	470810624	22	5277
2026-01-13 01:57:07.46	331.74	28.47	-31.2	-34.1	10.9	2.86e-03	0	42	0	472907776	22	5027
2026-01-13 01:57:08.46	331.44	28.54	-30.9	-33.2	11.5	1.34e-03	0	42	0	475004928	22	4686
2026-01-13 01:57:09.47	331.13	28.61	-30.7	-33.0	12.0	3.78e-04	0	42	0	476053504	21	4696
2026-01-13 01:57:10.48	330.83	28.68	-30.6	-32.6	12.2	1.97e-04	0	42	0	478150656	21	4558
2026-01-13 01:57:11.48	330.52	28.75	-30.3	-32.0	12.5	1.95e-04	0	42	0	480247808	21	4331
2026-01-13 01:57:12.49	330.21	28.82	-30.2	-32.0	13.0	6.48e-05	0	42	0	482344960	20	4438
2026-01-13 01:57:13.49	329.91	28.89	-30.4	-32.6	12.6	6.10e-05	0	42	0	484442112	20	4632
2026-01-13 01:57:14.49	329.60	28.95	-30.5	-32.4	12.4	1.88e-04	0	42	0	485490688	21	4489
2026-01-13 01:57:15.49	329.29	29.02	-30.7	-33.1	11.9	3.18e-04	0	42	0	487587840	21	4723
2026-01-13 01:57:16.50	328.97	29.09	-30.8	-33.4	11.7	4.74e-04	0	42	0	489684992	21	4830
2026-01-13 01:57:17.50	328.66	29.15	-30.6	-32.7	12.0	3.54e-04	0	42	0	491782144	21	4613
2026-01-13 01:57:18.51	328.34	29.21	-30.4	-32.2	12.5	1.81e-04	0	42	0	493879296	21	4419
2026-01-13 01:57:19.52	328.03	29.28	-30.5	-32.9	12.5	8.08e-05	0	42	0	494927872	20	4783
2026-01-13 01:57:20.52	327.71	29.34	-30.4	-32.8	12.4	1.01e-04	0	42	0	497025024	20	4730
2026-01-13 01:57:21.53	327.39	29.40	-30.4	-32.1	12.5	1.90e-04	0	42	0	499122176	21	4412
2026-01-13 01:57:22.53	327.07	29.46	-29.0	-31.2	12.4	1.45e-04	0	42	0	501219328	20	4621
2026-01-13 01:57:23.54	326.75	29.52	-30.5	-32.9	11.7	1.70e-04	0	42	0	503316480	20	4776
2026-01-13 01:57:24.54	326.43	29.58	-30.6	-32.8	11.7	3.50e-04	0	42	0	504365056	21	4654
2026-01-13 01:57:25.55	326.10	29.63	-30.4	-32.9	11.1	2.59e-04	0	42	0	506462208	20	4769
2026-01-13 01:57:26.55	325.78	29.69	-30.2	-32.2	11.7	2.75e-03	0	42	0	508559360	20	4517
2026-01-13 01:57:27.55	325.45	29.75	-30.1	-31.9	12.8	3.35e-05	0	42	0	510656512	20	4426
2026-01-13 01:57:28.55	325.13	29.80	-29.8	-31.1	13.2	6.48e-05	0	42	0	511705088	20	4166
2026-01-13 01:57:29.56	324.80	29.85	-29.8	-31.5	13.6	1.29e-05	0	42	0	513802240	19	4377
2026-01-13 01:57:30.57	324.47	29.91	-29.8	-31.6	13.6	4.50e-06	0	42	0	515899392	19	4394
2026-01-13 01:57:31.57	324.14	29.96	-30.0	-31.9	13.4	9.90e-06	0	42	0	517996544	19	4485
2026-01-13 01:57:32.58	323.81	30.01	-30.0	-31.5	13.2	1.22e-05	0	42	0	520093696	20	4291
2026-01-13 01:57:33.59	323.47	30.06	-30.2	-32.1	12.9	2.85e-04	0	42	0	522190848	20	4465
2026-01-13 01:57:34.59	323.14	30.11	-30.2	-32.1	12.7	7.78e-05	0	42	0	523239424	20	4484
2026-01-13 01:57:35.60	322.80	30.16	-30.0	-31.5	13.2	6.86e-05	0	42	0	525336576	20	4282
2026-01-13 01:57:36.61	322.47	30.20	-29.7	-30.8	13.7	1.67e-05	0	42	0	527433728	20	4096
2026-01-13 01:57:37.61	322.13	30.25	-29.7	-31.2	13.6	2.80e-03	0	42	0	529530880	19	4279
2026-01-13 01:57:38.61	321.79	30.29	-29.6	-31.1	13.9	2.20e-06	0	42	0	530579456	19	4234
2026-01-13 01:57:39.61	321.46	30.34	-29.4	-30.5	14.3	0.00e+00	0	42	0	532676608	19	4062
2026-01-13 01:57:40.62	321.12	30.38	-29.5	-30.7	14.2	2.44e-03	0	42	0	534773760	19	4137
2026-01-13 01:57:41.62	320.78	30.42	-29.6	-31.0	13.9	5.30e-06	0	42	0	536870912	19	4217
2026-01-13 01:57:42.63	320.43	30.46	-29.6	-31.0	13.9	9.10e-06	0	42	0	538968064	19	4231
2026-01-13 01:57:43.62	320.10	30.50	-29.7	-31.3	13.7	2.74e-03	0	42	0	540016640	19	4296
2026-01-13 01:57:44.63	319.75	30.54	-29.7	-31.2	13.8	2.27e-03	0	42	0	542113792	19	4265
2026-01-13 01:57:45.64	319.41	30.58	-29.9	-31.8	13.5	6.10e-06	0	42	0	544210944	19	4445
2026-01-13 01:57:46.65	319.06	30.61	-30.1	-31.8	13.1	2.62e-03	0	42	0	546308096	20	4367
2026-01-13 01:57:47.65	318.72	30.65	-30.3	-32.4	12.7	2.38e-03	0	42	0	548405248	20	4590
2026-01-13 01:57:48.66	318.37	30.68	-30.8	-33.5	11.6	4.38e-04	0	42	0	549453824	21	4899
2026-01-13 01:57:49.66	318.03	30.71	-31.3	-34.4	10.6	1.18e-03	0	42	0	551550976	22	5150
2026-01-13 01:57:50.67	317.68	30.74	-31.6	-35.0	9.7	1.02e-02	0	42	0	553648128	23	5313
2026-01-13 01:57:51.67	317.33	30.77	-31.6	-35.0	9.7	1.25e-02	0	42	0	555745280	23	5359
2026-01-13 01:57:52.67	316.98	30.80	-31.3	-34.7	10.4	7.45e-03	0	42	0	557842432	22	5279
2026-01-13 01:57:53.68	316.63	30.83	-31.0	-33.6	11.2	2.92e-03	0	42	0	558891008	22	4836
2026-01-13 01:57:54.69	316.28	30.86	-31.0	-33.5	11.3	1.67e-03	0	42	0	560988160	22	4779
2026-01-13 01:57:55.70	315.93	30.88	-31.2	-33.9	11.0	2.69e-03	0	42	0	563085312	22	4928
2026-01-13 01:57:56.71	315.58	30.91	-31.1	-33.8	11.1	4.01e-03	0	42	0	565182464	22	4907
2026-01-13 01:57:57.72	315.22	30.93	-31.0	-33.4	11.4	1.94e-03	0	42	0	567279616	22	4738
2026-01-13 01:57:58.72	314.87	30.95	-30.7	-33.1	11.8	2.96e-03	0	42	0	568328192	21	4721
2026-01-13 01:57:59.73	314.52	30.97	-30.4	-32.2	12.5	2.42e-03	0	42	0	570425344	21	4406
2026-01-13 01:58:00.73	314.17	30.99	-30.2	-32.2	12.8	2.91e-04	0	42	0	572522496	20	4514
2026-01-13 01:58:01.74	313.81	31.01	-30.2	-32.1	12.9	2.77e-03	0	42	0	574619648	20	4482
2026-01-13 01:58:02.74	313.46	31.03	-30.1	-31.7	13.1	2.43e-03	0	42	0	576716800	20	4337
2026-01-13 01:58:03.75	313.10	31.05	-30.0	-31.6	13.2	1.96e-04	0	42	0	577765376	20	4327
2026-01-13 01:58:04.76	312.75	31.06	-30.4	-32.5	12.7	2.76e-03	0	42	0	579862528	20	4608
2026-01-13 01:58:05.77	312.39	31.07	-30.5	-32.5	12.4	2.51e-03	0	42	0	581959680	21	4503
2026-01-13 01:58:06.78	312.03	31.09	-30.6	-32.6	12.2	1.79e-04	0	42	0	584056832	21	4568
2026-01-13 01:58:07.78	311.68	31.10	-30.6	-32.8	12.0	2.62e-03	0	42	0	586153984	21	4629
2026-01-13 01:58:08.79	311.32	31.11	-30.7	-33.0	11.9	3.28e-03	0	42	0	587202560	21	4695
2026-01-13 01:58:09.79	310.97	31.11	-30.6	-32.9	12.0	3.74e-04	0	42	0	589299712	21	4666
2026-01-13 01:58:10.80	310.61	31.12	-30.8	-33.3	11.7	3.41e-03	0	42	0	591396864	21	4831
2026-01-13 01:58:11.80	310.25	31.13	-30.9	-33.8	11.3	3.52e-03	0	42	0	593494016	21	5006
2026-01-13 01:58:12.81	309.90	31.13	-30.8	-33.5	11.5	1.36e-03	0	42	0	595591168	21	4905
2026-01-13 01:58:13.81	309.54	31.14	-30.5	-32.6	12.1	4.71e-04	0	42	0	596639744	21	4569
2026-01-13 01:58:14.81	309.19	31.14	-30.3	-32.4	12.6	2.49e-03	0	42	0	598736896	20	4591
2026-01-13 01:58:15.81	308.83	31.14	-29.9	-31.4	13.3	3.46e-04	0	42	0	600834048	20	4242
2026-01-13 01:58:16.81	308.48	31.14	-29.9	-31.3	13.3	1.75e-05	0	42	0	602931200	20	4238
2026-01-13 01:58:17.82	308.12	31.14	-30.0	-31.5	13.3	1.63e-04	0	42	0	605028352	20	4298
2026-01-13 01:58:18.83	307.76	31.13	-30.3	-32.4	12.7	3.24e-04	0	42	0	606076928	20	4567
2026-01-13 01:58:19.83	307.41	31.13	-30.6	-32.7	12.1	2.14e-04	0	42	0	608174080	21	4617
2026-01-13 01:58:20.84	307.05	31.13	-30.8	-33.4	11.8	8.12e-04	0	42	0	610271232	21	4849
2026-01-13 01:58:21.85	306.69	31.12	-30.9	-33.6	11.4	1.11e-03	0	42	0	612368384	21	4943
2026-01-13 01:58:22.85	306.34	31.11	-30.9	-33.8	11.3	3.85e-03	0	42	0	614465536	21	5001
2026-01-13 01:58:23.85	305.98	31.10	-30.6	-32.8	12.1	5.27e-04	0	42	0	615514112	21	4629
2026-01-13 01:58:24.85	305.63	31.09	-30.4	-32.1	12.6	2.27e-04	0	42	0	617611264	21	4369
2026-01-13 01:58:25.86	305.27	31.08	-30.2	-32.0	13.0	2.55e-03	0	42	0	619708416	20	4428
2026-01-13 01:58:26.87	304.91	31.07	-29.9	-31.3	13.4	1.67e-05	0	42	0	621805568	20	4229
2026-01-13 01:58:27.88	304.56	31.05	-29.7	-30.7	13.8	2.20e-06	0	42	0	623902720	20	4047
2026-01-13 01:58:28.88	304.20	31.04	-29.7	-31.3	13.8	1.49e-03	0	42	0	624951296	19	4290
2026-01-13 01:58:29.89	303.85	31.02	-29.8	-31.4	13.8	5.30e-06	0	42	0	627048448	19	4318
2026-01-13 01:58:30.90	303.49	31.00	-30.1	-31.8	13.2	1.29e-05	0	42	0	629145600	20	4370
2026-01-13 01:58:31.91	303.14	30.99	-30.5	-32.5	12.4	5.16e-04	0	42	0	631242752	21	4507
2026-01-13 01:58:32.92	302.78	30.97	-30.9	-33.6	11.6	8.95e-04	0	42	0	633339904	21	4912
2026-01-13 01:58:33.92	302.43	30.94	-30.9	-33.6	11.6	7.54e-04	0	42	0	634388480	21	4905
2026-01-13 01:58:34.92	302.08	30.92	-30.8	-33.2	11.9	2.34e-04	0	42	0	636485632	21	4744
2026-01-13 01:58:35.93	301.73	30.90	-30.5	-32.3	12.5	1.83e-04	0	42	0	638582784	21	4446
2026-01-13 01:58:36.93	301.38	30.87	-30.8	-33.4	11.7	1.64e-04	0	42	0	640679936	21	4808
2026-01-13 01:58:37.94	301.03	30.85	-30.5	-32.2	12.5	2.07e-04	0	42	0	642777088	21	4424
2026-01-13 01:58:38.94	300.68	30.82	-30.6	-32.6	12.3	1.40e-04	0	42	0	643825664	21	4554
2026-01-13 01:58:39.95	300.33	30.79	-30.6	-32.6	12.3	1.91e-04	0	42	0	645922816	21	4551
2026-01-13 01:58:40.96	299.98	30.76	-30.9	-33.6	11.6	3.46e-04	0	42	0	648019968	21	4912
2026-01-13 01:58:41.97	299.63	30.73	-30.8	-33.2	11.8	4.32e-04	0	42	0	650117120	21	4749
2026-01-13 01:58:42.97	299.28	30.70	-30.5	-32.5	12.3	1.59e-04	0	42	0	652214272	21	4502
2026-01-13 01:58:43.98	298.93	30.67	-30.2	-31.7	12.8	6.10e-05	0	42	0	653262848	21	4251
2026-01-13 01:58:44.99	298.58	30.63	-30.4	-32.6	12.6	4.88e-05	0	42	0	655360000	20	4630
2026-01-13 01:58:45.99	298.24	30.60	-30.3	-32.4	12.7	8.69e-05	0	42	0	657457152	20	4586
2026-01-13 01:58:47.00	297.89	30.56	-30.4	-32.7	12.5	9.15e-05	0	42	0	659554304	20	4693
2026-01-13 01:58:48.00	297.55	30.52	-30.9	-33.6	11.5	2.74e-04	0	42	0	661651456	21	4925
2026-01-13 01:58:49.01	297.21	30.48	-30.6	-32.9	11.9	3.85e-04	0	42	0	662700032	21	4683
2026-01-13 01:58:50.02	296.86	30.44	-30.3	-32.6	12.5	1.80e-04	0	42	0	664797184	20	4658
2026-01-13 01:58:51.03	296.52	30.40	-29.9	-31.3	13.4	2.28e-05	0	42	0	666894336	20	4223
2026-01-13 01:58:52.04	296.18	30.36	-29.7	-31.2	13.8	7.60e-06	0	42	0	668991488	19	4265
2026-01-13 01:58:53.04	295.84	30.32	-29.7	-31.3	13.8	2.41e-03	0	42	0	671088640	19	4294
2026-01-13 01:58:54.05	295.50	30.27	-29.5	-30.7	14.1	7.00e-07	0	42	0	672137216	19	4142
2026-01-13 01:58:55.06	295.16	30.23	-29.5	-31.1	14.2	0.00e+00	0	42	0	674234368	18	4345
2026-01-13 01:58:56.06	294.83	30.18	-29.4	-30.6	14.1	1.50e-06	0	42	0	676331520	19	4093
2026-01-13 01:58:57.07	294.49	30.13	-29.7	-31.2	13.8	3.07e-04	0	42	0	678428672	19	4293
2026-01-13 01:58:58.08	294.15	30.09	-29.8	-31.6	13.5	1.29e-05	0	42	0	680525824	19	4386
2026-01-13 01:58:59.08	293.82	30.04	-30.0	-31.5	13.3	1.06e-05	0	42	0	681574400	20	4275
2026-01-13 01:59:00.07	293.49	29.99	-30.2	-32.1	12.9	7.78e-05	0	42	0	683671552	20	4463
2026-01-13 01:59:01.08	293.16	29.94	-30.2	-32.0	12.9	3.58e-05	0	42	0	685768704	20	4452
2026-01-13 01:59:02.08	292.83	29.88	-30.3	-32.5	12.6	5.03e-05	0	42	0	687865856	20	4623
2026-01-13 01:59:03.09	292.50	29.83	-30.4	-32.5	12.5	1.43e-04	0	42	0	689963008	20	4628
2026-01-13 01:59:04.09	292.17	29.78	-30.1	-31.9	12.9	2.25e-03	0	42	0	691011584	20	4429
2026-01-13 01:59:05.10	291.84	29.72	-30.0	-31.5	13.3	1.98e-05	0	42	0	693108736	20	4283
2026-01-13 01:59:06.11	291.52	29.66	-30.0	-31.6	13.2	1.44e-05	0	42	0	695205888	20	4314
2026-01-13 01:59:07.12	291.19	29.61	-30.3	-32.3	12.7	2.73e-03	0	42	0	697303040	20	4545
2026-01-13 01:59:08.12	290.87	29.55	-30.1	-31.8	13.0	2.55e-03	0	42	0	699400192	20	4377
2026-01-13 01:59:09.13	290.54	29.49	-30.3	-32.3	12.7	6.40e-05	0	42	0	700448768	20	4552
2026-01-13 01:59:10.13	290.22	29.43	-30.1	-31.9	12.9	2.69e-03	0	42	0	702545920	20	4407
2026-01-13 01:59:11.14	289.90	29.37	-30.1	-31.7	13.1	2.77e-03	0	42	0	704643072	20	4337
2026-01-13 01:59:12.14	289.58	29.31	-30.1	-31.8	13.0	2.82e-05	0	42	0	706740224	20	4379
2026-01-13 01:59:13.14	289.27	29.25	-30.2	-32.0	12.9	2.68e-03	0	42	0	708837376	20	4447
2026-01-13 01:59:14.15	288.95	29.18	-30.3	-32.4	12.7	2.52e-03	0	42	0	709885952	20	4577
2026-01-13 01:59:15.15	288.63	29.12	-30.5	-32.3	12.4	2.01e-04	0	42	0	711983104	21	4435
2026-01-13 01:59:16.15	288.32	29.06	-30.5	-32.6	12.3	1.14e-04	0	42	0	714080256	21	4535
2026-01-13 01:59:17.15	288.01	28.99	-30.8	-33.3	11.6	3.25e-03	0	42	0	716177408	21	4808
2026-01-13 01:59:18.16	287.70	28.92	-30.6	-32.9	12.0	4.41e-04	0	42	0	717225984	21	4653
2026-01-13 01:59:19.16	287.39	28.86	-30.4	-32.6	12.5	2.67e-03	0	42	0	719323136	20	4644
2026-01-13 01:59:20.17	287.08	28.79	-30.6	-32.7	12.1	2.87e-03	0	42	0	721420288	21	4594
2026-01-13 01:59:21.18	286.77	28.72	-30.8	-33.5	11.5	4.42e-04	0	42	0	723517440	21	4860
2026-01-13 01:59:22.18	286.46	28.65	-31.1	-33.8	11.0	3.32e-03	0	42	0	725614592	22	4891
2026-01-13 01:59:23.19	286.16	28.58	-31.2	-34.1	10.8	4.83e-03	0	42	0	726663168	22	5033
2026-01-13 01:59:24.19	285.86	28.51	-31.2	-34.1	10.7	2.76e-03	0	42	0	728760320	22	5053
2026-01-13 01:59:25.20	285.55	28.44	-31.3	-34.4	10.6	5.91e-03	0	42	0	730857472	22	5182
2026-01-13 01:59:26.21	285.25	28.36	-31.2	-34.3	10.6	6.31e-03	0	42	0	732954624	22	5109
2026-01-13 01:59:27.21	284.95	28.29	-31.4	-35.0	10.0	6.21e-03	0	42	0	735051776	22	5413
2026-01-13 01:59:28.22	284.65	28.22	-31.5	-34.7	9.9	1.21e-02	0	42	0	737148928	23	5187
2026-01-13 01:59:29.23	284.35	28.14	-31.6	-34.9	9.8	8.39e-03	0	42	0	738197504	23	5294
2026-01-13 01:59:30.23	284.06	28.07	-31.6	-35.0	9.8	1.24e-02	0	42	0	740294656	23	5311
2026-01-13 01:59:31.23	283.77	27.99	-31.4	-34.9	10.1	8.71e-03	0	42	0	742391808	22	5365
2026-01-13 01:59:32.23	283.48	27.92	-31.3	-34.7	10.2	8.08e-03	0	42	0	744488960	22	5284
2026-01-13 01:59:33.24	283.18	27.84	-31.5	-34.7	9.8	9.30e-03	0	42	0	745537536	23	5239
2026-01-13 01:59:34.24	282.89	27.76	-30.9	-33.4	11.1	2.63e-03	0	42	0	747634688	22	4802
2026-01-13 01:59:35.25	282.60	27.68	-30.6	-32.5	11.8	7.06e-04	0	42	0	749731840	22	4473
2026-01-13 01:59:36.26	282.32	27.61	-30.3	-31.6	12.4	3.45e-04	0	42	0	751828992	22	4166
2026-01-13 01:59:37.27	282.03	27.53	-29.9	-30.9	13.2	2.74e-05	0	42	0	753926144	21	4022
2026-01-13 01:59:38.27	281.75	27.45	-29.6	-30.6	13.7	3.35e-05	0	42	0	754974720	20	4015
2026-01-13 01:59:39.27	281.47	27.37	-29.6	-30.5	13.8	3.00e-06	0	42	0	757071872	20	3992
2026-01-13 01:59:40.28	281.18	27.28	-29.8	-30.9	13.5	1.06e-05	0	42	0	759169024	20	4112
2026-01-13 01:59:41.29	280.90	27.20	-29.6	-30.4	13.9	1.50e-06	0	42	0	761266176	20	3964
2026-01-13 01:59:42.29	280.62	27.12	-29.7	-30.9	13.6	3.80e-06	0	42	0	763363328	20	4103
2026-01-13 01:59:43.30	280.35	27.04	-29.8	-31.5	13.5	6.80e-06	0	42	0	764411904	19	4378
2026-01-13 01:59:44.30	280.07	26.96	-29.8	-31.5	13.6	1.67e-05	0	42	0	766509056	19	4369
2026-01-13 01:59:45.31	279.80	26.87	-29.8	-31.5	13.5	2.20e-06	0	42	0	768606208	19	4386
2026-01-13 01:59:46.31	279.52	26.79	-30.3	-32.6	12.5	2.55e-03	0	42	0	770703360	20	4642
2026-01-13 01:59:47.32	279.25	26.70	-30.4	-32.8	12.3	1.08e-04	0	42	0	772800512	20	4742
2026-01-13 01:59:48.32	278.98	26.62	-30.9	-33.9	11.1	7.16e-04	0	42	0	773849088	21	5057
2026-01-13 01:59:49.33	278.71	26.53	-30.8	-33.6	11.3	4.99e-03	0	42	0	775946240	21	4955
2026-01-13 01:59:50.34	278.45	26.45	-30.9	-33.4	11.2	1.86e-03	0	42	0	778043392	22	4757
2026-01-13 01:59:51.34	278.18	26.36	-30.5	-32.6	12.0	6.16e-04	0	42	0	780140544	21	4587
2026-01-13 01:59:52.35	277.92	26.28	-30.3	-32.4	12.5	3.20e-03	0	42	0	782237696	20	4614
2026-01-13 01:59:53.36	277.65	26.19	-30.4	-32.9	12.1	1.76e-04	0	42	0	783286272	20	4785
2026-01-13 01:59:54.36	277.39	26.10	-30.9	-33.9	11.2	7.99e-04	0	42	0	785383424	21	5072
2026-01-13 01:59:55.37	277.13	26.01	-31.1	-33.8	10.9	3.17e-03	0	42	0	787480576	22	4937
2026-01-13 01:59:56.37	276.87	25.93	-31.2	-34.3	10.5	3.22e-03	0	42	0	789577728	22	5138
2026-01-13 01:59:57.37	276.62	25.84	-31.2	-34.4	10.3	6.61e-03	0	42	0	791674880	22	5193
2026-01-13 01:59:58.38	276.36	25.75	-30.9	-33.3	11.2	2.77e-03	0	42	0	792723456	22	4750
2026-01-13 01:59:59.38	276.11	25.66	-30.5	-32.5	12.0	7.69e-04	0	42	0	794820608	21	4549
2026-01-13 02:00:00.39	275.86	25.57	-30.1	-31.3	12.9	7.09e-05	0	42	0	796917760	21	4157
2026-01-13 02:00:01.39	275.61	25.48	-29.9	-31.2	13.3	3.20e-05	0	42	0	799014912	20	4197
2026-01-13 02:00:02.40	275.36	25.39	-29.8	-30.9	13.5	1.90e-05	0	42	0	801112064	20	4117
2026-01-13 02:00:03.40	275.11	25.30	-29.8	-31.1	13.4	1.37e-05	0	42	0	802160640	20	4158
2026-01-13 02:00:04.41	274.86	25.21	-29.9	-31.3	13.3	2.36e-05	0	42	0	804257792	20	4225
2026-01-13 02:00:05.41	274.62	25.12	-29.8	-31.4	13.6	1.14e-05	0	42	0	806354944	19	4337
2026-01-13 02:00:06.41	274.37	25.03	-29.3	-30.2	14.2	3.00e-06	0	42	0	808452096	19	4006
2026-01-13 02:00:07.42	274.13	24.94	-29.0	-30.0	14.7	1.50e-06	0	42	0	810549248	18	4016
2026-01-13 02:00:08.42	273.89	24.85	-28.8	-29.5	15.1	0.00e+00	0	42	0	811597824	18	3884
2026-01-13 02:00:09.43	273.65	24.76	-28.9	-29.7	15.0	0.00e+00	0	42	0	813694976	18	3932
2026-01-13 02:00:10.43	273.41	24.67	-29.1	-30.1	14.8	7.00e-07	0	42	0	815792128	18	4040
2026-01-13 02:00:11.43	273.18	24.57	-28.9	-29.7	14.9	7.00e-07	0	42	0	817889280	18	3949
2026-01-13 02:00:12.43	272.94	24.48	-28.9	-29.6	15.0	0.00e+00	0	42	0	819986432	18	3924
2026-01-13 02:00:13.44	272.71	24.39	-29.0	-29.9	14.8	0.00e+00	0	42	0	821035008	18	4004
2026-01-13 02:00:14.45	272.47	24.30	-29.0	-29.9	14.7	7.00e-07	0	42	0	823132160	18	4014
2026-01-13 02:00:15.44	272.24	24.20	-28.6	-28.9	15.4	0.00e+00	0	42	0	825229312	18	3744
2026-01-13 02:00:16.45	272.01	24.11	-28.2	-28.6	15.8	0.00e+00	0	42	0	827326464	17	3750
2026-01-13 02:00:17.46	271.78	24.02	-28.1	-28.8	16.0	0.00e+00	0	42	0	828375040	16	3892
2026-01-13 02:00:18.47	271.55	23.92	-28.3	-29.2	15.7	0.00e+00	0	42	0	830472192	16	4001
2026-01-13 02:00:19.48	271.33	23.83	-28.4	-29.1	15.5	0.00e+00	0	42	0	832569344	17	3868
2026-01-13 02:00:20.49	271.10	23.74	-28.7	-29.6	15.2	0.00e+00	0	42	0	834666496	17	4028
2026-01-13 02:00:21.49	270.88	23.64	-28.9	-30.2	14.8	0.00e+00	0	42	0	836763648	17	4183
2026-01-13 02:00:22.50	270.66	23.55	-29.1	-30.1	14.6	7.00e-07	0	42	0	838860800	18	4074
2026-01-13 02:00:23.51	270.44	23.45	-29.1	-30.2	14.4	7.00e-07	0	42	0	839909376	18	4077
2026-01-13 02:00:24.51	270.22	23.36	-29.2	-30.4	14.4	0.00e+00	0	42	0	842006528	18	4155
2026-01-13 02:00:25.52	270.00	23.26	-29.1	-30.3	14.2	7.00e-07	0	42	0	844103680	18	4115
2026-01-13 02:00:26.52	269.78	23.17	-29.1	-30.2	14.6	4.50e-06	0	42	0	846200832	18	4100
2026-01-13 02:00:27.52	269.57	23.08	-29.2	-30.4	14.3	2.10e-03	0	43	0	848297984	18	4161
2026-01-13 02:00:28.53	269.35	22.98	-29.2	-30.4	14.3	1.50e-06	0	42	0	849346560	18	4137
2026-01-13 02:00:29.54	269.14	22.89	-29.2	-30.5	14.4	7.00e-07	0	42	0	851443712	18	4159
2026-01-13 02:00:30.55	268.93	22.79	-29.2	-30.4	14.5	6.30e-04	0	42	0	853540864	18	4136
2026-01-13 02:00:31.55	268.72	22.70	-29.2	-30.6	14.3	7.00e-07	0	42	0	855638016	18	4196
2026-01-13 02:00:32.55	268.51	22.60	-29.1	-30.2	14.5	0.00e+00	0	42	0	856686592	18	4099
2026-01-13 02:00:33.55	268.30	22.51	-28.7	-29.9	15.0	2.84e-03	0	42	0	858783744	17	4091
2026-01-13 02:00:34.56	268.10	22.41	-28.5	-29.4	15.3	2.27e-03	0	42	0	860880896	17	3950
2026-01-13 02:00:35.56	267.89	22.32	-28.3	-28.7	15.7	0.00e+00	0	42	0	862978048	17	3767
2026-01-13 02:00:36.57	267.69	22.22	-28.2	-29.0	15.9	3.08e-03	0	42	0	865075200	16	3928
2026-01-13 02:00:37.57	267.49	22.13	-27.8	-28.7	16.2	3.09e-03	0	42	0	867172352	15	3957
2026-01-13 02:00:38.57	267.29	22.03	-27.8	-28.5	16.2	3.10e-04	0	42	0	868220928	15	3918
2026-01-13 02:00:39.57	267.09	21.94	-27.8	-28.6	16.1	6.80e-06	0	42	0	870318080	15	3937
2026-01-13 02:00:40.58	266.89	21.84	-28.2	-28.9	15.9	3.64e-03	0	42	0	872415232	16	3923
2026-01-13 02:00:41.58	266.69	21.75	-28.4	-29.5	15.6	4.19e-04	0	42	0	874512384	16	4081
2026-01-13 02:00:42.59	266.49	21.65	-28.7	-29.6	15.2	5.30e-06	0	42	0	875560960	17	4021
2026-01-13 02:00:43.60	266.30	21.56	-28.7	-29.6	15.1	4.09e-03	0	42	0	877658112	17	4025
2026-01-13 02:00:44.60	266.11	21.46	-28.6	-29.5	15.3	3.56e-04	0	42	0	879755264	17	3979
2026-01-13 02:00:45.59	265.92	21.37	-28.6	-29.4	15.3	2.66e-03	0	42	0	881852416	17	3967
2026-01-13 02:00:46.60	265.72	21.27	-28.5	-29.3	15.4	0.00e+00	0	42	0	883949568	17	3932
2026-01-13 02:00:47.61	265.53	21.18	-28.5	-29.1	15.4	2.80e-04	0	42	0	884998144	17	3891
2026-01-13 02:00:48.61	265.34	21.08	-28.5	-29.3	15.4	2.52e-03	0	42	0	887095296	17	3923
2026-01-13 02:00:49.62	265.15	20.99	-28.7	-29.8	15.0	2.85e-03	0	42	0	889192448	17	4075
2026-01-13 02:00:50.63	264.97	20.89	-28.7	-29.6	15.2	2.72e-04	0	42	0	891289600	17	4018
2026-01-13 02:00:51.63	264.78	20.80	-28.6	-29.4	15.3	4.19e-03	0	42	0	893386752	17	3955
2026-01-13 02:00:52.64	264.60	20.70	-28.6	-29.5	15.2	2.59e-03	0	42	0	894435328	17	4000
2026-01-13 02:00:53.64	264.41	20.61	-28.6	-29.6	15.2	1.37e-05	0	42	0	896532480	17	4027
2026-01-13 02:00:54.64	264.23	20.51	-28.5	-29.3	15.3	2.83e-03	0	42	0	898629632	17	3945
2026-01-13 02:00:55.64	264.05	20.42	-28.8	-30.0	14.9	2.22e-03	0	42	0	900726784	17	4120
2026-01-13 02:00:56.64	263.87	20.32	-28.7	-29.7	15.1	0.00e+00	0	42	0	902823936	17	4063
2026-01-13 02:00:57.65	263.69	20.23	-28.7	-29.8	15.0	2.37e-04	0	42	0	903872512	17	4075
2026-01-13 02:00:58.66	263.52	20.13	-28.6	-29.5	15.2	2.94e-04	0	42	0	905969664	17	3975
2026-01-13 02:00:59.66	263.34	20.04	-28.6	-29.4	15.3	0.00e+00	0	42	0	908066816	17	3957
2026-01-13 02:01:00.67	263.16	19.95	-28.4	-29.1	15.4	8.15e-04	0	42	0	910163968	17	3884
2026-01-13 02:01:01.68	262.99	19.85	-28.5	-29.3	15.3	2.16e-03	0	42	0	912261120	17	3924
2026-01-13 02:01:02.69	262.81	19.76	-28.4	-29.1	15.4	0.00e+00	0	42	0	913309696	17	3874
2026-01-13 02:01:03.69	262.64	19.66	-28.3	-29.3	15.6	0.00e+00	0	42	0	915406848	16	4017
2026-01-13 02:01:04.70	262.47	19.57	-28.4	-29.6	15.4	2.02e-03	0	42	0	917504000	16	4109
2026-01-13 02:01:05.70	262.30	19.47	-28.7	-29.9	15.0	0.00e+00	0	42	0	919601152	17	4092
2026-01-13 02:01:06.70	262.13	19.38	-29.1	-30.3	14.4	2.00e-03	0	42	0	921698304	18	4129
2026-01-13 02:01:07.70	261.97	19.29	-29.3	-30.8	14.1	3.44e-04	0	42	0	922746880	18	4271
2026-01-13 02:01:08.71	261.80	19.19	-29.5	-30.8	13.7	6.10e-06	0	42	0	924844032	19	4193
2026-01-13 02:01:09.72	261.63	19.10	-29.6	-31.2	13.5	2.11e-03	0	42	0	926941184	19	4300
2026-01-13 02:01:10.72	261.47	19.01	-29.5	-30.8	13.7	3.37e-04	0	42	0	929038336	19	4178
2026-01-13 02:01:11.73	261.30	18.91	-29.4	-30.4	14.0	1.29e-05	0	42	0	931135488	19	4079
2026-01-13 02:01:12.73	261.14	18.82	-29.1	-30.2	14.5	1.73e-03	0	42	0	932184064	18	4084
2026-01-13 02:01:13.74	260.98	18.72	-28.9	-30.2	14.7	0.00e+00	0	42	0	934281216	17	4188
2026-01-13 02:01:14.75	260.82	18.63	-28.6	-29.4	15.2	0.00e+00	0	42	0	936378368	17	3969
2026-01-13 02:01:15.74	260.66	18.54	-28.6	-29.5	15.1	2.03e-03	0	42	0	938475520	17	4003
2026-01-13 02:01:16.75	260.50	18.45	-28.5	-29.2	15.3	2.22e-03	0	42	0	940572672	17	3917
2026-01-13 02:01:17.76	260.34	18.35	-28.5	-29.4	15.2	0.00e+00	0	42	0	941621248	17	3962
2026-01-13 02:01:18.76	260.18	18.26	-28.7	-29.7	15.1	0.00e+00	0	42	0	943718400	17	4042
2026-01-13 02:01:19.78	260.03	18.17	-28.6	-29.6	15.1	2.44e-03	0	42	0	945815552	17	4029
2026-01-13 02:01:20.78	259.87	18.07	-29.1	-30.3	14.4	0.00e+00	0	42	0	947912704	18	4126
2026-01-13 02:01:21.79	259.72	17.98	-29.1	-30.4	14.3	1.50e-06	0	42	0	950009856	18	4143
2026-01-13 02:01:22.79	259.57	17.89	-29.5	-30.8	13.7	2.21e-03	0	42	0	951058432	19	4202
2026-01-13 02:01:23.79	259.41	17.80	-29.6	-31.2	13.4	1.52e-05	0	42	0	953155584	19	4298
2026-01-13 02:01:24.80	259.26	17.71	-29.7	-31.5	13.2	1.83e-05	0	42	0	955252736	19	4399
2026-01-13 02:01:25.81	259.11	17.61	-29.9	-31.4	12.9	6.63e-05	0	42	0	957349888	20	4304
2026-01-13 02:01:26.81	258.96	17.52	-30.1	-31.9	12.5	7.78e-05	0	42	0	958398464	20	4468
2026-01-13 02:01:27.82	258.81	17.43	-30.0	-31.8	12.6	9.38e-05	0	42	0	960495616	20	4418
2026-01-13 02:01:28.83	258.66	17.34	-29.9	-32.0	12.9	3.87e-04	0	42	0	962592768	19	4560
2026-01-13 02:01:29.83	258.52	17.25	-29.8	-31.7	13.1	3.43e-05	0	42	0	964689920	19	4468
2026-01-13 02:01:30.84	258.37	17.16	-29.7	-31.4	13.3	1.83e-05	0	42	0	966787072	19	4373
2026-01-13 02:01:31.84	258.23	17.07	-30.0	-31.7	12.7	5.11e-05	0	42	0	968884224	20	4401
2026-01-13 02:01:32.85	258.08	16.98	-29.7	-30.9	13.2	5.11e-05	0	42	0	969932800	20	4118
2026-01-13 02:01:33.85	257.94	16.89	-29.6	-31.0	13.5	9.10e-06	0	42	0	972029952	19	4256
2026-01-13 02:01:34.85	257.80	16.80	-29.7	-31.5	13.3	1.67e-05	0	42	0	974127104	19	4396
2026-01-13 02:01:35.86	257.66	16.70	-29.9	-31.9	13.0	4.42e-05	0	42	0	976224256	19	4526
2026-01-13 02:01:36.87	257.52	16.61	-30.1	-32.1	12.4	9.91e-05	0	42	0	978321408	20	4524
2026-01-13 02:01:37.87	257.38	16.52	-30.1	-32.2	12.4	1.41e-04	0	42	0	979369984	20	4552
2026-01-13 02:01:38.88	257.24	16.43	-30.4	-33.0	11.8	3.72e-04	0	42	0	981467136	20	4837
2026-01-13 02:01:39.89	257.10	16.34	-30.3	-32.8	11.9	2.16e-03	0	42	0	983564288	20	4778
2026-01-13 02:01:40.89	256.96	16.26	-30.3	-32.7	11.9	3.39e-04	0	42	0	985661440	20	4752
2026-01-13 02:01:41.90	256.83	16.17	-30.2	-32.5	12.1	2.95e-04	0	42	0	986710016	20	4668
2026-01-13 02:01:42.91	256.69	16.08	-30.2	-32.3	12.2	2.42e-04	0	42	0	988807168	20	4608
2026-01-13 02:01:43.92	256.55	15.99	-30.1	-32.1	12.4	1.45e-04	0	42	0	990904320	20	4524
2026-01-13 02:01:44.93	256.42	15.90	-30.2	-32.4	12.1	1.85e-04	0	42	0	993001472	20	4627
2026-01-13 02:01:45.93	256.29	15.81	-30.0	-31.8	12.5	1.69e-04	0	42	0	995098624	20	4417
2026-01-13 02:01:46.94	256.15	15.72	-30.0	-31.9	12.5	3.49e-04	0	42	0	997195776	20	4446
2026-01-13 02:01:47.95	256.02	15.63	-30.4	-32.9	11.9	3.01e-04	0	42	0	998244352	20	4800
2026-01-13 02:01:48.95	255.89	15.54	-30.0	-31.7	12.6	2.49e-04	0	42	0	1000341504	20	4394
2026-01-13 02:01:49.96	255.76	15.45	-29.7	-31.5	13.1	7.56e-04	0	42	0	1002438656	19	4407
2026-01-13 02:01:50.97	255.63	15.37	-29.6	-31.2	13.3	1.62e-03	0	42	0	1004535808	19	4325
2026-01-13 02:01:51.97	255.50	15.28	-29.9	-31.8	12.9	2.05e-05	0	42	0	1006632960	19	4530
2026-01-13 02:01:52.98	255.38	15.19	-30.0	-31.9	12.5	9.07e-05	0	42	0	1007681536	20	4449
2026-01-13 02:01:53.99	255.25	15.10	-30.3	-32.8	11.8	4.12e-03	0	42	0	1009778688	20	4791
2026-01-13 02:01:54.99	255.12	15.02	-30.2	-32.3	12.1	5.15e-04	0	42	0	1011875840	20	4616
2026-01-13 02:01:55.99	255.00	14.93	-30.4	-33.1	11.6	3.41e-04	0	42	0	1013972992	20	4899
2026-01-13 02:01:57.00	254.87	14.84	-30.4	-32.9	11.7	3.96e-03	0	42	0	1015021568	20	4828
2026-01-13 02:01:58.01	254.75	14.76	-30.2	-32.4	12.0	3.87e-03	0	42	0	1017118720	20	4650
2026-01-13 02:01:59.01	254.63	14.67	-30.1	-32.3	12.1	2.17e-04	0	42	0	1019215872	20	4598
2026-01-13 02:02:00.02	254.50	14.58	-30.0	-31.9	12.3	3.29e-03	0	42	0	1021313024	20	4472
2026-01-13 02:02:01.02	254.38	14.50	-30.1	-32.1	12.2	3.61e-03	0	42	0	1023410176	20	4554
2026-01-13 02:02:02.03	254.26	14.41	-30.1	-32.2	12.2	7.39e-04	0	42	0	1025507328	20	4575
2026-01-13 02:02:03.04	254.14	14.33	-30.3	-32.7	11.9	2.30e-04	0	42	0	1026555904	20	4755
2026-01-13 02:02:04.04	254.02	14.24	-30.0	-31.9	12.4	3.30e-03	0	42	0	1028653056	20	4460
2026-01-13 02:02:05.05	253.90	14.15	-29.7	-31.6	13.0	8.47e-04	0	42	0	1030750208	19	4437
2026-01-13 02:02:06.06	253.78	14.07	-29.9	-31.7	12.5	7.40e-05	0	42	0	1032847360	20	4389
2026-01-13 02:02:07.07	253.67	13.98	-29.8	-31.8	12.9	2.71e-03	0	42	0	1034944512	19	4504
2026-01-13 02:02:08.08	253.55	13.90	-29.9	-31.9	12.9	6.27e-04	0	42	0	1035993088	19	4538
2026-01-13 02:02:09.08	253.43	13.81	-29.8	-31.8	12.9	2.81e-03	0	42	0	1038090240	19	4502
2026-01-13 02:02:10.09	253.32	13.73	-30.0	-31.8	12.5	3.24e-03	0	42	0	1040187392	20	4424
2026-01-13 02:02:11.09	253.20	13.64	-30.3	-32.8	11.8	1.60e-03	0	42	0	1042284544	20	4782
2026-01-13 02:02:12.09	253.09	13.56	-30.4	-33.0	11.6	4.07e-03	0	42	0	1043333120	20	4867
2026-01-13 02:02:13.10	252.98	13.48	-30.6	-33.1	11.2	1.07e-03	0	42	0	1045430272	21	4795
2026-01-13 02:02:14.11	252.86	13.39	-30.8	-33.7	10.7	4.16e-03	0	42	0	1047527424	21	5028
2026-01-13 02:02:15.11	252.75	13.31	-30.8	-33.8	10.7	6.24e-03	0	42	0	1049624576	21	5074
2026-01-13 02:02:16.11	252.64	13.23	-30.7	-33.6	10.8	7.14e-03	0	42	0	1051721728	21	5017
2026-01-13 02:02:17.12	252.53	13.14	-30.5	-32.7	11.4	2.81e-03	0	42	0	1053818880	21	4667
2026-01-13 02:02:18.12	252.42	13.06	-30.2	-32.4	12.1	3.55e-03	0	42	0	1054867456	20	4630
2026-01-13 02:02:19.12	252.31	12.98	-29.9	-32.1	12.6	3.84e-03	0	42	0	1056964608	19	4628
2026-01-13 02:02:20.13	252.20	12.89	-29.8	-31.7	12.9	4.65e-05	0	43	0	1059061760	19	4483
2026-01-13 02:02:21.14	252.09	12.81	-29.6	-31.1	13.3	3.32e-03	0	42	0	1061158912	19	4300
2026-01-13 02:02:22.14	251.98	12.73	-29.6	-31.2	13.2	3.03e-03	0	42	0	1062207488	19	4321
2026-01-13 02:02:23.15	251.88	12.65	-29.7	-31.4	13.1	9.86e-04	0	42	0	1064304640	19	4388
2026-01-13 02:02:24.16	251.77	12.56	-29.5	-30.9	13.5	2.91e-03	0	42	0	1066401792	19	4211
2026-01-13 02:02:25.16	251.66	12.48	-29.6	-31.2	13.2	2.61e-03	0	42	0	1068498944	19	4307
2026-01-13 02:02:26.17	251.56	12.40	-29.6	-31.2	13.2	2.61e-04	0	42	0	1070596096	19	4331
2026-01-13 02:02:27.17	251.45	12.32	-29.9	-32.0	12.6	5.34e-05	0	42	0	1071644672	19	4591
2026-01-13 02:02:28.18	251.35	12.24	-29.9	-32.1	12.5	2.70e-03	0	42	0	1073741824	19	4638
2026-01-13 02:02:29.19	251.25	12.16	-30.2	-32.4	12.0	3.07e-04	0	42	0	1075838976	20	4631
2026-01-13 02:02:30.19	251.14	12.07	-30.5	-33.3	11.3	1.01e-03	0	42	0	1077936128	20	5006
2026-01-13 02:02:31.20	251.04	11.99	-30.5	-33.0	11.2	1.18e-03	0	42	0	1080033280	21	4781
2026-01-13 02:02:32.20	250.94	11.91	-30.8	-33.8	10.5	3.13e-03	0	42	0	1081081856	21	5106
2026-01-13 02:02:33.20	250.84	11.83	-30.9	-34.1	10.4	5.82e-03	0	42	0	1083179008	21	5213
2026-01-13 02:02:34.21	250.74	11.75	-31.2	-34.7	9.6	8.56e-03	0	42	0	1085276160	22	5370
2026-01-13 02:02:35.22	250.64	11.67	-31.0	-34.0	10.0	9.34e-03	0	42	0	1087373312	22	5096
2026-01-13 02:02:36.23	250.54	11.59	-31.0	-34.1	10.0	9.94e-03	0	42	0	1089470464	22	5113
2026-01-13 02:02:37.24	250.44	11.51	-31.0	-34.0	10.1	7.38e-03	0	42	0	1090519040	22	5104
2026-01-13 02:02:38.24	250.34	11.43	-31.0	-34.0	10.0	6.60e-03	0	42	0	1092616192	22	5097
2026-01-13 02:02:39.24	250.24	11.35	-30.8	-34.0	10.3	9.81e-03	0	42	0	1094713344	21	5181
2026-01-13 02:02:40.25	250.14	11.27	-30.7	-33.7	10.6	3.58e-03	0	42	0	1096810496	21	5045
2026-01-13 02:02:41.25	250.05	11.20	-30.7	-33.5	10.7	3.18e-03	0	42	0	1098907648	21	4989
2026-01-13 02:02:42.26	249.95	11.12	-30.8	-33.7	10.5	3.70e-03	0	42	0	1099956224	21	5068
2026-01-13 02:02:43.26	249.86	11.04	-30.6	-33.2	10.9	5.90e-03	0	42	0	1102053376	21	4849
2026-01-13 02:02:44.27	249.76	10.96	-30.5	-33.1	11.0	2.05e-03	0	42	0	1104150528	21	4834
2026-01-13 02:02:45.28	249.67	10.88	-30.5	-33.0	11.0	2.20e-03	0	42	0	1106247680	21	4807
2026-01-13 02:02:46.28	249.57	10.80	-30.5	-32.9	11.1	5.43e-03	0	42	0	1108344832	21	4754
2026-01-13 02:02:47.29	249.48	10.72	-30.4	-32.8	11.2	1.44e-03	0	42	0	1109393408	21	4717
2026-01-13 02:02:48.30	249.38	10.65	-30.6	-33.3	10.8	1.57e-03	0	42	0	1111490560	21	4897
2026-01-13 02:02:49.30	249.29	10.57	-30.6	-33.3	10.8	2.34e-03	0	42	0	1113587712	21	4899
2026-01-13 02:02:50.31	249.20	10.49	-30.5	-32.9	11.1	1.90e-03	0	42	0	1115684864	21	4767
2026-01-13 02:02:51.31	249.11	10.41	-30.5	-32.9	11.0	1.47e-03	0	42	0	1117782016	21	4761
2026-01-13 02:02:52.31	249.02	10.34	-30.6	-33.3	10.8	1.66e-03	0	42	0	1118830592	21	4901
2026-01-13 02:02:53.31	248.93	10.26	-30.6	-33.5	10.6	2.33e-03	0	42	0	1120927744	21	5001
2026-01-13 02:02:54.31	248.84	10.18	-30.8	-34.0	10.2	4.56e-03	0	42	0	1123024896	21	5210
2026-01-13 02:02:55.32	248.75	10.11	-30.7	-33.8	10.4	4.73e-03	0	42	0	1125122048	21	5128
2026-01-13 02:02:56.33	248.66	10.03	-30.8	-34.0	10.2	5.18e-03	0	42	0	1127219200	21	5224
2026-01-13 02:02:57.33	248.57	9.95	-30.9	-34.5	9.8	9.96e-03	0	42	0	1128267776	21	5416
2026-01-13 02:02:58.34	248.48	9.88	-30.8	-34.2	10.1	7.21e-03	0	42	0	1130364928	21	5287
2026-01-13 02:02:59.34	248.39	9.80	-30.9	-34.3	10.0	9.21e-03	0	42	0	1132462080	21	5337
2026-01-13 02:03:00.35	248.31	9.73	-30.8	-34.0	10.2	7.04e-03	0	42	0	1134559232	21	5208
2026-01-13 02:03:01.35	248.22	9.65	-30.6	-33.5	10.5	4.48e-03	0	42	0	1136656384	21	5022
2026-01-13 02:03:02.36	248.13	9.57	-30.6	-33.3	10.7	3.26e-03	0	42	0	1137704960	21	4930
2026-01-13 02:03:03.36	248.05	9.50	-30.4	-32.9	11.0	2.59e-03	0	42	0	1139802112	21	4768
2026-01-13 02:03:04.37	247.96	9.42	-30.4	-32.9	11.0	2.02e-03	0	42	0	1141899264	21	4766
2026-01-13 02:03:05.37	247.88	9.35	-29.2	-31.8	11.2	1.11e-03	0	42	0	1143996416	20	4852
2026-01-13 02:03:06.38	247.79	9.27	-30.1	-32.9	11.1	6.84e-04	0	42	0	1146093568	19	4968
2026-01-13 02:03:07.39	247.71	9.20	-30.0	-31.9	11.5	3.36e-04	0	42	0	1147142144	20	4496
2026-01-13 02:03:08.40	247.62	9.12	-29.9	-32.2	11.1	2.32e-04	0	42	0	1149239296	19	4702
2026-01-13 02:03:09.40	247.54	9.05	-29.9	-32.1	11.6	2.20e-04	0	42	0	1151336448	19	4669
2026-01-13 02:03:10.41	247.46	8.98	-29.7	-31.7	12.5	1.21e-03	0	42	0	1153433600	19	4509
2026-01-13 02:03:11.41	247.38	8.90	-29.7	-31.6	12.6	9.15e-05	0	42	0	1155530752	19	4491
2026-01-13 02:03:12.42	247.29	8.83	-29.8	-31.8	12.4	1.07e-04	0	42	0	1156579328	19	4560
2026-01-13 02:03:13.43	247.21	8.75	-29.7	-31.7	12.5	8.93e-04	0	42	0	1158676480	19	4518
2026-01-13 02:03:14.44	247.13	8.68	-29.8	-32.0	12.3	1.38e-04	0	42	0	1160773632	19	4629
2026-01-13 02:03:15.44	247.05	8.61	-29.8	-32.0	12.3	1.89e-04	0	42	0	1162870784	19	4618
2026-01-13 02:03:16.45	246.97	8.53	-29.9	-32.1	12.2	1.53e-04	0	42	0	1164967936	19	4679
2026-01-13 02:03:17.45	246.89	8.46	-29.9	-32.3	12.1	2.66e-03	0	42	0	1166016512	19	4741
2026-01-13 02:03:18.45	246.81	8.39	-29.9	-31.9	11.9	3.36e-04	0	42	0	1168113664	20	4527
2026-01-13 02:03:19.45	246.73	8.32	-30.1	-32.3	11.6	5.13e-04	0	42	0	1170210816	20	4658
2026-01-13 02:03:20.46	246.65	8.24	-30.2	-32.9	11.2	2.74e-03	0	42	0	1172307968	20	4870
2026-01-13 02:03:21.46	246.58	8.17	-30.3	-33.0	11.1	3.20e-03	0	42	0	1174405120	20	4945
2026-01-13 02:03:22.47	246.50	8.10	-30.4	-33.3	10.9	2.29e-03	0	42	0	1175453696	20	5060
2026-01-13 02:03:23.47	246.42	8.03	-30.4	-33.6	10.6	5.68e-03	0	42	0	1177550848	20	5161
2026-01-13 02:03:24.48	246.34	7.95	-30.6	-33.5	10.3	7.39e-03	0	42	0	1179648000	21	5031
2026-01-13 02:03:25.48	246.27	7.88	-30.6	-33.6	10.2	4.67e-03	0	42	0	1181745152	21	5102
2026-01-13 02:03:26.48	246.19	7.81	-30.7	-33.9	10.0	7.26e-03	0	42	0	1183842304	21	5224
2026-01-13 02:03:27.49	246.12	7.74	-30.7	-34.0	10.0	1.09e-02	0	42	0	1184890880	21	5282
2026-01-13 02:03:28.50	246.04	7.67	-30.7	-34.2	9.8	1.03e-02	0	42	0	1186988032	21	5344
2026-01-13 02:03:29.50	245.96	7.60	-30.8	-34.3	9.7	9.11e-03	0	42	0	1189085184	21	5418
2026-01-13 02:03:30.51	245.89	7.53	-30.8	-34.3	9.7	1.41e-02	0	42	0	1191182336	21	5413
2026-01-13 02:03:31.51	245.82	7.45	-30.8	-34.6	9.4	1.61e-02	0	42	0	1193279488	21	5542
2026-01-13 02:03:32.52	245.74	7.38	-30.9	-34.8	9.2	2.02e-02	0	42	0	1194328064	21	5656
2026-01-13 02:03:33.52	245.67	7.31	-30.9	-35.0	9.0	2.29e-02	0	42	0	1196425216	21	5770
2026-01-13 02:03:34.53	245.59	7.24	-30.8	-34.4	9.5	1.56e-02	0	42	0	1198522368	21	5465
2026-01-13 02:03:35.54	245.52	7.17	-30.8	-34.4	9.5	1.11e-02	0	42	0	1200619520	21	5451
2026-01-13 02:03:36.55	245.45	7.10	-30.7	-34.1	9.7	1.24e-02	0	42	0	1201668096	21	5337
2026-01-13 02:03:37.56	245.38	7.03	-32.7	-44.6	3.8	4.15e-01	0	42	104	1203765248	25	14309
2026-01-13 02:03:38.56	245.30	6.96	-33.0	-45.3	3.9	1.49e+00	0	42	104	1203765248	26	14731

#Closed at: 2026-01-13 02:03:39
#Recorded file [1203 MB]: D:/data/31010_260113_045255.dat