passes_logs/2026/01/13/R2M6_AANII_01/R2M6_AANII_01__20260113_061753_FENGYUN_3E_rec.log

#Pass ID: 20260113_061753_FENGYUN 3E
#Satellite: FENGYUN 3E
#Configuration: FENGYUN 3E
#almurnet v.1.7.20240730
#Start time: 2026-01-13 06:17:55

#Version: 2.2.20231116
#Station: R2M6_AANII_01
#Location: 30.233357 lon 59.946436 lat
#TLE: 1 49008U 21062A   26012.25745337  .00000274  00000+0  14981-3 0  9997
#TLE: 2 49008  98.7491  17.4183 0001913 142.8235 217.3074 14.19885845234459

#Time	Az	El	Level	Level2	SNR	BER	BlckErr	Temp	State	Recorded	gain1	gain2
2026-01-13 06:17:55.21	10.96	7.12	-33.9	-43.7	3.8	8.46e-01	0	40	0	0	27	11095
2026-01-13 06:17:56.20	10.88	7.19	-33.9	-43.7	3.8	8.46e-01	0	40	104	0	27	11154
2026-01-13 06:17:57.21	10.80	7.25	-33.9	-43.7	3.8	8.46e-01	0	40	104	0	27	11086
2026-01-13 06:17:58.22	10.72	7.32	-33.9	-43.7	3.8	8.48e-01	0	40	104	0	27	11119
2026-01-13 06:17:59.22	10.64	7.39	-33.9	-43.7	3.8	8.45e-01	0	40	104	0	27	11129
2026-01-13 06:18:00.22	10.56	7.46	-33.9	-43.7	3.8	8.46e-01	0	40	104	0	27	11109
2026-01-13 06:18:01.23	10.47	7.52	-33.9	-43.7	3.8	8.46e-01	0	40	104	0	27	11129
2026-01-13 06:18:02.24	10.39	7.59	-33.9	-43.7	3.8	8.45e-01	0	40	104	0	27	11161
2026-01-13 06:18:03.25	10.30	7.66	-33.9	-43.7	3.8	8.45e-01	0	40	104	0	27	11122
2026-01-13 06:18:04.25	10.22	7.73	-33.9	-43.7	3.8	8.46e-01	0	40	104	0	27	11126
2026-01-13 06:18:05.25	10.14	7.80	-33.9	-43.7	3.8	8.47e-01	0	40	104	0	27	11128
2026-01-13 06:18:06.26	10.05	7.87	-33.9	-43.7	3.8	8.46e-01	0	40	104	0	27	11132
2026-01-13 06:18:07.26	9.96	7.94	-33.9	-43.7	3.8	8.46e-01	0	40	104	0	27	11120
2026-01-13 06:18:08.27	9.88	8.00	-33.9	-43.7	3.8	8.45e-01	0	40	104	0	27	11129
2026-01-13 06:18:09.27	9.79	8.07	-33.9	-43.7	3.8	8.46e-01	0	40	104	0	27	11113
2026-01-13 06:18:10.28	9.70	8.14	-33.9	-43.7	3.8	8.46e-01	0	40	104	0	27	11143
2026-01-13 06:18:11.28	9.62	8.21	-33.9	-43.7	3.8	8.45e-01	0	40	104	0	27	11157
2026-01-13 06:18:12.29	9.53	8.28	-33.9	-43.7	3.8	8.47e-01	0	40	104	0	27	11127
2026-01-13 06:18:13.29	9.44	8.35	-33.9	-43.7	3.8	8.46e-01	0	41	104	0	27	11115
2026-01-13 06:18:14.30	9.35	8.42	-33.9	-43.7	3.8	8.47e-01	0	40	104	0	27	11127
2026-01-13 06:18:15.31	9.26	8.49	-33.9	-43.7	3.8	8.46e-01	0	40	104	0	27	11163
2026-01-13 06:18:16.32	9.17	8.56	-33.9	-43.7	3.8	8.45e-01	0	40	104	0	27	11134
2026-01-13 06:18:17.32	9.08	8.63	-33.9	-43.7	3.8	8.47e-01	0	41	104	0	27	11084
2026-01-13 06:18:18.33	8.99	8.70	-33.9	-43.7	3.8	8.46e-01	0	41	104	0	27	11128
2026-01-13 06:18:19.34	8.90	8.77	-33.9	-43.7	3.8	8.46e-01	0	41	104	0	27	11127
2026-01-13 06:18:20.34	8.81	8.84	-33.9	-43.7	3.8	8.44e-01	0	40	104	0	27	11110
2026-01-13 06:18:21.35	8.72	8.91	-33.9	-43.7	3.8	8.46e-01	0	41	104	0	27	11098
2026-01-13 06:18:22.36	8.63	8.98	-33.9	-43.7	3.8	8.46e-01	0	41	104	0	27	11139
2026-01-13 06:18:23.36	8.53	9.05	-33.9	-43.7	3.8	8.46e-01	0	41	104	0	27	11137
2026-01-13 06:18:24.37	8.44	9.12	-33.9	-43.7	3.8	8.46e-01	0	41	104	0	27	11169
2026-01-13 06:18:25.38	8.35	9.20	-33.9	-43.7	3.8	8.45e-01	0	41	104	0	27	11124
2026-01-13 06:18:26.39	8.25	9.27	-33.9	-43.7	3.8	8.46e-01	0	41	104	0	27	11126
2026-01-13 06:18:27.39	8.16	9.34	-33.9	-43.7	3.8	8.46e-01	0	41	104	0	27	11147
2026-01-13 06:18:28.40	8.06	9.41	-33.9	-43.7	3.8	8.46e-01	0	41	104	0	27	11173
2026-01-13 06:18:29.41	7.97	9.48	-33.9	-43.7	3.8	8.46e-01	0	41	104	0	27	11109
2026-01-13 06:18:30.42	7.87	9.55	-33.9	-43.7	3.8	8.45e-01	0	41	104	0	27	11150
2026-01-13 06:18:31.42	7.77	9.62	-33.9	-43.7	3.8	8.48e-01	0	41	104	0	27	11093
2026-01-13 06:18:32.43	7.67	9.70	-33.9	-43.7	3.8	8.45e-01	0	41	104	0	27	11104
2026-01-13 06:18:33.43	7.58	9.77	-33.9	-43.7	3.8	8.46e-01	0	41	104	0	27	11117
2026-01-13 06:18:34.43	7.48	9.84	-33.9	-43.7	3.8	8.46e-01	0	41	104	0	27	11159
2026-01-13 06:18:35.44	7.38	9.91	-33.9	-43.7	3.8	8.46e-01	0	41	104	0	27	11134
2026-01-13 06:18:36.44	7.28	9.99	-33.9	-43.7	3.8	8.48e-01	0	41	104	0	27	11114
2026-01-13 06:18:37.45	7.18	10.06	-33.9	-43.7	3.8	8.46e-01	0	41	104	0	27	11117
2026-01-13 06:18:38.45	7.08	10.13	-33.9	-43.7	3.8	8.47e-01	0	41	104	0	27	11138
2026-01-13 06:18:39.46	6.98	10.20	-33.9	-43.7	3.8	8.46e-01	0	41	104	0	27	11139
2026-01-13 06:18:40.47	6.88	10.28	-33.9	-43.7	3.8	8.45e-01	0	41	104	0	27	11106
2026-01-13 06:18:41.47	6.78	10.35	-33.9	-43.7	3.8	8.47e-01	0	41	104	0	27	11130
2026-01-13 06:18:42.48	6.68	10.42	-33.9	-43.7	3.8	8.46e-01	0	41	104	0	27	11161
2026-01-13 06:18:43.49	6.57	10.50	-33.9	-43.7	3.8	8.46e-01	0	41	104	0	27	11079
2026-01-13 06:18:44.49	6.47	10.57	-33.9	-43.7	3.8	8.46e-01	0	41	104	0	27	11145
2026-01-13 06:18:45.50	6.37	10.64	-33.9	-43.7	3.8	8.46e-01	0	41	104	0	27	11136
2026-01-13 06:18:46.50	6.26	10.72	-33.9	-43.7	3.8	8.46e-01	0	41	104	0	27	11152
2026-01-13 06:18:47.50	6.16	10.79	-33.9	-43.7	3.8	8.46e-01	0	41	104	0	27	11153
2026-01-13 06:18:48.51	6.05	10.86	-33.9	-43.7	3.8	8.46e-01	0	41	104	0	27	11119
2026-01-13 06:18:49.51	5.95	10.94	-33.9	-43.7	3.8	8.45e-01	0	41	104	0	27	11095
2026-01-13 06:18:50.52	5.84	11.01	-33.9	-43.7	3.8	8.47e-01	0	41	104	0	27	11121
2026-01-13 06:18:51.52	5.73	11.09	-33.9	-43.7	3.8	8.45e-01	0	41	104	0	27	11149
2026-01-13 06:18:52.53	5.62	11.16	-33.9	-43.7	3.8	8.46e-01	0	41	104	0	27	11144
2026-01-13 06:18:53.53	5.52	11.24	-33.9	-43.7	3.8	8.46e-01	0	41	104	0	27	11116
2026-01-13 06:18:54.53	5.41	11.31	-33.9	-43.7	3.8	8.46e-01	0	41	104	0	27	11074
2026-01-13 06:18:55.54	5.30	11.38	-33.9	-43.7	3.8	8.46e-01	0	41	104	0	27	11150
2026-01-13 06:18:56.55	5.19	11.46	-33.9	-43.7	3.8	8.47e-01	0	41	104	0	27	11088
2026-01-13 06:18:57.56	5.08	11.54	-33.9	-43.7	3.8	8.46e-01	0	41	104	0	27	11102
2026-01-13 06:18:58.56	4.97	11.61	-33.9	-43.8	3.8	8.46e-01	0	41	104	0	27	11161
2026-01-13 06:18:59.57	4.85	11.69	-33.9	-43.7	3.8	8.46e-01	0	42	104	0	27	11111
2026-01-13 06:19:00.56	4.74	11.76	-33.9	-43.7	3.8	8.46e-01	0	41	104	0	27	11124
2026-01-13 06:19:01.56	4.63	11.83	-33.9	-43.7	3.8	8.45e-01	0	41	104	0	27	11127
2026-01-13 06:19:02.57	4.52	11.91	-33.9	-43.7	3.8	8.46e-01	0	42	104	0	27	11163
2026-01-13 06:19:03.58	4.40	11.99	-33.9	-43.8	3.8	8.45e-01	0	42	104	0	27	11189
2026-01-13 06:19:04.58	4.29	12.06	-33.9	-43.7	3.8	8.45e-01	0	42	104	0	27	11111
2026-01-13 06:19:05.59	4.17	12.14	-33.9	-43.7	3.8	8.46e-01	0	42	104	0	27	11120
2026-01-13 06:19:06.59	4.06	12.21	-33.9	-43.7	3.8	8.47e-01	0	42	104	0	27	11150
2026-01-13 06:19:07.60	3.94	12.29	-33.9	-43.7	3.8	8.46e-01	0	42	104	0	27	11139
2026-01-13 06:19:08.60	3.82	12.37	-33.9	-43.7	3.8	8.46e-01	0	41	104	0	27	11156
2026-01-13 06:19:09.61	3.70	12.44	-33.9	-43.7	3.8	8.48e-01	0	42	104	0	27	11162
2026-01-13 06:19:10.62	3.58	12.52	-33.9	-43.7	3.8	8.46e-01	0	42	104	0	27	11142
2026-01-13 06:19:11.62	3.47	12.60	-33.9	-43.7	3.8	8.46e-01	0	42	104	0	27	11142
2026-01-13 06:19:12.63	3.35	12.67	-33.9	-43.7	3.8	8.45e-01	0	42	104	0	27	11112
2026-01-13 06:19:13.64	3.23	12.75	-33.9	-43.7	3.8	8.46e-01	0	42	104	0	27	11171
2026-01-13 06:19:14.64	3.10	12.83	-33.9	-43.7	3.8	8.46e-01	0	42	104	0	27	11132
2026-01-13 06:19:15.65	2.98	12.91	-33.9	-43.7	3.8	8.45e-01	0	42	104	0	27	11105
2026-01-13 06:19:16.66	2.86	12.98	-33.9	-43.7	3.8	8.46e-01	0	42	104	0	27	11158
2026-01-13 06:19:17.66	2.74	13.06	-33.9	-43.7	3.8	8.46e-01	0	42	104	0	27	11127
2026-01-13 06:19:18.67	2.61	13.14	-33.9	-43.7	3.8	8.46e-01	0	42	104	0	27	11134
2026-01-13 06:19:19.68	2.49	13.22	-33.9	-43.7	3.8	8.45e-01	0	42	104	0	27	11123
2026-01-13 06:19:20.69	2.36	13.29	-33.9	-43.7	3.8	8.47e-01	0	42	104	0	27	11121
2026-01-13 06:19:21.70	2.24	13.37	-33.9	-43.7	3.8	8.47e-01	0	42	104	0	27	11137
2026-01-13 06:19:22.70	2.11	13.45	-33.9	-43.8	3.8	8.45e-01	0	42	104	0	27	11163
2026-01-13 06:19:23.71	1.98	13.53	-33.9	-43.7	3.8	8.47e-01	0	42	104	0	27	11139
2026-01-13 06:19:24.71	1.85	13.61	-33.9	-43.7	3.8	8.46e-01	0	42	104	0	27	11150
2026-01-13 06:19:25.72	1.73	13.69	-33.9	-43.7	3.8	8.47e-01	0	42	104	0	27	11145
2026-01-13 06:19:26.73	1.60	13.76	-33.9	-43.8	3.8	8.46e-01	0	42	104	0	27	11164
2026-01-13 06:19:27.74	1.47	13.84	-33.9	-43.8	3.8	8.46e-01	0	42	104	0	27	11166
2026-01-13 06:19:28.74	1.34	13.92	-33.9	-43.7	3.8	8.45e-01	0	42	104	0	27	11145
2026-01-13 06:19:29.75	1.20	14.00	-33.9	-43.7	3.8	8.47e-01	0	42	104	0	27	11095
2026-01-13 06:19:30.75	1.07	14.08	-33.9	-43.7	3.8	8.45e-01	0	42	104	0	27	11102
2026-01-13 06:19:31.76	0.94	14.16	-33.9	-43.8	3.8	8.46e-01	0	42	104	0	27	11169
2026-01-13 06:19:32.77	0.80	14.24	-33.9	-43.8	3.8	8.48e-01	0	42	104	0	27	11226
2026-01-13 06:19:33.77	0.67	14.32	-33.9	-43.7	3.8	8.46e-01	0	42	104	0	27	11131
2026-01-13 06:19:34.78	0.53	14.40	-33.9	-43.7	3.8	8.45e-01	0	42	104	0	27	11107
2026-01-13 06:19:35.79	0.40	14.48	-33.9	-43.7	3.8	8.46e-01	0	42	104	0	27	11140
2026-01-13 06:19:36.79	0.26	14.55	-33.9	-43.7	3.8	8.45e-01	0	42	104	0	27	11155
2026-01-13 06:19:37.80	0.12	14.63	-33.9	-43.7	3.8	8.45e-01	0	42	104	0	27	11104
2026-01-13 06:19:38.81	359.99	14.71	-33.9	-43.7	3.8	8.47e-01	0	42	104	0	27	11127
2026-01-13 06:19:39.81	359.85	14.79	-33.9	-43.7	3.8	8.46e-01	0	42	104	0	27	11130
2026-01-13 06:19:40.82	359.71	14.87	-33.9	-43.7	3.8	8.46e-01	0	42	104	0	27	11150
2026-01-13 06:19:41.82	359.57	14.95	-33.9	-43.7	3.8	8.47e-01	0	42	104	0	27	11123
2026-01-13 06:19:42.83	359.43	15.03	-33.9	-43.8	3.8	8.46e-01	0	42	104	0	27	11169
2026-01-13 06:19:43.84	359.28	15.11	-33.9	-43.7	3.8	8.46e-01	0	42	104	0	27	11163
2026-01-13 06:19:44.84	359.14	15.19	-33.9	-43.7	3.8	8.46e-01	0	42	104	0	27	11133
2026-01-13 06:19:45.85	359.00	15.27	-33.9	-43.8	3.8	8.46e-01	0	42	104	0	27	11163
2026-01-13 06:19:46.86	358.85	15.36	-33.9	-43.7	3.8	8.46e-01	0	42	104	0	27	11160
2026-01-13 06:19:47.86	358.71	15.44	-33.9	-43.7	3.8	8.46e-01	0	42	104	0	27	11153
2026-01-13 06:19:48.87	358.56	15.52	-33.9	-43.7	3.8	8.46e-01	0	42	104	0	27	11139
2026-01-13 06:19:49.88	358.42	15.60	-33.9	-43.7	3.8	8.46e-01	0	42	104	0	27	11105
2026-01-13 06:19:50.88	358.27	15.68	-33.9	-43.7	3.8	8.46e-01	0	42	104	0	27	11159
2026-01-13 06:19:51.88	358.12	15.76	-33.9	-43.7	3.8	8.45e-01	0	42	104	0	27	11124
2026-01-13 06:19:52.89	357.97	15.84	-33.9	-43.7	3.8	8.46e-01	0	42	104	0	27	11155
2026-01-13 06:19:53.90	357.82	15.92	-33.9	-43.7	3.8	8.47e-01	0	42	104	0	27	11142
2026-01-13 06:19:54.90	357.67	16.00	-33.9	-43.7	3.8	8.45e-01	0	42	104	0	27	11160
2026-01-13 06:19:55.91	357.52	16.08	-33.9	-43.7	3.8	8.46e-01	0	42	104	0	27	11114
2026-01-13 06:19:56.92	357.37	16.16	-33.9	-43.7	3.8	8.47e-01	0	42	104	0	27	11142
2026-01-13 06:19:57.92	357.21	16.24	-33.9	-43.7	3.8	8.46e-01	0	42	104	0	27	11163
2026-01-13 06:19:58.93	357.06	16.32	-33.9	-43.7	3.8	8.45e-01	0	42	104	0	27	11098
2026-01-13 06:19:59.93	356.90	16.41	-33.9	-43.7	3.8	8.47e-01	0	42	104	0	27	11127
2026-01-13 06:20:00.94	356.75	16.49	-33.9	-43.7	3.8	8.47e-01	0	42	104	0	27	11126
2026-01-13 06:20:01.95	356.59	16.57	-33.9	-43.7	3.8	8.47e-01	0	42	104	0	27	11142
2026-01-13 06:20:02.96	356.43	16.65	-33.9	-43.7	3.8	8.46e-01	0	42	104	0	27	11123
2026-01-13 06:20:03.96	356.27	16.73	-33.9	-43.8	3.8	8.47e-01	0	42	104	0	27	11170
2026-01-13 06:20:04.96	356.12	16.81	-33.9	-43.8	3.8	8.47e-01	0	42	104	0	27	11156
2026-01-13 06:20:05.97	355.95	16.89	-33.9	-43.7	3.8	8.46e-01	0	42	104	0	27	11051
2026-01-13 06:20:06.98	355.79	16.98	-33.9	-43.7	3.8	8.46e-01	0	42	104	0	27	11160
2026-01-13 06:20:07.99	355.63	17.06	-33.9	-43.7	3.8	8.46e-01	0	42	104	0	27	11125
2026-01-13 06:20:09.00	355.47	17.14	-33.9	-43.8	3.8	8.46e-01	0	42	104	0	27	11176
2026-01-13 06:20:10.00	355.30	17.22	-33.9	-43.7	3.8	8.46e-01	0	42	104	0	27	11129
2026-01-13 06:20:11.01	355.14	17.30	-33.9	-43.7	3.8	8.47e-01	0	42	104	0	27	11131
2026-01-13 06:20:12.02	354.97	17.39	-33.9	-43.8	3.8	8.47e-01	0	42	104	0	27	11173
2026-01-13 06:20:13.03	354.80	17.47	-33.9	-43.7	3.8	8.46e-01	0	42	104	0	27	11148
2026-01-13 06:20:14.03	354.64	17.55	-33.9	-43.7	3.8	8.47e-01	0	42	104	0	27	11142
2026-01-13 06:20:15.04	354.47	17.63	-33.9	-43.7	3.8	8.46e-01	0	42	104	0	27	11139
2026-01-13 06:20:16.04	354.30	17.71	-33.9	-43.7	3.8	8.45e-01	0	42	104	0	27	11125
2026-01-13 06:20:17.05	354.13	17.79	-33.9	-43.8	3.8	8.46e-01	0	42	104	0	27	11174
2026-01-13 06:20:18.06	353.96	17.88	-33.9	-43.7	3.8	8.46e-01	0	42	104	0	27	11120
2026-01-13 06:20:19.06	353.79	17.96	-33.9	-43.7	3.8	8.47e-01	0	42	104	0	27	11116
2026-01-13 06:20:20.06	353.61	18.04	-33.9	-43.7	3.8	8.46e-01	0	42	104	0	27	11103
2026-01-13 06:20:21.07	353.44	18.12	-33.9	-43.8	3.8	8.45e-01	0	42	104	0	27	11155
2026-01-13 06:20:22.07	353.26	18.20	-33.9	-43.7	3.8	8.46e-01	0	42	104	0	27	11118
2026-01-13 06:20:23.08	353.09	18.28	-33.9	-43.8	3.8	8.46e-01	0	42	104	0	27	11178
2026-01-13 06:20:24.08	352.91	18.37	-33.9	-43.8	3.8	8.47e-01	0	42	104	0	27	11182
2026-01-13 06:20:25.09	352.73	18.45	-33.9	-43.7	3.8	8.46e-01	0	42	104	0	27	11117
2026-01-13 06:20:26.10	352.55	18.53	-33.9	-43.8	3.8	8.46e-01	0	42	104	0	27	11183
2026-01-13 06:20:27.10	352.37	18.61	-33.9	-43.7	3.8	8.45e-01	0	42	104	0	27	11143
2026-01-13 06:20:28.10	352.19	18.69	-33.9	-43.8	3.8	8.45e-01	0	42	104	0	27	11194
2026-01-13 06:20:29.11	352.01	18.77	-33.9	-43.8	3.8	8.46e-01	0	42	104	0	27	11171
2026-01-13 06:20:30.11	351.83	18.86	-33.6	-43.4	3.8	8.46e-01	0	42	104	0	27	11115
2026-01-13 06:20:31.12	351.64	18.94	-33.9	-43.8	3.8	8.47e-01	0	42	104	0	27	11156
2026-01-13 06:20:32.13	351.46	19.02	-33.9	-43.8	3.8	8.47e-01	0	42	104	0	27	11158
2026-01-13 06:20:33.14	351.27	19.10	-33.9	-43.8	3.8	8.45e-01	0	42	104	0	27	11160
2026-01-13 06:20:34.15	351.08	19.18	-33.9	-43.8	3.8	8.45e-01	0	42	104	0	27	11168
2026-01-13 06:20:35.15	350.90	19.26	-33.9	-43.8	3.8	8.46e-01	0	42	104	0	27	11154
2026-01-13 06:20:36.16	350.71	19.35	-33.9	-43.8	3.8	8.45e-01	0	42	104	0	27	11181
2026-01-13 06:20:37.17	350.52	19.43	-33.9	-43.8	3.8	8.47e-01	0	42	104	0	27	11194
2026-01-13 06:20:38.18	350.32	19.51	-33.9	-43.7	3.8	8.46e-01	0	42	104	0	27	11108
2026-01-13 06:20:39.18	350.13	19.59	-33.9	-43.8	3.8	8.46e-01	0	42	104	0	27	11163
2026-01-13 06:20:40.18	349.94	19.67	-33.9	-43.8	3.8	8.47e-01	0	42	104	0	27	11155
2026-01-13 06:20:41.19	349.75	19.75	-33.9	-43.7	3.8	8.45e-01	0	42	104	0	27	11145
2026-01-13 06:20:42.20	349.55	19.83	-33.9	-43.8	3.8	8.47e-01	0	42	104	0	27	11184
2026-01-13 06:20:43.20	349.36	19.91	-33.9	-43.8	3.8	8.46e-01	0	42	104	0	27	11140
2026-01-13 06:20:44.21	349.16	19.99	-33.9	-43.8	3.8	8.47e-01	0	42	104	0	27	11198
2026-01-13 06:20:45.22	348.96	20.08	-33.9	-43.8	3.8	8.46e-01	0	42	104	0	27	11177
2026-01-13 06:20:46.22	348.76	20.16	-33.9	-43.7	3.8	8.46e-01	0	42	104	0	27	11120
2026-01-13 06:20:47.23	348.56	20.24	-33.9	-43.8	3.8	8.45e-01	0	42	104	0	27	11179
2026-01-13 06:20:48.23	348.36	20.32	-33.9	-43.7	3.8	8.45e-01	0	42	104	0	27	11093
2026-01-13 06:20:49.24	348.15	20.40	-33.9	-43.8	3.8	8.46e-01	0	42	104	0	27	11185
2026-01-13 06:20:50.25	347.95	20.48	-33.9	-43.7	3.8	8.47e-01	0	42	104	0	27	11132
2026-01-13 06:20:51.25	347.75	20.56	-33.9	-43.7	3.8	8.46e-01	0	42	104	0	27	11137
2026-01-13 06:20:52.26	347.54	20.64	-33.9	-43.8	3.8	8.46e-01	0	42	104	0	27	11176
2026-01-13 06:20:53.27	347.33	20.72	-33.9	-43.7	3.8	8.46e-01	0	42	104	0	27	11133
2026-01-13 06:20:54.28	347.12	20.80	-33.9	-43.8	3.8	8.46e-01	0	42	104	0	27	11196
2026-01-13 06:20:55.28	346.91	20.88	-33.9	-43.8	3.8	8.47e-01	0	42	104	0	27	11138
2026-01-13 06:20:56.29	346.70	20.95	-33.9	-43.7	3.8	8.46e-01	0	42	104	0	27	11134
2026-01-13 06:20:57.30	346.49	21.03	-33.9	-43.8	3.8	8.46e-01	0	42	104	0	27	11186
2026-01-13 06:20:58.30	346.28	21.11	-33.9	-43.7	3.8	8.46e-01	0	42	104	0	27	11126
2026-01-13 06:20:59.30	346.07	21.19	-33.9	-43.7	3.8	8.46e-01	0	42	104	0	27	11137
2026-01-13 06:21:00.31	345.85	21.27	-33.9	-43.8	3.8	8.46e-01	0	42	104	0	27	11200
2026-01-13 06:21:01.31	345.64	21.35	-33.9	-43.8	3.8	8.46e-01	0	42	104	0	27	11165
2026-01-13 06:21:02.32	345.42	21.43	-33.9	-43.8	3.8	8.46e-01	0	42	104	0	27	11165
2026-01-13 06:21:03.32	345.20	21.50	-33.9	-43.8	3.8	8.46e-01	0	42	104	0	27	11162
2026-01-13 06:21:04.32	344.98	21.58	-33.9	-43.8	3.8	8.47e-01	0	42	104	0	27	11173
2026-01-13 06:21:05.33	344.76	21.66	-34.0	-43.8	3.8	8.46e-01	0	42	104	0	27	11191
2026-01-13 06:21:06.34	344.54	21.74	-33.9	-43.8	3.8	8.46e-01	0	42	104	0	27	11200
2026-01-13 06:21:07.35	344.32	21.81	-33.9	-43.7	3.8	8.46e-01	0	42	104	0	27	11147
2026-01-13 06:21:08.36	344.09	21.89	-33.9	-43.8	3.8	8.45e-01	0	42	104	0	27	11205
2026-01-13 06:21:09.37	343.87	21.97	-33.9	-43.7	3.8	8.46e-01	0	42	104	0	27	11071
2026-01-13 06:21:10.37	343.64	22.04	-33.9	-43.8	3.8	8.46e-01	0	42	104	0	27	11191
2026-01-13 06:21:11.38	343.41	22.12	-33.9	-43.8	3.8	8.45e-01	0	42	104	0	27	11136
2026-01-13 06:21:12.39	343.18	22.20	-33.9	-43.8	3.8	8.45e-01	0	43	104	0	27	11163
2026-01-13 06:21:13.39	342.96	22.27	-33.9	-43.8	3.8	8.46e-01	0	42	104	0	27	11194
2026-01-13 06:21:14.40	342.72	22.35	-33.9	-43.8	3.8	8.47e-01	0	42	104	0	27	11191
2026-01-13 06:21:15.40	342.49	22.42	-33.9	-43.8	3.8	8.46e-01	0	42	104	0	27	11155
2026-01-13 06:21:16.41	342.26	22.50	-33.9	-43.8	3.8	8.48e-01	0	42	104	0	27	11169
2026-01-13 06:21:17.42	342.03	22.57	-33.9	-43.8	3.8	8.47e-01	0	42	104	0	27	11173
2026-01-13 06:21:18.43	341.79	22.65	-33.9	-43.8	3.8	8.46e-01	0	42	104	0	27	11171
2026-01-13 06:21:19.43	341.55	22.72	-33.9	-43.8	3.8	8.46e-01	0	42	104	0	27	11177
2026-01-13 06:21:20.44	341.32	22.79	-33.9	-43.8	3.8	8.46e-01	0	42	104	0	27	11167
2026-01-13 06:21:21.44	341.08	22.87	-33.9	-43.7	3.8	8.46e-01	0	42	104	0	27	11122
2026-01-13 06:21:22.45	340.84	22.94	-33.9	-43.8	3.8	8.47e-01	0	42	104	0	27	11158
2026-01-13 06:21:23.46	340.60	23.01	-33.9	-43.7	3.8	8.46e-01	0	42	104	0	27	11124
2026-01-13 06:21:24.47	340.35	23.08	-33.9	-43.8	3.8	8.45e-01	0	42	104	0	27	11161
2026-01-13 06:21:25.47	340.11	23.16	-33.9	-43.8	3.8	8.46e-01	0	42	104	0	27	11174
2026-01-13 06:21:26.48	339.87	23.23	-34.0	-43.8	3.8	8.48e-01	0	42	104	0	27	11137
2026-01-13 06:21:27.49	339.62	23.30	-33.9	-43.8	3.8	8.45e-01	0	42	104	0	27	11161
2026-01-13 06:21:28.50	339.37	23.37	-33.9	-43.8	3.8	8.47e-01	0	42	104	0	27	11137
2026-01-13 06:21:29.51	339.13	23.44	-33.9	-43.8	3.8	8.45e-01	0	42	104	0	27	11187
2026-01-13 06:21:30.51	338.88	23.51	-33.9	-43.8	3.8	8.47e-01	0	42	104	0	27	11190
2026-01-13 06:21:31.52	338.63	23.58	-33.9	-43.8	3.8	8.47e-01	0	42	104	0	27	11140
2026-01-13 06:21:32.53	338.38	23.65	-33.9	-43.8	3.8	8.46e-01	0	42	104	0	27	11190
2026-01-13 06:21:33.54	338.12	23.72	-33.9	-43.8	3.8	8.46e-01	0	42	104	0	27	11155
2026-01-13 06:21:34.55	337.87	23.79	-33.9	-43.8	3.8	8.47e-01	0	43	104	0	27	11177
2026-01-13 06:21:35.55	337.61	23.85	-33.9	-43.8	3.8	8.46e-01	0	42	104	0	27	11153
2026-01-13 06:21:36.56	337.36	23.92	-33.9	-43.8	3.8	8.46e-01	0	43	104	0	27	11154
2026-01-13 06:21:37.57	337.10	23.99	-33.9	-43.8	3.8	8.47e-01	0	42	104	0	27	11170
2026-01-13 06:21:38.57	336.84	24.06	-34.0	-43.8	3.8	8.46e-01	0	42	104	0	27	11166
2026-01-13 06:21:39.57	336.59	24.12	-33.9	-43.8	3.8	8.45e-01	0	42	104	0	27	11143
2026-01-13 06:21:40.58	336.33	24.19	-34.0	-43.8	3.8	8.46e-01	0	42	104	0	27	11143
2026-01-13 06:21:41.59	336.06	24.25	-33.9	-43.8	3.8	8.47e-01	0	42	104	0	27	11166
2026-01-13 06:21:42.60	335.80	24.32	-33.9	-43.8	3.8	8.45e-01	0	42	104	0	27	11144
2026-01-13 06:21:43.60	335.54	24.38	-33.9	-43.8	3.8	8.47e-01	0	42	104	0	27	11186
2026-01-13 06:21:44.61	335.27	24.44	-33.9	-43.7	3.8	8.47e-01	0	42	104	0	27	11123
2026-01-13 06:21:45.62	335.01	24.51	-33.9	-43.8	3.8	8.47e-01	0	42	104	0	27	11169
2026-01-13 06:21:46.63	334.74	24.57	-33.9	-43.8	3.8	8.47e-01	0	42	104	0	27	11161
2026-01-13 06:21:47.63	334.47	24.63	-34.0	-43.7	3.8	8.46e-01	0	42	104	0	27	11106
2026-01-13 06:21:48.64	334.20	24.69	-33.9	-43.8	3.8	8.45e-01	0	42	104	0	27	11167
2026-01-13 06:21:49.65	333.93	24.76	-33.9	-43.8	3.8	8.46e-01	0	42	104	0	27	11159
2026-01-13 06:21:50.65	333.67	24.82	-32.9	-42.7	3.8	8.47e-01	0	42	104	0	27	11118
2026-01-13 06:21:51.66	333.39	24.88	-33.9	-43.8	3.8	8.46e-01	0	42	104	0	27	11170
2026-01-13 06:21:52.67	333.12	24.94	-33.9	-43.8	3.8	8.47e-01	0	42	104	0	27	11166
2026-01-13 06:21:53.67	332.85	24.99	-33.9	-43.8	3.8	8.47e-01	0	42	104	0	27	11174
2026-01-13 06:21:54.68	332.57	25.05	-33.9	-43.8	3.8	8.47e-01	0	42	104	0	27	11164
2026-01-13 06:21:55.68	332.30	25.11	-33.9	-43.8	3.8	8.46e-01	0	42	104	0	27	11191
2026-01-13 06:21:56.68	332.02	25.17	-33.9	-43.8	3.8	8.46e-01	0	42	104	0	27	11211
2026-01-13 06:21:57.69	331.74	25.22	-33.9	-43.8	3.8	8.47e-01	0	42	104	0	27	11152
2026-01-13 06:21:58.69	331.46	25.28	-33.9	-43.8	3.8	8.46e-01	0	42	104	0	27	11150
2026-01-13 06:21:59.69	331.19	25.33	-33.9	-43.8	3.8	8.45e-01	0	42	104	0	27	11187
2026-01-13 06:22:00.70	330.90	25.39	-33.9	-43.8	3.8	8.45e-01	0	42	104	0	27	11167
2026-01-13 06:22:01.70	330.62	25.44	-33.9	-43.8	3.8	8.47e-01	0	42	104	0	27	11176
2026-01-13 06:22:02.70	330.34	25.49	-33.9	-43.8	3.8	8.45e-01	0	42	104	0	27	11175
2026-01-13 06:22:03.71	330.06	25.55	-33.9	-43.8	3.8	8.47e-01	0	42	104	0	27	11205
2026-01-13 06:22:04.72	329.77	25.60	-33.9	-43.8	3.8	8.46e-01	0	42	104	0	27	11185
2026-01-13 06:22:05.73	329.49	25.65	-33.9	-43.8	3.8	8.46e-01	0	42	104	0	27	11183
2026-01-13 06:22:06.73	329.20	25.70	-33.9	-43.8	3.8	8.47e-01	0	42	104	0	27	11146
2026-01-13 06:22:07.74	328.91	25.75	-33.9	-43.8	3.8	8.47e-01	0	42	104	0	27	11209
2026-01-13 06:22:08.74	328.63	25.80	-33.9	-43.8	3.8	8.46e-01	0	42	104	0	27	11170
2026-01-13 06:22:09.75	328.33	25.85	-33.9	-43.8	3.8	8.45e-01	0	42	104	0	27	11174
2026-01-13 06:22:10.76	328.04	25.90	-33.9	-43.8	3.8	8.45e-01	0	42	104	0	27	11185
2026-01-13 06:22:11.76	327.75	25.94	-33.9	-43.8	3.8	8.46e-01	0	42	104	0	27	11176
2026-01-13 06:22:12.77	327.46	25.99	-34.0	-43.8	3.8	8.46e-01	0	42	104	0	27	11194
2026-01-13 06:22:13.78	327.17	26.03	-33.9	-43.8	3.8	8.47e-01	0	42	104	0	27	11239
2026-01-13 06:22:14.78	326.87	26.08	-34.0	-43.8	3.8	8.46e-01	0	43	104	0	27	11182
2026-01-13 06:22:15.79	326.58	26.12	-34.0	-43.8	3.8	8.46e-01	0	42	104	0	27	11172
2026-01-13 06:22:16.79	326.29	26.17	-33.9	-43.8	3.8	8.46e-01	0	42	104	0	27	11170
2026-01-13 06:22:17.80	325.99	26.21	-33.9	-43.8	3.8	8.46e-01	0	42	104	0	27	11151
2026-01-13 06:22:18.80	325.69	26.25	-33.9	-43.8	3.8	8.46e-01	0	42	104	0	27	11159
2026-01-13 06:22:19.81	325.39	26.29	-33.9	-43.8	3.8	8.46e-01	0	42	104	0	27	11138
2026-01-13 06:22:20.81	325.10	26.33	-33.9	-43.8	3.8	8.46e-01	0	43	104	0	27	11186
2026-01-13 06:22:21.82	324.80	26.37	-34.0	-43.8	3.8	8.45e-01	0	43	104	0	27	11170
2026-01-13 06:22:22.84	324.49	26.41	-33.9	-43.8	3.8	8.45e-01	0	42	104	0	27	11217
2026-01-13 06:22:23.85	324.19	26.45	-33.9	-43.8	3.8	8.46e-01	0	43	104	0	27	11180
2026-01-13 06:22:24.85	323.89	26.48	-33.9	-43.8	3.8	8.46e-01	0	43	104	0	27	11200
2026-01-13 06:22:25.86	323.59	26.52	-33.9	-43.8	3.8	8.46e-01	0	42	104	0	27	11140
2026-01-13 06:22:26.86	323.29	26.55	-33.9	-43.8	3.8	8.46e-01	0	43	104	0	27	11144
2026-01-13 06:22:27.87	322.98	26.59	-33.9	-43.8	3.8	8.46e-01	0	42	104	0	27	11207
2026-01-13 06:22:28.87	322.68	26.62	-33.9	-43.8	3.8	8.46e-01	0	43	104	0	27	11181
2026-01-13 06:22:29.88	322.37	26.65	-34.0	-43.8	3.8	8.46e-01	0	42	104	0	27	11210
2026-01-13 06:22:30.89	322.07	26.69	-33.9	-43.8	3.8	8.46e-01	0	42	104	0	27	11169
2026-01-13 06:22:31.89	321.76	26.72	-34.0	-43.8	3.8	8.46e-01	0	42	104	0	27	11201
2026-01-13 06:22:32.90	321.45	26.75	-34.0	-43.8	3.8	8.46e-01	0	43	104	0	27	11164
2026-01-13 06:22:33.91	321.15	26.78	-34.0	-43.8	3.8	8.46e-01	0	42	104	0	27	11209
2026-01-13 06:22:34.92	320.84	26.80	-34.0	-43.8	3.8	8.46e-01	0	43	104	0	27	11182
2026-01-13 06:22:35.91	320.53	26.83	-34.0	-43.8	3.8	8.46e-01	0	42	104	0	27	11178
2026-01-13 06:22:36.92	320.22	26.86	-34.0	-43.8	3.8	8.45e-01	0	43	104	0	27	11185
2026-01-13 06:22:37.93	319.91	26.88	-34.0	-43.8	3.8	8.46e-01	0	43	104	0	27	11204
2026-01-13 06:22:38.94	319.60	26.91	-34.0	-43.8	3.8	8.47e-01	0	43	104	0	27	11187
2026-01-13 06:22:39.95	319.29	26.93	-34.0	-43.8	3.8	8.46e-01	0	42	104	0	27	11145
2026-01-13 06:22:40.95	318.98	26.96	-34.0	-43.8	3.8	8.47e-01	0	42	104	0	27	11194
2026-01-13 06:22:41.96	318.67	26.98	-34.0	-43.8	3.8	8.46e-01	0	42	104	0	27	11198
2026-01-13 06:22:42.97	318.36	27.00	-34.0	-43.8	3.8	8.45e-01	0	42	104	0	27	11197
2026-01-13 06:22:43.97	318.05	27.02	-34.0	-43.8	3.8	8.45e-01	0	42	104	0	27	11194
2026-01-13 06:22:44.98	317.73	27.04	-34.0	-43.8	3.8	8.47e-01	0	42	104	0	27	11193
2026-01-13 06:22:45.99	317.42	27.06	-34.0	-43.8	3.8	8.47e-01	0	42	104	0	27	11238
2026-01-13 06:22:47.00	317.10	27.07	-34.0	-43.8	3.8	8.48e-01	0	42	104	0	27	11166
2026-01-13 06:22:48.01	316.79	27.09	-34.0	-43.9	3.8	8.47e-01	0	42	104	0	27	11243
2026-01-13 06:22:49.01	316.48	27.11	-34.0	-43.8	3.8	8.45e-01	0	42	104	0	27	11158
2026-01-13 06:22:50.02	316.16	27.12	-34.0	-43.8	3.8	8.47e-01	0	43	104	0	27	11179
2026-01-13 06:22:51.02	315.85	27.13	-34.0	-43.8	3.8	8.46e-01	0	42	104	0	27	11208
2026-01-13 06:22:52.03	315.53	27.15	-34.0	-43.8	3.8	8.46e-01	0	42	104	0	27	11190
2026-01-13 06:22:53.03	315.22	27.16	-34.0	-43.8	3.8	8.48e-01	0	42	104	0	27	11201
2026-01-13 06:22:54.04	314.90	27.17	-34.0	-43.9	3.8	8.46e-01	0	42	104	0	27	11256
2026-01-13 06:22:55.05	314.59	27.18	-34.0	-43.8	3.8	8.47e-01	0	42	104	0	27	11172
2026-01-13 06:22:56.04	314.27	27.19	-33.9	-43.8	3.8	8.46e-01	0	42	104	0	27	11136
2026-01-13 06:22:57.05	313.96	27.19	-33.9	-43.8	3.8	8.46e-01	0	43	104	0	27	11201
2026-01-13 06:22:58.06	313.64	27.20	-34.0	-43.8	3.8	8.45e-01	0	43	104	0	27	11197
2026-01-13 06:22:59.07	313.32	27.21	-34.0	-43.8	3.8	8.45e-01	0	42	104	0	27	11155
2026-01-13 06:23:00.07	313.01	27.21	-34.0	-43.8	3.8	8.47e-01	0	42	104	0	27	11124
2026-01-13 06:23:01.07	312.69	27.22	-34.0	-43.8	3.8	8.47e-01	0	42	104	0	27	11200
2026-01-13 06:23:02.08	312.38	27.22	-33.9	-43.8	3.8	8.46e-01	0	43	104	0	27	11197
2026-01-13 06:23:03.09	312.06	27.22	-34.0	-43.8	3.8	8.47e-01	0	43	104	0	27	11163
2026-01-13 06:23:04.09	311.74	27.22	-34.0	-43.8	3.8	8.46e-01	0	42	104	0	27	11204
2026-01-13 06:23:05.10	311.43	27.22	-34.0	-43.8	3.8	8.47e-01	0	42	104	0	27	11176
2026-01-13 06:23:06.10	311.11	27.22	-34.0	-43.8	3.8	8.46e-01	0	43	104	0	27	11189
2026-01-13 06:23:07.11	310.79	27.22	-34.0	-43.8	3.8	8.46e-01	0	42	104	0	27	11230
2026-01-13 06:23:08.11	310.48	27.22	-33.9	-43.8	3.8	8.47e-01	0	42	104	0	27	11160
2026-01-13 06:23:09.12	310.16	27.21	-34.0	-43.8	3.8	8.46e-01	0	42	104	0	27	11196
2026-01-13 06:23:10.13	309.84	27.21	-33.1	-42.9	3.8	8.46e-01	0	43	104	0	27	11139
2026-01-13 06:23:11.13	309.53	27.20	-33.9	-43.8	3.8	8.46e-01	0	42	104	0	27	11198
2026-01-13 06:23:12.14	309.21	27.20	-34.0	-43.8	3.8	8.46e-01	0	43	104	0	27	11235
2026-01-13 06:23:13.15	308.90	27.19	-34.0	-43.8	3.7	8.45e-01	0	42	104	0	27	11183
2026-01-13 06:23:14.16	308.58	27.18	-33.9	-43.8	3.8	8.45e-01	0	42	104	0	27	11157
2026-01-13 06:23:15.17	308.26	27.17	-34.0	-43.8	3.8	8.46e-01	0	42	104	0	27	11179
2026-01-13 06:23:16.17	307.95	27.16	-34.0	-43.8	3.8	8.46e-01	0	42	104	0	27	11196
2026-01-13 06:23:17.18	307.63	27.15	-34.0	-43.8	3.8	8.45e-01	0	42	104	0	27	11200
2026-01-13 06:23:18.19	307.31	27.14	-34.0	-43.8	3.8	8.46e-01	0	43	104	0	27	11204
2026-01-13 06:23:19.19	307.00	27.12	-34.0	-43.8	3.8	8.46e-01	0	42	104	0	27	11184
2026-01-13 06:23:20.20	306.69	27.11	-33.9	-43.8	3.8	8.46e-01	0	42	104	0	27	11171
2026-01-13 06:23:21.21	306.37	27.09	-34.0	-43.8	3.8	8.47e-01	0	43	104	0	27	11212
2026-01-13 06:23:22.21	306.06	27.08	-34.0	-43.8	3.8	8.47e-01	0	42	104	0	27	11189
2026-01-13 06:23:23.22	305.74	27.06	-33.9	-43.8	3.8	8.46e-01	0	42	104	0	27	11178
2026-01-13 06:23:24.22	305.43	27.04	-34.0	-43.9	3.8	8.46e-01	0	42	104	0	27	11229
2026-01-13 06:23:25.23	305.12	27.02	-34.0	-43.8	3.8	8.47e-01	0	42	104	0	27	11193
2026-01-13 06:23:26.24	304.80	27.00	-34.0	-43.8	3.8	8.46e-01	0	43	104	0	27	11183
2026-01-13 06:23:27.25	304.49	26.98	-34.0	-43.8	3.8	8.46e-01	0	42	104	0	27	11195
2026-01-13 06:23:28.26	304.18	26.96	-34.0	-43.8	3.8	8.47e-01	0	43	104	0	27	11225
2026-01-13 06:23:29.27	303.87	26.94	-34.0	-43.8	3.8	8.46e-01	0	43	104	0	27	11155
2026-01-13 06:23:30.28	303.55	26.91	-34.0	-43.8	3.8	8.45e-01	0	43	104	0	27	11204
2026-01-13 06:23:31.28	303.25	26.89	-34.0	-43.9	3.8	8.47e-01	0	43	104	0	27	11251
2026-01-13 06:23:32.29	302.93	26.86	-34.0	-43.8	3.8	8.47e-01	0	42	104	0	27	11209
2026-01-13 06:23:33.30	302.62	26.84	-34.0	-43.9	3.8	8.45e-01	0	42	104	0	27	11254
2026-01-13 06:23:34.30	302.32	26.81	-34.0	-43.8	3.8	8.46e-01	0	42	104	0	27	11205
2026-01-13 06:23:35.30	302.01	26.78	-34.0	-43.8	3.8	8.46e-01	0	42	104	0	27	11187
2026-01-13 06:23:36.31	301.70	26.75	-34.0	-43.8	3.8	8.45e-01	0	43	104	0	27	11213
2026-01-13 06:23:37.32	301.39	26.72	-34.0	-43.9	3.8	8.47e-01	0	42	104	0	27	11232
2026-01-13 06:23:38.33	301.08	26.69	-34.0	-43.8	3.8	8.45e-01	0	43	104	0	27	11206
2026-01-13 06:23:39.34	300.78	26.66	-34.0	-43.8	3.8	8.45e-01	0	42	104	0	27	11192
2026-01-13 06:23:40.35	300.47	26.63	-34.0	-43.8	3.8	8.46e-01	0	43	104	0	27	11194
2026-01-13 06:23:41.35	300.17	26.59	-34.0	-43.8	3.8	8.45e-01	0	43	104	0	27	11213
2026-01-13 06:23:42.36	299.86	26.56	-34.0	-43.8	3.8	8.46e-01	0	43	104	0	27	11185
2026-01-13 06:23:43.37	299.56	26.52	-34.0	-43.8	3.8	8.46e-01	0	43	104	0	27	11227
2026-01-13 06:23:44.37	299.26	26.49	-34.0	-43.8	3.8	8.45e-01	0	43	104	0	27	11182
2026-01-13 06:23:45.38	298.95	26.45	-34.0	-43.8	3.8	8.46e-01	0	43	104	0	27	11204
2026-01-13 06:23:46.39	298.65	26.41	-34.0	-43.8	3.8	8.45e-01	0	42	104	0	27	11134
2026-01-13 06:23:47.40	298.35	26.38	-34.0	-43.8	3.8	8.47e-01	0	42	104	0	27	11202
2026-01-13 06:23:48.40	298.05	26.34	-34.0	-43.8	3.8	8.46e-01	0	43	104	0	27	11190
2026-01-13 06:23:49.41	297.75	26.30	-34.0	-43.8	3.8	8.46e-01	0	42	104	0	27	11187
2026-01-13 06:23:50.42	297.45	26.26	-34.0	-43.8	3.8	8.46e-01	0	42	104	0	27	11202
2026-01-13 06:23:51.42	297.15	26.21	-34.0	-43.8	3.8	8.46e-01	0	43	104	0	27	11203
2026-01-13 06:23:52.43	296.86	26.17	-34.0	-43.8	3.8	8.45e-01	0	43	104	0	27	11226
2026-01-13 06:23:53.44	296.56	26.13	-34.0	-43.8	3.8	8.46e-01	0	42	104	0	27	11206
2026-01-13 06:23:54.44	296.27	26.09	-34.0	-43.8	3.8	8.45e-01	0	43	104	0	27	11224
2026-01-13 06:23:55.45	295.97	26.04	-34.0	-43.8	3.8	8.45e-01	0	42	104	0	27	11187
2026-01-13 06:23:56.45	295.68	26.00	-34.0	-43.8	3.8	8.45e-01	0	43	104	0	27	11198
2026-01-13 06:23:57.46	295.38	25.95	-34.0	-43.8	3.8	8.46e-01	0	43	104	0	27	11204
2026-01-13 06:23:58.46	295.09	25.90	-34.0	-43.8	3.8	8.45e-01	0	42	104	0	27	11223
2026-01-13 06:23:59.46	294.80	25.86	-34.0	-43.8	3.8	8.47e-01	0	43	104	0	27	11201
2026-01-13 06:24:00.47	294.51	25.81	-34.0	-43.8	3.8	8.46e-01	0	43	104	0	27	11221
2026-01-13 06:24:01.48	294.22	25.76	-34.0	-43.8	3.8	8.46e-01	0	42	104	0	27	11207
2026-01-13 06:24:02.49	293.93	25.71	-34.0	-43.8	3.8	8.46e-01	0	42	104	0	27	11211
2026-01-13 06:24:03.49	293.65	25.66	-34.0	-43.9	3.8	8.46e-01	0	42	104	0	27	11248
2026-01-13 06:24:04.50	293.36	25.61	-34.0	-43.8	3.8	8.45e-01	0	42	104	0	27	11220
2026-01-13 06:24:05.50	293.08	25.55	-34.0	-43.8	3.8	8.47e-01	0	43	104	0	27	11215
2026-01-13 06:24:06.50	292.79	25.50	-34.0	-43.8	3.8	8.47e-01	0	43	104	0	27	11202
2026-01-13 06:24:07.51	292.51	25.45	-34.0	-43.9	3.8	8.46e-01	0	43	104	0	27	11277
2026-01-13 06:24:08.51	292.23	25.40	-34.0	-43.9	3.8	8.46e-01	0	42	104	0	27	11228
2026-01-13 06:24:09.51	291.95	25.34	-34.0	-43.8	3.8	8.45e-01	0	43	104	0	27	11185
2026-01-13 06:24:10.52	291.67	25.29	-34.0	-43.8	3.8	8.46e-01	0	42	104	0	27	11212
2026-01-13 06:24:11.52	291.39	25.23	-34.0	-43.8	3.8	8.46e-01	0	43	104	0	27	11185
2026-01-13 06:24:12.53	291.11	25.17	-34.0	-43.8	3.8	8.46e-01	0	43	104	0	27	11224
2026-01-13 06:24:13.53	290.83	25.12	-34.0	-43.8	3.8	8.46e-01	0	43	104	0	27	11206
2026-01-13 06:24:14.54	290.55	25.06	-34.0	-43.8	3.8	8.45e-01	0	43	104	0	27	11215
2026-01-13 06:24:15.54	290.28	25.00	-34.0	-43.9	3.8	8.46e-01	0	43	104	0	27	11253
2026-01-13 06:24:16.55	290.00	24.94	-34.0	-43.8	3.8	8.46e-01	0	42	104	0	27	11193
2026-01-13 06:24:17.56	289.73	24.88	-34.0	-43.8	3.8	8.45e-01	0	43	104	0	27	11190
2026-01-13 06:24:18.56	289.46	24.82	-34.0	-43.8	3.8	8.47e-01	0	43	104	0	27	11192
2026-01-13 06:24:19.57	289.18	24.76	-34.0	-43.8	3.8	8.46e-01	0	43	104	0	27	11193
2026-01-13 06:24:20.58	288.91	24.70	-34.0	-43.8	3.8	8.46e-01	0	43	104	0	27	11191
2026-01-13 06:24:21.58	288.64	24.64	-34.0	-43.8	3.8	8.45e-01	0	43	104	0	27	11206
2026-01-13 06:24:22.59	288.37	24.58	-34.0	-43.8	3.8	8.45e-01	0	42	104	0	27	11182
2026-01-13 06:24:23.59	288.11	24.52	-34.0	-43.8	3.8	8.46e-01	0	43	104	0	27	11167
2026-01-13 06:24:24.60	287.84	24.45	-34.0	-43.8	3.8	8.47e-01	0	43	104	0	27	11203
2026-01-13 06:24:25.61	287.57	24.39	-34.0	-43.8	3.8	8.45e-01	0	43	104	0	27	11195
2026-01-13 06:24:26.61	287.31	24.32	-34.0	-43.8	3.8	8.46e-01	0	43	104	0	27	11226
2026-01-13 06:24:27.62	287.05	24.26	-34.0	-43.8	3.8	8.46e-01	0	42	104	0	27	11165
2026-01-13 06:24:28.62	286.79	24.19	-34.0	-43.8	3.8	8.45e-01	0	43	104	0	27	11126
2026-01-13 06:24:29.63	286.53	24.13	-34.0	-43.8	3.8	8.47e-01	0	43	104	0	27	11168
2026-01-13 06:24:30.64	286.26	24.06	-32.9	-42.7	3.8	8.47e-01	0	43	104	0	27	11137
2026-01-13 06:24:31.65	286.00	23.99	-34.0	-43.8	3.8	8.46e-01	0	43	104	0	27	11198
2026-01-13 06:24:32.65	285.75	23.93	-34.0	-43.8	3.8	8.46e-01	0	43	104	0	27	11228
2026-01-13 06:24:33.65	285.49	23.86	-34.0	-43.8	3.8	8.47e-01	0	42	104	0	27	11179
2026-01-13 06:24:34.66	285.24	23.79	-34.0	-43.8	3.8	8.47e-01	0	43	104	0	27	11231
2026-01-13 06:24:35.67	284.98	23.72	-34.0	-43.8	3.8	8.46e-01	0	43	104	0	27	11155
2026-01-13 06:24:36.68	284.73	23.65	-34.0	-43.8	3.8	8.46e-01	0	43	104	0	27	11170
2026-01-13 06:24:37.68	284.48	23.59	-34.0	-43.8	3.8	8.46e-01	0	43	104	0	27	11186
2026-01-13 06:24:38.69	284.22	23.52	-34.0	-43.8	3.8	8.47e-01	0	43	104	0	27	11221
2026-01-13 06:24:39.69	283.98	23.45	-34.0	-43.8	3.8	8.46e-01	0	42	104	0	27	11187
2026-01-13 06:24:40.70	283.73	23.37	-34.0	-43.8	3.8	8.46e-01	0	43	104	0	27	11179
2026-01-13 06:24:41.71	283.48	23.30	-34.0	-43.8	3.8	8.47e-01	0	43	104	0	27	11192
2026-01-13 06:24:42.71	283.23	23.23	-34.0	-43.8	3.8	8.46e-01	0	43	104	0	27	11205
2026-01-13 06:24:43.73	282.98	23.16	-34.0	-43.8	3.8	8.46e-01	0	43	104	0	27	11203
2026-01-13 06:24:44.73	282.74	23.09	-34.0	-43.8	3.8	8.46e-01	0	43	104	0	27	11209
2026-01-13 06:24:45.73	282.50	23.02	-34.0	-43.8	3.8	8.46e-01	0	43	104	0	27	11215
2026-01-13 06:24:46.74	282.26	22.94	-34.0	-43.8	3.8	8.46e-01	0	42	104	0	27	11178
2026-01-13 06:24:47.76	282.01	22.87	-34.0	-43.8	3.8	8.45e-01	0	43	104	0	27	11186
2026-01-13 06:24:48.76	281.77	22.80	-34.0	-43.8	3.8	8.47e-01	0	43	104	0	27	11218
2026-01-13 06:24:49.76	281.54	22.72	-34.0	-43.8	3.8	8.46e-01	0	42	104	0	27	11163
2026-01-13 06:24:50.77	281.30	22.65	-34.0	-43.8	3.8	8.46e-01	0	43	104	0	27	11212
2026-01-13 06:24:51.77	281.06	22.57	-34.0	-43.8	3.8	8.46e-01	0	42	104	0	27	11115
2026-01-13 06:24:52.77	280.83	22.50	-34.0	-43.9	3.8	8.46e-01	0	42	104	0	27	11229
2026-01-13 06:24:53.78	280.60	22.43	-34.0	-43.8	3.8	8.47e-01	0	42	104	0	27	11210
2026-01-13 06:24:54.79	280.36	22.35	-34.0	-43.8	3.8	8.45e-01	0	43	104	0	27	11205
2026-01-13 06:24:55.79	280.13	22.27	-34.0	-43.8	3.8	8.46e-01	0	42	104	0	27	11216
2026-01-13 06:24:56.80	279.90	22.20	-34.0	-43.8	3.8	8.46e-01	0	43	104	0	27	11201
2026-01-13 06:24:57.81	279.67	22.12	-34.0	-43.8	3.8	8.46e-01	0	43	104	0	27	11170
2026-01-13 06:24:58.81	279.44	22.05	-34.0	-43.9	3.8	8.45e-01	0	43	104	0	27	11236
2026-01-13 06:24:59.82	279.21	21.97	-34.0	-43.8	3.8	8.46e-01	0	43	104	0	27	11190
2026-01-13 06:25:00.83	278.99	21.89	-34.0	-43.8	3.8	8.46e-01	0	43	104	0	27	11164
2026-01-13 06:25:01.84	278.76	21.82	-34.0	-43.9	3.8	8.46e-01	0	43	104	0	27	11271
2026-01-13 06:25:02.84	278.54	21.74	-34.0	-43.8	3.8	8.47e-01	0	43	104	0	27	11209
2026-01-13 06:25:03.85	278.32	21.66	-34.0	-43.8	3.8	8.46e-01	0	42	104	0	27	11206
2026-01-13 06:25:04.86	278.09	21.58	-34.0	-43.8	3.8	8.46e-01	0	43	104	0	27	11189
2026-01-13 06:25:05.86	277.87	21.50	-34.0	-43.8	3.8	8.47e-01	0	42	104	0	27	11220
2026-01-13 06:25:06.87	277.65	21.43	-34.0	-43.8	3.8	8.46e-01	0	43	104	0	27	11167
2026-01-13 06:25:07.87	277.44	21.35	-34.0	-43.8	3.8	8.46e-01	0	43	104	0	27	11229
2026-01-13 06:25:08.88	277.22	21.27	-34.0	-43.8	3.8	8.47e-01	0	42	104	0	27	11192
2026-01-13 06:25:09.88	277.00	21.19	-34.0	-43.8	3.8	8.46e-01	0	43	104	0	27	11195
2026-01-13 06:25:10.89	276.79	21.11	-34.0	-43.8	3.8	8.46e-01	0	43	104	0	27	11148
2026-01-13 06:25:11.89	276.58	21.03	-34.0	-43.8	3.8	8.45e-01	0	42	104	0	27	11200
2026-01-13 06:25:12.89	276.36	20.95	-34.0	-43.8	3.8	8.45e-01	0	42	104	0	27	11201
2026-01-13 06:25:13.89	276.15	20.88	-34.0	-43.9	3.8	8.46e-01	0	42	104	0	27	11238
2026-01-13 06:25:14.90	275.94	20.80	-34.0	-43.8	3.8	8.45e-01	0	43	104	0	27	11217
2026-01-13 06:25:15.91	275.73	20.72	-34.0	-43.8	3.8	8.45e-01	0	42	104	0	27	11182
2026-01-13 06:25:16.91	275.53	20.64	-34.0	-43.8	3.8	8.45e-01	0	42	104	0	27	11202
2026-01-13 06:25:17.92	275.32	20.56	-34.0	-43.8	3.8	8.47e-01	0	42	104	0	27	11173
2026-01-13 06:25:18.93	275.11	20.47	-34.0	-43.8	3.8	8.47e-01	0	43	104	0	27	11172
2026-01-13 06:25:19.93	274.91	20.39	-34.0	-43.9	3.8	8.46e-01	0	43	104	0	27	11236
2026-01-13 06:25:20.93	274.70	20.31	-34.0	-43.9	3.8	8.46e-01	0	43	104	0	27	11229
2026-01-13 06:25:21.94	274.50	20.23	-34.0	-43.8	3.8	8.46e-01	0	42	104	0	27	11219
2026-01-13 06:25:22.95	274.30	20.15	-34.0	-43.8	3.8	8.47e-01	0	43	104	0	27	11211
2026-01-13 06:25:23.95	274.10	20.07	-34.0	-43.8	3.8	8.47e-01	0	42	104	0	27	11221
2026-01-13 06:25:24.96	273.90	19.99	-34.0	-43.9	3.8	8.46e-01	0	43	104	0	27	11254
2026-01-13 06:25:25.97	273.70	19.91	-34.0	-43.8	3.8	8.46e-01	0	42	104	0	27	11193
2026-01-13 06:25:26.97	273.50	19.83	-34.0	-43.8	3.8	8.45e-01	0	42	104	0	27	11168
2026-01-13 06:25:27.98	273.30	19.75	-34.0	-43.8	3.8	8.47e-01	0	42	104	0	27	11218
2026-01-13 06:25:28.98	273.11	19.67	-34.0	-43.8	3.8	8.47e-01	0	42	104	0	27	11182
2026-01-13 06:25:30.00	272.91	19.58	-34.0	-43.8	3.8	8.46e-01	0	42	104	0	27	11221
2026-01-13 06:25:31.01	272.72	19.50	-34.0	-43.8	3.8	8.46e-01	0	43	104	0	27	11189
2026-01-13 06:25:32.01	272.53	19.42	-34.0	-43.8	3.8	8.46e-01	0	42	104	0	27	11204
2026-01-13 06:25:33.02	272.34	19.34	-34.0	-43.8	3.8	8.46e-01	0	42	104	0	27	11184
2026-01-13 06:25:34.02	272.15	19.26	-34.0	-43.8	3.8	8.46e-01	0	42	104	0	27	11197
2026-01-13 06:25:35.03	271.96	19.18	-34.0	-43.8	3.8	8.46e-01	0	43	104	0	27	11241
2026-01-13 06:25:36.04	271.77	19.09	-34.0	-43.8	3.8	8.45e-01	0	42	104	0	27	11209
2026-01-13 06:25:37.05	271.58	19.01	-34.0	-43.8	3.8	8.46e-01	0	42	104	0	27	11213
2026-01-13 06:25:38.05	271.39	18.93	-34.0	-43.8	3.8	8.45e-01	0	42	104	0	27	11221
2026-01-13 06:25:39.06	271.21	18.85	-34.0	-43.8	3.8	8.46e-01	0	43	104	0	27	11193
2026-01-13 06:25:40.07	271.02	18.77	-34.0	-43.9	3.8	8.46e-01	0	42	104	0	27	11251
2026-01-13 06:25:41.07	270.84	18.68	-34.0	-43.8	3.8	8.47e-01	0	42	104	0	27	11229
2026-01-13 06:25:42.08	270.66	18.60	-34.0	-43.8	3.8	8.46e-01	0	43	104	0	27	11227
2026-01-13 06:25:43.09	270.48	18.52	-33.9	-43.8	3.8	8.46e-01	0	43	104	0	27	11203
2026-01-13 06:25:44.09	270.30	18.44	-34.0	-43.8	3.8	8.46e-01	0	43	104	0	27	11180
2026-01-13 06:25:45.10	270.12	18.36	-34.0	-43.8	3.8	8.46e-01	0	42	104	0	27	11187
2026-01-13 06:25:46.11	269.94	18.27	-34.0	-43.8	3.8	8.47e-01	0	43	104	0	27	11189
2026-01-13 06:25:47.11	269.76	18.19	-34.0	-43.8	3.8	8.46e-01	0	43	104	0	27	11177
2026-01-13 06:25:48.12	269.58	18.11	-32.9	-42.7	3.8	8.46e-01	0	43	104	0	27	11116
2026-01-13 06:25:49.11	269.41	18.03	-34.0	-43.8	3.8	8.46e-01	0	43	104	0	27	11112
2026-01-13 06:25:50.12	269.24	17.95	-34.0	-43.8	3.8	8.46e-01	0	43	104	0	27	11229
2026-01-13 06:25:51.13	269.06	17.86	-34.0	-43.8	3.8	8.45e-01	0	42	104	0	27	11194
2026-01-13 06:25:52.14	268.89	17.78	-34.0	-43.8	3.9	8.46e-01	0	42	104	0	27	11173
2026-01-13 06:25:53.14	268.72	17.70	-34.0	-43.8	3.8	8.46e-01	0	42	104	0	27	11207
2026-01-13 06:25:54.14	268.55	17.62	-34.0	-43.8	3.8	8.45e-01	0	43	104	0	27	11118
2026-01-13 06:25:55.15	268.38	17.53	-34.0	-43.8	3.8	8.46e-01	0	43	104	0	27	11197
2026-01-13 06:25:56.16	268.21	17.45	-34.0	-43.8	3.8	8.46e-01	0	42	104	0	27	11176
2026-01-13 06:25:57.16	268.04	17.37	-34.0	-43.8	3.8	8.45e-01	0	43	104	0	27	11185
2026-01-13 06:25:58.17	267.88	17.29	-34.0	-43.8	3.8	8.46e-01	0	42	104	0	27	11230
2026-01-13 06:25:59.18	267.71	17.21	-33.9	-43.8	3.8	8.46e-01	0	42	104	0	27	11195
2026-01-13 06:26:00.19	267.54	17.12	-34.0	-43.8	3.8	8.48e-01	0	42	104	0	27	11190
2026-01-13 06:26:01.19	267.38	17.04	-34.0	-43.8	3.8	8.46e-01	0	42	104	0	27	11160
2026-01-13 06:26:02.20	267.22	16.96	-34.0	-43.8	3.8	8.46e-01	0	43	104	0	27	11217
2026-01-13 06:26:03.21	267.05	16.88	-34.0	-43.8	3.8	8.46e-01	0	42	104	0	27	11198
2026-01-13 06:26:04.21	266.89	16.80	-34.0	-43.8	3.8	8.47e-01	0	42	104	0	27	11186
2026-01-13 06:26:05.22	266.73	16.71	-33.9	-43.8	3.8	8.46e-01	0	42	104	0	27	11158
2026-01-13 06:26:06.22	266.57	16.63	-34.0	-43.8	3.8	8.47e-01	0	43	104	0	27	11219
2026-01-13 06:26:07.23	266.41	16.55	-34.0	-43.8	3.8	8.46e-01	0	42	104	0	27	11202
2026-01-13 06:26:08.24	266.25	16.47	-34.0	-43.8	3.8	8.46e-01	0	42	104	0	27	11199
2026-01-13 06:26:09.24	266.10	16.39	-34.0	-43.8	3.8	8.46e-01	0	42	104	0	27	11219
2026-01-13 06:26:10.25	265.94	16.30	-34.0	-43.8	3.8	8.46e-01	0	42	104	0	27	11207
2026-01-13 06:26:11.26	265.79	16.22	-33.9	-43.8	3.8	8.46e-01	0	42	104	0	27	11192
2026-01-13 06:26:12.26	265.63	16.14	-34.0	-43.8	3.8	8.46e-01	0	42	104	0	27	11200
2026-01-13 06:26:13.27	265.48	16.06	-34.0	-43.8	3.8	8.46e-01	0	42	104	0	27	11190
2026-01-13 06:26:14.28	265.32	15.98	-34.0	-43.8	3.8	8.45e-01	0	43	104	0	27	11211
2026-01-13 06:26:15.28	265.17	15.90	-34.0	-43.8	3.8	8.46e-01	0	42	104	0	27	11220
2026-01-13 06:26:16.29	265.02	15.82	-33.9	-43.8	3.8	8.45e-01	0	43	104	0	27	11175
2026-01-13 06:26:17.30	264.87	15.73	-33.9	-43.8	3.8	8.46e-01	0	42	104	0	27	11209
2026-01-13 06:26:18.31	264.72	15.65	-34.0	-43.8	3.8	8.46e-01	0	42	104	0	27	11206
2026-01-13 06:26:19.31	264.57	15.57	-34.0	-43.8	3.8	8.47e-01	0	42	104	0	27	11210
2026-01-13 06:26:20.32	264.42	15.49	-34.0	-43.8	3.8	8.47e-01	0	42	104	0	27	11173
2026-01-13 06:26:21.33	264.28	15.41	-34.0	-43.9	3.8	8.47e-01	0	43	104	0	27	11233
2026-01-13 06:26:22.33	264.13	15.33	-33.9	-43.8	3.8	8.47e-01	0	42	104	0	27	11215
2026-01-13 06:26:23.34	263.99	15.25	-33.9	-43.8	3.8	8.46e-01	0	42	104	0	27	11170
2026-01-13 06:26:24.35	263.84	15.17	-33.9	-43.8	3.8	8.45e-01	0	42	104	0	27	11175
2026-01-13 06:26:25.36	263.70	15.09	-33.9	-43.8	3.8	8.45e-01	0	42	104	0	27	11200
2026-01-13 06:26:26.36	263.55	15.01	-33.9	-43.8	3.8	8.47e-01	0	42	104	0	27	11152
2026-01-13 06:26:27.37	263.41	14.93	-33.9	-43.8	3.8	8.46e-01	0	43	104	0	27	11152
2026-01-13 06:26:28.38	263.27	14.85	-33.9	-43.8	3.8	8.47e-01	0	42	104	0	27	11166
2026-01-13 06:26:29.38	263.13	14.77	-33.9	-43.8	3.8	8.47e-01	0	42	104	0	27	11152
2026-01-13 06:26:30.39	262.99	14.69	-33.9	-43.8	3.8	8.46e-01	0	42	104	0	27	11166
2026-01-13 06:26:31.40	262.85	14.61	-33.9	-43.8	3.8	8.46e-01	0	42	104	0	27	11188
2026-01-13 06:26:32.40	262.71	14.53	-33.9	-43.8	3.8	8.45e-01	0	42	104	0	27	11201
2026-01-13 06:26:33.41	262.57	14.45	-33.9	-43.8	3.8	8.47e-01	0	42	104	0	27	11182
2026-01-13 06:26:34.41	262.44	14.37	-33.9	-43.8	3.8	8.46e-01	0	43	104	0	27	11221
2026-01-13 06:26:35.41	262.30	14.29	-33.9	-43.8	3.8	8.46e-01	0	42	104	0	27	11223
2026-01-13 06:26:36.42	262.16	14.21	-33.9	-43.8	3.8	8.47e-01	0	42	104	0	27	11188
2026-01-13 06:26:37.42	262.03	14.13	-33.9	-43.8	3.8	8.46e-01	0	42	104	0	27	11217
2026-01-13 06:26:38.43	261.90	14.05	-33.9	-43.7	3.8	8.47e-01	0	42	104	0	27	11113
2026-01-13 06:26:39.44	261.76	13.97	-33.9	-43.8	3.8	8.45e-01	0	42	104	0	27	11193
2026-01-13 06:26:40.44	261.63	13.89	-33.9	-43.8	3.8	8.47e-01	0	42	104	0	27	11174
2026-01-13 06:26:41.45	261.50	13.81	-33.9	-43.8	3.8	8.46e-01	0	42	104	0	27	11197
2026-01-13 06:26:42.46	261.37	13.73	-33.9	-43.8	3.8	8.45e-01	0	42	104	0	27	11186
2026-01-13 06:26:43.46	261.24	13.65	-33.9	-43.8	3.8	8.46e-01	0	42	104	0	27	11173
2026-01-13 06:26:44.46	261.11	13.58	-33.9	-43.8	3.8	8.45e-01	0	42	104	0	27	11185
2026-01-13 06:26:45.47	260.98	13.50	-33.9	-43.8	3.8	8.46e-01	0	42	104	0	27	11154
2026-01-13 06:26:46.47	260.85	13.42	-33.9	-43.8	3.8	8.46e-01	0	42	104	0	27	11174
2026-01-13 06:26:47.48	260.72	13.34	-33.9	-43.8	3.8	8.46e-01	0	42	104	0	27	11175
2026-01-13 06:26:48.49	260.60	13.26	-33.9	-43.8	3.8	8.46e-01	0	42	104	0	27	11180
2026-01-13 06:26:49.50	260.47	13.18	-34.0	-43.8	3.8	8.47e-01	0	42	104	0	27	11193
2026-01-13 06:26:50.50	260.34	13.11	-33.9	-43.7	3.8	8.46e-01	0	43	104	0	27	11123
2026-01-13 06:26:51.51	260.22	13.03	-33.9	-43.8	3.8	8.47e-01	0	42	104	0	27	11183
2026-01-13 06:26:52.51	260.10	12.95	-33.9	-43.8	3.8	8.46e-01	0	42	104	0	27	11172
2026-01-13 06:26:53.51	259.97	12.87	-33.9	-43.8	3.8	8.47e-01	0	43	104	0	27	11182
2026-01-13 06:26:54.52	259.85	12.79	-33.9	-43.8	3.8	8.47e-01	0	42	104	0	27	11161
2026-01-13 06:26:55.52	259.73	12.72	-33.9	-43.8	3.8	8.46e-01	0	43	104	0	27	11166
2026-01-13 06:26:56.53	259.61	12.64	-33.9	-43.7	3.8	8.46e-01	0	42	104	0	27	11156
2026-01-13 06:26:57.54	259.48	12.56	-33.9	-43.8	3.8	8.46e-01	0	42	104	0	27	11164
2026-01-13 06:26:58.55	259.36	12.49	-33.9	-43.8	3.8	8.46e-01	0	43	104	0	27	11172
2026-01-13 06:26:59.55	259.24	12.41	-33.9	-43.7	3.8	8.46e-01	0	42	104	0	27	11155
2026-01-13 06:27:00.56	259.12	12.33	-33.9	-43.8	3.8	8.46e-01	0	42	104	0	27	11194
2026-01-13 06:27:01.57	259.01	12.25	-33.9	-43.8	3.8	8.46e-01	0	42	104	0	27	11200
2026-01-13 06:27:02.57	258.89	12.18	-33.9	-43.7	3.8	8.45e-01	0	43	104	0	27	11147
2026-01-13 06:27:03.58	258.77	12.10	-33.9	-43.8	3.8	8.45e-01	0	42	104	0	27	11183
2026-01-13 06:27:04.58	258.66	12.03	-33.9	-43.8	3.8	8.46e-01	0	42	104	0	27	11201
2026-01-13 06:27:05.59	258.54	11.95	-33.9	-43.8	3.8	8.47e-01	0	42	104	0	27	11169
2026-01-13 06:27:06.60	258.42	11.87	-33.9	-43.8	3.8	8.45e-01	0	42	104	0	27	11166
2026-01-13 06:27:07.60	258.31	11.80	-33.9	-43.7	3.8	8.45e-01	0	42	104	0	27	11135
2026-01-13 06:27:08.61	258.19	11.72	-33.9	-43.8	3.8	8.46e-01	0	42	104	0	27	11147
2026-01-13 06:27:09.61	258.08	11.65	-33.9	-43.7	3.8	8.45e-01	0	42	104	0	27	11130
2026-01-13 06:27:10.61	257.97	11.57	-33.9	-43.8	3.8	8.47e-01	0	42	104	0	27	11157
2026-01-13 06:27:11.62	257.86	11.49	-33.9	-43.8	3.8	8.46e-01	0	42	104	0	27	11155
2026-01-13 06:27:12.63	257.74	11.42	-33.9	-43.8	3.8	8.46e-01	0	42	104	0	27	11171
2026-01-13 06:27:13.64	257.63	11.34	-33.9	-43.7	3.8	8.47e-01	0	42	104	0	27	11140
2026-01-13 06:27:14.64	257.52	11.27	-33.9	-43.8	3.8	8.45e-01	0	42	104	0	27	11217
2026-01-13 06:27:15.65	257.41	11.19	-33.9	-43.8	3.8	8.46e-01	0	42	104	0	27	11141
2026-01-13 06:27:16.66	257.30	11.12	-33.9	-43.8	3.8	8.47e-01	0	42	104	0	27	11170
2026-01-13 06:27:17.67	257.19	11.04	-33.9	-43.8	3.8	8.47e-01	0	42	104	0	27	11176
2026-01-13 06:27:18.67	257.09	10.97	-33.9	-43.7	3.8	8.46e-01	0	42	104	0	27	11101
2026-01-13 06:27:19.67	256.98	10.89	-33.9	-43.8	3.8	8.46e-01	0	42	104	0	27	11159
2026-01-13 06:27:20.68	256.87	10.82	-33.9	-43.8	3.8	8.46e-01	0	43	104	0	27	11168
2026-01-13 06:27:21.68	256.77	10.75	-33.9	-43.7	3.8	8.46e-01	0	42	104	0	27	11110
2026-01-13 06:27:22.69	256.66	10.67	-33.9	-43.8	3.8	8.46e-01	0	42	104	0	27	11153
2026-01-13 06:27:23.69	256.55	10.60	-33.9	-43.8	3.8	8.45e-01	0	42	104	0	27	11170
2026-01-13 06:27:24.70	256.45	10.52	-33.9	-43.8	3.8	8.46e-01	0	42	104	0	27	11188
2026-01-13 06:27:25.71	256.34	10.45	-33.9	-43.8	3.8	8.46e-01	0	42	104	0	27	11165
2026-01-13 06:27:26.71	256.24	10.38	-33.9	-43.8	3.8	8.46e-01	0	42	104	0	27	11164
2026-01-13 06:27:27.71	256.14	10.30	-33.9	-43.8	3.8	8.47e-01	0	42	104	0	27	11172
2026-01-13 06:27:28.72	256.03	10.23	-33.9	-43.8	3.8	8.45e-01	0	42	104	0	27	11167
2026-01-13 06:27:29.72	255.93	10.16	-33.9	-43.8	3.8	8.46e-01	0	42	104	0	27	11203
2026-01-13 06:27:30.73	255.83	10.08	-33.9	-43.8	3.8	8.47e-01	0	42	104	0	27	11183
2026-01-13 06:27:31.73	255.73	10.01	-33.9	-43.7	3.8	8.46e-01	0	43	104	0	27	11112
2026-01-13 06:27:32.73	255.63	9.94	-33.9	-43.7	3.8	8.47e-01	0	42	104	0	27	11144
2026-01-13 06:27:33.73	255.53	9.87	-33.9	-43.8	3.8	8.47e-01	0	42	104	0	27	11153
2026-01-13 06:27:34.74	255.43	9.79	-33.9	-43.8	3.8	8.46e-01	0	42	104	0	27	11174
2026-01-13 06:27:35.74	255.33	9.72	-33.9	-43.8	3.8	8.46e-01	0	42	104	0	27	11158
2026-01-13 06:27:36.75	255.23	9.65	-33.9	-43.8	3.8	8.47e-01	0	42	104	0	27	11156
2026-01-13 06:27:37.75	255.13	9.58	-33.9	-43.8	3.8	8.46e-01	0	42	104	0	27	11201
2026-01-13 06:27:38.76	255.04	9.50	-33.9	-43.7	3.8	8.45e-01	0	42	104	0	27	11155
2026-01-13 06:27:39.77	254.94	9.43	-33.9	-43.8	3.8	8.46e-01	0	43	104	0	27	11168
2026-01-13 06:27:40.78	254.84	9.36	-33.9	-43.8	3.8	8.45e-01	0	42	104	0	27	11177
2026-01-13 06:27:41.78	254.75	9.29	-33.9	-43.8	3.8	8.46e-01	0	42	104	0	27	11185
2026-01-13 06:27:42.79	254.65	9.22	-33.9	-43.7	3.8	8.46e-01	0	42	104	0	27	11153
2026-01-13 06:27:43.79	254.56	9.15	-33.9	-43.8	3.8	8.46e-01	0	42	104	0	27	11164
2026-01-13 06:27:44.80	254.46	9.07	-33.9	-43.7	3.8	8.45e-01	0	42	104	0	27	11146
2026-01-13 06:27:45.81	254.37	9.00	-33.9	-43.8	3.8	8.46e-01	0	43	104	0	27	11174
2026-01-13 06:27:46.82	254.27	8.93	-33.9	-43.8	3.8	8.48e-01	0	42	104	0	27	11185
2026-01-13 06:27:47.82	254.18	8.86	-33.9	-43.8	3.8	8.45e-01	0	42	104	0	27	11196
2026-01-13 06:27:48.83	254.09	8.79	-33.9	-43.8	3.8	8.45e-01	0	43	104	0	27	11158
2026-01-13 06:27:49.83	253.99	8.72	-33.9	-43.8	3.8	8.46e-01	0	43	104	0	27	11199
2026-01-13 06:27:50.84	253.90	8.65	-33.9	-43.8	3.8	8.45e-01	0	42	104	0	27	11154
2026-01-13 06:27:51.85	253.81	8.58	-33.9	-43.8	3.8	8.46e-01	0	42	104	0	27	11182
2026-01-13 06:27:52.85	253.72	8.51	-33.9	-43.8	3.8	8.45e-01	0	42	104	0	27	11160
2026-01-13 06:27:53.86	253.63	8.44	-33.9	-43.7	3.8	8.46e-01	0	43	104	0	27	11133
2026-01-13 06:27:54.87	253.54	8.37	-33.9	-43.7	3.8	8.46e-01	0	42	104	0	27	11127
2026-01-13 06:27:55.87	253.45	8.30	-33.9	-43.8	3.8	8.46e-01	0	42	104	0	27	11178
2026-01-13 06:27:56.88	253.36	8.23	-33.9	-43.8	3.8	8.45e-01	0	42	104	0	27	11162
2026-01-13 06:27:57.88	253.27	8.16	-33.9	-43.7	3.8	8.46e-01	0	42	104	0	27	11142
2026-01-13 06:27:58.89	253.18	8.09	-33.9	-43.8	3.8	8.47e-01	0	42	104	0	27	11172
2026-01-13 06:27:59.89	253.09	8.02	-33.9	-43.7	3.8	8.47e-01	0	42	104	0	27	11139
2026-01-13 06:28:00.90	253.01	7.95	-33.9	-43.8	3.8	8.46e-01	0	42	104	0	27	11190
2026-01-13 06:28:01.91	252.92	7.88	-33.9	-43.8	3.8	8.46e-01	0	42	104	0	27	11171
2026-01-13 06:28:02.92	252.83	7.81	-33.9	-43.7	3.8	8.46e-01	0	42	104	0	27	11134
2026-01-13 06:28:03.92	252.75	7.74	-33.9	-43.7	3.8	8.46e-01	0	42	104	0	27	11148
2026-01-13 06:28:04.93	252.66	7.67	-33.9	-43.8	3.8	8.47e-01	0	43	104	0	27	11153
2026-01-13 06:28:05.94	252.57	7.60	-33.9	-43.7	3.8	8.47e-01	0	42	104	0	27	11140
2026-01-13 06:28:06.94	252.49	7.54	-33.9	-43.8	3.8	8.46e-01	0	42	104	0	27	11158
2026-01-13 06:28:07.95	252.40	7.47	-33.9	-43.8	3.8	8.46e-01	0	43	104	0	27	11172
2026-01-13 06:28:08.95	252.32	7.40	-33.9	-43.8	3.8	8.47e-01	0	42	104	0	27	11166
2026-01-13 06:28:09.96	252.24	7.33	-33.9	-43.8	3.8	8.46e-01	0	42	104	0	27	11185
2026-01-13 06:28:10.97	252.15	7.26	-33.9	-43.7	3.8	8.45e-01	0	42	104	0	27	11110
2026-01-13 06:28:11.98	252.07	7.20	-33.9	-43.8	3.8	8.46e-01	0	42	104	0	27	11174
2026-01-13 06:28:12.99	251.99	7.13	-33.9	-43.7	3.8	8.45e-01	0	42	104	0	27	11150
2026-01-13 06:28:13.99	251.90	7.06	-33.9	-43.8	3.8	8.45e-01	0	42	104	0	27	11179
2026-01-13 06:28:14.99	251.82	6.99	-33.9	-43.8	3.8	8.47e-01	0	42	104	0	27	11175
2026-01-13 06:28:16.00	251.74	6.93	-33.9	-43.8	3.8	8.47e-01	0	42	104	0	27	11174
2026-01-13 06:28:17.00	251.66	6.86	-33.9	-43.8	3.8	8.45e-01	0	42	104	0	27	11175

#Closed at: 2026-01-13 06:28:17
#Recorded file [0 MB]: D:/data/31010_260113_091755.dat