passes_logs/2026/01/13/R2M6_AANII_01/R2M6_AANII_01__20260113_075754_NOAA_21_JPSS-2_rec.log

#Pass ID: 20260113_075754_NOAA 21 (JPSS-2)
#Satellite: NOAA 21 (JPSS-2)
#Configuration: NOAA 21
#almurnet v.1.7.20240730
#Start time: 2026-01-13 07:57:54

#Version: 2.2.20231116
#Station: R2M6_AANII_01
#Location: 30.233357 lon 59.946436 lat
#TLE: 1 54234U 22150A   26012.26378519  .00000063  00000+0  50547-4 0  9993
#TLE: 2 54234  98.7495 313.1967 0000726 309.1075  51.0036 14.19534275164425

#Time	Az	El	Level	Level2	SNR	BER	BlckErr	Temp	State	Recorded	gain1	gain2
2026-01-13 07:57:54.01	87.07	6.99	-34.0	-45.3	3.8	1.49e+00	0	39	0	0	29	13224
2026-01-13 07:57:55.01	86.96	7.04	-34.0	-45.3	3.8	1.49e+00	0	39	104	0	29	13255
2026-01-13 07:57:56.02	86.85	7.10	-34.0	-45.3	3.8	1.49e+00	0	40	104	0	29	13242
2026-01-13 07:57:57.02	86.74	7.16	-34.0	-45.3	3.8	1.49e+00	0	39	104	0	29	13217
2026-01-13 07:57:58.03	86.63	7.22	-34.0	-45.3	3.8	1.49e+00	0	39	104	0	29	13289
2026-01-13 07:57:59.03	86.52	7.27	-34.0	-45.3	3.8	1.49e+00	0	39	104	0	29	13220
2026-01-13 07:58:00.04	86.40	7.33	-34.0	-45.3	3.8	1.49e+00	0	40	104	0	29	13246
2026-01-13 07:58:01.04	86.29	7.39	-34.0	-45.3	3.8	1.49e+00	0	40	104	0	29	13239
2026-01-13 07:58:02.05	86.18	7.45	-34.0	-45.3	3.8	1.49e+00	0	40	104	0	29	13202
2026-01-13 07:58:03.06	86.07	7.51	-34.0	-45.3	3.8	1.49e+00	0	40	104	0	29	13239
2026-01-13 07:58:04.06	85.95	7.56	-33.9	-45.3	3.8	1.49e+00	0	40	104	0	29	13229
2026-01-13 07:58:05.06	85.84	7.62	-34.0	-45.3	3.8	1.49e+00	0	40	104	0	29	13239
2026-01-13 07:58:06.07	85.73	7.68	-34.0	-45.3	3.8	1.49e+00	0	40	104	0	29	13244
2026-01-13 07:58:07.08	85.61	7.74	-34.0	-45.3	3.8	1.49e+00	0	40	104	0	29	13253
2026-01-13 07:58:08.09	85.50	7.80	-34.0	-45.3	3.8	1.49e+00	0	40	104	0	29	13241
2026-01-13 07:58:09.09	85.38	7.85	-34.0	-45.3	3.8	1.49e+00	0	40	104	0	29	13239
2026-01-13 07:58:10.10	85.26	7.91	-34.0	-45.3	3.8	1.49e+00	0	40	104	0	29	13208
2026-01-13 07:58:11.11	85.15	7.97	-34.0	-45.3	3.8	1.49e+00	0	40	104	0	29	13224
2026-01-13 07:58:12.11	85.03	8.03	-34.0	-45.3	3.8	1.49e+00	0	40	104	0	29	13264
2026-01-13 07:58:13.12	84.91	8.09	-34.0	-45.3	3.8	1.49e+00	0	40	104	0	29	13228
2026-01-13 07:58:14.12	84.80	8.14	-34.0	-45.3	3.8	1.49e+00	0	40	104	0	29	13237
2026-01-13 07:58:15.13	84.68	8.20	-34.0	-45.3	3.8	1.49e+00	0	40	104	0	29	13254
2026-01-13 07:58:16.14	84.56	8.26	-34.0	-45.3	3.8	1.49e+00	0	40	104	0	29	13268
2026-01-13 07:58:17.14	84.44	8.32	-34.0	-45.3	3.8	1.49e+00	0	40	104	0	29	13227
2026-01-13 07:58:18.15	84.32	8.38	-34.0	-45.3	3.8	1.49e+00	0	40	104	0	29	13228
2026-01-13 07:58:19.16	84.20	8.44	-34.0	-45.3	3.8	1.49e+00	0	40	104	0	29	13266
2026-01-13 07:58:20.17	84.08	8.49	-34.0	-45.3	3.8	1.49e+00	0	40	104	0	29	13230
2026-01-13 07:58:21.17	83.95	8.55	-34.0	-45.3	3.8	1.49e+00	0	40	104	0	29	13246
2026-01-13 07:58:22.18	83.83	8.61	-34.0	-45.3	3.8	1.49e+00	0	40	104	0	29	13225
2026-01-13 07:58:23.18	83.71	8.67	-34.0	-45.3	3.8	1.49e+00	0	40	104	0	29	13221
2026-01-13 07:58:24.19	83.59	8.73	-34.0	-45.3	3.8	1.49e+00	0	40	104	0	29	13253
2026-01-13 07:58:25.20	83.46	8.79	-34.0	-45.3	3.8	1.49e+00	0	40	104	0	29	13215
2026-01-13 07:58:26.20	83.34	8.84	-34.0	-45.3	3.8	1.49e+00	0	40	104	0	29	13231
2026-01-13 07:58:27.20	83.22	8.90	-34.0	-45.3	3.8	1.49e+00	0	40	104	0	29	13250
2026-01-13 07:58:28.21	83.09	8.96	-34.0	-45.3	3.8	1.49e+00	0	40	104	0	29	13239
2026-01-13 07:58:29.21	82.97	9.02	-34.0	-45.3	3.8	1.49e+00	0	40	104	0	29	13228
2026-01-13 07:58:30.22	82.84	9.08	-34.0	-45.3	3.8	1.49e+00	0	40	104	0	29	13247
2026-01-13 07:58:31.23	82.71	9.14	-34.0	-45.3	3.8	1.49e+00	0	40	104	0	29	13291
2026-01-13 07:58:32.24	82.59	9.20	-34.0	-45.3	3.8	1.49e+00	0	40	104	0	29	13230
2026-01-13 07:58:33.24	82.46	9.25	-34.0	-45.3	3.8	1.49e+00	0	40	104	0	29	13234
2026-01-13 07:58:34.24	82.33	9.31	-34.0	-45.3	3.8	1.49e+00	0	41	104	0	29	13252
2026-01-13 07:58:35.25	82.20	9.37	-34.0	-45.3	3.8	1.49e+00	0	40	104	0	29	13229
2026-01-13 07:58:36.25	82.07	9.43	-34.0	-45.3	3.8	1.49e+00	0	41	104	0	29	13214
2026-01-13 07:58:37.26	81.94	9.49	-34.0	-45.3	3.8	1.49e+00	0	40	104	0	29	13249
2026-01-13 07:58:38.27	81.81	9.55	-34.0	-45.3	3.8	1.49e+00	0	41	104	0	29	13208
2026-01-13 07:58:39.26	81.68	9.60	-34.0	-45.3	3.8	1.49e+00	0	41	104	0	29	13250
2026-01-13 07:58:40.27	81.55	9.66	-34.0	-45.3	3.8	1.49e+00	0	41	104	0	29	13268
2026-01-13 07:58:41.28	81.42	9.72	-34.0	-45.3	3.8	1.49e+00	0	41	104	0	29	13243
2026-01-13 07:58:42.29	81.29	9.78	-34.0	-45.3	3.8	1.49e+00	0	41	104	0	29	13211
2026-01-13 07:58:43.29	81.16	9.84	-34.0	-45.3	3.8	1.49e+00	0	41	104	0	29	13205
2026-01-13 07:58:44.30	81.02	9.89	-34.0	-45.3	3.8	1.49e+00	0	41	104	0	29	13207
2026-01-13 07:58:45.31	80.89	9.95	-34.0	-45.3	3.8	1.49e+00	0	41	104	0	29	13234
2026-01-13 07:58:46.31	80.75	10.01	-34.0	-45.3	3.8	1.49e+00	0	41	104	0	29	13285
2026-01-13 07:58:47.32	80.62	10.07	-34.0	-45.3	3.8	1.49e+00	0	41	104	0	29	13227
2026-01-13 07:58:48.33	80.48	10.13	-34.0	-45.3	3.8	1.49e+00	0	41	104	0	29	13206
2026-01-13 07:58:49.34	80.35	10.19	-34.0	-45.3	3.8	1.49e+00	0	41	104	0	29	13265
2026-01-13 07:58:50.34	80.21	10.24	-34.0	-45.3	3.8	1.49e+00	0	41	104	0	29	13243
2026-01-13 07:58:51.35	80.07	10.30	-34.0	-45.3	3.8	1.49e+00	0	41	104	0	29	13275
2026-01-13 07:58:52.36	79.93	10.36	-34.0	-45.3	3.8	1.49e+00	0	41	104	0	29	13243
2026-01-13 07:58:53.36	79.80	10.42	-34.0	-45.3	3.8	1.49e+00	0	41	104	0	29	13241
2026-01-13 07:58:54.37	79.66	10.48	-34.0	-45.3	3.8	1.49e+00	0	41	104	0	29	13256
2026-01-13 07:58:55.37	79.52	10.54	-34.0	-45.3	3.8	1.49e+00	0	41	104	0	29	13231
2026-01-13 07:58:56.38	79.38	10.59	-34.0	-45.3	3.8	1.49e+00	0	41	104	0	29	13248
2026-01-13 07:58:57.39	79.24	10.65	-34.0	-45.3	3.8	1.49e+00	0	41	104	0	29	13214
2026-01-13 07:58:58.39	79.10	10.71	-34.0	-45.3	3.8	1.49e+00	0	41	104	0	29	13279
2026-01-13 07:58:59.40	78.95	10.77	-34.0	-45.3	3.8	1.49e+00	0	41	104	0	29	13217
2026-01-13 07:59:00.40	78.81	10.83	-34.0	-45.3	3.8	1.49e+00	0	41	104	0	29	13275
2026-01-13 07:59:01.41	78.67	10.88	-34.0	-45.3	3.8	1.49e+00	0	41	104	0	29	13264
2026-01-13 07:59:02.41	78.53	10.94	-34.0	-45.3	3.8	1.49e+00	0	41	104	0	29	13241
2026-01-13 07:59:03.42	78.38	11.00	-34.0	-45.3	3.8	1.49e+00	0	41	104	0	29	13220
2026-01-13 07:59:04.42	78.24	11.06	-34.0	-45.3	3.8	1.49e+00	0	41	104	0	29	13257
2026-01-13 07:59:05.43	78.09	11.11	-34.0	-45.3	3.8	1.49e+00	0	41	104	0	29	13227
2026-01-13 07:59:06.43	77.95	11.17	-34.0	-45.3	3.8	1.49e+00	0	41	104	0	29	13267
2026-01-13 07:59:07.44	77.80	11.23	-34.0	-45.3	3.8	1.49e+00	0	41	104	0	29	13228
2026-01-13 07:59:08.45	77.65	11.29	-34.0	-45.3	3.8	1.49e+00	0	41	104	0	29	13253
2026-01-13 07:59:09.45	77.51	11.34	-34.0	-45.3	3.8	1.49e+00	0	41	104	0	29	13262
2026-01-13 07:59:10.46	77.36	11.40	-34.0	-45.3	3.8	1.49e+00	0	41	104	0	29	13269
2026-01-13 07:59:11.47	77.21	11.46	-34.0	-45.3	3.8	1.49e+00	0	41	104	0	29	13242
2026-01-13 07:59:12.47	77.06	11.52	-34.0	-45.3	3.8	1.49e+00	0	41	104	0	29	13225
2026-01-13 07:59:13.48	76.91	11.57	-34.0	-45.2	3.8	1.49e+00	0	41	104	0	29	13200
2026-01-13 07:59:14.48	76.76	11.63	-34.0	-45.3	3.8	1.49e+00	0	41	104	0	29	13248
2026-01-13 07:59:15.49	76.61	11.69	-34.0	-45.3	3.8	1.49e+00	0	41	104	0	29	13275
2026-01-13 07:59:16.50	76.46	11.75	-34.0	-45.3	3.8	1.49e+00	0	41	104	0	29	13276
2026-01-13 07:59:17.50	76.31	11.80	-34.0	-45.3	3.8	1.49e+00	0	41	104	0	29	13202
2026-01-13 07:59:18.50	76.15	11.86	-34.0	-45.3	3.8	1.49e+00	0	41	104	0	29	13299
2026-01-13 07:59:19.51	76.00	11.92	-34.0	-45.3	3.8	1.49e+00	0	41	104	0	29	13282
2026-01-13 07:59:20.52	75.85	11.97	-34.0	-45.3	3.8	1.49e+00	0	41	104	0	29	13272
2026-01-13 07:59:21.52	75.69	12.03	-34.0	-45.3	3.8	1.49e+00	0	41	104	0	29	13223
2026-01-13 07:59:22.52	75.54	12.09	-34.0	-45.3	3.8	1.49e+00	0	41	104	0	29	13247
2026-01-13 07:59:23.53	75.38	12.14	-34.0	-45.3	3.8	1.49e+00	0	42	104	0	29	13231
2026-01-13 07:59:24.53	75.23	12.20	-34.0	-45.3	3.8	1.49e+00	0	41	104	0	29	13255
2026-01-13 07:59:25.53	75.07	12.26	-34.0	-45.3	3.8	1.49e+00	0	41	104	0	29	13251
2026-01-13 07:59:26.54	74.91	12.31	-34.0	-45.3	3.8	1.49e+00	0	41	104	0	29	13243
2026-01-13 07:59:27.55	74.75	12.37	-34.0	-45.3	3.8	1.49e+00	0	41	104	0	29	13219
2026-01-13 07:59:28.56	74.59	12.43	-34.0	-45.3	3.8	1.49e+00	0	41	104	0	29	13247
2026-01-13 07:59:29.56	74.44	12.48	-34.0	-45.2	3.8	1.49e+00	0	41	104	0	29	13199
2026-01-13 07:59:30.57	74.27	12.54	-34.0	-45.3	3.8	1.49e+00	0	41	104	0	29	13299
2026-01-13 07:59:31.58	74.11	12.59	-34.0	-45.3	3.8	1.49e+00	0	41	104	0	29	13230
2026-01-13 07:59:32.59	73.95	12.65	-34.0	-45.3	3.8	1.49e+00	0	41	104	0	29	13240
2026-01-13 07:59:33.60	73.79	12.71	-34.0	-45.3	3.8	1.49e+00	0	41	104	0	29	13216
2026-01-13 07:59:34.60	73.63	12.76	-34.0	-45.3	3.8	1.49e+00	0	41	104	0	29	13226
2026-01-13 07:59:35.61	73.46	12.82	-34.0	-45.3	3.8	1.49e+00	0	41	104	0	29	13268
2026-01-13 07:59:36.61	73.30	12.87	-34.0	-45.3	3.8	1.49e+00	0	41	104	0	29	13246
2026-01-13 07:59:37.62	73.14	12.93	-34.0	-45.3	3.8	1.49e+00	0	41	104	0	29	13232
2026-01-13 07:59:38.62	72.97	12.98	-34.0	-45.3	3.8	1.49e+00	0	41	104	0	29	13239
2026-01-13 07:59:39.63	72.81	13.04	-34.0	-45.3	3.8	1.49e+00	0	41	104	0	29	13243
2026-01-13 07:59:40.64	72.64	13.09	-34.0	-45.3	3.8	1.49e+00	0	42	104	0	29	13243
2026-01-13 07:59:41.64	72.47	13.15	-34.0	-45.3	3.8	1.49e+00	0	41	104	0	29	13253
2026-01-13 07:59:42.65	72.30	13.20	-34.0	-45.3	3.8	1.49e+00	0	41	104	0	29	13226
2026-01-13 07:59:43.65	72.14	13.26	-34.0	-45.3	3.8	1.49e+00	0	41	104	0	29	13222
2026-01-13 07:59:44.66	71.97	13.31	-34.0	-45.3	3.8	1.49e+00	0	41	104	0	29	13294
2026-01-13 07:59:45.67	71.80	13.37	-34.0	-45.3	3.8	1.49e+00	0	41	104	0	29	13268
2026-01-13 07:59:46.68	71.63	13.42	-34.0	-45.2	3.8	1.49e+00	0	41	104	0	29	13206
2026-01-13 07:59:47.69	71.46	13.48	-34.0	-45.3	3.8	1.49e+00	0	42	104	0	29	13229
2026-01-13 07:59:48.70	71.28	13.53	-34.0	-45.3	3.8	1.49e+00	0	42	104	0	29	13248
2026-01-13 07:59:49.71	71.11	13.59	-34.0	-45.3	3.8	1.49e+00	0	41	104	0	29	13233
2026-01-13 07:59:50.72	70.94	13.64	-34.0	-45.3	3.8	1.49e+00	0	41	104	0	29	13242
2026-01-13 07:59:51.73	70.76	13.69	-34.0	-45.3	3.8	1.49e+00	0	41	104	0	29	13240
2026-01-13 07:59:52.73	70.59	13.75	-34.0	-45.3	3.8	1.49e+00	0	41	104	0	29	13233
2026-01-13 07:59:53.74	70.42	13.80	-34.0	-45.3	3.8	1.49e+00	0	41	104	0	29	13239
2026-01-13 07:59:54.75	70.24	13.85	-34.0	-45.3	3.8	1.49e+00	0	41	104	0	29	13214
2026-01-13 07:59:55.76	70.06	13.91	-34.0	-45.3	3.8	1.49e+00	0	41	104	0	29	13200
2026-01-13 07:59:56.77	69.89	13.96	-34.0	-45.3	3.8	1.49e+00	0	41	104	0	29	13251
2026-01-13 07:59:57.77	69.71	14.01	-34.0	-45.3	3.8	1.49e+00	0	41	104	0	29	13243
2026-01-13 07:59:58.78	69.53	14.06	-34.0	-45.3	3.8	1.49e+00	0	42	104	0	29	13228
2026-01-13 07:59:59.79	69.35	14.12	-34.0	-45.3	3.8	1.49e+00	0	42	104	0	29	13244
2026-01-13 08:00:00.79	69.17	14.17	-34.0	-45.3	3.8	1.49e+00	0	42	104	0	29	13214
2026-01-13 08:00:01.80	68.99	14.22	-34.0	-45.3	3.8	1.49e+00	0	42	104	0	29	13210
2026-01-13 08:00:02.80	68.82	14.27	-34.0	-45.3	3.8	1.49e+00	0	42	104	0	29	13236
2026-01-13 08:00:03.81	68.63	14.33	-34.0	-45.3	3.8	1.49e+00	0	42	104	0	29	13232
2026-01-13 08:00:04.82	68.45	14.38	-34.0	-45.3	3.8	1.49e+00	0	42	104	0	29	13264
2026-01-13 08:00:05.83	68.27	14.43	-34.0	-45.3	3.8	1.49e+00	0	42	104	0	29	13255
2026-01-13 08:00:06.83	68.09	14.48	-34.0	-45.3	3.8	1.49e+00	0	42	104	0	29	13246
2026-01-13 08:00:07.84	67.90	14.53	-34.0	-45.3	3.8	1.49e+00	0	41	104	0	29	13242
2026-01-13 08:00:08.84	67.72	14.58	-34.0	-45.3	3.8	1.49e+00	0	41	104	0	29	13219
2026-01-13 08:00:09.85	67.53	14.63	-34.0	-45.3	3.8	1.49e+00	0	42	104	0	29	13246
2026-01-13 08:00:10.86	67.35	14.68	-34.0	-45.3	3.8	1.49e+00	0	42	104	0	29	13255
2026-01-13 08:00:11.86	67.16	14.73	-34.0	-45.3	3.8	1.49e+00	0	41	104	0	29	13234
2026-01-13 08:00:12.87	66.98	14.78	-34.0	-45.3	3.8	1.49e+00	0	42	104	0	29	13226
2026-01-13 08:00:13.88	66.79	14.83	-34.0	-45.3	3.8	1.49e+00	0	42	104	0	29	13255
2026-01-13 08:00:14.88	66.60	14.88	-34.0	-45.3	3.8	1.49e+00	0	42	104	0	29	13255
2026-01-13 08:00:15.89	66.41	14.93	-34.0	-45.3	3.8	1.49e+00	0	42	104	0	29	13266
2026-01-13 08:00:16.89	66.22	14.98	-34.0	-45.3	3.8	1.49e+00	0	41	104	0	29	13238
2026-01-13 08:00:17.90	66.03	15.03	-34.0	-45.3	3.8	1.49e+00	0	42	104	0	29	13206
2026-01-13 08:00:18.90	65.85	15.08	-34.0	-45.3	3.8	1.49e+00	0	42	104	0	29	13233
2026-01-13 08:00:19.91	65.65	15.13	-34.0	-45.3	3.8	1.49e+00	0	42	104	0	29	13238
2026-01-13 08:00:20.91	65.46	15.18	-34.0	-45.3	3.8	1.49e+00	0	42	104	0	29	13270
2026-01-13 08:00:21.92	65.27	15.22	-34.0	-45.3	3.8	1.49e+00	0	42	104	0	29	13250
2026-01-13 08:00:22.93	65.08	15.27	-34.0	-45.3	3.8	1.49e+00	0	42	104	0	29	13221
2026-01-13 08:00:23.94	64.88	15.32	-34.0	-45.3	3.8	1.49e+00	0	42	104	0	29	13272
2026-01-13 08:00:24.94	64.69	15.37	-34.0	-45.3	3.8	1.49e+00	0	42	104	0	29	13254
2026-01-13 08:00:25.95	64.49	15.41	-34.0	-45.3	3.8	1.49e+00	0	42	104	0	29	13261
2026-01-13 08:00:26.96	64.30	15.46	-34.0	-45.3	3.8	1.49e+00	0	42	104	0	29	13226
2026-01-13 08:00:27.96	64.10	15.51	-34.0	-45.3	3.8	1.49e+00	0	42	104	0	29	13282
2026-01-13 08:00:28.96	63.91	15.55	-34.0	-45.3	3.8	1.49e+00	0	42	104	0	29	13208
2026-01-13 08:00:29.97	63.71	15.60	-34.0	-45.3	3.8	1.49e+00	0	42	104	0	29	13229
2026-01-13 08:00:30.97	63.51	15.65	-34.0	-45.3	3.8	1.49e+00	0	42	104	0	29	13238
2026-01-13 08:00:31.98	63.31	15.69	-34.0	-45.3	3.8	1.49e+00	0	42	104	0	29	13236
2026-01-13 08:00:32.98	63.12	15.74	-34.0	-45.3	3.8	1.49e+00	0	42	104	0	29	13239
2026-01-13 08:00:33.99	62.92	15.78	-34.0	-45.3	3.8	1.49e+00	0	42	104	0	29	13220
2026-01-13 08:00:35.00	62.71	15.83	-34.0	-45.3	3.8	1.49e+00	0	42	104	0	29	13257
2026-01-13 08:00:36.01	62.51	15.87	-34.0	-45.2	3.8	1.49e+00	0	41	104	0	29	13198
2026-01-13 08:00:37.01	62.31	15.92	-34.0	-45.3	3.8	1.49e+00	0	42	104	0	29	13266
2026-01-13 08:00:38.02	62.11	15.96	-34.0	-45.3	3.8	1.49e+00	0	42	104	0	29	13230
2026-01-13 08:00:39.03	61.91	16.00	-34.0	-45.3	3.8	1.49e+00	0	42	104	0	29	13276
2026-01-13 08:00:40.03	61.70	16.05	-34.0	-45.3	3.8	1.49e+00	0	42	104	0	29	13250
2026-01-13 08:00:41.04	61.50	16.09	-34.0	-45.3	3.8	1.49e+00	0	42	104	0	29	13249
2026-01-13 08:00:42.05	61.29	16.13	-34.0	-45.3	3.8	1.49e+00	0	42	104	0	29	13252
2026-01-13 08:00:43.06	61.09	16.18	-34.0	-45.3	3.8	1.49e+00	0	42	104	0	29	13238
2026-01-13 08:00:44.06	60.88	16.22	-34.0	-45.3	3.8	1.49e+00	0	42	104	0	29	13214
2026-01-13 08:00:45.07	60.68	16.26	-34.0	-45.3	3.8	1.49e+00	0	42	104	0	29	13205
2026-01-13 08:00:46.08	60.47	16.30	-34.0	-45.2	3.8	1.49e+00	0	42	104	0	29	13190
2026-01-13 08:00:47.08	60.26	16.34	-34.0	-45.3	3.8	1.49e+00	0	42	104	0	29	13265
2026-01-13 08:00:48.09	60.06	16.38	-34.0	-45.2	3.8	1.49e+00	0	42	104	0	29	13190
2026-01-13 08:00:49.10	59.85	16.42	-34.0	-45.3	3.8	1.49e+00	0	42	104	0	29	13225
2026-01-13 08:00:50.10	59.64	16.46	-34.0	-45.3	3.8	1.49e+00	0	42	104	0	29	13207
2026-01-13 08:00:51.11	59.43	16.51	-34.0	-45.3	3.8	1.49e+00	0	42	104	0	29	13242
2026-01-13 08:00:52.12	59.22	16.54	-34.0	-45.3	3.8	1.49e+00	0	42	104	0	29	13240
2026-01-13 08:00:53.12	59.01	16.58	-34.0	-45.3	3.8	1.49e+00	0	42	104	0	29	13229
2026-01-13 08:00:54.13	58.80	16.62	-34.0	-45.3	3.8	1.49e+00	0	42	104	0	29	13265
2026-01-13 08:00:55.13	58.59	16.66	-34.0	-45.3	3.8	1.49e+00	0	42	104	0	29	13240
2026-01-13 08:00:56.14	58.37	16.70	-34.0	-45.3	3.8	1.49e+00	0	42	104	0	29	13254
2026-01-13 08:00:57.14	58.16	16.74	-34.0	-45.3	3.8	1.49e+00	0	42	104	0	29	13245
2026-01-13 08:00:58.14	57.95	16.78	-34.0	-45.3	3.8	1.49e+00	0	42	104	0	29	13249
2026-01-13 08:00:59.15	57.73	16.81	-34.0	-45.3	3.8	1.49e+00	0	42	104	0	29	13218
2026-01-13 08:01:00.15	57.52	16.85	-34.0	-45.3	3.8	1.49e+00	0	42	104	0	29	13218
2026-01-13 08:01:01.16	57.30	16.89	-34.0	-45.3	3.8	1.49e+00	0	42	104	0	29	13277
2026-01-13 08:01:02.17	57.09	16.92	-34.0	-45.3	3.8	1.49e+00	0	42	104	0	29	13228
2026-01-13 08:01:03.18	56.87	16.96	-34.0	-45.3	3.8	1.49e+00	0	42	104	0	29	13256
2026-01-13 08:01:04.19	56.65	16.99	-34.0	-45.3	3.8	1.49e+00	0	42	104	0	29	13273
2026-01-13 08:01:05.19	56.44	17.03	-34.0	-45.3	3.8	1.49e+00	0	42	104	0	29	13287
2026-01-13 08:01:06.20	56.22	17.06	-34.0	-45.3	3.8	1.49e+00	0	42	104	0	29	13232
2026-01-13 08:01:07.21	56.00	17.10	-34.0	-45.3	3.8	1.49e+00	0	42	104	0	29	13213
2026-01-13 08:01:08.21	55.78	17.13	-34.0	-45.3	3.8	1.49e+00	0	42	104	0	29	13241
2026-01-13 08:01:09.21	55.57	17.17	-34.0	-45.3	3.8	1.49e+00	0	42	104	0	29	13247
2026-01-13 08:01:10.22	55.35	17.20	-34.0	-45.3	3.8	1.49e+00	0	42	104	0	29	13234
2026-01-13 08:01:11.22	55.13	17.23	-34.0	-45.3	3.8	1.49e+00	0	42	104	0	29	13238
2026-01-13 08:01:12.23	54.91	17.27	-34.0	-45.3	3.8	1.49e+00	0	42	104	0	29	13237
2026-01-13 08:01:13.24	54.68	17.30	-34.0	-45.3	3.8	1.49e+00	0	42	104	0	29	13241
2026-01-13 08:01:14.24	54.46	17.33	-34.0	-45.3	3.8	1.49e+00	0	42	104	0	29	13230
2026-01-13 08:01:15.24	54.24	17.36	-34.0	-45.3	3.8	1.49e+00	0	42	104	0	29	13254
2026-01-13 08:01:16.24	54.02	17.39	-34.0	-45.3	3.8	1.49e+00	0	42	104	0	29	13241
2026-01-13 08:01:17.24	53.80	17.42	-34.0	-45.3	3.8	1.49e+00	0	42	104	0	29	13238
2026-01-13 08:01:18.25	53.58	17.45	-34.0	-45.3	3.8	1.49e+00	0	42	104	0	29	13256
2026-01-13 08:01:19.26	53.35	17.48	-34.0	-45.3	3.8	1.49e+00	0	42	104	0	29	13229
2026-01-13 08:01:20.26	53.13	17.51	-34.0	-45.3	3.8	1.49e+00	0	42	104	0	29	13249
2026-01-13 08:01:21.27	52.90	17.54	-34.0	-45.3	3.8	1.49e+00	0	42	104	0	29	13221
2026-01-13 08:01:22.28	52.68	17.57	-34.0	-45.3	3.8	1.49e+00	0	42	104	0	29	13223
2026-01-13 08:01:23.29	52.45	17.60	-34.0	-45.3	3.8	1.49e+00	0	42	104	0	29	13241
2026-01-13 08:01:24.29	52.23	17.62	-34.0	-45.3	3.8	1.49e+00	0	42	104	0	29	13283
2026-01-13 08:01:25.30	52.00	17.65	-34.0	-45.3	3.8	1.49e+00	0	42	104	0	29	13231
2026-01-13 08:01:26.31	51.77	17.68	-34.0	-45.3	3.8	1.49e+00	0	42	104	0	29	13254
2026-01-13 08:01:27.32	51.54	17.70	-34.0	-45.3	3.8	1.49e+00	0	42	104	0	29	13242
2026-01-13 08:01:28.32	51.32	17.73	-34.0	-45.3	3.8	1.49e+00	0	42	104	0	29	13243
2026-01-13 08:01:29.33	51.09	17.76	-34.0	-45.3	3.8	1.49e+00	0	42	104	0	29	13214
2026-01-13 08:01:30.34	50.86	17.78	-34.0	-45.3	3.8	1.49e+00	0	42	104	0	29	13276
2026-01-13 08:01:31.35	50.63	17.81	-34.0	-45.3	3.8	1.49e+00	0	42	104	0	29	13245
2026-01-13 08:01:32.36	50.40	17.83	-34.0	-45.3	3.8	1.49e+00	0	42	104	0	29	13252
2026-01-13 08:01:33.37	50.17	17.85	-34.0	-45.3	3.8	1.49e+00	0	42	104	0	29	13230
2026-01-13 08:01:34.38	49.94	17.88	-34.0	-45.3	3.8	1.49e+00	0	42	104	0	29	13210
2026-01-13 08:01:35.37	49.71	17.90	-34.0	-45.3	3.8	1.49e+00	0	42	104	0	29	13248
2026-01-13 08:01:36.38	49.48	17.92	-34.0	-45.3	3.8	1.49e+00	0	42	104	0	29	13254
2026-01-13 08:01:37.38	49.25	17.94	-34.0	-45.3	3.8	1.49e+00	0	42	104	0	29	13257
2026-01-13 08:01:38.39	49.02	17.96	-34.0	-45.3	3.8	1.49e+00	0	42	104	0	29	13279
2026-01-13 08:01:39.40	48.79	17.99	-34.0	-45.3	3.8	1.49e+00	0	42	104	0	29	13284
2026-01-13 08:01:40.40	48.56	18.01	-34.0	-45.3	3.8	1.49e+00	0	42	104	0	29	13265
2026-01-13 08:01:41.41	48.33	18.03	-34.0	-45.3	3.8	1.49e+00	0	42	104	0	29	13209
2026-01-13 08:01:42.41	48.09	18.05	-34.0	-45.3	3.8	1.49e+00	0	42	104	0	29	13264
2026-01-13 08:01:43.43	47.86	18.06	-34.0	-45.3	3.8	1.49e+00	0	42	104	0	29	13207
2026-01-13 08:01:44.44	47.62	18.08	-34.0	-45.3	3.8	1.49e+00	0	42	104	0	29	13287
2026-01-13 08:01:45.44	47.39	18.10	-34.0	-45.3	3.8	1.49e+00	0	42	104	0	29	13236
2026-01-13 08:01:46.45	47.16	18.12	-34.0	-45.3	3.8	1.49e+00	0	42	104	0	29	13264
2026-01-13 08:01:47.46	46.92	18.14	-34.0	-45.3	3.8	1.49e+00	0	42	104	0	29	13262
2026-01-13 08:01:48.47	46.69	18.15	-34.0	-45.3	3.8	1.49e+00	0	42	104	0	29	13247
2026-01-13 08:01:49.47	46.46	18.17	-34.0	-45.3	3.8	1.49e+00	0	42	104	0	29	13255
2026-01-13 08:01:50.47	46.22	18.18	-34.0	-45.3	3.8	1.49e+00	0	42	104	0	29	13231
2026-01-13 08:01:51.48	45.99	18.20	-34.0	-45.3	3.8	1.49e+00	0	42	104	0	29	13260
2026-01-13 08:01:52.49	45.75	18.21	-34.0	-45.3	3.8	1.49e+00	0	42	104	0	29	13249
2026-01-13 08:01:53.49	45.52	18.23	-34.0	-45.3	3.8	1.49e+00	0	42	104	0	29	13260
2026-01-13 08:01:54.50	45.28	18.24	-34.0	-45.3	3.8	1.49e+00	0	42	104	0	29	13221
2026-01-13 08:01:55.51	45.05	18.26	-34.0	-45.3	3.8	1.49e+00	0	42	104	0	29	13293
2026-01-13 08:01:56.51	44.81	18.27	-34.0	-45.3	3.8	1.49e+00	0	42	104	0	29	13263
2026-01-13 08:01:57.52	44.57	18.28	-34.0	-45.3	3.8	1.49e+00	0	42	104	0	29	13270
2026-01-13 08:01:58.52	44.34	18.29	-34.0	-45.3	3.8	1.49e+00	0	42	104	0	29	13252
2026-01-13 08:01:59.53	44.10	18.30	-34.0	-45.3	3.8	1.49e+00	0	42	104	0	29	13218
2026-01-13 08:02:00.54	43.87	18.31	-34.0	-45.3	3.8	1.49e+00	0	42	104	0	29	13211
2026-01-13 08:02:01.55	43.63	18.32	-34.0	-45.3	3.8	1.49e+00	0	42	104	0	29	13219
2026-01-13 08:02:02.54	43.39	18.33	-34.0	-45.3	3.8	1.49e+00	0	42	104	0	29	13270
2026-01-13 08:02:03.55	43.16	18.34	-34.0	-45.3	3.8	1.49e+00	0	42	104	0	29	13237
2026-01-13 08:02:04.56	42.92	18.35	-34.0	-45.3	3.8	1.49e+00	0	42	104	0	29	13264
2026-01-13 08:02:05.57	42.68	18.36	-34.0	-45.3	3.8	1.49e+00	0	42	104	0	29	13226
2026-01-13 08:02:06.57	42.44	18.37	-34.0	-45.3	3.8	1.49e+00	0	42	104	0	29	13226
2026-01-13 08:02:07.58	42.21	18.38	-34.0	-45.3	3.8	1.49e+00	0	42	104	0	29	13239
2026-01-13 08:02:08.58	41.97	18.38	-34.0	-45.3	3.8	1.49e+00	0	42	104	0	29	13267
2026-01-13 08:02:09.59	41.73	18.39	-34.0	-45.3	3.8	1.49e+00	0	42	104	0	29	13289
2026-01-13 08:02:10.60	41.49	18.39	-34.0	-45.3	3.8	1.49e+00	0	42	104	0	29	13283
2026-01-13 08:02:11.61	41.25	18.40	-34.0	-45.3	3.8	1.49e+00	0	42	104	0	29	13244
2026-01-13 08:02:12.61	41.02	18.40	-34.0	-45.3	3.8	1.49e+00	0	42	104	0	29	13255
2026-01-13 08:02:13.61	40.78	18.41	-34.0	-45.3	3.8	1.49e+00	0	42	104	0	29	13239
2026-01-13 08:02:14.62	40.54	18.41	-34.0	-45.3	3.8	1.49e+00	0	42	104	0	29	13299
2026-01-13 08:02:15.63	40.30	18.42	-34.0	-45.3	3.8	1.49e+00	0	42	104	0	29	13242
2026-01-13 08:02:16.64	40.06	18.42	-34.0	-45.3	3.8	1.49e+00	0	42	104	0	29	13224
2026-01-13 08:02:17.64	39.83	18.42	-34.0	-45.3	3.8	1.49e+00	0	42	104	0	29	13235
2026-01-13 08:02:18.65	39.59	18.42	-34.0	-45.3	3.8	1.49e+00	0	42	104	0	29	13206
2026-01-13 08:02:19.65	39.35	18.42	-34.0	-45.3	3.8	1.49e+00	0	42	104	0	29	13219
2026-01-13 08:02:20.66	39.11	18.42	-34.0	-45.3	3.8	1.49e+00	0	42	104	0	29	13257
2026-01-13 08:02:21.67	38.87	18.42	-34.0	-45.3	3.8	1.49e+00	0	42	104	0	29	13231
2026-01-13 08:02:22.67	38.64	18.42	-34.0	-45.3	3.8	1.49e+00	0	42	104	0	29	13230
2026-01-13 08:02:23.68	38.40	18.42	-34.0	-45.3	3.8	1.49e+00	0	42	104	0	29	13246
2026-01-13 08:02:24.68	38.16	18.42	-34.0	-45.3	3.8	1.49e+00	0	42	104	0	29	13259
2026-01-13 08:02:25.69	37.92	18.42	-34.0	-45.3	3.8	1.49e+00	0	42	104	0	29	13264
2026-01-13 08:02:26.69	37.69	18.42	-34.0	-45.3	3.8	1.49e+00	0	42	104	0	29	13288
2026-01-13 08:02:27.70	37.45	18.41	-34.0	-45.3	3.8	1.49e+00	0	42	104	0	29	13274
2026-01-13 08:02:28.71	37.21	18.41	-34.0	-45.3	3.8	1.49e+00	0	42	104	0	29	13250
2026-01-13 08:02:29.71	36.97	18.41	-34.0	-45.3	3.8	1.49e+00	0	42	104	0	29	13239
2026-01-13 08:02:30.72	36.73	18.40	-34.0	-45.4	3.8	1.49e+00	0	42	104	0	29	13328
2026-01-13 08:02:31.73	36.49	18.40	-34.0	-45.3	3.8	1.49e+00	0	42	104	0	29	13288
2026-01-13 08:02:32.73	36.26	18.39	-34.0	-45.3	3.8	1.49e+00	0	42	104	0	29	13209
2026-01-13 08:02:33.74	36.02	18.38	-34.0	-45.3	3.8	1.49e+00	0	42	104	0	29	13256
2026-01-13 08:02:34.74	35.78	18.38	-34.0	-45.3	3.8	1.49e+00	0	42	104	0	29	13216
2026-01-13 08:02:35.75	35.54	18.37	-34.0	-45.3	3.8	1.49e+00	0	42	104	0	29	13227
2026-01-13 08:02:36.75	35.31	18.36	-34.0	-45.3	3.8	1.49e+00	0	42	104	0	29	13225
2026-01-13 08:02:37.76	35.07	18.35	-34.0	-45.3	3.8	1.49e+00	0	42	104	0	29	13289
2026-01-13 08:02:38.77	34.83	18.35	-34.0	-45.3	3.8	1.49e+00	0	42	104	0	29	13238
2026-01-13 08:02:39.77	34.60	18.34	-34.0	-45.3	3.8	1.49e+00	0	42	104	0	29	13259
2026-01-13 08:02:40.77	34.36	18.33	-34.0	-45.3	3.8	1.49e+00	0	42	104	0	29	13261
2026-01-13 08:02:41.78	34.12	18.32	-34.0	-45.3	3.8	1.49e+00	0	42	104	0	29	13237
2026-01-13 08:02:42.79	33.89	18.31	-34.0	-45.3	3.8	1.49e+00	0	42	104	0	29	13261
2026-01-13 08:02:43.80	33.65	18.30	-34.0	-45.3	3.8	1.49e+00	0	42	104	0	29	13229
2026-01-13 08:02:44.80	33.42	18.28	-34.0	-45.3	3.8	1.49e+00	0	42	104	0	29	13300
2026-01-13 08:02:45.81	33.18	18.27	-34.0	-45.3	3.8	1.49e+00	0	42	104	0	29	13241
2026-01-13 08:02:46.82	32.94	18.26	-34.0	-45.3	3.8	1.49e+00	0	42	104	0	29	13228
2026-01-13 08:02:47.82	32.71	18.25	-34.0	-45.3	3.8	1.49e+00	0	42	104	0	29	13227
2026-01-13 08:02:48.83	32.47	18.23	-34.0	-45.3	3.8	1.49e+00	0	42	104	0	29	13253
2026-01-13 08:02:49.84	32.24	18.22	-34.0	-45.3	3.8	1.49e+00	0	42	104	0	29	13209
2026-01-13 08:02:50.85	32.00	18.20	-34.0	-45.3	3.8	1.49e+00	0	42	104	0	29	13259
2026-01-13 08:02:51.86	31.77	18.19	-34.0	-45.3	3.8	1.49e+00	0	42	104	0	29	13287
2026-01-13 08:02:52.86	31.53	18.17	-34.0	-45.3	3.8	1.49e+00	0	42	104	0	29	13200
2026-01-13 08:02:53.87	31.30	18.16	-34.0	-45.3	3.8	1.49e+00	0	42	104	0	29	13251
2026-01-13 08:02:54.87	31.07	18.14	-34.0	-45.3	3.8	1.49e+00	0	42	104	0	29	13213
2026-01-13 08:02:55.87	30.83	18.12	-34.0	-45.3	3.8	1.49e+00	0	42	104	0	29	13246
2026-01-13 08:02:56.88	30.60	18.11	-34.0	-45.3	3.8	1.49e+00	0	42	104	0	29	13293
2026-01-13 08:02:57.88	30.37	18.09	-34.0	-45.3	3.8	1.49e+00	0	42	104	0	29	13254
2026-01-13 08:02:58.89	30.13	18.07	-34.0	-45.3	3.8	1.49e+00	0	42	104	0	29	13269
2026-01-13 08:02:59.89	29.90	18.05	-34.0	-45.3	3.8	1.49e+00	0	42	104	0	29	13224
2026-01-13 08:03:00.90	29.67	18.03	-34.0	-45.3	3.8	1.49e+00	0	42	104	0	29	13285
2026-01-13 08:03:01.91	29.44	18.01	-34.0	-45.3	3.8	1.49e+00	0	42	104	0	29	13245
2026-01-13 08:03:02.91	29.21	17.99	-34.0	-45.3	3.8	1.49e+00	0	42	104	0	29	13225
2026-01-13 08:03:03.92	28.98	17.97	-34.0	-45.3	3.8	1.49e+00	0	42	104	0	29	13282
2026-01-13 08:03:04.93	28.74	17.95	-34.0	-45.3	3.8	1.49e+00	0	42	104	0	29	13236
2026-01-13 08:03:05.93	28.51	17.93	-34.0	-45.3	3.8	1.49e+00	0	42	104	0	29	13275
2026-01-13 08:03:06.93	28.29	17.91	-34.0	-45.3	3.8	1.49e+00	0	42	104	0	29	13227
2026-01-13 08:03:07.94	28.05	17.88	-34.0	-45.3	3.8	1.49e+00	0	42	104	0	29	13298
2026-01-13 08:03:08.95	27.82	17.86	-34.0	-45.3	3.8	1.49e+00	0	42	104	0	29	13256
2026-01-13 08:03:09.96	27.59	17.84	-34.0	-45.3	3.8	1.49e+00	0	42	104	0	29	13242
2026-01-13 08:03:10.96	27.37	17.81	-34.0	-45.3	3.8	1.49e+00	0	42	104	0	29	13241
2026-01-13 08:03:11.97	27.14	17.79	-34.0	-45.3	3.8	1.49e+00	0	42	104	0	29	13252
2026-01-13 08:03:12.98	26.91	17.76	-34.0	-45.3	3.8	1.49e+00	0	42	104	0	29	13266
2026-01-13 08:03:13.99	26.68	17.74	-34.0	-45.3	3.8	1.49e+00	0	42	104	0	29	13211
2026-01-13 08:03:15.00	26.45	17.71	-34.0	-45.3	3.8	1.49e+00	0	42	104	0	29	13280
2026-01-13 08:03:16.01	26.22	17.69	-34.0	-45.3	3.8	1.49e+00	0	42	104	0	29	13299
2026-01-13 08:03:17.02	26.00	17.66	-34.0	-45.3	3.8	1.49e+00	0	42	104	0	29	13258
2026-01-13 08:03:18.02	25.77	17.63	-34.0	-45.3	3.8	1.49e+00	0	42	104	0	29	13273
2026-01-13 08:03:19.03	25.55	17.61	-34.0	-45.3	3.8	1.49e+00	0	42	104	0	29	13227
2026-01-13 08:03:20.04	25.32	17.58	-34.0	-45.3	3.8	1.49e+00	0	42	104	0	29	13246
2026-01-13 08:03:21.05	25.10	17.55	-34.0	-45.3	3.8	1.49e+00	0	42	104	0	29	13276
2026-01-13 08:03:22.05	24.87	17.52	-34.0	-45.3	3.8	1.49e+00	0	42	104	0	29	13263
2026-01-13 08:03:23.06	24.65	17.49	-34.0	-45.3	3.8	1.49e+00	0	42	104	0	29	13275
2026-01-13 08:03:24.06	24.43	17.46	-34.0	-45.3	3.8	1.49e+00	0	42	104	0	29	13285
2026-01-13 08:03:25.07	24.20	17.43	-34.0	-45.3	3.8	1.49e+00	0	42	104	0	29	13279
2026-01-13 08:03:26.08	23.98	17.40	-34.0	-45.3	3.8	1.49e+00	0	42	104	0	29	13243
2026-01-13 08:03:27.09	23.76	17.37	-34.0	-45.3	3.8	1.49e+00	0	42	104	0	29	13261
2026-01-13 08:03:28.09	23.54	17.34	-34.0	-45.3	3.8	1.49e+00	0	42	104	0	29	13275
2026-01-13 08:03:29.10	23.31	17.31	-34.0	-45.3	3.8	1.49e+00	0	42	104	0	29	13242
2026-01-13 08:03:30.11	23.09	17.28	-34.0	-45.3	3.8	1.49e+00	0	42	104	0	29	13265
2026-01-13 08:03:31.11	22.87	17.24	-34.0	-45.3	3.8	1.49e+00	0	42	104	0	29	13260
2026-01-13 08:03:32.12	22.65	17.21	-34.0	-45.3	3.8	1.49e+00	0	42	104	0	29	13248
2026-01-13 08:03:33.13	22.43	17.18	-34.0	-45.3	3.8	1.49e+00	0	42	104	0	29	13216
2026-01-13 08:03:34.14	22.21	17.14	-34.0	-45.3	3.8	1.49e+00	0	42	104	0	29	13229
2026-01-13 08:03:35.14	22.00	17.11	-34.0	-45.3	3.8	1.49e+00	0	42	104	0	29	13279
2026-01-13 08:03:36.15	21.78	17.08	-34.0	-45.3	3.8	1.49e+00	0	42	104	0	29	13235
2026-01-13 08:03:37.16	21.56	17.04	-34.0	-45.3	3.8	1.49e+00	0	42	104	0	29	13228
2026-01-13 08:03:38.16	21.34	17.01	-34.0	-45.3	3.8	1.49e+00	0	42	104	0	29	13260
2026-01-13 08:03:39.16	21.13	16.97	-34.0	-45.3	3.8	1.49e+00	0	42	104	0	29	13309
2026-01-13 08:03:40.17	20.91	16.93	-34.0	-45.3	3.8	1.49e+00	0	42	104	0	29	13266
2026-01-13 08:03:41.18	20.70	16.90	-34.0	-45.3	3.8	1.49e+00	0	42	104	0	29	13284
2026-01-13 08:03:42.19	20.48	16.86	-34.0	-45.3	3.8	1.49e+00	0	42	104	0	29	13223
2026-01-13 08:03:43.19	20.27	16.83	-34.0	-45.3	3.8	1.49e+00	0	42	104	0	29	13238
2026-01-13 08:03:44.20	20.05	16.79	-34.0	-45.3	3.8	1.49e+00	0	42	104	0	29	13245
2026-01-13 08:03:45.20	19.84	16.75	-34.0	-45.3	3.8	1.49e+00	0	42	104	0	29	13243
2026-01-13 08:03:46.22	19.63	16.71	-34.0	-45.3	3.8	1.49e+00	0	42	104	0	29	13248
2026-01-13 08:03:47.22	19.42	16.67	-34.0	-45.3	3.8	1.49e+00	0	42	104	0	29	13267
2026-01-13 08:03:48.23	19.20	16.64	-34.0	-45.3	3.8	1.49e+00	0	42	104	0	29	13244
2026-01-13 08:03:49.24	18.99	16.60	-34.0	-45.3	3.8	1.49e+00	0	42	104	0	29	13298
2026-01-13 08:03:50.25	18.78	16.56	-34.0	-45.3	3.8	1.49e+00	0	42	104	0	29	13277
2026-01-13 08:03:51.24	18.58	16.52	-34.0	-45.3	3.8	1.49e+00	0	42	104	0	29	13271
2026-01-13 08:03:52.25	18.37	16.48	-34.0	-45.3	3.8	1.49e+00	0	42	104	0	29	13236
2026-01-13 08:03:53.26	18.16	16.44	-34.0	-45.3	3.8	1.49e+00	0	42	104	0	29	13262
2026-01-13 08:03:54.27	17.95	16.40	-34.0	-45.3	3.8	1.49e+00	0	42	104	0	29	13256
2026-01-13 08:03:55.27	17.74	16.36	-34.0	-45.3	3.8	1.49e+00	0	42	104	0	29	13256
2026-01-13 08:03:56.28	17.53	16.32	-34.0	-45.3	3.8	1.49e+00	0	42	104	0	29	13267
2026-01-13 08:03:57.28	17.33	16.27	-34.0	-45.3	3.8	1.49e+00	0	42	104	0	29	13272
2026-01-13 08:03:58.29	17.12	16.23	-34.0	-45.3	3.8	1.49e+00	0	42	104	0	29	13236
2026-01-13 08:03:59.30	16.92	16.19	-34.0	-45.3	3.8	1.49e+00	0	42	104	0	29	13281
2026-01-13 08:04:00.31	16.71	16.15	-34.0	-45.3	3.8	1.49e+00	0	42	104	0	29	13234
2026-01-13 08:04:01.32	16.51	16.10	-34.0	-45.3	3.8	1.49e+00	0	42	104	0	29	13283
2026-01-13 08:04:02.32	16.30	16.06	-34.0	-45.3	3.8	1.49e+00	0	42	104	0	29	13226
2026-01-13 08:04:03.34	16.10	16.02	-34.0	-45.3	3.8	1.49e+00	0	42	104	0	29	13262
2026-01-13 08:04:04.34	15.90	15.97	-34.0	-45.3	3.8	1.49e+00	0	42	104	0	29	13275
2026-01-13 08:04:05.35	15.70	15.93	-34.0	-45.3	3.8	1.49e+00	0	42	104	0	29	13272
2026-01-13 08:04:06.36	15.49	15.89	-34.0	-45.3	3.8	1.49e+00	0	42	104	0	29	13192
2026-01-13 08:04:07.37	15.29	15.84	-34.0	-45.3	3.8	1.49e+00	0	42	104	0	29	13258
2026-01-13 08:04:08.37	15.09	15.80	-34.0	-45.3	3.8	1.49e+00	0	42	104	0	29	13258
2026-01-13 08:04:09.38	14.89	15.75	-34.0	-45.3	3.8	1.49e+00	0	42	104	0	29	13233
2026-01-13 08:04:10.39	14.69	15.71	-34.0	-45.3	3.8	1.49e+00	0	42	104	0	29	13257
2026-01-13 08:04:11.40	14.50	15.66	-34.0	-45.3	3.8	1.49e+00	0	42	104	0	29	13286
2026-01-13 08:04:12.40	14.30	15.62	-34.0	-45.3	3.8	1.49e+00	0	42	104	0	29	13241
2026-01-13 08:04:13.40	14.10	15.57	-34.0	-45.3	3.8	1.49e+00	0	42	104	0	29	13245
2026-01-13 08:04:14.40	13.91	15.52	-34.0	-45.3	3.8	1.49e+00	0	42	104	0	29	13248
2026-01-13 08:04:15.40	13.72	15.48	-34.0	-45.3	3.8	1.49e+00	0	42	104	0	29	13248
2026-01-13 08:04:16.42	13.52	15.43	-34.0	-45.3	3.8	1.49e+00	0	42	104	0	29	13249
2026-01-13 08:04:17.42	13.33	15.38	-34.0	-45.3	3.8	1.49e+00	0	42	104	0	29	13306
2026-01-13 08:04:18.43	13.13	15.34	-34.0	-45.3	3.8	1.49e+00	0	42	104	0	29	13266
2026-01-13 08:04:19.44	12.94	15.29	-34.0	-45.3	3.8	1.49e+00	0	42	104	0	29	13287
2026-01-13 08:04:20.45	12.74	15.24	-34.0	-45.3	3.8	1.49e+00	0	42	104	0	29	13225
2026-01-13 08:04:21.46	12.55	15.19	-34.0	-45.3	3.8	1.49e+00	0	42	104	0	29	13286
2026-01-13 08:04:22.46	12.36	15.14	-34.0	-45.3	3.8	1.49e+00	0	42	104	0	29	13276
2026-01-13 08:04:23.47	12.17	15.10	-34.0	-45.3	3.8	1.49e+00	0	42	104	0	29	13280
2026-01-13 08:04:24.47	11.98	15.05	-34.0	-45.3	3.8	1.49e+00	0	42	104	0	29	13266
2026-01-13 08:04:25.48	11.79	15.00	-34.0	-45.3	3.8	1.49e+00	0	42	104	0	29	13241
2026-01-13 08:04:26.49	11.60	14.95	-34.0	-45.3	3.8	1.49e+00	0	42	104	0	29	13248
2026-01-13 08:04:27.50	11.41	14.90	-34.0	-45.3	3.8	1.49e+00	0	42	104	0	29	13262
2026-01-13 08:04:28.50	11.23	14.85	-34.0	-45.3	3.8	1.49e+00	0	42	104	0	29	13204
2026-01-13 08:04:29.50	11.04	14.80	-34.0	-45.3	3.8	1.49e+00	0	42	104	0	29	13281
2026-01-13 08:04:30.50	10.86	14.75	-34.0	-45.3	3.8	1.49e+00	0	42	104	0	29	13250
2026-01-13 08:04:31.51	10.67	14.70	-34.0	-45.3	3.8	1.49e+00	0	42	104	0	29	13256
2026-01-13 08:04:32.52	10.49	14.65	-34.0	-45.3	3.8	1.49e+00	0	42	104	0	29	13234
2026-01-13 08:04:33.52	10.30	14.60	-34.0	-45.3	3.8	1.49e+00	0	42	104	0	29	13252
2026-01-13 08:04:34.53	10.12	14.55	-34.0	-45.3	3.8	1.49e+00	0	42	104	0	29	13298
2026-01-13 08:04:35.54	9.94	14.50	-34.0	-45.3	3.8	1.49e+00	0	42	104	0	29	13266
2026-01-13 08:04:36.55	9.75	14.45	-34.0	-45.3	3.8	1.49e+00	0	42	104	0	29	13261
2026-01-13 08:04:37.55	9.57	14.40	-34.0	-45.4	3.8	1.49e+00	0	42	104	0	29	13329
2026-01-13 08:04:38.56	9.39	14.35	-34.0	-45.3	3.8	1.49e+00	0	42	104	0	29	13272
2026-01-13 08:04:39.57	9.21	14.29	-34.0	-45.3	3.8	1.49e+00	0	42	104	0	29	13283
2026-01-13 08:04:40.58	9.03	14.24	-34.0	-45.3	3.8	1.49e+00	0	42	104	0	29	13247
2026-01-13 08:04:41.58	8.85	14.19	-34.0	-45.3	3.8	1.49e+00	0	42	104	0	29	13263
2026-01-13 08:04:42.59	8.67	14.14	-34.0	-45.3	3.8	1.49e+00	0	42	104	0	29	13269
2026-01-13 08:04:43.59	8.50	14.09	-34.0	-45.3	3.8	1.49e+00	0	42	104	0	29	13266
2026-01-13 08:04:44.60	8.32	14.03	-34.0	-45.3	3.8	1.49e+00	0	42	104	0	29	13282
2026-01-13 08:04:45.60	8.14	13.98	-34.0	-45.3	3.8	1.49e+00	0	42	104	0	29	13278
2026-01-13 08:04:46.61	7.97	13.93	-34.0	-45.3	3.8	1.49e+00	0	42	104	0	29	13263
2026-01-13 08:04:47.62	7.79	13.88	-34.0	-45.3	3.8	1.49e+00	0	42	104	0	29	13258
2026-01-13 08:04:48.62	7.62	13.82	-34.0	-45.3	3.8	1.49e+00	0	42	104	0	29	13243
2026-01-13 08:04:49.63	7.44	13.77	-34.0	-45.3	3.8	1.49e+00	0	42	104	0	29	13254
2026-01-13 08:04:50.63	7.27	13.72	-34.0	-45.3	3.8	1.49e+00	0	42	104	0	29	13275
2026-01-13 08:04:51.63	7.10	13.66	-34.0	-45.3	3.8	1.49e+00	0	42	104	0	29	13259
2026-01-13 08:04:52.64	6.93	13.61	-34.0	-45.3	3.8	1.49e+00	0	42	104	0	29	13259
2026-01-13 08:04:53.64	6.75	13.56	-34.0	-45.3	3.8	1.49e+00	0	42	104	0	29	13261
2026-01-13 08:04:54.65	6.58	13.50	-34.0	-45.3	3.8	1.49e+00	0	42	104	0	29	13279
2026-01-13 08:04:55.66	6.41	13.45	-34.0	-45.3	3.8	1.49e+00	0	42	104	0	29	13232
2026-01-13 08:04:56.66	6.24	13.39	-34.0	-45.3	3.8	1.49e+00	0	42	104	0	29	13222
2026-01-13 08:04:57.67	6.07	13.34	-34.0	-45.3	3.8	1.49e+00	0	42	104	0	29	13246
2026-01-13 08:04:58.67	5.91	13.29	-34.0	-45.3	3.8	1.49e+00	0	42	104	0	29	13272
2026-01-13 08:04:59.67	5.74	13.23	-34.0	-45.3	3.8	1.49e+00	0	42	104	0	29	13255
2026-01-13 08:05:00.68	5.57	13.18	-34.0	-45.3	3.8	1.49e+00	0	42	104	0	29	13284
2026-01-13 08:05:01.69	5.41	13.12	-34.0	-45.3	3.8	1.49e+00	0	42	104	0	29	13293
2026-01-13 08:05:02.70	5.24	13.07	-34.0	-45.3	3.8	1.49e+00	0	42	104	0	29	13250
2026-01-13 08:05:03.70	5.08	13.01	-34.0	-45.3	3.8	1.49e+00	0	42	104	0	29	13296
2026-01-13 08:05:04.71	4.91	12.96	-34.0	-45.3	3.8	1.49e+00	0	42	104	0	29	13269
2026-01-13 08:05:05.71	4.75	12.90	-34.0	-45.3	3.8	1.49e+00	0	42	104	0	29	13276
2026-01-13 08:05:06.72	4.58	12.85	-34.0	-45.3	3.8	1.49e+00	0	42	104	0	29	13195
2026-01-13 08:05:07.72	4.42	12.79	-34.0	-45.3	3.8	1.49e+00	0	42	104	0	29	13235
2026-01-13 08:05:08.73	4.26	12.74	-34.0	-45.3	3.8	1.49e+00	0	42	104	0	29	13243
2026-01-13 08:05:09.74	4.10	12.68	-34.0	-45.3	3.8	1.49e+00	0	42	104	0	29	13297
2026-01-13 08:05:10.75	3.94	12.62	-34.0	-45.3	3.8	1.49e+00	0	42	104	0	29	13259
2026-01-13 08:05:11.75	3.78	12.57	-34.0	-45.3	3.8	1.49e+00	0	42	104	0	29	13260
2026-01-13 08:05:12.75	3.62	12.51	-34.0	-45.3	3.8	1.49e+00	0	42	104	0	29	13268
2026-01-13 08:05:13.76	3.46	12.46	-34.0	-45.3	3.8	1.49e+00	0	42	104	0	29	13263
2026-01-13 08:05:14.77	3.30	12.40	-34.0	-45.3	3.8	1.49e+00	0	42	104	0	29	13234
2026-01-13 08:05:15.77	3.14	12.34	-34.0	-45.3	3.8	1.49e+00	0	42	104	0	29	13251
2026-01-13 08:05:16.78	2.99	12.29	-34.0	-45.3	3.8	1.49e+00	0	42	104	0	29	13203
2026-01-13 08:05:17.78	2.83	12.23	-34.0	-45.3	3.8	1.49e+00	0	42	104	0	29	13278
2026-01-13 08:05:18.79	2.67	12.18	-34.0	-45.3	3.8	1.49e+00	0	42	104	0	29	13257
2026-01-13 08:05:19.80	2.52	12.12	-34.0	-45.3	3.8	1.49e+00	0	42	104	0	29	13297
2026-01-13 08:05:20.81	2.36	12.06	-34.0	-45.3	3.8	1.49e+00	0	42	104	0	29	13273
2026-01-13 08:05:21.82	2.21	12.01	-34.0	-45.3	3.8	1.49e+00	0	42	104	0	29	13271
2026-01-13 08:05:22.83	2.06	11.95	-34.0	-45.3	3.8	1.49e+00	0	42	104	0	29	13261
2026-01-13 08:05:23.84	1.90	11.89	-34.0	-45.3	3.8	1.49e+00	0	42	104	0	29	13225
2026-01-13 08:05:24.84	1.75	11.83	-34.0	-45.3	3.8	1.49e+00	0	42	104	0	29	13239
2026-01-13 08:05:25.85	1.60	11.78	-34.0	-45.3	3.8	1.49e+00	0	42	104	0	29	13231
2026-01-13 08:05:26.85	1.45	11.72	-34.0	-45.3	3.8	1.49e+00	0	42	104	0	29	13274
2026-01-13 08:05:27.86	1.30	11.66	-34.0	-45.3	3.8	1.49e+00	0	42	104	0	29	13263
2026-01-13 08:05:28.87	1.15	11.61	-34.0	-45.3	3.8	1.49e+00	0	42	104	0	29	13245
2026-01-13 08:05:29.88	1.00	11.55	-34.0	-45.3	3.8	1.49e+00	0	42	104	0	29	13234
2026-01-13 08:05:30.89	0.85	11.49	-34.0	-45.3	3.8	1.49e+00	0	42	104	0	29	13293
2026-01-13 08:05:31.89	0.70	11.43	-34.0	-45.3	3.8	1.49e+00	0	42	104	0	29	13262
2026-01-13 08:05:32.90	0.55	11.38	-34.0	-45.3	3.8	1.49e+00	0	42	104	0	29	13261
2026-01-13 08:05:33.91	0.41	11.32	-34.0	-45.3	3.8	1.49e+00	0	42	104	0	29	13244
2026-01-13 08:05:34.92	0.26	11.26	-34.0	-45.3	3.8	1.49e+00	0	42	104	0	29	13231
2026-01-13 08:05:35.92	0.11	11.20	-34.0	-45.3	3.8	1.49e+00	0	42	104	0	29	13258
2026-01-13 08:05:36.92	359.97	11.15	-34.0	-45.3	3.8	1.49e+00	0	42	104	0	29	13283
2026-01-13 08:05:37.93	359.83	11.09	-34.0	-45.3	3.8	1.49e+00	0	42	104	0	29	13232
2026-01-13 08:05:38.94	359.68	11.03	-34.0	-45.3	3.8	1.49e+00	0	42	104	0	29	13239
2026-01-13 08:05:39.95	359.54	10.97	-34.0	-45.3	3.8	1.49e+00	0	42	104	0	29	13294
2026-01-13 08:05:40.95	359.40	10.92	-34.0	-45.3	3.8	1.49e+00	0	42	104	0	29	13282
2026-01-13 08:05:41.96	359.25	10.86	-34.0	-45.3	3.8	1.49e+00	0	42	104	0	29	13265
2026-01-13 08:05:42.97	359.11	10.80	-34.0	-45.3	3.8	1.49e+00	0	42	104	0	29	13277
2026-01-13 08:05:43.98	358.97	10.74	-34.0	-45.3	3.8	1.49e+00	0	42	104	0	29	13251
2026-01-13 08:05:44.99	358.83	10.69	-34.0	-45.3	3.8	1.49e+00	0	42	104	0	29	13258
2026-01-13 08:05:46.00	358.69	10.63	-34.0	-45.3	3.8	1.49e+00	0	42	104	0	29	13244
2026-01-13 08:05:47.00	358.55	10.57	-34.0	-45.3	3.8	1.49e+00	0	42	104	0	29	13246
2026-01-13 08:05:48.00	358.41	10.51	-34.0	-45.3	3.8	1.49e+00	0	42	104	0	29	13231
2026-01-13 08:05:49.01	358.27	10.45	-34.0	-45.3	3.8	1.49e+00	0	42	104	0	29	13243
2026-01-13 08:05:50.02	358.13	10.40	-34.0	-45.3	3.8	1.49e+00	0	42	104	0	29	13230
2026-01-13 08:05:51.02	358.00	10.34	-34.0	-45.3	3.8	1.49e+00	0	42	104	0	29	13273
2026-01-13 08:05:52.03	357.86	10.28	-34.0	-45.3	3.8	1.49e+00	0	42	104	0	29	13255
2026-01-13 08:05:53.04	357.72	10.22	-34.0	-45.3	3.8	1.49e+00	0	42	104	0	29	13265
2026-01-13 08:05:54.05	357.59	10.16	-34.0	-45.3	3.8	1.49e+00	0	42	104	0	29	13245
2026-01-13 08:05:55.05	357.45	10.11	-34.0	-45.3	3.8	1.49e+00	0	42	104	0	29	13260
2026-01-13 08:05:56.05	357.32	10.05	-34.0	-45.3	3.8	1.49e+00	0	42	104	0	29	13293
2026-01-13 08:05:57.06	357.19	9.99	-34.0	-45.3	3.8	1.49e+00	0	42	104	0	29	13266
2026-01-13 08:05:58.06	357.05	9.93	-34.0	-45.3	3.8	1.49e+00	0	42	104	0	29	13221
2026-01-13 08:05:59.07	356.92	9.87	-34.0	-45.3	3.8	1.49e+00	0	42	104	0	29	13230
2026-01-13 08:06:00.08	356.79	9.81	-34.0	-45.3	3.8	1.49e+00	0	42	104	0	29	13226
2026-01-13 08:06:01.09	356.66	9.76	-34.0	-45.3	3.8	1.49e+00	0	42	104	0	29	13244
2026-01-13 08:06:02.09	356.53	9.70	-34.0	-45.3	3.8	1.49e+00	0	42	104	0	29	13276
2026-01-13 08:06:03.10	356.40	9.64	-34.0	-45.3	3.8	1.49e+00	0	42	104	0	29	13246
2026-01-13 08:06:04.10	356.27	9.58	-34.0	-45.3	3.8	1.49e+00	0	42	104	0	29	13275
2026-01-13 08:06:05.11	356.14	9.52	-34.0	-45.3	3.8	1.49e+00	0	42	104	0	29	13259
2026-01-13 08:06:06.12	356.01	9.47	-34.0	-45.3	3.8	1.49e+00	0	42	104	0	29	13259
2026-01-13 08:06:07.13	355.88	9.41	-34.0	-45.3	3.8	1.49e+00	0	42	104	0	29	13253
2026-01-13 08:06:08.13	355.75	9.35	-34.0	-45.3	3.8	1.49e+00	0	42	104	0	29	13211
2026-01-13 08:06:09.14	355.62	9.29	-34.0	-45.3	3.8	1.49e+00	0	42	104	0	29	13230
2026-01-13 08:06:10.15	355.50	9.23	-34.0	-45.3	3.8	1.49e+00	0	42	104	0	29	13226
2026-01-13 08:06:11.16	355.37	9.17	-34.0	-45.3	3.8	1.49e+00	0	42	104	0	29	13261
2026-01-13 08:06:12.16	355.24	9.12	-34.0	-45.3	3.8	1.49e+00	0	42	104	0	29	13274
2026-01-13 08:06:13.16	355.12	9.06	-34.0	-45.3	3.8	1.49e+00	0	42	104	0	29	13230
2026-01-13 08:06:14.17	354.99	9.00	-34.0	-45.3	3.8	1.49e+00	0	42	104	0	29	13234
2026-01-13 08:06:15.18	354.87	8.94	-34.0	-45.3	3.8	1.49e+00	0	42	104	0	29	13213
2026-01-13 08:06:16.19	354.75	8.88	-34.0	-45.3	3.8	1.49e+00	0	42	104	0	29	13258
2026-01-13 08:06:17.19	354.62	8.82	-34.0	-45.3	3.8	1.49e+00	0	42	104	0	29	13269
2026-01-13 08:06:18.20	354.50	8.77	-34.0	-45.3	3.8	1.49e+00	0	42	104	0	29	13272
2026-01-13 08:06:19.21	354.38	8.71	-34.0	-45.3	3.8	1.49e+00	0	42	104	0	29	13228
2026-01-13 08:06:20.22	354.25	8.65	-34.0	-45.3	3.8	1.49e+00	0	42	104	0	29	13258
2026-01-13 08:06:21.23	354.13	8.59	-34.0	-45.3	3.8	1.49e+00	0	42	104	0	29	13230
2026-01-13 08:06:22.23	354.01	8.53	-34.0	-45.3	3.8	1.49e+00	0	42	104	0	29	13260
2026-01-13 08:06:23.24	353.89	8.48	-34.0	-45.3	3.8	1.49e+00	0	42	104	0	29	13294
2026-01-13 08:06:24.25	353.77	8.42	-34.0	-45.3	3.8	1.49e+00	0	42	104	0	29	13238
2026-01-13 08:06:25.25	353.65	8.36	-34.0	-45.3	3.8	1.49e+00	0	42	104	0	29	13235
2026-01-13 08:06:26.26	353.53	8.30	-34.0	-45.3	3.8	1.49e+00	0	42	104	0	29	13256
2026-01-13 08:06:27.27	353.42	8.24	-34.0	-45.3	3.8	1.49e+00	0	42	104	0	29	13252
2026-01-13 08:06:28.27	353.30	8.18	-34.0	-45.3	3.8	1.49e+00	0	42	104	0	29	13234
2026-01-13 08:06:29.28	353.18	8.13	-34.0	-45.3	3.8	1.49e+00	0	42	104	0	29	13235
2026-01-13 08:06:30.29	353.06	8.07	-34.0	-45.3	3.8	1.49e+00	0	42	104	0	29	13248
2026-01-13 08:06:31.30	352.95	8.01	-34.0	-45.3	3.8	1.49e+00	0	42	104	0	29	13245
2026-01-13 08:06:32.29	352.83	7.95	-34.0	-45.3	3.8	1.49e+00	0	42	104	0	29	13267
2026-01-13 08:06:33.31	352.72	7.89	-34.0	-45.3	3.8	1.49e+00	0	42	104	0	29	13258
2026-01-13 08:06:34.31	352.60	7.84	-34.0	-45.3	3.8	1.49e+00	0	42	104	0	29	13280
2026-01-13 08:06:35.32	352.49	7.78	-34.0	-45.3	3.8	1.49e+00	0	42	104	0	29	13203
2026-01-13 08:06:36.32	352.37	7.72	-34.0	-45.3	3.8	1.49e+00	0	42	104	0	29	13274
2026-01-13 08:06:37.32	352.26	7.66	-34.0	-45.3	3.8	1.49e+00	0	42	104	0	29	13252
2026-01-13 08:06:38.33	352.15	7.61	-34.0	-45.3	3.8	1.49e+00	0	42	104	0	29	13263
2026-01-13 08:06:39.33	352.04	7.55	-34.0	-45.3	3.8	1.49e+00	0	42	104	0	29	13239
2026-01-13 08:06:40.34	351.92	7.49	-34.0	-45.3	3.8	1.49e+00	0	42	104	0	29	13211
2026-01-13 08:06:41.34	351.81	7.43	-34.0	-45.3	3.8	1.49e+00	0	42	104	0	29	13217
2026-01-13 08:06:42.35	351.70	7.37	-34.0	-45.3	3.8	1.49e+00	0	42	104	0	29	13230
2026-01-13 08:06:43.36	351.59	7.32	-34.0	-45.3	3.8	1.49e+00	0	42	104	0	29	13237
2026-01-13 08:06:44.37	351.48	7.26	-34.0	-45.3	3.8	1.49e+00	0	42	104	0	29	13259
2026-01-13 08:06:45.37	351.37	7.20	-34.0	-45.3	3.8	1.49e+00	0	42	104	0	29	13237
2026-01-13 08:06:46.38	351.26	7.14	-34.0	-45.3	3.8	1.49e+00	0	42	104	0	29	13252
2026-01-13 08:06:47.39	351.15	7.09	-34.0	-45.3	3.8	1.49e+00	0	42	104	0	29	13286
2026-01-13 08:06:48.39	351.04	7.03	-34.0	-45.3	3.8	1.49e+00	0	42	104	0	29	13212

#Closed at: 2026-01-13 08:06:49
#Recorded file [0 MB]: D:/data/31010_260113_105753.dat