passes_logs/2026/01/13/R2M6_AANII_01/R2M6_AANII_01__20260113_021340_NOAA_20_JPSS-1_rec.log

#Pass ID: 20260113_021340_NOAA 20 (JPSS-1)
#Satellite: NOAA 20 (JPSS-1)
#Configuration: NOAA 20
#almurnet v.1.7.20240730
#Start time: 2026-01-13 02:13:39

#Version: 2.2.20231116
#Station: R2M6_AANII_01
#Location: 30.233357 lon 59.946436 lat
#TLE: 1 43013U 17073A   26012.29914746  .00000087  00000+0  62270-4 0  9997
#TLE: 2 43013  98.7632 313.2670 0001616  43.2193 316.9110 14.19535514422351

#Time	Az	El	Level	Level2	SNR	BER	BlckErr	Temp	State	Recorded	gain1	gain2
2026-01-13 02:13:39.64	10.58	6.94	-32.3	-42.9	4.0	1.46e+00	0	40	0	0	24	12062
2026-01-13 02:13:40.64	10.49	7.01	-32.3	-42.0	4.1	1.43e+00	0	40	104	0	24	11018
2026-01-13 02:13:41.65	10.40	7.07	-32.3	-41.7	4.9	8.11e-01	0	40	0	0	24	10654
2026-01-13 02:13:42.65	10.31	7.14	-32.2	-41.5	5.0	7.01e-01	0	40	0	1048576	24	10405
2026-01-13 02:13:43.66	10.22	7.20	-32.3	-41.5	5.0	6.80e-01	0	40	0	3145728	24	10441
2026-01-13 02:13:44.66	10.13	7.27	-32.3	-41.7	4.9	7.27e-01	0	40	0	5242880	24	10615
2026-01-13 02:13:45.67	10.04	7.33	-32.3	-41.5	5.0	7.49e-01	0	40	0	7340032	24	10431
2026-01-13 02:13:46.67	9.95	7.40	-32.3	-41.3	5.1	6.50e-01	0	40	0	9437184	24	10161
2026-01-13 02:13:47.68	9.85	7.46	-32.3	-41.2	5.2	6.14e-01	0	40	0	10485760	24	10058
2026-01-13 02:13:48.68	9.76	7.53	-32.3	-41.2	5.2	5.95e-01	0	40	0	12582912	24	10033
2026-01-13 02:13:49.69	9.67	7.59	-32.3	-41.2	5.2	5.95e-01	0	40	0	14680064	24	10063
2026-01-13 02:13:50.69	9.58	7.66	-32.3	-41.6	5.0	6.24e-01	0	40	0	16777216	24	10466
2026-01-13 02:13:51.70	9.48	7.72	-32.3	-41.3	5.2	7.32e-01	0	40	0	18874368	24	10170
2026-01-13 02:13:52.71	9.39	7.79	-32.2	-40.5	5.6	4.65e-01	0	40	0	19922944	24	9364
2026-01-13 02:13:53.71	9.29	7.86	-32.0	-39.3	6.4	3.06e-01	0	40	0	22020096	24	8329
2026-01-13 02:13:54.72	9.20	7.92	-31.9	-38.9	7.1	1.87e-01	0	40	0	24117248	23	8084
2026-01-13 02:13:55.73	9.10	7.99	-31.7	-37.9	7.9	1.15e-01	0	40	0	26214400	23	7364
2026-01-13 02:13:56.73	9.01	8.05	-31.4	-36.9	8.7	4.83e-02	0	40	0	28311552	23	6735
2026-01-13 02:13:57.73	8.91	8.12	-31.3	-36.6	9.3	2.59e-02	0	40	0	29360128	22	6655
2026-01-13 02:13:58.74	8.82	8.19	-31.1	-36.0	9.8	1.78e-02	0	40	0	31457280	22	6328
2026-01-13 02:13:59.74	8.72	8.25	-31.0	-35.7	10.1	7.87e-03	0	40	0	33554432	22	6154
2026-01-13 02:14:00.75	8.62	8.32	-31.0	-35.6	10.2	5.47e-03	0	40	0	35651584	22	6114
2026-01-13 02:14:01.76	8.52	8.39	-30.9	-35.8	10.4	7.61e-03	0	40	0	37748736	21	6318
2026-01-13 02:14:02.76	8.43	8.45	-30.9	-35.8	10.5	4.45e-03	0	40	0	38797312	21	6295
2026-01-13 02:14:03.77	8.33	8.52	-30.9	-35.8	10.4	4.72e-03	0	40	0	40894464	21	6331
2026-01-13 02:14:04.77	8.23	8.58	-30.9	-35.8	10.4	7.38e-03	0	40	0	42991616	21	6309
2026-01-13 02:14:05.78	8.13	8.65	-30.9	-35.8	10.4	7.60e-03	0	41	0	45088768	21	6334
2026-01-13 02:14:06.78	8.03	8.72	-30.9	-35.8	10.3	5.37e-03	0	40	0	46137344	21	6331
2026-01-13 02:14:07.78	7.93	8.79	-30.9	-35.8	10.4	7.55e-03	0	40	0	48234496	21	6312
2026-01-13 02:14:08.78	7.83	8.85	-31.1	-35.8	10.1	8.24e-03	0	40	0	50331648	22	6177
2026-01-13 02:14:09.79	7.72	8.92	-31.1	-36.1	9.8	8.83e-03	0	40	0	52428800	22	6347
2026-01-13 02:14:10.79	7.62	8.99	-31.1	-35.9	10.0	9.27e-03	0	40	0	54525952	22	6265
2026-01-13 02:14:11.79	7.52	9.05	-31.1	-35.9	10.0	9.74e-03	0	40	0	56623104	22	6240
2026-01-13 02:14:12.79	7.42	9.12	-31.1	-35.8	10.1	6.86e-03	0	41	0	57671680	22	6205
2026-01-13 02:14:13.80	7.31	9.19	-31.2	-36.0	9.9	8.00e-03	0	40	0	59768832	22	6316
2026-01-13 02:14:14.80	7.21	9.26	-31.1	-36.0	10.0	1.25e-02	0	40	0	61865984	22	6304
2026-01-13 02:14:15.80	7.11	9.32	-31.2	-36.2	9.8	8.38e-03	0	41	0	63963136	22	6419
2026-01-13 02:14:16.81	7.00	9.39	-31.1	-35.9	10.0	8.84e-03	0	41	0	65011712	22	6234
2026-01-13 02:14:17.82	6.89	9.46	-31.0	-35.6	10.3	5.89e-03	0	41	0	67108864	22	6075
2026-01-13 02:14:18.82	6.79	9.53	-31.0	-35.5	10.4	5.13e-03	0	41	0	69206016	22	6059
2026-01-13 02:14:19.83	6.68	9.60	-31.0	-35.5	10.4	4.95e-03	0	41	0	71303168	22	6031
2026-01-13 02:14:20.83	6.57	9.66	-31.0	-35.6	10.4	4.59e-03	0	41	0	73400320	22	6076
2026-01-13 02:14:21.83	6.47	9.73	-31.0	-35.5	10.4	4.73e-03	0	41	0	74448896	22	6041
2026-01-13 02:14:22.84	6.36	9.80	-31.0	-35.5	10.4	4.25e-03	0	41	0	76546048	22	6046
2026-01-13 02:14:23.85	6.25	9.87	-30.9	-35.1	10.7	3.84e-03	0	41	0	78643200	22	5841
2026-01-13 02:14:24.84	6.14	9.94	-30.8	-34.9	10.9	2.35e-03	0	41	0	80740352	22	5726
2026-01-13 02:14:25.85	6.03	10.01	-30.7	-35.1	11.1	1.75e-03	0	41	0	82837504	21	5918
2026-01-13 02:14:26.86	5.92	10.08	-30.7	-35.0	11.1	1.53e-03	0	41	0	83886080	21	5911
2026-01-13 02:14:27.86	5.81	10.14	-30.8	-35.2	11.0	1.88e-03	0	41	0	85983232	21	5998
2026-01-13 02:14:28.86	5.70	10.21	-30.8	-35.3	10.9	1.97e-03	0	41	0	88080384	21	6048
2026-01-13 02:14:29.87	5.59	10.28	-30.8	-35.4	10.9	2.19e-03	0	41	0	90177536	21	6064
2026-01-13 02:14:30.88	5.47	10.35	-30.8	-35.3	10.9	2.03e-03	0	41	0	92274688	21	6024
2026-01-13 02:14:31.88	5.36	10.42	-30.9	-35.5	10.8	2.21e-03	0	41	0	93323264	21	6147
2026-01-13 02:14:32.89	5.25	10.49	-30.9	-35.5	10.8	2.79e-03	0	41	0	95420416	21	6131
2026-01-13 02:14:33.89	5.13	10.56	-30.7	-35.1	11.1	1.93e-03	0	41	0	97517568	21	5927
2026-01-13 02:14:34.89	5.02	10.63	-30.9	-35.5	10.8	1.79e-03	0	41	0	99614720	21	6115
2026-01-13 02:14:35.89	4.90	10.70	-30.8	-35.3	11.0	2.20e-03	0	41	0	101711872	21	6019
2026-01-13 02:14:36.90	4.79	10.77	-30.7	-34.9	11.3	1.63e-03	0	41	0	102760448	21	5833
2026-01-13 02:14:37.90	4.67	10.84	-30.7	-34.9	11.3	1.05e-03	0	41	0	104857600	21	5836
2026-01-13 02:14:38.90	4.55	10.91	-30.1	-34.4	11.3	1.21e-03	0	41	0	106954752	21	5878
2026-01-13 02:14:39.91	4.44	10.98	-30.8	-35.3	10.9	1.67e-03	0	41	0	109051904	21	6020
2026-01-13 02:14:40.91	4.32	11.05	-30.8	-35.2	10.8	1.78e-03	0	41	0	111149056	21	6001
2026-01-13 02:14:41.92	4.20	11.12	-30.8	-35.1	11.1	1.46e-03	0	41	0	112197632	21	5900
2026-01-13 02:14:42.93	4.08	11.19	-30.8	-35.1	10.3	4.53e-03	0	41	0	114294784	21	5925
2026-01-13 02:14:43.94	3.96	11.26	-30.8	-35.1	10.8	1.48e-03	0	41	0	116391936	21	5915
2026-01-13 02:14:44.94	3.84	11.33	-30.8	-35.3	11.0	1.81e-03	0	41	0	118489088	21	6034
2026-01-13 02:14:45.95	3.72	11.40	-30.8	-35.2	11.1	4.58e-03	0	41	0	120586240	21	5967
2026-01-13 02:14:46.95	3.60	11.47	-30.7	-35.0	11.3	1.36e-03	0	41	0	121634816	21	5867
2026-01-13 02:14:47.96	3.47	11.54	-30.7	-34.8	11.4	1.01e-03	0	41	0	123731968	21	5804
2026-01-13 02:14:48.95	3.35	11.61	-30.7	-34.9	11.4	9.19e-04	0	41	0	125829120	21	5814
2026-01-13 02:14:49.96	3.23	11.68	-30.6	-34.6	11.5	3.77e-03	0	41	0	127926272	21	5710
2026-01-13 02:14:50.97	3.10	11.75	-30.6	-34.6	11.5	7.16e-04	0	41	0	130023424	21	5699
2026-01-13 02:14:51.98	2.98	11.82	-30.6	-34.6	11.6	7.82e-04	0	41	0	131072000	21	5692
2026-01-13 02:14:52.98	2.85	11.89	-30.7	-34.7	11.6	3.60e-03	0	41	0	133169152	21	5717
2026-01-13 02:14:53.98	2.73	11.96	-30.6	-34.5	11.7	9.54e-04	0	41	0	135266304	21	5623
2026-01-13 02:14:54.99	2.60	12.03	-30.6	-34.5	11.8	5.64e-04	0	41	0	137363456	21	5621
2026-01-13 02:14:55.99	2.47	12.10	-30.5	-34.3	11.8	3.04e-03	0	41	0	139460608	21	5552
2026-01-13 02:14:56.99	2.35	12.17	-30.5	-34.3	11.8	6.61e-04	0	41	0	140509184	21	5545
2026-01-13 02:14:58.00	2.22	12.25	-30.6	-34.5	11.7	4.23e-04	0	41	0	142606336	21	5628
2026-01-13 02:14:59.01	2.09	12.32	-30.5	-34.2	11.9	4.18e-04	0	41	0	144703488	21	5499
2026-01-13 02:15:00.01	1.96	12.39	-30.5	-34.2	12.0	5.97e-04	0	41	0	146800640	21	5492
2026-01-13 02:15:01.02	1.83	12.46	-30.5	-34.2	11.9	3.13e-03	0	41	0	147849216	21	5518
2026-01-13 02:15:02.03	1.69	12.53	-30.6	-34.3	11.9	3.97e-04	0	41	0	149946368	21	5552
2026-01-13 02:15:03.04	1.56	12.60	-30.5	-34.1	12.0	5.45e-04	0	41	0	152043520	21	5471
2026-01-13 02:15:04.03	1.43	12.67	-30.6	-34.4	11.8	3.15e-03	0	41	0	154140672	21	5571
2026-01-13 02:15:05.04	1.30	12.75	-30.5	-34.2	12.0	2.82e-03	0	41	0	156237824	21	5490
2026-01-13 02:15:06.04	1.17	12.82	-30.5	-34.1	12.0	5.85e-04	0	41	0	158334976	21	5464
2026-01-13 02:15:07.05	1.03	12.89	-30.6	-34.5	11.7	2.95e-03	0	41	0	159383552	21	5624
2026-01-13 02:15:08.06	0.89	12.96	-30.5	-34.2	12.0	3.28e-03	0	41	0	161480704	21	5512
2026-01-13 02:15:09.06	0.76	13.03	-30.5	-34.2	12.0	3.49e-04	0	41	0	163577856	21	5508
2026-01-13 02:15:10.06	0.62	13.10	-30.4	-34.4	12.2	2.98e-03	0	41	0	165675008	20	5703
2026-01-13 02:15:11.06	0.49	13.18	-30.5	-34.1	12.0	3.04e-03	0	41	0	166723584	21	5467
2026-01-13 02:15:12.07	0.35	13.25	-30.5	-34.0	12.1	5.01e-04	0	41	0	168820736	21	5408
2026-01-13 02:15:13.07	0.21	13.32	-30.5	-34.1	12.1	2.95e-03	0	41	0	170917888	21	5447
2026-01-13 02:15:14.08	0.07	13.39	-30.5	-34.2	12.0	2.87e-03	0	42	0	173015040	21	5484
2026-01-13 02:15:15.08	359.93	13.46	-30.5	-34.2	12.1	5.71e-04	0	41	0	175112192	21	5473
2026-01-13 02:15:16.09	359.79	13.54	-30.6	-34.4	11.9	2.77e-03	0	42	0	176160768	21	5570
2026-01-13 02:15:17.09	359.65	13.61	-30.5	-34.2	12.1	3.14e-03	0	41	0	178257920	21	5471
2026-01-13 02:15:18.10	359.51	13.68	-30.5	-34.2	12.0	5.63e-04	0	41	0	180355072	21	5485
2026-01-13 02:15:19.11	359.36	13.75	-30.6	-34.4	11.9	3.23e-03	0	41	0	182452224	21	5589
2026-01-13 02:15:20.12	359.22	13.83	-30.7	-34.8	11.6	3.46e-03	0	42	0	184549376	21	5759
2026-01-13 02:15:21.12	359.08	13.90	-30.7	-34.8	11.6	9.18e-04	0	41	0	185597952	21	5760
2026-01-13 02:15:22.13	358.93	13.97	-30.7	-34.7	11.7	3.47e-03	0	41	0	187695104	21	5722
2026-01-13 02:15:23.13	358.79	14.04	-30.8	-34.9	11.6	6.81e-04	0	42	0	189792256	21	5790
2026-01-13 02:15:24.13	358.64	14.11	-30.8	-35.1	11.4	1.22e-03	0	42	0	191889408	21	5887
2026-01-13 02:15:25.14	358.49	14.19	-30.7	-34.8	11.6	3.31e-03	0	42	0	193986560	21	5736
2026-01-13 02:15:26.15	358.34	14.26	-30.7	-34.5	11.8	4.30e-04	0	42	0	195035136	21	5621
2026-01-13 02:15:27.15	358.20	14.33	-30.6	-34.4	12.0	3.65e-04	0	42	0	197132288	21	5547
2026-01-13 02:15:28.14	358.05	14.40	-30.6	-34.4	11.9	3.09e-03	0	42	0	199229440	21	5566
2026-01-13 02:15:29.16	357.90	14.48	-30.6	-34.4	12.0	3.00e-03	0	42	0	201326592	21	5552
2026-01-13 02:15:30.15	357.75	14.55	-30.7	-34.6	11.8	4.93e-04	0	42	0	203423744	21	5649
2026-01-13 02:15:31.15	357.60	14.62	-30.5	-33.9	12.3	2.84e-03	0	42	0	204472320	21	5371
2026-01-13 02:15:32.16	357.44	14.69	-30.3	-34.0	12.6	2.51e-03	0	42	0	206569472	20	5500
2026-01-13 02:15:33.17	357.29	14.77	-30.4	-34.3	12.4	1.25e-04	0	42	0	208666624	20	5632
2026-01-13 02:15:34.16	357.14	14.84	-30.3	-33.9	12.6	9.84e-05	0	42	0	210763776	20	5465
2026-01-13 02:15:35.17	356.98	14.91	-30.3	-33.9	12.7	2.67e-03	0	42	0	212860928	20	5454
2026-01-13 02:15:36.17	356.83	14.98	-30.3	-34.0	12.5	4.67e-04	0	42	0	213909504	20	5518
2026-01-13 02:15:37.17	356.67	15.05	-30.4	-34.3	12.4	1.17e-04	0	42	0	216006656	20	5610
2026-01-13 02:15:38.17	356.52	15.13	-30.4	-34.3	12.4	1.43e-04	0	42	0	218103808	20	5645
2026-01-13 02:15:39.17	356.36	15.20	-30.5	-34.1	12.2	4.97e-04	0	42	0	220200960	21	5429
2026-01-13 02:15:40.18	356.20	15.27	-30.5	-34.0	12.3	1.88e-04	0	42	0	221249536	21	5386
2026-01-13 02:15:41.19	356.04	15.34	-30.6	-34.2	12.1	2.42e-04	0	42	0	223346688	21	5484
2026-01-13 02:15:42.20	355.88	15.42	-30.5	-34.1	12.1	4.77e-04	0	42	0	225443840	21	5441
2026-01-13 02:15:43.20	355.72	15.49	-30.5	-33.9	12.3	1.70e-04	0	42	0	227540992	21	5362
2026-01-13 02:15:44.21	355.56	15.56	-30.5	-33.9	12.4	1.79e-04	0	42	0	229638144	21	5348
2026-01-13 02:15:45.22	355.39	15.63	-30.5	-34.0	12.3	1.81e-04	0	42	0	231735296	21	5379
2026-01-13 02:15:46.22	355.23	15.71	-30.5	-34.1	12.2	2.57e-03	0	42	0	232783872	21	5453
2026-01-13 02:15:47.23	355.07	15.78	-30.6	-34.4	12.0	3.26e-04	0	42	0	234881024	21	5558
2026-01-13 02:15:48.23	354.90	15.85	-30.6	-34.2	12.2	2.49e-04	0	42	0	236978176	21	5460
2026-01-13 02:15:49.23	354.74	15.92	-30.5	-34.0	12.3	1.21e-03	0	42	0	239075328	21	5405
2026-01-13 02:15:50.23	354.57	16.00	-30.5	-34.1	12.2	1.86e-04	0	42	0	240123904	21	5435
2026-01-13 02:15:51.24	354.41	16.07	-30.6	-34.2	12.2	2.45e-04	0	42	0	242221056	21	5468
2026-01-13 02:15:52.24	354.24	16.14	-30.6	-34.3	12.1	2.35e-04	0	42	0	244318208	21	5495
2026-01-13 02:15:53.25	354.07	16.21	-30.6	-34.3	12.1	2.75e-04	0	42	0	246415360	21	5498
2026-01-13 02:15:54.25	353.90	16.28	-30.7	-34.6	11.9	3.36e-04	0	42	0	248512512	21	5656
2026-01-13 02:15:55.26	353.73	16.36	-30.7	-34.7	11.8	5.35e-04	0	42	0	249561088	21	5693
2026-01-13 02:15:56.26	353.56	16.43	-30.7	-34.5	12.0	4.38e-04	0	42	0	251658240	21	5609
2026-01-13 02:15:57.27	353.38	16.50	-30.6	-34.3	12.1	2.91e-04	0	42	0	253755392	21	5521
2026-01-13 02:15:58.28	353.21	16.57	-30.7	-34.4	12.0	2.85e-04	0	42	0	255852544	21	5566
2026-01-13 02:15:59.28	353.04	16.64	-30.6	-34.3	12.1	2.78e-04	0	42	0	257949696	21	5514
2026-01-13 02:16:00.29	352.86	16.72	-30.7	-34.7	11.8	3.90e-04	0	42	0	260046848	21	5667
2026-01-13 02:16:01.29	352.69	16.79	-30.8	-34.8	11.8	5.36e-04	0	42	0	261095424	21	5735
2026-01-13 02:16:02.30	352.51	16.86	-30.7	-34.7	11.9	4.36e-04	0	42	0	263192576	21	5664
2026-01-13 02:16:03.31	352.33	16.93	-30.7	-34.7	11.9	4.02e-04	0	42	0	265289728	21	5676
2026-01-13 02:16:04.31	352.15	17.00	-30.8	-34.8	11.8	4.64e-04	0	42	0	267386880	21	5703
2026-01-13 02:16:05.32	351.97	17.08	-30.8	-34.8	11.7	4.43e-04	0	42	0	268435456	21	5742
2026-01-13 02:16:06.32	351.79	17.15	-30.8	-35.0	11.2	4.91e-04	0	42	0	270532608	21	5808
2026-01-13 02:16:07.33	351.61	17.22	-30.8	-34.9	11.2	6.58e-04	0	42	0	272629760	21	5780
2026-01-13 02:16:08.34	351.43	17.29	-30.7	-34.6	11.9	4.60e-04	0	42	0	274726912	21	5636
2026-01-13 02:16:09.34	351.25	17.36	-30.7	-34.5	12.0	3.32e-04	0	42	0	276824064	21	5573
2026-01-13 02:16:10.35	351.06	17.43	-30.7	-34.6	12.0	1.41e-03	0	42	0	277872640	21	5614
2026-01-13 02:16:11.35	350.88	17.50	-30.7	-34.5	12.0	3.06e-04	0	42	0	279969792	21	5605
2026-01-13 02:16:12.36	350.69	17.57	-30.7	-34.5	12.1	3.13e-04	0	42	0	282066944	21	5578
2026-01-13 02:16:13.36	350.51	17.64	-30.7	-34.6	12.0	2.35e-03	0	42	0	284164096	21	5616
2026-01-13 02:16:14.37	350.32	17.71	-30.7	-34.4	12.1	2.59e-04	0	42	0	286261248	21	5557
2026-01-13 02:16:15.37	350.13	17.79	-30.7	-34.5	12.1	3.06e-04	0	42	0	287309824	21	5571
2026-01-13 02:16:16.38	349.94	17.86	-30.5	-34.1	12.4	2.13e-04	0	42	0	289406976	21	5415
2026-01-13 02:16:17.38	349.76	17.93	-30.6	-34.2	12.3	4.77e-04	0	42	0	291504128	21	5461
2026-01-13 02:16:18.39	349.56	18.00	-30.6	-34.1	12.3	2.07e-04	0	42	0	293601280	21	5437
2026-01-13 02:16:19.40	349.37	18.07	-30.6	-34.3	12.2	1.64e-04	0	42	0	295698432	21	5497
2026-01-13 02:16:20.39	349.18	18.14	-30.7	-34.4	12.2	4.81e-04	0	42	0	296747008	21	5534
2026-01-13 02:16:21.39	348.99	18.20	-30.5	-33.9	12.5	1.36e-04	0	42	0	298844160	21	5339
2026-01-13 02:16:22.40	348.79	18.27	-30.5	-33.9	12.5	1.18e-04	0	42	0	300941312	21	5328
2026-01-13 02:16:23.40	348.60	18.34	-30.6	-34.2	12.3	2.47e-04	0	42	0	303038464	21	5444
2026-01-13 02:16:24.41	348.40	18.41	-30.5	-34.0	12.4	7.45e-04	0	42	0	305135616	21	5372
2026-01-13 02:16:25.41	348.21	18.48	-30.4	-34.2	12.7	1.01e-04	0	42	0	306184192	20	5547
2026-01-13 02:16:26.42	348.01	18.55	-30.4	-34.2	12.7	8.01e-05	0	42	0	308281344	20	5566
2026-01-13 02:16:27.43	347.81	18.62	-30.5	-34.4	12.5	2.92e-04	0	42	0	310378496	20	5652
2026-01-13 02:16:28.44	347.61	18.69	-30.4	-33.8	12.6	1.43e-04	0	42	0	312475648	21	5295
2026-01-13 02:16:29.45	347.41	18.76	-30.5	-33.8	12.6	9.46e-05	0	42	0	314572800	21	5306
2026-01-13 02:16:30.45	347.21	18.83	-30.4	-33.6	12.7	7.32e-05	0	42	0	315621376	21	5232
2026-01-13 02:16:31.46	347.00	18.89	-30.3	-33.4	12.9	8.69e-05	0	42	0	317718528	21	5123
2026-01-13 02:16:32.47	346.80	18.96	-30.3	-33.3	12.9	5.72e-05	0	42	0	319815680	21	5109
2026-01-13 02:16:33.48	346.59	19.03	-30.2	-33.5	13.1	9.93e-04	0	42	0	321912832	20	5276
2026-01-13 02:16:34.48	346.39	19.10	-30.0	-33.0	13.5	1.39e-03	0	42	0	324009984	20	5090
2026-01-13 02:16:35.48	346.18	19.17	-29.8	-32.4	13.9	9.10e-06	0	42	0	325058560	20	4846
2026-01-13 02:16:36.49	345.98	19.23	-29.8	-32.8	14.0	1.88e-03	0	42	0	327155712	19	5094
2026-01-13 02:16:37.50	345.77	19.30	-29.7	-32.5	14.1	2.27e-03	0	42	0	329252864	19	5015
2026-01-13 02:16:38.50	345.56	19.37	-29.6	-32.4	14.2	0.00e+00	0	42	0	331350016	19	4967
2026-01-13 02:16:39.51	345.35	19.43	-29.7	-32.6	14.2	2.33e-03	0	42	0	333447168	19	5013
2026-01-13 02:16:40.51	345.14	19.50	-29.7	-32.7	14.0	2.28e-03	0	42	0	334495744	19	5084
2026-01-13 02:16:41.51	344.93	19.56	-29.7	-32.7	14.1	3.00e-06	0	42	0	336592896	19	5072
2026-01-13 02:16:42.52	344.71	19.63	-29.6	-32.3	14.3	2.35e-03	0	42	0	338690048	19	4933
2026-01-13 02:16:43.52	344.50	19.70	-29.5	-32.2	14.4	2.16e-03	0	42	0	340787200	19	4895
2026-01-13 02:16:44.53	344.29	19.76	-29.5	-32.2	14.4	1.50e-06	0	42	0	342884352	19	4882
2026-01-13 02:16:45.53	344.07	19.83	-29.5	-32.2	14.4	2.17e-03	0	42	0	343932928	19	4892
2026-01-13 02:16:46.54	343.85	19.89	-29.7	-32.6	14.2	7.00e-07	0	42	0	346030080	19	5031
2026-01-13 02:16:47.55	343.64	19.96	-29.7	-32.5	14.2	3.80e-06	0	42	0	348127232	19	4999
2026-01-13 02:16:48.56	343.42	20.02	-29.5	-32.0	14.5	2.52e-03	0	42	0	350224384	19	4827
2026-01-13 02:16:49.56	343.20	20.08	-29.3	-32.1	14.8	2.48e-03	0	42	0	352321536	18	4954
2026-01-13 02:16:50.56	342.98	20.15	-29.3	-32.0	14.9	0.00e+00	0	42	0	353370112	18	4928
2026-01-13 02:16:51.57	342.76	20.21	-29.3	-32.1	14.8	2.45e-03	0	42	0	355467264	18	4956
2026-01-13 02:16:52.58	342.54	20.27	-29.4	-32.3	14.7	2.23e-03	0	42	0	357564416	18	5020
2026-01-13 02:16:53.59	342.31	20.34	-29.3	-32.0	14.8	0.00e+00	0	42	0	359661568	18	4932
2026-01-13 02:16:54.59	342.09	20.40	-29.2	-31.9	14.9	2.48e-03	0	42	0	361758720	18	4889
2026-01-13 02:16:55.60	341.86	20.46	-29.2	-31.9	15.0	2.58e-03	0	42	0	362807296	18	4875
2026-01-13 02:16:56.60	341.64	20.52	-29.2	-31.8	15.0	0.00e+00	0	42	0	364904448	18	4864
2026-01-13 02:16:57.61	341.41	20.59	-29.2	-31.8	15.0	0.00e+00	0	42	0	367001600	18	4851
2026-01-13 02:16:58.61	341.18	20.65	-29.1	-31.6	15.1	2.47e-03	0	42	0	369098752	18	4786
2026-01-13 02:16:59.62	340.96	20.71	-29.0	-31.4	15.2	0.00e+00	0	42	0	371195904	18	4731
2026-01-13 02:17:00.63	340.72	20.77	-28.9	-31.6	15.4	0.00e+00	0	42	0	372244480	17	4907
2026-01-13 02:17:01.63	340.50	20.83	-28.9	-31.6	15.4	5.44e-04	0	42	0	374341632	17	4914
2026-01-13 02:17:02.64	340.26	20.89	-29.0	-31.4	15.2	0.00e+00	0	42	0	376438784	18	4717
2026-01-13 02:17:03.65	340.03	20.95	-29.2	-31.7	15.1	0.00e+00	0	42	0	378535936	18	4822
2026-01-13 02:17:04.65	339.80	21.01	-29.2	-31.8	15.0	0.00e+00	0	42	0	380633088	18	4855
2026-01-13 02:17:05.66	339.56	21.07	-29.1	-31.6	15.1	0.00e+00	0	42	0	381681664	18	4799
2026-01-13 02:17:06.67	339.33	21.13	-29.1	-31.6	15.1	0.00e+00	0	42	0	383778816	18	4800
2026-01-13 02:17:07.67	339.09	21.18	-29.3	-31.9	15.0	0.00e+00	0	42	0	385875968	18	4894
2026-01-13 02:17:08.67	338.86	21.24	-29.2	-31.8	15.1	0.00e+00	0	42	0	387973120	18	4837
2026-01-13 02:17:09.66	338.62	21.30	-29.1	-31.6	15.2	2.49e-03	0	42	0	390070272	18	4777
2026-01-13 02:17:10.67	338.39	21.35	-29.2	-31.9	15.0	0.00e+00	0	42	0	391118848	18	4874
2026-01-13 02:17:11.68	338.14	21.41	-29.3	-32.2	14.8	0.00e+00	0	42	0	393216000	18	4985
2026-01-13 02:17:12.68	337.91	21.47	-29.4	-32.3	14.7	2.31e-03	0	42	0	395313152	18	5032
2026-01-13 02:17:13.69	337.66	21.52	-29.4	-31.9	14.6	0.00e+00	0	42	0	397410304	19	4776
2026-01-13 02:17:14.70	337.42	21.58	-29.3	-31.6	14.9	0.00e+00	0	42	0	399507456	19	4669
2026-01-13 02:17:15.70	337.18	21.63	-29.2	-31.9	15.0	0.00e+00	0	42	0	400556032	18	4891
2026-01-13 02:17:16.71	336.93	21.69	-29.2	-31.9	15.0	0.00e+00	0	42	0	402653184	18	4876
2026-01-13 02:17:17.72	336.69	21.74	-29.3	-32.1	14.9	7.00e-07	0	42	0	404750336	18	4964
2026-01-13 02:17:18.72	336.44	21.79	-29.5	-32.4	14.7	1.50e-06	0	42	0	406847488	18	5077
2026-01-13 02:17:19.72	336.20	21.85	-29.4	-31.9	14.7	0.00e+00	0	42	0	408944640	19	4782
2026-01-13 02:17:20.73	335.95	21.90	-29.6	-32.2	14.5	0.00e+00	0	42	0	409993216	19	4885
2026-01-13 02:17:21.73	335.71	21.95	-29.4	-31.8	14.7	7.00e-07	0	42	0	412090368	19	4754
2026-01-13 02:17:22.74	335.46	22.00	-29.3	-32.1	14.9	0.00e+00	0	42	0	414187520	18	4947
2026-01-13 02:17:23.75	335.20	22.06	-29.3	-31.9	15.0	0.00e+00	0	42	0	416284672	18	4894
2026-01-13 02:17:24.75	334.96	22.11	-29.2	-31.8	15.1	0.00e+00	0	42	0	418381824	18	4853
2026-01-13 02:17:25.77	334.70	22.16	-29.1	-31.5	15.2	0.00e+00	0	42	0	419430400	18	4764
2026-01-13 02:17:26.77	334.45	22.21	-29.1	-31.4	15.3	0.00e+00	0	42	0	421527552	18	4730
2026-01-13 02:17:27.78	334.20	22.26	-29.1	-31.6	15.2	0.00e+00	0	42	0	423624704	18	4776
2026-01-13 02:17:28.79	333.94	22.30	-29.1	-31.6	15.2	0.00e+00	0	42	0	425721856	18	4769
2026-01-13 02:17:29.80	333.69	22.35	-29.2	-31.7	13.6	2.13e-03	0	42	0	427819008	18	4816
2026-01-13 02:17:30.81	333.43	22.40	-29.1	-31.6	14.1	0.00e+00	0	42	0	428867584	18	4786
2026-01-13 02:17:31.81	333.17	22.45	-29.1	-31.5	15.3	0.00e+00	0	42	0	430964736	18	4744
2026-01-13 02:17:32.82	332.92	22.49	-29.1	-31.6	15.1	0.00e+00	0	42	0	433061888	18	4789
2026-01-13 02:17:33.82	332.66	22.54	-28.9	-31.6	15.4	0.00e+00	0	42	0	435159040	17	4914
2026-01-13 02:17:34.83	332.40	22.59	-28.8	-31.2	15.7	0.00e+00	0	42	0	437256192	17	4772
2026-01-13 02:17:35.83	332.14	22.63	-28.7	-31.1	15.8	1.50e-06	0	42	0	438304768	17	4743
2026-01-13 02:17:36.84	331.88	22.68	-28.8	-31.2	15.8	2.13e-03	0	42	0	440401920	17	4747
2026-01-13 02:17:37.85	331.62	22.72	-28.6	-30.9	15.9	0.00e+00	0	42	0	442499072	17	4657
2026-01-13 02:17:38.85	331.36	22.76	-28.6	-30.8	15.9	0.00e+00	0	42	0	444596224	17	4628
2026-01-13 02:17:39.86	331.10	22.81	-28.7	-31.0	15.9	2.23e-03	0	42	0	446693376	17	4691
2026-01-13 02:17:40.86	330.83	22.85	-28.6	-30.9	15.9	0.00e+00	0	42	0	447741952	17	4654
2026-01-13 02:17:41.87	330.57	22.89	-28.5	-30.5	16.1	0.00e+00	0	42	0	449839104	17	4554
2026-01-13 02:17:42.88	330.30	22.93	-28.6	-30.7	16.0	0.00e+00	0	42	0	451936256	17	4618
2026-01-13 02:17:43.89	330.04	22.97	-28.6	-30.7	16.0	9.23e-05	0	42	0	454033408	17	4610
2026-01-13 02:17:44.89	329.77	23.01	-28.6	-30.9	15.9	0.00e+00	0	42	0	456130560	17	4666
2026-01-13 02:17:45.89	329.51	23.05	-28.9	-31.5	15.5	0.00e+00	0	42	0	457179136	17	4855
2026-01-13 02:17:46.89	329.24	23.09	-28.9	-31.5	15.6	2.36e-05	0	42	0	459276288	17	4852
2026-01-13 02:17:47.90	328.97	23.13	-28.9	-31.5	15.6	2.00e-03	0	42	0	461373440	17	4857
2026-01-13 02:17:48.90	328.71	23.16	-28.9	-31.5	15.6	0.00e+00	0	42	0	463470592	17	4845
2026-01-13 02:17:49.91	328.44	23.20	-28.9	-31.6	15.5	1.53e-04	0	42	0	465567744	17	4890
2026-01-13 02:17:50.92	328.17	23.24	-28.8	-31.3	15.7	2.08e-03	0	42	0	466616320	17	4781
2026-01-13 02:17:51.92	327.90	23.27	-28.8	-31.3	15.7	0.00e+00	0	42	0	468713472	17	4801
2026-01-13 02:17:52.93	327.62	23.31	-28.8	-31.3	15.6	0.00e+00	0	42	0	470810624	17	4808
2026-01-13 02:17:53.94	327.35	23.34	-28.9	-31.5	15.5	1.47e-03	0	42	0	472907776	17	4855
2026-01-13 02:17:54.94	327.08	23.37	-29.0	-31.7	15.5	1.95e-03	0	42	0	475004928	17	4939
2026-01-13 02:17:55.95	326.81	23.41	-29.1	-31.4	15.3	0.00e+00	0	42	0	476053504	18	4717
2026-01-13 02:17:56.95	326.54	23.44	-29.3	-31.9	15.0	1.97e-03	0	42	0	478150656	18	4871
2026-01-13 02:17:57.96	326.26	23.47	-29.2	-31.8	15.1	2.24e-03	0	42	0	480247808	18	4847
2026-01-13 02:17:58.96	325.99	23.50	-29.3	-32.1	15.0	1.95e-04	0	42	0	482344960	18	4932
2026-01-13 02:17:59.97	325.71	23.53	-29.4	-32.3	14.8	2.13e-03	0	42	0	483393536	18	5023
2026-01-13 02:18:00.96	325.44	23.56	-29.6	-32.3	14.5	1.86e-03	0	42	0	485490688	19	4896
2026-01-13 02:18:01.97	325.16	23.59	-29.9	-33.0	14.1	3.90e-04	0	42	0	487587840	19	5156
2026-01-13 02:18:02.98	324.88	23.62	-29.9	-33.1	14.0	3.00e-06	0	42	0	489684992	19	5206
2026-01-13 02:18:03.98	324.61	23.65	-30.0	-33.3	13.9	1.27e-03	0	42	0	491782144	19	5266
2026-01-13 02:18:04.99	324.33	23.67	-29.9	-33.1	13.9	3.87e-04	0	42	0	492830720	19	5190
2026-01-13 02:18:05.99	324.05	23.70	-29.8	-32.9	14.1	9.57e-04	0	42	0	494927872	19	5108
2026-01-13 02:18:07.00	323.77	23.72	-29.9	-33.1	13.9	7.18e-04	0	42	0	497025024	19	5206
2026-01-13 02:18:08.00	323.50	23.75	-29.9	-33.1	13.9	4.94e-04	0	42	0	499122176	19	5214
2026-01-13 02:18:09.01	323.22	23.77	-30.0	-33.3	13.9	9.74e-04	0	42	0	501219328	19	5254
2026-01-13 02:18:10.02	322.94	23.80	-30.0	-32.7	13.8	1.73e-04	0	42	0	502267904	20	4967
2026-01-13 02:18:11.02	322.66	23.82	-30.0	-32.9	13.7	6.00e-04	0	42	0	504365056	20	5028
2026-01-13 02:18:12.02	322.38	23.84	-30.1	-33.3	13.4	1.69e-03	0	42	0	506462208	20	5158
2026-01-13 02:18:13.03	322.09	23.86	-30.0	-32.9	13.7	2.09e-03	0	42	0	508559360	20	5021
2026-01-13 02:18:14.03	321.82	23.88	-30.0	-32.9	13.7	5.62e-04	0	42	0	510656512	20	5008
2026-01-13 02:18:15.03	321.53	23.90	-30.0	-33.0	13.7	2.15e-03	0	42	0	511705088	20	5043
2026-01-13 02:18:16.03	321.25	23.92	-30.0	-32.9	13.7	2.49e-03	0	42	0	513802240	20	5003
2026-01-13 02:18:17.04	320.97	23.94	-30.0	-32.8	13.7	5.30e-06	0	42	0	515899392	20	4985
2026-01-13 02:18:18.05	320.69	23.96	-30.0	-32.9	13.7	2.50e-03	0	42	0	517996544	20	5026
2026-01-13 02:18:19.06	320.40	23.97	-29.9	-32.7	13.8	2.38e-03	0	42	0	520093696	20	4959
2026-01-13 02:18:20.06	320.12	23.99	-30.0	-33.0	13.7	7.60e-06	0	42	0	521142272	20	5047
2026-01-13 02:18:21.07	319.84	24.00	-30.2	-33.3	13.4	2.39e-03	0	42	0	523239424	20	5178
2026-01-13 02:18:22.08	319.55	24.02	-30.3	-33.6	13.2	2.30e-03	0	42	0	525336576	20	5300
2026-01-13 02:18:23.09	319.26	24.03	-30.3	-33.7	13.1	1.14e-03	0	42	0	527433728	20	5347
2026-01-13 02:18:24.09	318.98	24.04	-30.3	-33.8	13.1	3.81e-05	0	42	0	529530880	20	5364
2026-01-13 02:18:25.10	318.70	24.06	-30.3	-33.7	13.1	2.77e-03	0	42	0	530579456	20	5329
2026-01-13 02:18:26.10	318.41	24.07	-30.3	-33.8	13.1	1.09e-03	0	42	0	532676608	20	5369
2026-01-13 02:18:27.11	318.13	24.08	-30.2	-33.4	13.3	1.75e-05	0	42	0	534773760	20	5223
2026-01-13 02:18:28.11	317.84	24.09	-30.1	-33.1	13.6	9.10e-06	0	42	0	536870912	20	5097
2026-01-13 02:18:29.12	317.56	24.10	-30.1	-33.0	13.6	6.64e-04	0	42	0	538968064	20	5070
2026-01-13 02:18:30.13	317.27	24.10	-30.3	-33.6	13.3	1.44e-05	0	42	0	540016640	20	5279
2026-01-13 02:18:31.13	316.98	24.11	-30.4	-33.9	13.0	2.89e-05	0	42	0	542113792	20	5424
2026-01-13 02:18:32.14	316.70	24.12	-30.4	-34.1	12.9	9.23e-04	0	42	0	544210944	20	5488
2026-01-13 02:18:33.15	316.41	24.13	-30.6	-34.1	12.6	8.77e-05	0	42	0	546308096	21	5358
2026-01-13 02:18:34.15	316.13	24.13	-30.7	-34.3	12.4	1.22e-04	0	42	0	548405248	21	5477
2026-01-13 02:18:35.16	315.84	24.13	-30.6	-34.1	12.6	8.46e-05	0	42	0	549453824	21	5387
2026-01-13 02:18:36.17	315.55	24.14	-30.5	-33.7	12.8	3.05e-03	0	42	0	551550976	21	5231
2026-01-13 02:18:37.17	315.27	24.14	-30.4	-34.1	12.9	4.65e-05	0	42	0	553648128	20	5485
2026-01-13 02:18:38.18	314.98	24.14	-30.4	-34.1	13.0	4.42e-05	0	42	0	555745280	20	5471
2026-01-13 02:18:39.17	314.70	24.14	-30.5	-33.6	12.9	4.57e-05	0	42	0	557842432	21	5184
2026-01-13 02:18:40.17	314.41	24.14	-30.2	-33.3	13.4	1.60e-05	0	42	0	558891008	20	5173
2026-01-13 02:18:41.18	314.12	24.14	-29.9	-32.6	13.8	3.80e-06	0	42	0	560988160	20	4929
2026-01-13 02:18:42.18	313.84	24.14	-29.9	-33.2	13.9	2.20e-06	0	42	0	563085312	19	5218
2026-01-13 02:18:43.18	313.55	24.14	-29.9	-32.7	13.8	2.88e-03	0	42	0	565182464	20	4955
2026-01-13 02:18:44.19	313.27	24.14	-30.2	-33.4	13.4	8.30e-06	0	42	0	567279616	20	5194
2026-01-13 02:18:45.20	312.98	24.14	-30.3	-33.9	13.0	3.20e-05	0	42	0	568328192	20	5388
2026-01-13 02:18:46.20	312.69	24.13	-30.2	-33.4	13.4	2.74e-05	0	42	0	570425344	20	5212
2026-01-13 02:18:47.21	312.41	24.13	-30.2	-33.4	13.3	1.52e-05	0	42	0	572522496	20	5222
2026-01-13 02:18:48.22	312.12	24.12	-30.2	-33.4	13.3	7.60e-06	0	42	0	574619648	20	5221
2026-01-13 02:18:49.22	311.83	24.11	-30.0	-32.8	13.8	1.06e-05	0	42	0	576716800	20	4974
2026-01-13 02:18:50.23	311.55	24.11	-29.9	-32.5	13.9	2.20e-06	0	42	0	577765376	20	4891
2026-01-13 02:18:51.23	311.26	24.10	-29.9	-33.1	14.0	1.50e-06	0	42	0	579862528	19	5191
2026-01-13 02:18:52.24	310.97	24.09	-29.9	-33.1	14.0	2.20e-06	0	42	0	581959680	19	5196
2026-01-13 02:18:53.25	310.69	24.08	-29.1	-32.1	13.2	4.50e-06	0	42	0	584056832	20	5069
2026-01-13 02:18:54.25	310.40	24.07	-29.9	-33.5	13.2	1.67e-05	0	42	0	586153984	19	5468
2026-01-13 02:18:55.25	310.12	24.06	-29.8	-32.3	14.0	3.80e-06	0	42	0	587202560	20	4823
2026-01-13 02:18:56.27	309.83	24.05	-29.6	-32.3	12.7	0.00e+00	0	42	0	589299712	19	4900
2026-01-13 02:18:57.27	309.55	24.04	-29.5	-32.0	12.9	0.00e+00	0	42	0	591396864	19	4819
2026-01-13 02:18:58.27	309.27	24.02	-29.6	-32.2	14.5	0.00e+00	0	42	0	593494016	19	4864
2026-01-13 02:18:59.28	308.98	24.01	-29.7	-32.4	14.2	0.00e+00	0	42	0	595591168	19	4950
2026-01-13 02:19:00.29	308.69	23.99	-29.7	-32.4	14.3	2.08e-03	0	42	0	596639744	19	4954
2026-01-13 02:19:01.30	308.41	23.98	-29.4	-32.2	14.8	1.50e-06	0	42	0	598736896	18	4986
2026-01-13 02:19:02.30	308.13	23.96	-29.2	-31.7	15.1	0.00e+00	0	42	0	600834048	18	4805
2026-01-13 02:19:03.31	307.84	23.94	-29.0	-31.3	15.4	1.61e-03	0	42	0	602931200	18	4693
2026-01-13 02:19:04.32	307.56	23.93	-28.8	-31.3	15.6	0.00e+00	0	42	0	605028352	17	4804
2026-01-13 02:19:05.32	307.28	23.91	-28.8	-31.2	15.7	0.00e+00	0	42	0	606076928	17	4772
2026-01-13 02:19:06.33	307.00	23.89	-28.8	-31.3	15.7	0.00e+00	0	42	0	608174080	17	4787
2026-01-13 02:19:07.34	306.71	23.87	-29.0	-31.2	15.4	5.37e-04	0	42	0	610271232	18	4647
2026-01-13 02:19:08.34	306.43	23.85	-28.7	-31.1	15.7	0.00e+00	0	42	0	612368384	17	4747
2026-01-13 02:19:09.35	306.15	23.83	-28.7	-31.1	15.8	0.00e+00	0	42	0	614465536	17	4727
2026-01-13 02:19:10.35	305.87	23.80	-28.7	-31.0	15.8	5.15e-04	0	42	0	615514112	17	4704
2026-01-13 02:19:11.35	305.59	23.78	-28.5	-30.6	16.0	2.25e-03	0	42	0	617611264	17	4570
2026-01-13 02:19:12.36	305.31	23.76	-28.5	-30.5	16.1	0.00e+00	0	42	0	619708416	17	4547
2026-01-13 02:19:13.37	305.03	23.73	-28.5	-30.6	16.0	1.38e-03	0	42	0	621805568	17	4592
2026-01-13 02:19:14.37	304.75	23.71	-28.6	-30.8	15.9	2.48e-03	0	42	0	623902720	17	4634
2026-01-13 02:19:15.38	304.47	23.68	-28.5	-30.6	16.0	0.00e+00	0	42	0	624951296	17	4580
2026-01-13 02:19:16.39	304.19	23.65	-28.4	-30.4	16.1	1.28e-03	0	42	0	627048448	17	4519
2026-01-13 02:19:17.39	303.92	23.63	-28.3	-30.5	16.4	2.29e-03	0	42	0	629145600	16	4669
2026-01-13 02:19:18.40	303.64	23.60	-28.2	-30.4	16.4	2.60e-03	0	42	0	631242752	16	4624
2026-01-13 02:19:19.40	303.36	23.57	-28.3	-30.6	16.3	0.00e+00	0	42	0	633339904	16	4679
2026-01-13 02:19:20.40	303.09	23.54	-28.4	-30.9	16.1	2.84e-03	0	42	0	634388480	16	4783
2026-01-13 02:19:21.40	302.82	23.51	-28.5	-30.6	16.0	2.84e-03	0	42	0	636485632	17	4569
2026-01-13 02:19:22.41	302.54	23.48	-28.6	-30.9	15.8	9.90e-04	0	42	0	638582784	17	4672
2026-01-13 02:19:23.42	302.26	23.45	-28.5	-30.6	16.0	2.74e-03	0	42	0	640679936	17	4568
2026-01-13 02:19:24.43	301.99	23.42	-28.5	-30.6	15.9	2.52e-03	0	42	0	641728512	17	4588
2026-01-13 02:19:25.43	301.72	23.38	-28.6	-30.8	15.9	4.41e-04	0	42	0	643825664	17	4632
2026-01-13 02:19:26.44	301.44	23.35	-28.5	-30.7	15.9	2.41e-03	0	42	0	645922816	17	4616
2026-01-13 02:19:27.44	301.17	23.32	-28.4	-30.9	16.1	2.78e-03	0	42	0	648019968	16	4788
2026-01-13 02:19:28.45	300.90	23.28	-28.4	-30.9	16.1	3.14e-04	0	42	0	650117120	16	4783
2026-01-13 02:19:29.45	300.63	23.25	-28.4	-31.0	16.1	2.73e-03	0	42	0	652214272	16	4807
2026-01-13 02:19:30.45	300.36	23.21	-28.5	-30.7	15.9	2.64e-03	0	42	0	653262848	17	4599
2026-01-13 02:19:31.46	300.09	23.17	-28.6	-30.9	15.8	2.17e-04	0	42	0	655360000	17	4671
2026-01-13 02:19:32.47	299.82	23.14	-28.8	-31.3	15.6	2.67e-03	0	42	0	657457152	17	4793
2026-01-13 02:19:33.48	299.55	23.10	-28.9	-31.5	15.4	1.79e-03	0	42	0	659554304	17	4890
2026-01-13 02:19:34.48	299.28	23.06	-29.0	-31.4	15.2	9.46e-05	0	42	0	660602880	18	4723
2026-01-13 02:19:35.48	299.02	23.02	-29.0	-31.8	15.2	2.50e-03	0	42	0	662700032	17	4965
2026-01-13 02:19:36.48	298.75	22.98	-29.1	-31.5	15.1	2.70e-03	0	42	0	664797184	18	4777
2026-01-13 02:19:37.49	298.49	22.94	-29.2	-31.7	15.0	0.00e+00	0	42	0	666894336	18	4843
2026-01-13 02:19:38.49	298.22	22.90	-29.2	-31.8	15.0	2.56e-03	0	42	0	668991488	18	4856
2026-01-13 02:19:39.49	297.96	22.86	-29.2	-31.8	14.9	2.48e-03	0	42	0	670040064	18	4856
2026-01-13 02:19:40.50	297.70	22.82	-29.3	-31.9	14.8	0.00e+00	0	42	0	672137216	18	4911
2026-01-13 02:19:41.50	297.43	22.78	-29.3	-32.0	14.8	2.46e-03	0	42	0	674234368	18	4942
2026-01-13 02:19:42.51	297.17	22.73	-29.2	-31.9	14.9	2.27e-03	0	42	0	676331520	18	4906
2026-01-13 02:19:43.51	296.91	22.69	-29.2	-31.7	15.0	0.00e+00	0	42	0	678428672	18	4842
2026-01-13 02:19:44.52	296.65	22.64	-29.2	-31.9	14.9	2.37e-03	0	42	0	679477248	18	4899
2026-01-13 02:19:45.52	296.39	22.60	-29.3	-32.1	14.8	2.57e-03	0	42	0	681574400	18	4957
2026-01-13 02:19:46.53	296.13	22.55	-29.3	-32.2	14.7	1.50e-06	0	42	0	683671552	18	4991
2026-01-13 02:19:47.53	295.87	22.51	-29.5	-32.5	14.5	0.00e+00	0	42	0	685768704	18	5112
2026-01-13 02:19:48.53	295.62	22.46	-29.8	-32.8	14.0	2.27e-03	0	42	0	687865856	19	5112
2026-01-13 02:19:49.54	295.36	22.42	-29.9	-33.1	13.8	6.10e-06	0	42	0	688914432	19	5213
2026-01-13 02:19:50.55	295.10	22.37	-29.9	-33.3	13.6	2.20e-06	0	42	0	691011584	19	5295
2026-01-13 02:19:51.55	294.85	22.32	-29.8	-32.6	13.7	7.60e-06	0	42	0	693108736	20	4936
2026-01-13 02:19:52.56	294.59	22.27	-29.7	-32.1	14.0	1.28e-04	0	42	0	695205888	20	4760
2026-01-13 02:19:53.57	294.34	22.22	-29.7	-32.5	14.2	7.00e-07	0	42	0	697303040	19	5001
2026-01-13 02:19:54.58	294.08	22.17	-29.7	-32.6	14.1	1.50e-06	0	42	0	698351616	19	5040
2026-01-13 02:19:55.58	293.83	22.12	-29.7	-32.6	14.1	1.96e-04	0	42	0	700448768	19	5043
2026-01-13 02:19:56.58	293.58	22.07	-29.6	-32.4	14.2	1.72e-04	0	42	0	702545920	19	4977
2026-01-13 02:19:57.59	293.33	22.02	-29.7	-32.5	14.1	0.00e+00	0	42	0	704643072	19	5004
2026-01-13 02:19:58.59	293.08	21.97	-29.9	-33.1	13.8	1.50e-06	0	42	0	706740224	19	5204
2026-01-13 02:19:59.59	292.83	21.92	-30.0	-33.3	13.6	6.30e-04	0	42	0	707788800	19	5304
2026-01-13 02:20:00.58	292.59	21.86	-30.0	-33.0	13.4	7.60e-06	0	42	0	709885952	20	5071
2026-01-13 02:20:01.59	292.34	21.81	-30.3	-33.7	12.9	2.97e-05	0	42	0	711983104	20	5370
2026-01-13 02:20:02.59	292.10	21.76	-30.2	-33.6	13.0	6.40e-05	0	42	0	714080256	20	5328
2026-01-13 02:20:03.59	291.85	21.70	-30.0	-33.1	13.3	2.05e-05	0	42	0	716177408	20	5118
2026-01-13 02:20:04.60	291.61	21.65	-29.9	-32.7	13.6	7.60e-06	0	42	0	717225984	20	4988
2026-01-13 02:20:05.60	291.36	21.60	-29.8	-32.5	13.7	6.10e-06	0	42	0	719323136	20	4918
2026-01-13 02:20:06.61	291.12	21.54	-29.9	-33.2	13.7	8.73e-04	0	42	0	721420288	19	5258
2026-01-13 02:20:07.61	290.88	21.49	-29.9	-33.1	13.7	1.50e-06	0	42	0	723517440	19	5219
2026-01-13 02:20:08.61	290.64	21.43	-29.9	-33.1	13.7	6.80e-06	0	42	0	725614592	19	5241
2026-01-13 02:20:09.61	290.40	21.37	-30.0	-33.4	13.6	3.00e-06	0	42	0	726663168	19	5349
2026-01-13 02:20:10.61	290.16	21.32	-30.2	-33.7	13.0	3.20e-05	0	42	0	728760320	20	5349
2026-01-13 02:20:11.62	289.92	21.26	-30.3	-33.7	12.9	5.56e-05	0	42	0	730857472	20	5358
2026-01-13 02:20:12.62	289.69	21.20	-30.3	-33.9	12.8	4.50e-05	0	42	0	732954624	20	5431
2026-01-13 02:20:13.62	289.45	21.14	-30.5	-34.3	12.5	6.10e-05	0	42	0	734003200	20	5613
2026-01-13 02:20:14.63	289.21	21.09	-30.6	-34.2	12.2	1.80e-04	0	42	0	736100352	21	5471
2026-01-13 02:20:15.64	288.98	21.03	-30.5	-33.9	12.4	1.65e-04	0	42	0	738197504	21	5342
2026-01-13 02:20:16.63	288.75	20.97	-30.5	-34.0	12.4	1.31e-04	0	42	0	740294656	21	5382
2026-01-13 02:20:17.63	288.51	20.91	-30.6	-34.2	12.2	1.92e-04	0	42	0	742391808	21	5476
2026-01-13 02:20:18.64	288.28	20.85	-30.5	-33.9	12.4	2.26e-04	0	42	0	743440384	21	5340
2026-01-13 02:20:19.64	288.05	20.79	-30.3	-33.2	12.9	1.02e-04	0	42	0	745537536	21	5066
2026-01-13 02:20:20.64	287.82	20.73	-30.0	-33.1	13.3	2.67e-05	0	42	0	747634688	20	5126
2026-01-13 02:20:21.65	287.59	20.67	-29.9	-32.8	13.4	1.22e-05	0	42	0	749731840	20	5033
2026-01-13 02:20:22.65	287.36	20.61	-29.0	-31.9	13.5	1.14e-05	0	42	0	751828992	20	5040
2026-01-13 02:20:23.66	287.14	20.54	-30.0	-33.1	13.3	1.67e-05	0	42	0	752877568	20	5119
2026-01-13 02:20:24.67	286.91	20.48	-29.9	-32.9	13.4	1.60e-05	0	42	0	754974720	20	5035
2026-01-13 02:20:25.68	286.68	20.42	-29.9	-32.7	13.5	8.30e-06	0	42	0	757071872	20	4979
2026-01-13 02:20:26.68	286.46	20.36	-29.8	-32.4	13.7	5.30e-06	0	42	0	759169024	20	4884
2026-01-13 02:20:27.67	286.24	20.30	-29.7	-32.2	13.8	4.50e-06	0	42	0	761266176	20	4821
2026-01-13 02:20:28.68	286.01	20.23	-29.7	-32.1	13.9	3.00e-06	0	42	0	762314752	20	4774
2026-01-13 02:20:29.69	285.79	20.17	-29.6	-31.9	14.1	4.50e-06	0	42	0	764411904	20	4709
2026-01-13 02:20:30.70	285.57	20.10	-29.5	-31.7	14.2	3.00e-06	0	42	0	766509056	20	4631
2026-01-13 02:20:31.71	285.35	20.04	-29.7	-32.1	13.9	2.20e-06	0	42	0	768606208	20	4764
2026-01-13 02:20:32.72	285.13	19.98	-29.7	-32.1	13.9	2.20e-06	0	42	0	770703360	20	4776
2026-01-13 02:20:33.73	284.91	19.91	-29.7	-32.3	13.8	5.30e-06	0	42	0	771751936	20	4843
2026-01-13 02:20:34.73	284.69	19.85	-29.8	-32.9	13.8	1.03e-03	0	42	0	773849088	19	5166
2026-01-13 02:20:35.72	284.48	19.78	-29.9	-33.1	13.7	3.00e-06	0	42	0	775946240	19	5238
2026-01-13 02:20:36.73	284.26	19.72	-29.8	-32.9	13.7	6.10e-06	0	42	0	778043392	19	5174
2026-01-13 02:20:37.73	284.05	19.65	-29.7	-32.7	13.9	1.10e-03	0	42	0	780140544	19	5092
2026-01-13 02:20:38.73	283.83	19.59	-29.7	-32.8	13.9	3.80e-06	0	42	0	781189120	19	5108
2026-01-13 02:20:39.74	283.62	19.52	-29.8	-32.9	13.8	9.90e-06	0	42	0	783286272	19	5178
2026-01-13 02:20:40.74	283.41	19.45	-29.7	-32.8	13.8	6.10e-05	0	42	0	785383424	19	5125
2026-01-13 02:20:41.75	283.20	19.39	-29.6	-32.5	14.0	3.10e-04	0	42	0	787480576	19	5000
2026-01-13 02:20:42.75	282.99	19.32	-29.6	-32.5	14.1	7.60e-06	0	42	0	789577728	19	5013
2026-01-13 02:20:43.76	282.78	19.25	-29.6	-32.6	14.0	3.80e-06	0	42	0	790626304	19	5033
2026-01-13 02:20:44.76	282.57	19.19	-29.8	-32.9	13.8	1.63e-03	0	42	0	792723456	19	5148
2026-01-13 02:20:45.77	282.36	19.12	-29.9	-33.3	13.5	6.10e-06	0	42	0	794820608	19	5327
2026-01-13 02:20:46.78	282.15	19.05	-29.9	-32.7	13.5	1.75e-05	0	42	0	796917760	20	4986
2026-01-13 02:20:47.79	281.95	18.98	-29.7	-32.7	13.8	1.93e-03	0	42	0	799014912	19	5100
2026-01-13 02:20:48.79	281.74	18.91	-29.7	-32.8	13.9	3.00e-06	0	42	0	800063488	19	5118
2026-01-13 02:20:49.80	281.54	18.85	-29.9	-33.2	13.6	6.10e-06	0	42	0	802160640	19	5269
2026-01-13 02:20:50.81	281.34	18.78	-29.9	-33.2	13.5	1.22e-05	0	42	0	804257792	19	5290
2026-01-13 02:20:51.81	281.14	18.71	-29.9	-33.2	13.5	1.37e-05	0	42	0	806354944	19	5292
2026-01-13 02:20:52.82	280.93	18.64	-30.0	-33.4	13.4	1.42e-03	0	42	0	808452096	19	5355
2026-01-13 02:20:53.83	280.73	18.57	-30.0	-33.4	13.4	1.98e-05	0	42	0	809500672	19	5368
2026-01-13 02:20:54.83	280.54	18.50	-30.0	-33.1	13.2	1.22e-05	0	42	0	811597824	20	5140
2026-01-13 02:20:55.83	280.34	18.43	-30.2	-33.6	12.9	2.17e-03	0	42	0	813694976	20	5333
2026-01-13 02:20:56.84	280.14	18.36	-30.1	-33.4	12.9	2.45e-03	0	42	0	815792128	20	5279
2026-01-13 02:20:57.85	279.94	18.29	-30.4	-34.3	12.4	2.26e-04	0	42	0	817889280	20	5624
2026-01-13 02:20:58.85	279.75	18.22	-30.2	-33.8	12.7	1.57e-03	0	42	0	818937856	20	5417
2026-01-13 02:20:59.86	279.55	18.15	-30.0	-33.1	13.2	3.49e-04	0	42	0	821035008	20	5129
2026-01-13 02:21:00.86	279.36	18.08	-29.9	-32.7	13.4	1.52e-05	0	42	0	823132160	20	5008
2026-01-13 02:21:01.87	279.17	18.01	-29.7	-32.4	13.6	1.86e-04	0	42	0	825229312	20	4882
2026-01-13 02:21:02.87	278.98	17.94	-29.8	-32.9	13.7	1.14e-03	0	42	0	827326464	19	5161
2026-01-13 02:21:03.87	278.79	17.87	-29.7	-32.8	13.8	4.50e-06	0	42	0	828375040	19	5129
2026-01-13 02:21:04.88	278.59	17.80	-29.6	-32.5	14.0	2.02e-03	0	42	0	830472192	19	5014
2026-01-13 02:21:05.88	278.41	17.73	-29.6	-32.5	13.9	2.35e-03	0	42	0	832569344	19	5035
2026-01-13 02:21:06.88	278.22	17.66	-29.7	-32.7	13.9	1.66e-04	0	42	0	834666496	19	5077
2026-01-13 02:21:07.89	278.03	17.59	-29.7	-32.8	13.8	3.00e-06	0	42	0	836763648	19	5117
2026-01-13 02:21:08.89	277.85	17.52	-29.8	-33.0	13.7	2.38e-03	0	42	0	837812224	19	5203
2026-01-13 02:21:09.89	277.66	17.45	-29.8	-32.9	13.7	3.84e-04	0	42	0	839909376	19	5178
2026-01-13 02:21:10.90	277.48	17.38	-29.8	-33.0	13.7	9.90e-06	0	42	0	842006528	19	5195
2026-01-13 02:21:11.90	277.29	17.31	-29.8	-33.1	13.6	2.54e-03	0	42	0	844103680	19	5239
2026-01-13 02:21:12.90	277.11	17.24	-30.0	-33.5	13.3	5.69e-04	0	42	0	845152256	19	5397
2026-01-13 02:21:13.91	276.93	17.16	-29.8	-32.9	13.7	2.77e-03	0	42	0	847249408	19	5172
2026-01-13 02:21:14.92	276.75	17.09	-29.6	-32.5	13.9	2.20e-06	0	42	0	849346560	19	5040
2026-01-13 02:21:15.92	276.57	17.02	-29.6	-32.4	14.0	5.97e-04	0	42	0	851443712	19	5009
2026-01-13 02:21:16.93	276.39	16.95	-29.6	-32.5	14.0	2.76e-03	0	42	0	853540864	19	5022
2026-01-13 02:21:17.94	276.21	16.88	-29.5	-32.4	14.0	3.00e-06	0	42	0	855638016	19	4990
2026-01-13 02:21:18.95	276.03	16.80	-29.6	-32.6	13.9	3.80e-06	0	42	0	856686592	19	5049
2026-01-13 02:21:19.95	275.85	16.73	-29.6	-32.5	13.9	2.64e-03	0	42	0	858783744	19	5026
2026-01-13 02:21:20.96	275.67	16.66	-29.6	-32.4	14.0	2.20e-06	0	42	0	860880896	19	4979
2026-01-13 02:21:21.97	275.50	16.59	-29.6	-32.4	14.0	1.50e-06	0	42	0	862978048	19	4983
2026-01-13 02:21:22.97	275.33	16.52	-29.6	-32.5	13.9	2.19e-03	0	42	0	864026624	19	5015
2026-01-13 02:21:23.97	275.15	16.44	-29.4	-31.9	14.3	2.46e-03	0	42	0	866123776	19	4823
2026-01-13 02:21:24.98	274.98	16.37	-29.4	-32.1	14.2	0.00e+00	0	42	0	868220928	19	4884
2026-01-13 02:21:25.98	274.81	16.30	-29.3	-32.3	14.4	0.00e+00	0	42	0	870318080	18	5059
2026-01-13 02:21:26.99	274.64	16.23	-29.5	-32.2	14.1	2.95e-04	0	42	0	872415232	19	4940
2026-01-13 02:21:27.99	274.47	16.15	-29.7	-32.7	13.7	3.00e-06	0	42	0	873463808	19	5120
2026-01-13 02:21:29.00	274.30	16.08	-29.6	-32.5	13.9	3.80e-06	0	42	0	875560960	19	5043
2026-01-13 02:21:30.01	274.13	16.01	-29.6	-32.4	13.9	4.50e-06	0	42	0	877658112	19	5012
2026-01-13 02:21:31.01	273.96	15.94	-29.6	-32.6	13.8	3.80e-06	0	42	0	879755264	19	5085
2026-01-13 02:21:32.02	273.79	15.86	-29.8	-33.0	13.5	6.10e-06	0	42	0	881852416	19	5237
2026-01-13 02:21:33.03	273.63	15.79	-29.6	-32.6	13.8	9.90e-06	0	42	0	882900992	19	5069
2026-01-13 02:21:34.03	273.46	15.72	-29.5	-32.3	14.0	2.35e-04	0	42	0	884998144	19	4958
2026-01-13 02:21:35.04	273.30	15.65	-29.4	-32.1	14.1	3.00e-06	0	42	0	887095296	19	4906
2026-01-13 02:21:36.04	273.13	15.57	-29.4	-32.5	14.1	7.60e-06	0	42	0	889192448	18	5148
2026-01-13 02:21:37.05	272.97	15.50	-29.3	-32.1	14.4	3.00e-06	0	42	0	891289600	18	5010
2026-01-13 02:21:38.06	272.81	15.43	-29.3	-32.4	14.2	7.00e-07	0	42	0	892338176	18	5095
2026-01-13 02:21:39.06	272.65	15.35	-29.1	-31.9	14.6	5.30e-06	0	42	0	894435328	18	4915
2026-01-13 02:21:40.06	272.49	15.28	-29.0	-31.5	14.7	0.00e+00	0	42	0	896532480	18	4810
2026-01-13 02:21:41.07	272.33	15.21	-29.1	-31.7	14.6	7.00e-07	0	42	0	898629632	18	4861
2026-01-13 02:21:42.07	272.17	15.14	-29.2	-31.9	14.5	3.00e-06	0	42	0	900726784	18	4922
2026-01-13 02:21:43.08	272.01	15.06	-29.3	-32.4	14.2	3.00e-06	0	42	0	901775360	18	5100
2026-01-13 02:21:44.08	271.85	14.99	-29.4	-32.5	14.1	2.20e-06	0	42	0	903872512	18	5166
2026-01-13 02:21:45.09	271.70	14.92	-29.4	-32.6	13.8	5.30e-06	0	42	0	905969664	18	5192
2026-01-13 02:21:46.09	271.54	14.85	-29.5	-32.7	12.5	2.20e-06	0	42	0	908066816	18	5240
2026-01-13 02:21:47.09	271.39	14.77	-29.4	-32.6	12.6	3.80e-06	0	42	0	910163968	18	5196
2026-01-13 02:21:48.11	271.23	14.70	-29.4	-32.5	13.5	2.20e-06	0	42	0	911212544	18	5158
2026-01-13 02:21:49.11	271.08	14.63	-29.4	-32.6	12.9	3.00e-06	0	42	0	913309696	18	5177
2026-01-13 02:21:50.11	270.93	14.55	-29.6	-32.5	13.5	1.50e-06	0	42	0	915406848	19	5062
2026-01-13 02:21:51.12	270.77	14.48	-29.7	-32.7	13.5	8.30e-06	0	42	0	917504000	19	5136
2026-01-13 02:21:52.13	270.62	14.41	-29.5	-32.7	13.8	3.00e-06	0	42	0	919601152	18	5244
2026-01-13 02:21:53.13	270.47	14.34	-29.4	-32.6	14.0	4.50e-06	0	42	0	920649728	18	5185
2026-01-13 02:21:54.14	270.32	14.26	-29.5	-32.3	13.8	1.58e-03	0	42	0	922746880	19	4991
2026-01-13 02:21:55.15	270.17	14.19	-29.5	-32.4	13.8	6.10e-06	0	42	0	924844032	19	4997
2026-01-13 02:21:56.16	270.02	14.12	-29.6	-32.6	13.7	1.06e-05	0	42	0	926941184	19	5089
2026-01-13 02:21:57.15	269.88	14.05	-29.6	-32.6	13.6	9.90e-06	0	42	0	929038336	19	5069
2026-01-13 02:21:58.16	269.73	13.97	-29.7	-32.8	13.5	2.83e-03	0	42	0	930086912	19	5147
2026-01-13 02:21:59.17	269.58	13.90	-29.5	-32.3	13.8	3.80e-06	0	42	0	932184064	19	4987
2026-01-13 02:22:00.18	269.44	13.83	-29.4	-32.0	14.0	6.10e-06	0	42	0	934281216	19	4866
2026-01-13 02:22:01.19	269.29	13.75	-29.3	-32.3	14.2	3.23e-03	0	42	0	936378368	18	5091
2026-01-13 02:22:02.19	269.15	13.68	-29.3	-32.3	14.1	3.00e-06	0	42	0	938475520	18	5095
2026-01-13 02:22:03.20	269.01	13.61	-29.3	-32.3	14.1	2.20e-06	0	42	0	939524096	18	5100
2026-01-13 02:22:04.20	268.86	13.54	-29.4	-32.5	14.0	2.84e-03	0	42	0	941621248	18	5171
2026-01-13 02:22:05.20	268.72	13.47	-29.3	-32.4	14.1	2.50e-03	0	42	0	943718400	18	5118
2026-01-13 02:22:06.21	268.58	13.39	-29.4	-32.7	13.8	3.80e-06	0	42	0	945815552	18	5246
2026-01-13 02:22:07.21	268.44	13.32	-29.5	-32.8	13.8	1.50e-06	0	42	0	947912704	18	5294
2026-01-13 02:22:08.22	268.30	13.25	-29.7	-33.0	13.4	2.65e-03	0	42	0	948961280	19	5233
2026-01-13 02:22:09.23	268.16	13.18	-29.9	-33.5	13.0	3.20e-05	0	42	0	951058432	19	5450
2026-01-13 02:22:10.24	268.02	13.10	-29.8	-33.3	13.1	2.28e-05	0	42	0	953155584	19	5364
2026-01-13 02:22:11.24	267.89	13.03	-30.0	-33.2	12.8	2.56e-03	0	42	0	955252736	20	5224
2026-01-13 02:22:12.25	267.75	12.96	-29.8	-32.7	13.1	3.28e-05	0	42	0	957349888	20	5055
2026-01-13 02:22:13.25	267.61	12.89	-29.8	-33.1	13.2	2.97e-05	0	42	0	958398464	19	5302
2026-01-13 02:22:14.26	267.48	12.82	-29.7	-32.9	13.3	2.29e-03	0	42	0	960495616	19	5214
2026-01-13 02:22:15.27	267.34	12.74	-29.7	-32.9	13.4	1.75e-05	0	42	0	962592768	19	5221
2026-01-13 02:22:16.28	267.21	12.67	-29.6	-32.8	13.5	2.22e-03	0	42	0	964689920	19	5158
2026-01-13 02:22:17.28	267.07	12.60	-29.5	-32.4	13.7	9.90e-06	0	42	0	966787072	19	5027
2026-01-13 02:22:18.29	266.94	12.53	-29.6	-32.6	13.5	4.95e-05	0	42	0	967835648	19	5104
2026-01-13 02:22:19.30	266.81	12.46	-29.5	-32.4	13.7	2.69e-03	0	42	0	969932800	19	5016
2026-01-13 02:22:20.30	266.68	12.38	-29.5	-32.5	13.6	2.60e-03	0	42	0	972029952	19	5063
2026-01-13 02:22:21.30	266.55	12.31	-29.6	-32.6	13.5	1.51e-04	0	42	0	974127104	19	5112
2026-01-13 02:22:22.31	266.42	12.24	-29.6	-32.8	13.4	2.73e-03	0	42	0	976224256	19	5166
2026-01-13 02:22:23.32	266.29	12.17	-29.7	-32.9	13.3	2.48e-03	0	42	0	977272832	19	5216
2026-01-13 02:22:24.32	266.16	12.10	-29.8	-33.3	13.1	1.17e-04	0	42	0	979369984	19	5372
2026-01-13 02:22:25.32	266.03	12.03	-29.7	-33.1	13.2	2.57e-03	0	42	0	981467136	19	5289
2026-01-13 02:22:26.33	265.90	11.96	-29.8	-33.3	13.0	2.71e-03	0	42	0	983564288	19	5385
2026-01-13 02:22:27.34	265.77	11.89	-29.8	-33.1	13.2	2.05e-05	0	42	0	985661440	19	5303
2026-01-13 02:22:28.34	265.65	11.81	-29.8	-33.1	13.2	2.55e-03	0	42	0	986710016	19	5306
2026-01-13 02:22:29.34	265.52	11.74	-29.8	-33.1	13.1	2.40e-03	0	42	0	988807168	19	5308
2026-01-13 02:22:30.35	265.40	11.67	-29.8	-33.2	13.1	3.97e-04	0	42	0	990904320	19	5339
2026-01-13 02:22:31.36	265.27	11.60	-29.8	-33.2	13.1	4.11e-05	0	42	0	993001472	19	5344
2026-01-13 02:22:32.36	265.15	11.53	-29.9	-33.5	12.9	2.25e-03	0	42	0	995098624	19	5442
2026-01-13 02:22:33.37	265.02	11.46	-30.0	-33.7	12.7	7.12e-04	0	42	0	996147200	19	5553
2026-01-13 02:22:34.37	264.90	11.39	-29.9	-33.6	12.8	6.48e-05	0	42	0	998244352	19	5518
2026-01-13 02:22:35.38	264.78	11.32	-29.9	-33.2	12.6	3.27e-03	0	42	0	1000341504	20	5236
2026-01-13 02:22:36.38	264.66	11.25	-30.0	-33.4	12.5	1.79e-03	0	42	0	1002438656	20	5310
2026-01-13 02:22:37.38	264.54	11.18	-30.0	-33.3	12.5	3.79e-03	0	42	0	1004535808	20	5292
2026-01-13 02:22:38.39	264.42	11.11	-30.0	-33.4	12.4	1.18e-04	0	42	0	1005584384	20	5352
2026-01-13 02:22:39.40	264.30	11.04	-30.0	-33.6	12.3	2.32e-03	0	42	0	1007681536	20	5414
2026-01-13 02:22:40.40	264.18	10.97	-30.1	-33.9	12.1	5.64e-03	0	42	0	1009778688	20	5528
2026-01-13 02:22:41.40	264.06	10.90	-30.1	-33.9	12.0	4.03e-04	0	42	0	1011875840	20	5575
2026-01-13 02:22:42.40	263.94	10.83	-30.1	-33.7	12.2	2.68e-04	0	42	0	1013972992	20	5475
2026-01-13 02:22:43.41	263.82	10.76	-30.0	-33.5	12.3	6.17e-03	0	42	0	1015021568	20	5407
2026-01-13 02:22:44.42	263.71	10.69	-30.0	-33.5	12.3	1.78e-04	0	42	0	1017118720	20	5367
2026-01-13 02:22:45.43	263.59	10.62	-30.1	-33.7	12.2	1.91e-04	0	42	0	1019215872	20	5469
2026-01-13 02:22:46.43	263.47	10.55	-30.1	-33.8	12.1	5.62e-03	0	42	0	1021313024	20	5513
2026-01-13 02:22:47.43	263.36	10.48	-30.1	-33.9	12.0	5.28e-03	0	42	0	1022361600	20	5544
2026-01-13 02:22:48.44	263.24	10.41	-30.2	-34.0	11.9	4.37e-04	0	42	0	1024458752	20	5602
2026-01-13 02:22:49.44	263.13	10.34	-30.1	-33.7	12.1	3.13e-04	0	42	0	1026555904	20	5492
2026-01-13 02:22:50.44	263.02	10.27	-30.1	-33.9	12.0	4.05e-03	0	42	0	1028653056	20	5557
2026-01-13 02:22:51.45	262.90	10.20	-30.2	-34.0	11.9	4.64e-04	0	42	0	1030750208	20	5603
2026-01-13 02:22:52.45	262.79	10.13	-30.1	-33.9	12.0	3.55e-04	0	42	0	1032847360	20	5545
2026-01-13 02:22:53.46	262.68	10.06	-30.1	-33.8	12.1	2.19e-03	0	42	0	1033895936	20	5511
2026-01-13 02:22:54.47	262.57	9.99	-30.1	-33.9	12.0	3.27e-04	0	42	0	1035993088	20	5563
2026-01-13 02:22:55.48	262.46	9.93	-30.1	-33.9	12.0	3.79e-04	0	42	0	1038090240	20	5574
2026-01-13 02:22:56.48	262.35	9.86	-30.1	-33.9	12.0	3.67e-04	0	42	0	1040187392	20	5548
2026-01-13 02:22:57.49	262.24	9.79	-30.2	-34.0	11.8	9.02e-04	0	42	0	1041235968	20	5628
2026-01-13 02:22:58.49	262.13	9.72	-30.3	-34.4	11.6	5.32e-04	0	42	0	1043333120	20	5797
2026-01-13 02:22:59.50	262.02	9.65	-30.2	-34.2	11.7	8.32e-04	0	42	0	1045430272	20	5716
2026-01-13 02:23:00.51	261.91	9.58	-30.1	-33.8	12.0	4.53e-04	0	42	0	1047527424	20	5504
2026-01-13 02:23:01.52	261.80	9.51	-29.9	-33.3	12.4	1.71e-04	0	42	0	1049624576	20	5318
2026-01-13 02:23:02.53	261.69	9.44	-30.0	-33.4	12.3	1.91e-04	0	42	0	1050673152	20	5376
2026-01-13 02:23:03.53	261.59	9.38	-30.0	-33.6	12.1	2.35e-04	0	42	0	1052770304	20	5436
2026-01-13 02:23:04.54	261.48	9.31	-30.1	-34.0	11.8	3.62e-04	0	42	0	1054867456	20	5622
2026-01-13 02:23:05.54	261.38	9.24	-30.1	-33.9	11.9	4.53e-04	0	42	0	1056964608	20	5593
2026-01-13 02:23:06.55	261.27	9.17	-29.9	-33.6	12.0	3.75e-04	0	42	0	1059061760	20	5498
2026-01-13 02:23:07.56	261.16	9.10	-30.0	-33.7	12.0	3.26e-04	0	42	0	1061158912	20	5493
2026-01-13 02:23:08.56	261.06	9.04	-30.2	-34.1	11.8	3.90e-04	0	42	0	1062207488	20	5640
2026-01-13 02:23:09.57	260.96	8.97	-29.2	-33.3	11.6	5.58e-04	0	42	0	1064304640	20	5717
2026-01-13 02:23:10.58	260.85	8.90	-30.3	-35.0	11.0	5.81e-04	0	42	0	1066401792	19	6194
2026-01-13 02:23:11.58	260.75	8.83	-30.3	-34.6	10.8	9.71e-04	0	42	0	1068498944	20	5918
2026-01-13 02:23:12.58	260.65	8.77	-30.3	-34.5	10.5	1.16e-03	0	42	0	1069547520	20	5856
2026-01-13 02:23:13.59	260.55	8.70	-30.4	-35.0	11.0	1.15e-03	0	42	0	1071644672	20	6079
2026-01-13 02:23:14.59	260.45	8.63	-30.4	-35.0	11.0	1.87e-03	0	42	0	1073741824	20	6091
2026-01-13 02:23:15.60	260.35	8.57	-30.3	-34.7	11.1	1.48e-03	0	42	0	1075838976	20	5971
2026-01-13 02:23:16.61	260.24	8.50	-30.4	-35.1	10.9	2.01e-03	0	42	0	1077936128	20	6141
2026-01-13 02:23:17.61	260.14	8.43	-30.5	-34.9	10.6	6.34e-03	0	42	0	1078984704	21	5967
2026-01-13 02:23:18.62	260.04	8.36	-30.6	-35.3	10.2	4.34e-03	0	42	0	1081081856	21	6177
2026-01-13 02:23:19.63	259.95	8.30	-30.6	-35.2	10.3	6.16e-03	0	42	0	1083179008	21	6104
2026-01-13 02:23:20.63	259.85	8.23	-30.5	-34.7	10.7	3.70e-03	0	42	0	1085276160	21	5882
2026-01-13 02:23:21.64	259.75	8.16	-30.4	-35.0	10.8	1.09e-02	0	42	0	1087373312	20	6142
2026-01-13 02:23:22.64	259.65	8.10	-30.5	-35.3	10.7	2.50e-03	0	42	0	1089470464	20	6247
2026-01-13 02:23:23.65	259.55	8.03	-30.5	-34.9	10.6	3.19e-03	0	42	0	1090519040	21	5959
2026-01-13 02:23:24.65	259.46	7.97	-30.4	-35.1	10.8	9.63e-03	0	42	0	1092616192	20	6187
2026-01-13 02:23:25.66	259.36	7.90	-30.5	-35.1	10.5	3.35e-03	0	42	0	1094713344	21	6089
2026-01-13 02:23:26.67	259.27	7.83	-30.5	-35.0	10.5	3.98e-03	0	42	0	1096810496	21	6005
2026-01-13 02:23:27.68	259.17	7.77	-30.6	-35.5	10.1	1.24e-02	0	42	0	1097859072	21	6263
2026-01-13 02:23:28.69	259.07	7.70	-30.7	-35.5	10.1	1.25e-02	0	42	0	1099956224	21	6301
2026-01-13 02:23:29.69	258.98	7.63	-30.8	-36.0	9.7	8.81e-03	0	42	0	1102053376	21	6551
2026-01-13 02:23:30.70	258.89	7.57	-30.8	-36.0	9.7	1.70e-02	0	42	0	1104150528	21	6531
2026-01-13 02:23:31.70	258.79	7.50	-30.7	-35.7	9.9	1.46e-02	0	42	0	1106247680	21	6413
2026-01-13 02:23:32.71	258.70	7.44	-30.7	-35.5	10.0	9.21e-03	0	42	0	1107296256	21	6304
2026-01-13 02:23:33.71	258.61	7.37	-30.6	-35.3	10.2	7.03e-03	0	42	0	1109393408	21	6196
2026-01-13 02:23:34.72	258.51	7.31	-30.6	-35.5	10.1	1.02e-02	0	42	0	1111490560	21	6265
2026-01-13 02:23:35.73	258.42	7.24	-30.6	-35.4	10.2	7.88e-03	0	42	0	1113587712	21	6207
2026-01-13 02:23:36.72	258.33	7.18	-30.7	-35.5	10.0	6.12e-03	0	42	0	1115684864	21	6266
2026-01-13 02:23:37.73	258.24	7.11	-30.7	-35.6	10.0	1.11e-02	0	42	0	1116733440	21	6319
2026-01-13 02:23:38.74	258.15	7.05	-32.7	-46.6	3.8	7.37e-01	0	42	104	1118830592	25	17834
2026-01-13 02:23:39.75	258.06	6.98	-33.0	-47.1	3.8	1.49e+00	0	42	104	1118830592	26	18239
2026-01-13 02:23:40.75	257.97	6.92	-33.3	-47.7	3.8	1.49e+00	0	42	104	1118830592	26	18828

#Closed at: 2026-01-13 02:23:40
#Recorded file [1118 MB]: D:/data/31010_260113_051341.dat