passes_logs/2026/01/13/R2M6_AANII_01/R2M6_AANII_01__20260113_082642_SUOMI_NPP_rec.log

#Pass ID: 20260113_082642_SUOMI NPP
#Satellite: SUOMI NPP
#Configuration: NPP
#almurnet v.1.7.20240730
#Start time: 2026-01-13 08:26:43

#Version: 2.2.20231116
#Station: R2M6_AANII_01
#Location: 30.233357 lon 59.946436 lat
#TLE: 1 37849U 11061A   26012.28456845  .00000093  00000+0  65163-4 0  9999
#TLE: 2 37849  98.7807 314.3566 0002508  68.3553 291.7890 14.19524725736322

#Time	Az	El	Level	Level2	SNR	BER	BlckErr	Temp	State	Recorded	gain1	gain2
2026-01-13 08:26:43.64	99.77	7.04	-33.9	-45.6	3.7	1.50e+00	0	40	0	0	29	13801
2026-01-13 08:26:44.64	99.68	7.11	-33.9	-45.6	3.8	1.49e+00	0	40	104	0	29	13774
2026-01-13 08:26:45.64	99.59	7.17	-33.9	-45.6	3.8	1.49e+00	0	40	104	0	29	13824
2026-01-13 08:26:46.65	99.49	7.24	-33.9	-45.6	3.8	1.49e+00	0	40	104	0	29	13812
2026-01-13 08:26:47.66	99.40	7.30	-33.9	-45.6	3.8	1.49e+00	0	40	104	0	29	13764
2026-01-13 08:26:48.67	99.30	7.37	-33.9	-45.6	3.8	1.49e+00	0	40	104	0	29	13797
2026-01-13 08:26:49.68	99.20	7.43	-33.9	-45.6	3.8	1.49e+00	0	40	104	0	29	13794
2026-01-13 08:26:50.68	99.11	7.49	-33.9	-45.6	3.8	1.49e+00	0	40	104	0	29	13822
2026-01-13 08:26:51.69	99.01	7.56	-33.9	-45.6	3.8	1.49e+00	0	40	104	0	29	13819
2026-01-13 08:26:52.69	98.92	7.62	-33.9	-45.6	3.8	1.49e+00	0	40	104	0	29	13767
2026-01-13 08:26:53.70	98.82	7.69	-33.9	-45.6	3.8	1.49e+00	0	40	104	0	29	13794
2026-01-13 08:26:54.70	98.72	7.75	-33.9	-45.6	3.8	1.49e+00	0	40	104	0	29	13826
2026-01-13 08:26:55.70	98.62	7.82	-33.9	-45.6	3.8	1.49e+00	0	40	104	0	29	13827
2026-01-13 08:26:56.71	98.52	7.88	-33.9	-45.6	3.8	1.49e+00	0	40	104	0	29	13777
2026-01-13 08:26:57.72	98.42	7.95	-33.9	-45.6	3.8	1.49e+00	0	40	104	0	29	13809
2026-01-13 08:26:58.72	98.32	8.01	-33.9	-45.6	3.8	1.49e+00	0	40	104	0	29	13784
2026-01-13 08:26:59.73	98.22	8.08	-33.9	-45.6	3.8	1.49e+00	0	40	104	0	29	13783
2026-01-13 08:27:00.74	98.12	8.15	-33.9	-45.6	3.8	1.49e+00	0	40	104	0	29	13786
2026-01-13 08:27:01.74	98.02	8.21	-33.9	-45.6	3.8	1.49e+00	0	40	104	0	29	13812
2026-01-13 08:27:02.75	97.92	8.28	-33.9	-45.6	3.8	1.49e+00	0	40	104	0	29	13794
2026-01-13 08:27:03.76	97.82	8.34	-33.9	-45.6	3.8	1.49e+00	0	40	104	0	29	13820
2026-01-13 08:27:04.76	97.72	8.41	-33.9	-45.6	3.8	1.49e+00	0	40	104	0	29	13805
2026-01-13 08:27:05.77	97.61	8.47	-33.9	-45.6	3.8	1.49e+00	0	40	104	0	29	13791
2026-01-13 08:27:06.77	97.51	8.54	-33.9	-45.6	3.8	1.49e+00	0	40	104	0	29	13785
2026-01-13 08:27:07.78	97.40	8.61	-33.9	-45.6	3.8	1.49e+00	0	40	104	0	29	13816
2026-01-13 08:27:08.79	97.30	8.67	-33.9	-45.6	3.8	1.49e+00	0	40	104	0	29	13768
2026-01-13 08:27:09.80	97.19	8.74	-33.9	-45.6	3.8	1.49e+00	0	41	104	0	29	13772
2026-01-13 08:27:10.81	97.09	8.81	-33.9	-45.6	3.8	1.49e+00	0	40	104	0	29	13788
2026-01-13 08:27:11.82	96.98	8.87	-33.9	-45.6	3.8	1.49e+00	0	40	104	0	29	13770
2026-01-13 08:27:12.82	96.88	8.94	-33.9	-45.6	3.8	1.49e+00	0	40	104	0	29	13792
2026-01-13 08:27:13.82	96.77	9.00	-33.9	-45.6	3.8	1.49e+00	0	40	104	0	29	13791
2026-01-13 08:27:14.83	96.66	9.07	-33.9	-45.6	3.8	1.49e+00	0	41	104	0	29	13813
2026-01-13 08:27:15.84	96.55	9.14	-33.9	-45.6	3.8	1.49e+00	0	41	104	0	29	13773
2026-01-13 08:27:16.84	96.45	9.20	-33.9	-45.6	3.8	1.49e+00	0	41	104	0	29	13795
2026-01-13 08:27:17.85	96.34	9.27	-33.9	-45.6	3.8	1.49e+00	0	41	104	0	29	13768
2026-01-13 08:27:18.85	96.23	9.34	-33.9	-45.6	3.8	1.49e+00	0	41	104	0	29	13775
2026-01-13 08:27:19.86	96.12	9.41	-33.9	-45.6	3.8	1.49e+00	0	41	104	0	29	13807
2026-01-13 08:27:20.87	96.01	9.47	-33.9	-45.6	3.8	1.49e+00	0	41	104	0	29	13782
2026-01-13 08:27:21.87	95.90	9.54	-33.9	-45.6	3.8	1.49e+00	0	41	104	0	29	13768
2026-01-13 08:27:22.88	95.78	9.61	-33.9	-45.6	3.8	1.49e+00	0	41	104	0	29	13774
2026-01-13 08:27:23.89	95.67	9.67	-33.9	-45.6	3.8	1.49e+00	0	41	104	0	29	13798
2026-01-13 08:27:24.89	95.56	9.74	-33.9	-45.6	3.8	1.49e+00	0	41	104	0	29	13810
2026-01-13 08:27:25.90	95.45	9.81	-33.9	-45.6	3.8	1.49e+00	0	41	104	0	29	13801
2026-01-13 08:27:26.91	95.33	9.88	-33.9	-45.6	3.8	1.49e+00	0	41	104	0	29	13814
2026-01-13 08:27:27.91	95.22	9.94	-33.9	-45.6	3.8	1.49e+00	0	41	104	0	29	13812
2026-01-13 08:27:28.92	95.10	10.01	-33.9	-45.6	3.8	1.49e+00	0	41	104	0	29	13814
2026-01-13 08:27:29.92	94.99	10.08	-34.0	-45.6	3.8	1.49e+00	0	41	104	0	29	13826
2026-01-13 08:27:30.93	94.87	10.15	-33.9	-45.6	3.8	1.49e+00	0	41	104	0	29	13746
2026-01-13 08:27:31.93	94.76	10.22	-33.9	-45.6	3.8	1.49e+00	0	41	104	0	29	13807
2026-01-13 08:27:32.93	94.64	10.28	-33.9	-45.6	3.8	1.49e+00	0	41	104	0	29	13785
2026-01-13 08:27:33.94	94.52	10.35	-33.9	-45.6	3.8	1.49e+00	0	41	104	0	29	13839
2026-01-13 08:27:34.95	94.40	10.42	-34.0	-45.6	3.8	1.49e+00	0	41	104	0	29	13765
2026-01-13 08:27:35.96	94.28	10.49	-33.9	-45.6	3.8	1.49e+00	0	41	104	0	29	13822
2026-01-13 08:27:36.97	94.17	10.56	-33.9	-45.6	3.8	1.49e+00	0	41	104	0	29	13795
2026-01-13 08:27:37.97	94.05	10.62	-33.9	-45.6	3.8	1.49e+00	0	41	104	0	29	13846
2026-01-13 08:27:38.98	93.93	10.69	-33.9	-45.6	3.8	1.49e+00	0	41	104	0	29	13769
2026-01-13 08:27:39.99	93.80	10.76	-34.0	-45.6	3.8	1.49e+00	0	41	104	0	29	13796
2026-01-13 08:27:40.99	93.68	10.83	-33.9	-45.6	3.8	1.49e+00	0	41	104	0	29	13803
2026-01-13 08:27:42.00	93.56	10.90	-34.0	-45.6	3.8	1.49e+00	0	41	104	0	29	13814
2026-01-13 08:27:43.01	93.44	10.97	-33.9	-45.6	3.8	1.49e+00	0	41	104	0	29	13806
2026-01-13 08:27:44.02	93.31	11.04	-33.9	-45.6	3.8	1.49e+00	0	41	104	0	29	13785
2026-01-13 08:27:45.02	93.19	11.11	-34.0	-45.6	3.8	1.49e+00	0	41	104	0	29	13815
2026-01-13 08:27:46.02	93.07	11.17	-33.9	-45.6	3.8	1.49e+00	0	41	104	0	29	13840
2026-01-13 08:27:47.03	92.94	11.24	-34.0	-45.6	3.8	1.49e+00	0	41	104	0	29	13823
2026-01-13 08:27:48.04	92.82	11.31	-33.9	-45.6	3.8	1.49e+00	0	41	104	0	29	13814
2026-01-13 08:27:49.04	92.69	11.38	-34.0	-45.6	3.8	1.49e+00	0	41	104	0	29	13815
2026-01-13 08:27:50.05	92.56	11.45	-33.9	-45.6	3.8	1.49e+00	0	41	104	0	29	13798
2026-01-13 08:27:51.05	92.44	11.52	-33.9	-45.6	3.8	1.49e+00	0	41	104	0	29	13806
2026-01-13 08:27:52.06	92.31	11.59	-34.0	-45.6	3.8	1.49e+00	0	41	104	0	29	13829
2026-01-13 08:27:53.06	92.18	11.66	-33.9	-45.6	3.8	1.49e+00	0	41	104	0	29	13802
2026-01-13 08:27:54.07	92.05	11.73	-34.0	-45.6	3.8	1.49e+00	0	41	104	0	29	13825
2026-01-13 08:27:55.07	91.92	11.80	-33.9	-45.6	3.8	1.49e+00	0	41	104	0	29	13776
2026-01-13 08:27:56.08	91.79	11.87	-33.9	-45.6	3.8	1.49e+00	0	41	104	0	29	13826
2026-01-13 08:27:57.09	91.66	11.94	-34.0	-45.6	3.8	1.49e+00	0	41	104	0	29	13836
2026-01-13 08:27:58.10	91.53	12.01	-33.9	-45.6	3.8	1.49e+00	0	41	104	0	29	13811
2026-01-13 08:27:59.10	91.39	12.07	-33.9	-45.6	3.8	1.49e+00	0	41	104	0	29	13795
2026-01-13 08:28:00.11	91.26	12.14	-33.9	-45.7	3.8	1.49e+00	0	41	104	0	29	13868
2026-01-13 08:28:01.12	91.13	12.21	-33.9	-45.6	3.8	1.49e+00	0	41	104	0	29	13814
2026-01-13 08:28:02.12	90.99	12.28	-33.9	-45.6	3.8	1.49e+00	0	41	104	0	29	13807
2026-01-13 08:28:03.13	90.86	12.35	-33.9	-45.6	3.8	1.49e+00	0	41	104	0	29	13808
2026-01-13 08:28:04.14	90.72	12.42	-34.0	-45.6	3.8	1.49e+00	0	41	104	0	29	13777
2026-01-13 08:28:05.14	90.59	12.49	-33.9	-45.6	3.8	1.49e+00	0	41	104	0	29	13825
2026-01-13 08:28:06.15	90.45	12.56	-34.0	-45.6	3.8	1.49e+00	0	41	104	0	29	13778
2026-01-13 08:28:07.16	90.31	12.63	-34.0	-45.7	3.8	1.49e+00	0	41	104	0	29	13851
2026-01-13 08:28:08.17	90.17	12.70	-34.0	-45.7	3.8	1.49e+00	0	41	104	0	29	13842
2026-01-13 08:28:09.17	90.03	12.77	-34.0	-45.6	3.8	1.49e+00	0	42	104	0	29	13807
2026-01-13 08:28:10.17	89.89	12.84	-33.9	-45.6	3.8	1.49e+00	0	41	104	0	29	13801
2026-01-13 08:28:11.18	89.75	12.91	-33.9	-45.6	3.8	1.49e+00	0	41	104	0	29	13803
2026-01-13 08:28:12.19	89.61	12.98	-34.0	-45.7	3.8	1.49e+00	0	41	104	0	29	13852
2026-01-13 08:28:13.19	89.47	13.05	-33.9	-45.6	3.8	1.49e+00	0	41	104	0	29	13780
2026-01-13 08:28:14.20	89.33	13.12	-33.9	-45.6	3.8	1.49e+00	0	42	104	0	29	13826
2026-01-13 08:28:15.21	89.18	13.19	-34.0	-45.6	3.8	1.49e+00	0	42	104	0	29	13810
2026-01-13 08:28:16.21	89.04	13.26	-33.9	-45.6	3.8	1.49e+00	0	42	104	0	29	13831
2026-01-13 08:28:17.22	88.90	13.33	-33.9	-45.6	3.8	1.49e+00	0	42	104	0	29	13809
2026-01-13 08:28:18.22	88.75	13.40	-33.9	-45.6	3.8	1.49e+00	0	41	104	0	29	13760
2026-01-13 08:28:19.23	88.61	13.47	-33.9	-45.6	3.8	1.49e+00	0	41	104	0	29	13816
2026-01-13 08:28:20.24	88.46	13.55	-33.9	-45.6	3.8	1.49e+00	0	41	104	0	29	13811
2026-01-13 08:28:21.24	88.31	13.62	-33.9	-45.6	3.8	1.49e+00	0	41	104	0	29	13800
2026-01-13 08:28:22.25	88.16	13.69	-33.9	-45.6	3.8	1.49e+00	0	42	104	0	29	13809
2026-01-13 08:28:23.26	88.01	13.76	-33.9	-45.6	3.8	1.49e+00	0	41	104	0	29	13764
2026-01-13 08:28:24.27	87.86	13.83	-33.9	-45.6	3.8	1.49e+00	0	42	104	0	29	13816
2026-01-13 08:28:25.28	87.71	13.90	-33.9	-45.6	3.8	1.49e+00	0	41	104	0	29	13815
2026-01-13 08:28:26.29	87.56	13.97	-33.9	-45.6	3.8	1.49e+00	0	41	104	0	29	13819
2026-01-13 08:28:27.30	87.41	14.04	-33.9	-45.6	3.8	1.49e+00	0	41	104	0	29	13838
2026-01-13 08:28:28.31	87.26	14.11	-33.9	-45.6	3.8	1.49e+00	0	42	104	0	29	13782
2026-01-13 08:28:29.32	87.10	14.18	-33.9	-45.6	3.8	1.49e+00	0	41	104	0	29	13839
2026-01-13 08:28:30.31	86.95	14.25	-34.0	-45.6	3.8	1.49e+00	0	42	104	0	29	13793
2026-01-13 08:28:31.32	86.80	14.32	-33.9	-45.6	3.8	1.49e+00	0	42	104	0	29	13796
2026-01-13 08:28:32.33	86.64	14.39	-34.0	-45.6	3.8	1.49e+00	0	41	104	0	29	13779
2026-01-13 08:28:33.33	86.49	14.46	-33.9	-45.6	3.8	1.49e+00	0	42	104	0	29	13835
2026-01-13 08:28:34.34	86.33	14.53	-34.0	-45.6	3.8	1.49e+00	0	42	104	0	29	13819
2026-01-13 08:28:35.35	86.17	14.60	-34.0	-45.6	3.8	1.49e+00	0	42	104	0	29	13814
2026-01-13 08:28:36.35	86.01	14.67	-34.0	-45.6	3.8	1.49e+00	0	42	104	0	29	13806
2026-01-13 08:28:37.36	85.85	14.74	-33.9	-45.7	3.8	1.49e+00	0	42	104	0	29	13856
2026-01-13 08:28:38.37	85.69	14.81	-33.9	-45.6	3.8	1.49e+00	0	42	104	0	29	13830
2026-01-13 08:28:39.38	85.53	14.88	-33.9	-45.6	3.8	1.49e+00	0	42	104	0	29	13837
2026-01-13 08:28:40.39	85.37	14.95	-34.0	-45.6	3.8	1.49e+00	0	41	104	0	29	13838
2026-01-13 08:28:41.40	85.21	15.02	-34.0	-45.6	3.8	1.49e+00	0	42	104	0	29	13824
2026-01-13 08:28:42.41	85.04	15.09	-33.9	-45.6	3.8	1.49e+00	0	42	104	0	29	13837
2026-01-13 08:28:43.42	84.88	15.16	-33.9	-45.6	3.8	1.49e+00	0	42	104	0	29	13816
2026-01-13 08:28:44.43	84.71	15.23	-34.0	-45.6	3.8	1.49e+00	0	42	104	0	29	13799
2026-01-13 08:28:45.44	84.55	15.31	-33.9	-45.6	3.8	1.49e+00	0	42	104	0	29	13791
2026-01-13 08:28:46.45	84.38	15.38	-33.9	-45.6	3.8	1.49e+00	0	42	104	0	29	13795
2026-01-13 08:28:47.46	84.21	15.45	-33.9	-45.6	3.8	1.49e+00	0	42	104	0	29	13868
2026-01-13 08:28:48.47	84.05	15.52	-33.9	-45.7	3.8	1.49e+00	0	42	104	0	29	13861
2026-01-13 08:28:49.47	83.88	15.59	-33.9	-45.6	3.8	1.49e+00	0	42	104	0	29	13774
2026-01-13 08:28:50.48	83.71	15.66	-33.9	-45.7	3.8	1.49e+00	0	42	104	0	29	13859
2026-01-13 08:28:51.48	83.54	15.72	-34.0	-45.7	3.8	1.49e+00	0	42	104	0	29	13852
2026-01-13 08:28:52.49	83.37	15.79	-34.0	-45.6	3.8	1.49e+00	0	42	104	0	29	13790
2026-01-13 08:28:53.50	83.20	15.86	-34.0	-45.6	3.8	1.49e+00	0	42	104	0	29	13753
2026-01-13 08:28:54.50	83.03	15.93	-33.9	-45.6	3.8	1.49e+00	0	42	104	0	29	13769
2026-01-13 08:28:55.50	82.85	16.00	-33.9	-45.6	3.8	1.49e+00	0	42	104	0	29	13792
2026-01-13 08:28:56.51	82.68	16.07	-33.9	-45.6	3.8	1.49e+00	0	42	104	0	29	13823
2026-01-13 08:28:57.52	82.50	16.14	-33.9	-45.6	3.8	1.49e+00	0	42	104	0	29	13780
2026-01-13 08:28:58.53	82.33	16.21	-33.9	-45.6	3.8	1.49e+00	0	42	104	0	29	13780
2026-01-13 08:28:59.53	82.15	16.28	-33.9	-45.6	3.8	1.49e+00	0	42	104	0	29	13806
2026-01-13 08:29:00.53	81.97	16.35	-34.0	-45.6	3.8	1.49e+00	0	42	104	0	29	13825
2026-01-13 08:29:01.54	81.80	16.42	-34.0	-45.6	3.8	1.49e+00	0	42	104	0	29	13807
2026-01-13 08:29:02.54	81.62	16.49	-33.9	-45.6	3.8	1.49e+00	0	42	104	0	29	13783
2026-01-13 08:29:03.55	81.44	16.56	-33.9	-45.6	3.8	1.49e+00	0	42	104	0	29	13808
2026-01-13 08:29:04.55	81.26	16.62	-33.9	-45.6	3.8	1.49e+00	0	42	104	0	29	13833
2026-01-13 08:29:05.56	81.08	16.69	-33.9	-45.6	3.8	1.49e+00	0	42	104	0	29	13816
2026-01-13 08:29:06.56	80.89	16.76	-34.0	-45.6	3.8	1.49e+00	0	42	104	0	29	13796
2026-01-13 08:29:07.57	80.71	16.83	-34.0	-45.6	3.8	1.49e+00	0	42	104	0	29	13759
2026-01-13 08:29:08.58	80.53	16.90	-33.9	-45.6	3.8	1.49e+00	0	42	104	0	29	13781
2026-01-13 08:29:09.59	80.34	16.97	-33.9	-45.6	3.8	1.49e+00	0	42	104	0	29	13808
2026-01-13 08:29:10.59	80.16	17.03	-34.0	-45.7	3.8	1.49e+00	0	42	104	0	29	13846
2026-01-13 08:29:11.59	79.97	17.10	-34.0	-45.6	3.8	1.49e+00	0	42	104	0	29	13792
2026-01-13 08:29:12.60	79.78	17.17	-34.0	-45.7	3.8	1.49e+00	0	42	104	0	29	13850
2026-01-13 08:29:13.60	79.60	17.24	-33.9	-45.6	3.8	1.49e+00	0	42	104	0	29	13805
2026-01-13 08:29:14.60	79.41	17.31	-33.9	-45.6	3.8	1.49e+00	0	42	104	0	29	13829
2026-01-13 08:29:15.61	79.22	17.37	-34.0	-45.6	3.8	1.49e+00	0	42	104	0	29	13807
2026-01-13 08:29:16.62	79.03	17.44	-34.0	-45.7	3.8	1.49e+00	0	42	104	0	29	13839
2026-01-13 08:29:17.62	78.84	17.51	-34.0	-45.6	3.8	1.49e+00	0	42	104	0	29	13832
2026-01-13 08:29:18.63	78.64	17.57	-34.0	-45.6	3.8	1.49e+00	0	42	104	0	29	13815
2026-01-13 08:29:19.64	78.45	17.64	-34.0	-45.6	3.8	1.49e+00	0	42	104	0	29	13825
2026-01-13 08:29:20.64	78.25	17.71	-34.0	-45.6	3.8	1.49e+00	0	42	104	0	29	13796
2026-01-13 08:29:21.64	78.06	17.77	-33.9	-45.6	3.8	1.49e+00	0	42	104	0	29	13782
2026-01-13 08:29:22.65	77.86	17.84	-34.0	-45.6	3.8	1.49e+00	0	42	104	0	29	13777
2026-01-13 08:29:23.66	77.67	17.91	-34.0	-45.6	3.8	1.49e+00	0	42	104	0	29	13816
2026-01-13 08:29:24.67	77.47	17.97	-33.9	-45.6	3.8	1.49e+00	0	42	104	0	29	13807
2026-01-13 08:29:25.68	77.27	18.04	-34.0	-45.6	3.8	1.49e+00	0	42	104	0	29	13818
2026-01-13 08:29:26.68	77.07	18.11	-34.0	-45.6	3.8	1.49e+00	0	42	104	0	29	13789
2026-01-13 08:29:27.69	76.87	18.17	-34.0	-45.6	3.8	1.49e+00	0	42	104	0	29	13798
2026-01-13 08:29:28.69	76.67	18.24	-34.0	-45.7	3.8	1.49e+00	0	42	104	0	29	13833
2026-01-13 08:29:29.70	76.47	18.30	-34.0	-45.6	3.8	1.49e+00	0	42	104	0	29	13831
2026-01-13 08:29:30.70	76.26	18.37	-34.0	-45.6	3.8	1.49e+00	0	42	104	0	29	13820
2026-01-13 08:29:31.71	76.06	18.43	-34.0	-45.6	3.8	1.49e+00	0	42	104	0	29	13782
2026-01-13 08:29:32.72	75.85	18.50	-33.9	-45.6	3.8	1.49e+00	0	42	104	0	29	13812
2026-01-13 08:29:33.72	75.65	18.56	-34.0	-45.7	3.8	1.49e+00	0	42	104	0	29	13846
2026-01-13 08:29:34.73	75.44	18.62	-34.0	-45.6	3.8	1.49e+00	0	42	104	0	29	13826
2026-01-13 08:29:35.74	75.24	18.69	-34.0	-45.6	3.8	1.49e+00	0	42	104	0	29	13827
2026-01-13 08:29:36.75	75.03	18.75	-34.0	-45.7	3.8	1.49e+00	0	42	104	0	29	13853
2026-01-13 08:29:37.75	74.82	18.81	-34.0	-45.7	3.8	1.49e+00	0	42	104	0	29	13843
2026-01-13 08:29:38.76	74.61	18.88	-33.9	-45.6	3.8	1.49e+00	0	42	104	0	29	13757
2026-01-13 08:29:39.77	74.40	18.94	-34.0	-45.6	3.8	1.49e+00	0	42	104	0	29	13821
2026-01-13 08:29:40.78	74.18	19.00	-34.0	-45.6	3.8	1.49e+00	0	42	104	0	29	13810
2026-01-13 08:29:41.78	73.97	19.07	-34.0	-45.6	3.8	1.49e+00	0	42	104	0	29	13820
2026-01-13 08:29:42.79	73.76	19.13	-34.0	-45.6	3.8	1.49e+00	0	42	104	0	29	13808
2026-01-13 08:29:43.80	73.54	19.19	-34.0	-45.7	3.8	1.49e+00	0	42	104	0	29	13841
2026-01-13 08:29:44.81	73.33	19.25	-34.0	-45.6	3.8	1.49e+00	0	42	104	0	29	13833
2026-01-13 08:29:45.81	73.11	19.31	-34.0	-45.7	3.8	1.49e+00	0	42	104	0	29	13835
2026-01-13 08:29:46.81	72.90	19.37	-34.0	-45.6	3.8	1.49e+00	0	42	104	0	29	13829
2026-01-13 08:29:47.82	72.68	19.44	-33.9	-45.6	3.8	1.49e+00	0	42	104	0	29	13824
2026-01-13 08:29:48.82	72.46	19.50	-34.0	-45.7	3.8	1.49e+00	0	42	104	0	29	13854
2026-01-13 08:29:49.83	72.24	19.56	-34.0	-45.7	3.8	1.49e+00	0	42	104	0	29	13836
2026-01-13 08:29:50.83	72.02	19.62	-34.0	-45.6	3.8	1.49e+00	0	42	104	0	29	13814
2026-01-13 08:29:51.84	71.80	19.68	-34.0	-45.7	3.8	1.49e+00	0	42	104	0	29	13847
2026-01-13 08:29:52.84	71.58	19.73	-34.0	-45.7	3.8	1.49e+00	0	42	104	0	29	13858
2026-01-13 08:29:53.85	71.35	19.79	-34.0	-45.7	3.8	1.49e+00	0	42	104	0	29	13867
2026-01-13 08:29:54.86	71.13	19.85	-34.0	-45.7	3.8	1.49e+00	0	42	104	0	29	13881
2026-01-13 08:29:55.87	70.90	19.91	-34.0	-45.6	3.8	1.49e+00	0	42	104	0	29	13822
2026-01-13 08:29:56.88	70.68	19.97	-34.0	-45.6	3.8	1.49e+00	0	42	104	0	29	13832
2026-01-13 08:29:57.89	70.45	20.03	-34.0	-45.7	3.8	1.49e+00	0	42	104	0	29	13856
2026-01-13 08:29:58.90	70.22	20.08	-34.0	-45.7	3.8	1.49e+00	0	42	104	0	29	13835
2026-01-13 08:29:59.91	69.99	20.14	-34.0	-45.7	3.8	1.49e+00	0	42	104	0	29	13837
2026-01-13 08:30:00.91	69.77	20.20	-34.0	-45.7	3.8	1.49e+00	0	42	104	0	29	13858
2026-01-13 08:30:01.91	69.54	20.25	-34.0	-45.7	3.8	1.49e+00	0	42	104	0	29	13837
2026-01-13 08:30:02.91	69.31	20.31	-33.9	-45.7	3.8	1.49e+00	0	42	104	0	29	13848
2026-01-13 08:30:03.92	69.07	20.37	-34.0	-45.6	3.8	1.49e+00	0	42	104	0	29	13816
2026-01-13 08:30:04.92	68.84	20.42	-34.0	-45.6	3.8	1.49e+00	0	42	104	0	29	13800
2026-01-13 08:30:05.92	68.61	20.48	-34.0	-45.6	3.8	1.49e+00	0	42	104	0	29	13803
2026-01-13 08:30:06.93	68.38	20.53	-34.0	-45.7	3.8	1.49e+00	0	42	104	0	29	13876
2026-01-13 08:30:07.93	68.14	20.58	-34.0	-45.7	3.8	1.49e+00	0	42	104	0	29	13838
2026-01-13 08:30:08.94	67.91	20.64	-34.0	-45.7	3.8	1.49e+00	0	42	104	0	29	13824
2026-01-13 08:30:09.95	67.67	20.69	-34.0	-45.6	3.8	1.49e+00	0	42	104	0	29	13814
2026-01-13 08:30:10.96	67.43	20.74	-34.0	-45.6	3.8	1.49e+00	0	42	104	0	29	13832
2026-01-13 08:30:11.97	67.19	20.80	-34.0	-45.7	3.8	1.49e+00	0	42	104	0	29	13846
2026-01-13 08:30:12.97	66.95	20.85	-34.0	-45.7	3.8	1.49e+00	0	42	104	0	29	13838
2026-01-13 08:30:13.98	66.71	20.90	-34.0	-45.7	3.8	1.49e+00	0	42	104	0	29	13821
2026-01-13 08:30:14.98	66.47	20.95	-34.0	-45.6	3.8	1.49e+00	0	42	104	0	29	13808
2026-01-13 08:30:16.00	66.23	21.00	-34.0	-45.6	3.8	1.49e+00	0	42	104	0	29	13831
2026-01-13 08:30:17.00	65.99	21.05	-34.0	-45.6	3.8	1.49e+00	0	42	104	0	29	13825
2026-01-13 08:30:18.00	65.75	21.10	-34.0	-45.6	3.8	1.49e+00	0	42	104	0	29	13781
2026-01-13 08:30:19.01	65.50	21.15	-34.0	-45.6	3.7	1.49e+00	0	42	104	0	29	13781
2026-01-13 08:30:20.02	65.26	21.20	-34.0	-45.6	3.8	1.49e+00	0	42	104	0	29	13798
2026-01-13 08:30:21.03	65.01	21.25	-34.0	-45.6	3.8	1.49e+00	0	42	104	0	29	13787
2026-01-13 08:30:22.03	64.77	21.30	-34.0	-45.7	3.8	1.49e+00	0	42	104	0	29	13872
2026-01-13 08:30:23.03	64.52	21.34	-34.0	-45.7	3.8	1.49e+00	0	42	104	0	29	13830
2026-01-13 08:30:24.04	64.27	21.39	-34.0	-45.7	3.8	1.49e+00	0	42	104	0	29	13832
2026-01-13 08:30:25.05	64.02	21.44	-34.0	-45.7	3.8	1.49e+00	0	42	104	0	29	13847
2026-01-13 08:30:26.06	63.77	21.48	-34.0	-45.7	3.8	1.49e+00	0	42	104	0	29	13843
2026-01-13 08:30:27.07	63.52	21.53	-34.0	-45.7	3.8	1.49e+00	0	42	104	0	29	13850
2026-01-13 08:30:28.07	63.27	21.58	-34.0	-45.6	3.8	1.49e+00	0	42	104	0	29	13818
2026-01-13 08:30:29.08	63.02	21.62	-34.0	-45.6	3.8	1.49e+00	0	42	104	0	29	13799
2026-01-13 08:30:30.09	62.77	21.66	-34.0	-45.7	3.8	1.49e+00	0	42	104	0	29	13841
2026-01-13 08:30:31.09	62.52	21.71	-34.0	-45.7	3.8	1.49e+00	0	42	104	0	29	13831
2026-01-13 08:30:32.10	62.26	21.75	-34.0	-45.7	3.8	1.49e+00	0	42	104	0	29	13862
2026-01-13 08:30:33.10	62.01	21.79	-34.0	-45.7	3.8	1.49e+00	0	42	104	0	29	13851
2026-01-13 08:30:34.10	61.76	21.84	-34.0	-45.7	3.8	1.49e+00	0	42	104	0	29	13827
2026-01-13 08:30:35.11	61.50	21.88	-34.0	-45.6	3.8	1.49e+00	0	42	104	0	29	13823
2026-01-13 08:30:36.11	61.24	21.92	-34.0	-45.7	3.8	1.49e+00	0	42	104	0	29	13810
2026-01-13 08:30:37.11	60.99	21.96	-33.9	-45.6	3.8	1.49e+00	0	42	104	0	29	13836
2026-01-13 08:30:38.12	60.73	22.00	-34.0	-45.6	3.8	1.49e+00	0	42	104	0	29	13806
2026-01-13 08:30:39.13	60.47	22.04	-34.0	-45.7	3.8	1.49e+00	0	42	104	0	29	13868
2026-01-13 08:30:40.14	60.21	22.08	-34.0	-45.7	3.8	1.49e+00	0	42	104	0	29	13853
2026-01-13 08:30:41.15	59.95	22.11	-34.0	-45.7	3.8	1.49e+00	0	42	104	0	29	13868
2026-01-13 08:30:42.15	59.69	22.15	-34.0	-45.7	3.8	1.49e+00	0	42	104	0	29	13845
2026-01-13 08:30:43.17	59.43	22.19	-34.0	-45.6	3.8	1.49e+00	0	42	104	0	29	13812
2026-01-13 08:30:44.17	59.17	22.23	-34.0	-45.7	3.8	1.49e+00	0	42	104	0	29	13851
2026-01-13 08:30:45.17	58.91	22.26	-34.0	-45.7	3.8	1.49e+00	0	42	104	0	29	13851
2026-01-13 08:30:46.18	58.64	22.30	-34.0	-45.6	3.8	1.49e+00	0	42	104	0	29	13815
2026-01-13 08:30:47.18	58.38	22.33	-34.0	-45.7	3.8	1.49e+00	0	42	104	0	29	13857
2026-01-13 08:30:48.20	58.11	22.36	-34.0	-45.6	3.8	1.49e+00	0	42	104	0	29	13781
2026-01-13 08:30:49.20	57.85	22.40	-34.0	-45.6	3.8	1.49e+00	0	42	104	0	29	13796
2026-01-13 08:30:50.21	57.59	22.43	-34.0	-45.7	3.8	1.49e+00	0	42	104	0	29	13866
2026-01-13 08:30:51.22	57.32	22.46	-34.0	-45.6	3.8	1.49e+00	0	42	104	0	29	13798
2026-01-13 08:30:52.22	57.05	22.49	-34.0	-45.6	3.8	1.49e+00	0	42	104	0	29	13818
2026-01-13 08:30:53.22	56.79	22.53	-34.0	-45.7	3.8	1.49e+00	0	42	104	0	29	13821
2026-01-13 08:30:54.23	56.52	22.56	-34.0	-45.7	3.8	1.49e+00	0	42	104	0	29	13817
2026-01-13 08:30:55.24	56.25	22.59	-34.0	-45.7	3.8	1.49e+00	0	42	104	0	29	13823
2026-01-13 08:30:56.25	55.98	22.61	-34.0	-45.7	3.8	1.49e+00	0	42	104	0	29	13878
2026-01-13 08:30:57.25	55.72	22.64	-34.0	-45.7	3.8	1.49e+00	0	42	104	0	29	13822
2026-01-13 08:30:58.26	55.45	22.67	-34.0	-45.6	3.8	1.49e+00	0	42	104	0	29	13773
2026-01-13 08:30:59.27	55.18	22.70	-34.0	-45.7	3.7	1.49e+00	0	42	104	0	29	13823
2026-01-13 08:31:00.27	54.91	22.72	-34.0	-45.7	3.8	1.49e+00	0	42	104	0	29	13858
2026-01-13 08:31:01.28	54.64	22.75	-34.0	-45.7	3.8	1.49e+00	0	42	104	0	29	13845
2026-01-13 08:31:02.28	54.37	22.78	-34.0	-45.6	3.8	1.49e+00	0	42	104	0	29	13820
2026-01-13 08:31:03.29	54.09	22.80	-34.0	-45.7	3.8	1.49e+00	0	42	104	0	29	13849
2026-01-13 08:31:04.30	53.82	22.82	-34.0	-45.7	3.8	1.49e+00	0	42	104	0	29	13829
2026-01-13 08:31:05.31	53.55	22.85	-34.0	-45.6	3.8	1.49e+00	0	42	104	0	29	13808
2026-01-13 08:31:06.31	53.28	22.87	-34.0	-45.7	3.8	1.49e+00	0	42	104	0	29	13841
2026-01-13 08:31:07.32	53.00	22.89	-34.0	-45.7	3.8	1.49e+00	0	42	104	0	29	13805
2026-01-13 08:31:08.32	52.73	22.91	-34.0	-45.7	3.8	1.49e+00	0	42	104	0	29	13827
2026-01-13 08:31:09.33	52.46	22.93	-34.0	-45.7	3.8	1.49e+00	0	42	104	0	29	13850
2026-01-13 08:31:10.34	52.18	22.95	-34.0	-45.7	3.8	1.49e+00	0	42	104	0	29	13831
2026-01-13 08:31:11.34	51.91	22.97	-34.0	-45.7	3.8	1.49e+00	0	42	104	0	29	13834
2026-01-13 08:31:12.35	51.63	22.99	-34.0	-45.7	3.8	1.49e+00	0	42	104	0	29	13855
2026-01-13 08:31:13.36	51.36	23.01	-34.0	-45.7	3.8	1.49e+00	0	42	104	0	29	13843
2026-01-13 08:31:14.36	51.08	23.02	-34.0	-45.6	3.8	1.49e+00	0	42	104	0	29	13828
2026-01-13 08:31:15.38	50.80	23.04	-34.0	-45.7	3.8	1.49e+00	0	42	104	0	29	13863
2026-01-13 08:31:16.38	50.53	23.06	-34.0	-45.7	3.8	1.49e+00	0	42	104	0	29	13843
2026-01-13 08:31:17.38	50.26	23.07	-34.0	-45.7	3.8	1.49e+00	0	42	104	0	29	13825
2026-01-13 08:31:18.39	49.98	23.08	-34.0	-45.7	3.8	1.49e+00	0	42	104	0	29	13834
2026-01-13 08:31:19.40	49.70	23.10	-34.0	-45.7	3.8	1.49e+00	0	42	104	0	29	13835
2026-01-13 08:31:20.40	49.43	23.11	-34.0	-45.7	3.8	1.49e+00	0	42	104	0	29	13847
2026-01-13 08:31:21.40	49.15	23.12	-34.0	-45.7	3.8	1.49e+00	0	42	104	0	29	13832
2026-01-13 08:31:22.41	48.87	23.13	-34.0	-45.7	3.8	1.49e+00	0	42	104	0	29	13860
2026-01-13 08:31:23.42	48.59	23.14	-34.0	-45.7	3.8	1.49e+00	0	42	104	0	29	13852
2026-01-13 08:31:24.43	48.31	23.15	-34.0	-45.6	3.8	1.49e+00	0	42	104	0	29	13823
2026-01-13 08:31:25.43	48.04	23.16	-34.0	-45.7	3.8	1.49e+00	0	42	104	0	29	13841
2026-01-13 08:31:26.44	47.76	23.17	-34.0	-45.7	3.8	1.49e+00	0	42	104	0	29	13850
2026-01-13 08:31:27.45	47.48	23.18	-34.0	-45.7	3.8	1.49e+00	0	42	104	0	29	13845
2026-01-13 08:31:28.46	47.20	23.19	-34.0	-45.7	3.8	1.49e+00	0	42	104	0	29	13889
2026-01-13 08:31:29.47	46.92	23.19	-34.0	-45.7	3.8	1.49e+00	0	42	104	0	29	13828
2026-01-13 08:31:30.48	46.64	23.20	-34.0	-45.7	3.8	1.49e+00	0	42	104	0	29	13824
2026-01-13 08:31:31.49	46.36	23.20	-34.0	-45.7	3.8	1.49e+00	0	42	104	0	29	13854
2026-01-13 08:31:32.49	46.08	23.21	-34.0	-45.7	3.8	1.49e+00	0	42	104	0	29	13843
2026-01-13 08:31:33.50	45.81	23.21	-34.0	-45.7	3.8	1.49e+00	0	42	104	0	29	13854
2026-01-13 08:31:34.51	45.53	23.21	-34.0	-45.7	3.8	1.49e+00	0	42	104	0	29	13843
2026-01-13 08:31:35.47	45.26	23.21	-34.0	-45.7	3.8	1.49e+00	0	42	104	0	29	13871
2026-01-13 08:31:36.48	44.98	23.22	-34.0	-45.6	3.8	1.49e+00	0	42	104	0	29	13806
2026-01-13 08:31:37.48	44.70	23.22	-34.0	-45.7	3.8	1.49e+00	0	42	104	0	29	13823
2026-01-13 08:31:38.49	44.42	23.22	-34.0	-45.7	3.8	1.49e+00	0	42	104	0	29	13829
2026-01-13 08:31:39.50	44.14	23.21	-34.0	-45.7	3.8	1.49e+00	0	42	104	0	29	13870
2026-01-13 08:31:40.51	43.86	23.21	-34.0	-45.6	3.8	1.49e+00	0	42	104	0	29	13810
2026-01-13 08:31:41.51	43.59	23.21	-34.0	-45.6	3.8	1.49e+00	0	42	104	0	29	13800
2026-01-13 08:31:42.52	43.31	23.21	-34.0	-45.7	3.8	1.49e+00	0	42	104	0	29	13831
2026-01-13 08:31:43.53	43.03	23.20	-34.0	-45.7	3.8	1.49e+00	0	42	104	0	29	13865
2026-01-13 08:31:44.54	42.75	23.20	-34.0	-45.7	3.8	1.49e+00	0	42	104	0	29	13842
2026-01-13 08:31:45.54	42.47	23.19	-34.0	-45.7	3.8	1.49e+00	0	42	104	0	29	13849
2026-01-13 08:31:46.54	42.19	23.19	-34.0	-45.6	3.8	1.49e+00	0	42	104	0	29	13787
2026-01-13 08:31:47.55	41.91	23.18	-34.0	-45.7	3.8	1.49e+00	0	42	104	0	29	13870
2026-01-13 08:31:48.56	41.64	23.17	-34.0	-45.7	3.8	1.49e+00	0	42	104	0	29	13825
2026-01-13 08:31:49.56	41.36	23.16	-34.0	-45.7	3.8	1.49e+00	0	42	104	0	29	13838
2026-01-13 08:31:50.57	41.08	23.15	-34.0	-45.7	3.8	1.49e+00	0	42	104	0	29	13858
2026-01-13 08:31:51.57	40.80	23.14	-34.0	-45.7	3.8	1.49e+00	0	42	104	0	29	13830
2026-01-13 08:31:52.57	40.53	23.13	-34.0	-45.7	3.8	1.49e+00	0	42	104	0	29	13848
2026-01-13 08:31:53.58	40.25	23.12	-34.0	-45.7	3.8	1.49e+00	0	42	104	0	29	13846
2026-01-13 08:31:54.58	39.98	23.11	-34.0	-45.7	3.8	1.49e+00	0	42	104	0	29	13821
2026-01-13 08:31:55.59	39.70	23.10	-34.0	-45.7	3.8	1.49e+00	0	42	104	0	29	13859
2026-01-13 08:31:56.60	39.42	23.09	-34.0	-45.7	3.8	1.49e+00	0	42	104	0	29	13824
2026-01-13 08:31:57.60	39.15	23.07	-34.0	-45.7	3.8	1.49e+00	0	42	104	0	29	13850
2026-01-13 08:31:58.61	38.87	23.06	-34.0	-45.7	3.8	1.49e+00	0	42	104	0	29	13858
2026-01-13 08:31:59.62	38.59	23.04	-34.0	-45.6	3.8	1.49e+00	0	42	104	0	29	13799
2026-01-13 08:32:00.62	38.32	23.02	-34.0	-45.7	3.8	1.49e+00	0	42	104	0	29	13866
2026-01-13 08:32:01.63	38.04	23.01	-34.0	-45.7	3.8	1.49e+00	0	42	104	0	29	13828
2026-01-13 08:32:02.64	37.77	22.99	-34.0	-45.7	3.8	1.49e+00	0	42	104	0	29	13833
2026-01-13 08:32:03.64	37.49	22.97	-34.0	-45.7	3.8	1.49e+00	0	42	104	0	29	13863
2026-01-13 08:32:04.65	37.22	22.95	-34.0	-45.7	3.8	1.49e+00	0	42	104	0	29	13860
2026-01-13 08:32:05.65	36.95	22.93	-34.0	-45.6	3.8	1.49e+00	0	42	104	0	29	13766
2026-01-13 08:32:06.67	36.67	22.91	-34.0	-45.7	3.8	1.49e+00	0	42	104	0	29	13882
2026-01-13 08:32:07.67	36.40	22.89	-34.0	-45.7	3.8	1.49e+00	0	42	104	0	29	13848
2026-01-13 08:32:08.67	36.13	22.87	-34.0	-45.7	3.8	1.49e+00	0	42	104	0	29	13844
2026-01-13 08:32:09.68	35.85	22.85	-34.0	-45.7	3.8	1.49e+00	0	42	104	0	29	13848
2026-01-13 08:32:10.69	35.58	22.82	-34.0	-45.7	3.8	1.49e+00	0	42	104	0	29	13863
2026-01-13 08:32:11.70	35.31	22.80	-34.0	-45.7	3.8	1.49e+00	0	42	104	0	29	13838
2026-01-13 08:32:12.70	35.04	22.78	-34.0	-45.7	3.8	1.49e+00	0	42	104	0	29	13834
2026-01-13 08:32:13.70	34.77	22.75	-34.0	-45.7	3.8	1.49e+00	0	42	104	0	29	13863
2026-01-13 08:32:14.71	34.50	22.73	-34.0	-45.7	3.8	1.49e+00	0	42	104	0	29	13859
2026-01-13 08:32:15.72	34.23	22.70	-34.0	-45.7	3.8	1.49e+00	0	42	104	0	29	13830
2026-01-13 08:32:16.72	33.96	22.67	-34.0	-45.7	3.8	1.49e+00	0	42	104	0	29	13823
2026-01-13 08:32:17.72	33.69	22.64	-34.0	-45.7	3.8	1.49e+00	0	42	104	0	29	13833
2026-01-13 08:32:18.73	33.42	22.62	-34.0	-45.7	3.8	1.49e+00	0	42	104	0	29	13829
2026-01-13 08:32:19.73	33.16	22.59	-34.0	-45.6	3.8	1.49e+00	0	42	104	0	29	13818
2026-01-13 08:32:20.74	32.89	22.56	-34.0	-45.7	3.8	1.49e+00	0	42	104	0	29	13830
2026-01-13 08:32:21.75	32.62	22.53	-34.0	-45.7	3.8	1.49e+00	0	42	104	0	29	13842
2026-01-13 08:32:22.75	32.36	22.50	-34.0	-45.7	3.8	1.49e+00	0	42	104	0	29	13942
2026-01-13 08:32:23.76	32.09	22.47	-34.0	-45.6	3.8	1.49e+00	0	42	104	0	29	13810
2026-01-13 08:32:24.77	31.82	22.43	-34.0	-45.7	3.8	1.49e+00	0	42	104	0	29	13865
2026-01-13 08:32:25.78	31.56	22.40	-34.0	-45.7	3.8	1.49e+00	0	42	104	0	29	13841
2026-01-13 08:32:26.78	31.30	22.37	-34.0	-45.7	3.8	1.49e+00	0	42	104	0	29	13873
2026-01-13 08:32:27.79	31.03	22.33	-34.0	-45.6	3.8	1.49e+00	0	42	104	0	29	13818
2026-01-13 08:32:28.80	30.77	22.30	-34.0	-45.7	3.8	1.49e+00	0	42	104	0	29	13881
2026-01-13 08:32:29.80	30.51	22.26	-34.0	-45.7	3.8	1.49e+00	0	42	104	0	29	13864
2026-01-13 08:32:30.81	30.24	22.23	-34.0	-45.7	3.8	1.49e+00	0	42	104	0	29	13873
2026-01-13 08:32:31.82	29.98	22.19	-34.0	-45.6	3.8	1.49e+00	0	42	104	0	29	13789
2026-01-13 08:32:32.82	29.72	22.15	-34.0	-45.7	3.8	1.49e+00	0	42	104	0	29	13837
2026-01-13 08:32:33.82	29.47	22.12	-34.0	-45.7	3.8	1.49e+00	0	42	104	0	29	13827
2026-01-13 08:32:34.83	29.21	22.08	-34.0	-45.7	3.8	1.49e+00	0	42	104	0	29	13828
2026-01-13 08:32:35.83	28.95	22.04	-34.0	-45.7	3.8	1.49e+00	0	42	104	0	29	13838
2026-01-13 08:32:36.83	28.69	22.00	-34.0	-45.7	3.8	1.49e+00	0	42	104	0	29	13842
2026-01-13 08:32:37.84	28.43	21.96	-34.0	-45.7	3.8	1.49e+00	0	42	104	0	29	13879
2026-01-13 08:32:38.84	28.18	21.92	-34.0	-45.7	3.8	1.49e+00	0	42	104	0	29	13862
2026-01-13 08:32:39.85	27.92	21.88	-34.0	-45.7	3.8	1.49e+00	0	42	104	0	29	13870
2026-01-13 08:32:40.85	27.67	21.84	-34.0	-45.7	3.8	1.49e+00	0	42	104	0	29	13848
2026-01-13 08:32:41.86	27.41	21.80	-34.0	-45.7	3.8	1.49e+00	0	42	104	0	29	13837
2026-01-13 08:32:42.86	27.16	21.76	-34.0	-45.7	3.8	1.49e+00	0	42	104	0	29	13834
2026-01-13 08:32:43.87	26.91	21.71	-34.0	-45.7	3.8	1.49e+00	0	42	104	0	29	13858
2026-01-13 08:32:44.88	26.66	21.67	-34.0	-45.6	3.8	1.49e+00	0	42	104	0	29	13807
2026-01-13 08:32:45.89	26.40	21.62	-34.0	-45.7	3.8	1.49e+00	0	42	104	0	29	13851
2026-01-13 08:32:46.89	26.15	21.58	-34.0	-45.6	3.8	1.49e+00	0	42	104	0	29	13808
2026-01-13 08:32:47.90	25.90	21.54	-34.0	-45.7	3.8	1.49e+00	0	42	104	0	29	13854
2026-01-13 08:32:48.90	25.65	21.49	-34.0	-45.7	3.8	1.49e+00	0	42	104	0	29	13895
2026-01-13 08:32:49.91	25.41	21.44	-34.0	-45.7	3.8	1.49e+00	0	42	104	0	29	13922
2026-01-13 08:32:50.92	25.16	21.40	-34.0	-45.7	3.8	1.49e+00	0	42	104	0	29	13872
2026-01-13 08:32:51.93	24.91	21.35	-34.0	-45.7	3.8	1.49e+00	0	42	104	0	29	13849
2026-01-13 08:32:52.94	24.66	21.30	-34.0	-45.7	3.8	1.49e+00	0	42	104	0	29	13826
2026-01-13 08:32:53.94	24.42	21.26	-34.0	-45.6	3.8	1.49e+00	0	42	104	0	29	13812
2026-01-13 08:32:54.94	24.17	21.21	-34.0	-45.7	3.8	1.49e+00	0	42	104	0	29	13824
2026-01-13 08:32:55.95	23.93	21.16	-34.0	-45.7	3.8	1.49e+00	0	42	104	0	29	13835
2026-01-13 08:32:56.96	23.69	21.11	-34.0	-45.7	3.8	1.49e+00	0	42	104	0	29	13838
2026-01-13 08:32:57.97	23.44	21.06	-34.0	-45.7	3.8	1.49e+00	0	42	104	0	29	13881
2026-01-13 08:32:58.97	23.20	21.01	-34.0	-45.7	3.8	1.49e+00	0	42	104	0	29	13833
2026-01-13 08:32:59.98	22.96	20.96	-34.0	-45.7	3.8	1.49e+00	0	42	104	0	29	13828
2026-01-13 08:33:00.98	22.72	20.91	-34.0	-45.6	3.8	1.49e+00	0	42	104	0	29	13789
2026-01-13 08:33:01.99	22.48	20.86	-34.0	-45.7	3.8	1.49e+00	0	42	104	0	29	13866
2026-01-13 08:33:03.00	22.24	20.80	-34.0	-45.7	3.8	1.49e+00	0	42	104	0	29	13892
2026-01-13 08:33:04.01	22.00	20.75	-34.0	-45.7	3.8	1.49e+00	0	42	104	0	29	13827
2026-01-13 08:33:05.01	21.77	20.70	-34.0	-45.7	3.8	1.49e+00	0	42	104	0	29	13853
2026-01-13 08:33:06.02	21.53	20.65	-34.0	-45.7	3.8	1.49e+00	0	42	104	0	29	13847
2026-01-13 08:33:07.03	21.30	20.59	-34.0	-45.7	3.8	1.49e+00	0	42	104	0	29	13864
2026-01-13 08:33:08.04	21.06	20.54	-34.0	-45.7	3.8	1.49e+00	0	42	104	0	29	13865
2026-01-13 08:33:09.05	20.83	20.48	-34.0	-45.6	3.8	1.49e+00	0	42	104	0	29	13789
2026-01-13 08:33:10.06	20.59	20.43	-34.0	-45.7	3.8	1.49e+00	0	42	104	0	29	13871
2026-01-13 08:33:11.07	20.36	20.37	-34.0	-45.7	3.8	1.49e+00	0	42	104	0	29	13841
2026-01-13 08:33:12.08	20.13	20.32	-34.0	-45.7	3.8	1.49e+00	0	42	104	0	29	13861
2026-01-13 08:33:13.09	19.90	20.26	-34.0	-45.7	3.8	1.49e+00	0	42	104	0	29	13838
2026-01-13 08:33:14.10	19.67	20.21	-34.0	-45.7	3.8	1.49e+00	0	42	104	0	29	13844
2026-01-13 08:33:15.10	19.44	20.15	-34.0	-45.7	3.8	1.49e+00	0	42	104	0	29	13869
2026-01-13 08:33:16.11	19.21	20.09	-34.0	-45.7	3.8	1.49e+00	0	42	104	0	29	13869
2026-01-13 08:33:17.12	18.98	20.03	-34.0	-45.7	3.8	1.49e+00	0	42	104	0	29	13886
2026-01-13 08:33:18.12	18.76	19.98	-34.0	-45.7	3.8	1.49e+00	0	42	104	0	29	13826
2026-01-13 08:33:19.13	18.53	19.92	-34.0	-45.7	3.8	1.49e+00	0	42	104	0	29	13823
2026-01-13 08:33:20.14	18.31	19.86	-34.0	-45.7	3.8	1.49e+00	0	42	104	0	29	13827
2026-01-13 08:33:21.15	18.09	19.80	-34.0	-45.7	3.8	1.49e+00	0	42	104	0	29	13881
2026-01-13 08:33:22.16	17.86	19.74	-34.0	-45.7	3.8	1.49e+00	0	42	104	0	29	13841
2026-01-13 08:33:23.16	17.64	19.68	-34.0	-45.7	3.8	1.49e+00	0	42	104	0	29	13852
2026-01-13 08:33:24.18	17.42	19.62	-34.0	-45.7	3.8	1.49e+00	0	42	104	0	29	13819
2026-01-13 08:33:25.19	17.20	19.56	-34.0	-45.7	3.8	1.49e+00	0	42	104	0	29	13858
2026-01-13 08:33:26.19	16.98	19.50	-34.0	-45.7	3.8	1.49e+00	0	42	104	0	29	13834
2026-01-13 08:33:27.20	16.76	19.44	-34.0	-45.7	3.8	1.49e+00	0	42	104	0	29	13868
2026-01-13 08:33:28.20	16.55	19.38	-34.0	-45.6	3.8	1.49e+00	0	42	104	0	29	13813
2026-01-13 08:33:29.21	16.33	19.32	-34.0	-45.7	3.8	1.49e+00	0	42	104	0	29	13856
2026-01-13 08:33:30.20	16.12	19.26	-34.0	-45.7	3.8	1.49e+00	0	42	104	0	29	13823
2026-01-13 08:33:31.21	15.90	19.20	-34.0	-45.7	3.8	1.49e+00	0	42	104	0	29	13856
2026-01-13 08:33:32.22	15.69	19.14	-34.0	-45.7	3.8	1.49e+00	0	42	104	0	29	13874
2026-01-13 08:33:33.23	15.48	19.08	-34.0	-45.7	3.8	1.49e+00	0	42	104	0	29	13821
2026-01-13 08:33:34.24	15.26	19.01	-34.0	-45.7	3.8	1.49e+00	0	42	104	0	29	13829
2026-01-13 08:33:35.24	15.05	18.95	-34.0	-45.7	3.8	1.49e+00	0	42	104	0	29	13820
2026-01-13 08:33:36.25	14.84	18.89	-34.0	-45.7	3.8	1.49e+00	0	42	104	0	29	13855
2026-01-13 08:33:37.26	14.63	18.83	-34.0	-45.6	3.8	1.49e+00	0	42	104	0	29	13820
2026-01-13 08:33:38.26	14.43	18.76	-34.0	-45.7	3.8	1.49e+00	0	42	104	0	29	13837
2026-01-13 08:33:39.27	14.22	18.70	-34.0	-45.7	3.8	1.49e+00	0	42	104	0	29	13841
2026-01-13 08:33:40.27	14.01	18.64	-34.0	-45.7	3.8	1.49e+00	0	42	104	0	29	13838
2026-01-13 08:33:41.28	13.81	18.57	-34.0	-45.6	3.8	1.49e+00	0	42	104	0	29	13807
2026-01-13 08:33:42.28	13.60	18.51	-34.0	-45.7	3.8	1.49e+00	0	42	104	0	29	13840
2026-01-13 08:33:43.29	13.40	18.44	-34.0	-45.7	3.8	1.49e+00	0	42	104	0	29	13844
2026-01-13 08:33:44.30	13.19	18.38	-34.0	-45.7	3.8	1.49e+00	0	42	104	0	29	13824
2026-01-13 08:33:45.30	12.99	18.31	-34.0	-45.7	3.8	1.49e+00	0	42	104	0	29	13805
2026-01-13 08:33:46.31	12.79	18.25	-34.0	-45.7	3.8	1.49e+00	0	42	104	0	29	13871
2026-01-13 08:33:47.32	12.59	18.18	-34.0	-45.7	3.8	1.49e+00	0	42	104	0	29	13842
2026-01-13 08:33:48.33	12.39	18.12	-34.0	-45.7	3.8	1.49e+00	0	42	104	0	29	13864
2026-01-13 08:33:49.34	12.19	18.05	-34.0	-45.7	3.8	1.49e+00	0	42	104	0	29	13830
2026-01-13 08:33:50.34	11.99	17.99	-34.0	-45.7	3.8	1.49e+00	0	42	104	0	29	13847
2026-01-13 08:33:51.35	11.80	17.92	-34.0	-45.7	3.8	1.49e+00	0	42	104	0	29	13904
2026-01-13 08:33:52.36	11.60	17.86	-34.0	-45.7	3.8	1.49e+00	0	42	104	0	29	13844
2026-01-13 08:33:53.36	11.40	17.79	-34.0	-45.7	3.8	1.49e+00	0	42	104	0	29	13833
2026-01-13 08:33:54.37	11.21	17.72	-34.0	-45.7	3.8	1.49e+00	0	42	104	0	29	13849
2026-01-13 08:33:55.37	11.02	17.66	-34.0	-45.7	3.8	1.49e+00	0	42	104	0	29	13822
2026-01-13 08:33:56.39	10.82	17.59	-34.0	-45.7	3.8	1.49e+00	0	42	104	0	29	13866
2026-01-13 08:33:57.39	10.63	17.52	-34.0	-45.7	3.8	1.49e+00	0	42	104	0	29	13849
2026-01-13 08:33:58.40	10.44	17.46	-34.0	-45.7	3.8	1.49e+00	0	42	104	0	29	13835
2026-01-13 08:33:59.40	10.25	17.39	-34.0	-45.7	3.8	1.49e+00	0	42	104	0	29	13838
2026-01-13 08:34:00.41	10.06	17.32	-34.0	-45.7	3.8	1.49e+00	0	42	104	0	29	13875
2026-01-13 08:34:01.41	9.87	17.25	-34.0	-45.7	3.8	1.49e+00	0	42	104	0	29	13868
2026-01-13 08:34:02.42	9.69	17.19	-34.0	-45.7	3.8	1.49e+00	0	42	104	0	29	13905
2026-01-13 08:34:03.43	9.50	17.12	-34.0	-45.7	3.8	1.49e+00	0	42	104	0	29	13853
2026-01-13 08:34:04.44	9.31	17.05	-34.0	-45.7	3.8	1.49e+00	0	42	104	0	29	13864
2026-01-13 08:34:05.44	9.13	16.98	-34.0	-45.7	3.8	1.49e+00	0	42	104	0	29	13820
2026-01-13 08:34:06.45	8.94	16.92	-34.0	-45.7	3.8	1.49e+00	0	42	104	0	29	13871
2026-01-13 08:34:07.45	8.76	16.85	-34.0	-45.7	3.8	1.49e+00	0	42	104	0	29	13832
2026-01-13 08:34:08.46	8.58	16.78	-34.0	-45.7	3.8	1.49e+00	0	42	104	0	29	13832
2026-01-13 08:34:09.47	8.40	16.71	-34.0	-45.7	3.8	1.49e+00	0	42	104	0	29	13863
2026-01-13 08:34:10.48	8.22	16.64	-34.0	-45.7	3.8	1.49e+00	0	43	104	0	29	13861
2026-01-13 08:34:11.48	8.04	16.57	-34.0	-45.7	3.8	1.49e+00	0	42	104	0	29	13869
2026-01-13 08:34:12.49	7.86	16.51	-34.0	-45.7	3.8	1.49e+00	0	42	104	0	29	13849
2026-01-13 08:34:13.49	7.68	16.44	-34.0	-45.7	3.8	1.49e+00	0	42	104	0	29	13825
2026-01-13 08:34:14.51	7.50	16.37	-34.0	-45.7	3.8	1.49e+00	0	42	104	0	29	13856
2026-01-13 08:34:15.52	7.32	16.30	-34.0	-45.7	3.8	1.49e+00	0	42	104	0	29	13824
2026-01-13 08:34:16.52	7.15	16.23	-34.0	-45.7	3.8	1.49e+00	0	42	104	0	29	13821
2026-01-13 08:34:17.53	6.97	16.16	-34.0	-45.7	3.8	1.49e+00	0	42	104	0	29	13854
2026-01-13 08:34:18.54	6.80	16.09	-34.0	-45.7	3.8	1.49e+00	0	42	104	0	29	13885
2026-01-13 08:34:19.55	6.63	16.02	-34.0	-45.7	3.8	1.49e+00	0	42	104	0	29	13828
2026-01-13 08:34:20.55	6.45	15.95	-34.0	-45.7	3.8	1.49e+00	0	42	104	0	29	13855
2026-01-13 08:34:21.55	6.28	15.88	-34.0	-45.7	3.8	1.49e+00	0	42	104	0	29	13800
2026-01-13 08:34:22.56	6.11	15.81	-34.0	-45.7	3.8	1.49e+00	0	42	104	0	29	13842
2026-01-13 08:34:23.57	5.94	15.74	-34.0	-45.7	3.8	1.49e+00	0	42	104	0	29	13836
2026-01-13 08:34:24.57	5.77	15.68	-34.0	-45.7	3.8	1.49e+00	0	42	104	0	29	13846
2026-01-13 08:34:25.58	5.61	15.61	-34.0	-45.6	3.8	1.49e+00	0	42	104	0	29	13793
2026-01-13 08:34:26.58	5.44	15.54	-34.0	-45.7	3.8	1.49e+00	0	42	104	0	29	13849
2026-01-13 08:34:27.59	5.27	15.47	-34.0	-45.7	3.8	1.49e+00	0	42	104	0	29	13835
2026-01-13 08:34:28.60	5.10	15.40	-34.0	-45.7	3.8	1.49e+00	0	42	104	0	29	13835
2026-01-13 08:34:29.61	4.94	15.33	-34.0	-45.6	3.8	1.49e+00	0	42	104	0	29	13808
2026-01-13 08:34:30.61	4.78	15.26	-34.0	-45.7	3.8	1.49e+00	0	42	104	0	29	13828
2026-01-13 08:34:31.62	4.61	15.19	-34.0	-45.7	3.8	1.49e+00	0	42	104	0	29	13860
2026-01-13 08:34:32.62	4.45	15.12	-34.0	-45.7	3.8	1.49e+00	0	42	104	0	29	13856
2026-01-13 08:34:33.63	4.29	15.05	-34.0	-45.7	3.8	1.49e+00	0	42	104	0	29	13875
2026-01-13 08:34:34.63	4.13	14.98	-34.0	-45.7	3.8	1.49e+00	0	42	104	0	29	13852
2026-01-13 08:34:35.64	3.97	14.91	-34.0	-45.7	3.8	1.49e+00	0	42	104	0	29	13875
2026-01-13 08:34:36.65	3.81	14.84	-34.0	-45.7	3.8	1.49e+00	0	42	104	0	29	13845
2026-01-13 08:34:37.66	3.65	14.77	-34.0	-45.7	3.8	1.49e+00	0	42	104	0	29	13851
2026-01-13 08:34:38.66	3.49	14.70	-34.0	-45.7	3.8	1.49e+00	0	42	104	0	29	13864
2026-01-13 08:34:39.67	3.33	14.63	-34.0	-45.7	3.8	1.49e+00	0	42	104	0	29	13886
2026-01-13 08:34:40.68	3.17	14.56	-34.0	-45.7	3.8	1.49e+00	0	42	104	0	29	13839
2026-01-13 08:34:41.69	3.02	14.49	-34.0	-45.7	3.8	1.49e+00	0	42	104	0	29	13869
2026-01-13 08:34:42.68	2.86	14.42	-34.0	-45.7	3.8	1.49e+00	0	42	104	0	29	13847
2026-01-13 08:34:43.69	2.71	14.35	-34.0	-45.7	3.8	1.49e+00	0	42	104	0	29	13831
2026-01-13 08:34:44.70	2.56	14.28	-34.0	-45.7	3.8	1.49e+00	0	42	104	0	29	13887
2026-01-13 08:34:45.71	2.40	14.21	-34.0	-45.7	3.8	1.49e+00	0	43	104	0	29	13848
2026-01-13 08:34:46.71	2.25	14.14	-34.0	-45.7	3.8	1.49e+00	0	42	104	0	29	13859
2026-01-13 08:34:47.72	2.10	14.07	-34.0	-45.7	3.8	1.49e+00	0	42	104	0	29	13872
2026-01-13 08:34:48.72	1.95	14.00	-34.0	-45.7	3.8	1.49e+00	0	42	104	0	29	13878
2026-01-13 08:34:49.73	1.80	13.93	-34.0	-45.7	3.8	1.49e+00	0	42	104	0	29	13839
2026-01-13 08:34:50.74	1.65	13.86	-34.0	-45.7	3.8	1.49e+00	0	42	104	0	29	13870
2026-01-13 08:34:51.75	1.50	13.79	-34.0	-45.7	3.8	1.49e+00	0	42	104	0	29	13857
2026-01-13 08:34:52.75	1.35	13.72	-34.0	-45.7	3.8	1.49e+00	0	42	104	0	29	13853
2026-01-13 08:34:53.75	1.21	13.65	-34.0	-45.7	3.8	1.49e+00	0	42	104	0	29	13854
2026-01-13 08:34:54.75	1.06	13.58	-34.0	-45.7	3.8	1.49e+00	0	42	104	0	29	13843
2026-01-13 08:34:55.75	0.92	13.51	-34.0	-45.7	3.8	1.49e+00	0	42	104	0	29	13828
2026-01-13 08:34:56.75	0.77	13.44	-34.0	-45.7	3.8	1.49e+00	0	42	104	0	29	13839
2026-01-13 08:34:57.76	0.63	13.37	-34.0	-45.7	3.8	1.49e+00	0	42	104	0	29	13870
2026-01-13 08:34:58.77	0.48	13.30	-34.0	-45.7	3.8	1.49e+00	0	42	104	0	29	13827
2026-01-13 08:34:59.78	0.34	13.23	-34.0	-45.6	3.8	1.49e+00	0	42	104	0	29	13803
2026-01-13 08:35:00.79	0.20	13.16	-34.0	-45.7	3.8	1.49e+00	0	43	104	0	29	13859
2026-01-13 08:35:01.79	0.06	13.09	-34.0	-45.7	3.8	1.49e+00	0	42	104	0	29	13896
2026-01-13 08:35:02.80	359.91	13.02	-34.0	-45.7	3.8	1.49e+00	0	43	104	0	29	13871
2026-01-13 08:35:03.81	359.77	12.95	-34.0	-45.6	3.8	1.49e+00	0	42	104	0	29	13786
2026-01-13 08:35:04.81	359.63	12.88	-34.0	-45.7	3.8	1.49e+00	0	42	104	0	29	13839
2026-01-13 08:35:05.82	359.50	12.81	-34.0	-45.6	3.8	1.49e+00	0	42	104	0	29	13830
2026-01-13 08:35:06.82	359.36	12.74	-34.0	-45.6	3.8	1.49e+00	0	42	104	0	29	13795
2026-01-13 08:35:07.84	359.22	12.67	-34.0	-45.6	3.8	1.49e+00	0	43	104	0	29	13820
2026-01-13 08:35:08.84	359.08	12.60	-34.0	-45.7	3.8	1.49e+00	0	42	104	0	29	13880
2026-01-13 08:35:09.85	358.95	12.53	-33.9	-45.7	3.8	1.49e+00	0	42	104	0	29	13852
2026-01-13 08:35:10.86	358.81	12.46	-34.0	-45.7	3.8	1.49e+00	0	42	104	0	29	13845
2026-01-13 08:35:11.86	358.68	12.39	-34.0	-45.7	3.8	1.49e+00	0	42	104	0	29	13840
2026-01-13 08:35:12.86	358.54	12.32	-34.0	-45.7	3.8	1.49e+00	0	42	104	0	29	13870
2026-01-13 08:35:13.86	358.41	12.25	-34.0	-45.7	3.8	1.49e+00	0	42	104	0	29	13826
2026-01-13 08:35:14.87	358.28	12.18	-34.0	-45.7	3.8	1.49e+00	0	42	104	0	29	13828
2026-01-13 08:35:15.88	358.14	12.11	-34.0	-45.6	3.8	1.49e+00	0	42	104	0	29	13809
2026-01-13 08:35:16.88	358.01	12.04	-34.0	-45.7	3.8	1.49e+00	0	42	104	0	29	13858
2026-01-13 08:35:17.88	357.88	11.97	-34.0	-45.7	3.8	1.49e+00	0	42	104	0	29	13836
2026-01-13 08:35:18.89	357.75	11.90	-34.0	-45.7	3.8	1.49e+00	0	42	104	0	29	13838
2026-01-13 08:35:19.90	357.62	11.84	-34.0	-45.6	3.8	1.49e+00	0	42	104	0	29	13797
2026-01-13 08:35:20.91	357.49	11.77	-34.0	-45.6	3.8	1.49e+00	0	42	104	0	29	13785
2026-01-13 08:35:21.91	357.36	11.70	-34.0	-45.7	3.8	1.49e+00	0	42	104	0	29	13866
2026-01-13 08:35:22.92	357.24	11.63	-34.0	-45.7	3.8	1.49e+00	0	42	104	0	29	13850
2026-01-13 08:35:23.92	357.11	11.56	-34.0	-45.7	3.8	1.49e+00	0	43	104	0	29	13827
2026-01-13 08:35:24.92	356.98	11.49	-34.0	-45.7	3.8	1.49e+00	0	42	104	0	29	13851
2026-01-13 08:35:25.92	356.86	11.42	-34.0	-45.7	3.8	1.49e+00	0	43	104	0	29	13826
2026-01-13 08:35:26.94	356.73	11.35	-34.0	-45.7	3.8	1.49e+00	0	42	104	0	29	13832
2026-01-13 08:35:27.94	356.61	11.28	-34.0	-45.7	3.8	1.49e+00	0	42	104	0	29	13891
2026-01-13 08:35:28.95	356.48	11.22	-34.0	-45.6	3.8	1.49e+00	0	42	104	0	29	13811
2026-01-13 08:35:29.96	356.36	11.15	-34.0	-45.7	3.8	1.49e+00	0	42	104	0	29	13838
2026-01-13 08:35:30.96	356.24	11.08	-34.0	-45.6	3.8	1.49e+00	0	42	104	0	29	13795
2026-01-13 08:35:31.97	356.11	11.01	-34.0	-45.7	3.8	1.49e+00	0	42	104	0	29	13859
2026-01-13 08:35:32.98	355.99	10.94	-34.0	-45.7	3.8	1.49e+00	0	42	104	0	29	13856
2026-01-13 08:35:33.98	355.87	10.87	-34.0	-45.7	3.8	1.49e+00	0	42	104	0	29	13858
2026-01-13 08:35:34.99	355.75	10.80	-34.0	-45.7	3.8	1.49e+00	0	42	104	0	29	13845
2026-01-13 08:35:35.99	355.63	10.74	-34.0	-45.7	3.8	1.49e+00	0	42	104	0	29	13846
2026-01-13 08:35:37.00	355.51	10.67	-34.0	-45.7	3.8	1.49e+00	0	42	104	0	29	13854
2026-01-13 08:35:38.00	355.39	10.60	-34.0	-45.7	3.8	1.49e+00	0	42	104	0	29	13837
2026-01-13 08:35:39.01	355.27	10.53	-34.0	-45.7	3.8	1.49e+00	0	42	104	0	29	13871
2026-01-13 08:35:40.02	355.16	10.46	-34.0	-45.7	3.8	1.49e+00	0	42	104	0	29	13821
2026-01-13 08:35:41.03	355.04	10.40	-34.0	-45.6	3.7	1.49e+00	0	42	104	0	29	13816
2026-01-13 08:35:42.04	354.92	10.33	-34.0	-45.7	3.8	1.49e+00	0	42	104	0	29	13833
2026-01-13 08:35:43.05	354.80	10.26	-34.0	-45.6	3.8	1.49e+00	0	42	104	0	29	13811
2026-01-13 08:35:44.06	354.69	10.19	-34.0	-45.6	3.8	1.49e+00	0	42	104	0	29	13803
2026-01-13 08:35:45.06	354.57	10.12	-34.0	-45.7	3.8	1.49e+00	0	43	104	0	29	13849
2026-01-13 08:35:46.07	354.46	10.06	-34.0	-45.6	3.8	1.49e+00	0	42	104	0	29	13811
2026-01-13 08:35:47.08	354.34	9.99	-34.0	-45.7	3.8	1.49e+00	0	42	104	0	29	13839
2026-01-13 08:35:48.09	354.23	9.92	-34.0	-45.7	3.8	1.49e+00	0	42	104	0	29	13824
2026-01-13 08:35:49.10	354.12	9.85	-34.0	-45.7	3.8	1.49e+00	0	42	104	0	29	13807
2026-01-13 08:35:50.10	354.01	9.79	-34.0	-45.7	3.8	1.49e+00	0	42	104	0	29	13849
2026-01-13 08:35:51.11	353.89	9.72	-34.0	-45.7	3.8	1.49e+00	0	42	104	0	29	13862
2026-01-13 08:35:52.12	353.78	9.65	-34.0	-45.7	3.8	1.49e+00	0	42	104	0	29	13865
2026-01-13 08:35:53.13	353.67	9.58	-34.0	-45.7	3.8	1.49e+00	0	42	104	0	29	13843
2026-01-13 08:35:54.12	353.56	9.52	-34.0	-45.7	3.8	1.49e+00	0	42	104	0	29	13852
2026-01-13 08:35:55.13	353.45	9.45	-34.0	-45.7	3.8	1.49e+00	0	42	104	0	29	13849
2026-01-13 08:35:56.13	353.34	9.38	-34.0	-45.7	3.8	1.49e+00	0	42	104	0	29	13893
2026-01-13 08:35:57.14	353.24	9.32	-34.0	-45.7	3.8	1.49e+00	0	43	104	0	29	13829
2026-01-13 08:35:58.15	353.13	9.25	-34.0	-45.7	3.8	1.49e+00	0	42	104	0	29	13858
2026-01-13 08:35:59.16	353.02	9.18	-34.0	-45.7	3.8	1.49e+00	0	42	104	0	29	13824
2026-01-13 08:36:00.17	352.91	9.12	-34.0	-45.7	3.8	1.49e+00	0	42	104	0	29	13886
2026-01-13 08:36:01.17	352.81	9.05	-34.0	-45.7	3.8	1.49e+00	0	42	104	0	29	13863
2026-01-13 08:36:02.18	352.70	8.98	-34.0	-45.7	3.8	1.49e+00	0	43	104	0	29	13849
2026-01-13 08:36:03.18	352.59	8.92	-34.0	-45.7	3.8	1.49e+00	0	42	104	0	29	13837
2026-01-13 08:36:04.18	352.49	8.85	-34.0	-45.7	3.8	1.49e+00	0	42	104	0	29	13832
2026-01-13 08:36:05.19	352.38	8.79	-34.0	-45.7	3.8	1.49e+00	0	42	104	0	29	13835
2026-01-13 08:36:06.19	352.28	8.72	-34.0	-45.7	3.8	1.49e+00	0	42	104	0	29	13897
2026-01-13 08:36:07.20	352.18	8.65	-34.0	-45.7	3.8	1.49e+00	0	42	104	0	29	13849
2026-01-13 08:36:08.20	352.07	8.59	-34.0	-45.7	3.8	1.49e+00	0	42	104	0	29	13837
2026-01-13 08:36:09.20	351.97	8.52	-34.0	-45.7	3.8	1.49e+00	0	43	104	0	29	13839
2026-01-13 08:36:10.22	351.87	8.46	-34.0	-45.7	3.8	1.49e+00	0	42	104	0	29	13913
2026-01-13 08:36:11.22	351.77	8.39	-34.0	-45.7	3.8	1.49e+00	0	42	104	0	29	13849
2026-01-13 08:36:12.23	351.67	8.33	-34.0	-45.7	3.8	1.49e+00	0	42	104	0	29	13882
2026-01-13 08:36:13.24	351.56	8.26	-34.0	-45.7	3.8	1.49e+00	0	42	104	0	29	13894
2026-01-13 08:36:14.24	351.47	8.20	-34.0	-45.7	3.8	1.49e+00	0	42	104	0	29	13874
2026-01-13 08:36:15.25	351.36	8.13	-34.0	-45.7	3.8	1.49e+00	0	42	104	0	29	13847
2026-01-13 08:36:16.25	351.27	8.07	-34.0	-45.7	3.8	1.49e+00	0	43	104	0	29	13860
2026-01-13 08:36:17.25	351.17	8.00	-34.0	-45.7	3.8	1.49e+00	0	42	104	0	29	13839
2026-01-13 08:36:18.26	351.07	7.94	-34.0	-45.7	3.8	1.49e+00	0	42	104	0	29	13855
2026-01-13 08:36:19.27	350.97	7.87	-34.0	-45.7	3.8	1.49e+00	0	42	104	0	29	13816
2026-01-13 08:36:20.28	350.87	7.81	-34.0	-45.7	3.8	1.49e+00	0	42	104	0	29	13884
2026-01-13 08:36:21.29	350.78	7.74	-34.0	-45.7	3.8	1.49e+00	0	42	104	0	29	13839
2026-01-13 08:36:22.29	350.68	7.68	-34.0	-45.7	3.8	1.49e+00	0	42	104	0	29	13822
2026-01-13 08:36:23.30	350.58	7.61	-34.0	-45.7	3.8	1.49e+00	0	43	104	0	29	13884
2026-01-13 08:36:24.30	350.49	7.55	-34.0	-45.7	3.8	1.49e+00	0	42	104	0	29	13865
2026-01-13 08:36:25.31	350.39	7.48	-34.0	-45.7	3.8	1.49e+00	0	42	104	0	29	13872
2026-01-13 08:36:26.32	350.30	7.42	-34.0	-45.7	3.8	1.49e+00	0	42	104	0	29	13816
2026-01-13 08:36:27.33	350.20	7.35	-34.0	-45.7	3.8	1.49e+00	0	42	104	0	29	13823
2026-01-13 08:36:28.34	350.11	7.29	-34.0	-45.7	3.8	1.49e+00	0	42	104	0	29	13840
2026-01-13 08:36:29.34	350.01	7.23	-34.0	-45.7	3.8	1.49e+00	0	42	104	0	29	13829
2026-01-13 08:36:30.35	349.92	7.16	-34.0	-45.7	3.8	1.49e+00	0	42	104	0	29	13844
2026-01-13 08:36:31.36	349.83	7.10	-34.0	-45.7	3.8	1.49e+00	0	42	104	0	29	13860
2026-01-13 08:36:32.37	349.74	7.03	-34.0	-45.7	3.8	1.49e+00	0	42	104	0	29	13888

#Closed at: 2026-01-13 08:36:33
#Recorded file [0 MB]: D:/data/31010_260113_112643.dat