passes_logs/2026/01/13/R2M6_AANII_01/R2M6_AANII_01__20260113_114632_SUOMI_NPP_rec.log

#Pass ID: 20260113_114632_SUOMI NPP
#Satellite: SUOMI NPP
#Configuration: NPP
#almurnet v.1.7.20240730
#Start time: 2026-01-13 11:46:33

#Version: 2.2.20231116
#Station: R2M6_AANII_01
#Location: 30.233357 lon 59.946436 lat
#TLE: 1 37849U 11061A   26012.28456845  .00000093  00000+0  65163-4 0  9999
#TLE: 2 37849  98.7807 314.3566 0002508  68.3553 291.7890 14.19524725736322

#Time	Az	El	Level	Level2	SNR	BER	BlckErr	Temp	State	Recorded	gain1	gain2
2026-01-13 11:46:33.04	205.00	7.06	-34.0	-45.7	3.7	1.50e+00	0	40	0	0	29	13909
2026-01-13 11:46:34.04	205.08	7.12	-34.0	-45.7	3.8	1.49e+00	0	40	104	0	29	13876
2026-01-13 11:46:35.05	205.16	7.19	-34.0	-45.7	3.8	1.49e+00	0	40	104	0	29	13917
2026-01-13 11:46:36.06	205.25	7.26	-34.0	-45.7	3.8	1.49e+00	0	40	104	0	29	13905
2026-01-13 11:46:37.07	205.33	7.33	-34.0	-45.7	3.8	1.49e+00	0	40	104	0	29	13907
2026-01-13 11:46:38.08	205.42	7.40	-34.0	-45.8	3.8	1.49e+00	0	40	104	0	29	13935
2026-01-13 11:46:39.07	205.50	7.46	-34.0	-45.7	3.8	1.49e+00	0	40	104	0	29	13914
2026-01-13 11:46:40.08	205.59	7.53	-34.0	-45.7	3.8	1.49e+00	0	40	104	0	29	13882
2026-01-13 11:46:41.09	205.67	7.60	-34.0	-45.8	3.8	1.49e+00	0	40	104	0	29	13939
2026-01-13 11:46:42.09	205.76	7.67	-34.0	-45.8	3.8	1.49e+00	0	40	104	0	29	13924
2026-01-13 11:46:43.10	205.85	7.74	-34.0	-45.7	3.8	1.49e+00	0	40	104	0	29	13893
2026-01-13 11:46:44.11	205.93	7.81	-34.0	-45.8	3.8	1.49e+00	0	40	104	0	29	13937
2026-01-13 11:46:45.12	206.02	7.88	-34.0	-45.7	3.8	1.49e+00	0	40	104	0	29	13902
2026-01-13 11:46:46.12	206.11	7.95	-34.0	-45.7	3.8	1.49e+00	0	40	104	0	29	13881
2026-01-13 11:46:47.13	206.20	8.02	-34.0	-45.7	3.8	1.49e+00	0	40	104	0	29	13903
2026-01-13 11:46:48.14	206.29	8.09	-34.0	-45.8	3.8	1.49e+00	0	40	104	0	29	13953
2026-01-13 11:46:49.14	206.37	8.15	-34.0	-45.8	3.8	1.49e+00	0	40	104	0	29	13927
2026-01-13 11:46:50.15	206.46	8.22	-34.0	-45.7	3.8	1.49e+00	0	41	104	0	29	13890
2026-01-13 11:46:51.16	206.55	8.29	-34.0	-45.8	3.8	1.49e+00	0	41	104	0	29	13935
2026-01-13 11:46:52.17	206.64	8.36	-34.0	-45.7	3.8	1.49e+00	0	41	104	0	29	13874
2026-01-13 11:46:53.17	206.73	8.43	-34.0	-45.8	3.8	1.49e+00	0	41	104	0	29	13941
2026-01-13 11:46:54.17	206.83	8.50	-34.0	-45.8	3.8	1.49e+00	0	41	104	0	29	13973
2026-01-13 11:46:55.18	206.92	8.57	-34.0	-45.7	3.8	1.49e+00	0	41	104	0	29	13886
2026-01-13 11:46:56.19	207.01	8.65	-34.0	-45.7	3.8	1.49e+00	0	41	104	0	29	13888
2026-01-13 11:46:57.20	207.10	8.72	-34.0	-45.8	3.8	1.49e+00	0	41	104	0	29	13957
2026-01-13 11:46:58.20	207.19	8.79	-34.0	-45.8	3.8	1.49e+00	0	41	104	0	29	13940
2026-01-13 11:46:59.21	207.29	8.86	-34.0	-45.7	3.8	1.49e+00	0	41	104	0	29	13901
2026-01-13 11:47:00.22	207.38	8.93	-34.0	-45.8	3.8	1.49e+00	0	41	104	0	29	13938
2026-01-13 11:47:01.23	207.48	9.00	-34.0	-45.8	3.8	1.49e+00	0	41	104	0	29	13923
2026-01-13 11:47:02.23	207.57	9.07	-34.0	-45.8	3.8	1.49e+00	0	41	104	0	29	13926
2026-01-13 11:47:03.24	207.67	9.14	-34.0	-45.8	3.8	1.49e+00	0	41	104	0	29	13934
2026-01-13 11:47:04.25	207.76	9.21	-34.0	-45.7	3.8	1.49e+00	0	41	104	0	29	13884
2026-01-13 11:47:05.26	207.86	9.29	-34.0	-45.8	3.8	1.49e+00	0	41	104	0	29	13980
2026-01-13 11:47:06.26	207.95	9.36	-34.0	-45.8	3.8	1.49e+00	0	41	104	0	29	13923
2026-01-13 11:47:07.27	208.05	9.43	-34.0	-45.7	3.8	1.49e+00	0	41	104	0	29	13897
2026-01-13 11:47:08.28	208.15	9.50	-34.0	-45.8	3.8	1.49e+00	0	41	104	0	29	13925
2026-01-13 11:47:09.29	208.25	9.58	-34.0	-45.7	3.8	1.49e+00	0	41	104	0	29	13921
2026-01-13 11:47:10.29	208.34	9.65	-34.0	-45.7	3.8	1.49e+00	0	41	104	0	29	13913
2026-01-13 11:47:11.29	208.44	9.72	-34.0	-45.8	3.8	1.49e+00	0	41	104	0	29	13934
2026-01-13 11:47:12.29	208.54	9.79	-34.0	-45.8	3.8	1.49e+00	0	41	104	0	29	13930
2026-01-13 11:47:13.30	208.64	9.86	-34.0	-45.8	3.8	1.49e+00	0	41	104	0	29	13939
2026-01-13 11:47:14.30	208.74	9.94	-34.0	-45.8	3.8	1.49e+00	0	41	104	0	29	13929
2026-01-13 11:47:15.30	208.84	10.01	-34.0	-45.8	3.8	1.49e+00	0	41	104	0	29	13956
2026-01-13 11:47:16.31	208.94	10.08	-34.0	-45.8	3.8	1.49e+00	0	41	104	0	29	13929
2026-01-13 11:47:17.32	209.04	10.16	-34.0	-45.8	3.8	1.49e+00	0	41	104	0	29	13935
2026-01-13 11:47:18.33	209.15	10.23	-34.0	-45.8	3.8	1.49e+00	0	41	104	0	29	13937
2026-01-13 11:47:19.34	209.25	10.31	-34.0	-45.8	3.8	1.49e+00	0	41	104	0	29	13951
2026-01-13 11:47:20.35	209.35	10.38	-34.0	-45.8	3.8	1.49e+00	0	41	104	0	29	13955
2026-01-13 11:47:21.35	209.46	10.45	-34.0	-45.7	3.8	1.49e+00	0	41	104	0	29	13911
2026-01-13 11:47:22.36	209.56	10.53	-34.0	-45.8	3.8	1.49e+00	0	41	104	0	29	13949
2026-01-13 11:47:23.37	209.67	10.60	-34.0	-45.8	3.8	1.49e+00	0	41	104	0	29	13969
2026-01-13 11:47:24.38	209.77	10.68	-34.0	-45.8	3.8	1.49e+00	0	41	104	0	29	13913
2026-01-13 11:47:25.38	209.88	10.75	-34.0	-45.8	3.8	1.49e+00	0	41	104	0	29	13939
2026-01-13 11:47:26.39	209.98	10.83	-34.0	-45.8	3.8	1.49e+00	0	41	104	0	29	13927
2026-01-13 11:47:27.39	210.09	10.90	-34.0	-45.7	3.8	1.49e+00	0	41	104	0	29	13876
2026-01-13 11:47:28.39	210.20	10.97	-34.0	-45.7	3.8	1.49e+00	0	41	104	0	29	13880
2026-01-13 11:47:29.40	210.30	11.05	-34.0	-45.7	3.8	1.49e+00	0	42	104	0	29	13835
2026-01-13 11:47:30.40	210.41	11.12	-34.0	-45.8	3.8	1.49e+00	0	41	104	0	29	13927
2026-01-13 11:47:31.41	210.52	11.20	-34.0	-45.8	3.8	1.49e+00	0	41	104	0	29	13943
2026-01-13 11:47:32.42	210.63	11.28	-34.0	-45.7	3.8	1.49e+00	0	41	104	0	29	13878
2026-01-13 11:47:33.42	210.74	11.35	-34.0	-45.8	3.8	1.49e+00	0	41	104	0	29	13901
2026-01-13 11:47:34.43	210.85	11.43	-34.0	-45.8	3.8	1.49e+00	0	42	104	0	29	13905
2026-01-13 11:47:35.44	210.96	11.50	-34.0	-45.8	3.8	1.49e+00	0	41	104	0	29	13921
2026-01-13 11:47:36.45	211.07	11.58	-34.0	-45.8	3.8	1.49e+00	0	41	104	0	29	13921
2026-01-13 11:47:37.46	211.19	11.66	-34.0	-45.8	3.8	1.49e+00	0	41	104	0	29	13918
2026-01-13 11:47:38.46	211.30	11.73	-34.0	-45.7	3.8	1.49e+00	0	41	104	0	29	13903
2026-01-13 11:47:39.47	211.41	11.81	-34.0	-45.8	3.8	1.49e+00	0	41	104	0	29	13920
2026-01-13 11:47:40.47	211.52	11.88	-34.0	-45.8	3.8	1.49e+00	0	41	104	0	29	13915
2026-01-13 11:47:41.47	211.64	11.96	-34.0	-45.8	3.8	1.49e+00	0	42	104	0	29	13942
2026-01-13 11:47:42.48	211.75	12.04	-34.0	-45.8	3.8	1.49e+00	0	42	104	0	29	13940
2026-01-13 11:47:43.48	211.87	12.12	-34.0	-45.7	3.8	1.49e+00	0	42	104	0	29	13898
2026-01-13 11:47:44.48	211.98	12.19	-34.0	-45.8	3.8	1.49e+00	0	42	104	0	29	13971
2026-01-13 11:47:45.49	212.10	12.27	-34.0	-45.8	3.8	1.49e+00	0	42	104	0	29	13928
2026-01-13 11:47:46.50	212.22	12.35	-34.0	-45.8	3.8	1.49e+00	0	42	104	0	29	13902
2026-01-13 11:47:47.50	212.34	12.42	-34.0	-45.7	3.8	1.49e+00	0	41	104	0	29	13886
2026-01-13 11:47:48.51	212.45	12.50	-34.0	-45.8	3.8	1.49e+00	0	42	104	0	29	13914
2026-01-13 11:47:49.51	212.57	12.58	-34.0	-45.8	3.8	1.49e+00	0	42	104	0	29	13905
2026-01-13 11:47:50.52	212.69	12.66	-34.0	-45.8	3.8	1.49e+00	0	42	104	0	29	13981
2026-01-13 11:47:51.53	212.81	12.74	-34.0	-45.8	3.8	1.49e+00	0	42	104	0	29	13917
2026-01-13 11:47:52.53	212.93	12.81	-34.0	-45.8	3.8	1.49e+00	0	42	104	0	29	13962
2026-01-13 11:47:53.54	213.06	12.89	-34.0	-45.7	3.8	1.49e+00	0	42	104	0	29	13895
2026-01-13 11:47:54.54	213.18	12.97	-34.0	-45.8	3.8	1.49e+00	0	42	104	0	29	13918
2026-01-13 11:47:55.55	213.30	13.05	-34.0	-45.8	3.8	1.49e+00	0	42	104	0	29	13918
2026-01-13 11:47:56.56	213.42	13.13	-34.0	-45.8	3.8	1.49e+00	0	42	104	0	29	13939
2026-01-13 11:47:57.57	213.55	13.21	-34.0	-45.8	3.8	1.49e+00	0	42	104	0	29	13896
2026-01-13 11:47:58.58	213.67	13.29	-34.0	-45.8	3.8	1.49e+00	0	42	104	0	29	13906
2026-01-13 11:47:59.59	213.80	13.37	-34.0	-45.8	3.8	1.49e+00	0	42	104	0	29	13940
2026-01-13 11:48:00.59	213.93	13.45	-34.0	-45.8	3.8	1.49e+00	0	42	104	0	29	13917
2026-01-13 11:48:01.60	214.05	13.53	-34.0	-45.8	3.8	1.49e+00	0	42	104	0	29	13913
2026-01-13 11:48:02.60	214.18	13.61	-34.0	-45.8	3.8	1.49e+00	0	42	104	0	29	13941
2026-01-13 11:48:03.61	214.31	13.69	-34.0	-45.8	3.8	1.49e+00	0	42	104	0	29	13972
2026-01-13 11:48:04.61	214.44	13.77	-34.0	-45.8	3.8	1.49e+00	0	42	104	0	29	13919
2026-01-13 11:48:05.62	214.56	13.85	-34.0	-45.7	3.8	1.49e+00	0	42	104	0	29	13900
2026-01-13 11:48:06.63	214.70	13.93	-34.0	-45.8	3.8	1.49e+00	0	42	104	0	29	13900
2026-01-13 11:48:07.64	214.83	14.01	-34.0	-45.8	3.8	1.49e+00	0	42	104	0	29	13960
2026-01-13 11:48:08.64	214.96	14.09	-34.0	-45.8	3.8	1.49e+00	0	42	104	0	29	13935
2026-01-13 11:48:09.65	215.09	14.17	-34.0	-45.8	3.8	1.49e+00	0	42	104	0	29	13937
2026-01-13 11:48:10.66	215.22	14.25	-34.0	-45.8	3.8	1.49e+00	0	42	104	0	29	13936
2026-01-13 11:48:11.66	215.36	14.33	-34.0	-45.8	3.8	1.49e+00	0	42	104	0	29	13953
2026-01-13 11:48:12.67	215.49	14.41	-34.0	-45.7	3.8	1.49e+00	0	42	104	0	29	13866
2026-01-13 11:48:13.67	215.62	14.49	-34.0	-45.8	3.8	1.49e+00	0	42	104	0	29	13952
2026-01-13 11:48:14.68	215.76	14.57	-34.0	-45.8	3.8	1.49e+00	0	42	104	0	29	13944
2026-01-13 11:48:15.68	215.90	14.65	-34.0	-45.8	3.8	1.49e+00	0	42	104	0	29	13925
2026-01-13 11:48:16.69	216.03	14.74	-34.0	-45.8	3.8	1.49e+00	0	42	104	0	29	13931
2026-01-13 11:48:17.70	216.17	14.82	-34.0	-45.8	3.8	1.49e+00	0	42	104	0	29	13920
2026-01-13 11:48:18.71	216.31	14.90	-34.0	-45.8	3.8	1.49e+00	0	42	104	0	29	13932
2026-01-13 11:48:19.71	216.45	14.98	-34.0	-45.8	3.8	1.49e+00	0	42	104	0	29	13919
2026-01-13 11:48:20.71	216.59	15.06	-34.0	-45.8	3.8	1.49e+00	0	42	104	0	29	13899
2026-01-13 11:48:21.72	216.73	15.14	-34.0	-45.8	3.8	1.49e+00	0	42	104	0	29	13938
2026-01-13 11:48:22.73	216.87	15.23	-34.0	-45.8	3.8	1.49e+00	0	42	104	0	29	13904
2026-01-13 11:48:23.73	217.01	15.31	-34.0	-45.8	3.8	1.49e+00	0	42	104	0	29	13920
2026-01-13 11:48:24.74	217.16	15.39	-34.0	-45.8	3.8	1.49e+00	0	42	104	0	29	13938
2026-01-13 11:48:25.74	217.30	15.47	-34.0	-45.8	3.8	1.49e+00	0	42	104	0	29	13949
2026-01-13 11:48:26.75	217.44	15.56	-34.0	-45.8	3.8	1.49e+00	0	42	104	0	29	13938
2026-01-13 11:48:27.75	217.59	15.64	-34.0	-45.8	3.8	1.49e+00	0	42	104	0	29	13950
2026-01-13 11:48:28.76	217.74	15.72	-34.0	-45.8	3.8	1.49e+00	0	42	104	0	29	13950
2026-01-13 11:48:29.76	217.88	15.81	-34.0	-45.8	3.8	1.49e+00	0	42	104	0	29	13901
2026-01-13 11:48:30.77	218.03	15.89	-34.0	-45.8	3.8	1.49e+00	0	42	104	0	29	13986
2026-01-13 11:48:31.78	218.18	15.97	-34.0	-45.8	3.8	1.49e+00	0	42	104	0	29	13885
2026-01-13 11:48:32.79	218.33	16.06	-34.0	-45.8	3.8	1.49e+00	0	42	104	0	29	13917
2026-01-13 11:48:33.80	218.48	16.14	-34.0	-45.8	3.8	1.49e+00	0	42	104	0	29	13949
2026-01-13 11:48:34.81	218.63	16.22	-34.0	-45.8	3.8	1.49e+00	0	42	104	0	29	13950
2026-01-13 11:48:35.82	218.78	16.31	-34.0	-45.8	3.8	1.49e+00	0	42	104	0	29	13915
2026-01-13 11:48:36.83	218.94	16.39	-34.0	-45.8	3.8	1.49e+00	0	42	104	0	29	13986
2026-01-13 11:48:37.84	219.09	16.48	-34.0	-45.8	3.8	1.49e+00	0	42	104	0	29	13925
2026-01-13 11:48:38.85	219.25	16.56	-34.0	-45.8	3.8	1.49e+00	0	42	104	0	29	13932
2026-01-13 11:48:39.85	219.40	16.64	-34.0	-45.8	3.8	1.49e+00	0	42	104	0	29	13930
2026-01-13 11:48:40.86	219.56	16.73	-34.0	-45.8	3.8	1.49e+00	0	42	104	0	29	13911
2026-01-13 11:48:41.87	219.71	16.81	-34.0	-45.8	3.8	1.49e+00	0	42	104	0	29	13897
2026-01-13 11:48:42.88	219.87	16.90	-34.0	-45.8	3.8	1.49e+00	0	42	104	0	29	13905
2026-01-13 11:48:43.89	220.03	16.98	-34.0	-45.8	3.8	1.49e+00	0	42	104	0	29	13962
2026-01-13 11:48:44.89	220.19	17.07	-34.0	-45.8	3.8	1.49e+00	0	42	104	0	29	13911
2026-01-13 11:48:45.89	220.35	17.15	-34.0	-45.8	3.8	1.49e+00	0	42	104	0	29	13924
2026-01-13 11:48:46.90	220.51	17.23	-34.0	-45.8	3.8	1.49e+00	0	42	104	0	29	13956
2026-01-13 11:48:47.91	220.67	17.32	-34.0	-45.8	3.8	1.49e+00	0	42	104	0	29	13936
2026-01-13 11:48:48.91	220.83	17.40	-34.0	-45.8	3.8	1.49e+00	0	42	104	0	29	13991
2026-01-13 11:48:49.91	221.00	17.49	-34.0	-45.8	3.8	1.49e+00	0	42	104	0	29	13916
2026-01-13 11:48:50.92	221.16	17.57	-34.0	-45.8	3.8	1.49e+00	0	42	104	0	29	13909
2026-01-13 11:48:51.92	221.33	17.66	-34.0	-45.8	3.8	1.49e+00	0	42	104	0	29	13972
2026-01-13 11:48:52.93	221.49	17.74	-34.0	-45.8	3.8	1.49e+00	0	42	104	0	29	13953
2026-01-13 11:48:53.94	221.66	17.83	-34.0	-45.8	3.8	1.49e+00	0	42	104	0	29	13970
2026-01-13 11:48:54.94	221.83	17.91	-34.0	-45.8	3.8	1.49e+00	0	42	104	0	29	13917
2026-01-13 11:48:55.95	222.00	18.00	-34.0	-45.8	3.8	1.49e+00	0	42	104	0	29	13959
2026-01-13 11:48:56.95	222.17	18.08	-34.0	-45.8	3.8	1.49e+00	0	42	104	0	29	13981
2026-01-13 11:48:57.97	222.34	18.17	-34.0	-45.8	3.8	1.49e+00	0	42	104	0	29	13932
2026-01-13 11:48:58.97	222.51	18.25	-34.0	-45.8	3.8	1.49e+00	0	42	104	0	29	13922
2026-01-13 11:48:59.98	222.69	18.34	-34.0	-45.8	3.8	1.49e+00	0	42	104	0	29	13911
2026-01-13 11:49:00.99	222.86	18.43	-34.0	-45.8	3.8	1.49e+00	0	42	104	0	29	13912
2026-01-13 11:49:01.99	223.03	18.51	-34.0	-45.7	3.8	1.49e+00	0	42	104	0	29	13893
2026-01-13 11:49:03.00	223.21	18.60	-34.0	-45.8	3.8	1.49e+00	0	42	104	0	29	13935
2026-01-13 11:49:04.01	223.39	18.68	-34.0	-45.8	3.8	1.49e+00	0	42	104	0	29	13940
2026-01-13 11:49:05.02	223.57	18.77	-34.0	-45.8	3.8	1.49e+00	0	42	104	0	29	13943
2026-01-13 11:49:06.03	223.75	18.85	-34.0	-45.8	3.8	1.49e+00	0	42	104	0	29	13898
2026-01-13 11:49:07.04	223.93	18.94	-34.0	-45.8	3.8	1.49e+00	0	42	104	0	29	13945
2026-01-13 11:49:08.04	224.11	19.03	-34.0	-45.8	3.8	1.49e+00	0	42	104	0	29	13905
2026-01-13 11:49:09.05	224.29	19.11	-34.0	-45.8	3.8	1.49e+00	0	42	104	0	29	13904
2026-01-13 11:49:10.05	224.47	19.20	-34.0	-45.8	3.8	1.49e+00	0	42	104	0	29	13961
2026-01-13 11:49:11.06	224.65	19.28	-34.0	-45.8	3.8	1.49e+00	0	42	104	0	29	13928
2026-01-13 11:49:12.06	224.84	19.37	-34.0	-45.8	3.8	1.49e+00	0	42	104	0	29	13918
2026-01-13 11:49:13.07	225.02	19.45	-34.0	-45.8	3.8	1.49e+00	0	42	104	0	29	13909
2026-01-13 11:49:14.07	225.21	19.54	-34.0	-45.8	3.8	1.49e+00	0	42	104	0	29	13917
2026-01-13 11:49:15.08	225.40	19.63	-34.0	-45.8	3.8	1.49e+00	0	42	104	0	29	13927
2026-01-13 11:49:16.08	225.59	19.71	-34.0	-45.8	3.8	1.49e+00	0	42	104	0	29	13948
2026-01-13 11:49:17.09	225.78	19.80	-34.0	-45.8	3.8	1.49e+00	0	42	104	0	29	13908
2026-01-13 11:49:18.10	225.97	19.88	-34.0	-45.8	3.8	1.49e+00	0	42	104	0	29	13931
2026-01-13 11:49:19.11	226.16	19.97	-34.0	-45.8	3.8	1.49e+00	0	42	104	0	29	13958
2026-01-13 11:49:20.11	226.35	20.05	-34.0	-45.8	3.8	1.49e+00	0	42	104	0	29	13912
2026-01-13 11:49:21.12	226.55	20.14	-34.0	-45.8	3.8	1.49e+00	0	42	104	0	29	13973
2026-01-13 11:49:22.13	226.74	20.23	-34.0	-45.8	3.8	1.49e+00	0	42	104	0	29	13916
2026-01-13 11:49:23.14	226.94	20.31	-34.0	-45.8	3.8	1.49e+00	0	42	104	0	29	13904
2026-01-13 11:49:24.15	227.14	20.40	-34.0	-45.8	3.8	1.49e+00	0	42	104	0	29	13935
2026-01-13 11:49:25.15	227.33	20.48	-34.0	-45.7	3.8	1.49e+00	0	42	104	0	29	13889
2026-01-13 11:49:26.16	227.53	20.57	-34.0	-45.8	3.8	1.49e+00	0	42	104	0	29	13953
2026-01-13 11:49:27.17	227.73	20.65	-34.0	-45.8	3.8	1.49e+00	0	42	104	0	29	13955
2026-01-13 11:49:28.18	227.94	20.74	-34.0	-45.8	3.7	1.49e+00	0	42	104	0	29	13927
2026-01-13 11:49:29.18	228.14	20.82	-34.0	-45.8	3.8	1.49e+00	0	42	104	0	29	13945
2026-01-13 11:49:30.19	228.34	20.91	-34.0	-45.8	3.8	1.49e+00	0	42	104	0	29	13936
2026-01-13 11:49:31.19	228.55	20.99	-34.0	-45.8	3.8	1.49e+00	0	42	104	0	29	13936
2026-01-13 11:49:32.20	228.75	21.08	-34.0	-45.8	3.8	1.49e+00	0	42	104	0	29	13967
2026-01-13 11:49:33.21	228.96	21.17	-34.0	-45.7	3.8	1.49e+00	0	42	104	0	29	13901
2026-01-13 11:49:34.22	229.17	21.25	-34.0	-45.8	3.8	1.49e+00	0	42	104	0	29	13932
2026-01-13 11:49:35.22	229.38	21.33	-34.0	-45.8	3.8	1.49e+00	0	42	104	0	29	13927
2026-01-13 11:49:36.23	229.59	21.42	-34.0	-45.8	3.8	1.49e+00	0	42	104	0	29	13942
2026-01-13 11:49:37.23	229.80	21.50	-34.0	-45.7	3.8	1.49e+00	0	42	104	0	29	13867
2026-01-13 11:49:38.23	230.01	21.59	-34.0	-45.8	3.8	1.49e+00	0	42	104	0	29	13928
2026-01-13 11:49:39.23	230.22	21.67	-34.0	-45.8	3.8	1.49e+00	0	42	104	0	29	13918
2026-01-13 11:49:40.24	230.44	21.76	-34.0	-45.8	3.8	1.49e+00	0	42	104	0	29	13934
2026-01-13 11:49:41.25	230.65	21.84	-34.0	-45.8	3.8	1.49e+00	0	42	104	0	29	13983
2026-01-13 11:49:42.26	230.87	21.92	-34.0	-45.8	3.8	1.49e+00	0	42	104	0	29	13919
2026-01-13 11:49:43.27	231.09	22.01	-34.0	-45.8	3.8	1.49e+00	0	42	104	0	29	13920
2026-01-13 11:49:44.28	231.31	22.09	-34.0	-45.8	3.8	1.49e+00	0	42	104	0	29	13921
2026-01-13 11:49:45.28	231.53	22.18	-34.0	-45.8	3.8	1.49e+00	0	42	104	0	29	13948
2026-01-13 11:49:46.29	231.75	22.26	-34.0	-45.8	3.8	1.49e+00	0	42	104	0	29	13930
2026-01-13 11:49:47.29	231.97	22.34	-34.0	-45.8	3.8	1.49e+00	0	42	104	0	29	13952
2026-01-13 11:49:48.30	232.20	22.43	-34.0	-45.8	3.8	1.49e+00	0	42	104	0	29	13925
2026-01-13 11:49:49.31	232.43	22.51	-34.0	-45.8	3.8	1.49e+00	0	42	104	0	29	13934
2026-01-13 11:49:50.32	232.65	22.59	-34.0	-45.8	3.8	1.49e+00	0	42	104	0	29	13916
2026-01-13 11:49:51.33	232.88	22.67	-34.0	-45.8	3.8	1.49e+00	0	42	104	0	29	13910
2026-01-13 11:49:52.34	233.11	22.76	-34.0	-45.8	3.8	1.49e+00	0	42	104	0	29	13940
2026-01-13 11:49:53.34	233.34	22.84	-34.0	-45.8	3.8	1.49e+00	0	42	104	0	29	13919
2026-01-13 11:49:54.35	233.57	22.92	-34.0	-45.8	3.8	1.49e+00	0	42	104	0	29	13904
2026-01-13 11:49:55.36	233.80	23.00	-34.0	-45.8	3.8	1.49e+00	0	42	104	0	29	13941
2026-01-13 11:49:56.37	234.04	23.08	-34.0	-45.8	3.8	1.49e+00	0	42	104	0	29	13926
2026-01-13 11:49:57.37	234.27	23.17	-34.0	-45.8	3.8	1.49e+00	0	42	104	0	29	13926
2026-01-13 11:49:58.38	234.51	23.25	-34.0	-45.8	3.8	1.49e+00	0	42	104	0	29	13956
2026-01-13 11:49:59.39	234.75	23.33	-34.0	-45.8	3.8	1.49e+00	0	42	104	0	29	13940
2026-01-13 11:50:00.40	234.99	23.41	-34.0	-45.8	3.8	1.49e+00	0	42	104	0	29	13958
2026-01-13 11:50:01.40	235.22	23.49	-34.0	-45.7	3.8	1.49e+00	0	42	104	0	29	13875
2026-01-13 11:50:02.40	235.46	23.57	-34.0	-45.8	3.8	1.49e+00	0	42	104	0	29	13958
2026-01-13 11:50:03.41	235.71	23.65	-34.0	-45.8	3.8	1.49e+00	0	42	104	0	29	13908
2026-01-13 11:50:04.42	235.95	23.73	-34.0	-45.8	3.8	1.49e+00	0	43	104	0	29	13916
2026-01-13 11:50:05.43	236.20	23.81	-34.0	-45.8	3.8	1.49e+00	0	43	104	0	29	13944
2026-01-13 11:50:06.43	236.44	23.89	-34.0	-45.8	3.8	1.49e+00	0	42	104	0	29	13917
2026-01-13 11:50:07.44	236.69	23.96	-34.0	-45.8	3.8	1.49e+00	0	43	104	0	29	13927
2026-01-13 11:50:08.45	236.94	24.04	-34.0	-45.8	3.8	1.49e+00	0	42	104	0	29	13927
2026-01-13 11:50:09.45	237.18	24.12	-34.0	-45.8	3.8	1.49e+00	0	42	104	0	29	13948
2026-01-13 11:50:10.46	237.43	24.20	-34.0	-45.8	3.8	1.49e+00	0	42	104	0	29	13926
2026-01-13 11:50:11.46	237.68	24.28	-34.0	-45.8	3.8	1.49e+00	0	42	104	0	29	13910
2026-01-13 11:50:12.47	237.94	24.35	-34.0	-45.8	3.8	1.49e+00	0	42	104	0	29	13975
2026-01-13 11:50:13.48	238.19	24.43	-34.0	-45.8	3.8	1.49e+00	0	42	104	0	29	13925
2026-01-13 11:50:14.48	238.45	24.50	-34.0	-45.8	3.8	1.49e+00	0	42	104	0	29	13933
2026-01-13 11:50:15.49	238.70	24.58	-34.0	-45.7	3.8	1.49e+00	0	42	104	0	29	13895
2026-01-13 11:50:16.50	238.96	24.66	-34.0	-45.7	3.8	1.49e+00	0	42	104	0	29	13880
2026-01-13 11:50:17.51	239.22	24.73	-34.0	-45.8	3.8	1.49e+00	0	43	104	0	29	13924
2026-01-13 11:50:18.51	239.48	24.81	-34.0	-45.8	3.8	1.49e+00	0	42	104	0	29	13917
2026-01-13 11:50:19.52	239.74	24.88	-34.0	-45.8	3.8	1.49e+00	0	42	104	0	29	13934
2026-01-13 11:50:20.52	240.00	24.95	-34.0	-45.8	3.8	1.49e+00	0	42	104	0	29	13900
2026-01-13 11:50:21.53	240.27	25.03	-34.0	-45.8	3.8	1.49e+00	0	42	104	0	29	13917
2026-01-13 11:50:22.53	240.53	25.10	-34.0	-45.8	3.8	1.49e+00	0	42	104	0	29	13950
2026-01-13 11:50:23.55	240.80	25.17	-34.0	-45.8	3.8	1.49e+00	0	42	104	0	29	13900
2026-01-13 11:50:24.55	241.07	25.25	-34.0	-45.8	3.8	1.49e+00	0	42	104	0	29	13977
2026-01-13 11:50:25.55	241.33	25.32	-34.0	-45.8	3.8	1.49e+00	0	42	104	0	29	13934
2026-01-13 11:50:26.56	241.60	25.39	-34.0	-45.8	3.8	1.49e+00	0	42	104	0	29	13923
2026-01-13 11:50:27.57	241.87	25.46	-34.0	-45.7	3.8	1.49e+00	0	42	104	0	29	13888
2026-01-13 11:50:28.57	242.14	25.53	-34.0	-45.8	3.8	1.49e+00	0	42	104	0	29	13963
2026-01-13 11:50:29.58	242.42	25.60	-34.0	-45.8	3.8	1.49e+00	0	42	104	0	29	13887
2026-01-13 11:50:30.59	242.69	25.67	-34.0	-45.8	3.8	1.49e+00	0	42	104	0	29	13941
2026-01-13 11:50:31.59	242.97	25.74	-34.0	-45.8	3.8	1.49e+00	0	42	104	0	29	13951
2026-01-13 11:50:32.60	243.25	25.81	-34.0	-45.8	3.8	1.49e+00	0	43	104	0	29	13911
2026-01-13 11:50:33.61	243.52	25.87	-34.0	-45.8	3.8	1.49e+00	0	42	104	0	29	13899
2026-01-13 11:50:34.62	243.80	25.94	-34.0	-45.8	3.8	1.49e+00	0	42	104	0	29	13909
2026-01-13 11:50:35.63	244.09	26.01	-34.0	-45.8	3.8	1.49e+00	0	42	104	0	29	13930
2026-01-13 11:50:36.64	244.37	26.07	-34.0	-45.8	3.8	1.49e+00	0	42	104	0	29	13937
2026-01-13 11:50:37.64	244.65	26.14	-34.0	-45.7	3.8	1.49e+00	0	43	104	0	29	13884
2026-01-13 11:50:38.65	244.93	26.20	-34.0	-45.8	3.8	1.49e+00	0	42	104	0	29	13967
2026-01-13 11:50:39.66	245.22	26.27	-34.0	-45.7	3.8	1.49e+00	0	43	104	0	29	13884
2026-01-13 11:50:40.67	245.50	26.33	-34.0	-45.8	3.8	1.49e+00	0	42	104	0	29	13941
2026-01-13 11:50:41.67	245.79	26.40	-34.0	-45.8	3.8	1.49e+00	0	42	104	0	29	13905
2026-01-13 11:50:42.68	246.08	26.46	-34.0	-45.8	3.8	1.49e+00	0	43	104	0	29	13908
2026-01-13 11:50:43.68	246.37	26.52	-34.0	-45.8	3.8	1.49e+00	0	42	104	0	29	13892
2026-01-13 11:50:44.69	246.66	26.58	-34.0	-45.8	3.8	1.49e+00	0	43	104	0	29	13938
2026-01-13 11:50:45.69	246.95	26.64	-34.0	-45.8	3.8	1.49e+00	0	42	104	0	29	13913
2026-01-13 11:50:46.71	247.24	26.70	-34.0	-45.8	3.8	1.49e+00	0	42	104	0	29	13927
2026-01-13 11:50:47.71	247.53	26.76	-34.0	-45.8	3.8	1.49e+00	0	42	104	0	29	13927
2026-01-13 11:50:48.72	247.83	26.82	-34.0	-45.8	3.8	1.49e+00	0	43	104	0	29	13912
2026-01-13 11:50:49.73	248.13	26.88	-34.0	-45.8	3.8	1.49e+00	0	42	104	0	29	13925
2026-01-13 11:50:50.74	248.42	26.94	-34.0	-45.8	3.8	1.49e+00	0	43	104	0	29	13925
2026-01-13 11:50:51.74	248.72	26.99	-34.0	-45.8	3.8	1.49e+00	0	42	104	0	29	13909
2026-01-13 11:50:52.74	249.02	27.05	-34.0	-45.8	3.8	1.49e+00	0	42	104	0	29	13900
2026-01-13 11:50:53.75	249.32	27.10	-34.0	-45.7	3.8	1.49e+00	0	42	104	0	29	13890
2026-01-13 11:50:54.75	249.62	27.16	-34.0	-45.8	3.8	1.49e+00	0	42	104	0	29	13912
2026-01-13 11:50:55.76	249.92	27.21	-34.0	-45.8	3.8	1.49e+00	0	43	104	0	29	13960
2026-01-13 11:50:56.76	250.22	27.27	-34.0	-45.8	3.8	1.49e+00	0	42	104	0	29	13916
2026-01-13 11:50:57.77	250.53	27.32	-34.0	-45.8	3.8	1.49e+00	0	43	104	0	29	13939
2026-01-13 11:50:58.76	250.82	27.37	-34.0	-45.8	3.8	1.49e+00	0	42	104	0	29	13925
2026-01-13 11:50:59.77	251.13	27.42	-34.0	-45.8	3.8	1.49e+00	0	42	104	0	29	13947
2026-01-13 11:51:00.78	251.44	27.47	-34.0	-45.8	3.8	1.49e+00	0	42	104	0	29	13919
2026-01-13 11:51:01.78	251.74	27.52	-34.0	-45.8	3.8	1.49e+00	0	43	104	0	29	13890
2026-01-13 11:51:02.78	252.05	27.57	-34.0	-45.8	3.8	1.49e+00	0	42	104	0	29	13956
2026-01-13 11:51:03.79	252.36	27.62	-34.0	-45.8	3.8	1.49e+00	0	42	104	0	29	13895
2026-01-13 11:51:04.80	252.67	27.66	-34.0	-45.8	3.8	1.49e+00	0	43	104	0	29	13924
2026-01-13 11:51:05.81	252.98	27.71	-34.0	-45.8	3.8	1.49e+00	0	42	104	0	29	13918
2026-01-13 11:51:06.82	253.30	27.75	-34.0	-45.7	3.8	1.49e+00	0	42	104	0	29	13895
2026-01-13 11:51:07.83	253.61	27.80	-34.0	-45.8	3.8	1.49e+00	0	42	104	0	29	13951
2026-01-13 11:51:08.84	253.93	27.84	-34.0	-45.8	3.8	1.49e+00	0	43	104	0	29	13923
2026-01-13 11:51:09.84	254.24	27.89	-34.0	-45.7	3.8	1.49e+00	0	42	104	0	29	13884
2026-01-13 11:51:10.85	254.56	27.93	-34.0	-45.8	3.8	1.49e+00	0	42	104	0	29	13952
2026-01-13 11:51:11.85	254.87	27.97	-34.0	-45.8	3.8	1.49e+00	0	42	104	0	29	13943
2026-01-13 11:51:12.85	255.18	28.01	-34.0	-45.8	3.8	1.49e+00	0	42	104	0	29	13905
2026-01-13 11:51:13.85	255.50	28.05	-34.0	-45.8	3.8	1.49e+00	0	43	104	0	29	13940
2026-01-13 11:51:14.85	255.82	28.09	-34.0	-45.8	3.8	1.49e+00	0	43	104	0	29	13930
2026-01-13 11:51:15.86	256.14	28.12	-34.0	-45.7	3.8	1.49e+00	0	42	104	0	29	13898
2026-01-13 11:51:16.87	256.46	28.16	-34.0	-45.8	3.8	1.49e+00	0	42	104	0	29	13968
2026-01-13 11:51:17.87	256.78	28.20	-34.0	-45.8	3.8	1.49e+00	0	42	104	0	29	13935
2026-01-13 11:51:18.88	257.10	28.23	-34.0	-45.8	3.8	1.49e+00	0	42	104	0	29	13905
2026-01-13 11:51:19.89	257.42	28.26	-34.0	-45.8	3.8	1.49e+00	0	42	104	0	29	13951
2026-01-13 11:51:20.89	257.74	28.30	-34.0	-45.8	3.8	1.49e+00	0	42	104	0	29	13930
2026-01-13 11:51:21.90	258.07	28.33	-34.0	-45.8	3.8	1.49e+00	0	43	104	0	29	13939
2026-01-13 11:51:22.91	258.39	28.36	-34.0	-45.7	3.8	1.49e+00	0	42	104	0	29	13899
2026-01-13 11:51:23.92	258.72	28.39	-34.0	-45.8	3.8	1.49e+00	0	43	104	0	29	13923
2026-01-13 11:51:24.92	259.04	28.42	-34.0	-45.8	3.8	1.49e+00	0	42	104	0	29	13929
2026-01-13 11:51:25.93	259.37	28.45	-34.0	-45.7	3.8	1.49e+00	0	43	104	0	29	13885
2026-01-13 11:51:26.94	259.69	28.48	-34.0	-45.8	3.8	1.49e+00	0	42	104	0	29	13905
2026-01-13 11:51:27.94	260.02	28.50	-34.0	-45.8	3.8	1.49e+00	0	42	104	0	29	13927
2026-01-13 11:51:28.95	260.35	28.53	-34.0	-45.8	3.8	1.49e+00	0	42	104	0	29	13938
2026-01-13 11:51:29.95	260.67	28.55	-34.0	-45.8	3.8	1.49e+00	0	42	104	0	29	13911
2026-01-13 11:51:30.96	261.00	28.58	-34.0	-45.7	3.8	1.49e+00	0	42	104	0	29	13875
2026-01-13 11:51:31.97	261.33	28.60	-34.0	-45.8	3.8	1.49e+00	0	43	104	0	29	13893
2026-01-13 11:51:32.98	261.66	28.62	-34.0	-45.8	3.8	1.49e+00	0	43	104	0	29	13950
2026-01-13 11:51:33.98	261.99	28.64	-34.0	-45.8	3.8	1.49e+00	0	43	104	0	29	13928
2026-01-13 11:51:34.98	262.32	28.66	-34.0	-45.8	3.8	1.49e+00	0	42	104	0	29	13925
2026-01-13 11:51:35.99	262.65	28.68	-34.0	-45.8	3.8	1.49e+00	0	42	104	0	29	13920
2026-01-13 11:51:36.99	262.98	28.70	-34.0	-45.8	3.8	1.49e+00	0	42	104	0	29	13906
2026-01-13 11:51:38.00	263.31	28.71	-34.0	-45.8	3.8	1.49e+00	0	43	104	0	29	13914
2026-01-13 11:51:39.01	263.64	28.73	-34.0	-45.8	3.8	1.49e+00	0	43	104	0	29	13934
2026-01-13 11:51:40.01	263.97	28.74	-34.0	-45.8	3.8	1.49e+00	0	43	104	0	29	13909
2026-01-13 11:51:41.02	264.30	28.76	-34.0	-45.8	3.8	1.49e+00	0	42	104	0	29	13918
2026-01-13 11:51:42.03	264.63	28.77	-34.0	-45.8	3.8	1.49e+00	0	43	104	0	29	13943
2026-01-13 11:51:43.04	264.97	28.78	-34.0	-45.8	3.8	1.49e+00	0	43	104	0	29	13922
2026-01-13 11:51:44.04	265.30	28.79	-34.0	-45.8	3.8	1.49e+00	0	43	104	0	29	13936
2026-01-13 11:51:45.05	265.63	28.80	-34.0	-45.8	3.8	1.49e+00	0	43	104	0	29	13947
2026-01-13 11:51:46.06	265.97	28.81	-34.0	-45.8	3.8	1.49e+00	0	43	104	0	29	13931
2026-01-13 11:51:47.06	266.30	28.81	-34.0	-45.8	3.8	1.49e+00	0	42	104	0	29	13914
2026-01-13 11:51:48.07	266.63	28.82	-34.0	-45.8	3.8	1.49e+00	0	43	104	0	29	13912
2026-01-13 11:51:49.08	266.97	28.83	-34.0	-45.8	3.8	1.49e+00	0	42	104	0	29	13927
2026-01-13 11:51:50.09	267.30	28.83	-34.0	-45.8	3.8	1.49e+00	0	42	104	0	29	13937
2026-01-13 11:51:51.10	267.63	28.83	-34.0	-45.8	3.8	1.49e+00	0	42	104	0	29	13941
2026-01-13 11:51:52.10	267.97	28.84	-34.0	-45.8	3.8	1.49e+00	0	43	104	0	29	13910
2026-01-13 11:51:53.11	268.30	28.84	-34.0	-45.8	3.8	1.49e+00	0	43	104	0	29	13899
2026-01-13 11:51:54.11	268.63	28.84	-34.0	-45.8	3.8	1.49e+00	0	43	104	0	29	13941
2026-01-13 11:51:55.12	268.97	28.84	-34.0	-45.8	3.8	1.49e+00	0	43	104	0	29	13898
2026-01-13 11:51:56.13	269.30	28.83	-34.0	-45.8	3.8	1.49e+00	0	42	104	0	29	13902
2026-01-13 11:51:57.13	269.63	28.83	-34.0	-45.8	3.8	1.49e+00	0	43	104	0	29	13909
2026-01-13 11:51:58.14	269.97	28.83	-34.0	-45.8	3.8	1.49e+00	0	43	104	0	29	13968
2026-01-13 11:51:59.14	270.30	28.82	-34.0	-45.8	3.8	1.49e+00	0	43	104	0	29	13944
2026-01-13 11:52:00.15	270.63	28.82	-34.0	-45.8	3.8	1.49e+00	0	42	104	0	29	13949
2026-01-13 11:52:01.15	270.96	28.81	-34.0	-45.8	3.8	1.49e+00	0	43	104	0	29	13935
2026-01-13 11:52:02.15	271.29	28.80	-34.0	-45.8	3.8	1.49e+00	0	42	104	0	29	13908
2026-01-13 11:52:03.16	271.63	28.79	-34.0	-45.8	3.8	1.49e+00	0	43	104	0	29	13931
2026-01-13 11:52:04.17	271.96	28.78	-34.0	-45.8	3.8	1.49e+00	0	43	104	0	29	13934
2026-01-13 11:52:05.17	272.29	28.77	-34.0	-45.8	3.8	1.49e+00	0	43	104	0	29	13903
2026-01-13 11:52:06.18	272.62	28.76	-34.0	-45.8	3.8	1.49e+00	0	43	104	0	29	13936
2026-01-13 11:52:07.18	272.95	28.74	-34.0	-45.8	3.8	1.49e+00	0	43	104	0	29	13941
2026-01-13 11:52:08.19	273.28	28.73	-34.0	-45.8	3.8	1.49e+00	0	43	104	0	29	13937
2026-01-13 11:52:09.20	273.62	28.71	-34.0	-45.7	3.8	1.49e+00	0	43	104	0	29	13887
2026-01-13 11:52:10.20	273.95	28.70	-34.0	-45.8	3.8	1.49e+00	0	43	104	0	29	13937
2026-01-13 11:52:11.20	274.27	28.68	-34.0	-45.8	3.8	1.49e+00	0	42	104	0	29	13952
2026-01-13 11:52:12.21	274.60	28.66	-34.0	-45.8	3.8	1.49e+00	0	42	104	0	29	13972
2026-01-13 11:52:13.22	274.94	28.64	-34.0	-45.8	3.8	1.49e+00	0	42	104	0	29	13945
2026-01-13 11:52:14.23	275.27	28.62	-34.0	-45.7	3.8	1.49e+00	0	43	104	0	29	13883
2026-01-13 11:52:15.24	275.60	28.60	-34.0	-45.8	3.8	1.49e+00	0	43	104	0	29	13941
2026-01-13 11:52:16.25	275.92	28.58	-34.0	-45.8	3.8	1.49e+00	0	43	104	0	29	13912
2026-01-13 11:52:17.26	276.25	28.56	-34.0	-45.8	3.8	1.49e+00	0	43	104	0	29	13971
2026-01-13 11:52:18.27	276.58	28.53	-34.0	-45.8	3.8	1.49e+00	0	43	104	0	29	13915
2026-01-13 11:52:19.28	276.91	28.51	-34.0	-45.8	3.8	1.49e+00	0	42	104	0	29	13941
2026-01-13 11:52:20.29	277.24	28.48	-34.0	-45.8	3.8	1.49e+00	0	43	104	0	29	13968
2026-01-13 11:52:21.30	277.56	28.45	-34.0	-45.8	3.8	1.49e+00	0	42	104	0	29	13942
2026-01-13 11:52:22.31	277.89	28.42	-34.0	-45.8	3.8	1.49e+00	0	42	104	0	29	13975
2026-01-13 11:52:23.32	278.22	28.40	-34.0	-45.8	3.8	1.49e+00	0	43	104	0	29	13935
2026-01-13 11:52:24.32	278.54	28.37	-34.0	-45.8	3.8	1.49e+00	0	43	104	0	29	13975
2026-01-13 11:52:25.32	278.86	28.33	-34.0	-45.8	3.8	1.49e+00	0	42	104	0	29	13940
2026-01-13 11:52:26.33	279.18	28.30	-34.0	-45.8	3.8	1.49e+00	0	43	104	0	29	13904
2026-01-13 11:52:27.34	279.51	28.27	-34.0	-45.8	3.8	1.49e+00	0	42	104	0	29	13930
2026-01-13 11:52:28.35	279.83	28.24	-34.0	-45.8	3.8	1.49e+00	0	42	104	0	29	13983
2026-01-13 11:52:29.35	280.15	28.20	-34.0	-45.8	3.8	1.49e+00	0	42	104	0	29	13918
2026-01-13 11:52:30.36	280.47	28.17	-34.0	-45.8	3.8	1.49e+00	0	42	104	0	29	13916
2026-01-13 11:52:31.36	280.79	28.13	-34.0	-45.8	3.8	1.49e+00	0	43	104	0	29	13927
2026-01-13 11:52:32.37	281.11	28.09	-34.0	-45.8	3.8	1.49e+00	0	43	104	0	29	13941
2026-01-13 11:52:33.38	281.42	28.05	-34.0	-45.8	3.8	1.49e+00	0	43	104	0	29	14009
2026-01-13 11:52:34.39	281.74	28.01	-34.0	-45.8	3.8	1.49e+00	0	43	104	0	29	13942
2026-01-13 11:52:35.39	282.06	27.98	-34.0	-45.8	3.8	1.49e+00	0	43	104	0	29	13937
2026-01-13 11:52:36.40	282.37	27.93	-34.0	-45.8	3.8	1.49e+00	0	43	104	0	29	13932
2026-01-13 11:52:37.41	282.69	27.89	-34.0	-45.8	3.8	1.49e+00	0	42	104	0	29	13968
2026-01-13 11:52:38.42	283.00	27.85	-34.0	-45.8	3.8	1.49e+00	0	43	104	0	29	13926
2026-01-13 11:52:39.42	283.32	27.81	-34.0	-45.8	3.8	1.49e+00	0	42	104	0	29	13950
2026-01-13 11:52:40.43	283.63	27.76	-34.0	-45.8	3.8	1.49e+00	0	43	104	0	29	13968
2026-01-13 11:52:41.43	283.94	27.72	-34.0	-45.8	3.8	1.49e+00	0	43	104	0	29	13911
2026-01-13 11:52:42.44	284.25	27.67	-34.0	-45.8	3.8	1.49e+00	0	43	104	0	29	13906
2026-01-13 11:52:43.45	284.56	27.62	-34.0	-45.8	3.8	1.49e+00	0	43	104	0	29	13931
2026-01-13 11:52:44.45	284.87	27.58	-34.0	-45.8	3.8	1.49e+00	0	43	104	0	29	13905
2026-01-13 11:52:45.46	285.18	27.53	-34.0	-45.8	3.8	1.49e+00	0	43	104	0	29	13928
2026-01-13 11:52:46.47	285.48	27.48	-34.0	-45.8	3.8	1.49e+00	0	43	104	0	29	13940
2026-01-13 11:52:47.48	285.79	27.43	-34.0	-45.8	3.8	1.49e+00	0	43	104	0	29	13921
2026-01-13 11:52:48.48	286.09	27.38	-34.0	-45.8	3.8	1.49e+00	0	43	104	0	29	13944
2026-01-13 11:52:49.49	286.40	27.33	-34.0	-45.8	3.8	1.49e+00	0	42	104	0	29	13945
2026-01-13 11:52:50.50	286.70	27.28	-34.0	-45.8	3.8	1.49e+00	0	43	104	0	29	13901
2026-01-13 11:52:51.51	287.01	27.22	-34.0	-45.8	3.8	1.49e+00	0	43	104	0	29	13918
2026-01-13 11:52:52.52	287.31	27.17	-34.0	-45.8	3.8	1.49e+00	0	42	104	0	29	13928
2026-01-13 11:52:53.52	287.61	27.12	-34.0	-45.8	3.8	1.49e+00	0	42	104	0	29	13943
2026-01-13 11:52:54.53	287.91	27.06	-34.0	-45.8	3.8	1.49e+00	0	43	104	0	29	13942
2026-01-13 11:52:55.53	288.20	27.01	-34.0	-45.8	3.8	1.49e+00	0	43	104	0	29	13897
2026-01-13 11:52:56.54	288.50	26.95	-34.0	-45.8	3.8	1.49e+00	0	43	104	0	29	13892
2026-01-13 11:52:57.54	288.79	26.89	-34.0	-45.8	3.8	1.49e+00	0	43	104	0	29	13968
2026-01-13 11:52:58.55	289.09	26.83	-34.0	-45.8	3.8	1.49e+00	0	43	104	0	29	13941
2026-01-13 11:52:59.56	289.38	26.78	-34.0	-45.8	3.8	1.49e+00	0	43	104	0	29	13940
2026-01-13 11:53:00.56	289.68	26.72	-34.0	-45.8	3.8	1.49e+00	0	43	104	0	29	13898
2026-01-13 11:53:01.57	289.97	26.66	-34.0	-45.7	3.8	1.49e+00	0	42	104	0	29	13882
2026-01-13 11:53:02.58	290.26	26.60	-34.0	-45.8	3.8	1.49e+00	0	43	104	0	29	13938
2026-01-13 11:53:03.59	290.55	26.54	-34.0	-45.8	3.8	1.49e+00	0	43	104	0	29	13924
2026-01-13 11:53:04.59	290.84	26.47	-34.0	-45.8	3.8	1.49e+00	0	43	104	0	29	13963
2026-01-13 11:53:05.60	291.12	26.41	-34.0	-45.8	3.8	1.49e+00	0	43	104	0	29	13942
2026-01-13 11:53:06.60	291.41	26.35	-34.0	-45.8	3.8	1.49e+00	0	43	104	0	29	13934
2026-01-13 11:53:07.61	291.69	26.29	-34.0	-45.8	3.8	1.49e+00	0	43	104	0	29	13909
2026-01-13 11:53:08.62	291.98	26.22	-34.0	-45.8	3.8	1.49e+00	0	42	104	0	29	13939
2026-01-13 11:53:09.62	292.26	26.16	-34.0	-45.8	3.8	1.49e+00	0	43	104	0	29	13951
2026-01-13 11:53:10.63	292.54	26.09	-34.0	-45.8	3.8	1.49e+00	0	42	104	0	29	13959
2026-01-13 11:53:11.63	292.82	26.03	-34.0	-45.8	3.8	1.49e+00	0	42	104	0	29	13932
2026-01-13 11:53:12.65	293.10	25.96	-34.0	-45.8	3.8	1.49e+00	0	43	104	0	29	13946
2026-01-13 11:53:13.65	293.38	25.89	-34.0	-45.8	3.8	1.49e+00	0	42	104	0	29	13943
2026-01-13 11:53:14.65	293.66	25.83	-34.0	-45.8	3.8	1.49e+00	0	42	104	0	29	13933
2026-01-13 11:53:15.66	293.93	25.76	-34.0	-45.8	3.8	1.49e+00	0	42	104	0	29	13973
2026-01-13 11:53:16.67	294.21	25.69	-34.0	-45.8	3.8	1.49e+00	0	43	104	0	29	13937
2026-01-13 11:53:17.68	294.48	25.62	-34.0	-45.8	3.8	1.49e+00	0	43	104	0	29	13936
2026-01-13 11:53:18.68	294.75	25.55	-34.0	-45.8	3.8	1.49e+00	0	42	104	0	29	13965
2026-01-13 11:53:19.69	295.03	25.48	-34.0	-45.8	3.8	1.49e+00	0	43	104	0	29	13940
2026-01-13 11:53:20.70	295.30	25.41	-34.0	-45.8	3.8	1.49e+00	0	43	104	0	29	13943
2026-01-13 11:53:21.71	295.57	25.34	-34.0	-45.8	3.8	1.49e+00	0	42	104	0	29	13951
2026-01-13 11:53:22.71	295.83	25.27	-34.0	-45.8	3.8	1.49e+00	0	43	104	0	29	13943
2026-01-13 11:53:23.72	296.10	25.20	-34.0	-45.8	3.8	1.49e+00	0	43	104	0	29	13951
2026-01-13 11:53:24.73	296.37	25.13	-34.0	-45.8	3.8	1.49e+00	0	43	104	0	29	13971
2026-01-13 11:53:25.73	296.63	25.05	-34.0	-45.8	3.8	1.49e+00	0	43	104	0	29	13942
2026-01-13 11:53:26.74	296.89	24.98	-34.0	-45.8	3.8	1.49e+00	0	42	104	0	29	13962
2026-01-13 11:53:27.75	297.15	24.91	-34.0	-45.8	3.8	1.49e+00	0	42	104	0	29	13937
2026-01-13 11:53:28.75	297.41	24.83	-34.0	-45.8	3.8	1.49e+00	0	43	104	0	29	13944
2026-01-13 11:53:29.76	297.67	24.76	-34.0	-45.8	3.8	1.49e+00	0	43	104	0	29	13955
2026-01-13 11:53:30.76	297.93	24.68	-34.0	-45.8	3.8	1.49e+00	0	43	104	0	29	13926
2026-01-13 11:53:31.76	298.18	24.61	-34.0	-45.8	3.8	1.49e+00	0	43	104	0	29	13921
2026-01-13 11:53:32.77	298.44	24.53	-34.0	-45.8	3.8	1.49e+00	0	43	104	0	29	13952
2026-01-13 11:53:33.77	298.69	24.46	-34.0	-45.8	3.8	1.49e+00	0	43	104	0	29	13955
2026-01-13 11:53:34.78	298.95	24.38	-34.1	-45.8	3.8	1.49e+00	0	42	104	0	29	13926
2026-01-13 11:53:35.78	299.20	24.31	-34.0	-45.8	3.8	1.49e+00	0	43	104	0	29	13885
2026-01-13 11:53:36.80	299.45	24.23	-34.0	-45.8	3.8	1.49e+00	0	43	104	0	29	13931
2026-01-13 11:53:37.80	299.70	24.15	-34.0	-45.8	3.8	1.49e+00	0	43	104	0	29	13911
2026-01-13 11:53:38.81	299.95	24.08	-34.0	-45.8	3.8	1.49e+00	0	43	104	0	29	13905
2026-01-13 11:53:39.81	300.20	24.00	-34.0	-45.8	3.8	1.49e+00	0	43	104	0	29	13940
2026-01-13 11:53:40.81	300.44	23.92	-34.0	-45.8	3.8	1.49e+00	0	43	104	0	29	13923
2026-01-13 11:53:41.82	300.69	23.84	-34.0	-45.8	3.8	1.49e+00	0	43	104	0	29	13932
2026-01-13 11:53:42.83	300.93	23.76	-34.0	-45.8	3.8	1.49e+00	0	43	104	0	29	13948
2026-01-13 11:53:43.84	301.17	23.68	-34.0	-45.8	3.8	1.49e+00	0	43	104	0	29	13954
2026-01-13 11:53:44.84	301.41	23.61	-34.0	-45.8	3.8	1.49e+00	0	43	104	0	29	13957
2026-01-13 11:53:45.84	301.65	23.53	-34.0	-45.8	3.8	1.49e+00	0	43	104	0	29	13929
2026-01-13 11:53:46.84	301.89	23.45	-34.0	-45.8	3.8	1.49e+00	0	43	104	0	29	13960
2026-01-13 11:53:47.85	302.13	23.37	-34.0	-45.8	3.8	1.49e+00	0	43	104	0	29	13925
2026-01-13 11:53:48.86	302.36	23.29	-34.0	-45.8	3.8	1.49e+00	0	43	104	0	29	13947
2026-01-13 11:53:49.87	302.60	23.21	-34.0	-45.8	3.8	1.49e+00	0	43	104	0	29	13959
2026-01-13 11:53:50.88	302.83	23.13	-34.0	-45.8	3.8	1.49e+00	0	43	104	0	29	13921
2026-01-13 11:53:51.88	303.07	23.04	-34.0	-45.8	3.8	1.49e+00	0	42	104	0	29	13964
2026-01-13 11:53:52.89	303.30	22.96	-34.0	-45.8	3.8	1.49e+00	0	43	104	0	29	13945
2026-01-13 11:53:53.89	303.53	22.88	-34.0	-45.8	3.8	1.49e+00	0	43	104	0	29	13937
2026-01-13 11:53:54.90	303.76	22.80	-34.0	-45.8	3.8	1.49e+00	0	43	104	0	29	13974
2026-01-13 11:53:55.90	303.98	22.72	-34.0	-45.8	3.7	1.49e+00	0	42	104	0	29	13921
2026-01-13 11:53:56.90	304.21	22.64	-34.0	-45.8	3.8	1.49e+00	0	43	104	0	29	13920
2026-01-13 11:53:57.91	304.44	22.56	-34.0	-45.8	3.8	1.49e+00	0	43	104	0	29	13934
2026-01-13 11:53:58.92	304.66	22.47	-34.0	-45.8	3.8	1.49e+00	0	43	104	0	29	13938
2026-01-13 11:53:59.93	304.89	22.39	-34.0	-45.8	3.8	1.49e+00	0	43	104	0	29	13988
2026-01-13 11:54:00.94	305.11	22.31	-34.0	-45.8	3.8	1.49e+00	0	43	104	0	29	13922
2026-01-13 11:54:01.95	305.33	22.22	-34.0	-45.8	3.8	1.49e+00	0	43	104	0	29	13923
2026-01-13 11:54:02.95	305.55	22.14	-34.0	-45.8	3.8	1.49e+00	0	43	104	0	29	13966
2026-01-13 11:54:03.96	305.77	22.06	-34.0	-45.8	3.8	1.49e+00	0	42	104	0	29	13954
2026-01-13 11:54:04.97	305.99	21.98	-34.0	-45.8	3.8	1.49e+00	0	43	104	0	29	13968
2026-01-13 11:54:05.97	306.20	21.89	-34.0	-45.8	3.8	1.49e+00	0	42	104	0	29	13932
2026-01-13 11:54:06.98	306.42	21.81	-34.0	-45.8	3.8	1.49e+00	0	42	104	0	29	13944
2026-01-13 11:54:07.99	306.63	21.73	-34.0	-45.8	3.8	1.49e+00	0	43	104	0	29	13964
2026-01-13 11:54:08.99	306.85	21.64	-34.0	-45.8	3.8	1.49e+00	0	42	104	0	29	13950
2026-01-13 11:54:10.00	307.06	21.56	-34.0	-45.8	3.8	1.49e+00	0	43	104	0	29	13937
2026-01-13 11:54:11.01	307.27	21.47	-34.0	-45.8	3.8	1.49e+00	0	43	104	0	29	13931
2026-01-13 11:54:12.01	307.48	21.39	-34.0	-45.8	3.8	1.49e+00	0	43	104	0	29	13894
2026-01-13 11:54:13.02	307.69	21.31	-34.0	-45.8	3.8	1.49e+00	0	43	104	0	29	13947
2026-01-13 11:54:14.02	307.89	21.22	-34.0	-45.8	3.8	1.49e+00	0	43	104	0	29	13961
2026-01-13 11:54:15.03	308.10	21.14	-34.0	-45.8	3.8	1.49e+00	0	42	104	0	29	13934
2026-01-13 11:54:16.03	308.31	21.05	-34.0	-45.8	3.8	1.49e+00	0	42	104	0	29	13969
2026-01-13 11:54:17.03	308.51	20.97	-34.0	-45.8	3.8	1.49e+00	0	43	104	0	29	13925
2026-01-13 11:54:18.03	308.71	20.89	-34.0	-45.8	3.8	1.49e+00	0	43	104	0	29	13967
2026-01-13 11:54:19.04	308.91	20.80	-34.0	-45.8	3.8	1.49e+00	0	43	104	0	29	13950
2026-01-13 11:54:20.04	309.11	20.72	-34.0	-45.8	3.8	1.49e+00	0	43	104	0	29	13983
2026-01-13 11:54:21.05	309.31	20.63	-34.0	-45.8	3.8	1.49e+00	0	43	104	0	29	13997
2026-01-13 11:54:22.05	309.51	20.55	-34.0	-45.8	3.8	1.49e+00	0	42	104	0	29	13939
2026-01-13 11:54:23.06	309.71	20.46	-34.0	-45.8	3.8	1.49e+00	0	43	104	0	29	13947
2026-01-13 11:54:24.07	309.91	20.38	-34.0	-45.8	3.8	1.49e+00	0	43	104	0	29	13926
2026-01-13 11:54:25.08	310.10	20.29	-34.0	-45.8	3.8	1.49e+00	0	43	104	0	29	13948
2026-01-13 11:54:26.08	310.30	20.21	-34.0	-45.8	3.8	1.49e+00	0	43	104	0	29	13941
2026-01-13 11:54:27.09	310.49	20.12	-34.0	-45.8	3.8	1.49e+00	0	43	104	0	29	13919
2026-01-13 11:54:28.10	310.68	20.04	-34.0	-45.8	3.8	1.49e+00	0	43	104	0	29	13979
2026-01-13 11:54:29.11	310.88	19.95	-34.0	-45.8	3.8	1.49e+00	0	42	104	0	29	13965
2026-01-13 11:54:30.11	311.07	19.87	-34.0	-45.8	3.8	1.49e+00	0	43	104	0	29	13970
2026-01-13 11:54:31.12	311.26	19.78	-34.0	-45.8	3.8	1.49e+00	0	43	104	0	29	13969
2026-01-13 11:54:32.12	311.44	19.70	-34.0	-45.8	3.8	1.49e+00	0	43	104	0	29	13969
2026-01-13 11:54:33.13	311.63	19.61	-34.0	-45.8	3.8	1.49e+00	0	43	104	0	29	13980
2026-01-13 11:54:34.14	311.82	19.53	-34.0	-45.8	3.8	1.49e+00	0	43	104	0	29	13923
2026-01-13 11:54:35.14	312.00	19.44	-34.0	-45.8	3.8	1.49e+00	0	43	104	0	29	13973
2026-01-13 11:54:36.15	312.19	19.36	-34.0	-45.8	3.8	1.49e+00	0	43	104	0	29	13942
2026-01-13 11:54:37.16	312.37	19.27	-34.0	-45.8	3.8	1.49e+00	0	43	104	0	29	13964
2026-01-13 11:54:38.17	312.55	19.19	-34.0	-45.8	3.8	1.49e+00	0	43	104	0	29	13959
2026-01-13 11:54:39.18	312.74	19.10	-34.0	-45.8	3.8	1.49e+00	0	43	104	0	29	13949
2026-01-13 11:54:40.19	312.92	19.02	-34.0	-45.8	3.8	1.49e+00	0	43	104	0	29	13955
2026-01-13 11:54:41.19	313.09	18.93	-34.0	-45.8	3.8	1.49e+00	0	43	104	0	29	13933
2026-01-13 11:54:42.20	313.27	18.85	-34.0	-45.8	3.8	1.49e+00	0	42	104	0	29	13959
2026-01-13 11:54:43.21	313.45	18.76	-34.0	-45.8	3.8	1.49e+00	0	43	104	0	29	13956
2026-01-13 11:54:44.22	313.63	18.68	-34.0	-45.8	3.8	1.49e+00	0	43	104	0	29	13969
2026-01-13 11:54:45.23	313.81	18.59	-34.0	-45.8	3.8	1.49e+00	0	42	104	0	29	13939
2026-01-13 11:54:46.23	313.98	18.51	-34.0	-45.8	3.8	1.49e+00	0	43	104	0	29	13936
2026-01-13 11:54:47.24	314.15	18.42	-34.0	-45.8	3.8	1.49e+00	0	43	104	0	29	13946
2026-01-13 11:54:48.24	314.32	18.34	-34.0	-45.8	3.8	1.49e+00	0	43	104	0	29	13952
2026-01-13 11:54:49.25	314.50	18.25	-34.0	-45.8	3.8	1.49e+00	0	43	104	0	29	13948
2026-01-13 11:54:50.26	314.67	18.17	-34.0	-45.8	3.8	1.49e+00	0	43	104	0	29	13952
2026-01-13 11:54:51.26	314.84	18.08	-34.0	-45.8	3.8	1.49e+00	0	43	104	0	29	13945
2026-01-13 11:54:52.27	315.01	18.00	-34.0	-45.8	3.8	1.49e+00	0	43	104	0	29	13967
2026-01-13 11:54:53.28	315.18	17.91	-34.0	-45.8	3.8	1.49e+00	0	43	104	0	29	13973
2026-01-13 11:54:54.29	315.34	17.83	-34.0	-45.8	3.8	1.49e+00	0	43	104	0	29	13972
2026-01-13 11:54:55.29	315.51	17.75	-34.0	-45.8	3.8	1.49e+00	0	43	104	0	29	13956
2026-01-13 11:54:56.30	315.67	17.66	-34.0	-45.8	3.8	1.49e+00	0	42	104	0	29	13943
2026-01-13 11:54:57.31	315.84	17.58	-34.0	-45.8	3.8	1.49e+00	0	43	104	0	29	13927
2026-01-13 11:54:58.32	316.00	17.49	-34.0	-45.8	3.8	1.49e+00	0	43	104	0	29	13967
2026-01-13 11:54:59.32	316.16	17.41	-34.0	-45.8	3.8	1.49e+00	0	43	104	0	29	13993
2026-01-13 11:55:00.33	316.33	17.32	-34.0	-45.8	3.8	1.49e+00	0	43	104	0	29	13975
2026-01-13 11:55:01.33	316.49	17.24	-34.0	-45.8	3.8	1.49e+00	0	43	104	0	29	13950
2026-01-13 11:55:02.33	316.65	17.16	-34.0	-45.8	3.8	1.49e+00	0	43	104	0	29	13915
2026-01-13 11:55:03.34	316.81	17.07	-34.0	-45.8	3.8	1.49e+00	0	43	104	0	29	13991
2026-01-13 11:55:04.35	316.96	16.99	-34.0	-45.8	3.8	1.49e+00	0	43	104	0	29	13956
2026-01-13 11:55:05.36	317.12	16.91	-34.0	-45.8	3.8	1.49e+00	0	43	104	0	29	13999
2026-01-13 11:55:06.36	317.28	16.82	-34.0	-45.8	3.8	1.49e+00	0	43	104	0	29	13981
2026-01-13 11:55:07.37	317.43	16.74	-34.0	-45.8	3.8	1.49e+00	0	43	104	0	29	13953
2026-01-13 11:55:08.37	317.59	16.66	-34.0	-45.8	3.8	1.49e+00	0	43	104	0	29	13947
2026-01-13 11:55:09.38	317.74	16.57	-34.0	-45.8	3.8	1.49e+00	0	43	104	0	29	13966
2026-01-13 11:55:10.39	317.90	16.49	-34.0	-45.8	3.8	1.49e+00	0	43	104	0	29	13966
2026-01-13 11:55:11.39	318.05	16.41	-34.0	-45.8	3.8	1.49e+00	0	43	104	0	29	14006
2026-01-13 11:55:12.40	318.20	16.32	-34.0	-45.8	3.8	1.49e+00	0	43	104	0	29	13992
2026-01-13 11:55:13.41	318.35	16.24	-34.0	-45.8	3.8	1.49e+00	0	43	104	0	29	13959
2026-01-13 11:55:14.42	318.50	16.16	-34.0	-45.8	3.8	1.49e+00	0	42	104	0	29	13957
2026-01-13 11:55:15.42	318.65	16.07	-34.0	-45.8	3.8	1.49e+00	0	43	104	0	29	13966
2026-01-13 11:55:16.43	318.80	15.99	-34.0	-45.8	3.7	1.49e+00	0	43	104	0	29	14010
2026-01-13 11:55:17.44	318.95	15.91	-34.0	-45.8	3.8	1.49e+00	0	43	104	0	29	13956
2026-01-13 11:55:18.45	319.10	15.83	-34.1	-45.8	3.8	1.49e+00	0	43	104	0	29	13934
2026-01-13 11:55:19.45	319.24	15.74	-34.0	-45.8	3.8	1.49e+00	0	43	104	0	29	13962
2026-01-13 11:55:20.46	319.39	15.66	-34.0	-45.8	3.8	1.49e+00	0	43	104	0	29	13979
2026-01-13 11:55:21.47	319.53	15.58	-34.1	-45.8	3.8	1.49e+00	0	43	104	0	29	13964
2026-01-13 11:55:22.48	319.68	15.50	-34.0	-45.8	3.8	1.49e+00	0	43	104	0	29	13979
2026-01-13 11:55:23.49	319.82	15.42	-34.0	-45.8	3.8	1.49e+00	0	43	104	0	29	13980
2026-01-13 11:55:24.50	319.96	15.33	-34.0	-45.8	3.8	1.49e+00	0	43	104	0	29	13977
2026-01-13 11:55:25.50	320.10	15.25	-34.1	-45.8	3.8	1.49e+00	0	42	104	0	29	13930
2026-01-13 11:55:26.51	320.24	15.17	-34.0	-45.8	3.8	1.49e+00	0	43	104	0	29	13963
2026-01-13 11:55:27.52	320.38	15.09	-34.1	-45.8	3.8	1.49e+00	0	43	104	0	29	13946
2026-01-13 11:55:28.53	320.52	15.01	-34.0	-45.8	3.8	1.49e+00	0	43	104	0	29	13983
2026-01-13 11:55:29.53	320.66	14.93	-34.1	-45.8	3.8	1.49e+00	0	43	104	0	29	13923
2026-01-13 11:55:30.54	320.80	14.85	-34.0	-45.8	3.8	1.49e+00	0	43	104	0	29	13986
2026-01-13 11:55:31.54	320.94	14.77	-34.0	-45.8	3.8	1.49e+00	0	43	104	0	29	13984
2026-01-13 11:55:32.55	321.07	14.68	-34.0	-45.8	3.8	1.49e+00	0	43	104	0	29	13981
2026-01-13 11:55:33.55	321.21	14.60	-34.1	-45.8	3.8	1.49e+00	0	43	104	0	29	13928
2026-01-13 11:55:34.56	321.34	14.52	-34.0	-45.8	3.8	1.49e+00	0	42	104	0	29	13964
2026-01-13 11:55:35.56	321.48	14.44	-34.0	-45.8	3.8	1.49e+00	0	43	104	0	29	14006
2026-01-13 11:55:36.57	321.61	14.36	-34.0	-45.8	3.8	1.49e+00	0	42	104	0	29	13980
2026-01-13 11:55:37.58	321.74	14.28	-34.1	-45.8	3.8	1.49e+00	0	43	104	0	29	13953
2026-01-13 11:55:38.59	321.88	14.20	-34.0	-45.8	3.8	1.49e+00	0	43	104	0	29	13981
2026-01-13 11:55:39.59	322.01	14.12	-34.1	-45.8	3.8	1.49e+00	0	42	104	0	29	13994
2026-01-13 11:55:40.60	322.14	14.04	-34.1	-45.8	3.8	1.49e+00	0	43	104	0	29	13963
2026-01-13 11:55:41.60	322.27	13.96	-34.0	-45.8	3.8	1.49e+00	0	43	104	0	29	13934
2026-01-13 11:55:42.61	322.40	13.88	-34.0	-45.8	3.8	1.49e+00	0	43	104	0	29	13977
2026-01-13 11:55:43.62	322.53	13.80	-34.0	-45.8	3.8	1.49e+00	0	43	104	0	29	13951
2026-01-13 11:55:44.63	322.66	13.73	-34.0	-45.8	3.8	1.49e+00	0	42	104	0	29	13972
2026-01-13 11:55:45.64	322.78	13.65	-34.0	-45.8	3.8	1.49e+00	0	42	104	0	29	13945
2026-01-13 11:55:46.64	322.91	13.57	-34.0	-45.8	3.8	1.49e+00	0	43	104	0	29	13953
2026-01-13 11:55:47.65	323.04	13.49	-34.0	-45.8	3.8	1.49e+00	0	43	104	0	29	14000
2026-01-13 11:55:48.66	323.16	13.41	-34.1	-45.8	3.8	1.49e+00	0	43	104	0	29	13970
2026-01-13 11:55:49.66	323.29	13.33	-34.0	-45.8	3.7	1.49e+00	0	42	104	0	29	13920
2026-01-13 11:55:50.67	323.41	13.25	-34.1	-45.8	3.8	1.49e+00	0	43	104	0	29	13962
2026-01-13 11:55:51.67	323.53	13.17	-34.0	-45.8	3.8	1.49e+00	0	43	104	0	29	13969
2026-01-13 11:55:52.68	323.66	13.10	-34.1	-45.8	3.8	1.49e+00	0	43	104	0	29	13990
2026-01-13 11:55:53.69	323.78	13.02	-34.1	-45.8	3.8	1.49e+00	0	43	104	0	29	13985
2026-01-13 11:55:54.70	323.90	12.94	-34.1	-45.8	3.8	1.49e+00	0	43	104	0	29	13918
2026-01-13 11:55:55.71	324.02	12.86	-34.1	-45.8	3.8	1.49e+00	0	42	104	0	29	13935
2026-01-13 11:55:56.71	324.14	12.79	-34.0	-45.8	3.8	1.49e+00	0	43	104	0	29	13985
2026-01-13 11:55:57.72	324.26	12.71	-34.0	-45.8	3.8	1.49e+00	0	43	104	0	29	13948
2026-01-13 11:55:58.73	324.38	12.63	-34.0	-45.8	3.8	1.49e+00	0	43	104	0	29	13965
2026-01-13 11:55:59.73	324.50	12.55	-34.0	-45.8	3.8	1.49e+00	0	43	104	0	29	14002
2026-01-13 11:56:00.73	324.62	12.48	-34.1	-45.8	3.8	1.49e+00	0	43	104	0	29	13974
2026-01-13 11:56:01.74	324.74	12.40	-34.1	-45.8	3.8	1.49e+00	0	43	104	0	29	13935
2026-01-13 11:56:02.74	324.85	12.32	-34.1	-45.8	3.8	1.49e+00	0	43	104	0	29	13987
2026-01-13 11:56:03.75	324.97	12.25	-34.0	-45.8	3.8	1.49e+00	0	43	104	0	29	13977
2026-01-13 11:56:04.76	325.09	12.17	-34.0	-45.9	3.8	1.49e+00	0	43	104	0	29	14022
2026-01-13 11:56:05.76	325.20	12.09	-34.0	-45.8	3.8	1.49e+00	0	43	104	0	29	13979
2026-01-13 11:56:06.77	325.32	12.02	-34.0	-45.8	3.8	1.49e+00	0	43	104	0	29	13952
2026-01-13 11:56:07.78	325.43	11.94	-34.0	-45.8	3.8	1.49e+00	0	43	104	0	29	13929
2026-01-13 11:56:08.79	325.54	11.86	-34.0	-45.8	3.8	1.49e+00	0	42	104	0	29	13968
2026-01-13 11:56:09.80	325.66	11.79	-34.1	-45.8	3.8	1.49e+00	0	42	104	0	29	13980
2026-01-13 11:56:10.80	325.77	11.71	-34.0	-45.8	3.8	1.49e+00	0	43	104	0	29	13965
2026-01-13 11:56:11.81	325.88	11.64	-34.1	-45.8	3.8	1.49e+00	0	43	104	0	29	13984
2026-01-13 11:56:12.82	325.99	11.56	-34.1	-45.8	3.8	1.49e+00	0	43	104	0	29	13971
2026-01-13 11:56:13.83	326.10	11.49	-34.1	-45.8	3.8	1.49e+00	0	43	104	0	29	13974
2026-01-13 11:56:14.83	326.21	11.41	-34.1	-45.8	3.8	1.49e+00	0	43	104	0	29	13998
2026-01-13 11:56:15.83	326.32	11.34	-34.1	-45.8	3.8	1.49e+00	0	43	104	0	29	13959
2026-01-13 11:56:16.83	326.43	11.26	-34.1	-45.8	3.8	1.49e+00	0	43	104	0	29	13953
2026-01-13 11:56:17.84	326.54	11.19	-34.1	-45.8	3.8	1.49e+00	0	43	104	0	29	13975
2026-01-13 11:56:18.85	326.65	11.11	-34.1	-45.8	3.8	1.49e+00	0	43	104	0	29	13957
2026-01-13 11:56:19.85	326.76	11.04	-34.1	-45.8	3.8	1.49e+00	0	43	104	0	29	13981
2026-01-13 11:56:20.86	326.86	10.96	-34.1	-45.8	3.8	1.49e+00	0	43	104	0	29	13963
2026-01-13 11:56:21.87	326.97	10.89	-34.1	-45.8	3.8	1.49e+00	0	43	104	0	29	13957
2026-01-13 11:56:22.88	327.08	10.82	-34.0	-45.8	3.8	1.49e+00	0	43	104	0	29	13962
2026-01-13 11:56:23.88	327.18	10.74	-34.1	-45.8	3.8	1.49e+00	0	43	104	0	29	13972
2026-01-13 11:56:24.89	327.29	10.67	-34.1	-45.9	3.8	1.49e+00	0	43	104	0	29	14004
2026-01-13 11:56:25.90	327.39	10.60	-34.1	-45.8	3.8	1.49e+00	0	43	104	0	29	13994
2026-01-13 11:56:26.91	327.50	10.52	-34.1	-45.8	3.8	1.49e+00	0	43	104	0	29	13984
2026-01-13 11:56:27.91	327.60	10.45	-34.1	-45.9	3.8	1.49e+00	0	43	104	0	29	14004
2026-01-13 11:56:28.92	327.70	10.38	-34.0	-45.8	3.8	1.49e+00	0	43	104	0	29	13989
2026-01-13 11:56:29.92	327.80	10.30	-34.1	-45.8	3.8	1.49e+00	0	43	104	0	29	13979
2026-01-13 11:56:30.93	327.91	10.23	-34.1	-45.8	3.8	1.49e+00	0	43	104	0	29	13936
2026-01-13 11:56:31.93	328.01	10.16	-34.1	-45.8	3.8	1.49e+00	0	43	104	0	29	13984
2026-01-13 11:56:32.94	328.11	10.08	-34.1	-45.8	3.8	1.49e+00	0	43	104	0	29	13968
2026-01-13 11:56:33.94	328.21	10.01	-34.1	-45.8	3.8	1.49e+00	0	42	104	0	29	13993
2026-01-13 11:56:34.95	328.31	9.94	-34.1	-45.8	3.8	1.49e+00	0	43	104	0	29	13983
2026-01-13 11:56:35.95	328.41	9.87	-34.1	-45.8	3.8	1.49e+00	0	43	104	0	29	13959
2026-01-13 11:56:36.96	328.51	9.80	-34.0	-45.8	3.8	1.49e+00	0	42	104	0	29	13945
2026-01-13 11:56:37.96	328.60	9.72	-34.1	-45.9	3.8	1.49e+00	0	43	104	0	29	14024
2026-01-13 11:56:38.97	328.70	9.65	-34.1	-45.8	3.8	1.49e+00	0	42	104	0	29	13950
2026-01-13 11:56:39.98	328.80	9.58	-34.0	-45.8	3.8	1.49e+00	0	43	104	0	29	13971
2026-01-13 11:56:40.99	328.90	9.51	-34.1	-45.9	3.8	1.49e+00	0	43	104	0	29	13997
2026-01-13 11:56:41.99	329.00	9.44	-34.1	-45.9	3.8	1.49e+00	0	43	104	0	29	14010
2026-01-13 11:56:43.00	329.09	9.37	-34.1	-45.9	3.8	1.49e+00	0	43	104	0	29	13996
2026-01-13 11:56:44.00	329.19	9.30	-34.1	-45.8	3.8	1.49e+00	0	42	104	0	29	13981
2026-01-13 11:56:45.01	329.28	9.23	-34.0	-45.8	3.8	1.49e+00	0	43	104	0	29	13904
2026-01-13 11:56:46.02	329.38	9.15	-34.1	-45.9	3.8	1.49e+00	0	43	104	0	29	14023
2026-01-13 11:56:47.02	329.47	9.08	-34.1	-45.8	3.8	1.49e+00	0	42	104	0	29	13985
2026-01-13 11:56:48.03	329.57	9.01	-34.1	-45.8	3.8	1.49e+00	0	43	104	0	29	13969
2026-01-13 11:56:49.03	329.66	8.94	-34.1	-45.8	3.8	1.49e+00	0	43	104	0	29	13976
2026-01-13 11:56:50.04	329.75	8.87	-34.1	-45.9	3.8	1.49e+00	0	42	104	0	29	14026
2026-01-13 11:56:51.05	329.85	8.80	-34.1	-45.8	3.8	1.49e+00	0	43	104	0	29	13983
2026-01-13 11:56:52.05	329.94	8.73	-34.1	-45.8	3.8	1.49e+00	0	43	104	0	29	13984
2026-01-13 11:56:53.06	330.03	8.66	-34.1	-45.9	3.8	1.49e+00	0	43	104	0	29	14007
2026-01-13 11:56:54.06	330.12	8.59	-34.1	-45.9	3.8	1.49e+00	0	43	104	0	29	14004
2026-01-13 11:56:55.07	330.21	8.52	-34.0	-45.8	3.8	1.49e+00	0	42	104	0	29	13964
2026-01-13 11:56:56.08	330.31	8.45	-34.1	-45.8	3.8	1.49e+00	0	43	104	0	29	13957
2026-01-13 11:56:57.08	330.40	8.39	-34.1	-45.8	3.8	1.49e+00	0	43	104	0	29	13991
2026-01-13 11:56:58.10	330.49	8.32	-34.1	-45.9	3.8	1.49e+00	0	42	104	0	29	13992
2026-01-13 11:56:59.10	330.58	8.25	-34.1	-45.8	3.8	1.49e+00	0	43	104	0	29	13983
2026-01-13 11:57:00.11	330.66	8.18	-34.1	-45.8	3.8	1.49e+00	0	43	104	0	29	13980
2026-01-13 11:57:01.12	330.75	8.11	-34.1	-45.9	3.8	1.49e+00	0	43	104	0	29	14003
2026-01-13 11:57:02.13	330.84	8.04	-34.1	-45.9	3.8	1.49e+00	0	43	104	0	29	14012
2026-01-13 11:57:03.13	330.93	7.97	-34.1	-45.8	3.8	1.49e+00	0	43	104	0	29	13977
2026-01-13 11:57:04.14	331.02	7.90	-34.1	-45.8	3.8	1.49e+00	0	43	104	0	29	13955
2026-01-13 11:57:05.15	331.11	7.83	-34.1	-45.9	3.8	1.49e+00	0	43	104	0	29	14014
2026-01-13 11:57:06.16	331.19	7.77	-34.1	-45.8	3.8	1.49e+00	0	43	104	0	29	13924
2026-01-13 11:57:07.16	331.28	7.70	-34.1	-45.8	3.8	1.49e+00	0	42	104	0	29	13965
2026-01-13 11:57:08.17	331.37	7.63	-34.1	-45.9	3.8	1.49e+00	0	43	104	0	29	14017
2026-01-13 11:57:09.18	331.45	7.56	-34.1	-45.8	3.8	1.49e+00	0	43	104	0	29	13981
2026-01-13 11:57:10.19	331.54	7.49	-34.1	-45.9	3.8	1.49e+00	0	43	104	0	29	14015
2026-01-13 11:57:11.19	331.62	7.43	-34.1	-45.8	3.8	1.49e+00	0	43	104	0	29	13929
2026-01-13 11:57:12.19	331.71	7.36	-34.1	-45.9	3.8	1.49e+00	0	43	104	0	29	14003
2026-01-13 11:57:13.20	331.79	7.29	-34.1	-45.8	3.8	1.49e+00	0	42	104	0	29	13955
2026-01-13 11:57:14.21	331.87	7.23	-34.1	-45.8	3.8	1.49e+00	0	43	104	0	29	13983
2026-01-13 11:57:15.21	331.96	7.16	-34.1	-45.9	3.8	1.49e+00	0	43	104	0	29	14016
2026-01-13 11:57:16.22	332.04	7.09	-34.1	-45.9	3.8	1.49e+00	0	43	104	0	29	13986
2026-01-13 11:57:17.23	332.12	7.03	-34.1	-45.8	3.8	1.49e+00	0	43	104	0	29	13976
2026-01-13 11:57:18.24	332.21	6.96	-34.1	-45.9	3.8	1.49e+00	0	43	104	0	29	14000
2026-01-13 11:57:19.25	332.29	6.89	-34.1	-45.8	3.8	1.49e+00	0	43	104	0	29	13951

#Closed at: 2026-01-13 11:57:19
#Recorded file [0 MB]: D:/data/31010_260113_144633.dat