passes_logs/2026/01/13/R2M6_AANII_01/R2M6_AANII_01__20260113_232359_NOAA_21_JPSS-2_rec.log

#Pass ID: 20260113_232359_NOAA 21 (JPSS-2)
#Satellite: NOAA 21 (JPSS-2)
#Configuration: NOAA 21
#almurnet v.1.7.20240730
#Start time: 2026-01-13 23:23:58

#Version: 2.2.20231116
#Station: R2M6_AANII_01
#Location: 30.233357 lon 59.946436 lat
#TLE: 1 54234U 22150A   26013.18009385  .00000056  00000+0  47387-4 0  9997
#TLE: 2 54234  98.7496 314.1019 0000691 303.8246  56.2864 14.19534466164559

#Time	Az	El	Level	Level2	SNR	BER	BlckErr	Temp	State	Recorded	gain1	gain2
2026-01-13 23:23:58.68	23.87	6.94	-29.5	-33.2	4.9	1.34e+00	0	40	0	0	19	5526
2026-01-13 23:23:59.68	23.92	7.01	-30.0	-34.5	4.8	1.38e+00	0	40	104	0	19	6073
2026-01-13 23:24:00.68	23.98	7.09	-30.0	-33.5	9.8	9.51e-03	0	40	0	0	20	5359
2026-01-13 23:24:01.69	24.04	7.16	-30.0	-33.4	9.9	9.74e-03	0	40	0	3145728	20	5323
2026-01-13 23:24:02.69	24.09	7.23	-30.0	-33.4	10.0	8.55e-03	0	40	0	6291456	20	5325
2026-01-13 23:24:03.69	24.15	7.30	-30.4	-34.6	9.1	1.92e-02	0	40	0	9437184	20	5859
2026-01-13 23:24:04.70	24.21	7.38	-30.3	-34.3	9.4	2.40e-02	0	40	0	12582912	20	5699
2026-01-13 23:24:05.70	24.26	7.45	-30.2	-34.0	9.6	1.53e-02	0	40	0	15728640	20	5561
2026-01-13 23:24:06.70	24.32	7.52	-29.9	-33.1	10.2	7.07e-03	0	40	0	18874368	20	5209
2026-01-13 23:24:07.70	24.38	7.60	-29.8	-33.2	10.5	4.19e-03	0	41	0	22020096	19	5346
2026-01-13 23:24:08.70	24.44	7.67	-29.8	-33.3	10.5	4.07e-03	0	40	0	24117248	19	5383
2026-01-13 23:24:09.69	24.50	7.74	-30.0	-33.4	10.0	6.75e-03	0	40	0	27262976	20	5330
2026-01-13 23:24:10.69	24.56	7.82	-30.1	-33.5	10.0	1.01e-02	0	41	0	30408704	20	5329
2026-01-13 23:24:11.70	24.62	7.89	-29.7	-33.0	10.8	3.22e-03	0	41	0	33554432	19	5234
2026-01-13 23:24:12.71	24.68	7.97	-29.5	-32.3	11.2	1.44e-03	0	41	0	36700160	19	4975
2026-01-13 23:24:13.71	24.74	8.04	-29.4	-32.5	11.4	1.05e-03	0	41	0	39845888	18	5178
2026-01-13 23:24:14.72	24.80	8.12	-29.3	-32.4	11.5	9.24e-04	0	41	0	42991616	18	5143
2026-01-13 23:24:15.71	24.86	8.19	-29.5	-32.3	11.2	1.13e-03	0	41	0	46137344	19	4997
2026-01-13 23:24:16.72	24.92	8.27	-29.8	-33.2	10.7	2.36e-03	0	41	0	49283072	19	5313
2026-01-13 23:24:17.72	24.98	8.34	-29.8	-33.1	10.7	3.79e-03	0	41	0	52428800	19	5268
2026-01-13 23:24:18.73	25.04	8.42	-29.5	-32.3	11.2	1.43e-03	0	41	0	55574528	19	4985
2026-01-13 23:24:19.72	25.10	8.49	-29.1	-31.8	11.9	4.70e-04	0	41	0	58720256	18	4925
2026-01-13 23:24:20.72	25.16	8.57	-29.1	-31.6	12.0	3.65e-04	0	41	0	61865984	18	4844
2026-01-13 23:24:21.72	25.23	8.65	-28.8	-31.1	12.4	1.80e-04	0	41	0	65011712	18	4659
2026-01-13 23:24:22.73	25.29	8.72	-28.8	-31.5	12.5	1.10e-04	0	41	0	68157440	17	4924
2026-01-13 23:24:23.73	25.35	8.80	-28.8	-31.5	12.4	1.40e-04	0	41	0	71303168	17	4917
2026-01-13 23:24:24.74	25.41	8.88	-28.8	-31.6	12.4	1.46e-04	0	41	0	74448896	17	4930
2026-01-13 23:24:25.74	25.48	8.95	-28.8	-31.5	12.5	1.71e-04	0	41	0	77594624	17	4900
2026-01-13 23:24:26.74	25.54	9.03	-28.6	-30.9	12.9	7.55e-05	0	41	0	80740352	17	4706
2026-01-13 23:24:27.74	25.61	9.11	-28.4	-31.0	13.1	4.34e-05	0	41	0	83886080	16	4854
2026-01-13 23:24:28.74	25.67	9.19	-28.4	-30.9	13.2	3.05e-05	0	41	0	87031808	16	4822
2026-01-13 23:24:29.74	25.73	9.26	-28.6	-30.9	12.9	4.34e-05	0	41	0	90177536	17	4693
2026-01-13 23:24:30.74	25.80	9.34	-28.4	-30.5	13.1	3.58e-05	0	41	0	93323264	17	4585
2026-01-13 23:24:31.75	25.87	9.42	-28.5	-30.7	13.0	2.89e-05	0	41	0	96468992	17	4640
2026-01-13 23:24:32.75	25.93	9.50	-28.4	-30.5	13.1	4.65e-05	0	41	0	99614720	17	4594
2026-01-13 23:24:33.75	26.00	9.58	-28.4	-30.9	13.2	2.51e-05	0	41	0	102760448	16	4801
2026-01-13 23:24:34.76	26.06	9.66	-28.4	-30.9	13.2	1.98e-05	0	41	0	105906176	16	4809
2026-01-13 23:24:35.75	26.13	9.74	-28.4	-30.9	13.2	1.98e-05	0	41	0	109051904	16	4810
2026-01-13 23:24:36.75	26.20	9.82	-28.4	-31.0	13.2	2.44e-05	0	41	0	112197632	16	4834
2026-01-13 23:24:37.75	26.26	9.90	-28.5	-30.8	13.0	3.50e-05	0	41	0	115343360	17	4666
2026-01-13 23:24:38.74	26.33	9.97	-28.7	-31.2	12.8	3.96e-05	0	41	0	118489088	17	4800
2026-01-13 23:24:39.75	26.40	10.05	-28.6	-31.0	12.9	5.18e-05	0	41	0	121634816	17	4724
2026-01-13 23:24:40.75	26.47	10.14	-28.3	-30.2	13.3	1.98e-05	0	41	0	124780544	17	4488
2026-01-13 23:24:41.75	26.54	10.22	-28.1	-30.2	13.7	1.14e-05	0	41	0	127926272	16	4592
2026-01-13 23:24:42.75	26.61	10.30	-28.1	-30.2	13.7	9.10e-06	0	41	0	131072000	16	4589
2026-01-13 23:24:43.76	26.68	10.38	-28.2	-30.5	13.5	9.10e-06	0	41	0	134217728	16	4671
2026-01-13 23:24:44.76	26.74	10.46	-28.1	-30.3	13.6	8.30e-06	0	41	0	137363456	16	4618
2026-01-13 23:24:45.76	26.82	10.54	-27.9	-30.3	13.8	4.50e-06	0	41	0	140509184	15	4740
2026-01-13 23:24:46.77	26.89	10.62	-27.8	-29.9	14.0	1.50e-06	0	41	0	143654912	15	4630
2026-01-13 23:24:47.77	26.96	10.70	-27.9	-30.2	13.8	5.30e-06	0	42	0	146800640	15	4711
2026-01-13 23:24:48.78	27.03	10.79	-27.9	-30.2	13.8	4.50e-06	0	42	0	149946368	15	4705
2026-01-13 23:24:49.78	27.10	10.87	-28.2	-30.4	13.6	5.30e-06	0	42	0	153092096	16	4642
2026-01-13 23:24:50.79	27.17	10.95	-28.1	-30.1	13.8	6.10e-06	0	42	0	156237824	16	4561
2026-01-13 23:24:51.79	27.25	11.04	-27.8	-30.0	14.0	2.20e-06	0	42	0	159383552	15	4648
2026-01-13 23:24:52.79	27.32	11.12	-27.9	-30.3	13.8	1.50e-06	0	42	0	162529280	15	4742
2026-01-13 23:24:53.79	27.39	11.20	-27.9	-30.1	13.9	3.80e-06	0	42	0	165675008	15	4685
2026-01-13 23:24:54.80	27.47	11.29	-27.7	-29.8	14.1	3.00e-06	0	42	0	168820736	15	4573
2026-01-13 23:24:55.79	27.54	11.37	-27.8	-29.9	14.0	2.20e-06	0	41	0	171966464	15	4626
2026-01-13 23:24:56.80	27.61	11.45	-27.7	-29.9	14.1	3.00e-06	0	42	0	175112192	15	4603
2026-01-13 23:24:57.80	27.69	11.54	-27.5	-29.4	14.4	2.20e-06	0	42	0	178257920	15	4453
2026-01-13 23:24:58.80	27.76	11.62	-27.6	-29.5	14.3	1.50e-06	0	42	0	181403648	15	4500
2026-01-13 23:24:59.80	27.84	11.71	-27.0	-28.7	14.4	2.20e-06	0	42	0	184549376	15	4420
2026-01-13 23:25:00.81	27.92	11.79	-27.4	-29.6	14.5	7.00e-07	0	42	0	187695104	14	4645
2026-01-13 23:25:01.81	27.99	11.88	-27.5	-29.3	13.5	1.50e-06	0	42	0	190840832	15	4435
2026-01-13 23:25:02.82	28.07	11.97	-27.6	-29.5	13.7	0.00e+00	0	42	0	193986560	15	4478
2026-01-13 23:25:03.82	28.15	12.05	-27.4	-29.2	14.5	0.00e+00	0	42	0	197132288	15	4386
2026-01-13 23:25:04.81	28.22	12.14	-27.5	-29.7	14.5	0.00e+00	0	42	0	200278016	14	4666
2026-01-13 23:25:05.82	28.30	12.22	-27.5	-29.7	14.5	7.00e-07	0	42	0	203423744	14	4660
2026-01-13 23:25:06.82	28.38	12.31	-27.5	-29.4	14.4	7.00e-07	0	42	0	206569472	15	4453
2026-01-13 23:25:07.82	28.46	12.40	-27.7	-29.8	14.2	0.00e+00	0	42	0	209715200	15	4572
2026-01-13 23:25:08.83	28.54	12.49	-27.7	-29.8	14.2	0.00e+00	0	42	0	212860928	15	4567
2026-01-13 23:25:09.83	28.62	12.57	-27.7	-29.9	14.2	7.00e-07	0	42	0	216006656	15	4600
2026-01-13 23:25:10.83	28.70	12.66	-27.9	-30.3	13.9	1.41e-03	0	42	0	219152384	15	4737
2026-01-13 23:25:11.83	28.78	12.75	-27.8	-30.0	14.1	4.50e-06	0	42	0	222298112	15	4651
2026-01-13 23:25:12.83	28.86	12.84	-27.7	-29.7	14.0	1.50e-06	0	42	0	225443840	15	4545
2026-01-13 23:25:13.84	28.94	12.93	-27.7	-29.8	14.3	7.00e-07	0	42	0	228589568	15	4564
2026-01-13 23:25:14.84	29.03	13.02	-27.6	-29.5	14.4	1.80e-03	0	42	0	231735296	15	4477
2026-01-13 23:25:15.84	29.11	13.10	-27.5	-29.2	14.5	0.00e+00	0	42	0	234881024	15	4408
2026-01-13 23:25:16.85	29.19	13.19	-27.4	-29.5	14.7	1.84e-03	0	42	0	238026752	14	4609
2026-01-13 23:25:17.85	29.28	13.28	-27.3	-29.4	14.7	0.00e+00	0	42	0	241172480	14	4575
2026-01-13 23:25:18.85	29.36	13.37	-27.5	-29.8	14.5	0.00e+00	0	42	0	244318208	14	4683
2026-01-13 23:25:19.85	29.44	13.46	-27.4	-29.0	14.7	1.71e-03	0	42	0	247463936	15	4354
2026-01-13 23:25:20.84	29.53	13.55	-27.2	-29.1	14.9	1.46e-03	0	42	0	250609664	14	4464
2026-01-13 23:25:21.85	29.61	13.65	-27.1	-28.9	15.0	8.43e-04	0	42	0	253755392	14	4428
2026-01-13 23:25:22.86	29.70	13.74	-27.2	-29.0	15.0	1.11e-03	0	42	0	255852544	14	4460
2026-01-13 23:25:23.87	29.79	13.83	-27.1	-28.9	15.0	7.00e-07	0	42	0	258998272	14	4425
2026-01-13 23:25:24.87	29.88	13.92	-27.2	-29.0	15.0	0.00e+00	0	42	0	262144000	14	4450
2026-01-13 23:25:25.87	29.96	14.01	-27.2	-29.1	15.0	1.20e-03	0	42	0	265289728	14	4464
2026-01-13 23:25:26.87	30.05	14.10	-27.2	-29.1	15.0	2.31e-03	0	42	0	268435456	14	4469
2026-01-13 23:25:27.87	30.14	14.20	-27.3	-29.2	14.9	1.06e-03	0	42	0	271581184	14	4512
2026-01-13 23:25:28.87	30.23	14.29	-27.1	-29.0	15.0	7.00e-07	0	42	0	274726912	14	4434
2026-01-13 23:25:29.88	30.32	14.38	-27.0	-28.7	15.2	1.03e-03	0	42	0	277872640	14	4360
2026-01-13 23:25:30.89	30.41	14.48	-27.0	-28.7	15.2	0.00e+00	0	42	0	281018368	14	4357
2026-01-13 23:25:31.89	30.50	14.57	-26.9	-28.5	15.3	8.66e-04	0	42	0	284164096	14	4301
2026-01-13 23:25:32.89	30.59	14.67	-27.0	-29.0	15.3	9.78e-04	0	42	0	287309824	13	4572
2026-01-13 23:25:33.89	30.68	14.76	-26.9	-29.0	15.3	1.22e-04	0	42	0	290455552	13	4559
2026-01-13 23:25:34.89	30.78	14.85	-27.1	-28.8	15.2	8.22e-04	0	42	0	293601280	14	4387
2026-01-13 23:25:35.89	30.87	14.95	-27.2	-29.2	15.0	8.01e-04	0	42	0	296747008	14	4494
2026-01-13 23:25:36.90	30.96	15.05	-27.2	-29.0	15.1	1.01e-04	0	42	0	299892736	14	4433
2026-01-13 23:25:37.90	31.06	15.14	-27.1	-28.9	15.1	8.48e-04	0	42	0	303038464	14	4417
2026-01-13 23:25:38.91	31.15	15.24	-27.1	-28.9	15.1	7.32e-05	0	42	0	306184192	14	4419
2026-01-13 23:25:39.91	31.25	15.33	-27.1	-28.9	15.1	9.38e-05	0	42	0	309329920	14	4423
2026-01-13 23:25:40.92	31.34	15.43	-27.2	-29.0	15.1	1.05e-03	0	42	0	312475648	14	4453
2026-01-13 23:25:41.92	31.44	15.53	-27.2	-29.0	15.1	1.23e-03	0	42	0	315621376	14	4445
2026-01-13 23:25:42.92	31.54	15.63	-27.2	-29.1	15.0	2.58e-04	0	42	0	318767104	14	4477
2026-01-13 23:25:43.92	31.63	15.72	-27.1	-28.9	15.1	7.00e-07	0	42	0	321912832	14	4412
2026-01-13 23:25:44.93	31.73	15.82	-27.1	-28.9	15.1	4.04e-04	0	42	0	325058560	14	4420
2026-01-13 23:25:45.93	31.83	15.92	-27.1	-28.7	15.2	2.20e-06	0	42	0	328204288	14	4368
2026-01-13 23:25:46.93	31.93	16.02	-27.2	-29.0	15.1	8.18e-04	0	42	0	331350016	14	4445
2026-01-13 23:25:47.93	32.03	16.12	-27.1	-28.9	15.2	1.31e-03	0	42	0	334495744	14	4406
2026-01-13 23:25:48.93	32.13	16.22	-27.2	-29.1	15.1	6.34e-04	0	42	0	337641472	14	4462
2026-01-13 23:25:49.93	32.23	16.31	-27.2	-29.1	15.1	0.00e+00	0	42	0	340787200	14	4459
2026-01-13 23:25:50.93	32.34	16.41	-27.3	-29.2	15.0	0.00e+00	0	42	0	343932928	14	4509
2026-01-13 23:25:51.94	32.44	16.51	-27.3	-29.2	15.0	0.00e+00	0	42	0	347078656	14	4504
2026-01-13 23:25:52.95	32.54	16.62	-27.3	-29.3	14.9	4.02e-04	0	42	0	350224384	14	4541
2026-01-13 23:25:53.95	32.65	16.72	-27.3	-29.4	14.9	5.87e-04	0	42	0	353370112	14	4554
2026-01-13 23:25:54.96	32.75	16.82	-27.3	-29.3	15.0	4.68e-04	0	42	0	356515840	14	4526
2026-01-13 23:25:55.95	32.86	16.92	-27.3	-29.3	15.0	0.00e+00	0	42	0	359661568	14	4521
2026-01-13 23:25:56.95	32.96	17.02	-27.3	-29.2	15.0	0.00e+00	0	42	0	362807296	14	4489
2026-01-13 23:25:57.96	33.07	17.12	-27.3	-29.3	15.0	3.00e-06	0	42	0	365953024	14	4511
2026-01-13 23:25:58.96	33.18	17.23	-27.4	-29.5	14.9	0.00e+00	0	42	0	369098752	14	4585
2026-01-13 23:25:59.96	33.29	17.33	-27.5	-29.6	14.8	7.00e-07	0	42	0	372244480	14	4616
2026-01-13 23:26:00.97	33.40	17.43	-27.5	-29.7	14.8	0.00e+00	0	42	0	375390208	14	4650
2026-01-13 23:26:01.97	33.50	17.54	-27.6	-29.4	14.7	7.00e-07	0	42	0	378535936	15	4445
2026-01-13 23:26:02.97	33.61	17.64	-27.7	-29.8	14.5	9.15e-05	0	42	0	381681664	15	4547
2026-01-13 23:26:03.98	33.73	17.74	-27.7	-29.6	14.5	1.71e-04	0	42	0	384827392	15	4518
2026-01-13 23:26:04.98	33.84	17.85	-27.8	-29.8	14.4	7.00e-07	0	42	0	387973120	15	4572
2026-01-13 23:26:05.99	33.95	17.95	-27.7	-29.7	14.5	7.00e-07	0	42	0	391118848	15	4544
2026-01-13 23:26:06.98	34.06	18.06	-27.9	-30.1	14.3	7.00e-07	0	42	0	394264576	15	4644
2026-01-13 23:26:07.98	34.18	18.16	-27.7	-29.6	14.6	7.00e-07	0	42	0	397410304	15	4492
2026-01-13 23:26:08.99	34.29	18.27	-27.5	-29.3	14.8	0.00e+00	0	42	0	400556032	15	4411
2026-01-13 23:26:09.99	34.41	18.38	-27.4	-29.6	14.9	1.88e-03	0	42	0	403701760	14	4615
2026-01-13 23:26:10.99	34.52	18.48	-27.5	-29.7	14.8	0.00e+00	0	42	0	406847488	14	4631
2026-01-13 23:26:11.99	34.64	18.59	-27.6	-29.5	14.7	0.00e+00	0	42	0	409993216	15	4454
2026-01-13 23:26:13.00	34.76	18.70	-27.7	-29.6	14.6	0.00e+00	0	42	0	413138944	15	4498
2026-01-13 23:26:14.00	34.88	18.81	-27.6	-29.5	14.6	0.00e+00	0	42	0	416284672	15	4467
2026-01-13 23:26:15.00	35.00	18.91	-27.7	-29.7	14.5	7.00e-07	0	42	0	419430400	15	4531
2026-01-13 23:26:16.00	35.12	19.02	-27.6	-29.5	14.6	7.00e-07	0	42	0	422576128	15	4478
2026-01-13 23:26:17.01	35.24	19.13	-27.7	-29.7	14.6	7.00e-07	0	42	0	425721856	15	4516
2026-01-13 23:26:18.00	35.36	19.24	-27.7	-29.7	14.5	0.00e+00	0	42	0	428867584	15	4519
2026-01-13 23:26:19.01	35.49	19.35	-27.7	-29.6	14.6	0.00e+00	0	42	0	432013312	15	4507
2026-01-13 23:26:20.01	35.61	19.46	-27.9	-30.1	14.3	1.50e-06	0	43	0	435159040	15	4654
2026-01-13 23:26:21.01	35.73	19.57	-27.7	-29.6	14.6	7.00e-07	0	42	0	438304768	15	4483
2026-01-13 23:26:22.01	35.86	19.68	-27.5	-29.2	14.8	1.50e-06	0	42	0	441450496	15	4388
2026-01-13 23:26:23.01	35.98	19.79	-27.4	-29.1	14.9	0.00e+00	0	42	0	444596224	15	4344
2026-01-13 23:26:24.01	36.11	19.90	-27.4	-29.0	14.9	0.00e+00	0	42	0	447741952	15	4337
2026-01-13 23:26:25.02	36.24	20.01	-27.4	-28.9	15.0	0.00e+00	0	42	0	450887680	15	4304
2026-01-13 23:26:26.03	36.37	20.13	-27.5	-29.2	14.9	7.00e-07	0	42	0	454033408	15	4389
2026-01-13 23:26:27.03	36.50	20.24	-27.4	-29.4	15.0	0.00e+00	0	42	0	457179136	14	4562
2026-01-13 23:26:28.03	36.63	20.35	-27.5	-29.2	14.9	7.00e-07	0	43	0	460324864	15	4376
2026-01-13 23:26:29.04	36.76	20.46	-27.3	-28.8	15.1	0.00e+00	0	42	0	463470592	15	4275
2026-01-13 23:26:30.04	36.90	20.58	-27.3	-29.2	15.2	0.00e+00	0	43	0	466616320	14	4482
2026-01-13 23:26:31.05	37.03	20.69	-27.3	-29.2	15.1	0.00e+00	0	42	0	469762048	14	4492
2026-01-13 23:26:32.05	37.17	20.81	-27.2	-29.1	15.2	0.00e+00	0	42	0	472907776	14	4467
2026-01-13 23:26:33.07	37.30	20.92	-27.3	-29.3	15.1	7.00e-07	0	43	0	476053504	14	4508
2026-01-13 23:26:34.07	37.44	21.04	-27.1	-28.8	15.4	0.00e+00	0	43	0	479199232	14	4378
2026-01-13 23:26:35.07	37.58	21.15	-27.0	-28.6	15.5	0.00e+00	0	42	0	482344960	14	4322
2026-01-13 23:26:36.07	37.72	21.27	-27.1	-28.8	15.4	0.00e+00	0	42	0	485490688	14	4383
2026-01-13 23:26:37.07	37.86	21.38	-27.2	-28.9	15.3	0.00e+00	0	43	0	488636416	14	4415
2026-01-13 23:26:38.08	38.00	21.50	-27.2	-29.1	15.2	0.00e+00	0	42	0	491782144	14	4470
2026-01-13 23:26:39.08	38.14	21.62	-27.2	-29.0	15.3	0.00e+00	0	42	0	494927872	14	4427
2026-01-13 23:26:40.08	38.28	21.74	-27.2	-29.0	15.3	0.00e+00	0	43	0	498073600	14	4447
2026-01-13 23:26:41.08	38.42	21.85	-27.2	-29.0	15.3	0.00e+00	0	43	0	501219328	14	4445
2026-01-13 23:26:42.07	38.57	21.97	-27.2	-29.1	15.2	7.00e-07	0	42	0	504365056	14	4473
2026-01-13 23:26:43.07	38.71	22.09	-27.4	-29.5	15.1	0.00e+00	0	42	0	507510784	14	4564
2026-01-13 23:26:44.07	38.86	22.21	-27.1	-28.9	15.3	0.00e+00	0	42	0	509607936	14	4398
2026-01-13 23:26:45.08	39.01	22.33	-27.3	-29.2	15.2	0.00e+00	0	42	0	512753664	14	4507
2026-01-13 23:26:46.09	39.16	22.45	-27.5	-29.1	14.9	0.00e+00	0	43	0	516947968	15	4359
2026-01-13 23:26:47.09	39.31	22.57	-27.2	-28.4	15.4	0.00e+00	0	42	0	520093696	15	4154
2026-01-13 23:26:48.09	39.46	22.69	-26.9	-27.8	15.7	0.00e+00	0	42	0	523239424	15	4001
2026-01-13 23:26:49.09	39.61	22.81	-26.7	-28.0	15.9	0.00e+00	0	43	0	526385152	14	4144
2026-01-13 23:26:50.10	39.77	22.93	-26.8	-28.2	15.8	0.00e+00	0	43	0	529530880	14	4205
2026-01-13 23:26:51.10	39.92	23.05	-26.7	-27.8	16.0	0.00e+00	0	42	0	531628032	14	4108
2026-01-13 23:26:52.10	40.08	23.17	-26.6	-27.7	16.0	0.00e+00	0	43	0	534773760	14	4065
2026-01-13 23:26:53.10	40.24	23.29	-26.7	-27.8	16.0	0.00e+00	0	43	0	537919488	14	4107
2026-01-13 23:26:54.10	40.39	23.41	-26.6	-27.6	16.1	0.00e+00	0	42	0	541065216	14	4036
2026-01-13 23:26:55.10	40.55	23.54	-26.6	-27.6	16.1	0.00e+00	0	43	0	544210944	14	4057
2026-01-13 23:26:56.10	40.71	23.66	-26.7	-27.8	16.0	0.00e+00	0	43	0	547356672	14	4103
2026-01-13 23:26:57.10	40.87	23.78	-26.8	-28.1	15.8	0.00e+00	0	42	0	550502400	14	4191
2026-01-13 23:26:58.10	41.04	23.91	-26.7	-27.8	16.0	0.00e+00	0	43	0	553648128	14	4094
2026-01-13 23:26:59.11	41.20	24.03	-26.5	-27.4	16.2	0.00e+00	0	43	0	556793856	14	3998
2026-01-13 23:27:00.11	41.37	24.16	-26.4	-27.3	16.3	0.00e+00	0	43	0	559939584	14	3964
2026-01-13 23:27:01.12	41.54	24.28	-26.5	-27.5	16.2	0.00e+00	0	43	0	563085312	14	4018
2026-01-13 23:27:02.13	41.71	24.41	-26.5	-27.4	16.2	0.00e+00	0	43	0	566231040	14	3997
2026-01-13 23:27:03.12	41.88	24.53	-26.7	-27.8	16.1	0.00e+00	0	43	0	569376768	14	4097
2026-01-13 23:27:04.12	42.05	24.66	-26.4	-27.2	16.3	0.00e+00	0	43	0	572522496	14	3949
2026-01-13 23:27:05.12	42.22	24.78	-26.2	-27.3	16.5	0.00e+00	0	43	0	575668224	13	4077
2026-01-13 23:27:06.12	42.39	24.91	-26.2	-27.2	16.6	0.00e+00	0	43	0	578813952	13	4048
2026-01-13 23:27:07.12	42.57	25.04	-26.3	-27.4	16.5	0.00e+00	0	42	0	581959680	13	4102
2026-01-13 23:27:08.13	42.74	25.17	-26.4	-27.7	16.4	0.00e+00	0	42	0	585105408	13	4174
2026-01-13 23:27:09.13	42.92	25.29	-26.4	-27.6	16.3	0.00e+00	0	43	0	588251136	13	4152
2026-01-13 23:27:10.13	43.10	25.42	-26.5	-27.9	16.2	0.00e+00	0	43	0	591396864	13	4234
2026-01-13 23:27:11.13	43.28	25.55	-26.5	-28.0	16.2	0.00e+00	0	43	0	594542592	13	4249
2026-01-13 23:27:12.13	43.46	25.68	-26.7	-28.3	16.1	0.00e+00	0	42	0	597688320	13	4337
2026-01-13 23:27:13.14	43.65	25.81	-26.8	-28.5	16.0	0.00e+00	0	43	0	600834048	13	4403
2026-01-13 23:27:14.13	43.83	25.93	-26.8	-28.7	15.9	0.00e+00	0	42	0	603979776	13	4442
2026-01-13 23:27:15.14	44.02	26.06	-26.9	-28.8	15.8	0.00e+00	0	43	0	607125504	13	4484
2026-01-13 23:27:16.14	44.21	26.19	-27.1	-28.8	15.5	0.00e+00	0	43	0	610271232	14	4381
2026-01-13 23:27:17.14	44.40	26.32	-27.3	-29.2	15.3	1.02e-04	0	43	0	613416960	14	4484
2026-01-13 23:27:18.15	44.59	26.46	-27.1	-28.7	15.6	0.00e+00	0	43	0	616562688	14	4337
2026-01-13 23:27:19.15	44.78	26.59	-27.0	-28.5	15.7	0.00e+00	0	42	0	619708416	14	4295
2026-01-13 23:27:20.15	44.98	26.72	-27.1	-28.6	15.7	0.00e+00	0	43	0	622854144	14	4318
2026-01-13 23:27:21.14	45.17	26.85	-27.2	-28.9	15.5	4.75e-04	0	42	0	625999872	14	4393
2026-01-13 23:27:22.14	45.37	26.98	-27.3	-29.2	15.3	0.00e+00	0	43	0	629145600	14	4490
2026-01-13 23:27:23.14	45.56	27.11	-27.4	-29.3	15.3	0.00e+00	0	43	0	632291328	14	4518
2026-01-13 23:27:24.14	45.76	27.24	-27.5	-29.3	15.0	0.00e+00	0	42	0	635437056	15	4385
2026-01-13 23:27:25.14	45.97	27.37	-27.7	-29.7	14.8	0.00e+00	0	42	0	638582784	15	4509
2026-01-13 23:27:26.14	46.17	27.51	-27.5	-29.2	15.0	1.68e-03	0	43	0	641728512	15	4379
2026-01-13 23:27:27.14	46.38	27.64	-27.5	-29.2	15.1	1.80e-03	0	43	0	644874240	15	4356
2026-01-13 23:27:28.14	46.58	27.77	-27.6	-29.3	15.0	0.00e+00	0	43	0	648019968	15	4397
2026-01-13 23:27:29.14	46.79	27.91	-27.6	-29.4	15.0	0.00e+00	0	43	0	651165696	15	4430
2026-01-13 23:27:30.15	47.00	28.04	-27.8	-29.8	14.7	0.00e+00	0	43	0	654311424	15	4549
2026-01-13 23:27:31.14	47.21	28.17	-27.6	-29.4	15.0	0.00e+00	0	43	0	657457152	15	4409
2026-01-13 23:27:32.15	47.43	28.31	-27.5	-29.1	15.1	7.00e-07	0	43	0	660602880	15	4337
2026-01-13 23:27:33.15	47.64	28.44	-27.5	-29.2	15.1	0.00e+00	0	43	0	663748608	15	4360
2026-01-13 23:27:34.16	47.86	28.58	-27.6	-29.3	15.0	0.00e+00	0	43	0	666894336	15	4380
2026-01-13 23:27:35.16	48.08	28.71	-27.6	-29.5	15.0	0.00e+00	0	43	0	670040064	15	4441
2026-01-13 23:27:36.16	48.30	28.85	-27.5	-29.2	15.1	7.40e-05	0	43	0	673185792	15	4376
2026-01-13 23:27:37.16	48.53	28.98	-27.6	-29.3	15.1	0.00e+00	0	43	0	676331520	15	4389
2026-01-13 23:27:38.17	48.75	29.12	-27.5	-29.1	15.1	3.94e-04	0	43	0	679477248	15	4335
2026-01-13 23:27:39.17	48.98	29.26	-27.5	-29.2	15.1	0.00e+00	0	43	0	682622976	15	4359
2026-01-13 23:27:40.17	49.21	29.39	-27.5	-29.1	15.1	0.00e+00	0	43	0	685768704	15	4345
2026-01-13 23:27:41.17	49.44	29.53	-27.4	-29.4	15.3	6.61e-04	0	43	0	688914432	14	4526
2026-01-13 23:27:42.17	49.67	29.66	-27.5	-29.2	15.1	6.40e-04	0	43	0	692060160	15	4355
2026-01-13 23:27:43.18	49.91	29.80	-27.3	-28.6	15.5	0.00e+00	0	43	0	695205888	15	4190
2026-01-13 23:27:44.19	50.14	29.94	-27.1	-28.8	15.6	4.89e-04	0	43	0	698351616	14	4364
2026-01-13 23:27:45.18	50.38	30.08	-27.2	-29.0	15.5	0.00e+00	0	43	0	701497344	14	4418
2026-01-13 23:27:46.18	50.62	30.21	-27.2	-29.0	15.5	0.00e+00	0	43	0	704643072	14	4428
2026-01-13 23:27:47.19	50.86	30.35	-27.3	-29.2	15.4	0.00e+00	0	43	0	707788800	14	4486
2026-01-13 23:27:48.20	51.11	30.49	-27.4	-29.4	15.4	0.00e+00	0	43	0	710934528	14	4518
2026-01-13 23:27:49.20	51.36	30.63	-27.2	-29.0	15.6	0.00e+00	0	42	0	714080256	14	4401
2026-01-13 23:27:50.20	51.60	30.76	-27.0	-28.5	15.8	0.00e+00	0	43	0	717225984	14	4286
2026-01-13 23:27:51.20	51.86	30.90	-27.0	-28.5	15.8	0.00e+00	0	43	0	720371712	14	4275
2026-01-13 23:27:52.21	52.11	31.04	-27.0	-28.5	15.8	0.00e+00	0	43	0	723517440	14	4277
2026-01-13 23:27:53.21	52.36	31.18	-27.1	-28.7	15.7	9.10e-06	0	43	0	726663168	14	4340
2026-01-13 23:27:54.21	52.62	31.31	-27.2	-28.9	15.6	3.00e-06	0	42	0	729808896	14	4380
2026-01-13 23:27:55.21	52.88	31.45	-27.3	-29.3	15.4	0.00e+00	0	43	0	732954624	14	4489
2026-01-13 23:27:56.21	53.14	31.59	-27.4	-29.4	15.3	0.00e+00	0	43	0	736100352	14	4544
2026-01-13 23:27:57.21	53.40	31.72	-27.5	-29.5	15.3	1.52e-05	0	43	0	738197504	14	4575
2026-01-13 23:27:58.21	53.67	31.86	-27.5	-29.5	15.2	0.00e+00	0	43	0	741343232	14	4575
2026-01-13 23:27:59.21	53.94	32.00	-27.7	-29.6	15.0	1.75e-05	0	43	0	744488960	15	4469
2026-01-13 23:28:00.21	54.21	32.14	-27.9	-30.0	14.7	7.00e-07	0	43	0	747634688	15	4593
2026-01-13 23:28:01.22	54.48	32.27	-27.7	-29.6	15.0	7.00e-07	0	43	0	750780416	15	4464
2026-01-13 23:28:02.22	54.75	32.41	-27.8	-29.7	14.9	0.00e+00	0	43	0	753926144	15	4512
2026-01-13 23:28:03.22	55.03	32.55	-27.8	-29.7	14.9	0.00e+00	0	43	0	757071872	15	4504
2026-01-13 23:28:04.23	55.31	32.69	-27.8	-29.8	14.8	0.00e+00	0	43	0	760217600	15	4539
2026-01-13 23:28:05.23	55.59	32.82	-27.8	-29.8	14.9	0.00e+00	0	43	0	763363328	15	4544
2026-01-13 23:28:06.23	55.88	32.96	-27.9	-30.2	14.7	1.50e-06	0	43	0	766509056	15	4649
2026-01-13 23:28:07.23	56.16	33.10	-27.9	-30.0	14.8	0.00e+00	0	43	0	769654784	15	4591
2026-01-13 23:28:08.24	56.45	33.23	-27.7	-29.6	15.0	1.27e-04	0	43	0	772800512	15	4475
2026-01-13 23:28:09.25	56.75	33.37	-27.7	-29.6	15.0	0.00e+00	0	43	0	775946240	15	4475
2026-01-13 23:28:10.25	57.04	33.51	-27.7	-29.6	15.0	0.00e+00	0	43	0	779091968	15	4472
2026-01-13 23:28:11.25	57.34	33.64	-27.7	-29.6	15.0	0.00e+00	0	43	0	782237696	15	4472
2026-01-13 23:28:12.25	57.63	33.78	-27.8	-29.7	14.9	7.00e-07	0	43	0	785383424	15	4518
2026-01-13 23:28:13.25	57.94	33.91	-27.9	-30.0	14.8	0.00e+00	0	43	0	788529152	15	4589
2026-01-13 23:28:14.25	58.24	34.05	-28.0	-30.3	14.7	7.00e-07	0	43	0	791674880	15	4674
2026-01-13 23:28:15.26	58.55	34.19	-28.2	-30.3	14.5	0.00e+00	0	43	0	794820608	16	4552
2026-01-13 23:28:16.26	58.85	34.32	-28.3	-30.6	14.3	7.00e-07	0	43	0	797966336	16	4640
2026-01-13 23:28:17.26	59.16	34.45	-28.3	-30.4	14.5	1.50e-06	0	43	0	801112064	16	4590
2026-01-13 23:28:18.26	59.48	34.59	-28.3	-30.4	14.4	0.00e+00	0	43	0	804257792	16	4589
2026-01-13 23:28:19.26	59.79	34.72	-28.4	-30.7	14.3	1.50e-06	0	43	0	807403520	16	4689
2026-01-13 23:28:20.26	60.11	34.85	-28.6	-30.5	14.1	7.00e-07	0	43	0	810549248	17	4516
2026-01-13 23:28:21.25	60.43	34.99	-28.6	-30.7	14.0	2.20e-06	0	43	0	813694976	17	4576
2026-01-13 23:28:22.26	60.75	35.12	-28.7	-30.7	14.0	7.00e-07	0	43	0	816840704	17	4576
2026-01-13 23:28:23.26	61.08	35.25	-28.8	-31.2	13.7	9.10e-06	0	43	0	819986432	17	4730
2026-01-13 23:28:24.26	61.41	35.38	-28.9	-31.3	13.6	1.50e-06	0	43	0	823132160	17	4759
2026-01-13 23:28:25.27	61.74	35.51	-29.1	-31.2	13.4	1.14e-05	0	43	0	826277888	18	4620
2026-01-13 23:28:26.28	62.08	35.65	-29.1	-31.3	13.4	1.44e-05	0	43	0	829423616	18	4633
2026-01-13 23:28:27.29	62.42	35.78	-29.1	-31.3	13.4	1.44e-05	0	42	0	832569344	18	4655
2026-01-13 23:28:28.29	62.76	35.91	-29.2	-31.6	13.2	2.13e-05	0	43	0	835715072	18	4745
2026-01-13 23:28:29.30	63.10	36.04	-29.3	-31.7	13.2	3.81e-05	0	43	0	838860800	18	4758
2026-01-13 23:28:30.30	63.45	36.16	-29.1	-31.2	13.4	1.60e-05	0	43	0	842006528	18	4613
2026-01-13 23:28:31.31	63.80	36.29	-28.7	-30.2	14.0	3.80e-06	0	43	0	845152256	18	4311
2026-01-13 23:28:32.31	64.15	36.42	-28.5	-29.8	14.2	6.10e-06	0	43	0	848297984	18	4199
2026-01-13 23:28:33.31	64.50	36.55	-28.4	-29.7	14.4	7.00e-07	0	43	0	851443712	18	4164
2026-01-13 23:28:34.31	64.86	36.67	-28.6	-30.1	14.1	0.00e+00	0	43	0	854589440	18	4295
2026-01-13 23:28:35.31	65.21	36.79	-28.8	-30.5	13.9	0.00e+00	0	43	0	857735168	18	4405
2026-01-13 23:28:36.31	65.57	36.92	-28.9	-30.8	13.7	1.50e-06	0	43	0	860880896	18	4497
2026-01-13 23:28:37.31	65.94	37.04	-29.0	-31.0	13.6	7.60e-06	0	43	0	864026624	18	4547
2026-01-13 23:28:38.31	66.30	37.16	-28.9	-30.7	13.7	1.75e-05	0	43	0	867172352	18	4455
2026-01-13 23:28:39.31	66.67	37.29	-29.0	-30.9	13.6	3.80e-06	0	43	0	870318080	18	4523
2026-01-13 23:28:40.31	67.04	37.41	-28.8	-30.5	13.9	4.50e-06	0	43	0	873463808	18	4379
2026-01-13 23:28:41.31	67.42	37.53	-28.7	-30.2	14.1	7.00e-07	0	43	0	876609536	18	4307
2026-01-13 23:28:42.32	67.80	37.65	-28.8	-30.4	14.0	7.00e-07	0	43	0	879755264	18	4373
2026-01-13 23:28:43.32	68.18	37.76	-28.9	-30.9	13.7	9.90e-06	0	43	0	882900992	18	4512
2026-01-13 23:28:44.32	68.56	37.88	-28.9	-30.8	13.7	6.10e-06	0	43	0	886046720	18	4484
2026-01-13 23:28:45.32	68.94	38.00	-29.0	-31.1	13.5	5.30e-06	0	43	0	889192448	18	4587
2026-01-13 23:28:46.32	69.33	38.11	-29.2	-31.5	13.3	1.67e-05	0	43	0	892338176	18	4694
2026-01-13 23:28:47.32	69.72	38.22	-29.1	-31.4	13.4	2.21e-05	0	43	0	895483904	18	4661
2026-01-13 23:28:48.33	70.12	38.34	-29.1	-31.3	13.5	1.67e-05	0	43	0	898629632	18	4625
2026-01-13 23:28:49.33	70.52	38.45	-29.2	-31.5	13.4	1.22e-05	0	43	0	901775360	18	4680
2026-01-13 23:28:50.33	70.91	38.56	-29.1	-31.3	13.4	1.83e-05	0	43	0	904921088	18	4634
2026-01-13 23:28:51.33	71.31	38.67	-28.9	-30.8	13.7	1.06e-05	0	43	0	908066816	18	4481
2026-01-13 23:28:52.33	71.72	38.78	-29.0	-30.9	13.6	4.50e-06	0	43	0	911212544	18	4523
2026-01-13 23:28:53.34	72.13	38.88	-29.0	-31.0	13.6	4.50e-06	0	43	0	914358272	18	4551
2026-01-13 23:28:54.34	72.54	38.99	-29.0	-31.0	13.6	9.90e-06	0	43	0	917504000	18	4541
2026-01-13 23:28:55.34	72.95	39.09	-29.1	-31.3	13.5	9.10e-06	0	43	0	920649728	18	4624
2026-01-13 23:28:56.34	73.36	39.20	-29.3	-31.6	13.3	1.90e-05	0	43	0	923795456	18	4741
2026-01-13 23:28:57.34	73.78	39.30	-29.4	-31.9	13.1	2.97e-05	0	43	0	926941184	18	4832
2026-01-13 23:28:58.35	74.20	39.40	-29.5	-31.9	12.8	5.41e-05	0	43	0	930086912	19	4716
2026-01-13 23:28:59.35	74.63	39.50	-29.6	-32.1	12.7	6.56e-05	0	43	0	933232640	19	4794
2026-01-13 23:29:00.36	75.06	39.59	-29.5	-31.7	12.9	7.24e-05	0	43	0	936378368	19	4640
2026-01-13 23:29:01.36	75.48	39.69	-29.3	-31.2	13.2	2.51e-05	0	43	0	939524096	19	4494
2026-01-13 23:29:02.36	75.91	39.78	-29.3	-31.3	13.1	3.05e-05	0	43	0	942669824	19	4533
2026-01-13 23:29:03.37	76.35	39.88	-29.4	-31.6	13.0	4.34e-05	0	43	0	945815552	19	4627
2026-01-13 23:29:04.37	76.78	39.97	-29.5	-31.8	12.8	6.86e-05	0	43	0	948961280	19	4693
2026-01-13 23:29:05.37	77.22	40.06	-29.4	-31.4	13.1	4.34e-05	0	43	0	952107008	19	4565
2026-01-13 23:29:06.36	77.65	40.15	-29.2	-31.0	13.3	1.52e-05	0	43	0	955252736	19	4435
2026-01-13 23:29:07.37	78.10	40.23	-29.2	-31.1	13.3	2.21e-05	0	43	0	958398464	19	4454
2026-01-13 23:29:08.37	78.54	40.32	-29.4	-31.5	13.0	4.73e-05	0	43	0	961544192	19	4579
2026-01-13 23:29:09.38	79.00	40.40	-29.2	-31.1	13.3	2.74e-05	0	43	0	964689920	19	4453
2026-01-13 23:29:10.38	79.44	40.48	-29.1	-30.7	13.6	9.90e-06	0	43	0	966787072	19	4335
2026-01-13 23:29:11.38	79.89	40.56	-29.1	-30.8	13.5	8.30e-06	0	43	0	970981376	19	4379
2026-01-13 23:29:12.39	80.35	40.64	-29.2	-31.0	13.3	9.90e-06	0	43	0	974127104	19	4439
2026-01-13 23:29:13.39	80.81	40.71	-29.3	-31.2	13.1	3.12e-05	0	43	0	977272832	19	4500
2026-01-13 23:29:14.40	81.27	40.79	-29.5	-31.6	12.8	4.19e-05	0	43	0	980418560	19	4629
2026-01-13 23:29:15.40	81.73	40.86	-29.6	-32.1	12.7	7.32e-05	0	43	0	983564288	19	4774
2026-01-13 23:29:16.40	82.19	40.93	-29.4	-31.6	13.0	5.34e-05	0	43	0	986710016	19	4624
2026-01-13 23:29:17.40	82.65	41.00	-29.4	-31.5	13.1	3.73e-05	0	43	0	989855744	19	4586
2026-01-13 23:29:18.41	83.12	41.07	-29.4	-31.5	13.0	4.42e-05	0	43	0	991952896	19	4588
2026-01-13 23:29:19.41	83.59	41.13	-29.4	-31.4	13.1	2.67e-05	0	43	0	995098624	19	4557
2026-01-13 23:29:20.41	84.06	41.19	-29.5	-31.7	12.9	4.95e-05	0	43	0	998244352	19	4668
2026-01-13 23:29:21.41	84.53	41.25	-29.4	-31.5	13.1	4.11e-05	0	43	0	1001390080	19	4596
2026-01-13 23:29:22.40	85.00	41.31	-29.3	-31.2	13.2	1.98e-05	0	43	0	1004535808	19	4494
2026-01-13 23:29:23.40	85.47	41.37	-29.2	-31.0	13.3	1.14e-05	0	43	0	1007681536	19	4437
2026-01-13 23:29:24.41	85.95	41.42	-29.4	-31.6	13.0	3.28e-05	0	43	0	1010827264	19	4608
2026-01-13 23:29:25.41	86.43	41.47	-29.7	-32.1	12.7	1.33e-04	0	43	0	1013972992	19	4767
2026-01-13 23:29:26.41	86.91	41.52	-29.6	-31.9	12.8	1.26e-04	0	43	0	1017118720	19	4710
2026-01-13 23:29:27.42	87.39	41.57	-29.8	-32.4	12.5	8.39e-05	0	43	0	1020264448	19	4883
2026-01-13 23:29:28.42	87.87	41.62	-29.8	-32.4	12.5	1.24e-04	0	43	0	1023410176	19	4891
2026-01-13 23:29:29.42	88.36	41.66	-29.8	-32.4	12.5	1.77e-04	0	43	0	1026555904	19	4892
2026-01-13 23:29:30.42	88.84	41.70	-29.5	-31.6	13.0	3.50e-05	0	43	0	1029701632	19	4614
2026-01-13 23:29:31.42	89.33	41.74	-29.4	-31.5	13.0	1.15e-04	0	43	0	1032847360	19	4566
2026-01-13 23:29:32.43	89.82	41.78	-29.6	-31.9	12.8	4.73e-05	0	43	0	1035993088	19	4711
2026-01-13 23:29:33.43	90.30	41.81	-29.8	-32.4	12.5	9.53e-05	0	43	0	1039138816	19	4883
2026-01-13 23:29:34.42	90.79	41.85	-29.9	-32.7	12.3	2.24e-04	0	43	0	1042284544	19	4973
2026-01-13 23:29:35.42	91.28	41.88	-29.5	-31.8	12.9	8.92e-05	0	43	0	1045430272	19	4681
2026-01-13 23:29:36.43	91.77	41.90	-29.4	-31.4	13.1	3.05e-05	0	43	0	1048576000	19	4552
2026-01-13 23:29:37.43	92.26	41.93	-29.4	-31.6	13.0	3.73e-05	0	43	0	1051721728	19	4608
2026-01-13 23:29:38.43	92.76	41.95	-29.5	-31.8	12.8	4.27e-05	0	43	0	1054867456	19	4688
2026-01-13 23:29:39.43	93.25	41.97	-29.5	-31.7	13.0	4.19e-05	0	43	0	1058013184	19	4632
2026-01-13 23:29:40.43	93.74	41.99	-29.4	-31.6	13.0	5.11e-05	0	43	0	1061158912	19	4596
2026-01-13 23:29:41.43	94.24	42.01	-29.5	-31.6	13.0	1.16e-04	0	43	0	1064304640	19	4626
2026-01-13 23:29:42.43	94.73	42.02	-29.7	-32.2	12.6	7.62e-05	0	43	0	1067450368	19	4795
2026-01-13 23:29:43.43	95.22	42.03	-29.8	-32.6	12.3	1.61e-04	0	43	0	1070596096	19	4948
2026-01-13 23:29:44.43	95.72	42.04	-29.8	-32.7	12.4	1.39e-04	0	43	0	1073741824	19	4975
2026-01-13 23:29:45.42	96.21	42.05	-29.8	-32.6	12.4	1.78e-04	0	43	0	1076887552	19	4938
2026-01-13 23:29:46.43	96.71	42.05	-29.5	-31.8	12.9	5.41e-05	0	43	0	1080033280	19	4691
2026-01-13 23:29:47.43	97.21	42.06	-29.7	-32.2	12.7	6.63e-05	0	43	0	1083179008	19	4827
2026-01-13 23:29:48.43	97.70	42.06	-29.8	-32.6	12.4	1.77e-04	0	43	0	1086324736	19	4961
2026-01-13 23:29:49.43	98.20	42.05	-29.9	-32.8	12.3	1.64e-04	0	43	0	1089470464	19	5022
2026-01-13 23:29:50.43	98.69	42.05	-29.9	-32.8	12.2	2.19e-04	0	43	0	1092616192	19	5025
2026-01-13 23:29:51.43	99.19	42.04	-29.7	-32.3	12.5	1.22e-04	0	43	0	1095761920	19	4854
2026-01-13 23:29:52.43	99.68	42.03	-29.7	-32.3	12.6	1.04e-04	0	43	0	1098907648	19	4846
2026-01-13 23:29:53.42	100.17	42.02	-30.0	-32.9	12.2	2.03e-04	0	43	0	1102053376	19	5055
2026-01-13 23:29:54.42	100.67	42.01	-30.0	-32.6	12.0	4.04e-04	0	43	0	1105199104	20	4867
2026-01-13 23:29:55.42	101.16	41.99	-29.8	-32.0	12.4	1.89e-04	0	43	0	1108344832	20	4646
2026-01-13 23:29:56.41	101.65	41.97	-29.4	-31.1	12.9	6.86e-05	0	43	0	1111490560	20	4367
2026-01-13 23:29:57.42	102.15	41.95	-29.3	-31.3	13.3	1.67e-05	0	43	0	1114636288	19	4514
2026-01-13 23:29:58.42	102.64	41.93	-29.4	-31.6	13.0	2.82e-05	0	43	0	1117782016	19	4600
2026-01-13 23:29:59.42	103.13	41.90	-29.4	-31.5	13.1	2.97e-05	0	43	0	1120927744	19	4584
2026-01-13 23:30:00.42	103.62	41.87	-29.5	-31.6	13.0	3.89e-05	0	43	0	1124073472	19	4618
2026-01-13 23:30:01.42	104.11	41.84	-29.4	-31.5	13.1	4.27e-05	0	43	0	1127219200	19	4585
2026-01-13 23:30:02.42	104.60	41.81	-29.3	-31.3	13.3	3.05e-05	0	43	0	1130364928	19	4515
2026-01-13 23:30:03.43	105.09	41.77	-29.3	-31.2	13.3	2.21e-05	0	43	0	1133510656	19	4496
2026-01-13 23:30:04.43	105.58	41.74	-29.3	-31.2	13.3	1.60e-05	0	43	0	1136656384	19	4479
2026-01-13 23:30:05.43	106.07	41.70	-29.3	-31.1	13.3	1.29e-05	0	43	0	1139802112	19	4459
2026-01-13 23:30:06.44	106.55	41.66	-29.2	-31.0	13.4	1.06e-05	0	43	0	1142947840	19	4403
2026-01-13 23:30:07.43	107.03	41.61	-29.5	-31.6	13.0	2.67e-05	0	43	0	1146093568	19	4612
2026-01-13 23:30:08.43	107.51	41.57	-29.8	-32.5	12.5	8.85e-05	0	43	0	1149239296	19	4898
2026-01-13 23:30:09.43	108.00	41.52	-29.7	-32.2	12.6	1.04e-04	0	43	0	1151336448	19	4813
2026-01-13 23:30:10.43	108.47	41.47	-29.4	-31.4	13.1	2.74e-05	0	43	0	1155530752	19	4549
2026-01-13 23:30:11.43	108.95	41.42	-29.3	-31.2	13.3	1.29e-05	0	43	0	1157627904	19	4472
2026-01-13 23:30:12.43	109.43	41.36	-29.5	-31.7	13.0	2.44e-05	0	43	0	1160773632	19	4633
2026-01-13 23:30:13.43	109.90	41.30	-29.7	-32.3	12.7	6.71e-05	0	43	0	1163919360	19	4836
2026-01-13 23:30:14.43	110.38	41.25	-29.8	-32.5	12.4	1.54e-04	0	43	0	1167065088	19	4928
2026-01-13 23:30:15.43	110.85	41.19	-29.6	-31.9	12.9	5.18e-05	0	43	0	1170210816	19	4704
2026-01-13 23:30:16.43	111.32	41.12	-29.7	-32.2	12.7	6.25e-05	0	43	0	1173356544	19	4806
2026-01-13 23:30:17.43	111.78	41.06	-29.8	-32.5	12.5	1.51e-04	0	43	0	1176502272	19	4924
2026-01-13 23:30:18.43	112.25	40.99	-29.8	-32.4	12.6	1.20e-04	0	43	0	1179648000	19	4872
2026-01-13 23:30:19.43	112.71	40.92	-29.7	-32.4	12.6	9.23e-05	0	43	0	1182793728	19	4859
2026-01-13 23:30:20.42	113.17	40.85	-29.7	-32.3	12.7	9.46e-05	0	43	0	1185939456	19	4827
2026-01-13 23:30:21.42	113.63	40.78	-29.9	-32.8	12.3	1.78e-04	0	43	0	1189085184	19	5001
2026-01-13 23:30:22.42	114.09	40.71	-29.9	-32.9	12.3	2.40e-04	0	43	0	1192230912	19	5041
2026-01-13 23:30:23.42	114.54	40.63	-30.0	-32.7	12.1	2.30e-04	0	43	0	1195376640	20	4861
2026-01-13 23:30:24.42	115.00	40.55	-30.1	-32.7	12.0	3.15e-04	0	43	0	1198522368	20	4868
2026-01-13 23:30:25.43	115.45	40.47	-29.9	-32.2	12.3	2.53e-04	0	43	0	1201668096	20	4705
2026-01-13 23:30:26.43	115.90	40.39	-29.5	-31.2	12.9	8.69e-05	0	43	0	1204813824	20	4398
2026-01-13 23:30:27.43	116.35	40.31	-29.3	-31.1	13.3	2.36e-05	0	43	0	1207959552	19	4460
2026-01-13 23:30:28.44	116.80	40.22	-28.9	-30.2	13.9	8.30e-06	0	43	0	1211105280	19	4199
2026-01-13 23:30:29.43	117.24	40.14	-28.8	-30.0	14.0	2.20e-06	0	43	0	1214251008	19	4145
2026-01-13 23:30:30.43	117.68	40.05	-29.3	-31.2	13.3	1.98e-05	0	43	0	1217396736	19	4476
2026-01-13 23:30:31.43	118.11	39.96	-29.6	-32.0	12.8	3.73e-05	0	43	0	1220542464	19	4741
2026-01-13 23:30:32.43	118.55	39.87	-29.7	-32.2	12.7	8.08e-05	0	43	0	1223688192	19	4818
2026-01-13 23:30:33.44	118.99	39.77	-29.4	-31.5	13.2	4.27e-05	0	43	0	1226833920	19	4576
2026-01-13 23:30:34.45	119.42	39.68	-29.0	-30.6	13.6	9.90e-06	0	43	0	1229979648	19	4311
2026-01-13 23:30:35.45	119.85	39.58	-28.8	-30.1	14.0	1.50e-06	0	43	0	1233125376	19	4168
2026-01-13 23:30:36.45	120.27	39.48	-28.9	-30.7	13.9	3.00e-06	0	43	0	1236271104	18	4439
2026-01-13 23:30:37.45	120.70	39.38	-29.2	-31.4	13.5	8.30e-06	0	43	0	1239416832	18	4656
2026-01-13 23:30:38.46	121.12	39.28	-29.2	-31.4	13.5	1.37e-05	0	43	0	1242562560	18	4661
2026-01-13 23:30:39.45	121.54	39.18	-29.5	-31.7	13.0	4.50e-05	0	43	0	1245708288	19	4652
2026-01-13 23:30:40.45	121.95	39.08	-29.7	-32.3	12.6	7.09e-05	0	43	0	1248854016	19	4861
2026-01-13 23:30:41.45	122.36	38.97	-29.9	-32.8	12.3	2.10e-04	0	43	0	1251999744	19	5015
2026-01-13 23:30:42.45	122.77	38.87	-29.5	-31.7	12.9	5.49e-05	0	43	0	1255145472	19	4658
2026-01-13 23:30:43.45	123.18	38.76	-29.0	-30.5	13.7	1.06e-05	0	43	0	1258291200	19	4285
2026-01-13 23:30:44.45	123.58	38.65	-28.8	-30.0	14.0	4.50e-06	0	43	0	1261436928	19	4139
2026-01-13 23:30:45.44	123.98	38.54	-28.6	-30.0	14.3	3.80e-06	0	43	0	1264582656	18	4234
2026-01-13 23:30:46.45	124.39	38.43	-28.7	-30.3	14.1	0.00e+00	0	43	0	1267728384	18	4312
2026-01-13 23:30:47.44	124.78	38.32	-29.0	-31.0	13.7	6.80e-06	0	43	0	1270874112	18	4531
2026-01-13 23:30:48.44	125.17	38.21	-29.2	-31.4	13.4	9.10e-06	0	43	0	1274019840	18	4660
2026-01-13 23:30:49.45	125.57	38.09	-29.0	-31.0	13.7	9.10e-06	0	43	0	1277165568	18	4537
2026-01-13 23:30:50.45	125.96	37.98	-29.0	-31.1	13.7	6.80e-06	0	43	0	1280311296	18	4559
2026-01-13 23:30:51.45	126.34	37.86	-29.3	-31.6	13.3	1.75e-05	0	43	0	1283457024	18	4728
2026-01-13 23:30:52.45	126.73	37.74	-29.2	-31.4	13.4	9.90e-06	0	43	0	1286602752	18	4673
2026-01-13 23:30:53.45	127.11	37.63	-29.3	-31.8	13.2	1.67e-05	0	43	0	1289748480	18	4781
2026-01-13 23:30:54.46	127.49	37.51	-29.2	-31.5	13.4	2.51e-05	0	43	0	1292894208	18	4687
2026-01-13 23:30:55.46	127.86	37.38	-29.2	-31.5	13.4	1.29e-05	0	43	0	1296039936	18	4687
2026-01-13 23:30:56.46	128.23	37.26	-29.5	-32.3	12.9	2.13e-05	0	43	0	1299185664	18	4943
2026-01-13 23:30:57.46	128.60	37.14	-29.8	-32.5	12.4	1.26e-04	0	43	0	1302331392	19	4928
2026-01-13 23:30:58.46	128.97	37.02	-29.6	-32.1	12.7	7.32e-05	0	43	0	1305477120	19	4779
2026-01-13 23:30:59.46	129.34	36.90	-29.5	-31.8	12.9	6.33e-05	0	43	0	1308622848	19	4671
2026-01-13 23:31:00.46	129.70	36.77	-29.6	-32.1	12.7	5.64e-05	0	43	0	1311768576	19	4765
2026-01-13 23:31:01.46	130.06	36.65	-29.4	-31.5	13.0	7.17e-05	0	43	0	1314914304	19	4581
2026-01-13 23:31:02.45	130.41	36.52	-28.9	-30.2	13.8	6.10e-06	0	43	0	1318060032	19	4205
2026-01-13 23:31:03.45	130.76	36.39	-28.7	-30.2	14.1	2.20e-06	0	43	0	1321205760	18	4312
2026-01-13 23:31:04.45	131.11	36.27	-28.7	-30.3	14.1	2.20e-06	0	43	0	1324351488	18	4329
2026-01-13 23:31:05.45	131.46	36.14	-28.9	-30.7	13.9	2.20e-06	0	43	0	1327497216	18	4447
2026-01-13 23:31:06.44	131.80	36.01	-29.1	-31.3	13.5	5.30e-06	0	43	0	1329594368	18	4648
2026-01-13 23:31:07.44	132.14	35.88	-29.3	-31.8	13.1	2.74e-05	0	43	0	1332740096	18	4810
2026-01-13 23:31:08.45	132.49	35.75	-29.3	-31.7	13.2	2.21e-05	0	43	0	1335885824	18	4773
2026-01-13 23:31:09.45	132.82	35.62	-29.3	-31.7	13.2	2.59e-05	0	43	0	1339031552	18	4775
2026-01-13 23:31:10.45	133.16	35.49	-29.2	-31.4	13.4	1.29e-05	0	43	0	1342177280	18	4671
2026-01-13 23:31:11.46	133.49	35.36	-29.3	-31.9	13.1	2.36e-05	0	43	0	1345323008	18	4817
2026-01-13 23:31:12.45	133.82	35.23	-29.5	-31.9	12.8	4.95e-05	0	43	0	1348468736	19	4702
2026-01-13 23:31:13.45	134.15	35.09	-29.7	-32.3	12.5	8.16e-05	0	43	0	1351614464	19	4854
2026-01-13 23:31:14.45	134.47	34.96	-29.7	-32.4	12.5	1.38e-04	0	43	0	1354760192	19	4880
2026-01-13 23:31:15.45	134.79	34.83	-29.5	-31.7	12.9	4.65e-05	0	43	0	1357905920	19	4640
2026-01-13 23:31:16.45	135.11	34.69	-29.2	-30.9	13.4	1.67e-05	0	43	0	1361051648	19	4408
2026-01-13 23:31:17.46	135.43	34.56	-28.9	-30.4	13.8	4.50e-06	0	43	0	1364197376	19	4247
2026-01-13 23:31:18.46	135.75	34.42	-28.8	-30.5	14.0	1.50e-06	0	43	0	1367343104	18	4384
2026-01-13 23:31:19.45	136.05	34.29	-28.7	-30.3	14.0	3.80e-06	0	43	0	1370488832	18	4344
2026-01-13 23:31:20.45	136.36	34.15	-28.5	-29.9	14.3	0.00e+00	0	43	0	1373634560	18	4206
2026-01-13 23:31:21.44	136.67	34.02	-28.6	-30.0	14.2	0.00e+00	0	43	0	1376780288	18	4242
2026-01-13 23:31:22.43	136.97	33.89	-28.5	-29.9	14.3	2.20e-06	0	43	0	1379926016	18	4209
2026-01-13 23:31:23.43	137.27	33.75	-28.6	-30.0	14.3	7.00e-07	0	43	0	1383071744	18	4227
2026-01-13 23:31:24.43	137.57	33.61	-28.7	-30.2	14.1	2.20e-06	0	43	0	1386217472	18	4315
2026-01-13 23:31:25.43	137.86	33.48	-28.4	-29.6	14.4	0.00e+00	0	43	0	1389363200	18	4143
2026-01-13 23:31:26.43	138.16	33.34	-28.2	-29.5	14.8	0.00e+00	0	43	0	1392508928	17	4223
2026-01-13 23:31:27.44	138.45	33.20	-28.1	-29.4	14.8	7.00e-07	0	43	0	1395654656	17	4185
2026-01-13 23:31:28.43	138.74	33.07	-28.2	-29.5	14.8	7.00e-07	0	43	0	1398800384	17	4221
2026-01-13 23:31:29.43	139.02	32.93	-28.1	-29.3	14.9	0.00e+00	0	43	0	1401946112	17	4168
2026-01-13 23:31:30.43	139.31	32.79	-28.1	-29.5	14.8	0.00e+00	0	43	0	1405091840	17	4219
2026-01-13 23:31:31.43	139.59	32.65	-28.1	-29.9	14.8	0.00e+00	0	43	0	1408237568	16	4427
2026-01-13 23:31:32.43	139.87	32.52	-27.9	-29.3	15.1	0.00e+00	0	43	0	1411383296	16	4272
2026-01-13 23:31:33.43	140.15	32.38	-27.7	-29.0	15.3	0.00e+00	0	43	0	1414529024	16	4190
2026-01-13 23:31:34.44	140.43	32.24	-27.8	-29.1	15.3	0.00e+00	0	43	0	1417674752	16	4220
2026-01-13 23:31:35.44	140.70	32.10	-27.5	-29.0	15.5	0.00e+00	0	43	0	1420820480	15	4287
2026-01-13 23:31:36.44	140.97	31.96	-27.4	-28.9	15.5	0.00e+00	0	43	0	1423966208	15	4268
2026-01-13 23:31:37.43	141.24	31.83	-27.5	-29.0	15.4	0.00e+00	0	43	0	1427111936	15	4293
2026-01-13 23:31:38.43	141.50	31.69	-27.4	-29.5	15.5	0.00e+00	0	43	0	1430257664	14	4543
2026-01-13 23:31:39.43	141.77	31.55	-27.8	-29.7	15.0	0.00e+00	0	43	0	1433403392	15	4498
2026-01-13 23:31:40.43	142.03	31.41	-27.8	-29.8	14.9	0.00e+00	0	43	0	1436549120	15	4538
2026-01-13 23:31:41.42	142.28	31.27	-27.5	-29.1	15.3	7.00e-07	0	43	0	1439694848	15	4332
2026-01-13 23:31:42.43	142.54	31.13	-27.4	-28.9	15.5	0.00e+00	0	43	0	1442840576	15	4268
2026-01-13 23:31:43.43	142.80	31.00	-27.3	-29.1	15.6	0.00e+00	0	43	0	1445986304	14	4432
2026-01-13 23:31:44.43	143.05	30.86	-27.2	-28.9	15.7	0.00e+00	0	43	0	1449132032	14	4371
2026-01-13 23:31:45.43	143.30	30.72	-27.1	-28.7	15.9	0.00e+00	0	43	0	1452277760	14	4313
2026-01-13 23:31:46.44	143.55	30.58	-27.2	-28.8	15.8	0.00e+00	0	43	0	1455423488	14	4361
2026-01-13 23:31:47.44	143.80	30.44	-27.2	-28.9	15.7	3.00e-06	0	43	0	1458569216	14	4396
2026-01-13 23:31:48.44	144.05	30.31	-27.3	-29.1	15.6	0.00e+00	0	43	0	1461714944	14	4446
2026-01-13 23:31:49.44	144.29	30.17	-27.3	-29.2	15.6	0.00e+00	0	43	0	1464860672	14	4463
2026-01-13 23:31:50.44	144.53	30.03	-27.3	-29.2	15.6	0.00e+00	0	43	0	1468006400	14	4458
2026-01-13 23:31:51.44	144.77	29.89	-27.5	-29.5	15.4	0.00e+00	0	43	0	1471152128	14	4553
2026-01-13 23:31:52.44	145.00	29.76	-27.6	-29.3	15.2	0.00e+00	0	43	0	1474297856	15	4392
2026-01-13 23:31:53.44	145.24	29.62	-27.3	-28.6	15.6	0.00e+00	0	43	0	1477443584	15	4199
2026-01-13 23:31:54.44	145.47	29.48	-27.1	-28.2	15.8	0.00e+00	0	43	0	1480589312	15	4079
2026-01-13 23:31:55.45	145.71	29.34	-27.1	-28.8	15.8	0.00e+00	0	43	0	1483735040	14	4344
2026-01-13 23:31:56.45	145.93	29.21	-27.3	-29.2	15.5	0.00e+00	0	43	0	1486880768	14	4460
2026-01-13 23:31:57.45	146.16	29.07	-27.3	-29.3	15.5	7.00e-07	0	43	0	1488977920	14	4492
2026-01-13 23:31:58.45	146.39	28.93	-27.3	-29.2	15.5	0.00e+00	0	43	0	1492123648	14	4471
2026-01-13 23:31:59.45	146.61	28.80	-27.2	-28.9	15.7	0.00e+00	0	43	0	1495269376	14	4382
2026-01-13 23:32:00.46	146.83	28.66	-27.2	-28.9	13.7	0.00e+00	0	43	0	1498415104	14	4382
2026-01-13 23:32:01.47	147.06	28.52	-27.2	-28.8	14.5	0.00e+00	0	43	0	1501560832	14	4365
2026-01-13 23:32:02.47	147.27	28.39	-27.2	-28.9	15.7	0.00e+00	0	43	0	1504706560	14	4371
2026-01-13 23:32:03.47	147.49	28.25	-27.2	-28.9	15.6	0.00e+00	0	43	0	1507852288	14	4385
2026-01-13 23:32:04.47	147.70	28.12	-27.3	-29.2	15.5	0.00e+00	0	43	0	1510998016	14	4475
2026-01-13 23:32:05.47	147.92	27.98	-27.3	-29.1	15.5	0.00e+00	0	43	0	1514143744	14	4447
2026-01-13 23:32:06.47	148.13	27.85	-27.3	-29.2	15.5	0.00e+00	0	43	0	1517289472	14	4486
2026-01-13 23:32:07.48	148.34	27.71	-27.4	-29.3	15.4	0.00e+00	0	43	0	1520435200	14	4506
2026-01-13 23:32:08.48	148.55	27.58	-27.3	-29.3	15.5	0.00e+00	0	43	0	1523580928	14	4488
2026-01-13 23:32:09.48	148.75	27.45	-27.4	-29.4	15.4	3.81e-03	0	43	0	1526726656	14	4531
2026-01-13 23:32:10.49	148.96	27.31	-27.3	-29.2	15.5	3.42e-03	0	43	0	1529872384	14	4470
2026-01-13 23:32:11.49	149.16	27.18	-27.3	-29.1	15.5	0.00e+00	0	43	0	1533018112	14	4453
2026-01-13 23:32:12.49	149.36	27.04	-27.2	-28.9	15.6	0.00e+00	0	43	0	1536163840	14	4387
2026-01-13 23:32:13.49	149.56	26.91	-27.0	-28.9	15.8	0.00e+00	0	43	0	1539309568	13	4497
2026-01-13 23:32:14.49	149.76	26.78	-26.9	-28.8	15.9	0.00e+00	0	43	0	1542455296	13	4477
2026-01-13 23:32:15.49	149.95	26.65	-27.0	-28.9	15.8	3.85e-03	0	43	0	1545601024	13	4512
2026-01-13 23:32:16.49	150.15	26.52	-27.2	-28.9	15.6	0.00e+00	0	43	0	1548746752	14	4376
2026-01-13 23:32:17.50	150.34	26.38	-27.1	-28.8	15.6	0.00e+00	0	43	0	1551892480	14	4358
2026-01-13 23:32:18.50	150.53	26.25	-27.0	-28.4	15.9	1.42e-03	0	43	0	1555038208	14	4247
2026-01-13 23:32:19.49	150.72	26.12	-27.0	-28.9	15.8	3.50e-03	0	43	0	1558183936	13	4507
2026-01-13 23:32:20.50	150.91	25.99	-27.0	-28.4	15.9	0.00e+00	0	43	0	1561329664	14	4243
2026-01-13 23:32:21.50	151.10	25.86	-27.0	-28.4	15.9	3.56e-03	0	43	0	1564475392	14	4249
2026-01-13 23:32:22.50	151.28	25.73	-27.1	-28.8	15.6	0.00e+00	0	43	0	1567621120	14	4364
2026-01-13 23:32:23.51	151.47	25.60	-27.2	-28.9	15.5	0.00e+00	0	43	0	1570766848	14	4406
2026-01-13 23:32:24.51	151.65	25.47	-27.3	-29.2	15.4	3.81e-03	0	43	0	1573912576	14	4489
2026-01-13 23:32:25.50	151.83	25.34	-27.3	-29.3	15.4	3.66e-03	0	43	0	1577058304	14	4494
2026-01-13 23:32:26.49	152.01	25.22	-27.1	-28.8	15.6	0.00e+00	0	43	0	1580204032	14	4362
2026-01-13 23:32:27.49	152.18	25.09	-27.0	-28.5	15.8	0.00e+00	0	43	0	1583349760	14	4288
2026-01-13 23:32:28.49	152.36	24.96	-26.9	-28.3	15.9	3.36e-03	0	43	0	1586495488	14	4231
2026-01-13 23:32:29.49	152.54	24.83	-27.0	-28.6	15.8	0.00e+00	0	43	0	1589641216	14	4299
2026-01-13 23:32:30.49	152.71	24.70	-26.9	-28.4	15.8	3.34e-03	0	43	0	1592786944	14	4251
2026-01-13 23:32:31.49	152.88	24.58	-26.9	-28.7	15.9	3.80e-03	0	43	0	1595932672	13	4453
2026-01-13 23:32:32.49	153.05	24.45	-26.9	-28.8	15.9	0.00e+00	0	43	0	1599078400	13	4480
2026-01-13 23:32:33.49	153.22	24.32	-26.9	-28.9	15.8	3.80e-03	0	43	0	1602224128	13	4502
2026-01-13 23:32:34.49	153.39	24.20	-27.2	-29.0	15.5	3.72e-03	0	43	0	1605369856	14	4415
2026-01-13 23:32:35.50	153.56	24.07	-27.3	-29.2	15.4	0.00e+00	0	43	0	1608515584	14	4467
2026-01-13 23:32:36.49	153.72	23.95	-27.1	-28.8	15.6	3.66e-03	0	43	0	1611661312	14	4367
2026-01-13 23:32:37.48	153.89	23.82	-27.1	-28.8	15.6	3.39e-03	0	43	0	1614807040	14	4359
2026-01-13 23:32:38.48	154.05	23.70	-27.1	-28.7	15.6	0.00e+00	0	43	0	1617952768	14	4330
2026-01-13 23:32:39.48	154.21	23.58	-27.0	-28.6	15.7	3.29e-03	0	43	0	1621098496	14	4310
2026-01-13 23:32:40.48	154.37	23.45	-27.2	-28.9	15.5	3.82e-03	0	43	0	1624244224	14	4387
2026-01-13 23:32:41.49	154.53	23.33	-27.2	-29.0	15.5	0.00e+00	0	43	0	1627389952	14	4412
2026-01-13 23:32:42.49	154.69	23.20	-27.2	-28.9	15.5	2.86e-03	0	43	0	1630535680	14	4388
2026-01-13 23:32:43.49	154.85	23.08	-27.3	-29.3	15.3	3.69e-03	0	43	0	1633681408	14	4507
2026-01-13 23:32:44.49	155.01	22.96	-27.4	-29.3	15.2	7.00e-07	0	43	0	1636827136	14	4519
2026-01-13 23:32:45.49	155.16	22.84	-27.3	-29.1	15.4	3.70e-03	0	43	0	1639972864	14	4467
2026-01-13 23:32:46.49	155.31	22.72	-27.2	-29.1	15.4	3.47e-03	0	43	0	1643118592	14	4454
2026-01-13 23:32:47.50	155.47	22.59	-27.2	-29.1	15.4	0.00e+00	0	43	0	1646264320	14	4439
2026-01-13 23:32:48.50	155.62	22.47	-27.2	-29.1	15.4	0.00e+00	0	43	0	1649410048	14	4444
2026-01-13 23:32:49.51	155.77	22.35	-27.2	-29.0	15.4	3.90e-03	0	43	0	1652555776	14	4422
2026-01-13 23:32:50.50	155.92	22.23	-27.1	-28.8	15.5	0.00e+00	0	43	0	1655701504	14	4376
2026-01-13 23:32:51.51	156.07	22.11	-27.1	-28.7	15.6	3.84e-03	0	43	0	1658847232	14	4352
2026-01-13 23:32:52.51	156.21	21.99	-27.1	-28.8	15.5	0.00e+00	0	43	0	1661992960	14	4369
2026-01-13 23:32:53.51	156.36	21.87	-27.1	-28.7	15.6	0.00e+00	0	43	0	1665138688	14	4327
2026-01-13 23:32:54.50	156.50	21.76	-27.0	-28.5	15.7	3.72e-03	0	43	0	1668284416	14	4272
2026-01-13 23:32:55.50	156.65	21.64	-27.0	-28.5	15.7	3.26e-03	0	43	0	1670381568	14	4282
2026-01-13 23:32:56.51	156.79	21.52	-27.0	-28.4	15.7	0.00e+00	0	43	0	1673527296	14	4269
2026-01-13 23:32:57.50	156.93	21.40	-27.0	-28.4	15.8	0.00e+00	0	43	0	1676673024	14	4261
2026-01-13 23:32:58.51	157.07	21.29	-27.0	-28.5	15.7	0.00e+00	0	43	0	1679818752	14	4286
2026-01-13 23:32:59.51	157.21	21.17	-27.0	-28.5	15.7	0.00e+00	0	43	0	1682964480	14	4302
2026-01-13 23:33:00.52	157.35	21.05	-27.0	-28.6	15.6	3.82e-03	0	43	0	1686110208	14	4312
2026-01-13 23:33:01.52	157.49	20.94	-26.9	-28.4	15.7	3.71e-03	0	43	0	1689255936	14	4267
2026-01-13 23:33:02.53	157.63	20.82	-27.0	-28.5	15.7	0.00e+00	0	43	0	1692401664	14	4292
2026-01-13 23:33:03.52	157.76	20.70	-27.0	-28.5	15.7	0.00e+00	0	43	0	1695547392	14	4299
2026-01-13 23:33:04.53	157.90	20.59	-26.9	-28.8	15.8	0.00e+00	0	43	0	1698693120	13	4495
2026-01-13 23:33:05.52	158.03	20.48	-26.9	-28.8	15.8	0.00e+00	0	43	0	1701838848	13	4482
2026-01-13 23:33:06.52	158.16	20.36	-26.9	-28.7	15.8	3.32e-03	0	43	0	1704984576	13	4468
2026-01-13 23:33:07.53	158.30	20.25	-27.0	-28.7	15.6	4.50e-06	0	43	0	1708130304	14	4337
2026-01-13 23:33:08.53	158.43	20.13	-27.3	-29.1	15.3	0.00e+00	0	43	0	1711276032	14	4459
2026-01-13 23:33:09.53	158.56	20.02	-27.2	-29.1	15.3	0.00e+00	0	43	0	1714421760	14	4456
2026-01-13 23:33:10.52	158.68	19.91	-27.0	-28.4	15.7	3.65e-03	0	43	0	1717567488	14	4269
2026-01-13 23:33:11.53	158.81	19.80	-26.8	-28.2	15.8	0.00e+00	0	43	0	1720713216	14	4204
2026-01-13 23:33:12.53	158.94	19.68	-26.8	-28.5	15.9	0.00e+00	0	43	0	1723858944	13	4405
2026-01-13 23:33:13.53	159.07	19.57	-26.8	-28.6	15.8	0.00e+00	0	43	0	1727004672	13	4433
2026-01-13 23:33:14.52	159.19	19.46	-26.8	-28.6	15.8	0.00e+00	0	43	0	1730150400	13	4430
2026-01-13 23:33:15.52	159.31	19.35	-26.8	-28.7	15.8	0.00e+00	0	43	0	1733296128	13	4445
2026-01-13 23:33:16.52	159.44	19.24	-27.0	-29.0	15.6	0.00e+00	0	43	0	1736441856	13	4533
2026-01-13 23:33:17.51	159.56	19.13	-27.0	-28.9	15.6	0.00e+00	0	43	0	1739587584	13	4531
2026-01-13 23:33:18.51	159.68	19.02	-27.1	-28.7	15.5	0.00e+00	0	43	0	1742733312	14	4358
2026-01-13 23:33:19.51	159.80	18.91	-27.3	-29.1	15.2	7.00e-07	0	43	0	1745879040	14	4472
2026-01-13 23:33:20.51	159.92	18.80	-27.4	-29.4	15.1	0.00e+00	0	43	0	1749024768	14	4536
2026-01-13 23:33:21.51	160.04	18.70	-27.4	-29.4	15.1	0.00e+00	0	43	0	1752170496	14	4547
2026-01-13 23:33:22.51	160.16	18.59	-27.4	-29.4	15.1	7.00e-07	0	43	0	1755316224	14	4561
2026-01-13 23:33:23.51	160.28	18.48	-27.4	-29.5	15.1	0.00e+00	0	43	0	1758461952	14	4564
2026-01-13 23:33:24.51	160.39	18.37	-27.4	-29.4	15.1	0.00e+00	0	43	0	1761607680	14	4558
2026-01-13 23:33:25.52	160.51	18.26	-27.3	-29.3	15.1	0.00e+00	0	43	0	1764753408	14	4527
2026-01-13 23:33:26.51	160.62	18.16	-27.3	-29.3	15.2	0.00e+00	0	43	0	1767899136	14	4511
2026-01-13 23:33:27.52	160.74	18.05	-27.3	-29.2	15.2	0.00e+00	0	43	0	1771044864	14	4487
2026-01-13 23:33:28.53	160.86	17.94	-27.3	-29.3	15.1	0.00e+00	0	43	0	1774190592	14	4522
2026-01-13 23:33:29.52	160.97	17.84	-27.4	-29.6	15.0	0.00e+00	0	43	0	1777336320	14	4594
2026-01-13 23:33:30.51	161.08	17.74	-27.4	-29.6	15.0	0.00e+00	0	43	0	1780482048	14	4599
2026-01-13 23:33:31.51	161.19	17.63	-27.5	-29.7	14.9	7.00e-07	0	43	0	1783627776	14	4626
2026-01-13 23:33:32.51	161.30	17.53	-27.5	-29.2	14.9	0.00e+00	0	43	0	1786773504	15	4386
2026-01-13 23:33:33.51	161.41	17.42	-27.6	-29.5	14.7	0.00e+00	0	43	0	1789919232	15	4455
2026-01-13 23:33:34.52	161.52	17.32	-27.7	-29.6	14.7	0.00e+00	0	43	0	1793064960	15	4494
2026-01-13 23:33:35.52	161.63	17.21	-27.6	-29.4	14.8	7.00e-07	0	43	0	1796210688	15	4422
2026-01-13 23:33:36.53	161.74	17.11	-27.5	-29.2	14.9	0.00e+00	0	43	0	1799356416	15	4386
2026-01-13 23:33:37.53	161.84	17.00	-27.5	-29.2	14.9	7.00e-07	0	43	0	1802502144	15	4377
2026-01-13 23:33:38.54	161.95	16.90	-27.4	-29.0	15.0	0.00e+00	0	43	0	1805647872	15	4332
2026-01-13 23:33:39.53	162.06	16.80	-27.5	-29.6	14.9	0.00e+00	0	43	0	1808793600	14	4603
2026-01-13 23:33:40.53	162.16	16.70	-27.4	-29.0	15.0	0.00e+00	0	43	0	1811939328	15	4326
2026-01-13 23:33:41.54	162.27	16.60	-27.5	-29.1	14.9	7.00e-07	0	43	0	1815085056	15	4361
2026-01-13 23:33:42.54	162.37	16.49	-27.5	-29.2	14.9	0.00e+00	0	43	0	1818230784	15	4378
2026-01-13 23:33:43.54	162.47	16.39	-27.4	-29.5	14.9	0.00e+00	0	43	0	1821376512	14	4596
2026-01-13 23:33:44.55	162.58	16.29	-27.5	-29.7	14.8	0.00e+00	0	43	0	1824522240	14	4655
2026-01-13 23:33:45.55	162.68	16.19	-27.4	-29.1	14.9	0.00e+00	0	43	0	1827667968	15	4380
2026-01-13 23:33:46.54	162.78	16.09	-27.5	-29.4	14.7	0.00e+00	0	43	0	1830813696	15	4452
2026-01-13 23:33:47.55	162.88	15.99	-27.6	-29.5	14.7	0.00e+00	0	43	0	1833959424	15	4478
2026-01-13 23:33:48.56	162.98	15.89	-27.6	-29.6	14.6	1.14e-05	0	43	0	1837105152	15	4504
2026-01-13 23:33:49.56	163.08	15.79	-27.8	-29.9	14.4	0.00e+00	0	43	0	1840250880	15	4621
2026-01-13 23:33:50.55	163.18	15.69	-27.8	-30.1	14.3	1.50e-06	0	43	0	1843396608	15	4658
2026-01-13 23:33:51.55	163.28	15.60	-27.9	-30.1	14.3	0.00e+00	0	43	0	1846542336	15	4675
2026-01-13 23:33:52.55	163.37	15.50	-28.0	-30.4	14.1	2.20e-06	0	43	0	1849688064	15	4760
2026-01-13 23:33:53.55	163.47	15.40	-28.3	-30.5	13.9	3.00e-06	0	43	0	1851785216	16	4669
2026-01-13 23:33:54.55	163.57	15.30	-28.3	-30.7	13.8	5.30e-06	0	43	0	1854930944	16	4707
2026-01-13 23:33:55.55	163.66	15.21	-28.3	-30.6	13.9	3.80e-06	0	43	0	1858076672	16	4686
2026-01-13 23:33:56.55	163.76	15.11	-28.3	-30.7	13.8	3.80e-06	0	43	0	1861222400	16	4714
2026-01-13 23:33:57.56	163.85	15.01	-28.4	-30.8	13.7	1.75e-05	0	43	0	1864368128	16	4750
2026-01-13 23:33:58.57	163.95	14.92	-28.4	-30.8	13.7	4.50e-06	0	43	0	1867513856	16	4756
2026-01-13 23:33:59.56	164.04	14.82	-28.4	-30.9	13.6	7.60e-06	0	43	0	1870659584	16	4798
2026-01-13 23:34:00.56	164.13	14.72	-28.4	-30.4	13.7	6.10e-06	0	43	0	1873805312	17	4517
2026-01-13 23:34:01.56	164.22	14.63	-28.4	-30.7	13.8	3.80e-06	0	43	0	1876951040	16	4731
2026-01-13 23:34:02.56	164.31	14.53	-28.3	-30.6	13.8	3.00e-06	0	43	0	1880096768	16	4694
2026-01-13 23:34:03.56	164.40	14.44	-28.4	-30.9	13.7	2.36e-05	0	43	0	1883242496	16	4781
2026-01-13 23:34:04.56	164.49	14.35	-28.4	-30.7	13.7	6.10e-06	0	43	0	1886388224	16	4730
2026-01-13 23:34:05.56	164.58	14.25	-28.3	-30.6	13.8	4.50e-06	0	43	0	1889533952	16	4695
2026-01-13 23:34:06.56	164.67	14.16	-28.3	-30.7	13.8	2.13e-05	0	43	0	1892679680	16	4718
2026-01-13 23:34:07.56	164.76	14.06	-28.3	-30.7	13.8	9.10e-06	0	43	0	1895825408	16	4720
2026-01-13 23:34:08.56	164.85	13.97	-28.3	-30.7	13.8	3.80e-06	0	43	0	1898971136	16	4720
2026-01-13 23:34:09.56	164.94	13.88	-28.4	-30.8	13.7	1.14e-05	0	43	0	1902116864	16	4740
2026-01-13 23:34:10.56	165.02	13.79	-28.4	-30.9	13.6	1.06e-05	0	43	0	1905262592	16	4782
2026-01-13 23:34:11.55	165.11	13.70	-28.4	-30.4	13.6	6.10e-06	0	43	0	1908408320	17	4522
2026-01-13 23:34:12.55	165.20	13.60	-28.3	-30.5	13.8	1.83e-05	0	43	0	1911554048	16	4675
2026-01-13 23:34:13.54	165.28	13.51	-28.3	-30.5	13.6	9.10e-06	0	43	0	1914699776	16	4668
2026-01-13 23:34:14.54	165.37	13.42	-28.2	-30.4	13.9	2.20e-06	0	43	0	1917845504	16	4621
2026-01-13 23:34:15.54	165.45	13.33	-28.2	-30.4	13.9	6.10e-06	0	43	0	1920991232	16	4634
2026-01-13 23:34:16.54	165.53	13.24	-28.3	-30.6	13.8	3.80e-06	0	43	0	1924136960	16	4694
2026-01-13 23:34:17.54	165.62	13.15	-28.3	-30.5	13.8	4.50e-06	0	43	0	1927282688	16	4667
2026-01-13 23:34:18.54	165.70	13.06	-28.2	-30.3	14.0	1.50e-06	0	43	0	1930428416	16	4603
2026-01-13 23:34:19.54	165.78	12.97	-28.1	-30.2	14.0	2.20e-06	0	43	0	1933574144	16	4566
2026-01-13 23:34:20.54	165.87	12.88	-28.1	-30.2	14.0	3.99e-04	0	43	0	1936719872	16	4556
2026-01-13 23:34:21.54	165.95	12.79	-28.0	-30.4	14.0	2.21e-05	0	43	0	1939865600	15	4763
2026-01-13 23:34:22.54	166.03	12.70	-28.2	-30.3	13.9	4.50e-06	0	43	0	1943011328	16	4608
2026-01-13 23:34:23.54	166.11	12.61	-28.2	-30.3	13.9	3.80e-06	0	43	0	1946157056	16	4616
2026-01-13 23:34:24.54	166.19	12.52	-28.1	-30.2	14.0	5.30e-06	0	43	0	1949302784	16	4565
2026-01-13 23:34:25.54	166.27	12.44	-28.3	-30.5	13.8	6.06e-04	0	43	0	1952448512	16	4671
2026-01-13 23:34:26.54	166.35	12.35	-28.2	-30.5	13.8	6.24e-04	0	43	0	1955594240	16	4659
2026-01-13 23:34:27.54	166.43	12.26	-28.2	-30.5	13.8	1.50e-06	0	43	0	1958739968	16	4663
2026-01-13 23:34:28.55	166.51	12.17	-28.2	-30.5	13.8	5.30e-06	0	43	0	1961885696	16	4661
2026-01-13 23:34:29.55	166.58	12.08	-28.2	-30.5	13.8	1.50e-06	0	43	0	1965031424	16	4657
2026-01-13 23:34:30.55	166.66	12.00	-28.3	-30.7	13.7	7.60e-06	0	43	0	1968177152	16	4729
2026-01-13 23:34:31.56	166.74	11.91	-28.3	-30.6	13.7	4.65e-04	0	43	0	1971322880	16	4712
2026-01-13 23:34:32.56	166.82	11.82	-28.3	-30.7	13.7	4.50e-06	0	43	0	1974468608	16	4724
2026-01-13 23:34:33.57	166.89	11.74	-28.4	-30.9	13.5	1.14e-05	0	43	0	1977614336	16	4789
2026-01-13 23:34:34.57	166.97	11.65	-28.5	-30.6	13.4	1.44e-05	0	43	0	1980760064	17	4588
2026-01-13 23:34:35.56	167.04	11.57	-28.6	-30.9	13.2	5.28e-04	0	43	0	1983905792	17	4690
2026-01-13 23:34:36.57	167.12	11.48	-28.6	-30.9	13.2	1.67e-05	0	43	0	1987051520	17	4684
2026-01-13 23:34:37.56	167.19	11.40	-28.7	-31.0	13.2	5.22e-04	0	43	0	1990197248	17	4709
2026-01-13 23:34:38.56	167.27	11.31	-27.7	-30.2	13.0	2.89e-05	0	43	0	1993342976	17	4797
2026-01-13 23:34:39.56	167.34	11.23	-28.6	-31.4	11.9	1.83e-05	0	43	0	1996488704	16	4970
2026-01-13 23:34:40.56	167.42	11.14	-28.6	-30.8	13.2	5.52e-04	0	43	0	1999634432	17	4636
2026-01-13 23:34:41.56	167.49	11.06	-28.6	-30.8	12.6	5.92e-04	0	43	0	2002780160	17	4639
2026-01-13 23:34:42.57	167.56	10.97	-28.6	-30.9	13.2	2.18e-03	0	43	0	2005925888	17	4673
2026-01-13 23:34:43.58	167.63	10.89	-28.6	-31.0	13.1	8.23e-04	0	43	0	2009071616	17	4712
2026-01-13 23:34:44.58	167.71	10.80	-28.5	-31.1	13.4	6.83e-04	0	43	0	2012217344	16	4855
2026-01-13 23:34:45.58	167.78	10.72	-28.5	-30.6	13.3	1.29e-05	0	43	0	2015363072	17	4597
2026-01-13 23:34:46.58	167.85	10.64	-28.6	-31.0	13.1	6.58e-04	0	43	0	2018508800	17	4722
2026-01-13 23:34:47.58	167.92	10.56	-28.6	-31.0	13.1	4.66e-03	0	43	0	2021654528	17	4711
2026-01-13 23:34:48.59	167.99	10.47	-28.6	-30.8	13.2	3.92e-03	0	43	0	2024800256	17	4668
2026-01-13 23:34:49.59	168.06	10.39	-28.7	-31.1	13.0	6.96e-04	0	43	0	2027945984	17	4758
2026-01-13 23:34:50.59	168.13	10.31	-28.7	-31.1	13.0	6.54e-04	0	43	0	2031091712	17	4763
2026-01-13 23:34:51.60	168.20	10.23	-28.6	-30.9	13.1	2.67e-05	0	43	0	2033188864	17	4698
2026-01-13 23:34:52.60	168.27	10.15	-28.7	-31.1	13.0	8.50e-04	0	43	0	2036334592	17	4758
2026-01-13 23:34:53.59	168.34	10.06	-28.7	-31.2	12.9	4.03e-03	0	43	0	2039480320	17	4785
2026-01-13 23:34:54.60	168.40	9.98	-28.8	-31.3	12.9	4.03e-03	0	43	0	2042626048	17	4821
2026-01-13 23:34:55.61	168.47	9.90	-28.8	-31.3	12.9	6.13e-04	0	43	0	2045771776	17	4823
2026-01-13 23:34:56.60	168.54	9.82	-28.7	-31.1	13.0	5.23e-04	0	43	0	2048917504	17	4755
2026-01-13 23:34:57.61	168.61	9.74	-28.6	-30.9	13.1	3.77e-03	0	43	0	2052063232	17	4710
2026-01-13 23:34:58.61	168.67	9.66	-28.7	-31.1	12.9	7.75e-04	0	43	0	2055208960	17	4771
2026-01-13 23:34:59.61	168.74	9.58	-28.6	-31.0	13.0	3.84e-03	0	43	0	2058354688	17	4728
2026-01-13 23:35:00.61	168.81	9.50	-28.8	-31.3	12.8	3.35e-05	0	43	0	2061500416	17	4843
2026-01-13 23:35:01.61	168.87	9.42	-28.7	-31.2	12.9	5.89e-04	0	43	0	2064646144	17	4787
2026-01-13 23:35:02.62	168.94	9.34	-28.7	-31.3	12.8	4.09e-03	0	43	0	2067791872	17	4816
2026-01-13 23:35:03.62	169.00	9.26	-28.7	-31.2	12.9	4.01e-03	0	43	0	2070937600	17	4795
2026-01-13 23:35:04.62	169.07	9.18	-28.8	-31.5	12.6	3.86e-04	0	43	0	2074083328	17	4910
2026-01-13 23:35:05.62	169.13	9.11	-28.7	-31.3	12.8	4.09e-03	0	43	0	2077229056	17	4831
2026-01-13 23:35:06.62	169.20	9.03	-28.8	-31.3	12.7	2.46e-03	0	43	0	2080374784	17	4855
2026-01-13 23:35:07.62	169.26	8.95	-28.7	-31.3	12.7	1.09e-03	0	43	0	2083520512	17	4845
2026-01-13 23:35:08.62	169.32	8.87	-28.8	-31.4	12.6	3.96e-03	0	43	0	2086666240	17	4886
2026-01-13 23:35:09.63	169.39	8.79	-28.8	-31.4	12.7	3.65e-03	0	43	0	2089811968	17	4857
2026-01-13 23:35:10.63	169.45	8.72	-28.7	-31.3	12.7	3.38e-04	0	43	0	2092957696	17	4844
2026-01-13 23:35:11.63	169.51	8.64	-28.8	-31.6	12.6	1.26e-04	0	43	0	2096103424	17	4941
2026-01-13 23:35:12.63	169.57	8.56	-28.8	-31.6	12.5	4.13e-03	0	43	0	2099249152	17	4938
2026-01-13 23:35:13.63	169.63	8.48	-28.8	-31.5	12.6	3.95e-04	0	43	0	2102394880	17	4901
2026-01-13 23:35:14.64	169.70	8.41	-29.0	-32.0	12.3	4.22e-03	0	43	0	2105540608	17	5076
2026-01-13 23:35:15.64	169.76	8.33	-29.0	-31.4	12.3	4.04e-03	0	43	0	2108686336	18	4763
2026-01-13 23:35:16.64	169.82	8.25	-28.9	-31.9	12.3	1.56e-04	0	43	0	2111832064	17	5034
2026-01-13 23:35:17.64	169.88	8.18	-28.9	-31.8	12.4	4.84e-03	0	43	0	2114977792	17	5003
2026-01-13 23:35:18.64	169.94	8.10	-29.0	-31.6	12.2	3.73e-03	0	43	0	2118123520	18	4819
2026-01-13 23:35:19.64	170.00	8.03	-29.0	-31.6	12.2	5.39e-04	0	43	0	2121269248	18	4835
2026-01-13 23:35:20.63	170.06	7.95	-29.1	-31.7	12.1	3.79e-03	0	43	0	2124414976	18	4852
2026-01-13 23:35:21.63	170.12	7.88	-29.1	-31.9	12.0	3.27e-04	0	43	0	2127560704	18	4926
2026-01-13 23:35:22.63	170.18	7.80	-29.3	-32.3	11.6	5.61e-04	0	43	0	2130706432	18	5087
2026-01-13 23:35:23.63	170.24	7.73	-29.2	-32.1	11.8	4.35e-03	0	43	0	2133852160	18	5005
