passes_logs/2026/01/13/R2M6_AANII_01/R2M6_AANII_01__20260113_043720_FENGYUN_3E_rec.log

#Pass ID: 20260113_043720_FENGYUN 3E
#Satellite: FENGYUN 3E
#Configuration: FENGYUN 3E
#almurnet v.1.7.20240730
#Start time: 2026-01-13 04:42:20

#Version: 2.2.20231116
#Station: R2M6_AANII_01
#Location: 30.233357 lon 59.946436 lat
#TLE: 1 49008U 21062A   26012.25745337  .00000274  00000+0  14981-3 0  9997
#TLE: 2 49008  98.7491  17.4183 0001913 142.8235 217.3074 14.19885845234459

#Time	Az	El	Level	Level2	SNR	BER	BlckErr	Temp	State	Recorded	gain1	gain2
2026-01-13 04:42:20.86	18.81	60.25	-33.4	-44.8	3.8	8.46e-01	0	42	0	0	26	13407
2026-01-13 04:42:21.86	18.81	60.66	-34.0	-43.4	3.8	8.46e-01	0	42	104	0	28	10576
2026-01-13 04:42:22.87	18.80	61.08	-34.0	-43.5	3.8	8.46e-01	0	42	104	0	28	10659
2026-01-13 04:42:23.87	18.80	61.50	-34.0	-43.4	3.8	8.46e-01	0	42	104	0	28	10532
2026-01-13 04:42:24.88	18.79	61.92	-34.1	-43.5	3.8	8.45e-01	0	42	104	0	28	10641
2026-01-13 04:42:25.89	18.79	62.35	-34.1	-43.6	3.8	8.47e-01	0	42	104	0	28	10733
2026-01-13 04:42:26.89	18.78	62.77	-34.1	-43.5	3.8	8.47e-01	0	42	104	0	28	10661
2026-01-13 04:42:27.90	18.77	63.20	-34.1	-43.4	3.8	8.46e-01	0	42	104	0	28	10581
2026-01-13 04:42:28.90	18.76	63.63	-34.1	-43.4	3.8	8.46e-01	0	42	104	0	28	10546
2026-01-13 04:42:29.91	18.76	64.07	-34.0	-43.5	3.8	8.45e-01	0	42	104	0	28	10647
2026-01-13 04:42:30.91	18.75	64.51	-34.0	-43.3	3.9	8.45e-01	0	42	104	0	28	10470
2026-01-13 04:42:31.92	18.74	64.95	-34.1	-44.0	3.8	8.46e-01	0	42	104	0	27	11297
2026-01-13 04:42:32.93	18.73	65.39	-34.1	-44.0	3.8	8.47e-01	0	42	104	0	27	11217
2026-01-13 04:42:33.93	18.72	65.83	-34.1	-44.0	3.8	8.46e-01	0	42	104	0	27	11234
2026-01-13 04:42:34.94	18.71	66.28	-34.1	-44.0	3.8	8.46e-01	0	42	104	0	27	11242
2026-01-13 04:42:35.94	18.70	66.73	-34.1	-43.9	3.8	8.45e-01	0	43	104	0	27	11112
2026-01-13 04:42:36.95	18.68	67.19	-34.1	-43.8	3.8	8.46e-01	0	42	104	0	27	11064
2026-01-13 04:42:37.95	18.67	67.64	-34.1	-43.8	3.8	8.46e-01	0	42	104	0	27	11049
2026-01-13 04:42:38.96	18.66	68.10	-34.1	-43.9	3.8	8.46e-01	0	42	104	0	27	11233
2026-01-13 04:42:39.96	18.64	68.56	-34.1	-44.0	3.8	8.47e-01	0	42	104	0	27	11336
2026-01-13 04:42:40.97	18.63	69.02	-34.1	-44.0	3.8	8.46e-01	0	42	104	0	27	11276
2026-01-13 04:42:41.97	18.61	69.48	-34.1	-43.9	3.8	8.45e-01	0	42	104	0	27	11145
2026-01-13 04:42:42.98	18.60	69.95	-34.1	-43.8	3.8	8.46e-01	0	42	104	0	27	11079
2026-01-13 04:42:43.99	18.58	70.42	-34.1	-43.9	3.8	8.46e-01	0	42	104	0	27	11176
2026-01-13 04:42:45.00	18.56	70.90	-34.1	-44.0	3.8	8.46e-01	0	42	104	0	27	11337
2026-01-13 04:42:46.00	18.54	71.37	-34.1	-44.0	3.8	8.46e-01	0	42	104	0	27	11303
2026-01-13 04:42:47.02	18.52	71.85	-34.1	-44.0	3.8	8.45e-01	0	42	104	0	27	11261
2026-01-13 04:42:48.02	18.49	72.32	-34.1	-43.9	3.8	8.47e-01	0	42	104	0	27	11214
2026-01-13 04:42:49.03	18.47	72.81	-34.1	-44.0	3.8	8.45e-01	0	42	104	0	27	11236
2026-01-13 04:42:50.03	18.44	73.29	-34.1	-43.9	3.8	8.47e-01	0	42	104	0	27	11211
2026-01-13 04:42:51.03	18.41	73.77	-34.0	-43.8	3.8	8.46e-01	0	42	104	0	27	11032
2026-01-13 04:42:52.04	18.38	74.26	-34.0	-43.7	3.8	8.46e-01	0	42	104	0	27	10978
2026-01-13 04:42:53.04	18.35	74.74	-34.1	-43.9	3.8	8.46e-01	0	42	104	0	27	11217
2026-01-13 04:42:54.05	18.32	75.23	-34.1	-44.0	3.8	8.46e-01	0	42	104	0	27	11349
2026-01-13 04:42:55.05	18.28	75.72	-34.1	-44.1	3.8	8.46e-01	0	42	104	0	27	11361
2026-01-13 04:42:56.06	18.24	76.22	-34.1	-44.0	3.8	8.47e-01	0	42	104	0	27	11326
2026-01-13 04:42:57.06	18.19	76.71	-34.1	-44.0	3.8	8.46e-01	0	42	104	0	27	11314
2026-01-13 04:42:58.07	18.14	77.21	-34.1	-44.0	3.8	8.46e-01	0	42	104	0	27	11328
2026-01-13 04:42:59.08	18.09	77.71	-34.1	-44.1	3.8	8.46e-01	0	42	104	0	27	11380
2026-01-13 04:43:00.08	18.03	78.21	-34.1	-44.0	3.8	8.46e-01	0	42	104	0	27	11294
2026-01-13 04:43:01.09	17.97	78.71	-34.1	-43.9	3.8	8.46e-01	0	42	104	0	27	11204
2026-01-13 04:43:02.10	17.90	79.22	-34.0	-43.8	3.8	8.47e-01	0	42	104	0	27	11031
2026-01-13 04:43:03.10	17.82	79.72	-34.1	-43.9	3.8	8.45e-01	0	42	104	0	27	11129
2026-01-13 04:43:04.11	17.74	80.23	-34.0	-43.7	3.8	8.47e-01	0	42	104	0	27	10944
2026-01-13 04:43:05.11	17.64	80.73	-34.0	-43.6	3.8	8.45e-01	0	42	104	0	27	10893
2026-01-13 04:43:06.12	17.54	81.24	-34.0	-43.5	3.8	8.46e-01	0	42	104	0	27	10754
2026-01-13 04:43:07.12	17.42	81.75	-33.9	-42.8	3.8	8.45e-01	0	43	104	0	27	10001
2026-01-13 04:43:08.13	17.28	82.26	-33.8	-42.0	3.8	8.44e-01	0	43	104	0	27	9260
2026-01-13 04:43:09.14	17.12	82.78	-33.8	-42.1	3.8	8.45e-01	0	43	104	0	27	9349
2026-01-13 04:43:10.14	16.94	83.29	-33.9	-42.8	3.8	8.45e-01	0	42	104	0	27	10041
2026-01-13 04:43:11.14	16.73	83.80	-33.9	-42.8	3.8	8.46e-01	0	42	104	0	27	9987
2026-01-13 04:43:12.15	16.47	84.31	-33.8	-41.6	3.8	8.46e-01	0	42	104	0	27	8923
2026-01-13 04:43:13.16	16.17	84.83	-33.6	-40.4	4.1	8.41e-01	0	42	104	0	27	7928
2026-01-13 04:43:14.17	15.79	85.35	-33.6	-41.0	3.9	8.44e-01	0	42	104	0	27	8364
2026-01-13 04:43:15.17	15.33	85.86	-33.8	-42.2	3.8	8.47e-01	0	42	104	0	27	9479
2026-01-13 04:43:16.17	14.73	86.37	-33.8	-41.9	3.8	8.45e-01	0	42	104	0	27	9145
2026-01-13 04:43:17.18	13.92	86.89	-33.5	-40.1	3.9	8.43e-01	0	43	104	0	27	7654
2026-01-13 04:43:18.19	12.80	87.41	-33.0	-37.5	4.9	8.31e-01	0	42	104	0	27	6041
2026-01-13 04:43:19.19	11.12	87.92	-32.4	-36.0	6.1	4.42e-01	0	43	0	1048576	25	5483
2026-01-13 04:43:20.20	8.32	88.43	-28.4	-28.8	12.9	2.14e-03	0	42	0	8388608	18	3762
2026-01-13 04:43:21.20	2.89	88.93	-23.4	-22.9	18.7	0.00e+00	0	43	0	15728640	8	3417
2026-01-13 04:43:22.21	348.05	89.42	-21.8	-21.7	20.2	0.00e+00	0	43	0	23068672	4	3558
2026-01-13 04:43:23.22	285.24	89.69	-24.5	-25.3	17.5	0.00e+00	0	42	0	30408704	8	3957
2026-01-13 04:43:24.22	229.12	89.38	-30.2	-32.2	10.3	4.45e-04	0	42	0	37748736	20	4531
2026-01-13 04:43:25.24	215.59	88.89	-32.0	-35.7	7.0	1.53e-01	0	43	0	45088768	23	5547
2026-01-13 04:43:26.24	210.53	88.39	-32.1	-36.0	6.8	1.51e-01	0	43	0	52428800	23	5660
2026-01-13 04:43:27.25	207.87	87.87	-33.0	-38.7	4.9	7.29e-01	0	43	0	56623104	25	6909
2026-01-13 04:43:28.26	206.24	87.36	-33.7	-41.0	4.0	8.42e-01	0	43	0	56623104	27	8391
2026-01-13 04:43:29.26	205.16	86.84	-33.8	-42.2	3.8	8.46e-01	0	43	104	56623104	27	9410
2026-01-13 04:43:30.26	204.39	86.33	-33.8	-42.1	3.8	8.45e-01	0	43	104	56623104	27	9305
2026-01-13 04:43:31.26	203.80	85.82	-33.7	-41.5	3.8	8.45e-01	0	43	104	56623104	27	8777
2026-01-13 04:43:32.27	203.34	85.30	-33.9	-42.9	3.8	8.47e-01	0	42	104	56623104	27	10124
2026-01-13 04:43:33.28	202.97	84.78	-34.0	-43.8	3.8	8.46e-01	0	43	104	56623104	27	11109
2026-01-13 04:43:34.28	202.68	84.27	-34.0	-43.7	3.8	8.46e-01	0	43	104	56623104	27	10952
2026-01-13 04:43:35.28	202.43	83.76	-33.9	-42.6	3.8	8.45e-01	0	42	104	56623104	27	9816
2026-01-13 04:43:36.29	202.22	83.24	-33.8	-42.0	3.9	8.45e-01	0	43	104	56623104	27	9281
2026-01-13 04:43:37.30	202.04	82.73	-33.9	-42.5	3.8	8.45e-01	0	43	104	56623104	27	9722
2026-01-13 04:43:38.30	201.88	82.22	-33.9	-42.9	3.8	8.47e-01	0	43	104	56623104	27	10134
2026-01-13 04:43:39.31	201.74	81.70	-34.0	-43.1	3.8	8.45e-01	0	43	104	56623104	27	10321
2026-01-13 04:43:40.31	201.63	81.20	-34.0	-43.2	3.8	8.46e-01	0	43	104	56623104	27	10420
2026-01-13 04:43:41.31	201.52	80.69	-34.0	-43.6	3.8	8.45e-01	0	43	104	56623104	27	10799
2026-01-13 04:43:42.32	201.43	80.18	-34.0	-43.6	3.8	8.47e-01	0	43	104	56623104	27	10879
2026-01-13 04:43:43.33	201.34	79.67	-34.0	-43.7	3.8	8.46e-01	0	43	104	56623104	27	10974
2026-01-13 04:43:44.33	201.26	79.17	-34.1	-43.9	3.8	8.47e-01	0	43	104	56623104	27	11202
2026-01-13 04:43:45.34	201.19	78.66	-34.1	-43.9	3.8	8.45e-01	0	43	104	56623104	27	11239
2026-01-13 04:43:46.35	201.13	78.16	-34.1	-44.0	3.8	8.46e-01	0	43	104	56623104	27	11303
2026-01-13 04:43:47.35	201.07	77.66	-34.1	-44.1	3.8	8.46e-01	0	43	104	56623104	27	11384
2026-01-13 04:43:48.36	201.02	77.16	-32.9	-42.8	3.8	8.46e-01	0	43	104	56623104	27	11208
2026-01-13 04:43:49.36	200.97	76.67	-34.1	-44.0	3.8	8.46e-01	0	43	104	56623104	27	11296
2026-01-13 04:43:50.37	200.93	76.17	-34.1	-44.0	3.8	8.46e-01	0	43	104	56623104	27	11275
2026-01-13 04:43:51.38	200.89	75.67	-34.0	-43.8	3.8	8.45e-01	0	43	104	56623104	27	11098
2026-01-13 04:43:52.38	200.85	75.18	-34.0	-43.9	3.8	8.47e-01	0	43	104	56623104	27	11132
2026-01-13 04:43:53.39	200.82	74.69	-34.0	-43.9	3.8	8.45e-01	0	43	104	56623104	27	11157
2026-01-13 04:43:54.40	200.78	74.20	-34.0	-43.9	3.8	8.47e-01	0	43	104	56623104	27	11157
2026-01-13 04:43:55.40	200.75	73.71	-34.0	-43.8	3.8	8.45e-01	0	43	104	56623104	27	11138
2026-01-13 04:43:56.41	200.72	73.23	-34.0	-43.8	3.8	8.47e-01	0	43	104	56623104	27	11137
2026-01-13 04:43:57.42	200.70	72.74	-34.0	-43.8	3.8	8.46e-01	0	43	104	56623104	27	11123
2026-01-13 04:43:58.42	200.67	72.26	-34.0	-43.9	3.8	8.46e-01	0	43	104	56623104	27	11163
2026-01-13 04:43:59.43	200.65	71.78	-34.0	-43.8	3.8	8.47e-01	0	43	104	56623104	27	11141
2026-01-13 04:44:00.43	200.63	71.31	-34.0	-43.9	3.8	8.48e-01	0	43	104	56623104	27	11211
2026-01-13 04:44:01.44	200.61	70.83	-34.0	-43.9	3.8	8.46e-01	0	43	104	56623104	27	11233
2026-01-13 04:44:02.45	200.59	70.36	-34.0	-44.0	3.8	8.45e-01	0	43	104	56623104	27	11269
2026-01-13 04:44:03.46	200.57	69.89	-34.0	-44.0	3.8	8.45e-01	0	43	104	56623104	27	11277
2026-01-13 04:44:04.47	200.55	69.42	-34.0	-43.9	3.8	8.47e-01	0	43	104	56623104	27	11249
2026-01-13 04:44:05.48	200.54	68.95	-34.0	-43.9	3.8	8.46e-01	0	43	104	56623104	27	11223
2026-01-13 04:44:06.48	200.52	68.49	-34.0	-43.9	3.8	8.46e-01	0	43	104	56623104	27	11166
2026-01-13 04:44:07.49	200.51	68.03	-34.0	-43.8	3.8	8.45e-01	0	43	104	56623104	27	11115
2026-01-13 04:44:08.49	200.50	67.57	-34.0	-43.8	3.8	8.46e-01	0	43	104	56623104	27	11149
2026-01-13 04:44:09.50	200.48	67.11	-34.0	-43.8	3.8	8.47e-01	0	43	104	56623104	27	11123
2026-01-13 04:44:10.50	200.47	66.66	-34.0	-43.8	3.8	8.46e-01	0	43	104	56623104	27	11127
2026-01-13 04:44:11.51	200.46	66.21	-34.0	-43.8	3.8	8.46e-01	0	43	104	56623104	27	11149
2026-01-13 04:44:12.52	200.45	65.76	-34.0	-43.8	3.8	8.47e-01	0	43	104	56623104	27	11135
2026-01-13 04:44:13.53	200.44	65.31	-34.0	-43.8	3.8	8.46e-01	0	43	104	56623104	27	11136
2026-01-13 04:44:14.54	200.43	64.86	-34.0	-43.8	3.8	8.46e-01	0	43	104	56623104	27	11160
2026-01-13 04:44:15.55	200.42	64.42	-34.0	-43.9	3.8	8.46e-01	0	43	104	56623104	27	11190
2026-01-13 04:44:16.55	200.41	63.99	-34.0	-43.8	3.8	8.46e-01	0	43	104	56623104	27	11152
2026-01-13 04:44:17.57	200.40	63.54	-34.0	-43.9	3.8	8.45e-01	0	43	104	56623104	27	11207
2026-01-13 04:44:18.57	200.39	63.11	-34.0	-43.9	3.8	8.46e-01	0	43	104	56623104	27	11192
2026-01-13 04:44:19.57	200.39	62.69	-34.0	-43.9	3.8	8.47e-01	0	43	104	56623104	27	11230
2026-01-13 04:44:20.58	200.38	62.26	-34.0	-43.9	3.8	8.45e-01	0	43	104	56623104	27	11249
2026-01-13 04:44:21.59	200.37	61.83	-34.0	-43.9	3.8	8.47e-01	0	43	104	56623104	27	11225
2026-01-13 04:44:22.60	200.37	61.40	-34.0	-43.9	3.8	8.46e-01	0	43	104	56623104	27	11239
2026-01-13 04:44:23.61	200.36	60.98	-34.0	-43.9	3.8	8.46e-01	0	43	104	56623104	27	11171
2026-01-13 04:44:24.61	200.36	60.57	-34.0	-43.9	3.8	8.46e-01	0	43	104	56623104	27	11195
2026-01-13 04:44:25.62	200.35	60.15	-34.0	-43.8	3.8	8.45e-01	0	43	104	56623104	27	11165
2026-01-13 04:44:26.62	200.35	59.74	-34.0	-43.9	3.8	8.46e-01	0	43	104	56623104	27	11242
2026-01-13 04:44:27.63	200.34	59.33	-34.0	-44.0	3.8	8.45e-01	0	43	104	56623104	27	11283
2026-01-13 04:44:28.64	200.34	58.92	-34.0	-43.9	3.8	8.46e-01	0	43	104	56623104	27	11235
2026-01-13 04:44:29.64	200.33	58.52	-34.0	-43.9	3.8	8.46e-01	0	43	104	56623104	27	11250
2026-01-13 04:44:30.65	200.33	58.12	-34.0	-43.9	3.8	8.47e-01	0	43	104	56623104	27	11222
2026-01-13 04:44:31.65	200.32	57.72	-34.0	-44.0	3.8	8.47e-01	0	43	104	56623104	27	11314
2026-01-13 04:44:32.66	200.32	57.33	-34.0	-44.0	3.8	8.46e-01	0	43	104	56623104	27	11296
2026-01-13 04:44:33.67	200.32	56.93	-34.0	-43.9	3.8	8.45e-01	0	43	104	56623104	27	11269
2026-01-13 04:44:34.68	200.31	56.54	-34.0	-43.9	3.8	8.47e-01	0	43	104	56623104	27	11226
2026-01-13 04:44:35.69	200.31	56.15	-34.0	-43.9	3.8	8.47e-01	0	43	104	56623104	27	11261
2026-01-13 04:44:36.69	200.31	55.77	-34.0	-43.9	3.8	8.46e-01	0	43	104	56623104	27	11216
2026-01-13 04:44:37.70	200.30	55.39	-34.0	-44.0	3.8	8.47e-01	0	43	104	56623104	27	11289
2026-01-13 04:44:38.71	200.30	55.01	-34.0	-44.0	3.8	8.46e-01	0	43	104	56623104	27	11281
2026-01-13 04:44:39.71	200.30	54.63	-34.0	-43.9	3.8	8.47e-01	0	43	104	56623104	27	11270
2026-01-13 04:44:40.72	200.30	54.26	-34.0	-44.0	3.8	8.45e-01	0	43	104	56623104	27	11304
2026-01-13 04:44:41.73	200.30	53.88	-34.0	-43.9	3.8	8.47e-01	0	43	104	56623104	27	11257
2026-01-13 04:44:42.74	200.29	53.51	-34.0	-44.0	3.8	8.47e-01	0	43	104	56623104	27	11324
2026-01-13 04:44:43.75	200.29	53.15	-34.0	-44.0	3.8	8.45e-01	0	43	104	56623104	27	11339
2026-01-13 04:44:44.76	200.29	52.78	-34.0	-44.0	3.8	8.46e-01	0	43	104	56623104	27	11312
2026-01-13 04:44:45.77	200.29	52.42	-34.0	-44.0	3.8	8.45e-01	0	43	104	56623104	27	11291
2026-01-13 04:44:46.78	200.29	52.06	-34.0	-43.9	3.8	8.46e-01	0	43	104	56623104	27	11191
2026-01-13 04:44:47.78	200.29	51.71	-34.0	-43.9	3.8	8.47e-01	0	43	104	56623104	27	11247
2026-01-13 04:44:48.79	200.28	51.35	-34.0	-44.0	3.8	8.46e-01	0	43	104	56623104	27	11295
2026-01-13 04:44:49.79	200.28	51.00	-34.0	-43.9	3.8	8.45e-01	0	43	104	56623104	27	11266
2026-01-13 04:44:50.79	200.28	50.66	-34.0	-44.0	3.8	8.46e-01	0	43	104	56623104	27	11314
2026-01-13 04:44:51.80	200.28	50.31	-34.0	-44.0	3.8	8.46e-01	0	43	104	56623104	27	11311
2026-01-13 04:44:52.80	200.28	49.97	-34.0	-44.0	3.8	8.45e-01	0	43	104	56623104	27	11293
2026-01-13 04:44:53.81	200.28	49.63	-34.0	-43.9	3.8	8.47e-01	0	43	104	56623104	27	11227
2026-01-13 04:44:54.81	200.28	49.30	-34.0	-44.0	3.8	8.45e-01	0	43	104	56623104	27	11303
2026-01-13 04:44:55.82	200.28	48.96	-34.0	-44.0	3.8	8.47e-01	0	43	104	56623104	27	11328
2026-01-13 04:44:56.83	200.28	48.63	-34.0	-43.9	3.8	8.46e-01	0	43	104	56623104	27	11254
2026-01-13 04:44:57.84	200.28	48.29	-34.0	-44.0	3.8	8.46e-01	0	43	104	56623104	27	11303
2026-01-13 04:44:58.84	200.28	47.97	-34.0	-43.9	3.8	8.47e-01	0	43	104	56623104	27	11209
2026-01-13 04:44:59.84	200.28	47.65	-34.0	-44.0	3.8	8.45e-01	0	43	104	56623104	27	11267
2026-01-13 04:45:00.85	200.28	47.32	-34.0	-44.0	3.8	8.45e-01	0	43	104	56623104	27	11303
2026-01-13 04:45:01.86	200.28	47.00	-34.0	-44.0	3.8	8.45e-01	0	43	104	56623104	27	11276
2026-01-13 04:45:02.87	200.28	46.68	-34.0	-43.9	3.8	8.45e-01	0	43	104	56623104	27	11282
2026-01-13 04:45:03.87	200.28	46.37	-34.0	-44.0	3.8	8.47e-01	0	43	104	56623104	27	11313
2026-01-13 04:45:04.87	200.28	46.06	-34.0	-44.0	3.8	8.46e-01	0	43	104	56623104	27	11294
2026-01-13 04:45:05.88	200.28	45.75	-34.0	-43.9	3.8	8.46e-01	0	43	104	56623104	27	11247
2026-01-13 04:45:06.88	200.28	45.44	-34.0	-43.9	3.8	8.46e-01	0	43	104	56623104	27	11264
2026-01-13 04:45:07.89	200.28	45.13	-34.0	-44.0	3.8	8.45e-01	0	43	104	56623104	27	11300
2026-01-13 04:45:08.90	200.28	44.83	-34.0	-44.0	3.8	8.46e-01	0	43	104	56623104	27	11311
2026-01-13 04:45:09.91	200.28	44.53	-34.0	-44.0	3.8	8.47e-01	0	43	104	56623104	27	11307
2026-01-13 04:45:10.91	200.28	44.23	-34.0	-44.0	3.8	8.47e-01	0	43	104	56623104	27	11302
2026-01-13 04:45:11.91	200.28	43.93	-34.0	-44.0	3.8	8.46e-01	0	43	104	56623104	27	11324
2026-01-13 04:45:12.92	200.28	43.64	-34.0	-43.9	3.8	8.46e-01	0	43	104	56623104	27	11248
2026-01-13 04:45:13.92	200.28	43.35	-34.0	-44.0	3.8	8.46e-01	0	43	104	56623104	27	11302
2026-01-13 04:45:14.92	200.28	43.06	-34.0	-44.0	3.8	8.46e-01	0	43	104	56623104	27	11279
2026-01-13 04:45:15.93	200.28	42.77	-34.0	-44.0	3.8	8.45e-01	0	43	104	56623104	27	11294
2026-01-13 04:45:16.93	200.28	42.49	-34.0	-43.9	3.8	8.46e-01	0	43	104	56623104	27	11285
2026-01-13 04:45:17.93	200.28	42.21	-34.0	-43.9	3.8	8.45e-01	0	43	104	56623104	27	11280
2026-01-13 04:45:18.94	200.29	41.92	-34.0	-44.0	3.8	8.45e-01	0	43	104	56623104	27	11274
2026-01-13 04:45:19.94	200.29	41.65	-34.0	-44.0	3.8	8.46e-01	0	43	104	56623104	27	11283
2026-01-13 04:45:20.94	200.29	41.37	-34.0	-44.0	3.8	8.46e-01	0	43	104	56623104	27	11289
2026-01-13 04:45:21.95	200.29	41.10	-34.0	-43.9	3.8	8.45e-01	0	43	104	56623104	27	11246
2026-01-13 04:45:22.96	200.29	40.82	-34.0	-44.0	3.8	8.46e-01	0	43	104	56623104	27	11278
2026-01-13 04:45:23.96	200.29	40.55	-34.0	-43.9	3.8	8.47e-01	0	43	104	56623104	27	11225
2026-01-13 04:45:24.96	200.29	40.29	-34.0	-43.9	3.8	8.46e-01	0	43	104	56623104	27	11200
2026-01-13 04:45:25.97	200.29	40.02	-34.0	-43.9	3.8	8.47e-01	0	43	104	56623104	27	11279
2026-01-13 04:45:26.98	200.29	39.75	-34.0	-44.0	3.8	8.46e-01	0	43	104	56623104	27	11332
2026-01-13 04:45:27.98	200.30	39.49	-34.0	-44.0	3.8	8.46e-01	0	43	104	56623104	27	11278
2026-01-13 04:45:28.98	200.30	39.23	-34.0	-43.9	3.8	8.46e-01	0	43	104	56623104	27	11233
2026-01-13 04:45:29.99	200.30	38.97	-34.0	-44.0	3.8	8.46e-01	0	43	104	56623104	27	11293
2026-01-13 04:45:31.00	200.30	38.71	-34.0	-43.9	3.8	8.45e-01	0	43	104	56623104	27	11270
2026-01-13 04:45:32.00	200.30	38.46	-34.0	-43.9	3.8	8.46e-01	0	43	104	56623104	27	11237
2026-01-13 04:45:33.00	200.30	38.21	-34.0	-44.0	3.8	8.47e-01	0	43	104	56623104	27	11292
2026-01-13 04:45:34.01	200.30	37.96	-34.0	-43.9	3.8	8.45e-01	0	43	104	56623104	27	11219
2026-01-13 04:45:35.01	200.31	37.71	-34.0	-43.9	3.8	8.46e-01	0	43	104	56623104	27	11252
2026-01-13 04:45:36.02	200.31	37.46	-34.0	-43.9	3.8	8.46e-01	0	43	104	56623104	27	11277
2026-01-13 04:45:37.03	200.31	37.21	-34.0	-44.0	3.8	8.46e-01	0	43	104	56623104	27	11296
2026-01-13 04:45:38.04	200.31	36.97	-34.0	-44.0	3.8	8.47e-01	0	43	104	56623104	27	11283
2026-01-13 04:45:39.04	200.31	36.73	-34.0	-43.9	3.8	8.47e-01	0	43	104	56623104	27	11242
2026-01-13 04:45:40.05	200.31	36.49	-34.0	-43.9	3.8	8.47e-01	0	43	104	56623104	27	11255
2026-01-13 04:45:41.05	200.31	36.25	-34.0	-43.9	3.8	8.47e-01	0	43	104	56623104	27	11242
2026-01-13 04:45:42.06	200.32	36.01	-34.0	-43.9	3.8	8.46e-01	0	43	104	56623104	27	11253
2026-01-13 04:45:43.06	200.32	35.78	-34.0	-43.9	3.8	8.45e-01	0	43	104	56623104	27	11276
2026-01-13 04:45:44.08	200.32	35.54	-34.0	-43.9	3.8	8.46e-01	0	43	104	56623104	27	11283
2026-01-13 04:45:45.08	200.32	35.31	-34.0	-44.0	3.8	8.46e-01	0	43	104	56623104	27	11282
2026-01-13 04:45:46.09	200.32	35.08	-34.0	-43.9	3.8	8.46e-01	0	43	104	56623104	27	11261
2026-01-13 04:45:47.09	200.32	34.86	-34.0	-44.0	3.8	8.46e-01	0	43	104	56623104	27	11293
2026-01-13 04:45:48.10	200.33	34.63	-34.0	-43.9	3.8	8.46e-01	0	43	104	56623104	27	11182
2026-01-13 04:45:49.10	200.33	34.40	-34.0	-44.0	3.8	8.45e-01	0	43	104	56623104	27	11276
2026-01-13 04:45:50.11	200.33	34.18	-34.0	-43.9	3.8	8.45e-01	0	43	104	56623104	27	11268
2026-01-13 04:45:51.12	200.33	33.96	-34.0	-43.9	3.8	8.46e-01	0	43	104	56623104	27	11289
2026-01-13 04:45:52.12	200.33	33.74	-34.0	-44.0	3.8	8.46e-01	0	43	104	56623104	27	11295
2026-01-13 04:45:53.13	200.34	33.52	-34.0	-44.0	3.8	8.47e-01	0	43	104	56623104	27	11318
2026-01-13 04:45:54.14	200.34	33.30	-34.0	-43.9	3.8	8.46e-01	0	43	104	56623104	27	11259
2026-01-13 04:45:55.14	200.34	33.09	-34.0	-43.9	3.8	8.45e-01	0	43	104	56623104	27	11274
2026-01-13 04:45:56.15	200.34	32.87	-34.0	-43.9	3.8	8.46e-01	0	43	104	56623104	27	11269
2026-01-13 04:45:57.16	200.34	32.66	-34.0	-44.0	3.8	8.47e-01	0	43	104	56623104	27	11296
2026-01-13 04:45:58.16	200.35	32.45	-34.0	-43.9	3.8	8.47e-01	0	43	104	56623104	27	11231
2026-01-13 04:45:59.17	200.35	32.24	-34.0	-43.9	3.8	8.45e-01	0	43	104	56623104	27	11268
2026-01-13 04:46:00.17	200.35	32.03	-34.0	-44.0	3.8	8.45e-01	0	43	104	56623104	27	11303
2026-01-13 04:46:01.18	200.35	31.82	-34.0	-43.9	3.8	8.46e-01	0	43	104	56623104	27	11269
2026-01-13 04:46:02.19	200.35	31.62	-34.0	-43.9	3.8	8.46e-01	0	43	104	56623104	27	11279
2026-01-13 04:46:03.19	200.36	31.42	-34.0	-43.9	3.8	8.47e-01	0	43	104	56623104	27	11273
2026-01-13 04:46:04.19	200.36	31.22	-34.0	-43.9	3.8	8.45e-01	0	43	104	56623104	27	11261
2026-01-13 04:46:05.20	200.36	31.01	-34.0	-43.9	3.8	8.46e-01	0	43	104	56623104	27	11270
2026-01-13 04:46:06.21	200.36	30.81	-34.0	-43.9	3.8	8.47e-01	0	43	104	56623104	27	11240
2026-01-13 04:46:07.22	200.36	30.61	-34.0	-43.9	3.8	8.46e-01	0	43	104	56623104	27	11235
2026-01-13 04:46:08.22	200.37	30.42	-34.0	-43.9	3.8	8.46e-01	0	43	104	56623104	27	11263
2026-01-13 04:46:09.23	200.37	30.22	-34.0	-43.9	3.8	8.47e-01	0	43	104	56623104	27	11187
2026-01-13 04:46:10.23	200.37	30.03	-34.0	-43.9	3.8	8.46e-01	0	43	104	56623104	27	11269
2026-01-13 04:46:11.24	200.37	29.84	-34.0	-43.9	3.8	8.43e-01	0	43	104	56623104	27	11277
2026-01-13 04:46:12.25	200.37	29.64	-34.0	-43.8	3.8	8.46e-01	0	43	104	56623104	27	11171
2026-01-13 04:46:13.25	200.38	29.45	-34.0	-43.9	3.8	8.46e-01	0	43	104	56623104	27	11266
2026-01-13 04:46:14.26	200.38	29.26	-34.0	-44.0	3.8	8.46e-01	0	43	104	56623104	27	11323
2026-01-13 04:46:15.27	200.38	29.08	-34.0	-43.9	3.8	8.45e-01	0	43	104	56623104	27	11261
2026-01-13 04:46:16.27	200.38	28.89	-34.0	-43.9	3.8	8.47e-01	0	43	104	56623104	27	11256
2026-01-13 04:46:17.28	200.39	28.70	-34.0	-43.9	3.8	8.46e-01	0	43	104	56623104	27	11281
2026-01-13 04:46:18.29	200.39	28.52	-34.0	-43.9	3.8	8.47e-01	0	43	104	56623104	27	11295
2026-01-13 04:46:19.30	200.39	28.34	-34.0	-43.9	3.8	8.46e-01	0	43	104	56623104	27	11292
2026-01-13 04:46:20.30	200.39	28.16	-34.0	-43.9	3.8	8.45e-01	0	43	104	56623104	27	11278
2026-01-13 04:46:21.31	200.39	27.97	-34.0	-43.9	3.8	8.45e-01	0	43	104	56623104	27	11283
2026-01-13 04:46:22.32	200.40	27.79	-34.0	-44.0	3.8	8.46e-01	0	43	104	56623104	27	11311
2026-01-13 04:46:23.32	200.40	27.62	-34.0	-43.9	3.8	8.46e-01	0	43	104	56623104	27	11277
2026-01-13 04:46:24.33	200.40	27.44	-34.0	-43.9	3.8	8.45e-01	0	43	104	56623104	27	11242
2026-01-13 04:46:25.33	200.40	27.26	-34.0	-44.0	3.8	8.46e-01	0	43	104	56623104	27	11307
2026-01-13 04:46:26.34	200.41	27.09	-34.0	-43.9	3.8	8.46e-01	0	43	104	56623104	27	11187
2026-01-13 04:46:27.35	200.41	26.91	-34.0	-43.9	3.8	8.47e-01	0	43	104	56623104	27	11247
2026-01-13 04:46:28.36	200.41	26.74	-34.0	-44.0	3.8	8.46e-01	0	43	104	56623104	27	11332
2026-01-13 04:46:29.36	200.41	26.57	-34.0	-43.9	3.8	8.46e-01	0	43	104	56623104	27	11262
2026-01-13 04:46:30.37	200.42	26.40	-34.0	-43.9	3.8	8.46e-01	0	43	104	56623104	27	11267
2026-01-13 04:46:31.37	200.42	26.23	-34.0	-44.0	3.8	8.46e-01	0	43	104	56623104	27	11304
2026-01-13 04:46:32.38	200.42	26.06	-34.0	-43.9	3.8	8.46e-01	0	43	104	56623104	27	11265
2026-01-13 04:46:33.40	200.42	25.89	-34.0	-43.9	3.8	8.47e-01	0	43	104	56623104	27	11232
2026-01-13 04:46:34.40	200.43	25.73	-34.0	-44.0	3.8	8.48e-01	0	43	104	56623104	27	11287
2026-01-13 04:46:35.41	200.43	25.56	-34.0	-43.9	3.8	8.47e-01	0	43	104	56623104	27	11281
2026-01-13 04:46:36.41	200.43	25.40	-34.0	-43.9	3.8	8.46e-01	0	43	104	56623104	27	11274
2026-01-13 04:46:37.42	200.43	25.24	-34.0	-44.0	3.8	8.45e-01	0	43	104	56623104	27	11285
2026-01-13 04:46:38.42	200.44	25.08	-34.0	-43.9	3.8	8.46e-01	0	43	104	56623104	27	11235
2026-01-13 04:46:39.43	200.44	24.91	-34.0	-44.0	3.8	8.46e-01	0	43	104	56623104	27	11313
2026-01-13 04:46:40.44	200.44	24.75	-34.0	-43.9	3.8	8.46e-01	0	43	104	56623104	27	11202
2026-01-13 04:46:41.44	200.44	24.59	-34.0	-44.0	3.8	8.45e-01	0	43	104	56623104	27	11285
2026-01-13 04:46:42.45	200.45	24.44	-34.0	-44.0	3.8	8.47e-01	0	43	104	56623104	27	11311
2026-01-13 04:46:43.46	200.45	24.28	-34.0	-43.9	3.8	8.46e-01	0	43	104	56623104	27	11258
2026-01-13 04:46:44.47	200.45	24.12	-34.0	-43.9	3.8	8.46e-01	0	43	104	56623104	27	11273
2026-01-13 04:46:45.48	200.45	23.97	-34.0	-43.9	3.8	8.46e-01	0	43	104	56623104	27	11226
2026-01-13 04:46:46.48	200.46	23.81	-34.0	-43.9	3.8	8.45e-01	0	43	104	56623104	27	11271
2026-01-13 04:46:47.49	200.46	23.66	-34.0	-43.9	3.8	8.45e-01	0	43	104	56623104	27	11265
2026-01-13 04:46:48.50	200.46	23.50	-34.0	-43.9	3.8	8.46e-01	0	43	104	56623104	27	11304
2026-01-13 04:46:49.51	200.46	23.35	-34.0	-43.9	3.8	8.46e-01	0	43	104	56623104	27	11272
2026-01-13 04:46:50.51	200.47	23.20	-34.0	-43.9	3.8	8.46e-01	0	43	104	56623104	27	11225
2026-01-13 04:46:51.52	200.47	23.05	-34.0	-43.9	3.8	8.46e-01	0	43	104	56623104	27	11276
2026-01-13 04:46:52.53	200.47	22.90	-34.0	-43.9	3.8	8.47e-01	0	43	104	56623104	27	11284
2026-01-13 04:46:53.53	200.47	22.75	-34.0	-43.9	3.8	8.46e-01	0	43	104	56623104	27	11258
2026-01-13 04:46:54.54	200.48	22.61	-34.0	-43.9	3.8	8.45e-01	0	43	104	56623104	27	11241
2026-01-13 04:46:55.55	200.48	22.46	-34.0	-43.9	3.8	8.46e-01	0	43	104	56623104	27	11265
2026-01-13 04:46:56.56	200.48	22.31	-34.0	-43.9	3.8	8.46e-01	0	43	104	56623104	27	11266
2026-01-13 04:46:57.57	200.48	22.17	-34.0	-43.9	3.8	8.47e-01	0	43	104	56623104	27	11280
2026-01-13 04:46:58.57	200.49	22.02	-34.0	-43.9	3.8	8.45e-01	0	43	104	56623104	27	11250
2026-01-13 04:46:59.58	200.49	21.88	-34.0	-44.0	3.8	8.46e-01	0	43	104	56623104	27	11302
2026-01-13 04:47:00.58	200.49	21.74	-34.0	-43.9	3.8	8.46e-01	0	43	104	56623104	27	11286
2026-01-13 04:47:01.60	200.49	21.60	-34.0	-43.9	3.8	8.45e-01	0	43	104	56623104	27	11256
2026-01-13 04:47:02.60	200.50	21.46	-34.0	-43.9	3.8	8.45e-01	0	43	104	56623104	27	11279
2026-01-13 04:47:03.60	200.50	21.32	-34.0	-43.9	3.8	8.46e-01	0	43	104	56623104	27	11260
2026-01-13 04:47:04.61	200.50	21.18	-34.0	-43.9	3.8	8.46e-01	0	43	104	56623104	27	11238
2026-01-13 04:47:05.62	200.50	21.04	-34.0	-44.0	3.8	8.46e-01	0	43	104	56623104	27	11326
2026-01-13 04:47:06.62	200.51	20.90	-34.0	-43.9	3.8	8.46e-01	0	43	104	56623104	27	11217
2026-01-13 04:47:07.63	200.51	20.76	-34.0	-43.9	3.8	8.46e-01	0	43	104	56623104	27	11256
2026-01-13 04:47:08.64	200.51	20.63	-34.0	-43.9	3.8	8.45e-01	0	43	104	56623104	27	11253
2026-01-13 04:47:09.65	200.51	20.49	-34.0	-43.9	3.8	8.45e-01	0	43	104	56623104	27	11253
2026-01-13 04:47:10.66	200.52	20.36	-34.0	-43.9	3.8	8.47e-01	0	43	104	56623104	27	11254
2026-01-13 04:47:11.66	200.52	20.22	-34.0	-44.0	3.8	8.46e-01	0	43	104	56623104	27	11306
2026-01-13 04:47:12.67	200.52	20.09	-34.0	-43.9	3.8	8.45e-01	0	43	104	56623104	27	11234
2026-01-13 04:47:13.68	200.53	19.96	-34.0	-43.9	3.8	8.47e-01	0	43	104	56623104	27	11240
2026-01-13 04:47:14.68	200.53	19.82	-34.0	-43.9	3.8	8.45e-01	0	43	104	56623104	27	11251
2026-01-13 04:47:15.69	200.53	19.69	-34.0	-43.9	3.8	8.46e-01	0	43	104	56623104	27	11278
2026-01-13 04:47:16.70	200.53	19.56	-34.0	-43.9	3.8	8.46e-01	0	43	104	56623104	27	11210
2026-01-13 04:47:17.70	200.54	19.43	-34.0	-43.9	3.8	8.45e-01	0	43	104	56623104	27	11243
2026-01-13 04:47:18.71	200.54	19.30	-34.0	-43.9	3.8	8.45e-01	0	43	104	56623104	27	11292
2026-01-13 04:47:19.72	200.54	19.17	-34.0	-43.9	3.8	8.46e-01	0	43	104	56623104	27	11254
2026-01-13 04:47:20.72	200.54	19.05	-34.0	-43.9	3.8	8.45e-01	0	43	104	56623104	27	11272
2026-01-13 04:47:21.72	200.55	18.92	-34.0	-43.9	3.8	8.46e-01	0	43	104	56623104	27	11283
2026-01-13 04:47:22.73	200.55	18.79	-34.0	-43.9	3.8	8.46e-01	0	43	104	56623104	27	11228
2026-01-13 04:47:23.73	200.55	18.67	-34.0	-43.9	3.8	8.46e-01	0	43	104	56623104	27	11255
2026-01-13 04:47:24.74	200.55	18.54	-34.0	-44.0	3.8	8.47e-01	0	43	104	56623104	27	11347
2026-01-13 04:47:25.75	200.56	18.42	-34.0	-43.9	3.8	8.45e-01	0	43	104	56623104	27	11274
2026-01-13 04:47:26.75	200.56	18.29	-34.0	-43.9	3.8	8.47e-01	0	43	104	56623104	27	11225
2026-01-13 04:47:27.77	200.56	18.17	-34.0	-43.9	3.8	8.45e-01	0	43	104	56623104	27	11282
2026-01-13 04:47:28.78	200.57	18.05	-34.0	-43.9	3.8	8.45e-01	0	43	104	56623104	27	11243
2026-01-13 04:47:29.78	200.57	17.92	-34.0	-43.9	3.8	8.45e-01	0	43	104	56623104	27	11249
2026-01-13 04:47:30.79	200.57	17.80	-34.0	-43.9	3.8	8.45e-01	0	43	104	56623104	27	11297
2026-01-13 04:47:31.80	200.57	17.68	-34.0	-43.9	3.8	8.47e-01	0	43	104	56623104	27	11258
2026-01-13 04:47:32.81	200.58	17.56	-34.0	-43.9	3.8	8.47e-01	0	43	104	56623104	27	11256
2026-01-13 04:47:33.81	200.58	17.44	-34.0	-43.9	3.8	8.46e-01	0	43	104	56623104	27	11270
2026-01-13 04:47:34.82	200.58	17.32	-34.0	-43.9	3.8	8.46e-01	0	43	104	56623104	27	11250
2026-01-13 04:47:35.82	200.58	17.20	-34.0	-43.9	3.8	8.46e-01	0	43	104	56623104	27	11241
2026-01-13 04:47:36.82	200.59	17.09	-34.0	-43.9	3.8	8.46e-01	0	43	104	56623104	27	11257
2026-01-13 04:47:37.83	200.59	16.97	-34.0	-43.9	3.8	8.46e-01	0	43	104	56623104	27	11270
2026-01-13 04:47:38.84	200.59	16.85	-34.0	-43.9	3.8	8.46e-01	0	43	104	56623104	27	11271
2026-01-13 04:47:39.85	200.60	16.73	-34.0	-43.9	3.8	8.46e-01	0	43	104	56623104	27	11250
2026-01-13 04:47:40.85	200.60	16.62	-34.0	-43.9	3.8	8.47e-01	0	43	104	56623104	27	11242
2026-01-13 04:47:41.86	200.60	16.50	-34.0	-43.9	3.8	8.46e-01	0	43	104	56623104	27	11207
2026-01-13 04:47:42.87	200.60	16.39	-34.0	-43.9	3.8	8.45e-01	0	43	104	56623104	27	11255
2026-01-13 04:47:43.87	200.61	16.28	-34.0	-43.9	3.8	8.46e-01	0	43	104	56623104	27	11263
2026-01-13 04:47:44.88	200.61	16.16	-34.0	-43.9	3.8	8.46e-01	0	43	104	56623104	27	11251
2026-01-13 04:47:45.89	200.61	16.05	-34.0	-43.9	3.8	8.47e-01	0	43	104	56623104	27	11274
2026-01-13 04:47:46.89	200.61	15.94	-34.0	-43.9	3.8	8.45e-01	0	43	104	56623104	27	11254
2026-01-13 04:47:47.90	200.62	15.82	-34.0	-44.0	3.8	8.45e-01	0	43	104	56623104	27	11326
2026-01-13 04:47:48.90	200.62	15.71	-34.0	-44.0	3.8	8.45e-01	0	43	104	56623104	27	11305
2026-01-13 04:47:49.90	200.62	15.60	-34.0	-44.0	3.8	8.46e-01	0	43	104	56623104	27	11307
2026-01-13 04:47:50.91	200.63	15.49	-34.0	-44.0	3.8	8.46e-01	0	43	104	56623104	27	11303
2026-01-13 04:47:51.92	200.63	15.38	-34.0	-43.9	3.8	8.45e-01	0	43	104	56623104	27	11215
2026-01-13 04:47:52.92	200.63	15.27	-34.0	-43.9	3.8	8.46e-01	0	43	104	56623104	27	11288
2026-01-13 04:47:53.93	200.63	15.16	-34.0	-43.9	3.8	8.46e-01	0	43	104	56623104	27	11260
2026-01-13 04:47:54.94	200.64	15.05	-34.0	-44.0	3.8	8.45e-01	0	43	104	56623104	27	11292
2026-01-13 04:47:55.95	200.64	14.95	-34.0	-43.9	3.8	8.45e-01	0	43	104	56623104	27	11208
2026-01-13 04:47:56.95	200.64	14.84	-34.0	-43.9	3.8	8.46e-01	0	43	104	56623104	27	11248
2026-01-13 04:47:57.96	200.65	14.73	-34.0	-43.9	3.8	8.46e-01	0	43	104	56623104	27	11293
2026-01-13 04:47:58.96	200.65	14.63	-34.0	-43.9	3.8	8.46e-01	0	43	104	56623104	27	11280
2026-01-13 04:47:59.97	200.65	14.52	-34.0	-43.9	3.8	8.46e-01	0	43	104	56623104	27	11239
2026-01-13 04:48:00.97	200.65	14.41	-34.0	-43.9	3.8	8.46e-01	0	43	104	56623104	27	11270
2026-01-13 04:48:01.98	200.66	14.31	-34.0	-43.9	3.8	8.46e-01	0	43	104	56623104	27	11234
2026-01-13 04:48:02.99	200.66	14.20	-34.0	-43.9	3.8	8.46e-01	0	43	104	56623104	27	11292
2026-01-13 04:48:04.00	200.66	14.10	-34.0	-43.9	3.8	8.46e-01	0	43	104	56623104	27	11210
2026-01-13 04:48:05.00	200.66	14.00	-34.0	-43.9	3.8	8.47e-01	0	43	104	56623104	27	11253
2026-01-13 04:48:06.01	200.67	13.89	-34.0	-43.9	3.8	8.47e-01	0	43	104	56623104	27	11192
2026-01-13 04:48:07.01	200.67	13.79	-34.0	-43.9	3.8	8.46e-01	0	43	104	56623104	27	11227
2026-01-13 04:48:08.02	200.67	13.69	-34.0	-43.9	3.8	8.45e-01	0	43	104	56623104	27	11299
2026-01-13 04:48:09.03	200.68	13.58	-34.0	-44.0	3.8	8.46e-01	0	43	104	56623104	27	11308
2026-01-13 04:48:10.03	200.68	13.48	-34.0	-43.9	3.8	8.46e-01	0	43	104	56623104	27	11288
2026-01-13 04:48:11.04	200.68	13.38	-34.0	-43.9	3.8	8.46e-01	0	43	104	56623104	27	11255
2026-01-13 04:48:12.04	200.68	13.28	-34.0	-43.9	3.8	8.46e-01	0	43	104	56623104	27	11210
2026-01-13 04:48:13.05	200.69	13.18	-34.0	-43.9	3.8	8.48e-01	0	43	104	56623104	27	11234
2026-01-13 04:48:14.06	200.69	13.08	-34.0	-43.9	3.8	8.47e-01	0	43	104	56623104	27	11266
2026-01-13 04:48:15.07	200.69	12.98	-34.0	-43.9	3.8	8.46e-01	0	43	104	56623104	27	11283
2026-01-13 04:48:16.07	200.70	12.88	-34.0	-43.9	3.8	8.47e-01	0	43	104	56623104	27	11272
2026-01-13 04:48:17.07	200.70	12.78	-34.0	-43.9	3.8	8.47e-01	0	43	104	56623104	27	11246
2026-01-13 04:48:18.08	200.70	12.68	-34.0	-43.9	3.8	8.46e-01	0	43	104	56623104	27	11278
2026-01-13 04:48:19.09	200.70	12.59	-34.0	-43.9	3.8	8.48e-01	0	43	104	56623104	27	11260
2026-01-13 04:48:20.10	200.71	12.49	-34.0	-43.9	3.8	8.45e-01	0	43	104	56623104	27	11253
2026-01-13 04:48:21.10	200.71	12.39	-34.0	-43.9	3.8	8.45e-01	0	43	104	56623104	27	11238
2026-01-13 04:48:22.11	200.71	12.29	-34.0	-43.9	3.8	8.46e-01	0	43	104	56623104	27	11273
2026-01-13 04:48:23.11	200.72	12.20	-34.0	-43.9	3.8	8.46e-01	0	43	104	56623104	27	11282
2026-01-13 04:48:24.12	200.72	12.10	-34.0	-43.9	3.8	8.47e-01	0	43	104	56623104	27	11263
2026-01-13 04:48:25.12	200.72	12.01	-34.0	-43.9	3.8	8.46e-01	0	43	104	56623104	27	11243
2026-01-13 04:48:26.13	200.72	11.91	-34.0	-43.9	3.8	8.46e-01	0	43	104	56623104	27	11263
2026-01-13 04:48:27.14	200.73	11.82	-34.0	-43.9	3.8	8.46e-01	0	43	104	56623104	27	11219
2026-01-13 04:48:28.15	200.73	11.72	-34.0	-43.9	3.8	8.47e-01	0	43	104	56623104	27	11265
2026-01-13 04:48:29.16	200.73	11.63	-34.0	-43.9	3.8	8.46e-01	0	43	104	56623104	27	11248
2026-01-13 04:48:30.16	200.74	11.53	-34.0	-43.9	3.8	8.47e-01	0	43	104	56623104	27	11285
2026-01-13 04:48:31.17	200.74	11.44	-34.0	-43.9	3.8	8.46e-01	0	43	104	56623104	27	11272
2026-01-13 04:48:32.18	200.74	11.35	-34.0	-43.9	3.8	8.47e-01	0	43	104	56623104	27	11271
2026-01-13 04:48:33.18	200.74	11.25	-34.0	-43.9	3.8	8.46e-01	0	43	104	56623104	27	11227
2026-01-13 04:48:34.19	200.75	11.16	-34.0	-43.9	3.8	8.46e-01	0	43	104	56623104	27	11285
2026-01-13 04:48:35.20	200.75	11.07	-34.0	-43.9	3.8	8.45e-01	0	43	104	56623104	27	11258
2026-01-13 04:48:36.21	200.75	10.98	-34.0	-43.9	3.8	8.45e-01	0	43	104	56623104	27	11204
2026-01-13 04:48:37.22	200.76	10.88	-34.0	-43.9	3.8	8.46e-01	0	43	104	56623104	27	11260
2026-01-13 04:48:38.23	200.76	10.79	-34.0	-43.9	3.8	8.46e-01	0	43	104	56623104	27	11267
2026-01-13 04:48:39.24	200.76	10.70	-34.0	-44.0	3.8	8.47e-01	0	43	104	56623104	27	11308
2026-01-13 04:48:40.25	200.76	10.61	-34.0	-43.9	3.8	8.47e-01	0	43	104	56623104	27	11270
2026-01-13 04:48:41.25	200.77	10.52	-34.0	-43.9	3.8	8.46e-01	0	43	104	56623104	27	11286
2026-01-13 04:48:42.26	200.77	10.43	-34.0	-43.9	3.8	8.46e-01	0	43	104	56623104	27	11271
2026-01-13 04:48:43.26	200.77	10.34	-34.0	-43.9	3.8	8.46e-01	0	43	104	56623104	27	11240
2026-01-13 04:48:44.27	200.78	10.25	-34.0	-43.9	3.8	8.46e-01	0	43	104	56623104	27	11267
2026-01-13 04:48:45.28	200.78	10.16	-34.0	-44.0	3.8	8.46e-01	0	43	104	56623104	27	11317
2026-01-13 04:48:46.29	200.78	10.08	-34.0	-44.0	3.8	8.46e-01	0	43	104	56623104	27	11351
2026-01-13 04:48:47.30	200.78	9.99	-34.0	-44.0	3.8	8.46e-01	0	43	104	56623104	27	11310
2026-01-13 04:48:48.31	200.79	9.90	-34.0	-43.9	3.8	8.48e-01	0	43	104	56623104	27	11232
2026-01-13 04:48:49.31	200.79	9.81	-34.0	-43.9	3.8	8.46e-01	0	43	104	56623104	27	11260
2026-01-13 04:48:50.31	200.79	9.73	-34.0	-44.0	3.8	8.48e-01	0	43	104	56623104	27	11306
2026-01-13 04:48:51.32	200.79	9.64	-34.0	-44.0	3.8	8.45e-01	0	43	104	56623104	27	11328
2026-01-13 04:48:52.32	200.80	9.55	-34.0	-44.0	3.8	8.46e-01	0	43	104	56623104	27	11337
2026-01-13 04:48:53.33	200.80	9.47	-34.0	-44.0	3.8	8.45e-01	0	43	104	56623104	27	11304
2026-01-13 04:48:54.33	200.80	9.38	-34.0	-43.9	3.8	8.45e-01	0	43	104	56623104	27	11282
2026-01-13 04:48:55.34	200.81	9.29	-34.0	-43.9	3.8	8.48e-01	0	43	104	56623104	27	11293
2026-01-13 04:48:56.34	200.81	9.21	-34.0	-43.9	3.8	8.45e-01	0	43	104	56623104	27	11287
2026-01-13 04:48:57.35	200.81	9.12	-34.0	-43.9	3.8	8.47e-01	0	43	104	56623104	27	11264
2026-01-13 04:48:58.36	200.81	9.04	-34.0	-43.9	3.8	8.47e-01	0	43	104	56623104	27	11285
2026-01-13 04:48:59.37	200.82	8.95	-34.0	-43.9	3.8	8.46e-01	0	43	104	56623104	27	11248
2026-01-13 04:49:00.37	200.82	8.87	-34.0	-43.9	3.8	8.46e-01	0	43	104	56623104	27	11220
2026-01-13 04:49:01.38	200.82	8.79	-34.0	-43.9	3.8	8.46e-01	0	43	104	56623104	27	11282
2026-01-13 04:49:02.38	200.83	8.70	-34.0	-43.9	3.8	8.45e-01	0	43	104	56623104	27	11283
2026-01-13 04:49:03.40	200.83	8.62	-34.0	-43.9	3.8	8.46e-01	0	43	104	56623104	27	11277
2026-01-13 04:49:04.40	200.83	8.54	-34.0	-43.9	3.8	8.48e-01	0	43	104	56623104	27	11242
2026-01-13 04:49:05.41	200.83	8.45	-34.0	-43.9	3.8	8.46e-01	0	43	104	56623104	27	11235
2026-01-13 04:49:06.42	200.84	8.37	-34.0	-43.9	3.8	8.45e-01	0	43	104	56623104	27	11254
2026-01-13 04:49:07.42	200.84	8.29	-34.0	-43.9	3.8	8.46e-01	0	43	104	56623104	27	11257
2026-01-13 04:49:08.42	200.84	8.21	-34.0	-43.9	3.8	8.46e-01	0	43	104	56623104	27	11244
2026-01-13 04:49:09.43	200.85	8.12	-34.0	-43.9	3.8	8.45e-01	0	43	104	56623104	27	11266
2026-01-13 04:49:10.44	200.85	8.04	-34.0	-43.9	3.8	8.45e-01	0	43	104	56623104	27	11263
2026-01-13 04:49:11.44	200.85	7.96	-34.0	-43.9	3.8	8.47e-01	0	43	104	56623104	27	11269
2026-01-13 04:49:12.44	200.85	7.88	-34.0	-43.9	3.8	8.47e-01	0	43	104	56623104	27	11215
2026-01-13 04:49:13.45	200.86	7.80	-34.0	-43.9	3.8	8.46e-01	0	43	104	56623104	27	11225
2026-01-13 04:49:14.46	200.86	7.72	-34.0	-43.9	3.8	8.47e-01	0	43	104	56623104	27	11241
2026-01-13 04:49:15.47	200.86	7.64	-34.0	-43.9	3.8	8.47e-01	0	43	104	56623104	27	11260
2026-01-13 04:49:16.47	200.87	7.56	-34.0	-43.9	3.8	8.45e-01	0	43	104	56623104	27	11217
2026-01-13 04:49:17.48	200.87	7.48	-34.0	-43.9	3.8	8.45e-01	0	43	104	56623104	27	11262
2026-01-13 04:49:18.48	200.87	7.40	-34.0	-43.9	3.8	8.45e-01	0	43	104	56623104	27	11237
2026-01-13 04:49:19.49	200.87	7.32	-34.0	-43.8	3.8	8.47e-01	0	43	104	56623104	27	11191
2026-01-13 04:49:20.49	200.88	7.24	-34.0	-43.9	3.8	8.46e-01	0	43	104	56623104	27	11269
2026-01-13 04:49:21.50	200.88	7.16	-34.0	-43.9	3.8	8.47e-01	0	43	104	56623104	27	11207
2026-01-13 04:49:22.51	200.88	7.09	-34.0	-43.9	3.8	8.46e-01	0	43	104	56623104	27	11247
2026-01-13 04:49:23.51	200.89	7.01	-34.0	-43.9	3.8	8.46e-01	0	43	104	56623104	27	11278
2026-01-13 04:49:24.52	200.89	6.93	-34.0	-43.9	3.8	8.46e-01	0	43	104	56623104	27	11242

#Closed at: 2026-01-13 04:49:25
#Recorded file [56 MB]: D:/data/31010_260113_074318.dat