passes_logs/2026/01/13/R2M6_AANII_01/R2M6_AANII_01__20260113_124451_FENGYUN_3D_rec.log

#Pass ID: 20260113_124451_FENGYUN 3D
#Satellite: FENGYUN 3D
#Configuration: FENGYUN 3D
#almurnet v.1.7.20240730
#Start time: 2026-01-13 12:44:52

#Version: 2.2.20231116
#Station: R2M6_AANII_01
#Location: 30.233357 lon 59.946436 lat
#TLE: 1 43010U 17072A   26012.32543542  .00000598  00000+0  30457-3 0  9997
#TLE: 2 43010  98.9935 344.1005 0002233 112.6136 247.5276 14.19696644422876

#Time	Az	El	Level	Level2	SNR	BER	BlckErr	Temp	State	Recorded	gain1	gain2
2026-01-13 12:44:52.90	172.19	7.14	-34.0	-44.5	3.8	8.45e-01	0	40	0	0	29	12117
2026-01-13 12:44:53.90	172.22	7.22	-34.0	-44.5	3.8	8.47e-01	0	40	104	0	29	12119
2026-01-13 12:44:54.90	172.24	7.29	-34.0	-44.5	3.8	8.45e-01	0	40	104	0	29	12119
2026-01-13 12:44:55.91	172.27	7.37	-34.0	-44.5	3.8	8.46e-01	0	40	104	0	29	12156
2026-01-13 12:44:56.93	172.30	7.45	-34.0	-44.5	3.8	8.46e-01	0	40	104	0	29	12117
2026-01-13 12:44:57.93	172.33	7.53	-34.0	-44.5	3.8	8.46e-01	0	40	104	0	29	12120
2026-01-13 12:44:58.94	172.36	7.61	-34.0	-44.6	3.8	8.46e-01	0	40	104	0	29	12138
2026-01-13 12:44:59.95	172.38	7.69	-34.0	-44.5	3.8	8.45e-01	0	40	104	0	29	12114
2026-01-13 12:45:00.95	172.41	7.77	-34.0	-44.5	3.8	8.46e-01	0	41	104	0	29	12124
2026-01-13 12:45:01.96	172.44	7.84	-34.0	-44.5	3.8	8.47e-01	0	40	104	0	29	12141
2026-01-13 12:45:02.96	172.47	7.92	-34.0	-44.5	3.8	8.46e-01	0	41	104	0	29	12134
2026-01-13 12:45:03.96	172.50	8.00	-34.0	-44.5	3.8	8.47e-01	0	41	104	0	29	12109
2026-01-13 12:45:04.96	172.53	8.08	-34.0	-44.5	3.8	8.47e-01	0	41	104	0	29	12145
2026-01-13 12:45:05.97	172.56	8.16	-34.0	-44.6	3.8	8.45e-01	0	41	104	0	29	12162
2026-01-13 12:45:06.97	172.58	8.24	-34.0	-44.5	3.8	8.46e-01	0	41	104	0	29	12132
2026-01-13 12:45:07.98	172.61	8.32	-34.0	-44.5	3.8	8.46e-01	0	41	104	0	29	12134
2026-01-13 12:45:08.98	172.64	8.41	-34.0	-44.5	3.8	8.46e-01	0	41	104	0	29	12153
2026-01-13 12:45:09.99	172.67	8.49	-34.0	-44.6	3.8	8.45e-01	0	41	104	0	29	12167
2026-01-13 12:45:10.99	172.70	8.57	-34.0	-44.5	3.8	8.47e-01	0	41	104	0	29	12086
2026-01-13 12:45:12.00	172.73	8.65	-34.0	-44.5	3.8	8.47e-01	0	41	104	0	29	12122
2026-01-13 12:45:13.01	172.76	8.73	-34.0	-44.5	3.8	8.47e-01	0	41	104	0	29	12158
2026-01-13 12:45:14.02	172.79	8.82	-34.0	-44.5	3.8	8.46e-01	0	41	104	0	29	12138
2026-01-13 12:45:15.02	172.82	8.90	-34.0	-44.6	3.8	8.46e-01	0	41	104	0	29	12166
2026-01-13 12:45:16.03	172.85	8.98	-34.0	-44.5	3.8	8.45e-01	0	41	104	0	29	12153
2026-01-13 12:45:17.03	172.89	9.06	-34.0	-44.5	3.8	8.46e-01	0	41	104	0	29	12151
2026-01-13 12:45:18.04	172.92	9.15	-34.0	-44.5	3.8	8.46e-01	0	41	104	0	29	12109
2026-01-13 12:45:19.04	172.95	9.23	-34.0	-44.5	3.8	8.47e-01	0	41	104	0	29	12114
2026-01-13 12:45:20.05	172.98	9.32	-34.0	-44.6	3.8	8.46e-01	0	41	104	0	29	12154
2026-01-13 12:45:21.06	173.01	9.40	-34.0	-44.6	3.8	8.46e-01	0	41	104	0	29	12182
2026-01-13 12:45:22.06	173.04	9.48	-34.0	-44.5	3.8	8.46e-01	0	41	104	0	29	12136
2026-01-13 12:45:23.06	173.07	9.57	-34.0	-44.5	3.8	8.47e-01	0	41	104	0	29	12148
2026-01-13 12:45:24.07	173.10	9.65	-34.0	-44.6	3.8	8.46e-01	0	41	104	0	29	12175
2026-01-13 12:45:25.08	173.14	9.74	-34.0	-44.5	3.8	8.45e-01	0	41	104	0	29	12129
2026-01-13 12:45:26.09	173.17	9.83	-34.0	-44.5	3.8	8.45e-01	0	41	104	0	29	12142
2026-01-13 12:45:27.10	173.20	9.91	-34.0	-44.5	3.8	8.46e-01	0	41	104	0	29	12129
2026-01-13 12:45:28.11	173.23	10.00	-34.0	-44.6	3.8	8.46e-01	0	41	104	0	29	12151
2026-01-13 12:45:29.12	173.27	10.09	-34.0	-44.6	3.8	8.45e-01	0	41	104	0	29	12138
2026-01-13 12:45:30.11	173.30	10.17	-34.0	-44.6	3.8	8.45e-01	0	41	104	0	29	12162
2026-01-13 12:45:31.12	173.33	10.26	-34.0	-44.6	3.8	8.45e-01	0	41	104	0	29	12173
2026-01-13 12:45:32.13	173.37	10.35	-34.0	-44.5	3.8	8.47e-01	0	41	104	0	29	12151
2026-01-13 12:45:33.13	173.40	10.43	-34.0	-44.5	3.8	8.45e-01	0	41	104	0	29	12122
2026-01-13 12:45:34.14	173.43	10.52	-34.0	-44.5	3.8	8.47e-01	0	41	104	0	29	12140
2026-01-13 12:45:35.15	173.47	10.61	-34.0	-44.5	3.8	8.46e-01	0	41	104	0	29	12131
2026-01-13 12:45:36.16	173.50	10.70	-34.0	-44.6	3.8	8.46e-01	0	41	104	0	29	12153
2026-01-13 12:45:37.16	173.54	10.79	-34.0	-44.6	3.8	8.47e-01	0	41	104	0	29	12158
2026-01-13 12:45:38.17	173.57	10.88	-34.0	-44.6	3.8	8.45e-01	0	41	104	0	29	12165
2026-01-13 12:45:39.17	173.60	10.97	-34.0	-44.5	3.8	8.47e-01	0	42	104	0	29	12105
2026-01-13 12:45:40.19	173.64	11.06	-34.0	-44.6	3.8	8.47e-01	0	41	104	0	29	12148
2026-01-13 12:45:41.19	173.67	11.15	-34.0	-44.5	3.8	8.47e-01	0	41	104	0	29	12158
2026-01-13 12:45:42.20	173.71	11.24	-34.0	-44.5	3.8	8.46e-01	0	41	104	0	29	12123
2026-01-13 12:45:43.21	173.74	11.33	-34.0	-44.6	3.8	8.46e-01	0	42	104	0	29	12161
2026-01-13 12:45:44.22	173.78	11.42	-34.0	-44.6	3.8	8.45e-01	0	42	104	0	29	12154
2026-01-13 12:45:45.23	173.82	11.52	-34.0	-44.6	3.8	8.47e-01	0	42	104	0	29	12165
2026-01-13 12:45:46.24	173.85	11.61	-34.0	-44.6	3.8	8.46e-01	0	41	104	0	29	12166
2026-01-13 12:45:47.25	173.89	11.70	-34.0	-44.6	3.8	8.45e-01	0	42	104	0	29	12142
2026-01-13 12:45:48.26	173.93	11.79	-34.0	-44.6	3.8	8.46e-01	0	42	104	0	29	12165
2026-01-13 12:45:49.27	173.96	11.89	-34.0	-44.5	3.8	8.45e-01	0	42	104	0	29	12124
2026-01-13 12:45:50.28	174.00	11.98	-34.0	-44.5	3.8	8.45e-01	0	42	104	0	29	12132
2026-01-13 12:45:51.29	174.04	12.08	-34.0	-44.6	3.8	8.45e-01	0	42	104	0	29	12174
2026-01-13 12:45:52.29	174.07	12.17	-34.0	-44.5	3.8	8.47e-01	0	42	104	0	29	12105
2026-01-13 12:45:53.30	174.11	12.26	-34.0	-44.5	3.8	8.47e-01	0	42	104	0	29	12121
2026-01-13 12:45:54.31	174.15	12.36	-34.0	-44.5	3.8	8.47e-01	0	42	104	0	29	12155
2026-01-13 12:45:55.32	174.19	12.45	-34.0	-44.6	3.8	8.46e-01	0	42	104	0	29	12156
2026-01-13 12:45:56.32	174.22	12.55	-34.0	-44.6	3.8	8.46e-01	0	42	104	0	29	12170
2026-01-13 12:45:57.32	174.26	12.64	-34.0	-44.5	3.8	8.45e-01	0	42	104	0	29	12136
2026-01-13 12:45:58.34	174.30	12.74	-34.0	-44.6	3.8	8.46e-01	0	42	104	0	29	12151
2026-01-13 12:45:59.34	174.34	12.84	-34.0	-44.5	3.8	8.46e-01	0	42	104	0	29	12146
2026-01-13 12:46:00.35	174.38	12.94	-34.0	-44.6	3.8	8.47e-01	0	42	104	0	29	12185
2026-01-13 12:46:01.36	174.42	13.03	-34.0	-44.5	3.8	8.46e-01	0	42	104	0	29	12106
2026-01-13 12:46:02.37	174.46	13.13	-34.0	-44.5	3.8	8.47e-01	0	42	104	0	29	12136
2026-01-13 12:46:03.38	174.50	13.23	-34.0	-44.5	3.8	8.47e-01	0	42	104	0	29	12110
2026-01-13 12:46:04.39	174.54	13.33	-34.0	-44.6	3.8	8.46e-01	0	42	104	0	29	12157
2026-01-13 12:46:05.39	174.58	13.43	-34.0	-44.6	3.8	8.46e-01	0	42	104	0	29	12159
2026-01-13 12:46:06.39	174.62	13.53	-34.0	-44.5	3.8	8.47e-01	0	42	104	0	29	12105
2026-01-13 12:46:07.40	174.66	13.63	-34.0	-44.5	3.8	8.47e-01	0	42	104	0	29	12100
2026-01-13 12:46:08.41	174.70	13.73	-34.0	-44.5	3.8	8.46e-01	0	42	104	0	29	12142
2026-01-13 12:46:09.42	174.74	13.83	-34.0	-44.5	3.8	8.46e-01	0	42	104	0	29	12143
2026-01-13 12:46:10.42	174.78	13.93	-34.0	-44.6	3.8	8.46e-01	0	42	104	0	29	12163
2026-01-13 12:46:11.42	174.82	14.03	-34.0	-44.5	3.8	8.46e-01	0	42	104	0	29	12139
2026-01-13 12:46:12.43	174.87	14.13	-34.0	-44.5	3.8	8.46e-01	0	42	104	0	29	12138
2026-01-13 12:46:13.44	174.91	14.23	-34.0	-44.5	3.8	8.46e-01	0	42	104	0	29	12132
2026-01-13 12:46:14.45	174.95	14.34	-34.0	-44.5	3.8	8.46e-01	0	42	104	0	29	12141
2026-01-13 12:46:15.45	175.00	14.44	-34.0	-44.6	3.8	8.47e-01	0	42	104	0	29	12166
2026-01-13 12:46:16.46	175.04	14.54	-34.0	-44.5	3.8	8.46e-01	0	42	104	0	29	12135
2026-01-13 12:46:17.46	175.08	14.65	-34.0	-44.5	3.8	8.46e-01	0	42	104	0	29	12131
2026-01-13 12:46:18.47	175.13	14.75	-34.0	-44.6	3.8	8.45e-01	0	42	104	0	29	12165
2026-01-13 12:46:19.47	175.17	14.86	-34.0	-44.5	3.8	8.45e-01	0	42	104	0	29	12135
2026-01-13 12:46:20.48	175.21	14.96	-34.0	-44.5	3.8	8.46e-01	0	42	104	0	29	12115
2026-01-13 12:46:21.49	175.26	15.07	-34.0	-44.6	3.8	8.48e-01	0	42	104	0	29	12170
2026-01-13 12:46:22.49	175.30	15.17	-34.0	-44.5	3.8	8.46e-01	0	42	104	0	29	12129
2026-01-13 12:46:23.50	175.35	15.28	-34.0	-44.5	3.8	8.46e-01	0	42	104	0	29	12122
2026-01-13 12:46:24.51	175.39	15.39	-34.0	-44.5	3.8	8.46e-01	0	42	104	0	29	12100
2026-01-13 12:46:25.52	175.44	15.50	-34.0	-44.5	3.8	8.44e-01	0	42	104	0	29	12109
2026-01-13 12:46:26.52	175.49	15.60	-34.0	-44.5	3.8	8.46e-01	0	42	104	0	29	12121
2026-01-13 12:46:27.53	175.53	15.71	-34.0	-44.5	3.8	8.45e-01	0	42	104	0	29	12112
2026-01-13 12:46:28.54	175.58	15.82	-34.0	-44.6	3.8	8.46e-01	0	42	104	0	29	12173
2026-01-13 12:46:29.55	175.63	15.93	-34.0	-44.5	3.8	8.46e-01	0	42	104	0	29	12118
2026-01-13 12:46:30.55	175.67	16.04	-34.0	-44.5	3.8	8.46e-01	0	42	104	0	29	12114
2026-01-13 12:46:31.56	175.72	16.15	-34.0	-44.5	3.8	8.46e-01	0	42	104	0	29	12088
2026-01-13 12:46:32.56	175.77	16.26	-34.0	-44.6	3.8	8.47e-01	0	42	104	0	29	12177
2026-01-13 12:46:33.57	175.82	16.37	-34.0	-44.5	3.8	8.46e-01	0	42	104	0	29	12139
2026-01-13 12:46:34.57	175.87	16.48	-34.0	-44.5	3.8	8.46e-01	0	42	104	0	29	12142
2026-01-13 12:46:35.58	175.91	16.60	-34.0	-44.5	3.8	8.46e-01	0	42	104	0	29	12134
2026-01-13 12:46:36.59	175.96	16.71	-34.0	-44.6	3.8	8.46e-01	0	42	104	0	29	12154
2026-01-13 12:46:37.60	176.01	16.82	-34.0	-44.5	3.8	8.45e-01	0	42	104	0	29	12115
2026-01-13 12:46:38.60	176.06	16.94	-34.0	-44.5	3.8	8.46e-01	0	42	104	0	29	12142
2026-01-13 12:46:39.61	176.11	17.05	-34.0	-44.5	3.8	8.46e-01	0	42	104	0	29	12154
2026-01-13 12:46:40.62	176.16	17.17	-34.0	-44.5	3.8	8.45e-01	0	42	104	0	29	12108
2026-01-13 12:46:41.63	176.22	17.28	-34.0	-44.5	3.8	8.46e-01	0	42	104	0	29	12125
2026-01-13 12:46:42.63	176.27	17.40	-34.0	-44.5	3.8	8.47e-01	0	42	104	0	29	12118
2026-01-13 12:46:43.64	176.32	17.51	-34.0	-44.5	3.8	8.47e-01	0	42	104	0	29	12141
2026-01-13 12:46:44.65	176.37	17.63	-34.0	-44.5	3.8	8.46e-01	0	42	104	0	29	12129
2026-01-13 12:46:45.66	176.42	17.75	-34.0	-44.5	3.8	8.47e-01	0	42	104	0	29	12145
2026-01-13 12:46:46.66	176.48	17.87	-34.0	-44.5	3.8	8.46e-01	0	42	104	0	29	12112
2026-01-13 12:46:47.67	176.53	17.99	-34.0	-44.5	3.8	8.46e-01	0	42	104	0	29	12133
2026-01-13 12:46:48.68	176.58	18.11	-34.0	-44.5	3.8	8.47e-01	0	42	104	0	29	12129
2026-01-13 12:46:49.69	176.64	18.23	-34.0	-44.5	3.8	8.47e-01	0	42	104	0	29	12115
2026-01-13 12:46:50.69	176.69	18.35	-34.0	-44.5	3.8	8.45e-01	0	42	104	0	29	12101
2026-01-13 12:46:51.70	176.75	18.47	-34.0	-44.5	3.8	8.46e-01	0	42	104	0	29	12131
2026-01-13 12:46:52.71	176.80	18.59	-34.0	-44.5	3.8	8.45e-01	0	42	104	0	29	12118
2026-01-13 12:46:53.71	176.86	18.71	-34.0	-44.6	3.8	8.46e-01	0	42	104	0	29	12162
2026-01-13 12:46:54.72	176.92	18.83	-34.0	-44.5	3.8	8.46e-01	0	42	104	0	29	12116
2026-01-13 12:46:55.73	176.97	18.96	-34.0	-44.5	3.8	8.45e-01	0	42	104	0	29	12122
2026-01-13 12:46:56.73	177.03	19.08	-34.0	-44.5	3.8	8.46e-01	0	42	104	0	29	12137
2026-01-13 12:46:57.74	177.09	19.20	-34.0	-44.5	3.8	8.46e-01	0	42	104	0	29	12135
2026-01-13 12:46:58.75	177.15	19.33	-34.0	-44.5	3.8	8.46e-01	0	42	104	0	29	12130
2026-01-13 12:46:59.76	177.20	19.46	-34.0	-44.5	3.8	8.46e-01	0	42	104	0	29	12106
2026-01-13 12:47:00.76	177.26	19.58	-34.0	-44.5	3.8	8.46e-01	0	42	104	0	29	12112
2026-01-13 12:47:01.76	177.32	19.71	-34.0	-44.5	3.8	8.47e-01	0	42	104	0	29	12108
2026-01-13 12:47:02.76	177.38	19.83	-34.0	-44.5	3.8	8.46e-01	0	43	104	0	29	12119
2026-01-13 12:47:03.77	177.44	19.96	-34.0	-44.6	3.8	8.46e-01	0	42	104	0	29	12156
2026-01-13 12:47:04.78	177.50	20.09	-34.0	-44.5	3.8	8.45e-01	0	42	104	0	29	12121
2026-01-13 12:47:05.79	177.56	20.22	-34.0	-44.5	3.8	8.47e-01	0	42	104	0	29	12144
2026-01-13 12:47:06.79	177.62	20.35	-34.0	-44.5	3.8	8.46e-01	0	42	104	0	29	12145
2026-01-13 12:47:07.80	177.69	20.48	-34.0	-44.5	3.8	8.46e-01	0	42	104	0	29	12112
2026-01-13 12:47:08.81	177.75	20.61	-34.0	-44.5	3.8	8.46e-01	0	42	104	0	29	12102
2026-01-13 12:47:09.82	177.81	20.75	-34.0	-44.5	3.8	8.47e-01	0	42	104	0	29	12136
2026-01-13 12:47:10.82	177.88	20.88	-34.0	-44.5	3.8	8.46e-01	0	42	104	0	29	12103
2026-01-13 12:47:11.83	177.94	21.01	-34.0	-44.5	3.8	8.46e-01	0	42	104	0	29	12116
2026-01-13 12:47:12.83	178.01	21.14	-34.0	-44.5	3.8	8.47e-01	0	43	104	0	29	12089
2026-01-13 12:47:13.84	178.07	21.28	-34.0	-44.5	3.8	8.46e-01	0	43	104	0	29	12137
2026-01-13 12:47:14.85	178.14	21.42	-34.0	-44.5	3.8	8.47e-01	0	43	104	0	29	12151
2026-01-13 12:47:15.85	178.20	21.55	-34.0	-44.5	3.8	8.46e-01	0	42	104	0	29	12079
2026-01-13 12:47:16.86	178.27	21.69	-34.0	-44.5	3.8	8.45e-01	0	42	104	0	29	12123
2026-01-13 12:47:17.87	178.34	21.83	-34.0	-44.5	3.8	8.47e-01	0	42	104	0	29	12126
2026-01-13 12:47:18.88	178.41	21.96	-34.0	-44.6	3.8	8.45e-01	0	43	104	0	29	12155
2026-01-13 12:47:19.88	178.47	22.10	-34.0	-44.5	3.8	8.47e-01	0	42	104	0	29	12149
2026-01-13 12:47:20.89	178.54	22.24	-34.0	-44.5	3.8	8.46e-01	0	42	104	0	29	12119
2026-01-13 12:47:21.89	178.61	22.38	-34.0	-44.5	3.8	8.46e-01	0	43	104	0	29	12107
2026-01-13 12:47:22.90	178.68	22.52	-34.0	-44.5	3.8	8.46e-01	0	42	104	0	29	12125
2026-01-13 12:47:23.91	178.76	22.67	-34.0	-44.6	3.8	8.47e-01	0	42	104	0	29	12152
2026-01-13 12:47:24.92	178.83	22.81	-34.0	-44.5	3.8	8.45e-01	0	42	104	0	29	12115
2026-01-13 12:47:25.92	178.90	22.95	-34.0	-44.5	3.8	8.46e-01	0	42	104	0	29	12121
2026-01-13 12:47:26.93	178.97	23.10	-34.0	-44.5	3.8	8.45e-01	0	42	104	0	29	12105
2026-01-13 12:47:27.94	179.05	23.24	-34.0	-44.5	3.8	8.46e-01	0	42	104	0	29	12132
2026-01-13 12:47:28.95	179.12	23.39	-34.0	-44.6	3.8	8.47e-01	0	42	104	0	29	12168
2026-01-13 12:47:29.95	179.20	23.53	-34.0	-44.5	3.8	8.46e-01	0	43	104	0	29	12155
2026-01-13 12:47:30.96	179.27	23.68	-34.0	-44.5	3.8	8.46e-01	0	42	104	0	29	12139
2026-01-13 12:47:31.97	179.35	23.83	-34.0	-44.5	3.8	8.46e-01	0	42	104	0	29	12125
2026-01-13 12:47:32.97	179.42	23.98	-34.0	-44.5	3.8	8.47e-01	0	42	104	0	29	12129
2026-01-13 12:47:33.98	179.50	24.13	-34.0	-44.5	3.8	8.46e-01	0	43	104	0	29	12123
2026-01-13 12:47:34.99	179.58	24.28	-34.0	-44.5	3.8	8.46e-01	0	43	104	0	29	12109
2026-01-13 12:47:36.00	179.66	24.43	-34.0	-44.5	3.8	8.47e-01	0	42	104	0	29	12095
2026-01-13 12:47:37.00	179.74	24.58	-34.0	-44.5	3.8	8.47e-01	0	42	104	0	29	12119
2026-01-13 12:47:38.00	179.82	24.73	-34.0	-44.5	3.8	8.47e-01	0	42	104	0	29	12111
2026-01-13 12:47:39.01	179.90	24.89	-34.0	-44.5	3.8	8.46e-01	0	43	104	0	29	12102
2026-01-13 12:47:40.01	179.98	25.04	-34.0	-44.5	3.8	8.46e-01	0	42	104	0	29	12124
2026-01-13 12:47:41.01	180.06	25.20	-34.0	-44.5	3.8	8.45e-01	0	42	104	0	29	12123
2026-01-13 12:47:42.02	180.15	25.35	-34.0	-44.5	3.8	8.47e-01	0	42	104	0	29	12111
2026-01-13 12:47:43.03	180.23	25.51	-34.0	-44.6	3.8	8.47e-01	0	43	104	0	29	12164
2026-01-13 12:47:44.04	180.32	25.67	-34.0	-44.5	3.8	8.46e-01	0	43	104	0	29	12115
2026-01-13 12:47:45.04	180.40	25.83	-34.0	-44.5	3.8	8.46e-01	0	42	104	0	29	12126
2026-01-13 12:47:46.05	180.49	25.99	-34.0	-44.5	3.8	8.46e-01	0	43	104	0	29	12109
2026-01-13 12:47:47.06	180.58	26.15	-34.0	-44.5	3.8	8.46e-01	0	43	104	0	29	12111
2026-01-13 12:47:48.06	180.67	26.31	-34.0	-44.5	3.8	8.46e-01	0	42	104	0	29	12119
2026-01-13 12:47:49.07	180.76	26.47	-34.0	-44.5	3.8	8.46e-01	0	42	104	0	29	12122
2026-01-13 12:47:50.08	180.85	26.64	-34.0	-44.5	3.8	8.46e-01	0	43	104	0	29	12127
2026-01-13 12:47:51.09	180.94	26.80	-34.0	-44.5	3.8	8.46e-01	0	42	104	0	29	12125
2026-01-13 12:47:52.10	181.03	26.97	-34.0	-44.5	3.8	8.47e-01	0	43	104	0	29	12106
2026-01-13 12:47:53.10	181.12	27.13	-34.0	-44.5	3.8	8.45e-01	0	43	104	0	29	12130
2026-01-13 12:47:54.11	181.22	27.30	-34.0	-44.5	3.8	8.48e-01	0	42	104	0	29	12101
2026-01-13 12:47:55.12	181.31	27.47	-34.0	-44.5	3.8	8.46e-01	0	43	104	0	29	12124
2026-01-13 12:47:56.12	181.41	27.64	-34.0	-44.5	3.8	8.46e-01	0	42	104	0	29	12088
2026-01-13 12:47:57.13	181.51	27.81	-34.0	-44.5	3.8	8.45e-01	0	43	104	0	29	12134
2026-01-13 12:47:58.13	181.60	27.98	-34.0	-44.5	3.8	8.46e-01	0	42	104	0	29	12115
2026-01-13 12:47:59.13	181.70	28.15	-34.0	-44.5	3.8	8.46e-01	0	43	104	0	29	12146
2026-01-13 12:48:00.14	181.80	28.32	-34.0	-44.5	3.8	8.46e-01	0	43	104	0	29	12124
2026-01-13 12:48:01.14	181.90	28.49	-34.0	-44.5	3.8	8.46e-01	0	43	104	0	29	12140
2026-01-13 12:48:02.15	182.00	28.67	-34.0	-44.5	3.8	8.46e-01	0	43	104	0	29	12110
2026-01-13 12:48:03.15	182.11	28.84	-34.0	-44.5	3.8	8.46e-01	0	43	104	0	29	12135
2026-01-13 12:48:04.16	182.21	29.02	-34.0	-44.5	3.8	8.46e-01	0	43	104	0	29	12097
2026-01-13 12:48:05.17	182.32	29.20	-34.0	-44.5	3.8	8.46e-01	0	43	104	0	29	12122
2026-01-13 12:48:06.18	182.42	29.38	-34.0	-44.5	3.8	8.46e-01	0	43	104	0	29	12145
2026-01-13 12:48:07.19	182.53	29.56	-34.0	-44.5	3.8	8.45e-01	0	43	104	0	29	12105
2026-01-13 12:48:08.20	182.64	29.74	-34.0	-44.5	3.8	8.45e-01	0	42	104	0	29	12136
2026-01-13 12:48:09.20	182.75	29.92	-34.0	-44.5	3.8	8.47e-01	0	43	104	0	29	12122
2026-01-13 12:48:10.22	182.86	30.11	-34.0	-44.5	3.8	8.45e-01	0	43	104	0	29	12107
2026-01-13 12:48:11.22	182.97	30.29	-34.0	-44.5	3.8	8.45e-01	0	43	104	0	29	12105
2026-01-13 12:48:12.24	183.09	30.48	-34.0	-44.5	3.8	8.46e-01	0	43	104	0	29	12140
2026-01-13 12:48:13.24	183.20	30.66	-34.0	-44.5	3.8	8.46e-01	0	43	104	0	29	12105
2026-01-13 12:48:14.25	183.32	30.85	-34.0	-44.5	3.8	8.46e-01	0	43	104	0	29	12102
2026-01-13 12:48:15.26	183.44	31.04	-34.0	-44.5	3.8	8.47e-01	0	43	104	0	29	12092
2026-01-13 12:48:16.27	183.56	31.23	-34.0	-44.5	3.8	8.46e-01	0	43	104	0	29	12090
2026-01-13 12:48:17.28	183.68	31.42	-34.0	-44.5	3.8	8.46e-01	0	43	104	0	29	12088
2026-01-13 12:48:18.29	183.80	31.62	-34.0	-44.5	3.8	8.46e-01	0	43	104	0	29	12074
2026-01-13 12:48:19.29	183.92	31.81	-34.0	-44.5	3.8	8.46e-01	0	43	104	0	29	12081
2026-01-13 12:48:20.30	184.05	32.00	-34.0	-44.5	3.8	8.47e-01	0	43	104	0	29	12104
2026-01-13 12:48:21.31	184.17	32.20	-34.0	-44.5	3.8	8.46e-01	0	43	104	0	29	12104
2026-01-13 12:48:22.32	184.30	32.40	-34.0	-44.5	3.8	8.46e-01	0	43	104	0	29	12095
2026-01-13 12:48:23.32	184.43	32.59	-34.0	-44.5	3.8	8.47e-01	0	43	104	0	29	12122
2026-01-13 12:48:24.33	184.56	32.79	-34.0	-44.5	3.8	8.47e-01	0	43	104	0	29	12105
2026-01-13 12:48:25.33	184.69	32.99	-34.0	-44.5	3.8	8.47e-01	0	43	104	0	29	12114
2026-01-13 12:48:26.34	184.82	33.19	-34.0	-44.5	3.8	8.45e-01	0	43	104	0	29	12116
2026-01-13 12:48:27.34	184.96	33.39	-34.0	-44.5	3.8	8.45e-01	0	43	104	0	29	12096
2026-01-13 12:48:28.35	185.10	33.60	-34.0	-44.5	3.8	8.45e-01	0	43	104	0	29	12107
2026-01-13 12:48:29.36	185.24	33.80	-34.0	-44.5	3.8	8.46e-01	0	43	104	0	29	12080
2026-01-13 12:48:30.37	185.38	34.01	-34.0	-44.5	3.8	8.46e-01	0	43	104	0	29	12088
2026-01-13 12:48:31.38	185.52	34.22	-34.0	-44.5	3.8	8.47e-01	0	43	104	0	29	12105
2026-01-13 12:48:32.38	185.66	34.42	-34.0	-44.5	3.8	8.46e-01	0	43	104	0	29	12100
2026-01-13 12:48:33.39	185.81	34.63	-34.0	-44.5	3.8	8.46e-01	0	43	104	0	29	12105
2026-01-13 12:48:34.40	185.95	34.84	-34.0	-44.5	3.8	8.46e-01	0	43	104	0	29	12080
2026-01-13 12:48:35.41	186.10	35.06	-34.0	-44.5	3.8	8.47e-01	0	43	104	0	29	12083
2026-01-13 12:48:36.42	186.26	35.27	-34.0	-44.5	3.8	8.46e-01	0	43	104	0	29	12073
2026-01-13 12:48:37.43	186.41	35.49	-34.0	-44.5	3.8	8.47e-01	0	43	104	0	29	12044
2026-01-13 12:48:38.43	186.56	35.70	-34.0	-44.5	3.8	8.47e-01	0	43	104	0	29	12079
2026-01-13 12:48:39.44	186.72	35.92	-34.0	-44.5	3.8	8.46e-01	0	43	104	0	29	12073
2026-01-13 12:48:40.44	186.88	36.13	-34.0	-44.5	3.8	8.45e-01	0	43	104	0	29	12084
2026-01-13 12:48:41.44	187.04	36.35	-34.0	-44.5	3.8	8.47e-01	0	43	104	0	29	12109
2026-01-13 12:48:42.45	187.20	36.57	-34.0	-44.5	3.8	8.45e-01	0	43	104	0	29	12068
2026-01-13 12:48:43.46	187.37	36.80	-34.0	-44.5	3.8	8.46e-01	0	43	104	0	29	12092
2026-01-13 12:48:44.46	187.54	37.02	-34.0	-44.5	3.8	8.45e-01	0	43	104	0	29	12059
2026-01-13 12:48:45.46	187.70	37.24	-34.0	-44.5	3.8	8.46e-01	0	43	104	0	29	12061
2026-01-13 12:48:46.47	187.88	37.47	-34.0	-44.5	3.8	8.46e-01	0	42	104	0	29	12040
2026-01-13 12:48:47.48	188.05	37.69	-34.0	-44.5	3.8	8.47e-01	0	43	104	0	29	12066
2026-01-13 12:48:48.48	188.23	37.92	-34.0	-44.4	3.8	8.47e-01	0	43	104	0	29	12007
2026-01-13 12:48:49.49	188.41	38.15	-34.0	-44.5	3.8	8.47e-01	0	43	104	0	29	12082
2026-01-13 12:48:50.49	188.59	38.38	-34.0	-44.4	3.8	8.46e-01	0	43	104	0	29	12010
2026-01-13 12:48:51.49	188.77	38.61	-34.0	-44.5	3.8	8.48e-01	0	43	104	0	29	12043
2026-01-13 12:48:52.50	188.96	38.84	-34.0	-44.5	3.8	8.45e-01	0	43	104	0	29	12071
2026-01-13 12:48:53.51	189.15	39.08	-34.0	-44.5	3.8	8.46e-01	0	43	104	0	29	12101
2026-01-13 12:48:54.51	189.34	39.31	-34.0	-44.5	3.8	8.46e-01	0	43	104	0	29	12151
2026-01-13 12:48:55.52	189.54	39.55	-34.0	-44.4	3.8	8.45e-01	0	43	104	0	29	12041
2026-01-13 12:48:56.53	189.74	39.79	-34.0	-44.5	3.8	8.46e-01	0	43	104	0	29	12081
2026-01-13 12:48:57.54	189.94	40.03	-34.0	-44.5	3.8	8.44e-01	0	43	104	0	29	12074
2026-01-13 12:48:58.55	190.14	40.27	-34.0	-44.5	3.8	8.45e-01	0	43	104	0	29	12076
2026-01-13 12:48:59.55	190.35	40.51	-34.0	-44.5	3.8	8.46e-01	0	43	104	0	29	12044
2026-01-13 12:49:00.56	190.56	40.75	-34.0	-44.5	3.8	8.46e-01	0	43	104	0	29	12095
2026-01-13 12:49:01.57	190.77	41.00	-34.0	-44.5	3.8	8.47e-01	0	43	104	0	29	12063
2026-01-13 12:49:02.57	190.99	41.24	-34.0	-44.5	3.8	8.46e-01	0	43	104	0	29	12050
2026-01-13 12:49:03.57	191.20	41.49	-34.0	-44.5	3.8	8.46e-01	0	43	104	0	29	12069
2026-01-13 12:49:04.58	191.43	41.74	-34.0	-44.5	3.8	8.46e-01	0	43	104	0	29	12049
2026-01-13 12:49:05.58	191.65	41.98	-34.0	-44.5	3.8	8.45e-01	0	43	104	0	29	12067
2026-01-13 12:49:06.59	191.88	42.24	-34.0	-44.5	3.8	8.46e-01	0	43	104	0	29	12051
2026-01-13 12:49:07.60	192.12	42.49	-34.0	-44.5	3.8	8.47e-01	0	43	104	0	29	12078
2026-01-13 12:49:08.61	192.35	42.74	-34.0	-44.4	3.8	8.46e-01	0	43	104	0	29	12016
2026-01-13 12:49:09.61	192.59	42.99	-34.0	-44.5	3.8	8.46e-01	0	43	104	0	29	12056
2026-01-13 12:49:10.61	192.83	43.25	-34.0	-44.4	3.8	8.46e-01	0	43	104	0	29	12036
2026-01-13 12:49:11.61	193.08	43.50	-34.0	-44.5	3.8	8.46e-01	0	43	104	0	29	12060
2026-01-13 12:49:12.62	193.33	43.76	-34.0	-44.5	3.8	8.46e-01	0	43	104	0	29	12066
2026-01-13 12:49:13.63	193.59	44.02	-34.0	-44.5	3.8	8.46e-01	0	43	104	0	29	12068
2026-01-13 12:49:14.63	193.85	44.28	-34.0	-44.5	3.8	8.46e-01	0	43	104	0	29	12118
2026-01-13 12:49:15.64	194.11	44.54	-34.0	-44.5	3.8	8.46e-01	0	43	104	0	29	12096
2026-01-13 12:49:16.64	194.38	44.80	-34.0	-44.5	3.8	8.46e-01	0	43	104	0	29	12109
2026-01-13 12:49:17.64	194.65	45.06	-34.0	-44.5	3.8	8.45e-01	0	43	104	0	29	12117
2026-01-13 12:49:18.65	194.93	45.32	-34.0	-44.5	3.8	8.45e-01	0	43	104	0	29	12138
2026-01-13 12:49:19.65	195.21	45.59	-34.0	-44.5	3.8	8.47e-01	0	43	104	0	29	12124
2026-01-13 12:49:20.66	195.50	45.85	-34.0	-44.5	3.8	8.47e-01	0	43	104	0	29	12104
2026-01-13 12:49:21.66	195.78	46.12	-34.0	-44.5	3.8	8.46e-01	0	43	104	0	29	12108
2026-01-13 12:49:22.67	196.08	46.39	-34.0	-44.5	3.8	8.47e-01	0	43	104	0	29	12083
2026-01-13 12:49:23.68	196.38	46.66	-34.0	-44.5	3.8	8.45e-01	0	43	104	0	29	12112
2026-01-13 12:49:24.69	196.69	46.93	-34.0	-44.5	3.8	8.46e-01	0	43	104	0	29	12080
2026-01-13 12:49:25.69	197.00	47.20	-34.0	-44.5	3.8	8.46e-01	0	43	104	0	29	12127
2026-01-13 12:49:26.70	197.32	47.47	-34.0	-44.5	3.8	8.46e-01	0	43	104	0	29	12138
2026-01-13 12:49:27.71	197.64	47.74	-34.0	-44.5	3.8	8.47e-01	0	43	104	0	29	12110
2026-01-13 12:49:28.72	197.97	48.01	-34.0	-44.5	3.8	8.46e-01	0	43	104	0	29	12140
2026-01-13 12:49:29.72	198.30	48.29	-34.0	-44.5	3.8	8.46e-01	0	43	104	0	29	12040
2026-01-13 12:49:30.73	198.64	48.56	-34.0	-44.5	3.8	8.46e-01	0	43	104	0	29	12092
2026-01-13 12:49:31.74	198.99	48.84	-34.0	-44.5	3.8	8.47e-01	0	43	104	0	29	12122
2026-01-13 12:49:32.74	199.34	49.11	-34.0	-44.5	3.8	8.46e-01	0	43	104	0	29	12127
2026-01-13 12:49:33.75	199.70	49.39	-34.0	-44.5	3.8	8.47e-01	0	43	104	0	29	12122
2026-01-13 12:49:34.76	200.07	49.66	-34.0	-44.5	3.8	8.46e-01	0	43	104	0	29	12095
2026-01-13 12:49:35.76	200.44	49.94	-34.0	-44.5	3.8	8.45e-01	0	43	104	0	29	12115
2026-01-13 12:49:36.78	200.82	50.22	-34.0	-44.5	3.8	8.46e-01	0	43	104	0	29	12149
2026-01-13 12:49:37.78	201.20	50.50	-34.0	-44.5	3.8	8.46e-01	0	43	104	0	29	12136
2026-01-13 12:49:38.79	201.59	50.77	-34.0	-44.5	3.8	8.47e-01	0	43	104	0	29	12104
2026-01-13 12:49:39.79	201.99	51.05	-34.0	-44.5	3.8	8.47e-01	0	43	104	0	29	12127
2026-01-13 12:49:40.79	202.40	51.33	-34.0	-44.5	3.8	8.45e-01	0	43	104	0	29	12097
2026-01-13 12:49:41.79	202.81	51.60	-34.0	-44.5	3.8	8.47e-01	0	43	104	0	29	12111
2026-01-13 12:49:42.80	203.23	51.88	-34.0	-44.5	3.8	8.46e-01	0	43	104	0	29	12098
2026-01-13 12:49:43.81	203.66	52.16	-34.0	-44.5	3.8	8.46e-01	0	43	104	0	29	12145
2026-01-13 12:49:44.82	204.10	52.44	-34.0	-44.5	3.8	8.46e-01	0	43	104	0	29	12113
2026-01-13 12:49:45.82	204.54	52.72	-34.0	-44.5	3.8	8.46e-01	0	43	104	0	29	12152
2026-01-13 12:49:46.83	205.00	53.00	-34.0	-44.5	3.8	8.47e-01	0	43	104	0	29	12109
2026-01-13 12:49:47.84	205.46	53.28	-34.0	-44.5	3.8	8.46e-01	0	43	104	0	29	12116
2026-01-13 12:49:48.85	205.94	53.56	-34.0	-44.5	3.8	8.45e-01	0	43	104	0	29	12108
2026-01-13 12:49:49.85	206.42	53.83	-34.0	-44.5	3.8	8.47e-01	0	43	104	0	29	12078
2026-01-13 12:49:50.86	206.91	54.11	-34.0	-44.5	3.8	8.46e-01	0	43	104	0	29	12064
2026-01-13 12:49:51.87	207.41	54.38	-34.0	-44.5	3.8	8.47e-01	0	43	104	0	29	12077
2026-01-13 12:49:52.88	207.92	54.66	-34.0	-44.5	3.8	8.46e-01	0	43	104	0	29	12150
2026-01-13 12:49:53.88	208.44	54.93	-34.0	-44.5	3.8	8.45e-01	0	43	104	0	29	12100
2026-01-13 12:49:54.89	208.97	55.21	-34.0	-44.5	3.8	8.46e-01	0	43	104	0	29	12065
2026-01-13 12:49:55.90	209.51	55.48	-34.0	-44.5	3.8	8.46e-01	0	43	104	0	29	12113
2026-01-13 12:49:56.91	210.06	55.75	-34.0	-44.5	3.8	8.46e-01	0	43	104	0	29	12104
2026-01-13 12:49:57.91	210.62	56.02	-34.0	-44.5	3.8	8.46e-01	0	43	104	0	29	12092
2026-01-13 12:49:58.91	211.18	56.29	-34.0	-44.5	3.8	8.46e-01	0	43	104	0	29	12120
2026-01-13 12:49:59.92	211.77	56.56	-34.0	-44.5	3.8	8.47e-01	0	43	104	0	29	12098
2026-01-13 12:50:00.92	212.36	56.82	-34.0	-44.5	3.8	8.46e-01	0	43	104	0	29	12128
2026-01-13 12:50:01.93	212.96	57.09	-34.0	-44.5	3.8	8.46e-01	0	43	104	0	29	12068
2026-01-13 12:50:02.93	213.58	57.35	-34.0	-44.5	3.8	8.47e-01	0	43	104	0	29	12150
2026-01-13 12:50:03.94	214.21	57.61	-34.0	-44.5	3.8	8.45e-01	0	43	104	0	29	12143
2026-01-13 12:50:04.95	214.85	57.87	-34.0	-44.5	3.8	8.46e-01	0	43	104	0	29	12131
2026-01-13 12:50:05.95	215.50	58.12	-34.0	-44.5	3.8	8.46e-01	0	43	104	0	29	12141
2026-01-13 12:50:06.95	216.16	58.37	-34.0	-44.5	3.8	8.45e-01	0	43	104	0	29	12132
2026-01-13 12:50:07.96	216.84	58.62	-34.0	-44.5	3.8	8.45e-01	0	43	104	0	29	12154
2026-01-13 12:50:08.97	217.53	58.87	-34.0	-44.5	3.8	8.45e-01	0	43	104	0	29	12140
2026-01-13 12:50:09.98	218.24	59.12	-34.0	-44.6	3.8	8.48e-01	0	43	104	0	29	12153
2026-01-13 12:50:10.98	218.95	59.36	-34.0	-44.5	3.8	8.45e-01	0	43	104	0	29	12094
2026-01-13 12:50:11.99	219.68	59.60	-34.0	-44.5	3.8	8.46e-01	0	43	104	0	29	12093
2026-01-13 12:50:12.99	220.42	59.83	-34.0	-44.6	3.8	8.46e-01	0	43	104	0	29	12148
2026-01-13 12:50:14.00	221.18	60.07	-34.0	-44.6	3.8	8.48e-01	0	43	104	0	29	12147
2026-01-13 12:50:15.01	221.95	60.30	-34.0	-44.5	3.8	8.45e-01	0	43	104	0	29	12124
2026-01-13 12:50:16.02	222.74	60.52	-34.0	-44.5	3.8	8.46e-01	0	43	104	0	29	12084
2026-01-13 12:50:17.02	223.53	60.74	-34.0	-44.5	3.8	8.46e-01	0	43	104	0	29	12117
2026-01-13 12:50:18.03	224.34	60.96	-34.0	-44.5	3.8	8.47e-01	0	43	104	0	29	12122
2026-01-13 12:50:19.03	225.16	61.17	-34.0	-44.5	3.8	8.47e-01	0	43	104	0	29	12060
2026-01-13 12:50:20.04	226.00	61.38	-34.0	-44.4	3.8	8.46e-01	0	43	104	0	29	11996
2026-01-13 12:50:21.05	226.86	61.58	-34.0	-44.4	3.8	8.45e-01	0	43	104	0	29	11951
2026-01-13 12:50:22.06	227.73	61.78	-34.0	-44.4	3.8	8.46e-01	0	43	104	0	29	11969
2026-01-13 12:50:23.06	228.60	61.97	-34.0	-44.5	3.8	8.47e-01	0	43	104	0	29	12057
2026-01-13 12:50:24.07	229.50	62.16	-34.0	-44.5	3.8	8.45e-01	0	43	104	0	29	12084
2026-01-13 12:50:25.08	230.41	62.34	-34.0	-44.5	3.8	8.46e-01	0	43	104	0	29	12053
2026-01-13 12:50:26.09	231.34	62.52	-34.0	-44.5	3.8	8.46e-01	0	43	104	0	29	12105
2026-01-13 12:50:27.09	232.26	62.69	-34.0	-44.6	3.8	8.46e-01	0	43	104	0	29	12160
2026-01-13 12:50:28.10	233.21	62.85	-34.0	-44.5	3.8	8.46e-01	0	43	104	0	29	12122
2026-01-13 12:50:29.11	234.18	63.01	-34.0	-44.5	3.8	8.45e-01	0	43	104	0	29	12101
2026-01-13 12:50:30.12	235.15	63.17	-34.0	-44.5	3.8	8.46e-01	0	43	104	0	29	12142
2026-01-13 12:50:31.12	236.13	63.31	-34.0	-44.5	3.8	8.47e-01	0	43	104	0	29	12141
2026-01-13 12:50:32.14	237.14	63.45	-34.0	-44.5	3.8	8.46e-01	0	43	104	0	29	12109
2026-01-13 12:50:33.14	238.15	63.58	-34.0	-44.6	3.8	8.45e-01	0	43	104	0	29	12189
2026-01-13 12:50:34.15	239.17	63.71	-34.0	-44.5	3.8	8.47e-01	0	43	104	0	29	12116
2026-01-13 12:50:35.16	240.20	63.82	-34.0	-44.5	3.8	8.47e-01	0	43	104	0	29	12132
2026-01-13 12:50:36.16	241.24	63.93	-34.0	-44.5	3.8	8.46e-01	0	43	104	0	29	12148
2026-01-13 12:50:37.16	242.28	64.04	-34.0	-44.6	3.8	8.46e-01	0	43	104	0	29	12189
2026-01-13 12:50:38.17	243.34	64.13	-34.0	-44.5	3.8	8.46e-01	0	43	104	0	29	12131
2026-01-13 12:50:39.18	244.41	64.22	-34.0	-44.5	3.8	8.47e-01	0	43	104	0	29	12123
2026-01-13 12:50:40.19	245.49	64.30	-34.0	-44.6	3.8	8.47e-01	0	43	104	0	29	12150
2026-01-13 12:50:41.19	246.56	64.37	-34.0	-44.6	3.8	8.46e-01	0	43	104	0	29	12159
2026-01-13 12:50:42.20	247.65	64.43	-34.0	-44.6	3.8	8.45e-01	0	43	104	0	29	12165
2026-01-13 12:50:43.21	248.75	64.49	-34.0	-44.6	3.8	8.46e-01	0	43	104	0	29	12143
2026-01-13 12:50:44.21	249.84	64.54	-34.0	-44.6	3.8	8.45e-01	0	43	104	0	29	12173
2026-01-13 12:50:45.22	250.95	64.57	-34.0	-44.6	3.8	8.46e-01	0	43	104	0	29	12151
2026-01-13 12:50:46.23	252.06	64.61	-34.0	-44.6	3.8	8.46e-01	0	43	104	0	29	12169
2026-01-13 12:50:47.24	253.17	64.63	-34.0	-44.5	3.8	8.46e-01	0	43	104	0	29	12114
2026-01-13 12:50:48.24	254.27	64.64	-34.0	-44.6	3.8	8.46e-01	0	43	104	0	29	12160
2026-01-13 12:50:49.25	255.39	64.65	-34.0	-44.6	3.8	8.45e-01	0	43	104	0	29	12158
2026-01-13 12:50:50.26	256.50	64.64	-34.0	-44.5	3.8	8.47e-01	0	43	104	0	29	12134
2026-01-13 12:50:51.26	257.61	64.63	-34.0	-44.5	3.8	8.46e-01	0	43	104	0	29	12128
2026-01-13 12:50:52.27	258.72	64.61	-34.0	-44.6	3.8	8.44e-01	0	43	104	0	29	12177
2026-01-13 12:50:53.28	259.83	64.58	-34.0	-44.5	3.8	8.47e-01	0	43	104	0	29	12085
2026-01-13 12:50:54.28	260.92	64.54	-34.0	-44.6	3.8	8.46e-01	0	43	104	0	29	12164
2026-01-13 12:50:55.29	262.03	64.50	-34.0	-44.5	3.8	8.46e-01	0	43	104	0	29	12106
2026-01-13 12:50:56.30	263.12	64.44	-34.0	-44.5	3.8	8.46e-01	0	43	104	0	29	12118
2026-01-13 12:50:57.30	264.20	64.38	-34.0	-44.5	3.8	8.45e-01	0	43	104	0	29	12110
2026-01-13 12:50:58.31	265.29	64.31	-34.0	-44.5	3.8	8.46e-01	0	43	104	0	29	12137
2026-01-13 12:50:59.32	266.37	64.23	-34.0	-44.5	3.8	8.45e-01	0	43	104	0	29	12116
2026-01-13 12:51:00.33	267.44	64.15	-34.0	-44.5	3.8	8.47e-01	0	43	104	0	29	12103
2026-01-13 12:51:01.32	268.48	64.06	-34.0	-44.5	3.8	8.47e-01	0	43	104	0	29	12108
2026-01-13 12:51:02.33	269.54	63.95	-34.0	-44.5	3.8	8.46e-01	0	43	104	0	29	12133
2026-01-13 12:51:03.34	270.58	63.84	-34.0	-44.5	3.8	8.46e-01	0	43	104	0	29	12100
2026-01-13 12:51:04.35	271.62	63.73	-34.0	-44.5	3.8	8.46e-01	0	43	104	0	29	12103
2026-01-13 12:51:05.35	272.63	63.61	-34.0	-44.5	3.8	8.47e-01	0	43	104	0	29	12111
2026-01-13 12:51:06.36	273.64	63.47	-34.0	-44.5	3.8	8.47e-01	0	43	104	0	29	12122
2026-01-13 12:51:07.37	274.64	63.34	-34.0	-44.5	3.8	8.46e-01	0	43	104	0	29	12102
2026-01-13 12:51:08.37	275.62	63.19	-34.0	-44.5	3.8	8.45e-01	0	43	104	0	29	12119
2026-01-13 12:51:09.38	276.60	63.04	-34.0	-44.5	3.8	8.46e-01	0	43	104	0	29	12126
2026-01-13 12:51:10.39	277.57	62.89	-34.0	-44.6	3.8	8.45e-01	0	43	104	0	29	12174
2026-01-13 12:51:11.40	278.52	62.72	-34.0	-44.5	3.8	8.46e-01	0	43	104	0	29	12130
2026-01-13 12:51:12.41	279.46	62.55	-34.0	-44.5	3.8	8.45e-01	0	43	104	0	29	12121
2026-01-13 12:51:13.41	280.37	62.38	-34.0	-44.5	3.8	8.45e-01	0	43	104	0	29	12111
2026-01-13 12:51:14.42	281.29	62.20	-34.0	-44.5	3.8	8.47e-01	0	43	104	0	29	12157
2026-01-13 12:51:15.43	282.19	62.01	-34.0	-44.5	3.8	8.47e-01	0	43	104	0	29	12130
2026-01-13 12:51:16.44	283.07	61.82	-34.0	-44.5	3.8	8.46e-01	0	43	104	0	29	12129
2026-01-13 12:51:17.45	283.94	61.62	-34.0	-44.5	3.8	8.46e-01	0	43	104	0	29	12106
2026-01-13 12:51:18.45	284.79	61.42	-34.0	-44.5	3.8	8.45e-01	0	43	104	0	29	12128
2026-01-13 12:51:19.46	285.63	61.21	-34.0	-44.6	3.8	8.46e-01	0	43	104	0	29	12175
2026-01-13 12:51:20.46	286.46	61.00	-34.0	-44.5	3.8	8.46e-01	0	43	104	0	29	12098
2026-01-13 12:51:21.47	287.27	60.79	-34.0	-44.5	3.8	8.47e-01	0	43	104	0	29	12103
2026-01-13 12:51:22.48	288.07	60.57	-34.0	-44.4	3.8	8.46e-01	0	43	104	0	29	12011
2026-01-13 12:51:23.48	288.85	60.34	-34.0	-44.4	3.8	8.46e-01	0	43	104	0	29	11907
2026-01-13 12:51:24.49	289.63	60.12	-34.0	-44.3	3.8	8.47e-01	0	43	104	0	29	11818
2026-01-13 12:51:25.50	290.39	59.88	-34.0	-44.3	3.8	8.46e-01	0	43	104	0	29	11822
2026-01-13 12:51:26.50	291.13	59.65	-34.0	-44.3	3.8	8.46e-01	0	43	104	0	29	11860
2026-01-13 12:51:27.51	291.86	59.41	-34.0	-44.4	3.8	8.46e-01	0	43	104	0	29	11936
2026-01-13 12:51:28.52	292.58	59.17	-34.0	-44.5	3.8	8.45e-01	0	43	104	0	29	12029
2026-01-13 12:51:29.53	293.29	58.92	-34.0	-44.5	3.8	8.46e-01	0	43	104	0	29	12081
2026-01-13 12:51:30.53	293.98	58.68	-34.0	-44.5	3.8	8.46e-01	0	43	104	0	29	12119
2026-01-13 12:51:31.54	294.66	58.43	-34.0	-44.5	3.8	8.46e-01	0	43	104	0	29	12138
2026-01-13 12:51:32.54	295.32	58.18	-34.0	-44.5	3.8	8.46e-01	0	43	104	0	29	12142
2026-01-13 12:51:33.55	295.97	57.92	-34.0	-44.5	3.8	8.45e-01	0	43	104	0	29	12104
2026-01-13 12:51:34.56	296.62	57.67	-34.0	-44.5	3.8	8.46e-01	0	43	104	0	29	12127
2026-01-13 12:51:35.57	297.25	57.41	-34.0	-44.5	3.8	8.45e-01	0	43	104	0	29	12149
2026-01-13 12:51:36.58	297.87	57.14	-34.0	-44.5	3.8	8.46e-01	0	43	104	0	29	12126
2026-01-13 12:51:37.58	298.47	56.88	-34.0	-44.5	3.8	8.45e-01	0	43	104	0	29	12106
2026-01-13 12:51:38.59	299.07	56.62	-34.0	-44.6	3.8	8.46e-01	0	43	104	0	29	12153
2026-01-13 12:51:39.59	299.65	56.35	-34.0	-44.5	3.8	8.46e-01	0	43	104	0	29	12131
2026-01-13 12:51:40.59	300.22	56.09	-34.0	-44.5	3.8	8.47e-01	0	43	104	0	29	12127
2026-01-13 12:51:41.60	300.78	55.82	-34.0	-44.5	3.8	8.46e-01	0	43	104	0	29	12108
2026-01-13 12:51:42.61	301.33	55.55	-34.0	-44.5	3.8	8.45e-01	0	43	104	0	29	12124
2026-01-13 12:51:43.61	301.87	55.28	-34.0	-44.5	3.8	8.46e-01	0	43	104	0	29	12115
2026-01-13 12:51:44.62	302.40	55.00	-34.0	-44.5	3.8	8.47e-01	0	43	104	0	29	12142
2026-01-13 12:51:45.62	302.92	54.73	-34.0	-44.5	3.8	8.46e-01	0	43	104	0	29	12106
2026-01-13 12:51:46.63	303.43	54.46	-34.0	-44.5	3.8	8.47e-01	0	43	104	0	29	12108
2026-01-13 12:51:47.64	303.93	54.18	-34.0	-44.5	3.8	8.47e-01	0	43	104	0	29	12148
2026-01-13 12:51:48.64	304.42	53.91	-34.0	-44.6	3.8	8.46e-01	0	43	104	0	29	12186
2026-01-13 12:51:49.65	304.90	53.63	-34.0	-44.5	3.8	8.47e-01	0	43	104	0	29	12150
2026-01-13 12:51:50.65	305.37	53.36	-34.0	-44.5	3.8	8.46e-01	0	43	104	0	29	12136
2026-01-13 12:51:51.66	305.84	53.08	-34.0	-44.5	3.8	8.47e-01	0	43	104	0	29	12137
2026-01-13 12:51:52.67	306.30	52.80	-34.0	-44.5	3.8	8.45e-01	0	43	104	0	29	12143
2026-01-13 12:51:53.68	306.75	52.52	-34.0	-44.5	3.8	8.45e-01	0	43	104	0	29	12106
2026-01-13 12:51:54.68	307.18	52.25	-34.0	-44.5	3.8	8.47e-01	0	43	104	0	29	12096
2026-01-13 12:51:55.69	307.61	51.97	-34.0	-44.5	3.8	8.47e-01	0	43	104	0	29	12127
2026-01-13 12:51:56.70	308.04	51.69	-34.0	-44.5	3.8	8.47e-01	0	43	104	0	29	12137
2026-01-13 12:51:57.70	308.45	51.41	-34.0	-44.6	3.8	8.46e-01	0	43	104	0	29	12174
2026-01-13 12:51:58.71	308.86	51.13	-34.0	-44.5	3.8	8.47e-01	0	43	104	0	29	12119
2026-01-13 12:51:59.72	309.26	50.86	-34.0	-44.5	3.8	8.46e-01	0	43	104	0	29	12085
2026-01-13 12:52:00.73	309.65	50.58	-34.0	-44.5	3.8	8.46e-01	0	43	104	0	29	12080
2026-01-13 12:52:01.74	310.04	50.30	-34.0	-44.5	3.8	8.47e-01	0	43	104	0	29	12102
2026-01-13 12:52:02.74	310.42	50.03	-34.0	-44.5	3.8	8.47e-01	0	43	104	0	29	12140
2026-01-13 12:52:03.75	310.79	49.75	-34.0	-44.5	3.8	8.47e-01	0	43	104	0	29	12136
2026-01-13 12:52:04.76	311.16	49.47	-34.0	-44.5	3.8	8.47e-01	0	43	104	0	29	12120
2026-01-13 12:52:05.76	311.51	49.20	-34.0	-44.5	3.8	8.45e-01	0	43	104	0	29	12136
2026-01-13 12:52:06.77	311.87	48.92	-34.0	-44.5	3.8	8.46e-01	0	43	104	0	29	12128
2026-01-13 12:52:07.78	312.22	48.65	-34.0	-44.6	3.8	8.46e-01	0	43	104	0	29	12172
2026-01-13 12:52:08.79	312.56	48.38	-34.0	-44.5	3.8	8.46e-01	0	43	104	0	29	12121
2026-01-13 12:52:09.79	312.89	48.11	-34.0	-44.5	3.8	8.48e-01	0	43	104	0	29	12079
2026-01-13 12:52:10.80	313.22	47.83	-34.0	-44.5	3.8	8.46e-01	0	43	104	0	29	12144
2026-01-13 12:52:11.81	313.54	47.56	-34.0	-44.5	3.8	8.46e-01	0	43	104	0	29	12122
2026-01-13 12:52:12.81	313.86	47.29	-34.0	-44.5	3.8	8.46e-01	0	43	104	0	29	12140
2026-01-13 12:52:13.82	314.17	47.02	-34.0	-44.5	3.8	8.46e-01	0	43	104	0	29	12107
2026-01-13 12:52:14.83	314.48	46.75	-34.0	-44.5	3.8	8.47e-01	0	43	104	0	29	12139
2026-01-13 12:52:15.83	314.78	46.49	-34.0	-44.5	3.8	8.45e-01	0	43	104	0	29	12134
2026-01-13 12:52:16.82	315.07	46.22	-34.0	-44.5	3.8	8.47e-01	0	43	104	0	29	12146
2026-01-13 12:52:17.83	315.37	45.96	-34.0	-44.5	3.8	8.45e-01	0	43	104	0	29	12094
2026-01-13 12:52:18.84	315.66	45.69	-34.0	-44.5	3.8	8.46e-01	0	43	104	0	29	12144
2026-01-13 12:52:19.84	315.94	45.43	-34.0	-44.5	3.8	8.45e-01	0	43	104	0	29	12118
2026-01-13 12:52:20.84	316.21	45.17	-34.0	-44.5	3.8	8.45e-01	0	43	104	0	29	12149
2026-01-13 12:52:21.84	316.48	44.91	-34.0	-44.5	3.8	8.45e-01	0	43	104	0	29	12151
2026-01-13 12:52:22.85	316.75	44.65	-34.0	-44.5	3.8	8.47e-01	0	43	104	0	29	12141
2026-01-13 12:52:23.85	317.02	44.39	-34.0	-44.6	3.8	8.46e-01	0	43	104	0	29	12160
2026-01-13 12:52:24.85	317.28	44.13	-34.0	-44.5	3.8	8.46e-01	0	43	104	0	29	12140
2026-01-13 12:52:25.86	317.53	43.87	-34.0	-44.5	3.8	8.46e-01	0	43	104	0	29	12140
2026-01-13 12:52:26.87	317.79	43.62	-34.0	-44.5	3.8	8.45e-01	0	43	104	0	29	12133
2026-01-13 12:52:27.87	318.03	43.36	-34.0	-44.5	3.8	8.46e-01	0	43	104	0	29	12101
2026-01-13 12:52:28.88	318.28	43.11	-34.0	-44.6	3.8	8.46e-01	0	43	104	0	29	12146
2026-01-13 12:52:29.89	318.52	42.85	-34.0	-44.6	3.8	8.46e-01	0	43	104	0	29	12167
2026-01-13 12:52:30.90	318.76	42.60	-34.0	-44.6	3.8	8.46e-01	0	43	104	0	29	12148
2026-01-13 12:52:31.90	318.99	42.35	-34.0	-44.5	3.8	8.46e-01	0	43	104	0	29	12120
2026-01-13 12:52:32.91	319.22	42.10	-34.0	-44.5	3.8	8.46e-01	0	43	104	0	29	12129
2026-01-13 12:52:33.92	319.45	41.85	-34.0	-44.6	3.8	8.47e-01	0	43	104	0	29	12156
2026-01-13 12:52:34.93	319.67	41.60	-34.0	-44.6	3.8	8.47e-01	0	43	104	0	29	12159
2026-01-13 12:52:35.93	319.89	41.36	-34.0	-44.5	3.8	8.47e-01	0	43	104	0	29	12139
2026-01-13 12:52:36.94	320.11	41.11	-34.0	-44.6	3.8	8.47e-01	0	43	104	0	29	12155
2026-01-13 12:52:37.95	320.32	40.87	-34.0	-44.5	3.8	8.45e-01	0	43	104	0	29	12099
2026-01-13 12:52:38.96	320.53	40.63	-34.0	-44.5	3.8	8.46e-01	0	43	104	0	29	12140
2026-01-13 12:52:39.96	320.74	40.39	-34.0	-44.5	3.8	8.46e-01	0	43	104	0	29	12147
2026-01-13 12:52:40.97	320.95	40.15	-34.0	-44.5	3.8	8.46e-01	0	43	104	0	29	12063
2026-01-13 12:52:41.98	321.15	39.91	-34.0	-44.6	3.8	8.45e-01	0	43	104	0	29	12161
2026-01-13 12:52:42.99	321.35	39.67	-34.0	-44.5	3.8	8.47e-01	0	43	104	0	29	12083
2026-01-13 12:52:44.00	321.54	39.43	-34.0	-44.5	3.8	8.46e-01	0	43	104	0	29	12131
2026-01-13 12:52:45.01	321.74	39.20	-34.0	-44.5	3.8	8.46e-01	0	43	104	0	29	12144
2026-01-13 12:52:46.02	321.93	38.96	-34.0	-44.5	3.8	8.46e-01	0	43	104	0	29	12132
2026-01-13 12:52:47.02	322.11	38.73	-34.0	-44.5	3.8	8.46e-01	0	43	104	0	29	12110
2026-01-13 12:52:48.03	322.30	38.50	-34.0	-44.6	3.8	8.46e-01	0	43	104	0	29	12157
2026-01-13 12:52:49.04	322.48	38.27	-34.0	-44.5	3.8	8.46e-01	0	43	104	0	29	12136
2026-01-13 12:52:50.04	322.66	38.04	-34.0	-44.6	3.8	8.46e-01	0	43	104	0	29	12172
2026-01-13 12:52:51.04	322.84	37.82	-34.0	-44.5	3.8	8.46e-01	0	43	104	0	29	12120
2026-01-13 12:52:52.05	323.01	37.59	-34.0	-44.5	3.8	8.46e-01	0	43	104	0	29	12110
2026-01-13 12:52:53.05	323.18	37.37	-34.0	-44.5	3.8	8.48e-01	0	43	104	0	29	12128
2026-01-13 12:52:54.05	323.35	37.14	-34.0	-44.6	3.8	8.45e-01	0	43	104	0	29	12160
2026-01-13 12:52:55.06	323.52	36.92	-34.0	-44.5	3.8	8.47e-01	0	43	104	0	29	12123
2026-01-13 12:52:56.06	323.69	36.70	-34.0	-44.5	3.8	8.45e-01	0	43	104	0	29	12111
2026-01-13 12:52:57.07	323.85	36.48	-34.0	-44.5	3.8	8.47e-01	0	43	104	0	29	12112
2026-01-13 12:52:58.07	324.01	36.26	-34.0	-44.6	3.8	8.47e-01	0	43	104	0	29	12150
2026-01-13 12:52:59.08	324.17	36.05	-34.0	-44.5	3.8	8.46e-01	0	43	104	0	29	12098
2026-01-13 12:53:00.09	324.33	35.83	-34.0	-44.5	3.8	8.45e-01	0	43	104	0	29	12138
2026-01-13 12:53:01.09	324.49	35.62	-34.0	-44.5	3.8	8.46e-01	0	43	104	0	29	12090
2026-01-13 12:53:02.11	324.64	35.40	-34.0	-44.5	3.8	8.46e-01	0	43	104	0	29	12115
2026-01-13 12:53:03.11	324.79	35.19	-34.0	-44.6	3.8	8.45e-01	0	43	104	0	29	12158
2026-01-13 12:53:04.12	324.94	34.98	-34.0	-44.5	3.8	8.46e-01	0	43	104	0	29	12135
2026-01-13 12:53:05.13	325.09	34.77	-34.0	-44.6	3.8	8.45e-01	0	43	104	0	29	12138
2026-01-13 12:53:06.13	325.23	34.56	-34.0	-44.5	3.8	8.46e-01	0	43	104	0	29	12128
2026-01-13 12:53:07.14	325.38	34.35	-34.0	-44.5	3.8	8.47e-01	0	43	104	0	29	12112
2026-01-13 12:53:08.14	325.52	34.14	-34.0	-44.6	3.8	8.45e-01	0	43	104	0	29	12158
2026-01-13 12:53:09.15	325.66	33.94	-34.0	-44.6	3.8	8.46e-01	0	43	104	0	29	12152
2026-01-13 12:53:10.15	325.80	33.74	-34.0	-44.6	3.8	8.47e-01	0	43	104	0	29	12159
2026-01-13 12:53:11.16	325.94	33.53	-34.0	-44.6	3.8	8.46e-01	0	43	104	0	29	12153
2026-01-13 12:53:12.17	326.07	33.33	-34.0	-44.6	3.8	8.46e-01	0	43	104	0	29	12151
2026-01-13 12:53:13.17	326.21	33.13	-34.0	-44.5	3.8	8.46e-01	0	43	104	0	29	12095
2026-01-13 12:53:14.17	326.34	32.93	-34.0	-44.5	3.8	8.47e-01	0	43	104	0	29	12133
2026-01-13 12:53:15.17	326.47	32.74	-34.0	-44.5	3.8	8.46e-01	0	43	104	0	29	12138
2026-01-13 12:53:16.18	326.60	32.54	-34.0	-44.5	3.8	8.46e-01	0	43	104	0	29	12138
2026-01-13 12:53:17.18	326.73	32.34	-34.0	-44.5	3.8	8.47e-01	0	43	104	0	29	12108
2026-01-13 12:53:18.18	326.85	32.15	-34.0	-44.5	3.8	8.47e-01	0	43	104	0	29	12105
2026-01-13 12:53:19.19	326.98	31.96	-34.0	-44.6	3.8	8.46e-01	0	43	104	0	29	12173
2026-01-13 12:53:20.20	327.10	31.76	-34.0	-44.6	3.8	8.46e-01	0	43	104	0	29	12169
2026-01-13 12:53:21.20	327.22	31.57	-34.0	-44.6	3.8	8.45e-01	0	43	104	0	29	12151
2026-01-13 12:53:22.21	327.34	31.38	-34.0	-44.5	3.8	8.45e-01	0	43	104	0	29	12135
2026-01-13 12:53:23.22	327.46	31.19	-34.0	-44.6	3.8	8.46e-01	0	43	104	0	29	12153
2026-01-13 12:53:24.23	327.58	31.00	-34.0	-44.5	3.8	8.46e-01	0	43	104	0	29	12144
2026-01-13 12:53:25.24	327.70	30.82	-34.0	-44.6	3.8	8.46e-01	0	43	104	0	29	12130
2026-01-13 12:53:26.25	327.82	30.63	-34.0	-44.5	3.8	8.45e-01	0	43	104	0	29	12134
2026-01-13 12:53:27.25	327.93	30.44	-34.0	-44.6	3.8	8.45e-01	0	43	104	0	29	12144
2026-01-13 12:53:28.26	328.04	30.26	-34.0	-44.5	3.8	8.46e-01	0	43	104	0	29	12082
2026-01-13 12:53:29.27	328.15	30.08	-34.0	-44.5	3.8	8.46e-01	0	43	104	0	29	12103
2026-01-13 12:53:30.28	328.27	29.89	-34.0	-44.5	3.8	8.45e-01	0	43	104	0	29	12114
2026-01-13 12:53:31.28	328.37	29.72	-34.0	-44.5	3.8	8.46e-01	0	43	104	0	29	12111
2026-01-13 12:53:32.29	328.48	29.54	-34.0	-44.5	3.8	8.45e-01	0	43	104	0	29	12111
2026-01-13 12:53:33.30	328.59	29.36	-34.0	-44.5	3.8	8.46e-01	0	43	104	0	29	12084
2026-01-13 12:53:34.30	328.69	29.18	-34.0	-44.5	3.8	8.45e-01	0	43	104	0	29	12075
2026-01-13 12:53:35.31	328.80	29.00	-34.0	-44.5	3.8	8.45e-01	0	43	104	0	29	12099
2026-01-13 12:53:36.31	328.90	28.83	-34.0	-44.5	3.8	8.47e-01	0	43	104	0	29	12114
2026-01-13 12:53:37.32	329.01	28.65	-34.0	-44.5	3.8	8.46e-01	0	43	104	0	29	12101
2026-01-13 12:53:38.33	329.11	28.48	-34.0	-44.6	3.8	8.47e-01	0	43	104	0	29	12142
2026-01-13 12:53:39.33	329.21	28.31	-34.0	-44.5	3.8	8.46e-01	0	43	104	0	29	12132
2026-01-13 12:53:40.34	329.31	28.14	-34.0	-44.5	3.8	8.46e-01	0	43	104	0	29	12117
2026-01-13 12:53:41.35	329.41	27.96	-34.0	-44.5	3.8	8.47e-01	0	43	104	0	29	12109
2026-01-13 12:53:42.36	329.50	27.79	-34.0	-44.6	3.8	8.45e-01	0	43	104	0	29	12143
2026-01-13 12:53:43.37	329.60	27.63	-34.0	-44.6	3.8	8.46e-01	0	43	104	0	29	12153
2026-01-13 12:53:44.38	329.70	27.46	-34.0	-44.6	3.8	8.46e-01	0	43	104	0	29	12137
2026-01-13 12:53:45.38	329.79	27.29	-34.0	-44.5	3.8	8.46e-01	0	43	104	0	29	12133
2026-01-13 12:53:46.39	329.88	27.13	-34.0	-44.5	3.8	8.47e-01	0	43	104	0	29	12118
2026-01-13 12:53:47.40	329.98	26.96	-34.0	-44.5	3.8	8.46e-01	0	43	104	0	29	12103
2026-01-13 12:53:48.40	330.07	26.80	-34.0	-44.5	3.8	8.47e-01	0	43	104	0	29	12115
2026-01-13 12:53:49.41	330.16	26.63	-34.0	-44.6	3.8	8.47e-01	0	43	104	0	29	12125
2026-01-13 12:53:50.42	330.25	26.47	-34.0	-44.5	3.8	8.46e-01	0	43	104	0	29	12120
2026-01-13 12:53:51.42	330.34	26.31	-34.0	-44.6	3.8	8.45e-01	0	43	104	0	29	12132
2026-01-13 12:53:52.43	330.43	26.15	-34.0	-44.6	3.8	8.46e-01	0	43	104	0	29	12137
2026-01-13 12:53:53.44	330.52	25.99	-34.0	-44.6	3.8	8.46e-01	0	43	104	0	29	12142
2026-01-13 12:53:54.44	330.60	25.83	-34.0	-44.6	3.8	8.47e-01	0	43	104	0	29	12180
2026-01-13 12:53:55.45	330.69	25.67	-34.0	-44.6	3.8	8.47e-01	0	43	104	0	29	12165
2026-01-13 12:53:56.46	330.77	25.52	-34.0	-44.6	3.8	8.46e-01	0	43	104	0	29	12181
2026-01-13 12:53:57.46	330.86	25.36	-34.0	-44.6	3.8	8.46e-01	0	43	104	0	29	12154
2026-01-13 12:53:58.46	330.94	25.21	-34.0	-44.6	3.8	8.47e-01	0	43	104	0	29	12161
2026-01-13 12:53:59.46	331.02	25.06	-34.0	-44.6	3.8	8.46e-01	0	43	104	0	29	12159
2026-01-13 12:54:00.47	331.10	24.90	-34.0	-44.6	3.8	8.45e-01	0	43	104	0	29	12147
2026-01-13 12:54:01.47	331.18	24.75	-34.0	-44.6	3.8	8.47e-01	0	43	104	0	29	12144
2026-01-13 12:54:02.47	331.26	24.60	-34.0	-44.6	3.8	8.45e-01	0	43	104	0	29	12147
2026-01-13 12:54:03.48	331.34	24.45	-34.0	-44.6	3.8	8.46e-01	0	43	104	0	29	12128
2026-01-13 12:54:04.49	331.42	24.30	-34.0	-44.6	3.8	8.46e-01	0	43	104	0	29	12139
2026-01-13 12:54:05.49	331.50	24.15	-34.0	-44.6	3.8	8.45e-01	0	43	104	0	29	12171
2026-01-13 12:54:06.50	331.58	24.00	-34.0	-44.5	3.8	8.46e-01	0	43	104	0	29	12102
2026-01-13 12:54:07.51	331.66	23.85	-34.0	-44.6	3.8	8.46e-01	0	43	104	0	29	12136
2026-01-13 12:54:08.51	331.73	23.71	-34.0	-44.6	3.8	8.46e-01	0	43	104	0	29	12151
2026-01-13 12:54:09.52	331.81	23.56	-34.0	-44.6	3.8	8.47e-01	0	43	104	0	29	12140
2026-01-13 12:54:10.52	331.88	23.41	-34.0	-44.6	3.8	8.45e-01	0	43	104	0	29	12167
2026-01-13 12:54:11.52	331.96	23.27	-34.0	-44.6	3.8	8.46e-01	0	43	104	0	29	12189
2026-01-13 12:54:12.53	332.03	23.13	-34.0	-44.6	3.8	8.46e-01	0	43	104	0	29	12154
2026-01-13 12:54:13.54	332.10	22.98	-34.0	-44.6	3.8	8.47e-01	0	43	104	0	29	12171
2026-01-13 12:54:14.54	332.18	22.84	-34.0	-44.6	3.8	8.46e-01	0	43	104	0	29	12181
2026-01-13 12:54:15.55	332.25	22.70	-34.0	-44.6	3.8	8.46e-01	0	43	104	0	29	12169
2026-01-13 12:54:16.56	332.32	22.56	-34.0	-44.6	3.8	8.46e-01	0	43	104	0	29	12163
2026-01-13 12:54:17.57	332.39	22.42	-34.0	-44.6	3.8	8.46e-01	0	43	104	0	29	12164
2026-01-13 12:54:18.58	332.46	22.28	-34.0	-44.5	3.8	8.46e-01	0	43	104	0	29	12115
2026-01-13 12:54:19.59	332.53	22.14	-34.0	-44.6	3.8	8.46e-01	0	43	104	0	29	12175
2026-01-13 12:54:20.59	332.60	22.00	-34.0	-44.6	3.8	8.46e-01	0	43	104	0	29	12156
2026-01-13 12:54:21.60	332.67	21.87	-34.0	-44.6	3.8	8.46e-01	0	43	104	0	29	12202
2026-01-13 12:54:22.60	332.73	21.73	-34.0	-44.6	3.8	8.46e-01	0	43	104	0	29	12156
2026-01-13 12:54:23.61	332.80	21.59	-34.0	-44.6	3.8	8.46e-01	0	43	104	0	29	12187
2026-01-13 12:54:24.61	332.87	21.46	-34.0	-44.6	3.8	8.46e-01	0	43	104	0	29	12138
2026-01-13 12:54:25.61	332.93	21.33	-34.0	-44.6	3.8	8.47e-01	0	43	104	0	29	12179
2026-01-13 12:54:26.62	333.00	21.19	-34.0	-44.6	3.8	8.47e-01	0	43	104	0	29	12178
2026-01-13 12:54:27.63	333.06	21.06	-34.0	-44.6	3.8	8.45e-01	0	43	104	0	29	12158
2026-01-13 12:54:28.63	333.13	20.93	-34.0	-44.6	3.8	8.46e-01	0	43	104	0	29	12144
2026-01-13 12:54:29.64	333.19	20.79	-34.0	-44.6	3.8	8.46e-01	0	43	104	0	29	12150
2026-01-13 12:54:30.65	333.25	20.66	-34.0	-44.6	3.8	8.45e-01	0	43	104	0	29	12179
2026-01-13 12:54:31.65	333.32	20.53	-34.0	-44.6	3.8	8.47e-01	0	43	104	0	29	12160
2026-01-13 12:54:32.66	333.38	20.40	-34.0	-44.6	3.8	8.46e-01	0	43	104	0	29	12174
2026-01-13 12:54:33.66	333.44	20.27	-34.0	-44.6	3.8	8.46e-01	0	43	104	0	29	12171
2026-01-13 12:54:34.67	333.50	20.15	-34.0	-44.6	3.8	8.45e-01	0	43	104	0	29	12147
2026-01-13 12:54:35.68	333.56	20.02	-34.0	-44.6	3.8	8.47e-01	0	43	104	0	29	12156
2026-01-13 12:54:36.68	333.62	19.89	-34.0	-44.6	3.8	8.46e-01	0	43	104	0	29	12160
2026-01-13 12:54:37.69	333.68	19.76	-34.0	-44.6	3.8	8.46e-01	0	43	104	0	29	12154
2026-01-13 12:54:38.70	333.74	19.64	-34.0	-44.6	3.8	8.47e-01	0	43	104	0	29	12164
2026-01-13 12:54:39.71	333.80	19.51	-34.0	-44.6	3.8	8.46e-01	0	43	104	0	29	12132
2026-01-13 12:54:40.71	333.86	19.39	-34.0	-44.6	3.8	8.46e-01	0	43	104	0	29	12180
2026-01-13 12:54:41.72	333.92	19.26	-34.0	-44.6	3.8	8.47e-01	0	43	104	0	29	12143
2026-01-13 12:54:42.72	333.98	19.14	-34.0	-44.6	3.8	8.47e-01	0	43	104	0	29	12135
2026-01-13 12:54:43.73	334.04	19.02	-34.0	-44.6	3.8	8.46e-01	0	43	104	0	29	12197
2026-01-13 12:54:44.73	334.09	18.90	-34.0	-44.6	3.8	8.46e-01	0	43	104	0	29	12159
2026-01-13 12:54:45.74	334.15	18.77	-34.0	-44.6	3.8	8.45e-01	0	43	104	0	29	12160
2026-01-13 12:54:46.75	334.20	18.65	-34.0	-44.6	3.8	8.46e-01	0	43	104	0	29	12202
2026-01-13 12:54:47.76	334.26	18.53	-34.0	-44.6	3.8	8.46e-01	0	43	104	0	29	12169
2026-01-13 12:54:48.76	334.32	18.41	-34.0	-44.6	3.8	8.45e-01	0	43	104	0	29	12168
2026-01-13 12:54:49.77	334.37	18.29	-34.0	-44.6	3.8	8.45e-01	0	43	104	0	29	12136
2026-01-13 12:54:50.78	334.43	18.17	-34.0	-44.6	3.8	8.47e-01	0	43	104	0	29	12164
2026-01-13 12:54:51.79	334.48	18.05	-34.0	-44.6	3.8	8.46e-01	0	43	104	0	29	12161
2026-01-13 12:54:52.79	334.53	17.94	-34.0	-44.6	3.8	8.47e-01	0	43	104	0	29	12152
2026-01-13 12:54:53.80	334.59	17.82	-34.0	-44.5	3.8	8.45e-01	0	43	104	0	29	12120
2026-01-13 12:54:54.81	334.64	17.70	-34.0	-44.6	3.8	8.46e-01	0	43	104	0	29	12142
2026-01-13 12:54:55.82	334.69	17.58	-34.0	-44.6	3.8	8.46e-01	0	43	104	0	29	12162
2026-01-13 12:54:56.83	334.74	17.47	-34.0	-44.6	3.8	8.46e-01	0	43	104	0	29	12164
2026-01-13 12:54:57.83	334.80	17.35	-34.0	-44.6	3.8	8.44e-01	0	43	104	0	29	12181
2026-01-13 12:54:58.84	334.85	17.24	-34.0	-44.6	3.8	8.46e-01	0	43	104	0	29	12159
2026-01-13 12:54:59.85	334.90	17.12	-34.0	-44.6	3.8	8.47e-01	0	43	104	0	29	12162
2026-01-13 12:55:00.85	334.95	17.01	-34.0	-44.6	3.8	8.47e-01	0	43	104	0	29	12161
2026-01-13 12:55:01.86	335.00	16.90	-34.0	-44.6	3.8	8.46e-01	0	43	104	0	29	12169
2026-01-13 12:55:02.87	335.05	16.79	-34.0	-44.6	3.8	8.48e-01	0	43	104	0	29	12187
2026-01-13 12:55:03.87	335.10	16.67	-34.0	-44.6	3.8	8.45e-01	0	43	104	0	29	12190
2026-01-13 12:55:04.87	335.15	16.56	-34.0	-44.6	3.8	8.46e-01	0	43	104	0	29	12176
2026-01-13 12:55:05.88	335.20	16.45	-34.0	-44.6	3.8	8.46e-01	0	43	104	0	29	12182
2026-01-13 12:55:06.89	335.25	16.34	-34.0	-44.6	3.8	8.47e-01	0	43	104	0	29	12165
2026-01-13 12:55:07.88	335.30	16.23	-34.0	-44.6	3.8	8.46e-01	0	43	104	0	29	12159
2026-01-13 12:55:08.89	335.34	16.12	-34.0	-44.6	3.8	8.46e-01	0	43	104	0	29	12182
2026-01-13 12:55:09.90	335.39	16.01	-34.0	-44.6	3.8	8.46e-01	0	43	104	0	29	12182
2026-01-13 12:55:10.91	335.44	15.90	-34.0	-44.6	3.8	8.47e-01	0	43	104	0	29	12144
2026-01-13 12:55:11.91	335.49	15.80	-34.0	-44.6	3.8	8.46e-01	0	43	104	0	29	12160
2026-01-13 12:55:12.91	335.53	15.69	-34.0	-44.6	3.8	8.47e-01	0	43	104	0	29	12135
2026-01-13 12:55:13.92	335.58	15.58	-34.0	-44.6	3.8	8.45e-01	0	43	104	0	29	12147
2026-01-13 12:55:14.93	335.63	15.47	-34.0	-44.6	3.8	8.46e-01	0	43	104	0	29	12142
2026-01-13 12:55:15.93	335.67	15.37	-34.0	-44.6	3.8	8.45e-01	0	43	104	0	29	12157
2026-01-13 12:55:16.94	335.72	15.26	-34.0	-44.6	3.8	8.47e-01	0	43	104	0	29	12147
2026-01-13 12:55:17.94	335.76	15.16	-34.0	-44.6	3.8	8.46e-01	0	43	104	0	29	12176
2026-01-13 12:55:18.95	335.81	15.05	-34.0	-44.6	3.8	8.45e-01	0	43	104	0	29	12122
2026-01-13 12:55:19.96	335.85	14.95	-34.0	-44.6	3.8	8.46e-01	0	43	104	0	29	12167
2026-01-13 12:55:20.97	335.90	14.84	-34.0	-44.6	3.8	8.46e-01	0	43	104	0	29	12136
2026-01-13 12:55:21.98	335.94	14.74	-34.0	-44.6	3.8	8.47e-01	0	43	104	0	29	12140
2026-01-13 12:55:22.99	335.99	14.63	-34.0	-44.6	3.8	8.47e-01	0	43	104	0	29	12157
2026-01-13 12:55:24.00	336.03	14.53	-34.0	-44.6	3.8	8.45e-01	0	43	104	0	29	12130
2026-01-13 12:55:25.01	336.07	14.43	-34.0	-44.6	3.8	8.47e-01	0	43	104	0	29	12128
2026-01-13 12:55:26.01	336.12	14.33	-34.0	-44.6	3.8	8.46e-01	0	43	104	0	29	12167
2026-01-13 12:55:27.01	336.16	14.23	-34.0	-44.6	3.8	8.45e-01	0	43	104	0	29	12143
2026-01-13 12:55:28.02	336.20	14.12	-34.0	-44.6	3.8	8.46e-01	0	43	104	0	29	12199
2026-01-13 12:55:29.02	336.24	14.02	-34.0	-44.6	3.8	8.47e-01	0	43	104	0	29	12164
2026-01-13 12:55:30.03	336.29	13.92	-34.0	-44.6	3.8	8.46e-01	0	43	104	0	29	12178
2026-01-13 12:55:31.04	336.33	13.82	-34.0	-44.6	3.8	8.47e-01	0	43	104	0	29	12187
2026-01-13 12:55:32.05	336.37	13.72	-34.0	-44.6	3.8	8.47e-01	0	43	104	0	29	12179
2026-01-13 12:55:33.04	336.41	13.63	-34.0	-44.6	3.8	8.46e-01	0	43	104	0	29	12144
2026-01-13 12:55:34.06	336.45	13.53	-34.0	-44.6	3.8	8.46e-01	0	43	104	0	29	12131
2026-01-13 12:55:35.07	336.49	13.43	-34.0	-44.6	3.8	8.46e-01	0	43	104	0	29	12165
2026-01-13 12:55:36.07	336.53	13.33	-34.0	-44.6	3.8	8.47e-01	0	43	104	0	29	12141
2026-01-13 12:55:37.08	336.57	13.23	-34.0	-44.6	3.8	8.46e-01	0	43	104	0	29	12166
2026-01-13 12:55:38.08	336.61	13.13	-34.0	-44.6	3.8	8.46e-01	0	43	104	0	29	12173
2026-01-13 12:55:39.09	336.65	13.04	-34.0	-44.6	3.8	8.46e-01	0	43	104	0	29	12151
2026-01-13 12:55:40.10	336.69	12.94	-34.0	-44.6	3.8	8.46e-01	0	43	104	0	29	12167
2026-01-13 12:55:41.11	336.73	12.84	-34.0	-44.6	3.8	8.46e-01	0	43	104	0	29	12136
2026-01-13 12:55:42.11	336.77	12.75	-34.0	-44.6	3.8	8.46e-01	0	43	104	0	29	12143
2026-01-13 12:55:43.12	336.81	12.65	-34.0	-44.6	3.8	8.47e-01	0	43	104	0	29	12149
2026-01-13 12:55:44.13	336.85	12.56	-34.0	-44.6	3.8	8.47e-01	0	43	104	0	29	12143
2026-01-13 12:55:45.14	336.89	12.46	-34.0	-44.6	3.8	8.46e-01	0	43	104	0	29	12193
2026-01-13 12:55:46.14	336.93	12.37	-34.0	-44.6	3.8	8.46e-01	0	43	104	0	29	12177
2026-01-13 12:55:47.15	336.97	12.27	-34.0	-44.6	3.8	8.48e-01	0	43	104	0	29	12133
2026-01-13 12:55:48.16	337.00	12.18	-34.0	-44.6	3.8	8.45e-01	0	43	104	0	29	12173
2026-01-13 12:55:49.16	337.04	12.09	-34.0	-44.6	3.8	8.46e-01	0	43	104	0	29	12171
2026-01-13 12:55:50.17	337.08	11.99	-34.0	-44.6	3.8	8.47e-01	0	43	104	0	29	12160
2026-01-13 12:55:51.17	337.12	11.90	-34.0	-44.6	3.8	8.46e-01	0	43	104	0	29	12188
2026-01-13 12:55:52.18	337.15	11.81	-34.0	-44.6	3.8	8.47e-01	0	43	104	0	29	12179
2026-01-13 12:55:53.19	337.19	11.72	-34.0	-44.6	3.8	8.47e-01	0	43	104	0	29	12193
2026-01-13 12:55:54.20	337.23	11.63	-34.0	-44.6	3.8	8.47e-01	0	43	104	0	29	12172
2026-01-13 12:55:55.21	337.26	11.53	-34.0	-44.6	3.8	8.46e-01	0	43	104	0	29	12158
2026-01-13 12:55:56.20	337.30	11.44	-34.0	-44.6	3.8	8.46e-01	0	43	104	0	29	12151
2026-01-13 12:55:57.21	337.33	11.35	-34.0	-44.6	3.8	8.44e-01	0	43	104	0	29	12164
2026-01-13 12:55:58.21	337.37	11.26	-34.0	-44.6	3.8	8.47e-01	0	43	104	0	29	12178
2026-01-13 12:55:59.23	337.41	11.17	-34.0	-44.6	3.8	8.46e-01	0	43	104	0	29	12172
2026-01-13 12:56:00.23	337.44	11.08	-34.0	-44.6	3.8	8.47e-01	0	43	104	0	29	12151
2026-01-13 12:56:01.24	337.48	10.99	-34.0	-44.6	3.8	8.46e-01	0	43	104	0	29	12152
2026-01-13 12:56:02.25	337.51	10.91	-34.0	-44.6	3.8	8.47e-01	0	43	104	0	29	12172
2026-01-13 12:56:03.25	337.55	10.82	-34.0	-44.6	3.8	8.46e-01	0	43	104	0	29	12216
2026-01-13 12:56:04.25	337.58	10.73	-34.0	-44.6	3.8	8.46e-01	0	43	104	0	29	12183
2026-01-13 12:56:05.26	337.62	10.64	-34.0	-44.6	3.8	8.45e-01	0	43	104	0	29	12147
2026-01-13 12:56:06.26	337.65	10.55	-34.0	-44.6	3.8	8.47e-01	0	43	104	0	29	12147
2026-01-13 12:56:07.26	337.68	10.47	-34.0	-44.6	3.8	8.46e-01	0	43	104	0	29	12211
2026-01-13 12:56:08.27	337.72	10.38	-34.0	-44.6	3.8	8.47e-01	0	43	104	0	29	12176
2026-01-13 12:56:09.28	337.75	10.29	-34.0	-44.6	3.8	8.47e-01	0	43	104	0	29	12172
2026-01-13 12:56:10.29	337.79	10.21	-34.0	-44.6	3.8	8.46e-01	0	43	104	0	29	12162
2026-01-13 12:56:11.29	337.82	10.12	-34.0	-44.6	3.8	8.46e-01	0	43	104	0	29	12201
2026-01-13 12:56:12.30	337.85	10.03	-34.0	-44.6	3.8	8.47e-01	0	43	104	0	29	12216
2026-01-13 12:56:13.31	337.89	9.95	-34.0	-44.6	3.8	8.45e-01	0	43	104	0	29	12178
2026-01-13 12:56:14.31	337.92	9.86	-34.0	-44.6	3.8	8.46e-01	0	43	104	0	29	12215
2026-01-13 12:56:15.32	337.95	9.78	-34.0	-44.6	3.8	8.46e-01	0	43	104	0	29	12178
2026-01-13 12:56:16.32	337.98	9.69	-34.0	-44.6	3.8	8.47e-01	0	43	104	0	29	12167
2026-01-13 12:56:17.32	338.02	9.61	-34.0	-44.6	3.8	8.46e-01	0	43	104	0	29	12151
2026-01-13 12:56:18.32	338.05	9.53	-34.0	-44.6	3.8	8.45e-01	0	43	104	0	29	12178
2026-01-13 12:56:19.33	338.08	9.44	-34.0	-44.6	3.8	8.45e-01	0	43	104	0	29	12203
2026-01-13 12:56:20.34	338.11	9.36	-34.0	-44.6	3.8	8.47e-01	0	43	104	0	29	12173
2026-01-13 12:56:21.35	338.15	9.27	-34.0	-44.6	3.8	8.46e-01	0	43	104	0	29	12165
2026-01-13 12:56:22.36	338.18	9.19	-34.0	-44.6	3.8	8.46e-01	0	43	104	0	29	12137
2026-01-13 12:56:23.37	338.21	9.11	-34.0	-44.6	3.8	8.46e-01	0	43	104	0	29	12173
2026-01-13 12:56:24.38	338.24	9.02	-34.0	-44.6	3.8	8.47e-01	0	43	104	0	29	12159
2026-01-13 12:56:25.39	338.27	8.94	-34.0	-44.6	3.8	8.47e-01	0	43	104	0	29	12151
2026-01-13 12:56:26.39	338.30	8.86	-34.0	-44.6	3.8	8.48e-01	0	43	104	0	29	12178
2026-01-13 12:56:27.40	338.33	8.78	-34.0	-44.6	3.8	8.47e-01	0	43	104	0	29	12192
2026-01-13 12:56:28.40	338.36	8.70	-34.0	-44.6	3.8	8.46e-01	0	43	104	0	29	12202
2026-01-13 12:56:29.41	338.40	8.62	-34.0	-44.6	3.8	8.45e-01	0	43	104	0	29	12196
2026-01-13 12:56:30.42	338.43	8.53	-34.0	-44.6	3.8	8.46e-01	0	43	104	0	29	12192
2026-01-13 12:56:31.43	338.46	8.45	-34.0	-44.6	3.8	8.46e-01	0	43	104	0	29	12147
2026-01-13 12:56:32.43	338.49	8.37	-34.0	-44.6	3.8	8.45e-01	0	43	104	0	29	12211
2026-01-13 12:56:33.44	338.52	8.29	-34.0	-44.6	3.8	8.46e-01	0	43	104	0	29	12171
2026-01-13 12:56:34.45	338.55	8.21	-34.0	-44.6	3.8	8.47e-01	0	43	104	0	29	12161
2026-01-13 12:56:35.46	338.58	8.13	-34.0	-44.6	3.8	8.45e-01	0	43	104	0	29	12196
2026-01-13 12:56:36.46	338.61	8.05	-34.0	-44.6	3.8	8.47e-01	0	43	104	0	29	12141
2026-01-13 12:56:37.47	338.64	7.97	-34.0	-44.6	3.8	8.46e-01	0	43	104	0	29	12188
2026-01-13 12:56:38.48	338.67	7.90	-34.0	-44.6	3.8	8.46e-01	0	43	104	0	29	12172
2026-01-13 12:56:39.49	338.69	7.82	-34.0	-44.6	3.8	8.45e-01	0	43	104	0	29	12167
2026-01-13 12:56:40.49	338.72	7.74	-34.0	-44.6	3.8	8.46e-01	0	43	104	0	29	12163
2026-01-13 12:56:41.50	338.75	7.66	-34.0	-44.6	3.8	8.47e-01	0	43	104	0	29	12164
2026-01-13 12:56:42.50	338.78	7.58	-34.0	-44.6	3.8	8.46e-01	0	43	104	0	29	12159
2026-01-13 12:56:43.51	338.81	7.50	-34.0	-44.6	3.8	8.46e-01	0	43	104	0	29	12196
2026-01-13 12:56:44.51	338.84	7.43	-34.0	-44.6	3.8	8.47e-01	0	43	104	0	29	12181
2026-01-13 12:56:45.52	338.87	7.35	-34.0	-44.6	3.8	8.46e-01	0	43	104	0	29	12192
2026-01-13 12:56:46.52	338.90	7.27	-34.0	-44.6	3.8	8.46e-01	0	43	104	0	29	12209
2026-01-13 12:56:47.53	338.92	7.20	-34.0	-44.6	3.8	8.47e-01	0	43	104	0	29	12198
2026-01-13 12:56:48.54	338.95	7.12	-34.0	-44.6	3.8	8.45e-01	0	43	104	0	29	12130
2026-01-13 12:56:49.54	338.98	7.04	-34.0	-44.6	3.8	8.46e-01	0	43	104	0	29	12152
2026-01-13 12:56:50.55	339.01	6.97	-34.0	-44.6	3.8	8.47e-01	0	43	104	0	29	12165

#Closed at: 2026-01-13 12:56:51
#Recorded file [0 MB]: D:/data/31010_260113_154452.dat