passes_logs/2025/01/17/LEX_Murmansk/LEX_Murmansk__20250117_090125_NOAA_18_rec.log

#Pass ID: 20250117_090125_NOAA 18
#Satellite: NOAA 18
#Configuration: NOAA 18
#Start time: 2025-01-17 09:01:20.498862

#LorettStation: 1.0.0 05.05.2024
#Station: LEX_Murmansk
#Location: 33.156738 lon 68.926811 lat
#TLE: 1 28654U 05018A   25016.15379782  .00000321  00000+0  19399-3 0  9994
#TLE: 2 28654  98.8565  97.1968 0014416 175.9109 184.2183 14.13487365 13346

#Time	Az	El	Level	SNR
2025-01-17 09:01:32.607044	30.2	16.2	-90.0	2.9
2025-01-17 09:01:33.765542	30.2	16.3	-90.1	4.5
2025-01-17 09:01:34.918534	30.3	16.5	-90.3	3.3
2025-01-17 09:01:36.072335	30.4	16.6	-90.1	4.1
2025-01-17 09:01:37.227421	30.5	16.7	-90.4	6.4
2025-01-17 09:01:38.375834	30.6	16.8	-89.8	7.4
2025-01-17 09:01:39.535010	30.7	16.9	-90.2	6.0
2025-01-17 09:01:40.693477	30.8	17.1	-90.7	7.1
2025-01-17 09:01:41.844478	30.9	17.2	-90.2	5.7
2025-01-17 09:01:43.001272	31.0	17.3	-90.2	5.9
2025-01-17 09:01:44.158428	31.1	17.4	-90.1	5.0
2025-01-17 09:01:45.313152	31.2	17.6	-90.0	4.4
2025-01-17 09:01:46.471455	31.3	17.7	-90.3	7.3
2025-01-17 09:01:47.630872	31.4	17.8	-89.8	6.1
2025-01-17 09:01:48.788363	31.5	17.9	-90.2	6.5
2025-01-17 09:01:49.939831	31.6	18.1	-90.5	5.6
2025-01-17 09:01:51.093454	31.7	18.2	-90.2	2.7
2025-01-17 09:01:52.250499	31.8	18.3	-90.1	4.4
2025-01-17 09:01:53.412837	31.9	18.5	-90.5	3.4
2025-01-17 09:01:54.568625	32.0	18.6	-90.1	5.1
2025-01-17 09:01:55.724341	32.1	18.7	-90.1	5.7
2025-01-17 09:01:56.876966	32.2	18.8	-90.3	7.5
2025-01-17 09:01:58.029779	32.3	19.0	-90.0	6.0
2025-01-17 09:01:59.175939	32.4	19.1	-90.2	6.5
2025-01-17 09:02:00.334813	32.5	19.2	-90.2	6.3
2025-01-17 09:02:01.500050	32.6	19.4	-90.0	9.0
2025-01-17 09:02:02.660501	32.7	19.5	-90.1	10.5
2025-01-17 09:02:03.823737	32.8	19.6	-90.2	11.5
2025-01-17 09:02:04.977272	32.9	19.8	-90.4	8.0
2025-01-17 09:02:06.133076	33.0	19.9	-90.5	5.1
2025-01-17 09:02:07.302906	33.1	20.0	-89.9	10.4
2025-01-17 09:02:08.455855	33.2	20.2	-90.3	4.4
2025-01-17 09:02:09.615514	33.4	20.3	-90.0	4.6
2025-01-17 09:02:10.762226	33.5	20.5	-90.5	9.7
2025-01-17 09:02:11.917037	33.6	20.6	-90.2	6.9
2025-01-17 09:02:13.072577	33.7	20.7	-90.0	10.7
2025-01-17 09:02:14.227181	33.8	20.9	-90.0	6.5
2025-01-17 09:02:15.379919	33.9	21.0	-89.8	4.2
2025-01-17 09:02:16.532440	34.1	21.2	-90.2	8.7
2025-01-17 09:02:17.680254	34.2	21.3	-90.4	12.7
2025-01-17 09:02:18.827120	34.3	21.4	-89.9	9.2
2025-01-17 09:02:19.976743	34.4	21.6	-90.5	10.5
2025-01-17 09:02:21.129057	34.5	21.7	-90.3	8.9
2025-01-17 09:02:22.285986	34.7	21.9	-90.4	9.6
2025-01-17 09:02:23.436188	34.8	22.0	-90.4	4.4
2025-01-17 09:02:24.591295	34.9	22.2	-90.2	4.5
2025-01-17 09:02:25.741603	35.0	22.3	-90.2	10.8
2025-01-17 09:02:26.895790	35.2	22.5	-90.3	5.2
2025-01-17 09:02:28.051989	35.3	22.6	-90.4	5.3
2025-01-17 09:02:29.206212	35.4	22.8	-90.3	8.5
2025-01-17 09:02:30.355541	35.6	22.9	-90.4	8.5
2025-01-17 09:02:31.512323	35.7	23.1	-90.1	12.4
2025-01-17 09:02:32.666518	35.8	23.2	-90.3	9.7
2025-01-17 09:02:33.822878	36.0	23.4	-90.3	16.0
2025-01-17 09:02:34.979251	36.1	23.5	-90.3	7.6
2025-01-17 09:02:36.130139	36.2	23.7	-90.4	10.3
2025-01-17 09:02:37.294258	36.4	23.8	-90.1	6.8
2025-01-17 09:02:38.442325	36.5	24.0	-90.6	10.2
2025-01-17 09:02:39.601581	36.7	24.1	-90.6	9.8
2025-01-17 09:02:40.751023	36.8	24.3	-90.8	4.1
2025-01-17 09:02:41.900283	37.0	24.4	-90.1	4.5
2025-01-17 09:02:43.057910	37.1	24.6	-90.1	6.7
2025-01-17 09:02:44.205701	37.2	24.8	-90.2	14.8
2025-01-17 09:02:45.362014	37.4	24.9	-90.3	9.7
2025-01-17 09:02:46.515280	37.5	25.1	-90.4	11.3
2025-01-17 09:02:47.665763	37.7	25.2	-90.5	10.2
2025-01-17 09:02:48.815331	37.9	25.4	-90.7	9.0
2025-01-17 09:02:49.974555	38.0	25.6	-90.2	10.1
2025-01-17 09:02:51.129983	38.2	25.7	-90.2	12.3
2025-01-17 09:02:52.283868	38.3	25.9	-89.1	13.3
2025-01-17 09:02:53.438335	38.5	26.0	-90.3	8.5
2025-01-17 09:02:54.598754	38.6	26.2	-90.4	16.0
2025-01-17 09:02:55.749888	38.8	26.4	-90.5	14.8
2025-01-17 09:02:56.902412	39.0	26.5	-90.6	8.0
2025-01-17 09:02:58.054932	39.1	26.7	-90.3	10.6
2025-01-17 09:02:59.212451	39.3	26.9	-90.1	9.7
2025-01-17 09:03:00.362991	39.5	27.1	-90.3	12.6
2025-01-17 09:03:01.524455	39.7	27.2	-90.7	3.6
2025-01-17 09:03:02.678764	39.8	27.4	-90.5	12.9
2025-01-17 09:03:03.843646	40.0	27.6	-89.3	5.5
2025-01-17 09:03:04.997045	40.2	27.7	-89.6	12.3
2025-01-17 09:03:06.155561	40.4	27.9	-89.6	9.5
2025-01-17 09:03:07.310888	40.5	28.1	-89.6	11.9
2025-01-17 09:03:08.472210	40.7	28.3	-89.8	7.8
2025-01-17 09:03:09.619950	40.9	28.4	-90.0	7.9
2025-01-17 09:03:10.779279	41.1	28.6	-89.7	9.8
2025-01-17 09:03:11.933180	41.3	28.8	-90.6	7.4
2025-01-17 09:03:13.089065	41.5	29.0	-90.4	9.9
2025-01-17 09:03:14.246974	41.7	29.2	-90.8	8.0
2025-01-17 09:03:15.406288	41.9	29.3	-90.3	8.7
2025-01-17 09:03:16.558057	42.1	29.5	-90.4	6.8
2025-01-17 09:03:17.718639	42.3	29.7	-90.8	7.7
2025-01-17 09:03:18.875403	42.5	29.9	-90.3	11.7
2025-01-17 09:03:20.024188	42.7	30.1	-90.7	7.7
2025-01-17 09:03:21.177033	42.9	30.2	-90.3	10.6
2025-01-17 09:03:22.326475	43.1	30.4	-90.6	6.2
2025-01-17 09:03:23.480712	43.3	30.6	-90.2	13.5
2025-01-17 09:03:24.632425	43.5	30.8	-90.5	10.4
2025-01-17 09:03:25.787129	43.7	31.0	-90.2	9.3
2025-01-17 09:03:26.934747	43.9	31.2	-90.6	9.4
2025-01-17 09:03:28.084311	44.2	31.4	-90.5	13.8
2025-01-17 09:03:29.255940	44.4	31.6	-90.3	10.0
2025-01-17 09:03:30.409371	44.6	31.7	-90.7	6.0
2025-01-17 09:03:31.543123	44.8	31.9	-90.5	13.1
2025-01-17 09:03:32.693470	45.1	32.1	-90.7	14.9
2025-01-17 09:03:33.842450	45.3	32.3	-90.7	17.9
2025-01-17 09:03:34.992242	45.5	32.5	-90.7	14.9
2025-01-17 09:03:36.134161	45.8	32.7	-90.3	8.5
2025-01-17 09:03:37.298176	46.0	32.9	-90.4	8.7
2025-01-17 09:03:38.452942	46.3	33.1	-90.5	7.4
2025-01-17 09:03:39.611210	46.5	33.3	-90.7	6.9
2025-01-17 09:03:40.763258	46.8	33.5	-91.0	10.5
2025-01-17 09:03:41.926516	47.0	33.7	-90.9	10.5
2025-01-17 09:03:43.084957	47.3	33.9	-90.6	9.1
2025-01-17 09:03:44.234769	47.5	34.1	-90.7	14.8
2025-01-17 09:03:45.387948	47.8	34.3	-90.5	15.2
2025-01-17 09:03:46.545333	48.1	34.5	-90.6	13.6
2025-01-17 09:03:47.690179	48.3	34.7	-90.6	18.0
2025-01-17 09:03:48.848108	48.6	34.9	-90.5	16.1
2025-01-17 09:03:49.995080	48.9	35.1	-90.6	11.8
2025-01-17 09:03:51.151513	49.1	35.3	-90.4	10.9
2025-01-17 09:03:52.309150	49.4	35.5	-90.7	15.5
2025-01-17 09:03:53.464945	49.7	35.7	-90.2	18.1
2025-01-17 09:03:54.617605	50.0	35.9	-90.4	14.1
2025-01-17 09:03:55.774875	50.3	36.1	-90.6	14.8
2025-01-17 09:03:56.934719	50.6	36.3	-90.6	17.5
2025-01-17 09:03:58.096553	50.9	36.5	-90.3	8.1
2025-01-17 09:03:59.245286	51.2	36.7	-90.4	16.6
2025-01-17 09:04:00.393398	51.5	36.9	-90.5	9.9
2025-01-17 09:04:01.561910	51.8	37.1	-90.3	9.1
2025-01-17 09:04:02.715634	52.1	37.3	-90.8	13.1
2025-01-17 09:04:03.873480	52.5	37.5	-90.7	12.1
2025-01-17 09:04:05.033992	52.8	37.7	-90.3	14.0
2025-01-17 09:04:06.184189	53.1	37.9	-90.4	14.9
2025-01-17 09:04:07.335008	53.4	38.2	-90.2	15.1
2025-01-17 09:04:08.487499	53.8	38.4	-90.4	17.5
2025-01-17 09:04:09.640593	54.1	38.6	-90.4	17.5
2025-01-17 09:04:10.795470	54.5	38.8	-90.4	18.7
2025-01-17 09:04:11.947437	54.8	39.0	-90.5	12.1
2025-01-17 09:04:13.103865	55.2	39.2	-90.7	11.6
2025-01-17 09:04:14.258280	55.5	39.4	-90.6	16.3
2025-01-17 09:04:15.415444	55.9	39.6	-90.6	17.5
2025-01-17 09:04:16.580206	56.3	39.8	-90.6	16.6
2025-01-17 09:04:17.735655	56.6	40.0	-90.7	14.8
2025-01-17 09:04:18.881422	57.0	40.2	-90.1	17.2
2025-01-17 09:04:20.033135	57.4	40.4	-90.4	15.6
2025-01-17 09:04:21.184349	57.8	40.7	-90.5	15.8
2025-01-17 09:04:22.337099	58.2	40.9	-90.5	15.0
2025-01-17 09:04:23.490713	58.5	41.1	-90.5	8.3
2025-01-17 09:04:24.655278	59.0	41.3	-90.5	11.5
2025-01-17 09:04:25.805919	59.4	41.5	-89.3	12.0
2025-01-17 09:04:26.959361	59.8	41.7	-89.4	9.9
2025-01-17 09:04:28.115541	60.2	41.9	-89.6	14.1
2025-01-17 09:04:29.276267	60.6	42.1	-89.3	16.0
2025-01-17 09:04:30.420845	61.0	42.3	-89.6	16.4
2025-01-17 09:04:31.569298	61.5	42.5	-89.6	19.9
2025-01-17 09:04:32.732395	61.9	42.7	-90.6	14.4
2025-01-17 09:04:33.884038	62.3	42.9	-90.5	20.4
2025-01-17 09:04:35.038168	62.8	43.1	-90.3	10.9
2025-01-17 09:04:36.195812	63.2	43.3	-90.6	11.9
2025-01-17 09:04:37.343386	63.7	43.5	-90.4	12.8
2025-01-17 09:04:38.499216	64.2	43.7	-90.4	11.3
2025-01-17 09:04:39.652289	64.6	43.9	-90.6	13.1
2025-01-17 09:04:40.799857	65.1	44.1	-90.5	11.8
2025-01-17 09:04:41.959917	65.6	44.3	-90.3	14.0
2025-01-17 09:04:43.115951	66.1	44.5	-90.2	11.9
2025-01-17 09:04:44.275749	66.6	44.7	-90.4	10.0
2025-01-17 09:04:45.432377	67.1	44.9	-90.7	13.9
2025-01-17 09:04:46.587049	67.6	45.1	-90.5	12.8
2025-01-17 09:04:47.741986	68.1	45.3	-90.3	17.5
2025-01-17 09:04:48.905078	68.6	45.5	-90.4	11.1
2025-01-17 09:04:50.060215	69.2	45.6	-90.4	7.6
2025-01-17 09:04:51.215239	69.7	45.8	-90.5	13.9
2025-01-17 09:04:52.370707	70.2	46.0	-90.5	11.4
2025-01-17 09:04:53.534332	70.8	46.2	-90.0	7.4
2025-01-17 09:04:54.693991	71.3	46.4	-90.6	16.2
2025-01-17 09:04:55.844554	71.9	46.5	-90.7	14.1
2025-01-17 09:04:56.996855	72.4	46.7	-90.8	10.2
2025-01-17 09:04:58.158124	73.0	46.9	-90.7	9.1
2025-01-17 09:04:59.310119	73.6	47.1	-90.4	9.1
2025-01-17 09:05:00.448879	74.2	47.2	-90.6	11.9
2025-01-17 09:05:01.598920	74.7	47.4	-90.9	7.2
2025-01-17 09:05:02.754923	75.3	47.5	-90.6	7.4
2025-01-17 09:05:03.911234	75.9	47.7	-90.6	9.6
2025-01-17 09:05:05.076000	76.6	47.9	-90.2	5.9
2025-01-17 09:05:06.232267	77.2	48.0	-90.5	4.1
2025-01-17 09:05:07.383239	77.8	48.2	-89.9	5.0
2025-01-17 09:05:08.536707	78.4	48.3	-90.1	5.6
2025-01-17 09:05:09.691909	79.0	48.5	-90.1	3.8
2025-01-17 09:05:10.844663	79.7	48.6	-90.2	9.2
2025-01-17 09:05:11.999654	80.3	48.7	-90.5	7.9
2025-01-17 09:05:13.148462	81.0	48.9	-90.3	5.6
2025-01-17 09:05:14.310688	81.6	49.0	-90.4	10.2
2025-01-17 09:05:15.474247	82.3	49.1	-90.6	8.6
2025-01-17 09:05:16.635593	82.9	49.3	-90.4	8.5
2025-01-17 09:05:17.791505	83.6	49.4	-90.7	5.9
2025-01-17 09:05:18.947812	84.3	49.5	-90.6	9.3
2025-01-17 09:05:20.107060	85.0	49.6	-90.4	8.2
2025-01-17 09:05:21.252648	85.6	49.7	-90.1	6.0
2025-01-17 09:05:22.409033	86.3	49.8	-90.4	7.5
2025-01-17 09:05:23.565185	87.0	49.9	-90.2	8.1
2025-01-17 09:05:24.720381	87.7	50.0	-90.6	10.7
2025-01-17 09:05:25.878475	88.4	50.1	-90.3	11.2
2025-01-17 09:05:27.036708	89.1	50.2	-90.3	7.7
2025-01-17 09:05:28.189219	89.8	50.3	-89.8	12.2
2025-01-17 09:05:29.335960	90.5	50.4	-90.2	16.4
2025-01-17 09:05:30.489297	91.3	50.4	-90.2	10.3
2025-01-17 09:05:31.652234	92.0	50.5	-90.2	13.1
2025-01-17 09:05:32.801870	92.7	50.6	-90.4	15.5
2025-01-17 09:05:33.959293	93.4	50.6	-90.2	10.9
2025-01-17 09:05:35.118389	94.2	50.7	-90.3	11.1
2025-01-17 09:05:36.270837	94.9	50.7	-90.5	17.9
2025-01-17 09:05:37.426140	95.6	50.8	-90.5	6.9
2025-01-17 09:05:38.577870	96.4	50.8	-90.5	6.9
2025-01-17 09:05:39.736591	97.1	50.9	-90.7	9.8
2025-01-17 09:05:40.889426	97.9	50.9	-90.5	12.1
2025-01-17 09:05:42.047219	98.6	50.9	-90.4	8.8
2025-01-17 09:05:43.199675	99.3	50.9	-90.3	7.7
2025-01-17 09:05:44.355124	100.1	51.0	-90.3	7.4
2025-01-17 09:05:45.504381	100.8	51.0	-90.5	7.4
2025-01-17 09:05:46.667732	101.6	51.0	-90.4	13.1
2025-01-17 09:05:47.824966	102.3	51.0	-90.6	12.5
2025-01-17 09:05:48.980481	103.1	51.0	-90.6	9.0
2025-01-17 09:05:50.132689	103.8	51.0	-90.5	12.8
2025-01-17 09:05:51.282697	104.6	50.9	-90.5	9.6
2025-01-17 09:05:52.437025	105.3	50.9	-90.7	9.0
2025-01-17 09:05:53.603470	106.0	50.9	-90.6	8.9
2025-01-17 09:05:54.756273	106.8	50.9	-90.8	16.5
2025-01-17 09:05:55.912283	107.5	50.8	-90.5	9.4
2025-01-17 09:05:57.067369	108.3	50.8	-90.6	10.6
2025-01-17 09:05:58.223574	109.0	50.8	-90.4	11.6
2025-01-17 09:05:59.380840	109.7	50.7	-90.5	7.4
2025-01-17 09:06:00.527164	110.5	50.7	-90.5	10.0
2025-01-17 09:06:01.679213	111.2	50.6	-90.6	7.2
2025-01-17 09:06:02.830845	111.9	50.5	-90.4	13.6
2025-01-17 09:06:03.984591	112.6	50.5	-89.4	6.3
2025-01-17 09:06:05.145316	113.4	50.4	-89.5	9.6
2025-01-17 09:06:06.303499	114.1	50.3	-89.2	8.6
2025-01-17 09:06:07.456436	114.8	50.2	-89.9	4.5
2025-01-17 09:06:08.612850	115.5	50.2	-89.6	9.0
2025-01-17 09:06:09.773942	116.2	50.1	-88.9	7.9
2025-01-17 09:06:10.930986	116.9	50.0	-90.4	8.5
2025-01-17 09:06:12.088217	117.6	49.9	-90.3	12.7
2025-01-17 09:06:13.244729	118.3	49.8	-90.3	14.3
2025-01-17 09:06:14.398877	119.0	49.7	-90.4	9.5
2025-01-17 09:06:15.557292	119.7	49.6	-90.8	7.9
2025-01-17 09:06:16.721729	120.4	49.4	-90.6	13.9
2025-01-17 09:06:17.870480	121.0	49.3	-90.4	12.3
2025-01-17 09:06:19.023672	121.7	49.2	-90.8	9.3
2025-01-17 09:06:20.181631	122.4	49.1	-90.2	13.4
2025-01-17 09:06:21.326692	123.0	49.0	-90.6	12.1
2025-01-17 09:06:22.478692	123.7	48.8	-90.7	10.0
2025-01-17 09:06:23.625719	124.3	48.7	-90.3	11.2
2025-01-17 09:06:24.783527	125.0	48.5	-90.4	14.2
2025-01-17 09:06:25.939601	125.6	48.4	-90.3	8.8
2025-01-17 09:06:27.091078	126.2	48.3	-90.4	7.5
2025-01-17 09:06:28.239351	126.8	48.1	-90.6	10.3
2025-01-17 09:06:29.387584	127.5	48.0	-90.4	8.7
2025-01-17 09:06:30.544719	128.1	47.8	-90.6	10.8
2025-01-17 09:06:31.698483	128.7	47.6	-90.4	13.4
2025-01-17 09:06:32.847860	129.3	47.5	-90.2	11.2
2025-01-17 09:06:34.002375	129.9	47.3	-90.2	7.5
2025-01-17 09:06:35.164455	130.5	47.2	-90.5	8.2
2025-01-17 09:06:36.312107	131.0	47.0	-90.8	12.2
2025-01-17 09:06:37.465274	131.6	46.8	-90.5	11.2
2025-01-17 09:06:38.611217	132.2	46.6	-90.5	9.6
2025-01-17 09:06:39.767001	132.7	46.5	-90.3	12.6
2025-01-17 09:06:40.920515	133.3	46.3	-90.3	10.0
2025-01-17 09:06:42.070484	133.8	46.1	-90.0	7.2
2025-01-17 09:06:43.234655	134.4	45.9	-90.3	13.8
2025-01-17 09:06:44.392165	134.9	45.7	-90.4	11.3
2025-01-17 09:06:45.545397	135.4	45.6	-90.6	8.7
2025-01-17 09:06:46.688901	136.0	45.4	-90.6	14.6
2025-01-17 09:06:47.841306	136.5	45.2	-90.5	15.5
2025-01-17 09:06:48.991935	137.0	45.0	-90.5	10.8
2025-01-17 09:06:50.145866	137.5	44.8	-90.4	11.3
2025-01-17 09:06:51.298996	138.0	44.6	-90.1	14.9
2025-01-17 09:06:52.459604	138.5	44.4	-90.5	9.9
2025-01-17 09:06:53.610853	139.0	44.2	-90.7	11.7
2025-01-17 09:06:54.762185	139.5	44.0	-90.6	11.8
2025-01-17 09:06:55.913594	140.0	43.8	-90.6	9.3
2025-01-17 09:06:57.075436	140.4	43.6	-90.4	9.2
2025-01-17 09:06:58.230118	140.9	43.4	-90.3	13.2
2025-01-17 09:06:59.382756	141.4	43.2	-90.7	14.3
2025-01-17 09:07:00.530225	141.8	43.0	-90.7	12.6
2025-01-17 09:07:01.687665	142.3	42.8	-90.6	13.6
2025-01-17 09:07:02.840738	142.7	42.6	-90.3	14.1
2025-01-17 09:07:03.997874	143.1	42.4	-90.3	14.6
2025-01-17 09:07:05.152808	143.6	42.2	-90.2	14.9
2025-01-17 09:07:06.303759	144.0	42.0	-90.3	18.4
2025-01-17 09:07:07.457900	144.4	41.8	-90.3	16.0
2025-01-17 09:07:08.608815	144.8	41.6	-90.7	17.9
2025-01-17 09:07:09.758138	145.2	41.4	-90.1	17.9
2025-01-17 09:07:10.910832	145.6	41.2	-89.8	15.3
2025-01-17 09:07:12.069085	146.0	41.0	-90.2	15.4
2025-01-17 09:07:13.225714	146.4	40.7	-90.1	18.6
2025-01-17 09:07:14.381387	146.8	40.5	-90.6	17.9
2025-01-17 09:07:15.541675	147.2	40.3	-90.5	13.6
2025-01-17 09:07:16.695602	147.6	40.1	-90.4	15.4
2025-01-17 09:07:17.846137	148.0	39.9	-90.8	15.4
2025-01-17 09:07:18.998132	148.3	39.7	-89.5	5.9
2025-01-17 09:07:20.151402	148.7	39.5	-89.5	12.5
2025-01-17 09:07:21.308066	149.1	39.3	-89.4	14.1
2025-01-17 09:07:22.457883	149.4	39.1	-90.0	10.3
2025-01-17 09:07:23.609653	149.8	38.9	-89.6	11.7
2025-01-17 09:07:24.765672	150.1	38.6	-90.0	13.3
2025-01-17 09:07:25.912205	150.5	38.4	-89.8	8.9
2025-01-17 09:07:27.063032	150.8	38.2	-89.8	10.0
2025-01-17 09:07:28.216201	151.1	38.0	-89.8	11.1
2025-01-17 09:07:29.377258	151.5	37.8	-89.8	12.7
2025-01-17 09:07:30.531594	151.8	37.6	-90.7	11.4
2025-01-17 09:07:31.684617	152.1	37.4	-90.8	14.7
2025-01-17 09:07:32.840329	152.5	37.2	-90.6	16.2
2025-01-17 09:07:33.998300	152.8	37.0	-90.4	13.3
2025-01-17 09:07:35.149523	153.1	36.8	-90.1	14.0
2025-01-17 09:07:36.297889	153.4	36.6	-90.1	15.0
2025-01-17 09:07:37.453649	153.7	36.4	-90.2	8.8
2025-01-17 09:07:38.609328	154.0	36.1	-90.6	7.8
2025-01-17 09:07:39.761018	154.3	35.9	-90.7	7.3
2025-01-17 09:07:40.907257	154.6	35.7	-90.6	12.0
2025-01-17 09:07:42.062408	154.9	35.5	-90.3	11.2
2025-01-17 09:07:43.220511	155.2	35.3	-90.3	14.8
2025-01-17 09:07:44.371704	155.4	35.1	-90.3	11.0
2025-01-17 09:07:45.525021	155.7	34.9	-90.6	8.2
2025-01-17 09:07:46.674515	156.0	34.7	-90.4	12.9
2025-01-17 09:07:47.850282	156.3	34.5	-90.6	11.0
2025-01-17 09:07:49.009832	156.5	34.3	-90.4	9.2
2025-01-17 09:07:50.152568	156.8	34.1	-90.8	9.1
2025-01-17 09:07:51.302776	157.1	33.9	-90.5	9.3
2025-01-17 09:07:52.455156	157.3	33.7	-90.5	8.4
2025-01-17 09:07:53.611090	157.6	33.5	-90.2	8.2
2025-01-17 09:07:54.766383	157.8	33.3	-90.7	12.5
2025-01-17 09:07:55.929628	158.1	33.1	-90.5	12.5
2025-01-17 09:07:57.082844	158.3	32.9	-90.3	14.1
2025-01-17 09:07:58.237929	158.6	32.7	-90.3	15.1
2025-01-17 09:07:59.389627	158.8	32.5	-90.3	10.9
2025-01-17 09:08:00.540177	159.1	32.3	-90.5	10.9
2025-01-17 09:08:01.687087	159.3	32.1	-90.3	13.4
2025-01-17 09:08:02.842039	159.5	31.9	-90.3	12.5
2025-01-17 09:08:03.994007	159.7	31.8	-90.7	10.4
2025-01-17 09:08:05.153579	160.0	31.6	-90.4	13.2
2025-01-17 09:08:06.309325	160.2	31.4	-90.6	14.1
2025-01-17 09:08:07.463229	160.4	31.2	-90.6	11.3
2025-01-17 09:08:08.625310	160.6	31.0	-90.5	10.7
2025-01-17 09:08:09.776273	160.9	30.8	-90.5	15.2
2025-01-17 09:08:10.923961	161.1	30.6	-90.5	12.4
2025-01-17 09:08:12.077126	161.3	30.4	-90.3	10.6
2025-01-17 09:08:13.232475	161.5	30.2	-90.2	13.8
2025-01-17 09:08:14.382024	161.7	30.1	-90.3	12.4
2025-01-17 09:08:15.533999	161.9	29.9	-90.7	9.4
2025-01-17 09:08:16.694714	162.1	29.7	-90.5	13.3
2025-01-17 09:08:17.854291	162.3	29.5	-90.2	9.5
2025-01-17 09:08:19.007770	162.5	29.3	-90.3	12.0
2025-01-17 09:08:20.162965	162.7	29.1	-90.2	12.7
2025-01-17 09:08:21.307228	162.9	29.0	-90.4	14.5
2025-01-17 09:08:22.455375	163.1	28.8	-90.9	13.2
2025-01-17 09:08:23.611279	163.3	28.6	-91.0	9.2
2025-01-17 09:08:24.759684	163.5	28.4	-90.3	13.9
2025-01-17 09:08:25.913349	163.7	28.2	-90.6	7.9
2025-01-17 09:08:27.080452	163.9	28.1	-90.3	9.0
2025-01-17 09:08:28.238535	164.0	27.9	-90.3	10.6
2025-01-17 09:08:29.394452	164.2	27.7	-90.3	6.5
2025-01-17 09:08:30.549903	164.4	27.5	-90.7	8.1
2025-01-17 09:08:31.701308	164.6	27.4	-90.6	9.2
2025-01-17 09:08:32.858249	164.8	27.2	-90.9	10.3
2025-01-17 09:08:34.017937	164.9	27.0	-89.9	7.3
2025-01-17 09:08:35.172845	165.1	26.8	-89.9	11.7
2025-01-17 09:08:36.331186	165.3	26.7	-90.0	11.7
2025-01-17 09:08:37.492559	165.4	26.5	-89.8	10.0
2025-01-17 09:08:38.651091	165.6	26.3	-89.8	10.0
2025-01-17 09:08:39.807935	165.8	26.2	-89.8	7.6
2025-01-17 09:08:40.960666	165.9	26.0	-90.5	7.3
2025-01-17 09:08:42.113370	166.1	25.8	-90.1	7.4
2025-01-17 09:08:43.278045	166.3	25.7	-90.3	10.4
2025-01-17 09:08:44.431221	166.4	25.5	-90.5	8.9
2025-01-17 09:08:45.585281	166.6	25.3	-90.3	11.5
2025-01-17 09:08:46.735454	166.7	25.2	-90.5	10.8
2025-01-17 09:08:47.888880	166.9	25.0	-90.5	11.5
2025-01-17 09:08:49.040225	167.0	24.8	-90.8	10.0
2025-01-17 09:08:50.204448	167.2	24.7	-90.6	11.2
2025-01-17 09:08:51.354191	167.3	24.5	-90.4	8.2
2025-01-17 09:08:52.502123	167.5	24.4	-90.2	11.2
2025-01-17 09:08:53.649442	167.6	24.2	-90.4	7.2
2025-01-17 09:08:54.804286	167.8	24.1	-90.8	7.6
2025-01-17 09:08:55.953898	167.9	23.9	-91.0	9.6
2025-01-17 09:08:57.106452	168.1	23.7	-90.6	7.7
2025-01-17 09:08:58.257635	168.2	23.6	-90.6	11.3
2025-01-17 09:08:59.411482	168.3	23.4	-90.7	7.7
2025-01-17 09:09:00.556210	168.5	23.3	-90.6	8.7
2025-01-17 09:09:01.703978	168.6	23.1	-90.5	11.1
2025-01-17 09:09:02.859230	168.7	23.0	-89.3	13.0
2025-01-17 09:09:04.006973	168.9	22.8	-89.5	8.8
2025-01-17 09:09:05.166824	169.0	22.7	-89.2	11.3
2025-01-17 09:09:06.315591	169.1	22.5	-89.5	10.9
2025-01-17 09:09:07.468381	169.3	22.4	-89.9	9.5
2025-01-17 09:09:08.616594	169.4	22.2	-89.2	12.6
2025-01-17 09:09:09.774351	169.5	22.1	-90.1	10.0
2025-01-17 09:09:10.929984	169.7	21.9	-90.1	13.0
2025-01-17 09:09:12.082577	169.8	21.8	-90.3	10.9
2025-01-17 09:09:13.235255	169.9	21.6	-90.2	11.6
2025-01-17 09:09:14.389295	170.0	21.5	-90.0	12.1
2025-01-17 09:09:15.546712	170.2	21.3	-90.6	13.3
2025-01-17 09:09:16.706705	170.3	21.2	-90.2	9.7
2025-01-17 09:09:17.866138	170.4	21.1	-90.2	9.6
2025-01-17 09:09:19.022000	170.5	20.9	-90.1	13.5
2025-01-17 09:09:20.184494	170.6	20.8	-90.3	12.7
2025-01-17 09:09:21.335161	170.8	20.6	-90.3	8.5
2025-01-17 09:09:22.487350	170.9	20.5	-90.3	7.0
2025-01-17 09:09:23.644859	171.0	20.3	-90.3	12.1
2025-01-17 09:09:24.793110	171.1	20.2	-90.3	8.5
2025-01-17 09:09:25.945969	171.2	20.1	-90.3	8.8
2025-01-17 09:09:27.098924	171.3	19.9	-90.1	7.3
2025-01-17 09:09:28.251649	171.4	19.8	-89.7	12.3
2025-01-17 09:09:29.403924	171.5	19.7	-90.4	10.2
2025-01-17 09:09:30.556292	171.7	19.5	-90.1	10.1
2025-01-17 09:09:31.708223	171.8	19.4	-90.4	8.8
2025-01-17 09:09:32.866123	171.9	19.2	-90.3	10.3
2025-01-17 09:09:34.014986	172.0	19.1	-90.4	10.3
2025-01-17 09:09:35.180038	172.1	19.0	-90.1	15.6
2025-01-17 09:09:36.335495	172.2	18.8	-90.1	9.7
2025-01-17 09:09:37.494995	172.3	18.7	-90.2	12.9
2025-01-17 09:09:38.642580	172.4	18.6	-90.1	13.1
2025-01-17 09:09:39.789120	172.5	18.5	-90.6	10.5
2025-01-17 09:09:40.933663	172.6	18.3	-90.4	8.7
2025-01-17 09:09:42.077559	172.7	18.2	-89.2	13.0
2025-01-17 09:09:43.239935	172.8	18.1	-89.6	7.1
2025-01-17 09:09:44.392407	172.9	17.9	-89.2	13.7
2025-01-17 09:09:45.542867	173.0	17.8	-89.6	12.6
2025-01-17 09:09:46.694915	173.1	17.7	-89.9	12.8
2025-01-17 09:09:47.853207	173.2	17.6	-89.7	12.6
2025-01-17 09:09:49.006471	173.3	17.4	-90.5	13.5
2025-01-17 09:09:50.161568	173.4	17.3	-90.5	10.5
2025-01-17 09:09:51.315186	173.5	17.2	-90.2	12.9
2025-01-17 09:09:52.462765	173.6	17.1	-90.3	11.0
2025-01-17 09:09:53.618894	173.7	16.9	-90.1	13.3
2025-01-17 09:09:54.775303	173.8	16.8	-90.2	11.2
2025-01-17 09:09:55.922546	173.8	16.7	-90.3	5.1
2025-01-17 09:09:57.076165	173.9	16.6	-90.0	7.9
2025-01-17 09:09:58.230337	174.0	16.4	-90.0	9.4
2025-01-17 09:09:59.378270	174.1	16.3	-90.7	7.2
2025-01-17 09:10:00.529575	174.2	16.2	-90.6	9.1
2025-01-17 09:10:01.678637	174.3	16.1	-90.7	8.7
2025-01-17 09:10:02.829585	174.4	16.0	-90.3	8.9
2025-01-17 09:10:03.986146	174.5	15.8	-90.6	9.4
2025-01-17 09:10:05.140306	174.6	15.7	-90.2	6.7
2025-01-17 09:10:06.289323	174.6	15.6	-90.2	7.8
2025-01-17 09:10:07.441046	174.7	15.5	-90.2	9.3
2025-01-17 09:10:08.595335	174.8	15.4	-90.6	4.5
2025-01-17 09:10:09.749545	174.9	15.2	-90.5	7.4
2025-01-17 09:10:10.909876	175.0	15.1	-90.4	7.7
2025-01-17 09:10:12.057249	175.1	15.0	-90.4	7.4
2025-01-17 09:10:13.219037	175.1	14.9	-90.3	6.8
2025-01-17 09:10:14.372284	175.2	14.8	-90.6	9.7
2025-01-17 09:10:15.520863	175.3	14.7	-90.9	9.2
2025-01-17 09:10:16.670172	175.4	14.6	-90.7	9.5
#Closed at: 2025-01-17 09:01:25.403097