passes_logs/2025/01/17/LEX_Murmansk/LEX_Murmansk__20250117_165609_NOAA_19_rec.log

#Pass ID: 20250117_165609_NOAA 19
#Satellite: NOAA 19
#Configuration: NOAA 19
#Start time: 2025-01-17 16:56:04.277878

#LorettStation: 1.0.0 05.05.2024
#Station: LEX_Murmansk
#Location: 33.156738 lon 68.926811 lat
#TLE: 1 33591U 09005A   25017.12803845  .00000314  00000+0  19161-3 0  9999
#TLE: 2 33591  99.0192  80.9069 0014403  51.8715 308.3753 14.13261185821848

#Time	Az	El	Level	SNR
2025-01-17 16:56:26.500241	127.9	17.4	-91.0	7.0
2025-01-17 16:56:27.665263	127.9	17.6	-91.5	12.6
2025-01-17 16:56:28.825942	127.8	17.7	-91.0	7.8
2025-01-17 16:56:29.987525	127.7	17.8	-91.0	10.2
2025-01-17 16:56:31.147540	127.7	18.0	-90.6	6.3
2025-01-17 16:56:32.308329	127.6	18.1	-90.7	6.9
2025-01-17 16:56:33.464454	127.6	18.2	-90.9	13.4
2025-01-17 16:56:34.628369	127.5	18.4	-91.1	10.6
2025-01-17 16:56:35.794114	127.4	18.5	-90.8	10.4
2025-01-17 16:56:36.951391	127.4	18.6	-91.1	4.3
2025-01-17 16:56:38.111421	127.3	18.8	-91.0	5.0
2025-01-17 16:56:39.273063	127.2	18.9	-91.0	1.8
2025-01-17 16:56:40.433491	127.2	19.1	-91.1	6.9
2025-01-17 16:56:41.603831	127.1	19.2	-91.0	10.9
2025-01-17 16:56:42.757777	127.0	19.4	-91.0	13.7
2025-01-17 16:56:43.926799	127.0	19.5	-91.1	12.4
2025-01-17 16:56:45.102375	126.9	19.6	-90.9	15.3
2025-01-17 16:56:46.257547	126.8	19.8	-90.9	9.6
2025-01-17 16:56:47.419987	126.8	19.9	-91.1	10.3
2025-01-17 16:56:48.584972	126.7	20.1	-90.9	11.8
2025-01-17 16:56:49.745655	126.6	20.2	-91.4	14.6
2025-01-17 16:56:50.909969	126.5	20.4	-91.4	3.4
2025-01-17 16:56:52.071605	126.5	20.5	-91.1	12.8
2025-01-17 16:56:53.240107	126.4	20.7	-91.1	4.2
2025-01-17 16:56:54.400772	126.3	20.8	-91.1	3.3
2025-01-17 16:56:55.563653	126.3	21.0	-91.3	2.6
2025-01-17 16:56:56.724693	126.2	21.1	-91.0	4.5
2025-01-17 16:56:57.884776	126.1	21.3	-91.1	7.9
2025-01-17 16:56:59.049586	126.0	21.4	-90.9	8.9
2025-01-17 16:57:00.213007	125.9	21.6	-91.3	14.5
2025-01-17 16:57:01.371221	125.9	21.7	-91.2	10.6
2025-01-17 16:57:02.531070	125.8	21.9	-91.2	9.6
2025-01-17 16:57:03.701219	125.7	22.1	-91.2	9.1
2025-01-17 16:57:04.860810	125.6	22.2	-91.2	8.5
2025-01-17 16:57:06.027109	125.5	22.4	-91.3	10.5
2025-01-17 16:57:07.186113	125.5	22.5	-91.0	4.8
2025-01-17 16:57:08.346300	125.4	22.7	-90.7	7.1
2025-01-17 16:57:09.505952	125.3	22.9	-91.0	5.2
2025-01-17 16:57:10.625329	125.2	23.0	-90.5	6.1
2025-01-17 16:57:11.762839	125.1	23.2	-91.2	3.1
2025-01-17 16:57:12.924358	125.0	23.4	-91.4	4.8
2025-01-17 16:57:14.088870	124.9	23.5	-90.8	10.5
2025-01-17 16:57:15.239380	124.9	23.7	-90.8	8.5
2025-01-17 16:57:16.395661	124.8	23.9	-91.2	4.3
2025-01-17 16:57:17.559486	124.7	24.0	-91.0	15.8
2025-01-17 16:57:18.721814	124.6	24.2	-91.1	5.9
2025-01-17 16:57:19.885466	124.5	24.4	-90.6	2.8
2025-01-17 16:57:21.057158	124.4	24.5	-90.7	13.7
2025-01-17 16:57:22.219176	124.3	24.7	-90.9	10.0
2025-01-17 16:57:23.380714	124.2	24.9	-90.6	6.4
2025-01-17 16:57:24.541007	124.1	25.1	-90.8	6.8
2025-01-17 16:57:25.701789	124.0	25.2	-90.7	4.6
2025-01-17 16:57:26.864011	123.9	25.4	-91.3	2.6
2025-01-17 16:57:28.025080	123.8	25.6	-91.5	1.4
2025-01-17 16:57:29.190481	123.7	25.8	-91.3	1.0
2025-01-17 16:57:30.352856	123.6	26.0	-91.2	2.4
2025-01-17 16:57:31.515411	123.5	26.1	-91.3	3.9
2025-01-17 16:57:32.678221	123.4	26.3	-91.4	5.0
2025-01-17 16:57:33.843425	123.3	26.5	-91.3	3.4
2025-01-17 16:57:35.007789	123.2	26.7	-91.2	6.2
2025-01-17 16:57:36.173718	123.1	26.9	-91.0	4.6
2025-01-17 16:57:37.333667	122.9	27.1	-90.9	6.9
2025-01-17 16:57:38.497219	122.8	27.3	-91.3	7.6
2025-01-17 16:57:39.660000	122.7	27.4	-91.5	10.5
2025-01-17 16:57:40.824982	122.6	27.6	-91.6	4.0
2025-01-17 16:57:42.001836	122.5	27.8	-91.4	2.4
2025-01-17 16:57:43.167987	122.4	28.0	-90.8	1.0
2025-01-17 16:57:44.335106	122.2	28.2	-90.6	3.0
2025-01-17 16:57:45.497014	122.1	28.4	-91.4	2.9
2025-01-17 16:57:46.662137	122.0	28.6	-91.7	2.3
2025-01-17 16:57:47.823934	121.9	28.8	-91.4	1.4
2025-01-17 16:57:48.984954	121.7	29.0	-91.1	5.2
2025-01-17 16:57:50.148099	121.6	29.2	-91.3	7.1
2025-01-17 16:57:51.311421	121.5	29.4	-91.2	6.8
2025-01-17 16:57:52.478307	121.4	29.6	-91.2	7.4
2025-01-17 16:57:53.629653	121.2	29.8	-91.2	8.0
2025-01-17 16:57:54.783666	121.1	30.0	-91.6	6.3
2025-01-17 16:57:55.952254	120.9	30.2	-91.4	11.8
2025-01-17 16:57:57.110165	120.8	30.4	-91.2	14.1
2025-01-17 16:57:58.274095	120.7	30.7	-91.2	15.2
2025-01-17 16:57:59.439725	120.5	30.9	-90.9	10.5
2025-01-17 16:58:00.600827	120.4	31.1	-91.4	6.6
2025-01-17 16:58:01.750691	120.2	31.3	-91.2	3.0
2025-01-17 16:58:02.918038	120.1	31.5	-91.3	2.1
2025-01-17 16:58:04.069589	119.9	31.7	-90.8	4.1
2025-01-17 16:58:05.220822	119.8	31.9	-91.2	3.9
2025-01-17 16:58:06.383667	119.6	32.2	-91.3	10.2
2025-01-17 16:58:07.543337	119.5	32.4	-91.1	9.4
2025-01-17 16:58:08.707377	119.3	32.6	-91.0	10.7
2025-01-17 16:58:09.868465	119.2	32.8	-91.4	9.0
2025-01-17 16:58:11.031715	119.0	33.0	-91.5	9.2
2025-01-17 16:58:12.181908	118.8	33.3	-91.1	4.0
2025-01-17 16:58:13.342175	118.7	33.5	-91.0	7.3
2025-01-17 16:58:14.506303	118.5	33.7	-91.5	7.0
2025-01-17 16:58:15.667460	118.3	34.0	-91.6	11.1
2025-01-17 16:58:16.824108	118.1	34.2	-91.2	11.3
2025-01-17 16:58:17.985853	118.0	34.4	-91.2	7.7
2025-01-17 16:58:19.145801	117.8	34.7	-91.1	6.3
2025-01-17 16:58:20.313445	117.6	34.9	-91.5	3.8
2025-01-17 16:58:21.474568	117.4	35.1	-91.6	4.0
2025-01-17 16:58:22.635951	117.2	35.4	-91.7	5.2
2025-01-17 16:58:23.796046	117.0	35.6	-91.5	6.0
2025-01-17 16:58:24.974175	116.8	35.9	-91.5	8.8
2025-01-17 16:58:26.141047	116.6	36.1	-91.7	8.0
2025-01-17 16:58:27.305148	116.4	36.3	-91.6	6.4
2025-01-17 16:58:28.473974	116.2	36.6	-91.5	8.4
2025-01-17 16:58:29.633250	116.0	36.8	-91.7	7.0
2025-01-17 16:58:30.790309	115.8	37.1	-91.4	3.4
2025-01-17 16:58:31.949995	115.6	37.3	-91.6	7.5
2025-01-17 16:58:33.107716	115.4	37.6	-91.2	13.5
2025-01-17 16:58:34.271528	115.2	37.8	-91.3	11.4
2025-01-17 16:58:35.435342	115.0	38.1	-91.5	11.9
2025-01-17 16:58:36.598081	114.7	38.3	-91.5	10.3
2025-01-17 16:58:37.755504	114.5	38.6	-91.4	6.8
2025-01-17 16:58:38.920219	114.3	38.9	-91.2	6.1
2025-01-17 16:58:40.084827	114.0	39.1	-90.8	2.9
2025-01-17 16:58:41.252871	113.8	39.4	-91.1	4.1
2025-01-17 16:58:42.416593	113.5	39.7	-91.3	5.5
2025-01-17 16:58:43.577985	113.3	39.9	-91.6	9.1
2025-01-17 16:58:44.732926	113.0	40.2	-91.6	9.8
2025-01-17 16:58:45.898141	112.8	40.4	-91.5	14.0
2025-01-17 16:58:47.052871	112.5	40.7	-91.6	8.8
2025-01-17 16:58:48.211494	112.3	41.0	-91.5	7.5
2025-01-17 16:58:49.376474	112.0	41.3	-91.4	8.1
2025-01-17 16:58:50.536804	111.7	41.5	-91.4	10.8
2025-01-17 16:58:51.699631	111.4	41.8	-91.6	7.5
2025-01-17 16:58:52.867836	111.1	42.1	-91.3	12.6
2025-01-17 16:58:54.033973	110.8	42.4	-91.2	13.0
2025-01-17 16:58:55.184818	110.6	42.6	-90.9	13.5
2025-01-17 16:58:56.352246	110.2	42.9	-91.3	10.6
2025-01-17 16:58:57.508499	109.9	43.2	-91.7	12.7
2025-01-17 16:58:58.673985	109.6	43.5	-91.5	4.6
2025-01-17 16:58:59.837646	109.3	43.7	-91.5	3.0
2025-01-17 16:59:01.003553	109.0	44.0	-91.7	6.9
2025-01-17 16:59:02.161939	108.7	44.3	-91.5	3.4
2025-01-17 16:59:03.316976	108.3	44.6	-91.6	4.7
2025-01-17 16:59:04.483200	108.0	44.9	-92.0	6.4
2025-01-17 16:59:05.647082	107.6	45.2	-91.7	8.6
2025-01-17 16:59:06.808043	107.3	45.5	-91.3	10.3
2025-01-17 16:59:07.976608	106.9	45.7	-91.6	11.5
2025-01-17 16:59:09.140750	106.6	46.0	-91.1	18.9
2025-01-17 16:59:10.304964	106.2	46.3	-91.3	9.9
2025-01-17 16:59:11.468059	105.8	46.6	-91.5	9.6
2025-01-17 16:59:12.600059	105.4	46.9	-91.6	6.0
2025-01-17 16:59:13.721358	105.0	47.2	-91.5	9.7
2025-01-17 16:59:14.841207	104.7	47.5	-91.5	3.7
2025-01-17 16:59:15.962473	104.3	47.7	-91.6	8.8
2025-01-17 16:59:17.083103	103.9	48.0	-91.7	11.6
2025-01-17 16:59:18.204808	103.4	48.3	-90.7	11.5
2025-01-17 16:59:19.324753	103.0	48.6	-91.4	11.6
2025-01-17 16:59:20.450682	102.6	48.9	-91.4	15.5
2025-01-17 16:59:21.581561	102.2	49.2	-91.4	5.2
2025-01-17 16:59:22.732112	101.7	49.4	-91.2	6.8
2025-01-17 16:59:23.891929	101.3	49.7	-91.4	1.5
2025-01-17 16:59:25.055645	100.8	50.0	-91.3	3.2
2025-01-17 16:59:26.219897	100.3	50.3	-91.3	0.9
2025-01-17 16:59:27.366278	99.8	50.6	-91.2	4.0
2025-01-17 16:59:28.534494	99.3	50.9	-90.8	3.7
2025-01-17 16:59:29.694078	98.8	51.2	-91.3	1.1
2025-01-17 16:59:30.859601	98.3	51.5	-91.2	6.2
2025-01-17 16:59:32.017926	97.7	51.8	-91.5	12.8
2025-01-17 16:59:33.177728	97.2	52.1	-91.4	8.6
2025-01-17 16:59:34.354166	96.6	52.4	-91.2	8.4
2025-01-17 16:59:35.520608	96.1	52.6	-91.3	8.7
2025-01-17 16:59:36.690263	95.5	52.9	-91.2	8.6
2025-01-17 16:59:37.842271	94.9	53.2	-91.3	5.6
2025-01-17 16:59:39.008291	94.3	53.5	-91.4	10.2
2025-01-17 16:59:40.179826	93.7	53.8	-91.7	7.0
2025-01-17 16:59:41.343408	93.0	54.1	-91.5	5.1
2025-01-17 16:59:42.503056	92.4	54.3	-90.9	7.4
2025-01-17 16:59:43.679796	91.8	54.6	-91.4	12.0
2025-01-17 16:59:44.848116	91.1	54.9	-91.4	15.5
2025-01-17 16:59:46.013098	90.4	55.1	-91.3	13.1
2025-01-17 16:59:47.175960	89.7	55.4	-91.5	10.1
2025-01-17 16:59:48.322958	89.0	55.7	-90.8	12.5
2025-01-17 16:59:49.483716	88.3	55.9	-90.7	9.8
2025-01-17 16:59:50.642406	87.6	56.2	-91.1	6.7
2025-01-17 16:59:51.805842	86.9	56.4	-91.4	3.6
2025-01-17 16:59:52.969240	86.1	56.7	-91.5	5.5
2025-01-17 16:59:54.134226	85.3	56.9	-91.3	7.4
2025-01-17 16:59:55.296510	84.6	57.2	-91.0	4.4
2025-01-17 16:59:56.460504	83.8	57.4	-91.7	4.6
2025-01-17 16:59:57.633802	82.9	57.7	-91.3	6.0
2025-01-17 16:59:58.797242	82.1	57.9	-91.2	5.7
2025-01-17 16:59:59.964422	81.3	58.1	-90.4	11.4
2025-01-17 17:00:01.123909	80.4	58.3	-90.3	12.7
2025-01-17 17:00:02.287386	79.6	58.5	-90.5	13.2
2025-01-17 17:00:03.449305	78.7	58.8	-90.7	12.3
2025-01-17 17:00:04.612017	77.8	59.0	-90.6	7.1
2025-01-17 17:00:05.779290	76.9	59.2	-90.7	15.2
2025-01-17 17:00:06.937873	76.0	59.3	-90.9	16.4
2025-01-17 17:00:08.101641	75.0	59.5	-90.9	14.7
2025-01-17 17:00:09.263207	74.1	59.7	-90.5	12.5
2025-01-17 17:00:10.418686	73.1	59.9	-91.3	11.2
2025-01-17 17:00:11.576043	72.2	60.0	-91.1	9.9
2025-01-17 17:00:12.743343	71.2	60.2	-91.1	6.8
2025-01-17 17:00:13.904424	70.2	60.3	-91.1	8.0
2025-01-17 17:00:15.071697	69.2	60.5	-91.4	10.2
2025-01-17 17:00:16.235730	68.1	60.6	-91.1	6.1
2025-01-17 17:00:17.388184	67.1	60.7	-91.4	8.9
2025-01-17 17:00:18.544006	66.1	60.9	-91.5	11.6
2025-01-17 17:00:19.705064	65.0	61.0	-91.4	9.4
2025-01-17 17:00:20.867658	64.0	61.1	-91.2	13.6
2025-01-17 17:00:22.030779	62.9	61.2	-91.3	15.5
2025-01-17 17:00:23.197106	61.8	61.3	-91.3	14.0
2025-01-17 17:00:24.358933	60.8	61.3	-91.5	13.2
2025-01-17 17:00:25.520116	59.7	61.4	-91.3	14.0
2025-01-17 17:00:26.675749	58.6	61.5	-91.9	16.7
2025-01-17 17:00:27.837770	57.5	61.5	-91.8	15.8
2025-01-17 17:00:28.998072	56.4	61.5	-91.8	15.1
2025-01-17 17:00:30.158198	55.3	61.6	-91.8	14.1
2025-01-17 17:00:31.322362	54.2	61.6	-91.5	5.2
2025-01-17 17:00:32.486385	53.1	61.6	-91.6	10.9
2025-01-17 17:00:33.646497	52.0	61.6	-91.2	12.2
2025-01-17 17:00:34.807129	50.9	61.6	-91.2	8.3
2025-01-17 17:00:35.978712	49.7	61.6	-91.3	6.5
2025-01-17 17:00:37.135238	48.6	61.6	-91.5	7.1
2025-01-17 17:00:38.298380	47.5	61.5	-91.7	8.5
2025-01-17 17:00:39.463098	46.4	61.5	-91.6	8.0
2025-01-17 17:00:40.618736	45.4	61.4	-91.6	8.6
2025-01-17 17:00:41.784279	44.3	61.4	-91.6	4.9
2025-01-17 17:00:42.944335	43.2	61.3	-91.5	9.1
2025-01-17 17:00:44.106796	42.1	61.2	-91.5	8.5
2025-01-17 17:00:45.274864	41.0	61.1	-91.4	5.4
2025-01-17 17:00:46.438064	40.0	61.0	-91.3	8.7
2025-01-17 17:00:47.602440	38.9	60.9	-91.3	7.6
2025-01-17 17:00:48.757186	37.9	60.8	-91.6	3.7
2025-01-17 17:00:49.919438	36.8	60.7	-91.6	5.2
2025-01-17 17:00:51.086472	35.8	60.6	-91.5	7.5
2025-01-17 17:00:52.246362	34.8	60.4	-91.3	2.9
2025-01-17 17:00:53.408058	33.8	60.3	-91.5	7.9
2025-01-17 17:00:54.570011	32.8	60.1	-91.5	6.3
2025-01-17 17:00:55.733831	31.8	60.0	-91.9	2.9
2025-01-17 17:00:56.897323	30.9	59.8	-91.8	7.5
2025-01-17 17:00:58.053292	29.9	59.6	-91.5	7.9
2025-01-17 17:00:59.217820	29.0	59.5	-91.7	4.5
2025-01-17 17:01:00.378039	28.0	59.3	-91.7	7.0
2025-01-17 17:01:01.541682	27.1	59.1	-91.7	5.7
2025-01-17 17:01:02.720097	26.2	58.9	-91.8	6.5
2025-01-17 17:01:03.881693	25.3	58.7	-91.5	5.0
2025-01-17 17:01:05.049680	24.4	58.5	-91.5	7.6
2025-01-17 17:01:06.213587	23.6	58.3	-91.7	4.6
2025-01-17 17:01:07.375425	22.7	58.0	-91.7	4.0
2025-01-17 17:01:08.550153	21.9	57.8	-91.5	4.6
2025-01-17 17:01:09.717515	21.1	57.6	-91.9	2.6
2025-01-17 17:01:10.882578	20.3	57.3	-91.7	3.4
2025-01-17 17:01:12.049261	19.5	57.1	-91.4	3.4
2025-01-17 17:01:13.213604	18.7	56.9	-91.2	2.2
2025-01-17 17:01:14.376873	17.9	56.6	-91.0	1.8
2025-01-17 17:01:15.541289	17.2	56.4	-91.3	1.6
2025-01-17 17:01:16.709644	16.5	56.1	-91.0	2.8
2025-01-17 17:01:17.870558	15.7	55.8	-91.4	3.1
2025-01-17 17:01:19.029966	15.0	55.6	-91.8	2.1
2025-01-17 17:01:20.306330	14.3	55.3	-90.8	3.5
2025-01-17 17:01:21.470968	13.6	55.0	-91.9	1.8
2025-01-17 17:01:22.634036	12.9	54.8	-91.7	3.1
2025-01-17 17:01:23.799652	12.3	54.5	-91.6	2.2
2025-01-17 17:01:24.959665	11.6	54.2	-91.7	2.9
2025-01-17 17:01:26.124812	11.0	53.9	-91.4	4.8
2025-01-17 17:01:27.285348	10.4	53.7	-91.4	1.4
2025-01-17 17:01:28.453177	9.8	53.4	-91.4	3.3
2025-01-17 17:01:29.611985	9.2	53.1	-91.4	5.2
2025-01-17 17:01:30.775242	8.6	52.8	-91.8	3.5
2025-01-17 17:01:31.941146	8.0	52.5	-91.7	7.0
2025-01-17 17:01:33.101346	7.5	52.2	-91.8	9.0
2025-01-17 17:01:34.269178	6.9	52.0	-91.4	5.4
2025-01-17 17:01:35.429295	6.4	51.7	-91.5	9.1
2025-01-17 17:01:36.596513	5.8	51.4	-91.4	9.4
2025-01-17 17:01:37.749681	5.3	51.1	-91.4	6.5
2025-01-17 17:01:38.915369	4.8	50.8	-91.5	7.1
2025-01-17 17:01:40.077913	4.3	50.5	-91.2	11.8
2025-01-17 17:01:41.240368	3.8	50.2	-91.7	8.3
2025-01-17 17:01:42.406067	3.4	49.9	-91.7	13.9
2025-01-17 17:01:43.571638	2.9	49.6	-91.8	13.6
2025-01-17 17:01:44.737426	2.4	49.3	-91.6	14.9
2025-01-17 17:01:45.901171	2.0	49.0	-91.7	14.7
2025-01-17 17:01:47.065058	1.5	48.8	-91.6	12.4
2025-01-17 17:01:48.226884	1.1	48.5	-91.4	14.0
2025-01-17 17:01:49.383207	0.7	48.2	-91.4	14.2
2025-01-17 17:01:50.544150	0.2	47.9	-91.0	15.2
2025-01-17 17:01:51.711194	359.8	47.6	-90.6	10.2
2025-01-17 17:01:52.875196	359.4	47.3	-91.2	11.7
2025-01-17 17:01:54.039219	359.0	47.0	-91.1	9.9
2025-01-17 17:01:55.203479	358.6	46.7	-91.6	8.2
2025-01-17 17:01:56.367260	358.3	46.4	-91.4	8.5
2025-01-17 17:01:57.531343	357.9	46.1	-91.0	9.3
2025-01-17 17:01:58.689477	357.5	45.9	-91.2	6.5
2025-01-17 17:01:59.857279	357.2	45.6	-90.7	6.0
2025-01-17 17:02:01.018070	356.8	45.3	-91.1	10.3
2025-01-17 17:02:02.178794	356.5	45.0	-90.8	6.5
2025-01-17 17:02:03.339721	356.1	44.7	-90.4	3.9
2025-01-17 17:02:04.505448	355.8	44.4	-91.4	8.0
2025-01-17 17:02:05.676904	355.4	44.1	-91.6	7.7
2025-01-17 17:02:06.837592	355.1	43.9	-91.4	8.0
2025-01-17 17:02:07.998108	354.8	43.6	-91.4	11.4
2025-01-17 17:02:09.163422	354.5	43.3	-91.2	13.4
2025-01-17 17:02:10.312863	354.2	43.0	-91.7	14.9
2025-01-17 17:02:11.475996	353.9	42.7	-92.0	16.9
2025-01-17 17:02:12.639692	353.6	42.5	-91.7	17.2
2025-01-17 17:02:13.804139	353.3	42.2	-91.6	18.0
2025-01-17 17:02:14.970324	353.0	41.9	-91.2	18.3
2025-01-17 17:02:16.133350	352.7	41.6	-91.1	19.1
2025-01-17 17:02:17.287342	352.5	41.4	-91.1	16.9
2025-01-17 17:02:18.443991	352.2	41.1	-90.9	16.1
2025-01-17 17:02:19.607890	351.9	40.8	-91.2	16.5
2025-01-17 17:02:20.772537	351.7	40.6	-91.6	11.8
2025-01-17 17:02:21.924884	351.4	40.3	-91.1	11.4
2025-01-17 17:02:23.090974	351.1	40.0	-91.0	10.4
2025-01-17 17:02:24.254369	350.9	39.8	-91.3	6.0
2025-01-17 17:02:25.424666	350.6	39.5	-91.7	8.1
2025-01-17 17:02:26.586721	350.4	39.3	-91.8	7.5
2025-01-17 17:02:27.752890	350.2	39.0	-91.4	5.7
2025-01-17 17:02:28.917942	349.9	38.7	-91.5	9.9
2025-01-17 17:02:30.080721	349.7	38.5	-91.3	12.0
2025-01-17 17:02:31.245110	349.5	38.2	-91.3	12.1
2025-01-17 17:02:32.418151	349.2	38.0	-91.8	14.1
2025-01-17 17:02:33.577881	349.0	37.7	-91.9	15.0
2025-01-17 17:02:34.741186	348.8	37.5	-91.5	13.9
2025-01-17 17:02:35.886088	348.6	37.2	-91.5	13.8
2025-01-17 17:02:37.007317	348.4	37.0	-91.3	13.9
2025-01-17 17:02:38.128043	348.2	36.7	-91.6	11.1
2025-01-17 17:02:39.248258	348.0	36.5	-91.5	8.5
2025-01-17 17:02:40.368226	347.8	36.3	-91.7	7.7
2025-01-17 17:02:41.490036	347.6	36.0	-91.5	6.7
2025-01-17 17:02:42.610885	347.4	35.8	-91.5	5.0
2025-01-17 17:02:43.734745	347.2	35.6	-92.0	2.3
2025-01-17 17:02:44.854824	347.1	35.3	-91.6	1.6
2025-01-17 17:02:46.009958	346.9	35.1	-91.7	5.4
2025-01-17 17:02:47.173951	346.7	34.9	-91.4	5.5
2025-01-17 17:02:48.339419	346.5	34.6	-91.4	6.8
2025-01-17 17:02:49.494845	346.3	34.4	-91.5	6.7
2025-01-17 17:02:50.651484	346.2	34.2	-91.1	8.3
2025-01-17 17:02:51.799034	346.0	33.9	-91.3	7.2
2025-01-17 17:02:52.958939	345.8	33.7	-91.2	8.8
2025-01-17 17:02:54.115917	345.6	33.5	-91.2	9.7
2025-01-17 17:02:55.280002	345.5	33.3	-91.4	10.6
2025-01-17 17:02:56.445823	345.3	33.0	-90.7	12.9
2025-01-17 17:02:57.605809	345.2	32.8	-91.1	12.1
2025-01-17 17:02:58.764272	345.0	32.6	-91.2	9.2
2025-01-17 17:02:59.917663	344.8	32.4	-92.0	7.8
2025-01-17 17:03:01.084134	344.7	32.2	-91.7	6.7
2025-01-17 17:03:02.251262	344.5	31.9	-91.6	5.2
2025-01-17 17:03:03.414048	344.4	31.7	-91.5	6.5
2025-01-17 17:03:04.572461	344.2	31.5	-91.7	3.8
2025-01-17 17:03:05.733569	344.1	31.3	-91.5	2.5
2025-01-17 17:03:06.892547	343.9	31.1	-91.8	3.9
2025-01-17 17:03:08.056245	343.8	30.9	-91.7	6.8
2025-01-17 17:03:09.217943	343.7	30.7	-91.8	4.6
2025-01-17 17:03:10.380225	343.5	30.4	-91.6	9.8
2025-01-17 17:03:11.542360	343.4	30.2	-91.5	7.5
2025-01-17 17:03:12.706046	343.2	30.0	-91.4	11.2
2025-01-17 17:03:13.871379	343.1	29.8	-91.4	8.3
2025-01-17 17:03:15.041946	343.0	29.6	-91.5	7.7
2025-01-17 17:03:16.211848	342.9	29.4	-91.5	3.7
2025-01-17 17:03:17.371288	342.7	29.2	-91.6	3.4
2025-01-17 17:03:18.529714	342.6	29.0	-91.1	2.9
2025-01-17 17:03:19.699599	342.5	28.8	-91.2	2.3
2025-01-17 17:03:20.875036	342.3	28.6	-91.4	5.1
2025-01-17 17:03:22.041085	342.2	28.4	-91.5	3.0
2025-01-17 17:03:23.197382	342.1	28.2	-91.3	3.7
2025-01-17 17:03:24.363452	342.0	28.0	-91.4	6.6
2025-01-17 17:03:25.531714	341.9	27.8	-91.6	9.4
2025-01-17 17:03:26.697239	341.7	27.7	-91.2	8.7
2025-01-17 17:03:27.855582	341.6	27.5	-91.3	8.3
2025-01-17 17:03:29.008242	341.5	27.3	-91.6	10.4
2025-01-17 17:03:30.168253	341.4	27.1	-91.5	8.0
2025-01-17 17:03:31.341028	341.3	26.9	-91.4	6.4
2025-01-17 17:03:32.500272	341.2	26.7	-91.3	5.2
2025-01-17 17:03:33.662864	341.1	26.5	-91.3	6.6
2025-01-17 17:03:34.817032	341.0	26.3	-91.6	5.0
2025-01-17 17:03:35.978597	340.9	26.2	-91.7	6.9
2025-01-17 17:03:37.135108	340.8	26.0	-91.3	5.7
2025-01-17 17:03:38.286382	340.7	25.8	-91.3	4.7
2025-01-17 17:03:39.425835	340.6	25.6	-91.6	5.2
2025-01-17 17:03:40.546369	340.5	25.5	-91.4	7.5
2025-01-17 17:03:41.667973	340.4	25.3	-91.6	7.6
2025-01-17 17:03:42.789551	340.3	25.1	-91.4	8.0
2025-01-17 17:03:43.911114	340.2	25.0	-91.3	6.8
2025-01-17 17:03:45.032596	340.1	24.8	-91.5	8.2
2025-01-17 17:03:46.153317	340.0	24.6	-91.3	6.6
2025-01-17 17:03:47.273529	339.9	24.5	-91.3	4.0
2025-01-17 17:03:48.399359	339.8	24.3	-91.2	2.8
2025-01-17 17:03:49.552914	339.7	24.1	-91.6	4.9
2025-01-17 17:03:50.711457	339.6	24.0	-91.2	2.6
2025-01-17 17:03:51.872258	339.5	23.8	-91.5	4.2
2025-01-17 17:03:53.026888	339.5	23.6	-91.6	6.1
2025-01-17 17:03:54.178096	339.4	23.5	-91.2	6.5
2025-01-17 17:03:55.342292	339.3	23.3	-91.3	6.6
2025-01-17 17:03:56.504996	339.2	23.1	-91.4	5.6
2025-01-17 17:03:57.669908	339.1	23.0	-91.8	12.9
2025-01-17 17:03:58.836627	339.0	22.8	-91.6	13.5
2025-01-17 17:04:00.005599	338.9	22.6	-91.5	11.9
2025-01-17 17:04:01.163257	338.9	22.5	-90.9	8.8
2025-01-17 17:04:02.321873	338.8	22.3	-91.5	7.9
2025-01-17 17:04:03.481199	338.7	22.2	-91.4	6.7
2025-01-17 17:04:04.605403	338.6	22.0	-91.4	8.3
2025-01-17 17:04:05.751754	338.5	21.9	-91.5	6.1
2025-01-17 17:04:06.905889	338.5	21.7	-91.3	5.6
2025-01-17 17:04:08.053501	338.4	21.6	-91.2	10.2
2025-01-17 17:04:09.209027	338.3	21.4	-91.5	3.4
2025-01-17 17:04:10.354421	338.2	21.3	-91.0	6.1
2025-01-17 17:04:11.514207	338.2	21.1	-91.0	9.8
2025-01-17 17:04:12.673889	338.1	20.9	-91.4	8.4
2025-01-17 17:04:13.831675	338.0	20.8	-91.5	7.8
2025-01-17 17:04:14.998647	337.9	20.6	-91.7	7.8
2025-01-17 17:04:16.159935	337.9	20.5	-91.3	4.7
2025-01-17 17:04:17.320254	337.8	20.4	-91.6	2.8
2025-01-17 17:04:18.481042	337.7	20.2	-91.8	2.7
2025-01-17 17:04:19.643913	337.7	20.1	-91.8	3.1
2025-01-17 17:04:20.809749	337.6	19.9	-91.9	3.4
2025-01-17 17:04:21.970803	337.5	19.8	-91.5	2.7
2025-01-17 17:04:23.134428	337.5	19.6	-91.6	5.2
2025-01-17 17:04:24.291880	337.4	19.5	-91.7	0.6
2025-01-17 17:04:25.461382	337.3	19.3	-91.4	1.1
2025-01-17 17:04:26.623992	337.3	19.2	-91.3	4.4
2025-01-17 17:04:27.792175	337.2	19.1	-91.7	2.7
2025-01-17 17:04:28.951872	337.1	18.9	-91.8	1.2
2025-01-17 17:04:30.115603	337.1	18.8	-91.7	3.8
2025-01-17 17:04:31.276681	337.0	18.6	-91.6	3.8
2025-01-17 17:04:32.438750	336.9	18.5	-91.8	2.9
2025-01-17 17:04:33.593725	336.9	18.4	-91.4	4.9
2025-01-17 17:04:34.754665	336.8	18.2	-91.5	2.5
2025-01-17 17:04:35.917645	336.8	18.1	-91.6	2.0
2025-01-17 17:04:37.076650	336.7	18.0	-91.6	4.2
2025-01-17 17:04:38.246381	336.6	17.8	-91.4	3.7
2025-01-17 17:04:39.399210	336.6	17.7	-91.4	3.7
2025-01-17 17:04:40.557352	336.5	17.6	-91.6	2.2
2025-01-17 17:04:41.716360	336.5	17.4	-91.8	1.9
2025-01-17 17:04:42.882957	336.4	17.3	-91.5	4.1
2025-01-17 17:04:44.047017	336.3	17.2	-91.6	0.8
2025-01-17 17:04:45.214799	336.3	17.0	-91.7	1.5
2025-01-17 17:04:46.378294	336.2	16.9	-91.4	2.3
2025-01-17 17:04:47.541718	336.2	16.8	-91.9	1.3
2025-01-17 17:04:48.700331	336.1	16.6	-91.7	1.1
2025-01-17 17:04:49.860907	336.1	16.5	-91.8	1.8
2025-01-17 17:04:51.028002	336.0	16.4	-91.9	2.8
2025-01-17 17:04:52.188509	336.0	16.3	-91.6	3.8
2025-01-17 17:04:53.347933	335.9	16.1	-91.5	2.5
2025-01-17 17:04:54.513432	335.9	16.0	-91.7	3.3
2025-01-17 17:04:55.679920	335.8	15.9	-91.5	2.2
2025-01-17 17:04:56.847610	335.7	15.8	-91.5	2.5
2025-01-17 17:04:58.005505	335.7	15.6	-91.6	2.2
2025-01-17 17:04:59.170966	335.6	15.5	-91.3	2.6
2025-01-17 17:05:00.331840	335.6	15.4	-91.8	0.7
2025-01-17 17:05:01.495517	335.5	15.3	-91.8	1.3
2025-01-17 17:05:02.660861	335.5	15.2	-92.0	2.4
2025-01-17 17:05:03.824444	335.4	15.0	-91.5	2.3
2025-01-17 17:05:04.989665	335.4	14.9	-91.1	5.8
2025-01-17 17:05:06.154097	335.4	14.8	-91.2	2.9
2025-01-17 17:05:07.309132	335.3	14.7	-91.4	3.6
2025-01-17 17:05:08.450012	335.3	14.6	-91.5	2.3
#Closed at: 2025-01-17 16:56:09.259873