passes_logs/2025/01/17/LEX_Murmansk/LEX_Murmansk__20250117_104211_NOAA_18_rec.log

#Pass ID: 20250117_104211_NOAA 18
#Satellite: NOAA 18
#Configuration: NOAA 18
#Start time: 2025-01-17 10:42:07.060396

#LorettStation: 1.0.0 05.05.2024
#Station: LEX_Murmansk
#Location: 33.156738 lon 68.926811 lat
#TLE: 1 28654U 05018A   25016.15379782  .00000321  00000+0  19399-3 0  9994
#TLE: 2 28654  98.8565  97.1968 0014416 175.9109 184.2183 14.13487365 13346

#Time	Az	El	Level	SNR
2025-01-17 10:42:19.206381	23.8	16.3	-89.7	7.4
2025-01-17 10:42:20.366785	23.7	16.4	-89.6	5.3
2025-01-17 10:42:21.523742	23.7	16.5	-90.0	7.5
2025-01-17 10:42:22.691708	23.6	16.7	-90.0	3.9
2025-01-17 10:42:23.851838	23.6	16.8	-90.6	5.7
2025-01-17 10:42:25.009193	23.5	16.9	-90.6	4.3
2025-01-17 10:42:26.169358	23.5	17.1	-90.4	7.3
2025-01-17 10:42:27.335952	23.5	17.2	-90.5	7.4
2025-01-17 10:42:28.503531	23.4	17.3	-90.4	8.4
2025-01-17 10:42:29.670554	23.4	17.5	-90.7	13.6
2025-01-17 10:42:30.830505	23.3	17.6	-90.7	12.3
2025-01-17 10:42:31.989936	23.3	17.7	-90.7	9.6
2025-01-17 10:42:33.157536	23.2	17.9	-90.4	9.2
2025-01-17 10:42:34.315668	23.2	18.0	-90.5	12.8
2025-01-17 10:42:35.479209	23.1	18.1	-90.6	12.7
2025-01-17 10:42:36.640170	23.1	18.3	-90.5	10.7
2025-01-17 10:42:37.805860	23.0	18.4	-90.3	9.5
2025-01-17 10:42:38.971654	23.0	18.5	-90.4	6.5
2025-01-17 10:42:40.137780	22.9	18.7	-90.3	8.8
2025-01-17 10:42:41.300348	22.9	18.8	-90.1	12.0
2025-01-17 10:42:42.467254	22.8	18.9	-90.4	7.8
2025-01-17 10:42:43.632038	22.7	19.1	-90.2	10.8
2025-01-17 10:42:44.794653	22.7	19.2	-90.3	12.4
2025-01-17 10:42:45.958048	22.6	19.4	-90.2	8.7
2025-01-17 10:42:47.124721	22.6	19.5	-90.0	5.5
2025-01-17 10:42:48.288392	22.5	19.7	-90.3	11.6
2025-01-17 10:42:49.445059	22.5	19.8	-90.8	6.0
2025-01-17 10:42:50.605759	22.4	20.0	-90.7	9.1
2025-01-17 10:42:51.774717	22.4	20.1	-90.7	7.4
2025-01-17 10:42:52.939233	22.3	20.2	-90.5	10.8
2025-01-17 10:42:54.106412	22.2	20.4	-90.3	6.0
2025-01-17 10:42:55.267739	22.2	20.5	-90.3	9.1
2025-01-17 10:42:56.427507	22.1	20.7	-90.4	4.9
2025-01-17 10:42:57.596252	22.1	20.8	-90.6	4.9
2025-01-17 10:42:58.757507	22.0	21.0	-90.5	10.3
2025-01-17 10:42:59.921112	21.9	21.1	-90.7	6.3
2025-01-17 10:43:01.083625	21.9	21.3	-90.4	10.0
2025-01-17 10:43:02.244720	21.8	21.5	-90.5	6.7
2025-01-17 10:43:03.408266	21.7	21.6	-90.7	10.5
2025-01-17 10:43:04.568157	21.7	21.8	-90.7	9.5
2025-01-17 10:43:05.735129	21.6	21.9	-90.8	8.9
2025-01-17 10:43:06.899548	21.5	22.1	-90.6	8.1
2025-01-17 10:43:08.063600	21.5	22.2	-90.5	11.9
2025-01-17 10:43:09.220006	21.4	22.4	-90.6	11.3
2025-01-17 10:43:10.381987	21.3	22.6	-90.7	12.0
2025-01-17 10:43:11.544301	21.3	22.7	-90.6	7.6
2025-01-17 10:43:12.708734	21.2	22.9	-90.8	14.3
2025-01-17 10:43:13.872713	21.1	23.0	-90.7	7.0
2025-01-17 10:43:15.033257	21.1	23.2	-90.6	7.2
2025-01-17 10:43:16.187239	21.0	23.4	-90.7	11.7
2025-01-17 10:43:17.354206	20.9	23.5	-91.0	10.4
2025-01-17 10:43:18.513166	20.8	23.7	-90.9	12.5
2025-01-17 10:43:19.674098	20.8	23.9	-90.9	13.4
2025-01-17 10:43:20.840205	20.7	24.0	-91.0	13.5
2025-01-17 10:43:22.004191	20.6	24.2	-90.9	7.7
2025-01-17 10:43:23.168253	20.5	24.4	-90.8	11.5
2025-01-17 10:43:24.329213	20.5	24.6	-90.7	13.8
2025-01-17 10:43:25.496313	20.4	24.7	-90.6	11.6
2025-01-17 10:43:26.655362	20.3	24.9	-90.9	13.7
2025-01-17 10:43:27.819535	20.2	25.1	-91.2	11.9
2025-01-17 10:43:28.984372	20.1	25.3	-91.1	5.7
2025-01-17 10:43:30.148723	20.1	25.4	-90.6	10.3
2025-01-17 10:43:31.317283	20.0	25.6	-90.6	9.3
2025-01-17 10:43:32.486376	19.9	25.8	-90.8	6.1
2025-01-17 10:43:33.652460	19.8	26.0	-91.0	9.7
2025-01-17 10:43:34.810641	19.7	26.2	-90.8	10.7
2025-01-17 10:43:35.968803	19.6	26.3	-90.8	10.3
2025-01-17 10:43:37.133785	19.5	26.5	-90.5	8.5
2025-01-17 10:43:38.310865	19.5	26.7	-90.8	12.9
2025-01-17 10:43:39.470537	19.4	26.9	-91.0	9.4
2025-01-17 10:43:40.637566	19.3	27.1	-90.8	12.0
2025-01-17 10:43:41.798677	19.2	27.3	-90.6	10.8
2025-01-17 10:43:42.961036	19.1	27.5	-90.6	8.7
2025-01-17 10:43:44.127490	19.0	27.7	-90.4	6.2
2025-01-17 10:43:45.285511	18.9	27.9	-90.6	8.0
2025-01-17 10:43:46.444906	18.8	28.0	-90.8	5.2
2025-01-17 10:43:47.605356	18.7	28.2	-90.6	5.8
2025-01-17 10:43:48.765243	18.6	28.4	-90.8	6.9
2025-01-17 10:43:49.932576	18.5	28.6	-90.8	6.9
2025-01-17 10:43:51.097178	18.4	28.8	-90.7	8.4
2025-01-17 10:43:52.262117	18.3	29.0	-91.1	9.0
2025-01-17 10:43:53.425504	18.2	29.2	-90.6	8.2
2025-01-17 10:43:54.589166	18.1	29.4	-90.7	7.9
2025-01-17 10:43:55.750280	18.0	29.6	-90.8	12.3
2025-01-17 10:43:56.910948	17.9	29.9	-90.8	6.7
2025-01-17 10:43:58.071748	17.7	30.1	-90.5	6.6
2025-01-17 10:43:59.239730	17.6	30.3	-90.4	5.6
2025-01-17 10:44:00.400888	17.5	30.5	-90.9	7.7
2025-01-17 10:44:01.568646	17.4	30.7	-90.9	8.1
2025-01-17 10:44:02.733277	17.3	30.9	-91.1	9.9
2025-01-17 10:44:03.899527	17.2	31.1	-90.9	6.6
2025-01-17 10:44:05.056136	17.0	31.3	-90.6	6.1
2025-01-17 10:44:06.218766	16.9	31.6	-90.8	11.9
2025-01-17 10:44:07.386268	16.8	31.8	-91.0	11.4
2025-01-17 10:44:08.550677	16.7	32.0	-91.1	13.5
2025-01-17 10:44:09.717395	16.5	32.2	-91.1	14.8
2025-01-17 10:44:10.871559	16.4	32.4	-90.6	12.4
2025-01-17 10:44:12.033415	16.3	32.7	-91.3	8.8
2025-01-17 10:44:13.200479	16.1	32.9	-90.9	11.3
2025-01-17 10:44:14.380161	16.0	33.1	-91.3	11.5
2025-01-17 10:44:15.540349	15.9	33.4	-90.6	11.5
2025-01-17 10:44:16.703450	15.7	33.6	-90.7	11.0
2025-01-17 10:44:17.869206	15.6	33.8	-90.8	12.6
2025-01-17 10:44:19.036916	15.4	34.1	-91.1	10.1
2025-01-17 10:44:20.197059	15.3	34.3	-90.5	12.4
2025-01-17 10:44:21.370013	15.1	34.5	-90.7	8.8
2025-01-17 10:44:22.528706	15.0	34.8	-90.4	6.6
2025-01-17 10:44:23.693093	14.8	35.0	-90.7	10.6
2025-01-17 10:44:24.855957	14.7	35.2	-91.0	12.0
2025-01-17 10:44:26.018587	14.5	35.5	-91.2	13.9
2025-01-17 10:44:27.181644	14.4	35.7	-90.7	14.4
2025-01-17 10:44:28.336522	14.2	36.0	-90.5	13.5
2025-01-17 10:44:29.505337	14.0	36.2	-90.8	12.5
2025-01-17 10:44:30.663890	13.9	36.5	-91.3	15.9
2025-01-17 10:44:31.831326	13.7	36.7	-90.7	13.8
2025-01-17 10:44:32.998295	13.5	37.0	-90.9	12.4
2025-01-17 10:44:34.160475	13.4	37.2	-90.5	14.4
2025-01-17 10:44:35.321569	13.2	37.5	-90.7	15.4
2025-01-17 10:44:36.486833	13.0	37.8	-90.9	14.9
2025-01-17 10:44:37.650093	12.8	38.0	-91.0	10.3
2025-01-17 10:44:38.811771	12.6	38.3	-91.1	11.9
2025-01-17 10:44:39.978707	12.4	38.5	-90.7	8.6
2025-01-17 10:44:41.149044	12.2	38.8	-90.7	12.2
2025-01-17 10:44:42.313299	12.0	39.1	-90.4	13.9
2025-01-17 10:44:43.477632	11.8	39.3	-90.9	9.5
2025-01-17 10:44:44.637909	11.6	39.6	-90.5	13.8
2025-01-17 10:44:45.796136	11.4	39.9	-90.6	13.6
2025-01-17 10:44:46.964586	11.2	40.2	-90.8	15.9
2025-01-17 10:44:48.130374	11.0	40.4	-90.8	15.5
2025-01-17 10:44:49.292726	10.8	40.7	-90.6	17.3
2025-01-17 10:44:50.456845	10.6	41.0	-90.5	13.9
2025-01-17 10:44:51.621599	10.3	41.3	-91.0	14.9
2025-01-17 10:44:52.789290	10.1	41.6	-90.7	18.5
2025-01-17 10:44:53.952756	9.9	41.8	-90.9	17.6
2025-01-17 10:44:55.113662	9.6	42.1	-90.7	18.3
2025-01-17 10:44:56.271082	9.4	42.4	-90.7	19.0
2025-01-17 10:44:57.434174	9.1	42.7	-90.6	16.8
2025-01-17 10:44:58.601411	8.9	43.0	-91.0	14.1
2025-01-17 10:44:59.763424	8.6	43.3	-90.1	15.5
2025-01-17 10:45:00.920658	8.4	43.6	-90.1	10.0
2025-01-17 10:45:02.089943	8.1	43.9	-90.1	7.4
2025-01-17 10:45:03.239140	7.8	44.2	-90.0	15.1
2025-01-17 10:45:04.397488	7.6	44.5	-90.1	12.4
2025-01-17 10:45:05.556666	7.3	44.8	-89.8	14.5
2025-01-17 10:45:06.718599	7.0	45.1	-90.9	17.3
2025-01-17 10:45:07.883068	6.7	45.4	-90.7	19.3
2025-01-17 10:45:09.045009	6.4	45.7	-90.4	20.6
2025-01-17 10:45:10.210188	6.1	46.0	-90.3	19.8
2025-01-17 10:45:11.379068	5.8	46.3	-90.3	15.8
2025-01-17 10:45:12.537008	5.5	46.6	-90.7	12.8
2025-01-17 10:45:13.705501	5.1	46.9	-91.0	14.1
2025-01-17 10:45:14.866789	4.8	47.2	-91.1	13.3
2025-01-17 10:45:16.029441	4.5	47.5	-91.0	15.2
2025-01-17 10:45:17.193290	4.1	47.8	-90.6	14.1
2025-01-17 10:45:18.357762	3.8	48.1	-90.5	11.9
2025-01-17 10:45:19.522841	3.4	48.4	-90.8	12.0
2025-01-17 10:45:20.686252	3.1	48.8	-90.9	13.3
2025-01-17 10:45:21.852989	2.7	49.1	-91.0	15.0
2025-01-17 10:45:23.016853	2.3	49.4	-91.0	7.7
2025-01-17 10:45:24.173604	1.9	49.7	-90.7	14.3
2025-01-17 10:45:25.335878	1.5	50.0	-90.8	12.0
2025-01-17 10:45:26.493408	1.1	50.4	-91.2	9.2
2025-01-17 10:45:27.649997	0.7	50.7	-90.9	10.2
2025-01-17 10:45:28.812974	0.3	51.0	-91.3	5.9
2025-01-17 10:45:29.977349	359.9	51.3	-91.0	11.5
2025-01-17 10:45:31.143959	359.4	51.6	-90.6	8.8
2025-01-17 10:45:32.327970	358.9	52.0	-90.9	14.0
2025-01-17 10:45:33.496135	358.5	52.3	-91.1	15.3
2025-01-17 10:45:34.660776	358.0	52.6	-91.1	17.0
2025-01-17 10:45:35.818248	357.5	52.9	-91.1	18.0
2025-01-17 10:45:36.981850	357.0	53.3	-91.1	13.2
2025-01-17 10:45:38.146341	356.5	53.6	-90.7	15.6
2025-01-17 10:45:39.309504	356.0	53.9	-90.4	12.0
2025-01-17 10:45:40.475008	355.5	54.2	-90.5	9.9
2025-01-17 10:45:41.639361	354.9	54.5	-90.6	7.9
2025-01-17 10:45:42.808369	354.4	54.9	-91.2	9.4
2025-01-17 10:45:43.968757	353.8	55.2	-90.6	11.7
2025-01-17 10:45:45.135232	353.2	55.5	-90.6	12.0
2025-01-17 10:45:46.289618	352.7	55.8	-90.8	15.9
2025-01-17 10:45:47.452526	352.1	56.1	-90.8	11.9
2025-01-17 10:45:48.611670	351.4	56.5	-90.8	12.9
2025-01-17 10:45:49.769742	350.8	56.8	-90.8	16.7
2025-01-17 10:45:50.928955	350.2	57.1	-91.0	6.1
2025-01-17 10:45:52.094599	349.5	57.4	-90.3	6.9
2025-01-17 10:45:53.261411	348.8	57.7	-89.8	6.9
2025-01-17 10:45:54.431875	348.1	58.0	-90.5	8.9
2025-01-17 10:45:55.588519	347.4	58.3	-90.7	15.3
2025-01-17 10:45:56.753316	346.7	58.6	-90.9	22.2
2025-01-17 10:45:57.917241	345.9	58.9	-90.7	18.9
2025-01-17 10:45:59.079283	345.2	59.2	-90.7	18.1
2025-01-17 10:46:00.240657	344.4	59.5	-90.3	13.4
2025-01-17 10:46:01.373109	343.6	59.8	-90.6	13.1
2025-01-17 10:46:02.531812	342.8	60.1	-90.8	11.5
2025-01-17 10:46:03.704335	342.0	60.3	-90.8	14.6
2025-01-17 10:46:04.866329	341.1	60.6	-90.8	14.9
2025-01-17 10:46:06.022914	340.3	60.9	-91.0	13.3
2025-01-17 10:46:07.187717	339.4	61.2	-90.5	17.0
2025-01-17 10:46:08.356496	338.5	61.4	-90.4	17.8
2025-01-17 10:46:09.531786	337.5	61.7	-90.4	13.8
2025-01-17 10:46:10.686777	336.6	61.9	-90.6	17.9
2025-01-17 10:46:11.852360	335.6	62.2	-90.6	17.8
2025-01-17 10:46:13.016374	334.7	62.4	-90.6	18.6
2025-01-17 10:46:14.176842	333.7	62.6	-90.4	15.5
2025-01-17 10:46:15.344048	332.6	62.9	-90.6	12.8
2025-01-17 10:46:16.499853	331.6	63.1	-90.8	12.7
2025-01-17 10:46:17.660710	330.5	63.3	-90.9	14.1
2025-01-17 10:46:18.834624	329.4	63.5	-90.7	17.3
2025-01-17 10:46:19.995129	328.4	63.7	-90.9	13.9
2025-01-17 10:46:21.139093	327.3	63.9	-90.6	15.0
2025-01-17 10:46:22.258817	326.2	64.0	-90.1	12.6
2025-01-17 10:46:23.379529	325.1	64.2	-90.6	11.1
2025-01-17 10:46:24.499806	323.9	64.4	-90.7	10.4
2025-01-17 10:46:25.620959	322.8	64.5	-90.8	14.4
2025-01-17 10:46:26.741418	321.6	64.6	-91.0	15.7
2025-01-17 10:46:27.862480	320.5	64.8	-90.8	11.9
2025-01-17 10:46:28.992445	319.3	64.9	-90.9	8.1
2025-01-17 10:46:30.130045	318.1	65.0	-90.6	10.0
2025-01-17 10:46:31.275258	316.9	65.1	-90.6	10.9
2025-01-17 10:46:32.447896	315.6	65.2	-91.0	9.0
2025-01-17 10:46:33.603673	314.3	65.3	-91.0	6.7
2025-01-17 10:46:34.769880	313.0	65.3	-90.6	10.2
2025-01-17 10:46:35.928920	311.8	65.4	-91.0	12.7
2025-01-17 10:46:37.090986	310.5	65.5	-91.0	12.8
2025-01-17 10:46:38.256597	309.2	65.5	-90.8	16.4
2025-01-17 10:46:39.416629	307.9	65.5	-91.0	16.2
2025-01-17 10:46:40.581225	306.6	65.5	-90.9	13.7
2025-01-17 10:46:41.740014	305.3	65.5	-91.0	13.4
2025-01-17 10:46:42.903935	304.0	65.5	-91.1	9.9
2025-01-17 10:46:44.069866	302.7	65.5	-90.5	5.3
2025-01-17 10:46:45.229558	301.4	65.5	-90.6	9.4
2025-01-17 10:46:46.392391	300.1	65.4	-90.9	10.7
2025-01-17 10:46:47.550694	298.8	65.4	-91.2	8.0
2025-01-17 10:46:48.711732	297.5	65.3	-90.9	7.5
2025-01-17 10:46:49.875348	296.3	65.2	-90.9	6.5
2025-01-17 10:46:51.037682	295.0	65.1	-91.0	11.7
2025-01-17 10:46:52.200033	293.7	65.1	-91.2	12.7
2025-01-17 10:46:53.368639	292.5	64.9	-90.9	12.8
2025-01-17 10:46:54.531602	291.3	64.8	-91.0	12.0
2025-01-17 10:46:55.690348	290.0	64.7	-90.8	15.6
2025-01-17 10:46:56.849809	288.8	64.6	-90.8	9.8
2025-01-17 10:46:58.012349	287.7	64.4	-90.7	7.1
2025-01-17 10:46:59.173998	286.5	64.2	-90.3	12.2
2025-01-17 10:47:00.323522	285.4	64.1	-91.1	14.1
2025-01-17 10:47:01.488776	284.2	63.9	-91.0	10.1
2025-01-17 10:47:02.655999	283.1	63.7	-90.7	9.5
2025-01-17 10:47:03.819561	282.0	63.5	-90.6	9.7
2025-01-17 10:47:04.984353	280.9	63.3	-91.0	6.4
2025-01-17 10:47:06.140907	279.8	63.1	-90.7	7.3
2025-01-17 10:47:07.302125	278.8	62.9	-90.6	14.2
2025-01-17 10:47:08.467246	277.8	62.7	-91.1	9.9
2025-01-17 10:47:09.624689	276.8	62.4	-90.9	10.4
2025-01-17 10:47:10.788731	275.8	62.2	-91.0	15.0
2025-01-17 10:47:11.926010	274.8	62.0	-90.7	13.1
2025-01-17 10:47:13.075463	273.9	61.7	-91.2	10.7
2025-01-17 10:47:14.232988	273.0	61.5	-91.0	16.4
2025-01-17 10:47:15.400726	272.0	61.2	-91.0	13.7
2025-01-17 10:47:16.560320	271.1	60.9	-91.0	11.1
2025-01-17 10:47:17.723335	270.3	60.7	-91.0	15.6
2025-01-17 10:47:18.887379	269.4	60.4	-90.4	12.0
2025-01-17 10:47:20.055056	268.6	60.1	-90.8	9.5
2025-01-17 10:47:21.216684	267.8	59.8	-90.9	13.3
2025-01-17 10:47:22.379221	267.0	59.5	-91.2	10.7
2025-01-17 10:47:23.543007	266.2	59.3	-91.4	10.5
2025-01-17 10:47:24.703013	265.4	59.0	-90.9	15.6
2025-01-17 10:47:25.863404	264.7	58.7	-91.0	15.1
2025-01-17 10:47:27.026455	263.9	58.4	-90.9	11.2
2025-01-17 10:47:28.189222	263.2	58.1	-85.5	7.9
2025-01-17 10:47:29.354549	262.5	57.7	-86.2	6.5
2025-01-17 10:47:30.515982	261.8	57.4	-90.8	7.0
2025-01-17 10:47:31.673071	261.2	57.1	-91.1	8.6
2025-01-17 10:47:32.839995	260.5	56.8	-90.7	7.2
2025-01-17 10:47:34.004732	259.9	56.5	-90.9	5.3
2025-01-17 10:47:35.174002	259.2	56.2	-90.9	7.1
2025-01-17 10:47:36.329340	258.6	55.9	-86.5	7.5
2025-01-17 10:47:37.493007	258.0	55.5	-86.0	4.6
2025-01-17 10:47:38.659925	257.5	55.2	-91.0	8.1
2025-01-17 10:47:39.823695	256.9	54.9	-90.8	9.0
2025-01-17 10:47:40.991954	256.3	54.6	-90.7	13.1
2025-01-17 10:47:42.161528	255.8	54.3	-90.5	14.8
2025-01-17 10:47:43.323346	255.3	53.9	-87.3	11.9
2025-01-17 10:47:44.487242	254.7	53.6	-89.4	13.6
2025-01-17 10:47:45.643581	254.2	53.3	-90.7	15.1
2025-01-17 10:47:46.807618	253.7	53.0	-90.8	17.1
2025-01-17 10:47:47.965616	253.2	52.6	-90.3	15.8
2025-01-17 10:47:49.123962	252.8	52.3	-89.6	17.2
2025-01-17 10:47:50.284716	252.3	52.0	-90.1	19.2
2025-01-17 10:47:51.446448	251.9	51.7	-90.3	17.0
2025-01-17 10:47:52.610601	251.4	51.3	-90.2	16.7
2025-01-17 10:47:53.773008	251.0	51.0	-90.0	20.1
2025-01-17 10:47:54.937415	250.5	50.7	-90.0	14.8
2025-01-17 10:47:56.107947	250.1	50.4	-90.2	14.5
2025-01-17 10:47:57.266572	249.7	50.1	-90.5	19.8
2025-01-17 10:47:58.427710	249.3	49.7	-90.1	11.0
2025-01-17 10:47:59.591154	248.9	49.4	-90.5	11.3
2025-01-17 10:48:00.742937	248.5	49.1	-90.8	17.8
2025-01-17 10:48:01.903544	248.2	48.8	-90.7	12.5
2025-01-17 10:48:03.056475	247.8	48.5	-90.5	11.7
2025-01-17 10:48:04.215249	247.4	48.1	-91.1	17.1
2025-01-17 10:48:05.380717	247.1	47.8	-91.0	14.4
2025-01-17 10:48:06.545182	246.7	47.5	-91.2	14.5
2025-01-17 10:48:07.709882	246.4	47.2	-91.2	18.7
2025-01-17 10:48:08.874110	246.1	46.9	-91.0	15.3
2025-01-17 10:48:10.041049	245.8	46.6	-90.8	14.1
2025-01-17 10:48:11.204981	245.4	46.3	-90.4	17.2
2025-01-17 10:48:12.368211	245.1	46.0	-90.8	16.4
2025-01-17 10:48:13.539302	244.8	45.7	-90.7	19.5
2025-01-17 10:48:14.699797	244.5	45.3	-90.3	19.0
2025-01-17 10:48:15.861413	244.2	45.0	-90.6	20.5
2025-01-17 10:48:17.025384	243.9	44.7	-90.7	20.1
2025-01-17 10:48:18.186529	243.6	44.4	-89.8	20.2
2025-01-17 10:48:19.352923	243.4	44.1	-89.9	20.2
2025-01-17 10:48:20.518793	243.1	43.8	-89.4	16.8
2025-01-17 10:48:21.684221	242.8	43.5	-89.7	17.0
2025-01-17 10:48:22.847308	242.6	43.2	-89.5	15.3
2025-01-17 10:48:24.009291	242.3	43.0	-89.8	13.3
2025-01-17 10:48:25.177164	242.0	42.7	-89.5	17.3
2025-01-17 10:48:26.322057	241.8	42.4	-89.4	16.6
2025-01-17 10:48:27.487176	241.6	42.1	-90.2	13.6
2025-01-17 10:48:28.641695	241.3	41.8	-89.8	16.1
2025-01-17 10:48:29.805650	241.1	41.5	-90.3	17.0
2025-01-17 10:48:30.969607	240.8	41.2	-90.3	13.2
2025-01-17 10:48:32.130029	240.6	40.9	-89.5	14.9
2025-01-17 10:48:33.287469	240.4	40.7	-90.7	17.9
2025-01-17 10:48:34.442385	240.2	40.4	-90.4	15.2
2025-01-17 10:48:35.588235	240.0	40.1	-90.9	18.3
2025-01-17 10:48:36.745605	239.8	39.8	-90.5	15.7
2025-01-17 10:48:37.909727	239.5	39.6	-90.6	17.6
2025-01-17 10:48:39.072774	239.3	39.3	-90.4	16.0
2025-01-17 10:48:40.236666	239.1	39.0	-90.4	15.6
2025-01-17 10:48:41.410490	238.9	38.8	-91.1	14.9
2025-01-17 10:48:42.576014	238.7	38.5	-90.8	15.5
2025-01-17 10:48:43.738807	238.5	38.2	-90.9	16.3
2025-01-17 10:48:44.905732	238.4	38.0	-90.6	12.9
2025-01-17 10:48:46.069790	238.2	37.7	-90.6	11.2
2025-01-17 10:48:47.226034	238.0	37.4	-90.5	17.3
2025-01-17 10:48:48.395274	237.8	37.2	-90.9	15.3
2025-01-17 10:48:49.569199	237.6	36.9	-91.1	11.8
2025-01-17 10:48:50.730985	237.5	36.7	-90.9	15.0
2025-01-17 10:48:51.889864	237.3	36.4	-90.9	12.6
2025-01-17 10:48:53.061438	237.1	36.2	-90.7	14.3
2025-01-17 10:48:54.223251	237.0	35.9	-90.9	13.9
2025-01-17 10:48:55.395401	236.8	35.7	-91.2	14.0
2025-01-17 10:48:56.552164	236.6	35.4	-91.2	15.0
2025-01-17 10:48:57.713790	236.5	35.2	-91.3	13.1
2025-01-17 10:48:58.876639	236.3	34.9	-91.0	15.1
2025-01-17 10:49:00.037685	236.2	34.7	-90.9	12.6
2025-01-17 10:49:01.199923	236.0	34.4	-90.7	15.5
2025-01-17 10:49:02.363083	235.9	34.2	-91.1	12.1
2025-01-17 10:49:03.523902	235.7	34.0	-90.8	9.6
2025-01-17 10:49:04.684277	235.6	33.7	-90.8	13.7
2025-01-17 10:49:05.844890	235.4	33.5	-90.7	13.4
2025-01-17 10:49:07.002772	235.3	33.3	-90.9	7.5
2025-01-17 10:49:08.161306	235.1	33.0	-90.9	14.1
2025-01-17 10:49:09.323291	235.0	32.8	-90.7	14.8
2025-01-17 10:49:10.487785	234.9	32.6	-91.0	14.0
2025-01-17 10:49:11.653535	234.7	32.3	-91.1	16.5
2025-01-17 10:49:12.825892	234.6	32.1	-91.3	17.0
2025-01-17 10:49:13.990843	234.5	31.9	-91.5	14.2
2025-01-17 10:49:15.155388	234.3	31.7	-91.0	15.2
2025-01-17 10:49:16.313810	234.2	31.5	-90.8	13.7
2025-01-17 10:49:17.478205	234.1	31.2	-91.0	12.6
2025-01-17 10:49:18.641571	234.0	31.0	-90.9	11.9
2025-01-17 10:49:19.796250	233.9	30.8	-91.0	10.9
2025-01-17 10:49:20.954484	233.7	30.6	-91.0	9.5
2025-01-17 10:49:22.123134	233.6	30.4	-91.0	9.9
2025-01-17 10:49:23.286450	233.5	30.2	-91.0	8.4
2025-01-17 10:49:24.453696	233.4	30.0	-91.0	7.5
2025-01-17 10:49:25.627365	233.3	29.7	-91.2	9.9
2025-01-17 10:49:26.786907	233.2	29.5	-91.4	8.0
2025-01-17 10:49:27.945614	233.1	29.3	-91.0	8.8
2025-01-17 10:49:29.106427	233.0	29.1	-90.6	6.7
2025-01-17 10:49:30.273081	232.8	28.9	-90.5	5.5
2025-01-17 10:49:31.429296	232.7	28.7	-90.8	10.0
2025-01-17 10:49:32.590767	232.6	28.5	-90.8	6.3
2025-01-17 10:49:33.756090	232.5	28.3	-91.0	6.2
2025-01-17 10:49:34.920793	232.4	28.1	-91.1	6.4
2025-01-17 10:49:36.086194	232.3	27.9	-91.1	7.2
2025-01-17 10:49:37.245780	232.2	27.7	-90.7	7.4
2025-01-17 10:49:38.388909	232.1	27.5	-90.7	5.9
2025-01-17 10:49:39.539647	232.0	27.3	-90.9	6.8
2025-01-17 10:49:40.695230	231.9	27.2	-91.2	9.3
2025-01-17 10:49:41.860483	231.8	27.0	-91.0	8.2
2025-01-17 10:49:43.022178	231.8	26.8	-90.9	7.5
2025-01-17 10:49:44.179557	231.7	26.6	-90.7	8.1
2025-01-17 10:49:45.341712	231.6	26.4	-90.8	9.6
2025-01-17 10:49:46.508729	231.5	26.2	-91.1	10.0
2025-01-17 10:49:47.668701	231.4	26.0	-91.2	6.7
2025-01-17 10:49:48.832351	231.3	25.8	-91.2	7.6
2025-01-17 10:49:49.996333	231.2	25.7	-91.1	8.6
2025-01-17 10:49:51.160220	231.1	25.5	-90.9	8.7
2025-01-17 10:49:52.318095	231.1	25.3	-90.9	11.2
2025-01-17 10:49:53.477666	231.0	25.1	-91.4	9.9
2025-01-17 10:49:54.642693	230.9	24.9	-91.1	9.5
2025-01-17 10:49:55.805539	230.8	24.8	-91.2	13.6
2025-01-17 10:49:56.959997	230.7	24.6	-91.0	12.2
2025-01-17 10:49:58.123235	230.6	24.4	-90.9	10.6
2025-01-17 10:49:59.282182	230.6	24.2	-90.9	12.5
2025-01-17 10:50:00.442930	230.5	24.1	-90.8	12.7
2025-01-17 10:50:01.603794	230.4	23.9	-91.0	10.2
2025-01-17 10:50:02.767265	230.3	23.7	-90.9	11.9
2025-01-17 10:50:03.934654	230.3	23.6	-91.4	9.8
2025-01-17 10:50:05.097556	230.2	23.4	-91.1	9.2
2025-01-17 10:50:06.263039	230.1	23.2	-90.7	10.6
2025-01-17 10:50:07.423695	230.0	23.1	-90.9	7.5
2025-01-17 10:50:08.584989	230.0	22.9	-90.8	9.2
2025-01-17 10:50:09.750765	229.9	22.7	-90.8	11.2
2025-01-17 10:50:10.909758	229.8	22.6	-91.0	11.0
2025-01-17 10:50:12.072726	229.8	22.4	-90.6	10.1
2025-01-17 10:50:13.244240	229.7	22.2	-90.3	11.7
2025-01-17 10:50:14.408381	229.6	22.1	-90.8	13.0
2025-01-17 10:50:15.573469	229.6	21.9	-90.6	12.3
2025-01-17 10:50:16.734352	229.5	21.8	-90.9	13.4
2025-01-17 10:50:17.898649	229.4	21.6	-91.0	12.8
2025-01-17 10:50:19.070421	229.4	21.4	-90.5	10.4
2025-01-17 10:50:20.235077	229.3	21.3	-90.8	12.8
2025-01-17 10:50:21.393098	229.2	21.1	-90.8	7.2
2025-01-17 10:50:22.565350	229.2	21.0	-91.3	9.9
2025-01-17 10:50:23.731566	229.1	20.8	-91.1	12.3
2025-01-17 10:50:24.888891	229.0	20.7	-90.9	13.4
2025-01-17 10:50:26.055503	229.0	20.5	-90.7	11.9
2025-01-17 10:50:27.223378	228.9	20.4	-90.4	8.0
2025-01-17 10:50:28.383763	228.9	20.2	-90.5	9.7
2025-01-17 10:50:29.541746	228.8	20.1	-90.7	14.3
2025-01-17 10:50:30.708575	228.7	19.9	-90.7	11.0
2025-01-17 10:50:31.872590	228.7	19.8	-90.9	10.7
2025-01-17 10:50:33.041272	228.6	19.6	-90.9	10.0
2025-01-17 10:50:34.208629	228.6	19.5	-90.8	8.7
2025-01-17 10:50:35.372206	228.5	19.3	-91.1	5.7
2025-01-17 10:50:36.535399	228.4	19.2	-90.8	8.8
2025-01-17 10:50:37.692800	228.4	19.1	-90.7	11.6
2025-01-17 10:50:38.860402	228.3	18.9	-90.6	11.4
2025-01-17 10:50:40.024255	228.3	18.8	-90.9	9.3
2025-01-17 10:50:41.192058	228.2	18.6	-90.6	11.0
2025-01-17 10:50:42.351779	228.2	18.5	-90.7	11.7
2025-01-17 10:50:43.517204	228.1	18.3	-91.1	11.6
2025-01-17 10:50:44.674102	228.1	18.2	-91.2	11.1
2025-01-17 10:50:45.834157	228.0	18.1	-90.8	12.5
2025-01-17 10:50:46.992040	228.0	17.9	-90.8	11.9
2025-01-17 10:50:48.148159	227.9	17.8	-90.5	10.3
2025-01-17 10:50:49.310596	227.9	17.7	-90.9	11.8
2025-01-17 10:50:50.474863	227.8	17.5	-90.9	9.7
2025-01-17 10:50:51.639683	227.8	17.4	-91.1	11.1
2025-01-17 10:50:52.798073	227.7	17.3	-90.2	9.3
2025-01-17 10:50:53.965457	227.7	17.1	-89.9	10.8
2025-01-17 10:50:55.128317	227.6	17.0	-89.9	13.4
2025-01-17 10:50:56.293368	227.6	16.9	-90.0	10.7
2025-01-17 10:50:57.448776	227.5	16.7	-90.1	10.6
2025-01-17 10:50:58.613392	227.5	16.6	-89.8	9.1
2025-01-17 10:50:59.776747	227.4	16.5	-90.0	10.5
2025-01-17 10:51:00.933451	227.4	16.3	-90.6	8.8
2025-01-17 10:51:02.098545	227.3	16.2	-90.6	7.4
2025-01-17 10:51:03.259575	227.3	16.1	-90.7	7.3
2025-01-17 10:51:04.424382	227.3	16.0	-91.2	6.4
2025-01-17 10:51:05.591206	227.2	15.8	-90.8	4.2
2025-01-17 10:51:06.749810	227.2	15.7	-91.4	7.7
2025-01-17 10:51:07.907704	227.1	15.6	-91.2	6.0
2025-01-17 10:51:09.074220	227.1	15.5	-91.1	8.2
2025-01-17 10:51:10.237320	227.0	15.3	-90.7	5.8
2025-01-17 10:51:11.405892	227.0	15.2	-91.1	7.4
2025-01-17 10:51:12.571007	227.0	15.1	-91.1	5.4
2025-01-17 10:51:13.732361	226.9	15.0	-91.1	9.8
2025-01-17 10:51:14.904184	226.9	14.8	-91.0	6.2
2025-01-17 10:51:16.066723	226.8	14.7	-90.8	6.2
2025-01-17 10:51:17.230188	226.8	14.6	-91.0	8.9
2025-01-17 10:51:18.384149	226.8	14.5	-90.9	6.0
#Closed at: 2025-01-17 10:42:11.995163