passes_logs/2025/01/17/LEX_Murmansk/LEX_Murmansk__20250117_083642_NOAA_19_rec.log

#Pass ID: 20250117_083642_NOAA 19
#Satellite: NOAA 19
#Configuration: NOAA 19
#Start time: 2025-01-17 08:36:37.030181

#LorettStation: 1.0.0 05.05.2024
#Station: LEX_Murmansk
#Location: 33.156738 lon 68.926811 lat
#TLE: 1 33591U 09005A   25016.13687281  .00000278  00000+0  17226-3 0  9992
#TLE: 2 33591  99.0193  79.9081 0014432  54.5182 305.7334 14.13260212821702

#Time	Az	El	Level	SNR
2025-01-17 08:36:49.244236	27.1	16.3	-89.8	5.0
2025-01-17 08:36:50.389079	27.2	16.4	-89.7	3.3
2025-01-17 08:36:51.536347	27.2	16.6	-89.5	1.2
2025-01-17 08:36:52.680799	27.2	16.7	-89.3	1.6
2025-01-17 08:36:53.825734	27.3	16.8	-89.0	3.0
2025-01-17 08:36:54.971764	27.3	17.0	-89.2	1.8
2025-01-17 08:36:56.117912	27.3	17.1	-89.3	3.1
2025-01-17 08:36:57.266043	27.4	17.2	-88.9	2.9
2025-01-17 08:36:58.414288	27.4	17.3	-89.2	1.8
2025-01-17 08:36:59.560686	27.4	17.5	-89.9	3.7
2025-01-17 08:37:00.704390	27.5	17.6	-89.6	3.1
2025-01-17 08:37:01.851728	27.5	17.7	-89.7	3.0
2025-01-17 08:37:02.997443	27.5	17.9	-90.1	3.4
2025-01-17 08:37:04.139993	27.6	18.0	-89.7	3.9
2025-01-17 08:37:05.285139	27.6	18.2	-89.5	3.6
2025-01-17 08:37:06.432062	27.6	18.3	-90.0	4.2
2025-01-17 08:37:07.577673	27.7	18.4	-89.7	3.9
2025-01-17 08:37:08.723821	27.7	18.6	-90.0	2.2
2025-01-17 08:37:09.867464	27.7	18.7	-89.9	1.8
2025-01-17 08:37:11.011358	27.8	18.8	-89.9	2.1
2025-01-17 08:37:12.156974	27.8	19.0	-89.7	3.9
2025-01-17 08:37:13.301545	27.8	19.1	-89.6	5.3
2025-01-17 08:37:14.463030	27.9	19.3	-90.3	10.7
2025-01-17 08:37:15.606803	27.9	19.4	-89.8	4.6
2025-01-17 08:37:16.748171	27.9	19.6	-89.9	4.0
2025-01-17 08:37:17.895082	28.0	19.7	-89.9	2.3
2025-01-17 08:37:19.043589	28.0	19.8	-90.1	4.5
2025-01-17 08:37:20.185504	28.0	20.0	-90.1	4.4
2025-01-17 08:37:21.333174	28.1	20.1	-89.8	12.8
2025-01-17 08:37:22.480127	28.1	20.3	-89.8	4.7
2025-01-17 08:37:23.624274	28.2	20.4	-89.9	3.0
2025-01-17 08:37:24.772458	28.2	20.6	-89.6	2.2
2025-01-17 08:37:25.916735	28.2	20.7	-89.8	2.8
2025-01-17 08:37:27.062389	28.3	20.9	-90.3	7.1
2025-01-17 08:37:28.210082	28.3	21.0	-89.5	8.4
2025-01-17 08:37:29.355556	28.4	21.2	-90.0	10.5
2025-01-17 08:37:30.500980	28.4	21.3	-90.0	6.5
2025-01-17 08:37:31.644716	28.4	21.5	-89.8	6.5
2025-01-17 08:37:32.787657	28.5	21.7	-89.9	3.3
2025-01-17 08:37:33.931522	28.5	21.8	-89.8	3.0
2025-01-17 08:37:35.078331	28.6	22.0	-89.7	16.4
2025-01-17 08:37:36.226793	28.6	22.1	-90.2	12.1
2025-01-17 08:37:37.367934	28.6	22.3	-89.7	5.8
2025-01-17 08:37:38.513523	28.7	22.5	-90.2	5.5
2025-01-17 08:37:39.664918	28.7	22.6	-90.5	2.4
2025-01-17 08:37:40.811542	28.8	22.8	-90.0	1.3
2025-01-17 08:37:41.955025	28.8	22.9	-90.2	2.5
2025-01-17 08:37:43.101048	28.9	23.1	-90.4	3.4
2025-01-17 08:37:44.247934	28.9	23.3	-90.2	3.5
2025-01-17 08:37:45.389858	28.9	23.4	-90.1	7.7
2025-01-17 08:37:46.532474	29.0	23.6	-90.1	7.4
2025-01-17 08:37:47.678314	29.0	23.8	-90.0	9.8
2025-01-17 08:37:48.824679	29.1	23.9	-90.5	5.8
2025-01-17 08:37:49.971952	29.1	24.1	-90.0	10.9
2025-01-17 08:37:51.121258	29.2	24.3	-89.6	9.9
2025-01-17 08:37:52.270233	29.2	24.5	-90.0	10.9
2025-01-17 08:37:53.410337	29.3	24.6	-90.0	8.4
2025-01-17 08:37:54.563259	29.3	24.8	-89.9	7.9
2025-01-17 08:37:55.706451	29.4	25.0	-89.8	4.1
2025-01-17 08:37:56.853666	29.4	25.2	-89.7	3.9
2025-01-17 08:37:58.003337	29.5	25.4	-89.7	5.4
2025-01-17 08:37:59.156270	29.5	25.5	-89.8	4.1
2025-01-17 08:38:00.304173	29.6	25.7	-90.0	5.8
2025-01-17 08:38:01.449525	29.6	25.9	-90.3	10.4
2025-01-17 08:38:02.604086	29.7	26.1	-89.9	10.2
2025-01-17 08:38:03.746343	29.7	26.3	-90.2	6.0
2025-01-17 08:38:04.894288	29.8	26.5	-90.3	10.2
2025-01-17 08:38:06.038062	29.8	26.6	-89.7	7.4
2025-01-17 08:38:07.181475	29.9	26.8	-89.8	7.0
2025-01-17 08:38:08.325279	29.9	27.0	-89.5	6.5
2025-01-17 08:38:09.476042	30.0	27.2	-89.6	5.4
2025-01-17 08:38:10.631685	30.0	27.4	-89.8	6.4
2025-01-17 08:38:11.779414	30.1	27.6	-90.1	3.7
2025-01-17 08:38:12.923804	30.2	27.8	-89.8	2.8
2025-01-17 08:38:14.068985	30.2	28.0	-89.8	3.7
2025-01-17 08:38:15.218109	30.3	28.2	-89.9	4.0
2025-01-17 08:38:16.367050	30.3	28.4	-90.2	6.8
2025-01-17 08:38:17.518335	30.4	28.6	-90.1	6.9
2025-01-17 08:38:18.662728	30.5	28.8	-90.4	5.3
2025-01-17 08:38:19.811272	30.5	29.0	-89.8	6.5
2025-01-17 08:38:20.957451	30.6	29.2	-90.4	9.1
2025-01-17 08:38:22.105727	30.6	29.4	-90.3	5.2
2025-01-17 08:38:23.253119	30.7	29.6	-90.1	3.6
2025-01-17 08:38:24.399980	30.8	29.8	-90.0	5.5
2025-01-17 08:38:25.544716	30.8	30.1	-90.1	12.9
2025-01-17 08:38:26.691694	30.9	30.3	-89.9	10.7
2025-01-17 08:38:27.841334	31.0	30.5	-89.5	4.2
2025-01-17 08:38:28.990739	31.0	30.7	-89.7	3.3
2025-01-17 08:38:30.138172	31.1	30.9	-89.8	4.3
2025-01-17 08:38:31.289951	31.2	31.1	-89.7	1.1
2025-01-17 08:38:32.435168	31.2	31.4	-89.5	2.3
2025-01-17 08:38:33.580752	31.3	31.6	-89.7	4.8
2025-01-17 08:38:34.724295	31.4	31.8	-90.2	7.6
2025-01-17 08:38:35.870090	31.5	32.0	-89.8	11.1
2025-01-17 08:38:37.026431	31.5	32.3	-89.4	10.0
2025-01-17 08:38:38.166530	31.6	32.5	-89.4	10.7
2025-01-17 08:38:39.314289	31.7	32.7	-89.3	6.4
2025-01-17 08:38:40.462099	31.8	33.0	-89.5	10.1
2025-01-17 08:38:41.610016	31.8	33.2	-89.8	12.2
2025-01-17 08:38:42.755926	31.9	33.4	-89.9	13.9
2025-01-17 08:38:43.896505	32.0	33.7	-90.2	15.6
2025-01-17 08:38:45.041912	32.1	33.9	-90.0	12.7
2025-01-17 08:38:46.189076	32.2	34.1	-90.0	5.8
2025-01-17 08:38:47.332191	32.2	34.4	-90.1	2.9
2025-01-17 08:38:48.484926	32.3	34.6	-89.3	4.3
2025-01-17 08:38:49.635685	32.4	34.9	-89.7	7.4
2025-01-17 08:38:50.781819	32.5	35.1	-89.8	6.0
2025-01-17 08:38:51.927817	32.6	35.4	-89.8	7.8
2025-01-17 08:38:53.075220	32.7	35.6	-89.4	13.6
2025-01-17 08:38:54.225294	32.8	35.9	-89.5	10.7
2025-01-17 08:38:55.371005	32.9	36.2	-89.4	9.2
2025-01-17 08:38:56.517519	33.0	36.4	-89.7	8.7
2025-01-17 08:38:57.662809	33.0	36.7	-89.4	6.6
2025-01-17 08:38:58.807702	33.1	36.9	-89.8	4.4
2025-01-17 08:38:59.954699	33.2	37.2	-89.4	8.2
2025-01-17 08:39:01.096244	33.3	37.5	-89.6	11.9
2025-01-17 08:39:02.248841	33.4	37.7	-89.7	8.9
2025-01-17 08:39:03.396223	33.5	38.0	-89.9	8.8
2025-01-17 08:39:04.541468	33.7	38.3	-89.7	6.9
2025-01-17 08:39:05.689541	33.8	38.6	-89.8	4.0
2025-01-17 08:39:06.834684	33.9	38.8	-89.6	1.3
2025-01-17 08:39:07.977916	34.0	39.1	-89.7	3.7
2025-01-17 08:39:09.128853	34.1	39.4	-89.7	6.1
2025-01-17 08:39:10.275565	34.2	39.7	-89.9	6.1
2025-01-17 08:39:11.423584	34.3	40.0	-89.9	14.8
2025-01-17 08:39:12.568255	34.4	40.3	-90.0	15.7
2025-01-17 08:39:13.715469	34.5	40.6	-89.9	12.8
2025-01-17 08:39:14.859241	34.7	40.8	-90.1	11.1
2025-01-17 08:39:16.008718	34.8	41.1	-90.1	12.6
2025-01-17 08:39:17.154735	34.9	41.4	-89.8	11.0
2025-01-17 08:39:18.303964	35.0	41.7	-89.7	11.6
2025-01-17 08:39:19.453935	35.2	42.0	-90.3	13.8
2025-01-17 08:39:20.601087	35.3	42.4	-90.1	14.7
2025-01-17 08:39:21.745951	35.4	42.7	-90.2	14.0
2025-01-17 08:39:22.894243	35.6	43.0	-89.7	10.7
2025-01-17 08:39:24.036567	35.7	43.3	-90.0	6.8
2025-01-17 08:39:25.183786	35.9	43.6	-89.9	4.5
2025-01-17 08:39:26.331628	36.0	43.9	-90.2	2.0
2025-01-17 08:39:27.478194	36.2	44.2	-89.8	5.1
2025-01-17 08:39:28.627835	36.3	44.6	-89.9	6.4
2025-01-17 08:39:29.777043	36.5	44.9	-89.6	6.0
2025-01-17 08:39:30.923312	36.6	45.2	-90.0	8.9
2025-01-17 08:39:32.071394	36.8	45.5	-90.1	10.1
2025-01-17 08:39:33.219030	36.9	45.9	-89.8	8.9
2025-01-17 08:39:34.372698	37.1	46.2	-89.9	9.9
2025-01-17 08:39:35.520540	37.3	46.5	-90.0	12.7
2025-01-17 08:39:36.672239	37.5	46.9	-90.0	6.3
2025-01-17 08:39:37.818935	37.6	47.2	-90.1	6.1
2025-01-17 08:39:38.966860	37.8	47.6	-90.2	7.1
2025-01-17 08:39:40.112524	38.0	47.9	-90.0	7.8
2025-01-17 08:39:41.246943	38.2	48.3	-90.0	8.5
2025-01-17 08:39:42.393629	38.4	48.6	-89.7	6.2
2025-01-17 08:39:43.540707	38.6	49.0	-90.2	4.3
2025-01-17 08:39:44.697390	38.8	49.3	-89.9	3.0
2025-01-17 08:39:45.847954	39.0	49.7	-90.0	3.2
2025-01-17 08:39:46.995360	39.2	50.0	-90.1	5.5
2025-01-17 08:39:48.135057	39.4	50.4	-89.8	2.7
2025-01-17 08:39:49.280939	39.6	50.8	-90.4	2.4
2025-01-17 08:39:50.426195	39.9	51.1	-90.3	6.7
2025-01-17 08:39:51.568659	40.1	51.5	-89.9	7.4
2025-01-17 08:39:52.715492	40.3	51.9	-89.7	7.7
2025-01-17 08:39:53.857214	40.6	52.3	-89.7	9.2
2025-01-17 08:39:55.004408	40.8	52.6	-89.7	9.9
2025-01-17 08:39:56.149957	41.1	53.0	-89.9	10.7
2025-01-17 08:39:57.297738	41.4	53.4	-89.8	3.8
2025-01-17 08:39:58.445435	41.6	53.8	-89.6	3.9
2025-01-17 08:39:59.592308	41.9	54.2	-89.7	8.3
2025-01-17 08:40:00.740822	42.2	54.6	-90.1	7.3
2025-01-17 08:40:01.887565	42.5	54.9	-89.8	10.5
2025-01-17 08:40:03.036857	42.8	55.3	-90.4	8.6
2025-01-17 08:40:04.176430	43.1	55.7	-90.0	8.5
2025-01-17 08:40:05.322449	43.4	56.1	-90.0	9.5
2025-01-17 08:40:06.466059	43.7	56.5	-90.2	9.8
2025-01-17 08:40:07.613156	44.1	56.9	-89.8	7.4
2025-01-17 08:40:08.762502	44.4	57.3	-89.9	3.4
2025-01-17 08:40:09.910422	44.8	57.7	-90.2	6.0
2025-01-17 08:40:11.054367	45.2	58.2	-90.5	5.2
2025-01-17 08:40:12.195019	45.5	58.6	-90.2	4.8
2025-01-17 08:40:13.343262	45.9	59.0	-89.9	2.7
2025-01-17 08:40:14.500117	46.3	59.4	-90.1	8.1
2025-01-17 08:40:15.642570	46.7	59.8	-90.0	9.5
2025-01-17 08:40:16.788081	47.2	60.2	-89.7	10.9
2025-01-17 08:40:17.932386	47.6	60.6	-89.8	14.3
2025-01-17 08:40:19.077328	48.1	61.1	-89.7	13.7
2025-01-17 08:40:20.221346	48.5	61.5	-90.2	11.0
2025-01-17 08:40:21.367938	49.0	61.9	-90.1	7.6
2025-01-17 08:40:22.514757	49.5	62.3	-90.2	7.1
2025-01-17 08:40:23.660616	50.1	62.7	-90.1	9.1
2025-01-17 08:40:24.806023	50.6	63.2	-89.9	6.7
2025-01-17 08:40:25.955708	51.2	63.6	-89.5	9.1
2025-01-17 08:40:27.102615	51.8	64.0	-89.7	11.3
2025-01-17 08:40:28.252960	52.4	64.4	-89.6	11.1
2025-01-17 08:40:29.399519	53.0	64.8	-89.4	14.1
2025-01-17 08:40:30.542493	53.6	65.3	-90.0	15.9
2025-01-17 08:40:31.697628	54.3	65.7	-90.2	12.9
2025-01-17 08:40:32.844986	55.0	66.1	-89.7	13.6
2025-01-17 08:40:33.992800	55.8	66.5	-90.0	12.6
2025-01-17 08:40:35.137586	56.5	66.9	-90.5	12.5
2025-01-17 08:40:36.288834	57.3	67.4	-90.0	7.8
2025-01-17 08:40:37.435919	58.1	67.8	-90.1	5.6
2025-01-17 08:40:38.582556	59.0	68.2	-90.3	8.6
2025-01-17 08:40:39.729148	59.9	68.6	-89.7	3.5
2025-01-17 08:40:40.872323	60.8	69.0	-90.1	3.2
2025-01-17 08:40:42.017349	61.8	69.4	-90.1	6.7
2025-01-17 08:40:43.164235	62.8	69.8	-90.0	6.1
2025-01-17 08:40:44.311722	63.8	70.2	-90.1	5.4
2025-01-17 08:40:45.459437	64.9	70.6	-90.3	7.4
2025-01-17 08:40:46.606453	66.1	71.0	-90.2	7.3
2025-01-17 08:40:47.754093	67.2	71.3	-90.1	8.9
2025-01-17 08:40:48.900826	68.5	71.7	-90.1	7.4
2025-01-17 08:40:50.048011	69.8	72.1	-90.1	7.0
2025-01-17 08:40:51.195487	71.1	72.4	-89.7	9.9
2025-01-17 08:40:52.341079	72.6	72.8	-89.8	8.5
2025-01-17 08:40:53.486395	74.0	73.1	-90.0	10.6
2025-01-17 08:40:54.627447	75.5	73.5	-89.6	7.4
2025-01-17 08:40:55.771223	77.1	73.8	-89.6	7.7
2025-01-17 08:40:56.920576	78.8	74.1	-89.9	9.7
2025-01-17 08:40:58.071514	80.5	74.4	-89.5	11.6
2025-01-17 08:40:59.219652	82.3	74.7	-89.5	10.3
2025-01-17 08:41:00.367055	84.2	74.9	-90.1	6.2
2025-01-17 08:41:01.512359	86.1	75.2	-89.8	9.0
2025-01-17 08:41:02.656380	88.1	75.4	-89.6	8.5
2025-01-17 08:41:03.802677	90.2	75.6	-90.0	7.0
2025-01-17 08:41:04.943758	92.3	75.8	-90.2	7.1
2025-01-17 08:41:06.087487	94.5	76.0	-90.4	8.7
2025-01-17 08:41:07.234060	96.7	76.2	-89.9	6.2
2025-01-17 08:41:08.382250	99.0	76.3	-89.9	7.6
2025-01-17 08:41:09.527583	101.4	76.4	-90.2	9.0
2025-01-17 08:41:10.672701	103.7	76.5	-89.9	10.1
2025-01-17 08:41:11.819118	106.1	76.6	-90.1	13.6
2025-01-17 08:41:12.967173	108.6	76.6	-90.3	12.2
2025-01-17 08:41:14.116780	111.0	76.7	-89.6	19.2
2025-01-17 08:41:15.268588	113.5	76.7	-89.8	13.9
2025-01-17 08:41:16.415157	115.9	76.6	-89.9	16.6
2025-01-17 08:41:17.555663	118.3	76.6	-89.5	20.0
2025-01-17 08:41:18.703752	120.7	76.5	-89.8	17.5
2025-01-17 08:41:19.849415	123.1	76.4	-90.0	18.4
2025-01-17 08:41:20.996238	125.5	76.3	-89.8	11.8
2025-01-17 08:41:22.144653	127.8	76.2	-89.8	14.5
2025-01-17 08:41:23.290359	130.0	76.0	-90.2	19.4
2025-01-17 08:41:24.430540	132.2	75.9	-89.9	15.7
2025-01-17 08:41:25.575768	134.3	75.7	-89.8	18.7
2025-01-17 08:41:26.721919	136.4	75.5	-90.2	10.6
2025-01-17 08:41:27.869392	138.4	75.2	-90.2	16.6
2025-01-17 08:41:29.030819	140.4	75.0	-90.4	11.0
2025-01-17 08:41:30.181527	142.3	74.7	-89.9	19.2
2025-01-17 08:41:31.332812	144.1	74.4	-90.2	9.6
2025-01-17 08:41:32.479965	145.9	74.2	-90.3	9.5
2025-01-17 08:41:33.626904	147.6	73.9	-90.1	6.0
2025-01-17 08:41:34.771269	149.2	73.5	-89.9	17.7
2025-01-17 08:41:35.914644	150.7	73.2	-90.1	8.9
2025-01-17 08:41:37.064403	152.2	72.9	-89.9	10.3
2025-01-17 08:41:38.208228	153.6	72.5	-90.0	8.7
2025-01-17 08:41:39.355486	155.0	72.2	-90.5	11.5
2025-01-17 08:41:40.501007	156.3	71.8	-90.2	8.4
2025-01-17 08:41:41.644701	157.6	71.4	-89.6	11.5
2025-01-17 08:41:42.793742	158.8	71.1	-90.0	14.1
2025-01-17 08:41:43.942449	159.9	70.7	-89.8	7.2
2025-01-17 08:41:45.085065	161.0	70.3	-90.2	4.8
2025-01-17 08:41:46.235849	162.1	69.9	-90.0	14.8
2025-01-17 08:41:47.381562	163.1	69.5	-90.0	7.2
2025-01-17 08:41:48.528754	164.1	69.1	-89.4	5.8
2025-01-17 08:41:49.688794	165.0	68.7	-89.8	8.4
2025-01-17 08:41:50.836105	165.9	68.3	-89.9	15.0
2025-01-17 08:41:51.978485	166.8	67.9	-89.8	7.6
2025-01-17 08:41:53.123481	167.6	67.5	-89.7	8.5
2025-01-17 08:41:54.269950	168.4	67.1	-89.8	12.7
2025-01-17 08:41:55.413451	169.2	66.6	-89.8	9.8
2025-01-17 08:41:56.560282	169.9	66.2	-89.9	6.7
2025-01-17 08:41:57.706435	170.6	65.8	-90.2	12.7
2025-01-17 08:41:58.845658	171.3	65.4	-90.0	14.1
2025-01-17 08:41:59.992619	172.0	65.0	-90.1	10.4
2025-01-17 08:42:01.136563	172.6	64.5	-89.1	9.0
2025-01-17 08:42:02.282246	173.2	64.1	-89.7	15.3
2025-01-17 08:42:03.431005	173.8	63.7	-90.1	14.7
2025-01-17 08:42:04.573663	174.4	63.3	-89.6	15.2
2025-01-17 08:42:05.724546	174.9	62.8	-90.0	14.3
2025-01-17 08:42:06.868058	175.5	62.4	-89.8	12.2
2025-01-17 08:42:08.016040	176.0	62.0	-89.2	12.3
2025-01-17 08:42:09.163340	176.5	61.6	-89.7	10.0
2025-01-17 08:42:10.308616	176.9	61.2	-90.0	11.0
2025-01-17 08:42:11.454879	177.4	60.7	-89.3	12.0
2025-01-17 08:42:12.602494	177.8	60.3	-89.9	12.6
2025-01-17 08:42:13.752410	178.3	59.9	-89.8	13.7
2025-01-17 08:42:14.897149	178.7	59.5	-89.5	15.4
2025-01-17 08:42:16.041681	179.1	59.1	-89.8	11.2
2025-01-17 08:42:17.187713	179.5	58.7	-89.6	8.1
2025-01-17 08:42:18.338697	179.9	58.3	-89.7	7.9
2025-01-17 08:42:19.485972	180.3	57.9	-89.6	9.2
2025-01-17 08:42:20.632283	180.6	57.4	-89.5	9.5
2025-01-17 08:42:21.779117	181.0	57.0	-89.7	12.8
2025-01-17 08:42:22.926592	181.3	56.6	-89.8	4.7
2025-01-17 08:42:24.073341	181.6	56.2	-89.8	8.3
2025-01-17 08:42:25.217002	182.0	55.8	-89.7	8.1
2025-01-17 08:42:26.364225	182.3	55.4	-89.6	10.2
2025-01-17 08:42:27.507897	182.6	55.1	-90.1	4.4
2025-01-17 08:42:28.660830	182.9	54.7	-89.9	7.0
2025-01-17 08:42:29.809673	183.2	54.3	-89.8	9.5
2025-01-17 08:42:30.963753	183.4	53.9	-90.0	4.0
2025-01-17 08:42:32.112193	183.7	53.5	-90.0	6.4
2025-01-17 08:42:33.257491	184.0	53.1	-89.8	12.0
2025-01-17 08:42:34.407564	184.2	52.7	-89.6	8.3
2025-01-17 08:42:35.552162	184.5	52.3	-89.7	7.8
2025-01-17 08:42:36.700485	184.7	52.0	-89.8	9.4
2025-01-17 08:42:37.853314	185.0	51.6	-89.9	10.2
2025-01-17 08:42:38.999941	185.2	51.2	-89.9	11.0
2025-01-17 08:42:40.148185	185.4	50.9	-89.8	12.5
2025-01-17 08:42:41.295523	185.7	50.5	-89.7	12.4
2025-01-17 08:42:42.441560	185.9	50.1	-90.1	11.2
2025-01-17 08:42:43.590881	186.1	49.8	-89.8	13.3
2025-01-17 08:42:44.735835	186.3	49.4	-89.8	12.8
2025-01-17 08:42:45.886415	186.5	49.0	-89.8	14.4
2025-01-17 08:42:47.034199	186.7	48.7	-89.8	12.5
2025-01-17 08:42:48.185153	186.9	48.3	-89.7	13.8
2025-01-17 08:42:49.332921	187.1	48.0	-90.1	14.7
2025-01-17 08:42:50.481366	187.3	47.6	-89.6	10.1
2025-01-17 08:42:51.628270	187.5	47.3	-89.6	7.9
2025-01-17 08:42:52.774645	187.6	47.0	-90.0	13.8
2025-01-17 08:42:53.923194	187.8	46.6	-89.5	9.3
2025-01-17 08:42:55.068748	188.0	46.3	-89.5	6.1
2025-01-17 08:42:56.217920	188.2	45.9	-89.4	13.2
2025-01-17 08:42:57.358815	188.3	45.6	-89.8	13.1
2025-01-17 08:42:58.503997	188.5	45.3	-89.6	8.2
2025-01-17 08:42:59.648539	188.6	45.0	-89.8	10.4
2025-01-17 08:43:00.793919	188.8	44.6	-89.5	12.2
2025-01-17 08:43:01.942512	188.9	44.3	-89.6	11.3
2025-01-17 08:43:03.090288	189.1	44.0	-89.6	10.0
2025-01-17 08:43:04.235053	189.2	43.7	-90.2	14.0
2025-01-17 08:43:05.384587	189.4	43.4	-90.3	13.7
2025-01-17 08:43:06.536008	189.5	43.0	-89.9	11.1
2025-01-17 08:43:07.684680	189.7	42.7	-89.8	12.3
2025-01-17 08:43:08.832113	189.8	42.4	-89.8	8.7
2025-01-17 08:43:09.978528	189.9	42.1	-90.0	7.2
2025-01-17 08:43:11.127949	190.1	41.8	-89.9	6.4
2025-01-17 08:43:12.274196	190.2	41.5	-89.4	9.7
2025-01-17 08:43:13.425109	190.3	41.2	-89.9	6.0
2025-01-17 08:43:14.569905	190.4	40.9	-90.1	5.6
2025-01-17 08:43:15.713687	190.5	40.6	-89.6	11.2
2025-01-17 08:43:16.858700	190.7	40.3	-89.7	10.2
2025-01-17 08:43:18.006499	190.8	40.0	-90.0	6.3
2025-01-17 08:43:19.149068	190.9	39.8	-89.8	8.9
2025-01-17 08:43:20.298435	191.0	39.5	-90.1	10.1
2025-01-17 08:43:21.445393	191.1	39.2	-90.4	9.0
2025-01-17 08:43:22.597247	191.2	38.9	-89.9	8.7
2025-01-17 08:43:23.743858	191.3	38.6	-90.2	6.4
2025-01-17 08:43:24.886221	191.4	38.3	-90.3	7.6
2025-01-17 08:43:26.037289	191.6	38.1	-89.6	8.2
2025-01-17 08:43:27.181058	191.7	37.8	-90.0	9.0
2025-01-17 08:43:28.324317	191.8	37.5	-89.8	8.3
2025-01-17 08:43:29.474136	191.9	37.3	-89.7	7.7
2025-01-17 08:43:30.622515	192.0	37.0	-89.8	7.5
2025-01-17 08:43:31.769038	192.1	36.7	-90.0	8.5
2025-01-17 08:43:32.913643	192.1	36.5	-89.8	8.1
2025-01-17 08:43:34.061696	192.2	36.2	-89.6	5.0
2025-01-17 08:43:35.201938	192.3	36.0	-89.2	5.1
2025-01-17 08:43:36.351295	192.4	35.7	-89.7	2.6
2025-01-17 08:43:37.493818	192.5	35.4	-89.7	2.6
2025-01-17 08:43:38.637081	192.6	35.2	-89.9	4.1
2025-01-17 08:43:39.782387	192.7	34.9	-89.7	3.9
2025-01-17 08:43:40.928391	192.8	34.7	-89.8	7.0
2025-01-17 08:43:42.076378	192.9	34.4	-89.7	5.6
2025-01-17 08:43:43.220565	192.9	34.2	-89.4	4.9
2025-01-17 08:43:44.366757	193.0	34.0	-90.1	6.9
2025-01-17 08:43:45.512430	193.1	33.7	-90.1	7.6
2025-01-17 08:43:46.654367	193.2	33.5	-90.0	7.4
2025-01-17 08:43:47.800417	193.3	33.2	-90.2	7.4
2025-01-17 08:43:48.949162	193.3	33.0	-89.6	2.8
2025-01-17 08:43:50.096816	193.4	32.8	-89.7	4.2
2025-01-17 08:43:51.244093	193.5	32.5	-90.4	5.7
2025-01-17 08:43:52.386243	193.6	32.3	-90.2	3.2
2025-01-17 08:43:53.531441	193.6	32.1	-90.1	3.5
2025-01-17 08:43:54.676380	193.7	31.9	-90.2	2.8
2025-01-17 08:43:55.821163	193.8	31.6	-90.0	5.2
2025-01-17 08:43:56.968032	193.9	31.4	-90.3	5.4
2025-01-17 08:43:58.113718	193.9	31.2	-90.1	6.2
2025-01-17 08:43:59.260325	194.0	31.0	-89.6	8.3
2025-01-17 08:44:00.410650	194.1	30.8	-90.2	7.2
2025-01-17 08:44:01.555122	194.1	30.5	-90.7	3.8
2025-01-17 08:44:02.702149	194.2	30.3	-90.5	2.1
2025-01-17 08:44:03.844425	194.3	30.1	-90.2	3.8
2025-01-17 08:44:04.990970	194.3	29.9	-90.1	3.5
2025-01-17 08:44:06.138587	194.4	29.7	-89.9	2.8
2025-01-17 08:44:07.288686	194.5	29.5	-89.6	3.7
2025-01-17 08:44:08.435502	194.5	29.3	-90.3	4.3
2025-01-17 08:44:09.580274	194.6	29.1	-89.8	4.5
2025-01-17 08:44:10.731574	194.6	28.9	-90.1	6.4
2025-01-17 08:44:11.876375	194.7	28.6	-90.1	6.2
2025-01-17 08:44:13.020727	194.8	28.4	-89.7	8.7
2025-01-17 08:44:14.169477	194.8	28.2	-90.0	10.6
2025-01-17 08:44:15.311354	194.9	28.0	-89.9	10.3
2025-01-17 08:44:16.459193	194.9	27.8	-90.0	6.5
2025-01-17 08:44:17.606686	195.0	27.7	-90.1	6.4
2025-01-17 08:44:18.748023	195.0	27.5	-90.4	9.5
2025-01-17 08:44:19.897175	195.1	27.3	-90.0	6.6
2025-01-17 08:44:21.040937	195.2	27.1	-90.1	3.7
2025-01-17 08:44:22.184360	195.2	26.9	-90.1	4.7
2025-01-17 08:44:23.327350	195.3	26.7	-87.1	1.9
2025-01-17 08:44:24.474182	195.3	26.5	-90.0	2.0
2025-01-17 08:44:25.620356	195.4	26.3	-90.0	6.6
2025-01-17 08:44:26.771966	195.4	26.1	-89.6	3.5
2025-01-17 08:44:27.921694	195.5	25.9	-89.8	5.5
2025-01-17 08:44:29.069298	195.5	25.8	-89.6	4.7
2025-01-17 08:44:30.215590	195.6	25.6	-89.2	4.9
2025-01-17 08:44:31.367581	195.6	25.4	-89.8	6.1
2025-01-17 08:44:32.514309	195.7	25.2	-89.9	5.8
2025-01-17 08:44:33.660087	195.7	25.0	-89.7	5.1
2025-01-17 08:44:34.806637	195.8	24.9	-89.8	9.2
2025-01-17 08:44:35.951177	195.8	24.7	-89.8	5.4
2025-01-17 08:44:37.103228	195.9	24.5	-89.5	7.1
2025-01-17 08:44:38.251838	195.9	24.3	-89.6	10.0
2025-01-17 08:44:39.399086	196.0	24.2	-89.6	9.9
2025-01-17 08:44:40.543865	196.0	24.0	-90.3	9.8
2025-01-17 08:44:41.687867	196.1	23.8	-90.6	12.9
2025-01-17 08:44:42.833294	196.1	23.7	-90.1	10.5
2025-01-17 08:44:43.977134	196.1	23.5	-89.9	9.6
2025-01-17 08:44:45.119073	196.2	23.3	-89.9	9.1
2025-01-17 08:44:46.271960	196.2	23.1	-89.9	9.4
2025-01-17 08:44:47.412087	196.3	23.0	-90.1	7.6
2025-01-17 08:44:48.558365	196.3	22.8	-90.0	5.5
2025-01-17 08:44:49.706214	196.4	22.7	-90.1	9.7
2025-01-17 08:44:50.844324	196.4	22.5	-90.2	7.5
2025-01-17 08:44:51.989036	196.4	22.3	-90.2	5.4
2025-01-17 08:44:53.131463	196.5	22.2	-89.7	6.8
2025-01-17 08:44:54.278952	196.5	22.0	-89.6	9.1
2025-01-17 08:44:55.425116	196.6	21.9	-90.2	7.9
2025-01-17 08:44:56.570590	196.6	21.7	-90.0	8.8
2025-01-17 08:44:57.720525	196.7	21.5	-90.1	9.2
2025-01-17 08:44:58.862681	196.7	21.4	-89.8	7.2
2025-01-17 08:44:59.991683	196.7	21.2	-89.8	6.1
2025-01-17 08:45:01.141841	196.8	21.1	-89.6	7.6
2025-01-17 08:45:02.283130	196.8	20.9	-89.4	7.6
2025-01-17 08:45:03.426640	196.8	20.8	-89.9	3.7
2025-01-17 08:45:04.574026	196.9	20.6	-89.6	3.8
2025-01-17 08:45:05.719053	196.9	20.5	-90.3	6.0
2025-01-17 08:45:06.868364	197.0	20.3	-90.2	6.6
2025-01-17 08:45:08.012298	197.0	20.2	-89.9	6.5
2025-01-17 08:45:09.158134	197.0	20.0	-90.0	7.0
2025-01-17 08:45:10.302200	197.1	19.9	-90.1	6.1
2025-01-17 08:45:11.448236	197.1	19.7	-89.9	3.2
2025-01-17 08:45:12.588701	197.1	19.6	-90.3	4.0
2025-01-17 08:45:13.736689	197.2	19.4	-90.0	6.8
2025-01-17 08:45:14.884269	197.2	19.3	-90.1	7.2
2025-01-17 08:45:16.023082	197.2	19.2	-90.1	3.4
2025-01-17 08:45:17.171963	197.3	19.0	-89.4	3.3
2025-01-17 08:45:18.318067	197.3	18.9	-89.9	3.8
2025-01-17 08:45:19.467739	197.3	18.7	-90.2	3.8
2025-01-17 08:45:20.615002	197.4	18.6	-89.7	3.8
2025-01-17 08:45:21.764920	197.4	18.5	-89.7	4.5
2025-01-17 08:45:22.914948	197.5	18.3	-90.2	4.6
2025-01-17 08:45:24.055099	197.5	18.2	-90.2	3.9
2025-01-17 08:45:25.201225	197.5	18.1	-90.1	2.2
2025-01-17 08:45:26.345296	197.5	17.9	-90.2	3.6
2025-01-17 08:45:27.492017	197.6	17.8	-90.3	4.3
2025-01-17 08:45:28.636438	197.6	17.6	-90.1	4.2
2025-01-17 08:45:29.784165	197.6	17.5	-90.1	2.2
2025-01-17 08:45:30.933980	197.7	17.4	-90.3	3.6
2025-01-17 08:45:32.075599	197.7	17.2	-90.0	2.6
2025-01-17 08:45:33.228324	197.7	17.1	-90.3	3.3
2025-01-17 08:45:34.373039	197.8	17.0	-89.9	3.8
2025-01-17 08:45:35.516736	197.8	16.9	-89.8	3.5
2025-01-17 08:45:36.664236	197.8	16.7	-90.0	3.3
2025-01-17 08:45:37.808253	197.9	16.6	-90.7	3.6
2025-01-17 08:45:38.957801	197.9	16.5	-90.0	1.9
2025-01-17 08:45:40.099374	197.9	16.3	-89.9	2.1
2025-01-17 08:45:41.247283	198.0	16.2	-89.5	2.6
2025-01-17 08:45:42.393009	198.0	16.1	-89.4	2.3
2025-01-17 08:45:43.538593	198.0	16.0	-89.8	3.3
2025-01-17 08:45:44.684315	198.0	15.8	-89.4	4.2
2025-01-17 08:45:45.827964	198.1	15.7	-89.6	4.1
2025-01-17 08:45:46.968826	198.1	15.6	-89.8	2.5
2025-01-17 08:45:48.117517	198.1	15.5	-90.0	3.5
2025-01-17 08:45:49.259936	198.2	15.4	-90.0	2.2
2025-01-17 08:45:50.408351	198.2	15.2	-90.2	3.1
2025-01-17 08:45:51.556987	198.2	15.1	-89.6	2.8
2025-01-17 08:45:52.700646	198.2	15.0	-90.2	2.7
2025-01-17 08:45:53.843662	198.3	14.9	-89.8	2.0
2025-01-17 08:45:54.998130	198.3	14.7	-90.1	1.8
2025-01-17 08:45:56.142107	198.3	14.6	-89.6	2.0
2025-01-17 08:45:57.295715	198.3	14.5	-90.3	1.8
#Closed at: 2025-01-17 08:36:42.048550