passes_logs/2026/01/18/R2M6_AANII_01/R2M6_AANII_01__20260118_224037_NOAA_20_JPSS-1_rec.log

#Pass ID: 20260118_224037_NOAA 20 (JPSS-1)
#Satellite: NOAA 20 (JPSS-1)
#Configuration: NOAA 20
#almurnet v.1.7.20240730
#Start time: 2026-01-18 22:40:38

#Version: 2.2.20231116
#Station: R2M6_AANII_01
#Location: 30.233357 lon 59.946436 lat
#TLE: 1 43013U 17073A   26017.93796159  .00000077  00000+0  57252-4 0  9992
#TLE: 2 43013  98.7639 318.8464 0001390  34.9771 325.1496 14.19536703423157

#Time	Az	El	Level	Level2	SNR	BER	BlckErr	Temp	State	Recorded	gain1	gain2
2026-01-18 22:40:38.92	30.75	7.09	-31.9	-38.4	5.1	1.19e+00	0	41	0	0	23	7533
2026-01-18 22:40:39.91	30.85	7.15	-32.3	-39.7	4.8	1.25e+00	0	42	104	0	24	8448
2026-01-18 22:40:40.92	30.95	7.21	-32.5	-40.1	6.1	2.92e-01	0	42	0	0	25	8595
2026-01-18 22:40:41.92	31.05	7.27	-32.3	-39.4	7.0	1.97e-01	0	41	0	1048576	24	8132
2026-01-18 22:40:42.93	31.15	7.34	-32.1	-38.2	8.0	9.11e-02	0	42	0	3145728	24	7281
2026-01-18 22:40:43.93	31.25	7.40	-32.0	-37.9	8.3	5.94e-02	0	42	0	5242880	24	7075
2026-01-18 22:40:44.93	31.35	7.46	-31.8	-37.7	8.7	6.33e-02	0	42	0	7340032	23	7050
2026-01-18 22:40:45.93	31.45	7.52	-31.8	-37.4	9.0	2.43e-02	0	42	0	9437184	23	6857
2026-01-18 22:40:46.94	31.55	7.58	-31.8	-37.6	8.9	2.84e-02	0	42	0	10485760	23	6954
2026-01-18 22:40:47.94	31.65	7.65	-31.7	-37.0	9.3	2.21e-02	0	42	0	12582912	23	6639
2026-01-18 22:40:48.94	31.75	7.71	-31.5	-36.4	9.9	8.65e-03	0	42	0	14680064	23	6304
2026-01-18 22:40:49.95	31.85	7.77	-31.5	-36.3	9.9	9.55e-03	0	42	0	16777216	23	6248
2026-01-18 22:40:50.95	31.96	7.83	-31.6	-36.4	9.9	8.22e-03	0	42	0	17825792	23	6298
2026-01-18 22:40:51.95	32.06	7.90	-31.5	-36.2	10.0	7.44e-03	0	42	0	19922944	23	6190
2026-01-18 22:40:52.95	32.16	7.96	-31.4	-35.8	10.4	5.29e-03	0	42	0	22020096	23	5986
2026-01-18 22:40:53.96	32.27	8.02	-31.5	-36.5	10.2	5.45e-03	0	42	0	24117248	22	6445
2026-01-18 22:40:54.96	32.37	8.08	-31.4	-36.3	10.4	4.39e-03	0	42	0	26214400	22	6337
2026-01-18 22:40:55.96	32.47	8.15	-31.6	-36.4	10.0	8.58e-03	0	42	0	27262976	23	6295
2026-01-18 22:40:56.96	32.58	8.21	-31.5	-36.5	10.3	5.42e-03	0	42	0	29360128	22	6409
2026-01-18 22:40:57.96	32.68	8.27	-31.5	-36.0	10.3	7.21e-03	0	42	0	31457280	23	6053
2026-01-18 22:40:58.96	32.79	8.34	-31.5	-36.1	10.2	4.39e-03	0	42	0	33554432	23	6083
2026-01-18 22:40:59.96	32.90	8.40	-31.7	-36.8	9.7	1.29e-02	0	42	0	35651584	23	6467
2026-01-18 22:41:00.96	33.00	8.46	-31.6	-36.5	9.9	1.07e-02	0	42	0	36700160	23	6336
2026-01-18 22:41:01.96	33.11	8.52	-31.6	-36.5	9.9	7.75e-03	0	42	0	38797312	23	6317
2026-01-18 22:41:02.97	33.22	8.59	-31.7	-36.9	9.7	9.57e-03	0	42	0	40894464	23	6522
2026-01-18 22:41:03.97	33.33	8.65	-31.6	-36.5	9.9	1.18e-02	0	42	0	42991616	23	6318
2026-01-18 22:41:04.98	33.44	8.72	-31.7	-36.6	9.9	7.49e-03	0	42	0	45088768	23	6377
2026-01-18 22:41:05.98	33.54	8.78	-31.5	-36.2	10.3	8.33e-03	0	42	0	46137344	23	6145
2026-01-18 22:41:06.98	33.65	8.84	-31.6	-36.4	10.1	7.10e-03	0	42	0	48234496	23	6240
2026-01-18 22:41:07.98	33.76	8.91	-31.6	-36.4	10.0	8.57e-03	0	42	0	50331648	23	6243
2026-01-18 22:41:08.99	33.87	8.97	-31.7	-36.9	9.7	1.17e-02	0	43	0	52428800	23	6516
2026-01-18 22:41:09.99	33.98	9.03	-31.5	-35.9	10.4	7.53e-03	0	42	0	54525952	23	6001
2026-01-18 22:41:10.99	34.10	9.10	-31.2	-35.1	11.1	2.46e-03	0	42	0	55574528	23	5621
2026-01-18 22:41:11.99	34.21	9.16	-31.2	-35.3	11.2	1.61e-03	0	42	0	57671680	22	5821
2026-01-18 22:41:12.99	34.32	9.23	-31.2	-35.4	11.2	1.42e-03	0	42	0	59768832	22	5862
2026-01-18 22:41:14.00	34.43	9.29	-31.5	-36.0	10.4	2.43e-03	0	42	0	61865984	23	6037
2026-01-18 22:41:15.01	34.55	9.36	-31.3	-35.8	10.9	3.87e-03	0	43	0	62914560	22	6051
2026-01-18 22:41:16.00	34.66	9.42	-31.4	-35.9	10.9	2.41e-03	0	43	0	65011712	22	6103
2026-01-18 22:41:17.01	34.77	9.48	-31.2	-35.5	11.2	1.73e-03	0	42	0	67108864	22	5887
2026-01-18 22:41:18.01	34.89	9.55	-31.4	-36.1	10.8	1.83e-03	0	43	0	69206016	22	6160
2026-01-18 22:41:19.02	35.00	9.61	-31.3	-35.6	11.1	2.80e-03	0	43	0	71303168	22	5943
2026-01-18 22:41:20.02	35.12	9.68	-31.4	-36.0	10.8	2.22e-03	0	43	0	73400320	22	6116
2026-01-18 22:41:21.03	35.24	9.74	-31.3	-35.6	11.1	2.31e-03	0	43	0	74448896	22	5955
2026-01-18 22:41:22.03	35.35	9.81	-31.5	-36.1	10.5	2.07e-03	0	43	0	76546048	23	6048
2026-01-18 22:41:23.03	35.47	9.87	-31.2	-34.9	11.3	1.73e-03	0	43	0	78643200	23	5514
2026-01-18 22:41:24.04	35.59	9.94	-31.1	-34.9	11.6	7.76e-04	0	43	0	80740352	22	5634
2026-01-18 22:41:25.03	35.71	10.00	-31.3	-35.8	11.1	1.21e-03	0	43	0	81788928	22	6022
2026-01-18 22:41:26.04	35.83	10.07	-31.0	-34.8	11.7	6.71e-04	0	43	0	83886080	22	5560
2026-01-18 22:41:27.05	35.95	10.13	-31.0	-34.7	11.8	7.71e-04	0	43	0	85983232	22	5519
2026-01-18 22:41:28.05	36.06	10.20	-31.1	-35.1	11.6	7.05e-04	0	43	0	88080384	22	5671
2026-01-18 22:41:29.05	36.18	10.26	-31.1	-35.1	11.6	7.20e-04	0	43	0	90177536	22	5697
2026-01-18 22:41:30.05	36.30	10.33	-31.2	-35.2	11.4	9.36e-04	0	43	0	91226112	22	5763
2026-01-18 22:41:31.05	36.43	10.39	-31.0	-34.7	11.8	8.37e-04	0	43	0	93323264	22	5541
2026-01-18 22:41:32.05	36.55	10.46	-30.9	-34.4	12.1	2.82e-04	0	43	0	95420416	22	5379
2026-01-18 22:41:33.06	36.67	10.53	-31.3	-35.7	11.2	1.09e-03	0	43	0	97517568	22	5961
2026-01-18 22:41:34.06	36.79	10.59	-31.2	-35.3	11.5	1.27e-03	0	43	0	99614720	22	5774
2026-01-18 22:41:35.06	36.92	10.66	-31.5	-35.9	10.6	1.41e-03	0	43	0	100663296	23	5965
2026-01-18 22:41:36.06	37.04	10.72	-31.1	-34.4	11.7	1.53e-03	0	43	0	102760448	23	5300
2026-01-18 22:41:37.06	37.16	10.79	-31.0	-34.4	11.8	5.39e-04	0	43	0	104857600	23	5269
2026-01-18 22:41:38.06	37.29	10.85	-31.1	-34.4	11.8	8.43e-04	0	43	0	106954752	23	5294
2026-01-18 22:41:39.06	37.41	10.92	-31.1	-34.6	11.6	3.07e-04	0	43	0	108003328	23	5356
2026-01-18 22:41:40.05	37.54	10.98	-31.3	-35.2	11.2	1.78e-03	0	43	0	110100480	23	5648
2026-01-18 22:41:41.05	37.66	11.05	-31.1	-34.5	11.6	7.91e-04	0	43	0	112197632	23	5366
2026-01-18 22:41:42.05	37.79	11.12	-31.1	-34.5	11.7	7.35e-04	0	43	0	114294784	23	5309
2026-01-18 22:41:43.06	37.92	11.18	-31.1	-34.5	11.7	6.53e-04	0	43	0	116391936	23	5330
2026-01-18 22:41:44.07	38.05	11.25	-31.1	-34.6	11.6	4.94e-04	0	43	0	118489088	23	5372
2026-01-18 22:41:45.07	38.18	11.32	-31.1	-34.6	11.6	5.68e-04	0	43	0	119537664	23	5386
2026-01-18 22:41:46.08	38.31	11.38	-31.2	-34.9	11.4	8.14e-04	0	43	0	121634816	23	5494
2026-01-18 22:41:47.08	38.44	11.45	-31.1	-34.5	11.7	6.58e-04	0	43	0	123731968	23	5340
2026-01-18 22:41:48.08	38.57	11.52	-30.9	-33.8	12.2	3.29e-04	0	43	0	125829120	23	5035
2026-01-18 22:41:49.08	38.70	11.58	-30.8	-34.0	12.5	1.93e-04	0	43	0	126877696	22	5203
2026-01-18 22:41:50.08	38.83	11.65	-30.8	-34.1	12.4	1.57e-04	0	43	0	128974848	22	5274
2026-01-18 22:41:51.08	38.96	11.71	-30.8	-34.1	12.4	1.65e-04	0	43	0	131072000	22	5266
2026-01-18 22:41:52.08	39.09	11.78	-30.8	-33.9	12.6	5.49e-05	0	43	0	133169152	22	5177
2026-01-18 22:41:53.09	39.23	11.85	-30.7	-33.9	12.6	1.48e-04	0	43	0	135266304	22	5166
2026-01-18 22:41:54.09	39.36	11.91	-30.8	-34.0	12.5	1.47e-04	0	43	0	136314880	22	5207
2026-01-18 22:41:55.10	39.50	11.98	-30.8	-33.9	12.6	9.68e-05	0	43	0	138412032	22	5187
2026-01-18 22:41:56.10	39.63	12.05	-30.9	-34.2	12.3	1.20e-04	0	43	0	140509184	22	5306
2026-01-18 22:41:57.11	39.77	12.12	-30.9	-34.3	12.3	1.43e-04	0	43	0	142606336	22	5344
2026-01-18 22:41:58.11	39.90	12.18	-31.0	-34.6	12.1	2.88e-04	0	43	0	144703488	22	5438
2026-01-18 22:41:59.11	40.04	12.25	-30.9	-34.3	12.3	1.74e-04	0	43	0	145752064	22	5340
2026-01-18 22:42:00.11	40.18	12.32	-30.7	-33.6	12.8	1.31e-04	0	43	0	147849216	22	5068
2026-01-18 22:42:01.12	40.32	12.38	-30.7	-33.7	12.7	8.39e-05	0	43	0	149946368	22	5104
2026-01-18 22:42:02.12	40.46	12.45	-30.7	-33.6	12.9	8.92e-05	0	43	0	152043520	22	5036
2026-01-18 22:42:03.13	40.60	12.52	-30.7	-33.8	12.7	6.86e-05	0	43	0	154140672	22	5134
2026-01-18 22:42:04.13	40.74	12.58	-30.8	-34.0	12.6	2.28e-04	0	43	0	155189248	22	5205
2026-01-18 22:42:05.14	40.88	12.65	-30.6	-33.5	12.9	7.62e-05	0	43	0	157286400	22	5004
2026-01-18 22:42:06.14	41.02	12.72	-30.7	-33.7	12.8	5.11e-05	0	43	0	159383552	22	5067
2026-01-18 22:42:07.13	41.16	12.79	-30.7	-33.8	12.7	8.16e-05	0	43	0	161480704	22	5121
2026-01-18 22:42:08.14	41.30	12.85	-30.6	-33.4	13.0	4.57e-05	0	43	0	163577856	22	4976
2026-01-18 22:42:09.14	41.44	12.92	-30.6	-33.3	13.1	6.25e-05	0	43	0	164626432	22	4945
2026-01-18 22:42:10.14	41.59	12.99	-30.6	-33.4	13.1	2.82e-05	0	43	0	166723584	22	4955
2026-01-18 22:42:11.14	41.73	13.05	-30.6	-33.4	12.9	5.87e-05	0	43	0	168820736	22	4986
2026-01-18 22:42:12.14	41.88	13.12	-30.6	-33.5	12.9	3.58e-05	0	43	0	170917888	22	5007
2026-01-18 22:42:13.14	42.02	13.19	-30.6	-33.4	13.0	3.58e-05	0	43	0	171966464	22	4966
2026-01-18 22:42:14.15	42.17	13.26	-30.7	-33.6	12.9	3.43e-05	0	43	0	174063616	22	5034
2026-01-18 22:42:15.15	42.32	13.32	-30.9	-34.1	12.5	9.46e-05	0	43	0	176160768	22	5252
2026-01-18 22:42:16.15	42.46	13.39	-30.8	-33.9	12.7	9.23e-05	0	43	0	178257920	22	5154
2026-01-18 22:42:17.15	42.61	13.46	-30.7	-33.8	12.8	7.62e-05	0	43	0	180355072	22	5098
2026-01-18 22:42:18.16	42.76	13.53	-30.7	-33.7	12.8	7.85e-05	0	44	0	181403648	22	5090
2026-01-18 22:42:19.16	42.91	13.59	-30.8	-33.8	12.8	7.85e-05	0	44	0	183500800	22	5127
2026-01-18 22:42:20.16	43.06	13.66	-30.6	-33.4	13.0	4.50e-05	0	43	0	185597952	22	4973
2026-01-18 22:42:21.16	43.21	13.73	-30.8	-33.8	12.7	7.09e-05	0	44	0	187695104	22	5128
2026-01-18 22:42:22.16	43.36	13.80	-30.5	-33.5	13.2	2.83e-04	0	43	0	189792256	21	5118
2026-01-18 22:42:23.17	43.51	13.86	-30.5	-33.7	13.1	4.04e-05	0	43	0	190840832	21	5179
2026-01-18 22:42:24.17	43.67	13.93	-30.6	-33.9	13.1	2.82e-05	0	43	0	192937984	21	5246
2026-01-18 22:42:25.17	43.82	14.00	-30.5	-33.7	13.2	6.42e-04	0	43	0	195035136	21	5158
2026-01-18 22:42:26.16	43.97	14.07	-30.6	-33.8	13.1	9.21e-04	0	43	0	197132288	21	5229
2026-01-18 22:42:27.17	44.13	14.13	-30.6	-33.9	13.1	2.36e-05	0	43	0	199229440	21	5245
2026-01-18 22:42:28.17	44.28	14.20	-30.8	-34.5	12.7	6.45e-04	0	44	0	200278016	21	5485
2026-01-18 22:42:29.17	44.44	14.27	-30.8	-34.4	12.7	7.24e-04	0	43	0	202375168	21	5457
2026-01-18 22:42:30.17	44.60	14.34	-30.8	-34.4	12.7	6.10e-05	0	43	0	204472320	21	5448
2026-01-18 22:42:31.18	44.75	14.40	-30.7	-34.2	12.9	3.32e-04	0	43	0	206569472	21	5361
2026-01-18 22:42:32.18	44.91	14.47	-30.8	-34.5	12.6	1.06e-04	0	43	0	208666624	21	5503
2026-01-18 22:42:33.18	45.07	14.54	-30.7	-34.1	12.9	8.77e-05	0	43	0	209715200	21	5339
2026-01-18 22:42:34.19	45.23	14.61	-30.7	-34.2	12.9	5.87e-05	0	43	0	211812352	21	5379
2026-01-18 22:42:35.19	45.39	14.67	-30.8	-34.4	12.8	4.34e-05	0	43	0	213909504	21	5449
2026-01-18 22:42:36.19	45.55	14.74	-30.7	-34.1	12.9	7.32e-05	0	44	0	216006656	21	5334
2026-01-18 22:42:37.20	45.72	14.81	-30.7	-34.0	13.0	5.26e-05	0	43	0	217055232	21	5309
2026-01-18 22:42:38.20	45.88	14.88	-30.7	-34.2	12.9	4.19e-05	0	43	0	219152384	21	5367
2026-01-18 22:42:39.21	46.04	14.94	-30.8	-34.4	12.8	7.55e-05	0	44	0	221249536	21	5461
2026-01-18 22:42:40.20	46.20	15.01	-30.8	-34.3	12.8	9.07e-05	0	43	0	223346688	21	5405
2026-01-18 22:42:41.21	46.37	15.08	-30.9	-34.7	12.5	1.01e-04	0	44	0	225443840	21	5578
2026-01-18 22:42:42.21	46.54	15.14	-30.8	-34.3	12.8	7.78e-05	0	43	0	226492416	21	5421
2026-01-18 22:42:43.21	46.70	15.21	-30.8	-34.5	12.8	2.00e-04	0	44	0	228589568	21	5473
2026-01-18 22:42:44.22	46.87	15.28	-30.8	-34.4	12.8	6.17e-05	0	44	0	230686720	21	5440
2026-01-18 22:42:45.21	47.04	15.35	-30.7	-34.2	12.9	6.17e-05	0	43	0	232783872	21	5367
2026-01-18 22:42:46.22	47.20	15.41	-30.7	-34.2	12.9	1.22e-04	0	44	0	234881024	21	5371
2026-01-18 22:42:47.22	47.37	15.48	-30.8	-34.3	12.8	1.90e-04	0	43	0	235929600	21	5400
2026-01-18 22:42:48.22	47.54	15.55	-30.6	-33.8	13.2	1.67e-05	0	43	0	238026752	21	5216
2026-01-18 22:42:49.23	47.71	15.61	-30.6	-33.8	13.2	1.80e-04	0	44	0	240123904	21	5206
2026-01-18 22:42:50.24	47.89	15.68	-30.7	-34.0	13.0	5.49e-05	0	44	0	242221056	21	5282
2026-01-18 22:42:51.24	48.06	15.75	-30.8	-34.4	12.9	4.34e-05	0	44	0	244318208	21	5437
2026-01-18 22:42:52.25	48.23	15.82	-30.9	-34.7	12.7	6.33e-05	0	43	0	245366784	21	5541
2026-01-18 22:42:53.25	48.41	15.88	-30.7	-33.9	13.2	7.85e-05	0	44	0	247463936	21	5243
2026-01-18 22:42:54.25	48.58	15.95	-30.6	-33.7	13.3	2.36e-05	0	44	0	249561088	21	5168
2026-01-18 22:42:55.25	48.76	16.02	-30.5	-33.6	13.3	1.83e-05	0	43	0	251658240	21	5125
2026-01-18 22:42:56.26	48.93	16.08	-30.5	-33.5	13.5	1.37e-05	0	44	0	253755392	21	5090
2026-01-18 22:42:57.26	49.11	16.15	-30.4	-33.2	13.6	7.60e-06	0	44	0	254803968	21	4983
2026-01-18 22:42:58.25	49.28	16.21	-30.4	-33.2	13.7	7.60e-06	0	44	0	256901120	21	4969
2026-01-18 22:42:59.26	49.46	16.28	-30.4	-33.1	13.6	3.80e-06	0	43	0	258998272	21	4949
2026-01-18 22:43:00.25	49.64	16.35	-30.4	-33.2	13.7	1.06e-05	0	44	0	261095424	21	4951
2026-01-18 22:43:01.26	49.82	16.41	-30.2	-32.7	14.0	5.18e-05	0	43	0	262144000	21	4779
2026-01-18 22:43:02.25	50.00	16.48	-30.2	-32.7	14.0	2.20e-06	0	44	0	264241152	21	4781
2026-01-18 22:43:03.25	50.18	16.54	-30.3	-32.9	13.9	3.80e-06	0	44	0	266338304	21	4866
2026-01-18 22:43:04.26	50.36	16.61	-30.3	-33.3	13.9	2.45e-04	0	43	0	268435456	20	5130
2026-01-18 22:43:05.27	50.55	16.68	-30.3	-33.3	13.9	2.20e-06	0	44	0	270532608	20	5120
2026-01-18 22:43:06.26	50.73	16.74	-30.1	-32.9	14.2	3.80e-06	0	44	0	271581184	20	4968
2026-01-18 22:43:07.27	50.91	16.81	-30.2	-33.1	14.1	3.39e-04	0	43	0	273678336	20	5032
2026-01-18 22:43:08.28	51.10	16.87	-30.2	-33.1	14.0	1.50e-06	0	44	0	275775488	20	5048
2026-01-18 22:43:09.28	51.29	16.94	-30.3	-33.5	13.8	4.50e-06	0	44	0	277872640	20	5191
2026-01-18 22:43:10.28	51.47	17.00	-30.2	-33.1	14.1	1.50e-06	0	43	0	279969792	20	5031
2026-01-18 22:43:11.29	51.66	17.07	-30.2	-33.1	14.1	3.66e-04	0	44	0	281018368	20	5047
2026-01-18 22:43:12.29	51.85	17.13	-30.2	-33.1	14.0	7.00e-07	0	44	0	283115520	20	5025
2026-01-18 22:43:13.29	52.04	17.20	-30.1	-33.0	14.2	7.00e-07	0	44	0	285212672	20	4995
2026-01-18 22:43:14.28	52.23	17.26	-30.2	-33.1	14.1	3.00e-06	0	44	0	287309824	20	5054
2026-01-18 22:43:15.29	52.42	17.33	-30.3	-33.3	14.0	7.00e-07	0	44	0	289406976	20	5101
2026-01-18 22:43:16.29	52.61	17.39	-30.2	-33.1	14.1	1.50e-06	0	44	0	290455552	20	5057
2026-01-18 22:43:17.29	52.80	17.46	-30.0	-32.7	14.4	0.00e+00	0	44	0	292552704	20	4880
2026-01-18 22:43:18.29	52.99	17.52	-30.1	-32.8	14.2	7.00e-07	0	43	0	294649856	20	4936
2026-01-18 22:43:19.29	53.19	17.59	-30.2	-33.1	14.1	1.50e-06	0	44	0	296747008	20	5044
2026-01-18 22:43:20.29	53.38	17.65	-30.1	-33.0	14.1	3.80e-06	0	44	0	298844160	20	5010
2026-01-18 22:43:21.29	53.58	17.71	-30.0	-32.7	14.4	0.00e+00	0	44	0	299892736	20	4893
2026-01-18 22:43:22.29	53.77	17.78	-30.0	-32.7	14.4	1.50e-06	0	44	0	301989888	20	4899
2026-01-18 22:43:23.30	53.97	17.84	-30.1	-32.8	14.3	1.50e-06	0	44	0	304087040	20	4926
2026-01-18 22:43:24.30	54.17	17.90	-30.2	-33.0	14.2	1.50e-06	0	44	0	306184192	20	5016
2026-01-18 22:43:25.31	54.37	17.97	-30.2	-33.0	14.2	4.52e-04	0	44	0	307232768	20	5013
2026-01-18 22:43:26.31	54.57	18.03	-30.2	-33.2	14.1	7.00e-07	0	44	0	309329920	20	5069
2026-01-18 22:43:27.32	54.77	18.09	-30.3	-33.4	13.9	2.20e-06	0	44	0	311427072	20	5159
2026-01-18 22:43:28.32	54.97	18.16	-30.4	-33.7	13.8	6.10e-06	0	44	0	313524224	20	5262
2026-01-18 22:43:29.32	55.17	18.22	-30.4	-33.7	13.7	4.50e-06	0	44	0	315621376	20	5273
2026-01-18 22:43:30.32	55.37	18.28	-30.5	-33.6	13.5	9.10e-06	0	44	0	317718528	21	5107
2026-01-18 22:43:31.31	55.57	18.34	-30.5	-33.5	13.5	6.80e-06	0	44	0	318767104	21	5087
2026-01-18 22:43:32.32	55.78	18.40	-30.6	-33.7	13.5	1.14e-05	0	44	0	320864256	21	5141
2026-01-18 22:43:33.31	55.98	18.47	-30.6	-33.8	13.3	1.98e-05	0	44	0	322961408	21	5181
2026-01-18 22:43:34.31	56.19	18.53	-30.6	-33.7	13.5	9.90e-06	0	44	0	325058560	21	5140
2026-01-18 22:43:35.32	56.40	18.59	-30.5	-33.6	13.6	7.60e-06	0	44	0	326107136	21	5092
2026-01-18 22:43:36.32	56.60	18.65	-30.7	-33.9	13.3	1.22e-05	0	44	0	328204288	21	5206
2026-01-18 22:43:37.32	56.81	18.71	-30.8	-34.2	13.1	2.21e-05	0	44	0	330301440	21	5350
2026-01-18 22:43:38.33	57.02	18.77	-30.9	-34.4	13.0	2.82e-05	0	44	0	332398592	21	5418
2026-01-18 22:43:39.33	57.23	18.83	-30.8	-34.4	13.0	3.28e-05	0	44	0	334495744	21	5429
2026-01-18 22:43:40.34	57.45	18.89	-31.0	-34.7	12.8	5.49e-05	0	44	0	335544320	21	5531
2026-01-18 22:43:41.34	57.66	18.95	-31.1	-34.5	12.6	6.63e-05	0	44	0	337641472	22	5351
2026-01-18 22:43:42.35	57.87	19.01	-31.1	-34.7	12.5	1.29e-04	0	44	0	339738624	22	5405
2026-01-18 22:43:43.35	58.08	19.07	-30.4	-34.1	12.4	1.48e-04	0	44	0	341835776	22	5499
2026-01-18 22:43:44.36	58.30	19.13	-31.2	-35.0	12.3	1.28e-04	0	44	0	343932928	22	5531
2026-01-18 22:43:45.36	58.51	19.19	-31.4	-35.3	12.0	2.84e-04	0	44	0	344981504	22	5692
2026-01-18 22:43:46.36	58.73	19.25	-31.4	-35.4	12.0	2.64e-04	0	44	0	347078656	22	5708
2026-01-18 22:43:47.36	58.95	19.31	-31.4	-35.1	11.9	4.13e-04	0	44	0	349175808	23	5480
2026-01-18 22:43:48.36	59.16	19.37	-31.4	-35.0	11.9	3.98e-04	0	44	0	351272960	23	5448
2026-01-18 22:43:49.36	59.38	19.42	-31.4	-35.1	11.8	3.94e-04	0	44	0	352321536	23	5489
2026-01-18 22:43:50.36	59.60	19.48	-31.5	-35.2	11.9	4.55e-04	0	44	0	354418688	23	5502
2026-01-18 22:43:51.37	59.82	19.54	-31.5	-35.3	11.8	4.12e-04	0	44	0	356515840	23	5548
2026-01-18 22:43:52.37	60.04	19.60	-31.5	-35.3	11.8	6.04e-04	0	44	0	358612992	23	5586
2026-01-18 22:43:53.38	60.26	19.65	-31.5	-35.3	11.8	4.23e-04	0	44	0	360710144	23	5564
2026-01-18 22:43:54.38	60.49	19.71	-31.5	-35.3	11.7	5.39e-04	0	44	0	362807296	23	5578
2026-01-18 22:43:55.38	60.71	19.77	-31.5	-35.3	11.7	6.62e-04	0	44	0	363855872	23	5581
2026-01-18 22:43:56.39	60.93	19.82	-31.5	-35.2	11.9	4.87e-04	0	44	0	365953024	23	5522
2026-01-18 22:43:57.39	61.16	19.88	-31.5	-35.1	11.9	3.80e-04	0	44	0	368050176	23	5479
2026-01-18 22:43:58.39	61.38	19.93	-31.5	-35.2	11.9	3.55e-04	0	44	0	370147328	23	5526
2026-01-18 22:43:59.39	61.61	19.99	-31.5	-35.1	11.9	4.43e-04	0	44	0	371195904	23	5492
2026-01-18 22:44:00.40	61.84	20.04	-31.5	-35.2	11.8	3.86e-04	0	44	0	373293056	23	5504
2026-01-18 22:44:01.40	62.07	20.10	-31.5	-35.1	11.9	3.93e-04	0	44	0	375390208	23	5454
2026-01-18 22:44:02.41	62.30	20.15	-31.4	-35.1	11.9	3.68e-04	0	44	0	377487360	23	5475
2026-01-18 22:44:03.41	62.52	20.21	-31.4	-34.9	12.0	5.63e-04	0	44	0	379584512	23	5397
2026-01-18 22:44:04.41	62.75	20.26	-31.5	-35.6	12.0	3.02e-04	0	44	0	380633088	22	5808
2026-01-18 22:44:05.41	62.99	20.31	-31.4	-35.6	12.0	3.43e-04	0	44	0	382730240	22	5784
2026-01-18 22:44:06.41	63.22	20.37	-31.3	-35.2	12.2	7.01e-04	0	44	0	384827392	22	5626
2026-01-18 22:44:07.41	63.45	20.42	-31.2	-35.0	12.3	1.07e-03	0	44	0	386924544	22	5530
2026-01-18 22:44:08.41	63.68	20.47	-31.2	-34.7	12.6	1.27e-04	0	44	0	389021696	22	5420
2026-01-18 22:44:09.41	63.92	20.52	-31.2	-34.9	12.4	1.09e-04	0	44	0	390070272	22	5484
2026-01-18 22:44:10.42	64.15	20.57	-31.3	-35.1	12.3	1.62e-03	0	44	0	392167424	22	5599
2026-01-18 22:44:11.42	64.39	20.62	-31.5	-35.7	11.9	2.33e-04	0	44	0	394264576	22	5844
2026-01-18 22:44:12.42	64.62	20.67	-31.7	-35.7	11.5	8.20e-04	0	44	0	396361728	23	5765
2026-01-18 22:44:13.42	64.86	20.72	-31.6	-35.5	11.6	1.93e-03	0	44	0	398458880	23	5671
2026-01-18 22:44:14.42	65.10	20.77	-31.7	-35.8	11.4	1.28e-03	0	44	0	399507456	23	5798
2026-01-18 22:44:15.42	65.34	20.82	-31.5	-35.1	11.9	5.97e-04	0	44	0	401604608	23	5467
2026-01-18 22:44:16.43	65.58	20.87	-31.2	-34.9	12.4	1.25e-03	0	44	0	403701760	22	5494
2026-01-18 22:44:17.44	65.82	20.92	-31.2	-34.8	12.5	1.01e-04	0	44	0	405798912	22	5470
2026-01-18 22:44:18.44	66.06	20.97	-31.3	-35.0	12.3	1.27e-04	0	44	0	407896064	22	5552
2026-01-18 22:44:19.44	66.30	21.02	-31.3	-35.0	12.3	1.79e-04	0	44	0	408944640	22	5557
2026-01-18 22:44:20.45	66.55	21.07	-31.4	-35.3	12.1	2.01e-04	0	44	0	411041792	22	5669
2026-01-18 22:44:21.45	66.79	21.11	-31.4	-35.3	12.2	6.51e-04	0	44	0	413138944	22	5678
2026-01-18 22:44:22.45	67.03	21.16	-31.2	-34.8	12.5	1.62e-04	0	44	0	415236096	22	5440
2026-01-18 22:44:23.45	67.28	21.20	-31.1	-34.5	12.7	9.91e-05	0	44	0	416284672	22	5344
2026-01-18 22:44:24.45	67.52	21.25	-31.1	-34.4	12.8	5.72e-04	0	44	0	418381824	22	5305
2026-01-18 22:44:25.45	67.77	21.30	-31.1	-34.5	12.7	4.49e-04	0	44	0	420478976	22	5333
2026-01-18 22:44:26.46	68.02	21.34	-31.1	-34.6	12.6	8.85e-05	0	44	0	422576128	22	5396
2026-01-18 22:44:27.46	68.26	21.38	-31.3	-35.0	12.4	1.50e-04	0	44	0	424673280	22	5546
2026-01-18 22:44:28.46	68.51	21.43	-31.3	-35.2	12.3	2.68e-04	0	44	0	425721856	22	5620
2026-01-18 22:44:29.46	68.76	21.47	-31.2	-34.7	12.6	1.22e-04	0	44	0	427819008	22	5417
2026-01-18 22:44:30.47	69.01	21.51	-31.1	-34.4	12.8	1.02e-04	0	44	0	429916160	22	5305
2026-01-18 22:44:31.47	69.26	21.56	-30.9	-33.9	13.1	2.36e-04	0	44	0	432013312	22	5112
2026-01-18 22:44:32.47	69.51	21.60	-30.9	-33.8	13.3	2.28e-05	0	44	0	434110464	22	5053
2026-01-18 22:44:33.48	69.76	21.64	-30.8	-33.7	13.3	3.05e-05	0	44	0	435159040	22	5023
2026-01-18 22:44:34.48	70.02	21.68	-30.6	-33.2	13.6	6.10e-06	0	44	0	437256192	22	4846
2026-01-18 22:44:35.49	70.27	21.72	-30.6	-33.1	13.7	4.50e-06	0	44	0	439353344	22	4816
2026-01-18 22:44:36.49	70.52	21.76	-30.6	-33.0	13.7	3.80e-06	0	44	0	441450496	22	4787
2026-01-18 22:44:37.49	70.78	21.80	-30.6	-33.2	13.6	7.60e-06	0	44	0	443547648	22	4840
2026-01-18 22:44:38.49	71.03	21.84	-30.6	-33.1	13.7	2.05e-05	0	44	0	444596224	22	4814
2026-01-18 22:44:39.50	71.29	21.88	-30.5	-32.8	13.9	5.79e-05	0	44	0	446693376	22	4686
2026-01-18 22:44:40.49	71.54	21.92	-30.3	-32.9	14.1	4.65e-05	0	44	0	448790528	21	4853
2026-01-18 22:44:41.49	71.80	21.95	-30.4	-33.1	13.9	3.00e-06	0	44	0	450887680	21	4921
2026-01-18 22:44:42.49	72.05	21.99	-30.5	-33.3	13.9	6.10e-05	0	44	0	452984832	21	4967
2026-01-18 22:44:43.49	72.31	22.03	-30.5	-33.3	13.8	8.39e-05	0	44	0	454033408	21	4971
2026-01-18 22:44:44.50	72.57	22.06	-30.4	-33.2	13.9	2.20e-06	0	44	0	456130560	21	4949
2026-01-18 22:44:45.50	72.83	22.10	-30.5	-33.2	13.9	6.40e-05	0	44	0	458227712	21	4961
2026-01-18 22:44:46.51	73.09	22.13	-30.5	-33.4	13.8	5.79e-05	0	44	0	460324864	21	5034
2026-01-18 22:44:47.51	73.35	22.17	-30.5	-33.4	13.7	7.60e-06	0	44	0	461373440	21	5032
2026-01-18 22:44:48.51	73.61	22.20	-30.6	-33.7	13.6	4.73e-05	0	44	0	463470592	21	5132
2026-01-18 22:44:49.51	73.87	22.23	-30.6	-33.7	13.6	3.89e-05	0	44	0	465567744	21	5113
2026-01-18 22:44:50.52	74.14	22.27	-30.7	-33.9	13.4	1.44e-05	0	44	0	467664896	21	5202
2026-01-18 22:44:51.52	74.40	22.30	-30.8	-34.1	13.3	4.88e-05	0	44	0	469762048	21	5268
2026-01-18 22:44:52.52	74.66	22.33	-30.9	-34.4	13.1	6.94e-05	0	44	0	470810624	21	5377
2026-01-18 22:44:53.52	74.92	22.36	-30.9	-34.5	13.1	3.05e-05	0	44	0	472907776	21	5422
2026-01-18 22:44:54.52	75.19	22.39	-31.0	-34.6	12.9	5.11e-05	0	44	0	475004928	21	5491
2026-01-18 22:44:55.53	75.46	22.42	-31.2	-34.7	12.6	1.40e-04	0	44	0	477102080	22	5425
2026-01-18 22:44:56.52	75.72	22.45	-31.2	-34.6	12.6	1.11e-04	0	44	0	479199232	22	5383
2026-01-18 22:44:57.53	75.98	22.48	-31.1	-34.4	12.8	6.56e-05	0	44	0	480247808	22	5282
2026-01-18 22:44:58.53	76.25	22.51	-31.0	-34.2	12.9	1.18e-04	0	44	0	482344960	22	5219
2026-01-18 22:44:59.53	76.52	22.53	-31.1	-34.4	12.8	5.03e-05	0	44	0	484442112	22	5296
2026-01-18 22:45:00.54	76.78	22.56	-31.1	-34.5	12.8	1.67e-04	0	44	0	486539264	22	5338
2026-01-18 22:45:01.54	77.05	22.59	-31.1	-34.5	12.8	8.69e-05	0	44	0	488636416	22	5309
2026-01-18 22:45:02.54	77.32	22.61	-31.0	-34.3	12.9	5.95e-05	0	44	0	489684992	22	5233
2026-01-18 22:45:03.54	77.59	22.64	-31.0	-34.1	13.0	2.31e-04	0	44	0	491782144	22	5160
2026-01-18 22:45:04.54	77.85	22.66	-30.9	-34.0	13.1	3.28e-05	0	44	0	493879296	22	5133
2026-01-18 22:45:05.55	78.13	22.69	-30.9	-34.0	13.1	2.51e-05	0	44	0	495976448	22	5124
2026-01-18 22:45:06.56	78.40	22.71	-30.9	-34.1	13.1	1.25e-04	0	44	0	498073600	22	5151
2026-01-18 22:45:07.56	78.67	22.73	-31.0	-34.2	12.9	3.89e-05	0	44	0	499122176	22	5219
2026-01-18 22:45:08.56	78.94	22.75	-31.0	-34.2	13.0	6.63e-05	0	44	0	501219328	22	5208
2026-01-18 22:45:09.56	79.21	22.77	-30.7	-33.5	13.4	3.12e-04	0	44	0	503316480	22	4945
2026-01-18 22:45:10.56	79.48	22.80	-30.6	-33.5	13.7	3.06e-04	0	44	0	505413632	21	5048
2026-01-18 22:45:11.56	79.75	22.82	-30.5	-33.3	13.8	6.80e-06	0	44	0	506462208	21	4997
2026-01-18 22:45:12.57	80.02	22.83	-30.6	-33.5	13.7	6.10e-06	0	44	0	508559360	21	5071
2026-01-18 22:45:13.57	80.29	22.85	-30.6	-33.7	13.6	2.07e-04	0	44	0	510656512	21	5128
2026-01-18 22:45:14.58	80.57	22.87	-30.6	-33.7	13.6	1.44e-05	0	44	0	512753664	21	5128
2026-01-18 22:45:15.58	80.84	22.89	-30.7	-33.9	13.5	1.44e-05	0	44	0	514850816	21	5196
2026-01-18 22:45:16.58	81.11	22.91	-30.7	-33.9	13.4	3.17e-04	0	44	0	515899392	21	5227
2026-01-18 22:45:17.59	81.39	22.92	-30.8	-34.1	13.3	1.67e-05	0	44	0	517996544	21	5274
2026-01-18 22:45:18.59	81.66	22.94	-30.8	-34.3	13.2	1.83e-05	0	44	0	520093696	21	5368
2026-01-18 22:45:19.60	81.94	22.95	-30.8	-34.1	13.3	2.74e-05	0	44	0	522190848	21	5303
2026-01-18 22:45:20.60	82.21	22.97	-30.6	-33.7	13.6	2.05e-05	0	44	0	524288000	21	5124
2026-01-18 22:45:21.61	82.49	22.98	-30.4	-33.2	13.9	3.00e-06	0	44	0	525336576	21	4960
2026-01-18 22:45:22.61	82.76	22.99	-30.3	-32.9	14.1	7.00e-07	0	44	0	527433728	21	4847
2026-01-18 22:45:23.62	83.04	23.00	-30.4	-33.0	14.0	1.50e-06	0	44	0	529530880	21	4886
2026-01-18 22:45:24.63	83.31	23.02	-30.3	-32.9	14.0	4.50e-06	0	44	0	531628032	21	4860
2026-01-18 22:45:25.63	83.59	23.03	-30.4	-33.0	14.0	1.50e-06	0	44	0	533725184	21	4893
2026-01-18 22:45:26.64	83.87	23.04	-30.5	-33.5	13.7	2.20e-06	0	44	0	534773760	21	5049
2026-01-18 22:45:27.64	84.14	23.05	-30.7	-33.9	13.5	1.14e-05	0	44	0	536870912	21	5193
2026-01-18 22:45:28.64	84.42	23.05	-30.7	-33.9	13.5	1.22e-05	0	44	0	538968064	21	5192
2026-01-18 22:45:29.64	84.69	23.06	-30.7	-33.8	13.5	1.67e-05	0	44	0	541065216	21	5171
2026-01-18 22:45:30.64	84.97	23.07	-30.6	-33.6	13.6	8.30e-06	0	44	0	543162368	21	5092
2026-01-18 22:45:31.64	85.24	23.08	-30.6	-33.5	13.7	7.60e-06	0	44	0	544210944	21	5070
2026-01-18 22:45:32.64	85.52	23.08	-30.5	-33.5	13.7	1.29e-05	0	44	0	546308096	21	5047
2026-01-18 22:45:33.64	85.79	23.09	-30.5	-33.3	13.8	1.50e-06	0	44	0	548405248	21	4981
2026-01-18 22:45:34.65	86.07	23.09	-30.4	-33.2	13.8	1.50e-06	0	44	0	550502400	21	4937
2026-01-18 22:45:35.65	86.35	23.10	-30.6	-33.6	13.6	4.50e-06	0	44	0	552599552	21	5107
2026-01-18 22:45:36.66	86.63	23.10	-30.6	-33.6	13.6	1.14e-05	0	44	0	553648128	21	5094
2026-01-18 22:45:37.66	86.90	23.10	-30.6	-33.6	13.6	9.90e-06	0	44	0	555745280	21	5100
2026-01-18 22:45:38.67	87.18	23.10	-30.8	-34.2	13.2	1.37e-05	0	44	0	557842432	21	5316
2026-01-18 22:45:39.68	87.46	23.11	-30.9	-34.6	13.0	4.42e-05	0	44	0	559939584	21	5482
2026-01-18 22:45:40.68	87.74	23.11	-31.0	-34.2	12.9	3.28e-05	0	44	0	562036736	22	5227
2026-01-18 22:45:41.69	88.02	23.11	-31.2	-34.8	12.6	6.94e-05	0	44	0	563085312	22	5432
2026-01-18 22:45:42.69	88.29	23.11	-31.1	-34.4	12.8	1.23e-04	0	44	0	565182464	22	5289
2026-01-18 22:45:43.69	88.57	23.10	-30.9	-34.1	13.0	3.66e-05	0	44	0	567279616	22	5168
2026-01-18 22:45:44.70	88.85	23.10	-30.8	-33.8	13.2	2.13e-05	0	44	0	569376768	22	5070
2026-01-18 22:45:45.69	89.12	23.10	-30.8	-33.8	13.2	1.37e-05	0	44	0	571473920	22	5047
2026-01-18 22:45:46.70	89.40	23.10	-30.8	-33.6	13.3	2.89e-05	0	44	0	572522496	22	4989
2026-01-18 22:45:47.71	89.68	23.09	-30.5	-33.3	13.5	1.14e-05	0	44	0	574619648	22	4930
2026-01-18 22:45:48.71	89.95	23.09	-30.7	-33.5	13.4	9.10e-06	0	44	0	576716800	22	4942
2026-01-18 22:45:49.72	90.23	23.08	-30.9	-34.0	13.1	2.36e-05	0	44	0	578813952	22	5135
2026-01-18 22:45:50.72	90.51	23.08	-30.7	-33.5	13.4	2.28e-05	0	44	0	580911104	22	4952
2026-01-18 22:45:51.73	90.79	23.07	-30.5	-32.9	13.8	6.10e-06	0	44	0	581959680	22	4732
2026-01-18 22:45:52.73	91.06	23.06	-30.4	-32.6	13.9	3.00e-06	0	44	0	584056832	22	4635
2026-01-18 22:45:53.74	91.34	23.05	-30.5	-33.2	13.8	3.00e-06	0	44	0	586153984	21	4964
2026-01-18 22:45:54.74	91.62	23.04	-30.6	-33.7	13.6	1.53e-04	0	44	0	588251136	21	5117
2026-01-18 22:45:55.74	91.89	23.03	-30.8	-34.1	13.3	1.22e-05	0	44	0	590348288	21	5294
2026-01-18 22:45:56.74	92.17	23.02	-30.9	-34.5	13.0	3.05e-05	0	44	0	591396864	21	5464
2026-01-18 22:45:57.74	92.44	23.01	-31.0	-34.7	13.0	4.57e-05	0	44	0	593494016	21	5514
2026-01-18 22:45:58.74	92.72	23.00	-30.9	-34.5	13.0	3.73e-05	0	44	0	595591168	21	5458
2026-01-18 22:45:59.74	92.99	22.99	-30.9	-34.4	13.1	2.59e-05	0	44	0	597688320	21	5409
2026-01-18 22:46:00.74	93.26	22.98	-30.9	-34.4	13.1	2.67e-05	0	44	0	598736896	21	5412
2026-01-18 22:46:01.75	93.54	22.96	-31.0	-34.4	12.8	4.88e-05	0	44	0	600834048	22	5281
2026-01-18 22:46:02.75	93.81	22.95	-31.1	-34.5	12.7	7.70e-05	0	44	0	602931200	22	5348
2026-01-18 22:46:03.75	94.09	22.93	-31.1	-34.5	12.7	8.54e-05	0	44	0	605028352	22	5331
2026-01-18 22:46:04.75	94.36	22.92	-30.9	-34.1	13.0	5.11e-05	0	44	0	607125504	22	5165
2026-01-18 22:46:05.76	94.64	22.90	-30.8	-33.6	13.3	2.36e-05	0	44	0	608174080	22	5001
2026-01-18 22:46:06.76	94.91	22.88	-30.7	-33.5	13.3	1.22e-05	0	44	0	610271232	22	4962
2026-01-18 22:46:07.76	95.18	22.87	-30.7	-33.4	13.4	1.75e-05	0	44	0	612368384	22	4935
2026-01-18 22:46:08.76	95.45	22.85	-30.9	-34.1	13.0	2.28e-05	0	44	0	614465536	22	5185
2026-01-18 22:46:09.76	95.73	22.83	-30.9	-34.0	13.0	4.80e-05	0	44	0	616562688	22	5157
2026-01-18 22:46:10.77	96.00	22.81	-30.8	-33.8	13.2	2.13e-05	0	44	0	617611264	22	5070
2026-01-18 22:46:11.77	96.27	22.79	-30.8	-33.6	13.3	1.29e-05	0	44	0	619708416	22	4983
2026-01-18 22:46:12.77	96.54	22.77	-30.6	-33.2	13.6	1.06e-05	0	44	0	621805568	22	4856
2026-01-18 22:46:13.77	96.81	22.75	-30.6	-33.0	13.7	9.90e-06	0	44	0	623902720	22	4766
2026-01-18 22:46:14.78	97.08	22.73	-30.5	-32.9	13.8	3.00e-06	0	44	0	625999872	22	4741
2026-01-18 22:46:15.78	97.35	22.70	-30.4	-32.6	13.9	5.30e-06	0	44	0	627048448	22	4630
2026-01-18 22:46:16.78	97.62	22.68	-30.4	-32.5	14.0	2.20e-06	0	44	0	629145600	22	4608
2026-01-18 22:46:17.78	97.89	22.66	-30.4	-32.7	13.9	2.20e-06	0	44	0	631242752	22	4673
2026-01-18 22:46:18.79	98.16	22.63	-30.4	-32.7	13.9	3.00e-06	0	44	0	633339904	22	4686
2026-01-18 22:46:19.79	98.43	22.61	-30.4	-32.7	13.9	3.00e-06	0	44	0	635437056	22	4664
2026-01-18 22:46:20.79	98.70	22.58	-30.4	-32.7	13.9	3.80e-06	0	44	0	636485632	22	4662
2026-01-18 22:46:21.79	98.97	22.56	-30.5	-32.9	13.8	3.80e-06	0	44	0	638582784	22	4742
2026-01-18 22:46:22.79	99.23	22.53	-30.4	-32.6	13.9	3.00e-06	0	44	0	640679936	22	4642
2026-01-18 22:46:23.79	99.50	22.50	-30.2	-32.7	14.1	1.50e-06	0	44	0	642777088	21	4783
2026-01-18 22:46:24.80	99.77	22.47	-30.2	-32.6	14.2	7.00e-07	0	44	0	643825664	21	4742
2026-01-18 22:46:25.79	100.03	22.44	-30.2	-32.7	14.2	7.00e-07	0	44	0	645922816	21	4776
2026-01-18 22:46:26.80	100.30	22.41	-30.1	-32.3	14.4	7.00e-07	0	44	0	648019968	21	4646
2026-01-18 22:46:27.80	100.56	22.38	-29.9	-31.9	14.7	0.00e+00	0	44	0	650117120	21	4516
2026-01-18 22:46:28.81	100.83	22.35	-29.8	-31.7	14.8	7.00e-07	0	44	0	652214272	21	4451
2026-01-18 22:46:29.81	101.09	22.32	-29.8	-31.7	14.8	0.00e+00	0	44	0	653262848	21	4447
2026-01-18 22:46:30.82	101.36	22.29	-29.8	-31.9	14.9	0.00e+00	0	44	0	655360000	20	4633
2026-01-18 22:46:31.82	101.62	22.26	-29.8	-32.1	14.8	7.00e-07	0	44	0	657457152	20	4673
2026-01-18 22:46:32.82	101.88	22.23	-29.7	-31.9	14.9	0.00e+00	0	44	0	659554304	20	4631
2026-01-18 22:46:33.82	102.14	22.19	-29.7	-31.9	14.9	0.00e+00	0	44	0	661651456	20	4623
2026-01-18 22:46:34.82	102.40	22.16	-29.9	-32.4	14.6	0.00e+00	0	44	0	662700032	20	4785
2026-01-18 22:46:35.82	102.66	22.12	-30.0	-32.6	14.5	7.00e-07	0	44	0	664797184	20	4846
2026-01-18 22:46:36.83	102.93	22.09	-30.0	-32.6	14.5	7.00e-07	0	44	0	666894336	20	4865
2026-01-18 22:46:37.82	103.18	22.05	-30.1	-32.8	14.4	0.00e+00	0	44	0	668991488	20	4922
2026-01-18 22:46:38.82	103.44	22.02	-29.8	-32.2	14.7	7.00e-07	0	44	0	671088640	20	4721
2026-01-18 22:46:39.83	103.70	21.98	-29.8	-32.2	14.8	0.00e+00	0	44	0	672137216	20	4722
2026-01-18 22:46:40.84	103.96	21.94	-29.8	-32.1	14.8	7.00e-07	0	44	0	674234368	20	4696
2026-01-18 22:46:41.84	104.22	21.91	-29.8	-32.2	14.7	8.01e-05	0	44	0	676331520	20	4722
2026-01-18 22:46:42.84	104.48	21.87	-29.6	-31.6	15.1	1.51e-04	0	44	0	678428672	20	4530
2026-01-18 22:46:43.85	104.73	21.83	-29.5	-31.3	15.3	0.00e+00	0	44	0	680525824	20	4452
2026-01-18 22:46:44.85	104.99	21.79	-29.7	-32.3	15.1	3.11e-04	0	44	0	681574400	19	4845
2026-01-18 22:46:45.86	105.24	21.75	-29.5	-31.9	15.3	0.00e+00	0	44	0	683671552	19	4725
2026-01-18 22:46:46.86	105.50	21.71	-29.5	-31.8	15.4	0.00e+00	0	44	0	685768704	19	4676
2026-01-18 22:46:47.87	105.75	21.67	-29.4	-31.4	15.6	1.83e-05	0	44	0	687865856	19	4576
2026-01-18 22:46:48.88	106.01	21.63	-29.4	-31.4	15.6	6.10e-06	0	44	0	689963008	19	4568
2026-01-18 22:46:49.88	106.26	21.59	-29.4	-31.5	15.5	0.00e+00	0	44	0	691011584	19	4601
2026-01-18 22:46:50.89	106.51	21.54	-29.5	-31.8	15.3	3.58e-05	0	44	0	693108736	19	4693
2026-01-18 22:46:51.89	106.76	21.50	-29.4	-31.6	15.5	3.35e-05	0	44	0	695205888	19	4631
2026-01-18 22:46:52.89	107.01	21.46	-29.4	-31.7	15.4	0.00e+00	0	44	0	697303040	19	4653
2026-01-18 22:46:53.88	107.26	21.41	-29.6	-32.0	15.2	6.10e-06	0	44	0	698351616	19	4766
2026-01-18 22:46:54.89	107.51	21.37	-29.7	-32.2	15.1	1.06e-05	0	44	0	700448768	19	4835
2026-01-18 22:46:55.89	107.76	21.32	-29.8	-32.7	14.8	0.00e+00	0	44	0	702545920	19	4988
2026-01-18 22:46:56.90	108.01	21.28	-29.9	-32.9	14.7	0.00e+00	0	44	0	704643072	19	5073
2026-01-18 22:46:57.90	108.25	21.23	-29.9	-32.5	14.5	7.55e-05	0	44	0	706740224	20	4825
2026-01-18 22:46:58.90	108.50	21.19	-30.1	-32.8	14.3	7.00e-07	0	44	0	707788800	20	4950
2026-01-18 22:46:59.90	108.74	21.14	-30.0	-32.7	14.4	7.00e-07	0	44	0	709885952	20	4887
2026-01-18 22:47:00.89	108.99	21.10	-29.8	-32.2	14.7	1.15e-04	0	44	0	711983104	20	4719
2026-01-18 22:47:01.90	109.23	21.05	-29.7	-32.0	14.8	0.00e+00	0	44	0	714080256	20	4649
2026-01-18 22:47:02.90	109.47	21.00	-29.7	-31.9	14.9	0.00e+00	0	44	0	716177408	20	4645
2026-01-18 22:47:03.91	109.72	20.95	-29.7	-32.3	15.0	7.00e-07	0	44	0	717225984	19	4868
2026-01-18 22:47:04.91	109.96	20.90	-29.6	-32.0	15.2	0.00e+00	0	44	0	719323136	19	4764
2026-01-18 22:47:05.91	110.20	20.85	-29.5	-32.0	15.2	2.50e-04	0	44	0	721420288	19	4755
2026-01-18 22:47:06.92	110.44	20.80	-29.6	-32.0	15.1	0.00e+00	0	44	0	723517440	19	4779
2026-01-18 22:47:07.92	110.68	20.75	-29.5	-31.8	15.3	0.00e+00	0	44	0	725614592	19	4703
2026-01-18 22:47:08.92	110.92	20.70	-29.6	-32.1	15.1	3.22e-04	0	44	0	726663168	19	4790
2026-01-18 22:47:09.92	111.16	20.65	-29.8	-32.6	14.8	0.00e+00	0	44	0	728760320	19	4981
2026-01-18 22:47:10.93	111.40	20.60	-30.1	-33.0	14.2	0.00e+00	0	44	0	730857472	20	5005
2026-01-18 22:47:11.93	111.63	20.55	-30.3	-33.6	13.8	1.56e-04	0	44	0	732954624	20	5219
2026-01-18 22:47:12.93	111.87	20.50	-30.6	-33.8	13.3	1.52e-05	0	44	0	735051776	21	5201
2026-01-18 22:47:13.93	112.10	20.45	-30.6	-33.9	13.2	1.98e-05	0	44	0	736100352	21	5228
2026-01-18 22:47:14.93	112.33	20.40	-30.8	-34.4	12.9	4.04e-05	0	44	0	738197504	21	5447
2026-01-18 22:47:15.94	112.57	20.34	-30.7	-34.2	13.0	6.40e-05	0	44	0	740294656	21	5362
2026-01-18 22:47:16.95	112.80	20.29	-30.8	-34.3	13.0	3.05e-05	0	44	0	742391808	21	5398
2026-01-18 22:47:17.95	113.04	20.24	-30.7	-34.2	13.0	3.66e-05	0	44	0	743440384	21	5370
2026-01-18 22:47:18.95	113.27	20.18	-30.7	-34.2	13.0	5.18e-05	0	44	0	745537536	21	5377
2026-01-18 22:47:19.96	113.50	20.13	-30.8	-34.3	12.9	4.42e-05	0	44	0	747634688	21	5401
2026-01-18 22:47:20.96	113.73	20.07	-30.8	-34.5	12.8	7.09e-05	0	44	0	749731840	21	5512
2026-01-18 22:47:21.96	113.95	20.02	-30.6	-33.9	13.2	4.42e-05	0	44	0	751828992	21	5251
2026-01-18 22:47:22.96	114.18	19.96	-30.4	-33.2	13.6	1.44e-05	0	44	0	752877568	21	4987
2026-01-18 22:47:23.97	114.41	19.91	-30.2	-32.8	13.9	1.50e-06	0	44	0	754974720	21	4845
2026-01-18 22:47:24.97	114.64	19.85	-30.2	-32.7	14.0	3.00e-06	0	44	0	757071872	21	4803
2026-01-18 22:47:25.96	114.86	19.80	-30.1	-32.5	14.1	1.50e-06	0	44	0	759169024	21	4754
2026-01-18 22:47:26.97	115.08	19.74	-30.2	-32.8	13.9	4.50e-06	0	44	0	761266176	21	4842
2026-01-18 22:47:27.97	115.31	19.68	-30.3	-33.1	13.7	3.80e-06	0	44	0	762314752	21	4934
2026-01-18 22:47:28.96	115.53	19.63	-30.4	-33.4	13.5	6.80e-06	0	44	0	764411904	21	5047
2026-01-18 22:47:29.97	115.75	19.57	-30.5	-33.6	13.3	1.60e-05	0	44	0	766509056	21	5148
2026-01-18 22:47:30.97	115.97	19.51	-30.6	-33.9	13.2	2.28e-05	0	44	0	768606208	21	5242
2026-01-18 22:47:31.98	116.20	19.45	-30.7	-34.0	13.1	2.36e-05	0	44	0	770703360	21	5296
2026-01-18 22:47:32.98	116.41	19.39	-30.8	-34.4	12.8	3.89e-05	0	44	0	771751936	21	5441
2026-01-18 22:47:33.99	116.64	19.33	-30.8	-34.4	12.8	5.95e-05	0	44	0	773849088	21	5443
2026-01-18 22:47:34.99	116.85	19.28	-30.9	-34.6	12.6	8.31e-05	0	44	0	775946240	21	5546
2026-01-18 22:47:36.00	117.07	19.22	-30.8	-34.5	12.7	1.07e-04	0	44	0	778043392	21	5527
2026-01-18 22:47:37.00	117.29	19.16	-30.7	-34.3	12.9	6.25e-05	0	44	0	780140544	21	5421
2026-01-18 22:47:38.00	117.50	19.10	-30.7	-34.1	13.0	3.58e-05	0	44	0	781189120	21	5324
2026-01-18 22:47:39.00	117.72	19.04	-30.6	-33.9	13.1	2.97e-05	0	44	0	783286272	21	5276
2026-01-18 22:47:40.00	117.93	18.98	-30.7	-34.1	13.0	3.81e-05	0	44	0	785383424	21	5333
2026-01-18 22:47:41.00	118.14	18.92	-30.4	-33.3	13.5	1.83e-05	0	44	0	787480576	21	5029
2026-01-18 22:47:42.01	118.36	18.86	-30.5	-33.5	13.4	1.52e-05	0	44	0	788529152	21	5100
2026-01-18 22:47:43.01	118.57	18.80	-30.4	-33.4	13.4	1.29e-05	0	44	0	790626304	21	5080
2026-01-18 22:47:44.01	118.78	18.74	-30.6	-33.9	13.1	3.35e-05	0	44	0	792723456	21	5247
2026-01-18 22:47:45.02	118.99	18.67	-30.7	-34.0	13.0	3.43e-05	0	44	0	794820608	21	5311
2026-01-18 22:47:46.02	119.20	18.61	-30.7	-34.2	12.9	3.73e-05	0	44	0	796917760	21	5375
2026-01-18 22:47:47.02	119.41	18.55	-30.8	-34.3	12.8	5.26e-05	0	44	0	799014912	21	5420
2026-01-18 22:47:48.03	119.62	18.49	-30.6	-33.9	13.2	3.96e-05	0	44	0	800063488	21	5235
2026-01-18 22:47:49.03	119.82	18.43	-30.4	-33.3	13.5	1.44e-05	0	44	0	802160640	21	5043
2026-01-18 22:47:50.03	120.03	18.37	-30.2	-32.9	13.7	9.10e-06	0	44	0	804257792	21	4891
2026-01-18 22:47:51.04	120.23	18.30	-30.3	-33.1	13.6	6.10e-06	0	44	0	806354944	21	4948
2026-01-18 22:47:52.04	120.44	18.24	-30.4	-33.3	13.5	8.30e-06	0	44	0	807403520	21	5052
2026-01-18 22:47:53.04	120.64	18.18	-30.3	-33.2	13.5	9.90e-06	0	44	0	809500672	21	5011
2026-01-18 22:47:54.05	120.84	18.11	-30.5	-33.5	13.4	1.52e-05	0	44	0	811597824	21	5108
2026-01-18 22:47:55.06	121.05	18.05	-30.5	-33.5	13.3	1.14e-05	0	44	0	813694976	21	5112
2026-01-18 22:47:56.05	121.25	17.99	-30.6	-33.9	13.1	2.51e-05	0	44	0	815792128	21	5254
2026-01-18 22:47:57.06	121.45	17.92	-30.5	-33.5	13.3	2.05e-05	0	44	0	816840704	21	5127
2026-01-18 22:47:58.05	121.64	17.86	-30.5	-33.7	13.2	1.75e-05	0	44	0	818937856	21	5194
2026-01-18 22:47:59.05	121.84	17.80	-30.7	-34.2	12.8	4.27e-05	0	44	0	821035008	21	5398
2026-01-18 22:48:00.05	122.04	17.73	-30.7	-34.3	12.8	6.79e-05	0	44	0	823132160	21	5450
2026-01-18 22:48:01.03	122.23	17.67	-31.0	-35.0	12.3	1.55e-04	0	44	0	825229312	21	5730
2026-01-18 22:48:02.03	122.43	17.61	-30.8	-34.0	12.6	1.23e-04	0	44	0	826277888	22	5207
2026-01-18 22:48:03.03	122.62	17.54	-30.6	-33.4	13.1	5.34e-05	0	44	0	828375040	22	4962
2026-01-18 22:48:04.04	122.82	17.48	-30.4	-32.8	13.4	2.13e-05	0	44	0	830472192	22	4756
2026-01-18 22:48:05.05	123.01	17.41	-30.2	-32.9	13.6	5.30e-06	0	44	0	832569344	21	4914
2026-01-18 22:48:06.05	123.21	17.35	-30.0	-32.4	14.0	2.20e-06	0	44	0	834666496	21	4718
2026-01-18 22:48:07.05	123.40	17.28	-30.0	-32.5	13.9	7.00e-07	0	44	0	835715072	21	4754
2026-01-18 22:48:08.06	123.59	17.21	-30.2	-32.8	13.7	1.06e-05	0	44	0	837812224	21	4885
2026-01-18 22:48:09.06	123.78	17.15	-30.3	-33.2	13.4	7.60e-06	0	44	0	839909376	21	5020
2026-01-18 22:48:10.07	123.97	17.08	-30.7	-34.1	12.8	2.05e-05	0	44	0	842006528	21	5358
2026-01-18 22:48:11.07	124.16	17.02	-30.8	-34.5	12.6	8.23e-05	0	44	0	844103680	21	5508
2026-01-18 22:48:12.08	124.35	16.95	-30.8	-34.5	12.6	1.04e-04	0	44	0	845152256	21	5522
2026-01-18 22:48:13.08	124.53	16.89	-30.7	-34.3	12.7	7.40e-05	0	44	0	847249408	21	5431
2026-01-18 22:48:14.08	124.72	16.82	-30.5	-33.8	13.1	4.19e-05	0	44	0	849346560	21	5224
2026-01-18 22:48:15.08	124.91	16.75	-30.4	-33.5	13.2	4.88e-05	0	44	0	851443712	21	5118
2026-01-18 22:48:16.08	125.09	16.69	-30.5	-33.8	13.0	2.21e-05	0	44	0	852492288	21	5238
2026-01-18 22:48:17.09	125.28	16.62	-30.4	-33.4	13.3	1.75e-05	0	44	0	854589440	21	5085
2026-01-18 22:48:18.09	125.46	16.56	-30.4	-33.4	13.3	3.50e-05	0	44	0	856686592	21	5076
2026-01-18 22:48:19.09	125.64	16.49	-30.5	-33.7	13.1	2.67e-05	0	44	0	858783744	21	5196
2026-01-18 22:48:20.09	125.82	16.42	-30.6	-34.0	12.8	4.73e-05	0	44	0	860880896	21	5323
2026-01-18 22:48:21.09	126.00	16.36	-30.6	-34.2	12.7	9.15e-05	0	44	0	861929472	21	5430
2026-01-18 22:48:22.09	126.18	16.29	-30.6	-34.0	12.8	9.23e-05	0	44	0	864026624	21	5344
2026-01-18 22:48:23.10	126.36	16.22	-30.5	-33.7	13.0	6.02e-05	0	44	0	866123776	21	5218
2026-01-18 22:48:24.10	126.54	16.16	-30.4	-33.5	13.2	4.27e-05	0	44	0	868220928	21	5147
2026-01-18 22:48:25.10	126.72	16.09	-30.4	-33.4	13.2	4.57e-05	0	44	0	870318080	21	5110
2026-01-18 22:48:26.11	126.90	16.02	-30.6	-33.9	12.9	7.32e-05	0	44	0	871366656	21	5306
2026-01-18 22:48:27.12	127.07	15.95	-30.5	-33.7	13.0	4.73e-05	0	44	0	873463808	21	5228
2026-01-18 22:48:28.12	127.25	15.89	-30.7	-34.3	12.6	8.31e-05	0	44	0	875560960	21	5438
2026-01-18 22:48:29.13	127.43	15.82	-30.8	-34.6	12.4	1.36e-04	0	44	0	877658112	21	5556
2026-01-18 22:48:30.13	127.60	15.75	-30.9	-35.0	12.2	1.96e-04	0	44	0	879755264	21	5734
2026-01-18 22:48:31.13	127.77	15.68	-30.9	-34.8	12.2	1.98e-04	0	44	0	880803840	21	5693
2026-01-18 22:48:32.12	127.94	15.62	-30.8	-34.9	12.1	2.59e-04	0	44	0	882900992	21	5743
2026-01-18 22:48:33.13	128.11	15.55	-30.8	-34.8	12.1	2.74e-04	0	44	0	884998144	21	5732
2026-01-18 22:48:34.13	128.29	15.48	-30.5	-34.2	12.5	1.98e-04	0	44	0	887095296	21	5488
2026-01-18 22:48:35.13	128.45	15.42	-30.4	-33.9	12.7	2.15e-04	0	44	0	889192448	21	5361
2026-01-18 22:48:36.13	128.62	15.35	-30.4	-33.8	12.8	3.02e-04	0	44	0	890241024	21	5312
2026-01-18 22:48:37.13	128.79	15.28	-30.6	-34.2	12.5	9.00e-05	0	44	0	892338176	21	5455
2026-01-18 22:48:38.14	128.96	15.21	-30.7	-34.5	12.4	2.11e-04	0	44	0	894435328	21	5578
2026-01-18 22:48:39.14	129.13	15.14	-31.0	-35.2	11.9	2.78e-04	0	44	0	896532480	21	5856
2026-01-18 22:48:40.14	129.29	15.08	-31.0	-34.9	11.8	3.98e-04	0	44	0	897581056	22	5603
2026-01-18 22:48:41.15	129.46	15.01	-31.0	-34.8	11.9	4.22e-04	0	44	0	899678208	22	5541
2026-01-18 22:48:42.15	129.63	14.94	-31.0	-34.6	12.0	3.56e-04	0	44	0	901775360	22	5472
2026-01-18 22:48:43.16	129.79	14.87	-30.8	-34.2	12.3	2.16e-04	0	44	0	903872512	22	5323
2026-01-18 22:48:44.16	129.95	14.80	-30.8	-34.0	12.4	3.91e-04	0	44	0	905969664	22	5252
2026-01-18 22:48:45.16	130.12	14.74	-30.7	-34.3	12.5	5.11e-04	0	44	0	907018240	21	5482
2026-01-18 22:48:46.16	130.28	14.67	-30.4	-33.7	12.9	6.48e-05	0	44	0	909115392	21	5243
2026-01-18 22:48:47.16	130.44	14.60	-30.4	-33.8	12.8	4.16e-04	0	44	0	911212544	21	5272
2026-01-18 22:48:48.16	130.60	14.53	-30.5	-33.9	12.7	3.52e-04	0	44	0	913309696	21	5325
2026-01-18 22:48:49.16	130.76	14.47	-30.6	-34.2	12.5	1.07e-04	0	44	0	915406848	21	5434
2026-01-18 22:48:50.17	130.92	14.40	-30.7	-34.5	12.3	2.72e-04	0	44	0	916455424	21	5588
2026-01-18 22:48:51.17	131.08	14.33	-30.8	-34.7	12.1	2.88e-04	0	44	0	918552576	21	5661
2026-01-18 22:48:52.17	131.24	14.26	-30.9	-35.1	11.9	3.45e-04	0	44	0	920649728	21	5825
2026-01-18 22:48:53.17	131.39	14.19	-31.0	-34.9	11.7	6.41e-04	0	44	0	922746880	22	5613
2026-01-18 22:48:54.17	131.55	14.12	-30.8	-34.3	12.1	7.39e-04	0	44	0	924844032	22	5386
2026-01-18 22:48:55.17	131.70	14.06	-30.7	-33.8	12.4	1.95e-04	0	44	0	925892608	22	5194
2026-01-18 22:48:56.17	131.86	13.99	-30.5	-33.9	12.6	5.71e-04	0	44	0	927989760	21	5343
2026-01-18 22:48:57.17	132.01	13.92	-30.5	-33.9	12.6	5.80e-04	0	44	0	930086912	21	5377
2026-01-18 22:48:58.18	132.17	13.85	-30.5	-34.2	12.3	1.15e-04	0	44	0	932184064	21	5527
2026-01-18 22:48:59.18	132.32	13.78	-30.5	-34.3	12.2	1.79e-04	0	44	0	934281216	21	5567
2026-01-18 22:49:00.18	132.47	13.72	-30.7	-34.7	12.0	1.13e-03	0	44	0	935329792	21	5713
2026-01-18 22:49:01.18	132.62	13.65	-30.8	-35.1	11.7	4.24e-04	0	44	0	937426944	21	5891
2026-01-18 22:49:02.18	132.78	13.58	-30.9	-35.4	11.5	7.23e-04	0	44	0	939524096	21	6014
2026-01-18 22:49:03.19	132.93	13.51	-31.1	-35.2	11.3	1.43e-03	0	44	0	941621248	22	5811
2026-01-18 22:49:04.19	133.08	13.44	-31.2	-35.4	11.2	1.29e-03	0	44	0	942669824	22	5864
2026-01-18 22:49:05.19	133.22	13.38	-31.1	-35.3	11.3	1.26e-03	0	44	0	944766976	22	5814
2026-01-18 22:49:06.19	133.37	13.31	-31.3	-35.9	10.9	2.01e-03	0	44	0	946864128	22	6080
2026-01-18 22:49:07.20	133.52	13.24	-31.0	-35.0	11.5	1.34e-03	0	44	0	948961280	22	5704
2026-01-18 22:49:08.20	133.67	13.17	-30.8	-34.3	12.0	7.88e-04	0	44	0	951058432	22	5402
2026-01-18 22:49:09.20	133.81	13.10	-30.6	-34.5	12.1	2.39e-04	0	44	0	952107008	21	5634
2026-01-18 22:49:10.20	133.96	13.04	-30.7	-34.6	12.0	3.37e-04	0	44	0	954204160	21	5697
2026-01-18 22:49:11.20	134.10	12.97	-30.9	-35.2	11.6	1.01e-03	0	44	0	956301312	21	5957
2026-01-18 22:49:12.20	134.25	12.90	-31.0	-35.6	11.3	1.41e-03	0	44	0	958398464	21	6148
2026-01-18 22:49:13.21	134.39	12.83	-31.1	-35.4	11.1	1.64e-03	0	44	0	960495616	22	5942
2026-01-18 22:49:14.22	134.54	12.76	-31.2	-35.8	10.8	2.35e-03	0	44	0	961544192	22	6142
2026-01-18 22:49:15.22	134.68	12.70	-31.2	-35.9	10.7	3.05e-03	0	44	0	963641344	22	6148
2026-01-18 22:49:16.22	134.82	12.63	-31.3	-36.0	10.7	2.85e-03	0	44	0	965738496	22	6184
2026-01-18 22:49:17.22	134.96	12.56	-31.4	-36.2	10.4	3.99e-03	0	44	0	967835648	22	6298
2026-01-18 22:49:18.23	135.10	12.49	-31.2	-35.9	10.7	3.08e-03	0	44	0	969932800	22	6152
2026-01-18 22:49:19.23	135.24	12.43	-31.2	-36.0	10.6	3.51e-03	0	44	0	970981376	22	6192
2026-01-18 22:49:20.23	135.38	12.36	-30.9	-35.1	11.3	1.89e-03	0	44	0	973078528	22	5786
2026-01-18 22:49:21.23	135.52	12.29	-30.7	-34.5	11.7	8.51e-04	0	44	0	975175680	22	5527
2026-01-18 22:49:22.23	135.66	12.22	-30.6	-34.1	11.9	4.27e-04	0	44	0	977272832	22	5366
2026-01-18 22:49:23.23	135.80	12.16	-30.6	-33.9	12.1	3.13e-04	0	44	0	979369984	22	5285
2026-01-18 22:49:24.24	135.93	12.09	-30.6	-33.9	12.1	2.73e-04	0	44	0	980418560	22	5293
2026-01-18 22:49:25.24	136.07	12.02	-30.6	-33.9	12.1	2.59e-04	0	44	0	982515712	22	5258
2026-01-18 22:49:26.24	136.21	11.95	-30.6	-34.0	12.0	2.84e-04	0	44	0	984612864	22	5322
2026-01-18 22:49:27.25	136.34	11.89	-30.7	-34.3	11.8	4.37e-04	0	44	0	986710016	22	5458
2026-01-18 22:49:28.25	136.48	11.82	-30.6	-34.2	11.8	4.81e-04	0	44	0	987758592	22	5418
2026-01-18 22:49:29.25	136.61	11.75	-30.6	-34.7	11.7	5.83e-04	0	44	0	989855744	21	5781
2026-01-18 22:49:30.25	136.74	11.68	-30.5	-34.6	11.7	5.13e-04	0	44	0	991952896	21	5765
2026-01-18 22:49:31.26	136.88	11.62	-30.5	-34.6	11.7	5.61e-04	0	44	0	994050048	21	5753
2026-01-18 22:49:32.27	137.01	11.55	-30.5	-34.6	11.7	1.12e-03	0	44	0	996147200	21	5757
2026-01-18 22:49:33.27	137.14	11.48	-30.5	-34.7	11.6	6.35e-04	0	44	0	998244352	21	5835
2026-01-18 22:49:34.27	137.27	11.41	-30.6	-34.7	11.6	7.09e-04	0	44	0	999292928	21	5806
2026-01-18 22:49:35.28	137.40	11.35	-30.6	-34.8	11.6	6.00e-04	0	44	0	1001390080	21	5811
2026-01-18 22:49:36.28	137.53	11.28	-30.7	-35.0	11.5	9.38e-04	0	44	0	1003487232	21	5912
2026-01-18 22:49:37.28	137.66	11.21	-30.9	-35.4	11.2	1.10e-03	0	44	0	1005584384	21	6097
2026-01-18 22:49:38.28	137.79	11.15	-30.9	-35.6	11.1	1.57e-03	0	44	0	1006632960	21	6161
2026-01-18 22:49:39.29	137.92	11.08	-30.9	-35.6	11.1	1.66e-03	0	44	0	1008730112	21	6167
2026-01-18 22:49:40.29	138.05	11.01	-31.0	-35.7	11.0	1.97e-03	0	44	0	1010827264	21	6235
2026-01-18 22:49:41.29	138.17	10.95	-31.0	-35.4	10.8	2.12e-03	0	44	0	1012924416	22	5970
2026-01-18 22:49:42.29	138.30	10.88	-31.0	-35.5	10.7	2.50e-03	0	44	0	1015021568	22	6023
2026-01-18 22:49:43.29	138.42	10.81	-31.1	-35.8	10.5	3.84e-03	0	44	0	1016070144	22	6178
2026-01-18 22:49:44.30	138.55	10.75	-31.0	-35.5	10.7	2.93e-03	0	44	0	1018167296	22	6033
2026-01-18 22:49:45.30	138.68	10.68	-31.0	-35.4	10.8	2.72e-03	0	44	0	1020264448	22	6010
2026-01-18 22:49:46.31	138.80	10.61	-31.1	-35.7	10.6	4.10e-03	0	44	0	1022361600	22	6114
2026-01-18 22:49:47.31	138.92	10.55	-31.0	-35.3	10.9	2.47e-03	0	44	0	1024458752	22	5923
2026-01-18 22:49:48.32	139.05	10.48	-30.9	-35.0	11.1	1.56e-03	0	44	0	1025507328	22	5753
2026-01-18 22:49:49.32	139.17	10.41	-30.8	-34.7	11.3	1.41e-03	0	44	0	1027604480	22	5647
2026-01-18 22:49:50.31	139.29	10.35	-30.9	-34.9	11.1	1.55e-03	0	44	0	1029701632	22	5735
2026-01-18 22:49:51.32	139.41	10.28	-30.8	-34.9	11.1	1.53e-03	0	44	0	1031798784	22	5740
2026-01-18 22:49:52.32	139.53	10.22	-30.8	-35.0	10.7	1.63e-03	0	44	0	1033895936	22	5839
2026-01-18 22:49:53.32	139.66	10.15	-30.9	-35.6	10.7	2.46e-03	0	44	0	1034944512	21	6237
2026-01-18 22:49:54.32	139.77	10.09	-30.9	-35.8	10.7	2.41e-03	0	44	0	1037041664	21	6308
2026-01-18 22:49:55.33	139.90	10.02	-31.0	-36.0	10.5	3.39e-03	0	44	0	1039138816	21	6427
2026-01-18 22:49:56.33	140.01	9.95	-31.0	-35.6	10.5	4.67e-03	0	44	0	1041235968	22	6111
2026-01-18 22:49:57.33	140.13	9.89	-31.0	-35.7	10.4	4.04e-03	0	44	0	1043333120	22	6163
2026-01-18 22:49:58.33	140.25	9.82	-31.1	-35.8	10.3	5.49e-03	0	44	0	1044381696	22	6228
2026-01-18 22:49:59.33	140.37	9.76	-31.1	-36.0	10.2	5.24e-03	0	44	0	1046478848	22	6300
2026-01-18 22:50:00.32	140.48	9.69	-31.2	-36.1	10.1	6.42e-03	0	44	0	1048576000	22	6333
2026-01-18 22:50:01.32	140.60	9.63	-31.2	-36.3	10.0	7.50e-03	0	44	0	1050673152	22	6434
2026-01-18 22:50:02.33	140.72	9.56	-31.3	-36.5	9.8	8.42e-03	0	44	0	1051721728	22	6581
2026-01-18 22:50:03.33	140.83	9.50	-31.4	-37.0	9.4	1.58e-02	0	44	0	1053818880	22	6821
2026-01-18 22:50:04.34	140.95	9.43	-31.4	-37.0	9.3	1.79e-02	0	44	0	1055916032	22	6855
2026-01-18 22:50:05.34	141.06	9.37	-31.4	-36.9	9.4	1.65e-02	0	44	0	1058013184	22	6802
2026-01-18 22:50:06.34	141.17	9.30	-31.4	-37.2	9.1	1.74e-02	0	44	0	1060110336	22	6994
2026-01-18 22:50:07.34	141.29	9.24	-31.4	-37.2	9.1	2.29e-02	0	44	0	1061158912	22	6985
2026-01-18 22:50:08.35	141.40	9.17	-31.4	-37.1	9.1	2.16e-02	0	44	0	1063256064	22	6961
2026-01-18 22:50:09.35	141.51	9.11	-31.4	-37.3	9.0	2.77e-02	0	44	0	1065353216	22	7054
2026-01-18 22:50:10.35	141.63	9.04	-31.3	-36.9	9.2	2.25e-02	0	44	0	1067450368	22	6878
2026-01-18 22:50:11.35	141.74	8.98	-31.3	-36.9	9.2	1.66e-02	0	44	0	1069547520	22	6852
2026-01-18 22:50:12.36	141.85	8.91	-31.3	-36.8	9.4	2.01e-02	0	44	0	1070596096	22	6755
2026-01-18 22:50:13.36	141.96	8.85	-31.2	-36.7	9.3	1.76e-02	0	44	0	1072693248	22	6751
2026-01-18 22:50:14.37	142.07	8.78	-31.3	-36.9	9.1	2.28e-02	0	44	0	1074790400	22	6876
2026-01-18 22:50:15.37	142.18	8.72	-31.2	-36.7	9.3	1.94e-02	0	44	0	1076887552	22	6742
2026-01-18 22:50:16.37	142.29	8.65	-31.2	-36.7	9.3	1.80e-02	0	44	0	1078984704	22	6739
2026-01-18 22:50:17.37	142.40	8.59	-31.2	-36.6	9.3	2.06e-02	0	44	0	1080033280	22	6761
2026-01-18 22:50:18.37	142.50	8.53	-31.1	-36.5	9.3	2.08e-02	0	44	0	1082130432	22	6703
2026-01-18 22:50:19.37	142.61	8.46	-31.2	-36.8	9.1	1.95e-02	0	44	0	1084227584	22	6829
2026-01-18 22:50:20.37	142.72	8.40	-31.2	-36.9	9.1	2.32e-02	0	44	0	1086324736	22	6887
2026-01-18 22:50:21.37	142.83	8.34	-31.2	-36.9	9.0	2.88e-02	0	44	0	1088421888	22	6937
2026-01-18 22:50:22.37	142.93	8.27	-31.2	-36.6	9.2	2.20e-02	0	44	0	1089470464	22	6738
2026-01-18 22:50:23.37	143.04	8.21	-31.0	-36.1	9.6	1.68e-02	0	44	0	1091567616	22	6461
2026-01-18 22:50:24.38	143.14	8.14	-31.0	-35.9	9.8	1.08e-02	0	44	0	1093664768	22	6348
2026-01-18 22:50:25.38	143.25	8.08	-31.0	-36.0	9.7	1.32e-02	0	44	0	1095761920	22	6349
2026-01-18 22:50:26.38	143.35	8.02	-31.0	-36.0	9.7	1.11e-02	0	44	0	1096810496	22	6366
2026-01-18 22:50:27.39	143.46	7.95	-31.1	-36.5	9.3	1.47e-02	0	44	0	1098907648	22	6642
2026-01-18 22:50:28.38	143.56	7.89	-31.2	-36.6	9.2	2.11e-02	0	44	0	1101004800	22	6735
2026-01-18 22:50:29.39	143.67	7.83	-31.2	-36.4	9.3	1.66e-02	0	44	0	1103101952	22	6624
2026-01-18 22:50:30.39	143.77	7.76	-31.2	-36.7	9.1	2.23e-02	0	44	0	1105199104	22	6792
2026-01-18 22:50:31.39	143.87	7.70	-31.2	-36.7	9.1	2.34e-02	0	44	0	1106247680	22	6759
2026-01-18 22:50:32.39	143.97	7.64	-31.3	-37.1	8.8	2.92e-02	0	44	0	1108344832	22	6994
2026-01-18 22:50:33.39	144.07	7.58	-31.4	-37.2	8.7	3.64e-02	0	44	0	1110441984	22	7043
2026-01-18 22:50:34.39	144.18	7.51	-31.3	-37.2	8.7	3.58e-02	0	44	0	1112539136	22	7036
2026-01-18 22:50:35.39	144.28	7.45	-31.4	-37.6	8.4	4.10e-02	0	44	0	1114636288	22	7341
2026-01-18 22:50:36.39	144.38	7.39	-31.5	-37.8	8.3	5.36e-02	0	44	0	1115684864	22	7423
2026-01-18 22:50:37.40	144.48	7.32	-31.4	-37.4	8.6	4.27e-02	0	44	0	1117782016	22	7175
2026-01-18 22:50:38.40	144.58	7.26	-31.4	-37.5	8.4	4.86e-02	0	44	0	1119879168	22	7255
2026-01-18 22:50:39.41	144.68	7.20	-31.4	-37.4	8.5	3.99e-02	0	44	0	1121976320	22	7247
2026-01-18 22:50:40.42	144.78	7.14	-31.4	-37.6	8.3	4.90e-02	0	44	0	1124073472	22	7377
2026-01-18 22:50:41.42	144.87	7.07	-32.7	-46.4	3.8	1.12e-01	0	44	0	1125122048	25	17524
2026-01-18 22:50:42.42	144.97	7.01	-33.3	-47.7	3.8	1.49e+00	0	44	104	1125122048	26	18970

#Closed at: 2026-01-18 22:50:43
#Recorded file [1125 MB]: D:/data/31010_260119_014040.dat