passes_logs/2026/01/18/R2M6_AANII_01/R2M6_AANII_01__20260118_233018_NOAA_21_JPSS-2_rec.log

#Pass ID: 20260118_233018_NOAA 21 (JPSS-2)
#Satellite: NOAA 21 (JPSS-2)
#Configuration: NOAA 21
#almurnet v.1.7.20240730
#Start time: 2026-01-18 23:30:19

#Version: 2.2.20231116
#Station: R2M6_AANII_01
#Location: 30.233357 lon 59.946436 lat
#TLE: 1 54234U 22150A   26017.90260625  .00000050  00000+0  44518-4 0  9994
#TLE: 2 54234  98.7502 318.7672 0000612 269.1755  90.9351 14.19535344165221

#Time	Az	El	Level	Level2	SNR	BER	BlckErr	Temp	State	Recorded	gain1	gain2
2026-01-18 23:30:19.92	23.22	7.09	-30.3	-35.1	4.7	1.38e+00	0	41	0	0	20	6219
2026-01-18 23:30:20.92	23.27	7.17	-30.9	-36.0	4.6	1.41e+00	0	41	104	0	22	6449
2026-01-18 23:30:21.92	23.32	7.24	-31.0	-35.6	7.8	6.97e-02	0	42	0	0	22	6097
2026-01-18 23:30:22.93	23.37	7.32	-31.3	-36.7	7.0	1.23e-01	0	42	0	3145728	22	6717
2026-01-18 23:30:23.93	23.42	7.39	-31.2	-36.2	7.4	1.31e-01	0	41	0	6291456	22	6380
2026-01-18 23:30:24.93	23.47	7.46	-31.0	-35.4	8.0	6.55e-02	0	42	0	9437184	22	5979
2026-01-18 23:30:25.93	23.52	7.54	-30.8	-35.2	8.5	4.53e-02	0	42	0	12582912	21	5991
2026-01-18 23:30:26.93	23.58	7.61	-30.5	-34.2	9.2	2.21e-02	0	42	0	15728640	21	5529
2026-01-18 23:30:27.93	23.63	7.69	-30.3	-34.3	9.5	1.47e-02	0	42	0	18874368	20	5664
2026-01-18 23:30:28.92	23.68	7.76	-30.4	-34.4	9.5	1.57e-02	0	42	0	22020096	20	5710
2026-01-18 23:30:29.92	23.73	7.84	-30.6	-34.6	9.0	1.80e-02	0	42	0	24117248	21	5682
2026-01-18 23:30:30.92	23.79	7.91	-30.2	-34.7	7.8	4.35e-02	0	42	0	27262976	22	6022
2026-01-18 23:30:31.92	23.84	7.99	-30.8	-34.6	8.6	5.10e-02	0	42	0	30408704	22	5604
2026-01-18 23:30:32.92	23.89	8.06	-30.5	-34.4	9.0	2.50e-02	0	42	0	33554432	21	5597
2026-01-18 23:30:33.93	23.95	8.14	-30.3	-34.2	9.6	1.45e-02	0	42	0	36700160	20	5611
2026-01-18 23:30:34.93	24.00	8.21	-30.1	-33.5	10.1	8.45e-03	0	42	0	39845888	20	5333
2026-01-18 23:30:35.93	24.06	8.29	-29.9	-33.0	10.5	4.70e-03	0	42	0	42991616	20	5116
2026-01-18 23:30:36.93	24.11	8.37	-29.9	-33.4	10.6	3.49e-03	0	42	0	46137344	19	5388
2026-01-18 23:30:37.93	24.16	8.44	-29.7	-32.8	11.0	2.49e-03	0	42	0	49283072	19	5158
2026-01-18 23:30:38.93	24.22	8.52	-29.7	-33.0	10.9	2.02e-03	0	42	0	52428800	19	5227
2026-01-18 23:30:39.94	24.28	8.60	-29.4	-32.4	11.6	1.14e-03	0	42	0	55574528	18	5132
2026-01-18 23:30:40.94	24.33	8.68	-29.3	-32.4	11.6	5.02e-04	0	42	0	58720256	18	5104
2026-01-18 23:30:41.95	24.39	8.75	-29.3	-32.1	11.8	7.41e-04	0	42	0	61865984	18	5018
2026-01-18 23:30:42.95	24.44	8.83	-29.7	-32.7	11.1	8.41e-04	0	42	0	65011712	19	5130
2026-01-18 23:30:43.94	24.50	8.91	-29.3	-31.7	11.8	7.35e-04	0	42	0	68157440	19	4764
2026-01-18 23:30:44.94	24.56	8.99	-29.2	-31.9	12.0	3.85e-04	0	42	0	71303168	18	4927
2026-01-18 23:30:45.95	24.61	9.07	-29.2	-32.1	11.9	1.92e-03	0	42	0	74448896	18	5007
2026-01-18 23:30:46.95	24.67	9.15	-29.4	-32.5	11.6	5.26e-04	0	42	0	77594624	18	5149
2026-01-18 23:30:47.96	24.73	9.23	-29.2	-32.1	11.9	4.78e-04	0	42	0	80740352	18	4984
2026-01-18 23:30:48.96	24.79	9.30	-29.1	-31.7	12.1	3.58e-04	0	42	0	83886080	18	4870
2026-01-18 23:30:49.97	24.85	9.38	-29.2	-32.0	11.9	3.11e-04	0	42	0	87031808	18	4971
2026-01-18 23:30:50.96	24.90	9.46	-29.1	-31.6	12.2	1.90e-03	0	42	0	90177536	18	4829
2026-01-18 23:30:51.97	24.96	9.54	-29.2	-32.0	12.0	1.79e-03	0	43	0	93323264	18	4955
2026-01-18 23:30:52.98	25.02	9.62	-29.0	-31.6	12.2	8.52e-04	0	42	0	96468992	18	4814
2026-01-18 23:30:53.98	25.08	9.71	-29.4	-32.4	11.7	3.11e-04	0	42	0	99614720	18	5105
2026-01-18 23:30:54.99	25.14	9.79	-29.1	-31.6	12.2	1.30e-03	0	42	0	102760448	18	4817
2026-01-18 23:30:56.00	25.20	9.87	-28.7	-31.2	12.8	7.70e-05	0	42	0	105906176	17	4808
2026-01-18 23:30:57.00	25.26	9.95	-28.5	-30.8	13.0	9.45e-04	0	43	0	109051904	17	4659
2026-01-18 23:30:58.01	25.33	10.03	-28.7	-31.2	12.8	1.55e-03	0	42	0	112197632	17	4801
2026-01-18 23:30:59.01	25.39	10.11	-28.5	-30.8	13.1	4.27e-05	0	43	0	115343360	17	4665
2026-01-18 23:31:00.01	25.45	10.19	-28.6	-30.8	13.1	9.80e-04	0	43	0	118489088	17	4671
2026-01-18 23:31:01.01	25.51	10.28	-28.7	-31.1	12.9	9.84e-04	0	43	0	121634816	17	4755
2026-01-18 23:31:02.01	25.57	10.36	-28.7	-31.2	12.8	4.42e-05	0	43	0	124780544	17	4801
2026-01-18 23:31:03.02	25.63	10.44	-28.7	-31.1	12.9	8.43e-04	0	43	0	127926272	17	4749
2026-01-18 23:31:04.02	25.70	10.52	-29.0	-31.9	12.4	1.74e-03	0	43	0	131072000	17	5027
2026-01-18 23:31:05.03	25.76	10.61	-28.8	-31.5	12.7	8.89e-04	0	43	0	134217728	17	4881
2026-01-18 23:31:06.03	25.82	10.69	-28.6	-30.9	13.1	5.32e-04	0	43	0	137363456	17	4682
2026-01-18 23:31:07.04	25.89	10.78	-28.5	-30.7	13.2	2.98e-04	0	43	0	140509184	17	4636
2026-01-18 23:31:08.04	25.95	10.86	-28.3	-30.2	13.4	9.24e-04	0	43	0	143654912	17	4480
2026-01-18 23:31:09.05	26.02	10.94	-28.4	-30.3	13.4	1.06e-05	0	43	0	146800640	17	4503
2026-01-18 23:31:10.05	26.08	11.03	-28.4	-30.9	13.3	9.80e-04	0	43	0	149946368	16	4812
2026-01-18 23:31:11.06	26.15	11.11	-28.3	-30.7	13.4	2.05e-05	0	43	0	153092096	16	4753
2026-01-18 23:31:12.07	26.21	11.20	-28.1	-30.3	13.8	8.30e-06	0	43	0	156237824	16	4599
2026-01-18 23:31:13.07	26.28	11.29	-28.0	-29.9	14.0	1.45e-03	0	43	0	159383552	16	4493
2026-01-18 23:31:14.07	26.34	11.37	-27.8	-29.9	14.1	1.42e-03	0	43	0	162529280	15	4619
2026-01-18 23:31:15.08	26.41	11.46	-27.8	-30.0	14.1	1.50e-06	0	43	0	165675008	15	4627
2026-01-18 23:31:16.08	26.48	11.54	-27.7	-29.7	14.2	1.76e-03	0	43	0	168820736	15	4546
2026-01-18 23:31:17.09	26.55	11.63	-27.8	-30.0	14.1	1.55e-03	0	43	0	171966464	15	4643
2026-01-18 23:31:18.09	26.61	11.72	-27.8	-29.9	14.1	2.96e-04	0	43	0	175112192	15	4620
2026-01-18 23:31:19.09	26.68	11.80	-27.8	-30.0	14.1	1.75e-03	0	43	0	178257920	15	4648
2026-01-18 23:31:20.10	26.75	11.89	-28.1	-30.1	13.9	1.85e-03	0	43	0	181403648	16	4551
2026-01-18 23:31:21.10	26.82	11.98	-28.0	-29.9	14.0	2.20e-06	0	43	0	184549376	16	4501
2026-01-18 23:31:22.11	26.89	12.07	-27.8	-30.1	14.0	6.67e-04	0	43	0	187695104	15	4678
2026-01-18 23:31:23.12	26.96	12.16	-27.8	-30.0	14.1	7.00e-07	0	43	0	190840832	15	4649
2026-01-18 23:31:24.12	27.03	12.24	-27.8	-29.9	14.2	2.20e-06	0	43	0	193986560	15	4611
2026-01-18 23:31:25.12	27.10	12.33	-27.8	-30.0	14.1	1.80e-03	0	43	0	197132288	15	4639
2026-01-18 23:31:26.13	27.17	12.42	-27.6	-29.4	14.4	1.72e-03	0	43	0	200278016	15	4467
2026-01-18 23:31:27.13	27.24	12.51	-27.6	-29.6	14.4	2.20e-06	0	43	0	203423744	15	4508
2026-01-18 23:31:28.14	27.31	12.60	-27.5	-29.3	14.5	0.00e+00	0	43	0	206569472	15	4430
2026-01-18 23:31:29.14	27.38	12.69	-27.5	-29.3	14.5	1.51e-03	0	43	0	209715200	15	4412
2026-01-18 23:31:30.15	27.46	12.78	-27.7	-29.8	14.2	0.00e+00	0	43	0	212860928	15	4574
2026-01-18 23:31:31.15	27.53	12.87	-27.8	-30.0	14.1	1.34e-03	0	43	0	216006656	15	4648
2026-01-18 23:31:32.15	27.60	12.96	-27.7	-29.8	14.2	5.75e-04	0	43	0	219152384	15	4586
2026-01-18 23:31:33.16	27.68	13.05	-27.8	-29.9	14.2	3.00e-06	0	43	0	222298112	15	4606
2026-01-18 23:31:34.17	27.75	13.14	-27.8	-30.1	14.1	1.50e-06	0	43	0	225443840	15	4653
2026-01-18 23:31:35.17	27.83	13.24	-27.8	-30.0	14.1	4.50e-06	0	43	0	228589568	15	4645
2026-01-18 23:31:36.17	27.90	13.33	-27.9	-30.2	14.0	7.00e-07	0	43	0	231735296	15	4687
2026-01-18 23:31:37.17	27.98	13.42	-27.9	-30.3	14.0	2.20e-06	0	43	0	234881024	15	4726
2026-01-18 23:31:38.17	28.05	13.51	-28.2	-30.4	13.8	5.30e-06	0	43	0	238026752	16	4634
2026-01-18 23:31:39.17	28.13	13.60	-28.0	-29.9	14.1	2.20e-06	0	43	0	241172480	16	4478
2026-01-18 23:31:40.18	28.20	13.70	-27.6	-29.4	14.5	0.00e+00	0	43	0	244318208	15	4468
2026-01-18 23:31:41.18	28.28	13.79	-27.4	-29.0	14.7	1.19e-03	0	43	0	247463936	15	4347
2026-01-18 23:31:42.18	28.36	13.89	-27.4	-29.0	14.8	0.00e+00	0	43	0	250609664	15	4343
2026-01-18 23:31:43.19	28.44	13.98	-27.4	-29.5	14.8	7.00e-07	0	43	0	253755392	14	4588
2026-01-18 23:31:44.20	28.52	14.08	-27.3	-29.4	14.9	0.00e+00	0	43	0	256901120	14	4563
2026-01-18 23:31:45.20	28.60	14.17	-27.3	-29.3	14.9	0.00e+00	0	43	0	260046848	14	4534
2026-01-18 23:31:46.20	28.67	14.26	-27.3	-29.2	14.9	0.00e+00	0	43	0	263192576	14	4508
2026-01-18 23:31:47.21	28.76	14.36	-27.4	-29.5	14.8	0.00e+00	0	43	0	266338304	14	4582
2026-01-18 23:31:48.21	28.84	14.46	-27.4	-29.5	14.8	0.00e+00	0	43	0	269484032	14	4589
2026-01-18 23:31:49.22	28.92	14.55	-27.4	-29.5	14.8	0.00e+00	0	43	0	272629760	14	4603
2026-01-18 23:31:50.22	29.00	14.65	-27.5	-29.7	14.7	0.00e+00	0	43	0	275775488	14	4658
2026-01-18 23:31:51.23	29.08	14.75	-27.6	-29.4	14.6	0.00e+00	0	43	0	278921216	15	4457
2026-01-18 23:31:52.23	29.16	14.84	-27.7	-29.8	14.3	7.00e-07	0	43	0	282066944	15	4565
2026-01-18 23:31:53.23	29.25	14.94	-27.6	-29.5	14.6	7.00e-07	0	43	0	285212672	15	4470
2026-01-18 23:31:54.23	29.33	15.04	-27.6	-29.4	14.6	0.00e+00	0	43	0	288358400	15	4449
2026-01-18 23:31:55.24	29.41	15.14	-27.7	-29.6	14.5	0.00e+00	0	43	0	291504128	15	4513
2026-01-18 23:31:56.24	29.50	15.23	-27.7	-29.6	14.5	0.00e+00	0	43	0	294649856	15	4511
2026-01-18 23:31:57.25	29.58	15.33	-27.6	-29.5	14.6	0.00e+00	0	43	0	297795584	15	4472
2026-01-18 23:31:58.25	29.67	15.43	-27.5	-29.3	14.7	1.50e-06	0	43	0	300941312	15	4422
2026-01-18 23:31:59.25	29.75	15.53	-27.5	-29.3	14.7	0.00e+00	0	43	0	304087040	15	4424
2026-01-18 23:32:00.26	29.84	15.63	-27.6	-29.6	14.5	0.00e+00	0	43	0	307232768	15	4498
2026-01-18 23:32:01.26	29.93	15.73	-27.6	-29.4	14.7	0.00e+00	0	43	0	310378496	15	4443
2026-01-18 23:32:02.27	30.02	15.83	-27.6	-29.4	14.6	7.00e-07	0	43	0	313524224	15	4455
2026-01-18 23:32:03.27	30.11	15.93	-27.6	-29.6	14.5	7.00e-07	0	43	0	316669952	15	4496
2026-01-18 23:32:04.27	30.19	16.04	-27.8	-29.8	14.4	7.00e-07	0	43	0	319815680	15	4577
2026-01-18 23:32:05.27	30.28	16.14	-27.8	-29.9	14.4	7.00e-07	0	43	0	322961408	15	4599
2026-01-18 23:32:06.27	30.37	16.24	-27.8	-29.9	14.4	0.00e+00	0	43	0	326107136	15	4605
2026-01-18 23:32:07.27	30.46	16.34	-27.8	-30.0	14.3	1.50e-06	0	43	0	329252864	15	4617
2026-01-18 23:32:08.26	30.55	16.44	-27.8	-30.0	14.3	7.00e-07	0	43	0	331350016	15	4634
2026-01-18 23:32:09.26	30.65	16.54	-27.9	-30.2	14.2	0.00e+00	0	44	0	334495744	15	4671
2026-01-18 23:32:10.26	30.74	16.65	-27.9	-30.1	14.3	2.20e-06	0	43	0	337641472	15	4662
2026-01-18 23:32:11.27	30.83	16.75	-27.9	-30.2	14.3	3.00e-06	0	43	0	341835776	15	4671
2026-01-18 23:32:12.28	30.93	16.86	-28.1	-30.2	14.1	7.00e-07	0	43	0	344981504	16	4550
2026-01-18 23:32:13.28	31.02	16.96	-28.0	-29.9	14.3	7.00e-07	0	44	0	348127232	16	4463
2026-01-18 23:32:14.28	31.11	17.07	-27.9	-30.2	14.3	1.50e-06	0	43	0	350224384	15	4675
2026-01-18 23:32:15.29	31.21	17.17	-27.9	-30.2	14.3	1.50e-06	0	44	0	353370112	15	4678
2026-01-18 23:32:16.29	31.31	17.28	-28.0	-30.3	14.2	1.50e-06	0	43	0	356515840	15	4724
2026-01-18 23:32:17.29	31.40	17.38	-28.2	-30.4	14.1	7.00e-07	0	44	0	359661568	16	4609
2026-01-18 23:32:18.29	31.50	17.49	-28.2	-30.4	14.1	7.00e-07	0	43	0	362807296	16	4605
2026-01-18 23:32:19.30	31.60	17.60	-28.2	-30.4	14.0	1.50e-06	0	43	0	365953024	16	4622
2026-01-18 23:32:20.30	31.70	17.70	-28.3	-30.6	13.9	5.30e-06	0	43	0	369098752	16	4669
2026-01-18 23:32:21.31	31.80	17.81	-28.2	-30.3	14.1	3.80e-06	0	44	0	372244480	16	4600
2026-01-18 23:32:22.32	31.90	17.92	-28.2	-30.2	14.2	0.00e+00	0	43	0	375390208	16	4565
2026-01-18 23:32:23.32	32.00	18.03	-28.1	-30.2	14.2	1.50e-06	0	43	0	378535936	16	4542
2026-01-18 23:32:24.32	32.10	18.14	-28.1	-30.0	14.3	7.00e-07	0	43	0	381681664	16	4497
2026-01-18 23:32:25.33	32.20	18.25	-27.9	-30.1	14.3	0.00e+00	0	43	0	384827392	15	4656
2026-01-18 23:32:26.33	32.31	18.36	-27.9	-30.1	14.4	1.98e-04	0	43	0	387973120	15	4651
2026-01-18 23:32:27.33	32.41	18.47	-27.9	-30.1	14.3	2.53e-04	0	43	0	391118848	15	4660
2026-01-18 23:32:28.33	32.51	18.58	-28.0	-30.2	14.3	0.00e+00	0	43	0	394264576	15	4691
2026-01-18 23:32:29.33	32.62	18.69	-27.8	-30.0	14.4	0.00e+00	0	43	0	397410304	15	4622
2026-01-18 23:32:30.34	32.72	18.80	-27.9	-30.2	14.4	1.50e-06	0	43	0	400556032	15	4669
2026-01-18 23:32:31.34	32.83	18.91	-27.9	-30.1	14.4	1.50e-06	0	43	0	403701760	15	4639
2026-01-18 23:32:32.35	32.94	19.03	-27.9	-30.2	14.3	3.80e-06	0	43	0	406847488	15	4679
2026-01-18 23:32:33.36	33.05	19.14	-27.8	-29.9	14.5	0.00e+00	0	43	0	409993216	15	4595
2026-01-18 23:32:34.36	33.16	19.25	-27.8	-29.9	14.5	0.00e+00	0	43	0	413138944	15	4596
2026-01-18 23:32:35.36	33.27	19.36	-27.7	-29.6	14.7	7.00e-07	0	43	0	416284672	15	4498
2026-01-18 23:32:36.36	33.38	19.48	-27.6	-29.5	14.8	0.00e+00	0	43	0	419430400	15	4464
2026-01-18 23:32:37.37	33.49	19.59	-27.6	-29.4	14.8	0.00e+00	0	44	0	422576128	15	4434
2026-01-18 23:32:38.37	33.60	19.71	-27.5	-29.2	14.9	1.22e-05	0	43	0	425721856	15	4369
2026-01-18 23:32:39.38	33.71	19.82	-27.6	-29.4	14.9	1.50e-06	0	43	0	428867584	15	4425
2026-01-18 23:32:40.38	33.83	19.94	-27.6	-29.4	14.8	0.00e+00	0	43	0	432013312	15	4423
2026-01-18 23:32:41.38	33.94	20.05	-27.3	-28.7	15.2	3.00e-04	0	43	0	435159040	15	4227
2026-01-18 23:32:42.39	34.06	20.17	-27.2	-29.0	15.4	6.83e-04	0	43	0	438304768	14	4415
2026-01-18 23:32:43.40	34.17	20.29	-27.2	-28.9	15.4	0.00e+00	0	43	0	441450496	14	4411
2026-01-18 23:32:44.40	34.29	20.41	-27.1	-28.8	15.5	1.22e-03	0	43	0	444596224	14	4363
2026-01-18 23:32:45.39	34.41	20.52	-27.0	-28.7	15.5	0.00e+00	0	44	0	447741952	14	4333
2026-01-18 23:32:46.40	34.53	20.64	-27.1	-28.7	15.5	0.00e+00	0	43	0	450887680	14	4358
2026-01-18 23:32:47.40	34.65	20.76	-27.2	-29.0	15.4	1.29e-03	0	44	0	454033408	14	4415
2026-01-18 23:32:48.41	34.77	20.88	-27.2	-29.0	15.3	1.08e-03	0	44	0	457179136	14	4436
2026-01-18 23:32:49.41	34.89	21.00	-26.9	-28.3	15.7	0.00e+00	0	43	0	460324864	14	4235
2026-01-18 23:32:50.42	35.01	21.12	-26.7	-27.9	16.0	0.00e+00	0	43	0	463470592	14	4126
2026-01-18 23:32:51.42	35.13	21.24	-26.7	-28.4	16.0	8.00e-04	0	43	0	466616320	13	4354
2026-01-18 23:32:52.42	35.26	21.36	-26.7	-28.3	16.0	0.00e+00	0	44	0	469762048	13	4341
2026-01-18 23:32:53.42	35.38	21.48	-26.6	-28.2	16.0	5.06e-04	0	44	0	472907776	13	4322
2026-01-18 23:32:54.42	35.51	21.60	-26.6	-28.2	16.1	3.30e-04	0	44	0	476053504	13	4300
2026-01-18 23:32:55.42	35.64	21.72	-26.5	-28.0	16.2	0.00e+00	0	43	0	479199232	13	4257
2026-01-18 23:32:56.43	35.77	21.85	-26.5	-27.9	16.3	0.00e+00	0	44	0	482344960	13	4234
2026-01-18 23:32:57.43	35.89	21.97	-26.6	-28.2	16.1	6.20e-04	0	43	0	485490688	13	4317
2026-01-18 23:32:58.44	36.02	22.09	-26.6	-28.2	16.1	0.00e+00	0	43	0	488636416	13	4301
2026-01-18 23:32:59.44	36.16	22.22	-26.5	-28.0	16.2	1.09e-03	0	44	0	491782144	13	4263
2026-01-18 23:33:00.44	36.29	22.34	-26.5	-28.4	16.2	1.67e-03	0	44	0	494927872	12	4485
2026-01-18 23:33:01.44	36.42	22.47	-26.5	-27.8	16.3	3.20e-04	0	44	0	498073600	13	4205
2026-01-18 23:33:02.44	36.55	22.59	-26.3	-27.5	16.5	1.25e-03	0	44	0	501219328	13	4125
2026-01-18 23:33:03.45	36.69	22.72	-26.4	-28.1	16.4	1.01e-03	0	44	0	504365056	12	4401
2026-01-18 23:33:04.45	36.83	22.84	-26.4	-28.1	16.4	0.00e+00	0	44	0	507510784	12	4392
2026-01-18 23:33:05.45	36.96	22.97	-26.3	-27.9	16.5	1.05e-03	0	44	0	510656512	12	4344
2026-01-18 23:33:06.46	37.10	23.10	-26.3	-27.9	16.5	1.73e-04	0	43	0	513802240	12	4351
2026-01-18 23:33:07.46	37.24	23.23	-26.3	-28.0	16.5	0.00e+00	0	44	0	516947968	12	4356
2026-01-18 23:33:08.47	37.38	23.36	-26.2	-27.8	16.6	7.35e-04	0	44	0	520093696	12	4324
2026-01-18 23:33:09.47	37.52	23.48	-26.3	-27.9	16.6	7.32e-04	0	44	0	523239424	12	4342
2026-01-18 23:33:10.48	37.67	23.61	-26.3	-28.1	16.5	1.18e-04	0	43	0	526385152	12	4391
2026-01-18 23:33:11.48	37.81	23.74	-26.3	-28.1	16.5	0.00e+00	0	44	0	529530880	12	4387
2026-01-18 23:33:12.49	37.96	23.87	-26.4	-28.2	16.4	3.96e-05	0	44	0	532676608	12	4436
2026-01-18 23:33:13.48	38.10	24.00	-26.5	-27.9	16.3	4.04e-05	0	44	0	535822336	13	4241
2026-01-18 23:33:14.49	38.25	24.14	-26.5	-28.0	16.3	3.55e-04	0	43	0	538968064	13	4258
2026-01-18 23:33:15.49	38.40	24.27	-26.6	-28.1	16.2	4.57e-05	0	43	0	542113792	13	4292
2026-01-18 23:33:16.49	38.55	24.40	-26.7	-28.3	16.1	1.04e-04	0	44	0	545259520	13	4348
2026-01-18 23:33:17.49	38.70	24.53	-26.7	-28.3	16.1	0.00e+00	0	44	0	548405248	13	4336
2026-01-18 23:33:18.50	38.85	24.66	-26.8	-28.6	15.9	1.90e-04	0	44	0	551550976	13	4432
2026-01-18 23:33:19.50	39.01	24.80	-26.8	-28.5	16.0	0.00e+00	0	44	0	554696704	13	4394
2026-01-18 23:33:20.50	39.16	24.93	-27.0	-28.9	15.8	0.00e+00	0	43	0	557842432	13	4519
2026-01-18 23:33:21.51	39.32	25.07	-27.0	-28.6	15.7	6.56e-05	0	44	0	560988160	14	4307
2026-01-18 23:33:22.51	39.47	25.20	-27.0	-28.5	15.8	6.94e-05	0	44	0	564133888	14	4285
2026-01-18 23:33:23.52	39.63	25.34	-27.1	-28.8	15.6	0.00e+00	0	44	0	567279616	14	4358
2026-01-18 23:33:24.52	39.79	25.47	-27.2	-29.0	15.5	2.44e-05	0	44	0	570425344	14	4420
2026-01-18 23:33:25.52	39.95	25.61	-27.3	-29.1	15.4	0.00e+00	0	44	0	573571072	14	4451
2026-01-18 23:33:26.53	40.12	25.75	-27.3	-29.2	15.4	0.00e+00	0	44	0	576716800	14	4488
2026-01-18 23:33:27.53	40.28	25.88	-27.4	-29.3	15.3	1.52e-05	0	44	0	579862528	14	4513
2026-01-18 23:33:28.54	40.45	26.02	-27.5	-29.0	15.2	1.50e-06	0	44	0	583008256	15	4322
2026-01-18 23:33:29.54	40.62	26.16	-27.2	-28.5	15.6	0.00e+00	0	44	0	586153984	15	4159
2026-01-18 23:33:30.54	40.78	26.30	-27.2	-28.3	15.6	0.00e+00	0	44	0	589299712	15	4130
2026-01-18 23:33:31.55	40.95	26.44	-27.1	-28.3	15.6	1.50e-06	0	44	0	592445440	15	4131
2026-01-18 23:33:32.55	41.13	26.58	-27.2	-28.3	15.6	0.00e+00	0	44	0	595591168	15	4123
2026-01-18 23:33:33.55	41.30	26.72	-27.1	-28.2	15.7	4.57e-05	0	44	0	598736896	15	4098
2026-01-18 23:33:34.55	41.47	26.86	-27.2	-28.4	15.6	2.13e-05	0	44	0	601882624	15	4133
2026-01-18 23:33:35.56	41.65	27.00	-27.2	-28.4	15.6	0.00e+00	0	44	0	605028352	15	4154
2026-01-18 23:33:36.56	41.83	27.14	-27.1	-28.2	15.7	0.00e+00	0	44	0	608174080	15	4093
2026-01-18 23:33:37.56	42.00	27.28	-27.1	-28.2	15.7	0.00e+00	0	44	0	611319808	15	4099
2026-01-18 23:33:38.57	42.19	27.42	-27.4	-28.9	15.4	0.00e+00	0	44	0	614465536	15	4272
2026-01-18 23:33:39.58	42.37	27.57	-27.5	-29.0	15.3	7.00e-07	0	44	0	617611264	15	4302
2026-01-18 23:33:40.58	42.55	27.71	-27.5	-29.0	15.3	0.00e+00	0	44	0	620756992	15	4305
2026-01-18 23:33:41.59	42.74	27.85	-27.5	-29.2	15.2	0.00e+00	0	44	0	623902720	15	4347
2026-01-18 23:33:42.60	42.93	28.00	-27.6	-29.5	15.1	0.00e+00	0	44	0	627048448	15	4433
2026-01-18 23:33:43.60	43.12	28.14	-27.6	-29.4	15.1	7.00e-07	0	44	0	630194176	15	4420
2026-01-18 23:33:44.60	43.30	28.29	-27.6	-29.4	15.1	0.00e+00	0	44	0	633339904	15	4409
2026-01-18 23:33:45.60	43.50	28.43	-27.8	-29.8	14.9	0.00e+00	0	44	0	636485632	15	4535
2026-01-18 23:33:46.60	43.69	28.58	-27.7	-29.7	15.0	7.00e-07	0	44	0	639631360	15	4492
2026-01-18 23:33:47.61	43.89	28.73	-27.5	-29.1	15.3	7.00e-07	0	44	0	642777088	15	4341
2026-01-18 23:33:48.61	44.08	28.87	-27.4	-28.8	15.4	0.00e+00	0	44	0	645922816	15	4258
2026-01-18 23:33:49.62	44.28	29.02	-27.4	-28.9	15.4	0.00e+00	0	44	0	649068544	15	4276
2026-01-18 23:33:50.63	44.48	29.17	-27.4	-29.0	15.4	0.00e+00	0	44	0	652214272	15	4297
2026-01-18 23:33:51.63	44.69	29.32	-27.4	-28.8	15.5	0.00e+00	0	44	0	655360000	15	4237
2026-01-18 23:33:52.63	44.89	29.46	-27.5	-29.0	15.3	0.00e+00	0	44	0	658505728	15	4303
2026-01-18 23:33:53.63	45.10	29.61	-27.4	-28.8	15.4	0.00e+00	0	44	0	661651456	15	4254
2026-01-18 23:33:54.64	45.31	29.76	-27.2	-28.4	15.6	0.00e+00	0	44	0	664797184	15	4147
2026-01-18 23:33:55.64	45.52	29.91	-27.2	-28.5	15.7	0.00e+00	0	44	0	667942912	15	4164
2026-01-18 23:33:56.65	45.73	30.06	-27.5	-29.1	15.3	0.00e+00	0	44	0	671088640	15	4317
2026-01-18 23:33:57.66	45.94	30.21	-27.4	-28.9	15.4	0.00e+00	0	44	0	673185792	15	4276
2026-01-18 23:33:58.66	46.16	30.36	-27.3	-28.7	15.5	0.00e+00	0	44	0	676331520	15	4220
2026-01-18 23:33:59.66	46.38	30.51	-27.4	-29.0	15.4	0.00e+00	0	44	0	679477248	15	4289
2026-01-18 23:34:00.67	46.60	30.66	-27.5	-29.1	15.3	0.00e+00	0	44	0	682622976	15	4336
2026-01-18 23:34:01.67	46.82	30.82	-27.6	-29.4	15.2	0.00e+00	0	44	0	686817280	15	4408
2026-01-18 23:34:02.66	47.04	30.97	-27.7	-29.5	15.1	0.00e+00	0	44	0	688914432	15	4441
2026-01-18 23:34:03.67	47.27	31.12	-27.8	-29.7	14.9	0.00e+00	0	44	0	693108736	15	4517
2026-01-18 23:34:04.67	47.49	31.27	-28.2	-30.2	14.6	7.00e-07	0	44	0	696254464	16	4513
2026-01-18 23:34:05.67	47.72	31.42	-28.2	-30.2	14.6	0.00e+00	0	44	0	698351616	16	4541
2026-01-18 23:34:06.67	47.96	31.58	-28.4	-30.6	14.4	0.00e+00	0	44	0	701497344	16	4642
2026-01-18 23:34:07.67	48.19	31.73	-28.4	-30.1	14.4	7.00e-07	0	44	0	704643072	17	4400
2026-01-18 23:34:08.68	48.43	31.88	-28.3	-29.9	14.4	7.00e-07	0	44	0	707788800	17	4344
2026-01-18 23:34:09.68	48.67	32.04	-28.3	-30.0	14.4	7.00e-07	0	44	0	710934528	17	4357
2026-01-18 23:34:10.68	48.91	32.19	-28.4	-30.2	14.3	1.50e-06	0	44	0	714080256	17	4429
2026-01-18 23:34:11.69	49.15	32.35	-28.4	-30.1	14.3	0.00e+00	0	44	0	717225984	17	4398
2026-01-18 23:34:12.69	49.40	32.50	-28.4	-30.2	14.3	0.00e+00	0	44	0	720371712	17	4431
2026-01-18 23:34:13.69	49.64	32.66	-28.6	-30.6	14.1	3.00e-06	0	44	0	723517440	17	4544
2026-01-18 23:34:14.70	49.89	32.81	-28.6	-30.5	14.1	1.50e-06	0	44	0	726663168	17	4517
2026-01-18 23:34:15.70	50.15	32.97	-28.4	-30.2	14.3	7.00e-07	0	44	0	729808896	17	4415
2026-01-18 23:34:16.71	50.40	33.12	-28.4	-30.2	14.3	7.00e-07	0	44	0	732954624	17	4402
2026-01-18 23:34:17.71	50.66	33.28	-28.3	-30.0	14.5	1.50e-06	0	44	0	736100352	17	4349
2026-01-18 23:34:18.72	50.92	33.44	-28.2	-29.6	14.7	7.00e-07	0	44	0	739246080	17	4238
2026-01-18 23:34:19.72	51.18	33.59	-28.1	-29.4	14.8	0.00e+00	0	44	0	742391808	17	4174
2026-01-18 23:34:20.72	51.45	33.75	-28.2	-29.7	14.6	0.00e+00	0	44	0	745537536	17	4277
2026-01-18 23:34:21.73	51.72	33.91	-28.3	-30.0	14.5	0.00e+00	0	44	0	748683264	17	4350
2026-01-18 23:34:22.72	51.98	34.06	-28.4	-30.1	14.4	1.50e-06	0	44	0	751828992	17	4393
2026-01-18 23:34:23.73	52.26	34.22	-28.5	-30.3	14.3	3.67e-04	0	44	0	754974720	17	4431
2026-01-18 23:34:24.73	52.53	34.37	-28.4	-30.1	14.4	2.20e-06	0	44	0	758120448	17	4389
2026-01-18 23:34:25.74	52.81	34.53	-28.3	-30.5	14.5	0.00e+00	0	44	0	761266176	16	4615
2026-01-18 23:34:26.74	53.09	34.69	-28.4	-30.6	14.4	7.00e-07	0	44	0	764411904	16	4630
2026-01-18 23:34:27.75	53.38	34.85	-28.4	-30.6	14.4	7.00e-07	0	44	0	767557632	16	4641
2026-01-18 23:34:28.75	53.66	35.00	-28.5	-30.8	14.3	3.89e-04	0	44	0	770703360	16	4717
2026-01-18 23:34:29.75	53.95	35.16	-28.7	-30.9	13.9	1.50e-06	0	44	0	773849088	17	4627
2026-01-18 23:34:30.76	54.24	35.32	-28.8	-31.1	13.8	3.80e-06	0	44	0	776994816	17	4691
2026-01-18 23:34:31.76	54.53	35.47	-28.9	-31.4	13.7	3.00e-06	0	44	0	780140544	17	4764
2026-01-18 23:34:32.76	54.83	35.63	-29.0	-30.9	13.7	3.97e-04	0	44	0	783286272	18	4520
2026-01-18 23:34:33.77	55.13	35.79	-28.9	-30.9	13.7	5.30e-06	0	44	0	786432000	18	4513
2026-01-18 23:34:34.77	55.43	35.94	-28.9	-30.9	13.7	8.08e-05	0	44	0	789577728	18	4503
2026-01-18 23:34:35.77	55.74	36.10	-28.9	-30.9	13.7	2.07e-04	0	44	0	792723456	18	4501
2026-01-18 23:34:36.77	56.04	36.26	-28.8	-30.4	13.9	4.50e-06	0	44	0	795869184	18	4365
2026-01-18 23:34:37.78	56.36	36.41	-28.6	-30.1	14.2	2.30e-04	0	44	0	799014912	18	4260
2026-01-18 23:34:38.78	56.67	36.57	-28.7	-30.4	14.0	6.18e-04	0	44	0	802160640	18	4352
2026-01-18 23:34:39.78	56.99	36.73	-28.8	-30.5	14.0	3.00e-06	0	44	0	805306368	18	4377
2026-01-18 23:34:40.78	57.31	36.88	-28.9	-31.4	13.7	8.03e-04	0	44	0	808452096	17	4774
2026-01-18 23:34:41.78	57.63	37.04	-29.0	-31.1	13.6	9.10e-06	0	44	0	811597824	18	4557
2026-01-18 23:34:42.79	57.96	37.19	-29.1	-31.3	13.5	6.80e-06	0	44	0	814743552	18	4625
2026-01-18 23:34:43.79	58.28	37.35	-28.9	-30.9	13.7	7.18e-04	0	44	0	817889280	18	4501
2026-01-18 23:34:44.80	58.62	37.50	-28.9	-30.8	13.8	4.45e-04	0	44	0	821035008	18	4484
2026-01-18 23:34:45.80	58.95	37.66	-28.9	-30.7	13.9	5.30e-06	0	44	0	824180736	18	4437
2026-01-18 23:34:46.81	59.29	37.81	-28.9	-30.8	13.8	3.80e-06	0	44	0	827326464	18	4475
2026-01-18 23:34:47.81	59.64	37.96	-28.8	-30.6	13.9	2.59e-04	0	44	0	830472192	18	4422
2026-01-18 23:34:48.82	59.98	38.12	-28.7	-30.3	14.1	7.00e-07	0	44	0	833617920	18	4322
2026-01-18 23:34:49.82	60.33	38.27	-28.7	-30.4	14.1	1.98e-04	0	44	0	836763648	18	4351
2026-01-18 23:34:50.83	60.68	38.42	-28.7	-30.3	14.0	2.55e-04	0	44	0	839909376	18	4344
2026-01-18 23:34:51.83	61.04	38.57	-28.9	-30.7	13.9	3.80e-06	0	44	0	843055104	18	4431
2026-01-18 23:34:52.83	61.39	38.72	-28.8	-30.5	14.0	7.00e-07	0	44	0	846200832	18	4383
2026-01-18 23:34:53.83	61.75	38.87	-28.9	-30.7	13.9	1.56e-04	0	44	0	849346560	18	4438
2026-01-18 23:34:54.84	62.12	39.03	-28.9	-30.7	13.9	2.20e-06	0	44	0	852492288	18	4438
2026-01-18 23:34:55.84	62.49	39.17	-28.8	-30.6	13.9	8.54e-05	0	44	0	855638016	18	4416
2026-01-18 23:34:56.85	62.86	39.32	-28.9	-30.9	13.8	2.23e-04	0	44	0	858783744	18	4492
2026-01-18 23:34:57.86	63.24	39.47	-28.9	-30.7	13.9	2.20e-06	0	44	0	861929472	18	4439
2026-01-18 23:34:58.86	63.62	39.62	-28.9	-30.8	13.8	1.25e-04	0	44	0	865075200	18	4480
2026-01-18 23:34:59.87	64.00	39.77	-29.1	-31.1	13.6	1.05e-04	0	44	0	868220928	18	4578
2026-01-18 23:35:00.87	64.38	39.91	-29.2	-31.4	13.5	9.10e-06	0	44	0	871366656	18	4655
2026-01-18 23:35:01.88	64.78	40.06	-29.2	-31.5	13.4	7.93e-05	0	44	0	874512384	18	4701
2026-01-18 23:35:02.89	65.17	40.20	-29.1	-31.3	13.6	1.06e-05	0	44	0	877658112	18	4617
2026-01-18 23:35:03.90	65.57	40.35	-29.2	-31.4	13.5	1.75e-05	0	44	0	880803840	18	4661
2026-01-18 23:35:04.90	65.97	40.49	-29.4	-32.0	13.1	3.66e-05	0	44	0	883949568	18	4855
2026-01-18 23:35:05.90	66.37	40.63	-29.7	-32.2	12.7	1.19e-04	0	44	0	887095296	19	4806
2026-01-18 23:35:06.89	66.77	40.77	-29.7	-32.1	12.7	7.62e-05	0	44	0	890241024	19	4773
2026-01-18 23:35:07.90	67.18	40.91	-29.6	-32.0	12.8	4.73e-05	0	44	0	893386752	19	4727
2026-01-18 23:35:08.89	67.59	41.04	-29.5	-31.7	13.0	3.05e-05	0	44	0	896532480	19	4637
2026-01-18 23:35:09.89	68.00	41.18	-29.7	-32.3	12.7	7.70e-05	0	44	0	899678208	19	4846
2026-01-18 23:35:10.90	68.42	41.32	-29.5	-31.8	12.9	6.86e-05	0	44	0	902823936	19	4683
2026-01-18 23:35:11.90	68.84	41.45	-29.5	-31.7	13.0	3.43e-05	0	44	0	905969664	19	4645
2026-01-18 23:35:12.90	69.27	41.58	-29.5	-31.8	12.9	4.27e-05	0	44	0	909115392	19	4678
2026-01-18 23:35:13.91	69.70	41.72	-29.8	-32.4	12.7	6.79e-05	0	44	0	912261120	19	4856
2026-01-18 23:35:14.91	70.13	41.85	-29.7	-32.3	12.7	8.08e-05	0	44	0	915406848	19	4821
2026-01-18 23:35:15.91	70.57	41.98	-29.9	-32.7	12.4	9.00e-05	0	44	0	918552576	19	4954
2026-01-18 23:35:16.91	71.01	42.10	-29.8	-32.6	12.5	9.38e-05	0	44	0	921698304	19	4919
2026-01-18 23:35:17.91	71.45	42.23	-29.9	-32.7	12.4	1.87e-04	0	44	0	924844032	19	4986
2026-01-18 23:35:18.92	71.90	42.36	-29.9	-32.3	12.2	2.08e-04	0	44	0	927989760	20	4742
2026-01-18 23:35:19.93	72.36	42.48	-30.1	-32.8	12.0	2.96e-04	0	44	0	931135488	20	4900
2026-01-18 23:35:20.93	72.81	42.60	-30.0	-32.6	12.1	2.71e-04	0	44	0	934281216	20	4835
2026-01-18 23:35:21.94	73.27	42.72	-30.0	-32.5	12.2	2.13e-04	0	44	0	937426944	20	4801
2026-01-18 23:35:22.94	73.73	42.84	-30.1	-32.8	11.9	2.81e-04	0	44	0	940572672	20	4908
2026-01-18 23:35:23.95	74.20	42.96	-29.7	-31.8	12.6	1.70e-04	0	44	0	943718400	20	4579
2026-01-18 23:35:24.96	74.67	43.08	-29.6	-31.4	12.9	6.94e-05	0	44	0	946864128	20	4437
2026-01-18 23:35:25.96	75.14	43.19	-29.6	-31.5	12.8	6.40e-05	0	44	0	950009856	20	4487
2026-01-18 23:35:26.97	75.62	43.30	-29.6	-31.6	12.8	7.09e-05	0	44	0	953155584	20	4508
2026-01-18 23:35:27.97	76.09	43.41	-29.3	-30.9	13.2	2.89e-05	0	44	0	956301312	20	4288
2026-01-18 23:35:28.97	76.57	43.52	-29.3	-31.2	13.3	1.83e-05	0	44	0	959447040	19	4489
2026-01-18 23:35:29.97	77.05	43.63	-29.3	-31.2	13.4	7.60e-06	0	44	0	962592768	19	4471
2026-01-18 23:35:30.97	77.54	43.73	-29.5	-31.7	13.1	3.28e-05	0	44	0	965738496	19	4629
2026-01-18 23:35:31.98	78.03	43.83	-29.8	-32.6	12.5	9.15e-05	0	44	0	968884224	19	4947
2026-01-18 23:35:32.99	78.53	43.94	-29.9	-32.7	12.4	1.62e-04	0	44	0	972029952	19	4980
2026-01-18 23:35:33.99	79.03	44.03	-29.7	-32.1	12.9	8.92e-05	0	44	0	975175680	19	4771
2026-01-18 23:35:35.00	79.53	44.13	-29.4	-31.5	13.1	3.05e-05	0	44	0	978321408	19	4580
2026-01-18 23:35:36.01	80.04	44.22	-29.7	-32.2	12.7	4.57e-05	0	44	0	981467136	19	4800
2026-01-18 23:35:37.01	80.54	44.32	-29.9	-32.4	12.2	1.68e-04	0	44	0	984612864	20	4772
2026-01-18 23:35:38.01	81.05	44.41	-30.1	-32.8	12.0	3.20e-04	0	44	0	987758592	20	4894
2026-01-18 23:35:39.02	81.56	44.49	-30.2	-33.0	11.9	4.26e-04	0	44	0	990904320	20	4971
2026-01-18 23:35:40.01	82.07	44.58	-30.1	-32.8	11.9	3.72e-04	0	44	0	994050048	20	4928
2026-01-18 23:35:41.02	82.59	44.66	-30.1	-32.7	12.1	3.08e-04	0	44	0	997195776	20	4862
2026-01-18 23:35:42.02	83.11	44.74	-30.2	-32.9	11.9	3.19e-04	0	44	0	999292928	20	4932
2026-01-18 23:35:43.02	83.63	44.82	-30.2	-33.0	11.8	4.39e-04	0	44	0	1003487232	20	4983
2026-01-18 23:35:44.01	84.15	44.89	-30.2	-33.0	11.9	4.34e-04	0	44	0	1005584384	20	4957
2026-01-18 23:35:45.02	84.68	44.97	-30.2	-33.0	11.9	4.86e-04	0	44	0	1009778688	20	4977
2026-01-18 23:35:46.02	85.20	45.04	-30.2	-33.1	11.8	4.01e-04	0	44	0	1012924416	20	5004
2026-01-18 23:35:47.03	85.74	45.11	-30.2	-33.0	11.9	4.51e-04	0	44	0	1016070144	20	4967
2026-01-18 23:35:48.03	86.27	45.17	-30.0	-32.5	12.2	2.98e-04	0	44	0	1019215872	20	4798
2026-01-18 23:35:49.04	86.81	45.23	-30.2	-32.9	11.9	2.37e-04	0	44	0	1022361600	20	4944
2026-01-18 23:35:50.04	87.35	45.29	-30.3	-33.3	11.7	5.77e-04	0	44	0	1024458752	20	5068
2026-01-18 23:35:51.05	87.89	45.35	-29.9	-32.2	12.4	1.70e-04	0	44	0	1027604480	20	4689
2026-01-18 23:35:52.06	88.44	45.41	-29.8	-31.8	12.6	1.29e-04	0	44	0	1030750208	20	4574
2026-01-18 23:35:53.06	88.98	45.46	-29.7	-31.6	12.8	7.93e-05	0	44	0	1033895936	20	4507
2026-01-18 23:35:54.07	89.53	45.51	-29.4	-31.1	13.1	2.82e-05	0	44	0	1038090240	20	4345
2026-01-18 23:35:55.07	90.08	45.56	-29.3	-30.8	13.3	1.90e-05	0	44	0	1041235968	20	4259
2026-01-18 23:35:56.07	90.62	45.60	-29.5	-31.6	13.1	1.98e-05	0	44	0	1044381696	19	4604
2026-01-18 23:35:57.08	91.18	45.64	-29.6	-31.9	12.9	3.43e-05	0	44	0	1046478848	19	4710
2026-01-18 23:35:58.08	91.73	45.68	-29.7	-32.3	12.6	7.01e-05	0	44	0	1049624576	19	4853
2026-01-18 23:35:59.07	92.27	45.71	-29.7	-32.3	12.6	1.07e-04	0	44	0	1052770304	19	4843
2026-01-18 23:36:00.07	92.83	45.75	-29.6	-32.1	12.9	6.40e-05	0	44	0	1055916032	19	4753
2026-01-18 23:36:01.07	93.38	45.78	-29.6	-32.0	12.9	5.79e-05	0	44	0	1059061760	19	4729
2026-01-18 23:36:02.07	93.93	45.80	-29.5	-31.6	13.1	2.82e-05	0	44	0	1062207488	19	4605
2026-01-18 23:36:03.07	94.49	45.83	-29.6	-31.9	13.0	4.11e-05	0	44	0	1065353216	19	4700
2026-01-18 23:36:04.08	95.05	45.85	-29.5	-31.8	13.0	5.03e-05	0	44	0	1068498944	19	4679
2026-01-18 23:36:05.08	95.61	45.87	-29.7	-32.1	12.8	4.88e-05	0	44	0	1071644672	19	4763
2026-01-18 23:36:06.09	96.17	45.88	-29.3	-31.3	13.3	3.66e-05	0	44	0	1074790400	19	4515
2026-01-18 23:36:07.10	96.74	45.89	-29.2	-31.1	13.5	1.60e-05	0	44	0	1077936128	19	4438
2026-01-18 23:36:08.10	97.30	45.90	-29.3	-31.3	13.3	1.14e-05	0	44	0	1081081856	19	4507
2026-01-18 23:36:09.10	97.85	45.91	-29.4	-31.6	13.1	3.43e-05	0	44	0	1084227584	19	4595
2026-01-18 23:36:10.10	98.41	45.91	-29.6	-32.0	12.9	3.66e-05	0	44	0	1087373312	19	4735
2026-01-18 23:36:11.10	98.97	45.91	-29.6	-31.8	13.0	3.28e-05	0	44	0	1090519040	19	4683
2026-01-18 23:36:12.10	99.53	45.91	-29.7	-32.2	12.8	5.34e-05	0	44	0	1093664768	19	4800
2026-01-18 23:36:13.10	100.09	45.91	-29.7	-32.2	12.8	4.11e-05	0	44	0	1096810496	19	4792
2026-01-18 23:36:14.10	100.65	45.90	-29.7	-32.2	12.8	7.32e-05	0	44	0	1099956224	19	4815
2026-01-18 23:36:15.10	101.21	45.89	-29.4	-31.5	13.2	4.11e-05	0	44	0	1103101952	19	4562
2026-01-18 23:36:16.10	101.77	45.87	-29.4	-31.5	13.1	1.22e-05	0	44	0	1106247680	19	4558
2026-01-18 23:36:17.11	102.33	45.86	-29.6	-32.0	12.9	4.73e-05	0	44	0	1109393408	19	4738
2026-01-18 23:36:18.11	102.89	45.84	-29.6	-31.9	12.9	4.65e-05	0	44	0	1112539136	19	4703
2026-01-18 23:36:19.10	103.44	45.81	-29.7	-32.1	12.8	5.49e-05	0	44	0	1115684864	19	4771
2026-01-18 23:36:20.11	104.00	45.79	-29.5	-31.7	13.1	3.73e-05	0	44	0	1118830592	19	4630
2026-01-18 23:36:21.11	104.55	45.76	-29.5	-31.8	13.1	3.96e-05	0	44	0	1121976320	19	4656
2026-01-18 23:36:22.11	105.11	45.73	-29.4	-31.5	13.3	2.74e-05	0	44	0	1125122048	19	4559
2026-01-18 23:36:23.12	105.66	45.69	-29.4	-31.4	13.3	1.83e-05	0	44	0	1128267776	19	4552
2026-01-18 23:36:24.12	106.21	45.65	-29.5	-31.7	13.2	2.59e-05	0	44	0	1131413504	19	4631
2026-01-18 23:36:25.13	106.77	45.61	-29.4	-31.4	13.2	2.36e-05	0	44	0	1134559232	19	4549
2026-01-18 23:36:26.13	107.32	45.57	-29.4	-31.4	13.3	2.59e-05	0	44	0	1137704960	19	4547
2026-01-18 23:36:27.14	107.87	45.52	-29.3	-31.3	13.4	2.28e-05	0	44	0	1140850688	19	4500
2026-01-18 23:36:28.15	108.42	45.48	-29.2	-30.9	13.5	1.06e-05	0	44	0	1143996416	19	4389
2026-01-18 23:36:29.15	108.96	45.42	-29.1	-30.7	13.7	6.80e-06	0	44	0	1147142144	19	4332
2026-01-18 23:36:30.16	109.51	45.37	-29.2	-31.0	13.5	7.60e-06	0	44	0	1150287872	19	4414
2026-01-18 23:36:31.16	110.05	45.31	-29.2	-31.0	13.5	9.10e-06	0	44	0	1153433600	19	4429
2026-01-18 23:36:32.16	110.59	45.25	-29.6	-32.0	12.9	4.65e-05	0	44	0	1156579328	19	4725
2026-01-18 23:36:33.15	111.12	45.19	-29.6	-32.0	12.9	4.27e-05	0	44	0	1159725056	19	4738
2026-01-18 23:36:34.16	111.66	45.13	-29.5	-31.7	13.1	4.11e-05	0	44	0	1162870784	19	4646
2026-01-18 23:36:35.15	112.18	45.06	-29.5	-31.8	13.1	4.19e-05	0	44	0	1166016512	19	4670
2026-01-18 23:36:36.16	112.72	44.99	-29.4	-31.5	13.2	2.59e-05	0	44	0	1169162240	19	4579
2026-01-18 23:36:37.16	113.25	44.92	-29.6	-32.0	12.9	3.50e-05	0	44	0	1172307968	19	4719
2026-01-18 23:36:38.16	113.77	44.84	-29.8	-32.5	12.6	6.56e-05	0	44	0	1175453696	19	4895
2026-01-18 23:36:39.17	114.30	44.77	-29.9	-32.6	12.6	1.15e-04	0	44	0	1178599424	19	4930
2026-01-18 23:36:40.17	114.82	44.69	-29.6	-32.0	13.0	3.58e-05	0	44	0	1181745152	19	4719
2026-01-18 23:36:41.17	115.33	44.60	-29.5	-31.7	13.1	4.04e-05	0	44	0	1184890880	19	4640
2026-01-18 23:36:42.17	115.85	44.52	-29.5	-31.7	13.1	4.19e-05	0	44	0	1188036608	19	4637
2026-01-18 23:36:43.17	116.36	44.43	-29.0	-30.5	13.8	4.50e-06	0	44	0	1191182336	19	4267
2026-01-18 23:36:44.18	116.87	44.34	-28.8	-30.0	14.1	3.80e-06	0	44	0	1194328064	19	4126
2026-01-18 23:36:45.18	117.38	44.25	-28.9	-30.8	14.0	2.20e-06	0	44	0	1197473792	18	4462
2026-01-18 23:36:46.18	117.88	44.16	-29.2	-31.5	13.6	4.50e-06	0	44	0	1200619520	18	4678
2026-01-18 23:36:47.19	118.39	44.06	-29.4	-32.0	13.3	5.34e-05	0	44	0	1203765248	18	4832
2026-01-18 23:36:48.19	118.89	43.96	-29.5	-31.6	13.2	2.67e-05	0	44	0	1206910976	19	4613
2026-01-18 23:36:49.19	119.38	43.86	-29.4	-31.4	13.2	2.67e-05	0	44	0	1210056704	19	4551
2026-01-18 23:36:50.20	119.88	43.76	-29.5	-31.5	13.2	2.89e-05	0	44	0	1213202432	19	4579
2026-01-18 23:36:51.20	120.36	43.66	-29.2	-31.0	13.5	6.80e-06	0	44	0	1216348160	19	4428
2026-01-18 23:36:52.20	120.85	43.55	-29.1	-30.8	13.7	5.30e-06	0	44	0	1219493888	19	4343
2026-01-18 23:36:53.21	121.34	43.44	-29.5	-31.6	13.2	1.83e-05	0	44	0	1222639616	19	4602
2026-01-18 23:36:54.22	121.82	43.33	-29.7	-32.2	12.9	5.03e-05	0	44	0	1225785344	19	4781
2026-01-18 23:36:55.23	122.30	43.22	-29.9	-32.3	12.4	1.42e-04	0	44	0	1228931072	20	4720
2026-01-18 23:36:56.23	122.77	43.11	-29.7	-31.7	12.8	8.08e-05	0	44	0	1232076800	20	4526
2026-01-18 23:36:57.23	123.24	42.99	-29.4	-31.0	13.1	3.73e-05	0	44	0	1235222528	20	4331
2026-01-18 23:36:58.23	123.70	42.88	-29.4	-31.0	13.2	2.21e-05	0	44	0	1238368256	20	4322
2026-01-18 23:36:59.23	124.17	42.76	-29.4	-30.9	13.2	1.98e-05	0	44	0	1241513984	20	4282
2026-01-18 23:37:00.23	124.62	42.64	-29.4	-30.9	13.2	2.13e-05	0	44	0	1244659712	20	4280
2026-01-18 23:37:01.24	125.08	42.51	-29.3	-31.3	13.4	9.90e-06	0	44	0	1247805440	19	4500
2026-01-18 23:37:02.24	125.54	42.39	-29.7	-32.2	12.8	4.95e-05	0	44	0	1250951168	19	4795
2026-01-18 23:37:03.24	125.98	42.27	-29.8	-32.4	12.7	6.25e-05	0	44	0	1254096896	19	4856
2026-01-18 23:37:04.25	126.43	42.14	-29.9	-32.6	12.5	1.10e-04	0	44	0	1257242624	19	4932
2026-01-18 23:37:05.26	126.88	42.01	-29.7	-32.3	12.8	7.01e-05	0	44	0	1260388352	19	4818
2026-01-18 23:37:06.26	127.32	41.88	-29.6	-32.0	12.9	3.89e-05	0	44	0	1263534080	19	4739
2026-01-18 23:37:07.26	127.75	41.75	-29.6	-31.9	13.0	2.97e-05	0	44	0	1266679808	19	4693
2026-01-18 23:37:08.26	128.18	41.62	-29.4	-31.5	13.2	2.05e-05	0	44	0	1269825536	19	4555
2026-01-18 23:37:09.25	128.61	41.49	-29.2	-30.8	13.6	7.60e-06	0	44	0	1272971264	19	4370
2026-01-18 23:37:10.26	129.03	41.35	-29.1	-30.8	13.6	4.50e-06	0	44	0	1276116992	19	4349
2026-01-18 23:37:11.26	129.45	41.21	-29.3	-31.2	13.4	1.67e-05	0	44	0	1279262720	19	4492
2026-01-18 23:37:12.27	129.88	41.08	-29.4	-31.5	13.2	2.89e-05	0	44	0	1282408448	19	4573
2026-01-18 23:37:13.27	130.29	40.94	-29.3	-31.2	13.4	1.52e-05	0	44	0	1285554176	19	4492
2026-01-18 23:37:14.27	130.70	40.80	-29.3	-31.3	13.3	1.14e-05	0	44	0	1288699904	19	4498
2026-01-18 23:37:15.28	131.11	40.66	-29.4	-31.5	13.2	2.89e-05	0	44	0	1291845632	19	4582
2026-01-18 23:37:16.28	131.51	40.52	-29.5	-31.6	13.2	3.73e-05	0	44	0	1294991360	19	4617
2026-01-18 23:37:17.28	131.91	40.38	-29.6	-31.9	13.0	3.96e-05	0	44	0	1298137088	19	4699
2026-01-18 23:37:18.28	132.31	40.23	-29.6	-32.0	12.9	3.20e-05	0	44	0	1300234240	19	4754
2026-01-18 23:37:19.27	132.70	40.09	-29.7	-32.1	12.8	6.94e-05	0	44	0	1303379968	19	4781
2026-01-18 23:37:20.27	133.09	39.95	-29.7	-32.3	12.7	6.40e-05	0	44	0	1306525696	19	4848
2026-01-18 23:37:21.28	133.48	39.80	-29.7	-32.1	12.9	6.17e-05	0	44	0	1309671424	19	4794
2026-01-18 23:37:22.28	133.86	39.65	-29.5	-31.7	13.1	3.05e-05	0	44	0	1312817152	19	4638
2026-01-18 23:37:23.28	134.24	39.50	-29.5	-31.8	13.0	3.81e-05	0	44	0	1315962880	19	4681
2026-01-18 23:37:24.28	134.61	39.36	-29.5	-31.8	13.0	3.35e-05	0	44	0	1319108608	19	4680
2026-01-18 23:37:25.28	134.99	39.21	-29.6	-31.9	13.0	4.11e-05	0	44	0	1322254336	19	4703
2026-01-18 23:37:26.29	135.36	39.06	-29.4	-31.3	13.3	1.98e-05	0	44	0	1325400064	19	4510
2026-01-18 23:37:27.28	135.72	38.91	-29.5	-31.6	13.1	2.59e-05	0	44	0	1328545792	19	4621
2026-01-18 23:37:28.29	136.09	38.76	-29.5	-31.8	13.0	4.42e-05	0	44	0	1331691520	19	4667
2026-01-18 23:37:29.29	136.45	38.61	-29.6	-31.9	13.0	3.50e-05	0	44	0	1334837248	19	4695
2026-01-18 23:37:30.29	136.80	38.45	-29.6	-32.0	12.9	4.34e-05	0	44	0	1337982976	19	4733
2026-01-18 23:37:31.29	137.16	38.30	-29.7	-32.3	12.7	9.30e-05	0	44	0	1341128704	19	4850
2026-01-18 23:37:32.30	137.51	38.15	-29.6	-31.9	12.9	4.50e-05	0	44	0	1344274432	19	4721
2026-01-18 23:37:33.31	137.86	37.99	-29.2	-31.0	13.5	1.83e-05	0	44	0	1347420160	19	4439
2026-01-18 23:37:34.31	138.20	37.84	-29.0	-31.0	13.8	3.80e-06	0	44	0	1350565888	18	4544
2026-01-18 23:37:35.32	138.54	37.68	-29.0	-30.9	13.8	6.10e-06	0	44	0	1353711616	18	4500
2026-01-18 23:37:36.32	138.88	37.53	-29.0	-31.0	13.8	4.50e-06	0	44	0	1356857344	18	4528
2026-01-18 23:37:37.33	139.22	37.37	-29.0	-31.1	13.7	5.30e-06	0	44	0	1360003072	18	4558
2026-01-18 23:37:38.33	139.55	37.22	-29.0	-31.0	13.8	9.10e-06	0	44	0	1363148800	18	4515
2026-01-18 23:37:39.33	139.87	37.06	-28.6	-30.0	14.4	7.00e-07	0	44	0	1366294528	18	4236
2026-01-18 23:37:40.34	140.20	36.90	-28.4	-29.5	14.6	0.00e+00	0	44	0	1369440256	18	4108
2026-01-18 23:37:41.34	140.52	36.75	-28.2	-29.6	14.9	0.00e+00	0	44	0	1372585984	17	4229
2026-01-18 23:37:42.34	140.84	36.59	-28.3	-29.7	14.8	7.00e-07	0	44	0	1375731712	17	4274
2026-01-18 23:37:43.34	141.16	36.44	-28.2	-29.6	14.9	0.00e+00	0	44	0	1378877440	17	4237
2026-01-18 23:37:44.35	141.47	36.28	-28.1	-29.9	15.0	0.00e+00	0	44	0	1382023168	16	4415
2026-01-18 23:37:45.35	141.78	36.12	-28.1	-29.9	15.0	0.00e+00	0	44	0	1385168896	16	4429
2026-01-18 23:37:46.35	142.09	35.96	-28.1	-30.0	14.9	0.00e+00	0	44	0	1388314624	16	4443
2026-01-18 23:37:47.36	142.39	35.80	-28.2	-30.1	14.8	0.00e+00	0	44	0	1391460352	16	4489
2026-01-18 23:37:48.36	142.69	35.65	-28.1	-30.0	14.9	0.00e+00	0	44	0	1394606080	16	4449
2026-01-18 23:37:49.37	142.99	35.49	-28.4	-30.5	14.6	7.00e-07	0	44	0	1397751808	16	4597
2026-01-18 23:37:50.37	143.29	35.33	-28.6	-30.5	14.3	7.00e-07	0	44	0	1400897536	17	4505
2026-01-18 23:37:51.38	143.58	35.17	-28.6	-30.6	14.3	0.00e+00	0	44	0	1404043264	17	4518
2026-01-18 23:37:52.39	143.88	35.01	-28.6	-30.5	14.3	2.20e-06	0	44	0	1407188992	17	4485
2026-01-18 23:37:53.39	144.16	34.86	-28.5	-30.4	14.4	0.00e+00	0	44	0	1410334720	17	4462
2026-01-18 23:37:54.39	144.45	34.70	-28.4	-30.1	14.6	0.00e+00	0	44	0	1413480448	17	4364
2026-01-18 23:37:55.39	144.73	34.54	-28.2	-30.2	14.8	7.00e-07	0	44	0	1416626176	16	4499
2026-01-18 23:37:56.39	145.01	34.38	-28.2	-30.2	14.8	0.00e+00	0	44	0	1419771904	16	4511
2026-01-18 23:37:57.40	145.28	34.22	-28.5	-30.3	14.4	0.00e+00	0	44	0	1422917632	17	4421
2026-01-18 23:37:58.40	145.56	34.07	-28.4	-30.2	14.5	1.50e-06	0	44	0	1426063360	17	4407
2026-01-18 23:37:59.40	145.83	33.91	-28.6	-30.5	14.3	1.50e-06	0	44	0	1429209088	17	4493
2026-01-18 23:38:00.39	146.09	33.75	-28.7	-30.8	14.1	7.00e-07	0	44	0	1432354816	17	4591
2026-01-18 23:38:01.40	146.36	33.60	-28.6	-30.6	14.2	1.50e-06	0	44	0	1435500544	17	4520
2026-01-18 23:38:02.41	146.63	33.44	-28.5	-30.3	14.4	1.50e-06	0	44	0	1438646272	17	4435
2026-01-18 23:38:03.41	146.89	33.28	-28.5	-30.4	14.3	1.50e-06	0	44	0	1441792000	17	4466
2026-01-18 23:38:04.41	147.15	33.13	-28.6	-30.5	14.3	2.20e-06	0	44	0	1444937728	17	4500
2026-01-18 23:38:05.41	147.40	32.97	-28.4	-30.0	14.5	0.00e+00	0	44	0	1448083456	17	4354
2026-01-18 23:38:06.42	147.66	32.81	-28.4	-30.1	14.5	0.00e+00	0	44	0	1451229184	17	4380
2026-01-18 23:38:07.43	147.91	32.65	-28.4	-30.6	14.5	1.50e-06	0	44	0	1454374912	16	4630
2026-01-18 23:38:08.43	148.16	32.50	-28.2	-30.2	14.7	0.00e+00	0	44	0	1457520640	16	4525
2026-01-18 23:38:09.43	148.41	32.34	-28.3	-30.3	14.7	7.00e-07	0	44	0	1460666368	16	4541
2026-01-18 23:38:10.44	148.65	32.19	-28.2	-30.1	14.8	7.00e-07	0	44	0	1463812096	16	4489
2026-01-18 23:38:11.44	148.89	32.03	-27.9	-29.5	15.1	7.00e-07	0	44	0	1466957824	16	4320
2026-01-18 23:38:12.45	149.14	31.88	-27.9	-29.4	15.2	7.00e-07	0	44	0	1470103552	16	4293
2026-01-18 23:38:13.45	149.37	31.72	-27.7	-29.6	13.6	2.20e-06	0	44	0	1473249280	15	4474
2026-01-18 23:38:14.46	149.61	31.57	-27.7	-29.6	15.2	0.00e+00	0	44	0	1476395008	15	4450
2026-01-18 23:38:15.47	149.85	31.41	-27.9	-29.9	13.6	0.00e+00	0	44	0	1479540736	15	4563
2026-01-18 23:38:16.47	150.08	31.26	-28.1	-29.9	14.8	7.00e-07	0	44	0	1482686464	16	4416
2026-01-18 23:38:17.47	150.30	31.10	-28.0	-29.7	15.0	0.00e+00	0	44	0	1485832192	16	4362
2026-01-18 23:38:18.47	150.53	30.95	-27.6	-29.3	15.3	0.00e+00	0	44	0	1488977920	15	4372
2026-01-18 23:38:19.47	150.76	30.80	-27.6	-29.2	15.4	0.00e+00	0	44	0	1492123648	15	4360
2026-01-18 23:38:20.48	150.98	30.64	-27.6	-29.4	15.3	0.00e+00	0	44	0	1495269376	15	4399
2026-01-18 23:38:21.48	151.20	30.49	-27.8	-29.7	15.1	0.00e+00	0	44	0	1498415104	15	4492
2026-01-18 23:38:22.49	151.42	30.34	-27.8	-29.8	15.0	0.00e+00	0	44	0	1501560832	15	4526
2026-01-18 23:38:23.49	151.64	30.19	-28.3	-30.3	14.6	0.00e+00	0	44	0	1504706560	16	4551
2026-01-18 23:38:24.49	151.85	30.04	-28.3	-30.3	14.6	0.00e+00	0	44	0	1507852288	16	4555
2026-01-18 23:38:25.49	152.06	29.89	-28.1	-29.9	14.8	3.27e-03	0	44	0	1510998016	16	4441
2026-01-18 23:38:26.49	152.27	29.74	-28.1	-29.9	14.9	7.00e-07	0	44	0	1514143744	16	4419
2026-01-18 23:38:27.50	152.48	29.59	-28.2	-30.1	14.8	1.50e-06	0	44	0	1517289472	16	4477
2026-01-18 23:38:28.50	152.69	29.44	-28.2	-30.0	14.8	2.20e-06	0	44	0	1520435200	16	4473
2026-01-18 23:38:29.50	152.90	29.29	-28.0	-29.7	14.9	0.00e+00	0	44	0	1523580928	16	4387
2026-01-18 23:38:30.51	153.10	29.14	-28.1	-29.8	14.9	3.82e-03	0	44	0	1526726656	16	4405
2026-01-18 23:38:31.51	153.30	28.99	-28.1	-29.8	14.9	3.72e-03	0	44	0	1529872384	16	4407
2026-01-18 23:38:32.51	153.50	28.84	-27.8	-29.2	15.2	0.00e+00	0	44	0	1533018112	16	4243
2026-01-18 23:38:33.51	153.70	28.70	-27.5	-29.0	15.4	0.00e+00	0	44	0	1536163840	15	4296
2026-01-18 23:38:34.52	153.90	28.55	-27.4	-29.4	15.5	0.00e+00	0	44	0	1539309568	14	4506
2026-01-18 23:38:35.53	154.09	28.40	-27.4	-29.3	15.5	0.00e+00	0	44	0	1542455296	14	4485
2026-01-18 23:38:36.53	154.28	28.25	-27.5	-29.5	15.4	2.70e-03	0	44	0	1545601024	14	4567
2026-01-18 23:38:37.53	154.47	28.11	-27.6	-29.4	15.2	2.86e-03	0	44	0	1548746752	15	4403
2026-01-18 23:38:38.54	154.66	27.96	-27.7	-29.5	15.1	0.00e+00	0	44	0	1551892480	15	4429
2026-01-18 23:38:39.54	154.85	27.82	-27.4	-29.3	15.5	0.00e+00	0	44	0	1555038208	14	4506
2026-01-18 23:38:40.55	155.04	27.67	-27.3	-29.1	15.6	3.36e-03	0	44	0	1558183936	14	4440
2026-01-18 23:38:41.55	155.22	27.53	-27.4	-29.4	15.4	0.00e+00	0	44	0	1561329664	14	4539
2026-01-18 23:38:42.55	155.41	27.38	-27.4	-28.9	15.4	3.55e-03	0	44	0	1564475392	15	4277
2026-01-18 23:38:43.55	155.59	27.24	-27.4	-29.3	15.5	3.28e-03	0	44	0	1567621120	14	4494
2026-01-18 23:38:44.56	155.77	27.10	-27.4	-29.3	15.5	0.00e+00	0	44	0	1570766848	14	4497
2026-01-18 23:38:45.56	155.94	26.95	-27.5	-29.6	15.3	3.16e-03	0	44	0	1573912576	14	4579
2026-01-18 23:38:46.56	156.12	26.81	-27.7	-29.6	15.1	3.47e-03	0	44	0	1577058304	15	4467
2026-01-18 23:38:47.57	156.30	26.67	-27.8	-29.7	15.0	0.00e+00	0	44	0	1580204032	15	4517
2026-01-18 23:38:48.57	156.47	26.53	-27.8	-29.9	14.9	3.30e-03	0	44	0	1583349760	15	4559
2026-01-18 23:38:49.57	156.64	26.39	-28.2	-30.1	14.7	3.21e-03	0	44	0	1586495488	16	4498
2026-01-18 23:38:50.58	156.81	26.25	-28.0	-29.8	14.8	7.00e-07	0	44	0	1589641216	16	4417
2026-01-18 23:38:51.58	156.98	26.11	-27.6	-29.5	15.1	3.12e-03	0	44	0	1592786944	15	4434
2026-01-18 23:38:52.58	157.15	25.97	-27.4	-29.0	15.4	2.83e-03	0	44	0	1595932672	15	4289
2026-01-18 23:38:53.59	157.32	25.83	-27.3	-28.7	15.5	0.00e+00	0	44	0	1598029824	15	4219
2026-01-18 23:38:54.59	157.48	25.69	-27.2	-29.0	15.6	2.99e-03	0	44	0	1601175552	14	4405
2026-01-18 23:38:55.60	157.65	25.55	-27.2	-28.9	15.7	0.00e+00	0	44	0	1604321280	14	4367
2026-01-18 23:38:56.60	157.81	25.42	-27.4	-29.3	15.5	0.00e+00	0	44	0	1607467008	14	4487
2026-01-18 23:38:57.60	157.97	25.28	-27.2	-29.0	15.6	3.25e-03	0	44	0	1610612736	14	4407
2026-01-18 23:38:58.61	158.13	25.14	-26.9	-28.3	16.0	3.10e-03	0	44	0	1614807040	14	4221
2026-01-18 23:38:59.61	158.28	25.01	-26.8	-28.1	16.1	0.00e+00	0	44	0	1617952768	14	4158
2026-01-18 23:39:00.61	158.44	24.87	-26.8	-28.5	16.1	0.00e+00	0	44	0	1621098496	13	4397
2026-01-18 23:39:01.62	158.60	24.74	-26.9	-28.7	16.0	0.00e+00	0	44	0	1623195648	13	4457
2026-01-18 23:39:02.62	158.75	24.60	-26.9	-28.8	15.9	0.00e+00	0	44	0	1626341376	13	4483
2026-01-18 23:39:03.62	158.90	24.47	-27.0	-28.5	15.9	3.05e-03	0	44	0	1629487104	14	4283
2026-01-18 23:39:04.61	159.05	24.34	-27.1	-28.6	15.8	3.47e-03	0	44	0	1632632832	14	4308
2026-01-18 23:39:05.61	159.20	24.21	-27.0	-28.6	15.8	0.00e+00	0	44	0	1635778560	14	4299
2026-01-18 23:39:06.61	159.35	24.07	-26.9	-28.2	16.0	0.00e+00	0	44	0	1638924288	14	4190
2026-01-18 23:39:07.61	159.50	23.94	-26.9	-28.8	15.9	0.00e+00	0	44	0	1642070016	13	4485
2026-01-18 23:39:08.61	159.65	23.81	-26.9	-28.7	16.0	0.00e+00	0	44	0	1645215744	13	4433
2026-01-18 23:39:09.61	159.79	23.68	-27.0	-28.9	15.9	3.64e-03	0	44	0	1648361472	13	4504
2026-01-18 23:39:10.61	159.93	23.55	-27.2	-29.0	15.6	0.00e+00	0	44	0	1651507200	14	4418
2026-01-18 23:39:11.62	160.08	23.42	-27.2	-29.0	15.5	0.00e+00	0	44	0	1654652928	14	4430
2026-01-18 23:39:12.62	160.22	23.29	-27.2	-28.8	15.6	0.00e+00	0	44	0	1657798656	14	4375
2026-01-18 23:39:13.63	160.36	23.16	-27.2	-28.9	15.6	3.76e-03	0	44	0	1660944384	14	4378
2026-01-18 23:39:14.64	160.50	23.03	-27.2	-29.0	15.6	0.00e+00	0	44	0	1664090112	14	4419
2026-01-18 23:39:15.64	160.64	22.90	-27.4	-29.4	15.3	0.00e+00	0	44	0	1667235840	14	4528
2026-01-18 23:39:16.65	160.78	22.77	-27.4	-29.4	15.3	0.00e+00	0	44	0	1670381568	14	4529
2026-01-18 23:39:17.65	160.92	22.65	-27.3	-29.2	15.4	7.00e-07	0	44	0	1673527296	14	4500
2026-01-18 23:39:18.65	161.05	22.52	-27.3	-29.2	15.4	3.62e-03	0	44	0	1676673024	14	4473
2026-01-18 23:39:19.65	161.19	22.39	-27.5	-29.6	15.2	2.05e-05	0	44	0	1679818752	14	4587
2026-01-18 23:39:20.66	161.32	22.27	-27.5	-29.1	15.2	0.00e+00	0	44	0	1682964480	15	4342
2026-01-18 23:39:21.67	161.45	22.14	-27.6	-29.3	15.1	0.00e+00	0	44	0	1686110208	15	4405
2026-01-18 23:39:22.67	161.58	22.02	-27.7	-29.5	15.0	0.00e+00	0	44	0	1689255936	15	4461
2026-01-18 23:39:23.67	161.71	21.89	-27.8	-29.9	14.8	2.10e-04	0	44	0	1692401664	15	4561
2026-01-18 23:39:24.67	161.84	21.77	-27.9	-30.1	14.6	1.50e-06	0	44	0	1695547392	15	4642
2026-01-18 23:39:25.67	161.97	21.65	-28.2	-30.1	14.5	1.50e-06	0	44	0	1698693120	16	4518
2026-01-18 23:39:26.68	162.10	21.52	-28.2	-30.2	14.5	0.00e+00	0	44	0	1701838848	16	4537
2026-01-18 23:39:27.68	162.22	21.40	-28.1	-30.1	14.5	4.50e-06	0	44	0	1704984576	16	4500
2026-01-18 23:39:28.68	162.35	21.28	-28.1	-29.9	14.6	2.99e-04	0	44	0	1708130304	16	4461
2026-01-18 23:39:29.69	162.47	21.15	-28.1	-30.0	14.6	3.68e-04	0	44	0	1711276032	16	4472
2026-01-18 23:39:30.69	162.60	21.03	-27.9	-29.6	14.8	3.00e-06	0	44	0	1714421760	16	4362
2026-01-18 23:39:31.69	162.72	20.91	-27.7	-29.7	14.9	0.00e+00	0	44	0	1717567488	15	4513
2026-01-18 23:39:32.69	162.84	20.79	-27.6	-29.4	15.0	7.00e-07	0	44	0	1720713216	15	4417
2026-01-18 23:39:33.70	162.96	20.67	-27.4	-29.5	15.2	0.00e+00	0	44	0	1723858944	14	4566
2026-01-18 23:39:34.69	163.08	20.55	-27.4	-29.4	15.3	4.13e-04	0	44	0	1727004672	14	4551
2026-01-18 23:39:35.69	163.20	20.44	-27.4	-29.4	15.2	4.77e-04	0	44	0	1730150400	14	4561
2026-01-18 23:39:36.69	163.32	20.32	-27.6	-29.4	15.0	2.20e-06	0	44	0	1733296128	15	4418
2026-01-18 23:39:37.70	163.43	20.20	-27.6	-29.5	14.9	7.00e-07	0	44	0	1736441856	15	4475
2026-01-18 23:39:38.71	163.55	20.08	-27.7	-29.6	14.9	3.14e-04	0	44	0	1739587584	15	4490
2026-01-18 23:39:39.70	163.67	19.96	-27.6	-29.5	14.9	0.00e+00	0	44	0	1742733312	15	4478
2026-01-18 23:39:40.70	163.78	19.85	-27.8	-30.0	14.6	2.63e-04	0	44	0	1745879040	15	4609
2026-01-18 23:39:41.71	163.89	19.73	-27.8	-29.8	14.7	2.42e-04	0	44	0	1749024768	15	4554
2026-01-18 23:39:42.71	164.01	19.61	-27.6	-29.4	14.9	0.00e+00	0	44	0	1752170496	15	4442
2026-01-18 23:39:43.72	164.12	19.50	-27.6	-29.4	15.0	2.73e-04	0	44	0	1755316224	15	4429
2026-01-18 23:39:44.71	164.23	19.38	-27.6	-29.5	14.9	2.72e-04	0	44	0	1758461952	15	4454
2026-01-18 23:39:45.72	164.34	19.27	-27.5	-29.2	15.0	7.00e-07	0	44	0	1761607680	15	4374
2026-01-18 23:39:46.72	164.45	19.16	-27.8	-29.8	14.7	3.51e-04	0	44	0	1764753408	15	4543
2026-01-18 23:39:47.73	164.56	19.04	-27.6	-29.4	14.9	7.00e-07	0	44	0	1767899136	15	4442
2026-01-18 23:39:48.73	164.67	18.93	-27.4	-29.0	15.1	0.00e+00	0	44	0	1771044864	15	4301
2026-01-18 23:39:49.73	164.77	18.81	-27.2	-29.0	15.4	3.50e-04	0	44	0	1774190592	14	4437
2026-01-18 23:39:50.73	164.88	18.70	-27.3	-29.2	15.3	3.31e-04	0	44	0	1777336320	14	4487
2026-01-18 23:39:51.74	164.99	18.59	-27.4	-29.0	15.2	0.00e+00	0	44	0	1780482048	15	4313
2026-01-18 23:39:52.74	165.09	18.48	-27.5	-29.6	15.1	3.46e-04	0	44	0	1783627776	14	4594
2026-01-18 23:39:53.75	165.20	18.37	-27.6	-29.3	15.0	2.87e-04	0	44	0	1786773504	15	4393
2026-01-18 23:39:54.75	165.30	18.26	-27.7	-29.7	14.8	0.00e+00	0	44	0	1789919232	15	4506
2026-01-18 23:39:55.75	165.40	18.15	-27.7	-29.7	14.8	3.00e-04	0	44	0	1793064960	15	4507
2026-01-18 23:39:56.75	165.51	18.04	-27.8	-29.8	14.7	3.30e-04	0	44	0	1796210688	15	4538
2026-01-18 23:39:57.75	165.61	17.93	-27.9	-30.1	14.5	7.00e-07	0	44	0	1799356416	15	4640
2026-01-18 23:39:58.75	165.71	17.82	-27.8	-29.9	14.6	0.00e+00	0	44	0	1802502144	15	4577
2026-01-18 23:39:59.76	165.81	17.71	-27.8	-30.0	14.6	3.12e-04	0	44	0	1805647872	15	4600
2026-01-18 23:40:00.76	165.91	17.60	-27.8	-29.9	14.6	0.00e+00	0	44	0	1808793600	15	4585
2026-01-18 23:40:01.76	166.01	17.49	-27.8	-29.8	14.6	2.94e-04	0	44	0	1811939328	15	4560
2026-01-18 23:40:02.77	166.10	17.38	-27.8	-29.9	14.6	2.74e-04	0	44	0	1815085056	15	4571
2026-01-18 23:40:03.78	166.20	17.28	-27.7	-29.6	14.8	0.00e+00	0	44	0	1818230784	15	4487
2026-01-18 23:40:04.78	166.30	17.17	-27.6	-29.5	14.8	0.00e+00	0	44	0	1821376512	15	4477
2026-01-18 23:40:05.77	166.39	17.06	-27.6	-29.5	14.8	3.86e-04	0	44	0	1824522240	15	4457
2026-01-18 23:40:06.78	166.49	16.96	-27.6	-29.5	14.8	7.00e-07	0	44	0	1827667968	15	4474
2026-01-18 23:40:07.77	166.58	16.85	-27.6	-29.5	14.8	5.69e-04	0	44	0	1830813696	15	4460
2026-01-18 23:40:08.78	166.68	16.75	-27.6	-29.5	14.8	0.00e+00	0	44	0	1833959424	15	4452
2026-01-18 23:40:09.77	166.77	16.64	-27.8	-29.8	14.6	0.00e+00	0	44	0	1837105152	15	4556
2026-01-18 23:40:10.77	166.86	16.54	-27.6	-29.5	14.8	4.96e-04	0	44	0	1840250880	15	4469
2026-01-18 23:40:11.78	166.96	16.43	-27.5	-29.2	15.0	5.90e-04	0	44	0	1843396608	15	4385
2026-01-18 23:40:12.78	167.05	16.33	-27.5	-29.1	15.0	0.00e+00	0	44	0	1846542336	15	4360
2026-01-18 23:40:13.77	167.14	16.23	-27.5	-29.2	15.0	1.50e-06	0	44	0	1849688064	15	4376
2026-01-18 23:40:14.78	167.23	16.12	-27.6	-29.4	14.9	7.00e-07	0	44	0	1851785216	15	4425
2026-01-18 23:40:15.79	167.32	16.02	-27.6	-29.4	14.9	0.00e+00	0	44	0	1854930944	15	4424
2026-01-18 23:40:16.80	167.41	15.92	-27.6	-29.5	14.8	3.42e-04	0	44	0	1858076672	15	4458
2026-01-18 23:40:17.80	167.50	15.82	-27.6	-29.5	14.8	3.75e-04	0	44	0	1861222400	15	4454
2026-01-18 23:40:18.80	167.58	15.71	-27.6	-29.5	14.8	0.00e+00	0	44	0	1864368128	15	4455
2026-01-18 23:40:19.81	167.67	15.61	-27.7	-29.8	14.6	7.00e-07	0	44	0	1868562432	15	4551
2026-01-18 23:40:20.82	167.76	15.51	-27.6	-29.5	14.7	5.30e-06	0	44	0	1871708160	15	4477
2026-01-18 23:40:21.82	167.85	15.41	-27.7	-29.7	14.6	0.00e+00	0	44	0	1873805312	15	4525
2026-01-18 23:40:22.83	167.93	15.31	-26.8	-28.7	14.7	5.01e-04	0	44	0	1876951040	15	4492
2026-01-18 23:40:23.83	168.02	15.21	-27.4	-29.3	14.3	7.60e-06	0	44	0	1880096768	15	4492
2026-01-18 23:40:24.83	168.10	15.11	-27.6	-29.6	12.9	7.00e-07	0	44	0	1883242496	15	4502
2026-01-18 23:40:25.84	168.19	15.01	-27.7	-29.7	14.4	0.00e+00	0	44	0	1886388224	15	4550
2026-01-18 23:40:26.84	168.27	14.91	-27.7	-29.7	14.1	1.22e-05	0	44	0	1889533952	15	4551
2026-01-18 23:40:27.84	168.35	14.81	-27.9	-30.2	14.2	2.20e-06	0	44	0	1892679680	15	4704
2026-01-18 23:40:28.84	168.44	14.72	-27.9	-30.2	14.3	7.00e-07	0	44	0	1895825408	15	4684
2026-01-18 23:40:29.85	168.52	14.62	-28.2	-30.4	14.1	9.10e-06	0	44	0	1898971136	16	4620
2026-01-18 23:40:30.85	168.60	14.52	-28.1	-30.2	14.1	2.20e-06	0	44	0	1902116864	16	4570
2026-01-18 23:40:31.86	168.68	14.42	-28.0	-30.0	14.3	0.00e+00	0	44	0	1905262592	16	4504
2026-01-18 23:40:32.86	168.76	14.33	-28.0	-29.9	14.3	3.06e-03	0	44	0	1908408320	16	4476
2026-01-18 23:40:33.86	168.84	14.23	-28.0	-30.4	14.2	3.14e-03	0	44	0	1911554048	15	4753
2026-01-18 23:40:34.87	168.92	14.13	-27.9	-30.1	14.4	1.50e-06	0	44	0	1914699776	15	4661
2026-01-18 23:40:35.87	169.00	14.04	-28.1	-30.2	14.1	1.14e-05	0	44	0	1917845504	16	4573
2026-01-18 23:40:36.87	169.08	13.94	-28.1	-30.2	14.2	1.05e-03	0	44	0	1920991232	16	4556
2026-01-18 23:40:37.88	169.16	13.85	-28.2	-30.4	14.0	2.48e-04	0	44	0	1924136960	16	4632
2026-01-18 23:40:38.88	169.24	13.75	-28.2	-30.3	14.1	2.78e-03	0	44	0	1927282688	16	4599
2026-01-18 23:40:39.89	169.31	13.66	-28.1	-30.1	14.2	7.00e-07	0	44	0	1930428416	16	4537
2026-01-18 23:40:40.89	169.39	13.56	-28.2	-30.4	14.0	2.20e-06	0	44	0	1933574144	16	4640
2026-01-18 23:40:41.89	169.47	13.47	-28.2	-30.5	14.0	2.61e-03	0	44	0	1936719872	16	4646
2026-01-18 23:40:42.90	169.54	13.38	-28.2	-30.2	14.1	2.79e-03	0	44	0	1939865600	16	4583
2026-01-18 23:40:43.90	169.62	13.28	-28.3	-30.5	13.9	1.95e-04	0	44	0	1943011328	16	4670
2026-01-18 23:40:44.90	169.69	13.19	-28.2	-30.4	14.0	6.10e-06	0	44	0	1946157056	16	4633
2026-01-18 23:40:45.91	169.77	13.10	-28.3	-30.6	13.9	3.04e-03	0	44	0	1949302784	16	4680
2026-01-18 23:40:46.91	169.84	13.01	-28.2	-30.5	13.9	1.25e-04	0	44	0	1952448512	16	4650
2026-01-18 23:40:47.92	169.91	12.91	-28.3	-30.7	13.8	3.12e-03	0	44	0	1955594240	16	4727
2026-01-18 23:40:48.92	169.99	12.82	-28.2	-30.5	13.9	3.03e-03	0	44	0	1958739968	16	4657
2026-01-18 23:40:49.93	170.06	12.73	-28.3	-30.6	13.9	1.25e-04	0	44	0	1961885696	16	4688
2026-01-18 23:40:50.94	170.13	12.64	-28.2	-30.5	13.9	2.84e-03	0	44	0	1965031424	16	4649
2026-01-18 23:40:51.94	170.21	12.55	-28.3	-30.7	13.8	2.99e-03	0	44	0	1968177152	16	4718
2026-01-18 23:40:52.95	170.28	12.46	-28.3	-30.6	13.8	1.90e-04	0	44	0	1971322880	16	4698
2026-01-18 23:40:53.96	170.35	12.37	-28.4	-30.7	13.7	2.69e-03	0	44	0	1974468608	16	4740
2026-01-18 23:40:54.96	170.42	12.28	-28.3	-30.7	13.8	2.36e-03	0	44	0	1977614336	16	4719
2026-01-18 23:40:55.97	170.49	12.19	-28.4	-30.8	13.7	2.57e-04	0	44	0	1980760064	16	4753
2026-01-18 23:40:56.97	170.56	12.10	-28.5	-30.7	13.4	1.60e-05	0	44	0	1983905792	17	4620
2026-01-18 23:40:57.97	170.63	12.01	-28.8	-31.4	13.0	2.43e-03	0	44	0	1987051520	17	4832
2026-01-18 23:40:58.97	170.70	11.92	-28.7	-31.1	13.2	2.43e-04	0	44	0	1990197248	17	4731
2026-01-18 23:40:59.97	170.77	11.83	-28.9	-31.5	13.0	2.14e-03	0	44	0	1993342976	17	4882
2026-01-18 23:41:00.97	170.83	11.75	-28.9	-31.6	12.9	2.22e-03	0	44	0	1996488704	17	4908
2026-01-18 23:41:01.97	170.90	11.66	-28.9	-31.5	12.9	5.11e-05	0	44	0	1999634432	17	4890
2026-01-18 23:41:02.98	170.97	11.57	-28.9	-31.6	12.9	5.64e-05	0	44	0	2002780160	17	4911
2026-01-18 23:41:03.98	171.04	11.48	-29.0	-31.8	12.7	1.76e-03	0	44	0	2005925888	17	4980
2026-01-18 23:41:04.98	171.10	11.40	-29.0	-31.4	12.7	3.12e-04	0	44	0	2009071616	18	4740
2026-01-18 23:41:05.98	171.17	11.31	-28.9	-31.7	12.7	1.43e-03	0	44	0	2012217344	17	4966
2026-01-18 23:41:06.99	171.24	11.22	-29.0	-31.4	12.7	8.31e-05	0	44	0	2015363072	18	4753
2026-01-18 23:41:08.00	171.30	11.14	-29.2	-32.0	12.3	1.72e-04	0	44	0	2018508800	18	4941
2026-01-18 23:41:09.01	171.37	11.05	-29.1	-31.6	12.5	1.17e-04	0	44	0	2021654528	18	4813
2026-01-18 23:41:10.01	171.43	10.96	-29.0	-31.3	12.7	1.53e-03	0	44	0	2024800256	18	4692
2026-01-18 23:41:11.01	171.50	10.88	-28.8	-30.9	13.0	2.36e-04	0	44	0	2027945984	18	4574
2026-01-18 23:41:12.02	171.56	10.79	-28.8	-31.4	13.0	4.34e-05	0	44	0	2031091712	17	4843
2026-01-18 23:41:13.02	171.63	10.71	-28.8	-31.3	13.0	5.18e-05	0	44	0	2034237440	17	4822
2026-01-18 23:41:14.03	171.69	10.62	-28.9	-31.6	12.8	6.25e-05	0	44	0	2037383168	17	4913
2026-01-18 23:41:15.04	171.75	10.54	-28.8	-31.3	13.0	3.50e-05	0	44	0	2040528896	17	4804
2026-01-18 23:41:16.04	171.82	10.45	-28.8	-31.2	13.0	1.57e-03	0	44	0	2043674624	17	4788
2026-01-18 23:41:17.05	171.88	10.37	-28.8	-31.3	13.0	4.19e-05	0	44	0	2046820352	17	4794
2026-01-18 23:41:18.05	171.94	10.29	-28.9	-31.6	12.8	5.26e-05	0	44	0	2049966080	17	4901
2026-01-18 23:41:19.06	172.00	10.20	-28.8	-31.3	13.0	3.20e-05	0	44	0	2053111808	17	4795
2026-01-18 23:41:20.05	172.06	10.12	-28.8	-31.4	12.9	5.41e-05	0	44	0	2056257536	17	4833
2026-01-18 23:41:21.06	172.12	10.04	-28.8	-31.2	13.0	4.27e-05	0	44	0	2059403264	17	4785
2026-01-18 23:41:22.06	172.19	9.96	-28.0	-30.5	12.9	4.88e-05	0	44	0	2062548992	17	4797
2026-01-18 23:41:23.07	172.25	9.87	-28.9	-31.7	12.4	7.17e-05	0	44	0	2065694720	17	4946
2026-01-18 23:41:24.07	172.31	9.79	-28.9	-31.5	12.8	6.79e-05	0	44	0	2068840448	17	4873
2026-01-18 23:41:25.08	172.37	9.71	-29.0	-31.4	12.5	9.91e-05	0	44	0	2071986176	18	4734
2026-01-18 23:41:26.08	172.43	9.63	-28.8	-31.5	12.8	5.87e-05	0	44	0	2075131904	17	4872
2026-01-18 23:41:27.08	172.48	9.55	-28.7	-31.2	13.0	3.96e-05	0	44	0	2078277632	17	4767
2026-01-18 23:41:28.08	172.54	9.47	-28.8	-31.4	12.8	4.80e-05	0	44	0	2081423360	17	4860
2026-01-18 23:41:29.09	172.60	9.38	-28.8	-31.4	12.8	6.56e-05	0	44	0	2084569088	17	4845
2026-01-18 23:41:30.08	172.66	9.30	-28.8	-31.3	12.9	5.41e-05	0	44	0	2087714816	17	4813
2026-01-18 23:41:31.09	172.72	9.22	-29.0	-31.7	12.6	8.01e-05	0	44	0	2090860544	17	4960
2026-01-18 23:41:32.09	172.78	9.14	-28.7	-31.2	13.0	3.84e-04	0	44	0	2094006272	17	4782
2026-01-18 23:41:33.10	172.83	9.06	-28.8	-31.5	12.8	6.86e-05	0	44	0	2097152000	17	4876
2026-01-18 23:41:34.09	172.89	8.99	-28.9	-31.5	12.8	5.95e-05	0	44	0	2100297728	17	4889
2026-01-18 23:41:35.09	172.95	8.91	-29.0	-31.5	12.5	1.19e-04	0	44	0	2103443456	18	4763
2026-01-18 23:41:36.09	173.00	8.83	-28.9	-31.2	12.7	9.00e-05	0	44	0	2106589184	18	4659
2026-01-18 23:41:37.10	173.06	8.75	-28.7	-31.2	12.9	4.73e-04	0	44	0	2109734912	17	4796
2026-01-18 23:41:38.10	173.12	8.67	-28.9	-31.7	12.6	7.40e-05	0	44	0	2112880640	17	4948
2026-01-18 23:41:39.10	173.17	8.59	-28.9	-31.5	12.7	1.06e-04	0	44	0	2116026368	17	4902
2026-01-18 23:41:40.10	173.23	8.51	-28.9	-31.7	12.6	8.46e-05	0	44	0	2119172096	17	4942
2026-01-18 23:41:41.10	173.28	8.43	-29.2	-31.9	12.1	1.90e-04	0	44	0	2122317824	18	4919
2026-01-18 23:41:42.11	173.34	8.36	-29.2	-31.8	12.2	2.17e-04	0	44	0	2125463552	18	4881
2026-01-18 23:41:43.11	173.39	8.28	-29.2	-31.9	12.1	6.64e-04	0	44	0	2128609280	18	4928
2026-01-18 23:41:44.12	173.45	8.20	-29.3	-32.1	12.0	6.94e-04	0	44	0	2131755008	18	4983
2026-01-18 23:41:45.12	173.50	8.12	-29.2	-32.1	12.0	2.54e-04	0	44	0	2134900736	18	4976
2026-01-18 23:41:46.12	173.55	8.05	-29.3	-32.2	11.9	2.80e-04	0	44	0	2138046464	18	5018
