passes_logs/2026/01/18/R2M6_AANII_01/R2M6_AANII_01__20260118_235957_SUOMI_NPP_rec.log

#Pass ID: 20260118_235957_SUOMI NPP
#Satellite: SUOMI NPP
#Configuration: NPP
#almurnet v.1.7.20240730
#Start time: 2026-01-18 23:59:58

#Version: 2.2.20231116
#Station: R2M6_AANII_01
#Location: 30.233357 lon 59.946436 lat
#TLE: 1 37849U 11061A   26017.92342359  .00000077  00000+0  57567-4 0  9990
#TLE: 2 37849  98.7814 319.9468 0002389  58.5705 301.5704 14.19525998737125

#Time	Az	El	Level	Level2	SNR	BER	BlckErr	Temp	State	Recorded	gain1	gain2
2026-01-18 23:59:58.24	20.56	7.09	-31.3	-35.6	5.2	1.27e+00	0	42	0	0	22	5858
2026-01-18 23:59:59.24	20.59	7.16	-31.8	-37.0	4.8	1.34e+00	0	42	104	0	23	6567
2026-01-19 00:00:00.25	20.62	7.24	-31.7	-36.3	7.8	1.26e-01	0	42	0	0	23	6144
2026-01-19 00:00:01.25	20.64	7.32	-31.8	-36.9	7.3	1.15e-01	0	42	0	1048576	23	6460
2026-01-19 00:00:02.26	20.67	7.39	-31.9	-37.5	6.9	1.59e-01	0	42	0	3145728	23	6841
2026-01-19 00:00:03.27	20.70	7.47	-31.8	-36.8	7.4	1.42e-01	0	42	0	5242880	23	6408
2026-01-19 00:00:04.27	20.73	7.55	-31.8	-36.6	7.6	9.29e-02	0	42	0	7340032	23	6324
2026-01-19 00:00:05.28	20.76	7.63	-31.6	-35.8	8.2	7.08e-02	0	42	0	9437184	23	5872
2026-01-19 00:00:06.28	20.78	7.71	-31.6	-36.0	8.1	6.36e-02	0	42	0	10485760	23	5954
2026-01-19 00:00:07.28	20.81	7.78	-31.5	-35.6	8.4	5.14e-02	0	42	0	12582912	23	5771
2026-01-19 00:00:08.28	20.84	7.86	-31.6	-35.8	8.3	4.28e-02	0	42	0	14680064	23	5845
2026-01-19 00:00:09.28	20.87	7.94	-31.5	-35.4	8.6	4.68e-02	0	42	0	16777216	23	5623
2026-01-19 00:00:10.29	20.90	8.02	-31.3	-35.2	9.2	3.16e-02	0	42	0	17825792	22	5610
2026-01-19 00:00:11.29	20.93	8.10	-31.1	-34.4	9.9	1.02e-02	0	42	0	19922944	22	5244
2026-01-19 00:00:12.29	20.96	8.18	-30.9	-34.3	10.2	6.78e-03	0	42	0	22020096	21	5298
2026-01-19 00:00:13.30	20.99	8.26	-30.7	-33.6	10.7	4.03e-03	0	42	0	24117248	21	5015
2026-01-19 00:00:14.30	21.02	8.34	-30.9	-34.2	10.3	4.59e-03	0	42	0	26214400	21	5264
2026-01-19 00:00:15.31	21.05	8.42	-31.0	-34.0	10.1	7.36e-03	0	42	0	28311552	22	5103
2026-01-19 00:00:16.31	21.07	8.50	-30.8	-34.0	10.5	5.02e-03	0	42	0	29360128	21	5167
2026-01-19 00:00:17.32	21.10	8.58	-30.8	-33.9	10.5	4.69e-03	0	42	0	31457280	21	5152
2026-01-19 00:00:18.33	21.13	8.66	-31.0	-33.9	10.2	7.37e-03	0	42	0	33554432	22	5045
2026-01-19 00:00:19.34	21.17	8.74	-30.9	-34.3	10.3	5.36e-03	0	42	0	35651584	21	5288
2026-01-19 00:00:20.34	21.20	8.82	-31.0	-34.4	10.2	5.93e-03	0	42	0	36700160	21	5335
2026-01-19 00:00:21.34	21.23	8.90	-31.1	-34.2	10.0	9.29e-03	0	42	0	38797312	22	5170
2026-01-19 00:00:22.35	21.26	8.99	-31.0	-33.8	10.3	6.16e-03	0	42	0	40894464	22	5000
2026-01-19 00:00:23.36	21.29	9.07	-30.8	-33.9	10.6	4.73e-03	0	42	0	42991616	21	5132
2026-01-19 00:00:24.35	21.32	9.15	-30.9	-34.1	10.4	4.37e-03	0	42	0	45088768	21	5211
2026-01-19 00:00:25.36	21.35	9.23	-31.1	-34.1	10.2	6.59e-03	0	42	0	46137344	22	5101
2026-01-19 00:00:26.36	21.38	9.32	-31.0	-33.7	10.3	6.11e-03	0	42	0	48234496	22	4963
2026-01-19 00:00:27.36	21.41	9.40	-30.8	-33.7	10.8	3.53e-03	0	43	0	50331648	21	5041
2026-01-19 00:00:28.36	21.44	9.48	-31.0	-34.3	10.4	3.51e-03	0	43	0	52428800	21	5275
2026-01-19 00:00:29.37	21.47	9.57	-31.1	-34.2	10.0	7.09e-03	0	43	0	54525952	22	5170
2026-01-19 00:00:30.37	21.51	9.65	-30.9	-33.4	10.7	4.96e-03	0	43	0	55574528	22	4813
2026-01-19 00:00:31.37	21.54	9.74	-30.8	-33.8	10.8	2.61e-03	0	43	0	57671680	21	5060
2026-01-19 00:00:32.37	21.57	9.82	-30.8	-33.6	10.9	3.33e-03	0	43	0	59768832	21	4997
2026-01-19 00:00:33.38	21.60	9.91	-30.8	-33.7	10.8	3.26e-03	0	43	0	61865984	21	5014
2026-01-19 00:00:34.38	21.63	9.99	-30.8	-33.8	10.8	2.44e-03	0	43	0	63963136	21	5069
2026-01-19 00:00:35.39	21.67	10.08	-30.1	-33.0	10.3	4.32e-03	0	43	0	65011712	22	5026
2026-01-19 00:00:36.39	21.70	10.16	-30.9	-34.1	10.6	3.71e-03	0	43	0	67108864	21	5167
2026-01-19 00:00:37.40	21.73	10.25	-31.0	-33.8	10.4	3.96e-03	0	43	0	69206016	22	4958
2026-01-19 00:00:38.40	21.77	10.33	-30.8	-33.8	10.8	2.87e-03	0	43	0	71303168	21	5046
2026-01-19 00:00:39.40	21.80	10.42	-30.7	-33.2	11.2	1.64e-03	0	43	0	73400320	21	4842
2026-01-19 00:00:40.41	21.83	10.51	-30.6	-32.9	11.4	1.23e-03	0	43	0	74448896	21	4730
2026-01-19 00:00:41.41	21.87	10.60	-30.5	-32.8	11.6	2.68e-03	0	43	0	76546048	21	4662
2026-01-19 00:00:42.41	21.90	10.68	-30.6	-33.0	11.4	8.44e-04	0	43	0	78643200	21	4758
2026-01-19 00:00:43.42	21.93	10.77	-30.6	-33.1	11.3	1.60e-03	0	43	0	80740352	21	4768
2026-01-19 00:00:44.42	21.97	10.86	-30.5	-32.9	11.5	1.37e-03	0	43	0	82837504	21	4692
2026-01-19 00:00:45.42	22.00	10.95	-30.5	-32.6	11.7	2.61e-03	0	43	0	83886080	21	4603
2026-01-19 00:00:46.42	22.04	11.04	-30.5	-32.6	11.7	5.32e-04	0	43	0	85983232	21	4614
2026-01-19 00:00:47.42	22.07	11.12	-30.7	-33.2	11.3	1.62e-03	0	43	0	88080384	21	4811
2026-01-19 00:00:48.43	22.11	11.21	-30.5	-32.8	11.6	2.65e-03	0	43	0	90177536	21	4677
2026-01-19 00:00:49.43	22.14	11.30	-30.6	-32.9	11.5	7.39e-04	0	43	0	91226112	21	4703
2026-01-19 00:00:50.43	22.18	11.39	-30.7	-33.2	11.3	1.29e-03	0	43	0	93323264	21	4813
2026-01-19 00:00:51.44	22.21	11.49	-30.5	-32.6	11.7	1.46e-03	0	43	0	95420416	21	4586
2026-01-19 00:00:52.44	22.25	11.58	-30.6	-33.1	11.4	8.94e-04	0	43	0	97517568	21	4754
2026-01-19 00:00:53.44	22.28	11.67	-30.8	-33.6	11.0	1.32e-03	0	43	0	99614720	21	4981
2026-01-19 00:00:54.44	22.32	11.76	-30.6	-32.9	11.6	1.55e-03	0	43	0	101711872	21	4687
2026-01-19 00:00:55.44	22.36	11.85	-30.5	-32.6	11.8	5.97e-04	0	43	0	102760448	21	4574
2026-01-19 00:00:56.44	22.39	11.94	-30.4	-32.8	12.0	2.42e-03	0	43	0	104857600	20	4748
2026-01-19 00:00:57.44	22.43	12.03	-30.4	-32.7	12.1	3.13e-04	0	43	0	106954752	20	4724
2026-01-19 00:00:58.43	22.46	12.12	-30.3	-32.6	12.2	2.17e-04	0	43	0	109051904	20	4687
2026-01-19 00:00:59.44	22.50	12.22	-30.4	-32.8	12.0	2.15e-03	0	43	0	110100480	20	4740
2026-01-19 00:01:00.44	22.54	12.31	-30.3	-32.4	12.3	2.80e-04	0	43	0	112197632	20	4609
2026-01-19 00:01:01.44	22.58	12.41	-30.2	-32.1	12.5	1.34e-04	0	43	0	114294784	20	4510
2026-01-19 00:01:02.44	22.61	12.50	-30.0	-31.8	12.7	1.99e-03	0	43	0	116391936	20	4391
2026-01-19 00:01:03.44	22.65	12.59	-30.0	-31.6	12.8	1.87e-03	0	43	0	118489088	20	4332
2026-01-19 00:01:04.45	22.69	12.69	-29.9	-31.4	13.0	5.18e-05	0	43	0	119537664	20	4276
2026-01-19 00:01:05.45	22.73	12.78	-29.9	-31.5	13.0	1.66e-03	0	43	0	121634816	20	4297
2026-01-19 00:01:06.45	22.77	12.88	-29.9	-31.4	13.0	1.58e-03	0	43	0	123731968	20	4262
2026-01-19 00:01:07.44	22.80	12.97	-29.9	-31.5	12.9	7.09e-05	0	43	0	125829120	20	4303
2026-01-19 00:01:08.44	22.84	13.07	-30.0	-31.5	13.0	5.26e-04	0	43	0	127926272	20	4317
2026-01-19 00:01:09.44	22.88	13.17	-30.0	-31.5	12.9	1.01e-03	0	43	0	128974848	20	4310
2026-01-19 00:01:10.45	22.92	13.26	-30.1	-31.8	12.8	6.40e-05	0	43	0	131072000	20	4405
2026-01-19 00:01:11.44	22.96	13.36	-29.9	-31.4	13.0	5.18e-05	0	43	0	133169152	20	4269
2026-01-19 00:01:12.45	23.00	13.46	-30.0	-31.6	12.9	8.32e-04	0	43	0	135266304	20	4322
2026-01-19 00:01:13.45	23.04	13.56	-30.2	-32.1	12.6	6.33e-05	0	43	0	136314880	20	4489
2026-01-19 00:01:14.45	23.08	13.65	-30.2	-32.1	12.6	8.70e-04	0	43	0	138412032	20	4505
2026-01-19 00:01:15.45	23.12	13.75	-30.0	-31.5	12.9	6.86e-05	0	43	0	140509184	20	4308
2026-01-19 00:01:16.45	23.16	13.85	-29.9	-31.3	13.2	4.57e-05	0	43	0	142606336	20	4231
2026-01-19 00:01:17.45	23.20	13.95	-29.8	-31.0	13.4	7.87e-04	0	43	0	144703488	20	4134
2026-01-19 00:01:18.45	23.24	14.05	-29.9	-31.8	13.3	2.13e-05	0	43	0	145752064	19	4463
2026-01-19 00:01:19.46	23.29	14.15	-29.9	-31.7	13.3	1.60e-05	0	43	0	147849216	19	4439
2026-01-19 00:01:20.46	23.33	14.25	-29.9	-31.2	13.2	6.80e-04	0	43	0	149946368	20	4215
2026-01-19 00:01:21.46	23.37	14.36	-29.8	-31.5	13.4	7.49e-04	0	43	0	152043520	19	4391
2026-01-19 00:01:22.46	23.41	14.46	-29.9	-31.7	13.4	1.29e-05	0	43	0	154140672	19	4427
2026-01-19 00:01:23.47	23.45	14.56	-29.8	-31.4	13.5	8.75e-04	0	43	0	155189248	19	4354
2026-01-19 00:01:24.47	23.50	14.66	-29.8	-31.4	13.5	9.16e-04	0	43	0	157286400	19	4348
2026-01-19 00:01:25.48	23.54	14.77	-29.6	-31.0	13.8	1.06e-05	0	43	0	159383552	19	4215
2026-01-19 00:01:26.47	23.58	14.87	-29.7	-31.2	13.7	1.11e-03	0	43	0	161480704	19	4273
2026-01-19 00:01:27.48	23.63	14.97	-29.7	-31.2	13.7	9.96e-04	0	43	0	163577856	19	4292
2026-01-19 00:01:28.47	23.67	15.08	-29.7	-31.2	13.7	6.10e-06	0	43	0	164626432	19	4289
2026-01-19 00:01:29.48	23.72	15.18	-29.7	-31.2	13.6	1.15e-03	0	43	0	166723584	19	4288
2026-01-19 00:01:30.48	23.76	15.29	-29.8	-31.3	13.6	1.37e-03	0	43	0	168820736	19	4315
2026-01-19 00:01:31.49	23.80	15.39	-29.7	-31.2	13.7	4.50e-06	0	43	0	170917888	19	4270
2026-01-19 00:01:32.48	23.85	15.50	-29.8	-31.4	13.6	1.44e-03	0	43	0	171966464	19	4351
2026-01-19 00:01:33.49	23.90	15.60	-29.7	-31.2	13.6	1.44e-03	0	44	0	174063616	19	4291
2026-01-19 00:01:34.49	23.94	15.71	-29.9	-31.7	12.9	1.44e-05	0	43	0	176160768	19	4418
2026-01-19 00:01:35.50	23.99	15.82	-29.8	-31.5	13.0	1.49e-03	0	43	0	178257920	19	4368
2026-01-19 00:01:36.50	24.03	15.93	-29.8	-31.4	13.5	1.69e-03	0	43	0	180355072	19	4342
2026-01-19 00:01:37.50	24.08	16.04	-29.9	-31.6	13.4	1.44e-05	0	44	0	181403648	19	4401
2026-01-19 00:01:38.50	24.13	16.14	-29.8	-31.4	13.5	1.78e-03	0	43	0	183500800	19	4352
2026-01-19 00:01:39.50	24.17	16.25	-29.9	-31.6	13.4	1.06e-05	0	43	0	185597952	19	4403
2026-01-19 00:01:40.51	24.22	16.36	-29.9	-31.7	13.4	9.90e-06	0	43	0	187695104	19	4441
2026-01-19 00:01:41.52	24.27	16.48	-30.0	-31.5	13.1	1.91e-03	0	43	0	189792256	20	4286
2026-01-19 00:01:42.52	24.32	16.59	-30.0	-31.5	13.1	1.98e-03	0	43	0	190840832	20	4299
2026-01-19 00:01:43.52	24.37	16.70	-29.9	-31.3	13.3	2.05e-05	0	44	0	192937984	20	4227
2026-01-19 00:01:44.53	24.41	16.81	-29.8	-31.5	13.6	1.78e-03	0	43	0	195035136	19	4350
2026-01-19 00:01:45.53	24.46	16.92	-29.8	-31.4	13.6	1.70e-03	0	44	0	197132288	19	4327
2026-01-19 00:01:46.53	24.51	17.03	-29.9	-31.7	13.4	3.47e-04	0	44	0	199229440	19	4429
2026-01-19 00:01:47.54	24.56	17.15	-29.9	-31.7	13.4	1.54e-03	0	44	0	200278016	19	4427
2026-01-19 00:01:48.55	24.61	17.26	-30.0	-31.4	13.2	1.58e-03	0	44	0	202375168	20	4262
2026-01-19 00:01:49.55	24.66	17.38	-30.3	-32.4	12.5	4.06e-04	0	44	0	204472320	20	4568
2026-01-19 00:01:50.56	24.71	17.49	-30.3	-32.2	12.7	3.86e-04	0	44	0	206569472	20	4510
2026-01-19 00:01:51.55	24.76	17.61	-30.0	-31.5	13.1	1.33e-03	0	44	0	208666624	20	4283
2026-01-19 00:01:52.55	24.82	17.72	-29.9	-31.2	13.5	2.05e-05	0	43	0	209715200	20	4172
2026-01-19 00:01:53.55	24.87	17.84	-29.8	-31.5	13.6	3.34e-04	0	44	0	211812352	19	4347
2026-01-19 00:01:54.55	24.92	17.95	-29.9	-31.6	13.5	1.06e-05	0	44	0	213909504	19	4400
2026-01-19 00:01:55.55	24.97	18.07	-29.9	-31.7	13.5	7.60e-06	0	44	0	216006656	19	4410
2026-01-19 00:01:56.55	25.03	18.19	-30.0	-31.5	13.2	2.88e-04	0	44	0	218103808	20	4269
2026-01-19 00:01:57.55	25.08	18.31	-30.3	-32.4	12.6	4.34e-05	0	44	0	219152384	20	4579
2026-01-19 00:01:58.56	25.13	18.43	-30.4	-32.5	12.6	8.62e-05	0	44	0	221249536	20	4584
2026-01-19 00:01:59.57	25.19	18.55	-30.0	-31.3	13.4	4.33e-04	0	44	0	223346688	20	4220
2026-01-19 00:02:00.57	25.24	18.67	-30.1	-31.7	13.1	2.28e-05	0	44	0	225443840	20	4328
2026-01-19 00:02:01.57	25.30	18.79	-30.0	-31.4	13.3	1.67e-05	0	44	0	226492416	20	4241
2026-01-19 00:02:02.57	25.35	18.91	-30.1	-31.6	13.2	1.29e-04	0	44	0	228589568	20	4308
2026-01-19 00:02:03.57	25.41	19.03	-30.0	-31.6	13.3	1.67e-05	0	44	0	230686720	20	4285
2026-01-19 00:02:04.57	25.46	19.15	-30.1	-31.7	13.2	3.99e-04	0	44	0	232783872	20	4335
2026-01-19 00:02:05.57	25.52	19.28	-29.9	-31.3	13.4	1.75e-05	0	44	0	234881024	20	4209
2026-01-19 00:02:06.57	25.58	19.40	-30.0	-31.4	13.3	1.37e-04	0	44	0	235929600	20	4233
2026-01-19 00:02:07.58	25.63	19.53	-29.9	-31.2	13.5	3.34e-04	0	44	0	238026752	20	4189
2026-01-19 00:02:08.58	25.69	19.65	-30.0	-31.4	13.3	3.71e-04	0	44	0	240123904	20	4246
2026-01-19 00:02:09.58	25.75	19.78	-30.0	-31.4	13.4	3.39e-04	0	44	0	242221056	20	4236
2026-01-19 00:02:10.58	25.81	19.90	-30.0	-31.5	13.3	4.32e-04	0	44	0	244318208	20	4271
2026-01-19 00:02:11.57	25.87	20.03	-30.1	-31.6	13.2	3.73e-04	0	44	0	245366784	20	4310
2026-01-19 00:02:12.58	25.93	20.15	-30.1	-31.8	13.2	2.89e-05	0	44	0	247463936	20	4352
2026-01-19 00:02:13.58	25.99	20.28	-30.1	-31.7	13.2	1.90e-05	0	44	0	249561088	20	4331
2026-01-19 00:02:14.58	26.05	20.41	-30.2	-31.9	13.1	4.67e-04	0	44	0	251658240	20	4385
2026-01-19 00:02:15.58	26.11	20.54	-30.3	-32.1	12.9	2.59e-05	0	44	0	253755392	20	4475
2026-01-19 00:02:16.59	26.17	20.67	-30.2	-32.1	12.9	5.64e-05	0	44	0	254803968	20	4464
2026-01-19 00:02:17.60	26.23	20.80	-30.3	-32.3	12.8	4.59e-04	0	44	0	256901120	20	4520
2026-01-19 00:02:18.60	26.29	20.93	-30.3	-32.2	12.9	7.55e-05	0	44	0	258998272	20	4486
2026-01-19 00:02:19.60	26.36	21.06	-30.2	-32.1	13.0	2.82e-05	0	44	0	261095424	20	4451
2026-01-19 00:02:20.60	26.42	21.20	-30.1	-31.7	13.2	4.08e-04	0	44	0	263192576	20	4337
2026-01-19 00:02:21.60	26.48	21.33	-30.0	-31.5	13.4	1.90e-05	0	44	0	264241152	20	4254
2026-01-19 00:02:22.60	26.55	21.46	-30.2	-31.8	13.2	4.11e-04	0	44	0	266338304	20	4372
2026-01-19 00:02:23.60	26.61	21.60	-30.0	-31.5	13.3	2.36e-05	0	44	0	268435456	20	4258
2026-01-19 00:02:24.60	26.68	21.73	-29.8	-31.5	13.8	3.80e-06	0	44	0	270532608	19	4335
2026-01-19 00:02:25.60	26.75	21.87	-29.6	-30.9	14.1	3.57e-04	0	44	0	271581184	19	4169
2026-01-19 00:02:26.60	26.81	22.00	-29.6	-30.9	14.1	3.00e-06	0	44	0	273678336	19	4152
2026-01-19 00:02:27.60	26.88	22.14	-29.6	-30.9	14.1	7.00e-07	0	44	0	275775488	19	4156
2026-01-19 00:02:28.61	26.95	22.28	-29.5	-30.5	14.3	3.43e-04	0	44	0	277872640	19	4051
2026-01-19 00:02:29.61	27.02	22.42	-29.4	-30.2	14.5	2.83e-04	0	44	0	279969792	19	3968
2026-01-19 00:02:30.61	27.08	22.56	-29.3	-30.6	14.6	0.00e+00	0	44	0	281018368	18	4161
2026-01-19 00:02:31.62	27.15	22.70	-29.4	-30.7	14.7	2.17e-04	0	44	0	283115520	18	4182
2026-01-19 00:02:32.62	27.22	22.84	-29.4	-30.7	14.6	1.76e-04	0	44	0	285212672	18	4198
2026-01-19 00:02:33.63	27.30	22.98	-29.1	-30.0	15.0	0.00e+00	0	44	0	287309824	18	4006
2026-01-19 00:02:34.62	27.37	23.12	-29.1	-30.0	15.0	2.01e-04	0	44	0	289406976	18	4006
2026-01-19 00:02:35.63	27.44	23.27	-28.9	-29.4	15.3	1.88e-04	0	44	0	290455552	18	3836
2026-01-19 00:02:36.63	27.51	23.41	-28.8	-29.4	15.4	0.00e+00	0	44	0	292552704	18	3827
2026-01-19 00:02:37.63	27.58	23.56	-28.9	-29.6	15.3	0.00e+00	0	44	0	294649856	18	3888
2026-01-19 00:02:38.63	27.66	23.70	-28.8	-29.7	15.5	1.92e-04	0	44	0	296747008	17	4014
2026-01-19 00:02:39.63	27.73	23.85	-28.7	-29.6	15.6	0.00e+00	0	44	0	298844160	17	3977
2026-01-19 00:02:40.63	27.81	23.99	-28.8	-29.7	15.5	1.50e-04	0	44	0	299892736	17	4006
2026-01-19 00:02:41.63	27.88	24.14	-28.8	-29.8	15.4	1.86e-04	0	44	0	301989888	17	4041
2026-01-19 00:02:42.63	27.96	24.29	-28.8	-29.9	15.4	0.00e+00	0	44	0	304087040	17	4053
2026-01-19 00:02:43.63	28.03	24.44	-28.8	-29.7	15.5	1.78e-04	0	44	0	306184192	17	4017
2026-01-19 00:02:44.63	28.11	24.59	-28.9	-29.9	15.4	1.90e-04	0	44	0	307232768	17	4062
2026-01-19 00:02:45.64	28.19	24.74	-29.0	-29.8	15.3	0.00e+00	0	44	0	309329920	18	3922
2026-01-19 00:02:46.63	28.27	24.89	-28.7	-29.5	15.2	1.69e-04	0	44	0	311427072	18	3924
2026-01-19 00:02:47.64	28.35	25.05	-28.9	-29.5	15.3	1.76e-04	0	44	0	313524224	18	3862
2026-01-19 00:02:48.64	28.43	25.20	-28.8	-29.1	15.6	0.00e+00	0	44	0	315621376	18	3762
2026-01-19 00:02:49.64	28.51	25.35	-28.8	-29.2	15.6	1.70e-04	0	44	0	317718528	18	3777
2026-01-19 00:02:50.64	28.59	25.51	-28.8	-29.2	15.6	1.36e-04	0	44	0	318767104	18	3768
2026-01-19 00:02:51.64	28.68	25.66	-28.9	-29.4	15.4	0.00e+00	0	44	0	320864256	18	3831
2026-01-19 00:02:52.64	28.76	25.82	-28.9	-29.4	15.4	1.48e-04	0	44	0	322961408	18	3828
2026-01-19 00:02:53.65	28.85	25.98	-28.8	-29.8	15.5	1.58e-04	0	44	0	325058560	17	4036
2026-01-19 00:02:54.65	28.93	26.14	-29.1	-29.9	15.2	0.00e+00	0	44	0	326107136	18	3948
2026-01-19 00:02:55.66	29.02	26.30	-29.1	-29.9	15.1	1.61e-04	0	44	0	328204288	18	3974
2026-01-19 00:02:56.66	29.10	26.46	-29.3	-30.5	14.9	1.37e-04	0	44	0	330301440	18	4119
2026-01-19 00:02:57.66	29.19	26.62	-29.3	-30.5	14.8	0.00e+00	0	44	0	332398592	18	4122
2026-01-19 00:02:58.66	29.28	26.78	-29.2	-30.3	15.0	4.27e-05	0	44	0	334495744	18	4077
2026-01-19 00:02:59.67	29.37	26.95	-29.4	-30.8	14.7	1.01e-04	0	44	0	335544320	18	4226
2026-01-19 00:03:00.67	29.46	27.11	-29.3	-30.0	14.8	0.00e+00	0	44	0	337641472	19	3900
2026-01-19 00:03:01.67	29.55	27.27	-29.2	-29.7	15.0	7.00e-07	0	44	0	339738624	19	3820
2026-01-19 00:03:02.67	29.64	27.44	-29.0	-29.3	15.3	7.40e-05	0	44	0	341835776	19	3703
2026-01-19 00:03:03.68	29.74	27.61	-29.1	-29.5	15.1	0.00e+00	0	44	0	343932928	19	3762
2026-01-19 00:03:04.68	29.83	27.78	-29.1	-29.4	15.1	8.92e-05	0	44	0	344981504	19	3726
2026-01-19 00:03:05.68	29.93	27.94	-29.0	-29.1	15.3	0.00e+00	0	44	0	347078656	19	3662
2026-01-19 00:03:06.69	30.02	28.11	-29.2	-29.7	15.0	0.00e+00	0	44	0	349175808	19	3827
2026-01-19 00:03:07.69	30.12	28.29	-29.0	-29.3	15.3	1.68e-04	0	44	0	351272960	19	3704
2026-01-19 00:03:08.69	30.22	28.46	-29.1	-29.9	15.2	0.00e+00	0	44	0	353370112	18	3949
2026-01-19 00:03:09.70	30.32	28.63	-29.2	-30.2	15.1	0.00e+00	0	44	0	354418688	18	4031
2026-01-19 00:03:10.70	30.42	28.80	-29.2	-30.1	15.1	1.83e-04	0	44	0	356515840	18	4002
2026-01-19 00:03:11.70	30.52	28.98	-29.2	-30.2	15.0	0.00e+00	0	44	0	358612992	18	4050
2026-01-19 00:03:12.70	30.62	29.15	-29.3	-30.5	14.8	0.00e+00	0	44	0	360710144	18	4136
2026-01-19 00:03:13.70	30.72	29.33	-29.5	-30.8	14.7	1.97e-04	0	44	0	362807296	18	4221
2026-01-19 00:03:14.70	30.83	29.51	-29.5	-30.4	14.6	1.79e-04	0	44	0	363855872	19	4003
2026-01-19 00:03:15.71	30.93	29.69	-29.7	-31.1	14.2	0.00e+00	0	44	0	365953024	19	4196
2026-01-19 00:03:16.71	31.04	29.87	-29.8	-31.1	14.2	1.98e-04	0	44	0	368050176	19	4210
2026-01-19 00:03:17.71	31.15	30.05	-29.8	-31.2	14.2	1.61e-04	0	44	0	370147328	19	4222
2026-01-19 00:03:18.70	31.26	30.23	-30.3	-32.0	13.3	1.29e-05	0	44	0	371195904	20	4396
2026-01-19 00:03:19.70	31.37	30.41	-30.0	-31.3	13.7	2.44e-05	0	44	0	373293056	20	4190
2026-01-19 00:03:20.71	31.48	30.60	-30.4	-32.2	13.2	1.78e-04	0	44	0	375390208	20	4466
2026-01-19 00:03:21.72	31.59	30.78	-30.3	-32.0	13.2	3.28e-05	0	44	0	377487360	20	4400
2026-01-19 00:03:22.72	31.70	30.97	-30.4	-31.9	13.0	4.04e-05	0	44	0	379584512	21	4251
2026-01-19 00:03:23.73	31.82	31.16	-30.8	-32.8	12.4	9.68e-05	0	44	0	380633088	21	4571
2026-01-19 00:03:24.73	31.94	31.34	-30.8	-33.1	12.2	1.79e-04	0	44	0	382730240	21	4679
2026-01-19 00:03:25.74	32.05	31.54	-31.0	-33.1	12.0	3.70e-04	0	44	0	384827392	22	4562
2026-01-19 00:03:26.74	32.17	31.73	-31.2	-33.7	11.4	5.28e-04	0	44	0	386924544	22	4799
2026-01-19 00:03:27.74	32.29	31.92	-31.4	-34.3	11.1	1.13e-03	0	44	0	389021696	22	5015
2026-01-19 00:03:28.74	32.42	32.11	-31.5	-34.1	10.8	2.64e-03	0	44	0	390070272	23	4867
2026-01-19 00:03:29.74	32.54	32.30	-31.7	-34.6	10.5	2.86e-03	0	44	0	392167424	23	5067
2026-01-19 00:03:30.73	32.66	32.50	-31.9	-35.3	10.0	5.08e-03	0	44	0	394264576	23	5338
2026-01-19 00:03:31.73	32.79	32.69	-31.7	-34.8	10.2	7.80e-03	0	44	0	396361728	23	5148
2026-01-19 00:03:32.73	32.91	32.89	-31.9	-35.4	9.9	5.31e-03	0	44	0	397410304	23	5395
2026-01-19 00:03:33.73	33.04	33.09	-31.8	-35.2	10.0	9.73e-03	0	44	0	399507456	23	5309
2026-01-19 00:03:34.73	33.17	33.29	-31.5	-34.1	10.9	3.52e-03	0	44	0	401604608	23	4859
2026-01-19 00:03:35.73	33.30	33.49	-31.2	-33.2	11.5	2.09e-03	0	44	0	403701760	23	4510
2026-01-19 00:03:36.73	33.44	33.69	-31.1	-32.8	11.8	6.84e-04	0	44	0	405798912	23	4390
2026-01-19 00:03:37.73	33.57	33.89	-31.0	-33.0	12.1	3.81e-04	0	44	0	406847488	22	4524
2026-01-19 00:03:38.73	33.71	34.09	-30.6	-31.9	12.8	4.78e-04	0	44	0	408944640	22	4176
2026-01-19 00:03:39.74	33.85	34.30	-30.7	-32.0	12.7	1.07e-04	0	44	0	411041792	22	4201
2026-01-19 00:03:40.74	33.99	34.51	-30.5	-32.1	12.9	7.78e-05	0	44	0	413138944	21	4333
2026-01-19 00:03:41.75	34.13	34.72	-30.5	-32.2	12.9	3.34e-04	0	44	0	415236096	21	4350
2026-01-19 00:03:42.75	34.28	34.93	-30.7	-32.7	12.6	1.31e-04	0	44	0	416284672	21	4514
2026-01-19 00:03:43.75	34.42	35.14	-30.7	-32.5	12.7	9.61e-05	0	44	0	418381824	21	4450
2026-01-19 00:03:44.76	34.57	35.35	-30.6	-32.3	12.8	2.51e-05	0	44	0	420478976	21	4389
2026-01-19 00:03:45.76	34.72	35.56	-30.9	-33.1	12.3	1.04e-04	0	44	0	422576128	21	4656
2026-01-19 00:03:46.77	34.87	35.78	-30.8	-32.9	12.5	9.68e-05	0	44	0	424673280	21	4576
2026-01-19 00:03:47.77	35.02	35.99	-31.0	-33.0	12.0	2.14e-04	0	44	0	425721856	22	4544
2026-01-19 00:03:48.77	35.18	36.21	-31.2	-33.4	11.8	3.33e-04	0	44	0	427819008	22	4682
2026-01-19 00:03:49.77	35.34	36.43	-31.4	-34.0	11.4	9.86e-04	0	44	0	429916160	22	4897
2026-01-19 00:03:50.77	35.50	36.64	-31.3	-33.9	11.5	8.48e-04	0	44	0	432013312	22	4841
2026-01-19 00:03:51.77	35.66	36.86	-31.6	-34.3	10.8	1.10e-03	0	44	0	434110464	23	4921
2026-01-19 00:03:52.77	35.82	37.09	-31.3	-33.5	11.5	1.74e-03	0	44	0	435159040	23	4602
2026-01-19 00:03:53.77	35.99	37.31	-31.5	-33.9	11.1	1.40e-03	0	44	0	437256192	23	4763
2026-01-19 00:03:54.77	36.15	37.53	-31.3	-33.3	11.5	1.37e-03	0	44	0	439353344	23	4538
2026-01-19 00:03:55.78	36.32	37.76	-31.1	-32.7	12.0	6.83e-04	0	44	0	441450496	23	4345
2026-01-19 00:03:56.79	36.50	37.99	-31.3	-33.4	11.4	1.04e-03	0	44	0	442499072	23	4571
2026-01-19 00:03:57.79	36.67	38.21	-31.5	-33.9	11.2	1.08e-03	0	44	0	444596224	23	4743
2026-01-19 00:03:58.80	36.85	38.44	-31.6	-34.4	10.7	1.48e-03	0	44	0	446693376	23	4962
2026-01-19 00:03:59.80	37.03	38.67	-32.0	-35.2	9.8	7.69e-03	0	44	0	448790528	24	5211
2026-01-19 00:04:00.80	37.21	38.91	-32.3	-36.1	9.1	1.18e-02	0	44	0	450887680	24	5632
2026-01-19 00:04:01.80	37.40	39.14	-32.2	-35.9	9.3	2.20e-02	0	44	0	452984832	24	5490
2026-01-19 00:04:02.80	37.59	39.37	-32.2	-36.0	9.3	1.44e-02	0	44	0	454033408	24	5550
2026-01-19 00:04:03.80	37.77	39.61	-31.9	-34.8	10.2	9.00e-03	0	44	0	456130560	24	5020
2026-01-19 00:04:04.80	37.97	39.84	-31.7	-34.2	10.4	2.67e-03	0	44	0	458227712	24	4798
2026-01-19 00:04:05.80	38.16	40.08	-31.6	-34.0	10.7	2.81e-03	0	44	0	460324864	24	4694
2026-01-19 00:04:06.80	38.36	40.32	-31.4	-33.0	11.6	9.77e-04	0	44	0	461373440	24	4344
2026-01-19 00:04:07.81	38.56	40.56	-31.4	-33.2	11.4	8.33e-04	0	44	0	463470592	24	4403
2026-01-19 00:04:08.81	38.77	40.80	-31.2	-33.1	11.8	1.35e-03	0	44	0	465567744	23	4461
2026-01-19 00:04:09.81	38.97	41.04	-31.2	-33.1	11.8	4.49e-04	0	44	0	467664896	23	4456
2026-01-19 00:04:10.82	39.19	41.29	-31.1	-32.8	11.9	3.83e-04	0	44	0	469762048	23	4371
2026-01-19 00:04:11.82	39.40	41.53	-31.1	-32.6	12.1	4.77e-04	0	44	0	470810624	23	4313
2026-01-19 00:04:12.83	39.62	41.78	-31.3	-33.3	11.8	3.84e-04	0	44	0	472907776	23	4527
2026-01-19 00:04:13.83	39.84	42.03	-31.2	-32.9	11.9	3.88e-04	0	44	0	475004928	23	4377
2026-01-19 00:04:14.84	40.06	42.28	-31.0	-32.3	12.3	4.20e-04	0	44	0	477102080	23	4208
2026-01-19 00:04:15.84	40.29	42.53	-31.0	-32.4	12.2	2.62e-04	0	44	0	479199232	23	4241
2026-01-19 00:04:16.85	40.52	42.78	-30.9	-32.1	12.5	2.26e-04	0	44	0	480247808	23	4117
2026-01-19 00:04:17.85	40.76	43.04	-30.8	-31.9	12.5	1.34e-04	0	44	0	482344960	23	4085
2026-01-19 00:04:18.85	40.99	43.29	-31.2	-33.1	11.9	1.95e-04	0	44	0	484442112	23	4460
2026-01-19 00:04:19.85	41.23	43.54	-31.2	-33.0	11.9	3.85e-04	0	44	0	486539264	23	4421
2026-01-19 00:04:20.85	41.48	43.80	-31.4	-33.5	11.5	7.61e-04	0	44	0	488636416	23	4607
2026-01-19 00:04:21.86	41.73	44.06	-31.5	-33.8	11.3	1.27e-03	0	44	0	489684992	23	4708
2026-01-19 00:04:22.86	41.98	44.32	-31.3	-33.3	11.6	8.29e-04	0	44	0	491782144	23	4530
2026-01-19 00:04:23.86	42.24	44.58	-31.5	-33.7	11.4	9.91e-04	0	44	0	493879296	23	4689
2026-01-19 00:04:24.86	42.50	44.84	-31.4	-33.5	11.5	8.05e-04	0	44	0	495976448	23	4609
2026-01-19 00:04:25.87	42.77	45.10	-31.4	-33.4	11.7	1.06e-03	0	44	0	498073600	23	4575
2026-01-19 00:04:26.87	43.04	45.36	-31.2	-33.3	12.1	4.54e-04	0	44	0	499122176	22	4618
2026-01-19 00:04:27.87	43.31	45.62	-31.6	-34.0	11.2	7.84e-04	0	44	0	501219328	23	4788
2026-01-19 00:04:28.88	43.59	45.89	-31.8	-34.9	10.5	1.87e-03	0	44	0	503316480	23	5145
2026-01-19 00:04:29.88	43.88	46.16	-31.4	-33.7	11.3	3.14e-03	0	44	0	505413632	23	4667
2026-01-19 00:04:30.89	44.17	46.43	-30.9	-32.1	12.5	3.55e-04	0	44	0	506462208	23	4125
2026-01-19 00:04:31.89	44.46	46.69	-30.2	-31.2	13.7	3.12e-05	0	44	0	508559360	21	4037
2026-01-19 00:04:32.89	44.76	46.96	-30.1	-31.0	13.9	2.28e-05	0	44	0	510656512	21	3976
2026-01-19 00:04:33.90	45.06	47.23	-30.1	-30.8	14.0	3.00e-06	0	44	0	512753664	21	3917
2026-01-19 00:04:34.90	45.37	47.50	-30.3	-31.3	13.7	4.50e-06	0	44	0	514850816	21	4070
2026-01-19 00:04:35.90	45.68	47.77	-30.1	-30.9	13.9	6.80e-06	0	44	0	515899392	21	3942
2026-01-19 00:04:36.91	46.01	48.05	-30.1	-30.9	14.0	2.20e-06	0	44	0	517996544	21	3956
2026-01-19 00:04:37.90	46.33	48.32	-30.4	-31.8	13.4	3.00e-06	0	44	0	520093696	21	4215
2026-01-19 00:04:38.90	46.66	48.59	-30.5	-32.0	13.3	3.28e-05	0	44	0	522190848	21	4279
2026-01-19 00:04:39.90	46.99	48.86	-30.8	-32.7	12.8	2.05e-05	0	44	0	524288000	21	4481
2026-01-19 00:04:40.90	47.34	49.14	-30.5	-32.0	13.3	4.73e-05	0	44	0	525336576	21	4278
2026-01-19 00:04:41.91	47.69	49.42	-30.5	-31.8	13.4	2.21e-05	0	44	0	527433728	21	4217
2026-01-19 00:04:42.91	48.04	49.69	-30.7	-32.4	12.9	2.28e-05	0	44	0	529530880	21	4409
2026-01-19 00:04:43.91	48.40	49.97	-30.7	-32.4	13.0	2.97e-05	0	44	0	531628032	21	4406
2026-01-19 00:04:44.92	48.77	50.25	-30.7	-32.5	13.1	3.12e-05	0	44	0	533725184	21	4418
2026-01-19 00:04:45.93	49.15	50.53	-30.8	-32.8	12.8	4.80e-05	0	44	0	534773760	21	4537
2026-01-19 00:04:46.93	49.53	50.81	-30.6	-32.3	13.2	7.85e-05	0	44	0	536870912	21	4354
2026-01-19 00:04:47.93	49.92	51.08	-30.3	-31.5	13.5	1.37e-05	0	44	0	538968064	21	4110
2026-01-19 00:04:48.93	50.32	51.36	-30.1	-30.8	14.1	3.80e-06	0	44	0	541065216	21	3911
2026-01-19 00:04:49.93	50.72	51.64	-30.4	-31.6	13.6	1.50e-06	0	44	0	543162368	21	4146
2026-01-19 00:04:50.93	51.13	51.92	-30.2	-31.2	13.8	5.30e-06	0	44	0	544210944	21	4028
2026-01-19 00:04:51.93	51.55	52.20	-29.8	-30.1	14.5	7.00e-07	0	44	0	546308096	21	3725
2026-01-19 00:04:52.93	51.97	52.48	-29.5	-29.7	15.0	1.50e-06	0	44	0	548405248	20	3711
2026-01-19 00:04:53.94	52.41	52.76	-29.2	-29.5	15.6	0.00e+00	0	44	0	550502400	19	3734
2026-01-19 00:04:54.94	52.85	53.04	-28.8	-29.0	16.2	0.00e+00	0	44	0	552599552	18	3693
2026-01-19 00:04:55.94	53.30	53.32	-28.6	-29.2	16.3	0.00e+00	0	44	0	553648128	17	3848
2026-01-19 00:04:56.95	53.77	53.60	-28.6	-29.1	16.3	0.00e+00	0	44	0	555745280	17	3813
2026-01-19 00:04:57.95	54.24	53.87	-29.0	-29.6	15.8	0.00e+00	0	44	0	557842432	18	3858
2026-01-19 00:04:58.95	54.71	54.15	-29.5	-30.2	15.1	0.00e+00	0	44	0	559939584	19	3934
2026-01-19 00:04:59.96	55.20	54.43	-29.7	-30.9	14.8	0.00e+00	0	44	0	560988160	19	4109
2026-01-19 00:05:00.96	55.70	54.71	-29.8	-31.0	14.7	6.10e-06	0	44	0	563085312	19	4154
2026-01-19 00:05:01.95	56.20	54.98	-29.5	-30.3	15.1	0.00e+00	0	44	0	565182464	19	3947
2026-01-19 00:05:02.96	56.72	55.26	-29.3	-29.7	15.5	0.00e+00	0	44	0	567279616	19	3787
2026-01-19 00:05:03.97	57.25	55.53	-29.0	-29.1	15.8	0.00e+00	0	44	0	569376768	19	3637
2026-01-19 00:05:04.98	57.79	55.81	-29.1	-29.3	15.7	1.37e-05	0	44	0	570425344	19	3693
2026-01-19 00:05:05.97	58.33	56.08	-29.4	-30.0	15.4	0.00e+00	0	44	0	572522496	19	3869
2026-01-19 00:05:06.97	58.89	56.35	-29.4	-30.1	15.2	7.60e-06	0	44	0	574619648	19	3896
2026-01-19 00:05:07.97	59.46	56.62	-29.6	-30.6	15.0	4.95e-05	0	44	0	576716800	19	4016
2026-01-19 00:05:08.97	60.04	56.89	-29.7	-30.8	14.8	0.00e+00	0	44	0	578813952	19	4072
2026-01-19 00:05:09.97	60.63	57.16	-29.9	-31.3	14.5	1.50e-06	0	44	0	579862528	19	4238
2026-01-19 00:05:10.97	61.23	57.42	-30.2	-31.7	13.9	7.00e-07	0	44	0	581959680	20	4256
2026-01-19 00:05:11.97	61.84	57.68	-30.6	-32.3	13.2	1.37e-05	0	44	0	584056832	21	4358
2026-01-19 00:05:12.98	62.47	57.95	-31.3	-33.6	12.0	1.46e-04	0	44	0	586153984	22	4702
2026-01-19 00:05:13.98	63.11	58.21	-31.1	-33.0	12.4	2.22e-04	0	44	0	588251136	22	4492
2026-01-19 00:05:14.98	63.76	58.46	-30.8	-32.1	13.1	4.73e-05	0	44	0	589299712	22	4192
2026-01-19 00:05:15.99	64.43	58.72	-30.1	-30.9	14.1	9.07e-05	0	44	0	591396864	21	3937
2026-01-19 00:05:16.99	65.11	58.97	-29.5	-29.8	15.1	8.62e-05	0	44	0	593494016	20	3723
2026-01-19 00:05:17.99	65.79	59.22	-29.7	-30.4	14.8	7.00e-07	0	44	0	595591168	20	3886
2026-01-19 00:05:18.99	66.49	59.47	-30.2	-31.6	14.1	6.80e-06	0	44	0	597688320	20	4216
2026-01-19 00:05:19.99	67.21	59.71	-30.5	-31.8	13.5	6.10e-06	0	44	0	598736896	21	4198
2026-01-19 00:05:21.00	67.95	59.96	-30.6	-32.2	13.4	1.67e-05	0	44	0	600834048	21	4315
2026-01-19 00:05:21.99	68.68	60.19	-30.4	-31.5	13.8	4.56e-04	0	44	0	602931200	21	4099
2026-01-19 00:05:22.99	69.43	60.42	-29.8	-30.9	14.9	6.00e-04	0	44	0	605028352	19	4102
2026-01-19 00:05:24.00	70.21	60.66	-29.5	-30.2	15.3	0.00e+00	0	44	0	607125504	19	3907
2026-01-19 00:05:25.01	71.00	60.89	-30.2	-31.5	14.2	6.02e-04	0	44	0	608174080	20	4182
2026-01-19 00:05:26.01	71.80	61.11	-30.5	-32.3	13.6	6.35e-04	0	44	0	610271232	20	4435
2026-01-19 00:05:27.01	72.61	61.33	-30.4	-31.6	13.6	4.50e-06	0	44	0	612368384	21	4139
2026-01-19 00:05:28.01	73.44	61.54	-29.8	-30.4	14.8	4.16e-04	0	44	0	614465536	20	3890
2026-01-19 00:05:29.01	74.28	61.75	-29.6	-30.0	15.1	4.36e-04	0	44	0	615514112	20	3775
2026-01-19 00:05:30.01	75.13	61.96	-29.6	-30.1	15.0	0.00e+00	0	44	0	617611264	20	3796
2026-01-19 00:05:31.02	76.01	62.16	-29.8	-31.0	14.9	0.00e+00	0	44	0	619708416	19	4140
2026-01-19 00:05:32.02	76.89	62.35	-29.2	-30.1	15.7	5.40e-04	0	44	0	621805568	18	3971
2026-01-19 00:05:33.03	77.80	62.54	-28.7	-28.8	16.4	0.00e+00	0	44	0	623902720	18	3646
2026-01-19 00:05:34.03	78.71	62.73	-28.3	-28.3	16.9	4.57e-05	0	44	0	624951296	17	3617
2026-01-19 00:05:35.03	79.63	62.91	-28.8	-29.5	16.3	1.26e-04	0	44	0	627048448	17	3920
2026-01-19 00:05:36.03	80.57	63.08	-29.5	-30.3	15.2	0.00e+00	0	44	0	629145600	19	3935
2026-01-19 00:05:37.04	81.53	63.25	-29.3	-30.3	15.5	3.75e-04	0	44	0	631242752	18	4043
2026-01-19 00:05:38.04	82.50	63.41	-28.9	-29.2	16.2	0.00e+00	0	44	0	633339904	18	3746
2026-01-19 00:05:39.04	83.48	63.56	-29.6	-30.5	15.1	0.00e+00	0	44	0	634388480	19	4003
2026-01-19 00:05:40.04	84.47	63.71	-29.9	-30.7	14.7	3.71e-04	0	44	0	636485632	20	3974
2026-01-19 00:05:41.04	85.47	63.85	-30.3	-31.9	13.9	3.68e-04	0	44	0	638582784	20	4325
2026-01-19 00:05:42.04	86.48	63.99	-29.9	-30.8	14.6	7.00e-07	0	44	0	640679936	20	3991
2026-01-19 00:05:43.04	87.51	64.11	-29.7	-30.7	15.1	9.73e-04	0	44	0	642777088	19	4034
2026-01-19 00:05:44.05	88.56	64.23	-29.5	-30.3	15.3	1.49e-03	0	44	0	643825664	19	3943
2026-01-19 00:05:45.05	89.61	64.35	-29.6	-30.5	15.2	0.00e+00	0	44	0	645922816	19	3986
2026-01-19 00:05:46.06	90.67	64.45	-30.3	-31.8	14.0	1.72e-03	0	44	0	648019968	20	4290
2026-01-19 00:05:47.06	91.74	64.55	-30.9	-32.8	13.0	1.75e-03	0	44	0	650117120	21	4517
2026-01-19 00:05:48.07	92.83	64.64	-31.2	-33.2	12.4	9.15e-05	0	44	0	652214272	22	4538
2026-01-19 00:05:49.07	93.91	64.72	-30.5	-31.3	13.7	1.93e-03	0	44	0	653262848	22	3958
2026-01-19 00:05:50.07	95.00	64.80	-30.4	-31.4	13.9	1.56e-03	0	44	0	655360000	21	4063
2026-01-19 00:05:51.07	96.10	64.86	-30.2	-31.0	14.1	1.50e-06	0	44	0	657457152	21	3965
2026-01-19 00:05:52.08	97.22	64.92	-29.6	-29.9	15.1	7.00e-07	0	44	0	659554304	20	3753
2026-01-19 00:05:53.09	98.34	64.97	-29.3	-29.8	15.6	7.98e-04	0	44	0	660602880	19	3805
2026-01-19 00:05:54.08	99.44	65.01	-29.2	-29.4	15.8	0.00e+00	0	44	0	662700032	19	3699
2026-01-19 00:05:55.08	100.56	65.04	-29.6	-30.4	15.3	1.15e-03	0	44	0	664797184	19	3956
2026-01-19 00:05:56.08	101.68	65.06	-29.9	-31.3	14.8	0.00e+00	0	44	0	666894336	19	4203
2026-01-19 00:05:57.09	102.81	65.08	-29.6	-30.0	15.1	0.00e+00	0	44	0	668991488	20	3771
2026-01-19 00:05:58.10	103.95	65.08	-29.1	-29.1	16.0	1.59e-03	0	44	0	670040064	19	3633
2026-01-19 00:05:59.10	105.07	65.08	-29.5	-30.6	15.4	0.00e+00	0	44	0	672137216	18	4112
2026-01-19 00:06:00.10	106.19	65.07	-30.3	-31.7	14.1	0.00e+00	0	44	0	674234368	20	4261
2026-01-19 00:06:01.10	107.32	65.05	-30.7	-32.4	13.3	1.48e-03	0	44	0	676331520	21	4374
2026-01-19 00:06:02.10	108.44	65.02	-29.9	-30.7	14.7	1.50e-06	0	44	0	678428672	20	3945
2026-01-19 00:06:03.10	109.55	64.99	-29.8	-30.5	14.8	0.00e+00	0	44	0	679477248	20	3894
2026-01-19 00:06:04.10	110.66	64.94	-30.0	-30.9	14.6	1.16e-03	0	44	0	681574400	20	4011
2026-01-19 00:06:05.11	111.78	64.89	-29.2	-29.5	15.8	6.62e-04	0	44	0	683671552	19	3719
2026-01-19 00:06:06.11	112.88	64.83	-28.5	-28.3	16.8	0.00e+00	0	44	0	685768704	18	3520
2026-01-19 00:06:07.12	113.99	64.76	-29.0	-29.6	16.0	3.87e-04	0	44	0	687865856	18	3834
2026-01-19 00:06:08.12	115.08	64.68	-29.1	-29.6	16.1	3.48e-04	0	44	0	688914432	18	3840
2026-01-19 00:06:09.12	116.16	64.59	-29.7	-30.7	15.0	0.00e+00	0	44	0	691011584	19	4045
2026-01-19 00:06:10.12	117.23	64.50	-29.7	-30.7	15.1	0.00e+00	0	44	0	693108736	19	4040
2026-01-19 00:06:11.13	118.30	64.40	-29.8	-30.9	15.0	1.84e-04	0	44	0	695205888	19	4083
2026-01-19 00:06:12.12	119.35	64.29	-29.9	-30.7	14.8	0.00e+00	0	44	0	697303040	20	3953
2026-01-19 00:06:13.13	120.40	64.17	-30.1	-31.2	14.3	7.00e-07	0	44	0	698351616	20	4094
2026-01-19 00:06:14.13	121.43	64.05	-29.5	-29.8	15.2	0.00e+00	0	44	0	700448768	20	3716
2026-01-19 00:06:15.13	122.45	63.92	-29.2	-29.6	15.7	0.00e+00	0	44	0	702545920	19	3738
2026-01-19 00:06:16.13	123.46	63.78	-28.9	-28.8	16.2	0.00e+00	0	44	0	704643072	19	3554
2026-01-19 00:06:17.13	124.46	63.63	-28.3	-28.3	17.0	0.00e+00	0	44	0	705691648	17	3606
2026-01-19 00:06:18.13	125.44	63.48	-28.2	-28.1	17.2	0.00e+00	0	44	0	707788800	17	3561
2026-01-19 00:06:19.13	126.42	63.32	-29.1	-29.6	16.1	1.59e-03	0	44	0	709885952	18	3845
2026-01-19 00:06:20.13	127.38	63.16	-29.9	-30.8	14.7	0.00e+00	0	44	0	711983104	20	3970
2026-01-19 00:06:21.14	128.33	62.99	-30.0	-30.9	14.7	0.00e+00	0	44	0	714080256	20	4001
2026-01-19 00:06:22.14	129.26	62.81	-29.8	-30.9	14.9	1.93e-03	0	44	0	715128832	19	4085
2026-01-19 00:06:23.14	130.18	62.63	-30.3	-31.8	14.1	7.00e-07	0	44	0	717225984	20	4272
2026-01-19 00:06:24.13	131.08	62.44	-30.3	-31.7	14.2	1.50e-06	0	44	0	719323136	20	4254
2026-01-19 00:06:25.13	131.97	62.25	-30.0	-30.6	14.4	2.59e-05	0	44	0	721420288	21	3838
2026-01-19 00:06:26.13	132.84	62.05	-29.4	-30.1	15.6	0.00e+00	0	44	0	723517440	19	3864
2026-01-19 00:06:27.13	133.70	61.85	-29.5	-30.1	15.4	0.00e+00	0	44	0	724566016	19	3888
2026-01-19 00:06:28.13	134.55	61.64	-29.4	-30.1	15.4	0.00e+00	0	44	0	726663168	19	3875
2026-01-19 00:06:29.13	135.39	61.43	-28.6	-28.5	16.7	8.96e-04	0	44	0	728760320	18	3567
2026-01-19 00:06:30.14	136.21	61.21	-28.1	-27.9	17.2	0.00e+00	0	44	0	730857472	17	3522
2026-01-19 00:06:31.14	137.02	60.99	-28.8	-29.5	16.3	0.00e+00	0	44	0	732954624	17	3924
2026-01-19 00:06:32.14	137.81	60.76	-29.4	-30.5	15.5	0.00e+00	0	44	0	734003200	18	4072
2026-01-19 00:06:33.14	138.59	60.53	-29.5	-30.1	15.5	0.00e+00	0	44	0	736100352	19	3870
2026-01-19 00:06:34.14	139.35	60.30	-29.5	-30.1	15.5	0.00e+00	0	44	0	738197504	19	3882
2026-01-19 00:06:35.14	140.10	60.07	-28.4	-28.0	17.0	0.00e+00	0	44	0	740294656	18	3460
2026-01-19 00:06:36.14	140.84	59.83	-28.1	-27.9	17.2	0.00e+00	0	44	0	742391808	17	3511
2026-01-19 00:06:37.14	141.56	59.58	-27.8	-27.8	17.6	0.00e+00	0	44	0	743440384	16	3576
2026-01-19 00:06:38.14	142.27	59.34	-28.1	-28.4	17.2	0.00e+00	0	44	0	745537536	16	3727
2026-01-19 00:06:39.14	142.96	59.09	-28.6	-29.2	16.6	0.00e+00	0	44	0	747634688	17	3825
2026-01-19 00:06:40.14	143.65	58.84	-28.4	-28.5	16.8	0.00e+00	0	44	0	749731840	17	3658
2026-01-19 00:06:41.15	144.32	58.58	-27.8	-27.6	17.6	0.00e+00	0	44	0	750780416	16	3546
2026-01-19 00:06:42.14	144.97	58.33	-27.6	-27.3	17.9	0.00e+00	0	44	0	752877568	16	3470
2026-01-19 00:06:43.15	145.62	58.06	-28.2	-28.7	17.1	2.67e-05	0	44	0	754974720	16	3807
2026-01-19 00:06:44.15	146.26	57.80	-28.8	-29.6	16.2	0.00e+00	0	44	0	757071872	17	3952
2026-01-19 00:06:45.16	146.88	57.54	-28.0	-27.8	17.3	0.00e+00	0	44	0	759169024	17	3497
2026-01-19 00:06:46.16	147.49	57.27	-27.3	-26.7	18.1	0.00e+00	0	44	0	760217600	16	3344
2026-01-19 00:06:47.17	148.09	57.00	-28.1	-28.5	17.2	0.00e+00	0	44	0	762314752	16	3758
2026-01-19 00:06:48.17	148.68	56.74	-28.7	-29.3	16.4	0.00e+00	0	44	0	764411904	17	3866
2026-01-19 00:06:49.17	149.25	56.47	-28.2	-28.1	17.1	0.00e+00	0	44	0	766509056	17	3572
2026-01-19 00:06:50.18	149.82	56.19	-28.0	-27.8	17.3	0.00e+00	0	44	0	768606208	17	3503
2026-01-19 00:06:51.18	150.37	55.92	-28.5	-28.9	16.6	0.00e+00	0	44	0	769654784	17	3772
2026-01-19 00:06:52.19	150.92	55.64	-28.1	-28.4	16.5	0.00e+00	0	44	0	771751936	16	3739
2026-01-19 00:06:53.19	151.45	55.37	-27.7	-27.5	17.7	0.00e+00	0	44	0	773849088	16	3514
2026-01-19 00:06:54.19	151.97	55.09	-28.1	-28.4	17.2	0.00e+00	0	44	0	775946240	16	3737
2026-01-19 00:06:55.19	152.48	54.82	-27.9	-28.5	17.2	0.00e+00	0	44	0	778043392	15	3871
2026-01-19 00:06:56.20	152.99	54.54	-28.8	-29.5	16.3	0.00e+00	0	44	0	779091968	17	3913
2026-01-19 00:06:57.20	153.48	54.26	-28.9	-29.9	16.1	2.13e-05	0	44	0	781189120	17	4009
2026-01-19 00:06:58.21	153.97	53.98	-29.2	-30.0	15.7	0.00e+00	0	44	0	783286272	18	3949
2026-01-19 00:06:59.21	154.44	53.70	-29.1	-29.8	15.9	0.00e+00	0	44	0	785383424	18	3886
2026-01-19 00:07:00.21	154.90	53.42	-29.7	-30.7	15.0	3.21e-04	0	44	0	787480576	19	4057
2026-01-19 00:07:01.22	155.36	53.14	-30.7	-32.4	13.2	4.42e-05	0	44	0	788529152	21	4385
2026-01-19 00:07:02.22	155.81	52.86	-31.2	-33.2	12.5	6.79e-05	0	44	0	790626304	22	4545
2026-01-19 00:07:03.22	156.25	52.58	-30.4	-31.1	13.8	4.04e-05	0	44	0	792723456	22	3887
2026-01-19 00:07:04.22	156.68	52.30	-30.1	-30.7	14.3	1.23e-04	0	44	0	794820608	21	3874
2026-01-19 00:07:05.22	157.10	52.02	-30.7	-32.5	13.3	6.10e-06	0	44	0	795869184	21	4392
2026-01-19 00:07:06.22	157.51	51.74	-31.1	-32.9	12.7	3.73e-05	0	44	0	797966336	22	4449
2026-01-19 00:07:07.22	157.92	51.46	-30.9	-32.4	13.0	2.42e-04	0	44	0	800063488	22	4286
2026-01-19 00:07:08.23	158.32	51.18	-31.0	-32.6	13.0	5.11e-05	0	44	0	802160640	22	4344
2026-01-19 00:07:09.23	158.72	50.90	-30.8	-32.0	13.2	2.36e-05	0	44	0	804257792	22	4167
2026-01-19 00:07:10.23	159.10	50.62	-31.1	-33.0	12.5	1.97e-04	0	44	0	805306368	22	4475
2026-01-19 00:07:11.24	159.48	50.34	-31.1	-33.0	12.6	1.21e-04	0	44	0	807403520	22	4469
2026-01-19 00:07:12.24	159.85	50.06	-31.4	-33.6	11.8	3.22e-04	0	44	0	809500672	23	4588
2026-01-19 00:07:13.24	160.22	49.79	-31.5	-33.6	11.8	7.41e-04	0	44	0	811597824	23	4613
2026-01-19 00:07:14.24	160.58	49.51	-32.0	-34.7	10.5	2.69e-03	0	44	0	813694976	24	4938
2026-01-19 00:07:15.24	160.93	49.23	-31.7	-33.7	11.3	2.82e-03	0	44	0	814743552	24	4553
2026-01-19 00:07:16.25	161.28	48.95	-30.5	-31.3	13.5	2.59e-04	0	44	0	816840704	22	3960
2026-01-19 00:07:17.25	161.61	48.68	-30.1	-30.9	14.2	2.20e-06	0	44	0	818937856	21	3920
2026-01-19 00:07:18.25	161.95	48.40	-30.4	-31.5	13.8	1.65e-04	0	44	0	821035008	21	4100
2026-01-19 00:07:19.25	162.28	48.13	-31.3	-33.5	12.2	4.11e-05	0	44	0	823132160	22	4647
2026-01-19 00:07:20.25	162.60	47.86	-31.3	-33.2	12.0	6.35e-04	0	44	0	824180736	23	4452
2026-01-19 00:07:21.26	162.92	47.58	-30.1	-30.9	14.1	2.46e-04	0	44	0	826277888	21	3927
2026-01-19 00:07:22.27	163.23	47.31	-29.3	-29.7	15.6	3.11e-04	0	44	0	828375040	19	3782
2026-01-19 00:07:23.27	163.54	47.04	-28.9	-28.8	16.1	0.00e+00	0	44	0	830472192	19	3564
2026-01-19 00:07:24.28	163.84	46.77	-29.6	-30.4	15.1	3.23e-04	0	44	0	832569344	19	3974
2026-01-19 00:07:25.28	164.13	46.50	-30.7	-32.6	13.1	3.51e-04	0	44	0	833617920	21	4448
2026-01-19 00:07:26.28	164.42	46.23	-31.3	-33.9	11.8	9.68e-05	0	44	0	835715072	22	4812
2026-01-19 00:07:27.29	164.71	45.96	-30.5	-31.4	13.5	4.27e-04	0	44	0	837812224	22	4001
2026-01-19 00:07:28.29	164.99	45.69	-29.3	-29.3	15.4	3.13e-04	0	44	0	839909376	20	3607
2026-01-19 00:07:29.29	165.27	45.43	-28.8	-28.7	16.1	0.00e+00	0	44	0	842006528	19	3546
2026-01-19 00:07:30.30	165.54	45.16	-29.3	-29.7	15.5	0.00e+00	0	44	0	843055104	19	3799
2026-01-19 00:07:31.30	165.81	44.90	-30.2	-31.7	13.9	2.91e-04	0	44	0	845152256	20	4260
2026-01-19 00:07:32.30	166.07	44.64	-31.2	-33.3	12.3	1.90e-05	0	44	0	847249408	22	4592
2026-01-19 00:07:33.30	166.33	44.38	-32.2	-35.8	9.8	1.87e-03	0	44	0	849346560	24	5410
2026-01-19 00:07:34.30	166.59	44.12	-32.9	-38.2	7.4	8.95e-02	0	44	0	850395136	25	6590
2026-01-19 00:07:35.30	166.84	43.86	-32.7	-36.5	8.3	1.24e-01	0	44	0	852492288	26	5578
2026-01-19 00:07:36.31	167.09	43.60	-31.9	-34.5	10.5	1.70e-02	0	44	0	854589440	24	4880
2026-01-19 00:07:37.31	167.33	43.35	-31.0	-32.2	12.6	7.48e-04	0	44	0	856686592	23	4142
2026-01-19 00:07:38.31	167.57	43.09	-30.8	-32.2	13.0	3.81e-05	0	44	0	858783744	22	4235
2026-01-19 00:07:39.32	167.81	42.83	-31.1	-32.9	12.5	3.57e-04	0	44	0	859832320	22	4465
2026-01-19 00:07:40.31	168.04	42.58	-31.5	-33.9	11.5	4.62e-04	0	44	0	861929472	23	4725
2026-01-19 00:07:41.31	168.26	42.33	-31.9	-34.7	10.5	5.78e-03	0	44	0	864026624	24	4970
2026-01-19 00:07:42.31	168.49	42.08	-31.9	-34.7	10.5	5.07e-03	0	44	0	866123776	24	4952
2026-01-19 00:07:43.31	168.71	41.83	-31.2	-32.9	12.1	1.46e-03	0	44	0	868220928	23	4388
2026-01-19 00:07:44.31	168.93	41.59	-29.9	-30.3	14.4	4.27e-05	0	44	0	869269504	21	3779
2026-01-19 00:07:45.31	169.14	41.34	-29.3	-29.7	15.4	9.90e-06	0	44	0	871366656	19	3796
2026-01-19 00:07:46.31	169.35	41.10	-29.1	-29.3	15.7	9.10e-06	0	44	0	873463808	19	3681
2026-01-19 00:07:47.32	169.56	40.85	-29.7	-30.7	14.9	0.00e+00	0	44	0	875560960	19	4063
2026-01-19 00:07:48.32	169.77	40.61	-30.5	-31.9	13.4	2.05e-05	0	44	0	877658112	21	4241
2026-01-19 00:07:49.32	169.97	40.37	-31.7	-34.5	11.0	6.04e-04	0	44	0	878706688	23	4964
2026-01-19 00:07:50.32	170.17	40.12	-32.3	-36.1	9.4	4.45e-03	0	44	0	880803840	24	5554
2026-01-19 00:07:51.32	170.37	39.89	-32.6	-36.8	8.4	2.31e-02	0	44	0	882900992	25	5824
2026-01-19 00:07:52.32	170.56	39.65	-32.7	-37.2	8.1	4.25e-02	0	44	0	884998144	25	6037
2026-01-19 00:07:53.32	170.75	39.41	-32.3	-35.6	9.3	4.58e-02	0	44	0	886046720	25	5249
2026-01-19 00:07:54.33	170.94	39.17	-31.5	-33.3	11.4	6.62e-03	0	44	0	888143872	24	4440
2026-01-19 00:07:55.33	171.13	38.94	-30.9	-31.9	12.7	1.91e-04	0	44	0	890241024	23	4061
2026-01-19 00:07:56.32	171.31	38.71	-30.5	-31.3	13.4	7.78e-05	0	44	0	892338176	22	3975
2026-01-19 00:07:57.32	171.49	38.48	-30.4	-31.1	13.7	5.18e-05	0	44	0	894435328	22	3903
2026-01-19 00:07:58.33	171.67	38.25	-30.6	-31.7	13.2	2.44e-05	0	44	0	895483904	22	4084
2026-01-19 00:07:59.33	171.85	38.02	-31.0	-32.8	12.5	1.23e-04	0	44	0	897581056	22	4439
2026-01-19 00:08:00.34	172.02	37.79	-31.8	-34.7	10.9	4.85e-04	0	44	0	899678208	23	5028
2026-01-19 00:08:01.34	172.19	37.56	-32.4	-36.6	8.8	6.36e-03	0	44	0	901775360	24	5801
2026-01-19 00:08:02.34	172.36	37.34	-32.4	-36.5	9.0	2.64e-02	0	44	0	903872512	24	5778
2026-01-19 00:08:03.35	172.53	37.11	-32.5	-36.4	8.7	3.63e-02	0	44	0	904921088	25	5648
2026-01-19 00:08:04.35	172.69	36.89	-32.0	-34.5	10.1	2.16e-02	0	44	0	907018240	25	4807
2026-01-19 00:08:05.35	172.86	36.67	-31.2	-33.0	12.0	1.02e-03	0	44	0	909115392	23	4400
2026-01-19 00:08:06.35	173.02	36.45	-30.7	-31.9	13.0	1.48e-04	0	44	0	911212544	22	4137
2026-01-19 00:08:07.36	173.17	36.23	-30.2	-31.0	13.9	5.49e-05	0	44	0	913309696	21	3966
2026-01-19 00:08:08.36	173.33	36.01	-30.0	-30.6	14.1	5.30e-06	0	44	0	914358272	21	3851
2026-01-19 00:08:09.36	173.48	35.79	-29.9	-30.5	14.2	7.00e-07	0	44	0	916455424	21	3824
2026-01-19 00:08:10.37	173.64	35.58	-30.5	-32.0	13.3	2.67e-05	0	44	0	918552576	21	4276
2026-01-19 00:08:11.37	173.79	35.36	-30.7	-32.6	12.9	6.17e-05	0	44	0	920649728	21	4453
2026-01-19 00:08:12.36	173.93	35.15	-30.1	-30.8	14.0	6.80e-06	0	44	0	922746880	21	3924
2026-01-19 00:08:13.36	174.08	34.94	-30.2	-31.1	13.8	6.10e-06	0	44	0	923795456	21	3994
2026-01-19 00:08:14.36	174.22	34.73	-30.0	-30.6	14.1	6.10e-06	0	44	0	925892608	21	3869
2026-01-19 00:08:15.37	174.37	34.52	-30.7	-32.5	12.9	3.12e-05	0	44	0	927989760	21	4446
2026-01-19 00:08:16.37	174.51	34.31	-31.2	-33.5	11.9	2.41e-04	0	44	0	930086912	22	4683
2026-01-19 00:08:17.38	174.65	34.10	-31.5	-34.2	11.4	5.45e-04	0	44	0	931135488	22	4965
2026-01-19 00:08:18.38	174.79	33.90	-31.7	-34.5	10.9	1.74e-03	0	44	0	933232640	23	4986
2026-01-19 00:08:19.39	174.92	33.69	-32.0	-35.1	10.0	7.17e-03	0	44	0	935329792	24	5133
2026-01-19 00:08:20.40	175.06	33.49	-32.3	-36.1	9.2	1.45e-02	0	44	0	937426944	24	5605
2026-01-19 00:08:21.40	175.19	33.28	-32.4	-36.4	9.0	2.18e-02	0	44	0	939524096	24	5751
2026-01-19 00:08:22.41	175.32	33.08	-32.4	-36.7	8.7	2.88e-02	0	44	0	941621248	24	5877
2026-01-19 00:08:23.41	175.45	32.88	-32.3	-36.1	9.2	2.79e-02	0	44	0	942669824	24	5615
2026-01-19 00:08:24.41	175.58	32.68	-32.0	-35.3	9.9	1.46e-02	0	44	0	944766976	24	5220
2026-01-19 00:08:25.41	175.71	32.49	-32.1	-35.4	9.7	1.33e-02	0	44	0	946864128	24	5287
2026-01-19 00:08:26.42	175.83	32.29	-32.2	-35.9	9.4	1.47e-02	0	44	0	948961280	24	5487
2026-01-19 00:08:27.42	175.95	32.09	-32.3	-36.2	9.0	1.26e-02	0	44	0	950009856	24	5661
2026-01-19 00:08:28.42	176.08	31.90	-32.2	-35.9	9.3	3.30e-02	0	44	0	952107008	24	5493
2026-01-19 00:08:29.42	176.20	31.71	-32.0	-35.1	10.0	9.70e-03	0	44	0	954204160	24	5124
2026-01-19 00:08:30.43	176.32	31.51	-32.1	-35.6	9.6	1.00e-02	0	44	0	956301312	24	5369
2026-01-19 00:08:31.43	176.43	31.32	-32.3	-36.1	9.2	1.63e-02	0	44	0	958398464	24	5597
2026-01-19 00:08:32.43	176.55	31.13	-32.3	-36.1	9.2	2.09e-02	0	44	0	959447040	24	5613
2026-01-19 00:08:33.44	176.67	30.94	-32.4	-35.9	9.0	3.79e-02	0	44	0	961544192	25	5427
2026-01-19 00:08:34.44	176.78	30.76	-32.6	-36.8	8.3	3.17e-02	0	44	0	963641344	25	5877
2026-01-19 00:08:35.44	176.89	30.57	-32.5	-36.6	8.4	5.12e-02	0	44	0	965738496	25	5762
2026-01-19 00:08:36.44	177.01	30.39	-32.7	-37.4	7.8	5.06e-02	0	44	0	967835648	25	6194
2026-01-19 00:08:37.45	177.12	30.20	-32.8	-37.8	7.4	1.38e-01	0	44	0	968884224	25	6440
2026-01-19 00:08:38.46	177.23	30.02	-32.4	-36.3	8.7	7.64e-02	0	44	0	970981376	25	5595
2026-01-19 00:08:39.47	177.33	29.83	-32.1	-34.8	9.8	1.46e-02	0	44	0	973078528	25	4945
2026-01-19 00:08:40.47	177.44	29.65	-32.1	-35.5	9.6	1.23e-02	0	44	0	975175680	24	5330
2026-01-19 00:08:41.47	177.55	29.47	-32.2	-35.9	9.3	1.02e-02	0	44	0	977272832	24	5512
2026-01-19 00:08:42.48	177.65	29.29	-32.4	-36.5	8.9	2.73e-02	0	44	0	978321408	24	5774
2026-01-19 00:08:43.48	177.76	29.12	-32.1	-35.4	9.7	1.52e-02	0	44	0	980418560	24	5271
2026-01-19 00:08:44.48	177.86	28.94	-32.2	-36.0	9.2	1.61e-02	0	44	0	982515712	24	5541
2026-01-19 00:08:45.48	177.96	28.76	-32.3	-36.1	9.1	2.28e-02	0	44	0	984612864	24	5611
2026-01-19 00:08:46.49	178.06	28.59	-32.1	-35.5	9.6	1.69e-02	0	44	0	986710016	24	5319
2026-01-19 00:08:47.49	178.16	28.41	-31.9	-34.9	10.0	9.19e-03	0	44	0	987758592	24	5055
2026-01-19 00:08:48.49	178.26	28.24	-31.5	-34.1	11.0	2.80e-03	0	44	0	989855744	23	4844
2026-01-19 00:08:49.49	178.35	28.07	-31.4	-33.5	11.4	1.40e-03	0	44	0	991952896	23	4628
2026-01-19 00:08:50.49	178.45	27.90	-31.1	-33.3	11.5	9.25e-04	0	44	0	994050048	22	4633
2026-01-19 00:08:51.49	178.54	27.73	-31.0	-33.5	11.5	4.36e-04	0	44	0	996147200	21	4783
2026-01-19 00:08:52.50	178.64	27.56	-30.8	-32.3	12.6	1.70e-04	0	44	0	997195776	22	4286
2026-01-19 00:08:53.50	178.73	27.39	-30.3	-32.0	13.1	1.60e-05	0	44	0	999292928	20	4374
2026-01-19 00:08:54.50	178.82	27.23	-30.0	-31.1	13.7	3.00e-06	0	44	0	1001390080	20	4103
2026-01-19 00:08:55.50	178.91	27.06	-29.6	-30.2	14.6	7.00e-07	0	44	0	1003487232	20	3856
2026-01-19 00:08:56.51	179.01	26.89	-29.3	-30.4	14.8	0.00e+00	0	44	0	1004535808	18	4093
2026-01-19 00:08:57.52	179.10	26.73	-29.4	-30.6	14.8	0.00e+00	0	44	0	1006632960	18	4138
2026-01-19 00:08:58.52	179.18	26.57	-29.3	-29.8	15.1	0.00e+00	0	44	0	1008730112	19	3843
2026-01-19 00:08:59.53	179.27	26.40	-29.5	-30.9	14.5	1.91e-03	0	44	0	1010827264	18	4234
2026-01-19 00:09:00.53	179.36	26.24	-29.5	-30.8	14.6	0.00e+00	0	44	0	1012924416	18	4196
2026-01-19 00:09:01.54	179.45	26.08	-29.3	-30.4	15.1	0.00e+00	0	44	0	1015021568	18	4080
2026-01-19 00:09:02.53	179.53	25.92	-29.4	-30.7	14.9	1.84e-03	0	44	0	1016070144	18	4187
2026-01-19 00:09:03.53	179.61	25.76	-29.6	-30.6	14.6	1.50e-06	0	44	0	1018167296	19	4053
2026-01-19 00:09:04.52	179.70	25.61	-29.5	-30.5	14.7	2.20e-06	0	44	0	1020264448	19	4012
2026-01-19 00:09:05.52	179.78	25.45	-29.6	-30.6	14.7	0.00e+00	0	44	0	1022361600	19	4045
2026-01-19 00:09:06.53	179.86	25.29	-29.6	-30.8	14.5	1.55e-03	0	44	0	1023410176	19	4104
2026-01-19 00:09:07.52	179.94	25.14	-29.8	-31.2	14.3	5.30e-06	0	44	0	1025507328	19	4220
2026-01-19 00:09:08.53	180.02	24.98	-29.9	-31.1	14.0	3.00e-06	0	44	0	1027604480	20	4099
2026-01-19 00:09:09.52	180.10	24.83	-30.1	-31.5	13.7	6.10e-06	0	44	0	1029701632	20	4221
2026-01-19 00:09:10.53	180.18	24.68	-30.1	-31.4	13.7	1.60e-05	0	44	0	1031798784	20	4208
2026-01-19 00:09:11.54	180.26	24.52	-30.0	-31.3	13.8	5.30e-06	0	44	0	1032847360	20	4179
2026-01-19 00:09:12.54	180.34	24.37	-30.1	-31.4	13.7	6.80e-06	0	44	0	1034944512	20	4217
2026-01-19 00:09:13.55	180.42	24.22	-29.7	-30.4	14.3	7.00e-07	0	44	0	1037041664	20	3918
2026-01-19 00:09:14.56	180.49	24.07	-30.0	-31.3	13.8	2.20e-06	0	44	0	1039138816	20	4172
2026-01-19 00:09:15.57	180.57	23.92	-29.8	-31.3	14.1	3.80e-06	0	44	0	1041235968	19	4255
2026-01-19 00:09:16.57	180.64	23.77	-29.7	-30.9	14.4	2.20e-06	0	44	0	1042284544	19	4141
2026-01-19 00:09:17.58	180.72	23.63	-29.9	-31.6	14.0	1.40e-03	0	44	0	1044381696	19	4342
2026-01-19 00:09:18.58	180.79	23.48	-29.9	-31.0	13.9	7.60e-06	0	44	0	1046478848	20	4101
2026-01-19 00:09:19.58	180.86	23.33	-30.0	-31.1	13.9	7.00e-07	0	44	0	1048576000	20	4130
2026-01-19 00:09:20.58	180.94	23.19	-29.8	-31.2	14.1	1.37e-03	0	44	0	1050673152	19	4242
2026-01-19 00:09:21.59	181.01	23.04	-29.8	-31.2	14.2	2.20e-06	0	44	0	1051721728	19	4228
2026-01-19 00:09:22.59	181.08	22.90	-29.7	-31.0	14.3	3.00e-06	0	44	0	1053818880	19	4183
2026-01-19 00:09:23.59	181.15	22.76	-29.5	-30.6	14.6	1.46e-03	0	44	0	1055916032	19	4050
2026-01-19 00:09:24.59	181.22	22.62	-29.6	-30.6	14.5	1.41e-03	0	44	0	1058013184	19	4070
2026-01-19 00:09:25.59	181.29	22.48	-29.5	-30.5	14.5	0.00e+00	0	44	0	1060110336	19	4041
2026-01-19 00:09:26.60	181.36	22.34	-29.3	-30.5	14.8	1.75e-03	0	44	0	1061158912	18	4143
2026-01-19 00:09:27.60	181.43	22.20	-29.4	-30.7	14.7	1.81e-03	0	44	0	1063256064	18	4196
2026-01-19 00:09:28.61	181.49	22.06	-29.2	-30.3	14.8	7.00e-07	0	44	0	1065353216	18	4071
2026-01-19 00:09:29.61	181.56	21.92	-29.1	-30.0	15.0	2.20e-06	0	44	0	1067450368	18	3996
2026-01-19 00:09:30.62	181.63	21.78	-29.0	-30.2	15.2	2.02e-03	0	44	0	1068498944	17	4134
2026-01-19 00:09:31.62	181.69	21.64	-28.9	-30.1	15.2	7.60e-06	0	44	0	1070596096	17	4116
2026-01-19 00:09:32.62	181.76	21.51	-29.3	-30.4	14.7	3.00e-06	0	44	0	1072693248	18	4125
2026-01-19 00:09:33.63	181.82	21.37	-29.7	-31.1	14.0	2.22e-03	0	44	0	1074790400	19	4232
2026-01-19 00:09:34.63	181.89	21.24	-29.9	-31.5	13.9	3.89e-05	0	44	0	1076887552	19	4342
2026-01-19 00:09:35.63	181.95	21.10	-29.9	-31.0	13.8	1.93e-03	0	44	0	1077936128	20	4116
2026-01-19 00:09:36.63	182.01	20.97	-30.1	-31.7	13.3	2.01e-03	0	44	0	1080033280	20	4339
2026-01-19 00:09:37.64	182.08	20.84	-30.1	-31.7	13.3	1.44e-04	0	44	0	1082130432	20	4324
2026-01-19 00:09:38.64	182.14	20.71	-30.1	-31.7	13.4	1.83e-03	0	44	0	1084227584	20	4310
2026-01-19 00:09:39.64	182.20	20.58	-30.1	-31.8	13.3	1.73e-03	0	44	0	1086324736	20	4355
2026-01-19 00:09:40.64	182.26	20.45	-30.1	-31.8	13.3	9.15e-05	0	44	0	1087373312	20	4361
2026-01-19 00:09:41.65	182.32	20.31	-30.2	-31.8	13.2	1.93e-03	0	44	0	1089470464	20	4369
2026-01-19 00:09:42.66	182.38	20.18	-30.3	-32.3	13.0	1.63e-03	0	44	0	1091567616	20	4513
2026-01-19 00:09:43.66	182.44	20.06	-30.2	-31.9	13.2	1.28e-04	0	44	0	1093664768	20	4374
2026-01-19 00:09:44.66	182.50	19.93	-29.8	-30.8	13.9	1.81e-03	0	44	0	1095761920	20	4038
2026-01-19 00:09:45.66	182.56	19.80	-29.5	-30.6	14.4	1.60e-03	0	44	0	1096810496	19	4080
2026-01-19 00:09:46.67	182.62	19.67	-29.2	-29.7	15.0	0.00e+00	0	44	0	1098907648	19	3840
2026-01-19 00:09:47.68	182.68	19.55	-28.9	-29.5	15.4	1.50e-03	0	44	0	1101004800	18	3875
2026-01-19 00:09:48.68	182.73	19.42	-28.8	-29.8	15.5	1.38e-03	0	44	0	1103101952	17	4056
2026-01-19 00:09:49.69	182.79	19.30	-28.8	-29.9	15.4	8.30e-06	0	44	0	1105199104	17	4066
2026-01-19 00:09:50.69	182.85	19.17	-28.9	-30.1	15.3	1.16e-03	0	44	0	1106247680	17	4114
2026-01-19 00:09:51.68	182.90	19.05	-28.7	-29.6	15.6	1.10e-03	0	44	0	1108344832	17	3998
2026-01-19 00:09:52.69	182.96	18.92	-28.8	-29.7	15.5	4.50e-06	0	44	0	1110441984	17	4019
2026-01-19 00:09:53.69	183.01	18.80	-28.9	-30.0	15.3	1.54e-04	0	44	0	1112539136	17	4101
2026-01-19 00:09:54.69	183.07	18.68	-28.9	-30.0	15.3	7.35e-04	0	44	0	1114636288	17	4110
2026-01-19 00:09:55.69	183.12	18.56	-28.9	-29.6	15.3	3.80e-06	0	44	0	1115684864	18	3889
2026-01-19 00:09:56.69	183.18	18.44	-29.0	-29.7	15.3	0.00e+00	0	44	0	1117782016	18	3908
2026-01-19 00:09:57.70	183.23	18.32	-29.1	-30.0	15.0	1.65e-04	0	44	0	1119879168	18	3997
2026-01-19 00:09:58.70	183.28	18.20	-29.1	-30.1	15.0	5.11e-05	0	44	0	1121976320	18	4029
2026-01-19 00:09:59.70	183.34	18.08	-29.1	-30.0	15.1	6.45e-04	0	44	0	1123024896	18	3989
2026-01-19 00:10:00.71	183.39	17.96	-29.2	-30.4	14.8	1.61e-04	0	44	0	1125122048	18	4108
2026-01-19 00:10:01.71	183.44	17.84	-29.2	-30.3	14.8	5.34e-05	0	44	0	1127219200	18	4088
2026-01-19 00:10:02.71	183.49	17.73	-29.2	-30.2	14.9	7.24e-04	0	44	0	1129316352	18	4044
2026-01-19 00:10:03.71	183.54	17.61	-29.1	-30.1	15.0	2.20e-06	0	44	0	1131413504	18	4016
2026-01-19 00:10:04.72	183.60	17.49	-29.2	-30.2	14.9	0.00e+00	0	44	0	1132462080	18	4053
2026-01-19 00:10:05.72	183.65	17.38	-29.3	-30.5	14.7	7.48e-04	0	44	0	1134559232	18	4136
2026-01-19 00:10:06.72	183.70	17.26	-29.1	-30.1	15.0	6.45e-04	0	44	0	1136656384	18	4021
2026-01-19 00:10:07.72	183.75	17.15	-29.3	-30.4	14.8	0.00e+00	0	44	0	1138753536	18	4129
2026-01-19 00:10:08.72	183.80	17.03	-29.3	-30.6	14.6	6.20e-04	0	44	0	1140850688	18	4173
2026-01-19 00:10:09.73	183.84	16.92	-29.2	-30.3	14.8	6.55e-04	0	44	0	1141899264	18	4085
2026-01-19 00:10:10.73	183.89	16.80	-29.4	-30.7	14.6	0.00e+00	0	44	0	1143996416	18	4212
2026-01-19 00:10:11.74	183.94	16.69	-29.3	-30.5	14.7	1.44e-04	0	44	0	1146093568	18	4141
2026-01-19 00:10:12.74	183.99	16.58	-29.2	-30.3	14.8	4.68e-04	0	44	0	1148190720	18	4075
2026-01-19 00:10:13.75	184.04	16.47	-29.5	-30.7	14.2	0.00e+00	0	44	0	1150287872	19	4104
2026-01-19 00:10:14.74	184.09	16.36	-29.5	-30.5	14.3	1.50e-06	0	44	0	1151336448	19	4059
2026-01-19 00:10:15.74	184.13	16.25	-29.5	-30.5	14.3	1.46e-04	0	44	0	1153433600	19	4055
2026-01-19 00:10:16.75	184.18	16.13	-29.5	-30.6	14.2	0.00e+00	0	44	0	1155530752	19	4075
2026-01-19 00:10:17.75	184.23	16.02	-29.7	-31.0	14.0	3.00e-06	0	44	0	1157627904	19	4200
2026-01-19 00:10:18.76	184.27	15.91	-29.6	-31.0	14.0	1.55e-04	0	44	0	1159725056	19	4190
2026-01-19 00:10:19.76	184.32	15.81	-29.7	-31.1	13.9	0.00e+00	0	44	0	1160773632	19	4245
2026-01-19 00:10:20.76	184.36	15.70	-29.7	-31.0	14.0	7.00e-07	0	44	0	1162870784	19	4212
2026-01-19 00:10:21.76	184.41	15.59	-29.9	-31.7	13.6	4.50e-06	0	44	0	1164967936	19	4423
2026-01-19 00:10:22.77	184.45	15.48	-29.8	-31.4	13.7	9.10e-06	0	44	0	1167065088	19	4320
2026-01-19 00:10:23.77	184.50	15.37	-29.9	-31.7	13.6	2.88e-04	0	44	0	1168113664	19	4423
2026-01-19 00:10:24.77	184.54	15.27	-29.9	-31.1	13.5	9.10e-06	0	44	0	1170210816	20	4156
2026-01-19 00:10:25.78	184.59	15.16	-30.0	-31.4	13.3	8.30e-06	0	44	0	1172307968	20	4232
2026-01-19 00:10:26.77	184.63	15.06	-30.1	-31.7	13.2	2.23e-04	0	44	0	1174405120	20	4336
2026-01-19 00:10:27.77	184.67	14.95	-30.1	-31.9	13.0	2.67e-05	0	44	0	1176502272	20	4391
2026-01-19 00:10:28.78	184.72	14.85	-30.3	-32.2	12.7	4.73e-05	0	44	0	1177550848	20	4507
2026-01-19 00:10:29.78	184.76	14.74	-30.4	-32.7	12.4	2.86e-04	0	44	0	1179648000	20	4682
2026-01-19 00:10:30.78	184.80	14.64	-30.4	-32.6	12.5	5.03e-04	0	44	0	1181745152	20	4635
2026-01-19 00:10:31.78	184.85	14.54	-30.7	-32.9	11.9	2.51e-04	0	44	0	1183842304	21	4651
2026-01-19 00:10:32.77	184.89	14.43	-30.7	-33.0	11.9	5.13e-04	0	44	0	1185939456	21	4693
2026-01-19 00:10:33.78	184.93	14.33	-30.8	-33.3	11.6	5.93e-04	0	44	0	1186988032	21	4814
2026-01-19 00:10:34.78	184.97	14.23	-31.0	-33.8	11.3	8.55e-04	0	44	0	1189085184	21	5012
2026-01-19 00:10:35.79	185.01	14.13	-30.9	-33.8	11.2	9.99e-04	0	44	0	1191182336	21	5014
2026-01-19 00:10:36.80	185.05	14.02	-31.1	-33.9	10.9	1.70e-03	0	44	0	1193279488	22	4934
2026-01-19 00:10:37.79	185.09	13.92	-31.3	-34.3	10.6	2.93e-03	0	44	0	1195376640	22	5106
2026-01-19 00:10:38.80	185.14	13.82	-31.2	-34.3	10.6	3.03e-03	0	44	0	1196425216	22	5100
2026-01-19 00:10:39.80	185.18	13.72	-31.4	-34.9	10.2	4.31e-03	0	44	0	1198522368	22	5352
2026-01-19 00:10:40.79	185.22	13.62	-31.4	-34.5	10.1	8.27e-03	0	44	0	1200619520	23	5093
2026-01-19 00:10:41.79	185.26	13.53	-31.4	-34.7	10.2	6.87e-03	0	44	0	1202716672	22	5290
2026-01-19 00:10:42.79	185.29	13.43	-31.5	-34.8	9.8	9.44e-03	0	44	0	1204813824	23	5223
2026-01-19 00:10:43.80	185.33	13.33	-31.6	-34.9	9.7	1.17e-02	0	44	0	1205862400	23	5309
2026-01-19 00:10:44.80	185.37	13.23	-31.6	-35.0	9.6	1.17e-02	0	44	0	1207959552	23	5343
2026-01-19 00:10:45.80	185.41	13.13	-31.7	-35.4	9.3	1.40e-02	0	44	0	1210056704	23	5491
2026-01-19 00:10:46.80	185.45	13.03	-31.6	-35.0	9.6	1.70e-02	0	44	0	1212153856	23	5332
2026-01-19 00:10:47.81	185.49	12.94	-31.4	-34.5	10.0	9.99e-03	0	44	0	1213202432	23	5100
2026-01-19 00:10:48.81	185.53	12.84	-31.5	-35.1	9.9	7.13e-03	0	44	0	1215299584	22	5443
2026-01-19 00:10:49.81	185.57	12.74	-31.4	-34.9	10.0	6.40e-03	0	44	0	1217396736	22	5372
2026-01-19 00:10:50.82	185.60	12.65	-31.4	-34.9	10.1	6.63e-03	0	44	0	1219493888	22	5362
2026-01-19 00:10:51.82	185.64	12.55	-31.5	-34.8	9.7	9.89e-03	0	44	0	1221591040	23	5243
2026-01-19 00:10:52.82	185.68	12.46	-31.7	-35.4	9.3	1.74e-02	0	44	0	1222639616	23	5521
2026-01-19 00:10:53.83	185.72	12.36	-31.7	-35.2	9.3	2.17e-02	0	44	0	1224736768	23	5437
2026-01-19 00:10:54.83	185.75	12.27	-31.6	-34.9	9.6	1.32e-02	0	44	0	1226833920	23	5299
2026-01-19 00:10:55.83	185.79	12.17	-31.3	-35.4	8.9	2.09e-02	0	44	0	1228931072	23	5779
2026-01-19 00:10:56.82	185.82	12.08	-31.7	-35.8	9.2	2.83e-02	0	44	0	1231028224	22	5775
2026-01-19 00:10:57.82	185.86	11.99	-31.6	-35.0	9.5	1.32e-02	0	44	0	1232076800	23	5329
2026-01-19 00:10:58.83	185.90	11.89	-31.9	-36.1	8.6	2.41e-02	0	44	0	1234173952	23	5868
2026-01-19 00:10:59.83	185.93	11.80	-31.7	-35.4	9.2	2.98e-02	0	44	0	1236271104	23	5523
2026-01-19 00:11:00.83	185.97	11.71	-31.5	-34.8	9.7	1.18e-02	0	44	0	1238368256	23	5238
2026-01-19 00:11:01.83	186.00	11.62	-31.4	-34.8	10.0	8.07e-03	0	44	0	1240465408	22	5314
2026-01-19 00:11:02.83	186.04	11.53	-31.4	-34.7	10.1	6.46e-03	0	44	0	1241513984	22	5286
2026-01-19 00:11:03.84	186.07	11.43	-31.3	-34.6	10.2	6.08e-03	0	44	0	1243611136	22	5267
2026-01-19 00:11:04.84	186.11	11.34	-31.5	-35.1	9.8	7.27e-03	0	44	0	1245708288	22	5482
2026-01-19 00:11:05.85	186.14	11.25	-31.4	-34.9	10.1	9.73e-03	0	44	0	1247805440	22	5375
2026-01-19 00:11:06.85	186.18	11.16	-31.2	-34.3	10.4	7.68e-03	0	44	0	1249902592	22	5114
2026-01-19 00:11:07.85	186.21	11.07	-30.9	-33.7	11.1	3.41e-03	0	44	0	1250951168	21	4987
2026-01-19 00:11:08.86	186.25	10.98	-30.8	-33.6	11.2	1.48e-03	0	44	0	1253048320	21	4925
2026-01-19 00:11:09.86	186.28	10.89	-30.8	-33.5	11.3	1.19e-03	0	44	0	1255145472	21	4889
2026-01-19 00:11:10.86	186.31	10.80	-30.5	-32.6	11.9	5.71e-04	0	44	0	1257242624	21	4589
2026-01-19 00:11:11.86	186.35	10.71	-30.7	-33.1	11.6	1.09e-03	0	44	0	1258291200	21	4748
2026-01-19 00:11:12.86	186.38	10.63	-30.7	-33.2	11.4	1.01e-03	0	44	0	1260388352	21	4797
2026-01-19 00:11:13.86	186.41	10.54	-30.7	-33.1	11.5	5.61e-04	0	44	0	1262485504	21	4756
2026-01-19 00:11:14.85	186.45	10.45	-31.0	-33.8	10.8	1.26e-03	0	44	0	1264582656	22	4920
2026-01-19 00:11:15.86	186.48	10.36	-30.8	-33.1	11.2	2.12e-03	0	44	0	1266679808	22	4663
2026-01-19 00:11:16.87	186.51	10.27	-30.5	-32.5	11.9	7.28e-04	0	44	0	1267728384	21	4555
2026-01-19 00:11:17.87	186.54	10.19	-30.4	-32.2	12.1	3.39e-04	0	44	0	1269825536	21	4460
2026-01-19 00:11:18.87	186.58	10.10	-30.2	-32.3	12.4	1.57e-04	0	44	0	1271922688	20	4569
2026-01-19 00:11:19.87	186.61	10.02	-30.3	-32.4	12.3	9.94e-04	0	44	0	1274019840	20	4597
2026-01-19 00:11:20.88	186.64	9.93	-30.3	-32.4	12.3	2.69e-04	0	44	0	1276116992	20	4601
2026-01-19 00:11:21.87	186.67	9.84	-30.5	-33.0	11.9	2.01e-04	0	44	0	1277165568	20	4829
2026-01-19 00:11:22.88	186.70	9.76	-30.5	-33.0	11.8	1.73e-03	0	44	0	1279262720	20	4831
2026-01-19 00:11:23.88	186.73	9.67	-30.5	-32.7	11.7	1.66e-03	0	44	0	1281359872	21	4618
2026-01-19 00:11:24.88	186.77	9.59	-30.7	-33.4	11.2	6.93e-04	0	44	0	1283457024	21	4882
2026-01-19 00:11:25.89	186.80	9.50	-30.6	-33.0	11.5	2.53e-03	0	44	0	1285554176	21	4747
2026-01-19 00:11:26.90	186.83	9.42	-30.7	-33.2	11.4	2.26e-03	0	44	0	1286602752	21	4799
2026-01-19 00:11:27.90	186.86	9.33	-30.8	-33.7	11.0	1.29e-03	0	44	0	1288699904	21	5005
