passes_logs/2026/01/18/R2M6_AANII_01/R2M6_AANII_01__20260118_010300_AQUA_rec.log

#Pass ID: 20260118_010300_AQUA
#Satellite: AQUA
#Configuration: AQUA
#almurnet v.1.7.20240730
#Start time: 2026-01-18 01:03:00

#Version: 2.2.20231116
#Station: R2M6_AANII_01
#Location: 30.233357 lon 59.946436 lat
#TLE: 1 27424U 02022A   26017.29152041  .00000842  00000+0  17841-3 0  9992
#TLE: 2 27424  98.4085 343.7574 0002011  75.4099  30.6811 14.61825797261228

#Time	Az	El	Level	Level2	SNR	BER	BlckErr	Temp	State	Recorded	gain1	gain2
2026-01-18 01:03:00.88	26.00	7.06	-31.4	-37.3	5.2	7.11e-01	0	41	0	0	23	7144
2026-01-18 01:03:01.87	26.07	7.13	-32.3	-40.4	4.9	7.11e-01	0	41	104	0	25	9152
2026-01-18 01:03:02.87	26.14	7.20	-32.2	-39.0	12.7	6.05e-01	0	41	0	0	25	7829
2026-01-18 01:03:03.88	26.21	7.28	-32.3	-39.5	12.2	6.07e-01	0	41	0	1572864	25	8250
2026-01-18 01:03:04.88	26.29	7.36	-32.2	-38.9	12.8	6.04e-01	0	41	0	3670016	25	7792
2026-01-18 01:03:05.88	26.36	7.43	-32.0	-38.3	13.7	6.04e-01	0	41	0	5242880	24	7442
2026-01-18 01:03:06.88	26.44	7.51	-31.7	-37.0	14.7	6.02e-01	0	42	0	7340032	24	6635
2026-01-18 01:03:07.88	26.51	7.58	-31.5	-36.4	15.3	5.98e-01	0	42	0	9437184	24	6296
2026-01-18 01:03:08.88	26.59	7.66	-31.2	-35.8	16.0	5.97e-01	0	41	0	11010048	23	6126
2026-01-18 01:03:09.88	26.66	7.74	-31.1	-35.6	16.2	6.03e-01	0	42	0	13107200	23	6016
2026-01-18 01:03:10.88	26.74	7.81	-30.9	-35.2	16.8	5.99e-01	0	42	0	14680064	22	5913
2026-01-18 01:03:11.88	26.81	7.89	-30.8	-34.9	17.0	6.02e-01	0	42	0	16777216	22	5797
2026-01-18 01:03:12.88	26.89	7.97	-31.0	-35.6	16.6	6.01e-01	0	42	0	18350080	22	6101
2026-01-18 01:03:13.88	26.97	8.05	-30.6	-34.4	17.4	6.01e-01	0	42	0	20447232	22	5572
2026-01-18 01:03:14.89	27.04	8.13	-31.1	-35.7	16.6	6.03e-01	0	42	0	22544384	22	6141
2026-01-18 01:03:15.88	27.12	8.20	-30.7	-34.6	17.3	6.01e-01	0	42	0	24117248	22	5622
2026-01-18 01:03:16.89	27.20	8.28	-30.8	-34.9	17.1	6.01e-01	0	42	0	26214400	22	5794
2026-01-18 01:03:17.89	27.28	8.36	-30.7	-34.5	17.3	6.02e-01	0	42	0	27787264	22	5598
2026-01-18 01:03:18.89	27.36	8.44	-30.8	-34.8	17.1	5.99e-01	0	42	0	29884416	22	5735
2026-01-18 01:03:19.90	27.44	8.52	-30.7	-34.7	17.1	6.02e-01	0	42	0	31457280	22	5709
2026-01-18 01:03:20.90	27.52	8.60	-30.8	-35.0	16.9	6.00e-01	0	42	0	33554432	22	5841
2026-01-18 01:03:21.91	27.60	8.68	-30.6	-34.4	17.2	5.99e-01	0	42	0	35651584	22	5586
2026-01-18 01:03:22.91	27.68	8.76	-30.6	-34.4	17.3	6.00e-01	0	42	0	37224448	22	5566
2026-01-18 01:03:23.91	27.76	8.84	-30.6	-34.4	17.5	6.01e-01	0	42	0	39321600	22	5567
2026-01-18 01:03:24.91	27.85	8.92	-30.8	-34.9	17.2	6.02e-01	0	42	0	40894464	22	5764
2026-01-18 01:03:25.91	27.93	9.00	-30.7	-34.5	17.4	6.02e-01	0	42	0	42991616	22	5590
2026-01-18 01:03:26.91	28.01	9.08	-30.7	-34.6	17.4	6.00e-01	0	42	0	45088768	22	5632
2026-01-18 01:03:27.91	28.09	9.16	-30.7	-34.4	17.6	6.00e-01	0	42	0	46661632	22	5551
2026-01-18 01:03:28.90	28.18	9.24	-30.9	-35.1	17.1	6.01e-01	0	42	0	48758784	22	5831
2026-01-18 01:03:29.91	28.26	9.32	-30.7	-34.5	17.6	5.99e-01	0	42	0	50331648	22	5552
2026-01-18 01:03:30.91	28.35	9.41	-30.5	-34.0	17.8	6.03e-01	0	42	0	52428800	22	5368
2026-01-18 01:03:31.92	28.43	9.49	-30.5	-33.9	17.9	6.00e-01	0	42	0	54001664	22	5327
2026-01-18 01:03:32.92	28.52	9.57	-30.5	-34.3	18.0	6.00e-01	0	42	0	56098816	21	5604
2026-01-18 01:03:33.92	28.61	9.65	-30.5	-34.4	17.9	6.01e-01	0	42	0	58195968	21	5633
2026-01-18 01:03:34.92	28.69	9.74	-30.4	-34.2	18.1	6.02e-01	0	42	0	59768832	21	5546
2026-01-18 01:03:35.93	28.78	9.82	-30.4	-34.1	18.1	5.99e-01	0	42	0	61865984	21	5520
2026-01-18 01:03:36.94	28.87	9.90	-30.6	-34.6	17.8	6.02e-01	0	42	0	63438848	21	5740
2026-01-18 01:03:37.93	28.96	9.99	-30.5	-33.9	18.0	5.99e-01	0	42	0	65536000	22	5305
2026-01-18 01:03:38.94	29.05	10.07	-30.3	-33.9	18.3	6.01e-01	0	42	0	67633152	21	5435
2026-01-18 01:03:39.94	29.14	10.15	-30.4	-34.3	18.1	6.02e-01	0	42	0	69206016	21	5583
2026-01-18 01:03:40.94	29.23	10.24	-30.3	-33.9	18.3	6.01e-01	0	42	0	71303168	21	5422
2026-01-18 01:03:41.95	29.32	10.32	-30.3	-33.9	18.3	6.02e-01	0	42	0	72876032	21	5430
2026-01-18 01:03:42.95	29.41	10.41	-30.3	-33.8	18.4	6.02e-01	0	42	0	74973184	21	5370
2026-01-18 01:03:43.95	29.50	10.49	-30.3	-33.9	18.3	6.01e-01	0	42	0	76546048	21	5428
2026-01-18 01:03:44.95	29.59	10.58	-30.3	-33.8	18.4	6.01e-01	0	42	0	78643200	21	5378
2026-01-18 01:03:45.95	29.68	10.66	-30.3	-33.9	18.4	6.01e-01	0	43	0	80740352	21	5412
2026-01-18 01:03:46.95	29.78	10.75	-30.4	-34.1	18.2	6.02e-01	0	42	0	82313216	21	5501
2026-01-18 01:03:47.95	29.87	10.84	-30.3	-33.8	18.4	6.00e-01	0	42	0	84410368	21	5390
2026-01-18 01:03:48.95	29.97	10.92	-30.2	-33.5	18.6	6.01e-01	0	42	0	85983232	21	5257
2026-01-18 01:03:49.95	30.06	11.01	-30.2	-33.6	18.5	6.00e-01	0	42	0	88080384	21	5296
2026-01-18 01:03:50.95	30.16	11.10	-30.2	-33.5	18.6	6.01e-01	0	42	0	90177536	21	5260
2026-01-18 01:03:51.96	30.25	11.19	-30.3	-33.8	18.4	6.02e-01	0	42	0	91750400	21	5376
2026-01-18 01:03:52.97	30.35	11.27	-30.2	-33.5	18.6	6.00e-01	0	42	0	93847552	21	5246
2026-01-18 01:03:53.97	30.45	11.36	-30.2	-33.6	18.6	6.01e-01	0	42	0	95420416	21	5285
2026-01-18 01:03:54.98	30.55	11.45	-30.2	-33.6	18.4	6.01e-01	0	42	0	97517568	21	5287
2026-01-18 01:03:55.98	30.65	11.54	-30.3	-33.9	18.3	6.02e-01	0	43	0	99614720	21	5407
2026-01-18 01:03:56.99	30.75	11.63	-30.2	-33.6	18.5	6.01e-01	0	43	0	101187584	21	5282
2026-01-18 01:03:57.99	30.84	11.72	-30.2	-33.4	18.6	6.03e-01	0	42	0	103284736	21	5202
2026-01-18 01:03:58.99	30.95	11.81	-30.3	-33.8	18.5	6.03e-01	0	43	0	104857600	21	5370
2026-01-18 01:04:00.00	31.05	11.90	-30.1	-33.2	18.8	5.99e-01	0	43	0	106954752	21	5159
2026-01-18 01:04:01.00	31.15	11.99	-30.1	-33.3	18.8	6.01e-01	0	43	0	108527616	21	5179
2026-01-18 01:04:02.00	31.25	12.08	-30.3	-33.7	18.5	5.98e-01	0	42	0	110624768	21	5349
2026-01-18 01:04:03.01	31.36	12.17	-30.1	-33.6	18.9	6.02e-01	0	43	0	112721920	20	5428
2026-01-18 01:04:04.01	31.46	12.26	-30.0	-33.5	19.0	6.00e-01	0	43	0	114294784	20	5362
2026-01-18 01:04:05.02	31.56	12.35	-30.1	-33.6	18.9	6.01e-01	0	43	0	116391936	20	5424
2026-01-18 01:04:06.02	31.67	12.44	-30.2	-33.4	18.8	6.00e-01	0	43	0	117964800	21	5203
2026-01-18 01:04:07.02	31.77	12.53	-30.3	-33.7	18.6	6.01e-01	0	43	0	120061952	21	5313
2026-01-18 01:04:08.02	31.88	12.63	-30.2	-33.4	18.8	6.00e-01	0	43	0	122159104	21	5218
2026-01-18 01:04:09.02	31.99	12.72	-30.2	-33.5	18.7	6.04e-01	0	43	0	123731968	21	5263
2026-01-18 01:04:10.02	32.10	12.81	-30.2	-33.6	18.7	6.01e-01	0	43	0	125829120	21	5280
2026-01-18 01:04:11.03	32.20	12.91	-30.2	-33.5	18.7	6.01e-01	0	43	0	127401984	21	5252
2026-01-18 01:04:12.02	32.31	13.00	-30.4	-33.8	18.5	6.01e-01	0	43	0	129499136	21	5382
2026-01-18 01:04:13.03	32.42	13.09	-30.2	-33.4	18.8	6.00e-01	0	43	0	131596288	21	5215
2026-01-18 01:04:14.03	32.53	13.19	-30.0	-33.0	19.0	6.01e-01	0	43	0	133169152	21	5067
2026-01-18 01:04:15.03	32.64	13.28	-30.1	-33.6	19.0	6.02e-01	0	43	0	135266304	20	5403
2026-01-18 01:04:16.03	32.76	13.38	-30.1	-33.6	19.0	5.99e-01	0	43	0	136839168	20	5387
2026-01-18 01:04:17.03	32.87	13.47	-30.1	-33.2	18.9	5.99e-01	0	43	0	138936320	21	5134
2026-01-18 01:04:18.04	32.98	13.57	-30.4	-33.9	18.5	6.00e-01	0	43	0	140509184	21	5411
2026-01-18 01:04:19.04	33.10	13.66	-30.1	-33.1	19.0	6.01e-01	0	43	0	142606336	21	5102
2026-01-18 01:04:20.05	33.21	13.76	-30.3	-33.7	18.6	6.01e-01	0	43	0	144703488	21	5340
2026-01-18 01:04:21.06	33.33	13.86	-30.1	-33.1	19.0	5.98e-01	0	43	0	146276352	21	5107
2026-01-18 01:04:22.06	33.45	13.95	-30.0	-33.3	19.2	6.00e-01	0	43	0	148373504	20	5291
2026-01-18 01:04:23.07	33.57	14.05	-30.1	-33.5	19.1	6.01e-01	0	43	0	149946368	20	5374
2026-01-18 01:04:24.06	33.68	14.15	-30.3	-33.7	18.7	6.00e-01	0	43	0	152043520	21	5327
2026-01-18 01:04:25.07	33.80	14.24	-30.7	-34.2	18.1	5.98e-01	0	43	0	153616384	22	5389
2026-01-18 01:04:26.07	33.92	14.34	-30.4	-33.5	18.5	6.01e-01	0	43	0	155713536	22	5131
2026-01-18 01:04:27.07	34.04	14.44	-30.3	-33.6	18.8	6.00e-01	0	43	0	157810688	21	5273
2026-01-18 01:04:28.07	34.16	14.54	-30.2	-33.4	18.9	6.00e-01	0	43	0	159383552	21	5186
2026-01-18 01:04:29.07	34.29	14.64	-30.3	-33.5	18.8	6.04e-01	0	43	0	161480704	21	5236
2026-01-18 01:04:30.07	34.41	14.74	-30.2	-33.4	18.8	6.04e-01	0	43	0	163053568	21	5216
2026-01-18 01:04:31.07	34.53	14.84	-30.2	-33.4	18.8	5.98e-01	0	43	0	165150720	21	5216
2026-01-18 01:04:32.08	34.66	14.94	-30.3	-33.5	18.8	6.04e-01	0	43	0	167247872	21	5244
2026-01-18 01:04:33.07	34.78	15.04	-30.1	-33.0	19.1	5.97e-01	0	43	0	168820736	21	5050
2026-01-18 01:04:34.07	34.91	15.14	-29.9	-33.1	19.4	6.02e-01	0	43	0	170917888	20	5192
2026-01-18 01:04:35.07	35.04	15.24	-30.0	-33.4	19.1	6.03e-01	0	43	0	172490752	20	5330
2026-01-18 01:04:36.08	35.17	15.34	-29.9	-33.1	19.4	6.00e-01	0	43	0	174587904	20	5191
2026-01-18 01:04:37.07	35.29	15.44	-29.8	-32.8	19.6	6.01e-01	0	43	0	176160768	20	5081
2026-01-18 01:04:38.07	35.42	15.54	-29.8	-32.7	19.6	6.01e-01	0	43	0	178257920	20	5051
2026-01-18 01:04:39.07	35.56	15.64	-29.8	-32.9	19.6	5.98e-01	0	43	0	180355072	20	5107
2026-01-18 01:04:40.07	35.69	15.75	-29.9	-33.1	19.4	6.02e-01	0	43	0	181927936	20	5179
2026-01-18 01:04:41.08	35.82	15.85	-29.9	-32.9	19.5	6.02e-01	0	43	0	184025088	20	5132
2026-01-18 01:04:42.09	35.96	15.95	-29.7	-32.6	19.7	6.01e-01	0	43	0	185597952	20	5024
2026-01-18 01:04:43.09	36.09	16.06	-29.8	-32.7	19.7	6.00e-01	0	43	0	187695104	20	5054
2026-01-18 01:04:44.09	36.23	16.16	-29.7	-32.5	19.8	6.02e-01	0	43	0	189792256	20	4993
2026-01-18 01:04:45.10	36.36	16.27	-29.7	-32.5	19.8	6.02e-01	0	43	0	191365120	20	4976
2026-01-18 01:04:46.10	36.50	16.37	-29.7	-32.6	19.7	6.00e-01	0	43	0	193462272	20	5022
2026-01-18 01:04:47.11	36.64	16.48	-29.9	-33.0	19.5	6.01e-01	0	43	0	195035136	20	5138
2026-01-18 01:04:48.11	36.78	16.58	-29.8	-32.8	19.6	6.00e-01	0	43	0	197132288	20	5070
2026-01-18 01:04:49.11	36.92	16.69	-29.9	-32.9	19.6	6.02e-01	0	43	0	198705152	20	5128
2026-01-18 01:04:50.11	37.06	16.79	-29.8	-32.9	19.6	5.98e-01	0	43	0	200802304	20	5111
2026-01-18 01:04:51.11	37.21	16.90	-29.9	-33.1	19.4	6.00e-01	0	43	0	202899456	20	5203
2026-01-18 01:04:52.11	37.35	17.01	-29.9	-33.1	19.5	6.00e-01	0	43	0	204472320	20	5186
2026-01-18 01:04:53.12	37.50	17.12	-30.0	-33.2	19.4	5.99e-01	0	43	0	206569472	20	5219
2026-01-18 01:04:54.12	37.64	17.22	-29.9	-32.9	19.6	6.00e-01	0	43	0	208142336	20	5113
2026-01-18 01:04:55.12	37.79	17.33	-29.7	-32.6	19.8	5.98e-01	0	43	0	210239488	20	5008
2026-01-18 01:04:56.13	37.94	17.44	-29.8	-32.7	19.7	6.02e-01	0	43	0	212336640	20	5039
2026-01-18 01:04:57.13	38.09	17.55	-29.7	-32.5	19.8	5.99e-01	0	43	0	213909504	20	4962
2026-01-18 01:04:58.14	38.24	17.66	-29.8	-32.8	19.7	6.03e-01	0	43	0	216006656	20	5073
2026-01-18 01:04:59.14	38.39	17.77	-29.8	-32.8	19.7	6.01e-01	0	43	0	217579520	20	5063
2026-01-18 01:05:00.14	38.54	17.88	-29.9	-33.0	19.6	6.01e-01	0	43	0	219676672	20	5151
2026-01-18 01:05:01.15	38.70	17.99	-29.7	-32.6	19.8	6.01e-01	0	43	0	221773824	20	5010
2026-01-18 01:05:02.16	38.86	18.10	-29.7	-32.4	20.0	6.01e-01	0	43	0	223346688	20	4926
2026-01-18 01:05:03.16	39.01	18.21	-29.7	-32.5	19.9	6.03e-01	0	43	0	225443840	20	4977
2026-01-18 01:05:04.16	39.17	18.32	-29.7	-32.6	19.8	6.01e-01	0	43	0	227016704	20	5001
2026-01-18 01:05:05.16	39.33	18.43	-30.0	-33.1	19.8	6.01e-01	0	43	0	229113856	20	5146
2026-01-18 01:05:06.17	39.49	18.55	-30.0	-33.1	19.7	5.99e-01	0	43	0	230686720	20	5166
2026-01-18 01:05:07.17	39.65	18.66	-30.0	-33.3	19.6	6.00e-01	0	43	0	232783872	20	5236
2026-01-18 01:05:08.18	39.81	18.77	-30.3	-33.4	19.2	6.01e-01	0	43	0	234881024	21	5151
2026-01-18 01:05:09.18	39.98	18.88	-30.4	-33.8	18.9	6.02e-01	0	43	0	236453888	21	5319
2026-01-18 01:05:10.17	40.14	19.00	-30.2	-33.2	19.3	6.02e-01	0	43	0	238551040	21	5100
2026-01-18 01:05:11.16	40.30	19.11	-30.0	-32.8	19.7	6.00e-01	0	43	0	240123904	21	4925
2026-01-18 01:05:12.16	40.47	19.22	-30.0	-32.6	19.7	6.03e-01	0	43	0	242221056	21	4863
2026-01-18 01:05:13.16	40.64	19.34	-29.9	-32.3	19.9	6.00e-01	0	43	0	243793920	21	4777
2026-01-18 01:05:14.17	40.81	19.45	-29.9	-32.4	19.9	6.01e-01	0	43	0	245891072	21	4795
2026-01-18 01:05:15.17	40.98	19.57	-29.9	-32.4	19.8	6.00e-01	0	43	0	247988224	21	4809
2026-01-18 01:05:16.18	41.15	19.68	-30.0	-32.7	19.7	6.01e-01	0	43	0	249561088	21	4908
2026-01-18 01:05:17.18	41.33	19.80	-30.1	-32.9	19.5	6.00e-01	0	43	0	251658240	21	4967
2026-01-18 01:05:18.19	41.50	19.92	-29.9	-32.9	19.9	5.99e-01	0	43	0	253755392	20	5075
2026-01-18 01:05:19.19	41.68	20.03	-30.1	-32.8	19.6	6.02e-01	0	43	0	255328256	21	4948
2026-01-18 01:05:20.19	41.86	20.15	-30.0	-32.6	19.8	6.02e-01	0	43	0	257425408	21	4859
2026-01-18 01:05:21.20	42.04	20.27	-29.9	-32.9	19.9	6.01e-01	0	43	0	258998272	20	5076
2026-01-18 01:05:22.20	42.22	20.39	-30.1	-33.3	19.7	6.01e-01	0	43	0	261095424	20	5218
2026-01-18 01:05:23.20	42.40	20.50	-30.0	-33.0	19.8	6.01e-01	0	43	0	262668288	20	5117
2026-01-18 01:05:24.20	42.58	20.62	-30.0	-33.1	19.8	6.03e-01	0	43	0	264765440	20	5135
2026-01-18 01:05:25.20	42.77	20.74	-30.0	-33.0	19.8	6.02e-01	0	43	0	266862592	20	5126
2026-01-18 01:05:26.21	42.96	20.86	-30.1	-33.3	19.7	6.00e-01	0	43	0	268435456	20	5209
2026-01-18 01:05:27.22	43.15	20.98	-30.0	-33.1	19.8	6.01e-01	0	43	0	270532608	20	5139
2026-01-18 01:05:28.22	43.34	21.10	-30.0	-33.1	19.8	6.01e-01	0	43	0	272105472	20	5152
2026-01-18 01:05:29.22	43.53	21.22	-30.0	-33.2	19.7	6.00e-01	0	43	0	274202624	20	5182
2026-01-18 01:05:30.23	43.72	21.34	-29.9	-32.9	19.9	6.03e-01	0	43	0	276299776	20	5091
2026-01-18 01:05:31.23	43.92	21.46	-29.9	-32.7	20.0	6.00e-01	0	43	0	277872640	20	5014
2026-01-18 01:05:32.23	44.11	21.58	-29.9	-32.8	20.0	5.99e-01	0	43	0	279969792	20	5026
2026-01-18 01:05:33.23	44.31	21.70	-29.9	-32.8	20.0	6.01e-01	0	43	0	281542656	20	5035
2026-01-18 01:05:34.24	44.51	21.82	-30.0	-33.0	19.8	6.02e-01	0	43	0	283639808	20	5105
2026-01-18 01:05:35.24	44.71	21.95	-29.9	-32.8	20.0	6.00e-01	0	43	0	285736960	20	5034
2026-01-18 01:05:36.25	44.91	22.07	-29.9	-32.8	20.0	6.02e-01	0	43	0	287309824	20	5050
2026-01-18 01:05:37.24	45.11	22.19	-29.8	-32.7	20.1	6.02e-01	0	43	0	289406976	20	4980
2026-01-18 01:05:38.24	45.32	22.31	-29.9	-32.8	20.0	6.02e-01	0	43	0	290979840	20	5047
2026-01-18 01:05:39.24	45.53	22.43	-29.9	-33.0	19.9	6.00e-01	0	43	0	293076992	20	5092
2026-01-18 01:05:40.25	45.74	22.56	-30.0	-33.0	19.9	6.02e-01	0	43	0	294649856	20	5121
2026-01-18 01:05:41.25	45.95	22.68	-29.9	-32.9	20.0	5.99e-01	0	43	0	296747008	20	5054
2026-01-18 01:05:42.26	46.16	22.81	-29.9	-32.9	20.0	6.01e-01	0	43	0	298844160	20	5048
2026-01-18 01:05:43.26	46.37	22.93	-29.9	-32.9	20.0	6.00e-01	0	43	0	300417024	20	5070
2026-01-18 01:05:44.27	46.59	23.06	-30.0	-33.1	19.8	6.02e-01	0	43	0	302514176	20	5129
2026-01-18 01:05:45.27	46.81	23.18	-30.0	-33.1	19.8	5.98e-01	0	43	0	304087040	20	5126
2026-01-18 01:05:46.27	47.03	23.30	-30.0	-33.0	19.9	6.02e-01	0	43	0	306184192	20	5117
2026-01-18 01:05:47.28	47.25	23.43	-29.9	-32.9	20.0	6.00e-01	0	43	0	308281344	20	5058
2026-01-18 01:05:48.28	47.47	23.56	-30.1	-33.2	19.8	6.01e-01	0	43	0	309854208	20	5179
2026-01-18 01:05:49.28	47.70	23.68	-30.3	-33.2	19.5	5.99e-01	0	43	0	311951360	21	5072
2026-01-18 01:05:50.29	47.93	23.81	-30.4	-33.5	19.4	6.01e-01	0	43	0	313524224	21	5165
2026-01-18 01:05:51.29	48.16	23.93	-30.1	-32.7	19.8	6.03e-01	0	43	0	315621376	21	4877
2026-01-18 01:05:52.29	48.39	24.06	-29.9	-32.4	20.0	6.01e-01	0	43	0	317718528	21	4787
2026-01-18 01:05:53.30	48.62	24.19	-30.0	-32.6	20.0	6.03e-01	0	43	0	319291392	21	4838
2026-01-18 01:05:54.30	48.85	24.31	-30.1	-32.8	19.8	5.99e-01	0	43	0	321388544	21	4909
2026-01-18 01:05:55.30	49.09	24.44	-30.1	-32.7	19.9	6.00e-01	0	43	0	322961408	21	4885
2026-01-18 01:05:56.29	49.33	24.57	-30.1	-32.8	19.9	6.02e-01	0	43	0	325058560	21	4902
2026-01-18 01:05:57.30	49.57	24.69	-30.2	-32.9	19.7	6.01e-01	0	43	0	326631424	21	4960
2026-01-18 01:05:58.30	49.81	24.82	-30.1	-32.9	19.8	6.03e-01	0	43	0	328728576	21	4958
2026-01-18 01:05:59.30	50.05	24.95	-30.3	-33.3	19.5	6.01e-01	0	43	0	330825728	21	5074
2026-01-18 01:06:00.30	50.30	25.08	-30.1	-32.8	19.8	6.01e-01	0	43	0	332398592	21	4907
2026-01-18 01:06:01.30	50.55	25.20	-30.1	-32.7	19.8	6.00e-01	0	43	0	334495744	21	4896
2026-01-18 01:06:02.31	50.80	25.33	-30.2	-33.0	19.7	6.01e-01	0	43	0	336068608	21	5000
2026-01-18 01:06:03.31	51.05	25.46	-30.2	-33.1	19.7	6.00e-01	0	43	0	338165760	21	5023
2026-01-18 01:06:04.31	51.30	25.59	-30.3	-33.2	19.6	6.03e-01	0	44	0	340262912	21	5070
2026-01-18 01:06:05.31	51.56	25.72	-30.1	-32.7	19.9	6.02e-01	0	43	0	341835776	21	4870
2026-01-18 01:06:06.32	51.82	25.84	-30.1	-32.7	19.9	6.01e-01	0	43	0	343932928	21	4874
2026-01-18 01:06:07.32	52.08	25.97	-30.1	-32.9	19.8	6.02e-01	0	43	0	345505792	21	4931
2026-01-18 01:06:08.32	52.35	26.10	-30.1	-32.9	19.8	6.01e-01	0	43	0	347602944	21	4930
2026-01-18 01:06:09.33	52.61	26.23	-30.1	-32.7	20.0	5.98e-01	0	43	0	349175808	21	4860
2026-01-18 01:06:10.33	52.88	26.36	-30.1	-32.7	19.9	6.02e-01	0	43	0	351272960	21	4891
2026-01-18 01:06:11.33	53.15	26.49	-30.2	-33.0	19.7	6.03e-01	0	43	0	353370112	21	4967
2026-01-18 01:06:12.33	53.42	26.62	-30.2	-33.0	19.7	6.00e-01	0	43	0	354942976	21	4960
2026-01-18 01:06:13.33	53.69	26.74	-30.3	-33.4	19.5	6.03e-01	0	43	0	357040128	21	5109
2026-01-18 01:06:14.33	53.97	26.87	-30.2	-33.1	19.8	6.02e-01	0	43	0	358612992	21	4994
2026-01-18 01:06:15.33	54.25	27.00	-30.1	-32.7	20.0	6.03e-01	0	43	0	360710144	21	4865
2026-01-18 01:06:16.34	54.53	27.13	-30.3	-33.3	19.6	6.01e-01	0	43	0	362807296	21	5080
2026-01-18 01:06:17.33	54.81	27.26	-30.3	-33.4	19.5	6.02e-01	0	43	0	364380160	21	5126
2026-01-18 01:06:18.34	55.10	27.39	-30.3	-33.4	19.6	6.03e-01	0	44	0	366477312	21	5104
2026-01-18 01:06:19.34	55.39	27.51	-30.4	-33.5	19.4	6.01e-01	0	43	0	368050176	21	5164
2026-01-18 01:06:20.35	55.68	27.64	-30.5	-33.7	19.3	6.00e-01	0	43	0	370147328	21	5229
2026-01-18 01:06:21.35	55.97	27.77	-30.4	-33.6	19.5	6.00e-01	0	43	0	371720192	21	5186
2026-01-18 01:06:22.36	56.27	27.90	-30.6	-33.6	19.1	6.02e-01	0	43	0	373817344	22	5091
2026-01-18 01:06:23.36	56.57	28.03	-30.5	-33.2	19.4	6.01e-01	0	43	0	375914496	22	4926
2026-01-18 01:06:24.37	56.87	28.16	-29.9	-31.8	20.2	6.02e-01	0	43	0	377487360	22	4480
2026-01-18 01:06:25.37	57.17	28.28	-30.0	-32.0	20.1	6.02e-01	0	43	0	379584512	22	4543
2026-01-18 01:06:26.37	57.48	28.41	-30.2	-32.5	19.8	6.02e-01	0	43	0	381157376	22	4685
2026-01-18 01:06:27.37	57.78	28.54	-30.2	-32.5	19.9	6.02e-01	0	43	0	383254528	22	4680
2026-01-18 01:06:28.38	58.10	28.67	-30.2	-32.4	19.9	6.01e-01	0	43	0	385351680	22	4663
2026-01-18 01:06:29.38	58.41	28.79	-29.9	-31.8	20.3	6.02e-01	0	43	0	386924544	22	4466
2026-01-18 01:06:30.39	58.73	28.92	-30.1	-32.2	20.0	5.98e-01	0	44	0	389021696	22	4595
2026-01-18 01:06:31.39	59.04	29.05	-30.1	-32.3	20.0	6.00e-01	0	44	0	390594560	22	4613
2026-01-18 01:06:32.40	59.37	29.17	-30.0	-32.5	20.1	6.01e-01	0	43	0	392691712	21	4802
2026-01-18 01:06:33.40	59.69	29.30	-30.0	-32.9	20.2	6.02e-01	0	43	0	394264576	20	5054
2026-01-18 01:06:34.40	60.01	29.42	-29.9	-32.8	20.3	6.01e-01	0	43	0	396361728	20	5019
2026-01-18 01:06:35.40	60.34	29.55	-30.0	-32.9	20.2	6.02e-01	0	43	0	398458880	20	5048
2026-01-18 01:06:36.40	60.67	29.67	-30.1	-33.2	20.0	6.01e-01	0	43	0	400031744	20	5144
2026-01-18 01:06:37.40	61.00	29.79	-30.0	-33.0	20.1	6.02e-01	0	43	0	402128896	20	5079
2026-01-18 01:06:38.41	61.34	29.92	-29.9	-32.7	20.3	6.01e-01	0	43	0	403701760	20	4994
2026-01-18 01:06:39.41	61.68	30.04	-30.1	-33.1	20.0	6.03e-01	0	43	0	405798912	20	5129
2026-01-18 01:06:40.42	62.02	30.16	-30.2	-32.9	19.9	5.99e-01	0	44	0	407896064	21	4930
2026-01-18 01:06:41.42	62.37	30.29	-30.1	-32.7	20.0	6.00e-01	0	43	0	409468928	21	4878
2026-01-18 01:06:42.42	62.71	30.41	-30.1	-32.6	20.1	6.00e-01	0	44	0	411566080	21	4842
2026-01-18 01:06:43.43	63.07	30.53	-30.3	-33.3	19.7	5.98e-01	0	44	0	413138944	21	5063
2026-01-18 01:06:44.43	63.42	30.65	-30.5	-33.8	19.3	5.99e-01	0	43	0	415236096	21	5271
2026-01-18 01:06:45.44	63.77	30.77	-30.2	-32.9	19.9	6.00e-01	0	43	0	417333248	21	4931
2026-01-18 01:06:46.44	64.13	30.89	-29.8	-32.1	20.4	6.00e-01	0	44	0	418906112	21	4664
2026-01-18 01:06:47.44	64.49	31.01	-29.9	-32.8	20.2	6.02e-01	0	44	0	421003264	20	5024
2026-01-18 01:06:48.44	64.85	31.12	-30.1	-33.2	20.0	6.02e-01	0	43	0	422576128	20	5162
2026-01-18 01:06:49.44	65.22	31.24	-30.1	-33.2	20.0	5.98e-01	0	43	0	424673280	20	5157
2026-01-18 01:06:50.45	65.59	31.36	-30.3	-33.4	19.7	6.02e-01	0	43	0	426246144	21	5108
2026-01-18 01:06:51.44	65.95	31.47	-30.3	-33.2	19.8	6.04e-01	0	44	0	428343296	21	5023
2026-01-18 01:06:52.45	66.33	31.59	-30.1	-32.7	20.1	6.01e-01	0	44	0	430440448	21	4854
2026-01-18 01:06:53.45	66.71	31.70	-30.2	-33.0	19.9	6.03e-01	0	44	0	432013312	21	4952
2026-01-18 01:06:54.45	67.08	31.81	-30.1	-32.8	20.0	5.99e-01	0	44	0	434110464	21	4907
2026-01-18 01:06:55.45	67.46	31.93	-30.1	-32.9	20.0	6.00e-01	0	43	0	435683328	21	4920
2026-01-18 01:06:56.45	67.85	32.04	-30.1	-32.6	20.1	6.00e-01	0	43	0	437780480	21	4835
2026-01-18 01:06:57.45	68.23	32.15	-30.0	-32.5	20.2	5.99e-01	0	44	0	439877632	21	4801
2026-01-18 01:06:58.46	68.63	32.26	-30.0	-32.5	20.2	6.01e-01	0	43	0	441450496	21	4803
2026-01-18 01:06:59.46	69.02	32.36	-30.2	-32.9	20.0	6.02e-01	0	44	0	443547648	21	4927
2026-01-18 01:07:00.47	69.41	32.47	-30.1	-32.8	20.0	5.99e-01	0	44	0	445120512	21	4892
2026-01-18 01:07:01.47	69.81	32.58	-29.9	-32.3	20.3	6.03e-01	0	44	0	447217664	21	4721
2026-01-18 01:07:02.48	70.21	32.69	-29.9	-32.2	20.3	6.01e-01	0	43	0	449314816	21	4681
2026-01-18 01:07:03.48	70.62	32.79	-29.8	-32.0	20.4	6.02e-01	0	43	0	450887680	21	4640
2026-01-18 01:07:04.48	71.02	32.89	-30.0	-32.4	20.3	6.02e-01	0	44	0	452984832	21	4774
2026-01-18 01:07:05.48	71.43	32.99	-30.0	-32.9	20.3	6.00e-01	0	43	0	454557696	20	5057
2026-01-18 01:07:06.47	71.83	33.09	-29.9	-32.6	20.5	6.01e-01	0	44	0	456654848	20	4940
2026-01-18 01:07:07.48	72.25	33.19	-29.9	-32.7	20.4	6.00e-01	0	43	0	458227712	20	4963
2026-01-18 01:07:08.48	72.67	33.29	-29.8	-32.5	20.5	6.00e-01	0	44	0	460324864	20	4907
2026-01-18 01:07:09.48	73.08	33.39	-30.0	-32.9	20.3	6.02e-01	0	44	0	462422016	20	5029
2026-01-18 01:07:10.47	73.50	33.48	-29.9	-32.6	20.4	6.01e-01	0	44	0	463994880	20	4946
2026-01-18 01:07:11.47	73.92	33.58	-30.0	-32.9	20.3	6.01e-01	0	43	0	466092032	20	5034
2026-01-18 01:07:12.47	74.35	33.67	-30.1	-32.7	20.1	6.00e-01	0	44	0	467664896	21	4852
2026-01-18 01:07:13.48	74.78	33.76	-29.8	-31.9	20.5	6.01e-01	0	43	0	469762048	21	4594
2026-01-18 01:07:14.48	75.21	33.85	-29.7	-31.8	20.7	6.03e-01	0	44	0	471334912	21	4570
2026-01-18 01:07:15.48	75.64	33.94	-30.0	-32.5	20.3	5.99e-01	0	44	0	473432064	21	4784
2026-01-18 01:07:16.49	76.08	34.03	-30.0	-32.4	20.2	6.04e-01	0	44	0	475529216	21	4764
2026-01-18 01:07:17.49	76.52	34.11	-29.8	-32.0	20.5	6.01e-01	0	43	0	477102080	21	4619
2026-01-18 01:07:18.49	76.96	34.19	-29.8	-32.0	20.6	6.02e-01	0	43	0	479199232	21	4625
2026-01-18 01:07:19.49	77.40	34.28	-29.9	-32.3	20.4	6.00e-01	0	44	0	480772096	21	4730
2026-01-18 01:07:20.49	77.84	34.36	-29.8	-32.0	20.5	6.02e-01	0	44	0	482869248	21	4632
2026-01-18 01:07:21.49	78.29	34.44	-29.9	-32.7	20.4	6.02e-01	0	43	0	484966400	20	4964
2026-01-18 01:07:22.49	78.73	34.51	-29.9	-32.7	20.4	6.00e-01	0	44	0	486539264	20	4963
2026-01-18 01:07:23.50	79.19	34.59	-29.7	-32.2	20.7	6.02e-01	0	43	0	488636416	20	4790
2026-01-18 01:07:24.50	79.64	34.66	-29.9	-32.7	20.4	6.01e-01	0	43	0	490209280	20	4956
2026-01-18 01:07:25.50	80.10	34.74	-30.1	-32.7	20.1	6.02e-01	0	44	0	492306432	21	4846
2026-01-18 01:07:26.51	80.56	34.81	-30.0	-33.0	20.2	6.03e-01	0	44	0	493879296	20	5060
2026-01-18 01:07:27.51	81.02	34.87	-30.0	-33.0	20.2	6.01e-01	0	43	0	495976448	20	5094
2026-01-18 01:07:28.51	81.48	34.94	-30.1	-32.7	20.0	6.01e-01	0	44	0	498073600	21	4872
2026-01-18 01:07:29.51	81.94	35.01	-30.1	-32.7	20.1	6.02e-01	0	44	0	499646464	21	4859
2026-01-18 01:07:30.52	82.41	35.07	-30.2	-32.9	20.0	6.01e-01	0	44	0	501743616	21	4912
2026-01-18 01:07:31.52	82.87	35.13	-30.1	-32.7	20.1	6.00e-01	0	43	0	503316480	21	4859
2026-01-18 01:07:32.53	83.35	35.19	-30.0	-32.5	20.3	6.01e-01	0	43	0	505413632	21	4801
2026-01-18 01:07:33.53	83.82	35.25	-30.2	-33.0	19.9	6.03e-01	0	43	0	507510784	21	4938
2026-01-18 01:07:34.53	84.29	35.30	-30.3	-33.1	19.8	6.02e-01	0	43	0	509083648	21	4999
2026-01-18 01:07:35.53	84.76	35.35	-30.1	-32.8	20.0	6.00e-01	0	44	0	511180800	21	4877
2026-01-18 01:07:36.54	85.24	35.41	-30.0	-32.5	20.2	6.03e-01	0	43	0	512753664	21	4791
2026-01-18 01:07:37.54	85.72	35.46	-29.9	-32.1	20.5	6.02e-01	0	44	0	514850816	21	4662
2026-01-18 01:07:38.54	86.19	35.50	-30.0	-33.0	20.2	6.02e-01	0	43	0	516423680	20	5081
2026-01-18 01:07:39.54	86.67	35.55	-30.0	-32.8	20.3	6.01e-01	0	43	0	518520832	20	5018
2026-01-18 01:07:40.55	87.16	35.59	-29.9	-32.8	20.3	5.98e-01	0	44	0	520617984	20	5007
2026-01-18 01:07:41.55	87.64	35.63	-29.9	-32.7	20.3	6.01e-01	0	44	0	522190848	20	4964
2026-01-18 01:07:42.55	88.12	35.67	-29.9	-32.6	20.5	5.99e-01	0	44	0	524288000	20	4925
2026-01-18 01:07:43.55	88.60	35.71	-29.9	-32.7	20.5	6.02e-01	0	43	0	525860864	20	4964
2026-01-18 01:07:44.56	89.09	35.74	-30.0	-32.8	20.3	5.99e-01	0	44	0	527958016	20	5021
2026-01-18 01:07:45.56	89.58	35.77	-29.8	-32.5	20.5	6.01e-01	0	43	0	530055168	20	4911
2026-01-18 01:07:46.56	90.07	35.80	-29.8	-32.4	20.6	6.00e-01	0	44	0	531628032	20	4854
2026-01-18 01:07:47.56	90.55	35.83	-29.9	-32.7	20.4	6.00e-01	0	43	0	533725184	20	4966
2026-01-18 01:07:48.58	91.05	35.85	-29.9	-32.8	20.4	6.03e-01	0	43	0	535298048	20	5000
2026-01-18 01:07:49.58	91.54	35.88	-29.8	-32.3	20.7	6.01e-01	0	44	0	537395200	20	4837
2026-01-18 01:07:50.58	92.03	35.90	-29.9	-32.7	20.4	5.99e-01	0	44	0	539492352	20	4954
2026-01-18 01:07:51.58	92.52	35.92	-29.8	-32.5	20.5	6.03e-01	0	43	0	541065216	20	4900
2026-01-18 01:07:52.58	93.01	35.93	-29.8	-32.6	20.5	5.99e-01	0	43	0	543162368	20	4921
2026-01-18 01:07:53.59	93.51	35.95	-29.9	-32.7	20.4	6.02e-01	0	44	0	544735232	20	4975
2026-01-18 01:07:54.59	94.00	35.96	-29.9	-32.6	20.4	6.02e-01	0	44	0	546832384	20	4950
2026-01-18 01:07:55.60	94.50	35.97	-29.8	-32.3	20.7	6.03e-01	0	43	0	548405248	20	4840
2026-01-18 01:07:56.60	94.99	35.97	-30.0	-32.9	20.3	5.98e-01	0	43	0	550502400	20	5054
2026-01-18 01:07:57.60	95.48	35.98	-30.1	-32.6	20.2	6.02e-01	0	44	0	552599552	21	4836
2026-01-18 01:07:58.61	95.98	35.98	-29.9	-32.3	20.3	5.99e-01	0	44	0	554172416	21	4714
2026-01-18 01:07:59.62	96.48	35.98	-29.7	-31.8	20.6	6.01e-01	0	43	0	556269568	21	4550
2026-01-18 01:08:00.62	96.97	35.98	-29.8	-31.9	20.6	5.99e-01	0	43	0	558366720	21	4596
2026-01-18 01:08:01.62	97.46	35.98	-29.9	-32.1	20.6	6.03e-01	0	44	0	559939584	21	4651
2026-01-18 01:08:02.63	97.96	35.97	-29.9	-32.1	20.5	6.01e-01	0	43	0	562036736	21	4654
2026-01-18 01:08:03.63	98.45	35.96	-29.8	-31.9	20.6	6.01e-01	0	43	0	563609600	21	4586
2026-01-18 01:08:04.63	98.95	35.95	-29.8	-31.9	20.6	6.02e-01	0	44	0	565706752	21	4601
2026-01-18 01:08:05.64	99.44	35.93	-29.9	-32.1	20.5	6.02e-01	0	44	0	567279616	21	4660
2026-01-18 01:08:06.64	99.93	35.92	-30.0	-32.4	20.3	6.04e-01	0	44	0	569376768	21	4745
2026-01-18 01:08:07.64	100.42	35.90	-29.9	-32.2	20.4	6.02e-01	0	44	0	571473920	21	4701
2026-01-18 01:08:08.65	100.92	35.88	-29.7	-31.7	20.7	6.00e-01	0	43	0	573046784	21	4516
2026-01-18 01:08:09.65	101.41	35.86	-29.8	-31.9	20.5	6.01e-01	0	43	0	575143936	21	4597
2026-01-18 01:08:10.64	101.89	35.83	-29.9	-32.3	20.3	6.01e-01	0	43	0	576716800	21	4721
2026-01-18 01:08:11.65	102.39	35.80	-30.0	-32.5	20.3	6.02e-01	0	44	0	578813952	21	4776
2026-01-18 01:08:12.65	102.87	35.78	-29.7	-31.7	20.7	6.00e-01	0	43	0	580386816	21	4516
2026-01-18 01:08:13.66	103.36	35.74	-29.7	-31.8	20.7	6.01e-01	0	43	0	582483968	21	4551
2026-01-18 01:08:14.66	103.85	35.71	-29.8	-31.9	20.6	6.00e-01	0	43	0	584581120	21	4605
2026-01-18 01:08:15.67	104.34	35.67	-30.0	-32.3	20.3	6.03e-01	0	43	0	586153984	21	4739
2026-01-18 01:08:16.67	104.82	35.63	-29.8	-32.1	20.4	5.99e-01	0	44	0	588251136	21	4651
2026-01-18 01:08:17.67	105.30	35.59	-29.7	-31.7	20.7	6.00e-01	0	44	0	590348288	21	4524
2026-01-18 01:08:18.67	105.78	35.55	-29.7	-31.8	20.7	6.03e-01	0	44	0	591921152	21	4557
2026-01-18 01:08:19.67	106.26	35.51	-29.9	-32.1	20.5	6.02e-01	0	44	0	594018304	21	4665
2026-01-18 01:08:20.68	106.75	35.46	-29.9	-32.3	20.3	6.00e-01	0	43	0	595591168	21	4730
2026-01-18 01:08:21.68	107.22	35.41	-29.7	-31.7	20.7	6.01e-01	0	44	0	597688320	21	4539
2026-01-18 01:08:22.68	107.70	35.36	-29.7	-31.7	20.7	6.02e-01	0	43	0	599261184	21	4547
2026-01-18 01:08:23.69	108.18	35.31	-30.1	-32.6	20.2	6.02e-01	0	44	0	601358336	21	4816
2026-01-18 01:08:24.70	108.65	35.25	-30.0	-32.3	20.3	5.96e-01	0	43	0	603455488	21	4738
2026-01-18 01:08:25.69	109.12	35.20	-29.9	-32.2	20.4	6.00e-01	0	43	0	605028352	21	4699
2026-01-18 01:08:26.69	109.59	35.14	-29.9	-32.1	20.5	6.02e-01	0	44	0	607125504	21	4653
2026-01-18 01:08:27.69	110.06	35.08	-29.9	-32.2	20.4	6.01e-01	0	44	0	608698368	21	4692
2026-01-18 01:08:28.70	110.53	35.01	-30.1	-32.6	20.1	6.01e-01	0	43	0	610795520	21	4835
2026-01-18 01:08:29.70	110.99	34.95	-30.2	-32.9	20.0	6.00e-01	0	43	0	612368384	21	4937
2026-01-18 01:08:30.71	111.46	34.88	-30.1	-32.7	20.2	6.01e-01	0	44	0	614465536	21	4840
2026-01-18 01:08:31.71	111.92	34.81	-30.0	-32.6	20.2	6.00e-01	0	43	0	616562688	21	4805
2026-01-18 01:08:32.72	112.38	34.74	-30.1	-32.6	20.1	6.03e-01	0	43	0	618135552	21	4828
2026-01-18 01:08:33.72	112.83	34.67	-30.1	-32.6	20.1	6.00e-01	0	44	0	620232704	21	4834
2026-01-18 01:08:34.72	113.29	34.60	-30.2	-33.1	19.9	6.04e-01	0	43	0	621805568	21	4991
2026-01-18 01:08:35.73	113.74	34.52	-30.0	-32.5	20.2	5.99e-01	0	44	0	623902720	21	4778
2026-01-18 01:08:36.72	114.19	34.44	-29.7	-31.7	20.7	6.02e-01	0	44	0	625999872	21	4529
2026-01-18 01:08:37.73	114.64	34.36	-29.6	-31.6	20.8	5.99e-01	0	43	0	627572736	21	4497
2026-01-18 01:08:38.73	115.09	34.28	-29.7	-31.7	20.7	6.01e-01	0	43	0	629669888	21	4541
2026-01-18 01:08:39.74	115.53	34.20	-29.6	-31.5	20.8	6.00e-01	0	44	0	631242752	21	4471
2026-01-18 01:08:40.74	115.97	34.12	-29.6	-31.4	20.8	6.00e-01	0	44	0	633339904	21	4436
2026-01-18 01:08:41.74	116.41	34.03	-29.7	-31.7	20.7	6.00e-01	0	43	0	635437056	21	4543
2026-01-18 01:08:42.74	116.85	33.94	-29.7	-31.7	20.7	6.01e-01	0	44	0	637009920	21	4523
2026-01-18 01:08:43.74	117.28	33.85	-29.8	-32.1	20.5	5.99e-01	0	44	0	639107072	21	4661
2026-01-18 01:08:44.74	117.71	33.76	-29.6	-31.6	20.7	6.01e-01	0	44	0	640679936	21	4493
2026-01-18 01:08:45.75	118.14	33.67	-29.4	-30.9	21.1	6.03e-01	0	44	0	642777088	21	4306
2026-01-18 01:08:46.75	118.57	33.58	-29.6	-31.4	20.8	6.01e-01	0	44	0	644349952	21	4449
2026-01-18 01:08:47.76	119.00	33.48	-29.5	-31.2	20.8	6.01e-01	0	43	0	646447104	21	4401
2026-01-18 01:08:48.76	119.42	33.39	-29.3	-31.3	21.1	6.00e-01	0	44	0	648544256	20	4526
2026-01-18 01:08:49.76	119.84	33.29	-29.4	-31.5	21.0	6.01e-01	0	44	0	650117120	20	4590
2026-01-18 01:08:50.77	120.26	33.19	-29.4	-31.5	21.0	6.00e-01	0	43	0	652214272	20	4604
2026-01-18 01:08:51.77	120.67	33.09	-29.4	-31.5	21.0	6.01e-01	0	44	0	653787136	20	4590
2026-01-18 01:08:52.77	121.08	32.99	-29.3	-31.3	21.2	6.03e-01	0	44	0	655884288	20	4514
2026-01-18 01:08:53.78	121.50	32.89	-29.8	-32.5	20.5	6.01e-01	0	43	0	657981440	20	4913
2026-01-18 01:08:54.77	121.90	32.79	-29.7	-32.2	20.5	5.99e-01	0	44	0	659554304	20	4825
2026-01-18 01:08:55.78	122.31	32.68	-29.6	-32.0	20.7	6.01e-01	0	44	0	661651456	20	4742
2026-01-18 01:08:56.78	122.71	32.58	-29.7	-32.3	20.6	6.02e-01	0	44	0	663224320	20	4832
2026-01-18 01:08:57.79	123.11	32.47	-29.7	-32.2	20.6	6.00e-01	0	44	0	665321472	20	4802
2026-01-18 01:08:58.79	123.50	32.36	-29.6	-32.0	20.7	6.02e-01	0	44	0	666894336	20	4740
2026-01-18 01:08:59.79	123.90	32.25	-29.5	-31.9	20.8	6.00e-01	0	44	0	668991488	20	4707
2026-01-18 01:09:00.79	124.29	32.14	-29.7	-32.2	20.6	6.03e-01	0	44	0	671088640	20	4801
2026-01-18 01:09:01.79	124.67	32.03	-29.7	-32.4	20.4	6.00e-01	0	44	0	672661504	20	4871
2026-01-18 01:09:02.80	125.06	31.92	-29.8	-32.4	20.5	6.00e-01	0	44	0	674758656	20	4863
2026-01-18 01:09:03.80	125.45	31.81	-30.1	-32.7	20.0	6.00e-01	0	44	0	676331520	21	4878
2026-01-18 01:09:04.80	125.82	31.70	-30.0	-32.4	20.2	6.01e-01	0	44	0	678428672	21	4774
2026-01-18 01:09:05.80	126.20	31.58	-29.6	-31.6	20.6	6.01e-01	0	44	0	680525824	21	4508
2026-01-18 01:09:06.80	126.58	31.47	-29.5	-31.2	20.9	6.01e-01	0	43	0	682098688	21	4382
2026-01-18 01:09:07.80	126.95	31.35	-29.3	-31.3	21.1	6.01e-01	0	44	0	684195840	20	4523
2026-01-18 01:09:08.81	127.32	31.23	-29.4	-31.5	21.0	6.00e-01	0	44	0	685768704	20	4585
2026-01-18 01:09:09.81	127.68	31.12	-29.6	-32.0	20.7	6.02e-01	0	44	0	687865856	20	4743
2026-01-18 01:09:10.82	128.05	31.00	-29.4	-31.6	20.9	6.00e-01	0	44	0	689963008	20	4629
2026-01-18 01:09:11.82	128.41	30.88	-29.3	-31.2	21.1	6.02e-01	0	44	0	691535872	20	4512
2026-01-18 01:09:12.82	128.77	30.76	-29.4	-31.5	21.0	5.97e-01	0	44	0	693633024	20	4586
2026-01-18 01:09:13.82	129.12	30.64	-29.4	-31.6	20.9	6.03e-01	0	44	0	695205888	20	4636
2026-01-18 01:09:14.83	129.48	30.52	-29.5	-31.7	20.8	5.98e-01	0	44	0	697303040	20	4657
2026-01-18 01:09:15.84	129.83	30.39	-29.2	-31.1	21.1	6.01e-01	0	44	0	698875904	20	4463
2026-01-18 01:09:16.84	130.18	30.27	-29.2	-31.1	21.2	6.04e-01	0	44	0	700973056	20	4477
2026-01-18 01:09:17.85	130.53	30.15	-29.3	-31.4	21.0	6.02e-01	0	44	0	703070208	20	4568
2026-01-18 01:09:18.85	130.87	30.03	-29.4	-31.6	20.9	6.00e-01	0	44	0	704643072	20	4609
2026-01-18 01:09:19.85	131.21	29.90	-29.4	-31.6	20.9	6.00e-01	0	44	0	706740224	20	4639
2026-01-18 01:09:20.85	131.55	29.78	-29.5	-31.7	20.8	6.01e-01	0	44	0	708313088	20	4642
2026-01-18 01:09:21.86	131.88	29.65	-29.3	-31.3	21.0	6.01e-01	0	43	0	710410240	20	4535
2026-01-18 01:09:22.86	132.21	29.53	-29.4	-31.6	20.9	6.00e-01	0	44	0	711983104	20	4614
2026-01-18 01:09:23.86	132.54	29.40	-29.5	-31.7	20.8	6.01e-01	0	44	0	714080256	20	4676
2026-01-18 01:09:24.86	132.87	29.28	-29.6	-32.1	20.5	6.02e-01	0	44	0	716177408	20	4798
2026-01-18 01:09:25.86	133.19	29.15	-29.3	-31.5	20.9	6.02e-01	0	44	0	717750272	20	4597
2026-01-18 01:09:26.87	133.52	29.02	-29.3	-31.9	21.0	6.02e-01	0	44	0	719847424	19	4823
2026-01-18 01:09:27.87	133.84	28.90	-29.4	-32.2	20.9	5.98e-01	0	44	0	721944576	19	4947
2026-01-18 01:09:28.87	134.15	28.77	-29.6	-32.2	20.4	6.00e-01	0	44	0	723517440	20	4858
2026-01-18 01:09:29.88	134.47	28.64	-29.6	-32.1	20.5	6.03e-01	0	44	0	725614592	20	4817
2026-01-18 01:09:30.89	134.78	28.51	-29.6	-32.0	20.5	6.01e-01	0	44	0	727187456	20	4787
2026-01-18 01:09:31.90	135.09	28.38	-29.5	-31.8	20.7	5.99e-01	0	44	0	729284608	20	4700
2026-01-18 01:09:32.90	135.40	28.26	-29.6	-32.1	20.5	6.02e-01	0	44	0	730857472	20	4808
2026-01-18 01:09:33.90	135.70	28.13	-29.5	-31.9	20.6	5.99e-01	0	43	0	732954624	20	4731
2026-01-18 01:09:34.90	136.00	28.00	-29.6	-32.1	20.5	5.99e-01	0	44	0	735051776	20	4799
2026-01-18 01:09:35.91	136.30	27.87	-29.6	-32.0	20.5	6.00e-01	0	44	0	736624640	20	4783
2026-01-18 01:09:36.91	136.60	27.74	-29.6	-32.1	19.5	6.01e-01	0	43	0	738721792	20	4801
2026-01-18 01:09:37.92	136.90	27.61	-29.6	-32.2	19.8	6.01e-01	0	44	0	740294656	20	4855
2026-01-18 01:09:38.92	137.19	27.48	-29.7	-32.3	20.4	6.00e-01	0	44	0	742391808	20	4864
2026-01-18 01:09:39.93	137.48	27.35	-29.8	-32.6	20.0	6.01e-01	0	44	0	744488960	20	4977
2026-01-18 01:09:40.93	137.77	27.22	-29.8	-32.7	20.1	6.02e-01	0	43	0	746061824	20	5006
2026-01-18 01:09:41.93	138.05	27.10	-29.7	-32.5	20.2	5.99e-01	0	44	0	748158976	20	4930
2026-01-18 01:09:42.93	138.33	26.97	-29.7	-32.4	20.2	5.99e-01	0	44	0	749731840	20	4922
2026-01-18 01:09:43.92	138.61	26.84	-29.8	-32.6	20.1	6.03e-01	0	44	0	751828992	20	4973
2026-01-18 01:09:44.93	138.89	26.71	-29.9	-32.8	20.0	6.01e-01	0	44	0	753926144	20	5060
2026-01-18 01:09:45.93	139.16	26.58	-29.8	-32.7	20.1	6.00e-01	0	44	0	755499008	20	4995
2026-01-18 01:09:46.93	139.43	26.45	-30.0	-33.0	19.9	6.01e-01	0	44	0	757596160	20	5135
2026-01-18 01:09:47.93	139.70	26.32	-30.0	-33.2	19.8	5.98e-01	0	44	0	759169024	20	5206
2026-01-18 01:09:48.94	139.98	26.19	-30.0	-33.2	19.7	6.03e-01	0	44	0	761266176	20	5213
2026-01-18 01:09:49.94	140.24	26.06	-30.1	-33.0	19.5	6.02e-01	0	44	0	762839040	21	5012
2026-01-18 01:09:50.94	140.50	25.93	-29.9	-32.5	19.8	6.02e-01	0	44	0	764936192	21	4851
2026-01-18 01:09:51.94	140.77	25.80	-29.8	-32.6	20.1	6.00e-01	0	44	0	767033344	20	5003
2026-01-18 01:09:52.94	141.03	25.67	-29.7	-32.5	20.1	6.01e-01	0	44	0	768606208	20	4949
2026-01-18 01:09:53.93	141.28	25.55	-29.9	-33.0	19.8	6.05e-01	0	44	0	770703360	20	5110
2026-01-18 01:09:54.94	141.54	25.42	-29.9	-32.9	19.8	6.02e-01	0	44	0	772276224	20	5094
2026-01-18 01:09:55.94	141.79	25.29	-30.2	-33.2	19.4	5.99e-01	0	44	0	774373376	21	5088
2026-01-18 01:09:56.94	142.04	25.16	-30.5	-33.9	19.0	6.01e-01	0	44	0	775946240	21	5321
2026-01-18 01:09:57.95	142.29	25.03	-30.3	-33.5	19.3	6.01e-01	0	43	0	778043392	21	5176
2026-01-18 01:09:58.95	142.54	24.90	-30.1	-33.3	19.7	6.00e-01	0	44	0	780140544	20	5232
2026-01-18 01:09:59.95	142.78	24.77	-29.9	-32.8	19.9	6.03e-01	0	44	0	781713408	20	5051
2026-01-18 01:10:00.95	143.03	24.65	-29.8	-32.7	20.0	6.00e-01	0	44	0	783810560	20	5013
2026-01-18 01:10:01.95	143.27	24.52	-29.9	-33.0	19.9	6.02e-01	0	44	0	785383424	20	5113
2026-01-18 01:10:02.95	143.51	24.39	-30.0	-33.3	19.6	6.02e-01	0	44	0	787480576	20	5231
2026-01-18 01:10:03.95	143.74	24.26	-30.1	-33.4	19.6	6.00e-01	0	44	0	789053440	20	5269
2026-01-18 01:10:04.96	143.98	24.13	-30.2	-33.1	19.4	6.02e-01	0	44	0	791150592	21	5049
2026-01-18 01:10:05.96	144.21	24.01	-30.3	-33.5	19.2	5.98e-01	0	44	0	793247744	21	5196
2026-01-18 01:10:06.96	144.44	23.88	-30.1	-33.0	19.5	6.03e-01	0	44	0	794820608	21	5021
2026-01-18 01:10:07.96	144.67	23.75	-30.1	-32.9	19.4	6.02e-01	0	44	0	796917760	21	4969
2026-01-18 01:10:08.96	144.90	23.63	-30.1	-32.9	19.5	6.03e-01	0	44	0	799014912	21	4990
2026-01-18 01:10:09.96	145.12	23.50	-30.1	-33.0	19.4	6.02e-01	0	44	0	800587776	21	5036
2026-01-18 01:10:10.96	145.35	23.38	-30.1	-33.4	19.5	6.03e-01	0	44	0	802684928	20	5300
2026-01-18 01:10:11.97	145.57	23.25	-30.1	-33.1	19.4	6.02e-01	0	44	0	804257792	21	5080
2026-01-18 01:10:12.97	145.79	23.12	-30.4	-33.8	18.9	6.02e-01	0	43	0	806354944	21	5338
2026-01-18 01:10:13.97	146.01	23.00	-30.1	-33.1	19.4	5.99e-01	0	44	0	807927808	21	5079
2026-01-18 01:10:14.98	146.23	22.87	-30.0	-32.7	19.6	6.01e-01	0	44	0	810024960	21	4923
2026-01-18 01:10:15.98	146.44	22.75	-29.9	-32.9	19.8	6.01e-01	0	44	0	812122112	20	5122
2026-01-18 01:10:16.99	146.66	22.62	-30.0	-33.3	19.6	6.00e-01	0	44	0	813694976	20	5254
2026-01-18 01:10:17.99	146.87	22.50	-30.2	-33.3	19.2	6.00e-01	0	44	0	815792128	21	5154
2026-01-18 01:10:18.99	147.08	22.37	-30.1	-33.0	19.4	6.01e-01	0	44	0	817364992	21	5022
2026-01-18 01:10:20.00	147.28	22.25	-29.9	-33.1	19.6	6.01e-01	0	44	0	819462144	20	5184
2026-01-18 01:10:21.00	147.49	22.12	-30.0	-33.2	19.5	6.01e-01	0	44	0	821035008	20	5226
2026-01-18 01:10:22.00	147.69	22.00	-30.1	-33.1	19.3	6.00e-01	0	44	0	823132160	21	5079
2026-01-18 01:10:23.00	147.90	21.88	-30.0	-33.2	19.5	6.00e-01	0	44	0	825229312	20	5222
2026-01-18 01:10:24.00	148.10	21.76	-30.2	-33.2	19.2	6.00e-01	0	44	0	826802176	21	5104
2026-01-18 01:10:25.00	148.30	21.63	-30.3	-33.7	19.0	6.01e-01	0	44	0	828899328	21	5277
2026-01-18 01:10:26.00	148.49	21.51	-30.1	-33.0	19.4	5.99e-01	0	44	0	830472192	21	5015
2026-01-18 01:10:27.00	148.69	21.39	-29.9	-32.6	19.6	6.02e-01	0	44	0	832569344	21	4886
2026-01-18 01:10:27.99	148.88	21.27	-29.8	-32.8	19.8	6.01e-01	0	44	0	834142208	20	5057
2026-01-18 01:10:29.00	149.08	21.15	-29.9	-33.0	19.7	6.03e-01	0	44	0	836239360	20	5151
2026-01-18 01:10:30.00	149.27	21.03	-30.1	-33.1	19.3	6.01e-01	0	44	0	838336512	21	5070
2026-01-18 01:10:31.00	149.46	20.91	-30.0	-33.2	19.5	6.02e-01	0	43	0	839909376	20	5212
2026-01-18 01:10:32.01	149.65	20.79	-29.9	-33.0	19.7	6.00e-01	0	44	0	842006528	20	5139
2026-01-18 01:10:33.02	149.84	20.67	-29.8	-32.9	19.7	6.00e-01	0	44	0	844103680	20	5117
2026-01-18 01:10:34.02	150.02	20.55	-29.8	-32.9	19.7	6.00e-01	0	44	0	845676544	20	5106
2026-01-18 01:10:35.03	150.21	20.43	-29.9	-33.0	19.6	6.04e-01	0	44	0	847773696	20	5154
2026-01-18 01:10:36.03	150.39	20.31	-29.8	-32.8	19.7	5.99e-01	0	44	0	849346560	20	5060
2026-01-18 01:10:37.03	150.57	20.19	-30.0	-33.3	19.4	6.01e-01	0	44	0	851443712	20	5250
2026-01-18 01:10:38.04	150.75	20.07	-29.9	-32.9	19.6	6.00e-01	0	44	0	853016576	20	5124
2026-01-18 01:10:39.05	150.93	19.95	-29.8	-32.8	19.7	6.01e-01	0	44	0	855113728	20	5086
2026-01-18 01:10:40.05	151.11	19.84	-29.9	-32.9	19.6	6.02e-01	0	44	0	857210880	20	5101
2026-01-18 01:10:41.04	151.28	19.72	-29.7	-32.6	19.9	6.00e-01	0	44	0	858783744	20	5011
2026-01-18 01:10:42.04	151.46	19.60	-29.7	-32.5	19.9	6.02e-01	0	44	0	860880896	20	4977
2026-01-18 01:10:43.04	151.63	19.49	-30.0	-33.3	19.4	6.01e-01	0	44	0	862453760	20	5258
2026-01-18 01:10:44.04	151.80	19.37	-30.0	-33.3	19.4	6.00e-01	0	44	0	864550912	20	5250
2026-01-18 01:10:45.04	151.97	19.26	-30.0	-33.3	19.4	6.01e-01	0	44	0	866123776	20	5262
2026-01-18 01:10:46.04	152.14	19.14	-30.1	-33.1	19.1	6.00e-01	0	44	0	868220928	21	5087
2026-01-18 01:10:47.05	152.31	19.03	-30.2	-33.4	19.0	6.02e-01	0	43	0	870318080	21	5180
2026-01-18 01:10:48.05	152.47	18.91	-30.5	-34.1	18.6	6.01e-01	0	44	0	871890944	21	5442
2026-01-18 01:10:49.05	152.64	18.80	-30.4	-33.8	18.8	5.99e-01	0	44	0	873988096	21	5349
2026-01-18 01:10:50.06	152.80	18.68	-30.5	-34.2	18.4	6.00e-01	0	44	0	875560960	21	5503
2026-01-18 01:10:51.06	152.97	18.57	-30.3	-33.7	18.8	6.01e-01	0	44	0	877658112	21	5294
2026-01-18 01:10:52.07	153.13	18.46	-30.2	-33.4	19.0	6.00e-01	0	44	0	879755264	21	5179
2026-01-18 01:10:53.07	153.29	18.34	-30.1	-33.1	19.1	6.02e-01	0	44	0	881328128	21	5100
2026-01-18 01:10:54.08	153.45	18.23	-30.1	-33.2	19.0	6.01e-01	0	44	0	883425280	21	5124
2026-01-18 01:10:55.08	153.61	18.12	-30.0	-33.3	19.3	6.00e-01	0	44	0	884998144	20	5269
2026-01-18 01:10:56.08	153.76	18.01	-29.8	-32.8	19.5	5.99e-01	0	44	0	887095296	20	5098
2026-01-18 01:10:57.08	153.92	17.90	-29.6	-32.4	19.7	6.02e-01	0	44	0	889192448	20	4975
2026-01-18 01:10:58.07	154.07	17.79	-29.5	-32.2	19.9	5.99e-01	0	44	0	890765312	20	4899
2026-01-18 01:10:59.07	154.22	17.68	-29.5	-32.2	19.9	6.00e-01	0	44	0	892862464	20	4919
2026-01-18 01:11:00.08	154.37	17.57	-29.5	-32.1	19.9	6.00e-01	0	44	0	894435328	20	4890
2026-01-18 01:11:01.08	154.53	17.46	-29.5	-32.3	19.8	6.00e-01	0	44	0	896532480	20	4939
2026-01-18 01:11:02.08	154.67	17.35	-29.5	-32.2	19.9	6.01e-01	0	43	0	898105344	20	4911
2026-01-18 01:11:03.08	154.82	17.24	-29.6	-32.4	19.7	6.01e-01	0	43	0	900202496	20	4981
2026-01-18 01:11:04.08	154.97	17.13	-29.8	-33.0	19.4	5.99e-01	0	44	0	902299648	20	5184
2026-01-18 01:11:05.08	155.12	17.02	-29.6	-32.4	19.7	6.00e-01	0	44	0	903872512	20	4978
2026-01-18 01:11:06.08	155.26	16.91	-29.6	-32.4	19.8	6.02e-01	0	44	0	905969664	20	4966
2026-01-18 01:11:07.08	155.40	16.81	-29.7	-32.6	19.7	6.01e-01	0	44	0	907542528	20	5041
2026-01-18 01:11:08.07	155.55	16.70	-29.8	-33.1	19.3	6.01e-01	0	44	0	909639680	20	5237
2026-01-18 01:11:09.07	155.69	16.59	-29.7	-32.8	19.5	6.02e-01	0	44	0	911212544	20	5120
2026-01-18 01:11:10.07	155.83	16.49	-29.7	-32.7	19.5	6.01e-01	0	43	0	913309696	20	5096
2026-01-18 01:11:11.07	155.97	16.38	-29.7	-32.7	19.5	6.03e-01	0	44	0	915406848	20	5073
2026-01-18 01:11:12.08	156.11	16.27	-29.7	-32.8	19.5	6.02e-01	0	43	0	916979712	20	5110
2026-01-18 01:11:13.08	156.25	16.17	-29.7	-32.7	19.5	6.00e-01	0	44	0	919076864	20	5078
2026-01-18 01:11:14.08	156.38	16.06	-29.7	-32.8	19.5	6.03e-01	0	44	0	920649728	20	5098
2026-01-18 01:11:15.09	156.52	15.96	-29.9	-33.1	19.3	5.99e-01	0	44	0	922746880	20	5235
2026-01-18 01:11:16.09	156.65	15.85	-30.0	-33.3	19.1	6.01e-01	0	44	0	924844032	20	5301
2026-01-18 01:11:17.10	156.79	15.75	-29.9	-33.1	19.3	6.01e-01	0	44	0	926416896	20	5195
2026-01-18 01:11:18.10	156.92	15.65	-29.8	-32.9	19.4	6.03e-01	0	44	0	928514048	20	5127
2026-01-18 01:11:19.09	157.05	15.54	-29.8	-33.0	19.3	6.00e-01	0	44	0	930086912	20	5150
2026-01-18 01:11:20.10	157.18	15.44	-29.8	-33.0	19.4	6.02e-01	0	44	0	932184064	20	5150
2026-01-18 01:11:21.10	157.31	15.34	-29.9	-33.1	19.2	6.01e-01	0	44	0	933756928	20	5198
2026-01-18 01:11:22.11	157.45	15.23	-30.1	-33.5	19.0	6.02e-01	0	44	0	935854080	20	5376
2026-01-18 01:11:23.11	157.57	15.13	-29.9	-33.1	19.3	6.02e-01	0	44	0	937951232	20	5202
2026-01-18 01:11:24.11	157.70	15.03	-29.8	-32.8	19.4	5.98e-01	0	44	0	939524096	20	5112
2026-01-18 01:11:25.11	157.83	14.93	-29.8	-32.9	19.4	6.00e-01	0	44	0	941621248	20	5148
2026-01-18 01:11:26.12	157.95	14.83	-29.8	-33.0	19.3	6.02e-01	0	44	0	943194112	20	5201
2026-01-18 01:11:27.12	158.08	14.73	-29.8	-33.1	19.3	6.00e-01	0	44	0	945291264	20	5218
2026-01-18 01:11:28.13	158.20	14.63	-29.8	-33.0	19.3	6.03e-01	0	44	0	947388416	20	5191
2026-01-18 01:11:29.13	158.33	14.53	-29.8	-33.1	19.2	6.01e-01	0	44	0	948961280	20	5234
2026-01-18 01:11:30.13	158.45	14.43	-29.8	-33.0	19.3	6.02e-01	0	44	0	951058432	20	5207
2026-01-18 01:11:31.13	158.57	14.33	-29.8	-32.9	19.3	6.02e-01	0	44	0	952631296	20	5179
2026-01-18 01:11:32.13	158.69	14.23	-29.8	-32.9	19.3	6.02e-01	0	44	0	954728448	20	5190
2026-01-18 01:11:33.14	158.81	14.13	-29.8	-33.0	19.2	6.02e-01	0	44	0	956301312	20	5219
2026-01-18 01:11:34.14	158.93	14.03	-29.7	-32.8	19.4	6.00e-01	0	44	0	958398464	20	5154
2026-01-18 01:11:35.15	159.05	13.93	-29.9	-33.4	19.0	6.01e-01	0	44	0	960495616	20	5377
2026-01-18 01:11:36.15	159.17	13.84	-29.8	-33.0	19.2	6.02e-01	0	44	0	962068480	20	5212
2026-01-18 01:11:37.16	159.28	13.74	-29.6	-32.6	18.3	6.04e-01	0	44	0	964165632	20	5079
2026-01-18 01:11:38.17	159.40	13.64	-29.7	-32.8	19.3	5.99e-01	0	44	0	966262784	20	5142
2026-01-18 01:11:39.17	159.51	13.54	-29.7	-32.8	17.3	6.05e-01	0	44	0	967835648	20	5147
2026-01-18 01:11:40.18	159.63	13.45	-29.7	-32.8	17.3	6.05e-01	0	44	0	969932800	20	5154
2026-01-18 01:11:41.18	159.74	13.35	-29.5	-32.4	19.5	6.02e-01	0	43	0	971505664	20	4997
2026-01-18 01:11:42.18	159.86	13.25	-29.8	-33.1	18.2	6.00e-01	0	44	0	973602816	20	5262
2026-01-18 01:11:43.18	159.97	13.16	-29.5	-32.5	17.6	6.01e-01	0	44	0	975175680	20	5057
2026-01-18 01:11:44.18	160.08	13.06	-29.7	-32.8	19.2	6.00e-01	0	44	0	977272832	20	5185
2026-01-18 01:11:45.18	160.19	12.97	-29.7	-32.9	18.0	6.00e-01	0	44	0	979369984	20	5186
2026-01-18 01:11:46.19	160.30	12.88	-29.6	-32.7	19.1	6.00e-01	0	44	0	980942848	20	5135
2026-01-18 01:11:47.19	160.41	12.78	-29.7	-32.8	19.2	6.02e-01	0	44	0	983040000	20	5149
2026-01-18 01:11:48.19	160.52	12.69	-29.7	-32.9	19.1	6.00e-01	0	44	0	984612864	20	5210
2026-01-18 01:11:49.19	160.62	12.59	-29.7	-32.7	19.2	5.99e-01	0	44	0	986710016	20	5122
2026-01-18 01:11:50.20	160.73	12.50	-29.7	-32.8	19.2	6.02e-01	0	44	0	988282880	20	5143
2026-01-18 01:11:51.20	160.84	12.41	-29.7	-32.9	19.1	6.00e-01	0	44	0	990380032	20	5193
2026-01-18 01:11:52.21	160.94	12.32	-29.8	-32.9	19.1	5.99e-01	0	44	0	992477184	20	5195
2026-01-18 01:11:53.21	161.05	12.22	-29.9	-33.3	18.9	6.01e-01	0	43	0	994050048	20	5344
2026-01-18 01:11:54.21	161.15	12.13	-30.1	-33.3	18.5	6.01e-01	0	44	0	996147200	21	5217
2026-01-18 01:11:55.22	161.26	12.04	-29.9	-33.2	18.9	6.02e-01	0	44	0	998244352	20	5314
2026-01-18 01:11:56.22	161.36	11.95	-29.8	-33.2	19.0	6.01e-01	0	43	0	999817216	20	5284
2026-01-18 01:11:57.22	161.46	11.86	-29.9	-33.3	18.9	6.01e-01	0	44	0	1001914368	20	5325
2026-01-18 01:11:58.23	161.56	11.77	-29.8	-33.0	19.0	6.02e-01	0	44	0	1003487232	20	5244
2026-01-18 01:11:59.23	161.66	11.68	-29.8	-33.0	19.0	6.01e-01	0	44	0	1005584384	20	5255
2026-01-18 01:12:00.23	161.76	11.59	-29.7	-33.0	19.0	6.01e-01	0	44	0	1007157248	20	5263
2026-01-18 01:12:01.23	161.86	11.50	-29.7	-33.1	18.9	5.98e-01	0	44	0	1009254400	20	5281
2026-01-18 01:12:02.24	161.96	11.41	-29.7	-33.0	19.0	6.01e-01	0	44	0	1011351552	20	5249
2026-01-18 01:12:03.24	162.06	11.32	-29.8	-33.2	18.9	6.01e-01	0	44	0	1012924416	20	5320
2026-01-18 01:12:04.24	162.16	11.23	-29.8	-33.2	18.8	6.01e-01	0	44	0	1015021568	20	5357
2026-01-18 01:12:05.24	162.25	11.14	-29.6	-32.9	19.0	6.02e-01	0	44	0	1016594432	20	5237
2026-01-18 01:12:06.24	162.35	11.05	-29.6	-33.0	19.0	5.99e-01	0	44	0	1018691584	20	5283
2026-01-18 01:12:07.24	162.45	10.96	-29.6	-33.0	18.9	6.00e-01	0	44	0	1020264448	20	5336
2026-01-18 01:12:08.23	162.54	10.88	-29.7	-33.2	18.7	6.01e-01	0	44	0	1022361600	20	5413
2026-01-18 01:12:09.23	162.64	10.79	-29.8	-33.6	18.4	6.00e-01	0	44	0	1024458752	20	5588
2026-01-18 01:12:10.24	162.73	10.70	-29.7	-33.2	18.7	6.01e-01	0	44	0	1026031616	20	5437
2026-01-18 01:12:11.24	162.82	10.62	-29.6	-33.2	18.7	6.02e-01	0	44	0	1028128768	20	5418
2026-01-18 01:12:12.24	162.92	10.53	-29.6	-33.1	18.8	6.01e-01	0	44	0	1029701632	20	5370
2026-01-18 01:12:13.24	163.01	10.44	-29.7	-33.3	18.7	6.03e-01	0	44	0	1031798784	20	5443
2026-01-18 01:12:14.24	163.10	10.36	-29.7	-33.5	18.5	6.00e-01	0	44	0	1033371648	20	5532
2026-01-18 01:12:15.25	163.19	10.27	-29.8	-33.6	18.4	5.99e-01	0	44	0	1035468800	20	5581
2026-01-18 01:12:16.26	163.28	10.18	-29.7	-33.4	18.5	6.03e-01	0	44	0	1037565952	20	5516
2026-01-18 01:12:17.27	163.37	10.10	-29.8	-33.6	18.4	5.99e-01	0	44	0	1039138816	20	5602
2026-01-18 01:12:18.27	163.46	10.01	-29.7	-33.4	18.6	6.02e-01	0	44	0	1041235968	20	5482
2026-01-18 01:12:19.27	163.55	9.93	-29.8	-33.6	18.4	6.00e-01	0	44	0	1043333120	20	5574
2026-01-18 01:12:20.27	163.64	9.85	-29.8	-33.7	18.3	6.01e-01	0	44	0	1044905984	20	5629
2026-01-18 01:12:21.28	163.73	9.76	-29.8	-33.7	18.3	6.01e-01	0	44	0	1047003136	20	5598
2026-01-18 01:12:22.28	163.82	9.68	-29.8	-33.7	18.4	5.99e-01	0	44	0	1048576000	20	5633
2026-01-18 01:12:23.28	163.90	9.59	-29.9	-34.0	18.2	6.00e-01	0	44	0	1050673152	20	5727
2026-01-18 01:12:24.28	163.99	9.51	-30.0	-34.0	18.2	6.02e-01	0	44	0	1052246016	20	5716
2026-01-18 01:12:25.29	164.08	9.43	-30.1	-33.9	17.9	6.00e-01	0	44	0	1054343168	21	5570
2026-01-18 01:12:26.29	164.16	9.34	-30.0	-33.6	18.2	6.02e-01	0	44	0	1056440320	21	5409
2026-01-18 01:12:27.30	164.25	9.26	-30.1	-33.9	18.0	6.01e-01	0	44	0	1058013184	21	5536
2026-01-18 01:12:28.29	164.33	9.18	-30.1	-34.1	18.1	6.01e-01	0	44	0	1060110336	20	5743
2026-01-18 01:12:29.30	164.42	9.10	-30.2	-34.0	17.9	6.03e-01	0	44	0	1061683200	21	5585
2026-01-18 01:12:30.30	164.50	9.01	-30.3	-34.3	17.7	6.00e-01	0	44	0	1063780352	21	5679
2026-01-18 01:12:31.29	164.58	8.93	-30.2	-33.7	18.1	6.02e-01	0	44	0	1065353216	21	5427
2026-01-18 01:12:32.30	164.67	8.85	-30.1	-33.6	18.1	6.01e-01	0	44	0	1067450368	21	5395
2026-01-18 01:12:33.30	164.75	8.77	-30.1	-33.6	18.1	6.00e-01	0	44	0	1069547520	21	5384
2026-01-18 01:12:34.30	164.83	8.69	-30.1	-33.4	18.3	6.00e-01	0	44	0	1071120384	21	5307
2026-01-18 01:12:35.31	164.91	8.61	-30.3	-34.0	17.9	6.01e-01	0	44	0	1073217536	21	5534
2026-01-18 01:12:36.30	164.99	8.53	-30.3	-34.1	17.8	6.00e-01	0	44	0	1074790400	21	5581
2026-01-18 01:12:37.31	165.07	8.45	-30.2	-34.0	17.9	5.99e-01	0	44	0	1076887552	21	5530
2026-01-18 01:12:38.31	165.15	8.37	-30.2	-33.8	18.0	6.01e-01	0	44	0	1078984704	21	5478
2026-01-18 01:12:39.32	165.23	8.29	-30.2	-33.8	17.6	6.03e-01	0	44	0	1080557568	21	5481
2026-01-18 01:12:40.32	165.31	8.21	-30.3	-34.1	17.2	5.99e-01	0	44	0	1082654720	21	5609
2026-01-18 01:12:41.32	165.39	8.13	-30.3	-34.2	17.7	6.00e-01	0	44	0	1084227584	21	5658
2026-01-18 01:12:42.33	165.47	8.05	-30.4	-34.4	17.1	6.00e-01	0	44	0	1086324736	21	5763
2026-01-18 01:12:43.33	165.54	7.97	-30.5	-34.7	17.2	5.99e-01	0	44	0	1088421888	21	5890
2026-01-18 01:12:44.32	165.62	7.90	-30.3	-34.3	17.5	6.03e-01	0	44	0	1089994752	21	5696
2026-01-18 01:12:45.33	165.70	7.82	-30.6	-35.1	17.0	5.99e-01	0	44	0	1092091904	21	6045
2026-01-18 01:12:46.33	165.77	7.74	-30.5	-34.7	17.2	6.01e-01	0	44	0	1093664768	21	5858
2026-01-18 01:12:47.34	165.85	7.66	-30.5	-34.7	17.3	6.03e-01	0	44	0	1095761920	21	5870
2026-01-18 01:12:48.34	165.92	7.58	-30.7	-34.8	16.9	6.00e-01	0	44	0	1097334784	22	5793
2026-01-18 01:12:49.34	166.00	7.51	-30.7	-34.9	16.8	5.99e-01	0	44	0	1099431936	22	5825
2026-01-18 01:12:50.34	166.07	7.43	-30.6	-34.6	17.0	6.00e-01	0	44	0	1101529088	22	5711
2026-01-18 01:12:51.34	166.15	7.35	-30.4	-34.4	17.5	6.01e-01	0	44	0	1103101952	21	5709
2026-01-18 01:12:52.35	166.22	7.27	-30.7	-35.0	16.7	6.01e-01	0	44	0	1105199104	22	5867
2026-01-18 01:12:53.35	166.30	7.20	-30.4	-34.0	17.5	6.00e-01	0	44	0	1106771968	22	5438
2026-01-18 01:12:54.35	166.37	7.12	-32.1	-39.2	14.2	6.01e-01	0	44	0	1108869120	24	8186
2026-01-18 01:12:55.36	166.44	7.05	-33.6	-53.3	3.8	7.44e-01	0	44	104	1108869120	27	34634

#Closed at: 2026-01-18 01:12:56
#Recorded file [1108 MB]: D:/data/31010_260118_040302.dat