passes_logs/2026/01/18/R2M6_AANII_01/R2M6_AANII_01__20260118_112245_NOAA_21_JPSS-2_rec.log

#Pass ID: 20260118_112245_NOAA 21 (JPSS-2)
#Satellite: NOAA 21 (JPSS-2)
#Configuration: NOAA 21
#almurnet v.1.7.20240730
#Start time: 2026-01-18 11:22:45

#Version: 2.2.20231116
#Station: R2M6_AANII_01
#Location: 30.233357 lon 59.946436 lat
#TLE: 1 54234U 22150A   26017.26823908  .00000042  00000+0  40962-4 0  9992
#TLE: 2 54234  98.7501 318.1405 0000613 274.2947  85.8159 14.19535194165131

#Time	Az	El	Level	Level2	SNR	BER	BlckErr	Temp	State	Recorded	gain1	gain2
2026-01-18 11:22:45.39	193.95	6.99	-31.9	-37.9	4.2	1.45e+00	0	43	0	0	25	7202
2026-01-18 11:22:46.39	194.01	7.07	-30.1	-33.8	4.8	1.38e+00	0	43	104	0	21	5498
2026-01-18 11:22:47.39	194.08	7.14	-29.9	-32.4	10.5	4.57e-03	0	43	0	0	21	4795
2026-01-18 11:22:48.40	194.14	7.21	-29.5	-31.8	11.2	1.61e-03	0	43	0	3145728	20	4697
2026-01-18 11:22:49.40	194.21	7.28	-29.2	-31.5	11.8	5.00e-04	0	43	0	6291456	19	4698
2026-01-18 11:22:50.40	194.27	7.35	-29.3	-31.8	11.6	9.78e-04	0	43	0	9437184	19	4799
2026-01-18 11:22:51.40	194.34	7.43	-28.9	-30.7	12.4	2.17e-04	0	43	0	12582912	19	4428
2026-01-18 11:22:52.41	194.41	7.50	-29.3	-31.8	11.6	3.58e-04	0	43	0	15728640	19	4801
2026-01-18 11:22:53.41	194.47	7.57	-29.4	-32.0	11.6	3.26e-04	0	43	0	18874368	19	4848
2026-01-18 11:22:54.42	194.54	7.64	-29.5	-32.2	11.4	9.50e-04	0	43	0	22020096	19	4933
2026-01-18 11:22:55.42	194.61	7.72	-29.7	-32.8	11.0	1.71e-03	0	43	0	24117248	19	5133
2026-01-18 11:22:56.43	194.67	7.79	-29.8	-33.2	10.7	2.73e-03	0	43	0	27262976	19	5292
2026-01-18 11:22:57.44	194.74	7.87	-30.2	-33.9	9.8	9.47e-03	0	43	0	30408704	20	5472
2026-01-18 11:22:58.43	194.81	7.94	-30.1	-33.4	10.1	9.36e-03	0	43	0	33554432	20	5294
2026-01-18 11:22:59.44	194.88	8.01	-30.0	-33.3	10.2	5.22e-03	0	43	0	36700160	20	5248
2026-01-18 11:23:00.44	194.95	8.09	-30.2	-33.7	9.9	9.35e-03	0	43	0	39845888	20	5410
2026-01-18 11:23:01.44	195.02	8.16	-29.9	-33.1	10.3	5.95e-03	0	43	0	42991616	20	5161
2026-01-18 11:23:02.44	195.09	8.23	-29.5	-31.9	11.1	1.35e-03	0	43	0	46137344	20	4729
2026-01-18 11:23:03.45	195.16	8.31	-29.3	-31.8	11.6	6.07e-04	0	43	0	49283072	19	4784
2026-01-18 11:23:04.46	195.23	8.38	-28.9	-30.7	12.3	2.44e-04	0	43	0	52428800	19	4435
2026-01-18 11:23:05.46	195.30	8.46	-28.9	-30.8	12.2	2.76e-04	0	43	0	55574528	19	4475
2026-01-18 11:23:06.46	195.37	8.53	-28.7	-30.8	12.5	1.13e-04	0	43	0	58720256	18	4577
2026-01-18 11:23:07.46	195.44	8.61	-28.7	-30.8	12.4	1.39e-04	0	43	0	61865984	18	4590
2026-01-18 11:23:08.47	195.51	8.69	-28.9	-31.4	12.0	2.03e-04	0	43	0	65011712	18	4780
2026-01-18 11:23:09.48	195.58	8.76	-28.7	-30.8	12.4	1.56e-04	0	43	0	68157440	18	4567
2026-01-18 11:23:10.48	195.65	8.84	-28.8	-31.0	12.2	2.83e-04	0	43	0	71303168	18	4643
2026-01-18 11:23:11.48	195.73	8.91	-28.6	-30.7	12.2	1.48e-04	0	43	0	74448896	18	4578
2026-01-18 11:23:12.49	195.80	8.99	-28.4	-30.3	12.3	2.23e-04	0	43	0	77594624	18	4455
2026-01-18 11:23:13.49	195.87	9.07	-28.4	-30.2	12.4	1.58e-04	0	43	0	80740352	18	4414
2026-01-18 11:23:14.48	195.95	9.14	-28.6	-30.7	12.1	2.96e-04	0	43	0	83886080	18	4582
2026-01-18 11:23:15.48	196.02	9.22	-28.4	-30.4	11.9	3.80e-04	0	43	0	87031808	18	4534
2026-01-18 11:23:16.49	196.09	9.30	-28.5	-30.7	11.7	3.42e-04	0	43	0	90177536	18	4625
2026-01-18 11:23:17.50	196.17	9.37	-28.5	-30.7	11.5	9.06e-04	0	43	0	93323264	18	4641
2026-01-18 11:23:18.50	196.24	9.45	-28.2	-30.4	11.9	4.69e-04	0	43	0	96468992	17	4678
2026-01-18 11:23:19.51	196.32	9.53	-28.3	-30.7	11.7	6.46e-04	0	43	0	99614720	17	4760
2026-01-18 11:23:20.51	196.40	9.61	-28.2	-30.4	11.8	4.95e-04	0	43	0	102760448	17	4673
2026-01-18 11:23:21.51	196.47	9.69	-28.1	-30.3	12.2	2.68e-04	0	43	0	105906176	17	4602
2026-01-18 11:23:22.52	196.55	9.76	-28.1	-30.1	12.5	1.17e-04	0	43	0	109051904	17	4524
2026-01-18 11:23:23.51	196.63	9.84	-28.3	-30.6	12.5	1.03e-04	0	43	0	112197632	17	4649
2026-01-18 11:23:24.52	196.70	9.92	-28.3	-30.2	12.9	7.78e-05	0	43	0	115343360	17	4522
2026-01-18 11:23:25.52	196.78	10.00	-28.3	-30.3	13.2	3.12e-05	0	43	0	118489088	17	4504
2026-01-18 11:23:26.52	196.86	10.08	-28.4	-30.3	13.3	1.22e-05	0	43	0	121634816	17	4517
2026-01-18 11:23:27.52	196.94	10.16	-28.3	-30.1	13.5	1.06e-05	0	43	0	124780544	17	4446
2026-01-18 11:23:28.52	197.02	10.24	-28.4	-30.4	13.3	2.05e-05	0	43	0	127926272	17	4532
2026-01-18 11:23:29.53	197.10	10.32	-28.4	-30.3	13.4	3.12e-05	0	43	0	131072000	17	4504
2026-01-18 11:23:30.53	197.18	10.40	-28.1	-29.7	13.7	5.30e-06	0	43	0	134217728	17	4335
2026-01-18 11:23:31.54	197.26	10.48	-28.1	-29.7	13.6	4.50e-06	0	43	0	137363456	17	4332
2026-01-18 11:23:32.55	197.34	10.56	-28.2	-29.9	13.4	2.44e-05	0	43	0	140509184	17	4399
2026-01-18 11:23:33.56	197.42	10.64	-28.1	-29.8	13.5	7.60e-06	0	43	0	143654912	17	4352
2026-01-18 11:23:34.56	197.50	10.72	-28.0	-29.5	13.8	4.50e-06	0	43	0	146800640	17	4255
2026-01-18 11:23:35.57	197.58	10.80	-28.0	-29.5	13.8	1.06e-05	0	43	0	149946368	17	4276
2026-01-18 11:23:36.58	197.67	10.88	-28.0	-29.5	13.9	2.20e-06	0	43	0	153092096	17	4258
2026-01-18 11:23:37.58	197.75	10.97	-28.0	-29.4	14.0	7.00e-07	0	43	0	156237824	17	4237
2026-01-18 11:23:38.57	197.83	11.05	-28.1	-29.6	13.9	1.67e-05	0	43	0	159383552	17	4301
2026-01-18 11:23:39.57	197.92	11.13	-28.2	-29.8	13.9	3.80e-06	0	43	0	162529280	17	4334
2026-01-18 11:23:40.58	198.00	11.21	-28.1	-29.6	14.0	0.00e+00	0	43	0	165675008	17	4294
2026-01-18 11:23:41.58	198.08	11.29	-28.0	-29.5	14.1	3.80e-06	0	43	0	168820736	17	4246
2026-01-18 11:23:42.59	198.17	11.38	-28.0	-29.3	14.3	1.50e-06	0	43	0	171966464	17	4186
2026-01-18 11:23:43.58	198.26	11.46	-28.0	-29.5	14.2	1.50e-06	0	43	0	175112192	17	4237
2026-01-18 11:23:44.59	198.34	11.54	-28.0	-29.4	14.3	1.22e-05	0	43	0	178257920	17	4222
2026-01-18 11:23:45.59	198.43	11.62	-28.0	-29.4	14.3	0.00e+00	0	43	0	181403648	17	4208
2026-01-18 11:23:46.60	198.52	11.71	-28.1	-29.6	14.1	7.00e-07	0	43	0	184549376	17	4277
2026-01-18 11:23:47.60	198.60	11.79	-28.2	-29.8	14.0	1.50e-06	0	43	0	187695104	17	4326
2026-01-18 11:23:48.60	198.69	11.88	-28.1	-29.6	14.1	1.50e-06	0	43	0	190840832	17	4284
2026-01-18 11:23:49.60	198.78	11.96	-28.1	-29.6	14.2	1.50e-06	0	43	0	193986560	17	4275
2026-01-18 11:23:50.60	198.87	12.04	-28.1	-29.5	14.2	7.00e-07	0	43	0	197132288	17	4235
2026-01-18 11:23:51.60	198.96	12.13	-28.1	-29.6	14.2	3.80e-06	0	43	0	200278016	17	4282
2026-01-18 11:23:52.60	199.05	12.21	-28.1	-29.5	14.2	1.50e-06	0	43	0	203423744	17	4248
2026-01-18 11:23:53.61	199.14	12.30	-27.9	-29.1	14.4	7.00e-07	0	44	0	206569472	17	4140
2026-01-18 11:23:54.61	199.23	12.38	-28.2	-29.7	14.1	3.00e-06	0	43	0	209715200	17	4297
2026-01-18 11:23:55.61	199.32	12.47	-28.1	-29.5	14.2	4.50e-06	0	43	0	212860928	17	4241
2026-01-18 11:23:56.62	199.41	12.55	-27.9	-29.1	14.4	0.00e+00	0	43	0	216006656	17	4142
2026-01-18 11:23:57.62	199.50	12.64	-27.8	-29.3	14.6	0.00e+00	0	43	0	219152384	16	4287
2026-01-18 11:23:58.62	199.60	12.73	-27.7	-29.2	14.6	1.50e-06	0	43	0	222298112	16	4276
2026-01-18 11:23:59.62	199.69	12.81	-27.8	-29.3	14.6	0.00e+00	0	43	0	225443840	16	4292
2026-01-18 11:24:00.62	199.78	12.90	-27.6	-29.0	14.7	0.00e+00	0	43	0	228589568	16	4199
2026-01-18 11:24:01.63	199.88	12.99	-27.7	-29.1	14.6	0.00e+00	0	43	0	231735296	16	4249
2026-01-18 11:24:02.64	199.97	13.07	-27.7	-29.3	14.5	1.50e-06	0	43	0	234881024	16	4284
2026-01-18 11:24:03.64	200.07	13.16	-27.7	-29.1	14.7	0.00e+00	0	43	0	238026752	16	4229
2026-01-18 11:24:04.64	200.17	13.25	-27.7	-29.2	14.6	0.00e+00	0	43	0	241172480	16	4278
2026-01-18 11:24:05.65	200.26	13.34	-27.7	-29.2	14.6	7.00e-07	0	43	0	244318208	16	4261
2026-01-18 11:24:06.66	200.36	13.43	-27.7	-29.1	14.7	0.00e+00	0	43	0	247463936	16	4236
2026-01-18 11:24:07.66	200.46	13.52	-27.6	-28.9	14.8	0.00e+00	0	43	0	250609664	16	4188
2026-01-18 11:24:08.66	200.56	13.60	-27.7	-29.1	14.7	0.00e+00	0	43	0	253755392	16	4227
2026-01-18 11:24:09.67	200.66	13.69	-27.6	-29.0	14.8	0.00e+00	0	43	0	256901120	16	4194
2026-01-18 11:24:10.68	200.76	13.78	-27.6	-29.0	14.8	7.00e-07	0	43	0	260046848	16	4193
2026-01-18 11:24:11.68	200.86	13.87	-27.5	-28.8	14.9	0.00e+00	0	43	0	263192576	16	4138
2026-01-18 11:24:12.68	200.96	13.96	-27.5	-28.8	15.0	0.00e+00	0	43	0	266338304	16	4140
2026-01-18 11:24:13.69	201.06	14.05	-27.7	-29.0	14.8	0.00e+00	0	43	0	269484032	16	4211
2026-01-18 11:24:14.69	201.16	14.14	-27.7	-29.2	14.7	7.00e-07	0	43	0	272629760	16	4252
2026-01-18 11:24:15.70	201.26	14.23	-27.7	-29.0	14.8	0.00e+00	0	43	0	275775488	16	4219
2026-01-18 11:24:16.70	201.37	14.32	-27.9	-29.5	14.5	0.00e+00	0	43	0	278921216	16	4344
2026-01-18 11:24:17.70	201.47	14.41	-27.8	-29.3	14.7	7.00e-07	0	43	0	282066944	16	4296
2026-01-18 11:24:18.71	201.58	14.51	-27.6	-29.0	14.9	7.00e-07	0	43	0	285212672	16	4203
2026-01-18 11:24:19.71	201.68	14.60	-27.8	-29.3	14.7	0.00e+00	0	43	0	288358400	16	4283
2026-01-18 11:24:20.72	201.79	14.69	-27.7	-29.0	14.8	0.00e+00	0	43	0	291504128	16	4217
2026-01-18 11:24:21.72	201.89	14.78	-27.7	-29.2	14.8	0.00e+00	0	43	0	294649856	16	4266
2026-01-18 11:24:22.73	202.00	14.87	-27.7	-29.2	14.8	7.00e-07	0	43	0	297795584	16	4260
2026-01-18 11:24:23.73	202.11	14.97	-27.6	-28.9	15.0	7.00e-07	0	43	0	300941312	16	4161
2026-01-18 11:24:24.73	202.21	15.06	-27.7	-29.0	15.0	0.00e+00	0	43	0	304087040	16	4215
2026-01-18 11:24:25.74	202.32	15.15	-27.6	-28.9	15.0	0.00e+00	0	43	0	307232768	16	4185
2026-01-18 11:24:26.75	202.43	15.25	-27.6	-28.9	15.1	0.00e+00	0	43	0	310378496	16	4178
2026-01-18 11:24:27.75	202.54	15.34	-27.7	-29.1	15.0	0.00e+00	0	43	0	313524224	16	4221
2026-01-18 11:24:28.76	202.66	15.44	-27.7	-29.0	15.1	1.06e-05	0	43	0	316669952	16	4195
2026-01-18 11:24:29.76	202.77	15.53	-27.7	-29.0	15.1	0.00e+00	0	44	0	319815680	16	4196
2026-01-18 11:24:30.76	202.88	15.62	-27.7	-29.1	15.0	0.00e+00	0	43	0	322961408	16	4230
2026-01-18 11:24:31.76	202.99	15.72	-27.7	-29.1	15.0	0.00e+00	0	43	0	326107136	16	4227
2026-01-18 11:24:32.77	203.11	15.81	-27.7	-29.0	15.1	0.00e+00	0	43	0	329252864	16	4186
2026-01-18 11:24:33.77	203.22	15.91	-27.7	-29.0	15.1	7.00e-07	0	43	0	332398592	16	4183
2026-01-18 11:24:34.77	203.33	16.00	-27.6	-28.8	15.2	1.60e-05	0	43	0	335544320	16	4130
2026-01-18 11:24:35.78	203.45	16.10	-27.7	-29.0	15.1	1.50e-06	0	43	0	338690048	16	4191
2026-01-18 11:24:36.78	203.57	16.20	-27.6	-28.9	15.1	0.00e+00	0	43	0	341835776	16	4167
2026-01-18 11:24:37.78	203.68	16.29	-27.7	-28.9	15.1	5.30e-06	0	43	0	344981504	16	4180
2026-01-18 11:24:38.78	203.80	16.39	-27.6	-28.9	15.1	0.00e+00	0	43	0	348127232	16	4162
2026-01-18 11:24:39.78	203.92	16.48	-27.6	-28.9	15.1	0.00e+00	0	43	0	350224384	16	4174
2026-01-18 11:24:40.79	204.04	16.58	-27.6	-28.9	15.2	0.00e+00	0	43	0	354418688	16	4163
2026-01-18 11:24:41.79	204.16	16.68	-27.7	-29.1	15.0	0.00e+00	0	43	0	357564416	16	4235
2026-01-18 11:24:42.80	204.28	16.78	-27.7	-29.0	15.1	0.00e+00	0	43	0	360710144	16	4208
2026-01-18 11:24:43.80	204.40	16.87	-27.8	-29.2	15.0	9.90e-06	0	43	0	363855872	16	4264
2026-01-18 11:24:44.80	204.52	16.97	-27.8	-29.3	14.9	0.00e+00	0	43	0	367001600	16	4272
2026-01-18 11:24:45.81	204.65	17.07	-27.8	-29.4	14.9	0.00e+00	0	43	0	370147328	16	4297
2026-01-18 11:24:46.80	204.77	17.17	-27.8	-29.2	15.0	0.00e+00	0	43	0	372244480	16	4239
2026-01-18 11:24:47.80	204.89	17.27	-27.8	-29.2	15.0	0.00e+00	0	43	0	375390208	16	4257
2026-01-18 11:24:48.81	205.02	17.37	-27.7	-29.2	15.0	0.00e+00	0	43	0	378535936	16	4240
2026-01-18 11:24:49.81	205.15	17.47	-27.8	-29.2	15.0	0.00e+00	0	43	0	381681664	16	4254
2026-01-18 11:24:50.81	205.27	17.57	-27.9	-29.4	14.9	0.00e+00	0	43	0	384827392	16	4303
2026-01-18 11:24:51.81	205.40	17.67	-27.8	-29.3	15.0	0.00e+00	0	43	0	387973120	16	4270
2026-01-18 11:24:52.81	205.53	17.77	-27.8	-29.3	15.0	0.00e+00	0	43	0	391118848	16	4280
2026-01-18 11:24:53.81	205.66	17.87	-27.9	-29.4	14.9	0.00e+00	0	43	0	394264576	16	4304
2026-01-18 11:24:54.82	205.79	17.97	-28.0	-29.6	14.8	0.00e+00	0	43	0	397410304	16	4373
2026-01-18 11:24:55.82	205.92	18.07	-27.9	-29.5	14.9	0.00e+00	0	43	0	400556032	16	4337
2026-01-18 11:24:56.82	206.05	18.17	-28.0	-29.6	14.8	0.00e+00	0	43	0	403701760	16	4369
2026-01-18 11:24:57.82	206.18	18.27	-28.0	-29.7	14.8	0.00e+00	0	43	0	406847488	16	4398
2026-01-18 11:24:58.83	206.32	18.37	-28.0	-29.8	14.7	7.00e-07	0	43	0	409993216	16	4421
2026-01-18 11:24:59.83	206.45	18.48	-28.1	-29.8	14.7	0.00e+00	0	43	0	413138944	16	4426
2026-01-18 11:25:00.84	206.59	18.58	-28.2	-30.1	14.6	0.00e+00	0	43	0	416284672	16	4502
2026-01-18 11:25:01.84	206.72	18.68	-28.1	-30.0	14.6	0.00e+00	0	43	0	419430400	16	4464
2026-01-18 11:25:02.85	206.86	18.79	-28.0	-29.8	14.7	0.00e+00	0	43	0	422576128	16	4421
2026-01-18 11:25:03.85	207.00	18.89	-28.1	-29.9	14.7	0.00e+00	0	43	0	425721856	16	4453
2026-01-18 11:25:04.85	207.14	18.99	-28.0	-29.8	14.7	7.00e-07	0	43	0	428867584	16	4413
2026-01-18 11:25:05.86	207.28	19.10	-27.9	-29.5	14.9	0.00e+00	0	43	0	432013312	16	4342
2026-01-18 11:25:06.87	207.42	19.20	-28.0	-29.7	14.8	0.00e+00	0	43	0	435159040	16	4381
2026-01-18 11:25:07.87	207.56	19.31	-27.9	-29.6	14.8	0.00e+00	0	43	0	438304768	16	4369
2026-01-18 11:25:08.88	207.71	19.41	-27.9	-29.5	14.9	0.00e+00	0	43	0	441450496	16	4346
2026-01-18 11:25:09.88	207.85	19.52	-28.0	-29.8	14.8	0.00e+00	0	43	0	444596224	16	4409
2026-01-18 11:25:10.89	207.99	19.62	-27.9	-29.5	14.9	0.00e+00	0	43	0	447741952	16	4329
2026-01-18 11:25:11.89	208.14	19.73	-27.8	-29.4	15.0	0.00e+00	0	43	0	450887680	16	4295
2026-01-18 11:25:12.90	208.29	19.83	-27.9	-29.4	15.0	0.00e+00	0	43	0	454033408	16	4302
2026-01-18 11:25:13.89	208.43	19.94	-27.8	-29.2	15.1	0.00e+00	0	43	0	457179136	16	4249
2026-01-18 11:25:14.90	208.58	20.05	-27.7	-29.1	15.2	0.00e+00	0	43	0	460324864	16	4220
2026-01-18 11:25:15.90	208.73	20.15	-27.8	-29.2	15.2	0.00e+00	0	43	0	463470592	16	4229
2026-01-18 11:25:16.90	208.88	20.26	-27.8	-29.2	15.1	0.00e+00	0	43	0	466616320	16	4242
2026-01-18 11:25:17.90	209.03	20.37	-27.8	-29.3	15.1	0.00e+00	0	43	0	469762048	16	4278
2026-01-18 11:25:18.90	209.19	20.47	-27.7	-29.0	15.3	0.00e+00	0	43	0	472907776	16	4196
2026-01-18 11:25:19.89	209.34	20.58	-27.7	-29.0	15.3	0.00e+00	0	44	0	476053504	16	4198
2026-01-18 11:25:20.89	209.49	20.69	-27.7	-29.1	15.2	0.00e+00	0	43	0	479199232	16	4217
2026-01-18 11:25:21.89	209.65	20.79	-27.7	-29.0	15.2	0.00e+00	0	43	0	482344960	16	4203
2026-01-18 11:25:22.90	209.81	20.90	-27.7	-29.0	15.3	0.00e+00	0	43	0	485490688	16	4185
2026-01-18 11:25:23.90	209.96	21.01	-27.7	-29.1	15.2	0.00e+00	0	43	0	488636416	16	4217
2026-01-18 11:25:24.90	210.12	21.12	-27.6	-28.9	15.3	0.00e+00	0	43	0	491782144	16	4158
2026-01-18 11:25:25.91	210.28	21.23	-27.6	-28.9	15.4	0.00e+00	0	43	0	494927872	16	4151
2026-01-18 11:25:26.91	210.44	21.34	-27.6	-28.8	15.4	0.00e+00	0	43	0	498073600	16	4140
2026-01-18 11:25:27.92	210.61	21.45	-27.6	-28.8	15.4	0.00e+00	0	43	0	501219328	16	4143
2026-01-18 11:25:28.92	210.77	21.56	-27.8	-29.3	15.1	0.00e+00	0	43	0	504365056	16	4272
2026-01-18 11:25:29.92	210.93	21.67	-27.7	-28.9	15.3	0.00e+00	0	43	0	507510784	16	4166
2026-01-18 11:25:30.93	211.10	21.78	-27.5	-28.5	15.6	0.00e+00	0	43	0	510656512	16	4043
2026-01-18 11:25:31.94	211.27	21.89	-27.3	-28.2	15.8	0.00e+00	0	43	0	513802240	16	3979
2026-01-18 11:25:32.95	211.44	22.00	-27.4	-28.4	15.7	0.00e+00	0	43	0	516947968	16	4029
2026-01-18 11:25:33.95	211.61	22.11	-27.4	-28.3	15.7	3.00e-06	0	43	0	520093696	16	4009
2026-01-18 11:25:34.95	211.78	22.22	-27.4	-28.4	15.7	0.00e+00	0	43	0	523239424	16	4031
2026-01-18 11:25:35.95	211.95	22.34	-27.1	-28.2	15.9	0.00e+00	0	43	0	526385152	15	4076
2026-01-18 11:25:36.95	212.12	22.45	-27.0	-27.9	16.0	7.00e-07	0	43	0	529530880	15	4017
2026-01-18 11:25:37.96	212.30	22.56	-27.1	-28.1	16.0	0.00e+00	0	43	0	532676608	15	4058
2026-01-18 11:25:38.96	212.47	22.67	-26.9	-27.8	16.1	0.00e+00	0	43	0	535822336	15	3970
2026-01-18 11:25:39.96	212.65	22.78	-26.9	-27.7	16.2	0.00e+00	0	43	0	538968064	15	3950
2026-01-18 11:25:40.97	212.83	22.90	-27.1	-28.1	16.0	0.00e+00	0	43	0	542113792	15	4050
2026-01-18 11:25:41.97	213.00	23.01	-27.1	-28.2	15.9	0.00e+00	0	43	0	545259520	15	4083
2026-01-18 11:25:42.98	213.18	23.12	-27.0	-28.0	16.0	0.00e+00	0	43	0	548405248	15	4037
2026-01-18 11:25:43.98	213.37	23.24	-27.0	-28.0	16.0	0.00e+00	0	43	0	551550976	15	4041
2026-01-18 11:25:44.98	213.55	23.35	-27.1	-28.3	15.9	0.00e+00	0	43	0	554696704	15	4098
2026-01-18 11:25:45.98	213.73	23.46	-26.9	-27.7	16.2	0.00e+00	0	43	0	557842432	15	3948
2026-01-18 11:25:46.99	213.92	23.58	-26.9	-27.7	16.2	0.00e+00	0	43	0	560988160	15	3950
2026-01-18 11:25:47.99	214.10	23.69	-26.9	-27.7	16.2	0.00e+00	0	43	0	564133888	15	3958
2026-01-18 11:25:49.00	214.29	23.81	-27.1	-28.2	15.9	0.00e+00	0	43	0	567279616	15	4084
2026-01-18 11:25:49.99	214.48	23.92	-26.9	-27.8	16.2	0.00e+00	0	43	0	570425344	15	3967
2026-01-18 11:25:50.99	214.67	24.03	-26.8	-27.6	16.3	0.00e+00	0	43	0	573571072	15	3928
2026-01-18 11:25:51.99	214.86	24.15	-26.9	-27.7	16.2	7.00e-07	0	43	0	576716800	15	3943
2026-01-18 11:25:52.99	215.06	24.26	-26.9	-27.7	16.2	0.00e+00	0	43	0	579862528	15	3959
2026-01-18 11:25:53.99	215.25	24.38	-27.0	-28.0	16.0	0.00e+00	0	43	0	583008256	15	4033
2026-01-18 11:25:54.99	215.45	24.49	-27.0	-27.8	16.1	0.00e+00	0	43	0	586153984	15	3984
2026-01-18 11:25:55.99	215.64	24.61	-27.1	-28.1	16.0	0.00e+00	0	43	0	589299712	15	4052
2026-01-18 11:25:56.99	215.84	24.72	-27.2	-28.3	15.9	0.00e+00	0	43	0	592445440	15	4107
2026-01-18 11:25:57.99	216.04	24.84	-27.0	-28.0	16.1	0.00e+00	0	43	0	595591168	15	4032
2026-01-18 11:25:58.99	216.24	24.96	-27.1	-28.2	16.0	0.00e+00	0	43	0	598736896	15	4075
2026-01-18 11:25:59.99	216.45	25.07	-27.1	-28.3	15.9	0.00e+00	0	43	0	601882624	15	4098
2026-01-18 11:26:00.99	216.65	25.19	-27.1	-28.1	16.0	0.00e+00	0	43	0	605028352	15	4055
2026-01-18 11:26:01.99	216.86	25.30	-27.1	-28.3	16.0	0.00e+00	0	43	0	608174080	15	4097
2026-01-18 11:26:03.00	217.06	25.42	-27.1	-28.3	15.9	0.00e+00	0	43	0	611319808	15	4099
2026-01-18 11:26:04.00	217.27	25.54	-27.3	-28.6	15.8	0.00e+00	0	43	0	614465536	15	4186
2026-01-18 11:26:05.01	217.49	25.65	-27.1	-28.3	15.9	0.00e+00	0	43	0	617611264	15	4100
2026-01-18 11:26:06.01	217.70	25.77	-27.1	-28.2	16.0	0.00e+00	0	43	0	620756992	15	4086
2026-01-18 11:26:07.02	217.91	25.89	-27.1	-28.2	16.0	0.00e+00	0	43	0	623902720	15	4091
2026-01-18 11:26:08.02	218.13	26.01	-26.9	-27.8	16.2	0.00e+00	0	43	0	625999872	15	3986
2026-01-18 11:26:09.02	218.34	26.12	-27.1	-28.1	16.0	0.00e+00	0	43	0	629145600	15	4052
2026-01-18 11:26:10.02	218.56	26.24	-27.0	-27.9	16.2	0.00e+00	0	43	0	632291328	15	3997
2026-01-18 11:26:11.03	218.78	26.36	-27.0	-28.0	16.1	0.00e+00	0	43	0	635437056	15	4023
2026-01-18 11:26:12.01	219.00	26.47	-27.2	-28.3	16.0	0.00e+00	0	43	0	638582784	15	4100
2026-01-18 11:26:13.01	219.22	26.59	-27.1	-28.2	16.0	0.00e+00	0	43	0	641728512	15	4071
2026-01-18 11:26:14.01	219.45	26.71	-27.1	-28.3	16.0	0.00e+00	0	43	0	644874240	15	4093
2026-01-18 11:26:15.01	219.67	26.82	-27.2	-28.3	16.0	0.00e+00	0	43	0	648019968	15	4103
2026-01-18 11:26:16.01	219.90	26.94	-27.3	-28.7	15.7	0.00e+00	0	43	0	651165696	15	4208
2026-01-18 11:26:17.02	220.13	27.06	-27.4	-28.8	15.7	0.00e+00	0	43	0	654311424	15	4239
2026-01-18 11:26:18.03	220.36	27.18	-27.5	-29.0	15.6	0.00e+00	0	43	0	657457152	15	4304
2026-01-18 11:26:19.03	220.60	27.29	-27.5	-29.0	15.6	0.00e+00	0	43	0	660602880	15	4304
2026-01-18 11:26:20.03	220.83	27.41	-27.6	-29.3	15.4	0.00e+00	0	43	0	663748608	15	4390
2026-01-18 11:26:21.03	221.07	27.53	-27.5	-29.1	15.5	0.00e+00	0	43	0	666894336	15	4334
2026-01-18 11:26:22.03	221.30	27.65	-27.6	-29.4	15.4	0.00e+00	0	43	0	670040064	15	4398
2026-01-18 11:26:23.03	221.54	27.76	-27.5	-29.1	15.6	0.00e+00	0	43	0	673185792	15	4310
2026-01-18 11:26:24.03	221.78	27.88	-27.7	-29.5	15.3	0.00e+00	0	43	0	676331520	15	4436
2026-01-18 11:26:25.04	222.03	28.00	-27.4	-28.9	15.6	0.00e+00	0	43	0	679477248	15	4273
2026-01-18 11:26:26.04	222.27	28.12	-27.5	-29.1	15.6	0.00e+00	0	43	0	682622976	15	4316
2026-01-18 11:26:27.04	222.52	28.23	-27.5	-29.1	15.6	0.00e+00	0	43	0	685768704	15	4309
2026-01-18 11:26:28.04	222.77	28.35	-27.4	-28.9	15.7	0.00e+00	0	43	0	688914432	15	4252
2026-01-18 11:26:29.05	223.02	28.47	-27.4	-28.8	15.8	0.00e+00	0	43	0	692060160	15	4233
2026-01-18 11:26:30.05	223.27	28.58	-27.5	-29.0	15.6	0.00e+00	0	43	0	695205888	15	4295
2026-01-18 11:26:31.05	223.53	28.70	-27.4	-28.8	15.7	0.00e+00	0	43	0	698351616	15	4236
2026-01-18 11:26:32.06	223.78	28.82	-27.3	-28.7	15.8	0.00e+00	0	43	0	701497344	15	4218
2026-01-18 11:26:33.06	224.04	28.94	-27.5	-29.1	15.6	0.00e+00	0	43	0	704643072	15	4324
2026-01-18 11:26:34.06	224.30	29.05	-27.3	-28.7	15.8	0.00e+00	0	43	0	707788800	15	4204
2026-01-18 11:26:35.07	224.56	29.17	-27.2	-28.5	15.9	0.00e+00	0	43	0	710934528	15	4148
2026-01-18 11:26:36.07	224.83	29.29	-27.2	-28.5	15.9	0.00e+00	0	43	0	714080256	15	4150
2026-01-18 11:26:37.07	225.09	29.40	-27.4	-28.7	15.8	0.00e+00	0	43	0	717225984	15	4214
2026-01-18 11:26:38.08	225.36	29.52	-27.2	-28.5	15.9	0.00e+00	0	43	0	720371712	15	4140
2026-01-18 11:26:39.08	225.63	29.63	-27.2	-28.3	16.0	0.00e+00	0	43	0	723517440	15	4111
2026-01-18 11:26:40.08	225.90	29.75	-27.2	-28.4	16.0	0.00e+00	0	43	0	726663168	15	4118
2026-01-18 11:26:41.08	226.17	29.86	-27.3	-28.6	15.9	0.00e+00	0	43	0	729808896	15	4177
2026-01-18 11:26:42.09	226.45	29.98	-27.4	-28.8	15.8	0.00e+00	0	43	0	732954624	15	4230
2026-01-18 11:26:43.09	226.72	30.09	-27.3	-28.5	15.9	0.00e+00	0	43	0	736100352	15	4166
2026-01-18 11:26:44.09	227.00	30.21	-27.2	-28.5	15.9	0.00e+00	0	43	0	739246080	15	4143
2026-01-18 11:26:45.08	227.28	30.32	-27.4	-28.7	15.8	0.00e+00	0	43	0	742391808	15	4211
2026-01-18 11:26:46.09	227.56	30.44	-27.1	-28.2	16.1	0.00e+00	0	43	0	745537536	15	4077
2026-01-18 11:26:47.10	227.85	30.55	-27.2	-28.4	16.0	0.00e+00	0	43	0	748683264	15	4124
2026-01-18 11:26:48.10	228.13	30.66	-27.4	-28.8	15.8	0.00e+00	0	43	0	751828992	15	4219
2026-01-18 11:26:49.10	228.42	30.78	-27.3	-28.7	15.8	0.00e+00	0	43	0	754974720	15	4190
2026-01-18 11:26:50.11	228.71	30.89	-27.4	-28.8	15.8	0.00e+00	0	43	0	758120448	15	4228
2026-01-18 11:26:51.11	229.00	31.00	-27.6	-29.2	15.6	0.00e+00	0	43	0	761266176	15	4339
2026-01-18 11:26:52.11	229.30	31.11	-27.6	-29.2	15.6	0.00e+00	0	43	0	764411904	15	4334
2026-01-18 11:26:53.12	229.59	31.23	-27.7	-29.5	15.4	0.00e+00	0	43	0	767557632	15	4429
2026-01-18 11:26:54.12	229.89	31.34	-27.7	-29.4	15.4	0.00e+00	0	43	0	770703360	15	4402
2026-01-18 11:26:55.13	230.19	31.45	-27.6	-29.3	15.5	0.00e+00	0	43	0	773849088	15	4365
2026-01-18 11:26:56.13	230.50	31.56	-27.6	-29.2	15.5	0.00e+00	0	43	0	776994816	15	4354
2026-01-18 11:26:57.14	230.80	31.67	-27.6	-29.3	15.5	0.00e+00	0	43	0	780140544	15	4382
2026-01-18 11:26:58.14	231.11	31.78	-27.5	-29.0	15.7	0.00e+00	0	43	0	783286272	15	4288
2026-01-18 11:26:59.14	231.41	31.89	-27.6	-29.2	15.6	0.00e+00	0	43	0	786432000	15	4335
2026-01-18 11:27:00.14	231.72	32.00	-27.8	-29.7	15.3	7.00e-07	0	43	0	789577728	15	4492
2026-01-18 11:27:01.14	232.04	32.10	-27.9	-30.0	15.1	0.00e+00	0	43	0	792723456	15	4584
2026-01-18 11:27:02.15	232.35	32.21	-27.9	-30.0	15.1	0.00e+00	0	43	0	795869184	15	4577
2026-01-18 11:27:03.14	232.66	32.32	-28.2	-30.1	14.9	7.00e-07	0	43	0	799014912	16	4488
2026-01-18 11:27:04.15	232.99	32.42	-28.2	-30.2	14.9	0.00e+00	0	43	0	802160640	16	4502
2026-01-18 11:27:05.15	233.31	32.53	-28.4	-30.4	14.8	0.00e+00	0	43	0	805306368	16	4573
2026-01-18 11:27:06.16	233.63	32.63	-28.4	-30.7	14.7	3.00e-06	0	43	0	808452096	16	4645
2026-01-18 11:27:07.17	233.96	32.74	-28.6	-30.6	14.5	7.00e-07	0	43	0	811597824	17	4511
2026-01-18 11:27:08.17	234.28	32.84	-28.9	-31.1	14.1	2.20e-06	0	43	0	814743552	17	4665
2026-01-18 11:27:09.18	234.61	32.95	-28.7	-30.8	14.4	2.20e-06	0	43	0	817889280	17	4566
2026-01-18 11:27:10.19	234.95	33.05	-28.5	-30.4	14.5	0.00e+00	0	43	0	821035008	17	4447
2026-01-18 11:27:11.19	235.28	33.15	-28.6	-30.4	14.5	0.00e+00	0	43	0	824180736	17	4447
2026-01-18 11:27:12.19	235.61	33.25	-28.5	-30.4	14.6	0.00e+00	0	43	0	827326464	17	4442
2026-01-18 11:27:13.19	235.95	33.35	-28.6	-30.4	14.5	7.00e-07	0	43	0	830472192	17	4457
2026-01-18 11:27:14.20	236.29	33.45	-28.8	-30.9	14.3	7.00e-07	0	43	0	833617920	17	4593
2026-01-18 11:27:15.19	236.63	33.55	-28.8	-30.9	14.3	0.00e+00	0	43	0	836763648	17	4597
2026-01-18 11:27:16.19	236.97	33.65	-28.8	-31.1	14.2	0.00e+00	0	43	0	839909376	17	4646
2026-01-18 11:27:17.20	237.32	33.74	-28.7	-30.7	14.4	7.00e-07	0	43	0	843055104	17	4545
2026-01-18 11:27:18.20	237.66	33.84	-28.7	-30.8	14.3	7.00e-07	0	43	0	846200832	17	4564
2026-01-18 11:27:19.21	238.01	33.94	-28.7	-30.8	14.4	7.00e-07	0	43	0	849346560	17	4570
2026-01-18 11:27:20.22	238.37	34.03	-28.7	-30.7	14.4	7.00e-07	0	43	0	852492288	17	4554
2026-01-18 11:27:21.22	238.72	34.12	-28.8	-31.0	14.3	1.50e-06	0	43	0	855638016	17	4631
2026-01-18 11:27:22.22	239.07	34.22	-28.8	-31.1	14.2	0.00e+00	0	43	0	858783744	17	4652
2026-01-18 11:27:23.23	239.43	34.31	-28.7	-30.7	14.4	7.00e-07	0	43	0	861929472	17	4528
2026-01-18 11:27:24.23	239.79	34.40	-28.7	-30.7	14.4	7.00e-07	0	43	0	865075200	17	4550
2026-01-18 11:27:25.24	240.15	34.49	-28.8	-30.8	14.4	7.00e-07	0	43	0	868220928	17	4574
2026-01-18 11:27:26.25	240.52	34.58	-28.8	-30.9	14.3	2.20e-06	0	43	0	871366656	17	4600
2026-01-18 11:27:27.24	240.88	34.67	-28.9	-31.1	14.2	7.00e-07	0	43	0	874512384	17	4663
2026-01-18 11:27:28.24	241.25	34.75	-28.8	-31.0	14.2	7.00e-07	0	43	0	877658112	17	4632
2026-01-18 11:27:29.24	241.61	34.84	-28.8	-31.0	14.2	7.00e-07	0	43	0	880803840	17	4633
2026-01-18 11:27:30.25	241.99	34.92	-28.9	-31.2	14.1	1.50e-06	0	43	0	883949568	17	4694
2026-01-18 11:27:31.26	242.36	35.01	-28.9	-31.3	14.1	3.00e-06	0	43	0	887095296	17	4716
2026-01-18 11:27:32.26	242.73	35.09	-28.8	-31.0	14.3	3.00e-06	0	43	0	890241024	17	4623
2026-01-18 11:27:33.26	243.11	35.17	-28.8	-30.9	14.3	0.00e+00	0	43	0	893386752	17	4605
2026-01-18 11:27:34.26	243.49	35.25	-28.7	-30.7	14.4	0.00e+00	0	43	0	896532480	17	4526
2026-01-18 11:27:35.26	243.86	35.33	-28.9	-31.1	14.2	1.50e-06	0	43	0	899678208	17	4645
2026-01-18 11:27:36.26	244.25	35.41	-29.0	-31.3	14.1	1.50e-06	0	43	0	902823936	17	4714
2026-01-18 11:27:37.26	244.63	35.48	-29.4	-31.8	13.5	9.90e-06	0	43	0	904921088	18	4778
2026-01-18 11:27:38.27	245.02	35.56	-29.0	-31.0	14.0	4.50e-06	0	43	0	908066816	18	4518
2026-01-18 11:27:39.27	245.40	35.63	-28.7	-30.3	14.4	7.00e-07	0	43	0	911212544	18	4305
2026-01-18 11:27:40.27	245.79	35.70	-28.6	-30.1	14.5	0.00e+00	0	43	0	914358272	18	4245
2026-01-18 11:27:41.28	246.18	35.78	-28.6	-30.0	14.6	7.00e-07	0	43	0	917504000	18	4208
2026-01-18 11:27:42.28	246.57	35.85	-28.7	-30.1	14.5	1.50e-06	0	43	0	920649728	18	4255
2026-01-18 11:27:43.28	246.96	35.91	-28.9	-30.7	14.2	1.50e-06	0	43	0	923795456	18	4414
2026-01-18 11:27:44.29	247.36	35.98	-29.1	-31.2	13.9	8.30e-06	0	43	0	926941184	18	4571
2026-01-18 11:27:45.29	247.76	36.05	-28.9	-30.8	14.1	7.00e-07	0	43	0	930086912	18	4445
2026-01-18 11:27:46.29	248.16	36.11	-28.7	-30.2	14.5	7.00e-07	0	43	0	933232640	18	4274
2026-01-18 11:27:47.29	248.55	36.18	-28.6	-30.0	14.6	0.00e+00	0	43	0	936378368	18	4229
2026-01-18 11:27:48.30	248.96	36.24	-28.6	-30.0	14.6	0.00e+00	0	43	0	939524096	18	4226
2026-01-18 11:27:49.30	249.36	36.30	-28.7	-30.3	14.4	0.00e+00	0	43	0	942669824	18	4308
2026-01-18 11:27:50.30	249.76	36.36	-29.0	-30.8	14.1	5.30e-06	0	43	0	945815552	18	4467
2026-01-18 11:27:51.30	250.17	36.41	-28.9	-30.6	14.2	1.50e-06	0	43	0	948961280	18	4395
2026-01-18 11:27:52.31	250.58	36.47	-28.9	-30.8	14.1	1.50e-06	0	43	0	952107008	18	4442
2026-01-18 11:27:53.31	250.98	36.53	-29.1	-31.1	14.0	6.10e-06	0	43	0	955252736	18	4534
2026-01-18 11:27:54.31	251.39	36.58	-29.1	-31.2	13.9	3.00e-06	0	43	0	958398464	18	4574
2026-01-18 11:27:55.31	251.80	36.63	-29.0	-31.0	14.0	1.50e-06	0	43	0	961544192	18	4498
2026-01-18 11:27:56.32	252.22	36.68	-29.2	-31.3	13.8	1.14e-05	0	43	0	964689920	18	4607
2026-01-18 11:27:57.33	252.63	36.73	-29.2	-31.4	13.8	6.10e-06	0	43	0	967835648	18	4644
2026-01-18 11:27:58.33	253.05	36.78	-29.2	-31.3	13.9	5.30e-06	0	43	0	970981376	18	4606
2026-01-18 11:27:59.33	253.46	36.82	-29.1	-31.2	13.9	1.22e-05	0	43	0	974127104	18	4577
2026-01-18 11:28:00.33	253.88	36.86	-29.2	-31.5	13.7	5.30e-06	0	43	0	977272832	18	4658
2026-01-18 11:28:01.33	254.29	36.91	-29.5	-31.6	13.4	1.52e-05	0	43	0	980418560	19	4580
2026-01-18 11:28:02.34	254.72	36.95	-29.5	-31.5	13.4	2.36e-05	0	43	0	983564288	19	4557
2026-01-18 11:28:03.34	255.14	36.98	-29.5	-31.5	13.4	1.52e-05	0	43	0	986710016	19	4569
2026-01-18 11:28:04.34	255.55	37.02	-29.4	-31.4	13.5	1.06e-05	0	43	0	989855744	19	4541
2026-01-18 11:28:05.34	255.98	37.06	-29.5	-31.6	13.4	1.44e-05	0	43	0	993001472	19	4581
2026-01-18 11:28:06.34	256.40	37.09	-29.4	-31.4	13.5	1.06e-05	0	43	0	996147200	19	4534
2026-01-18 11:28:07.35	256.82	37.12	-29.2	-30.8	13.8	4.50e-06	0	43	0	999292928	19	4349
2026-01-18 11:28:08.35	257.25	37.15	-29.1	-30.6	13.9	3.00e-06	0	43	0	1002438656	19	4287
2026-01-18 11:28:09.35	257.67	37.18	-29.1	-30.7	13.9	3.80e-06	0	43	0	1005584384	19	4322
2026-01-18 11:28:10.35	258.09	37.21	-29.2	-30.8	13.9	3.00e-06	0	43	0	1008730112	19	4339
2026-01-18 11:28:11.36	258.52	37.23	-29.0	-30.3	14.1	2.20e-06	0	43	0	1011875840	19	4207
2026-01-18 11:28:12.36	258.95	37.26	-28.9	-30.0	14.3	1.50e-06	0	43	0	1015021568	19	4128
2026-01-18 11:28:13.36	259.38	37.28	-28.9	-30.2	14.2	0.00e+00	0	43	0	1018167296	19	4158
2026-01-18 11:28:14.35	259.80	37.30	-28.9	-30.1	14.3	1.50e-06	0	43	0	1021313024	19	4150
2026-01-18 11:28:15.36	260.23	37.32	-28.9	-30.1	14.3	0.00e+00	0	43	0	1024458752	19	4144
2026-01-18 11:28:16.36	260.66	37.33	-28.9	-30.0	14.3	7.00e-07	0	43	0	1027604480	19	4120
2026-01-18 11:28:17.36	261.09	37.35	-28.9	-30.1	14.3	0.00e+00	0	43	0	1030750208	19	4156
2026-01-18 11:28:18.36	261.52	37.36	-28.9	-30.1	14.3	7.00e-07	0	43	0	1033895936	19	4152
2026-01-18 11:28:19.36	261.94	37.37	-28.9	-30.1	14.3	1.50e-06	0	43	0	1037041664	19	4141
2026-01-18 11:28:20.36	262.37	37.38	-28.8	-29.9	14.4	7.00e-07	0	43	0	1040187392	19	4078
2026-01-18 11:28:21.36	262.80	37.39	-28.8	-30.5	14.3	2.20e-06	0	43	0	1043333120	18	4346
2026-01-18 11:28:22.36	263.23	37.39	-28.8	-30.5	14.4	7.00e-07	0	43	0	1046478848	18	4357
2026-01-18 11:28:23.37	263.67	37.40	-28.9	-30.6	14.3	1.50e-06	0	43	0	1049624576	18	4390
2026-01-18 11:28:24.37	264.10	37.40	-28.8	-30.3	14.5	0.00e+00	0	43	0	1052770304	18	4313
2026-01-18 11:28:25.37	264.53	37.40	-28.9	-30.5	14.4	1.50e-06	0	43	0	1055916032	18	4370
2026-01-18 11:28:26.38	264.96	37.40	-28.9	-30.7	14.3	1.50e-06	0	43	0	1059061760	18	4412
2026-01-18 11:28:27.38	265.39	37.40	-29.0	-30.8	14.2	7.00e-07	0	43	0	1062207488	18	4461
2026-01-18 11:28:28.39	265.82	37.39	-29.1	-31.1	14.1	2.20e-06	0	43	0	1065353216	18	4529
2026-01-18 11:28:29.39	266.25	37.38	-28.8	-30.5	14.4	0.00e+00	0	43	0	1068498944	18	4355
2026-01-18 11:28:30.39	266.68	37.38	-28.8	-30.4	14.5	7.00e-07	0	43	0	1071644672	18	4326
2026-01-18 11:28:31.39	267.11	37.37	-28.8	-30.5	14.4	0.00e+00	0	43	0	1074790400	18	4344
2026-01-18 11:28:32.39	267.54	37.35	-29.0	-30.8	14.2	7.00e-07	0	43	0	1077936128	18	4446
2026-01-18 11:28:33.40	267.97	37.34	-29.1	-31.1	14.0	1.50e-06	0	43	0	1081081856	18	4528
2026-01-18 11:28:34.40	268.40	37.32	-28.9	-30.6	14.4	0.00e+00	0	43	0	1084227584	18	4387
2026-01-18 11:28:35.40	268.83	37.31	-28.7	-30.2	14.5	7.00e-07	0	43	0	1087373312	18	4271
2026-01-18 11:28:36.41	269.26	37.29	-28.8	-30.3	14.5	1.50e-06	0	43	0	1090519040	18	4303
2026-01-18 11:28:37.41	269.68	37.27	-29.0	-30.8	14.2	7.00e-07	0	43	0	1093664768	18	4443
2026-01-18 11:28:38.42	270.11	37.24	-29.0	-30.9	14.1	7.00e-07	0	43	0	1096810496	18	4482
2026-01-18 11:28:39.43	270.54	37.22	-29.2	-31.3	13.9	3.00e-06	0	43	0	1099956224	18	4593
2026-01-18 11:28:40.42	270.96	37.19	-29.1	-31.2	14.0	3.00e-06	0	43	0	1103101952	18	4580
2026-01-18 11:28:41.43	271.39	37.17	-29.1	-31.1	14.0	1.50e-06	0	43	0	1106247680	18	4519
2026-01-18 11:28:42.43	271.81	37.14	-29.1	-31.1	14.0	4.50e-06	0	43	0	1109393408	18	4538
2026-01-18 11:28:43.43	272.24	37.11	-29.1	-31.1	14.0	7.00e-07	0	43	0	1112539136	18	4534
2026-01-18 11:28:44.44	272.66	37.07	-29.2	-31.3	13.9	2.20e-06	0	43	0	1115684864	18	4585
2026-01-18 11:28:45.45	273.09	37.04	-29.1	-31.2	14.0	5.30e-06	0	43	0	1118830592	18	4565
2026-01-18 11:28:46.45	273.51	37.00	-29.2	-31.3	13.9	3.80e-06	0	43	0	1121976320	18	4587
2026-01-18 11:28:47.45	273.92	36.96	-29.1	-31.2	14.0	2.20e-06	0	43	0	1125122048	18	4551
2026-01-18 11:28:48.45	274.34	36.92	-29.0	-31.0	14.1	7.00e-07	0	43	0	1128267776	18	4500
2026-01-18 11:28:49.45	274.76	36.88	-29.1	-31.0	14.1	2.20e-06	0	43	0	1131413504	18	4517
2026-01-18 11:28:50.47	275.18	36.84	-29.1	-31.2	14.0	1.50e-06	0	44	0	1134559232	18	4573
2026-01-18 11:28:51.47	275.60	36.80	-29.1	-31.2	14.0	3.80e-06	0	43	0	1137704960	18	4560
2026-01-18 11:28:52.47	276.01	36.75	-29.1	-31.2	13.9	6.80e-06	0	43	0	1140850688	18	4567
2026-01-18 11:28:53.48	276.43	36.70	-29.2	-31.4	13.8	6.80e-06	0	43	0	1143996416	18	4630
2026-01-18 11:28:54.48	276.84	36.65	-29.2	-31.5	13.8	6.10e-06	0	43	0	1147142144	18	4652
2026-01-18 11:28:55.48	277.25	36.60	-29.4	-31.8	13.6	9.10e-06	0	43	0	1150287872	18	4762
2026-01-18 11:28:56.48	277.66	36.55	-29.4	-31.9	13.6	9.10e-06	0	43	0	1153433600	18	4799
2026-01-18 11:28:57.48	278.06	36.50	-29.4	-31.3	13.6	1.22e-05	0	43	0	1155530752	19	4510
2026-01-18 11:28:58.48	278.47	36.44	-29.4	-31.4	13.6	8.30e-06	0	43	0	1158676480	19	4521
2026-01-18 11:28:59.49	278.88	36.39	-29.3	-31.0	13.8	9.10e-06	0	43	0	1161822208	19	4404
2026-01-18 11:29:00.49	279.28	36.33	-28.9	-30.3	14.2	4.50e-06	0	43	0	1166016512	19	4184
2026-01-18 11:29:01.50	279.69	36.27	-29.0	-30.4	14.2	1.50e-06	0	43	0	1169162240	19	4216
2026-01-18 11:29:02.50	280.09	36.21	-29.3	-31.1	13.8	2.20e-06	0	43	0	1172307968	19	4428
2026-01-18 11:29:03.50	280.48	36.14	-29.3	-31.2	13.7	6.80e-06	0	43	0	1175453696	19	4461
2026-01-18 11:29:04.50	280.88	36.08	-29.4	-31.3	13.6	5.30e-06	0	43	0	1178599424	19	4503
2026-01-18 11:29:05.50	281.28	36.02	-29.3	-31.2	13.7	3.80e-06	0	43	0	1180696576	19	4463
2026-01-18 11:29:06.51	281.67	35.95	-29.2	-30.8	13.9	6.80e-06	0	43	0	1183842304	19	4332
2026-01-18 11:29:07.52	282.07	35.88	-29.2	-30.9	13.8	6.80e-06	0	43	0	1186988032	19	4361
2026-01-18 11:29:08.52	282.46	35.81	-29.2	-30.9	13.8	3.00e-06	0	43	0	1190133760	19	4364
2026-01-18 11:29:09.51	282.85	35.74	-29.1	-30.7	14.0	0.00e+00	0	43	0	1193279488	19	4312
2026-01-18 11:29:10.51	283.23	35.67	-28.9	-30.2	14.3	7.00e-07	0	43	0	1196425216	19	4179
2026-01-18 11:29:11.51	283.62	35.60	-29.0	-30.3	14.2	2.20e-06	0	43	0	1199570944	19	4207
2026-01-18 11:29:12.51	284.00	35.52	-29.1	-30.7	14.0	7.00e-07	0	43	0	1202716672	19	4299
2026-01-18 11:29:13.51	284.38	35.45	-29.2	-30.8	13.9	1.50e-06	0	43	0	1205862400	19	4344
2026-01-18 11:29:14.51	284.76	35.37	-29.2	-31.0	13.8	3.80e-06	0	43	0	1209008128	19	4395
2026-01-18 11:29:15.51	285.14	35.29	-29.1	-30.6	14.0	3.00e-06	0	43	0	1212153856	19	4286
2026-01-18 11:29:16.51	285.52	35.21	-29.0	-30.4	14.2	2.20e-06	0	43	0	1215299584	19	4210
2026-01-18 11:29:17.51	285.90	35.13	-29.0	-30.3	14.3	1.50e-06	0	43	0	1218445312	19	4189
2026-01-18 11:29:18.52	286.27	35.05	-29.0	-30.3	14.3	1.50e-06	0	43	0	1221591040	19	4187
2026-01-18 11:29:19.52	286.64	34.97	-28.8	-30.3	14.5	1.50e-06	0	43	0	1224736768	18	4305
2026-01-18 11:29:20.53	287.02	34.89	-28.5	-29.8	14.8	0.00e+00	0	43	0	1227882496	18	4158
2026-01-18 11:29:21.53	287.38	34.80	-28.5	-29.6	14.9	0.00e+00	0	43	0	1231028224	18	4096
2026-01-18 11:29:22.53	287.75	34.71	-28.5	-29.7	14.8	7.00e-07	0	43	0	1234173952	18	4133
2026-01-18 11:29:23.53	288.11	34.63	-28.7	-30.2	14.6	0.00e+00	0	43	0	1237319680	18	4275
2026-01-18 11:29:24.54	288.48	34.54	-28.9	-30.6	14.4	1.50e-06	0	43	0	1240465408	18	4387
2026-01-18 11:29:25.54	288.84	34.45	-28.9	-30.6	14.3	0.00e+00	0	43	0	1243611136	18	4384
2026-01-18 11:29:26.55	289.20	34.36	-28.6	-29.9	14.7	0.00e+00	0	43	0	1246756864	18	4178
2026-01-18 11:29:27.55	289.56	34.27	-28.4	-29.6	14.9	0.00e+00	0	43	0	1249902592	18	4095
2026-01-18 11:29:28.55	289.91	34.18	-28.6	-29.8	14.8	0.00e+00	0	43	0	1253048320	18	4176
2026-01-18 11:29:29.55	290.26	34.09	-28.7	-30.2	14.6	0.00e+00	0	43	0	1256194048	18	4262
2026-01-18 11:29:30.55	290.61	33.99	-28.7	-30.2	14.6	7.00e-07	0	43	0	1259339776	18	4265
2026-01-18 11:29:31.55	290.96	33.90	-28.6	-29.9	14.7	0.00e+00	0	43	0	1262485504	18	4196
2026-01-18 11:29:32.55	291.31	33.80	-28.7	-30.1	14.6	0.00e+00	0	43	0	1265631232	18	4247
2026-01-18 11:29:33.55	291.65	33.71	-28.6	-30.0	14.7	0.00e+00	0	43	0	1268776960	18	4230
2026-01-18 11:29:34.56	291.99	33.61	-28.5	-29.7	14.8	0.00e+00	0	43	0	1271922688	18	4148
2026-01-18 11:29:35.56	292.33	33.51	-28.3	-29.2	15.1	0.00e+00	0	43	0	1275068416	18	4002
2026-01-18 11:29:36.56	292.67	33.41	-28.1	-29.3	15.3	0.00e+00	0	43	0	1278214144	17	4129
2026-01-18 11:29:37.56	293.01	33.32	-28.1	-29.2	15.4	0.00e+00	0	43	0	1281359872	17	4105
2026-01-18 11:29:38.56	293.34	33.22	-28.2	-29.5	15.2	0.00e+00	0	43	0	1284505600	17	4186
2026-01-18 11:29:39.56	293.67	33.12	-28.3	-29.7	15.1	0.00e+00	0	43	0	1287651328	17	4238
2026-01-18 11:29:40.56	294.00	33.01	-28.3	-29.7	15.1	0.00e+00	0	43	0	1290797056	17	4235
2026-01-18 11:29:41.56	294.33	32.91	-28.3	-29.8	15.0	0.00e+00	0	43	0	1293942784	17	4278
2026-01-18 11:29:42.56	294.66	32.81	-28.3	-29.9	15.0	0.00e+00	0	43	0	1297088512	17	4289
2026-01-18 11:29:43.56	294.98	32.71	-28.3	-29.8	15.1	0.00e+00	0	43	0	1300234240	17	4270
2026-01-18 11:29:44.56	295.30	32.60	-28.2	-29.4	15.3	0.00e+00	0	43	0	1303379968	17	4164
2026-01-18 11:29:45.56	295.62	32.50	-28.2	-29.6	15.2	0.00e+00	0	43	0	1306525696	17	4217
2026-01-18 11:29:46.56	295.94	32.39	-28.2	-29.4	15.3	0.00e+00	0	43	0	1309671424	17	4159
2026-01-18 11:29:47.57	296.26	32.29	-28.1	-29.2	15.4	7.00e-07	0	43	0	1312817152	17	4113
2026-01-18 11:29:48.58	296.58	32.18	-28.0	-29.1	15.4	0.00e+00	0	43	0	1315962880	17	4088
2026-01-18 11:29:49.58	296.89	32.07	-28.1	-29.3	15.4	0.00e+00	0	43	0	1319108608	17	4130
2026-01-18 11:29:50.58	297.20	31.97	-28.2	-29.5	15.2	0.00e+00	0	43	0	1322254336	17	4187
2026-01-18 11:29:51.58	297.50	31.86	-28.2	-29.5	15.3	0.00e+00	0	44	0	1325400064	17	4188
2026-01-18 11:29:52.59	297.81	31.75	-28.3	-29.7	15.1	0.00e+00	0	43	0	1328545792	17	4235
2026-01-18 11:29:53.59	298.12	31.64	-28.2	-29.5	15.2	0.00e+00	0	43	0	1331691520	17	4196
2026-01-18 11:29:54.59	298.42	31.53	-28.1	-29.2	15.4	0.00e+00	0	43	0	1334837248	17	4122
2026-01-18 11:29:55.60	298.72	31.42	-28.0	-29.1	15.4	0.00e+00	0	43	0	1337982976	17	4095
2026-01-18 11:29:56.60	299.02	31.31	-28.1	-29.4	15.2	7.00e-07	0	43	0	1341128704	17	4167
2026-01-18 11:29:57.61	299.32	31.20	-28.1	-29.2	15.4	0.00e+00	0	43	0	1344274432	17	4109
2026-01-18 11:29:58.61	299.61	31.09	-27.9	-28.8	15.6	0.00e+00	0	43	0	1347420160	17	4007
2026-01-18 11:29:59.62	299.90	30.98	-27.7	-29.0	15.8	0.00e+00	0	43	0	1350565888	16	4149
2026-01-18 11:30:00.62	300.19	30.87	-27.7	-29.0	15.8	0.00e+00	0	43	0	1353711616	16	4146
2026-01-18 11:30:01.62	300.48	30.75	-27.8	-29.0	15.7	0.00e+00	0	43	0	1356857344	16	4164
2026-01-18 11:30:02.62	300.77	30.64	-27.9	-29.4	15.5	0.00e+00	0	43	0	1360003072	16	4270
2026-01-18 11:30:03.62	301.05	30.53	-28.0	-29.7	15.4	0.00e+00	0	43	0	1363148800	16	4339
2026-01-18 11:30:04.62	301.33	30.42	-28.1	-29.7	15.3	0.00e+00	0	43	0	1366294528	16	4357
2026-01-18 11:30:05.63	301.61	30.30	-28.1	-29.7	15.3	0.00e+00	0	43	0	1369440256	16	4359
2026-01-18 11:30:06.63	301.89	30.19	-28.1	-29.7	15.3	0.00e+00	0	43	0	1372585984	16	4359
2026-01-18 11:30:07.63	302.17	30.07	-28.0	-29.6	15.4	0.00e+00	0	43	0	1375731712	16	4328
2026-01-18 11:30:08.64	302.44	29.96	-27.9	-29.3	15.6	0.00e+00	0	43	0	1378877440	16	4232
2026-01-18 11:30:09.64	302.72	29.85	-27.9	-29.3	15.6	0.00e+00	0	43	0	1382023168	16	4239
2026-01-18 11:30:10.64	302.99	29.73	-27.7	-28.9	15.8	0.00e+00	0	43	0	1385168896	16	4129
2026-01-18 11:30:11.64	303.26	29.62	-27.6	-28.6	15.9	0.00e+00	0	43	0	1387266048	16	4063
2026-01-18 11:30:12.65	303.52	29.50	-27.5	-28.5	16.0	0.00e+00	0	43	0	1391460352	16	4027
2026-01-18 11:30:13.65	303.79	29.39	-27.5	-28.5	16.0	0.00e+00	0	43	0	1394606080	16	4020
2026-01-18 11:30:14.65	304.05	29.27	-27.5	-28.5	16.0	0.00e+00	0	43	0	1397751808	16	4037
2026-01-18 11:30:15.65	304.31	29.16	-27.5	-28.5	16.0	0.00e+00	0	43	0	1400897536	16	4024
2026-01-18 11:30:16.65	304.57	29.04	-27.5	-28.4	16.1	0.00e+00	0	43	0	1404043264	16	3993
2026-01-18 11:30:17.66	304.83	28.92	-27.5	-28.4	16.1	0.00e+00	0	43	0	1407188992	16	3988
2026-01-18 11:30:18.67	305.09	28.81	-27.4	-28.2	16.2	0.00e+00	0	43	0	1409286144	16	3953
2026-01-18 11:30:19.67	305.34	28.69	-27.4	-28.2	16.1	0.00e+00	0	43	0	1412431872	16	3959
2026-01-18 11:30:20.67	305.59	28.57	-27.5	-28.5	16.0	0.00e+00	0	43	0	1415577600	16	4039
2026-01-18 11:30:21.68	305.85	28.46	-27.7	-29.0	15.8	0.00e+00	0	43	0	1418723328	16	4152
2026-01-18 11:30:22.68	306.09	28.34	-27.8	-29.1	15.7	0.00e+00	0	43	0	1421869056	16	4179
2026-01-18 11:30:23.68	306.34	28.23	-27.8	-29.2	15.6	0.00e+00	0	43	0	1425014784	16	4222
2026-01-18 11:30:24.69	306.59	28.11	-27.7	-28.9	15.8	0.00e+00	0	43	0	1429209088	16	4142
2026-01-18 11:30:25.70	306.83	27.99	-27.6	-28.6	15.9	0.00e+00	0	43	0	1432354816	16	4066
2026-01-18 11:30:26.70	307.07	27.87	-27.6	-28.8	15.8	0.00e+00	0	43	0	1434451968	16	4095
2026-01-18 11:30:27.70	307.31	27.76	-27.5	-28.4	16.0	0.00e+00	0	43	0	1437597696	16	4008
2026-01-18 11:30:28.71	307.55	27.64	-27.5	-28.5	16.0	0.00e+00	0	43	0	1440743424	16	4023
2026-01-18 11:30:29.71	307.79	27.52	-27.7	-28.8	15.8	0.00e+00	0	43	0	1443889152	16	4102
2026-01-18 11:30:30.72	308.03	27.41	-27.5	-28.4	16.0	0.00e+00	0	43	0	1447034880	16	4001
2026-01-18 11:30:31.72	308.26	27.29	-27.3	-27.9	16.3	0.00e+00	0	43	0	1450180608	16	3873
2026-01-18 11:30:32.73	308.49	27.17	-27.1	-28.0	16.4	0.00e+00	0	43	0	1453326336	15	4014
2026-01-18 11:30:33.73	308.72	27.06	-27.1	-28.2	16.3	0.00e+00	0	43	0	1456472064	15	4050
2026-01-18 11:30:34.73	308.95	26.94	-27.3	-28.4	16.2	0.00e+00	0	43	0	1459617792	15	4124
2026-01-18 11:30:35.73	309.18	26.82	-27.2	-28.2	16.3	0.00e+00	0	43	0	1462763520	15	4065
2026-01-18 11:30:36.73	309.40	26.71	-27.2	-28.2	16.3	0.00e+00	0	43	0	1465909248	15	4056
2026-01-18 11:30:37.74	309.63	26.59	-27.2	-28.4	16.1	0.00e+00	0	43	0	1469054976	15	4108
2026-01-18 11:30:38.74	309.85	26.47	-27.3	-28.5	16.1	0.00e+00	0	43	0	1472200704	15	4140
2026-01-18 11:30:39.74	310.07	26.36	-27.3	-28.6	16.1	0.00e+00	0	43	0	1475346432	15	4153
2026-01-18 11:30:40.75	310.29	26.24	-27.4	-28.7	16.0	0.00e+00	0	43	0	1478492160	15	4183
2026-01-18 11:30:41.75	310.50	26.12	-27.2	-28.3	16.1	0.00e+00	0	43	0	1481637888	15	4096
2026-01-18 11:30:42.76	310.72	26.01	-27.2	-28.4	16.1	0.00e+00	0	43	0	1484783616	15	4105
2026-01-18 11:30:43.76	310.93	25.89	-27.4	-28.8	15.9	0.00e+00	0	43	0	1487929344	15	4219
2026-01-18 11:30:44.76	311.15	25.77	-27.5	-29.0	15.8	0.00e+00	0	43	0	1491075072	15	4266
2026-01-18 11:30:45.76	311.36	25.66	-27.5	-29.0	15.8	0.00e+00	0	43	0	1494220800	15	4274
2026-01-18 11:30:46.76	311.56	25.54	-27.5	-29.0	15.8	0.00e+00	0	43	0	1497366528	15	4272
2026-01-18 11:30:47.76	311.77	25.43	-27.7	-29.3	15.6	0.00e+00	0	43	0	1500512256	15	4370
2026-01-18 11:30:48.77	311.98	25.31	-27.6	-29.2	15.6	0.00e+00	0	43	0	1503657984	15	4334
2026-01-18 11:30:49.78	312.19	25.20	-27.4	-28.8	15.9	0.00e+00	0	43	0	1506803712	15	4213
2026-01-18 11:30:50.78	312.39	25.08	-27.3	-28.4	16.1	0.00e+00	0	43	0	1509949440	15	4128
2026-01-18 11:30:51.78	312.59	24.97	-27.3	-28.5	16.0	0.00e+00	0	43	0	1513095168	15	4151
2026-01-18 11:30:52.79	312.79	24.85	-27.2	-28.3	16.2	0.00e+00	0	43	0	1516240896	15	4083
2026-01-18 11:30:53.79	312.99	24.74	-27.2	-28.2	16.2	0.00e+00	0	43	0	1519386624	15	4067
2026-01-18 11:30:54.80	313.19	24.62	-27.1	-28.1	16.3	0.00e+00	0	44	0	1522532352	15	4035
2026-01-18 11:30:55.80	313.39	24.51	-27.2	-28.3	16.2	0.00e+00	0	43	0	1525678080	15	4082
2026-01-18 11:30:56.81	313.58	24.39	-27.2	-28.2	16.2	0.00e+00	0	43	0	1528823808	15	4064
2026-01-18 11:30:57.81	313.78	24.28	-27.2	-28.3	16.2	0.00e+00	0	43	0	1531969536	15	4075
2026-01-18 11:30:58.82	313.97	24.16	-27.4	-28.6	16.0	0.00e+00	0	43	0	1535115264	15	4177
2026-01-18 11:30:59.82	314.16	24.05	-27.4	-28.9	15.8	0.00e+00	0	43	0	1538260992	15	4239
2026-01-18 11:31:00.83	314.35	23.93	-27.4	-28.7	15.9	0.00e+00	0	43	0	1541406720	15	4201
2026-01-18 11:31:01.83	314.54	23.82	-27.4	-28.7	15.9	0.00e+00	0	43	0	1544552448	15	4186
2026-01-18 11:31:02.84	314.73	23.71	-27.3	-28.6	15.9	0.00e+00	0	43	0	1547698176	15	4171
2026-01-18 11:31:03.85	314.91	23.59	-27.5	-29.1	15.7	0.00e+00	0	43	0	1550843904	15	4294
2026-01-18 11:31:04.85	315.10	23.48	-27.5	-28.9	15.8	0.00e+00	0	43	0	1553989632	15	4246
2026-01-18 11:31:05.86	315.28	23.37	-27.6	-29.3	15.6	0.00e+00	0	43	0	1557135360	15	4353
2026-01-18 11:31:06.86	315.46	23.25	-27.5	-28.9	15.7	0.00e+00	0	43	0	1560281088	15	4260
2026-01-18 11:31:07.86	315.64	23.14	-27.3	-28.7	15.9	0.00e+00	0	43	0	1563426816	15	4184
2026-01-18 11:31:08.86	315.82	23.03	-27.4	-28.8	15.8	0.00e+00	0	43	0	1566572544	15	4229
2026-01-18 11:31:09.87	316.00	22.92	-27.4	-28.8	15.8	0.00e+00	0	43	0	1569718272	15	4234
2026-01-18 11:31:10.87	316.18	22.81	-27.4	-28.9	15.8	0.00e+00	0	43	0	1572864000	15	4240
2026-01-18 11:31:11.87	316.35	22.69	-27.4	-28.9	15.8	0.00e+00	0	43	0	1576009728	15	4248
2026-01-18 11:31:12.88	316.53	22.58	-27.6	-29.2	15.6	0.00e+00	0	43	0	1579155456	15	4347
2026-01-18 11:31:13.87	316.70	22.47	-27.5	-29.1	15.6	0.00e+00	0	43	0	1582301184	15	4303
2026-01-18 11:31:14.88	316.87	22.36	-27.6	-29.2	15.6	0.00e+00	0	44	0	1585446912	15	4329
2026-01-18 11:31:15.88	317.04	22.25	-27.7	-29.4	15.5	0.00e+00	0	44	0	1588592640	15	4403
2026-01-18 11:31:16.88	317.21	22.14	-27.7	-29.5	15.4	0.00e+00	0	44	0	1591738368	15	4421
2026-01-18 11:31:17.87	317.38	22.03	-27.7	-29.4	15.5	0.00e+00	0	43	0	1594884096	15	4389
2026-01-18 11:31:18.87	317.54	21.92	-27.8	-29.7	15.3	0.00e+00	0	43	0	1598029824	15	4470
2026-01-18 11:31:19.88	317.71	21.81	-27.8	-29.6	15.3	0.00e+00	0	43	0	1601175552	15	4469
2026-01-18 11:31:20.89	317.88	21.70	-27.8	-29.7	15.2	0.00e+00	0	43	0	1604321280	15	4495
2026-01-18 11:31:21.88	318.04	21.59	-27.8	-29.8	15.2	0.00e+00	0	43	0	1607467008	15	4505
2026-01-18 11:31:22.89	318.20	21.48	-27.9	-29.9	15.1	0.00e+00	0	43	0	1610612736	15	4547
2026-01-18 11:31:23.89	318.36	21.38	-27.8	-29.8	15.2	0.00e+00	0	43	0	1613758464	15	4511
2026-01-18 11:31:24.89	318.52	21.27	-28.0	-30.1	15.0	0.00e+00	0	43	0	1616904192	15	4613
2026-01-18 11:31:25.90	318.68	21.16	-28.0	-29.6	15.2	0.00e+00	0	43	0	1620049920	16	4320
2026-01-18 11:31:26.90	318.84	21.05	-27.8	-29.2	15.4	0.00e+00	0	43	0	1623195648	16	4209
2026-01-18 11:31:27.90	319.00	20.94	-27.7	-28.9	15.6	0.00e+00	0	43	0	1626341376	16	4152
2026-01-18 11:31:28.90	319.15	20.84	-27.8	-29.1	15.5	0.00e+00	0	43	0	1629487104	16	4191
2026-01-18 11:31:29.91	319.31	20.73	-27.8	-29.1	15.5	0.00e+00	0	43	0	1632632832	16	4188
2026-01-18 11:31:30.91	319.46	20.62	-27.9	-29.3	15.4	0.00e+00	0	43	0	1635778560	16	4257
2026-01-18 11:31:31.92	319.62	20.51	-27.8	-29.1	15.4	0.00e+00	0	43	0	1638924288	16	4208
2026-01-18 11:31:32.92	319.77	20.41	-27.7	-29.0	15.5	0.00e+00	0	43	0	1642070016	16	4166
2026-01-18 11:31:33.92	319.92	20.30	-27.8	-29.1	15.5	0.00e+00	0	43	0	1645215744	16	4199
2026-01-18 11:31:34.93	320.07	20.20	-27.7	-28.9	15.6	0.00e+00	0	43	0	1648361472	16	4154
2026-01-18 11:31:35.93	320.22	20.09	-27.8	-29.1	15.5	0.00e+00	0	43	0	1651507200	16	4195
2026-01-18 11:31:36.94	320.37	19.98	-27.7	-28.9	15.6	0.00e+00	0	43	0	1654652928	16	4132
2026-01-18 11:31:37.94	320.52	19.88	-27.6	-28.8	15.6	0.00e+00	0	43	0	1657798656	16	4125
2026-01-18 11:31:38.95	320.66	19.77	-27.7	-29.0	15.5	0.00e+00	0	43	0	1660944384	16	4178
2026-01-18 11:31:39.95	320.81	19.67	-27.6	-28.8	15.6	7.00e-07	0	43	0	1664090112	16	4108
2026-01-18 11:31:40.95	320.95	19.57	-27.5	-28.5	15.7	0.00e+00	0	43	0	1667235840	16	4051
2026-01-18 11:31:41.94	321.09	19.46	-27.7	-28.9	15.6	0.00e+00	0	43	0	1670381568	16	4134
2026-01-18 11:31:42.94	321.23	19.36	-27.7	-28.9	15.5	0.00e+00	0	43	0	1673527296	16	4143
2026-01-18 11:31:43.94	321.38	19.26	-27.8	-29.1	15.4	0.00e+00	0	43	0	1676673024	16	4212
2026-01-18 11:31:44.95	321.52	19.15	-27.8	-29.2	15.4	0.00e+00	0	43	0	1679818752	16	4213
2026-01-18 11:31:45.95	321.66	19.05	-27.8	-29.2	15.4	0.00e+00	0	43	0	1682964480	16	4233
2026-01-18 11:31:46.96	321.80	18.95	-27.7	-29.0	15.5	0.00e+00	0	43	0	1686110208	16	4174
2026-01-18 11:31:47.96	321.93	18.84	-27.7	-29.0	15.5	0.00e+00	0	43	0	1689255936	16	4178
2026-01-18 11:31:48.96	322.07	18.74	-27.6	-28.7	15.6	0.00e+00	0	43	0	1692401664	16	4099
2026-01-18 11:31:49.97	322.21	18.64	-27.7	-28.8	15.6	0.00e+00	0	43	0	1695547392	16	4133
2026-01-18 11:31:50.97	322.34	18.54	-27.8	-29.1	15.4	0.00e+00	0	43	0	1698693120	16	4208
2026-01-18 11:31:51.97	322.47	18.44	-27.7	-28.8	15.5	0.00e+00	0	43	0	1701838848	16	4124
2026-01-18 11:31:52.97	322.61	18.34	-27.6	-28.7	15.6	0.00e+00	0	43	0	1704984576	16	4088
2026-01-18 11:31:53.98	322.74	18.23	-27.6	-28.6	15.6	0.00e+00	0	43	0	1708130304	16	4067
2026-01-18 11:31:54.98	322.87	18.13	-27.7	-29.0	15.4	0.00e+00	0	43	0	1710227456	16	4180
2026-01-18 11:31:55.99	323.00	18.03	-27.6	-28.7	15.6	0.00e+00	0	43	0	1713373184	16	4087
2026-01-18 11:31:56.99	323.13	17.93	-27.6	-28.8	15.6	0.00e+00	0	43	0	1716518912	16	4113
2026-01-18 11:31:57.99	323.26	17.83	-27.6	-28.7	15.6	0.00e+00	0	43	0	1719664640	16	4101
2026-01-18 11:31:58.98	323.39	17.74	-27.7	-28.9	15.5	0.00e+00	0	43	0	1722810368	16	4146
2026-01-18 11:31:59.99	323.52	17.64	-27.7	-29.1	15.4	0.00e+00	0	43	0	1727004672	16	4192
2026-01-18 11:32:01.00	323.64	17.54	-27.7	-28.9	15.5	0.00e+00	0	43	0	1730150400	16	4154
2026-01-18 11:32:02.00	323.77	17.44	-27.7	-29.0	15.4	0.00e+00	0	43	0	1732247552	16	4172
2026-01-18 11:32:03.00	323.89	17.34	-27.8	-29.1	15.3	0.00e+00	0	43	0	1735393280	16	4211
2026-01-18 11:32:04.00	324.02	17.24	-28.0	-29.6	15.1	0.00e+00	0	43	0	1738539008	16	4329
2026-01-18 11:32:05.01	324.14	17.14	-27.9	-29.4	15.2	0.00e+00	0	43	0	1741684736	16	4297
2026-01-18 11:32:06.01	324.26	17.05	-27.9	-29.5	15.1	0.00e+00	0	43	0	1744830464	16	4312
2026-01-18 11:32:07.01	324.39	16.95	-28.1	-29.8	15.0	0.00e+00	0	43	0	1747976192	16	4390
2026-01-18 11:32:08.02	324.51	16.85	-28.1	-29.9	14.9	0.00e+00	0	43	0	1751121920	16	4419
2026-01-18 11:32:09.02	324.63	16.75	-28.2	-30.1	14.7	7.00e-07	0	43	0	1754267648	16	4499
2026-01-18 11:32:10.02	324.75	16.66	-28.2	-30.2	14.7	7.00e-07	0	43	0	1757413376	16	4508
2026-01-18 11:32:11.03	324.87	16.56	-28.3	-30.4	14.6	2.20e-06	0	43	0	1760559104	16	4573
2026-01-18 11:32:12.03	324.99	16.47	-28.2	-30.2	14.7	0.00e+00	0	43	0	1763704832	16	4523
2026-01-18 11:32:13.03	325.10	16.37	-28.3	-30.3	14.6	0.00e+00	0	43	0	1766850560	16	4560
2026-01-18 11:32:14.04	325.22	16.27	-28.4	-30.6	14.5	0.00e+00	0	43	0	1769996288	16	4628
2026-01-18 11:32:15.04	325.34	16.18	-28.3	-30.3	14.6	0.00e+00	0	43	0	1773142016	16	4545
2026-01-18 11:32:16.04	325.45	16.08	-28.4	-30.6	14.5	1.50e-06	0	43	0	1776287744	16	4641
2026-01-18 11:32:17.04	325.57	15.99	-28.3	-30.4	14.6	7.00e-07	0	43	0	1779433472	16	4565
2026-01-18 11:32:18.03	325.68	15.90	-28.2	-30.2	14.7	7.00e-07	0	43	0	1782579200	16	4507
2026-01-18 11:32:19.04	325.79	15.80	-28.3	-30.3	14.6	7.00e-07	0	43	0	1785724928	16	4541
2026-01-18 11:32:20.04	325.90	15.71	-28.3	-30.4	14.6	0.00e+00	0	43	0	1788870656	16	4577
2026-01-18 11:32:21.05	326.02	15.61	-28.4	-30.7	14.4	7.00e-07	0	43	0	1792016384	16	4661
2026-01-18 11:32:22.05	326.13	15.52	-28.6	-30.5	14.2	7.00e-07	0	43	0	1795162112	17	4491
2026-01-18 11:32:23.05	326.24	15.43	-28.8	-31.2	13.8	4.50e-06	0	43	0	1798307840	17	4710
2026-01-18 11:32:24.05	326.35	15.34	-28.7	-30.8	14.0	3.00e-06	0	43	0	1801453568	17	4574
2026-01-18 11:32:25.06	326.46	15.24	-28.6	-30.5	14.2	3.00e-06	0	43	0	1804599296	17	4504
2026-01-18 11:32:26.07	326.57	15.15	-28.5	-30.4	14.2	7.00e-07	0	43	0	1807745024	17	4479
2026-01-18 11:32:27.07	326.68	15.06	-28.6	-30.5	14.2	1.50e-06	0	43	0	1810890752	17	4511
2026-01-18 11:32:28.07	326.78	14.97	-28.5	-30.2	14.3	0.00e+00	0	43	0	1814036480	17	4420
2026-01-18 11:32:29.08	326.89	14.87	-28.6	-30.6	14.1	3.00e-06	0	43	0	1817182208	17	4535
2026-01-18 11:32:30.09	327.00	14.78	-28.4	-30.1	14.4	2.20e-06	0	43	0	1820327936	17	4376
2026-01-18 11:32:31.09	327.10	14.69	-28.4	-30.1	14.4	7.00e-07	0	43	0	1823473664	17	4367
2026-01-18 11:32:32.09	327.21	14.60	-28.4	-30.2	14.3	0.00e+00	0	43	0	1826619392	17	4417
2026-01-18 11:32:33.10	327.31	14.51	-28.3	-29.9	14.5	0.00e+00	0	43	0	1829765120	17	4335
2026-01-18 11:32:34.10	327.42	14.42	-28.4	-30.0	14.4	0.00e+00	0	43	0	1832910848	17	4362
2026-01-18 11:32:35.10	327.52	14.33	-28.4	-30.1	14.3	1.50e-06	0	43	0	1836056576	17	4393
2026-01-18 11:32:36.10	327.62	14.24	-28.5	-30.3	14.2	1.50e-06	0	43	0	1839202304	17	4432
2026-01-18 11:32:37.11	327.72	14.15	-28.6	-30.5	14.1	7.00e-07	0	43	0	1842348032	17	4506
2026-01-18 11:32:38.11	327.82	14.06	-28.6	-30.6	14.1	2.20e-06	0	43	0	1845493760	17	4524
2026-01-18 11:32:39.11	327.93	13.97	-28.6	-30.6	14.0	3.00e-06	0	43	0	1848639488	17	4537
2026-01-18 11:32:40.11	328.03	13.88	-28.6	-30.7	14.0	1.50e-06	0	43	0	1851785216	17	4559
2026-01-18 11:32:41.12	328.13	13.80	-28.6	-30.5	14.1	3.80e-06	0	43	0	1854930944	17	4516
2026-01-18 11:32:42.13	328.23	13.71	-28.7	-30.9	13.9	3.00e-06	0	43	0	1858076672	17	4617
2026-01-18 11:32:43.13	328.32	13.62	-28.6	-30.6	14.0	3.00e-06	0	43	0	1861222400	17	4520
2026-01-18 11:32:44.13	328.42	13.53	-28.6	-30.6	14.0	7.00e-07	0	43	0	1864368128	17	4531
2026-01-18 11:32:45.13	328.52	13.44	-28.6	-30.7	13.9	4.50e-06	0	43	0	1867513856	17	4568
2026-01-18 11:32:46.13	328.61	13.36	-28.6	-30.5	14.0	2.20e-06	0	43	0	1870659584	17	4517
2026-01-18 11:32:47.14	328.71	13.27	-28.6	-30.5	14.0	1.50e-06	0	43	0	1873805312	17	4514
2026-01-18 11:32:48.14	328.81	13.18	-28.7	-30.8	13.9	2.20e-06	0	43	0	1876951040	17	4586
2026-01-18 11:32:49.15	328.90	13.10	-28.6	-30.6	14.0	2.20e-06	0	43	0	1880096768	17	4542
2026-01-18 11:32:50.14	329.00	13.01	-28.6	-30.7	13.9	7.00e-07	0	43	0	1883242496	17	4562
2026-01-18 11:32:51.14	329.09	12.92	-28.6	-30.6	13.9	1.50e-06	0	43	0	1886388224	17	4541
2026-01-18 11:32:52.14	329.18	12.84	-28.6	-30.7	13.9	2.20e-06	0	43	0	1889533952	17	4568
2026-01-18 11:32:53.14	329.28	12.75	-28.7	-31.0	13.8	3.80e-06	0	43	0	1892679680	17	4650
2026-01-18 11:32:54.14	329.37	12.67	-28.6	-30.7	13.9	3.80e-06	0	43	0	1895825408	17	4568
2026-01-18 11:32:55.15	329.46	12.58	-28.6	-30.6	14.0	2.20e-06	0	43	0	1898971136	17	4525
2026-01-18 11:32:56.15	329.55	12.50	-28.6	-30.6	14.0	2.20e-06	0	43	0	1902116864	17	4531
2026-01-18 11:32:57.15	329.64	12.41	-28.6	-30.7	13.9	5.30e-06	0	43	0	1905262592	17	4564
2026-01-18 11:32:58.15	329.73	12.33	-28.5	-30.4	14.1	2.20e-06	0	43	0	1908408320	17	4476
2026-01-18 11:32:59.15	329.82	12.25	-28.5	-30.4	14.0	3.80e-06	0	43	0	1911554048	17	4486
2026-01-18 11:33:00.15	329.91	12.16	-28.5	-30.4	14.0	2.20e-06	0	43	0	1914699776	17	4481
2026-01-18 11:33:01.16	330.00	12.08	-28.5	-30.3	14.1	7.00e-07	0	43	0	1917845504	17	4444
2026-01-18 11:33:02.16	330.09	11.99	-28.5	-30.3	14.1	0.00e+00	0	43	0	1920991232	17	4453
2026-01-18 11:33:03.17	330.18	11.91	-28.6	-30.6	13.9	1.50e-06	0	43	0	1924136960	17	4527
2026-01-18 11:33:04.17	330.27	11.83	-28.4	-30.2	14.1	1.50e-06	0	43	0	1927282688	17	4429
2026-01-18 11:33:05.17	330.36	11.75	-28.4	-30.3	14.1	0.00e+00	0	43	0	1930428416	17	4435
2026-01-18 11:33:06.18	330.44	11.66	-28.5	-30.3	14.0	7.00e-07	0	43	0	1933574144	17	4462
2026-01-18 11:33:07.18	330.53	11.58	-28.5	-30.5	13.9	6.10e-06	0	43	0	1936719872	17	4510
2026-01-18 11:33:08.18	330.62	11.50	-28.6	-30.6	13.9	3.00e-06	0	43	0	1939865600	17	4538
2026-01-18 11:33:09.18	330.70	11.42	-28.5	-30.4	13.9	5.30e-06	0	43	0	1943011328	17	4495
2026-01-18 11:33:10.19	330.79	11.33	-28.7	-30.8	13.7	9.10e-06	0	43	0	1946157056	17	4617
2026-01-18 11:33:11.20	330.87	11.25	-28.7	-30.9	13.7	7.60e-06	0	43	0	1949302784	17	4619
2026-01-18 11:33:12.20	330.96	11.17	-28.7	-31.0	13.7	7.60e-06	0	43	0	1952448512	17	4652
2026-01-18 11:33:13.20	331.04	11.09	-28.8	-31.2	13.5	6.80e-06	0	43	0	1955594240	17	4743
2026-01-18 11:33:14.20	331.12	11.01	-28.8	-31.1	13.5	1.06e-05	0	43	0	1958739968	17	4712
2026-01-18 11:33:15.20	331.20	10.93	-28.8	-31.1	13.6	1.29e-05	0	43	0	1961885696	17	4701
2026-01-18 11:33:16.21	331.29	10.85	-28.9	-31.4	13.4	2.13e-05	0	43	0	1965031424	17	4797
2026-01-18 11:33:17.22	331.37	10.77	-28.8	-31.2	13.4	1.37e-05	0	43	0	1968177152	17	4743
2026-01-18 11:33:18.22	331.45	10.69	-28.9	-31.3	13.4	1.60e-05	0	43	0	1971322880	17	4757
2026-01-18 11:33:19.23	331.53	10.61	-29.0	-31.1	13.2	2.44e-05	0	43	0	1974468608	18	4602
2026-01-18 11:33:20.23	331.61	10.53	-28.9	-30.9	13.4	1.52e-05	0	43	0	1977614336	18	4544
2026-01-18 11:33:21.24	331.69	10.45	-28.9	-30.9	13.4	1.60e-05	0	43	0	1980760064	18	4525
2026-01-18 11:33:22.24	331.77	10.37	-29.0	-31.1	13.2	1.90e-05	0	43	0	1983905792	18	4598
2026-01-18 11:33:23.23	331.85	10.29	-28.9	-31.0	13.3	1.60e-05	0	43	0	1986002944	18	4557
2026-01-18 11:33:24.23	331.93	10.21	-29.0	-31.2	13.2	1.67e-05	0	43	0	1989148672	18	4629
2026-01-18 11:33:25.23	332.01	10.13	-28.9	-30.9	13.3	1.98e-05	0	43	0	1992294400	18	4533
2026-01-18 11:33:26.24	332.09	10.06	-28.9	-30.9	13.3	2.36e-05	0	43	0	1995440128	18	4522
2026-01-18 11:33:27.24	332.17	9.98	-29.0	-31.1	13.2	2.44e-05	0	43	0	1998585856	18	4585
2026-01-18 11:33:28.23	332.24	9.90	-29.1	-31.4	13.0	4.73e-05	0	43	0	2001731584	18	4700
2026-01-18 11:33:29.24	332.32	9.82	-28.9	-30.9	13.3	1.98e-05	0	43	0	2005925888	18	4534
2026-01-18 11:33:30.24	332.40	9.75	-29.0	-31.1	13.2	1.83e-05	0	43	0	2008023040	18	4606
2026-01-18 11:33:31.25	332.47	9.67	-29.0	-31.1	13.2	3.96e-05	0	43	0	2011168768	18	4587
2026-01-18 11:33:32.25	332.55	9.59	-29.0	-31.1	13.2	1.98e-05	0	43	0	2014314496	18	4582
2026-01-18 11:33:33.25	332.62	9.51	-29.0	-31.1	13.1	3.81e-05	0	43	0	2017460224	18	4611
2026-01-18 11:33:34.26	332.70	9.44	-28.9	-30.9	13.3	2.13e-05	0	43	0	2020605952	18	4546
2026-01-18 11:33:35.27	332.78	9.36	-28.9	-31.0	13.2	2.28e-05	0	43	0	2023751680	18	4552
2026-01-18 11:33:36.27	332.85	9.28	-29.0	-31.3	13.0	3.81e-05	0	43	0	2026897408	18	4652
2026-01-18 11:33:37.27	332.92	9.21	-29.0	-31.1	13.1	3.28e-05	0	43	0	2030043136	18	4594
2026-01-18 11:33:38.27	333.00	9.13	-29.0	-31.1	13.1	2.44e-05	0	43	0	2033188864	18	4584
2026-01-18 11:33:39.27	333.07	9.06	-29.0	-31.2	13.0	4.50e-05	0	43	0	2036334592	18	4632
2026-01-18 11:33:40.27	333.14	8.98	-28.9	-31.0	13.2	2.67e-05	0	43	0	2039480320	18	4573
2026-01-18 11:33:41.28	333.22	8.91	-29.0	-31.3	13.0	2.97e-05	0	43	0	2042626048	18	4652
2026-01-18 11:33:42.28	333.29	8.83	-29.0	-31.2	13.0	3.66e-05	0	43	0	2045771776	18	4642
2026-01-18 11:33:43.28	333.36	8.76	-29.2	-31.6	12.8	6.25e-05	0	43	0	2048917504	18	4772
2026-01-18 11:33:44.27	333.43	8.68	-29.1	-31.4	12.9	5.26e-05	0	43	0	2052063232	18	4697
2026-01-18 11:33:45.27	333.50	8.61	-29.2	-31.6	12.7	7.55e-05	0	43	0	2055208960	18	4774
2026-01-18 11:33:46.28	333.57	8.53	-29.2	-31.7	12.7	7.93e-05	0	43	0	2058354688	18	4795
2026-01-18 11:33:47.28	333.64	8.46	-29.3	-31.9	12.5	1.12e-04	0	43	0	2061500416	18	4874
2026-01-18 11:33:48.28	333.71	8.38	-29.3	-31.9	12.5	1.28e-04	0	43	0	2064646144	18	4867
2026-01-18 11:33:49.29	333.79	8.31	-29.3	-32.0	12.5	1.34e-04	0	43	0	2067791872	18	4904
2026-01-18 11:33:50.29	333.85	8.24	-29.4	-32.2	12.3	1.69e-04	0	43	0	2070937600	18	4962
2026-01-18 11:33:51.29	333.92	8.16	-29.4	-32.3	12.3	1.86e-04	0	43	0	2074083328	18	5006
2026-01-18 11:33:52.30	333.99	8.09	-29.6	-32.1	12.1	2.72e-04	0	43	0	2077229056	19	4850
2026-01-18 11:33:53.31	334.06	8.02	-29.7	-32.4	11.8	4.26e-04	0	43	0	2080374784	19	4952
2026-01-18 11:33:54.31	334.13	7.94	-29.9	-33.0	11.5	8.60e-04	0	43	0	2083520512	19	5169
2026-01-18 11:33:55.32	334.20	7.87	-29.6	-32.2	11.9	5.29e-04	0	43	0	2086666240	19	4874
2026-01-18 11:33:56.32	334.27	7.80	-29.7	-32.4	11.8	3.76e-04	0	43	0	2089811968	19	4947
2026-01-18 11:33:57.32	334.33	7.73	-29.5	-32.1	12.0	2.96e-04	0	43	0	2092957696	19	4852
2026-01-18 11:33:58.33	334.40	7.65	-29.5	-32.1	12.0	3.50e-04	0	44	0	2096103424	19	4848
2026-01-18 11:33:59.34	334.47	7.58	-29.6	-32.2	11.9	3.51e-04	0	43	0	2099249152	19	4868
2026-01-18 11:34:00.34	334.54	7.51	-29.6	-32.4	11.8	4.68e-04	0	43	0	2102394880	19	4931
2026-01-18 11:34:01.34	334.60	7.44	-29.7	-32.6	11.7	6.45e-04	0	43	0	2105540608	19	5019
2026-01-18 11:34:02.34	334.67	7.37	-29.7	-32.7	11.6	6.19e-04	0	43	0	2108686336	19	5039
2026-01-18 11:34:03.34	334.73	7.29	-29.8	-32.8	11.5	7.84e-04	0	43	0	2111832064	19	5084
2026-01-18 11:34:04.34	334.80	7.22	-29.8	-32.9	11.5	9.41e-04	0	43	0	2114977792	19	5118
2026-01-18 11:34:05.35	334.86	7.15	-29.8	-33.0	11.4	6.87e-04	0	43	0	2118123520	19	5164
2026-01-18 11:34:06.35	334.93	7.08	-31.9	-37.3	7.6	1.41e-03	0	43	0	2121269248	23	6712
2026-01-18 11:34:07.36	334.99	7.01	-33.7	-45.7	3.8	1.49e+00	0	43	104	2121269248	27	14330

#Closed at: 2026-01-18 11:34:08
