passes_logs/2026/01/18/R2M6_AANII_01/R2M6_AANII_01__20260118_003924_NOAA_20_JPSS-1_rec.log

#Pass ID: 20260118_003924_NOAA 20 (JPSS-1)
#Satellite: NOAA 20 (JPSS-1)
#Configuration: NOAA 20
#almurnet v.1.7.20240730
#Start time: 2026-01-18 00:39:23

#Version: 2.2.20231116
#Station: R2M6_AANII_01
#Location: 30.233357 lon 59.946436 lat
#TLE: 1 43013U 17073A   26017.30359522  .00000067  00000+0  52526-4 0  9990
#TLE: 2 43013  98.7639 318.2187 0001419  36.2087 323.9184 14.19536557423067

#Time	Az	El	Level	Level2	SNR	BER	BlckErr	Temp	State	Recorded	gain1	gain2
2026-01-18 00:39:23.20	16.60	6.94	-32.2	-39.4	4.8	1.32e+00	0	41	0	0	24	8236
2026-01-18 00:39:24.20	16.59	7.01	-32.5	-40.9	4.5	1.38e+00	0	41	104	0	24	9564
2026-01-18 00:39:25.20	16.57	7.09	-32.4	-40.7	5.9	3.82e-01	0	41	0	0	24	9326
2026-01-18 00:39:26.19	16.56	7.16	-32.5	-40.4	5.8	4.09e-01	0	41	0	1048576	25	8927
2026-01-18 00:39:27.20	16.55	7.24	-32.4	-40.3	6.2	2.97e-01	0	41	0	3145728	24	8903
2026-01-18 00:39:28.20	16.53	7.32	-32.6	-40.7	5.6	3.05e-01	0	41	0	5242880	25	9214
2026-01-18 00:39:29.21	16.52	7.40	-32.6	-41.1	5.4	4.94e-01	0	42	0	7340032	25	9605
2026-01-18 00:39:30.21	16.51	7.48	-32.5	-40.0	6.1	3.86e-01	0	42	0	9437184	25	8599
2026-01-18 00:39:31.21	16.49	7.55	-32.4	-39.8	6.7	2.53e-01	0	41	0	10485760	24	8442
2026-01-18 00:39:32.22	16.48	7.63	-32.3	-39.2	7.1	1.78e-01	0	42	0	12582912	24	7970
2026-01-18 00:39:33.22	16.46	7.71	-32.1	-38.3	7.8	8.99e-02	0	42	0	14680064	24	7365
2026-01-18 00:39:34.23	16.45	7.79	-32.1	-38.1	8.0	5.83e-02	0	42	0	16777216	24	7222
2026-01-18 00:39:35.23	16.44	7.87	-32.1	-38.1	8.1	5.33e-02	0	42	0	17825792	24	7190
2026-01-18 00:39:36.23	16.42	7.95	-32.0	-37.8	8.3	5.75e-02	0	42	0	19922944	24	7020
2026-01-18 00:39:37.24	16.41	8.03	-32.0	-38.0	8.5	3.91e-02	0	42	0	22020096	23	7234
2026-01-18 00:39:38.25	16.39	8.11	-32.0	-37.7	8.4	3.77e-02	0	42	0	24117248	24	6961
2026-01-18 00:39:39.25	16.38	8.19	-32.0	-37.9	8.2	6.06e-02	0	42	0	26214400	24	7079
2026-01-18 00:39:40.25	16.37	8.27	-32.1	-37.9	8.3	4.70e-02	0	42	0	28311552	24	7047
2026-01-18 00:39:41.26	16.35	8.35	-31.8	-36.9	9.0	4.01e-02	0	42	0	29360128	24	6470
2026-01-18 00:39:42.26	16.34	8.43	-31.8	-37.4	9.1	2.49e-02	0	42	0	31457280	23	6836
2026-01-18 00:39:43.26	16.32	8.51	-31.8	-37.3	9.1	2.10e-02	0	42	0	33554432	23	6796
2026-01-18 00:39:44.26	16.31	8.60	-31.9	-37.3	8.7	3.75e-02	0	42	0	35651584	24	6706
2026-01-18 00:39:45.26	16.29	8.68	-31.7	-37.0	9.3	2.37e-02	0	42	0	36700160	23	6628
2026-01-18 00:39:46.26	16.28	8.76	-31.8	-37.2	9.3	2.59e-02	0	42	0	38797312	23	6697
2026-01-18 00:39:47.26	16.26	8.84	-31.8	-37.3	9.2	2.80e-02	0	42	0	40894464	23	6765
2026-01-18 00:39:48.27	16.25	8.92	-31.8	-37.4	9.1	1.90e-02	0	42	0	42991616	23	6836
2026-01-18 00:39:49.28	16.23	9.01	-31.8	-37.1	9.4	2.10e-02	0	42	0	45088768	23	6651
2026-01-18 00:39:50.28	16.22	9.09	-31.7	-37.0	9.5	1.50e-02	0	42	0	46137344	23	6593
2026-01-18 00:39:51.28	16.20	9.17	-31.7	-37.0	9.4	1.70e-02	0	42	0	48234496	23	6570
2026-01-18 00:39:52.28	16.18	9.26	-31.7	-36.9	9.5	1.44e-02	0	42	0	50331648	23	6523
2026-01-18 00:39:53.28	16.17	9.34	-31.6	-36.5	9.8	1.01e-02	0	42	0	52428800	23	6312
2026-01-18 00:39:54.29	16.15	9.43	-31.4	-35.9	10.4	5.22e-03	0	42	0	54525952	23	5984
2026-01-18 00:39:55.29	16.14	9.51	-31.5	-35.9	10.3	5.84e-03	0	42	0	55574528	23	5989
2026-01-18 00:39:56.29	16.12	9.60	-31.4	-36.3	10.5	4.09e-03	0	42	0	57671680	22	6295
2026-01-18 00:39:57.30	16.10	9.68	-31.4	-36.4	10.4	4.40e-03	0	42	0	59768832	22	6331
2026-01-18 00:39:58.30	16.09	9.77	-31.4	-36.3	10.5	3.14e-03	0	43	0	61865984	22	6294
2026-01-18 00:39:59.30	16.07	9.85	-31.4	-36.3	10.5	3.95e-03	0	42	0	62914560	22	6284
2026-01-18 00:40:00.30	16.05	9.94	-31.4	-36.1	10.6	3.42e-03	0	42	0	65011712	22	6214
2026-01-18 00:40:01.31	16.04	10.02	-31.4	-36.3	10.5	3.29e-03	0	43	0	67108864	22	6298
2026-01-18 00:40:02.31	16.02	10.11	-31.5	-36.2	10.2	5.80e-03	0	43	0	69206016	23	6126
2026-01-18 00:40:03.32	16.00	10.20	-31.2	-36.1	9.9	9.48e-03	0	42	0	71303168	23	6319
2026-01-18 00:40:04.32	15.99	10.29	-30.8	-35.4	10.1	6.20e-03	0	43	0	73400320	23	6141
2026-01-18 00:40:05.33	15.97	10.37	-31.7	-36.6	9.5	8.49e-03	0	43	0	74448896	23	6342
2026-01-18 00:40:06.34	15.95	10.46	-31.4	-36.3	9.8	6.82e-03	0	43	0	76546048	22	6278
2026-01-18 00:40:07.34	15.93	10.55	-31.5	-36.4	10.3	3.78e-03	0	43	0	78643200	22	6347
2026-01-18 00:40:08.34	15.91	10.64	-31.5	-36.1	9.9	4.11e-03	0	42	0	80740352	23	6101
2026-01-18 00:40:09.35	15.90	10.73	-31.6	-36.4	9.9	5.70e-03	0	43	0	81788928	23	6237
2026-01-18 00:40:10.35	15.88	10.82	-31.7	-36.9	9.7	1.25e-02	0	43	0	83886080	23	6484
2026-01-18 00:40:11.35	15.86	10.91	-31.5	-36.1	10.3	7.62e-03	0	43	0	85983232	23	6068
2026-01-18 00:40:12.36	15.84	11.00	-31.4	-36.2	10.6	3.55e-03	0	43	0	88080384	22	6250
2026-01-18 00:40:13.36	15.82	11.09	-31.4	-36.1	10.7	4.13e-03	0	43	0	90177536	22	6179
2026-01-18 00:40:14.37	15.81	11.18	-31.5	-36.3	10.6	3.33e-03	0	42	0	91226112	22	6287
2026-01-18 00:40:15.37	15.79	11.27	-31.6	-36.2	10.3	4.22e-03	0	43	0	93323264	23	6135
2026-01-18 00:40:16.37	15.77	11.36	-31.4	-36.0	10.8	3.85e-03	0	43	0	95420416	22	6142
2026-01-18 00:40:17.38	15.75	11.45	-31.4	-36.0	10.8	5.60e-03	0	43	0	97517568	22	6106
2026-01-18 00:40:18.39	15.73	11.54	-31.5	-36.3	10.6	2.98e-03	0	43	0	99614720	22	6247
2026-01-18 00:40:19.39	15.71	11.63	-31.5	-36.0	10.5	3.39e-03	0	43	0	100663296	23	5999
2026-01-18 00:40:20.39	15.69	11.73	-31.4	-36.1	10.7	6.40e-03	0	43	0	102760448	22	6192
2026-01-18 00:40:21.39	15.67	11.82	-31.2	-35.5	11.2	3.08e-03	0	43	0	104857600	22	5861
2026-01-18 00:40:22.39	15.65	11.91	-31.2	-35.3	11.3	1.06e-03	0	43	0	106954752	22	5787
2026-01-18 00:40:23.40	15.63	12.01	-31.1	-35.1	11.5	8.76e-04	0	43	0	109051904	22	5682
2026-01-18 00:40:24.40	15.61	12.10	-31.1	-35.2	11.5	4.41e-03	0	43	0	110100480	22	5737
2026-01-18 00:40:25.40	15.59	12.19	-31.2	-35.3	11.4	1.22e-03	0	43	0	112197632	22	5801
2026-01-18 00:40:26.40	15.57	12.29	-31.0	-34.7	11.8	7.49e-04	0	43	0	114294784	22	5519
2026-01-18 00:40:27.39	15.55	12.38	-31.0	-34.8	11.8	3.95e-03	0	43	0	116391936	22	5556
2026-01-18 00:40:28.40	15.53	12.48	-31.0	-35.2	11.9	1.04e-03	0	43	0	118489088	21	5821
2026-01-18 00:40:29.40	15.51	12.57	-31.0	-34.8	11.8	4.48e-04	0	43	0	119537664	22	5552
2026-01-18 00:40:30.40	15.49	12.67	-31.1	-35.0	11.6	4.99e-04	0	43	0	121634816	22	5660
2026-01-18 00:40:31.40	15.47	12.76	-31.1	-35.1	11.6	1.98e-03	0	43	0	123731968	22	5673
2026-01-18 00:40:32.40	15.45	12.86	-31.0	-34.8	11.8	5.75e-04	0	43	0	125829120	22	5529
2026-01-18 00:40:33.40	15.42	12.96	-31.0	-35.1	11.9	5.38e-04	0	43	0	126877696	21	5793
2026-01-18 00:40:34.40	15.40	13.05	-31.1	-34.9	11.8	1.86e-03	0	43	0	128974848	22	5575
2026-01-18 00:40:35.41	15.38	13.15	-31.2	-35.1	11.6	3.67e-03	0	43	0	131072000	22	5673
2026-01-18 00:40:36.41	15.36	13.25	-31.2	-35.3	11.5	8.44e-04	0	43	0	133169152	22	5764
2026-01-18 00:40:37.41	15.34	13.35	-31.1	-35.0	11.7	2.23e-03	0	43	0	135266304	22	5628
2026-01-18 00:40:38.41	15.31	13.45	-31.0	-35.1	12.0	3.25e-03	0	43	0	136314880	21	5777
2026-01-18 00:40:39.42	15.29	13.55	-31.0	-35.1	12.0	2.96e-03	0	43	0	138412032	21	5799
2026-01-18 00:40:40.42	15.27	13.65	-31.0	-34.7	11.9	3.42e-04	0	43	0	140509184	22	5494
2026-01-18 00:40:41.42	15.25	13.75	-31.0	-34.7	12.0	3.24e-03	0	43	0	142606336	22	5479
2026-01-18 00:40:42.42	15.22	13.85	-30.9	-34.7	12.3	3.27e-03	0	43	0	144703488	21	5622
2026-01-18 00:40:43.42	15.20	13.95	-30.7	-34.3	12.6	1.26e-04	0	43	0	145752064	21	5434
2026-01-18 00:40:44.42	15.18	14.05	-30.7	-34.3	12.6	2.99e-03	0	43	0	147849216	21	5451
2026-01-18 00:40:45.42	15.15	14.15	-30.8	-34.4	12.5	3.53e-03	0	43	0	149946368	21	5471
2026-01-18 00:40:46.42	15.13	14.25	-30.7	-34.1	12.7	5.97e-04	0	43	0	152043520	21	5356
2026-01-18 00:40:47.42	15.11	14.36	-30.7	-34.3	12.6	7.01e-05	0	43	0	154140672	21	5448
2026-01-18 00:40:48.42	15.08	14.46	-30.8	-34.4	12.6	3.31e-03	0	43	0	155189248	21	5459
2026-01-18 00:40:49.43	15.06	14.56	-30.7	-34.2	12.7	1.12e-03	0	43	0	157286400	21	5400
2026-01-18 00:40:50.43	15.03	14.67	-30.7	-34.1	12.8	2.25e-03	0	43	0	159383552	21	5331
2026-01-18 00:40:51.43	15.01	14.77	-30.6	-33.9	12.9	3.42e-03	0	43	0	161480704	21	5281
2026-01-18 00:40:52.43	14.98	14.88	-30.6	-34.0	12.9	1.01e-03	0	43	0	163577856	21	5302
2026-01-18 00:40:53.44	14.96	14.98	-30.7	-34.1	12.8	2.83e-03	0	43	0	164626432	21	5347
2026-01-18 00:40:54.45	14.93	15.09	-30.8	-34.5	12.5	6.02e-05	0	43	0	166723584	21	5513
2026-01-18 00:40:55.45	14.91	15.20	-30.8	-34.5	12.5	1.16e-03	0	43	0	168820736	21	5512
2026-01-18 00:40:56.45	14.88	15.30	-30.6	-33.9	12.9	2.82e-03	0	43	0	170917888	21	5268
2026-01-18 00:40:57.45	14.85	15.41	-30.5	-33.7	13.1	2.46e-03	0	43	0	173015040	21	5185
2026-01-18 00:40:58.46	14.83	15.52	-30.5	-33.6	13.1	1.01e-03	0	43	0	174063616	21	5147
2026-01-18 00:40:59.45	14.80	15.63	-30.5	-33.6	13.1	2.58e-03	0	43	0	176160768	21	5147
2026-01-18 00:41:00.46	14.78	15.73	-30.6	-33.8	13.0	2.82e-03	0	43	0	178257920	21	5219
2026-01-18 00:41:01.45	14.75	15.84	-30.6	-33.9	12.9	1.24e-03	0	43	0	180355072	21	5271
2026-01-18 00:41:02.45	14.72	15.95	-30.5	-33.6	13.2	2.87e-03	0	43	0	181403648	21	5150
2026-01-18 00:41:03.46	14.69	16.06	-30.4	-33.9	13.3	3.30e-03	0	43	0	183500800	20	5369
2026-01-18 00:41:04.46	14.67	16.17	-30.4	-33.8	13.4	4.06e-04	0	43	0	185597952	20	5330
2026-01-18 00:41:05.47	14.64	16.29	-30.4	-34.0	13.3	2.65e-03	0	43	0	187695104	20	5391
2026-01-18 00:41:06.47	14.61	16.40	-30.5	-34.0	13.3	3.11e-03	0	43	0	189792256	20	5392
2026-01-18 00:41:07.48	14.58	16.51	-30.4	-33.9	13.4	5.79e-04	0	43	0	190840832	20	5359
2026-01-18 00:41:08.48	14.55	16.62	-30.5	-34.0	13.3	2.13e-05	0	43	0	192937984	20	5403
2026-01-18 00:41:09.48	14.52	16.73	-30.5	-33.7	13.2	3.39e-03	0	43	0	195035136	21	5161
2026-01-18 00:41:10.48	14.50	16.85	-30.5	-33.7	13.1	1.18e-03	0	43	0	197132288	21	5188
2026-01-18 00:41:11.48	14.47	16.96	-30.4	-33.2	13.5	7.60e-06	0	43	0	199229440	21	5003
2026-01-18 00:41:12.49	14.44	17.08	-30.3	-33.6	13.5	3.01e-03	0	43	0	200278016	20	5258
2026-01-18 00:41:13.50	14.41	17.19	-30.2	-33.4	13.7	9.36e-04	0	43	0	202375168	20	5164
2026-01-18 00:41:14.49	14.38	17.31	-30.4	-33.7	13.5	2.57e-03	0	43	0	204472320	20	5287
2026-01-18 00:41:15.49	14.35	17.42	-30.3	-33.6	13.5	4.68e-04	0	43	0	206569472	20	5258
2026-01-18 00:41:16.48	14.32	17.54	-30.2	-33.3	13.8	8.80e-04	0	43	0	208666624	20	5132
2026-01-18 00:41:17.48	14.29	17.66	-30.1	-33.0	14.0	2.36e-03	0	43	0	209715200	20	5021
2026-01-18 00:41:18.48	14.25	17.77	-30.1	-33.0	14.0	5.16e-04	0	43	0	211812352	20	5003
2026-01-18 00:41:19.49	14.22	17.89	-30.1	-32.9	14.1	5.35e-04	0	43	0	213909504	20	4968
2026-01-18 00:41:20.49	14.19	18.01	-30.1	-32.9	14.1	2.55e-03	0	43	0	216006656	20	4966
2026-01-18 00:41:21.49	14.16	18.13	-30.0	-32.8	14.1	2.87e-03	0	43	0	217055232	20	4950
2026-01-18 00:41:22.49	14.13	18.25	-30.0	-32.7	14.2	4.79e-04	0	43	0	219152384	20	4892
2026-01-18 00:41:23.50	14.09	18.37	-30.0	-32.6	14.2	2.48e-03	0	43	0	221249536	20	4883
2026-01-18 00:41:24.50	14.06	18.49	-30.0	-32.6	14.3	2.75e-03	0	43	0	223346688	20	4856
2026-01-18 00:41:25.50	14.03	18.62	-30.0	-32.8	14.2	1.23e-04	0	43	0	225443840	20	4942
2026-01-18 00:41:26.51	13.99	18.74	-30.2	-33.2	13.9	3.00e-06	0	43	0	226492416	20	5070
2026-01-18 00:41:27.51	13.96	18.86	-30.2	-33.1	14.0	3.00e-03	0	43	0	228589568	20	5057
2026-01-18 00:41:28.52	13.93	18.99	-30.2	-33.1	14.0	7.00e-07	0	43	0	230686720	20	5049
2026-01-18 00:41:29.52	13.89	19.11	-30.1	-32.8	14.1	3.80e-06	0	43	0	232783872	20	4958
2026-01-18 00:41:30.53	13.86	19.24	-30.0	-32.8	14.2	2.86e-03	0	43	0	234881024	20	4932
2026-01-18 00:41:31.53	13.82	19.36	-30.0	-32.7	14.3	7.99e-04	0	43	0	235929600	20	4896
2026-01-18 00:41:32.53	13.79	19.49	-30.1	-32.9	14.1	7.00e-07	0	43	0	238026752	20	4980
2026-01-18 00:41:33.53	13.75	19.61	-30.1	-32.9	14.2	5.13e-04	0	43	0	240123904	20	4973
2026-01-18 00:41:34.53	13.72	19.74	-30.0	-32.6	14.3	8.67e-04	0	43	0	242221056	20	4857
2026-01-18 00:41:35.54	13.68	19.87	-29.9	-32.3	14.5	7.00e-07	0	43	0	244318208	20	4769
2026-01-18 00:41:36.55	13.64	20.00	-29.9	-32.9	14.5	5.52e-04	0	43	0	245366784	19	5058
2026-01-18 00:41:37.55	13.61	20.13	-29.9	-32.8	14.6	6.25e-04	0	43	0	247463936	19	5048
2026-01-18 00:41:38.55	13.57	20.26	-29.8	-32.5	14.7	0.00e+00	0	43	0	249561088	19	4949
2026-01-18 00:41:39.56	13.53	20.39	-29.9	-32.9	14.6	0.00e+00	0	43	0	251658240	19	5067
2026-01-18 00:41:40.57	13.49	20.52	-29.9	-32.7	14.7	5.57e-04	0	44	0	253755392	19	4999
2026-01-18 00:41:41.56	13.45	20.65	-29.8	-32.5	14.8	2.42e-03	0	44	0	254803968	19	4918
2026-01-18 00:41:42.57	13.42	20.79	-29.6	-32.0	15.1	0.00e+00	0	43	0	256901120	19	4767
2026-01-18 00:41:43.57	13.38	20.92	-29.5	-31.9	15.2	3.96e-05	0	43	0	258998272	19	4727
2026-01-18 00:41:44.58	13.34	21.06	-29.6	-32.0	15.1	0.00e+00	0	44	0	261095424	19	4773
2026-01-18 00:41:45.58	13.30	21.19	-29.5	-31.8	15.3	0.00e+00	0	43	0	263192576	19	4690
2026-01-18 00:41:46.58	13.26	21.33	-29.4	-32.1	15.3	0.00e+00	0	43	0	264241152	18	4918
2026-01-18 00:41:47.58	13.22	21.46	-29.6	-32.0	15.2	0.00e+00	0	43	0	266338304	19	4753
2026-01-18 00:41:48.59	13.17	21.60	-29.6	-32.1	15.1	2.59e-03	0	43	0	268435456	19	4796
2026-01-18 00:41:49.59	13.13	21.74	-29.6	-32.1	15.1	7.00e-07	0	43	0	270532608	19	4795
2026-01-18 00:41:50.60	13.09	21.88	-29.5	-31.7	15.3	0.00e+00	0	44	0	272629760	19	4675
2026-01-18 00:41:51.60	13.05	22.02	-29.5	-31.8	15.3	4.68e-04	0	44	0	273678336	19	4699
2026-01-18 00:41:52.60	13.01	22.16	-29.6	-32.0	15.1	0.00e+00	0	43	0	275775488	19	4762
2026-01-18 00:41:53.61	12.96	22.30	-29.5	-31.9	15.2	7.00e-07	0	43	0	277872640	19	4714
2026-01-18 00:41:54.61	12.92	22.44	-29.6	-32.0	15.1	4.76e-04	0	43	0	279969792	19	4766
2026-01-18 00:41:55.62	12.87	22.58	-29.6	-32.0	15.2	0.00e+00	0	43	0	282066944	19	4766
2026-01-18 00:41:56.62	12.83	22.73	-29.5	-31.9	15.3	0.00e+00	0	43	0	283115520	19	4723
2026-01-18 00:41:57.62	12.79	22.87	-29.5	-31.9	15.3	0.00e+00	0	44	0	285212672	19	4707
2026-01-18 00:41:58.63	12.74	23.02	-29.6	-32.0	15.2	4.44e-04	0	43	0	287309824	19	4754
2026-01-18 00:41:59.63	12.69	23.16	-29.6	-32.0	15.2	0.00e+00	0	43	0	289406976	19	4771
2026-01-18 00:42:00.63	12.65	23.31	-29.6	-32.1	15.1	0.00e+00	0	43	0	290455552	19	4798
2026-01-18 00:42:01.64	12.60	23.46	-29.7	-32.2	15.1	3.61e-04	0	43	0	292552704	19	4815
2026-01-18 00:42:02.64	12.55	23.60	-29.7	-32.2	15.1	0.00e+00	0	43	0	294649856	19	4823
2026-01-18 00:42:03.65	12.51	23.75	-29.6	-32.1	15.1	0.00e+00	0	43	0	296747008	19	4793
2026-01-18 00:42:04.65	12.46	23.90	-29.7	-32.3	15.1	0.00e+00	0	43	0	298844160	19	4853
2026-01-18 00:42:05.64	12.41	24.05	-29.7	-32.3	15.0	7.00e-07	0	43	0	299892736	19	4865
2026-01-18 00:42:06.65	12.36	24.20	-29.7	-32.4	15.0	0.00e+00	0	44	0	301989888	19	4890
2026-01-18 00:42:07.65	12.31	24.35	-29.8	-32.5	14.9	0.00e+00	0	44	0	304087040	19	4921
2026-01-18 00:42:08.66	12.26	24.51	-29.9	-32.8	14.8	0.00e+00	0	43	0	306184192	19	5016
2026-01-18 00:42:09.66	12.21	24.66	-29.8	-32.6	14.9	0.00e+00	0	43	0	308281344	19	4955
2026-01-18 00:42:10.66	12.16	24.82	-29.9	-32.7	14.8	0.00e+00	0	44	0	309329920	19	4985
2026-01-18 00:42:11.66	12.11	24.97	-29.8	-32.6	14.9	0.00e+00	0	43	0	311427072	19	4960
2026-01-18 00:42:12.67	12.05	25.13	-29.9	-32.7	14.8	1.20e-04	0	44	0	313524224	19	4978
2026-01-18 00:42:13.67	12.00	25.29	-29.9	-32.9	14.7	0.00e+00	0	44	0	315621376	19	5047
2026-01-18 00:42:14.67	11.95	25.45	-30.0	-32.9	14.7	0.00e+00	0	43	0	317718528	19	5058
2026-01-18 00:42:15.68	11.89	25.61	-29.9	-32.4	14.6	0.00e+00	0	43	0	318767104	20	4778
2026-01-18 00:42:16.68	11.84	25.77	-30.2	-33.2	14.1	2.20e-06	0	44	0	320864256	20	5071
2026-01-18 00:42:17.68	11.78	25.93	-30.2	-33.0	14.3	2.20e-06	0	43	0	322961408	20	4985
2026-01-18 00:42:18.69	11.73	26.09	-30.1	-32.8	14.4	0.00e+00	0	44	0	325058560	20	4922
2026-01-18 00:42:19.69	11.67	26.25	-30.1	-32.7	14.4	1.71e-03	0	43	0	327155712	20	4893
2026-01-18 00:42:20.69	11.61	26.42	-30.1	-32.8	14.4	1.50e-06	0	44	0	328204288	20	4918
2026-01-18 00:42:21.69	11.56	26.58	-30.2	-33.0	14.3	0.00e+00	0	44	0	330301440	20	4983
2026-01-18 00:42:22.70	11.50	26.75	-30.2	-33.0	14.3	7.00e-07	0	44	0	332398592	20	4998
2026-01-18 00:42:23.70	11.44	26.91	-30.3	-33.3	14.1	1.90e-03	0	44	0	334495744	20	5104
2026-01-18 00:42:24.71	11.38	27.08	-30.3	-33.4	14.0	7.00e-07	0	43	0	336592896	20	5146
2026-01-18 00:42:25.71	11.32	27.25	-30.4	-33.5	14.0	7.00e-07	0	44	0	337641472	20	5164
2026-01-18 00:42:26.70	11.26	27.42	-30.5	-33.8	13.8	1.78e-03	0	44	0	339738624	20	5291
2026-01-18 00:42:27.70	11.19	27.59	-30.7	-33.9	13.4	1.29e-05	0	44	0	341835776	21	5194
2026-01-18 00:42:28.70	11.13	27.76	-30.8	-34.2	13.2	2.28e-05	0	44	0	343932928	21	5321
2026-01-18 00:42:29.70	11.07	27.94	-30.9	-34.4	12.9	1.89e-03	0	44	0	346030080	21	5383
2026-01-18 00:42:30.70	11.01	28.11	-30.9	-34.5	12.8	2.67e-05	0	44	0	347078656	21	5417
2026-01-18 00:42:31.70	10.94	28.28	-31.1	-34.5	12.8	5.34e-05	0	44	0	349175808	22	5310
2026-01-18 00:42:32.70	10.88	28.46	-31.3	-35.0	12.2	6.79e-05	0	44	0	351272960	22	5539
2026-01-18 00:42:33.71	10.81	28.64	-31.3	-35.2	12.2	2.28e-04	0	44	0	353370112	22	5618
2026-01-18 00:42:34.72	10.74	28.82	-31.3	-35.2	12.3	1.85e-04	0	44	0	354418688	22	5589
2026-01-18 00:42:35.72	10.67	29.00	-31.5	-35.1	12.0	2.63e-04	0	44	0	356515840	23	5463
2026-01-18 00:42:36.73	10.60	29.18	-31.8	-36.0	11.3	7.83e-04	0	44	0	358612992	23	5878
2026-01-18 00:42:37.73	10.54	29.36	-31.8	-36.0	11.3	2.99e-03	0	44	0	360710144	23	5870
2026-01-18 00:42:38.74	10.46	29.55	-31.7	-35.8	11.5	9.01e-04	0	44	0	362807296	23	5771
2026-01-18 00:42:39.75	10.39	29.73	-31.7	-35.7	11.5	1.05e-03	0	44	0	363855872	23	5729
2026-01-18 00:42:40.74	10.32	29.91	-31.8	-36.0	11.4	2.05e-03	0	43	0	365953024	23	5858
2026-01-18 00:42:41.75	10.25	30.10	-31.9	-36.4	11.1	2.11e-03	0	43	0	368050176	23	6033
2026-01-18 00:42:42.75	10.17	30.29	-31.9	-36.3	11.2	1.75e-03	0	43	0	370147328	23	6000
2026-01-18 00:42:43.75	10.10	30.48	-31.9	-36.3	11.2	1.84e-03	0	43	0	372244480	23	6001
2026-01-18 00:42:44.75	10.02	30.67	-31.9	-36.5	11.0	2.10e-03	0	44	0	373293056	23	6104
2026-01-18 00:42:45.75	9.95	30.86	-32.0	-36.4	10.7	2.17e-03	0	44	0	375390208	24	5907
2026-01-18 00:42:46.76	9.87	31.05	-32.2	-36.8	10.5	4.90e-03	0	44	0	377487360	24	6114
2026-01-18 00:42:47.77	9.79	31.25	-32.2	-37.0	10.3	5.75e-03	0	44	0	379584512	24	6224
2026-01-18 00:42:48.77	9.71	31.44	-32.4	-37.5	9.9	5.57e-03	0	44	0	381681664	24	6495
2026-01-18 00:42:49.77	9.63	31.64	-32.3	-37.2	10.2	7.63e-03	0	44	0	382730240	24	6314
2026-01-18 00:42:50.77	9.55	31.83	-32.2	-37.1	10.3	6.66e-03	0	44	0	384827392	24	6271
2026-01-18 00:42:51.78	9.47	32.03	-32.2	-37.0	10.3	4.85e-03	0	44	0	386924544	24	6218
2026-01-18 00:42:52.78	9.38	32.23	-32.2	-36.8	10.5	5.35e-03	0	44	0	389021696	24	6119
2026-01-18 00:42:53.78	9.30	32.43	-32.2	-36.8	10.4	5.34e-03	0	44	0	391118848	24	6154
2026-01-18 00:42:54.79	9.21	32.64	-32.1	-36.6	10.6	3.71e-03	0	44	0	392167424	24	6020
2026-01-18 00:42:55.79	9.13	32.84	-32.2	-36.9	10.4	5.65e-03	0	44	0	394264576	24	6194
2026-01-18 00:42:56.79	9.04	33.04	-32.2	-36.9	10.4	6.78e-03	0	44	0	396361728	24	6151
2026-01-18 00:42:57.79	8.95	33.25	-32.1	-36.4	10.7	3.39e-03	0	44	0	398458880	24	5946
2026-01-18 00:42:58.79	8.86	33.46	-32.1	-36.4	10.7	4.06e-03	0	44	0	399507456	24	5951
2026-01-18 00:42:59.79	8.77	33.67	-32.1	-36.6	10.6	4.59e-03	0	44	0	401604608	24	6025
2026-01-18 00:43:00.79	8.68	33.88	-32.1	-36.5	10.7	3.07e-03	0	44	0	403701760	24	5952
2026-01-18 00:43:01.79	8.58	34.09	-32.1	-36.4	10.8	3.01e-03	0	44	0	405798912	24	5944
2026-01-18 00:43:02.80	8.49	34.30	-31.9	-36.4	11.1	2.93e-03	0	44	0	407896064	23	6030
2026-01-18 00:43:03.80	8.39	34.52	-31.9	-36.3	11.2	1.31e-03	0	44	0	408944640	23	5982
2026-01-18 00:43:04.81	8.29	34.73	-31.9	-36.3	11.2	2.10e-03	0	44	0	411041792	23	5990
2026-01-18 00:43:05.81	8.19	34.95	-31.8	-35.8	11.5	2.04e-03	0	44	0	413138944	23	5763
2026-01-18 00:43:06.82	8.09	35.17	-31.6	-35.3	11.9	5.83e-04	0	44	0	415236096	23	5517
2026-01-18 00:43:07.83	7.99	35.39	-31.6	-35.3	12.0	1.36e-03	0	44	0	417333248	23	5504
2026-01-18 00:43:08.84	7.88	35.61	-31.6	-35.3	12.0	1.41e-03	0	44	0	418381824	23	5520
2026-01-18 00:43:09.84	7.78	35.84	-31.5	-35.0	12.2	2.99e-04	0	44	0	420478976	23	5405
2026-01-18 00:43:10.84	7.67	36.06	-31.5	-35.5	12.2	1.90e-04	0	44	0	422576128	22	5703
2026-01-18 00:43:11.85	7.56	36.29	-31.4	-35.2	12.4	1.60e-03	0	44	0	424673280	22	5589
2026-01-18 00:43:12.85	7.45	36.52	-31.4	-35.3	12.3	1.36e-04	0	44	0	426770432	22	5614
2026-01-18 00:43:13.84	7.34	36.74	-31.3	-35.0	12.5	1.32e-04	0	43	0	427819008	22	5499
2026-01-18 00:43:14.85	7.23	36.97	-31.4	-35.4	12.2	1.81e-03	0	43	0	429916160	22	5692
2026-01-18 00:43:15.85	7.11	37.20	-31.4	-34.7	12.4	3.59e-04	0	44	0	432013312	23	5300
2026-01-18 00:43:16.86	7.00	37.44	-31.5	-35.1	12.1	2.34e-04	0	44	0	434110464	23	5434
2026-01-18 00:43:17.86	6.88	37.67	-31.4	-34.7	12.4	4.69e-04	0	44	0	436207616	23	5281
2026-01-18 00:43:18.87	6.76	37.91	-31.4	-35.1	12.5	3.79e-04	0	44	0	437256192	22	5565
2026-01-18 00:43:19.87	6.64	38.15	-31.4	-35.2	12.4	1.74e-03	0	43	0	439353344	22	5593
2026-01-18 00:43:20.87	6.51	38.39	-31.3	-35.1	12.5	4.02e-04	0	44	0	441450496	22	5532
2026-01-18 00:43:21.87	6.39	38.63	-31.5	-34.9	12.3	4.58e-04	0	43	0	443547648	23	5350
2026-01-18 00:43:22.88	6.26	38.87	-31.6	-35.4	11.9	1.72e-03	0	43	0	445644800	23	5553
2026-01-18 00:43:23.88	6.13	39.12	-31.7	-35.6	11.8	8.67e-04	0	43	0	446693376	23	5654
2026-01-18 00:43:24.88	6.00	39.36	-31.8	-35.9	11.6	9.67e-04	0	44	0	448790528	23	5785
2026-01-18 00:43:25.88	5.87	39.61	-31.7	-35.6	11.8	2.11e-03	0	44	0	450887680	23	5631
2026-01-18 00:43:26.89	5.73	39.86	-31.6	-35.3	12.0	2.03e-03	0	44	0	452984832	23	5530
2026-01-18 00:43:27.89	5.59	40.11	-31.5	-35.0	12.2	5.47e-04	0	44	0	454033408	23	5408
2026-01-18 00:43:28.89	5.45	40.36	-31.5	-34.9	12.3	2.26e-04	0	44	0	456130560	23	5363
2026-01-18 00:43:29.90	5.31	40.61	-31.6	-35.3	11.9	2.22e-03	0	44	0	458227712	23	5538
2026-01-18 00:43:30.90	5.17	40.87	-31.6	-35.3	12.0	4.01e-04	0	44	0	460324864	23	5507
2026-01-18 00:43:31.91	5.02	41.13	-31.6	-35.4	12.0	3.13e-04	0	44	0	462422016	23	5538
2026-01-18 00:43:32.92	4.87	41.39	-31.7	-35.5	11.9	2.58e-03	0	44	0	464519168	23	5622
2026-01-18 00:43:33.92	4.72	41.65	-31.6	-35.5	11.9	4.08e-04	0	44	0	465567744	23	5594
2026-01-18 00:43:34.93	4.56	41.91	-31.7	-35.6	11.9	4.50e-04	0	44	0	467664896	23	5642
2026-01-18 00:43:35.93	4.40	42.17	-31.8	-35.9	11.7	6.66e-04	0	44	0	469762048	23	5761
2026-01-18 00:43:36.94	4.24	42.44	-31.7	-35.6	11.8	6.90e-04	0	43	0	471859200	23	5666
2026-01-18 00:43:37.94	4.08	42.71	-31.6	-35.3	12.0	3.77e-04	0	44	0	472907776	23	5534
2026-01-18 00:43:38.94	3.92	42.97	-31.6	-35.3	12.0	3.35e-04	0	44	0	475004928	23	5521
2026-01-18 00:43:39.94	3.75	43.24	-31.7	-35.5	11.9	3.94e-04	0	44	0	477102080	23	5604
2026-01-18 00:43:40.95	3.58	43.52	-31.8	-36.1	11.4	7.32e-04	0	44	0	479199232	23	5864
2026-01-18 00:43:41.95	3.40	43.79	-31.7	-35.8	11.7	6.34e-04	0	44	0	481296384	23	5714
2026-01-18 00:43:42.96	3.23	44.07	-31.6	-35.4	12.0	4.02e-04	0	44	0	482344960	23	5568
2026-01-18 00:43:43.95	3.05	44.34	-31.4	-34.8	12.4	2.60e-03	0	44	0	484442112	23	5304
2026-01-18 00:43:44.96	2.86	44.62	-31.4	-34.8	12.4	1.88e-04	0	44	0	486539264	23	5293
2026-01-18 00:43:45.96	2.68	44.90	-31.3	-34.4	12.6	1.17e-04	0	44	0	488636416	23	5156
2026-01-18 00:43:46.95	2.49	45.18	-31.2	-34.6	12.9	6.48e-05	0	44	0	490733568	22	5320
2026-01-18 00:43:47.95	2.30	45.46	-31.2	-34.5	12.8	4.19e-05	0	44	0	491782144	22	5314
2026-01-18 00:43:48.95	2.10	45.74	-31.1	-34.2	13.1	1.75e-05	0	44	0	493879296	22	5199
2026-01-18 00:43:49.95	1.90	46.03	-31.2	-34.7	12.8	3.43e-05	0	44	0	495976448	22	5385
2026-01-18 00:43:50.95	1.70	46.32	-31.0	-34.1	13.2	1.75e-05	0	44	0	498073600	22	5142
2026-01-18 00:43:51.95	1.49	46.60	-31.0	-34.1	13.2	2.36e-05	0	44	0	499122176	22	5146
2026-01-18 00:43:52.95	1.28	46.89	-31.1	-34.2	13.1	2.89e-05	0	44	0	501219328	22	5190
2026-01-18 00:43:53.96	1.06	47.19	-31.0	-34.0	13.2	2.59e-05	0	44	0	503316480	22	5111
2026-01-18 00:43:54.97	0.84	47.49	-30.9	-33.8	13.4	1.14e-05	0	44	0	505413632	22	5003
2026-01-18 00:43:55.97	0.61	47.78	-31.1	-34.2	13.2	1.06e-05	0	44	0	507510784	22	5176
2026-01-18 00:43:56.97	0.39	48.08	-31.1	-34.2	13.1	1.83e-05	0	44	0	509607936	22	5184
2026-01-18 00:43:57.98	0.15	48.38	-31.0	-34.1	13.2	3.35e-05	0	44	0	510656512	22	5135
2026-01-18 00:43:58.98	359.91	48.68	-31.2	-34.7	12.9	5.56e-05	0	44	0	512753664	22	5360
2026-01-18 00:43:59.98	359.67	48.98	-31.2	-34.5	12.9	4.65e-05	0	44	0	514850816	22	5289
2026-01-18 00:44:00.95	359.43	49.27	-31.2	-34.5	13.0	4.80e-05	0	44	0	516947968	22	5301
2026-01-18 00:44:01.96	359.18	49.58	-30.9	-33.9	13.4	1.83e-05	0	44	0	517996544	22	5048
2026-01-18 00:44:02.96	358.92	49.89	-30.8	-34.1	13.5	6.80e-06	0	44	0	520093696	21	5249
2026-01-18 00:44:03.96	358.66	50.19	-30.6	-33.6	13.8	5.30e-06	0	44	0	522190848	21	5057
2026-01-18 00:44:04.97	358.39	50.51	-29.7	-32.6	13.8	3.00e-06	0	44	0	524288000	21	4987
2026-01-18 00:44:05.97	358.11	50.82	-30.6	-33.4	13.9	4.50e-06	0	44	0	526385152	21	5003
2026-01-18 00:44:06.98	357.83	51.13	-30.1	-32.6	14.3	0.00e+00	0	44	0	527433728	20	4822
2026-01-18 00:44:07.98	357.54	51.44	-30.0	-32.4	13.4	0.00e+00	0	44	0	529530880	20	4744
2026-01-18 00:44:08.97	357.26	51.75	-29.6	-31.4	15.3	7.00e-07	0	44	0	531628032	20	4438
2026-01-18 00:44:09.98	356.95	52.07	-29.4	-31.9	15.4	0.00e+00	0	44	0	533725184	18	4803
2026-01-18 00:44:10.98	356.65	52.39	-29.4	-32.0	15.5	0.00e+00	0	44	0	535822336	18	4834
2026-01-18 00:44:11.99	356.34	52.71	-29.6	-31.8	15.7	0.00e+00	0	44	0	536870912	19	4662
2026-01-18 00:44:12.99	356.02	53.03	-29.8	-32.5	15.2	0.00e+00	0	44	0	538968064	19	4905
2026-01-18 00:44:13.99	355.69	53.35	-29.9	-32.7	15.1	0.00e+00	0	44	0	541065216	19	4968
2026-01-18 00:44:14.99	355.36	53.67	-30.1	-32.6	14.8	1.08e-04	0	44	0	543162368	20	4833
2026-01-18 00:44:15.99	355.02	53.99	-30.3	-33.3	14.4	0.00e+00	0	44	0	545259520	20	5055
2026-01-18 00:44:16.99	354.67	54.31	-30.1	-32.6	14.9	7.00e-07	0	44	0	546308096	20	4822
2026-01-18 00:44:18.00	354.31	54.64	-30.0	-32.3	15.0	0.00e+00	0	43	0	548405248	20	4729
2026-01-18 00:44:19.01	353.94	54.97	-30.0	-32.4	14.9	1.47e-03	0	44	0	550502400	20	4756
2026-01-18 00:44:20.01	353.57	55.29	-30.0	-32.4	14.9	0.00e+00	0	44	0	552599552	20	4754
2026-01-18 00:44:21.01	353.19	55.62	-30.4	-33.4	14.4	1.50e-06	0	44	0	554696704	20	5098
2026-01-18 00:44:22.02	352.79	55.95	-30.7	-33.8	13.8	1.85e-03	0	44	0	555745280	21	5113
2026-01-18 00:44:23.02	352.39	56.28	-30.9	-34.4	13.3	7.60e-06	0	44	0	557842432	21	5365
2026-01-18 00:44:24.03	351.98	56.61	-31.3	-35.0	12.7	2.59e-05	0	44	0	559939584	22	5477
2026-01-18 00:44:25.02	351.56	56.94	-31.5	-35.1	12.2	2.23e-03	0	44	0	562036736	23	5409
2026-01-18 00:44:26.03	351.13	57.27	-31.9	-36.3	11.4	2.91e-03	0	44	0	563085312	23	5940
2026-01-18 00:44:27.04	350.68	57.60	-32.0	-36.2	11.0	1.68e-03	0	44	0	565182464	24	5786
2026-01-18 00:44:28.04	350.23	57.93	-32.0	-36.4	11.3	1.16e-03	0	44	0	567279616	23	5996
2026-01-18 00:44:29.04	349.77	58.26	-31.8	-36.0	11.6	3.01e-03	0	44	0	569376768	23	5786
2026-01-18 00:44:30.05	349.29	58.59	-31.9	-36.1	11.5	6.19e-04	0	44	0	571473920	23	5878
2026-01-18 00:44:31.05	348.80	58.92	-31.8	-36.0	11.6	9.65e-04	0	44	0	572522496	23	5821
2026-01-18 00:44:32.05	348.30	59.25	-31.6	-35.4	12.0	1.57e-03	0	44	0	574619648	23	5526
2026-01-18 00:44:33.05	347.79	59.58	-31.7	-35.7	11.9	3.94e-04	0	44	0	576716800	23	5656
2026-01-18 00:44:34.06	347.26	59.91	-31.8	-35.8	11.8	3.68e-04	0	44	0	578813952	23	5713
2026-01-18 00:44:35.07	346.72	60.25	-31.8	-35.7	11.8	1.39e-03	0	44	0	580911104	23	5676
2026-01-18 00:44:36.07	346.16	60.57	-31.3	-34.5	12.6	1.60e-04	0	44	0	581959680	23	5174
2026-01-18 00:44:37.08	345.59	60.90	-31.2	-34.5	13.0	1.68e-03	0	44	0	584056832	22	5289
2026-01-18 00:44:38.07	345.01	61.23	-31.3	-34.8	12.7	3.58e-05	0	44	0	586153984	22	5421
2026-01-18 00:44:39.08	344.41	61.56	-31.2	-34.5	13.0	4.34e-05	0	44	0	588251136	22	5285
2026-01-18 00:44:40.07	343.80	61.88	-31.4	-35.3	12.5	1.85e-03	0	44	0	590348288	22	5601
2026-01-18 00:44:41.07	343.17	62.20	-30.8	-34.0	13.6	3.89e-05	0	44	0	591396864	21	5227
2026-01-18 00:44:42.07	342.52	62.52	-30.3	-32.6	14.5	0.00e+00	0	44	0	593494016	21	4715
2026-01-18 00:44:43.08	341.84	62.84	-29.7	-31.7	15.4	7.26e-04	0	44	0	595591168	20	4527
2026-01-18 00:44:44.07	341.17	63.16	-29.6	-31.8	15.7	3.75e-04	0	44	0	597688320	19	4670
2026-01-18 00:44:45.08	340.46	63.47	-29.6	-32.0	15.6	0.00e+00	0	44	0	599785472	19	4733
2026-01-18 00:44:46.07	339.74	63.78	-29.7	-32.2	15.4	4.03e-04	0	44	0	600834048	19	4790
2026-01-18 00:44:47.07	339.00	64.09	-30.0	-32.4	14.9	7.45e-04	0	44	0	602931200	20	4771
2026-01-18 00:44:48.08	338.23	64.40	-30.3	-33.2	14.5	0.00e+00	0	44	0	605028352	20	5018
2026-01-18 00:44:49.07	337.46	64.71	-30.3	-33.3	14.4	3.17e-04	0	44	0	607125504	20	5070
2026-01-18 00:44:50.07	336.66	65.01	-30.3	-33.1	14.4	1.65e-04	0	44	0	608174080	20	5002
2026-01-18 00:44:51.08	335.82	65.31	-30.4	-33.4	14.2	7.00e-07	0	44	0	610271232	20	5109
2026-01-18 00:44:52.08	334.98	65.60	-30.6	-33.6	13.9	7.00e-07	0	44	0	612368384	21	5073
2026-01-18 00:44:53.08	334.10	65.89	-31.0	-34.6	13.2	3.39e-04	0	44	0	614465536	21	5450
2026-01-18 00:44:54.08	333.21	66.18	-31.3	-34.8	12.8	4.50e-05	0	44	0	616562688	22	5433
2026-01-18 00:44:55.09	332.28	66.47	-31.5	-35.0	12.3	1.68e-03	0	44	0	617611264	23	5398
2026-01-18 00:44:56.09	331.34	66.74	-31.9	-36.3	11.5	2.03e-03	0	44	0	619708416	23	5963
2026-01-18 00:44:57.10	330.36	67.02	-32.1	-36.3	11.1	1.89e-03	0	44	0	621805568	24	5880
2026-01-18 00:44:58.10	329.37	67.29	-32.0	-36.1	11.2	2.61e-03	0	44	0	623902720	24	5746
2026-01-18 00:44:59.10	328.35	67.55	-32.1	-36.3	11.0	1.91e-03	0	44	0	625999872	24	5846
2026-01-18 00:45:00.10	327.31	67.80	-32.2	-36.6	10.7	2.62e-03	0	44	0	627048448	24	6013
2026-01-18 00:45:01.10	326.24	68.05	-31.9	-35.6	11.5	2.36e-03	0	44	0	629145600	24	5530
2026-01-18 00:45:02.11	325.13	68.30	-31.9	-36.3	11.5	1.68e-03	0	44	0	631242752	23	5936
2026-01-18 00:45:03.11	324.00	68.53	-32.0	-35.9	11.3	8.11e-04	0	44	0	633339904	24	5681
2026-01-18 00:45:04.11	322.85	68.76	-31.9	-35.7	11.4	1.32e-03	0	44	0	635437056	24	5562
2026-01-18 00:45:05.11	321.67	68.98	-31.6	-34.7	12.3	5.06e-04	0	44	0	636485632	24	5148
2026-01-18 00:45:06.11	320.47	69.20	-31.3	-34.4	12.8	9.15e-05	0	44	0	638582784	23	5131
2026-01-18 00:45:07.11	319.24	69.40	-31.3	-34.5	12.7	7.47e-05	0	44	0	640679936	23	5206
2026-01-18 00:45:08.11	317.98	69.60	-30.8	-33.0	13.6	3.73e-05	0	44	0	642777088	23	4633
2026-01-18 00:45:09.12	316.69	69.78	-30.1	-32.2	14.8	2.20e-06	0	44	0	644874240	21	4575
2026-01-18 00:45:10.12	315.38	69.96	-29.8	-31.9	15.3	1.94e-04	0	44	0	645922816	20	4591
2026-01-18 00:45:11.12	314.05	70.13	-30.0	-32.5	14.9	2.81e-04	0	44	0	648019968	20	4775
2026-01-18 00:45:12.13	312.68	70.29	-30.2	-32.8	14.8	0.00e+00	0	44	0	650117120	20	4901
2026-01-18 00:45:13.13	311.30	70.44	-30.4	-33.5	14.3	2.20e-06	0	44	0	652214272	20	5138
2026-01-18 00:45:14.13	309.90	70.57	-30.5	-33.1	14.2	1.90e-05	0	44	0	653262848	21	4890
2026-01-18 00:45:15.13	308.48	70.70	-30.3	-32.6	14.5	2.20e-06	0	44	0	655360000	21	4703
2026-01-18 00:45:16.14	307.02	70.82	-30.4	-33.0	14.3	7.01e-05	0	44	0	657457152	21	4833
2026-01-18 00:45:17.14	305.57	70.92	-30.7	-33.6	13.9	1.50e-06	0	44	0	659554304	21	5063
2026-01-18 00:45:18.14	304.09	71.01	-30.9	-34.1	13.5	8.30e-06	0	44	0	661651456	21	5257
2026-01-18 00:45:19.14	302.60	71.09	-30.6	-33.5	13.9	6.10e-06	0	44	0	662700032	21	5020
2026-01-18 00:45:20.15	301.09	71.16	-30.6	-33.5	13.9	9.10e-06	0	44	0	664797184	21	5018
2026-01-18 00:45:21.16	299.56	71.21	-30.7	-33.8	13.9	1.27e-04	0	44	0	666894336	21	5133
2026-01-18 00:45:22.16	298.04	71.26	-31.0	-34.0	13.3	7.32e-05	0	44	0	668991488	22	5092
2026-01-18 00:45:23.16	296.52	71.29	-31.4	-35.2	12.6	2.53e-04	0	44	0	671088640	22	5585
2026-01-18 00:45:24.16	294.99	71.30	-31.7	-35.5	12.0	4.37e-04	0	44	0	672137216	23	5585
2026-01-18 00:45:25.16	293.46	71.31	-31.5	-34.9	12.5	1.65e-03	0	44	0	674234368	23	5326
2026-01-18 00:45:26.15	291.94	71.30	-31.4	-35.1	12.6	1.41e-03	0	44	0	676331520	22	5508
2026-01-18 00:45:27.16	290.40	71.28	-31.5	-34.9	12.4	1.59e-04	0	44	0	678428672	23	5339
2026-01-18 00:45:28.16	288.87	71.25	-31.3	-34.8	12.7	1.17e-04	0	44	0	680525824	22	5408
2026-01-18 00:45:29.16	287.35	71.20	-30.8	-33.4	13.8	1.33e-03	0	44	0	681574400	22	4863
2026-01-18 00:45:30.16	285.84	71.14	-30.3	-32.6	14.5	0.00e+00	0	43	0	683671552	21	4710
2026-01-18 00:45:31.16	284.35	71.07	-30.1	-32.8	14.8	0.00e+00	0	44	0	685768704	20	4868
2026-01-18 00:45:32.17	282.84	70.99	-30.3	-33.3	14.4	2.22e-03	0	44	0	687865856	20	5058
2026-01-18 00:45:33.18	281.36	70.90	-30.3	-33.1	14.4	3.73e-05	0	44	0	689963008	20	4998
2026-01-18 00:45:34.18	279.90	70.79	-30.1	-32.8	14.7	0.00e+00	0	44	0	691011584	20	4880
2026-01-18 00:45:35.19	278.45	70.67	-30.3	-33.1	14.5	2.30e-04	0	44	0	693108736	20	4980
2026-01-18 00:45:36.19	277.04	70.54	-30.4	-33.4	14.3	1.69e-04	0	44	0	695205888	20	5090
2026-01-18 00:45:37.20	275.63	70.40	-30.2	-32.9	14.7	0.00e+00	0	44	0	697303040	20	4923
2026-01-18 00:45:38.20	274.25	70.25	-29.9	-32.2	15.1	1.21e-04	0	44	0	698351616	20	4686
2026-01-18 00:45:39.21	272.89	70.09	-30.2	-33.0	14.6	2.59e-04	0	44	0	700448768	20	4953
2026-01-18 00:45:40.21	271.56	69.92	-30.7	-33.7	13.8	1.50e-06	0	44	0	702545920	21	5089
2026-01-18 00:45:41.21	270.26	69.74	-31.1	-34.5	13.0	3.91e-04	0	44	0	704643072	22	5275
2026-01-18 00:45:42.22	268.97	69.55	-31.2	-34.7	12.9	2.68e-04	0	44	0	706740224	22	5368
2026-01-18 00:45:43.22	267.72	69.35	-31.3	-34.8	12.8	4.73e-05	0	44	0	708837376	22	5402
2026-01-18 00:45:44.22	266.49	69.14	-31.5	-35.0	12.3	1.30e-04	0	44	0	709885952	23	5377
2026-01-18 00:45:45.22	265.29	68.93	-31.6	-35.3	12.2	3.81e-04	0	44	0	711983104	23	5499
2026-01-18 00:45:46.22	264.12	68.70	-31.8	-35.8	11.8	3.79e-04	0	44	0	714080256	23	5723
2026-01-18 00:45:47.22	262.97	68.47	-31.6	-35.1	12.2	2.54e-04	0	44	0	716177408	23	5428
2026-01-18 00:45:48.22	261.86	68.24	-31.7	-35.5	11.9	4.95e-04	0	44	0	717225984	23	5599
2026-01-18 00:45:49.23	260.75	67.99	-31.9	-36.1	11.6	4.74e-04	0	44	0	719323136	23	5853
2026-01-18 00:45:50.23	259.69	67.74	-31.9	-36.3	11.4	1.05e-03	0	44	0	721420288	23	5945
2026-01-18 00:45:51.23	258.65	67.48	-31.8	-36.0	11.6	6.42e-04	0	44	0	723517440	23	5806
2026-01-18 00:45:52.23	257.63	67.22	-31.8	-35.8	11.7	5.28e-04	0	44	0	725614592	23	5724
2026-01-18 00:45:53.23	256.65	66.95	-31.7	-35.5	12.0	7.16e-04	0	44	0	726663168	23	5580
2026-01-18 00:45:54.24	255.67	66.67	-31.7	-35.5	11.8	3.94e-04	0	44	0	728760320	23	5581
2026-01-18 00:45:55.24	254.74	66.39	-31.4	-34.7	12.5	3.39e-04	0	44	0	730857472	23	5252
2026-01-18 00:45:56.24	253.82	66.11	-31.0	-34.1	13.3	2.84e-04	0	44	0	732954624	22	5129
2026-01-18 00:45:57.24	252.93	65.82	-31.2	-34.6	12.9	4.11e-05	0	44	0	735051776	22	5342
2026-01-18 00:45:58.24	252.07	65.53	-31.4	-34.6	12.5	1.33e-04	0	44	0	736100352	23	5241
2026-01-18 00:45:59.24	251.22	65.23	-31.1	-34.2	13.1	3.29e-04	0	44	0	738197504	22	5180
2026-01-18 00:46:00.24	250.40	64.93	-31.3	-35.0	12.7	3.46e-04	0	43	0	740294656	22	5481
2026-01-18 00:46:01.23	249.61	64.63	-30.9	-33.9	13.3	3.96e-05	0	44	0	742391808	22	5081
2026-01-18 00:46:02.23	248.83	64.33	-30.4	-33.1	14.1	3.50e-04	0	44	0	743440384	21	4877
2026-01-18 00:46:03.23	248.08	64.02	-30.3	-33.3	14.4	3.44e-04	0	44	0	745537536	20	5048
2026-01-18 00:46:04.23	247.34	63.71	-30.4	-33.5	14.2	0.00e+00	0	44	0	747634688	20	5134
2026-01-18 00:46:05.23	246.62	63.39	-30.2	-33.0	14.5	0.00e+00	0	44	0	749731840	20	4968
2026-01-18 00:46:06.23	245.92	63.08	-29.1	-31.3	14.8	2.12e-04	0	44	0	751828992	20	4662
2026-01-18 00:46:07.23	245.24	62.76	-29.6	-31.8	14.0	0.00e+00	0	44	0	752877568	19	4679
2026-01-18 00:46:08.24	244.57	62.43	-29.4	-31.4	15.8	0.00e+00	0	44	0	754974720	19	4536
2026-01-18 00:46:09.23	243.93	62.11	-29.4	-32.0	14.1	0.00e+00	0	44	0	757071872	18	4825
2026-01-18 00:46:10.23	243.30	61.79	-29.6	-31.8	14.1	0.00e+00	0	44	0	759169024	19	4675
2026-01-18 00:46:11.23	242.69	61.47	-29.6	-31.9	15.5	0.00e+00	0	44	0	761266176	19	4693
2026-01-18 00:46:12.24	242.09	61.14	-30.0	-32.9	14.7	0.00e+00	0	44	0	762314752	19	5046
2026-01-18 00:46:13.24	241.51	60.81	-30.3	-33.2	14.3	0.00e+00	0	44	0	764411904	20	5044
2026-01-18 00:46:14.24	240.94	60.48	-30.4	-33.5	14.2	6.86e-05	0	44	0	766509056	20	5126
2026-01-18 00:46:15.25	240.39	60.15	-30.4	-33.5	14.2	2.20e-06	0	44	0	768606208	20	5135
2026-01-18 00:46:16.24	239.86	59.82	-30.5	-33.3	14.0	3.00e-06	0	44	0	770703360	21	4949
2026-01-18 00:46:17.25	239.33	59.49	-30.7	-33.9	13.6	1.64e-04	0	44	0	771751936	21	5162
2026-01-18 00:46:18.26	238.81	59.16	-31.0	-34.6	13.2	1.43e-03	0	44	0	773849088	21	5443
2026-01-18 00:46:19.27	238.31	58.82	-31.2	-34.8	12.7	3.96e-05	0	44	0	775946240	22	5432
2026-01-18 00:46:20.27	237.83	58.49	-31.9	-36.2	11.4	2.07e-04	0	44	0	778043392	23	5941
2026-01-18 00:46:21.27	237.35	58.16	-32.0	-36.2	11.0	2.68e-03	0	44	0	780140544	24	5846
2026-01-18 00:46:22.27	236.89	57.83	-31.8	-36.1	11.4	1.33e-03	0	44	0	781189120	23	5886
2026-01-18 00:46:23.27	236.44	57.50	-31.7	-35.7	11.7	8.33e-04	0	44	0	783286272	23	5696
2026-01-18 00:46:24.27	236.00	57.17	-31.5	-34.9	12.3	5.26e-04	0	44	0	785383424	23	5378
2026-01-18 00:46:25.27	235.57	56.84	-31.1	-34.4	12.9	1.99e-03	0	44	0	787480576	22	5272
2026-01-18 00:46:26.27	235.16	56.51	-30.6	-33.0	13.9	7.60e-06	0	44	0	789577728	22	4740
2026-01-18 00:46:27.28	234.74	56.18	-30.3	-33.3	14.3	1.50e-06	0	44	0	790626304	20	5069
2026-01-18 00:46:28.29	234.34	55.85	-30.6	-33.4	13.8	1.59e-03	0	44	0	792723456	21	5020
2026-01-18 00:46:29.29	233.95	55.52	-30.4	-33.0	14.2	3.00e-06	0	44	0	794820608	21	4854
2026-01-18 00:46:30.29	233.57	55.19	-29.8	-32.1	15.0	1.50e-06	0	44	0	796917760	20	4647
2026-01-18 00:46:31.29	233.20	54.87	-29.9	-32.7	15.1	0.00e+00	0	44	0	797966336	19	4969
2026-01-18 00:46:32.29	232.84	54.54	-29.8	-32.6	15.1	7.00e-07	0	44	0	800063488	19	4932
2026-01-18 00:46:33.30	232.48	54.21	-29.2	-31.4	16.1	0.00e+00	0	44	0	802160640	18	4669
2026-01-18 00:46:34.30	232.13	53.89	-28.8	-30.5	16.5	0.00e+00	0	44	0	804257792	18	4393
2026-01-18 00:46:35.31	231.79	53.56	-28.8	-30.9	16.6	0.00e+00	0	44	0	806354944	17	4629
2026-01-18 00:46:36.31	231.46	53.24	-28.9	-31.4	16.3	1.40e-03	0	44	0	807403520	17	4759
2026-01-18 00:46:37.30	231.14	52.92	-29.0	-31.1	16.3	0.00e+00	0	44	0	809500672	18	4551
2026-01-18 00:46:38.30	230.82	52.60	-29.3	-31.8	15.8	0.00e+00	0	44	0	811597824	18	4785
2026-01-18 00:46:39.30	230.51	52.28	-29.5	-31.8	15.5	1.27e-03	0	44	0	813694976	19	4677
2026-01-18 00:46:40.30	230.20	51.97	-29.7	-32.1	15.3	0.00e+00	0	44	0	815792128	19	4787
2026-01-18 00:46:41.31	229.90	51.65	-29.8	-32.4	15.1	0.00e+00	0	44	0	816840704	19	4870
2026-01-18 00:46:42.31	229.61	51.33	-29.9	-32.8	14.9	1.52e-03	0	44	0	818937856	19	5018
2026-01-18 00:46:43.31	229.33	51.02	-29.9	-32.7	15.0	1.06e-03	0	44	0	821035008	19	4994
2026-01-18 00:46:44.31	229.05	50.71	-29.9	-32.2	14.9	0.00e+00	0	44	0	823132160	20	4713
2026-01-18 00:46:45.32	228.77	50.39	-30.0	-32.4	14.8	7.04e-04	0	44	0	825229312	20	4786
2026-01-18 00:46:46.32	228.51	50.09	-30.3	-33.3	14.2	6.24e-04	0	44	0	826277888	20	5069
2026-01-18 00:46:47.33	228.24	49.77	-30.8	-34.1	13.4	7.00e-07	0	44	0	828375040	21	5277
2026-01-18 00:46:48.33	227.99	49.47	-31.1	-34.5	12.8	6.12e-04	0	44	0	830472192	22	5326
2026-01-18 00:46:49.32	227.74	49.17	-31.3	-35.2	12.2	4.55e-04	0	44	0	832569344	22	5612
2026-01-18 00:46:50.33	227.49	48.86	-31.3	-35.0	12.4	1.71e-04	0	44	0	834666496	22	5511
2026-01-18 00:46:51.33	227.25	48.56	-30.7	-33.5	13.4	5.26e-05	0	44	0	835715072	22	4928
2026-01-18 00:46:52.33	227.01	48.26	-30.4	-33.1	14.0	2.53e-04	0	44	0	837812224	21	4911
2026-01-18 00:46:53.33	226.78	47.96	-30.5	-33.4	13.9	3.80e-06	0	44	0	839909376	21	4999
2026-01-18 00:46:54.34	226.55	47.66	-30.5	-33.4	13.8	3.25e-04	0	44	0	842006528	21	5026
2026-01-18 00:46:55.35	226.32	47.36	-30.8	-34.1	13.3	3.96e-04	0	44	0	843055104	21	5285
2026-01-18 00:46:56.35	226.10	47.07	-31.0	-34.6	13.0	2.97e-05	0	44	0	845152256	21	5492
2026-01-18 00:46:57.35	225.89	46.77	-31.3	-35.2	12.4	8.41e-04	0	44	0	847249408	22	5606
2026-01-18 00:46:58.35	225.68	46.48	-31.6	-35.5	11.8	5.48e-04	0	44	0	849346560	23	5635
2026-01-18 00:46:59.35	225.47	46.19	-31.4	-34.9	12.1	3.09e-04	0	44	0	851443712	23	5391
2026-01-18 00:47:00.35	225.26	45.91	-31.3	-35.0	12.4	4.67e-04	0	44	0	852492288	22	5528
2026-01-18 00:47:01.35	225.07	45.62	-31.3	-35.0	12.4	1.94e-04	0	44	0	854589440	22	5550
2026-01-18 00:47:02.35	224.87	45.34	-31.3	-35.2	12.3	2.15e-04	0	44	0	856686592	22	5618
2026-01-18 00:47:03.35	224.68	45.05	-31.1	-34.6	12.7	1.07e-04	0	44	0	858783744	22	5383
2026-01-18 00:47:04.36	224.49	44.77	-31.0	-34.2	12.9	1.51e-04	0	44	0	860880896	22	5214
2026-01-18 00:47:05.36	224.30	44.49	-31.0	-34.2	13.0	2.59e-05	0	44	0	861929472	22	5224
2026-01-18 00:47:06.36	224.12	44.21	-31.3	-35.0	12.4	2.60e-04	0	44	0	864026624	22	5552
2026-01-18 00:47:07.36	223.94	43.93	-31.4	-35.4	12.1	3.08e-04	0	44	0	866123776	22	5730
2026-01-18 00:47:08.36	223.76	43.66	-31.6	-35.7	11.6	6.32e-04	0	44	0	868220928	23	5720
2026-01-18 00:47:09.35	223.59	43.39	-31.6	-35.6	11.6	7.08e-04	0	44	0	870318080	23	5677
2026-01-18 00:47:10.35	223.42	43.12	-31.7	-35.9	11.4	1.26e-03	0	44	0	871366656	23	5811
2026-01-18 00:47:11.36	223.25	42.85	-31.7	-35.9	11.4	7.22e-04	0	44	0	873463808	23	5832
2026-01-18 00:47:12.36	223.09	42.58	-31.9	-36.6	10.9	1.75e-03	0	44	0	875560960	23	6155
2026-01-18 00:47:13.37	222.92	42.31	-32.0	-36.4	10.6	3.44e-03	0	44	0	877658112	24	5966
2026-01-18 00:47:14.37	222.77	42.04	-32.1	-36.8	10.3	5.15e-03	0	44	0	879755264	24	6188
2026-01-18 00:47:15.37	222.61	41.78	-32.1	-36.7	10.4	6.19e-03	0	44	0	880803840	24	6089
2026-01-18 00:47:16.37	222.46	41.52	-32.3	-37.2	10.0	6.84e-03	0	44	0	882900992	24	6369
2026-01-18 00:47:17.38	222.30	41.26	-32.3	-37.5	9.8	8.97e-03	0	44	0	884998144	24	6507
2026-01-18 00:47:18.38	222.15	41.00	-32.4	-37.8	9.6	1.07e-02	0	44	0	887095296	24	6711
2026-01-18 00:47:19.38	222.01	40.74	-32.2	-37.0	10.1	6.68e-03	0	44	0	888143872	24	6283
2026-01-18 00:47:20.38	221.86	40.49	-32.1	-36.7	10.5	3.86e-03	0	44	0	890241024	24	6088
2026-01-18 00:47:21.38	221.72	40.23	-32.0	-36.2	10.9	3.29e-03	0	44	0	892338176	24	5839
2026-01-18 00:47:22.38	221.58	39.98	-31.8	-35.8	11.1	1.85e-03	0	44	0	894435328	24	5667
2026-01-18 00:47:23.39	221.44	39.73	-31.8	-35.8	11.1	1.42e-03	0	44	0	896532480	24	5694
2026-01-18 00:47:24.39	221.31	39.48	-32.1	-36.6	10.5	2.54e-03	0	44	0	897581056	24	6052
2026-01-18 00:47:25.39	221.18	39.23	-32.1	-36.8	10.3	5.14e-03	0	44	0	899678208	24	6154
2026-01-18 00:47:26.39	221.04	38.99	-31.8	-35.9	11.0	2.11e-03	0	44	0	901775360	24	5731
2026-01-18 00:47:27.39	220.92	38.74	-31.6	-35.2	11.5	1.08e-03	0	44	0	903872512	24	5419
2026-01-18 00:47:28.39	220.79	38.50	-31.4	-34.5	12.0	4.26e-04	0	44	0	905969664	24	5128
2026-01-18 00:47:29.39	220.66	38.26	-31.3	-34.2	12.3	2.39e-04	0	44	0	907018240	24	4999
2026-01-18 00:47:30.39	220.54	38.02	-31.3	-34.6	12.3	2.08e-04	0	44	0	909115392	23	5266
2026-01-18 00:47:31.39	220.42	37.78	-31.4	-35.0	12.1	2.23e-04	0	44	0	911212544	23	5430
2026-01-18 00:47:32.39	220.30	37.55	-31.5	-35.2	11.9	4.54e-04	0	44	0	913309696	23	5525
2026-01-18 00:47:33.39	220.18	37.31	-31.5	-35.2	11.9	4.32e-04	0	44	0	914358272	23	5521
2026-01-18 00:47:34.39	220.06	37.08	-31.4	-34.8	12.1	4.16e-04	0	44	0	916455424	23	5369
2026-01-18 00:47:35.39	219.95	36.85	-31.4	-34.8	12.1	2.72e-04	0	44	0	918552576	23	5363
2026-01-18 00:47:36.39	219.84	36.62	-31.2	-34.5	12.4	2.68e-04	0	44	0	920649728	23	5236
2026-01-18 00:47:37.40	219.73	36.39	-31.2	-34.4	12.4	1.33e-04	0	44	0	922746880	23	5188
2026-01-18 00:47:38.41	219.61	36.16	-31.2	-34.4	12.4	1.37e-04	0	44	0	924844032	23	5182
2026-01-18 00:47:39.41	219.51	35.93	-31.2	-34.9	12.4	6.06e-04	0	44	0	925892608	22	5514
2026-01-18 00:47:40.41	219.40	35.71	-31.2	-34.8	12.5	1.51e-04	0	44	0	927989760	22	5478
2026-01-18 00:47:41.41	219.29	35.48	-31.1	-34.6	12.6	9.61e-05	0	44	0	930086912	22	5385
2026-01-18 00:47:42.40	219.19	35.26	-31.0	-34.3	12.7	5.08e-04	0	44	0	932184064	22	5265
2026-01-18 00:47:43.41	219.09	35.04	-30.8	-34.2	13.2	2.28e-05	0	44	0	933232640	21	5351
2026-01-18 00:47:44.41	218.99	34.82	-30.8	-34.2	13.2	2.59e-05	0	44	0	935329792	21	5339
2026-01-18 00:47:45.41	218.89	34.61	-30.9	-34.6	12.9	1.98e-05	0	44	0	937426944	21	5492
2026-01-18 00:47:46.42	218.79	34.39	-31.2	-34.8	12.5	1.74e-03	0	44	0	939524096	22	5443
2026-01-18 00:47:47.43	218.69	34.17	-31.3	-35.2	12.2	2.82e-04	0	44	0	941621248	22	5625
2026-01-18 00:47:48.43	218.60	33.96	-31.3	-35.3	12.1	2.82e-04	0	44	0	942669824	22	5665
2026-01-18 00:47:49.44	218.50	33.75	-31.4	-35.4	12.0	2.04e-03	0	44	0	944766976	22	5716
2026-01-18 00:47:50.44	218.41	33.54	-31.4	-35.6	11.9	3.71e-04	0	44	0	946864128	22	5800
2026-01-18 00:47:51.44	218.32	33.33	-31.6	-35.6	11.6	5.45e-04	0	44	0	948961280	23	5679
2026-01-18 00:47:52.45	218.23	33.12	-31.7	-36.0	11.2	9.57e-04	0	44	0	951058432	23	5900
2026-01-18 00:47:53.45	218.14	32.91	-31.8	-36.2	11.1	2.02e-03	0	44	0	952107008	23	5967
2026-01-18 00:47:54.46	218.05	32.70	-31.9	-36.6	10.8	1.79e-03	0	44	0	954204160	23	6172
2026-01-18 00:47:55.46	217.96	32.50	-32.1	-36.9	10.3	4.11e-03	0	44	0	956301312	24	6203
2026-01-18 00:47:56.45	217.88	32.30	-32.2	-37.1	10.0	7.09e-03	0	44	0	958398464	24	6357
2026-01-18 00:47:57.46	217.79	32.10	-32.2	-37.3	9.9	7.16e-03	0	44	0	960495616	24	6423
2026-01-18 00:47:58.46	217.71	31.90	-32.3	-37.4	9.8	1.06e-02	0	44	0	961544192	24	6474
2026-01-18 00:47:59.46	217.62	31.70	-32.2	-37.1	10.0	8.19e-03	0	44	0	963641344	24	6355
2026-01-18 00:48:00.46	217.54	31.50	-32.3	-37.6	9.6	1.02e-02	0	44	0	965738496	24	6585
2026-01-18 00:48:01.47	217.46	31.30	-32.3	-37.6	9.6	1.28e-02	0	44	0	967835648	24	6634
2026-01-18 00:48:02.47	217.38	31.11	-32.3	-37.7	9.6	1.35e-02	0	44	0	969932800	24	6642
2026-01-18 00:48:03.48	217.30	30.91	-32.4	-37.8	9.5	1.47e-02	0	44	0	970981376	24	6728
2026-01-18 00:48:04.48	217.22	30.72	-32.4	-37.7	9.5	1.53e-02	0	44	0	973078528	24	6675
2026-01-18 00:48:05.48	217.15	30.53	-32.3	-37.4	9.8	1.11e-02	0	44	0	975175680	24	6487
2026-01-18 00:48:06.48	217.07	30.34	-32.3	-37.4	9.8	1.08e-02	0	44	0	977272832	24	6481
2026-01-18 00:48:07.49	217.00	30.15	-32.2	-37.2	9.9	1.04e-02	0	44	0	978321408	24	6374
2026-01-18 00:48:08.49	216.92	29.96	-32.2	-37.2	9.9	8.69e-03	0	44	0	980418560	24	6387
2026-01-18 00:48:09.48	216.85	29.78	-32.3	-37.5	9.7	9.61e-03	0	44	0	982515712	24	6544
2026-01-18 00:48:10.49	216.78	29.59	-32.4	-37.8	9.5	1.54e-02	0	44	0	984612864	24	6707
2026-01-18 00:48:11.49	216.71	29.41	-32.3	-37.7	9.6	1.53e-02	0	44	0	986710016	24	6656
2026-01-18 00:48:12.49	216.64	29.22	-32.5	-38.2	9.1	1.46e-02	0	44	0	987758592	24	6967
2026-01-18 00:48:13.49	216.57	29.04	-32.5	-38.3	9.1	2.26e-02	0	44	0	989855744	24	7030
2026-01-18 00:48:14.50	216.50	28.86	-32.3	-37.9	9.3	1.77e-02	0	44	0	991952896	24	6806
2026-01-18 00:48:15.50	216.43	28.68	-31.5	-37.0	9.3	1.66e-02	0	44	0	994050048	24	6819
2026-01-18 00:48:16.50	216.36	28.50	-32.3	-37.7	9.4	1.79e-02	0	44	0	996147200	24	6705
2026-01-18 00:48:17.50	216.29	28.32	-32.2	-37.3	9.3	1.22e-02	0	44	0	997195776	24	6462
2026-01-18 00:48:18.50	216.23	28.15	-32.2	-37.1	9.9	8.94e-03	0	44	0	999292928	24	6371
2026-01-18 00:48:19.50	216.16	27.97	-32.2	-37.1	9.9	8.67e-03	0	44	0	1001390080	24	6360
2026-01-18 00:48:20.50	216.10	27.80	-32.1	-37.0	10.1	1.11e-02	0	44	0	1003487232	24	6301
2026-01-18 00:48:21.50	216.04	27.63	-32.2	-37.2	9.6	7.82e-03	0	44	0	1004535808	24	6407
2026-01-18 00:48:22.50	215.97	27.45	-32.2	-37.4	9.7	1.49e-02	0	44	0	1006632960	24	6537
2026-01-18 00:48:23.51	215.91	27.28	-32.1	-36.8	10.2	9.36e-03	0	44	0	1008730112	24	6197
2026-01-18 00:48:24.51	215.85	27.11	-32.0	-36.6	10.3	8.43e-03	0	44	0	1010827264	24	6092
2026-01-18 00:48:25.52	215.79	26.94	-32.0	-36.4	10.4	4.63e-03	0	44	0	1012924416	24	6004
2026-01-18 00:48:26.52	215.73	26.77	-31.9	-36.8	10.5	4.43e-03	0	44	0	1015021568	23	6311
2026-01-18 00:48:27.52	215.67	26.61	-31.8	-36.5	10.7	6.03e-03	0	44	0	1016070144	23	6175
2026-01-18 00:48:28.53	215.61	26.44	-31.9	-36.8	10.5	3.37e-03	0	44	0	1018167296	23	6312
2026-01-18 00:48:29.53	215.55	26.27	-31.8	-36.4	10.7	3.81e-03	0	44	0	1020264448	23	6133
2026-01-18 00:48:30.53	215.49	26.11	-31.7	-36.1	11.0	2.51e-03	0	44	0	1022361600	23	5969
2026-01-18 00:48:31.52	215.44	25.95	-31.6	-35.9	11.1	1.85e-03	0	44	0	1023410176	23	5870
2026-01-18 00:48:32.52	215.38	25.79	-31.5	-35.4	11.4	1.26e-03	0	44	0	1025507328	23	5667
2026-01-18 00:48:33.53	215.32	25.62	-31.4	-35.6	11.7	6.88e-04	0	44	0	1027604480	22	5846
2026-01-18 00:48:34.53	215.27	25.46	-31.3	-35.3	11.9	7.77e-04	0	44	0	1029701632	22	5715
2026-01-18 00:48:35.54	215.21	25.30	-31.2	-34.9	12.2	2.94e-04	0	44	0	1031798784	22	5537
2026-01-18 00:48:36.54	215.16	25.14	-31.2	-35.0	12.1	2.82e-04	0	44	0	1032847360	22	5589
2026-01-18 00:48:37.54	215.11	24.99	-31.3	-35.2	12.0	1.27e-03	0	44	0	1034944512	22	5672
2026-01-18 00:48:38.55	215.05	24.83	-31.3	-35.2	11.9	2.64e-03	0	44	0	1037041664	22	5691
2026-01-18 00:48:39.55	215.00	24.67	-31.0	-34.4	12.5	2.19e-04	0	44	0	1039138816	22	5349
2026-01-18 00:48:40.56	214.95	24.52	-30.9	-34.5	12.7	1.48e-03	0	44	0	1041235968	21	5507
2026-01-18 00:48:41.57	214.90	24.36	-30.8	-34.4	12.8	1.99e-03	0	44	0	1042284544	21	5441
2026-01-18 00:48:42.57	214.85	24.21	-30.8	-34.4	12.8	1.85e-03	0	44	0	1044381696	21	5454
2026-01-18 00:48:43.57	214.80	24.06	-30.8	-34.5	12.7	6.94e-05	0	44	0	1046478848	21	5478
2026-01-18 00:48:44.57	214.75	23.90	-30.8	-34.3	12.8	1.68e-03	0	44	0	1048576000	21	5432
2026-01-18 00:48:45.56	214.70	23.75	-30.9	-34.6	12.6	1.91e-03	0	44	0	1050673152	21	5539
2026-01-18 00:48:46.57	214.65	23.60	-30.9	-34.6	12.6	9.07e-05	0	44	0	1051721728	21	5547
2026-01-18 00:48:47.57	214.60	23.46	-30.8	-34.5	12.7	8.69e-05	0	44	0	1053818880	21	5476
2026-01-18 00:48:48.57	214.55	23.31	-30.7	-34.3	12.9	1.58e-03	0	44	0	1055916032	21	5404
2026-01-18 00:48:49.57	214.51	23.16	-30.8	-34.3	12.8	1.79e-04	0	44	0	1058013184	21	5433
2026-01-18 00:48:50.57	214.46	23.01	-30.8	-34.5	12.7	6.25e-05	0	44	0	1060110336	21	5493
2026-01-18 00:48:51.58	214.41	22.87	-30.8	-34.4	12.8	1.31e-03	0	44	0	1061158912	21	5441
2026-01-18 00:48:52.58	214.37	22.72	-30.8	-34.5	12.7	1.32e-04	0	44	0	1063256064	21	5499
2026-01-18 00:48:53.59	214.32	22.58	-30.8	-34.4	12.7	1.28e-03	0	44	0	1065353216	21	5475
2026-01-18 00:48:54.59	214.28	22.43	-31.0	-34.9	12.3	1.08e-04	0	44	0	1067450368	21	5691
2026-01-18 00:48:55.60	214.23	22.29	-31.2	-35.2	11.8	3.78e-04	0	44	0	1068498944	22	5714
2026-01-18 00:48:56.59	214.19	22.15	-31.3	-35.4	11.7	2.47e-03	0	44	0	1070596096	22	5786
2026-01-18 00:48:57.60	214.15	22.01	-31.3	-35.4	11.7	5.67e-04	0	44	0	1072693248	22	5783
2026-01-18 00:48:58.60	214.10	21.87	-31.2	-35.2	11.8	4.68e-04	0	44	0	1074790400	22	5695
2026-01-18 00:48:59.60	214.06	21.73	-31.2	-35.1	11.9	2.32e-03	0	44	0	1076887552	22	5667
2026-01-18 00:49:00.60	214.02	21.59	-31.2	-35.0	11.9	2.23e-03	0	44	0	1077936128	22	5635
2026-01-18 00:49:01.61	213.97	21.45	-31.1	-34.9	12.0	3.24e-04	0	44	0	1080033280	22	5560
2026-01-18 00:49:02.61	213.93	21.31	-31.1	-34.9	12.0	1.87e-03	0	44	0	1082130432	22	5561
2026-01-18 00:49:03.62	213.89	21.18	-30.5	-34.2	12.0	1.86e-03	0	44	0	1084227584	22	5541
2026-01-18 00:49:04.62	213.85	21.04	-31.1	-34.8	12.0	3.60e-04	0	44	0	1086324736	22	5555
2026-01-18 00:49:05.63	213.81	20.90	-31.2	-35.1	11.8	1.84e-03	0	44	0	1087373312	22	5682
2026-01-18 00:49:06.63	213.77	20.77	-31.1	-34.9	11.9	2.08e-03	0	44	0	1089470464	22	5578
2026-01-18 00:49:07.63	213.73	20.64	-30.8	-34.1	12.3	1.97e-04	0	44	0	1091567616	22	5256
2026-01-18 00:49:08.63	213.69	20.50	-30.6	-33.9	13.0	1.71e-03	0	44	0	1093664768	21	5281
2026-01-18 00:49:09.64	213.65	20.37	-30.5	-33.7	13.0	1.67e-03	0	44	0	1095761920	21	5215
2026-01-18 00:49:10.63	213.61	20.24	-30.5	-34.1	13.0	3.05e-05	0	44	0	1096810496	20	5462
2026-01-18 00:49:11.63	213.58	20.11	-30.5	-33.7	13.1	1.61e-03	0	44	0	1098907648	21	5215
2026-01-18 00:49:12.64	213.54	19.98	-30.5	-33.7	13.1	1.87e-03	0	44	0	1101004800	21	5217
2026-01-18 00:49:13.64	213.50	19.85	-30.6	-33.9	12.9	4.73e-05	0	44	0	1103101952	21	5298
2026-01-18 00:49:14.64	213.46	19.72	-30.6	-34.1	12.8	1.82e-03	0	44	0	1105199104	21	5350
2026-01-18 00:49:15.64	213.43	19.59	-30.6	-33.9	12.9	1.81e-03	0	44	0	1106247680	21	5275
2026-01-18 00:49:16.64	213.39	19.46	-30.7	-34.3	12.7	7.01e-05	0	44	0	1108344832	21	5437
2026-01-18 00:49:17.64	213.35	19.34	-30.7	-34.3	12.7	1.89e-03	0	44	0	1110441984	21	5424
2026-01-18 00:49:18.64	213.32	19.21	-30.7	-34.3	12.7	2.08e-04	0	44	0	1112539136	21	5441
2026-01-18 00:49:19.64	213.28	19.09	-30.7	-34.4	12.6	1.04e-04	0	44	0	1113587712	21	5492
2026-01-18 00:49:20.65	213.25	18.96	-30.7	-34.3	12.7	1.81e-03	0	44	0	1115684864	21	5448
2026-01-18 00:49:21.65	213.21	18.84	-30.9	-34.9	12.2	1.85e-03	0	44	0	1117782016	21	5712
2026-01-18 00:49:22.65	213.18	18.71	-30.9	-34.9	12.2	2.97e-04	0	44	0	1119879168	21	5700
2026-01-18 00:49:23.66	213.14	18.59	-30.7	-34.3	12.6	1.82e-03	0	44	0	1121976320	21	5436
2026-01-18 00:49:24.66	213.11	18.47	-30.7	-34.3	12.6	1.71e-03	0	44	0	1124073472	21	5444
2026-01-18 00:49:25.65	213.07	18.34	-30.7	-34.2	12.7	9.23e-05	0	44	0	1125122048	21	5419
2026-01-18 00:49:26.65	213.04	18.22	-30.7	-34.4	12.5	1.54e-03	0	44	0	1127219200	21	5475
2026-01-18 00:49:27.65	213.01	18.10	-30.7	-34.2	12.6	1.56e-03	0	44	0	1129316352	21	5432
2026-01-18 00:49:28.66	212.98	17.98	-30.7	-34.3	12.6	1.18e-04	0	44	0	1131413504	21	5466
2026-01-18 00:49:29.66	212.94	17.86	-30.7	-34.3	12.5	1.20e-04	0	44	0	1132462080	21	5457
2026-01-18 00:49:30.66	212.91	17.74	-30.8	-34.7	12.3	9.01e-04	0	44	0	1134559232	21	5638
2026-01-18 00:49:31.67	212.88	17.62	-30.8	-34.7	12.3	1.98e-04	0	44	0	1136656384	21	5626
2026-01-18 00:49:32.67	212.85	17.50	-30.8	-34.6	12.3	1.70e-04	0	44	0	1138753536	21	5602
2026-01-18 00:49:33.68	212.81	17.39	-31.0	-35.2	11.9	1.15e-03	0	44	0	1140850688	21	5837
2026-01-18 00:49:34.68	212.78	17.27	-30.9	-34.5	12.0	3.63e-04	0	44	0	1141899264	22	5442
2026-01-18 00:49:35.68	212.75	17.15	-30.8	-34.2	12.3	2.01e-04	0	44	0	1143996416	22	5316
2026-01-18 00:49:36.68	212.72	17.04	-30.9	-34.8	12.2	2.11e-04	0	44	0	1146093568	21	5656
2026-01-18 00:49:37.68	212.69	16.92	-30.8	-34.7	12.3	1.94e-04	0	44	0	1148190720	21	5626
2026-01-18 00:49:38.69	212.66	16.81	-30.9	-34.8	12.2	1.60e-03	0	44	0	1150287872	21	5685
2026-01-18 00:49:39.70	212.63	16.69	-31.0	-34.8	11.8	3.94e-04	0	44	0	1151336448	22	5552
2026-01-18 00:49:40.70	212.60	16.58	-30.9	-34.5	12.0	5.96e-04	0	44	0	1153433600	22	5451
2026-01-18 00:49:41.70	212.57	16.46	-30.9	-34.9	12.1	1.91e-03	0	44	0	1155530752	21	5701
2026-01-18 00:49:42.70	212.54	16.35	-30.8	-34.7	12.2	1.94e-04	0	44	0	1157627904	21	5639
2026-01-18 00:49:43.69	212.51	16.24	-30.8	-34.8	12.2	2.37e-04	0	44	0	1158676480	21	5659
2026-01-18 00:49:44.70	212.48	16.13	-30.8	-34.5	12.3	1.65e-03	0	44	0	1160773632	21	5564
2026-01-18 00:49:45.70	212.46	16.02	-30.8	-34.8	12.1	1.54e-03	0	44	0	1162870784	21	5683
2026-01-18 00:49:46.70	212.43	15.91	-30.7	-34.5	12.3	2.30e-04	0	44	0	1164967936	21	5571
2026-01-18 00:49:47.71	212.40	15.80	-30.7	-34.4	12.4	1.81e-04	0	44	0	1167065088	21	5498
2026-01-18 00:49:48.71	212.37	15.69	-30.7	-34.5	12.3	1.46e-03	0	44	0	1169162240	21	5564
2026-01-18 00:49:49.71	212.34	15.58	-30.9	-34.9	12.1	2.71e-04	0	44	0	1170210816	21	5717
2026-01-18 00:49:50.72	212.32	15.47	-30.8	-34.8	12.1	3.26e-04	0	44	0	1172307968	21	5669
2026-01-18 00:49:51.73	212.29	15.36	-30.8	-34.6	12.2	2.30e-04	0	44	0	1174405120	21	5612
2026-01-18 00:49:52.72	212.26	15.25	-30.8	-34.7	12.2	2.43e-04	0	44	0	1176502272	21	5628
2026-01-18 00:49:53.73	212.24	15.14	-30.8	-34.8	12.0	2.52e-04	0	44	0	1177550848	21	5705
2026-01-18 00:49:54.73	212.21	15.04	-30.8	-34.8	12.1	2.65e-04	0	44	0	1179648000	21	5680
2026-01-18 00:49:55.74	212.18	14.93	-30.8	-34.8	12.0	2.49e-04	0	44	0	1181745152	21	5706
2026-01-18 00:49:56.74	212.16	14.82	-30.9	-35.0	11.9	3.72e-04	0	44	0	1183842304	21	5769
2026-01-18 00:49:57.74	212.13	14.72	-30.8	-34.9	12.0	4.10e-04	0	44	0	1185939456	21	5741
2026-01-18 00:49:58.74	212.11	14.61	-30.9	-35.2	11.7	3.62e-04	0	44	0	1186988032	21	5869
2026-01-18 00:49:59.74	212.08	14.51	-30.9	-35.2	11.8	4.94e-04	0	44	0	1189085184	21	5859
2026-01-18 00:50:00.74	212.05	14.41	-31.0	-35.3	11.7	5.44e-04	0	44	0	1191182336	21	5910
2026-01-18 00:50:01.75	212.03	14.30	-31.1	-35.3	11.3	7.81e-04	0	44	0	1193279488	22	5830
2026-01-18 00:50:02.75	212.00	14.20	-31.2	-35.3	11.3	1.37e-03	0	44	0	1195376640	22	5827
2026-01-18 00:50:03.76	211.98	14.09	-30.9	-34.6	11.7	7.36e-04	0	44	0	1196425216	22	5518
2026-01-18 00:50:04.76	211.96	13.99	-31.0	-34.9	11.6	6.06e-04	0	44	0	1198522368	22	5613
2026-01-18 00:50:05.76	211.93	13.89	-31.0	-35.3	11.6	6.88e-04	0	44	0	1200619520	21	5923
2026-01-18 00:50:06.77	211.91	13.79	-30.9	-35.1	11.7	5.17e-04	0	44	0	1202716672	21	5846
2026-01-18 00:50:07.77	211.88	13.69	-30.9	-35.0	11.8	5.45e-04	0	44	0	1204813824	21	5796
2026-01-18 00:50:08.78	211.86	13.58	-30.9	-35.2	11.6	5.02e-04	0	44	0	1205862400	21	5889
2026-01-18 00:50:09.78	211.84	13.48	-30.9	-35.2	11.6	5.90e-04	0	44	0	1207959552	21	5911
2026-01-18 00:50:10.78	211.81	13.38	-31.0	-35.3	11.6	6.00e-04	0	44	0	1210056704	21	5947
2026-01-18 00:50:11.78	211.79	13.29	-30.9	-35.3	11.6	7.16e-04	0	44	0	1212153856	21	5923
2026-01-18 00:50:12.78	211.77	13.19	-31.0	-34.9	11.5	8.64e-04	0	44	0	1214251008	22	5665
2026-01-18 00:50:13.79	211.74	13.09	-31.0	-35.0	11.4	7.90e-04	0	44	0	1215299584	22	5685
2026-01-18 00:50:14.78	211.72	12.99	-30.4	-34.3	11.5	9.28e-04	0	44	0	1217396736	22	5663
2026-01-18 00:50:15.79	211.70	12.89	-31.0	-35.4	11.4	8.43e-04	0	44	0	1219493888	21	6008
2026-01-18 00:50:16.79	211.67	12.79	-31.1	-35.4	10.6	1.26e-03	0	44	0	1221591040	22	5867
2026-01-18 00:50:17.80	211.65	12.70	-31.0	-35.1	10.9	1.56e-03	0	44	0	1222639616	22	5723
2026-01-18 00:50:18.80	211.63	12.60	-31.2	-35.5	11.1	1.06e-03	0	44	0	1224736768	22	5920
2026-01-18 00:50:19.80	211.61	12.50	-31.1	-35.2	11.0	2.18e-03	0	44	0	1226833920	22	5800
2026-01-18 00:50:20.80	211.59	12.41	-31.0	-35.1	11.3	1.18e-03	0	44	0	1228931072	22	5733
2026-01-18 00:50:21.80	211.57	12.31	-31.0	-35.1	11.3	7.46e-04	0	44	0	1231028224	22	5738
2026-01-18 00:50:22.81	211.54	12.21	-31.0	-35.5	11.4	9.40e-04	0	44	0	1232076800	21	6037
2026-01-18 00:50:23.81	211.52	12.12	-30.9	-35.3	11.5	1.25e-03	0	44	0	1234173952	21	5959
2026-01-18 00:50:24.81	211.50	12.03	-31.0	-35.1	11.3	8.80e-04	0	44	0	1236271104	22	5764
2026-01-18 00:50:25.81	211.48	11.93	-30.9	-35.2	11.5	1.04e-03	0	44	0	1238368256	21	5927
2026-01-18 00:50:26.81	211.46	11.84	-30.9	-35.4	11.4	1.38e-03	0	44	0	1240465408	21	5991
2026-01-18 00:50:27.82	211.44	11.74	-31.1	-35.2	11.2	1.21e-03	0	44	0	1241513984	22	5785
2026-01-18 00:50:28.82	211.42	11.65	-31.1	-35.4	11.1	1.36e-03	0	44	0	1243611136	22	5867
2026-01-18 00:50:29.82	211.40	11.56	-31.1	-35.2	11.2	1.67e-03	0	44	0	1245708288	22	5817
2026-01-18 00:50:30.83	211.38	11.46	-31.0	-35.0	11.3	1.35e-03	0	44	0	1247805440	22	5709
2026-01-18 00:50:31.83	211.36	11.37	-31.1	-35.2	11.2	1.11e-03	0	44	0	1249902592	22	5811
2026-01-18 00:50:32.84	211.34	11.28	-31.0	-35.0	11.3	1.41e-03	0	44	0	1250951168	22	5735
2026-01-18 00:50:33.84	211.32	11.19	-31.1	-35.2	11.2	1.56e-03	0	44	0	1253048320	22	5815
2026-01-18 00:50:34.84	211.30	11.10	-31.1	-35.5	10.9	1.93e-03	0	44	0	1255145472	22	5946
2026-01-18 00:50:35.85	211.28	11.01	-31.0	-35.1	11.3	1.57e-03	0	44	0	1257242624	22	5748
2026-01-18 00:50:36.85	211.26	10.92	-31.1	-35.3	11.1	1.58e-03	0	44	0	1259339776	22	5857
2026-01-18 00:50:37.86	211.24	10.83	-31.1	-35.5	10.9	2.53e-03	0	44	0	1260388352	22	5940
2026-01-18 00:50:38.86	211.22	10.74	-31.1	-35.3	11.0	1.48e-03	0	44	0	1262485504	22	5876
2026-01-18 00:50:39.86	211.20	10.65	-31.1	-35.5	10.9	1.98e-03	0	44	0	1264582656	22	5972
2026-01-18 00:50:40.86	211.18	10.56	-31.2	-35.7	10.7	2.64e-03	0	44	0	1266679808	22	6055
2026-01-18 00:50:41.87	211.16	10.47	-31.2	-35.7	10.8	2.43e-03	0	44	0	1268776960	22	6033
2026-01-18 00:50:42.87	211.15	10.38	-31.1	-35.4	10.9	2.91e-03	0	44	0	1269825536	22	5899
2026-01-18 00:50:43.87	211.13	10.29	-31.1	-35.5	10.8	2.55e-03	0	44	0	1271922688	22	5970
2026-01-18 00:50:44.87	211.11	10.20	-31.2	-35.7	10.7	2.59e-03	0	44	0	1274019840	22	6066
2026-01-18 00:50:45.87	211.09	10.12	-31.1	-35.4	10.9	2.88e-03	0	44	0	1276116992	22	5910
2026-01-18 00:50:46.87	211.07	10.03	-31.2	-35.7	10.7	2.94e-03	0	44	0	1277165568	22	6068
2026-01-18 00:50:47.88	211.05	9.94	-31.2	-35.6	10.7	2.63e-03	0	44	0	1279262720	22	6022
2026-01-18 00:50:48.89	211.04	9.85	-31.2	-35.7	10.6	3.66e-03	0	44	0	1281359872	22	6076
2026-01-18 00:50:49.89	211.02	9.77	-31.2	-35.7	10.6	3.30e-03	0	44	0	1283457024	22	6073
2026-01-18 00:50:50.89	211.00	9.68	-31.2	-35.7	10.6	3.72e-03	0	44	0	1285554176	22	6051
2026-01-18 00:50:51.90	210.98	9.60	-31.2	-35.9	10.5	3.98e-03	0	44	0	1286602752	22	6173
