passes_logs/2026/01/18/R2M6_AANII_01/R2M6_AANII_01__20260118_044155_FENGYUN_3E_rec.log

#Pass ID: 20260118_044155_FENGYUN 3E
#Satellite: FENGYUN 3E
#Configuration: FENGYUN 3E
#almurnet v.1.7.20240730
#Start time: 2026-01-18 04:47:42

#Version: 2.2.20231116
#Station: R2M6_AANII_01
#Location: 30.233357 lon 59.946436 lat
#TLE: 1 49008U 21062A   26017.26067429  .00000278  00000+0  15192-3 0  9991
#TLE: 2 49008  98.7484  22.3628 0002125 132.6872 227.4483 14.19886454235162

#Time	Az	El	Level	Level2	SNR	BER	BlckErr	Temp	State	Recorded	gain1	gain2
2026-01-18 04:47:42.19	349.14	80.50	-34.0	-45.0	3.8	8.46e-01	0	43	0	0	28	12821
2026-01-18 04:47:43.19	347.46	80.93	-34.5	-43.4	3.8	8.46e-01	0	43	104	0	30	10026
2026-01-18 04:47:44.19	345.61	81.35	-34.5	-43.5	3.8	8.47e-01	0	43	104	0	30	10063
2026-01-18 04:47:45.20	343.54	81.77	-34.5	-43.5	3.8	8.47e-01	0	43	104	0	30	10053
2026-01-18 04:47:46.20	341.28	82.17	-34.5	-43.4	3.8	8.47e-01	0	43	104	0	30	10029
2026-01-18 04:47:47.20	338.78	82.55	-34.5	-43.3	3.8	8.46e-01	0	43	104	0	30	9921
2026-01-18 04:47:48.21	335.98	82.93	-34.4	-42.7	3.8	8.47e-01	0	43	104	0	30	9352
2026-01-18 04:47:49.21	332.90	83.29	-34.1	-41.2	3.8	8.43e-01	0	43	104	0	28	8212
2026-01-18 04:47:50.21	329.48	83.62	-34.0	-41.1	3.9	8.45e-01	0	43	104	0	28	8163
2026-01-18 04:47:51.21	325.70	83.93	-34.2	-42.6	3.8	8.46e-01	0	43	104	0	28	9428
2026-01-18 04:47:52.20	321.57	84.20	-34.2	-42.5	3.8	8.46e-01	0	43	104	0	28	9348
2026-01-18 04:47:53.21	316.96	84.45	-34.3	-43.2	3.8	8.48e-01	0	43	104	0	28	10011
2026-01-18 04:47:54.21	312.00	84.66	-34.2	-42.5	3.8	8.47e-01	0	43	104	0	28	9323
2026-01-18 04:47:55.22	306.62	84.83	-34.1	-41.9	3.8	8.45e-01	0	43	104	0	28	8829
2026-01-18 04:47:56.22	301.00	84.95	-34.3	-43.1	3.8	8.45e-01	0	43	104	0	28	9945
2026-01-18 04:47:57.22	295.16	85.01	-33.6	-39.3	4.0	8.40e-01	0	43	104	0	28	6879
2026-01-18 04:47:58.23	289.17	85.03	-33.8	-40.0	3.9	8.47e-01	0	43	104	0	28	7324
2026-01-18 04:47:59.23	283.26	84.99	-34.4	-44.0	3.8	8.45e-01	0	43	104	0	28	10893
2026-01-18 04:48:00.24	277.45	84.90	-34.4	-44.0	3.8	8.47e-01	0	43	104	0	28	10839
2026-01-18 04:48:01.24	271.95	84.76	-34.4	-44.2	3.8	8.47e-01	0	43	104	0	28	11154
2026-01-18 04:48:02.25	266.74	84.57	-34.3	-44.1	3.8	8.46e-01	0	43	104	0	28	11087
2026-01-18 04:48:03.25	261.96	84.34	-34.3	-44.0	3.8	8.46e-01	0	43	104	0	28	10958
2026-01-18 04:48:04.25	257.58	84.08	-34.2	-43.7	3.8	8.46e-01	0	43	104	0	28	10739
2026-01-18 04:48:05.26	253.56	83.78	-34.2	-43.7	3.8	8.46e-01	0	43	104	0	28	10692
2026-01-18 04:48:06.27	249.92	83.46	-34.2	-43.8	3.8	8.47e-01	0	43	104	0	28	10788
2026-01-18 04:48:07.27	246.67	83.11	-34.2	-43.9	3.8	8.46e-01	0	43	104	0	28	10898
2026-01-18 04:48:08.27	243.74	82.75	-34.2	-43.8	3.8	8.46e-01	0	43	104	0	28	10832
2026-01-18 04:48:09.28	241.08	82.37	-34.2	-43.8	3.8	8.47e-01	0	43	104	0	28	10800
2026-01-18 04:48:10.28	238.70	81.97	-34.2	-43.7	3.8	8.45e-01	0	43	104	0	28	10765
2026-01-18 04:48:11.29	236.52	81.56	-34.2	-43.6	3.8	8.46e-01	0	43	104	0	28	10690
2026-01-18 04:48:12.29	234.58	81.14	-34.2	-43.7	3.8	8.46e-01	0	43	104	0	28	10749
2026-01-18 04:48:13.30	232.79	80.72	-34.2	-43.8	3.8	8.46e-01	0	43	104	0	28	10851
2026-01-18 04:48:14.30	231.18	80.28	-34.2	-43.8	3.8	8.47e-01	0	43	104	0	28	10877
2026-01-18 04:48:15.32	229.69	79.84	-34.2	-43.5	3.8	8.45e-01	0	43	104	0	28	10571
2026-01-18 04:48:16.32	228.34	79.40	-34.2	-43.5	3.8	8.46e-01	0	43	104	0	28	10553
2026-01-18 04:48:17.32	227.11	78.95	-34.2	-43.7	3.8	8.48e-01	0	43	104	0	28	10710
2026-01-18 04:48:18.33	225.97	78.49	-34.2	-43.8	3.8	8.46e-01	0	43	104	0	28	10844
2026-01-18 04:48:19.34	224.91	78.03	-34.2	-43.8	3.8	8.45e-01	0	43	104	0	28	10833
2026-01-18 04:48:20.34	223.95	77.58	-34.2	-43.7	3.8	8.45e-01	0	43	104	0	28	10737
2026-01-18 04:48:21.34	223.05	77.12	-34.2	-43.4	3.8	8.46e-01	0	43	104	0	28	10470
2026-01-18 04:48:22.34	222.22	76.66	-34.1	-43.0	3.8	8.46e-01	0	43	104	0	28	10029
2026-01-18 04:48:23.34	221.45	76.20	-34.2	-43.5	3.8	8.45e-01	0	43	104	0	28	10494
2026-01-18 04:48:24.34	220.73	75.74	-34.2	-43.8	3.8	8.45e-01	0	43	104	0	28	10903
2026-01-18 04:48:25.35	220.04	75.27	-34.2	-43.5	3.8	8.46e-01	0	43	104	0	28	10543
2026-01-18 04:48:26.36	219.41	74.81	-33.9	-41.6	3.8	8.46e-01	0	43	104	0	28	8721
2026-01-18 04:48:27.36	218.81	74.35	-33.8	-40.5	3.9	8.43e-01	0	43	104	0	28	7855
2026-01-18 04:48:28.37	218.25	73.88	-34.0	-42.3	3.8	8.46e-01	0	43	104	0	28	9362
2026-01-18 04:48:29.37	217.73	73.42	-34.2	-43.6	3.8	8.46e-01	0	43	104	0	28	10648
2026-01-18 04:48:30.38	217.23	72.95	-34.1	-43.4	3.8	8.46e-01	0	43	104	0	28	10445
2026-01-18 04:48:31.39	216.76	72.49	-34.2	-43.8	3.8	8.46e-01	0	43	104	0	28	10901
2026-01-18 04:48:32.40	216.31	72.02	-33.5	-39.2	4.3	8.44e-01	0	43	104	0	28	6937
2026-01-18 04:48:33.40	215.89	71.57	-32.3	-35.5	6.7	3.38e-01	0	43	0	1048576	25	5205
2026-01-18 04:48:34.40	215.50	71.11	-29.8	-31.0	11.3	6.87e-03	0	43	0	8388608	20	4158
2026-01-18 04:48:35.40	215.12	70.65	-25.4	-25.6	16.8	0.00e+00	0	43	0	15728640	11	3697
2026-01-18 04:48:36.40	214.76	70.20	-23.2	-23.1	19.1	0.00e+00	0	43	0	23068672	7	3552
2026-01-18 04:48:37.41	214.42	69.74	-23.3	-23.3	19.0	0.00e+00	0	43	0	30408704	7	3583
2026-01-18 04:48:38.40	214.10	69.29	-23.6	-23.9	18.7	0.00e+00	0	43	0	37748736	7	3725
2026-01-18 04:48:39.41	213.79	68.84	-23.4	-23.5	18.8	0.00e+00	0	43	0	45088768	7	3644
2026-01-18 04:48:40.41	213.49	68.39	-23.5	-23.6	18.8	0.00e+00	0	43	0	51380224	7	3666
2026-01-18 04:48:41.42	213.21	67.94	-23.3	-23.3	18.9	0.00e+00	0	43	0	58720256	7	3593
2026-01-18 04:48:42.42	212.94	67.49	-23.2	-23.1	19.0	0.00e+00	0	43	0	66060288	7	3545
2026-01-18 04:48:43.43	212.68	67.04	-23.0	-22.7	19.3	0.00e+00	0	43	0	73400320	7	3466
2026-01-18 04:48:44.43	212.43	66.60	-23.1	-22.8	19.1	0.00e+00	0	43	0	80740352	7	3480
2026-01-18 04:48:45.43	212.19	66.16	-23.4	-23.5	18.8	0.00e+00	0	43	0	88080384	7	3641
2026-01-18 04:48:46.43	211.96	65.73	-23.5	-23.7	18.7	0.00e+00	0	43	0	95420416	7	3682
2026-01-18 04:48:47.44	211.74	65.29	-23.7	-24.2	18.5	0.00e+00	0	43	0	102760448	7	3790
2026-01-18 04:48:48.45	211.53	64.85	-23.8	-24.3	18.5	0.00e+00	0	43	0	110100480	7	3812
2026-01-18 04:48:49.45	211.33	64.42	-23.7	-24.2	18.5	0.00e+00	0	43	0	117440512	7	3789
2026-01-18 04:48:50.46	211.13	63.98	-23.8	-24.2	18.5	0.00e+00	0	43	0	124780544	7	3797
2026-01-18 04:48:51.45	210.95	63.56	-23.9	-24.5	18.3	0.00e+00	0	43	0	131072000	7	3858
2026-01-18 04:48:52.45	210.77	63.14	-24.2	-24.6	18.0	0.00e+00	0	43	0	138412032	8	3782
2026-01-18 04:48:53.45	210.59	62.72	-24.4	-25.1	17.7	0.00e+00	0	43	0	145752064	8	3900
2026-01-18 04:48:54.45	210.43	62.30	-24.6	-25.0	17.6	0.00e+00	0	43	0	153092096	9	3765
2026-01-18 04:48:55.46	210.26	61.87	-24.7	-25.3	17.4	0.00e+00	0	43	0	160432128	9	3836
2026-01-18 04:48:56.47	210.10	61.46	-24.8	-25.5	17.3	0.00e+00	0	43	0	167772160	9	3883
2026-01-18 04:48:57.47	209.95	61.04	-24.7	-25.1	17.5	0.00e+00	0	43	0	175112192	9	3801
2026-01-18 04:48:58.48	209.81	60.63	-24.7	-25.2	17.5	0.00e+00	0	43	0	182452224	9	3820
2026-01-18 04:48:59.49	209.66	60.22	-24.8	-25.4	17.4	0.00e+00	0	43	0	189792256	9	3867
2026-01-18 04:49:00.50	209.52	59.81	-24.8	-25.5	17.3	0.00e+00	0	43	0	197132288	9	3886
2026-01-18 04:49:01.49	209.39	59.41	-25.1	-25.6	17.0	0.00e+00	0	43	0	203423744	10	3798
2026-01-18 04:49:02.49	209.26	59.01	-25.3	-26.0	16.8	0.00e+00	0	43	0	211812352	10	3894
2026-01-18 04:49:03.50	209.14	58.61	-25.2	-25.8	16.9	0.00e+00	0	43	0	218103808	10	3848
2026-01-18 04:49:04.50	209.02	58.21	-24.8	-25.0	17.3	0.00e+00	0	43	0	225443840	10	3657
2026-01-18 04:49:05.49	208.90	57.82	-24.6	-24.6	17.6	0.00e+00	0	43	0	232783872	10	3573
2026-01-18 04:49:06.49	208.79	57.43	-24.5	-24.3	17.6	0.00e+00	0	43	0	240123904	10	3513
2026-01-18 04:49:07.49	208.68	57.04	-24.7	-24.6	17.5	0.00e+00	0	43	0	247463936	10	3586
2026-01-18 04:49:08.50	208.57	56.66	-24.7	-24.7	17.4	0.00e+00	0	43	0	254803968	10	3612
2026-01-18 04:49:09.49	208.47	56.28	-24.8	-25.0	17.3	0.00e+00	0	43	0	262144000	10	3659
2026-01-18 04:49:10.49	208.37	55.90	-24.8	-24.8	17.4	0.00e+00	0	43	0	268435456	10	3637
2026-01-18 04:49:11.49	208.27	55.52	-24.8	-25.0	17.3	0.00e+00	0	43	0	276824064	10	3664
2026-01-18 04:49:12.49	208.17	55.14	-24.7	-24.7	17.3	0.00e+00	0	43	0	283115520	10	3613
2026-01-18 04:49:13.50	208.08	54.77	-24.5	-24.3	17.6	0.00e+00	0	43	0	290455552	10	3513
2026-01-18 04:49:14.50	207.99	54.40	-24.5	-24.9	17.4	0.00e+00	0	43	0	297795584	9	3736
2026-01-18 04:49:15.51	207.90	54.03	-24.4	-24.6	17.7	0.00e+00	0	43	0	305135616	9	3690
2026-01-18 04:49:16.52	207.81	53.66	-24.4	-24.6	17.7	0.00e+00	0	43	0	312475648	9	3685
2026-01-18 04:49:17.51	207.73	53.30	-24.5	-24.8	17.6	0.00e+00	0	43	0	319815680	9	3727
2026-01-18 04:49:18.52	207.64	52.94	-24.6	-24.9	17.6	0.00e+00	0	43	0	327155712	9	3763
2026-01-18 04:49:19.51	207.57	52.58	-24.6	-25.0	17.5	0.00e+00	0	43	0	334495744	9	3773
2026-01-18 04:49:20.51	207.49	52.23	-24.7	-25.3	17.4	0.00e+00	0	43	0	340787200	9	3841
2026-01-18 04:49:21.52	207.41	51.87	-24.7	-25.1	17.5	0.00e+00	0	43	0	348127232	9	3795
2026-01-18 04:49:22.52	207.34	51.52	-24.6	-25.1	17.5	0.00e+00	0	43	0	355467264	9	3786
2026-01-18 04:49:23.53	207.27	51.17	-24.7	-25.2	17.4	0.00e+00	0	43	0	362807296	9	3817
2026-01-18 04:49:24.53	207.19	50.83	-24.7	-25.2	17.4	0.00e+00	0	43	0	370147328	9	3822
2026-01-18 04:49:25.53	207.13	50.48	-24.8	-25.5	17.2	0.00e+00	0	43	0	377487360	9	3887
2026-01-18 04:49:26.53	207.06	50.14	-24.9	-25.6	17.2	0.00e+00	0	43	0	384827392	9	3902
2026-01-18 04:49:27.53	206.99	49.81	-25.0	-25.8	17.1	0.00e+00	0	43	0	392167424	9	3948
2026-01-18 04:49:28.54	206.93	49.47	-25.1	-26.0	17.0	0.00e+00	0	43	0	399507456	9	4016
2026-01-18 04:49:29.54	206.87	49.14	-24.8	-25.5	17.2	0.00e+00	0	43	0	405798912	9	3888
2026-01-18 04:49:30.54	206.81	48.81	-24.7	-25.3	17.3	0.00e+00	0	43	0	413138944	9	3840
2026-01-18 04:49:31.53	206.75	48.48	-24.6	-25.0	17.5	0.00e+00	0	43	0	420478976	9	3776
2026-01-18 04:49:32.53	206.69	48.16	-24.7	-25.1	17.4	0.00e+00	0	43	0	427819008	9	3805
2026-01-18 04:49:33.53	206.63	47.83	-24.5	-24.9	17.5	0.00e+00	0	43	0	435159040	9	3748
2026-01-18 04:49:34.53	206.57	47.51	-24.2	-24.1	18.0	0.00e+00	0	43	0	442499072	9	3568
2026-01-18 04:49:35.53	206.52	47.19	-23.8	-23.8	17.3	0.00e+00	0	43	0	449839104	8	3602
2026-01-18 04:49:36.54	206.47	46.88	-23.9	-24.0	18.2	0.00e+00	0	43	0	457179136	8	3663
2026-01-18 04:49:37.54	206.41	46.56	-23.8	-23.9	18.3	0.00e+00	0	43	0	463470592	8	3623
2026-01-18 04:49:38.54	206.36	46.25	-23.6	-23.4	18.5	0.00e+00	0	43	0	470810624	8	3509
2026-01-18 04:49:39.55	206.31	45.94	-23.5	-23.3	18.6	0.00e+00	0	43	0	479199232	8	3493
2026-01-18 04:49:40.55	206.26	45.63	-23.7	-23.5	18.3	0.00e+00	0	43	0	485490688	8	3550
2026-01-18 04:49:41.55	206.21	45.33	-23.4	-22.9	18.7	0.00e+00	0	43	0	492830720	8	3413
2026-01-18 04:49:42.55	206.17	45.03	-23.1	-22.8	19.1	0.00e+00	0	43	0	500170752	7	3492
2026-01-18 04:49:43.56	206.12	44.72	-23.0	-22.7	19.1	0.00e+00	0	43	0	507510784	7	3465
2026-01-18 04:49:44.56	206.07	44.43	-23.1	-22.9	19.0	0.00e+00	0	43	0	514850816	7	3507
2026-01-18 04:49:45.56	206.03	44.13	-23.3	-23.2	18.8	0.00e+00	0	43	0	522190848	7	3581
2026-01-18 04:49:46.56	205.99	43.84	-23.3	-23.3	18.7	5.03e-05	0	43	0	529530880	7	3590
2026-01-18 04:49:47.57	205.94	43.54	-23.4	-23.5	18.7	0.00e+00	0	43	0	536870912	7	3631
2026-01-18 04:49:48.57	205.90	43.26	-23.3	-23.3	18.8	0.00e+00	0	43	0	544210944	7	3602
2026-01-18 04:49:49.58	205.86	42.97	-23.1	-23.4	19.0	0.00e+00	0	43	0	550502400	6	3727
2026-01-18 04:49:50.58	205.82	42.68	-23.1	-23.4	19.0	0.00e+00	0	43	0	557842432	6	3729
2026-01-18 04:49:51.58	205.78	42.40	-23.2	-23.5	18.9	0.00e+00	0	43	0	565182464	6	3752
2026-01-18 04:49:52.59	205.74	42.12	-23.2	-23.5	18.9	0.00e+00	0	43	0	572522496	6	3735
2026-01-18 04:49:53.59	205.70	41.84	-23.1	-23.5	18.9	0.00e+00	0	43	0	579862528	6	3736
2026-01-18 04:49:54.59	205.66	41.56	-23.3	-23.7	18.8	0.00e+00	0	43	0	587202560	6	3789
2026-01-18 04:49:55.59	205.63	41.29	-23.4	-23.9	18.7	0.00e+00	0	43	0	594542592	6	3842
2026-01-18 04:49:56.60	205.59	41.01	-23.5	-24.3	18.4	2.51e-05	0	43	0	601882624	6	3922
2026-01-18 04:49:57.61	205.56	40.74	-23.8	-24.3	18.3	0.00e+00	0	43	0	609222656	7	3811
2026-01-18 04:49:58.62	205.52	40.47	-23.8	-24.4	18.2	2.20e-06	0	43	0	616562688	7	3842
2026-01-18 04:49:59.62	205.49	40.20	-23.8	-24.4	18.2	5.70e-06	0	43	0	623902720	7	3840
2026-01-18 04:50:00.62	205.45	39.94	-23.9	-24.5	18.2	0.00e+00	0	43	0	631242752	7	3865
2026-01-18 04:50:01.62	205.42	39.68	-23.9	-24.5	18.1	0.00e+00	0	43	0	637534208	7	3863
2026-01-18 04:50:02.62	205.39	39.42	-24.0	-24.8	18.0	0.00e+00	0	43	0	644874240	7	3932
2026-01-18 04:50:03.62	205.36	39.16	-23.9	-24.6	18.1	0.00e+00	0	43	0	652214272	7	3897
2026-01-18 04:50:04.62	205.32	38.90	-23.9	-24.6	18.1	0.00e+00	0	43	0	659554304	7	3893
2026-01-18 04:50:05.63	205.29	38.65	-23.9	-24.6	18.1	0.00e+00	0	43	0	666894336	7	3897
2026-01-18 04:50:06.63	205.26	38.40	-24.0	-24.8	18.0	0.00e+00	0	43	0	674234368	7	3934
2026-01-18 04:50:07.64	205.23	38.14	-24.2	-24.7	17.7	0.00e+00	0	43	0	681574400	8	3805
2026-01-18 04:50:08.64	205.20	37.89	-24.1	-24.5	17.9	0.00e+00	0	43	0	688914432	8	3763
2026-01-18 04:50:09.64	205.18	37.65	-23.9	-24.1	18.0	0.00e+00	0	43	0	696254464	8	3670
2026-01-18 04:50:10.65	205.15	37.40	-23.8	-23.9	18.2	0.00e+00	0	43	0	703594496	8	3640
2026-01-18 04:50:11.65	205.12	37.16	-23.8	-23.8	18.2	0.00e+00	0	43	0	710934528	8	3613
2026-01-18 04:50:12.66	205.09	36.91	-23.7	-23.6	18.3	0.00e+00	0	43	0	717225984	8	3570
2026-01-18 04:50:13.67	205.06	36.67	-23.7	-23.6	18.4	0.00e+00	0	43	0	724566016	8	3558
2026-01-18 04:50:14.67	205.04	36.43	-23.7	-23.6	18.4	0.00e+00	0	43	0	731906048	8	3575
2026-01-18 04:50:15.67	205.01	36.20	-24.0	-24.2	18.1	0.00e+00	0	43	0	739246080	8	3696
2026-01-18 04:50:16.68	204.99	35.96	-23.9	-24.2	18.0	0.00e+00	0	43	0	746586112	8	3686
2026-01-18 04:50:17.67	204.96	35.73	-23.5	-23.2	18.6	0.00e+00	0	43	0	753926144	8	3486
2026-01-18 04:50:18.68	204.94	35.50	-23.1	-23.0	18.9	0.00e+00	0	43	0	761266176	7	3527
2026-01-18 04:50:19.68	204.91	35.27	-23.0	-22.7	19.1	0.00e+00	0	43	0	768606208	7	3466
2026-01-18 04:50:20.68	204.89	35.04	-23.1	-22.9	19.0	0.00e+00	0	43	0	775946240	7	3506
2026-01-18 04:50:21.69	204.86	34.81	-23.0	-22.7	19.1	0.00e+00	0	43	0	782237696	7	3464
2026-01-18 04:50:22.68	204.84	34.59	-22.9	-22.9	19.2	0.00e+00	0	43	0	789577728	6	3620
2026-01-18 04:50:23.68	204.82	34.36	-22.8	-22.9	19.2	0.00e+00	0	43	0	796917760	6	3602
2026-01-18 04:50:24.69	204.80	34.14	-22.9	-23.0	19.1	0.00e+00	0	43	0	804257792	6	3644
2026-01-18 04:50:25.70	204.77	33.92	-22.9	-23.0	19.0	0.00e+00	0	43	0	811597824	6	3631
2026-01-18 04:50:26.70	204.75	33.70	-22.9	-22.9	19.1	0.00e+00	0	43	0	818937856	6	3618
2026-01-18 04:50:27.70	204.73	33.48	-22.9	-23.0	19.1	0.00e+00	0	43	0	826277888	6	3628
2026-01-18 04:50:28.71	204.71	33.27	-22.9	-22.9	19.1	5.26e-05	0	43	0	833617920	6	3608
2026-01-18 04:50:29.71	204.69	33.05	-22.9	-23.1	19.0	0.00e+00	0	43	0	840957952	6	3645
2026-01-18 04:50:30.72	204.67	32.84	-23.0	-23.2	19.0	0.00e+00	0	43	0	848297984	6	3672
2026-01-18 04:50:31.72	204.65	32.63	-23.0	-23.3	19.0	0.00e+00	0	43	0	855638016	6	3697
2026-01-18 04:50:32.73	204.63	32.42	-23.1	-23.5	18.9	0.00e+00	0	43	0	862978048	6	3740
2026-01-18 04:50:33.74	204.61	32.21	-23.2	-23.7	18.8	0.00e+00	0	43	0	869269504	6	3782
2026-01-18 04:50:34.74	204.59	32.00	-23.3	-23.7	18.8	0.00e+00	0	43	0	876609536	6	3792
2026-01-18 04:50:35.74	204.57	31.80	-23.3	-23.8	18.7	0.00e+00	0	43	0	883949568	6	3826
2026-01-18 04:50:36.74	204.55	31.59	-23.3	-23.9	18.7	0.00e+00	0	43	0	891289600	6	3833
2026-01-18 04:50:37.74	204.53	31.39	-23.5	-24.2	18.5	0.00e+00	0	43	0	898629632	6	3908
2026-01-18 04:50:38.74	204.51	31.19	-23.5	-24.2	18.5	2.64e-04	0	43	0	905969664	6	3899
2026-01-18 04:50:39.74	204.50	30.99	-23.5	-24.3	18.5	0.00e+00	0	43	0	913309696	6	3922
2026-01-18 04:50:40.74	204.48	30.79	-23.6	-23.9	18.4	0.00e+00	0	43	0	920649728	7	3738
2026-01-18 04:50:41.75	204.46	30.59	-23.7	-24.2	18.2	0.00e+00	0	43	0	927989760	7	3808
2026-01-18 04:50:42.76	204.44	30.40	-23.7	-24.1	18.3	0.00e+00	0	43	0	935329792	7	3770
2026-01-18 04:50:43.75	204.43	30.20	-23.6	-23.9	18.3	0.00e+00	0	43	0	942669824	7	3730
2026-01-18 04:50:44.75	204.41	30.01	-23.7	-24.1	18.3	0.00e+00	0	43	0	948961280	7	3773
2026-01-18 04:50:45.76	204.39	29.82	-23.5	-23.8	18.4	0.00e+00	0	43	0	956301312	7	3720
2026-01-18 04:50:46.77	204.38	29.63	-23.5	-24.3	18.4	0.00e+00	0	43	0	963641344	6	3940
2026-01-18 04:50:47.77	204.36	29.44	-23.7	-24.1	18.2	0.00e+00	0	43	0	970981376	7	3783
2026-01-18 04:50:48.78	204.34	29.25	-23.7	-24.1	18.2	0.00e+00	0	43	0	978321408	7	3789
2026-01-18 04:50:49.77	204.33	29.06	-23.6	-24.0	18.2	0.00e+00	0	43	0	985661440	7	3769
2026-01-18 04:50:50.78	204.31	28.88	-23.7	-24.1	18.3	0.00e+00	0	43	0	993001472	7	3779
2026-01-18 04:50:51.78	204.30	28.69	-23.9	-24.6	17.9	0.00e+00	0	43	0	1000341504	7	3903
2026-01-18 04:50:52.77	204.28	28.51	-23.9	-24.6	18.0	0.00e+00	0	43	0	1007681536	7	3905
2026-01-18 04:50:53.77	204.27	28.33	-23.8	-24.3	18.1	0.00e+00	0	43	0	1013972992	7	3837
2026-01-18 04:50:54.77	204.25	28.15	-23.6	-23.9	18.3	0.00e+00	0	43	0	1021313024	7	3747
2026-01-18 04:50:55.77	204.24	27.97	-23.4	-24.1	18.5	0.00e+00	0	43	0	1028653056	6	3878
2026-01-18 04:50:56.78	204.23	27.79	-23.5	-24.2	18.4	0.00e+00	0	43	0	1035993088	6	3916
2026-01-18 04:50:57.78	204.21	27.61	-23.6	-24.4	18.3	0.00e+00	0	43	0	1043333120	6	3950
2026-01-18 04:50:58.78	204.20	27.44	-23.5	-23.7	18.4	0.00e+00	0	43	0	1050673152	7	3681
2026-01-18 04:50:59.78	204.18	27.26	-23.7	-24.1	18.2	0.00e+00	0	43	0	1058013184	7	3779
2026-01-18 04:51:00.79	204.17	27.09	-23.5	-23.8	18.4	0.00e+00	0	43	0	1065353216	7	3716
2026-01-18 04:51:01.79	204.16	26.92	-23.5	-24.2	18.4	0.00e+00	0	43	0	1071644672	6	3913
2026-01-18 04:51:02.80	204.14	26.74	-23.6	-23.9	18.3	0.00e+00	0	43	0	1080033280	7	3731
2026-01-18 04:51:03.81	204.13	26.57	-23.6	-24.0	18.2	0.00e+00	0	43	0	1087373312	7	3770
2026-01-18 04:51:04.81	204.12	26.40	-23.7	-24.1	18.2	0.00e+00	0	43	0	1093664768	7	3777
2026-01-18 04:51:05.82	204.11	26.23	-23.7	-24.2	18.1	0.00e+00	0	43	0	1101004800	7	3809
2026-01-18 04:51:06.82	204.09	26.06	-23.7	-24.2	18.1	1.10e-06	0	43	0	1108344832	7	3811
2026-01-18 04:51:07.82	204.08	25.90	-23.8	-24.4	18.0	0.00e+00	0	43	0	1115684864	7	3859
2026-01-18 04:51:08.82	204.07	25.73	-23.8	-24.4	18.0	0.00e+00	0	43	0	1123024896	7	3851
2026-01-18 04:51:09.82	204.06	25.57	-23.8	-24.3	18.1	0.00e+00	0	43	0	1130364928	7	3834
2026-01-18 04:51:10.83	204.05	25.40	-24.0	-24.8	17.8	0.00e+00	0	43	0	1137704960	7	3958
2026-01-18 04:51:11.83	204.03	25.24	-23.9	-24.6	17.9	0.00e+00	0	43	0	1145044992	7	3898
2026-01-18 04:51:12.83	204.02	25.08	-23.9	-24.6	17.9	0.00e+00	0	43	0	1152385024	7	3889
2026-01-18 04:51:13.84	204.01	24.92	-23.9	-24.6	17.9	0.00e+00	0	43	0	1158676480	7	3890
2026-01-18 04:51:14.84	204.00	24.76	-24.1	-24.9	17.7	0.00e+00	0	43	0	1166016512	7	3973
2026-01-18 04:51:15.84	203.99	24.60	-24.0	-24.3	17.8	0.00e+00	0	43	0	1173356544	8	3723
2026-01-18 04:51:16.85	203.98	24.44	-23.9	-24.7	17.9	0.00e+00	0	43	0	1180696576	7	3915
2026-01-18 04:51:17.86	203.97	24.29	-23.9	-24.5	17.9	0.00e+00	0	43	0	1188036608	7	3875
2026-01-18 04:51:18.86	203.96	24.13	-24.1	-24.9	17.7	0.00e+00	0	43	0	1195376640	7	3974
2026-01-18 04:51:19.87	203.95	23.98	-24.1	-24.4	17.8	0.00e+00	0	43	0	1202716672	8	3746
2026-01-18 04:51:20.87	203.94	23.82	-23.9	-24.5	18.0	0.00e+00	0	43	0	1210056704	7	3873
2026-01-18 04:51:21.88	203.93	23.67	-23.9	-24.6	17.9	0.00e+00	0	43	0	1217396736	7	3895
2026-01-18 04:51:22.88	203.92	23.52	-24.0	-24.9	17.8	0.00e+00	0	43	0	1224736768	7	3961
2026-01-18 04:51:23.88	203.91	23.37	-23.9	-24.5	17.9	0.00e+00	0	43	0	1232076800	7	3872
2026-01-18 04:51:24.88	203.90	23.22	-23.8	-24.4	18.0	0.00e+00	0	43	0	1239416832	7	3854
2026-01-18 04:51:25.89	203.89	23.07	-23.9	-24.5	17.9	0.00e+00	0	43	0	1245708288	7	3859
2026-01-18 04:51:26.90	203.88	22.92	-23.8	-24.3	18.0	0.00e+00	0	43	0	1254096896	7	3834
2026-01-18 04:51:27.90	203.87	22.77	-23.8	-24.3	18.0	0.00e+00	0	43	0	1261436928	7	3823
2026-01-18 04:51:28.90	203.86	22.62	-24.0	-24.8	17.7	0.00e+00	0	43	0	1267728384	7	3950
2026-01-18 04:51:29.90	203.85	22.48	-24.1	-24.4	17.7	0.00e+00	0	43	0	1275068416	8	3745
2026-01-18 04:51:30.91	203.84	22.33	-24.0	-24.3	17.8	0.00e+00	0	43	0	1282408448	8	3721
2026-01-18 04:51:31.90	203.83	22.19	-24.2	-24.6	17.6	0.00e+00	0	43	0	1289748480	8	3794
2026-01-18 04:51:32.91	203.82	22.04	-24.1	-24.5	17.7	0.00e+00	0	43	0	1297088512	8	3768
2026-01-18 04:51:33.92	203.81	21.90	-24.1	-24.5	17.7	0.00e+00	0	43	0	1304428544	8	3760
2026-01-18 04:51:34.92	203.80	21.76	-24.2	-24.6	17.6	0.00e+00	0	43	0	1311768576	8	3795
2026-01-18 04:51:35.93	203.80	21.62	-24.1	-24.4	17.7	0.00e+00	0	43	0	1319108608	8	3740
2026-01-18 04:51:36.93	203.79	21.48	-24.0	-24.3	17.7	0.00e+00	0	43	0	1325400064	8	3731
2026-01-18 04:51:37.94	203.78	21.33	-24.0	-24.7	17.8	0.00e+00	0	43	0	1332740096	7	3921
2026-01-18 04:51:38.95	203.77	21.19	-24.1	-24.9	17.7	0.00e+00	0	43	0	1341128704	7	3972
2026-01-18 04:51:39.95	203.76	21.06	-24.1	-24.5	17.6	0.00e+00	0	43	0	1347420160	8	3775
2026-01-18 04:51:40.95	203.75	20.92	-24.1	-24.4	17.6	0.00e+00	0	43	0	1354760192	8	3756
2026-01-18 04:51:41.95	203.75	20.78	-24.2	-24.8	17.4	0.00e+00	0	43	0	1362100224	8	3830
2026-01-18 04:51:42.95	203.74	20.65	-24.1	-24.5	17.6	0.00e+00	0	43	0	1369440256	8	3758
2026-01-18 04:51:43.95	203.73	20.51	-24.2	-24.8	17.5	0.00e+00	0	43	0	1376780288	8	3831
2026-01-18 04:51:44.96	203.72	20.38	-24.3	-24.8	17.4	0.00e+00	0	43	0	1384120320	8	3845
2026-01-18 04:51:45.96	203.72	20.24	-24.4	-25.2	17.2	0.00e+00	0	43	0	1391460352	8	3935
2026-01-18 04:51:46.96	203.71	20.11	-24.3	-24.8	17.4	0.00e+00	0	43	0	1398800384	8	3852
2026-01-18 04:51:47.96	203.70	19.98	-24.2	-24.6	17.5	0.00e+00	0	43	0	1406140416	8	3804
2026-01-18 04:51:48.97	203.69	19.85	-24.2	-24.7	17.5	0.00e+00	0	43	0	1412431872	8	3816
2026-01-18 04:51:49.97	203.69	19.72	-24.2	-24.7	17.5	0.00e+00	0	43	0	1419771904	8	3811
2026-01-18 04:51:50.97	203.68	19.59	-24.3	-24.9	17.4	0.00e+00	0	43	0	1427111936	8	3867
2026-01-18 04:51:51.97	203.67	19.46	-24.2	-24.7	17.5	0.00e+00	0	43	0	1434451968	8	3820
2026-01-18 04:51:52.98	203.66	19.33	-24.3	-24.9	17.3	0.00e+00	0	43	0	1441792000	8	3868
2026-01-18 04:51:53.98	203.66	19.20	-24.3	-24.9	17.4	0.00e+00	0	43	0	1449132032	8	3856
2026-01-18 04:51:54.98	203.65	19.07	-24.4	-25.1	17.3	0.00e+00	0	43	0	1456472064	8	3898
2026-01-18 04:51:55.98	203.64	18.95	-24.2	-24.8	17.4	0.00e+00	0	43	0	1463812096	8	3828
2026-01-18 04:51:56.99	203.64	18.82	-24.3	-25.0	17.3	0.00e+00	0	43	0	1470103552	8	3879
2026-01-18 04:51:57.99	203.63	18.70	-24.4	-25.1	17.2	0.00e+00	0	43	0	1477443584	8	3903
2026-01-18 04:51:59.00	203.62	18.57	-24.4	-25.1	16.7	0.00e+00	0	43	0	1485832192	8	3916
2026-01-18 04:52:00.00	203.62	18.45	-24.6	-25.5	17.0	1.10e-06	0	43	0	1492123648	8	4006
2026-01-18 04:52:01.00	203.61	18.32	-24.4	-25.2	16.9	0.00e+00	0	43	0	1499463680	8	3936
2026-01-18 04:52:02.00	203.61	18.20	-24.4	-25.2	17.2	0.00e+00	0	43	0	1506803712	8	3927
2026-01-18 04:52:03.01	203.60	18.08	-24.4	-25.1	17.2	2.20e-06	0	43	0	1514143744	8	3899
2026-01-18 04:52:04.00	203.59	17.96	-24.7	-25.2	16.9	0.00e+00	0	43	0	1521483776	9	3837
2026-01-18 04:52:05.01	203.59	17.83	-24.4	-24.7	17.1	2.74e-05	0	43	0	1528823808	9	3723
2026-01-18 04:52:06.00	203.58	17.71	-24.6	-25.1	17.0	4.50e-06	0	43	0	1536163840	9	3798
2026-01-18 04:52:07.01	203.58	17.59	-24.6	-25.0	17.0	0.00e+00	0	43	0	1543503872	9	3784
2026-01-18 04:52:08.02	203.57	17.47	-24.6	-25.1	16.9	0.00e+00	0	43	0	1550843904	9	3804
2026-01-18 04:52:09.03	203.56	17.35	-24.7	-25.3	16.8	3.40e-06	0	43	0	1557135360	9	3855
2026-01-18 04:52:10.03	203.56	17.24	-24.7	-25.2	16.8	0.00e+00	0	43	0	1564475392	9	3836
2026-01-18 04:52:11.03	203.55	17.12	-24.9	-25.8	16.5	0.00e+00	0	43	0	1571815424	9	3979
2026-01-18 04:52:12.02	203.55	17.00	-24.8	-25.6	16.6	0.00e+00	0	43	0	1579155456	9	3929
2026-01-18 04:52:13.02	203.54	16.89	-24.9	-25.8	16.5	0.00e+00	0	43	0	1586495488	9	3972
2026-01-18 04:52:14.03	203.54	16.77	-24.8	-25.5	16.7	0.00e+00	0	43	0	1593835520	9	3899
2026-01-18 04:52:15.03	203.53	16.65	-24.8	-25.5	16.7	0.00e+00	0	43	0	1601175552	9	3902
2026-01-18 04:52:16.03	203.53	16.54	-24.8	-25.4	16.7	0.00e+00	0	43	0	1608515584	9	3878
2026-01-18 04:52:17.04	203.52	16.42	-24.9	-25.6	16.6	0.00e+00	0	43	0	1615855616	9	3937
2026-01-18 04:52:18.04	203.52	16.31	-24.8	-25.5	16.6	6.80e-06	0	43	0	1622147072	9	3898
2026-01-18 04:52:19.04	203.51	16.20	-24.7	-25.3	16.7	0.00e+00	0	43	0	1629487104	9	3863
2026-01-18 04:52:20.05	203.51	16.08	-24.8	-25.6	16.6	0.00e+00	0	43	0	1637875712	9	3925
2026-01-18 04:52:21.05	203.50	15.97	-24.8	-25.4	16.7	5.70e-06	0	43	0	1644167168	9	3888
2026-01-18 04:52:22.05	203.50	15.86	-24.9	-25.7	16.5	0.00e+00	0	43	0	1651507200	9	3948
2026-01-18 04:52:23.06	203.49	15.75	-24.9	-25.8	16.5	0.00e+00	0	43	0	1658847232	9	3963
2026-01-18 04:52:24.06	203.49	15.64	-25.0	-26.0	16.4	0.00e+00	0	43	0	1666187264	9	4022
2026-01-18 04:52:25.06	203.48	15.53	-25.0	-26.0	16.4	0.00e+00	0	43	0	1673527296	9	4014
2026-01-18 04:52:26.07	203.48	15.42	-25.0	-25.5	16.4	0.00e+00	0	43	0	1680867328	10	3799
2026-01-18 04:52:27.08	203.47	15.31	-25.2	-25.7	16.2	0.00e+00	0	43	0	1688207360	10	3851
2026-01-18 04:52:28.08	203.47	15.20	-25.2	-25.8	16.2	0.00e+00	0	43	0	1695547392	10	3877
2026-01-18 04:52:29.08	203.46	15.09	-25.1	-25.7	16.2	0.00e+00	0	43	0	1701838848	10	3853
2026-01-18 04:52:30.08	203.46	14.98	-25.3	-26.0	16.1	0.00e+00	0	43	0	1709178880	10	3927
2026-01-18 04:52:31.08	203.45	14.88	-25.2	-25.9	16.1	0.00e+00	0	43	0	1716518912	10	3900
2026-01-18 04:52:32.09	203.45	14.77	-25.5	-26.6	15.8	0.00e+00	0	43	0	1723858944	10	4056
2026-01-18 04:52:33.09	203.45	14.66	-25.3	-26.0	16.1	0.00e+00	0	43	0	1731198976	10	3919
2026-01-18 04:52:34.10	203.44	14.56	-25.4	-26.2	15.9	0.00e+00	0	43	0	1738539008	10	3955
2026-01-18 04:52:35.10	203.44	14.45	-25.6	-26.2	15.7	0.00e+00	0	43	0	1745879040	11	3868
2026-01-18 04:52:36.10	203.43	14.35	-25.3	-25.5	16.0	0.00e+00	0	43	0	1753219072	11	3699
2026-01-18 04:52:37.10	203.43	14.24	-25.5	-25.9	15.8	0.00e+00	0	43	0	1760559104	11	3791
2026-01-18 04:52:38.11	203.43	14.14	-25.7	-26.3	15.6	0.00e+00	0	43	0	1767899136	11	3895
2026-01-18 04:52:39.11	203.42	14.03	-25.6	-26.2	15.7	0.00e+00	0	43	0	1775239168	11	3850
2026-01-18 04:52:40.11	203.42	13.93	-25.5	-26.0	15.8	1.10e-06	0	43	0	1782579200	11	3803
2026-01-18 04:52:41.12	203.41	13.83	-25.6	-26.2	15.7	0.00e+00	0	43	0	1788870656	11	3862
2026-01-18 04:52:42.12	203.41	13.72	-25.6	-26.1	15.7	0.00e+00	0	43	0	1796210688	11	3838
2026-01-18 04:52:43.13	203.41	13.62	-25.6	-26.1	15.7	0.00e+00	0	43	0	1803550720	11	3845
2026-01-18 04:52:44.13	203.40	13.52	-25.6	-26.2	15.6	0.00e+00	0	43	0	1810890752	11	3873
2026-01-18 04:52:45.13	203.40	13.42	-25.8	-26.6	15.4	0.00e+00	0	43	0	1818230784	11	3966
2026-01-18 04:52:46.13	203.39	13.32	-25.9	-26.8	15.3	0.00e+00	0	43	0	1825570816	11	4002
2026-01-18 04:52:47.14	203.39	13.22	-25.6	-26.3	15.5	0.00e+00	0	43	0	1832910848	11	3897
2026-01-18 04:52:48.14	203.39	13.12	-25.6	-26.3	15.5	0.00e+00	0	43	0	1840250880	11	3896
2026-01-18 04:52:49.15	203.38	13.02	-25.8	-26.6	15.3	0.00e+00	0	43	0	1847590912	11	3970
2026-01-18 04:52:50.15	203.38	12.92	-26.0	-27.1	15.1	0.00e+00	0	43	0	1854930944	11	4079
2026-01-18 04:52:51.16	203.38	12.82	-25.8	-26.7	15.3	0.00e+00	0	43	0	1862270976	11	3979
2026-01-18 04:52:52.15	203.37	12.72	-25.9	-26.8	15.3	0.00e+00	0	43	0	1868562432	11	4004
2026-01-18 04:52:53.16	203.37	12.63	-25.7	-26.5	15.4	0.00e+00	0	43	0	1875902464	11	3930
2026-01-18 04:52:54.16	203.37	12.53	-25.9	-27.0	15.2	0.00e+00	0	43	0	1883242496	11	4049
2026-01-18 04:52:55.16	203.36	12.43	-26.0	-27.0	15.1	0.00e+00	0	43	0	1890582528	11	4071
2026-01-18 04:52:56.17	203.36	12.33	-25.9	-26.8	15.2	1.10e-06	0	43	0	1897922560	11	4015
2026-01-18 04:52:57.18	203.36	12.24	-25.9	-26.8	15.3	0.00e+00	0	43	0	1905262592	11	4015
2026-01-18 04:52:58.18	203.35	12.14	-25.9	-26.9	15.2	0.00e+00	0	43	0	1912602624	11	4026
2026-01-18 04:52:59.18	203.35	12.05	-25.8	-26.7	15.3	0.00e+00	0	43	0	1919942656	11	3999
2026-01-18 04:53:00.18	203.35	11.95	-26.0	-27.2	15.0	0.00e+00	0	43	0	1927282688	11	4119
2026-01-18 04:53:01.18	203.34	11.86	-25.8	-26.7	15.3	0.00e+00	0	43	0	1933574144	11	3988
2026-01-18 04:53:02.18	203.34	11.76	-26.0	-27.0	15.1	0.00e+00	0	43	0	1940914176	11	4070
2026-01-18 04:53:03.18	203.34	11.67	-26.0	-27.2	15.0	0.00e+00	0	43	0	1948254208	11	4101
2026-01-18 04:53:04.18	203.34	11.58	-26.0	-27.2	15.0	0.00e+00	0	43	0	1955594240	11	4110
2026-01-18 04:53:05.18	203.33	11.48	-26.1	-26.9	14.8	0.00e+00	0	43	0	1962934272	12	3930
2026-01-18 04:53:06.18	203.33	11.39	-26.5	-27.6	14.4	0.00e+00	0	43	0	1970274304	12	4124
2026-01-18 04:53:07.19	203.33	11.30	-26.1	-26.8	14.9	0.00e+00	0	43	0	1977614336	12	3912
2026-01-18 04:53:08.19	203.32	11.20	-26.1	-26.9	14.8	1.10e-06	0	43	0	1984954368	12	3942
2026-01-18 04:53:09.20	203.32	11.11	-26.3	-27.3	14.6	0.00e+00	0	43	0	1992294400	12	4028
2026-01-18 04:53:10.21	203.32	11.02	-26.2	-27.2	14.7	0.00e+00	0	43	0	1999634432	12	4001
2026-01-18 04:53:11.21	203.32	10.93	-26.4	-27.5	14.4	0.00e+00	0	43	0	2006974464	12	4086
2026-01-18 04:53:12.22	203.31	10.84	-26.3	-27.2	14.6	0.00e+00	0	43	0	2014314496	12	4023
2026-01-18 04:53:13.22	203.31	10.75	-26.5	-27.7	14.3	0.00e+00	0	43	0	2020605952	12	4150
2026-01-18 04:53:14.23	203.31	10.66	-26.3	-27.4	14.5	0.00e+00	0	43	0	2027945984	12	4052
2026-01-18 04:53:15.24	203.31	10.57	-26.2	-27.1	14.6	0.00e+00	0	43	0	2035286016	12	3984
2026-01-18 04:53:16.24	203.30	10.48	-26.1	-26.9	14.7	1.10e-06	0	43	0	2042626048	12	3935
2026-01-18 04:53:17.24	203.30	10.39	-26.3	-27.3	14.5	5.70e-06	0	43	0	2049966080	12	4038
2026-01-18 04:53:18.25	203.30	10.30	-26.3	-27.2	14.5	0.00e+00	0	43	0	2057306112	12	4019
2026-01-18 04:53:19.25	203.30	10.21	-26.4	-27.6	14.4	0.00e+00	0	43	0	2064646144	12	4111
2026-01-18 04:53:20.25	203.29	10.12	-26.5	-27.7	14.3	1.25e-05	0	43	0	2071986176	12	4141
2026-01-18 04:53:21.25	203.29	10.03	-26.3	-27.3	14.5	0.00e+00	0	43	0	2079326208	12	4042
2026-01-18 04:53:22.26	203.29	9.95	-26.5	-27.7	14.2	1.10e-06	0	43	0	2086666240	12	4146
2026-01-18 04:53:23.26	203.29	9.86	-26.4	-27.5	14.3	1.02e-05	0	43	0	2094006272	12	4110
2026-01-18 04:53:24.26	203.28	9.77	-26.5	-27.8	14.2	1.10e-06	0	43	0	2100297728	12	4167
2026-01-18 04:53:25.26	203.28	9.69	-26.3	-27.3	14.4	1.10e-06	0	43	0	2107637760	12	4052
2026-01-18 04:53:26.27	203.28	9.60	-26.5	-27.7	14.2	0.00e+00	0	43	0	2114977792	12	4151
2026-01-18 04:53:27.27	203.28	9.51	-26.6	-27.4	14.1	1.10e-06	0	43	0	2122317824	13	3968
2026-01-18 04:53:28.27	203.28	9.43	-26.4	-27.1	14.2	2.20e-06	0	43	0	2129657856	13	3905
2026-01-18 04:53:29.27	203.27	9.34	-26.9	-28.1	13.7	4.50e-06	0	43	0	2136997888	13	4156
2026-01-18 04:53:30.28	203.27	9.26	-27.0	-28.3	13.5	1.48e-05	0	43	0	2144337920	13	4215
2026-01-18 04:53:31.29	203.27	9.17	-27.0	-28.3	13.5	1.60e-05	0	43	0	2151677952	13	4211
2026-01-18 04:53:32.29	203.27	9.09	-27.2	-28.4	13.2	1.83e-05	0	43	0	2159017984	14	4139
2026-01-18 04:53:33.29	203.27	9.00	-27.6	-29.3	12.7	7.55e-05	0	43	0	2165309440	14	4372
2026-01-18 04:53:34.29	203.26	8.92	-26.9	-27.1	13.6	1.60e-05	0	43	0	2172649472	15	3705
2026-01-18 04:53:35.30	203.26	8.83	-26.8	-27.4	13.8	1.14e-05	0	43	0	2181038080	14	3857
2026-01-18 04:53:36.29	203.26	8.75	-26.7	-27.2	13.9	1.10e-06	0	43	0	2187329536	14	3810
2026-01-18 04:53:37.29	203.26	8.67	-26.6	-27.0	14.0	5.70e-06	0	43	0	2194669568	14	3768
2026-01-18 04:53:38.29	203.26	8.58	-26.7	-27.3	13.8	6.80e-06	0	43	0	2202009600	14	3851
2026-01-18 04:53:39.30	203.25	8.50	-26.7	-27.1	13.9	1.10e-06	0	43	0	2209349632	14	3800
2026-01-18 04:53:40.30	203.25	8.42	-26.8	-27.5	13.6	3.40e-06	0	43	0	2216689664	14	3904
2026-01-18 04:53:41.30	203.25	8.34	-26.7	-27.3	13.7	5.70e-06	0	43	0	2224029696	14	3852
2026-01-18 04:53:42.30	203.25	8.26	-26.6	-26.9	14.0	0.00e+00	0	43	0	2231369728	14	3757
2026-01-18 04:53:43.31	203.25	8.17	-26.9	-27.7	13.6	1.02e-05	0	43	0	2238709760	14	3945
2026-01-18 04:53:44.31	203.25	8.09	-26.8	-27.4	13.7	5.70e-06	0	43	0	2245001216	14	3863
2026-01-18 04:53:45.31	203.24	8.01	-26.7	-27.3	13.7	8.00e-06	0	43	0	2252341248	14	3854
2026-01-18 04:53:46.31	203.24	7.93	-27.4	-28.8	12.8	3.54e-05	0	43	0	2259681280	14	4250
2026-01-18 04:53:47.32	203.24	7.85	-27.4	-28.8	12.8	7.20e-05	0	43	0	2267021312	14	4247
2026-01-18 04:53:48.32	203.24	7.77	-27.0	-28.0	13.3	2.17e-05	0	43	0	2274361344	14	4029
2026-01-18 04:53:49.33	203.24	7.69	-27.0	-28.0	13.3	1.83e-05	0	43	0	2281701376	14	4029
2026-01-18 04:53:50.34	203.24	7.61	-27.0	-28.0	13.3	2.86e-05	0	43	0	2289041408	14	4013
2026-01-18 04:53:51.34	203.24	7.53	-27.1	-28.2	13.2	3.08e-05	0	43	0	2296381440	14	4068
2026-01-18 04:53:52.35	203.23	7.45	-26.9	-27.7	13.4	1.71e-05	0	43	0	2303721472	14	3957
2026-01-18 04:53:53.35	203.23	7.37	-27.0	-28.0	13.3	1.83e-05	0	43	0	2311061504	14	4031
2026-01-18 04:53:54.35	203.23	7.29	-27.1	-28.2	13.2	2.97e-05	0	43	0	2318401536	14	4073
2026-01-18 04:53:55.35	203.23	7.21	-26.9	-27.7	13.4	2.05e-05	0	43	0	2325741568	14	3963
2026-01-18 04:53:56.35	203.23	7.14	-27.0	-28.1	13.2	4.34e-05	0	43	0	2332033024	14	4041
2026-01-18 04:53:57.36	203.23	7.06	-30.8	-34.4	7.6	4.52e-03	0	43	0	2339373056	21	5417
2026-01-18 04:53:58.37	203.23	6.98	-33.3	-43.0	3.8	8.47e-01	0	43	104	2340421632	26	11040

#Closed at: 2026-01-18 04:53:58
#Recorded file [2340 MB]: D:/data/31010_260118_074833.dat