passes_logs/2026/01/18/R2M6_AANII_01/R2M6_AANII_01__20260118_043815_FENGYUN_3D_rec.log

#Pass ID: 20260118_043815_FENGYUN 3D
#Satellite: FENGYUN 3D
#Configuration: FENGYUN 3D
#almurnet v.1.7.20240730
#Start time: 2026-01-18 04:38:16

#Version: 2.2.20231116
#Station: R2M6_AANII_01
#Location: 30.233357 lon 59.946436 lat
#TLE: 1 43010U 17072A   26017.25882587  .00000461  00000+0  23963-3 0  9992
#TLE: 2 43010  98.9934 349.1096 0002357 104.0487 256.0951 14.19697152423579

#Time	Az	El	Level	Level2	SNR	BER	BlckErr	Temp	State	Recorded	gain1	gain2
2026-01-18 04:38:16.16	10.08	7.06	-31.4	-36.0	4.8	8.05e-01	0	40	0	0	23	6067
2026-01-18 04:38:17.16	9.98	7.12	-30.6	-34.3	5.2	7.83e-01	0	40	104	0	21	5488
2026-01-18 04:38:18.16	9.88	7.18	-30.5	-34.0	9.0	2.77e-02	0	40	0	0	21	5381
2026-01-18 04:38:19.17	9.77	7.24	-30.5	-33.8	9.2	2.35e-02	0	40	0	5242880	21	5291
2026-01-18 04:38:20.17	9.67	7.30	-30.4	-34.1	9.3	2.30e-02	0	41	0	11534336	20	5522
2026-01-18 04:38:21.18	9.57	7.36	-30.3	-33.2	9.6	2.43e-02	0	40	0	16777216	21	5054
2026-01-18 04:38:22.18	9.46	7.43	-30.3	-33.4	9.4	1.74e-02	0	41	0	22020096	21	5140
2026-01-18 04:38:23.18	9.36	7.49	-29.8	-32.4	10.5	6.26e-03	0	41	0	28311552	20	4861
2026-01-18 04:38:24.18	9.25	7.55	-29.4	-31.3	11.2	2.39e-03	0	41	0	33554432	20	4491
2026-01-18 04:38:25.19	9.15	7.61	-29.0	-30.8	11.9	8.77e-04	0	41	0	38797312	19	4441
2026-01-18 04:38:26.20	9.04	7.67	-28.6	-30.8	12.5	4.75e-04	0	41	0	45088768	17	4654
2026-01-18 04:38:27.20	8.93	7.73	-28.4	-30.2	12.9	7.66e-05	0	41	0	50331648	17	4470
2026-01-18 04:38:28.20	8.83	7.79	-28.9	-31.6	12.1	4.22e-04	0	41	0	55574528	17	4882
2026-01-18 04:38:29.20	8.72	7.85	-28.6	-30.8	12.6	1.61e-04	0	41	0	61865984	17	4636
2026-01-18 04:38:30.20	8.61	7.91	-28.6	-30.8	12.6	2.43e-04	0	41	0	67108864	17	4649
2026-01-18 04:38:31.20	8.51	7.97	-28.7	-31.0	12.5	2.93e-04	0	41	0	73400320	17	4702
2026-01-18 04:38:32.21	8.40	8.03	-28.7	-31.1	12.4	3.08e-04	0	41	0	78643200	17	4739
2026-01-18 04:38:33.21	8.29	8.09	-28.6	-30.7	12.7	1.14e-04	0	41	0	84934656	17	4614
2026-01-18 04:38:34.22	8.18	8.16	-28.5	-30.4	12.9	2.23e-04	0	41	0	90177536	17	4523
2026-01-18 04:38:35.22	8.07	8.22	-28.7	-30.9	12.6	3.91e-04	0	41	0	95420416	17	4673
2026-01-18 04:38:36.22	7.96	8.28	-28.3	-30.0	13.2	5.37e-05	0	41	0	101711872	17	4378
2026-01-18 04:38:37.23	7.85	8.34	-28.2	-29.8	13.3	1.15e-04	0	41	0	106954752	17	4331
2026-01-18 04:38:38.23	7.74	8.40	-27.9	-29.1	13.7	6.52e-05	0	41	0	112197632	17	4144
2026-01-18 04:38:39.23	7.62	8.46	-28.0	-29.3	13.6	3.43e-05	0	41	0	118489088	17	4191
2026-01-18 04:38:40.23	7.51	8.52	-28.0	-29.3	13.6	5.72e-05	0	41	0	123731968	17	4200
2026-01-18 04:38:41.23	7.40	8.59	-28.2	-29.9	13.3	6.52e-05	0	41	0	128974848	17	4363
2026-01-18 04:38:42.24	7.28	8.65	-28.1	-29.6	13.5	9.72e-05	0	41	0	135266304	17	4271
2026-01-18 04:38:43.24	7.17	8.71	-28.3	-30.1	13.2	3.66e-05	0	41	0	140509184	17	4422
2026-01-18 04:38:44.24	7.06	8.77	-28.1	-29.5	13.6	1.07e-04	0	41	0	146800640	17	4248
2026-01-18 04:38:45.25	6.94	8.83	-27.9	-29.1	13.8	1.83e-05	0	41	0	152043520	17	4137
2026-01-18 04:38:46.25	6.83	8.89	-28.1	-29.5	13.6	9.49e-05	0	41	0	157286400	17	4232
2026-01-18 04:38:47.25	6.71	8.96	-28.3	-30.0	13.2	9.95e-05	0	41	0	163577856	17	4399
2026-01-18 04:38:48.26	6.59	9.02	-27.8	-28.8	14.0	1.02e-05	0	41	0	168820736	17	4048
2026-01-18 04:38:49.26	6.48	9.08	-27.8	-29.3	13.9	3.43e-05	0	41	0	174063616	16	4298
2026-01-18 04:38:50.27	6.36	9.14	-27.8	-29.3	13.9	1.37e-05	0	41	0	180355072	16	4298
2026-01-18 04:38:51.27	6.24	9.20	-28.2	-30.2	13.4	1.60e-05	0	41	0	185597952	16	4555
2026-01-18 04:38:52.27	6.12	9.27	-27.7	-29.1	14.1	8.00e-06	0	41	0	191889408	16	4244
2026-01-18 04:38:53.28	6.00	9.33	-27.6	-28.8	14.2	1.45e-04	0	42	0	197132288	16	4162
2026-01-18 04:38:54.28	5.88	9.39	-27.3	-28.2	14.6	1.10e-06	0	42	0	202375168	16	3998
2026-01-18 04:38:55.28	5.76	9.45	-27.2	-28.4	14.6	1.88e-04	0	41	0	208666624	15	4169
2026-01-18 04:38:56.28	5.64	9.51	-27.1	-28.8	14.7	1.53e-04	0	42	0	213909504	14	4362
2026-01-18 04:38:57.29	5.52	9.58	-27.1	-28.8	14.7	0.00e+00	0	42	0	220200960	14	4373
2026-01-18 04:38:58.29	5.40	9.64	-27.2	-28.9	14.6	1.52e-04	0	41	0	225443840	14	4412
2026-01-18 04:38:59.29	5.28	9.70	-27.1	-28.8	14.7	1.10e-06	0	42	0	230686720	14	4385
2026-01-18 04:39:00.29	5.16	9.76	-27.0	-28.5	14.8	0.00e+00	0	41	0	236978176	14	4303
2026-01-18 04:39:01.30	5.03	9.82	-27.1	-28.9	14.6	0.00e+00	0	41	0	242221056	14	4397
2026-01-18 04:39:02.30	4.91	9.89	-27.2	-29.0	14.6	0.00e+00	0	41	0	247463936	14	4432
2026-01-18 04:39:03.30	4.78	9.95	-27.0	-28.6	14.8	2.20e-06	0	42	0	253755392	14	4318
2026-01-18 04:39:04.31	4.66	10.01	-27.0	-28.5	14.8	0.00e+00	0	42	0	258998272	14	4301
2026-01-18 04:39:05.32	4.53	10.07	-27.1	-28.9	14.6	9.26e-05	0	42	0	265289728	14	4395
2026-01-18 04:39:06.32	4.41	10.14	-27.1	-28.8	14.7	0.00e+00	0	42	0	270532608	14	4381
2026-01-18 04:39:07.33	4.28	10.20	-27.2	-29.1	14.5	1.48e-05	0	42	0	275775488	14	4467
2026-01-18 04:39:08.33	4.15	10.26	-26.9	-28.2	15.0	0.00e+00	0	42	0	282066944	14	4226
2026-01-18 04:39:09.34	4.02	10.32	-27.3	-29.2	14.4	0.00e+00	0	42	0	287309824	14	4496
2026-01-18 04:39:10.34	3.90	10.39	-27.3	-29.2	14.5	1.10e-06	0	42	0	293601280	14	4492
2026-01-18 04:39:11.35	3.77	10.45	-27.1	-28.8	14.7	0.00e+00	0	42	0	298844160	14	4362
2026-01-18 04:39:12.35	3.64	10.51	-27.3	-29.2	14.5	1.10e-06	0	42	0	304087040	14	4496
2026-01-18 04:39:13.35	3.51	10.57	-27.1	-28.9	14.7	1.10e-06	0	42	0	310378496	14	4399
2026-01-18 04:39:14.36	3.38	10.64	-27.3	-29.2	14.5	0.00e+00	0	42	0	315621376	14	4480
2026-01-18 04:39:15.36	3.25	10.70	-27.2	-29.0	14.6	0.00e+00	0	42	0	320864256	14	4436
2026-01-18 04:39:16.36	3.11	10.76	-27.2	-29.1	14.6	0.00e+00	0	42	0	327155712	14	4451
2026-01-18 04:39:17.36	2.98	10.82	-27.3	-29.3	14.5	0.00e+00	0	42	0	332398592	14	4517
2026-01-18 04:39:18.36	2.85	10.89	-27.2	-29.0	14.6	2.20e-06	0	42	0	338690048	14	4440
2026-01-18 04:39:19.36	2.72	10.95	-27.0	-28.6	14.8	0.00e+00	0	42	0	343932928	14	4332
2026-01-18 04:39:20.37	2.58	11.01	-27.0	-28.6	14.9	0.00e+00	0	42	0	349175808	14	4311
2026-01-18 04:39:21.38	2.45	11.07	-27.0	-28.5	14.9	2.20e-06	0	42	0	355467264	14	4297
2026-01-18 04:39:22.38	2.31	11.14	-27.1	-28.7	14.8	0.00e+00	0	42	0	360710144	14	4345
2026-01-18 04:39:23.39	2.18	11.20	-26.9	-28.3	15.0	0.00e+00	0	42	0	367001600	14	4230
2026-01-18 04:39:24.39	2.04	11.26	-26.8	-28.1	15.2	0.00e+00	0	42	0	372244480	14	4172
2026-01-18 04:39:25.40	1.90	11.32	-26.9	-28.4	15.0	0.00e+00	0	42	0	377487360	14	4263
2026-01-18 04:39:26.40	1.76	11.39	-26.8	-28.0	15.2	0.00e+00	0	42	0	383778816	14	4151
2026-01-18 04:39:27.41	1.63	11.45	-27.1	-28.7	14.8	0.00e+00	0	42	0	389021696	14	4345
2026-01-18 04:39:28.41	1.49	11.51	-26.8	-28.1	15.2	0.00e+00	0	42	0	394264576	14	4183
2026-01-18 04:39:29.40	1.35	11.57	-26.7	-28.0	15.3	0.00e+00	0	42	0	400556032	14	4151
2026-01-18 04:39:30.40	1.21	11.64	-26.8	-28.1	15.2	0.00e+00	0	42	0	405798912	14	4191
2026-01-18 04:39:31.40	1.07	11.70	-26.8	-28.2	15.1	0.00e+00	0	42	0	411041792	14	4206
2026-01-18 04:39:32.40	0.93	11.76	-26.9	-28.3	15.1	0.00e+00	0	42	0	417333248	14	4229
2026-01-18 04:39:33.41	0.79	11.82	-27.0	-28.5	15.0	0.00e+00	0	42	0	422576128	14	4281
2026-01-18 04:39:34.42	0.64	11.89	-26.8	-28.2	15.2	1.10e-06	0	42	0	428867584	14	4198
2026-01-18 04:39:35.42	0.50	11.95	-26.8	-28.2	15.2	0.00e+00	0	42	0	434110464	14	4205
2026-01-18 04:39:36.43	0.36	12.01	-26.6	-27.8	15.4	0.00e+00	0	42	0	440401920	14	4095
2026-01-18 04:39:37.43	0.21	12.07	-26.9	-28.2	15.2	0.00e+00	0	42	0	445644800	14	4211
2026-01-18 04:39:38.43	0.07	12.14	-26.8	-28.0	15.3	0.00e+00	0	42	0	450887680	14	4163
2026-01-18 04:39:39.44	359.92	12.20	-26.8	-28.0	15.3	0.00e+00	0	42	0	457179136	14	4158
2026-01-18 04:39:40.44	359.77	12.26	-26.6	-27.5	15.5	0.00e+00	0	42	0	462422016	14	4028
2026-01-18 04:39:41.44	359.63	12.32	-26.6	-27.6	15.6	0.00e+00	0	42	0	467664896	14	4039
2026-01-18 04:39:42.44	359.48	12.39	-26.7	-27.8	15.4	0.00e+00	0	42	0	473956352	14	4098
2026-01-18 04:39:43.44	359.33	12.45	-26.8	-28.0	15.3	0.00e+00	0	42	0	479199232	14	4159
2026-01-18 04:39:44.44	359.19	12.51	-26.8	-28.0	15.3	0.00e+00	0	42	0	484442112	14	4149
2026-01-18 04:39:45.44	359.04	12.57	-27.0	-28.5	15.0	0.00e+00	0	42	0	490733568	14	4288
2026-01-18 04:39:46.45	358.88	12.63	-27.0	-28.6	15.0	0.00e+00	0	42	0	495976448	14	4331
2026-01-18 04:39:47.44	358.74	12.70	-26.9	-28.3	15.2	0.00e+00	0	42	0	502267904	14	4232
2026-01-18 04:39:48.45	358.58	12.76	-26.7	-27.8	15.4	0.00e+00	0	42	0	507510784	14	4099
2026-01-18 04:39:49.45	358.43	12.82	-26.7	-28.4	15.4	0.00e+00	0	42	0	512753664	13	4380
2026-01-18 04:39:50.44	358.28	12.88	-26.6	-28.0	15.6	0.00e+00	0	42	0	519045120	13	4273
2026-01-18 04:39:51.45	358.13	12.94	-26.7	-28.4	15.4	0.00e+00	0	42	0	524288000	13	4373
2026-01-18 04:39:52.45	357.97	13.01	-26.7	-28.3	15.4	0.00e+00	0	42	0	529530880	13	4354
2026-01-18 04:39:53.46	357.82	13.07	-26.7	-28.4	15.4	1.10e-06	0	42	0	535822336	13	4356
2026-01-18 04:39:54.46	357.66	13.13	-26.2	-27.3	16.0	0.00e+00	0	42	0	541065216	13	4073
2026-01-18 04:39:55.47	357.51	13.19	-26.3	-27.6	15.9	0.00e+00	0	42	0	547356672	13	4152
2026-01-18 04:39:56.47	357.35	13.25	-26.3	-28.1	15.9	0.00e+00	0	42	0	552599552	12	4390
2026-01-18 04:39:57.48	357.19	13.31	-26.3	-28.0	15.9	0.00e+00	0	42	0	557842432	12	4359
2026-01-18 04:39:58.48	357.03	13.38	-26.5	-27.8	15.7	0.00e+00	0	42	0	564133888	13	4210
2026-01-18 04:39:59.49	356.87	13.44	-26.3	-27.5	16.0	0.00e+00	0	42	0	569376768	13	4114
2026-01-18 04:40:00.49	356.72	13.50	-26.3	-27.4	16.0	0.00e+00	0	42	0	575668224	13	4094
2026-01-18 04:40:01.49	356.56	13.56	-26.2	-27.8	16.0	0.00e+00	0	42	0	580911104	12	4324
2026-01-18 04:40:02.49	356.40	13.62	-26.2	-27.7	16.1	0.00e+00	0	42	0	586153984	12	4288
2026-01-18 04:40:03.49	356.23	13.68	-26.4	-28.3	15.8	0.00e+00	0	42	0	592445440	12	4448
2026-01-18 04:40:04.49	356.07	13.74	-26.4	-27.6	15.9	0.00e+00	0	42	0	597688320	13	4153
2026-01-18 04:40:05.49	355.91	13.80	-26.4	-27.6	15.9	0.00e+00	0	42	0	602931200	13	4153
2026-01-18 04:40:06.50	355.75	13.87	-26.3	-27.4	16.0	0.00e+00	0	42	0	609222656	13	4112
2026-01-18 04:40:07.50	355.58	13.93	-26.3	-27.9	16.0	0.00e+00	0	43	0	614465536	12	4337
2026-01-18 04:40:08.51	355.42	13.99	-26.5	-28.3	15.8	0.00e+00	0	42	0	619708416	12	4457
2026-01-18 04:40:09.51	355.25	14.05	-26.5	-28.0	15.7	0.00e+00	0	42	0	625999872	13	4246
2026-01-18 04:40:10.52	355.08	14.11	-26.3	-27.5	15.9	0.00e+00	0	42	0	631242752	13	4135
2026-01-18 04:40:11.53	354.92	14.17	-26.3	-27.9	16.0	0.00e+00	0	42	0	637534208	12	4339
2026-01-18 04:40:12.53	354.75	14.23	-26.3	-28.0	16.0	0.00e+00	0	42	0	642777088	12	4364
2026-01-18 04:40:13.54	354.58	14.29	-26.5	-27.8	15.8	0.00e+00	0	42	0	649068544	13	4205
2026-01-18 04:40:14.55	354.41	14.35	-26.2	-27.2	16.1	0.00e+00	0	42	0	654311424	13	4058
2026-01-18 04:40:15.55	354.24	14.41	-26.1	-27.0	16.3	0.00e+00	0	42	0	659554304	13	3986
2026-01-18 04:40:16.55	354.07	14.47	-26.1	-27.5	16.2	0.00e+00	0	42	0	665845760	12	4227
2026-01-18 04:40:17.56	353.90	14.53	-26.0	-27.3	16.3	0.00e+00	0	42	0	671088640	12	4183
2026-01-18 04:40:18.57	353.73	14.59	-26.2	-27.7	16.1	0.00e+00	0	42	0	677380096	12	4296
2026-01-18 04:40:19.57	353.55	14.65	-26.0	-27.4	16.3	0.00e+00	0	42	0	682622976	12	4202
2026-01-18 04:40:20.56	353.38	14.71	-26.0	-27.2	16.4	0.00e+00	0	42	0	687865856	12	4157
2026-01-18 04:40:21.57	353.21	14.77	-26.0	-27.3	16.4	0.00e+00	0	42	0	694157312	12	4180
2026-01-18 04:40:22.57	353.03	14.83	-25.9	-27.2	16.4	0.00e+00	0	42	0	699400192	12	4149
2026-01-18 04:40:23.57	352.86	14.89	-25.9	-27.0	16.5	0.00e+00	0	42	0	704643072	12	4107
2026-01-18 04:40:24.57	352.68	14.95	-26.0	-27.4	16.3	2.41e-04	0	42	0	710934528	12	4210
2026-01-18 04:40:25.58	352.50	15.01	-26.2	-27.7	16.2	0.00e+00	0	42	0	716177408	12	4294
2026-01-18 04:40:26.58	352.33	15.07	-26.3	-28.0	16.0	0.00e+00	0	42	0	722468864	12	4360
2026-01-18 04:40:27.59	352.15	15.13	-26.3	-27.9	16.1	0.00e+00	0	43	0	727711744	12	4332
2026-01-18 04:40:28.59	351.97	15.19	-26.2	-27.8	16.1	0.00e+00	0	42	0	732954624	12	4307
2026-01-18 04:40:29.59	351.79	15.24	-26.2	-27.8	16.1	0.00e+00	0	42	0	739246080	12	4313
2026-01-18 04:40:30.60	351.61	15.30	-26.1	-27.6	16.2	0.00e+00	0	43	0	744488960	12	4252
2026-01-18 04:40:31.61	351.43	15.36	-25.8	-26.9	16.6	2.33e-04	0	42	0	749731840	12	4084
2026-01-18 04:40:32.60	351.25	15.42	-25.8	-26.8	16.7	0.00e+00	0	42	0	756023296	12	4061
2026-01-18 04:40:33.61	351.06	15.48	-26.0	-27.4	16.4	2.44e-04	0	42	0	761266176	12	4207
2026-01-18 04:40:34.61	350.88	15.53	-25.9	-27.2	16.5	0.00e+00	0	42	0	766509056	12	4147
2026-01-18 04:40:35.61	350.70	15.59	-25.7	-26.7	16.7	0.00e+00	0	42	0	772800512	12	4027
2026-01-18 04:40:36.62	350.51	15.65	-25.7	-27.2	16.8	2.10e-04	0	42	0	778043392	11	4250
2026-01-18 04:40:37.62	350.33	15.71	-25.6	-27.0	16.9	0.00e+00	0	42	0	784334848	11	4199
2026-01-18 04:40:38.62	350.14	15.76	-25.7	-27.0	16.9	0.00e+00	0	42	0	789577728	11	4221
2026-01-18 04:40:39.62	349.96	15.82	-26.0	-27.7	16.5	0.00e+00	0	42	0	795869184	11	4402
2026-01-18 04:40:40.62	349.77	15.88	-25.8	-26.8	16.7	1.75e-04	0	42	0	801112064	12	4054
2026-01-18 04:40:41.63	349.58	15.93	-25.6	-26.4	16.9	0.00e+00	0	42	0	806354944	12	3961
2026-01-18 04:40:42.63	349.39	15.99	-25.6	-26.4	16.9	1.76e-04	0	42	0	812646400	12	3956
2026-01-18 04:40:43.64	349.20	16.05	-25.7	-27.0	16.9	1.62e-04	0	42	0	817889280	11	4219
2026-01-18 04:40:44.64	349.01	16.10	-25.6	-26.9	17.0	0.00e+00	0	42	0	823132160	11	4178
2026-01-18 04:40:45.65	348.82	16.16	-25.6	-27.0	16.9	1.81e-04	0	43	0	829423616	11	4220
2026-01-18 04:40:46.66	348.62	16.21	-25.7	-27.1	16.9	0.00e+00	0	43	0	834666496	11	4243
2026-01-18 04:40:47.66	348.43	16.27	-25.7	-27.2	16.8	0.00e+00	0	42	0	839909376	11	4256
2026-01-18 04:40:48.66	348.24	16.32	-25.9	-27.5	16.7	4.00e-05	0	42	0	846200832	11	4342
2026-01-18 04:40:49.66	348.05	16.38	-25.7	-27.2	16.9	1.60e-04	0	42	0	851443712	11	4253
2026-01-18 04:40:50.67	347.85	16.43	-25.6	-26.9	17.0	0.00e+00	0	43	0	857735168	11	4176
2026-01-18 04:40:51.67	347.65	16.49	-25.7	-27.2	16.9	4.92e-05	0	42	0	862978048	11	4253
2026-01-18 04:40:52.67	347.46	16.54	-25.6	-27.0	17.0	4.23e-05	0	42	0	869269504	11	4198
2026-01-18 04:40:53.67	347.26	16.60	-25.5	-26.7	17.1	0.00e+00	0	42	0	874512384	11	4127
2026-01-18 04:40:54.67	347.06	16.65	-25.5	-26.8	17.1	0.00e+00	0	42	0	879755264	11	4141
2026-01-18 04:40:55.67	346.87	16.70	-25.6	-26.9	17.0	5.70e-06	0	42	0	886046720	11	4172
2026-01-18 04:40:56.68	346.67	16.76	-25.8	-27.3	16.8	0.00e+00	0	43	0	891289600	11	4296
2026-01-18 04:40:57.69	346.47	16.81	-25.6	-26.9	17.0	8.81e-05	0	43	0	896532480	11	4173
2026-01-18 04:40:58.68	346.27	16.86	-25.6	-26.9	17.0	9.84e-05	0	42	0	902823936	11	4189
2026-01-18 04:40:59.68	346.07	16.91	-25.6	-26.9	17.0	0.00e+00	0	43	0	908066816	11	4171
2026-01-18 04:41:00.68	345.87	16.97	-25.5	-26.7	17.1	0.00e+00	0	42	0	914358272	11	4140
2026-01-18 04:41:01.68	345.66	17.02	-25.5	-26.6	17.2	3.54e-05	0	42	0	919601152	11	4111
2026-01-18 04:41:02.68	345.46	17.07	-25.4	-26.4	17.3	0.00e+00	0	43	0	924844032	11	4048
2026-01-18 04:41:03.68	345.26	17.12	-25.5	-26.7	17.2	1.37e-05	0	42	0	931135488	11	4118
2026-01-18 04:41:04.68	345.05	17.17	-25.6	-26.9	17.0	6.80e-06	0	42	0	936378368	11	4170
2026-01-18 04:41:05.68	344.85	17.22	-25.4	-26.4	17.3	0.00e+00	0	42	0	941621248	11	4047
2026-01-18 04:41:06.68	344.64	17.28	-25.5	-26.6	17.2	1.10e-06	0	42	0	947912704	11	4112
2026-01-18 04:41:07.69	344.43	17.33	-25.5	-26.7	17.1	1.10e-06	0	43	0	953155584	11	4132
2026-01-18 04:41:08.69	344.23	17.38	-25.4	-26.5	17.2	0.00e+00	0	42	0	958398464	11	4082
2026-01-18 04:41:09.70	344.02	17.43	-25.5	-26.7	17.1	8.00e-06	0	43	0	964689920	11	4119
2026-01-18 04:41:10.70	343.81	17.48	-25.3	-26.3	17.3	3.54e-05	0	43	0	969932800	11	4041
2026-01-18 04:41:11.70	343.60	17.53	-25.4	-26.4	17.3	0.00e+00	0	43	0	976224256	11	4048
2026-01-18 04:41:12.70	343.39	17.57	-25.3	-26.4	17.3	3.77e-05	0	43	0	981467136	11	4044
2026-01-18 04:41:13.71	343.18	17.62	-25.3	-26.2	17.4	2.05e-05	0	43	0	986710016	11	4010
2026-01-18 04:41:14.71	342.97	17.67	-25.2	-26.1	17.5	0.00e+00	0	43	0	993001472	11	3981
2026-01-18 04:41:15.71	342.75	17.72	-25.2	-26.1	17.5	0.00e+00	0	42	0	998244352	11	3989
2026-01-18 04:41:16.71	342.54	17.77	-25.3	-26.2	17.4	0.00e+00	0	43	0	1003487232	11	4017
2026-01-18 04:41:17.71	342.33	17.81	-25.1	-25.8	17.6	0.00e+00	0	43	0	1009778688	11	3900
2026-01-18 04:41:18.71	342.11	17.86	-25.0	-25.7	17.6	0.00e+00	0	43	0	1015021568	11	3885
2026-01-18 04:41:19.72	341.90	17.91	-25.2	-26.1	17.4	0.00e+00	0	43	0	1021313024	11	3981
2026-01-18 04:41:20.72	341.68	17.96	-25.2	-26.1	17.5	0.00e+00	0	43	0	1026555904	11	3971
2026-01-18 04:41:21.72	341.47	18.00	-25.2	-26.0	17.5	0.00e+00	0	43	0	1031798784	11	3964
2026-01-18 04:41:22.72	341.25	18.05	-25.4	-26.4	17.3	0.00e+00	0	43	0	1038090240	11	4053
2026-01-18 04:41:23.72	341.03	18.09	-25.4	-26.4	17.3	0.00e+00	0	43	0	1043333120	11	4068
2026-01-18 04:41:24.72	340.81	18.14	-25.3	-26.3	17.3	3.89e-05	0	43	0	1049624576	11	4021
2026-01-18 04:41:25.72	340.60	18.18	-25.2	-26.2	17.4	4.46e-05	0	42	0	1054867456	11	3994
2026-01-18 04:41:26.73	340.37	18.23	-25.3	-26.2	17.4	0.00e+00	0	43	0	1060110336	11	4006
2026-01-18 04:41:27.74	340.15	18.27	-25.2	-26.0	17.5	3.43e-05	0	43	0	1066401792	11	3943
2026-01-18 04:41:28.74	339.93	18.32	-25.1	-25.9	17.6	0.00e+00	0	42	0	1071644672	11	3926
2026-01-18 04:41:29.74	339.71	18.36	-25.3	-26.3	17.3	0.00e+00	0	42	0	1076887552	11	4023
2026-01-18 04:41:30.74	339.49	18.40	-25.2	-26.2	17.4	0.00e+00	0	43	0	1083179008	11	3995
2026-01-18 04:41:31.74	339.27	18.44	-24.9	-25.4	17.8	0.00e+00	0	43	0	1088421888	11	3816
2026-01-18 04:41:32.75	339.04	18.49	-24.9	-25.3	17.8	0.00e+00	0	42	0	1093664768	11	3797
2026-01-18 04:41:33.75	338.82	18.53	-24.9	-25.8	17.9	0.00e+00	0	43	0	1099956224	10	4010
2026-01-18 04:41:34.76	338.59	18.57	-24.9	-25.9	17.8	0.00e+00	0	42	0	1105199104	10	4028
2026-01-18 04:41:35.77	338.36	18.61	-24.9	-25.8	17.8	0.00e+00	0	43	0	1111490560	10	4018
2026-01-18 04:41:36.78	338.14	18.65	-24.9	-26.0	17.7	1.83e-04	0	42	0	1116733440	10	4055
2026-01-18 04:41:37.78	337.91	18.69	-25.0	-26.1	17.7	0.00e+00	0	42	0	1123024896	10	4081
2026-01-18 04:41:38.79	337.68	18.73	-24.8	-25.8	17.8	0.00e+00	0	43	0	1128267776	10	4008
2026-01-18 04:41:39.79	337.45	18.77	-25.3	-26.8	17.4	0.00e+00	0	43	0	1133510656	10	4265
2026-01-18 04:41:40.79	337.22	18.81	-25.2	-26.5	17.5	0.00e+00	0	42	0	1139802112	10	4193
2026-01-18 04:41:41.79	337.00	18.85	-25.0	-26.2	17.6	0.00e+00	0	42	0	1145044992	10	4111
2026-01-18 04:41:42.79	336.77	18.89	-24.9	-25.9	17.8	0.00e+00	0	43	0	1150287872	10	4046
2026-01-18 04:41:43.79	336.54	18.93	-25.0	-26.1	17.7	0.00e+00	0	43	0	1156579328	10	4080
2026-01-18 04:41:44.79	336.31	18.96	-25.1	-26.3	17.6	0.00e+00	0	43	0	1161822208	10	4134
2026-01-18 04:41:45.79	336.08	19.00	-25.1	-26.3	17.6	1.40e-04	0	43	0	1167065088	10	4128
2026-01-18 04:41:46.79	335.84	19.04	-25.0	-26.1	17.7	0.00e+00	0	43	0	1173356544	10	4076
2026-01-18 04:41:47.79	335.61	19.07	-25.2	-26.6	17.4	0.00e+00	0	43	0	1178599424	10	4229
2026-01-18 04:41:48.80	335.38	19.11	-25.1	-26.4	17.6	0.00e+00	0	43	0	1184890880	10	4159
2026-01-18 04:41:49.80	335.14	19.14	-25.3	-26.7	17.4	0.00e+00	0	43	0	1190133760	10	4247
2026-01-18 04:41:50.80	334.91	19.18	-25.2	-26.5	17.5	0.00e+00	0	42	0	1195376640	10	4184
2026-01-18 04:41:51.81	334.67	19.21	-25.3	-26.7	17.4	0.00e+00	0	43	0	1201668096	10	4257
2026-01-18 04:41:52.82	334.44	19.25	-25.0	-26.1	17.7	0.00e+00	0	43	0	1206910976	10	4090
2026-01-18 04:41:53.83	334.20	19.28	-24.7	-25.5	18.0	0.00e+00	0	42	0	1213202432	10	3936
2026-01-18 04:41:54.83	333.96	19.31	-24.4	-24.9	18.3	0.00e+00	0	42	0	1218445312	10	3805
2026-01-18 04:41:55.83	333.73	19.35	-24.4	-25.4	18.3	0.00e+00	0	43	0	1223688192	9	4016
2026-01-18 04:41:56.83	333.49	19.38	-24.4	-25.4	18.3	0.00e+00	0	43	0	1229979648	9	4031
2026-01-18 04:41:57.83	333.25	19.41	-24.3	-25.2	18.4	0.00e+00	0	43	0	1235222528	9	3985
2026-01-18 04:41:58.83	333.01	19.44	-24.4	-25.4	18.3	0.00e+00	0	43	0	1240465408	9	4025
2026-01-18 04:41:59.83	332.78	19.47	-24.4	-25.3	18.3	0.00e+00	0	43	0	1246756864	9	4001
2026-01-18 04:42:00.83	332.54	19.50	-24.4	-25.3	18.4	0.00e+00	0	43	0	1251999744	9	3991
2026-01-18 04:42:01.84	332.30	19.53	-24.3	-25.2	18.4	0.00e+00	0	43	0	1258291200	9	3982
2026-01-18 04:42:02.84	332.06	19.56	-24.4	-25.4	18.3	0.00e+00	0	43	0	1263534080	9	4017
2026-01-18 04:42:03.84	331.82	19.59	-24.3	-25.5	18.5	0.00e+00	0	43	0	1268776960	8	4172
2026-01-18 04:42:04.84	331.57	19.62	-24.3	-25.6	18.5	0.00e+00	0	43	0	1275068416	8	4180
2026-01-18 04:42:05.85	331.33	19.64	-24.3	-25.7	18.4	0.00e+00	0	42	0	1280311296	8	4204
2026-01-18 04:42:06.85	331.09	19.67	-24.3	-25.6	18.4	0.00e+00	0	43	0	1285554176	8	4196
2026-01-18 04:42:07.86	330.85	19.70	-24.1	-25.3	18.6	0.00e+00	0	43	0	1291845632	8	4103
2026-01-18 04:42:08.86	330.60	19.72	-24.3	-25.6	18.5	0.00e+00	0	43	0	1297088512	8	4191
2026-01-18 04:42:09.87	330.36	19.75	-24.2	-25.3	18.6	0.00e+00	0	42	0	1303379968	8	4114
2026-01-18 04:42:10.87	330.11	19.77	-24.3	-25.7	18.4	0.00e+00	0	43	0	1308622848	8	4221
2026-01-18 04:42:11.87	329.87	19.80	-24.1	-25.1	18.7	0.00e+00	0	42	0	1313865728	8	4071
2026-01-18 04:42:12.87	329.63	19.82	-24.2	-25.4	18.6	0.00e+00	0	42	0	1320157184	8	4125
2026-01-18 04:42:13.87	329.38	19.85	-24.2	-25.5	18.5	0.00e+00	0	43	0	1325400064	8	4154
2026-01-18 04:42:14.88	329.13	19.87	-24.4	-25.9	18.3	0.00e+00	0	43	0	1331691520	8	4255
2026-01-18 04:42:15.88	328.89	19.89	-24.1	-25.2	18.7	0.00e+00	0	43	0	1336934400	8	4092
2026-01-18 04:42:16.88	328.64	19.91	-24.0	-25.1	18.8	0.00e+00	0	43	0	1342177280	8	4054
2026-01-18 04:42:17.88	328.40	19.93	-24.3	-25.5	18.5	0.00e+00	0	43	0	1348468736	8	4173
2026-01-18 04:42:18.88	328.15	19.96	-24.1	-25.2	18.7	0.00e+00	0	43	0	1353711616	8	4094
2026-01-18 04:42:19.88	327.91	19.98	-24.1	-25.2	18.7	0.00e+00	0	43	0	1358954496	8	4080
2026-01-18 04:42:20.88	327.66	20.00	-24.3	-25.7	18.4	0.00e+00	0	43	0	1365245952	8	4208
2026-01-18 04:42:21.88	327.41	20.01	-24.3	-25.6	18.5	0.00e+00	0	43	0	1370488832	8	4197
2026-01-18 04:42:22.89	327.16	20.03	-24.3	-25.7	18.4	0.00e+00	0	42	0	1375731712	8	4210
2026-01-18 04:42:23.89	326.91	20.05	-24.3	-25.7	18.5	0.00e+00	0	43	0	1382023168	8	4204
2026-01-18 04:42:24.88	326.67	20.07	-24.3	-25.6	18.5	0.00e+00	0	43	0	1387266048	8	4197
2026-01-18 04:42:25.88	326.42	20.09	-24.4	-25.8	18.4	0.00e+00	0	43	0	1393557504	8	4238
2026-01-18 04:42:26.87	326.17	20.10	-24.2	-25.5	18.6	0.00e+00	0	43	0	1398800384	8	4150
2026-01-18 04:42:27.87	325.92	20.12	-24.0	-24.9	18.8	0.00e+00	0	43	0	1404043264	8	4015
2026-01-18 04:42:28.87	325.67	20.13	-24.3	-25.5	18.5	0.00e+00	0	43	0	1410334720	8	4166
2026-01-18 04:42:29.88	325.42	20.15	-24.2	-25.4	18.6	0.00e+00	0	43	0	1415577600	8	4126
2026-01-18 04:42:30.88	325.17	20.16	-24.1	-25.3	18.6	0.00e+00	0	43	0	1420820480	8	4118
2026-01-18 04:42:31.88	324.92	20.18	-24.2	-25.5	18.5	0.00e+00	0	43	0	1427111936	8	4166
2026-01-18 04:42:32.88	324.67	20.19	-24.3	-25.6	18.5	0.00e+00	0	43	0	1432354816	8	4180
2026-01-18 04:42:33.88	324.42	20.20	-24.3	-25.7	18.4	0.00e+00	0	43	0	1437597696	8	4218
2026-01-18 04:42:34.88	324.17	20.21	-24.2	-25.5	18.5	0.00e+00	0	43	0	1443889152	8	4167
2026-01-18 04:42:35.89	323.92	20.22	-24.1	-25.3	18.6	0.00e+00	0	43	0	1449132032	8	4117
2026-01-18 04:42:36.89	323.67	20.24	-24.1	-25.2	18.7	0.00e+00	0	42	0	1455423488	8	4095
2026-01-18 04:42:37.90	323.41	20.25	-24.1	-25.1	18.7	0.00e+00	0	43	0	1460666368	8	4071
2026-01-18 04:42:38.90	323.16	20.25	-24.1	-25.2	18.7	0.00e+00	0	43	0	1465909248	8	4076
2026-01-18 04:42:39.90	322.91	20.26	-24.2	-25.5	18.5	0.00e+00	0	43	0	1472200704	8	4161
2026-01-18 04:42:40.90	322.66	20.27	-24.1	-25.2	18.7	0.00e+00	0	43	0	1477443584	8	4093
2026-01-18 04:42:41.91	322.41	20.28	-24.1	-25.2	18.7	0.00e+00	0	43	0	1482686464	8	4078
2026-01-18 04:42:42.92	322.15	20.29	-24.1	-25.2	18.7	0.00e+00	0	43	0	1488977920	8	4080
2026-01-18 04:42:43.92	321.90	20.29	-24.3	-25.6	18.5	0.00e+00	0	43	0	1494220800	8	4187
2026-01-18 04:42:44.92	321.65	20.30	-24.3	-25.6	18.5	0.00e+00	0	43	0	1500512256	8	4185
2026-01-18 04:42:45.92	321.39	20.31	-24.2	-25.4	18.6	0.00e+00	0	43	0	1505755136	8	4131
2026-01-18 04:42:46.92	321.14	20.31	-24.4	-25.8	18.4	0.00e+00	0	43	0	1510998016	8	4234
2026-01-18 04:42:47.92	320.89	20.32	-24.3	-25.6	18.5	0.00e+00	0	43	0	1517289472	8	4184
2026-01-18 04:42:48.93	320.63	20.32	-24.4	-25.9	18.3	0.00e+00	0	43	0	1522532352	8	4276
2026-01-18 04:42:49.93	320.38	20.32	-24.4	-25.9	18.3	0.00e+00	0	43	0	1528823808	8	4267
2026-01-18 04:42:50.93	320.13	20.32	-24.5	-25.6	18.2	0.00e+00	0	43	0	1534066688	9	4074
2026-01-18 04:42:51.94	319.87	20.33	-24.5	-25.6	18.2	0.00e+00	0	43	0	1539309568	9	4065
2026-01-18 04:42:52.94	319.62	20.33	-24.7	-25.9	18.1	0.00e+00	0	43	0	1545601024	9	4149
2026-01-18 04:42:53.94	319.37	20.33	-24.4	-25.4	18.4	0.00e+00	0	42	0	1550843904	9	4022
2026-01-18 04:42:54.94	319.12	20.33	-24.3	-25.2	18.4	0.00e+00	0	43	0	1556086784	9	3968
2026-01-18 04:42:55.95	318.86	20.33	-24.4	-25.3	18.4	0.00e+00	0	43	0	1562378240	9	3991
2026-01-18 04:42:56.96	318.61	20.33	-24.2	-24.9	18.6	0.00e+00	0	43	0	1567621120	9	3897
2026-01-18 04:42:57.96	318.35	20.33	-24.1	-24.8	18.6	0.00e+00	0	43	0	1573912576	9	3880
2026-01-18 04:42:58.97	318.10	20.32	-24.3	-25.7	18.4	0.00e+00	0	43	0	1579155456	8	4213
2026-01-18 04:42:59.98	317.84	20.32	-24.2	-25.4	18.6	0.00e+00	0	43	0	1584398336	8	4141
2026-01-18 04:43:00.98	317.59	20.32	-23.9	-24.9	18.8	0.00e+00	0	43	0	1590689792	8	4011
2026-01-18 04:43:01.98	317.34	20.31	-24.0	-24.9	18.8	0.00e+00	0	43	0	1595932672	8	4017
2026-01-18 04:43:02.99	317.08	20.31	-24.0	-25.1	18.7	0.00e+00	0	43	0	1602224128	8	4066
2026-01-18 04:43:03.99	316.83	20.30	-24.3	-25.6	18.5	0.00e+00	0	43	0	1607467008	8	4190
2026-01-18 04:43:05.00	316.58	20.30	-24.1	-25.2	18.7	0.00e+00	0	43	0	1612709888	8	4086
2026-01-18 04:43:06.00	316.32	20.29	-24.1	-25.2	18.6	0.00e+00	0	43	0	1619001344	8	4099
2026-01-18 04:43:07.00	316.07	20.29	-24.2	-25.5	18.5	0.00e+00	0	43	0	1624244224	8	4154
2026-01-18 04:43:08.01	315.82	20.28	-24.3	-25.6	18.5	0.00e+00	0	43	0	1629487104	8	4180
2026-01-18 04:43:09.02	315.56	20.27	-24.5	-25.6	18.2	0.00e+00	0	43	0	1635778560	9	4076
2026-01-18 04:43:10.01	315.31	20.26	-24.2	-24.9	18.6	0.00e+00	0	43	0	1641021440	9	3901
2026-01-18 04:43:11.02	315.06	20.25	-24.1	-25.2	18.6	0.00e+00	0	43	0	1647312896	8	4095
2026-01-18 04:43:12.02	314.81	20.24	-24.1	-25.2	18.7	0.00e+00	0	43	0	1652555776	8	4084
2026-01-18 04:43:13.03	314.55	20.23	-24.3	-25.7	18.4	0.00e+00	0	43	0	1657798656	8	4209
2026-01-18 04:43:14.03	314.30	20.22	-24.2	-25.4	18.6	0.00e+00	0	43	0	1664090112	8	4131
2026-01-18 04:43:15.04	314.05	20.21	-24.5	-26.1	18.2	0.00e+00	0	43	0	1669332992	8	4311
2026-01-18 04:43:16.04	313.80	20.20	-24.5	-25.6	18.2	0.00e+00	0	43	0	1675624448	9	4069
2026-01-18 04:43:17.05	313.55	20.19	-24.4	-25.3	18.4	0.00e+00	0	43	0	1680867328	9	3994
2026-01-18 04:43:18.05	313.30	20.17	-23.6	-24.9	15.0	0.00e+00	0	43	0	1686110208	8	4206
2026-01-18 04:43:19.06	313.04	20.16	-24.2	-25.5	14.9	0.00e+00	0	43	0	1692401664	8	4168
2026-01-18 04:43:20.07	312.79	20.14	-24.1	-25.2	18.6	0.00e+00	0	43	0	1697644544	8	4090
2026-01-18 04:43:21.07	312.54	20.13	-24.2	-25.5	18.5	7.75e-04	0	43	0	1703936000	8	4151
2026-01-18 04:43:22.07	312.29	20.11	-24.1	-25.1	18.7	0.00e+00	0	42	0	1709178880	8	4070
2026-01-18 04:43:23.08	312.04	20.10	-24.1	-25.1	18.7	0.00e+00	0	43	0	1714421760	8	4061
2026-01-18 04:43:24.08	311.79	20.08	-24.1	-25.2	18.7	0.00e+00	0	43	0	1720713216	8	4077
2026-01-18 04:43:25.08	311.54	20.06	-24.3	-25.7	18.4	0.00e+00	0	43	0	1725956096	8	4211
2026-01-18 04:43:26.08	311.29	20.05	-24.2	-25.4	18.5	0.00e+00	0	43	0	1731198976	8	4142
2026-01-18 04:43:27.08	311.05	20.03	-24.2	-25.5	18.5	0.00e+00	0	43	0	1737490432	8	4155
2026-01-18 04:43:28.09	310.80	20.01	-24.3	-25.6	18.4	3.68e-04	0	43	0	1742733312	8	4196
2026-01-18 04:43:29.09	310.55	19.99	-24.4	-25.9	18.3	0.00e+00	0	43	0	1749024768	8	4267
2026-01-18 04:43:30.09	310.30	19.97	-24.1	-25.3	18.6	0.00e+00	0	43	0	1754267648	8	4103
2026-01-18 04:43:31.09	310.05	19.95	-24.1	-25.1	18.7	2.68e-04	0	43	0	1759510528	8	4065
2026-01-18 04:43:32.10	309.81	19.93	-24.1	-25.2	18.6	0.00e+00	0	43	0	1765801984	8	4085
2026-01-18 04:43:33.10	309.56	19.91	-24.3	-25.6	18.5	2.88e-04	0	43	0	1771044864	8	4181
2026-01-18 04:43:34.11	309.31	19.88	-24.1	-25.2	18.6	0.00e+00	0	43	0	1776287744	8	4098
2026-01-18 04:43:35.11	309.07	19.86	-24.1	-25.1	18.7	0.00e+00	0	43	0	1782579200	8	4071
2026-01-18 04:43:36.12	308.82	19.84	-24.1	-25.2	18.6	0.00e+00	0	43	0	1787822080	8	4089
2026-01-18 04:43:37.12	308.57	19.81	-24.1	-25.2	18.6	3.43e-05	0	43	0	1794113536	8	4098
2026-01-18 04:43:38.12	308.33	19.79	-24.3	-25.6	18.4	0.00e+00	0	43	0	1799356416	8	4196
2026-01-18 04:43:39.12	308.09	19.77	-24.4	-25.9	18.3	0.00e+00	0	43	0	1804599296	8	4277
2026-01-18 04:43:40.12	307.84	19.74	-24.3	-25.6	18.4	2.85e-04	0	43	0	1810890752	8	4192
2026-01-18 04:43:41.12	307.60	19.71	-24.4	-25.8	18.3	0.00e+00	0	43	0	1816133632	8	4246
2026-01-18 04:43:42.13	307.35	19.69	-24.6	-25.8	18.1	2.91e-04	0	43	0	1822425088	9	4132
2026-01-18 04:43:43.13	307.11	19.66	-24.9	-26.3	17.8	3.78e-04	0	43	0	1827667968	9	4262
2026-01-18 04:43:44.14	306.87	19.63	-24.7	-25.9	18.0	0.00e+00	0	43	0	1832910848	9	4156
2026-01-18 04:43:45.14	306.63	19.61	-24.4	-25.5	18.2	7.32e-04	0	43	0	1839202304	9	4046
2026-01-18 04:43:46.14	306.39	19.58	-24.3	-25.7	18.4	7.16e-04	0	43	0	1844445184	8	4219
2026-01-18 04:43:47.15	306.14	19.55	-24.2	-25.5	18.5	0.00e+00	0	43	0	1849688064	8	4154
2026-01-18 04:43:48.15	305.90	19.52	-24.4	-25.9	18.3	0.00e+00	0	43	0	1855979520	8	4265
2026-01-18 04:43:49.16	305.66	19.49	-24.7	-26.0	18.0	6.77e-04	0	43	0	1861222400	9	4173
2026-01-18 04:43:50.17	305.42	19.46	-24.9	-26.5	17.7	0.00e+00	0	43	0	1867513856	9	4299
2026-01-18 04:43:51.17	305.18	19.43	-24.7	-26.0	17.9	3.20e-04	0	43	0	1872756736	9	4186
2026-01-18 04:43:52.17	304.94	19.40	-24.5	-25.5	18.2	2.80e-04	0	43	0	1879048192	9	4048
2026-01-18 04:43:53.17	304.70	19.37	-24.2	-24.9	18.5	0.00e+00	0	43	0	1884291072	9	3905
2026-01-18 04:43:54.17	304.47	19.33	-24.2	-25.0	18.5	1.17e-04	0	43	0	1889533952	9	3919
2026-01-18 04:43:55.17	304.23	19.30	-24.0	-24.5	18.7	2.17e-05	0	43	0	1895825408	9	3825
2026-01-18 04:43:56.17	303.99	19.27	-24.2	-25.0	18.5	0.00e+00	0	43	0	1901068288	9	3922
2026-01-18 04:43:57.17	303.76	19.23	-24.5	-25.5	18.2	0.00e+00	0	43	0	1906311168	9	4055
2026-01-18 04:43:58.17	303.52	19.20	-24.2	-25.0	18.5	0.00e+00	0	43	0	1912602624	9	3927
2026-01-18 04:43:59.18	303.29	19.17	-24.2	-24.8	18.6	0.00e+00	0	43	0	1917845504	9	3889
2026-01-18 04:44:00.17	303.06	19.13	-24.2	-25.0	18.5	0.00e+00	0	43	0	1923088384	9	3922
2026-01-18 04:44:01.16	302.82	19.10	-24.1	-24.8	18.5	1.10e-06	0	43	0	1929379840	9	3884
2026-01-18 04:44:02.16	302.59	19.06	-24.1	-24.7	18.6	0.00e+00	0	42	0	1934622720	9	3848
2026-01-18 04:44:03.16	302.36	19.02	-24.3	-25.2	18.4	0.00e+00	0	43	0	1940914176	9	3971
2026-01-18 04:44:04.17	302.12	18.99	-24.4	-25.4	18.2	0.00e+00	0	43	0	1946157056	9	4040
2026-01-18 04:44:05.17	301.89	18.95	-24.6	-25.8	18.0	0.00e+00	0	43	0	1951399936	9	4137
2026-01-18 04:44:06.18	301.66	18.91	-24.7	-26.0	18.0	0.00e+00	0	43	0	1957691392	9	4172
2026-01-18 04:44:07.18	301.43	18.87	-24.5	-25.5	18.2	0.00e+00	0	43	0	1962934272	9	4051
2026-01-18 04:44:08.18	301.20	18.84	-24.4	-25.3	18.3	0.00e+00	0	43	0	1968177152	9	4006
2026-01-18 04:44:09.18	300.97	18.80	-24.5	-25.5	18.2	0.00e+00	0	43	0	1974468608	9	4049
2026-01-18 04:44:10.19	300.74	18.76	-24.3	-25.2	18.4	0.00e+00	0	43	0	1979711488	9	3980
2026-01-18 04:44:11.19	300.51	18.72	-24.5	-25.6	18.1	0.00e+00	0	43	0	1984954368	9	4072
2026-01-18 04:44:12.18	300.29	18.68	-24.5	-25.7	18.1	0.00e+00	0	43	0	1991245824	9	4097
2026-01-18 04:44:13.18	300.06	18.64	-24.3	-25.1	18.4	0.00e+00	0	43	0	1996488704	9	3949
2026-01-18 04:44:14.18	299.84	18.60	-24.2	-24.9	18.5	0.00e+00	0	43	0	2002780160	9	3908
2026-01-18 04:44:15.19	299.61	18.56	-24.1	-24.8	18.6	0.00e+00	0	43	0	2008023040	9	3883
2026-01-18 04:44:16.19	299.38	18.51	-24.2	-25.0	18.5	0.00e+00	0	43	0	2013265920	9	3937
2026-01-18 04:44:17.19	299.16	18.47	-24.4	-25.3	18.3	0.00e+00	0	43	0	2019557376	9	4010
2026-01-18 04:44:18.19	298.94	18.43	-24.4	-25.3	18.3	0.00e+00	0	43	0	2024800256	9	4007
2026-01-18 04:44:19.19	298.71	18.39	-24.3	-25.2	18.3	0.00e+00	0	43	0	2030043136	9	3970
2026-01-18 04:44:20.20	298.49	18.34	-24.4	-25.3	18.3	0.00e+00	0	43	0	2036334592	9	4001
2026-01-18 04:44:21.20	298.27	18.30	-24.4	-25.4	18.2	0.00e+00	0	43	0	2041577472	9	4028
2026-01-18 04:44:22.21	298.04	18.26	-24.6	-25.7	18.1	2.22e-04	0	43	0	2046820352	9	4109
2026-01-18 04:44:23.21	297.82	18.21	-24.7	-26.0	17.9	0.00e+00	0	43	0	2053111808	9	4191
2026-01-18 04:44:24.22	297.60	18.17	-24.6	-25.9	17.9	1.38e-04	0	43	0	2058354688	9	4155
2026-01-18 04:44:25.21	297.38	18.12	-24.7	-25.9	17.9	0.00e+00	0	43	0	2064646144	9	4163
2026-01-18 04:44:26.22	297.16	18.08	-24.6	-25.7	18.0	0.00e+00	0	43	0	2069889024	9	4115
2026-01-18 04:44:27.22	296.95	18.03	-24.6	-25.9	18.0	0.00e+00	0	43	0	2076180480	9	4145
2026-01-18 04:44:28.22	296.73	17.98	-24.7	-26.0	17.9	0.00e+00	0	43	0	2081423360	9	4177
2026-01-18 04:44:29.22	296.51	17.94	-24.8	-26.2	17.8	0.00e+00	0	43	0	2086666240	9	4222
2026-01-18 04:44:30.23	296.29	17.89	-25.0	-26.6	17.6	0.00e+00	0	43	0	2092957696	9	4336
2026-01-18 04:44:31.23	296.08	17.84	-25.3	-26.7	17.3	1.93e-04	0	43	0	2098200576	10	4242
2026-01-18 04:44:32.24	295.86	17.80	-25.4	-26.6	17.1	0.00e+00	0	43	0	2103443456	11	4097
2026-01-18 04:44:33.24	295.65	17.75	-25.2	-26.2	17.3	0.00e+00	0	43	0	2109734912	11	4002
2026-01-18 04:44:34.24	295.44	17.70	-25.0	-25.6	17.6	0.00e+00	0	43	0	2114977792	11	3863
2026-01-18 04:44:35.24	295.22	17.65	-24.8	-25.3	17.7	0.00e+00	0	43	0	2120220672	11	3783
2026-01-18 04:44:36.24	295.01	17.60	-24.9	-25.9	17.7	0.00e+00	0	43	0	2126512128	10	4033
2026-01-18 04:44:37.25	294.80	17.56	-25.0	-26.0	17.6	0.00e+00	0	43	0	2131755008	10	4080
2026-01-18 04:44:38.25	294.59	17.51	-25.2	-26.5	17.3	0.00e+00	0	43	0	2138046464	10	4190
2026-01-18 04:44:39.25	294.38	17.46	-24.9	-25.9	17.7	0.00e+00	0	43	0	2143289344	10	4043
2026-01-18 04:44:40.25	294.17	17.41	-24.8	-25.7	17.8	0.00e+00	0	43	0	2148532224	10	4004
2026-01-18 04:44:41.26	293.96	17.36	-24.7	-25.5	17.8	0.00e+00	0	43	0	2154823680	10	3949
2026-01-18 04:44:42.26	293.75	17.31	-24.7	-26.0	17.8	0.00e+00	0	43	0	2160066560	9	4168
2026-01-18 04:44:43.27	293.54	17.26	-24.9	-26.4	17.6	0.00e+00	0	43	0	2166358016	9	4276
2026-01-18 04:44:44.27	293.34	17.20	-25.0	-26.2	17.5	0.00e+00	0	43	0	2171600896	10	4114
2026-01-18 04:44:45.28	293.13	17.15	-25.0	-26.2	17.5	0.00e+00	0	43	0	2176843776	10	4114
2026-01-18 04:44:46.28	292.93	17.10	-25.1	-26.4	17.3	0.00e+00	0	43	0	2183135232	10	4178
2026-01-18 04:44:47.28	292.72	17.05	-25.3	-26.9	17.1	0.00e+00	0	43	0	2188378112	10	4295
2026-01-18 04:44:48.28	292.52	17.00	-25.3	-26.8	17.1	0.00e+00	0	43	0	2193620992	10	4290
2026-01-18 04:44:49.28	292.32	16.95	-25.5	-27.1	17.0	0.00e+00	0	43	0	2199912448	10	4369
2026-01-18 04:44:50.28	292.11	16.89	-25.6	-26.9	16.8	0.00e+00	0	43	0	2205155328	11	4198
2026-01-18 04:44:51.28	291.91	16.84	-25.4	-26.5	17.0	0.00e+00	0	43	0	2211446784	11	4088
2026-01-18 04:44:52.29	291.71	16.79	-25.3	-26.4	17.1	0.00e+00	0	43	0	2216689664	11	4059
2026-01-18 04:44:53.29	291.51	16.73	-25.3	-26.3	17.1	0.00e+00	0	43	0	2221932544	11	4038
2026-01-18 04:44:54.29	291.31	16.68	-25.3	-26.3	17.1	0.00e+00	0	43	0	2228224000	11	4024
2026-01-18 04:44:55.29	291.11	16.63	-25.3	-26.3	17.1	0.00e+00	0	43	0	2233466880	11	4034
2026-01-18 04:44:56.30	290.91	16.57	-25.6	-26.9	16.8	0.00e+00	0	43	0	2238709760	11	4176
2026-01-18 04:44:57.30	290.72	16.52	-25.5	-26.7	16.9	0.00e+00	0	43	0	2245001216	11	4129
2026-01-18 04:44:58.30	290.52	16.46	-25.6	-27.0	16.7	0.00e+00	0	43	0	2250244096	11	4223
2026-01-18 04:44:59.30	290.33	16.41	-25.7	-27.1	16.7	0.00e+00	0	43	0	2255486976	11	4230
2026-01-18 04:45:00.31	290.13	16.35	-25.5	-26.8	16.8	0.00e+00	0	43	0	2261778432	11	4161
2026-01-18 04:45:01.31	289.94	16.30	-25.7	-27.1	16.7	0.00e+00	0	43	0	2267021312	11	4237
2026-01-18 04:45:02.31	289.74	16.24	-25.6	-26.9	16.8	0.00e+00	0	43	0	2273312768	11	4188
2026-01-18 04:45:03.31	289.55	16.19	-25.6	-27.0	16.7	0.00e+00	0	43	0	2278555648	11	4215
2026-01-18 04:45:04.31	289.36	16.13	-25.4	-26.6	16.9	0.00e+00	0	43	0	2283798528	11	4112
2026-01-18 04:45:05.31	289.17	16.08	-25.3	-26.2	17.1	0.00e+00	0	43	0	2290089984	11	4023
2026-01-18 04:45:06.31	288.98	16.02	-25.1	-26.0	17.3	0.00e+00	0	43	0	2295332864	11	3962
2026-01-18 04:45:07.31	288.79	15.96	-25.3	-26.8	17.1	0.00e+00	0	43	0	2301624320	10	4267
2026-01-18 04:45:08.32	288.60	15.91	-25.3	-26.7	17.1	0.00e+00	0	43	0	2306867200	10	4263
2026-01-18 04:45:09.32	288.41	15.85	-25.2	-26.6	17.2	0.00e+00	0	43	0	2312110080	10	4220
2026-01-18 04:45:10.32	288.22	15.79	-25.4	-26.5	17.0	0.00e+00	0	43	0	2318401536	11	4082
2026-01-18 04:45:11.33	288.03	15.74	-25.2	-26.2	17.2	0.00e+00	0	43	0	2323644416	11	4001
2026-01-18 04:45:12.33	287.84	15.68	-25.3	-26.7	17.1	0.00e+00	0	43	0	2328887296	10	4259
2026-01-18 04:45:13.34	287.66	15.62	-25.2	-26.6	17.2	0.00e+00	0	43	0	2335178752	10	4228
2026-01-18 04:45:14.33	287.47	15.57	-25.3	-26.8	17.1	0.00e+00	0	43	0	2340421632	10	4268
2026-01-18 04:45:15.32	287.29	15.51	-25.3	-26.8	17.1	0.00e+00	0	43	0	2346713088	10	4271
2026-01-18 04:45:16.32	287.11	15.45	-25.2	-26.6	17.2	0.00e+00	0	43	0	2351955968	10	4217
2026-01-18 04:45:17.32	286.93	15.39	-25.2	-26.5	17.2	0.00e+00	0	43	0	2357198848	10	4201
2026-01-18 04:45:18.32	286.75	15.33	-25.2	-26.5	17.2	0.00e+00	0	43	0	2363490304	10	4199
2026-01-18 04:45:19.32	286.56	15.28	-25.2	-26.6	17.1	0.00e+00	0	43	0	2368733184	10	4231
2026-01-18 04:45:20.32	286.38	15.22	-25.3	-26.8	17.0	0.00e+00	0	43	0	2373976064	10	4292
2026-01-18 04:45:21.32	286.20	15.16	-25.6	-27.0	16.7	0.00e+00	0	43	0	2380267520	11	4222
2026-01-18 04:45:22.33	286.02	15.10	-25.3	-26.2	17.1	0.00e+00	0	43	0	2385510400	11	4009
2026-01-18 04:45:23.33	285.85	15.04	-25.5	-26.7	16.8	0.00e+00	0	43	0	2390753280	11	4132
2026-01-18 04:45:24.33	285.67	14.98	-25.5	-26.8	16.8	0.00e+00	0	43	0	2397044736	11	4162
2026-01-18 04:45:25.34	285.49	14.92	-25.7	-27.2	16.5	0.00e+00	0	43	0	2402287616	11	4278
2026-01-18 04:45:26.35	285.31	14.86	-25.5	-26.8	16.8	0.00e+00	0	43	0	2408579072	11	4154
2026-01-18 04:45:27.35	285.14	14.80	-25.4	-26.6	16.8	0.00e+00	0	43	0	2413821952	11	4118
2026-01-18 04:45:28.36	284.96	14.74	-25.7	-27.2	16.5	0.00e+00	0	43	0	2419064832	11	4275
2026-01-18 04:45:29.36	284.79	14.68	-25.9	-27.6	16.3	0.00e+00	0	43	0	2425356288	11	4385
2026-01-18 04:45:30.36	284.61	14.62	-25.8	-27.4	16.4	0.00e+00	0	43	0	2430599168	11	4324
2026-01-18 04:45:31.36	284.44	14.56	-25.5	-26.8	16.7	0.00e+00	0	43	0	2435842048	11	4172
2026-01-18 04:45:32.36	284.27	14.50	-25.4	-26.6	16.9	0.00e+00	0	43	0	2442133504	11	4116
2026-01-18 04:45:33.35	284.10	14.45	-25.5	-26.8	16.8	0.00e+00	0	43	0	2447376384	11	4160
2026-01-18 04:45:34.36	283.93	14.38	-25.5	-26.7	16.8	0.00e+00	0	43	0	2452619264	11	4138
2026-01-18 04:45:35.36	283.76	14.32	-25.8	-27.3	16.5	0.00e+00	0	43	0	2458910720	11	4293
2026-01-18 04:45:36.37	283.59	14.26	-25.8	-27.4	16.4	0.00e+00	0	43	0	2464153600	11	4317
2026-01-18 04:45:37.37	283.42	14.20	-26.1	-27.6	15.9	0.00e+00	0	43	0	2470445056	12	4267
2026-01-18 04:45:38.37	283.25	14.14	-25.8	-27.0	16.2	0.00e+00	0	43	0	2475687936	12	4106
2026-01-18 04:45:39.38	283.08	14.08	-25.5	-26.6	16.8	0.00e+00	0	43	0	2481979392	11	4129
2026-01-18 04:45:40.38	282.91	14.02	-25.4	-26.5	16.9	0.00e+00	0	43	0	2487222272	11	4078
2026-01-18 04:45:41.38	282.75	13.96	-25.6	-27.0	16.6	0.00e+00	0	43	0	2492465152	11	4220
2026-01-18 04:45:42.38	282.58	13.90	-25.5	-26.7	16.8	0.00e+00	0	43	0	2498756608	11	4139
2026-01-18 04:45:43.39	282.42	13.84	-25.7	-27.2	16.5	0.00e+00	0	43	0	2503999488	11	4274
2026-01-18 04:45:44.39	282.25	13.78	-25.7	-27.1	16.5	0.00e+00	0	43	0	2509242368	11	4253
2026-01-18 04:45:45.40	282.09	13.71	-25.8	-27.3	16.4	0.00e+00	0	43	0	2515533824	11	4301
2026-01-18 04:45:46.41	281.93	13.65	-26.0	-27.3	16.1	0.00e+00	0	43	0	2520776704	12	4195
2026-01-18 04:45:47.41	281.76	13.59	-25.8	-26.9	16.2	0.00e+00	0	43	0	2526019584	12	4101
2026-01-18 04:45:48.41	281.60	13.53	-25.9	-27.0	16.2	0.00e+00	0	43	0	2532311040	12	4119
2026-01-18 04:45:49.41	281.44	13.47	-25.8	-27.5	16.3	0.00e+00	0	43	0	2537553920	11	4352
2026-01-18 04:45:50.41	281.28	13.41	-25.8	-27.4	16.3	0.00e+00	0	43	0	2543845376	11	4335
2026-01-18 04:45:51.41	281.13	13.35	-25.9	-27.2	16.1	0.00e+00	0	43	0	2549088256	12	4167
2026-01-18 04:45:52.42	280.97	13.28	-26.1	-27.6	15.9	0.00e+00	0	43	0	2555379712	12	4286
2026-01-18 04:45:53.42	280.81	13.22	-26.0	-27.6	15.5	0.00e+00	0	43	0	2560622592	12	4341
2026-01-18 04:45:54.42	280.65	13.16	-26.2	-27.8	15.1	0.00e+00	0	43	0	2565865472	12	4317
2026-01-18 04:45:55.42	280.50	13.10	-26.1	-27.5	15.9	0.00e+00	0	43	0	2572156928	12	4247
2026-01-18 04:45:56.42	280.34	13.04	-26.1	-27.6	15.0	0.00e+00	0	43	0	2577399808	12	4282
2026-01-18 04:45:57.43	280.18	12.97	-26.0	-27.2	15.3	0.00e+00	0	43	0	2582642688	12	4175
2026-01-18 04:45:58.43	280.03	12.91	-26.1	-27.6	15.9	0.00e+00	0	43	0	2588934144	12	4263
2026-01-18 04:45:59.43	279.88	12.85	-26.0	-27.3	15.8	0.00e+00	0	43	0	2594177024	12	4202
2026-01-18 04:46:00.43	279.72	12.79	-26.1	-27.5	15.9	2.55e-04	0	43	0	2599419904	12	4244
2026-01-18 04:46:01.43	279.57	12.73	-26.2	-27.8	15.8	0.00e+00	0	43	0	2605711360	12	4320
2026-01-18 04:46:02.43	279.42	12.66	-26.3	-28.0	15.6	0.00e+00	0	43	0	2610954240	12	4376
2026-01-18 04:46:03.44	279.27	12.60	-26.2	-27.8	15.7	0.00e+00	0	43	0	2617245696	12	4339
2026-01-18 04:46:04.44	279.12	12.54	-26.2	-27.8	15.7	1.10e-06	0	43	0	2622488576	12	4321
2026-01-18 04:46:05.44	278.97	12.48	-26.3	-28.1	15.6	0.00e+00	0	43	0	2627731456	12	4409
2026-01-18 04:46:06.45	278.82	12.41	-26.4	-28.3	15.5	0.00e+00	0	43	0	2634022912	12	4454
2026-01-18 04:46:07.45	278.67	12.35	-26.5	-28.4	15.4	0.00e+00	0	43	0	2639265792	12	4505
2026-01-18 04:46:08.45	278.52	12.29	-26.5	-28.0	15.3	0.00e+00	0	43	0	2644508672	13	4267
2026-01-18 04:46:09.45	278.37	12.23	-26.5	-28.1	15.2	0.00e+00	0	43	0	2650800128	13	4298
2026-01-18 04:46:10.45	278.23	12.16	-26.5	-27.9	15.3	0.00e+00	0	43	0	2656043008	13	4250
2026-01-18 04:46:11.46	278.08	12.10	-26.3	-27.9	15.6	0.00e+00	0	43	0	2661285888	12	4368
2026-01-18 04:46:12.46	277.93	12.04	-26.6	-28.1	15.2	0.00e+00	0	43	0	2667577344	13	4306
2026-01-18 04:46:13.47	277.79	11.98	-26.7	-28.5	15.0	0.00e+00	0	43	0	2672820224	13	4406
2026-01-18 04:46:14.47	277.64	11.91	-26.7	-28.5	15.0	2.64e-04	0	43	0	2679111680	13	4408
2026-01-18 04:46:15.47	277.50	11.85	-26.4	-27.9	15.4	0.00e+00	0	43	0	2684354560	13	4238
2026-01-18 04:46:16.47	277.36	11.79	-26.5	-27.9	15.3	0.00e+00	0	43	0	2690646016	13	4240
2026-01-18 04:46:17.47	277.22	11.73	-26.5	-28.0	15.3	0.00e+00	0	43	0	2695888896	13	4267
2026-01-18 04:46:18.48	277.07	11.66	-26.4	-28.1	15.5	5.07e-04	0	43	0	2701131776	12	4424
2026-01-18 04:46:19.49	276.93	11.60	-26.4	-28.2	15.5	0.00e+00	0	43	0	2707423232	12	4444
2026-01-18 04:46:20.50	276.79	11.54	-26.3	-28.1	15.5	0.00e+00	0	43	0	2712666112	12	4408
2026-01-18 04:46:21.50	276.65	11.47	-26.3	-28.0	15.6	8.37e-04	0	43	0	2717908992	12	4373
2026-01-18 04:46:22.50	276.51	11.41	-26.7	-28.4	15.0	0.00e+00	0	43	0	2724200448	13	4390
2026-01-18 04:46:23.51	276.37	11.35	-26.5	-27.9	15.3	9.11e-04	0	43	0	2729443328	13	4253
2026-01-18 04:46:24.51	276.23	11.29	-26.3	-28.1	15.5	0.00e+00	0	43	0	2734686208	12	4402
2026-01-18 04:46:25.51	276.10	11.22	-26.5	-28.4	15.3	0.00e+00	0	43	0	2740977664	12	4486
2026-01-18 04:46:26.51	275.96	11.16	-26.3	-28.1	15.5	9.22e-04	0	43	0	2746220544	12	4399
2026-01-18 04:46:27.51	275.82	11.10	-26.3	-28.0	15.5	0.00e+00	0	43	0	2752512000	12	4382
2026-01-18 04:46:28.52	275.69	11.04	-26.3	-28.1	15.5	0.00e+00	0	43	0	2757754880	12	4413
2026-01-18 04:46:29.52	275.55	10.97	-26.3	-28.1	15.5	0.00e+00	0	43	0	2764046336	12	4418
2026-01-18 04:46:30.53	275.42	10.91	-26.5	-28.0	15.2	3.43e-04	0	43	0	2769289216	13	4285
2026-01-18 04:46:31.53	275.28	10.85	-26.7	-28.5	14.9	0.00e+00	0	43	0	2774532096	13	4410
2026-01-18 04:46:32.52	275.15	10.79	-26.8	-28.6	14.9	7.55e-05	0	43	0	2780823552	13	4452
2026-01-18 04:46:33.53	275.02	10.72	-26.6	-28.2	15.1	9.04e-05	0	43	0	2786066432	13	4335
2026-01-18 04:46:34.53	274.89	10.66	-26.6	-28.2	15.1	0.00e+00	0	43	0	2791309312	13	4338
2026-01-18 04:46:35.53	274.75	10.60	-26.5	-28.0	15.2	1.82e-04	0	43	0	2797600768	13	4289
2026-01-18 04:46:36.53	274.62	10.53	-26.7	-28.5	14.9	2.83e-04	0	43	0	2802843648	13	4402
2026-01-18 04:46:37.54	274.49	10.47	-26.7	-28.5	14.9	0.00e+00	0	43	0	2809135104	13	4418
2026-01-18 04:46:38.54	274.36	10.41	-26.5	-28.1	15.2	1.10e-06	0	43	0	2814377984	13	4289
2026-01-18 04:46:39.55	274.23	10.35	-26.5	-28.1	15.2	6.20e-04	0	43	0	2819620864	13	4291
2026-01-18 04:46:40.55	274.10	10.28	-26.6	-28.3	15.1	0.00e+00	0	43	0	2825912320	13	4348
2026-01-18 04:46:41.55	273.98	10.22	-26.9	-28.8	14.8	6.50e-04	0	43	0	2831155200	13	4494
2026-01-18 04:46:42.55	273.85	10.16	-26.6	-28.1	15.1	7.51e-04	0	43	0	2836398080	13	4304
2026-01-18 04:46:43.56	273.72	10.10	-26.5	-28.1	15.1	0.00e+00	0	43	0	2842689536	13	4292
2026-01-18 04:46:44.56	273.59	10.03	-26.7	-28.4	15.0	5.95e-04	0	43	0	2847932416	13	4398
2026-01-18 04:46:45.57	273.47	9.97	-26.8	-28.1	14.9	0.00e+00	0	43	0	2854223872	14	4185
2026-01-18 04:46:46.57	273.34	9.91	-26.8	-28.2	14.8	0.00e+00	0	43	0	2859466752	14	4228
2026-01-18 04:46:47.56	273.22	9.85	-26.9	-28.3	14.7	1.70e-04	0	43	0	2864709632	14	4262
2026-01-18 04:46:48.57	273.09	9.78	-26.8	-28.3	14.8	1.57e-04	0	43	0	2871001088	14	4235
2026-01-18 04:46:49.58	272.97	9.72	-26.9	-28.3	14.7	0.00e+00	0	43	0	2876243968	14	4263
2026-01-18 04:46:50.58	272.84	9.66	-26.8	-28.7	14.8	3.68e-04	0	43	0	2882535424	13	4469
2026-01-18 04:46:51.58	272.72	9.60	-27.0	-28.7	14.5	9.63e-04	0	43	0	2887778304	14	4350
2026-01-18 04:46:52.58	272.60	9.53	-26.9	-28.4	14.6	1.10e-06	0	43	0	2893021184	14	4295
2026-01-18 04:46:53.58	272.48	9.47	-26.9	-28.8	14.7	1.00e-03	0	43	0	2899312640	13	4507
2026-01-18 04:46:54.58	272.36	9.41	-27.2	-29.0	14.3	1.11e-03	0	43	0	2904555520	14	4456
2026-01-18 04:46:55.59	272.24	9.35	-26.9	-28.4	14.7	1.10e-06	0	43	0	2909798400	14	4285
2026-01-18 04:46:56.59	272.12	9.29	-27.3	-29.4	14.1	1.37e-03	0	43	0	2916089856	14	4545
2026-01-18 04:46:57.60	272.00	9.22	-27.3	-29.2	14.2	2.20e-06	0	43	0	2921332736	14	4501
2026-01-18 04:46:58.60	271.88	9.16	-26.9	-28.4	14.7	1.10e-06	0	43	0	2926575616	14	4271
2026-01-18 04:46:59.60	271.76	9.10	-26.9	-28.4	14.6	2.20e-06	0	43	0	2932867072	14	4289
2026-01-18 04:47:00.60	271.64	9.04	-26.8	-28.7	14.7	1.50e-03	0	43	0	2938109952	13	4473
2026-01-18 04:47:01.61	271.52	8.98	-27.1	-28.8	14.4	3.40e-06	0	43	0	2944401408	14	4391
2026-01-18 04:47:02.61	271.41	8.91	-26.9	-28.5	14.6	1.34e-03	0	43	0	2949644288	14	4311
2026-01-18 04:47:03.61	271.29	8.85	-26.9	-28.5	14.5	1.21e-03	0	43	0	2954887168	14	4321
2026-01-18 04:47:04.62	271.17	8.79	-27.0	-28.6	14.5	0.00e+00	0	43	0	2961178624	14	4334
2026-01-18 04:47:05.62	271.06	8.73	-27.0	-28.6	14.5	7.49e-04	0	43	0	2966421504	14	4341
2026-01-18 04:47:06.62	270.94	8.67	-26.9	-28.9	14.6	5.70e-06	0	43	0	2972712960	13	4524
2026-01-18 04:47:07.62	270.83	8.60	-26.8	-28.2	14.7	1.10e-06	0	43	0	2977955840	14	4225
2026-01-18 04:47:08.62	270.71	8.54	-27.1	-28.8	14.4	3.40e-06	0	43	0	2983198720	14	4388
2026-01-18 04:47:09.62	270.60	8.48	-26.9	-28.5	14.5	2.20e-06	0	43	0	2989490176	14	4295
2026-01-18 04:47:10.62	270.49	8.42	-27.0	-28.6	14.4	1.10e-06	0	43	0	2994733056	14	4345
2026-01-18 04:47:11.63	270.37	8.36	-27.1	-28.9	14.3	0.00e+00	0	43	0	2999975936	14	4411
2026-01-18 04:47:12.63	270.26	8.30	-27.1	-29.0	14.2	8.00e-06	0	43	0	3006267392	14	4447
2026-01-18 04:47:13.63	270.15	8.24	-27.2	-29.1	14.1	6.80e-06	0	43	0	3011510272	14	4492
2026-01-18 04:47:14.64	270.04	8.17	-27.3	-28.9	13.9	3.47e-04	0	43	0	3017801728	15	4332
2026-01-18 04:47:15.64	269.93	8.11	-27.4	-29.5	13.8	5.70e-06	0	43	0	3023044608	14	4610
2026-01-18 04:47:16.65	269.82	8.05	-27.3	-29.4	13.9	4.50e-06	0	43	0	3028287488	14	4590
2026-01-18 04:47:17.64	269.71	7.99	-27.3	-29.4	13.9	2.20e-06	0	43	0	3034578944	14	4563
2026-01-18 04:47:18.65	269.60	7.93	-27.5	-29.3	13.7	1.83e-05	0	43	0	3039821824	15	4436
2026-01-18 04:47:19.65	269.49	7.87	-27.1	-28.4	14.2	3.40e-06	0	43	0	3045064704	15	4176
2026-01-18 04:47:20.66	269.38	7.81	-27.3	-29.3	13.9	3.40e-06	0	43	0	3051356160	14	4544
2026-01-18 04:47:21.66	269.27	7.74	-27.3	-29.5	13.8	1.10e-03	0	43	0	3056599040	14	4597
2026-01-18 04:47:22.67	269.17	7.68	-27.2	-29.1	14.0	6.80e-06	0	43	0	3062890496	14	4486
2026-01-18 04:47:23.67	269.06	7.62	-27.2	-29.1	14.0	1.14e-05	0	43	0	3068133376	14	4488
2026-01-18 04:47:24.68	268.95	7.56	-27.5	-29.2	13.6	9.10e-06	0	43	0	3073376256	15	4418
2026-01-18 04:47:25.68	268.85	7.50	-27.6	-29.7	13.4	9.10e-06	0	43	0	3079667712	15	4550
2026-01-18 04:47:26.69	268.74	7.44	-27.5	-29.3	13.6	1.37e-05	0	43	0	3084910592	15	4444
2026-01-18 04:47:27.70	268.63	7.38	-27.6	-29.6	13.4	2.40e-05	0	43	0	3091202048	15	4528
2026-01-18 04:47:28.71	268.53	7.32	-27.3	-29.0	13.7	1.71e-05	0	43	0	3096444928	15	4346
2026-01-18 04:47:29.71	268.42	7.26	-27.7	-29.7	13.2	2.51e-05	0	43	0	3101687808	15	4579
2026-01-18 04:47:30.72	268.32	7.20	-27.4	-29.0	13.7	1.60e-05	0	43	0	3107979264	15	4369
2026-01-18 04:47:31.72	268.22	7.13	-27.6	-29.5	13.4	2.97e-05	0	43	0	3113222144	15	4507
2026-01-18 04:47:32.73	268.11	7.07	-33.1	-43.7	3.8	2.48e-01	0	43	104	3117416448	26	12109
2026-01-18 04:47:33.73	268.01	7.01	-33.5	-45.1	3.8	8.47e-01	0	43	104	3117416448	26	13621
2026-01-18 04:47:34.74	267.91	6.95	-33.8	-45.2	3.8	8.45e-01	0	43	104	3117416448	27	13342

#Closed at: 2026-01-18 04:47:35
#Recorded file [3117 MB]: D:/data/31010_260118_073818.dat