passes_logs/2026/01/18/R2M6_AANII_01/R2M6_AANII_01__20260118_121442_NOAA_20_JPSS-1_rec.log

#Pass ID: 20260118_121442_NOAA 20 (JPSS-1)
#Satellite: NOAA 20 (JPSS-1)
#Configuration: NOAA 20
#almurnet v.1.7.20240730
#Start time: 2026-01-18 12:14:43

#Version: 2.2.20231116
#Station: R2M6_AANII_01
#Location: 30.233357 lon 59.946436 lat
#TLE: 1 43013U 17073A   26017.30359522  .00000067  00000+0  52526-4 0  9990
#TLE: 2 43013  98.7639 318.2187 0001419  36.2087 323.9184 14.19536557423067

#Time	Az	El	Level	Level2	SNR	BER	BlckErr	Temp	State	Recorded	gain1	gain2
2026-01-18 12:14:43.27	224.75	7.07	-31.4	-35.7	5.3	1.14e+00	0	41	0	0	24	5966
2026-01-18 12:14:44.27	224.86	7.13	-32.0	-38.3	4.9	1.21e+00	0	41	104	0	24	7501
2026-01-18 12:14:45.27	224.98	7.18	-31.8	-37.3	8.3	7.18e-02	0	41	0	0	24	6823
2026-01-18 12:14:46.27	225.09	7.24	-32.0	-38.2	7.7	7.78e-02	0	41	0	1048576	24	7381
2026-01-18 12:14:47.28	225.20	7.30	-32.0	-38.5	7.5	1.31e-01	0	41	0	3145728	24	7556
2026-01-18 12:14:48.28	225.32	7.35	-31.8	-37.4	8.3	8.32e-02	0	41	0	5242880	24	6842
2026-01-18 12:14:49.28	225.43	7.41	-31.7	-37.1	8.6	5.09e-02	0	41	0	7340032	24	6702
2026-01-18 12:14:50.28	225.54	7.47	-31.6	-36.6	9.0	2.72e-02	0	41	0	9437184	24	6391
2026-01-18 12:14:51.29	225.66	7.52	-31.4	-35.8	9.6	2.03e-02	0	41	0	10485760	24	5944
2026-01-18 12:14:52.29	225.78	7.58	-31.3	-35.3	10.0	1.27e-02	0	41	0	12582912	24	5714
2026-01-18 12:14:53.30	225.89	7.64	-31.2	-35.5	10.3	5.77e-03	0	41	0	14680064	23	5884
2026-01-18 12:14:54.30	226.01	7.70	-31.2	-35.5	10.2	7.17e-03	0	41	0	16777216	23	5915
2026-01-18 12:14:55.30	226.13	7.75	-31.2	-35.6	10.2	5.37e-03	0	41	0	17825792	23	5929
2026-01-18 12:14:56.30	226.24	7.81	-31.4	-36.0	9.9	9.82e-03	0	41	0	19922944	23	6133
2026-01-18 12:14:57.30	226.36	7.87	-31.4	-36.0	9.9	9.28e-03	0	41	0	22020096	23	6139
2026-01-18 12:14:58.30	226.48	7.92	-31.1	-35.1	10.6	5.11e-03	0	41	0	24117248	23	5678
2026-01-18 12:14:59.30	226.60	7.98	-31.2	-35.2	10.5	2.93e-03	0	41	0	26214400	23	5733
2026-01-18 12:15:00.31	226.72	8.04	-31.0	-34.8	10.8	3.46e-03	0	41	0	27262976	23	5563
2026-01-18 12:15:01.31	226.84	8.10	-31.1	-35.1	10.6	2.76e-03	0	41	0	29360128	23	5697
2026-01-18 12:15:02.32	226.96	8.15	-31.1	-35.1	10.7	3.51e-03	0	41	0	31457280	23	5671
2026-01-18 12:15:03.31	227.08	8.21	-31.1	-35.1	10.6	3.08e-03	0	41	0	33554432	23	5708
2026-01-18 12:15:04.32	227.20	8.27	-31.2	-35.4	10.5	3.45e-03	0	41	0	35651584	23	5811
2026-01-18 12:15:05.32	227.32	8.33	-31.1	-35.0	10.7	4.49e-03	0	42	0	36700160	23	5624
2026-01-18 12:15:06.33	227.44	8.38	-31.1	-35.0	10.8	2.40e-03	0	41	0	38797312	23	5621
2026-01-18 12:15:07.33	227.57	8.44	-31.0	-34.7	11.0	1.73e-03	0	42	0	40894464	23	5487
2026-01-18 12:15:08.34	227.69	8.50	-31.0	-34.7	11.0	2.53e-03	0	42	0	42991616	23	5485
2026-01-18 12:15:09.34	227.81	8.56	-30.9	-34.3	11.4	1.50e-03	0	42	0	45088768	23	5307
2026-01-18 12:15:10.33	227.93	8.61	-30.9	-34.4	11.2	1.13e-03	0	42	0	46137344	23	5366
2026-01-18 12:15:11.34	228.06	8.67	-30.9	-34.4	11.3	1.39e-03	0	42	0	48234496	23	5353
2026-01-18 12:15:12.34	228.18	8.73	-31.0	-34.5	11.2	1.21e-03	0	42	0	50331648	23	5414
2026-01-18 12:15:13.35	228.31	8.79	-30.9	-34.3	11.3	1.05e-03	0	42	0	52428800	23	5335
2026-01-18 12:15:14.35	228.44	8.84	-30.9	-34.5	11.2	1.31e-03	0	41	0	54525952	23	5389
2026-01-18 12:15:15.35	228.56	8.90	-30.8	-34.0	11.6	9.89e-04	0	42	0	55574528	23	5199
2026-01-18 12:15:16.35	228.69	8.96	-30.8	-34.6	11.5	6.76e-04	0	42	0	57671680	22	5529
2026-01-18 12:15:17.35	228.81	9.01	-30.8	-34.4	11.6	6.53e-04	0	42	0	59768832	22	5473
2026-01-18 12:15:18.34	228.94	9.07	-30.9	-34.7	11.4	7.43e-04	0	42	0	61865984	22	5580
2026-01-18 12:15:19.35	229.07	9.13	-30.9	-34.9	11.3	1.20e-03	0	42	0	62914560	22	5678
2026-01-18 12:15:20.35	229.20	9.19	-30.8	-34.3	11.7	5.28e-04	0	42	0	65011712	22	5430
2026-01-18 12:15:21.35	229.33	9.24	-30.6	-34.0	12.0	4.60e-04	0	42	0	67108864	22	5270
2026-01-18 12:15:22.36	229.46	9.30	-30.7	-34.3	11.8	3.68e-04	0	42	0	69206016	22	5394
2026-01-18 12:15:23.36	229.59	9.36	-30.5	-33.6	12.2	4.45e-04	0	42	0	71303168	22	5136
2026-01-18 12:15:24.36	229.72	9.42	-30.7	-34.0	11.9	3.15e-04	0	42	0	72351744	22	5304
2026-01-18 12:15:25.36	229.85	9.48	-30.7	-34.1	11.9	3.54e-04	0	42	0	74448896	22	5316
2026-01-18 12:15:26.36	229.98	9.53	-30.7	-34.1	11.9	3.97e-04	0	42	0	76546048	22	5316
2026-01-18 12:15:27.36	230.11	9.59	-30.8	-34.3	11.7	6.02e-04	0	42	0	78643200	22	5411
2026-01-18 12:15:28.37	230.25	9.65	-30.7	-34.0	12.0	3.94e-04	0	42	0	80740352	22	5279
2026-01-18 12:15:29.37	230.38	9.71	-30.6	-33.7	12.2	2.14e-04	0	42	0	81788928	22	5168
2026-01-18 12:15:30.37	230.51	9.76	-30.7	-34.0	12.0	2.87e-04	0	42	0	83886080	22	5286
2026-01-18 12:15:31.38	230.65	9.82	-30.7	-34.0	11.9	2.97e-04	0	42	0	85983232	22	5295
2026-01-18 12:15:32.38	230.78	9.88	-30.6	-33.8	12.1	3.20e-04	0	42	0	88080384	22	5202
2026-01-18 12:15:33.39	230.92	9.94	-30.8	-34.5	11.7	3.43e-04	0	42	0	90177536	22	5469
2026-01-18 12:15:34.39	231.05	9.99	-30.9	-34.7	11.5	8.88e-04	0	42	0	91226112	22	5560
2026-01-18 12:15:35.39	231.19	10.05	-30.8	-34.4	11.7	6.35e-04	0	42	0	93323264	22	5455
2026-01-18 12:15:36.39	231.32	10.11	-30.7	-34.2	11.9	5.22e-04	0	42	0	95420416	22	5363
2026-01-18 12:15:37.39	231.46	10.17	-30.7	-34.1	11.9	3.52e-04	0	42	0	97517568	22	5328
2026-01-18 12:15:38.40	231.60	10.22	-30.7	-34.2	11.9	4.26e-04	0	42	0	99614720	22	5365
2026-01-18 12:15:39.40	231.74	10.28	-30.8	-34.3	11.8	4.52e-04	0	42	0	100663296	22	5409
2026-01-18 12:15:40.40	231.88	10.34	-30.8	-34.4	11.8	5.35e-04	0	42	0	102760448	22	5436
2026-01-18 12:15:41.40	232.02	10.40	-30.8	-34.4	11.8	4.49e-04	0	42	0	104857600	22	5419
2026-01-18 12:15:42.40	232.16	10.45	-30.8	-34.2	11.9	4.51e-04	0	42	0	106954752	22	5364
2026-01-18 12:15:43.41	232.30	10.51	-30.8	-34.4	11.7	4.33e-04	0	42	0	108003328	22	5451
2026-01-18 12:15:44.41	232.44	10.57	-30.8	-34.3	11.9	4.79e-04	0	42	0	110100480	22	5398
2026-01-18 12:15:45.42	232.58	10.63	-30.7	-34.1	12.0	3.62e-04	0	42	0	112197632	22	5300
2026-01-18 12:15:46.42	232.72	10.68	-30.8	-34.4	11.8	4.00e-04	0	42	0	114294784	22	5415
2026-01-18 12:15:47.43	232.87	10.74	-30.8	-34.2	11.9	4.16e-04	0	42	0	116391936	22	5362
2026-01-18 12:15:48.44	233.01	10.80	-30.8	-34.2	12.0	3.56e-04	0	42	0	118489088	22	5331
2026-01-18 12:15:49.44	233.15	10.86	-30.7	-34.0	12.1	2.89e-04	0	42	0	119537664	22	5241
2026-01-18 12:15:50.44	233.30	10.92	-30.8	-34.3	11.9	2.68e-04	0	42	0	121634816	22	5392
2026-01-18 12:15:51.45	233.44	10.97	-30.8	-34.3	11.9	5.16e-04	0	42	0	123731968	22	5371
2026-01-18 12:15:52.46	233.59	11.03	-30.8	-34.3	11.9	3.43e-04	0	42	0	125829120	22	5385
2026-01-18 12:15:53.46	233.73	11.09	-30.8	-34.3	11.9	4.56e-04	0	42	0	126877696	22	5390
2026-01-18 12:15:54.46	233.88	11.14	-30.9	-34.5	11.8	3.46e-04	0	42	0	128974848	22	5451
2026-01-18 12:15:55.47	234.03	11.20	-30.9	-34.4	11.8	5.03e-04	0	42	0	131072000	22	5436
2026-01-18 12:15:56.47	234.18	11.26	-30.8	-34.3	11.9	4.29e-04	0	42	0	133169152	22	5373
2026-01-18 12:15:57.47	234.32	11.32	-30.8	-34.2	12.0	3.49e-04	0	42	0	135266304	22	5315
2026-01-18 12:15:58.47	234.47	11.37	-30.7	-33.9	12.2	2.27e-04	0	42	0	136314880	22	5209
2026-01-18 12:15:59.48	234.62	11.43	-30.7	-33.9	12.2	2.31e-04	0	42	0	138412032	22	5197
2026-01-18 12:16:00.48	234.77	11.49	-30.6	-33.7	12.3	1.87e-04	0	42	0	140509184	22	5146
2026-01-18 12:16:01.49	234.92	11.55	-30.7	-34.0	12.2	1.80e-04	0	42	0	142606336	22	5244
2026-01-18 12:16:02.50	235.07	11.60	-30.7	-33.9	12.2	2.36e-04	0	42	0	144703488	22	5225
2026-01-18 12:16:03.49	235.22	11.66	-30.6	-33.8	12.3	2.01e-04	0	42	0	145752064	22	5158
2026-01-18 12:16:04.49	235.38	11.72	-30.7	-33.8	12.3	1.56e-04	0	43	0	147849216	22	5176
2026-01-18 12:16:05.49	235.53	11.77	-30.7	-33.9	12.2	2.07e-04	0	43	0	149946368	22	5216
2026-01-18 12:16:06.49	235.68	11.83	-30.8	-34.1	12.1	2.18e-04	0	43	0	152043520	22	5285
2026-01-18 12:16:07.50	235.84	11.89	-30.7	-34.0	12.2	2.72e-04	0	42	0	154140672	22	5236
2026-01-18 12:16:08.49	235.99	11.94	-30.7	-33.9	12.3	1.75e-04	0	43	0	155189248	22	5197
2026-01-18 12:16:09.49	236.14	12.00	-30.7	-34.0	12.2	1.40e-04	0	42	0	157286400	22	5246
2026-01-18 12:16:10.50	236.30	12.06	-30.7	-34.0	12.2	1.79e-04	0	42	0	159383552	22	5266
2026-01-18 12:16:11.50	236.45	12.11	-30.7	-33.8	12.3	1.74e-04	0	43	0	161480704	22	5175
2026-01-18 12:16:12.50	236.61	12.17	-30.8	-34.1	12.2	2.01e-04	0	43	0	163577856	22	5275
2026-01-18 12:16:13.50	236.77	12.22	-30.8	-34.2	12.1	3.05e-04	0	43	0	164626432	22	5314
2026-01-18 12:16:14.50	236.93	12.28	-30.7	-33.8	12.3	2.51e-04	0	43	0	166723584	22	5169
2026-01-18 12:16:15.51	237.08	12.34	-30.6	-33.7	12.4	1.36e-04	0	43	0	168820736	22	5135
2026-01-18 12:16:16.51	237.24	12.39	-30.7	-33.8	12.4	1.42e-04	0	43	0	170917888	22	5175
2026-01-18 12:16:17.51	237.40	12.45	-30.7	-33.8	12.3	1.54e-04	0	43	0	171966464	22	5163
2026-01-18 12:16:18.52	237.56	12.51	-30.7	-33.9	12.3	1.85e-04	0	43	0	174063616	22	5191
2026-01-18 12:16:19.53	237.73	12.56	-30.6	-33.6	12.5	1.45e-04	0	43	0	176160768	22	5079
2026-01-18 12:16:20.53	237.89	12.62	-30.6	-33.5	12.6	9.99e-05	0	43	0	178257920	22	5038
2026-01-18 12:16:21.54	238.05	12.67	-30.7	-33.8	12.4	1.43e-04	0	43	0	180355072	22	5158
2026-01-18 12:16:22.54	238.21	12.73	-30.7	-33.8	12.4	1.69e-04	0	43	0	181403648	22	5153
2026-01-18 12:16:23.55	238.38	12.79	-30.5	-33.4	12.7	1.07e-04	0	43	0	183500800	22	4991
2026-01-18 12:16:24.56	238.54	12.84	-30.5	-33.3	12.7	7.70e-05	0	43	0	185597952	22	4962
2026-01-18 12:16:25.56	238.70	12.90	-30.5	-33.3	12.8	6.56e-05	0	43	0	187695104	22	4957
2026-01-18 12:16:26.56	238.87	12.95	-30.5	-33.3	12.8	5.26e-05	0	43	0	189792256	22	4950
2026-01-18 12:16:27.56	239.03	13.01	-30.5	-33.2	12.8	8.23e-05	0	43	0	190840832	22	4928
2026-01-18 12:16:28.56	239.20	13.06	-30.4	-32.9	13.0	4.57e-05	0	43	0	192937984	22	4836
2026-01-18 12:16:29.57	239.37	13.12	-30.4	-33.1	12.9	4.42e-05	0	43	0	195035136	22	4881
2026-01-18 12:16:30.57	239.53	13.17	-30.4	-32.9	13.0	3.58e-05	0	43	0	197132288	22	4810
2026-01-18 12:16:31.57	239.70	13.23	-30.3	-32.7	13.1	2.82e-05	0	43	0	199229440	22	4755
2026-01-18 12:16:32.57	239.87	13.28	-30.4	-32.9	13.1	3.73e-05	0	42	0	200278016	22	4805
2026-01-18 12:16:33.57	240.04	13.34	-30.3	-32.8	13.1	3.96e-05	0	43	0	202375168	22	4793
2026-01-18 12:16:34.58	240.21	13.39	-30.3	-32.7	13.2	2.82e-05	0	43	0	204472320	22	4732
2026-01-18 12:16:35.58	240.38	13.45	-30.2	-32.9	13.4	1.67e-05	0	43	0	206569472	21	4924
2026-01-18 12:16:36.58	240.55	13.50	-30.3	-33.2	13.2	1.98e-05	0	43	0	208666624	21	5012
2026-01-18 12:16:37.59	240.72	13.55	-30.3	-33.2	13.2	3.12e-05	0	43	0	209715200	21	5015
2026-01-18 12:16:38.59	240.89	13.61	-30.3	-33.2	13.2	1.90e-05	0	43	0	211812352	21	5021
2026-01-18 12:16:39.59	241.07	13.66	-30.2	-32.9	13.4	2.82e-05	0	43	0	213909504	21	4920
2026-01-18 12:16:40.58	241.24	13.72	-30.2	-32.9	13.4	1.29e-05	0	43	0	216006656	21	4916
2026-01-18 12:16:41.59	241.41	13.77	-30.2	-32.9	13.4	1.52e-05	0	43	0	218103808	21	4926
2026-01-18 12:16:42.59	241.59	13.82	-30.2	-32.8	13.4	1.06e-05	0	43	0	219152384	21	4890
2026-01-18 12:16:43.60	241.76	13.88	-30.2	-33.0	13.3	1.14e-05	0	43	0	221249536	21	4951
2026-01-18 12:16:44.60	241.94	13.93	-30.2	-32.9	13.4	2.21e-05	0	43	0	223346688	21	4926
2026-01-18 12:16:45.61	242.12	13.98	-30.1	-32.6	13.6	7.60e-06	0	43	0	225443840	21	4790
2026-01-18 12:16:46.61	242.29	14.04	-30.1	-32.6	13.6	8.30e-06	0	43	0	226492416	21	4813
2026-01-18 12:16:47.62	242.47	14.09	-30.1	-32.5	13.7	9.90e-06	0	43	0	228589568	21	4777
2026-01-18 12:16:48.61	242.65	14.14	-30.0	-32.5	13.7	8.30e-06	0	43	0	230686720	21	4756
2026-01-18 12:16:49.61	242.83	14.20	-30.1	-32.5	13.7	5.30e-06	0	43	0	232783872	21	4775
2026-01-18 12:16:50.61	243.01	14.25	-30.1	-32.6	13.6	4.50e-06	0	43	0	234881024	21	4814
2026-01-18 12:16:51.61	243.19	14.30	-30.0	-32.5	13.7	9.10e-06	0	43	0	235929600	21	4757
2026-01-18 12:16:52.61	243.37	14.35	-30.1	-32.6	13.6	5.30e-06	0	43	0	238026752	21	4813
2026-01-18 12:16:53.62	243.55	14.40	-30.1	-32.7	13.5	6.10e-06	0	43	0	240123904	21	4844
2026-01-18 12:16:54.62	243.73	14.46	-30.2	-32.8	13.5	1.60e-05	0	43	0	242221056	21	4890
2026-01-18 12:16:55.62	243.91	14.51	-30.1	-32.5	13.7	5.30e-06	0	43	0	244318208	21	4768
2026-01-18 12:16:56.62	244.10	14.56	-30.0	-32.3	13.8	6.80e-06	0	43	0	245366784	21	4710
2026-01-18 12:16:57.62	244.28	14.61	-29.9	-32.2	13.9	3.00e-06	0	43	0	247463936	21	4650
2026-01-18 12:16:58.63	244.46	14.66	-30.0	-32.3	13.9	4.50e-06	0	43	0	249561088	21	4691
2026-01-18 12:16:59.63	244.65	14.71	-30.0	-32.2	13.9	3.80e-06	0	43	0	251658240	21	4679
2026-01-18 12:17:00.63	244.83	14.76	-30.0	-32.4	13.8	4.50e-06	0	43	0	253755392	21	4712
2026-01-18 12:17:01.63	245.02	14.82	-30.0	-32.4	13.8	3.00e-06	0	43	0	254803968	21	4741
2026-01-18 12:17:02.63	245.21	14.87	-30.1	-32.7	13.6	4.50e-06	0	43	0	256901120	21	4839
2026-01-18 12:17:03.63	245.39	14.92	-30.2	-32.8	13.6	9.10e-06	0	43	0	258998272	21	4856
2026-01-18 12:17:04.64	245.58	14.97	-30.2	-33.0	13.4	7.60e-06	0	43	0	261095424	21	4936
2026-01-18 12:17:05.64	245.77	15.02	-30.2	-33.0	13.4	1.90e-05	0	43	0	263192576	21	4946
2026-01-18 12:17:06.65	245.96	15.07	-30.2	-32.8	13.6	6.80e-06	0	43	0	264241152	21	4865
2026-01-18 12:17:07.65	246.15	15.12	-30.2	-32.9	13.5	9.10e-06	0	43	0	266338304	21	4914
2026-01-18 12:17:08.65	246.34	15.17	-30.2	-32.9	13.5	1.67e-05	0	43	0	268435456	21	4915
2026-01-18 12:17:09.66	246.53	15.22	-30.3	-33.2	13.3	1.83e-05	0	43	0	270532608	21	5028
2026-01-18 12:17:10.66	246.73	15.27	-30.4	-33.3	13.3	1.75e-05	0	43	0	272629760	21	5034
2026-01-18 12:17:11.67	246.92	15.31	-30.3	-33.2	13.3	1.37e-05	0	43	0	273678336	21	5020
2026-01-18 12:17:12.66	247.11	15.36	-30.4	-33.4	13.1	1.83e-05	0	43	0	275775488	21	5100
2026-01-18 12:17:13.66	247.30	15.41	-30.6	-33.9	12.9	3.96e-05	0	43	0	277872640	21	5270
2026-01-18 12:17:14.66	247.50	15.46	-30.5	-33.7	13.0	3.73e-05	0	43	0	279969792	21	5203
2026-01-18 12:17:15.66	247.69	15.51	-30.6	-33.9	12.8	4.42e-05	0	43	0	281018368	21	5290
2026-01-18 12:17:16.67	247.89	15.56	-30.6	-34.0	12.8	5.49e-05	0	43	0	283115520	21	5311
2026-01-18 12:17:17.66	248.08	15.60	-30.6	-34.0	12.8	6.63e-05	0	43	0	285212672	21	5327
2026-01-18 12:17:18.66	248.28	15.65	-30.7	-34.4	12.5	7.47e-05	0	43	0	287309824	21	5467
2026-01-18 12:17:19.67	248.48	15.70	-30.8	-34.4	12.5	1.27e-04	0	43	0	289406976	21	5488
2026-01-18 12:17:20.67	248.67	15.74	-30.8	-34.6	12.4	1.09e-04	0	43	0	290455552	21	5581
2026-01-18 12:17:21.68	248.87	15.79	-30.8	-34.7	12.3	1.90e-04	0	43	0	292552704	21	5601
2026-01-18 12:17:22.68	249.07	15.84	-30.9	-34.8	12.2	1.60e-04	0	43	0	294649856	21	5663
2026-01-18 12:17:23.68	249.27	15.88	-30.9	-34.8	12.3	2.19e-04	0	43	0	296747008	21	5652
2026-01-18 12:17:24.68	249.47	15.93	-30.8	-34.6	12.5	1.56e-04	0	43	0	298844160	21	5544
2026-01-18 12:17:25.69	249.67	15.98	-30.8	-34.5	12.5	1.21e-04	0	43	0	299892736	21	5531
2026-01-18 12:17:26.69	249.87	16.02	-30.8	-34.6	12.4	1.57e-04	0	43	0	301989888	21	5560
2026-01-18 12:17:27.70	250.08	16.07	-30.8	-34.4	12.5	1.32e-04	0	43	0	304087040	21	5483
2026-01-18 12:17:28.70	250.28	16.11	-30.7	-34.3	12.6	9.76e-05	0	43	0	306184192	21	5447
2026-01-18 12:17:29.70	250.48	16.16	-30.8	-34.5	12.5	1.01e-04	0	43	0	308281344	21	5502
2026-01-18 12:17:30.70	250.69	16.20	-30.9	-34.7	12.3	1.51e-04	0	43	0	309329920	21	5619
2026-01-18 12:17:31.69	250.89	16.24	-30.9	-34.8	12.3	2.31e-04	0	43	0	311427072	21	5657
2026-01-18 12:17:32.69	251.09	16.29	-31.0	-35.0	12.1	1.65e-04	0	43	0	313524224	21	5730
2026-01-18 12:17:33.69	251.30	16.33	-31.0	-35.0	12.1	2.55e-04	0	43	0	315621376	21	5741
2026-01-18 12:17:34.70	251.50	16.38	-31.1	-35.0	11.9	3.30e-04	0	43	0	317718528	22	5600
2026-01-18 12:17:35.70	251.71	16.42	-31.1	-34.9	11.9	4.52e-04	0	43	0	318767104	22	5575
2026-01-18 12:17:36.70	251.92	16.46	-31.1	-34.9	11.9	3.89e-04	0	43	0	320864256	22	5582
2026-01-18 12:17:37.71	252.13	16.50	-31.2	-35.1	11.7	4.46e-04	0	43	0	322961408	22	5678
2026-01-18 12:17:38.71	252.33	16.55	-31.3	-35.5	11.5	6.20e-04	0	43	0	325058560	22	5830
2026-01-18 12:17:39.71	252.54	16.59	-31.3	-35.6	11.5	8.60e-04	0	43	0	326107136	22	5882
2026-01-18 12:17:40.72	252.75	16.63	-31.4	-35.8	11.3	9.80e-04	0	43	0	328204288	22	5969
2026-01-18 12:17:41.73	252.97	16.67	-31.3	-35.6	11.4	1.22e-03	0	43	0	330301440	22	5885
2026-01-18 12:17:42.73	253.18	16.71	-31.3	-35.5	11.5	8.80e-04	0	43	0	332398592	22	5823
2026-01-18 12:17:43.72	253.38	16.75	-31.3	-35.4	11.6	6.16e-04	0	43	0	334495744	22	5783
2026-01-18 12:17:44.72	253.60	16.79	-31.2	-35.2	11.7	6.79e-04	0	43	0	335544320	22	5696
2026-01-18 12:17:45.72	253.81	16.83	-31.2	-35.0	11.9	4.84e-04	0	43	0	337641472	22	5617
2026-01-18 12:17:46.72	254.02	16.87	-31.2	-35.1	11.8	4.68e-04	0	43	0	339738624	22	5662
2026-01-18 12:17:47.72	254.23	16.91	-31.2	-35.1	11.8	5.51e-04	0	43	0	341835776	22	5644
2026-01-18 12:17:48.72	254.45	16.95	-31.1	-34.8	12.0	3.78e-04	0	43	0	343932928	22	5526
2026-01-18 12:17:49.72	254.66	16.99	-31.1	-34.7	12.1	2.78e-04	0	43	0	344981504	22	5489
2026-01-18 12:17:50.72	254.88	17.03	-31.0	-34.5	12.3	2.44e-04	0	43	0	347078656	22	5415
2026-01-18 12:17:51.72	255.09	17.07	-31.1	-34.7	12.1	2.23e-04	0	43	0	349175808	22	5484
2026-01-18 12:17:52.73	255.31	17.11	-31.0	-34.6	12.2	2.47e-04	0	43	0	351272960	22	5433
2026-01-18 12:17:53.73	255.52	17.14	-31.1	-35.0	12.0	3.08e-04	0	43	0	353370112	22	5590
2026-01-18 12:17:54.73	255.74	17.18	-31.1	-34.8	12.0	3.72e-04	0	43	0	354418688	22	5525
2026-01-18 12:17:55.73	255.96	17.22	-30.9	-34.3	12.4	1.87e-04	0	43	0	356515840	22	5322
2026-01-18 12:17:56.73	256.18	17.26	-30.8	-34.1	12.6	1.12e-04	0	43	0	358612992	22	5224
2026-01-18 12:17:57.73	256.39	17.29	-30.8	-34.0	12.7	1.12e-04	0	43	0	360710144	22	5184
2026-01-18 12:17:58.73	256.61	17.33	-30.8	-33.9	12.7	8.77e-05	0	43	0	362807296	22	5172
2026-01-18 12:17:59.73	256.83	17.36	-30.7	-33.7	12.8	8.85e-05	0	43	0	363855872	22	5068
2026-01-18 12:18:00.73	257.05	17.40	-30.7	-33.6	12.9	5.11e-05	0	43	0	365953024	22	5041
2026-01-18 12:18:01.74	257.27	17.43	-30.6	-33.3	13.1	4.34e-05	0	43	0	368050176	22	4937
2026-01-18 12:18:02.74	257.49	17.47	-30.5	-33.2	13.2	2.05e-05	0	43	0	370147328	22	4896
2026-01-18 12:18:03.75	257.72	17.50	-30.5	-33.2	13.2	1.44e-05	0	43	0	371195904	22	4876
2026-01-18 12:18:04.75	257.94	17.54	-30.6	-33.5	13.0	3.28e-05	0	43	0	373293056	22	4986
2026-01-18 12:18:05.75	258.16	17.57	-30.6	-33.2	13.2	3.81e-05	0	43	0	375390208	22	4904
2026-01-18 12:18:06.76	258.39	17.60	-30.5	-33.1	13.2	1.60e-05	0	43	0	377487360	22	4850
2026-01-18 12:18:07.77	258.61	17.64	-30.5	-33.2	13.2	1.90e-05	0	43	0	379584512	22	4883
2026-01-18 12:18:08.77	258.83	17.67	-30.6	-33.3	13.1	2.59e-05	0	43	0	380633088	22	4912
2026-01-18 12:18:09.77	259.06	17.70	-30.6	-33.4	13.0	3.50e-05	0	43	0	382730240	22	4949
2026-01-18 12:18:10.77	259.28	17.73	-30.6	-33.3	13.1	3.05e-05	0	43	0	384827392	22	4922
2026-01-18 12:18:11.77	259.51	17.76	-30.6	-33.3	13.1	2.89e-05	0	43	0	386924544	22	4930
2026-01-18 12:18:12.78	259.73	17.79	-30.6	-33.4	13.1	3.12e-05	0	43	0	389021696	22	4969
2026-01-18 12:18:13.79	259.96	17.82	-30.7	-33.7	12.9	4.57e-05	0	43	0	390070272	22	5082
2026-01-18 12:18:14.79	260.19	17.85	-30.7	-33.6	12.9	5.34e-05	0	43	0	392167424	22	5024
2026-01-18 12:18:15.80	260.42	17.88	-30.6	-33.5	13.0	3.89e-05	0	43	0	394264576	22	4986
2026-01-18 12:18:16.80	260.64	17.91	-30.7	-33.6	13.0	3.05e-05	0	43	0	396361728	22	5047
2026-01-18 12:18:17.81	260.87	17.94	-30.7	-33.5	13.0	3.96e-05	0	43	0	398458880	22	5003
2026-01-18 12:18:18.81	261.10	17.97	-30.7	-33.6	13.0	3.96e-05	0	43	0	399507456	22	5015
2026-01-18 12:18:19.81	261.33	18.00	-30.7	-33.5	13.0	3.58e-05	0	43	0	401604608	22	5011
2026-01-18 12:18:20.81	261.56	18.03	-30.8	-33.8	12.8	4.57e-05	0	43	0	403701760	22	5108
2026-01-18 12:18:21.81	261.79	18.05	-30.7	-33.7	12.8	4.11e-05	0	43	0	405798912	22	5052
2026-01-18 12:18:22.82	262.02	18.08	-30.8	-33.8	12.8	5.26e-05	0	43	0	407896064	22	5107
2026-01-18 12:18:23.82	262.25	18.11	-30.7	-33.8	12.8	7.17e-05	0	43	0	408944640	22	5095
2026-01-18 12:18:24.82	262.48	18.13	-30.7	-33.6	12.9	3.89e-05	0	43	0	411041792	22	5026
2026-01-18 12:18:25.82	262.71	18.16	-30.7	-33.6	13.0	4.04e-05	0	43	0	413138944	22	5025
2026-01-18 12:18:26.83	262.94	18.18	-30.6	-33.4	13.1	3.28e-05	0	43	0	415236096	22	4952
2026-01-18 12:18:27.83	263.18	18.21	-30.6	-33.3	13.1	2.13e-05	0	43	0	417333248	22	4928
2026-01-18 12:18:28.83	263.41	18.23	-30.7	-33.5	13.0	2.13e-05	0	43	0	418381824	22	4996
2026-01-18 12:18:29.83	263.64	18.26	-30.6	-33.3	13.1	3.58e-05	0	43	0	420478976	22	4924
2026-01-18 12:18:30.84	263.87	18.28	-30.6	-33.3	13.1	2.74e-05	0	43	0	422576128	22	4909
2026-01-18 12:18:31.84	264.11	18.30	-30.7	-33.7	13.0	3.28e-05	0	43	0	424673280	22	5052
2026-01-18 12:18:32.84	264.34	18.32	-30.7	-33.5	13.0	3.05e-05	0	43	0	425721856	22	4994
2026-01-18 12:18:33.85	264.58	18.35	-30.7	-33.5	13.0	3.50e-05	0	43	0	427819008	22	4988
2026-01-18 12:18:34.85	264.81	18.37	-30.7	-33.6	13.0	3.89e-05	0	43	0	429916160	22	5023
2026-01-18 12:18:35.84	265.04	18.39	-30.8	-33.9	12.7	4.42e-05	0	43	0	432013312	22	5157
2026-01-18 12:18:36.84	265.27	18.41	-30.7	-33.6	13.0	7.09e-05	0	43	0	434110464	22	5007
2026-01-18 12:18:37.85	265.51	18.43	-30.6	-33.3	13.2	2.21e-05	0	43	0	435159040	22	4921
2026-01-18 12:18:38.85	265.75	18.45	-30.6	-33.4	13.1	2.82e-05	0	43	0	437256192	22	4944
2026-01-18 12:18:39.85	265.98	18.47	-30.6	-33.4	13.1	2.28e-05	0	43	0	439353344	22	4962
2026-01-18 12:18:40.85	266.22	18.49	-30.7	-33.5	13.0	2.67e-05	0	43	0	441450496	22	4987
2026-01-18 12:18:41.85	266.45	18.51	-30.8	-33.8	12.8	4.65e-05	0	43	0	443547648	22	5102
2026-01-18 12:18:42.85	266.69	18.52	-30.7	-33.5	13.0	4.88e-05	0	43	0	444596224	22	4999
2026-01-18 12:18:43.84	266.92	18.54	-30.6	-33.2	13.3	2.89e-05	0	43	0	446693376	22	4878
2026-01-18 12:18:44.85	267.16	18.56	-30.5	-33.1	13.3	2.51e-05	0	43	0	448790528	22	4836
2026-01-18 12:18:45.85	267.40	18.57	-30.5	-33.1	13.3	1.67e-05	0	43	0	450887680	22	4831
2026-01-18 12:18:46.86	267.64	18.59	-30.5	-33.0	13.4	2.44e-05	0	43	0	452984832	22	4819
2026-01-18 12:18:47.86	267.88	18.61	-30.5	-33.0	13.4	1.29e-05	0	43	0	454033408	22	4811
2026-01-18 12:18:48.86	268.11	18.62	-30.7	-33.5	13.1	2.36e-05	0	43	0	456130560	22	4975
2026-01-18 12:18:49.87	268.35	18.64	-30.6	-33.3	13.2	3.81e-05	0	43	0	458227712	22	4927
2026-01-18 12:18:50.86	268.59	18.65	-30.6	-33.2	13.2	1.83e-05	0	43	0	460324864	22	4884
2026-01-18 12:18:51.87	268.83	18.66	-30.7	-33.6	13.0	3.20e-05	0	43	0	461373440	22	5026
2026-01-18 12:18:52.87	269.07	18.68	-30.7	-33.7	13.0	5.34e-05	0	43	0	463470592	22	5042
2026-01-18 12:18:53.87	269.31	18.69	-30.8	-33.8	12.9	3.89e-05	0	43	0	465567744	22	5094
2026-01-18 12:18:54.88	269.55	18.70	-30.8	-33.8	12.9	6.48e-05	0	43	0	467664896	22	5106
2026-01-18 12:18:55.87	269.78	18.71	-30.8	-33.8	12.9	4.27e-05	0	43	0	469762048	22	5092
2026-01-18 12:18:56.88	270.03	18.73	-30.7	-33.7	12.9	4.65e-05	0	43	0	470810624	22	5051
2026-01-18 12:18:57.89	270.27	18.74	-30.8	-33.8	12.9	4.50e-05	0	43	0	472907776	22	5101
2026-01-18 12:18:58.89	270.51	18.75	-30.9	-34.2	12.6	8.54e-05	0	43	0	475004928	22	5259
2026-01-18 12:18:59.89	270.75	18.76	-31.1	-34.7	12.3	1.24e-04	0	43	0	477102080	22	5449
2026-01-18 12:19:00.90	270.99	18.77	-31.0	-34.4	12.5	1.52e-04	0	43	0	479199232	22	5332
2026-01-18 12:19:01.90	271.23	18.77	-30.9	-34.2	12.6	8.92e-05	0	43	0	480247808	22	5261
2026-01-18 12:19:02.90	271.47	18.78	-31.0	-34.6	12.4	1.30e-04	0	43	0	482344960	22	5402
2026-01-18 12:19:03.90	271.71	18.79	-31.0	-34.6	12.4	1.81e-04	0	43	0	484442112	22	5394
2026-01-18 12:19:04.91	271.95	18.80	-31.2	-34.9	12.1	2.46e-04	0	43	0	486539264	22	5537
2026-01-18 12:19:05.91	272.19	18.81	-31.2	-35.0	12.1	2.57e-04	0	43	0	488636416	22	5574
2026-01-18 12:19:06.92	272.43	18.81	-31.4	-35.7	11.5	3.84e-04	0	43	0	489684992	22	5898
2026-01-18 12:19:07.92	272.67	18.82	-31.3	-35.3	11.9	7.56e-04	0	43	0	491782144	22	5704
2026-01-18 12:19:08.93	272.92	18.82	-31.0	-34.4	12.4	1.93e-04	0	43	0	493879296	22	5346
2026-01-18 12:19:09.93	273.16	18.83	-30.8	-33.9	12.9	8.16e-05	0	43	0	495976448	22	5126
2026-01-18 12:19:10.93	273.40	18.83	-30.7	-33.5	13.1	4.50e-05	0	43	0	498073600	22	4973
2026-01-18 12:19:11.93	273.64	18.84	-30.6	-33.4	13.2	2.51e-05	0	43	0	499122176	22	4930
2026-01-18 12:19:12.93	273.88	18.84	-30.6	-33.2	13.3	2.36e-05	0	43	0	501219328	22	4857
2026-01-18 12:19:13.93	274.12	18.84	-30.6	-33.3	13.2	1.75e-05	0	43	0	503316480	22	4917
2026-01-18 12:19:14.93	274.36	18.85	-30.7	-33.4	13.1	2.82e-05	0	43	0	505413632	22	4939
2026-01-18 12:19:15.94	274.61	18.85	-30.8	-33.8	12.9	4.73e-05	0	43	0	507510784	22	5073
2026-01-18 12:19:16.94	274.85	18.85	-30.8	-33.9	12.8	4.65e-05	0	43	0	508559360	22	5139
2026-01-18 12:19:17.95	275.09	18.85	-30.9	-34.2	12.6	7.70e-05	0	43	0	510656512	22	5249
2026-01-18 12:19:18.95	275.33	18.85	-31.0	-34.4	12.5	1.02e-04	0	43	0	512753664	22	5321
2026-01-18 12:19:19.96	275.57	18.85	-31.0	-34.5	12.4	1.21e-04	0	43	0	514850816	22	5359
2026-01-18 12:19:20.96	275.82	18.85	-31.0	-34.4	12.5	1.17e-04	0	43	0	515899392	22	5343
2026-01-18 12:19:21.97	276.06	18.85	-31.0	-34.3	12.5	1.17e-04	0	43	0	517996544	22	5292
2026-01-18 12:19:22.97	276.30	18.85	-31.0	-34.4	12.5	1.16e-04	0	43	0	520093696	22	5318
2026-01-18 12:19:23.98	276.54	18.85	-30.9	-34.0	12.7	7.62e-05	0	43	0	522190848	22	5179
2026-01-18 12:19:24.98	276.78	18.84	-30.8	-33.8	12.9	5.34e-05	0	43	0	524288000	22	5109
2026-01-18 12:19:25.98	277.02	18.84	-30.9	-34.1	12.7	6.94e-05	0	43	0	526385152	22	5203
2026-01-18 12:19:26.97	277.26	18.84	-30.9	-34.0	12.8	6.94e-05	0	43	0	527433728	22	5176
2026-01-18 12:19:27.97	277.50	18.83	-30.9	-34.3	12.5	8.46e-05	0	43	0	529530880	22	5273
2026-01-18 12:19:28.97	277.74	18.83	-30.9	-34.2	12.6	9.15e-05	0	43	0	531628032	22	5262
2026-01-18 12:19:29.97	277.99	18.82	-31.0	-34.3	12.5	1.07e-04	0	43	0	533725184	22	5297
2026-01-18 12:19:30.97	278.23	18.82	-31.0	-34.5	12.4	1.21e-04	0	43	0	534773760	22	5379
2026-01-18 12:19:31.97	278.47	18.81	-30.9	-34.1	12.7	9.00e-05	0	43	0	536870912	22	5220
2026-01-18 12:19:32.98	278.71	18.81	-30.8	-34.0	12.8	6.33e-05	0	43	0	538968064	22	5164
2026-01-18 12:19:33.98	278.95	18.80	-30.9	-34.2	12.6	8.16e-05	0	43	0	541065216	22	5242
2026-01-18 12:19:34.98	279.19	18.79	-30.9	-34.2	12.6	6.40e-05	0	43	0	543162368	22	5253
2026-01-18 12:19:35.98	279.43	18.78	-30.9	-34.2	12.6	7.17e-05	0	43	0	544210944	22	5269
2026-01-18 12:19:36.98	279.67	18.77	-30.8	-33.9	12.8	7.17e-05	0	43	0	546308096	22	5146
2026-01-18 12:19:37.99	279.91	18.77	-30.8	-33.8	12.8	5.72e-05	0	43	0	548405248	22	5092
2026-01-18 12:19:38.99	280.15	18.76	-30.8	-33.9	12.8	5.34e-05	0	43	0	550502400	22	5137
2026-01-18 12:19:39.99	280.39	18.75	-30.7	-33.6	13.0	3.58e-05	0	43	0	552599552	22	5010
2026-01-18 12:19:41.00	280.63	18.74	-30.9	-34.0	12.7	5.03e-05	0	43	0	553648128	22	5190
2026-01-18 12:19:42.00	280.87	18.73	-30.8	-33.9	12.8	6.56e-05	0	43	0	555745280	22	5115
2026-01-18 12:19:43.00	281.11	18.71	-30.9	-34.3	12.6	8.39e-05	0	43	0	557842432	22	5272
2026-01-18 12:19:44.01	281.35	18.70	-30.8	-33.9	12.8	6.48e-05	0	43	0	559939584	22	5123
2026-01-18 12:19:45.01	281.59	18.69	-30.8	-33.8	12.9	5.79e-05	0	43	0	562036736	22	5078
2026-01-18 12:19:46.01	281.83	18.68	-30.8	-33.9	12.8	5.18e-05	0	43	0	563085312	22	5154
2026-01-18 12:19:47.00	282.06	18.66	-30.9	-34.0	12.8	4.80e-05	0	43	0	565182464	22	5169
2026-01-18 12:19:48.01	282.30	18.65	-30.9	-34.1	12.7	5.79e-05	0	43	0	567279616	22	5229
2026-01-18 12:19:49.01	282.54	18.64	-31.0	-34.4	12.5	9.84e-05	0	43	0	569376768	22	5338
2026-01-18 12:19:50.02	282.78	18.62	-31.0	-34.4	12.5	1.23e-04	0	43	0	570425344	22	5333
2026-01-18 12:19:51.02	283.02	18.61	-31.1	-34.8	12.2	1.60e-04	0	43	0	572522496	22	5490
2026-01-18 12:19:52.02	283.25	18.59	-31.1	-34.6	12.3	1.88e-04	0	43	0	574619648	22	5411
2026-01-18 12:19:53.03	283.49	18.58	-31.0	-34.4	12.5	1.17e-04	0	43	0	576716800	22	5334
2026-01-18 12:19:54.03	283.73	18.56	-30.9	-34.1	12.7	1.40e-04	0	43	0	578813952	22	5225
2026-01-18 12:19:55.03	283.97	18.54	-30.9	-34.1	12.7	7.70e-05	0	43	0	579862528	22	5215
2026-01-18 12:19:56.03	284.20	18.52	-31.0	-34.4	12.5	1.01e-04	0	43	0	581959680	22	5310
2026-01-18 12:19:57.03	284.44	18.51	-30.7	-33.6	13.1	6.48e-05	0	43	0	584056832	22	5010
2026-01-18 12:19:58.03	284.67	18.49	-30.6	-33.1	13.4	2.13e-05	0	43	0	586153984	22	4840
2026-01-18 12:19:59.03	284.91	18.47	-30.5	-33.0	13.4	1.67e-05	0	43	0	588251136	22	4810
2026-01-18 12:20:00.04	285.14	18.45	-30.6	-33.3	13.3	1.29e-05	0	43	0	589299712	22	4904
2026-01-18 12:20:01.04	285.38	18.43	-30.6	-33.2	13.3	1.67e-05	0	43	0	591396864	22	4876
2026-01-18 12:20:02.03	285.61	18.41	-30.7	-33.5	13.1	2.59e-05	0	43	0	593494016	22	4983
2026-01-18 12:20:03.04	285.85	18.39	-30.7	-33.4	13.2	2.97e-05	0	43	0	595591168	22	4946
2026-01-18 12:20:04.05	286.08	18.37	-30.8	-33.8	12.9	4.73e-05	0	43	0	597688320	22	5098
2026-01-18 12:20:05.05	286.32	18.35	-30.7	-33.7	13.0	4.42e-05	0	43	0	598736896	22	5043
2026-01-18 12:20:06.06	286.55	18.33	-30.8	-33.9	12.8	4.04e-05	0	43	0	600834048	22	5133
2026-01-18 12:20:07.07	286.79	18.30	-31.0	-34.3	12.6	7.01e-05	0	43	0	602931200	22	5262
2026-01-18 12:20:08.07	287.02	18.28	-31.0	-34.3	12.6	7.32e-05	0	43	0	605028352	22	5284
2026-01-18 12:20:09.07	287.25	18.26	-30.8	-34.0	12.8	7.78e-05	0	43	0	607125504	22	5152
2026-01-18 12:20:10.07	287.48	18.23	-30.8	-33.8	12.9	4.80e-05	0	43	0	608174080	22	5099
2026-01-18 12:20:11.07	287.71	18.21	-30.8	-33.7	12.9	4.88e-05	0	43	0	610271232	22	5062
2026-01-18 12:20:12.08	287.95	18.18	-30.8	-33.9	12.8	3.96e-05	0	43	0	612368384	22	5113
2026-01-18 12:20:13.08	288.18	18.16	-30.6	-33.2	13.3	1.90e-05	0	43	0	614465536	22	4868
2026-01-18 12:20:14.09	288.41	18.13	-30.7	-33.5	13.1	3.58e-05	0	43	0	616562688	22	4978
2026-01-18 12:20:15.09	288.64	18.11	-30.5	-32.9	13.4	1.60e-05	0	43	0	617611264	22	4775
2026-01-18 12:20:16.09	288.87	18.08	-30.3	-32.5	13.7	1.22e-05	0	43	0	619708416	22	4622
2026-01-18 12:20:17.09	289.10	18.06	-30.2	-32.7	13.8	3.80e-06	0	43	0	621805568	21	4810
2026-01-18 12:20:18.10	289.33	18.03	-30.2	-32.8	13.9	3.80e-06	0	43	0	623902720	21	4830
2026-01-18 12:20:19.10	289.56	18.00	-30.4	-33.1	13.6	3.80e-06	0	43	0	624951296	21	4960
2026-01-18 12:20:20.11	289.78	17.97	-30.5	-33.5	13.4	9.10e-06	0	43	0	627048448	21	5086
2026-01-18 12:20:21.11	290.01	17.94	-30.4	-33.1	13.6	5.30e-06	0	43	0	629145600	21	4950
2026-01-18 12:20:22.11	290.24	17.92	-30.3	-33.0	13.7	3.80e-06	0	43	0	631242752	21	4918
2026-01-18 12:20:23.11	290.47	17.89	-30.4	-33.2	13.6	8.30e-06	0	43	0	633339904	21	4982
2026-01-18 12:20:24.12	290.69	17.86	-30.5	-33.4	13.5	1.60e-05	0	43	0	634388480	21	5048
2026-01-18 12:20:25.12	290.92	17.83	-30.6	-33.8	13.2	1.52e-05	0	43	0	636485632	21	5187
2026-01-18 12:20:26.12	291.14	17.80	-30.5	-33.6	13.3	1.52e-05	0	43	0	638582784	21	5138
2026-01-18 12:20:27.12	291.37	17.77	-30.7	-34.1	12.9	3.05e-05	0	43	0	640679936	21	5337
2026-01-18 12:20:28.12	291.59	17.74	-30.5	-33.5	13.4	1.83e-05	0	43	0	642777088	21	5087
2026-01-18 12:20:29.13	291.82	17.70	-30.4	-33.2	13.6	1.22e-05	0	43	0	643825664	21	4973
2026-01-18 12:20:30.13	292.04	17.67	-30.3	-33.0	13.7	6.10e-06	0	43	0	645922816	21	4918
2026-01-18 12:20:31.14	292.27	17.64	-30.3	-33.0	13.7	4.50e-06	0	43	0	648019968	21	4896
2026-01-18 12:20:32.14	292.49	17.61	-30.2	-32.8	13.8	5.30e-06	0	43	0	650117120	21	4850
2026-01-18 12:20:33.14	292.71	17.58	-30.2	-32.7	13.9	2.20e-06	0	43	0	652214272	21	4789
2026-01-18 12:20:34.15	292.93	17.54	-30.1	-32.5	14.0	3.00e-06	0	43	0	653262848	21	4751
2026-01-18 12:20:35.15	293.16	17.51	-30.2	-32.6	13.9	3.00e-06	0	43	0	655360000	21	4782
2026-01-18 12:20:36.15	293.38	17.47	-30.3	-33.0	13.7	3.00e-06	0	43	0	657457152	21	4899
2026-01-18 12:20:37.16	293.60	17.44	-30.0	-32.2	14.2	3.00e-06	0	43	0	659554304	21	4644
2026-01-18 12:20:38.16	293.82	17.40	-29.8	-31.7	14.5	0.00e+00	0	43	0	661651456	21	4467
2026-01-18 12:20:39.15	294.03	17.37	-29.7	-32.0	14.6	0.00e+00	0	43	0	662700032	20	4678
2026-01-18 12:20:40.16	294.25	17.33	-29.8	-32.1	14.6	7.00e-07	0	43	0	664797184	20	4707
2026-01-18 12:20:41.16	294.47	17.30	-29.8	-32.2	14.5	0.00e+00	0	43	0	666894336	20	4747
2026-01-18 12:20:42.16	294.69	17.26	-29.8	-32.3	14.4	0.00e+00	0	43	0	668991488	20	4770
2026-01-18 12:20:43.17	294.91	17.23	-29.9	-32.5	14.3	7.00e-07	0	43	0	670040064	20	4855
2026-01-18 12:20:44.17	295.12	17.19	-30.0	-32.7	14.2	7.00e-07	0	43	0	672137216	20	4896
2026-01-18 12:20:45.18	295.34	17.15	-30.0	-32.8	14.1	4.50e-06	0	43	0	674234368	20	4938
2026-01-18 12:20:46.19	295.56	17.11	-30.0	-32.7	14.2	3.00e-06	0	43	0	676331520	20	4925
2026-01-18 12:20:47.19	295.78	17.08	-30.1	-33.0	14.0	1.50e-06	0	43	0	678428672	20	5007
2026-01-18 12:20:48.19	295.99	17.04	-30.3	-33.4	13.8	7.60e-06	0	43	0	680525824	20	5159
2026-01-18 12:20:49.19	296.20	17.00	-29.9	-32.5	14.3	2.20e-06	0	43	0	681574400	20	4857
2026-01-18 12:20:50.19	296.42	16.96	-29.8	-32.2	14.5	7.00e-07	0	43	0	683671552	20	4734
2026-01-18 12:20:51.19	296.63	16.92	-29.7	-31.9	14.7	7.00e-07	0	43	0	685768704	20	4647
2026-01-18 12:20:52.19	296.84	16.88	-29.7	-31.8	14.7	7.00e-07	0	43	0	687865856	20	4613
2026-01-18 12:20:53.20	297.05	16.84	-29.7	-31.9	14.7	1.50e-06	0	43	0	688914432	20	4642
2026-01-18 12:20:54.20	297.27	16.80	-29.6	-31.6	14.9	0.00e+00	0	43	0	691011584	20	4543
2026-01-18 12:20:55.20	297.48	16.76	-29.6	-31.6	14.9	0.00e+00	0	43	0	693108736	20	4527
2026-01-18 12:20:56.21	297.69	16.72	-29.6	-31.6	14.9	0.00e+00	0	43	0	695205888	20	4536
2026-01-18 12:20:57.20	297.89	16.68	-29.7	-31.8	14.7	0.00e+00	0	43	0	697303040	20	4609
2026-01-18 12:20:58.20	298.10	16.64	-29.7	-31.9	14.7	0.00e+00	0	43	0	698351616	20	4628
2026-01-18 12:20:59.21	298.31	16.60	-29.9	-32.3	14.4	0.00e+00	0	43	0	700448768	20	4789
2026-01-18 12:21:00.21	298.52	16.56	-29.9	-32.4	14.4	7.00e-07	0	43	0	702545920	20	4824
2026-01-18 12:21:01.22	298.73	16.52	-30.0	-32.8	14.1	3.00e-06	0	43	0	704643072	20	4952
2026-01-18 12:21:02.22	298.94	16.47	-30.0	-32.6	14.3	0.00e+00	0	43	0	706740224	20	4869
2026-01-18 12:21:03.23	299.15	16.43	-29.9	-32.5	14.3	0.00e+00	0	43	0	707788800	20	4841
2026-01-18 12:21:04.22	299.35	16.39	-30.0	-32.6	14.3	1.50e-06	0	43	0	709885952	20	4872
2026-01-18 12:21:05.22	299.55	16.35	-30.0	-32.7	14.1	0.00e+00	0	43	0	711983104	20	4926
2026-01-18 12:21:06.23	299.76	16.30	-29.9	-32.3	14.4	2.20e-06	0	43	0	714080256	20	4788
2026-01-18 12:21:07.23	299.96	16.26	-29.9	-32.4	14.4	0.00e+00	0	43	0	716177408	20	4807
2026-01-18 12:21:08.24	300.17	16.21	-30.0	-32.6	14.3	1.50e-06	0	43	0	717225984	20	4878
2026-01-18 12:21:09.23	300.37	16.17	-29.9	-32.4	14.4	0.00e+00	0	43	0	719323136	20	4799
2026-01-18 12:21:10.24	300.57	16.13	-29.8	-32.3	14.4	0.00e+00	0	43	0	721420288	20	4764
2026-01-18 12:21:11.24	300.77	16.08	-29.8	-32.3	14.4	1.50e-06	0	43	0	723517440	20	4769
2026-01-18 12:21:12.24	300.97	16.04	-30.0	-32.8	14.1	1.50e-06	0	43	0	725614592	20	4939
2026-01-18 12:21:13.24	301.17	15.99	-30.2	-33.1	13.9	1.50e-06	0	43	0	726663168	20	5061
2026-01-18 12:21:14.24	301.37	15.95	-30.2	-33.1	13.9	4.50e-06	0	43	0	728760320	20	5066
2026-01-18 12:21:15.25	301.57	15.90	-30.3	-33.6	13.6	9.10e-06	0	43	0	730857472	20	5249
2026-01-18 12:21:16.25	301.77	15.85	-30.4	-33.8	13.5	1.06e-05	0	43	0	732954624	20	5310
2026-01-18 12:21:17.25	301.97	15.81	-30.6	-34.0	13.0	2.13e-05	0	43	0	734003200	21	5283
2026-01-18 12:21:18.25	302.17	15.76	-30.8	-34.3	12.8	5.11e-05	0	43	0	736100352	21	5412
2026-01-18 12:21:19.26	302.37	15.71	-31.0	-34.6	12.3	1.56e-04	0	43	0	738197504	22	5406
2026-01-18 12:21:20.26	302.56	15.67	-31.0	-34.5	12.3	1.69e-04	0	43	0	740294656	22	5387
2026-01-18 12:21:21.26	302.76	15.62	-31.0	-34.6	12.3	1.77e-04	0	43	0	742391808	22	5412
2026-01-18 12:21:22.26	302.95	15.57	-31.1	-34.7	12.2	2.59e-04	0	43	0	743440384	22	5478
2026-01-18 12:21:23.27	303.15	15.53	-31.1	-34.8	12.2	2.28e-04	0	43	0	745537536	22	5491
2026-01-18 12:21:24.27	303.34	15.48	-31.1	-34.9	12.0	2.78e-04	0	43	0	747634688	22	5529
2026-01-18 12:21:25.27	303.53	15.43	-31.1	-34.9	12.0	2.84e-04	0	43	0	749731840	22	5556
2026-01-18 12:21:26.28	303.73	15.38	-31.3	-35.4	11.7	6.19e-04	0	43	0	751828992	22	5772
2026-01-18 12:21:27.28	303.92	15.33	-31.1	-34.7	12.2	4.20e-04	0	43	0	752877568	22	5457
2026-01-18 12:21:28.28	304.11	15.29	-30.9	-34.3	12.4	1.72e-04	0	43	0	754974720	22	5296
2026-01-18 12:21:29.28	304.30	15.24	-30.8	-34.0	12.7	9.15e-05	0	43	0	757071872	22	5186
2026-01-18 12:21:30.29	304.49	15.19	-30.7	-33.7	12.8	7.32e-05	0	43	0	759169024	22	5084
2026-01-18 12:21:31.29	304.68	15.14	-30.7	-33.7	12.9	4.95e-05	0	43	0	761266176	22	5054
2026-01-18 12:21:32.29	304.87	15.09	-30.6	-33.4	13.0	3.12e-05	0	43	0	762314752	22	4954
2026-01-18 12:21:33.30	305.06	15.04	-30.6	-33.4	13.1	3.66e-05	0	43	0	764411904	22	4944
2026-01-18 12:21:34.31	305.25	14.99	-30.6	-33.4	13.0	3.05e-05	0	43	0	766509056	22	4972
2026-01-18 12:21:35.32	305.44	14.94	-30.7	-33.7	12.8	4.88e-05	0	43	0	768606208	22	5089
2026-01-18 12:21:36.32	305.63	14.89	-30.9	-34.1	12.6	6.94e-05	0	43	0	770703360	22	5221
2026-01-18 12:21:37.32	305.81	14.84	-30.9	-34.3	12.4	1.32e-04	0	43	0	771751936	22	5306
2026-01-18 12:21:38.33	306.00	14.79	-31.0	-34.6	12.2	1.82e-04	0	43	0	773849088	22	5444
2026-01-18 12:21:39.33	306.18	14.74	-31.0	-34.7	12.1	2.46e-04	0	43	0	775946240	22	5468
2026-01-18 12:21:40.33	306.37	14.69	-31.1	-34.8	12.1	2.56e-04	0	43	0	778043392	22	5495
2026-01-18 12:21:41.33	306.55	14.64	-31.1	-35.0	11.9	3.49e-04	0	43	0	780140544	22	5592
2026-01-18 12:21:42.33	306.73	14.59	-31.2	-35.1	11.9	4.12e-04	0	43	0	781189120	22	5634
2026-01-18 12:21:43.34	306.91	14.53	-31.2	-35.1	11.8	4.07e-04	0	43	0	783286272	22	5657
2026-01-18 12:21:44.34	307.10	14.48	-31.2	-35.2	11.8	5.07e-04	0	43	0	785383424	22	5694
2026-01-18 12:21:45.34	307.28	14.43	-31.2	-35.1	11.8	4.71e-04	0	43	0	787480576	22	5648
2026-01-18 12:21:46.35	307.46	14.38	-31.2	-35.2	11.7	6.08e-04	0	43	0	788529152	22	5711
2026-01-18 12:21:47.35	307.64	14.33	-31.2	-35.2	11.8	5.36e-04	0	43	0	790626304	22	5707
2026-01-18 12:21:48.36	307.82	14.28	-31.2	-35.3	11.7	6.16e-04	0	43	0	792723456	22	5742
2026-01-18 12:21:49.36	308.00	14.22	-31.3	-35.4	11.6	5.93e-04	0	43	0	794820608	22	5792
2026-01-18 12:21:50.36	308.17	14.17	-31.3	-35.5	11.5	7.64e-04	0	43	0	796917760	22	5832
2026-01-18 12:21:51.37	308.35	14.12	-31.2	-35.1	11.8	5.86e-04	0	43	0	797966336	22	5638
2026-01-18 12:21:52.37	308.53	14.07	-31.2	-35.0	11.9	4.20e-04	0	43	0	800063488	22	5611
2026-01-18 12:21:53.37	308.71	14.01	-31.2	-35.2	11.8	4.76e-04	0	43	0	802160640	22	5684
2026-01-18 12:21:54.38	308.88	13.96	-31.1	-34.9	12.0	3.75e-04	0	43	0	804257792	22	5553
2026-01-18 12:21:55.38	309.06	13.91	-31.2	-35.1	11.8	4.00e-04	0	43	0	806354944	22	5661
2026-01-18 12:21:56.38	309.23	13.86	-31.2	-35.1	11.8	5.52e-04	0	43	0	807403520	22	5657
2026-01-18 12:21:57.39	309.41	13.80	-31.0	-34.7	12.1	3.76e-04	0	43	0	809500672	22	5489
2026-01-18 12:21:58.39	309.58	13.75	-30.9	-34.2	12.4	1.59e-04	0	43	0	811597824	22	5280
2026-01-18 12:21:59.40	309.75	13.70	-30.8	-33.9	12.6	9.99e-05	0	43	0	813694976	22	5163
2026-01-18 12:22:00.39	309.92	13.64	-30.7	-33.8	12.7	8.69e-05	0	43	0	815792128	22	5097
2026-01-18 12:22:01.40	310.09	13.59	-30.6	-33.5	12.9	7.62e-05	0	43	0	816840704	22	4992
2026-01-18 12:22:02.41	310.27	13.53	-30.6	-33.3	13.0	4.04e-05	0	43	0	818937856	22	4942
2026-01-18 12:22:03.41	310.44	13.48	-30.6	-33.2	13.1	3.66e-05	0	43	0	821035008	22	4902
2026-01-18 12:22:04.41	310.61	13.43	-30.6	-33.4	13.0	2.97e-05	0	43	0	823132160	22	4967
2026-01-18 12:22:05.42	310.78	13.37	-30.7	-33.7	12.7	6.17e-05	0	43	0	825229312	22	5084
2026-01-18 12:22:06.42	310.94	13.32	-30.7	-33.7	12.7	7.09e-05	0	43	0	826277888	22	5091
2026-01-18 12:22:07.42	311.11	13.26	-30.8	-33.9	12.6	6.86e-05	0	43	0	828375040	22	5159
2026-01-18 12:22:08.43	311.28	13.21	-30.9	-34.1	12.4	1.41e-04	0	43	0	830472192	22	5240
2026-01-18 12:22:09.44	311.45	13.15	-30.8	-34.0	12.5	8.54e-05	0	43	0	832569344	22	5207
2026-01-18 12:22:10.44	311.61	13.10	-31.0	-34.4	12.3	1.58e-04	0	43	0	834666496	22	5363
2026-01-18 12:22:11.44	311.78	13.05	-31.0	-34.6	12.1	1.72e-04	0	43	0	835715072	22	5454
2026-01-18 12:22:12.45	311.94	12.99	-31.1	-34.9	11.9	3.45e-04	0	43	0	837812224	22	5580
2026-01-18 12:22:13.45	312.11	12.94	-31.3	-35.4	11.5	5.86e-04	0	43	0	839909376	22	5801
2026-01-18 12:22:14.45	312.27	12.88	-31.4	-35.7	11.3	9.84e-04	0	43	0	842006528	22	5924
2026-01-18 12:22:15.46	312.43	12.83	-31.4	-35.9	11.2	1.18e-03	0	43	0	844103680	22	6017
2026-01-18 12:22:16.46	312.60	12.77	-31.4	-35.8	11.2	1.57e-03	0	43	0	845152256	22	5964
2026-01-18 12:22:17.46	312.76	12.72	-31.3	-35.5	11.5	1.12e-03	0	43	0	847249408	22	5839
2026-01-18 12:22:18.46	312.92	12.66	-31.2	-35.1	11.8	5.58e-04	0	43	0	849346560	22	5644
2026-01-18 12:22:19.47	313.08	12.60	-31.0	-34.6	12.1	3.16e-04	0	44	0	851443712	22	5434
2026-01-18 12:22:20.46	313.24	12.55	-30.9	-34.4	12.2	2.32e-04	0	43	0	852492288	22	5360
2026-01-18 12:22:21.46	313.40	12.49	-30.9	-34.4	12.2	1.83e-04	0	43	0	854589440	22	5374
2026-01-18 12:22:22.46	313.56	12.44	-30.9	-34.2	12.4	2.13e-04	0	43	0	856686592	22	5286
2026-01-18 12:22:23.46	313.71	12.38	-30.8	-33.9	12.5	1.19e-04	0	43	0	858783744	22	5168
2026-01-18 12:22:24.46	313.87	12.33	-30.8	-33.9	12.6	1.52e-04	0	43	0	860880896	22	5149
2026-01-18 12:22:25.47	314.03	12.27	-30.6	-33.5	12.9	6.17e-05	0	43	0	862978048	22	5001
2026-01-18 12:22:26.48	314.19	12.22	-30.6	-33.3	13.0	4.50e-05	0	43	0	864026624	22	4938
2026-01-18 12:22:27.48	314.34	12.16	-30.7	-33.6	12.8	4.11e-05	0	43	0	866123776	22	5042
2026-01-18 12:22:28.49	314.50	12.10	-30.7	-33.7	12.7	7.70e-05	0	43	0	868220928	22	5070
2026-01-18 12:22:29.50	314.66	12.05	-30.6	-33.4	12.9	5.41e-05	0	43	0	870318080	22	4977
2026-01-18 12:22:30.50	314.81	11.99	-30.5	-33.2	13.0	4.95e-05	0	43	0	871366656	22	4916
2026-01-18 12:22:31.50	314.96	11.94	-30.5	-33.1	13.1	2.59e-05	0	43	0	873463808	22	4869
2026-01-18 12:22:32.50	315.12	11.88	-30.5	-33.3	13.0	4.95e-05	0	43	0	875560960	22	4936
2026-01-18 12:22:33.50	315.27	11.82	-30.5	-33.2	13.0	5.03e-05	0	43	0	877658112	22	4907
2026-01-18 12:22:34.51	315.42	11.77	-30.4	-33.0	13.1	2.59e-05	0	43	0	879755264	22	4834
2026-01-18 12:22:35.51	315.57	11.71	-30.5	-33.2	13.0	3.58e-05	0	43	0	880803840	22	4923
2026-01-18 12:22:36.51	315.72	11.65	-30.5	-33.3	12.9	4.88e-05	0	43	0	882900992	22	4944
2026-01-18 12:22:37.51	315.87	11.60	-30.7	-33.8	12.6	5.34e-05	0	43	0	884998144	22	5131
2026-01-18 12:22:38.51	316.02	11.54	-30.8	-34.1	12.3	1.56e-04	0	43	0	887095296	22	5252
2026-01-18 12:22:39.52	316.17	11.49	-30.8	-34.1	12.4	1.39e-04	0	43	0	889192448	22	5239
2026-01-18 12:22:40.52	316.32	11.43	-30.9	-34.2	12.3	1.79e-04	0	43	0	890241024	22	5292
2026-01-18 12:22:41.53	316.47	11.37	-30.6	-33.6	12.6	1.30e-04	0	43	0	892338176	22	5065
2026-01-18 12:22:42.54	316.62	11.31	-30.6	-33.3	12.9	5.18e-05	0	43	0	894435328	22	4955
2026-01-18 12:22:43.54	316.76	11.26	-30.6	-33.4	12.9	5.18e-05	0	43	0	896532480	22	4968
2026-01-18 12:22:44.54	316.91	11.20	-30.4	-32.9	13.1	5.11e-05	0	43	0	898629632	22	4805
2026-01-18 12:22:45.55	317.06	11.14	-30.3	-32.6	13.3	1.75e-05	0	43	0	899678208	22	4709
2026-01-18 12:22:46.55	317.20	11.09	-30.4	-32.9	13.1	2.74e-05	0	43	0	901775360	22	4793
2026-01-18 12:22:47.56	317.35	11.03	-30.4	-32.9	13.2	3.73e-05	0	43	0	903872512	22	4785
2026-01-18 12:22:48.56	317.49	10.97	-30.3	-32.7	13.3	2.82e-05	0	43	0	905969664	22	4743
2026-01-18 12:22:49.56	317.64	10.92	-30.4	-33.0	13.1	2.36e-05	0	43	0	908066816	22	4826
2026-01-18 12:22:50.56	317.78	10.86	-30.6	-33.4	12.8	4.95e-05	0	43	0	909115392	22	4981
2026-01-18 12:22:51.56	317.92	10.80	-30.6	-33.6	12.6	6.86e-05	0	43	0	911212544	22	5073
2026-01-18 12:22:52.56	318.06	10.75	-30.7	-33.9	12.5	1.16e-04	0	43	0	913309696	22	5181
2026-01-18 12:22:53.57	318.20	10.69	-30.7	-33.8	12.5	1.22e-04	0	43	0	915406848	22	5141
2026-01-18 12:22:54.57	318.35	10.63	-30.7	-33.8	12.5	9.38e-05	0	43	0	916455424	22	5134
2026-01-18 12:22:55.56	318.48	10.58	-30.7	-33.7	12.5	1.38e-04	0	43	0	918552576	22	5102
2026-01-18 12:22:56.57	318.62	10.52	-30.5	-33.3	12.8	7.40e-05	0	43	0	920649728	22	4967
2026-01-18 12:22:57.57	318.76	10.46	-30.5	-33.3	12.8	6.10e-05	0	43	0	922746880	22	4968
2026-01-18 12:22:58.57	318.90	10.41	-30.5	-33.2	12.9	7.55e-05	0	43	0	924844032	22	4920
2026-01-18 12:22:59.57	319.04	10.35	-30.5	-33.1	12.9	5.11e-05	0	43	0	925892608	22	4896
2026-01-18 12:23:00.57	319.18	10.29	-30.5	-33.1	13.0	3.89e-05	0	43	0	927989760	22	4863
2026-01-18 12:23:01.57	319.32	10.24	-30.6	-33.6	12.6	6.33e-05	0	43	0	930086912	22	5050
2026-01-18 12:23:02.57	319.45	10.18	-30.7	-33.7	12.6	8.23e-05	0	43	0	932184064	22	5100
2026-01-18 12:23:03.58	319.59	10.12	-30.7	-33.9	12.4	1.25e-04	0	43	0	934281216	22	5194
2026-01-18 12:23:04.58	319.72	10.07	-30.8	-34.1	12.2	2.14e-04	0	43	0	935329792	22	5285
2026-01-18 12:23:05.58	319.86	10.01	-30.9	-34.4	12.0	2.27e-04	0	43	0	937426944	22	5403
2026-01-18 12:23:06.59	320.00	9.95	-30.9	-34.5	11.9	3.62e-04	0	43	0	939524096	22	5439
2026-01-18 12:23:07.59	320.13	9.89	-30.9	-34.4	12.0	2.96e-04	0	43	0	941621248	22	5401
2026-01-18 12:23:08.59	320.26	9.84	-30.9	-34.4	12.0	3.41e-04	0	43	0	943718400	22	5401
2026-01-18 12:23:09.60	320.40	9.78	-31.0	-34.7	11.8	4.67e-04	0	43	0	944766976	22	5511
2026-01-18 12:23:10.61	320.53	9.72	-30.9	-34.5	11.9	4.56e-04	0	43	0	946864128	22	5436
2026-01-18 12:23:11.61	320.66	9.67	-30.7	-34.0	12.3	2.64e-04	0	43	0	948961280	22	5216
2026-01-18 12:23:12.60	320.79	9.61	-30.6	-33.6	12.5	1.42e-04	0	43	0	951058432	22	5087
2026-01-18 12:23:13.60	320.92	9.55	-30.6	-33.5	12.6	1.14e-04	0	43	0	953155584	22	5049
2026-01-18 12:23:14.60	321.05	9.50	-30.7	-33.8	12.4	1.30e-04	0	43	0	954204160	22	5140
2026-01-18 12:23:15.60	321.18	9.44	-30.6	-33.6	12.5	1.31e-04	0	43	0	956301312	22	5075
2026-01-18 12:23:16.60	321.31	9.38	-30.8	-34.0	12.2	1.80e-04	0	43	0	958398464	22	5245
2026-01-18 12:23:17.61	321.44	9.32	-30.9	-34.3	12.1	2.94e-04	0	43	0	960495616	22	5357
2026-01-18 12:23:18.61	321.57	9.27	-30.9	-34.4	12.0	2.41e-04	0	43	0	961544192	22	5404
2026-01-18 12:23:19.61	321.70	9.21	-30.9	-34.6	11.8	3.94e-04	0	43	0	963641344	22	5469
2026-01-18 12:23:20.62	321.83	9.15	-31.0	-34.7	11.8	4.24e-04	0	43	0	965738496	22	5507
2026-01-18 12:23:21.62	321.96	9.10	-31.0	-34.7	11.7	5.64e-04	0	43	0	967835648	22	5548
2026-01-18 12:23:22.61	322.08	9.04	-31.0	-34.9	11.6	7.69e-04	0	43	0	969932800	22	5620
2026-01-18 12:23:23.62	322.21	8.98	-31.0	-34.8	11.7	6.79e-04	0	43	0	970981376	22	5565
2026-01-18 12:23:24.63	322.34	8.93	-31.1	-35.0	11.5	6.16e-04	0	43	0	973078528	22	5670
2026-01-18 12:23:25.63	322.46	8.87	-31.0	-34.8	11.6	8.33e-04	0	43	0	975175680	22	5595
2026-01-18 12:23:26.63	322.59	8.81	-31.0	-34.8	11.6	5.97e-04	0	43	0	977272832	22	5569
2026-01-18 12:23:27.63	322.71	8.76	-31.0	-34.8	11.6	6.16e-04	0	43	0	979369984	22	5584
2026-01-18 12:23:28.64	322.83	8.70	-31.1	-35.2	11.3	8.32e-04	0	43	0	980418560	22	5785
2026-01-18 12:23:29.64	322.96	8.64	-31.1	-35.2	11.3	1.27e-03	0	43	0	982515712	22	5766
2026-01-18 12:23:30.64	323.08	8.58	-31.2	-35.6	11.0	1.36e-03	0	43	0	984612864	22	5951
2026-01-18 12:23:31.65	323.20	8.53	-31.3	-35.7	11.0	1.94e-03	0	43	0	986710016	22	5977
2026-01-18 12:23:32.65	323.33	8.47	-31.3	-35.9	10.7	1.94e-03	0	43	0	988807168	22	6099
2026-01-18 12:23:33.65	323.45	8.41	-31.3	-35.8	10.8	2.69e-03	0	43	0	989855744	22	6068
2026-01-18 12:23:34.64	323.57	8.36	-31.4	-36.1	10.6	3.10e-03	0	43	0	991952896	22	6194
2026-01-18 12:23:35.64	323.69	8.30	-31.3	-35.9	10.8	3.43e-03	0	43	0	994050048	22	6098
2026-01-18 12:23:36.64	323.81	8.24	-31.3	-35.7	10.9	2.16e-03	0	43	0	996147200	22	6014
2026-01-18 12:23:37.64	323.93	8.19	-31.3	-35.9	10.8	2.60e-03	0	43	0	998244352	22	6078
2026-01-18 12:23:38.65	324.05	8.13	-31.3	-35.8	10.9	2.50e-03	0	43	0	999292928	22	6040
2026-01-18 12:23:39.65	324.17	8.07	-31.3	-35.8	10.9	2.12e-03	0	43	0	1001390080	22	6047
2026-01-18 12:23:40.65	324.29	8.02	-31.3	-35.8	10.8	2.28e-03	0	43	0	1003487232	22	6032
2026-01-18 12:23:41.66	324.40	7.96	-31.3	-35.9	10.7	3.41e-03	0	43	0	1005584384	22	6102
2026-01-18 12:23:42.66	324.52	7.90	-31.5	-36.2	10.1	4.17e-03	0	43	0	1006632960	23	6152
2026-01-18 12:23:43.66	324.64	7.85	-31.5	-36.0	10.3	5.99e-03	0	43	0	1008730112	23	6052
2026-01-18 12:23:44.67	324.76	7.79	-31.4	-35.9	10.3	4.86e-03	0	43	0	1010827264	23	6003
2026-01-18 12:23:45.68	324.87	7.73	-31.6	-36.3	10.0	5.11e-03	0	43	0	1012924416	23	6224
2026-01-18 12:23:46.68	324.99	7.68	-31.6	-36.3	10.0	8.20e-03	0	43	0	1015021568	23	6209
2026-01-18 12:23:47.69	325.11	7.62	-31.6	-36.4	9.9	8.32e-03	0	43	0	1016070144	23	6280
2026-01-18 12:23:48.68	325.22	7.57	-31.6	-36.5	9.8	1.20e-02	0	43	0	1018167296	23	6311
2026-01-18 12:23:49.69	325.34	7.51	-31.5	-36.2	10.1	7.63e-03	0	43	0	1020264448	23	6153
2026-01-18 12:23:50.68	325.45	7.45	-31.5	-36.0	10.2	6.13e-03	0	43	0	1022361600	23	6080
2026-01-18 12:23:51.68	325.56	7.40	-31.5	-35.9	10.3	5.25e-03	0	43	0	1024458752	23	6038
2026-01-18 12:23:52.68	325.68	7.34	-31.4	-35.7	10.5	4.38e-03	0	43	0	1025507328	23	5906
2026-01-18 12:23:53.69	325.79	7.28	-31.3	-35.3	10.8	3.24e-03	0	43	0	1027604480	23	5707
2026-01-18 12:23:54.68	325.90	7.23	-31.2	-35.1	10.9	2.17e-03	0	43	0	1029701632	23	5653
2026-01-18 12:23:55.69	326.01	7.17	-31.2	-35.2	10.8	2.39e-03	0	43	0	1031798784	23	5705
2026-01-18 12:23:56.70	326.13	7.12	-31.2	-35.0	10.9	2.73e-03	0	43	0	1033895936	23	5599
2026-01-18 12:23:57.70	326.24	7.06	-33.5	-47.5	3.8	6.37e-01	0	43	104	1034944512	27	18010
2026-01-18 12:23:58.70	326.35	7.00	-33.8	-48.2	3.8	1.49e+00	0	43	104	1034944512	27	18791

#Closed at: 2026-01-18 12:23:59
#Recorded file [1034 MB]: D:/data/31010_260118_151445.dat