passes_logs/2026/01/18/R2M6_AANII_01/R2M6_AANII_01__20260118_161628_FENGYUN_3E_rec.log

#Pass ID: 20260118_161628_FENGYUN 3E
#Satellite: FENGYUN 3E
#Configuration: FENGYUN 3E
#almurnet v.1.7.20240730
#Start time: 2026-01-18 16:16:27

#Version: 2.2.20231116
#Station: R2M6_AANII_01
#Location: 30.233357 lon 59.946436 lat
#TLE: 1 49008U 21062A   26017.61301378  .00000104  00000+0  69808-4 0  9996
#TLE: 2 49008  98.7484  22.7108 0002130 132.1860 227.9498 14.19886007235218

#Time	Az	El	Level	Level2	SNR	BER	BlckErr	Temp	State	Recorded	gain1	gain2
2026-01-18 16:16:27.73	215.19	6.97	-27.8	-28.7	5.7	7.41e-01	0	41	0	0	16	4012
2026-01-18 16:16:28.74	215.29	7.03	-29.1	-31.4	5.5	7.55e-01	0	41	104	0	17	4736
2026-01-18 16:16:29.74	215.39	7.10	-29.6	-31.6	9.6	1.16e-02	0	41	0	0	19	4577
2026-01-18 16:16:30.74	215.49	7.16	-29.4	-31.3	9.9	9.51e-03	0	41	0	7340032	19	4450
2026-01-18 16:16:31.75	215.59	7.22	-29.6	-31.7	9.6	9.78e-03	0	41	0	14680064	19	4611
2026-01-18 16:16:32.75	215.69	7.28	-29.3	-31.0	10.1	7.96e-03	0	41	0	22020096	19	4368
2026-01-18 16:16:33.75	215.79	7.35	-28.8	-30.1	11.0	2.46e-03	0	41	0	28311552	18	4213
2026-01-18 16:16:34.75	215.89	7.41	-28.6	-29.6	11.4	1.10e-03	0	41	0	35651584	18	4042
2026-01-18 16:16:35.74	215.99	7.47	-28.0	-28.8	12.1	1.91e-04	0	41	0	42991616	17	3936
2026-01-18 16:16:36.75	216.09	7.53	-27.9	-28.5	12.3	1.52e-04	0	41	0	50331648	17	3856
2026-01-18 16:16:37.75	216.19	7.60	-28.0	-29.1	12.3	1.40e-04	0	41	0	57671680	16	4119
2026-01-18 16:16:38.75	216.29	7.66	-27.6	-28.2	12.8	9.38e-05	0	41	0	65011712	16	3881
2026-01-18 16:16:39.75	216.39	7.72	-27.5	-27.9	13.0	3.54e-05	0	42	0	72351744	16	3804
2026-01-18 16:16:40.76	216.50	7.79	-27.5	-28.6	12.7	6.63e-05	0	42	0	79691776	15	4085
2026-01-18 16:16:41.76	216.60	7.85	-27.1	-27.7	13.2	3.20e-05	0	42	0	85983232	15	3864
2026-01-18 16:16:42.77	216.71	7.91	-27.6	-28.8	12.6	4.92e-05	0	42	0	93323264	15	4141
2026-01-18 16:16:43.77	216.81	7.98	-27.5	-28.5	12.8	8.35e-05	0	42	0	100663296	15	4050
2026-01-18 16:16:44.77	216.92	8.04	-27.2	-27.9	13.2	1.48e-05	0	42	0	108003328	15	3894
2026-01-18 16:16:45.78	217.02	8.10	-27.5	-28.7	12.7	1.45e-04	0	42	0	115343360	15	4102
2026-01-18 16:16:46.78	217.13	8.17	-27.6	-28.7	12.6	1.15e-04	0	42	0	122683392	15	4121
2026-01-18 16:16:47.78	217.23	8.23	-27.8	-29.4	12.3	1.12e-04	0	42	0	130023424	15	4292
2026-01-18 16:16:48.78	217.34	8.29	-27.5	-28.7	12.7	8.23e-05	0	42	0	137363456	15	4104
2026-01-18 16:16:49.78	217.45	8.36	-27.3	-28.2	13.0	4.11e-05	0	42	0	144703488	15	3968
2026-01-18 16:16:50.78	217.55	8.42	-27.1	-27.6	13.3	8.00e-06	0	42	0	152043520	15	3829
2026-01-18 16:16:51.79	217.66	8.48	-26.9	-27.2	13.6	8.00e-06	0	42	0	159383552	15	3731
2026-01-18 16:16:52.80	217.77	8.55	-26.9	-27.7	13.6	5.70e-06	0	42	0	166723584	14	3937
2026-01-18 16:16:53.80	217.88	8.61	-26.9	-27.7	13.6	6.80e-06	0	42	0	173015040	14	3950
2026-01-18 16:16:54.80	217.99	8.68	-26.9	-27.8	13.6	6.80e-06	0	42	0	180355072	14	3960
2026-01-18 16:16:55.80	218.10	8.74	-27.2	-28.4	13.2	1.37e-05	0	42	0	187695104	14	4131
2026-01-18 16:16:56.80	218.21	8.81	-27.0	-27.9	13.5	1.14e-05	0	42	0	195035136	14	4006
2026-01-18 16:16:57.80	218.32	8.87	-26.8	-27.3	13.9	4.50e-06	0	42	0	202375168	14	3853
2026-01-18 16:16:58.80	218.43	8.93	-27.0	-27.9	13.6	5.70e-06	0	42	0	209715200	14	3985
2026-01-18 16:16:59.81	218.54	9.00	-26.8	-27.6	13.8	8.00e-06	0	42	0	217055232	14	3905
2026-01-18 16:17:00.82	218.66	9.06	-27.1	-28.2	13.5	8.00e-06	0	42	0	224395264	14	4058
2026-01-18 16:17:01.82	218.77	9.13	-26.8	-27.5	13.8	2.20e-06	0	42	0	230686720	14	3902
2026-01-18 16:17:02.82	218.88	9.19	-26.8	-27.5	13.8	5.70e-06	0	42	0	238026752	14	3888
2026-01-18 16:17:03.82	218.99	9.26	-26.9	-27.8	13.7	4.50e-06	0	42	0	245366784	14	3969
2026-01-18 16:17:04.83	219.11	9.32	-27.0	-27.8	13.6	2.20e-06	0	42	0	252706816	14	3970
2026-01-18 16:17:05.83	219.22	9.39	-26.9	-27.7	13.7	0.00e+00	0	42	0	260046848	14	3932
2026-01-18 16:17:06.83	219.34	9.45	-26.9	-27.7	13.7	6.80e-06	0	42	0	267386880	14	3953
2026-01-18 16:17:07.83	219.45	9.52	-26.9	-27.6	13.7	2.20e-06	0	42	0	274726912	14	3922
2026-01-18 16:17:08.83	219.57	9.58	-27.2	-28.4	13.3	1.48e-05	0	42	0	282066944	14	4122
2026-01-18 16:17:09.84	219.69	9.65	-27.0	-27.8	13.7	8.00e-06	0	42	0	289406976	14	3966
2026-01-18 16:17:10.83	219.80	9.71	-26.6	-26.9	14.2	0.00e+00	0	42	0	296747008	14	3747
2026-01-18 16:17:11.84	219.92	9.78	-26.7	-27.1	14.1	2.20e-06	0	42	0	304087040	14	3791
2026-01-18 16:17:12.85	220.04	9.84	-26.6	-27.0	14.1	2.20e-06	0	42	0	311427072	14	3767
2026-01-18 16:17:13.85	220.16	9.91	-26.8	-27.4	13.9	0.00e+00	0	42	0	317718528	14	3874
2026-01-18 16:17:14.86	220.28	9.98	-26.6	-27.0	14.2	1.10e-06	0	42	0	325058560	14	3762
2026-01-18 16:17:15.86	220.40	10.04	-26.7	-27.2	14.1	3.40e-06	0	42	0	332398592	14	3799
2026-01-18 16:17:16.87	220.52	10.11	-26.7	-27.2	14.1	2.20e-06	0	42	0	339738624	14	3803
2026-01-18 16:17:17.87	220.64	10.17	-26.9	-27.6	13.8	1.10e-06	0	42	0	347078656	14	3923
2026-01-18 16:17:18.88	220.76	10.24	-26.9	-27.6	13.8	9.10e-06	0	42	0	354418688	14	3918
2026-01-18 16:17:19.88	220.88	10.30	-26.9	-27.7	13.8	6.80e-06	0	42	0	361758720	14	3928
2026-01-18 16:17:20.89	221.01	10.37	-26.8	-27.4	13.9	1.10e-06	0	43	0	369098752	14	3861
2026-01-18 16:17:21.89	221.13	10.44	-27.2	-28.3	13.5	6.80e-06	0	43	0	376438784	14	4105
2026-01-18 16:17:22.89	221.25	10.50	-26.9	-27.6	13.8	4.50e-06	0	43	0	383778816	14	3923
2026-01-18 16:17:23.88	221.38	10.57	-26.9	-27.6	13.9	0.00e+00	0	42	0	391118848	14	3909
2026-01-18 16:17:24.89	221.50	10.63	-26.8	-27.4	14.0	1.10e-06	0	43	0	398458880	14	3854
2026-01-18 16:17:25.89	221.63	10.70	-26.9	-27.6	13.9	0.00e+00	0	42	0	404750336	14	3907
2026-01-18 16:17:26.90	221.75	10.77	-26.6	-27.1	14.2	3.40e-06	0	43	0	412090368	14	3787
2026-01-18 16:17:27.90	221.88	10.83	-26.8	-27.5	13.9	2.20e-06	0	43	0	419430400	14	3894
2026-01-18 16:17:28.90	222.00	10.90	-26.8	-27.4	14.0	0.00e+00	0	42	0	426770432	14	3869
2026-01-18 16:17:29.90	222.13	10.97	-26.7	-27.3	14.1	0.00e+00	0	43	0	434110464	14	3831
2026-01-18 16:17:30.90	222.26	11.03	-26.8	-27.4	14.0	1.10e-06	0	43	0	441450496	14	3863
2026-01-18 16:17:31.91	222.39	11.10	-26.7	-27.3	14.1	2.20e-06	0	43	0	448790528	14	3836
2026-01-18 16:17:32.91	222.52	11.17	-26.6	-27.0	14.3	0.00e+00	0	43	0	456130560	14	3756
2026-01-18 16:17:33.92	222.65	11.23	-26.7	-27.1	14.2	0.00e+00	0	43	0	462422016	14	3797
2026-01-18 16:17:34.92	222.78	11.30	-26.7	-27.1	14.2	0.00e+00	0	42	0	469762048	14	3789
2026-01-18 16:17:35.92	222.91	11.37	-26.7	-27.1	14.2	0.00e+00	0	43	0	477102080	14	3793
2026-01-18 16:17:36.92	223.04	11.43	-26.5	-26.8	14.4	0.00e+00	0	43	0	484442112	14	3726
2026-01-18 16:17:37.93	223.17	11.50	-26.6	-26.8	14.4	0.00e+00	0	43	0	491782144	14	3725
2026-01-18 16:17:38.93	223.30	11.57	-26.3	-26.8	14.6	1.10e-06	0	43	0	499122176	13	3811
2026-01-18 16:17:39.94	223.44	11.64	-26.4	-27.1	14.5	0.00e+00	0	43	0	506462208	13	3876
2026-01-18 16:17:40.93	223.57	11.70	-26.4	-26.9	14.6	0.00e+00	0	43	0	513802240	13	3846
2026-01-18 16:17:41.94	223.70	11.77	-26.3	-26.8	14.7	0.00e+00	0	43	0	521142272	13	3818
2026-01-18 16:17:42.95	223.84	11.84	-26.6	-27.4	14.3	1.10e-06	0	43	0	528482304	13	3960
2026-01-18 16:17:43.96	223.98	11.90	-26.4	-27.1	14.5	1.10e-06	0	43	0	535822336	13	3887
2026-01-18 16:17:44.96	224.11	11.97	-26.4	-27.0	14.6	1.10e-06	0	43	0	543162368	13	3862
2026-01-18 16:17:45.96	224.25	12.04	-26.4	-27.1	14.5	0.00e+00	0	43	0	549453824	13	3877
2026-01-18 16:17:46.96	224.39	12.11	-26.4	-27.0	14.6	1.10e-06	0	43	0	556793856	13	3853
2026-01-18 16:17:47.96	224.52	12.17	-26.4	-27.1	14.6	1.10e-06	0	43	0	564133888	13	3876
2026-01-18 16:17:48.97	224.66	12.24	-26.3	-26.9	14.7	0.00e+00	0	43	0	571473920	13	3836
2026-01-18 16:17:49.97	224.80	12.31	-26.3	-26.7	14.8	0.00e+00	0	43	0	578813952	13	3780
2026-01-18 16:17:50.97	224.94	12.38	-26.5	-27.2	14.5	3.40e-06	0	43	0	586153984	13	3903
2026-01-18 16:17:51.97	225.08	12.44	-26.4	-27.0	14.6	0.00e+00	0	43	0	593494016	13	3852
2026-01-18 16:17:52.96	225.22	12.51	-26.3	-26.7	14.7	0.00e+00	0	43	0	600834048	13	3792
2026-01-18 16:17:53.96	225.36	12.58	-26.2	-26.6	14.9	0.00e+00	0	43	0	608174080	13	3753
2026-01-18 16:17:54.96	225.50	12.64	-26.3	-26.8	14.7	0.00e+00	0	43	0	614465536	13	3814
2026-01-18 16:17:55.97	225.65	12.71	-26.5	-27.1	14.5	1.10e-06	0	43	0	621805568	13	3892
2026-01-18 16:17:56.96	225.79	12.78	-26.6	-27.3	14.4	1.10e-06	0	43	0	629145600	13	3937
2026-01-18 16:17:57.97	225.93	12.85	-26.4	-27.1	14.6	0.00e+00	0	43	0	636485632	13	3877
2026-01-18 16:17:58.97	226.08	12.91	-26.5	-27.2	14.5	0.00e+00	0	43	0	643825664	13	3917
2026-01-18 16:17:59.97	226.22	12.98	-26.6	-27.3	14.4	0.00e+00	0	43	0	651165696	13	3945
2026-01-18 16:18:00.98	226.37	13.05	-26.6	-27.5	14.4	0.00e+00	0	43	0	658505728	13	3973
2026-01-18 16:18:01.99	226.52	13.12	-26.7	-27.6	14.3	1.10e-06	0	43	0	665845760	13	4005
2026-01-18 16:18:03.00	226.67	13.19	-26.4	-26.9	14.7	0.00e+00	0	43	0	673185792	13	3840
2026-01-18 16:18:04.00	226.81	13.25	-26.2	-26.4	14.9	0.00e+00	0	43	0	680525824	13	3723
2026-01-18 16:18:05.00	226.96	13.32	-26.0	-26.2	15.1	0.00e+00	0	43	0	687865856	13	3668
2026-01-18 16:18:06.00	227.11	13.39	-26.1	-26.3	15.1	0.00e+00	0	43	0	694157312	13	3689
2026-01-18 16:18:07.00	227.26	13.46	-25.9	-26.3	15.3	0.00e+00	0	43	0	701497344	12	3792
2026-01-18 16:18:08.00	227.41	13.53	-25.8	-26.2	15.4	0.00e+00	0	43	0	708837376	12	3767
2026-01-18 16:18:09.01	227.56	13.59	-25.8	-26.1	15.4	0.00e+00	0	43	0	716177408	12	3746
2026-01-18 16:18:10.01	227.71	13.66	-25.7	-26.1	15.5	0.00e+00	0	43	0	723517440	12	3730
2026-01-18 16:18:11.01	227.87	13.73	-25.8	-26.2	15.4	0.00e+00	0	43	0	730857472	12	3752
2026-01-18 16:18:12.00	228.02	13.80	-25.7	-25.9	15.6	0.00e+00	0	43	0	738197504	12	3698
2026-01-18 16:18:13.01	228.17	13.86	-25.7	-25.9	15.6	0.00e+00	0	43	0	745537536	12	3687
2026-01-18 16:18:14.00	228.32	13.93	-25.7	-25.9	15.6	0.00e+00	0	43	0	752877568	12	3694
2026-01-18 16:18:15.00	228.48	14.00	-25.6	-25.7	15.7	0.00e+00	0	43	0	759169024	12	3641
2026-01-18 16:18:16.00	228.64	14.07	-25.6	-25.8	15.6	0.00e+00	0	43	0	766509056	12	3676
2026-01-18 16:18:17.00	228.79	14.13	-25.9	-26.3	15.4	0.00e+00	0	43	0	773849088	12	3777
2026-01-18 16:18:18.00	228.95	14.20	-25.6	-25.6	15.7	0.00e+00	0	43	0	781189120	12	3629
2026-01-18 16:18:19.01	229.11	14.27	-25.5	-25.5	15.8	0.00e+00	0	43	0	788529152	12	3588
2026-01-18 16:18:20.01	229.27	14.34	-25.4	-25.7	16.1	0.00e+00	0	43	0	795869184	11	3734
2026-01-18 16:18:21.02	229.43	14.41	-25.5	-25.9	15.9	0.00e+00	0	43	0	803209216	11	3794
2026-01-18 16:18:22.02	229.59	14.47	-25.6	-26.3	15.7	0.00e+00	0	43	0	810549248	11	3879
2026-01-18 16:18:23.02	229.75	14.54	-25.5	-26.1	15.9	0.00e+00	0	43	0	817889280	11	3835
2026-01-18 16:18:24.03	229.91	14.61	-25.8	-26.6	15.5	0.00e+00	0	43	0	824180736	11	3965
2026-01-18 16:18:25.03	230.07	14.68	-25.8	-26.6	15.6	0.00e+00	0	43	0	832569344	11	3957
2026-01-18 16:18:26.04	230.24	14.75	-25.7	-26.4	15.7	0.00e+00	0	43	0	839909376	11	3901
2026-01-18 16:18:27.04	230.40	14.81	-25.8	-26.6	15.6	0.00e+00	0	43	0	846200832	11	3970
2026-01-18 16:18:28.04	230.56	14.88	-25.7	-26.4	15.7	0.00e+00	0	43	0	853540864	11	3906
2026-01-18 16:18:29.04	230.73	14.95	-25.7	-26.5	15.7	0.00e+00	0	43	0	860880896	11	3941
2026-01-18 16:18:30.04	230.89	15.02	-25.6	-26.2	15.8	0.00e+00	0	43	0	868220928	11	3853
2026-01-18 16:18:31.04	231.06	15.08	-25.5	-26.1	15.9	0.00e+00	0	43	0	875560960	11	3843
2026-01-18 16:18:32.04	231.23	15.15	-25.7	-26.5	15.7	0.00e+00	0	43	0	882900992	11	3925
2026-01-18 16:18:33.04	231.39	15.22	-25.4	-25.8	16.1	0.00e+00	0	43	0	890241024	11	3755
2026-01-18 16:18:34.05	231.57	15.29	-25.5	-26.0	15.9	0.00e+00	0	43	0	897581056	11	3813
2026-01-18 16:18:35.05	231.73	15.35	-25.4	-25.7	16.1	0.00e+00	0	43	0	903872512	11	3743
2026-01-18 16:18:36.05	231.90	15.42	-25.3	-25.5	16.2	0.00e+00	0	43	0	911212544	11	3709
2026-01-18 16:18:37.05	232.07	15.49	-25.4	-25.8	16.0	0.00e+00	0	43	0	918552576	11	3776
2026-01-18 16:18:38.06	232.25	15.55	-25.3	-25.7	16.1	0.00e+00	0	43	0	925892608	11	3728
2026-01-18 16:18:39.06	232.42	15.62	-25.4	-25.9	16.0	0.00e+00	0	43	0	933232640	11	3790
2026-01-18 16:18:40.06	232.59	15.69	-25.4	-25.7	16.1	0.00e+00	0	43	0	940572672	11	3735
2026-01-18 16:18:41.07	232.77	15.76	-25.3	-25.5	16.3	0.00e+00	0	43	0	947912704	11	3687
2026-01-18 16:18:42.08	232.94	15.82	-25.3	-25.5	16.2	0.00e+00	0	43	0	955252736	11	3689
2026-01-18 16:18:43.08	233.12	15.89	-25.3	-25.6	16.2	0.00e+00	0	43	0	962592768	11	3720
2026-01-18 16:18:44.09	233.30	15.96	-25.7	-26.4	15.8	1.10e-06	0	43	0	969932800	11	3907
2026-01-18 16:18:45.09	233.47	16.02	-25.4	-25.8	16.1	0.00e+00	0	43	0	977272832	11	3773
2026-01-18 16:18:46.09	233.65	16.09	-25.3	-25.6	16.2	0.00e+00	0	43	0	984612864	11	3719
2026-01-18 16:18:47.09	233.83	16.16	-25.2	-25.4	16.3	0.00e+00	0	43	0	990904320	11	3669
2026-01-18 16:18:48.10	234.01	16.22	-25.2	-25.4	16.3	0.00e+00	0	43	0	998244352	11	3682
2026-01-18 16:18:49.10	234.19	16.29	-25.2	-25.3	16.4	0.00e+00	0	43	0	1005584384	11	3646
2026-01-18 16:18:50.10	234.37	16.36	-25.3	-25.5	16.3	0.00e+00	0	43	0	1012924416	11	3685
2026-01-18 16:18:51.10	234.55	16.42	-25.1	-25.2	16.4	0.00e+00	0	43	0	1020264448	11	3637
2026-01-18 16:18:52.10	234.74	16.49	-25.1	-25.1	16.5	0.00e+00	0	43	0	1027604480	11	3604
2026-01-18 16:18:53.10	234.92	16.55	-25.3	-25.6	16.2	0.00e+00	0	43	0	1034944512	11	3720
2026-01-18 16:18:54.11	235.10	16.62	-25.4	-25.7	16.2	0.00e+00	0	43	0	1042284544	11	3741
2026-01-18 16:18:55.12	235.29	16.69	-25.3	-25.6	16.2	0.00e+00	0	43	0	1048576000	11	3711
2026-01-18 16:18:56.12	235.48	16.75	-25.3	-25.6	16.2	0.00e+00	0	43	0	1055916032	11	3726
2026-01-18 16:18:57.12	235.66	16.82	-25.5	-26.1	16.0	0.00e+00	0	43	0	1063256064	11	3824
2026-01-18 16:18:58.13	235.85	16.88	-25.3	-25.6	16.3	0.00e+00	0	43	0	1070596096	11	3709
2026-01-18 16:18:59.13	236.04	16.95	-25.1	-25.2	16.4	2.20e-06	0	43	0	1077936128	11	3625
2026-01-18 16:19:00.13	236.23	17.02	-25.1	-25.1	16.5	0.00e+00	0	43	0	1085276160	11	3594
2026-01-18 16:19:01.14	236.42	17.08	-25.2	-25.4	16.4	0.00e+00	0	43	0	1092616192	11	3672
2026-01-18 16:19:02.14	236.61	17.15	-25.0	-25.0	16.6	1.10e-06	0	43	0	1099956224	11	3578
2026-01-18 16:19:03.14	236.80	17.21	-24.9	-24.7	16.7	0.00e+00	0	43	0	1107296256	11	3514
2026-01-18 16:19:04.15	236.99	17.28	-25.0	-24.9	16.7	0.00e+00	0	43	0	1114636288	11	3551
2026-01-18 16:19:05.16	237.19	17.34	-24.9	-24.8	16.7	0.00e+00	0	43	0	1121976320	11	3534
2026-01-18 16:19:06.16	237.38	17.41	-25.0	-24.8	16.7	0.00e+00	0	43	0	1129316352	11	3529
2026-01-18 16:19:07.16	237.57	17.47	-25.1	-25.1	16.5	0.00e+00	0	43	0	1135607808	11	3598
2026-01-18 16:19:08.16	237.77	17.53	-24.9	-24.6	16.8	0.00e+00	0	43	0	1142947840	11	3502
2026-01-18 16:19:09.16	237.96	17.60	-24.8	-25.1	16.8	0.00e+00	0	43	0	1150287872	10	3693
2026-01-18 16:19:10.17	238.16	17.66	-24.9	-25.1	16.8	0.00e+00	0	44	0	1157627904	10	3697
2026-01-18 16:19:11.17	238.36	17.73	-24.9	-25.1	16.8	0.00e+00	0	43	0	1164967936	10	3697
2026-01-18 16:19:12.17	238.56	17.79	-24.8	-24.9	16.9	0.00e+00	0	44	0	1172307968	10	3663
2026-01-18 16:19:13.17	238.76	17.85	-24.8	-25.0	16.9	0.00e+00	0	43	0	1179648000	10	3678
2026-01-18 16:19:14.18	238.96	17.92	-25.0	-25.3	16.7	0.00e+00	0	44	0	1186988032	10	3743
2026-01-18 16:19:15.18	239.16	17.98	-24.7	-24.8	16.9	0.00e+00	0	43	0	1194328064	10	3637
2026-01-18 16:19:16.18	239.36	18.04	-24.9	-25.1	16.8	0.00e+00	0	43	0	1201668096	10	3695
2026-01-18 16:19:17.19	239.56	18.10	-24.9	-25.2	16.8	0.00e+00	0	43	0	1209008128	10	3713
2026-01-18 16:19:18.19	239.77	18.17	-24.8	-25.0	16.9	0.00e+00	0	43	0	1216348160	10	3667
2026-01-18 16:19:19.19	239.97	18.23	-24.9	-25.3	16.7	0.00e+00	0	43	0	1222639616	10	3736
2026-01-18 16:19:20.19	240.18	18.29	-24.9	-25.2	16.7	0.00e+00	0	43	0	1229979648	10	3728
2026-01-18 16:19:21.19	240.38	18.35	-24.9	-25.3	16.8	0.00e+00	0	43	0	1237319680	10	3745
2026-01-18 16:19:22.19	240.59	18.41	-25.0	-25.4	16.7	0.00e+00	0	43	0	1244659712	10	3764
2026-01-18 16:19:23.20	240.80	18.48	-25.3	-26.0	16.4	0.00e+00	0	43	0	1251999744	10	3900
2026-01-18 16:19:24.20	241.00	18.54	-25.2	-25.7	16.5	0.00e+00	0	43	0	1259339776	10	3847
2026-01-18 16:19:25.20	241.21	18.60	-25.0	-25.4	16.7	0.00e+00	0	43	0	1266679808	10	3764
2026-01-18 16:19:26.20	241.42	18.66	-25.1	-25.6	16.6	0.00e+00	0	44	0	1274019840	10	3805
2026-01-18 16:19:27.20	241.63	18.72	-24.8	-25.0	16.9	0.00e+00	0	43	0	1280311296	10	3678
2026-01-18 16:19:28.20	241.84	18.78	-24.8	-24.9	16.9	0.00e+00	0	44	0	1287651328	10	3659
2026-01-18 16:19:29.19	242.05	18.84	-24.9	-25.1	16.9	0.00e+00	0	44	0	1294991360	10	3688
2026-01-18 16:19:30.20	242.27	18.90	-24.8	-24.9	16.9	0.00e+00	0	44	0	1302331392	10	3661
2026-01-18 16:19:31.20	242.48	18.96	-24.6	-24.6	17.1	0.00e+00	0	44	0	1309671424	10	3598
2026-01-18 16:19:32.21	242.70	19.02	-24.6	-24.5	17.1	0.00e+00	0	43	0	1317011456	10	3567
2026-01-18 16:19:33.21	242.91	19.08	-24.6	-24.5	17.2	0.00e+00	0	43	0	1324351488	10	3562
2026-01-18 16:19:34.21	243.13	19.14	-24.7	-24.7	17.1	0.00e+00	0	43	0	1331691520	10	3613
2026-01-18 16:19:35.21	243.35	19.20	-24.7	-24.8	17.0	0.00e+00	0	44	0	1339031552	10	3631
2026-01-18 16:19:36.21	243.56	19.25	-24.9	-25.1	16.8	0.00e+00	0	44	0	1345323008	10	3704
2026-01-18 16:19:37.21	243.78	19.31	-24.6	-24.5	17.2	0.00e+00	0	44	0	1352663040	10	3558
2026-01-18 16:19:38.21	244.00	19.37	-24.6	-24.4	17.2	0.00e+00	0	44	0	1360003072	10	3548
2026-01-18 16:19:39.21	244.22	19.43	-24.6	-24.6	17.1	0.00e+00	0	43	0	1367343104	10	3583
2026-01-18 16:19:40.21	244.44	19.48	-24.6	-24.5	17.2	0.00e+00	0	44	0	1374683136	10	3571
2026-01-18 16:19:41.21	244.66	19.54	-24.9	-25.2	16.8	0.00e+00	0	44	0	1382023168	10	3730
2026-01-18 16:19:42.22	244.89	19.60	-25.1	-25.7	16.6	0.00e+00	0	43	0	1389363200	10	3835
2026-01-18 16:19:43.22	245.11	19.65	-24.9	-25.1	16.8	0.00e+00	0	44	0	1396703232	10	3709
2026-01-18 16:19:44.23	245.34	19.71	-24.8	-24.9	17.0	0.00e+00	0	44	0	1404043264	10	3645
2026-01-18 16:19:45.24	245.57	19.77	-24.7	-24.8	17.0	0.00e+00	0	44	0	1411383296	10	3637
2026-01-18 16:19:46.25	245.79	19.82	-24.8	-24.9	17.0	0.00e+00	0	44	0	1418723328	10	3649
2026-01-18 16:19:47.25	246.02	19.88	-24.7	-24.8	17.1	0.00e+00	0	43	0	1426063360	10	3626
2026-01-18 16:19:48.24	246.25	19.93	-24.8	-24.9	17.0	0.00e+00	0	43	0	1432354816	10	3642
2026-01-18 16:19:49.24	246.47	19.99	-24.8	-24.9	17.0	0.00e+00	0	44	0	1439694848	10	3657
2026-01-18 16:19:50.23	246.70	20.04	-25.1	-25.6	16.7	0.00e+00	0	44	0	1447034880	10	3804
2026-01-18 16:19:51.24	246.93	20.09	-24.8	-25.0	17.0	0.00e+00	0	44	0	1454374912	10	3673
2026-01-18 16:19:52.23	247.16	20.15	-24.7	-24.9	17.0	0.00e+00	0	43	0	1461714944	10	3650
2026-01-18 16:19:53.24	247.39	20.20	-24.8	-24.9	17.0	0.00e+00	0	44	0	1469054976	10	3652
2026-01-18 16:19:54.24	247.62	20.25	-24.7	-24.8	17.1	0.00e+00	0	44	0	1476395008	10	3631
2026-01-18 16:19:55.24	247.86	20.31	-24.6	-24.6	17.2	0.00e+00	0	44	0	1483735040	10	3586
2026-01-18 16:19:56.25	248.09	20.36	-24.7	-24.6	17.2	0.00e+00	0	44	0	1490026496	10	3596
2026-01-18 16:19:57.24	248.33	20.41	-24.6	-24.6	17.2	0.00e+00	0	44	0	1497366528	10	3589
2026-01-18 16:19:58.25	248.56	20.46	-24.3	-24.3	17.6	0.00e+00	0	44	0	1504706560	9	3620
2026-01-18 16:19:59.25	248.80	20.51	-24.2	-24.1	17.7	0.00e+00	0	43	0	1512046592	9	3567
2026-01-18 16:20:00.26	249.04	20.56	-24.2	-24.1	17.7	0.00e+00	0	44	0	1519386624	9	3577
2026-01-18 16:20:01.26	249.27	20.61	-24.3	-24.4	17.5	0.00e+00	0	43	0	1526726656	9	3644
2026-01-18 16:20:02.26	249.51	20.66	-24.5	-24.8	17.3	0.00e+00	0	44	0	1534066688	9	3729
2026-01-18 16:20:03.26	249.75	20.71	-24.4	-24.7	17.4	0.00e+00	0	44	0	1541406720	9	3694
2026-01-18 16:20:04.27	249.99	20.76	-24.5	-24.7	17.4	0.00e+00	0	44	0	1548746752	9	3713
2026-01-18 16:20:05.27	250.23	20.81	-24.5	-24.8	17.3	0.00e+00	0	43	0	1555038208	9	3725
2026-01-18 16:20:06.28	250.48	20.86	-24.6	-25.1	17.2	0.00e+00	0	44	0	1562378240	9	3789
2026-01-18 16:20:07.29	250.72	20.91	-24.4	-24.6	17.4	0.00e+00	0	44	0	1570766848	9	3679
2026-01-18 16:20:08.29	250.96	20.95	-24.4	-24.7	17.4	0.00e+00	0	43	0	1577058304	9	3701
2026-01-18 16:20:09.29	251.21	21.00	-24.6	-25.0	17.3	0.00e+00	0	44	0	1584398336	9	3768
2026-01-18 16:20:10.29	251.45	21.05	-24.9	-25.6	17.0	0.00e+00	0	44	0	1591738368	9	3914
2026-01-18 16:20:11.30	251.70	21.09	-24.5	-24.9	17.3	0.00e+00	0	44	0	1599078400	9	3748
2026-01-18 16:20:12.30	251.94	21.14	-24.5	-24.8	17.4	0.00e+00	0	43	0	1606418432	9	3726
2026-01-18 16:20:13.30	252.19	21.18	-24.5	-24.9	17.3	0.00e+00	0	43	0	1613758464	9	3756
2026-01-18 16:20:14.31	252.44	21.23	-24.5	-24.8	17.3	0.00e+00	0	44	0	1621098496	9	3741
2026-01-18 16:20:15.32	252.69	21.27	-24.5	-24.8	17.3	0.00e+00	0	44	0	1628438528	9	3742
2026-01-18 16:20:16.32	252.94	21.32	-24.6	-25.0	17.2	0.00e+00	0	44	0	1634729984	9	3787
2026-01-18 16:20:17.32	253.19	21.36	-24.4	-24.7	17.4	0.00e+00	0	44	0	1642070016	9	3699
2026-01-18 16:20:18.32	253.43	21.40	-24.5	-24.7	17.4	0.00e+00	0	43	0	1649410048	9	3712
2026-01-18 16:20:19.32	253.68	21.45	-24.5	-24.7	17.4	0.00e+00	0	44	0	1656750080	9	3718
2026-01-18 16:20:20.32	253.94	21.49	-24.5	-24.7	17.4	0.00e+00	0	44	0	1664090112	9	3718
2026-01-18 16:20:21.33	254.19	21.53	-24.6	-24.9	17.3	0.00e+00	0	44	0	1671430144	9	3761
2026-01-18 16:20:22.32	254.44	21.57	-24.5	-24.8	17.4	0.00e+00	0	44	0	1678770176	9	3729
2026-01-18 16:20:23.32	254.69	21.61	-24.5	-24.9	17.3	0.00e+00	0	44	0	1686110208	9	3752
2026-01-18 16:20:24.32	254.95	21.65	-24.5	-24.9	17.3	0.00e+00	0	44	0	1693450240	9	3759
2026-01-18 16:20:25.32	255.20	21.69	-24.6	-25.1	17.2	0.00e+00	0	44	0	1699741696	9	3801
2026-01-18 16:20:26.33	255.46	21.73	-24.4	-24.7	17.4	0.00e+00	0	43	0	1707081728	9	3706
2026-01-18 16:20:27.33	255.71	21.77	-24.4	-24.5	17.5	0.00e+00	0	44	0	1715470336	9	3670
2026-01-18 16:20:28.34	255.97	21.81	-24.5	-24.7	17.4	0.00e+00	0	43	0	1721761792	9	3719
2026-01-18 16:20:29.35	256.23	21.84	-24.5	-24.8	17.4	0.00e+00	0	44	0	1729101824	9	3729
2026-01-18 16:20:30.35	256.49	21.88	-24.4	-24.6	17.5	0.00e+00	0	44	0	1736441856	9	3680
2026-01-18 16:20:31.36	256.75	21.92	-24.5	-24.8	17.4	0.00e+00	0	43	0	1743781888	9	3736
2026-01-18 16:20:32.37	257.01	21.95	-24.3	-24.4	17.6	0.00e+00	0	44	0	1751121920	9	3649
2026-01-18 16:20:33.37	257.27	21.99	-24.3	-24.4	17.6	0.00e+00	0	44	0	1758461952	9	3632
2026-01-18 16:20:34.37	257.53	22.02	-24.2	-24.2	17.7	0.00e+00	0	44	0	1765801984	9	3605
2026-01-18 16:20:35.37	257.79	22.06	-24.2	-24.1	17.7	0.00e+00	0	44	0	1773142016	9	3574
2026-01-18 16:20:36.38	258.05	22.09	-24.2	-24.2	17.7	0.00e+00	0	44	0	1780482048	9	3605
2026-01-18 16:20:37.38	258.31	22.12	-24.0	-23.8	17.9	0.00e+00	0	43	0	1786773504	9	3512
2026-01-18 16:20:38.38	258.57	22.16	-24.0	-23.8	17.9	0.00e+00	0	44	0	1794113536	9	3504
2026-01-18 16:20:39.38	258.83	22.19	-24.1	-23.9	17.9	0.00e+00	0	44	0	1801453568	9	3535
2026-01-18 16:20:40.38	259.10	22.22	-24.0	-23.7	18.0	0.00e+00	0	44	0	1808793600	9	3476
2026-01-18 16:20:41.38	259.36	22.25	-24.0	-23.8	17.9	0.00e+00	0	44	0	1816133632	9	3509
2026-01-18 16:20:42.38	259.62	22.28	-24.1	-23.9	17.9	0.00e+00	0	44	0	1823473664	9	3532
2026-01-18 16:20:43.39	259.89	22.31	-24.0	-23.8	17.9	0.00e+00	0	44	0	1830813696	9	3500
2026-01-18 16:20:44.39	260.15	22.34	-24.0	-23.8	17.9	0.00e+00	0	44	0	1838153728	9	3508
2026-01-18 16:20:45.39	260.42	22.37	-24.0	-23.8	18.0	0.00e+00	0	44	0	1845493760	9	3503
2026-01-18 16:20:46.39	260.68	22.39	-23.8	-23.8	18.2	0.00e+00	0	44	0	1852833792	8	3607
2026-01-18 16:20:47.39	260.95	22.42	-23.8	-23.8	18.2	0.00e+00	0	44	0	1860173824	8	3607
2026-01-18 16:20:48.40	261.22	22.45	-23.8	-23.8	18.2	0.00e+00	0	44	0	1866465280	8	3594
2026-01-18 16:20:49.40	261.49	22.47	-23.9	-24.0	18.1	0.00e+00	0	44	0	1873805312	8	3655
2026-01-18 16:20:50.40	261.75	22.50	-24.0	-24.3	17.9	0.00e+00	0	44	0	1881145344	8	3717
2026-01-18 16:20:51.41	262.02	22.52	-24.2	-24.7	17.7	0.00e+00	0	44	0	1888485376	8	3813
2026-01-18 16:20:52.42	262.29	22.55	-24.2	-24.7	17.7	0.00e+00	0	44	0	1895825408	8	3803
2026-01-18 16:20:53.43	262.57	22.57	-24.3	-24.8	17.7	0.00e+00	0	44	0	1903165440	8	3840
2026-01-18 16:20:54.43	262.84	22.60	-24.2	-24.6	17.7	0.00e+00	0	44	0	1910505472	8	3796
2026-01-18 16:20:55.42	263.10	22.62	-24.1	-24.5	17.8	0.00e+00	0	43	0	1917845504	8	3757
2026-01-18 16:20:56.43	263.37	22.64	-24.0	-24.3	17.9	0.00e+00	0	44	0	1925185536	8	3724
2026-01-18 16:20:57.43	263.64	22.66	-24.0	-24.2	18.0	0.00e+00	0	44	0	1932525568	8	3682
2026-01-18 16:20:58.44	263.92	22.68	-24.1	-24.5	17.8	0.00e+00	0	44	0	1939865600	8	3755
2026-01-18 16:20:59.44	264.19	22.70	-24.1	-24.4	17.9	0.00e+00	0	44	0	1947205632	8	3739
2026-01-18 16:21:00.44	264.46	22.72	-24.1	-24.5	17.9	0.00e+00	0	44	0	1953497088	8	3758
2026-01-18 16:21:01.45	264.73	22.74	-24.2	-24.7	17.7	0.00e+00	0	44	0	1960837120	8	3803
2026-01-18 16:21:02.45	265.00	22.76	-24.1	-24.5	17.9	0.00e+00	0	44	0	1968177152	8	3758
2026-01-18 16:21:03.45	265.28	22.77	-24.1	-24.5	17.8	1.10e-06	0	44	0	1975517184	8	3771
2026-01-18 16:21:04.46	265.55	22.79	-24.2	-24.6	17.8	0.00e+00	0	44	0	1982857216	8	3794
2026-01-18 16:21:05.46	265.82	22.81	-24.1	-24.5	17.9	0.00e+00	0	43	0	1990197248	8	3763
2026-01-18 16:21:06.47	266.10	22.82	-24.2	-24.8	17.7	0.00e+00	0	44	0	1997537280	8	3831
2026-01-18 16:21:07.47	266.37	22.84	-24.2	-24.6	17.8	0.00e+00	0	44	0	2004877312	8	3798
2026-01-18 16:21:08.47	266.65	22.85	-24.2	-24.6	17.8	0.00e+00	0	44	0	2012217344	8	3784
2026-01-18 16:21:09.48	266.92	22.86	-24.1	-24.5	17.8	0.00e+00	0	44	0	2018508800	8	3773
2026-01-18 16:21:10.48	267.20	22.88	-24.0	-24.3	18.0	0.00e+00	0	44	0	2025848832	8	3720
2026-01-18 16:21:11.48	267.47	22.89	-24.2	-24.7	17.7	0.00e+00	0	44	0	2034237440	8	3816
2026-01-18 16:21:12.49	267.75	22.90	-24.3	-24.9	17.6	0.00e+00	0	44	0	2040528896	8	3858
2026-01-18 16:21:13.50	268.02	22.91	-24.3	-24.9	17.6	0.00e+00	0	44	0	2047868928	8	3854
2026-01-18 16:21:14.50	268.30	22.92	-24.4	-25.0	17.6	0.00e+00	0	44	0	2055208960	8	3881
2026-01-18 16:21:15.51	268.58	22.93	-24.3	-24.9	17.6	0.00e+00	0	44	0	2062548992	8	3869
2026-01-18 16:21:16.51	268.85	22.94	-24.3	-24.9	17.6	0.00e+00	0	44	0	2069889024	8	3849
2026-01-18 16:21:17.52	269.13	22.95	-24.3	-24.8	17.7	0.00e+00	0	44	0	2077229056	8	3834
2026-01-18 16:21:18.53	269.41	22.95	-24.3	-25.0	17.6	0.00e+00	0	44	0	2084569088	8	3878
2026-01-18 16:21:19.53	269.68	22.96	-24.2	-24.8	17.7	0.00e+00	0	44	0	2091909120	8	3822
2026-01-18 16:21:20.52	269.95	22.96	-24.0	-24.3	17.9	0.00e+00	0	44	0	2098200576	8	3724
2026-01-18 16:21:21.53	270.23	22.97	-24.0	-24.2	18.0	0.00e+00	0	44	0	2105540608	8	3682
2026-01-18 16:21:22.53	270.51	22.97	-24.0	-24.2	18.0	0.00e+00	0	44	0	2112880640	8	3685
2026-01-18 16:21:23.53	270.78	22.98	-24.0	-24.2	18.0	0.00e+00	0	44	0	2120220672	8	3689
2026-01-18 16:21:24.53	271.06	22.98	-24.1	-24.5	17.9	0.00e+00	0	44	0	2127560704	8	3760
2026-01-18 16:21:25.53	271.33	22.98	-24.0	-24.3	17.9	0.00e+00	0	44	0	2134900736	8	3720
2026-01-18 16:21:26.54	271.61	22.99	-24.0	-24.3	18.0	0.00e+00	0	44	0	2142240768	8	3707
2026-01-18 16:21:27.54	271.89	22.99	-24.0	-24.3	17.9	0.00e+00	0	44	0	2149580800	8	3722
2026-01-18 16:21:28.54	272.16	22.99	-24.1	-24.4	17.9	0.00e+00	0	44	0	2156920832	8	3732
2026-01-18 16:21:29.54	272.44	22.99	-24.0	-24.3	17.9	0.00e+00	0	44	0	2164260864	8	3712
2026-01-18 16:21:30.55	272.72	22.99	-24.0	-24.3	17.9	0.00e+00	0	44	0	2171600896	8	3716
2026-01-18 16:21:31.55	272.99	22.99	-24.1	-24.4	17.9	0.00e+00	0	44	0	2178940928	8	3727
2026-01-18 16:21:32.55	273.27	22.98	-24.0	-24.3	18.0	0.00e+00	0	44	0	2185232384	8	3719
2026-01-18 16:21:33.55	273.54	22.98	-24.1	-24.5	17.8	0.00e+00	0	44	0	2192572416	8	3767
2026-01-18 16:21:34.56	273.82	22.98	-24.2	-24.6	17.8	0.00e+00	0	43	0	2199912448	8	3793
2026-01-18 16:21:35.56	274.10	22.97	-24.3	-24.8	17.7	0.00e+00	0	44	0	2207252480	8	3839
2026-01-18 16:21:36.56	274.37	22.97	-24.3	-24.8	17.7	0.00e+00	0	44	0	2214592512	8	3835
2026-01-18 16:21:37.57	274.65	22.96	-24.3	-24.9	17.6	0.00e+00	0	44	0	2221932544	8	3859
2026-01-18 16:21:38.57	274.92	22.96	-24.2	-24.8	17.7	0.00e+00	0	44	0	2229272576	8	3827
2026-01-18 16:21:39.57	275.20	22.95	-24.4	-25.2	17.5	0.00e+00	0	44	0	2236612608	8	3931
2026-01-18 16:21:40.57	275.47	22.94	-24.4	-25.1	17.5	0.00e+00	0	44	0	2242904064	8	3910
2026-01-18 16:21:41.58	275.75	22.93	-24.3	-24.8	17.7	0.00e+00	0	44	0	2250244096	8	3832
2026-01-18 16:21:42.58	276.03	22.92	-24.2	-24.6	17.8	0.00e+00	0	44	0	2258632704	8	3779
2026-01-18 16:21:43.59	276.30	22.91	-24.3	-24.8	17.7	0.00e+00	0	44	0	2264924160	8	3827
2026-01-18 16:21:44.58	276.58	22.90	-24.2	-24.7	17.7	0.00e+00	0	44	0	2272264192	8	3805
2026-01-18 16:21:45.59	276.85	22.89	-24.3	-24.9	17.7	0.00e+00	0	44	0	2279604224	8	3842
2026-01-18 16:21:46.59	277.13	22.88	-24.4	-25.1	17.6	0.00e+00	0	44	0	2286944256	8	3896
2026-01-18 16:21:47.59	277.40	22.87	-24.3	-24.8	17.7	0.00e+00	0	44	0	2294284288	8	3839
2026-01-18 16:21:48.60	277.68	22.86	-24.1	-24.4	17.9	0.00e+00	0	44	0	2301624320	8	3733
2026-01-18 16:21:49.60	277.95	22.84	-24.0	-24.2	18.0	0.00e+00	0	44	0	2308964352	8	3703
2026-01-18 16:21:50.61	278.22	22.83	-24.1	-24.4	17.9	0.00e+00	0	44	0	2316304384	8	3751
2026-01-18 16:21:51.61	278.50	22.81	-24.2	-24.7	17.8	0.00e+00	0	44	0	2323644416	8	3797
2026-01-18 16:21:52.61	278.77	22.80	-24.2	-24.7	17.7	0.00e+00	0	44	0	2329935872	8	3810
2026-01-18 16:21:53.61	279.04	22.78	-24.2	-24.7	17.7	0.00e+00	0	44	0	2337275904	8	3811
2026-01-18 16:21:54.62	279.32	22.77	-24.4	-25.0	17.6	0.00e+00	0	44	0	2344615936	8	3887
2026-01-18 16:21:55.62	279.59	22.75	-24.3	-24.8	17.7	0.00e+00	0	44	0	2351955968	8	3833
2026-01-18 16:21:56.62	279.86	22.73	-24.1	-24.4	17.9	0.00e+00	0	44	0	2359296000	8	3742
2026-01-18 16:21:57.63	280.13	22.71	-24.0	-24.3	18.0	0.00e+00	0	44	0	2366636032	8	3714
2026-01-18 16:21:58.63	280.40	22.69	-24.1	-24.5	17.8	0.00e+00	0	44	0	2373976064	8	3765
2026-01-18 16:21:59.64	280.68	22.67	-24.3	-24.8	17.7	0.00e+00	0	44	0	2381316096	8	3834
2026-01-18 16:22:00.64	280.94	22.65	-24.3	-24.9	17.6	0.00e+00	0	44	0	2388656128	8	3856
2026-01-18 16:22:01.64	281.21	22.63	-24.3	-24.9	17.6	0.00e+00	0	44	0	2395996160	8	3851
2026-01-18 16:22:02.64	281.48	22.61	-24.4	-25.0	17.6	0.00e+00	0	44	0	2403336192	8	3885
2026-01-18 16:22:03.65	281.75	22.58	-24.3	-25.0	17.6	0.00e+00	0	44	0	2410676224	8	3869
2026-01-18 16:22:04.65	282.02	22.56	-24.3	-24.9	17.6	0.00e+00	0	44	0	2416967680	8	3852
2026-01-18 16:22:05.64	282.29	22.54	-24.3	-24.9	17.6	0.00e+00	0	44	0	2424307712	8	3862
2026-01-18 16:22:06.64	282.56	22.51	-24.3	-24.9	17.6	0.00e+00	0	44	0	2431647744	8	3856
2026-01-18 16:22:07.64	282.82	22.49	-24.2	-24.8	17.7	0.00e+00	0	44	0	2438987776	8	3820
2026-01-18 16:22:08.63	283.09	22.46	-24.3	-24.8	17.7	0.00e+00	0	44	0	2446327808	8	3841
2026-01-18 16:22:09.64	283.36	22.44	-24.4	-25.0	17.6	0.00e+00	0	44	0	2453667840	8	3884
2026-01-18 16:22:10.64	283.62	22.41	-24.4	-25.1	17.6	0.00e+00	0	44	0	2461007872	8	3897
2026-01-18 16:22:11.64	283.89	22.38	-24.5	-25.3	17.5	0.00e+00	0	44	0	2468347904	8	3944
2026-01-18 16:22:12.64	284.15	22.36	-24.4	-25.2	17.5	0.00e+00	0	44	0	2474639360	8	3914
2026-01-18 16:22:13.64	284.42	22.33	-24.3	-24.9	17.6	0.00e+00	0	44	0	2481979392	8	3853
2026-01-18 16:22:14.65	284.68	22.30	-24.3	-24.8	17.6	0.00e+00	0	44	0	2489319424	8	3835
2026-01-18 16:22:15.65	284.95	22.27	-24.4	-25.0	17.6	0.00e+00	0	44	0	2496659456	8	3882
2026-01-18 16:22:16.66	285.21	22.24	-24.2	-24.7	17.8	0.00e+00	0	44	0	2503999488	8	3796
2026-01-18 16:22:17.66	285.47	22.21	-24.2	-24.7	17.8	0.00e+00	0	44	0	2511339520	8	3798
2026-01-18 16:22:18.67	285.74	22.17	-24.2	-24.7	17.7	0.00e+00	0	44	0	2518679552	8	3801
2026-01-18 16:22:19.66	286.00	22.14	-24.3	-24.8	17.7	0.00e+00	0	44	0	2526019584	8	3816
2026-01-18 16:22:20.66	286.26	22.11	-24.5	-25.3	17.5	0.00e+00	0	44	0	2533359616	8	3940
2026-01-18 16:22:21.66	286.52	22.08	-24.6	-25.0	17.4	0.00e+00	0	44	0	2539651072	9	3764
2026-01-18 16:22:22.66	286.78	22.04	-24.5	-24.8	17.4	0.00e+00	0	44	0	2546991104	9	3722
2026-01-18 16:22:23.67	287.04	22.01	-24.5	-24.9	17.4	0.00e+00	0	44	0	2554331136	9	3746
2026-01-18 16:22:24.67	287.30	21.97	-24.4	-24.6	17.5	0.00e+00	0	44	0	2561671168	9	3672
2026-01-18 16:22:25.67	287.56	21.94	-24.4	-24.7	17.5	0.00e+00	0	44	0	2569011200	9	3704
2026-01-18 16:22:26.67	287.81	21.90	-24.4	-24.7	17.5	0.00e+00	0	44	0	2576351232	9	3704
2026-01-18 16:22:27.67	288.07	21.87	-24.4	-24.6	17.5	0.00e+00	0	44	0	2583691264	9	3696
2026-01-18 16:22:28.67	288.33	21.83	-24.3	-24.5	17.6	0.00e+00	0	44	0	2591031296	9	3649
2026-01-18 16:22:29.67	288.58	21.79	-24.4	-24.7	17.5	0.00e+00	0	44	0	2598371328	9	3704
2026-01-18 16:22:30.68	288.84	21.76	-24.5	-24.8	17.4	0.00e+00	0	44	0	2604662784	9	3736
2026-01-18 16:22:31.68	289.09	21.72	-24.6	-24.9	17.4	0.00e+00	0	44	0	2612002816	9	3756
2026-01-18 16:22:32.68	289.35	21.68	-24.6	-25.1	17.3	0.00e+00	0	44	0	2619342848	9	3797
2026-01-18 16:22:33.68	289.60	21.64	-24.6	-25.0	17.3	0.00e+00	0	44	0	2626682880	9	3784
2026-01-18 16:22:34.69	289.86	21.60	-24.6	-25.0	17.3	0.00e+00	0	44	0	2634022912	9	3783
2026-01-18 16:22:35.69	290.11	21.56	-24.7	-25.3	17.2	0.00e+00	0	44	0	2641362944	9	3834
2026-01-18 16:22:36.69	290.36	21.52	-24.8	-25.4	17.1	0.00e+00	0	44	0	2648702976	9	3861
2026-01-18 16:22:37.70	290.61	21.48	-24.8	-25.4	17.1	0.00e+00	0	44	0	2656043008	9	3862
2026-01-18 16:22:38.70	290.86	21.43	-24.8	-25.3	17.1	0.00e+00	0	44	0	2663383040	9	3853
2026-01-18 16:22:39.71	291.11	21.39	-24.7	-25.1	17.2	0.00e+00	0	44	0	2670723072	9	3808
2026-01-18 16:22:40.71	291.36	21.35	-24.6	-25.0	17.3	0.00e+00	0	44	0	2678063104	9	3779
2026-01-18 16:22:41.72	291.61	21.30	-24.6	-25.0	17.3	0.00e+00	0	44	0	2684354560	9	3784
2026-01-18 16:22:42.72	291.86	21.26	-24.6	-25.0	17.3	0.00e+00	0	44	0	2691694592	9	3765
2026-01-18 16:22:43.73	292.11	21.22	-24.6	-25.0	17.3	0.00e+00	0	44	0	2699034624	9	3765
2026-01-18 16:22:44.73	292.35	21.17	-24.6	-25.0	17.3	0.00e+00	0	44	0	2706374656	9	3765
2026-01-18 16:22:45.73	292.60	21.13	-24.6	-25.0	17.3	0.00e+00	0	44	0	2713714688	9	3774
2026-01-18 16:22:46.74	292.85	21.08	-24.6	-25.1	17.2	0.00e+00	0	44	0	2721054720	9	3792
2026-01-18 16:22:47.74	293.09	21.04	-24.5	-24.9	17.4	0.00e+00	0	44	0	2728394752	9	3749
2026-01-18 16:22:48.74	293.33	20.99	-24.7	-25.2	17.2	0.00e+00	0	44	0	2735734784	9	3814
2026-01-18 16:22:49.75	293.58	20.94	-24.7	-25.2	17.2	0.00e+00	0	44	0	2743074816	9	3819
2026-01-18 16:22:50.76	293.82	20.89	-24.8	-25.4	17.1	0.00e+00	0	44	0	2750414848	9	3858
2026-01-18 16:22:51.76	294.06	20.85	-24.9	-25.6	17.0	0.00e+00	0	44	0	2757754880	9	3925
2026-01-18 16:22:52.77	294.30	20.80	-24.9	-25.7	16.9	0.00e+00	0	44	0	2765094912	9	3946
2026-01-18 16:22:53.77	294.54	20.75	-25.0	-25.9	16.8	0.00e+00	0	44	0	2771386368	9	3985
2026-01-18 16:22:54.77	294.78	20.70	-25.1	-25.6	16.7	0.00e+00	0	44	0	2778726400	10	3810
2026-01-18 16:22:55.78	295.02	20.65	-25.3	-26.0	16.6	0.00e+00	0	44	0	2786066432	10	3891
2026-01-18 16:22:56.78	295.26	20.60	-25.1	-25.5	16.8	0.00e+00	0	44	0	2793406464	10	3780
2026-01-18 16:22:57.78	295.49	20.55	-25.1	-25.6	16.7	0.00e+00	0	44	0	2800746496	10	3796
2026-01-18 16:22:58.79	295.73	20.50	-25.1	-25.6	16.8	0.00e+00	0	44	0	2808086528	10	3801
2026-01-18 16:22:59.78	295.96	20.45	-24.9	-25.2	17.0	0.00e+00	0	44	0	2815426560	10	3706
2026-01-18 16:23:00.79	296.20	20.40	-25.1	-25.5	16.8	0.00e+00	0	44	0	2822766592	10	3798
2026-01-18 16:23:01.79	296.43	20.35	-25.1	-25.5	16.8	0.00e+00	0	44	0	2830106624	10	3790
2026-01-18 16:23:02.80	296.67	20.29	-25.1	-25.6	16.7	0.00e+00	0	44	0	2837446656	10	3804
2026-01-18 16:23:03.80	296.90	20.24	-25.3	-26.1	16.5	0.00e+00	0	44	0	2844786688	10	3916
2026-01-18 16:23:04.80	297.13	20.19	-25.1	-25.6	16.7	0.00e+00	0	44	0	2851078144	10	3809
2026-01-18 16:23:05.81	297.36	20.14	-24.9	-25.1	17.0	0.00e+00	0	44	0	2858418176	10	3686
2026-01-18 16:23:06.81	297.59	20.08	-24.7	-24.8	17.2	0.00e+00	0	44	0	2865758208	10	3622
2026-01-18 16:23:07.82	297.82	20.03	-24.6	-24.6	17.2	0.00e+00	0	44	0	2873098240	10	3587
2026-01-18 16:23:08.82	298.05	19.98	-24.7	-24.8	17.1	0.00e+00	0	44	0	2880438272	10	3629
2026-01-18 16:23:09.82	298.28	19.92	-24.8	-25.0	17.0	0.00e+00	0	44	0	2887778304	10	3672
2026-01-18 16:23:10.82	298.50	19.87	-24.8	-25.0	17.1	0.00e+00	0	44	0	2895118336	10	3667
2026-01-18 16:23:11.82	298.73	19.81	-24.9	-25.2	16.9	0.00e+00	0	44	0	2902458368	10	3723
2026-01-18 16:23:12.82	298.95	19.76	-25.0	-25.4	16.8	0.00e+00	0	44	0	2909798400	10	3752
2026-01-18 16:23:13.82	299.18	19.70	-25.2	-25.8	16.7	0.00e+00	0	44	0	2916089856	10	3845
2026-01-18 16:23:14.83	299.40	19.65	-25.1	-25.6	16.7	0.00e+00	0	44	0	2923429888	10	3817
2026-01-18 16:23:15.83	299.62	19.59	-25.3	-25.9	16.6	0.00e+00	0	44	0	2930769920	10	3880
2026-01-18 16:23:16.84	299.85	19.53	-25.4	-26.1	16.4	0.00e+00	0	44	0	2938109952	10	3934
2026-01-18 16:23:17.84	300.07	19.48	-25.3	-26.1	16.4	0.00e+00	0	44	0	2945449984	10	3928
2026-01-18 16:23:18.84	300.29	19.42	-25.4	-26.1	16.4	0.00e+00	0	44	0	2952790016	10	3940
2026-01-18 16:23:19.85	300.51	19.36	-25.5	-26.4	16.3	1.10e-06	0	44	0	2960130048	10	3999
2026-01-18 16:23:20.85	300.73	19.30	-25.3	-26.0	16.5	0.00e+00	0	44	0	2967470080	10	3912
2026-01-18 16:23:21.85	300.94	19.25	-25.2	-25.8	16.6	0.00e+00	0	44	0	2974810112	10	3850
2026-01-18 16:23:22.86	301.16	19.19	-25.1	-25.6	16.7	0.00e+00	0	44	0	2982150144	10	3813
2026-01-18 16:23:23.87	301.38	19.13	-25.1	-25.6	16.7	0.00e+00	0	44	0	2989490176	10	3801
2026-01-18 16:23:24.87	301.60	19.07	-25.1	-25.6	16.7	0.00e+00	0	44	0	2996830208	10	3795
2026-01-18 16:23:25.87	301.81	19.01	-25.1	-25.6	16.7	0.00e+00	0	44	0	3003121664	10	3801
2026-01-18 16:23:26.88	302.03	18.95	-25.3	-26.1	16.4	0.00e+00	0	44	0	3010461696	10	3928
2026-01-18 16:23:27.88	302.24	18.89	-25.2	-25.8	16.6	0.00e+00	0	44	0	3017801728	10	3857
2026-01-18 16:23:28.88	302.45	18.83	-25.1	-25.5	16.7	0.00e+00	0	44	0	3025141760	10	3792
2026-01-18 16:23:29.89	302.66	18.77	-25.1	-25.6	16.7	0.00e+00	0	44	0	3032481792	10	3804
2026-01-18 16:23:30.89	302.87	18.71	-25.1	-25.6	16.7	0.00e+00	0	44	0	3039821824	10	3817
2026-01-18 16:23:31.89	303.08	18.65	-25.1	-25.5	16.8	0.00e+00	0	44	0	3047161856	10	3792
2026-01-18 16:23:32.89	303.29	18.59	-25.1	-25.6	16.7	0.00e+00	0	44	0	3054501888	10	3816
2026-01-18 16:23:33.89	303.50	18.53	-25.1	-25.5	16.7	0.00e+00	0	44	0	3061841920	10	3782
2026-01-18 16:23:34.89	303.70	18.47	-25.1	-25.6	16.7	0.00e+00	0	44	0	3069181952	10	3808
2026-01-18 16:23:35.90	303.91	18.41	-25.1	-25.5	16.7	0.00e+00	0	44	0	3076521984	10	3794
2026-01-18 16:23:36.90	304.12	18.35	-25.2	-25.7	16.6	0.00e+00	0	44	0	3082813440	10	3845
2026-01-18 16:23:37.91	304.32	18.29	-25.3	-26.0	16.5	0.00e+00	0	44	0	3090153472	10	3905
2026-01-18 16:23:38.91	304.53	18.22	-25.3	-26.0	16.5	0.00e+00	0	44	0	3097493504	10	3899
2026-01-18 16:23:39.92	304.73	18.16	-25.4	-26.2	16.4	0.00e+00	0	44	0	3104833536	10	3958
2026-01-18 16:23:40.92	304.93	18.10	-25.3	-26.1	16.4	0.00e+00	0	44	0	3112173568	10	3934
2026-01-18 16:23:41.93	305.14	18.04	-25.4	-26.3	16.3	0.00e+00	0	44	0	3119513600	10	3970
2026-01-18 16:23:42.94	305.34	17.97	-25.6	-26.6	16.1	0.00e+00	0	44	0	3126853632	10	4058
2026-01-18 16:23:43.93	305.54	17.91	-25.5	-26.3	16.3	0.00e+00	0	44	0	3134193664	10	3986
2026-01-18 16:23:44.94	305.74	17.85	-25.5	-26.5	16.2	0.00e+00	0	44	0	3141533696	10	4035
2026-01-18 16:23:45.94	305.93	17.79	-25.7	-26.4	16.0	0.00e+00	0	44	0	3148873728	11	3895
2026-01-18 16:23:46.95	306.13	17.72	-26.0	-26.9	15.7	0.00e+00	0	44	0	3156213760	11	4026
2026-01-18 16:23:47.95	306.33	17.66	-25.7	-26.4	16.0	0.00e+00	0	44	0	3163553792	11	3892
2026-01-18 16:23:48.96	306.53	17.60	-25.5	-25.8	16.3	0.00e+00	0	44	0	3169845248	11	3766
2026-01-18 16:23:49.96	306.72	17.53	-25.4	-25.8	16.3	0.00e+00	0	44	0	3177185280	11	3750
2026-01-18 16:23:50.96	306.92	17.47	-25.4	-25.7	16.4	0.00e+00	0	44	0	3184525312	11	3741
2026-01-18 16:23:51.97	307.11	17.40	-25.5	-25.9	16.2	0.00e+00	0	44	0	3191865344	11	3777
2026-01-18 16:23:52.96	307.30	17.34	-25.4	-25.7	16.3	0.00e+00	0	44	0	3199205376	11	3733
2026-01-18 16:23:53.97	307.49	17.28	-25.3	-25.5	16.5	0.00e+00	0	44	0	3206545408	11	3682
2026-01-18 16:23:54.97	307.68	17.21	-25.4	-25.6	16.4	0.00e+00	0	44	0	3213885440	11	3715
2026-01-18 16:23:55.97	307.87	17.15	-25.4	-25.6	16.4	0.00e+00	0	44	0	3221225472	11	3713
2026-01-18 16:23:56.98	308.06	17.08	-25.3	-25.6	16.4	0.00e+00	0	44	0	3228565504	11	3701
2026-01-18 16:23:57.98	308.25	17.02	-25.6	-26.1	16.1	0.00e+00	0	44	0	3235905536	11	3830
2026-01-18 16:23:58.99	308.44	16.95	-25.5	-26.0	16.2	0.00e+00	0	44	0	3243245568	11	3805
2026-01-18 16:23:59.99	308.63	16.89	-25.6	-26.1	16.1	0.00e+00	0	44	0	3249537024	11	3831
2026-01-18 16:24:00.99	308.81	16.82	-25.7	-26.3	16.0	0.00e+00	0	44	0	3256877056	11	3870
2026-01-18 16:24:02.00	309.00	16.76	-25.7	-26.4	16.0	0.00e+00	0	44	0	3264217088	11	3907
2026-01-18 16:24:03.00	309.19	16.69	-25.8	-26.5	15.9	0.00e+00	0	44	0	3271557120	11	3918
2026-01-18 16:24:04.00	309.37	16.63	-25.8	-26.5	15.9	0.00e+00	0	44	0	3278897152	11	3915
2026-01-18 16:24:05.01	309.55	16.56	-25.8	-26.6	15.9	0.00e+00	0	44	0	3286237184	11	3938
2026-01-18 16:24:06.01	309.74	16.50	-25.8	-26.5	15.9	0.00e+00	0	44	0	3293577216	11	3929
2026-01-18 16:24:07.01	309.92	16.43	-25.9	-26.8	15.7	0.00e+00	0	44	0	3300917248	11	3991
2026-01-18 16:24:08.02	310.10	16.36	-25.9	-26.7	15.8	0.00e+00	0	44	0	3308257280	11	3967
2026-01-18 16:24:09.02	310.28	16.30	-25.8	-26.6	15.8	0.00e+00	0	44	0	3314548736	11	3936
2026-01-18 16:24:10.03	310.46	16.23	-25.8	-26.6	15.8	0.00e+00	0	44	0	3321888768	11	3958
2026-01-18 16:24:11.03	310.64	16.17	-25.8	-26.5	15.9	0.00e+00	0	44	0	3329228800	11	3930
2026-01-18 16:24:12.03	310.82	16.10	-25.8	-26.7	15.8	0.00e+00	0	44	0	3336568832	11	3964
2026-01-18 16:24:13.04	310.99	16.03	-25.9	-26.9	15.6	0.00e+00	0	44	0	3343908864	11	4018
2026-01-18 16:24:14.04	311.17	15.97	-25.8	-26.5	15.9	0.00e+00	0	44	0	3351248896	11	3920
2026-01-18 16:24:15.05	311.35	15.90	-25.8	-26.7	15.8	0.00e+00	0	44	0	3358588928	11	3968
2026-01-18 16:24:16.06	311.52	15.83	-25.9	-26.9	15.7	0.00e+00	0	44	0	3365928960	11	4020
2026-01-18 16:24:17.06	311.70	15.77	-25.8	-26.6	15.8	0.00e+00	0	44	0	3373268992	11	3938
2026-01-18 16:24:18.07	311.87	15.70	-25.7	-26.4	16.0	0.00e+00	0	44	0	3380609024	11	3886
2026-01-18 16:24:19.07	312.04	15.63	-25.8	-26.5	15.9	0.00e+00	0	44	0	3387949056	11	3933
2026-01-18 16:24:20.08	312.22	15.57	-25.8	-26.7	15.8	0.00e+00	0	44	0	3395289088	11	3963
2026-01-18 16:24:21.08	312.39	15.50	-25.8	-26.6	15.8	0.00e+00	0	44	0	3401580544	11	3960
2026-01-18 16:24:22.08	312.56	15.43	-26.0	-27.0	15.6	0.00e+00	0	44	0	3409969152	11	4047
2026-01-18 16:24:23.09	312.73	15.37	-26.0	-27.1	15.5	0.00e+00	0	44	0	3417309184	11	4076
2026-01-18 16:24:24.09	312.89	15.30	-26.1	-26.8	15.4	0.00e+00	0	44	0	3423600640	12	3890
2026-01-18 16:24:25.09	313.06	15.23	-26.3	-27.3	15.1	0.00e+00	0	44	0	3430940672	12	4010
2026-01-18 16:24:26.09	313.23	15.17	-26.2	-27.1	15.2	0.00e+00	0	44	0	3438280704	12	3962
2026-01-18 16:24:27.10	313.40	15.10	-26.4	-27.4	15.1	0.00e+00	0	44	0	3445620736	12	4038
2026-01-18 16:24:28.10	313.56	15.03	-26.3	-27.3	15.1	0.00e+00	0	44	0	3452960768	12	4011
2026-01-18 16:24:29.11	313.73	14.96	-26.4	-27.4	15.0	0.00e+00	0	44	0	3460300800	12	4043
2026-01-18 16:24:30.11	313.89	14.90	-26.3	-27.2	15.1	0.00e+00	0	44	0	3467640832	12	3991
2026-01-18 16:24:31.11	314.06	14.83	-26.2	-27.1	15.2	0.00e+00	0	44	0	3474980864	12	3965
2026-01-18 16:24:32.12	314.22	14.76	-26.4	-27.4	15.0	0.00e+00	0	44	0	3481272320	12	4054
2026-01-18 16:24:33.12	314.38	14.70	-26.1	-26.9	15.3	0.00e+00	0	44	0	3488612352	12	3906
2026-01-18 16:24:34.12	314.54	14.63	-26.0	-26.5	15.5	0.00e+00	0	44	0	3495952384	12	3826
2026-01-18 16:24:35.12	314.70	14.56	-25.9	-26.3	15.6	0.00e+00	0	44	0	3503292416	12	3774
2026-01-18 16:24:36.12	314.86	14.49	-25.9	-26.4	15.5	0.00e+00	0	44	0	3510632448	12	3792
2026-01-18 16:24:37.12	315.02	14.43	-25.7	-25.8	15.8	0.00e+00	0	44	0	3517972480	12	3661
2026-01-18 16:24:38.12	315.18	14.36	-25.7	-26.0	15.8	0.00e+00	0	44	0	3525312512	12	3696
2026-01-18 16:24:39.12	315.34	14.29	-25.7	-26.0	15.8	0.00e+00	0	44	0	3532652544	12	3696
2026-01-18 16:24:40.13	315.50	14.23	-26.0	-26.6	15.4	0.00e+00	0	44	0	3539992576	12	3846
2026-01-18 16:24:41.14	315.65	14.16	-25.9	-26.2	15.6	0.00e+00	0	44	0	3547332608	12	3764
2026-01-18 16:24:42.14	315.81	14.09	-25.8	-26.1	15.6	0.00e+00	0	44	0	3554672640	12	3733
2026-01-18 16:24:43.14	315.97	14.02	-25.8	-26.1	15.7	0.00e+00	0	44	0	3562012672	12	3721
2026-01-18 16:24:44.15	316.12	13.96	-26.0	-26.6	15.4	0.00e+00	0	44	0	3568304128	12	3841
2026-01-18 16:24:45.16	316.28	13.89	-25.9	-26.4	15.5	0.00e+00	0	44	0	3575644160	12	3801
2026-01-18 16:24:46.16	316.43	13.82	-25.9	-26.4	15.5	0.00e+00	0	44	0	3582984192	12	3800
2026-01-18 16:24:47.17	316.58	13.75	-26.1	-26.8	15.3	0.00e+00	0	44	0	3590324224	12	3893
2026-01-18 16:24:48.18	316.74	13.69	-26.3	-27.2	15.1	0.00e+00	0	44	0	3597664256	12	3979
2026-01-18 16:24:49.17	316.88	13.62	-26.4	-27.3	15.0	0.00e+00	0	44	0	3605004288	12	4024
2026-01-18 16:24:50.18	317.04	13.55	-26.3	-27.3	15.0	1.10e-06	0	44	0	3612344320	12	4028
2026-01-18 16:24:51.18	317.19	13.48	-26.5	-27.6	14.8	1.10e-06	0	44	0	3619684352	12	4107
2026-01-18 16:24:52.18	317.33	13.42	-26.5	-27.7	14.8	1.10e-06	0	44	0	3627024384	12	4117
2026-01-18 16:24:53.17	317.48	13.35	-26.5	-27.7	14.7	0.00e+00	0	44	0	3633315840	12	4119
2026-01-18 16:24:54.17	317.63	13.28	-26.4	-27.5	14.8	0.00e+00	0	44	0	3640655872	12	4076
2026-01-18 16:24:55.18	317.78	13.22	-26.6	-27.4	14.6	0.00e+00	0	44	0	3647995904	13	3952
2026-01-18 16:24:56.19	317.93	13.15	-26.7	-27.5	14.6	0.00e+00	0	44	0	3655335936	13	3970
2026-01-18 16:24:57.20	318.07	13.08	-26.4	-26.9	14.9	0.00e+00	0	44	0	3662675968	13	3815
2026-01-18 16:24:58.19	318.22	13.01	-26.2	-26.6	15.1	0.00e+00	0	44	0	3670016000	13	3741
2026-01-18 16:24:59.19	318.36	12.95	-26.2	-26.4	15.1	0.00e+00	0	44	0	3677356032	13	3710
2026-01-18 16:25:00.20	318.51	12.88	-26.1	-26.4	15.2	0.00e+00	0	44	0	3684696064	13	3699
2026-01-18 16:25:01.20	318.65	12.81	-26.2	-26.5	15.1	0.00e+00	0	44	0	3692036096	13	3732
2026-01-18 16:25:02.21	318.79	12.75	-26.1	-26.3	15.2	0.00e+00	0	44	0	3699376128	13	3686
2026-01-18 16:25:03.22	318.94	12.68	-26.3	-26.6	15.0	0.00e+00	0	44	0	3706716160	13	3760
2026-01-18 16:25:04.23	319.08	12.61	-26.4	-26.8	14.9	0.00e+00	0	44	0	3713007616	13	3805
2026-01-18 16:25:05.23	319.22	12.54	-26.1	-26.3	15.2	0.00e+00	0	44	0	3720347648	13	3680
2026-01-18 16:25:06.23	319.36	12.48	-26.1	-26.2	15.2	1.10e-06	0	44	0	3727687680	13	3663
2026-01-18 16:25:07.23	319.50	12.41	-26.0	-26.1	15.3	0.00e+00	0	44	0	3735027712	13	3633
2026-01-18 16:25:08.23	319.64	12.34	-26.1	-26.4	15.2	0.00e+00	0	44	0	3742367744	13	3691
2026-01-18 16:25:09.23	319.77	12.28	-26.2	-26.5	15.1	0.00e+00	0	44	0	3749707776	13	3724
2026-01-18 16:25:10.24	319.91	12.21	-26.2	-26.6	15.0	0.00e+00	0	44	0	3757047808	13	3758
2026-01-18 16:25:11.24	320.05	12.14	-26.4	-26.9	14.9	1.10e-06	0	44	0	3764387840	13	3811
2026-01-18 16:25:12.23	320.19	12.08	-26.4	-27.0	14.8	0.00e+00	0	44	0	3771727872	13	3834
2026-01-18 16:25:13.24	320.32	12.01	-26.5	-27.2	14.6	0.00e+00	0	44	0	3779067904	13	3905
2026-01-18 16:25:14.24	320.46	11.94	-26.6	-27.5	14.5	0.00e+00	0	44	0	3786407936	13	3961
2026-01-18 16:25:15.24	320.59	11.88	-26.8	-27.8	14.3	0.00e+00	0	44	0	3793747968	13	4059
2026-01-18 16:25:16.24	320.73	11.81	-26.8	-27.9	14.3	2.20e-06	0	44	0	3800039424	13	4068
2026-01-18 16:25:17.25	320.86	11.74	-26.8	-27.9	14.2	1.10e-06	0	44	0	3807379456	13	4088
2026-01-18 16:25:18.25	320.99	11.68	-26.8	-27.8	14.3	0.00e+00	0	44	0	3814719488	13	4052
2026-01-18 16:25:19.26	321.13	11.61	-26.9	-28.0	14.2	2.20e-06	0	44	0	3822059520	13	4106
2026-01-18 16:25:20.26	321.26	11.54	-26.8	-27.9	14.2	2.20e-06	0	44	0	3829399552	13	4075
2026-01-18 16:25:21.27	321.39	11.48	-26.7	-27.6	14.4	1.10e-06	0	44	0	3836739584	13	4004
2026-01-18 16:25:22.27	321.52	11.41	-26.9	-28.0	14.2	1.10e-06	0	44	0	3844079616	13	4085
2026-01-18 16:25:23.27	321.65	11.35	-26.6	-27.5	14.5	0.00e+00	0	44	0	3851419648	13	3962
2026-01-18 16:25:24.27	321.78	11.28	-26.8	-27.9	14.2	3.40e-06	0	44	0	3857711104	13	4079
2026-01-18 16:25:25.28	321.91	11.21	-26.8	-27.9	14.2	0.00e+00	0	44	0	3865051136	13	4065
2026-01-18 16:25:26.28	322.04	11.15	-26.7	-27.5	14.4	0.00e+00	0	44	0	3872391168	13	3985
2026-01-18 16:25:27.28	322.17	11.08	-26.5	-27.2	14.6	1.10e-06	0	44	0	3879731200	13	3909
2026-01-18 16:25:28.28	322.29	11.02	-26.5	-27.3	14.6	1.10e-06	0	44	0	3887071232	13	3913
2026-01-18 16:25:29.28	322.42	10.95	-26.5	-27.3	14.5	1.10e-06	0	44	0	3894411264	13	3916
2026-01-18 16:25:30.28	322.55	10.88	-26.5	-27.2	14.6	0.00e+00	0	44	0	3901751296	13	3889
2026-01-18 16:25:31.29	322.67	10.82	-26.5	-27.1	14.6	0.00e+00	0	44	0	3909091328	13	3873
2026-01-18 16:25:32.29	322.80	10.75	-26.6	-27.4	14.4	0.00e+00	0	44	0	3916431360	13	3951
2026-01-18 16:25:33.30	322.92	10.69	-26.4	-27.0	14.7	1.10e-06	0	44	0	3923771392	13	3860
2026-01-18 16:25:34.30	323.05	10.62	-26.4	-27.0	14.7	0.00e+00	0	44	0	3931111424	13	3854
2026-01-18 16:25:35.31	323.17	10.55	-26.5	-27.1	14.6	1.10e-06	0	44	0	3938451456	13	3876
2026-01-18 16:25:36.32	323.30	10.49	-26.4	-26.9	14.7	0.00e+00	0	44	0	3944742912	13	3821
2026-01-18 16:25:37.32	323.42	10.42	-26.5	-27.2	14.6	0.00e+00	0	44	0	3952082944	13	3896
2026-01-18 16:25:38.33	323.54	10.36	-26.6	-27.4	14.4	0.00e+00	0	44	0	3959422976	13	3956
2026-01-18 16:25:39.32	323.66	10.29	-26.5	-27.1	14.6	1.10e-06	0	44	0	3966763008	13	3864
2026-01-18 16:25:40.32	323.78	10.23	-26.5	-27.2	14.5	0.00e+00	0	44	0	3974103040	13	3899
2026-01-18 16:25:41.32	323.90	10.16	-26.5	-27.3	14.5	0.00e+00	0	44	0	3981443072	13	3916
2026-01-18 16:25:42.33	324.02	10.10	-26.6	-27.5	14.4	0.00e+00	0	44	0	3988783104	13	3970
2026-01-18 16:25:43.33	324.14	10.03	-26.8	-27.7	14.2	0.00e+00	0	44	0	3996123136	13	4033
2026-01-18 16:25:44.33	324.26	9.97	-26.7	-27.6	14.3	1.10e-06	0	44	0	4003463168	13	4013
2026-01-18 16:25:45.34	324.38	9.90	-26.8	-27.8	14.2	1.10e-06	0	44	0	4010803200	13	4041
2026-01-18 16:25:46.33	324.50	9.84	-26.8	-27.9	14.1	1.10e-06	0	44	0	4017094656	13	4075
2026-01-18 16:25:47.33	324.61	9.77	-26.9	-28.1	14.0	0.00e+00	0	44	0	4024434688	13	4128
2026-01-18 16:25:48.33	324.73	9.71	-27.1	-28.1	13.7	4.50e-06	0	44	0	4031774720	14	4022
2026-01-18 16:25:49.33	324.85	9.65	-27.2	-28.2	13.6	3.40e-06	0	44	0	4039114752	14	4064
2026-01-18 16:25:50.33	324.96	9.58	-27.2	-28.3	13.6	1.02e-05	0	44	0	4046454784	14	4074
2026-01-18 16:25:51.34	325.08	9.52	-27.2	-28.3	13.6	6.80e-06	0	44	0	4053794816	14	4078
2026-01-18 16:25:52.34	325.19	9.45	-27.3	-28.5	13.4	1.37e-05	0	44	0	4061134848	14	4140
2026-01-18 16:25:53.34	325.31	9.39	-27.3	-28.6	13.4	1.02e-05	0	44	0	4068474880	14	4158
2026-01-18 16:25:54.35	325.42	9.32	-27.4	-28.8	13.3	2.05e-05	0	44	0	4075814912	14	4218
2026-01-18 16:25:55.35	325.54	9.26	-27.4	-28.7	13.4	6.80e-06	0	44	0	4083154944	14	4179
2026-01-18 16:25:56.35	325.65	9.19	-27.6	-29.1	13.1	2.05e-05	0	44	0	4089446400	14	4302
2026-01-18 16:25:57.34	325.76	9.13	-27.3	-28.5	13.4	5.70e-06	0	44	0	4096786432	14	4144
2026-01-18 16:25:58.35	325.87	9.07	-27.2	-28.2	13.6	2.20e-06	0	44	0	4104126464	14	4070
2026-01-18 16:25:59.36	325.99	9.00	-27.1	-28.1	13.7	5.70e-06	0	44	0	4111466496	14	4030
2026-01-18 16:26:00.35	326.10	8.94	-27.3	-28.5	13.4	1.14e-05	0	44	0	4118806528	14	4143
2026-01-18 16:26:01.35	326.21	8.88	-27.2	-28.4	13.5	9.10e-06	0	44	0	4126146560	14	4114
2026-01-18 16:26:02.35	326.32	8.81	-27.2	-28.2	13.6	5.70e-06	0	44	0	4133486592	14	4051
2026-01-18 16:26:03.35	326.43	8.75	-27.1	-28.1	13.6	6.80e-06	0	44	0	4140826624	14	4031
2026-01-18 16:26:04.36	326.54	8.68	-27.1	-28.0	13.7	5.70e-06	0	44	0	4148166656	14	3999
2026-01-18 16:26:05.36	326.64	8.62	-27.2	-28.2	13.6	5.70e-06	0	44	0	4154458112	14	4058
2026-01-18 16:26:06.36	326.75	8.56	-27.0	-27.9	13.7	1.14e-05	0	44	0	4161798144	14	3978
2026-01-18 16:26:07.37	326.86	8.49	-27.0	-27.9	13.8	1.14e-05	0	44	0	4169138176	14	3970
2026-01-18 16:26:08.37	326.97	8.43	-27.2	-28.3	13.5	8.00e-06	0	44	0	4176478208	14	4085
2026-01-18 16:26:09.37	327.08	8.37	-27.3	-28.5	13.4	1.37e-05	0	44	0	4183818240	14	4127
2026-01-18 16:26:10.37	327.18	8.31	-27.1	-28.0	13.7	1.02e-05	0	44	0	4191158272	14	4001
2026-01-18 16:26:11.37	327.29	8.24	-27.1	-28.1	13.6	2.20e-06	0	44	0	4198498304	14	4023
2026-01-18 16:26:12.37	327.39	8.18	-27.2	-28.3	13.5	9.10e-06	0	44	0	4205838336	14	4094
2026-01-18 16:26:13.38	327.50	8.12	-27.2	-28.4	13.4	1.94e-05	0	44	0	4212129792	14	4108
2026-01-18 16:26:14.38	327.60	8.05	-27.2	-28.2	13.5	5.70e-06	0	44	0	4220518400	14	4072
2026-01-18 16:26:15.39	327.71	7.99	-27.1	-28.0	13.6	1.02e-05	0	44	0	4227858432	14	4017
2026-01-18 16:26:16.39	327.81	7.93	-27.2	-28.4	13.4	1.71e-05	0	44	0	4234149888	14	4098
2026-01-18 16:26:17.40	327.92	7.87	-27.4	-28.7	13.2	1.71e-05	0	44	0	4241489920	14	4184
2026-01-18 16:26:18.40	328.02	7.80	-27.3	-28.6	13.2	1.48e-05	0	44	0	4248829952	14	4175
2026-01-18 16:26:19.41	328.12	7.74	-27.2	-28.4	13.4	1.25e-05	0	44	0	4256169984	14	4118
2026-01-18 16:26:20.42	328.23	7.68	-28.1	-29.3	12.9	2.40e-05	0	44	0	4263510016	15	4108
2026-01-18 16:26:21.42	328.33	7.62	-27.6	-28.8	12.9	2.74e-05	0	44	0	4270850048	15	4111
2026-01-18 16:26:22.42	328.43	7.55	-27.8	-29.2	12.6	5.95e-05	0	44	0	4278190080	15	4222
2026-01-18 16:26:23.42	328.53	7.49	-27.6	-28.6	12.9	3.89e-05	0	44	0	4285530112	15	4060
2026-01-18 16:26:24.42	328.63	7.43	-27.5	-28.5	13.0	3.89e-05	0	44	0	4292870144	15	4025
2026-01-18 16:26:25.43	328.73	7.37	-27.5	-28.6	12.9	3.43e-05	0	44	0	4299161600	15	4061
2026-01-18 16:26:26.43	328.83	7.31	-27.6	-28.8	12.8	5.37e-05	0	44	0	4306501632	15	4117
2026-01-18 16:26:27.43	328.93	7.24	-27.8	-29.1	12.6	7.43e-05	0	44	0	4313841664	15	4194
2026-01-18 16:26:28.44	329.03	7.18	-27.7	-29.0	12.7	5.83e-05	0	44	0	4321181696	15	4168
2026-01-18 16:26:29.45	329.13	7.12	-27.7	-29.0	12.7	4.92e-05	0	44	0	4328521728	15	4168
2026-01-18 16:26:30.44	329.23	7.06	-32.9	-40.3	4.2	2.62e-04	0	44	0	4335861760	25	8473
2026-01-18 16:26:31.45	329.33	7.00	-33.6	-43.6	3.8	8.47e-01	0	44	104	4335861760	26	11407

#Closed at: 2026-01-18 16:26:32
#Recorded file [4335 MB]: D:/data/31010_260118_191629.dat