passes_logs/2026/01/18/R2M6_AANII_01/R2M6_AANII_01__20260118_024027_AQUA_rec.log

#Pass ID: 20260118_024027_AQUA
#Satellite: AQUA
#Configuration: AQUA
#almurnet v.1.7.20240730
#Start time: 2026-01-18 02:40:27

#Version: 2.2.20231116
#Station: R2M6_AANII_01
#Location: 30.233357 lon 59.946436 lat
#TLE: 1 27424U 02022A   26017.29152041  .00000842  00000+0  17841-3 0  9992
#TLE: 2 27424  98.4085 343.7574 0002011  75.4099  30.6811 14.61825797261228

#Time	Az	El	Level	Level2	SNR	BER	BlckErr	Temp	State	Recorded	gain1	gain2
2026-01-18 02:40:27.24	12.96	7.01	-32.4	-40.2	5.0	7.10e-01	0	41	0	0	25	8874
2026-01-18 02:40:28.24	12.92	7.08	-32.4	-40.5	4.9	7.09e-01	0	41	104	0	25	9139
2026-01-18 02:40:29.24	12.88	7.16	-32.4	-39.6	12.2	6.06e-01	0	41	0	0	25	8215
2026-01-18 02:40:30.24	12.84	7.24	-32.4	-39.3	12.7	6.07e-01	0	41	0	1572864	25	7959
2026-01-18 02:40:31.24	12.80	7.32	-32.4	-39.6	12.3	6.07e-01	0	41	0	3670016	25	8210
2026-01-18 02:40:32.24	12.76	7.40	-32.3	-38.8	13.0	6.05e-01	0	41	0	5242880	25	7634
2026-01-18 02:40:33.24	12.72	7.49	-32.3	-38.8	13.2	6.03e-01	0	41	0	7340032	25	7574
2026-01-18 02:40:34.24	12.68	7.57	-32.2	-38.5	13.4	6.05e-01	0	41	0	8912896	25	7386
2026-01-18 02:40:35.25	12.63	7.65	-32.3	-38.7	13.3	6.03e-01	0	42	0	11010048	25	7505
2026-01-18 02:40:36.25	12.59	7.73	-32.0	-37.8	14.4	6.00e-01	0	41	0	13107200	24	7050
2026-01-18 02:40:37.25	12.55	7.81	-31.7	-36.9	15.2	6.02e-01	0	41	0	14680064	24	6521
2026-01-18 02:40:38.26	12.50	7.90	-31.5	-36.0	15.8	5.98e-01	0	42	0	16777216	24	6065
2026-01-18 02:40:39.26	12.46	7.98	-31.3	-35.9	16.2	6.00e-01	0	42	0	18350080	23	6084
2026-01-18 02:40:40.26	12.42	8.06	-31.1	-35.3	16.6	6.03e-01	0	42	0	20447232	23	5797
2026-01-18 02:40:41.26	12.37	8.14	-31.4	-36.1	16.0	6.00e-01	0	42	0	22544384	23	6214
2026-01-18 02:40:42.27	12.33	8.23	-31.1	-35.6	16.8	5.99e-01	0	42	0	24117248	22	6055
2026-01-18 02:40:43.27	12.28	8.31	-31.1	-35.1	16.8	6.04e-01	0	42	0	26214400	23	5743
2026-01-18 02:40:44.27	12.24	8.39	-31.1	-35.3	16.7	6.00e-01	0	41	0	27787264	23	5787
2026-01-18 02:40:45.27	12.19	8.48	-31.1	-35.6	16.8	5.99e-01	0	42	0	29884416	22	6049
2026-01-18 02:40:46.28	12.15	8.56	-31.2	-35.5	16.5	6.02e-01	0	42	0	31457280	23	5905
2026-01-18 02:40:47.28	12.10	8.65	-31.1	-35.3	16.7	6.01e-01	0	42	0	33554432	23	5804
2026-01-18 02:40:48.28	12.06	8.73	-31.3	-35.6	16.4	6.01e-01	0	42	0	35651584	23	5971
2026-01-18 02:40:49.28	12.01	8.82	-31.1	-35.3	16.7	5.98e-01	0	42	0	37224448	23	5782
2026-01-18 02:40:50.29	11.96	8.91	-31.2	-35.4	16.6	5.99e-01	0	42	0	39321600	23	5869
2026-01-18 02:40:51.29	11.92	8.99	-31.0	-35.3	17.0	6.01e-01	0	42	0	40894464	22	5930
2026-01-18 02:40:52.29	11.87	9.08	-31.0	-35.2	17.1	6.01e-01	0	42	0	42991616	22	5852
2026-01-18 02:40:53.29	11.82	9.16	-31.0	-35.3	17.1	6.00e-01	0	42	0	45088768	22	5918
2026-01-18 02:40:54.29	11.77	9.25	-31.3	-35.8	16.4	6.02e-01	0	42	0	46661632	23	6038
2026-01-18 02:40:55.29	11.72	9.34	-31.3	-35.6	16.5	6.01e-01	0	42	0	48758784	23	5944
2026-01-18 02:40:56.30	11.68	9.43	-31.2	-35.3	16.8	6.01e-01	0	42	0	50331648	23	5775
2026-01-18 02:40:57.30	11.63	9.52	-31.1	-34.9	17.0	6.01e-01	0	42	0	52428800	23	5605
2026-01-18 02:40:58.31	11.58	9.60	-31.1	-34.9	17.0	5.98e-01	0	42	0	54525952	23	5606
2026-01-18 02:40:59.32	11.53	9.69	-31.0	-35.2	17.2	6.01e-01	0	42	0	56098816	22	5849
2026-01-18 02:41:00.32	11.48	9.78	-31.0	-35.2	17.2	6.02e-01	0	42	0	58195968	22	5843
2026-01-18 02:41:01.33	11.43	9.87	-31.1	-35.1	17.0	6.02e-01	0	42	0	59768832	23	5684
2026-01-18 02:41:02.33	11.37	9.96	-30.8	-34.3	17.5	5.98e-01	0	42	0	61865984	23	5332
2026-01-18 02:41:03.32	11.32	10.05	-30.8	-34.5	17.7	6.04e-01	0	42	0	63438848	22	5543
2026-01-18 02:41:04.33	11.27	10.14	-30.6	-33.9	18.0	6.01e-01	0	42	0	65536000	22	5301
2026-01-18 02:41:05.33	11.22	10.23	-30.6	-33.9	18.1	6.02e-01	0	42	0	67633152	22	5311
2026-01-18 02:41:06.33	11.17	10.32	-30.5	-34.2	18.2	6.02e-01	0	42	0	69206016	21	5527
2026-01-18 02:41:07.33	11.11	10.42	-30.5	-33.7	18.2	6.02e-01	0	42	0	71303168	22	5224
2026-01-18 02:41:08.33	11.06	10.51	-30.6	-34.0	18.1	6.00e-01	0	42	0	72876032	22	5317
2026-01-18 02:41:09.34	11.01	10.60	-30.5	-34.2	18.2	6.03e-01	0	42	0	74973184	21	5511
2026-01-18 02:41:10.34	10.95	10.69	-30.5	-34.2	18.2	6.01e-01	0	42	0	77070336	21	5522
2026-01-18 02:41:11.34	10.90	10.79	-30.5	-34.2	18.2	6.00e-01	0	42	0	78643200	21	5532
2026-01-18 02:41:12.35	10.84	10.88	-30.6	-33.9	18.1	6.00e-01	0	42	0	80740352	22	5301
2026-01-18 02:41:13.35	10.79	10.97	-30.4	-33.5	18.4	5.98e-01	0	42	0	82313216	22	5142
2026-01-18 02:41:14.35	10.73	11.07	-30.4	-33.4	18.4	6.01e-01	0	42	0	84410368	22	5103
2026-01-18 02:41:15.35	10.68	11.16	-30.4	-33.5	18.4	6.02e-01	0	42	0	86507520	22	5130
2026-01-18 02:41:16.35	10.62	11.26	-30.3	-33.2	18.6	5.98e-01	0	42	0	88080384	22	5019
2026-01-18 02:41:17.36	10.56	11.35	-30.2	-33.4	18.7	6.02e-01	0	43	0	90177536	21	5213
2026-01-18 02:41:18.36	10.51	11.45	-30.3	-33.7	18.6	6.01e-01	0	42	0	91750400	21	5335
2026-01-18 02:41:19.37	10.45	11.54	-30.3	-33.6	18.7	6.01e-01	0	43	0	93847552	21	5285
2026-01-18 02:41:20.37	10.39	11.64	-30.2	-33.3	18.9	6.00e-01	0	43	0	95420416	21	5147
2026-01-18 02:41:21.38	10.33	11.74	-30.1	-33.2	19.0	5.98e-01	0	43	0	97517568	21	5143
2026-01-18 02:41:22.38	10.27	11.83	-30.1	-33.1	19.0	6.03e-01	0	42	0	99614720	21	5097
2026-01-18 02:41:23.38	10.21	11.93	-30.2	-33.4	18.9	6.02e-01	0	42	0	101187584	21	5188
2026-01-18 02:41:24.38	10.15	12.03	-30.0	-33.0	19.1	6.00e-01	0	43	0	103284736	21	5041
2026-01-18 02:41:25.39	10.09	12.13	-30.0	-32.8	19.2	5.99e-01	0	43	0	104857600	21	4983
2026-01-18 02:41:26.40	10.03	12.23	-29.9	-33.1	19.3	5.97e-01	0	43	0	106954752	20	5200
2026-01-18 02:41:27.40	9.97	12.33	-29.9	-33.0	19.4	6.02e-01	0	43	0	109051904	20	5176
2026-01-18 02:41:28.40	9.91	12.43	-29.9	-33.0	19.4	6.01e-01	0	42	0	110624768	20	5145
2026-01-18 02:41:29.40	9.85	12.53	-29.9	-33.2	19.3	6.00e-01	0	43	0	112721920	20	5231
2026-01-18 02:41:30.40	9.78	12.63	-29.9	-33.0	19.4	6.00e-01	0	43	0	114294784	20	5155
2026-01-18 02:41:31.41	9.72	12.73	-29.8	-32.8	19.5	5.99e-01	0	43	0	116391936	20	5100
2026-01-18 02:41:32.40	9.66	12.83	-29.7	-32.5	19.7	6.01e-01	0	43	0	118489088	20	4993
2026-01-18 02:41:33.40	9.59	12.93	-29.9	-33.1	19.4	6.04e-01	0	43	0	120061952	20	5179
2026-01-18 02:41:34.41	9.53	13.03	-29.9	-33.0	19.4	5.99e-01	0	43	0	122159104	20	5162
2026-01-18 02:41:35.41	9.46	13.13	-29.8	-32.8	19.6	6.04e-01	0	43	0	123731968	20	5074
2026-01-18 02:41:36.41	9.40	13.24	-29.9	-32.9	19.5	6.01e-01	0	43	0	125829120	20	5133
2026-01-18 02:41:37.42	9.33	13.34	-29.9	-33.0	19.5	5.99e-01	0	43	0	127401984	20	5150
2026-01-18 02:41:38.42	9.26	13.45	-29.9	-33.1	19.5	6.02e-01	0	43	0	129499136	20	5171
2026-01-18 02:41:39.43	9.20	13.55	-29.9	-32.9	19.6	6.00e-01	0	43	0	131596288	20	5133
2026-01-18 02:41:40.43	9.13	13.66	-30.0	-33.2	19.4	6.01e-01	0	43	0	133169152	20	5230
2026-01-18 02:41:41.43	9.06	13.76	-30.1	-33.2	19.1	6.00e-01	0	43	0	135266304	21	5095
2026-01-18 02:41:42.44	8.99	13.87	-30.2	-33.4	19.0	6.00e-01	0	43	0	136839168	21	5174
2026-01-18 02:41:43.44	8.92	13.97	-30.2	-33.2	19.1	6.03e-01	0	43	0	138936320	21	5111
2026-01-18 02:41:44.43	8.85	14.08	-30.2	-33.4	19.0	6.01e-01	0	43	0	140509184	21	5186
2026-01-18 02:41:45.44	8.78	14.19	-30.2	-33.3	19.1	5.99e-01	0	43	0	142606336	21	5127
2026-01-18 02:41:46.44	8.71	14.29	-30.2	-33.3	19.0	6.04e-01	0	43	0	144703488	21	5143
2026-01-18 02:41:47.44	8.64	14.40	-30.4	-33.9	18.7	6.02e-01	0	43	0	146276352	21	5376
2026-01-18 02:41:48.44	8.57	14.51	-30.5	-34.0	18.5	6.01e-01	0	43	0	148373504	21	5420
2026-01-18 02:41:49.44	8.49	14.62	-30.2	-33.3	19.0	6.05e-01	0	43	0	150470656	21	5157
2026-01-18 02:41:50.45	8.42	14.73	-30.1	-32.9	19.3	6.02e-01	0	43	0	152043520	21	5011
2026-01-18 02:41:51.45	8.34	14.84	-30.0	-32.8	19.4	6.02e-01	0	43	0	154140672	21	4952
2026-01-18 02:41:52.45	8.27	14.95	-30.0	-32.7	19.5	6.00e-01	0	43	0	155713536	21	4913
2026-01-18 02:41:53.45	8.19	15.06	-30.0	-33.3	19.4	5.99e-01	0	43	0	157810688	20	5244
2026-01-18 02:41:54.46	8.12	15.17	-30.0	-33.2	19.4	6.00e-01	0	43	0	159383552	20	5212
2026-01-18 02:41:55.46	8.04	15.29	-30.0	-33.3	19.4	6.00e-01	0	43	0	161480704	20	5245
2026-01-18 02:41:56.47	7.96	15.40	-30.2	-33.4	19.0	6.00e-01	0	43	0	163577856	21	5159
2026-01-18 02:41:57.48	7.88	15.51	-30.2	-33.3	19.0	6.00e-01	0	43	0	165150720	21	5125
2026-01-18 02:41:58.48	7.81	15.63	-30.0	-32.7	19.4	6.03e-01	0	43	0	167247872	21	4906
2026-01-18 02:41:59.49	7.73	15.74	-29.9	-32.4	19.6	6.02e-01	0	43	0	168820736	21	4799
2026-01-18 02:42:00.49	7.65	15.86	-29.9	-32.8	19.7	5.99e-01	0	43	0	170917888	20	5081
2026-01-18 02:42:01.49	7.56	15.97	-29.9	-33.0	19.6	6.02e-01	0	43	0	172490752	20	5126
2026-01-18 02:42:02.50	7.48	16.09	-29.9	-32.9	19.3	6.00e-01	0	43	0	174587904	20	5107
2026-01-18 02:42:03.49	7.40	16.20	-29.9	-32.9	19.6	6.00e-01	0	43	0	176685056	20	5098
2026-01-18 02:42:04.50	7.32	16.32	-29.9	-33.0	19.4	6.02e-01	0	43	0	178257920	20	5150
2026-01-18 02:42:05.50	7.23	16.44	-30.0	-33.2	19.1	6.00e-01	0	43	0	180355072	20	5202
2026-01-18 02:42:06.51	7.15	16.56	-29.9	-33.0	19.6	6.00e-01	0	43	0	181927936	20	5150
2026-01-18 02:42:07.51	7.06	16.68	-29.9	-33.0	19.5	6.01e-01	0	43	0	184025088	20	5148
2026-01-18 02:42:08.51	6.98	16.80	-30.1	-33.4	19.3	6.00e-01	0	43	0	186122240	20	5286
2026-01-18 02:42:09.51	6.89	16.92	-30.3	-33.5	19.1	6.03e-01	0	43	0	187695104	21	5194
2026-01-18 02:42:10.51	6.80	17.04	-30.2	-33.3	19.0	6.02e-01	0	43	0	189792256	21	5139
2026-01-18 02:42:11.52	6.72	17.16	-30.0	-32.7	19.6	5.99e-01	0	43	0	191365120	21	4899
2026-01-18 02:42:12.52	6.63	17.28	-29.9	-32.5	19.7	6.03e-01	0	43	0	193462272	21	4845
2026-01-18 02:42:13.53	6.54	17.40	-30.0	-33.1	19.6	6.02e-01	0	43	0	195559424	20	5167
2026-01-18 02:42:14.53	6.45	17.53	-30.0	-33.1	19.6	5.96e-01	0	43	0	197132288	20	5159
2026-01-18 02:42:15.52	6.36	17.65	-30.0	-33.1	19.6	6.04e-01	0	43	0	199229440	20	5175
2026-01-18 02:42:16.52	6.26	17.77	-30.0	-33.3	19.6	6.01e-01	0	43	0	200802304	20	5223
2026-01-18 02:42:17.52	6.17	17.90	-30.0	-33.2	19.6	6.00e-01	0	43	0	202899456	20	5198
2026-01-18 02:42:18.52	6.08	18.02	-30.1	-33.3	19.5	6.00e-01	0	43	0	204472320	20	5246
2026-01-18 02:42:19.52	5.98	18.15	-30.0	-33.2	19.6	6.00e-01	0	43	0	206569472	20	5195
2026-01-18 02:42:20.52	5.89	18.27	-30.1	-33.4	19.5	6.05e-01	0	43	0	208666624	20	5257
2026-01-18 02:42:21.52	5.79	18.40	-30.3	-33.5	19.1	6.03e-01	0	43	0	210239488	21	5208
2026-01-18 02:42:22.52	5.69	18.53	-30.3	-33.6	19.0	5.99e-01	0	43	0	212336640	21	5219
2026-01-18 02:42:23.52	5.60	18.66	-30.1	-33.4	19.5	6.03e-01	0	43	0	213909504	20	5281
2026-01-18 02:42:24.53	5.50	18.79	-30.0	-32.7	19.6	6.02e-01	0	43	0	216006656	21	4922
2026-01-18 02:42:25.53	5.40	18.92	-30.0	-32.8	19.6	6.03e-01	0	43	0	217579520	21	4925
2026-01-18 02:42:26.53	5.29	19.05	-30.0	-33.1	19.7	6.01e-01	0	43	0	219676672	20	5173
2026-01-18 02:42:27.52	5.19	19.18	-30.0	-33.1	19.7	6.00e-01	0	43	0	221773824	20	5160
2026-01-18 02:42:28.52	5.09	19.31	-30.0	-33.2	19.6	6.00e-01	0	43	0	223346688	20	5191
2026-01-18 02:42:29.53	4.99	19.44	-29.9	-33.0	19.8	6.00e-01	0	43	0	225443840	20	5106
2026-01-18 02:42:30.53	4.88	19.58	-29.9	-32.9	19.8	6.00e-01	0	43	0	227016704	20	5091
2026-01-18 02:42:31.54	4.77	19.71	-29.9	-32.9	19.8	6.01e-01	0	43	0	229113856	20	5098
2026-01-18 02:42:32.53	4.67	19.84	-29.9	-32.8	19.9	6.03e-01	0	43	0	230686720	20	5052
2026-01-18 02:42:33.53	4.56	19.98	-29.8	-32.8	19.9	5.99e-01	0	43	0	232783872	20	5031
2026-01-18 02:42:34.53	4.45	20.11	-29.9	-32.8	19.8	5.97e-01	0	43	0	234881024	20	5061
2026-01-18 02:42:35.53	4.34	20.25	-29.9	-32.8	19.8	5.98e-01	0	43	0	236453888	20	5059
2026-01-18 02:42:36.53	4.23	20.39	-30.0	-33.0	19.8	6.01e-01	0	43	0	238551040	20	5129
2026-01-18 02:42:37.54	4.12	20.53	-29.9	-33.0	19.8	6.02e-01	0	43	0	240123904	20	5105
2026-01-18 02:42:38.54	4.00	20.67	-30.0	-33.1	19.7	6.01e-01	0	43	0	242221056	20	5139
2026-01-18 02:42:39.54	3.89	20.81	-30.1	-32.9	19.5	5.98e-01	0	43	0	243793920	21	4963
2026-01-18 02:42:40.54	3.77	20.95	-30.3	-33.3	19.4	5.99e-01	0	43	0	245891072	21	5114
2026-01-18 02:42:41.54	3.66	21.09	-30.3	-33.3	19.3	5.98e-01	0	43	0	247988224	21	5108
2026-01-18 02:42:42.55	3.54	21.23	-30.2	-33.1	19.5	6.00e-01	0	43	0	249561088	21	5033
2026-01-18 02:42:43.56	3.42	21.37	-30.2	-33.0	19.5	6.00e-01	0	43	0	251658240	21	5008
2026-01-18 02:42:44.55	3.30	21.51	-30.1	-32.9	19.6	6.02e-01	0	43	0	253755392	21	4979
2026-01-18 02:42:45.55	3.18	21.66	-30.2	-33.0	19.5	5.99e-01	0	43	0	255328256	21	5012
2026-01-18 02:42:46.55	3.06	21.80	-30.2	-33.2	19.4	5.97e-01	0	43	0	257425408	21	5063
2026-01-18 02:42:47.56	2.93	21.95	-30.2	-33.1	19.5	6.02e-01	0	43	0	258998272	21	5036
2026-01-18 02:42:48.56	2.81	22.10	-30.1	-33.0	19.6	6.03e-01	0	43	0	261095424	21	4988
2026-01-18 02:42:49.57	2.68	22.24	-30.1	-32.9	19.6	6.00e-01	0	43	0	262668288	21	4952
2026-01-18 02:42:50.57	2.55	22.39	-30.2	-33.2	19.5	6.01e-01	0	43	0	264765440	21	5060
2026-01-18 02:42:51.57	2.42	22.54	-30.3	-33.3	19.4	5.98e-01	0	43	0	266862592	21	5094
2026-01-18 02:42:52.58	2.29	22.69	-30.2	-33.1	19.4	6.01e-01	0	43	0	268435456	21	5053
2026-01-18 02:42:53.57	2.16	22.84	-30.2	-33.1	19.4	6.02e-01	0	43	0	270532608	21	5048
2026-01-18 02:42:54.57	2.03	22.99	-30.2	-33.0	19.5	6.00e-01	0	43	0	272105472	21	5012
2026-01-18 02:42:55.58	1.89	23.14	-30.3	-33.3	19.4	5.99e-01	0	43	0	274202624	21	5091
2026-01-18 02:42:56.58	1.75	23.30	-30.3	-33.3	19.4	5.98e-01	0	43	0	275775488	21	5109
2026-01-18 02:42:57.58	1.62	23.45	-30.3	-33.3	19.3	6.00e-01	0	43	0	277872640	21	5117
2026-01-18 02:42:58.59	1.48	23.60	-30.4	-33.7	19.2	6.00e-01	0	43	0	279969792	21	5230
2026-01-18 02:42:59.59	1.34	23.76	-30.4	-33.6	19.2	5.98e-01	0	43	0	281542656	21	5227
2026-01-18 02:43:00.59	1.19	23.92	-30.3	-33.3	19.4	6.02e-01	0	43	0	283639808	21	5107
2026-01-18 02:43:01.60	1.05	24.07	-30.2	-33.2	19.5	6.01e-01	0	43	0	285736960	21	5074
2026-01-18 02:43:02.60	0.90	24.23	-30.2	-33.1	19.5	6.00e-01	0	43	0	287309824	21	5012
2026-01-18 02:43:03.60	0.76	24.39	-30.1	-32.9	19.7	6.01e-01	0	43	0	289406976	21	4942
2026-01-18 02:43:04.61	0.61	24.55	-30.2	-33.1	19.6	5.99e-01	0	43	0	290979840	21	5040
2026-01-18 02:43:05.62	0.46	24.71	-30.3	-33.3	19.5	6.02e-01	0	43	0	293076992	21	5082
2026-01-18 02:43:06.62	0.31	24.87	-30.3	-33.5	19.3	6.03e-01	0	43	0	294649856	21	5161
2026-01-18 02:43:07.63	0.15	25.04	-30.4	-33.6	19.2	5.99e-01	0	43	0	296747008	21	5196
2026-01-18 02:43:08.64	360.00	25.20	-30.5	-33.9	19.1	6.03e-01	0	43	0	298844160	21	5334
2026-01-18 02:43:09.64	359.84	25.36	-30.5	-33.8	19.1	6.02e-01	0	43	0	300417024	21	5291
2026-01-18 02:43:10.64	359.68	25.53	-30.4	-33.6	19.3	6.01e-01	0	43	0	302514176	21	5221
2026-01-18 02:43:11.64	359.52	25.69	-30.4	-33.5	19.3	6.01e-01	0	43	0	304087040	21	5164
2026-01-18 02:43:12.65	359.36	25.86	-30.3	-33.3	19.5	6.06e-01	0	43	0	306184192	21	5076
2026-01-18 02:43:13.66	359.19	26.03	-30.4	-33.5	19.3	6.01e-01	0	43	0	308281344	21	5159
2026-01-18 02:43:14.66	359.03	26.20	-30.3	-33.2	19.5	6.01e-01	0	43	0	309854208	21	5070
2026-01-18 02:43:15.66	358.86	26.36	-30.3	-33.4	19.4	6.01e-01	0	43	0	311951360	21	5122
2026-01-18 02:43:16.65	358.69	26.53	-30.3	-33.5	19.3	6.00e-01	0	43	0	313524224	21	5152
2026-01-18 02:43:17.66	358.52	26.70	-30.5	-34.0	19.1	5.97e-01	0	43	0	315621376	21	5344
2026-01-18 02:43:18.66	358.35	26.88	-30.5	-33.2	19.2	6.00e-01	0	43	0	317718528	22	4957
2026-01-18 02:43:19.66	358.17	27.05	-30.3	-32.8	19.5	6.00e-01	0	43	0	319291392	22	4799
2026-01-18 02:43:20.67	357.99	27.22	-30.2	-32.4	19.7	6.03e-01	0	43	0	321388544	22	4680
2026-01-18 02:43:21.67	357.81	27.40	-30.1	-32.3	19.8	6.01e-01	0	43	0	322961408	22	4639
2026-01-18 02:43:22.67	357.63	27.57	-30.2	-32.5	19.7	6.00e-01	0	43	0	325058560	22	4684
2026-01-18 02:43:23.68	357.45	27.75	-30.0	-32.1	19.9	6.00e-01	0	44	0	326631424	22	4587
2026-01-18 02:43:24.68	357.26	27.93	-29.9	-31.9	20.1	6.00e-01	0	43	0	328728576	22	4504
2026-01-18 02:43:25.69	357.07	28.10	-29.9	-31.8	20.1	6.01e-01	0	43	0	330825728	22	4485
2026-01-18 02:43:26.69	356.88	28.28	-30.0	-32.0	20.0	6.01e-01	0	43	0	332398592	22	4553
2026-01-18 02:43:27.70	356.69	28.46	-30.0	-32.0	20.0	6.03e-01	0	43	0	334495744	22	4526
2026-01-18 02:43:28.69	356.50	28.64	-29.9	-31.8	20.1	6.00e-01	0	43	0	336068608	22	4471
2026-01-18 02:43:29.70	356.30	28.83	-30.0	-31.9	20.0	6.03e-01	0	43	0	338165760	22	4517
2026-01-18 02:43:30.70	356.10	29.01	-29.9	-32.2	20.1	5.99e-01	0	43	0	340262912	21	4697
2026-01-18 02:43:31.69	355.90	29.19	-29.9	-32.3	20.1	5.99e-01	0	43	0	341835776	21	4756
2026-01-18 02:43:32.69	355.70	29.37	-29.9	-32.2	20.2	6.01e-01	0	43	0	343932928	21	4696
2026-01-18 02:43:33.69	355.49	29.56	-29.7	-31.7	20.5	6.00e-01	0	43	0	345505792	21	4548
2026-01-18 02:43:34.70	355.28	29.74	-29.7	-31.8	20.4	6.00e-01	0	43	0	347602944	21	4583
2026-01-18 02:43:35.70	355.07	29.93	-29.8	-32.1	20.3	6.04e-01	0	43	0	349175808	21	4679
2026-01-18 02:43:36.71	354.85	30.12	-29.8	-31.9	20.3	6.02e-01	0	43	0	351272960	21	4624
2026-01-18 02:43:37.72	354.63	30.31	-29.7	-31.8	20.4	6.03e-01	0	43	0	353370112	21	4589
2026-01-18 02:43:38.72	354.41	30.50	-29.6	-31.5	20.6	6.00e-01	0	43	0	354942976	21	4490
2026-01-18 02:43:39.72	354.19	30.69	-29.6	-31.5	20.6	5.99e-01	0	43	0	357040128	21	4499
2026-01-18 02:43:40.73	353.96	30.88	-29.5	-31.7	20.8	5.99e-01	0	44	0	358612992	20	4667
2026-01-18 02:43:41.73	353.74	31.07	-29.5	-31.7	20.8	6.02e-01	0	43	0	360710144	20	4662
2026-01-18 02:43:42.73	353.50	31.27	-29.6	-32.0	20.5	6.00e-01	0	43	0	362807296	20	4757
2026-01-18 02:43:43.72	353.27	31.46	-29.7	-32.4	20.4	6.02e-01	0	43	0	364380160	20	4876
2026-01-18 02:43:44.73	353.03	31.65	-29.7	-32.4	20.4	6.01e-01	0	43	0	366477312	20	4878
2026-01-18 02:43:45.73	352.80	31.85	-29.8	-32.5	20.3	6.02e-01	0	43	0	368050176	20	4923
2026-01-18 02:43:46.74	352.55	32.05	-29.7	-32.3	20.4	6.03e-01	0	43	0	370147328	20	4856
2026-01-18 02:43:47.74	352.31	32.24	-29.7	-32.4	20.4	6.00e-01	0	43	0	371720192	20	4865
2026-01-18 02:43:48.74	352.06	32.44	-29.9	-32.7	20.2	5.99e-01	0	43	0	373817344	20	4973
2026-01-18 02:43:49.75	351.80	32.64	-29.8	-32.6	20.3	5.99e-01	0	43	0	375914496	20	4935
2026-01-18 02:43:50.75	351.55	32.84	-29.7	-32.1	20.5	5.98e-01	0	43	0	377487360	20	4798
2026-01-18 02:43:51.75	351.29	33.04	-29.6	-32.1	20.6	6.00e-01	0	43	0	379584512	20	4774
2026-01-18 02:43:52.76	351.02	33.24	-29.8	-32.6	20.3	6.01e-01	0	43	0	381157376	20	4932
2026-01-18 02:43:53.75	350.76	33.44	-29.9	-32.8	20.2	6.02e-01	0	43	0	383254528	20	5015
2026-01-18 02:43:54.76	350.49	33.65	-30.1	-32.8	19.9	6.00e-01	0	43	0	385351680	21	4904
2026-01-18 02:43:55.77	350.22	33.85	-30.2	-33.0	19.8	6.01e-01	0	43	0	386924544	21	4974
2026-01-18 02:43:56.77	349.94	34.05	-30.1	-32.8	19.9	6.01e-01	0	43	0	389021696	21	4891
2026-01-18 02:43:57.78	349.66	34.26	-30.0	-32.6	20.1	6.01e-01	0	43	0	390594560	21	4822
2026-01-18 02:43:58.78	349.38	34.46	-30.2	-32.9	19.9	5.99e-01	0	44	0	392691712	21	4949
2026-01-18 02:43:59.78	349.09	34.67	-30.1	-32.9	19.9	5.98e-01	0	43	0	394264576	21	4914
2026-01-18 02:44:00.76	348.80	34.87	-30.4	-33.6	19.5	6.00e-01	0	44	0	396361728	21	5172
2026-01-18 02:44:01.76	348.51	35.08	-30.4	-33.5	19.5	6.02e-01	0	44	0	398458880	21	5151
2026-01-18 02:44:02.77	348.21	35.29	-30.5	-33.8	19.3	6.00e-01	0	44	0	400031744	21	5271
2026-01-18 02:44:03.77	347.91	35.50	-30.6	-33.4	19.3	5.99e-01	0	44	0	402128896	22	4990
2026-01-18 02:44:04.77	347.60	35.70	-30.5	-33.3	19.4	6.01e-01	0	44	0	403701760	22	4957
2026-01-18 02:44:05.77	347.29	35.91	-30.6	-33.6	19.2	6.01e-01	0	44	0	405798912	22	5080
2026-01-18 02:44:06.77	346.98	36.12	-30.7	-33.7	19.2	6.00e-01	0	43	0	407896064	22	5098
2026-01-18 02:44:07.77	346.66	36.33	-30.6	-33.5	19.2	5.99e-01	0	44	0	409468928	22	5044
2026-01-18 02:44:08.77	346.34	36.54	-30.7	-33.6	19.2	6.00e-01	0	43	0	411566080	22	5080
2026-01-18 02:44:09.78	346.01	36.75	-30.7	-33.7	19.2	6.01e-01	0	44	0	413138944	22	5092
2026-01-18 02:44:10.79	345.67	36.97	-30.9	-34.2	18.9	6.01e-01	0	44	0	415236096	22	5283
2026-01-18 02:44:11.79	345.33	37.18	-30.9	-34.3	18.7	6.01e-01	0	43	0	417333248	22	5331
2026-01-18 02:44:12.80	344.99	37.39	-31.2	-34.7	18.2	6.00e-01	0	44	0	418906112	23	5354
2026-01-18 02:44:13.80	344.64	37.61	-31.3	-34.9	18.0	6.03e-01	0	44	0	421003264	23	5438
2026-01-18 02:44:14.81	344.29	37.82	-30.9	-33.9	18.7	6.02e-01	0	44	0	422576128	23	5060
2026-01-18 02:44:15.80	343.94	38.03	-30.9	-33.7	18.8	6.01e-01	0	43	0	424673280	23	4999
2026-01-18 02:44:16.81	343.58	38.24	-31.3	-34.8	18.1	5.98e-01	0	44	0	426246144	23	5422
2026-01-18 02:44:17.81	343.21	38.46	-31.4	-35.1	17.9	5.99e-01	0	43	0	428343296	23	5538
2026-01-18 02:44:18.81	342.84	38.67	-31.7	-35.7	17.2	6.02e-01	0	43	0	430440448	24	5682
2026-01-18 02:44:19.81	342.47	38.88	-31.7	-35.5	17.3	6.00e-01	0	43	0	432013312	24	5607
2026-01-18 02:44:20.81	342.09	39.10	-31.2	-34.2	18.1	6.00e-01	0	44	0	434110464	24	5091
2026-01-18 02:44:21.82	341.70	39.31	-31.0	-33.7	18.5	6.00e-01	0	44	0	435683328	24	4881
2026-01-18 02:44:22.82	341.31	39.52	-31.1	-34.3	18.4	6.04e-01	0	44	0	437780480	23	5220
2026-01-18 02:44:23.82	340.92	39.74	-31.2	-34.8	18.2	6.01e-01	0	43	0	439877632	23	5396
2026-01-18 02:44:24.83	340.51	39.95	-31.3	-34.8	18.1	6.02e-01	0	44	0	441450496	23	5422
2026-01-18 02:44:25.84	340.10	40.17	-31.4	-35.2	17.9	6.03e-01	0	44	0	443547648	23	5555
2026-01-18 02:44:26.85	339.69	40.38	-31.1	-34.2	18.5	6.03e-01	0	43	0	445120512	23	5184
2026-01-18 02:44:27.85	339.27	40.59	-30.9	-34.2	18.5	6.01e-01	0	44	0	447217664	22	5292
2026-01-18 02:44:28.85	338.85	40.80	-30.9	-34.4	18.4	5.99e-01	0	44	0	449314816	22	5370
2026-01-18 02:44:29.85	338.42	41.01	-31.0	-34.5	18.7	6.03e-01	0	43	0	450887680	22	5391
2026-01-18 02:44:30.86	337.98	41.23	-31.2	-34.5	18.2	6.02e-01	0	43	0	452984832	23	5286
2026-01-18 02:44:31.86	337.54	41.44	-31.2	-34.6	18.0	6.02e-01	0	44	0	454557696	23	5343
2026-01-18 02:44:32.86	337.09	41.65	-30.9	-33.7	18.8	5.98e-01	0	44	0	456654848	23	4985
2026-01-18 02:44:33.87	336.64	41.86	-30.7	-33.2	19.0	6.01e-01	0	44	0	458227712	23	4812
2026-01-18 02:44:34.86	336.18	42.06	-30.9	-33.7	18.9	6.00e-01	0	43	0	460324864	23	4978
2026-01-18 02:44:35.85	335.72	42.27	-31.0	-33.9	18.7	6.01e-01	0	44	0	462422016	23	5069
2026-01-18 02:44:36.86	335.25	42.47	-31.0	-34.2	18.5	5.99e-01	0	44	0	463994880	23	5152
2026-01-18 02:44:37.86	334.77	42.68	-30.8	-33.5	18.9	6.03e-01	0	43	0	466092032	23	4911
2026-01-18 02:44:38.87	334.29	42.88	-30.7	-33.3	19.1	6.00e-01	0	44	0	467664896	23	4831
2026-01-18 02:44:39.87	333.80	43.09	-30.8	-33.4	19.0	6.01e-01	0	43	0	469762048	23	4890
2026-01-18 02:44:40.87	333.30	43.29	-30.9	-34.2	18.8	6.01e-01	0	43	0	471334912	22	5269
2026-01-18 02:44:41.88	332.79	43.49	-30.9	-34.3	18.8	6.02e-01	0	44	0	473432064	22	5330
2026-01-18 02:44:42.88	332.29	43.69	-31.1	-34.3	18.4	6.00e-01	0	44	0	475529216	23	5226
2026-01-18 02:44:43.88	331.77	43.89	-30.9	-34.4	18.7	6.00e-01	0	43	0	477102080	22	5352
2026-01-18 02:44:44.88	331.25	44.08	-31.0	-34.6	18.6	6.01e-01	0	44	0	479199232	22	5451
2026-01-18 02:44:45.88	330.72	44.28	-31.0	-34.7	18.5	5.99e-01	0	43	0	480772096	22	5461
2026-01-18 02:44:46.88	330.19	44.47	-31.2	-34.7	18.2	6.00e-01	0	43	0	482869248	23	5347
2026-01-18 02:44:47.88	329.65	44.66	-31.0	-34.0	18.7	6.02e-01	0	44	0	484966400	23	5100
2026-01-18 02:44:48.88	329.10	44.85	-31.1	-34.4	18.4	6.03e-01	0	44	0	486539264	23	5249
2026-01-18 02:44:49.88	328.55	45.04	-31.1	-34.3	18.5	6.03e-01	0	44	0	488636416	23	5213
2026-01-18 02:44:50.89	327.98	45.22	-31.2	-34.5	18.3	5.99e-01	0	44	0	490209280	23	5304
2026-01-18 02:44:51.89	327.41	45.40	-31.2	-34.5	18.3	6.01e-01	0	43	0	492306432	23	5291
2026-01-18 02:44:52.89	326.84	45.58	-31.2	-34.5	18.4	6.02e-01	0	44	0	494403584	23	5286
2026-01-18 02:44:53.89	326.26	45.76	-31.6	-35.4	17.5	6.02e-01	0	44	0	495976448	24	5522
2026-01-18 02:44:54.90	325.66	45.94	-31.2	-34.7	18.3	6.02e-01	0	44	0	498073600	23	5341
2026-01-18 02:44:55.91	325.06	46.11	-31.0	-34.0	18.7	6.03e-01	0	44	0	499646464	23	5086
2026-01-18 02:44:56.92	324.46	46.29	-31.1	-34.2	18.5	5.98e-01	0	44	0	501743616	23	5161
2026-01-18 02:44:57.92	323.85	46.45	-31.1	-34.7	18.6	6.00e-01	0	44	0	503316480	22	5459
2026-01-18 02:44:58.92	323.23	46.62	-31.2	-34.6	18.3	6.01e-01	0	43	0	505413632	23	5321
2026-01-18 02:44:59.93	322.61	46.78	-30.9	-33.7	18.9	6.03e-01	0	44	0	507510784	23	4960
2026-01-18 02:45:00.93	321.98	46.94	-31.2	-34.6	18.3	6.02e-01	0	44	0	509083648	23	5328
2026-01-18 02:45:01.94	321.34	47.10	-31.2	-34.6	18.3	6.01e-01	0	44	0	511180800	23	5320
2026-01-18 02:45:02.94	320.70	47.25	-31.1	-34.4	18.5	6.02e-01	0	44	0	512753664	23	5234
2026-01-18 02:45:03.94	320.05	47.40	-31.2	-34.6	18.3	6.00e-01	0	44	0	514850816	23	5312
2026-01-18 02:45:04.94	319.40	47.54	-31.0	-34.0	18.7	5.99e-01	0	44	0	516423680	23	5092
2026-01-18 02:45:05.95	318.73	47.69	-31.5	-35.4	17.8	6.02e-01	0	44	0	518520832	23	5651
2026-01-18 02:45:06.95	318.07	47.83	-31.3	-34.8	18.1	6.01e-01	0	44	0	520617984	23	5404
2026-01-18 02:45:07.95	317.40	47.96	-30.9	-33.7	18.8	5.99e-01	0	44	0	522190848	23	4964
2026-01-18 02:45:08.96	316.71	48.09	-30.8	-33.6	19.0	6.04e-01	0	44	0	524288000	23	4952
2026-01-18 02:45:09.96	316.03	48.22	-31.1	-34.2	18.6	6.02e-01	0	43	0	526385152	23	5188
2026-01-18 02:45:10.96	315.34	48.34	-30.9	-33.7	18.8	6.01e-01	0	44	0	527958016	23	4990
2026-01-18 02:45:11.96	314.65	48.46	-31.0	-34.1	18.5	6.01e-01	0	44	0	530055168	23	5134
2026-01-18 02:45:12.97	313.94	48.57	-30.7	-33.1	19.2	6.01e-01	0	44	0	531628032	23	4769
2026-01-18 02:45:13.96	313.24	48.68	-30.9	-33.8	18.8	6.01e-01	0	44	0	533725184	23	5040
2026-01-18 02:45:14.96	312.53	48.79	-31.0	-33.9	18.8	5.99e-01	0	44	0	535298048	23	5061
2026-01-18 02:45:15.97	311.81	48.89	-30.7	-33.3	19.1	6.01e-01	0	44	0	537395200	23	4826
2026-01-18 02:45:16.97	311.09	48.99	-30.6	-33.1	19.3	5.97e-01	0	44	0	539492352	23	4760
2026-01-18 02:45:17.97	310.37	49.08	-31.1	-34.3	18.5	6.01e-01	0	44	0	541065216	23	5202
2026-01-18 02:45:18.98	309.63	49.17	-30.9	-33.8	18.9	6.01e-01	0	44	0	543162368	23	4999
2026-01-18 02:45:19.97	308.91	49.25	-30.9	-33.9	18.8	5.99e-01	0	44	0	544735232	23	5041
2026-01-18 02:45:20.98	308.16	49.33	-30.5	-32.8	19.4	6.01e-01	0	44	0	546832384	23	4656
2026-01-18 02:45:21.99	307.41	49.40	-30.7	-33.3	19.2	5.97e-01	0	44	0	548405248	23	4843
2026-01-18 02:45:22.99	306.67	49.47	-30.8	-33.4	19.0	6.01e-01	0	44	0	550502400	23	4881
2026-01-18 02:45:23.99	305.92	49.53	-30.6	-33.1	19.3	5.99e-01	0	44	0	552599552	23	4763
2026-01-18 02:45:24.99	305.18	49.59	-30.6	-33.1	19.3	6.01e-01	0	44	0	554172416	23	4754
2026-01-18 02:45:25.99	304.42	49.64	-31.0	-33.9	18.8	6.02e-01	0	44	0	556269568	23	5060
2026-01-18 02:45:27.00	303.66	49.69	-30.9	-33.8	18.8	5.99e-01	0	43	0	558366720	23	5009
2026-01-18 02:45:28.00	302.90	49.73	-30.7	-33.2	19.2	5.98e-01	0	44	0	559939584	23	4796
2026-01-18 02:45:29.00	302.14	49.77	-30.5	-32.7	19.5	6.00e-01	0	44	0	562036736	23	4635
2026-01-18 02:45:30.00	301.38	49.80	-30.7	-33.8	19.1	5.99e-01	0	44	0	563609600	22	5113
2026-01-18 02:45:31.00	300.62	49.82	-30.5	-33.2	19.4	6.00e-01	0	44	0	565706752	22	4927
2026-01-18 02:45:32.01	299.85	49.84	-30.5	-33.2	19.5	6.02e-01	0	44	0	567279616	22	4926
2026-01-18 02:45:33.01	299.08	49.86	-30.7	-33.9	19.2	6.01e-01	0	44	0	569376768	22	5151
2026-01-18 02:45:34.01	298.32	49.87	-31.2	-34.7	18.4	6.01e-01	0	43	0	571473920	23	5363
2026-01-18 02:45:35.02	297.55	49.87	-31.1	-34.4	18.4	5.99e-01	0	44	0	573046784	23	5265
2026-01-18 02:45:36.02	296.78	49.87	-30.9	-34.3	18.6	5.98e-01	0	44	0	575143936	22	5326
2026-01-18 02:45:37.03	296.01	49.87	-30.5	-33.3	19.2	5.99e-01	0	44	0	576716800	22	4968
2026-01-18 02:45:38.03	295.24	49.85	-30.4	-32.9	19.6	5.97e-01	0	44	0	578813952	22	4790
2026-01-18 02:45:39.02	294.48	49.84	-31.0	-34.0	18.8	6.00e-01	0	44	0	580386816	23	5087
2026-01-18 02:45:40.03	293.71	49.81	-30.6	-33.1	19.3	6.00e-01	0	44	0	582483968	23	4767
2026-01-18 02:45:41.03	292.95	49.79	-30.6	-33.7	19.3	6.02e-01	0	44	0	584581120	22	5133
2026-01-18 02:45:42.03	292.19	49.75	-31.6	-35.3	18.5	6.01e-01	0	44	0	586153984	23	5507
2026-01-18 02:45:43.04	291.42	49.71	-31.3	-35.0	18.2	6.03e-01	0	44	0	588251136	23	5501
2026-01-18 02:45:44.04	290.67	49.67	-31.4	-35.3	17.9	6.01e-01	0	44	0	589824000	23	5633
2026-01-18 02:45:45.04	289.91	49.62	-31.3	-35.2	17.9	6.02e-01	0	44	0	591921152	23	5588
2026-01-18 02:45:46.04	289.16	49.57	-31.2	-34.8	18.1	6.02e-01	0	44	0	593494016	23	5438
2026-01-18 02:45:47.04	288.41	49.51	-31.5	-35.6	17.7	6.01e-01	0	44	0	595591168	23	5780
2026-01-18 02:45:48.04	287.67	49.44	-31.0	-34.7	18.6	5.99e-01	0	44	0	597688320	22	5518
2026-01-18 02:45:49.05	286.92	49.37	-31.4	-35.2	18.0	6.00e-01	0	44	0	599261184	23	5616
2026-01-18 02:45:50.06	286.17	49.30	-31.7	-35.8	17.2	6.03e-01	0	44	0	601358336	24	5767
2026-01-18 02:45:51.06	285.43	49.22	-31.0	-34.8	18.5	6.00e-01	0	44	0	603455488	22	5538
2026-01-18 02:45:52.06	284.70	49.13	-30.9	-34.3	18.8	6.02e-01	0	44	0	605028352	22	5349
2026-01-18 02:45:53.06	283.98	49.04	-30.4	-32.9	19.7	6.01e-01	0	44	0	607125504	22	4814
2026-01-18 02:45:54.06	283.25	48.95	-31.0	-34.1	18.8	6.00e-01	0	44	0	608698368	23	5115
2026-01-18 02:45:55.07	282.53	48.85	-30.6	-33.0	19.4	6.02e-01	0	44	0	610795520	23	4733
2026-01-18 02:45:56.06	281.82	48.75	-30.6	-33.0	19.2	6.00e-01	0	44	0	612368384	23	4727
2026-01-18 02:45:57.06	281.11	48.64	-30.6	-33.0	19.0	6.03e-01	0	44	0	614465536	23	4756
2026-01-18 02:45:58.06	280.41	48.53	-31.2	-34.6	18.1	6.00e-01	0	44	0	616562688	23	5330
2026-01-18 02:45:59.07	279.70	48.41	-31.2	-34.6	18.2	6.03e-01	0	44	0	618135552	23	5361
2026-01-18 02:46:00.07	279.01	48.29	-30.6	-33.5	19.3	6.02e-01	0	44	0	620232704	22	5027
2026-01-18 02:46:01.07	278.32	48.17	-30.2	-32.4	20.0	6.02e-01	0	44	0	621805568	22	4655
2026-01-18 02:46:02.07	277.64	48.04	-30.2	-32.4	20.0	6.02e-01	0	44	0	623902720	22	4650
2026-01-18 02:46:03.07	276.97	47.91	-30.3	-32.7	19.6	6.02e-01	0	44	0	625475584	22	4747
2026-01-18 02:46:04.08	276.29	47.77	-30.8	-34.2	18.7	6.00e-01	0	44	0	627572736	22	5305
2026-01-18 02:46:05.08	275.63	47.63	-30.3	-32.8	19.7	6.02e-01	0	44	0	629669888	22	4799
2026-01-18 02:46:06.09	274.96	47.48	-29.8	-31.9	20.5	6.01e-01	0	44	0	631242752	21	4582
2026-01-18 02:46:07.09	274.31	47.34	-30.0	-32.6	19.9	6.01e-01	0	44	0	633339904	21	4822
2026-01-18 02:46:08.10	273.66	47.18	-30.3	-33.4	19.5	6.01e-01	0	44	0	635437056	21	5127
2026-01-18 02:46:09.09	273.02	47.03	-30.2	-32.9	19.9	6.00e-01	0	44	0	637009920	21	4937
2026-01-18 02:46:10.08	272.40	46.88	-30.6	-33.4	19.2	5.99e-01	0	44	0	638582784	22	4990
2026-01-18 02:46:11.09	271.77	46.71	-30.3	-32.8	19.7	6.02e-01	0	44	0	640679936	22	4782
2026-01-18 02:46:12.09	271.15	46.55	-30.2	-32.9	19.9	6.01e-01	0	44	0	642777088	21	4920
2026-01-18 02:46:13.09	270.53	46.38	-30.7	-33.7	19.0	5.97e-01	0	44	0	644349952	22	5108
2026-01-18 02:46:14.09	269.93	46.22	-30.6	-33.5	19.2	6.02e-01	0	43	0	646447104	22	5027
2026-01-18 02:46:15.09	269.33	46.04	-30.0	-31.9	20.2	5.99e-01	0	43	0	648019968	22	4499
2026-01-18 02:46:16.10	268.73	45.87	-29.8	-32.0	20.4	6.02e-01	0	43	0	650117120	21	4636
2026-01-18 02:46:17.10	268.14	45.69	-30.0	-32.5	20.1	6.02e-01	0	44	0	652214272	21	4782
2026-01-18 02:46:18.11	267.56	45.51	-30.3	-33.3	19.5	6.01e-01	0	44	0	653787136	21	5086
2026-01-18 02:46:19.11	266.98	45.33	-30.0	-32.5	20.1	6.04e-01	0	44	0	655884288	21	4788
2026-01-18 02:46:20.11	266.42	45.14	-29.7	-32.2	20.6	5.99e-01	0	44	0	657457152	20	4798
2026-01-18 02:46:21.11	265.86	44.96	-30.0	-32.9	20.1	6.02e-01	0	44	0	659554304	20	5068
2026-01-18 02:46:22.12	265.30	44.77	-29.7	-32.2	20.6	6.03e-01	0	44	0	661651456	20	4827
2026-01-18 02:46:23.12	264.75	44.58	-29.9	-32.8	20.2	6.01e-01	0	43	0	663224320	20	5014
2026-01-18 02:46:24.12	264.21	44.39	-29.7	-32.4	20.4	6.01e-01	0	44	0	665321472	20	4864
2026-01-18 02:46:25.13	263.67	44.19	-29.9	-32.8	20.2	6.01e-01	0	43	0	666894336	20	5011
2026-01-18 02:46:26.13	263.15	44.00	-29.8	-32.4	20.5	6.01e-01	0	43	0	668991488	20	4881
2026-01-18 02:46:27.13	262.63	43.80	-30.3	-33.2	19.6	6.04e-01	0	44	0	670564352	21	5060
2026-01-18 02:46:28.13	262.11	43.60	-29.8	-32.1	20.3	6.02e-01	0	44	0	672661504	21	4671
2026-01-18 02:46:29.13	261.61	43.40	-29.7	-32.2	20.5	6.02e-01	0	44	0	674758656	20	4830
2026-01-18 02:46:30.14	261.10	43.20	-29.5	-31.8	20.7	6.01e-01	0	44	0	676331520	20	4675
2026-01-18 02:46:31.14	260.61	42.99	-29.6	-32.0	20.7	6.01e-01	0	44	0	678428672	20	4758
2026-01-18 02:46:32.15	260.12	42.79	-29.9	-32.9	20.1	6.00e-01	0	44	0	680525824	20	5053
2026-01-18 02:46:33.15	259.63	42.58	-29.6	-31.9	20.7	6.02e-01	0	44	0	682098688	20	4722
2026-01-18 02:46:34.14	259.16	42.38	-29.9	-32.8	20.2	6.00e-01	0	44	0	683671552	20	5009
2026-01-18 02:46:35.14	258.70	42.17	-29.6	-32.1	20.5	5.99e-01	0	44	0	685768704	20	4770
2026-01-18 02:46:36.13	258.24	41.97	-29.6	-32.0	20.6	6.00e-01	0	43	0	687865856	20	4743
2026-01-18 02:46:37.13	257.78	41.76	-30.1	-33.3	19.9	6.00e-01	0	44	0	689438720	20	5195
2026-01-18 02:46:38.14	257.32	41.55	-30.0	-32.6	19.9	6.02e-01	0	44	0	691535872	21	4852
2026-01-18 02:46:39.15	256.88	41.33	-29.9	-32.2	20.2	6.02e-01	0	43	0	693633024	21	4700
2026-01-18 02:46:40.15	256.44	41.12	-30.1	-32.7	19.9	5.99e-01	0	44	0	695205888	21	4882
2026-01-18 02:46:41.15	256.00	40.91	-30.1	-32.8	19.8	6.02e-01	0	44	0	697303040	21	4925
2026-01-18 02:46:42.15	255.58	40.70	-30.1	-32.8	19.9	6.00e-01	0	44	0	698875904	21	4891
2026-01-18 02:46:43.16	255.15	40.49	-30.7	-33.9	18.8	5.99e-01	0	44	0	700973056	22	5218
2026-01-18 02:46:44.16	254.73	40.27	-30.4	-33.0	19.4	6.03e-01	0	44	0	702545920	22	4874
2026-01-18 02:46:45.16	254.32	40.06	-30.1	-32.3	19.8	6.00e-01	0	44	0	704643072	22	4647
2026-01-18 02:46:46.16	253.92	39.85	-30.2	-33.0	19.7	6.02e-01	0	44	0	706740224	21	4979
2026-01-18 02:46:47.17	253.51	39.63	-30.6	-33.6	19.0	6.02e-01	0	44	0	708313088	22	5110
2026-01-18 02:46:48.17	253.12	39.42	-30.6	-33.6	19.0	5.99e-01	0	44	0	710410240	22	5089
2026-01-18 02:46:49.16	252.74	39.21	-30.4	-33.0	19.4	6.03e-01	0	44	0	711983104	22	4877
2026-01-18 02:46:50.16	252.35	38.99	-30.6	-34.0	19.0	5.99e-01	0	44	0	714080256	21	5353
2026-01-18 02:46:51.16	251.97	38.78	-30.6	-34.1	19.0	6.02e-01	0	44	0	715653120	21	5393
2026-01-18 02:46:52.17	251.60	38.56	-30.8	-34.3	18.6	6.01e-01	0	44	0	717750272	22	5339
2026-01-18 02:46:53.17	251.23	38.35	-31.0	-34.7	18.3	6.02e-01	0	44	0	719847424	22	5506
2026-01-18 02:46:54.17	250.86	38.14	-30.9	-34.4	18.5	6.00e-01	0	44	0	721420288	22	5379
2026-01-18 02:46:55.18	250.50	37.92	-31.1	-34.9	18.2	6.01e-01	0	44	0	723517440	22	5593
2026-01-18 02:46:56.18	250.15	37.71	-31.0	-34.3	18.2	6.00e-01	0	44	0	725090304	23	5256
2026-01-18 02:46:57.19	249.79	37.49	-31.0	-34.2	18.2	6.00e-01	0	44	0	727187456	23	5219
2026-01-18 02:46:58.20	249.45	37.28	-31.1	-34.5	18.1	6.01e-01	0	43	0	729284608	23	5315
2026-01-18 02:46:59.20	249.11	37.06	-30.9	-34.0	18.5	6.02e-01	0	44	0	730857472	23	5114
2026-01-18 02:47:00.21	248.77	36.85	-31.1	-34.4	18.2	6.00e-01	0	44	0	732954624	23	5270
2026-01-18 02:47:01.21	248.44	36.64	-30.8	-33.5	18.7	6.03e-01	0	44	0	734527488	23	4958
2026-01-18 02:47:02.22	248.11	36.42	-30.8	-33.6	18.7	5.97e-01	0	44	0	736624640	23	4984
2026-01-18 02:47:03.22	247.78	36.21	-30.6	-33.1	18.9	5.98e-01	0	44	0	738721792	23	4814
2026-01-18 02:47:04.22	247.47	36.00	-30.3	-32.9	19.3	6.01e-01	0	44	0	740294656	22	4857
2026-01-18 02:47:05.22	247.15	35.79	-30.4	-33.2	19.2	5.98e-01	0	44	0	742391808	22	4945
2026-01-18 02:47:06.23	246.84	35.58	-30.6	-33.6	18.9	5.99e-01	0	44	0	743964672	22	5120
2026-01-18 02:47:07.23	246.54	35.37	-30.7	-33.8	18.8	5.99e-01	0	44	0	746061824	22	5182
2026-01-18 02:47:08.24	246.23	35.16	-30.2	-32.6	19.6	6.02e-01	0	44	0	747634688	22	4729
2026-01-18 02:47:09.24	245.93	34.95	-30.1	-32.3	19.7	6.00e-01	0	44	0	749731840	22	4632
2026-01-18 02:47:10.24	245.64	34.75	-30.3	-33.0	19.3	5.99e-01	0	44	0	751828992	22	4882
2026-01-18 02:47:11.24	245.35	34.54	-30.3	-33.0	19.3	6.01e-01	0	44	0	753401856	22	4890
2026-01-18 02:47:12.25	245.06	34.33	-30.0	-32.1	19.8	6.01e-01	0	44	0	755499008	22	4597
2026-01-18 02:47:13.26	244.78	34.13	-29.9	-32.2	20.0	6.01e-01	0	44	0	757596160	21	4724
2026-01-18 02:47:14.26	244.50	33.92	-29.9	-32.5	19.9	6.03e-01	0	44	0	759169024	21	4812
2026-01-18 02:47:15.26	244.22	33.72	-29.8	-32.1	19.9	6.00e-01	0	44	0	761266176	21	4707
2026-01-18 02:47:16.27	243.95	33.51	-29.6	-32.0	20.3	6.02e-01	0	44	0	762839040	20	4767
2026-01-18 02:47:17.28	243.68	33.31	-29.7	-32.3	20.2	6.00e-01	0	44	0	764936192	20	4876
2026-01-18 02:47:18.27	243.42	33.11	-30.0	-33.2	19.6	6.00e-01	0	44	0	766509056	20	5179
2026-01-18 02:47:19.28	243.15	32.90	-30.0	-33.1	19.8	6.03e-01	0	43	0	768606208	20	5143
2026-01-18 02:47:20.27	242.90	32.71	-29.6	-32.1	20.3	5.99e-01	0	44	0	770703360	20	4798
2026-01-18 02:47:21.27	242.64	32.51	-29.6	-32.5	20.4	6.00e-01	0	44	0	772276224	19	5055
2026-01-18 02:47:22.28	242.39	32.31	-29.8	-32.6	20.0	6.01e-01	0	44	0	774373376	20	4988
2026-01-18 02:47:23.28	242.14	32.11	-29.8	-32.6	20.1	6.01e-01	0	44	0	775946240	20	4973
2026-01-18 02:47:24.28	241.90	31.91	-29.5	-32.0	20.4	6.00e-01	0	44	0	778043392	20	4763
2026-01-18 02:47:25.29	241.65	31.71	-29.3	-31.3	20.7	6.03e-01	0	44	0	779616256	20	4560
2026-01-18 02:47:26.30	241.41	31.51	-29.4	-31.7	20.5	6.00e-01	0	44	0	781713408	20	4681
2026-01-18 02:47:27.31	241.17	31.32	-29.7	-32.5	20.1	5.99e-01	0	44	0	783810560	20	4931
2026-01-18 02:47:28.31	240.94	31.12	-29.8	-32.7	20.0	6.01e-01	0	44	0	785383424	20	5022
2026-01-18 02:47:29.31	240.71	30.93	-29.8	-32.5	20.0	6.02e-01	0	44	0	787480576	20	4957
2026-01-18 02:47:30.31	240.48	30.74	-29.4	-31.6	20.6	5.98e-01	0	44	0	789053440	20	4657
2026-01-18 02:47:31.32	240.25	30.55	-29.4	-32.0	20.7	6.00e-01	0	44	0	791150592	19	4884
2026-01-18 02:47:32.32	240.03	30.36	-29.5	-32.4	20.5	6.01e-01	0	44	0	793247744	19	5031
2026-01-18 02:47:33.33	239.81	30.16	-29.5	-32.0	20.4	6.04e-01	0	44	0	794820608	20	4782
2026-01-18 02:47:34.33	239.60	29.98	-29.5	-32.3	20.5	6.01e-01	0	44	0	796917760	19	4985
2026-01-18 02:47:35.34	239.38	29.79	-29.4	-32.0	20.7	6.03e-01	0	44	0	798490624	19	4872
2026-01-18 02:47:36.34	239.17	29.60	-29.4	-32.0	20.6	6.02e-01	0	44	0	800587776	19	4896
2026-01-18 02:47:37.35	238.96	29.41	-29.6	-32.0	20.2	5.99e-01	0	44	0	802684928	20	4786
2026-01-18 02:47:38.35	238.75	29.23	-29.7	-32.4	20.0	5.98e-01	0	44	0	804257792	20	4915
2026-01-18 02:47:39.36	238.55	29.04	-29.7	-32.3	20.1	6.00e-01	0	44	0	806354944	20	4890
2026-01-18 02:47:40.36	238.34	28.86	-29.6	-32.1	20.3	6.00e-01	0	44	0	807927808	20	4823
2026-01-18 02:47:41.36	238.15	28.68	-29.7	-32.4	20.1	6.01e-01	0	44	0	810024960	20	4912
2026-01-18 02:47:42.37	237.95	28.49	-29.9	-32.9	19.8	6.03e-01	0	44	0	812122112	20	5110
2026-01-18 02:47:43.37	237.75	28.31	-29.8	-32.6	19.9	6.01e-01	0	44	0	813694976	20	4999
2026-01-18 02:47:44.38	237.56	28.13	-29.6	-32.2	20.2	6.02e-01	0	44	0	815792128	20	4857
2026-01-18 02:47:45.38	237.37	27.95	-29.6	-32.6	20.3	5.99e-01	0	44	0	817364992	19	5076
2026-01-18 02:47:46.38	237.18	27.77	-29.6	-32.2	20.2	6.00e-01	0	44	0	819462144	20	4858
2026-01-18 02:47:47.39	237.00	27.60	-29.7	-32.4	20.1	6.00e-01	0	44	0	821035008	20	4904
2026-01-18 02:47:48.39	236.81	27.42	-29.8	-32.7	19.9	6.02e-01	0	44	0	823132160	20	5035
2026-01-18 02:47:49.38	236.63	27.25	-30.1	-32.9	19.4	6.03e-01	0	44	0	825229312	21	4980
2026-01-18 02:47:50.39	236.45	27.07	-30.0	-32.7	19.5	5.98e-01	0	44	0	826802176	21	4911
2026-01-18 02:47:51.39	236.28	26.90	-29.7	-31.9	20.0	6.00e-01	0	44	0	828899328	21	4651
2026-01-18 02:47:52.40	236.10	26.72	-29.6	-31.7	20.1	6.03e-01	0	44	0	830996480	21	4587
2026-01-18 02:47:53.40	235.93	26.55	-29.7	-32.0	20.0	5.99e-01	0	44	0	832569344	21	4668
2026-01-18 02:47:54.41	235.75	26.38	-29.8	-32.1	19.9	6.01e-01	0	44	0	834666496	21	4711
2026-01-18 02:47:55.41	235.58	26.21	-30.0	-32.6	19.6	6.00e-01	0	44	0	836239360	21	4887
2026-01-18 02:47:56.41	235.42	26.04	-30.0	-32.7	19.5	6.00e-01	0	44	0	838336512	21	4929
2026-01-18 02:47:57.41	235.25	25.87	-30.1	-33.0	19.4	6.03e-01	0	44	0	839909376	21	5022
2026-01-18 02:47:58.41	235.09	25.70	-29.8	-32.7	19.8	5.99e-01	0	44	0	842006528	20	5043
2026-01-18 02:47:59.42	234.93	25.54	-29.7	-32.6	19.9	6.00e-01	0	44	0	844103680	20	4975
2026-01-18 02:48:00.42	234.77	25.37	-29.8	-32.7	19.9	6.01e-01	0	44	0	845676544	20	5015
2026-01-18 02:48:01.42	234.61	25.21	-30.0	-33.3	19.5	5.99e-01	0	44	0	847773696	20	5227
2026-01-18 02:48:02.43	234.45	25.04	-30.2	-33.3	19.2	6.00e-01	0	44	0	849346560	21	5118
2026-01-18 02:48:03.43	234.30	24.88	-30.2	-33.4	19.1	6.02e-01	0	44	0	851443712	21	5161
2026-01-18 02:48:04.43	234.14	24.72	-30.4	-33.8	18.9	6.02e-01	0	44	0	853016576	21	5316
2026-01-18 02:48:05.43	233.99	24.56	-30.4	-33.9	18.7	5.97e-01	0	44	0	855113728	21	5383
2026-01-18 02:48:06.44	233.84	24.39	-30.4	-33.9	18.7	6.01e-01	0	43	0	857210880	21	5370
2026-01-18 02:48:07.43	233.69	24.24	-30.4	-33.7	18.8	6.03e-01	0	44	0	858783744	21	5295
2026-01-18 02:48:08.43	233.55	24.08	-30.2	-33.3	19.1	6.01e-01	0	44	0	860880896	21	5147
2026-01-18 02:48:09.43	233.40	23.92	-30.2	-33.2	19.1	5.99e-01	0	44	0	862453760	21	5121
2026-01-18 02:48:10.43	233.26	23.76	-30.0	-33.3	19.4	6.01e-01	0	44	0	864550912	20	5248
2026-01-18 02:48:11.43	233.12	23.61	-30.1	-33.5	19.3	6.01e-01	0	44	0	866123776	20	5329
2026-01-18 02:48:12.44	232.98	23.45	-30.2	-33.3	19.0	6.03e-01	0	44	0	868220928	21	5163
2026-01-18 02:48:13.44	232.84	23.30	-30.3	-33.5	19.0	6.00e-01	0	44	0	870318080	21	5226
2026-01-18 02:48:14.44	232.70	23.14	-30.1	-33.0	19.3	6.00e-01	0	44	0	871890944	21	5043
2026-01-18 02:48:15.44	232.56	22.99	-30.0	-33.4	19.3	5.98e-01	0	44	0	873988096	20	5317
2026-01-18 02:48:16.45	232.43	22.84	-30.0	-33.4	19.3	6.00e-01	0	44	0	876085248	20	5318
2026-01-18 02:48:17.45	232.29	22.69	-30.1	-33.6	19.2	5.98e-01	0	44	0	877658112	20	5378
2026-01-18 02:48:18.45	232.16	22.54	-30.1	-33.3	19.1	5.99e-01	0	44	0	879755264	21	5156
2026-01-18 02:48:19.45	232.03	22.39	-30.1	-33.2	19.1	6.01e-01	0	44	0	881328128	21	5146
2026-01-18 02:48:20.45	231.90	22.24	-30.1	-33.1	19.2	6.00e-01	0	44	0	883425280	21	5075
2026-01-18 02:48:21.45	231.77	22.09	-29.9	-33.0	19.5	5.98e-01	0	44	0	884998144	20	5160
2026-01-18 02:48:22.45	231.65	21.94	-29.8	-32.7	19.7	6.01e-01	0	44	0	887095296	20	5064
2026-01-18 02:48:23.46	231.52	21.80	-29.9	-33.0	19.5	6.00e-01	0	44	0	889192448	20	5172
2026-01-18 02:48:24.46	231.40	21.65	-29.8	-32.9	19.5	6.01e-01	0	44	0	890765312	20	5136
2026-01-18 02:48:25.47	231.27	21.50	-29.9	-33.1	19.4	5.98e-01	0	44	0	892862464	20	5210
2026-01-18 02:48:26.47	231.15	21.36	-29.9	-33.3	19.3	5.99e-01	0	44	0	894435328	20	5265
2026-01-18 02:48:27.48	231.03	21.21	-29.8	-33.0	19.5	6.01e-01	0	44	0	896532480	20	5156
2026-01-18 02:48:28.48	230.91	21.07	-29.9	-33.2	19.3	6.03e-01	0	44	0	898105344	20	5229
2026-01-18 02:48:29.48	230.79	20.93	-29.9	-33.1	19.4	5.99e-01	0	43	0	900202496	20	5202
2026-01-18 02:48:30.48	230.68	20.79	-30.0	-33.4	19.2	5.98e-01	0	44	0	902299648	20	5333
2026-01-18 02:48:31.49	230.56	20.65	-29.9	-33.2	19.2	5.97e-01	0	44	0	903872512	20	5263
2026-01-18 02:48:32.49	230.45	20.51	-29.8	-32.9	19.5	6.02e-01	0	44	0	905969664	20	5147
2026-01-18 02:48:33.50	230.33	20.37	-29.7	-32.7	19.5	5.98e-01	0	44	0	907542528	20	5076
2026-01-18 02:48:34.50	230.22	20.23	-29.9	-33.0	19.4	5.97e-01	0	44	0	909639680	20	5186
2026-01-18 02:48:35.50	230.11	20.09	-29.9	-33.3	19.3	6.03e-01	0	44	0	911736832	20	5274
2026-01-18 02:48:36.50	230.00	19.96	-29.9	-33.2	19.3	6.01e-01	0	44	0	913309696	20	5262
2026-01-18 02:48:37.51	229.89	19.82	-29.9	-33.3	19.3	6.01e-01	0	44	0	915406848	20	5291
2026-01-18 02:48:38.51	229.78	19.68	-29.9	-33.1	19.3	6.01e-01	0	44	0	916979712	20	5230
2026-01-18 02:48:39.51	229.67	19.55	-30.0	-33.5	19.1	6.03e-01	0	44	0	919076864	20	5366
2026-01-18 02:48:40.51	229.57	19.42	-29.8	-33.0	19.4	5.99e-01	0	44	0	921174016	20	5176
2026-01-18 02:48:41.52	229.46	19.28	-29.8	-33.0	19.4	6.00e-01	0	44	0	922746880	20	5167
2026-01-18 02:48:42.52	229.36	19.15	-29.9	-33.2	19.2	5.99e-01	0	44	0	924844032	20	5263
2026-01-18 02:48:43.52	229.25	19.02	-29.9	-33.1	19.4	6.00e-01	0	44	0	926416896	20	5200
2026-01-18 02:48:44.52	229.15	18.89	-30.0	-33.5	19.1	6.03e-01	0	44	0	928514048	20	5359
2026-01-18 02:48:45.52	229.05	18.76	-29.8	-33.0	19.4	6.02e-01	0	44	0	930086912	20	5175
2026-01-18 02:48:46.52	228.95	18.63	-29.9	-33.1	19.3	5.99e-01	0	44	0	932184064	20	5200
2026-01-18 02:48:47.53	228.85	18.50	-29.8	-32.9	19.4	6.00e-01	0	44	0	934281216	20	5128
2026-01-18 02:48:48.53	228.75	18.37	-29.8	-32.9	19.4	6.01e-01	0	44	0	935854080	20	5132
2026-01-18 02:48:49.53	228.65	18.24	-29.8	-32.8	19.5	6.02e-01	0	44	0	937951232	20	5109
2026-01-18 02:48:50.54	228.55	18.11	-29.8	-33.0	19.4	6.03e-01	0	44	0	939524096	20	5162
2026-01-18 02:48:51.53	228.46	17.99	-29.8	-32.9	19.4	5.99e-01	0	44	0	941621248	20	5143
2026-01-18 02:48:52.54	228.36	17.86	-29.7	-32.7	19.5	6.05e-01	0	44	0	943718400	20	5072
2026-01-18 02:48:53.55	228.27	17.73	-29.9	-33.3	19.1	6.01e-01	0	44	0	945291264	20	5296
2026-01-18 02:48:54.55	228.18	17.61	-30.0	-33.4	19.0	6.00e-01	0	44	0	947388416	20	5353
2026-01-18 02:48:55.55	228.08	17.48	-30.0	-33.4	19.1	6.01e-01	0	44	0	948961280	20	5329
2026-01-18 02:48:56.55	227.99	17.36	-30.1	-33.2	18.8	6.03e-01	0	44	0	951058432	21	5160
2026-01-18 02:48:57.55	227.90	17.24	-30.3	-33.8	18.5	6.00e-01	0	44	0	953155584	21	5375
2026-01-18 02:48:58.55	227.81	17.11	-30.4	-34.1	18.2	6.02e-01	0	44	0	954728448	21	5494
2026-01-18 02:48:59.55	227.72	16.99	-30.1	-33.2	18.8	5.99e-01	0	44	0	956825600	21	5147
2026-01-18 02:49:00.56	227.63	16.87	-30.0	-32.9	19.0	6.03e-01	0	44	0	958398464	21	5033
2026-01-18 02:49:01.55	227.55	16.75	-30.0	-32.9	19.0	6.03e-01	0	44	0	960495616	21	5031
2026-01-18 02:49:02.56	227.46	16.63	-30.0	-32.9	19.0	5.99e-01	0	44	0	962068480	21	5045
2026-01-18 02:49:03.56	227.37	16.51	-29.9	-32.7	19.1	6.02e-01	0	44	0	964165632	21	4966
2026-01-18 02:49:04.56	227.29	16.39	-29.7	-32.3	19.3	6.02e-01	0	44	0	966262784	21	4846
2026-01-18 02:49:05.56	227.20	16.27	-29.8	-32.4	19.3	6.02e-01	0	44	0	967835648	21	4874
2026-01-18 02:49:06.56	227.12	16.16	-29.8	-32.5	19.2	6.02e-01	0	44	0	969932800	21	4912
2026-01-18 02:49:07.57	227.03	16.04	-29.7	-32.3	19.3	5.98e-01	0	44	0	971505664	21	4831
2026-01-18 02:49:08.57	226.95	15.92	-29.9	-32.6	19.1	6.02e-01	0	44	0	973602816	21	4959
2026-01-18 02:49:09.58	226.87	15.81	-29.9	-33.2	19.0	6.00e-01	0	43	0	975175680	20	5293
2026-01-18 02:49:10.58	226.79	15.69	-29.8	-33.1	19.1	5.97e-01	0	44	0	977272832	20	5220
2026-01-18 02:49:11.58	226.71	15.57	-29.8	-33.0	19.2	6.03e-01	0	44	0	979369984	20	5213
2026-01-18 02:49:12.58	226.63	15.46	-29.8	-32.9	19.2	5.99e-01	0	44	0	980942848	20	5161
2026-01-18 02:49:13.58	226.55	15.35	-29.7	-32.8	19.3	6.02e-01	0	44	0	983040000	20	5121
2026-01-18 02:49:14.58	226.47	15.23	-29.7	-32.8	19.3	5.96e-01	0	44	0	984612864	20	5139
2026-01-18 02:49:15.58	226.39	15.12	-29.9	-33.1	19.1	6.01e-01	0	44	0	986710016	20	5244
2026-01-18 02:49:16.59	226.32	15.01	-29.8	-32.9	19.2	6.00e-01	0	44	0	988282880	20	5148
2026-01-18 02:49:17.59	226.24	14.90	-29.8	-32.9	19.2	6.02e-01	0	44	0	990380032	20	5159
2026-01-18 02:49:18.60	226.16	14.78	-29.8	-33.0	19.2	5.97e-01	0	44	0	992477184	20	5190
2026-01-18 02:49:19.60	226.09	14.67	-29.8	-33.0	19.1	6.02e-01	0	44	0	994050048	20	5202
2026-01-18 02:49:20.60	226.01	14.56	-29.9	-33.3	19.0	6.01e-01	0	44	0	996147200	20	5301
2026-01-18 02:49:21.60	225.94	14.45	-29.9	-33.2	19.0	6.02e-01	0	44	0	998244352	20	5265
2026-01-18 02:49:22.61	225.86	14.34	-29.8	-33.0	19.1	5.99e-01	0	43	0	999817216	20	5208
2026-01-18 02:49:23.61	225.79	14.24	-29.8	-33.0	19.1	6.02e-01	0	44	0	1001914368	20	5200
2026-01-18 02:49:24.61	225.72	14.13	-29.9	-33.3	18.9	6.02e-01	0	43	0	1003487232	20	5317
2026-01-18 02:49:25.62	225.65	14.02	-29.8	-33.2	19.0	6.02e-01	0	44	0	1005584384	20	5266
2026-01-18 02:49:26.63	225.58	13.91	-29.9	-33.3	18.9	6.01e-01	0	44	0	1007157248	20	5315
2026-01-18 02:49:27.63	225.51	13.80	-29.9	-33.3	18.9	6.02e-01	0	44	0	1009254400	20	5311
2026-01-18 02:49:28.64	225.43	13.70	-30.0	-33.7	18.7	6.03e-01	0	44	0	1011351552	20	5473
2026-01-18 02:49:29.64	225.37	13.59	-30.0	-33.7	18.6	6.02e-01	0	44	0	1012924416	20	5473
2026-01-18 02:49:30.65	225.30	13.48	-30.0	-33.5	18.7	6.00e-01	0	44	0	1015021568	20	5418
2026-01-18 02:49:31.65	225.23	13.38	-30.0	-33.2	18.6	6.02e-01	0	44	0	1016594432	21	5173
2026-01-18 02:49:32.65	225.16	13.28	-30.1	-33.4	18.5	6.01e-01	0	44	0	1018691584	21	5247
2026-01-18 02:49:33.65	225.09	13.17	-30.2	-33.5	18.4	6.02e-01	0	43	0	1020788736	21	5305
2026-01-18 02:49:34.65	225.03	13.07	-30.1	-33.4	18.5	6.01e-01	0	44	0	1022361600	21	5271
2026-01-18 02:49:35.65	224.96	12.97	-30.4	-34.1	18.0	6.03e-01	0	44	0	1024458752	21	5528
2026-01-18 02:49:36.65	224.89	12.86	-30.2	-33.9	18.1	6.01e-01	0	44	0	1026031616	21	5511
2026-01-18 02:49:37.65	224.83	12.76	-30.2	-33.8	18.2	6.01e-01	0	44	0	1028128768	21	5399
2026-01-18 02:49:38.65	224.76	12.66	-30.7	-34.5	17.4	6.01e-01	0	44	0	1029701632	22	5576
2026-01-18 02:49:39.66	224.70	12.56	-30.6	-34.2	17.6	6.01e-01	0	44	0	1031798784	22	5469
2026-01-18 02:49:40.67	224.64	12.46	-30.3	-33.3	18.1	5.99e-01	0	44	0	1033895936	22	5131
2026-01-18 02:49:41.67	224.57	12.36	-30.3	-33.3	18.2	6.02e-01	0	44	0	1035468800	22	5122
2026-01-18 02:49:42.67	224.51	12.26	-30.1	-32.9	18.4	6.01e-01	0	44	0	1037565952	22	4951
2026-01-18 02:49:43.68	224.45	12.16	-30.1	-33.0	18.4	5.98e-01	0	44	0	1039138816	22	4997
2026-01-18 02:49:44.68	224.39	12.06	-30.1	-33.0	18.3	6.00e-01	0	44	0	1041235968	22	4988
2026-01-18 02:49:45.68	224.32	11.96	-30.3	-33.5	18.0	6.02e-01	0	44	0	1043333120	22	5192
2026-01-18 02:49:46.69	224.26	11.86	-30.2	-33.2	18.2	6.02e-01	0	44	0	1044905984	22	5080
2026-01-18 02:49:47.69	224.20	11.76	-30.1	-32.9	18.4	6.00e-01	0	44	0	1047003136	22	4969
2026-01-18 02:49:48.69	224.14	11.66	-30.0	-32.7	18.5	5.97e-01	0	44	0	1048576000	22	4901
2026-01-18 02:49:49.70	224.08	11.56	-29.9	-32.8	18.7	6.02e-01	0	44	0	1050673152	21	5058
2026-01-18 02:49:50.70	224.02	11.47	-30.0	-33.2	18.4	6.00e-01	0	44	0	1052770304	21	5187
2026-01-18 02:49:51.71	223.96	11.37	-30.1	-33.6	18.2	6.01e-01	0	44	0	1054343168	21	5334
2026-01-18 02:49:52.71	223.91	11.28	-29.8	-32.7	18.8	6.03e-01	0	44	0	1056440320	21	5003
2026-01-18 02:49:53.71	223.85	11.18	-30.1	-33.4	18.3	6.01e-01	0	44	0	1058013184	21	5275
2026-01-18 02:49:54.72	223.79	11.08	-30.0	-33.2	18.4	5.97e-01	0	44	0	1060110336	21	5193
2026-01-18 02:49:55.72	223.73	10.99	-29.9	-33.0	18.5	5.99e-01	0	44	0	1061683200	21	5120
2026-01-18 02:49:56.73	223.68	10.89	-30.0	-33.1	18.4	6.01e-01	0	44	0	1063780352	21	5166
2026-01-18 02:49:57.73	223.62	10.80	-30.1	-33.3	18.3	6.02e-01	0	44	0	1065877504	21	5251
2026-01-18 02:49:58.73	223.57	10.71	-30.2	-33.7	18.0	6.00e-01	0	44	0	1067450368	21	5387
2026-01-18 02:49:59.73	223.51	10.61	-30.2	-33.6	18.1	5.99e-01	0	44	0	1069547520	21	5370
2026-01-18 02:50:00.74	223.45	10.52	-30.2	-33.7	18.1	6.02e-01	0	44	0	1071120384	21	5387
2026-01-18 02:50:01.74	223.40	10.43	-30.1	-33.6	18.1	6.01e-01	0	44	0	1073217536	21	5354
2026-01-18 02:50:02.75	223.35	10.33	-30.4	-34.4	17.6	6.01e-01	0	44	0	1075314688	21	5705
2026-01-18 02:50:03.75	223.29	10.24	-30.3	-34.0	17.8	6.01e-01	0	44	0	1076887552	21	5544
2026-01-18 02:50:04.75	223.24	10.15	-30.5	-34.6	17.4	6.02e-01	0	44	0	1078984704	21	5792
2026-01-18 02:50:05.75	223.19	10.06	-30.4	-34.5	17.5	6.01e-01	0	43	0	1080557568	21	5724
2026-01-18 02:50:06.76	223.13	9.97	-30.5	-34.8	17.3	5.99e-01	0	44	0	1082654720	21	5867
2026-01-18 02:50:07.76	223.08	9.88	-30.4	-33.9	17.5	6.01e-01	0	44	0	1084751872	22	5394
2026-01-18 02:50:08.77	223.03	9.79	-30.2	-33.4	17.9	6.01e-01	0	44	0	1086324736	22	5164
2026-01-18 02:50:09.76	222.98	9.70	-30.2	-34.0	17.8	6.02e-01	0	44	0	1088421888	21	5514
2026-01-18 02:50:10.77	222.93	9.61	-30.3	-34.1	17.8	6.03e-01	0	44	0	1089994752	21	5567
2026-01-18 02:50:11.78	222.87	9.52	-30.3	-34.0	17.7	6.01e-01	0	44	0	1092091904	21	5545
2026-01-18 02:50:12.78	222.82	9.43	-30.3	-34.2	17.6	6.03e-01	0	44	0	1093664768	21	5635
2026-01-18 02:50:13.77	222.77	9.34	-30.4	-34.4	17.5	6.02e-01	0	44	0	1095761920	21	5722
2026-01-18 02:50:14.78	222.72	9.25	-30.3	-34.2	17.6	6.00e-01	0	44	0	1097859072	21	5619
2026-01-18 02:50:15.78	222.68	9.17	-30.3	-34.0	17.7	6.01e-01	0	44	0	1099431936	21	5564
2026-01-18 02:50:16.79	222.63	9.08	-30.2	-33.9	17.8	6.00e-01	0	44	0	1101529088	21	5501
2026-01-18 02:50:17.79	222.58	8.99	-30.3	-34.1	17.6	6.00e-01	0	44	0	1103101952	21	5596
2026-01-18 02:50:18.80	222.53	8.90	-30.2	-34.0	17.7	5.99e-01	0	44	0	1105199104	21	5542
2026-01-18 02:50:19.80	222.48	8.82	-30.2	-34.0	17.6	6.01e-01	0	44	0	1107296256	21	5552
2026-01-18 02:50:20.81	222.43	8.73	-30.5	-34.7	17.2	6.01e-01	0	44	0	1108869120	21	5886
2026-01-18 02:50:21.81	222.38	8.64	-30.6	-35.0	17.0	5.99e-01	0	44	0	1110966272	21	6006
2026-01-18 02:50:22.81	222.34	8.56	-30.6	-35.0	17.1	6.02e-01	0	44	0	1112539136	21	6002
2026-01-18 02:50:23.81	222.29	8.47	-30.6	-34.7	16.8	6.00e-01	0	44	0	1114636288	22	5777
2026-01-18 02:50:24.82	222.24	8.39	-30.9	-35.5	16.3	6.01e-01	0	44	0	1116733440	22	6117
2026-01-18 02:50:25.82	222.20	8.30	-30.7	-34.8	16.6	6.00e-01	0	44	0	1118306304	22	5824
2026-01-18 02:50:26.83	222.15	8.22	-30.6	-34.6	16.8	6.00e-01	0	44	0	1120403456	22	5730
2026-01-18 02:50:27.83	222.11	8.14	-30.9	-35.6	16.2	5.97e-01	0	44	0	1121976320	22	6178
2026-01-18 02:50:28.83	222.06	8.05	-30.7	-35.1	16.4	5.99e-01	0	44	0	1124073472	22	5955
2026-01-18 02:50:29.83	222.02	7.97	-30.9	-35.7	16.1	6.00e-01	0	44	0	1125646336	22	6251
2026-01-18 02:50:30.83	221.97	7.89	-30.8	-35.3	16.2	6.00e-01	0	44	0	1127743488	22	6072
2026-01-18 02:50:31.83	221.93	7.80	-30.8	-35.3	16.4	6.01e-01	0	44	0	1129840640	22	6048
2026-01-18 02:50:32.83	221.88	7.72	-31.2	-36.3	15.2	5.99e-01	0	44	0	1131413504	23	6478
2026-01-18 02:50:33.84	221.84	7.64	-31.1	-35.7	15.6	6.03e-01	0	44	0	1133510656	23	6165
2026-01-18 02:50:34.84	221.80	7.55	-30.8	-35.0	16.1	6.00e-01	0	44	0	1135083520	23	5789
2026-01-18 02:50:35.84	221.75	7.47	-30.7	-34.9	16.5	6.00e-01	0	44	0	1137180672	22	5886
2026-01-18 02:50:36.85	221.71	7.39	-30.9	-35.6	16.1	6.01e-01	0	44	0	1139277824	22	6202
2026-01-18 02:50:37.85	221.67	7.31	-31.0	-36.1	15.6	6.03e-01	0	44	0	1140850688	22	6498
2026-01-18 02:50:38.85	221.62	7.23	-30.7	-35.0	16.5	6.00e-01	0	44	0	1142947840	22	5928
2026-01-18 02:50:39.86	221.58	7.15	-30.8	-35.3	16.2	5.98e-01	0	44	0	1144520704	22	6068
2026-01-18 02:50:40.85	221.54	7.07	-33.3	-50.7	3.9	7.44e-01	0	44	104	1146093568	27	26744
2026-01-18 02:50:41.86	221.50	6.99	-33.7	-53.0	3.8	7.49e-01	0	44	104	1146093568	28	33179
2026-01-18 02:50:42.86	221.46	6.91	-34.0	-53.6	3.8	7.47e-01	0	44	104	1146093568	28	34343

#Closed at: 2026-01-18 02:50:43
#Recorded file [1146 MB]: D:/data/31010_260118_054029.dat