passes_logs/2026/01/18/R2M6_AANII_01/R2M6_AANII_01__20260118_080401_NOAA_21_JPSS-2_rec.log

#Pass ID: 20260118_080401_NOAA 21 (JPSS-2)
#Satellite: NOAA 21 (JPSS-2)
#Configuration: NOAA 21
#almurnet v.1.7.20240730
#Start time: 2026-01-18 08:04:00

#Version: 2.2.20231116
#Station: R2M6_AANII_01
#Location: 30.233357 lon 59.946436 lat
#TLE: 1 54234U 22150A   26017.26823908  .00000042  00000+0  40962-4 0  9992
#TLE: 2 54234  98.7501 318.1405 0000613 274.2947  85.8159 14.19535194165131

#Time	Az	El	Level	Level2	SNR	BER	BlckErr	Temp	State	Recorded	gain1	gain2
2026-01-18 08:04:00.74	90.32	6.96	-32.5	-40.1	4.0	1.47e+00	0	40	0	0	26	8679
2026-01-18 08:04:01.74	90.22	7.02	-31.3	-36.1	4.5	1.41e+00	0	40	104	0	24	6234
2026-01-18 08:04:02.75	90.11	7.08	-31.2	-35.3	8.1	6.90e-02	0	40	0	0	23	5751
2026-01-18 08:04:03.76	90.01	7.14	-31.4	-35.8	7.7	7.09e-02	0	40	0	3145728	23	6031
2026-01-18 08:04:04.76	89.90	7.20	-31.1	-35.0	8.3	5.57e-02	0	40	0	6291456	23	5616
2026-01-18 08:04:05.77	89.79	7.26	-31.1	-35.0	8.3	4.84e-02	0	40	0	9437184	23	5619
2026-01-18 08:04:06.77	89.69	7.32	-31.1	-34.8	8.6	4.21e-02	0	40	0	12582912	23	5517
2026-01-18 08:04:07.78	89.58	7.38	-31.2	-35.1	8.4	4.32e-02	0	40	0	15728640	23	5635
2026-01-18 08:04:08.78	89.47	7.44	-31.3	-35.4	8.2	5.27e-02	0	40	0	18874368	23	5781
2026-01-18 08:04:09.78	89.36	7.50	-31.4	-36.0	7.7	6.68e-02	0	40	0	22020096	23	6075
2026-01-18 08:04:10.78	89.25	7.56	-31.4	-35.9	7.8	8.89e-02	0	40	0	24117248	23	6001
2026-01-18 08:04:11.78	89.15	7.62	-31.2	-35.0	8.5	5.31e-02	0	40	0	27262976	23	5598
2026-01-18 08:04:12.78	89.04	7.68	-30.8	-33.9	9.3	2.32e-02	0	40	0	30408704	23	5117
2026-01-18 08:04:13.78	88.93	7.74	-30.5	-33.3	10.0	8.43e-03	0	40	0	33554432	22	4990
2026-01-18 08:04:14.78	88.82	7.80	-30.1	-32.7	10.8	3.60e-03	0	40	0	36700160	21	4872
2026-01-18 08:04:15.79	88.70	7.86	-29.8	-31.9	11.4	1.38e-03	0	40	0	39845888	21	4589
2026-01-18 08:04:16.79	88.59	7.92	-29.7	-32.1	11.6	6.45e-04	0	40	0	42991616	20	4735
2026-01-18 08:04:17.79	88.48	7.98	-29.7	-32.0	11.7	6.66e-04	0	40	0	47185920	20	4718
2026-01-18 08:04:18.80	88.37	8.04	-29.7	-32.1	11.6	6.38e-04	0	40	0	49283072	20	4757
2026-01-18 08:04:19.80	88.25	8.10	-29.5	-31.4	12.0	4.65e-04	0	40	0	52428800	20	4531
2026-01-18 08:04:20.80	88.14	8.16	-29.4	-31.2	12.2	2.97e-04	0	40	0	55574528	20	4459
2026-01-18 08:04:21.80	88.03	8.22	-29.3	-31.1	12.3	2.25e-04	0	40	0	58720256	20	4411
2026-01-18 08:04:22.81	87.91	8.28	-29.3	-31.7	12.3	1.86e-04	0	40	0	61865984	19	4698
2026-01-18 08:04:23.81	87.80	8.34	-29.4	-31.8	12.2	1.90e-04	0	40	0	65011712	19	4740
2026-01-18 08:04:24.81	87.68	8.40	-29.6	-32.2	11.9	3.13e-04	0	40	0	68157440	19	4881
2026-01-18 08:04:25.81	87.57	8.46	-29.5	-32.0	12.2	2.57e-04	0	41	0	71303168	19	4799
2026-01-18 08:04:26.81	87.45	8.52	-29.5	-32.1	12.1	2.84e-04	0	40	0	74448896	19	4843
2026-01-18 08:04:27.81	87.33	8.58	-29.5	-31.9	12.2	2.02e-04	0	41	0	77594624	19	4768
2026-01-18 08:04:28.81	87.22	8.64	-29.4	-31.8	12.2	2.31e-04	0	40	0	80740352	19	4751
2026-01-18 08:04:29.81	87.10	8.70	-29.4	-31.9	12.2	1.80e-04	0	41	0	83886080	19	4765
2026-01-18 08:04:30.82	86.98	8.76	-29.4	-31.6	12.4	1.66e-04	0	41	0	87031808	19	4668
2026-01-18 08:04:31.82	86.86	8.82	-29.2	-31.2	12.7	7.93e-05	0	40	0	90177536	19	4533
2026-01-18 08:04:32.83	86.74	8.88	-29.3	-31.5	12.5	9.30e-05	0	41	0	93323264	19	4641
2026-01-18 08:04:33.83	86.62	8.94	-29.2	-31.2	12.8	6.10e-05	0	41	0	96468992	19	4521
2026-01-18 08:04:34.83	86.50	9.00	-28.9	-30.6	13.1	3.89e-05	0	41	0	99614720	19	4349
2026-01-18 08:04:35.83	86.38	9.06	-28.8	-30.2	13.3	1.29e-05	0	41	0	102760448	19	4240
2026-01-18 08:04:36.83	86.26	9.12	-28.8	-30.7	13.4	1.52e-05	0	41	0	105906176	18	4475
2026-01-18 08:04:37.83	86.14	9.18	-28.7	-30.6	13.5	1.37e-05	0	41	0	109051904	18	4439
2026-01-18 08:04:38.83	86.02	9.24	-28.6	-30.3	13.7	7.60e-06	0	41	0	112197632	18	4354
2026-01-18 08:04:39.83	85.89	9.30	-28.7	-30.5	13.5	9.90e-06	0	41	0	115343360	18	4425
2026-01-18 08:04:40.84	85.77	9.36	-28.8	-30.8	13.4	1.67e-05	0	41	0	118489088	18	4505
2026-01-18 08:04:41.84	85.65	9.42	-28.8	-30.7	13.4	1.29e-05	0	41	0	121634816	18	4485
2026-01-18 08:04:42.85	85.52	9.48	-28.7	-30.5	13.5	1.60e-05	0	41	0	124780544	18	4414
2026-01-18 08:04:43.85	85.40	9.54	-28.8	-30.7	13.4	9.90e-06	0	41	0	127926272	18	4496
2026-01-18 08:04:44.85	85.27	9.60	-28.8	-30.6	13.5	1.14e-05	0	41	0	131072000	18	4449
2026-01-18 08:04:45.86	85.14	9.66	-28.8	-30.6	13.5	9.90e-06	0	41	0	134217728	18	4450
2026-01-18 08:04:46.86	85.02	9.72	-28.7	-30.4	13.6	8.30e-06	0	41	0	137363456	18	4375
2026-01-18 08:04:47.87	84.89	9.78	-28.6	-30.2	13.7	5.30e-06	0	41	0	140509184	18	4321
2026-01-18 08:04:48.88	84.76	9.84	-28.7	-30.5	13.6	9.10e-06	0	41	0	143654912	18	4415
2026-01-18 08:04:49.88	84.63	9.90	-28.5	-30.1	13.8	3.00e-06	0	41	0	146800640	18	4290
2026-01-18 08:04:50.88	84.50	9.97	-28.5	-30.0	13.8	3.00e-06	0	41	0	149946368	18	4277
2026-01-18 08:04:51.88	84.38	10.03	-28.7	-30.3	13.7	3.00e-06	0	41	0	153092096	18	4371
2026-01-18 08:04:52.88	84.25	10.09	-28.8	-30.6	13.5	6.80e-06	0	41	0	156237824	18	4443
2026-01-18 08:04:53.88	84.12	10.15	-28.7	-30.4	13.6	8.30e-06	0	41	0	159383552	18	4400
2026-01-18 08:04:54.88	83.98	10.21	-28.7	-30.4	13.6	6.10e-06	0	41	0	162529280	18	4373
2026-01-18 08:04:55.88	83.85	10.27	-28.9	-31.0	13.2	1.44e-05	0	41	0	165675008	18	4584
2026-01-18 08:04:56.88	83.72	10.33	-28.9	-30.9	13.3	1.60e-05	0	41	0	168820736	18	4544
2026-01-18 08:04:57.88	83.59	10.39	-29.0	-31.1	13.3	8.30e-06	0	41	0	171966464	18	4585
2026-01-18 08:04:58.89	83.46	10.45	-29.3	-31.8	12.8	3.50e-05	0	41	0	175112192	18	4841
2026-01-18 08:04:59.89	83.32	10.51	-29.4	-32.1	12.6	8.16e-05	0	41	0	178257920	18	4915
2026-01-18 08:05:00.89	83.19	10.57	-29.3	-32.0	12.7	8.69e-05	0	41	0	181403648	18	4892
2026-01-18 08:05:01.89	83.05	10.63	-29.2	-31.7	12.9	4.50e-05	0	41	0	184549376	18	4776
2026-01-18 08:05:02.90	82.92	10.69	-29.2	-31.7	12.9	4.19e-05	0	41	0	187695104	18	4779
2026-01-18 08:05:03.90	82.78	10.75	-29.1	-31.4	13.1	2.82e-05	0	41	0	190840832	18	4689
2026-01-18 08:05:04.90	82.65	10.81	-29.1	-31.5	13.1	3.28e-05	0	41	0	193986560	18	4710
2026-01-18 08:05:05.90	82.51	10.87	-29.0	-31.2	13.2	3.50e-05	0	41	0	197132288	18	4644
2026-01-18 08:05:06.91	82.37	10.93	-29.3	-31.8	12.8	3.05e-05	0	41	0	200278016	18	4828
2026-01-18 08:05:07.91	82.23	10.99	-29.0	-31.1	13.2	3.12e-05	0	41	0	203423744	18	4605
2026-01-18 08:05:08.91	82.09	11.06	-28.8	-30.5	13.6	1.75e-05	0	41	0	206569472	18	4423
2026-01-18 08:05:09.91	81.95	11.12	-28.4	-29.8	14.1	3.00e-06	0	41	0	209715200	18	4207
2026-01-18 08:05:10.92	81.81	11.18	-28.4	-29.7	14.2	3.00e-06	0	41	0	212860928	18	4169
2026-01-18 08:05:11.92	81.67	11.24	-28.5	-30.0	14.0	0.00e+00	0	41	0	216006656	18	4250
2026-01-18 08:05:12.92	81.53	11.30	-28.3	-29.6	14.2	0.00e+00	0	41	0	219152384	18	4139
2026-01-18 08:05:13.92	81.39	11.36	-28.3	-29.5	14.3	3.00e-06	0	41	0	222298112	18	4126
2026-01-18 08:05:14.92	81.25	11.42	-28.5	-29.8	14.1	7.00e-07	0	41	0	225443840	18	4219
2026-01-18 08:05:15.91	81.11	11.48	-28.5	-29.8	14.1	2.20e-06	0	41	0	228589568	18	4207
2026-01-18 08:05:16.91	80.96	11.54	-28.5	-29.9	14.1	2.20e-06	0	41	0	231735296	18	4228
2026-01-18 08:05:17.92	80.82	11.60	-28.6	-30.1	13.9	0.00e+00	0	41	0	234881024	18	4293
2026-01-18 08:05:18.91	80.68	11.66	-28.4	-29.8	14.1	1.50e-06	0	41	0	238026752	18	4193
2026-01-18 08:05:19.90	80.53	11.72	-28.5	-29.9	14.1	7.00e-07	0	42	0	241172480	18	4221
2026-01-18 08:05:20.90	80.39	11.78	-28.6	-30.1	14.0	1.50e-06	0	41	0	244318208	18	4280
2026-01-18 08:05:21.91	80.24	11.84	-28.5	-30.0	14.0	0.00e+00	0	41	0	247463936	18	4256
2026-01-18 08:05:22.91	80.09	11.90	-28.6	-30.0	14.0	2.20e-06	0	42	0	250609664	18	4271
2026-01-18 08:05:23.91	79.94	11.96	-28.6	-30.2	13.9	3.00e-06	0	41	0	253755392	18	4313
2026-01-18 08:05:24.91	79.80	12.02	-28.7	-30.3	13.9	6.10e-06	0	41	0	255852544	18	4351
2026-01-18 08:05:25.91	79.65	12.08	-28.8	-30.5	13.7	9.90e-06	0	41	0	258998272	18	4412
2026-01-18 08:05:26.92	79.50	12.14	-28.6	-30.2	13.9	3.80e-06	0	41	0	262144000	18	4316
2026-01-18 08:05:27.92	79.35	12.20	-28.5	-29.9	14.1	3.80e-06	0	42	0	265289728	18	4244
2026-01-18 08:05:28.93	79.20	12.26	-28.5	-29.9	14.1	1.50e-06	0	41	0	268435456	18	4220
2026-01-18 08:05:29.92	79.05	12.32	-28.5	-29.9	14.1	3.00e-06	0	42	0	271581184	18	4215
2026-01-18 08:05:30.92	78.89	12.38	-28.6	-30.1	14.0	1.50e-06	0	42	0	274726912	18	4273
2026-01-18 08:05:31.92	78.74	12.44	-28.4	-29.7	14.3	0.00e+00	0	42	0	277872640	18	4161
2026-01-18 08:05:32.92	78.59	12.50	-28.4	-29.6	14.3	1.50e-06	0	42	0	281018368	18	4152
2026-01-18 08:05:33.93	78.43	12.56	-28.4	-29.6	14.3	7.00e-07	0	41	0	284164096	18	4150
2026-01-18 08:05:34.93	78.28	12.62	-28.4	-29.6	14.3	1.50e-06	0	42	0	287309824	18	4150
2026-01-18 08:05:35.93	78.12	12.68	-28.3	-29.4	14.4	2.20e-06	0	41	0	290455552	18	4095
2026-01-18 08:05:36.94	77.97	12.74	-28.4	-29.7	14.3	7.00e-07	0	42	0	293601280	18	4159
2026-01-18 08:05:37.95	77.81	12.79	-28.3	-29.5	14.3	0.00e+00	0	41	0	296747008	18	4132
2026-01-18 08:05:38.95	77.65	12.85	-28.4	-29.6	14.3	1.50e-06	0	41	0	299892736	18	4141
2026-01-18 08:05:39.95	77.49	12.91	-28.5	-29.8	14.2	7.00e-07	0	42	0	303038464	18	4197
2026-01-18 08:05:40.96	77.34	12.97	-28.4	-29.5	14.4	0.00e+00	0	42	0	306184192	18	4129
2026-01-18 08:05:41.96	77.18	13.03	-28.4	-29.7	14.3	7.00e-07	0	41	0	309329920	18	4170
2026-01-18 08:05:42.96	77.02	13.09	-28.4	-29.6	14.4	0.00e+00	0	42	0	312475648	18	4139
2026-01-18 08:05:43.97	76.86	13.15	-28.4	-29.8	14.2	7.00e-07	0	42	0	315621376	18	4188
2026-01-18 08:05:44.97	76.69	13.21	-28.4	-29.6	14.4	1.50e-06	0	41	0	318767104	18	4147
2026-01-18 08:05:45.96	76.54	13.27	-28.6	-30.1	14.0	1.50e-06	0	41	0	321912832	18	4289
2026-01-18 08:05:46.97	76.37	13.33	-28.4	-29.7	14.3	7.00e-07	0	41	0	325058560	18	4180
2026-01-18 08:05:47.98	76.21	13.39	-28.3	-29.4	14.5	0.00e+00	0	41	0	328204288	18	4090
2026-01-18 08:05:48.98	76.04	13.44	-28.4	-29.6	14.4	0.00e+00	0	42	0	331350016	18	4134
2026-01-18 08:05:49.98	75.88	13.50	-28.3	-29.5	14.5	7.00e-07	0	42	0	334495744	18	4111
2026-01-18 08:05:50.98	75.72	13.56	-28.5	-29.8	14.3	1.50e-06	0	42	0	337641472	18	4194
2026-01-18 08:05:51.98	75.55	13.62	-28.5	-29.8	14.2	0.00e+00	0	42	0	340787200	18	4206
2026-01-18 08:05:52.97	75.39	13.68	-28.5	-30.0	14.2	3.80e-06	0	42	0	343932928	18	4239
2026-01-18 08:05:53.97	75.22	13.73	-28.4	-29.6	14.4	0.00e+00	0	42	0	347078656	18	4151
2026-01-18 08:05:54.98	75.05	13.79	-28.5	-29.8	14.3	0.00e+00	0	42	0	350224384	18	4184
2026-01-18 08:05:55.99	74.88	13.85	-28.6	-30.1	14.1	1.50e-06	0	42	0	353370112	18	4272
2026-01-18 08:05:56.99	74.71	13.91	-28.5	-29.9	14.3	3.80e-06	0	42	0	356515840	18	4221
2026-01-18 08:05:57.99	74.54	13.96	-28.7	-30.3	14.0	3.00e-06	0	42	0	359661568	18	4328
2026-01-18 08:05:58.99	74.37	14.02	-28.4	-29.7	14.3	7.00e-07	0	42	0	362807296	18	4174
2026-01-18 08:05:59.99	74.20	14.08	-28.5	-29.8	14.4	7.00e-07	0	42	0	365953024	18	4178
2026-01-18 08:06:01.00	74.03	14.14	-28.4	-29.7	14.4	1.50e-06	0	42	0	369098752	18	4160
2026-01-18 08:06:02.00	73.86	14.19	-28.5	-29.8	14.4	0.00e+00	0	42	0	372244480	18	4185
2026-01-18 08:06:03.00	73.69	14.25	-28.6	-30.2	14.1	3.80e-06	0	42	0	375390208	18	4293
2026-01-18 08:06:04.00	73.51	14.31	-28.5	-29.8	14.3	7.00e-07	0	42	0	378535936	18	4194
2026-01-18 08:06:04.99	73.34	14.36	-28.4	-29.6	14.5	7.00e-07	0	42	0	381681664	18	4124
2026-01-18 08:06:06.00	73.16	14.42	-28.4	-29.6	14.4	1.50e-06	0	42	0	384827392	18	4147
2026-01-18 08:06:07.00	72.99	14.48	-28.4	-29.5	14.5	7.00e-07	0	42	0	387973120	18	4118
2026-01-18 08:06:08.00	72.81	14.53	-28.3	-29.5	14.5	7.00e-07	0	42	0	391118848	18	4100
2026-01-18 08:06:09.01	72.63	14.59	-28.3	-29.8	14.6	0.00e+00	0	42	0	394264576	17	4307
2026-01-18 08:06:10.01	72.46	14.65	-28.2	-29.8	14.6	7.00e-07	0	42	0	397410304	17	4281
2026-01-18 08:06:11.02	72.28	14.70	-28.3	-29.9	14.6	7.00e-07	0	42	0	400556032	17	4314
2026-01-18 08:06:12.03	72.10	14.76	-28.3	-29.8	14.6	1.50e-06	0	42	0	403701760	17	4296
2026-01-18 08:06:13.04	71.92	14.81	-28.3	-29.8	14.6	0.00e+00	0	42	0	406847488	17	4298
2026-01-18 08:06:14.04	71.74	14.87	-28.3	-30.0	14.5	0.00e+00	0	42	0	409993216	17	4336
2026-01-18 08:06:15.04	71.56	14.92	-28.4	-30.1	14.5	7.00e-07	0	42	0	413138944	17	4375
2026-01-18 08:06:16.05	71.37	14.98	-28.4	-30.1	14.4	0.00e+00	0	42	0	416284672	17	4396
2026-01-18 08:06:17.05	71.19	15.03	-28.6	-30.6	14.2	7.00e-07	0	42	0	419430400	17	4522
2026-01-18 08:06:18.06	71.01	15.09	-28.5	-30.4	14.3	7.00e-07	0	42	0	422576128	17	4458
2026-01-18 08:06:19.06	70.82	15.14	-28.5	-30.4	14.3	7.00e-07	0	42	0	425721856	17	4481
2026-01-18 08:06:20.06	70.64	15.20	-28.7	-30.8	14.0	4.50e-06	0	42	0	428867584	17	4597
2026-01-18 08:06:21.06	70.45	15.25	-28.7	-30.9	14.0	4.50e-06	0	42	0	432013312	17	4621
2026-01-18 08:06:22.07	70.27	15.31	-28.7	-30.9	14.0	3.00e-06	0	42	0	435159040	17	4623
2026-01-18 08:06:23.08	70.08	15.36	-28.8	-31.0	14.0	3.00e-06	0	42	0	438304768	17	4653
2026-01-18 08:06:24.08	69.89	15.41	-28.8	-31.1	13.9	2.20e-06	0	42	0	441450496	17	4686
2026-01-18 08:06:25.08	69.71	15.47	-28.8	-31.1	13.9	3.80e-06	0	42	0	444596224	17	4674
2026-01-18 08:06:26.08	69.52	15.52	-28.8	-31.0	13.9	2.20e-06	0	42	0	447741952	17	4654
2026-01-18 08:06:27.09	69.33	15.57	-28.8	-31.1	13.9	6.80e-06	0	42	0	450887680	17	4677
2026-01-18 08:06:28.10	69.14	15.63	-29.0	-31.0	13.7	5.30e-06	0	42	0	454033408	18	4538
2026-01-18 08:06:29.11	68.94	15.68	-28.8	-30.5	14.0	2.20e-06	0	42	0	457179136	18	4368
2026-01-18 08:06:30.11	68.75	15.73	-28.6	-29.9	14.3	2.20e-06	0	42	0	460324864	18	4226
2026-01-18 08:06:31.12	68.56	15.79	-28.4	-29.7	14.5	7.00e-07	0	42	0	463470592	18	4148
2026-01-18 08:06:32.12	68.37	15.84	-28.4	-29.5	14.6	1.50e-06	0	42	0	466616320	18	4111
2026-01-18 08:06:33.12	68.17	15.89	-28.5	-29.9	14.4	0.00e+00	0	42	0	469762048	18	4212
2026-01-18 08:06:34.11	67.98	15.94	-28.4	-29.6	14.6	7.00e-07	0	42	0	472907776	18	4133
2026-01-18 08:06:35.12	67.79	15.99	-28.5	-29.9	14.4	1.50e-06	0	42	0	476053504	18	4222
2026-01-18 08:06:36.12	67.59	16.04	-28.4	-29.5	14.6	0.00e+00	0	42	0	479199232	18	4099
2026-01-18 08:06:37.13	67.39	16.09	-28.2	-29.7	14.7	0.00e+00	0	42	0	482344960	17	4274
2026-01-18 08:06:38.13	67.20	16.14	-28.3	-29.7	14.7	0.00e+00	0	42	0	485490688	17	4278
2026-01-18 08:06:39.13	67.00	16.20	-28.4	-30.0	14.6	0.00e+00	0	42	0	488636416	17	4350
2026-01-18 08:06:40.13	66.80	16.25	-28.4	-30.0	14.6	0.00e+00	0	42	0	491782144	17	4358
2026-01-18 08:06:41.13	66.61	16.30	-28.3	-29.9	14.7	7.00e-07	0	42	0	494927872	17	4312
2026-01-18 08:06:42.14	66.41	16.35	-28.3	-30.0	14.6	0.00e+00	0	42	0	498073600	17	4335
2026-01-18 08:06:43.14	66.21	16.39	-28.4	-30.1	14.5	0.00e+00	0	42	0	501219328	17	4384
2026-01-18 08:06:44.15	66.00	16.44	-28.5	-30.4	14.3	0.00e+00	0	42	0	504365056	17	4473
2026-01-18 08:06:45.16	65.80	16.49	-28.5	-30.3	14.4	0.00e+00	0	42	0	507510784	17	4426
2026-01-18 08:06:46.16	65.60	16.54	-28.6	-30.5	14.3	1.50e-06	0	42	0	510656512	17	4483
2026-01-18 08:06:47.16	65.40	16.59	-28.4	-30.1	14.5	0.00e+00	0	42	0	513802240	17	4385
2026-01-18 08:06:48.17	65.19	16.64	-28.5	-30.4	14.4	0.00e+00	0	42	0	516947968	17	4453
2026-01-18 08:06:49.18	64.99	16.69	-28.4	-30.2	14.5	2.20e-06	0	42	0	520093696	17	4396
2026-01-18 08:06:50.18	64.78	16.73	-28.4	-30.2	14.5	0.00e+00	0	42	0	523239424	17	4393
2026-01-18 08:06:51.18	64.58	16.78	-28.4	-30.1	14.6	0.00e+00	0	42	0	526385152	17	4370
2026-01-18 08:06:52.18	64.37	16.83	-28.4	-30.0	14.6	0.00e+00	0	42	0	529530880	17	4355
2026-01-18 08:06:53.18	64.17	16.87	-28.4	-30.2	14.5	1.50e-06	0	42	0	532676608	17	4394
2026-01-18 08:06:54.19	63.96	16.92	-28.5	-30.2	14.5	0.00e+00	0	42	0	535822336	17	4403
2026-01-18 08:06:55.19	63.75	16.97	-28.2	-29.7	14.8	0.00e+00	0	42	0	538968064	17	4252
2026-01-18 08:06:56.20	63.54	17.01	-28.2	-29.6	14.9	1.50e-06	0	42	0	542113792	17	4214
2026-01-18 08:06:57.20	63.33	17.06	-28.2	-29.6	14.9	0.00e+00	0	42	0	545259520	17	4224
2026-01-18 08:06:58.21	63.12	17.10	-28.1	-29.4	15.0	0.00e+00	0	42	0	548405248	17	4166
2026-01-18 08:06:59.21	62.91	17.15	-28.0	-29.2	15.1	0.00e+00	0	42	0	551550976	17	4124
2026-01-18 08:07:00.21	62.70	17.19	-28.2	-29.6	14.9	0.00e+00	0	42	0	554696704	17	4219
2026-01-18 08:07:01.22	62.49	17.24	-28.0	-29.2	15.1	0.00e+00	0	42	0	556793856	17	4131
2026-01-18 08:07:02.22	62.28	17.28	-28.2	-29.6	14.9	0.00e+00	0	42	0	559939584	17	4221
2026-01-18 08:07:03.23	62.06	17.33	-28.0	-29.1	15.2	0.00e+00	0	42	0	563085312	17	4088
2026-01-18 08:07:04.23	61.85	17.37	-27.8	-28.7	15.4	0.00e+00	0	42	0	567279616	17	3981
2026-01-18 08:07:05.24	61.63	17.41	-27.7	-28.9	15.6	0.00e+00	0	42	0	570425344	16	4143
2026-01-18 08:07:06.23	61.42	17.45	-27.8	-29.2	15.4	0.00e+00	0	42	0	573571072	16	4227
2026-01-18 08:07:07.24	61.21	17.50	-28.0	-29.6	15.2	0.00e+00	0	42	0	576716800	16	4334
2026-01-18 08:07:08.24	60.99	17.54	-28.2	-30.1	14.8	0.00e+00	0	42	0	578813952	16	4485
2026-01-18 08:07:09.25	60.77	17.58	-28.2	-30.2	14.8	7.00e-07	0	42	0	581959680	16	4508
2026-01-18 08:07:10.26	60.55	17.62	-28.4	-30.6	14.6	0.00e+00	0	42	0	585105408	16	4624
2026-01-18 08:07:11.25	60.34	17.66	-28.2	-30.1	14.9	7.00e-07	0	42	0	588251136	16	4488
2026-01-18 08:07:12.25	60.12	17.70	-28.2	-30.1	14.9	0.00e+00	0	42	0	591396864	16	4468
2026-01-18 08:07:13.25	59.90	17.74	-28.2	-30.1	15.0	0.00e+00	0	42	0	594542592	16	4470
2026-01-18 08:07:14.26	59.68	17.78	-28.3	-30.2	14.9	0.00e+00	0	42	0	597688320	16	4513
2026-01-18 08:07:15.26	59.46	17.82	-28.3	-30.4	14.7	0.00e+00	0	42	0	600834048	16	4576
2026-01-18 08:07:16.26	59.24	17.86	-28.0	-29.7	15.1	0.00e+00	0	42	0	603979776	16	4360
2026-01-18 08:07:17.27	59.02	17.90	-27.9	-29.4	15.3	0.00e+00	0	42	0	607125504	16	4285
2026-01-18 08:07:18.27	58.80	17.94	-27.8	-29.2	15.4	0.00e+00	0	42	0	610271232	16	4210
2026-01-18 08:07:19.28	58.57	17.98	-27.8	-29.2	15.4	0.00e+00	0	42	0	613416960	16	4235
2026-01-18 08:07:20.28	58.35	18.01	-27.7	-29.0	15.6	0.00e+00	0	42	0	616562688	16	4159
2026-01-18 08:07:21.28	58.13	18.05	-27.7	-28.9	15.6	0.00e+00	0	42	0	619708416	16	4135
2026-01-18 08:07:22.28	57.91	18.09	-27.7	-29.0	15.6	0.00e+00	0	42	0	622854144	16	4163
2026-01-18 08:07:23.29	57.68	18.12	-27.6	-28.6	15.8	0.00e+00	0	42	0	625999872	16	4071
2026-01-18 08:07:24.29	57.46	18.16	-27.6	-28.7	15.7	0.00e+00	0	42	0	629145600	16	4090
2026-01-18 08:07:25.28	57.23	18.19	-27.6	-28.8	15.6	0.00e+00	0	42	0	632291328	16	4112
2026-01-18 08:07:26.29	57.00	18.23	-27.7	-28.8	15.7	0.00e+00	0	42	0	635437056	16	4125
2026-01-18 08:07:27.29	56.78	18.26	-27.7	-29.0	15.6	0.00e+00	0	42	0	638582784	16	4170
2026-01-18 08:07:28.29	56.55	18.30	-27.7	-29.0	15.5	0.00e+00	0	42	0	641728512	16	4184
2026-01-18 08:07:29.29	56.33	18.33	-27.7	-29.0	15.6	0.00e+00	0	42	0	644874240	16	4170
2026-01-18 08:07:30.30	56.10	18.37	-27.8	-29.1	15.5	0.00e+00	0	42	0	648019968	16	4207
2026-01-18 08:07:31.30	55.87	18.40	-27.7	-28.9	15.6	0.00e+00	0	42	0	651165696	16	4153
2026-01-18 08:07:32.31	55.64	18.43	-27.7	-28.9	15.6	0.00e+00	0	42	0	654311424	16	4137
2026-01-18 08:07:33.32	55.41	18.46	-27.7	-29.0	15.6	0.00e+00	0	42	0	657457152	16	4160
2026-01-18 08:07:34.32	55.18	18.50	-27.7	-29.0	15.6	0.00e+00	0	42	0	660602880	16	4163
2026-01-18 08:07:35.32	54.95	18.53	-27.8	-29.2	15.4	7.00e-07	0	42	0	663748608	16	4223
2026-01-18 08:07:36.33	54.71	18.56	-27.7	-28.9	15.6	0.00e+00	0	42	0	666894336	16	4132
2026-01-18 08:07:37.32	54.48	18.59	-27.7	-28.9	15.7	0.00e+00	0	42	0	670040064	16	4134
2026-01-18 08:07:38.31	54.26	18.62	-27.7	-29.0	15.6	0.00e+00	0	42	0	673185792	16	4160
2026-01-18 08:07:39.31	54.02	18.65	-27.8	-29.2	15.5	0.00e+00	0	42	0	676331520	16	4221
2026-01-18 08:07:40.31	53.79	18.68	-27.9	-29.3	15.4	0.00e+00	0	42	0	679477248	16	4254
2026-01-18 08:07:41.32	53.56	18.70	-27.9	-29.5	15.3	0.00e+00	0	42	0	682622976	16	4318
2026-01-18 08:07:42.32	53.32	18.73	-28.0	-29.6	15.2	0.00e+00	0	42	0	685768704	16	4338
2026-01-18 08:07:43.32	53.09	18.76	-28.0	-29.7	15.2	7.00e-07	0	42	0	688914432	16	4358
2026-01-18 08:07:44.33	52.85	18.79	-27.9	-29.5	15.3	0.00e+00	0	42	0	692060160	16	4303
2026-01-18 08:07:45.33	52.62	18.81	-28.0	-29.6	15.3	0.00e+00	0	42	0	695205888	16	4325
2026-01-18 08:07:46.33	52.38	18.84	-28.0	-29.5	15.3	0.00e+00	0	42	0	698351616	16	4306
2026-01-18 08:07:47.34	52.15	18.87	-28.0	-29.5	15.3	0.00e+00	0	42	0	701497344	16	4309
2026-01-18 08:07:48.33	51.91	18.89	-27.9	-29.3	15.4	0.00e+00	0	42	0	704643072	16	4255
2026-01-18 08:07:49.33	51.68	18.92	-27.9	-29.4	15.4	0.00e+00	0	42	0	707788800	16	4267
2026-01-18 08:07:50.33	51.44	18.94	-27.9	-29.5	15.3	0.00e+00	0	42	0	710934528	16	4304
2026-01-18 08:07:51.34	51.20	18.96	-27.9	-29.4	15.3	0.00e+00	0	42	0	714080256	16	4288
2026-01-18 08:07:52.34	50.97	18.99	-27.9	-29.4	15.4	0.00e+00	0	42	0	717225984	16	4268
2026-01-18 08:07:53.34	50.73	19.01	-27.9	-29.5	15.3	0.00e+00	0	42	0	720371712	16	4300
2026-01-18 08:07:54.35	50.49	19.03	-28.0	-29.5	15.3	0.00e+00	0	42	0	723517440	16	4312
2026-01-18 08:07:55.35	50.25	19.05	-28.0	-29.5	15.3	0.00e+00	0	42	0	726663168	16	4316
2026-01-18 08:07:56.35	50.01	19.07	-28.1	-29.8	15.2	0.00e+00	0	42	0	729808896	16	4388
2026-01-18 08:07:57.35	49.77	19.10	-28.1	-29.9	15.1	0.00e+00	0	42	0	732954624	16	4412
2026-01-18 08:07:58.36	49.53	19.12	-28.2	-30.0	15.0	0.00e+00	0	42	0	736100352	16	4455
2026-01-18 08:07:59.36	49.29	19.14	-28.2	-30.1	14.9	0.00e+00	0	42	0	739246080	16	4482
2026-01-18 08:08:00.36	49.05	19.15	-28.2	-30.0	15.0	0.00e+00	0	42	0	742391808	16	4440
2026-01-18 08:08:01.36	48.81	19.17	-28.0	-29.7	15.2	0.00e+00	0	42	0	745537536	16	4368
2026-01-18 08:08:02.36	48.57	19.19	-28.0	-29.7	15.2	0.00e+00	0	42	0	748683264	16	4358
2026-01-18 08:08:03.37	48.33	19.21	-28.0	-29.7	15.2	0.00e+00	0	42	0	751828992	16	4355
2026-01-18 08:08:04.37	48.09	19.23	-27.9	-29.4	15.4	0.00e+00	0	42	0	754974720	16	4262
2026-01-18 08:08:05.37	47.85	19.24	-27.8	-29.2	15.4	0.00e+00	0	42	0	758120448	16	4232
2026-01-18 08:08:06.37	47.61	19.26	-27.9	-29.4	15.4	0.00e+00	0	42	0	761266176	16	4274
2026-01-18 08:08:07.37	47.36	19.28	-27.9	-29.5	15.4	0.00e+00	0	42	0	764411904	16	4290
2026-01-18 08:08:08.37	47.12	19.29	-28.0	-29.7	15.2	0.00e+00	0	42	0	767557632	16	4362
2026-01-18 08:08:09.36	46.88	19.30	-28.0	-29.7	15.2	0.00e+00	0	42	0	770703360	16	4352
2026-01-18 08:08:10.37	46.64	19.32	-28.1	-29.8	15.1	0.00e+00	0	42	0	773849088	16	4401
2026-01-18 08:08:11.37	46.40	19.33	-28.0	-29.7	15.2	0.00e+00	0	42	0	776994816	16	4363
2026-01-18 08:08:12.37	46.15	19.35	-28.1	-29.8	15.2	0.00e+00	0	42	0	780140544	16	4384
2026-01-18 08:08:13.38	45.91	19.36	-28.1	-29.9	15.1	0.00e+00	0	42	0	783286272	16	4403
2026-01-18 08:08:14.38	45.66	19.37	-28.2	-30.0	15.1	0.00e+00	0	42	0	785383424	16	4432
2026-01-18 08:08:15.38	45.42	19.38	-28.1	-29.8	15.2	7.00e-07	0	42	0	789577728	16	4386
2026-01-18 08:08:16.38	45.18	19.39	-28.2	-30.0	15.1	0.00e+00	0	42	0	792723456	16	4461
2026-01-18 08:08:17.39	44.93	19.40	-28.2	-30.1	15.0	7.00e-07	0	42	0	795869184	16	4482
2026-01-18 08:08:18.39	44.69	19.41	-28.1	-29.9	15.1	0.00e+00	0	42	0	799014912	16	4405
2026-01-18 08:08:19.39	44.44	19.42	-28.1	-29.8	15.2	0.00e+00	0	42	0	802160640	16	4395
2026-01-18 08:08:20.39	44.20	19.43	-28.2	-30.0	15.0	7.00e-07	0	42	0	805306368	16	4444
2026-01-18 08:08:21.39	43.95	19.44	-28.3	-30.2	14.9	0.00e+00	0	42	0	807403520	16	4503
2026-01-18 08:08:22.40	43.71	19.45	-28.2	-30.0	15.1	0.00e+00	0	42	0	810549248	16	4442
2026-01-18 08:08:23.41	43.46	19.45	-28.0	-29.6	15.3	0.00e+00	0	42	0	813694976	16	4338
2026-01-18 08:08:24.41	43.22	19.46	-27.9	-29.5	15.3	0.00e+00	0	42	0	816840704	16	4301
2026-01-18 08:08:25.42	42.97	19.47	-27.9	-29.5	15.3	0.00e+00	0	42	0	819986432	16	4294
2026-01-18 08:08:26.42	42.72	19.47	-28.0	-29.6	15.3	0.00e+00	0	42	0	823132160	16	4335
2026-01-18 08:08:27.42	42.48	19.48	-27.9	-29.4	15.4	0.00e+00	0	42	0	826277888	16	4276
2026-01-18 08:08:28.42	42.23	19.48	-28.0	-29.6	15.2	0.00e+00	0	42	0	829423616	16	4346
2026-01-18 08:08:29.41	41.99	19.48	-27.9	-29.3	15.4	0.00e+00	0	42	0	832569344	16	4249
2026-01-18 08:08:30.42	41.74	19.49	-27.8	-29.1	15.6	0.00e+00	0	42	0	835715072	16	4201
2026-01-18 08:08:31.42	41.50	19.49	-27.8	-29.2	15.5	0.00e+00	0	42	0	838860800	16	4223
2026-01-18 08:08:32.42	41.25	19.49	-27.8	-29.2	15.5	0.00e+00	0	42	0	842006528	16	4210
2026-01-18 08:08:33.43	41.01	19.49	-27.8	-29.3	15.5	0.00e+00	0	42	0	845152256	16	4240
2026-01-18 08:08:34.43	40.76	19.50	-28.0	-29.6	15.3	0.00e+00	0	42	0	848297984	16	4321
2026-01-18 08:08:35.43	40.52	19.50	-28.0	-29.7	15.2	0.00e+00	0	42	0	851443712	16	4367
2026-01-18 08:08:36.43	40.27	19.50	-28.1	-29.9	15.1	0.00e+00	0	42	0	854589440	16	4424
2026-01-18 08:08:37.44	40.02	19.50	-28.1	-29.9	15.1	0.00e+00	0	42	0	857735168	16	4429
2026-01-18 08:08:38.44	39.78	19.49	-28.1	-29.8	15.2	0.00e+00	0	42	0	860880896	16	4378
2026-01-18 08:08:39.45	39.53	19.49	-28.1	-29.8	15.2	0.00e+00	0	42	0	864026624	16	4383
2026-01-18 08:08:40.45	39.29	19.49	-28.1	-29.9	15.1	0.00e+00	0	42	0	867172352	16	4414
2026-01-18 08:08:41.45	39.04	19.49	-28.1	-29.8	15.2	0.00e+00	0	42	0	870318080	16	4388
2026-01-18 08:08:42.46	38.79	19.48	-27.9	-29.3	15.4	0.00e+00	0	42	0	873463808	16	4259
2026-01-18 08:08:43.47	38.55	19.48	-27.8	-29.1	15.6	0.00e+00	0	42	0	876609536	16	4191
2026-01-18 08:08:44.48	38.30	19.48	-27.8	-29.2	15.5	0.00e+00	0	42	0	879755264	16	4211
2026-01-18 08:08:45.48	38.05	19.47	-27.8	-29.1	15.6	0.00e+00	0	42	0	882900992	16	4179
2026-01-18 08:08:46.48	37.81	19.46	-27.8	-29.1	15.6	0.00e+00	0	42	0	886046720	16	4184
2026-01-18 08:08:47.49	37.56	19.46	-27.9	-29.4	15.4	0.00e+00	0	42	0	889192448	16	4270
2026-01-18 08:08:48.49	37.32	19.45	-27.9	-29.4	15.3	0.00e+00	0	42	0	892338176	16	4278
2026-01-18 08:08:49.48	37.08	19.45	-27.8	-29.2	15.5	0.00e+00	0	42	0	895483904	16	4218
2026-01-18 08:08:50.48	36.83	19.44	-27.8	-29.2	15.4	0.00e+00	0	42	0	898629632	16	4234
2026-01-18 08:08:51.48	36.59	19.43	-27.8	-29.0	15.6	0.00e+00	0	42	0	901775360	16	4172
2026-01-18 08:08:52.48	36.34	19.42	-27.7	-29.0	15.6	0.00e+00	0	42	0	904921088	16	4159
2026-01-18 08:08:53.48	36.10	19.41	-27.7	-28.9	15.6	0.00e+00	0	42	0	908066816	16	4154
2026-01-18 08:08:54.48	35.86	19.40	-27.7	-29.0	15.6	0.00e+00	0	42	0	911212544	16	4155
2026-01-18 08:08:55.48	35.61	19.39	-27.7	-28.9	15.6	0.00e+00	0	42	0	914358272	16	4134
2026-01-18 08:08:56.48	35.37	19.38	-27.7	-29.0	15.6	0.00e+00	0	42	0	917504000	16	4170
2026-01-18 08:08:57.49	35.12	19.37	-27.7	-29.1	15.5	0.00e+00	0	42	0	920649728	16	4185
2026-01-18 08:08:58.49	34.88	19.36	-27.7	-29.0	15.6	0.00e+00	0	42	0	923795456	16	4161
2026-01-18 08:08:59.50	34.64	19.34	-27.6	-28.7	15.8	0.00e+00	0	42	0	926941184	16	4092
2026-01-18 08:09:00.50	34.39	19.33	-27.7	-28.9	15.6	0.00e+00	0	42	0	930086912	16	4140
2026-01-18 08:09:01.51	34.15	19.32	-27.7	-29.0	15.6	0.00e+00	0	42	0	933232640	16	4176
2026-01-18 08:09:02.51	33.91	19.30	-27.8	-29.2	15.5	0.00e+00	0	42	0	936378368	16	4217
2026-01-18 08:09:03.51	33.67	19.29	-27.8	-29.2	15.5	0.00e+00	0	42	0	939524096	16	4223
2026-01-18 08:09:04.51	33.42	19.27	-27.8	-29.1	15.5	0.00e+00	0	42	0	942669824	16	4199
2026-01-18 08:09:05.51	33.18	19.26	-27.7	-29.0	15.6	0.00e+00	0	42	0	945815552	16	4186
2026-01-18 08:09:06.51	32.94	19.24	-27.7	-29.0	15.6	0.00e+00	0	42	0	948961280	16	4163
2026-01-18 08:09:07.51	32.70	19.22	-27.7	-28.9	15.6	0.00e+00	0	42	0	952107008	16	4136
2026-01-18 08:09:08.52	32.46	19.21	-27.7	-28.9	15.6	0.00e+00	0	42	0	955252736	16	4132
2026-01-18 08:09:09.52	32.22	19.19	-27.6	-28.7	15.7	0.00e+00	0	42	0	958398464	16	4089
2026-01-18 08:09:10.52	31.98	19.17	-27.7	-28.9	15.6	0.00e+00	0	42	0	961544192	16	4146
2026-01-18 08:09:11.53	31.74	19.15	-27.7	-28.9	15.6	0.00e+00	0	42	0	964689920	16	4139
2026-01-18 08:09:12.54	31.49	19.13	-27.7	-29.0	15.6	0.00e+00	0	42	0	967835648	16	4166
2026-01-18 08:09:13.54	31.25	19.11	-27.8	-29.1	15.5	0.00e+00	0	42	0	970981376	16	4205
2026-01-18 08:09:14.54	31.02	19.09	-27.9	-29.4	15.4	0.00e+00	0	42	0	974127104	16	4272
2026-01-18 08:09:15.54	30.78	19.07	-27.8	-29.2	15.5	0.00e+00	0	42	0	977272832	16	4216
2026-01-18 08:09:16.55	30.54	19.05	-27.7	-29.0	15.6	0.00e+00	0	42	0	980418560	16	4177
2026-01-18 08:09:17.55	30.30	19.03	-27.8	-29.1	15.5	0.00e+00	0	42	0	983564288	16	4185
2026-01-18 08:09:18.55	30.06	19.01	-27.8	-29.2	15.5	0.00e+00	0	42	0	986710016	16	4226
2026-01-18 08:09:19.56	29.82	18.98	-27.8	-29.2	15.5	7.00e-07	0	42	0	989855744	16	4222
2026-01-18 08:09:20.56	29.59	18.96	-27.7	-28.9	15.6	0.00e+00	0	42	0	993001472	16	4147
2026-01-18 08:09:21.56	29.35	18.93	-27.7	-28.9	15.6	0.00e+00	0	42	0	996147200	16	4139
2026-01-18 08:09:22.56	29.11	18.91	-27.6	-28.7	15.7	0.00e+00	0	42	0	999292928	16	4090
2026-01-18 08:09:23.56	28.88	18.89	-27.6	-28.7	15.7	0.00e+00	0	42	0	1002438656	16	4080
2026-01-18 08:09:24.56	28.64	18.86	-27.6	-28.7	15.7	0.00e+00	0	42	0	1005584384	16	4096
2026-01-18 08:09:25.56	28.41	18.84	-27.7	-28.9	15.7	0.00e+00	0	42	0	1008730112	16	4132
2026-01-18 08:09:26.57	28.17	18.81	-27.8	-29.1	15.5	0.00e+00	0	42	0	1011875840	16	4193
2026-01-18 08:09:27.57	27.94	18.78	-27.8	-29.2	15.5	0.00e+00	0	42	0	1015021568	16	4217
2026-01-18 08:09:28.57	27.70	18.75	-27.7	-29.0	15.6	0.00e+00	0	42	0	1018167296	16	4171
2026-01-18 08:09:29.57	27.47	18.73	-27.8	-29.1	15.5	0.00e+00	0	42	0	1021313024	16	4198
2026-01-18 08:09:30.57	27.24	18.70	-27.8	-29.1	15.5	0.00e+00	0	42	0	1024458752	16	4206
2026-01-18 08:09:31.58	27.00	18.67	-27.8	-29.2	15.5	0.00e+00	0	42	0	1027604480	16	4217
2026-01-18 08:09:32.58	26.77	18.64	-27.8	-29.2	15.4	0.00e+00	0	42	0	1030750208	16	4232
2026-01-18 08:09:33.59	26.54	18.61	-27.9	-29.4	15.3	0.00e+00	0	42	0	1033895936	16	4266
2026-01-18 08:09:34.59	26.31	18.58	-28.0	-29.5	15.2	0.00e+00	0	42	0	1037041664	16	4317
2026-01-18 08:09:35.60	26.08	18.55	-28.0	-29.7	15.2	0.00e+00	0	42	0	1040187392	16	4351
2026-01-18 08:09:36.60	25.85	18.52	-28.1	-29.9	15.0	0.00e+00	0	42	0	1043333120	16	4424
2026-01-18 08:09:37.61	25.61	18.49	-28.2	-30.1	14.9	0.00e+00	0	42	0	1046478848	16	4493
2026-01-18 08:09:38.60	25.39	18.46	-28.2	-30.1	14.9	0.00e+00	0	42	0	1049624576	16	4468
2026-01-18 08:09:39.60	25.16	18.43	-28.1	-29.9	15.0	0.00e+00	0	42	0	1052770304	16	4415
2026-01-18 08:09:40.60	24.93	18.39	-28.3	-30.3	14.8	0.00e+00	0	42	0	1055916032	16	4538
2026-01-18 08:09:41.60	24.70	18.36	-28.3	-30.3	14.8	0.00e+00	0	42	0	1059061760	16	4531
2026-01-18 08:09:42.61	24.47	18.33	-28.3	-30.2	14.8	0.00e+00	0	42	0	1061158912	16	4518
2026-01-18 08:09:43.60	24.25	18.29	-28.2	-30.2	14.8	0.00e+00	0	42	0	1064304640	16	4509
2026-01-18 08:09:44.60	24.02	18.26	-28.3	-30.3	14.8	0.00e+00	0	42	0	1067450368	16	4539
2026-01-18 08:09:45.61	23.80	18.22	-28.2	-30.2	14.9	0.00e+00	0	42	0	1070596096	16	4498
2026-01-18 08:09:46.61	23.57	18.19	-27.9	-29.4	15.3	0.00e+00	0	42	0	1073741824	16	4275
2026-01-18 08:09:47.62	23.35	18.15	-27.7	-29.0	15.5	0.00e+00	0	42	0	1076887552	16	4169
2026-01-18 08:09:48.62	23.12	18.12	-27.6	-28.8	15.6	0.00e+00	0	42	0	1080033280	16	4126
2026-01-18 08:09:49.63	22.90	18.08	-27.7	-28.9	15.5	0.00e+00	0	42	0	1083179008	16	4143
2026-01-18 08:09:50.63	22.67	18.04	-27.7	-28.9	15.5	0.00e+00	0	42	0	1086324736	16	4152
2026-01-18 08:09:51.63	22.45	18.01	-27.7	-28.8	15.6	0.00e+00	0	42	0	1089470464	16	4124
2026-01-18 08:09:52.63	22.23	17.97	-27.7	-29.0	15.5	0.00e+00	0	42	0	1092616192	16	4177
2026-01-18 08:09:53.64	22.01	17.93	-27.7	-29.0	15.5	0.00e+00	0	42	0	1095761920	16	4170
2026-01-18 08:09:54.65	21.78	17.89	-27.8	-29.2	15.4	0.00e+00	0	42	0	1098907648	16	4220
2026-01-18 08:09:55.65	21.56	17.85	-27.9	-29.3	15.3	0.00e+00	0	42	0	1102053376	16	4244
2026-01-18 08:09:56.65	21.34	17.82	-27.8	-29.1	15.4	0.00e+00	0	42	0	1105199104	16	4208
2026-01-18 08:09:57.65	21.13	17.78	-27.9	-29.5	15.2	0.00e+00	0	42	0	1108344832	16	4314
2026-01-18 08:09:58.65	20.91	17.74	-28.0	-29.5	15.2	0.00e+00	0	42	0	1111490560	16	4309
2026-01-18 08:09:59.65	20.69	17.70	-27.8	-29.2	15.4	0.00e+00	0	42	0	1114636288	16	4230
2026-01-18 08:10:00.65	20.47	17.66	-27.8	-29.3	15.3	0.00e+00	0	42	0	1117782016	16	4236
2026-01-18 08:10:01.65	20.26	17.62	-27.7	-29.0	15.5	0.00e+00	0	42	0	1120927744	16	4169
2026-01-18 08:10:02.66	20.04	17.57	-27.7	-28.9	15.5	0.00e+00	0	42	0	1124073472	16	4152
2026-01-18 08:10:03.66	19.82	17.53	-27.7	-28.9	15.6	0.00e+00	0	42	0	1127219200	16	4131
2026-01-18 08:10:04.67	19.61	17.49	-27.8	-29.1	15.4	0.00e+00	0	42	0	1130364928	16	4201
2026-01-18 08:10:05.67	19.39	17.45	-27.8	-29.1	15.4	0.00e+00	0	42	0	1133510656	16	4202
2026-01-18 08:10:06.68	19.18	17.41	-27.7	-28.9	15.5	0.00e+00	0	42	0	1136656384	16	4153
2026-01-18 08:10:07.68	18.97	17.36	-27.8	-29.2	15.4	0.00e+00	0	42	0	1139802112	16	4232
2026-01-18 08:10:08.69	18.75	17.32	-27.8	-29.2	15.4	0.00e+00	0	42	0	1142947840	16	4224
2026-01-18 08:10:09.69	18.54	17.28	-27.7	-28.8	15.6	0.00e+00	0	42	0	1146093568	16	4130
2026-01-18 08:10:10.69	18.33	17.23	-27.7	-29.0	15.5	0.00e+00	0	42	0	1149239296	16	4172
2026-01-18 08:10:11.70	18.12	17.19	-27.8	-29.1	15.4	0.00e+00	0	42	0	1152385024	16	4206
2026-01-18 08:10:12.70	17.91	17.14	-27.9	-29.3	15.3	0.00e+00	0	42	0	1155530752	16	4263
2026-01-18 08:10:13.70	17.70	17.10	-28.1	-29.8	15.0	0.00e+00	0	42	0	1158676480	16	4384
2026-01-18 08:10:14.71	17.49	17.05	-28.1	-29.9	14.9	0.00e+00	0	42	0	1161822208	16	4436
2026-01-18 08:10:15.72	17.28	17.01	-28.3	-30.3	14.8	0.00e+00	0	42	0	1164967936	16	4528
2026-01-18 08:10:16.72	17.07	16.96	-28.2	-30.0	14.8	0.00e+00	0	42	0	1168113664	16	4466
2026-01-18 08:10:17.72	16.86	16.92	-28.1	-29.9	15.0	0.00e+00	0	42	0	1171259392	16	4411
2026-01-18 08:10:18.72	16.66	16.87	-28.0	-29.6	15.1	0.00e+00	0	42	0	1174405120	16	4330
2026-01-18 08:10:19.72	16.45	16.82	-28.0	-29.7	15.1	0.00e+00	0	42	0	1177550848	16	4353
2026-01-18 08:10:20.73	16.25	16.78	-27.9	-29.4	15.2	0.00e+00	0	42	0	1180696576	16	4294
2026-01-18 08:10:21.73	16.04	16.73	-27.9	-29.5	15.2	0.00e+00	0	42	0	1183842304	16	4304
2026-01-18 08:10:22.74	15.84	16.68	-27.9	-29.3	15.3	0.00e+00	0	42	0	1186988032	16	4256
2026-01-18 08:10:23.73	15.64	16.63	-27.8	-29.3	15.3	0.00e+00	0	42	0	1190133760	16	4253
2026-01-18 08:10:24.74	15.43	16.59	-28.0	-29.7	15.1	0.00e+00	0	42	0	1193279488	16	4354
2026-01-18 08:10:25.74	15.23	16.54	-28.0	-29.7	15.1	0.00e+00	0	42	0	1196425216	16	4362
2026-01-18 08:10:26.74	15.03	16.49	-28.1	-30.0	14.9	0.00e+00	0	42	0	1199570944	16	4452
2026-01-18 08:10:27.74	14.83	16.44	-28.3	-30.4	14.6	0.00e+00	0	42	0	1202716672	16	4578
2026-01-18 08:10:28.75	14.63	16.39	-28.3	-30.2	14.7	0.00e+00	0	42	0	1205862400	16	4527
2026-01-18 08:10:29.76	14.43	16.34	-28.1	-30.0	14.9	0.00e+00	0	42	0	1209008128	16	4447
2026-01-18 08:10:30.76	14.23	16.29	-28.1	-29.9	14.9	0.00e+00	0	42	0	1212153856	16	4434
2026-01-18 08:10:31.77	14.03	16.24	-28.2	-30.0	14.8	0.00e+00	0	42	0	1215299584	16	4462
2026-01-18 08:10:32.77	13.83	16.19	-28.1	-29.9	14.9	0.00e+00	0	42	0	1218445312	16	4434
2026-01-18 08:10:33.78	13.64	16.14	-28.1	-30.0	14.9	0.00e+00	0	42	0	1221591040	16	4452
2026-01-18 08:10:34.77	13.44	16.09	-28.0	-29.8	15.0	0.00e+00	0	42	0	1224736768	16	4386
2026-01-18 08:10:35.77	13.25	16.04	-28.0	-29.5	15.1	0.00e+00	0	42	0	1227882496	16	4324
2026-01-18 08:10:36.77	13.06	15.99	-28.0	-29.6	15.1	0.00e+00	0	42	0	1231028224	16	4325
2026-01-18 08:10:37.79	12.86	15.94	-28.1	-30.0	14.9	0.00e+00	0	42	0	1234173952	16	4439
2026-01-18 08:10:38.79	12.67	15.89	-28.1	-29.9	14.9	7.00e-07	0	42	0	1237319680	16	4415
2026-01-18 08:10:39.80	12.47	15.83	-28.0	-29.7	15.0	0.00e+00	0	42	0	1240465408	16	4370
2026-01-18 08:10:40.80	12.28	15.78	-28.2	-30.0	14.9	0.00e+00	0	42	0	1243611136	16	4453
2026-01-18 08:10:41.80	12.09	15.73	-28.2	-30.0	14.8	7.00e-07	0	42	0	1246756864	16	4452
2026-01-18 08:10:42.81	11.90	15.68	-28.3	-30.3	14.7	0.00e+00	0	42	0	1249902592	16	4543
2026-01-18 08:10:43.81	11.71	15.62	-28.3	-30.2	14.7	7.00e-07	0	42	0	1253048320	16	4525
2026-01-18 08:10:44.81	11.52	15.57	-28.4	-30.5	14.5	0.00e+00	0	42	0	1256194048	16	4617
2026-01-18 08:10:45.81	11.33	15.52	-28.3	-30.4	14.6	0.00e+00	0	42	0	1259339776	16	4561
2026-01-18 08:10:46.82	11.14	15.47	-28.2	-30.1	14.8	7.00e-07	0	42	0	1262485504	16	4474
2026-01-18 08:10:47.82	10.96	15.41	-28.1	-29.9	14.9	0.00e+00	0	42	0	1265631232	16	4442
2026-01-18 08:10:48.83	10.77	15.36	-28.3	-30.3	14.7	1.50e-06	0	42	0	1268776960	16	4539
2026-01-18 08:10:49.83	10.58	15.30	-28.2	-30.2	14.7	7.00e-07	0	42	0	1271922688	16	4518
2026-01-18 08:10:50.83	10.40	15.25	-28.3	-30.3	14.6	0.00e+00	0	42	0	1275068416	16	4544
2026-01-18 08:10:51.83	10.22	15.20	-28.5	-30.7	14.4	2.20e-06	0	42	0	1278214144	16	4672
2026-01-18 08:10:52.84	10.03	15.14	-28.3	-30.0	14.5	0.00e+00	0	42	0	1281359872	17	4333
2026-01-18 08:10:53.84	9.85	15.09	-28.3	-29.9	14.6	0.00e+00	0	42	0	1284505600	17	4314
2026-01-18 08:10:54.85	9.66	15.03	-28.4	-30.1	14.5	7.00e-07	0	42	0	1287651328	17	4380
2026-01-18 08:10:55.85	9.48	14.98	-28.5	-30.2	14.4	0.00e+00	0	42	0	1290797056	17	4419
2026-01-18 08:10:56.85	9.30	14.92	-28.5	-30.3	14.3	1.50e-06	0	42	0	1293942784	17	4434
2026-01-18 08:10:57.86	9.12	14.87	-28.5	-30.3	14.3	7.00e-07	0	42	0	1297088512	17	4447
2026-01-18 08:10:58.87	8.94	14.81	-28.6	-30.6	14.2	7.00e-07	0	42	0	1300234240	17	4518
2026-01-18 08:10:59.87	8.76	14.76	-28.5	-30.3	14.3	0.00e+00	0	42	0	1303379968	17	4444
2026-01-18 08:11:00.87	8.59	14.70	-28.5	-30.2	14.3	1.50e-06	0	42	0	1306525696	17	4420
2026-01-18 08:11:01.87	8.41	14.65	-28.5	-30.4	14.2	0.00e+00	0	42	0	1309671424	17	4475
2026-01-18 08:11:02.87	8.23	14.59	-28.5	-30.3	14.3	2.20e-06	0	42	0	1312817152	17	4425
2026-01-18 08:11:03.88	8.05	14.53	-28.6	-30.7	14.1	1.50e-06	0	42	0	1315962880	17	4559
2026-01-18 08:11:04.88	7.88	14.48	-28.5	-30.4	14.3	7.00e-07	0	42	0	1319108608	17	4463
2026-01-18 08:11:05.88	7.71	14.42	-28.5	-30.2	14.4	7.00e-07	0	42	0	1322254336	17	4410
2026-01-18 08:11:06.88	7.53	14.37	-28.5	-30.3	14.3	7.00e-07	0	42	0	1325400064	17	4443
2026-01-18 08:11:07.88	7.36	14.31	-28.6	-30.6	14.1	3.00e-06	0	42	0	1328545792	17	4519
2026-01-18 08:11:08.89	7.18	14.25	-28.4	-30.2	14.4	1.50e-06	0	42	0	1331691520	17	4395
2026-01-18 08:11:09.89	7.01	14.20	-28.6	-30.7	14.1	7.00e-07	0	42	0	1334837248	17	4552
2026-01-18 08:11:10.90	6.84	14.14	-28.5	-30.4	14.3	1.50e-06	0	42	0	1337982976	17	4456
2026-01-18 08:11:11.90	6.67	14.08	-28.4	-30.0	14.5	1.50e-06	0	42	0	1341128704	17	4350
2026-01-18 08:11:12.91	6.50	14.02	-28.2	-29.7	14.6	1.50e-06	0	42	0	1344274432	17	4265
2026-01-18 08:11:13.91	6.33	13.97	-28.1	-29.5	14.7	1.50e-06	0	42	0	1347420160	17	4214
2026-01-18 08:11:14.91	6.16	13.91	-28.2	-29.7	14.6	7.00e-07	0	42	0	1350565888	17	4264
2026-01-18 08:11:15.91	5.99	13.85	-28.1	-29.5	14.7	1.50e-06	0	42	0	1353711616	17	4212
2026-01-18 08:11:16.90	5.83	13.79	-28.1	-29.4	14.8	0.00e+00	0	42	0	1356857344	17	4193
2026-01-18 08:11:17.91	5.66	13.74	-28.2	-29.5	14.7	0.00e+00	0	42	0	1360003072	17	4209
2026-01-18 08:11:18.91	5.49	13.68	-28.1	-29.4	14.8	0.00e+00	0	42	0	1362100224	17	4172
2026-01-18 08:11:19.91	5.33	13.62	-28.1	-29.5	14.7	0.00e+00	0	42	0	1365245952	17	4214
2026-01-18 08:11:20.92	5.16	13.56	-28.1	-29.4	14.8	0.00e+00	0	42	0	1368391680	17	4182
2026-01-18 08:11:21.93	5.00	13.50	-28.2	-29.7	14.6	0.00e+00	0	42	0	1371537408	17	4260
2026-01-18 08:11:22.92	4.84	13.45	-28.4	-30.0	14.4	0.00e+00	0	42	0	1374683136	17	4368
2026-01-18 08:11:23.93	4.67	13.39	-28.4	-30.1	14.4	1.50e-06	0	42	0	1377828864	17	4378
2026-01-18 08:11:24.93	4.51	13.33	-28.5	-30.4	14.2	0.00e+00	0	42	0	1382023168	17	4462
2026-01-18 08:11:25.94	4.35	13.27	-28.4	-30.2	14.3	1.50e-06	0	42	0	1384120320	17	4404
2026-01-18 08:11:26.94	4.19	13.21	-28.4	-30.2	14.3	1.50e-06	0	42	0	1387266048	17	4421
2026-01-18 08:11:27.95	4.03	13.15	-28.4	-30.1	14.3	0.00e+00	0	42	0	1390411776	17	4389
2026-01-18 08:11:28.95	3.87	13.09	-28.5	-30.4	14.2	0.00e+00	0	42	0	1393557504	17	4463
2026-01-18 08:11:29.96	3.71	13.03	-28.4	-30.2	14.3	0.00e+00	0	42	0	1396703232	17	4426
2026-01-18 08:11:30.97	3.55	12.98	-28.4	-30.2	14.3	0.00e+00	0	42	0	1399848960	17	4408
2026-01-18 08:11:31.97	3.39	12.92	-28.4	-30.1	14.3	2.20e-06	0	42	0	1402994688	17	4386
2026-01-18 08:11:32.97	3.23	12.86	-28.3	-29.9	14.4	0.00e+00	0	42	0	1406140416	17	4333
2026-01-18 08:11:33.98	3.08	12.80	-28.5	-30.4	14.2	2.20e-06	0	42	0	1409286144	17	4475
2026-01-18 08:11:34.98	2.92	12.74	-28.4	-30.2	14.3	7.00e-07	0	42	0	1412431872	17	4403
2026-01-18 08:11:35.98	2.77	12.68	-28.7	-30.8	13.9	2.20e-06	0	42	0	1415577600	17	4590
2026-01-18 08:11:36.98	2.61	12.62	-28.7	-30.7	13.9	1.50e-06	0	42	0	1418723328	17	4574
2026-01-18 08:11:37.99	2.46	12.56	-28.7	-30.7	13.9	6.10e-06	0	42	0	1421869056	17	4578
2026-01-18 08:11:38.99	2.31	12.50	-28.7	-30.9	13.8	4.50e-06	0	42	0	1425014784	17	4631
2026-01-18 08:11:39.99	2.15	12.44	-28.8	-31.1	13.7	5.30e-06	0	42	0	1428160512	17	4698
2026-01-18 08:11:40.99	2.00	12.38	-28.6	-30.7	13.9	7.60e-06	0	42	0	1431306240	17	4568
2026-01-18 08:11:41.99	1.85	12.32	-28.6	-30.6	14.0	7.00e-07	0	42	0	1434451968	17	4553
2026-01-18 08:11:43.00	1.70	12.26	-28.6	-30.6	14.0	5.30e-06	0	42	0	1437597696	17	4526
2026-01-18 08:11:44.01	1.55	12.20	-28.7	-30.8	13.8	1.50e-06	0	42	0	1440743424	17	4606
2026-01-18 08:11:45.02	1.40	12.14	-28.7	-30.8	13.9	4.50e-06	0	42	0	1443889152	17	4613
2026-01-18 08:11:46.02	1.25	12.08	-28.9	-31.3	13.6	8.30e-06	0	42	0	1447034880	17	4767
2026-01-18 08:11:47.02	1.10	12.02	-28.7	-30.9	13.8	2.20e-06	0	42	0	1450180608	17	4641
2026-01-18 08:11:48.03	0.95	11.96	-28.6	-30.7	13.9	3.00e-06	0	42	0	1453326336	17	4572
2026-01-18 08:11:49.03	0.81	11.90	-28.6	-30.6	14.0	3.00e-06	0	42	0	1456472064	17	4547
2026-01-18 08:11:50.04	0.66	11.84	-28.7	-30.9	13.8	3.00e-06	0	42	0	1459617792	17	4619
2026-01-18 08:11:51.04	0.51	11.78	-28.6	-30.6	14.0	1.50e-06	0	42	0	1462763520	17	4529
2026-01-18 08:11:52.04	0.37	11.72	-28.6	-30.5	14.0	2.20e-06	0	42	0	1465909248	17	4512
2026-01-18 08:11:53.04	0.23	11.66	-28.6	-30.6	13.9	2.20e-06	0	42	0	1469054976	17	4552
2026-01-18 08:11:54.05	0.08	11.60	-28.6	-30.5	14.0	1.50e-06	0	42	0	1472200704	17	4514
2026-01-18 08:11:55.06	359.94	11.54	-28.7	-30.9	13.8	1.50e-06	0	42	0	1475346432	17	4621
2026-01-18 08:11:56.06	359.79	11.48	-28.6	-30.6	13.9	4.50e-06	0	42	0	1478492160	17	4554
2026-01-18 08:11:57.07	359.65	11.42	-28.7	-30.8	13.8	6.10e-06	0	42	0	1481637888	17	4597
2026-01-18 08:11:58.08	359.51	11.36	-28.7	-30.9	13.8	3.00e-06	0	42	0	1484783616	17	4622
2026-01-18 08:11:59.08	359.37	11.30	-28.7	-30.9	13.8	3.80e-06	0	42	0	1487929344	17	4633
2026-01-18 08:12:00.09	359.23	11.24	-28.9	-31.3	13.5	9.10e-06	0	42	0	1491075072	17	4762
2026-01-18 08:12:01.10	359.09	11.18	-28.8	-31.1	13.6	4.50e-06	0	42	0	1494220800	17	4702
2026-01-18 08:12:02.09	358.95	11.12	-28.9	-31.4	13.5	1.29e-05	0	42	0	1497366528	17	4792
2026-01-18 08:12:03.09	358.81	11.06	-28.8	-31.1	13.6	1.14e-05	0	42	0	1500512256	17	4694
2026-01-18 08:12:04.10	358.67	11.00	-28.9	-31.5	13.4	1.22e-05	0	42	0	1503657984	17	4826
2026-01-18 08:12:05.10	358.54	10.94	-28.9	-31.3	13.5	1.60e-05	0	42	0	1506803712	17	4763
2026-01-18 08:12:06.10	358.40	10.88	-29.0	-31.1	13.3	1.60e-05	0	42	0	1509949440	18	4567
2026-01-18 08:12:07.11	358.26	10.82	-28.9	-30.8	13.5	1.14e-05	0	42	0	1513095168	18	4507
2026-01-18 08:12:08.11	358.13	10.76	-28.8	-30.5	13.6	6.10e-06	0	42	0	1516240896	18	4413
2026-01-18 08:12:09.11	357.99	10.70	-28.7	-30.4	13.7	9.10e-06	0	42	0	1519386624	18	4385
2026-01-18 08:12:10.12	357.86	10.64	-28.8	-30.5	13.7	9.90e-06	0	42	0	1522532352	18	4408
2026-01-18 08:12:11.12	357.72	10.58	-28.8	-30.7	13.5	7.60e-06	0	42	0	1525678080	18	4456
2026-01-18 08:12:12.12	357.59	10.51	-28.7	-30.3	13.8	4.50e-06	0	42	0	1528823808	18	4343
2026-01-18 08:12:13.13	357.46	10.45	-28.8	-30.5	13.7	6.80e-06	0	42	0	1531969536	18	4413
2026-01-18 08:12:14.13	357.32	10.39	-28.9	-30.9	13.4	9.90e-06	0	42	0	1535115264	18	4542
2026-01-18 08:12:15.13	357.19	10.33	-28.9	-30.9	13.4	1.90e-05	0	42	0	1538260992	18	4533
2026-01-18 08:12:16.12	357.06	10.27	-29.0	-31.0	13.3	2.21e-05	0	42	0	1541406720	18	4569
2026-01-18 08:12:17.13	356.93	10.21	-29.0	-31.2	13.2	1.67e-05	0	42	0	1544552448	18	4607
2026-01-18 08:12:18.13	356.80	10.15	-29.1	-31.4	13.0	4.11e-05	0	42	0	1547698176	18	4704
2026-01-18 08:12:19.12	356.67	10.09	-29.3	-31.9	12.7	7.40e-05	0	42	0	1550843904	18	4864
2026-01-18 08:12:20.12	356.55	10.03	-29.3	-31.8	12.8	7.24e-05	0	42	0	1553989632	18	4838
2026-01-18 08:12:21.12	356.42	9.97	-29.5	-31.9	12.4	1.20e-04	0	42	0	1557135360	19	4751
2026-01-18 08:12:22.13	356.29	9.91	-29.4	-31.6	12.6	1.16e-04	0	42	0	1560281088	19	4654
2026-01-18 08:12:23.13	356.16	9.85	-29.4	-31.6	12.6	1.42e-04	0	42	0	1563426816	19	4658
2026-01-18 08:12:24.14	356.04	9.79	-29.4	-31.6	12.6	9.68e-05	0	42	0	1566572544	19	4635
2026-01-18 08:12:25.14	355.91	9.73	-29.6	-32.3	12.1	2.26e-04	0	42	0	1569718272	19	4873
2026-01-18 08:12:26.14	355.78	9.67	-29.3	-31.4	12.8	8.54e-05	0	42	0	1572864000	19	4584
2026-01-18 08:12:27.14	355.66	9.61	-29.3	-31.4	12.7	6.33e-05	0	42	0	1576009728	19	4586
2026-01-18 08:12:28.15	355.53	9.55	-29.1	-31.0	13.0	4.57e-05	0	42	0	1579155456	19	4459
2026-01-18 08:12:29.15	355.41	9.49	-29.3	-31.4	12.7	7.70e-05	0	42	0	1582301184	19	4599
2026-01-18 08:12:30.15	355.29	9.43	-29.2	-31.1	12.9	5.34e-05	0	42	0	1585446912	19	4481
2026-01-18 08:12:31.15	355.16	9.37	-29.3	-31.3	12.7	6.71e-05	0	42	0	1588592640	19	4571
2026-01-18 08:12:32.15	355.04	9.31	-29.4	-31.7	12.5	7.62e-05	0	42	0	1591738368	19	4683
2026-01-18 08:12:33.15	354.92	9.25	-29.3	-31.5	12.6	1.20e-04	0	42	0	1594884096	19	4623
2026-01-18 08:12:34.16	354.80	9.19	-29.4	-31.8	12.5	1.36e-04	0	42	0	1598029824	19	4706
2026-01-18 08:12:35.16	354.68	9.13	-29.5	-31.9	12.4	1.37e-04	0	42	0	1601175552	19	4768
2026-01-18 08:12:36.16	354.56	9.07	-29.6	-32.1	12.2	1.91e-04	0	42	0	1604321280	19	4829
2026-01-18 08:12:37.16	354.44	9.01	-29.5	-31.9	12.4	1.76e-04	0	42	0	1607467008	19	4742
2026-01-18 08:12:38.16	354.32	8.95	-29.6	-32.3	12.1	2.43e-04	0	42	0	1610612736	19	4890
2026-01-18 08:12:39.16	354.20	8.89	-29.6	-32.3	12.1	2.58e-04	0	42	0	1613758464	19	4879
2026-01-18 08:12:40.17	354.08	8.83	-29.6	-32.2	12.1	2.60e-04	0	42	0	1616904192	19	4864
2026-01-18 08:12:41.17	353.96	8.77	-29.8	-32.8	11.7	4.98e-04	0	42	0	1620049920	19	5072
2026-01-18 08:12:42.17	353.85	8.71	-29.6	-32.1	12.2	2.97e-04	0	43	0	1623195648	19	4833
2026-01-18 08:12:43.17	353.73	8.65	-29.4	-31.7	12.4	1.23e-04	0	42	0	1626341376	19	4701
2026-01-18 08:12:44.17	353.61	8.59	-29.4	-31.7	12.4	1.16e-04	0	42	0	1629487104	19	4682
2026-01-18 08:12:45.17	353.50	8.53	-29.4	-31.6	12.5	1.31e-04	0	42	0	1632632832	19	4669
2026-01-18 08:12:46.18	353.38	8.47	-29.3	-31.3	12.7	6.71e-05	0	42	0	1635778560	19	4569
2026-01-18 08:12:47.18	353.27	8.41	-29.2	-31.1	12.8	6.86e-05	0	42	0	1638924288	19	4510
2026-01-18 08:12:48.18	353.15	8.35	-29.2	-31.2	12.7	6.71e-05	0	42	0	1642070016	19	4537
2026-01-18 08:12:49.18	353.04	8.29	-29.4	-31.6	12.5	9.30e-05	0	42	0	1645215744	19	4664
2026-01-18 08:12:50.19	352.92	8.23	-29.4	-31.6	12.4	1.28e-04	0	42	0	1648361472	19	4669
2026-01-18 08:12:51.19	352.81	8.17	-29.3	-31.5	12.5	1.45e-04	0	42	0	1651507200	19	4640
2026-01-18 08:12:52.20	352.70	8.11	-29.4	-31.6	12.4	1.12e-04	0	42	0	1654652928	19	4677
2026-01-18 08:12:53.20	352.59	8.05	-29.5	-32.1	12.1	2.27e-04	0	42	0	1657798656	19	4817
2026-01-18 08:12:54.19	352.48	7.99	-29.6	-32.1	12.1	2.84e-04	0	42	0	1659895808	19	4843
2026-01-18 08:12:55.20	352.36	7.93	-29.7	-32.6	11.8	3.31e-04	0	42	0	1663041536	19	4993
2026-01-18 08:12:56.19	352.26	7.87	-29.7	-32.5	11.8	5.58e-04	0	42	0	1666187264	19	4956
2026-01-18 08:12:57.20	352.14	7.81	-29.6	-32.2	12.0	3.17e-04	0	42	0	1669332992	19	4858
2026-01-18 08:12:58.19	352.04	7.75	-29.6	-32.3	11.9	3.62e-04	0	42	0	1672478720	19	4901
2026-01-18 08:12:59.20	351.93	7.69	-29.6	-32.2	12.0	2.75e-04	0	42	0	1675624448	19	4863
2026-01-18 08:13:00.20	351.82	7.63	-29.6	-32.2	12.0	3.07e-04	0	42	0	1678770176	19	4854
2026-01-18 08:13:01.21	351.71	7.57	-29.5	-32.0	12.1	3.14e-04	0	42	0	1681915904	19	4784
2026-01-18 08:13:02.22	351.60	7.51	-29.5	-31.9	12.2	2.55e-04	0	42	0	1685061632	19	4762
2026-01-18 08:13:03.22	351.49	7.45	-29.5	-32.1	12.0	2.76e-04	0	42	0	1688207360	19	4839
2026-01-18 08:13:04.23	351.38	7.39	-29.5	-32.0	12.1	2.55e-04	0	42	0	1691353088	19	4810
2026-01-18 08:13:05.22	351.28	7.34	-29.4	-31.7	12.3	1.75e-04	0	42	0	1694498816	19	4688
2026-01-18 08:13:06.23	351.17	7.28	-29.4	-31.6	12.3	1.79e-04	0	42	0	1697644544	19	4673
2026-01-18 08:13:07.24	351.07	7.22	-29.5	-31.9	12.1	2.32e-04	0	43	0	1700790272	19	4787
2026-01-18 08:13:08.24	350.96	7.16	-29.4	-31.6	12.3	2.20e-04	0	42	0	1703936000	19	4687
2026-01-18 08:13:09.24	350.86	7.10	-30.0	-33.0	11.1	2.42e-04	0	42	0	1707081728	20	5054
2026-01-18 08:13:10.25	350.75	7.04	-33.5	-45.0	3.8	1.49e+00	0	42	104	1708130304	27	13387

#Closed at: 2026-01-18 08:13:11
#Recorded file [1708 MB]: D:/data/31010_260118_110402.dat