passes_logs/2026/01/18/R2M6_AANII_01/R2M6_AANII_01__20260118_111043_FENGYUN_3D_rec.log

#Pass ID: 20260118_111043_FENGYUN 3D
#Satellite: FENGYUN 3D
#Configuration: FENGYUN 3D
#almurnet v.1.7.20240730
#Start time: 2026-01-18 11:10:45

#Version: 2.2.20231116
#Station: R2M6_AANII_01
#Location: 30.233357 lon 59.946436 lat
#TLE: 1 43010U 17072A   26017.25882587  .00000461  00000+0  23963-3 0  9992
#TLE: 2 43010  98.9934 349.1096 0002357 104.0487 256.0951 14.19697152423579

#Time	Az	El	Level	Level2	SNR	BER	BlckErr	Temp	State	Recorded	gain1	gain2
2026-01-18 11:10:45.26	123.27	7.15	-30.4	-33.3	5.2	7.92e-01	0	41	0	0	22	5046
2026-01-18 11:10:46.26	123.21	7.22	-30.3	-33.4	5.3	7.90e-01	0	41	104	0	21	5155
2026-01-18 11:10:47.27	123.15	7.30	-30.3	-33.4	9.4	1.57e-02	0	41	0	0	21	5145
2026-01-18 11:10:48.27	123.09	7.37	-30.3	-33.3	9.5	9.09e-03	0	41	0	5242880	21	5108
2026-01-18 11:10:49.27	123.03	7.44	-30.4	-33.6	9.3	1.31e-02	0	41	0	10485760	21	5234
2026-01-18 11:10:50.28	122.97	7.52	-30.5	-34.0	9.0	1.77e-02	0	41	0	16777216	21	5400
2026-01-18 11:10:51.28	122.91	7.59	-30.7	-34.4	8.7	3.18e-02	0	41	0	22020096	21	5529
2026-01-18 11:10:52.29	122.85	7.67	-30.2	-33.1	9.6	1.23e-02	0	41	0	28311552	21	5031
2026-01-18 11:10:53.29	122.79	7.74	-29.6	-32.1	10.7	3.06e-03	0	41	0	33554432	20	4750
2026-01-18 11:10:54.29	122.73	7.81	-29.3	-31.5	11.5	6.46e-04	0	41	0	38797312	19	4661
2026-01-18 11:10:55.29	122.67	7.89	-29.0	-30.9	11.9	4.20e-04	0	41	0	45088768	19	4458
2026-01-18 11:10:56.29	122.61	7.96	-28.6	-30.2	12.6	8.23e-05	0	41	0	50331648	18	4367
2026-01-18 11:10:57.30	122.55	8.04	-28.2	-30.0	13.1	2.63e-05	0	41	0	55574528	17	4398
2026-01-18 11:10:58.30	122.49	8.11	-28.2	-29.9	13.1	2.40e-05	0	41	0	61865984	17	4386
2026-01-18 11:10:59.31	122.42	8.19	-28.0	-29.5	13.4	1.71e-05	0	41	0	67108864	17	4251
2026-01-18 11:11:00.30	122.36	8.27	-27.9	-29.3	13.5	1.25e-05	0	41	0	73400320	17	4196
2026-01-18 11:11:01.31	122.30	8.34	-27.9	-29.1	13.6	5.70e-06	0	41	0	78643200	17	4146
2026-01-18 11:11:02.31	122.23	8.42	-28.0	-29.3	13.5	1.71e-05	0	41	0	83886080	17	4207
2026-01-18 11:11:03.32	122.17	8.50	-27.9	-29.1	13.6	6.80e-06	0	41	0	90177536	17	4146
2026-01-18 11:11:04.31	122.11	8.57	-27.7	-29.3	13.8	4.50e-06	0	41	0	95420416	16	4325
2026-01-18 11:11:05.32	122.04	8.65	-27.7	-29.2	13.9	0.00e+00	0	41	0	101711872	16	4290
2026-01-18 11:11:06.32	121.98	8.73	-27.8	-29.5	13.7	3.40e-06	0	42	0	106954752	16	4365
2026-01-18 11:11:07.33	121.91	8.80	-27.8	-29.5	13.7	6.80e-06	0	41	0	112197632	16	4372
2026-01-18 11:11:08.33	121.85	8.88	-27.6	-29.0	14.0	0.00e+00	0	41	0	118489088	16	4233
2026-01-18 11:11:09.33	121.78	8.96	-27.4	-28.6	14.3	3.40e-06	0	41	0	123731968	16	4116
2026-01-18 11:11:10.34	121.71	9.04	-27.6	-28.9	14.1	0.00e+00	0	42	0	128974848	16	4196
2026-01-18 11:11:11.34	121.65	9.11	-27.5	-28.7	14.2	2.20e-06	0	42	0	135266304	16	4149
2026-01-18 11:11:12.33	121.58	9.19	-27.6	-28.9	14.1	0.00e+00	0	42	0	140509184	16	4183
2026-01-18 11:11:13.34	121.51	9.27	-27.5	-28.8	14.2	0.00e+00	0	42	0	146800640	16	4154
2026-01-18 11:11:14.34	121.45	9.35	-27.6	-28.9	14.1	4.50e-06	0	41	0	152043520	16	4188
2026-01-18 11:11:15.34	121.38	9.43	-27.6	-28.9	14.2	2.20e-06	0	42	0	157286400	16	4188
2026-01-18 11:11:16.35	121.31	9.51	-27.5	-28.8	14.2	1.10e-06	0	42	0	163577856	16	4172
2026-01-18 11:11:17.34	121.24	9.58	-27.5	-28.7	14.3	0.00e+00	0	42	0	168820736	16	4147
2026-01-18 11:11:18.34	121.17	9.66	-27.5	-28.8	14.3	1.10e-06	0	42	0	174063616	16	4155
2026-01-18 11:11:19.34	121.10	9.74	-27.6	-28.9	14.2	2.20e-06	0	42	0	180355072	16	4179
2026-01-18 11:11:20.34	121.03	9.82	-27.6	-29.0	14.1	1.10e-06	0	42	0	185597952	16	4223
2026-01-18 11:11:21.35	120.96	9.90	-27.9	-29.5	13.8	2.20e-06	0	42	0	190840832	16	4372
2026-01-18 11:11:22.35	120.89	9.98	-27.6	-28.9	14.2	4.50e-06	0	42	0	197132288	16	4184
2026-01-18 11:11:23.35	120.82	10.06	-27.5	-28.8	14.3	0.00e+00	0	42	0	202375168	16	4153
2026-01-18 11:11:24.36	120.75	10.15	-27.5	-28.7	14.3	1.10e-06	0	42	0	208666624	16	4131
2026-01-18 11:11:25.36	120.68	10.23	-27.5	-28.7	14.4	2.20e-06	0	42	0	213909504	16	4120
2026-01-18 11:11:26.36	120.60	10.31	-27.5	-28.6	14.4	2.20e-06	0	42	0	219152384	16	4112
2026-01-18 11:11:27.36	120.53	10.39	-27.5	-28.7	14.4	0.00e+00	0	42	0	225443840	16	4124
2026-01-18 11:11:28.36	120.46	10.47	-27.5	-28.6	14.4	0.00e+00	0	42	0	230686720	16	4116
2026-01-18 11:11:29.36	120.39	10.55	-27.3	-28.4	14.6	0.00e+00	0	42	0	236978176	16	4047
2026-01-18 11:11:30.37	120.31	10.63	-27.3	-28.3	14.6	0.00e+00	0	42	0	242221056	16	4037
2026-01-18 11:11:31.37	120.24	10.72	-27.4	-28.4	14.6	0.00e+00	0	42	0	247463936	16	4051
2026-01-18 11:11:32.38	120.16	10.80	-27.4	-28.4	14.6	0.00e+00	0	42	0	253755392	16	4049
2026-01-18 11:11:33.38	120.09	10.88	-27.4	-28.4	14.6	0.00e+00	0	42	0	258998272	16	4050
2026-01-18 11:11:34.38	120.01	10.96	-27.4	-28.5	14.5	0.00e+00	0	42	0	264241152	16	4095
2026-01-18 11:11:35.39	119.93	11.05	-27.3	-28.3	14.6	0.00e+00	0	42	0	270532608	16	4044
2026-01-18 11:11:36.39	119.86	11.13	-27.5	-28.8	14.3	0.00e+00	0	42	0	275775488	16	4169
2026-01-18 11:11:37.40	119.78	11.22	-27.4	-28.5	14.5	0.00e+00	0	42	0	282066944	16	4087
2026-01-18 11:11:38.40	119.70	11.30	-27.4	-28.4	14.6	0.00e+00	0	42	0	287309824	16	4068
2026-01-18 11:11:39.41	119.62	11.38	-27.5	-28.6	14.5	0.00e+00	0	42	0	292552704	16	4119
2026-01-18 11:11:40.40	119.54	11.47	-27.4	-28.6	14.5	2.20e-06	0	42	0	298844160	16	4113
2026-01-18 11:11:41.41	119.46	11.55	-27.4	-28.6	14.5	1.10e-06	0	42	0	304087040	16	4106
2026-01-18 11:11:42.41	119.39	11.64	-27.4	-28.5	14.5	0.00e+00	0	42	0	309329920	16	4089
2026-01-18 11:11:43.41	119.31	11.72	-27.5	-28.8	14.4	0.00e+00	0	42	0	315621376	16	4156
2026-01-18 11:11:44.40	119.23	11.81	-27.6	-28.9	14.3	0.00e+00	0	42	0	320864256	16	4185
2026-01-18 11:11:45.40	119.15	11.89	-27.6	-28.9	14.3	0.00e+00	0	42	0	326107136	16	4194
2026-01-18 11:11:46.41	119.06	11.98	-27.7	-29.1	14.2	0.00e+00	0	42	0	332398592	16	4249
2026-01-18 11:11:47.41	118.98	12.06	-27.4	-28.4	14.6	0.00e+00	0	42	0	337641472	16	4055
2026-01-18 11:11:48.41	118.90	12.15	-27.0	-28.2	14.9	0.00e+00	0	42	0	343932928	15	4103
2026-01-18 11:11:49.41	118.82	12.24	-27.0	-28.1	14.9	0.00e+00	0	42	0	349175808	15	4080
2026-01-18 11:11:50.42	118.73	12.32	-27.1	-28.4	14.8	0.00e+00	0	42	0	355467264	15	4157
2026-01-18 11:11:51.42	118.65	12.41	-27.4	-28.9	14.5	0.00e+00	0	42	0	360710144	15	4314
2026-01-18 11:11:52.43	118.56	12.50	-27.4	-28.9	14.5	0.00e+00	0	42	0	365953024	15	4302
2026-01-18 11:11:53.43	118.48	12.59	-27.2	-28.6	14.7	0.00e+00	0	42	0	372244480	15	4207
2026-01-18 11:11:54.44	118.39	12.67	-27.2	-28.4	14.7	0.00e+00	0	42	0	377487360	15	4176
2026-01-18 11:11:55.44	118.31	12.76	-27.2	-28.4	14.7	2.20e-06	0	42	0	382730240	15	4173
2026-01-18 11:11:56.45	118.22	12.85	-27.0	-28.2	14.9	0.00e+00	0	42	0	389021696	15	4113
2026-01-18 11:11:57.44	118.13	12.94	-27.2	-28.5	14.7	0.00e+00	0	42	0	394264576	15	4197
2026-01-18 11:11:58.45	118.05	13.03	-27.1	-28.2	14.9	0.00e+00	0	42	0	399507456	15	4122
2026-01-18 11:11:59.45	117.96	13.12	-27.1	-28.4	14.8	0.00e+00	0	42	0	405798912	15	4154
2026-01-18 11:12:00.45	117.87	13.21	-27.1	-28.4	14.8	0.00e+00	0	42	0	411041792	15	4161
2026-01-18 11:12:01.46	117.78	13.30	-26.8	-27.7	15.2	0.00e+00	0	42	0	417333248	15	3976
2026-01-18 11:12:02.46	117.69	13.39	-26.7	-27.8	15.4	0.00e+00	0	42	0	422576128	14	4120
2026-01-18 11:12:03.46	117.60	13.48	-26.6	-27.6	15.5	0.00e+00	0	43	0	428867584	14	4063
2026-01-18 11:12:04.46	117.51	13.57	-26.5	-27.5	15.6	0.00e+00	0	42	0	434110464	14	4036
2026-01-18 11:12:05.47	117.42	13.66	-26.6	-27.6	15.5	0.00e+00	0	42	0	439353344	14	4070
2026-01-18 11:12:06.48	117.32	13.75	-26.5	-27.5	15.6	0.00e+00	0	42	0	445644800	14	4024
2026-01-18 11:12:07.48	117.23	13.84	-26.5	-27.5	15.6	0.00e+00	0	42	0	450887680	14	4023
2026-01-18 11:12:08.48	117.14	13.93	-26.5	-27.6	15.6	0.00e+00	0	42	0	456130560	14	4052
2026-01-18 11:12:09.49	117.04	14.02	-26.6	-27.7	15.5	0.00e+00	0	42	0	462422016	14	4078
2026-01-18 11:12:10.49	116.95	14.12	-26.6	-27.7	15.5	0.00e+00	0	43	0	467664896	14	4076
2026-01-18 11:12:11.49	116.85	14.21	-26.6	-27.6	15.5	0.00e+00	0	43	0	472907776	14	4067
2026-01-18 11:12:12.49	116.76	14.30	-26.6	-27.6	15.5	0.00e+00	0	42	0	479199232	14	4071
2026-01-18 11:12:13.50	116.66	14.39	-26.5	-27.5	15.6	0.00e+00	0	42	0	484442112	14	4045
2026-01-18 11:12:14.50	116.56	14.49	-26.5	-27.5	15.6	0.00e+00	0	42	0	490733568	14	4042
2026-01-18 11:12:15.50	116.47	14.58	-26.5	-27.4	15.6	0.00e+00	0	42	0	495976448	14	4018
2026-01-18 11:12:16.50	116.37	14.67	-26.5	-27.5	15.6	0.00e+00	0	42	0	501219328	14	4042
2026-01-18 11:12:17.50	116.27	14.77	-26.5	-27.5	15.6	0.00e+00	0	43	0	507510784	14	4037
2026-01-18 11:12:18.50	116.17	14.86	-26.5	-27.5	15.6	0.00e+00	0	43	0	512753664	14	4026
2026-01-18 11:12:19.50	116.07	14.95	-26.5	-27.5	15.7	1.10e-06	0	42	0	517996544	14	4024
2026-01-18 11:12:20.51	115.97	15.05	-26.5	-27.5	15.7	0.00e+00	0	42	0	524288000	14	4023
2026-01-18 11:12:21.50	115.87	15.14	-26.4	-27.2	15.8	0.00e+00	0	43	0	529530880	14	3968
2026-01-18 11:12:22.49	115.77	15.24	-26.4	-27.2	15.8	0.00e+00	0	43	0	534773760	14	3963
2026-01-18 11:12:23.49	115.67	15.33	-26.6	-27.7	15.6	0.00e+00	0	42	0	541065216	14	4076
2026-01-18 11:12:24.49	115.56	15.43	-26.6	-27.6	15.6	0.00e+00	0	43	0	546308096	14	4061
2026-01-18 11:12:25.50	115.46	15.53	-26.3	-27.0	15.9	0.00e+00	0	43	0	552599552	14	3917
2026-01-18 11:12:26.50	115.35	15.62	-26.1	-27.2	16.1	0.00e+00	0	43	0	557842432	13	4060
2026-01-18 11:12:27.50	115.25	15.72	-26.1	-27.0	16.2	0.00e+00	0	43	0	563085312	13	4023
2026-01-18 11:12:28.51	115.14	15.82	-26.1	-27.0	16.2	0.00e+00	0	43	0	569376768	13	4008
2026-01-18 11:12:29.52	115.03	15.91	-26.0	-26.9	16.2	0.00e+00	0	43	0	574619648	13	3994
2026-01-18 11:12:30.52	114.93	16.01	-25.9	-26.8	16.3	0.00e+00	0	43	0	580911104	13	3952
2026-01-18 11:12:31.52	114.82	16.11	-25.9	-26.6	16.4	0.00e+00	0	43	0	586153984	13	3921
2026-01-18 11:12:32.53	114.71	16.21	-25.9	-26.6	16.4	0.00e+00	0	43	0	591396864	13	3915
2026-01-18 11:12:33.53	114.60	16.31	-26.1	-27.0	16.2	0.00e+00	0	43	0	597688320	13	4008
2026-01-18 11:12:34.53	114.49	16.40	-26.1	-27.1	16.2	0.00e+00	0	43	0	602931200	13	4028
2026-01-18 11:12:35.54	114.38	16.50	-26.1	-27.1	16.2	0.00e+00	0	43	0	608174080	13	4030
2026-01-18 11:12:36.53	114.26	16.60	-26.1	-27.1	16.2	0.00e+00	0	43	0	614465536	13	4048
2026-01-18 11:12:37.53	114.15	16.70	-26.1	-27.2	16.1	0.00e+00	0	43	0	619708416	13	4061
2026-01-18 11:12:38.53	114.04	16.80	-26.1	-27.0	16.2	0.00e+00	0	43	0	625999872	13	4015
2026-01-18 11:12:39.54	113.92	16.90	-26.1	-27.1	16.2	0.00e+00	0	43	0	631242752	13	4029
2026-01-18 11:12:40.54	113.81	17.00	-26.2	-27.3	16.1	0.00e+00	0	43	0	636485632	13	4096
2026-01-18 11:12:41.55	113.69	17.10	-26.1	-27.2	16.2	0.00e+00	0	43	0	642777088	13	4053
2026-01-18 11:12:42.55	113.58	17.20	-25.9	-26.7	16.5	0.00e+00	0	43	0	648019968	13	3931
2026-01-18 11:12:43.55	113.46	17.31	-25.7	-26.7	16.7	0.00e+00	0	43	0	653262848	12	4046
2026-01-18 11:12:44.56	113.34	17.41	-25.8	-27.0	16.6	0.00e+00	0	43	0	659554304	12	4115
2026-01-18 11:12:45.56	113.22	17.51	-25.9	-27.1	16.5	0.00e+00	0	43	0	664797184	12	4148
2026-01-18 11:12:46.57	113.10	17.61	-25.8	-26.9	16.6	0.00e+00	0	43	0	671088640	12	4084
2026-01-18 11:12:47.57	112.98	17.71	-25.9	-27.2	16.5	0.00e+00	0	43	0	676331520	12	4171
2026-01-18 11:12:48.58	112.86	17.82	-25.9	-27.1	16.5	0.00e+00	0	43	0	681574400	12	4153
2026-01-18 11:12:49.58	112.73	17.92	-25.7	-26.6	16.8	0.00e+00	0	43	0	687865856	12	4030
2026-01-18 11:12:50.58	112.61	18.02	-25.7	-26.6	16.8	0.00e+00	0	43	0	693108736	12	4021
2026-01-18 11:12:51.58	112.49	18.13	-25.6	-26.5	16.9	0.00e+00	0	43	0	699400192	12	3988
2026-01-18 11:12:52.57	112.36	18.23	-25.6	-26.5	16.9	0.00e+00	0	43	0	704643072	12	3991
2026-01-18 11:12:53.57	112.24	18.33	-25.5	-26.2	17.0	0.00e+00	0	43	0	709885952	12	3930
2026-01-18 11:12:54.57	112.11	18.44	-25.5	-26.3	17.0	0.00e+00	0	43	0	716177408	12	3933
2026-01-18 11:12:55.58	111.98	18.54	-25.5	-26.2	17.1	0.00e+00	0	43	0	721420288	12	3915
2026-01-18 11:12:56.58	111.85	18.65	-25.4	-26.0	17.1	0.00e+00	0	43	0	726663168	12	3870
2026-01-18 11:12:57.58	111.73	18.75	-25.5	-26.2	17.1	0.00e+00	0	43	0	732954624	12	3909
2026-01-18 11:12:58.59	111.59	18.86	-25.5	-26.3	17.0	0.00e+00	0	43	0	738197504	12	3937
2026-01-18 11:12:59.59	111.46	18.97	-25.5	-26.3	17.0	0.00e+00	0	43	0	744488960	12	3942
2026-01-18 11:13:00.60	111.33	19.07	-25.4	-26.1	17.1	0.00e+00	0	43	0	749731840	12	3882
2026-01-18 11:13:01.60	111.20	19.18	-25.3	-25.9	17.2	0.00e+00	0	43	0	754974720	12	3835
2026-01-18 11:13:02.60	111.06	19.29	-25.4	-26.6	17.2	0.00e+00	0	43	0	761266176	11	4119
2026-01-18 11:13:03.61	110.93	19.39	-25.4	-26.5	17.3	0.00e+00	0	43	0	766509056	11	4091
2026-01-18 11:13:04.62	110.79	19.50	-25.4	-26.5	17.2	0.00e+00	0	43	0	772800512	11	4100
2026-01-18 11:13:05.61	110.65	19.61	-25.4	-26.5	17.3	0.00e+00	0	43	0	778043392	11	4083
2026-01-18 11:13:06.61	110.52	19.72	-25.3	-26.3	17.4	0.00e+00	0	43	0	783286272	11	4041
2026-01-18 11:13:07.61	110.38	19.83	-25.3	-26.3	17.4	0.00e+00	0	43	0	788529152	11	4044
2026-01-18 11:13:08.61	110.24	19.93	-25.2	-26.0	17.5	0.00e+00	0	43	0	794820608	11	3975
2026-01-18 11:13:09.61	110.10	20.04	-25.1	-26.0	17.5	0.00e+00	0	43	0	800063488	11	3962
2026-01-18 11:13:10.61	109.95	20.15	-25.3	-26.3	17.4	0.00e+00	0	43	0	806354944	11	4041
2026-01-18 11:13:11.61	109.81	20.26	-25.2	-26.1	17.5	0.00e+00	0	43	0	811597824	11	3986
2026-01-18 11:13:12.62	109.67	20.37	-25.2	-26.0	17.5	0.00e+00	0	43	0	817889280	11	3977
2026-01-18 11:13:13.62	109.52	20.48	-25.1	-25.9	17.6	0.00e+00	0	43	0	823132160	11	3949
2026-01-18 11:13:14.62	109.38	20.59	-25.1	-25.8	17.6	0.00e+00	0	43	0	828375040	11	3921
2026-01-18 11:13:15.63	109.23	20.70	-25.2	-26.1	17.5	0.00e+00	0	43	0	834666496	11	3997
2026-01-18 11:13:16.63	109.08	20.81	-25.0	-25.8	17.7	0.00e+00	0	43	0	839909376	11	3914
2026-01-18 11:13:17.64	108.93	20.93	-25.0	-25.6	17.8	0.00e+00	0	43	0	845152256	11	3867
2026-01-18 11:13:18.64	108.78	21.04	-25.0	-25.7	17.7	0.00e+00	0	43	0	851443712	11	3897
2026-01-18 11:13:19.64	108.63	21.15	-25.0	-25.7	17.7	0.00e+00	0	43	0	856686592	11	3892
2026-01-18 11:13:20.65	108.47	21.26	-25.0	-25.7	17.7	0.00e+00	0	43	0	861929472	11	3909
2026-01-18 11:13:21.65	108.32	21.37	-25.0	-25.7	17.7	0.00e+00	0	43	0	868220928	11	3889
2026-01-18 11:13:22.66	108.16	21.49	-24.8	-25.3	17.9	0.00e+00	0	43	0	873463808	11	3794
2026-01-18 11:13:23.66	108.01	21.60	-24.8	-25.7	18.0	0.00e+00	0	43	0	879755264	10	3995
2026-01-18 11:13:24.66	107.85	21.71	-24.7	-25.5	18.1	0.00e+00	0	43	0	884998144	10	3959
2026-01-18 11:13:25.66	107.69	21.83	-24.5	-25.2	18.2	0.00e+00	0	43	0	891289600	10	3889
2026-01-18 11:13:26.66	107.53	21.94	-24.6	-25.4	18.1	0.00e+00	0	43	0	896532480	10	3919
2026-01-18 11:13:27.66	107.37	22.05	-24.5	-25.2	18.2	0.00e+00	0	43	0	901775360	10	3879
2026-01-18 11:13:28.66	107.21	22.17	-24.5	-25.0	18.3	0.00e+00	0	43	0	908066816	10	3838
2026-01-18 11:13:29.67	107.04	22.28	-24.6	-25.3	18.2	0.00e+00	0	43	0	913309696	10	3904
2026-01-18 11:13:30.67	106.88	22.40	-24.6	-25.3	18.2	0.00e+00	0	43	0	918552576	10	3906
2026-01-18 11:13:31.68	106.71	22.51	-24.6	-25.4	18.1	0.00e+00	0	43	0	924844032	10	3931
2026-01-18 11:13:32.67	106.55	22.63	-24.7	-25.6	18.1	0.00e+00	0	43	0	930086912	10	3969
2026-01-18 11:13:33.68	106.38	22.74	-24.8	-25.8	18.0	0.00e+00	0	43	0	935329792	10	4034
2026-01-18 11:13:34.69	106.21	22.86	-24.9	-26.0	17.8	0.00e+00	0	43	0	941621248	10	4078
2026-01-18 11:13:35.69	106.04	22.98	-24.9	-25.9	17.9	0.00e+00	0	43	0	946864128	10	4060
2026-01-18 11:13:36.69	105.86	23.09	-24.8	-25.7	18.0	0.00e+00	0	43	0	953155584	10	4008
2026-01-18 11:13:37.69	105.69	23.21	-24.8	-25.7	18.0	0.00e+00	0	43	0	958398464	10	4001
2026-01-18 11:13:38.69	105.52	23.32	-24.7	-25.5	18.1	0.00e+00	0	43	0	963641344	10	3967
2026-01-18 11:13:39.69	105.34	23.44	-24.6	-25.2	18.3	0.00e+00	0	43	0	969932800	10	3890
2026-01-18 11:13:40.69	105.16	23.56	-24.5	-25.1	18.3	0.00e+00	0	43	0	975175680	10	3859
2026-01-18 11:13:41.70	104.98	23.68	-24.7	-25.5	18.1	0.00e+00	0	43	0	980418560	10	3944
2026-01-18 11:13:42.70	104.80	23.79	-24.6	-25.3	18.3	0.00e+00	0	43	0	986710016	10	3907
2026-01-18 11:13:43.70	104.62	23.91	-24.8	-25.7	18.1	0.00e+00	0	43	0	991952896	10	3991
2026-01-18 11:13:44.70	104.44	24.03	-24.7	-25.6	18.1	0.00e+00	0	43	0	997195776	10	3984
2026-01-18 11:13:45.71	104.25	24.15	-24.7	-25.5	18.1	0.00e+00	0	43	0	1003487232	10	3952
2026-01-18 11:13:46.71	104.07	24.27	-24.7	-25.5	18.2	0.00e+00	0	43	0	1008730112	10	3947
2026-01-18 11:13:47.72	103.88	24.39	-24.7	-25.5	18.1	0.00e+00	0	43	0	1015021568	10	3968
2026-01-18 11:13:48.72	103.69	24.51	-24.6	-25.4	18.2	0.00e+00	0	43	0	1020264448	10	3944
2026-01-18 11:13:49.73	103.50	24.63	-24.7	-25.4	18.2	0.00e+00	0	43	0	1026555904	10	3941
2026-01-18 11:13:50.73	103.31	24.75	-24.7	-25.5	18.2	0.00e+00	0	43	0	1031798784	10	3953
2026-01-18 11:13:51.73	103.12	24.86	-24.8	-25.8	18.0	0.00e+00	0	43	0	1037041664	10	4038
2026-01-18 11:13:52.73	102.92	24.98	-24.7	-25.4	18.2	0.00e+00	0	43	0	1043333120	10	3939
2026-01-18 11:13:53.73	102.73	25.10	-24.4	-24.9	18.5	0.00e+00	0	43	0	1048576000	10	3815
2026-01-18 11:13:54.73	102.53	25.22	-24.2	-25.0	18.7	0.00e+00	0	43	0	1053818880	9	3947
2026-01-18 11:13:55.73	102.33	25.34	-24.1	-24.7	18.8	0.00e+00	0	43	0	1060110336	9	3884
2026-01-18 11:13:56.73	102.13	25.46	-24.1	-24.8	18.8	0.00e+00	0	43	0	1065353216	9	3904
2026-01-18 11:13:57.74	101.93	25.59	-24.1	-24.8	18.7	0.00e+00	0	43	0	1070596096	9	3908
2026-01-18 11:13:58.74	101.72	25.71	-24.3	-25.1	18.6	0.00e+00	0	43	0	1076887552	9	3978
2026-01-18 11:13:59.75	101.52	25.83	-24.2	-25.0	18.7	0.00e+00	0	43	0	1082130432	9	3949
2026-01-18 11:14:00.75	101.31	25.95	-24.0	-24.5	18.9	0.00e+00	0	43	0	1088421888	9	3822
2026-01-18 11:14:01.75	101.10	26.07	-23.9	-24.4	19.0	0.00e+00	0	43	0	1093664768	9	3810
2026-01-18 11:14:02.75	100.89	26.19	-24.0	-24.5	18.9	0.00e+00	0	43	0	1098907648	9	3833
2026-01-18 11:14:03.76	100.68	26.31	-24.0	-24.7	18.8	0.00e+00	0	43	0	1105199104	9	3862
2026-01-18 11:14:04.77	100.46	26.43	-24.1	-24.8	18.8	0.00e+00	0	43	0	1110441984	9	3888
2026-01-18 11:14:05.77	100.25	26.56	-24.3	-25.1	18.6	0.00e+00	0	43	0	1116733440	9	3974
2026-01-18 11:14:06.77	100.03	26.68	-24.1	-24.8	18.8	0.00e+00	0	43	0	1121976320	9	3890
2026-01-18 11:14:07.78	99.81	26.80	-24.0	-24.5	18.9	0.00e+00	0	43	0	1127219200	9	3837
2026-01-18 11:14:08.78	99.59	26.92	-23.9	-24.4	19.0	0.00e+00	0	43	0	1133510656	9	3800
2026-01-18 11:14:09.78	99.37	27.04	-24.0	-24.6	18.9	0.00e+00	0	43	0	1138753536	9	3841
2026-01-18 11:14:10.78	99.15	27.17	-23.9	-24.3	19.0	0.00e+00	0	43	0	1143996416	9	3786
2026-01-18 11:14:11.79	98.92	27.29	-23.9	-24.2	19.1	0.00e+00	0	43	0	1150287872	9	3766
2026-01-18 11:14:12.79	98.70	27.41	-23.9	-24.3	19.1	0.00e+00	0	43	0	1155530752	9	3787
2026-01-18 11:14:13.79	98.47	27.53	-24.0	-24.6	18.9	0.00e+00	0	43	0	1161822208	9	3850
2026-01-18 11:14:14.79	98.24	27.65	-24.0	-24.5	19.0	0.00e+00	0	43	0	1167065088	9	3829
2026-01-18 11:14:15.79	98.01	27.78	-23.9	-24.4	19.0	0.00e+00	0	43	0	1172307968	9	3809
2026-01-18 11:14:16.80	97.77	27.90	-24.0	-24.5	19.0	0.00e+00	0	43	0	1178599424	9	3836
2026-01-18 11:14:17.79	97.54	28.02	-24.0	-24.5	19.0	0.00e+00	0	43	0	1183842304	9	3835
2026-01-18 11:14:18.79	97.30	28.14	-23.9	-24.3	19.1	0.00e+00	0	43	0	1189085184	9	3770
2026-01-18 11:14:19.79	97.06	28.26	-23.8	-24.6	19.2	0.00e+00	0	43	0	1195376640	8	3946
2026-01-18 11:14:20.80	96.82	28.39	-23.7	-24.4	19.3	0.00e+00	0	43	0	1200619520	8	3897
2026-01-18 11:14:21.79	96.58	28.51	-23.8	-24.5	19.2	0.00e+00	0	43	0	1205862400	8	3939
2026-01-18 11:14:22.80	96.33	28.63	-23.8	-24.6	19.2	0.00e+00	0	43	0	1212153856	8	3961
2026-01-18 11:14:23.80	96.08	28.75	-23.9	-24.7	19.1	0.00e+00	0	43	0	1217396736	8	3988
2026-01-18 11:14:24.80	95.84	28.87	-24.0	-25.0	19.0	0.00e+00	0	43	0	1223688192	8	4046
2026-01-18 11:14:25.81	95.58	29.00	-24.0	-25.0	19.0	0.00e+00	0	43	0	1228931072	8	4054
2026-01-18 11:14:26.82	95.33	29.12	-24.1	-25.3	18.9	0.00e+00	0	43	0	1235222528	8	4136
2026-01-18 11:14:27.82	95.07	29.24	-24.0	-25.0	19.0	0.00e+00	0	43	0	1240465408	8	4042
2026-01-18 11:14:28.83	94.81	29.36	-24.0	-25.0	19.0	0.00e+00	0	43	0	1245708288	8	4055
2026-01-18 11:14:29.83	94.56	29.48	-23.9	-24.9	19.1	0.00e+00	0	43	0	1251999744	8	4023
2026-01-18 11:14:30.83	94.30	29.61	-24.0	-25.0	19.0	0.00e+00	0	43	0	1257242624	8	4053
2026-01-18 11:14:31.84	94.03	29.73	-24.0	-24.9	19.0	0.00e+00	0	43	0	1262485504	8	4038
2026-01-18 11:14:32.85	93.77	29.85	-23.7	-24.5	19.3	0.00e+00	0	43	0	1268776960	8	3928
2026-01-18 11:14:33.84	93.50	29.97	-23.8	-24.7	19.2	0.00e+00	0	43	0	1274019840	8	3971
2026-01-18 11:14:34.84	93.23	30.09	-23.8	-24.5	19.3	0.00e+00	0	43	0	1279262720	8	3939
2026-01-18 11:14:35.85	92.96	30.21	-23.7	-24.4	19.3	0.00e+00	0	43	0	1285554176	8	3910
2026-01-18 11:14:36.85	92.69	30.33	-23.7	-24.5	19.3	0.00e+00	0	43	0	1290797056	8	3919
2026-01-18 11:14:37.85	92.42	30.45	-23.6	-24.2	19.5	0.00e+00	0	43	0	1297088512	8	3862
2026-01-18 11:14:38.86	92.14	30.57	-23.7	-24.4	19.3	0.00e+00	0	43	0	1302331392	8	3918
2026-01-18 11:14:39.87	91.86	30.69	-23.7	-24.5	19.3	0.00e+00	0	43	0	1308622848	8	3920
2026-01-18 11:14:40.87	91.58	30.81	-23.9	-24.7	19.2	0.00e+00	0	43	0	1313865728	8	3984
2026-01-18 11:14:41.87	91.29	30.93	-23.8	-24.6	19.3	0.00e+00	0	43	0	1319108608	8	3944
2026-01-18 11:14:42.88	91.01	31.05	-23.8	-24.6	19.2	0.00e+00	0	43	0	1325400064	8	3948
2026-01-18 11:14:43.88	90.72	31.17	-23.9	-24.9	19.1	0.00e+00	0	43	0	1330642944	8	4035
2026-01-18 11:14:44.88	90.43	31.28	-23.7	-24.4	19.3	0.00e+00	0	43	0	1335885824	8	3912
2026-01-18 11:14:45.88	90.14	31.40	-23.6	-24.2	19.5	0.00e+00	0	43	0	1342177280	8	3847
2026-01-18 11:14:46.88	89.85	31.52	-23.6	-24.3	19.4	0.00e+00	0	43	0	1347420160	8	3876
2026-01-18 11:14:47.89	89.55	31.63	-23.6	-24.3	19.4	0.00e+00	0	43	0	1352663040	8	3870
2026-01-18 11:14:48.89	89.25	31.75	-23.7	-24.4	19.3	0.00e+00	0	43	0	1358954496	8	3914
2026-01-18 11:14:49.89	88.95	31.87	-23.7	-24.4	19.4	0.00e+00	0	43	0	1364197376	8	3900
2026-01-18 11:14:50.90	88.65	31.98	-23.7	-24.3	19.4	0.00e+00	0	43	0	1370488832	8	3887
2026-01-18 11:14:51.91	88.34	32.10	-23.4	-23.8	19.6	0.00e+00	0	43	0	1375731712	8	3775
2026-01-18 11:14:52.91	88.04	32.21	-23.3	-23.5	19.8	0.00e+00	0	43	0	1380974592	8	3699
2026-01-18 11:14:53.91	87.73	32.33	-23.3	-24.1	19.8	0.00e+00	0	43	0	1387266048	7	3946
2026-01-18 11:14:54.91	87.42	32.44	-23.3	-24.2	19.7	0.00e+00	0	43	0	1392508928	7	3948
2026-01-18 11:14:55.91	87.11	32.55	-23.4	-24.4	19.6	0.00e+00	0	43	0	1398800384	7	4006
2026-01-18 11:14:56.92	86.79	32.67	-23.3	-24.1	19.8	0.00e+00	0	43	0	1404043264	7	3939
2026-01-18 11:14:57.93	86.47	32.78	-23.4	-24.2	19.7	0.00e+00	0	43	0	1409286144	7	3976
2026-01-18 11:14:58.93	86.15	32.89	-23.2	-23.9	19.8	0.00e+00	0	43	0	1415577600	7	3882
2026-01-18 11:14:59.94	85.82	33.00	-23.2	-23.8	19.9	0.00e+00	0	43	0	1420820480	7	3869
2026-01-18 11:15:00.94	85.50	33.11	-23.3	-24.0	19.7	0.00e+00	0	43	0	1426063360	7	3930
2026-01-18 11:15:01.95	85.17	33.22	-23.2	-23.9	19.8	0.00e+00	0	43	0	1432354816	7	3895
2026-01-18 11:15:02.95	84.84	33.33	-23.3	-24.1	19.8	0.00e+00	0	43	0	1437597696	7	3935
2026-01-18 11:15:03.95	84.52	33.44	-23.4	-24.2	19.7	0.00e+00	0	43	0	1443889152	7	3968
2026-01-18 11:15:04.96	84.18	33.54	-23.6	-24.6	19.5	0.00e+00	0	43	0	1449132032	7	4063
2026-01-18 11:15:05.96	83.85	33.65	-23.6	-24.6	19.5	0.00e+00	0	43	0	1454374912	7	4066
2026-01-18 11:15:06.96	83.51	33.76	-23.5	-24.6	19.5	0.00e+00	0	43	0	1460666368	7	4057
2026-01-18 11:15:07.97	83.17	33.86	-23.7	-24.8	19.4	0.00e+00	0	43	0	1465909248	7	4110
2026-01-18 11:15:08.97	82.83	33.97	-23.4	-24.3	19.7	0.00e+00	0	43	0	1472200704	7	3978
2026-01-18 11:15:09.97	82.48	34.07	-23.3	-24.1	19.8	0.00e+00	0	43	0	1477443584	7	3950
2026-01-18 11:15:10.98	82.13	34.17	-23.4	-24.2	19.7	0.00e+00	0	43	0	1482686464	7	3966
2026-01-18 11:15:11.98	81.79	34.27	-23.4	-24.2	19.7	0.00e+00	0	43	0	1488977920	7	3968
2026-01-18 11:15:12.97	81.44	34.37	-23.3	-24.0	19.8	0.00e+00	0	43	0	1494220800	7	3918
2026-01-18 11:15:13.98	81.09	34.47	-23.3	-24.0	19.8	0.00e+00	0	43	0	1499463680	7	3927
2026-01-18 11:15:14.98	80.73	34.57	-23.6	-24.8	19.5	0.00e+00	0	43	0	1505755136	7	4103
2026-01-18 11:15:15.99	80.37	34.67	-23.5	-24.4	19.6	0.00e+00	0	43	0	1510998016	7	4022
2026-01-18 11:15:17.00	80.01	34.77	-23.3	-24.2	19.7	0.00e+00	0	43	0	1517289472	7	3957
2026-01-18 11:15:18.00	79.65	34.86	-23.2	-23.9	19.9	0.00e+00	0	43	0	1522532352	7	3887
2026-01-18 11:15:19.01	79.28	34.96	-23.3	-24.0	19.8	0.00e+00	0	43	0	1528823808	7	3903
2026-01-18 11:15:20.01	78.92	35.05	-23.2	-23.8	19.9	0.00e+00	0	43	0	1534066688	7	3875
2026-01-18 11:15:21.02	78.55	35.15	-23.4	-24.2	19.7	0.00e+00	0	43	0	1539309568	7	3964
2026-01-18 11:15:22.02	78.18	35.24	-23.4	-24.2	19.7	0.00e+00	0	43	0	1545601024	7	3964
2026-01-18 11:15:23.02	77.81	35.33	-23.4	-24.3	19.7	0.00e+00	0	43	0	1550843904	7	3995
2026-01-18 11:15:24.02	77.44	35.42	-23.4	-24.2	19.7	0.00e+00	0	43	0	1556086784	7	3971
2026-01-18 11:15:25.03	77.06	35.51	-23.6	-24.7	19.5	0.00e+00	0	43	0	1562378240	7	4093
2026-01-18 11:15:26.03	76.68	35.59	-23.5	-24.5	19.6	0.00e+00	0	43	0	1567621120	7	4040
2026-01-18 11:15:27.03	76.30	35.68	-23.5	-24.6	19.6	0.00e+00	0	43	0	1572864000	7	4058
2026-01-18 11:15:28.04	75.92	35.77	-23.4	-24.4	19.6	0.00e+00	0	43	0	1579155456	7	4011
2026-01-18 11:15:29.04	75.53	35.85	-23.4	-24.3	19.7	0.00e+00	0	43	0	1584398336	7	3999
2026-01-18 11:15:30.04	75.15	35.93	-23.1	-23.8	19.9	0.00e+00	0	43	0	1590689792	7	3860
2026-01-18 11:15:31.04	74.76	36.01	-23.1	-23.7	20.0	0.00e+00	0	43	0	1595932672	7	3852
2026-01-18 11:15:32.04	74.37	36.09	-23.3	-24.0	19.8	0.00e+00	0	43	0	1601175552	7	3920
2026-01-18 11:15:33.04	73.98	36.17	-23.1	-23.7	20.0	0.00e+00	0	43	0	1607467008	7	3837
2026-01-18 11:15:34.05	73.59	36.25	-23.2	-23.8	19.9	0.00e+00	0	43	0	1612709888	7	3860
2026-01-18 11:15:35.05	73.19	36.32	-23.1	-23.7	20.0	2.20e-06	0	43	0	1617952768	7	3852
2026-01-18 11:15:36.05	72.80	36.40	-23.3	-24.0	19.9	0.00e+00	0	43	0	1624244224	7	3912
2026-01-18 11:15:37.05	72.40	36.47	-23.3	-24.0	19.8	0.00e+00	0	43	0	1629487104	7	3919
2026-01-18 11:15:38.06	71.99	36.54	-23.4	-24.2	19.7	1.10e-06	0	43	0	1635778560	7	3963
2026-01-18 11:15:39.06	71.59	36.61	-23.1	-23.6	20.1	0.00e+00	0	43	0	1641021440	7	3815
2026-01-18 11:15:40.07	71.19	36.68	-23.0	-23.4	20.1	0.00e+00	0	43	0	1647312896	7	3785
2026-01-18 11:15:41.07	70.78	36.75	-23.1	-23.7	20.0	1.10e-06	0	44	0	1652555776	7	3855
2026-01-18 11:15:42.07	70.37	36.81	-23.1	-23.7	20.0	0.00e+00	0	43	0	1657798656	7	3847
2026-01-18 11:15:43.08	69.96	36.88	-23.2	-24.0	19.9	0.00e+00	0	43	0	1664090112	7	3906
2026-01-18 11:15:44.08	69.55	36.94	-23.1	-23.7	20.0	0.00e+00	0	43	0	1669332992	7	3848
2026-01-18 11:15:45.08	69.14	37.00	-23.2	-23.7	20.0	0.00e+00	0	44	0	1674575872	7	3854
2026-01-18 11:15:46.08	68.73	37.06	-23.2	-23.8	20.0	0.00e+00	0	43	0	1680867328	7	3866
2026-01-18 11:15:47.08	68.31	37.12	-23.3	-24.1	19.8	0.00e+00	0	43	0	1686110208	7	3941
2026-01-18 11:15:48.08	67.90	37.17	-23.2	-23.8	20.0	0.00e+00	0	43	0	1691353088	7	3870
2026-01-18 11:15:49.08	67.48	37.23	-23.1	-23.7	20.0	0.00e+00	0	43	0	1697644544	7	3855
2026-01-18 11:15:50.08	67.06	37.28	-23.2	-23.7	20.2	0.00e+00	0	43	0	1702887424	7	3839
2026-01-18 11:15:51.08	66.64	37.33	-23.3	-23.9	20.1	0.00e+00	0	43	0	1709178880	7	3875
2026-01-18 11:15:52.09	66.22	37.38	-23.2	-23.8	20.2	0.00e+00	0	43	0	1714421760	7	3851
2026-01-18 11:15:53.09	65.79	37.43	-23.2	-23.7	20.2	1.10e-06	0	43	0	1719664640	7	3839
2026-01-18 11:15:54.09	65.37	37.47	-23.3	-23.9	20.1	0.00e+00	0	43	0	1725956096	7	3884
2026-01-18 11:15:55.09	64.95	37.52	-23.6	-24.6	19.8	0.00e+00	0	43	0	1731198976	7	4040
2026-01-18 11:15:56.10	64.52	37.56	-23.4	-24.2	19.9	0.00e+00	0	43	0	1736441856	7	3947
2026-01-18 11:15:57.11	64.08	37.60	-23.5	-24.4	19.9	0.00e+00	0	43	0	1742733312	7	3985
2026-01-18 11:15:58.11	63.66	37.64	-23.5	-24.4	19.8	0.00e+00	0	43	0	1747976192	7	3994
2026-01-18 11:15:59.11	63.23	37.68	-23.7	-24.7	19.7	0.00e+00	0	43	0	1754267648	7	4075
2026-01-18 11:16:00.12	62.79	37.71	-23.7	-24.7	19.7	0.00e+00	0	43	0	1759510528	7	4073
2026-01-18 11:16:01.13	62.36	37.75	-23.6	-24.7	19.7	0.00e+00	0	43	0	1764753408	7	4065
2026-01-18 11:16:02.13	61.93	37.78	-23.6	-24.7	19.8	0.00e+00	0	43	0	1771044864	7	4061
2026-01-18 11:16:03.14	61.49	37.81	-23.5	-24.4	19.9	0.00e+00	0	43	0	1776287744	7	3987
2026-01-18 11:16:04.15	61.05	37.84	-23.5	-24.5	19.9	0.00e+00	0	43	0	1782579200	7	4011
2026-01-18 11:16:05.14	60.62	37.86	-23.6	-24.7	19.7	0.00e+00	0	43	0	1787822080	7	4057
2026-01-18 11:16:06.15	60.18	37.89	-23.4	-24.2	20.0	0.00e+00	0	43	0	1793064960	7	3941
2026-01-18 11:16:07.15	59.75	37.91	-23.3	-24.1	20.1	0.00e+00	0	43	0	1799356416	7	3917
2026-01-18 11:16:08.15	59.31	37.93	-23.3	-24.0	20.1	0.00e+00	0	43	0	1804599296	7	3911
2026-01-18 11:16:09.15	58.88	37.95	-23.2	-23.9	20.1	0.00e+00	0	43	0	1809842176	7	3869
2026-01-18 11:16:10.15	58.44	37.96	-23.2	-23.7	20.2	0.00e+00	0	43	0	1816133632	7	3826
2026-01-18 11:16:11.16	58.00	37.98	-23.4	-24.3	20.0	0.00e+00	0	43	0	1821376512	7	3961
2026-01-18 11:16:12.15	57.56	37.99	-23.4	-24.3	19.9	0.00e+00	0	43	0	1826619392	7	3973
2026-01-18 11:16:13.16	57.12	38.00	-23.5	-24.5	19.8	0.00e+00	0	43	0	1832910848	7	4017
2026-01-18 11:16:14.15	56.69	38.01	-23.4	-24.1	20.0	0.00e+00	0	43	0	1838153728	7	3927
2026-01-18 11:16:15.16	56.24	38.02	-23.4	-24.2	20.0	0.00e+00	0	43	0	1844445184	7	3934
2026-01-18 11:16:16.16	55.81	38.02	-23.6	-24.6	19.8	0.00e+00	0	43	0	1849688064	7	4037
2026-01-18 11:16:17.17	55.36	38.03	-23.5	-24.3	19.9	0.00e+00	0	43	0	1855979520	7	3973
2026-01-18 11:16:18.18	54.92	38.03	-23.6	-24.5	19.8	0.00e+00	0	43	0	1861222400	7	4024
2026-01-18 11:16:19.18	54.48	38.03	-23.7	-24.8	19.7	0.00e+00	0	43	0	1866465280	7	4089
2026-01-18 11:16:20.18	54.04	38.03	-23.4	-24.2	20.0	0.00e+00	0	43	0	1872756736	7	3941
2026-01-18 11:16:21.19	53.60	38.02	-23.3	-24.0	20.1	0.00e+00	0	43	0	1877999616	7	3893
2026-01-18 11:16:22.20	53.16	38.02	-23.2	-23.7	20.2	0.00e+00	0	43	0	1883242496	7	3829
2026-01-18 11:16:23.20	52.72	38.01	-23.2	-23.8	20.2	0.00e+00	0	43	0	1889533952	7	3844
2026-01-18 11:16:24.21	52.28	38.00	-23.2	-23.9	20.1	0.00e+00	0	43	0	1894776832	7	3869
2026-01-18 11:16:25.21	51.84	37.99	-23.3	-24.0	20.1	0.00e+00	0	43	0	1900019712	7	3895
2026-01-18 11:16:26.22	51.40	37.97	-23.2	-23.8	20.2	0.00e+00	0	43	0	1906311168	7	3860
2026-01-18 11:16:27.22	50.96	37.96	-23.2	-23.9	20.1	0.00e+00	0	43	0	1911554048	7	3874
2026-01-18 11:16:28.22	50.52	37.94	-23.3	-24.0	20.1	0.00e+00	0	43	0	1917845504	7	3909
2026-01-18 11:16:29.23	50.08	37.92	-23.5	-24.4	19.9	0.00e+00	0	43	0	1923088384	7	4001
2026-01-18 11:16:30.23	49.65	37.90	-23.3	-24.0	20.0	0.00e+00	0	43	0	1929379840	7	3911
2026-01-18 11:16:31.23	49.21	37.87	-23.5	-24.3	19.9	0.00e+00	0	43	0	1934622720	7	3971
2026-01-18 11:16:32.24	48.77	37.85	-23.4	-24.2	20.0	0.00e+00	0	43	0	1939865600	7	3956
2026-01-18 11:16:33.25	48.34	37.82	-23.5	-24.4	19.9	0.00e+00	0	43	0	1946157056	7	3996
2026-01-18 11:16:34.25	47.90	37.79	-23.7	-24.8	19.7	0.00e+00	0	43	0	1951399936	7	4096
2026-01-18 11:16:35.26	47.47	37.76	-23.6	-24.6	19.8	0.00e+00	0	43	0	1956642816	7	4029
2026-01-18 11:16:36.26	47.04	37.73	-23.4	-24.2	19.9	0.00e+00	0	43	0	1962934272	7	3949
2026-01-18 11:16:37.27	46.60	37.69	-23.3	-24.0	20.1	0.00e+00	0	43	0	1968177152	7	3909
2026-01-18 11:16:38.27	46.17	37.66	-23.3	-24.1	20.0	0.00e+00	0	43	0	1974468608	7	3918
2026-01-18 11:16:39.28	45.74	37.62	-23.3	-24.0	20.1	0.00e+00	0	43	0	1979711488	7	3901
2026-01-18 11:16:40.28	45.31	37.58	-23.3	-24.0	20.1	0.00e+00	0	44	0	1984954368	7	3897
2026-01-18 11:16:41.28	44.89	37.54	-23.3	-24.0	20.0	0.00e+00	0	43	0	1991245824	7	3908
2026-01-18 11:16:42.28	44.46	37.49	-23.3	-23.9	20.1	0.00e+00	0	43	0	1996488704	7	3883
2026-01-18 11:16:43.28	44.04	37.45	-22.9	-23.1	20.5	0.00e+00	0	43	0	2002780160	7	3703
2026-01-18 11:16:44.29	43.61	37.40	-22.8	-23.4	20.6	0.00e+00	0	43	0	2008023040	6	3869
2026-01-18 11:16:45.29	43.19	37.35	-22.7	-23.3	20.7	0.00e+00	0	43	0	2013265920	6	3846
2026-01-18 11:16:46.29	42.77	37.30	-22.7	-23.3	20.7	0.00e+00	0	43	0	2019557376	6	3847
2026-01-18 11:16:47.30	42.35	37.25	-22.8	-23.5	20.6	0.00e+00	0	43	0	2024800256	6	3888
2026-01-18 11:16:48.30	41.93	37.20	-22.8	-23.4	20.6	0.00e+00	0	43	0	2030043136	6	3871
2026-01-18 11:16:49.31	41.51	37.14	-22.9	-23.6	20.5	0.00e+00	0	43	0	2036334592	6	3923
2026-01-18 11:16:50.31	41.10	37.08	-23.0	-23.9	20.3	0.00e+00	0	43	0	2041577472	6	3992
2026-01-18 11:16:51.31	40.69	37.02	-23.2	-24.2	20.2	0.00e+00	0	43	0	2046820352	6	4065
2026-01-18 11:16:52.31	40.27	36.96	-23.2	-24.3	20.2	0.00e+00	0	43	0	2053111808	6	4089
2026-01-18 11:16:53.31	39.86	36.90	-23.1	-24.0	20.3	0.00e+00	0	43	0	2058354688	6	4017
2026-01-18 11:16:54.31	39.46	36.84	-23.0	-23.9	20.3	0.00e+00	0	43	0	2064646144	6	3994
2026-01-18 11:16:55.31	39.05	36.77	-23.2	-24.2	20.2	0.00e+00	0	43	0	2069889024	6	4057
2026-01-18 11:16:56.32	38.64	36.71	-23.2	-24.3	20.1	0.00e+00	0	43	0	2076180480	6	4082
2026-01-18 11:16:57.33	38.23	36.64	-23.2	-24.4	20.1	0.00e+00	0	43	0	2081423360	6	4107
2026-01-18 11:16:58.33	37.83	36.57	-23.0	-23.9	20.3	0.00e+00	0	43	0	2086666240	6	3986
2026-01-18 11:16:59.33	37.43	36.50	-23.1	-24.1	20.2	0.00e+00	0	43	0	2092957696	6	4024
2026-01-18 11:17:00.33	37.03	36.43	-23.3	-24.4	20.1	0.00e+00	0	43	0	2098200576	6	4105
2026-01-18 11:17:01.34	36.63	36.35	-23.0	-23.8	20.4	0.00e+00	0	43	0	2103443456	6	3964
2026-01-18 11:17:02.34	36.24	36.28	-22.8	-23.5	20.5	0.00e+00	0	43	0	2109734912	6	3891
2026-01-18 11:17:03.34	35.85	36.20	-22.9	-23.6	20.5	0.00e+00	0	43	0	2114977792	6	3905
2026-01-18 11:17:04.35	35.45	36.12	-23.0	-23.9	20.3	0.00e+00	0	43	0	2120220672	6	3995
2026-01-18 11:17:05.35	35.06	36.05	-23.1	-24.1	20.2	0.00e+00	0	43	0	2126512128	6	4043
2026-01-18 11:17:06.35	34.68	35.97	-23.4	-24.7	19.9	0.00e+00	0	43	0	2131755008	6	4194
2026-01-18 11:17:07.36	34.29	35.88	-23.3	-24.6	20.0	0.00e+00	0	43	0	2138046464	6	4151
2026-01-18 11:17:08.36	33.91	35.80	-23.2	-24.2	20.2	0.00e+00	0	43	0	2143289344	6	4064
2026-01-18 11:17:09.36	33.52	35.72	-23.2	-24.2	20.2	0.00e+00	0	43	0	2149580800	6	4055
2026-01-18 11:17:10.37	33.14	35.63	-23.2	-24.4	20.1	0.00e+00	0	43	0	2154823680	6	4096
2026-01-18 11:17:11.37	32.77	35.54	-23.1	-24.1	20.2	0.00e+00	0	43	0	2160066560	6	4043
2026-01-18 11:17:12.37	32.39	35.46	-23.1	-24.1	20.2	0.00e+00	0	43	0	2166358016	6	4044
2026-01-18 11:17:13.38	32.01	35.37	-23.2	-24.2	20.2	0.00e+00	0	43	0	2171600896	6	4063
2026-01-18 11:17:14.38	31.64	35.28	-23.3	-24.4	20.1	0.00e+00	0	43	0	2176843776	6	4119
2026-01-18 11:17:15.38	31.27	35.19	-23.3	-24.4	20.1	0.00e+00	0	43	0	2183135232	6	4113
2026-01-18 11:17:16.38	30.91	35.09	-23.1	-24.0	20.3	0.00e+00	0	43	0	2188378112	6	4020
2026-01-18 11:17:17.38	30.54	35.00	-23.0	-23.9	20.3	0.00e+00	0	43	0	2193620992	6	3992
2026-01-18 11:17:18.38	30.18	34.91	-23.0	-23.8	20.4	0.00e+00	0	43	0	2199912448	6	3963
2026-01-18 11:17:19.38	29.82	34.81	-22.9	-23.7	20.5	0.00e+00	0	43	0	2205155328	6	3933
2026-01-18 11:17:20.39	29.46	34.71	-22.9	-23.6	20.5	0.00e+00	0	43	0	2211446784	6	3914
2026-01-18 11:17:21.39	29.10	34.62	-23.0	-23.9	20.3	0.00e+00	0	43	0	2216689664	6	3976
2026-01-18 11:17:22.40	28.74	34.52	-23.0	-24.0	20.3	0.00e+00	0	43	0	2221932544	6	4007
2026-01-18 11:17:23.41	28.39	34.42	-22.9	-23.7	20.4	0.00e+00	0	43	0	2228224000	6	3928
2026-01-18 11:17:24.42	28.04	34.32	-23.0	-23.8	20.4	0.00e+00	0	43	0	2233466880	6	3958
2026-01-18 11:17:25.42	27.69	34.22	-23.0	-24.0	20.3	0.00e+00	0	43	0	2239758336	6	4000
2026-01-18 11:17:26.42	27.34	34.12	-23.1	-24.0	20.2	0.00e+00	0	43	0	2245001216	6	4020
2026-01-18 11:17:27.42	27.00	34.01	-23.1	-24.0	20.2	0.00e+00	0	43	0	2250244096	6	4016
2026-01-18 11:17:28.43	26.66	33.91	-23.0	-23.8	20.3	0.00e+00	0	43	0	2256535552	6	3968
2026-01-18 11:17:29.43	26.32	33.80	-23.1	-24.0	20.3	0.00e+00	0	43	0	2261778432	6	4006
2026-01-18 11:17:30.44	25.98	33.70	-23.2	-24.3	20.1	0.00e+00	0	43	0	2267021312	6	4094
2026-01-18 11:17:31.44	25.64	33.59	-23.3	-24.5	20.0	0.00e+00	0	43	0	2273312768	6	4131
2026-01-18 11:17:32.44	25.31	33.49	-23.3	-24.6	19.9	0.00e+00	0	43	0	2278555648	6	4149
2026-01-18 11:17:33.44	24.98	33.38	-23.1	-24.2	20.2	0.00e+00	0	43	0	2284847104	6	4047
2026-01-18 11:17:34.45	24.65	33.27	-23.2	-24.3	20.1	0.00e+00	0	43	0	2290089984	6	4075
2026-01-18 11:17:35.45	24.33	33.16	-23.3	-24.5	20.0	0.00e+00	0	43	0	2295332864	6	4126
2026-01-18 11:17:36.46	24.00	33.05	-23.2	-24.2	20.1	0.00e+00	0	43	0	2301624320	6	4071
2026-01-18 11:17:37.46	23.68	32.94	-23.1	-24.1	20.2	0.00e+00	0	43	0	2306867200	6	4032
2026-01-18 11:17:38.46	23.36	32.83	-23.2	-24.2	20.1	0.00e+00	0	43	0	2313158656	6	4069
2026-01-18 11:17:39.46	23.04	32.72	-23.3	-24.4	20.0	0.00e+00	0	43	0	2318401536	6	4113
2026-01-18 11:17:40.46	22.73	32.61	-23.3	-24.5	19.9	0.00e+00	0	43	0	2323644416	6	4132
2026-01-18 11:17:41.46	22.42	32.50	-23.5	-24.9	19.7	0.00e+00	0	43	0	2329935872	6	4235
2026-01-18 11:17:42.46	22.11	32.38	-23.6	-24.6	19.7	0.00e+00	0	43	0	2335178752	7	4036
2026-01-18 11:17:43.47	21.80	32.27	-23.5	-24.5	19.7	0.00e+00	0	43	0	2340421632	7	4015
2026-01-18 11:17:44.47	21.49	32.16	-23.5	-24.3	19.8	0.00e+00	0	43	0	2346713088	7	3977
2026-01-18 11:17:45.47	21.19	32.04	-23.5	-24.5	19.7	0.00e+00	0	43	0	2351955968	7	4016
2026-01-18 11:17:46.48	20.88	31.93	-23.7	-24.9	19.5	0.00e+00	0	43	0	2358247424	7	4108
2026-01-18 11:17:47.49	20.58	31.81	-23.7	-24.7	19.5	0.00e+00	0	43	0	2363490304	7	4084
2026-01-18 11:17:48.49	20.28	31.70	-23.3	-24.1	19.9	0.00e+00	0	43	0	2368733184	7	3924
2026-01-18 11:17:49.49	19.99	31.58	-23.2	-23.8	20.1	0.00e+00	0	43	0	2375024640	7	3844
2026-01-18 11:17:50.50	19.69	31.46	-23.3	-23.9	20.0	0.00e+00	0	43	0	2380267520	7	3892
2026-01-18 11:17:51.50	19.40	31.35	-23.4	-24.2	19.9	0.00e+00	0	43	0	2385510400	7	3951
2026-01-18 11:17:52.50	19.11	31.23	-23.4	-24.3	19.8	0.00e+00	0	43	0	2391801856	7	3972
2026-01-18 11:17:53.50	18.83	31.11	-23.5	-24.4	19.7	0.00e+00	0	43	0	2397044736	7	3991
2026-01-18 11:17:54.51	18.54	30.99	-23.2	-23.8	20.0	0.00e+00	0	43	0	2402287616	7	3854
2026-01-18 11:17:55.51	18.26	30.87	-23.2	-23.7	20.1	0.00e+00	0	43	0	2408579072	7	3831
2026-01-18 11:17:56.51	17.98	30.76	-23.3	-24.0	19.9	0.00e+00	0	43	0	2413821952	7	3908
2026-01-18 11:17:57.52	17.70	30.64	-23.4	-24.2	19.8	0.00e+00	0	43	0	2420113408	7	3963
2026-01-18 11:17:58.52	17.42	30.52	-23.4	-24.3	19.8	0.00e+00	0	43	0	2425356288	7	3966
2026-01-18 11:17:59.53	17.14	30.40	-23.3	-24.1	19.9	0.00e+00	0	43	0	2431647744	7	3919
2026-01-18 11:18:00.53	16.87	30.28	-23.3	-23.9	20.0	0.00e+00	0	43	0	2436890624	7	3873
2026-01-18 11:18:01.54	16.60	30.16	-23.3	-24.0	19.9	0.00e+00	0	43	0	2442133504	7	3893
2026-01-18 11:18:02.54	16.33	30.04	-23.4	-24.2	19.8	0.00e+00	0	43	0	2448424960	7	3941
2026-01-18 11:18:03.55	16.06	29.92	-23.4	-24.3	19.7	0.00e+00	0	43	0	2453667840	7	3975
2026-01-18 11:18:04.55	15.80	29.80	-23.5	-24.3	19.7	0.00e+00	0	43	0	2458910720	7	3987
2026-01-18 11:18:05.55	15.54	29.68	-23.4	-24.3	19.8	0.00e+00	0	43	0	2465202176	7	3964
2026-01-18 11:18:06.55	15.28	29.55	-23.4	-24.3	19.8	0.00e+00	0	43	0	2470445056	7	3972
2026-01-18 11:18:07.56	15.02	29.43	-23.5	-24.4	19.7	0.00e+00	0	43	0	2475687936	7	3997
2026-01-18 11:18:08.56	14.76	29.31	-23.5	-24.4	19.7	0.00e+00	0	43	0	2481979392	7	3994
2026-01-18 11:18:09.57	14.50	29.19	-23.6	-24.7	19.5	0.00e+00	0	43	0	2487222272	7	4065
2026-01-18 11:18:10.57	14.25	29.07	-23.6	-24.6	19.6	0.00e+00	0	43	0	2493513728	7	4045
2026-01-18 11:18:11.58	14.00	28.95	-23.6	-24.7	19.5	0.00e+00	0	43	0	2498756608	7	4059
2026-01-18 11:18:12.58	13.75	28.83	-23.6	-24.6	19.6	0.00e+00	0	43	0	2505048064	7	4036
2026-01-18 11:18:13.58	13.50	28.70	-23.4	-24.3	19.7	0.00e+00	0	43	0	2510290944	7	3963
2026-01-18 11:18:14.58	13.26	28.58	-23.5	-24.3	19.7	0.00e+00	0	43	0	2515533824	7	3985
2026-01-18 11:18:15.58	13.02	28.46	-23.5	-24.4	19.6	0.00e+00	0	43	0	2521825280	7	3994
2026-01-18 11:18:16.59	12.77	28.34	-23.5	-24.4	19.7	0.00e+00	0	43	0	2527068160	7	3993
2026-01-18 11:18:17.59	12.53	28.22	-23.5	-24.5	19.6	0.00e+00	0	43	0	2532311040	7	4023
2026-01-18 11:18:18.60	12.30	28.09	-23.5	-24.5	19.6	0.00e+00	0	43	0	2538602496	7	4018
2026-01-18 11:18:19.60	12.06	27.97	-23.5	-24.4	19.6	0.00e+00	0	43	0	2543845376	7	3997
2026-01-18 11:18:20.60	11.83	27.85	-23.5	-24.5	19.6	0.00e+00	0	43	0	2549088256	7	4015
2026-01-18 11:18:21.60	11.60	27.73	-23.6	-24.6	19.5	0.00e+00	0	43	0	2555379712	7	4054
2026-01-18 11:18:22.60	11.37	27.61	-23.6	-24.6	19.5	0.00e+00	0	43	0	2560622592	7	4061
2026-01-18 11:18:23.61	11.14	27.49	-23.7	-24.8	19.4	0.00e+00	0	43	0	2566914048	7	4102
2026-01-18 11:18:24.61	10.91	27.36	-23.7	-24.8	19.4	0.00e+00	0	43	0	2572156928	7	4086
2026-01-18 11:18:25.62	10.68	27.24	-23.7	-24.8	19.4	0.00e+00	0	43	0	2578448384	7	4081
2026-01-18 11:18:26.62	10.46	27.12	-23.9	-25.3	19.2	0.00e+00	0	43	0	2583691264	7	4213
2026-01-18 11:18:27.62	10.24	27.00	-24.0	-24.9	19.1	0.00e+00	0	43	0	2588934144	8	3998
2026-01-18 11:18:28.63	10.02	26.88	-23.8	-24.6	19.2	0.00e+00	0	43	0	2595225600	8	3946
2026-01-18 11:18:29.63	9.80	26.76	-23.9	-24.7	19.2	0.00e+00	0	43	0	2600468480	8	3971
2026-01-18 11:18:30.64	9.58	26.63	-23.9	-24.8	19.2	0.00e+00	0	43	0	2605711360	8	3986
2026-01-18 11:18:31.64	9.37	26.51	-24.1	-25.1	19.0	0.00e+00	0	43	0	2612002816	8	4063
2026-01-18 11:18:32.63	9.16	26.39	-24.1	-25.1	19.0	0.00e+00	0	43	0	2617245696	8	4058
2026-01-18 11:18:33.64	8.94	26.27	-23.9	-24.8	19.2	0.00e+00	0	43	0	2622488576	8	3976
2026-01-18 11:18:34.65	8.73	26.15	-23.9	-24.8	19.2	0.00e+00	0	43	0	2628780032	8	3981
2026-01-18 11:18:35.64	8.53	26.03	-23.9	-24.8	19.1	0.00e+00	0	43	0	2634022912	8	3984
2026-01-18 11:18:36.65	8.32	25.91	-24.0	-25.0	19.0	0.00e+00	0	43	0	2640314368	8	4031
2026-01-18 11:18:37.65	8.11	25.79	-24.0	-25.1	19.0	0.00e+00	0	43	0	2645557248	8	4052
2026-01-18 11:18:38.66	7.91	25.67	-24.0	-24.9	19.1	0.00e+00	0	43	0	2650800128	8	4013
2026-01-18 11:18:39.66	7.71	25.55	-24.0	-24.9	19.1	0.00e+00	0	43	0	2657091584	8	4018
2026-01-18 11:18:40.66	7.51	25.43	-24.0	-25.0	19.0	0.00e+00	0	43	0	2662334464	8	4033
2026-01-18 11:18:41.66	7.31	25.31	-24.1	-25.1	19.0	0.00e+00	0	43	0	2667577344	8	4065
2026-01-18 11:18:42.66	7.11	25.19	-24.1	-25.1	19.0	0.00e+00	0	43	0	2673868800	8	4066
2026-01-18 11:18:43.66	6.92	25.07	-24.3	-25.6	18.7	0.00e+00	0	43	0	2679111680	8	4178
2026-01-18 11:18:44.66	6.72	24.95	-24.3	-25.6	18.7	0.00e+00	0	43	0	2684354560	8	4174
2026-01-18 11:18:45.66	6.53	24.83	-24.0	-25.0	19.0	0.00e+00	0	43	0	2690646016	8	4027
2026-01-18 11:18:46.67	6.34	24.71	-23.8	-24.6	19.2	0.00e+00	0	43	0	2695888896	8	3946
2026-01-18 11:18:47.67	6.15	24.59	-23.9	-24.7	19.2	0.00e+00	0	43	0	2702180352	8	3955
2026-01-18 11:18:48.67	5.96	24.47	-23.8	-24.6	19.2	0.00e+00	0	43	0	2707423232	8	3948
2026-01-18 11:18:49.68	5.77	24.36	-23.9	-24.7	19.2	0.00e+00	0	43	0	2713714688	8	3958
2026-01-18 11:18:50.68	5.59	24.24	-23.9	-24.7	19.2	0.00e+00	0	43	0	2718957568	8	3953
2026-01-18 11:18:51.67	5.40	24.12	-23.9	-24.7	19.1	0.00e+00	0	43	0	2724200448	8	3966
2026-01-18 11:18:52.68	5.22	24.00	-24.0	-24.9	19.0	0.00e+00	0	43	0	2730491904	8	4019
2026-01-18 11:18:53.68	5.04	23.88	-24.0	-25.0	19.0	0.00e+00	0	43	0	2735734784	8	4025
2026-01-18 11:18:54.69	4.86	23.77	-23.9	-24.8	19.1	0.00e+00	0	43	0	2740977664	8	3990
2026-01-18 11:18:55.70	4.68	23.65	-24.0	-25.0	19.0	0.00e+00	0	43	0	2747269120	8	4038
2026-01-18 11:18:56.69	4.50	23.53	-24.1	-25.1	18.9	0.00e+00	0	43	0	2752512000	8	4053
2026-01-18 11:18:57.70	4.32	23.42	-24.1	-25.2	18.8	0.00e+00	0	43	0	2758803456	8	4095
2026-01-18 11:18:58.70	4.15	23.30	-24.2	-25.3	18.8	0.00e+00	0	43	0	2764046336	8	4121
2026-01-18 11:18:59.71	3.98	23.18	-24.2	-25.4	18.8	0.00e+00	0	43	0	2769289216	8	4131
2026-01-18 11:19:00.71	3.80	23.07	-24.2	-25.3	18.8	0.00e+00	0	43	0	2775580672	8	4119
2026-01-18 11:19:01.71	3.63	22.95	-24.2	-25.4	18.7	0.00e+00	0	43	0	2780823552	8	4135
2026-01-18 11:19:02.72	3.46	22.83	-24.3	-25.6	18.6	0.00e+00	0	43	0	2787115008	8	4188
2026-01-18 11:19:03.72	3.30	22.72	-24.3	-25.7	18.6	0.00e+00	0	43	0	2792357888	8	4207
2026-01-18 11:19:04.72	3.13	22.61	-24.3	-25.6	18.6	0.00e+00	0	43	0	2797600768	8	4192
2026-01-18 11:19:05.73	2.96	22.49	-24.3	-25.6	18.6	0.00e+00	0	43	0	2803892224	8	4184
2026-01-18 11:19:06.73	2.80	22.38	-24.4	-25.9	18.5	0.00e+00	0	43	0	2809135104	8	4262
2026-01-18 11:19:07.74	2.63	22.26	-24.4	-25.9	18.5	0.00e+00	0	43	0	2814377984	8	4259
2026-01-18 11:19:08.74	2.47	22.15	-24.4	-25.8	18.5	0.00e+00	0	43	0	2820669440	8	4247
2026-01-18 11:19:09.74	2.31	22.03	-24.3	-25.7	18.6	0.00e+00	0	43	0	2825912320	8	4203
2026-01-18 11:19:10.74	2.15	21.92	-24.6	-25.7	18.3	0.00e+00	0	43	0	2832203776	9	4087
2026-01-18 11:19:11.75	1.99	21.81	-24.9	-26.3	18.0	0.00e+00	0	43	0	2837446656	9	4259
2026-01-18 11:19:12.74	1.84	21.69	-24.8	-25.6	18.1	0.00e+00	0	43	0	2842689536	10	3970
2026-01-18 11:19:13.74	1.68	21.58	-24.5	-25.0	18.4	0.00e+00	0	43	0	2848980992	10	3814
2026-01-18 11:19:14.74	1.53	21.47	-24.3	-24.6	18.6	0.00e+00	0	43	0	2854223872	10	3735
2026-01-18 11:19:15.74	1.38	21.36	-24.2	-24.9	18.7	0.00e+00	0	43	0	2859466752	9	3917
2026-01-18 11:19:16.74	1.22	21.25	-24.3	-25.2	18.5	0.00e+00	0	43	0	2865758208	9	3980
2026-01-18 11:19:17.74	1.07	21.14	-24.4	-25.3	18.5	0.00e+00	0	43	0	2871001088	9	4000
2026-01-18 11:19:18.75	0.92	21.02	-24.4	-25.4	18.4	0.00e+00	0	43	0	2876243968	9	4022
2026-01-18 11:19:19.75	0.77	20.91	-24.6	-25.7	18.3	0.00e+00	0	43	0	2882535424	9	4105
2026-01-18 11:19:20.76	0.62	20.80	-24.6	-25.7	18.3	0.00e+00	0	43	0	2887778304	9	4093
2026-01-18 11:19:21.76	0.48	20.69	-24.6	-25.8	18.2	0.00e+00	0	43	0	2894069760	9	4111
2026-01-18 11:19:22.77	0.33	20.58	-24.6	-25.8	18.2	0.00e+00	0	43	0	2899312640	9	4124
2026-01-18 11:19:23.77	0.18	20.47	-24.8	-26.3	18.0	0.00e+00	0	43	0	2905604096	9	4245
2026-01-18 11:19:24.78	0.04	20.36	-24.7	-26.0	18.1	0.00e+00	0	43	0	2910846976	9	4173
2026-01-18 11:19:25.78	359.90	20.25	-24.6	-25.7	18.3	0.00e+00	0	43	0	2916089856	9	4091
2026-01-18 11:19:26.79	359.75	20.14	-24.5	-25.5	18.3	0.00e+00	0	43	0	2922381312	9	4061
2026-01-18 11:19:27.79	359.61	20.03	-24.5	-25.6	18.3	0.00e+00	0	43	0	2927624192	9	4065
2026-01-18 11:19:28.78	359.48	19.93	-24.5	-25.6	18.3	0.00e+00	0	43	0	2932867072	9	4067
2026-01-18 11:19:29.78	359.34	19.82	-24.5	-25.6	18.3	0.00e+00	0	43	0	2939158528	9	4071
2026-01-18 11:19:30.79	359.20	19.71	-24.5	-25.6	18.3	0.00e+00	0	43	0	2944401408	9	4062
2026-01-18 11:19:31.79	359.06	19.60	-24.5	-25.6	18.3	0.00e+00	0	43	0	2949644288	9	4084
2026-01-18 11:19:32.79	358.93	19.50	-24.7	-26.1	18.0	0.00e+00	0	43	0	2955935744	9	4193
2026-01-18 11:19:33.79	358.79	19.39	-24.7	-26.1	18.1	0.00e+00	0	43	0	2961178624	9	4190
2026-01-18 11:19:34.78	358.66	19.28	-24.9	-26.3	17.9	0.00e+00	0	43	0	2967470080	9	4263
2026-01-18 11:19:35.79	358.53	19.18	-24.9	-26.4	17.8	0.00e+00	0	43	0	2972712960	9	4291
2026-01-18 11:19:36.79	358.39	19.07	-25.0	-26.6	17.8	0.00e+00	0	43	0	2977955840	9	4332
2026-01-18 11:19:37.80	358.26	18.96	-25.0	-26.2	17.7	0.00e+00	0	43	0	2984247296	10	4109
2026-01-18 11:19:38.80	358.13	18.86	-25.1	-26.4	17.6	0.00e+00	0	43	0	2989490176	10	4168
2026-01-18 11:19:39.80	358.00	18.75	-25.1	-26.4	17.6	0.00e+00	0	43	0	2994733056	10	4171
2026-01-18 11:19:40.80	357.88	18.65	-25.1	-26.3	17.7	0.00e+00	0	43	0	3001024512	10	4143
2026-01-18 11:19:41.80	357.75	18.54	-25.2	-26.5	17.5	0.00e+00	0	43	0	3006267392	10	4205
2026-01-18 11:19:42.80	357.62	18.44	-25.2	-26.4	17.6	0.00e+00	0	43	0	3011510272	10	4177
2026-01-18 11:19:43.80	357.50	18.34	-25.3	-26.7	17.4	0.00e+00	0	43	0	3017801728	10	4253
2026-01-18 11:19:44.81	357.37	18.23	-25.2	-26.4	17.6	0.00e+00	0	43	0	3023044608	10	4175
2026-01-18 11:19:45.81	357.25	18.13	-24.9	-25.9	17.8	0.00e+00	0	43	0	3029336064	10	4042
2026-01-18 11:19:46.81	357.13	18.03	-24.9	-25.8	17.9	0.00e+00	0	43	0	3034578944	10	4019
2026-01-18 11:19:47.81	357.00	17.92	-24.9	-25.9	17.8	0.00e+00	0	43	0	3040870400	10	4040
2026-01-18 11:19:48.82	356.88	17.82	-24.9	-25.9	17.8	0.00e+00	0	43	0	3046113280	10	4033
2026-01-18 11:19:49.83	356.76	17.72	-24.9	-26.0	17.8	0.00e+00	0	43	0	3051356160	10	4054
2026-01-18 11:19:50.83	356.64	17.62	-24.9	-26.0	17.8	0.00e+00	0	43	0	3057647616	10	4065
2026-01-18 11:19:51.83	356.52	17.51	-25.1	-26.3	17.6	0.00e+00	0	43	0	3062890496	10	4154
2026-01-18 11:19:52.83	356.41	17.41	-25.1	-26.3	17.6	0.00e+00	0	43	0	3068133376	10	4148
2026-01-18 11:19:53.83	356.29	17.31	-25.2	-26.6	17.4	0.00e+00	0	43	0	3074424832	10	4220
2026-01-18 11:19:54.84	356.17	17.21	-25.3	-26.8	17.3	0.00e+00	0	43	0	3079667712	10	4266
2026-01-18 11:19:55.85	356.06	17.11	-25.4	-27.1	17.2	0.00e+00	0	43	0	3084910592	10	4357
2026-01-18 11:19:56.84	355.94	17.01	-25.4	-27.0	17.2	0.00e+00	0	43	0	3091202048	10	4339
2026-01-18 11:19:57.85	355.83	16.91	-25.5	-27.1	17.2	0.00e+00	0	43	0	3096444928	10	4356
2026-01-18 11:19:58.86	355.71	16.81	-25.5	-27.1	17.1	0.00e+00	0	43	0	3102736384	10	4351
2026-01-18 11:19:59.86	355.60	16.71	-25.5	-27.2	17.1	0.00e+00	0	43	0	3107979264	10	4378
2026-01-18 11:20:00.87	355.49	16.61	-25.5	-26.6	17.1	0.00e+00	0	43	0	3114270720	11	4112
2026-01-18 11:20:01.87	355.38	16.51	-25.5	-26.7	17.1	0.00e+00	0	43	0	3119513600	11	4124
2026-01-18 11:20:02.88	355.27	16.41	-25.5	-26.7	17.1	0.00e+00	0	43	0	3124756480	11	4142
2026-01-18 11:20:03.88	355.16	16.31	-25.6	-27.0	17.0	0.00e+00	0	43	0	3131047936	11	4196
2026-01-18 11:20:04.87	355.05	16.22	-25.5	-26.7	17.0	0.00e+00	0	43	0	3136290816	11	4140
2026-01-18 11:20:05.87	354.94	16.12	-25.5	-26.8	17.0	0.00e+00	0	43	0	3141533696	11	4147
2026-01-18 11:20:06.88	354.84	16.02	-25.6	-26.8	17.0	0.00e+00	0	43	0	3147825152	11	4162
2026-01-18 11:20:07.87	354.73	15.93	-25.6	-26.9	17.0	0.00e+00	0	43	0	3153068032	11	4185
2026-01-18 11:20:08.88	354.62	15.83	-25.7	-27.0	16.9	0.00e+00	0	43	0	3158310912	11	4216
2026-01-18 11:20:09.88	354.52	15.73	-25.7	-27.0	16.9	0.00e+00	0	43	0	3164602368	11	4205
2026-01-18 11:20:10.89	354.41	15.64	-25.7	-27.1	16.8	0.00e+00	0	43	0	3169845248	11	4246
2026-01-18 11:20:11.89	354.31	15.54	-25.7	-27.1	16.8	0.00e+00	0	43	0	3176136704	11	4236
2026-01-18 11:20:12.89	354.21	15.45	-25.8	-27.3	16.7	0.00e+00	0	43	0	3181379584	11	4290
2026-01-18 11:20:13.90	354.11	15.35	-25.8	-27.3	16.7	0.00e+00	0	43	0	3186622464	11	4279
2026-01-18 11:20:14.90	354.00	15.25	-25.9	-27.6	16.6	0.00e+00	0	43	0	3192913920	11	4360
2026-01-18 11:20:15.90	353.90	15.16	-25.8	-27.4	16.7	0.00e+00	0	43	0	3198156800	11	4310
2026-01-18 11:20:16.90	353.80	15.07	-25.8	-27.3	16.7	0.00e+00	0	43	0	3203399680	11	4301
2026-01-18 11:20:17.90	353.70	14.97	-25.9	-27.5	16.6	0.00e+00	0	43	0	3209691136	11	4345
2026-01-18 11:20:18.90	353.60	14.88	-25.9	-27.5	16.6	0.00e+00	0	43	0	3214934016	11	4339
2026-01-18 11:20:19.90	353.51	14.78	-26.0	-27.7	16.5	0.00e+00	0	43	0	3220176896	11	4412
2026-01-18 11:20:20.91	353.41	14.69	-25.9	-27.1	16.4	0.00e+00	0	43	0	3226468352	12	4145
2026-01-18 11:20:21.91	353.31	14.60	-25.9	-27.2	16.4	0.00e+00	0	43	0	3231711232	12	4155
2026-01-18 11:20:22.91	353.22	14.50	-25.9	-27.2	16.4	0.00e+00	0	43	0	3238002688	12	4156
2026-01-18 11:20:23.91	353.12	14.41	-26.0	-27.3	16.4	0.00e+00	0	43	0	3243245568	12	4176
2026-01-18 11:20:24.91	353.02	14.32	-26.0	-27.4	16.3	0.00e+00	0	43	0	3248488448	12	4207
2026-01-18 11:20:25.92	352.93	14.23	-26.0	-27.3	16.3	0.00e+00	0	43	0	3254779904	12	4178
2026-01-18 11:20:26.92	352.84	14.14	-25.9	-27.1	16.4	0.00e+00	0	43	0	3260022784	12	4136
2026-01-18 11:20:27.93	352.74	14.04	-26.1	-27.5	16.2	0.00e+00	0	43	0	3266314240	12	4229
2026-01-18 11:20:28.93	352.65	13.95	-26.0	-27.3	16.3	0.00e+00	0	43	0	3271557120	12	4180
2026-01-18 11:20:29.94	352.56	13.86	-26.0	-27.4	16.2	0.00e+00	0	43	0	3276800000	12	4208
2026-01-18 11:20:30.95	352.46	13.77	-26.1	-27.4	16.2	0.00e+00	0	43	0	3283091456	12	4211
2026-01-18 11:20:31.95	352.37	13.68	-26.2	-27.6	16.1	0.00e+00	0	43	0	3288334336	12	4273
2026-01-18 11:20:32.96	352.28	13.59	-26.1	-27.4	16.2	0.00e+00	0	43	0	3293577216	12	4218
2026-01-18 11:20:33.96	352.19	13.50	-26.0	-27.3	16.3	0.00e+00	0	43	0	3299868672	12	4181
2026-01-18 11:20:34.96	352.10	13.41	-26.1	-27.6	16.1	0.00e+00	0	43	0	3305111552	12	4270
2026-01-18 11:20:35.97	352.01	13.32	-26.0	-27.4	16.2	0.00e+00	0	43	0	3311403008	12	4201
2026-01-18 11:20:36.96	351.93	13.23	-26.0	-27.3	16.3	0.00e+00	0	43	0	3316645888	12	4174
2026-01-18 11:20:37.97	351.84	13.14	-26.2	-27.6	16.0	0.00e+00	0	43	0	3322937344	12	4271
2026-01-18 11:20:38.97	351.75	13.05	-26.1	-27.5	16.1	0.00e+00	0	43	0	3328180224	12	4244
2026-01-18 11:20:39.98	351.66	12.96	-26.2	-27.7	16.1	0.00e+00	0	43	0	3333423104	12	4279
2026-01-18 11:20:40.98	351.58	12.88	-26.1	-27.6	16.1	0.00e+00	0	43	0	3339714560	12	4262
2026-01-18 11:20:41.98	351.49	12.79	-26.2	-27.8	16.0	0.00e+00	0	43	0	3344957440	12	4311
2026-01-18 11:20:42.99	351.41	12.70	-26.3	-28.0	15.9	0.00e+00	0	43	0	3350200320	12	4370
2026-01-18 11:20:43.98	351.33	12.61	-26.3	-27.9	15.9	0.00e+00	0	43	0	3356491776	12	4335
2026-01-18 11:20:44.99	351.24	12.53	-26.4	-28.1	15.8	0.00e+00	0	43	0	3361734656	12	4400
2026-01-18 11:20:46.00	351.16	12.44	-26.3	-27.9	15.9	0.00e+00	0	43	0	3366977536	12	4350
2026-01-18 11:20:47.01	351.07	12.35	-26.4	-28.3	15.7	0.00e+00	0	43	0	3373268992	12	4442
2026-01-18 11:20:48.00	350.99	12.27	-26.4	-28.3	15.6	0.00e+00	0	43	0	3378511872	12	4458
2026-01-18 11:20:49.01	350.91	12.18	-26.6	-28.2	15.4	0.00e+00	0	43	0	3384803328	13	4313
2026-01-18 11:20:50.01	350.83	12.09	-26.9	-28.7	15.1	0.00e+00	0	43	0	3390046208	13	4460
2026-01-18 11:20:51.01	350.75	12.01	-26.7	-28.3	15.3	0.00e+00	0	43	0	3396337664	13	4354
2026-01-18 11:20:52.01	350.67	11.92	-26.5	-27.9	15.6	0.00e+00	0	43	0	3401580544	13	4230
2026-01-18 11:20:53.01	350.59	11.84	-26.4	-27.8	15.6	0.00e+00	0	43	0	3406823424	13	4200
2026-01-18 11:20:54.02	350.51	11.75	-26.5	-27.9	15.6	0.00e+00	0	43	0	3413114880	13	4236
2026-01-18 11:20:55.02	350.43	11.67	-26.4	-27.7	15.7	0.00e+00	0	43	0	3418357760	13	4183
2026-01-18 11:20:56.03	350.35	11.58	-26.4	-27.7	15.7	0.00e+00	0	43	0	3423600640	13	4170
2026-01-18 11:20:57.03	350.27	11.50	-26.6	-28.2	15.4	0.00e+00	0	43	0	3429892096	13	4307
2026-01-18 11:20:58.03	350.20	11.41	-26.5	-27.9	15.6	0.00e+00	0	43	0	3435134976	13	4224
2026-01-18 11:20:59.03	350.12	11.33	-26.4	-27.7	15.6	0.00e+00	0	43	0	3440377856	13	4187
2026-01-18 11:21:00.04	350.04	11.25	-26.5	-27.9	15.5	0.00e+00	0	43	0	3446669312	13	4221
2026-01-18 11:21:01.04	349.97	11.16	-26.5	-27.9	15.5	0.00e+00	0	43	0	3451912192	13	4234
2026-01-18 11:21:02.05	349.89	11.08	-26.6	-28.1	15.4	0.00e+00	0	43	0	3458203648	13	4277
2026-01-18 11:21:03.05	349.81	11.00	-26.5	-28.0	15.5	0.00e+00	0	43	0	3463446528	13	4254
2026-01-18 11:21:04.06	349.74	10.91	-26.6	-28.2	15.4	0.00e+00	0	43	0	3468689408	13	4305
2026-01-18 11:21:05.07	349.66	10.83	-26.5	-28.0	15.4	0.00e+00	0	43	0	3474980864	13	4277
2026-01-18 11:21:06.07	349.59	10.75	-26.6	-28.1	15.4	0.00e+00	0	43	0	3480223744	13	4295
2026-01-18 11:21:07.07	349.52	10.67	-26.6	-28.2	15.4	0.00e+00	0	44	0	3486515200	13	4311
2026-01-18 11:21:08.07	349.44	10.59	-26.7	-28.4	15.2	0.00e+00	0	43	0	3491758080	13	4373
2026-01-18 11:21:09.07	349.37	10.50	-26.6	-28.2	15.3	0.00e+00	0	43	0	3497000960	13	4330
2026-01-18 11:21:10.07	349.30	10.42	-26.8	-28.6	15.1	0.00e+00	0	43	0	3503292416	13	4426
2026-01-18 11:21:11.08	349.23	10.34	-26.7	-28.4	15.2	0.00e+00	0	43	0	3508535296	13	4379
2026-01-18 11:21:12.08	349.16	10.26	-26.8	-28.5	15.1	0.00e+00	0	43	0	3513778176	13	4418
2026-01-18 11:21:13.09	349.08	10.18	-26.8	-28.5	15.1	0.00e+00	0	43	0	3520069632	13	4410
2026-01-18 11:21:14.08	349.02	10.10	-26.8	-28.7	15.0	0.00e+00	0	43	0	3525312512	13	4450
2026-01-18 11:21:15.09	348.94	10.02	-26.7	-28.4	15.2	0.00e+00	0	43	0	3531603968	13	4374
2026-01-18 11:21:16.09	348.88	9.94	-26.8	-28.6	15.0	1.10e-06	0	43	0	3536846848	13	4441
2026-01-18 11:21:17.09	348.81	9.86	-26.8	-28.6	15.0	0.00e+00	0	43	0	3542089728	13	4448
2026-01-18 11:21:18.10	348.74	9.78	-26.9	-28.8	15.0	0.00e+00	0	43	0	3548381184	13	4477
2026-01-18 11:21:19.10	348.67	9.70	-27.1	-28.8	14.7	1.10e-06	0	43	0	3553624064	14	4370
2026-01-18 11:21:20.10	348.60	9.62	-27.2	-29.1	14.5	1.10e-06	0	43	0	3558866944	14	4464
2026-01-18 11:21:21.11	348.53	9.54	-27.1	-28.7	14.7	0.00e+00	0	43	0	3565158400	14	4360
2026-01-18 11:21:22.12	348.46	9.46	-27.0	-28.6	14.7	0.00e+00	0	43	0	3570401280	14	4311
2026-01-18 11:21:23.12	348.40	9.39	-27.1	-28.8	14.6	0.00e+00	0	43	0	3576692736	14	4367
2026-01-18 11:21:24.12	348.33	9.31	-27.1	-28.8	14.6	0.00e+00	0	43	0	3581935616	14	4364
2026-01-18 11:21:25.13	348.26	9.23	-27.1	-28.7	14.6	0.00e+00	0	43	0	3587178496	14	4365
2026-01-18 11:21:26.14	348.20	9.15	-27.2	-29.1	14.4	0.00e+00	0	43	0	3593469952	14	4482
2026-01-18 11:21:27.14	348.13	9.07	-27.2	-29.1	14.4	1.10e-06	0	43	0	3598712832	14	4462
2026-01-18 11:21:28.14	348.07	9.00	-27.4	-29.4	14.2	2.20e-06	0	43	0	3605004288	14	4563
2026-01-18 11:21:29.14	348.00	8.92	-27.5	-29.3	14.0	0.00e+00	0	43	0	3610247168	15	4426
2026-01-18 11:21:30.14	347.94	8.84	-27.4	-28.9	14.2	0.00e+00	0	43	0	3615490048	15	4303
2026-01-18 11:21:31.14	347.88	8.77	-27.2	-28.5	14.4	0.00e+00	0	43	0	3621781504	15	4201
2026-01-18 11:21:32.14	347.81	8.69	-27.2	-28.5	14.4	0.00e+00	0	43	0	3627024384	15	4198
2026-01-18 11:21:33.15	347.75	8.61	-27.3	-28.9	14.2	2.20e-06	0	43	0	3632267264	15	4295
2026-01-18 11:21:34.15	347.69	8.54	-27.2	-28.6	14.4	0.00e+00	0	43	0	3638558720	15	4230
2026-01-18 11:21:35.15	347.62	8.46	-27.3	-28.8	14.2	0.00e+00	0	43	0	3643801600	15	4278
2026-01-18 11:21:36.16	347.56	8.38	-27.2	-28.6	14.4	0.00e+00	0	43	0	3649044480	15	4219
2026-01-18 11:21:37.17	347.50	8.31	-27.2	-28.6	14.4	1.10e-06	0	43	0	3655335936	15	4208
2026-01-18 11:21:38.18	347.44	8.23	-27.2	-28.5	14.4	0.00e+00	0	43	0	3660578816	15	4205
2026-01-18 11:21:39.19	347.37	8.16	-27.2	-28.4	14.4	0.00e+00	0	43	0	3666870272	15	4179
2026-01-18 11:21:40.19	347.31	8.08	-27.2	-28.6	14.3	1.10e-06	0	43	0	3672113152	15	4227
2026-01-18 11:21:41.19	347.25	8.01	-27.3	-28.9	14.1	0.00e+00	0	43	0	3678404608	15	4301
2026-01-18 11:21:42.20	347.19	7.93	-27.5	-29.3	13.9	1.10e-06	0	43	0	3683647488	15	4410
2026-01-18 11:21:43.20	347.13	7.86	-27.3	-28.8	14.2	1.10e-06	0	43	0	3688890368	15	4267
2026-01-18 11:21:44.21	347.07	7.78	-27.4	-28.9	14.1	2.20e-06	0	43	0	3695181824	15	4312
2026-01-18 11:21:45.21	347.01	7.71	-27.3	-28.9	14.1	1.10e-06	0	43	0	3700424704	15	4307
2026-01-18 11:21:46.21	346.96	7.63	-27.4	-29.1	14.0	4.50e-06	0	43	0	3705667584	15	4356
2026-01-18 11:21:47.21	346.90	7.56	-27.5	-29.2	13.9	0.00e+00	0	43	0	3711959040	15	4385
2026-01-18 11:21:48.21	346.84	7.49	-27.5	-29.3	13.8	4.50e-06	0	43	0	3717201920	15	4418
2026-01-18 11:21:49.21	346.78	7.41	-27.5	-29.3	13.8	2.20e-06	0	43	0	3723493376	15	4427
2026-01-18 11:21:50.21	346.72	7.34	-27.7	-29.8	13.5	4.50e-06	0	43	0	3728736256	15	4569
2026-01-18 11:21:51.21	346.67	7.27	-27.7	-29.6	13.6	4.50e-06	0	43	0	3733979136	15	4519
2026-01-18 11:21:52.21	346.61	7.20	-27.8	-30.0	13.4	1.02e-05	0	43	0	3740270592	15	4621
2026-01-18 11:21:53.21	346.55	7.12	-29.0	-31.8	12.1	5.70e-06	0	43	0	3745513472	17	4966
2026-01-18 11:21:54.22	346.50	7.05	-33.4	-43.6	3.8	8.44e-01	0	43	104	3746562048	26	11759
2026-01-18 11:21:55.22	346.44	6.98	-33.7	-44.9	3.8	8.46e-01	0	43	104	3746562048	27	12944

#Closed at: 2026-01-18 11:21:56
#Recorded file [3746 MB]: D:/data/31010_260118_141047.dat