passes_logs/2026/01/18/R2M6_AANII_01/R2M6_AANII_01__20260118_115306_SUOMI_NPP_rec.log

#Pass ID: 20260118_115306_SUOMI NPP
#Satellite: SUOMI NPP
#Configuration: NPP
#almurnet v.1.7.20240730
#Start time: 2026-01-18 11:53:05

#Version: 2.2.20231116
#Station: R2M6_AANII_01
#Location: 30.233357 lon 59.946436 lat
#TLE: 1 37849U 11061A   26017.28905266  .00000074  00000+0  55894-4 0  9999
#TLE: 2 37849  98.7814 319.3179 0002408  59.7048 300.4366 14.19525847737038

#Time	Az	El	Level	Level2	SNR	BER	BlckErr	Temp	State	Recorded	gain1	gain2
2026-01-18 11:53:05.82	208.63	6.95	-30.3	-32.1	5.6	1.15e+00	0	40	0	0	22	4394
2026-01-18 11:53:06.82	208.72	7.02	-31.3	-35.3	5.2	1.21e+00	0	41	104	0	22	5718
2026-01-18 11:53:07.83	208.81	7.09	-31.4	-35.8	8.5	3.35e-02	0	41	0	0	22	5951
2026-01-18 11:53:08.83	208.90	7.15	-31.3	-35.4	8.8	3.41e-02	0	41	0	1048576	22	5761
2026-01-18 11:53:09.84	208.99	7.22	-31.4	-35.7	8.5	3.43e-02	0	41	0	3145728	22	5936
2026-01-18 11:53:10.84	209.08	7.28	-31.2	-35.1	9.0	3.82e-02	0	41	0	5242880	22	5611
2026-01-18 11:53:11.85	209.17	7.35	-31.1	-34.6	9.3	2.32e-02	0	41	0	7340032	22	5412
2026-01-18 11:53:12.85	209.26	7.42	-30.8	-33.7	10.0	1.11e-02	0	41	0	9437184	22	5029
2026-01-18 11:53:13.84	209.35	7.48	-30.7	-33.3	10.3	7.06e-03	0	41	0	10485760	22	4857
2026-01-18 11:53:14.85	209.44	7.55	-30.5	-32.6	11.0	3.81e-03	0	41	0	12582912	22	4567
2026-01-18 11:53:15.86	209.53	7.61	-30.5	-32.4	11.2	1.82e-03	0	41	0	14680064	22	4495
2026-01-18 11:53:16.86	209.62	7.68	-30.5	-32.3	11.3	1.09e-03	0	41	0	16777216	22	4458
2026-01-18 11:53:17.87	209.72	7.75	-30.5	-32.2	11.4	1.04e-03	0	41	0	17825792	22	4421
2026-01-18 11:53:18.88	209.81	7.82	-30.4	-31.9	11.7	7.06e-04	0	41	0	19922944	22	4318
2026-01-18 11:53:19.88	209.90	7.88	-30.6	-32.7	11.1	1.32e-03	0	41	0	22020096	22	4572
2026-01-18 11:53:20.88	210.00	7.95	-30.5	-32.4	11.4	9.66e-04	0	41	0	24117248	22	4475
2026-01-18 11:53:21.89	210.09	8.02	-30.5	-32.2	11.5	1.01e-03	0	41	0	26214400	22	4393
2026-01-18 11:53:22.88	210.19	8.08	-30.4	-32.6	11.5	5.68e-04	0	41	0	28311552	21	4645
2026-01-18 11:53:23.89	210.28	8.15	-30.4	-32.6	11.6	8.48e-04	0	41	0	29360128	21	4626
2026-01-18 11:53:24.89	210.38	8.22	-30.4	-32.6	11.5	8.93e-04	0	41	0	31457280	21	4641
2026-01-18 11:53:25.89	210.47	8.28	-30.5	-32.8	11.4	8.27e-04	0	41	0	33554432	21	4712
2026-01-18 11:53:26.90	210.57	8.35	-30.4	-32.6	11.6	8.00e-04	0	41	0	35651584	21	4620
2026-01-18 11:53:27.90	210.67	8.42	-30.4	-32.5	11.6	6.87e-04	0	41	0	36700160	21	4600
2026-01-18 11:53:28.89	210.76	8.49	-30.4	-32.5	11.7	5.93e-04	0	41	0	38797312	21	4573
2026-01-18 11:53:29.89	210.86	8.56	-30.5	-32.7	11.5	6.73e-04	0	41	0	40894464	21	4654
2026-01-18 11:53:30.90	210.96	8.62	-30.4	-32.4	11.8	5.19e-04	0	42	0	42991616	21	4539
2026-01-18 11:53:31.90	211.06	8.69	-30.4	-32.3	11.9	3.82e-04	0	42	0	45088768	21	4501
2026-01-18 11:53:32.91	211.16	8.76	-30.3	-32.2	12.0	4.45e-04	0	41	0	46137344	21	4463
2026-01-18 11:53:33.91	211.26	8.83	-30.2	-31.8	12.3	3.33e-04	0	42	0	48234496	21	4313
2026-01-18 11:53:34.92	211.36	8.90	-30.4	-32.3	12.0	2.99e-04	0	42	0	50331648	21	4498
2026-01-18 11:53:35.93	211.46	8.97	-30.4	-32.3	12.0	2.94e-04	0	42	0	52428800	21	4489
2026-01-18 11:53:36.93	211.56	9.04	-30.4	-32.2	12.1	2.84e-04	0	42	0	54525952	21	4450
2026-01-18 11:53:37.94	211.66	9.11	-30.6	-32.9	11.7	3.54e-04	0	42	0	55574528	21	4705
2026-01-18 11:53:38.93	211.76	9.17	-30.4	-32.4	12.1	4.78e-04	0	42	0	57671680	21	4501
2026-01-18 11:53:39.94	211.86	9.24	-30.4	-32.4	12.0	1.97e-04	0	42	0	59768832	21	4500
2026-01-18 11:53:40.94	211.97	9.31	-30.4	-32.5	11.9	2.88e-04	0	42	0	61865984	21	4535
2026-01-18 11:53:41.94	212.07	9.38	-30.5	-32.7	11.8	3.49e-04	0	42	0	63963136	21	4638
2026-01-18 11:53:42.94	212.17	9.45	-30.4	-32.4	12.0	3.58e-04	0	42	0	65011712	21	4504
2026-01-18 11:53:43.94	212.28	9.52	-30.4	-32.3	12.1	3.19e-04	0	42	0	67108864	21	4493
2026-01-18 11:53:44.95	212.38	9.59	-30.4	-32.4	12.0	4.53e-04	0	42	0	69206016	21	4525
2026-01-18 11:53:45.95	212.49	9.66	-30.4	-32.3	12.0	3.28e-04	0	42	0	71303168	21	4485
2026-01-18 11:53:46.94	212.59	9.73	-30.4	-32.4	12.1	2.17e-04	0	42	0	73400320	21	4501
2026-01-18 11:53:47.95	212.70	9.80	-30.5	-32.6	11.8	4.64e-04	0	42	0	74448896	21	4586
2026-01-18 11:53:48.96	212.80	9.87	-30.3	-32.0	12.2	4.32e-04	0	42	0	76546048	21	4387
2026-01-18 11:53:49.97	212.91	9.94	-30.3	-32.0	12.4	1.85e-04	0	42	0	78643200	21	4365
2026-01-18 11:53:50.97	213.02	10.01	-30.2	-31.8	12.5	1.53e-04	0	42	0	80740352	21	4301
2026-01-18 11:53:51.97	213.13	10.08	-30.2	-31.8	12.5	1.42e-04	0	42	0	81788928	21	4297
2026-01-18 11:53:52.97	213.24	10.15	-30.4	-32.2	12.2	1.37e-04	0	42	0	83886080	21	4445
2026-01-18 11:53:53.97	213.34	10.22	-30.3	-31.8	12.5	1.10e-04	0	42	0	85983232	21	4314
2026-01-18 11:53:54.98	213.46	10.29	-30.2	-31.7	12.6	9.07e-05	0	42	0	88080384	21	4258
2026-01-18 11:53:55.99	213.57	10.37	-30.2	-31.7	12.6	7.78e-05	0	42	0	90177536	21	4282
2026-01-18 11:53:56.99	213.68	10.44	-30.3	-31.8	12.4	1.11e-04	0	42	0	91226112	21	4321
2026-01-18 11:53:57.99	213.79	10.51	-30.2	-31.6	12.7	1.05e-04	0	42	0	93323264	21	4249
2026-01-18 11:53:58.99	213.90	10.58	-30.1	-31.3	12.9	6.48e-05	0	42	0	95420416	21	4136
2026-01-18 11:53:59.99	214.01	10.65	-30.1	-31.5	12.8	7.24e-05	0	42	0	97517568	21	4187
2026-01-18 11:54:00.99	214.12	10.72	-30.1	-31.5	12.8	6.25e-05	0	42	0	99614720	21	4203
2026-01-18 11:54:02.00	214.24	10.79	-30.2	-31.6	12.7	8.69e-05	0	42	0	100663296	21	4230
2026-01-18 11:54:03.00	214.35	10.86	-30.3	-32.1	12.4	1.28e-04	0	42	0	102760448	21	4383
2026-01-18 11:54:04.00	214.46	10.94	-30.3	-32.0	12.4	1.37e-04	0	42	0	104857600	21	4365
2026-01-18 11:54:05.01	214.58	11.01	-30.4	-32.3	12.2	1.91e-04	0	42	0	106954752	21	4481
2026-01-18 11:54:06.01	214.69	11.08	-30.6	-32.8	11.9	2.42e-04	0	42	0	109051904	21	4630
2026-01-18 11:54:07.01	214.81	11.15	-30.6	-32.7	11.9	3.11e-04	0	42	0	110100480	21	4601
2026-01-18 11:54:08.01	214.93	11.22	-30.6	-32.8	11.8	4.95e-04	0	42	0	112197632	21	4633
2026-01-18 11:54:09.02	215.04	11.30	-30.6	-32.9	11.8	7.70e-04	0	42	0	114294784	21	4660
2026-01-18 11:54:10.02	215.16	11.37	-30.7	-33.1	11.7	5.70e-04	0	42	0	116391936	21	4754
2026-01-18 11:54:11.02	215.28	11.44	-30.8	-33.4	11.5	7.01e-04	0	43	0	118489088	21	4864
2026-01-18 11:54:12.02	215.40	11.51	-30.7	-33.1	11.7	6.07e-04	0	42	0	119537664	21	4734
2026-01-18 11:54:13.02	215.52	11.59	-30.6	-32.7	12.0	4.55e-04	0	42	0	121634816	21	4596
2026-01-18 11:54:14.02	215.64	11.66	-30.7	-33.0	11.8	3.49e-04	0	42	0	123731968	21	4693
2026-01-18 11:54:15.03	215.76	11.73	-30.7	-33.0	11.8	3.71e-04	0	42	0	125829120	21	4702
2026-01-18 11:54:16.03	215.88	11.81	-30.6	-32.6	12.1	4.19e-04	0	43	0	127926272	21	4564
2026-01-18 11:54:17.04	216.00	11.88	-30.6	-32.6	12.1	1.88e-04	0	42	0	128974848	21	4564
2026-01-18 11:54:18.04	216.12	11.95	-30.6	-32.7	12.1	3.23e-04	0	42	0	131072000	21	4578
2026-01-18 11:54:19.05	216.25	12.03	-30.5	-32.5	12.2	2.67e-04	0	42	0	133169152	21	4514
2026-01-18 11:54:20.05	216.37	12.10	-30.5	-32.4	12.3	2.23e-04	0	42	0	135266304	21	4487
2026-01-18 11:54:21.06	216.49	12.18	-30.7	-33.0	11.9	2.67e-04	0	42	0	136314880	21	4679
2026-01-18 11:54:22.06	216.62	12.25	-30.8	-33.4	11.6	3.94e-04	0	43	0	138412032	21	4846
2026-01-18 11:54:23.07	216.74	12.32	-30.5	-32.5	12.2	3.57e-04	0	43	0	140509184	21	4537
2026-01-18 11:54:24.07	216.87	12.40	-30.5	-32.3	12.4	1.84e-04	0	43	0	142606336	21	4448
2026-01-18 11:54:25.07	217.00	12.47	-30.2	-31.7	12.8	1.62e-04	0	42	0	144703488	21	4244
2026-01-18 11:54:26.07	217.12	12.55	-30.3	-31.9	12.6	7.40e-05	0	42	0	146800640	21	4320
2026-01-18 11:54:27.08	217.25	12.62	-30.5	-32.4	12.3	1.23e-04	0	43	0	147849216	21	4476
2026-01-18 11:54:28.09	217.38	12.69	-30.2	-31.6	12.8	1.03e-04	0	42	0	149946368	21	4226
2026-01-18 11:54:29.09	217.51	12.77	-30.2	-31.6	12.8	6.86e-05	0	43	0	152043520	21	4220
2026-01-18 11:54:30.09	217.64	12.84	-30.2	-31.6	12.8	5.95e-05	0	43	0	154140672	21	4230
2026-01-18 11:54:31.09	217.77	12.92	-30.2	-31.6	12.8	5.56e-05	0	42	0	155189248	21	4218
2026-01-18 11:54:32.10	217.90	12.99	-30.3	-31.8	12.7	4.95e-05	0	43	0	157286400	21	4296
2026-01-18 11:54:33.10	218.03	13.07	-30.4	-32.1	12.5	8.23e-05	0	43	0	159383552	21	4390
2026-01-18 11:54:34.10	218.16	13.14	-30.3	-31.7	12.8	6.40e-05	0	43	0	161480704	21	4261
2026-01-18 11:54:35.10	218.29	13.22	-30.2	-31.4	13.0	3.89e-05	0	43	0	163577856	21	4163
2026-01-18 11:54:36.10	218.43	13.29	-30.2	-31.7	12.8	4.34e-05	0	43	0	164626432	21	4233
2026-01-18 11:54:37.10	218.56	13.37	-30.0	-31.0	13.3	2.51e-05	0	43	0	166723584	21	4033
2026-01-18 11:54:38.11	218.70	13.44	-30.0	-31.0	13.3	2.05e-05	0	43	0	168820736	21	4035
2026-01-18 11:54:39.11	218.83	13.52	-30.1	-31.2	13.2	1.98e-05	0	43	0	170917888	21	4082
2026-01-18 11:54:40.11	218.97	13.59	-30.0	-31.0	13.3	1.83e-05	0	43	0	173015040	21	4039
2026-01-18 11:54:41.12	219.11	13.67	-30.0	-30.9	13.4	9.10e-06	0	43	0	174063616	21	4010
2026-01-18 11:54:42.12	219.24	13.75	-30.1	-31.2	13.2	2.44e-05	0	43	0	176160768	21	4084
2026-01-18 11:54:43.13	219.38	13.82	-30.3	-31.7	12.9	2.97e-05	0	43	0	178257920	21	4240
2026-01-18 11:54:44.13	219.52	13.90	-30.3	-31.7	12.9	3.35e-05	0	43	0	180355072	21	4230
2026-01-18 11:54:45.13	219.66	13.97	-30.4	-32.0	12.7	6.48e-05	0	43	0	182452224	21	4331
2026-01-18 11:54:46.14	219.80	14.05	-30.5	-32.5	12.3	1.11e-04	0	43	0	183500800	21	4486
2026-01-18 11:54:47.14	219.94	14.13	-30.6	-32.6	12.3	1.27e-04	0	42	0	185597952	21	4533
2026-01-18 11:54:48.15	220.08	14.20	-30.5	-32.4	12.4	1.14e-04	0	43	0	187695104	21	4466
2026-01-18 11:54:49.15	220.22	14.28	-30.6	-32.7	12.2	2.19e-04	0	43	0	189792256	21	4574
2026-01-18 11:54:50.15	220.37	14.35	-30.6	-32.7	12.2	2.33e-04	0	43	0	191889408	21	4574
2026-01-18 11:54:51.16	220.51	14.43	-30.5	-32.2	12.5	1.23e-04	0	43	0	192937984	21	4402
2026-01-18 11:54:52.15	220.65	14.51	-30.6	-32.7	12.3	1.89e-04	0	43	0	195035136	21	4556
2026-01-18 11:54:53.16	220.80	14.58	-30.7	-32.9	12.1	2.16e-04	0	43	0	197132288	21	4619
2026-01-18 11:54:54.17	220.95	14.66	-30.6	-32.6	12.3	1.76e-04	0	43	0	199229440	21	4528
2026-01-18 11:54:55.17	221.09	14.74	-30.6	-32.6	12.3	2.02e-04	0	42	0	200278016	21	4530
2026-01-18 11:54:56.18	221.24	14.82	-30.5	-32.2	12.6	1.31e-04	0	43	0	202375168	21	4388
2026-01-18 11:54:57.18	221.39	14.89	-30.5	-32.4	12.4	1.17e-04	0	43	0	204472320	21	4474
2026-01-18 11:54:58.19	221.54	14.97	-30.5	-32.3	12.5	1.21e-04	0	43	0	206569472	21	4438
2026-01-18 11:54:59.19	221.69	15.05	-30.4	-32.1	12.7	8.92e-05	0	43	0	208666624	21	4350
2026-01-18 11:55:00.18	221.84	15.12	-30.5	-32.2	12.6	4.88e-05	0	43	0	209715200	21	4403
2026-01-18 11:55:01.19	221.99	15.20	-30.6	-32.7	12.3	1.98e-04	0	43	0	211812352	21	4562
2026-01-18 11:55:02.19	222.14	15.28	-30.3	-31.8	12.8	7.70e-05	0	43	0	213909504	21	4273
2026-01-18 11:55:03.19	222.29	15.35	-30.1	-31.0	13.4	3.43e-05	0	43	0	216006656	21	4031
2026-01-18 11:55:04.19	222.45	15.43	-30.0	-30.8	13.6	9.90e-06	0	43	0	218103808	21	3965
2026-01-18 11:55:05.19	222.60	15.51	-29.9	-30.6	13.7	8.30e-06	0	43	0	219152384	21	3905
2026-01-18 11:55:06.19	222.75	15.59	-29.8	-30.4	13.8	3.80e-06	0	43	0	221249536	21	3861
2026-01-18 11:55:07.20	222.91	15.66	-29.8	-30.9	13.8	3.80e-06	0	43	0	223346688	20	4080
2026-01-18 11:55:08.20	223.07	15.74	-29.7	-30.5	14.1	3.80e-06	0	43	0	225443840	20	3965
2026-01-18 11:55:09.20	223.22	15.82	-29.7	-30.5	14.0	2.20e-06	0	43	0	227540992	20	3973
2026-01-18 11:55:10.20	223.38	15.90	-29.6	-30.4	14.2	7.00e-07	0	43	0	228589568	20	3932
2026-01-18 11:55:11.20	223.54	15.97	-29.7	-30.7	13.9	7.00e-07	0	43	0	230686720	20	4013
2026-01-18 11:55:12.21	223.70	16.05	-29.7	-30.4	14.1	3.00e-06	0	43	0	232783872	20	3943
2026-01-18 11:55:13.21	223.86	16.13	-29.8	-30.7	13.9	1.50e-06	0	43	0	234881024	20	4024
2026-01-18 11:55:14.21	224.02	16.21	-29.9	-31.2	13.7	8.30e-06	0	43	0	236978176	20	4151
2026-01-18 11:55:15.21	224.18	16.28	-29.9	-31.1	13.7	5.30e-06	0	43	0	238026752	20	4119
2026-01-18 11:55:16.21	224.34	16.36	-29.9	-31.0	13.8	3.80e-06	0	43	0	240123904	20	4098
2026-01-18 11:55:17.21	224.51	16.44	-29.9	-31.0	13.8	1.50e-06	0	43	0	242221056	20	4112
2026-01-18 11:55:18.22	224.67	16.52	-30.0	-31.3	13.6	1.06e-05	0	43	0	244318208	20	4203
2026-01-18 11:55:19.22	224.84	16.60	-30.0	-31.3	13.6	6.10e-06	0	43	0	245366784	20	4207
2026-01-18 11:55:20.23	225.01	16.67	-30.1	-31.5	13.5	9.10e-06	0	43	0	247463936	20	4248
2026-01-18 11:55:21.23	225.17	16.75	-30.1	-31.6	13.5	1.06e-05	0	43	0	249561088	20	4269
2026-01-18 11:55:22.23	225.34	16.83	-30.3	-32.1	13.1	2.82e-05	0	43	0	251658240	20	4424
2026-01-18 11:55:23.23	225.51	16.91	-30.1	-31.5	13.5	1.75e-05	0	43	0	253755392	20	4250
2026-01-18 11:55:24.23	225.68	16.98	-30.0	-31.3	13.6	1.22e-05	0	43	0	254803968	20	4172
2026-01-18 11:55:25.23	225.85	17.06	-30.0	-31.4	13.6	1.14e-05	0	43	0	256901120	20	4219
2026-01-18 11:55:26.24	226.02	17.14	-29.9	-31.0	13.9	3.80e-06	0	43	0	258998272	20	4091
2026-01-18 11:55:27.24	226.19	17.22	-30.0	-31.2	13.7	6.10e-06	0	43	0	261095424	20	4158
2026-01-18 11:55:28.24	226.36	17.30	-29.7	-30.5	14.1	3.00e-06	0	43	0	263192576	20	3965
2026-01-18 11:55:29.25	226.54	17.38	-29.7	-30.6	14.1	2.20e-06	0	43	0	264241152	20	3990
2026-01-18 11:55:30.25	226.71	17.45	-29.8	-30.8	14.0	4.50e-06	0	43	0	266338304	20	4033
2026-01-18 11:55:31.26	226.89	17.53	-29.7	-30.6	14.1	2.20e-06	0	43	0	268435456	20	3972
2026-01-18 11:55:32.26	227.07	17.61	-29.5	-30.1	14.4	7.00e-07	0	43	0	270532608	20	3846
2026-01-18 11:55:33.27	227.24	17.69	-29.4	-29.9	14.5	7.00e-07	0	43	0	272629760	20	3777
2026-01-18 11:55:34.27	227.42	17.77	-29.6	-30.2	14.3	7.00e-07	0	43	0	273678336	20	3879
2026-01-18 11:55:35.27	227.60	17.84	-29.5	-29.9	14.6	0.00e+00	0	43	0	275775488	20	3792
2026-01-18 11:55:36.28	227.78	17.92	-29.3	-29.6	14.7	1.50e-06	0	43	0	277872640	20	3717
2026-01-18 11:55:37.27	227.96	18.00	-29.3	-29.9	15.0	0.00e+00	0	43	0	279969792	19	3859
2026-01-18 11:55:38.28	228.14	18.08	-29.3	-29.9	14.9	0.00e+00	0	43	0	282066944	19	3878
2026-01-18 11:55:39.28	228.33	18.15	-29.1	-29.5	15.2	0.00e+00	0	43	0	283115520	19	3760
2026-01-18 11:55:40.29	228.51	18.23	-29.2	-29.8	15.0	0.00e+00	0	43	0	285212672	19	3849
2026-01-18 11:55:41.29	228.70	18.31	-29.3	-30.0	14.9	0.00e+00	0	43	0	287309824	19	3890
2026-01-18 11:55:42.30	228.88	18.39	-29.4	-30.2	14.8	0.00e+00	0	43	0	289406976	19	3939
2026-01-18 11:55:43.29	229.07	18.47	-29.4	-30.2	14.8	0.00e+00	0	43	0	291504128	19	3954
2026-01-18 11:55:44.29	229.25	18.54	-29.6	-30.7	14.5	0.00e+00	0	43	0	292552704	19	4088
2026-01-18 11:55:45.30	229.44	18.62	-29.6	-30.9	14.3	7.00e-07	0	43	0	294649856	19	4139
2026-01-18 11:55:46.31	229.63	18.70	-29.6	-30.7	14.5	7.00e-07	0	43	0	296747008	19	4089
2026-01-18 11:55:47.31	229.82	18.78	-29.7	-31.0	14.3	0.00e+00	0	43	0	298844160	19	4191
2026-01-18 11:55:48.31	230.01	18.85	-29.7	-30.9	14.4	2.20e-06	0	43	0	299892736	19	4138
2026-01-18 11:55:49.31	230.21	18.93	-29.7	-31.0	14.3	0.00e+00	0	43	0	301989888	19	4162
2026-01-18 11:55:50.32	230.40	19.01	-29.8	-31.2	14.2	3.80e-06	0	43	0	304087040	19	4224
2026-01-18 11:55:51.32	230.59	19.08	-29.8	-31.2	14.2	0.00e+00	0	43	0	306184192	19	4228
2026-01-18 11:55:52.32	230.79	19.16	-30.0	-31.2	13.9	1.50e-06	0	43	0	308281344	20	4146
2026-01-18 11:55:53.32	230.98	19.24	-30.1	-31.7	13.5	6.80e-06	0	43	0	309329920	20	4302
2026-01-18 11:55:54.32	231.18	19.32	-30.1	-31.6	13.6	9.90e-06	0	43	0	311427072	20	4265
2026-01-18 11:55:55.32	231.38	19.39	-29.9	-30.9	14.1	7.00e-07	0	43	0	313524224	20	4058
2026-01-18 11:55:56.33	231.58	19.47	-30.0	-31.2	13.9	7.00e-07	0	43	0	315621376	20	4140
2026-01-18 11:55:57.33	231.78	19.55	-29.8	-30.9	14.0	3.80e-06	0	43	0	317718528	20	4047
2026-01-18 11:55:58.34	231.98	19.62	-29.7	-30.5	14.3	7.00e-07	0	43	0	318767104	20	3932
2026-01-18 11:55:59.34	232.18	19.70	-29.7	-30.4	14.4	0.00e+00	0	43	0	320864256	20	3910
2026-01-18 11:56:00.34	232.38	19.77	-29.7	-30.4	14.4	0.00e+00	0	43	0	322961408	20	3918
2026-01-18 11:56:01.35	232.59	19.85	-29.6	-30.1	14.5	2.20e-06	0	43	0	325058560	20	3844
2026-01-18 11:56:02.35	232.79	19.93	-29.6	-30.3	14.4	0.00e+00	0	43	0	327155712	20	3900
2026-01-18 11:56:03.35	233.00	20.00	-29.5	-30.0	14.6	0.00e+00	0	43	0	328204288	20	3794
2026-01-18 11:56:04.36	233.20	20.08	-29.3	-29.5	14.9	7.00e-07	0	43	0	330301440	20	3664
2026-01-18 11:56:05.36	233.41	20.15	-29.3	-29.5	14.9	0.00e+00	0	43	0	332398592	20	3670
2026-01-18 11:56:06.37	233.62	20.23	-29.4	-30.1	15.0	0.00e+00	0	43	0	334495744	19	3899
2026-01-18 11:56:07.37	233.83	20.31	-29.3	-29.9	15.0	7.00e-07	0	43	0	336592896	19	3860
2026-01-18 11:56:08.38	234.04	20.38	-29.1	-29.4	15.3	0.00e+00	0	43	0	337641472	19	3722
2026-01-18 11:56:09.38	234.25	20.46	-29.0	-29.1	15.6	0.00e+00	0	43	0	339738624	19	3645
2026-01-18 11:56:10.38	234.47	20.53	-29.0	-29.1	15.6	0.00e+00	0	43	0	341835776	19	3648
2026-01-18 11:56:11.38	234.68	20.61	-29.0	-29.1	15.5	0.00e+00	0	43	0	343932928	19	3659
2026-01-18 11:56:12.38	234.89	20.68	-29.0	-29.1	15.5	0.00e+00	0	43	0	346030080	19	3651
2026-01-18 11:56:13.38	235.11	20.75	-28.9	-29.0	15.6	7.00e-07	0	43	0	347078656	19	3626
2026-01-18 11:56:14.39	235.33	20.83	-28.9	-28.8	15.7	0.00e+00	0	43	0	349175808	19	3574
2026-01-18 11:56:15.39	235.54	20.90	-28.8	-29.1	15.9	0.00e+00	0	43	0	351272960	18	3726
2026-01-18 11:56:16.39	235.76	20.98	-28.9	-29.4	15.7	0.00e+00	0	43	0	353370112	18	3805
2026-01-18 11:56:17.38	235.98	21.05	-28.9	-29.3	15.7	0.00e+00	0	43	0	355467264	18	3776
2026-01-18 11:56:18.38	236.20	21.12	-28.9	-29.5	15.6	0.00e+00	0	43	0	356515840	18	3845
2026-01-18 11:56:19.39	236.42	21.20	-28.9	-29.3	15.7	7.00e-07	0	43	0	358612992	18	3790
2026-01-18 11:56:20.39	236.64	21.27	-29.0	-29.6	15.6	0.00e+00	0	43	0	360710144	18	3865
2026-01-18 11:56:21.39	236.87	21.34	-29.0	-29.6	15.6	0.00e+00	0	43	0	362807296	18	3873
2026-01-18 11:56:22.40	237.09	21.41	-29.0	-29.7	15.5	0.00e+00	0	43	0	363855872	18	3886
2026-01-18 11:56:23.40	237.32	21.49	-28.9	-29.4	15.7	3.80e-06	0	43	0	365953024	18	3824
2026-01-18 11:56:24.40	237.54	21.56	-29.1	-29.9	15.4	0.00e+00	0	43	0	368050176	18	3938
2026-01-18 11:56:25.40	237.77	21.63	-29.1	-29.8	15.5	0.00e+00	0	43	0	370147328	18	3918
2026-01-18 11:56:26.40	238.00	21.70	-29.2	-30.0	15.3	3.80e-06	0	43	0	372244480	18	3977
2026-01-18 11:56:27.41	238.23	21.77	-29.2	-30.1	15.3	0.00e+00	0	43	0	373293056	18	3995
2026-01-18 11:56:28.41	238.46	21.84	-29.0	-29.6	15.6	0.00e+00	0	43	0	375390208	18	3859
2026-01-18 11:56:29.41	238.69	21.91	-28.9	-29.4	15.7	7.00e-07	0	43	0	377487360	18	3817
2026-01-18 11:56:30.41	238.93	21.98	-28.7	-28.9	16.0	0.00e+00	0	43	0	379584512	18	3692
2026-01-18 11:56:31.41	239.16	22.05	-28.8	-29.0	15.9	0.00e+00	0	43	0	381681664	18	3708
2026-01-18 11:56:32.41	239.39	22.12	-28.8	-29.0	16.0	0.00e+00	0	43	0	382730240	18	3714
2026-01-18 11:56:33.41	239.63	22.19	-28.9	-29.3	15.8	0.00e+00	0	43	0	384827392	18	3794
2026-01-18 11:56:34.41	239.87	22.26	-29.0	-29.7	15.6	0.00e+00	0	43	0	386924544	18	3893
2026-01-18 11:56:35.42	240.11	22.33	-29.3	-30.2	15.3	3.00e-06	0	43	0	389021696	18	4029
2026-01-18 11:56:36.42	240.34	22.40	-29.2	-30.2	15.3	0.00e+00	0	43	0	391118848	18	4025
2026-01-18 11:56:37.42	240.58	22.47	-29.2	-30.2	15.3	0.00e+00	0	43	0	392167424	18	4032
2026-01-18 11:56:38.43	240.83	22.54	-29.3	-30.3	15.1	7.00e-07	0	43	0	394264576	18	4059
2026-01-18 11:56:39.43	241.07	22.60	-29.2	-30.1	15.3	0.00e+00	0	43	0	396361728	18	3980
2026-01-18 11:56:40.44	241.31	22.67	-29.1	-29.8	15.5	0.00e+00	0	43	0	398458880	18	3908
2026-01-18 11:56:41.44	241.56	22.74	-29.3	-30.4	15.2	0.00e+00	0	43	0	400556032	18	4069
2026-01-18 11:56:42.44	241.80	22.80	-29.3	-30.4	15.2	0.00e+00	0	43	0	401604608	18	4071
2026-01-18 11:56:43.45	242.05	22.87	-29.4	-30.6	15.1	0.00e+00	0	43	0	403701760	18	4127
2026-01-18 11:56:44.45	242.30	22.94	-29.6	-30.5	14.8	2.20e-06	0	43	0	405798912	19	4001
2026-01-18 11:56:45.45	242.55	23.00	-29.6	-30.5	14.8	7.00e-07	0	43	0	407896064	19	4011
2026-01-18 11:56:46.45	242.79	23.07	-29.4	-30.1	15.0	0.00e+00	0	43	0	408944640	19	3906
2026-01-18 11:56:47.46	243.05	23.13	-29.2	-29.7	15.3	0.00e+00	0	43	0	411041792	19	3790
2026-01-18 11:56:48.47	243.30	23.20	-29.4	-30.0	15.1	0.00e+00	0	43	0	413138944	19	3879
2026-01-18 11:56:49.47	243.55	23.26	-29.7	-30.7	14.7	0.00e+00	0	43	0	415236096	19	4070
2026-01-18 11:56:50.48	243.81	23.32	-29.8	-31.2	14.4	0.00e+00	0	43	0	417333248	19	4203
2026-01-18 11:56:51.48	244.06	23.39	-29.9	-31.0	14.2	3.00e-06	0	43	0	419430400	20	4052
2026-01-18 11:56:52.49	244.32	23.45	-29.9	-30.8	14.3	7.00e-07	0	43	0	420478976	20	4020
2026-01-18 11:56:53.49	244.57	23.51	-29.7	-30.3	14.6	0.00e+00	0	43	0	422576128	20	3881
2026-01-18 11:56:54.49	244.83	23.57	-29.6	-30.1	14.7	1.50e-06	0	43	0	424673280	20	3815
2026-01-18 11:56:55.49	245.09	23.63	-29.5	-29.8	14.9	1.50e-06	0	43	0	426770432	20	3743
2026-01-18 11:56:56.50	245.35	23.70	-29.4	-29.6	15.0	0.00e+00	0	43	0	427819008	20	3688
2026-01-18 11:56:57.50	245.61	23.76	-29.7	-30.4	14.6	0.00e+00	0	43	0	429916160	20	3895
2026-01-18 11:56:58.51	245.87	23.82	-30.1	-31.4	13.9	1.50e-06	0	43	0	432013312	20	4166
2026-01-18 11:56:59.51	246.13	23.87	-30.3	-32.0	13.6	8.30e-06	0	43	0	434110464	20	4369
2026-01-18 11:57:00.51	246.40	23.93	-30.4	-31.6	13.4	1.60e-05	0	43	0	436207616	21	4155
2026-01-18 11:57:01.52	246.66	23.99	-30.4	-31.7	13.4	1.75e-05	0	43	0	437256192	21	4199
2026-01-18 11:57:02.52	246.93	24.05	-30.5	-32.0	13.1	1.37e-05	0	43	0	439353344	21	4282
2026-01-18 11:57:03.53	247.20	24.11	-30.8	-32.9	12.6	5.87e-05	0	43	0	441450496	21	4577
2026-01-18 11:57:04.53	247.46	24.16	-30.8	-32.9	12.6	1.22e-04	0	43	0	443547648	21	4587
2026-01-18 11:57:05.54	247.73	24.22	-31.0	-33.0	12.3	1.08e-04	0	43	0	445644800	22	4495
2026-01-18 11:57:06.53	248.00	24.28	-31.2	-33.5	11.9	3.07e-04	0	43	0	446693376	22	4675
2026-01-18 11:57:07.54	248.27	24.33	-31.0	-32.9	12.2	4.26e-04	0	43	0	448790528	22	4489
2026-01-18 11:57:08.55	248.54	24.39	-30.6	-31.7	13.2	5.34e-05	0	43	0	450887680	22	4085
2026-01-18 11:57:09.55	248.81	24.44	-30.2	-31.2	13.7	6.10e-06	0	43	0	452984832	21	4039
2026-01-18 11:57:10.55	249.09	24.50	-30.4	-31.6	13.5	8.30e-06	0	43	0	455081984	21	4139
2026-01-18 11:57:11.55	249.36	24.55	-30.7	-32.5	12.9	2.59e-05	0	43	0	456130560	21	4438
2026-01-18 11:57:12.55	249.63	24.60	-30.8	-32.9	12.6	6.48e-05	0	43	0	458227712	21	4563
2026-01-18 11:57:13.55	249.91	24.65	-31.2	-33.4	12.0	2.70e-04	0	43	0	460324864	22	4636
2026-01-18 11:57:14.55	250.18	24.70	-31.4	-34.2	11.4	8.73e-04	0	43	0	462422016	22	4948
2026-01-18 11:57:15.54	250.46	24.75	-31.7	-34.4	10.9	1.23e-03	0	43	0	464519168	23	4937
2026-01-18 11:57:16.55	250.74	24.80	-31.8	-34.7	10.7	2.52e-03	0	43	0	465567744	23	5055
2026-01-18 11:57:17.55	251.02	24.85	-31.7	-34.6	10.7	2.50e-03	0	43	0	467664896	23	5020
2026-01-18 11:57:18.55	251.29	24.90	-31.5	-34.0	11.2	3.56e-03	0	43	0	469762048	23	4791
2026-01-18 11:57:19.55	251.57	24.95	-31.2	-33.0	11.9	9.03e-04	0	43	0	471859200	23	4412
2026-01-18 11:57:20.55	251.86	25.00	-30.8	-31.7	12.8	1.20e-04	0	43	0	472907776	23	4011
2026-01-18 11:57:21.56	252.14	25.05	-30.5	-31.5	13.3	2.67e-05	0	43	0	475004928	22	4037
2026-01-18 11:57:22.55	252.42	25.09	-30.6	-31.8	13.1	2.97e-05	0	43	0	477102080	22	4121
2026-01-18 11:57:23.56	252.70	25.14	-31.0	-33.0	12.3	7.55e-05	0	43	0	479199232	22	4484
2026-01-18 11:57:24.56	252.99	25.18	-31.5	-33.9	11.3	6.00e-04	0	43	0	481296384	23	4752
2026-01-18 11:57:25.56	253.27	25.23	-31.8	-34.7	10.7	1.83e-03	0	43	0	482344960	23	5054
2026-01-18 11:57:26.56	253.56	25.27	-32.0	-35.1	10.2	4.80e-03	0	43	0	484442112	24	5105
2026-01-18 11:57:27.57	253.85	25.31	-32.0	-35.0	10.2	6.37e-03	0	43	0	486539264	24	5065
2026-01-18 11:57:28.57	254.13	25.36	-31.8	-34.4	10.6	4.48e-03	0	43	0	488636416	24	4830
2026-01-18 11:57:29.57	254.42	25.40	-31.7	-34.1	10.8	3.27e-03	0	43	0	490733568	24	4713
2026-01-18 11:57:30.57	254.71	25.44	-31.9	-34.5	10.6	2.94e-03	0	43	0	491782144	24	4877
2026-01-18 11:57:31.58	255.00	25.48	-31.9	-34.7	10.4	6.05e-03	0	43	0	493879296	24	4967
2026-01-18 11:57:32.58	255.29	25.52	-31.9	-34.7	10.3	4.64e-03	0	43	0	495976448	24	4971
2026-01-18 11:57:33.58	255.58	25.56	-31.8	-34.2	10.7	3.90e-03	0	43	0	498073600	24	4744
2026-01-18 11:57:34.58	255.87	25.60	-31.3	-32.7	11.8	5.85e-04	0	43	0	500170752	24	4226
2026-01-18 11:57:35.58	256.17	25.63	-31.1	-32.5	12.4	3.03e-04	0	43	0	501219328	23	4250
2026-01-18 11:57:36.59	256.46	25.67	-31.3	-33.1	12.0	2.20e-04	0	43	0	503316480	23	4445
2026-01-18 11:57:37.59	256.76	25.71	-31.4	-33.6	11.6	6.16e-04	0	43	0	505413632	23	4637
2026-01-18 11:57:38.60	257.05	25.74	-31.6	-34.1	11.2	1.22e-03	0	43	0	507510784	23	4799
2026-01-18 11:57:39.60	257.35	25.78	-31.7	-34.3	11.1	1.70e-03	0	43	0	509607936	23	4884
2026-01-18 11:57:40.60	257.64	25.81	-31.5	-33.8	11.4	1.33e-03	0	43	0	510656512	23	4681
2026-01-18 11:57:41.61	257.94	25.84	-31.4	-33.4	11.7	6.39e-04	0	43	0	512753664	23	4559
2026-01-18 11:57:42.62	258.24	25.88	-31.3	-33.1	12.0	3.85e-04	0	43	0	514850816	23	4425
2026-01-18 11:57:43.62	258.54	25.91	-31.5	-33.9	11.4	7.46e-04	0	43	0	516947968	23	4713
2026-01-18 11:57:44.62	258.83	25.94	-31.8	-34.7	10.8	2.59e-03	0	43	0	519045120	23	5023
2026-01-18 11:57:45.62	259.13	25.97	-32.0	-34.8	10.3	5.12e-03	0	43	0	520093696	24	5004
2026-01-18 11:57:46.62	259.43	26.00	-31.8	-34.3	10.7	5.79e-03	0	43	0	522190848	24	4779
2026-01-18 11:57:47.63	259.73	26.03	-31.5	-33.4	11.4	1.44e-03	0	43	0	524288000	24	4456
2026-01-18 11:57:48.63	260.03	26.05	-31.3	-32.6	11.9	6.93e-04	0	43	0	526385152	24	4198
2026-01-18 11:57:49.63	260.33	26.08	-31.4	-33.3	11.8	4.75e-04	0	43	0	527433728	23	4526
2026-01-18 11:57:50.63	260.63	26.11	-31.3	-33.0	12.0	4.42e-04	0	43	0	529530880	23	4414
2026-01-18 11:57:51.63	260.94	26.13	-31.2	-32.7	12.2	2.00e-04	0	43	0	531628032	23	4316
2026-01-18 11:57:52.64	261.24	26.16	-31.1	-32.5	12.4	2.61e-04	0	43	0	533725184	23	4221
2026-01-18 11:57:53.64	261.54	26.18	-31.2	-32.9	12.1	1.58e-04	0	43	0	535822336	23	4359
2026-01-18 11:57:54.64	261.84	26.20	-31.3	-33.1	12.0	3.09e-04	0	43	0	536870912	23	4445
2026-01-18 11:57:55.65	262.15	26.23	-31.3	-33.2	11.9	4.65e-04	0	43	0	538968064	23	4476
2026-01-18 11:57:56.64	262.45	26.25	-31.5	-33.7	11.5	6.06e-04	0	43	0	541065216	23	4639
2026-01-18 11:57:57.65	262.76	26.27	-31.3	-33.1	11.9	4.21e-04	0	43	0	543162368	23	4436
2026-01-18 11:57:58.66	263.06	26.29	-31.2	-33.0	12.0	4.45e-04	0	43	0	545259520	23	4395
2026-01-18 11:57:59.66	263.37	26.30	-31.2	-32.8	12.2	2.91e-04	0	43	0	546308096	23	4343
2026-01-18 11:58:00.67	263.68	26.32	-31.2	-32.9	12.1	2.89e-04	0	43	0	548405248	23	4369
2026-01-18 11:58:01.67	263.98	26.34	-31.2	-32.9	12.1	2.29e-04	0	43	0	550502400	23	4367
2026-01-18 11:58:02.67	264.29	26.36	-31.1	-32.5	12.4	1.60e-04	0	43	0	552599552	23	4245
2026-01-18 11:58:03.67	264.59	26.37	-30.8	-31.8	12.9	1.33e-04	0	43	0	554696704	23	4013
2026-01-18 11:58:04.67	264.90	26.39	-30.8	-32.3	13.0	4.57e-05	0	43	0	555745280	22	4252
2026-01-18 11:58:05.67	265.20	26.40	-31.1	-32.9	12.5	8.92e-05	0	43	0	557842432	22	4456
2026-01-18 11:58:06.67	265.51	26.41	-31.3	-33.6	12.0	2.61e-04	0	43	0	559939584	22	4691
2026-01-18 11:58:07.67	265.82	26.42	-31.5	-33.6	11.6	5.77e-04	0	43	0	562036736	23	4602
2026-01-18 11:58:08.67	266.12	26.43	-31.4	-33.5	11.7	5.09e-04	0	43	0	563085312	23	4561
2026-01-18 11:58:09.68	266.43	26.44	-31.1	-32.5	12.3	3.05e-04	0	43	0	565182464	23	4249
2026-01-18 11:58:10.68	266.74	26.45	-31.0	-32.3	12.5	1.14e-04	0	43	0	567279616	23	4177
2026-01-18 11:58:11.68	267.05	26.46	-31.1	-32.5	12.4	1.46e-04	0	43	0	569376768	23	4230
2026-01-18 11:58:12.69	267.36	26.47	-31.2	-32.8	12.1	2.13e-04	0	43	0	571473920	23	4347
2026-01-18 11:58:13.69	267.67	26.48	-31.4	-33.3	11.8	2.14e-04	0	43	0	572522496	23	4507
2026-01-18 11:58:14.70	267.98	26.48	-31.4	-33.5	11.7	4.90e-04	0	43	0	574619648	23	4587
2026-01-18 11:58:15.70	268.28	26.49	-31.5	-33.6	11.6	5.99e-04	0	43	0	576716800	23	4604
2026-01-18 11:58:16.71	268.60	26.49	-31.4	-33.5	11.7	9.78e-04	0	43	0	578813952	23	4567
2026-01-18 11:58:17.71	268.90	26.49	-31.2	-32.9	12.2	4.00e-04	0	43	0	580911104	23	4359
2026-01-18 11:58:18.72	269.21	26.50	-31.2	-33.0	12.0	2.94e-04	0	43	0	581959680	23	4398
2026-01-18 11:58:19.72	269.52	26.50	-31.3	-33.1	12.0	3.29e-04	0	43	0	584056832	23	4449
2026-01-18 11:58:20.73	269.83	26.50	-31.6	-34.2	11.2	6.87e-04	0	43	0	586153984	23	4817
2026-01-18 11:58:21.73	270.14	26.50	-31.5	-33.9	11.5	9.76e-04	0	43	0	588251136	23	4711
2026-01-18 11:58:22.73	270.45	26.50	-31.0	-32.3	12.6	2.55e-04	0	43	0	590348288	23	4165
2026-01-18 11:58:23.73	270.76	26.49	-30.6	-31.6	13.3	5.41e-05	0	43	0	591396864	22	4057
2026-01-18 11:58:24.74	271.07	26.49	-30.3	-31.0	13.7	3.80e-06	0	43	0	593494016	22	3863
2026-01-18 11:58:25.74	271.38	26.49	-30.3	-31.4	13.8	2.20e-06	0	43	0	595591168	21	4076
2026-01-18 11:58:26.74	271.68	26.48	-30.5	-31.9	13.5	9.10e-06	0	43	0	597688320	21	4225
2026-01-18 11:58:27.73	271.99	26.48	-30.7	-32.5	13.1	2.89e-05	0	43	0	599785472	21	4408
2026-01-18 11:58:28.74	272.30	26.47	-30.8	-32.8	12.8	3.89e-05	0	43	0	600834048	21	4517
2026-01-18 11:58:29.74	272.61	26.46	-30.6	-32.1	13.3	3.81e-05	0	43	0	602931200	21	4290
2026-01-18 11:58:30.74	272.91	26.46	-30.4	-31.5	13.7	1.29e-05	0	43	0	605028352	21	4109
2026-01-18 11:58:31.75	273.22	26.45	-30.6	-32.0	13.3	3.80e-06	0	43	0	607125504	21	4262
2026-01-18 11:58:32.75	273.53	26.44	-30.5	-32.0	13.4	1.52e-05	0	43	0	609222656	21	4247
2026-01-18 11:58:33.75	273.84	26.43	-30.7	-32.5	13.0	1.90e-05	0	43	0	610271232	21	4418
2026-01-18 11:58:34.76	274.15	26.41	-30.7	-32.5	13.1	4.19e-05	0	43	0	612368384	21	4417
2026-01-18 11:58:35.77	274.46	26.40	-30.8	-32.6	12.9	3.20e-05	0	43	0	614465536	21	4462
2026-01-18 11:58:36.77	274.76	26.39	-30.9	-33.0	12.7	5.41e-05	0	43	0	616562688	21	4572
2026-01-18 11:58:37.78	275.07	26.37	-30.9	-32.9	12.7	7.70e-05	0	43	0	618659840	21	4556
2026-01-18 11:58:38.78	275.38	26.36	-30.9	-33.1	12.6	8.92e-05	0	43	0	619708416	21	4629
2026-01-18 11:58:39.79	275.68	26.34	-31.2	-33.3	12.2	1.45e-04	0	43	0	621805568	22	4590
2026-01-18 11:58:40.79	275.99	26.33	-31.3	-33.7	11.9	3.13e-04	0	43	0	623902720	22	4748
2026-01-18 11:58:41.80	276.30	26.31	-31.4	-33.8	11.8	4.16e-04	0	43	0	625999872	22	4781
2026-01-18 11:58:42.80	276.60	26.29	-31.3	-33.7	11.9	4.46e-04	0	43	0	628097024	22	4731
2026-01-18 11:58:43.80	276.90	26.27	-31.4	-33.9	11.8	5.22e-04	0	43	0	629145600	22	4787
2026-01-18 11:58:44.80	277.21	26.25	-31.1	-33.1	12.4	2.24e-04	0	43	0	631242752	22	4514
2026-01-18 11:58:45.80	277.51	26.23	-30.6	-31.7	13.3	4.65e-05	0	43	0	633339904	22	4065
2026-01-18 11:58:46.81	277.81	26.21	-30.2	-31.0	14.0	4.50e-06	0	43	0	635437056	21	3963
2026-01-18 11:58:47.80	278.11	26.19	-29.9	-30.4	14.4	7.00e-07	0	43	0	636485632	21	3791
2026-01-18 11:58:48.81	278.42	26.16	-30.0	-30.6	14.3	7.00e-07	0	43	0	638582784	21	3852
2026-01-18 11:58:49.81	278.72	26.14	-30.2	-31.0	14.0	3.00e-06	0	43	0	640679936	21	3953
2026-01-18 11:58:50.82	279.02	26.11	-30.2	-31.1	14.0	1.50e-06	0	43	0	642777088	21	3976
2026-01-18 11:58:51.83	279.33	26.09	-30.2	-31.1	13.9	2.20e-06	0	43	0	644874240	21	3994
2026-01-18 11:58:52.84	279.63	26.06	-30.0	-30.6	14.2	2.20e-06	0	43	0	645922816	21	3849
2026-01-18 11:58:53.83	279.93	26.03	-30.1	-30.8	14.2	7.00e-07	0	43	0	648019968	21	3893
2026-01-18 11:58:54.84	280.23	26.01	-30.2	-30.9	14.1	7.00e-07	0	43	0	650117120	21	3944
2026-01-18 11:58:55.85	280.53	25.98	-30.3	-31.4	13.7	2.20e-06	0	43	0	652214272	21	4078
2026-01-18 11:58:56.85	280.83	25.95	-30.5	-31.9	13.4	8.30e-06	0	43	0	654311424	21	4229
2026-01-18 11:58:57.86	281.13	25.92	-30.4	-31.6	13.6	7.60e-06	0	43	0	655360000	21	4147
2026-01-18 11:58:58.86	281.42	25.88	-30.2	-31.0	14.0	2.20e-06	0	43	0	657457152	21	3955
2026-01-18 11:58:59.87	281.72	25.85	-30.0	-30.7	14.2	2.20e-06	0	43	0	659554304	21	3864
2026-01-18 11:59:00.87	282.02	25.82	-30.2	-31.0	14.0	1.50e-06	0	43	0	661651456	21	3957
2026-01-18 11:59:01.88	282.31	25.79	-29.9	-30.3	14.5	2.20e-06	0	43	0	663748608	21	3761
2026-01-18 11:59:02.88	282.61	25.75	-29.8	-30.5	14.6	0.00e+00	0	43	0	664797184	20	3901
2026-01-18 11:59:03.88	282.90	25.72	-29.9	-30.9	14.4	0.00e+00	0	43	0	666894336	20	4012
2026-01-18 11:59:04.89	283.20	25.68	-30.2	-31.6	14.0	1.50e-06	0	43	0	668991488	20	4224
2026-01-18 11:59:05.89	283.49	25.64	-30.5	-31.9	13.5	4.50e-06	0	43	0	671088640	21	4216
2026-01-18 11:59:06.90	283.78	25.61	-30.6	-32.0	13.4	1.22e-05	0	43	0	673185792	21	4259
2026-01-18 11:59:07.90	284.07	25.57	-30.8	-32.7	12.9	2.51e-05	0	43	0	674234368	21	4468
2026-01-18 11:59:08.90	284.37	25.53	-30.5	-31.9	13.4	1.60e-05	0	43	0	676331520	21	4229
2026-01-18 11:59:09.91	284.66	25.49	-30.3	-31.5	13.8	2.20e-06	0	43	0	678428672	21	4104
2026-01-18 11:59:10.91	284.95	25.45	-30.3	-31.2	13.9	4.50e-06	0	43	0	680525824	21	4019
2026-01-18 11:59:11.91	285.23	25.41	-30.4	-31.5	13.7	4.50e-06	0	43	0	682622976	21	4094
2026-01-18 11:59:12.91	285.52	25.37	-30.2	-31.1	14.0	6.10e-06	0	43	0	683671552	21	3980
2026-01-18 11:59:13.91	285.81	25.33	-30.1	-30.9	14.1	3.00e-06	0	43	0	685768704	21	3928
2026-01-18 11:59:14.91	286.09	25.28	-30.0	-30.6	14.3	2.20e-06	0	43	0	687865856	21	3843
2026-01-18 11:59:15.91	286.38	25.24	-30.0	-30.5	14.3	7.00e-07	0	43	0	689963008	21	3835
2026-01-18 11:59:16.92	286.66	25.20	-30.2	-31.1	14.0	1.50e-06	0	43	0	692060160	21	3981
2026-01-18 11:59:17.92	286.95	25.15	-29.8	-30.1	14.6	7.00e-07	0	43	0	693108736	21	3711
2026-01-18 11:59:18.93	287.23	25.11	-29.5	-29.7	15.0	0.00e+00	0	43	0	695205888	20	3709
2026-01-18 11:59:19.93	287.51	25.06	-29.3	-29.3	15.3	0.00e+00	0	43	0	697303040	20	3600
2026-01-18 11:59:20.94	287.80	25.01	-29.2	-29.6	15.5	0.00e+00	0	43	0	699400192	19	3748
2026-01-18 11:59:21.94	288.08	24.97	-29.5	-30.2	15.1	0.00e+00	0	43	0	701497344	19	3918
2026-01-18 11:59:22.95	288.36	24.92	-29.5	-30.2	15.2	0.00e+00	0	43	0	702545920	19	3906
2026-01-18 11:59:23.95	288.64	24.87	-29.3	-29.9	15.3	0.00e+00	0	43	0	704643072	19	3830
2026-01-18 11:59:24.96	288.92	24.82	-29.4	-30.0	15.3	0.00e+00	0	43	0	706740224	19	3857
2026-01-18 11:59:25.96	289.20	24.77	-29.5	-30.4	15.0	0.00e+00	0	43	0	708837376	19	3969
2026-01-18 11:59:26.96	289.47	24.72	-29.5	-30.2	15.1	0.00e+00	0	43	0	709885952	19	3914
2026-01-18 11:59:27.96	289.75	24.67	-29.4	-30.0	15.3	0.00e+00	0	43	0	711983104	19	3855
2026-01-18 11:59:28.96	290.02	24.62	-29.5	-30.2	15.1	0.00e+00	0	43	0	714080256	19	3930
2026-01-18 11:59:29.97	290.30	24.56	-29.4	-30.0	15.3	0.00e+00	0	43	0	716177408	19	3879
2026-01-18 11:59:30.96	290.57	24.51	-29.6	-30.5	15.0	0.00e+00	0	43	0	718274560	19	4006
2026-01-18 11:59:31.97	290.84	24.46	-29.1	-29.3	15.7	7.00e-07	0	43	0	719323136	19	3693
2026-01-18 11:59:32.97	291.11	24.40	-28.8	-28.5	16.1	0.00e+00	0	43	0	721420288	19	3498
2026-01-18 11:59:33.97	291.38	24.35	-28.6	-28.7	16.3	0.00e+00	0	43	0	723517440	18	3613
2026-01-18 11:59:34.98	291.65	24.30	-28.8	-29.0	16.2	0.00e+00	0	43	0	725614592	18	3705
2026-01-18 11:59:35.98	291.92	24.24	-28.6	-28.7	16.3	0.00e+00	0	43	0	727711744	18	3623
2026-01-18 11:59:36.98	292.18	24.18	-28.5	-28.5	16.4	0.00e+00	0	43	0	728760320	18	3568
2026-01-18 11:59:37.98	292.45	24.13	-28.6	-28.5	16.4	0.00e+00	0	43	0	730857472	18	3573
2026-01-18 11:59:38.99	292.72	24.07	-28.4	-28.1	16.6	0.00e+00	0	43	0	732954624	18	3483
2026-01-18 11:59:39.99	292.98	24.01	-28.5	-28.5	16.5	0.00e+00	0	43	0	735051776	18	3570
2026-01-18 11:59:40.99	293.24	23.96	-28.4	-28.1	16.6	0.00e+00	0	43	0	737148928	18	3473
2026-01-18 11:59:42.00	293.51	23.90	-28.6	-28.5	16.4	0.00e+00	0	43	0	738197504	18	3581
2026-01-18 11:59:43.01	293.77	23.84	-28.7	-28.8	16.3	0.00e+00	0	43	0	740294656	18	3643
2026-01-18 11:59:44.01	294.03	23.78	-28.9	-29.2	16.0	0.00e+00	0	43	0	742391808	18	3762
2026-01-18 11:59:45.01	294.29	23.72	-29.0	-29.5	15.9	0.00e+00	0	43	0	744488960	18	3824
2026-01-18 11:59:46.01	294.55	23.66	-29.1	-29.8	15.7	0.00e+00	0	43	0	746586112	18	3903
2026-01-18 11:59:47.01	294.81	23.60	-28.9	-29.4	15.9	0.00e+00	0	43	0	747634688	18	3793
2026-01-18 11:59:48.01	295.06	23.54	-28.8	-29.1	16.1	0.00e+00	0	43	0	749731840	18	3717
2026-01-18 11:59:49.02	295.32	23.47	-28.7	-28.8	16.3	0.00e+00	0	43	0	751828992	18	3650
2026-01-18 11:59:50.02	295.57	23.41	-28.9	-29.4	15.9	0.00e+00	0	43	0	753926144	18	3797
2026-01-18 11:59:51.03	295.83	23.35	-28.9	-29.4	15.9	0.00e+00	0	43	0	756023296	18	3798
2026-01-18 11:59:52.02	296.08	23.29	-29.1	-29.7	15.7	0.00e+00	0	43	0	757071872	18	3867
2026-01-18 11:59:53.02	296.33	23.22	-28.9	-29.3	15.9	0.00e+00	0	43	0	759169024	18	3786
2026-01-18 11:59:54.03	296.58	23.16	-28.9	-29.3	16.0	0.00e+00	0	44	0	761266176	18	3762
2026-01-18 11:59:55.03	296.83	23.10	-28.8	-29.1	16.0	0.00e+00	0	43	0	763363328	18	3728
2026-01-18 11:59:56.04	297.08	23.03	-28.9	-29.3	16.0	0.00e+00	0	43	0	765460480	18	3767
2026-01-18 11:59:57.04	297.33	22.97	-29.1	-29.7	15.7	0.00e+00	0	43	0	766509056	18	3885
2026-01-18 11:59:58.05	297.58	22.90	-29.3	-30.3	15.4	0.00e+00	0	43	0	768606208	18	4030
2026-01-18 11:59:59.05	297.82	22.83	-29.7	-30.7	14.9	0.00e+00	0	43	0	770703360	19	4043
2026-01-18 12:00:00.06	298.07	22.77	-29.5	-30.3	15.1	0.00e+00	0	43	0	772800512	19	3936
2026-01-18 12:00:01.06	298.31	22.70	-29.8	-31.0	14.6	0.00e+00	0	43	0	773849088	19	4148
2026-01-18 12:00:02.06	298.56	22.64	-29.6	-30.4	15.0	0.00e+00	0	43	0	775946240	19	3984
2026-01-18 12:00:03.07	298.80	22.57	-29.6	-30.6	14.8	0.00e+00	0	43	0	778043392	19	4040
2026-01-18 12:00:04.07	299.04	22.50	-30.0	-31.1	14.2	0.00e+00	0	43	0	780140544	20	4098
2026-01-18 12:00:05.07	299.28	22.43	-29.7	-30.2	14.7	0.00e+00	0	43	0	782237696	20	3835
2026-01-18 12:00:06.08	299.52	22.36	-29.8	-30.5	14.5	0.00e+00	0	43	0	783286272	20	3925
2026-01-18 12:00:07.08	299.75	22.30	-29.9	-30.9	14.3	7.00e-07	0	43	0	785383424	20	4025
2026-01-18 12:00:08.08	299.99	22.23	-30.2	-31.6	13.9	3.80e-06	0	43	0	787480576	20	4240
2026-01-18 12:00:09.08	300.23	22.16	-30.2	-31.7	13.8	1.50e-06	0	43	0	789577728	20	4264
2026-01-18 12:00:10.08	300.46	22.09	-30.2	-31.5	13.9	6.80e-06	0	43	0	791674880	20	4213
2026-01-18 12:00:11.08	300.69	22.02	-30.0	-31.0	14.2	0.00e+00	0	43	0	792723456	20	4064
2026-01-18 12:00:12.09	300.93	21.95	-29.6	-30.1	14.8	0.00e+00	0	43	0	794820608	20	3821
2026-01-18 12:00:13.10	301.16	21.88	-29.4	-29.5	15.2	0.00e+00	0	43	0	796917760	20	3640
2026-01-18 12:00:14.10	301.39	21.81	-29.3	-29.7	15.4	0.00e+00	0	43	0	799014912	19	3796
2026-01-18 12:00:15.11	301.62	21.74	-29.5	-30.3	15.1	0.00e+00	0	43	0	801112064	19	3938
2026-01-18 12:00:16.11	301.85	21.67	-29.7	-30.9	14.7	0.00e+00	0	44	0	802160640	19	4113
2026-01-18 12:00:17.11	302.07	21.60	-30.0	-31.2	14.1	7.00e-07	0	43	0	804257792	20	4131
2026-01-18 12:00:18.11	302.30	21.53	-30.2	-31.6	13.9	6.80e-06	0	43	0	806354944	20	4237
2026-01-18 12:00:19.11	302.52	21.45	-30.3	-31.9	13.7	8.30e-06	0	43	0	808452096	20	4331
2026-01-18 12:00:20.11	302.75	21.38	-30.1	-31.4	14.0	4.50e-06	0	43	0	810549248	20	4180
2026-01-18 12:00:21.11	302.97	21.31	-29.9	-30.9	14.3	3.00e-06	0	43	0	811597824	20	4035
2026-01-18 12:00:22.11	303.19	21.24	-29.6	-30.1	14.8	0.00e+00	0	43	0	813694976	20	3807
2026-01-18 12:00:23.11	303.41	21.17	-29.5	-29.8	15.0	0.00e+00	0	43	0	815792128	20	3724
2026-01-18 12:00:24.12	303.63	21.09	-29.6	-30.0	14.9	0.00e+00	0	43	0	817889280	20	3778
2026-01-18 12:00:25.12	303.85	21.02	-29.3	-29.8	15.3	0.00e+00	0	43	0	819986432	19	3809
2026-01-18 12:00:26.13	304.07	20.95	-29.6	-30.4	15.0	0.00e+00	0	43	0	821035008	19	3969
2026-01-18 12:00:27.13	304.29	20.87	-29.9	-31.2	14.5	0.00e+00	0	43	0	823132160	19	4210
2026-01-18 12:00:28.13	304.50	20.80	-30.0	-31.1	14.2	0.00e+00	0	43	0	825229312	20	4070
2026-01-18 12:00:29.14	304.72	20.73	-30.2	-31.6	13.9	7.00e-07	0	43	0	827326464	20	4220
2026-01-18 12:00:30.15	304.94	20.65	-30.3	-32.0	13.6	6.80e-06	0	43	0	828375040	20	4341
2026-01-18 12:00:31.14	305.15	20.58	-30.3	-32.0	13.6	6.80e-06	0	43	0	830472192	20	4362
2026-01-18 12:00:32.14	305.36	20.50	-30.5	-32.0	13.3	1.75e-05	0	43	0	832569344	21	4267
2026-01-18 12:00:33.15	305.57	20.43	-30.7	-32.5	13.0	2.82e-05	0	43	0	834666496	21	4415
2026-01-18 12:00:34.15	305.78	20.36	-30.8	-32.9	12.6	8.77e-05	0	43	0	836763648	21	4563
2026-01-18 12:00:35.15	305.99	20.28	-30.7	-32.5	12.9	6.10e-05	0	43	0	837812224	21	4423
2026-01-18 12:00:36.16	306.20	20.21	-30.6	-32.2	13.2	3.43e-05	0	43	0	839909376	21	4329
2026-01-18 12:00:37.16	306.40	20.13	-30.3	-31.5	13.6	9.90e-06	0	43	0	842006528	21	4110
2026-01-18 12:00:38.16	306.61	20.06	-30.1	-30.9	14.0	8.30e-06	0	43	0	844103680	21	3933
2026-01-18 12:00:39.16	306.81	19.98	-30.1	-30.8	14.0	3.00e-06	0	43	0	846200832	21	3919
2026-01-18 12:00:40.17	307.02	19.91	-30.0	-30.6	14.1	7.00e-07	0	43	0	847249408	21	3861
2026-01-18 12:00:41.17	307.22	19.83	-30.1	-30.9	13.9	3.80e-06	0	43	0	849346560	21	3957
2026-01-18 12:00:42.17	307.42	19.75	-30.5	-31.8	13.3	1.29e-05	0	43	0	851443712	21	4219
2026-01-18 12:00:43.18	307.63	19.68	-30.5	-31.9	13.3	9.90e-06	0	43	0	853540864	21	4237
2026-01-18 12:00:44.18	307.83	19.60	-30.9	-33.1	12.5	7.62e-05	0	43	0	855638016	21	4632
2026-01-18 12:00:45.18	308.02	19.53	-30.9	-33.0	12.6	1.08e-04	0	43	0	856686592	21	4595
2026-01-18 12:00:46.18	308.22	19.45	-31.1	-33.1	12.2	1.30e-04	0	43	0	858783744	22	4536
2026-01-18 12:00:47.17	308.42	19.38	-31.3	-33.6	11.8	4.18e-04	0	43	0	860880896	22	4731
2026-01-18 12:00:48.18	308.61	19.30	-30.7	-32.0	12.9	1.04e-04	0	43	0	862978048	22	4183
2026-01-18 12:00:49.18	308.81	19.22	-30.4	-31.1	13.5	2.59e-05	0	43	0	865075200	22	3921
2026-01-18 12:00:50.19	309.01	19.15	-30.1	-30.9	13.9	1.50e-06	0	43	0	866123776	21	3955
2026-01-18 12:00:51.18	309.20	19.07	-30.1	-31.0	13.9	3.00e-06	0	43	0	868220928	21	3958
2026-01-18 12:00:52.19	309.39	18.99	-30.2	-31.3	13.6	3.00e-06	0	43	0	870318080	21	4053
2026-01-18 12:00:53.19	309.58	18.92	-30.3	-31.3	13.7	6.10e-06	0	43	0	872415232	21	4062
2026-01-18 12:00:54.19	309.77	18.84	-30.3	-31.5	13.5	5.30e-06	0	43	0	873463808	21	4120
2026-01-18 12:00:55.20	309.96	18.76	-30.3	-31.5	13.5	6.10e-06	0	43	0	875560960	21	4127
2026-01-18 12:00:56.20	310.15	18.69	-30.7	-32.6	12.8	2.82e-05	0	43	0	877658112	21	4461
2026-01-18 12:00:57.20	310.34	18.61	-30.6	-32.2	13.1	3.89e-05	0	43	0	879755264	21	4326
2026-01-18 12:00:58.20	310.52	18.53	-30.6	-32.3	12.9	3.66e-05	0	43	0	881852416	21	4385
2026-01-18 12:00:59.21	310.71	18.46	-30.7	-32.7	12.7	7.09e-05	0	43	0	882900992	21	4496
2026-01-18 12:01:00.21	310.90	18.38	-30.3	-31.3	13.6	4.27e-05	0	43	0	884998144	21	4075
2026-01-18 12:01:01.21	311.08	18.30	-30.2	-31.3	13.6	1.06e-05	0	43	0	887095296	21	4061
2026-01-18 12:01:02.21	311.26	18.23	-30.5	-31.9	13.2	1.29e-05	0	43	0	889192448	21	4257
2026-01-18 12:01:03.22	311.45	18.15	-30.7	-32.6	12.7	3.73e-05	0	43	0	891289600	21	4485
2026-01-18 12:01:04.22	311.63	18.07	-30.9	-33.1	12.4	1.45e-04	0	43	0	892338176	21	4664
2026-01-18 12:01:05.22	311.81	17.99	-31.1	-33.3	12.0	4.10e-04	0	43	0	894435328	22	4621
2026-01-18 12:01:06.23	311.99	17.92	-31.1	-33.2	12.0	3.35e-04	0	43	0	896532480	22	4592
2026-01-18 12:01:07.23	312.17	17.84	-30.8	-32.4	12.5	1.39e-04	0	43	0	898629632	22	4317
2026-01-18 12:01:08.24	312.35	17.76	-30.4	-31.3	13.3	3.05e-05	0	43	0	900726784	22	3971
2026-01-18 12:01:09.25	312.52	17.68	-30.1	-30.8	13.9	6.80e-06	0	43	0	901775360	21	3932
2026-01-18 12:01:10.25	312.70	17.61	-29.9	-30.5	14.1	3.80e-06	0	43	0	903872512	21	3832
2026-01-18 12:01:11.25	312.87	17.53	-29.9	-30.5	14.1	1.50e-06	0	44	0	905969664	21	3833
2026-01-18 12:01:12.25	313.05	17.45	-29.9	-30.3	14.2	0.00e+00	0	43	0	908066816	21	3798
2026-01-18 12:01:13.25	313.22	17.37	-30.0	-30.8	13.9	1.50e-06	0	43	0	910163968	21	3917
2026-01-18 12:01:14.26	313.39	17.30	-30.2	-31.3	13.6	6.10e-06	0	43	0	911212544	21	4078
2026-01-18 12:01:15.26	313.57	17.22	-30.3	-31.6	13.4	9.90e-06	0	43	0	913309696	21	4146
2026-01-18 12:01:16.27	313.74	17.14	-30.2	-31.2	13.7	8.30e-06	0	43	0	915406848	21	4037
2026-01-18 12:01:17.26	313.91	17.07	-30.1	-31.1	13.8	1.22e-05	0	43	0	917504000	21	3998
2026-01-18 12:01:18.27	314.08	16.99	-30.1	-30.8	13.8	2.20e-06	0	43	0	918552576	21	3934
2026-01-18 12:01:19.27	314.24	16.91	-29.9	-30.5	14.1	3.00e-06	0	43	0	920649728	21	3832
2026-01-18 12:01:20.28	314.41	16.83	-29.8	-30.2	14.2	2.20e-06	0	43	0	922746880	21	3759
2026-01-18 12:01:21.28	314.58	16.76	-30.0	-30.6	14.0	1.50e-06	0	43	0	924844032	21	3868
2026-01-18 12:01:22.29	314.75	16.68	-30.2	-31.1	13.7	3.00e-06	0	43	0	926941184	21	4007
2026-01-18 12:01:23.29	314.91	16.60	-30.4	-31.7	13.3	9.90e-06	0	43	0	929038336	21	4195
2026-01-18 12:01:24.29	315.07	16.52	-30.5	-32.2	13.0	1.83e-05	0	43	0	930086912	21	4334
2026-01-18 12:01:25.29	315.24	16.45	-30.8	-32.9	12.5	9.15e-05	0	43	0	932184064	21	4573
2026-01-18 12:01:26.30	315.40	16.37	-30.8	-32.9	12.5	1.33e-04	0	43	0	934281216	21	4583
2026-01-18 12:01:27.30	315.56	16.29	-30.9	-33.2	12.3	1.57e-04	0	43	0	936378368	21	4694
2026-01-18 12:01:28.30	315.72	16.22	-30.7	-32.7	12.6	1.18e-04	0	43	0	937426944	21	4523
2026-01-18 12:01:29.30	315.88	16.14	-30.6	-32.4	12.8	3.89e-05	0	43	0	939524096	21	4400
2026-01-18 12:01:30.31	316.04	16.06	-30.5	-32.1	13.0	3.89e-05	0	43	0	941621248	21	4321
2026-01-18 12:01:31.31	316.20	15.98	-30.5	-32.0	13.1	2.59e-05	0	43	0	943718400	21	4273
2026-01-18 12:01:32.30	316.36	15.91	-30.4	-31.8	13.2	1.06e-05	0	43	0	945815552	21	4214
2026-01-18 12:01:33.30	316.51	15.83	-30.5	-32.1	13.0	4.65e-05	0	43	0	946864128	21	4321
2026-01-18 12:01:34.29	316.67	15.76	-30.4	-31.7	13.2	3.20e-05	0	43	0	948961280	21	4199
2026-01-18 12:01:35.30	316.82	15.68	-30.2	-31.3	13.5	2.05e-05	0	43	0	951058432	21	4078
2026-01-18 12:01:36.30	316.98	15.60	-30.3	-31.5	13.3	1.67e-05	0	43	0	953155584	21	4137
2026-01-18 12:01:37.31	317.13	15.53	-30.4	-31.7	13.2	1.75e-05	0	43	0	955252736	21	4205
2026-01-18 12:01:38.31	317.29	15.45	-30.4	-31.7	13.2	3.05e-05	0	43	0	956301312	21	4192
2026-01-18 12:01:39.32	317.44	15.37	-30.1	-30.9	13.7	9.90e-06	0	43	0	958398464	21	3971
2026-01-18 12:01:40.32	317.59	15.30	-30.0	-30.6	13.9	4.50e-06	0	43	0	960495616	21	3885
2026-01-18 12:01:41.33	317.74	15.22	-30.0	-30.8	13.9	3.80e-06	0	43	0	962592768	21	3924
2026-01-18 12:01:42.34	317.89	15.14	-30.0	-30.9	13.8	4.50e-06	0	43	0	964689920	21	3951
2026-01-18 12:01:43.34	318.04	15.07	-30.0	-30.7	13.9	3.80e-06	0	43	0	965738496	21	3903
2026-01-18 12:01:44.34	318.19	14.99	-30.1	-31.1	13.6	9.10e-06	0	43	0	967835648	21	4017
2026-01-18 12:01:45.35	318.34	14.91	-30.4	-31.9	13.1	1.60e-05	0	43	0	969932800	21	4259
2026-01-18 12:01:46.35	318.49	14.84	-30.7	-32.6	12.6	6.17e-05	0	43	0	972029952	21	4501
2026-01-18 12:01:47.35	318.63	14.76	-30.9	-33.1	12.3	1.22e-04	0	43	0	974127104	21	4656
2026-01-18 12:01:48.35	318.78	14.69	-31.2	-33.6	11.6	5.61e-04	0	43	0	975175680	22	4741
2026-01-18 12:01:49.36	318.92	14.61	-31.2	-33.6	11.6	5.05e-04	0	43	0	977272832	22	4741
2026-01-18 12:01:50.36	319.07	14.53	-31.4	-34.2	11.2	1.13e-03	0	43	0	979369984	22	4988
2026-01-18 12:01:51.37	319.21	14.46	-31.2	-33.7	11.5	1.08e-03	0	43	0	981467136	22	4799
2026-01-18 12:01:52.37	319.36	14.38	-31.1	-33.2	11.9	5.74e-04	0	43	0	983564288	22	4604
2026-01-18 12:01:53.38	319.50	14.31	-31.0	-32.9	12.1	3.97e-04	0	43	0	984612864	22	4511
2026-01-18 12:01:54.39	319.64	14.23	-30.8	-32.5	12.3	2.94e-04	0	43	0	986710016	22	4344
2026-01-18 12:01:55.39	319.78	14.15	-30.6	-31.8	12.8	1.27e-04	0	43	0	988807168	22	4152
2026-01-18 12:01:56.40	319.92	14.08	-30.6	-31.9	12.8	7.70e-05	0	43	0	990904320	22	4165
2026-01-18 12:01:57.40	320.06	14.00	-30.5	-31.6	12.9	4.80e-05	0	43	0	991952896	22	4086
2026-01-18 12:01:58.41	320.20	13.93	-30.5	-31.6	12.9	4.11e-05	0	43	0	994050048	22	4078
2026-01-18 12:01:59.41	320.34	13.85	-30.4	-31.3	13.1	2.51e-05	0	43	0	996147200	22	3986
2026-01-18 12:02:00.41	320.48	13.78	-30.3	-31.6	13.2	2.05e-05	0	43	0	998244352	21	4165
2026-01-18 12:02:01.40	320.61	13.70	-30.2	-31.2	13.4	1.44e-05	0	43	0	1000341504	21	4066
2026-01-18 12:02:02.40	320.75	13.63	-30.2	-31.1	13.5	1.22e-05	0	43	0	1001390080	21	4033
2026-01-18 12:02:03.40	320.88	13.55	-30.1	-30.9	13.6	9.10e-06	0	43	0	1003487232	21	3965
2026-01-18 12:02:04.40	321.02	13.48	-29.9	-30.4	14.0	6.10e-06	0	43	0	1005584384	21	3822
2026-01-18 12:02:05.41	321.15	13.40	-29.8	-30.6	14.1	0.00e+00	0	43	0	1007681536	20	3969
2026-01-18 12:02:06.41	321.28	13.33	-29.7	-30.4	14.3	3.00e-06	0	43	0	1009778688	20	3914
2026-01-18 12:02:07.42	321.42	13.26	-29.8	-30.6	14.1	4.50e-06	0	43	0	1010827264	20	3970
2026-01-18 12:02:08.43	321.55	13.18	-29.8	-30.7	14.1	1.50e-06	0	43	0	1012924416	20	4007
2026-01-18 12:02:09.43	321.68	13.11	-29.9	-30.9	14.0	2.20e-06	0	43	0	1015021568	20	4048
2026-01-18 12:02:10.44	321.81	13.03	-29.9	-31.1	13.8	9.10e-06	0	43	0	1017118720	20	4116
2026-01-18 12:02:11.44	321.94	12.96	-30.1	-31.4	13.6	7.60e-06	0	43	0	1019215872	20	4217
2026-01-18 12:02:12.44	322.07	12.88	-30.2	-31.9	13.3	9.90e-06	0	43	0	1020264448	20	4356
2026-01-18 12:02:13.44	322.20	12.81	-30.5	-32.5	12.9	4.73e-05	0	43	0	1022361600	20	4570
2026-01-18 12:02:14.44	322.33	12.74	-30.6	-32.4	12.6	6.40e-05	0	43	0	1024458752	21	4427
2026-01-18 12:02:15.44	322.46	12.66	-30.7	-32.6	12.4	1.09e-04	0	43	0	1026555904	21	4513
2026-01-18 12:02:16.45	322.58	12.59	-30.6	-32.5	12.6	1.48e-04	0	43	0	1028653056	21	4466
2026-01-18 12:02:17.45	322.71	12.52	-30.6	-32.6	12.5	9.15e-05	0	43	0	1029701632	21	4490
2026-01-18 12:02:18.45	322.84	12.44	-30.7	-32.7	12.5	1.56e-04	0	43	0	1031798784	21	4521
2026-01-18 12:02:19.46	322.96	12.37	-30.5	-32.2	12.7	8.16e-05	0	43	0	1033895936	21	4379
2026-01-18 12:02:20.46	323.09	12.30	-30.6	-32.4	12.6	6.40e-05	0	44	0	1035993088	21	4436
2026-01-18 12:02:21.47	323.21	12.22	-30.6	-32.5	12.5	8.08e-05	0	43	0	1037041664	21	4470
2026-01-18 12:02:22.47	323.33	12.15	-30.6	-32.5	12.5	1.02e-04	0	43	0	1039138816	21	4479
2026-01-18 12:02:23.47	323.46	12.08	-30.6	-32.4	12.6	9.99e-05	0	43	0	1041235968	21	4436
2026-01-18 12:02:24.48	323.58	12.00	-30.6	-32.4	12.6	1.29e-04	0	43	0	1043333120	21	4423
2026-01-18 12:02:25.48	323.70	11.93	-30.6	-32.5	12.5	1.08e-04	0	43	0	1045430272	21	4470
2026-01-18 12:02:26.49	323.82	11.86	-30.7	-32.7	12.3	1.50e-04	0	43	0	1047527424	21	4552
2026-01-18 12:02:27.49	323.94	11.79	-30.7	-32.6	12.4	1.47e-04	0	43	0	1048576000	21	4527
2026-01-18 12:02:28.49	324.06	11.71	-30.7	-32.7	12.4	2.08e-04	0	43	0	1050673152	21	4529
2026-01-18 12:02:29.49	324.18	11.64	-30.5	-32.2	12.6	1.32e-04	0	43	0	1052770304	21	4392
2026-01-18 12:02:30.49	324.30	11.57	-30.4	-32.0	12.8	5.72e-05	0	43	0	1054867456	21	4304
2026-01-18 12:02:31.49	324.42	11.50	-30.5	-32.2	12.7	5.87e-05	0	43	0	1055916032	21	4371
2026-01-18 12:02:32.49	324.54	11.43	-30.4	-32.0	12.8	5.56e-05	0	44	0	1058013184	21	4293
2026-01-18 12:02:33.48	324.65	11.36	-30.4	-32.0	12.8	3.73e-05	0	43	0	1060110336	21	4305
2026-01-18 12:02:34.49	324.77	11.28	-30.4	-32.0	12.8	5.95e-05	0	43	0	1062207488	21	4309
2026-01-18 12:02:35.49	324.89	11.21	-30.3	-31.8	12.9	3.50e-05	0	43	0	1064304640	21	4232
2026-01-18 12:02:36.49	325.00	11.14	-30.4	-31.9	12.8	7.17e-05	0	43	0	1065353216	21	4289
2026-01-18 12:02:37.49	325.12	11.07	-30.4	-31.9	12.9	5.64e-05	0	43	0	1067450368	21	4283
2026-01-18 12:02:38.48	325.23	11.00	-30.5	-32.2	12.7	5.26e-05	0	43	0	1069547520	21	4373
2026-01-18 12:02:39.49	325.34	10.93	-30.6	-32.3	12.5	1.33e-04	0	43	0	1071644672	21	4419
2026-01-18 12:02:40.50	325.46	10.86	-30.5	-32.1	12.7	1.04e-04	0	43	0	1073741824	21	4357
2026-01-18 12:02:41.50	325.57	10.79	-30.5	-32.2	12.5	6.10e-05	0	43	0	1074790400	21	4390
2026-01-18 12:02:42.50	325.68	10.71	-30.6	-32.6	12.4	1.44e-04	0	43	0	1076887552	21	4520
2026-01-18 12:02:43.51	325.79	10.64	-30.7	-32.8	12.3	1.59e-04	0	43	0	1078984704	21	4580
2026-01-18 12:02:44.51	325.91	10.57	-30.9	-33.3	11.9	2.75e-04	0	43	0	1081081856	21	4754
2026-01-18 12:02:45.52	326.02	10.50	-30.9	-33.5	11.8	4.08e-04	0	43	0	1083179008	21	4842
2026-01-18 12:02:46.52	326.13	10.43	-31.0	-33.1	11.7	6.10e-04	0	43	0	1084227584	22	4602
2026-01-18 12:02:47.52	326.24	10.36	-31.1	-33.4	11.5	8.48e-04	0	43	0	1086324736	22	4702
2026-01-18 12:02:48.52	326.35	10.29	-31.1	-33.6	11.3	8.48e-04	0	43	0	1088421888	22	4800
2026-01-18 12:02:49.52	326.45	10.22	-31.2	-33.9	11.1	1.68e-03	0	43	0	1090519040	22	4902
2026-01-18 12:02:50.52	326.56	10.15	-31.2	-33.7	11.2	1.51e-03	0	43	0	1091567616	22	4841
2026-01-18 12:02:51.53	326.67	10.08	-31.2	-33.9	11.1	1.64e-03	0	43	0	1093664768	22	4887
2026-01-18 12:02:52.53	326.78	10.01	-31.2	-33.8	11.1	1.75e-03	0	43	0	1095761920	22	4863
2026-01-18 12:02:53.53	326.88	9.94	-31.2	-34.0	11.0	1.90e-03	0	43	0	1097859072	22	4937
2026-01-18 12:02:54.54	326.99	9.87	-31.2	-33.8	11.1	1.70e-03	0	43	0	1099956224	22	4854
2026-01-18 12:02:55.54	327.10	9.80	-31.2	-33.8	11.1	2.10e-03	0	43	0	1101004800	22	4878
2026-01-18 12:02:56.55	327.20	9.73	-31.1	-33.4	11.4	1.28e-03	0	43	0	1103101952	22	4728
2026-01-18 12:02:57.55	327.31	9.67	-31.0	-33.4	11.4	1.26e-03	0	44	0	1105199104	22	4704
2026-01-18 12:02:58.56	327.41	9.60	-31.1	-33.6	11.3	8.80e-04	0	43	0	1107296256	22	4773
2026-01-18 12:02:59.57	327.52	9.53	-31.1	-33.5	11.3	8.52e-04	0	43	0	1109393408	22	4747
2026-01-18 12:03:00.57	327.62	9.46	-31.2	-33.8	11.0	1.36e-03	0	43	0	1110441984	22	4885
2026-01-18 12:03:01.57	327.72	9.39	-31.1	-33.7	11.1	1.42e-03	0	44	0	1112539136	22	4850
2026-01-18 12:03:02.57	327.83	9.32	-31.0	-33.4	11.3	1.08e-03	0	43	0	1114636288	22	4745
2026-01-18 12:03:03.57	327.93	9.25	-31.0	-33.2	11.4	9.18e-04	0	43	0	1116733440	22	4666
2026-01-18 12:03:04.58	328.03	9.18	-30.9	-33.0	11.6	8.08e-04	0	43	0	1118830592	22	4576
2026-01-18 12:03:05.58	328.13	9.12	-30.9	-33.1	11.5	9.70e-04	0	43	0	1119879168	22	4614
2026-01-18 12:03:06.58	328.23	9.05	-30.9	-33.0	11.6	7.69e-04	0	43	0	1121976320	22	4601
2026-01-18 12:03:07.59	328.33	8.98	-30.9	-33.1	11.5	7.80e-04	0	43	0	1124073472	22	4624
2026-01-18 12:03:08.59	328.43	8.91	-30.9	-33.1	11.5	1.19e-03	0	43	0	1126170624	22	4624
2026-01-18 12:03:09.59	328.53	8.84	-30.8	-32.7	11.8	5.89e-04	0	43	0	1128267776	22	4469
2026-01-18 12:03:10.60	328.63	8.78	-30.8	-32.7	11.8	5.44e-04	0	43	0	1129316352	22	4481
2026-01-18 12:03:11.60	328.73	8.71	-30.7	-32.5	11.9	5.02e-04	0	43	0	1131413504	22	4415
2026-01-18 12:03:12.60	328.83	8.64	-30.5	-31.9	12.3	3.35e-04	0	43	0	1133510656	22	4230
2026-01-18 12:03:13.61	328.93	8.57	-30.7	-32.3	12.0	3.13e-04	0	43	0	1135607808	22	4370
2026-01-18 12:03:14.61	329.02	8.51	-30.7	-32.3	12.0	3.75e-04	0	43	0	1137704960	22	4369
2026-01-18 12:03:15.61	329.12	8.44	-30.5	-31.9	12.3	2.13e-04	0	43	0	1138753536	22	4220
2026-01-18 12:03:16.62	329.22	8.37	-30.5	-31.9	12.3	1.91e-04	0	43	0	1140850688	22	4209
2026-01-18 12:03:17.61	329.31	8.31	-30.5	-31.9	12.3	2.13e-04	0	43	0	1142947840	22	4215
2026-01-18 12:03:18.61	329.41	8.24	-30.6	-32.1	12.1	1.71e-04	0	44	0	1145044992	22	4274
2026-01-18 12:03:19.61	329.50	8.17	-30.7	-32.4	11.9	2.73e-04	0	43	0	1146093568	22	4377
2026-01-18 12:03:20.62	329.60	8.11	-30.6	-32.3	12.0	3.78e-04	0	43	0	1148190720	22	4340
2026-01-18 12:03:21.61	329.69	8.04	-30.7	-32.6	11.7	5.34e-04	0	43	0	1150287872	22	4464
2026-01-18 12:03:22.62	329.79	7.97	-30.9	-33.0	11.5	8.64e-04	0	44	0	1152385024	22	4593
2026-01-18 12:03:23.62	329.88	7.91	-31.0	-33.3	11.2	9.51e-04	0	43	0	1154482176	22	4712
2026-01-18 12:03:24.62	329.97	7.84	-31.1	-33.9	10.9	2.20e-03	0	43	0	1155530752	22	4927
2026-01-18 12:03:25.61	330.06	7.78	-31.2	-34.0	10.7	2.66e-03	0	43	0	1157627904	22	4968
2026-01-18 12:03:26.62	330.16	7.71	-31.2	-34.2	10.5	2.45e-03	0	44	0	1159725056	22	5059
2026-01-18 12:03:27.62	330.25	7.64	-31.5	-35.0	9.9	7.01e-03	0	43	0	1161822208	22	5404
2026-01-18 12:03:28.62	330.34	7.58	-31.4	-34.8	10.1	6.85e-03	0	43	0	1163919360	22	5334
2026-01-18 12:03:29.62	330.43	7.51	-31.5	-35.1	9.8	7.54e-03	0	43	0	1164967936	22	5456
2026-01-18 12:03:30.63	330.52	7.45	-31.5	-34.8	9.6	1.20e-02	0	43	0	1167065088	23	5237
2026-01-18 12:03:31.63	330.61	7.38	-31.5	-34.7	9.7	9.55e-03	0	43	0	1169162240	23	5218
2026-01-18 12:03:32.64	330.70	7.32	-31.5	-34.6	9.7	1.23e-02	0	44	0	1171259392	23	5177
2026-01-18 12:03:33.64	330.79	7.25	-31.3	-34.2	10.0	9.18e-03	0	44	0	1173356544	23	4993
2026-01-18 12:03:34.65	330.88	7.19	-31.3	-34.2	10.1	8.81e-03	0	43	0	1174405120	23	4986
2026-01-18 12:03:35.65	330.97	7.12	-31.5	-34.6	9.8	8.80e-03	0	43	0	1176502272	23	5153
2026-01-18 12:03:36.65	331.06	7.06	-33.4	-45.5	3.8	9.59e-03	0	44	104	1178599424	26	14532
2026-01-18 12:03:37.65	331.15	6.99	-33.7	-46.2	3.8	1.49e+00	0	43	104	1178599424	27	15085
2026-01-18 12:03:38.65	331.23	6.93	-34.0	-46.7	3.8	1.49e+00	0	43	104	1178599424	27	15527
2026-01-18 12:03:39.65	331.32	6.86	-34.0	-46.3	3.8	1.49e+00	0	44	104	1178599424	28	14822

#Closed at: 2026-01-18 12:03:40
#Recorded file [1178 MB]: D:/data/31010_260118_145307.dat