passes_logs/2026/01/18/R2M6_AANII_01/R2M6_AANII_01__20260118_011726_FENGYUN_3D_rec.log

#Pass ID: 20260118_011726_FENGYUN 3D
#Satellite: FENGYUN 3D
#Configuration: FENGYUN 3D
#almurnet v.1.7.20240730
#Start time: 2026-01-18 01:17:25

#Version: 2.2.20231116
#Station: R2M6_AANII_01
#Location: 30.233357 lon 59.946436 lat
#TLE: 1 43010U 17072A   26017.25882587  .00000461  00000+0  23963-3 0  9992
#TLE: 2 43010  98.9934 349.1096 0002357 104.0487 256.0951 14.19697152423579

#Time	Az	El	Level	Level2	SNR	BER	BlckErr	Temp	State	Recorded	gain1	gain2
2026-01-18 01:17:25.31	26.00	6.94	-28.1	-30.3	5.8	7.67e-01	0	42	0	0	16	4610
2026-01-18 01:17:26.32	26.07	7.02	-29.8	-33.0	5.4	7.81e-01	0	42	104	0	19	5220
2026-01-18 01:17:27.32	26.13	7.08	-30.2	-33.5	9.5	1.34e-02	0	42	0	0	20	5317
2026-01-18 01:17:28.32	26.20	7.15	-30.4	-34.1	9.1	1.87e-02	0	41	0	5242880	20	5541
2026-01-18 01:17:29.32	26.27	7.22	-30.3	-33.8	9.4	1.12e-02	0	42	0	10485760	20	5417
2026-01-18 01:17:30.32	26.34	7.30	-30.4	-34.2	9.2	1.86e-02	0	42	0	16777216	20	5557
2026-01-18 01:17:31.32	26.41	7.37	-30.2	-33.7	9.5	9.89e-03	0	42	0	22020096	20	5377
2026-01-18 01:17:32.32	26.48	7.44	-30.5	-33.9	8.9	3.54e-02	0	42	0	28311552	21	5353
2026-01-18 01:17:33.33	26.55	7.51	-30.0	-33.0	10.0	9.64e-03	0	42	0	33554432	20	5093
2026-01-18 01:17:34.33	26.62	7.58	-30.2	-33.5	9.7	1.11e-02	0	42	0	38797312	20	5273
2026-01-18 01:17:35.33	26.69	7.65	-30.2	-33.6	9.6	1.04e-02	0	42	0	45088768	20	5318
2026-01-18 01:17:36.34	26.76	7.72	-30.4	-34.2	9.2	1.66e-02	0	42	0	50331648	20	5557
2026-01-18 01:17:37.34	26.83	7.79	-30.3	-34.0	9.3	1.72e-02	0	42	0	55574528	20	5460
2026-01-18 01:17:38.34	26.91	7.86	-30.1	-33.2	9.9	1.73e-02	0	42	0	61865984	20	5144
2026-01-18 01:17:39.34	26.98	7.94	-30.0	-33.3	10.3	4.75e-03	0	42	0	67108864	19	5307
2026-01-18 01:17:40.35	27.05	8.01	-29.7	-32.6	10.8	2.45e-03	0	42	0	73400320	19	5018
2026-01-18 01:17:41.35	27.12	8.08	-29.8	-32.8	10.6	4.93e-03	0	42	0	78643200	19	5107
2026-01-18 01:17:42.36	27.20	8.15	-29.5	-32.0	11.1	3.19e-03	0	42	0	83886080	19	4832
2026-01-18 01:17:43.36	27.27	8.23	-29.1	-31.6	11.8	3.34e-04	0	42	0	90177536	18	4775
2026-01-18 01:17:44.36	27.34	8.30	-28.4	-30.4	12.8	1.04e-03	0	42	0	95420416	17	4505
2026-01-18 01:17:45.37	27.42	8.37	-28.9	-31.5	12.1	1.96e-04	0	42	0	101711872	17	4880
2026-01-18 01:17:46.37	27.49	8.45	-28.9	-31.5	12.2	1.75e-04	0	42	0	106954752	17	4873
2026-01-18 01:17:47.38	27.57	8.52	-29.1	-31.5	11.9	1.24e-03	0	42	0	112197632	18	4768
2026-01-18 01:17:48.38	27.64	8.59	-28.7	-31.1	12.5	8.19e-04	0	42	0	118489088	17	4726
2026-01-18 01:17:49.38	27.72	8.67	-28.7	-31.0	12.5	3.51e-04	0	42	0	123731968	17	4695
2026-01-18 01:17:50.38	27.79	8.74	-28.9	-31.6	12.1	1.35e-04	0	42	0	128974848	17	4916
2026-01-18 01:17:51.39	27.87	8.82	-29.0	-31.3	12.0	8.95e-04	0	42	0	135266304	18	4688
2026-01-18 01:17:52.39	27.95	8.89	-29.1	-31.4	12.0	1.46e-04	0	42	0	140509184	18	4731
2026-01-18 01:17:53.40	28.03	8.96	-28.9	-30.9	12.3	6.79e-04	0	42	0	146800640	18	4569
2026-01-18 01:17:54.40	28.10	9.04	-28.7	-31.0	12.5	7.13e-04	0	43	0	152043520	17	4708
2026-01-18 01:17:55.41	28.18	9.11	-28.2	-29.8	13.2	1.48e-05	0	42	0	157286400	17	4342
2026-01-18 01:17:56.42	28.26	9.19	-27.9	-29.6	13.7	8.00e-06	0	42	0	163577856	16	4390
2026-01-18 01:17:57.42	28.34	9.26	-27.3	-28.9	14.3	0.00e+00	0	42	0	168820736	15	4293
2026-01-18 01:17:58.43	28.42	9.34	-27.1	-28.4	14.5	0.00e+00	0	43	0	175112192	15	4162
2026-01-18 01:17:59.42	28.50	9.42	-27.1	-28.4	14.6	1.10e-06	0	43	0	180355072	15	4164
2026-01-18 01:18:00.42	28.58	9.49	-26.8	-28.1	15.0	6.14e-04	0	42	0	185597952	14	4184
2026-01-18 01:18:01.42	28.66	9.57	-26.9	-28.4	14.9	1.10e-06	0	43	0	191889408	14	4255
2026-01-18 01:18:02.43	28.74	9.64	-26.7	-28.4	15.1	0.00e+00	0	42	0	197132288	13	4378
2026-01-18 01:18:03.43	28.82	9.72	-26.9	-28.8	14.9	0.00e+00	0	42	0	202375168	13	4501
2026-01-18 01:18:04.42	28.90	9.79	-26.8	-28.6	15.0	0.00e+00	0	43	0	208666624	13	4426
2026-01-18 01:18:05.43	28.98	9.87	-26.8	-28.6	15.0	6.68e-04	0	43	0	213909504	13	4437
2026-01-18 01:18:06.44	29.06	9.95	-27.1	-28.8	14.6	0.00e+00	0	43	0	220200960	14	4392
2026-01-18 01:18:07.44	29.14	10.03	-27.3	-29.2	14.4	1.10e-06	0	43	0	225443840	14	4485
2026-01-18 01:18:08.44	29.23	10.10	-27.0	-28.5	14.8	0.00e+00	0	43	0	230686720	14	4308
2026-01-18 01:18:09.45	29.31	10.18	-27.3	-29.2	14.4	0.00e+00	0	43	0	236978176	14	4482
2026-01-18 01:18:10.46	29.40	10.26	-27.3	-29.3	14.3	0.00e+00	0	43	0	242221056	14	4535
2026-01-18 01:18:11.46	29.48	10.34	-27.0	-28.5	14.8	0.00e+00	0	43	0	247463936	14	4304
2026-01-18 01:18:12.46	29.56	10.41	-26.9	-28.9	14.9	7.30e-04	0	43	0	253755392	13	4519
2026-01-18 01:18:13.46	29.65	10.49	-26.8	-28.7	15.0	0.00e+00	0	43	0	258998272	13	4453
2026-01-18 01:18:14.46	29.73	10.57	-26.9	-28.9	14.9	0.00e+00	0	43	0	264241152	13	4515
2026-01-18 01:18:15.46	29.82	10.65	-26.6	-28.1	15.4	0.00e+00	0	43	0	270532608	13	4284
2026-01-18 01:18:16.46	29.91	10.73	-26.5	-27.9	15.5	0.00e+00	0	43	0	275775488	13	4230
2026-01-18 01:18:17.46	29.99	10.81	-26.5	-28.0	15.4	0.00e+00	0	43	0	282066944	13	4270
2026-01-18 01:18:18.46	30.08	10.89	-26.6	-28.1	15.4	0.00e+00	0	43	0	287309824	13	4293
2026-01-18 01:18:19.46	30.17	10.96	-26.3	-27.5	15.7	0.00e+00	0	43	0	292552704	13	4125
2026-01-18 01:18:20.46	30.26	11.04	-26.4	-28.3	15.6	0.00e+00	0	43	0	298844160	12	4460
2026-01-18 01:18:21.47	30.34	11.12	-26.3	-28.0	15.7	0.00e+00	0	43	0	304087040	12	4379
2026-01-18 01:18:22.48	30.43	11.21	-26.4	-28.1	15.7	0.00e+00	0	43	0	310378496	12	4402
2026-01-18 01:18:23.48	30.52	11.29	-26.5	-27.8	15.5	0.00e+00	0	43	0	315621376	13	4222
2026-01-18 01:18:24.48	30.61	11.37	-26.4	-28.2	15.6	0.00e+00	0	43	0	320864256	12	4432
2026-01-18 01:18:25.48	30.70	11.45	-26.1	-27.5	16.0	0.00e+00	0	43	0	327155712	12	4244
2026-01-18 01:18:26.49	30.79	11.53	-26.3	-27.9	15.8	0.00e+00	0	43	0	332398592	12	4352
2026-01-18 01:18:27.49	30.89	11.61	-26.2	-27.8	15.9	0.00e+00	0	43	0	337641472	12	4314
2026-01-18 01:18:28.49	30.98	11.69	-26.4	-28.3	15.6	0.00e+00	0	43	0	343932928	12	4453
2026-01-18 01:18:29.49	31.07	11.77	-26.3	-28.1	15.7	0.00e+00	0	43	0	349175808	12	4394
2026-01-18 01:18:30.50	31.16	11.85	-26.3	-28.0	15.8	0.00e+00	0	43	0	355467264	12	4378
2026-01-18 01:18:31.50	31.26	11.93	-26.4	-28.2	15.7	0.00e+00	0	43	0	360710144	12	4438
2026-01-18 01:18:32.50	31.35	12.02	-26.5	-27.9	15.5	0.00e+00	0	43	0	365953024	13	4242
2026-01-18 01:18:33.49	31.44	12.10	-26.5	-27.9	15.6	0.00e+00	0	43	0	372244480	13	4235
2026-01-18 01:18:34.50	31.54	12.18	-26.4	-28.2	15.7	0.00e+00	0	43	0	377487360	12	4443
2026-01-18 01:18:35.50	31.63	12.26	-26.3	-27.9	15.9	0.00e+00	0	43	0	382730240	12	4357
2026-01-18 01:18:36.50	31.73	12.35	-26.4	-28.1	15.7	0.00e+00	0	43	0	389021696	12	4409
2026-01-18 01:18:37.50	31.83	12.43	-26.3	-27.6	15.8	0.00e+00	0	43	0	394264576	13	4148
2026-01-18 01:18:38.50	31.92	12.51	-26.3	-28.0	15.8	0.00e+00	0	43	0	399507456	12	4367
2026-01-18 01:18:39.50	32.02	12.60	-26.2	-27.7	16.0	0.00e+00	0	43	0	405798912	12	4289
2026-01-18 01:18:40.51	32.12	12.68	-26.2	-27.7	16.0	0.00e+00	0	43	0	411041792	12	4291
2026-01-18 01:18:41.51	32.22	12.76	-26.1	-27.6	16.1	0.00e+00	0	43	0	417333248	12	4257
2026-01-18 01:18:42.52	32.32	12.85	-26.3	-28.0	15.8	0.00e+00	0	43	0	422576128	12	4381
2026-01-18 01:18:43.52	32.42	12.93	-26.2	-27.7	16.0	0.00e+00	0	43	0	428867584	12	4281
2026-01-18 01:18:44.52	32.52	13.02	-26.1	-27.5	16.1	0.00e+00	0	43	0	434110464	12	4250
2026-01-18 01:18:45.53	32.62	13.10	-26.0	-27.4	16.2	0.00e+00	0	43	0	439353344	12	4201
2026-01-18 01:18:46.53	32.72	13.19	-25.9	-27.2	16.2	0.00e+00	0	43	0	445644800	12	4171
2026-01-18 01:18:47.53	32.82	13.27	-26.0	-27.4	16.3	0.00e+00	0	43	0	450887680	12	4204
2026-01-18 01:18:48.53	32.92	13.36	-25.9	-27.1	16.2	0.00e+00	0	43	0	456130560	12	4119
2026-01-18 01:18:49.54	33.02	13.44	-26.0	-27.4	16.1	0.00e+00	0	43	0	462422016	12	4209
2026-01-18 01:18:50.54	33.13	13.53	-25.9	-27.1	16.4	0.00e+00	0	43	0	467664896	12	4121
2026-01-18 01:18:51.55	33.23	13.62	-26.1	-27.4	16.2	0.00e+00	0	43	0	472907776	12	4221
2026-01-18 01:18:52.54	33.34	13.70	-26.0	-27.3	16.3	0.00e+00	0	43	0	479199232	12	4174
2026-01-18 01:18:53.55	33.44	13.79	-26.0	-27.3	16.3	0.00e+00	0	43	0	484442112	12	4179
2026-01-18 01:18:54.55	33.55	13.88	-26.0	-27.2	16.3	0.00e+00	0	43	0	490733568	12	4160
2026-01-18 01:18:55.55	33.65	13.96	-25.9	-27.2	16.4	0.00e+00	0	43	0	495976448	12	4156
2026-01-18 01:18:56.56	33.76	14.05	-25.9	-27.1	16.4	0.00e+00	0	43	0	501219328	12	4140
2026-01-18 01:18:57.56	33.87	14.14	-25.9	-27.2	16.4	0.00e+00	0	43	0	507510784	12	4147
2026-01-18 01:18:58.56	33.98	14.23	-25.9	-27.1	16.4	2.60e-04	0	43	0	512753664	12	4130
2026-01-18 01:18:59.56	34.09	14.31	-25.9	-27.6	16.5	0.00e+00	0	43	0	517996544	11	4363
2026-01-18 01:19:00.56	34.19	14.40	-26.0	-27.8	16.4	2.47e-04	0	43	0	524288000	11	4419
2026-01-18 01:19:01.57	34.31	14.49	-26.2	-27.8	16.1	0.00e+00	0	43	0	529530880	12	4309
2026-01-18 01:19:02.58	34.42	14.58	-26.2	-27.8	16.0	0.00e+00	0	43	0	535822336	12	4321
2026-01-18 01:19:03.57	34.53	14.67	-25.9	-27.1	16.5	0.00e+00	0	43	0	541065216	12	4127
2026-01-18 01:19:04.57	34.64	14.76	-25.8	-26.9	16.6	0.00e+00	0	43	0	546308096	12	4083
2026-01-18 01:19:05.57	34.75	14.85	-25.8	-26.9	16.6	0.00e+00	0	43	0	552599552	12	4076
2026-01-18 01:19:06.58	34.87	14.94	-25.9	-27.0	16.5	0.00e+00	0	44	0	557842432	12	4106
2026-01-18 01:19:07.58	34.98	15.03	-25.7	-26.7	16.7	1.99e-04	0	43	0	564133888	12	4020
2026-01-18 01:19:08.58	35.09	15.12	-25.8	-26.8	16.6	0.00e+00	0	43	0	569376768	12	4060
2026-01-18 01:19:09.58	35.21	15.21	-25.8	-26.8	16.6	1.77e-04	0	43	0	574619648	12	4051
2026-01-18 01:19:10.58	35.32	15.30	-25.6	-26.5	16.8	1.18e-04	0	43	0	580911104	12	3969
2026-01-18 01:19:11.58	35.44	15.39	-25.5	-26.2	17.0	0.00e+00	0	43	0	586153984	12	3907
2026-01-18 01:19:12.58	35.56	15.48	-25.6	-26.9	16.9	9.10e-06	0	43	0	591396864	11	4179
2026-01-18 01:19:13.58	35.67	15.57	-25.7	-27.0	16.9	0.00e+00	0	43	0	597688320	11	4222
2026-01-18 01:19:14.58	35.79	15.66	-25.6	-26.9	17.0	0.00e+00	0	43	0	602931200	11	4178
2026-01-18 01:19:15.59	35.91	15.75	-25.5	-26.8	17.0	0.00e+00	0	44	0	608174080	11	4159
2026-01-18 01:19:16.60	36.03	15.85	-25.6	-27.0	16.9	0.00e+00	0	44	0	614465536	11	4211
2026-01-18 01:19:17.60	36.15	15.94	-25.5	-26.7	17.1	0.00e+00	0	44	0	619708416	11	4138
2026-01-18 01:19:18.60	36.28	16.03	-25.8	-27.3	16.8	0.00e+00	0	43	0	625999872	11	4276
2026-01-18 01:19:19.60	36.40	16.12	-25.5	-26.7	17.1	0.00e+00	0	43	0	631242752	11	4134
2026-01-18 01:19:20.61	36.52	16.22	-25.4	-26.4	17.2	0.00e+00	0	43	0	636485632	11	4061
2026-01-18 01:19:21.61	36.65	16.31	-25.2	-26.1	17.4	1.17e-04	0	43	0	642777088	11	3992
2026-01-18 01:19:22.62	36.77	16.40	-25.2	-26.1	17.4	1.75e-04	0	43	0	648019968	11	3975
2026-01-18 01:19:23.63	36.90	16.50	-25.2	-26.0	17.5	0.00e+00	0	43	0	654311424	11	3951
2026-01-18 01:19:24.62	37.02	16.59	-25.2	-26.1	17.4	2.07e-04	0	43	0	659554304	11	3993
2026-01-18 01:19:25.62	37.15	16.68	-25.3	-26.3	17.3	2.01e-04	0	43	0	664797184	11	4026
2026-01-18 01:19:26.62	37.27	16.78	-25.3	-26.3	17.4	0.00e+00	0	43	0	671088640	11	4033
2026-01-18 01:19:27.62	37.40	16.87	-25.4	-26.4	17.3	0.00e+00	0	43	0	676331520	11	4061
2026-01-18 01:19:28.63	37.53	16.97	-25.3	-26.2	17.4	1.62e-04	0	43	0	681574400	11	4018
2026-01-18 01:19:29.64	37.66	17.06	-25.3	-26.2	17.4	0.00e+00	0	43	0	687865856	11	3997
2026-01-18 01:19:30.64	37.79	17.16	-25.4	-26.5	17.2	6.06e-05	0	43	0	693108736	11	4085
2026-01-18 01:19:31.63	37.92	17.25	-25.5	-26.8	17.1	4.34e-05	0	43	0	699400192	11	4149
2026-01-18 01:19:32.64	38.06	17.35	-25.5	-26.7	17.1	0.00e+00	0	44	0	704643072	11	4124
2026-01-18 01:19:33.64	38.19	17.45	-25.5	-26.6	17.2	1.11e-04	0	44	0	709885952	11	4104
2026-01-18 01:19:34.64	38.32	17.54	-25.5	-26.7	17.1	0.00e+00	0	43	0	716177408	11	4125
2026-01-18 01:19:35.64	38.46	17.64	-25.6	-26.8	17.1	0.00e+00	0	44	0	721420288	11	4163
2026-01-18 01:19:36.65	38.59	17.73	-25.6	-27.0	17.0	0.00e+00	0	43	0	726663168	11	4201
2026-01-18 01:19:37.66	38.73	17.83	-25.5	-26.6	17.2	1.62e-04	0	43	0	732954624	11	4105
2026-01-18 01:19:38.65	38.87	17.93	-25.3	-26.3	17.4	0.00e+00	0	44	0	738197504	11	4040
2026-01-18 01:19:39.66	39.01	18.03	-25.3	-26.3	17.4	0.00e+00	0	43	0	743440384	11	4028
2026-01-18 01:19:40.65	39.14	18.12	-25.4	-26.5	17.3	1.73e-04	0	44	0	749731840	11	4090
2026-01-18 01:19:41.65	39.28	18.22	-25.3	-26.2	17.4	0.00e+00	0	43	0	754974720	11	4016
2026-01-18 01:19:42.65	39.42	18.32	-25.4	-26.4	17.4	1.89e-04	0	43	0	761266176	11	4056
2026-01-18 01:19:43.65	39.56	18.42	-25.3	-26.3	17.4	1.10e-06	0	44	0	766509056	11	4021
2026-01-18 01:19:44.65	39.71	18.51	-25.4	-26.4	17.3	0.00e+00	0	44	0	771751936	11	4071
2026-01-18 01:19:45.66	39.85	18.61	-25.3	-26.2	17.4	1.22e-04	0	44	0	778043392	11	4020
2026-01-18 01:19:46.65	39.99	18.71	-25.1	-25.9	17.6	0.00e+00	0	43	0	783286272	11	3931
2026-01-18 01:19:47.65	40.14	18.81	-25.1	-25.8	17.7	0.00e+00	0	44	0	788529152	11	3902
2026-01-18 01:19:48.66	40.29	18.91	-24.9	-25.5	17.9	0.00e+00	0	43	0	794820608	11	3834
2026-01-18 01:19:49.67	40.43	19.01	-24.9	-25.4	17.9	1.10e-06	0	44	0	800063488	11	3824
2026-01-18 01:19:50.67	40.58	19.11	-25.0	-25.5	17.8	0.00e+00	0	44	0	806354944	11	3839
2026-01-18 01:19:51.67	40.73	19.21	-25.1	-25.8	17.7	0.00e+00	0	43	0	811597824	11	3905
2026-01-18 01:19:52.67	40.88	19.31	-25.0	-25.5	17.8	0.00e+00	0	44	0	817889280	11	3842
2026-01-18 01:19:53.67	41.03	19.41	-25.0	-25.6	17.8	0.00e+00	0	44	0	823132160	11	3851
2026-01-18 01:19:54.67	41.18	19.51	-25.0	-25.7	17.7	1.84e-04	0	44	0	828375040	11	3892
2026-01-18 01:19:55.68	41.33	19.61	-25.0	-25.6	17.8	0.00e+00	0	43	0	834666496	11	3870
2026-01-18 01:19:56.68	41.49	19.71	-25.0	-25.7	17.8	0.00e+00	0	43	0	839909376	11	3876
2026-01-18 01:19:57.69	41.64	19.82	-25.0	-25.5	17.9	0.00e+00	0	44	0	845152256	11	3839
2026-01-18 01:19:58.69	41.80	19.92	-25.1	-26.4	17.7	0.00e+00	0	44	0	851443712	10	4155
2026-01-18 01:19:59.69	41.96	20.02	-25.1	-26.2	17.7	0.00e+00	0	44	0	856686592	10	4117
2026-01-18 01:20:00.70	42.11	20.12	-24.7	-25.5	18.1	0.00e+00	0	43	0	861929472	10	3957
2026-01-18 01:20:01.70	42.27	20.22	-24.6	-25.7	18.2	0.00e+00	0	43	0	868220928	9	4114
2026-01-18 01:20:02.71	42.43	20.33	-24.7	-26.0	18.1	0.00e+00	0	44	0	873463808	9	4169
2026-01-18 01:20:03.71	42.59	20.43	-24.7	-25.9	18.2	0.00e+00	0	43	0	879755264	9	4160
2026-01-18 01:20:04.71	42.76	20.53	-24.7	-26.1	18.1	0.00e+00	0	44	0	884998144	9	4198
2026-01-18 01:20:05.72	42.92	20.64	-24.6	-25.9	18.2	0.00e+00	0	44	0	891289600	9	4146
2026-01-18 01:20:06.72	43.08	20.74	-24.7	-26.1	18.1	0.00e+00	0	43	0	896532480	9	4197
2026-01-18 01:20:07.72	43.25	20.84	-24.7	-26.1	18.1	0.00e+00	0	44	0	901775360	9	4207
2026-01-18 01:20:08.72	43.41	20.95	-24.6	-25.9	18.2	0.00e+00	0	43	0	908066816	9	4155
2026-01-18 01:20:09.72	43.58	21.05	-24.6	-25.8	18.2	0.00e+00	0	44	0	913309696	9	4157
2026-01-18 01:20:10.72	43.75	21.15	-24.8	-26.4	17.9	0.00e+00	0	43	0	918552576	9	4302
2026-01-18 01:20:11.73	43.92	21.26	-24.7	-26.0	18.1	0.00e+00	0	44	0	924844032	9	4187
2026-01-18 01:20:12.74	44.09	21.36	-24.6	-25.8	18.2	0.00e+00	0	44	0	930086912	9	4130
2026-01-18 01:20:13.74	44.26	21.47	-24.6	-25.8	18.3	0.00e+00	0	44	0	935329792	9	4117
2026-01-18 01:20:14.74	44.44	21.57	-24.7	-26.0	18.1	0.00e+00	0	44	0	941621248	9	4185
2026-01-18 01:20:15.74	44.61	21.68	-24.6	-25.8	18.3	0.00e+00	0	44	0	946864128	9	4114
2026-01-18 01:20:16.75	44.79	21.78	-24.6	-25.7	18.3	0.00e+00	0	44	0	953155584	9	4088
2026-01-18 01:20:17.75	44.96	21.89	-24.5	-25.6	18.4	0.00e+00	0	44	0	958398464	9	4069
2026-01-18 01:20:18.75	45.14	21.99	-24.7	-25.9	18.2	0.00e+00	0	44	0	963641344	9	4155
2026-01-18 01:20:19.76	45.32	22.10	-24.8	-26.2	18.1	0.00e+00	0	44	0	969932800	9	4220
2026-01-18 01:20:20.76	45.50	22.21	-24.7	-25.9	18.2	0.00e+00	0	44	0	975175680	9	4140
2026-01-18 01:20:21.77	45.68	22.31	-24.3	-25.1	18.7	0.00e+00	0	44	0	981467136	9	3940
2026-01-18 01:20:22.77	45.86	22.42	-24.2	-24.9	18.8	0.00e+00	0	44	0	986710016	9	3893
2026-01-18 01:20:23.77	46.05	22.52	-24.2	-24.9	18.8	0.00e+00	0	44	0	991952896	9	3913
2026-01-18 01:20:24.77	46.23	22.63	-24.1	-24.7	18.9	0.00e+00	0	44	0	998244352	9	3848
2026-01-18 01:20:25.77	46.41	22.74	-24.3	-25.2	18.6	0.00e+00	0	44	0	1003487232	9	3979
2026-01-18 01:20:26.77	46.60	22.84	-24.1	-24.8	18.9	0.00e+00	0	44	0	1008730112	9	3868
2026-01-18 01:20:27.77	46.79	22.95	-24.1	-24.6	18.9	0.00e+00	0	44	0	1015021568	9	3843
2026-01-18 01:20:28.78	46.98	23.06	-24.1	-24.7	18.9	0.00e+00	0	44	0	1020264448	9	3857
2026-01-18 01:20:29.77	47.17	23.16	-24.1	-24.6	18.9	0.00e+00	0	44	0	1026555904	9	3841
2026-01-18 01:20:30.77	47.36	23.27	-24.0	-24.5	19.0	0.00e+00	0	44	0	1031798784	9	3814
2026-01-18 01:20:31.77	47.55	23.38	-24.2	-24.9	18.8	0.00e+00	0	44	0	1037041664	9	3899
2026-01-18 01:20:32.77	47.75	23.49	-24.0	-24.6	19.0	0.00e+00	0	44	0	1043333120	9	3822
2026-01-18 01:20:33.77	47.94	23.59	-24.2	-24.8	18.9	0.00e+00	0	44	0	1048576000	9	3879
2026-01-18 01:20:34.77	48.14	23.70	-24.1	-24.6	19.0	0.00e+00	0	44	0	1053818880	9	3833
2026-01-18 01:20:35.78	48.34	23.81	-24.1	-24.6	19.0	0.00e+00	0	44	0	1060110336	9	3838
2026-01-18 01:20:36.78	48.54	23.92	-24.0	-24.5	19.0	0.00e+00	0	44	0	1065353216	9	3819
2026-01-18 01:20:37.79	48.74	24.03	-24.1	-24.8	18.9	0.00e+00	0	44	0	1070596096	9	3875
2026-01-18 01:20:38.79	48.95	24.13	-23.9	-24.4	19.1	0.00e+00	0	44	0	1076887552	9	3773
2026-01-18 01:20:39.79	49.15	24.24	-23.9	-24.2	19.2	0.00e+00	0	44	0	1082130432	9	3741
2026-01-18 01:20:40.79	49.36	24.35	-23.9	-24.2	19.2	0.00e+00	0	44	0	1088421888	9	3741
2026-01-18 01:20:41.79	49.56	24.46	-23.9	-24.3	19.1	0.00e+00	0	44	0	1093664768	9	3766
2026-01-18 01:20:42.79	49.77	24.57	-23.8	-24.2	19.2	0.00e+00	0	44	0	1098907648	9	3733
2026-01-18 01:20:43.80	49.98	24.68	-23.7	-24.4	19.3	0.00e+00	0	44	0	1105199104	8	3893
2026-01-18 01:20:44.80	50.19	24.78	-23.7	-24.4	19.3	0.00e+00	0	44	0	1110441984	8	3898
2026-01-18 01:20:45.79	50.40	24.89	-23.8	-24.5	19.3	0.00e+00	0	44	0	1115684864	8	3913
2026-01-18 01:20:46.79	50.62	25.00	-24.0	-24.9	19.1	0.00e+00	0	44	0	1121976320	8	4006
2026-01-18 01:20:47.79	50.83	25.11	-23.8	-24.6	19.2	0.00e+00	0	44	0	1127219200	8	3930
2026-01-18 01:20:48.79	51.05	25.22	-23.9	-24.9	19.1	0.00e+00	0	44	0	1132462080	8	3995
2026-01-18 01:20:49.79	51.27	25.32	-23.9	-24.7	19.2	0.00e+00	0	44	0	1138753536	8	3957
2026-01-18 01:20:50.79	51.49	25.43	-24.0	-25.1	19.0	0.00e+00	0	44	0	1143996416	8	4047
2026-01-18 01:20:51.80	51.71	25.54	-23.9	-24.9	19.1	0.00e+00	0	44	0	1150287872	8	4002
2026-01-18 01:20:52.80	51.93	25.65	-24.1	-25.1	19.0	0.00e+00	0	44	0	1155530752	8	4059
2026-01-18 01:20:53.80	52.15	25.76	-23.9	-24.9	19.1	0.00e+00	0	44	0	1160773632	8	4002
2026-01-18 01:20:54.80	52.38	25.87	-23.6	-24.1	19.5	0.00e+00	0	44	0	1167065088	8	3829
2026-01-18 01:20:55.81	52.61	25.98	-23.6	-24.1	19.5	0.00e+00	0	44	0	1172307968	8	3815
2026-01-18 01:20:56.82	52.84	26.09	-23.6	-24.2	19.5	0.00e+00	0	44	0	1178599424	8	3832
2026-01-18 01:20:57.83	53.07	26.20	-23.5	-24.0	19.6	0.00e+00	0	44	0	1183842304	8	3793
2026-01-18 01:20:58.83	53.30	26.31	-23.5	-23.8	19.7	0.00e+00	0	44	0	1189085184	8	3762
2026-01-18 01:20:59.84	53.54	26.41	-23.6	-24.0	19.6	0.00e+00	0	44	0	1195376640	8	3799
2026-01-18 01:21:00.83	53.77	26.52	-23.5	-23.9	19.6	1.40e-04	0	44	0	1200619520	8	3782
2026-01-18 01:21:01.84	54.01	26.63	-23.5	-23.9	19.6	0.00e+00	0	44	0	1205862400	8	3782
2026-01-18 01:21:02.83	54.25	26.74	-23.7	-24.3	19.4	0.00e+00	0	44	0	1212153856	8	3861
2026-01-18 01:21:03.84	54.49	26.85	-23.5	-24.0	19.6	5.03e-05	0	44	0	1217396736	8	3788
2026-01-18 01:21:04.83	54.73	26.95	-23.4	-23.7	19.7	0.00e+00	0	44	0	1223688192	8	3726
2026-01-18 01:21:05.84	54.97	27.06	-23.3	-23.6	19.8	1.48e-04	0	44	0	1228931072	8	3698
2026-01-18 01:21:06.85	55.22	27.17	-23.6	-24.1	19.5	0.00e+00	0	44	0	1234173952	8	3808
2026-01-18 01:21:07.86	55.47	27.28	-23.6	-24.1	19.6	0.00e+00	0	44	0	1240465408	8	3811
2026-01-18 01:21:08.86	55.71	27.39	-23.7	-24.4	19.4	0.00e+00	0	44	0	1245708288	8	3899
2026-01-18 01:21:09.87	55.97	27.50	-23.7	-24.3	19.4	0.00e+00	0	44	0	1251999744	8	3869
2026-01-18 01:21:10.88	56.22	27.60	-23.5	-24.0	19.6	0.00e+00	0	44	0	1257242624	8	3789
2026-01-18 01:21:11.88	56.47	27.71	-23.4	-23.6	19.8	1.10e-06	0	44	0	1262485504	8	3710
2026-01-18 01:21:12.88	56.73	27.82	-23.5	-24.0	19.7	3.40e-06	0	44	0	1268776960	8	3786
2026-01-18 01:21:13.89	56.99	27.93	-23.3	-23.6	19.8	0.00e+00	0	44	0	1274019840	8	3699
2026-01-18 01:21:14.89	57.24	28.03	-23.3	-23.5	19.9	0.00e+00	0	44	0	1279262720	8	3680
2026-01-18 01:21:15.90	57.51	28.14	-23.3	-24.1	19.8	0.00e+00	0	44	0	1285554176	7	3928
2026-01-18 01:21:16.90	57.77	28.25	-23.1	-23.6	20.0	0.00e+00	0	44	0	1290797056	7	3817
2026-01-18 01:21:17.90	58.03	28.35	-23.1	-23.7	20.0	0.00e+00	0	44	0	1297088512	7	3824
2026-01-18 01:21:18.91	58.30	28.46	-23.3	-24.0	19.8	2.17e-05	0	44	0	1302331392	7	3899
2026-01-18 01:21:19.91	58.56	28.56	-23.3	-24.0	19.9	0.00e+00	0	44	0	1307574272	7	3898
2026-01-18 01:21:20.92	58.83	28.67	-23.2	-23.7	20.0	0.00e+00	0	44	0	1313865728	7	3836
2026-01-18 01:21:21.92	59.10	28.78	-23.1	-23.7	20.0	2.84e-04	0	44	0	1319108608	7	3826
2026-01-18 01:21:22.93	59.38	28.88	-23.3	-23.9	19.9	0.00e+00	0	44	0	1325400064	7	3886
2026-01-18 01:21:23.92	59.65	28.98	-23.2	-23.8	19.9	2.87e-04	0	44	0	1330642944	7	3861
2026-01-18 01:21:24.92	59.92	29.09	-23.2	-23.9	19.9	3.10e-04	0	44	0	1335885824	7	3873
2026-01-18 01:21:25.93	60.20	29.19	-23.2	-23.8	19.9	0.00e+00	0	44	0	1342177280	7	3864
2026-01-18 01:21:26.93	60.48	29.30	-23.0	-23.4	20.1	3.54e-04	0	44	0	1347420160	7	3776
2026-01-18 01:21:27.94	60.76	29.40	-23.1	-24.0	20.1	0.00e+00	0	44	0	1352663040	6	4009
2026-01-18 01:21:28.95	61.05	29.50	-22.9	-23.7	20.2	0.00e+00	0	44	0	1358954496	6	3937
2026-01-18 01:21:29.94	61.33	29.61	-23.0	-24.0	20.1	0.00e+00	0	44	0	1364197376	6	4004
2026-01-18 01:21:30.95	61.62	29.71	-22.9	-23.7	20.3	2.37e-04	0	44	0	1370488832	6	3935
2026-01-18 01:21:31.95	61.90	29.81	-23.0	-23.9	20.2	0.00e+00	0	44	0	1375731712	6	3989
2026-01-18 01:21:32.96	62.20	29.91	-23.0	-23.9	20.2	0.00e+00	0	44	0	1380974592	6	3983
2026-01-18 01:21:33.97	62.49	30.01	-23.3	-24.5	19.9	2.05e-04	0	44	0	1387266048	6	4133
2026-01-18 01:21:34.97	62.78	30.11	-23.2	-24.4	19.9	0.00e+00	0	44	0	1392508928	6	4105
2026-01-18 01:21:35.97	63.08	30.21	-23.1	-24.2	20.0	2.52e-04	0	44	0	1398800384	6	4061
2026-01-18 01:21:36.98	63.38	30.31	-23.1	-24.1	20.1	0.00e+00	0	44	0	1404043264	6	4029
2026-01-18 01:21:37.98	63.68	30.41	-23.0	-23.9	20.2	0.00e+00	0	44	0	1409286144	6	3985
2026-01-18 01:21:38.99	63.98	30.51	-23.3	-24.4	19.9	0.00e+00	0	44	0	1415577600	6	4113
2026-01-18 01:21:39.99	64.28	30.61	-23.1	-24.1	20.1	0.00e+00	0	44	0	1420820480	6	4042
2026-01-18 01:21:40.99	64.58	30.71	-23.3	-24.4	19.9	0.00e+00	0	44	0	1426063360	6	4112
2026-01-18 01:21:42.00	64.89	30.80	-23.3	-24.4	19.9	0.00e+00	0	44	0	1432354816	6	4113
2026-01-18 01:21:43.00	65.20	30.90	-23.3	-24.5	19.8	2.89e-04	0	44	0	1437597696	6	4142
2026-01-18 01:21:44.00	65.51	31.00	-23.6	-24.5	19.6	0.00e+00	0	44	0	1443889152	7	4028
2026-01-18 01:21:45.00	65.82	31.09	-23.4	-24.2	19.8	0.00e+00	0	44	0	1449132032	7	3947
2026-01-18 01:21:46.01	66.14	31.19	-23.3	-23.9	19.9	0.00e+00	0	44	0	1454374912	7	3883
2026-01-18 01:21:47.01	66.45	31.28	-23.3	-24.0	19.9	0.00e+00	0	44	0	1460666368	7	3891
2026-01-18 01:21:48.01	66.77	31.37	-23.2	-23.8	20.0	2.37e-04	0	44	0	1465909248	7	3853
2026-01-18 01:21:49.02	67.09	31.47	-23.1	-23.7	20.1	0.00e+00	0	44	0	1472200704	7	3831
2026-01-18 01:21:50.01	67.40	31.56	-23.4	-24.3	19.8	0.00e+00	0	44	0	1477443584	7	3969
2026-01-18 01:21:51.02	67.73	31.65	-23.4	-24.2	19.8	0.00e+00	0	44	0	1482686464	7	3953
2026-01-18 01:21:52.02	68.05	31.74	-23.2	-23.9	20.0	0.00e+00	0	44	0	1488977920	7	3868
2026-01-18 01:21:53.02	68.38	31.83	-23.3	-24.1	19.8	0.00e+00	0	44	0	1494220800	7	3922
2026-01-18 01:21:54.01	68.70	31.92	-23.0	-23.5	20.2	0.00e+00	0	44	0	1499463680	7	3776
2026-01-18 01:21:55.02	69.03	32.01	-23.1	-23.6	20.1	0.00e+00	0	44	0	1505755136	7	3805
2026-01-18 01:21:56.02	69.36	32.09	-23.5	-24.3	19.7	0.00e+00	0	44	0	1510998016	7	3979
2026-01-18 01:21:57.02	69.70	32.18	-23.2	-23.9	19.9	0.00e+00	0	44	0	1517289472	7	3872
2026-01-18 01:21:58.02	70.03	32.27	-23.2	-23.8	19.8	0.00e+00	0	44	0	1522532352	7	3869
2026-01-18 01:21:59.03	70.37	32.35	-23.2	-23.8	19.8	0.00e+00	0	44	0	1527775232	7	3885
2026-01-18 01:22:00.03	70.71	32.44	-23.0	-23.5	19.9	0.00e+00	0	44	0	1534066688	7	3812
2026-01-18 01:22:01.04	71.05	32.52	-22.7	-23.3	20.2	0.00e+00	0	44	0	1539309568	6	3871
2026-01-18 01:22:02.05	71.39	32.60	-22.7	-23.3	20.3	0.00e+00	0	44	0	1544552448	6	3851
2026-01-18 01:22:03.05	71.74	32.68	-22.7	-23.4	20.2	0.00e+00	0	44	0	1550843904	6	3876
2026-01-18 01:22:04.05	72.08	32.77	-23.1	-24.2	19.8	0.00e+00	0	44	0	1556086784	6	4071
2026-01-18 01:22:05.06	72.43	32.85	-23.2	-24.4	19.8	0.00e+00	0	44	0	1561329664	6	4121
2026-01-18 01:22:06.06	72.78	32.93	-23.3	-24.6	19.6	0.00e+00	0	44	0	1567621120	6	4175
2026-01-18 01:22:07.06	73.13	33.00	-23.3	-24.5	19.7	0.00e+00	0	44	0	1572864000	6	4148
2026-01-18 01:22:08.07	73.48	33.08	-23.3	-24.6	19.7	0.00e+00	0	44	0	1579155456	6	4167
2026-01-18 01:22:09.07	73.83	33.16	-23.5	-24.5	19.4	0.00e+00	0	44	0	1584398336	7	4051
2026-01-18 01:22:10.08	74.19	33.23	-23.2	-24.0	19.7	0.00e+00	0	44	0	1590689792	7	3922
2026-01-18 01:22:11.08	74.55	33.31	-23.1	-23.6	19.9	0.00e+00	0	44	0	1595932672	7	3819
2026-01-18 01:22:12.09	74.91	33.38	-22.9	-23.2	20.1	0.00e+00	0	44	0	1601175552	7	3737
2026-01-18 01:22:13.09	75.27	33.45	-23.2	-23.9	19.8	0.00e+00	0	44	0	1607467008	7	3887
2026-01-18 01:22:14.10	75.63	33.52	-23.1	-23.6	19.9	0.00e+00	0	44	0	1612709888	7	3831
2026-01-18 01:22:15.09	75.99	33.59	-23.1	-23.7	19.9	0.00e+00	0	44	0	1617952768	7	3844
2026-01-18 01:22:16.10	76.36	33.66	-23.2	-23.9	19.8	0.00e+00	0	44	0	1624244224	7	3889
2026-01-18 01:22:17.12	76.73	33.73	-23.3	-24.1	19.6	0.00e+00	0	44	0	1629487104	7	3948
2026-01-18 01:22:18.11	77.10	33.80	-23.2	-23.8	19.8	0.00e+00	0	44	0	1635778560	7	3868
2026-01-18 01:22:19.12	77.47	33.86	-23.2	-23.8	19.8	0.00e+00	0	44	0	1641021440	7	3878
2026-01-18 01:22:20.12	77.84	33.93	-23.4	-24.2	19.6	0.00e+00	0	44	0	1646264320	7	3979
2026-01-18 01:22:21.12	78.21	33.99	-23.5	-24.6	19.4	0.00e+00	0	44	0	1652555776	7	4051
2026-01-18 01:22:22.12	78.58	34.05	-23.1	-23.7	19.9	0.00e+00	0	44	0	1657798656	7	3837
2026-01-18 01:22:23.13	78.96	34.11	-22.8	-23.1	20.1	0.00e+00	0	44	0	1664090112	7	3710
2026-01-18 01:22:24.13	79.33	34.17	-22.9	-23.8	20.1	0.00e+00	0	44	0	1669332992	6	3967
2026-01-18 01:22:25.12	79.71	34.23	-23.1	-24.1	19.9	0.00e+00	0	44	0	1674575872	6	4042
2026-01-18 01:22:26.13	80.09	34.29	-23.1	-24.1	19.9	0.00e+00	0	44	0	1680867328	6	4060
2026-01-18 01:22:27.13	80.47	34.34	-23.0	-23.9	20.0	0.00e+00	0	44	0	1686110208	6	3998
2026-01-18 01:22:28.13	80.85	34.39	-23.0	-23.9	20.0	0.00e+00	0	44	0	1691353088	6	4013
2026-01-18 01:22:29.12	81.23	34.45	-23.1	-24.2	19.9	0.00e+00	0	44	0	1697644544	6	4076
2026-01-18 01:22:30.13	81.61	34.50	-23.0	-23.9	20.0	0.00e+00	0	44	0	1702887424	6	4015
2026-01-18 01:22:31.13	82.00	34.55	-23.0	-23.9	20.0	0.00e+00	0	44	0	1709178880	6	4009
2026-01-18 01:22:32.14	82.39	34.60	-23.0	-24.0	19.9	0.00e+00	0	44	0	1714421760	6	4026
2026-01-18 01:22:33.15	82.78	34.65	-22.9	-23.7	20.0	0.00e+00	0	44	0	1719664640	6	3954
2026-01-18 01:22:34.15	83.17	34.69	-23.0	-24.0	19.9	0.00e+00	0	44	0	1725956096	6	4038
2026-01-18 01:22:35.14	83.55	34.74	-23.0	-23.9	20.0	0.00e+00	0	44	0	1731198976	6	4007
2026-01-18 01:22:36.15	83.95	34.78	-23.0	-23.9	19.9	0.00e+00	0	44	0	1736441856	6	4019
2026-01-18 01:22:37.15	84.34	34.82	-23.0	-23.9	20.0	0.00e+00	0	44	0	1742733312	6	3997
2026-01-18 01:22:38.15	84.73	34.86	-22.8	-23.6	20.1	0.00e+00	0	44	0	1747976192	6	3926
2026-01-18 01:22:39.15	85.12	34.90	-23.0	-23.9	20.0	0.00e+00	0	44	0	1753219072	6	4007
2026-01-18 01:22:40.16	85.52	34.94	-22.9	-23.7	20.0	0.00e+00	0	44	0	1759510528	6	3971
2026-01-18 01:22:41.16	85.91	34.98	-22.8	-23.6	20.1	0.00e+00	0	44	0	1764753408	6	3928
2026-01-18 01:22:42.17	86.31	35.01	-22.8	-23.6	20.1	2.53e-04	0	44	0	1771044864	6	3938
2026-01-18 01:22:43.17	86.71	35.05	-22.9	-23.7	20.0	0.00e+00	0	44	0	1776287744	6	3959
2026-01-18 01:22:44.16	87.10	35.08	-22.9	-23.7	19.2	0.00e+00	0	44	0	1781530624	6	3966
2026-01-18 01:22:45.17	87.50	35.11	-22.9	-23.8	20.0	0.00e+00	0	44	0	1787822080	6	3982
2026-01-18 01:22:46.17	87.90	35.14	-23.0	-23.9	20.0	0.00e+00	0	44	0	1793064960	6	4014
2026-01-18 01:22:47.17	88.30	35.16	-23.0	-23.9	20.0	1.20e-04	0	44	0	1799356416	6	3997
2026-01-18 01:22:48.18	88.71	35.19	-23.3	-24.6	19.6	0.00e+00	0	44	0	1804599296	6	4173
2026-01-18 01:22:49.19	89.11	35.22	-23.1	-24.2	19.8	0.00e+00	0	44	0	1809842176	6	4082
2026-01-18 01:22:50.19	89.51	35.24	-23.1	-24.1	19.9	0.00e+00	0	44	0	1816133632	6	4059
2026-01-18 01:22:51.19	89.91	35.26	-23.2	-24.3	19.8	0.00e+00	0	44	0	1821376512	6	4098
2026-01-18 01:22:52.20	90.32	35.28	-23.1	-24.3	19.8	0.00e+00	0	44	0	1826619392	6	4090
2026-01-18 01:22:53.20	90.72	35.30	-23.3	-24.6	19.6	0.00e+00	0	44	0	1832910848	6	4176
2026-01-18 01:22:54.19	91.12	35.31	-23.0	-24.0	19.9	6.06e-05	0	44	0	1838153728	6	4026
2026-01-18 01:22:55.20	91.53	35.33	-23.0	-23.9	19.9	0.00e+00	0	44	0	1844445184	6	4007
2026-01-18 01:22:56.20	91.93	35.34	-22.9	-23.8	20.0	8.35e-05	0	44	0	1849688064	6	3983
2026-01-18 01:22:57.21	92.34	35.35	-23.0	-23.9	19.9	0.00e+00	0	44	0	1854930944	6	4017
2026-01-18 01:22:58.21	92.75	35.37	-22.9	-23.7	20.1	0.00e+00	0	44	0	1861222400	6	3953
2026-01-18 01:22:59.21	93.15	35.37	-23.0	-23.9	20.0	1.25e-05	0	44	0	1866465280	6	4001
2026-01-18 01:23:00.22	93.56	35.38	-22.9	-23.8	20.0	9.10e-06	0	44	0	1872756736	6	3976
2026-01-18 01:23:01.22	93.97	35.39	-22.9	-23.8	20.0	0.00e+00	0	44	0	1877999616	6	3976
2026-01-18 01:23:02.23	94.38	35.39	-22.8	-23.5	20.2	0.00e+00	0	44	0	1883242496	6	3911
2026-01-18 01:23:03.23	94.78	35.39	-22.8	-23.4	20.2	8.46e-05	0	44	0	1889533952	6	3893
2026-01-18 01:23:04.23	95.19	35.39	-22.9	-23.7	20.1	0.00e+00	0	44	0	1894776832	6	3951
2026-01-18 01:23:05.23	95.59	35.39	-22.9	-23.7	20.1	3.31e-05	0	44	0	1900019712	6	3963
2026-01-18 01:23:06.23	96.00	35.39	-23.1	-24.2	19.8	1.60e-05	0	44	0	1906311168	6	4073
2026-01-18 01:23:07.24	96.41	35.39	-22.8	-23.6	20.1	0.00e+00	0	44	0	1911554048	6	3940
2026-01-18 01:23:08.25	96.82	35.38	-22.7	-23.3	20.2	0.00e+00	0	44	0	1917845504	6	3859
2026-01-18 01:23:09.25	97.22	35.38	-22.7	-23.2	20.3	0.00e+00	0	44	0	1923088384	6	3849
2026-01-18 01:23:10.25	97.63	35.37	-22.7	-23.3	20.2	0.00e+00	0	44	0	1928331264	6	3873
2026-01-18 01:23:11.25	98.03	35.36	-23.0	-23.9	20.0	0.00e+00	0	44	0	1934622720	6	4015
2026-01-18 01:23:12.26	98.44	35.35	-23.1	-24.2	19.8	0.00e+00	0	44	0	1939865600	6	4071
2026-01-18 01:23:13.26	98.84	35.33	-22.9	-23.7	20.0	0.00e+00	0	44	0	1945108480	6	3965
2026-01-18 01:23:14.25	99.24	35.32	-22.8	-23.6	20.1	0.00e+00	0	44	0	1951399936	6	3939
2026-01-18 01:23:15.26	99.65	35.30	-23.0	-23.9	20.0	0.00e+00	0	44	0	1956642816	6	4006
2026-01-18 01:23:16.26	100.06	35.28	-22.9	-23.8	20.0	0.00e+00	0	44	0	1961885696	6	3983
2026-01-18 01:23:17.26	100.46	35.26	-23.0	-23.9	20.0	0.00e+00	0	44	0	1968177152	6	4002
2026-01-18 01:23:18.26	100.86	35.24	-22.8	-23.6	20.1	0.00e+00	0	44	0	1973420032	6	3932
2026-01-18 01:23:19.27	101.27	35.22	-22.7	-23.4	20.2	0.00e+00	0	44	0	1979711488	6	3888
2026-01-18 01:23:20.27	101.67	35.20	-22.8	-23.5	20.1	5.49e-05	0	44	0	1984954368	6	3917
2026-01-18 01:23:21.27	102.07	35.17	-22.7	-23.3	20.2	4.50e-06	0	44	0	1991245824	6	3857
2026-01-18 01:23:22.27	102.47	35.14	-22.8	-23.5	20.1	0.00e+00	0	44	0	1996488704	6	3911
2026-01-18 01:23:23.28	102.87	35.11	-22.8	-23.6	20.0	0.00e+00	0	44	0	2001731584	6	3945
2026-01-18 01:23:24.28	103.27	35.08	-22.9	-23.7	20.0	1.10e-06	0	44	0	2008023040	6	3964
2026-01-18 01:23:25.29	103.67	35.05	-22.8	-23.6	20.1	0.00e+00	0	44	0	2013265920	6	3936
2026-01-18 01:23:26.30	104.07	35.02	-22.7	-23.4	20.2	2.17e-05	0	44	0	2018508800	6	3883
2026-01-18 01:23:27.30	104.47	34.98	-22.7	-23.4	20.2	3.54e-05	0	44	0	2024800256	6	3887
2026-01-18 01:23:28.30	104.86	34.95	-22.8	-23.6	20.1	0.00e+00	0	44	0	2030043136	6	3942
2026-01-18 01:23:29.30	105.26	34.91	-22.8	-23.7	20.0	8.01e-05	0	44	0	2035286016	6	3955
2026-01-18 01:23:30.30	105.65	34.87	-22.9	-23.7	20.0	0.00e+00	0	44	0	2041577472	6	3975
2026-01-18 01:23:31.30	106.04	34.83	-22.8	-23.6	20.1	0.00e+00	0	44	0	2046820352	6	3943
2026-01-18 01:23:32.30	106.44	34.79	-22.9	-23.7	20.0	0.00e+00	0	44	0	2053111808	6	3954
2026-01-18 01:23:33.30	106.83	34.75	-23.0	-24.0	19.9	0.00e+00	0	44	0	2058354688	6	4029
2026-01-18 01:23:34.30	107.22	34.70	-23.3	-24.7	19.5	0.00e+00	0	44	0	2063597568	6	4203
2026-01-18 01:23:35.30	107.61	34.66	-23.3	-24.7	19.5	0.00e+00	0	44	0	2069889024	6	4208
2026-01-18 01:23:36.31	108.00	34.61	-23.3	-24.5	19.6	3.66e-05	0	44	0	2075131904	6	4160
2026-01-18 01:23:37.31	108.38	34.56	-23.0	-23.9	19.9	0.00e+00	0	44	0	2080374784	6	4009
2026-01-18 01:23:38.31	108.77	34.51	-22.9	-23.6	20.0	0.00e+00	0	44	0	2086666240	6	3938
2026-01-18 01:23:39.31	109.15	34.46	-23.0	-23.9	19.9	0.00e+00	0	44	0	2091909120	6	4005
2026-01-18 01:23:40.32	109.54	34.41	-23.2	-24.4	19.7	0.00e+00	0	44	0	2098200576	6	4130
2026-01-18 01:23:41.33	109.92	34.35	-23.1	-24.2	19.8	0.00e+00	0	44	0	2103443456	6	4079
2026-01-18 01:23:42.33	110.31	34.30	-23.3	-24.7	19.5	0.00e+00	0	44	0	2108686336	6	4196
2026-01-18 01:23:43.33	110.68	34.24	-23.3	-24.5	19.6	1.10e-06	0	44	0	2114977792	6	4161
2026-01-18 01:23:44.34	111.07	34.18	-23.4	-24.7	19.5	0.00e+00	0	44	0	2120220672	6	4209
2026-01-18 01:23:45.33	111.44	34.12	-23.4	-24.9	19.4	0.00e+00	0	44	0	2126512128	6	4243
2026-01-18 01:23:46.33	111.81	34.06	-23.5	-24.9	19.4	0.00e+00	0	44	0	2131755008	6	4253
2026-01-18 01:23:47.33	112.19	34.00	-23.4	-24.8	19.5	0.00e+00	0	44	0	2136997888	6	4221
2026-01-18 01:23:48.34	112.56	33.94	-23.4	-24.9	19.4	0.00e+00	0	44	0	2143289344	6	4255
2026-01-18 01:23:49.34	112.93	33.87	-23.7	-24.9	19.2	0.00e+00	0	44	0	2148532224	7	4136
2026-01-18 01:23:50.34	113.30	33.81	-23.9	-24.9	19.0	0.00e+00	0	43	0	2153775104	8	4029
2026-01-18 01:23:51.34	113.67	33.74	-23.4	-23.9	19.4	0.00e+00	0	44	0	2160066560	8	3785
2026-01-18 01:23:52.34	114.04	33.67	-23.0	-23.5	19.8	0.00e+00	0	44	0	2165309440	7	3812
2026-01-18 01:23:53.34	114.40	33.61	-22.9	-23.3	19.9	0.00e+00	0	44	0	2170552320	7	3772
2026-01-18 01:23:54.34	114.77	33.54	-23.1	-23.7	19.8	0.00e+00	0	44	0	2176843776	7	3858
2026-01-18 01:23:55.34	115.13	33.46	-23.3	-24.0	19.6	0.00e+00	0	44	0	2182086656	7	3938
2026-01-18 01:23:56.34	115.49	33.39	-23.3	-24.1	19.6	0.00e+00	0	44	0	2188378112	7	3943
2026-01-18 01:23:57.35	115.85	33.32	-23.1	-23.7	19.8	0.00e+00	0	44	0	2193620992	7	3846
2026-01-18 01:23:58.35	116.21	33.25	-23.2	-23.9	19.7	0.00e+00	0	44	0	2198863872	7	3892
2026-01-18 01:23:59.34	116.56	33.17	-23.3	-24.2	19.5	0.00e+00	0	44	0	2205155328	7	3964
2026-01-18 01:24:00.34	116.92	33.10	-23.3	-24.0	19.6	0.00e+00	0	44	0	2210398208	7	3933
2026-01-18 01:24:01.34	117.27	33.02	-23.3	-24.1	19.6	0.00e+00	0	44	0	2215641088	7	3945
2026-01-18 01:24:02.34	117.62	32.94	-23.3	-24.1	19.5	0.00e+00	0	44	0	2221932544	7	3950
2026-01-18 01:24:03.34	117.97	32.86	-23.4	-24.3	19.5	0.00e+00	0	44	0	2227175424	7	3986
2026-01-18 01:24:04.35	118.32	32.78	-23.4	-24.3	19.4	0.00e+00	0	44	0	2232418304	7	4001
2026-01-18 01:24:05.35	118.67	32.70	-23.5	-24.5	19.4	0.00e+00	0	44	0	2238709760	7	4033
2026-01-18 01:24:06.36	119.01	32.62	-23.5	-24.4	19.4	0.00e+00	0	44	0	2243952640	7	4026
2026-01-18 01:24:07.36	119.36	32.53	-23.5	-24.5	19.4	0.00e+00	0	44	0	2250244096	7	4038
2026-01-18 01:24:08.36	119.70	32.45	-23.4	-24.2	19.5	0.00e+00	0	44	0	2255486976	7	3979
2026-01-18 01:24:09.36	120.03	32.37	-23.5	-24.6	19.3	0.00e+00	0	44	0	2260729856	7	4068
2026-01-18 01:24:10.36	120.37	32.28	-23.6	-24.8	19.2	3.40e-06	0	44	0	2267021312	7	4127
2026-01-18 01:24:11.37	120.71	32.19	-23.7	-24.9	19.2	0.00e+00	0	44	0	2272264192	7	4134
2026-01-18 01:24:12.38	121.05	32.11	-23.8	-25.1	19.0	0.00e+00	0	44	0	2278555648	7	4205
2026-01-18 01:24:13.38	121.38	32.02	-23.5	-24.6	19.3	0.00e+00	0	44	0	2283798528	7	4077
2026-01-18 01:24:14.38	121.71	31.93	-23.4	-24.3	19.4	0.00e+00	0	44	0	2289041408	7	3989
2026-01-18 01:24:15.38	122.04	31.84	-23.4	-24.2	19.4	0.00e+00	0	44	0	2295332864	7	3977
2026-01-18 01:24:16.38	122.37	31.75	-23.4	-24.3	19.4	0.00e+00	0	44	0	2300575744	7	4001
2026-01-18 01:24:17.38	122.69	31.66	-23.4	-24.4	19.4	0.00e+00	0	44	0	2305818624	7	4022
2026-01-18 01:24:18.38	123.01	31.57	-23.5	-24.6	19.3	0.00e+00	0	44	0	2312110080	7	4073
2026-01-18 01:24:19.38	123.33	31.48	-23.6	-24.8	19.2	0.00e+00	0	44	0	2317352960	7	4113
2026-01-18 01:24:20.39	123.66	31.38	-23.4	-24.3	19.4	0.00e+00	0	44	0	2323644416	7	4003
2026-01-18 01:24:21.39	123.97	31.29	-23.3	-24.1	19.5	0.00e+00	0	44	0	2328887296	7	3953
2026-01-18 01:24:22.40	124.29	31.20	-23.3	-24.1	19.5	0.00e+00	0	44	0	2334130176	7	3938
2026-01-18 01:24:23.41	124.61	31.10	-23.2	-23.9	19.7	0.00e+00	0	44	0	2340421632	7	3891
2026-01-18 01:24:24.41	124.92	31.00	-23.2	-23.8	19.7	0.00e+00	0	44	0	2345664512	7	3878
2026-01-18 01:24:25.41	125.23	30.91	-23.2	-23.8	19.7	0.00e+00	0	44	0	2351955968	7	3883
2026-01-18 01:24:26.42	125.55	30.81	-23.2	-23.9	19.6	0.00e+00	0	44	0	2357198848	7	3906
2026-01-18 01:24:27.43	125.86	30.71	-23.4	-24.3	19.4	0.00e+00	0	44	0	2362441728	7	3987
2026-01-18 01:24:28.44	126.16	30.61	-23.6	-24.7	19.2	0.00e+00	0	44	0	2368733184	7	4093
2026-01-18 01:24:29.43	126.46	30.52	-23.5	-24.6	19.2	0.00e+00	0	44	0	2373976064	7	4067
2026-01-18 01:24:30.44	126.77	30.42	-23.4	-24.3	19.4	0.00e+00	0	44	0	2379218944	7	3988
2026-01-18 01:24:31.45	127.07	30.32	-23.3	-24.1	19.5	0.00e+00	0	44	0	2385510400	7	3954
2026-01-18 01:24:32.45	127.37	30.22	-23.4	-24.2	19.4	0.00e+00	0	44	0	2390753280	7	3973
2026-01-18 01:24:33.46	127.67	30.12	-23.4	-24.4	19.4	0.00e+00	0	44	0	2397044736	7	4014
2026-01-18 01:24:34.46	127.96	30.02	-23.5	-24.4	19.3	0.00e+00	0	44	0	2402287616	7	4029
2026-01-18 01:24:35.46	128.25	29.91	-23.3	-24.1	19.5	0.00e+00	0	44	0	2407530496	7	3938
2026-01-18 01:24:36.46	128.54	29.81	-23.3	-24.0	19.5	0.00e+00	0	44	0	2413821952	7	3936
2026-01-18 01:24:37.47	128.84	29.71	-23.3	-24.1	19.5	0.00e+00	0	44	0	2419064832	7	3949
2026-01-18 01:24:38.47	129.12	29.61	-23.3	-24.1	19.5	0.00e+00	0	44	0	2425356288	7	3943
2026-01-18 01:24:39.47	129.41	29.50	-23.3	-24.0	19.5	0.00e+00	0	44	0	2430599168	7	3931
2026-01-18 01:24:40.48	129.69	29.40	-23.2	-24.0	19.5	4.50e-06	0	44	0	2435842048	7	3917
2026-01-18 01:24:41.48	129.98	29.30	-23.2	-23.9	19.6	0.00e+00	0	44	0	2442133504	7	3894
2026-01-18 01:24:42.49	130.26	29.19	-23.2	-24.0	19.6	0.00e+00	0	44	0	2447376384	7	3914
2026-01-18 01:24:43.49	130.54	29.09	-23.3	-24.1	19.5	0.00e+00	0	44	0	2452619264	7	3940
2026-01-18 01:24:44.49	130.81	28.98	-23.3	-24.1	19.4	0.00e+00	0	44	0	2458910720	7	3954
2026-01-18 01:24:45.49	131.09	28.88	-23.4	-24.3	19.3	0.00e+00	0	44	0	2464153600	7	4004
2026-01-18 01:24:46.49	131.36	28.77	-23.5	-24.6	19.2	0.00e+00	0	44	0	2470445056	7	4065
2026-01-18 01:24:47.49	131.63	28.67	-23.6	-24.8	19.1	1.61e-04	0	44	0	2475687936	7	4123
2026-01-18 01:24:48.49	131.90	28.56	-23.8	-25.1	19.0	0.00e+00	0	44	0	2480930816	7	4185
2026-01-18 01:24:49.49	132.17	28.46	-23.7	-24.9	19.0	1.79e-04	0	44	0	2487222272	7	4159
2026-01-18 01:24:50.49	132.43	28.35	-23.8	-25.1	18.9	0.00e+00	0	44	0	2492465152	7	4194
2026-01-18 01:24:51.49	132.70	28.24	-23.6	-24.7	19.1	0.00e+00	0	44	0	2497708032	7	4102
2026-01-18 01:24:52.50	132.96	28.14	-23.3	-24.1	19.4	2.79e-04	0	44	0	2503999488	7	3939
2026-01-18 01:24:53.49	133.22	28.03	-23.2	-23.9	19.5	0.00e+00	0	44	0	2509242368	7	3887
2026-01-18 01:24:54.49	133.48	27.92	-23.2	-24.0	19.5	4.50e-06	0	44	0	2514485248	7	3922
2026-01-18 01:24:55.49	133.74	27.82	-23.3	-24.2	19.4	0.00e+00	0	44	0	2520776704	7	3975
2026-01-18 01:24:56.50	134.00	27.71	-23.5	-24.6	19.1	3.64e-04	0	44	0	2526019584	7	4077
2026-01-18 01:24:57.50	134.25	27.60	-23.6	-24.9	19.0	0.00e+00	0	44	0	2532311040	7	4147
2026-01-18 01:24:58.51	134.50	27.49	-23.7	-25.0	18.9	2.43e-04	0	44	0	2537553920	7	4188
2026-01-18 01:24:59.51	134.75	27.38	-23.7	-25.1	18.9	2.45e-04	0	44	0	2542796800	7	4196
2026-01-18 01:25:00.51	135.00	27.27	-23.6	-24.9	19.0	0.00e+00	0	44	0	2549088256	7	4149
2026-01-18 01:25:01.51	135.25	27.17	-23.8	-25.1	18.9	2.30e-04	0	44	0	2554331136	7	4203
2026-01-18 01:25:02.52	135.50	27.06	-23.7	-24.9	19.0	0.00e+00	0	44	0	2560622592	7	4158
2026-01-18 01:25:03.52	135.74	26.95	-23.5	-24.5	19.2	1.10e-06	0	44	0	2565865472	7	4047
2026-01-18 01:25:04.52	135.98	26.84	-23.6	-24.7	19.1	2.37e-04	0	44	0	2571108352	7	4083
2026-01-18 01:25:05.52	136.23	26.73	-23.7	-25.0	18.9	3.02e-04	0	44	0	2577399808	7	4167
2026-01-18 01:25:06.52	136.46	26.62	-23.8	-25.2	18.8	2.63e-05	0	44	0	2582642688	7	4215
2026-01-18 01:25:07.52	136.70	26.51	-23.8	-25.3	18.8	3.00e-04	0	44	0	2587885568	7	4238
2026-01-18 01:25:08.53	136.94	26.40	-23.8	-25.2	18.8	8.23e-05	0	44	0	2594177024	7	4237
2026-01-18 01:25:09.53	137.17	26.29	-23.8	-25.3	18.8	5.70e-06	0	44	0	2599419904	7	4246
2026-01-18 01:25:10.54	137.41	26.18	-23.9	-25.5	18.7	4.46e-05	0	44	0	2605711360	7	4298
2026-01-18 01:25:11.54	137.64	26.07	-23.7	-24.9	18.9	1.51e-04	0	44	0	2610954240	7	4150
2026-01-18 01:25:12.55	137.87	25.96	-23.4	-24.4	19.2	0.00e+00	0	44	0	2616197120	7	4014
2026-01-18 01:25:13.55	138.10	25.85	-23.3	-24.1	19.4	4.82e-04	0	44	0	2622488576	7	3949
2026-01-18 01:25:14.55	138.33	25.74	-23.3	-24.1	19.3	5.74e-04	0	44	0	2627731456	7	3958
2026-01-18 01:25:15.56	138.55	25.63	-23.4	-24.3	19.3	2.20e-06	0	44	0	2632974336	7	3995
2026-01-18 01:25:16.56	138.78	25.53	-23.5	-24.6	19.1	4.46e-04	0	44	0	2639265792	7	4068
2026-01-18 01:25:17.56	139.00	25.42	-23.6	-24.8	19.0	3.51e-04	0	44	0	2644508672	7	4115
2026-01-18 01:25:18.57	139.22	25.31	-23.7	-25.0	18.9	0.00e+00	0	44	0	2650800128	7	4175
2026-01-18 01:25:19.57	139.44	25.20	-23.8	-25.2	18.8	3.38e-04	0	44	0	2656043008	7	4222
2026-01-18 01:25:20.57	139.66	25.09	-23.8	-25.1	18.8	4.87e-04	0	44	0	2662334464	7	4200
2026-01-18 01:25:21.57	139.88	24.98	-23.9	-25.4	18.7	0.00e+00	0	44	0	2667577344	7	4267
2026-01-18 01:25:22.58	140.09	24.87	-23.8	-25.1	18.8	6.40e-04	0	44	0	2672820224	7	4199
2026-01-18 01:25:23.58	140.31	24.76	-23.7	-24.9	18.9	0.00e+00	0	44	0	2679111680	7	4144
2026-01-18 01:25:24.58	140.52	24.65	-23.7	-25.0	18.9	0.00e+00	0	44	0	2684354560	7	4157
2026-01-18 01:25:25.58	140.73	24.54	-23.8	-25.1	18.8	0.00e+00	0	44	0	2689597440	7	4187
2026-01-18 01:25:26.58	140.94	24.43	-23.8	-25.2	18.7	0.00e+00	0	44	0	2695888896	7	4227
2026-01-18 01:25:27.58	141.14	24.32	-23.8	-25.2	18.8	0.00e+00	0	44	0	2701131776	7	4211
2026-01-18 01:25:28.59	141.35	24.21	-23.9	-25.4	18.6	0.00e+00	0	44	0	2706374656	7	4264
2026-01-18 01:25:29.59	141.56	24.10	-24.0	-25.5	18.6	7.71e-04	0	44	0	2712666112	7	4305
2026-01-18 01:25:30.59	141.76	24.00	-24.1	-25.2	18.5	0.00e+00	0	44	0	2717908992	8	4121
2026-01-18 01:25:31.59	141.96	23.89	-24.3	-25.7	18.2	8.34e-04	0	44	0	2724200448	8	4244
2026-01-18 01:25:32.59	142.16	23.78	-24.3	-25.7	18.3	0.00e+00	0	44	0	2729443328	8	4228
2026-01-18 01:25:33.59	142.36	23.67	-24.2	-25.6	18.3	0.00e+00	0	44	0	2734686208	8	4211
2026-01-18 01:25:34.60	142.56	23.56	-24.2	-25.6	18.3	7.00e-04	0	44	0	2740977664	8	4212
2026-01-18 01:25:35.60	142.76	23.45	-24.2	-25.5	18.3	0.00e+00	0	44	0	2746220544	8	4200
2026-01-18 01:25:36.61	142.96	23.34	-24.2	-25.6	18.3	0.00e+00	0	44	0	2751463424	8	4222
2026-01-18 01:25:37.61	143.15	23.23	-24.3	-25.6	18.2	0.00e+00	0	44	0	2757754880	8	4224
2026-01-18 01:25:38.61	143.34	23.13	-24.1	-25.4	18.3	0.00e+00	0	44	0	2762997760	8	4158
2026-01-18 01:25:39.61	143.53	23.02	-24.2	-25.5	18.3	0.00e+00	0	44	0	2768240640	8	4190
2026-01-18 01:25:40.62	143.73	22.91	-24.1	-25.4	18.4	0.00e+00	0	44	0	2774532096	8	4157
2026-01-18 01:25:41.62	143.91	22.80	-24.1	-25.3	18.4	0.00e+00	0	44	0	2779774976	8	4147
2026-01-18 01:25:42.62	144.10	22.70	-24.2	-25.6	18.3	0.00e+00	0	44	0	2786066432	8	4207
2026-01-18 01:25:43.63	144.29	22.59	-24.2	-25.6	18.2	0.00e+00	0	44	0	2791309312	8	4221
2026-01-18 01:25:44.63	144.47	22.48	-24.3	-25.7	18.2	0.00e+00	0	44	0	2797600768	8	4233
2026-01-18 01:25:45.63	144.66	22.37	-24.3	-25.6	18.2	0.00e+00	0	44	0	2802843648	8	4227
2026-01-18 01:25:46.64	144.84	22.27	-24.2	-25.6	18.2	0.00e+00	0	44	0	2808086528	8	4211
2026-01-18 01:25:47.64	145.02	22.16	-24.2	-25.6	18.2	0.00e+00	0	44	0	2814377984	8	4208
2026-01-18 01:25:48.65	145.21	22.05	-24.2	-25.5	18.3	0.00e+00	0	44	0	2819620864	8	4192
2026-01-18 01:25:49.66	145.39	21.94	-24.2	-25.5	18.3	0.00e+00	0	44	0	2824863744	8	4177
2026-01-18 01:25:50.66	145.56	21.84	-24.1	-25.4	18.3	0.00e+00	0	44	0	2831155200	8	4166
2026-01-18 01:25:51.67	145.74	21.73	-24.3	-25.8	18.1	0.00e+00	0	44	0	2836398080	8	4267
2026-01-18 01:25:52.67	145.92	21.63	-24.3	-25.8	18.1	0.00e+00	0	44	0	2842689536	8	4262
2026-01-18 01:25:53.67	146.09	21.52	-24.2	-25.6	18.2	0.00e+00	0	44	0	2847932416	8	4210
2026-01-18 01:25:54.68	146.27	21.41	-24.3	-25.7	18.1	0.00e+00	0	44	0	2853175296	8	4246
2026-01-18 01:25:55.68	146.44	21.31	-24.3	-25.7	18.1	0.00e+00	0	44	0	2859466752	8	4249
2026-01-18 01:25:56.68	146.61	21.20	-24.4	-26.0	18.0	0.00e+00	0	44	0	2864709632	8	4304
2026-01-18 01:25:57.69	146.78	21.10	-24.4	-26.0	17.9	0.00e+00	0	44	0	2871001088	8	4321
2026-01-18 01:25:58.69	146.95	20.99	-24.5	-26.1	17.9	0.00e+00	0	44	0	2876243968	8	4341
2026-01-18 01:25:59.69	147.12	20.89	-24.6	-25.9	17.7	1.10e-06	0	44	0	2881486848	9	4185
2026-01-18 01:26:00.69	147.28	20.78	-25.0	-26.6	17.4	0.00e+00	0	44	0	2887778304	9	4358
2026-01-18 01:26:01.70	147.45	20.68	-24.9	-26.1	17.4	0.00e+00	0	44	0	2893021184	10	4112
2026-01-18 01:26:02.69	147.61	20.58	-24.9	-26.0	17.5	0.00e+00	0	44	0	2898264064	10	4073
2026-01-18 01:26:03.70	147.78	20.47	-25.0	-26.3	17.3	0.00e+00	0	44	0	2904555520	10	4154
2026-01-18 01:26:04.70	147.94	20.37	-25.1	-26.4	17.2	0.00e+00	0	44	0	2909798400	10	4181
2026-01-18 01:26:05.71	148.10	20.26	-25.2	-26.7	17.0	0.00e+00	0	44	0	2915041280	10	4278
2026-01-18 01:26:06.71	148.26	20.16	-25.2	-26.8	17.0	0.00e+00	0	44	0	2921332736	10	4290
2026-01-18 01:26:07.71	148.42	20.06	-25.4	-27.2	16.8	0.00e+00	0	44	0	2926575616	10	4395
2026-01-18 01:26:08.72	148.58	19.96	-25.4	-26.7	16.8	3.40e-06	0	44	0	2932867072	11	4155
2026-01-18 01:26:09.72	148.74	19.85	-25.3	-26.3	17.0	0.00e+00	0	44	0	2938109952	11	4062
2026-01-18 01:26:10.72	148.89	19.75	-25.2	-26.7	17.0	0.00e+00	0	44	0	2944401408	10	4274
2026-01-18 01:26:11.73	149.05	19.65	-25.2	-26.7	17.0	3.40e-06	0	44	0	2949644288	10	4281
2026-01-18 01:26:12.74	149.20	19.54	-25.3	-26.9	16.9	0.00e+00	0	44	0	2954887168	10	4337
2026-01-18 01:26:13.74	149.36	19.44	-25.2	-26.6	17.1	0.00e+00	0	44	0	2961178624	10	4253
2026-01-18 01:26:14.74	149.51	19.34	-25.1	-26.4	17.2	1.10e-06	0	44	0	2966421504	10	4196
2026-01-18 01:26:15.74	149.66	19.24	-25.1	-26.4	17.2	0.00e+00	0	44	0	2971664384	10	4203
2026-01-18 01:26:16.74	149.81	19.14	-25.3	-26.8	17.0	0.00e+00	0	44	0	2977955840	10	4287
2026-01-18 01:26:17.75	149.96	19.04	-25.2	-26.6	17.1	0.00e+00	0	44	0	2983198720	10	4252
2026-01-18 01:26:18.74	150.10	18.94	-25.4	-27.1	16.9	0.00e+00	0	44	0	2988441600	10	4370
2026-01-18 01:26:19.74	150.25	18.84	-25.4	-26.7	16.8	0.00e+00	0	44	0	2994733056	11	4149
2026-01-18 01:26:20.74	150.40	18.74	-25.4	-27.1	16.8	0.00e+00	0	44	0	2999975936	10	4370
2026-01-18 01:26:21.75	150.54	18.64	-25.4	-27.1	16.8	0.00e+00	0	44	0	3006267392	10	4397
2026-01-18 01:26:22.75	150.69	18.54	-25.4	-27.2	16.7	0.00e+00	0	44	0	3011510272	10	4408
2026-01-18 01:26:23.75	150.83	18.44	-25.5	-27.3	16.6	1.10e-06	0	44	0	3016753152	10	4457
2026-01-18 01:26:24.76	150.97	18.34	-25.5	-26.8	16.6	0.00e+00	0	44	0	3023044608	11	4203
2026-01-18 01:26:25.76	151.12	18.24	-25.5	-26.8	16.7	0.00e+00	0	44	0	3028287488	11	4192
2026-01-18 01:26:26.77	151.26	18.14	-25.2	-26.6	16.4	0.00e+00	0	44	0	3034578944	11	4259
2026-01-18 01:26:27.77	151.40	18.04	-25.5	-26.9	12.9	0.00e+00	0	44	0	3039821824	11	4230
2026-01-18 01:26:28.77	151.54	17.94	-25.4	-27.1	13.4	1.48e-03	0	44	0	3045064704	10	4391
2026-01-18 01:26:29.78	151.68	17.85	-25.4	-27.2	16.7	0.00e+00	0	44	0	3051356160	10	4399
2026-01-18 01:26:30.78	151.81	17.75	-25.4	-27.2	16.6	0.00e+00	0	44	0	3056599040	10	4412
2026-01-18 01:26:31.79	151.95	17.65	-25.4	-27.1	16.7	0.00e+00	0	44	0	3061841920	10	4391
2026-01-18 01:26:32.79	152.09	17.55	-25.6	-27.0	16.5	0.00e+00	0	44	0	3068133376	11	4234
2026-01-18 01:26:33.80	152.22	17.45	-25.8	-27.5	16.2	0.00e+00	0	44	0	3073376256	11	4360
2026-01-18 01:26:34.80	152.36	17.36	-25.6	-27.1	16.4	0.00e+00	0	44	0	3079667712	11	4267
2026-01-18 01:26:35.81	152.49	17.26	-25.5	-26.9	16.6	1.68e-04	0	44	0	3084910592	11	4209
2026-01-18 01:26:36.81	152.62	17.16	-25.5	-26.8	16.6	0.00e+00	0	44	0	3090153472	11	4187
2026-01-18 01:26:37.81	152.75	17.07	-25.5	-26.9	16.5	0.00e+00	0	44	0	3096444928	11	4216
2026-01-18 01:26:38.82	152.88	16.97	-25.5	-26.9	16.5	0.00e+00	0	44	0	3101687808	11	4216
2026-01-18 01:26:39.82	153.01	16.88	-25.6	-27.2	16.4	0.00e+00	0	44	0	3107979264	11	4290
2026-01-18 01:26:40.83	153.14	16.78	-25.6	-27.0	16.4	1.43e-03	0	44	0	3113222144	11	4255
2026-01-18 01:26:41.83	153.27	16.68	-25.5	-26.8	16.5	0.00e+00	0	44	0	3118465024	11	4210
2026-01-18 01:26:42.83	153.40	16.59	-25.4	-26.7	16.6	1.47e-03	0	44	0	3124756480	11	4177
2026-01-18 01:26:43.83	153.53	16.50	-25.4	-26.6	16.6	0.00e+00	0	44	0	3129999360	11	4159
2026-01-18 01:26:44.84	153.65	16.40	-25.5	-27.0	16.4	1.86e-04	0	44	0	3135242240	11	4243
2026-01-18 01:26:45.84	153.78	16.31	-25.5	-26.9	16.5	8.01e-05	0	44	0	3141533696	11	4226
2026-01-18 01:26:46.85	153.90	16.21	-25.5	-26.9	16.5	1.52e-03	0	44	0	3146776576	11	4220
2026-01-18 01:26:47.85	154.03	16.12	-25.7	-27.3	16.3	2.25e-04	0	44	0	3153068032	11	4321
2026-01-18 01:26:48.85	154.15	16.02	-25.6	-27.2	16.3	0.00e+00	0	44	0	3158310912	11	4300
2026-01-18 01:26:49.85	154.27	15.93	-25.8	-27.5	16.2	1.38e-03	0	44	0	3163553792	11	4393
2026-01-18 01:26:50.85	154.39	15.84	-25.8	-27.5	16.2	0.00e+00	0	44	0	3169845248	11	4379
2026-01-18 01:26:51.86	154.51	15.74	-25.9	-27.8	16.0	1.36e-03	0	44	0	3175088128	11	4449
2026-01-18 01:26:52.86	154.63	15.65	-26.0	-27.5	15.8	1.37e-03	0	44	0	3180331008	12	4271
2026-01-18 01:26:53.87	154.75	15.56	-26.3	-28.1	15.5	2.04e-04	0	44	0	3186622464	12	4442
2026-01-18 01:26:54.87	154.87	15.47	-26.1	-27.7	15.7	1.40e-03	0	44	0	3191865344	12	4318
2026-01-18 01:26:55.87	154.99	15.38	-26.1	-27.7	15.7	1.56e-03	0	44	0	3198156800	12	4313
2026-01-18 01:26:56.87	155.11	15.28	-26.1	-27.6	15.8	2.07e-04	0	44	0	3203399680	12	4292
2026-01-18 01:26:57.87	155.22	15.19	-26.0	-27.5	15.9	1.43e-03	0	44	0	3208642560	12	4255
2026-01-18 01:26:58.88	155.34	15.10	-26.3	-28.2	15.4	1.48e-03	0	44	0	3214934016	12	4460
2026-01-18 01:26:59.89	155.46	15.01	-26.1	-27.7	15.7	2.02e-04	0	44	0	3220176896	12	4332
2026-01-18 01:27:00.89	155.57	14.92	-25.9	-27.3	15.9	1.36e-03	0	44	0	3226468352	12	4210
2026-01-18 01:27:01.89	155.68	14.83	-25.8	-27.5	16.2	1.22e-03	0	44	0	3231711232	11	4386
2026-01-18 01:27:02.90	155.80	14.74	-26.0	-27.9	15.9	1.60e-04	0	44	0	3236954112	11	4484
2026-01-18 01:27:03.91	155.91	14.65	-25.8	-27.5	16.2	1.19e-03	0	44	0	3243245568	11	4367
2026-01-18 01:27:04.91	156.02	14.56	-25.9	-27.7	16.0	1.35e-03	0	44	0	3248488448	11	4441
2026-01-18 01:27:05.92	156.13	14.47	-25.9	-27.7	16.1	6.06e-05	0	44	0	3254779904	11	4420
2026-01-18 01:27:06.91	156.24	14.38	-26.0	-27.4	15.8	1.35e-03	0	44	0	3260022784	12	4247
2026-01-18 01:27:07.92	156.35	14.29	-26.3	-28.2	15.4	1.35e-03	0	44	0	3265265664	12	4462
2026-01-18 01:27:08.92	156.46	14.20	-26.2	-27.8	15.6	6.17e-05	0	44	0	3271557120	12	4363
2026-01-18 01:27:09.92	156.57	14.11	-26.1	-27.6	15.7	0.00e+00	0	44	0	3276800000	12	4312
2026-01-18 01:27:10.92	156.68	14.02	-26.0	-27.5	15.8	1.16e-03	0	44	0	3282042880	12	4274
2026-01-18 01:27:11.92	156.79	13.93	-26.1	-27.7	15.6	0.00e+00	0	44	0	3288334336	12	4334
2026-01-18 01:27:12.93	156.89	13.85	-26.1	-27.7	15.6	1.15e-03	0	44	0	3293577216	12	4331
2026-01-18 01:27:13.93	157.00	13.76	-26.3	-28.1	15.5	2.20e-06	0	44	0	3299868672	12	4427
2026-01-18 01:27:14.94	157.11	13.67	-26.2	-27.9	15.5	2.74e-05	0	44	0	3305111552	12	4376
2026-01-18 01:27:15.94	157.21	13.58	-26.3	-28.2	15.4	1.31e-03	0	44	0	3310354432	12	4469
2026-01-18 01:27:16.95	157.32	13.50	-26.3	-28.1	15.4	4.50e-06	0	44	0	3316645888	12	4447
2026-01-18 01:27:17.96	157.42	13.41	-26.3	-28.2	15.4	8.01e-05	0	44	0	3321888768	12	4471
2026-01-18 01:27:18.96	157.52	13.32	-26.2	-28.0	15.4	0.00e+00	0	44	0	3327131648	12	4428
2026-01-18 01:27:19.96	157.63	13.24	-26.3	-28.2	15.3	1.24e-03	0	44	0	3333423104	12	4478
2026-01-18 01:27:20.96	157.73	13.15	-26.6	-28.3	15.0	0.00e+00	0	44	0	3338665984	13	4378
2026-01-18 01:27:21.97	157.83	13.06	-26.5	-28.0	15.1	0.00e+00	0	44	0	3344957440	13	4320
2026-01-18 01:27:22.97	157.93	12.98	-26.4	-28.4	15.2	0.00e+00	0	44	0	3350200320	12	4518
2026-01-18 01:27:23.98	158.03	12.89	-26.5	-28.2	15.1	0.00e+00	0	44	0	3355443200	13	4351
2026-01-18 01:27:24.98	158.13	12.81	-26.4	-28.3	15.2	1.41e-03	0	44	0	3361734656	12	4510
2026-01-18 01:27:25.98	158.23	12.72	-26.5	-28.5	15.1	0.00e+00	0	44	0	3366977536	12	4550
2026-01-18 01:27:26.99	158.33	12.64	-26.3	-28.2	15.3	0.00e+00	0	44	0	3373268992	12	4462
2026-01-18 01:27:27.99	158.43	12.55	-26.4	-28.4	15.2	0.00e+00	0	44	0	3378511872	12	4526
2026-01-18 01:27:28.99	158.53	12.47	-26.4	-28.4	15.2	0.00e+00	0	44	0	3383754752	12	4512
2026-01-18 01:27:30.00	158.62	12.38	-26.4	-28.4	15.2	0.00e+00	0	44	0	3390046208	12	4537
2026-01-18 01:27:31.00	158.72	12.30	-26.4	-28.3	15.2	0.00e+00	0	44	0	3395289088	12	4496
2026-01-18 01:27:32.00	158.82	12.22	-26.5	-28.1	15.1	0.00e+00	0	44	0	3400531968	13	4319
2026-01-18 01:27:33.01	158.91	12.13	-26.5	-28.1	15.1	1.10e-06	0	44	0	3406823424	13	4334
2026-01-18 01:27:34.01	159.01	12.05	-26.5	-28.2	15.0	0.00e+00	0	44	0	3412066304	13	4342
2026-01-18 01:27:35.01	159.10	11.97	-26.6	-28.2	15.0	0.00e+00	0	44	0	3417309184	13	4353
2026-01-18 01:27:36.01	159.19	11.88	-26.5	-28.2	15.0	0.00e+00	0	44	0	3423600640	13	4349
2026-01-18 01:27:37.01	159.29	11.80	-26.5	-28.1	15.0	0.00e+00	0	44	0	3428843520	13	4341
2026-01-18 01:27:38.01	159.38	11.72	-26.6	-28.3	14.9	0.00e+00	0	44	0	3435134976	13	4396
2026-01-18 01:27:39.00	159.47	11.64	-26.9	-28.9	14.6	0.00e+00	0	44	0	3440377856	13	4565
2026-01-18 01:27:40.00	159.56	11.56	-26.7	-28.6	14.7	0.00e+00	0	44	0	3445620736	13	4469
2026-01-18 01:27:41.01	159.66	11.47	-26.7	-28.6	14.7	0.00e+00	0	44	0	3451912192	13	4489
2026-01-18 01:27:42.01	159.75	11.39	-27.1	-29.0	14.2	0.00e+00	0	44	0	3457155072	14	4482
2026-01-18 01:27:43.01	159.84	11.31	-27.0	-28.7	14.4	0.00e+00	0	44	0	3462397952	14	4405
2026-01-18 01:27:44.01	159.93	11.23	-26.8	-28.8	14.6	1.10e-06	0	44	0	3468689408	13	4550
2026-01-18 01:27:45.02	160.02	11.15	-27.0	-29.3	14.3	0.00e+00	0	44	0	3473932288	13	4695
2026-01-18 01:27:46.03	160.11	11.07	-26.8	-28.8	14.6	1.10e-06	0	44	0	3480223744	13	4550
2026-01-18 01:27:47.02	160.19	10.99	-26.8	-28.9	14.5	0.00e+00	0	44	0	3485466624	13	4571
2026-01-18 01:27:48.02	160.28	10.91	-26.8	-29.0	14.5	0.00e+00	0	44	0	3490709504	13	4596
2026-01-18 01:27:49.03	160.37	10.83	-26.8	-29.0	14.5	0.00e+00	0	44	0	3497000960	13	4592
2026-01-18 01:27:50.03	160.46	10.75	-26.8	-28.9	14.5	1.10e-06	0	44	0	3502243840	13	4572
2026-01-18 01:27:51.03	160.54	10.67	-26.8	-28.9	14.5	2.20e-06	0	44	0	3508535296	13	4580
2026-01-18 01:27:52.03	160.63	10.59	-27.2	-29.3	14.0	1.10e-06	0	44	0	3513778176	14	4593
2026-01-18 01:27:53.02	160.71	10.51	-27.2	-29.4	13.9	1.10e-06	0	44	0	3519021056	14	4595
2026-01-18 01:27:54.02	160.80	10.43	-27.0	-28.8	14.2	0.00e+00	0	44	0	3525312512	14	4443
2026-01-18 01:27:55.03	160.88	10.35	-27.2	-29.3	14.0	0.00e+00	0	44	0	3530555392	14	4587
2026-01-18 01:27:56.02	160.97	10.27	-27.2	-29.2	14.0	2.20e-06	0	44	0	3535798272	14	4541
2026-01-18 01:27:57.02	161.05	10.19	-27.1	-29.1	14.1	0.00e+00	0	44	0	3542089728	14	4518
2026-01-18 01:27:58.02	161.14	10.12	-27.2	-29.3	13.9	2.20e-06	0	44	0	3547332608	14	4586
2026-01-18 01:27:59.02	161.22	10.04	-27.2	-29.3	13.9	3.40e-06	0	44	0	3552575488	14	4594
2026-01-18 01:28:00.03	161.30	9.96	-27.5	-29.9	13.6	2.20e-06	0	44	0	3558866944	14	4770
2026-01-18 01:28:01.03	161.38	9.88	-27.2	-29.4	13.9	1.10e-06	0	44	0	3564109824	14	4603
2026-01-18 01:28:02.02	161.47	9.81	-27.0	-28.8	14.2	2.20e-06	0	44	0	3570401280	14	4442
2026-01-18 01:28:03.03	161.55	9.73	-26.9	-28.6	14.3	0.00e+00	0	44	0	3575644160	14	4374
2026-01-18 01:28:04.04	161.63	9.65	-26.8	-29.0	14.4	0.00e+00	0	44	0	3580887040	13	4606
2026-01-18 01:28:05.04	161.71	9.57	-27.1	-29.0	14.1	0.00e+00	0	44	0	3587178496	14	4498
2026-01-18 01:28:06.03	161.79	9.50	-27.1	-29.1	14.0	1.10e-06	0	44	0	3592421376	14	4510
2026-01-18 01:28:07.04	161.87	9.42	-27.4	-29.7	13.7	2.20e-06	0	44	0	3597664256	14	4690
2026-01-18 01:28:08.04	161.95	9.34	-27.3	-29.4	13.9	2.20e-06	0	44	0	3603955712	14	4612
2026-01-18 01:28:09.04	162.03	9.27	-27.2	-29.2	14.0	2.20e-06	0	44	0	3609198592	14	4536
2026-01-18 01:28:10.05	162.11	9.19	-27.1	-29.1	14.0	1.10e-06	0	44	0	3614441472	14	4505
2026-01-18 01:28:11.05	162.19	9.12	-27.1	-29.1	14.0	2.20e-06	0	44	0	3620732928	14	4509
2026-01-18 01:28:12.06	162.26	9.04	-27.1	-29.0	14.1	4.50e-06	0	44	0	3625975808	14	4475
2026-01-18 01:28:13.06	162.34	8.96	-27.2	-29.3	13.9	1.10e-06	0	44	0	3632267264	14	4556
2026-01-18 01:28:14.06	162.42	8.89	-27.2	-29.2	13.9	1.10e-06	0	44	0	3637510144	14	4546
2026-01-18 01:28:15.06	162.50	8.81	-27.3	-29.4	13.8	0.00e+00	0	44	0	3643801600	14	4595
2026-01-18 01:28:16.06	162.57	8.74	-27.0	-28.9	14.1	8.00e-06	0	44	0	3649044480	14	4443
2026-01-18 01:28:17.07	162.65	8.66	-26.9	-28.6	14.3	1.10e-06	0	44	0	3654287360	14	4370
2026-01-18 01:28:18.07	162.72	8.59	-27.0	-28.9	14.1	3.40e-06	0	44	0	3660578816	14	4451
2026-01-18 01:28:19.07	162.80	8.52	-27.1	-28.9	14.0	2.20e-06	0	44	0	3665821696	14	4472
2026-01-18 01:28:20.08	162.87	8.44	-27.1	-29.0	14.0	0.00e+00	0	44	0	3671064576	14	4488
2026-01-18 01:28:21.09	162.95	8.37	-27.0	-28.7	14.2	1.10e-06	0	44	0	3677356032	14	4407
2026-01-18 01:28:22.10	163.02	8.29	-27.1	-29.0	13.9	3.40e-06	0	44	0	3682598912	14	4504
2026-01-18 01:28:23.10	163.10	8.22	-27.0	-28.8	14.1	1.10e-06	0	44	0	3687841792	14	4438
2026-01-18 01:28:24.10	163.17	8.14	-26.9	-28.5	14.1	1.10e-06	0	44	0	3694133248	14	4337
2026-01-18 01:28:25.10	163.24	8.07	-26.4	-28.3	12.7	5.70e-06	0	44	0	3699376128	14	4506
2026-01-18 01:28:26.10	163.32	8.00	-27.2	-29.2	13.7	1.10e-06	0	44	0	3705667584	14	4562
2026-01-18 01:28:27.11	163.39	7.93	-27.2	-29.3	11.9	3.40e-06	0	44	0	3710910464	14	4592
2026-01-18 01:28:28.11	163.46	7.85	-27.1	-29.0	13.6	4.50e-06	0	44	0	3716153344	14	4498
2026-01-18 01:28:29.11	163.53	7.78	-27.2	-29.2	13.8	2.05e-05	0	44	0	3722444800	14	4577
2026-01-18 01:28:30.11	163.61	7.71	-27.5	-29.6	13.3	1.02e-05	0	44	0	3727687680	15	4568
2026-01-18 01:28:31.12	163.68	7.64	-27.2	-29.4	13.6	1.48e-03	0	44	0	3733979136	14	4638
2026-01-18 01:28:32.12	163.75	7.56	-27.1	-29.1	13.8	4.50e-06	0	44	0	3739222016	14	4538
2026-01-18 01:28:33.12	163.82	7.49	-27.4	-29.8	13.4	1.25e-05	0	44	0	3744464896	14	4759
2026-01-18 01:28:34.13	163.89	7.42	-27.6	-29.8	13.1	1.94e-05	0	44	0	3750756352	15	4626
2026-01-18 01:28:35.14	163.96	7.35	-27.2	-29.5	13.5	1.14e-05	0	44	0	3755999232	14	4663
2026-01-18 01:28:36.14	164.03	7.28	-27.3	-29.5	13.5	1.45e-03	0	44	0	3761242112	14	4675
2026-01-18 01:28:37.14	164.10	7.20	-27.6	-29.7	13.1	1.02e-05	0	44	0	3767533568	15	4607
2026-01-18 01:28:38.14	164.17	7.13	-27.5	-29.6	13.2	5.40e-04	0	44	0	3772776448	15	4576
2026-01-18 01:28:39.14	164.23	7.06	-27.5	-30.1	13.2	1.37e-05	0	44	0	3779067904	14	4853
2026-01-18 01:28:40.14	164.30	6.99	-32.8	-44.0	3.8	8.46e-01	0	44	104	3780116480	26	13012
2026-01-18 01:28:41.14	164.37	6.92	-33.0	-44.5	3.8	8.45e-01	0	44	104	3780116480	26	13456

#Closed at: 2026-01-18 01:28:42
#Recorded file [3780 MB]: D:/data/31010_260118_041727.dat