passes_logs/2026/01/18/R2M6_AANII_01/R2M6_AANII_01__20260118_012931_NOAA_21_JPSS-2_rec.log

#Pass ID: 20260118_012931_NOAA 21 (JPSS-2)
#Satellite: NOAA 21 (JPSS-2)
#Configuration: NOAA 21
#almurnet v.1.7.20240730
#Start time: 2026-01-18 01:29:31

#Version: 2.2.20231116
#Station: R2M6_AANII_01
#Location: 30.233357 lon 59.946436 lat
#TLE: 1 54234U 22150A   26017.26823908  .00000042  00000+0  40962-4 0  9992
#TLE: 2 54234  98.7501 318.1405 0000613 274.2947  85.8159 14.19535194165131

#Time	Az	El	Level	Level2	SNR	BER	BlckErr	Temp	State	Recorded	gain1	gain2
2026-01-18 01:29:31.36	13.05	6.97	-33.2	-44.3	3.8	1.49e+00	0	44	0	0	26	12944
2026-01-18 01:29:32.37	12.99	7.05	-32.2	-38.9	4.2	1.46e+00	0	44	104	0	25	7746
2026-01-18 01:29:33.37	12.94	7.12	-32.0	-37.8	6.2	3.10e-01	0	44	0	0	24	6974
2026-01-18 01:29:34.38	12.88	7.19	-31.8	-36.9	6.7	2.05e-01	0	44	0	3145728	24	6472
2026-01-18 01:29:35.38	12.83	7.26	-31.6	-36.4	7.4	1.34e-01	0	44	0	6291456	23	6270
2026-01-18 01:29:36.39	12.77	7.34	-31.4	-35.6	8.0	6.49e-02	0	44	0	9437184	23	5894
2026-01-18 01:29:37.40	12.71	7.41	-31.2	-35.6	8.4	6.90e-02	0	44	0	12582912	22	5962
2026-01-18 01:29:38.40	12.65	7.48	-30.9	-34.6	9.1	2.79e-02	0	44	0	15728640	22	5513
2026-01-18 01:29:39.41	12.59	7.56	-31.3	-36.0	8.0	4.59e-02	0	44	0	18874368	22	6176
2026-01-18 01:29:40.41	12.54	7.63	-30.9	-34.7	9.0	2.70e-02	0	44	0	22020096	22	5537
2026-01-18 01:29:41.41	12.48	7.71	-31.2	-35.7	8.3	4.39e-02	0	44	0	24117248	22	6004
2026-01-18 01:29:42.41	12.42	7.78	-31.1	-35.3	8.6	3.27e-02	0	44	0	27262976	22	5822
2026-01-18 01:29:43.42	12.36	7.85	-31.3	-36.1	8.0	6.93e-02	0	44	0	31457280	22	6204
2026-01-18 01:29:44.42	12.30	7.93	-31.3	-36.0	8.1	5.59e-02	0	44	0	34603008	22	6169
2026-01-18 01:29:45.43	12.24	8.00	-31.2	-35.5	8.5	4.43e-02	0	44	0	37748736	22	5915
2026-01-18 01:29:46.43	12.18	8.08	-31.3	-35.8	8.3	5.22e-02	0	44	0	40894464	22	6070
2026-01-18 01:29:47.44	12.12	8.15	-31.2	-35.7	8.4	5.20e-02	0	44	0	44040192	22	5980
2026-01-18 01:29:48.44	12.06	8.23	-31.1	-35.0	8.8	3.73e-02	0	44	0	47185920	22	5695
2026-01-18 01:29:49.44	12.00	8.30	-31.1	-35.2	8.7	2.66e-02	0	44	0	49283072	22	5778
2026-01-18 01:29:50.44	11.94	8.38	-31.0	-34.8	9.1	1.69e-02	0	44	0	52428800	22	5558
2026-01-18 01:29:51.44	11.88	8.45	-31.4	-36.2	8.2	2.91e-02	0	44	0	55574528	22	6210
2026-01-18 01:29:52.44	11.81	8.53	-31.2	-34.9	8.7	4.64e-02	0	44	0	58720256	23	5501
2026-01-18 01:29:53.45	11.75	8.61	-30.8	-34.1	9.7	1.56e-02	0	44	0	61865984	22	5252
2026-01-18 01:29:54.45	11.69	8.68	-30.3	-33.1	10.6	5.56e-03	0	44	0	65011712	21	5003
2026-01-18 01:29:55.45	11.63	8.76	-29.9	-32.6	11.3	2.17e-03	0	44	0	68157440	20	4925
2026-01-18 01:29:56.45	11.56	8.84	-29.8	-32.2	11.5	7.63e-04	0	44	0	71303168	20	4781
2026-01-18 01:29:57.46	11.50	8.91	-29.4	-31.8	12.3	1.66e-04	0	44	0	74448896	19	4718
2026-01-18 01:29:58.47	11.43	8.99	-29.4	-32.1	12.4	9.15e-05	0	44	0	77594624	18	4958
2026-01-18 01:29:59.47	11.37	9.07	-29.4	-32.3	12.2	1.51e-04	0	44	0	80740352	18	5027
2026-01-18 01:30:00.47	11.30	9.15	-29.5	-31.9	12.2	2.33e-04	0	44	0	83886080	19	4772
2026-01-18 01:30:01.48	11.24	9.22	-29.4	-31.7	12.4	1.85e-04	0	44	0	87031808	19	4688
2026-01-18 01:30:02.48	11.17	9.30	-29.5	-32.1	12.1	2.16e-04	0	44	0	90177536	19	4828
2026-01-18 01:30:03.49	11.11	9.38	-29.3	-31.4	12.6	1.72e-04	0	44	0	93323264	19	4599
2026-01-18 01:30:04.49	11.04	9.46	-29.3	-32.1	12.4	1.96e-04	0	44	0	96468992	18	4934
2026-01-18 01:30:05.49	10.97	9.54	-29.2	-31.8	12.6	1.28e-04	0	44	0	99614720	18	4822
2026-01-18 01:30:06.49	10.91	9.62	-29.3	-31.9	12.6	9.76e-05	0	44	0	102760448	18	4861
2026-01-18 01:30:07.50	10.84	9.70	-29.3	-32.0	12.5	1.32e-04	0	44	0	105906176	18	4918
2026-01-18 01:30:08.50	10.77	9.77	-29.5	-32.0	12.2	2.84e-04	0	44	0	109051904	19	4793
2026-01-18 01:30:09.50	10.70	9.85	-29.0	-30.8	13.0	5.03e-05	0	44	0	112197632	19	4408
2026-01-18 01:30:10.51	10.63	9.93	-28.9	-30.9	13.2	2.13e-05	0	44	0	115343360	18	4548
2026-01-18 01:30:11.51	10.56	10.01	-28.3	-30.5	13.0	1.69e-04	0	44	0	118489088	18	4665
2026-01-18 01:30:12.52	10.49	10.09	-28.9	-31.3	13.3	4.60e-03	0	44	0	121634816	17	4786
2026-01-18 01:30:13.52	10.42	10.17	-28.6	-30.7	13.6	9.90e-06	0	44	0	124780544	17	4594
2026-01-18 01:30:14.52	10.35	10.25	-28.4	-30.8	13.9	6.10e-06	0	44	0	127926272	16	4731
2026-01-18 01:30:15.52	10.28	10.34	-28.6	-30.8	13.6	7.60e-06	0	44	0	131072000	17	4613
2026-01-18 01:30:16.52	10.21	10.42	-28.6	-30.6	13.7	6.27e-04	0	44	0	134217728	17	4562
2026-01-18 01:30:17.53	10.14	10.50	-28.6	-30.7	13.6	4.38e-03	0	44	0	137363456	17	4596
2026-01-18 01:30:18.53	10.07	10.58	-28.6	-30.6	13.7	9.90e-06	0	44	0	140509184	17	4569
2026-01-18 01:30:19.54	10.00	10.66	-28.5	-30.5	13.8	6.80e-06	0	44	0	143654912	17	4526
2026-01-18 01:30:20.53	9.92	10.74	-28.5	-30.5	13.8	1.06e-05	0	44	0	146800640	17	4530
2026-01-18 01:30:21.53	9.85	10.82	-28.6	-30.7	13.7	4.36e-03	0	44	0	149946368	17	4576
2026-01-18 01:30:22.53	9.78	10.91	-28.6	-30.7	13.7	5.93e-04	0	44	0	153092096	17	4588
2026-01-18 01:30:23.53	9.70	10.99	-28.7	-31.0	13.6	6.80e-06	0	44	0	156237824	17	4663
2026-01-18 01:30:24.53	9.63	11.07	-28.5	-30.9	13.9	3.00e-06	0	44	0	159383552	16	4768
2026-01-18 01:30:25.53	9.55	11.15	-28.5	-30.6	13.8	1.50e-06	0	44	0	162529280	17	4542
2026-01-18 01:30:26.54	9.48	11.24	-28.4	-30.6	14.1	4.18e-03	0	44	0	165675008	16	4664
2026-01-18 01:30:27.53	9.40	11.32	-28.4	-30.7	14.1	3.91e-03	0	44	0	168820736	16	4680
2026-01-18 01:30:28.54	9.33	11.40	-28.5	-30.5	13.9	3.80e-04	0	44	0	171966464	17	4523
2026-01-18 01:30:29.55	9.25	11.49	-28.3	-30.4	14.2	7.00e-07	0	44	0	175112192	16	4605
2026-01-18 01:30:30.55	9.17	11.57	-28.2	-30.2	14.4	1.36e-04	0	44	0	178257920	16	4523
2026-01-18 01:30:31.55	9.09	11.66	-28.3	-30.5	14.2	4.98e-04	0	44	0	181403648	16	4615
2026-01-18 01:30:32.56	9.02	11.74	-28.3	-30.5	14.2	4.28e-03	0	44	0	184549376	16	4618
2026-01-18 01:30:33.56	8.94	11.83	-28.2	-30.2	14.4	4.09e-03	0	44	0	187695104	16	4520
2026-01-18 01:30:34.57	8.86	11.91	-28.1	-29.9	14.6	7.16e-04	0	44	0	190840832	16	4447
2026-01-18 01:30:35.57	8.78	12.00	-28.1	-29.9	14.6	4.08e-03	0	44	0	193986560	16	4439
2026-01-18 01:30:36.58	8.70	12.08	-28.4	-30.6	14.1	3.85e-03	0	44	0	197132288	16	4655
2026-01-18 01:30:37.59	8.62	12.17	-27.9	-30.2	14.6	4.67e-04	0	44	0	200278016	15	4646
2026-01-18 01:30:38.60	8.53	12.26	-28.3	-30.4	14.3	3.73e-03	0	44	0	203423744	16	4600
2026-01-18 01:30:39.60	8.45	12.34	-28.2	-30.2	14.4	4.16e-03	0	44	0	206569472	16	4526
2026-01-18 01:30:40.59	8.37	12.43	-28.2	-30.2	14.4	2.28e-04	0	44	0	209715200	16	4539
2026-01-18 01:30:41.59	8.29	12.51	-28.2	-30.3	14.4	4.30e-03	0	44	0	212860928	16	4562
2026-01-18 01:30:42.60	8.21	12.60	-28.2	-30.2	14.5	4.14e-03	0	44	0	216006656	16	4531
2026-01-18 01:30:43.61	8.12	12.69	-28.3	-30.5	14.3	4.73e-04	0	44	0	219152384	16	4613
2026-01-18 01:30:44.61	8.04	12.78	-28.2	-30.3	14.4	4.66e-03	0	44	0	222298112	16	4553
2026-01-18 01:30:45.61	7.95	12.87	-28.0	-30.2	14.5	0.00e+00	0	44	0	225443840	15	4650
2026-01-18 01:30:46.62	7.87	12.95	-27.9	-30.1	14.6	2.36e-04	0	44	0	228589568	15	4615
2026-01-18 01:30:47.62	7.78	13.04	-27.8	-29.7	14.8	3.75e-03	0	44	0	231735296	15	4513
2026-01-18 01:30:48.62	7.70	13.13	-27.8	-29.9	14.8	4.15e-03	0	44	0	234881024	15	4551
2026-01-18 01:30:49.63	7.61	13.22	-27.7	-29.7	14.9	3.58e-04	0	44	0	238026752	15	4496
2026-01-18 01:30:50.63	7.52	13.31	-27.6	-29.3	15.1	1.17e-04	0	44	0	241172480	15	4397
2026-01-18 01:30:51.63	7.43	13.40	-27.8	-29.8	14.8	0.00e+00	0	44	0	244318208	15	4519
2026-01-18 01:30:52.64	7.34	13.49	-27.7	-29.6	14.9	3.41e-04	0	44	0	247463936	15	4472
2026-01-18 01:30:53.65	7.25	13.58	-27.6	-29.4	15.1	4.00e-03	0	44	0	250609664	15	4419
2026-01-18 01:30:54.65	7.16	13.67	-27.8	-29.8	14.9	0.00e+00	0	44	0	253755392	15	4526
2026-01-18 01:30:55.65	7.07	13.76	-27.7	-29.6	15.0	2.38e-04	0	44	0	256901120	15	4476
2026-01-18 01:30:56.66	6.98	13.85	-27.6	-29.3	15.1	2.39e-04	0	44	0	260046848	15	4399
2026-01-18 01:30:57.66	6.89	13.94	-27.8	-29.9	14.8	0.00e+00	0	44	0	263192576	15	4558
2026-01-18 01:30:58.66	6.80	14.03	-27.6	-29.4	15.1	2.02e-04	0	44	0	266338304	15	4421
2026-01-18 01:30:59.67	6.71	14.12	-27.7	-29.5	15.0	2.67e-05	0	44	0	269484032	15	4443
2026-01-18 01:31:00.67	6.61	14.21	-27.7	-29.5	15.0	0.00e+00	0	44	0	272629760	15	4449
2026-01-18 01:31:01.68	6.52	14.31	-27.7	-29.6	15.0	8.30e-06	0	44	0	275775488	15	4483
2026-01-18 01:31:02.68	6.43	14.40	-27.7	-29.6	15.0	7.60e-06	0	44	0	278921216	15	4482
2026-01-18 01:31:03.69	6.33	14.49	-27.8	-29.8	14.9	0.00e+00	0	44	0	282066944	15	4524
2026-01-18 01:31:04.69	6.23	14.59	-27.7	-29.5	15.1	1.51e-04	0	44	0	285212672	15	4453
2026-01-18 01:31:05.69	6.14	14.68	-27.8	-29.9	14.9	2.17e-04	0	44	0	288358400	15	4549
2026-01-18 01:31:06.70	6.04	14.77	-27.7	-29.6	15.0	0.00e+00	0	44	0	291504128	15	4473
2026-01-18 01:31:07.71	5.94	14.87	-27.7	-29.6	15.1	3.58e-04	0	44	0	294649856	15	4471
2026-01-18 01:31:08.71	5.85	14.96	-27.8	-29.7	15.0	4.36e-04	0	44	0	297795584	15	4506
2026-01-18 01:31:09.71	5.75	15.05	-27.8	-29.8	15.0	0.00e+00	0	44	0	300941312	15	4532
2026-01-18 01:31:10.72	5.65	15.15	-27.8	-29.8	14.9	0.00e+00	0	44	0	304087040	15	4523
2026-01-18 01:31:11.73	5.55	15.24	-27.7	-29.5	15.1	3.17e-04	0	44	0	307232768	15	4436
2026-01-18 01:31:12.73	5.45	15.34	-27.8	-29.9	14.9	0.00e+00	0	44	0	310378496	15	4552
2026-01-18 01:31:13.72	5.35	15.43	-27.8	-29.7	15.0	2.82e-04	0	44	0	313524224	15	4502
2026-01-18 01:31:14.72	5.24	15.53	-27.8	-29.7	15.0	0.00e+00	0	44	0	316669952	15	4498
2026-01-18 01:31:15.72	5.14	15.62	-27.8	-29.8	14.9	0.00e+00	0	44	0	319815680	15	4536
2026-01-18 01:31:16.72	5.04	15.72	-27.9	-30.0	14.9	2.85e-04	0	44	0	322961408	15	4573
2026-01-18 01:31:17.72	4.93	15.82	-28.2	-30.1	14.7	3.26e-04	0	44	0	326107136	16	4490
2026-01-18 01:31:18.73	4.83	15.91	-28.2	-30.2	14.6	7.00e-07	0	44	0	329252864	16	4518
2026-01-18 01:31:19.74	4.72	16.01	-28.1	-30.0	14.7	0.00e+00	0	44	0	332398592	16	4455
2026-01-18 01:31:20.74	4.62	16.11	-28.2	-30.0	14.8	0.00e+00	0	44	0	335544320	16	4467
2026-01-18 01:31:21.74	4.51	16.21	-28.2	-30.1	14.7	0.00e+00	0	44	0	338690048	16	4488
2026-01-18 01:31:22.75	4.40	16.30	-28.1	-30.0	14.8	3.81e-05	0	44	0	341835776	16	4452
2026-01-18 01:31:23.75	4.29	16.40	-28.1	-29.9	14.8	1.50e-06	0	44	0	344981504	16	4424
2026-01-18 01:31:24.76	4.18	16.50	-27.9	-30.1	14.9	0.00e+00	0	44	0	348127232	15	4598
2026-01-18 01:31:25.77	4.07	16.60	-28.2	-30.0	14.8	0.00e+00	0	44	0	351272960	16	4468
2026-01-18 01:31:26.78	3.96	16.70	-28.2	-30.1	14.8	0.00e+00	0	44	0	354418688	16	4473
2026-01-18 01:31:27.78	3.85	16.80	-28.1	-29.9	14.8	0.00e+00	0	44	0	357564416	16	4435
2026-01-18 01:31:28.78	3.74	16.90	-28.1	-29.9	14.9	0.00e+00	0	44	0	360710144	16	4418
2026-01-18 01:31:29.79	3.62	17.00	-28.1	-29.9	14.8	0.00e+00	0	44	0	363855872	16	4441
2026-01-18 01:31:30.79	3.51	17.10	-28.1	-30.0	14.8	7.00e-07	0	44	0	367001600	16	4446
2026-01-18 01:31:31.80	3.40	17.20	-28.1	-29.9	14.9	0.00e+00	0	44	0	370147328	16	4430
2026-01-18 01:31:32.80	3.28	17.30	-28.2	-30.1	14.8	0.00e+00	0	44	0	372244480	16	4479
2026-01-18 01:31:33.80	3.16	17.40	-28.2	-30.0	14.8	0.00e+00	0	44	0	375390208	16	4461
2026-01-18 01:31:34.80	3.05	17.50	-28.2	-30.0	14.8	0.00e+00	0	44	0	378535936	16	4462
2026-01-18 01:31:35.80	2.93	17.60	-28.1	-29.9	14.9	0.00e+00	0	44	0	381681664	16	4428
2026-01-18 01:31:36.81	2.81	17.71	-28.0	-30.2	14.8	7.00e-07	0	44	0	384827392	15	4633
2026-01-18 01:31:37.81	2.69	17.81	-27.9	-30.0	14.9	0.00e+00	0	44	0	387973120	15	4573
2026-01-18 01:31:38.81	2.57	17.91	-28.0	-30.1	14.9	0.00e+00	0	44	0	391118848	15	4618
2026-01-18 01:31:39.81	2.45	18.01	-28.0	-29.7	15.0	0.00e+00	0	44	0	394264576	16	4378
2026-01-18 01:31:40.81	2.33	18.12	-28.1	-29.9	14.9	0.00e+00	0	44	0	397410304	16	4421
2026-01-18 01:31:41.82	2.21	18.22	-28.1	-29.8	14.9	7.00e-07	0	44	0	400556032	16	4407
2026-01-18 01:31:42.82	2.08	18.32	-27.9	-30.0	14.9	0.00e+00	0	44	0	403701760	15	4591
2026-01-18 01:31:43.82	1.96	18.43	-28.0	-30.2	14.9	0.00e+00	0	44	0	406847488	15	4626
2026-01-18 01:31:44.82	1.83	18.53	-28.2	-30.2	14.7	0.00e+00	0	44	0	409993216	16	4508
2026-01-18 01:31:45.82	1.71	18.63	-28.3	-30.3	14.6	0.00e+00	0	44	0	413138944	16	4548
2026-01-18 01:31:46.82	1.58	18.74	-28.6	-30.5	14.3	0.00e+00	0	44	0	416284672	17	4489
2026-01-18 01:31:47.82	1.45	18.84	-28.5	-30.2	14.4	7.00e-07	0	44	0	419430400	17	4409
2026-01-18 01:31:48.82	1.33	18.95	-28.4	-30.6	14.5	7.00e-07	0	44	0	422576128	16	4647
2026-01-18 01:31:49.82	1.20	19.05	-28.3	-30.4	14.7	7.00e-07	0	44	0	425721856	16	4567
2026-01-18 01:31:50.81	1.07	19.16	-28.3	-30.2	14.7	0.00e+00	0	44	0	428867584	16	4525
2026-01-18 01:31:51.81	0.94	19.27	-28.2	-30.1	14.8	0.00e+00	0	44	0	432013312	16	4480
2026-01-18 01:31:52.81	0.80	19.37	-28.3	-30.2	14.8	0.00e+00	0	44	0	435159040	16	4523
2026-01-18 01:31:53.81	0.67	19.48	-28.0	-29.6	15.1	0.00e+00	0	44	0	438304768	16	4352
2026-01-18 01:31:54.80	0.54	19.58	-27.6	-29.2	15.4	0.00e+00	0	44	0	441450496	15	4353
2026-01-18 01:31:55.81	0.40	19.69	-27.6	-29.3	15.4	0.00e+00	0	44	0	444596224	15	4366
2026-01-18 01:31:56.81	0.27	19.80	-27.5	-29.1	15.5	0.00e+00	0	44	0	447741952	15	4319
2026-01-18 01:31:57.82	0.13	19.91	-27.3	-29.2	15.5	0.00e+00	0	44	0	450887680	14	4513
2026-01-18 01:31:58.82	359.99	20.02	-27.5	-29.1	13.1	0.00e+00	0	44	0	454033408	15	4312
2026-01-18 01:31:59.83	359.85	20.13	-27.9	-29.8	13.2	0.00e+00	0	44	0	457179136	15	4526
2026-01-18 01:32:00.83	359.71	20.23	-27.6	-29.3	15.4	0.00e+00	0	44	0	460324864	15	4364
2026-01-18 01:32:01.83	359.57	20.34	-27.4	-29.3	15.6	0.00e+00	0	44	0	463470592	14	4494
2026-01-18 01:32:02.83	359.42	20.45	-27.6	-29.2	15.5	0.00e+00	0	44	0	466616320	15	4345
2026-01-18 01:32:03.83	359.28	20.56	-27.8	-29.7	15.2	0.00e+00	0	44	0	469762048	15	4479
2026-01-18 01:32:04.83	359.14	20.67	-27.6	-29.3	15.5	0.00e+00	0	44	0	472907776	15	4360
2026-01-18 01:32:05.83	358.99	20.78	-27.6	-29.2	15.5	7.00e-07	0	44	0	476053504	15	4352
2026-01-18 01:32:06.83	358.85	20.89	-27.5	-29.0	15.6	5.35e-04	0	44	0	479199232	15	4291
2026-01-18 01:32:07.84	358.70	21.00	-27.6	-29.4	15.4	0.00e+00	0	44	0	482344960	15	4385
2026-01-18 01:32:08.83	358.55	21.11	-27.5	-29.0	15.6	0.00e+00	0	44	0	485490688	15	4293
2026-01-18 01:32:09.83	358.40	21.23	-27.6	-29.3	15.4	0.00e+00	0	44	0	488636416	15	4385
2026-01-18 01:32:10.84	358.25	21.34	-27.3	-29.1	15.8	2.75e-03	0	44	0	491782144	14	4438
2026-01-18 01:32:11.85	358.09	21.45	-27.2	-28.8	16.0	3.97e-03	0	44	0	494927872	14	4343
2026-01-18 01:32:12.85	357.94	21.56	-27.0	-28.4	16.2	0.00e+00	0	44	0	498073600	14	4237
2026-01-18 01:32:13.86	357.79	21.68	-27.1	-28.6	16.1	0.00e+00	0	44	0	501219328	14	4277
2026-01-18 01:32:14.86	357.63	21.79	-27.0	-28.9	16.2	0.00e+00	0	44	0	504365056	13	4477
2026-01-18 01:32:15.87	357.47	21.90	-27.1	-28.7	16.1	6.64e-04	0	44	0	507510784	14	4310
2026-01-18 01:32:16.88	357.31	22.02	-27.4	-29.3	15.7	3.67e-03	0	44	0	510656512	14	4494
2026-01-18 01:32:17.87	357.16	22.13	-27.3	-29.1	15.8	4.11e-03	0	44	0	513802240	14	4423
2026-01-18 01:32:18.88	356.99	22.24	-27.1	-28.7	16.1	6.67e-04	0	44	0	516947968	14	4308
2026-01-18 01:32:19.88	356.83	22.36	-27.0	-28.5	16.2	0.00e+00	0	44	0	520093696	14	4249
2026-01-18 01:32:20.88	356.67	22.47	-27.0	-28.3	16.3	3.86e-03	0	44	0	523239424	14	4209
2026-01-18 01:32:21.89	356.51	22.59	-27.0	-28.5	16.2	5.93e-04	0	44	0	526385152	14	4252
2026-01-18 01:32:22.90	356.34	22.70	-26.8	-28.5	16.4	3.73e-03	0	44	0	529530880	13	4372
2026-01-18 01:32:23.89	356.17	22.82	-26.9	-28.7	16.3	3.36e-03	0	44	0	532676608	13	4426
2026-01-18 01:32:24.89	356.01	22.93	-26.8	-28.5	16.4	0.00e+00	0	44	0	535822336	13	4380
2026-01-18 01:32:25.90	355.84	23.05	-27.0	-28.4	16.3	3.38e-03	0	44	0	538968064	14	4241
2026-01-18 01:32:26.90	355.67	23.17	-26.9	-28.6	16.4	3.87e-03	0	44	0	542113792	13	4408
2026-01-18 01:32:27.91	355.49	23.28	-27.0	-28.9	16.3	3.59e-04	0	44	0	545259520	13	4475
2026-01-18 01:32:28.92	355.32	23.40	-26.9	-28.8	16.3	3.95e-03	0	44	0	548405248	13	4441
2026-01-18 01:32:29.92	355.15	23.52	-26.9	-28.7	16.3	3.53e-03	0	44	0	551550976	13	4437
2026-01-18 01:32:30.93	354.97	23.63	-26.9	-28.7	16.4	4.52e-04	0	44	0	554696704	13	4423
2026-01-18 01:32:31.93	354.79	23.75	-27.1	-28.5	16.2	3.38e-03	0	44	0	557842432	14	4265
2026-01-18 01:32:32.94	354.61	23.87	-27.2	-28.7	16.1	3.17e-03	0	44	0	560988160	14	4322
2026-01-18 01:32:33.95	354.43	23.99	-27.1	-28.7	16.1	4.94e-04	0	44	0	564133888	14	4311
2026-01-18 01:32:34.95	354.25	24.11	-27.0	-28.3	16.4	0.00e+00	0	44	0	567279616	14	4202
2026-01-18 01:32:35.95	354.07	24.22	-27.1	-28.6	16.2	0.00e+00	0	44	0	570425344	14	4282
2026-01-18 01:32:36.96	353.88	24.34	-27.1	-28.5	16.3	5.58e-04	0	44	0	573571072	14	4260
2026-01-18 01:32:37.96	353.70	24.46	-27.2	-28.7	16.1	2.97e-03	0	44	0	576716800	14	4310
2026-01-18 01:32:38.97	353.51	24.58	-27.1	-28.7	16.2	2.99e-03	0	44	0	579862528	14	4294
2026-01-18 01:32:39.97	353.32	24.70	-27.1	-28.7	16.2	0.00e+00	0	44	0	583008256	14	4301
2026-01-18 01:32:40.97	353.13	24.82	-27.2	-28.9	16.0	0.00e+00	0	44	0	586153984	14	4372
2026-01-18 01:32:41.98	352.94	24.94	-27.5	-29.5	15.7	0.00e+00	0	44	0	589299712	14	4528
2026-01-18 01:32:42.98	352.75	25.06	-27.4	-29.3	15.8	4.21e-04	0	44	0	592445440	14	4466
2026-01-18 01:32:43.98	352.56	25.18	-27.5	-29.4	15.8	2.57e-03	0	44	0	595591168	14	4514
2026-01-18 01:32:44.98	352.36	25.30	-27.5	-29.0	15.7	0.00e+00	0	44	0	598736896	15	4291
2026-01-18 01:32:45.99	352.16	25.42	-27.7	-29.4	15.5	0.00e+00	0	44	0	601882624	15	4399
2026-01-18 01:32:46.99	351.96	25.54	-27.8	-29.6	15.4	0.00e+00	0	44	0	605028352	15	4463
2026-01-18 01:32:48.00	351.76	25.66	-27.8	-29.7	15.3	0.00e+00	0	44	0	608174080	15	4484
2026-01-18 01:32:49.01	351.56	25.78	-27.6	-29.2	15.6	1.01e-04	0	44	0	611319808	15	4344
2026-01-18 01:32:50.01	351.36	25.90	-27.4	-28.7	15.9	0.00e+00	0	44	0	614465536	15	4206
2026-01-18 01:32:51.01	351.15	26.02	-27.4	-29.3	15.8	0.00e+00	0	44	0	617611264	14	4477
2026-01-18 01:32:52.01	350.95	26.14	-27.2	-28.9	16.1	0.00e+00	0	44	0	620756992	14	4355
2026-01-18 01:32:53.02	350.74	26.26	-27.2	-28.8	16.1	0.00e+00	0	44	0	623902720	14	4321
2026-01-18 01:32:54.02	350.53	26.38	-27.4	-29.3	15.8	0.00e+00	0	44	0	627048448	14	4476
2026-01-18 01:32:55.02	350.32	26.51	-27.3	-29.1	15.9	0.00e+00	0	44	0	630194176	14	4432
2026-01-18 01:32:56.03	350.10	26.63	-27.6	-29.2	15.6	0.00e+00	0	44	0	633339904	15	4334
2026-01-18 01:32:57.03	349.89	26.75	-27.6	-29.3	15.6	0.00e+00	0	44	0	636485632	15	4365
2026-01-18 01:32:58.03	349.67	26.87	-27.7	-29.4	15.5	0.00e+00	0	44	0	639631360	15	4400
2026-01-18 01:32:59.04	349.45	26.99	-27.6	-29.3	15.6	0.00e+00	0	44	0	642777088	15	4371
2026-01-18 01:33:00.04	349.23	27.11	-27.5	-29.0	15.7	0.00e+00	0	44	0	645922816	15	4281
2026-01-18 01:33:01.05	349.01	27.24	-27.4	-29.3	15.9	0.00e+00	0	44	0	649068544	14	4476
2026-01-18 01:33:02.05	348.79	27.36	-27.5	-29.5	15.8	0.00e+00	0	44	0	651165696	14	4525
2026-01-18 01:33:03.06	348.56	27.48	-27.5	-29.1	15.7	0.00e+00	0	44	0	654311424	15	4291
2026-01-18 01:33:04.07	348.33	27.60	-27.8	-29.7	15.4	0.00e+00	0	44	0	658505728	15	4464
2026-01-18 01:33:05.07	348.10	27.73	-27.7	-29.4	15.5	0.00e+00	0	44	0	661651456	15	4394
2026-01-18 01:33:06.07	347.87	27.85	-27.6	-29.3	15.6	0.00e+00	0	44	0	664797184	15	4366
2026-01-18 01:33:07.08	347.64	27.97	-27.8	-29.7	15.4	0.00e+00	0	44	0	667942912	15	4465
2026-01-18 01:33:08.09	347.41	28.09	-27.9	-29.9	15.3	6.10e-06	0	44	0	671088640	15	4526
2026-01-18 01:33:09.09	347.17	28.22	-27.9	-30.0	15.2	0.00e+00	0	44	0	673185792	15	4560
2026-01-18 01:33:10.09	346.93	28.34	-27.9	-29.9	15.3	3.29e-04	0	44	0	676331520	15	4530
2026-01-18 01:33:11.08	346.70	28.46	-27.9	-29.8	15.4	0.00e+00	0	44	0	679477248	15	4510
2026-01-18 01:33:12.08	346.46	28.58	-28.2	-30.0	15.1	0.00e+00	0	44	0	682622976	16	4432
2026-01-18 01:33:13.08	346.21	28.70	-28.1	-29.8	15.2	1.14e-03	0	44	0	685768704	16	4372
2026-01-18 01:33:14.09	345.97	28.82	-28.2	-30.1	15.0	1.11e-03	0	44	0	688914432	16	4483
2026-01-18 01:33:15.08	345.72	28.95	-28.4	-30.6	14.8	0.00e+00	0	44	0	692060160	16	4629
2026-01-18 01:33:16.09	345.47	29.07	-28.5	-30.2	14.7	0.00e+00	0	44	0	695205888	17	4396
2026-01-18 01:33:17.09	345.22	29.19	-28.5	-30.7	14.7	0.00e+00	0	44	0	698351616	16	4660
2026-01-18 01:33:18.09	344.97	29.31	-28.4	-30.6	14.8	0.00e+00	0	44	0	701497344	16	4611
2026-01-18 01:33:19.09	344.72	29.43	-28.5	-30.6	14.7	1.38e-03	0	44	0	704643072	16	4635
2026-01-18 01:33:20.09	344.46	29.55	-28.6	-30.5	14.5	6.63e-04	0	44	0	707788800	17	4475
2026-01-18 01:33:21.10	344.20	29.68	-28.3	-29.7	15.0	0.00e+00	0	44	0	710934528	17	4258
2026-01-18 01:33:22.10	343.94	29.80	-28.5	-30.2	14.7	0.00e+00	0	44	0	714080256	17	4396
2026-01-18 01:33:23.11	343.68	29.92	-28.1	-29.9	15.2	7.35e-04	0	44	0	717225984	16	4398
2026-01-18 01:33:24.11	343.41	30.04	-28.1	-29.9	15.1	0.00e+00	0	44	0	720371712	16	4420
2026-01-18 01:33:25.11	343.15	30.16	-28.0	-29.6	15.3	1.38e-04	0	44	0	723517440	16	4325
2026-01-18 01:33:26.11	342.88	30.28	-28.0	-30.0	15.2	0.00e+00	0	44	0	726663168	15	4573
2026-01-18 01:33:27.11	342.61	30.40	-27.9	-29.9	15.3	0.00e+00	0	44	0	729808896	15	4546
2026-01-18 01:33:28.11	342.34	30.52	-28.4	-30.5	14.8	7.00e-07	0	44	0	732954624	16	4581
2026-01-18 01:33:29.12	342.06	30.64	-28.1	-29.8	15.2	0.00e+00	0	44	0	736100352	16	4380
2026-01-18 01:33:30.12	341.79	30.76	-28.0	-29.6	15.3	7.00e-07	0	44	0	739246080	16	4320
2026-01-18 01:33:31.11	341.51	30.88	-27.9	-29.9	15.3	0.00e+00	0	44	0	742391808	15	4542
2026-01-18 01:33:32.11	341.23	31.00	-28.2	-30.1	15.0	0.00e+00	0	44	0	745537536	16	4473
2026-01-18 01:33:33.11	340.95	31.11	-28.1	-29.9	15.2	0.00e+00	0	44	0	748683264	16	4405
2026-01-18 01:33:34.10	340.67	31.23	-28.2	-30.0	15.1	4.90e-04	0	44	0	751828992	16	4446
2026-01-18 01:33:35.11	340.38	31.35	-28.2	-30.0	15.1	0.00e+00	0	44	0	754974720	16	4434
2026-01-18 01:33:36.11	340.09	31.47	-28.2	-30.0	15.1	0.00e+00	0	44	0	758120448	16	4450
2026-01-18 01:33:37.11	339.80	31.58	-28.3	-30.3	15.0	0.00e+00	0	44	0	761266176	16	4518
2026-01-18 01:33:38.11	339.51	31.70	-28.3	-30.2	15.0	0.00e+00	0	44	0	764411904	16	4509
2026-01-18 01:33:39.12	339.21	31.82	-28.1	-29.9	15.1	0.00e+00	0	44	0	767557632	16	4418
2026-01-18 01:33:40.12	338.91	31.93	-28.0	-29.6	15.3	0.00e+00	0	44	0	770703360	16	4324
2026-01-18 01:33:41.13	338.61	32.05	-27.9	-29.8	15.3	0.00e+00	0	44	0	773849088	15	4513
2026-01-18 01:33:42.13	338.31	32.17	-27.5	-29.0	15.7	0.00e+00	0	44	0	776994816	15	4291
2026-01-18 01:33:43.14	338.00	32.28	-27.6	-29.1	15.7	0.00e+00	0	44	0	780140544	15	4308
2026-01-18 01:33:44.13	337.70	32.39	-27.7	-29.6	15.4	0.00e+00	0	44	0	783286272	15	4432
2026-01-18 01:33:45.13	337.39	32.51	-27.8	-29.7	15.3	0.00e+00	0	44	0	786432000	15	4490
2026-01-18 01:33:46.13	337.08	32.62	-27.9	-30.0	15.2	0.00e+00	0	44	0	789577728	15	4579
2026-01-18 01:33:47.13	336.77	32.73	-27.4	-29.1	15.5	0.00e+00	0	44	0	792723456	15	4353
2026-01-18 01:33:48.13	336.46	32.85	-27.6	-29.8	15.1	0.00e+00	0	44	0	795869184	14	4609
2026-01-18 01:33:49.14	336.14	32.96	-27.8	-29.7	13.5	0.00e+00	0	44	0	799014912	15	4460
2026-01-18 01:33:50.14	335.82	33.07	-27.8	-29.8	14.2	0.00e+00	0	44	0	802160640	15	4496
2026-01-18 01:33:51.14	335.50	33.18	-28.3	-30.3	14.9	0.00e+00	0	44	0	805306368	16	4536
2026-01-18 01:33:52.15	335.17	33.29	-28.3	-30.2	14.9	0.00e+00	0	44	0	808452096	16	4493
2026-01-18 01:33:53.15	334.85	33.40	-28.5	-30.2	14.7	7.00e-07	0	44	0	811597824	17	4375
2026-01-18 01:33:54.15	334.52	33.51	-28.3	-30.3	14.9	0.00e+00	0	44	0	814743552	16	4531
2026-01-18 01:33:55.16	334.19	33.62	-28.3	-30.2	15.0	0.00e+00	0	44	0	817889280	16	4483
2026-01-18 01:33:56.16	333.85	33.72	-28.4	-30.5	14.8	0.00e+00	0	44	0	821035008	16	4591
2026-01-18 01:33:57.16	333.52	33.83	-28.4	-30.6	14.8	1.69e-04	0	44	0	824180736	16	4603
2026-01-18 01:33:58.17	333.18	33.94	-28.6	-30.5	14.6	7.00e-07	0	44	0	827326464	17	4462
2026-01-18 01:33:59.17	332.84	34.04	-28.5	-30.3	14.7	0.00e+00	0	44	0	830472192	17	4402
2026-01-18 01:34:00.18	332.50	34.14	-28.5	-30.2	14.7	2.56e-04	0	44	0	833617920	17	4383
2026-01-18 01:34:01.18	332.15	34.25	-28.5	-30.3	14.7	3.76e-03	0	44	0	836763648	17	4415
2026-01-18 01:34:02.18	331.81	34.35	-28.7	-30.7	14.5	3.35e-03	0	44	0	839909376	17	4519
2026-01-18 01:34:03.18	331.46	34.45	-28.5	-30.3	14.7	7.00e-07	0	44	0	843055104	17	4418
2026-01-18 01:34:04.19	331.11	34.55	-28.8	-30.9	14.3	7.00e-07	0	44	0	846200832	17	4584
2026-01-18 01:34:05.19	330.76	34.65	-28.5	-30.3	14.7	2.01e-03	0	44	0	849346560	17	4427
2026-01-18 01:34:06.19	330.40	34.75	-28.5	-30.3	14.7	0.00e+00	0	44	0	852492288	17	4403
2026-01-18 01:34:07.20	330.04	34.85	-28.4	-30.6	14.8	2.72e-03	0	44	0	855638016	16	4616
2026-01-18 01:34:08.20	329.69	34.95	-28.6	-30.5	14.6	0.00e+00	0	44	0	858783744	17	4468
2026-01-18 01:34:09.21	329.32	35.04	-28.6	-30.6	14.5	0.00e+00	0	44	0	861929472	17	4500
2026-01-18 01:34:10.20	328.96	35.14	-28.7	-30.7	14.4	2.75e-03	0	44	0	865075200	17	4546
2026-01-18 01:34:11.20	328.60	35.23	-28.6	-30.5	14.5	2.22e-03	0	44	0	868220928	17	4485
2026-01-18 01:34:12.21	328.23	35.32	-28.8	-30.9	14.3	9.76e-05	0	44	0	871366656	17	4588
2026-01-18 01:34:13.21	327.86	35.41	-28.7	-30.6	14.5	2.15e-03	0	44	0	874512384	17	4515
2026-01-18 01:34:14.22	327.49	35.51	-28.7	-30.6	14.4	2.71e-03	0	44	0	877658112	17	4522
2026-01-18 01:34:15.23	327.11	35.60	-28.6	-30.4	14.6	7.00e-07	0	44	0	880803840	17	4455
2026-01-18 01:34:16.23	326.73	35.68	-28.3	-30.3	15.0	3.62e-03	0	44	0	883949568	16	4520
2026-01-18 01:34:17.24	326.35	35.77	-28.3	-30.4	14.9	3.76e-03	0	44	0	887095296	16	4554
2026-01-18 01:34:18.24	325.97	35.86	-28.4	-30.5	14.8	2.52e-04	0	44	0	890241024	16	4573
2026-01-18 01:34:19.24	325.59	35.94	-28.5	-30.3	14.6	3.72e-03	0	44	0	893386752	17	4426
2026-01-18 01:34:20.24	325.21	36.02	-28.7	-30.8	14.4	3.46e-03	0	44	0	896532480	17	4564
2026-01-18 01:34:21.24	324.82	36.11	-28.7	-30.8	14.4	4.22e-04	0	44	0	899678208	17	4561
2026-01-18 01:34:22.24	324.44	36.19	-28.6	-30.6	14.5	3.52e-03	0	44	0	902823936	17	4491
2026-01-18 01:34:23.25	324.04	36.27	-28.7	-30.7	14.4	4.02e-03	0	44	0	904921088	17	4536
2026-01-18 01:34:24.25	323.65	36.35	-28.8	-31.0	14.2	8.31e-05	0	44	0	908066816	17	4634
2026-01-18 01:34:25.25	323.26	36.42	-28.9	-31.2	14.1	7.00e-07	0	44	0	911212544	17	4684
2026-01-18 01:34:26.25	322.87	36.50	-29.1	-31.2	13.8	3.86e-03	0	44	0	914358272	18	4591
2026-01-18 01:34:27.26	322.47	36.57	-29.2	-31.4	13.8	2.38e-04	0	44	0	917504000	18	4627
2026-01-18 01:34:28.26	322.07	36.64	-29.0	-30.8	14.0	4.03e-03	0	44	0	920649728	18	4457
2026-01-18 01:34:29.27	321.66	36.72	-28.8	-31.0	14.2	3.00e-06	0	44	0	924844032	17	4628
2026-01-18 01:34:30.27	321.26	36.79	-28.9	-31.1	14.2	1.50e-06	0	44	0	926941184	17	4659
2026-01-18 01:34:31.28	320.85	36.85	-28.9	-31.3	14.1	2.20e-06	0	44	0	930086912	17	4710
2026-01-18 01:34:32.29	320.44	36.92	-29.1	-31.3	13.8	3.85e-03	0	44	0	933232640	18	4593
2026-01-18 01:34:33.29	320.04	36.99	-29.3	-31.5	13.6	1.83e-05	0	44	0	936378368	18	4669
2026-01-18 01:34:34.29	319.63	37.05	-28.8	-30.9	14.3	7.00e-07	0	44	0	939524096	17	4603
2026-01-18 01:34:35.29	319.22	37.11	-28.5	-30.3	14.6	0.00e+00	0	44	0	942669824	17	4412
2026-01-18 01:34:36.30	318.80	37.17	-28.6	-30.3	14.6	1.50e-06	0	44	0	945815552	17	4427
2026-01-18 01:34:37.30	318.39	37.23	-28.6	-30.5	14.6	3.09e-03	0	44	0	948961280	17	4456
2026-01-18 01:34:38.30	317.98	37.29	-28.6	-30.5	14.5	2.47e-03	0	44	0	952107008	17	4456
2026-01-18 01:34:39.31	317.56	37.35	-28.5	-30.3	14.4	0.00e+00	0	44	0	955252736	17	4437
2026-01-18 01:34:40.31	317.14	37.40	-28.5	-30.3	14.4	0.00e+00	0	44	0	958398464	17	4412
2026-01-18 01:34:41.32	316.71	37.45	-28.7	-30.6	14.5	7.00e-07	0	44	0	961544192	17	4500
2026-01-18 01:34:42.32	316.29	37.50	-28.9	-31.1	14.2	6.56e-05	0	44	0	964689920	17	4657
2026-01-18 01:34:43.32	315.87	37.55	-29.1	-31.2	13.8	2.51e-05	0	44	0	967835648	18	4573
2026-01-18 01:34:44.32	315.45	37.60	-29.4	-31.9	13.5	5.30e-06	0	44	0	970981376	18	4795
2026-01-18 01:34:45.31	315.03	37.65	-29.3	-31.7	13.5	1.22e-05	0	44	0	974127104	18	4741
2026-01-18 01:34:46.32	314.60	37.69	-29.3	-31.6	13.6	6.10e-06	0	44	0	977272832	18	4705
2026-01-18 01:34:47.32	314.17	37.73	-29.0	-30.9	14.0	1.50e-06	0	44	0	980418560	18	4481
2026-01-18 01:34:48.33	313.74	37.77	-28.9	-31.1	14.2	1.86e-04	0	44	0	983564288	17	4662
2026-01-18 01:34:49.33	313.31	37.81	-28.8	-31.1	14.2	0.00e+00	0	44	0	986710016	17	4643
2026-01-18 01:34:50.33	312.88	37.85	-28.8	-30.9	14.3	7.00e-07	0	44	0	989855744	17	4586
2026-01-18 01:34:51.34	312.45	37.88	-28.7	-30.6	14.5	0.00e+00	0	44	0	993001472	17	4509
2026-01-18 01:34:52.34	312.02	37.92	-28.8	-31.0	14.3	3.11e-04	0	44	0	996147200	17	4610
2026-01-18 01:34:53.35	311.58	37.95	-29.0	-31.0	14.0	3.00e-06	0	44	0	999292928	18	4512
2026-01-18 01:34:54.35	311.15	37.98	-29.0	-30.9	14.0	4.72e-04	0	44	0	1002438656	18	4479
2026-01-18 01:34:55.35	310.71	38.00	-29.0	-31.0	14.0	7.00e-07	0	44	0	1005584384	18	4509
2026-01-18 01:34:56.34	310.28	38.03	-29.0	-30.9	14.0	7.00e-07	0	44	0	1008730112	18	4482
2026-01-18 01:34:57.35	309.84	38.05	-29.0	-31.0	14.0	1.06e-03	0	44	0	1011875840	18	4523
2026-01-18 01:34:58.36	309.40	38.08	-29.2	-31.5	13.7	1.78e-03	0	44	0	1015021568	18	4668
2026-01-18 01:34:59.36	308.97	38.10	-29.4	-31.9	13.5	4.50e-06	0	44	0	1018167296	18	4791
2026-01-18 01:35:00.36	308.53	38.11	-29.4	-31.4	13.4	1.22e-05	0	44	0	1021313024	19	4530
2026-01-18 01:35:01.36	308.09	38.13	-29.2	-31.4	13.7	6.80e-06	0	44	0	1024458752	18	4623
2026-01-18 01:35:02.36	307.65	38.15	-29.1	-31.3	13.8	3.00e-06	0	44	0	1027604480	18	4592
2026-01-18 01:35:03.37	307.21	38.16	-29.0	-30.8	14.0	9.80e-04	0	44	0	1030750208	18	4464
2026-01-18 01:35:04.37	306.77	38.17	-28.8	-30.8	14.3	9.54e-04	0	44	0	1033895936	17	4572
2026-01-18 01:35:05.37	306.33	38.18	-28.8	-30.9	14.2	1.50e-06	0	44	0	1037041664	17	4609
2026-01-18 01:35:06.38	305.89	38.18	-28.7	-30.8	14.4	3.80e-06	0	44	0	1040187392	17	4564
2026-01-18 01:35:07.39	305.45	38.19	-28.5	-30.2	14.7	9.08e-04	0	44	0	1043333120	17	4382
2026-01-18 01:35:08.40	305.00	38.19	-28.4	-30.6	14.8	0.00e+00	0	44	0	1046478848	16	4601
2026-01-18 01:35:09.40	304.56	38.19	-28.6	-30.5	14.6	4.38e-04	0	44	0	1049624576	17	4467
2026-01-18 01:35:10.40	304.12	38.19	-28.8	-30.9	14.3	1.95e-04	0	44	0	1052770304	17	4593
2026-01-18 01:35:11.41	303.68	38.19	-29.1	-31.1	13.9	4.50e-06	0	44	0	1055916032	18	4532
2026-01-18 01:35:12.41	303.24	38.18	-29.3	-31.7	13.6	6.10e-06	0	44	0	1059061760	18	4737
2026-01-18 01:35:13.42	302.80	38.18	-29.0	-31.0	14.0	2.20e-06	0	44	0	1062207488	18	4503
2026-01-18 01:35:14.42	302.36	38.17	-29.0	-31.0	14.0	0.00e+00	0	44	0	1065353216	18	4498
2026-01-18 01:35:15.42	301.92	38.16	-28.9	-30.7	14.1	1.50e-06	0	44	0	1068498944	18	4426
2026-01-18 01:35:16.43	301.48	38.15	-28.7	-30.7	14.4	0.00e+00	0	44	0	1071644672	17	4517
2026-01-18 01:35:17.43	301.04	38.13	-28.7	-30.7	14.4	0.00e+00	0	44	0	1074790400	17	4523
2026-01-18 01:35:18.44	300.60	38.11	-28.9	-31.3	14.1	1.50e-06	0	44	0	1077936128	17	4712
2026-01-18 01:35:19.43	300.16	38.10	-29.0	-30.9	14.0	3.00e-06	0	44	0	1081081856	18	4493
2026-01-18 01:35:20.44	299.72	38.08	-29.2	-31.3	13.7	3.80e-06	0	44	0	1084227584	18	4618
2026-01-18 01:35:21.44	299.29	38.05	-29.4	-31.5	13.3	2.44e-05	0	44	0	1087373312	19	4548
2026-01-18 01:35:22.44	298.85	38.03	-29.0	-30.5	14.0	6.10e-06	0	44	0	1090519040	19	4248
2026-01-18 01:35:23.45	298.41	38.00	-28.6	-30.0	14.6	0.00e+00	0	44	0	1093664768	18	4212
2026-01-18 01:35:24.45	297.98	37.98	-28.6	-30.4	14.6	0.00e+00	0	44	0	1096810496	17	4440
2026-01-18 01:35:25.45	297.54	37.95	-28.7	-30.7	14.4	2.44e-04	0	44	0	1099956224	17	4542
2026-01-18 01:35:26.45	297.11	37.92	-28.7	-30.7	14.4	2.20e-06	0	44	0	1103101952	17	4528
2026-01-18 01:35:27.46	296.67	37.88	-28.9	-31.3	14.1	3.80e-06	0	44	0	1106247680	17	4716
2026-01-18 01:35:28.46	296.24	37.85	-29.0	-31.0	14.0	3.00e-06	0	44	0	1109393408	18	4517
2026-01-18 01:35:29.46	295.81	37.81	-29.0	-30.8	14.1	3.80e-06	0	44	0	1112539136	18	4459
2026-01-18 01:35:30.47	295.38	37.77	-29.2	-31.4	13.7	3.80e-06	0	44	0	1115684864	18	4625
2026-01-18 01:35:31.47	294.95	37.73	-29.2	-31.3	13.8	1.37e-05	0	44	0	1118830592	18	4597
2026-01-18 01:35:32.48	294.52	37.69	-28.8	-30.4	14.3	7.00e-07	0	44	0	1121976320	18	4319
2026-01-18 01:35:33.48	294.09	37.64	-28.7	-30.8	14.3	0.00e+00	0	44	0	1125122048	17	4554
2026-01-18 01:35:34.48	293.67	37.60	-28.6	-30.5	14.5	1.50e-06	0	44	0	1128267776	17	4471
2026-01-18 01:35:35.49	293.24	37.55	-28.4	-30.0	14.8	7.00e-07	0	44	0	1131413504	17	4337
2026-01-18 01:35:36.49	292.82	37.50	-27.7	-29.5	13.3	1.20e-04	0	44	0	1134559232	17	4445
2026-01-18 01:35:37.49	292.40	37.45	-28.8	-31.0	12.2	7.00e-07	0	44	0	1137704960	17	4616
2026-01-18 01:35:38.49	291.98	37.40	-29.0	-30.8	13.6	7.00e-07	0	44	0	1140850688	18	4459
2026-01-18 01:35:39.50	291.56	37.34	-29.0	-31.3	13.8	3.00e-06	0	44	0	1143996416	17	4736
2026-01-18 01:35:40.50	291.14	37.29	-28.9	-31.1	14.0	3.79e-03	0	44	0	1147142144	17	4664
2026-01-18 01:35:41.50	290.73	37.23	-28.8	-31.0	14.3	2.20e-06	0	44	0	1150287872	17	4621
2026-01-18 01:35:42.50	290.31	37.17	-29.0	-31.0	13.9	7.00e-07	0	44	0	1153433600	18	4507
2026-01-18 01:35:43.50	289.90	37.11	-29.1	-31.1	13.9	3.80e-06	0	44	0	1156579328	18	4556
2026-01-18 01:35:44.49	289.49	37.05	-28.8	-30.9	14.3	7.00e-07	0	44	0	1159725056	17	4587
2026-01-18 01:35:45.50	289.08	36.98	-28.8	-31.0	14.2	3.98e-03	0	44	0	1162870784	17	4622
2026-01-18 01:35:46.50	288.67	36.92	-29.1	-31.1	13.9	3.00e-06	0	44	0	1166016512	18	4535
2026-01-18 01:35:47.51	288.26	36.85	-28.8	-31.0	14.2	1.50e-06	0	44	0	1169162240	17	4624
2026-01-18 01:35:48.51	287.86	36.78	-28.7	-30.6	14.4	7.00e-07	0	44	0	1172307968	17	4520
2026-01-18 01:35:49.52	287.45	36.71	-28.5	-30.3	14.6	7.00e-07	0	44	0	1175453696	17	4415
2026-01-18 01:35:50.53	287.05	36.64	-28.3	-29.9	14.9	1.75e-05	0	44	0	1178599424	17	4288
2026-01-18 01:35:51.53	286.65	36.57	-28.3	-30.3	14.9	1.30e-03	0	44	0	1181745152	16	4526
2026-01-18 01:35:52.53	286.25	36.49	-28.3	-30.3	14.8	9.06e-04	0	44	0	1184890880	16	4540
2026-01-18 01:35:53.54	285.85	36.42	-28.2	-30.1	14.9	7.00e-07	0	44	0	1188036608	16	4478
2026-01-18 01:35:54.54	285.46	36.34	-28.5	-30.7	14.7	0.00e+00	0	44	0	1191182336	16	4647
2026-01-18 01:35:55.54	285.07	36.26	-28.7	-30.7	14.4	5.74e-04	0	44	0	1194328064	17	4536
2026-01-18 01:35:56.54	284.68	36.18	-28.9	-31.2	14.1	2.20e-06	0	44	0	1197473792	17	4684
2026-01-18 01:35:57.54	284.29	36.10	-28.8	-31.0	14.2	2.25e-04	0	44	0	1200619520	17	4641
2026-01-18 01:35:58.54	283.90	36.02	-28.8	-30.9	14.2	7.00e-07	0	44	0	1203765248	17	4601
2026-01-18 01:35:59.54	283.52	35.94	-28.8	-31.0	14.1	0.00e+00	0	44	0	1205862400	17	4647
2026-01-18 01:36:00.55	283.13	35.85	-28.8	-30.9	14.3	6.12e-04	0	44	0	1209008128	17	4592
2026-01-18 01:36:01.55	282.75	35.76	-28.6	-30.6	14.4	3.78e-03	0	44	0	1212153856	17	4507
2026-01-18 01:36:02.56	282.37	35.68	-28.5	-30.2	14.6	7.00e-07	0	44	0	1216348160	17	4401
2026-01-18 01:36:03.56	282.00	35.59	-28.7	-30.6	14.2	4.46e-03	0	44	0	1219493888	17	4511
2026-01-18 01:36:04.57	281.62	35.50	-28.6	-30.5	14.3	4.58e-03	0	44	0	1222639616	17	4488
2026-01-18 01:36:05.57	281.25	35.41	-28.3	-29.7	14.9	3.59e-04	0	44	0	1225785344	17	4248
2026-01-18 01:36:06.57	280.88	35.32	-27.9	-29.8	15.2	4.42e-03	0	44	0	1227882496	15	4500
2026-01-18 01:36:07.57	280.51	35.22	-27.8	-29.6	15.3	3.82e-03	0	44	0	1231028224	15	4448
2026-01-18 01:36:08.58	280.14	35.13	-27.8	-29.8	15.2	1.74e-04	0	44	0	1234173952	15	4496
2026-01-18 01:36:09.58	279.78	35.03	-28.0	-30.1	15.0	0.00e+00	0	44	0	1237319680	15	4592
2026-01-18 01:36:10.59	279.41	34.94	-28.4	-30.6	14.7	2.37e-03	0	44	0	1240465408	16	4620
2026-01-18 01:36:11.59	279.05	34.84	-28.6	-30.5	14.5	7.00e-07	0	44	0	1243611136	17	4483
2026-01-18 01:36:12.58	278.70	34.74	-28.5	-30.3	14.6	4.83e-04	0	44	0	1246756864	17	4426
2026-01-18 01:36:13.58	278.35	34.64	-28.5	-30.2	14.6	8.01e-04	0	44	0	1249902592	17	4402
2026-01-18 01:36:14.59	277.99	34.54	-28.6	-30.4	14.5	7.00e-07	0	44	0	1253048320	17	4457
2026-01-18 01:36:15.58	277.64	34.44	-28.5	-30.3	14.6	3.16e-03	0	44	0	1256194048	17	4418
2026-01-18 01:36:16.59	277.29	34.34	-28.4	-30.6	14.6	3.36e-03	0	44	0	1259339776	16	4613
2026-01-18 01:36:17.59	276.94	34.24	-28.7	-30.7	14.3	7.00e-07	0	44	0	1262485504	17	4531
2026-01-18 01:36:18.60	276.60	34.13	-29.1	-31.2	13.8	3.58e-03	0	44	0	1265631232	18	4568
2026-01-18 01:36:19.60	276.26	34.03	-29.3	-31.7	13.5	1.67e-05	0	44	0	1268776960	18	4735
2026-01-18 01:36:20.61	275.91	33.92	-29.5	-32.1	13.2	1.83e-05	0	44	0	1271922688	18	4883
2026-01-18 01:36:21.61	275.58	33.82	-29.6	-31.9	12.9	4.65e-05	0	44	0	1275068416	19	4706
2026-01-18 01:36:22.62	275.24	33.71	-29.5	-31.6	13.2	3.69e-03	0	44	0	1278214144	19	4600
2026-01-18 01:36:23.62	274.90	33.60	-29.0	-30.5	13.8	6.80e-06	0	44	0	1281359872	19	4254
2026-01-18 01:36:24.63	274.57	33.49	-28.5	-30.4	14.5	1.50e-06	0	44	0	1284505600	17	4444
2026-01-18 01:36:25.64	274.24	33.38	-28.6	-30.5	14.4	7.00e-07	0	44	0	1287651328	17	4476
2026-01-18 01:36:26.64	273.91	33.28	-28.7	-30.6	14.3	0.00e+00	0	44	0	1290797056	17	4517
2026-01-18 01:36:27.65	273.58	33.16	-28.8	-30.9	14.2	3.79e-03	0	44	0	1293942784	17	4596
2026-01-18 01:36:28.66	273.26	33.05	-28.6	-30.5	14.4	4.48e-03	0	44	0	1297088512	17	4483
2026-01-18 01:36:29.66	272.94	32.94	-28.4	-30.0	14.7	7.00e-07	0	44	0	1300234240	17	4325
2026-01-18 01:36:30.66	272.62	32.83	-28.2	-30.1	14.9	0.00e+00	0	44	0	1303379968	16	4486
2026-01-18 01:36:31.67	272.30	32.72	-28.2	-30.1	14.9	0.00e+00	0	44	0	1306525696	16	4464
2026-01-18 01:36:32.67	271.99	32.60	-28.3	-30.3	14.8	0.00e+00	0	44	0	1309671424	16	4544
2026-01-18 01:36:33.67	271.68	32.49	-28.4	-30.5	14.6	0.00e+00	0	44	0	1312817152	16	4608
2026-01-18 01:36:34.67	271.37	32.38	-28.4	-30.6	14.6	1.50e-06	0	44	0	1315962880	16	4625
2026-01-18 01:36:35.68	271.06	32.26	-28.7	-30.7	14.2	2.20e-06	0	44	0	1319108608	17	4541
2026-01-18 01:36:36.68	270.76	32.14	-28.8	-31.0	14.1	3.00e-06	0	44	0	1322254336	17	4626
2026-01-18 01:36:37.68	270.46	32.03	-28.5	-30.4	14.4	0.00e+00	0	44	0	1325400064	17	4450
2026-01-18 01:36:38.68	270.16	31.91	-28.3	-29.8	14.7	0.00e+00	0	44	0	1328545792	17	4293
2026-01-18 01:36:39.68	269.86	31.80	-28.1	-29.8	15.0	0.00e+00	0	44	0	1331691520	16	4400
2026-01-18 01:36:40.69	269.56	31.68	-27.7	-28.8	15.5	0.00e+00	0	44	0	1334837248	16	4120
2026-01-18 01:36:41.69	269.27	31.56	-27.8	-29.1	15.4	0.00e+00	0	44	0	1337982976	16	4203
2026-01-18 01:36:42.70	268.97	31.44	-27.8	-29.8	15.2	0.00e+00	0	44	0	1341128704	15	4507
2026-01-18 01:36:43.71	268.68	31.32	-28.3	-30.3	14.8	0.00e+00	0	44	0	1344274432	16	4530
2026-01-18 01:36:44.71	268.39	31.21	-28.5	-30.3	14.5	7.00e-07	0	44	0	1347420160	17	4417
2026-01-18 01:36:45.72	268.10	31.09	-27.8	-29.8	14.3	7.00e-07	0	44	0	1350565888	17	4517
2026-01-18 01:36:46.73	267.82	30.97	-28.7	-30.9	14.1	2.20e-06	0	44	0	1353711616	17	4601
2026-01-18 01:36:47.72	267.54	30.85	-28.9	-31.2	13.4	1.50e-06	0	44	0	1356857344	17	4693
2026-01-18 01:36:48.72	267.26	30.73	-28.6	-30.5	13.8	2.20e-06	0	44	0	1360003072	17	4493
2026-01-18 01:36:49.73	266.98	30.61	-28.2	-30.0	14.8	0.00e+00	0	44	0	1363148800	16	4448
2026-01-18 01:36:50.74	266.71	30.49	-27.9	-29.5	15.0	2.47e-04	0	44	0	1366294528	16	4310
2026-01-18 01:36:51.74	266.43	30.37	-27.7	-29.5	15.3	0.00e+00	0	44	0	1369440256	15	4418
2026-01-18 01:36:52.74	266.16	30.24	-27.7	-29.4	15.3	0.00e+00	0	44	0	1372585984	15	4411
2026-01-18 01:36:53.75	265.89	30.12	-27.7	-29.5	15.3	0.00e+00	0	44	0	1375731712	15	4421
2026-01-18 01:36:54.75	265.62	30.00	-27.6	-29.2	15.5	0.00e+00	0	44	0	1378877440	15	4335
2026-01-18 01:36:55.75	265.36	29.88	-27.6	-29.2	15.5	0.00e+00	0	44	0	1382023168	15	4354
2026-01-18 01:36:56.76	265.10	29.76	-27.8	-29.7	15.2	0.00e+00	0	44	0	1385168896	15	4479
2026-01-18 01:36:57.76	264.83	29.64	-27.5	-29.1	15.5	0.00e+00	0	44	0	1388314624	15	4317
2026-01-18 01:36:58.76	264.58	29.52	-27.2	-29.0	15.9	0.00e+00	0	44	0	1391460352	14	4387
2026-01-18 01:36:59.77	264.32	29.39	-27.1	-28.5	16.1	0.00e+00	0	44	0	1394606080	14	4265
2026-01-18 01:37:00.77	264.06	29.27	-27.1	-28.7	16.0	7.21e-04	0	44	0	1397751808	14	4321
2026-01-18 01:37:01.78	263.81	29.15	-27.0	-28.5	16.1	0.00e+00	0	44	0	1400897536	14	4255
2026-01-18 01:37:02.78	263.56	29.03	-27.2	-28.9	15.9	2.87e-03	0	44	0	1404043264	14	4355
2026-01-18 01:37:03.78	263.31	28.90	-27.1	-28.7	16.0	0.00e+00	0	44	0	1407188992	14	4312
2026-01-18 01:37:04.79	263.06	28.78	-27.1	-28.7	16.0	0.00e+00	0	44	0	1410334720	14	4309
2026-01-18 01:37:05.79	262.81	28.66	-27.2	-28.9	15.9	3.03e-03	0	44	0	1413480448	14	4369
2026-01-18 01:37:06.80	262.57	28.53	-27.2	-28.9	15.9	3.54e-03	0	44	0	1416626176	14	4371
2026-01-18 01:37:07.80	262.33	28.41	-27.1	-28.6	16.0	0.00e+00	0	44	0	1419771904	14	4301
2026-01-18 01:37:08.80	262.09	28.29	-27.1	-28.6	16.1	0.00e+00	0	44	0	1422917632	14	4284
2026-01-18 01:37:09.80	261.85	28.17	-27.0	-28.4	16.1	0.00e+00	0	44	0	1426063360	14	4238
2026-01-18 01:37:10.80	261.61	28.05	-27.1	-28.7	16.0	0.00e+00	0	44	0	1429209088	14	4316
2026-01-18 01:37:11.81	261.38	27.92	-27.1	-28.8	15.9	2.64e-03	0	44	0	1432354816	14	4338
2026-01-18 01:37:12.81	261.15	27.80	-27.3	-29.0	15.8	1.59e-03	0	44	0	1435500544	14	4400
2026-01-18 01:37:13.81	260.91	27.68	-27.2	-28.8	15.9	0.00e+00	0	44	0	1438646272	14	4346
2026-01-18 01:37:14.81	260.69	27.55	-27.2	-28.8	15.9	0.00e+00	0	44	0	1441792000	14	4338
2026-01-18 01:37:15.82	260.46	27.43	-27.3	-29.1	15.8	0.00e+00	0	44	0	1444937728	14	4410
2026-01-18 01:37:16.82	260.23	27.31	-27.0	-28.5	16.1	0.00e+00	0	44	0	1448083456	14	4259
2026-01-18 01:37:17.82	260.01	27.19	-26.9	-28.2	16.2	8.01e-05	0	44	0	1451229184	14	4173
2026-01-18 01:37:18.83	259.78	27.06	-26.9	-28.6	16.3	1.47e-04	0	44	0	1454374912	13	4410
2026-01-18 01:37:19.83	259.57	26.94	-27.0	-28.6	16.0	0.00e+00	0	44	0	1457520640	14	4282
2026-01-18 01:37:20.83	259.35	26.82	-27.3	-29.2	15.7	2.22e-04	0	44	0	1460666368	14	4466
2026-01-18 01:37:21.84	259.13	26.70	-27.5	-29.5	15.5	1.30e-04	0	44	0	1463812096	14	4557
2026-01-18 01:37:22.84	258.91	26.57	-27.5	-29.1	15.5	0.00e+00	0	44	0	1466957824	15	4309
2026-01-18 01:37:23.85	258.70	26.45	-27.5	-29.2	15.4	0.00e+00	0	44	0	1470103552	15	4345
2026-01-18 01:37:24.84	258.49	26.33	-27.6	-29.4	15.3	0.00e+00	0	44	0	1473249280	15	4408
2026-01-18 01:37:25.84	258.28	26.21	-27.7	-29.6	15.2	0.00e+00	0	44	0	1476395008	15	4455
2026-01-18 01:37:26.85	258.07	26.09	-27.6	-29.4	15.3	0.00e+00	0	44	0	1479540736	15	4395
2026-01-18 01:37:27.85	257.86	25.97	-27.8	-29.7	15.0	0.00e+00	0	44	0	1482686464	15	4502
2026-01-18 01:37:28.85	257.66	25.85	-27.4	-28.9	15.5	0.00e+00	0	44	0	1485832192	15	4260
2026-01-18 01:37:29.86	257.45	25.72	-27.1	-28.7	15.9	0.00e+00	0	44	0	1488977920	14	4330
2026-01-18 01:37:30.85	257.25	25.60	-26.1	-27.7	16.0	0.00e+00	0	44	0	1492123648	14	4301
2026-01-18 01:37:31.86	257.05	25.48	-27.0	-28.9	16.0	2.39e-04	0	44	0	1495269376	13	4493
2026-01-18 01:37:32.86	256.85	25.36	-27.1	-28.7	15.9	0.00e+00	0	44	0	1498415104	14	4334
2026-01-18 01:37:33.86	256.65	25.24	-27.3	-29.1	15.7	1.04e-04	0	44	0	1501560832	14	4428
2026-01-18 01:37:34.87	256.45	25.12	-27.4	-29.3	15.6	0.00e+00	0	44	0	1504706560	14	4492
2026-01-18 01:37:35.87	256.26	25.00	-27.4	-29.5	15.5	1.41e-03	0	44	0	1507852288	14	4537
2026-01-18 01:37:36.87	256.07	24.88	-27.3	-29.2	15.6	2.06e-03	0	44	0	1510998016	14	4465
2026-01-18 01:37:37.88	255.87	24.76	-27.3	-29.2	15.6	0.00e+00	0	44	0	1514143744	14	4450
2026-01-18 01:37:38.89	255.68	24.64	-27.2	-28.9	15.8	3.18e-04	0	44	0	1517289472	14	4378
2026-01-18 01:37:39.89	255.49	24.52	-27.3	-29.2	15.6	1.96e-04	0	44	0	1520435200	14	4453
2026-01-18 01:37:40.89	255.31	24.40	-26.9	-28.2	16.2	2.08e-04	0	44	0	1523580928	14	4185
2026-01-18 01:37:41.89	255.12	24.28	-26.8	-28.5	16.2	3.46e-03	0	44	0	1526726656	13	4384
2026-01-18 01:37:42.89	254.94	24.16	-26.8	-28.5	16.3	0.00e+00	0	44	0	1528823808	13	4365
2026-01-18 01:37:43.89	254.75	24.05	-26.6	-28.1	16.5	0.00e+00	0	44	0	1531969536	13	4267
2026-01-18 01:37:44.89	254.57	23.93	-26.7	-28.3	16.4	0.00e+00	0	44	0	1535115264	13	4308
2026-01-18 01:37:45.89	254.39	23.81	-26.7	-28.2	16.4	3.42e-03	0	44	0	1538260992	13	4286
2026-01-18 01:37:46.90	254.21	23.69	-26.6	-28.0	16.6	7.09e-04	0	44	0	1541406720	13	4228
2026-01-18 01:37:47.90	254.03	23.57	-26.6	-28.1	16.5	3.60e-03	0	44	0	1544552448	13	4257
2026-01-18 01:37:48.91	253.86	23.45	-26.8	-28.4	16.2	4.05e-03	0	44	0	1548746752	13	4361
2026-01-18 01:37:49.92	253.68	23.34	-27.1	-28.7	15.9	0.00e+00	0	44	0	1550843904	14	4307
2026-01-18 01:37:50.92	253.51	23.22	-27.1	-28.6	15.9	4.05e-03	0	44	0	1553989632	14	4285
2026-01-18 01:37:51.92	253.33	23.10	-27.1	-28.6	15.9	3.96e-03	0	44	0	1557135360	14	4294
2026-01-18 01:37:52.93	253.16	22.99	-27.2	-28.8	15.8	8.71e-04	0	44	0	1560281088	14	4366
2026-01-18 01:37:53.93	252.99	22.87	-27.3	-29.2	15.6	4.30e-03	0	44	0	1563426816	14	4452
2026-01-18 01:37:54.94	252.82	22.75	-27.3	-29.1	15.6	5.32e-04	0	44	0	1566572544	14	4450
2026-01-18 01:37:55.93	252.66	22.64	-27.0	-28.5	15.9	9.68e-04	0	44	0	1569718272	14	4275
2026-01-18 01:37:56.94	252.49	22.52	-26.8	-28.4	16.2	4.09e-03	0	44	0	1572864000	13	4360
2026-01-18 01:37:57.94	252.33	22.41	-26.8	-28.6	16.1	4.45e-03	0	44	0	1576009728	13	4403
2026-01-18 01:37:58.95	252.16	22.29	-27.0	-29.0	15.9	1.31e-03	0	44	0	1579155456	13	4510
2026-01-18 01:37:59.95	252.00	22.18	-26.9	-28.8	16.0	4.30e-03	0	44	0	1582301184	13	4463
2026-01-18 01:38:00.95	251.84	22.06	-26.8	-28.5	16.2	4.15e-03	0	44	0	1585446912	13	4383
2026-01-18 01:38:01.96	251.68	21.95	-26.9	-28.6	16.1	1.41e-03	0	44	0	1588592640	13	4423
2026-01-18 01:38:02.97	251.52	21.83	-27.0	-29.0	15.9	4.37e-03	0	44	0	1591738368	13	4518
2026-01-18 01:38:03.97	251.36	21.72	-27.2	-28.9	15.6	3.99e-03	0	44	0	1594884096	14	4397
2026-01-18 01:38:04.98	251.20	21.61	-27.2	-28.9	15.7	0.00e+00	0	44	0	1598029824	14	4374
2026-01-18 01:38:05.98	251.05	21.49	-27.2	-29.0	15.6	0.00e+00	0	44	0	1601175552	14	4425
2026-01-18 01:38:06.98	250.89	21.38	-27.3	-29.3	15.5	4.91e-03	0	44	0	1604321280	14	4494
2026-01-18 01:38:07.98	250.74	21.27	-27.2	-28.9	15.7	2.62e-03	0	44	0	1607467008	14	4374
2026-01-18 01:38:08.98	250.59	21.16	-27.1	-28.6	15.8	5.00e-03	0	44	0	1610612736	14	4308
2026-01-18 01:38:09.99	250.44	21.04	-27.1	-28.8	15.7	0.00e+00	0	44	0	1613758464	14	4367
2026-01-18 01:38:10.99	250.29	20.93	-27.2	-28.9	15.6	0.00e+00	0	44	0	1616904192	14	4385
2026-01-18 01:38:11.99	250.14	20.82	-27.2	-29.0	15.6	5.07e-03	0	44	0	1620049920	14	4429
2026-01-18 01:38:12.99	249.99	20.71	-27.3	-29.2	15.5	5.10e-03	0	44	0	1623195648	14	4469
2026-01-18 01:38:13.99	249.85	20.60	-27.4	-29.4	15.3	1.96e-03	0	44	0	1626341376	14	4523
2026-01-18 01:38:14.99	249.70	20.49	-27.4	-29.4	15.4	0.00e+00	0	44	0	1629487104	14	4522
2026-01-18 01:38:16.00	249.56	20.38	-27.5	-29.1	15.2	0.00e+00	0	44	0	1632632832	15	4342
2026-01-18 01:38:17.00	249.41	20.27	-27.3	-28.7	15.4	0.00e+00	0	44	0	1635778560	15	4233
2026-01-18 01:38:18.00	249.27	20.16	-27.3	-29.1	15.5	4.81e-03	0	44	0	1638924288	14	4428
2026-01-18 01:38:19.00	249.13	20.05	-27.2	-29.0	15.6	4.84e-03	0	44	0	1642070016	14	4429
2026-01-18 01:38:20.01	248.99	19.94	-27.2	-29.0	15.5	0.00e+00	0	44	0	1645215744	14	4413
2026-01-18 01:38:21.01	248.85	19.83	-27.1	-28.8	15.7	4.50e-06	0	44	0	1648361472	14	4355
2026-01-18 01:38:22.02	248.71	19.72	-27.1	-28.7	15.7	0.00e+00	0	44	0	1651507200	14	4339
2026-01-18 01:38:23.03	248.57	19.61	-26.9	-28.7	16.0	0.00e+00	0	44	0	1654652928	13	4436
2026-01-18 01:38:24.03	248.44	19.51	-26.8	-28.4	16.1	3.53e-03	0	44	0	1657798656	13	4364
2026-01-18 01:38:25.04	248.30	19.40	-26.9	-28.6	16.0	0.00e+00	0	44	0	1660944384	13	4426
2026-01-18 01:38:26.04	248.17	19.29	-26.7	-28.3	16.2	0.00e+00	0	44	0	1664090112	13	4323
2026-01-18 01:38:27.05	248.03	19.18	-26.9	-28.7	15.9	2.20e-06	0	44	0	1667235840	13	4450
2026-01-18 01:38:28.05	247.90	19.08	-26.7	-28.2	16.2	0.00e+00	0	44	0	1670381568	13	4308
2026-01-18 01:38:29.05	247.77	18.97	-26.5	-27.9	16.4	0.00e+00	0	44	0	1673527296	13	4219
2026-01-18 01:38:30.06	247.64	18.86	-26.6	-28.1	16.2	0.00e+00	0	44	0	1676673024	13	4283
2026-01-18 01:38:31.06	247.51	18.76	-26.7	-28.3	16.1	0.00e+00	0	44	0	1679818752	13	4342
2026-01-18 01:38:32.07	247.38	18.65	-26.8	-28.5	16.0	0.00e+00	0	44	0	1682964480	13	4394
2026-01-18 01:38:33.07	247.25	18.55	-26.9	-28.7	15.9	1.50e-06	0	44	0	1686110208	13	4439
2026-01-18 01:38:34.07	247.13	18.44	-27.1	-28.7	15.6	0.00e+00	0	44	0	1689255936	14	4330
2026-01-18 01:38:35.08	247.00	18.34	-27.0	-28.5	15.8	0.00e+00	0	44	0	1692401664	14	4279
2026-01-18 01:38:36.08	246.87	18.23	-26.9	-28.3	15.9	1.50e-06	0	44	0	1695547392	14	4229
2026-01-18 01:38:37.09	246.75	18.13	-27.0	-28.5	15.7	0.00e+00	0	44	0	1698693120	14	4287
2026-01-18 01:38:38.09	246.63	18.02	-27.0	-28.4	15.8	0.00e+00	0	44	0	1701838848	14	4244
2026-01-18 01:38:39.10	246.50	17.92	-27.0	-28.5	15.8	0.00e+00	0	44	0	1704984576	14	4284
2026-01-18 01:38:40.10	246.38	17.82	-26.9	-28.3	15.9	0.00e+00	0	44	0	1708130304	14	4228
2026-01-18 01:38:41.10	246.26	17.72	-26.9	-28.3	15.8	0.00e+00	0	44	0	1711276032	14	4220
2026-01-18 01:38:42.10	246.14	17.61	-27.0	-28.5	15.8	0.00e+00	0	44	0	1714421760	14	4267
2026-01-18 01:38:43.10	246.02	17.51	-27.0	-28.9	15.8	0.00e+00	0	44	0	1717567488	13	4509
2026-01-18 01:38:44.10	245.90	17.41	-27.2	-29.0	15.4	0.00e+00	0	44	0	1720713216	14	4427
2026-01-18 01:38:45.09	245.79	17.31	-27.4	-29.3	15.3	0.00e+00	0	44	0	1723858944	14	4506
2026-01-18 01:38:46.10	245.67	17.21	-27.3	-29.2	15.3	0.00e+00	0	44	0	1727004672	14	4472
2026-01-18 01:38:47.10	245.55	17.11	-27.5	-29.2	15.1	0.00e+00	0	44	0	1730150400	15	4367
2026-01-18 01:38:48.10	245.44	17.01	-27.7	-29.6	14.8	0.00e+00	0	44	0	1733296128	15	4475
2026-01-18 01:38:49.09	245.33	16.91	-27.5	-29.2	15.0	0.00e+00	0	44	0	1736441856	15	4380
2026-01-18 01:38:50.10	245.21	16.81	-27.5	-29.2	15.0	0.00e+00	0	44	0	1739587584	15	4371
2026-01-18 01:38:51.10	245.10	16.71	-27.6	-29.5	14.9	0.00e+00	0	44	0	1742733312	15	4453
2026-01-18 01:38:52.10	244.99	16.61	-27.7	-29.5	14.8	0.00e+00	0	44	0	1745879040	15	4467
2026-01-18 01:38:53.11	244.87	16.51	-27.9	-30.1	14.3	7.00e-07	0	44	0	1749024768	15	4637
2026-01-18 01:38:54.12	244.76	16.41	-27.7	-29.6	14.8	0.00e+00	0	44	0	1752170496	15	4481
2026-01-18 01:38:55.13	244.65	16.31	-27.7	-29.5	14.8	0.00e+00	0	44	0	1755316224	15	4470
2026-01-18 01:38:56.13	244.54	16.21	-27.7	-29.6	14.8	0.00e+00	0	44	0	1758461952	15	4488
2026-01-18 01:38:57.14	244.43	16.11	-27.7	-29.7	14.7	0.00e+00	0	44	0	1761607680	15	4506
2026-01-18 01:38:58.14	244.33	16.01	-27.6	-29.4	14.9	0.00e+00	0	44	0	1764753408	15	4441
2026-01-18 01:38:59.14	244.22	15.92	-27.9	-30.0	14.5	7.00e-07	0	44	0	1767899136	15	4606
2026-01-18 01:39:00.13	244.12	15.82	-27.9	-30.0	14.5	0.00e+00	0	44	0	1771044864	15	4600
2026-01-18 01:39:01.14	244.01	15.72	-27.9	-30.1	14.5	0.00e+00	0	44	0	1774190592	15	4626
2026-01-18 01:39:02.15	243.90	15.62	-27.8	-29.8	14.6	0.00e+00	0	44	0	1777336320	15	4553
2026-01-18 01:39:03.15	243.80	15.53	-27.8	-29.9	14.6	9.86e-04	0	44	0	1780482048	15	4583
2026-01-18 01:39:04.16	243.70	15.43	-27.8	-29.9	14.6	0.00e+00	0	44	0	1783627776	15	4575
2026-01-18 01:39:05.16	243.59	15.34	-27.9	-30.0	14.5	0.00e+00	0	44	0	1786773504	15	4619
2026-01-18 01:39:06.16	243.49	15.24	-27.7	-29.7	14.7	0.00e+00	0	44	0	1789919232	15	4517
2026-01-18 01:39:07.16	243.39	15.14	-27.7	-29.6	14.7	7.00e-07	0	44	0	1793064960	15	4486
2026-01-18 01:39:08.16	243.29	15.05	-27.7	-29.7	14.6	1.14e-03	0	44	0	1796210688	15	4525
2026-01-18 01:39:09.16	243.19	14.96	-27.6	-29.4	14.8	9.03e-04	0	44	0	1799356416	15	4419
2026-01-18 01:39:10.16	243.09	14.86	-27.5	-29.3	14.9	7.00e-07	0	44	0	1802502144	15	4392
2026-01-18 01:39:11.17	242.99	14.77	-27.7	-29.6	14.7	0.00e+00	0	44	0	1805647872	15	4485
2026-01-18 01:39:12.18	242.89	14.67	-27.6	-29.4	14.8	8.19e-04	0	44	0	1808793600	15	4446
2026-01-18 01:39:13.17	242.80	14.58	-27.7	-29.7	14.6	0.00e+00	0	44	0	1811939328	15	4537
2026-01-18 01:39:14.18	242.70	14.49	-27.7	-29.7	14.6	6.88e-04	0	44	0	1815085056	15	4535
2026-01-18 01:39:15.18	242.60	14.39	-27.8	-30.0	14.4	7.25e-04	0	44	0	1818230784	15	4605
2026-01-18 01:39:16.19	242.51	14.30	-27.9	-30.0	14.4	7.00e-07	0	44	0	1821376512	15	4623
2026-01-18 01:39:17.19	242.41	14.21	-27.9	-30.2	14.3	6.00e-04	0	44	0	1824522240	15	4684
2026-01-18 01:39:18.19	242.32	14.11	-28.0	-30.3	14.2	6.43e-04	0	44	0	1826619392	15	4700
2026-01-18 01:39:19.19	242.22	14.02	-27.3	-29.4	13.8	2.20e-06	0	44	0	1829765120	16	4576
2026-01-18 01:39:20.19	242.13	13.93	-28.4	-30.7	12.3	5.42e-04	0	44	0	1832910848	16	4711
2026-01-18 01:39:21.19	242.04	13.84	-28.3	-30.5	12.8	2.20e-06	0	44	0	1836056576	16	4640
2026-01-18 01:39:22.19	241.95	13.75	-28.4	-30.8	13.7	2.20e-06	0	44	0	1839202304	16	4750
2026-01-18 01:39:23.20	241.85	13.66	-28.4	-30.7	13.9	5.45e-04	0	44	0	1842348032	16	4698
2026-01-18 01:39:24.20	241.76	13.57	-28.3	-30.6	13.9	4.81e-04	0	44	0	1845493760	16	4663
2026-01-18 01:39:25.20	241.67	13.48	-28.2	-30.4	14.0	7.00e-07	0	44	0	1848639488	16	4607
2026-01-18 01:39:26.20	241.58	13.39	-28.1	-30.0	14.3	1.25e-03	0	44	0	1851785216	16	4489
2026-01-18 01:39:27.21	241.49	13.30	-28.1	-30.1	14.2	4.78e-04	0	44	0	1854930944	16	4515
2026-01-18 01:39:28.21	241.40	13.21	-27.8	-29.9	14.4	7.00e-07	0	44	0	1858076672	15	4580
2026-01-18 01:39:29.22	241.32	13.12	-27.6	-29.5	14.7	3.58e-04	0	44	0	1861222400	15	4456
2026-01-18 01:39:30.22	241.23	13.03	-27.7	-29.7	14.5	3.42e-04	0	44	0	1864368128	15	4527
2026-01-18 01:39:31.23	241.14	12.94	-27.7	-29.6	14.5	2.14e-04	0	44	0	1867513856	15	4500
2026-01-18 01:39:32.23	241.05	12.85	-27.6	-29.5	14.6	3.42e-03	0	44	0	1870659584	15	4479
2026-01-18 01:39:33.23	240.97	12.76	-27.8	-29.9	14.4	2.49e-04	0	44	0	1873805312	15	4585
2026-01-18 01:39:34.23	240.88	12.67	-27.5	-29.2	14.8	7.00e-07	0	44	0	1876951040	15	4390
2026-01-18 01:39:35.24	240.80	12.59	-27.6	-29.5	14.6	3.75e-03	0	44	0	1880096768	15	4466
2026-01-18 01:39:36.24	240.71	12.50	-27.6	-29.5	14.6	4.30e-03	0	44	0	1883242496	15	4479
2026-01-18 01:39:37.24	240.63	12.41	-27.7	-29.7	14.5	0.00e+00	0	44	0	1886388224	15	4530
2026-01-18 01:39:38.24	240.55	12.33	-27.9	-30.1	14.2	1.53e-04	0	44	0	1889533952	15	4651
2026-01-18 01:39:39.24	240.46	12.24	-27.7	-29.7	14.5	1.50e-04	0	44	0	1892679680	15	4517
2026-01-18 01:39:40.25	240.38	12.15	-27.8	-30.0	14.3	9.99e-05	0	44	0	1895825408	15	4617
2026-01-18 01:39:41.25	240.30	12.07	-28.0	-30.3	14.1	5.16e-03	0	44	0	1898971136	15	4707
2026-01-18 01:39:42.26	240.22	11.98	-28.1	-30.1	14.1	4.86e-03	0	44	0	1902116864	16	4539
2026-01-18 01:39:43.26	240.14	11.89	-28.0	-29.9	14.2	5.71e-04	0	44	0	1905262592	16	4485
2026-01-18 01:39:44.26	240.06	11.81	-28.2	-30.2	14.0	4.77e-03	0	44	0	1908408320	16	4575
2026-01-18 01:39:45.27	239.97	11.72	-28.2	-30.4	13.9	5.23e-03	0	44	0	1911554048	16	4617
2026-01-18 01:39:46.27	239.90	11.64	-28.3	-30.6	13.8	6.40e-04	0	44	0	1914699776	16	4697
2026-01-18 01:39:47.27	239.82	11.55	-28.1	-30.2	14.0	4.53e-03	0	44	0	1917845504	16	4552
2026-01-18 01:39:48.28	239.74	11.47	-28.4	-30.8	13.7	4.33e-03	0	44	0	1920991232	16	4739
2026-01-18 01:39:49.28	239.66	11.38	-28.4	-30.4	13.6	6.45e-04	0	44	0	1924136960	17	4506
2026-01-18 01:39:50.28	239.58	11.30	-28.3	-30.7	13.7	4.14e-03	0	44	0	1927282688	16	4713
2026-01-18 01:39:51.28	239.50	11.21	-28.4	-30.9	13.6	3.39e-03	0	44	0	1930428416	16	4784
2026-01-18 01:39:52.29	239.43	11.13	-28.4	-30.4	13.5	5.11e-04	0	44	0	1933574144	17	4524
2026-01-18 01:39:53.29	239.35	11.05	-28.4	-30.8	13.7	3.03e-03	0	44	0	1936719872	16	4740
2026-01-18 01:39:54.29	239.28	10.96	-28.6	-30.8	13.3	2.68e-03	0	44	0	1939865600	17	4647
2026-01-18 01:39:55.30	239.20	10.88	-28.7	-31.0	13.2	2.74e-05	0	44	0	1943011328	17	4693
2026-01-18 01:39:56.30	239.13	10.80	-28.7	-31.1	13.1	4.92e-04	0	44	0	1946157056	17	4732
2026-01-18 01:39:57.31	239.05	10.72	-28.5	-30.5	13.5	5.34e-04	0	44	0	1949302784	17	4553
2026-01-18 01:39:58.31	238.98	10.63	-28.8	-31.3	13.0	5.23e-04	0	44	0	1952448512	17	4819
2026-01-18 01:39:59.32	238.90	10.55	-28.8	-31.3	13.0	2.22e-03	0	44	0	1955594240	17	4803
2026-01-18 01:40:00.32	238.83	10.47	-28.6	-30.9	13.2	2.82e-05	0	44	0	1958739968	17	4674
2026-01-18 01:40:01.32	238.76	10.39	-28.5	-31.0	13.5	1.22e-05	0	44	0	1961885696	16	4817
2026-01-18 01:40:02.33	238.68	10.31	-28.9	-31.5	12.9	3.49e-03	0	44	0	1965031424	17	4866
2026-01-18 01:40:03.33	238.61	10.22	-28.7	-31.0	13.1	3.98e-03	0	44	0	1968177152	17	4707
2026-01-18 01:40:04.33	238.54	10.14	-28.7	-31.1	13.1	1.98e-05	0	44	0	1971322880	17	4729
2026-01-18 01:40:05.33	238.47	10.06	-28.7	-31.2	13.0	3.12e-05	0	44	0	1974468608	17	4755
2026-01-18 01:40:06.33	238.40	9.98	-28.7	-31.1	13.0	1.98e-05	0	44	0	1977614336	17	4749
2026-01-18 01:40:07.33	238.33	9.90	-28.7	-31.1	13.1	1.09e-03	0	44	0	1980760064	17	4726
2026-01-18 01:40:08.34	238.26	9.82	-28.5	-30.6	13.4	4.39e-03	0	44	0	1983905792	17	4578
2026-01-18 01:40:09.34	238.19	9.74	-28.5	-30.6	13.3	2.28e-05	0	44	0	1987051520	17	4590
2026-01-18 01:40:10.34	238.12	9.66	-28.4	-30.8	13.6	8.30e-06	0	44	0	1990197248	16	4741
2026-01-18 01:40:11.35	238.05	9.58	-28.4	-30.7	13.6	1.06e-05	0	44	0	1993342976	16	4732
2026-01-18 01:40:12.35	237.98	9.50	-28.5	-30.7	13.3	1.06e-05	0	44	0	1996488704	17	4606
2026-01-18 01:40:13.35	237.91	9.43	-28.4	-30.4	13.5	6.68e-04	0	44	0	1999634432	17	4518
2026-01-18 01:40:14.35	237.85	9.35	-28.5	-30.6	13.3	1.22e-05	0	44	0	2002780160	17	4590
2026-01-18 01:40:15.35	237.78	9.27	-28.6	-30.9	13.1	3.05e-05	0	44	0	2005925888	17	4692
2026-01-18 01:40:16.35	237.71	9.19	-28.5	-30.6	13.3	1.52e-05	0	44	0	2009071616	17	4581
2026-01-18 01:40:17.36	237.65	9.11	-28.5	-30.7	13.2	2.67e-05	0	44	0	2012217344	17	4625
2026-01-18 01:40:18.36	237.58	9.03	-28.5	-30.6	13.3	2.97e-05	0	44	0	2015363072	17	4572
2026-01-18 01:40:19.37	237.51	8.96	-28.4	-30.4	13.4	1.14e-05	0	44	0	2018508800	17	4526
2026-01-18 01:40:20.38	237.45	8.88	-28.6	-30.8	13.2	3.12e-05	0	44	0	2021654528	17	4643
2026-01-18 01:40:21.38	237.38	8.80	-28.6	-30.9	13.1	2.05e-05	0	44	0	2024800256	17	4686
2026-01-18 01:40:22.38	237.32	8.72	-28.6	-30.8	13.2	2.82e-05	0	44	0	2027945984	17	4649
2026-01-18 01:40:23.39	237.25	8.65	-28.7	-31.2	12.9	3.81e-05	0	44	0	2031091712	17	4762
2026-01-18 01:40:24.39	237.19	8.57	-28.6	-31.0	13.0	3.96e-05	0	44	0	2034237440	17	4714
2026-01-18 01:40:25.39	237.13	8.49	-28.7	-31.2	12.9	9.76e-05	0	44	0	2037383168	17	4785
2026-01-18 01:40:26.39	237.06	8.42	-28.8	-31.3	12.8	9.30e-05	0	44	0	2040528896	17	4823
2026-01-18 01:40:27.39	237.00	8.34	-28.8	-31.5	12.7	7.55e-05	0	44	0	2043674624	17	4888
2026-01-18 01:40:28.39	236.94	8.26	-29.1	-31.5	12.4	1.09e-04	0	44	0	2046820352	18	4778
2026-01-18 01:40:29.39	236.88	8.19	-29.0	-31.8	12.5	1.30e-04	0	44	0	2049966080	17	5009
2026-01-18 01:40:30.40	236.81	8.11	-28.7	-31.2	12.8	8.77e-05	0	44	0	2053111808	17	4788
2026-01-18 01:40:31.41	236.75	8.04	-28.9	-31.3	12.5	1.93e-04	0	44	0	2056257536	18	4703
2026-01-18 01:40:32.41	236.69	7.96	-29.2	-31.8	12.1	1.33e-04	0	44	0	2059403264	18	4885
2026-01-18 01:40:33.41	236.63	7.89	-28.9	-31.3	12.5	2.04e-04	0	44	0	2062548992	18	4710
2026-01-18 01:40:34.42	236.57	7.81	-29.0	-31.5	12.3	1.66e-04	0	44	0	2065694720	18	4788
2026-01-18 01:40:35.42	236.51	7.74	-28.9	-31.7	12.5	9.07e-05	0	44	0	2068840448	17	4952
2026-01-18 01:40:36.44	236.45	7.66	-29.0	-31.5	12.3	1.65e-04	0	44	0	2071986176	18	4782
2026-01-18 01:40:37.44	236.39	7.59	-29.3	-32.3	11.8	4.59e-04	0	44	0	2075131904	18	5052
2026-01-18 01:40:38.45	236.33	7.51	-29.2	-31.9	12.1	2.15e-04	0	44	0	2078277632	18	4909
2026-01-18 01:40:39.44	236.27	7.44	-29.0	-31.4	12.3	3.25e-04	0	44	0	2081423360	18	4755
2026-01-18 01:40:40.45	236.21	7.37	-29.3	-32.2	11.8	6.04e-04	0	44	0	2084569088	18	5038
2026-01-18 01:40:41.45	236.15	7.29	-29.2	-32.0	11.9	3.45e-04	0	44	0	2087714816	18	4976
2026-01-18 01:40:42.45	236.09	7.22	-29.1	-31.7	12.1	1.65e-04	0	44	0	2090860544	18	4872
2026-01-18 01:40:43.46	236.04	7.15	-29.2	-31.9	11.9	4.72e-04	0	44	0	2094006272	18	4933
2026-01-18 01:40:44.46	235.98	7.07	-32.8	-43.0	4.1	2.83e-04	0	44	0	2097152000	25	11652
2026-01-18 01:40:45.46	235.92	7.00	-33.4	-45.6	3.8	1.49e+00	0	44	104	2097152000	26	14644
2026-01-18 01:40:46.47	235.87	6.93	-33.7	-45.7	3.8	1.49e+00	0	44	104	2097152000	27	14371
2026-01-18 01:40:47.47	235.81	6.85	-33.9	-46.2	3.8	1.49e+00	0	44	104	2097152000	27	14772

#Closed at: 2026-01-18 01:40:47
#Recorded file [2097 MB]: D:/data/31010_260118_042933.dat