passes_logs/2026/01/18/R2M6_AANII_01/R2M6_AANII_01__20260118_062229_FENGYUN_3E_rec.log

#Pass ID: 20260118_062229_FENGYUN 3E
#Satellite: FENGYUN 3E
#Configuration: FENGYUN 3E
#almurnet v.1.7.20240730
#Start time: 2026-01-18 06:22:30

#Version: 2.2.20231116
#Station: R2M6_AANII_01
#Location: 30.233357 lon 59.946436 lat
#TLE: 1 49008U 21062A   26017.26067429  .00000278  00000+0  15192-3 0  9991
#TLE: 2 49008  98.7484  22.3628 0002125 132.6872 227.4483 14.19886454235162

#Time	Az	El	Level	Level2	SNR	BER	BlckErr	Temp	State	Recorded	gain1	gain2
2026-01-18 06:22:30.29	10.78	7.05	-30.0	-32.6	5.3	7.72e-01	0	40	0	0	19	4881
2026-01-18 06:22:31.29	10.70	7.12	-29.6	-31.2	5.4	7.68e-01	0	40	104	0	20	4328
2026-01-18 06:22:32.30	10.61	7.18	-29.7	-31.9	9.8	9.59e-03	0	40	0	0	19	4611
2026-01-18 06:22:33.29	10.53	7.25	-29.9	-32.3	9.6	1.37e-02	0	40	0	6291456	19	4746
2026-01-18 06:22:34.30	10.44	7.32	-29.7	-32.0	9.7	7.42e-03	0	40	0	14680064	19	4643
2026-01-18 06:22:35.30	10.36	7.38	-29.8	-32.0	9.7	9.88e-03	0	40	0	22020096	19	4660
2026-01-18 06:22:36.31	10.27	7.45	-29.5	-31.3	10.2	6.91e-03	0	40	0	28311552	19	4439
2026-01-18 06:22:37.31	10.19	7.52	-29.1	-30.3	10.9	2.59e-03	0	40	0	35651584	19	4132
2026-01-18 06:22:38.32	10.10	7.58	-28.6	-30.0	11.7	8.91e-04	0	40	0	42991616	17	4235
2026-01-18 06:22:39.33	10.01	7.65	-27.9	-28.9	12.7	5.40e-04	0	40	0	50331648	16	4039
2026-01-18 06:22:40.33	9.92	7.72	-27.9	-29.0	12.6	1.02e-04	0	40	0	57671680	16	4054
2026-01-18 06:22:41.34	9.83	7.79	-27.8	-28.7	12.8	3.95e-04	0	40	0	65011712	16	3975
2026-01-18 06:22:42.34	9.75	7.85	-27.5	-28.5	13.1	3.31e-05	0	40	0	72351744	15	4035
2026-01-18 06:22:43.34	9.66	7.92	-27.5	-28.6	13.0	4.00e-05	0	40	0	79691776	15	4067
2026-01-18 06:22:44.34	9.57	7.99	-27.8	-29.1	12.7	3.59e-04	0	40	0	85983232	15	4212
2026-01-18 06:22:45.35	9.48	8.06	-27.7	-29.0	12.8	4.46e-05	0	40	0	94371840	15	4179
2026-01-18 06:22:46.35	9.39	8.12	-27.7	-29.1	12.8	2.97e-05	0	40	0	101711872	15	4193
2026-01-18 06:22:47.36	9.30	8.19	-27.6	-28.8	12.9	4.23e-05	0	40	0	108003328	15	4116
2026-01-18 06:22:48.36	9.21	8.26	-27.5	-28.6	13.0	2.51e-04	0	40	0	115343360	15	4064
2026-01-18 06:22:49.36	9.11	8.33	-27.4	-28.3	13.2	1.48e-05	0	40	0	122683392	15	3985
2026-01-18 06:22:50.37	9.02	8.40	-27.4	-28.2	13.3	3.31e-05	0	40	0	130023424	15	3960
2026-01-18 06:22:51.37	8.93	8.46	-27.4	-28.7	13.3	2.22e-04	0	40	0	137363456	14	4191
2026-01-18 06:22:52.38	8.84	8.53	-27.2	-28.4	13.5	5.70e-06	0	40	0	144703488	14	4114
2026-01-18 06:22:53.38	8.74	8.60	-27.1	-28.1	13.7	3.40e-06	0	41	0	152043520	14	4028
2026-01-18 06:22:54.38	8.65	8.67	-27.0	-27.8	13.8	8.00e-06	0	40	0	159383552	14	3952
2026-01-18 06:22:55.38	8.56	8.74	-26.9	-27.6	13.9	3.40e-06	0	41	0	166723584	14	3893
2026-01-18 06:22:56.39	8.46	8.81	-27.0	-27.8	13.9	8.58e-05	0	40	0	173015040	14	3941
2026-01-18 06:22:57.40	8.36	8.88	-26.9	-27.7	13.9	3.40e-06	0	41	0	181403648	14	3929
2026-01-18 06:22:58.40	8.27	8.95	-26.7	-27.2	14.2	2.20e-06	0	41	0	188743680	14	3802
2026-01-18 06:22:59.40	8.17	9.02	-26.8	-27.5	14.1	5.70e-06	0	41	0	195035136	14	3872
2026-01-18 06:23:00.40	8.08	9.09	-26.7	-27.7	14.2	1.10e-06	0	41	0	202375168	13	4025
2026-01-18 06:23:01.40	7.98	9.16	-26.7	-27.7	14.2	0.00e+00	0	41	0	209715200	13	4036
2026-01-18 06:23:02.41	7.88	9.23	-26.8	-27.8	14.1	1.10e-06	0	41	0	217055232	13	4063
2026-01-18 06:23:03.41	7.78	9.29	-26.7	-27.6	14.2	1.10e-06	0	41	0	224395264	13	4011
2026-01-18 06:23:04.41	7.69	9.36	-26.8	-27.9	14.1	0.00e+00	0	41	0	231735296	13	4078
2026-01-18 06:23:05.42	7.59	9.44	-26.7	-27.7	14.2	0.00e+00	0	41	0	239075328	13	4027
2026-01-18 06:23:06.41	7.49	9.50	-27.0	-28.2	13.9	2.20e-06	0	41	0	246415360	13	4171
2026-01-18 06:23:07.41	7.39	9.57	-27.1	-28.1	13.7	8.00e-06	0	41	0	252706816	14	4024
2026-01-18 06:23:08.42	7.29	9.65	-26.9	-27.5	14.1	5.70e-06	0	41	0	260046848	14	3886
2026-01-18 06:23:09.42	7.19	9.72	-26.8	-27.4	14.1	1.10e-06	0	41	0	267386880	14	3843
2026-01-18 06:23:10.42	7.08	9.79	-27.0	-27.7	14.0	0.00e+00	0	41	0	274726912	14	3940
2026-01-18 06:23:11.43	6.98	9.86	-26.9	-27.6	14.0	2.20e-06	0	41	0	282066944	14	3894
2026-01-18 06:23:12.44	6.88	9.93	-26.8	-27.4	14.1	0.00e+00	0	41	0	289406976	14	3865
2026-01-18 06:23:13.44	6.78	10.00	-26.9	-27.6	14.1	0.00e+00	0	41	0	296747008	14	3894
2026-01-18 06:23:14.44	6.67	10.07	-26.8	-27.4	14.2	1.10e-06	0	41	0	304087040	14	3848
2026-01-18 06:23:15.45	6.57	10.14	-26.9	-27.7	14.0	2.20e-06	0	41	0	311427072	14	3915
2026-01-18 06:23:16.44	6.46	10.21	-27.0	-27.8	14.0	0.00e+00	0	41	0	317718528	14	3946
2026-01-18 06:23:17.44	6.36	10.28	-26.9	-27.6	14.1	4.50e-06	0	41	0	325058560	14	3909
2026-01-18 06:23:18.44	6.25	10.35	-26.7	-27.1	14.3	2.20e-06	0	41	0	332398592	14	3786
2026-01-18 06:23:19.45	6.15	10.43	-26.8	-27.4	14.2	1.10e-06	0	41	0	339738624	14	3844
2026-01-18 06:23:20.44	6.04	10.50	-26.8	-27.3	14.2	1.10e-06	0	41	0	347078656	14	3819
2026-01-18 06:23:21.45	5.93	10.57	-26.9	-27.6	14.1	1.10e-06	0	41	0	354418688	14	3911
2026-01-18 06:23:22.45	5.83	10.64	-26.7	-27.0	14.4	1.10e-06	0	41	0	361758720	14	3757
2026-01-18 06:23:23.46	5.72	10.71	-26.4	-26.9	14.7	0.00e+00	0	41	0	369098752	13	3828
2026-01-18 06:23:24.46	5.61	10.79	-26.5	-27.2	14.6	0.00e+00	0	41	0	376438784	13	3908
2026-01-18 06:23:25.46	5.50	10.86	-26.3	-26.7	14.9	1.10e-06	0	41	0	383778816	13	3788
2026-01-18 06:23:26.46	5.39	10.93	-26.2	-26.4	15.0	0.00e+00	0	41	0	391118848	13	3718
2026-01-18 06:23:27.46	5.28	11.00	-26.4	-26.9	14.7	0.00e+00	0	41	0	398458880	13	3827
2026-01-18 06:23:28.46	5.17	11.07	-26.5	-27.2	14.6	0.00e+00	0	41	0	404750336	13	3902
2026-01-18 06:23:29.46	5.06	11.15	-26.4	-27.0	14.7	1.10e-06	0	41	0	412090368	13	3859
2026-01-18 06:23:30.46	4.94	11.22	-26.3	-26.8	14.8	0.00e+00	0	41	0	419430400	13	3808
2026-01-18 06:23:31.47	4.83	11.29	-26.3	-26.7	14.9	0.00e+00	0	41	0	426770432	13	3773
2026-01-18 06:23:32.47	4.72	11.37	-26.4	-26.9	14.7	0.00e+00	0	41	0	434110464	13	3834
2026-01-18 06:23:33.47	4.60	11.44	-26.5	-27.3	14.5	1.10e-06	0	42	0	441450496	13	3913
2026-01-18 06:23:34.47	4.49	11.51	-26.6	-27.4	14.5	0.00e+00	0	41	0	448790528	13	3941
2026-01-18 06:23:35.48	4.37	11.59	-26.5	-27.2	14.6	0.00e+00	0	41	0	456130560	13	3902
2026-01-18 06:23:36.48	4.26	11.66	-26.4	-26.9	14.7	0.00e+00	0	41	0	462422016	13	3833
2026-01-18 06:23:37.48	4.14	11.73	-26.4	-26.9	14.8	0.00e+00	0	41	0	469762048	13	3826
2026-01-18 06:23:38.48	4.03	11.81	-26.4	-27.0	14.7	1.10e-06	0	41	0	477102080	13	3855
2026-01-18 06:23:39.49	3.91	11.88	-26.4	-27.0	14.7	0.00e+00	0	41	0	484442112	13	3846
2026-01-18 06:23:40.50	3.79	11.95	-26.3	-26.8	14.8	0.00e+00	0	41	0	491782144	13	3804
2026-01-18 06:23:41.50	3.67	12.03	-26.4	-26.9	14.8	0.00e+00	0	42	0	499122176	13	3827
2026-01-18 06:23:42.51	3.55	12.10	-26.4	-26.9	14.8	1.10e-06	0	42	0	506462208	13	3828
2026-01-18 06:23:43.51	3.43	12.18	-26.4	-26.9	14.8	0.00e+00	0	41	0	513802240	13	3830
2026-01-18 06:23:44.52	3.31	12.25	-26.4	-26.9	14.8	0.00e+00	0	41	0	521142272	13	3839
2026-01-18 06:23:45.53	3.18	12.33	-26.3	-26.7	14.9	0.00e+00	0	41	0	528482304	13	3783
2026-01-18 06:23:46.53	3.06	12.40	-26.1	-26.4	15.1	0.00e+00	0	42	0	535822336	13	3696
2026-01-18 06:23:47.54	2.94	12.47	-26.1	-26.3	15.1	0.00e+00	0	42	0	543162368	13	3683
2026-01-18 06:23:48.54	2.82	12.55	-26.3	-26.8	14.9	0.00e+00	0	41	0	549453824	13	3795
2026-01-18 06:23:49.54	2.69	12.62	-26.2	-26.6	15.0	0.00e+00	0	42	0	556793856	13	3740
2026-01-18 06:23:50.54	2.57	12.70	-26.2	-26.5	15.1	0.00e+00	0	42	0	565182464	13	3726
2026-01-18 06:23:51.55	2.44	12.77	-26.3	-26.8	14.9	0.00e+00	0	42	0	571473920	13	3803
2026-01-18 06:23:52.55	2.32	12.85	-26.2	-26.5	15.1	0.00e+00	0	42	0	578813952	13	3716
2026-01-18 06:23:53.56	2.19	12.92	-26.0	-26.2	15.2	0.00e+00	0	41	0	586153984	13	3651
2026-01-18 06:23:54.56	2.06	13.00	-26.1	-26.2	15.2	0.00e+00	0	42	0	593494016	13	3667
2026-01-18 06:23:55.56	1.93	13.07	-26.1	-26.4	15.1	0.00e+00	0	42	0	600834048	13	3703
2026-01-18 06:23:56.57	1.81	13.15	-26.0	-26.1	15.3	0.00e+00	0	42	0	608174080	13	3627
2026-01-18 06:23:57.57	1.68	13.23	-25.8	-26.2	15.5	0.00e+00	0	42	0	615514112	12	3751
2026-01-18 06:23:58.57	1.55	13.30	-25.9	-26.4	15.4	0.00e+00	0	42	0	622854144	12	3806
2026-01-18 06:23:59.58	1.42	13.38	-25.9	-26.5	15.4	0.00e+00	0	42	0	630194176	12	3823
2026-01-18 06:24:00.59	1.28	13.45	-26.0	-26.5	15.3	0.00e+00	0	42	0	636485632	12	3839
2026-01-18 06:24:01.59	1.15	13.53	-25.8	-26.1	15.6	0.00e+00	0	42	0	644874240	12	3735
2026-01-18 06:24:02.60	1.02	13.61	-25.8	-26.2	15.6	0.00e+00	0	42	0	652214272	12	3750
2026-01-18 06:24:03.61	0.88	13.68	-25.8	-26.2	15.5	0.00e+00	0	42	0	658505728	12	3765
2026-01-18 06:24:04.61	0.75	13.76	-25.9	-26.3	15.5	0.00e+00	0	42	0	665845760	12	3781
2026-01-18 06:24:05.61	0.62	13.83	-25.9	-26.3	15.5	0.00e+00	0	42	0	673185792	12	3776
2026-01-18 06:24:06.61	0.48	13.91	-25.9	-26.9	15.5	0.00e+00	0	42	0	680525824	11	4026
2026-01-18 06:24:07.61	0.34	13.99	-25.9	-26.9	15.5	0.00e+00	0	42	0	687865856	11	4026
2026-01-18 06:24:08.61	0.21	14.06	-25.9	-26.2	15.5	0.00e+00	0	42	0	695205888	12	3764
2026-01-18 06:24:09.62	0.07	14.14	-25.8	-26.1	15.7	0.00e+00	0	42	0	702545920	12	3728
2026-01-18 06:24:10.62	359.93	14.21	-25.8	-26.1	15.6	0.00e+00	0	42	0	709885952	12	3729
2026-01-18 06:24:11.62	359.79	14.29	-25.8	-26.1	15.6	0.00e+00	0	42	0	716177408	12	3728
2026-01-18 06:24:12.63	359.65	14.37	-25.8	-26.7	15.7	0.00e+00	0	42	0	723517440	11	3974
2026-01-18 06:24:13.63	359.51	14.44	-25.9	-26.7	15.6	0.00e+00	0	42	0	730857472	11	3988
2026-01-18 06:24:14.63	359.37	14.52	-25.9	-26.8	15.6	0.00e+00	0	42	0	738197504	11	4010
2026-01-18 06:24:15.63	359.23	14.60	-25.9	-26.9	15.6	0.00e+00	0	42	0	745537536	11	4014
2026-01-18 06:24:16.64	359.08	14.68	-25.9	-26.9	15.6	0.00e+00	0	42	0	752877568	11	4020
2026-01-18 06:24:17.64	358.94	14.75	-25.9	-26.8	15.6	1.37e-05	0	42	0	760217600	11	3990
2026-01-18 06:24:18.65	358.80	14.83	-25.9	-26.7	15.6	0.00e+00	0	42	0	767557632	11	3984
2026-01-18 06:24:19.65	358.65	14.91	-26.0	-27.0	15.5	2.72e-04	0	42	0	774897664	11	4038
2026-01-18 06:24:20.65	358.50	14.98	-25.6	-26.3	15.9	0.00e+00	0	42	0	782237696	11	3866
2026-01-18 06:24:21.66	358.36	15.06	-25.6	-26.1	16.0	0.00e+00	0	42	0	789577728	11	3835
2026-01-18 06:24:22.66	358.21	15.14	-25.5	-25.9	16.1	2.76e-04	0	42	0	796917760	11	3796
2026-01-18 06:24:23.66	358.06	15.21	-25.4	-26.3	16.1	0.00e+00	0	42	0	803209216	10	3993
2026-01-18 06:24:24.67	357.91	15.29	-25.2	-25.9	16.4	0.00e+00	0	42	0	810549248	10	3884
2026-01-18 06:24:25.67	357.76	15.37	-25.3	-25.9	16.4	0.00e+00	0	42	0	817889280	10	3894
2026-01-18 06:24:26.67	357.61	15.45	-25.2	-25.8	16.4	0.00e+00	0	42	0	825229312	10	3870
2026-01-18 06:24:27.68	357.46	15.53	-25.2	-25.9	16.4	0.00e+00	0	42	0	832569344	10	3893
2026-01-18 06:24:28.67	357.31	15.60	-25.2	-25.9	16.4	0.00e+00	0	42	0	839909376	10	3882
2026-01-18 06:24:29.68	357.15	15.68	-25.2	-25.7	16.5	3.55e-04	0	42	0	847249408	10	3847
2026-01-18 06:24:30.68	357.00	15.76	-25.2	-25.7	16.5	0.00e+00	0	42	0	854589440	10	3840
2026-01-18 06:24:31.68	356.85	15.83	-25.3	-26.1	16.4	0.00e+00	0	42	0	860880896	10	3923
2026-01-18 06:24:32.68	356.69	15.91	-25.3	-26.0	16.4	3.56e-04	0	42	0	868220928	10	3899
2026-01-18 06:24:33.69	356.53	15.99	-25.4	-26.2	16.3	0.00e+00	0	42	0	875560960	10	3943
2026-01-18 06:24:34.69	356.38	16.07	-25.3	-26.1	16.3	3.97e-04	0	42	0	882900992	10	3924
2026-01-18 06:24:35.69	356.22	16.15	-25.3	-26.1	16.4	4.03e-04	0	42	0	890241024	10	3926
2026-01-18 06:24:36.70	356.06	16.22	-25.3	-26.0	16.4	0.00e+00	0	42	0	897581056	10	3901
2026-01-18 06:24:37.70	355.90	16.30	-25.2	-25.8	16.5	4.00e-04	0	42	0	904921088	10	3867
2026-01-18 06:24:38.71	355.74	16.38	-25.3	-26.0	16.4	0.00e+00	0	42	0	912261120	10	3914
2026-01-18 06:24:39.71	355.58	16.46	-25.2	-25.8	16.5	0.00e+00	0	42	0	919601152	10	3855
2026-01-18 06:24:40.72	355.41	16.54	-25.0	-26.0	16.6	4.76e-04	0	42	0	926941184	9	4005
2026-01-18 06:24:41.72	355.25	16.61	-25.1	-25.5	16.7	4.85e-04	0	42	0	934281216	10	3791
2026-01-18 06:24:42.72	355.09	16.69	-25.2	-25.8	16.5	0.00e+00	0	42	0	941621248	10	3865
2026-01-18 06:24:43.72	354.92	16.77	-25.3	-25.9	16.5	0.00e+00	0	42	0	947912704	10	3890
2026-01-18 06:24:44.73	354.76	16.85	-25.2	-25.8	16.5	4.29e-04	0	42	0	955252736	10	3861
2026-01-18 06:24:45.73	354.59	16.92	-25.2	-25.9	16.4	0.00e+00	0	42	0	962592768	10	3880
2026-01-18 06:24:46.73	354.42	17.00	-25.1	-25.6	16.6	3.75e-04	0	42	0	969932800	10	3819
2026-01-18 06:24:47.74	354.25	17.08	-25.2	-25.9	16.5	4.23e-04	0	42	0	977272832	10	3876
2026-01-18 06:24:48.75	354.08	17.16	-25.2	-25.7	16.6	0.00e+00	0	42	0	984612864	10	3847
2026-01-18 06:24:49.74	353.91	17.24	-25.2	-25.7	16.6	4.15e-04	0	42	0	991952896	10	3845
2026-01-18 06:24:50.75	353.74	17.31	-25.2	-25.8	16.5	0.00e+00	0	42	0	999292928	10	3868
2026-01-18 06:24:51.76	353.57	17.39	-25.5	-26.4	16.2	0.00e+00	0	42	0	1006632960	10	4009
2026-01-18 06:24:52.76	353.40	17.47	-25.2	-25.8	16.5	3.70e-04	0	42	0	1013972992	10	3870
2026-01-18 06:24:53.76	353.22	17.55	-25.1	-25.6	16.7	0.00e+00	0	42	0	1021313024	10	3807
2026-01-18 06:24:54.76	353.05	17.62	-25.1	-25.5	16.7	0.00e+00	0	42	0	1028653056	10	3801
2026-01-18 06:24:55.77	352.87	17.70	-25.1	-25.6	16.6	0.00e+00	0	42	0	1034944512	10	3820
2026-01-18 06:24:56.78	352.69	17.78	-24.9	-25.8	16.8	3.03e-04	0	42	0	1042284544	9	3955
2026-01-18 06:24:57.78	352.52	17.86	-25.0	-25.8	16.8	0.00e+00	0	42	0	1049624576	9	3971
2026-01-18 06:24:58.78	352.34	17.94	-24.9	-25.6	16.9	0.00e+00	0	42	0	1056964608	9	3917
2026-01-18 06:24:59.78	352.16	18.01	-24.8	-25.5	17.0	3.15e-04	0	42	0	1064304640	9	3885
2026-01-18 06:25:00.78	351.98	18.09	-24.8	-25.4	17.0	0.00e+00	0	42	0	1071644672	9	3861
2026-01-18 06:25:01.79	351.80	18.17	-24.9	-25.7	16.8	2.17e-05	0	42	0	1078984704	9	3951
2026-01-18 06:25:02.80	351.61	18.25	-24.8	-25.5	17.0	0.00e+00	0	42	0	1086324736	9	3887
2026-01-18 06:25:03.80	351.43	18.32	-24.6	-25.1	17.2	0.00e+00	0	42	0	1093664768	9	3795
2026-01-18 06:25:04.80	351.25	18.40	-24.6	-25.1	17.2	1.57e-04	0	42	0	1101004800	9	3791
2026-01-18 06:25:05.80	351.06	18.48	-24.6	-25.0	17.3	0.00e+00	0	42	0	1108344832	9	3769
2026-01-18 06:25:06.81	350.88	18.56	-24.6	-25.0	17.2	0.00e+00	0	42	0	1114636288	9	3780
2026-01-18 06:25:07.81	350.69	18.63	-24.6	-25.1	17.2	0.00e+00	0	42	0	1121976320	9	3788
2026-01-18 06:25:08.81	350.50	18.71	-24.7	-25.2	17.1	0.00e+00	0	42	0	1129316352	9	3822
2026-01-18 06:25:09.81	350.31	18.79	-24.7	-25.2	17.2	0.00e+00	0	42	0	1136656384	9	3808
2026-01-18 06:25:10.82	350.12	18.86	-24.7	-25.2	17.2	0.00e+00	0	42	0	1143996416	9	3816
2026-01-18 06:25:11.82	349.93	18.94	-24.8	-25.4	17.0	0.00e+00	0	42	0	1151336448	9	3878
2026-01-18 06:25:12.82	349.74	19.02	-24.9	-25.7	16.9	0.00e+00	0	42	0	1158676480	9	3932
2026-01-18 06:25:13.83	349.55	19.09	-24.9	-25.7	16.9	0.00e+00	0	42	0	1166016512	9	3929
2026-01-18 06:25:14.82	349.35	19.17	-25.0	-25.9	16.8	1.13e-04	0	42	0	1173356544	9	3981
2026-01-18 06:25:15.82	349.16	19.24	-25.1	-25.6	16.7	0.00e+00	0	42	0	1179648000	10	3800
2026-01-18 06:25:16.82	348.97	19.32	-25.1	-25.6	16.7	0.00e+00	0	42	0	1186988032	10	3799
2026-01-18 06:25:17.83	348.77	19.40	-25.0	-25.3	16.9	0.00e+00	0	42	0	1194328064	10	3750
2026-01-18 06:25:18.83	348.57	19.47	-25.2	-25.8	16.6	0.00e+00	0	42	0	1201668096	10	3851
2026-01-18 06:25:19.84	348.37	19.55	-25.0	-25.4	16.8	0.00e+00	0	42	0	1209008128	10	3768
2026-01-18 06:25:20.84	348.17	19.62	-24.9	-25.1	17.0	0.00e+00	0	42	0	1216348160	10	3691
2026-01-18 06:25:21.85	347.97	19.70	-24.8	-24.9	17.1	0.00e+00	0	42	0	1223688192	10	3649
2026-01-18 06:25:22.85	347.77	19.78	-24.8	-24.9	17.1	0.00e+00	0	42	0	1231028224	10	3661
2026-01-18 06:25:23.85	347.56	19.85	-24.7	-24.8	17.2	0.00e+00	0	42	0	1238368256	10	3628
2026-01-18 06:25:24.86	347.36	19.93	-24.7	-24.8	17.2	0.00e+00	0	42	0	1245708288	10	3627
2026-01-18 06:25:25.85	347.16	20.00	-25.0	-25.3	16.9	0.00e+00	0	42	0	1253048320	10	3739
2026-01-18 06:25:26.86	346.95	20.08	-24.9	-25.2	16.9	0.00e+00	0	42	0	1260388352	10	3729
2026-01-18 06:25:27.86	346.74	20.15	-24.8	-25.0	17.1	0.00e+00	0	42	0	1266679808	10	3670
2026-01-18 06:25:28.87	346.53	20.22	-24.9	-25.1	17.0	0.00e+00	0	42	0	1274019840	10	3698
2026-01-18 06:25:29.86	346.33	20.30	-24.8	-25.0	17.0	0.00e+00	0	42	0	1281359872	10	3682
2026-01-18 06:25:30.86	346.12	20.37	-24.9	-25.2	16.9	0.00e+00	0	42	0	1288699904	10	3718
2026-01-18 06:25:31.87	345.91	20.45	-24.9	-25.1	17.0	0.00e+00	0	42	0	1296039936	10	3704
2026-01-18 06:25:32.87	345.69	20.52	-24.9	-25.1	17.0	0.00e+00	0	42	0	1303379968	10	3686
2026-01-18 06:25:33.88	345.48	20.59	-24.8	-25.0	17.1	0.00e+00	0	42	0	1310720000	10	3667
2026-01-18 06:25:34.87	345.27	20.67	-24.8	-25.0	17.0	0.00e+00	0	42	0	1318060032	10	3684
2026-01-18 06:25:35.88	345.05	20.74	-24.8	-24.9	17.1	0.00e+00	0	42	0	1324351488	10	3649
2026-01-18 06:25:36.88	344.84	20.81	-24.7	-24.8	17.2	0.00e+00	0	42	0	1331691520	10	3619
2026-01-18 06:25:37.88	344.62	20.88	-24.7	-24.7	17.2	0.00e+00	0	42	0	1339031552	10	3597
2026-01-18 06:25:38.88	344.40	20.96	-24.6	-24.5	17.3	0.00e+00	0	42	0	1346371584	10	3565
2026-01-18 06:25:39.88	344.18	21.03	-24.6	-24.5	17.3	0.00e+00	0	42	0	1353711616	10	3570
2026-01-18 06:25:40.88	343.96	21.10	-24.5	-24.3	17.4	0.00e+00	0	42	0	1361051648	10	3519
2026-01-18 06:25:41.89	343.74	21.17	-24.5	-24.2	17.5	0.00e+00	0	42	0	1368391680	10	3507
2026-01-18 06:25:42.89	343.52	21.24	-24.7	-24.7	17.3	0.00e+00	0	42	0	1375731712	10	3596
2026-01-18 06:25:43.90	343.29	21.32	-24.4	-24.1	17.5	0.00e+00	0	42	0	1383071744	10	3475
2026-01-18 06:25:44.90	343.07	21.39	-24.4	-24.5	17.6	0.00e+00	0	42	0	1390411776	9	3662
2026-01-18 06:25:45.90	342.84	21.46	-24.4	-24.6	17.6	0.00e+00	0	42	0	1397751808	9	3679
2026-01-18 06:25:46.90	342.62	21.53	-24.5	-24.7	17.5	0.00e+00	0	42	0	1405091840	9	3703
2026-01-18 06:25:47.90	342.39	21.60	-24.3	-24.4	17.7	0.00e+00	0	42	0	1411383296	9	3643
2026-01-18 06:25:48.90	342.16	21.67	-24.4	-24.5	17.6	0.00e+00	0	42	0	1418723328	9	3667
2026-01-18 06:25:49.90	341.93	21.73	-24.4	-24.5	17.6	0.00e+00	0	42	0	1426063360	9	3669
2026-01-18 06:25:50.90	341.70	21.80	-24.4	-24.5	17.6	0.00e+00	0	42	0	1433403392	9	3664
2026-01-18 06:25:51.90	341.47	21.87	-24.5	-24.7	17.5	0.00e+00	0	42	0	1440743424	9	3707
2026-01-18 06:25:52.90	341.24	21.94	-24.4	-24.6	17.6	0.00e+00	0	42	0	1448083456	9	3685
2026-01-18 06:25:53.91	341.00	22.01	-24.5	-24.8	17.4	0.00e+00	0	42	0	1455423488	9	3740
2026-01-18 06:25:54.90	340.77	22.08	-24.5	-24.8	17.4	0.00e+00	0	42	0	1462763520	9	3732
2026-01-18 06:25:55.90	340.54	22.14	-24.5	-24.8	17.4	0.00e+00	0	42	0	1470103552	9	3735
2026-01-18 06:25:56.90	340.30	22.21	-24.6	-25.0	17.4	0.00e+00	0	42	0	1476395008	9	3769
2026-01-18 06:25:57.91	340.06	22.28	-24.4	-24.6	17.5	0.00e+00	0	42	0	1483735040	9	3687
2026-01-18 06:25:58.92	339.82	22.34	-24.3	-24.3	17.7	0.00e+00	0	42	0	1491075072	9	3609
2026-01-18 06:25:59.92	339.58	22.41	-24.3	-24.4	17.7	0.00e+00	0	42	0	1498415104	9	3636
2026-01-18 06:26:00.93	339.34	22.48	-24.2	-24.2	17.7	0.00e+00	0	42	0	1505755136	9	3607
2026-01-18 06:26:01.92	339.10	22.54	-24.3	-24.5	17.7	0.00e+00	0	42	0	1513095168	9	3652
2026-01-18 06:26:02.92	338.86	22.61	-24.1	-23.9	17.9	0.00e+00	0	42	0	1520435200	9	3537
2026-01-18 06:26:03.92	338.61	22.67	-23.9	-23.6	18.1	0.00e+00	0	42	0	1527775232	9	3466
2026-01-18 06:26:04.93	338.36	22.74	-23.9	-23.6	18.1	0.00e+00	0	42	0	1534066688	9	3460
2026-01-18 06:26:05.93	338.12	22.80	-23.8	-23.8	18.2	0.00e+00	0	42	0	1541406720	8	3608
2026-01-18 06:26:06.93	337.87	22.86	-23.8	-23.9	18.2	0.00e+00	0	42	0	1548746752	8	3625
2026-01-18 06:26:07.93	337.62	22.92	-23.9	-24.0	18.1	0.00e+00	0	42	0	1556086784	8	3650
2026-01-18 06:26:08.93	337.38	22.99	-23.8	-24.4	18.1	0.00e+00	0	42	0	1563426816	7	3849
2026-01-18 06:26:09.94	337.12	23.05	-23.9	-24.4	18.1	0.00e+00	0	42	0	1570766848	7	3850
2026-01-18 06:26:10.94	336.87	23.11	-23.9	-24.6	18.1	0.00e+00	0	42	0	1578106880	7	3881
2026-01-18 06:26:11.95	336.62	23.17	-24.2	-24.6	17.8	0.00e+00	0	42	0	1585446912	8	3776
2026-01-18 06:26:12.96	336.36	23.23	-24.2	-24.7	17.8	0.00e+00	0	42	0	1592786944	8	3814
2026-01-18 06:26:13.96	336.11	23.29	-24.4	-25.2	17.5	0.00e+00	0	42	0	1600126976	8	3917
2026-01-18 06:26:14.96	335.86	23.35	-24.4	-25.1	17.6	0.00e+00	0	42	0	1607467008	8	3910
2026-01-18 06:26:15.97	335.60	23.41	-24.4	-25.2	17.5	0.00e+00	0	42	0	1614807040	8	3921
2026-01-18 06:26:16.96	335.34	23.47	-24.4	-25.0	17.6	0.00e+00	0	42	0	1621098496	8	3887
2026-01-18 06:26:17.96	335.09	23.53	-24.3	-24.8	17.7	0.00e+00	0	42	0	1628438528	8	3841
2026-01-18 06:26:18.96	334.83	23.59	-24.2	-24.7	17.8	0.00e+00	0	42	0	1635778560	8	3810
2026-01-18 06:26:19.96	334.57	23.64	-24.1	-24.5	17.9	0.00e+00	0	42	0	1643118592	8	3769
2026-01-18 06:26:20.96	334.31	23.70	-24.1	-24.5	17.9	0.00e+00	0	42	0	1650458624	8	3758
2026-01-18 06:26:21.97	334.04	23.76	-24.2	-24.6	17.8	0.00e+00	0	42	0	1657798656	8	3793
2026-01-18 06:26:22.97	333.78	23.81	-24.2	-24.6	17.8	0.00e+00	0	42	0	1665138688	8	3798
2026-01-18 06:26:23.97	333.52	23.87	-24.3	-25.0	17.7	0.00e+00	0	42	0	1672478720	8	3869
2026-01-18 06:26:24.97	333.25	23.92	-24.2	-24.7	17.8	0.00e+00	0	42	0	1678770176	8	3802
2026-01-18 06:26:25.98	332.98	23.98	-24.1	-24.4	18.0	0.00e+00	0	42	0	1686110208	8	3735
2026-01-18 06:26:26.98	332.72	24.03	-24.0	-24.8	18.0	0.00e+00	0	42	0	1693450240	7	3933
2026-01-18 06:26:27.99	332.45	24.08	-24.0	-24.8	18.0	0.00e+00	0	42	0	1700790272	7	3926
2026-01-18 06:26:28.99	332.18	24.14	-24.1	-24.9	17.9	0.00e+00	0	42	0	1708130304	7	3951
2026-01-18 06:26:29.99	331.91	24.19	-24.0	-24.2	18.1	0.00e+00	0	42	0	1715470336	8	3691
2026-01-18 06:26:31.00	331.64	24.24	-24.0	-24.2	18.0	0.00e+00	0	42	0	1722810368	8	3705
2026-01-18 06:26:32.00	331.37	24.29	-23.9	-24.6	18.1	0.00e+00	0	42	0	1730150400	7	3889
2026-01-18 06:26:33.01	331.09	24.34	-23.9	-24.6	18.0	0.00e+00	0	42	0	1737490432	7	3899
2026-01-18 06:26:34.01	330.82	24.39	-24.0	-24.7	18.0	0.00e+00	0	42	0	1744830464	7	3918
2026-01-18 06:26:35.02	330.55	24.44	-24.0	-24.8	18.0	0.00e+00	0	42	0	1752170496	7	3938
2026-01-18 06:26:36.02	330.27	24.49	-24.1	-24.5	17.9	0.00e+00	0	42	0	1759510528	8	3763
2026-01-18 06:26:37.03	329.99	24.53	-24.0	-24.2	18.0	0.00e+00	0	42	0	1765801984	8	3695
2026-01-18 06:26:38.03	329.72	24.58	-23.9	-24.0	18.2	0.00e+00	0	42	0	1773142016	8	3643
2026-01-18 06:26:39.03	329.44	24.63	-24.0	-24.7	18.0	0.00e+00	0	42	0	1780482048	7	3912
2026-01-18 06:26:40.02	329.17	24.67	-23.8	-24.3	18.2	0.00e+00	0	42	0	1787822080	7	3822
2026-01-18 06:26:41.03	328.88	24.72	-23.9	-24.6	18.1	0.00e+00	0	42	0	1795162112	7	3885
2026-01-18 06:26:42.03	328.61	24.76	-24.0	-24.7	18.0	0.00e+00	0	42	0	1802502144	7	3925
2026-01-18 06:26:43.03	328.33	24.81	-24.1	-24.9	17.9	0.00e+00	0	43	0	1809842176	7	3964
2026-01-18 06:26:44.03	328.04	24.85	-24.1	-24.4	18.0	0.00e+00	0	42	0	1817182208	8	3740
2026-01-18 06:26:45.04	327.76	24.89	-24.1	-24.5	17.9	0.00e+00	0	42	0	1824522240	8	3762
2026-01-18 06:26:46.04	327.48	24.93	-24.1	-24.5	17.9	0.00e+00	0	42	0	1830813696	8	3768
2026-01-18 06:26:47.04	327.20	24.97	-23.9	-24.1	18.1	0.00e+00	0	42	0	1838153728	8	3662
2026-01-18 06:26:48.05	326.91	25.01	-23.9	-24.1	18.1	0.00e+00	0	42	0	1846542336	8	3681
2026-01-18 06:26:49.05	326.62	25.05	-24.0	-24.2	18.0	0.00e+00	0	42	0	1852833792	8	3704
2026-01-18 06:26:50.06	326.34	25.09	-23.9	-24.0	18.2	0.00e+00	0	43	0	1860173824	8	3654
2026-01-18 06:26:51.06	326.05	25.13	-23.9	-23.9	18.2	0.00e+00	0	42	0	1867513856	8	3633
2026-01-18 06:26:52.06	325.76	25.17	-24.1	-24.4	18.0	0.00e+00	0	42	0	1874853888	8	3733
2026-01-18 06:26:53.07	325.47	25.20	-23.9	-24.0	18.2	0.00e+00	0	42	0	1882193920	8	3659
2026-01-18 06:26:54.07	325.19	25.24	-23.9	-24.0	18.2	0.00e+00	0	42	0	1889533952	8	3640
2026-01-18 06:26:55.07	324.90	25.27	-23.9	-24.5	18.1	0.00e+00	0	42	0	1896873984	7	3870
2026-01-18 06:26:56.08	324.60	25.31	-24.0	-24.3	18.0	3.08e-04	0	42	0	1904214016	8	3726
2026-01-18 06:26:57.08	324.32	25.34	-24.1	-24.4	18.0	0.00e+00	0	42	0	1910505472	8	3730
2026-01-18 06:26:58.08	324.02	25.37	-24.0	-24.7	18.0	0.00e+00	0	42	0	1917845504	7	3913
2026-01-18 06:26:59.08	323.73	25.41	-23.9	-24.6	18.1	0.00e+00	0	42	0	1925185536	7	3885
2026-01-18 06:27:00.09	323.44	25.44	-23.9	-24.6	18.1	0.00e+00	0	42	0	1932525568	7	3888
2026-01-18 06:27:01.09	323.15	25.47	-23.9	-24.6	18.1	7.66e-04	0	42	0	1939865600	7	3889
2026-01-18 06:27:02.10	322.85	25.50	-23.8	-24.4	18.2	0.00e+00	0	42	0	1947205632	7	3840
2026-01-18 06:27:03.11	322.55	25.53	-23.9	-24.4	18.2	0.00e+00	0	42	0	1954545664	7	3849
2026-01-18 06:27:04.11	322.26	25.55	-23.9	-24.6	18.1	0.00e+00	0	42	0	1961885696	7	3894
2026-01-18 06:27:05.11	321.97	25.58	-23.8	-24.4	18.2	0.00e+00	0	43	0	1969225728	7	3848
2026-01-18 06:27:06.12	321.67	25.61	-23.8	-24.3	18.2	0.00e+00	0	42	0	1976565760	7	3815
2026-01-18 06:27:07.12	321.37	25.63	-23.9	-24.5	18.1	0.00e+00	0	42	0	1983905792	7	3866
2026-01-18 06:27:08.13	321.07	25.66	-23.8	-24.2	18.3	7.97e-04	0	43	0	1991245824	7	3808
2026-01-18 06:27:09.13	320.78	25.68	-23.8	-24.4	18.2	0.00e+00	0	42	0	1997537280	7	3843
2026-01-18 06:27:10.13	320.48	25.71	-23.7	-24.1	18.3	0.00e+00	0	42	0	2004877312	7	3782
2026-01-18 06:27:11.13	320.18	25.73	-23.8	-24.2	18.3	7.22e-04	0	42	0	2012217344	7	3806
2026-01-18 06:27:12.13	319.89	25.75	-23.9	-24.7	18.0	0.00e+00	0	42	0	2019557376	7	3903
2026-01-18 06:27:13.13	319.59	25.77	-23.8	-24.3	18.2	6.61e-04	0	42	0	2026897408	7	3828
2026-01-18 06:27:14.13	319.29	25.79	-23.9	-24.5	18.1	5.68e-04	0	42	0	2034237440	7	3873
2026-01-18 06:27:15.14	318.99	25.81	-23.9	-24.5	18.1	0.00e+00	0	42	0	2041577472	7	3873
2026-01-18 06:27:16.13	318.69	25.83	-23.8	-24.3	18.2	3.17e-04	0	43	0	2048917504	7	3830
2026-01-18 06:27:17.14	318.39	25.84	-23.9	-24.5	18.2	0.00e+00	0	43	0	2056257536	7	3859
2026-01-18 06:27:18.15	318.09	25.86	-23.7	-24.1	18.3	0.00e+00	0	42	0	2063597568	7	3771
2026-01-18 06:27:19.15	317.79	25.88	-23.7	-24.1	18.3	1.59e-04	0	42	0	2070937600	7	3775
2026-01-18 06:27:20.15	317.48	25.89	-23.7	-24.1	18.3	1.18e-04	0	43	0	2078277632	7	3779
2026-01-18 06:27:21.15	317.18	25.90	-23.6	-23.9	18.5	0.00e+00	0	43	0	2084569088	7	3729
2026-01-18 06:27:22.16	316.88	25.92	-23.7	-24.0	18.4	1.60e-04	0	42	0	2091909120	7	3756
2026-01-18 06:27:23.16	316.58	25.93	-23.6	-24.0	18.4	9.26e-05	0	43	0	2099249152	7	3753
2026-01-18 06:27:24.16	316.28	25.94	-23.7	-24.1	18.3	0.00e+00	0	42	0	2106589184	7	3775
2026-01-18 06:27:25.17	315.97	25.95	-23.6	-24.0	18.4	0.00e+00	0	42	0	2113929216	7	3755
2026-01-18 06:27:26.17	315.67	25.96	-23.6	-23.9	18.4	0.00e+00	0	42	0	2121269248	7	3742
2026-01-18 06:27:27.17	315.37	25.97	-23.7	-24.2	18.3	0.00e+00	0	43	0	2128609280	7	3792
2026-01-18 06:27:28.17	315.07	25.98	-23.6	-23.9	18.4	1.80e-04	0	43	0	2135949312	7	3740
2026-01-18 06:27:29.16	314.77	25.98	-23.5	-24.3	18.5	3.10e-04	0	43	0	2142240768	6	3929
2026-01-18 06:27:30.17	314.46	25.99	-23.6	-24.0	18.4	0.00e+00	0	42	0	2149580800	7	3743
2026-01-18 06:27:31.17	314.16	25.99	-23.6	-23.8	18.5	2.44e-04	0	42	0	2156920832	7	3710
2026-01-18 06:27:32.17	313.86	26.00	-23.7	-24.1	18.4	1.77e-04	0	42	0	2164260864	7	3768
2026-01-18 06:27:33.17	313.55	26.00	-23.6	-24.0	18.4	0.00e+00	0	42	0	2171600896	7	3746
2026-01-18 06:27:34.18	313.25	26.00	-23.6	-24.0	18.4	1.84e-04	0	42	0	2178940928	7	3745
2026-01-18 06:27:35.18	312.94	26.01	-23.7	-24.0	18.4	2.38e-04	0	42	0	2186280960	7	3761
2026-01-18 06:27:36.18	312.64	26.01	-23.8	-24.4	18.2	0.00e+00	0	42	0	2193620992	7	3834
2026-01-18 06:27:37.19	312.34	26.01	-23.6	-23.9	18.4	1.71e-05	0	42	0	2200961024	7	3727
2026-01-18 06:27:38.19	312.03	26.00	-23.7	-24.0	18.4	0.00e+00	0	42	0	2207252480	7	3756
2026-01-18 06:27:39.19	311.73	26.00	-23.8	-24.3	18.2	0.00e+00	0	42	0	2214592512	7	3825
2026-01-18 06:27:40.19	311.43	26.00	-23.6	-24.0	18.4	0.00e+00	0	42	0	2221932544	7	3753
2026-01-18 06:27:41.20	311.12	26.00	-23.6	-23.9	18.5	0.00e+00	0	42	0	2229272576	7	3723
2026-01-18 06:27:42.21	310.81	25.99	-23.7	-24.1	18.4	0.00e+00	0	43	0	2236612608	7	3763
2026-01-18 06:27:43.21	310.51	25.99	-23.8	-24.2	18.3	0.00e+00	0	42	0	2243952640	7	3805
2026-01-18 06:27:44.22	310.21	25.98	-23.7	-24.1	18.4	0.00e+00	0	42	0	2251292672	7	3768
2026-01-18 06:27:45.21	309.91	25.97	-23.7	-24.2	18.3	0.00e+00	0	42	0	2258632704	7	3797
2026-01-18 06:27:46.22	309.60	25.96	-23.7	-24.2	18.3	0.00e+00	0	42	0	2265972736	7	3801
2026-01-18 06:27:47.22	309.30	25.96	-23.8	-24.3	18.2	0.00e+00	0	43	0	2273312768	7	3832
2026-01-18 06:27:48.22	309.00	25.95	-23.8	-24.3	18.2	0.00e+00	0	42	0	2280652800	7	3809
2026-01-18 06:27:49.23	308.69	25.93	-23.9	-24.5	18.2	0.00e+00	0	42	0	2286944256	7	3860
2026-01-18 06:27:50.23	308.39	25.92	-23.8	-24.3	18.2	9.95e-05	0	42	0	2294284288	7	3824
2026-01-18 06:27:51.24	308.09	25.91	-23.8	-24.4	18.2	0.00e+00	0	42	0	2301624320	7	3846
2026-01-18 06:27:52.24	307.79	25.90	-23.8	-24.4	18.2	0.00e+00	0	42	0	2308964352	7	3838
2026-01-18 06:27:53.24	307.49	25.88	-23.7	-24.1	18.4	0.00e+00	0	42	0	2316304384	7	3772
2026-01-18 06:27:54.25	307.18	25.87	-23.6	-24.0	18.4	0.00e+00	0	43	0	2323644416	7	3743
2026-01-18 06:27:55.25	306.88	25.85	-23.7	-24.0	18.4	0.00e+00	0	42	0	2330984448	7	3760
2026-01-18 06:27:56.25	306.58	25.83	-23.7	-24.2	18.3	0.00e+00	0	42	0	2338324480	7	3798
2026-01-18 06:27:57.26	306.28	25.82	-23.6	-23.9	18.5	0.00e+00	0	43	0	2345664512	7	3719
2026-01-18 06:27:58.27	305.98	25.80	-23.4	-23.6	18.6	0.00e+00	0	42	0	2353004544	7	3662
2026-01-18 06:27:59.26	305.68	25.78	-23.5	-23.7	18.5	0.00e+00	0	42	0	2360344576	7	3682
2026-01-18 06:28:00.26	305.38	25.76	-23.6	-23.9	18.5	0.00e+00	0	42	0	2367684608	7	3722
2026-01-18 06:28:01.26	305.08	25.74	-23.5	-24.2	18.6	0.00e+00	0	42	0	2373976064	6	3899
2026-01-18 06:28:02.26	304.79	25.72	-23.6	-23.9	18.4	0.00e+00	0	42	0	2381316096	7	3732
2026-01-18 06:28:03.26	304.49	25.69	-23.6	-23.8	18.5	0.00e+00	0	42	0	2388656128	7	3719
2026-01-18 06:28:04.26	304.19	25.67	-23.7	-24.1	18.3	0.00e+00	0	43	0	2395996160	7	3783
2026-01-18 06:28:05.26	303.90	25.65	-23.8	-24.3	18.2	0.00e+00	0	42	0	2403336192	7	3816
2026-01-18 06:28:06.27	303.60	25.62	-23.5	-23.8	18.5	0.00e+00	0	42	0	2410676224	7	3701
2026-01-18 06:28:07.27	303.30	25.59	-23.5	-24.1	18.6	0.00e+00	0	42	0	2418016256	6	3879
2026-01-18 06:28:08.28	303.00	25.57	-23.5	-24.2	18.6	0.00e+00	0	42	0	2425356288	6	3895
2026-01-18 06:28:09.28	302.71	25.54	-23.5	-24.1	18.6	0.00e+00	0	42	0	2432696320	6	3885
2026-01-18 06:28:10.29	302.41	25.51	-23.6	-24.3	18.5	0.00e+00	0	43	0	2438987776	6	3928
2026-01-18 06:28:11.29	302.12	25.48	-23.6	-24.0	18.4	0.00e+00	0	42	0	2446327808	7	3745
2026-01-18 06:28:12.30	301.82	25.45	-23.7	-24.1	18.3	0.00e+00	0	42	0	2454716416	7	3772
2026-01-18 06:28:13.31	301.53	25.42	-23.7	-24.2	18.3	0.00e+00	0	42	0	2461007872	7	3792
2026-01-18 06:28:14.31	301.23	25.39	-24.0	-24.7	18.1	0.00e+00	0	42	0	2468347904	7	3910
2026-01-18 06:28:15.31	300.94	25.36	-23.9	-24.4	18.2	0.00e+00	0	42	0	2475687936	7	3854
2026-01-18 06:28:16.32	300.65	25.32	-23.9	-24.5	18.1	0.00e+00	0	42	0	2483027968	7	3860
2026-01-18 06:28:17.32	300.36	25.29	-23.9	-24.5	18.1	0.00e+00	0	42	0	2490368000	7	3869
2026-01-18 06:28:18.32	300.07	25.25	-23.7	-24.1	18.3	0.00e+00	0	42	0	2497708032	7	3765
2026-01-18 06:28:19.32	299.78	25.22	-23.7	-24.0	18.3	0.00e+00	0	42	0	2505048064	7	3757
2026-01-18 06:28:20.33	299.49	25.18	-23.8	-24.2	18.3	0.00e+00	0	42	0	2512388096	7	3804
2026-01-18 06:28:21.32	299.21	25.15	-23.8	-24.3	18.2	0.00e+00	0	42	0	2518679552	7	3817
2026-01-18 06:28:22.33	298.92	25.11	-23.8	-24.3	18.2	0.00e+00	0	42	0	2526019584	7	3809
2026-01-18 06:28:23.33	298.63	25.07	-23.9	-24.6	18.1	0.00e+00	0	42	0	2533359616	7	3885
2026-01-18 06:28:24.34	298.34	25.03	-24.1	-24.4	17.9	0.00e+00	0	42	0	2540699648	8	3747
2026-01-18 06:28:25.34	298.06	24.99	-24.0	-24.4	17.9	0.00e+00	0	42	0	2548039680	8	3732
2026-01-18 06:28:26.34	297.77	24.95	-23.9	-24.1	18.1	0.00e+00	0	42	0	2555379712	8	3679
2026-01-18 06:28:27.34	297.49	24.91	-23.9	-24.0	18.1	0.00e+00	0	42	0	2562719744	8	3653
2026-01-18 06:28:28.35	297.21	24.87	-23.8	-23.9	18.2	0.00e+00	0	42	0	2570059776	8	3626
2026-01-18 06:28:29.35	296.92	24.82	-23.8	-23.8	18.2	0.00e+00	0	42	0	2577399808	8	3612
2026-01-18 06:28:30.35	296.64	24.78	-23.9	-24.1	18.1	0.00e+00	0	42	0	2584739840	8	3670
2026-01-18 06:28:31.35	296.36	24.74	-23.8	-23.7	18.3	0.00e+00	0	42	0	2592079872	8	3595
2026-01-18 06:28:32.35	296.08	24.69	-23.7	-23.7	18.3	0.00e+00	0	43	0	2599419904	8	3585
2026-01-18 06:28:33.36	295.80	24.65	-23.8	-23.9	18.2	0.00e+00	0	42	0	2605711360	8	3621
2026-01-18 06:28:34.36	295.52	24.60	-23.8	-23.9	18.2	0.00e+00	0	43	0	2613051392	8	3632
2026-01-18 06:28:35.36	295.25	24.55	-23.9	-23.9	18.1	0.00e+00	0	42	0	2620391424	8	3637
2026-01-18 06:28:36.36	294.97	24.51	-23.9	-24.0	18.1	0.00e+00	0	42	0	2627731456	8	3649
2026-01-18 06:28:37.36	294.70	24.46	-23.8	-23.9	18.2	0.00e+00	0	42	0	2635071488	8	3625
2026-01-18 06:28:38.36	294.42	24.41	-23.7	-24.1	18.3	0.00e+00	0	43	0	2642411520	7	3778
2026-01-18 06:28:39.37	294.14	24.36	-23.7	-24.0	18.3	0.00e+00	0	43	0	2649751552	7	3761
2026-01-18 06:28:40.37	293.87	24.31	-23.7	-24.1	18.3	0.00e+00	0	42	0	2657091584	7	3765
2026-01-18 06:28:41.37	293.60	24.26	-23.6	-24.0	18.4	0.00e+00	0	42	0	2663383040	7	3745
2026-01-18 06:28:42.38	293.33	24.21	-23.8	-24.2	18.2	0.00e+00	0	42	0	2670723072	7	3804
2026-01-18 06:28:43.38	293.06	24.16	-23.8	-24.2	18.2	0.00e+00	0	43	0	2678063104	7	3804
2026-01-18 06:28:44.39	292.78	24.11	-23.9	-24.4	18.1	0.00e+00	0	43	0	2685403136	7	3855
2026-01-18 06:28:45.39	292.52	24.05	-23.6	-24.0	18.3	0.00e+00	0	42	0	2692743168	7	3756
2026-01-18 06:28:46.40	292.25	24.00	-23.8	-24.2	18.2	0.00e+00	0	42	0	2700083200	7	3804
2026-01-18 06:28:47.40	291.98	23.94	-23.8	-24.4	18.1	0.00e+00	0	42	0	2707423232	7	3836
2026-01-18 06:28:48.41	291.71	23.89	-23.7	-24.0	18.3	0.00e+00	0	42	0	2714763264	7	3763
2026-01-18 06:28:49.40	291.45	23.84	-23.6	-23.9	18.3	0.00e+00	0	42	0	2722103296	7	3735
2026-01-18 06:28:50.40	291.19	23.78	-23.6	-23.9	18.4	0.00e+00	0	42	0	2729443328	7	3730
2026-01-18 06:28:51.40	290.92	23.72	-23.6	-23.8	18.4	0.00e+00	0	42	0	2736783360	7	3717
2026-01-18 06:28:52.39	290.66	23.67	-23.7	-24.2	18.2	0.00e+00	0	42	0	2743074816	7	3788
2026-01-18 06:28:53.39	290.40	23.61	-23.8	-24.2	18.2	0.00e+00	0	42	0	2750414848	7	3809
2026-01-18 06:28:54.39	290.14	23.55	-23.8	-24.3	18.1	0.00e+00	0	42	0	2757754880	7	3822
2026-01-18 06:28:55.40	289.88	23.49	-23.8	-24.3	18.1	0.00e+00	0	43	0	2765094912	7	3829
2026-01-18 06:28:56.40	289.62	23.44	-23.7	-24.1	18.2	0.00e+00	0	42	0	2772434944	7	3766
2026-01-18 06:28:57.40	289.37	23.38	-23.7	-24.1	18.2	0.00e+00	0	43	0	2779774976	7	3768
2026-01-18 06:28:58.41	289.11	23.32	-23.6	-23.9	18.3	0.00e+00	0	42	0	2787115008	7	3722
2026-01-18 06:28:59.41	288.85	23.26	-23.6	-24.0	18.3	0.00e+00	0	42	0	2794455040	7	3754
2026-01-18 06:29:00.41	288.60	23.20	-23.7	-24.0	18.3	0.00e+00	0	42	0	2801795072	7	3763
2026-01-18 06:29:01.42	288.34	23.14	-23.6	-23.9	18.3	0.00e+00	0	42	0	2809135104	7	3739
2026-01-18 06:29:02.42	288.09	23.07	-23.7	-24.1	18.2	0.00e+00	0	42	0	2815426560	7	3779
2026-01-18 06:29:03.43	287.84	23.01	-23.8	-24.2	18.1	0.00e+00	0	42	0	2822766592	7	3807
2026-01-18 06:29:04.43	287.59	22.95	-23.8	-24.4	18.1	0.00e+00	0	42	0	2830106624	7	3843
2026-01-18 06:29:05.43	287.34	22.89	-23.9	-24.6	18.0	0.00e+00	0	43	0	2837446656	7	3890
2026-01-18 06:29:06.43	287.09	22.82	-23.9	-24.7	17.9	0.00e+00	0	43	0	2844786688	7	3910
2026-01-18 06:29:07.44	286.84	22.76	-23.8	-24.4	18.1	0.00e+00	0	42	0	2852126720	7	3844
2026-01-18 06:29:08.45	286.59	22.69	-23.9	-24.5	18.1	0.00e+00	0	42	0	2859466752	7	3861
2026-01-18 06:29:09.44	286.35	22.63	-23.9	-24.5	18.0	0.00e+00	0	42	0	2866806784	7	3876
2026-01-18 06:29:10.45	286.10	22.56	-23.7	-24.2	18.1	0.00e+00	0	43	0	2874146816	7	3804
2026-01-18 06:29:11.45	285.86	22.50	-23.8	-24.3	18.1	0.00e+00	0	42	0	2881486848	7	3823
2026-01-18 06:29:12.45	285.62	22.43	-23.7	-24.2	18.1	0.00e+00	0	42	0	2888826880	7	3809
2026-01-18 06:29:13.45	285.38	22.37	-23.7	-24.1	18.2	0.00e+00	0	43	0	2895118336	7	3767
2026-01-18 06:29:14.46	285.14	22.30	-23.8	-24.3	18.1	0.00e+00	0	42	0	2902458368	7	3814
2026-01-18 06:29:15.46	284.90	22.23	-23.8	-24.4	18.1	0.00e+00	0	42	0	2909798400	7	3842
2026-01-18 06:29:16.46	284.66	22.17	-23.9	-24.5	18.0	0.00e+00	0	42	0	2917138432	7	3868
2026-01-18 06:29:17.47	284.42	22.10	-23.9	-24.5	18.0	0.00e+00	0	42	0	2924478464	7	3867
2026-01-18 06:29:18.48	284.18	22.03	-23.9	-24.5	18.0	0.00e+00	0	42	0	2931818496	7	3874
2026-01-18 06:29:19.48	283.95	21.96	-23.9	-24.6	17.9	0.00e+00	0	43	0	2939158528	7	3900
2026-01-18 06:29:20.49	283.71	21.89	-23.9	-24.6	17.9	0.00e+00	0	43	0	2946498560	7	3899
2026-01-18 06:29:21.50	283.48	21.82	-23.0	-23.7	15.7	0.00e+00	0	42	0	2953838592	7	3887
2026-01-18 06:29:22.50	283.25	21.76	-23.8	-24.4	15.0	0.00e+00	0	42	0	2961178624	7	3854
2026-01-18 06:29:23.51	283.01	21.69	-23.7	-24.1	18.2	0.00e+00	0	42	0	2968518656	7	3779
2026-01-18 06:29:24.51	282.78	21.62	-23.7	-24.2	17.9	0.00e+00	0	42	0	2975858688	7	3801
2026-01-18 06:29:25.52	282.55	21.54	-23.9	-24.6	17.9	0.00e+00	0	42	0	2982150144	7	3884
2026-01-18 06:29:26.52	282.33	21.47	-24.1	-24.4	17.8	0.00e+00	0	42	0	2989490176	8	3745
2026-01-18 06:29:27.52	282.10	21.40	-23.8	-24.4	18.0	0.00e+00	0	42	0	2996830208	7	3853
2026-01-18 06:29:28.53	281.87	21.33	-24.0	-24.7	17.9	0.00e+00	0	43	0	3004170240	7	3916
2026-01-18 06:29:29.52	281.65	21.26	-24.1	-24.5	17.7	0.00e+00	0	42	0	3011510272	8	3762
2026-01-18 06:29:30.53	281.42	21.19	-24.2	-24.7	17.6	0.00e+00	0	43	0	3018850304	8	3815
2026-01-18 06:29:31.53	281.20	21.12	-24.2	-24.7	17.6	0.00e+00	0	43	0	3026190336	8	3802
2026-01-18 06:29:32.54	280.98	21.05	-24.1	-24.5	17.7	0.00e+00	0	42	0	3033530368	8	3774
2026-01-18 06:29:33.54	280.76	20.97	-24.0	-24.9	17.8	9.18e-04	0	42	0	3040870400	7	3953
2026-01-18 06:29:34.55	280.54	20.90	-24.1	-24.5	17.8	8.28e-04	0	43	0	3048210432	8	3752
2026-01-18 06:29:35.56	280.32	20.83	-24.2	-24.7	17.6	0.00e+00	0	43	0	3055550464	8	3811
2026-01-18 06:29:36.56	280.10	20.75	-24.2	-24.7	17.6	3.13e-04	0	42	0	3062890496	8	3818
2026-01-18 06:29:37.57	279.88	20.68	-24.2	-24.8	17.6	0.00e+00	0	43	0	3069181952	8	3837
2026-01-18 06:29:38.57	279.67	20.61	-24.2	-24.6	17.7	0.00e+00	0	42	0	3076521984	8	3796
2026-01-18 06:29:39.58	279.45	20.53	-24.1	-24.6	17.7	0.00e+00	0	42	0	3083862016	8	3788
2026-01-18 06:29:40.59	279.24	20.46	-24.2	-24.6	17.7	0.00e+00	0	42	0	3091202048	8	3786
2026-01-18 06:29:41.59	279.02	20.39	-24.2	-24.6	17.7	0.00e+00	0	42	0	3098542080	8	3788
2026-01-18 06:29:42.59	278.81	20.31	-24.1	-24.4	17.8	0.00e+00	0	42	0	3105882112	8	3738
2026-01-18 06:29:43.59	278.60	20.24	-24.2	-24.6	17.6	0.00e+00	0	43	0	3113222144	8	3794
2026-01-18 06:29:44.60	278.39	20.16	-24.1	-24.5	17.7	0.00e+00	0	42	0	3120562176	8	3775
2026-01-18 06:29:45.60	278.19	20.09	-24.1	-24.4	17.7	0.00e+00	0	43	0	3127902208	8	3750
2026-01-18 06:29:46.60	277.98	20.01	-24.1	-24.4	17.7	0.00e+00	0	42	0	3135242240	8	3749
2026-01-18 06:29:47.61	277.77	19.94	-24.1	-24.4	17.7	0.00e+00	0	43	0	3142582272	8	3746
2026-01-18 06:29:48.61	277.57	19.86	-24.2	-24.7	17.6	1.25e-05	0	43	0	3148873728	8	3808
2026-01-18 06:29:49.61	277.36	19.79	-24.3	-24.8	17.5	3.77e-05	0	43	0	3156213760	8	3839
2026-01-18 06:29:50.62	277.16	19.71	-24.4	-25.1	17.4	0.00e+00	0	42	0	3163553792	8	3897
2026-01-18 06:29:51.62	276.96	19.63	-24.3	-24.8	17.5	0.00e+00	0	43	0	3170893824	8	3842
2026-01-18 06:29:52.63	276.75	19.56	-24.4	-25.1	17.4	0.00e+00	0	42	0	3178233856	8	3899
2026-01-18 06:29:53.64	276.55	19.48	-24.3	-25.0	17.4	0.00e+00	0	43	0	3185573888	8	3876
2026-01-18 06:29:54.64	276.35	19.41	-24.3	-25.0	17.4	0.00e+00	0	43	0	3192913920	8	3871
2026-01-18 06:29:55.64	276.16	19.33	-24.4	-25.1	17.3	0.00e+00	0	43	0	3200253952	8	3900
2026-01-18 06:29:56.65	275.96	19.25	-24.4	-25.1	17.3	0.00e+00	0	43	0	3207593984	8	3904
2026-01-18 06:29:57.65	275.76	19.18	-24.4	-25.2	17.3	0.00e+00	0	43	0	3214934016	8	3933
2026-01-18 06:29:58.65	275.57	19.10	-24.4	-25.2	17.3	3.32e-04	0	43	0	3222274048	8	3928
2026-01-18 06:29:59.65	275.37	19.02	-24.5	-25.3	17.2	0.00e+00	0	43	0	3229614080	8	3955
2026-01-18 06:30:00.65	275.18	18.95	-24.7	-25.2	17.0	4.34e-04	0	42	0	3235905536	9	3831
2026-01-18 06:30:01.66	274.99	18.87	-24.8	-25.4	16.9	5.15e-04	0	42	0	3243245568	9	3865
2026-01-18 06:30:02.67	274.80	18.79	-24.7	-25.3	16.9	0.00e+00	0	42	0	3250585600	9	3851
2026-01-18 06:30:03.67	274.61	18.71	-24.5	-25.2	17.2	3.10e-04	0	42	0	3257925632	8	3934
2026-01-18 06:30:04.67	274.42	18.64	-24.7	-25.2	17.0	0.00e+00	0	42	0	3265265664	9	3815
2026-01-18 06:30:05.67	274.23	18.56	-24.9	-25.6	16.8	0.00e+00	0	42	0	3272605696	9	3915
2026-01-18 06:30:06.68	274.04	18.48	-24.8	-25.5	16.8	4.46e-05	0	43	0	3279945728	9	3900
2026-01-18 06:30:07.68	273.85	18.41	-25.0	-26.0	16.6	0.00e+00	0	43	0	3287285760	9	4019
2026-01-18 06:30:08.70	273.67	18.33	-25.1	-25.6	16.5	0.00e+00	0	42	0	3294625792	10	3814
2026-01-18 06:30:09.70	273.48	18.25	-24.9	-25.2	16.7	0.00e+00	0	42	0	3301965824	10	3726
2026-01-18 06:30:10.71	273.30	18.17	-24.8	-25.0	16.8	0.00e+00	0	43	0	3309305856	10	3672
2026-01-18 06:30:11.71	273.12	18.09	-24.7	-24.8	17.0	0.00e+00	0	43	0	3315597312	10	3630
2026-01-18 06:30:12.71	272.93	18.02	-24.8	-25.0	16.9	0.00e+00	0	43	0	3322937344	10	3669
2026-01-18 06:30:13.72	272.75	17.94	-24.7	-24.8	16.9	0.00e+00	0	43	0	3330277376	10	3630
2026-01-18 06:30:14.72	272.57	17.86	-24.6	-24.6	17.1	0.00e+00	0	43	0	3337617408	10	3585
2026-01-18 06:30:15.72	272.39	17.78	-24.7	-24.7	17.0	0.00e+00	0	42	0	3344957440	10	3617
2026-01-18 06:30:16.72	272.22	17.70	-24.8	-24.9	16.9	0.00e+00	0	43	0	3352297472	10	3660
2026-01-18 06:30:17.73	272.04	17.63	-24.9	-25.2	16.7	0.00e+00	0	43	0	3359637504	10	3728
2026-01-18 06:30:18.73	271.86	17.55	-25.0	-25.3	16.7	0.00e+00	0	43	0	3366977536	10	3743
2026-01-18 06:30:19.74	271.69	17.47	-25.0	-25.5	16.6	0.00e+00	0	42	0	3374317568	10	3783
2026-01-18 06:30:20.73	271.52	17.39	-25.2	-25.8	16.4	0.00e+00	0	43	0	3380609024	10	3861
2026-01-18 06:30:21.73	271.34	17.31	-25.2	-25.8	16.4	0.00e+00	0	42	0	3387949056	10	3854
2026-01-18 06:30:22.74	271.17	17.24	-25.1	-25.7	16.4	1.10e-06	0	43	0	3395289088	10	3843
2026-01-18 06:30:23.74	271.00	17.16	-25.4	-26.3	16.1	0.00e+00	0	42	0	3402629120	10	3980
2026-01-18 06:30:24.74	270.83	17.08	-25.2	-25.9	16.3	0.00e+00	0	43	0	3409969152	10	3874
2026-01-18 06:30:25.74	270.66	17.00	-25.2	-25.8	16.4	0.00e+00	0	43	0	3417309184	10	3865
2026-01-18 06:30:26.75	270.49	16.92	-25.2	-25.8	16.4	0.00e+00	0	43	0	3424649216	10	3861
2026-01-18 06:30:27.75	270.32	16.85	-25.3	-26.1	16.2	0.00e+00	0	43	0	3431989248	10	3932
2026-01-18 06:30:28.75	270.15	16.77	-25.4	-26.2	16.2	0.00e+00	0	43	0	3439329280	10	3948
2026-01-18 06:30:29.75	269.99	16.69	-25.4	-26.3	16.1	0.00e+00	0	43	0	3446669312	10	3977
2026-01-18 06:30:30.75	269.82	16.61	-25.6	-26.2	15.8	0.00e+00	0	43	0	3454009344	11	3867
2026-01-18 06:30:31.76	269.66	16.53	-26.1	-27.2	15.3	0.00e+00	0	43	0	3461349376	11	4112
2026-01-18 06:30:32.75	269.50	16.46	-25.8	-26.1	15.6	0.00e+00	0	43	0	3467640832	12	3732
2026-01-18 06:30:33.76	269.33	16.38	-25.6	-26.2	15.9	0.00e+00	0	43	0	3474980864	11	3851
2026-01-18 06:30:34.76	269.17	16.30	-25.6	-26.2	15.8	0.00e+00	0	43	0	3482320896	11	3864
2026-01-18 06:30:35.76	269.01	16.22	-25.6	-26.1	15.9	0.00e+00	0	42	0	3489660928	11	3837
2026-01-18 06:30:36.77	268.85	16.14	-25.6	-26.1	15.9	0.00e+00	0	43	0	3497000960	11	3841
2026-01-18 06:30:37.78	268.69	16.06	-25.5	-26.0	15.9	0.00e+00	0	43	0	3504340992	11	3814
2026-01-18 06:30:38.78	268.53	15.99	-25.6	-26.1	15.9	0.00e+00	0	43	0	3511681024	11	3838
2026-01-18 06:30:39.78	268.37	15.91	-25.6	-26.2	15.8	0.00e+00	0	43	0	3519021056	11	3856
2026-01-18 06:30:40.79	268.22	15.83	-25.7	-26.3	15.8	0.00e+00	0	43	0	3525312512	11	3881
2026-01-18 06:30:41.80	268.06	15.75	-25.4	-25.9	16.0	0.00e+00	0	43	0	3533701120	11	3775
2026-01-18 06:30:42.80	267.90	15.67	-25.4	-26.2	16.0	0.00e+00	0	42	0	3541041152	10	3970
2026-01-18 06:30:43.81	267.75	15.59	-25.5	-26.4	16.0	0.00e+00	0	43	0	3547332608	10	4007
2026-01-18 06:30:44.80	267.60	15.52	-25.4	-26.3	16.0	0.00e+00	0	43	0	3554672640	10	3991
2026-01-18 06:30:45.80	267.44	15.44	-25.4	-26.3	16.0	0.00e+00	0	42	0	3562012672	10	3996
2026-01-18 06:30:46.81	267.29	15.36	-25.6	-26.3	15.8	0.00e+00	0	43	0	3569352704	11	3880
2026-01-18 06:30:47.82	267.14	15.28	-25.7	-26.4	15.7	0.00e+00	0	43	0	3576692736	11	3897
2026-01-18 06:30:48.82	266.99	15.21	-25.7	-26.4	15.7	0.00e+00	0	43	0	3584032768	11	3901
2026-01-18 06:30:49.83	266.84	15.13	-25.6	-26.2	15.7	0.00e+00	0	43	0	3591372800	11	3856
2026-01-18 06:30:50.83	266.69	15.05	-25.9	-26.9	15.4	0.00e+00	0	43	0	3598712832	11	4022
2026-01-18 06:30:51.83	266.54	14.97	-25.8	-26.6	15.5	0.00e+00	0	43	0	3606052864	11	3963
2026-01-18 06:30:52.84	266.39	14.90	-25.7	-26.4	15.7	0.00e+00	0	43	0	3612344320	11	3907
2026-01-18 06:30:53.84	266.25	14.82	-25.7	-26.4	15.6	0.00e+00	0	43	0	3620732928	11	3913
2026-01-18 06:30:54.85	266.10	14.74	-25.7	-26.4	15.7	0.00e+00	0	43	0	3628072960	11	3902
2026-01-18 06:30:55.85	265.96	14.66	-25.7	-26.4	15.6	0.00e+00	0	43	0	3634364416	11	3904
2026-01-18 06:30:56.86	265.81	14.59	-25.9	-27.0	15.3	0.00e+00	0	43	0	3641704448	11	4043
2026-01-18 06:30:57.86	265.67	14.51	-25.9	-26.9	15.4	0.00e+00	0	43	0	3649044480	11	4017
2026-01-18 06:30:58.87	265.53	14.43	-25.8	-26.6	15.5	0.00e+00	0	43	0	3656384512	11	3959
2026-01-18 06:30:59.88	265.38	14.35	-25.7	-26.4	15.6	0.00e+00	0	43	0	3663724544	11	3915
2026-01-18 06:31:00.89	265.24	14.28	-25.9	-26.9	15.3	0.00e+00	0	43	0	3671064576	11	4039
2026-01-18 06:31:01.89	265.10	14.20	-25.8	-26.8	15.4	0.00e+00	0	43	0	3678404608	11	3998
2026-01-18 06:31:02.89	264.96	14.12	-26.1	-27.2	15.2	0.00e+00	0	43	0	3685744640	11	4119
2026-01-18 06:31:03.90	264.82	14.05	-26.1	-27.3	15.1	0.00e+00	0	42	0	3693084672	11	4134
2026-01-18 06:31:04.90	264.68	13.97	-26.1	-26.9	15.0	0.00e+00	0	43	0	3700424704	12	3923
2026-01-18 06:31:05.90	264.55	13.89	-26.4	-27.4	14.7	0.00e+00	0	42	0	3707764736	12	4071
2026-01-18 06:31:06.89	264.41	13.82	-26.3	-27.2	14.8	0.00e+00	0	43	0	3714056192	12	4009
2026-01-18 06:31:07.90	264.28	13.74	-26.3	-27.2	14.8	1.10e-06	0	43	0	3721396224	12	4002
2026-01-18 06:31:08.90	264.14	13.66	-26.3	-27.3	14.8	1.10e-06	0	43	0	3728736256	12	4019
2026-01-18 06:31:09.89	264.01	13.59	-26.4	-27.4	14.7	1.10e-06	0	43	0	3736076288	12	4060
2026-01-18 06:31:10.89	263.87	13.51	-26.4	-27.6	14.6	1.10e-06	0	43	0	3743416320	12	4108
2026-01-18 06:31:11.89	263.74	13.44	-26.3	-27.3	14.7	0.00e+00	0	43	0	3750756352	12	4019
2026-01-18 06:31:12.90	263.61	13.36	-26.2	-27.0	14.9	0.00e+00	0	43	0	3758096384	12	3968
2026-01-18 06:31:13.90	263.48	13.28	-26.2	-27.0	14.9	0.00e+00	0	43	0	3765436416	12	3952
2026-01-18 06:31:14.90	263.35	13.21	-26.3	-27.3	14.7	0.00e+00	0	43	0	3772776448	12	4041
2026-01-18 06:31:15.91	263.21	13.13	-26.0	-26.6	15.1	0.00e+00	0	43	0	3779067904	12	3869
2026-01-18 06:31:16.91	263.08	13.06	-26.1	-26.8	15.0	0.00e+00	0	43	0	3786407936	12	3901
2026-01-18 06:31:17.91	262.96	12.98	-26.3	-27.3	14.7	0.00e+00	0	43	0	3793747968	12	4026
2026-01-18 06:31:18.91	262.83	12.91	-26.1	-26.8	14.9	0.00e+00	0	43	0	3801088000	12	3909
2026-01-18 06:31:19.91	262.70	12.83	-26.0	-26.7	15.0	0.00e+00	0	43	0	3808428032	12	3873
2026-01-18 06:31:20.92	262.57	12.76	-26.0	-26.7	15.0	0.00e+00	0	42	0	3815768064	12	3895
2026-01-18 06:31:21.92	262.45	12.68	-26.1	-26.8	14.9	3.40e-06	0	43	0	3823108096	12	3913
2026-01-18 06:31:22.92	262.32	12.61	-26.5	-27.6	14.4	1.10e-06	0	43	0	3830448128	12	4128
2026-01-18 06:31:23.92	262.20	12.53	-26.4	-27.5	14.6	0.00e+00	0	43	0	3837788160	12	4083
2026-01-18 06:31:24.93	262.07	12.46	-26.6	-27.6	14.2	3.40e-06	0	43	0	3844079616	13	4003
2026-01-18 06:31:25.93	261.95	12.38	-27.1	-28.5	13.7	3.40e-06	0	43	0	3851419648	13	4251
2026-01-18 06:31:26.94	261.82	12.31	-26.8	-27.9	14.0	2.20e-06	0	43	0	3858759680	13	4082
2026-01-18 06:31:27.94	261.70	12.23	-26.6	-27.5	14.2	2.20e-06	0	43	0	3866099712	13	3982
2026-01-18 06:31:28.95	261.58	12.16	-26.4	-27.4	14.5	0.00e+00	0	42	0	3873439744	12	4077
2026-01-18 06:31:29.95	261.46	12.08	-26.4	-27.5	14.5	2.20e-06	0	43	0	3880779776	12	4086
2026-01-18 06:31:30.95	261.34	12.01	-26.5	-27.6	14.4	0.00e+00	0	43	0	3888119808	12	4122
2026-01-18 06:31:31.95	261.22	11.93	-26.3	-27.2	14.7	0.00e+00	0	42	0	3895459840	12	4010
2026-01-18 06:31:32.95	261.10	11.86	-26.3	-27.3	14.6	0.00e+00	0	42	0	3902799872	12	4040
2026-01-18 06:31:33.95	260.98	11.79	-26.3	-27.2	14.6	0.00e+00	0	43	0	3910139904	12	4016
2026-01-18 06:31:34.96	260.86	11.71	-26.4	-27.6	14.4	0.00e+00	0	43	0	3917479936	12	4110
2026-01-18 06:31:35.96	260.74	11.64	-26.3	-27.3	14.6	0.00e+00	0	42	0	3923771392	12	4036
2026-01-18 06:31:36.96	260.63	11.56	-26.5	-27.8	14.3	0.00e+00	0	43	0	3931111424	12	4155
2026-01-18 06:31:37.96	260.51	11.49	-26.2	-27.1	14.7	0.00e+00	0	42	0	3938451456	12	3994
2026-01-18 06:31:38.97	260.39	11.42	-25.3	-26.1	13.0	1.10e-06	0	43	0	3945791488	12	3964
2026-01-18 06:31:39.97	260.28	11.34	-26.2	-27.1	12.8	0.00e+00	0	43	0	3953131520	12	3982
2026-01-18 06:31:40.98	260.16	11.27	-26.3	-27.3	14.6	0.00e+00	0	43	0	3960471552	12	4037
2026-01-18 06:31:41.98	260.05	11.20	-26.2	-27.0	14.4	0.00e+00	0	42	0	3967811584	12	3977
2026-01-18 06:31:42.98	259.94	11.12	-26.1	-26.9	14.7	0.00e+00	0	42	0	3975151616	12	3950
2026-01-18 06:31:43.99	259.82	11.05	-26.3	-27.2	14.6	0.00e+00	0	43	0	3982491648	12	4017
2026-01-18 06:31:45.00	259.71	10.98	-26.3	-27.2	14.6	2.89e-04	0	43	0	3989831680	12	4022
2026-01-18 06:31:46.00	259.60	10.90	-26.3	-27.2	14.6	0.00e+00	0	43	0	3997171712	12	4025
2026-01-18 06:31:47.00	259.49	10.83	-26.4	-27.4	14.5	0.00e+00	0	43	0	4004511744	12	4074
2026-01-18 06:31:48.01	259.38	10.76	-26.4	-27.5	14.4	1.10e-06	0	43	0	4010803200	12	4080
2026-01-18 06:31:49.01	259.27	10.69	-26.5	-27.7	14.3	0.00e+00	0	43	0	4018143232	12	4150
2026-01-18 06:31:50.01	259.16	10.61	-26.4	-27.5	14.4	1.10e-06	0	43	0	4025483264	12	4082
2026-01-18 06:31:51.02	259.05	10.54	-26.6	-27.5	14.1	1.10e-06	0	43	0	4032823296	13	3980
2026-01-18 06:31:52.02	258.94	10.47	-26.6	-27.6	14.1	1.75e-04	0	43	0	4040163328	13	4013
2026-01-18 06:31:53.02	258.83	10.40	-26.6	-27.6	14.1	3.40e-06	0	43	0	4047503360	13	4016
2026-01-18 06:31:54.03	258.72	10.33	-26.7	-27.8	13.9	4.50e-06	0	43	0	4054843392	13	4081
2026-01-18 06:31:55.03	258.62	10.25	-26.8	-28.0	13.8	3.44e-04	0	43	0	4062183424	13	4118
2026-01-18 06:31:56.03	258.51	10.18	-26.9	-28.1	13.8	2.20e-06	0	43	0	4069523456	13	4143
2026-01-18 06:31:57.03	258.41	10.11	-26.8	-28.0	13.8	4.02e-04	0	43	0	4075814912	13	4129
2026-01-18 06:31:58.03	258.30	10.04	-27.1	-28.2	13.5	2.92e-04	0	43	0	4083154944	14	4071
2026-01-18 06:31:59.02	258.20	9.97	-26.9	-27.8	13.7	8.00e-06	0	43	0	4090494976	14	3954
2026-01-18 06:32:00.02	258.09	9.90	-26.9	-27.7	13.7	2.66e-04	0	43	0	4097835008	14	3940
2026-01-18 06:32:01.03	257.99	9.83	-27.1	-28.0	13.5	2.33e-04	0	43	0	4105175040	14	4028
2026-01-18 06:32:02.03	257.89	9.76	-27.0	-28.0	13.6	3.40e-06	0	43	0	4112515072	14	4014
2026-01-18 06:32:03.03	257.78	9.69	-27.1	-28.2	13.4	1.13e-04	0	43	0	4119855104	14	4073
2026-01-18 06:32:04.04	257.68	9.61	-26.9	-27.6	13.7	2.20e-06	0	43	0	4127195136	14	3908
2026-01-18 06:32:05.04	257.58	9.54	-26.8	-27.3	13.9	2.20e-06	0	43	0	4133486592	14	3848
2026-01-18 06:32:06.05	257.48	9.47	-26.8	-27.4	13.9	4.50e-06	0	43	0	4141875200	14	3860
2026-01-18 06:32:07.05	257.38	9.40	-26.7	-27.3	13.9	6.80e-06	0	43	0	4149215232	14	3840
2026-01-18 06:32:08.06	257.28	9.33	-27.1	-28.0	13.4	6.80e-06	0	43	0	4155506688	14	4032
2026-01-18 06:32:09.06	257.18	9.26	-26.9	-27.7	13.6	9.10e-06	0	43	0	4162846720	14	3944
2026-01-18 06:32:10.06	257.08	9.19	-26.8	-27.6	13.7	1.10e-06	0	43	0	4170186752	14	3907
2026-01-18 06:32:11.06	256.98	9.12	-26.9	-27.6	13.7	9.10e-06	0	43	0	4177526784	14	3926
2026-01-18 06:32:12.06	256.88	9.05	-26.7	-27.2	13.9	1.10e-06	0	43	0	4184866816	14	3825
2026-01-18 06:32:13.06	256.78	8.98	-26.8	-28.0	13.7	1.76e-04	0	43	0	4192206848	13	4116
2026-01-18 06:32:14.07	256.69	8.91	-26.7	-27.8	13.8	3.40e-06	0	43	0	4199546880	13	4082
2026-01-18 06:32:15.07	256.59	8.84	-27.0	-28.4	13.5	3.47e-04	0	43	0	4206886912	13	4223
2026-01-18 06:32:16.07	256.49	8.77	-26.7	-27.8	13.8	4.40e-04	0	42	0	4214226944	13	4078
2026-01-18 06:32:17.07	256.40	8.71	-26.5	-27.2	14.2	0.00e+00	0	43	0	4220518400	13	3912
2026-01-18 06:32:18.07	256.30	8.64	-26.7	-27.7	13.9	4.74e-04	0	43	0	4227858432	13	4043
2026-01-18 06:32:19.08	256.21	8.57	-26.5	-27.3	14.0	0.00e+00	0	43	0	4235198464	13	3951
2026-01-18 06:32:20.08	256.11	8.50	-26.9	-28.1	13.6	4.50e-06	0	43	0	4242538496	13	4160
2026-01-18 06:32:21.09	256.02	8.43	-26.7	-27.8	13.8	5.70e-06	0	42	0	4249878528	13	4070
2026-01-18 06:32:22.09	255.93	8.36	-27.0	-28.4	13.4	9.92e-04	0	43	0	4257218560	13	4243
2026-01-18 06:32:23.10	255.83	8.29	-27.0	-28.3	13.5	3.40e-06	0	42	0	4264558592	13	4217
2026-01-18 06:32:24.10	255.74	8.22	-26.9	-28.2	13.5	1.60e-05	0	43	0	4271898624	13	4191
2026-01-18 06:32:25.11	255.65	8.15	-27.2	-28.5	13.1	1.03e-03	0	43	0	4279238656	14	4145
2026-01-18 06:32:26.11	255.56	8.09	-27.4	-28.9	12.8	4.57e-05	0	43	0	4286578688	14	4273
2026-01-18 06:32:27.11	255.47	8.02	-27.3	-28.7	12.9	7.86e-04	0	43	0	4293918720	14	4213
2026-01-18 06:32:28.12	255.37	7.95	-27.6	-28.8	12.5	1.03e-04	0	42	0	4300210176	15	4149
2026-01-18 06:32:29.12	255.28	7.88	-27.5	-28.7	12.6	4.57e-05	0	43	0	4307550208	15	4098
2026-01-18 06:32:30.12	255.19	7.81	-27.4	-28.3	12.8	3.72e-04	0	43	0	4314890240	15	4006
2026-01-18 06:32:31.13	255.10	7.75	-27.6	-28.8	12.5	7.32e-05	0	43	0	4322230272	15	4146
2026-01-18 06:32:32.13	255.01	7.68	-27.4	-28.4	12.8	5.37e-05	0	43	0	4329570304	15	4023
2026-01-18 06:32:33.13	254.93	7.61	-27.5	-28.6	12.7	7.78e-05	0	42	0	4336910336	15	4082
2026-01-18 06:32:34.13	254.84	7.54	-27.5	-28.5	12.7	6.40e-05	0	43	0	4344250368	15	4063
2026-01-18 06:32:35.14	254.75	7.48	-27.6	-28.8	12.5	7.32e-05	0	43	0	4351590400	15	4135
2026-01-18 06:32:36.14	254.66	7.41	-27.6	-28.8	12.5	8.81e-05	0	43	0	4358930432	15	4127
2026-01-18 06:32:37.14	254.58	7.34	-27.5	-28.7	12.6	6.40e-05	0	43	0	4365221888	15	4113
2026-01-18 06:32:38.13	254.49	7.28	-28.0	-29.7	11.9	2.99e-04	0	43	0	4372561920	15	4400
2026-01-18 06:32:39.14	254.40	7.21	-27.7	-29.0	12.4	1.85e-04	0	42	0	4379901952	15	4186
2026-01-18 06:32:40.15	254.32	7.14	-27.5	-29.1	12.6	7.43e-05	0	42	0	4387241984	14	4337
2026-01-18 06:32:41.15	254.23	7.08	-27.9	-29.5	12.1	1.13e-04	0	43	0	4394582016	15	4348
2026-01-18 06:32:42.15	254.15	7.01	-33.2	-42.9	3.8	8.46e-01	0	43	104	4396679168	26	10916
2026-01-18 06:32:43.16	254.06	6.94	-33.7	-43.2	3.8	8.47e-01	0	43	104	4396679168	27	10800

#Closed at: 2026-01-18 06:32:43
#Recorded file [4396 MB]: D:/data/31010_260118_092232.dat