passes_logs/2026/01/18/R2M6_AANII_01/R2M6_AANII_01__20260118_085253_NOAA_20_JPSS-1_rec.log

#Pass ID: 20260118_085253_NOAA 20 (JPSS-1)
#Satellite: NOAA 20 (JPSS-1)
#Configuration: NOAA 20
#almurnet v.1.7.20240730
#Start time: 2026-01-18 08:52:55

#Version: 2.2.20231116
#Station: R2M6_AANII_01
#Location: 30.233357 lon 59.946436 lat
#TLE: 1 43013U 17073A   26017.30359522  .00000067  00000+0  52526-4 0  9990
#TLE: 2 43013  98.7639 318.2187 0001419  36.2087 323.9184 14.19536557423067

#Time	Az	El	Level	Level2	SNR	BER	BlckErr	Temp	State	Recorded	gain1	gain2
2026-01-18 08:52:55.14	115.57	7.13	-32.3	-38.8	4.7	1.32e+00	0	40	0	0	26	7635
2026-01-18 08:52:56.14	115.50	7.21	-32.2	-38.5	4.9	1.30e+00	0	40	104	0	25	7468
2026-01-18 08:52:57.14	115.42	7.28	-32.2	-38.6	7.1	1.35e-01	0	40	0	0	25	7524
2026-01-18 08:52:58.14	115.35	7.35	-32.2	-38.8	7.0	1.57e-01	0	40	0	1048576	25	7625
2026-01-18 08:52:59.15	115.28	7.42	-32.1	-38.2	7.4	1.34e-01	0	40	0	3145728	25	7255
2026-01-18 08:53:00.15	115.21	7.49	-32.1	-37.9	7.7	1.07e-01	0	40	0	5242880	25	7010
2026-01-18 08:53:01.15	115.14	7.56	-32.1	-37.9	7.8	9.85e-02	0	40	0	7340032	25	7025
2026-01-18 08:53:02.15	115.06	7.63	-32.2	-38.4	7.4	9.86e-02	0	40	0	9437184	25	7324
2026-01-18 08:53:03.15	114.99	7.70	-32.4	-39.3	6.7	1.96e-01	0	40	0	10485760	25	8006
2026-01-18 08:53:04.16	114.92	7.77	-32.2	-38.5	7.3	1.55e-01	0	40	0	12582912	25	7404
2026-01-18 08:53:05.17	114.84	7.85	-32.1	-37.6	8.0	8.68e-02	0	40	0	14680064	25	6825
2026-01-18 08:53:06.17	114.77	7.92	-31.9	-36.8	8.6	3.86e-02	0	40	0	16777216	25	6360
2026-01-18 08:53:07.17	114.69	7.99	-31.8	-36.6	9.1	3.60e-02	0	40	0	17825792	24	6251
2026-01-18 08:53:08.18	114.62	8.06	-31.6	-36.0	9.8	1.09e-02	0	40	0	19922944	24	5966
2026-01-18 08:53:09.18	114.54	8.14	-31.4	-35.4	10.3	6.98e-03	0	40	0	22020096	24	5680
2026-01-18 08:53:10.18	114.46	8.21	-31.4	-35.5	10.2	7.77e-03	0	40	0	24117248	24	5726
2026-01-18 08:53:11.18	114.39	8.28	-31.5	-35.7	10.1	6.27e-03	0	40	0	26214400	24	5823
2026-01-18 08:53:12.18	114.31	8.35	-31.4	-35.4	10.3	6.69e-03	0	40	0	27262976	24	5683
2026-01-18 08:53:13.19	114.23	8.43	-31.3	-35.0	10.5	4.27e-03	0	41	0	29360128	24	5531
2026-01-18 08:53:14.19	114.16	8.50	-31.5	-35.6	10.1	4.48e-03	0	41	0	31457280	24	5781
2026-01-18 08:53:15.19	114.08	8.57	-31.3	-35.5	10.6	3.47e-03	0	41	0	33554432	23	5843
2026-01-18 08:53:16.19	114.00	8.65	-31.3	-35.3	10.7	3.58e-03	0	40	0	35651584	23	5740
2026-01-18 08:53:17.19	113.92	8.72	-31.2	-35.2	10.9	1.95e-03	0	41	0	36700160	23	5680
2026-01-18 08:53:18.20	113.84	8.79	-31.3	-35.3	10.7	3.30e-03	0	41	0	38797312	23	5739
2026-01-18 08:53:19.20	113.76	8.87	-31.2	-35.1	10.9	2.82e-03	0	41	0	40894464	23	5654
2026-01-18 08:53:20.21	113.68	8.94	-31.2	-35.2	10.9	1.69e-03	0	40	0	42991616	23	5675
2026-01-18 08:53:21.21	113.60	9.02	-31.1	-34.7	11.2	1.97e-03	0	41	0	45088768	23	5452
2026-01-18 08:53:22.21	113.52	9.09	-31.2	-35.0	11.0	2.13e-03	0	41	0	46137344	23	5600
2026-01-18 08:53:23.22	113.44	9.17	-31.3	-35.4	10.7	2.54e-03	0	41	0	48234496	23	5754
2026-01-18 08:53:24.21	113.36	9.24	-31.3	-35.4	10.8	2.29e-03	0	41	0	50331648	23	5776
2026-01-18 08:53:25.21	113.27	9.32	-31.3	-35.3	10.8	2.50e-03	0	41	0	52428800	23	5730
2026-01-18 08:53:26.22	113.19	9.39	-31.3	-35.4	10.8	2.55e-03	0	41	0	54525952	23	5779
2026-01-18 08:53:27.22	113.11	9.47	-31.4	-35.6	10.6	2.50e-03	0	41	0	55574528	23	5853
2026-01-18 08:53:28.22	113.02	9.54	-31.4	-35.7	10.6	3.68e-03	0	41	0	57671680	23	5890
2026-01-18 08:53:29.23	112.94	9.62	-31.3	-35.3	10.9	3.35e-03	0	41	0	59768832	23	5704
2026-01-18 08:53:30.23	112.85	9.69	-31.3	-35.4	10.8	1.91e-03	0	41	0	61865984	23	5754
2026-01-18 08:53:31.23	112.77	9.77	-31.3	-35.5	10.7	2.46e-03	0	41	0	62914560	23	5785
2026-01-18 08:53:32.24	112.68	9.85	-31.1	-34.7	11.3	1.25e-03	0	41	0	65011712	23	5431
2026-01-18 08:53:33.24	112.60	9.92	-31.1	-34.5	11.5	1.00e-03	0	41	0	67108864	23	5335
2026-01-18 08:53:34.24	112.51	10.00	-31.0	-34.4	11.6	6.14e-04	0	41	0	69206016	23	5329
2026-01-18 08:53:35.25	112.42	10.08	-31.1	-34.6	11.5	7.55e-04	0	41	0	71303168	23	5381
2026-01-18 08:53:36.26	112.34	10.15	-31.2	-34.8	11.3	8.29e-04	0	41	0	73400320	23	5468
2026-01-18 08:53:37.25	112.25	10.23	-31.0	-34.3	11.6	9.56e-04	0	41	0	74448896	23	5286
2026-01-18 08:53:38.25	112.16	10.31	-31.1	-34.5	11.5	5.87e-04	0	41	0	76546048	23	5352
2026-01-18 08:53:39.26	112.07	10.39	-31.1	-34.5	11.5	9.76e-04	0	41	0	78643200	23	5370
2026-01-18 08:53:40.27	111.98	10.46	-30.9	-34.1	11.9	6.21e-04	0	41	0	80740352	23	5162
2026-01-18 08:53:41.27	111.89	10.54	-31.0	-34.3	11.7	5.26e-04	0	41	0	81788928	23	5270
2026-01-18 08:53:42.27	111.80	10.62	-31.0	-34.3	11.7	5.83e-04	0	41	0	83886080	23	5273
2026-01-18 08:53:43.27	111.71	10.70	-31.1	-34.4	11.6	5.27e-04	0	41	0	85983232	23	5301
2026-01-18 08:53:44.27	111.62	10.78	-31.1	-34.5	11.6	6.87e-04	0	41	0	88080384	23	5348
2026-01-18 08:53:45.27	111.53	10.85	-31.0	-34.4	11.7	6.00e-04	0	41	0	90177536	23	5273
2026-01-18 08:53:46.28	111.44	10.93	-31.0	-34.3	11.8	5.22e-04	0	41	0	91226112	23	5237
2026-01-18 08:53:47.28	111.34	11.01	-31.0	-34.4	11.7	5.92e-04	0	41	0	93323264	23	5284
2026-01-18 08:53:48.28	111.25	11.09	-31.1	-34.5	11.6	5.68e-04	0	41	0	95420416	23	5338
2026-01-18 08:53:49.28	111.16	11.17	-31.1	-34.4	11.8	5.04e-04	0	41	0	97517568	23	5265
2026-01-18 08:53:50.28	111.06	11.25	-31.0	-34.2	11.9	3.87e-04	0	41	0	99614720	23	5204
2026-01-18 08:53:51.28	110.97	11.33	-31.0	-34.3	11.8	4.03e-04	0	41	0	100663296	23	5234
2026-01-18 08:53:52.29	110.87	11.41	-31.1	-34.5	11.7	5.21e-04	0	41	0	102760448	23	5317
2026-01-18 08:53:53.29	110.78	11.49	-31.0	-34.2	11.9	3.97e-04	0	41	0	104857600	23	5214
2026-01-18 08:53:54.30	110.68	11.57	-31.0	-34.3	11.8	4.90e-04	0	41	0	106954752	23	5255
2026-01-18 08:53:55.30	110.58	11.65	-31.0	-34.1	12.0	4.33e-04	0	41	0	109051904	23	5160
2026-01-18 08:53:56.30	110.48	11.73	-31.0	-34.1	11.9	3.60e-04	0	41	0	110100480	23	5172
2026-01-18 08:53:57.30	110.39	11.81	-31.0	-34.1	12.0	4.02e-04	0	41	0	112197632	23	5171
2026-01-18 08:53:58.30	110.29	11.89	-30.9	-34.0	12.1	3.22e-04	0	41	0	114294784	23	5110
2026-01-18 08:53:59.30	110.19	11.97	-31.0	-34.1	12.0	3.16e-04	0	41	0	116391936	23	5141
2026-01-18 08:54:00.31	110.09	12.05	-31.1	-34.3	11.9	4.32e-04	0	41	0	118489088	23	5239
2026-01-18 08:54:01.31	109.99	12.14	-31.1	-34.6	11.7	4.56e-04	0	41	0	119537664	23	5349
2026-01-18 08:54:02.31	109.89	12.22	-31.2	-34.6	11.6	7.47e-04	0	41	0	121634816	23	5371
2026-01-18 08:54:03.31	109.79	12.30	-31.0	-34.3	11.9	4.06e-04	0	41	0	123731968	23	5237
2026-01-18 08:54:04.31	109.68	12.38	-31.1	-34.4	11.8	4.97e-04	0	41	0	125829120	23	5294
2026-01-18 08:54:05.32	109.58	12.46	-31.0	-34.3	11.9	4.16e-04	0	42	0	126877696	23	5239
2026-01-18 08:54:06.32	109.48	12.55	-31.1	-34.4	11.8	4.42e-04	0	41	0	128974848	23	5288
2026-01-18 08:54:07.33	109.37	12.63	-31.1	-34.4	11.8	4.53e-04	0	41	0	131072000	23	5258
2026-01-18 08:54:08.33	109.27	12.71	-31.0	-34.2	11.9	4.48e-04	0	42	0	133169152	23	5207
2026-01-18 08:54:09.34	109.16	12.79	-31.1	-34.4	11.8	3.90e-04	0	41	0	135266304	23	5280
2026-01-18 08:54:10.34	109.06	12.88	-31.1	-34.4	11.9	5.04e-04	0	41	0	136314880	23	5254
2026-01-18 08:54:11.35	108.95	12.96	-31.0	-34.2	12.0	3.96e-04	0	41	0	138412032	23	5181
2026-01-18 08:54:12.36	108.84	13.05	-31.1	-34.3	11.9	3.33e-04	0	42	0	140509184	23	5228
2026-01-18 08:54:13.36	108.74	13.13	-31.1	-34.4	11.9	4.06e-04	0	41	0	142606336	23	5271
2026-01-18 08:54:14.37	108.63	13.21	-31.2	-34.8	11.6	5.95e-04	0	42	0	144703488	23	5446
2026-01-18 08:54:15.36	108.52	13.30	-31.2	-34.8	11.6	7.83e-04	0	41	0	145752064	23	5421
2026-01-18 08:54:16.37	108.41	13.38	-31.1	-34.6	11.8	6.16e-04	0	41	0	147849216	23	5327
2026-01-18 08:54:17.37	108.30	13.47	-31.1	-34.4	11.8	5.22e-04	0	42	0	149946368	23	5281
2026-01-18 08:54:18.37	108.19	13.55	-31.1	-34.5	11.8	4.86e-04	0	41	0	152043520	23	5325
2026-01-18 08:54:19.37	108.08	13.63	-31.1	-34.5	11.8	4.97e-04	0	42	0	154140672	23	5306
2026-01-18 08:54:20.37	107.97	13.72	-31.2	-34.6	11.7	4.86e-04	0	41	0	155189248	23	5349
2026-01-18 08:54:21.37	107.85	13.80	-31.3	-34.9	11.5	6.87e-04	0	42	0	157286400	23	5486
2026-01-18 08:54:22.37	107.74	13.89	-31.1	-34.4	11.9	5.02e-04	0	42	0	159383552	23	5276
2026-01-18 08:54:23.37	107.63	13.98	-31.2	-34.6	11.8	3.78e-04	0	42	0	161480704	23	5322
2026-01-18 08:54:24.37	107.51	14.06	-31.2	-34.7	11.7	5.78e-04	0	42	0	163577856	23	5367
2026-01-18 08:54:25.38	107.40	14.15	-31.1	-34.5	11.9	4.56e-04	0	42	0	164626432	23	5289
2026-01-18 08:54:26.38	107.28	14.23	-31.1	-34.5	11.9	4.44e-04	0	42	0	166723584	23	5282
2026-01-18 08:54:27.38	107.16	14.32	-31.1	-34.5	11.9	3.91e-04	0	42	0	168820736	23	5283
2026-01-18 08:54:28.39	107.05	14.41	-31.2	-34.6	11.8	4.02e-04	0	42	0	170917888	23	5326
2026-01-18 08:54:29.39	106.93	14.49	-31.1	-34.5	11.9	5.18e-04	0	42	0	171966464	23	5299
2026-01-18 08:54:30.39	106.81	14.58	-31.0	-34.2	12.1	2.64e-04	0	41	0	174063616	23	5156
2026-01-18 08:54:31.39	106.69	14.67	-31.0	-34.2	12.1	2.53e-04	0	42	0	176160768	23	5169
2026-01-18 08:54:32.39	106.57	14.75	-31.1	-34.2	12.1	3.02e-04	0	42	0	178257920	23	5190
2026-01-18 08:54:33.40	106.45	14.84	-31.1	-34.5	11.9	3.99e-04	0	42	0	180355072	23	5294
2026-01-18 08:54:34.41	106.33	14.93	-31.1	-34.2	12.1	3.81e-04	0	42	0	181403648	23	5176
2026-01-18 08:54:35.41	106.20	15.02	-30.9	-33.9	12.3	1.55e-04	0	42	0	183500800	23	5054
2026-01-18 08:54:36.41	106.08	15.10	-31.0	-34.2	12.2	2.12e-04	0	42	0	185597952	23	5161
2026-01-18 08:54:37.41	105.96	15.19	-31.0	-34.2	12.1	2.27e-04	0	42	0	187695104	23	5182
2026-01-18 08:54:38.41	105.83	15.28	-31.0	-34.1	12.2	2.94e-04	0	42	0	189792256	23	5149
2026-01-18 08:54:39.41	105.71	15.37	-31.1	-34.3	12.0	1.96e-04	0	42	0	190840832	23	5221
2026-01-18 08:54:40.41	105.58	15.46	-31.1	-34.4	12.0	4.12e-04	0	42	0	192937984	23	5262
2026-01-18 08:54:41.42	105.46	15.55	-31.1	-34.3	12.1	3.12e-04	0	42	0	195035136	23	5214
2026-01-18 08:54:42.42	105.33	15.64	-31.1	-34.4	12.0	2.79e-04	0	42	0	197132288	23	5238
2026-01-18 08:54:43.43	105.20	15.73	-31.1	-34.3	12.1	2.58e-04	0	42	0	199229440	23	5215
2026-01-18 08:54:44.44	105.07	15.82	-31.1	-34.2	12.2	2.01e-04	0	42	0	200278016	23	5149
2026-01-18 08:54:45.44	104.94	15.91	-31.0	-34.0	12.3	1.82e-04	0	42	0	202375168	23	5086
2026-01-18 08:54:46.44	104.81	15.99	-31.0	-34.0	12.3	1.92e-04	0	42	0	204472320	23	5099
2026-01-18 08:54:47.45	104.68	16.09	-31.0	-34.0	12.3	1.75e-04	0	42	0	206569472	23	5090
2026-01-18 08:54:48.45	104.54	16.18	-31.0	-33.9	12.4	1.71e-04	0	42	0	208666624	23	5033
2026-01-18 08:54:49.46	104.41	16.27	-31.1	-34.2	12.3	1.54e-04	0	42	0	209715200	23	5151
2026-01-18 08:54:50.46	104.28	16.36	-31.1	-34.1	12.2	2.08e-04	0	42	0	211812352	23	5138
2026-01-18 08:54:51.45	104.14	16.45	-30.9	-33.7	12.5	9.46e-05	0	42	0	213909504	23	4982
2026-01-18 08:54:52.46	104.01	16.54	-30.8	-33.5	12.7	7.93e-05	0	42	0	216006656	23	4890
2026-01-18 08:54:53.46	103.87	16.63	-30.8	-33.3	12.9	7.32e-05	0	42	0	218103808	23	4806
2026-01-18 08:54:54.46	103.73	16.72	-30.8	-33.9	12.8	6.33e-05	0	42	0	219152384	22	5142
2026-01-18 08:54:55.46	103.59	16.81	-30.8	-34.0	12.8	6.86e-05	0	42	0	221249536	22	5160
2026-01-18 08:54:56.46	103.46	16.90	-30.8	-33.8	12.9	6.10e-05	0	42	0	223346688	22	5109
2026-01-18 08:54:57.46	103.32	16.99	-30.8	-33.9	12.8	3.96e-05	0	42	0	225443840	22	5134
2026-01-18 08:54:58.47	103.17	17.09	-30.7	-33.6	13.0	4.65e-05	0	42	0	226492416	22	5037
2026-01-18 08:54:59.47	103.03	17.18	-30.6	-33.4	13.2	2.89e-05	0	42	0	228589568	22	4948
2026-01-18 08:55:00.46	102.89	17.27	-30.6	-33.3	13.2	1.67e-05	0	42	0	230686720	22	4926
2026-01-18 08:55:01.47	102.75	17.36	-30.7	-33.6	13.0	4.27e-05	0	42	0	232783872	22	5031
2026-01-18 08:55:02.48	102.60	17.45	-30.8	-33.8	13.0	4.50e-05	0	42	0	234881024	22	5090
2026-01-18 08:55:03.48	102.46	17.55	-30.7	-33.7	13.0	3.43e-05	0	42	0	235929600	22	5055
2026-01-18 08:55:04.48	102.31	17.64	-30.7	-33.7	13.0	4.42e-05	0	42	0	238026752	22	5047
2026-01-18 08:55:05.48	102.17	17.73	-30.8	-34.0	12.8	6.94e-05	0	42	0	240123904	22	5151
2026-01-18 08:55:06.49	102.02	17.83	-30.7	-33.5	13.1	4.88e-05	0	42	0	242221056	22	4992
2026-01-18 08:55:07.49	101.87	17.92	-30.8	-33.7	13.1	2.67e-05	0	42	0	244318208	22	5047
2026-01-18 08:55:08.49	101.72	18.01	-30.8	-33.8	13.0	3.05e-05	0	42	0	245366784	22	5081
2026-01-18 08:55:09.50	101.57	18.11	-30.8	-33.8	13.0	4.50e-05	0	42	0	247463936	22	5084
2026-01-18 08:55:10.50	101.41	18.20	-30.7	-33.6	13.2	2.51e-05	0	42	0	249561088	22	4994
2026-01-18 08:55:11.50	101.26	18.29	-30.6	-33.4	13.3	1.98e-05	0	42	0	251658240	22	4931
2026-01-18 08:55:12.51	101.11	18.39	-30.6	-33.3	13.4	1.29e-05	0	42	0	253755392	22	4895
2026-01-18 08:55:13.51	100.95	18.48	-30.7	-33.6	13.2	2.05e-05	0	42	0	254803968	22	5012
2026-01-18 08:55:14.51	100.80	18.58	-30.8	-33.7	13.1	3.43e-05	0	42	0	256901120	22	5040
2026-01-18 08:55:15.51	100.64	18.67	-30.7	-33.6	13.1	3.20e-05	0	42	0	258998272	22	5009
2026-01-18 08:55:16.51	100.49	18.76	-30.8	-33.7	13.1	3.35e-05	0	42	0	261095424	22	5050
2026-01-18 08:55:17.51	100.33	18.86	-30.8	-33.7	13.1	2.05e-05	0	42	0	263192576	22	5048
2026-01-18 08:55:18.51	100.17	18.95	-30.7	-33.5	13.3	2.67e-05	0	42	0	264241152	22	4959
2026-01-18 08:55:19.52	100.01	19.05	-30.7	-33.4	13.3	2.05e-05	0	42	0	266338304	22	4951
2026-01-18 08:55:20.52	99.84	19.14	-30.7	-33.6	13.2	1.90e-05	0	42	0	268435456	22	4992
2026-01-18 08:55:21.53	99.68	19.24	-30.7	-33.6	13.2	2.59e-05	0	42	0	270532608	22	4986
2026-01-18 08:55:22.53	99.52	19.33	-30.6	-33.3	13.4	1.83e-05	0	42	0	272629760	22	4895
2026-01-18 08:55:23.53	99.35	19.43	-30.7	-33.4	13.4	9.90e-06	0	42	0	273678336	22	4926
2026-01-18 08:55:24.53	99.19	19.53	-30.7	-33.4	13.3	2.59e-05	0	42	0	275775488	22	4933
2026-01-18 08:55:25.52	99.02	19.62	-30.8	-33.6	13.2	2.28e-05	0	42	0	277872640	22	5013
2026-01-18 08:55:26.52	98.86	19.72	-30.7	-33.5	13.3	1.67e-05	0	42	0	279969792	22	4960
2026-01-18 08:55:27.52	98.69	19.81	-30.8	-33.9	13.1	2.28e-05	0	42	0	281018368	22	5100
2026-01-18 08:55:28.53	98.52	19.91	-30.9	-34.1	13.0	5.95e-05	0	42	0	283115520	22	5171
2026-01-18 08:55:29.53	98.35	20.00	-30.9	-34.0	13.0	4.34e-05	0	42	0	285212672	22	5143
2026-01-18 08:55:30.53	98.17	20.10	-30.9	-34.1	12.9	5.18e-05	0	42	0	287309824	22	5180
2026-01-18 08:55:31.53	98.00	20.20	-31.0	-34.4	12.8	6.17e-05	0	42	0	289406976	22	5289
2026-01-18 08:55:32.53	97.83	20.29	-31.1	-34.5	12.6	7.62e-05	0	42	0	290455552	22	5363
2026-01-18 08:55:33.54	97.65	20.39	-31.0	-34.4	12.7	8.54e-05	0	42	0	292552704	22	5311
2026-01-18 08:55:34.54	97.48	20.49	-31.0	-34.3	12.8	7.17e-05	0	42	0	294649856	22	5271
2026-01-18 08:55:35.55	97.30	20.58	-31.0	-34.4	12.8	8.16e-05	0	42	0	296747008	22	5288
2026-01-18 08:55:36.56	97.12	20.68	-31.0	-34.4	12.7	7.78e-05	0	42	0	298844160	22	5318
2026-01-18 08:55:37.56	96.94	20.78	-31.2	-34.8	12.5	1.01e-04	0	42	0	299892736	22	5458
2026-01-18 08:55:38.57	96.75	20.87	-31.1	-34.7	12.6	1.47e-04	0	42	0	301989888	22	5424
2026-01-18 08:55:39.57	96.57	20.97	-31.1	-34.6	12.6	1.37e-04	0	42	0	304087040	22	5383
2026-01-18 08:55:40.57	96.39	21.07	-31.2	-34.7	12.6	9.23e-05	0	42	0	306184192	22	5412
2026-01-18 08:55:41.57	96.21	21.16	-31.2	-34.8	12.4	9.61e-05	0	42	0	308281344	22	5475
2026-01-18 08:55:42.57	96.02	21.26	-31.2	-34.8	12.4	1.33e-04	0	42	0	309329920	22	5480
2026-01-18 08:55:43.57	95.83	21.36	-31.1	-34.7	12.6	9.46e-05	0	42	0	311427072	22	5396
2026-01-18 08:55:44.58	95.64	21.46	-31.1	-34.5	12.7	8.92e-05	0	42	0	313524224	22	5331
2026-01-18 08:55:45.58	95.46	21.55	-31.2	-34.7	12.5	9.84e-05	0	42	0	315621376	22	5430
2026-01-18 08:55:46.58	95.27	21.65	-31.1	-34.7	12.6	1.28e-04	0	42	0	317718528	22	5405
2026-01-18 08:55:47.58	95.07	21.75	-30.9	-34.1	13.0	7.01e-05	0	42	0	318767104	22	5168
2026-01-18 08:55:48.59	94.88	21.85	-31.0	-34.1	13.0	4.42e-05	0	42	0	320864256	22	5189
2026-01-18 08:55:49.59	94.69	21.94	-30.9	-33.9	13.1	3.43e-05	0	42	0	322961408	22	5108
2026-01-18 08:55:50.59	94.49	22.04	-30.9	-33.9	13.1	3.50e-05	0	42	0	325058560	22	5101
2026-01-18 08:55:51.60	94.29	22.14	-30.9	-34.1	13.1	2.89e-05	0	42	0	327155712	22	5165
2026-01-18 08:55:52.60	94.10	22.23	-30.9	-34.0	13.0	4.50e-05	0	42	0	328204288	22	5153
2026-01-18 08:55:53.61	93.90	22.33	-30.8	-33.8	13.2	2.67e-05	0	42	0	330301440	22	5039
2026-01-18 08:55:54.61	93.70	22.43	-30.8	-33.7	13.3	1.52e-05	0	42	0	332398592	22	5005
2026-01-18 08:55:55.61	93.49	22.53	-30.8	-33.7	13.3	1.75e-05	0	42	0	334495744	22	5014
2026-01-18 08:55:56.61	93.29	22.62	-30.8	-33.5	13.4	1.67e-05	0	42	0	335544320	22	4954
2026-01-18 08:55:57.61	93.09	22.72	-30.7	-33.2	13.6	1.14e-05	0	42	0	337641472	22	4852
2026-01-18 08:55:58.61	92.88	22.82	-30.7	-33.3	13.5	9.10e-06	0	42	0	339738624	22	4886
2026-01-18 08:55:59.61	92.68	22.92	-30.7	-33.4	13.5	1.06e-05	0	42	0	341835776	22	4899
2026-01-18 08:56:00.61	92.47	23.01	-30.7	-33.5	13.4	8.30e-06	0	42	0	343932928	22	4946
2026-01-18 08:56:01.62	92.26	23.11	-30.7	-33.4	13.5	9.10e-06	0	42	0	344981504	22	4902
2026-01-18 08:56:02.62	92.05	23.21	-30.5	-32.8	13.9	6.10e-06	0	42	0	347078656	22	4715
2026-01-18 08:56:03.62	91.84	23.30	-30.4	-32.6	14.0	3.80e-06	0	42	0	349175808	22	4616
2026-01-18 08:56:04.62	91.62	23.40	-30.4	-32.6	14.0	0.00e+00	0	42	0	351272960	22	4622
2026-01-18 08:56:05.62	91.41	23.50	-30.4	-32.4	14.2	1.50e-06	0	42	0	353370112	22	4566
2026-01-18 08:56:06.62	91.19	23.59	-30.3	-32.8	14.2	7.00e-07	0	42	0	354418688	21	4788
2026-01-18 08:56:07.63	90.98	23.69	-30.3	-32.8	14.2	3.80e-06	0	42	0	356515840	21	4816
2026-01-18 08:56:08.63	90.76	23.79	-30.3	-32.8	14.2	0.00e+00	0	42	0	358612992	21	4792
2026-01-18 08:56:09.63	90.54	23.88	-30.4	-33.0	14.1	3.00e-06	0	42	0	360710144	21	4864
2026-01-18 08:56:10.64	90.31	23.98	-30.4	-33.1	14.1	1.50e-06	0	42	0	362807296	21	4889
2026-01-18 08:56:11.64	90.09	24.08	-30.4	-33.2	14.0	3.00e-06	0	42	0	363855872	21	4923
2026-01-18 08:56:12.65	89.87	24.17	-30.4	-33.2	14.0	4.50e-06	0	42	0	365953024	21	4930
2026-01-18 08:56:13.65	89.64	24.27	-30.4	-33.1	14.0	2.20e-06	0	42	0	368050176	21	4916
2026-01-18 08:56:14.65	89.41	24.37	-30.5	-33.4	13.9	3.80e-06	0	42	0	370147328	21	5012
2026-01-18 08:56:15.66	89.18	24.46	-30.5	-33.2	14.0	4.50e-06	0	42	0	372244480	21	4950
2026-01-18 08:56:16.66	88.96	24.56	-30.4	-32.9	14.2	1.50e-06	0	42	0	373293056	21	4842
2026-01-18 08:56:17.66	88.72	24.65	-30.3	-32.8	14.2	7.00e-07	0	42	0	375390208	21	4806
2026-01-18 08:56:18.66	88.49	24.75	-30.4	-33.0	14.2	7.00e-07	0	42	0	377487360	21	4868
2026-01-18 08:56:19.67	88.26	24.84	-30.4	-32.9	14.2	1.50e-06	0	42	0	379584512	21	4834
2026-01-18 08:56:20.67	88.02	24.94	-30.3	-32.6	14.4	0.00e+00	0	42	0	380633088	21	4742
2026-01-18 08:56:21.67	87.79	25.03	-30.3	-32.8	14.3	0.00e+00	0	42	0	382730240	21	4783
2026-01-18 08:56:22.67	87.55	25.13	-30.3	-32.7	14.4	0.00e+00	0	42	0	384827392	21	4748
2026-01-18 08:56:23.68	87.31	25.22	-30.3	-32.7	14.3	0.00e+00	0	42	0	386924544	21	4776
2026-01-18 08:56:24.68	87.07	25.32	-30.3	-32.9	14.2	2.20e-06	0	42	0	389021696	21	4815
2026-01-18 08:56:25.68	86.82	25.41	-30.4	-32.9	14.3	0.00e+00	0	42	0	390070272	21	4816
2026-01-18 08:56:26.69	86.58	25.51	-30.5	-33.3	14.0	7.00e-07	0	42	0	392167424	21	4969
2026-01-18 08:56:27.70	86.33	25.60	-30.4	-33.1	14.1	4.50e-06	0	42	0	394264576	21	4908
2026-01-18 08:56:28.70	86.08	25.69	-30.3	-32.7	14.3	1.50e-06	0	42	0	396361728	21	4764
2026-01-18 08:56:29.70	85.84	25.79	-30.3	-32.8	14.3	1.50e-06	0	42	0	398458880	21	4806
2026-01-18 08:56:30.71	85.58	25.88	-30.5	-33.4	13.9	2.20e-06	0	42	0	399507456	21	5018
2026-01-18 08:56:31.70	85.34	25.97	-30.7	-33.8	13.6	3.80e-06	0	42	0	401604608	21	5168
2026-01-18 08:56:32.71	85.08	26.06	-30.8	-34.0	13.5	9.90e-06	0	42	0	403701760	21	5246
2026-01-18 08:56:33.71	84.83	26.15	-30.8	-34.1	13.4	8.30e-06	0	42	0	405798912	21	5279
2026-01-18 08:56:34.71	84.57	26.25	-30.9	-34.3	13.3	1.67e-05	0	42	0	407896064	21	5339
2026-01-18 08:56:35.72	84.31	26.34	-30.8	-34.2	13.4	1.29e-05	0	42	0	408944640	21	5289
2026-01-18 08:56:36.72	84.05	26.43	-30.7	-33.9	13.6	7.60e-06	0	42	0	411041792	21	5169
2026-01-18 08:56:37.73	83.79	26.52	-30.8	-34.1	13.5	7.60e-06	0	42	0	413138944	21	5260
2026-01-18 08:56:38.73	83.53	26.61	-30.8	-34.2	13.4	1.29e-05	0	42	0	415236096	21	5306
2026-01-18 08:56:39.73	83.27	26.70	-30.9	-34.3	13.4	1.14e-05	0	42	0	417333248	21	5325
2026-01-18 08:56:40.73	83.00	26.79	-30.8	-34.1	13.5	8.30e-06	0	42	0	418381824	21	5279
2026-01-18 08:56:41.73	82.74	26.88	-31.0	-34.3	13.1	2.51e-05	0	43	0	420478976	22	5221
2026-01-18 08:56:42.74	82.47	26.97	-31.3	-34.9	12.6	5.72e-05	0	42	0	422576128	22	5478
2026-01-18 08:56:43.74	82.20	27.05	-31.2	-34.8	12.7	9.76e-05	0	42	0	424673280	22	5420
2026-01-18 08:56:44.75	81.93	27.14	-31.2	-34.6	12.9	7.17e-05	0	42	0	426770432	22	5346
2026-01-18 08:56:45.75	81.65	27.23	-31.0	-34.3	13.1	2.28e-05	0	42	0	427819008	22	5206
2026-01-18 08:56:46.75	81.38	27.32	-31.1	-34.4	13.1	2.82e-05	0	42	0	429916160	22	5254
2026-01-18 08:56:47.75	81.11	27.40	-31.2	-34.6	12.9	6.25e-05	0	42	0	432013312	22	5333
2026-01-18 08:56:48.75	80.83	27.49	-31.2	-34.5	13.0	4.42e-05	0	42	0	434110464	22	5302
2026-01-18 08:56:49.75	80.55	27.57	-31.2	-34.6	12.9	4.19e-05	0	42	0	436207616	22	5320
2026-01-18 08:56:50.76	80.27	27.66	-31.1	-34.5	13.0	3.50e-05	0	42	0	437256192	22	5288
2026-01-18 08:56:51.76	79.99	27.74	-31.1	-34.5	13.0	5.26e-05	0	42	0	439353344	22	5293
2026-01-18 08:56:52.77	79.71	27.83	-31.2	-34.6	12.9	3.20e-05	0	42	0	441450496	22	5336
2026-01-18 08:56:53.77	79.42	27.91	-31.2	-34.8	12.8	5.72e-05	0	42	0	443547648	22	5397
2026-01-18 08:56:54.77	79.14	27.99	-31.2	-34.7	12.8	6.17e-05	0	42	0	444596224	22	5384
2026-01-18 08:56:55.78	78.85	28.08	-31.3	-35.0	12.6	6.40e-05	0	42	0	446693376	22	5498
2026-01-18 08:56:56.78	78.56	28.16	-31.4	-35.1	12.5	1.43e-04	0	42	0	448790528	22	5557
2026-01-18 08:56:57.78	78.27	28.24	-31.4	-35.3	12.5	1.14e-04	0	42	0	450887680	22	5612
2026-01-18 08:56:58.78	77.98	28.32	-31.5	-35.0	12.3	1.46e-04	0	42	0	452984832	23	5390
2026-01-18 08:56:59.79	77.68	28.40	-31.6	-35.4	12.0	2.19e-04	0	42	0	454033408	23	5556
2026-01-18 08:57:00.80	77.39	28.48	-31.5	-35.1	12.3	2.96e-04	0	42	0	456130560	23	5429
2026-01-18 08:57:01.80	77.09	28.56	-31.5	-35.0	12.3	1.75e-04	0	42	0	458227712	23	5378
2026-01-18 08:57:02.81	76.79	28.64	-31.5	-34.9	12.4	1.62e-04	0	42	0	460324864	23	5352
2026-01-18 08:57:03.81	76.49	28.72	-31.5	-35.0	12.3	1.75e-04	0	42	0	462422016	23	5380
2026-01-18 08:57:04.81	76.19	28.79	-31.7	-35.5	12.0	2.71e-04	0	42	0	463470592	23	5572
2026-01-18 08:57:05.81	75.89	28.87	-31.5	-35.0	12.3	3.25e-04	0	42	0	465567744	23	5386
2026-01-18 08:57:06.81	75.59	28.94	-31.3	-34.5	12.6	1.12e-04	0	42	0	467664896	23	5200
2026-01-18 08:57:07.82	75.28	29.02	-31.4	-34.5	12.6	1.09e-04	0	42	0	469762048	23	5192
2026-01-18 08:57:08.82	74.98	29.09	-31.4	-34.7	12.6	9.15e-05	0	42	0	471859200	23	5246
2026-01-18 08:57:09.82	74.67	29.17	-31.6	-35.3	12.1	2.08e-04	0	42	0	472907776	23	5521
2026-01-18 08:57:10.82	74.36	29.24	-31.5	-35.1	12.2	2.43e-04	0	42	0	475004928	23	5424
2026-01-18 08:57:11.82	74.05	29.31	-31.4	-34.6	12.6	1.50e-04	0	42	0	477102080	23	5221
2026-01-18 08:57:12.82	73.74	29.38	-31.3	-34.3	12.8	7.85e-05	0	42	0	479199232	23	5105
2026-01-18 08:57:13.83	73.43	29.45	-31.4	-34.6	12.7	7.85e-05	0	42	0	481296384	23	5240
2026-01-18 08:57:14.83	73.11	29.52	-31.3	-34.5	12.7	9.23e-05	0	42	0	482344960	23	5183
2026-01-18 08:57:15.84	72.80	29.59	-31.3	-34.5	12.7	6.63e-05	0	43	0	484442112	23	5163
2026-01-18 08:57:16.84	72.48	29.66	-31.5	-35.0	12.4	7.93e-05	0	42	0	486539264	23	5377
2026-01-18 08:57:17.84	72.16	29.72	-31.6	-35.1	12.3	1.88e-04	0	42	0	488636416	23	5429
2026-01-18 08:57:18.84	71.84	29.79	-31.4	-34.7	12.6	1.45e-04	0	42	0	490733568	23	5246
2026-01-18 08:57:19.84	71.52	29.86	-31.3	-34.4	12.8	6.25e-05	0	42	0	491782144	23	5136
2026-01-18 08:57:20.85	71.20	29.92	-31.4	-34.6	12.6	7.85e-05	0	42	0	493879296	23	5218
2026-01-18 08:57:21.85	70.87	29.98	-31.4	-34.5	12.7	7.01e-05	0	42	0	495976448	23	5186
2026-01-18 08:57:22.85	70.55	30.05	-31.5	-34.8	12.4	9.38e-05	0	42	0	498073600	23	5295
2026-01-18 08:57:23.86	70.22	30.11	-31.5	-34.9	12.4	1.15e-04	0	42	0	499122176	23	5348
2026-01-18 08:57:24.86	69.89	30.17	-31.7	-35.4	12.2	2.30e-04	0	42	0	501219328	23	5520
2026-01-18 08:57:25.86	69.57	30.23	-31.7	-35.5	12.0	2.84e-04	0	42	0	503316480	23	5599
2026-01-18 08:57:26.86	69.24	30.29	-31.8	-35.9	11.8	4.43e-04	0	42	0	505413632	23	5753
2026-01-18 08:57:27.86	68.91	30.35	-31.9	-36.1	11.6	6.58e-04	0	42	0	507510784	23	5871
2026-01-18 08:57:28.86	68.58	30.40	-31.9	-36.2	11.5	6.78e-04	0	42	0	508559360	23	5895
2026-01-18 08:57:29.87	68.24	30.46	-31.9	-36.2	11.6	6.95e-04	0	42	0	510656512	23	5881
2026-01-18 08:57:30.87	67.91	30.52	-31.8	-35.9	11.7	7.07e-04	0	42	0	512753664	23	5744
2026-01-18 08:57:31.87	67.57	30.57	-31.8	-35.8	11.9	4.19e-04	0	42	0	514850816	23	5710
2026-01-18 08:57:32.88	67.23	30.62	-31.6	-35.3	12.2	3.69e-04	0	42	0	516947968	23	5482
2026-01-18 08:57:33.88	66.89	30.67	-31.5	-35.1	12.4	1.81e-04	0	42	0	517996544	23	5394
2026-01-18 08:57:34.88	66.56	30.73	-31.6	-35.2	12.3	2.07e-04	0	42	0	520093696	23	5461
2026-01-18 08:57:35.88	66.22	30.78	-31.5	-35.0	12.4	2.20e-04	0	42	0	522190848	23	5383
2026-01-18 08:57:36.88	65.88	30.82	-31.6	-35.2	12.3	1.97e-04	0	42	0	524288000	23	5437
2026-01-18 08:57:37.88	65.54	30.87	-31.5	-35.1	12.4	1.74e-04	0	42	0	526385152	23	5395
2026-01-18 08:57:38.88	65.19	30.92	-31.5	-35.1	12.4	1.31e-04	0	42	0	527433728	23	5393
2026-01-18 08:57:39.88	64.85	30.96	-31.6	-35.3	12.2	2.21e-04	0	42	0	529530880	23	5478
2026-01-18 08:57:40.88	64.51	31.01	-31.5	-35.1	12.4	1.83e-04	0	42	0	531628032	23	5398
2026-01-18 08:57:41.88	64.16	31.05	-31.5	-34.9	12.5	1.24e-04	0	42	0	533725184	23	5336
2026-01-18 08:57:42.89	63.81	31.10	-31.5	-34.8	12.5	1.11e-04	0	42	0	534773760	23	5306
2026-01-18 08:57:43.89	63.46	31.14	-31.6	-35.1	12.3	1.33e-04	0	43	0	536870912	23	5411
2026-01-18 08:57:44.89	63.12	31.18	-31.6	-35.2	12.3	1.70e-04	0	42	0	538968064	23	5447
2026-01-18 08:57:45.90	62.76	31.22	-31.5	-34.8	12.5	1.50e-04	0	42	0	541065216	23	5301
2026-01-18 08:57:46.90	62.41	31.25	-31.5	-35.0	12.4	1.27e-04	0	42	0	543162368	23	5376
2026-01-18 08:57:47.90	62.06	31.29	-31.5	-35.1	12.4	1.30e-04	0	42	0	545259520	23	5388
2026-01-18 08:57:48.90	61.71	31.33	-31.7	-35.6	12.0	2.77e-04	0	42	0	546308096	23	5619
2026-01-18 08:57:49.91	61.36	31.36	-31.8	-35.7	11.9	3.70e-04	0	42	0	548405248	23	5669
2026-01-18 08:57:50.91	61.01	31.39	-31.6	-35.1	12.3	1.91e-04	0	42	0	550502400	23	5422
2026-01-18 08:57:51.92	60.65	31.43	-31.6	-35.2	12.3	1.53e-04	0	42	0	552599552	23	5435
2026-01-18 08:57:52.92	60.29	31.46	-31.7	-35.6	12.0	1.59e-04	0	42	0	553648128	23	5609
2026-01-18 08:57:53.93	59.94	31.49	-31.7	-35.6	12.1	3.12e-04	0	42	0	555745280	23	5602
2026-01-18 08:57:54.93	59.58	31.51	-31.7	-35.6	12.0	2.97e-04	0	42	0	557842432	23	5623
2026-01-18 08:57:55.93	59.23	31.54	-31.7	-35.4	12.1	2.46e-04	0	42	0	559939584	23	5529
2026-01-18 08:57:56.93	58.87	31.57	-31.8	-35.8	11.9	3.08e-04	0	42	0	562036736	23	5709
2026-01-18 08:57:57.94	58.51	31.59	-31.8	-35.7	12.0	3.54e-04	0	42	0	563085312	23	5655
2026-01-18 08:57:58.94	58.15	31.62	-31.9	-36.0	11.8	3.77e-04	0	42	0	565182464	23	5768
2026-01-18 08:57:59.94	57.79	31.64	-32.0	-36.3	11.6	6.32e-04	0	42	0	567279616	23	5924
2026-01-18 08:58:00.94	57.43	31.66	-32.1	-36.2	11.3	1.06e-03	0	42	0	569376768	24	5787
2026-01-18 08:58:01.94	57.08	31.68	-32.2	-36.4	11.1	1.48e-03	0	42	0	571473920	24	5867
2026-01-18 08:58:02.94	56.72	31.70	-32.1	-36.2	11.3	1.40e-03	0	42	0	572522496	24	5770
2026-01-18 08:58:03.95	56.35	31.71	-32.0	-36.0	11.4	8.92e-04	0	42	0	574619648	24	5668
2026-01-18 08:58:04.95	55.99	31.73	-32.1	-36.1	11.3	8.93e-04	0	42	0	576716800	24	5727
2026-01-18 08:58:05.96	55.63	31.74	-32.2	-36.6	11.0	1.40e-03	0	42	0	578813952	24	5947
2026-01-18 08:58:06.96	55.27	31.76	-32.2	-36.5	11.0	1.91e-03	0	42	0	580911104	24	5905
2026-01-18 08:58:07.96	54.91	31.77	-32.1	-36.1	11.3	1.28e-03	0	42	0	581959680	24	5713
2026-01-18 08:58:08.96	54.55	31.78	-32.1	-36.4	11.1	1.29e-03	0	42	0	584056832	24	5853
2026-01-18 08:58:09.97	54.18	31.79	-32.1	-36.1	11.3	1.16e-03	0	42	0	586153984	24	5741
2026-01-18 08:58:10.97	53.82	31.80	-32.1	-36.4	11.1	1.45e-03	0	42	0	588251136	24	5854
2026-01-18 08:58:11.97	53.46	31.80	-32.1	-36.2	11.2	1.43e-03	0	42	0	590348288	24	5772
2026-01-18 08:58:12.98	53.09	31.81	-32.0	-35.9	11.5	9.97e-04	0	42	0	591396864	24	5635
2026-01-18 08:58:13.98	52.73	31.81	-31.9	-35.7	11.7	8.08e-04	0	42	0	593494016	24	5526
2026-01-18 08:58:14.98	52.37	31.82	-32.1	-36.1	11.4	8.24e-04	0	42	0	595591168	24	5712
2026-01-18 08:58:15.98	52.00	31.82	-31.8	-35.4	11.9	5.60e-04	0	43	0	597688320	24	5392
2026-01-18 08:58:16.98	51.64	31.82	-31.8	-35.1	12.0	3.61e-04	0	42	0	598736896	24	5306
2026-01-18 08:58:17.98	51.28	31.82	-31.7	-34.9	12.1	2.60e-04	0	42	0	600834048	24	5220
2026-01-18 08:58:18.98	50.92	31.81	-31.8	-35.3	11.9	3.16e-04	0	42	0	602931200	24	5375
2026-01-18 08:58:19.99	50.55	31.81	-31.7	-35.0	12.1	3.15e-04	0	42	0	605028352	24	5274
2026-01-18 08:58:20.99	50.19	31.81	-31.8	-35.3	12.0	3.29e-04	0	42	0	607125504	24	5365
2026-01-18 08:58:22.00	49.83	31.80	-31.9	-35.5	11.8	4.16e-04	0	42	0	608174080	24	5472
2026-01-18 08:58:23.00	49.46	31.79	-31.8	-35.4	11.9	4.47e-04	0	42	0	610271232	24	5408
2026-01-18 08:58:24.01	49.10	31.78	-32.0	-36.0	11.4	4.75e-04	0	42	0	612368384	24	5669
2026-01-18 08:58:25.01	48.74	31.77	-32.0	-35.8	11.5	7.16e-04	0	42	0	614465536	24	5621
2026-01-18 08:58:26.02	48.37	31.76	-31.9	-35.6	11.7	6.20e-04	0	42	0	616562688	24	5503
2026-01-18 08:58:27.02	48.01	31.75	-31.9	-35.6	11.7	6.03e-04	0	42	0	617611264	24	5516
2026-01-18 08:58:28.02	47.65	31.74	-31.9	-35.5	11.7	4.98e-04	0	42	0	619708416	24	5474
2026-01-18 08:58:29.02	47.29	31.72	-32.0	-35.7	11.6	6.13e-04	0	43	0	621805568	24	5558
2026-01-18 08:58:30.03	46.93	31.70	-32.0	-35.7	11.6	6.42e-04	0	42	0	623902720	24	5572
2026-01-18 08:58:31.03	46.57	31.69	-32.0	-35.8	11.5	7.39e-04	0	43	0	625999872	24	5571
2026-01-18 08:58:32.03	46.21	31.67	-32.0	-35.9	11.5	7.99e-04	0	43	0	627048448	24	5657
2026-01-18 08:58:33.03	45.85	31.65	-32.0	-35.9	11.5	7.49e-04	0	42	0	629145600	24	5641
2026-01-18 08:58:34.03	45.49	31.62	-32.0	-36.0	11.4	9.04e-04	0	42	0	631242752	24	5676
2026-01-18 08:58:35.04	45.13	31.60	-32.1	-36.3	11.2	1.04e-03	0	42	0	633339904	24	5804
2026-01-18 08:58:36.04	44.78	31.58	-32.2	-36.5	11.0	1.50e-03	0	43	0	635437056	24	5889
2026-01-18 08:58:37.04	44.42	31.55	-31.9	-35.7	11.6	1.12e-03	0	43	0	636485632	24	5539
2026-01-18 08:58:38.04	44.06	31.53	-31.8	-35.4	11.9	6.03e-04	0	42	0	638582784	24	5416
2026-01-18 08:58:39.05	43.71	31.50	-31.6	-34.7	12.3	2.59e-04	0	42	0	640679936	24	5136
2026-01-18 08:58:40.06	43.35	31.47	-31.5	-34.5	12.4	2.19e-04	0	42	0	642777088	24	5081
2026-01-18 08:58:41.06	42.99	31.44	-31.6	-34.7	12.3	1.22e-04	0	42	0	644874240	24	5146
2026-01-18 08:58:42.06	42.64	31.41	-31.7	-35.1	12.0	2.84e-04	0	42	0	645922816	24	5308
2026-01-18 08:58:43.06	42.29	31.37	-31.8	-35.4	11.8	3.54e-04	0	42	0	648019968	24	5421
2026-01-18 08:58:44.06	41.94	31.34	-31.8	-35.4	11.8	5.13e-04	0	42	0	650117120	24	5426
2026-01-18 08:58:45.06	41.59	31.31	-31.9	-35.5	11.7	5.31e-04	0	43	0	652214272	24	5492
2026-01-18 08:58:46.07	41.23	31.27	-32.0	-36.1	11.3	8.41e-04	0	42	0	653262848	24	5717
2026-01-18 08:58:47.06	40.89	31.23	-31.8	-35.3	11.8	7.12e-04	0	42	0	655360000	24	5399
2026-01-18 08:58:48.06	40.54	31.19	-31.7	-35.0	12.1	4.43e-04	0	42	0	657457152	24	5254
2026-01-18 08:58:49.07	40.19	31.15	-31.6	-34.7	12.2	2.10e-04	0	43	0	659554304	24	5157
2026-01-18 08:58:50.07	39.84	31.11	-31.7	-35.0	12.0	2.37e-04	0	42	0	661651456	24	5271
2026-01-18 08:58:51.08	39.49	31.07	-31.7	-35.1	11.9	2.52e-04	0	42	0	662700032	24	5317
2026-01-18 08:58:52.08	39.14	31.03	-31.8	-35.4	11.8	4.68e-04	0	42	0	664797184	24	5417
2026-01-18 08:58:53.09	38.80	30.98	-32.0	-36.0	11.3	9.43e-04	0	42	0	666894336	24	5693
2026-01-18 08:58:54.09	38.45	30.94	-32.1	-36.3	11.1	1.37e-03	0	42	0	668991488	24	5854
2026-01-18 08:58:55.09	38.11	30.89	-32.1	-36.3	11.1	1.39e-03	0	42	0	671088640	24	5820
2026-01-18 08:58:56.10	37.77	30.85	-32.0	-35.9	11.4	1.17e-03	0	43	0	672137216	24	5656
2026-01-18 08:58:57.10	37.43	30.80	-31.8	-35.4	11.8	6.72e-04	0	43	0	674234368	24	5420
2026-01-18 08:58:58.11	37.08	30.75	-31.8	-35.4	11.8	4.30e-04	0	42	0	676331520	24	5440
2026-01-18 08:58:59.12	36.74	30.70	-31.9	-35.6	11.6	6.00e-04	0	42	0	678428672	24	5525
2026-01-18 08:59:00.12	36.41	30.65	-31.8	-35.4	11.7	6.61e-04	0	42	0	680525824	24	5444
2026-01-18 08:59:01.13	36.07	30.59	-32.0	-35.8	11.5	7.28e-04	0	42	0	681574400	24	5608
2026-01-18 08:59:02.14	35.73	30.54	-32.1	-36.2	11.2	1.31e-03	0	42	0	683671552	24	5802
2026-01-18 08:59:03.14	35.40	30.48	-32.1	-36.4	11.0	1.45e-03	0	42	0	685768704	24	5867
2026-01-18 08:59:04.14	35.06	30.43	-32.2	-36.5	10.9	1.96e-03	0	43	0	687865856	24	5950
2026-01-18 08:59:05.14	34.73	30.37	-32.1	-36.3	11.1	1.67e-03	0	42	0	689963008	24	5819
2026-01-18 08:59:06.14	34.40	30.31	-32.1	-36.3	11.1	1.58e-03	0	43	0	691011584	24	5843
2026-01-18 08:59:07.14	34.07	30.26	-32.1	-36.4	11.0	1.55e-03	0	42	0	693108736	24	5873
2026-01-18 08:59:08.15	33.74	30.20	-32.0	-36.0	11.3	1.62e-03	0	43	0	695205888	24	5720
2026-01-18 08:59:09.15	33.42	30.14	-32.0	-35.9	11.4	1.05e-03	0	43	0	697303040	24	5678
2026-01-18 08:59:10.15	33.09	30.07	-32.0	-36.0	11.3	9.70e-04	0	43	0	699400192	24	5687
2026-01-18 08:59:11.15	32.77	30.01	-32.1	-36.3	11.1	1.30e-03	0	42	0	700448768	24	5850
2026-01-18 08:59:12.16	32.44	29.95	-32.1	-36.2	11.2	1.36e-03	0	42	0	702545920	24	5804
2026-01-18 08:59:13.17	32.12	29.88	-32.0	-36.0	11.3	1.29e-03	0	43	0	704643072	24	5711
2026-01-18 08:59:14.17	31.80	29.82	-32.0	-36.0	11.3	1.05e-03	0	43	0	706740224	24	5726
2026-01-18 08:59:15.18	31.47	29.75	-32.1	-36.2	11.1	1.40e-03	0	42	0	708837376	24	5809
2026-01-18 08:59:16.18	31.16	29.69	-32.2	-36.6	10.8	2.48e-03	0	42	0	709885952	24	5993
2026-01-18 08:59:17.18	30.84	29.62	-32.0	-36.1	11.2	1.86e-03	0	42	0	711983104	24	5737
2026-01-18 08:59:18.18	30.53	29.55	-31.9	-35.7	11.5	1.02e-03	0	42	0	714080256	24	5579
2026-01-18 08:59:19.18	30.21	29.48	-31.8	-35.4	11.7	6.35e-04	0	43	0	716177408	24	5457
2026-01-18 08:59:20.18	29.90	29.41	-31.8	-35.5	11.6	5.87e-04	0	42	0	717225984	24	5474
2026-01-18 08:59:21.18	29.59	29.34	-31.8	-35.4	11.7	6.07e-04	0	42	0	719323136	24	5448
2026-01-18 08:59:22.18	29.28	29.27	-31.7	-35.1	11.9	3.73e-04	0	42	0	721420288	24	5312
2026-01-18 08:59:23.18	28.97	29.20	-31.8	-35.3	11.7	4.70e-04	0	42	0	723517440	24	5409
2026-01-18 08:59:24.18	28.67	29.13	-31.8	-35.5	11.6	5.71e-04	0	42	0	725614592	24	5470
2026-01-18 08:59:25.19	28.36	29.05	-31.7	-35.1	11.9	5.30e-04	0	42	0	726663168	24	5336
2026-01-18 08:59:26.19	28.05	28.98	-31.6	-34.9	12.0	3.44e-04	0	43	0	728760320	24	5238
2026-01-18 08:59:27.20	27.75	28.90	-31.7	-34.9	12.0	3.12e-04	0	42	0	730857472	24	5254
2026-01-18 08:59:28.20	27.45	28.83	-31.6	-34.7	12.1	3.06e-04	0	42	0	732954624	24	5163
2026-01-18 08:59:29.21	27.15	28.75	-31.7	-34.9	12.0	2.78e-04	0	43	0	735051776	24	5255
2026-01-18 08:59:30.21	26.85	28.67	-31.8	-35.4	11.7	4.49e-04	0	43	0	736100352	24	5456
2026-01-18 08:59:31.21	26.55	28.60	-31.9	-35.7	11.4	6.70e-04	0	43	0	738197504	24	5575
2026-01-18 08:59:32.21	26.26	28.52	-31.9	-35.6	11.5	8.29e-04	0	42	0	740294656	24	5526
2026-01-18 08:59:33.21	25.96	28.44	-31.9	-35.8	11.4	7.92e-04	0	43	0	742391808	24	5628
2026-01-18 08:59:34.20	25.67	28.36	-32.0	-36.2	11.1	1.50e-03	0	42	0	744488960	24	5792
2026-01-18 08:59:35.20	25.38	28.28	-32.0	-35.9	11.3	1.40e-03	0	43	0	745537536	24	5677
2026-01-18 08:59:36.20	25.09	28.20	-31.8	-35.5	11.6	9.04e-04	0	42	0	747634688	24	5472
2026-01-18 08:59:37.20	24.81	28.12	-31.8	-35.5	11.6	6.88e-04	0	43	0	749731840	24	5487
2026-01-18 08:59:38.21	24.52	28.04	-31.9	-35.6	11.5	7.33e-04	0	42	0	751828992	24	5552
2026-01-18 08:59:39.21	24.23	27.96	-31.9	-35.8	11.4	9.61e-04	0	42	0	753926144	24	5626
2026-01-18 08:59:40.22	23.95	27.87	-32.0	-36.1	11.1	1.67e-03	0	42	0	754974720	24	5784
2026-01-18 08:59:41.22	23.66	27.79	-31.8	-35.5	11.6	1.09e-03	0	43	0	757071872	24	5495
2026-01-18 08:59:42.22	23.38	27.71	-31.7	-35.0	11.9	6.45e-04	0	43	0	759169024	24	5278
2026-01-18 08:59:43.22	23.11	27.62	-31.4	-34.3	12.4	1.81e-04	0	42	0	761266176	24	5027
2026-01-18 08:59:44.22	22.83	27.54	-31.3	-33.9	12.6	1.07e-04	0	43	0	762314752	24	4871
2026-01-18 08:59:45.22	22.55	27.45	-31.3	-34.6	12.5	7.62e-05	0	42	0	764411904	23	5213
2026-01-18 08:59:46.23	22.28	27.36	-31.4	-34.8	12.4	1.42e-04	0	42	0	766509056	23	5310
2026-01-18 08:59:47.23	22.00	27.28	-31.4	-34.8	12.4	1.60e-04	0	42	0	768606208	23	5306
2026-01-18 08:59:48.23	21.73	27.19	-31.6	-35.2	12.1	2.24e-04	0	42	0	770703360	23	5462
2026-01-18 08:59:49.23	21.46	27.10	-31.4	-34.7	12.4	2.01e-04	0	43	0	771751936	23	5269
2026-01-18 08:59:50.23	21.19	27.02	-31.3	-34.4	12.7	1.04e-04	0	42	0	773849088	23	5140
2026-01-18 08:59:51.24	20.92	26.93	-31.2	-34.2	12.8	6.25e-05	0	43	0	775946240	23	5070
2026-01-18 08:59:52.23	20.66	26.84	-31.2	-34.2	12.7	7.47e-05	0	43	0	778043392	23	5084
2026-01-18 08:59:53.24	20.39	26.75	-31.2	-34.0	12.9	3.28e-05	0	42	0	780140544	23	5014
2026-01-18 08:59:54.24	20.13	26.66	-31.2	-34.2	12.8	5.26e-05	0	43	0	781189120	23	5073
2026-01-18 08:59:55.25	19.87	26.57	-31.1	-34.0	12.9	6.33e-05	0	42	0	783286272	23	4989
2026-01-18 08:59:56.24	19.61	26.48	-31.1	-33.8	13.1	4.27e-05	0	42	0	785383424	23	4918
2026-01-18 08:59:57.25	19.35	26.39	-30.9	-33.4	13.2	2.05e-05	0	43	0	787480576	23	4801
2026-01-18 08:59:58.25	19.10	26.30	-30.9	-33.3	13.3	2.13e-05	0	42	0	789577728	23	4745
2026-01-18 08:59:59.25	18.84	26.21	-30.8	-33.5	13.6	1.22e-05	0	42	0	790626304	22	4914
2026-01-18 09:00:00.26	18.58	26.12	-30.8	-33.4	13.6	8.30e-06	0	43	0	792723456	22	4899
2026-01-18 09:00:01.26	18.33	26.03	-30.6	-32.9	13.9	4.50e-06	0	42	0	794820608	22	4730
2026-01-18 09:00:02.26	18.08	25.94	-30.5	-32.7	14.0	3.00e-06	0	42	0	796917760	22	4660
2026-01-18 09:00:03.27	17.83	25.84	-30.4	-32.6	14.1	7.00e-07	0	42	0	799014912	22	4604
2026-01-18 09:00:04.27	17.58	25.75	-30.5	-32.9	14.0	1.50e-06	0	43	0	800063488	22	4704
2026-01-18 09:00:05.28	17.33	25.66	-30.5	-32.8	13.9	5.30e-06	0	42	0	802160640	22	4678
2026-01-18 09:00:06.28	17.09	25.57	-30.2	-32.6	14.4	1.50e-06	0	42	0	804257792	21	4723
2026-01-18 09:00:07.28	16.85	25.47	-30.0	-32.0	14.8	0.00e+00	0	42	0	806354944	21	4518
2026-01-18 09:00:08.29	16.60	25.38	-29.9	-31.8	14.9	0.00e+00	0	43	0	807403520	21	4462
2026-01-18 09:00:09.29	16.36	25.28	-29.9	-31.8	14.9	0.00e+00	0	42	0	809500672	21	4452
2026-01-18 09:00:10.29	16.12	25.19	-29.9	-31.8	14.9	0.00e+00	0	42	0	811597824	21	4457
2026-01-18 09:00:11.29	15.89	25.10	-29.7	-31.8	15.2	0.00e+00	0	42	0	813694976	20	4570
2026-01-18 09:00:12.30	15.65	25.00	-29.7	-31.8	15.2	0.00e+00	0	42	0	815792128	20	4560
2026-01-18 09:00:13.29	15.42	24.91	-29.7	-31.7	15.2	0.00e+00	0	42	0	816840704	20	4540
2026-01-18 09:00:14.30	15.18	24.81	-29.6	-31.5	15.3	0.00e+00	0	42	0	818937856	20	4479
2026-01-18 09:00:15.31	14.95	24.72	-29.5	-31.3	15.5	0.00e+00	0	43	0	821035008	20	4411
2026-01-18 09:00:16.31	14.72	24.62	-29.6	-31.5	15.4	0.00e+00	0	42	0	823132160	20	4464
2026-01-18 09:00:17.31	14.49	24.53	-29.4	-31.0	15.6	0.00e+00	0	42	0	825229312	20	4333
2026-01-18 09:00:18.31	14.26	24.43	-29.4	-30.9	15.7	0.00e+00	0	42	0	826277888	20	4303
2026-01-18 09:00:19.32	14.03	24.34	-29.4	-30.9	15.7	0.00e+00	0	42	0	828375040	20	4302
2026-01-18 09:00:20.32	13.81	24.24	-29.5	-31.3	15.5	0.00e+00	0	43	0	830472192	20	4406
2026-01-18 09:00:21.32	13.58	24.15	-29.5	-31.3	15.4	0.00e+00	0	42	0	832569344	20	4434
2026-01-18 09:00:22.33	13.36	24.05	-29.3	-31.2	15.8	0.00e+00	0	42	0	834666496	19	4500
2026-01-18 09:00:23.33	13.14	23.95	-29.2	-30.9	16.0	0.00e+00	0	43	0	835715072	19	4395
2026-01-18 09:00:24.34	12.92	23.86	-29.2	-31.0	15.9	0.00e+00	0	42	0	837812224	19	4424
2026-01-18 09:00:25.34	12.70	23.76	-29.1	-30.7	16.1	0.00e+00	0	43	0	839909376	19	4351
2026-01-18 09:00:26.34	12.48	23.66	-29.2	-30.9	16.0	0.00e+00	0	42	0	842006528	19	4396
2026-01-18 09:00:27.33	12.27	23.57	-29.2	-31.0	16.0	0.00e+00	0	42	0	844103680	19	4429
2026-01-18 09:00:28.33	12.06	23.47	-29.2	-31.0	16.0	0.00e+00	0	42	0	845152256	19	4413
2026-01-18 09:00:29.32	11.85	23.38	-29.2	-31.0	15.9	0.00e+00	0	42	0	847249408	19	4434
2026-01-18 09:00:30.33	11.63	23.28	-29.2	-31.1	15.9	0.00e+00	0	42	0	849346560	19	4452
2026-01-18 09:00:31.33	11.42	23.18	-29.3	-31.3	15.8	7.00e-07	0	42	0	851443712	19	4521
2026-01-18 09:00:32.34	11.21	23.09	-29.4	-31.5	15.6	0.00e+00	0	42	0	852492288	19	4589
2026-01-18 09:00:33.34	11.00	22.99	-29.2	-31.1	15.9	0.00e+00	0	42	0	854589440	19	4465
2026-01-18 09:00:34.34	10.80	22.89	-29.2	-31.0	15.9	0.00e+00	0	43	0	856686592	19	4427
2026-01-18 09:00:35.34	10.59	22.80	-29.3	-31.2	15.8	0.00e+00	0	43	0	858783744	19	4493
2026-01-18 09:00:36.35	10.39	22.70	-29.3	-31.1	15.9	0.00e+00	0	43	0	860880896	19	4464
2026-01-18 09:00:37.36	10.19	22.60	-29.3	-31.3	15.7	0.00e+00	0	42	0	862978048	19	4536
2026-01-18 09:00:38.35	9.99	22.51	-29.4	-31.6	15.6	0.00e+00	0	43	0	864026624	19	4626
2026-01-18 09:00:39.36	9.78	22.41	-29.5	-31.8	15.5	0.00e+00	0	43	0	866123776	19	4676
2026-01-18 09:00:40.36	9.59	22.31	-29.6	-31.9	15.3	0.00e+00	0	42	0	868220928	19	4728
2026-01-18 09:00:41.37	9.39	22.21	-29.7	-32.2	15.2	0.00e+00	0	42	0	870318080	19	4802
2026-01-18 09:00:42.37	9.19	22.12	-29.6	-32.1	15.3	0.00e+00	0	42	0	871366656	19	4764
2026-01-18 09:00:43.38	9.00	22.02	-29.7	-32.2	15.2	0.00e+00	0	42	0	873463808	19	4796
2026-01-18 09:00:44.38	8.80	21.92	-29.7	-32.1	15.2	0.00e+00	0	42	0	875560960	19	4791
2026-01-18 09:00:45.38	8.61	21.83	-29.7	-32.3	15.1	0.00e+00	0	42	0	877658112	19	4834
2026-01-18 09:00:46.38	8.42	21.73	-29.7	-32.3	15.1	0.00e+00	0	42	0	879755264	19	4842
2026-01-18 09:00:47.39	8.23	21.63	-29.7	-32.3	15.1	0.00e+00	0	43	0	880803840	19	4830
2026-01-18 09:00:48.38	8.04	21.54	-29.8	-32.4	15.0	0.00e+00	0	42	0	882900992	19	4888
2026-01-18 09:00:49.39	7.85	21.44	-29.8	-32.5	15.0	0.00e+00	0	42	0	884998144	19	4907
2026-01-18 09:00:50.39	7.67	21.34	-29.8	-32.5	15.0	0.00e+00	0	42	0	887095296	19	4909
2026-01-18 09:00:51.38	7.48	21.25	-29.8	-32.6	15.0	7.00e-07	0	42	0	889192448	19	4935
2026-01-18 09:00:52.38	7.30	21.15	-29.8	-32.6	14.9	0.00e+00	0	42	0	890241024	19	4948
2026-01-18 09:00:53.39	7.12	21.05	-29.9	-32.7	14.8	0.00e+00	0	42	0	892338176	19	4994
2026-01-18 09:00:54.38	6.94	20.96	-30.0	-32.9	14.7	0.00e+00	0	42	0	894435328	19	5045
2026-01-18 09:00:55.39	6.75	20.86	-30.1	-32.7	14.4	0.00e+00	0	42	0	896532480	20	4888
2026-01-18 09:00:56.38	6.58	20.76	-30.1	-32.9	14.3	7.00e-07	0	42	0	897581056	20	4958
2026-01-18 09:00:57.37	6.40	20.67	-30.0	-32.7	14.5	7.00e-07	0	42	0	899678208	20	4877
2026-01-18 09:00:58.37	6.22	20.57	-30.1	-32.8	14.4	7.00e-07	0	42	0	901775360	20	4912
2026-01-18 09:00:59.37	6.05	20.48	-30.1	-32.7	14.4	1.50e-06	0	42	0	903872512	20	4896
2026-01-18 09:01:00.37	5.87	20.38	-30.1	-32.8	14.3	0.00e+00	0	42	0	905969664	20	4921
2026-01-18 09:01:01.36	5.70	20.29	-30.2	-33.0	14.2	7.00e-07	0	42	0	907018240	20	4984
2026-01-18 09:01:02.36	5.53	20.19	-30.1	-32.9	14.3	1.50e-06	0	43	0	909115392	20	4963
2026-01-18 09:01:03.36	5.36	20.10	-30.3	-33.3	14.0	1.50e-06	0	42	0	911212544	20	5107
2026-01-18 09:01:04.37	5.19	20.00	-30.4	-33.5	13.9	4.50e-06	0	43	0	913309696	20	5176
2026-01-18 09:01:05.36	5.02	19.91	-30.2	-33.1	14.2	7.00e-07	0	42	0	915406848	20	5012
2026-01-18 09:01:06.37	4.85	19.81	-30.1	-32.8	14.3	1.50e-06	0	42	0	916455424	20	4921
2026-01-18 09:01:07.37	4.68	19.71	-30.0	-32.7	14.4	0.00e+00	0	42	0	918552576	20	4895
2026-01-18 09:01:08.38	4.51	19.62	-30.1	-32.8	14.3	0.00e+00	0	42	0	920649728	20	4922
2026-01-18 09:01:09.38	4.35	19.52	-30.1	-32.8	14.3	1.50e-06	0	42	0	922746880	20	4937
2026-01-18 09:01:10.39	4.18	19.43	-30.1	-32.8	14.3	7.00e-07	0	42	0	924844032	20	4927
2026-01-18 09:01:11.39	4.02	19.33	-30.2	-33.1	14.1	2.20e-06	0	42	0	925892608	20	5045
2026-01-18 09:01:12.39	3.86	19.24	-30.3	-33.2	14.0	7.00e-07	0	42	0	927989760	20	5084
2026-01-18 09:01:13.39	3.70	19.14	-30.3	-33.5	13.9	2.20e-06	0	42	0	930086912	20	5179
2026-01-18 09:01:14.39	3.54	19.05	-30.4	-33.6	13.8	3.00e-06	0	42	0	932184064	20	5213
2026-01-18 09:01:15.39	3.38	18.95	-30.5	-33.8	13.7	6.80e-06	0	42	0	933232640	20	5300
2026-01-18 09:01:16.39	3.22	18.86	-30.5	-33.4	13.6	4.50e-06	0	42	0	935329792	21	5028
2026-01-18 09:01:17.39	3.07	18.77	-30.6	-33.7	13.4	1.29e-05	0	42	0	937426944	21	5132
2026-01-18 09:01:18.39	2.91	18.67	-30.6	-33.8	13.3	2.13e-05	0	42	0	939524096	21	5186
2026-01-18 09:01:19.40	2.75	18.58	-30.6	-33.8	13.3	1.06e-05	0	42	0	941621248	21	5189
2026-01-18 09:01:20.40	2.60	18.48	-30.7	-33.9	13.2	1.83e-05	0	42	0	942669824	21	5241
2026-01-18 09:01:21.41	2.45	18.39	-30.7	-34.0	13.2	1.52e-05	0	42	0	944766976	21	5276
2026-01-18 09:01:22.41	2.29	18.30	-30.8	-34.2	13.0	3.66e-05	0	42	0	946864128	21	5360
2026-01-18 09:01:23.41	2.14	18.20	-30.8	-34.2	13.0	3.66e-05	0	43	0	948961280	21	5364
2026-01-18 09:01:24.42	1.99	18.11	-30.9	-34.6	12.8	4.19e-05	0	42	0	951058432	21	5496
2026-01-18 09:01:25.42	1.84	18.02	-30.9	-34.6	12.8	6.25e-05	0	42	0	952107008	21	5503
2026-01-18 09:01:26.43	1.69	17.92	-30.8	-34.3	13.0	5.79e-05	0	42	0	954204160	21	5377
2026-01-18 09:01:27.43	1.55	17.83	-30.8	-34.2	13.0	4.27e-05	0	42	0	956301312	21	5344
2026-01-18 09:01:28.43	1.40	17.74	-30.8	-34.2	13.0	4.27e-05	0	42	0	958398464	21	5340
2026-01-18 09:01:29.43	1.25	17.65	-30.8	-34.3	13.0	5.64e-05	0	42	0	960495616	21	5374
2026-01-18 09:01:30.43	1.11	17.55	-30.8	-34.4	12.9	4.19e-05	0	42	0	961544192	21	5438
2026-01-18 09:01:31.43	0.97	17.46	-30.9	-34.7	12.7	6.48e-05	0	43	0	963641344	21	5537
2026-01-18 09:01:32.43	0.82	17.37	-30.9	-34.7	12.7	6.94e-05	0	42	0	965738496	21	5535
2026-01-18 09:01:33.44	0.68	17.28	-31.0	-34.3	12.6	8.77e-05	0	43	0	967835648	22	5290
2026-01-18 09:01:34.44	0.54	17.19	-31.0	-34.4	12.6	9.38e-05	0	42	0	969932800	22	5315
2026-01-18 09:01:35.44	0.40	17.10	-31.0	-34.3	12.6	1.02e-04	0	43	0	970981376	22	5295
2026-01-18 09:01:36.44	0.26	17.00	-31.0	-34.2	12.7	9.00e-05	0	43	0	973078528	22	5252
2026-01-18 09:01:37.44	0.12	16.91	-31.0	-34.5	12.5	1.01e-04	0	43	0	975175680	22	5355
2026-01-18 09:01:38.44	359.99	16.82	-31.0	-34.5	12.5	1.49e-04	0	42	0	977272832	22	5351
2026-01-18 09:01:39.44	359.85	16.73	-31.1	-34.6	12.4	1.26e-04	0	43	0	978321408	22	5421
2026-01-18 09:01:40.44	359.71	16.64	-31.1	-34.6	12.4	2.20e-04	0	42	0	980418560	22	5416
2026-01-18 09:01:41.45	359.58	16.55	-31.0	-34.3	12.6	1.33e-04	0	43	0	982515712	22	5301
2026-01-18 09:01:42.45	359.44	16.46	-31.0	-34.5	12.5	1.14e-04	0	43	0	984612864	22	5356
2026-01-18 09:01:43.45	359.31	16.37	-31.2	-34.8	12.2	1.66e-04	0	42	0	986710016	22	5502
2026-01-18 09:01:44.46	359.18	16.28	-31.2	-35.0	12.0	2.91e-04	0	43	0	987758592	22	5596
2026-01-18 09:01:45.46	359.04	16.19	-31.3	-35.2	11.9	3.06e-04	0	43	0	989855744	22	5662
2026-01-18 09:01:46.47	358.91	16.10	-31.3	-35.2	11.9	4.11e-04	0	42	0	991952896	22	5657
2026-01-18 09:01:47.48	358.78	16.01	-31.2	-35.1	12.0	3.75e-04	0	42	0	994050048	22	5604
2026-01-18 09:01:48.47	358.65	15.92	-31.3	-35.2	11.9	3.26e-04	0	43	0	996147200	22	5692
2026-01-18 09:01:49.48	358.52	15.83	-31.2	-35.0	12.0	3.23e-04	0	43	0	997195776	22	5566
2026-01-18 09:01:50.48	358.40	15.74	-31.2	-35.1	12.0	2.29e-04	0	43	0	999292928	22	5601
2026-01-18 09:01:51.49	358.27	15.65	-31.1	-34.9	12.1	3.69e-04	0	42	0	1001390080	22	5514
2026-01-18 09:01:52.49	358.14	15.57	-31.0	-34.5	12.4	1.74e-04	0	42	0	1003487232	22	5375
2026-01-18 09:01:53.49	358.02	15.48	-31.0	-34.4	12.5	1.14e-04	0	43	0	1005584384	22	5317
2026-01-18 09:01:54.49	357.89	15.39	-31.0	-34.4	12.4	1.08e-04	0	42	0	1006632960	22	5326
2026-01-18 09:01:55.49	357.77	15.30	-31.0	-34.6	12.3	1.79e-04	0	43	0	1008730112	22	5391
2026-01-18 09:01:56.49	357.65	15.21	-31.0	-34.5	12.4	1.44e-04	0	42	0	1010827264	22	5373
2026-01-18 09:01:57.50	357.52	15.13	-31.0	-34.5	12.4	1.85e-04	0	43	0	1012924416	22	5381
2026-01-18 09:01:58.50	357.40	15.04	-31.0	-34.4	12.4	1.70e-04	0	43	0	1015021568	22	5346
2026-01-18 09:01:59.50	357.28	14.95	-31.0	-34.6	12.3	1.65e-04	0	42	0	1016070144	22	5405
2026-01-18 09:02:00.50	357.16	14.86	-31.1	-34.8	12.2	1.98e-04	0	43	0	1018167296	22	5494
2026-01-18 09:02:01.50	357.04	14.78	-31.1	-34.8	12.1	3.11e-04	0	43	0	1020264448	22	5491
2026-01-18 09:02:02.51	356.92	14.69	-31.1	-34.7	12.2	2.32e-04	0	43	0	1022361600	22	5446
2026-01-18 09:02:03.50	356.80	14.60	-31.1	-34.7	12.2	2.27e-04	0	43	0	1024458752	22	5456
2026-01-18 09:02:04.51	356.68	14.52	-31.0	-34.6	12.2	2.58e-04	0	43	0	1025507328	22	5427
2026-01-18 09:02:05.51	356.57	14.43	-31.0	-34.6	12.2	1.86e-04	0	43	0	1027604480	22	5436
2026-01-18 09:02:06.52	356.45	14.34	-31.0	-34.6	12.2	1.87e-04	0	43	0	1029701632	22	5426
2026-01-18 09:02:07.52	356.34	14.26	-31.0	-34.6	12.2	2.03e-04	0	43	0	1031798784	22	5444
2026-01-18 09:02:08.53	356.22	14.17	-31.1	-34.9	12.0	3.13e-04	0	43	0	1032847360	22	5539
2026-01-18 09:02:09.53	356.11	14.09	-31.2	-35.0	11.9	4.39e-04	0	43	0	1034944512	22	5610
2026-01-18 09:02:10.53	355.99	14.00	-31.2	-35.0	11.9	3.58e-04	0	43	0	1037041664	22	5598
2026-01-18 09:02:11.54	355.88	13.92	-31.3	-35.3	11.7	6.26e-04	0	43	0	1039138816	22	5735
2026-01-18 09:02:12.54	355.77	13.83	-31.2	-35.2	11.8	5.51e-04	0	43	0	1041235968	22	5673
2026-01-18 09:02:13.54	355.66	13.75	-31.3	-35.4	11.6	7.56e-04	0	42	0	1043333120	22	5771
2026-01-18 09:02:14.54	355.55	13.66	-31.3	-35.4	11.6	6.35e-04	0	43	0	1044381696	22	5794
2026-01-18 09:02:15.55	355.44	13.58	-31.4	-35.8	11.3	8.53e-04	0	43	0	1046478848	22	5959
2026-01-18 09:02:16.55	355.33	13.49	-31.4	-35.3	11.3	1.50e-03	0	43	0	1048576000	23	5635
2026-01-18 09:02:17.55	355.22	13.41	-31.3	-35.0	11.5	8.92e-04	0	42	0	1050673152	23	5493
2026-01-18 09:02:18.56	355.11	13.33	-31.2	-34.8	11.6	8.06e-04	0	43	0	1051721728	23	5426
2026-01-18 09:02:19.56	355.00	13.24	-31.2	-34.8	11.6	7.29e-04	0	43	0	1053818880	23	5422
2026-01-18 09:02:20.56	354.89	13.16	-31.3	-34.9	11.5	7.15e-04	0	43	0	1055916032	23	5484
2026-01-18 09:02:21.56	354.79	13.08	-31.4	-35.2	11.3	9.79e-04	0	43	0	1058013184	23	5624
2026-01-18 09:02:22.57	354.68	12.99	-31.4	-35.2	11.3	1.56e-03	0	43	0	1060110336	23	5587
2026-01-18 09:02:23.57	354.58	12.91	-31.2	-34.7	11.7	7.06e-04	0	43	0	1061158912	23	5368
2026-01-18 09:02:24.57	354.47	12.83	-31.1	-34.4	11.9	4.89e-04	0	43	0	1063256064	23	5255
2026-01-18 09:02:25.57	354.37	12.74	-31.0	-34.1	12.0	4.00e-04	0	43	0	1065353216	23	5163
2026-01-18 09:02:26.57	354.27	12.66	-31.0	-34.1	12.1	3.12e-04	0	43	0	1067450368	23	5142
2026-01-18 09:02:27.58	354.16	12.58	-31.0	-34.2	12.0	3.41e-04	0	43	0	1069547520	23	5171
2026-01-18 09:02:28.58	354.06	12.50	-31.0	-34.2	12.0	2.58e-04	0	43	0	1070596096	23	5185
2026-01-18 09:02:29.58	353.96	12.42	-31.1	-34.4	11.8	3.48e-04	0	43	0	1072693248	23	5258
2026-01-18 09:02:30.58	353.86	12.33	-31.0	-34.1	12.0	2.93e-04	0	43	0	1074790400	23	5147
2026-01-18 09:02:31.59	353.76	12.25	-31.1	-34.4	11.8	4.13e-04	0	43	0	1076887552	23	5245
2026-01-18 09:02:32.59	353.66	12.17	-31.1	-34.6	11.7	7.29e-04	0	43	0	1077936128	23	5333
2026-01-18 09:02:33.60	353.56	12.09	-31.0	-34.2	11.9	3.69e-04	0	43	0	1080033280	23	5193
2026-01-18 09:02:34.60	353.46	12.01	-31.0	-34.3	11.9	3.55e-04	0	43	0	1082130432	23	5208
2026-01-18 09:02:35.61	353.36	11.93	-31.1	-34.3	11.9	4.87e-04	0	43	0	1084227584	23	5231
2026-01-18 09:02:36.62	353.26	11.85	-31.1	-34.3	11.9	5.68e-04	0	42	0	1086324736	23	5241
2026-01-18 09:02:37.62	353.17	11.77	-31.1	-34.4	11.8	5.39e-04	0	43	0	1088421888	23	5291
2026-01-18 09:02:38.62	353.07	11.69	-31.1	-34.5	11.7	6.18e-04	0	43	0	1089470464	23	5331
2026-01-18 09:02:39.62	352.97	11.61	-31.1	-34.5	11.7	6.35e-04	0	43	0	1091567616	23	5322
2026-01-18 09:02:40.62	352.88	11.53	-31.3	-35.0	11.3	9.07e-04	0	43	0	1093664768	23	5522
2026-01-18 09:02:41.62	352.79	11.45	-31.3	-35.0	11.3	1.46e-03	0	43	0	1095761920	23	5547
2026-01-18 09:02:42.62	352.69	11.37	-31.4	-35.3	11.1	1.13e-03	0	43	0	1096810496	23	5647
2026-01-18 09:02:43.62	352.60	11.29	-31.4	-35.4	11.0	2.08e-03	0	43	0	1098907648	23	5708
2026-01-18 09:02:44.62	352.50	11.21	-31.3	-35.2	11.2	1.37e-03	0	43	0	1101004800	23	5605
2026-01-18 09:02:45.62	352.41	11.13	-31.3	-35.2	11.2	1.17e-03	0	43	0	1103101952	23	5628
2026-01-18 09:02:46.62	352.32	11.05	-31.3	-35.1	11.2	1.49e-03	0	43	0	1105199104	23	5593
2026-01-18 09:02:47.62	352.23	10.98	-31.4	-35.4	11.0	1.86e-03	0	43	0	1106247680	23	5736
2026-01-18 09:02:48.62	352.14	10.90	-31.4	-35.6	10.8	2.48e-03	0	43	0	1108344832	23	5798
2026-01-18 09:02:49.63	352.05	10.82	-31.5	-35.7	10.7	2.33e-03	0	43	0	1110441984	23	5854
2026-01-18 09:02:50.63	351.96	10.74	-31.5	-35.7	10.8	2.89e-03	0	43	0	1112539136	23	5840
2026-01-18 09:02:51.64	351.87	10.66	-31.5	-35.7	10.8	2.88e-03	0	43	0	1114636288	23	5864
2026-01-18 09:02:52.64	351.78	10.58	-31.5	-35.7	10.7	3.75e-03	0	43	0	1115684864	23	5874
2026-01-18 09:02:53.64	351.69	10.51	-31.4	-35.5	10.9	2.32e-03	0	43	0	1117782016	23	5751
2026-01-18 09:02:54.64	351.60	10.43	-31.4	-35.4	10.9	2.14e-03	0	43	0	1119879168	23	5745
2026-01-18 09:02:55.65	351.51	10.35	-31.4	-35.5	10.9	2.19e-03	0	43	0	1121976320	23	5755
2026-01-18 09:02:56.65	351.43	10.28	-31.3	-35.3	11.0	2.31e-03	0	43	0	1124073472	23	5690
2026-01-18 09:02:57.66	351.34	10.20	-31.3	-35.3	11.0	1.86e-03	0	43	0	1125122048	23	5698
2026-01-18 09:02:58.66	351.25	10.12	-31.4	-35.4	10.9	2.48e-03	0	43	0	1127219200	23	5734
2026-01-18 09:02:59.66	351.17	10.05	-31.3	-35.4	10.9	2.18e-03	0	43	0	1129316352	23	5729
2026-01-18 09:03:00.66	351.08	9.97	-31.5	-35.8	10.6	3.11e-03	0	43	0	1131413504	23	5919
2026-01-18 09:03:01.67	351.00	9.89	-31.5	-35.8	10.6	3.15e-03	0	43	0	1133510656	23	5905
2026-01-18 09:03:02.67	350.91	9.82	-31.4	-35.5	10.8	2.59e-03	0	43	0	1134559232	23	5774
2026-01-18 09:03:03.67	350.83	9.74	-31.5	-36.0	10.4	4.57e-03	0	43	0	1136656384	23	6040
2026-01-18 09:03:04.67	350.74	9.67	-31.5	-35.9	10.5	4.76e-03	0	42	0	1138753536	23	5987
2026-01-18 09:03:05.67	350.66	9.59	-31.5	-35.9	10.5	3.69e-03	0	42	0	1140850688	23	5973
2026-01-18 09:03:06.67	350.58	9.52	-31.5	-35.9	10.5	3.21e-03	0	43	0	1141899264	23	5988
2026-01-18 09:03:07.67	350.50	9.44	-31.6	-36.2	10.2	5.21e-03	0	43	0	1143996416	23	6151
2026-01-18 09:03:08.67	350.42	9.37	-31.5	-35.9	10.5	4.87e-03	0	43	0	1146093568	23	5972
2026-01-18 09:03:09.68	350.33	9.29	-31.5	-36.1	10.3	4.47e-03	0	43	0	1148190720	23	6062
2026-01-18 09:03:10.68	350.25	9.22	-31.5	-36.0	10.4	5.13e-03	0	43	0	1150287872	23	6025
2026-01-18 09:03:11.68	350.17	9.14	-31.6	-36.3	10.1	6.29e-03	0	43	0	1151336448	23	6189
2026-01-18 09:03:12.68	350.09	9.07	-31.6	-36.2	10.2	6.37e-03	0	43	0	1153433600	23	6150
2026-01-18 09:03:13.68	350.01	8.99	-31.6	-36.4	10.1	6.81e-03	0	43	0	1155530752	23	6223
2026-01-18 09:03:14.68	349.94	8.92	-31.6	-36.3	10.2	7.28e-03	0	43	0	1157627904	23	6173
2026-01-18 09:03:15.69	349.86	8.85	-31.6	-36.3	10.1	7.48e-03	0	43	0	1159725056	23	6172
2026-01-18 09:03:16.69	349.78	8.77	-31.6	-36.3	10.1	6.36e-03	0	43	0	1160773632	23	6185
2026-01-18 09:03:17.69	349.70	8.70	-31.7	-36.6	9.9	8.68e-03	0	43	0	1162870784	23	6330
2026-01-18 09:03:18.69	349.62	8.63	-31.7	-36.7	9.8	1.06e-02	0	43	0	1164967936	23	6404
2026-01-18 09:03:19.69	349.55	8.55	-31.7	-36.7	9.8	9.43e-03	0	43	0	1167065088	23	6407
2026-01-18 09:03:20.69	349.47	8.48	-31.7	-36.8	9.6	1.19e-02	0	43	0	1169162240	23	6455
2026-01-18 09:03:21.70	349.39	8.41	-31.7	-36.8	9.7	1.19e-02	0	43	0	1170210816	23	6477
2026-01-18 09:03:22.70	349.32	8.34	-31.8	-37.3	9.2	1.53e-02	0	43	0	1172307968	23	6763
2026-01-18 09:03:23.71	349.24	8.26	-31.8	-37.1	9.4	1.84e-02	0	43	0	1174405120	23	6629
2026-01-18 09:03:24.71	349.17	8.19	-31.8	-37.1	9.3	1.61e-02	0	43	0	1176502272	23	6673
2026-01-18 09:03:25.72	349.09	8.12	-31.7	-37.0	9.4	1.43e-02	0	43	0	1178599424	23	6594
2026-01-18 09:03:26.72	349.02	8.05	-31.9	-37.6	9.0	2.12e-02	0	43	0	1179648000	23	6948
2026-01-18 09:03:27.72	348.94	7.97	-31.9	-37.9	8.7	3.02e-02	0	43	0	1181745152	23	7114
2026-01-18 09:03:28.73	348.87	7.90	-32.0	-37.4	8.7	3.89e-02	0	43	0	1183842304	24	6758
2026-01-18 09:03:29.72	348.80	7.83	-31.9	-37.1	8.9	3.09e-02	0	43	0	1185939456	24	6594
2026-01-18 09:03:30.73	348.72	7.76	-31.9	-37.1	9.0	2.52e-02	0	43	0	1186988032	24	6558
2026-01-18 09:03:31.74	348.65	7.69	-31.8	-36.9	9.0	2.66e-02	0	43	0	1189085184	24	6455
2026-01-18 09:03:32.74	348.58	7.62	-32.0	-37.5	8.6	2.98e-02	0	43	0	1191182336	24	6796
2026-01-18 09:03:33.75	348.51	7.55	-31.9	-37.3	8.7	3.19e-02	0	43	0	1193279488	24	6726
2026-01-18 09:03:34.75	348.44	7.47	-32.0	-37.7	8.4	4.09e-02	0	43	0	1195376640	24	6926
2026-01-18 09:03:35.76	348.36	7.40	-31.9	-37.3	8.7	4.30e-02	0	43	0	1197473792	24	6697
2026-01-18 09:03:36.76	348.29	7.33	-31.8	-37.0	8.9	2.90e-02	0	43	0	1198522368	24	6525
2026-01-18 09:03:37.76	348.22	7.26	-31.8	-36.8	9.1	2.31e-02	0	43	0	1200619520	24	6413
2026-01-18 09:03:38.76	348.15	7.19	-31.8	-36.8	9.1	2.20e-02	0	43	0	1202716672	24	6401
2026-01-18 09:03:39.77	348.08	7.12	-31.8	-36.7	9.2	2.18e-02	0	43	0	1204813824	24	6369
2026-01-18 09:03:40.77	348.02	7.05	-33.4	-46.8	3.8	5.71e-02	0	43	104	1205862400	26	16776

#Closed at: 2026-01-18 09:03:41
#Recorded file [1205 MB]: D:/data/31010_260118_115257.dat