passes_logs/2026/01/18/R2M6_AANII_01/R2M6_AANII_01__20260118_222022_SUOMI_NPP_rec.log

#Pass ID: 20260118_222022_SUOMI NPP
#Satellite: SUOMI NPP
#Configuration: NPP
#almurnet v.1.7.20240730
#Start time: 2026-01-18 22:20:22

#Version: 2.2.20231116
#Station: R2M6_AANII_01
#Location: 30.233357 lon 59.946436 lat
#TLE: 1 37849U 11061A   26017.92342359  .00000077  00000+0  57567-4 0  9990
#TLE: 2 37849  98.7814 319.9468 0002389  58.5705 301.5704 14.19525998737125

#Time	Az	El	Level	Level2	SNR	BER	BlckErr	Temp	State	Recorded	gain1	gain2
2026-01-18 22:20:22.80	36.34	7.03	-32.0	-36.8	5.0	1.20e+00	0	41	0	0	24	6231
2026-01-18 22:20:23.80	36.46	7.09	-32.9	-42.3	3.9	1.47e+00	0	41	104	0	25	10655
2026-01-18 22:20:24.81	36.58	7.14	-32.8	-41.2	4.2	1.24e+00	0	41	104	0	25	9436
2026-01-18 22:20:25.81	36.70	7.19	-32.9	-41.8	4.0	1.45e+00	0	42	104	0	25	10079
2026-01-18 22:20:26.82	36.82	7.24	-32.8	-41.4	4.0	1.17e+00	0	42	104	0	25	9642
2026-01-18 22:20:27.82	36.94	7.29	-32.7	-40.2	5.0	1.42e+00	0	42	104	0	25	8489
2026-01-18 22:20:28.83	37.07	7.34	-32.7	-39.5	5.5	6.25e-01	0	42	0	0	25	7881
2026-01-18 22:20:29.83	37.19	7.40	-32.6	-38.7	6.0	3.86e-01	0	42	0	2097152	25	7267
2026-01-18 22:20:30.83	37.31	7.45	-32.4	-37.5	6.8	2.26e-01	0	42	0	4194304	25	6524
2026-01-18 22:20:31.84	37.44	7.50	-32.2	-36.5	7.5	1.55e-01	0	42	0	5242880	25	5958
2026-01-18 22:20:32.84	37.56	7.55	-32.1	-36.2	7.8	9.77e-02	0	42	0	7340032	25	5796
2026-01-18 22:20:33.84	37.69	7.60	-31.8	-35.4	8.8	4.38e-02	0	42	0	9437184	24	5463
2026-01-18 22:20:34.84	37.81	7.65	-31.6	-34.7	9.3	2.20e-02	0	42	0	11534336	24	5157
2026-01-18 22:20:35.85	37.94	7.70	-31.5	-34.4	9.6	2.35e-02	0	42	0	12582912	24	5009
2026-01-18 22:20:36.85	38.07	7.76	-31.3	-33.9	10.3	6.82e-03	0	42	0	14680064	23	4875
2026-01-18 22:20:37.86	38.19	7.81	-31.2	-33.9	10.4	5.94e-03	0	42	0	16777216	23	4872
2026-01-18 22:20:38.86	38.32	7.86	-31.4	-34.3	10.1	4.40e-03	0	42	0	18874368	23	5055
2026-01-18 22:20:39.87	38.45	7.91	-31.3	-33.9	10.4	6.16e-03	0	42	0	20971520	23	4893
2026-01-18 22:20:40.88	38.58	7.96	-31.2	-33.6	10.6	3.58e-03	0	42	0	22020096	23	4744
2026-01-18 22:20:41.88	38.70	8.01	-31.2	-33.5	10.7	2.69e-03	0	42	0	24117248	23	4724
2026-01-18 22:20:42.88	38.83	8.06	-31.1	-33.3	10.8	2.20e-03	0	42	0	26214400	23	4638
2026-01-18 22:20:43.89	38.96	8.12	-31.2	-33.6	10.7	2.15e-03	0	42	0	28311552	23	4750
2026-01-18 22:20:44.89	39.09	8.17	-31.2	-33.8	10.6	3.16e-03	0	42	0	30408704	23	4840
2026-01-18 22:20:45.89	39.22	8.22	-30.9	-32.6	11.3	1.89e-03	0	42	0	31457280	23	4399
2026-01-18 22:20:46.89	39.35	8.27	-31.1	-33.3	10.8	1.30e-03	0	42	0	33554432	23	4642
2026-01-18 22:20:47.90	39.48	8.32	-31.1	-33.4	10.8	3.36e-03	0	42	0	35651584	23	4696
2026-01-18 22:20:48.90	39.62	8.37	-31.1	-33.3	10.9	2.22e-03	0	42	0	37748736	23	4644
2026-01-18 22:20:49.90	39.75	8.42	-30.9	-32.6	11.4	1.18e-03	0	42	0	39845888	23	4383
2026-01-18 22:20:50.90	39.88	8.47	-30.8	-32.8	11.6	4.65e-04	0	42	0	40894464	22	4546
2026-01-18 22:20:51.91	40.01	8.53	-30.8	-32.8	11.6	6.66e-04	0	42	0	42991616	22	4549
2026-01-18 22:20:52.91	40.15	8.58	-30.9	-33.3	11.3	1.43e-03	0	42	0	45088768	22	4715
2026-01-18 22:20:53.92	40.28	8.63	-30.9	-33.1	11.4	7.86e-04	0	42	0	47185920	22	4649
2026-01-18 22:20:54.92	40.41	8.68	-30.7	-32.5	11.8	5.86e-04	0	42	0	49283072	22	4443
2026-01-18 22:20:55.93	40.55	8.73	-30.5	-31.9	12.4	1.48e-04	0	42	0	50331648	22	4210
2026-01-18 22:20:56.93	40.69	8.78	-30.5	-31.8	12.4	1.49e-04	0	42	0	52428800	22	4198
2026-01-18 22:20:57.92	40.82	8.83	-30.6	-32.0	12.2	1.66e-04	0	42	0	54525952	22	4270
2026-01-18 22:20:58.92	40.95	8.88	-30.5	-32.0	12.3	2.49e-04	0	42	0	56623104	22	4238
2026-01-18 22:20:59.92	41.09	8.93	-30.4	-31.5	12.6	1.19e-04	0	42	0	58720256	22	4105
2026-01-18 22:21:00.93	41.23	8.99	-30.3	-31.7	12.8	8.46e-05	0	43	0	59768832	21	4263
2026-01-18 22:21:01.94	41.37	9.04	-30.1	-31.2	13.1	5.49e-05	0	43	0	61865984	21	4106
2026-01-18 22:21:02.94	41.50	9.09	-30.3	-32.0	12.7	5.18e-05	0	43	0	63963136	21	4332
2026-01-18 22:21:03.95	41.64	9.14	-30.0	-31.0	13.2	3.66e-05	0	43	0	66060288	21	4041
2026-01-18 22:21:04.95	41.78	9.19	-30.0	-31.1	13.2	1.29e-05	0	43	0	68157440	21	4071
2026-01-18 22:21:05.95	41.92	9.24	-30.4	-32.1	12.5	8.85e-05	0	43	0	69206016	21	4392
2026-01-18 22:21:06.95	42.06	9.29	-30.3	-31.9	12.6	1.05e-04	0	43	0	71303168	21	4325
2026-01-18 22:21:07.96	42.20	9.34	-30.4	-32.1	12.5	8.23e-05	0	43	0	73400320	21	4383
2026-01-18 22:21:08.96	42.34	9.39	-30.4	-32.1	12.5	2.03e-04	0	42	0	75497472	21	4392
2026-01-18 22:21:09.96	42.48	9.44	-30.5	-32.4	12.3	1.27e-04	0	43	0	77594624	21	4486
2026-01-18 22:21:10.96	42.62	9.49	-30.8	-33.3	11.7	4.43e-04	0	43	0	78643200	21	4812
2026-01-18 22:21:11.97	42.77	9.54	-30.8	-33.2	11.8	6.70e-04	0	43	0	80740352	21	4754
2026-01-18 22:21:12.97	42.91	9.59	-30.8	-33.2	11.8	4.91e-04	0	43	0	82837504	21	4771
2026-01-18 22:21:13.98	43.05	9.64	-30.8	-33.3	11.7	5.66e-04	0	43	0	84934656	21	4799
2026-01-18 22:21:14.98	43.20	9.69	-30.9	-33.6	11.4	5.69e-04	0	43	0	85983232	21	4927
2026-01-18 22:21:15.98	43.34	9.74	-30.7	-33.0	11.9	4.46e-04	0	43	0	88080384	21	4683
2026-01-18 22:21:16.98	43.48	9.79	-30.8	-33.4	11.7	4.42e-04	0	43	0	90177536	21	4815
2026-01-18 22:21:17.99	43.63	9.84	-30.8	-33.1	11.8	4.72e-04	0	43	0	92274688	21	4715
2026-01-18 22:21:18.99	43.77	9.89	-30.5	-32.2	12.5	2.20e-04	0	43	0	94371840	21	4395
2026-01-18 22:21:19.99	43.92	9.94	-30.5	-32.4	12.4	1.46e-04	0	43	0	95420416	21	4469
2026-01-18 22:21:21.00	44.07	9.99	-30.5	-32.4	12.4	1.36e-04	0	43	0	97517568	21	4460
2026-01-18 22:21:22.00	44.21	10.04	-30.8	-33.3	11.8	1.97e-04	0	43	0	99614720	21	4796
2026-01-18 22:21:23.01	44.36	10.09	-30.7	-32.9	12.1	2.95e-04	0	43	0	101711872	21	4632
2026-01-18 22:21:24.01	44.51	10.14	-30.9	-33.3	11.8	3.98e-04	0	43	0	103809024	21	4799
2026-01-18 22:21:25.01	44.66	10.19	-30.8	-33.3	11.8	6.35e-04	0	43	0	104857600	21	4795
2026-01-18 22:21:26.01	44.81	10.24	-31.1	-33.5	11.4	5.08e-04	0	43	0	106954752	22	4748
2026-01-18 22:21:27.01	44.96	10.29	-30.9	-32.9	11.8	6.10e-04	0	43	0	109051904	22	4532
2026-01-18 22:21:28.02	45.11	10.34	-30.9	-33.0	11.7	5.55e-04	0	43	0	111149056	22	4582
2026-01-18 22:21:29.02	45.26	10.39	-30.9	-33.0	11.7	7.21e-04	0	43	0	113246208	22	4569
2026-01-18 22:21:30.03	45.41	10.44	-30.8	-32.6	12.0	3.31e-04	0	43	0	114294784	22	4429
2026-01-18 22:21:31.03	45.56	10.49	-31.0	-33.4	11.5	6.83e-04	0	43	0	116391936	22	4713
2026-01-18 22:21:32.02	45.71	10.54	-31.0	-33.1	11.7	7.97e-04	0	43	0	118489088	22	4597
2026-01-18 22:21:33.02	45.86	10.59	-30.8	-32.5	12.1	5.14e-04	0	43	0	120586240	22	4393
2026-01-18 22:21:34.03	46.01	10.64	-30.6	-32.1	12.4	1.50e-04	0	43	0	122683392	22	4253
2026-01-18 22:21:35.03	46.17	10.69	-30.5	-31.8	12.6	1.20e-04	0	43	0	123731968	22	4188
2026-01-18 22:21:36.03	46.32	10.74	-30.5	-31.6	12.8	9.07e-05	0	43	0	125829120	22	4121
2026-01-18 22:21:37.03	46.47	10.78	-30.6	-32.1	12.4	1.15e-04	0	43	0	127926272	22	4255
2026-01-18 22:21:38.03	46.63	10.83	-30.7	-32.3	12.3	1.50e-04	0	43	0	130023424	22	4331
2026-01-18 22:21:39.03	46.78	10.88	-30.4	-31.4	12.8	7.47e-05	0	43	0	131072000	22	4039
2026-01-18 22:21:40.03	46.94	10.93	-30.5	-31.6	12.8	5.56e-05	0	43	0	133169152	22	4100
2026-01-18 22:21:41.03	47.09	10.98	-30.4	-31.4	12.9	6.25e-05	0	43	0	135266304	22	4053
2026-01-18 22:21:42.04	47.25	11.03	-30.4	-31.4	12.9	5.03e-05	0	43	0	137363456	22	4048
2026-01-18 22:21:43.04	47.41	11.07	-30.5	-31.8	12.6	6.48e-05	0	43	0	139460608	22	4177
2026-01-18 22:21:44.04	47.57	11.12	-30.4	-31.6	12.8	9.91e-05	0	43	0	140509184	22	4087
2026-01-18 22:21:45.05	47.73	11.17	-30.5	-31.8	12.6	7.85e-05	0	43	0	142606336	22	4169
2026-01-18 22:21:46.05	47.88	11.22	-30.6	-32.1	12.4	1.09e-04	0	43	0	144703488	22	4265
2026-01-18 22:21:47.06	48.04	11.27	-30.9	-32.9	11.9	4.00e-04	0	43	0	146800640	22	4521
2026-01-18 22:21:48.06	48.20	11.31	-30.7	-32.4	12.3	1.64e-04	0	43	0	148897792	22	4358
2026-01-18 22:21:49.07	48.37	11.36	-30.8	-32.5	12.1	2.04e-04	0	43	0	149946368	22	4408
2026-01-18 22:21:50.07	48.53	11.41	-30.7	-32.9	12.1	2.75e-04	0	43	0	152043520	21	4622
2026-01-18 22:21:51.08	48.69	11.46	-30.8	-33.1	12.0	2.77e-04	0	43	0	154140672	21	4688
2026-01-18 22:21:52.08	48.85	11.50	-30.8	-33.0	12.2	2.45e-04	0	43	0	156237824	21	4656
2026-01-18 22:21:53.08	49.01	11.55	-30.6	-32.6	12.5	1.44e-04	0	43	0	158334976	21	4502
2026-01-18 22:21:54.08	49.17	11.60	-30.6	-32.6	12.4	1.72e-04	0	43	0	159383552	21	4521
2026-01-18 22:21:55.09	49.34	11.65	-30.5	-32.3	12.6	1.57e-04	0	43	0	161480704	21	4425
2026-01-18 22:21:56.09	49.50	11.69	-30.6	-32.6	12.5	1.07e-04	0	43	0	163577856	21	4500
2026-01-18 22:21:57.10	49.67	11.74	-30.7	-32.8	12.3	1.13e-04	0	43	0	165675008	21	4584
2026-01-18 22:21:58.10	49.83	11.79	-30.8	-33.0	12.2	1.89e-04	0	43	0	167772160	21	4644
2026-01-18 22:21:59.10	50.00	11.83	-30.9	-33.3	12.0	2.69e-04	0	43	0	168820736	21	4753
2026-01-18 22:22:00.10	50.16	11.88	-30.7	-32.8	12.3	2.39e-04	0	43	0	170917888	21	4593
2026-01-18 22:22:01.09	50.33	11.93	-30.9	-33.3	12.0	2.60e-04	0	43	0	173015040	21	4744
2026-01-18 22:22:02.10	50.49	11.97	-30.8	-33.0	12.2	2.12e-04	0	44	0	175112192	21	4632
2026-01-18 22:22:03.10	50.66	12.02	-30.9	-33.5	11.9	2.06e-04	0	43	0	176160768	21	4814
2026-01-18 22:22:04.10	50.83	12.06	-30.9	-33.2	12.0	2.75e-04	0	43	0	178257920	21	4727
2026-01-18 22:22:05.10	51.00	12.11	-30.7	-32.7	12.4	1.40e-04	0	43	0	180355072	21	4544
2026-01-18 22:22:06.11	51.17	12.15	-30.7	-32.8	12.4	1.73e-04	0	43	0	182452224	21	4575
2026-01-18 22:22:07.11	51.34	12.20	-30.8	-32.9	12.2	2.46e-04	0	44	0	184549376	21	4624
2026-01-18 22:22:08.12	51.51	12.25	-30.8	-33.1	12.1	3.33e-04	0	44	0	186646528	21	4687
2026-01-18 22:22:09.12	51.68	12.29	-30.8	-33.0	12.2	1.70e-04	0	43	0	187695104	21	4649
2026-01-18 22:22:10.12	51.85	12.34	-30.9	-33.4	11.9	3.69e-04	0	43	0	189792256	21	4805
2026-01-18 22:22:11.12	52.02	12.38	-30.8	-33.1	12.1	3.74e-04	0	44	0	191889408	21	4680
2026-01-18 22:22:12.13	52.19	12.43	-30.8	-32.9	12.3	1.75e-04	0	43	0	193986560	21	4608
2026-01-18 22:22:13.13	52.36	12.47	-30.9	-33.4	11.9	3.86e-04	0	44	0	195035136	21	4778
2026-01-18 22:22:14.13	52.54	12.51	-31.0	-33.5	11.8	3.64e-04	0	43	0	197132288	21	4843
2026-01-18 22:22:15.14	52.71	12.56	-31.2	-33.7	11.5	7.90e-04	0	43	0	199229440	22	4801
2026-01-18 22:22:16.13	52.88	12.60	-31.2	-33.9	11.2	1.30e-03	0	43	0	201326592	22	4870
2026-01-18 22:22:17.14	53.06	12.65	-31.2	-33.7	11.3	1.06e-03	0	43	0	203423744	22	4818
2026-01-18 22:22:18.14	53.23	12.69	-31.3	-33.9	11.3	9.71e-04	0	43	0	204472320	22	4876
2026-01-18 22:22:19.14	53.41	12.73	-31.2	-33.9	11.3	1.23e-03	0	43	0	206569472	22	4871
2026-01-18 22:22:20.13	53.58	12.78	-31.2	-33.7	11.4	1.01e-03	0	43	0	208666624	22	4812
2026-01-18 22:22:21.14	53.76	12.82	-31.2	-33.6	11.5	9.23e-04	0	43	0	210763776	22	4760
2026-01-18 22:22:22.15	53.94	12.86	-31.1	-33.5	11.6	1.03e-03	0	44	0	212860928	22	4733
2026-01-18 22:22:23.15	54.12	12.91	-31.2	-33.7	11.5	9.53e-04	0	43	0	213909504	22	4791
2026-01-18 22:22:24.16	54.30	12.95	-31.3	-34.0	11.3	1.05e-03	0	43	0	216006656	22	4902
2026-01-18 22:22:25.16	54.47	12.99	-31.4	-34.2	11.1	1.76e-03	0	43	0	218103808	22	4993
2026-01-18 22:22:26.16	54.65	13.04	-31.3	-34.0	11.3	1.36e-03	0	43	0	220200960	22	4910
2026-01-18 22:22:27.16	54.83	13.08	-31.3	-34.1	11.2	1.46e-03	0	43	0	222298112	22	4965
2026-01-18 22:22:28.15	55.01	13.12	-31.4	-34.5	10.9	2.13e-03	0	44	0	223346688	22	5101
2026-01-18 22:22:29.15	55.19	13.16	-31.4	-34.4	10.9	2.32e-03	0	44	0	225443840	22	5082
2026-01-18 22:22:30.15	55.37	13.20	-31.5	-34.1	10.7	2.82e-03	0	43	0	227540992	23	4888
2026-01-18 22:22:31.15	55.55	13.24	-31.5	-34.2	10.7	2.99e-03	0	44	0	229638144	23	4918
2026-01-18 22:22:32.16	55.73	13.29	-31.4	-34.0	10.9	3.04e-03	0	44	0	231735296	23	4821
2026-01-18 22:22:33.15	55.91	13.33	-31.5	-34.3	10.7	2.97e-03	0	44	0	232783872	23	4929
2026-01-18 22:22:34.15	56.10	13.37	-31.3	-33.7	11.1	2.76e-03	0	44	0	234881024	23	4704
2026-01-18 22:22:35.15	56.28	13.41	-31.5	-34.2	10.8	3.17e-03	0	44	0	236978176	23	4919
2026-01-18 22:22:36.16	56.47	13.45	-31.5	-34.1	10.8	3.32e-03	0	44	0	239075328	23	4883
2026-01-18 22:22:37.16	56.65	13.49	-31.6	-34.6	10.5	3.87e-03	0	44	0	240123904	23	5047
2026-01-18 22:22:38.16	56.83	13.53	-31.6	-34.6	10.5	4.15e-03	0	43	0	242221056	23	5059
2026-01-18 22:22:39.16	57.02	13.57	-31.5	-34.3	10.7	3.19e-03	0	43	0	244318208	23	4929
2026-01-18 22:22:40.16	57.20	13.61	-31.6	-34.3	10.7	3.10e-03	0	44	0	246415360	23	4932
2026-01-18 22:22:41.16	57.39	13.65	-31.5	-34.1	10.9	2.63e-03	0	44	0	248512512	23	4837
2026-01-18 22:22:42.16	57.58	13.69	-31.3	-33.5	11.3	1.49e-03	0	44	0	249561088	23	4628
2026-01-18 22:22:43.16	57.76	13.73	-31.4	-34.1	11.3	1.48e-03	0	44	0	251658240	22	4934
2026-01-18 22:22:44.17	57.95	13.77	-31.3	-33.8	11.4	1.31e-03	0	44	0	253755392	22	4836
2026-01-18 22:22:45.16	58.14	13.80	-31.3	-34.1	11.2	1.18e-03	0	43	0	255852544	22	4947
2026-01-18 22:22:46.16	58.33	13.84	-31.5	-34.2	10.8	2.26e-03	0	44	0	257949696	23	4894
2026-01-18 22:22:47.16	58.52	13.88	-31.5	-34.0	10.9	2.61e-03	0	44	0	258998272	23	4834
2026-01-18 22:22:48.16	58.71	13.92	-31.5	-33.9	11.0	1.99e-03	0	44	0	261095424	23	4778
2026-01-18 22:22:49.17	58.90	13.96	-31.6	-34.3	10.7	2.25e-03	0	44	0	263192576	23	4945
2026-01-18 22:22:50.17	59.09	13.99	-31.5	-33.9	11.0	2.49e-03	0	44	0	265289728	23	4794
2026-01-18 22:22:51.18	59.28	14.03	-31.4	-33.8	11.1	2.19e-03	0	44	0	266338304	23	4739
2026-01-18 22:22:52.18	59.47	14.07	-31.4	-33.7	11.1	1.45e-03	0	43	0	268435456	23	4689
2026-01-18 22:22:53.19	59.67	14.11	-31.3	-33.4	11.3	1.22e-03	0	44	0	270532608	23	4591
2026-01-18 22:22:54.19	59.86	14.14	-31.4	-33.8	11.1	1.04e-03	0	44	0	272629760	23	4752
2026-01-18 22:22:55.20	60.05	14.18	-31.5	-34.0	11.0	1.74e-03	0	44	0	274726912	23	4813
2026-01-18 22:22:56.19	60.24	14.22	-31.3	-33.3	11.5	1.23e-03	0	44	0	275775488	23	4559
2026-01-18 22:22:57.19	60.44	14.25	-31.2	-33.0	11.6	9.54e-04	0	44	0	277872640	23	4454
2026-01-18 22:22:58.19	60.63	14.29	-31.3	-33.3	11.5	1.13e-03	0	44	0	279969792	23	4565
2026-01-18 22:22:59.19	60.83	14.32	-31.1	-33.2	11.8	4.74e-04	0	44	0	282066944	22	4622
2026-01-18 22:23:00.19	61.02	14.36	-30.9	-32.6	12.3	2.48e-04	0	44	0	284164096	22	4386
2026-01-18 22:23:01.20	61.22	14.39	-30.8	-32.4	12.4	5.02e-04	0	44	0	285212672	22	4333
2026-01-18 22:23:02.20	61.41	14.43	-30.6	-32.4	12.7	4.13e-04	0	44	0	287309824	21	4424
2026-01-18 22:23:03.20	61.61	14.46	-30.5	-32.0	13.0	4.04e-05	0	44	0	289406976	21	4303
2026-01-18 22:23:04.20	61.81	14.50	-30.4	-31.8	13.2	7.40e-05	0	44	0	291504128	21	4246
2026-01-18 22:23:05.20	62.00	14.53	-30.4	-31.9	13.1	7.24e-05	0	44	0	293601280	21	4251
2026-01-18 22:23:06.20	62.20	14.56	-30.5	-32.0	13.0	2.97e-05	0	44	0	294649856	21	4305
2026-01-18 22:23:07.21	62.40	14.60	-30.7	-32.5	12.7	6.79e-05	0	44	0	296747008	21	4451
2026-01-18 22:23:08.21	62.60	14.63	-30.4	-31.7	13.2	2.22e-04	0	44	0	298844160	21	4208
2026-01-18 22:23:09.21	62.80	14.66	-30.3	-31.7	13.3	1.98e-05	0	44	0	300941312	21	4183
2026-01-18 22:23:10.22	63.00	14.69	-30.3	-31.6	13.3	1.60e-05	0	44	0	303038464	21	4177
2026-01-18 22:23:11.22	63.20	14.73	-30.4	-32.3	13.1	1.54e-03	0	44	0	304087040	20	4496
2026-01-18 22:23:12.22	63.40	14.76	-30.5	-32.5	13.1	2.59e-05	0	44	0	306184192	20	4546
2026-01-18 22:23:13.22	63.60	14.79	-30.6	-32.4	12.8	3.66e-05	0	44	0	308281344	21	4409
2026-01-18 22:23:14.23	63.80	14.82	-30.7	-32.6	12.7	7.93e-05	0	44	0	310378496	21	4488
2026-01-18 22:23:15.23	64.01	14.85	-30.6	-32.4	12.8	6.86e-05	0	44	0	311427072	21	4430
2026-01-18 22:23:16.23	64.21	14.88	-30.6	-32.3	12.8	5.11e-05	0	44	0	313524224	21	4390
2026-01-18 22:23:17.24	64.41	14.91	-30.7	-32.6	12.6	8.39e-05	0	44	0	315621376	21	4491
2026-01-18 22:23:18.23	64.61	14.94	-30.6	-32.3	12.9	7.09e-05	0	44	0	317718528	21	4369
2026-01-18 22:23:19.23	64.82	14.97	-30.6	-32.3	12.9	8.67e-04	0	44	0	319815680	21	4379
2026-01-18 22:23:20.24	65.02	15.00	-30.8	-32.8	12.5	9.00e-05	0	44	0	320864256	21	4546
2026-01-18 22:23:21.25	65.23	15.03	-30.8	-32.8	12.5	7.24e-05	0	44	0	322961408	21	4558
2026-01-18 22:23:22.25	65.43	15.06	-31.1	-33.3	11.9	1.26e-03	0	44	0	325058560	22	4629
2026-01-18 22:23:23.25	65.64	15.09	-30.9	-32.7	12.3	2.43e-04	0	44	0	327155712	22	4421
2026-01-18 22:23:24.25	65.84	15.12	-31.0	-32.9	12.1	2.11e-04	0	44	0	329252864	22	4490
2026-01-18 22:23:25.26	66.05	15.15	-30.7	-32.7	12.6	1.58e-04	0	44	0	330301440	21	4509
2026-01-18 22:23:26.26	66.25	15.17	-30.6	-32.3	12.9	6.40e-05	0	44	0	332398592	21	4384
2026-01-18 22:23:27.26	66.46	15.20	-30.4	-31.8	13.2	3.28e-05	0	44	0	334495744	21	4237
2026-01-18 22:23:28.26	66.67	15.23	-30.3	-32.0	13.4	6.10e-06	0	44	0	336592896	20	4389
2026-01-18 22:23:29.27	66.88	15.26	-30.4	-32.4	13.1	6.72e-04	0	44	0	338690048	20	4508
2026-01-18 22:23:30.27	67.08	15.28	-30.5	-32.2	12.9	2.44e-05	0	44	0	339738624	21	4359
2026-01-18 22:23:31.28	67.29	15.31	-30.8	-32.8	12.5	7.70e-05	0	44	0	341835776	21	4553
2026-01-18 22:23:32.28	67.50	15.33	-30.8	-32.9	12.5	9.61e-05	0	44	0	343932928	21	4591
2026-01-18 22:23:33.28	67.71	15.36	-30.9	-33.3	12.2	2.16e-04	0	44	0	346030080	21	4721
2026-01-18 22:23:34.28	67.92	15.38	-30.9	-33.1	12.3	2.14e-04	0	44	0	348127232	21	4667
2026-01-18 22:23:35.29	68.13	15.41	-30.8	-32.9	12.5	1.88e-04	0	44	0	349175808	21	4604
2026-01-18 22:23:36.29	68.34	15.43	-30.9	-33.1	12.4	1.45e-04	0	44	0	351272960	21	4637
2026-01-18 22:23:37.30	68.55	15.46	-31.0	-33.0	12.1	2.55e-04	0	44	0	353370112	22	4524
2026-01-18 22:23:38.30	68.76	15.48	-31.0	-33.1	12.0	2.91e-04	0	44	0	355467264	22	4567
2026-01-18 22:23:39.30	68.97	15.51	-31.2	-33.6	11.7	3.29e-04	0	44	0	357564416	22	4738
2026-01-18 22:23:40.30	69.18	15.53	-31.4	-34.2	11.3	1.23e-03	0	44	0	358612992	22	4948
2026-01-18 22:23:41.31	69.39	15.55	-31.4	-34.3	11.2	1.45e-03	0	44	0	360710144	22	4990
2026-01-18 22:23:42.31	69.61	15.57	-31.5	-34.0	11.1	1.39e-03	0	44	0	362807296	23	4788
2026-01-18 22:23:43.32	69.82	15.60	-31.3	-33.3	11.5	8.28e-04	0	44	0	364904448	23	4558
2026-01-18 22:23:44.32	70.03	15.62	-31.1	-32.9	11.9	4.75e-04	0	44	0	367001600	23	4397
2026-01-18 22:23:45.33	70.25	15.64	-31.2	-33.0	11.8	3.91e-04	0	44	0	368050176	23	4430
2026-01-18 22:23:46.32	70.46	15.66	-31.3	-33.3	11.6	5.72e-04	0	44	0	370147328	23	4531
2026-01-18 22:23:47.32	70.67	15.68	-31.4	-34.3	11.2	1.58e-03	0	44	0	372244480	22	4995
2026-01-18 22:23:48.32	70.88	15.70	-31.5	-34.1	11.0	1.46e-03	0	44	0	374341632	23	4886
2026-01-18 22:23:49.32	71.10	15.72	-31.0	-34.2	10.3	3.04e-03	0	44	0	375390208	23	5174
2026-01-18 22:23:50.33	71.31	15.74	-31.9	-35.2	10.1	5.15e-03	0	44	0	377487360	23	5309
2026-01-18 22:23:51.33	71.52	15.76	-31.9	-35.2	10.0	7.51e-03	0	44	0	379584512	23	5299
2026-01-18 22:23:52.34	71.74	15.78	-31.7	-34.7	10.4	4.45e-03	0	44	0	381681664	23	5089
2026-01-18 22:23:53.33	71.95	15.80	-31.5	-34.1	10.9	2.20e-03	0	44	0	383778816	23	4855
2026-01-18 22:23:54.33	72.17	15.82	-31.5	-34.0	11.1	1.69e-03	0	44	0	384827392	23	4782
2026-01-18 22:23:55.33	72.38	15.83	-31.5	-33.9	11.1	1.51e-03	0	44	0	386924544	23	4770
2026-01-18 22:23:56.34	72.60	15.85	-31.5	-34.0	11.1	1.27e-03	0	44	0	389021696	23	4790
2026-01-18 22:23:57.34	72.82	15.87	-31.6	-34.4	10.8	3.01e-03	0	44	0	391118848	23	4936
2026-01-18 22:23:58.33	73.03	15.88	-31.3	-33.4	11.5	1.62e-03	0	44	0	393216000	23	4586
2026-01-18 22:23:59.34	73.25	15.90	-31.1	-32.9	11.8	5.81e-04	0	44	0	394264576	23	4402
2026-01-18 22:24:00.35	73.47	15.92	-30.9	-32.6	12.4	3.49e-04	0	44	0	396361728	22	4385
2026-01-18 22:24:01.35	73.68	15.93	-30.6	-31.9	12.8	8.39e-05	0	44	0	398458880	22	4173
2026-01-18 22:24:02.35	73.90	15.95	-30.5	-31.5	13.1	3.81e-05	0	44	0	400556032	22	4056
2026-01-18 22:24:03.35	74.12	15.96	-30.5	-31.6	13.1	5.03e-05	0	44	0	402653184	22	4069
2026-01-18 22:24:04.35	74.33	15.98	-30.6	-31.8	13.0	2.89e-05	0	44	0	403701760	22	4118
2026-01-18 22:24:05.36	74.55	15.99	-30.8	-32.3	12.6	5.26e-05	0	44	0	405798912	22	4293
2026-01-18 22:24:06.37	74.77	16.00	-31.0	-32.8	12.2	1.91e-04	0	44	0	407896064	22	4466
2026-01-18 22:24:07.37	74.99	16.02	-31.0	-32.9	12.2	2.05e-04	0	44	0	409993216	22	4484
2026-01-18 22:24:08.37	75.21	16.03	-31.0	-33.0	12.1	2.05e-04	0	44	0	412090368	22	4523
2026-01-18 22:24:09.36	75.42	16.04	-31.0	-32.8	12.3	1.74e-04	0	44	0	413138944	22	4451
2026-01-18 22:24:10.37	75.64	16.06	-30.9	-32.7	12.3	2.48e-04	0	44	0	415236096	22	4417
2026-01-18 22:24:11.38	75.87	16.07	-31.0	-33.0	12.1	2.36e-04	0	44	0	417333248	22	4528
2026-01-18 22:24:12.39	76.09	16.08	-31.1	-33.3	11.9	4.46e-04	0	44	0	419430400	22	4649
2026-01-18 22:24:13.38	76.30	16.09	-31.3	-33.7	11.6	4.91e-04	0	44	0	420478976	22	4787
2026-01-18 22:24:14.38	76.52	16.10	-31.5	-34.4	11.1	1.21e-03	0	44	0	422576128	22	5050
2026-01-18 22:24:15.39	76.74	16.11	-31.5	-34.0	11.1	1.14e-03	0	44	0	424673280	23	4809
2026-01-18 22:24:16.40	76.96	16.12	-31.5	-34.1	11.0	1.85e-03	0	44	0	426770432	23	4839
2026-01-18 22:24:17.40	77.18	16.13	-31.5	-34.1	11.0	2.30e-03	0	44	0	428867584	23	4823
2026-01-18 22:24:18.40	77.40	16.14	-31.4	-33.7	11.3	1.37e-03	0	44	0	429916160	23	4667
2026-01-18 22:24:19.40	77.62	16.15	-31.4	-33.6	11.4	1.60e-03	0	44	0	432013312	23	4660
2026-01-18 22:24:20.40	77.84	16.16	-31.2	-33.0	11.8	6.02e-04	0	44	0	434110464	23	4438
2026-01-18 22:24:21.40	78.06	16.16	-31.1	-32.8	11.9	4.32e-04	0	44	0	436207616	23	4373
2026-01-18 22:24:22.41	78.28	16.17	-31.0	-33.0	12.1	2.69e-04	0	44	0	438304768	22	4541
2026-01-18 22:24:23.41	78.50	16.18	-31.0	-32.8	12.3	2.37e-04	0	44	0	439353344	22	4467
2026-01-18 22:24:24.41	78.73	16.18	-31.0	-33.0	12.1	4.20e-04	0	44	0	441450496	22	4520
2026-01-18 22:24:25.41	78.95	16.19	-31.0	-32.9	12.2	5.75e-04	0	44	0	443547648	22	4492
2026-01-18 22:24:26.42	79.17	16.20	-30.7	-32.2	12.6	1.07e-04	0	44	0	445644800	22	4268
2026-01-18 22:24:27.42	79.39	16.20	-30.6	-32.4	12.9	2.08e-04	0	44	0	447741952	21	4414
2026-01-18 22:24:28.42	79.61	16.21	-30.6	-32.4	12.8	1.34e-04	0	44	0	448790528	21	4427
2026-01-18 22:24:29.42	79.83	16.21	-30.8	-32.9	12.5	9.23e-05	0	44	0	450887680	21	4575
2026-01-18 22:24:30.42	80.05	16.22	-30.9	-33.1	12.4	1.14e-04	0	44	0	452984832	21	4652
2026-01-18 22:24:31.43	80.27	16.22	-30.9	-33.1	12.4	2.60e-04	0	44	0	455081984	21	4646
2026-01-18 22:24:32.43	80.49	16.22	-30.7	-32.6	12.7	8.62e-05	0	44	0	457179136	21	4488
2026-01-18 22:24:33.43	80.72	16.23	-30.6	-32.3	12.9	6.17e-05	0	44	0	458227712	21	4373
2026-01-18 22:24:34.43	80.94	16.23	-30.6	-32.2	13.0	2.79e-04	0	44	0	460324864	21	4351
2026-01-18 22:24:35.44	81.16	16.23	-30.5	-32.0	13.2	3.66e-05	0	44	0	462422016	21	4272
2026-01-18 22:24:36.44	81.38	16.23	-30.4	-31.6	13.4	2.23e-04	0	44	0	464519168	21	4179
2026-01-18 22:24:37.44	81.60	16.23	-30.3	-31.6	13.4	1.14e-05	0	44	0	465567744	21	4177
2026-01-18 22:24:38.45	81.82	16.23	-30.4	-31.7	13.4	1.90e-05	0	44	0	467664896	21	4192
2026-01-18 22:24:39.45	82.05	16.23	-30.5	-32.1	13.0	3.43e-05	0	44	0	469762048	21	4318
2026-01-18 22:24:40.45	82.27	16.23	-30.6	-32.3	12.9	3.66e-05	0	44	0	471859200	21	4373
2026-01-18 22:24:41.45	82.49	16.23	-30.6	-32.2	12.9	2.74e-05	0	44	0	473956352	21	4353
2026-01-18 22:24:42.45	82.71	16.23	-30.5	-32.0	13.1	2.44e-05	0	44	0	476053504	21	4278
2026-01-18 22:24:43.45	82.93	16.23	-30.3	-31.6	13.3	3.05e-05	0	44	0	477102080	21	4165
2026-01-18 22:24:44.46	83.15	16.23	-30.3	-31.5	13.4	1.22e-05	0	44	0	479199232	21	4145
2026-01-18 22:24:45.46	83.37	16.23	-30.5	-32.0	13.1	3.20e-05	0	44	0	481296384	21	4290
2026-01-18 22:24:46.47	83.60	16.23	-30.6	-32.4	12.8	3.81e-05	0	44	0	483393536	21	4434
2026-01-18 22:24:47.46	83.82	16.22	-30.7	-32.7	12.7	6.86e-05	0	44	0	484442112	21	4510
2026-01-18 22:24:48.46	84.04	16.22	-30.7	-32.7	12.7	1.11e-04	0	44	0	486539264	21	4506
2026-01-18 22:24:49.47	84.26	16.22	-30.8	-33.1	12.4	1.62e-04	0	44	0	488636416	21	4642
2026-01-18 22:24:50.48	84.48	16.21	-30.8	-32.9	12.5	1.29e-04	0	44	0	490733568	21	4580
2026-01-18 22:24:51.48	84.70	16.21	-30.7	-32.7	12.6	1.50e-04	0	44	0	492830720	21	4506
2026-01-18 22:24:52.48	84.92	16.21	-30.8	-32.8	12.5	1.62e-04	0	44	0	493879296	21	4562
2026-01-18 22:24:53.48	85.15	16.20	-30.6	-32.5	12.8	8.16e-05	0	44	0	495976448	21	4442
2026-01-18 22:24:54.48	85.37	16.19	-30.6	-32.4	12.8	7.24e-05	0	44	0	498073600	21	4408
2026-01-18 22:24:55.49	85.59	16.19	-30.8	-32.9	12.4	9.30e-05	0	44	0	500170752	21	4606
2026-01-18 22:24:56.49	85.81	16.18	-31.0	-33.0	12.0	1.74e-04	0	44	0	502267904	22	4547
2026-01-18 22:24:57.49	86.03	16.18	-31.2	-33.7	11.6	2.75e-04	0	44	0	503316480	22	4771
2026-01-18 22:24:58.49	86.25	16.17	-31.4	-34.2	11.2	1.04e-03	0	44	0	505413632	22	4975
2026-01-18 22:24:59.49	86.47	16.16	-31.3	-34.0	11.4	7.57e-04	0	44	0	507510784	22	4891
2026-01-18 22:25:00.49	86.69	16.15	-31.3	-33.8	11.6	1.16e-03	0	44	0	509607936	22	4807
2026-01-18 22:25:01.49	86.91	16.14	-31.0	-32.9	12.2	4.10e-04	0	44	0	510656512	22	4480
2026-01-18 22:25:02.49	87.13	16.14	-30.7	-32.3	12.6	1.36e-04	0	44	0	512753664	22	4284
2026-01-18 22:25:03.48	87.35	16.13	-30.5	-31.7	13.0	7.09e-05	0	44	0	514850816	22	4101
2026-01-18 22:25:04.48	87.57	16.12	-30.4	-31.4	13.2	3.66e-05	0	44	0	516947968	22	4008
2026-01-18 22:25:05.48	87.79	16.11	-30.5	-31.6	13.1	2.13e-05	0	44	0	519045120	22	4066
2026-01-18 22:25:06.48	88.01	16.10	-30.6	-31.8	12.9	3.43e-05	0	44	0	520093696	22	4129
2026-01-18 22:25:07.49	88.23	16.09	-30.6	-31.9	12.8	5.72e-05	0	44	0	522190848	22	4164
2026-01-18 22:25:08.49	88.45	16.08	-30.6	-31.9	12.8	6.10e-05	0	44	0	524288000	22	4162
2026-01-18 22:25:09.49	88.66	16.06	-30.6	-31.9	12.7	5.03e-05	0	44	0	526385152	22	4188
2026-01-18 22:25:10.49	88.88	16.05	-30.7	-32.1	12.7	5.56e-05	0	44	0	528482304	22	4224
2026-01-18 22:25:11.49	89.10	16.04	-30.7	-32.2	12.5	9.76e-05	0	44	0	529530880	22	4279
2026-01-18 22:25:12.50	89.32	16.03	-30.8	-32.5	12.4	1.33e-04	0	44	0	531628032	22	4346
2026-01-18 22:25:13.49	89.54	16.01	-30.9	-32.7	12.3	1.33e-04	0	44	0	533725184	22	4421
2026-01-18 22:25:14.49	89.76	16.00	-30.9	-32.8	12.2	1.99e-04	0	44	0	535822336	22	4462
2026-01-18 22:25:15.48	89.97	15.99	-30.8	-32.6	12.4	1.78e-04	0	44	0	537919488	22	4387
2026-01-18 22:25:16.48	90.19	15.97	-30.8	-32.5	12.4	3.43e-04	0	44	0	538968064	22	4371
2026-01-18 22:25:17.48	90.41	15.96	-30.8	-32.5	12.4	1.52e-04	0	44	0	541065216	22	4367
2026-01-18 22:25:18.48	90.62	15.94	-30.7	-32.8	12.5	2.78e-04	0	44	0	543162368	21	4550
2026-01-18 22:25:19.48	90.84	15.93	-30.7	-32.7	12.6	1.09e-04	0	44	0	545259520	21	4523
2026-01-18 22:25:20.48	91.06	15.91	-30.4	-31.8	13.1	4.73e-05	0	44	0	546308096	21	4248
2026-01-18 22:25:21.49	91.28	15.90	-30.3	-31.4	13.3	6.33e-05	0	44	0	548405248	21	4115
2026-01-18 22:25:22.49	91.49	15.88	-30.1	-31.1	13.6	5.30e-06	0	44	0	550502400	21	4025
2026-01-18 22:25:23.49	91.71	15.86	-30.1	-30.9	13.7	4.50e-06	0	44	0	552599552	21	3979
2026-01-18 22:25:24.50	91.93	15.85	-30.1	-30.9	13.7	5.18e-05	0	44	0	554696704	21	3981
2026-01-18 22:25:25.49	92.14	15.83	-30.0	-30.8	13.8	6.48e-05	0	44	0	555745280	21	3935
2026-01-18 22:25:26.49	92.36	15.81	-30.1	-31.0	13.6	7.60e-06	0	44	0	557842432	21	3989
2026-01-18 22:25:27.50	92.57	15.79	-30.0	-30.9	13.7	5.64e-05	0	44	0	559939584	21	3962
2026-01-18 22:25:28.50	92.79	15.77	-30.1	-31.0	13.6	1.43e-04	0	44	0	562036736	21	4013
2026-01-18 22:25:29.51	93.00	15.76	-30.2	-31.2	13.5	6.80e-06	0	44	0	564133888	21	4055
2026-01-18 22:25:30.51	93.22	15.74	-30.1	-31.1	13.6	1.67e-05	0	44	0	565182464	21	4027
2026-01-18 22:25:31.51	93.43	15.72	-30.1	-31.5	13.6	1.66e-04	0	44	0	567279616	20	4242
2026-01-18 22:25:32.51	93.65	15.70	-30.1	-31.7	13.6	8.30e-06	0	44	0	569376768	20	4284
2026-01-18 22:25:33.51	93.86	15.68	-30.2	-31.8	13.4	1.60e-05	0	44	0	571473920	20	4345
2026-01-18 22:25:34.51	94.07	15.66	-30.4	-32.3	13.1	3.46e-04	0	44	0	573571072	20	4487
2026-01-18 22:25:35.51	94.29	15.63	-30.5	-32.1	12.9	4.80e-05	0	44	0	574619648	21	4332
2026-01-18 22:25:36.51	94.50	15.61	-30.6	-32.3	12.8	7.01e-05	0	44	0	576716800	21	4412
2026-01-18 22:25:37.51	94.71	15.59	-30.6	-32.4	12.7	9.99e-05	0	44	0	578813952	21	4447
2026-01-18 22:25:38.51	94.92	15.57	-30.4	-31.9	13.1	3.35e-05	0	44	0	580911104	21	4257
2026-01-18 22:25:39.52	95.14	15.55	-30.2	-31.9	13.4	1.75e-05	0	44	0	583008256	20	4355
2026-01-18 22:25:40.52	95.35	15.52	-30.2	-31.9	13.4	1.83e-05	0	44	0	584056832	20	4347
2026-01-18 22:25:41.53	95.56	15.50	-30.3	-32.1	13.3	1.52e-05	0	44	0	586153984	20	4407
2026-01-18 22:25:42.54	95.77	15.48	-30.3	-32.0	13.3	6.10e-05	0	44	0	588251136	20	4383
2026-01-18 22:25:43.53	95.98	15.45	-30.4	-32.3	13.1	2.51e-05	0	44	0	590348288	20	4504
2026-01-18 22:25:44.54	96.20	15.43	-30.4	-32.2	13.2	3.66e-05	0	44	0	591396864	20	4474
2026-01-18 22:25:45.54	96.41	15.40	-30.2	-31.8	13.4	2.67e-05	0	44	0	593494016	20	4333
2026-01-18 22:25:46.54	96.61	15.38	-30.2	-31.8	13.4	1.83e-05	0	44	0	595591168	20	4338
2026-01-18 22:25:47.55	96.83	15.35	-29.9	-31.1	13.8	8.30e-06	0	44	0	597688320	20	4122
2026-01-18 22:25:48.54	97.03	15.33	-30.0	-31.3	13.8	3.35e-05	0	44	0	599785472	20	4168
2026-01-18 22:25:49.54	97.24	15.30	-30.1	-31.6	13.6	8.85e-05	0	44	0	600834048	20	4255
2026-01-18 22:25:50.54	97.45	15.28	-30.0	-31.2	13.8	5.30e-06	0	44	0	602931200	20	4145
2026-01-18 22:25:51.55	97.66	15.25	-29.7	-30.6	14.2	1.50e-06	0	44	0	605028352	20	3962
2026-01-18 22:25:52.55	97.87	15.22	-29.7	-30.5	14.2	1.75e-05	0	44	0	607125504	20	3953
2026-01-18 22:25:53.55	98.07	15.19	-29.7	-30.5	14.2	2.20e-06	0	44	0	609222656	20	3949
2026-01-18 22:25:54.56	98.28	15.17	-29.8	-30.8	14.0	1.50e-06	0	44	0	610271232	20	4041
2026-01-18 22:25:55.56	98.49	15.14	-30.0	-31.4	13.7	3.00e-06	0	44	0	612368384	20	4203
2026-01-18 22:25:56.56	98.69	15.11	-30.2	-31.7	13.5	1.22e-05	0	44	0	614465536	20	4300
2026-01-18 22:25:57.56	98.90	15.08	-30.3	-32.1	13.2	2.05e-05	0	44	0	616562688	20	4430
2026-01-18 22:25:58.56	99.11	15.05	-30.3	-32.1	13.2	3.20e-05	0	44	0	618659840	20	4414
2026-01-18 22:25:59.56	99.31	15.02	-30.1	-31.6	13.6	3.00e-06	0	44	0	619708416	20	4260
2026-01-18 22:26:00.56	99.51	14.99	-30.0	-31.4	13.6	6.80e-06	0	44	0	621805568	20	4202
2026-01-18 22:26:01.55	99.72	14.97	-29.9	-30.9	14.0	6.10e-06	0	44	0	623902720	20	4070
2026-01-18 22:26:02.55	99.92	14.94	-30.0	-31.2	13.8	9.90e-06	0	44	0	625999872	20	4166
2026-01-18 22:26:03.56	100.13	14.90	-30.1	-31.5	13.6	1.29e-05	0	44	0	628097024	20	4255
2026-01-18 22:26:04.55	100.33	14.87	-30.3	-32.1	13.2	1.75e-05	0	44	0	629145600	20	4424
2026-01-18 22:26:05.55	100.53	14.84	-30.3	-32.2	13.1	2.13e-05	0	44	0	631242752	20	4456
2026-01-18 22:26:06.56	100.73	14.81	-30.3	-32.2	13.1	3.81e-05	0	44	0	633339904	20	4477
2026-01-18 22:26:07.56	100.93	14.78	-30.3	-32.1	13.2	1.75e-05	0	44	0	635437056	20	4418
2026-01-18 22:26:08.55	101.13	14.75	-30.1	-31.7	13.5	1.60e-05	0	44	0	636485632	20	4290
2026-01-18 22:26:09.56	101.34	14.72	-30.1	-31.6	13.5	1.29e-05	0	44	0	638582784	20	4272
2026-01-18 22:26:10.56	101.54	14.68	-30.0	-31.2	13.8	1.14e-05	0	44	0	640679936	20	4142
2026-01-18 22:26:11.56	101.74	14.65	-30.1	-31.6	13.5	6.10e-06	0	44	0	642777088	20	4267
2026-01-18 22:26:12.56	101.94	14.62	-30.1	-31.5	13.6	1.29e-05	0	44	0	644874240	20	4248
2026-01-18 22:26:13.57	102.14	14.59	-29.8	-30.9	14.0	5.30e-06	0	44	0	645922816	20	4053
2026-01-18 22:26:14.57	102.34	14.55	-29.7	-30.6	14.1	1.50e-06	0	44	0	648019968	20	3980
2026-01-18 22:26:15.58	102.54	14.52	-29.8	-30.8	14.0	1.50e-06	0	44	0	650117120	20	4041
2026-01-18 22:26:16.58	102.73	14.48	-29.8	-30.8	14.0	2.20e-06	0	44	0	652214272	20	4034
2026-01-18 22:26:17.58	102.93	14.45	-29.8	-30.7	14.1	7.00e-07	0	44	0	654311424	20	4001
2026-01-18 22:26:18.58	103.13	14.42	-29.9	-31.0	13.8	5.30e-06	0	44	0	655360000	20	4104
2026-01-18 22:26:19.58	103.32	14.38	-30.0	-31.2	13.7	6.10e-06	0	44	0	657457152	20	4163
2026-01-18 22:26:20.58	103.52	14.35	-30.0	-31.4	13.6	9.90e-06	0	44	0	659554304	20	4221
2026-01-18 22:26:21.58	103.72	14.31	-30.0	-31.5	13.6	9.10e-06	0	44	0	661651456	20	4233
2026-01-18 22:26:22.59	103.91	14.27	-30.0	-31.4	13.6	1.37e-05	0	44	0	662700032	20	4227
2026-01-18 22:26:23.59	104.11	14.24	-30.1	-31.5	13.6	7.60e-06	0	44	0	664797184	20	4245
2026-01-18 22:26:24.60	104.30	14.20	-30.3	-32.1	13.2	1.37e-05	0	44	0	666894336	20	4422
2026-01-18 22:26:25.60	104.50	14.17	-30.4	-32.4	13.0	1.60e-05	0	44	0	668991488	20	4530
2026-01-18 22:26:26.60	104.69	14.13	-30.5	-32.3	12.7	5.79e-05	0	44	0	671088640	21	4423
2026-01-18 22:26:27.61	104.89	14.09	-30.8	-33.0	12.2	1.19e-04	0	44	0	673185792	21	4655
2026-01-18 22:26:28.62	105.08	14.05	-30.7	-32.9	12.3	2.07e-04	0	44	0	674234368	21	4623
2026-01-18 22:26:29.62	105.27	14.02	-30.8	-33.1	12.1	2.45e-04	0	44	0	676331520	21	4699
2026-01-18 22:26:30.62	105.46	13.98	-30.9	-33.3	11.9	3.54e-04	0	44	0	678428672	21	4776
2026-01-18 22:26:31.63	105.66	13.94	-30.8	-33.2	12.0	3.10e-04	0	44	0	680525824	21	4733
2026-01-18 22:26:32.63	105.85	13.90	-30.7	-32.6	12.4	1.79e-04	0	44	0	681574400	21	4529
2026-01-18 22:26:33.62	106.03	13.87	-30.6	-32.6	12.5	1.21e-04	0	44	0	683671552	21	4515
2026-01-18 22:26:34.63	106.23	13.83	-30.6	-32.6	12.5	1.14e-04	0	44	0	685768704	21	4503
2026-01-18 22:26:35.63	106.41	13.79	-30.6	-32.5	12.6	6.10e-05	0	44	0	687865856	21	4463
2026-01-18 22:26:36.63	106.60	13.75	-30.6	-32.6	12.5	1.01e-04	0	44	0	689963008	21	4514
2026-01-18 22:26:37.64	106.79	13.71	-30.7	-32.7	12.4	1.62e-04	0	44	0	691011584	21	4538
2026-01-18 22:26:38.64	106.98	13.67	-30.8	-33.0	12.2	1.88e-04	0	44	0	693108736	21	4653
2026-01-18 22:26:39.64	107.17	13.63	-30.9	-33.4	11.9	3.16e-04	0	44	0	695205888	21	4779
2026-01-18 22:26:40.65	107.36	13.59	-31.0	-33.5	11.8	3.98e-04	0	44	0	697303040	21	4846
2026-01-18 22:26:41.64	107.54	13.55	-31.1	-33.4	11.6	6.44e-04	0	44	0	699400192	22	4699
2026-01-18 22:26:42.64	107.73	13.51	-31.0	-33.0	11.8	4.94e-04	0	44	0	700448768	22	4563
2026-01-18 22:26:43.63	107.91	13.47	-31.0	-33.1	11.7	4.75e-04	0	44	0	702545920	22	4591
2026-01-18 22:26:44.64	108.10	13.43	-30.9	-32.8	12.0	5.75e-04	0	44	0	704643072	22	4491
2026-01-18 22:26:45.64	108.28	13.39	-30.8	-32.5	12.2	2.43e-04	0	44	0	706740224	22	4402
2026-01-18 22:26:46.65	108.47	13.35	-30.8	-32.5	12.2	1.98e-04	0	44	0	708837376	22	4373
2026-01-18 22:26:47.65	108.65	13.31	-30.9	-32.8	12.0	3.44e-04	0	44	0	709885952	22	4475
2026-01-18 22:26:48.65	108.83	13.26	-30.9	-32.9	11.8	4.58e-04	0	44	0	711983104	22	4542
2026-01-18 22:26:49.65	109.01	13.22	-31.0	-33.1	11.7	5.60e-04	0	44	0	714080256	22	4604
2026-01-18 22:26:50.66	109.20	13.18	-31.1	-33.6	11.4	6.37e-04	0	44	0	716177408	22	4776
2026-01-18 22:26:51.66	109.38	13.14	-31.2	-33.9	11.2	1.40e-03	0	44	0	718274560	22	4892
2026-01-18 22:26:52.67	109.56	13.10	-31.3	-34.0	11.1	1.41e-03	0	44	0	719323136	22	4916
2026-01-18 22:26:53.67	109.74	13.05	-31.4	-34.4	10.8	1.75e-03	0	44	0	721420288	22	5104
2026-01-18 22:26:54.68	109.92	13.01	-31.5	-34.3	10.5	3.93e-03	0	44	0	723517440	23	4944
2026-01-18 22:26:55.69	110.10	12.97	-31.5	-34.4	10.4	3.20e-03	0	44	0	725614592	23	5018
2026-01-18 22:26:56.69	110.28	12.92	-31.6	-34.6	10.3	5.55e-03	0	44	0	726663168	23	5088
2026-01-18 22:26:57.70	110.46	12.88	-31.7	-34.9	10.1	7.24e-03	0	44	0	728760320	23	5201
2026-01-18 22:26:58.69	110.64	12.84	-31.7	-35.1	9.9	1.03e-02	0	44	0	730857472	23	5295
2026-01-18 22:26:59.69	110.82	12.79	-31.7	-35.1	9.9	9.65e-03	0	44	0	732954624	23	5289
2026-01-18 22:27:00.69	110.99	12.75	-31.5	-34.3	10.5	8.49e-03	0	44	0	735051776	23	4968
2026-01-18 22:27:01.69	111.17	12.71	-31.6	-34.8	10.2	5.20e-03	0	44	0	736100352	23	5153
2026-01-18 22:27:02.70	111.35	12.66	-31.4	-34.0	10.7	4.72e-03	0	44	0	738197504	23	4828
2026-01-18 22:27:03.71	111.52	12.62	-31.1	-32.9	11.5	1.65e-03	0	44	0	740294656	23	4452
2026-01-18 22:27:04.71	111.70	12.57	-30.9	-32.4	11.8	4.03e-04	0	44	0	742391808	23	4288
2026-01-18 22:27:05.72	111.87	12.53	-30.8	-32.6	12.0	3.02e-04	0	44	0	744488960	22	4434
2026-01-18 22:27:06.72	112.05	12.48	-30.8	-32.7	12.0	3.37e-04	0	44	0	745537536	22	4461
2026-01-18 22:27:07.72	112.22	12.44	-30.9	-32.8	11.9	2.63e-04	0	44	0	747634688	22	4497
2026-01-18 22:27:08.72	112.39	12.40	-31.0	-33.2	11.6	7.14e-04	0	44	0	749731840	22	4629
2026-01-18 22:27:09.73	112.57	12.35	-31.1	-33.6	11.3	7.98e-04	0	44	0	751828992	22	4790
2026-01-18 22:27:10.73	112.74	12.30	-31.1	-33.7	11.3	9.48e-04	0	44	0	753926144	22	4812
2026-01-18 22:27:11.74	112.91	12.26	-31.1	-33.7	11.2	1.11e-03	0	44	0	754974720	22	4819
2026-01-18 22:27:12.74	113.08	12.21	-31.2	-33.7	11.3	1.25e-03	0	44	0	757071872	22	4823
2026-01-18 22:27:13.74	113.25	12.17	-31.3	-34.1	11.0	1.65e-03	0	44	0	759169024	22	4993
2026-01-18 22:27:14.74	113.42	12.12	-31.2	-33.8	11.1	1.34e-03	0	44	0	761266176	22	4889
2026-01-18 22:27:15.75	113.59	12.08	-31.1	-33.6	11.3	8.48e-04	0	44	0	763363328	22	4801
2026-01-18 22:27:16.75	113.76	12.03	-31.2	-33.9	11.0	1.31e-03	0	44	0	764411904	22	4915
2026-01-18 22:27:17.75	113.93	11.98	-31.2	-33.8	11.1	1.72e-03	0	44	0	766509056	22	4879
2026-01-18 22:27:18.75	114.09	11.94	-31.3	-34.1	10.9	1.96e-03	0	44	0	768606208	22	5009
2026-01-18 22:27:19.75	114.26	11.89	-31.2	-33.9	11.1	2.41e-03	0	44	0	770703360	22	4924
2026-01-18 22:27:20.76	114.43	11.84	-31.2	-33.8	11.1	2.02e-03	0	44	0	772800512	22	4883
2026-01-18 22:27:21.76	114.60	11.80	-31.2	-33.8	11.2	1.21e-03	0	44	0	773849088	22	4879
2026-01-18 22:27:22.77	114.76	11.75	-31.2	-34.0	11.0	1.68e-03	0	44	0	775946240	22	4935
2026-01-18 22:27:23.77	114.93	11.70	-31.4	-34.5	10.6	2.39e-03	0	44	0	778043392	22	5144
2026-01-18 22:27:24.77	115.09	11.66	-31.4	-34.5	10.6	3.63e-03	0	44	0	780140544	22	5141
2026-01-18 22:27:25.77	115.26	11.61	-31.4	-34.7	10.4	3.30e-03	0	44	0	782237696	22	5256
2026-01-18 22:27:26.78	115.42	11.56	-31.5	-34.4	10.3	5.05e-03	0	44	0	783286272	23	5023
2026-01-18 22:27:27.78	115.58	11.51	-31.5	-34.4	10.3	4.67e-03	0	44	0	785383424	23	5024
2026-01-18 22:27:28.78	115.75	11.47	-31.5	-34.4	10.2	5.17e-03	0	44	0	787480576	23	5041
2026-01-18 22:27:29.79	115.91	11.42	-31.4	-34.1	10.5	4.45e-03	0	44	0	789577728	23	4917
2026-01-18 22:27:30.78	116.07	11.37	-31.5	-34.5	10.2	5.33e-03	0	44	0	790626304	23	5078
2026-01-18 22:27:31.79	116.23	11.32	-31.4	-34.1	10.5	5.25e-03	0	44	0	792723456	23	4918
2026-01-18 22:27:32.79	116.39	11.27	-31.3	-33.6	10.9	2.48e-03	0	44	0	794820608	23	4712
2026-01-18 22:27:33.79	116.55	11.23	-31.1	-33.2	11.1	1.78e-03	0	44	0	796917760	23	4577
2026-01-18 22:27:34.79	116.71	11.18	-31.1	-33.1	11.1	1.33e-03	0	44	0	799014912	23	4544
2026-01-18 22:27:35.80	116.87	11.13	-31.1	-33.0	11.3	1.17e-03	0	44	0	800063488	23	4494
2026-01-18 22:27:36.81	117.03	11.08	-31.2	-33.3	11.1	1.75e-03	0	44	0	802160640	23	4612
2026-01-18 22:27:37.82	117.19	11.03	-31.1	-33.1	11.3	1.65e-03	0	44	0	804257792	23	4518
2026-01-18 22:27:38.82	117.35	10.98	-31.0	-33.2	11.5	9.83e-04	0	44	0	806354944	22	4661
2026-01-18 22:27:39.82	117.50	10.93	-30.9	-33.1	11.6	1.03e-03	0	44	0	808452096	22	4613
2026-01-18 22:27:40.83	117.66	10.88	-31.1	-33.7	11.1	9.69e-04	0	44	0	809500672	22	4863
2026-01-18 22:27:41.83	117.82	10.83	-31.0	-33.4	11.3	1.59e-03	0	44	0	811597824	22	4727
2026-01-18 22:27:42.83	117.97	10.79	-30.8	-32.8	11.7	6.51e-04	0	44	0	813694976	22	4530
2026-01-18 22:27:43.83	118.13	10.74	-30.7	-32.4	12.0	3.90e-04	0	44	0	815792128	22	4381
2026-01-18 22:27:44.83	118.28	10.69	-30.7	-32.4	12.0	2.74e-04	0	44	0	817889280	22	4387
2026-01-18 22:27:45.83	118.44	10.64	-30.7	-32.4	12.1	3.26e-04	0	44	0	818937856	22	4364
2026-01-18 22:27:46.83	118.59	10.59	-31.0	-33.2	11.4	4.36e-04	0	44	0	821035008	22	4668
2026-01-18 22:27:47.84	118.74	10.54	-30.8	-32.7	11.8	7.38e-04	0	44	0	823132160	22	4486
2026-01-18 22:27:48.84	118.90	10.49	-30.8	-32.6	11.9	3.83e-04	0	44	0	825229312	22	4441
2026-01-18 22:27:49.84	119.05	10.44	-30.8	-32.7	11.8	3.83e-04	0	44	0	827326464	22	4477
2026-01-18 22:27:50.84	119.20	10.39	-30.8	-32.9	11.7	5.38e-04	0	44	0	828375040	22	4548
2026-01-18 22:27:51.85	119.35	10.34	-30.8	-32.8	11.7	7.45e-04	0	44	0	830472192	22	4535
2026-01-18 22:27:52.85	119.50	10.29	-30.8	-32.8	11.7	6.52e-04	0	44	0	832569344	22	4535
2026-01-18 22:27:53.86	119.65	10.24	-31.0	-33.4	11.3	8.83e-04	0	44	0	834666496	22	4745
2026-01-18 22:27:54.86	119.80	10.19	-30.7	-32.6	11.9	9.04e-04	0	44	0	836763648	22	4441
2026-01-18 22:27:55.86	119.95	10.14	-30.5	-31.9	12.3	2.69e-04	0	44	0	837812224	22	4233
2026-01-18 22:27:56.86	120.10	10.09	-30.4	-31.6	12.5	1.33e-04	0	44	0	839909376	22	4115
2026-01-18 22:27:57.85	120.25	10.04	-30.3	-31.2	12.8	1.17e-04	0	44	0	842006528	22	4011
2026-01-18 22:27:58.85	120.39	9.99	-30.4	-31.5	12.6	8.39e-05	0	44	0	844103680	22	4095
2026-01-18 22:27:59.85	120.54	9.94	-30.3	-31.7	12.8	8.54e-05	0	44	0	845152256	21	4253
2026-01-18 22:28:00.85	120.69	9.89	-30.2	-32.1	12.9	5.64e-05	0	44	0	847249408	20	4446
2026-01-18 22:28:01.85	120.83	9.84	-30.3	-32.1	12.8	5.64e-05	0	44	0	849346560	20	4474
2026-01-18 22:28:02.86	120.98	9.79	-30.3	-32.2	12.8	6.33e-05	0	44	0	851443712	20	4477
2026-01-18 22:28:03.86	121.12	9.74	-30.3	-32.2	12.8	5.41e-05	0	44	0	853540864	20	4497
2026-01-18 22:28:04.86	121.27	9.69	-30.5	-32.8	12.4	7.62e-05	0	44	0	854589440	20	4691
2026-01-18 22:28:05.87	121.41	9.64	-30.4	-32.6	12.5	1.25e-04	0	44	0	856686592	20	4623
2026-01-18 22:28:06.87	121.56	9.59	-30.5	-32.3	12.3	1.09e-04	0	44	0	858783744	21	4444
2026-01-18 22:28:07.87	121.70	9.54	-30.5	-32.4	12.2	1.62e-04	0	44	0	860880896	21	4492
2026-01-18 22:28:08.88	121.84	9.48	-30.5	-32.4	12.3	1.98e-04	0	44	0	862978048	21	4467
2026-01-18 22:28:09.88	121.99	9.43	-30.6	-32.8	12.0	2.72e-04	0	44	0	864026624	21	4640
2026-01-18 22:28:10.88	122.13	9.38	-30.6	-32.8	12.0	3.11e-04	0	44	0	866123776	21	4625
2026-01-18 22:28:11.88	122.27	9.33	-30.7	-33.1	11.8	3.52e-04	0	44	0	868220928	21	4718
2026-01-18 22:28:12.88	122.41	9.28	-30.8	-33.2	11.7	5.84e-04	0	44	0	870318080	21	4788
2026-01-18 22:28:13.88	122.55	9.23	-30.7	-33.1	11.7	5.65e-04	0	44	0	872415232	21	4752
2026-01-18 22:28:14.88	122.69	9.18	-30.8	-33.4	11.5	8.16e-04	0	44	0	873463808	21	4867
2026-01-18 22:28:15.89	122.83	9.13	-30.8	-33.4	11.5	1.04e-03	0	44	0	875560960	21	4837
2026-01-18 22:28:16.89	122.97	9.08	-30.7	-33.1	11.7	6.21e-04	0	44	0	877658112	21	4739
2026-01-18 22:28:17.89	123.11	9.02	-30.9	-33.6	11.3	9.35e-04	0	44	0	879755264	21	4921
2026-01-18 22:28:18.89	123.24	8.97	-30.7	-33.0	11.8	8.70e-04	0	44	0	880803840	21	4689
2026-01-18 22:28:19.90	123.38	8.92	-30.6	-32.8	11.9	3.79e-04	0	44	0	882900992	21	4638
2026-01-18 22:28:20.90	123.52	8.87	-30.6	-32.7	12.0	4.23e-04	0	44	0	884998144	21	4583
2026-01-18 22:28:21.90	123.65	8.82	-30.6	-32.8	11.9	3.53e-04	0	44	0	887095296	21	4610
2026-01-18 22:28:22.90	123.79	8.77	-30.6	-32.9	11.8	4.96e-04	0	44	0	889192448	21	4661
2026-01-18 22:28:23.91	123.93	8.72	-30.5	-32.5	12.1	3.99e-04	0	44	0	890241024	21	4534
2026-01-18 22:28:24.92	124.06	8.66	-30.4	-32.3	12.2	3.16e-04	0	44	0	892338176	21	4451
2026-01-18 22:28:25.92	124.20	8.61	-30.5	-32.5	12.1	2.37e-04	0	44	0	894435328	21	4525
2026-01-18 22:28:26.93	124.33	8.56	-30.6	-32.9	11.8	4.47e-04	0	44	0	896532480	21	4664
2026-01-18 22:28:27.94	124.47	8.51	-30.7	-33.1	11.6	4.74e-04	0	44	0	898629632	21	4762
2026-01-18 22:28:28.94	124.60	8.46	-30.8	-33.3	11.5	8.32e-04	0	44	0	899678208	21	4840
2026-01-18 22:28:29.95	124.74	8.41	-30.8	-33.4	11.4	1.07e-03	0	44	0	901775360	21	4854
2026-01-18 22:28:30.95	124.87	8.35	-30.9	-33.6	11.2	1.49e-03	0	44	0	903872512	21	4953
2026-01-18 22:28:31.95	125.00	8.30	-30.9	-33.9	11.1	1.55e-03	0	44	0	905969664	21	5051
2026-01-18 22:28:32.96	125.13	8.25	-31.0	-33.8	10.8	2.31e-03	0	44	0	908066816	22	4922
2026-01-18 22:28:33.96	125.26	8.20	-31.0	-33.5	10.9	2.09e-03	0	44	0	909115392	22	4830
2026-01-18 22:28:34.96	125.39	8.15	-31.1	-33.9	10.6	2.36e-03	0	44	0	911212544	22	4999
2026-01-18 22:28:35.96	125.52	8.10	-31.0	-33.5	10.9	2.45e-03	0	44	0	913309696	22	4821
2026-01-18 22:28:36.97	125.65	8.04	-30.9	-33.3	11.0	2.11e-03	0	44	0	915406848	22	4767
2026-01-18 22:28:37.97	125.78	7.99	-31.0	-33.5	10.9	2.00e-03	0	44	0	917504000	22	4815
2026-01-18 22:28:38.97	125.91	7.94	-31.0	-33.6	10.9	2.53e-03	0	44	0	918552576	22	4844
2026-01-18 22:28:39.97	126.04	7.89	-31.2	-34.3	10.3	3.67e-03	0	44	0	920649728	22	5134
2026-01-18 22:28:40.97	126.17	7.84	-31.2	-34.3	10.3	5.35e-03	0	44	0	922746880	22	5157
2026-01-18 22:28:41.98	126.30	7.78	-31.4	-35.0	9.8	7.03e-03	0	44	0	924844032	22	5471
2026-01-18 22:28:42.98	126.42	7.73	-31.5	-35.2	9.6	1.15e-02	0	44	0	926941184	22	5555
2026-01-18 22:28:43.99	126.55	7.68	-31.6	-35.1	9.2	1.68e-02	0	44	0	927989760	23	5426
2026-01-18 22:28:44.99	126.68	7.63	-31.7	-35.7	8.8	2.51e-02	0	44	0	930086912	23	5684
2026-01-18 22:28:45.99	126.80	7.58	-31.5	-35.0	9.3	2.99e-02	0	44	0	932184064	23	5372
2026-01-18 22:28:47.00	126.93	7.52	-31.7	-35.7	8.8	3.09e-02	0	44	0	934281216	23	5691
2026-01-18 22:28:48.00	127.05	7.47	-31.6	-35.2	9.2	2.35e-02	0	44	0	936378368	23	5445
2026-01-18 22:28:49.00	127.18	7.42	-31.5	-34.7	9.5	1.65e-02	0	44	0	937426944	23	5238
2026-01-18 22:28:49.99	127.30	7.37	-31.3	-34.3	9.9	1.02e-02	0	44	0	939524096	23	5079
2026-01-18 22:28:51.00	127.42	7.32	-31.4	-34.4	9.8	1.05e-02	0	44	0	941621248	23	5122
2026-01-18 22:28:52.00	127.55	7.26	-31.4	-34.6	9.6	1.25e-02	0	44	0	943718400	23	5213
2026-01-18 22:28:53.00	127.67	7.21	-31.4	-34.7	9.5	1.34e-02	0	44	0	944766976	23	5249
2026-01-18 22:28:54.00	127.79	7.16	-31.7	-35.7	8.8	1.99e-02	0	44	0	946864128	23	5719
2026-01-18 22:28:55.00	127.91	7.11	-31.5	-35.0	9.3	2.40e-02	0	44	0	948961280	23	5407
2026-01-18 22:28:56.00	128.04	7.06	-31.7	-35.8	8.7	2.01e-02	0	44	0	951058432	23	5774
2026-01-18 22:28:57.01	128.16	7.00	-33.4	-46.1	3.8	1.49e+00	0	44	104	951058432	26	15419
2026-01-18 22:28:58.02	128.28	6.95	-33.8	-46.3	3.8	1.49e+00	0	44	104	951058432	27	15292
2026-01-18 22:28:59.02	128.40	6.90	-33.9	-46.2	3.8	1.49e+00	0	44	104	951058432	28	14751
2026-01-18 22:29:00.02	128.52	6.85	-34.2	-46.6	3.8	1.49e+00	0	44	104	951058432	28	15100

#Closed at: 2026-01-18 22:29:00
#Recorded file [951 MB]: D:/data/31010_260119_012028.dat