passes_logs/2026/01/18/R2M6_AANII_01/R2M6_AANII_01__20260118_125024_FENGYUN_3D_rec.log

#Pass ID: 20260118_125024_FENGYUN 3D
#Satellite: FENGYUN 3D
#Configuration: FENGYUN 3D
#almurnet v.1.7.20240730
#Start time: 2026-01-18 12:50:23

#Version: 2.2.20231116
#Station: R2M6_AANII_01
#Location: 30.233357 lon 59.946436 lat
#TLE: 1 43010U 17072A   26017.61121112  .00000213  00000+0  12257-3 0  9991
#TLE: 2 43010  98.9934 349.4672 0002374 103.9362 256.2078 14.19696413423628

#Time	Az	El	Level	Level2	SNR	BER	BlckErr	Temp	State	Recorded	gain1	gain2
2026-01-18 12:50:23.83	174.74	6.98	-27.7	-29.4	5.8	7.70e-01	0	40	0	0	16	4365
2026-01-18 12:50:24.82	174.77	7.05	-28.9	-31.7	5.6	7.78e-01	0	40	104	0	17	5009
2026-01-18 12:50:25.83	174.81	7.13	-29.2	-32.0	11.0	3.22e-03	0	40	0	0	18	4968
2026-01-18 12:50:26.83	174.84	7.21	-28.8	-31.1	11.6	1.37e-03	0	40	0	5242880	18	4670
2026-01-18 12:50:27.83	174.87	7.28	-29.3	-32.2	10.9	1.64e-03	0	40	0	11534336	18	5041
2026-01-18 12:50:28.83	174.90	7.36	-28.9	-31.4	11.5	1.71e-03	0	40	0	16777216	18	4764
2026-01-18 12:50:29.84	174.93	7.44	-28.5	-30.3	12.1	6.93e-04	0	41	0	22020096	18	4412
2026-01-18 12:50:30.83	174.97	7.51	-28.0	-29.5	12.9	7.32e-05	0	41	0	28311552	17	4280
2026-01-18 12:50:31.84	175.00	7.59	-27.6	-29.0	13.5	5.03e-05	0	41	0	33554432	16	4255
2026-01-18 12:50:32.85	175.03	7.67	-27.4	-28.7	13.8	2.05e-05	0	41	0	38797312	16	4165
2026-01-18 12:50:33.86	175.07	7.75	-27.3	-29.0	13.7	1.48e-05	0	41	0	45088768	15	4364
2026-01-18 12:50:34.86	175.10	7.83	-27.1	-28.6	13.9	3.40e-06	0	41	0	50331648	15	4247
2026-01-18 12:50:35.86	175.13	7.91	-27.0	-28.3	14.1	2.20e-06	0	41	0	55574528	15	4182
2026-01-18 12:50:36.86	175.17	7.99	-27.0	-28.2	14.1	3.40e-06	0	41	0	61865984	15	4155
2026-01-18 12:50:37.87	175.20	8.07	-26.9	-28.1	14.3	1.48e-05	0	41	0	67108864	15	4123
2026-01-18 12:50:38.88	175.23	8.15	-26.9	-28.1	14.3	2.20e-06	0	41	0	73400320	15	4115
2026-01-18 12:50:39.88	175.27	8.23	-27.3	-28.9	13.8	9.10e-06	0	41	0	78643200	15	4324
2026-01-18 12:50:40.88	175.30	8.31	-27.0	-28.4	14.1	2.28e-05	0	41	0	83886080	15	4185
2026-01-18 12:50:41.88	175.34	8.39	-27.2	-28.6	14.0	6.80e-06	0	41	0	90177536	15	4264
2026-01-18 12:50:42.88	175.37	8.47	-26.9	-28.1	14.3	3.40e-06	0	41	0	95420416	15	4119
2026-01-18 12:50:43.89	175.41	8.55	-26.9	-28.1	14.3	2.20e-06	0	41	0	101711872	15	4098
2026-01-18 12:50:44.89	175.44	8.63	-26.9	-28.0	14.4	0.00e+00	0	41	0	106954752	15	4089
2026-01-18 12:50:45.90	175.48	8.71	-27.2	-28.7	14.0	4.50e-06	0	41	0	112197632	15	4268
2026-01-18 12:50:46.90	175.51	8.79	-27.0	-28.2	14.2	1.10e-06	0	41	0	118489088	15	4148
2026-01-18 12:50:47.91	175.55	8.87	-26.8	-27.8	14.5	2.20e-06	0	41	0	123731968	15	4021
2026-01-18 12:50:48.91	175.58	8.96	-26.9	-28.0	14.4	1.10e-06	0	41	0	128974848	15	4095
2026-01-18 12:50:49.91	175.62	9.04	-26.8	-28.2	14.6	1.10e-06	0	41	0	135266304	14	4239
2026-01-18 12:50:50.91	175.66	9.12	-26.9	-28.6	14.4	0.00e+00	0	41	0	140509184	14	4342
2026-01-18 12:50:51.91	175.69	9.20	-26.8	-28.3	14.5	1.10e-06	0	41	0	146800640	14	4266
2026-01-18 12:50:52.91	175.73	9.29	-26.6	-27.9	14.8	0.00e+00	0	41	0	152043520	14	4149
2026-01-18 12:50:53.92	175.77	9.37	-26.5	-27.5	15.0	0.00e+00	0	41	0	157286400	14	4062
2026-01-18 12:50:54.93	175.80	9.45	-26.6	-27.9	14.8	1.10e-06	0	41	0	163577856	14	4160
2026-01-18 12:50:55.92	175.84	9.54	-26.6	-27.7	14.9	0.00e+00	0	41	0	168820736	14	4113
2026-01-18 12:50:56.93	175.88	9.62	-26.7	-28.0	14.7	0.00e+00	0	41	0	174063616	14	4188
2026-01-18 12:50:57.92	175.91	9.71	-26.6	-27.7	14.9	0.00e+00	0	41	0	180355072	14	4121
2026-01-18 12:50:58.92	175.95	9.79	-26.6	-27.8	14.9	0.00e+00	0	41	0	185597952	14	4131
2026-01-18 12:50:59.92	175.99	9.87	-26.5	-27.7	15.0	1.10e-06	0	41	0	190840832	14	4098
2026-01-18 12:51:00.92	176.03	9.96	-26.7	-28.0	14.7	0.00e+00	0	41	0	197132288	14	4190
2026-01-18 12:51:01.93	176.07	10.05	-26.6	-27.7	14.9	0.00e+00	0	41	0	202375168	14	4116
2026-01-18 12:51:02.93	176.10	10.13	-26.7	-28.0	14.8	0.00e+00	0	41	0	208666624	14	4187
2026-01-18 12:51:03.93	176.14	10.22	-26.6	-27.8	14.9	0.00e+00	0	41	0	213909504	14	4123
2026-01-18 12:51:04.93	176.18	10.30	-26.6	-27.9	14.8	0.00e+00	0	41	0	220200960	14	4158
2026-01-18 12:51:05.93	176.22	10.39	-26.6	-27.9	14.9	0.00e+00	0	41	0	225443840	14	4158
2026-01-18 12:51:06.93	176.26	10.48	-26.6	-27.8	14.9	0.00e+00	0	41	0	230686720	14	4136
2026-01-18 12:51:07.94	176.30	10.57	-26.8	-28.2	14.7	0.00e+00	0	41	0	236978176	14	4235
2026-01-18 12:51:08.94	176.34	10.65	-26.7	-28.0	14.8	0.00e+00	0	41	0	242221056	14	4203
2026-01-18 12:51:09.94	176.38	10.74	-26.8	-28.3	14.7	1.10e-06	0	41	0	247463936	14	4256
2026-01-18 12:51:10.94	176.42	10.83	-26.7	-28.0	14.8	0.00e+00	0	41	0	253755392	14	4197
2026-01-18 12:51:11.94	176.46	10.92	-26.7	-28.0	14.8	0.00e+00	0	41	0	258998272	14	4176
2026-01-18 12:51:12.94	176.50	11.01	-26.7	-28.0	14.8	0.00e+00	0	42	0	264241152	14	4184
2026-01-18 12:51:13.94	176.54	11.10	-26.8	-28.2	14.7	0.00e+00	0	42	0	270532608	14	4229
2026-01-18 12:51:14.95	176.58	11.19	-26.6	-27.9	14.9	1.10e-06	0	42	0	275775488	14	4147
2026-01-18 12:51:15.95	176.62	11.28	-26.6	-27.9	14.9	0.00e+00	0	42	0	282066944	14	4156
2026-01-18 12:51:16.96	176.66	11.37	-26.6	-27.9	14.9	1.10e-06	0	42	0	287309824	14	4159
2026-01-18 12:51:17.96	176.71	11.46	-26.6	-27.9	14.9	0.00e+00	0	42	0	292552704	14	4151
2026-01-18 12:51:18.97	176.75	11.55	-26.6	-27.9	14.9	0.00e+00	0	42	0	298844160	14	4147
2026-01-18 12:51:19.98	176.79	11.64	-26.6	-27.9	14.9	0.00e+00	0	42	0	304087040	14	4151
2026-01-18 12:51:20.98	176.83	11.73	-26.6	-27.7	15.0	1.10e-06	0	41	0	310378496	14	4105
2026-01-18 12:51:21.98	176.88	11.82	-26.6	-27.8	15.0	0.00e+00	0	42	0	315621376	14	4129
2026-01-18 12:51:22.99	176.92	11.92	-26.6	-27.8	15.0	0.00e+00	0	42	0	320864256	14	4127
2026-01-18 12:51:23.98	176.96	12.01	-26.7	-28.0	14.9	0.00e+00	0	42	0	327155712	14	4170
2026-01-18 12:51:24.98	177.01	12.10	-26.6	-27.8	15.0	1.02e-05	0	42	0	332398592	14	4122
2026-01-18 12:51:25.99	177.05	12.19	-26.6	-27.7	15.1	0.00e+00	0	41	0	337641472	14	4109
2026-01-18 12:51:26.99	177.09	12.29	-26.4	-27.4	15.2	0.00e+00	0	42	0	343932928	14	4038
2026-01-18 12:51:28.00	177.14	12.38	-26.5	-27.6	15.1	0.00e+00	0	42	0	349175808	14	4078
2026-01-18 12:51:28.99	177.18	12.48	-26.6	-27.8	15.0	0.00e+00	0	42	0	355467264	14	4142
2026-01-18 12:51:30.00	177.23	12.57	-26.7	-28.0	14.9	0.00e+00	0	42	0	360710144	14	4183
2026-01-18 12:51:31.00	177.27	12.67	-26.6	-27.8	15.0	0.00e+00	0	42	0	365953024	14	4123
2026-01-18 12:51:32.00	177.32	12.76	-26.6	-27.8	15.0	0.00e+00	0	42	0	372244480	14	4135
2026-01-18 12:51:33.00	177.36	12.86	-26.8	-28.2	14.8	0.00e+00	0	42	0	377487360	14	4246
2026-01-18 12:51:34.01	177.41	12.95	-26.7	-27.9	15.0	1.48e-05	0	42	0	382730240	14	4163
2026-01-18 12:51:35.01	177.46	13.05	-26.5	-27.6	15.2	0.00e+00	0	42	0	389021696	14	4083
2026-01-18 12:51:36.01	177.50	13.15	-26.5	-27.6	15.2	0.00e+00	0	42	0	394264576	14	4072
2026-01-18 12:51:37.01	177.55	13.24	-26.6	-27.7	15.1	1.48e-05	0	42	0	399507456	14	4091
2026-01-18 12:51:38.01	177.60	13.34	-26.4	-27.4	15.3	0.00e+00	0	42	0	405798912	14	4010
2026-01-18 12:51:39.02	177.64	13.44	-26.7	-27.9	15.0	0.00e+00	0	42	0	411041792	14	4160
2026-01-18 12:51:40.02	177.69	13.54	-26.4	-27.4	15.3	1.02e-05	0	42	0	417333248	14	4014
2026-01-18 12:51:41.02	177.74	13.63	-26.2	-27.4	15.6	0.00e+00	0	42	0	422576128	13	4128
2026-01-18 12:51:42.02	177.79	13.73	-26.0	-27.0	15.8	0.00e+00	0	42	0	427819008	13	4013
2026-01-18 12:51:43.03	177.84	13.83	-26.1	-27.2	15.7	1.37e-05	0	42	0	434110464	13	4081
2026-01-18 12:51:44.03	177.88	13.93	-26.0	-26.9	15.8	0.00e+00	0	42	0	439353344	13	4012
2026-01-18 12:51:45.04	177.93	14.03	-26.0	-26.9	15.9	0.00e+00	0	42	0	445644800	13	3993
2026-01-18 12:51:46.03	177.98	14.13	-25.9	-26.8	15.9	1.25e-05	0	42	0	450887680	13	3977
2026-01-18 12:51:47.04	178.03	14.24	-25.9	-26.8	15.9	0.00e+00	0	42	0	456130560	13	3973
2026-01-18 12:51:48.04	178.08	14.34	-26.0	-27.0	15.8	0.00e+00	0	42	0	462422016	13	4021
2026-01-18 12:51:49.03	178.13	14.44	-25.9	-26.7	16.0	9.10e-06	0	42	0	467664896	13	3949
2026-01-18 12:51:50.03	178.18	14.54	-25.8	-26.5	16.1	0.00e+00	0	42	0	472907776	13	3902
2026-01-18 12:51:51.04	178.23	14.64	-25.7	-26.8	16.2	0.00e+00	0	42	0	479199232	12	4089
2026-01-18 12:51:52.04	178.29	14.75	-25.7	-26.8	16.2	0.00e+00	0	42	0	484442112	12	4074
2026-01-18 12:51:53.05	178.34	14.85	-25.8	-26.9	16.2	0.00e+00	0	42	0	490733568	12	4099
2026-01-18 12:51:54.05	178.39	14.95	-25.8	-27.0	16.1	0.00e+00	0	42	0	495976448	12	4140
2026-01-18 12:51:55.05	178.44	15.06	-25.6	-26.5	16.4	0.00e+00	0	42	0	501219328	12	4013
2026-01-18 12:51:56.05	178.49	15.16	-25.6	-26.5	16.4	0.00e+00	0	42	0	507510784	12	4006
2026-01-18 12:51:57.05	178.55	15.27	-25.5	-26.4	16.5	0.00e+00	0	42	0	512753664	12	3974
2026-01-18 12:51:58.05	178.60	15.37	-25.7	-26.7	16.3	0.00e+00	0	42	0	517996544	12	4053
2026-01-18 12:51:59.05	178.65	15.48	-25.4	-26.2	16.6	0.00e+00	0	42	0	524288000	12	3934
2026-01-18 12:52:00.05	178.71	15.58	-25.5	-26.3	16.5	0.00e+00	0	42	0	529530880	12	3953
2026-01-18 12:52:01.06	178.76	15.69	-25.6	-26.5	16.4	0.00e+00	0	42	0	534773760	12	4014
2026-01-18 12:52:02.06	178.82	15.80	-25.4	-26.2	16.6	0.00e+00	0	42	0	541065216	12	3920
2026-01-18 12:52:03.07	178.87	15.91	-25.3	-26.0	16.7	0.00e+00	0	42	0	546308096	12	3882
2026-01-18 12:52:04.07	178.93	16.02	-25.3	-25.9	16.8	0.00e+00	0	42	0	552599552	12	3852
2026-01-18 12:52:05.08	178.99	16.13	-25.3	-26.4	16.8	0.00e+00	0	42	0	557842432	11	4080
2026-01-18 12:52:06.08	179.04	16.23	-25.4	-26.7	16.7	0.00e+00	0	42	0	564133888	11	4161
2026-01-18 12:52:07.09	179.10	16.35	-25.3	-26.3	16.9	0.00e+00	0	42	0	569376768	11	4054
2026-01-18 12:52:08.09	179.16	16.46	-25.2	-26.1	17.0	0.00e+00	0	42	0	574619648	11	4012
2026-01-18 12:52:09.10	179.21	16.57	-25.2	-26.2	16.9	0.00e+00	0	42	0	580911104	11	4030
2026-01-18 12:52:10.10	179.27	16.68	-25.4	-26.5	16.8	0.00e+00	0	42	0	586153984	11	4120
2026-01-18 12:52:11.11	179.33	16.79	-25.6	-26.9	16.5	0.00e+00	0	42	0	591396864	11	4227
2026-01-18 12:52:12.11	179.39	16.90	-25.3	-26.3	16.9	0.00e+00	0	42	0	597688320	11	4066
2026-01-18 12:52:13.11	179.45	17.01	-25.3	-26.3	16.9	0.00e+00	0	42	0	602931200	11	4067
2026-01-18 12:52:14.11	179.51	17.13	-25.3	-26.3	16.9	0.00e+00	0	42	0	608174080	11	4070
2026-01-18 12:52:15.11	179.57	17.24	-25.5	-26.8	16.7	0.00e+00	0	42	0	614465536	11	4189
2026-01-18 12:52:16.12	179.63	17.36	-25.3	-26.4	16.9	0.00e+00	0	42	0	619708416	11	4081
2026-01-18 12:52:17.13	179.69	17.47	-25.2	-26.1	17.0	0.00e+00	0	42	0	625999872	11	4012
2026-01-18 12:52:18.13	179.75	17.59	-25.1	-25.9	17.1	0.00e+00	0	42	0	631242752	11	3969
2026-01-18 12:52:19.14	179.81	17.70	-25.2	-26.2	17.0	0.00e+00	0	42	0	637534208	11	4028
2026-01-18 12:52:20.14	179.87	17.82	-25.2	-26.1	17.0	0.00e+00	0	42	0	642777088	11	4009
2026-01-18 12:52:21.14	179.94	17.93	-25.4	-26.6	16.8	0.00e+00	0	42	0	648019968	11	4125
2026-01-18 12:52:22.15	180.00	18.05	-25.1	-25.9	17.1	0.00e+00	0	42	0	654311424	11	3967
2026-01-18 12:52:23.15	180.06	18.17	-24.9	-25.5	17.4	0.00e+00	0	42	0	659554304	11	3868
2026-01-18 12:52:24.15	180.13	18.29	-24.9	-25.5	17.4	0.00e+00	0	42	0	664797184	11	3854
2026-01-18 12:52:25.15	180.19	18.41	-24.8	-25.4	17.4	0.00e+00	0	42	0	671088640	11	3849
2026-01-18 12:52:26.16	180.26	18.53	-24.7	-25.7	17.5	0.00e+00	0	42	0	676331520	10	4025
2026-01-18 12:52:27.16	180.32	18.65	-24.7	-25.7	17.5	0.00e+00	0	42	0	681574400	10	4024
2026-01-18 12:52:28.16	180.39	18.77	-24.7	-25.6	17.6	0.00e+00	0	42	0	687865856	10	3985
2026-01-18 12:52:29.17	180.46	18.89	-24.6	-25.5	17.7	0.00e+00	0	42	0	693108736	10	3961
2026-01-18 12:52:30.17	180.52	19.01	-24.7	-25.6	17.6	0.00e+00	0	42	0	699400192	10	3996
2026-01-18 12:52:31.17	180.59	19.13	-24.6	-25.4	17.7	0.00e+00	0	42	0	704643072	10	3934
2026-01-18 12:52:32.18	180.66	19.26	-24.5	-25.2	17.8	0.00e+00	0	42	0	709885952	10	3903
2026-01-18 12:52:33.17	180.73	19.38	-24.6	-25.4	17.7	1.10e-06	0	42	0	716177408	10	3936
2026-01-18 12:52:34.18	180.80	19.50	-24.5	-25.2	17.8	0.00e+00	0	42	0	721420288	10	3895
2026-01-18 12:52:35.18	180.87	19.63	-24.5	-25.2	17.8	0.00e+00	0	42	0	727711744	10	3897
2026-01-18 12:52:36.19	180.94	19.75	-24.6	-25.5	17.7	2.20e-06	0	42	0	732954624	10	3966
2026-01-18 12:52:37.18	181.01	19.88	-24.8	-25.8	17.5	0.00e+00	0	42	0	738197504	10	4035
2026-01-18 12:52:38.19	181.08	20.00	-24.5	-25.2	17.9	0.00e+00	0	42	0	744488960	10	3890
2026-01-18 12:52:39.19	181.15	20.13	-24.3	-24.9	18.0	0.00e+00	0	42	0	749731840	10	3816
2026-01-18 12:52:40.20	181.22	20.26	-24.3	-24.8	18.1	0.00e+00	0	42	0	754974720	10	3805
2026-01-18 12:52:41.21	181.30	20.39	-24.4	-24.9	18.0	0.00e+00	0	42	0	761266176	10	3826
2026-01-18 12:52:42.21	181.37	20.52	-24.2	-25.1	18.1	2.20e-06	0	42	0	766509056	9	3981
2026-01-18 12:52:43.21	181.44	20.64	-24.3	-25.2	18.1	0.00e+00	0	42	0	772800512	9	3995
2026-01-18 12:52:44.21	181.52	20.77	-24.2	-25.1	18.2	0.00e+00	0	42	0	778043392	9	3976
2026-01-18 12:52:45.21	181.59	20.90	-24.2	-25.1	18.2	0.00e+00	0	42	0	783286272	9	3981
2026-01-18 12:52:46.22	181.67	21.04	-24.2	-25.1	18.2	0.00e+00	0	42	0	789577728	9	3980
2026-01-18 12:52:47.22	181.75	21.17	-24.3	-25.2	18.1	0.00e+00	0	42	0	794820608	9	4009
2026-01-18 12:52:48.22	181.82	21.30	-24.5	-25.6	18.0	0.00e+00	0	42	0	800063488	9	4091
2026-01-18 12:52:49.23	181.90	21.43	-24.5	-25.7	17.9	0.00e+00	0	43	0	806354944	9	4113
2026-01-18 12:52:50.23	181.98	21.57	-24.4	-25.4	18.0	0.00e+00	0	42	0	811597824	9	4059
2026-01-18 12:52:51.23	182.06	21.70	-24.4	-25.4	18.1	0.00e+00	0	42	0	817889280	9	4053
2026-01-18 12:52:52.23	182.14	21.84	-24.4	-25.4	18.0	0.00e+00	0	42	0	823132160	9	4061
2026-01-18 12:52:53.23	182.22	21.97	-24.3	-25.1	18.2	0.00e+00	0	43	0	828375040	9	3980
2026-01-18 12:52:54.22	182.30	22.11	-24.2	-25.1	18.2	0.00e+00	0	43	0	834666496	9	3978
2026-01-18 12:52:55.22	182.38	22.24	-24.3	-25.2	18.2	0.00e+00	0	42	0	839909376	9	4008
2026-01-18 12:52:56.23	182.46	22.38	-24.2	-25.1	18.2	0.00e+00	0	42	0	846200832	9	3963
2026-01-18 12:52:57.23	182.55	22.52	-24.3	-25.2	18.2	2.20e-06	0	42	0	851443712	9	3992
2026-01-18 12:52:58.24	182.63	22.66	-24.1	-24.7	18.4	0.00e+00	0	42	0	856686592	9	3879
2026-01-18 12:52:59.25	182.72	22.80	-23.9	-24.5	18.6	0.00e+00	0	42	0	862978048	9	3820
2026-01-18 12:53:00.25	182.80	22.94	-23.9	-24.4	18.6	0.00e+00	0	42	0	868220928	9	3814
2026-01-18 12:53:01.26	182.89	23.09	-24.0	-24.6	18.5	0.00e+00	0	43	0	873463808	9	3856
2026-01-18 12:53:02.26	182.97	23.23	-24.0	-24.5	18.6	0.00e+00	0	42	0	879755264	9	3833
2026-01-18 12:53:03.26	183.06	23.37	-24.0	-24.5	18.6	0.00e+00	0	42	0	884998144	9	3833
2026-01-18 12:53:04.26	183.15	23.51	-24.0	-24.6	18.5	0.00e+00	0	43	0	891289600	9	3864
2026-01-18 12:53:05.26	183.24	23.66	-23.9	-24.5	18.6	0.00e+00	0	42	0	896532480	9	3822
2026-01-18 12:53:06.26	183.33	23.80	-24.0	-24.5	18.5	0.00e+00	0	42	0	901775360	9	3833
2026-01-18 12:53:07.26	183.42	23.95	-24.0	-24.6	18.5	0.00e+00	0	43	0	908066816	9	3846
2026-01-18 12:53:08.26	183.51	24.09	-24.1	-24.7	18.5	0.00e+00	0	42	0	913309696	9	3889
2026-01-18 12:53:09.27	183.60	24.24	-24.0	-24.5	18.6	0.00e+00	0	42	0	918552576	9	3835
2026-01-18 12:53:10.27	183.70	24.39	-24.0	-24.6	18.6	0.00e+00	0	42	0	924844032	9	3846
2026-01-18 12:53:11.27	183.79	24.54	-24.0	-24.6	18.5	0.00e+00	0	42	0	930086912	9	3850
2026-01-18 12:53:12.27	183.88	24.69	-24.1	-24.8	18.5	0.00e+00	0	43	0	935329792	9	3887
2026-01-18 12:53:13.28	183.98	24.84	-23.8	-24.2	18.8	0.00e+00	0	42	0	941621248	9	3754
2026-01-18 12:53:14.29	184.08	24.99	-23.7	-24.5	18.8	0.00e+00	0	42	0	946864128	8	3941
2026-01-18 12:53:15.29	184.18	25.14	-23.8	-24.7	18.7	0.00e+00	0	42	0	953155584	8	3982
2026-01-18 12:53:16.29	184.27	25.29	-24.0	-25.1	18.5	0.00e+00	0	42	0	958398464	8	4087
2026-01-18 12:53:17.30	184.37	25.45	-24.1	-25.3	18.5	0.00e+00	0	42	0	964689920	8	4133
2026-01-18 12:53:18.29	184.47	25.60	-23.9	-24.9	18.6	0.00e+00	0	43	0	969932800	8	4038
2026-01-18 12:53:19.29	184.57	25.75	-23.9	-24.8	18.7	0.00e+00	0	43	0	975175680	8	4004
2026-01-18 12:53:20.30	184.68	25.91	-23.8	-24.7	18.8	0.00e+00	0	43	0	981467136	8	3982
2026-01-18 12:53:21.30	184.78	26.07	-23.7	-24.4	18.9	0.00e+00	0	43	0	986710016	8	3918
2026-01-18 12:53:22.31	184.88	26.23	-23.7	-24.4	18.9	0.00e+00	0	42	0	991952896	8	3922
2026-01-18 12:53:23.31	184.99	26.38	-23.5	-24.0	19.1	0.00e+00	0	42	0	998244352	8	3822
2026-01-18 12:53:24.31	185.10	26.54	-23.4	-23.8	19.2	0.00e+00	0	43	0	1003487232	8	3774
2026-01-18 12:53:25.31	185.20	26.70	-23.4	-23.8	19.3	0.00e+00	0	43	0	1008730112	8	3770
2026-01-18 12:53:26.32	185.31	26.87	-23.4	-23.7	19.3	0.00e+00	0	42	0	1015021568	8	3748
2026-01-18 12:53:27.32	185.42	27.03	-23.5	-23.9	19.2	0.00e+00	0	43	0	1020264448	8	3802
2026-01-18 12:53:28.32	185.53	27.19	-23.7	-24.4	19.0	0.00e+00	0	43	0	1026555904	8	3903
2026-01-18 12:53:29.33	185.64	27.35	-23.7	-24.4	18.9	0.00e+00	0	42	0	1031798784	8	3921
2026-01-18 12:53:30.34	185.76	27.52	-23.7	-24.4	18.9	0.00e+00	0	43	0	1038090240	8	3918
2026-01-18 12:53:31.34	185.87	27.68	-23.8	-24.5	18.9	0.00e+00	0	42	0	1043333120	8	3941
2026-01-18 12:53:32.34	185.99	27.85	-23.8	-24.7	18.8	0.00e+00	0	43	0	1048576000	8	3979
2026-01-18 12:53:33.35	186.10	28.02	-23.8	-24.6	18.9	0.00e+00	0	42	0	1054867456	8	3965
2026-01-18 12:53:34.35	186.22	28.19	-23.8	-24.7	18.8	0.00e+00	0	43	0	1060110336	8	3981
2026-01-18 12:53:35.36	186.34	28.36	-23.7	-24.5	18.9	0.00e+00	0	43	0	1065353216	8	3948
2026-01-18 12:53:36.37	186.46	28.53	-23.6	-24.2	19.1	0.00e+00	0	42	0	1071644672	8	3852
2026-01-18 12:53:37.37	186.58	28.70	-23.5	-24.1	19.1	0.00e+00	0	42	0	1076887552	8	3845
2026-01-18 12:53:38.37	186.70	28.87	-23.6	-24.3	19.1	1.10e-06	0	43	0	1082130432	8	3876
2026-01-18 12:53:39.38	186.83	29.04	-23.7	-24.5	19.0	0.00e+00	0	42	0	1088421888	8	3927
2026-01-18 12:53:40.37	186.95	29.21	-23.8	-24.6	18.9	0.00e+00	0	43	0	1093664768	8	3956
2026-01-18 12:53:41.37	187.07	29.39	-23.9	-24.8	18.8	0.00e+00	0	43	0	1099956224	8	4012
2026-01-18 12:53:42.37	187.20	29.56	-23.8	-24.8	18.8	0.00e+00	0	42	0	1105199104	8	3997
2026-01-18 12:53:43.37	187.33	29.74	-23.8	-24.7	18.9	0.00e+00	0	43	0	1110441984	8	3977
2026-01-18 12:53:44.37	187.46	29.91	-23.8	-24.7	18.9	0.00e+00	0	43	0	1116733440	8	3978
2026-01-18 12:53:45.38	187.59	30.09	-23.9	-24.8	18.8	0.00e+00	0	42	0	1121976320	8	3998
2026-01-18 12:53:46.38	187.73	30.27	-23.6	-24.2	19.1	0.00e+00	0	43	0	1128267776	8	3867
2026-01-18 12:53:47.39	187.86	30.45	-23.6	-24.2	19.1	0.00e+00	0	43	0	1133510656	8	3856
2026-01-18 12:53:48.40	188.00	30.64	-23.7	-24.4	19.0	0.00e+00	0	42	0	1138753536	8	3903
2026-01-18 12:53:49.41	188.14	30.82	-23.7	-24.4	19.0	0.00e+00	0	42	0	1145044992	8	3917
2026-01-18 12:53:50.40	188.27	31.00	-23.7	-24.5	19.0	0.00e+00	0	43	0	1150287872	8	3942
2026-01-18 12:53:51.41	188.41	31.19	-23.7	-24.5	18.9	0.00e+00	0	43	0	1155530752	8	3947
2026-01-18 12:53:52.41	188.56	31.37	-23.6	-24.2	19.1	0.00e+00	0	43	0	1161822208	8	3860
2026-01-18 12:53:53.41	188.70	31.55	-23.5	-24.1	19.2	0.00e+00	0	43	0	1167065088	8	3844
2026-01-18 12:53:54.41	188.84	31.74	-23.5	-24.0	19.2	0.00e+00	0	42	0	1173356544	8	3826
2026-01-18 12:53:55.41	188.99	31.93	-23.4	-23.9	19.3	0.00e+00	0	42	0	1178599424	8	3792
2026-01-18 12:53:56.42	189.14	32.12	-23.5	-24.0	19.2	0.00e+00	0	42	0	1183842304	8	3825
2026-01-18 12:53:57.41	189.29	32.31	-23.5	-24.1	19.2	0.00e+00	0	42	0	1190133760	8	3834
2026-01-18 12:53:58.41	189.44	32.50	-23.6	-24.2	19.1	0.00e+00	0	43	0	1195376640	8	3866
2026-01-18 12:53:59.42	189.59	32.69	-23.6	-24.3	19.1	0.00e+00	0	43	0	1200619520	8	3888
2026-01-18 12:54:00.43	189.75	32.88	-23.6	-24.1	19.1	0.00e+00	0	43	0	1206910976	8	3854
2026-01-18 12:54:01.43	189.91	33.08	-23.5	-24.0	19.2	0.00e+00	0	43	0	1212153856	8	3822
2026-01-18 12:54:02.43	190.07	33.27	-23.5	-24.0	19.2	0.00e+00	0	42	0	1218445312	8	3827
2026-01-18 12:54:03.44	190.23	33.47	-23.7	-24.4	19.1	0.00e+00	0	43	0	1223688192	8	3901
2026-01-18 12:54:04.45	190.39	33.67	-23.7	-24.4	19.0	0.00e+00	0	43	0	1228931072	8	3906
2026-01-18 12:54:05.45	190.56	33.87	-23.6	-24.2	19.2	0.00e+00	0	42	0	1235222528	8	3860
2026-01-18 12:54:06.45	190.72	34.06	-23.6	-24.3	19.1	0.00e+00	0	42	0	1240465408	8	3885
2026-01-18 12:54:07.45	190.89	34.26	-23.7	-24.4	19.0	0.00e+00	0	43	0	1246756864	8	3923
2026-01-18 12:54:08.46	191.06	34.47	-23.6	-24.2	19.2	0.00e+00	0	43	0	1251999744	8	3864
2026-01-18 12:54:09.46	191.24	34.67	-23.6	-24.2	19.2	0.00e+00	0	42	0	1257242624	8	3861
2026-01-18 12:54:10.46	191.41	34.87	-23.6	-24.2	19.2	0.00e+00	0	43	0	1263534080	8	3854
2026-01-18 12:54:11.47	191.59	35.08	-23.7	-24.5	19.0	0.00e+00	0	43	0	1268776960	8	3922
2026-01-18 12:54:12.47	191.77	35.28	-23.9	-24.8	18.9	0.00e+00	0	42	0	1274019840	8	4008
2026-01-18 12:54:13.47	191.95	35.49	-23.5	-24.1	19.2	0.00e+00	0	43	0	1280311296	8	3837
2026-01-18 12:54:14.47	192.13	35.69	-23.3	-23.7	19.4	0.00e+00	0	43	0	1285554176	8	3744
2026-01-18 12:54:15.47	192.32	35.90	-23.3	-23.6	19.5	0.00e+00	0	43	0	1290797056	8	3720
2026-01-18 12:54:16.48	192.51	36.11	-23.2	-24.0	19.5	0.00e+00	0	43	0	1297088512	7	3914
2026-01-18 12:54:17.48	192.70	36.32	-23.1	-23.8	19.6	0.00e+00	0	43	0	1302331392	7	3868
2026-01-18 12:54:18.47	192.89	36.53	-23.1	-23.7	19.7	0.00e+00	0	43	0	1308622848	7	3854
2026-01-18 12:54:19.48	193.09	36.74	-23.2	-23.8	19.6	0.00e+00	0	43	0	1313865728	7	3888
2026-01-18 12:54:20.48	193.28	36.96	-23.1	-23.7	19.7	0.00e+00	0	43	0	1320157184	7	3852
2026-01-18 12:54:21.49	193.49	37.17	-23.0	-23.5	19.8	0.00e+00	0	43	0	1325400064	7	3800
2026-01-18 12:54:22.49	193.69	37.39	-23.0	-23.6	19.7	0.00e+00	0	43	0	1330642944	7	3827
2026-01-18 12:54:23.49	193.89	37.60	-23.0	-23.4	19.8	0.00e+00	0	43	0	1336934400	7	3788
2026-01-18 12:54:24.50	194.10	37.82	-22.9	-23.3	19.9	0.00e+00	0	43	0	1342177280	7	3756
2026-01-18 12:54:25.51	194.32	38.04	-22.9	-23.3	19.9	0.00e+00	0	43	0	1347420160	7	3755
2026-01-18 12:54:26.51	194.53	38.26	-23.0	-23.4	19.8	0.00e+00	0	43	0	1353711616	7	3779
2026-01-18 12:54:27.52	194.75	38.48	-23.1	-23.6	19.8	0.00e+00	0	43	0	1358954496	7	3820
2026-01-18 12:54:28.52	194.97	38.70	-23.1	-23.7	19.7	0.00e+00	0	43	0	1364197376	7	3845
2026-01-18 12:54:29.53	195.19	38.93	-23.0	-23.5	19.8	0.00e+00	0	43	0	1370488832	7	3802
2026-01-18 12:54:30.53	195.42	39.15	-23.1	-23.6	19.8	0.00e+00	0	43	0	1375731712	7	3832
2026-01-18 12:54:31.53	195.65	39.37	-23.2	-23.9	19.6	0.00e+00	0	43	0	1382023168	7	3888
2026-01-18 12:54:32.53	195.88	39.60	-23.2	-23.9	19.6	0.00e+00	0	43	0	1387266048	7	3897
2026-01-18 12:54:33.53	196.11	39.82	-23.1	-23.7	19.7	0.00e+00	0	43	0	1393557504	7	3842
2026-01-18 12:54:34.54	196.35	40.05	-23.0	-23.4	19.9	0.00e+00	0	43	0	1398800384	7	3779
2026-01-18 12:54:35.54	196.60	40.28	-23.1	-23.6	19.8	0.00e+00	0	43	0	1404043264	7	3835
2026-01-18 12:54:36.55	196.84	40.51	-23.2	-23.8	19.7	0.00e+00	0	43	0	1410334720	7	3871
2026-01-18 12:54:37.55	197.09	40.74	-23.1	-23.7	19.7	0.00e+00	0	43	0	1415577600	7	3857
2026-01-18 12:54:38.56	197.34	40.97	-23.2	-24.0	19.6	0.00e+00	0	43	0	1420820480	7	3911
2026-01-18 12:54:39.56	197.60	41.20	-23.2	-23.9	19.6	0.00e+00	0	43	0	1427111936	7	3888
2026-01-18 12:54:40.57	197.86	41.44	-23.2	-23.9	19.7	0.00e+00	0	43	0	1432354816	7	3891
2026-01-18 12:54:41.57	198.12	41.67	-23.3	-24.0	19.6	0.00e+00	0	43	0	1437597696	7	3923
2026-01-18 12:54:42.57	198.39	41.90	-23.3	-24.1	19.5	0.00e+00	0	43	0	1443889152	7	3943
2026-01-18 12:54:43.58	198.66	42.14	-23.3	-24.2	19.5	1.10e-06	0	43	0	1449132032	7	3965
2026-01-18 12:54:44.58	198.94	42.37	-23.3	-24.1	19.5	0.00e+00	0	43	0	1455423488	7	3957
2026-01-18 12:54:45.58	199.22	42.61	-23.4	-24.2	19.5	0.00e+00	0	43	0	1460666368	7	3971
2026-01-18 12:54:46.58	199.50	42.85	-23.3	-24.0	19.6	0.00e+00	0	43	0	1466957824	7	3927
2026-01-18 12:54:47.58	199.78	43.08	-23.2	-23.9	19.7	0.00e+00	0	43	0	1472200704	7	3887
2026-01-18 12:54:48.59	200.08	43.32	-23.2	-23.8	19.7	0.00e+00	0	43	0	1477443584	7	3864
2026-01-18 12:54:49.59	200.37	43.56	-23.2	-24.0	19.6	0.00e+00	0	43	0	1483735040	7	3906
2026-01-18 12:54:50.59	200.67	43.80	-23.5	-24.5	19.4	0.00e+00	0	43	0	1488977920	7	4041
2026-01-18 12:54:51.59	200.97	44.04	-23.6	-24.8	19.2	0.00e+00	0	43	0	1494220800	7	4116
2026-01-18 12:54:52.60	201.29	44.29	-23.6	-24.7	19.3	0.00e+00	0	43	0	1500512256	7	4079
2026-01-18 12:54:53.61	201.60	44.53	-23.4	-24.3	19.5	0.00e+00	0	43	0	1505755136	7	3996
2026-01-18 12:54:54.61	201.92	44.77	-23.4	-24.3	19.5	0.00e+00	0	43	0	1510998016	7	3985
2026-01-18 12:54:55.61	202.24	45.01	-23.4	-24.3	19.5	0.00e+00	0	43	0	1517289472	7	3988
2026-01-18 12:54:56.61	202.57	45.26	-23.4	-24.3	19.5	0.00e+00	0	43	0	1522532352	7	3989
2026-01-18 12:54:57.61	202.90	45.50	-23.4	-24.3	19.5	0.00e+00	0	43	0	1528823808	7	3984
2026-01-18 12:54:58.61	203.24	45.74	-23.4	-24.2	19.5	0.00e+00	0	43	0	1534066688	7	3976
2026-01-18 12:54:59.61	203.58	45.99	-23.3	-24.1	19.6	0.00e+00	0	43	0	1539309568	7	3949
2026-01-18 12:55:00.62	203.93	46.23	-23.3	-24.2	19.6	0.00e+00	0	43	0	1545601024	7	3956
2026-01-18 12:55:01.62	204.28	46.48	-23.4	-24.4	19.5	1.10e-06	0	43	0	1550843904	7	4003
2026-01-18 12:55:02.63	204.65	46.73	-23.4	-24.2	19.6	0.00e+00	0	43	0	1557135360	7	3970
2026-01-18 12:55:03.63	205.01	46.97	-23.2	-23.8	19.8	0.00e+00	0	43	0	1562378240	7	3859
2026-01-18 12:55:04.64	205.38	47.22	-23.3	-24.0	19.7	0.00e+00	0	43	0	1567621120	7	3926
2026-01-18 12:55:05.65	205.76	47.47	-23.4	-24.2	19.6	0.00e+00	0	43	0	1573912576	7	3968
2026-01-18 12:55:06.65	206.15	47.71	-23.5	-24.5	19.5	0.00e+00	0	43	0	1579155456	7	4024
2026-01-18 12:55:07.65	206.53	47.96	-23.5	-24.4	19.5	0.00e+00	0	43	0	1584398336	7	4007
2026-01-18 12:55:08.65	206.93	48.20	-23.5	-24.5	19.4	0.00e+00	0	43	0	1590689792	7	4045
2026-01-18 12:55:09.65	207.33	48.45	-23.8	-25.1	19.1	0.00e+00	0	43	0	1595932672	7	4185
2026-01-18 12:55:10.66	207.74	48.70	-23.7	-25.0	19.2	0.00e+00	0	43	0	1602224128	7	4169
2026-01-18 12:55:11.66	208.15	48.94	-23.7	-24.9	19.3	0.00e+00	0	43	0	1607467008	7	4130
2026-01-18 12:55:12.66	208.57	49.19	-23.9	-25.4	19.0	0.00e+00	0	43	0	1612709888	7	4255
2026-01-18 12:55:13.67	209.00	49.43	-24.0	-25.1	18.9	0.00e+00	0	43	0	1619001344	8	4085
2026-01-18 12:55:14.67	209.43	49.68	-24.1	-25.2	18.9	0.00e+00	0	43	0	1624244224	8	4095
2026-01-18 12:55:15.67	209.87	49.92	-23.9	-24.8	19.1	0.00e+00	0	43	0	1629487104	8	4001
2026-01-18 12:55:16.68	210.32	50.17	-23.8	-24.6	19.2	0.00e+00	0	43	0	1635778560	8	3936
2026-01-18 12:55:17.68	210.78	50.41	-24.2	-25.4	18.8	0.00e+00	0	43	0	1641021440	8	4139
2026-01-18 12:55:18.69	211.25	50.66	-24.1	-25.2	18.9	0.00e+00	0	43	0	1647312896	8	4090
2026-01-18 12:55:19.69	211.71	50.90	-23.9	-24.7	19.3	0.00e+00	0	43	0	1652555776	8	3960
2026-01-18 12:55:20.69	212.19	51.14	-23.6	-24.1	19.6	0.00e+00	0	43	0	1658847232	8	3817
2026-01-18 12:55:21.68	212.67	51.38	-23.6	-24.1	19.6	0.00e+00	0	43	0	1664090112	8	3818
2026-01-18 12:55:22.69	213.17	51.62	-23.8	-24.5	19.4	0.00e+00	0	43	0	1669332992	8	3909
2026-01-18 12:55:23.68	213.66	51.85	-24.1	-25.1	19.1	0.00e+00	0	43	0	1675624448	8	4059
2026-01-18 12:55:24.69	214.17	52.09	-24.2	-25.3	19.0	0.00e+00	0	43	0	1680867328	8	4116
2026-01-18 12:55:25.70	214.69	52.33	-24.3	-25.6	18.8	0.00e+00	0	43	0	1686110208	8	4185
2026-01-18 12:55:26.70	215.22	52.57	-24.0	-25.0	19.2	0.00e+00	0	43	0	1692401664	8	4021
2026-01-18 12:55:27.71	215.76	52.80	-23.6	-24.2	19.6	0.00e+00	0	43	0	1697644544	8	3841
2026-01-18 12:55:28.71	216.30	53.03	-23.9	-24.7	19.3	0.00e+00	0	43	0	1702887424	8	3954
2026-01-18 12:55:29.71	216.85	53.26	-24.2	-25.3	19.0	0.00e+00	0	43	0	1709178880	8	4116
2026-01-18 12:55:30.71	217.40	53.49	-24.2	-25.4	18.9	0.00e+00	0	43	0	1714421760	8	4142
2026-01-18 12:55:31.72	217.98	53.72	-24.1	-25.1	19.1	0.00e+00	0	43	0	1720713216	8	4049
2026-01-18 12:55:32.72	218.55	53.95	-24.1	-25.1	19.1	0.00e+00	0	43	0	1725956096	8	4057
2026-01-18 12:55:33.73	219.14	54.17	-24.2	-25.4	19.0	0.00e+00	0	43	0	1732247552	8	4131
2026-01-18 12:55:34.74	219.74	54.39	-24.2	-25.5	18.9	0.00e+00	0	43	0	1737490432	8	4156
2026-01-18 12:55:35.74	220.34	54.61	-24.4	-25.7	18.8	0.00e+00	0	43	0	1742733312	8	4217
2026-01-18 12:55:36.74	220.96	54.83	-24.7	-25.9	18.5	0.00e+00	0	43	0	1749024768	9	4154
2026-01-18 12:55:37.74	221.58	55.04	-24.6	-25.6	18.6	0.00e+00	0	43	0	1754267648	9	4074
2026-01-18 12:55:38.73	222.20	55.25	-24.4	-25.3	18.8	0.00e+00	0	43	0	1759510528	9	3986
2026-01-18 12:55:39.74	222.85	55.47	-24.4	-25.4	18.8	0.00e+00	0	43	0	1765801984	9	4003
2026-01-18 12:55:40.74	223.50	55.67	-24.8	-26.1	18.3	0.00e+00	0	43	0	1771044864	9	4195
2026-01-18 12:55:41.75	224.16	55.88	-25.1	-26.4	18.0	0.00e+00	0	43	0	1776287744	10	4161
2026-01-18 12:55:42.76	224.84	56.08	-24.8	-25.7	18.3	0.00e+00	0	43	0	1782579200	10	3994
2026-01-18 12:55:43.76	225.52	56.28	-24.0	-24.5	19.2	0.00e+00	0	43	0	1787822080	9	3803
2026-01-18 12:55:44.77	226.21	56.47	-23.8	-24.0	19.4	0.00e+00	0	43	0	1794113536	9	3693
2026-01-18 12:55:45.77	226.91	56.67	-24.0	-24.4	19.2	0.00e+00	0	43	0	1799356416	9	3788
2026-01-18 12:55:46.78	227.62	56.86	-24.1	-24.7	19.1	0.00e+00	0	43	0	1804599296	9	3858
2026-01-18 12:55:47.77	228.33	57.04	-24.2	-24.9	19.0	0.00e+00	0	43	0	1810890752	9	3904
2026-01-18 12:55:48.78	229.07	57.22	-24.3	-25.1	18.9	0.00e+00	0	43	0	1816133632	9	3958
2026-01-18 12:55:49.78	229.80	57.40	-24.2	-25.0	18.9	0.00e+00	0	43	0	1822425088	9	3920
2026-01-18 12:55:50.79	230.55	57.57	-23.9	-24.3	19.3	0.00e+00	0	43	0	1827667968	9	3765
2026-01-18 12:55:51.79	231.31	57.74	-24.1	-24.6	19.2	0.00e+00	0	43	0	1832910848	9	3819
2026-01-18 12:55:52.79	232.07	57.90	-24.2	-25.0	18.9	0.00e+00	0	43	0	1839202304	9	3933
2026-01-18 12:55:53.79	232.85	58.06	-24.2	-25.0	19.0	0.00e+00	0	43	0	1844445184	9	3917
2026-01-18 12:55:54.80	233.64	58.22	-23.9	-24.4	19.3	0.00e+00	0	43	0	1849688064	9	3772
2026-01-18 12:55:55.81	234.43	58.37	-23.8	-24.0	19.5	0.00e+00	0	43	0	1855979520	9	3698
2026-01-18 12:55:56.81	235.23	58.52	-23.9	-24.3	19.3	0.00e+00	0	43	0	1861222400	9	3753
2026-01-18 12:55:57.82	236.05	58.66	-23.8	-24.1	19.4	0.00e+00	0	43	0	1867513856	9	3708
2026-01-18 12:55:58.82	236.87	58.80	-23.7	-24.3	19.6	0.00e+00	0	43	0	1872756736	8	3873
2026-01-18 12:55:59.83	237.70	58.93	-23.9	-24.7	19.4	0.00e+00	0	43	0	1879048192	8	3971
2026-01-18 12:56:00.84	238.54	59.06	-23.8	-24.6	19.4	0.00e+00	0	43	0	1884291072	8	3933
2026-01-18 12:56:01.84	239.39	59.18	-23.7	-24.4	19.6	0.00e+00	0	43	0	1889533952	8	3884
2026-01-18 12:56:02.85	240.24	59.29	-24.0	-24.9	19.3	0.00e+00	0	43	0	1895825408	8	4015
2026-01-18 12:56:03.86	241.11	59.40	-23.9	-24.8	19.3	0.00e+00	0	43	0	1901068288	8	3985
2026-01-18 12:56:04.86	241.97	59.51	-23.8	-24.6	19.4	0.00e+00	0	43	0	1906311168	8	3945
2026-01-18 12:56:05.85	242.83	59.61	-23.8	-24.6	19.4	0.00e+00	0	43	0	1912602624	8	3936
2026-01-18 12:56:06.85	243.71	59.70	-23.5	-23.9	19.8	0.00e+00	0	43	0	1917845504	8	3770
2026-01-18 12:56:07.86	244.60	59.79	-23.5	-24.0	19.7	0.00e+00	0	43	0	1923088384	8	3800
2026-01-18 12:56:08.85	245.48	59.87	-23.8	-24.5	19.5	0.00e+00	0	43	0	1929379840	8	3912
2026-01-18 12:56:09.86	246.38	59.94	-23.6	-24.2	19.6	0.00e+00	0	43	0	1934622720	8	3840
2026-01-18 12:56:10.86	247.28	60.01	-23.6	-24.1	19.7	0.00e+00	0	43	0	1940914176	8	3814
2026-01-18 12:56:11.86	248.18	60.07	-24.2	-25.5	19.0	0.00e+00	0	43	0	1946157056	8	4158
2026-01-18 12:56:12.87	249.10	60.13	-24.3	-25.6	18.9	0.00e+00	0	43	0	1951399936	8	4195
2026-01-18 12:56:13.86	250.00	60.18	-24.3	-25.6	18.9	0.00e+00	0	43	0	1957691392	8	4176
2026-01-18 12:56:14.86	250.91	60.22	-24.2	-25.4	19.0	0.00e+00	0	43	0	1962934272	8	4139
2026-01-18 12:56:15.86	251.83	60.26	-23.9	-24.7	19.4	0.00e+00	0	43	0	1968177152	8	3952
2026-01-18 12:56:16.86	252.75	60.29	-23.5	-23.9	19.8	0.00e+00	0	43	0	1974468608	8	3761
2026-01-18 12:56:17.86	253.67	60.31	-23.7	-24.4	19.6	0.00e+00	0	43	0	1979711488	8	3895
2026-01-18 12:56:18.87	254.60	60.33	-23.9	-24.8	19.3	0.00e+00	0	43	0	1984954368	8	3998
2026-01-18 12:56:19.87	255.52	60.34	-23.8	-24.5	19.5	0.00e+00	0	43	0	1991245824	8	3908
2026-01-18 12:56:20.87	256.45	60.34	-23.5	-23.9	19.8	0.00e+00	0	43	0	1996488704	8	3769
2026-01-18 12:56:21.87	257.37	60.34	-23.4	-23.7	19.9	0.00e+00	0	43	0	2002780160	8	3726
2026-01-18 12:56:22.87	258.29	60.33	-23.6	-24.1	19.7	0.00e+00	0	43	0	2008023040	8	3831
2026-01-18 12:56:23.88	259.23	60.31	-23.6	-24.2	19.7	0.00e+00	0	43	0	2013265920	8	3842
2026-01-18 12:56:24.88	260.15	60.29	-23.6	-24.1	19.7	0.00e+00	0	43	0	2019557376	8	3828
2026-01-18 12:56:25.88	261.07	60.26	-23.4	-23.7	19.9	0.00e+00	0	43	0	2024800256	8	3733
2026-01-18 12:56:26.89	261.99	60.23	-23.8	-24.5	19.5	0.00e+00	0	43	0	2031091712	8	3917
2026-01-18 12:56:27.89	262.91	60.18	-23.9	-24.7	19.4	0.00e+00	0	43	0	2036334592	8	3967
2026-01-18 12:56:28.89	263.82	60.14	-23.8	-24.6	19.4	0.00e+00	0	43	0	2041577472	8	3945
2026-01-18 12:56:29.89	264.72	60.08	-24.1	-25.2	19.2	0.00e+00	0	43	0	2047868928	8	4081
2026-01-18 12:56:30.89	265.63	60.02	-24.0	-25.1	19.2	0.00e+00	0	43	0	2053111808	8	4046
2026-01-18 12:56:31.89	266.53	59.95	-24.2	-25.4	19.1	0.00e+00	0	43	0	2058354688	8	4125
2026-01-18 12:56:32.90	267.43	59.88	-23.9	-24.8	19.4	0.00e+00	0	43	0	2064646144	8	3971
2026-01-18 12:56:33.90	268.32	59.80	-23.6	-24.1	19.7	0.00e+00	0	43	0	2069889024	8	3819
2026-01-18 12:56:34.90	269.20	59.72	-23.7	-24.4	19.6	0.00e+00	0	43	0	2076180480	8	3876
2026-01-18 12:56:35.90	270.08	59.62	-23.7	-24.4	19.6	0.00e+00	0	43	0	2081423360	8	3890
2026-01-18 12:56:36.90	270.95	59.53	-24.1	-25.1	19.2	0.00e+00	0	43	0	2086666240	8	4050
2026-01-18 12:56:37.90	271.81	59.42	-23.9	-24.7	19.4	0.00e+00	0	43	0	2092957696	8	3963
2026-01-18 12:56:38.91	272.68	59.32	-23.8	-24.5	19.5	0.00e+00	0	43	0	2098200576	8	3898
2026-01-18 12:56:39.91	273.53	59.20	-24.0	-25.0	19.3	0.00e+00	0	43	0	2103443456	8	4038
2026-01-18 12:56:40.92	274.38	59.08	-24.3	-25.7	18.9	0.00e+00	0	43	0	2109734912	8	4199
2026-01-18 12:56:41.92	275.21	58.96	-23.9	-24.8	19.4	0.00e+00	0	43	0	2114977792	8	3989
2026-01-18 12:56:42.93	276.04	58.82	-23.7	-24.4	19.6	0.00e+00	0	43	0	2121269248	8	3876
2026-01-18 12:56:43.93	276.86	58.69	-24.1	-25.3	19.1	0.00e+00	0	43	0	2126512128	8	4099
2026-01-18 12:56:44.93	277.67	58.55	-24.2	-25.3	19.1	0.00e+00	0	43	0	2131755008	8	4118
2026-01-18 12:56:45.93	278.47	58.40	-24.2	-25.3	19.1	0.00e+00	0	43	0	2138046464	8	4108
2026-01-18 12:56:46.94	279.27	58.25	-24.6	-25.8	18.6	0.00e+00	0	43	0	2143289344	9	4113
2026-01-18 12:56:47.94	280.06	58.10	-24.7	-25.9	18.6	0.00e+00	0	43	0	2149580800	9	4151
2026-01-18 12:56:48.95	280.84	57.94	-25.1	-26.3	18.1	0.00e+00	0	43	0	2154823680	10	4137
2026-01-18 12:56:49.95	281.60	57.78	-25.1	-26.2	18.2	0.00e+00	0	43	0	2160066560	10	4109
2026-01-18 12:56:50.94	282.35	57.61	-24.8	-25.7	18.4	0.00e+00	0	43	0	2166358016	10	3971
2026-01-18 12:56:51.94	283.10	57.44	-24.9	-25.9	18.4	0.00e+00	0	43	0	2171600896	10	4015
2026-01-18 12:56:52.94	283.83	57.26	-25.3	-26.8	17.9	0.00e+00	0	43	0	2176843776	10	4248
2026-01-18 12:56:53.94	284.56	57.09	-25.3	-26.8	17.9	0.00e+00	0	43	0	2183135232	10	4255
2026-01-18 12:56:54.94	285.28	56.90	-25.2	-26.6	18.0	0.00e+00	0	43	0	2188378112	10	4199
2026-01-18 12:56:55.94	285.99	56.72	-25.8	-27.1	17.4	0.00e+00	0	43	0	2193620992	11	4227
2026-01-18 12:56:56.95	286.69	56.52	-25.6	-26.9	17.6	1.10e-06	0	43	0	2199912448	11	4173
2026-01-18 12:56:57.95	287.38	56.33	-25.4	-26.5	17.8	0.00e+00	0	43	0	2205155328	11	4073
2026-01-18 12:56:58.95	288.06	56.13	-24.9	-25.3	18.4	0.00e+00	0	43	0	2211446784	11	3774
2026-01-18 12:56:59.96	288.74	55.93	-24.5	-24.9	18.9	0.00e+00	0	43	0	2216689664	10	3783
2026-01-18 12:57:00.95	289.39	55.73	-24.5	-25.0	18.8	0.00e+00	0	43	0	2221932544	10	3813
2026-01-18 12:57:01.96	290.05	55.53	-24.6	-25.1	18.8	0.00e+00	0	43	0	2228224000	10	3851
2026-01-18 12:57:02.96	290.69	55.32	-24.2	-24.9	19.1	0.00e+00	0	43	0	2233466880	9	3895
2026-01-18 12:57:03.97	291.33	55.10	-24.1	-24.6	19.2	0.00e+00	0	43	0	2238709760	9	3822
2026-01-18 12:57:04.97	291.95	54.89	-24.1	-24.7	19.2	0.00e+00	0	43	0	2245001216	9	3853
2026-01-18 12:57:05.97	292.56	54.68	-24.3	-25.1	19.0	0.00e+00	0	43	0	2250244096	9	3955
2026-01-18 12:57:06.98	293.17	54.46	-24.5	-25.5	18.8	0.00e+00	0	43	0	2255486976	9	4057
2026-01-18 12:57:07.97	293.76	54.24	-24.4	-25.2	18.9	0.00e+00	0	43	0	2261778432	9	3978
2026-01-18 12:57:08.97	294.35	54.02	-24.4	-25.3	18.9	0.00e+00	0	43	0	2267021312	9	3984
2026-01-18 12:57:09.98	294.93	53.79	-24.7	-25.9	18.6	0.00e+00	0	43	0	2273312768	9	4122
2026-01-18 12:57:10.99	295.50	53.56	-24.5	-25.5	18.8	0.00e+00	0	43	0	2278555648	9	4031
2026-01-18 12:57:11.99	296.06	53.34	-24.4	-25.3	18.9	0.00e+00	0	43	0	2284847104	9	3992
2026-01-18 12:57:12.99	296.61	53.11	-24.4	-25.3	18.9	0.00e+00	0	43	0	2290089984	9	4009
2026-01-18 12:57:13.98	297.15	52.88	-24.4	-25.3	18.9	0.00e+00	0	43	0	2295332864	9	3986
2026-01-18 12:57:14.98	297.68	52.65	-24.4	-25.2	18.9	0.00e+00	0	43	0	2301624320	9	3968
2026-01-18 12:57:15.98	298.21	52.41	-24.5	-25.4	18.8	0.00e+00	0	43	0	2306867200	9	4015
2026-01-18 12:57:16.98	298.73	52.18	-24.8	-26.2	18.4	0.00e+00	0	43	0	2312110080	9	4227
2026-01-18 12:57:17.98	299.24	51.94	-24.7	-25.9	18.6	0.00e+00	0	43	0	2318401536	9	4139
2026-01-18 12:57:18.98	299.74	51.70	-24.7	-25.9	18.6	0.00e+00	0	43	0	2323644416	9	4138
2026-01-18 12:57:19.98	300.23	51.47	-24.9	-26.3	18.4	0.00e+00	0	43	0	2328887296	9	4238
2026-01-18 12:57:20.98	300.72	51.23	-24.5	-25.4	18.8	0.00e+00	0	43	0	2335178752	9	4007
2026-01-18 12:57:21.99	301.20	50.99	-24.8	-26.1	18.5	0.00e+00	0	43	0	2340421632	9	4196
2026-01-18 12:57:23.00	301.67	50.74	-24.5	-25.5	18.8	0.00e+00	0	43	0	2346713088	9	4047
2026-01-18 12:57:24.00	302.14	50.50	-24.4	-25.3	18.9	0.00e+00	0	43	0	2351955968	9	3989
2026-01-18 12:57:25.01	302.60	50.26	-24.3	-25.0	19.0	0.00e+00	0	43	0	2357198848	9	3923
2026-01-18 12:57:26.02	303.05	50.01	-24.2	-24.9	19.1	0.00e+00	0	43	0	2363490304	9	3893
2026-01-18 12:57:27.02	303.49	49.77	-24.2	-24.9	19.1	0.00e+00	0	43	0	2368733184	9	3891
2026-01-18 12:57:28.02	303.92	49.53	-24.0	-24.4	19.3	0.00e+00	0	43	0	2373976064	9	3787
2026-01-18 12:57:29.02	304.35	49.28	-23.8	-24.0	19.5	0.00e+00	0	43	0	2380267520	9	3699
2026-01-18 12:57:30.03	304.78	49.04	-23.7	-24.3	19.6	0.00e+00	0	43	0	2385510400	8	3867
2026-01-18 12:57:31.02	305.19	48.79	-23.8	-24.6	19.5	0.00e+00	0	43	0	2390753280	8	3949
2026-01-18 12:57:32.02	305.59	48.55	-23.8	-24.5	19.6	0.00e+00	0	43	0	2397044736	8	3901
2026-01-18 12:57:33.03	306.00	48.30	-23.8	-24.5	19.5	0.00e+00	0	43	0	2402287616	8	3909
2026-01-18 12:57:34.03	306.39	48.06	-23.7	-24.3	19.6	0.00e+00	0	43	0	2408579072	8	3867
2026-01-18 12:57:35.03	306.78	47.81	-23.5	-23.9	19.9	0.00e+00	0	43	0	2413821952	8	3761
2026-01-18 12:57:36.03	307.16	47.57	-23.4	-23.6	20.0	0.00e+00	0	43	0	2419064832	8	3709
2026-01-18 12:57:37.02	307.54	47.33	-23.6	-24.1	19.8	0.00e+00	0	43	0	2425356288	8	3807
2026-01-18 12:57:38.02	307.91	47.08	-23.4	-23.8	19.9	0.00e+00	0	43	0	2430599168	8	3742
2026-01-18 12:57:39.02	308.27	46.84	-23.4	-23.6	20.0	0.00e+00	0	43	0	2435842048	8	3712
2026-01-18 12:57:40.03	308.64	46.59	-23.4	-23.7	19.9	0.00e+00	0	43	0	2442133504	8	3734
2026-01-18 12:57:41.03	308.99	46.35	-23.5	-23.9	19.9	0.00e+00	0	43	0	2447376384	8	3768
2026-01-18 12:57:42.04	309.34	46.10	-23.6	-24.2	19.7	0.00e+00	0	43	0	2453667840	8	3836
2026-01-18 12:57:43.05	309.69	45.86	-23.7	-24.4	19.6	0.00e+00	0	43	0	2458910720	8	3886
2026-01-18 12:57:44.05	310.03	45.61	-23.7	-24.3	19.6	0.00e+00	0	43	0	2464153600	8	3871
2026-01-18 12:57:45.05	310.36	45.37	-23.8	-24.4	19.6	0.00e+00	0	43	0	2470445056	8	3890
2026-01-18 12:57:46.05	310.69	45.13	-23.6	-24.2	19.6	0.00e+00	0	43	0	2475687936	8	3839
2026-01-18 12:57:47.06	311.02	44.89	-23.7	-24.3	19.6	0.00e+00	0	43	0	2481979392	8	3872
2026-01-18 12:57:48.06	311.34	44.65	-23.9	-24.7	19.4	0.00e+00	0	43	0	2487222272	8	3964
2026-01-18 12:57:49.06	311.65	44.40	-23.8	-24.5	19.5	0.00e+00	0	43	0	2492465152	8	3916
2026-01-18 12:57:50.06	311.96	44.16	-23.9	-24.7	19.4	1.10e-06	0	43	0	2498756608	8	3968
2026-01-18 12:57:51.07	312.27	43.92	-23.7	-24.3	19.6	0.00e+00	0	43	0	2503999488	8	3860
2026-01-18 12:57:52.07	312.57	43.68	-23.6	-24.0	19.7	0.00e+00	0	43	0	2509242368	8	3799
2026-01-18 12:57:53.08	312.87	43.44	-23.6	-24.1	19.7	1.10e-06	0	43	0	2515533824	8	3810
2026-01-18 12:57:54.08	313.16	43.21	-23.8	-24.5	19.5	0.00e+00	0	43	0	2520776704	8	3910
2026-01-18 12:57:55.09	313.45	42.97	-23.7	-24.3	19.6	0.00e+00	0	43	0	2527068160	8	3874
2026-01-18 12:57:56.09	313.73	42.73	-23.8	-24.6	19.5	0.00e+00	0	43	0	2532311040	8	3930
2026-01-18 12:57:57.09	314.01	42.50	-24.0	-25.0	19.2	0.00e+00	0	43	0	2537553920	8	4035
2026-01-18 12:57:58.09	314.28	42.26	-23.9	-24.9	19.3	0.00e+00	0	43	0	2543845376	8	4001
2026-01-18 12:57:59.09	314.55	42.03	-23.9	-24.7	19.4	0.00e+00	0	43	0	2549088256	8	3966
2026-01-18 12:58:00.10	314.82	41.79	-23.9	-24.7	19.4	0.00e+00	0	43	0	2555379712	8	3967
2026-01-18 12:58:01.10	315.09	41.56	-23.7	-24.2	19.7	0.00e+00	0	43	0	2560622592	8	3841
2026-01-18 12:58:02.10	315.35	41.33	-24.0	-24.9	19.3	0.00e+00	0	43	0	2565865472	8	4005
2026-01-18 12:58:03.11	315.61	41.10	-23.7	-24.3	19.6	0.00e+00	0	43	0	2572156928	8	3873
2026-01-18 12:58:04.11	315.86	40.87	-23.5	-23.9	19.8	0.00e+00	0	43	0	2577399808	8	3769
2026-01-18 12:58:05.12	316.11	40.64	-23.4	-23.6	19.9	0.00e+00	0	43	0	2582642688	8	3714
2026-01-18 12:58:06.12	316.36	40.41	-23.4	-23.7	19.9	0.00e+00	0	43	0	2588934144	8	3722
2026-01-18 12:58:07.12	316.60	40.19	-23.4	-23.7	19.9	0.00e+00	0	43	0	2594177024	8	3728
2026-01-18 12:58:08.12	316.84	39.96	-23.2	-23.7	20.1	0.00e+00	0	43	0	2600468480	7	3841
2026-01-18 12:58:09.13	317.08	39.73	-23.1	-23.5	20.2	0.00e+00	0	43	0	2605711360	7	3794
2026-01-18 12:58:10.13	317.31	39.51	-23.2	-23.7	20.1	0.00e+00	0	43	0	2612002816	7	3839
2026-01-18 12:58:11.13	317.54	39.29	-23.4	-24.2	19.9	0.00e+00	0	43	0	2617245696	7	3950
2026-01-18 12:58:12.13	317.76	39.06	-23.2	-23.8	20.0	0.00e+00	0	43	0	2622488576	7	3864
2026-01-18 12:58:13.14	317.99	38.84	-23.3	-23.9	20.0	0.00e+00	0	43	0	2628780032	7	3892
2026-01-18 12:58:14.14	318.21	38.62	-23.4	-24.1	19.9	0.00e+00	0	43	0	2634022912	7	3939
2026-01-18 12:58:15.14	318.43	38.40	-23.4	-24.3	19.8	0.00e+00	0	43	0	2639265792	7	3978
2026-01-18 12:58:16.15	318.64	38.18	-23.3	-24.1	19.9	0.00e+00	0	43	0	2645557248	7	3927
2026-01-18 12:58:17.15	318.85	37.96	-23.2	-23.9	20.0	0.00e+00	0	43	0	2650800128	7	3881
2026-01-18 12:58:18.15	319.06	37.75	-23.3	-24.0	19.9	0.00e+00	0	43	0	2656043008	7	3904
2026-01-18 12:58:19.15	319.27	37.53	-23.2	-23.7	20.1	0.00e+00	0	43	0	2662334464	7	3831
2026-01-18 12:58:20.16	319.48	37.32	-23.1	-23.6	20.1	0.00e+00	0	43	0	2667577344	7	3817
2026-01-18 12:58:21.15	319.67	37.10	-23.2	-23.8	20.0	0.00e+00	0	43	0	2673868800	7	3861
2026-01-18 12:58:22.16	319.88	36.89	-23.2	-23.8	20.0	0.00e+00	0	43	0	2679111680	7	3848
2026-01-18 12:58:23.16	320.07	36.68	-23.3	-24.1	19.9	0.00e+00	0	43	0	2684354560	7	3924
2026-01-18 12:58:24.16	320.26	36.47	-23.2	-23.8	20.0	0.00e+00	0	43	0	2690646016	7	3861
2026-01-18 12:58:25.16	320.46	36.26	-23.2	-23.9	20.0	0.00e+00	0	43	0	2695888896	7	3878
2026-01-18 12:58:26.16	320.64	36.05	-23.4	-24.3	19.8	0.00e+00	0	43	0	2701131776	7	3969
2026-01-18 12:58:27.17	320.83	35.84	-23.4	-24.2	19.8	0.00e+00	0	43	0	2707423232	7	3947
2026-01-18 12:58:28.17	321.02	35.64	-23.4	-24.1	19.9	0.00e+00	0	43	0	2712666112	7	3935
2026-01-18 12:58:29.18	321.20	35.43	-23.4	-24.2	19.8	0.00e+00	0	43	0	2717908992	7	3947
2026-01-18 12:58:30.18	321.38	35.23	-23.3	-24.1	19.9	0.00e+00	0	43	0	2724200448	7	3925
2026-01-18 12:58:31.18	321.56	35.02	-23.4	-24.2	19.8	0.00e+00	0	43	0	2729443328	7	3953
2026-01-18 12:58:32.18	321.73	34.82	-23.3	-24.1	19.8	0.00e+00	0	43	0	2735734784	7	3923
2026-01-18 12:58:33.19	321.91	34.62	-23.4	-24.3	19.8	0.00e+00	0	43	0	2740977664	7	3963
2026-01-18 12:58:34.19	322.08	34.42	-23.5	-24.4	19.7	0.00e+00	0	43	0	2747269120	7	3996
2026-01-18 12:58:35.20	322.25	34.22	-23.6	-24.6	19.6	0.00e+00	0	43	0	2752512000	7	4051
2026-01-18 12:58:36.20	322.42	34.02	-23.5	-24.4	19.7	0.00e+00	0	43	0	2757754880	7	3994
2026-01-18 12:58:37.20	322.58	33.82	-23.5	-24.5	19.7	0.00e+00	0	43	0	2764046336	7	4029
2026-01-18 12:58:38.19	322.74	33.63	-23.5	-24.5	19.6	0.00e+00	0	43	0	2769289216	7	4028
2026-01-18 12:58:39.19	322.90	33.43	-23.6	-24.6	19.6	0.00e+00	0	43	0	2774532096	7	4036
2026-01-18 12:58:40.19	323.06	33.24	-23.4	-24.2	19.8	0.00e+00	0	43	0	2780823552	7	3950
2026-01-18 12:58:41.19	323.22	33.05	-23.3	-24.0	19.9	0.00e+00	0	43	0	2786066432	7	3913
2026-01-18 12:58:42.20	323.38	32.85	-23.4	-24.1	19.8	0.00e+00	0	43	0	2791309312	7	3928
2026-01-18 12:58:43.20	323.53	32.66	-23.2	-23.9	20.0	0.00e+00	0	43	0	2797600768	7	3870
2026-01-18 12:58:44.21	323.69	32.47	-23.3	-24.1	19.9	0.00e+00	0	43	0	2802843648	7	3920
2026-01-18 12:58:45.21	323.84	32.28	-23.5	-24.3	19.7	0.00e+00	0	43	0	2809135104	7	3984
2026-01-18 12:58:46.21	323.99	32.09	-23.3	-24.0	19.9	0.00e+00	0	43	0	2814377984	7	3903
2026-01-18 12:58:47.21	324.13	31.91	-23.3	-23.9	19.9	0.00e+00	0	43	0	2819620864	7	3886
2026-01-18 12:58:48.21	324.28	31.72	-23.4	-24.1	19.8	0.00e+00	0	43	0	2825912320	7	3940
2026-01-18 12:58:49.22	324.42	31.53	-23.4	-24.1	19.8	0.00e+00	0	43	0	2831155200	7	3935
2026-01-18 12:58:50.22	324.57	31.35	-23.5	-24.3	19.7	0.00e+00	0	43	0	2836398080	7	3983
2026-01-18 12:58:51.23	324.71	31.16	-23.5	-24.4	19.6	0.00e+00	0	43	0	2842689536	7	4008
2026-01-18 12:58:52.22	324.85	30.98	-23.6	-24.7	19.5	0.00e+00	0	43	0	2847932416	7	4059
2026-01-18 12:58:53.23	324.99	30.80	-23.6	-24.7	19.5	1.10e-06	0	43	0	2853175296	7	4065
2026-01-18 12:58:54.22	325.12	30.62	-23.7	-24.9	19.4	0.00e+00	0	43	0	2859466752	7	4120
2026-01-18 12:58:55.23	325.26	30.44	-23.7	-24.9	19.4	0.00e+00	0	43	0	2864709632	7	4119
2026-01-18 12:58:56.24	325.39	30.26	-23.7	-24.9	19.4	0.00e+00	0	43	0	2871001088	7	4134
2026-01-18 12:58:57.24	325.52	30.09	-23.8	-24.9	19.4	0.00e+00	0	43	0	2876243968	7	4132
2026-01-18 12:58:58.24	325.65	29.91	-23.8	-25.1	19.3	0.00e+00	0	43	0	2882535424	7	4160
2026-01-18 12:58:59.24	325.78	29.73	-23.7	-24.8	19.4	0.00e+00	0	43	0	2887778304	7	4106
2026-01-18 12:59:00.24	325.91	29.56	-23.7	-24.9	19.4	0.00e+00	0	43	0	2893021184	7	4115
2026-01-18 12:59:01.24	326.04	29.39	-23.6	-24.7	19.5	0.00e+00	0	43	0	2899312640	7	4078
2026-01-18 12:59:02.25	326.16	29.21	-23.7	-24.8	19.4	0.00e+00	0	43	0	2904555520	7	4092
2026-01-18 12:59:03.25	326.29	29.04	-23.8	-25.1	19.3	0.00e+00	0	43	0	2909798400	7	4169
2026-01-18 12:59:04.26	326.41	28.87	-23.8	-25.1	19.3	0.00e+00	0	43	0	2916089856	7	4166
2026-01-18 12:59:05.26	326.53	28.70	-23.7	-24.9	19.4	0.00e+00	0	43	0	2921332736	7	4122
2026-01-18 12:59:06.26	326.65	28.53	-23.7	-24.9	19.4	0.00e+00	0	43	0	2926575616	7	4110
2026-01-18 12:59:07.27	326.77	28.36	-23.8	-25.0	19.3	0.00e+00	0	43	0	2932867072	7	4151
2026-01-18 12:59:08.27	326.89	28.19	-23.6	-24.7	19.5	0.00e+00	0	43	0	2938109952	7	4063
2026-01-18 12:59:09.27	327.01	28.03	-23.7	-24.8	19.4	0.00e+00	0	43	0	2944401408	7	4097
2026-01-18 12:59:10.28	327.12	27.86	-23.7	-24.8	19.4	0.00e+00	0	43	0	2949644288	7	4103
2026-01-18 12:59:11.28	327.24	27.69	-23.6	-24.5	19.5	0.00e+00	0	43	0	2954887168	7	4029
2026-01-18 12:59:12.27	327.35	27.53	-23.5	-24.5	19.6	0.00e+00	0	43	0	2961178624	7	4015
2026-01-18 12:59:13.27	327.46	27.37	-23.6	-24.6	19.5	0.00e+00	0	43	0	2966421504	7	4046
2026-01-18 12:59:14.26	327.57	27.21	-23.6	-24.7	19.4	0.00e+00	0	43	0	2971664384	7	4065
2026-01-18 12:59:15.27	327.68	27.05	-23.7	-24.9	19.4	0.00e+00	0	43	0	2977955840	7	4114
2026-01-18 12:59:16.27	327.79	26.89	-23.7	-24.9	19.3	0.00e+00	0	43	0	2983198720	7	4121
2026-01-18 12:59:17.27	327.90	26.73	-23.7	-24.9	19.3	0.00e+00	0	43	0	2988441600	7	4132
2026-01-18 12:59:18.28	328.01	26.57	-23.8	-25.1	19.2	0.00e+00	0	43	0	2994733056	7	4179
2026-01-18 12:59:19.28	328.11	26.41	-23.8	-25.1	19.2	0.00e+00	0	43	0	2999975936	7	4165
2026-01-18 12:59:20.29	328.22	26.25	-23.8	-25.2	19.2	0.00e+00	0	43	0	3006267392	7	4190
2026-01-18 12:59:21.29	328.32	26.10	-23.9	-25.3	19.2	0.00e+00	0	43	0	3011510272	7	4214
2026-01-18 12:59:22.30	328.43	25.94	-24.0	-25.5	19.0	0.00e+00	0	43	0	3017801728	7	4270
2026-01-18 12:59:23.30	328.53	25.78	-24.1	-25.3	18.9	0.00e+00	0	43	0	3023044608	8	4102
2026-01-18 12:59:24.30	328.63	25.63	-24.2	-25.4	18.8	0.00e+00	0	43	0	3028287488	8	4143
2026-01-18 12:59:25.30	328.73	25.48	-24.0	-25.0	19.0	0.00e+00	0	43	0	3034578944	8	4032
2026-01-18 12:59:26.30	328.83	25.33	-24.0	-24.9	19.1	0.00e+00	0	43	0	3039821824	8	4007
2026-01-18 12:59:27.31	328.93	25.17	-24.0	-24.9	19.1	0.00e+00	0	43	0	3045064704	8	4018
2026-01-18 12:59:28.31	329.02	25.02	-24.0	-24.9	19.1	0.00e+00	0	43	0	3051356160	8	4002
2026-01-18 12:59:29.31	329.12	24.87	-24.0	-25.1	19.0	0.00e+00	0	43	0	3056599040	8	4044
2026-01-18 12:59:30.31	329.21	24.72	-24.0	-24.9	19.0	0.00e+00	0	43	0	3061841920	8	4017
2026-01-18 12:59:31.31	329.31	24.58	-23.9	-24.9	19.1	0.00e+00	0	43	0	3068133376	8	3996
2026-01-18 12:59:32.32	329.40	24.43	-24.0	-25.0	19.0	0.00e+00	0	43	0	3073376256	8	4024
2026-01-18 12:59:33.32	329.50	24.28	-24.0	-25.1	19.0	0.00e+00	0	43	0	3079667712	8	4052
2026-01-18 12:59:34.32	329.59	24.14	-24.1	-25.2	18.9	0.00e+00	0	43	0	3084910592	8	4088
2026-01-18 12:59:35.32	329.68	23.99	-24.2	-25.4	18.8	0.00e+00	0	43	0	3090153472	8	4133
2026-01-18 12:59:36.33	329.77	23.84	-24.2	-25.5	18.8	0.00e+00	0	43	0	3096444928	8	4161
2026-01-18 12:59:37.33	329.86	23.70	-24.3	-25.7	18.6	0.00e+00	0	43	0	3101687808	8	4211
2026-01-18 12:59:38.33	329.95	23.56	-24.4	-25.8	18.6	0.00e+00	0	43	0	3106930688	8	4238
2026-01-18 12:59:39.32	330.04	23.42	-24.4	-25.9	18.5	0.00e+00	0	43	0	3113222144	8	4260
2026-01-18 12:59:40.32	330.12	23.28	-24.4	-25.9	18.5	0.00e+00	0	43	0	3118465024	8	4267
2026-01-18 12:59:41.32	330.21	23.14	-24.5	-25.5	18.5	0.00e+00	0	43	0	3123707904	9	4043
2026-01-18 12:59:42.32	330.30	23.00	-24.5	-25.5	18.5	0.00e+00	0	43	0	3129999360	9	4045
2026-01-18 12:59:43.32	330.38	22.86	-24.5	-25.5	18.5	0.00e+00	0	43	0	3135242240	9	4051
2026-01-18 12:59:44.32	330.47	22.72	-24.4	-25.4	18.5	0.00e+00	0	43	0	3141533696	9	4018
2026-01-18 12:59:45.32	330.55	22.58	-24.5	-25.5	18.5	0.00e+00	0	43	0	3146776576	9	4050
2026-01-18 12:59:46.32	330.63	22.44	-24.6	-25.7	18.3	0.00e+00	0	43	0	3152019456	9	4111
2026-01-18 12:59:47.32	330.72	22.31	-24.4	-25.4	18.5	0.00e+00	0	43	0	3158310912	9	4022
2026-01-18 12:59:48.33	330.80	22.17	-24.4	-25.3	18.5	0.00e+00	0	43	0	3163553792	9	4009
2026-01-18 12:59:49.33	330.88	22.03	-24.4	-25.4	18.5	0.00e+00	0	43	0	3169845248	9	4025
2026-01-18 12:59:50.34	330.96	21.90	-24.4	-25.3	18.5	0.00e+00	0	43	0	3175088128	9	4014
2026-01-18 12:59:51.35	331.04	21.76	-24.5	-25.5	18.4	0.00e+00	0	43	0	3180331008	9	4042
2026-01-18 12:59:52.35	331.12	21.63	-24.5	-25.5	18.5	0.00e+00	0	43	0	3186622464	9	4040
2026-01-18 12:59:53.36	331.20	21.49	-24.5	-25.4	18.5	0.00e+00	0	43	0	3191865344	9	4037
2026-01-18 12:59:54.37	331.28	21.36	-24.5	-25.5	18.4	0.00e+00	0	43	0	3197108224	9	4063
2026-01-18 12:59:55.37	331.35	21.23	-24.5	-25.6	18.3	0.00e+00	0	43	0	3203399680	9	4088
2026-01-18 12:59:56.38	331.43	21.10	-24.5	-25.6	18.4	0.00e+00	0	43	0	3208642560	9	4063
2026-01-18 12:59:57.38	331.51	20.97	-24.6	-25.8	18.3	0.00e+00	0	43	0	3214934016	9	4123
2026-01-18 12:59:58.38	331.58	20.84	-24.7	-25.9	18.2	0.00e+00	0	43	0	3220176896	9	4151
2026-01-18 12:59:59.38	331.66	20.71	-24.7	-26.0	18.1	0.00e+00	0	43	0	3226468352	9	4180
2026-01-18 13:00:00.38	331.73	20.58	-24.8	-26.1	18.1	0.00e+00	0	43	0	3231711232	9	4210
2026-01-18 13:00:01.38	331.81	20.45	-24.8	-26.1	18.1	0.00e+00	0	43	0	3236954112	9	4212
2026-01-18 13:00:02.38	331.88	20.33	-24.8	-26.3	18.0	0.00e+00	0	43	0	3242196992	9	4242
2026-01-18 13:00:03.38	331.95	20.20	-24.8	-26.2	18.0	0.00e+00	0	43	0	3248488448	9	4232
2026-01-18 13:00:04.38	332.02	20.08	-24.8	-26.3	18.0	0.00e+00	0	43	0	3253731328	9	4240
2026-01-18 13:00:05.38	332.09	19.95	-25.0	-26.5	17.9	0.00e+00	0	43	0	3260022784	9	4307
2026-01-18 13:00:06.38	332.16	19.83	-25.2	-26.5	17.6	0.00e+00	0	43	0	3265265664	10	4197
2026-01-18 13:00:07.39	332.24	19.70	-25.3	-26.8	17.5	0.00e+00	0	43	0	3270508544	10	4269
2026-01-18 13:00:08.39	332.31	19.58	-25.2	-26.4	17.7	0.00e+00	0	43	0	3276800000	10	4168
2026-01-18 13:00:09.40	332.38	19.45	-25.0	-26.1	17.8	0.00e+00	0	43	0	3282042880	10	4096
2026-01-18 13:00:10.41	332.44	19.33	-25.0	-26.2	17.8	0.00e+00	0	43	0	3288334336	10	4112
2026-01-18 13:00:11.42	332.51	19.21	-25.1	-26.3	17.7	0.00e+00	0	43	0	3293577216	10	4132
2026-01-18 13:00:12.42	332.58	19.09	-25.1	-26.3	17.7	0.00e+00	0	43	0	3298820096	10	4140
2026-01-18 13:00:13.42	332.65	18.97	-25.1	-26.4	17.6	0.00e+00	0	43	0	3305111552	10	4153
2026-01-18 13:00:14.41	332.71	18.85	-25.1	-26.4	17.6	0.00e+00	0	43	0	3310354432	10	4163
2026-01-18 13:00:15.42	332.78	18.73	-25.2	-26.5	17.6	0.00e+00	0	43	0	3315597312	10	4181
2026-01-18 13:00:16.42	332.85	18.61	-25.2	-26.5	17.6	0.00e+00	0	43	0	3321888768	10	4186
2026-01-18 13:00:17.43	332.91	18.49	-25.2	-26.6	17.5	0.00e+00	0	43	0	3327131648	10	4204
2026-01-18 13:00:18.43	332.98	18.37	-25.2	-26.6	17.5	0.00e+00	0	43	0	3333423104	10	4217
2026-01-18 13:00:19.43	333.04	18.25	-25.3	-26.8	17.4	0.00e+00	0	43	0	3338665984	10	4263
2026-01-18 13:00:20.43	333.10	18.14	-25.3	-26.8	17.4	0.00e+00	0	43	0	3343908864	10	4268
2026-01-18 13:00:21.44	333.17	18.02	-25.4	-27.0	17.3	0.00e+00	0	43	0	3350200320	10	4321
2026-01-18 13:00:22.44	333.23	17.90	-25.5	-27.1	17.2	0.00e+00	0	43	0	3355443200	10	4339
2026-01-18 13:00:23.44	333.29	17.79	-25.5	-26.6	17.2	0.00e+00	0	43	0	3361734656	11	4107
2026-01-18 13:00:24.45	333.36	17.67	-25.5	-26.7	17.2	0.00e+00	0	43	0	3366977536	11	4141
2026-01-18 13:00:25.45	333.42	17.56	-25.6	-26.9	17.1	0.00e+00	0	43	0	3372220416	11	4168
2026-01-18 13:00:26.46	333.48	17.44	-25.6	-27.0	17.0	0.00e+00	0	43	0	3378511872	11	4197
2026-01-18 13:00:27.46	333.54	17.33	-25.7	-27.1	16.9	0.00e+00	0	43	0	3383754752	11	4233
2026-01-18 13:00:28.46	333.60	17.22	-25.7	-27.1	16.9	1.10e-06	0	43	0	3388997632	11	4243
2026-01-18 13:00:29.46	333.66	17.11	-25.7	-27.2	16.9	0.00e+00	0	43	0	3395289088	11	4252
2026-01-18 13:00:30.46	333.72	16.99	-25.8	-27.4	16.7	0.00e+00	0	43	0	3400531968	11	4329
2026-01-18 13:00:31.45	333.78	16.88	-25.9	-27.5	16.7	0.00e+00	0	43	0	3405774848	11	4332
2026-01-18 13:00:32.45	333.84	16.77	-25.9	-27.5	16.7	0.00e+00	0	43	0	3412066304	11	4340
2026-01-18 13:00:33.45	333.90	16.66	-25.9	-27.6	16.7	0.00e+00	0	43	0	3417309184	11	4356
2026-01-18 13:00:34.46	333.95	16.55	-25.9	-27.5	16.7	0.00e+00	0	43	0	3423600640	11	4359
2026-01-18 13:00:35.46	334.01	16.44	-25.9	-27.6	16.5	0.00e+00	0	43	0	3428843520	11	4371
2026-01-18 13:00:36.47	334.07	16.33	-26.0	-27.7	16.5	0.00e+00	0	43	0	3434086400	11	4406
2026-01-18 13:00:37.47	334.13	16.22	-25.9	-27.1	16.6	0.00e+00	0	43	0	3440377856	12	4124
2026-01-18 13:00:38.48	334.18	16.12	-25.9	-27.1	16.5	0.00e+00	0	43	0	3445620736	12	4142
2026-01-18 13:00:39.49	334.24	16.01	-25.9	-27.1	16.5	0.00e+00	0	43	0	3451912192	12	4128
2026-01-18 13:00:40.49	334.29	15.90	-25.9	-27.1	16.5	0.00e+00	0	43	0	3457155072	12	4142
2026-01-18 13:00:41.48	334.35	15.79	-26.0	-27.2	16.5	0.00e+00	0	43	0	3462397952	12	4167
2026-01-18 13:00:42.49	334.40	15.69	-26.0	-27.2	16.5	0.00e+00	0	43	0	3468689408	12	4159
2026-01-18 13:00:43.50	334.46	15.58	-26.1	-27.5	16.3	0.00e+00	0	43	0	3473932288	12	4244
2026-01-18 13:00:44.50	334.51	15.48	-26.2	-27.8	16.1	0.00e+00	0	43	0	3479175168	12	4310
2026-01-18 13:00:45.50	334.57	15.37	-26.2	-27.8	16.1	0.00e+00	0	43	0	3485466624	12	4311
2026-01-18 13:00:46.50	334.62	15.27	-26.1	-27.6	16.2	0.00e+00	0	43	0	3490709504	12	4261
2026-01-18 13:00:47.51	334.67	15.16	-26.2	-27.8	16.1	0.00e+00	0	43	0	3497000960	12	4311
2026-01-18 13:00:48.51	334.73	15.06	-26.3	-28.0	16.0	0.00e+00	0	43	0	3502243840	12	4364
2026-01-18 13:00:49.51	334.78	14.95	-26.3	-27.9	16.0	0.00e+00	0	43	0	3507486720	12	4351
2026-01-18 13:00:50.51	334.83	14.85	-26.2	-27.8	16.1	0.00e+00	0	43	0	3513778176	12	4320
2026-01-18 13:00:51.51	334.88	14.75	-26.4	-28.2	15.9	0.00e+00	0	43	0	3519021056	12	4411
2026-01-18 13:00:52.52	334.94	14.65	-26.4	-27.8	15.8	0.00e+00	0	43	0	3524263936	13	4192
2026-01-18 13:00:53.52	334.99	14.55	-26.2	-27.2	16.2	0.00e+00	0	43	0	3530555392	13	4041
2026-01-18 13:00:54.53	335.04	14.44	-26.1	-27.0	16.3	0.00e+00	0	43	0	3535798272	13	3997
2026-01-18 13:00:55.53	335.09	14.34	-26.0	-26.8	16.3	0.00e+00	0	43	0	3542089728	13	3957
2026-01-18 13:00:56.53	335.14	14.24	-26.1	-26.9	16.3	0.00e+00	0	43	0	3547332608	13	3971
2026-01-18 13:00:57.53	335.19	14.14	-26.2	-27.1	16.2	0.00e+00	0	43	0	3552575488	13	4029
2026-01-18 13:00:58.54	335.24	14.04	-26.2	-27.2	16.1	0.00e+00	0	43	0	3558866944	13	4042
2026-01-18 13:00:59.55	335.29	13.94	-26.1	-27.1	16.2	0.00e+00	0	43	0	3564109824	13	4010
2026-01-18 13:01:00.54	335.34	13.84	-26.1	-27.0	16.2	0.00e+00	0	43	0	3570401280	13	4010
2026-01-18 13:01:01.55	335.39	13.75	-26.2	-27.2	16.1	0.00e+00	0	43	0	3575644160	13	4048
2026-01-18 13:01:02.55	335.43	13.65	-26.2	-27.3	16.1	0.00e+00	0	43	0	3580887040	13	4062
2026-01-18 13:01:03.56	335.48	13.55	-26.3	-27.4	16.0	0.00e+00	0	43	0	3587178496	13	4092
2026-01-18 13:01:04.55	335.53	13.45	-26.3	-27.5	15.9	0.00e+00	0	43	0	3592421376	13	4133
2026-01-18 13:01:05.56	335.58	13.36	-26.4	-27.8	15.8	0.00e+00	0	43	0	3597664256	13	4196
2026-01-18 13:01:06.57	335.63	13.26	-26.5	-27.9	15.7	0.00e+00	0	43	0	3603955712	13	4222
2026-01-18 13:01:07.57	335.67	13.16	-26.5	-27.8	15.7	0.00e+00	0	43	0	3609198592	13	4216
2026-01-18 13:01:08.57	335.72	13.07	-26.5	-27.9	15.7	0.00e+00	0	43	0	3614441472	13	4245
2026-01-18 13:01:09.57	335.77	12.97	-26.6	-28.1	15.6	0.00e+00	0	43	0	3620732928	13	4278
2026-01-18 13:01:10.57	335.81	12.88	-26.6	-28.2	15.5	0.00e+00	0	43	0	3625975808	13	4318
2026-01-18 13:01:11.58	335.86	12.78	-26.5	-28.0	15.6	0.00e+00	0	43	0	3632267264	13	4259
2026-01-18 13:01:12.59	335.90	12.69	-26.6	-28.1	15.5	0.00e+00	0	43	0	3637510144	13	4295
2026-01-18 13:01:13.59	335.95	12.59	-26.6	-28.1	15.6	0.00e+00	0	43	0	3643801600	13	4280
2026-01-18 13:01:14.59	335.99	12.50	-26.6	-28.3	15.4	0.00e+00	0	43	0	3649044480	13	4333
2026-01-18 13:01:15.59	336.04	12.41	-26.7	-28.3	15.4	0.00e+00	0	43	0	3654287360	13	4353
2026-01-18 13:01:16.60	336.08	12.31	-26.7	-28.3	15.4	0.00e+00	0	43	0	3660578816	13	4352
2026-01-18 13:01:17.61	336.13	12.22	-26.7	-28.4	15.3	0.00e+00	0	43	0	3665821696	13	4369
2026-01-18 13:01:18.61	336.17	12.13	-26.8	-28.5	15.3	1.10e-06	0	43	0	3671064576	13	4408
2026-01-18 13:01:19.62	336.22	12.03	-26.7	-28.4	15.3	0.00e+00	0	43	0	3677356032	13	4381
2026-01-18 13:01:20.63	336.26	11.94	-26.7	-28.4	15.4	0.00e+00	0	43	0	3682598912	13	4365
2026-01-18 13:01:21.63	336.30	11.85	-26.7	-28.4	15.3	0.00e+00	0	43	0	3688890368	13	4366
2026-01-18 13:01:22.64	336.35	11.76	-26.7	-28.5	15.3	0.00e+00	0	43	0	3694133248	13	4388
2026-01-18 13:01:23.64	336.39	11.67	-26.8	-28.5	15.2	0.00e+00	0	43	0	3699376128	13	4407
2026-01-18 13:01:24.64	336.43	11.58	-26.8	-28.7	15.2	0.00e+00	0	43	0	3705667584	13	4460
2026-01-18 13:01:25.65	336.48	11.49	-26.8	-28.6	15.2	1.10e-06	0	43	0	3710910464	13	4420
2026-01-18 13:01:26.66	336.52	11.40	-26.9	-28.8	15.1	0.00e+00	0	43	0	3717201920	13	4477
2026-01-18 13:01:27.66	336.56	11.31	-26.9	-28.7	15.1	0.00e+00	0	43	0	3722444800	13	4462
2026-01-18 13:01:28.66	336.60	11.22	-26.9	-28.9	15.0	0.00e+00	0	43	0	3727687680	13	4528
2026-01-18 13:01:29.67	336.64	11.13	-26.9	-28.3	15.1	0.00e+00	0	43	0	3733979136	14	4238
2026-01-18 13:01:30.67	336.69	11.04	-26.9	-28.3	15.1	0.00e+00	0	43	0	3739222016	14	4220
2026-01-18 13:01:31.67	336.73	10.95	-26.9	-28.4	15.0	0.00e+00	0	43	0	3744464896	14	4263
2026-01-18 13:01:32.67	336.77	10.86	-26.9	-28.3	15.1	0.00e+00	0	43	0	3750756352	14	4231
2026-01-18 13:01:33.68	336.81	10.78	-26.9	-28.4	15.0	0.00e+00	0	43	0	3755999232	14	4260
2026-01-18 13:01:34.68	336.85	10.69	-27.0	-28.5	14.9	0.00e+00	0	43	0	3762290688	14	4305
2026-01-18 13:01:35.69	336.89	10.60	-27.0	-28.6	14.9	0.00e+00	0	43	0	3767533568	14	4318
2026-01-18 13:01:36.69	336.93	10.52	-27.1	-28.7	14.8	0.00e+00	0	43	0	3773825024	14	4350
2026-01-18 13:01:37.70	336.97	10.43	-27.1	-28.8	14.7	0.00e+00	0	43	0	3779067904	14	4370
2026-01-18 13:01:38.70	337.01	10.34	-27.1	-28.9	14.7	0.00e+00	0	43	0	3784310784	14	4393
2026-01-18 13:01:39.70	337.05	10.26	-27.1	-28.8	14.7	0.00e+00	0	43	0	3790602240	14	4365
2026-01-18 13:01:40.71	337.09	10.17	-27.1	-28.9	14.7	1.10e-06	0	43	0	3795845120	14	4388
2026-01-18 13:01:41.71	337.13	10.09	-27.1	-28.9	14.6	0.00e+00	0	43	0	3801088000	14	4396
2026-01-18 13:01:42.72	337.17	10.00	-27.1	-28.9	14.7	1.10e-06	0	43	0	3807379456	14	4391
2026-01-18 13:01:43.72	337.20	9.92	-27.2	-28.9	14.6	0.00e+00	0	43	0	3812622336	14	4416
2026-01-18 13:01:44.72	337.24	9.83	-27.1	-28.9	14.7	1.10e-06	0	43	0	3817865216	14	4392
2026-01-18 13:01:45.72	337.28	9.75	-27.2	-29.0	14.6	0.00e+00	0	43	0	3824156672	14	4443
2026-01-18 13:01:46.73	337.32	9.66	-27.1	-28.9	14.6	1.10e-06	0	43	0	3829399552	14	4411
2026-01-18 13:01:47.73	337.36	9.58	-27.2	-29.0	14.6	1.10e-06	0	43	0	3835691008	14	4450
2026-01-18 13:01:48.74	337.39	9.50	-27.2	-29.0	14.6	2.20e-06	0	43	0	3840933888	14	4425
