passes_logs/2026/01/18/R2M6_AANII_01/R2M6_AANII_01__20260118_094201_NOAA_21_JPSS-2_rec.log

#Pass ID: 20260118_094201_NOAA 21 (JPSS-2)
#Satellite: NOAA 21 (JPSS-2)
#Configuration: NOAA 21
#almurnet v.1.7.20240730
#Start time: 2026-01-18 09:42:03

#Version: 2.2.20231116
#Station: R2M6_AANII_01
#Location: 30.233357 lon 59.946436 lat
#TLE: 1 54234U 22150A   26017.26823908  .00000042  00000+0  40962-4 0  9992
#TLE: 2 54234  98.7501 318.1405 0000613 274.2947  85.8159 14.19535194165131

#Time	Az	El	Level	Level2	SNR	BER	BlckErr	Temp	State	Recorded	gain1	gain2
2026-01-18 09:42:03.36	140.99	7.16	-30.5	-35.4	4.6	1.40e+00	0	40	0	0	21	6315
2026-01-18 09:42:04.36	140.96	7.23	-30.2	-34.6	4.7	1.39e+00	0	41	104	0	21	5961
2026-01-18 09:42:05.37	140.93	7.31	-30.5	-34.7	8.7	2.96e-02	0	41	0	0	21	5855
2026-01-18 09:42:06.36	140.90	7.39	-30.5	-34.9	8.6	4.67e-02	0	41	0	3145728	21	5946
2026-01-18 09:42:07.36	140.87	7.46	-30.3	-34.1	9.2	2.62e-02	0	41	0	6291456	21	5573
2026-01-18 09:42:08.36	140.84	7.54	-30.1	-33.4	9.7	1.29e-02	0	41	0	8388608	21	5323
2026-01-18 09:42:09.37	140.81	7.62	-29.9	-33.1	9.9	8.91e-03	0	41	0	12582912	21	5198
2026-01-18 09:42:10.37	140.78	7.70	-30.0	-33.1	9.9	7.62e-03	0	41	0	15728640	21	5190
2026-01-18 09:42:11.37	140.75	7.78	-30.0	-33.1	10.0	7.15e-03	0	41	0	18874368	21	5162
2026-01-18 09:42:12.37	140.72	7.86	-30.0	-33.1	10.0	8.59e-03	0	41	0	22020096	21	5178
2026-01-18 09:42:13.37	140.69	7.94	-30.2	-33.7	9.6	1.22e-02	0	41	0	24117248	21	5392
2026-01-18 09:42:14.37	140.66	8.01	-30.0	-33.2	10.0	1.04e-02	0	41	0	27262976	21	5175
2026-01-18 09:42:15.38	140.62	8.09	-30.2	-33.6	9.7	7.72e-03	0	41	0	30408704	21	5326
2026-01-18 09:42:16.38	140.59	8.17	-30.3	-34.1	9.4	1.74e-02	0	41	0	33554432	21	5540
2026-01-18 09:42:17.39	140.56	8.25	-30.2	-33.6	9.7	1.24e-02	0	41	0	36700160	21	5323
2026-01-18 09:42:18.38	140.53	8.33	-30.0	-33.1	10.2	5.91e-03	0	41	0	39845888	21	5104
2026-01-18 09:42:19.38	140.50	8.41	-29.9	-32.8	10.3	4.92e-03	0	41	0	42991616	21	5008
2026-01-18 09:42:20.39	140.47	8.50	-29.9	-32.6	10.5	6.20e-03	0	41	0	46137344	21	4928
2026-01-18 09:42:21.39	140.43	8.58	-30.0	-32.8	10.4	4.09e-03	0	41	0	49283072	21	4983
2026-01-18 09:42:22.38	140.40	8.66	-29.8	-32.2	10.9	2.72e-03	0	41	0	52428800	21	4744
2026-01-18 09:42:23.39	140.37	8.74	-29.8	-32.8	10.8	2.22e-03	0	41	0	55574528	20	5065
2026-01-18 09:42:24.39	140.34	8.82	-29.8	-32.8	10.8	2.74e-03	0	41	0	58720256	20	5062
2026-01-18 09:42:25.39	140.30	8.90	-29.5	-31.8	11.5	1.20e-03	0	41	0	61865984	20	4696
2026-01-18 09:42:26.40	140.27	8.99	-29.4	-31.5	11.7	4.70e-04	0	41	0	65011712	20	4595
2026-01-18 09:42:27.40	140.23	9.07	-29.3	-31.8	11.9	3.13e-04	0	41	0	68157440	19	4791
2026-01-18 09:42:28.40	140.20	9.15	-29.5	-32.3	11.6	5.25e-04	0	41	0	71303168	19	4976
2026-01-18 09:42:29.40	140.17	9.23	-29.5	-32.3	11.7	7.01e-04	0	41	0	74448896	19	4954
2026-01-18 09:42:30.41	140.13	9.32	-29.4	-31.9	11.9	3.83e-04	0	41	0	77594624	19	4808
2026-01-18 09:42:31.41	140.10	9.40	-29.1	-31.1	12.4	2.22e-04	0	41	0	80740352	19	4564
2026-01-18 09:42:32.42	140.06	9.49	-29.0	-30.9	12.6	1.22e-04	0	42	0	83886080	19	4471
2026-01-18 09:42:33.42	140.03	9.57	-28.8	-30.5	12.9	5.18e-05	0	41	0	87031808	19	4367
2026-01-18 09:42:34.41	139.99	9.65	-28.9	-31.2	12.8	4.57e-05	0	41	0	90177536	18	4687
2026-01-18 09:42:35.42	139.96	9.74	-28.7	-30.7	13.1	3.73e-05	0	42	0	93323264	18	4511
2026-01-18 09:42:36.42	139.92	9.82	-28.6	-30.5	13.2	2.28e-05	0	42	0	96468992	18	4459
2026-01-18 09:42:37.42	139.89	9.91	-28.6	-30.5	13.2	2.89e-05	0	42	0	99614720	18	4458
2026-01-18 09:42:38.41	139.85	9.99	-28.7	-30.8	13.0	4.19e-05	0	42	0	102760448	18	4546
2026-01-18 09:42:39.41	139.82	10.08	-28.7	-30.6	13.1	3.43e-05	0	42	0	105906176	18	4500
2026-01-18 09:42:40.41	139.78	10.16	-28.6	-30.4	13.3	2.13e-05	0	42	0	109051904	18	4419
2026-01-18 09:42:41.41	139.74	10.25	-28.7	-30.5	13.2	2.59e-05	0	41	0	112197632	18	4464
2026-01-18 09:42:42.41	139.71	10.34	-28.5	-30.2	13.5	1.22e-05	0	42	0	115343360	18	4355
2026-01-18 09:42:43.41	139.67	10.42	-28.5	-30.2	13.5	1.29e-05	0	42	0	118489088	18	4351
2026-01-18 09:42:44.41	139.63	10.51	-28.6	-30.3	13.4	1.06e-05	0	41	0	121634816	18	4407
2026-01-18 09:42:45.42	139.59	10.60	-28.6	-30.4	13.3	1.75e-05	0	42	0	124780544	18	4404
2026-01-18 09:42:46.43	139.56	10.69	-28.6	-30.3	13.4	1.52e-05	0	42	0	127926272	18	4390
2026-01-18 09:42:47.43	139.52	10.78	-28.5	-30.1	13.5	1.14e-05	0	42	0	131072000	18	4332
2026-01-18 09:42:48.44	139.48	10.86	-28.6	-30.3	13.4	1.44e-05	0	42	0	134217728	18	4391
2026-01-18 09:42:49.44	139.44	10.95	-28.5	-30.1	13.6	1.06e-05	0	42	0	137363456	18	4330
2026-01-18 09:42:50.44	139.40	11.04	-28.5	-30.1	13.5	8.30e-06	0	42	0	140509184	18	4334
2026-01-18 09:42:51.44	139.36	11.13	-28.6	-30.3	13.4	1.06e-05	0	42	0	143654912	18	4393
2026-01-18 09:42:52.44	139.32	11.22	-28.4	-29.8	13.7	6.80e-06	0	42	0	146800640	18	4241
2026-01-18 09:42:53.44	139.28	11.31	-28.4	-29.8	13.8	3.80e-06	0	42	0	149946368	18	4228
2026-01-18 09:42:54.44	139.24	11.40	-28.5	-30.0	13.7	5.30e-06	0	42	0	153092096	18	4276
2026-01-18 09:42:55.45	139.20	11.49	-28.4	-29.8	13.8	4.50e-06	0	42	0	156237824	18	4227
2026-01-18 09:42:56.45	139.16	11.58	-28.3	-30.0	13.9	4.50e-06	0	42	0	159383552	17	4409
2026-01-18 09:42:57.46	139.12	11.67	-28.1	-29.7	14.1	7.00e-07	0	42	0	162529280	17	4315
2026-01-18 09:42:58.46	139.08	11.77	-28.2	-29.9	14.0	2.20e-06	0	42	0	165675008	17	4364
2026-01-18 09:42:59.46	139.04	11.86	-28.1	-29.7	14.1	3.80e-06	0	42	0	168820736	17	4330
2026-01-18 09:43:00.46	139.00	11.95	-28.1	-29.7	14.2	2.20e-06	0	42	0	171966464	17	4296
2026-01-18 09:43:01.46	138.96	12.04	-28.2	-29.9	14.0	2.20e-06	0	42	0	175112192	17	4352
2026-01-18 09:43:02.47	138.92	12.14	-28.2	-29.8	14.1	3.00e-06	0	42	0	178257920	17	4341
2026-01-18 09:43:03.47	138.87	12.23	-28.1	-29.7	14.2	2.20e-06	0	42	0	181403648	17	4297
2026-01-18 09:43:04.47	138.83	12.32	-28.0	-29.2	14.5	0.00e+00	0	42	0	184549376	17	4176
2026-01-18 09:43:05.48	138.79	12.42	-28.1	-29.6	14.3	1.50e-06	0	42	0	187695104	17	4257
2026-01-18 09:43:06.49	138.74	12.51	-28.1	-29.5	14.3	1.50e-06	0	42	0	190840832	17	4246
2026-01-18 09:43:07.49	138.70	12.61	-28.0	-29.3	14.4	2.20e-06	0	42	0	193986560	17	4198
2026-01-18 09:43:08.49	138.66	12.70	-28.0	-29.3	14.4	1.50e-06	0	42	0	197132288	17	4198
2026-01-18 09:43:09.50	138.61	12.80	-28.0	-29.4	14.4	7.00e-07	0	42	0	200278016	17	4215
2026-01-18 09:43:10.50	138.57	12.89	-27.9	-29.2	14.5	7.00e-07	0	42	0	203423744	17	4167
2026-01-18 09:43:11.51	138.52	12.99	-28.0	-29.3	14.4	0.00e+00	0	42	0	206569472	17	4187
2026-01-18 09:43:12.52	138.48	13.09	-28.1	-29.5	14.3	7.00e-07	0	42	0	209715200	17	4249
2026-01-18 09:43:13.52	138.43	13.18	-28.0	-29.3	14.5	0.00e+00	0	42	0	212860928	17	4183
2026-01-18 09:43:14.52	138.39	13.28	-28.0	-29.4	14.4	0.00e+00	0	42	0	216006656	17	4212
2026-01-18 09:43:15.53	138.34	13.38	-28.0	-29.3	14.5	0.00e+00	0	42	0	219152384	17	4179
2026-01-18 09:43:16.53	138.29	13.48	-28.0	-29.4	14.4	1.50e-06	0	42	0	222298112	17	4198
2026-01-18 09:43:17.54	138.25	13.58	-28.0	-29.2	14.5	0.00e+00	0	42	0	225443840	17	4155
2026-01-18 09:43:18.55	138.20	13.68	-27.9	-29.1	14.6	0.00e+00	0	42	0	228589568	17	4143
2026-01-18 09:43:19.55	138.15	13.78	-28.1	-29.5	14.4	1.50e-06	0	42	0	231735296	17	4226
2026-01-18 09:43:20.55	138.11	13.87	-28.0	-29.4	14.4	7.00e-07	0	42	0	234881024	17	4213
2026-01-18 09:43:21.56	138.06	13.97	-28.0	-29.3	14.5	7.00e-07	0	42	0	238026752	17	4196
2026-01-18 09:43:22.56	138.01	14.08	-28.1	-29.5	14.4	0.00e+00	0	42	0	241172480	17	4246
2026-01-18 09:43:23.57	137.96	14.18	-28.1	-29.5	14.4	4.50e-06	0	42	0	244318208	17	4243
2026-01-18 09:43:24.57	137.91	14.28	-28.1	-29.6	14.3	7.00e-07	0	42	0	247463936	17	4270
2026-01-18 09:43:25.57	137.86	14.38	-28.1	-29.5	14.3	0.00e+00	0	42	0	250609664	17	4269
2026-01-18 09:43:26.57	137.81	14.48	-28.0	-29.5	14.4	0.00e+00	0	42	0	253755392	17	4243
2026-01-18 09:43:27.58	137.76	14.58	-28.1	-29.7	14.2	1.50e-06	0	42	0	256901120	17	4326
2026-01-18 09:43:28.58	137.71	14.69	-28.2	-29.9	14.2	3.80e-06	0	42	0	260046848	17	4361
2026-01-18 09:43:29.58	137.66	14.79	-28.0	-29.5	14.4	7.00e-07	0	42	0	263192576	17	4260
2026-01-18 09:43:30.58	137.61	14.89	-28.1	-29.7	14.3	1.50e-06	0	42	0	266338304	17	4311
2026-01-18 09:43:31.58	137.56	15.00	-28.1	-29.6	14.3	1.50e-06	0	42	0	269484032	17	4291
2026-01-18 09:43:32.59	137.51	15.10	-28.1	-29.6	14.4	2.20e-06	0	42	0	272629760	17	4283
2026-01-18 09:43:33.59	137.45	15.21	-28.1	-29.7	14.3	0.00e+00	0	42	0	275775488	17	4315
2026-01-18 09:43:34.59	137.40	15.31	-28.1	-29.6	14.4	1.50e-06	0	42	0	277872640	17	4281
2026-01-18 09:43:35.60	137.35	15.42	-28.1	-29.5	14.5	1.50e-06	0	42	0	281018368	17	4247
2026-01-18 09:43:36.61	137.29	15.52	-28.1	-29.6	14.4	0.00e+00	0	42	0	284164096	17	4252
2026-01-18 09:43:37.61	137.24	15.63	-28.2	-29.7	14.4	0.00e+00	0	42	0	288358400	17	4296
2026-01-18 09:43:38.61	137.19	15.74	-28.3	-30.1	14.2	2.20e-06	0	42	0	290455552	17	4394
2026-01-18 09:43:39.61	137.13	15.84	-28.3	-30.0	14.2	1.50e-06	0	42	0	294649856	17	4368
2026-01-18 09:43:40.62	137.08	15.95	-28.3	-30.1	14.2	7.00e-07	0	42	0	297795584	17	4398
2026-01-18 09:43:41.62	137.02	16.06	-28.3	-29.9	14.3	1.50e-06	0	42	0	300941312	17	4342
2026-01-18 09:43:42.63	136.96	16.17	-28.2	-29.8	14.4	7.00e-07	0	42	0	303038464	17	4319
2026-01-18 09:43:43.63	136.91	16.28	-28.2	-29.8	14.4	7.00e-07	0	42	0	306184192	17	4324
2026-01-18 09:43:44.63	136.85	16.39	-28.2	-29.8	14.4	7.00e-07	0	42	0	309329920	17	4312
2026-01-18 09:43:45.63	136.79	16.50	-28.3	-30.1	14.2	1.50e-06	0	43	0	312475648	17	4413
2026-01-18 09:43:46.63	136.74	16.61	-28.3	-30.0	14.3	7.00e-07	0	42	0	315621376	17	4372
2026-01-18 09:43:47.63	136.68	16.72	-28.2	-29.7	14.5	7.00e-07	0	42	0	318767104	17	4288
2026-01-18 09:43:48.63	136.62	16.83	-28.1	-29.6	14.5	1.50e-06	0	42	0	321912832	17	4258
2026-01-18 09:43:49.63	136.56	16.94	-28.1	-29.4	14.6	0.00e+00	0	42	0	325058560	17	4213
2026-01-18 09:43:50.62	136.50	17.05	-28.1	-29.5	14.6	7.00e-07	0	42	0	328204288	17	4239
2026-01-18 09:43:51.63	136.44	17.17	-28.1	-29.5	14.6	7.00e-07	0	42	0	331350016	17	4236
2026-01-18 09:43:52.63	136.38	17.28	-28.1	-29.4	14.7	0.00e+00	0	42	0	334495744	17	4205
2026-01-18 09:43:53.63	136.32	17.39	-28.1	-29.5	14.7	0.00e+00	0	43	0	337641472	17	4219
2026-01-18 09:43:54.64	136.26	17.51	-28.3	-29.9	14.4	1.50e-06	0	42	0	340787200	17	4340
2026-01-18 09:43:55.64	136.20	17.62	-28.2	-29.7	14.5	0.00e+00	0	43	0	343932928	17	4283
2026-01-18 09:43:56.65	136.14	17.74	-28.2	-29.7	14.6	7.00e-07	0	42	0	347078656	17	4286
2026-01-18 09:43:57.65	136.07	17.86	-28.3	-29.8	14.5	0.00e+00	0	43	0	350224384	17	4318
2026-01-18 09:43:58.66	136.01	17.97	-28.2	-29.7	14.6	0.00e+00	0	42	0	353370112	17	4274
2026-01-18 09:43:59.66	135.94	18.09	-28.2	-29.8	14.6	0.00e+00	0	43	0	356515840	17	4297
2026-01-18 09:44:00.67	135.88	18.21	-28.2	-29.8	14.5	0.00e+00	0	43	0	359661568	17	4315
2026-01-18 09:44:01.67	135.82	18.33	-28.3	-29.9	14.5	7.00e-07	0	43	0	362807296	17	4334
2026-01-18 09:44:02.67	135.75	18.45	-28.4	-30.1	14.4	0.00e+00	0	43	0	365953024	17	4394
2026-01-18 09:44:03.67	135.68	18.56	-28.3	-29.9	14.5	7.00e-07	0	42	0	369098752	17	4326
2026-01-18 09:44:04.67	135.62	18.68	-28.3	-30.0	14.5	0.00e+00	0	43	0	372244480	17	4359
2026-01-18 09:44:05.68	135.55	18.80	-28.3	-29.9	14.6	7.00e-07	0	43	0	375390208	17	4330
2026-01-18 09:44:06.68	135.48	18.92	-28.2	-29.7	14.7	0.00e+00	0	42	0	378535936	17	4287
2026-01-18 09:44:07.68	135.41	19.05	-28.3	-29.8	14.6	0.00e+00	0	42	0	381681664	17	4297
2026-01-18 09:44:08.68	135.35	19.17	-28.2	-29.6	14.8	7.00e-07	0	42	0	384827392	17	4238
2026-01-18 09:44:09.69	135.28	19.29	-28.3	-29.8	14.7	0.00e+00	0	43	0	387973120	17	4297
2026-01-18 09:44:10.69	135.21	19.41	-28.3	-29.9	14.6	2.20e-06	0	43	0	391118848	17	4315
2026-01-18 09:44:11.69	135.14	19.54	-28.1	-29.5	14.8	7.00e-07	0	42	0	394264576	17	4201
2026-01-18 09:44:12.70	135.06	19.66	-28.1	-29.5	14.8	0.00e+00	0	43	0	397410304	17	4207
2026-01-18 09:44:13.70	134.99	19.79	-28.1	-29.3	15.0	0.00e+00	0	42	0	400556032	17	4147
2026-01-18 09:44:14.70	134.92	19.91	-27.9	-29.0	15.1	0.00e+00	0	42	0	403701760	17	4073
2026-01-18 09:44:15.70	134.85	20.04	-27.9	-29.0	15.1	0.00e+00	0	43	0	406847488	17	4082
2026-01-18 09:44:16.70	134.77	20.16	-27.9	-28.9	15.2	0.00e+00	0	43	0	409993216	17	4032
2026-01-18 09:44:17.70	134.70	20.29	-27.8	-29.1	15.4	0.00e+00	0	43	0	413138944	16	4208
2026-01-18 09:44:18.70	134.63	20.42	-27.8	-29.2	15.4	0.00e+00	0	43	0	416284672	16	4230
2026-01-18 09:44:19.70	134.55	20.54	-27.7	-28.9	15.5	0.00e+00	0	43	0	419430400	16	4147
2026-01-18 09:44:20.70	134.47	20.67	-27.5	-28.6	15.7	0.00e+00	0	43	0	422576128	16	4065
2026-01-18 09:44:21.70	134.40	20.80	-27.6	-28.6	15.7	0.00e+00	0	43	0	425721856	16	4072
2026-01-18 09:44:22.70	134.32	20.93	-27.6	-28.8	15.6	0.00e+00	0	43	0	428867584	16	4122
2026-01-18 09:44:23.70	134.24	21.06	-27.5	-28.6	15.7	0.00e+00	0	43	0	432013312	16	4057
2026-01-18 09:44:24.70	134.16	21.19	-27.3	-28.2	16.0	0.00e+00	0	43	0	435159040	16	3955
2026-01-18 09:44:25.71	134.08	21.33	-27.3	-28.1	16.0	0.00e+00	0	43	0	438304768	16	3940
2026-01-18 09:44:26.72	134.00	21.46	-27.4	-28.3	15.9	0.00e+00	0	43	0	441450496	16	3991
2026-01-18 09:44:27.73	133.92	21.59	-27.1	-28.1	16.1	0.00e+00	0	43	0	444596224	15	4061
2026-01-18 09:44:28.73	133.84	21.73	-27.1	-28.2	16.1	0.00e+00	0	43	0	447741952	15	4068
2026-01-18 09:44:29.73	133.76	21.86	-27.0	-28.0	16.2	0.00e+00	0	43	0	450887680	15	4022
2026-01-18 09:44:30.73	133.68	22.00	-26.9	-27.8	16.3	0.00e+00	0	43	0	454033408	15	3965
2026-01-18 09:44:31.74	133.59	22.13	-27.0	-27.9	16.2	0.00e+00	0	43	0	457179136	15	4006
2026-01-18 09:44:32.74	133.51	22.27	-27.0	-27.9	16.3	0.00e+00	0	43	0	460324864	15	3987
2026-01-18 09:44:33.74	133.42	22.41	-26.9	-27.8	16.3	0.00e+00	0	43	0	463470592	15	3964
2026-01-18 09:44:34.75	133.33	22.54	-27.1	-28.0	16.2	0.00e+00	0	43	0	466616320	15	4035
2026-01-18 09:44:35.74	133.25	22.68	-26.9	-27.8	16.3	0.00e+00	0	43	0	469762048	15	3966
2026-01-18 09:44:36.74	133.16	22.82	-26.9	-27.7	16.4	1.50e-06	0	43	0	472907776	15	3940
2026-01-18 09:44:37.74	133.07	22.96	-27.0	-27.8	16.3	0.00e+00	0	43	0	476053504	15	3983
2026-01-18 09:44:38.73	132.98	23.10	-26.8	-27.6	16.4	0.00e+00	0	43	0	479199232	15	3920
2026-01-18 09:44:39.73	132.89	23.24	-26.8	-27.6	16.5	2.20e-06	0	43	0	482344960	15	3911
2026-01-18 09:44:40.74	132.80	23.38	-26.9	-27.6	16.5	0.00e+00	0	43	0	485490688	15	3924
2026-01-18 09:44:41.74	132.71	23.52	-26.9	-27.7	16.4	0.00e+00	0	43	0	488636416	15	3936
2026-01-18 09:44:42.74	132.62	23.67	-27.1	-28.0	16.2	0.00e+00	0	43	0	491782144	15	4033
2026-01-18 09:44:43.75	132.52	23.81	-26.9	-27.8	16.4	0.00e+00	0	42	0	494927872	15	3966
2026-01-18 09:44:44.76	132.43	23.96	-27.0	-27.8	16.4	0.00e+00	0	43	0	498073600	15	3976
2026-01-18 09:44:45.76	132.33	24.10	-26.9	-27.8	16.4	7.00e-07	0	43	0	501219328	15	3974
2026-01-18 09:44:46.77	132.24	24.25	-27.0	-28.0	16.3	0.00e+00	0	43	0	504365056	15	4018
2026-01-18 09:44:47.76	132.14	24.39	-27.0	-27.9	16.3	0.00e+00	0	43	0	507510784	15	3997
2026-01-18 09:44:48.76	132.04	24.54	-27.1	-28.2	16.2	1.50e-06	0	43	0	509607936	15	4072
2026-01-18 09:44:49.77	131.94	24.69	-27.0	-28.0	16.3	0.00e+00	0	43	0	513802240	15	4009
2026-01-18 09:44:50.77	131.84	24.84	-27.1	-28.0	16.3	0.00e+00	0	43	0	516947968	15	4030
2026-01-18 09:44:51.76	131.74	24.99	-27.1	-28.2	16.2	0.00e+00	0	43	0	520093696	15	4076
2026-01-18 09:44:52.77	131.64	25.14	-27.1	-28.2	16.2	0.00e+00	0	43	0	523239424	15	4075
2026-01-18 09:44:53.77	131.54	25.29	-27.3	-28.5	16.0	0.00e+00	0	43	0	526385152	15	4155
2026-01-18 09:44:54.77	131.43	25.44	-27.3	-28.6	16.0	0.00e+00	0	43	0	529530880	15	4169
2026-01-18 09:44:55.77	131.33	25.59	-27.4	-28.9	15.8	0.00e+00	0	43	0	531628032	15	4259
2026-01-18 09:44:56.78	131.22	25.75	-27.5	-29.1	15.7	0.00e+00	0	43	0	534773760	15	4301
2026-01-18 09:44:57.78	131.11	25.90	-27.5	-29.1	15.7	0.00e+00	0	43	0	537919488	15	4313
2026-01-18 09:44:58.79	131.00	26.06	-27.6	-29.2	15.7	0.00e+00	0	43	0	541065216	15	4331
2026-01-18 09:44:59.80	130.89	26.22	-27.7	-29.4	15.6	0.00e+00	0	43	0	544210944	15	4384
2026-01-18 09:45:00.78	130.79	26.37	-27.7	-29.4	15.6	7.00e-07	0	43	0	547356672	15	4379
2026-01-18 09:45:01.78	130.67	26.53	-27.6	-29.3	15.6	0.00e+00	0	43	0	550502400	15	4369
2026-01-18 09:45:02.77	130.56	26.68	-27.8	-29.6	15.5	0.00e+00	0	43	0	553648128	15	4453
2026-01-18 09:45:03.77	130.45	26.84	-27.7	-29.4	15.6	0.00e+00	0	43	0	556793856	15	4387
2026-01-18 09:45:04.78	130.33	27.00	-27.5	-29.1	15.8	0.00e+00	0	43	0	559939584	15	4303
2026-01-18 09:45:05.79	130.22	27.16	-27.5	-29.0	15.8	0.00e+00	0	43	0	563085312	15	4271
2026-01-18 09:45:06.79	130.10	27.32	-27.7	-29.4	15.6	0.00e+00	0	43	0	566231040	15	4378
2026-01-18 09:45:07.79	129.98	27.49	-27.6	-29.2	15.7	0.00e+00	0	43	0	569376768	15	4320
2026-01-18 09:45:08.79	129.86	27.65	-27.6	-29.2	15.7	0.00e+00	0	43	0	572522496	15	4338
2026-01-18 09:45:09.79	129.74	27.81	-27.6	-29.2	15.7	0.00e+00	0	43	0	575668224	15	4330
2026-01-18 09:45:10.79	129.62	27.98	-27.6	-29.2	15.7	0.00e+00	0	43	0	578813952	15	4338
2026-01-18 09:45:11.79	129.49	28.14	-27.7	-29.5	15.5	0.00e+00	0	43	0	581959680	15	4412
2026-01-18 09:45:12.79	129.37	28.31	-27.7	-29.4	15.6	0.00e+00	0	43	0	585105408	15	4387
2026-01-18 09:45:13.79	129.24	28.47	-27.7	-29.4	15.6	0.00e+00	0	43	0	588251136	15	4385
2026-01-18 09:45:14.79	129.12	28.64	-27.8	-29.6	15.5	0.00e+00	0	43	0	591396864	15	4454
2026-01-18 09:45:15.80	128.99	28.81	-28.0	-30.0	15.3	0.00e+00	0	43	0	594542592	15	4565
2026-01-18 09:45:16.81	128.85	28.98	-28.0	-30.0	15.3	0.00e+00	0	43	0	597688320	15	4570
2026-01-18 09:45:17.81	128.72	29.15	-28.2	-29.9	15.2	0.00e+00	0	43	0	600834048	16	4421
2026-01-18 09:45:18.81	128.59	29.33	-28.2	-30.0	15.2	0.00e+00	0	43	0	603979776	16	4446
2026-01-18 09:45:19.82	128.45	29.50	-28.2	-30.0	15.2	0.00e+00	0	43	0	607125504	16	4426
2026-01-18 09:45:20.82	128.32	29.67	-28.1	-29.8	15.4	0.00e+00	0	43	0	610271232	16	4364
2026-01-18 09:45:21.82	128.18	29.85	-28.1	-29.9	15.3	0.00e+00	0	43	0	613416960	16	4402
2026-01-18 09:45:22.82	128.04	30.02	-28.0	-29.6	15.5	0.00e+00	0	43	0	616562688	16	4314
2026-01-18 09:45:23.82	127.90	30.20	-28.0	-29.6	15.5	0.00e+00	0	43	0	619708416	16	4311
2026-01-18 09:45:24.82	127.76	30.37	-28.1	-29.8	15.4	0.00e+00	0	43	0	622854144	16	4368
2026-01-18 09:45:25.82	127.61	30.55	-28.0	-29.5	15.5	0.00e+00	0	43	0	625999872	16	4296
2026-01-18 09:45:26.83	127.47	30.73	-27.8	-29.1	15.7	0.00e+00	0	43	0	629145600	16	4192
2026-01-18 09:45:27.83	127.32	30.91	-27.9	-29.2	15.7	0.00e+00	0	43	0	632291328	16	4218
2026-01-18 09:45:28.83	127.17	31.09	-27.9	-29.4	15.5	0.00e+00	0	43	0	635437056	16	4275
2026-01-18 09:45:29.84	127.02	31.27	-28.0	-29.7	15.4	0.00e+00	0	43	0	638582784	16	4334
2026-01-18 09:45:30.84	126.87	31.45	-28.2	-30.1	15.2	0.00e+00	0	43	0	641728512	16	4461
2026-01-18 09:45:31.84	126.71	31.63	-28.2	-30.1	15.2	0.00e+00	0	43	0	644874240	16	4454
2026-01-18 09:45:32.84	126.56	31.82	-28.2	-30.1	15.2	0.00e+00	0	43	0	648019968	16	4473
2026-01-18 09:45:33.85	126.40	32.00	-28.1	-29.7	15.4	0.00e+00	0	43	0	651165696	16	4358
2026-01-18 09:45:34.85	126.24	32.19	-28.1	-29.8	15.4	0.00e+00	0	43	0	654311424	16	4383
2026-01-18 09:45:35.85	126.08	32.38	-28.1	-29.7	15.4	7.00e-07	0	43	0	657457152	16	4355
2026-01-18 09:45:36.85	125.92	32.56	-28.2	-29.9	15.3	0.00e+00	0	43	0	660602880	16	4399
2026-01-18 09:45:37.86	125.75	32.75	-27.9	-29.4	15.7	0.00e+00	0	43	0	663748608	16	4247
2026-01-18 09:45:38.86	125.58	32.94	-28.0	-29.4	15.7	0.00e+00	0	43	0	666894336	16	4253
2026-01-18 09:45:39.86	125.41	33.13	-27.8	-29.2	15.8	0.00e+00	0	43	0	670040064	16	4193
2026-01-18 09:45:40.86	125.24	33.32	-27.9	-29.3	15.7	0.00e+00	0	43	0	673185792	16	4227
2026-01-18 09:45:41.85	125.07	33.51	-28.2	-30.0	15.3	0.00e+00	0	43	0	676331520	16	4421
2026-01-18 09:45:42.85	124.90	33.70	-28.1	-29.8	15.4	0.00e+00	0	43	0	679477248	16	4382
2026-01-18 09:45:43.85	124.72	33.90	-28.2	-29.9	15.4	0.00e+00	0	43	0	682622976	16	4410
2026-01-18 09:45:44.85	124.54	34.09	-28.4	-30.5	15.1	0.00e+00	0	43	0	685768704	16	4582
2026-01-18 09:45:45.85	124.36	34.29	-28.5	-30.6	15.0	7.00e-07	0	43	0	688914432	16	4603
2026-01-18 09:45:46.85	124.17	34.48	-28.7	-30.7	14.7	0.00e+00	0	43	0	692060160	17	4508
2026-01-18 09:45:47.85	123.99	34.68	-28.7	-30.7	14.7	0.00e+00	0	43	0	695205888	17	4521
2026-01-18 09:45:48.85	123.80	34.88	-28.9	-31.0	14.5	7.00e-07	0	43	0	698351616	17	4616
2026-01-18 09:45:49.86	123.61	35.08	-28.8	-30.7	14.6	0.00e+00	0	43	0	701497344	17	4530
2026-01-18 09:45:50.87	123.41	35.28	-28.7	-30.6	14.7	1.50e-06	0	43	0	704643072	17	4491
2026-01-18 09:45:51.87	123.22	35.48	-28.7	-30.7	14.7	0.00e+00	0	43	0	707788800	17	4504
2026-01-18 09:45:52.87	123.02	35.68	-28.7	-30.7	14.6	0.00e+00	0	43	0	710934528	17	4527
2026-01-18 09:45:53.88	122.82	35.89	-28.9	-31.1	14.5	0.00e+00	0	43	0	714080256	17	4637
2026-01-18 09:45:54.87	122.62	36.09	-28.9	-31.1	14.4	0.00e+00	0	43	0	717225984	17	4627
2026-01-18 09:45:55.88	122.41	36.29	-28.9	-31.1	14.4	7.00e-07	0	43	0	720371712	17	4644
2026-01-18 09:45:56.88	122.20	36.50	-29.1	-31.0	14.3	2.20e-06	0	43	0	723517440	18	4484
2026-01-18 09:45:57.88	121.99	36.70	-29.3	-31.6	13.9	3.00e-06	0	43	0	726663168	18	4669
2026-01-18 09:45:58.89	121.77	36.91	-29.3	-31.5	13.9	2.20e-06	0	43	0	729808896	18	4658
2026-01-18 09:45:59.89	121.56	37.12	-29.5	-31.9	13.7	5.30e-06	0	43	0	732954624	18	4778
2026-01-18 09:46:00.89	121.34	37.33	-29.3	-31.0	13.9	4.50e-06	0	43	0	736100352	19	4399
2026-01-18 09:46:01.89	121.12	37.54	-29.3	-31.0	14.0	3.00e-06	0	43	0	738197504	19	4372
2026-01-18 09:46:02.90	120.89	37.75	-29.2	-30.8	14.1	3.00e-06	0	43	0	741343232	19	4324
2026-01-18 09:46:03.90	120.66	37.96	-29.5	-31.5	13.7	6.80e-06	0	43	0	744488960	19	4538
2026-01-18 09:46:04.91	120.43	38.17	-29.3	-31.1	13.9	3.80e-06	0	43	0	747634688	19	4402
2026-01-18 09:46:05.92	120.19	38.39	-29.4	-31.2	13.9	3.80e-06	0	43	0	751828992	19	4431
2026-01-18 09:46:06.92	119.96	38.60	-29.6	-31.8	13.5	9.10e-06	0	43	0	754974720	19	4636
2026-01-18 09:46:07.92	119.72	38.81	-29.8	-32.3	13.2	1.75e-05	0	43	0	758120448	19	4788
2026-01-18 09:46:08.92	119.47	39.03	-29.5	-31.5	13.7	1.37e-05	0	43	0	760217600	19	4533
2026-01-18 09:46:09.92	119.23	39.24	-29.4	-31.4	13.8	2.20e-06	0	43	0	763363328	19	4495
2026-01-18 09:46:10.92	118.98	39.46	-29.3	-31.0	14.0	2.20e-06	0	43	0	766509056	19	4388
2026-01-18 09:46:11.92	118.72	39.68	-29.5	-31.4	13.8	8.30e-06	0	43	0	769654784	19	4494
2026-01-18 09:46:12.92	118.47	39.89	-29.4	-31.2	13.9	3.00e-06	0	43	0	772800512	19	4443
2026-01-18 09:46:13.92	118.21	40.11	-29.4	-31.3	13.8	3.00e-06	0	43	0	775946240	19	4480
2026-01-18 09:46:14.92	117.94	40.33	-29.8	-32.2	13.3	1.22e-05	0	43	0	779091968	19	4743
2026-01-18 09:46:15.92	117.67	40.55	-29.7	-31.9	13.5	1.29e-05	0	43	0	782237696	19	4638
2026-01-18 09:46:16.92	117.40	40.77	-29.6	-31.7	13.6	6.10e-06	0	43	0	785383424	19	4581
2026-01-18 09:46:17.92	117.13	40.99	-29.5	-31.6	13.7	3.80e-06	0	43	0	788529152	19	4562
2026-01-18 09:46:18.92	116.85	41.21	-29.5	-31.4	13.8	9.10e-06	0	43	0	791674880	19	4494
2026-01-18 09:46:19.92	116.57	41.43	-29.7	-31.9	13.5	6.10e-06	0	43	0	794820608	19	4654
2026-01-18 09:46:20.92	116.28	41.65	-29.6	-31.6	13.7	5.30e-06	0	43	0	797966336	19	4574
2026-01-18 09:46:21.92	115.99	41.88	-29.6	-31.8	13.6	9.90e-06	0	43	0	801112064	19	4608
2026-01-18 09:46:22.92	115.70	42.10	-30.0	-32.2	13.0	3.12e-05	0	43	0	804257792	20	4636
2026-01-18 09:46:23.92	115.40	42.32	-30.1	-32.4	12.9	4.19e-05	0	43	0	807403520	20	4705
2026-01-18 09:46:24.93	115.09	42.55	-30.5	-33.1	12.1	1.01e-04	0	43	0	810549248	21	4825
2026-01-18 09:46:25.93	114.78	42.78	-30.3	-32.6	12.4	1.51e-04	0	43	0	813694976	21	4654
2026-01-18 09:46:26.94	114.47	43.00	-30.2	-32.1	12.8	8.39e-05	0	43	0	816840704	21	4505
2026-01-18 09:46:27.94	114.15	43.23	-30.1	-32.1	12.8	6.25e-05	0	43	0	819986432	21	4492
2026-01-18 09:46:28.94	113.83	43.45	-30.0	-31.8	13.0	4.04e-05	0	43	0	823132160	21	4397
2026-01-18 09:46:29.95	113.50	43.68	-30.2	-32.2	12.7	5.03e-05	0	43	0	826277888	21	4525
2026-01-18 09:46:30.96	113.17	43.91	-30.0	-31.7	13.0	3.96e-05	0	43	0	829423616	21	4360
2026-01-18 09:46:31.96	112.84	44.14	-30.1	-31.9	12.9	3.50e-05	0	43	0	832569344	21	4437
2026-01-18 09:46:32.97	112.49	44.37	-30.4	-32.7	12.4	1.21e-04	0	43	0	835715072	21	4685
2026-01-18 09:46:33.97	112.15	44.59	-30.7	-33.4	11.9	2.73e-04	0	43	0	838860800	21	4936
2026-01-18 09:46:34.98	111.80	44.82	-30.9	-34.2	11.4	9.70e-04	0	43	0	842006528	21	5227
2026-01-18 09:46:35.98	111.44	45.05	-30.8	-33.8	11.7	6.60e-04	0	43	0	845152256	21	5080
2026-01-18 09:46:36.99	111.08	45.28	-30.6	-33.2	12.2	3.04e-04	0	43	0	848297984	21	4846
2026-01-18 09:46:37.99	110.71	45.51	-30.4	-32.6	12.5	1.56e-04	0	43	0	851443712	21	4668
2026-01-18 09:46:38.98	110.35	45.73	-30.5	-33.0	12.2	1.58e-04	0	43	0	854589440	21	4804
2026-01-18 09:46:39.99	109.97	45.96	-30.5	-32.9	12.3	1.66e-04	0	43	0	857735168	21	4765
2026-01-18 09:46:41.00	109.58	46.19	-30.4	-32.7	12.4	2.14e-04	0	43	0	860880896	21	4689
2026-01-18 09:46:42.00	109.20	46.42	-30.7	-33.6	11.9	3.26e-04	0	43	0	864026624	21	4987
2026-01-18 09:46:43.01	108.80	46.65	-30.7	-33.6	11.9	3.56e-04	0	43	0	867172352	21	4995
2026-01-18 09:46:44.01	108.40	46.87	-30.4	-32.8	12.3	2.50e-04	0	43	0	870318080	21	4737
2026-01-18 09:46:45.01	108.00	47.10	-30.5	-32.9	12.3	1.95e-04	0	43	0	873463808	21	4775
2026-01-18 09:46:46.02	107.58	47.33	-30.5	-33.0	12.2	1.79e-04	0	43	0	876609536	21	4812
2026-01-18 09:46:47.02	107.17	47.55	-30.7	-33.6	11.8	3.86e-04	0	43	0	879755264	21	5027
2026-01-18 09:46:48.03	106.74	47.78	-30.4	-32.8	12.4	2.28e-04	0	43	0	882900992	21	4740
2026-01-18 09:46:49.03	106.31	48.00	-30.2	-32.3	12.6	8.77e-05	0	43	0	886046720	21	4573
2026-01-18 09:46:50.03	105.88	48.22	-29.8	-31.3	13.3	3.05e-05	0	43	0	889192448	21	4255
2026-01-18 09:46:51.04	105.43	48.45	-29.6	-31.3	13.6	9.90e-06	0	43	0	892338176	20	4349
2026-01-18 09:46:52.04	104.99	48.67	-29.7	-31.5	13.5	1.29e-05	0	43	0	895483904	20	4418
2026-01-18 09:46:53.05	104.53	48.89	-29.7	-31.4	13.5	1.22e-05	0	43	0	898629632	20	4395
2026-01-18 09:46:54.05	104.07	49.12	-29.6	-31.2	13.6	9.90e-06	0	43	0	901775360	20	4318
2026-01-18 09:46:55.05	103.60	49.33	-29.6	-31.2	13.7	8.30e-06	0	43	0	904921088	20	4315
2026-01-18 09:46:56.04	103.13	49.55	-29.3	-31.0	14.2	2.20e-06	0	43	0	908066816	19	4360
2026-01-18 09:46:57.05	102.65	49.77	-29.2	-30.7	14.3	1.50e-06	0	43	0	911212544	19	4295
2026-01-18 09:46:58.05	102.16	49.99	-29.4	-31.2	14.0	3.00e-06	0	43	0	914358272	19	4439
2026-01-18 09:46:59.06	101.66	50.20	-29.8	-32.2	13.5	5.30e-06	0	43	0	917504000	19	4736
2026-01-18 09:47:00.06	101.16	50.42	-29.9	-32.3	13.3	1.29e-05	0	43	0	920649728	19	4791
2026-01-18 09:47:01.06	100.65	50.63	-29.6	-31.6	13.8	7.60e-06	0	43	0	923795456	19	4562
2026-01-18 09:47:02.06	100.13	50.84	-29.4	-31.3	14.0	2.20e-06	0	43	0	926941184	19	4464
2026-01-18 09:47:03.06	99.61	51.05	-29.6	-31.8	13.6	7.60e-06	0	43	0	930086912	19	4611
2026-01-18 09:47:04.06	99.08	51.26	-29.6	-31.6	13.8	2.20e-06	0	43	0	933232640	19	4562
2026-01-18 09:47:05.06	98.54	51.46	-29.3	-31.0	14.1	1.50e-06	0	43	0	936378368	19	4382
2026-01-18 09:47:06.07	97.99	51.67	-29.2	-30.7	14.3	0.00e+00	0	43	0	939524096	19	4278
2026-01-18 09:47:07.07	97.44	51.87	-29.0	-30.2	14.7	7.00e-07	0	43	0	942669824	19	4132
2026-01-18 09:47:08.08	96.87	52.07	-29.1	-30.5	14.4	0.00e+00	0	43	0	945815552	19	4231
2026-01-18 09:47:09.08	96.30	52.27	-29.0	-30.3	14.5	7.00e-07	0	43	0	948961280	19	4182
2026-01-18 09:47:10.07	95.73	52.46	-29.3	-31.0	14.1	7.00e-07	0	43	0	952107008	19	4385
2026-01-18 09:47:11.08	95.14	52.66	-29.1	-30.6	14.4	0.00e+00	0	43	0	955252736	19	4263
2026-01-18 09:47:12.09	94.55	52.85	-28.8	-29.9	14.8	0.00e+00	0	43	0	958398464	19	4069
2026-01-18 09:47:13.09	93.95	53.04	-28.9	-30.6	14.7	0.00e+00	0	43	0	961544192	18	4368
2026-01-18 09:47:14.09	93.34	53.23	-28.8	-30.3	14.9	0.00e+00	0	43	0	964689920	18	4272
2026-01-18 09:47:15.10	92.72	53.41	-28.9	-30.6	14.7	0.00e+00	0	43	0	967835648	18	4374
2026-01-18 09:47:16.10	92.10	53.59	-28.9	-30.6	14.7	0.00e+00	0	43	0	970981376	18	4364
2026-01-18 09:47:17.11	91.46	53.77	-28.9	-30.5	14.7	7.00e-07	0	43	0	974127104	18	4345
2026-01-18 09:47:18.11	90.82	53.95	-28.9	-30.6	14.7	0.00e+00	0	43	0	977272832	18	4361
2026-01-18 09:47:19.11	90.18	54.12	-29.0	-30.8	14.6	0.00e+00	0	43	0	980418560	18	4428
2026-01-18 09:47:20.12	89.52	54.29	-28.8	-30.4	14.8	0.00e+00	0	43	0	983564288	18	4309
2026-01-18 09:47:21.12	88.86	54.45	-28.7	-30.2	14.9	0.00e+00	0	43	0	986710016	18	4250
2026-01-18 09:47:22.12	88.19	54.62	-28.8	-30.3	14.9	0.00e+00	0	43	0	989855744	18	4276
2026-01-18 09:47:23.13	87.50	54.78	-28.6	-29.9	15.1	0.00e+00	0	43	0	993001472	18	4157
2026-01-18 09:47:24.13	86.82	54.93	-28.9	-30.5	14.8	0.00e+00	0	43	0	996147200	18	4325
2026-01-18 09:47:25.13	86.13	55.08	-28.7	-30.1	15.0	0.00e+00	0	43	0	999292928	18	4227
2026-01-18 09:47:26.14	85.42	55.23	-28.5	-29.6	15.3	0.00e+00	0	43	0	1002438656	18	4080
2026-01-18 09:47:27.14	84.72	55.37	-28.4	-29.3	15.5	0.00e+00	0	43	0	1005584384	18	4021
2026-01-18 09:47:28.14	84.00	55.51	-28.4	-29.3	15.4	0.00e+00	0	43	0	1008730112	18	4005
2026-01-18 09:47:29.15	83.28	55.65	-28.8	-30.2	15.0	0.00e+00	0	43	0	1011875840	18	4252
2026-01-18 09:47:30.15	82.55	55.78	-29.2	-31.3	14.3	7.00e-07	0	43	0	1013972992	18	4557
2026-01-18 09:47:31.16	81.81	55.91	-29.2	-31.1	14.4	1.50e-06	0	43	0	1017118720	18	4519
2026-01-18 09:47:32.16	81.07	56.03	-29.4	-31.7	14.2	7.00e-07	0	43	0	1020264448	18	4678
2026-01-18 09:47:33.17	80.31	56.15	-29.1	-30.9	14.6	7.00e-07	0	43	0	1024458752	18	4448
2026-01-18 09:47:34.17	79.56	56.26	-28.8	-30.4	14.8	0.00e+00	0	43	0	1027604480	18	4289
2026-01-18 09:47:35.17	78.80	56.37	-28.9	-30.6	14.7	0.00e+00	0	43	0	1030750208	18	4371
2026-01-18 09:47:36.17	78.04	56.48	-28.9	-30.4	14.8	0.00e+00	0	43	0	1033895936	18	4311
2026-01-18 09:47:37.17	77.26	56.58	-28.4	-29.3	15.4	0.00e+00	0	43	0	1037041664	18	4020
2026-01-18 09:47:38.18	76.48	56.67	-27.9	-28.7	16.0	0.00e+00	0	43	0	1039138816	17	3969
2026-01-18 09:47:39.17	75.71	56.76	-27.7	-28.8	16.3	0.00e+00	0	43	0	1042284544	16	4093
2026-01-18 09:47:40.17	74.92	56.85	-27.8	-29.0	16.1	0.00e+00	0	43	0	1045430272	16	4134
2026-01-18 09:47:41.18	74.12	56.93	-27.6	-28.6	16.4	0.00e+00	0	43	0	1048576000	16	4023
2026-01-18 09:47:42.18	73.33	57.00	-27.7	-28.8	16.2	0.00e+00	0	43	0	1051721728	16	4092
2026-01-18 09:47:43.19	72.52	57.07	-28.2	-30.0	15.6	0.00e+00	0	43	0	1054867456	16	4407
2026-01-18 09:47:44.19	71.72	57.13	-28.4	-30.5	15.3	0.00e+00	0	43	0	1058013184	16	4546
2026-01-18 09:47:45.19	70.91	57.19	-28.7	-30.6	15.1	0.00e+00	0	43	0	1061158912	17	4458
2026-01-18 09:47:46.19	70.10	57.24	-28.7	-30.5	15.1	0.00e+00	0	43	0	1064304640	17	4455
2026-01-18 09:47:47.20	69.28	57.29	-28.7	-30.5	15.1	0.00e+00	0	43	0	1067450368	17	4435
2026-01-18 09:47:48.21	68.45	57.33	-28.7	-30.6	15.0	0.00e+00	0	43	0	1070596096	17	4483
2026-01-18 09:47:49.22	67.63	57.37	-28.4	-30.0	15.4	0.00e+00	0	43	0	1073741824	17	4289
2026-01-18 09:47:50.22	66.81	57.40	-28.5	-30.2	15.3	0.00e+00	0	43	0	1076887552	17	4344
2026-01-18 09:47:51.23	65.98	57.42	-28.3	-29.7	15.5	0.00e+00	0	43	0	1080033280	17	4224
2026-01-18 09:47:52.23	65.15	57.44	-28.1	-29.2	15.8	0.00e+00	0	43	0	1083179008	17	4098
2026-01-18 09:47:53.23	64.33	57.46	-27.9	-28.7	16.1	0.00e+00	0	43	0	1086324736	17	3947
2026-01-18 09:47:54.22	63.51	57.46	-27.7	-28.7	16.3	0.00e+00	0	43	0	1089470464	16	4063
2026-01-18 09:47:55.22	62.69	57.47	-27.8	-28.9	16.2	0.00e+00	0	43	0	1092616192	16	4120
2026-01-18 09:47:56.22	61.86	57.46	-28.0	-29.4	15.9	0.00e+00	0	43	0	1095761920	16	4250
2026-01-18 09:47:57.22	61.04	57.45	-28.3	-30.1	15.7	0.00e+00	0	43	0	1098907648	16	4430
2026-01-18 09:47:58.22	60.21	57.44	-28.6	-30.3	15.2	0.00e+00	0	43	0	1102053376	17	4401
2026-01-18 09:47:59.23	59.38	57.42	-28.2	-29.4	15.7	0.00e+00	0	43	0	1105199104	17	4130
2026-01-18 09:48:00.23	58.56	57.39	-28.0	-29.1	15.9	0.00e+00	0	43	0	1108344832	17	4064
2026-01-18 09:48:01.23	57.74	57.36	-27.8	-28.5	16.2	0.00e+00	0	43	0	1111490560	17	3902
2026-01-18 09:48:02.23	56.92	57.32	-28.1	-29.6	15.8	0.00e+00	0	43	0	1114636288	16	4311
2026-01-18 09:48:03.24	56.10	57.28	-28.1	-29.6	15.8	0.00e+00	0	43	0	1117782016	16	4309
2026-01-18 09:48:04.24	55.29	57.23	-28.1	-29.6	15.9	0.00e+00	0	43	0	1120927744	16	4313
2026-01-18 09:48:05.25	54.47	57.18	-28.0	-29.5	15.9	0.00e+00	0	43	0	1124073472	16	4273
2026-01-18 09:48:06.25	53.67	57.12	-27.6	-28.5	16.4	0.00e+00	0	43	0	1127219200	16	4012
2026-01-18 09:48:07.25	52.86	57.05	-27.7	-28.7	16.4	0.00e+00	0	43	0	1130364928	16	4060
2026-01-18 09:48:08.25	52.06	56.99	-27.4	-28.1	16.7	0.00e+00	0	43	0	1133510656	16	3911
2026-01-18 09:48:09.26	51.26	56.91	-27.6	-28.5	16.5	0.00e+00	0	43	0	1136656384	16	3999
2026-01-18 09:48:10.26	50.47	56.83	-27.8	-28.9	16.2	0.00e+00	0	43	0	1139802112	16	4115
2026-01-18 09:48:11.27	49.68	56.74	-27.6	-28.6	16.4	0.00e+00	0	43	0	1142947840	16	4028
2026-01-18 09:48:12.27	48.90	56.65	-27.8	-29.0	16.2	0.00e+00	0	43	0	1146093568	16	4142
2026-01-18 09:48:13.26	48.13	56.56	-28.0	-29.4	16.0	0.00e+00	0	43	0	1149239296	16	4250
2026-01-18 09:48:14.26	47.37	56.46	-28.1	-29.7	15.8	0.00e+00	0	43	0	1152385024	16	4327
2026-01-18 09:48:15.26	46.60	56.35	-28.2	-29.8	15.8	0.00e+00	0	43	0	1155530752	16	4358
2026-01-18 09:48:16.27	45.84	56.24	-28.4	-30.4	15.4	0.00e+00	0	43	0	1158676480	16	4512
2026-01-18 09:48:17.27	45.09	56.13	-28.4	-30.5	15.4	0.00e+00	0	43	0	1161822208	16	4548
2026-01-18 09:48:18.27	44.34	56.01	-28.5	-30.1	15.3	0.00e+00	0	43	0	1164967936	17	4328
2026-01-18 09:48:19.26	43.61	55.89	-28.9	-31.1	14.8	0.00e+00	0	43	0	1168113664	17	4610
2026-01-18 09:48:20.27	42.87	55.76	-29.3	-31.6	14.1	7.00e-07	0	43	0	1171259392	18	4645
2026-01-18 09:48:21.28	42.14	55.63	-28.8	-30.4	14.8	7.00e-07	0	43	0	1174405120	18	4291
2026-01-18 09:48:22.28	41.42	55.49	-28.5	-29.7	15.3	0.00e+00	0	43	0	1177550848	18	4099
2026-01-18 09:48:23.28	40.71	55.35	-28.2	-29.4	15.7	0.00e+00	0	43	0	1180696576	17	4140
2026-01-18 09:48:24.28	40.01	55.21	-28.1	-29.1	15.9	0.00e+00	0	43	0	1183842304	17	4063
2026-01-18 09:48:25.29	39.30	55.06	-27.9	-28.8	16.0	0.00e+00	0	43	0	1186988032	17	3993
2026-01-18 09:48:26.29	38.62	54.91	-27.9	-28.7	16.0	0.00e+00	0	43	0	1190133760	17	3967
2026-01-18 09:48:27.30	37.93	54.75	-28.2	-29.4	15.6	0.00e+00	0	43	0	1193279488	17	4130
2026-01-18 09:48:28.30	37.25	54.59	-28.5	-30.0	15.4	0.00e+00	0	43	0	1196425216	17	4294
2026-01-18 09:48:29.30	36.59	54.43	-28.5	-30.0	15.2	0.00e+00	0	43	0	1199570944	17	4310
2026-01-18 09:48:30.29	35.94	54.26	-28.2	-29.4	15.5	0.00e+00	0	43	0	1202716672	17	4127
2026-01-18 09:48:31.29	35.28	54.10	-28.2	-29.4	15.5	0.00e+00	0	43	0	1205862400	17	4136
2026-01-18 09:48:32.30	34.63	53.92	-28.4	-29.8	15.3	0.00e+00	0	43	0	1209008128	17	4245
2026-01-18 09:48:33.30	34.00	53.75	-28.2	-29.3	15.7	0.00e+00	0	43	0	1212153856	17	4119
2026-01-18 09:48:34.31	33.36	53.57	-28.2	-29.5	15.6	0.00e+00	0	43	0	1215299584	17	4169
2026-01-18 09:48:35.31	32.74	53.39	-28.9	-31.1	14.6	7.00e-07	0	43	0	1218445312	17	4637
2026-01-18 09:48:36.31	32.13	53.20	-29.5	-31.5	13.9	3.80e-06	0	43	0	1221591040	19	4512
2026-01-18 09:48:37.32	31.52	53.02	-29.7	-31.9	13.7	1.29e-05	0	43	0	1224736768	19	4637
2026-01-18 09:48:38.33	30.92	52.83	-29.0	-30.3	14.6	7.00e-07	0	43	0	1227882496	19	4182
2026-01-18 09:48:39.33	30.33	52.63	-28.2	-29.4	15.6	0.00e+00	0	43	0	1231028224	17	4124
2026-01-18 09:48:40.33	29.75	52.44	-27.9	-28.7	16.0	0.00e+00	0	43	0	1234173952	17	3950
2026-01-18 09:48:41.33	29.18	52.25	-28.2	-29.3	15.7	0.00e+00	0	43	0	1237319680	17	4112
2026-01-18 09:48:42.33	28.61	52.05	-28.7	-30.5	15.1	0.00e+00	0	43	0	1240465408	17	4441
2026-01-18 09:48:43.33	28.05	51.85	-29.5	-31.9	14.0	2.20e-06	0	43	0	1243611136	18	4741
2026-01-18 09:48:44.34	27.50	51.64	-29.7	-31.8	13.7	4.50e-06	0	43	0	1246756864	19	4621
2026-01-18 09:48:45.34	26.95	51.44	-29.5	-31.4	13.9	6.10e-06	0	43	0	1249902592	19	4483
2026-01-18 09:48:46.35	26.41	51.23	-29.1	-30.4	14.5	1.50e-06	0	43	0	1253048320	19	4209
2026-01-18 09:48:47.35	25.88	51.03	-29.1	-30.4	14.6	0.00e+00	0	43	0	1256194048	19	4184
2026-01-18 09:48:48.35	25.36	50.82	-29.5	-31.4	13.9	4.50e-06	0	43	0	1259339776	19	4487
2026-01-18 09:48:49.36	24.84	50.60	-30.3	-32.9	12.5	3.20e-05	0	43	0	1262485504	20	4876
2026-01-18 09:48:50.36	24.34	50.39	-31.2	-34.3	11.1	1.31e-03	0	43	0	1265631232	22	5156
2026-01-18 09:48:51.36	23.84	50.18	-31.2	-34.3	11.1	1.78e-03	0	43	0	1267728384	22	5174
2026-01-18 09:48:52.36	23.34	49.97	-30.9	-33.5	11.6	7.29e-04	0	43	0	1270874112	22	4854
2026-01-18 09:48:53.37	22.85	49.75	-30.7	-32.8	12.0	2.80e-04	0	43	0	1275068416	22	4634
2026-01-18 09:48:54.37	22.38	49.53	-30.6	-32.7	12.2	2.37e-04	0	43	0	1278214144	22	4574
2026-01-18 09:48:55.36	21.91	49.32	-30.6	-32.8	12.2	1.98e-04	0	43	0	1281359872	22	4599
2026-01-18 09:48:56.36	21.44	49.10	-30.7	-32.9	12.0	4.64e-04	0	43	0	1284505600	22	4643
2026-01-18 09:48:57.37	20.98	48.87	-30.7	-33.0	11.9	3.91e-04	0	43	0	1287651328	22	4686
2026-01-18 09:48:58.38	20.53	48.65	-31.5	-35.0	10.5	3.44e-03	0	43	0	1290797056	22	5424
2026-01-18 09:48:59.38	20.08	48.43	-32.2	-36.2	9.1	1.81e-02	0	43	0	1292894208	24	5714
2026-01-18 09:49:00.38	19.64	48.21	-32.0	-35.7	9.5	2.10e-02	0	43	0	1296039936	24	5487
2026-01-18 09:49:01.39	19.21	47.98	-31.4	-33.9	10.7	5.47e-03	0	43	0	1299185664	24	4782
2026-01-18 09:49:02.39	18.78	47.76	-30.8	-32.7	11.8	6.86e-04	0	43	0	1302331392	23	4489
2026-01-18 09:49:03.40	18.36	47.53	-30.8	-33.1	11.9	3.52e-04	0	43	0	1305477120	22	4694
2026-01-18 09:49:04.40	17.94	47.31	-31.0	-33.7	11.5	8.61e-04	0	43	0	1308622848	22	4906
2026-01-18 09:49:05.41	17.53	47.08	-31.3	-34.7	10.8	1.16e-03	0	43	0	1311768576	22	5293
2026-01-18 09:49:06.41	17.13	46.86	-31.9	-35.8	9.7	1.02e-02	0	43	0	1314914304	23	5627
2026-01-18 09:49:07.41	16.73	46.63	-32.2	-36.1	9.1	1.54e-02	0	43	0	1318060032	24	5699
2026-01-18 09:49:08.41	16.34	46.41	-32.6	-37.2	8.0	6.67e-02	0	43	0	1321205760	25	6088
2026-01-18 09:49:09.41	15.96	46.18	-32.2	-36.1	8.6	4.33e-02	0	43	0	1324351488	25	5613
2026-01-18 09:49:10.42	15.57	45.95	-31.6	-34.5	10.1	1.05e-02	0	43	0	1327497216	24	5023
2026-01-18 09:49:11.42	15.20	45.73	-30.7	-32.8	12.0	1.28e-03	0	43	0	1330642944	22	4634
2026-01-18 09:49:12.42	14.83	45.50	-30.0	-31.6	13.1	5.11e-05	0	43	0	1333788672	21	4331
2026-01-18 09:49:13.42	14.47	45.27	-29.8	-31.8	13.2	1.75e-05	0	43	0	1336934400	20	4506
2026-01-18 09:49:14.42	14.11	45.05	-30.2	-32.7	12.7	6.56e-05	0	43	0	1340080128	20	4794
2026-01-18 09:49:15.41	13.76	44.82	-30.7	-33.6	11.8	3.25e-04	0	43	0	1343225856	21	4992
2026-01-18 09:49:16.43	13.41	44.59	-30.9	-33.6	11.5	1.28e-03	0	43	0	1346371584	22	4895
2026-01-18 09:49:17.43	13.06	44.37	-30.7	-33.0	11.9	5.16e-04	0	43	0	1349517312	22	4676
2026-01-18 09:49:18.43	12.73	44.14	-30.4	-32.3	12.3	2.56e-04	0	43	0	1352663040	22	4464
2026-01-18 09:49:19.43	12.39	43.91	-30.4	-32.2	12.4	1.82e-04	0	43	0	1355808768	22	4426
2026-01-18 09:49:20.43	12.06	43.69	-30.2	-32.2	12.6	9.00e-05	0	43	0	1358954496	21	4525
2026-01-18 09:49:21.43	11.74	43.46	-29.8	-31.3	13.2	2.89e-05	0	43	0	1362100224	21	4249
2026-01-18 09:49:22.44	11.42	43.24	-29.4	-30.6	13.9	5.30e-06	0	43	0	1365245952	20	4172
2026-01-18 09:49:23.44	11.10	43.01	-29.5	-30.9	13.7	2.20e-06	0	43	0	1368391680	20	4244
2026-01-18 09:49:24.44	10.79	42.79	-29.8	-31.7	13.2	1.90e-05	0	43	0	1371537408	20	4477
2026-01-18 09:49:25.45	10.48	42.56	-30.1	-32.4	12.6	7.09e-05	0	43	0	1374683136	20	4717
2026-01-18 09:49:26.45	10.18	42.34	-30.8	-33.7	11.6	5.00e-04	0	43	0	1377828864	21	5070
2026-01-18 09:49:27.46	9.88	42.11	-31.2	-34.4	10.9	2.16e-03	0	43	0	1380974592	22	5212
2026-01-18 09:49:28.47	9.59	41.89	-31.0	-33.9	11.1	2.23e-03	0	43	0	1384120320	22	5005
2026-01-18 09:49:29.47	9.30	41.67	-30.5	-32.6	12.0	5.30e-04	0	43	0	1387266048	22	4561
2026-01-18 09:49:30.47	9.01	41.45	-30.4	-32.2	12.3	1.98e-04	0	43	0	1390411776	22	4434
2026-01-18 09:49:31.47	8.73	41.23	-30.6	-32.8	11.9	3.11e-04	0	43	0	1393557504	22	4620
2026-01-18 09:49:32.47	8.45	41.01	-30.6	-32.8	11.9	5.84e-04	0	43	0	1396703232	22	4638
2026-01-18 09:49:33.48	8.18	40.78	-30.5	-32.5	12.1	2.61e-04	0	43	0	1399848960	22	4544
2026-01-18 09:49:34.48	7.91	40.57	-30.4	-32.3	12.2	2.19e-04	0	43	0	1402994688	22	4487
2026-01-18 09:49:35.48	7.64	40.35	-30.4	-32.2	12.3	1.98e-04	0	43	0	1406140416	22	4439
2026-01-18 09:49:36.48	7.38	40.13	-30.3	-32.1	12.4	1.52e-04	0	43	0	1409286144	22	4412
2026-01-18 09:49:37.49	7.12	39.91	-30.6	-32.6	12.0	2.89e-04	0	43	0	1412431872	22	4580
2026-01-18 09:49:38.48	6.87	39.70	-30.9	-33.6	11.4	1.01e-03	0	43	0	1415577600	22	4927
2026-01-18 09:49:39.49	6.61	39.48	-31.2	-34.3	10.9	1.41e-03	0	43	0	1418723328	22	5160
2026-01-18 09:49:40.49	6.36	39.26	-31.1	-34.3	10.9	3.08e-03	0	43	0	1421869056	22	5173
2026-01-18 09:49:41.49	6.12	39.05	-30.5	-32.5	12.0	5.59e-04	0	43	0	1425014784	22	4553
2026-01-18 09:49:42.49	5.87	38.84	-29.8	-31.2	13.1	4.27e-05	0	43	0	1428160512	21	4243
2026-01-18 09:49:43.49	5.64	38.62	-29.2	-30.7	14.1	2.20e-06	0	43	0	1431306240	19	4307
2026-01-18 09:49:44.49	5.40	38.41	-28.8	-29.8	14.6	0.00e+00	0	43	0	1434451968	19	4054
2026-01-18 09:49:45.49	5.17	38.20	-28.7	-30.1	14.7	0.00e+00	0	43	0	1437597696	18	4239
2026-01-18 09:49:46.49	4.94	37.99	-28.9	-30.6	14.5	0.00e+00	0	43	0	1440743424	18	4380
2026-01-18 09:49:47.49	4.71	37.78	-29.3	-31.5	14.0	7.00e-07	0	43	0	1443889152	18	4630
2026-01-18 09:49:48.49	4.49	37.57	-29.4	-31.7	13.8	4.50e-06	0	43	0	1447034880	18	4716
2026-01-18 09:49:49.49	4.27	37.36	-29.3	-31.7	13.9	2.20e-06	0	43	0	1450180608	18	4707
2026-01-18 09:49:50.49	4.05	37.16	-29.3	-31.5	13.9	2.20e-06	0	43	0	1453326336	18	4652
2026-01-18 09:49:51.50	3.83	36.95	-29.3	-31.6	13.9	2.20e-06	0	43	0	1456472064	18	4682
2026-01-18 09:49:52.50	3.62	36.74	-29.3	-31.6	13.9	6.10e-06	0	43	0	1459617792	18	4680
2026-01-18 09:49:53.51	3.41	36.53	-29.3	-31.7	13.8	4.50e-06	0	43	0	1462763520	18	4700
2026-01-18 09:49:54.51	3.20	36.33	-29.6	-31.7	13.5	1.06e-05	0	43	0	1465909248	19	4618
2026-01-18 09:49:55.52	2.99	36.13	-29.8	-32.3	13.1	1.83e-05	0	43	0	1469054976	19	4793
2026-01-18 09:49:56.51	2.79	35.93	-29.9	-32.7	12.9	4.80e-05	0	43	0	1472200704	19	4927
2026-01-18 09:49:57.51	2.59	35.72	-29.9	-32.6	12.9	3.96e-05	0	43	0	1475346432	19	4902
2026-01-18 09:49:58.51	2.40	35.52	-29.8	-32.2	13.2	2.67e-05	0	43	0	1478492160	19	4785
2026-01-18 09:49:59.53	2.20	35.32	-29.6	-31.9	13.4	1.06e-05	0	43	0	1481637888	19	4658
2026-01-18 09:50:00.53	2.01	35.12	-29.7	-31.9	13.4	1.52e-05	0	43	0	1484783616	19	4674
2026-01-18 09:50:01.54	1.82	34.92	-29.7	-32.0	13.3	1.60e-05	0	43	0	1487929344	19	4677
2026-01-18 09:50:02.54	1.63	34.72	-29.5	-31.5	13.6	2.05e-05	0	43	0	1491075072	19	4546
2026-01-18 09:50:03.55	1.44	34.53	-29.0	-30.4	14.2	1.50e-06	0	43	0	1494220800	19	4224
2026-01-18 09:50:04.56	1.26	34.33	-28.9	-30.1	14.5	7.00e-07	0	43	0	1497366528	19	4124
2026-01-18 09:50:05.56	1.08	34.14	-28.9	-30.0	14.5	7.00e-07	0	43	0	1500512256	19	4107
2026-01-18 09:50:06.56	0.90	33.94	-28.9	-30.2	14.4	0.00e+00	0	43	0	1503657984	19	4146
2026-01-18 09:50:07.56	0.72	33.75	-29.0	-30.3	14.3	7.00e-07	0	43	0	1506803712	19	4197
2026-01-18 09:50:08.56	0.55	33.56	-29.0	-30.4	14.2	1.50e-06	0	43	0	1509949440	19	4206
2026-01-18 09:50:09.55	0.38	33.37	-28.8	-29.8	14.6	7.00e-07	0	43	0	1513095168	19	4066
2026-01-18 09:50:10.56	0.21	33.18	-28.5	-29.6	15.0	0.00e+00	0	43	0	1516240896	18	4104
2026-01-18 09:50:11.56	0.04	32.99	-28.4	-29.4	15.1	0.00e+00	0	43	0	1519386624	18	4041
2026-01-18 09:50:12.56	359.87	32.80	-28.2	-29.5	15.3	0.00e+00	0	43	0	1521483776	17	4173
2026-01-18 09:50:13.57	359.71	32.61	-28.2	-29.4	15.3	0.00e+00	0	43	0	1525678080	17	4164
2026-01-18 09:50:14.56	359.55	32.43	-28.1	-29.3	15.4	0.00e+00	0	43	0	1528823808	17	4135
2026-01-18 09:50:15.57	359.38	32.24	-28.2	-29.4	15.3	0.00e+00	0	43	0	1531969536	17	4161
2026-01-18 09:50:16.58	359.22	32.05	-28.1	-29.4	15.3	0.00e+00	0	43	0	1535115264	17	4155
2026-01-18 09:50:17.58	359.07	31.87	-28.3	-29.6	15.2	0.00e+00	0	43	0	1538260992	17	4224
2026-01-18 09:50:18.59	358.91	31.69	-28.3	-29.7	15.1	0.00e+00	0	43	0	1541406720	17	4235
2026-01-18 09:50:19.60	358.76	31.50	-28.2	-29.4	15.3	0.00e+00	0	43	0	1543503872	17	4161
2026-01-18 09:50:20.61	358.60	31.32	-28.1	-29.3	15.4	0.00e+00	0	43	0	1546649600	17	4126
2026-01-18 09:50:21.61	358.45	31.14	-28.2	-29.4	15.3	0.00e+00	0	43	0	1549795328	17	4157
2026-01-18 09:50:22.61	358.31	30.96	-28.1	-29.2	15.4	0.00e+00	0	43	0	1553989632	17	4110
2026-01-18 09:50:23.61	358.16	30.78	-28.0	-29.1	15.5	0.00e+00	0	43	0	1557135360	17	4078
2026-01-18 09:50:24.61	358.02	30.61	-28.1	-29.2	15.4	0.00e+00	0	43	0	1559232512	17	4100
2026-01-18 09:50:25.61	357.87	30.43	-28.0	-29.1	15.5	0.00e+00	0	43	0	1562378240	17	4069
2026-01-18 09:50:26.61	357.73	30.25	-27.9	-28.9	15.5	0.00e+00	0	43	0	1566572544	17	4030
2026-01-18 09:50:27.61	357.59	30.08	-27.8	-28.7	15.7	0.00e+00	0	43	0	1568669696	17	3972
2026-01-18 09:50:28.61	357.45	29.91	-27.8	-28.6	15.7	0.00e+00	0	43	0	1571815424	17	3955
2026-01-18 09:50:29.62	357.32	29.73	-28.0	-29.0	15.5	0.00e+00	0	43	0	1574961152	17	4042
2026-01-18 09:50:30.62	357.18	29.56	-28.2	-29.5	15.2	0.00e+00	0	43	0	1578106880	17	4189
2026-01-18 09:50:31.63	357.05	29.39	-28.3	-29.6	15.2	0.00e+00	0	43	0	1581252608	17	4224
2026-01-18 09:50:32.64	356.91	29.21	-28.2	-29.6	15.2	0.00e+00	0	43	0	1584398336	17	4212
2026-01-18 09:50:33.64	356.78	29.05	-28.4	-29.9	15.0	7.00e-07	0	43	0	1587544064	17	4295
2026-01-18 09:50:34.65	356.65	28.87	-28.4	-30.0	14.9	0.00e+00	0	43	0	1590689792	17	4333
2026-01-18 09:50:35.65	356.52	28.71	-28.5	-30.3	14.7	0.00e+00	0	43	0	1593835520	17	4425
2026-01-18 09:50:36.65	356.40	28.54	-28.5	-30.2	14.8	0.00e+00	0	43	0	1596981248	17	4396
2026-01-18 09:50:37.65	356.27	28.37	-28.4	-30.0	14.9	0.00e+00	0	43	0	1600126976	17	4335
2026-01-18 09:50:38.64	356.15	28.21	-28.4	-30.0	14.9	0.00e+00	0	43	0	1603272704	17	4318
2026-01-18 09:50:39.65	356.02	28.04	-28.3	-29.9	15.0	0.00e+00	0	43	0	1606418432	17	4295
2026-01-18 09:50:40.66	355.90	27.88	-28.3	-29.7	15.1	0.00e+00	0	43	0	1609564160	17	4232
2026-01-18 09:50:41.66	355.78	27.72	-28.2	-29.5	15.2	0.00e+00	0	43	0	1612709888	17	4188
2026-01-18 09:50:42.66	355.66	27.55	-28.1	-29.2	15.3	0.00e+00	0	43	0	1615855616	17	4123
2026-01-18 09:50:43.67	355.54	27.39	-28.2	-29.4	15.2	0.00e+00	0	43	0	1619001344	17	4177
2026-01-18 09:50:44.67	355.43	27.23	-28.1	-29.7	15.3	0.00e+00	0	43	0	1622147072	16	4362
2026-01-18 09:50:45.67	355.31	27.07	-28.0	-29.6	15.4	0.00e+00	0	43	0	1625292800	16	4333
2026-01-18 09:50:46.68	355.20	26.91	-28.2	-29.9	15.2	0.00e+00	0	43	0	1628438528	16	4426
2026-01-18 09:50:47.68	355.08	26.75	-28.0	-29.5	15.4	0.00e+00	0	43	0	1631584256	16	4305
2026-01-18 09:50:48.68	354.97	26.60	-27.6	-28.7	15.9	0.00e+00	0	43	0	1634729984	16	4082
2026-01-18 09:50:49.69	354.86	26.44	-27.3	-28.0	16.2	0.00e+00	0	43	0	1637875712	16	3911
2026-01-18 09:50:50.69	354.75	26.28	-27.1	-28.0	16.4	0.00e+00	0	43	0	1641021440	15	4011
2026-01-18 09:50:51.69	354.64	26.13	-27.0	-27.8	16.4	0.00e+00	0	43	0	1644167168	15	3960
2026-01-18 09:50:52.70	354.54	25.97	-26.9	-27.6	16.5	0.00e+00	0	43	0	1647312896	15	3918
2026-01-18 09:50:53.70	354.43	25.82	-26.9	-27.5	16.6	0.00e+00	0	43	0	1650458624	15	3891
2026-01-18 09:50:54.70	354.32	25.67	-26.9	-27.5	16.6	0.00e+00	0	43	0	1653604352	15	3896
2026-01-18 09:50:55.70	354.22	25.52	-26.9	-27.6	16.5	0.00e+00	0	43	0	1656750080	15	3918
2026-01-18 09:50:56.71	354.12	25.36	-26.9	-27.6	16.5	0.00e+00	0	43	0	1659895808	15	3918
2026-01-18 09:50:57.71	354.01	25.21	-26.9	-27.7	16.5	0.00e+00	0	43	0	1663041536	15	3926
2026-01-18 09:50:58.71	353.91	25.06	-27.0	-28.4	16.4	0.00e+00	0	43	0	1666187264	14	4222
2026-01-18 09:50:59.71	353.81	24.92	-27.1	-28.5	16.4	0.00e+00	0	43	0	1669332992	14	4251
2026-01-18 09:51:00.72	353.71	24.77	-27.1	-28.6	16.3	0.00e+00	0	43	0	1672478720	14	4282
2026-01-18 09:51:01.71	353.62	24.62	-27.3	-28.9	16.1	0.00e+00	0	43	0	1675624448	14	4364
2026-01-18 09:51:02.71	353.52	24.47	-27.3	-29.1	16.0	0.00e+00	0	43	0	1678770176	14	4407
2026-01-18 09:51:03.71	353.42	24.33	-27.4	-29.3	15.9	0.00e+00	0	43	0	1681915904	14	4478
2026-01-18 09:51:04.72	353.33	24.18	-27.5	-29.0	15.7	0.00e+00	0	43	0	1685061632	15	4286
2026-01-18 09:51:05.72	353.23	24.04	-27.6	-29.1	15.7	0.00e+00	0	43	0	1688207360	15	4317
2026-01-18 09:51:06.72	353.14	23.89	-27.6	-29.2	15.7	0.00e+00	0	43	0	1691353088	15	4326
2026-01-18 09:51:07.73	353.04	23.75	-27.7	-29.3	15.6	7.00e-07	0	43	0	1694498816	15	4368
2026-01-18 09:51:08.73	352.95	23.61	-27.7	-29.5	15.5	0.00e+00	0	43	0	1697644544	15	4425
2026-01-18 09:51:09.73	352.86	23.47	-27.7	-29.4	15.6	0.00e+00	0	43	0	1700790272	15	4378
2026-01-18 09:51:10.73	352.77	23.32	-27.6	-29.2	15.6	0.00e+00	0	43	0	1703936000	15	4332
2026-01-18 09:51:11.74	352.68	23.18	-27.6	-29.3	15.6	0.00e+00	0	43	0	1707081728	15	4357
2026-01-18 09:51:12.74	352.59	23.04	-27.7	-29.4	15.5	0.00e+00	0	43	0	1710227456	15	4392
2026-01-18 09:51:13.73	352.51	22.91	-27.7	-29.5	15.4	0.00e+00	0	43	0	1713373184	15	4424
2026-01-18 09:51:14.73	352.42	22.77	-27.8	-29.7	15.4	0.00e+00	0	43	0	1716518912	15	4469
2026-01-18 09:51:15.73	352.33	22.63	-27.7	-29.6	15.4	0.00e+00	0	43	0	1719664640	15	4440
2026-01-18 09:51:16.73	352.25	22.49	-27.7	-29.6	15.4	0.00e+00	0	43	0	1722810368	15	4438
2026-01-18 09:51:17.74	352.16	22.36	-27.8	-29.7	15.4	0.00e+00	0	43	0	1725956096	15	4463
2026-01-18 09:51:18.74	352.08	22.22	-27.8	-29.7	15.3	0.00e+00	0	43	0	1729101824	15	4492
2026-01-18 09:51:19.75	352.00	22.09	-27.8	-29.6	15.4	0.00e+00	0	43	0	1732247552	15	4463
2026-01-18 09:51:20.75	351.91	21.95	-27.7	-29.5	15.4	0.00e+00	0	43	0	1735393280	15	4429
2026-01-18 09:51:21.76	351.83	21.82	-27.8	-29.7	15.3	0.00e+00	0	43	0	1738539008	15	4486
2026-01-18 09:51:22.76	351.75	21.68	-27.8	-29.7	15.4	0.00e+00	0	43	0	1741684736	15	4468
2026-01-18 09:51:23.76	351.67	21.55	-27.8	-29.7	15.3	0.00e+00	0	43	0	1744830464	15	4477
2026-01-18 09:51:24.76	351.59	21.42	-27.9	-29.9	15.2	0.00e+00	0	43	0	1747976192	15	4555
2026-01-18 09:51:25.77	351.51	21.29	-27.8	-29.8	15.3	0.00e+00	0	43	0	1751121920	15	4502
2026-01-18 09:51:26.77	351.43	21.16	-27.8	-29.8	15.3	0.00e+00	0	43	0	1754267648	15	4500
2026-01-18 09:51:27.77	351.36	21.03	-27.8	-29.7	15.3	0.00e+00	0	43	0	1757413376	15	4496
2026-01-18 09:51:28.77	351.28	20.90	-27.8	-29.6	15.3	0.00e+00	0	43	0	1760559104	15	4466
2026-01-18 09:51:29.77	351.21	20.77	-27.9	-30.0	15.1	0.00e+00	0	43	0	1763704832	15	4554
2026-01-18 09:51:30.78	351.13	20.64	-28.0	-29.7	15.2	0.00e+00	0	43	0	1766850560	16	4360
2026-01-18 09:51:31.78	351.06	20.51	-28.0	-29.5	15.3	0.00e+00	0	43	0	1769996288	16	4312
2026-01-18 09:51:32.78	350.98	20.39	-28.0	-29.8	15.1	0.00e+00	0	43	0	1773142016	16	4381
2026-01-18 09:51:33.79	350.91	20.26	-28.0	-29.5	15.3	0.00e+00	0	43	0	1776287744	16	4316
2026-01-18 09:51:34.79	350.83	20.13	-27.9	-29.3	15.4	0.00e+00	0	43	0	1779433472	16	4252
2026-01-18 09:51:35.80	350.76	20.01	-27.9	-29.3	15.4	0.00e+00	0	43	0	1782579200	16	4251
2026-01-18 09:51:36.80	350.69	19.88	-27.8	-29.3	15.4	0.00e+00	0	43	0	1785724928	16	4237
2026-01-18 09:51:37.80	350.62	19.76	-28.0	-29.7	15.2	0.00e+00	0	43	0	1788870656	16	4360
2026-01-18 09:51:38.81	350.55	19.63	-27.9	-29.5	15.3	0.00e+00	0	43	0	1792016384	16	4309
2026-01-18 09:51:39.81	350.48	19.51	-27.8	-29.1	15.5	0.00e+00	0	43	0	1795162112	16	4193
2026-01-18 09:51:40.82	350.41	19.39	-27.7	-28.9	15.6	0.00e+00	0	43	0	1798307840	16	4152
2026-01-18 09:51:41.82	350.34	19.27	-27.7	-29.0	15.5	0.00e+00	0	43	0	1801453568	16	4175
2026-01-18 09:51:42.82	350.27	19.15	-27.7	-29.0	15.5	0.00e+00	0	43	0	1804599296	16	4185
2026-01-18 09:51:43.82	350.21	19.03	-27.8	-29.3	15.3	0.00e+00	0	43	0	1807745024	16	4257
2026-01-18 09:51:44.83	350.14	18.90	-27.9	-29.4	15.3	0.00e+00	0	43	0	1810890752	16	4281
2026-01-18 09:51:45.83	350.07	18.78	-28.0	-29.6	15.2	0.00e+00	0	43	0	1814036480	16	4327
2026-01-18 09:51:46.83	350.01	18.67	-27.9	-29.5	15.2	0.00e+00	0	43	0	1817182208	16	4321
2026-01-18 09:51:47.83	349.94	18.55	-27.9	-29.5	15.2	0.00e+00	0	43	0	1819279360	16	4321
2026-01-18 09:51:48.84	349.88	18.43	-28.0	-29.6	15.1	0.00e+00	0	43	0	1822425088	16	4347
2026-01-18 09:51:49.84	349.81	18.31	-28.0	-29.6	15.1	0.00e+00	0	43	0	1825570816	16	4356
2026-01-18 09:51:50.84	349.75	18.19	-28.0	-29.7	15.1	0.00e+00	0	43	0	1828716544	16	4381
2026-01-18 09:51:51.85	349.69	18.08	-28.1	-29.8	15.0	7.00e-07	0	43	0	1831862272	16	4405
2026-01-18 09:51:52.85	349.62	17.96	-28.1	-29.8	15.0	0.00e+00	0	43	0	1835008000	16	4409
2026-01-18 09:51:53.85	349.56	17.85	-28.1	-30.0	14.9	0.00e+00	0	43	0	1838153728	16	4443
2026-01-18 09:51:54.85	349.50	17.73	-28.1	-30.0	14.9	0.00e+00	0	43	0	1841299456	16	4446
2026-01-18 09:51:55.85	349.44	17.62	-28.1	-29.9	14.9	7.00e-07	0	43	0	1844445184	16	4443
2026-01-18 09:51:56.86	349.38	17.50	-28.2	-30.2	14.7	7.00e-07	0	43	0	1847590912	16	4519
2026-01-18 09:51:57.86	349.32	17.39	-28.2	-30.2	14.7	7.00e-07	0	43	0	1850736640	16	4526
2026-01-18 09:51:58.87	349.26	17.28	-28.2	-30.2	14.7	0.00e+00	0	43	0	1853882368	16	4526
2026-01-18 09:51:59.87	349.20	17.16	-28.5	-30.7	14.4	7.00e-07	0	43	0	1857028096	16	4672
2026-01-18 09:52:00.87	349.14	17.05	-28.4	-30.7	14.5	0.00e+00	0	43	0	1860173824	16	4659
2026-01-18 09:52:01.87	349.08	16.94	-28.3	-30.3	14.7	0.00e+00	0	43	0	1863319552	16	4547
2026-01-18 09:52:02.87	349.03	16.83	-28.3	-30.4	14.6	7.00e-07	0	43	0	1866465280	16	4576
2026-01-18 09:52:03.88	348.97	16.72	-28.4	-30.6	14.5	0.00e+00	0	43	0	1869611008	16	4641
2026-01-18 09:52:04.88	348.91	16.61	-28.5	-30.8	14.4	0.00e+00	0	43	0	1872756736	16	4705
2026-01-18 09:52:05.88	348.85	16.50	-28.5	-30.4	14.3	0.00e+00	0	43	0	1875902464	17	4459
2026-01-18 09:52:06.88	348.80	16.39	-28.4	-30.2	14.4	2.20e-06	0	43	0	1879048192	17	4400
2026-01-18 09:52:07.89	348.74	16.28	-28.5	-30.3	14.3	2.20e-06	0	43	0	1882193920	17	4445
2026-01-18 09:52:08.89	348.69	16.17	-28.5	-30.4	14.3	1.50e-06	0	43	0	1885339648	17	4461
2026-01-18 09:52:09.90	348.63	16.06	-28.6	-30.6	14.2	7.00e-07	0	43	0	1888485376	17	4523
2026-01-18 09:52:10.90	348.58	15.96	-28.6	-30.7	14.1	1.50e-06	0	43	0	1891631104	17	4546
2026-01-18 09:52:11.91	348.52	15.85	-28.7	-30.8	14.1	1.50e-06	0	43	0	1894776832	17	4577
2026-01-18 09:52:12.92	348.47	15.74	-28.7	-30.8	14.0	3.00e-06	0	43	0	1897922560	17	4592
2026-01-18 09:52:13.92	348.42	15.63	-28.7	-30.8	14.1	3.00e-06	0	43	0	1901068288	17	4576
2026-01-18 09:52:14.92	348.37	15.53	-28.7	-30.8	14.0	2.20e-06	0	43	0	1904214016	17	4585
2026-01-18 09:52:15.92	348.31	15.42	-28.8	-31.0	13.9	1.50e-06	0	43	0	1907359744	17	4647
2026-01-18 09:52:16.92	348.26	15.32	-28.8	-31.2	13.8	3.00e-06	0	43	0	1910505472	17	4706
2026-01-18 09:52:17.93	348.21	15.21	-28.9	-31.2	13.8	5.30e-06	0	43	0	1913651200	17	4723
2026-01-18 09:52:18.93	348.16	15.11	-28.9	-31.3	13.7	6.10e-06	0	43	0	1916796928	17	4736
2026-01-18 09:52:19.94	348.11	15.01	-28.9	-31.3	13.7	8.30e-06	0	43	0	1919942656	17	4749
2026-01-18 09:52:20.94	348.06	14.90	-29.1	-31.2	13.5	1.06e-05	0	43	0	1923088384	18	4609
2026-01-18 09:52:21.95	348.01	14.80	-29.3	-31.8	13.1	1.98e-05	0	43	0	1926234112	18	4785
2026-01-18 09:52:22.95	347.96	14.70	-29.1	-31.2	13.4	2.51e-05	0	43	0	1929379840	18	4615
2026-01-18 09:52:23.95	347.91	14.60	-29.0	-31.0	13.5	1.06e-05	0	43	0	1932525568	18	4549
2026-01-18 09:52:24.95	347.86	14.50	-28.9	-30.9	13.6	7.60e-06	0	43	0	1935671296	18	4520
2026-01-18 09:52:25.95	347.81	14.39	-28.9	-30.8	13.6	1.22e-05	0	43	0	1938817024	18	4492
2026-01-18 09:52:26.96	347.76	14.29	-29.0	-31.0	13.6	9.90e-06	0	43	0	1941962752	18	4539
2026-01-18 09:52:27.96	347.72	14.19	-28.9	-30.7	13.7	7.60e-06	0	43	0	1945108480	18	4452
2026-01-18 09:52:28.96	347.67	14.09	-29.0	-31.0	13.6	1.14e-05	0	43	0	1948254208	18	4532
2026-01-18 09:52:29.97	347.62	13.99	-28.9	-30.9	13.6	7.60e-06	0	43	0	1951399936	18	4521
2026-01-18 09:52:30.97	347.57	13.89	-29.1	-31.3	13.3	6.10e-06	0	43	0	1954545664	18	4646
2026-01-18 09:52:31.97	347.53	13.80	-28.9	-30.8	13.6	8.30e-06	0	43	0	1957691392	18	4492
2026-01-18 09:52:32.97	347.48	13.70	-28.7	-30.3	13.9	4.50e-06	0	43	0	1960837120	18	4350
2026-01-18 09:52:33.97	347.44	13.60	-28.6	-30.1	14.0	3.00e-06	0	43	0	1963982848	18	4268
2026-01-18 09:52:34.97	347.39	13.50	-28.6	-30.1	14.0	2.20e-06	0	43	0	1967128576	18	4278
2026-01-18 09:52:35.97	347.35	13.41	-28.6	-30.1	14.0	3.80e-06	0	43	0	1970274304	18	4291
2026-01-18 09:52:36.98	347.30	13.31	-28.7	-30.4	13.8	3.00e-06	0	43	0	1973420032	18	4381
2026-01-18 09:52:37.98	347.26	13.21	-28.6	-30.2	13.9	7.60e-06	0	43	0	1976565760	18	4308
2026-01-18 09:52:38.98	347.21	13.12	-28.6	-30.1	14.0	1.50e-06	0	43	0	1979711488	18	4272
2026-01-18 09:52:39.99	347.17	13.02	-28.6	-30.0	14.0	5.30e-06	0	43	0	1982857216	18	4258
2026-01-18 09:52:40.99	347.12	12.92	-28.6	-30.2	13.9	3.00e-06	0	43	0	1986002944	18	4313
2026-01-18 09:52:42.00	347.08	12.83	-28.6	-30.1	13.9	7.00e-07	0	43	0	1989148672	18	4278
2026-01-18 09:52:42.99	347.04	12.73	-28.7	-30.4	13.7	4.50e-06	0	43	0	1992294400	18	4385
2026-01-18 09:52:43.99	347.00	12.64	-28.6	-30.1	13.9	5.30e-06	0	43	0	1995440128	18	4289
2026-01-18 09:52:44.99	346.95	12.55	-28.5	-30.0	14.0	2.20e-06	0	43	0	1998585856	18	4250
2026-01-18 09:52:45.99	346.91	12.45	-28.6	-30.1	13.9	5.30e-06	0	43	0	2001731584	18	4299
2026-01-18 09:52:47.00	346.87	12.36	-28.6	-30.1	13.9	3.80e-06	0	43	0	2004877312	18	4293
2026-01-18 09:52:48.01	346.83	12.26	-28.6	-30.2	13.9	4.50e-06	0	43	0	2008023040	18	4309
2026-01-18 09:52:49.02	346.79	12.17	-28.6	-30.1	13.9	3.00e-06	0	43	0	2011168768	18	4282
2026-01-18 09:52:50.03	346.75	12.08	-28.6	-30.2	13.8	4.50e-06	0	43	0	2014314496	18	4313
2026-01-18 09:52:51.03	346.70	11.99	-28.8	-30.7	13.6	9.90e-06	0	43	0	2017460224	18	4454
2026-01-18 09:52:52.03	346.66	11.90	-28.7	-30.4	13.7	6.10e-06	0	43	0	2020605952	18	4385
2026-01-18 09:52:53.03	346.62	11.80	-28.6	-30.2	13.8	2.20e-06	0	43	0	2023751680	18	4325
2026-01-18 09:52:54.04	346.58	11.71	-28.6	-30.2	13.8	8.30e-06	0	43	0	2026897408	18	4328
2026-01-18 09:52:55.04	346.55	11.62	-28.6	-30.2	13.8	6.10e-06	0	43	0	2030043136	18	4323
2026-01-18 09:52:56.05	346.51	11.53	-28.9	-31.0	13.3	1.60e-05	0	43	0	2033188864	18	4550
2026-01-18 09:52:57.05	346.47	11.44	-28.7	-30.3	13.7	3.80e-06	0	43	0	2036334592	18	4362
2026-01-18 09:52:58.05	346.43	11.35	-28.6	-30.1	13.9	3.80e-06	0	43	0	2039480320	18	4292
2026-01-18 09:52:59.05	346.39	11.26	-28.6	-30.2	13.8	5.30e-06	0	43	0	2042626048	18	4317
2026-01-18 09:53:00.06	346.35	11.17	-28.7	-30.3	13.7	6.10e-06	0	43	0	2045771776	18	4351
2026-01-18 09:53:01.06	346.31	11.08	-28.7	-30.4	13.7	5.30e-06	0	43	0	2048917504	18	4376
2026-01-18 09:53:02.06	346.28	11.00	-28.8	-30.7	13.5	7.60e-06	0	43	0	2052063232	18	4461
2026-01-18 09:53:03.07	346.24	10.91	-28.7	-30.5	13.6	1.14e-05	0	43	0	2055208960	18	4420
2026-01-18 09:53:04.07	346.20	10.82	-28.9	-30.8	13.4	9.90e-06	0	43	0	2058354688	18	4515
2026-01-18 09:53:05.07	346.16	10.73	-28.8	-30.6	13.5	1.44e-05	0	43	0	2061500416	18	4445
2026-01-18 09:53:06.08	346.13	10.64	-28.7	-30.3	13.7	5.30e-06	0	43	0	2064646144	18	4352
2026-01-18 09:53:07.08	346.09	10.56	-28.7	-30.5	13.6	8.30e-06	0	43	0	2067791872	18	4413
2026-01-18 09:53:08.09	346.05	10.47	-28.7	-30.5	13.6	7.60e-06	0	43	0	2070937600	18	4402
2026-01-18 09:53:09.08	346.02	10.38	-28.9	-30.8	13.3	1.14e-05	0	43	0	2074083328	18	4509
2026-01-18 09:53:10.08	345.98	10.30	-28.7	-30.5	13.5	9.10e-06	0	43	0	2077229056	18	4423
2026-01-18 09:53:11.08	345.95	10.21	-28.7	-30.3	13.6	9.10e-06	0	43	0	2080374784	18	4370
2026-01-18 09:53:12.08	345.91	10.13	-28.7	-30.4	13.6	9.10e-06	0	43	0	2083520512	18	4377
2026-01-18 09:53:13.08	345.88	10.04	-28.7	-30.4	13.6	8.30e-06	0	43	0	2086666240	18	4380
2026-01-18 09:53:14.08	345.84	9.96	-28.7	-30.4	13.6	7.60e-06	0	43	0	2089811968	18	4392
2026-01-18 09:53:15.08	345.81	9.87	-28.7	-30.5	13.5	1.29e-05	0	43	0	2092957696	18	4407
2026-01-18 09:53:16.09	345.77	9.79	-28.8	-30.8	13.4	1.83e-05	0	43	0	2095054848	18	4497
2026-01-18 09:53:17.09	345.74	9.70	-28.7	-30.5	13.5	1.37e-05	0	43	0	2098200576	18	4409
2026-01-18 09:53:18.09	345.71	9.62	-28.8	-30.7	13.3	1.44e-05	0	43	0	2101346304	18	4485
2026-01-18 09:53:19.09	345.67	9.54	-28.7	-30.5	13.5	8.30e-06	0	43	0	2104492032	18	4430
2026-01-18 09:53:20.10	345.64	9.45	-28.8	-30.8	13.3	1.67e-05	0	43	0	2107637760	18	4507
2026-01-18 09:53:21.11	345.60	9.37	-28.9	-30.9	13.2	2.36e-05	0	43	0	2110783488	18	4544
2026-01-18 09:53:22.11	345.57	9.29	-28.9	-30.8	13.3	2.51e-05	0	43	0	2113929216	18	4526
2026-01-18 09:53:23.11	345.54	9.20	-28.9	-30.9	13.2	1.90e-05	0	43	0	2117074944	18	4551
2026-01-18 09:53:24.10	345.51	9.12	-29.0	-31.3	13.0	3.50e-05	0	43	0	2120220672	18	4656
2026-01-18 09:53:25.11	345.47	9.04	-28.9	-31.1	13.1	3.43e-05	0	43	0	2123366400	18	4587
2026-01-18 09:53:26.11	345.44	8.96	-29.1	-31.4	12.8	3.73e-05	0	43	0	2126512128	18	4717
2026-01-18 09:53:27.11	345.41	8.88	-29.0	-31.2	13.0	5.03e-05	0	43	0	2129657856	18	4651
2026-01-18 09:53:28.11	345.38	8.80	-29.1	-31.5	12.8	7.24e-05	0	43	0	2132803584	18	4732
