passes_logs/2026/01/18/R2M6_AANII_01/R2M6_AANII_01__20260118_103209_NOAA_20_JPSS-1_rec.log

#Pass ID: 20260118_103209_NOAA 20 (JPSS-1)
#Satellite: NOAA 20 (JPSS-1)
#Configuration: NOAA 20
#almurnet v.1.7.20240730
#Start time: 2026-01-18 10:32:10

#Version: 2.2.20231116
#Station: R2M6_AANII_01
#Location: 30.233357 lon 59.946436 lat
#TLE: 1 43013U 17073A   26017.30359522  .00000067  00000+0  52526-4 0  9990
#TLE: 2 43013  98.7639 318.2187 0001419  36.2087 323.9184 14.19536557423067

#Time	Az	El	Level	Level2	SNR	BER	BlckErr	Temp	State	Recorded	gain1	gain2
2026-01-18 10:32:10.41	166.83	7.06	-31.9	-37.9	4.9	1.32e+00	0	41	0	0	25	7184
2026-01-18 10:32:11.41	166.85	7.14	-31.9	-37.7	4.9	1.30e+00	0	41	104	0	25	7019
2026-01-18 10:32:12.42	166.87	7.22	-31.9	-37.6	7.6	9.58e-02	0	41	0	0	25	6931
2026-01-18 10:32:13.42	166.89	7.30	-31.8	-37.3	7.8	8.63e-02	0	41	0	1048576	25	6792
2026-01-18 10:32:14.43	166.90	7.38	-31.9	-37.8	7.4	1.14e-01	0	41	0	3145728	25	7110
2026-01-18 10:32:15.43	166.92	7.45	-32.0	-38.0	7.3	1.06e-01	0	41	0	5242880	25	7191
2026-01-18 10:32:16.44	166.94	7.53	-32.0	-38.1	7.2	1.31e-01	0	41	0	7340032	25	7278
2026-01-18 10:32:17.44	166.95	7.61	-32.1	-38.5	6.9	1.43e-01	0	41	0	9437184	25	7545
2026-01-18 10:32:18.44	166.97	7.69	-32.0	-38.1	7.3	1.30e-01	0	41	0	10485760	25	7262
2026-01-18 10:32:19.44	166.99	7.77	-32.1	-38.4	7.0	1.51e-01	0	41	0	12582912	25	7470
2026-01-18 10:32:20.45	167.01	7.85	-31.9	-37.6	7.6	1.05e-01	0	41	0	14680064	25	6947
2026-01-18 10:32:21.46	167.02	7.93	-31.7	-37.4	8.2	6.98e-02	0	41	0	16777216	24	6876
2026-01-18 10:32:22.46	167.04	8.01	-31.6	-36.9	8.6	5.16e-02	0	41	0	18874368	24	6572
2026-01-18 10:32:23.47	167.06	8.09	-31.4	-35.9	9.3	1.95e-02	0	41	0	19922944	24	6061
2026-01-18 10:32:24.47	167.08	8.17	-31.2	-35.8	9.9	1.47e-02	0	41	0	22020096	23	6061
2026-01-18 10:32:25.47	167.09	8.25	-31.1	-35.4	10.1	9.18e-03	0	41	0	24117248	23	5900
2026-01-18 10:32:26.47	167.11	8.34	-31.1	-35.2	10.3	6.03e-03	0	41	0	26214400	23	5773
2026-01-18 10:32:27.47	167.13	8.42	-31.0	-35.1	10.4	5.18e-03	0	41	0	28311552	23	5754
2026-01-18 10:32:28.48	167.15	8.50	-31.0	-35.1	10.3	4.55e-03	0	41	0	29360128	23	5751
2026-01-18 10:32:29.48	167.17	8.58	-31.1	-35.3	10.3	4.31e-03	0	41	0	31457280	23	5835
2026-01-18 10:32:30.49	167.19	8.67	-31.2	-35.5	10.1	7.40e-03	0	42	0	33554432	23	5924
2026-01-18 10:32:31.50	167.20	8.75	-31.0	-34.9	10.6	3.61e-03	0	41	0	35651584	23	5639
2026-01-18 10:32:32.50	167.22	8.83	-30.8	-34.3	11.0	2.39e-03	0	41	0	36700160	23	5386
2026-01-18 10:32:33.51	167.24	8.92	-30.8	-34.2	11.1	1.62e-03	0	41	0	38797312	23	5319
2026-01-18 10:32:34.51	167.26	9.00	-30.8	-34.7	11.2	1.26e-03	0	41	0	40894464	22	5645
2026-01-18 10:32:35.51	167.28	9.08	-30.7	-34.5	11.3	9.17e-04	0	42	0	42991616	22	5557
2026-01-18 10:32:36.51	167.30	9.17	-30.7	-34.4	11.3	1.46e-03	0	41	0	45088768	22	5534
2026-01-18 10:32:37.52	167.32	9.25	-30.7	-34.5	11.3	1.23e-03	0	42	0	46137344	22	5578
2026-01-18 10:32:38.52	167.34	9.34	-30.7	-34.4	11.4	1.18e-03	0	41	0	48234496	22	5511
2026-01-18 10:32:39.52	167.35	9.42	-30.7	-34.3	11.4	9.52e-04	0	42	0	50331648	22	5489
2026-01-18 10:32:40.53	167.37	9.51	-30.8	-34.7	11.2	1.20e-03	0	42	0	52428800	22	5635
2026-01-18 10:32:41.53	167.39	9.59	-30.8	-34.7	11.2	1.11e-03	0	42	0	54525952	22	5652
2026-01-18 10:32:42.53	167.41	9.68	-30.8	-34.8	11.1	1.71e-03	0	42	0	55574528	22	5711
2026-01-18 10:32:43.54	167.43	9.76	-30.8	-34.8	11.1	1.83e-03	0	41	0	57671680	22	5687
2026-01-18 10:32:44.54	167.45	9.85	-30.9	-35.0	11.0	1.69e-03	0	42	0	59768832	22	5768
2026-01-18 10:32:45.54	167.47	9.94	-31.0	-35.3	10.8	2.39e-03	0	42	0	61865984	22	5902
2026-01-18 10:32:46.55	167.49	10.02	-30.8	-34.7	11.2	1.95e-03	0	42	0	63963136	22	5661
2026-01-18 10:32:47.56	167.51	10.11	-30.8	-34.6	11.3	1.13e-03	0	42	0	65011712	22	5606
2026-01-18 10:32:48.55	167.53	10.20	-30.8	-34.6	11.4	1.04e-03	0	42	0	67108864	22	5597
2026-01-18 10:32:49.55	167.55	10.29	-30.8	-34.8	11.2	8.94e-04	0	42	0	69206016	22	5651
2026-01-18 10:32:50.56	167.57	10.38	-30.9	-34.9	11.1	1.79e-03	0	42	0	71303168	22	5725
2026-01-18 10:32:51.56	167.59	10.46	-30.8	-34.6	11.4	1.21e-03	0	42	0	73400320	22	5571
2026-01-18 10:32:52.56	167.61	10.55	-30.6	-34.0	11.8	5.43e-04	0	42	0	74448896	22	5322
2026-01-18 10:32:53.56	167.63	10.64	-30.5	-33.7	12.1	4.22e-04	0	42	0	76546048	22	5184
2026-01-18 10:32:54.57	167.65	10.73	-30.5	-33.8	12.0	2.81e-04	0	42	0	78643200	22	5209
2026-01-18 10:32:55.56	167.67	10.82	-30.5	-33.7	12.1	3.43e-04	0	42	0	80740352	22	5184
2026-01-18 10:32:56.56	167.70	10.91	-30.6	-33.8	12.0	3.15e-04	0	42	0	82837504	22	5240
2026-01-18 10:32:57.57	167.72	11.00	-30.5	-33.7	12.1	2.57e-04	0	42	0	83886080	22	5165
2026-01-18 10:32:58.57	167.74	11.09	-30.5	-33.6	12.2	2.44e-04	0	42	0	85983232	22	5120
2026-01-18 10:32:59.57	167.76	11.18	-30.5	-33.6	12.2	2.14e-04	0	42	0	88080384	22	5128
2026-01-18 10:33:00.57	167.78	11.27	-30.4	-33.4	12.4	1.43e-04	0	42	0	90177536	22	5045
2026-01-18 10:33:01.58	167.80	11.37	-30.6	-33.8	12.1	2.66e-04	0	42	0	91226112	22	5212
2026-01-18 10:33:02.59	167.82	11.46	-30.6	-33.9	12.0	2.92e-04	0	42	0	93323264	22	5274
2026-01-18 10:33:03.59	167.84	11.55	-30.6	-33.8	12.1	3.68e-04	0	42	0	95420416	22	5207
2026-01-18 10:33:04.59	167.87	11.64	-30.6	-33.9	12.0	2.65e-04	0	42	0	97517568	22	5236
2026-01-18 10:33:05.59	167.89	11.74	-30.5	-33.6	12.2	2.46e-04	0	42	0	99614720	22	5131
2026-01-18 10:33:06.59	167.91	11.83	-30.5	-33.6	12.2	2.46e-04	0	42	0	100663296	22	5156
2026-01-18 10:33:07.60	167.93	11.93	-30.6	-33.9	12.0	3.41e-04	0	42	0	102760448	22	5281
2026-01-18 10:33:08.60	167.95	12.02	-30.6	-33.9	12.0	3.64e-04	0	42	0	104857600	22	5258
2026-01-18 10:33:09.61	167.98	12.12	-30.6	-34.1	11.9	3.20e-04	0	42	0	106954752	22	5344
2026-01-18 10:33:10.61	168.00	12.21	-30.7	-34.4	11.7	3.62e-04	0	42	0	109051904	22	5472
2026-01-18 10:33:11.61	168.02	12.31	-30.8	-34.5	11.6	7.54e-04	0	42	0	110100480	22	5537
2026-01-18 10:33:12.61	168.04	12.40	-30.7	-34.3	11.7	5.47e-04	0	42	0	112197632	22	5450
2026-01-18 10:33:13.61	168.07	12.50	-30.6	-34.2	11.8	6.45e-04	0	42	0	114294784	22	5422
2026-01-18 10:33:14.61	168.09	12.59	-30.7	-34.3	11.7	4.70e-04	0	42	0	116391936	22	5471
2026-01-18 10:33:15.61	168.11	12.69	-30.7	-34.3	11.7	6.77e-04	0	42	0	118489088	22	5462
2026-01-18 10:33:16.61	168.14	12.79	-30.5	-33.7	12.2	3.76e-04	0	42	0	119537664	22	5214
2026-01-18 10:33:17.62	168.16	12.89	-30.2	-33.6	12.6	1.20e-04	0	42	0	121634816	21	5281
2026-01-18 10:33:18.62	168.18	12.98	-30.2	-33.5	12.6	9.53e-05	0	42	0	123731968	21	5225
2026-01-18 10:33:19.62	168.21	13.08	-30.3	-33.7	12.5	9.46e-05	0	42	0	125829120	21	5337
2026-01-18 10:33:20.63	168.23	13.18	-30.3	-33.7	12.5	1.59e-04	0	42	0	127926272	21	5316
2026-01-18 10:33:21.63	168.26	13.28	-30.3	-33.8	12.5	1.27e-04	0	42	0	128974848	21	5342
2026-01-18 10:33:22.64	168.28	13.38	-30.3	-33.5	12.7	1.04e-04	0	42	0	131072000	21	5226
2026-01-18 10:33:23.64	168.30	13.48	-30.3	-33.8	12.5	8.46e-05	0	42	0	133169152	21	5338
2026-01-18 10:33:24.65	168.33	13.58	-30.4	-34.0	12.4	1.54e-04	0	43	0	135266304	21	5426
2026-01-18 10:33:25.65	168.35	13.68	-30.4	-33.9	12.4	1.32e-04	0	43	0	136314880	21	5386
2026-01-18 10:33:26.65	168.38	13.78	-30.5	-34.1	12.3	1.23e-04	0	42	0	138412032	21	5476
2026-01-18 10:33:27.65	168.40	13.88	-30.6	-34.5	12.1	2.19e-04	0	42	0	140509184	21	5617
2026-01-18 10:33:28.65	168.43	13.99	-30.7	-34.6	12.0	5.08e-04	0	42	0	142606336	21	5680
2026-01-18 10:33:29.66	168.45	14.09	-30.5	-34.1	12.3	2.65e-04	0	43	0	144703488	21	5461
2026-01-18 10:33:30.66	168.48	14.19	-30.4	-33.7	12.6	1.32e-04	0	43	0	145752064	21	5296
2026-01-18 10:33:31.66	168.50	14.30	-30.3	-33.5	12.8	6.25e-05	0	43	0	147849216	21	5192
2026-01-18 10:33:32.67	168.53	14.40	-30.3	-33.4	12.8	5.03e-05	0	43	0	149946368	21	5168
2026-01-18 10:33:33.67	168.55	14.51	-30.3	-33.3	12.9	6.10e-05	0	42	0	152043520	21	5125
2026-01-18 10:33:34.67	168.58	14.61	-30.4	-33.6	12.7	5.34e-05	0	42	0	154140672	21	5248
2026-01-18 10:33:35.67	168.61	14.71	-30.3	-33.5	12.8	8.23e-05	0	43	0	155189248	21	5212
2026-01-18 10:33:36.68	168.63	14.82	-30.2	-33.1	13.1	4.57e-05	0	42	0	157286400	21	5034
2026-01-18 10:33:37.68	168.66	14.93	-30.1	-32.9	13.3	3.20e-05	0	43	0	159383552	21	4944
2026-01-18 10:33:38.68	168.69	15.03	-30.1	-32.8	13.3	1.22e-05	0	43	0	161480704	21	4936
2026-01-18 10:33:39.69	168.71	15.14	-30.1	-32.8	13.3	1.52e-05	0	42	0	163577856	21	4935
2026-01-18 10:33:40.68	168.74	15.25	-30.1	-32.9	13.3	1.44e-05	0	43	0	164626432	21	4957
2026-01-18 10:33:41.69	168.77	15.36	-30.1	-32.8	13.4	1.44e-05	0	43	0	166723584	21	4907
2026-01-18 10:33:42.69	168.79	15.46	-30.1	-32.9	13.3	1.22e-05	0	42	0	168820736	21	4931
2026-01-18 10:33:43.68	168.82	15.57	-30.1	-32.9	13.3	1.67e-05	0	43	0	170917888	21	4948
2026-01-18 10:33:44.69	168.85	15.68	-30.2	-33.1	13.2	1.29e-05	0	43	0	173015040	21	5023
2026-01-18 10:33:45.70	168.88	15.79	-30.3	-33.2	13.2	2.36e-05	0	42	0	174063616	21	5039
2026-01-18 10:33:46.70	168.90	15.90	-30.3	-33.2	13.1	1.75e-05	0	43	0	176160768	21	5056
2026-01-18 10:33:47.71	168.93	16.02	-30.4	-33.6	12.8	2.97e-05	0	43	0	178257920	21	5212
2026-01-18 10:33:48.71	168.96	16.13	-30.4	-33.5	12.9	5.03e-05	0	43	0	180355072	21	5157
2026-01-18 10:33:49.71	168.99	16.24	-30.4	-33.5	12.9	4.34e-05	0	43	0	181403648	21	5163
2026-01-18 10:33:50.71	169.02	16.35	-30.6	-34.0	12.6	4.95e-05	0	43	0	183500800	21	5358
2026-01-18 10:33:51.71	169.05	16.46	-30.5	-33.9	12.7	1.05e-04	0	43	0	185597952	21	5324
2026-01-18 10:33:52.72	169.08	16.58	-30.6	-34.0	12.6	6.86e-05	0	43	0	187695104	21	5357
2026-01-18 10:33:53.72	169.10	16.69	-30.7	-34.5	12.3	1.20e-04	0	43	0	189792256	21	5547
2026-01-18 10:33:54.73	169.13	16.81	-30.7	-34.5	12.3	1.93e-04	0	43	0	191889408	21	5525
2026-01-18 10:33:55.73	169.16	16.92	-30.6	-34.1	12.5	1.18e-04	0	43	0	192937984	21	5395
2026-01-18 10:33:56.74	169.19	17.04	-30.4	-33.6	13.0	7.01e-05	0	43	0	195035136	21	5173
2026-01-18 10:33:57.74	169.22	17.15	-30.4	-33.4	13.1	3.66e-05	0	43	0	197132288	21	5094
2026-01-18 10:33:58.74	169.25	17.27	-30.4	-33.4	13.1	4.57e-05	0	43	0	199229440	21	5105
2026-01-18 10:33:59.74	169.28	17.39	-30.5	-33.8	12.8	4.11e-05	0	43	0	200278016	21	5280
2026-01-18 10:34:00.75	169.32	17.51	-30.5	-33.7	12.9	5.95e-05	0	43	0	202375168	21	5220
2026-01-18 10:34:01.76	169.35	17.63	-30.3	-33.2	13.2	4.19e-05	0	43	0	204472320	21	5017
2026-01-18 10:34:02.75	169.38	17.74	-30.2	-33.0	13.3	2.05e-05	0	43	0	206569472	21	4969
2026-01-18 10:34:03.75	169.41	17.86	-30.2	-33.0	13.4	1.75e-05	0	43	0	208666624	21	4936
2026-01-18 10:34:04.75	169.44	17.98	-30.2	-33.0	13.3	1.14e-05	0	43	0	209715200	21	4971
2026-01-18 10:34:05.76	169.47	18.10	-30.3	-33.1	13.4	1.06e-05	0	43	0	211812352	21	4972
2026-01-18 10:34:06.77	169.50	18.23	-30.4	-33.4	13.1	2.21e-05	0	43	0	213909504	21	5110
2026-01-18 10:34:07.77	169.54	18.35	-30.4	-33.3	13.2	4.34e-05	0	43	0	216006656	21	5069
2026-01-18 10:34:08.77	169.57	18.47	-30.3	-33.1	13.3	1.60e-05	0	43	0	218103808	21	4975
2026-01-18 10:34:09.78	169.60	18.59	-30.2	-33.0	13.4	1.60e-05	0	43	0	219152384	21	4954
2026-01-18 10:34:10.79	169.64	18.72	-30.3	-33.0	13.4	1.37e-05	0	43	0	221249536	21	4952
2026-01-18 10:34:11.79	169.67	18.84	-30.3	-33.2	13.3	1.75e-05	0	43	0	223346688	21	5032
2026-01-18 10:34:12.79	169.70	18.97	-30.4	-33.5	13.1	2.44e-05	0	43	0	225443840	21	5131
2026-01-18 10:34:13.79	169.74	19.09	-30.4	-33.4	13.2	2.67e-05	0	43	0	227540992	21	5084
2026-01-18 10:34:14.80	169.77	19.22	-30.5	-33.6	13.1	1.75e-05	0	43	0	228589568	21	5170
2026-01-18 10:34:15.80	169.80	19.35	-30.5	-33.7	12.9	3.58e-05	0	43	0	230686720	21	5226
2026-01-18 10:34:16.81	169.84	19.48	-30.5	-33.7	13.0	2.59e-05	0	43	0	232783872	21	5222
2026-01-18 10:34:17.80	169.87	19.60	-30.7	-34.2	12.7	4.88e-05	0	43	0	234881024	21	5404
2026-01-18 10:34:18.81	169.91	19.73	-30.6	-34.1	12.7	7.93e-05	0	43	0	236978176	21	5368
2026-01-18 10:34:19.81	169.94	19.86	-30.6	-34.0	12.8	5.72e-05	0	43	0	238026752	21	5327
2026-01-18 10:34:20.82	169.98	19.99	-30.6	-34.0	12.8	7.17e-05	0	43	0	240123904	21	5321
2026-01-18 10:34:21.82	170.02	20.12	-30.6	-34.0	12.8	5.64e-05	0	43	0	242221056	21	5330
2026-01-18 10:34:22.83	170.05	20.26	-30.7	-34.2	12.7	7.01e-05	0	43	0	244318208	21	5403
2026-01-18 10:34:23.84	170.09	20.39	-30.7	-34.4	12.6	9.61e-05	0	43	0	246415360	21	5471
2026-01-18 10:34:24.84	170.12	20.52	-30.6	-34.1	12.8	8.39e-05	0	43	0	247463936	21	5352
2026-01-18 10:34:25.85	170.16	20.66	-30.5	-33.8	12.9	5.64e-05	0	43	0	249561088	21	5231
2026-01-18 10:34:26.86	170.20	20.79	-30.6	-34.0	12.8	4.11e-05	0	43	0	251658240	21	5301
2026-01-18 10:34:27.86	170.24	20.93	-30.6	-33.8	12.9	6.40e-05	0	43	0	253755392	21	5257
2026-01-18 10:34:28.86	170.27	21.06	-30.6	-33.9	12.9	4.34e-05	0	43	0	255852544	21	5257
2026-01-18 10:34:29.87	170.31	21.20	-30.7	-34.3	12.6	5.41e-05	0	43	0	256901120	21	5453
2026-01-18 10:34:30.87	170.35	21.34	-30.8	-34.5	12.5	1.02e-04	0	43	0	258998272	21	5514
2026-01-18 10:34:31.87	170.39	21.47	-30.8	-34.5	12.5	1.32e-04	0	43	0	261095424	21	5505
2026-01-18 10:34:32.87	170.43	21.61	-30.8	-34.7	12.4	1.23e-04	0	43	0	263192576	21	5602
2026-01-18 10:34:33.88	170.47	21.75	-30.8	-34.5	12.5	1.24e-04	0	43	0	265289728	21	5525
2026-01-18 10:34:34.88	170.51	21.89	-30.7	-34.4	12.6	8.23e-05	0	43	0	266338304	21	5460
2026-01-18 10:34:35.89	170.55	22.03	-30.7	-34.4	12.6	8.31e-05	0	43	0	268435456	21	5457
2026-01-18 10:34:36.89	170.59	22.18	-30.8	-34.5	12.5	1.20e-04	0	43	0	270532608	21	5534
2026-01-18 10:34:37.90	170.63	22.32	-31.0	-35.0	12.1	1.61e-04	0	43	0	272629760	21	5752
2026-01-18 10:34:38.90	170.67	22.46	-30.9	-34.4	12.3	2.02e-04	0	43	0	273678336	22	5368
2026-01-18 10:34:39.90	170.71	22.61	-30.8	-34.1	12.5	1.22e-04	0	43	0	275775488	22	5242
2026-01-18 10:34:40.90	170.75	22.75	-30.8	-34.0	12.5	1.54e-04	0	43	0	277872640	22	5218
2026-01-18 10:34:41.90	170.80	22.90	-30.8	-34.0	12.5	9.07e-05	0	43	0	279969792	22	5217
2026-01-18 10:34:42.90	170.84	23.04	-30.9	-34.3	12.4	1.21e-04	0	43	0	282066944	22	5309
2026-01-18 10:34:43.91	170.88	23.19	-30.9	-34.2	12.5	1.23e-04	0	43	0	283115520	22	5259
2026-01-18 10:34:44.91	170.93	23.34	-30.8	-33.9	12.7	9.91e-05	0	43	0	285212672	22	5151
2026-01-18 10:34:45.91	170.97	23.49	-30.8	-33.9	12.6	7.78e-05	0	43	0	287309824	22	5167
2026-01-18 10:34:46.91	171.01	23.64	-30.8	-33.9	12.7	6.86e-05	0	43	0	289406976	22	5157
2026-01-18 10:34:47.92	171.06	23.79	-30.9	-34.1	12.5	8.08e-05	0	43	0	291504128	22	5248
2026-01-18 10:34:48.92	171.10	23.94	-30.8	-34.0	12.6	7.47e-05	0	43	0	292552704	22	5185
2026-01-18 10:34:49.91	171.15	24.09	-30.7	-33.8	12.8	6.33e-05	0	43	0	294649856	22	5108
2026-01-18 10:34:50.91	171.19	24.24	-30.6	-33.3	13.1	5.34e-05	0	43	0	296747008	22	4931
2026-01-18 10:34:51.91	171.24	24.40	-30.7	-33.6	12.9	3.28e-05	0	43	0	298844160	22	5035
2026-01-18 10:34:52.92	171.29	24.55	-30.7	-33.6	13.0	5.41e-05	0	43	0	300941312	22	5015
2026-01-18 10:34:53.92	171.33	24.71	-30.6	-33.5	13.0	2.59e-05	0	43	0	301989888	22	4983
2026-01-18 10:34:54.92	171.38	24.87	-30.8	-33.8	12.8	4.80e-05	0	43	0	304087040	22	5109
2026-01-18 10:34:55.93	171.43	25.03	-30.7	-33.6	12.9	5.95e-05	0	43	0	306184192	22	5025
2026-01-18 10:34:56.93	171.48	25.18	-30.6	-33.4	13.1	2.59e-05	0	43	0	308281344	22	4943
2026-01-18 10:34:57.93	171.52	25.34	-30.6	-33.3	13.1	3.50e-05	0	43	0	310378496	22	4940
2026-01-18 10:34:58.94	171.57	25.51	-30.5	-33.0	13.3	3.50e-05	0	43	0	311427072	22	4826
2026-01-18 10:34:59.95	171.62	25.67	-30.5	-33.1	13.3	1.60e-05	0	43	0	313524224	22	4835
2026-01-18 10:35:00.95	171.67	25.83	-30.5	-33.1	13.3	1.22e-05	0	43	0	315621376	22	4834
2026-01-18 10:35:01.96	171.72	26.00	-30.6	-33.4	13.0	1.29e-05	0	43	0	317718528	22	4968
2026-01-18 10:35:02.96	171.78	26.16	-30.6	-33.2	13.2	2.67e-05	0	43	0	318767104	22	4886
2026-01-18 10:35:03.96	171.83	26.32	-30.6	-33.2	13.2	1.29e-05	0	43	0	320864256	22	4880
2026-01-18 10:35:04.96	171.88	26.49	-30.6	-33.3	13.2	1.44e-05	0	43	0	322961408	22	4904
2026-01-18 10:35:05.97	171.93	26.66	-30.6	-33.4	13.1	3.12e-05	0	43	0	325058560	22	4960
2026-01-18 10:35:06.98	171.99	26.83	-30.4	-32.9	13.4	2.05e-05	0	43	0	327155712	22	4762
2026-01-18 10:35:07.98	172.04	27.00	-30.4	-32.9	13.5	1.67e-05	0	43	0	329252864	22	4757
2026-01-18 10:35:08.98	172.09	27.17	-30.5	-33.1	13.4	1.44e-05	0	43	0	330301440	22	4831
2026-01-18 10:35:09.98	172.15	27.34	-30.6	-33.2	13.2	1.37e-05	0	43	0	332398592	22	4884
2026-01-18 10:35:10.99	172.20	27.51	-30.7	-33.5	13.1	1.98e-05	0	43	0	334495744	22	4981
2026-01-18 10:35:11.99	172.26	27.69	-30.6	-33.4	13.2	2.67e-05	0	43	0	336592896	22	4940
2026-01-18 10:35:12.99	172.32	27.86	-30.8	-34.0	12.8	4.50e-05	0	43	0	337641472	22	5158
2026-01-18 10:35:13.99	172.37	28.04	-30.8	-33.8	12.9	4.57e-05	0	43	0	339738624	22	5092
2026-01-18 10:35:15.00	172.43	28.22	-30.9	-34.2	12.6	8.16e-05	0	43	0	341835776	22	5263
2026-01-18 10:35:16.00	172.49	28.39	-30.9	-34.1	12.7	8.92e-05	0	43	0	343932928	22	5232
2026-01-18 10:35:17.00	172.55	28.57	-31.0	-34.4	12.5	1.03e-04	0	43	0	346030080	22	5346
2026-01-18 10:35:18.00	172.61	28.75	-31.2	-35.0	12.1	1.98e-04	0	43	0	347078656	22	5562
2026-01-18 10:35:19.01	172.67	28.94	-31.2	-35.0	12.1	2.74e-04	0	43	0	349175808	22	5596
2026-01-18 10:35:20.01	172.73	29.12	-31.4	-35.5	11.8	4.46e-04	0	43	0	351272960	22	5788
2026-01-18 10:35:21.01	172.79	29.30	-31.3	-35.3	11.9	4.76e-04	0	43	0	353370112	22	5715
2026-01-18 10:35:22.01	172.85	29.49	-31.4	-35.5	11.8	5.00e-04	0	43	0	355467264	22	5782
2026-01-18 10:35:23.02	172.91	29.68	-31.3	-35.3	11.9	4.67e-04	0	43	0	356515840	22	5722
2026-01-18 10:35:24.02	172.98	29.86	-31.3	-35.3	11.9	4.25e-04	0	43	0	358612992	22	5726
2026-01-18 10:35:25.02	173.04	30.05	-31.4	-35.6	11.7	5.12e-04	0	43	0	360710144	22	5832
2026-01-18 10:35:26.02	173.10	30.24	-31.5	-35.4	11.5	6.35e-04	0	43	0	362807296	23	5654
2026-01-18 10:35:27.02	173.17	30.43	-31.5	-35.2	11.6	8.67e-04	0	43	0	364904448	23	5570
2026-01-18 10:35:28.03	173.24	30.63	-31.4	-35.2	11.7	6.51e-04	0	43	0	365953024	23	5544
2026-01-18 10:35:29.03	173.30	30.82	-31.5	-35.4	11.5	6.27e-04	0	43	0	368050176	23	5621
2026-01-18 10:35:30.04	173.37	31.01	-31.7	-35.9	11.1	1.36e-03	0	43	0	370147328	23	5872
2026-01-18 10:35:31.04	173.44	31.21	-31.7	-36.0	11.1	1.69e-03	0	43	0	372244480	23	5904
2026-01-18 10:35:32.04	173.51	31.41	-31.8	-36.3	10.9	2.07e-03	0	43	0	374341632	23	6068
2026-01-18 10:35:33.05	173.58	31.61	-31.8	-36.4	10.8	2.42e-03	0	43	0	375390208	23	6095
2026-01-18 10:35:34.05	173.65	31.81	-31.9	-36.8	10.6	3.08e-03	0	43	0	377487360	23	6284
2026-01-18 10:35:35.05	173.72	32.01	-31.8	-36.4	10.8	2.66e-03	0	43	0	379584512	23	6082
2026-01-18 10:35:36.05	173.80	32.21	-31.8	-36.2	10.9	2.56e-03	0	43	0	381681664	23	6022
2026-01-18 10:35:37.06	173.87	32.42	-31.9	-36.5	10.8	2.77e-03	0	43	0	382730240	23	6137
2026-01-18 10:35:38.05	173.94	32.62	-31.6	-35.7	11.3	1.70e-03	0	43	0	384827392	23	5761
2026-01-18 10:35:39.05	174.02	32.83	-31.3	-34.8	11.9	6.73e-04	0	43	0	386924544	23	5392
2026-01-18 10:35:40.05	174.09	33.03	-31.2	-34.4	12.3	2.53e-04	0	43	0	389021696	23	5203
2026-01-18 10:35:41.05	174.17	33.24	-31.1	-34.0	12.6	1.12e-04	0	43	0	391118848	23	5049
2026-01-18 10:35:42.05	174.25	33.45	-31.1	-34.1	12.5	1.07e-04	0	43	0	392167424	23	5089
2026-01-18 10:35:43.05	174.33	33.66	-30.9	-33.4	12.9	7.17e-05	0	43	0	394264576	23	4848
2026-01-18 10:35:44.05	174.41	33.88	-30.9	-33.5	12.9	5.11e-05	0	43	0	396361728	23	4863
2026-01-18 10:35:45.06	174.49	34.10	-30.7	-33.5	13.3	3.58e-05	0	43	0	398458880	22	4965
2026-01-18 10:35:46.06	174.57	34.31	-30.6	-33.3	13.4	1.37e-05	0	43	0	400556032	22	4873
2026-01-18 10:35:47.06	174.65	34.53	-30.6	-33.1	13.5	1.14e-05	0	43	0	401604608	22	4824
2026-01-18 10:35:48.06	174.74	34.75	-30.4	-32.7	13.8	6.80e-06	0	43	0	403701760	22	4681
2026-01-18 10:35:49.06	174.82	34.97	-30.3	-32.4	14.0	4.50e-06	0	43	0	405798912	22	4592
2026-01-18 10:35:50.07	174.91	35.19	-30.4	-32.5	13.8	4.50e-06	0	43	0	407896064	22	4625
2026-01-18 10:35:51.07	175.00	35.42	-30.1	-32.3	14.3	1.50e-06	0	43	0	409993216	21	4663
2026-01-18 10:35:52.08	175.09	35.64	-29.9	-32.0	14.5	0.00e+00	0	43	0	411041792	21	4543
2026-01-18 10:35:53.08	175.18	35.87	-29.9	-31.9	14.5	7.00e-07	0	43	0	413138944	21	4527
2026-01-18 10:35:54.07	175.27	36.10	-30.1	-32.3	14.3	7.00e-07	0	43	0	415236096	21	4656
2026-01-18 10:35:55.07	175.36	36.33	-29.9	-31.8	14.6	7.00e-07	0	43	0	417333248	21	4504
2026-01-18 10:35:56.07	175.45	36.56	-30.0	-32.0	14.5	0.00e+00	0	43	0	419430400	21	4567
2026-01-18 10:35:57.07	175.55	36.79	-30.1	-32.4	14.3	3.00e-06	0	43	0	420478976	21	4689
2026-01-18 10:35:58.06	175.64	37.02	-30.2	-32.7	14.1	7.00e-07	0	43	0	422576128	21	4774
2026-01-18 10:35:59.06	175.74	37.26	-30.4	-33.1	13.8	2.20e-06	0	43	0	424673280	21	4917
2026-01-18 10:36:00.07	175.84	37.50	-30.4	-33.2	13.8	3.00e-06	0	43	0	426770432	21	4947
2026-01-18 10:36:01.06	175.94	37.73	-30.5	-33.4	13.6	1.14e-05	0	43	0	427819008	21	5018
2026-01-18 10:36:02.07	176.04	37.98	-30.6	-33.6	13.6	1.14e-05	0	43	0	429916160	21	5093
2026-01-18 10:36:03.07	176.14	38.22	-30.6	-33.8	13.4	1.06e-05	0	43	0	432013312	21	5167
2026-01-18 10:36:04.07	176.25	38.46	-30.7	-33.8	13.4	1.37e-05	0	43	0	434110464	21	5187
2026-01-18 10:36:05.08	176.36	38.71	-30.7	-34.0	13.3	1.37e-05	0	43	0	436207616	21	5269
2026-01-18 10:36:06.08	176.46	38.96	-30.9	-34.5	13.0	2.67e-05	0	43	0	437256192	21	5436
2026-01-18 10:36:07.09	176.57	39.21	-31.0	-34.7	12.9	4.80e-05	0	43	0	439353344	21	5530
2026-01-18 10:36:08.09	176.68	39.46	-31.0	-34.3	12.8	5.72e-05	0	43	0	441450496	22	5251
2026-01-18 10:36:09.09	176.80	39.72	-31.1	-34.5	12.6	6.94e-05	0	43	0	443547648	22	5348
2026-01-18 10:36:10.08	176.91	39.97	-31.1	-34.7	12.6	1.06e-04	0	43	0	445644800	22	5413
2026-01-18 10:36:11.09	177.03	40.23	-31.3	-35.0	12.3	1.88e-04	0	43	0	446693376	22	5531
2026-01-18 10:36:12.09	177.15	40.48	-31.2	-34.9	12.4	1.51e-04	0	43	0	448790528	22	5521
2026-01-18 10:36:13.09	177.26	40.74	-31.3	-35.0	12.4	1.25e-04	0	43	0	450887680	22	5531
2026-01-18 10:36:14.09	177.39	41.00	-31.3	-35.1	12.2	1.82e-04	0	43	0	452984832	22	5591
2026-01-18 10:36:15.09	177.51	41.27	-31.4	-35.4	12.1	2.30e-04	0	43	0	454033408	22	5697
2026-01-18 10:36:16.09	177.63	41.53	-31.4	-35.3	12.1	2.93e-04	0	43	0	456130560	22	5684
2026-01-18 10:36:17.10	177.76	41.80	-31.4	-35.0	12.0	3.73e-04	0	43	0	458227712	23	5414
2026-01-18 10:36:18.11	177.89	42.07	-31.5	-35.1	11.9	4.02e-04	0	43	0	460324864	23	5470
2026-01-18 10:36:19.11	178.03	42.34	-31.3	-34.7	12.2	2.86e-04	0	43	0	462422016	23	5327
2026-01-18 10:36:20.11	178.16	42.61	-31.3	-34.5	12.4	2.26e-04	0	43	0	464519168	23	5233
2026-01-18 10:36:21.12	178.30	42.89	-31.2	-34.4	12.4	1.63e-04	0	43	0	465567744	23	5191
2026-01-18 10:36:22.12	178.44	43.17	-31.2	-34.3	12.5	1.02e-04	0	43	0	467664896	23	5136
2026-01-18 10:36:23.13	178.58	43.45	-31.1	-34.1	12.6	8.08e-05	0	43	0	469762048	23	5078
2026-01-18 10:36:24.12	178.72	43.72	-31.2	-34.3	12.5	1.04e-04	0	43	0	471859200	23	5122
2026-01-18 10:36:25.12	178.86	44.01	-31.2	-34.4	12.5	1.01e-04	0	43	0	472907776	23	5178
2026-01-18 10:36:26.12	179.01	44.29	-31.4	-34.8	12.2	1.75e-04	0	43	0	475004928	23	5364
2026-01-18 10:36:27.12	179.16	44.57	-31.5	-35.3	11.9	2.80e-04	0	43	0	477102080	23	5547
2026-01-18 10:36:28.13	179.32	44.86	-31.5	-35.3	11.9	3.68e-04	0	43	0	479199232	23	5537
2026-01-18 10:36:29.13	179.47	45.15	-31.4	-34.9	12.2	2.57e-04	0	43	0	481296384	23	5381
2026-01-18 10:36:30.13	179.63	45.44	-31.3	-34.5	12.4	2.86e-04	0	43	0	482344960	23	5225
2026-01-18 10:36:31.14	179.80	45.74	-31.3	-34.6	12.3	1.36e-04	0	43	0	484442112	23	5268
2026-01-18 10:36:32.14	179.96	46.03	-31.3	-34.6	12.4	1.60e-04	0	43	0	486539264	23	5262
2026-01-18 10:36:33.14	180.13	46.33	-31.2	-34.4	12.5	1.38e-04	0	43	0	488636416	23	5182
2026-01-18 10:36:34.14	180.30	46.63	-31.3	-34.5	12.5	1.33e-04	0	43	0	490733568	23	5203
2026-01-18 10:36:35.14	180.47	46.93	-31.1	-34.1	12.7	6.86e-05	0	43	0	491782144	23	5068
2026-01-18 10:36:36.14	180.65	47.23	-31.2	-34.2	12.6	7.70e-05	0	43	0	493879296	23	5126
2026-01-18 10:36:37.14	180.83	47.53	-31.3	-34.6	12.4	9.46e-05	0	43	0	495976448	23	5261
2026-01-18 10:36:38.14	181.02	47.84	-31.5	-35.0	12.1	2.19e-04	0	43	0	498073600	23	5427
2026-01-18 10:36:39.15	181.21	48.15	-31.3	-34.6	12.3	1.85e-04	0	43	0	500170752	23	5272
2026-01-18 10:36:40.15	181.40	48.46	-31.4	-34.8	12.2	1.75e-04	0	43	0	501219328	23	5354
2026-01-18 10:36:41.15	181.59	48.77	-31.3	-34.7	12.3	2.50e-04	0	43	0	503316480	23	5303
2026-01-18 10:36:42.15	181.79	49.08	-31.1	-33.9	12.8	9.38e-05	0	43	0	505413632	23	4992
2026-01-18 10:36:43.15	182.00	49.40	-30.7	-33.3	13.5	1.83e-05	0	43	0	507510784	22	4874
2026-01-18 10:36:44.16	182.20	49.72	-30.5	-32.7	14.0	3.80e-06	0	43	0	509607936	22	4662
2026-01-18 10:36:45.16	182.42	50.04	-30.4	-32.6	14.0	4.50e-06	0	43	0	510656512	22	4633
2026-01-18 10:36:46.17	182.64	50.36	-30.1	-32.2	14.6	2.20e-06	0	43	0	512753664	21	4607
2026-01-18 10:36:47.17	182.86	50.68	-29.7	-31.8	15.1	0.00e+00	0	43	0	514850816	20	4584
2026-01-18 10:36:48.17	183.08	51.01	-29.5	-31.4	15.4	0.00e+00	0	43	0	516947968	20	4455
2026-01-18 10:36:49.17	183.31	51.33	-29.6	-31.5	15.3	0.00e+00	0	43	0	517996544	20	4478
2026-01-18 10:36:50.17	183.55	51.66	-29.6	-31.6	15.2	0.00e+00	0	43	0	520093696	20	4505
2026-01-18 10:36:51.17	183.79	51.99	-29.2	-31.0	16.1	0.00e+00	0	43	0	522190848	19	4421
2026-01-18 10:36:52.18	184.04	52.32	-28.8	-30.0	16.6	0.00e+00	0	43	0	524288000	19	4151
2026-01-18 10:36:53.18	184.29	52.66	-28.7	-30.4	16.6	0.00e+00	0	43	0	526385152	18	4358
2026-01-18 10:36:54.17	184.54	52.99	-28.7	-30.4	16.7	0.00e+00	0	43	0	527433728	18	4352
2026-01-18 10:36:55.18	184.81	53.33	-28.7	-30.4	16.7	0.00e+00	0	43	0	529530880	18	4350
2026-01-18 10:36:56.18	185.08	53.66	-28.6	-30.0	16.9	0.00e+00	0	43	0	531628032	18	4240
2026-01-18 10:36:57.19	185.36	54.01	-28.5	-29.9	17.0	0.00e+00	0	43	0	533725184	18	4216
2026-01-18 10:36:58.19	185.64	54.35	-28.5	-29.8	17.0	0.00e+00	0	43	0	535822336	18	4186
2026-01-18 10:36:59.19	185.93	54.69	-28.5	-29.9	17.0	0.00e+00	0	43	0	536870912	18	4200
2026-01-18 10:37:00.20	186.22	55.04	-28.6	-30.0	16.9	0.00e+00	0	43	0	538968064	18	4242
2026-01-18 10:37:01.20	186.53	55.38	-28.6	-30.0	17.0	0.00e+00	0	43	0	541065216	18	4239
2026-01-18 10:37:02.19	186.83	55.73	-28.9	-30.7	16.6	0.00e+00	0	43	0	543162368	18	4444
2026-01-18 10:37:03.20	187.15	56.08	-28.8	-30.6	16.6	0.00e+00	0	43	0	545259520	18	4405
2026-01-18 10:37:04.19	187.48	56.43	-29.2	-31.5	16.1	0.00e+00	0	43	0	546308096	18	4678
2026-01-18 10:37:05.19	187.81	56.78	-29.6	-31.9	15.6	0.00e+00	0	43	0	548405248	19	4700
2026-01-18 10:37:06.19	188.15	57.13	-29.7	-32.1	15.5	0.00e+00	0	43	0	550502400	19	4769
2026-01-18 10:37:07.20	188.51	57.49	-29.7	-32.2	15.4	0.00e+00	0	43	0	552599552	19	4793
2026-01-18 10:37:08.20	188.87	57.84	-29.4	-31.4	15.9	0.00e+00	0	43	0	554696704	19	4535
2026-01-18 10:37:09.21	189.24	58.20	-29.2	-31.0	16.1	0.00e+00	0	43	0	555745280	19	4424
2026-01-18 10:37:10.20	189.62	58.55	-29.3	-31.1	16.1	0.00e+00	0	43	0	557842432	19	4462
2026-01-18 10:37:11.21	190.01	58.92	-29.5	-31.6	15.8	0.00e+00	0	43	0	559939584	19	4613
2026-01-18 10:37:12.21	190.42	59.27	-29.3	-31.1	16.1	0.00e+00	0	43	0	562036736	19	4459
2026-01-18 10:37:13.21	190.83	59.63	-28.9	-30.2	16.6	0.00e+00	0	43	0	563085312	19	4180
2026-01-18 10:37:14.22	191.25	60.00	-28.5	-29.8	17.1	0.00e+00	0	43	0	565182464	18	4173
2026-01-18 10:37:15.22	191.69	60.36	-28.3	-29.4	17.4	0.00e+00	0	43	0	567279616	18	4065
2026-01-18 10:37:16.22	192.14	60.72	-28.1	-29.5	17.6	0.00e+00	0	43	0	569376768	17	4191
2026-01-18 10:37:17.22	192.60	61.08	-28.2	-29.6	17.4	0.00e+00	0	43	0	571473920	17	4239
2026-01-18 10:37:18.22	193.07	61.44	-28.1	-29.3	17.7	0.00e+00	0	43	0	572522496	17	4157
2026-01-18 10:37:19.23	193.57	61.81	-28.2	-29.5	17.5	0.00e+00	0	43	0	574619648	17	4220
2026-01-18 10:37:20.23	194.07	62.17	-27.8	-28.7	18.0	0.00e+00	0	43	0	576716800	17	3992
2026-01-18 10:37:21.23	194.59	62.54	-27.5	-28.6	18.4	0.00e+00	0	43	0	578813952	16	4060
2026-01-18 10:37:22.24	195.13	62.90	-27.6	-28.7	18.3	0.00e+00	0	43	0	580911104	16	4101
2026-01-18 10:37:23.23	195.67	63.26	-28.1	-29.9	17.7	0.00e+00	0	43	0	581959680	16	4410
2026-01-18 10:37:24.24	196.24	63.63	-28.5	-30.3	17.2	0.00e+00	0	43	0	584056832	17	4433
2026-01-18 10:37:25.24	196.83	63.99	-28.9	-31.2	16.7	0.00e+00	0	43	0	586153984	17	4686
2026-01-18 10:37:26.25	197.44	64.35	-28.9	-31.2	16.7	0.00e+00	0	43	0	588251136	17	4685
2026-01-18 10:37:27.25	198.06	64.71	-28.5	-30.4	17.1	0.00e+00	0	43	0	590348288	17	4443
2026-01-18 10:37:28.25	198.70	65.07	-28.7	-30.6	17.1	0.00e+00	0	43	0	591396864	17	4519
2026-01-18 10:37:29.25	199.36	65.43	-29.3	-31.6	16.2	0.00e+00	0	43	0	593494016	18	4690
2026-01-18 10:37:30.25	200.05	65.79	-30.5	-33.1	15.2	0.00e+00	0	43	0	595591168	20	4858
2026-01-18 10:37:31.25	200.76	66.14	-30.7	-33.8	13.9	0.00e+00	0	43	0	597688320	21	5131
2026-01-18 10:37:32.25	201.49	66.49	-31.2	-34.6	13.1	5.30e-06	0	43	0	599785472	22	5298
2026-01-18 10:37:33.26	202.25	66.85	-31.1	-34.3	13.2	3.96e-05	0	43	0	600834048	22	5215
2026-01-18 10:37:34.26	203.03	67.20	-30.9	-33.8	13.6	1.14e-05	0	43	0	602931200	22	4990
2026-01-18 10:37:35.27	203.84	67.55	-30.9	-33.8	13.6	8.30e-06	0	43	0	605028352	22	5001
2026-01-18 10:37:36.27	204.68	67.89	-31.2	-34.6	13.2	1.90e-05	0	43	0	607125504	22	5292
2026-01-18 10:37:37.26	205.53	68.23	-31.5	-34.9	12.6	4.57e-05	0	43	0	608174080	23	5319
2026-01-18 10:37:38.26	206.42	68.56	-31.5	-34.9	12.5	1.02e-04	0	43	0	610271232	23	5308
2026-01-18 10:37:39.25	207.33	68.89	-31.3	-34.2	13.0	6.63e-05	0	43	0	612368384	23	5054
2026-01-18 10:37:40.25	208.28	69.22	-31.2	-33.9	13.3	2.21e-05	0	43	0	614465536	23	4922
2026-01-18 10:37:41.26	209.28	69.55	-31.2	-33.9	13.3	3.05e-05	0	43	0	616562688	23	4934
2026-01-18 10:37:42.26	210.30	69.87	-31.0	-33.5	13.5	1.14e-05	0	43	0	617611264	23	4783
2026-01-18 10:37:43.26	211.35	70.19	-30.8	-32.9	13.9	5.30e-06	0	43	0	619708416	23	4596
2026-01-18 10:37:44.26	212.44	70.49	-30.7	-33.0	14.2	4.50e-06	0	43	0	621805568	22	4726
2026-01-18 10:37:45.26	213.57	70.80	-30.8	-33.5	13.9	0.00e+00	0	43	0	623902720	22	4876
2026-01-18 10:37:46.26	214.74	71.10	-31.3	-34.7	13.2	1.37e-05	0	43	0	625999872	22	5317
2026-01-18 10:37:47.26	215.94	71.39	-31.8	-35.6	12.3	1.06e-04	0	43	0	627048448	23	5588
2026-01-18 10:37:48.26	217.19	71.67	-32.1	-36.1	11.5	8.75e-04	0	43	0	629145600	24	5695
2026-01-18 10:37:49.26	218.47	71.95	-31.8	-35.2	12.1	5.78e-04	0	43	0	631242752	24	5336
2026-01-18 10:37:50.26	219.80	72.21	-31.3	-34.2	13.1	5.03e-05	0	43	0	633339904	23	5032
2026-01-18 10:37:51.26	221.16	72.47	-31.3	-34.2	13.1	2.97e-05	0	43	0	635437056	23	5044
2026-01-18 10:37:52.26	222.58	72.72	-31.7	-35.5	12.3	1.03e-04	0	43	0	636485632	23	5538
2026-01-18 10:37:53.26	224.03	72.96	-31.8	-35.6	12.3	1.98e-04	0	43	0	638582784	23	5598
2026-01-18 10:37:54.26	225.52	73.19	-31.6	-35.1	12.5	1.19e-04	0	43	0	640679936	23	5370
2026-01-18 10:37:55.27	227.08	73.42	-31.5	-34.7	12.7	8.62e-05	0	43	0	642777088	23	5225
2026-01-18 10:37:56.27	228.66	73.62	-31.2	-33.9	13.3	3.89e-05	0	43	0	643825664	23	4927
2026-01-18 10:37:57.27	230.28	73.82	-31.2	-33.9	13.3	1.29e-05	0	43	0	645922816	23	4936
2026-01-18 10:37:58.27	231.94	74.00	-31.4	-34.6	12.9	4.88e-05	0	43	0	648019968	23	5173
2026-01-18 10:37:59.27	233.64	74.17	-31.4	-34.6	12.9	3.35e-05	0	43	0	650117120	23	5206
2026-01-18 10:38:00.27	235.38	74.33	-31.4	-34.5	12.9	6.86e-05	0	43	0	652214272	23	5161
2026-01-18 10:38:01.28	237.17	74.48	-31.0	-33.5	13.6	9.90e-06	0	43	0	653262848	23	4768
2026-01-18 10:38:02.28	238.98	74.61	-31.0	-33.4	13.6	6.80e-06	0	43	0	655360000	23	4759
2026-01-18 10:38:03.29	240.83	74.72	-31.3	-34.2	13.2	1.52e-05	0	43	0	657457152	23	5048
2026-01-18 10:38:04.29	242.70	74.82	-30.9	-33.1	13.8	8.30e-06	0	43	0	659554304	23	4633
2026-01-18 10:38:05.29	244.58	74.91	-30.6	-32.7	14.3	1.50e-06	0	43	0	661651456	22	4625
2026-01-18 10:38:06.30	246.51	74.97	-30.8	-33.4	14.0	0.00e+00	0	43	0	662700032	22	4850
2026-01-18 10:38:07.30	248.43	75.03	-31.1	-34.2	13.5	6.10e-06	0	43	0	664797184	22	5131
2026-01-18 10:38:08.30	250.36	75.06	-31.0	-34.0	13.6	1.60e-05	0	43	0	666894336	22	5065
2026-01-18 10:38:09.30	252.30	75.08	-30.9	-33.7	13.7	8.30e-06	0	43	0	668991488	22	4936
2026-01-18 10:38:10.31	254.27	75.08	-31.0	-33.8	13.7	7.60e-06	0	43	0	671088640	22	4996
2026-01-18 10:38:11.31	256.21	75.07	-31.3	-34.6	13.2	2.13e-05	0	43	0	672137216	22	5313
2026-01-18 10:38:12.32	258.17	75.04	-31.5	-35.2	12.8	2.82e-05	0	43	0	674234368	22	5547
2026-01-18 10:38:13.32	260.09	74.99	-31.7	-35.2	12.5	8.23e-05	0	43	0	676331520	23	5411
2026-01-18 10:38:14.32	262.00	74.93	-31.6	-35.0	12.6	9.68e-05	0	44	0	678428672	23	5350
2026-01-18 10:38:15.33	263.91	74.85	-31.7	-35.4	12.4	1.66e-04	0	43	0	680525824	23	5522
2026-01-18 10:38:16.32	265.76	74.75	-31.6	-35.1	12.6	1.43e-04	0	43	0	681574400	23	5379
2026-01-18 10:38:17.33	267.63	74.64	-31.9	-35.8	12.1	2.04e-04	0	43	0	683671552	23	5662
2026-01-18 10:38:18.33	269.44	74.52	-32.5	-37.0	10.4	1.52e-03	0	43	0	685768704	25	6020
2026-01-18 10:38:19.34	271.24	74.38	-33.2	-39.2	8.4	2.15e-02	0	43	0	687865856	26	7178
2026-01-18 10:38:20.34	272.99	74.23	-33.4	-40.2	7.6	8.12e-02	0	43	0	688914432	26	7805
2026-01-18 10:38:21.34	274.70	74.06	-33.0	-38.2	9.0	4.21e-02	0	43	0	691011584	26	6582
2026-01-18 10:38:22.35	276.39	73.88	-32.2	-35.8	11.2	5.77e-03	0	43	0	693108736	25	5467
2026-01-18 10:38:23.35	278.02	73.68	-31.9	-35.1	11.8	5.85e-04	0	43	0	695205888	25	5194
2026-01-18 10:38:24.35	279.62	73.48	-32.1	-35.8	11.3	8.33e-04	0	43	0	697303040	25	5463
2026-01-18 10:38:25.36	281.18	73.26	-32.5	-37.2	10.2	4.49e-03	0	43	0	698351616	25	6123
2026-01-18 10:38:26.36	282.69	73.04	-32.5	-37.1	10.2	6.27e-03	0	43	0	700448768	25	6094
2026-01-18 10:38:27.37	284.17	72.80	-32.2	-36.1	11.0	2.60e-03	0	43	0	702545920	25	5633
2026-01-18 10:38:28.37	285.59	72.55	-32.3	-36.3	10.9	1.42e-03	0	43	0	704643072	25	5729
2026-01-18 10:38:29.37	286.97	72.29	-32.4	-36.7	10.6	4.45e-03	0	43	0	706740224	25	5919
2026-01-18 10:38:30.37	288.31	72.03	-31.9	-34.9	11.9	1.42e-03	0	43	0	707788800	25	5119
2026-01-18 10:38:31.38	289.62	71.75	-31.5	-34.3	12.7	1.30e-04	0	43	0	709885952	24	4973
2026-01-18 10:38:32.37	290.86	71.47	-31.6	-34.7	12.4	9.23e-05	0	43	0	711983104	24	5124
2026-01-18 10:38:33.37	292.07	71.19	-31.8	-35.1	12.1	1.61e-04	0	43	0	714080256	24	5313
2026-01-18 10:38:34.37	293.25	70.89	-31.7	-35.1	12.2	2.75e-04	0	43	0	716177408	24	5291
2026-01-18 10:38:35.38	294.40	70.59	-31.4	-34.2	12.7	8.92e-05	0	43	0	717225984	24	4937
2026-01-18 10:38:36.39	295.51	70.28	-31.4	-34.1	12.7	8.69e-05	0	43	0	719323136	24	4925
2026-01-18 10:38:37.39	296.57	69.96	-31.7	-35.0	12.2	1.01e-04	0	43	0	721420288	24	5246
2026-01-18 10:38:38.39	297.60	69.65	-32.1	-36.2	11.3	9.12e-04	0	43	0	723517440	24	5765
2026-01-18 10:38:39.39	298.59	69.32	-31.9	-35.6	11.7	1.04e-03	0	43	0	725614592	24	5518
2026-01-18 10:38:40.40	299.56	68.99	-31.8	-35.4	11.8	4.10e-04	0	43	0	726663168	24	5410
2026-01-18 10:38:41.40	300.49	68.66	-31.9	-35.7	11.6	7.79e-04	0	43	0	728760320	24	5554
2026-01-18 10:38:42.40	301.39	68.33	-32.0	-36.0	11.4	7.12e-04	0	43	0	730857472	24	5699
2026-01-18 10:38:43.40	302.26	67.99	-32.1	-36.3	11.0	1.87e-03	0	43	0	732954624	24	5864
2026-01-18 10:38:44.40	303.10	67.64	-31.8	-35.3	11.9	1.26e-03	0	43	0	734003200	24	5388
2026-01-18 10:38:45.41	303.92	67.30	-31.7	-35.1	12.1	2.67e-04	0	43	0	736100352	24	5315
2026-01-18 10:38:46.41	304.70	66.95	-32.0	-35.8	11.6	5.61e-04	0	43	0	738197504	24	5615
2026-01-18 10:38:47.41	305.46	66.60	-31.9	-35.6	11.7	1.09e-03	0	43	0	740294656	24	5511
2026-01-18 10:38:48.42	306.21	66.25	-31.2	-34.0	13.0	7.78e-05	0	43	0	742391808	23	4981
2026-01-18 10:38:49.42	306.92	65.89	-31.1	-33.8	13.3	1.22e-05	0	43	0	743440384	23	4893
2026-01-18 10:38:50.43	307.62	65.53	-31.3	-34.2	13.0	3.35e-05	0	43	0	745537536	23	5042
2026-01-18 10:38:51.43	308.28	65.18	-31.1	-33.8	13.2	2.21e-05	0	43	0	747634688	23	4904
2026-01-18 10:38:52.44	308.94	64.82	-30.5	-32.7	14.3	9.10e-06	0	43	0	749731840	22	4618
2026-01-18 10:38:53.44	309.56	64.46	-29.5	-31.0	15.9	0.00e+00	0	43	0	751828992	20	4319
2026-01-18 10:38:54.45	310.17	64.09	-28.7	-30.2	17.0	0.00e+00	0	43	0	752877568	18	4266
2026-01-18 10:38:55.44	310.76	63.74	-28.7	-30.2	17.0	0.00e+00	0	43	0	754974720	18	4278
2026-01-18 10:38:56.44	311.33	63.38	-29.0	-31.0	16.6	0.00e+00	0	43	0	757071872	18	4507
2026-01-18 10:38:57.45	311.89	63.01	-28.5	-29.7	17.3	0.00e+00	0	43	0	759169024	18	4154
2026-01-18 10:38:58.46	312.43	62.65	-27.4	-28.3	18.5	0.00e+00	0	43	0	761266176	16	3983
2026-01-18 10:38:59.45	312.95	62.29	-26.6	-27.6	19.3	0.00e+00	0	43	0	762314752	14	4033
2026-01-18 10:39:00.46	313.46	61.92	-26.9	-28.1	19.1	0.00e+00	0	43	0	764411904	14	4147
2026-01-18 10:39:01.45	313.94	61.56	-27.7	-29.5	18.0	0.00e+00	0	43	0	766509056	15	4437
2026-01-18 10:39:02.46	314.43	61.20	-28.8	-31.0	16.8	0.00e+00	0	43	0	768606208	17	4651
2026-01-18 10:39:03.46	314.89	60.84	-28.5	-30.3	17.1	0.00e+00	0	43	0	770703360	17	4425
2026-01-18 10:39:04.46	315.34	60.48	-28.2	-29.6	17.6	0.00e+00	0	43	0	771751936	17	4224
2026-01-18 10:39:05.46	315.78	60.12	-28.7	-30.7	16.9	0.00e+00	0	43	0	773849088	17	4528
2026-01-18 10:39:06.46	316.20	59.76	-29.7	-32.2	15.5	0.00e+00	0	43	0	775946240	19	4763
2026-01-18 10:39:07.46	316.62	59.40	-31.2	-34.5	13.1	0.00e+00	0	43	0	778043392	22	5290
2026-01-18 10:39:08.47	317.03	59.04	-32.2	-36.8	10.7	2.06e-03	0	43	0	780140544	24	6092
2026-01-18 10:39:09.47	317.42	58.68	-32.0	-35.9	11.3	2.34e-03	0	43	0	781189120	24	5686
2026-01-18 10:39:10.48	317.81	58.32	-31.1	-33.7	13.2	2.14e-04	0	43	0	783286272	23	4871
2026-01-18 10:39:11.48	318.18	57.97	-30.5	-32.7	14.2	8.30e-06	0	43	0	785383424	22	4627
2026-01-18 10:39:12.48	318.54	57.61	-30.9	-33.8	13.5	7.00e-07	0	43	0	787480576	22	5006
2026-01-18 10:39:13.48	318.89	57.26	-31.4	-35.2	12.6	5.41e-05	0	43	0	789577728	22	5541
2026-01-18 10:39:14.48	319.24	56.91	-31.9	-36.1	11.5	1.99e-04	0	43	0	790626304	23	5878
2026-01-18 10:39:15.49	319.58	56.56	-31.8	-35.4	11.7	1.39e-03	0	43	0	792723456	24	5427
2026-01-18 10:39:16.49	319.91	56.21	-30.7	-33.1	13.9	5.26e-05	0	43	0	794820608	22	4762
2026-01-18 10:39:17.49	320.23	55.86	-29.6	-31.5	15.5	0.00e+00	0	43	0	796917760	20	4456
2026-01-18 10:39:18.49	320.54	55.51	-29.3	-31.3	16.0	0.00e+00	0	43	0	797966336	19	4489
2026-01-18 10:39:19.50	320.85	55.17	-29.5	-31.6	15.8	0.00e+00	0	43	0	800063488	19	4578
2026-01-18 10:39:20.49	321.14	54.83	-29.7	-32.0	15.5	0.00e+00	0	43	0	802160640	19	4742
2026-01-18 10:39:21.49	321.43	54.48	-29.8	-32.5	15.2	0.00e+00	0	43	0	804257792	19	4900
2026-01-18 10:39:22.50	321.72	54.14	-29.9	-32.6	15.2	0.00e+00	0	43	0	806354944	19	4917
2026-01-18 10:39:23.50	321.99	53.80	-29.2	-31.0	16.1	0.00e+00	0	43	0	807403520	19	4402
2026-01-18 10:39:24.51	322.27	53.46	-28.2	-29.6	17.4	0.00e+00	0	43	0	809500672	17	4222
2026-01-18 10:39:25.51	322.53	53.13	-27.7	-29.0	18.0	0.00e+00	0	43	0	811597824	16	4178
2026-01-18 10:39:26.52	322.79	52.79	-28.5	-30.7	17.1	0.00e+00	0	43	0	813694976	16	4675
2026-01-18 10:39:27.52	323.04	52.46	-29.5	-31.8	15.5	0.00e+00	0	43	0	815792128	19	4683
2026-01-18 10:39:28.53	323.29	52.12	-30.1	-32.8	14.7	0.00e+00	0	43	0	816840704	20	4910
2026-01-18 10:39:29.53	323.54	51.79	-30.3	-33.2	14.4	7.00e-07	0	43	0	818937856	20	5035
2026-01-18 10:39:30.53	323.77	51.47	-30.1	-32.8	14.6	0.00e+00	0	43	0	821035008	20	4896
2026-01-18 10:39:31.53	324.00	51.14	-30.1	-32.6	14.7	0.00e+00	0	43	0	823132160	20	4836
2026-01-18 10:39:32.54	324.23	50.82	-30.1	-32.6	14.8	7.00e-07	0	43	0	825229312	20	4817
2026-01-18 10:39:33.54	324.45	50.49	-30.3	-33.3	14.4	0.00e+00	0	43	0	826277888	20	5058
2026-01-18 10:39:34.54	324.67	50.18	-31.2	-34.6	12.8	7.60e-06	0	43	0	828375040	22	5335
2026-01-18 10:39:35.54	324.88	49.86	-32.5	-37.7	9.9	3.76e-03	0	43	0	830472192	24	6607
2026-01-18 10:39:36.54	325.09	49.54	-33.3	-40.5	7.0	8.68e-02	0	43	0	832569344	26	8231
2026-01-18 10:39:37.55	325.30	49.22	-33.4	-40.8	6.7	2.04e-01	0	43	0	834666496	26	8460
2026-01-18 10:39:38.55	325.50	48.91	-33.0	-38.8	8.3	6.89e-02	0	43	0	835715072	26	6990
2026-01-18 10:39:39.56	325.70	48.60	-32.6	-37.0	9.7	1.92e-02	0	43	0	837812224	26	6018
2026-01-18 10:39:40.56	325.89	48.29	-32.7	-37.6	9.3	1.51e-02	0	43	0	839909376	26	6312
2026-01-18 10:39:41.57	326.08	47.98	-32.6	-37.1	9.5	2.94e-02	0	43	0	842006528	26	6052
2026-01-18 10:39:42.57	326.27	47.68	-32.6	-37.1	9.7	9.80e-03	0	43	0	844103680	26	6033
2026-01-18 10:39:43.58	326.45	47.37	-32.7	-37.6	9.3	1.47e-02	0	43	0	845152256	26	6296
2026-01-18 10:39:44.58	326.63	47.07	-33.0	-38.6	8.4	2.63e-02	0	43	0	847249408	26	6918
2026-01-18 10:39:45.58	326.80	46.77	-33.1	-39.3	7.9	6.91e-02	0	43	0	849346560	26	7320
2026-01-18 10:39:46.58	326.98	46.47	-32.9	-38.5	8.4	5.84e-02	0	43	0	851443712	26	6861
2026-01-18 10:39:47.58	327.14	46.18	-32.6	-37.3	9.4	3.07e-02	0	43	0	852492288	26	6149
2026-01-18 10:39:48.58	327.31	45.88	-32.2	-36.2	10.6	7.48e-03	0	43	0	854589440	25	5714
2026-01-18 10:39:49.58	327.47	45.59	-31.9	-35.4	11.1	1.63e-03	0	43	0	856686592	25	5382
2026-01-18 10:39:50.58	327.63	45.30	-32.0	-35.6	11.1	1.21e-03	0	43	0	858783744	25	5439
2026-01-18 10:39:51.58	327.79	45.01	-32.0	-35.6	11.0	2.16e-03	0	43	0	860880896	25	5459
2026-01-18 10:39:52.59	327.94	44.72	-31.8	-35.4	11.5	1.07e-03	0	43	0	861929472	24	5452
2026-01-18 10:39:53.59	328.10	44.44	-31.6	-34.9	11.9	5.52e-04	0	43	0	864026624	24	5256
2026-01-18 10:39:54.59	328.24	44.16	-31.4	-34.4	12.2	2.62e-04	0	43	0	866123776	24	5050
2026-01-18 10:39:55.59	328.39	43.88	-31.4	-34.2	12.4	1.78e-04	0	43	0	868220928	24	4985
2026-01-18 10:39:56.60	328.54	43.60	-30.8	-33.1	13.4	3.12e-05	0	43	0	870318080	23	4693
2026-01-18 10:39:57.60	328.68	43.32	-30.5	-32.8	14.0	3.00e-06	0	43	0	871366656	22	4682
2026-01-18 10:39:58.61	328.82	43.04	-30.0	-31.9	14.8	7.00e-07	0	43	0	873463808	21	4503
2026-01-18 10:39:59.61	328.95	42.77	-29.7	-31.7	15.2	0.00e+00	0	43	0	875560960	20	4539
2026-01-18 10:40:00.61	329.09	42.50	-29.5	-31.2	15.5	0.00e+00	0	43	0	877658112	20	4392
2026-01-18 10:40:01.61	329.22	42.23	-29.6	-31.5	15.3	0.00e+00	0	43	0	879755264	20	4491
2026-01-18 10:40:02.62	329.35	41.96	-29.7	-31.8	15.1	0.00e+00	0	43	0	880803840	20	4557
2026-01-18 10:40:03.62	329.48	41.69	-30.2	-33.0	14.4	7.00e-07	0	43	0	882900992	20	4967
2026-01-18 10:40:04.62	329.61	41.43	-30.8	-34.1	13.4	6.80e-06	0	43	0	884998144	21	5261
2026-01-18 10:40:05.63	329.73	41.16	-31.7	-35.7	11.6	4.80e-05	0	43	0	887095296	23	5745
2026-01-18 10:40:06.63	329.85	40.90	-32.1	-36.7	10.6	2.93e-03	0	43	0	889192448	24	6084
2026-01-18 10:40:07.63	329.97	40.64	-32.1	-36.7	10.5	3.45e-03	0	43	0	890241024	24	6093
2026-01-18 10:40:08.63	330.09	40.39	-31.7	-35.3	11.5	3.10e-03	0	43	0	892338176	24	5443
2026-01-18 10:40:09.64	330.21	40.13	-30.9	-33.4	13.1	6.94e-05	0	43	0	894435328	23	4816
2026-01-18 10:40:10.64	330.32	39.87	-30.2	-32.5	14.3	2.20e-06	0	43	0	896532480	21	4706
2026-01-18 10:40:11.64	330.44	39.62	-30.0	-32.0	14.7	0.00e+00	0	43	0	897581056	21	4517
2026-01-18 10:40:12.64	330.55	39.37	-30.0	-32.0	14.7	7.00e-07	0	43	0	899678208	21	4520
2026-01-18 10:40:13.64	330.66	39.12	-30.2	-32.5	14.4	7.00e-07	0	43	0	901775360	21	4695
2026-01-18 10:40:14.65	330.77	38.87	-30.6	-33.5	13.7	2.20e-06	0	43	0	903872512	21	5066
2026-01-18 10:40:15.65	330.88	38.63	-31.0	-34.7	12.9	2.44e-05	0	43	0	905969664	21	5524
2026-01-18 10:40:16.66	330.98	38.38	-31.3	-35.2	12.3	1.07e-04	0	43	0	908066816	22	5607
2026-01-18 10:40:17.67	331.09	38.14	-31.6	-35.6	11.6	4.41e-04	0	43	0	909115392	23	5666
2026-01-18 10:40:18.67	331.19	37.90	-31.6	-35.6	11.5	7.51e-04	0	43	0	911212544	23	5706
2026-01-18 10:40:19.68	331.29	37.66	-31.5	-35.3	11.8	4.86e-04	0	43	0	913309696	23	5543
2026-01-18 10:40:20.68	331.39	37.42	-31.5	-35.2	11.9	5.22e-04	0	43	0	915406848	23	5504
2026-01-18 10:40:21.68	331.49	37.18	-31.3	-34.7	12.1	3.27e-04	0	43	0	916455424	23	5328
2026-01-18 10:40:22.69	331.58	36.95	-31.1	-34.2	12.6	1.17e-04	0	43	0	918552576	23	5106
2026-01-18 10:40:23.69	331.68	36.72	-31.0	-33.7	12.8	5.26e-05	0	43	0	920649728	23	4939
2026-01-18 10:40:24.69	331.77	36.49	-31.1	-34.1	12.6	6.94e-05	0	43	0	922746880	23	5061
2026-01-18 10:40:25.70	331.87	36.25	-30.8	-33.3	13.1	7.62e-05	0	43	0	924844032	23	4775
2026-01-18 10:40:26.70	331.96	36.03	-30.6	-33.2	13.6	1.37e-05	0	43	0	925892608	22	4828
2026-01-18 10:40:27.71	332.05	35.80	-30.9	-34.0	13.1	1.60e-05	0	43	0	927989760	22	5120
2026-01-18 10:40:28.71	332.14	35.57	-30.9	-33.9	13.0	4.27e-05	0	43	0	930086912	22	5111
2026-01-18 10:40:29.72	332.23	35.35	-31.1	-34.5	12.7	7.09e-05	0	43	0	932184064	22	5340
2026-01-18 10:40:30.73	332.32	35.13	-31.1	-34.5	12.7	1.07e-04	0	43	0	934281216	22	5337
2026-01-18 10:40:31.74	332.40	34.90	-31.2	-34.7	12.5	1.01e-04	0	43	0	935329792	22	5411
2026-01-18 10:40:32.75	332.49	34.68	-31.3	-35.1	12.3	1.23e-04	0	43	0	937426944	22	5565
2026-01-18 10:40:33.75	332.57	34.47	-31.6	-35.5	11.6	3.78e-04	0	43	0	939524096	23	5635
2026-01-18 10:40:34.76	332.65	34.25	-31.6	-35.6	11.4	9.28e-04	0	43	0	941621248	23	5724
2026-01-18 10:40:35.76	332.74	34.03	-31.5	-35.2	11.8	5.60e-04	0	43	0	943718400	23	5513
2026-01-18 10:40:36.76	332.82	33.82	-31.5	-35.3	11.7	6.06e-04	0	43	0	944766976	23	5561
2026-01-18 10:40:37.76	332.90	33.61	-31.4	-35.0	11.9	4.68e-04	0	43	0	946864128	23	5430
2026-01-18 10:40:38.76	332.97	33.40	-31.4	-35.1	11.8	4.04e-04	0	43	0	948961280	23	5478
2026-01-18 10:40:39.76	333.05	33.19	-31.3	-34.8	12.0	2.94e-04	0	43	0	951058432	23	5364
2026-01-18 10:40:40.76	333.13	32.99	-31.3	-34.7	12.1	3.39e-04	0	44	0	953155584	23	5341
2026-01-18 10:40:41.77	333.20	32.78	-31.4	-34.9	12.0	3.41e-04	0	43	0	954204160	23	5417
2026-01-18 10:40:42.78	333.28	32.57	-31.3	-34.8	12.1	4.23e-04	0	43	0	956301312	23	5363
2026-01-18 10:40:43.78	333.35	32.37	-31.1	-34.2	12.4	1.79e-04	0	43	0	958398464	23	5123
2026-01-18 10:40:44.78	333.43	32.17	-31.0	-33.9	12.6	1.04e-04	0	43	0	960495616	23	4992
2026-01-18 10:40:45.78	333.50	31.97	-31.1	-34.1	12.5	8.39e-05	0	43	0	962592768	23	5067
2026-01-18 10:40:46.78	333.57	31.77	-31.0	-33.9	12.6	1.07e-04	0	43	0	963641344	23	5003
2026-01-18 10:40:47.79	333.64	31.57	-31.1	-34.1	12.4	1.14e-04	0	43	0	965738496	23	5086
2026-01-18 10:40:48.79	333.71	31.37	-31.1	-34.2	12.4	1.41e-04	0	43	0	967835648	23	5103
2026-01-18 10:40:49.79	333.78	31.18	-31.2	-34.3	12.4	1.27e-04	0	43	0	969932800	23	5179
2026-01-18 10:40:50.80	333.85	30.98	-31.2	-34.4	12.4	1.69e-04	0	43	0	970981376	23	5182
2026-01-18 10:40:51.80	333.92	30.79	-31.2	-34.3	12.3	1.43e-04	0	43	0	973078528	23	5158
2026-01-18 10:40:52.80	333.98	30.60	-31.3	-34.7	12.1	1.68e-04	0	43	0	975175680	23	5314
2026-01-18 10:40:53.79	334.05	30.41	-31.1	-34.2	12.3	2.48e-04	0	43	0	977272832	23	5142
2026-01-18 10:40:54.80	334.11	30.22	-31.3	-34.6	12.2	1.94e-04	0	43	0	979369984	23	5276
2026-01-18 10:40:55.80	334.18	30.03	-31.3	-34.7	12.1	3.18e-04	0	43	0	980418560	23	5309
2026-01-18 10:40:56.80	334.24	29.84	-31.3	-34.7	12.1	2.91e-04	0	43	0	982515712	23	5326
2026-01-18 10:40:57.80	334.30	29.66	-31.2	-34.6	12.1	3.37e-04	0	43	0	984612864	23	5288
2026-01-18 10:40:58.80	334.37	29.47	-31.1	-34.3	12.3	2.55e-04	0	43	0	986710016	23	5191
2026-01-18 10:40:59.81	334.43	29.29	-31.1	-34.0	12.5	1.42e-04	0	43	0	988807168	23	5059
2026-01-18 10:41:00.81	334.49	29.11	-31.0	-33.9	12.6	1.17e-04	0	43	0	989855744	23	5033
2026-01-18 10:41:01.82	334.55	28.92	-30.8	-33.3	13.0	9.68e-05	0	43	0	991952896	23	4804
2026-01-18 10:41:02.82	334.61	28.74	-30.6	-33.2	13.3	3.35e-05	0	43	0	994050048	22	4876
2026-01-18 10:41:03.83	334.67	28.56	-30.4	-32.7	13.7	9.90e-06	0	43	0	996147200	22	4691
2026-01-18 10:41:04.83	334.73	28.39	-30.4	-32.6	13.7	8.30e-06	0	43	0	998244352	22	4665
2026-01-18 10:41:05.84	334.79	28.21	-30.4	-32.6	13.8	4.50e-06	0	43	0	999292928	22	4637
2026-01-18 10:41:06.84	334.85	28.03	-30.1	-32.3	14.2	1.50e-06	0	43	0	1001390080	21	4666
2026-01-18 10:41:07.84	334.90	27.86	-29.9	-31.8	14.5	7.00e-07	0	43	0	1003487232	21	4481
2026-01-18 10:41:08.84	334.96	27.69	-29.7	-31.8	14.9	0.00e+00	0	43	0	1005584384	20	4596
2026-01-18 10:41:09.84	335.01	27.51	-29.6	-31.7	14.9	0.00e+00	0	43	0	1007681536	20	4562
2026-01-18 10:41:10.85	335.07	27.34	-29.5	-31.4	15.0	0.00e+00	0	43	0	1008730112	20	4473
2026-01-18 10:41:11.84	335.12	27.17	-29.5	-31.3	15.1	0.00e+00	0	43	0	1010827264	20	4447
2026-01-18 10:41:12.85	335.18	27.00	-29.5	-31.3	15.1	0.00e+00	0	43	0	1012924416	20	4448
2026-01-18 10:41:13.85	335.23	26.84	-29.7	-31.8	14.8	7.00e-07	0	43	0	1015021568	20	4611
2026-01-18 10:41:14.85	335.28	26.67	-29.7	-31.9	14.7	0.00e+00	0	43	0	1016070144	20	4645
2026-01-18 10:41:15.85	335.34	26.50	-29.8	-32.1	14.6	0.00e+00	0	43	0	1018167296	20	4711
2026-01-18 10:41:16.85	335.39	26.34	-29.9	-32.5	14.3	7.00e-07	0	43	0	1020264448	20	4848
2026-01-18 10:41:17.85	335.44	26.17	-29.9	-32.6	14.3	1.50e-06	0	43	0	1022361600	20	4865
2026-01-18 10:41:18.85	335.49	26.01	-30.0	-32.8	14.2	7.00e-07	0	43	0	1024458752	20	4947
2026-01-18 10:41:19.86	335.54	25.85	-30.1	-33.1	14.0	1.50e-06	0	43	0	1026555904	20	5048
2026-01-18 10:41:20.86	335.59	25.69	-30.1	-33.1	14.0	2.20e-06	0	43	0	1027604480	20	5051
2026-01-18 10:41:21.87	335.64	25.53	-30.2	-33.2	13.9	5.30e-06	0	43	0	1029701632	20	5088
2026-01-18 10:41:22.87	335.69	25.37	-30.0	-32.8	14.1	4.50e-06	0	43	0	1031798784	20	4961
2026-01-18 10:41:23.88	335.74	25.21	-29.8	-32.3	14.5	1.50e-06	0	44	0	1033895936	20	4762
2026-01-18 10:41:24.88	335.79	25.05	-29.7	-31.9	14.7	0.00e+00	0	43	0	1034944512	20	4646
2026-01-18 10:41:25.88	335.84	24.89	-29.6	-31.7	14.8	0.00e+00	0	43	0	1037041664	20	4566
2026-01-18 10:41:26.89	335.88	24.74	-29.6	-31.6	14.9	0.00e+00	0	43	0	1039138816	20	4551
2026-01-18 10:41:27.88	335.93	24.58	-29.6	-31.7	14.8	0.00e+00	0	43	0	1041235968	20	4578
2026-01-18 10:41:28.88	335.98	24.43	-29.4	-31.3	15.0	0.00e+00	0	43	0	1043333120	20	4447
2026-01-18 10:41:29.88	336.02	24.28	-29.3	-31.4	15.2	0.00e+00	0	44	0	1044381696	19	4585
2026-01-18 10:41:30.89	336.07	24.12	-29.2	-31.2	15.4	0.00e+00	0	43	0	1046478848	19	4533
2026-01-18 10:41:31.89	336.12	23.97	-29.3	-31.4	15.3	0.00e+00	0	43	0	1048576000	19	4588
2026-01-18 10:41:32.90	336.16	23.82	-29.1	-30.9	15.6	0.00e+00	0	43	0	1050673152	19	4439
2026-01-18 10:41:33.90	336.21	23.67	-29.1	-30.9	15.7	0.00e+00	0	43	0	1052770304	19	4414
2026-01-18 10:41:34.91	336.25	23.52	-29.1	-31.0	15.6	0.00e+00	0	43	0	1053818880	19	4453
2026-01-18 10:41:35.91	336.29	23.38	-29.1	-30.9	15.7	0.00e+00	0	43	0	1055916032	19	4414
2026-01-18 10:41:36.92	336.34	23.23	-29.0	-30.8	15.7	0.00e+00	0	43	0	1058013184	19	4386
2026-01-18 10:41:37.92	336.38	23.08	-29.0	-30.7	15.8	0.00e+00	0	43	0	1060110336	19	4355
2026-01-18 10:41:38.93	336.42	22.94	-29.1	-30.9	15.6	0.00e+00	0	43	0	1062207488	19	4426
2026-01-18 10:41:39.93	336.47	22.79	-29.2	-31.1	15.5	0.00e+00	0	43	0	1063256064	19	4508
2026-01-18 10:41:40.93	336.51	22.65	-29.2	-31.1	15.5	0.00e+00	0	43	0	1065353216	19	4504
2026-01-18 10:41:41.94	336.55	22.50	-29.3	-31.4	15.4	0.00e+00	0	43	0	1067450368	19	4573
2026-01-18 10:41:42.94	336.59	22.36	-29.3	-31.4	15.3	0.00e+00	0	43	0	1069547520	19	4598
2026-01-18 10:41:43.94	336.63	22.22	-29.3	-31.4	15.3	0.00e+00	0	43	0	1071644672	19	4583
2026-01-18 10:41:44.94	336.67	22.08	-29.4	-31.8	15.1	0.00e+00	0	43	0	1072693248	19	4705
2026-01-18 10:41:45.95	336.71	21.94	-29.4	-31.7	15.1	0.00e+00	0	43	0	1074790400	19	4690
2026-01-18 10:41:46.96	336.75	21.80	-29.5	-31.8	15.1	0.00e+00	0	43	0	1076887552	19	4724
2026-01-18 10:41:47.96	336.79	21.66	-29.7	-32.4	14.7	0.00e+00	0	43	0	1078984704	19	4912
2026-01-18 10:41:48.96	336.83	21.52	-29.6	-32.1	14.9	0.00e+00	0	43	0	1081081856	19	4798
2026-01-18 10:41:49.96	336.87	21.39	-29.5	-31.9	15.0	1.50e-06	0	43	0	1082130432	19	4748
2026-01-18 10:41:50.96	336.91	21.25	-29.5	-31.9	15.0	0.00e+00	0	43	0	1084227584	19	4738
2026-01-18 10:41:51.96	336.95	21.12	-29.5	-31.9	15.0	0.00e+00	0	43	0	1086324736	19	4743
2026-01-18 10:41:52.97	336.99	20.98	-29.4	-31.8	15.1	0.00e+00	0	43	0	1088421888	19	4707
2026-01-18 10:41:53.96	337.02	20.85	-29.5	-32.0	14.9	0.00e+00	0	43	0	1089470464	19	4773
2026-01-18 10:41:54.97	337.06	20.71	-29.5	-32.0	14.9	0.00e+00	0	43	0	1091567616	19	4778
2026-01-18 10:41:55.98	337.10	20.58	-29.7	-32.3	14.7	0.00e+00	0	43	0	1093664768	19	4878
2026-01-18 10:41:56.98	337.14	20.45	-29.5	-31.9	15.0	7.00e-07	0	43	0	1095761920	19	4752
2026-01-18 10:41:57.98	337.17	20.32	-29.4	-31.6	15.1	0.00e+00	0	43	0	1097859072	19	4651
2026-01-18 10:41:58.98	337.21	20.19	-29.4	-31.6	15.1	0.00e+00	0	43	0	1098907648	19	4653
2026-01-18 10:41:59.98	337.25	20.06	-29.5	-32.0	14.9	0.00e+00	0	43	0	1101004800	19	4783
2026-01-18 10:42:00.99	337.28	19.93	-29.4	-31.7	15.1	0.00e+00	0	43	0	1103101952	19	4669
2026-01-18 10:42:01.99	337.32	19.80	-29.4	-31.6	15.1	0.00e+00	0	43	0	1105199104	19	4638
2026-01-18 10:42:02.99	337.35	19.67	-29.4	-31.7	15.1	0.00e+00	0	43	0	1107296256	19	4684
2026-01-18 10:42:03.98	337.39	19.55	-29.4	-31.7	15.1	7.00e-07	0	43	0	1108344832	19	4685
2026-01-18 10:42:04.99	337.42	19.42	-29.5	-31.9	14.9	0.00e+00	0	43	0	1110441984	19	4752
2026-01-18 10:42:05.99	337.46	19.29	-29.6	-32.2	14.8	0.00e+00	0	43	0	1112539136	19	4841
2026-01-18 10:42:06.99	337.49	19.17	-29.6	-32.3	14.7	0.00e+00	0	43	0	1114636288	19	4879
2026-01-18 10:42:07.99	337.53	19.04	-29.7	-32.5	14.5	0.00e+00	0	43	0	1116733440	19	4963
2026-01-18 10:42:08.99	337.56	18.92	-29.9	-32.9	14.3	2.20e-06	0	43	0	1117782016	19	5108
2026-01-18 10:42:10.00	337.59	18.80	-29.9	-32.9	14.3	0.00e+00	0	43	0	1119879168	19	5110
2026-01-18 10:42:11.00	337.63	18.67	-29.9	-32.9	14.2	7.00e-07	0	43	0	1121976320	19	5120
2026-01-18 10:42:12.01	337.66	18.55	-30.0	-33.2	14.1	2.20e-06	0	43	0	1124073472	19	5205
2026-01-18 10:42:13.01	337.69	18.43	-29.9	-32.5	14.1	1.50e-06	0	43	0	1126170624	20	4874
2026-01-18 10:42:14.02	337.73	18.31	-30.0	-32.8	13.9	3.00e-06	0	43	0	1127219200	20	4985
2026-01-18 10:42:15.02	337.76	18.19	-30.0	-32.8	13.9	2.20e-06	0	43	0	1129316352	20	4967
2026-01-18 10:42:16.02	337.79	18.07	-30.2	-33.3	13.6	3.80e-06	0	43	0	1131413504	20	5137
2026-01-18 10:42:17.02	337.82	17.95	-30.1	-33.0	13.8	7.60e-06	0	43	0	1133510656	20	5051
2026-01-18 10:42:18.02	337.86	17.83	-30.0	-32.7	13.9	3.80e-06	0	43	0	1135607808	20	4954
2026-01-18 10:42:19.02	337.89	17.71	-29.9	-32.7	14.0	5.30e-06	0	43	0	1136656384	20	4929
2026-01-18 10:42:20.03	337.92	17.59	-30.0	-32.8	13.9	3.00e-06	0	43	0	1138753536	20	4971
2026-01-18 10:42:21.04	337.95	17.48	-30.0	-32.8	13.9	3.80e-06	0	43	0	1140850688	20	4987
2026-01-18 10:42:22.04	337.98	17.36	-30.1	-33.2	13.7	5.30e-06	0	43	0	1142947840	20	5110
2026-01-18 10:42:23.04	338.01	17.24	-30.1	-33.1	13.7	3.00e-06	0	43	0	1143996416	20	5089
2026-01-18 10:42:24.04	338.04	17.13	-30.2	-33.4	13.5	3.80e-06	0	43	0	1146093568	20	5176
2026-01-18 10:42:25.04	338.07	17.01	-30.1	-33.2	13.6	9.10e-06	0	43	0	1148190720	20	5131
2026-01-18 10:42:26.04	338.10	16.90	-30.2	-33.5	13.5	6.80e-06	0	43	0	1150287872	20	5229
2026-01-18 10:42:27.03	338.13	16.79	-30.2	-33.4	13.5	1.14e-05	0	43	0	1152385024	20	5189
2026-01-18 10:42:28.03	338.16	16.67	-30.3	-33.6	13.4	1.44e-05	0	43	0	1153433600	20	5259
2026-01-18 10:42:29.05	338.19	16.56	-30.2	-33.4	13.4	1.14e-05	0	43	0	1155530752	20	5214
2026-01-18 10:42:30.05	338.22	16.45	-30.3	-33.7	13.3	2.21e-05	0	43	0	1157627904	20	5317
2026-01-18 10:42:31.06	338.25	16.34	-30.3	-33.6	13.3	1.83e-05	0	43	0	1159725056	20	5270
2026-01-18 10:42:32.06	338.28	16.22	-30.3	-33.7	13.3	2.05e-05	0	43	0	1161822208	20	5301
2026-01-18 10:42:33.06	338.31	16.11	-30.4	-33.8	13.2	2.74e-05	0	43	0	1162870784	20	5372
2026-01-18 10:42:34.07	338.34	16.00	-30.5	-34.2	12.9	2.59e-05	0	43	0	1164967936	20	5501
2026-01-18 10:42:35.07	338.37	15.89	-30.5	-33.8	12.8	4.73e-05	0	43	0	1167065088	21	5252
2026-01-18 10:42:36.07	338.39	15.78	-30.6	-34.0	12.7	5.79e-05	0	43	0	1169162240	21	5310
2026-01-18 10:42:37.07	338.42	15.68	-30.6	-34.1	12.7	7.62e-05	0	43	0	1171259392	21	5374
2026-01-18 10:42:38.08	338.45	15.57	-30.5	-33.9	12.7	7.70e-05	0	43	0	1172307968	21	5280
2026-01-18 10:42:39.09	338.48	15.46	-30.6	-34.0	12.6	7.70e-05	0	43	0	1174405120	21	5344
2026-01-18 10:42:40.09	338.51	15.35	-30.7	-34.3	12.5	9.38e-05	0	43	0	1176502272	21	5457
2026-01-18 10:42:41.09	338.53	15.24	-30.6	-34.0	12.6	1.01e-04	0	43	0	1178599424	21	5349
2026-01-18 10:42:42.09	338.56	15.14	-30.4	-33.6	12.9	7.17e-05	0	43	0	1180696576	21	5174
2026-01-18 10:42:43.09	338.59	15.03	-30.3	-33.3	13.1	3.35e-05	0	43	0	1181745152	21	5056
2026-01-18 10:42:44.10	338.62	14.93	-30.4	-33.4	13.1	2.59e-05	0	43	0	1183842304	21	5087
2026-01-18 10:42:45.11	338.64	14.82	-30.3	-33.1	13.2	2.28e-05	0	44	0	1185939456	21	5005
2026-01-18 10:42:46.12	338.67	14.72	-30.3	-33.2	13.2	2.05e-05	0	43	0	1188036608	21	5025
2026-01-18 10:42:47.12	338.70	14.61	-30.3	-33.3	13.1	2.36e-05	0	43	0	1190133760	21	5084
2026-01-18 10:42:48.12	338.72	14.51	-30.3	-33.1	13.2	3.12e-05	0	43	0	1191182336	21	5004
2026-01-18 10:42:49.13	338.75	14.40	-30.4	-33.5	13.0	3.05e-05	0	43	0	1193279488	21	5127
2026-01-18 10:42:50.13	338.77	14.30	-30.3	-33.3	13.1	2.89e-05	0	43	0	1195376640	21	5088
2026-01-18 10:42:51.14	338.80	14.20	-30.5	-33.7	12.8	3.43e-05	0	43	0	1197473792	21	5207
2026-01-18 10:42:52.15	338.83	14.10	-30.4	-33.4	13.0	4.73e-05	0	43	0	1198522368	21	5106
2026-01-18 10:42:53.15	338.85	13.99	-30.4	-33.6	12.9	4.57e-05	0	43	0	1200619520	21	5184
2026-01-18 10:42:54.16	338.88	13.89	-30.5	-33.7	12.8	6.17e-05	0	43	0	1202716672	21	5227
2026-01-18 10:42:55.16	338.90	13.79	-30.5	-33.8	12.7	8.08e-05	0	43	0	1204813824	21	5252
2026-01-18 10:42:56.16	338.93	13.69	-30.5	-33.9	12.7	7.32e-05	0	43	0	1206910976	21	5289
2026-01-18 10:42:57.16	338.95	13.59	-30.7	-34.4	12.3	1.11e-04	0	43	0	1209008128	21	5498
2026-01-18 10:42:58.16	338.98	13.49	-30.7	-34.4	12.3	1.59e-04	0	43	0	1210056704	21	5500
2026-01-18 10:42:59.17	339.00	13.39	-30.8	-34.7	12.1	2.29e-04	0	43	0	1212153856	21	5634
2026-01-18 10:43:00.17	339.03	13.29	-30.9	-35.0	11.9	3.43e-04	0	43	0	1214251008	21	5761
2026-01-18 10:43:01.17	339.05	13.20	-31.0	-35.3	11.7	4.89e-04	0	43	0	1216348160	21	5900
2026-01-18 10:43:02.18	339.08	13.10	-31.1	-35.2	11.4	7.41e-04	0	43	0	1217396736	22	5761
2026-01-18 10:43:03.18	339.10	13.00	-31.1	-35.2	11.3	1.12e-03	0	43	0	1219493888	22	5763
2026-01-18 10:43:04.19	339.13	12.90	-31.2	-35.4	11.2	1.07e-03	0	43	0	1221591040	22	5845
2026-01-18 10:43:05.19	339.15	12.81	-31.2	-35.5	11.1	1.35e-03	0	43	0	1223688192	22	5873
2026-01-18 10:43:06.19	339.17	12.71	-31.2	-35.4	11.2	1.39e-03	0	43	0	1225785344	22	5854
2026-01-18 10:43:07.20	339.20	12.61	-31.4	-36.0	10.8	2.05e-03	0	43	0	1226833920	22	6140
2026-01-18 10:43:08.21	339.22	12.52	-31.3	-35.7	11.0	2.74e-03	0	43	0	1228931072	22	5973
2026-01-18 10:43:09.20	339.24	12.42	-31.4	-36.1	10.7	2.82e-03	0	43	0	1231028224	22	6186
2026-01-18 10:43:10.20	339.27	12.33	-31.5	-36.1	10.3	4.55e-03	0	43	0	1233125376	23	6106
2026-01-18 10:43:11.20	339.29	12.23	-31.5	-36.0	10.3	6.38e-03	0	43	0	1235222528	23	6056
2026-01-18 10:43:12.20	339.31	12.14	-31.2	-35.0	11.1	2.05e-03	0	43	0	1236271104	23	5585
2026-01-18 10:43:13.20	339.34	12.05	-31.0	-34.5	11.5	1.06e-03	0	43	0	1238368256	23	5340
2026-01-18 10:43:14.21	339.36	11.95	-30.8	-33.8	12.0	5.21e-04	0	43	0	1240465408	23	5057
2026-01-18 10:43:15.21	339.38	11.86	-30.7	-33.8	12.3	2.35e-04	0	43	0	1242562560	22	5178
2026-01-18 10:43:16.22	339.40	11.77	-30.7	-34.0	12.2	2.31e-04	0	43	0	1244659712	22	5247
2026-01-18 10:43:17.22	339.43	11.67	-30.8	-34.3	11.9	3.32e-04	0	43	0	1245708288	22	5383
2026-01-18 10:43:18.23	339.45	11.58	-30.8	-34.1	12.0	3.39e-04	0	43	0	1247805440	22	5307
2026-01-18 10:43:19.23	339.47	11.49	-30.7	-34.0	12.1	2.69e-04	0	43	0	1249902592	22	5247
2026-01-18 10:43:20.24	339.49	11.40	-30.6	-33.7	12.3	1.96e-04	0	43	0	1251999744	22	5156
2026-01-18 10:43:21.25	339.52	11.31	-30.7	-33.9	12.1	3.13e-04	0	43	0	1254096896	22	5235
2026-01-18 10:43:22.25	339.54	11.22	-30.6	-33.7	12.3	2.04e-04	0	43	0	1255145472	22	5150
2026-01-18 10:43:23.26	339.56	11.13	-30.8	-34.2	12.0	3.36e-04	0	43	0	1257242624	22	5327
2026-01-18 10:43:24.26	339.58	11.04	-30.7	-33.9	12.1	3.40e-04	0	43	0	1259339776	22	5237
2026-01-18 10:43:25.26	339.60	10.95	-30.8	-34.4	11.8	3.31e-04	0	43	0	1261436928	22	5440
2026-01-18 10:43:26.26	339.63	10.86	-30.7	-34.0	12.0	3.09e-04	0	43	0	1263534080	22	5271
2026-01-18 10:43:27.26	339.65	10.77	-30.8	-34.4	11.8	3.83e-04	0	43	0	1264582656	22	5439
2026-01-18 10:43:28.26	339.67	10.68	-30.9	-34.8	11.5	6.35e-04	0	43	0	1266679808	22	5593
2026-01-18 10:43:29.25	339.69	10.59	-30.8	-34.4	11.8	5.42e-04	0	43	0	1268776960	22	5420
2026-01-18 10:43:30.26	339.71	10.50	-30.7	-34.1	12.0	3.50e-04	0	43	0	1270874112	22	5321
2026-01-18 10:43:31.26	339.73	10.42	-30.8	-34.3	11.8	4.35e-04	0	43	0	1271922688	22	5396
2026-01-18 10:43:32.27	339.75	10.33	-30.8	-34.4	11.8	5.84e-04	0	43	0	1274019840	22	5417
2026-01-18 10:43:33.27	339.77	10.24	-30.8	-34.4	11.7	5.52e-04	0	43	0	1276116992	22	5439
2026-01-18 10:43:34.28	339.79	10.15	-30.8	-34.4	11.7	5.33e-04	0	43	0	1278214144	22	5439
2026-01-18 10:43:35.29	339.81	10.07	-30.8	-34.4	11.7	5.26e-04	0	43	0	1280311296	22	5452
