passes_logs/2026/01/18/R2M6_AANII_01/R2M6_AANII_01__20260118_025738_FENGYUN_3D_rec.log

#Pass ID: 20260118_025738_FENGYUN 3D
#Satellite: FENGYUN 3D
#Configuration: FENGYUN 3D
#almurnet v.1.7.20240730
#Start time: 2026-01-18 02:57:40

#Version: 2.2.20231116
#Station: R2M6_AANII_01
#Location: 30.233357 lon 59.946436 lat
#TLE: 1 43010U 17072A   26017.25882587  .00000461  00000+0  23963-3 0  9992
#TLE: 2 43010  98.9934 349.1096 0002357 104.0487 256.0951 14.19697152423579

#Time	Az	El	Level	Level2	SNR	BER	BlckErr	Temp	State	Recorded	gain1	gain2
2026-01-18 02:57:40.00	16.07	7.12	-30.1	-33.3	5.3	7.89e-01	0	41	0	0	20	5198
2026-01-18 02:57:41.00	16.04	7.20	-30.1	-33.4	5.4	7.91e-01	0	42	104	0	20	5219
2026-01-18 02:57:42.00	16.02	7.27	-30.4	-34.2	9.2	1.24e-02	0	41	0	0	20	5548
2026-01-18 02:57:42.99	15.99	7.35	-29.9	-32.7	10.3	4.78e-03	0	42	0	5242880	20	4945
2026-01-18 02:57:44.00	15.97	7.43	-29.6	-32.3	11.0	3.79e-03	0	42	0	11534336	19	4932
2026-01-18 02:57:45.00	15.94	7.50	-29.6	-32.2	11.0	1.95e-03	0	41	0	16777216	19	4888
2026-01-18 02:57:46.00	15.92	7.58	-29.7	-32.5	10.9	1.58e-03	0	42	0	22020096	19	4999
2026-01-18 02:57:47.01	15.89	7.66	-29.6	-32.3	11.0	2.39e-03	0	42	0	28311552	19	4924
2026-01-18 02:57:48.01	15.87	7.74	-29.5	-32.0	11.2	5.01e-04	0	42	0	33554432	19	4813
2026-01-18 02:57:49.01	15.84	7.82	-30.0	-32.8	10.3	3.98e-03	0	42	0	38797312	20	5003
2026-01-18 02:57:50.01	15.82	7.90	-29.6	-31.9	10.8	3.82e-03	0	42	0	45088768	20	4692
2026-01-18 02:57:51.02	15.79	7.98	-29.3	-31.4	11.6	1.12e-03	0	42	0	50331648	19	4618
2026-01-18 02:57:52.01	15.76	8.05	-29.1	-31.5	11.9	7.36e-04	0	42	0	55574528	18	4753
2026-01-18 02:57:53.01	15.74	8.13	-28.5	-30.6	12.7	5.83e-05	0	42	0	61865984	17	4583
2026-01-18 02:57:54.02	15.71	8.21	-28.2	-29.9	13.1	3.08e-05	0	42	0	67108864	17	4373
2026-01-18 02:57:55.02	15.68	8.29	-28.4	-30.4	12.9	2.97e-05	0	42	0	73400320	17	4503
2026-01-18 02:57:56.03	15.66	8.37	-28.6	-30.9	12.5	4.69e-04	0	42	0	78643200	17	4676
2026-01-18 02:57:57.03	15.63	8.45	-28.4	-30.2	13.0	2.97e-05	0	42	0	83886080	17	4462
2026-01-18 02:57:58.03	15.60	8.53	-28.2	-30.3	13.3	3.65e-04	0	42	0	90177536	16	4583
2026-01-18 02:57:59.04	15.58	8.62	-28.1	-30.0	13.5	3.58e-04	0	42	0	95420416	16	4497
2026-01-18 02:58:00.05	15.55	8.70	-28.0	-29.8	13.6	5.70e-06	0	42	0	101711872	16	4447
2026-01-18 02:58:01.05	15.52	8.78	-28.4	-30.8	13.0	3.66e-04	0	42	0	106954752	16	4756
2026-01-18 02:58:02.06	15.49	8.86	-27.9	-29.6	13.8	9.10e-06	0	42	0	112197632	16	4376
2026-01-18 02:58:03.07	15.46	8.94	-28.4	-30.8	13.1	1.48e-05	0	42	0	118489088	16	4732
2026-01-18 02:58:04.07	15.44	9.03	-28.2	-30.3	13.4	3.59e-04	0	42	0	123731968	16	4584
2026-01-18 02:58:05.07	15.41	9.11	-27.4	-29.1	14.2	3.35e-04	0	42	0	128974848	15	4356
2026-01-18 02:58:06.07	15.38	9.19	-27.9	-30.1	13.6	1.10e-06	0	42	0	135266304	15	4660
2026-01-18 02:58:07.07	15.35	9.27	-27.5	-29.3	14.1	3.36e-04	0	42	0	140509184	15	4396
2026-01-18 02:58:08.08	15.32	9.36	-27.2	-29.1	14.5	2.89e-04	0	42	0	146800640	14	4459
2026-01-18 02:58:09.08	15.29	9.44	-27.4	-29.1	14.2	0.00e+00	0	43	0	152043520	15	4351
2026-01-18 02:58:10.08	15.26	9.52	-27.3	-29.2	14.4	3.54e-04	0	43	0	157286400	14	4496
2026-01-18 02:58:11.09	15.23	9.61	-27.3	-28.7	14.5	3.55e-04	0	42	0	163577856	15	4244
2026-01-18 02:58:12.09	15.20	9.69	-27.5	-29.2	14.2	1.10e-06	0	42	0	168820736	15	4384
2026-01-18 02:58:13.10	15.17	9.78	-27.1	-28.8	14.7	4.58e-04	0	43	0	175112192	14	4380
2026-01-18 02:58:14.10	15.14	9.86	-27.3	-29.3	14.4	4.19e-04	0	43	0	180355072	14	4527
2026-01-18 02:58:15.11	15.11	9.95	-27.4	-29.4	14.3	0.00e+00	0	43	0	185597952	14	4549
2026-01-18 02:58:16.11	15.08	10.03	-27.5	-29.2	14.2	1.10e-06	0	43	0	191889408	15	4369
2026-01-18 02:58:17.12	15.05	10.12	-27.3	-29.3	14.4	4.62e-04	0	43	0	197132288	14	4517
2026-01-18 02:58:18.12	15.02	10.21	-27.0	-28.7	14.7	0.00e+00	0	43	0	202375168	14	4339
2026-01-18 02:58:19.13	14.99	10.29	-27.1	-28.7	14.7	3.72e-04	0	43	0	208666624	14	4360
2026-01-18 02:58:20.13	14.96	10.38	-26.9	-28.4	14.9	4.23e-04	0	43	0	213909504	14	4274
2026-01-18 02:58:21.13	14.93	10.47	-27.1	-28.8	14.7	0.00e+00	0	43	0	220200960	14	4377
2026-01-18 02:58:22.13	14.89	10.55	-27.0	-28.5	14.9	3.48e-04	0	43	0	225443840	14	4299
2026-01-18 02:58:23.13	14.86	10.64	-27.1	-28.9	14.7	0.00e+00	0	43	0	230686720	14	4398
2026-01-18 02:58:24.13	14.83	10.73	-27.0	-28.6	14.9	0.00e+00	0	43	0	236978176	14	4314
2026-01-18 02:58:25.14	14.80	10.82	-26.7	-27.8	15.3	0.00e+00	0	43	0	242221056	14	4097
2026-01-18 02:58:26.14	14.76	10.91	-26.8	-28.5	15.2	3.32e-04	0	43	0	247463936	13	4400
2026-01-18 02:58:27.15	14.73	11.00	-26.8	-28.5	15.2	0.00e+00	0	43	0	253755392	13	4406
2026-01-18 02:58:28.15	14.70	11.08	-26.9	-28.8	15.0	6.17e-05	0	43	0	258998272	13	4496
2026-01-18 02:58:29.15	14.66	11.17	-26.9	-28.9	15.0	3.11e-04	0	43	0	265289728	13	4514
2026-01-18 02:58:30.16	14.63	11.26	-27.1	-28.9	14.7	0.00e+00	0	43	0	270532608	14	4399
2026-01-18 02:58:31.15	14.60	11.35	-27.4	-29.5	14.3	3.23e-04	0	43	0	275775488	14	4589
2026-01-18 02:58:32.16	14.56	11.44	-27.0	-28.6	14.9	0.00e+00	0	43	0	282066944	14	4330
2026-01-18 02:58:33.16	14.53	11.53	-27.3	-29.2	14.5	0.00e+00	0	43	0	287309824	14	4474
2026-01-18 02:58:34.17	14.49	11.63	-27.1	-28.7	14.8	1.10e-06	0	43	0	293601280	14	4343
2026-01-18 02:58:35.18	14.46	11.72	-27.3	-29.2	14.5	0.00e+00	0	43	0	298844160	14	4478
2026-01-18 02:58:36.18	14.42	11.81	-26.9	-28.3	15.1	0.00e+00	0	43	0	304087040	14	4232
2026-01-18 02:58:37.18	14.39	11.90	-27.0	-28.4	15.0	0.00e+00	0	43	0	310378496	14	4268
2026-01-18 02:58:38.18	14.35	11.99	-27.0	-28.5	15.0	3.36e-04	0	43	0	315621376	14	4286
2026-01-18 02:58:39.18	14.32	12.09	-26.7	-27.9	15.3	0.00e+00	0	43	0	320864256	14	4138
2026-01-18 02:58:40.18	14.28	12.18	-26.9	-28.7	15.1	3.72e-04	0	43	0	327155712	13	4457
2026-01-18 02:58:41.18	14.25	12.27	-26.9	-28.8	15.1	0.00e+00	0	43	0	332398592	13	4477
2026-01-18 02:58:42.18	14.21	12.37	-27.1	-28.7	14.9	0.00e+00	0	43	0	337641472	14	4337
2026-01-18 02:58:43.18	14.17	12.46	-26.6	-27.8	15.4	0.00e+00	0	43	0	343932928	14	4090
2026-01-18 02:58:44.18	14.14	12.55	-26.7	-28.3	15.4	0.00e+00	0	43	0	349175808	13	4336
2026-01-18 02:58:45.19	14.10	12.65	-26.7	-28.3	15.3	0.00e+00	0	43	0	355467264	13	4354
2026-01-18 02:58:46.19	14.06	12.74	-26.6	-28.1	15.5	0.00e+00	0	43	0	360710144	13	4279
2026-01-18 02:58:47.19	14.02	12.84	-26.3	-27.6	15.8	3.64e-04	0	43	0	365953024	13	4148
2026-01-18 02:58:48.19	13.98	12.94	-26.7	-28.4	15.3	0.00e+00	0	43	0	372244480	13	4362
2026-01-18 02:58:49.19	13.95	13.03	-26.7	-28.4	15.3	0.00e+00	0	43	0	377487360	13	4384
2026-01-18 02:58:50.19	13.91	13.13	-26.5	-27.9	15.6	0.00e+00	0	43	0	382730240	13	4247
2026-01-18 02:58:51.19	13.87	13.22	-26.7	-28.5	15.3	0.00e+00	0	43	0	389021696	13	4400
2026-01-18 02:58:52.20	13.83	13.32	-26.5	-28.0	15.6	0.00e+00	0	43	0	394264576	13	4252
2026-01-18 02:58:53.20	13.79	13.42	-26.4	-28.3	15.7	0.00e+00	0	43	0	400556032	12	4454
2026-01-18 02:58:54.20	13.75	13.52	-26.6	-28.1	15.5	0.00e+00	0	43	0	405798912	13	4298
2026-01-18 02:58:55.20	13.71	13.62	-26.8	-28.5	15.3	0.00e+00	0	43	0	411041792	13	4400
2026-01-18 02:58:56.21	13.67	13.72	-26.9	-28.4	15.1	0.00e+00	0	43	0	417333248	14	4247
2026-01-18 02:58:57.21	13.63	13.81	-26.7	-27.9	15.4	0.00e+00	0	43	0	422576128	14	4137
2026-01-18 02:58:58.20	13.59	13.91	-26.7	-28.3	15.4	0.00e+00	0	43	0	428867584	13	4334
2026-01-18 02:58:59.20	13.55	14.01	-26.7	-28.4	15.4	0.00e+00	0	43	0	434110464	13	4381
2026-01-18 02:59:00.20	13.51	14.11	-26.7	-28.4	15.4	0.00e+00	0	43	0	439353344	13	4373
2026-01-18 02:59:01.20	13.46	14.21	-26.6	-28.2	15.5	0.00e+00	0	43	0	445644800	13	4324
2026-01-18 02:59:02.20	13.42	14.31	-26.8	-28.5	15.3	0.00e+00	0	43	0	450887680	13	4386
2026-01-18 02:59:03.21	13.38	14.42	-26.6	-28.1	15.6	0.00e+00	0	43	0	456130560	13	4281
2026-01-18 02:59:04.21	13.34	14.52	-26.6	-28.0	15.6	0.00e+00	0	43	0	462422016	13	4261
2026-01-18 02:59:05.22	13.29	14.62	-26.6	-28.1	15.6	0.00e+00	0	44	0	467664896	13	4277
2026-01-18 02:59:06.22	13.25	14.72	-26.6	-28.1	15.6	0.00e+00	0	44	0	472907776	13	4289
2026-01-18 02:59:07.23	13.20	14.83	-26.4	-28.1	15.8	0.00e+00	0	43	0	479199232	12	4407
2026-01-18 02:59:08.23	13.16	14.93	-26.5	-28.0	15.6	0.00e+00	0	43	0	484442112	13	4252
2026-01-18 02:59:09.24	13.12	15.04	-26.3	-27.4	16.0	0.00e+00	0	43	0	490733568	13	4098
2026-01-18 02:59:10.24	13.07	15.14	-26.0	-27.4	16.3	0.00e+00	0	43	0	495976448	12	4212
2026-01-18 02:59:11.24	13.03	15.25	-26.3	-27.9	16.0	0.00e+00	0	44	0	501219328	12	4339
2026-01-18 02:59:12.25	12.98	15.35	-26.4	-28.1	15.9	0.00e+00	0	43	0	507510784	12	4405
2026-01-18 02:59:13.25	12.93	15.46	-26.1	-27.4	16.2	0.00e+00	0	44	0	512753664	12	4216
2026-01-18 02:59:14.25	12.89	15.56	-25.9	-27.1	16.4	0.00e+00	0	43	0	519045120	12	4131
2026-01-18 02:59:15.25	12.84	15.67	-25.8	-26.9	16.5	0.00e+00	0	43	0	524288000	12	4081
2026-01-18 02:59:16.25	12.79	15.78	-25.8	-27.4	16.6	0.00e+00	0	43	0	529530880	11	4325
2026-01-18 02:59:17.25	12.75	15.89	-25.9	-27.6	16.5	0.00e+00	0	43	0	535822336	11	4377
2026-01-18 02:59:18.25	12.70	15.99	-26.0	-27.2	16.4	0.00e+00	0	43	0	541065216	12	4162
2026-01-18 02:59:19.25	12.65	16.10	-26.1	-27.5	16.2	0.00e+00	0	43	0	546308096	12	4241
2026-01-18 02:59:20.25	12.60	16.21	-25.9	-27.1	16.5	0.00e+00	0	43	0	552599552	12	4126
2026-01-18 02:59:21.26	12.55	16.32	-25.7	-26.5	16.8	0.00e+00	0	44	0	557842432	12	3987
2026-01-18 02:59:22.26	12.51	16.43	-25.7	-27.2	16.8	0.00e+00	0	44	0	564133888	11	4261
2026-01-18 02:59:23.27	12.46	16.54	-25.7	-27.1	16.8	0.00e+00	0	43	0	569376768	11	4229
2026-01-18 02:59:24.27	12.41	16.65	-25.7	-27.2	16.8	0.00e+00	0	43	0	574619648	11	4257
2026-01-18 02:59:25.27	12.35	16.76	-25.8	-27.3	16.8	0.00e+00	0	44	0	580911104	11	4278
2026-01-18 02:59:26.28	12.30	16.88	-25.6	-27.0	16.9	0.00e+00	0	43	0	586153984	11	4204
2026-01-18 02:59:27.29	12.25	16.99	-25.5	-26.8	17.0	0.00e+00	0	44	0	591396864	11	4149
2026-01-18 02:59:28.29	12.20	17.10	-25.4	-26.6	17.1	0.00e+00	0	43	0	597688320	11	4095
2026-01-18 02:59:29.29	12.15	17.22	-25.4	-26.5	17.2	0.00e+00	0	44	0	602931200	11	4073
2026-01-18 02:59:30.29	12.10	17.33	-25.6	-26.9	17.0	0.00e+00	0	44	0	608174080	11	4178
2026-01-18 02:59:31.29	12.04	17.44	-25.7	-27.2	16.8	0.00e+00	0	44	0	614465536	11	4260
2026-01-18 02:59:32.30	11.99	17.56	-25.4	-26.5	17.2	0.00e+00	0	44	0	619708416	11	4072
2026-01-18 02:59:33.30	11.94	17.67	-25.2	-26.0	17.4	0.00e+00	0	44	0	625999872	11	3962
2026-01-18 02:59:34.30	11.88	17.79	-25.3	-26.8	17.3	0.00e+00	0	44	0	631242752	10	4257
2026-01-18 02:59:35.31	11.83	17.91	-25.1	-26.3	17.6	0.00e+00	0	44	0	637534208	10	4129
2026-01-18 02:59:36.31	11.77	18.02	-25.2	-26.6	17.4	0.00e+00	0	44	0	642777088	10	4210
2026-01-18 02:59:37.31	11.72	18.14	-25.1	-26.3	17.6	0.00e+00	0	44	0	648019968	10	4127
2026-01-18 02:59:38.32	11.66	18.26	-25.4	-27.0	17.2	0.00e+00	0	43	0	654311424	10	4318
2026-01-18 02:59:39.33	11.60	18.38	-25.4	-27.0	17.2	0.00e+00	0	44	0	659554304	10	4307
2026-01-18 02:59:40.33	11.55	18.50	-25.1	-26.3	17.6	0.00e+00	0	43	0	664797184	10	4128
2026-01-18 02:59:41.34	11.49	18.62	-25.0	-26.1	17.7	0.00e+00	0	44	0	671088640	10	4084
2026-01-18 02:59:42.34	11.43	18.74	-25.2	-26.4	17.5	0.00e+00	0	44	0	676331520	10	4175
2026-01-18 02:59:43.35	11.37	18.86	-25.1	-26.3	17.6	0.00e+00	0	44	0	682622976	10	4148
2026-01-18 02:59:44.35	11.31	18.98	-25.1	-26.3	17.6	0.00e+00	0	44	0	687865856	10	4148
2026-01-18 02:59:45.35	11.25	19.10	-25.1	-26.2	17.7	0.00e+00	0	44	0	693108736	10	4116
2026-01-18 02:59:46.36	11.19	19.23	-24.9	-26.0	17.8	0.00e+00	0	44	0	699400192	10	4053
2026-01-18 02:59:47.37	11.13	19.35	-25.0	-26.1	17.7	0.00e+00	0	44	0	704643072	10	4094
2026-01-18 02:59:48.37	11.07	19.48	-25.1	-26.3	17.6	0.00e+00	0	44	0	710934528	10	4138
2026-01-18 02:59:49.37	11.01	19.60	-25.0	-26.1	17.7	0.00e+00	0	44	0	716177408	10	4092
2026-01-18 02:59:50.38	10.95	19.73	-25.1	-26.4	17.6	0.00e+00	0	44	0	721420288	10	4159
2026-01-18 02:59:51.38	10.88	19.85	-25.2	-26.6	17.5	0.00e+00	0	44	0	727711744	10	4214
2026-01-18 02:59:52.38	10.82	19.98	-25.0	-26.0	17.8	0.00e+00	0	44	0	732954624	10	4071
2026-01-18 02:59:53.38	10.76	20.10	-24.9	-25.8	17.9	0.00e+00	0	44	0	738197504	10	4021
2026-01-18 02:59:54.38	10.69	20.23	-24.9	-25.8	18.0	0.00e+00	0	43	0	744488960	10	4015
2026-01-18 02:59:55.39	10.63	20.36	-24.8	-25.7	18.0	0.00e+00	0	44	0	749731840	10	3985
2026-01-18 02:59:56.39	10.56	20.49	-24.8	-25.6	18.0	0.00e+00	0	44	0	754974720	10	3972
2026-01-18 02:59:57.39	10.50	20.62	-24.7	-25.6	18.1	0.00e+00	0	43	0	761266176	10	3953
2026-01-18 02:59:58.40	10.43	20.75	-24.8	-26.1	18.0	0.00e+00	0	44	0	766509056	9	4196
2026-01-18 02:59:59.40	10.36	20.88	-24.8	-26.1	18.1	0.00e+00	0	44	0	772800512	9	4199
2026-01-18 03:00:00.41	10.29	21.01	-24.8	-26.3	18.0	0.00e+00	0	44	0	778043392	9	4242
2026-01-18 03:00:01.41	10.23	21.14	-24.9	-25.9	17.9	0.00e+00	0	44	0	784334848	10	4044
2026-01-18 03:00:02.42	10.16	21.27	-24.7	-25.6	18.1	0.00e+00	0	44	0	789577728	10	3954
2026-01-18 03:00:03.43	10.09	21.41	-24.7	-25.6	18.1	0.00e+00	0	44	0	794820608	10	3959
2026-01-18 03:00:04.43	10.02	21.54	-24.7	-25.5	18.1	0.00e+00	0	43	0	801112064	10	3938
2026-01-18 03:00:05.43	9.94	21.67	-24.7	-25.4	18.2	0.00e+00	0	44	0	806354944	10	3922
2026-01-18 03:00:06.43	9.87	21.81	-24.8	-25.6	18.1	0.00e+00	0	44	0	811597824	10	3965
2026-01-18 03:00:07.43	9.80	21.94	-24.6	-25.8	18.3	1.59e-04	0	44	0	817889280	9	4122
2026-01-18 03:00:08.43	9.73	22.08	-24.6	-25.7	18.3	0.00e+00	0	44	0	823132160	9	4105
2026-01-18 03:00:09.43	9.65	22.22	-24.5	-25.6	18.3	1.79e-04	0	44	0	829423616	9	4082
2026-01-18 03:00:10.44	9.58	22.36	-24.6	-25.7	18.3	0.00e+00	0	44	0	834666496	9	4102
2026-01-18 03:00:11.44	9.50	22.49	-24.6	-25.8	18.3	0.00e+00	0	44	0	839909376	9	4124
2026-01-18 03:00:12.45	9.43	22.63	-24.8	-26.2	18.1	0.00e+00	0	44	0	846200832	9	4228
2026-01-18 03:00:13.45	9.35	22.77	-24.7	-25.9	18.2	2.18e-04	0	44	0	851443712	9	4151
2026-01-18 03:00:14.45	9.28	22.91	-24.4	-25.4	18.5	0.00e+00	0	44	0	857735168	9	4013
2026-01-18 03:00:15.46	9.20	23.06	-24.3	-25.1	18.6	0.00e+00	0	44	0	862978048	9	3958
2026-01-18 03:00:16.46	9.12	23.20	-24.3	-25.1	18.6	1.68e-04	0	44	0	868220928	9	3962
2026-01-18 03:00:17.46	9.04	23.34	-24.3	-25.2	18.6	0.00e+00	0	44	0	874512384	9	3970
2026-01-18 03:00:18.46	8.96	23.48	-24.4	-25.3	18.5	1.36e-04	0	44	0	879755264	9	4009
2026-01-18 03:00:19.47	8.88	23.63	-24.2	-24.9	18.7	0.00e+00	0	44	0	884998144	9	3898
2026-01-18 03:00:20.47	8.80	23.77	-24.1	-24.8	18.8	0.00e+00	0	44	0	891289600	9	3882
2026-01-18 03:00:21.47	8.71	23.92	-24.1	-24.7	18.8	6.06e-05	0	44	0	896532480	9	3864
2026-01-18 03:00:22.47	8.63	24.06	-24.3	-25.1	18.6	0.00e+00	0	44	0	902823936	9	3957
2026-01-18 03:00:23.47	8.55	24.21	-24.4	-25.3	18.5	0.00e+00	0	44	0	908066816	9	4009
2026-01-18 03:00:24.48	8.46	24.36	-24.4	-25.3	18.5	0.00e+00	0	44	0	913309696	9	3997
2026-01-18 03:00:25.48	8.37	24.51	-24.4	-25.3	18.5	1.70e-04	0	44	0	919601152	9	3998
2026-01-18 03:00:26.48	8.29	24.66	-24.4	-25.4	18.5	0.00e+00	0	44	0	924844032	9	4018
2026-01-18 03:00:27.48	8.20	24.81	-24.3	-25.0	18.7	1.48e-04	0	44	0	930086912	9	3941
2026-01-18 03:00:28.48	8.11	24.96	-24.2	-24.9	18.7	7.89e-05	0	44	0	936378368	9	3910
2026-01-18 03:00:29.49	8.02	25.11	-24.2	-24.8	18.8	0.00e+00	0	44	0	941621248	9	3878
2026-01-18 03:00:30.49	7.93	25.26	-24.2	-24.9	18.8	1.48e-05	0	44	0	946864128	9	3906
2026-01-18 03:00:31.49	7.84	25.42	-24.1	-24.8	18.8	0.00e+00	0	44	0	953155584	9	3881
2026-01-18 03:00:32.49	7.75	25.57	-24.0	-24.5	18.9	0.00e+00	0	44	0	958398464	9	3812
2026-01-18 03:00:33.49	7.66	25.72	-23.8	-24.0	19.2	0.00e+00	0	44	0	964689920	9	3701
2026-01-18 03:00:34.49	7.56	25.88	-23.8	-24.5	19.2	0.00e+00	0	44	0	969932800	8	3907
2026-01-18 03:00:35.49	7.47	26.04	-23.6	-24.2	19.3	0.00e+00	0	44	0	975175680	8	3854
2026-01-18 03:00:36.49	7.37	26.19	-23.7	-24.3	19.3	5.49e-05	0	44	0	981467136	8	3874
2026-01-18 03:00:37.50	7.28	26.35	-23.7	-24.4	19.3	4.46e-05	0	44	0	986710016	8	3882
2026-01-18 03:00:38.51	7.18	26.51	-23.6	-24.2	19.4	0.00e+00	0	44	0	993001472	8	3845
2026-01-18 03:00:39.51	7.08	26.67	-23.7	-24.3	19.3	1.18e-04	0	44	0	998244352	8	3880
2026-01-18 03:00:40.52	6.98	26.84	-23.8	-24.6	19.2	1.33e-04	0	44	0	1003487232	8	3947
2026-01-18 03:00:41.52	6.88	27.00	-23.9	-24.8	19.1	0.00e+00	0	44	0	1009778688	8	3978
2026-01-18 03:00:42.52	6.77	27.16	-24.0	-25.0	19.0	1.37e-04	0	44	0	1015021568	8	4028
2026-01-18 03:00:43.53	6.67	27.32	-24.0	-25.0	19.0	1.12e-04	0	44	0	1020264448	8	4029
2026-01-18 03:00:44.53	6.57	27.49	-24.1	-25.2	18.9	0.00e+00	0	44	0	1026555904	8	4077
2026-01-18 03:00:45.54	6.46	27.65	-24.2	-25.3	18.8	0.00e+00	0	44	0	1031798784	8	4116
2026-01-18 03:00:46.55	6.35	27.82	-24.0	-25.0	19.0	1.33e-04	0	44	0	1038090240	8	4042
2026-01-18 03:00:47.55	6.25	27.99	-24.0	-25.0	19.0	0.00e+00	0	44	0	1043333120	8	4025
2026-01-18 03:00:48.56	6.14	28.16	-23.8	-24.6	19.2	2.38e-04	0	44	0	1049624576	8	3945
2026-01-18 03:00:49.57	6.03	28.33	-23.8	-24.6	19.2	2.47e-04	0	44	0	1054867456	8	3949
2026-01-18 03:00:50.58	5.91	28.50	-23.8	-24.5	19.2	0.00e+00	0	44	0	1060110336	8	3922
2026-01-18 03:00:51.58	5.80	28.67	-23.7	-24.3	19.3	2.37e-04	0	44	0	1066401792	8	3872
2026-01-18 03:00:52.58	5.69	28.84	-23.7	-24.7	19.3	0.00e+00	0	44	0	1071644672	7	4085
2026-01-18 03:00:53.58	5.57	29.01	-23.7	-24.9	19.3	0.00e+00	0	44	0	1076887552	7	4128
2026-01-18 03:00:54.59	5.46	29.19	-23.8	-25.0	19.2	0.00e+00	0	44	0	1083179008	7	4155
2026-01-18 03:00:55.59	5.34	29.36	-23.8	-25.1	19.2	1.79e-04	0	44	0	1088421888	7	4170
2026-01-18 03:00:56.60	5.22	29.54	-23.9	-25.3	19.1	0.00e+00	0	44	0	1094713344	7	4216
2026-01-18 03:00:57.60	5.10	29.71	-23.9	-24.7	19.1	1.67e-04	0	44	0	1099956224	8	3965
2026-01-18 03:00:58.60	4.98	29.89	-23.8	-24.6	19.2	0.00e+00	0	44	0	1105199104	8	3950
2026-01-18 03:00:59.60	4.85	30.07	-23.9	-24.7	19.1	0.00e+00	0	44	0	1111490560	8	3976
2026-01-18 03:01:00.60	4.73	30.25	-24.0	-25.0	19.0	1.66e-04	0	44	0	1116733440	8	4036
2026-01-18 03:01:01.61	4.60	30.43	-23.9	-24.8	19.1	0.00e+00	0	44	0	1123024896	8	3980
2026-01-18 03:01:02.61	4.48	30.61	-23.8	-24.5	19.3	0.00e+00	0	44	0	1128267776	8	3925
2026-01-18 03:01:03.61	4.35	30.79	-23.8	-24.7	19.2	0.00e+00	0	44	0	1133510656	8	3952
2026-01-18 03:01:04.62	4.22	30.98	-23.7	-24.4	19.3	0.00e+00	0	44	0	1139802112	8	3886
2026-01-18 03:01:05.62	4.08	31.16	-23.5	-24.0	19.5	0.00e+00	0	44	0	1145044992	8	3799
2026-01-18 03:01:06.62	3.95	31.34	-23.5	-23.8	19.6	0.00e+00	0	44	0	1150287872	8	3762
2026-01-18 03:01:07.63	3.81	31.53	-23.6	-24.1	19.5	0.00e+00	0	44	0	1156579328	8	3824
2026-01-18 03:01:08.63	3.68	31.72	-23.6	-24.1	19.5	0.00e+00	0	44	0	1161822208	8	3822
2026-01-18 03:01:09.63	3.54	31.91	-23.6	-24.2	19.4	0.00e+00	0	44	0	1167065088	8	3849
2026-01-18 03:01:10.63	3.40	32.10	-23.7	-24.4	19.3	0.00e+00	0	44	0	1173356544	8	3898
2026-01-18 03:01:11.64	3.26	32.29	-23.8	-24.6	19.2	0.00e+00	0	44	0	1178599424	8	3942
2026-01-18 03:01:12.65	3.11	32.48	-23.7	-24.4	19.3	0.00e+00	0	44	0	1184890880	8	3901
2026-01-18 03:01:13.65	2.97	32.67	-23.6	-24.3	19.4	0.00e+00	0	44	0	1190133760	8	3861
2026-01-18 03:01:14.65	2.82	32.86	-23.7	-24.3	19.3	0.00e+00	0	44	0	1196425216	8	3873
2026-01-18 03:01:15.65	2.67	33.06	-23.5	-24.1	19.5	0.00e+00	0	44	0	1201668096	8	3814
2026-01-18 03:01:16.66	2.52	33.25	-23.3	-23.6	19.7	0.00e+00	0	44	0	1206910976	8	3709
2026-01-18 03:01:17.66	2.37	33.45	-23.4	-23.8	19.6	0.00e+00	0	44	0	1213202432	8	3757
2026-01-18 03:01:18.66	2.22	33.65	-23.4	-23.7	19.6	0.00e+00	0	44	0	1218445312	8	3744
2026-01-18 03:01:19.66	2.06	33.84	-23.4	-23.7	19.7	0.00e+00	0	44	0	1223688192	8	3725
2026-01-18 03:01:20.67	1.90	34.05	-23.5	-23.9	19.6	0.00e+00	0	44	0	1229979648	8	3781
2026-01-18 03:01:21.67	1.74	34.25	-23.6	-24.1	19.5	0.00e+00	0	44	0	1235222528	8	3817
2026-01-18 03:01:22.67	1.58	34.45	-23.5	-24.0	19.5	0.00e+00	0	44	0	1240465408	8	3804
2026-01-18 03:01:23.67	1.42	34.65	-23.7	-24.3	19.4	0.00e+00	0	44	0	1246756864	8	3880
2026-01-18 03:01:24.67	1.25	34.85	-23.7	-24.4	19.3	0.00e+00	0	44	0	1251999744	8	3896
2026-01-18 03:01:25.68	1.08	35.06	-23.6	-24.2	19.4	0.00e+00	0	44	0	1258291200	8	3849
2026-01-18 03:01:26.68	0.91	35.26	-23.6	-24.1	19.5	0.00e+00	0	44	0	1263534080	8	3828
2026-01-18 03:01:27.67	0.74	35.47	-23.7	-24.4	19.3	0.00e+00	0	44	0	1268776960	8	3898
2026-01-18 03:01:28.68	0.56	35.68	-23.6	-24.1	19.5	0.00e+00	0	44	0	1275068416	8	3834
2026-01-18 03:01:29.68	0.39	35.89	-23.4	-23.8	19.6	0.00e+00	0	44	0	1280311296	8	3755
2026-01-18 03:01:30.69	0.20	36.10	-23.4	-23.8	19.7	0.00e+00	0	44	0	1285554176	8	3755
2026-01-18 03:01:31.69	0.02	36.31	-23.6	-24.1	19.5	0.00e+00	0	44	0	1291845632	8	3817
2026-01-18 03:01:32.70	359.84	36.52	-23.4	-23.7	19.7	0.00e+00	0	44	0	1297088512	8	3733
2026-01-18 03:01:33.70	359.65	36.73	-23.2	-23.9	19.8	0.00e+00	0	44	0	1303379968	7	3873
2026-01-18 03:01:34.71	359.46	36.95	-23.2	-23.9	19.8	0.00e+00	0	44	0	1308622848	7	3886
2026-01-18 03:01:35.71	359.27	37.16	-23.5	-24.3	19.6	0.00e+00	0	44	0	1313865728	7	3989
2026-01-18 03:01:36.71	359.07	37.38	-23.4	-24.1	19.7	0.00e+00	0	44	0	1320157184	7	3939
2026-01-18 03:01:37.72	358.87	37.60	-23.3	-23.9	19.8	0.00e+00	0	44	0	1325400064	7	3893
2026-01-18 03:01:38.72	358.67	37.82	-23.2	-23.8	19.9	0.00e+00	0	44	0	1331691520	7	3857
2026-01-18 03:01:39.72	358.47	38.03	-23.3	-24.0	19.8	0.00e+00	0	44	0	1336934400	7	3910
2026-01-18 03:01:40.73	358.26	38.26	-23.3	-23.9	19.8	0.00e+00	0	44	0	1342177280	7	3887
2026-01-18 03:01:41.73	358.06	38.48	-23.3	-24.0	19.8	0.00e+00	0	44	0	1348468736	7	3900
2026-01-18 03:01:42.74	357.84	38.70	-23.2	-23.9	19.9	0.00e+00	0	44	0	1353711616	7	3868
2026-01-18 03:01:43.74	357.63	38.92	-23.2	-23.7	19.9	0.00e+00	0	44	0	1358954496	7	3842
2026-01-18 03:01:44.74	357.41	39.15	-23.4	-24.3	19.7	0.00e+00	0	44	0	1365245952	7	3979
2026-01-18 03:01:45.75	357.19	39.37	-23.4	-24.2	19.7	0.00e+00	0	44	0	1370488832	7	3957
2026-01-18 03:01:46.75	356.97	39.60	-23.3	-24.1	19.8	0.00e+00	0	44	0	1376780288	7	3929
2026-01-18 03:01:47.75	356.74	39.83	-23.4	-24.3	19.7	0.00e+00	0	44	0	1382023168	7	3970
2026-01-18 03:01:48.76	356.51	40.06	-23.3	-24.1	19.8	0.00e+00	0	44	0	1387266048	7	3934
2026-01-18 03:01:49.76	356.28	40.29	-23.3	-24.0	19.8	0.00e+00	0	44	0	1393557504	7	3903
2026-01-18 03:01:50.76	356.04	40.51	-23.4	-24.3	19.7	0.00e+00	0	44	0	1398800384	7	3966
2026-01-18 03:01:51.77	355.80	40.75	-23.4	-24.2	19.7	0.00e+00	0	44	0	1405091840	7	3944
2026-01-18 03:01:52.77	355.55	40.98	-23.4	-24.2	19.7	0.00e+00	0	44	0	1410334720	7	3959
2026-01-18 03:01:53.77	355.31	41.21	-23.7	-24.8	19.5	0.00e+00	0	44	0	1415577600	7	4094
2026-01-18 03:01:54.78	355.06	41.45	-23.6	-24.6	19.5	0.00e+00	0	44	0	1421869056	7	4057
2026-01-18 03:01:55.79	354.80	41.68	-23.7	-24.8	19.4	0.00e+00	0	44	0	1427111936	7	4107
2026-01-18 03:01:56.80	354.54	41.92	-23.6	-24.7	19.5	0.00e+00	0	44	0	1433403392	7	4077
2026-01-18 03:01:57.80	354.28	42.16	-23.6	-24.6	19.6	0.00e+00	0	44	0	1438646272	7	4043
2026-01-18 03:01:58.80	354.01	42.39	-23.6	-24.7	19.5	0.00e+00	0	44	0	1443889152	7	4064
2026-01-18 03:01:59.80	353.74	42.63	-23.5	-24.4	19.6	0.00e+00	0	44	0	1450180608	7	4003
2026-01-18 03:02:00.80	353.47	42.87	-23.6	-24.6	19.6	0.00e+00	0	44	0	1455423488	7	4043
2026-01-18 03:02:01.81	353.19	43.11	-23.7	-24.8	19.4	0.00e+00	0	44	0	1460666368	7	4100
2026-01-18 03:02:02.81	352.90	43.35	-23.9	-25.3	19.2	0.00e+00	0	44	0	1466957824	7	4212
2026-01-18 03:02:03.80	352.62	43.59	-23.8	-25.1	19.3	0.00e+00	0	44	0	1472200704	7	4179
2026-01-18 03:02:04.81	352.33	43.83	-23.9	-25.2	19.3	0.00e+00	0	44	0	1478492160	7	4205
2026-01-18 03:02:05.81	352.03	44.07	-24.0	-25.1	19.1	0.00e+00	0	44	0	1483735040	8	4052
2026-01-18 03:02:06.82	351.73	44.32	-24.1	-25.2	19.1	0.00e+00	0	44	0	1488977920	8	4082
2026-01-18 03:02:07.83	351.42	44.56	-23.8	-24.6	19.3	0.00e+00	0	44	0	1495269376	8	3943
2026-01-18 03:02:08.83	351.11	44.81	-23.8	-24.6	19.3	0.00e+00	0	44	0	1500512256	8	3947
2026-01-18 03:02:09.84	350.79	45.05	-24.1	-25.2	19.1	0.00e+00	0	44	0	1505755136	8	4082
2026-01-18 03:02:10.84	350.47	45.30	-23.7	-24.4	19.4	0.00e+00	0	44	0	1512046592	8	3888
2026-01-18 03:02:11.85	350.15	45.54	-23.4	-23.7	19.8	0.00e+00	0	44	0	1517289472	8	3718
2026-01-18 03:02:12.86	349.81	45.79	-23.3	-23.9	19.9	0.00e+00	0	44	0	1523580928	7	3877
2026-01-18 03:02:13.86	349.48	46.04	-23.5	-24.4	19.7	0.00e+00	0	44	0	1528823808	7	3990
2026-01-18 03:02:14.87	349.13	46.29	-23.7	-24.8	19.5	0.00e+00	0	44	0	1534066688	7	4106
2026-01-18 03:02:15.87	348.79	46.53	-23.9	-25.2	19.3	0.00e+00	0	44	0	1540358144	7	4203
2026-01-18 03:02:16.88	348.43	46.78	-23.8	-25.0	19.4	0.00e+00	0	44	0	1545601024	7	4135
2026-01-18 03:02:17.89	348.07	47.03	-23.7	-24.9	19.4	0.00e+00	0	44	0	1551892480	7	4118
2026-01-18 03:02:18.89	347.71	47.28	-23.8	-25.0	19.4	0.00e+00	0	44	0	1557135360	7	4135
2026-01-18 03:02:19.90	347.34	47.53	-23.6	-24.5	19.6	0.00e+00	0	44	0	1563426816	7	4028
2026-01-18 03:02:20.90	346.96	47.78	-23.6	-24.7	19.6	0.00e+00	0	44	0	1568669696	7	4060
2026-01-18 03:02:21.90	346.58	48.03	-23.7	-24.8	19.5	0.00e+00	0	44	0	1573912576	7	4095
2026-01-18 03:02:22.90	346.20	48.27	-23.6	-24.6	19.6	0.00e+00	0	44	0	1580204032	7	4050
2026-01-18 03:02:23.90	345.80	48.52	-23.6	-24.7	19.6	0.00e+00	0	44	0	1585446912	7	4065
2026-01-18 03:02:24.91	345.40	48.77	-24.1	-25.1	19.2	0.00e+00	0	44	0	1590689792	8	4043
2026-01-18 03:02:25.92	344.99	49.02	-24.2	-25.3	19.0	0.00e+00	0	44	0	1596981248	8	4104
2026-01-18 03:02:26.92	344.58	49.27	-24.2	-25.5	18.9	0.00e+00	0	44	0	1602224128	8	4155
2026-01-18 03:02:27.93	344.15	49.52	-24.5	-26.0	18.7	0.00e+00	0	44	0	1607467008	8	4288
2026-01-18 03:02:28.93	343.73	49.77	-24.6	-25.7	18.6	0.00e+00	0	44	0	1613758464	9	4101
2026-01-18 03:02:29.93	343.29	50.01	-24.8	-26.3	18.3	0.00e+00	0	44	0	1619001344	9	4237
2026-01-18 03:02:30.93	342.85	50.26	-24.7	-26.0	18.4	0.00e+00	0	44	0	1625292800	9	4177
2026-01-18 03:02:31.93	342.40	50.50	-24.4	-25.4	18.8	0.00e+00	0	44	0	1630535680	9	4009
2026-01-18 03:02:32.93	341.95	50.75	-24.4	-25.3	18.8	0.00e+00	0	44	0	1635778560	9	3981
2026-01-18 03:02:33.93	341.49	50.99	-24.7	-25.9	18.5	9.15e-05	0	44	0	1642070016	9	4147
2026-01-18 03:02:34.94	341.01	51.24	-24.9	-26.3	18.3	0.00e+00	0	44	0	1647312896	9	4250
2026-01-18 03:02:35.94	340.53	51.48	-24.7	-25.9	18.5	1.11e-04	0	44	0	1652555776	9	4139
2026-01-18 03:02:36.94	340.05	51.72	-24.4	-25.4	18.7	0.00e+00	0	44	0	1658847232	9	4016
2026-01-18 03:02:37.95	339.55	51.97	-24.6	-25.7	18.6	0.00e+00	0	44	0	1664090112	9	4083
2026-01-18 03:02:38.95	339.04	52.21	-24.5	-25.5	18.7	0.00e+00	0	44	0	1670381568	9	4047
2026-01-18 03:02:39.95	338.53	52.45	-24.5	-25.6	18.7	0.00e+00	0	44	0	1675624448	9	4055
2026-01-18 03:02:40.95	338.01	52.68	-24.6	-25.6	18.6	0.00e+00	0	44	0	1680867328	9	4076
2026-01-18 03:02:41.95	337.49	52.92	-24.4	-25.3	18.8	0.00e+00	0	44	0	1687158784	9	3981
2026-01-18 03:02:42.96	336.94	53.16	-24.2	-24.9	19.0	0.00e+00	0	44	0	1692401664	9	3889
2026-01-18 03:02:43.96	336.40	53.39	-24.6	-25.7	18.6	0.00e+00	0	44	0	1698693120	9	4081
2026-01-18 03:02:44.96	335.84	53.62	-24.7	-26.0	18.4	0.00e+00	0	44	0	1703936000	9	4178
2026-01-18 03:02:45.97	335.28	53.85	-24.7	-25.9	18.5	0.00e+00	0	44	0	1709178880	9	4135
2026-01-18 03:02:46.97	334.70	54.08	-24.7	-25.9	18.5	0.00e+00	0	44	0	1715470336	9	4142
2026-01-18 03:02:47.98	334.12	54.31	-24.9	-26.4	18.2	0.00e+00	0	44	0	1720713216	9	4259
2026-01-18 03:02:48.97	333.53	54.53	-24.7	-26.0	18.4	0.00e+00	0	44	0	1725956096	9	4168
2026-01-18 03:02:49.97	332.93	54.75	-24.7	-26.0	18.5	0.00e+00	0	44	0	1732247552	9	4149
2026-01-18 03:02:50.96	332.33	54.97	-25.3	-26.6	17.9	0.00e+00	0	44	0	1737490432	10	4211
2026-01-18 03:02:51.96	331.71	55.19	-25.1	-26.3	18.0	0.00e+00	0	44	0	1743781888	10	4138
2026-01-18 03:02:52.96	331.08	55.40	-25.0	-26.0	18.2	0.00e+00	0	44	0	1749024768	10	4065
2026-01-18 03:02:53.96	330.44	55.61	-24.8	-25.6	18.4	0.00e+00	0	44	0	1754267648	10	3952
2026-01-18 03:02:54.97	329.79	55.83	-24.7	-25.5	18.4	0.00e+00	0	44	0	1760559104	10	3938
2026-01-18 03:02:55.97	329.13	56.03	-24.9	-25.9	18.2	0.00e+00	0	44	0	1765801984	10	4034
2026-01-18 03:02:56.97	328.46	56.24	-24.8	-25.5	18.4	0.00e+00	0	44	0	1771044864	10	3946
2026-01-18 03:02:57.98	327.78	56.44	-25.3	-26.6	17.9	0.00e+00	0	44	0	1777336320	10	4222
2026-01-18 03:02:58.98	327.09	56.63	-25.0	-26.0	18.2	0.00e+00	0	44	0	1782579200	10	4064
2026-01-18 03:02:59.98	326.40	56.83	-24.4	-24.8	18.8	0.00e+00	0	44	0	1787822080	10	3762
2026-01-18 03:03:00.98	325.69	57.02	-24.2	-24.9	19.0	0.00e+00	0	44	0	1794113536	9	3902
2026-01-18 03:03:01.99	324.97	57.21	-24.4	-25.2	18.8	0.00e+00	0	44	0	1799356416	9	3976
2026-01-18 03:03:03.00	324.23	57.39	-24.2	-24.8	19.1	0.00e+00	0	44	0	1805647872	9	3875
2026-01-18 03:03:03.99	323.50	57.57	-23.7	-24.2	19.6	0.00e+00	0	44	0	1810890752	8	3846
2026-01-18 03:03:05.00	322.75	57.75	-23.6	-24.1	19.6	0.00e+00	0	44	0	1817182208	8	3822
2026-01-18 03:03:06.00	321.99	57.92	-23.9	-24.7	19.4	0.00e+00	0	44	0	1822425088	8	3955
2026-01-18 03:03:07.00	321.23	58.08	-24.0	-25.0	19.2	0.00e+00	0	44	0	1827667968	8	4034
2026-01-18 03:03:08.01	320.44	58.25	-24.3	-25.6	18.9	0.00e+00	0	44	0	1833959424	8	4189
2026-01-18 03:03:09.01	319.66	58.40	-23.8	-24.6	19.4	0.00e+00	0	44	0	1839202304	8	3924
2026-01-18 03:03:10.01	318.87	58.56	-23.6	-24.2	19.6	0.00e+00	0	44	0	1844445184	8	3834
2026-01-18 03:03:11.01	318.06	58.71	-23.9	-24.7	19.3	0.00e+00	0	44	0	1850736640	8	3959
2026-01-18 03:03:12.02	317.24	58.85	-24.0	-25.1	19.2	0.00e+00	0	44	0	1855979520	8	4048
2026-01-18 03:03:13.02	316.42	58.99	-23.8	-24.6	19.4	0.00e+00	0	44	0	1861222400	8	3943
2026-01-18 03:03:14.01	315.60	59.12	-23.8	-24.5	19.5	0.00e+00	0	44	0	1867513856	8	3907
2026-01-18 03:03:15.01	314.77	59.25	-24.3	-25.5	19.0	0.00e+00	0	44	0	1872756736	8	4157
2026-01-18 03:03:16.02	313.91	59.37	-24.0	-25.1	19.2	0.00e+00	0	44	0	1879048192	8	4045
2026-01-18 03:03:17.02	313.06	59.49	-23.8	-24.6	19.4	0.00e+00	0	44	0	1884291072	8	3936
2026-01-18 03:03:18.02	312.20	59.60	-23.9	-24.8	19.3	0.00e+00	0	44	0	1889533952	8	3985
2026-01-18 03:03:19.03	311.32	59.70	-24.2	-25.4	19.0	0.00e+00	0	44	0	1895825408	8	4146
2026-01-18 03:03:20.04	310.44	59.80	-24.0	-25.0	19.2	0.00e+00	0	44	0	1901068288	8	4032
2026-01-18 03:03:21.04	309.55	59.90	-23.8	-24.5	19.5	0.00e+00	0	44	0	1906311168	8	3910
2026-01-18 03:03:22.05	308.66	59.99	-24.0	-25.0	19.2	0.00e+00	0	44	0	1912602624	8	4035
2026-01-18 03:03:23.05	307.76	60.07	-24.0	-25.1	19.2	0.00e+00	0	44	0	1917845504	8	4044
2026-01-18 03:03:24.04	306.87	60.14	-24.4	-25.9	18.8	6.52e-05	0	44	0	1923088384	8	4261
2026-01-18 03:03:25.04	305.97	60.21	-24.3	-25.5	19.0	1.37e-04	0	44	0	1929379840	8	4166
2026-01-18 03:03:26.04	305.06	60.27	-24.2	-25.5	19.0	0.00e+00	0	44	0	1934622720	8	4138
2026-01-18 03:03:27.05	304.14	60.33	-24.7	-25.8	18.6	0.00e+00	0	44	0	1940914176	9	4125
2026-01-18 03:03:28.05	303.22	60.38	-25.3	-26.7	17.8	0.00e+00	0	44	0	1946157056	10	4237
2026-01-18 03:03:29.05	302.30	60.42	-24.8	-25.8	18.3	0.00e+00	0	44	0	1952448512	10	4000
2026-01-18 03:03:30.05	301.38	60.46	-24.1	-24.7	19.1	0.00e+00	0	44	0	1957691392	9	3856
2026-01-18 03:03:31.06	300.44	60.49	-23.8	-24.4	19.5	0.00e+00	0	44	0	1962934272	8	3892
2026-01-18 03:03:32.06	299.51	60.51	-23.7	-24.4	19.5	0.00e+00	0	44	0	1969225728	8	3885
2026-01-18 03:03:33.07	298.57	60.52	-23.6	-24.2	19.6	0.00e+00	0	44	0	1974468608	8	3832
2026-01-18 03:03:34.08	297.64	60.53	-23.6	-24.1	19.6	1.19e-04	0	44	0	1979711488	8	3827
2026-01-18 03:03:35.08	296.70	60.54	-23.9	-24.8	19.3	0.00e+00	0	44	0	1986002944	8	3983
2026-01-18 03:03:36.08	295.77	60.53	-23.9	-24.7	19.3	3.02e-04	0	44	0	1991245824	8	3957
2026-01-18 03:03:37.09	294.83	60.52	-24.0	-24.9	19.2	0.00e+00	0	44	0	1996488704	8	4023
2026-01-18 03:03:38.10	293.90	60.50	-23.8	-24.5	19.4	0.00e+00	0	44	0	2002780160	8	3919
2026-01-18 03:03:39.10	292.97	60.48	-23.7	-24.2	19.6	0.00e+00	0	44	0	2008023040	8	3848
2026-01-18 03:03:40.11	292.03	60.45	-24.1	-25.3	19.1	0.00e+00	0	44	0	2014314496	8	4099
2026-01-18 03:03:41.11	291.11	60.41	-24.1	-25.2	19.1	0.00e+00	0	44	0	2019557376	8	4075
2026-01-18 03:03:42.11	290.19	60.36	-23.9	-24.8	19.3	0.00e+00	0	44	0	2025848832	8	3990
2026-01-18 03:03:43.12	289.27	60.31	-23.9	-24.7	19.3	8.01e-05	0	44	0	2031091712	8	3946
2026-01-18 03:03:44.12	288.35	60.25	-24.3	-25.6	18.9	0.00e+00	0	44	0	2036334592	8	4175
2026-01-18 03:03:45.11	287.45	60.19	-24.0	-25.1	19.1	0.00e+00	0	44	0	2042626048	8	4054
2026-01-18 03:03:46.12	286.54	60.12	-23.7	-24.3	19.5	0.00e+00	0	44	0	2047868928	8	3856
2026-01-18 03:03:47.12	285.64	60.04	-23.8	-24.6	19.4	0.00e+00	0	44	0	2053111808	8	3934
2026-01-18 03:03:48.13	284.74	59.96	-24.6	-25.7	18.6	0.00e+00	0	44	0	2059403264	9	4095
2026-01-18 03:03:49.13	283.86	59.87	-24.5	-25.5	18.7	0.00e+00	0	44	0	2064646144	9	4050
2026-01-18 03:03:50.13	282.98	59.77	-24.0	-24.5	19.2	0.00e+00	0	44	0	2069889024	9	3807
2026-01-18 03:03:51.14	282.09	59.67	-23.9	-24.1	19.4	0.00e+00	0	44	0	2076180480	9	3723
2026-01-18 03:03:52.14	281.23	59.56	-24.0	-24.5	19.2	0.00e+00	0	44	0	2081423360	9	3798
2026-01-18 03:03:53.15	280.36	59.45	-24.2	-24.9	19.0	0.00e+00	0	44	0	2087714816	9	3907
2026-01-18 03:03:54.15	279.51	59.33	-24.2	-24.9	19.0	0.00e+00	0	44	0	2092957696	9	3908
2026-01-18 03:03:55.15	278.66	59.21	-24.1	-24.7	19.1	0.00e+00	0	44	0	2099249152	9	3842
2026-01-18 03:03:56.15	277.83	59.08	-23.9	-24.3	19.2	0.00e+00	0	44	0	2104492032	9	3771
2026-01-18 03:03:57.16	276.99	58.94	-23.8	-24.1	19.4	0.00e+00	0	44	0	2109734912	9	3710
2026-01-18 03:03:58.16	276.17	58.80	-23.6	-24.2	19.6	0.00e+00	0	44	0	2116026368	8	3843
2026-01-18 03:03:59.16	275.36	58.66	-23.6	-24.1	19.6	0.00e+00	0	44	0	2121269248	8	3814
2026-01-18 03:04:00.15	274.57	58.51	-23.8	-24.6	19.4	0.00e+00	0	44	0	2126512128	8	3933
2026-01-18 03:04:01.16	273.77	58.35	-23.7	-24.3	19.5	1.10e-06	0	44	0	2132803584	8	3866
2026-01-18 03:04:02.16	272.99	58.19	-23.5	-24.0	19.6	0.00e+00	0	44	0	2138046464	8	3802
2026-01-18 03:04:03.17	272.21	58.03	-23.4	-23.6	19.8	0.00e+00	0	44	0	2143289344	8	3713
2026-01-18 03:04:04.17	271.44	57.86	-23.6	-24.5	19.6	0.00e+00	0	44	0	2149580800	7	4026
2026-01-18 03:04:05.18	270.68	57.69	-23.7	-24.9	19.4	0.00e+00	0	44	0	2154823680	7	4111
2026-01-18 03:04:06.18	269.94	57.51	-23.9	-25.2	19.2	0.00e+00	0	44	0	2161115136	7	4207
2026-01-18 03:04:07.18	269.20	57.33	-23.5	-24.4	19.7	0.00e+00	0	44	0	2166358016	7	3992
2026-01-18 03:04:08.19	268.47	57.14	-23.4	-24.2	19.7	0.00e+00	0	44	0	2171600896	7	3945
2026-01-18 03:04:09.19	267.76	56.95	-23.6	-24.6	19.5	0.00e+00	0	44	0	2177892352	7	4056
2026-01-18 03:04:10.19	267.05	56.76	-23.5	-24.5	19.6	0.00e+00	0	44	0	2183135232	7	4026
2026-01-18 03:04:11.19	266.36	56.57	-23.5	-24.3	19.7	0.00e+00	0	44	0	2189426688	7	3984
2026-01-18 03:04:12.20	265.67	56.37	-23.6	-24.6	19.5	0.00e+00	0	44	0	2194669568	7	4051
2026-01-18 03:04:13.20	264.99	56.16	-23.6	-24.6	19.6	0.00e+00	0	44	0	2199912448	7	4049
2026-01-18 03:04:14.20	264.33	55.96	-23.6	-24.6	19.6	0.00e+00	0	44	0	2206203904	7	4039
2026-01-18 03:04:15.20	263.67	55.75	-23.6	-24.6	19.5	0.00e+00	0	44	0	2211446784	7	4051
2026-01-18 03:04:16.21	263.02	55.54	-23.8	-25.1	19.3	0.00e+00	0	44	0	2216689664	7	4171
2026-01-18 03:04:17.21	262.38	55.33	-24.1	-25.3	19.0	0.00e+00	0	44	0	2222981120	8	4106
2026-01-18 03:04:18.22	261.75	55.11	-24.1	-25.1	19.1	0.00e+00	0	44	0	2228224000	8	4062
2026-01-18 03:04:19.22	261.13	54.89	-24.3	-25.7	18.7	0.00e+00	0	44	0	2234515456	8	4205
2026-01-18 03:04:20.22	260.53	54.67	-24.2	-25.4	18.9	0.00e+00	0	44	0	2239758336	8	4130
2026-01-18 03:04:21.23	259.92	54.44	-24.1	-25.2	19.0	0.00e+00	0	44	0	2245001216	8	4073
2026-01-18 03:04:22.23	259.33	54.22	-24.4	-25.8	18.7	0.00e+00	0	44	0	2251292672	8	4238
2026-01-18 03:04:23.23	258.76	53.99	-24.3	-25.6	18.8	0.00e+00	0	44	0	2256535552	8	4170
2026-01-18 03:04:24.23	258.19	53.76	-23.9	-24.8	19.2	0.00e+00	0	44	0	2261778432	8	3977
2026-01-18 03:04:25.23	257.63	53.53	-23.8	-24.5	19.4	0.00e+00	0	44	0	2268069888	8	3906
2026-01-18 03:04:26.23	257.07	53.30	-23.9	-24.8	19.2	0.00e+00	0	44	0	2273312768	8	3985
2026-01-18 03:04:27.23	256.53	53.06	-23.9	-24.8	19.2	0.00e+00	0	44	0	2278555648	8	3989
2026-01-18 03:04:28.23	256.00	52.83	-24.0	-25.0	19.1	0.00e+00	0	44	0	2284847104	8	4022
2026-01-18 03:04:29.23	255.47	52.59	-23.9	-24.8	19.2	0.00e+00	0	44	0	2290089984	8	3983
2026-01-18 03:04:30.24	254.95	52.35	-23.9	-24.7	19.2	0.00e+00	0	44	0	2296381440	8	3967
2026-01-18 03:04:31.23	254.44	52.11	-23.8	-24.5	19.3	0.00e+00	0	44	0	2301624320	8	3910
2026-01-18 03:04:32.24	253.94	51.87	-23.8	-24.5	19.3	0.00e+00	0	44	0	2306867200	8	3926
2026-01-18 03:04:33.24	253.44	51.63	-24.0	-24.9	19.2	0.00e+00	0	44	0	2313158656	8	4004
2026-01-18 03:04:34.24	252.96	51.38	-23.7	-24.3	19.4	0.00e+00	0	44	0	2318401536	8	3864
2026-01-18 03:04:35.24	252.48	51.14	-23.6	-24.1	19.5	0.00e+00	0	44	0	2323644416	8	3825
2026-01-18 03:04:36.25	252.01	50.89	-23.7	-24.4	19.4	0.00e+00	0	44	0	2329935872	8	3880
2026-01-18 03:04:37.25	251.55	50.65	-23.5	-23.9	19.6	0.00e+00	0	44	0	2335178752	8	3780
2026-01-18 03:04:38.26	251.09	50.40	-23.5	-23.8	19.7	0.00e+00	0	44	0	2341470208	8	3754
2026-01-18 03:04:39.26	250.64	50.15	-23.6	-24.0	19.5	0.00e+00	0	44	0	2346713088	8	3804
2026-01-18 03:04:40.25	250.21	49.91	-23.4	-23.7	19.7	0.00e+00	0	44	0	2351955968	8	3735
2026-01-18 03:04:41.25	249.78	49.66	-23.4	-23.8	19.7	0.00e+00	0	44	0	2358247424	8	3757
2026-01-18 03:04:42.26	249.35	49.41	-23.5	-24.0	19.6	0.00e+00	0	44	0	2363490304	8	3796
2026-01-18 03:04:43.26	248.93	49.16	-23.4	-23.7	19.7	0.00e+00	0	44	0	2369781760	8	3726
2026-01-18 03:04:44.26	248.52	48.91	-23.3	-23.5	19.8	0.00e+00	0	44	0	2375024640	8	3693
2026-01-18 03:04:45.27	248.11	48.66	-23.4	-23.7	19.7	0.00e+00	0	44	0	2380267520	8	3734
2026-01-18 03:04:46.27	247.71	48.41	-23.3	-23.6	19.7	0.00e+00	0	44	0	2386558976	8	3703
2026-01-18 03:04:47.28	247.31	48.16	-23.4	-23.8	19.6	0.00e+00	0	44	0	2391801856	8	3748
2026-01-18 03:04:48.27	246.93	47.92	-23.6	-24.2	19.4	0.00e+00	0	44	0	2397044736	8	3847
2026-01-18 03:04:49.27	246.55	47.67	-23.5	-24.0	19.5	0.00e+00	0	44	0	2403336192	8	3810
2026-01-18 03:04:50.27	246.18	47.42	-23.5	-23.9	19.5	0.00e+00	0	44	0	2408579072	8	3778
2026-01-18 03:04:51.27	245.81	47.17	-23.2	-23.7	19.9	0.00e+00	0	44	0	2413821952	7	3840
2026-01-18 03:04:52.27	245.45	46.92	-23.0	-23.5	20.0	0.00e+00	0	44	0	2420113408	7	3785
2026-01-18 03:04:53.28	245.09	46.67	-23.1	-23.7	19.9	0.00e+00	0	44	0	2425356288	7	3828
2026-01-18 03:04:54.28	244.74	46.42	-23.3	-24.0	19.7	0.00e+00	0	44	0	2431647744	7	3912
2026-01-18 03:04:55.28	244.39	46.18	-23.1	-23.6	20.0	0.00e+00	0	44	0	2436890624	7	3807
2026-01-18 03:04:56.28	244.06	45.93	-23.0	-23.3	20.1	0.00e+00	0	44	0	2442133504	7	3746
2026-01-18 03:04:57.29	243.72	45.68	-22.9	-23.2	20.1	0.00e+00	0	44	0	2448424960	7	3730
2026-01-18 03:04:58.30	243.39	45.43	-23.0	-23.3	20.1	0.00e+00	0	44	0	2453667840	7	3748
2026-01-18 03:04:59.29	243.07	45.19	-22.9	-23.2	20.2	0.00e+00	0	44	0	2459959296	7	3719
2026-01-18 03:05:00.30	242.74	44.94	-22.9	-23.2	20.1	0.00e+00	0	44	0	2465202176	7	3736
2026-01-18 03:05:01.30	242.43	44.69	-23.1	-23.5	20.0	0.00e+00	0	44	0	2470445056	7	3800
2026-01-18 03:05:02.30	242.12	44.45	-23.2	-23.8	19.8	0.00e+00	0	44	0	2476736512	7	3853
2026-01-18 03:05:03.31	241.81	44.20	-23.3	-23.9	19.8	0.00e+00	0	44	0	2481979392	7	3887
2026-01-18 03:05:04.31	241.52	43.96	-23.1	-23.6	19.9	0.00e+00	0	44	0	2487222272	7	3808
2026-01-18 03:05:05.31	241.22	43.72	-23.1	-23.6	19.9	0.00e+00	0	44	0	2493513728	7	3809
2026-01-18 03:05:06.32	240.93	43.47	-23.1	-23.7	19.9	0.00e+00	0	44	0	2498756608	7	3834
2026-01-18 03:05:07.32	240.64	43.23	-23.1	-23.6	19.9	0.00e+00	0	44	0	2505048064	7	3827
2026-01-18 03:05:08.32	240.36	42.99	-23.3	-24.0	19.7	0.00e+00	0	44	0	2510290944	7	3900
2026-01-18 03:05:09.33	240.08	42.75	-23.5	-24.4	19.5	0.00e+00	0	44	0	2515533824	7	3993
2026-01-18 03:05:10.33	239.81	42.51	-23.1	-23.6	19.9	0.00e+00	0	44	0	2521825280	7	3814
2026-01-18 03:05:11.33	239.54	42.27	-22.9	-23.1	20.1	0.00e+00	0	44	0	2527068160	7	3710
2026-01-18 03:05:12.34	239.27	42.04	-22.9	-23.2	20.1	0.00e+00	0	44	0	2532311040	7	3723
2026-01-18 03:05:13.34	239.01	41.80	-23.0	-23.4	20.0	0.00e+00	0	44	0	2538602496	7	3781
2026-01-18 03:05:14.35	238.75	41.56	-23.0	-23.5	19.9	0.00e+00	0	44	0	2543845376	7	3795
2026-01-18 03:05:15.35	238.49	41.33	-23.0	-23.4	20.0	0.00e+00	0	44	0	2550136832	7	3769
2026-01-18 03:05:16.35	238.24	41.09	-23.0	-23.4	20.0	0.00e+00	0	44	0	2555379712	7	3773
2026-01-18 03:05:17.35	238.00	40.86	-23.0	-23.3	20.0	0.00e+00	0	44	0	2560622592	7	3747
2026-01-18 03:05:18.36	237.75	40.63	-23.1	-23.6	19.9	0.00e+00	0	44	0	2566914048	7	3804
2026-01-18 03:05:19.36	237.51	40.39	-23.2	-23.7	19.8	0.00e+00	0	44	0	2572156928	7	3843
2026-01-18 03:05:20.36	237.28	40.16	-23.1	-23.6	19.9	0.00e+00	0	44	0	2578448384	7	3816
2026-01-18 03:05:21.36	237.04	39.94	-23.0	-23.5	19.9	0.00e+00	0	44	0	2583691264	7	3786
2026-01-18 03:05:22.37	236.81	39.71	-22.8	-23.0	20.2	0.00e+00	0	44	0	2588934144	7	3686
2026-01-18 03:05:23.38	236.58	39.48	-22.7	-23.3	20.2	0.00e+00	0	44	0	2595225600	6	3861
2026-01-18 03:05:24.37	236.36	39.25	-22.8	-23.5	20.2	0.00e+00	0	44	0	2600468480	6	3898
2026-01-18 03:05:25.37	236.14	39.03	-22.8	-23.6	20.1	0.00e+00	0	44	0	2605711360	6	3923
2026-01-18 03:05:26.38	235.92	38.80	-22.7	-23.2	20.3	0.00e+00	0	44	0	2612002816	6	3832
2026-01-18 03:05:27.39	235.71	38.57	-22.6	-23.1	20.4	0.00e+00	0	44	0	2617245696	6	3807
2026-01-18 03:05:28.40	235.50	38.35	-22.6	-23.1	20.4	0.00e+00	0	44	0	2623537152	6	3804
2026-01-18 03:05:29.40	235.29	38.13	-22.6	-23.1	20.3	0.00e+00	0	44	0	2628780032	6	3818
2026-01-18 03:05:30.40	235.08	37.91	-22.6	-23.0	20.4	0.00e+00	0	44	0	2634022912	6	3781
2026-01-18 03:05:31.40	234.88	37.69	-22.7	-23.2	20.3	0.00e+00	0	44	0	2640314368	6	3841
2026-01-18 03:05:32.40	234.68	37.47	-22.7	-23.4	20.2	0.00e+00	0	44	0	2645557248	6	3875
2026-01-18 03:05:33.41	234.48	37.25	-22.8	-23.5	20.2	0.00e+00	0	44	0	2651848704	6	3894
2026-01-18 03:05:34.41	234.29	37.04	-22.8	-23.6	20.1	0.00e+00	0	44	0	2657091584	6	3920
2026-01-18 03:05:35.42	234.10	36.82	-22.9	-23.6	20.1	0.00e+00	0	44	0	2662334464	6	3926
2026-01-18 03:05:36.42	233.91	36.60	-22.8	-23.4	20.2	0.00e+00	0	44	0	2668625920	6	3885
2026-01-18 03:05:37.41	233.72	36.39	-22.8	-23.5	20.2	0.00e+00	0	44	0	2673868800	6	3893
2026-01-18 03:05:38.41	233.54	36.18	-22.9	-23.6	20.0	0.00e+00	0	44	0	2679111680	6	3939
2026-01-18 03:05:39.42	233.35	35.97	-22.9	-23.8	20.0	0.00e+00	0	44	0	2685403136	6	3981
2026-01-18 03:05:40.41	233.18	35.76	-22.9	-23.8	20.0	0.00e+00	0	44	0	2690646016	6	3984
2026-01-18 03:05:41.41	233.00	35.55	-22.9	-23.7	20.0	0.00e+00	0	44	0	2696937472	6	3951
2026-01-18 03:05:42.42	232.82	35.34	-22.9	-23.7	20.1	0.00e+00	0	44	0	2702180352	6	3942
2026-01-18 03:05:43.42	232.65	35.13	-22.9	-23.6	20.0	0.00e+00	0	44	0	2707423232	6	3930
2026-01-18 03:05:44.43	232.48	34.93	-22.7	-23.4	20.2	5.83e-05	0	44	0	2713714688	6	3867
2026-01-18 03:05:45.43	232.31	34.72	-22.8	-23.4	20.2	3.54e-05	0	44	0	2718957568	6	3882
2026-01-18 03:05:46.43	232.14	34.52	-22.8	-23.6	20.1	0.00e+00	0	44	0	2724200448	6	3918
2026-01-18 03:05:47.44	231.98	34.31	-22.9	-23.8	20.0	1.04e-04	0	44	0	2730491904	6	3963
2026-01-18 03:05:48.44	231.82	34.11	-23.0	-23.9	19.9	0.00e+00	0	44	0	2735734784	6	3997
2026-01-18 03:05:49.44	231.66	33.91	-23.1	-24.1	19.8	0.00e+00	0	44	0	2742026240	6	4035
2026-01-18 03:05:50.44	231.50	33.71	-23.0	-23.9	19.9	0.00e+00	0	44	0	2747269120	6	3989
2026-01-18 03:05:51.44	231.34	33.51	-23.0	-23.8	19.9	0.00e+00	0	44	0	2752512000	6	3985
2026-01-18 03:05:52.44	231.19	33.32	-23.1	-24.1	19.8	0.00e+00	0	44	0	2758803456	6	4051
2026-01-18 03:05:53.45	231.04	33.12	-23.0	-24.0	19.8	0.00e+00	0	44	0	2764046336	6	4026
2026-01-18 03:05:54.45	230.89	32.92	-22.8	-23.6	20.0	0.00e+00	0	44	0	2770337792	6	3924
2026-01-18 03:05:55.45	230.74	32.73	-22.8	-23.5	20.1	0.00e+00	0	44	0	2775580672	6	3893
2026-01-18 03:05:56.46	230.59	32.53	-22.8	-23.6	20.0	0.00e+00	0	44	0	2780823552	6	3926
2026-01-18 03:05:57.47	230.44	32.34	-22.9	-23.8	19.9	0.00e+00	0	44	0	2787115008	6	3967
2026-01-18 03:05:58.47	230.30	32.15	-23.0	-23.9	19.9	0.00e+00	0	44	0	2792357888	6	3997
2026-01-18 03:05:59.46	230.16	31.96	-23.1	-24.0	19.8	0.00e+00	0	44	0	2797600768	6	4036
2026-01-18 03:06:00.46	230.02	31.77	-23.1	-24.2	19.7	0.00e+00	0	44	0	2803892224	6	4079
2026-01-18 03:06:01.46	229.88	31.58	-23.2	-24.3	19.7	0.00e+00	0	44	0	2809135104	6	4087
2026-01-18 03:06:02.46	229.75	31.40	-23.2	-24.4	19.6	0.00e+00	0	44	0	2814377984	6	4110
2026-01-18 03:06:03.47	229.61	31.21	-23.3	-24.5	19.6	0.00e+00	0	44	0	2820669440	6	4133
2026-01-18 03:06:04.47	229.48	31.02	-23.3	-24.6	19.5	0.00e+00	0	44	0	2825912320	6	4170
2026-01-18 03:06:05.47	229.34	30.84	-23.3	-24.6	19.5	0.00e+00	0	44	0	2832203776	6	4173
2026-01-18 03:06:06.48	229.21	30.65	-23.4	-24.7	19.5	0.00e+00	0	44	0	2837446656	6	4187
2026-01-18 03:06:07.48	229.08	30.47	-23.4	-24.7	19.4	0.00e+00	0	44	0	2842689536	6	4200
2026-01-18 03:06:08.49	228.96	30.29	-23.5	-24.9	19.3	0.00e+00	0	44	0	2848980992	6	4243
2026-01-18 03:06:09.49	228.83	30.11	-23.4	-24.9	19.3	0.00e+00	0	44	0	2854223872	6	4242
2026-01-18 03:06:10.49	228.71	29.93	-23.5	-24.9	19.3	0.00e+00	0	44	0	2860515328	6	4246
2026-01-18 03:06:11.49	228.58	29.75	-23.6	-24.7	19.2	0.00e+00	0	44	0	2865758208	7	4091
2026-01-18 03:06:12.49	228.46	29.57	-23.9	-25.2	18.9	2.21e-04	0	44	0	2871001088	7	4214
2026-01-18 03:06:13.49	228.34	29.40	-23.8	-24.6	19.0	0.00e+00	0	44	0	2877292544	8	3954
2026-01-18 03:06:14.49	228.22	29.22	-23.5	-24.0	19.3	0.00e+00	0	44	0	2882535424	8	3795
2026-01-18 03:06:15.49	228.10	29.05	-23.3	-24.1	19.5	0.00e+00	0	44	0	2887778304	7	3931
2026-01-18 03:06:16.49	227.99	28.88	-23.3	-24.1	19.5	0.00e+00	0	44	0	2894069760	7	3922
2026-01-18 03:06:17.50	227.87	28.70	-23.4	-24.7	19.4	4.11e-04	0	44	0	2899312640	6	4204
2026-01-18 03:06:18.50	227.76	28.53	-23.4	-24.8	19.4	0.00e+00	0	44	0	2905604096	6	4218
2026-01-18 03:06:19.50	227.65	28.36	-23.5	-24.9	19.3	0.00e+00	0	44	0	2910846976	6	4245
2026-01-18 03:06:20.51	227.53	28.19	-23.5	-24.9	19.3	0.00e+00	0	44	0	2916089856	6	4254
2026-01-18 03:06:21.52	227.42	28.02	-23.6	-24.6	19.2	0.00e+00	0	44	0	2922381312	7	4064
2026-01-18 03:06:22.53	227.31	27.85	-23.8	-25.1	19.0	0.00e+00	0	44	0	2927624192	7	4178
2026-01-18 03:06:23.53	227.20	27.68	-23.8	-25.1	19.0	0.00e+00	0	44	0	2933915648	7	4173
2026-01-18 03:06:24.54	227.10	27.51	-23.8	-25.1	19.0	0.00e+00	0	44	0	2939158528	7	4175
2026-01-18 03:06:25.54	226.99	27.35	-23.8	-25.1	18.9	0.00e+00	0	44	0	2944401408	7	4184
2026-01-18 03:06:26.55	226.89	27.18	-23.7	-24.8	19.1	8.35e-05	0	44	0	2950692864	7	4107
2026-01-18 03:06:27.55	226.78	27.02	-23.7	-24.8	19.1	0.00e+00	0	44	0	2955935744	7	4120
2026-01-18 03:06:28.56	226.68	26.85	-23.7	-24.9	19.0	0.00e+00	0	44	0	2961178624	7	4122
2026-01-18 03:06:29.56	226.58	26.69	-23.8	-25.1	18.9	0.00e+00	0	44	0	2967470080	7	4180
2026-01-18 03:06:30.56	226.48	26.53	-24.0	-25.5	18.7	0.00e+00	0	44	0	2972712960	7	4282
2026-01-18 03:06:31.57	226.38	26.37	-24.4	-25.9	18.3	0.00e+00	0	44	0	2979004416	8	4268
2026-01-18 03:06:32.57	226.28	26.21	-24.3	-25.2	18.3	0.00e+00	0	44	0	2984247296	9	3992
2026-01-18 03:06:33.57	226.18	26.05	-24.0	-24.5	18.7	0.00e+00	0	44	0	2989490176	9	3821
2026-01-18 03:06:34.58	226.09	25.89	-23.8	-24.5	19.0	0.00e+00	0	44	0	2995781632	8	3935
2026-01-18 03:06:35.58	225.99	25.74	-23.7	-24.5	19.0	0.00e+00	0	44	0	3001024512	8	3918
2026-01-18 03:06:36.59	225.90	25.58	-23.8	-24.6	19.0	0.00e+00	0	44	0	3007315968	8	3938
2026-01-18 03:06:37.58	225.80	25.43	-23.7	-24.5	19.0	0.00e+00	0	44	0	3012558848	8	3919
2026-01-18 03:06:38.59	225.71	25.27	-23.8	-24.5	19.0	0.00e+00	0	44	0	3017801728	8	3932
2026-01-18 03:06:39.60	225.62	25.11	-23.8	-24.6	18.9	0.00e+00	0	44	0	3024093184	8	3940
2026-01-18 03:06:40.61	225.53	24.96	-23.8	-24.5	18.9	0.00e+00	0	44	0	3029336064	8	3935
2026-01-18 03:06:41.61	225.44	24.81	-23.7	-24.4	19.0	0.00e+00	0	44	0	3034578944	8	3910
2026-01-18 03:06:42.60	225.35	24.66	-23.8	-24.7	18.9	0.00e+00	0	44	0	3040870400	8	3973
2026-01-18 03:06:43.61	225.26	24.51	-23.8	-24.7	18.8	0.00e+00	0	44	0	3046113280	8	3968
2026-01-18 03:06:44.62	225.17	24.36	-23.9	-24.8	18.8	0.00e+00	0	44	0	3052404736	8	4008
2026-01-18 03:06:45.61	225.09	24.21	-23.8	-24.7	18.8	0.00e+00	0	44	0	3057647616	8	3970
2026-01-18 03:06:46.61	225.00	24.06	-23.6	-24.3	19.0	0.00e+00	0	44	0	3062890496	8	3876
2026-01-18 03:06:47.62	224.92	23.91	-23.5	-24.1	19.1	0.00e+00	0	44	0	3069181952	8	3825
2026-01-18 03:06:48.62	224.83	23.77	-23.6	-24.2	19.1	0.00e+00	0	44	0	3074424832	8	3844
2026-01-18 03:06:49.62	224.75	23.62	-23.6	-24.1	19.1	0.00e+00	0	44	0	3079667712	8	3832
2026-01-18 03:06:50.62	224.67	23.48	-23.6	-24.1	19.1	0.00e+00	0	44	0	3085959168	8	3826
2026-01-18 03:06:51.62	224.59	23.33	-23.6	-24.2	19.1	0.00e+00	0	44	0	3091202048	8	3860
2026-01-18 03:06:52.62	224.51	23.19	-23.6	-24.1	19.1	0.00e+00	0	44	0	3096444928	8	3831
2026-01-18 03:06:53.62	224.43	23.05	-23.6	-24.1	19.1	0.00e+00	0	44	0	3102736384	8	3843
2026-01-18 03:06:54.62	224.35	22.91	-23.6	-24.3	19.0	0.00e+00	0	44	0	3107979264	8	3875
2026-01-18 03:06:55.62	224.27	22.76	-23.7	-24.3	19.0	0.00e+00	0	44	0	3114270720	8	3880
2026-01-18 03:06:56.62	224.19	22.62	-23.8	-24.7	18.8	0.00e+00	0	44	0	3119513600	8	3977
2026-01-18 03:06:57.62	224.12	22.48	-23.8	-24.6	18.8	0.00e+00	0	44	0	3124756480	8	3958
2026-01-18 03:06:58.63	224.04	22.34	-23.8	-24.7	18.8	0.00e+00	0	44	0	3131047936	8	3971
2026-01-18 03:06:59.63	223.96	22.21	-23.8	-24.6	18.8	0.00e+00	0	44	0	3136290816	8	3947
2026-01-18 03:07:00.62	223.89	22.07	-23.8	-24.7	18.8	0.00e+00	0	44	0	3141533696	8	3972
2026-01-18 03:07:01.63	223.82	21.93	-23.9	-24.8	18.7	0.00e+00	0	44	0	3147825152	8	4004
2026-01-18 03:07:02.63	223.74	21.79	-24.0	-25.0	18.6	0.00e+00	0	44	0	3153068032	8	4040
2026-01-18 03:07:03.63	223.67	21.66	-23.9	-24.9	18.7	0.00e+00	0	44	0	3158310912	8	4022
2026-01-18 03:07:04.63	223.60	21.52	-23.9	-24.8	18.7	0.00e+00	0	44	0	3164602368	8	4009
2026-01-18 03:07:05.63	223.53	21.39	-24.0	-25.0	18.6	0.00e+00	0	44	0	3169845248	8	4058
2026-01-18 03:07:06.62	223.46	21.26	-24.0	-25.0	18.6	0.00e+00	0	44	0	3176136704	8	4042
2026-01-18 03:07:07.63	223.39	21.12	-24.0	-25.0	18.6	0.00e+00	0	44	0	3181379584	8	4045
2026-01-18 03:07:08.63	223.32	20.99	-24.1	-25.3	18.4	0.00e+00	0	44	0	3186622464	8	4120
2026-01-18 03:07:09.63	223.25	20.86	-24.1	-25.3	18.4	0.00e+00	0	44	0	3192913920	8	4126
2026-01-18 03:07:10.64	223.18	20.73	-24.2	-25.4	18.4	0.00e+00	0	44	0	3198156800	8	4152
2026-01-18 03:07:11.64	223.11	20.60	-24.2	-25.4	18.3	0.00e+00	0	44	0	3204448256	8	4155
2026-01-18 03:07:12.64	223.04	20.47	-24.2	-25.5	18.3	0.00e+00	0	44	0	3209691136	8	4168
2026-01-18 03:07:13.64	222.98	20.34	-24.2	-25.5	18.3	0.00e+00	0	44	0	3214934016	8	4163
2026-01-18 03:07:14.65	222.91	20.21	-24.3	-25.7	18.2	0.00e+00	0	44	0	3221225472	8	4217
2026-01-18 03:07:15.65	222.85	20.08	-24.3	-25.6	18.3	0.00e+00	0	44	0	3226468352	8	4199
2026-01-18 03:07:16.64	222.78	19.95	-24.3	-25.7	18.1	0.00e+00	0	44	0	3231711232	8	4237
2026-01-18 03:07:17.65	222.72	19.83	-24.3	-25.6	18.2	0.00e+00	0	44	0	3238002688	8	4194
2026-01-18 03:07:18.65	222.65	19.70	-24.2	-25.5	18.3	0.00e+00	0	44	0	3243245568	8	4180
2026-01-18 03:07:19.66	222.59	19.57	-24.4	-25.8	18.1	2.20e-06	0	44	0	3249537024	8	4258
2026-01-18 03:07:20.66	222.53	19.45	-24.3	-25.7	18.2	0.00e+00	0	44	0	3254779904	8	4222
2026-01-18 03:07:21.66	222.47	19.32	-24.4	-25.8	18.1	0.00e+00	0	44	0	3260022784	8	4259
2026-01-18 03:07:22.66	222.40	19.20	-24.3	-25.7	18.2	6.80e-06	0	44	0	3266314240	8	4227
2026-01-18 03:07:23.67	222.34	19.08	-24.4	-26.0	18.0	0.00e+00	0	44	0	3271557120	8	4288
2026-01-18 03:07:24.67	222.28	18.95	-24.4	-25.4	18.0	0.00e+00	0	44	0	3276800000	9	4038
2026-01-18 03:07:25.67	222.22	18.83	-24.5	-25.6	18.0	4.50e-06	0	44	0	3283091456	9	4079
2026-01-18 03:07:26.68	222.16	18.71	-24.5	-25.6	18.0	0.00e+00	0	44	0	3288334336	9	4078
2026-01-18 03:07:27.68	222.10	18.59	-24.6	-25.8	17.8	0.00e+00	0	44	0	3293577216	9	4132
2026-01-18 03:07:28.68	222.05	18.47	-24.8	-26.2	17.6	2.20e-06	0	44	0	3299868672	9	4247
2026-01-18 03:07:29.69	221.99	18.35	-24.8	-26.3	17.6	0.00e+00	0	44	0	3305111552	9	4260
2026-01-18 03:07:30.69	221.93	18.23	-24.8	-26.2	17.6	0.00e+00	0	44	0	3311403008	9	4241
2026-01-18 03:07:31.70	221.87	18.11	-24.9	-26.5	17.4	2.20e-06	0	44	0	3316645888	9	4334
2026-01-18 03:07:32.70	221.82	17.99	-25.0	-26.7	17.4	0.00e+00	0	44	0	3322937344	9	4362
2026-01-18 03:07:33.70	221.76	17.87	-25.3	-26.8	17.0	0.00e+00	0	44	0	3328180224	10	4299
2026-01-18 03:07:34.70	221.70	17.76	-25.4	-27.0	16.9	1.10e-06	0	44	0	3333423104	10	4335
2026-01-18 03:07:35.70	221.65	17.64	-25.2	-26.7	17.1	0.00e+00	0	44	0	3339714560	10	4262
2026-01-18 03:07:36.70	221.59	17.52	-25.2	-26.6	17.1	0.00e+00	0	44	0	3344957440	10	4244
2026-01-18 03:07:37.71	221.54	17.41	-25.2	-26.7	16.5	0.00e+00	0	44	0	3350200320	10	4255
2026-01-18 03:07:38.72	221.48	17.29	-25.3	-26.9	15.8	0.00e+00	0	44	0	3356491776	10	4313
2026-01-18 03:07:39.72	221.43	17.18	-25.3	-26.8	17.0	0.00e+00	0	44	0	3361734656	10	4280
2026-01-18 03:07:40.72	221.38	17.06	-25.2	-26.5	17.0	0.00e+00	0	44	0	3366977536	10	4218
2026-01-18 03:07:41.72	221.33	16.95	-25.3	-26.8	17.0	0.00e+00	0	44	0	3373268992	10	4278
2026-01-18 03:07:42.73	221.27	16.84	-25.3	-26.7	17.0	0.00e+00	0	44	0	3378511872	10	4273
2026-01-18 03:07:43.73	221.22	16.72	-25.3	-26.8	17.0	1.10e-06	0	44	0	3384803328	10	4285
2026-01-18 03:07:44.73	221.17	16.61	-25.3	-26.8	17.0	0.00e+00	0	44	0	3390046208	10	4282
2026-01-18 03:07:45.73	221.12	16.50	-25.3	-26.8	16.9	0.00e+00	0	44	0	3395289088	10	4299
2026-01-18 03:07:46.74	221.07	16.39	-25.3	-26.8	17.0	0.00e+00	0	44	0	3401580544	10	4295
2026-01-18 03:07:47.74	221.02	16.28	-25.2	-26.7	17.0	0.00e+00	0	44	0	3406823424	10	4262
2026-01-18 03:07:48.74	220.97	16.17	-25.4	-27.1	16.8	0.00e+00	0	44	0	3413114880	10	4367
2026-01-18 03:07:49.74	220.92	16.06	-25.3	-26.9	16.9	0.00e+00	0	44	0	3418357760	10	4320
2026-01-18 03:07:50.75	220.87	15.95	-25.3	-26.8	17.0	2.00e-04	0	44	0	3423600640	10	4276
2026-01-18 03:07:51.76	220.82	15.84	-25.5	-27.2	16.7	0.00e+00	0	44	0	3429892096	10	4384
2026-01-18 03:07:52.76	220.77	15.73	-25.4	-26.5	16.8	0.00e+00	0	44	0	3435134976	11	4107
2026-01-18 03:07:53.77	220.72	15.62	-25.3	-26.4	16.9	1.89e-04	0	44	0	3440377856	11	4062
2026-01-18 03:07:54.78	220.67	15.51	-25.6	-26.9	16.6	0.00e+00	0	44	0	3446669312	11	4206
2026-01-18 03:07:55.77	220.63	15.41	-25.3	-26.3	16.9	2.01e-04	0	44	0	3451912192	11	4042
2026-01-18 03:07:56.77	220.58	15.30	-25.5	-26.7	16.7	0.00e+00	0	44	0	3458203648	11	4147
2026-01-18 03:07:57.78	220.53	15.19	-25.4	-26.6	16.7	0.00e+00	0	44	0	3463446528	11	4116
2026-01-18 03:07:58.78	220.49	15.09	-25.6	-26.9	16.6	0.00e+00	0	44	0	3468689408	11	4199
2026-01-18 03:07:59.78	220.44	14.98	-25.4	-26.6	16.8	0.00e+00	0	44	0	3474980864	11	4117
2026-01-18 03:08:00.79	220.40	14.88	-25.4	-26.5	16.8	0.00e+00	0	44	0	3480223744	11	4107
2026-01-18 03:08:01.79	220.35	14.77	-25.4	-26.6	16.7	2.10e-04	0	44	0	3486515200	11	4111
2026-01-18 03:08:02.80	220.31	14.67	-25.5	-26.7	16.6	2.05e-04	0	44	0	3491758080	11	4153
2026-01-18 03:08:03.80	220.26	14.57	-25.4	-26.6	16.7	0.00e+00	0	44	0	3497000960	11	4119
2026-01-18 03:08:04.80	220.22	14.46	-25.7	-27.2	16.4	2.00e-04	0	44	0	3503292416	11	4274
2026-01-18 03:08:05.81	220.17	14.36	-25.5	-26.8	16.6	0.00e+00	0	44	0	3508535296	11	4165
2026-01-18 03:08:06.81	220.13	14.26	-25.7	-27.1	16.4	0.00e+00	0	44	0	3513778176	11	4262
2026-01-18 03:08:07.80	220.09	14.16	-25.7	-27.1	16.4	2.23e-04	0	44	0	3520069632	11	4264
2026-01-18 03:08:08.81	220.04	14.06	-25.6	-26.9	16.5	2.60e-04	0	44	0	3525312512	11	4205
2026-01-18 03:08:09.81	220.00	13.95	-25.9	-27.7	16.1	0.00e+00	0	44	0	3531603968	11	4419
2026-01-18 03:08:10.82	219.96	13.85	-25.8	-27.3	16.2	0.00e+00	0	44	0	3536846848	11	4314
2026-01-18 03:08:11.82	219.92	13.75	-25.8	-27.5	16.2	3.32e-04	0	44	0	3542089728	11	4360
2026-01-18 03:08:12.82	219.88	13.65	-25.7	-27.3	16.3	0.00e+00	0	44	0	3548381184	11	4306
2026-01-18 03:08:13.83	219.83	13.55	-25.9	-27.6	16.1	3.12e-04	0	44	0	3553624064	11	4396
2026-01-18 03:08:14.83	219.79	13.45	-26.0	-27.8	15.9	3.48e-04	0	44	0	3558866944	11	4461
2026-01-18 03:08:15.83	219.75	13.36	-25.8	-27.5	16.1	0.00e+00	0	44	0	3565158400	11	4372
2026-01-18 03:08:16.83	219.71	13.26	-26.0	-27.3	15.9	3.48e-04	0	44	0	3570401280	12	4196
2026-01-18 03:08:17.84	219.67	13.16	-26.3	-28.0	15.5	3.28e-04	0	44	0	3576692736	12	4391
2026-01-18 03:08:18.84	219.63	13.06	-26.1	-27.5	15.7	0.00e+00	0	44	0	3581935616	12	4260
2026-01-18 03:08:19.85	219.59	12.96	-26.1	-27.7	15.6	2.88e-04	0	44	0	3587178496	12	4318
2026-01-18 03:08:20.85	219.55	12.87	-26.1	-27.6	15.7	2.57e-04	0	44	0	3593469952	12	4285
2026-01-18 03:08:21.85	219.51	12.77	-26.1	-27.6	15.7	0.00e+00	0	44	0	3598712832	12	4294
2026-01-18 03:08:22.85	219.47	12.68	-26.2	-27.8	15.6	2.78e-04	0	44	0	3605004288	12	4342
2026-01-18 03:08:23.86	219.44	12.58	-26.1	-27.7	15.6	2.66e-04	0	44	0	3610247168	12	4299
2026-01-18 03:08:24.86	219.40	12.48	-26.1	-27.6	15.6	0.00e+00	0	44	0	3615490048	12	4298
2026-01-18 03:08:25.86	219.36	12.39	-26.2	-27.8	15.5	2.10e-04	0	44	0	3621781504	12	4334
2026-01-18 03:08:26.86	219.32	12.30	-26.1	-27.7	15.6	0.00e+00	0	44	0	3627024384	12	4312
2026-01-18 03:08:27.87	219.28	12.20	-26.3	-28.0	15.4	0.00e+00	0	44	0	3632267264	12	4398
2026-01-18 03:08:28.87	219.25	12.11	-26.2	-27.8	15.5	1.83e-04	0	44	0	3638558720	12	4348
2026-01-18 03:08:29.88	219.21	12.01	-26.3	-28.2	15.3	1.83e-04	0	44	0	3643801600	12	4447
2026-01-18 03:08:30.88	219.17	11.92	-26.2	-27.8	15.5	0.00e+00	0	44	0	3649044480	12	4340
2026-01-18 03:08:31.88	219.14	11.83	-26.5	-28.1	15.0	1.96e-04	0	44	0	3655335936	13	4315
2026-01-18 03:08:32.88	219.10	11.73	-26.2	-27.5	15.4	1.75e-04	0	44	0	3660578816	13	4149
2026-01-18 03:08:33.88	219.06	11.64	-26.3	-27.6	15.3	0.00e+00	0	44	0	3666870272	13	4190
2026-01-18 03:08:34.89	219.03	11.55	-26.3	-27.6	15.3	1.49e-04	0	44	0	3672113152	13	4176
2026-01-18 03:08:35.89	218.99	11.46	-26.6	-28.3	14.9	0.00e+00	0	44	0	3678404608	13	4377
2026-01-18 03:08:36.89	218.96	11.37	-26.4	-27.9	15.1	0.00e+00	0	44	0	3683647488	13	4262
2026-01-18 03:08:37.90	218.92	11.28	-26.3	-27.6	15.3	1.46e-04	0	44	0	3688890368	13	4185
2026-01-18 03:08:38.90	218.89	11.19	-26.6	-28.2	15.0	0.00e+00	0	44	0	3695181824	13	4344
2026-01-18 03:08:39.90	218.85	11.10	-26.5	-28.0	15.1	0.00e+00	0	44	0	3700424704	13	4291
2026-01-18 03:08:40.90	218.82	11.01	-26.4	-27.8	15.1	0.00e+00	0	44	0	3705667584	13	4242
2026-01-18 03:08:41.91	218.78	10.92	-26.7	-28.6	14.7	1.35e-04	0	44	0	3711959040	13	4459
2026-01-18 03:08:42.91	218.75	10.83	-26.5	-28.0	15.1	0.00e+00	0	44	0	3717201920	13	4281
2026-01-18 03:08:43.91	218.72	10.74	-26.5	-28.1	14.9	1.12e-04	0	44	0	3722444800	13	4328
2026-01-18 03:08:44.90	218.68	10.65	-26.6	-28.3	14.9	1.02e-04	0	44	0	3728736256	13	4362
2026-01-18 03:08:45.90	218.65	10.56	-26.7	-28.6	14.7	0.00e+00	0	44	0	3733979136	13	4462
2026-01-18 03:08:46.90	218.62	10.48	-26.6	-28.3	14.8	8.35e-05	0	44	0	3740270592	13	4374
2026-01-18 03:08:47.90	218.58	10.39	-26.5	-28.2	14.9	0.00e+00	0	44	0	3745513472	13	4338
2026-01-18 03:08:48.91	218.55	10.30	-26.8	-28.7	14.6	1.10e-06	0	44	0	3750756352	13	4495
2026-01-18 03:08:49.91	218.52	10.21	-26.6	-28.3	14.8	0.00e+00	0	44	0	3757047808	13	4369
2026-01-18 03:08:50.91	218.49	10.13	-26.7	-28.5	14.7	1.19e-04	0	44	0	3762290688	13	4442
2026-01-18 03:08:51.91	218.46	10.04	-27.0	-28.7	14.3	0.00e+00	0	44	0	3767533568	14	4372
2026-01-18 03:08:52.92	218.42	9.95	-26.6	-27.8	14.8	2.20e-06	0	44	0	3773825024	14	4123
2026-01-18 03:08:53.92	218.39	9.87	-26.9	-28.4	14.5	1.35e-04	0	44	0	3779067904	14	4294
2026-01-18 03:08:54.93	218.36	9.78	-26.8	-28.3	14.5	0.00e+00	0	44	0	3784310784	14	4269
2026-01-18 03:08:55.93	218.33	9.70	-26.8	-28.2	14.6	1.38e-04	0	44	0	3790602240	14	4233
2026-01-18 03:08:56.93	218.30	9.61	-26.7	-28.0	14.7	0.00e+00	0	44	0	3795845120	14	4185
2026-01-18 03:08:57.94	218.27	9.53	-26.7	-28.1	14.6	0.00e+00	0	44	0	3802136576	14	4212
2026-01-18 03:08:58.94	218.24	9.44	-27.0	-28.6	14.3	1.10e-06	0	44	0	3807379456	14	4360
2026-01-18 03:08:59.94	218.21	9.36	-27.1	-29.0	14.1	0.00e+00	0	44	0	3813670912	14	4454
2026-01-18 03:09:00.94	218.18	9.27	-27.0	-28.8	14.2	0.00e+00	0	44	0	3818913792	14	4405
2026-01-18 03:09:01.94	218.15	9.19	-27.0	-28.7	14.2	1.10e-06	0	44	0	3824156672	14	4398
2026-01-18 03:09:02.94	218.12	9.11	-26.9	-28.5	14.3	1.43e-04	0	44	0	3830448128	14	4316
2026-01-18 03:09:03.95	218.09	9.02	-26.8	-28.3	14.4	1.10e-06	0	44	0	3835691008	14	4270
2026-01-18 03:09:04.95	218.06	8.94	-27.1	-29.0	14.0	0.00e+00	0	44	0	3840933888	14	4455
2026-01-18 03:09:05.96	218.03	8.86	-26.8	-28.3	14.4	1.10e-06	0	44	0	3847225344	14	4273
2026-01-18 03:09:06.96	218.00	8.77	-27.2	-29.3	13.8	0.00e+00	0	44	0	3852468224	14	4551
2026-01-18 03:09:07.97	217.97	8.69	-27.2	-29.3	13.8	2.20e-06	0	44	0	3858759680	14	4558
2026-01-18 03:09:08.98	217.94	8.61	-27.2	-29.1	13.9	2.20e-06	0	44	0	3864002560	14	4510
