passes_logs/2026/01/18/R2M6_AANII_01/R2M6_AANII_01__20260118_083254_SUOMI_NPP_rec.log

#Pass ID: 20260118_083254_SUOMI NPP
#Satellite: SUOMI NPP
#Configuration: NPP
#almurnet v.1.7.20240730
#Start time: 2026-01-18 08:32:54

#Version: 2.2.20231116
#Station: R2M6_AANII_01
#Location: 30.233357 lon 59.946436 lat
#TLE: 1 37849U 11061A   26017.28905266  .00000074  00000+0  55894-4 0  9999
#TLE: 2 37849  98.7814 319.3179 0002408  59.7048 300.4366 14.19525847737038

#Time	Az	El	Level	Level2	SNR	BER	BlckErr	Temp	State	Recorded	gain1	gain2
2026-01-18 08:32:54.20	103.06	6.97	-32.7	-40.5	4.0	1.46e+00	0	40	0	0	26	8777
2026-01-18 08:32:55.21	102.97	7.04	-32.4	-38.3	4.4	1.39e+00	0	40	104	0	26	7063
2026-01-18 08:32:56.21	102.88	7.10	-32.5	-38.3	5.6	4.77e-01	0	40	0	0	26	7085
2026-01-18 08:32:57.21	102.79	7.17	-32.5	-38.2	5.7	4.30e-01	0	40	0	1048576	26	6954
2026-01-18 08:32:58.22	102.70	7.23	-32.4	-37.9	6.0	3.37e-01	0	40	0	3145728	26	6763
2026-01-18 08:32:59.22	102.61	7.30	-32.4	-37.7	6.0	3.47e-01	0	40	0	5242880	26	6655
2026-01-18 08:33:00.23	102.52	7.36	-32.2	-37.4	6.6	2.90e-01	0	40	0	7340032	25	6521
2026-01-18 08:33:01.23	102.43	7.43	-32.2	-37.3	6.7	2.03e-01	0	40	0	9437184	25	6463
2026-01-18 08:33:02.24	102.34	7.50	-32.0	-36.3	7.4	1.50e-01	0	40	0	10485760	25	5899
2026-01-18 08:33:03.24	102.25	7.56	-31.9	-35.5	8.0	7.62e-02	0	40	0	12582912	25	5480
2026-01-18 08:33:04.24	102.16	7.63	-31.7	-35.4	8.5	4.97e-02	0	40	0	14680064	24	5490
2026-01-18 08:33:05.24	102.06	7.69	-31.7	-35.5	8.5	3.43e-02	0	40	0	16777216	24	5538
2026-01-18 08:33:06.24	101.97	7.76	-31.9	-36.0	8.1	5.59e-02	0	40	0	17825792	24	5793
2026-01-18 08:33:07.24	101.88	7.83	-31.8	-35.7	8.3	5.27e-02	0	40	0	19922944	24	5638
2026-01-18 08:33:08.24	101.78	7.89	-31.8	-35.9	8.1	6.99e-02	0	40	0	22020096	24	5772
2026-01-18 08:33:09.25	101.69	7.96	-31.8	-35.7	8.2	6.65e-02	0	40	0	24117248	24	5685
2026-01-18 08:33:10.25	101.59	8.03	-31.6	-35.1	8.7	4.72e-02	0	40	0	26214400	24	5388
2026-01-18 08:33:11.26	101.50	8.09	-31.7	-35.3	8.6	3.16e-02	0	40	0	28311552	24	5457
2026-01-18 08:33:12.25	101.40	8.16	-31.6	-35.1	8.7	2.97e-02	0	40	0	29360128	24	5364
2026-01-18 08:33:13.26	101.31	8.23	-31.4	-34.4	9.2	2.64e-02	0	40	0	31457280	24	5079
2026-01-18 08:33:14.26	101.21	8.29	-31.6	-35.0	8.7	3.00e-02	0	40	0	33554432	24	5358
2026-01-18 08:33:15.26	101.11	8.36	-31.5	-34.9	8.8	2.43e-02	0	40	0	35651584	24	5296
2026-01-18 08:33:16.26	101.02	8.43	-31.7	-35.5	8.2	4.85e-02	0	41	0	36700160	24	5573
2026-01-18 08:33:17.27	100.92	8.50	-31.4	-34.4	9.2	3.32e-02	0	41	0	38797312	24	5069
2026-01-18 08:33:18.27	100.82	8.56	-31.2	-33.9	9.9	1.32e-02	0	41	0	40894464	23	4933
2026-01-18 08:33:19.28	100.72	8.63	-31.1	-33.7	10.2	5.86e-03	0	40	0	42991616	23	4832
2026-01-18 08:33:20.27	100.62	8.70	-31.0	-33.2	10.5	5.74e-03	0	41	0	45088768	23	4665
2026-01-18 08:33:21.28	100.52	8.77	-30.9	-33.1	10.6	3.87e-03	0	41	0	46137344	23	4606
2026-01-18 08:33:22.28	100.42	8.83	-31.0	-33.5	10.4	3.16e-03	0	41	0	48234496	23	4757
2026-01-18 08:33:23.29	100.32	8.90	-31.1	-33.7	10.2	5.59e-03	0	41	0	50331648	23	4837
2026-01-18 08:33:24.29	100.22	8.97	-31.2	-33.9	10.1	6.23e-03	0	40	0	52428800	23	4927
2026-01-18 08:33:25.29	100.12	9.04	-31.3	-34.3	9.8	1.08e-02	0	41	0	54525952	23	5066
2026-01-18 08:33:26.29	100.01	9.11	-31.3	-34.1	10.0	1.08e-02	0	41	0	55574528	23	4975
2026-01-18 08:33:27.30	99.91	9.18	-31.3	-34.1	10.0	6.21e-03	0	41	0	57671680	23	4984
2026-01-18 08:33:28.30	99.81	9.24	-31.4	-34.4	9.7	1.37e-02	0	41	0	59768832	23	5133
2026-01-18 08:33:29.31	99.70	9.31	-31.3	-34.3	9.9	9.60e-03	0	41	0	61865984	23	5061
2026-01-18 08:33:30.31	99.60	9.38	-31.4	-34.4	9.8	8.41e-03	0	41	0	63963136	23	5111
2026-01-18 08:33:31.31	99.49	9.45	-31.3	-34.2	9.9	8.02e-03	0	41	0	65011712	23	5032
2026-01-18 08:33:32.32	99.39	9.52	-31.2	-34.0	10.2	7.98e-03	0	41	0	67108864	23	4926
2026-01-18 08:33:33.32	99.28	9.59	-31.3	-34.2	9.9	1.00e-02	0	41	0	69206016	23	5034
2026-01-18 08:33:34.33	99.18	9.66	-31.3	-34.1	10.1	8.19e-03	0	41	0	71303168	23	4962
2026-01-18 08:33:35.32	99.07	9.73	-31.3	-34.0	10.1	7.15e-03	0	41	0	73400320	23	4955
2026-01-18 08:33:36.33	98.96	9.80	-31.5	-34.9	9.5	1.52e-02	0	41	0	74448896	23	5326
2026-01-18 08:33:37.33	98.85	9.86	-31.4	-34.6	9.6	1.24e-02	0	41	0	76546048	23	5196
2026-01-18 08:33:38.33	98.75	9.93	-31.7	-35.5	9.0	1.96e-02	0	41	0	78643200	23	5613
2026-01-18 08:33:39.34	98.64	10.00	-31.7	-35.4	9.0	2.00e-02	0	41	0	80740352	23	5575
2026-01-18 08:33:40.33	98.53	10.07	-31.6	-35.3	9.2	1.82e-02	0	41	0	81788928	23	5500
2026-01-18 08:33:41.34	98.42	10.14	-31.7	-35.6	8.8	3.66e-02	0	41	0	83886080	23	5668
2026-01-18 08:33:42.34	98.31	10.21	-31.5	-35.0	9.4	1.73e-02	0	41	0	85983232	23	5349
2026-01-18 08:33:43.35	98.19	10.28	-31.5	-34.6	9.7	1.15e-02	0	41	0	88080384	23	5188
2026-01-18 08:33:44.35	98.08	10.35	-31.3	-34.0	10.3	5.43e-03	0	41	0	90177536	23	4915
2026-01-18 08:33:45.36	97.97	10.42	-31.1	-33.5	10.7	3.49e-03	0	41	0	91226112	23	4699
2026-01-18 08:33:46.36	97.86	10.49	-31.3	-34.1	10.3	2.74e-03	0	41	0	93323264	23	4931
2026-01-18 08:33:47.36	97.74	10.56	-31.3	-33.9	10.4	3.67e-03	0	41	0	95420416	23	4864
2026-01-18 08:33:48.36	97.63	10.63	-31.2	-33.6	10.7	3.62e-03	0	41	0	97517568	23	4753
2026-01-18 08:33:49.37	97.52	10.70	-31.4	-34.4	10.1	6.11e-03	0	41	0	99614720	23	5059
2026-01-18 08:33:50.37	97.40	10.78	-31.4	-34.4	10.1	9.11e-03	0	41	0	100663296	23	5052
2026-01-18 08:33:51.38	97.28	10.85	-31.3	-33.9	10.5	4.23e-03	0	41	0	102760448	23	4838
2026-01-18 08:33:52.38	97.17	10.92	-31.3	-33.8	10.6	3.42e-03	0	41	0	104857600	23	4826
2026-01-18 08:33:53.39	97.05	10.99	-31.2	-33.5	10.9	2.74e-03	0	41	0	106954752	23	4680
2026-01-18 08:33:54.39	96.93	11.06	-31.3	-34.0	10.6	2.68e-03	0	41	0	109051904	23	4871
2026-01-18 08:33:55.39	96.82	11.13	-31.1	-33.2	11.0	2.37e-03	0	41	0	110100480	23	4587
2026-01-18 08:33:56.40	96.70	11.20	-31.2	-33.5	10.9	2.37e-03	0	41	0	112197632	23	4693
2026-01-18 08:33:57.40	96.58	11.27	-31.2	-33.5	10.8	3.33e-03	0	41	0	114294784	23	4699
2026-01-18 08:33:58.41	96.46	11.34	-31.3	-33.7	10.7	2.50e-03	0	41	0	116391936	23	4775
2026-01-18 08:33:59.41	96.34	11.42	-31.2	-33.5	10.9	3.08e-03	0	41	0	118489088	23	4671
2026-01-18 08:34:00.42	96.22	11.49	-31.1	-33.2	11.1	1.91e-03	0	41	0	119537664	23	4556
2026-01-18 08:34:01.42	96.10	11.56	-31.0	-32.7	11.4	8.01e-04	0	42	0	121634816	23	4411
2026-01-18 08:34:02.43	95.97	11.63	-31.1	-33.1	11.2	1.01e-03	0	41	0	123731968	23	4546
2026-01-18 08:34:03.42	95.85	11.70	-31.0	-32.8	11.4	9.28e-04	0	41	0	125829120	23	4429
2026-01-18 08:34:04.43	95.73	11.77	-31.0	-32.8	11.4	7.45e-04	0	41	0	127926272	23	4430
2026-01-18 08:34:05.43	95.60	11.85	-31.2	-33.3	11.2	1.25e-03	0	41	0	128974848	23	4589
2026-01-18 08:34:06.43	95.48	11.92	-31.2	-33.3	11.2	1.92e-03	0	41	0	131072000	23	4582
2026-01-18 08:34:07.44	95.35	11.99	-31.0	-32.6	11.7	9.06e-04	0	41	0	133169152	23	4354
2026-01-18 08:34:08.44	95.23	12.06	-30.8	-32.3	11.8	5.32e-04	0	42	0	135266304	23	4254
2026-01-18 08:34:09.45	95.10	12.13	-30.7	-32.5	12.0	3.68e-04	0	41	0	136314880	22	4398
2026-01-18 08:34:10.45	94.97	12.21	-30.8	-32.7	11.9	2.97e-04	0	41	0	138412032	22	4487
2026-01-18 08:34:11.45	94.85	12.28	-30.8	-32.7	11.9	2.98e-04	0	42	0	140509184	22	4479
2026-01-18 08:34:12.45	94.72	12.35	-30.9	-32.9	11.9	4.71e-04	0	42	0	142606336	22	4517
2026-01-18 08:34:13.46	94.59	12.42	-30.9	-33.0	11.7	5.50e-04	0	42	0	144703488	22	4575
2026-01-18 08:34:14.47	94.46	12.50	-31.0	-33.0	11.8	5.10e-04	0	41	0	146800640	22	4573
2026-01-18 08:34:15.47	94.33	12.57	-30.9	-32.8	11.9	3.55e-04	0	42	0	147849216	22	4499
2026-01-18 08:34:16.47	94.20	12.64	-30.8	-32.6	12.1	4.81e-04	0	42	0	149946368	22	4439
2026-01-18 08:34:17.47	94.07	12.71	-30.8	-32.5	12.2	1.83e-04	0	42	0	152043520	22	4395
2026-01-18 08:34:18.48	93.93	12.79	-30.8	-32.7	12.0	3.34e-04	0	41	0	154140672	22	4444
2026-01-18 08:34:19.48	93.80	12.86	-30.8	-32.5	12.2	2.36e-04	0	42	0	155189248	22	4387
2026-01-18 08:34:20.48	93.67	12.93	-30.9	-32.9	11.9	2.69e-04	0	42	0	157286400	22	4531
2026-01-18 08:34:21.48	93.53	13.01	-30.9	-32.9	11.9	5.32e-04	0	42	0	159383552	22	4505
2026-01-18 08:34:22.49	93.40	13.08	-30.9	-32.9	11.9	4.01e-04	0	42	0	161480704	22	4525
2026-01-18 08:34:23.49	93.26	13.15	-31.0	-33.0	11.9	3.16e-04	0	42	0	163577856	22	4563
2026-01-18 08:34:24.50	93.13	13.23	-30.9	-32.7	12.1	5.99e-04	0	42	0	164626432	22	4452
2026-01-18 08:34:25.50	92.99	13.30	-30.8	-32.4	12.3	1.69e-04	0	42	0	166723584	22	4364
2026-01-18 08:34:26.51	92.85	13.37	-30.6	-31.9	12.6	9.30e-05	0	42	0	168820736	22	4186
2026-01-18 08:34:27.51	92.71	13.45	-30.8	-32.5	12.3	9.07e-05	0	42	0	170917888	22	4372
2026-01-18 08:34:28.51	92.57	13.52	-30.9	-32.7	12.1	2.02e-04	0	42	0	173015040	22	4460
2026-01-18 08:34:29.52	92.43	13.59	-30.9	-33.0	12.0	3.24e-04	0	42	0	174063616	22	4536
2026-01-18 08:34:30.52	92.29	13.67	-31.0	-33.1	11.9	3.58e-04	0	42	0	176160768	22	4588
2026-01-18 08:34:31.52	92.15	13.74	-30.9	-32.7	12.1	3.98e-04	0	42	0	178257920	22	4438
2026-01-18 08:34:32.52	92.01	13.81	-31.1	-33.2	11.9	3.51e-04	0	42	0	180355072	22	4609
2026-01-18 08:34:33.53	91.87	13.89	-31.1	-33.4	11.8	4.18e-04	0	42	0	182452224	22	4663
2026-01-18 08:34:34.53	91.72	13.96	-30.9	-32.6	12.3	3.65e-04	0	42	0	183500800	22	4412
2026-01-18 08:34:35.53	91.58	14.03	-30.8	-32.6	12.3	1.46e-04	0	42	0	185597952	22	4401
2026-01-18 08:34:36.53	91.44	14.11	-31.0	-33.1	11.9	2.46e-04	0	42	0	187695104	22	4581
2026-01-18 08:34:37.53	91.29	14.18	-31.3	-33.8	11.5	4.76e-04	0	42	0	189792256	22	4815
2026-01-18 08:34:38.53	91.15	14.25	-31.4	-34.3	11.1	1.31e-03	0	42	0	191889408	22	5025
2026-01-18 08:34:39.53	91.00	14.33	-31.3	-33.8	11.3	1.21e-03	0	42	0	192937984	22	4821
2026-01-18 08:34:40.54	90.85	14.40	-31.1	-33.7	11.4	1.11e-03	0	42	0	195035136	22	4843
2026-01-18 08:34:41.54	90.70	14.48	-31.1	-33.5	11.5	8.38e-04	0	42	0	197132288	22	4776
2026-01-18 08:34:42.55	90.55	14.55	-31.0	-33.3	11.7	7.72e-04	0	42	0	199229440	22	4704
2026-01-18 08:34:43.55	90.40	14.62	-31.1	-33.6	11.6	8.22e-04	0	42	0	200278016	22	4787
2026-01-18 08:34:44.56	90.25	14.70	-31.1	-33.7	11.4	7.99e-04	0	42	0	202375168	22	4848
2026-01-18 08:34:45.55	90.10	14.77	-31.2	-33.9	11.3	1.05e-03	0	42	0	204472320	22	4929
2026-01-18 08:34:46.56	89.95	14.85	-31.3	-34.2	11.1	1.61e-03	0	42	0	206569472	22	5026
2026-01-18 08:34:47.55	89.80	14.92	-31.4	-34.7	10.9	1.75e-03	0	42	0	208666624	22	5214
2026-01-18 08:34:48.56	89.64	14.99	-31.2	-34.0	11.3	1.53e-03	0	42	0	209715200	22	4938
2026-01-18 08:34:49.56	89.49	15.07	-31.4	-34.6	10.9	1.97e-03	0	42	0	211812352	22	5175
2026-01-18 08:34:50.57	89.33	15.14	-31.5	-34.1	10.8	3.59e-03	0	42	0	213909504	23	4900
2026-01-18 08:34:51.57	89.18	15.22	-31.3	-33.5	11.3	1.70e-03	0	42	0	216006656	23	4638
2026-01-18 08:34:52.57	89.02	15.29	-31.2	-33.4	11.4	8.53e-04	0	42	0	218103808	23	4629
2026-01-18 08:34:53.56	88.86	15.36	-31.3	-33.6	11.2	1.06e-03	0	42	0	219152384	23	4696
2026-01-18 08:34:54.57	88.70	15.44	-31.4	-33.8	11.1	1.84e-03	0	42	0	221249536	23	4764
2026-01-18 08:34:55.57	88.54	15.51	-31.5	-34.4	10.7	2.01e-03	0	42	0	223346688	23	5019
2026-01-18 08:34:56.57	88.38	15.59	-31.5	-34.5	10.6	2.32e-03	0	42	0	225443840	23	5039
2026-01-18 08:34:57.57	88.22	15.66	-31.6	-34.7	10.5	3.84e-03	0	42	0	227540992	23	5127
2026-01-18 08:34:58.57	88.06	15.73	-31.6	-34.8	10.3	3.29e-03	0	42	0	228589568	23	5184
2026-01-18 08:34:59.58	87.90	15.81	-31.6	-34.8	10.4	3.94e-03	0	42	0	230686720	23	5166
2026-01-18 08:35:00.58	87.74	15.88	-31.4	-34.1	10.9	3.57e-03	0	42	0	232783872	23	4886
2026-01-18 08:35:01.58	87.57	15.96	-31.3	-33.6	11.2	1.88e-03	0	42	0	234881024	23	4699
2026-01-18 08:35:02.58	87.41	16.03	-31.2	-33.2	11.5	9.12e-04	0	42	0	236978176	23	4556
2026-01-18 08:35:03.59	87.24	16.11	-31.1	-33.1	11.6	6.70e-04	0	42	0	238026752	23	4503
2026-01-18 08:35:04.60	87.07	16.18	-31.1	-33.2	11.6	7.21e-04	0	42	0	240123904	23	4542
2026-01-18 08:35:05.60	86.91	16.25	-31.2	-33.3	11.5	8.11e-04	0	42	0	242221056	23	4578
2026-01-18 08:35:06.60	86.74	16.33	-31.1	-33.1	11.7	6.62e-04	0	42	0	244318208	23	4505
2026-01-18 08:35:07.60	86.57	16.40	-31.0	-32.6	12.0	3.62e-04	0	42	0	245366784	23	4333
2026-01-18 08:35:08.60	86.40	16.48	-31.0	-32.7	11.9	3.12e-04	0	42	0	247463936	23	4391
2026-01-18 08:35:09.60	86.23	16.55	-31.0	-32.5	12.0	3.83e-04	0	42	0	249561088	23	4321
2026-01-18 08:35:10.60	86.06	16.62	-31.0	-32.7	11.9	3.09e-04	0	42	0	251658240	23	4381
2026-01-18 08:35:11.61	85.88	16.70	-31.0	-32.7	11.9	5.54e-04	0	42	0	253755392	23	4365
2026-01-18 08:35:12.61	85.71	16.77	-31.2	-33.2	11.6	5.75e-04	0	42	0	254803968	23	4545
2026-01-18 08:35:13.61	85.54	16.84	-31.0	-32.7	11.9	4.19e-04	0	42	0	256901120	23	4387
2026-01-18 08:35:14.62	85.36	16.92	-31.1	-32.9	11.9	2.72e-04	0	42	0	258998272	23	4428
2026-01-18 08:35:15.62	85.19	16.99	-31.1	-32.9	11.8	2.73e-04	0	42	0	261095424	23	4444
2026-01-18 08:35:16.63	85.01	17.07	-31.2	-33.2	11.7	5.70e-04	0	42	0	263192576	23	4527
2026-01-18 08:35:17.63	84.83	17.14	-31.3	-33.4	11.5	6.28e-04	0	42	0	264241152	23	4612
2026-01-18 08:35:18.63	84.65	17.21	-31.3	-33.5	11.4	8.41e-04	0	42	0	266338304	23	4646
2026-01-18 08:35:19.64	84.47	17.29	-31.2	-33.2	11.7	9.39e-04	0	42	0	268435456	23	4527
2026-01-18 08:35:20.64	84.29	17.36	-31.3	-33.6	11.4	1.29e-03	0	42	0	270532608	23	4692
2026-01-18 08:35:21.64	84.11	17.43	-31.5	-34.1	11.0	1.15e-03	0	42	0	272629760	23	4860
2026-01-18 08:35:22.65	83.93	17.51	-31.7	-34.7	10.6	2.59e-03	0	42	0	273678336	23	5093
2026-01-18 08:35:23.64	83.75	17.58	-31.8	-35.2	10.2	5.12e-03	0	42	0	275775488	23	5318
2026-01-18 08:35:24.64	83.56	17.65	-31.7	-34.7	10.6	5.29e-03	0	42	0	277872640	23	5103
2026-01-18 08:35:25.65	83.38	17.73	-31.5	-34.1	11.0	2.61e-03	0	42	0	279969792	23	4859
2026-01-18 08:35:26.65	83.19	17.80	-31.2	-33.3	11.6	8.83e-04	0	42	0	282066944	23	4559
2026-01-18 08:35:27.64	83.01	17.87	-31.2	-33.1	11.7	4.65e-04	0	42	0	283115520	23	4495
2026-01-18 08:35:28.64	82.82	17.94	-31.0	-32.7	12.0	4.87e-04	0	42	0	285212672	23	4360
2026-01-18 08:35:29.64	82.63	18.01	-30.9	-32.4	12.2	2.78e-04	0	42	0	287309824	23	4270
2026-01-18 08:35:30.65	82.44	18.09	-31.1	-32.8	12.0	3.00e-04	0	42	0	289406976	23	4394
2026-01-18 08:35:31.66	82.25	18.16	-31.0	-32.5	12.3	2.72e-04	0	42	0	291504128	23	4285
2026-01-18 08:35:32.66	82.06	18.23	-30.9	-32.7	12.4	1.06e-04	0	42	0	292552704	22	4440
2026-01-18 08:35:33.67	81.87	18.30	-30.8	-32.6	12.5	1.44e-04	0	42	0	294649856	22	4421
2026-01-18 08:35:34.67	81.67	18.38	-30.6	-32.0	12.9	8.39e-05	0	42	0	296747008	22	4220
2026-01-18 08:35:35.68	81.48	18.45	-30.9	-32.8	12.3	9.15e-05	0	42	0	298844160	22	4476
2026-01-18 08:35:36.68	81.28	18.52	-30.6	-32.0	12.8	6.40e-05	0	42	0	299892736	22	4230
2026-01-18 08:35:37.68	81.09	18.59	-30.7	-32.3	12.7	7.78e-05	0	42	0	301989888	22	4341
2026-01-18 08:35:38.68	80.89	18.66	-30.7	-32.2	12.8	1.04e-04	0	42	0	304087040	22	4278
2026-01-18 08:35:39.68	80.70	18.73	-30.8	-32.6	12.4	9.07e-05	0	42	0	306184192	22	4434
2026-01-18 08:35:40.68	80.50	18.80	-30.6	-32.1	12.8	8.23e-05	0	42	0	308281344	22	4268
2026-01-18 08:35:41.68	80.30	18.88	-30.4	-31.5	13.2	4.04e-05	0	42	0	309329920	22	4071
2026-01-18 08:35:42.68	80.10	18.95	-30.3	-31.6	13.4	1.60e-05	0	42	0	311427072	21	4196
2026-01-18 08:35:43.69	79.90	19.02	-30.2	-31.4	13.6	6.10e-06	0	42	0	313524224	21	4126
2026-01-18 08:35:44.68	79.70	19.09	-30.3	-31.7	13.4	9.90e-06	0	42	0	315621376	21	4236
2026-01-18 08:35:45.68	79.49	19.16	-30.3	-31.6	13.5	1.52e-05	0	42	0	317718528	21	4181
2026-01-18 08:35:46.68	79.29	19.23	-30.0	-30.9	13.9	6.80e-06	0	42	0	318767104	21	3985
2026-01-18 08:35:47.68	79.08	19.30	-30.0	-30.9	13.9	2.20e-06	0	42	0	320864256	21	3974
2026-01-18 08:35:48.68	78.88	19.37	-30.2	-31.2	13.7	4.50e-06	0	42	0	322961408	21	4078
2026-01-18 08:35:49.69	78.67	19.44	-30.2	-31.4	13.5	4.50e-06	0	42	0	325058560	21	4122
2026-01-18 08:35:50.69	78.46	19.51	-30.3	-31.7	13.4	1.22e-05	0	42	0	327155712	21	4219
2026-01-18 08:35:51.69	78.25	19.57	-30.4	-32.0	13.2	1.22e-05	0	42	0	328204288	21	4304
2026-01-18 08:35:52.69	78.05	19.64	-30.2	-31.3	13.7	1.60e-05	0	42	0	330301440	21	4081
2026-01-18 08:35:53.70	77.83	19.71	-30.0	-30.7	14.1	3.00e-06	0	42	0	332398592	21	3932
2026-01-18 08:35:54.70	77.62	19.78	-29.9	-30.6	14.1	4.50e-06	0	42	0	334495744	21	3896
2026-01-18 08:35:55.70	77.41	19.85	-30.0	-30.7	14.1	7.00e-07	0	42	0	336592896	21	3921
2026-01-18 08:35:56.71	77.19	19.92	-30.0	-30.7	14.1	3.00e-06	0	42	0	337641472	21	3920
2026-01-18 08:35:57.70	76.98	19.98	-29.9	-30.7	14.1	3.80e-06	0	42	0	339738624	21	3911
2026-01-18 08:35:58.70	76.77	20.05	-29.9	-30.6	14.1	1.50e-06	0	42	0	341835776	21	3892
2026-01-18 08:35:59.70	76.55	20.12	-29.8	-30.8	14.4	7.00e-07	0	42	0	343932928	20	4026
2026-01-18 08:36:00.70	76.33	20.19	-29.9	-31.0	14.2	1.50e-06	0	42	0	346030080	20	4093
2026-01-18 08:36:01.69	76.12	20.25	-29.9	-31.1	14.1	2.20e-06	0	42	0	347078656	20	4132
2026-01-18 08:36:02.70	75.90	20.32	-30.0	-31.4	14.0	3.00e-06	0	42	0	349175808	20	4215
2026-01-18 08:36:03.70	75.68	20.38	-30.1	-31.5	13.9	3.00e-06	0	42	0	351272960	20	4235
2026-01-18 08:36:04.70	75.46	20.45	-30.0	-31.4	14.0	7.00e-07	0	42	0	353370112	20	4201
2026-01-18 08:36:05.70	75.23	20.52	-30.3	-32.2	13.5	6.80e-06	0	42	0	354418688	20	4464
2026-01-18 08:36:06.70	75.01	20.58	-30.4	-32.4	13.4	1.60e-05	0	42	0	356515840	20	4513
2026-01-18 08:36:07.71	74.79	20.65	-30.4	-32.2	13.5	1.14e-05	0	42	0	358612992	20	4465
2026-01-18 08:36:08.71	74.56	20.71	-30.3	-32.1	13.6	8.30e-06	0	42	0	360710144	20	4406
2026-01-18 08:36:09.71	74.34	20.78	-30.2	-31.8	13.8	1.06e-05	0	42	0	362807296	20	4328
2026-01-18 08:36:10.72	74.11	20.84	-30.2	-31.7	13.8	6.10e-06	0	42	0	363855872	20	4291
2026-01-18 08:36:11.72	73.88	20.90	-30.1	-31.6	13.9	4.50e-06	0	42	0	365953024	20	4259
2026-01-18 08:36:12.72	73.65	20.97	-30.2	-31.8	13.7	6.10e-06	0	42	0	368050176	20	4330
2026-01-18 08:36:13.72	73.42	21.03	-30.1	-31.4	14.0	6.80e-06	0	42	0	370147328	20	4214
2026-01-18 08:36:14.72	73.19	21.09	-30.2	-31.9	13.7	7.00e-07	0	42	0	372244480	20	4331
2026-01-18 08:36:15.71	72.96	21.15	-30.1	-31.5	13.9	9.10e-06	0	42	0	373293056	20	4222
2026-01-18 08:36:16.71	72.73	21.22	-29.8	-30.7	14.4	1.50e-06	0	42	0	375390208	20	3998
2026-01-18 08:36:17.72	72.50	21.28	-29.7	-30.5	14.6	7.00e-07	0	42	0	377487360	20	3924
2026-01-18 08:36:18.71	72.26	21.34	-29.5	-29.9	15.0	1.50e-06	0	42	0	379584512	20	3765
2026-01-18 08:36:19.72	72.03	21.40	-29.6	-30.1	14.9	7.00e-07	0	42	0	380633088	20	3826
2026-01-18 08:36:20.72	71.79	21.46	-29.5	-29.9	15.0	0.00e+00	0	42	0	382730240	20	3773
2026-01-18 08:36:21.72	71.55	21.52	-29.3	-29.4	15.3	0.00e+00	0	42	0	384827392	20	3648
2026-01-18 08:36:22.73	71.31	21.58	-29.4	-30.0	15.3	0.00e+00	0	42	0	386924544	19	3883
2026-01-18 08:36:23.73	71.08	21.64	-29.3	-29.8	15.4	0.00e+00	0	42	0	389021696	19	3840
2026-01-18 08:36:24.74	70.83	21.70	-29.3	-30.0	15.3	0.00e+00	0	42	0	390070272	19	3866
2026-01-18 08:36:25.74	70.59	21.76	-29.4	-30.2	15.2	0.00e+00	0	42	0	392167424	19	3935
2026-01-18 08:36:26.74	70.35	21.82	-29.5	-30.3	15.1	0.00e+00	0	42	0	394264576	19	3968
2026-01-18 08:36:27.75	70.11	21.88	-29.3	-29.9	15.4	0.00e+00	0	42	0	396361728	19	3858
2026-01-18 08:36:28.75	69.86	21.93	-29.4	-30.1	15.2	0.00e+00	0	42	0	398458880	19	3912
2026-01-18 08:36:29.76	69.62	21.99	-29.5	-30.3	15.1	0.00e+00	0	42	0	399507456	19	3964
2026-01-18 08:36:30.75	69.37	22.05	-29.4	-30.1	15.2	0.00e+00	0	42	0	401604608	19	3909
2026-01-18 08:36:31.76	69.13	22.10	-29.6	-30.7	15.0	7.00e-07	0	42	0	403701760	19	4060
2026-01-18 08:36:32.76	68.88	22.16	-29.8	-31.0	14.7	0.00e+00	0	42	0	405798912	19	4156
2026-01-18 08:36:33.77	68.63	22.22	-29.9	-31.4	14.6	0.00e+00	0	42	0	407896064	19	4259
2026-01-18 08:36:34.77	68.38	22.27	-29.8	-31.0	14.8	0.00e+00	0	42	0	408944640	19	4150
2026-01-18 08:36:35.77	68.13	22.33	-29.8	-31.2	14.6	0.00e+00	0	42	0	411041792	19	4221
2026-01-18 08:36:36.77	67.88	22.38	-29.9	-31.5	14.5	0.00e+00	0	42	0	413138944	19	4292
2026-01-18 08:36:37.77	67.63	22.43	-29.9	-31.3	14.5	0.00e+00	0	42	0	415236096	19	4237
2026-01-18 08:36:38.76	67.38	22.49	-30.0	-31.0	14.3	7.00e-07	0	42	0	417333248	20	4074
2026-01-18 08:36:39.77	67.12	22.54	-30.1	-31.3	14.2	7.00e-07	0	42	0	418381824	20	4146
2026-01-18 08:36:40.77	66.87	22.59	-29.7	-30.5	14.7	7.00e-07	0	42	0	420478976	20	3923
2026-01-18 08:36:41.77	66.62	22.64	-29.9	-31.0	14.4	7.00e-07	0	42	0	422576128	20	4053
2026-01-18 08:36:42.78	66.36	22.69	-30.0	-31.1	14.3	7.00e-07	0	42	0	424673280	20	4086
2026-01-18 08:36:43.79	66.10	22.74	-29.9	-31.0	14.4	0.00e+00	0	42	0	425721856	20	4060
2026-01-18 08:36:44.79	65.84	22.79	-29.8	-30.5	14.7	1.50e-06	0	42	0	427819008	20	3930
2026-01-18 08:36:45.79	65.58	22.84	-29.5	-29.9	15.0	7.00e-07	0	42	0	429916160	20	3768
2026-01-18 08:36:46.79	65.33	22.89	-29.4	-29.6	15.3	0.00e+00	0	42	0	432013312	20	3690
2026-01-18 08:36:47.80	65.06	22.94	-29.4	-30.1	15.4	0.00e+00	0	42	0	434110464	19	3886
2026-01-18 08:36:48.80	64.80	22.99	-29.3	-29.9	15.5	0.00e+00	0	42	0	436207616	19	3836
2026-01-18 08:36:49.80	64.54	23.04	-29.2	-29.5	15.7	0.00e+00	0	42	0	437256192	19	3738
2026-01-18 08:36:50.80	64.28	23.08	-29.1	-29.4	15.8	0.00e+00	0	42	0	439353344	19	3703
2026-01-18 08:36:51.80	64.02	23.13	-29.2	-29.5	15.7	0.00e+00	0	42	0	441450496	19	3736
2026-01-18 08:36:52.80	63.75	23.17	-29.2	-29.4	15.8	0.00e+00	0	42	0	443547648	19	3721
2026-01-18 08:36:53.80	63.49	23.22	-29.1	-29.2	15.9	0.00e+00	0	42	0	444596224	19	3667
2026-01-18 08:36:54.80	63.22	23.26	-29.1	-29.2	15.8	0.00e+00	0	42	0	446693376	19	3673
2026-01-18 08:36:55.80	62.96	23.31	-29.1	-29.4	15.8	0.00e+00	0	42	0	448790528	19	3714
2026-01-18 08:36:56.81	62.69	23.35	-29.3	-29.9	15.5	0.00e+00	0	42	0	450887680	19	3842
2026-01-18 08:36:57.80	62.42	23.39	-29.5	-30.4	15.2	0.00e+00	0	42	0	452984832	19	3963
2026-01-18 08:36:58.81	62.15	23.43	-29.8	-31.0	14.8	0.00e+00	0	42	0	454033408	19	4143
2026-01-18 08:36:59.82	61.88	23.48	-29.8	-31.0	14.8	0.00e+00	0	42	0	456130560	19	4134
2026-01-18 08:37:00.82	61.61	23.52	-29.9	-31.3	14.7	0.00e+00	0	42	0	458227712	19	4244
2026-01-18 08:37:01.82	61.34	23.56	-30.1	-31.3	14.2	7.00e-07	0	42	0	460324864	20	4150
2026-01-18 08:37:02.83	61.07	23.60	-30.5	-32.5	13.5	6.10e-06	0	42	0	462422016	20	4513
2026-01-18 08:37:03.83	60.80	23.64	-30.8	-32.7	13.1	2.05e-05	0	42	0	463470592	21	4482
2026-01-18 08:37:04.83	60.53	23.67	-30.8	-32.9	12.9	4.57e-05	0	42	0	465567744	21	4574
2026-01-18 08:37:05.83	60.25	23.71	-30.8	-32.8	13.0	3.96e-05	0	42	0	467664896	21	4522
2026-01-18 08:37:06.83	59.98	23.75	-30.8	-32.7	13.0	2.59e-05	0	42	0	469762048	21	4506
2026-01-18 08:37:07.84	59.70	23.78	-30.8	-32.7	13.0	4.11e-05	0	42	0	471859200	21	4481
2026-01-18 08:37:08.84	59.43	23.82	-30.5	-32.1	13.3	2.28e-05	0	42	0	472907776	21	4289
2026-01-18 08:37:09.84	59.15	23.86	-30.6	-32.2	13.3	1.44e-05	0	42	0	475004928	21	4346
2026-01-18 08:37:10.85	58.87	23.89	-30.4	-31.8	13.6	8.30e-06	0	42	0	477102080	21	4208
2026-01-18 08:37:11.85	58.60	23.92	-30.3	-31.3	13.9	3.00e-06	0	42	0	479199232	21	4068
2026-01-18 08:37:12.85	58.32	23.96	-30.3	-31.5	13.8	3.80e-06	0	42	0	481296384	21	4131
2026-01-18 08:37:13.86	58.04	23.99	-30.2	-31.1	14.1	3.00e-06	0	42	0	482344960	21	3994
2026-01-18 08:37:14.86	57.76	24.02	-30.2	-31.1	14.1	7.00e-07	0	42	0	484442112	21	3998
2026-01-18 08:37:15.87	57.48	24.05	-30.2	-31.2	14.0	7.00e-07	0	42	0	486539264	21	4042
2026-01-18 08:37:16.87	57.20	24.08	-30.4	-31.7	13.8	3.00e-06	0	42	0	488636416	21	4169
2026-01-18 08:37:17.87	56.92	24.11	-30.5	-31.9	13.5	6.10e-06	0	42	0	489684992	21	4254
2026-01-18 08:37:18.87	56.64	24.14	-30.3	-31.5	13.8	3.00e-06	0	42	0	491782144	21	4113
2026-01-18 08:37:19.87	56.36	24.17	-30.1	-31.0	14.1	3.00e-06	0	42	0	493879296	21	3985
2026-01-18 08:37:20.87	56.08	24.19	-30.2	-31.2	13.9	7.00e-07	0	42	0	495976448	21	4045
2026-01-18 08:37:21.88	55.79	24.22	-30.4	-31.9	13.5	6.10e-06	0	42	0	498073600	21	4251
2026-01-18 08:37:22.88	55.51	24.25	-30.7	-32.5	13.1	2.05e-05	0	42	0	499122176	21	4439
2026-01-18 08:37:23.88	55.23	24.27	-30.7	-32.5	13.1	2.97e-05	0	42	0	501219328	21	4455
2026-01-18 08:37:24.88	54.94	24.30	-30.7	-32.6	13.1	1.14e-05	0	42	0	503316480	21	4463
2026-01-18 08:37:25.88	54.66	24.32	-30.6	-32.3	13.2	1.52e-05	0	42	0	505413632	21	4380
2026-01-18 08:37:26.88	54.38	24.34	-31.0	-32.9	12.6	6.71e-05	0	42	0	507510784	22	4488
2026-01-18 08:37:27.88	54.09	24.36	-31.0	-33.0	12.5	1.34e-04	0	42	0	508559360	22	4508
2026-01-18 08:37:28.88	53.81	24.39	-31.1	-33.2	12.3	1.26e-04	0	42	0	510656512	22	4590
2026-01-18 08:37:29.89	53.52	24.41	-31.1	-33.1	12.4	1.72e-04	0	42	0	512753664	22	4561
2026-01-18 08:37:30.89	53.23	24.43	-31.1	-33.2	12.3	1.84e-04	0	42	0	514850816	22	4592
2026-01-18 08:37:31.90	52.94	24.45	-31.0	-33.0	12.5	1.33e-04	0	42	0	516947968	22	4507
2026-01-18 08:37:32.91	52.65	24.46	-31.0	-32.9	12.6	1.09e-04	0	42	0	517996544	22	4473
2026-01-18 08:37:33.91	52.37	24.48	-31.2	-33.2	12.4	1.56e-04	0	42	0	520093696	22	4582
2026-01-18 08:37:34.92	52.08	24.50	-31.3	-33.6	12.1	1.76e-04	0	42	0	522190848	22	4720
2026-01-18 08:37:35.92	51.79	24.51	-31.3	-33.6	12.1	2.96e-04	0	42	0	524288000	22	4694
2026-01-18 08:37:36.92	51.50	24.53	-31.6	-34.2	11.4	8.58e-04	0	42	0	526385152	23	4837
2026-01-18 08:37:37.92	51.22	24.54	-31.7	-34.4	11.2	1.15e-03	0	42	0	527433728	23	4917
2026-01-18 08:37:38.92	50.93	24.56	-31.6	-34.2	11.3	9.70e-04	0	42	0	529530880	23	4845
2026-01-18 08:37:39.93	50.64	24.57	-31.9	-34.9	10.9	2.15e-03	0	42	0	531628032	23	5115
2026-01-18 08:37:40.92	50.35	24.58	-31.5	-33.9	11.6	1.36e-03	0	42	0	533725184	23	4707
2026-01-18 08:37:41.93	50.06	24.59	-31.7	-34.4	11.2	9.86e-04	0	42	0	534773760	23	4918
2026-01-18 08:37:42.93	49.77	24.60	-31.5	-33.7	11.7	7.53e-04	0	42	0	536870912	23	4649
2026-01-18 08:37:43.93	49.48	24.61	-31.1	-32.6	12.4	3.13e-04	0	42	0	538968064	23	4296
2026-01-18 08:37:44.93	49.19	24.62	-30.7	-32.1	13.1	4.65e-05	0	42	0	541065216	22	4201
2026-01-18 08:37:45.93	48.90	24.63	-30.4	-31.3	13.6	1.44e-05	0	42	0	543162368	22	3961
2026-01-18 08:37:46.93	48.61	24.64	-30.5	-31.3	13.6	6.10e-06	0	42	0	544210944	22	3990
2026-01-18 08:37:47.93	48.32	24.64	-30.6	-31.7	13.3	7.60e-06	0	42	0	546308096	22	4109
2026-01-18 08:37:48.93	48.03	24.65	-30.7	-31.9	13.3	1.90e-05	0	42	0	548405248	22	4150
2026-01-18 08:37:49.94	47.74	24.65	-31.2	-33.4	12.2	1.32e-04	0	42	0	550502400	22	4643
2026-01-18 08:37:50.94	47.45	24.66	-31.1	-33.3	12.4	1.77e-04	0	42	0	552599552	22	4597
2026-01-18 08:37:51.95	47.16	24.66	-31.0	-33.0	12.5	1.37e-04	0	42	0	553648128	22	4511
2026-01-18 08:37:52.95	46.87	24.66	-30.9	-32.8	12.6	9.61e-05	0	42	0	555745280	22	4437
2026-01-18 08:37:53.95	46.58	24.67	-30.9	-32.7	12.7	1.07e-04	0	42	0	557842432	22	4420
2026-01-18 08:37:54.96	46.28	24.67	-30.8	-32.3	12.9	7.78e-05	0	42	0	559939584	22	4290
2026-01-18 08:37:55.96	45.99	24.67	-30.8	-32.5	12.8	6.10e-05	0	42	0	562036736	22	4343
2026-01-18 08:37:56.96	45.70	24.67	-30.9	-32.5	12.8	5.79e-05	0	42	0	563085312	22	4361
2026-01-18 08:37:57.96	45.41	24.67	-30.9	-32.5	12.8	4.27e-05	0	42	0	565182464	22	4342
2026-01-18 08:37:58.96	45.12	24.66	-30.9	-32.6	12.8	5.87e-05	0	42	0	567279616	22	4370
2026-01-18 08:37:59.97	44.83	24.66	-30.6	-31.8	13.2	2.05e-05	0	42	0	569376768	22	4116
2026-01-18 08:38:00.97	44.54	24.66	-30.3	-31.3	13.9	7.60e-06	0	42	0	571473920	21	4079
2026-01-18 08:38:01.98	44.25	24.65	-30.1	-30.8	14.2	3.00e-06	0	42	0	572522496	21	3926
2026-01-18 08:38:02.99	43.96	24.65	-30.0	-30.7	14.3	1.50e-06	0	42	0	574619648	21	3888
2026-01-18 08:38:03.99	43.67	24.64	-30.0	-30.5	14.4	7.00e-07	0	42	0	576716800	21	3850
2026-01-18 08:38:04.98	43.38	24.63	-30.1	-30.9	14.2	0.00e+00	0	42	0	578813952	21	3946
2026-01-18 08:38:05.98	43.09	24.62	-29.9	-30.2	14.6	7.00e-07	0	43	0	579862528	21	3766
2026-01-18 08:38:06.98	42.80	24.62	-30.0	-30.5	14.4	7.00e-07	0	42	0	581959680	21	3837
2026-01-18 08:38:07.98	42.51	24.61	-30.1	-30.9	14.2	2.20e-06	0	42	0	584056832	21	3945
2026-01-18 08:38:08.99	42.22	24.60	-30.4	-31.7	13.7	3.80e-06	0	42	0	586153984	21	4173
2026-01-18 08:38:09.99	41.93	24.58	-30.1	-30.9	14.1	2.20e-06	0	42	0	588251136	21	3933
2026-01-18 08:38:11.00	41.64	24.57	-29.6	-30.1	15.0	7.00e-07	0	42	0	589299712	20	3801
2026-01-18 08:38:12.00	41.35	24.56	-29.3	-29.7	15.5	0.00e+00	0	42	0	591396864	19	3791
2026-01-18 08:38:13.01	41.06	24.55	-29.3	-29.8	15.5	0.00e+00	0	42	0	593494016	19	3802
2026-01-18 08:38:14.01	40.77	24.53	-29.2	-29.5	15.7	0.00e+00	0	42	0	595591168	19	3733
2026-01-18 08:38:15.02	40.48	24.52	-29.2	-29.6	15.7	0.00e+00	0	42	0	597688320	19	3747
2026-01-18 08:38:16.02	40.20	24.50	-29.2	-29.5	15.7	0.00e+00	0	42	0	598736896	19	3723
2026-01-18 08:38:17.02	39.91	24.48	-29.0	-29.1	16.0	0.00e+00	0	43	0	600834048	19	3629
2026-01-18 08:38:18.01	39.63	24.47	-28.9	-28.7	16.2	0.00e+00	0	42	0	602931200	19	3540
2026-01-18 08:38:19.02	39.34	24.45	-29.0	-29.4	16.1	0.00e+00	0	42	0	605028352	18	3802
2026-01-18 08:38:20.02	39.05	24.43	-28.8	-29.1	16.2	0.00e+00	0	42	0	607125504	18	3729
2026-01-18 08:38:21.03	38.76	24.41	-28.9	-29.3	16.2	0.00e+00	0	42	0	608174080	18	3771
2026-01-18 08:38:22.03	38.48	24.39	-29.1	-29.9	15.8	0.00e+00	0	42	0	610271232	18	3930
2026-01-18 08:38:23.04	38.19	24.37	-29.3	-30.2	15.6	0.00e+00	0	42	0	612368384	18	3993
2026-01-18 08:38:24.04	37.91	24.35	-29.0	-29.4	16.0	0.00e+00	0	42	0	614465536	18	3804
2026-01-18 08:38:25.04	37.62	24.32	-29.1	-29.7	15.8	0.00e+00	0	42	0	616562688	18	3872
2026-01-18 08:38:26.05	37.33	24.30	-29.4	-30.6	15.4	0.00e+00	0	42	0	617611264	18	4116
2026-01-18 08:38:27.05	37.05	24.28	-29.6	-30.4	15.2	0.00e+00	0	42	0	619708416	19	3964
2026-01-18 08:38:28.06	36.77	24.25	-29.6	-30.6	15.1	0.00e+00	0	42	0	621805568	19	4015
2026-01-18 08:38:29.06	36.48	24.23	-29.4	-30.1	15.4	0.00e+00	0	42	0	623902720	19	3873
2026-01-18 08:38:30.06	36.20	24.20	-29.4	-30.1	15.4	0.00e+00	0	42	0	625999872	19	3882
2026-01-18 08:38:31.07	35.92	24.17	-29.6	-30.4	15.2	0.00e+00	0	42	0	627048448	19	3968
2026-01-18 08:38:32.08	35.64	24.14	-29.5	-30.1	15.3	0.00e+00	0	42	0	629145600	19	3896
2026-01-18 08:38:33.08	35.36	24.12	-29.6	-30.5	15.1	0.00e+00	0	42	0	631242752	19	3978
2026-01-18 08:38:34.08	35.08	24.09	-29.5	-30.2	15.3	0.00e+00	0	42	0	633339904	19	3915
2026-01-18 08:38:35.08	34.80	24.06	-29.8	-30.9	14.9	7.00e-07	0	42	0	635437056	19	4104
2026-01-18 08:38:36.09	34.52	24.03	-29.8	-31.0	14.9	0.00e+00	0	42	0	636485632	19	4120
2026-01-18 08:38:37.08	34.24	23.99	-30.2	-31.7	14.0	7.00e-07	0	42	0	638582784	20	4243
2026-01-18 08:38:38.08	33.96	23.96	-30.2	-31.6	14.0	2.20e-06	0	42	0	640679936	20	4227
2026-01-18 08:38:39.08	33.69	23.93	-30.3	-31.8	13.8	3.00e-06	0	42	0	642777088	20	4289
2026-01-18 08:38:40.09	33.41	23.90	-30.3	-31.8	13.9	6.10e-06	0	42	0	643825664	20	4290
2026-01-18 08:38:41.09	33.13	23.86	-30.3	-31.8	14.0	2.20e-06	0	42	0	645922816	20	4285
2026-01-18 08:38:42.09	32.86	23.83	-30.5	-32.3	13.6	3.80e-06	0	42	0	648019968	20	4436
2026-01-18 08:38:43.09	32.58	23.79	-30.4	-31.7	13.7	3.00e-06	0	42	0	650117120	21	4167
2026-01-18 08:38:44.10	32.31	23.76	-30.6	-32.3	13.3	1.90e-05	0	42	0	652214272	21	4343
2026-01-18 08:38:45.10	32.03	23.72	-30.8	-32.6	13.0	3.58e-05	0	42	0	653262848	21	4448
2026-01-18 08:38:46.09	31.76	23.68	-30.7	-32.4	13.3	3.73e-05	0	42	0	655360000	21	4373
2026-01-18 08:38:47.10	31.49	23.64	-30.8	-32.7	13.0	2.44e-05	0	42	0	657457152	21	4495
2026-01-18 08:38:48.10	31.22	23.61	-31.0	-32.9	12.5	1.14e-04	0	42	0	659554304	22	4465
2026-01-18 08:38:49.11	30.94	23.57	-30.9	-32.5	12.8	8.54e-05	0	42	0	661651456	22	4331
2026-01-18 08:38:50.11	30.67	23.53	-30.6	-31.8	13.2	4.42e-05	0	42	0	662700032	22	4124
2026-01-18 08:38:51.12	30.40	23.48	-30.7	-32.1	13.0	2.59e-05	0	42	0	664797184	22	4197
2026-01-18 08:38:52.12	30.13	23.44	-30.8	-32.4	12.9	3.43e-05	0	42	0	666894336	22	4290
2026-01-18 08:38:53.12	29.87	23.40	-31.0	-32.8	12.5	5.64e-05	0	42	0	668991488	22	4452
2026-01-18 08:38:54.13	29.60	23.36	-31.0	-32.9	12.5	1.43e-04	0	42	0	671088640	22	4487
2026-01-18 08:38:55.13	29.33	23.32	-30.9	-32.6	12.6	9.68e-05	0	42	0	672137216	22	4393
2026-01-18 08:38:56.13	29.07	23.27	-31.0	-32.7	12.6	1.06e-04	0	43	0	674234368	22	4426
2026-01-18 08:38:57.13	28.80	23.23	-31.0	-33.0	12.4	1.05e-04	0	42	0	676331520	22	4498
2026-01-18 08:38:58.14	28.54	23.18	-30.7	-32.0	13.0	4.50e-05	0	42	0	678428672	22	4182
2026-01-18 08:38:59.14	28.27	23.14	-30.5	-31.4	13.4	1.29e-05	0	42	0	680525824	22	4022
2026-01-18 08:39:00.14	28.01	23.09	-30.4	-31.3	13.5	6.80e-06	0	42	0	681574400	22	3979
2026-01-18 08:39:01.14	27.75	23.05	-30.6	-31.8	13.2	2.36e-05	0	42	0	683671552	22	4116
2026-01-18 08:39:02.14	27.49	23.00	-30.7	-32.0	13.0	2.82e-05	0	42	0	685768704	22	4180
2026-01-18 08:39:03.14	27.23	22.95	-30.9	-32.5	12.7	5.56e-05	0	42	0	687865856	22	4359
2026-01-18 08:39:04.14	26.97	22.90	-31.1	-33.1	12.4	6.17e-05	0	42	0	689963008	22	4541
2026-01-18 08:39:05.15	26.71	22.85	-31.0	-32.9	12.4	1.25e-04	0	42	0	691011584	22	4489
2026-01-18 08:39:06.15	26.45	22.81	-31.0	-33.0	12.4	9.84e-05	0	42	0	693108736	22	4515
2026-01-18 08:39:07.15	26.19	22.76	-30.9	-32.6	12.6	1.50e-04	0	42	0	695205888	22	4379
2026-01-18 08:39:08.15	25.94	22.71	-30.7	-32.0	13.0	3.73e-05	0	42	0	697303040	22	4204
2026-01-18 08:39:09.15	25.68	22.65	-30.8	-32.2	12.9	4.19e-05	0	42	0	698351616	22	4267
2026-01-18 08:39:10.16	25.43	22.60	-30.9	-32.6	12.6	4.95e-05	0	42	0	700448768	22	4393
2026-01-18 08:39:11.16	25.17	22.55	-30.7	-32.0	13.0	3.35e-05	0	42	0	702545920	22	4187
2026-01-18 08:39:12.17	24.92	22.50	-30.6	-31.9	13.1	3.43e-05	0	42	0	704643072	22	4155
2026-01-18 08:39:13.17	24.67	22.45	-30.6	-31.7	13.2	2.89e-05	0	42	0	706740224	22	4102
2026-01-18 08:39:14.17	24.42	22.39	-30.8	-32.3	12.8	3.50e-05	0	42	0	707788800	22	4280
2026-01-18 08:39:15.17	24.17	22.34	-31.0	-32.9	12.4	1.50e-04	0	42	0	709885952	22	4498
2026-01-18 08:39:16.18	23.92	22.28	-31.2	-33.5	11.9	3.20e-04	0	42	0	711983104	22	4708
2026-01-18 08:39:17.17	23.67	22.23	-31.1	-33.3	12.0	3.65e-04	0	43	0	714080256	22	4646
2026-01-18 08:39:18.18	23.42	22.18	-31.1	-33.3	12.1	2.53e-04	0	42	0	716177408	22	4615
2026-01-18 08:39:19.18	23.17	22.12	-31.0	-32.9	12.4	1.75e-04	0	42	0	717225984	22	4495
2026-01-18 08:39:20.19	22.93	22.06	-31.2	-33.4	12.1	3.13e-04	0	42	0	719323136	22	4644
2026-01-18 08:39:21.19	22.68	22.01	-30.8	-32.3	12.8	1.11e-04	0	42	0	721420288	22	4275
2026-01-18 08:39:22.19	22.44	21.95	-30.8	-32.4	12.8	5.34e-05	0	42	0	723517440	22	4326
2026-01-18 08:39:23.19	22.20	21.89	-30.9	-32.7	12.5	1.21e-04	0	42	0	725614592	22	4417
2026-01-18 08:39:24.20	21.95	21.83	-31.1	-33.3	12.1	1.83e-04	0	42	0	726663168	22	4627
2026-01-18 08:39:25.20	21.71	21.78	-31.5	-34.5	11.3	5.98e-04	0	42	0	728760320	22	5061
2026-01-18 08:39:26.20	21.47	21.72	-31.7	-34.5	10.8	1.80e-03	0	42	0	730857472	23	5010
2026-01-18 08:39:27.21	21.23	21.66	-31.8	-35.1	10.4	3.23e-03	0	42	0	732954624	23	5241
2026-01-18 08:39:28.21	20.99	21.60	-31.8	-35.0	10.5	4.64e-03	0	42	0	735051776	23	5168
2026-01-18 08:39:29.22	20.75	21.54	-31.3	-33.5	11.6	1.40e-03	0	42	0	736100352	23	4601
2026-01-18 08:39:30.23	20.51	21.48	-30.8	-31.9	12.6	3.00e-04	0	42	0	738197504	23	4075
2026-01-18 08:39:31.23	20.28	21.42	-30.4	-31.3	13.4	4.19e-05	0	42	0	740294656	22	3975
2026-01-18 08:39:32.24	20.04	21.36	-30.1	-31.1	13.9	3.00e-06	0	42	0	742391808	21	4000
2026-01-18 08:39:33.24	19.81	21.30	-30.1	-31.0	13.9	1.50e-06	0	42	0	743440384	21	3995
2026-01-18 08:39:34.24	19.58	21.23	-30.2	-31.3	13.7	6.80e-06	0	42	0	745537536	21	4068
2026-01-18 08:39:35.24	19.34	21.17	-30.3	-31.5	13.5	4.50e-06	0	43	0	747634688	21	4148
2026-01-18 08:39:36.24	19.11	21.11	-30.4	-31.8	13.4	2.21e-05	0	43	0	749731840	21	4213
2026-01-18 08:39:37.25	18.88	21.05	-30.6	-32.3	13.0	3.12e-05	0	42	0	751828992	21	4397
2026-01-18 08:39:38.25	18.65	20.98	-30.5	-32.2	13.0	6.71e-05	0	42	0	753926144	21	4353
2026-01-18 08:39:39.26	18.42	20.92	-30.5	-32.1	13.1	2.74e-05	0	42	0	754974720	21	4337
2026-01-18 08:39:40.26	18.20	20.86	-30.2	-31.3	13.6	1.98e-05	0	42	0	757071872	21	4083
2026-01-18 08:39:41.26	17.97	20.79	-30.0	-30.7	14.0	5.30e-06	0	43	0	759169024	21	3918
2026-01-18 08:39:42.27	17.74	20.73	-29.8	-30.7	14.4	7.00e-07	0	42	0	761266176	20	3983
2026-01-18 08:39:43.26	17.52	20.67	-29.7	-30.3	14.6	2.20e-06	0	42	0	762314752	20	3889
2026-01-18 08:39:44.27	17.30	20.60	-29.4	-29.6	15.0	0.00e+00	0	43	0	764411904	20	3709
2026-01-18 08:39:45.27	17.08	20.53	-29.2	-29.7	15.3	0.00e+00	0	42	0	766509056	19	3798
2026-01-18 08:39:46.28	16.85	20.47	-29.0	-29.3	15.5	0.00e+00	0	43	0	768606208	19	3697
2026-01-18 08:39:47.28	16.63	20.40	-29.3	-30.0	15.1	7.00e-07	0	42	0	770703360	19	3888
2026-01-18 08:39:48.29	16.41	20.34	-29.6	-30.7	14.7	0.00e+00	0	42	0	771751936	19	4076
2026-01-18 08:39:49.29	16.19	20.27	-29.7	-30.9	14.6	7.00e-07	0	42	0	773849088	19	4127
2026-01-18 08:39:50.29	15.98	20.20	-30.1	-31.5	13.8	7.00e-07	0	43	0	775946240	20	4232
2026-01-18 08:39:51.30	15.76	20.14	-30.3	-32.0	13.5	6.80e-06	0	42	0	778043392	20	4375
2026-01-18 08:39:52.30	15.54	20.07	-30.3	-32.1	13.4	1.29e-05	0	43	0	780140544	20	4426
2026-01-18 08:39:53.30	15.33	20.00	-30.5	-32.5	13.2	1.37e-05	0	43	0	781189120	20	4542
2026-01-18 08:39:54.31	15.11	19.94	-30.6	-32.3	13.0	2.13e-05	0	43	0	783286272	21	4378
2026-01-18 08:39:55.31	14.90	19.87	-30.6	-32.5	12.9	4.88e-05	0	43	0	785383424	21	4447
2026-01-18 08:39:56.31	14.69	19.80	-30.7	-32.6	12.7	4.95e-05	0	42	0	787480576	21	4493
2026-01-18 08:39:57.31	14.48	19.73	-30.8	-32.9	12.6	1.45e-04	0	43	0	789577728	21	4582
2026-01-18 08:39:58.32	14.27	19.66	-30.6	-32.3	13.0	5.64e-05	0	42	0	790626304	21	4383
2026-01-18 08:39:59.32	14.06	19.59	-30.2	-31.4	13.5	1.60e-05	0	43	0	792723456	21	4109
2026-01-18 08:40:00.32	13.85	19.53	-30.0	-30.9	13.8	3.00e-06	0	43	0	794820608	21	3971
2026-01-18 08:40:01.32	13.64	19.46	-30.0	-30.8	13.9	2.20e-06	0	42	0	796917760	21	3935
2026-01-18 08:40:02.32	13.44	19.39	-30.0	-30.8	13.9	7.00e-07	0	42	0	799014912	21	3935
2026-01-18 08:40:03.32	13.23	19.32	-29.8	-30.2	14.2	4.50e-06	0	42	0	800063488	21	3793
2026-01-18 08:40:04.32	13.03	19.25	-29.7	-30.4	14.4	7.00e-07	0	43	0	802160640	20	3930
2026-01-18 08:40:05.33	12.82	19.18	-29.6	-30.2	14.5	7.00e-07	0	42	0	804257792	20	3873
2026-01-18 08:40:06.33	12.62	19.11	-29.5	-30.0	14.7	0.00e+00	0	42	0	806354944	20	3799
2026-01-18 08:40:07.34	12.42	19.04	-29.7	-30.4	14.5	3.00e-06	0	42	0	807403520	20	3913
2026-01-18 08:40:08.33	12.22	18.97	-29.8	-30.7	14.3	7.00e-07	0	42	0	809500672	20	4012
2026-01-18 08:40:09.33	12.02	18.90	-30.0	-31.2	14.0	1.50e-06	0	42	0	811597824	20	4153
2026-01-18 08:40:10.34	11.82	18.83	-30.1	-31.6	13.7	3.00e-06	0	42	0	813694976	20	4289
2026-01-18 08:40:11.34	11.62	18.76	-30.1	-31.7	13.7	8.30e-06	0	42	0	815792128	20	4290
2026-01-18 08:40:12.35	11.43	18.69	-30.0	-31.2	13.9	1.50e-06	0	42	0	816840704	20	4154
2026-01-18 08:40:13.35	11.23	18.61	-29.8	-30.8	14.2	7.00e-07	0	42	0	818937856	20	4039
2026-01-18 08:40:14.35	11.04	18.54	-30.0	-31.2	13.9	1.50e-06	0	42	0	821035008	20	4154
2026-01-18 08:40:15.36	10.84	18.47	-30.0	-31.1	14.0	1.50e-06	0	42	0	823132160	20	4129
2026-01-18 08:40:16.36	10.65	18.40	-30.2	-31.8	13.6	7.60e-06	0	43	0	825229312	20	4331
2026-01-18 08:40:17.36	10.46	18.33	-30.4	-32.3	13.3	1.14e-05	0	43	0	826277888	20	4482
2026-01-18 08:40:18.36	10.27	18.26	-30.3	-32.1	13.4	2.67e-05	0	42	0	828375040	20	4435
2026-01-18 08:40:19.37	10.07	18.18	-30.2	-31.8	13.5	1.37e-05	0	42	0	830472192	20	4341
2026-01-18 08:40:20.37	9.88	18.11	-30.0	-31.2	13.9	5.30e-06	0	42	0	832569344	20	4149
2026-01-18 08:40:21.38	9.69	18.04	-30.0	-31.3	13.9	5.30e-06	0	42	0	834666496	20	4187
2026-01-18 08:40:22.38	9.51	17.97	-29.9	-31.1	14.0	2.20e-06	0	42	0	835715072	20	4098
2026-01-18 08:40:23.38	9.32	17.90	-29.9	-30.9	14.2	0.00e+00	0	42	0	837812224	20	4044
2026-01-18 08:40:24.38	9.14	17.82	-29.9	-31.0	14.1	3.00e-06	0	42	0	839909376	20	4097
2026-01-18 08:40:25.38	8.95	17.75	-29.8	-30.6	14.3	7.00e-07	0	42	0	842006528	20	3969
2026-01-18 08:40:26.38	8.77	17.68	-29.6	-30.1	14.6	0.00e+00	0	42	0	844103680	20	3837
2026-01-18 08:40:27.39	8.58	17.61	-29.6	-30.3	14.5	0.00e+00	0	42	0	845152256	20	3873
2026-01-18 08:40:28.39	8.40	17.53	-29.7	-30.4	14.5	1.50e-06	0	42	0	847249408	20	3903
2026-01-18 08:40:29.39	8.22	17.46	-29.7	-30.5	14.4	1.50e-06	0	42	0	849346560	20	3931
2026-01-18 08:40:30.40	8.04	17.39	-30.0	-31.1	14.0	7.00e-07	0	43	0	851443712	20	4124
2026-01-18 08:40:31.40	7.86	17.31	-30.1	-31.4	13.9	3.80e-06	0	43	0	853540864	20	4207
2026-01-18 08:40:32.41	7.68	17.24	-30.3	-32.0	13.4	7.60e-06	0	42	0	854589440	20	4389
2026-01-18 08:40:33.41	7.50	17.17	-30.2	-31.8	13.5	7.60e-06	0	42	0	856686592	20	4311
2026-01-18 08:40:34.41	7.33	17.09	-30.1	-31.5	13.7	6.80e-06	0	42	0	858783744	20	4233
2026-01-18 08:40:35.42	7.15	17.02	-29.6	-30.2	14.5	2.20e-06	0	42	0	860880896	20	3869
2026-01-18 08:40:36.42	6.97	16.95	-29.5	-29.9	14.8	0.00e+00	0	42	0	861929472	20	3764
2026-01-18 08:40:37.42	6.80	16.87	-29.4	-30.1	15.1	0.00e+00	0	42	0	864026624	19	3898
2026-01-18 08:40:38.43	6.63	16.80	-29.3	-29.9	15.1	0.00e+00	0	42	0	866123776	19	3856
2026-01-18 08:40:39.43	6.45	16.73	-29.4	-30.1	15.0	7.00e-07	0	42	0	868220928	19	3917
2026-01-18 08:40:40.43	6.28	16.65	-29.4	-30.2	14.9	0.00e+00	0	42	0	870318080	19	3928
2026-01-18 08:40:41.44	6.11	16.58	-29.6	-30.7	14.6	0.00e+00	0	42	0	871366656	19	4089
2026-01-18 08:40:42.44	5.94	16.51	-29.7	-30.8	14.5	2.20e-06	0	42	0	873463808	19	4118
2026-01-18 08:40:43.45	5.77	16.43	-29.8	-31.3	14.2	7.00e-07	0	42	0	875560960	19	4246
2026-01-18 08:40:44.45	5.60	16.36	-29.9	-31.4	14.2	7.00e-07	0	42	0	877658112	19	4290
2026-01-18 08:40:45.45	5.44	16.29	-29.9	-31.1	14.0	0.00e+00	0	42	0	879755264	20	4115
2026-01-18 08:40:46.46	5.27	16.21	-29.9	-31.0	14.1	7.00e-07	0	42	0	880803840	20	4083
2026-01-18 08:40:47.46	5.10	16.14	-30.0	-31.1	14.0	0.00e+00	0	42	0	882900992	20	4115
2026-01-18 08:40:48.46	4.94	16.06	-30.0	-31.3	13.9	1.22e-05	0	42	0	884998144	20	4171
2026-01-18 08:40:49.46	4.77	15.99	-29.8	-30.6	14.3	3.80e-06	0	42	0	887095296	20	3965
2026-01-18 08:40:50.46	4.61	15.92	-29.6	-30.3	14.5	7.00e-07	0	42	0	889192448	20	3875
2026-01-18 08:40:51.46	4.45	15.84	-29.3	-29.4	15.0	0.00e+00	0	42	0	890241024	20	3655
2026-01-18 08:40:52.46	4.29	15.77	-29.2	-29.8	15.1	0.00e+00	0	43	0	892338176	19	3829
2026-01-18 08:40:53.46	4.13	15.70	-29.1	-29.4	15.4	7.00e-07	0	43	0	894435328	19	3733
2026-01-18 08:40:54.45	3.97	15.62	-29.3	-29.9	15.1	0.00e+00	0	42	0	896532480	19	3858
2026-01-18 08:40:55.45	3.81	15.55	-29.5	-30.5	14.7	0.00e+00	0	42	0	898629632	19	4035
2026-01-18 08:40:56.46	3.65	15.47	-29.7	-30.9	14.4	7.00e-07	0	42	0	899678208	19	4141
2026-01-18 08:40:57.46	3.49	15.40	-30.0	-31.1	13.9	1.50e-06	0	42	0	901775360	20	4127
2026-01-18 08:40:58.46	3.34	15.33	-30.1	-31.4	13.7	5.30e-06	0	42	0	903872512	20	4203
2026-01-18 08:40:59.46	3.18	15.25	-30.4	-32.3	13.2	1.14e-05	0	42	0	905969664	20	4489
2026-01-18 08:41:00.46	3.03	15.18	-30.3	-32.1	13.2	2.21e-05	0	42	0	907018240	20	4437
2026-01-18 08:41:01.47	2.87	15.11	-30.4	-32.3	13.1	2.82e-05	0	42	0	909115392	20	4504
2026-01-18 08:41:02.48	2.72	15.03	-30.3	-32.0	13.3	1.75e-05	0	42	0	911212544	20	4400
2026-01-18 08:41:03.47	2.57	14.96	-30.2	-31.8	13.5	7.60e-06	0	42	0	913309696	20	4337
2026-01-18 08:41:04.48	2.41	14.88	-30.3	-32.1	13.2	3.35e-05	0	42	0	915406848	20	4429
2026-01-18 08:41:05.48	2.26	14.81	-30.1	-31.5	13.7	1.44e-05	0	42	0	916455424	20	4235
2026-01-18 08:41:06.49	2.11	14.74	-30.0	-31.2	13.9	3.00e-06	0	42	0	918552576	20	4142
2026-01-18 08:41:07.49	1.96	14.66	-29.9	-31.0	14.0	3.80e-06	0	42	0	920649728	20	4086
2026-01-18 08:41:08.49	1.81	14.59	-29.9	-31.0	13.9	4.50e-06	0	42	0	922746880	20	4087
2026-01-18 08:41:09.49	1.66	14.52	-29.7	-30.4	14.3	3.00e-06	0	42	0	924844032	20	3925
2026-01-18 08:41:10.49	1.52	14.44	-29.9	-30.9	14.0	1.50e-06	0	43	0	925892608	20	4072
2026-01-18 08:41:11.49	1.37	14.37	-29.9	-31.1	13.8	7.60e-06	0	42	0	927989760	20	4112
2026-01-18 08:41:12.49	1.22	14.30	-29.9	-31.0	13.8	3.00e-06	0	42	0	930086912	20	4107
2026-01-18 08:41:13.49	1.08	14.22	-30.0	-31.4	13.7	3.80e-06	0	42	0	932184064	20	4207
2026-01-18 08:41:14.50	0.93	14.15	-30.2	-31.8	13.4	1.44e-05	0	42	0	934281216	20	4332
2026-01-18 08:41:15.50	0.79	14.07	-30.5	-32.6	12.9	4.80e-05	0	42	0	935329792	20	4616
2026-01-18 08:41:16.50	0.65	14.00	-30.6	-32.5	12.7	6.63e-05	0	43	0	937426944	21	4462
2026-01-18 08:41:17.51	0.50	13.93	-30.8	-33.2	12.1	2.01e-04	0	42	0	939524096	21	4708
2026-01-18 08:41:18.52	0.36	13.85	-30.7	-32.6	12.5	1.16e-04	0	42	0	941621248	21	4526
2026-01-18 08:41:19.52	0.22	13.78	-30.7	-32.8	12.4	1.52e-04	0	43	0	943718400	21	4580
2026-01-18 08:41:20.52	0.08	13.71	-30.5	-32.3	12.7	1.01e-04	0	42	0	944766976	21	4423
2026-01-18 08:41:21.53	359.94	13.63	-30.3	-31.5	13.3	2.82e-05	0	42	0	946864128	21	4152
2026-01-18 08:41:22.54	359.80	13.56	-30.3	-31.6	13.2	2.13e-05	0	43	0	948961280	21	4178
2026-01-18 08:41:23.54	359.66	13.49	-30.4	-31.9	13.0	2.36e-05	0	42	0	951058432	21	4272
2026-01-18 08:41:24.54	359.53	13.41	-30.3	-31.8	13.0	3.73e-05	0	42	0	953155584	21	4235
2026-01-18 08:41:25.55	359.39	13.34	-29.9	-30.5	13.8	1.06e-05	0	42	0	954204160	21	3877
2026-01-18 08:41:26.56	359.25	13.27	-29.9	-30.5	13.9	5.30e-06	0	43	0	956301312	21	3855
2026-01-18 08:41:27.57	359.11	13.19	-29.7	-30.6	14.0	3.80e-06	0	42	0	958398464	20	3994
2026-01-18 08:41:28.57	358.98	13.12	-29.9	-31.2	13.7	5.30e-06	0	42	0	960495616	20	4155
2026-01-18 08:41:29.57	358.85	13.05	-30.0	-31.4	13.6	4.50e-06	0	43	0	962592768	20	4210
2026-01-18 08:41:30.58	358.71	12.98	-30.0	-31.4	13.6	1.75e-05	0	42	0	963641344	20	4235
2026-01-18 08:41:31.57	358.58	12.90	-30.0	-31.5	13.5	1.14e-05	0	43	0	965738496	20	4250
2026-01-18 08:41:32.58	358.45	12.83	-30.1	-31.6	13.5	1.14e-05	0	42	0	967835648	20	4271
2026-01-18 08:41:33.57	358.32	12.76	-30.2	-32.0	13.2	3.12e-05	0	42	0	969932800	20	4399
2026-01-18 08:41:34.57	358.19	12.69	-30.1	-31.5	13.5	9.90e-06	0	42	0	970981376	20	4246
2026-01-18 08:41:35.58	358.06	12.61	-30.0	-31.5	13.6	1.06e-05	0	43	0	973078528	20	4242
2026-01-18 08:41:36.58	357.93	12.54	-29.9	-31.0	13.8	1.14e-05	0	43	0	975175680	20	4113
2026-01-18 08:41:37.59	357.80	12.47	-30.2	-31.8	13.3	1.29e-05	0	42	0	977272832	20	4340
2026-01-18 08:41:38.58	357.67	12.40	-30.2	-32.0	13.2	3.35e-05	0	42	0	979369984	20	4410
2026-01-18 08:41:39.59	357.54	12.33	-30.3	-32.1	13.1	1.29e-05	0	42	0	980418560	20	4443
2026-01-18 08:41:40.59	357.42	12.25	-30.4	-32.5	12.8	4.80e-05	0	42	0	982515712	20	4595
2026-01-18 08:41:41.59	357.29	12.18	-30.4	-32.6	12.7	7.62e-05	0	42	0	984612864	20	4613
2026-01-18 08:41:42.60	357.16	12.11	-30.5	-32.3	12.6	1.05e-04	0	42	0	986710016	21	4413
2026-01-18 08:41:43.60	357.04	12.04	-30.4	-32.0	12.8	6.17e-05	0	42	0	988807168	21	4331
2026-01-18 08:41:44.61	356.91	11.97	-30.4	-32.1	12.7	6.10e-05	0	42	0	989855744	21	4362
2026-01-18 08:41:45.61	356.79	11.89	-30.4	-32.0	12.7	9.30e-05	0	42	0	991952896	21	4337
2026-01-18 08:41:46.61	356.67	11.82	-30.4	-31.9	12.8	8.31e-05	0	42	0	994050048	21	4292
2026-01-18 08:41:47.61	356.55	11.75	-30.5	-32.4	12.5	8.85e-05	0	43	0	996147200	21	4455
2026-01-18 08:41:48.62	356.42	11.68	-30.6	-32.5	12.4	1.22e-04	0	42	0	998244352	21	4477
2026-01-18 08:41:49.61	356.30	11.61	-30.7	-32.8	12.2	1.41e-04	0	43	0	999292928	21	4589
2026-01-18 08:41:50.62	356.18	11.54	-30.6	-32.7	12.3	2.10e-04	0	42	0	1001390080	21	4569
2026-01-18 08:41:51.62	356.06	11.47	-30.8	-33.3	11.8	3.17e-04	0	43	0	1003487232	21	4773
2026-01-18 08:41:52.62	355.94	11.40	-30.8	-33.3	11.9	4.81e-04	0	43	0	1005584384	21	4764
2026-01-18 08:41:53.61	355.83	11.33	-30.9	-33.4	11.8	4.84e-04	0	42	0	1007681536	21	4815
2026-01-18 08:41:54.62	355.71	11.25	-30.9	-33.5	11.6	5.64e-04	0	42	0	1008730112	21	4869
2026-01-18 08:41:55.62	355.59	11.18	-30.8	-33.2	11.9	4.32e-04	0	43	0	1010827264	21	4738
2026-01-18 08:41:56.62	355.47	11.11	-30.8	-33.1	12.0	4.36e-04	0	42	0	1012924416	21	4705
2026-01-18 08:41:57.62	355.36	11.04	-30.5	-32.4	12.4	2.53e-04	0	42	0	1015021568	21	4470
2026-01-18 08:41:58.62	355.24	10.97	-30.6	-32.6	12.3	1.90e-04	0	42	0	1016070144	21	4536
2026-01-18 08:41:59.62	355.13	10.90	-30.5	-32.2	12.6	2.09e-04	0	43	0	1018167296	21	4406
2026-01-18 08:42:00.62	355.01	10.83	-30.4	-32.1	12.6	7.62e-05	0	42	0	1020264448	21	4378
2026-01-18 08:42:01.63	354.90	10.76	-30.5	-32.3	12.5	1.24e-04	0	42	0	1022361600	21	4436
2026-01-18 08:42:02.63	354.78	10.69	-30.4	-32.1	12.7	8.85e-05	0	42	0	1024458752	21	4363
2026-01-18 08:42:03.63	354.67	10.62	-30.5	-32.4	12.4	1.25e-04	0	43	0	1025507328	21	4455
2026-01-18 08:42:04.63	354.56	10.55	-30.5	-32.4	12.4	1.61e-04	0	43	0	1027604480	21	4455
2026-01-18 08:42:05.63	354.45	10.48	-30.8	-33.4	11.8	2.30e-04	0	43	0	1029701632	21	4801
2026-01-18 08:42:06.63	354.34	10.41	-30.9	-33.5	11.6	5.97e-04	0	42	0	1031798784	21	4871
2026-01-18 08:42:07.63	354.23	10.34	-31.0	-33.7	11.5	6.19e-04	0	43	0	1033895936	21	4957
2026-01-18 08:42:08.63	354.12	10.27	-31.2	-33.8	11.1	1.75e-03	0	42	0	1034944512	22	4882
2026-01-18 08:42:09.63	354.01	10.20	-31.2	-34.0	10.9	2.14e-03	0	43	0	1037041664	22	4945
2026-01-18 08:42:10.64	353.90	10.13	-31.1	-33.8	11.1	1.53e-03	0	42	0	1039138816	22	4873
2026-01-18 08:42:11.63	353.79	10.06	-31.1	-33.8	11.1	1.31e-03	0	43	0	1041235968	22	4885
2026-01-18 08:42:12.64	353.68	9.99	-31.1	-33.6	11.2	1.47e-03	0	42	0	1043333120	22	4792
2026-01-18 08:42:13.64	353.57	9.93	-31.0	-33.3	11.4	1.30e-03	0	42	0	1044381696	22	4713
2026-01-18 08:42:14.64	353.47	9.86	-31.0	-33.5	11.2	1.10e-03	0	43	0	1046478848	22	4778
2026-01-18 08:42:15.64	353.36	9.79	-31.1	-33.7	11.1	1.62e-03	0	43	0	1048576000	22	4849
2026-01-18 08:42:16.64	353.25	9.72	-31.1	-33.5	11.2	1.62e-03	0	43	0	1050673152	22	4789
2026-01-18 08:42:17.65	353.15	9.65	-30.9	-32.9	11.6	9.25e-04	0	43	0	1052770304	22	4560
2026-01-18 08:42:18.65	353.04	9.58	-30.6	-32.2	12.1	3.63e-04	0	43	0	1053818880	22	4307
2026-01-18 08:42:19.65	352.94	9.51	-30.6	-32.1	12.2	2.87e-04	0	42	0	1055916032	22	4302
2026-01-18 08:42:20.65	352.83	9.44	-30.7	-32.4	12.0	2.49e-04	0	42	0	1058013184	22	4379
2026-01-18 08:42:21.65	352.73	9.38	-30.7	-32.3	12.0	3.84e-04	0	42	0	1060110336	22	4365
2026-01-18 08:42:22.65	352.63	9.31	-30.8	-32.6	11.8	3.80e-04	0	42	0	1061158912	22	4469
2026-01-18 08:42:23.65	352.53	9.24	-30.8	-32.8	11.7	6.01e-04	0	43	0	1063256064	22	4529
2026-01-18 08:42:24.65	352.42	9.17	-30.9	-33.2	11.4	6.55e-04	0	43	0	1065353216	22	4674
2026-01-18 08:42:25.65	352.32	9.10	-30.9	-33.1	11.4	8.03e-04	0	42	0	1067450368	22	4647
2026-01-18 08:42:26.66	352.22	9.03	-31.1	-33.7	11.0	1.50e-03	0	43	0	1069547520	22	4878
2026-01-18 08:42:27.66	352.12	8.97	-31.2	-33.9	10.9	2.73e-03	0	43	0	1070596096	22	4943
2026-01-18 08:42:28.66	352.02	8.90	-31.3	-34.2	10.6	2.59e-03	0	43	0	1072693248	22	5070
2026-01-18 08:42:29.67	351.92	8.83	-31.3	-34.5	10.4	4.27e-03	0	42	0	1074790400	22	5195
2026-01-18 08:42:30.68	351.82	8.76	-31.3	-34.5	10.4	3.90e-03	0	43	0	1076887552	22	5204
2026-01-18 08:42:31.68	351.72	8.70	-31.4	-34.9	10.1	5.67e-03	0	42	0	1078984704	22	5351
2026-01-18 08:42:32.69	351.62	8.63	-31.4	-34.8	10.1	5.80e-03	0	42	0	1080033280	22	5341
2026-01-18 08:42:33.69	351.53	8.56	-31.4	-34.7	10.2	6.34e-03	0	43	0	1082130432	22	5282
2026-01-18 08:42:34.69	351.43	8.49	-31.5	-34.7	9.8	6.72e-03	0	43	0	1084227584	23	5192
2026-01-18 08:42:35.70	351.33	8.43	-31.6	-34.9	9.7	1.03e-02	0	43	0	1086324736	23	5263
2026-01-18 08:42:36.70	351.24	8.36	-31.5	-34.8	9.6	1.25e-02	0	43	0	1088421888	23	5261
2026-01-18 08:42:37.70	351.14	8.29	-31.4	-34.4	10.1	9.86e-03	0	43	0	1089470464	23	5056
2026-01-18 08:42:38.69	351.05	8.23	-31.4	-34.3	10.1	6.35e-03	0	42	0	1091567616	23	5048
2026-01-18 08:42:39.69	350.95	8.16	-31.3	-34.1	10.3	5.34e-03	0	43	0	1093664768	23	4937
2026-01-18 08:42:40.70	350.86	8.09	-31.3	-34.0	10.3	5.94e-03	0	42	0	1095761920	23	4925
2026-01-18 08:42:41.70	350.76	8.03	-31.3	-34.0	10.2	5.87e-03	0	42	0	1097859072	23	4930
2026-01-18 08:42:42.70	350.67	7.96	-31.2	-33.6	10.5	4.59e-03	0	42	0	1098907648	23	4765
2026-01-18 08:42:43.71	350.57	7.89	-31.3	-33.8	10.4	4.88e-03	0	42	0	1101004800	23	4849
2026-01-18 08:42:44.71	350.48	7.83	-31.3	-33.9	10.4	4.61e-03	0	42	0	1103101952	23	4855
2026-01-18 08:42:45.71	350.39	7.76	-31.4	-34.3	10.1	6.27e-03	0	43	0	1105199104	23	5029
2026-01-18 08:42:46.71	350.30	7.70	-31.2	-33.8	10.5	5.68e-03	0	42	0	1106247680	23	4821
2026-01-18 08:42:47.71	350.21	7.63	-31.4	-34.3	10.1	5.26e-03	0	42	0	1108344832	23	5041
2026-01-18 08:42:48.72	350.12	7.56	-31.4	-34.4	10.0	7.67e-03	0	42	0	1110441984	23	5061
2026-01-18 08:42:49.73	350.02	7.50	-31.4	-34.4	10.0	7.18e-03	0	43	0	1112539136	23	5096
2026-01-18 08:42:50.73	349.93	7.43	-31.4	-34.5	9.8	1.08e-02	0	43	0	1114636288	23	5150
2026-01-18 08:42:51.72	349.85	7.37	-31.5	-34.9	9.5	9.41e-03	0	43	0	1115684864	23	5300
2026-01-18 08:42:52.73	349.76	7.30	-31.6	-35.0	9.4	1.56e-02	0	42	0	1117782016	23	5355
2026-01-18 08:42:53.73	349.67	7.24	-31.5	-34.7	9.7	1.43e-02	0	42	0	1119879168	23	5213
2026-01-18 08:42:54.73	349.58	7.17	-31.7	-35.5	9.0	1.91e-02	0	43	0	1121976320	23	5609
2026-01-18 08:42:55.73	349.49	7.11	-31.6	-35.1	9.3	2.13e-02	0	42	0	1124073472	23	5385
2026-01-18 08:42:56.73	349.40	7.04	-33.4	-45.7	3.8	6.12e-01	0	42	104	1125122048	26	14737
2026-01-18 08:42:57.73	349.32	6.98	-33.7	-46.0	3.8	1.49e+00	0	42	104	1125122048	27	14843

#Closed at: 2026-01-18 08:42:58
#Recorded file [1125 MB]: D:/data/31010_260118_113256.dat