passes_logs/2026/01/18/R2M6_AANII_01/R2M6_AANII_01__20260118_143431_FENGYUN_3E_rec.log

#Pass ID: 20260118_143431_FENGYUN 3E
#Satellite: FENGYUN 3E
#Configuration: FENGYUN 3E
#almurnet v.1.7.20240730
#Start time: 2026-01-18 14:34:32

#Version: 2.2.20231116
#Station: R2M6_AANII_01
#Location: 30.233357 lon 59.946436 lat
#TLE: 1 49008U 21062A   26017.61301378  .00000104  00000+0  69808-4 0  9996
#TLE: 2 49008  98.7484  22.7108 0002130 132.1860 227.9498 14.19886007235218

#Time	Az	El	Level	Level2	SNR	BER	BlckErr	Temp	State	Recorded	gain1	gain2
2026-01-18 14:34:32.92	159.34	7.10	-29.6	-32.1	5.1	7.92e-01	0	41	0	0	20	4816
2026-01-18 14:34:33.91	159.34	7.18	-29.5	-32.3	5.2	7.88e-01	0	41	104	0	19	4964
2026-01-18 14:34:34.92	159.34	7.26	-29.4	-31.9	9.0	2.87e-02	0	41	0	0	19	4834
2026-01-18 14:34:35.93	159.34	7.34	-29.4	-32.1	8.9	2.90e-02	0	41	0	7340032	19	4886
2026-01-18 14:34:36.93	159.35	7.42	-29.4	-31.8	9.1	2.73e-02	0	41	0	14680064	19	4793
2026-01-18 14:34:37.93	159.35	7.50	-29.4	-31.9	9.1	2.30e-02	0	41	0	22020096	19	4806
2026-01-18 14:34:38.93	159.35	7.58	-29.4	-31.9	9.0	2.57e-02	0	41	0	28311552	19	4823
2026-01-18 14:34:39.94	159.36	7.66	-29.7	-32.7	8.6	3.70e-02	0	41	0	35651584	19	5098
2026-01-18 14:34:40.94	159.36	7.74	-29.5	-32.2	8.9	3.51e-02	0	41	0	42991616	19	4901
2026-01-18 14:34:41.95	159.36	7.82	-29.1	-31.1	9.6	1.62e-02	0	41	0	50331648	19	4553
2026-01-18 14:34:42.95	159.37	7.90	-28.6	-30.3	10.4	6.04e-03	0	41	0	57671680	18	4411
2026-01-18 14:34:43.95	159.37	7.98	-28.2	-29.9	10.9	3.46e-03	0	41	0	65011712	17	4387
2026-01-18 14:34:44.96	159.37	8.06	-27.7	-29.3	11.6	7.49e-04	0	41	0	72351744	16	4332
2026-01-18 14:34:45.96	159.38	8.14	-27.2	-28.7	12.1	3.51e-04	0	41	0	79691776	15	4275
2026-01-18 14:34:46.96	159.38	8.22	-26.9	-28.0	12.4	1.89e-04	0	41	0	85983232	15	4094
2026-01-18 14:34:47.97	159.38	8.30	-26.7	-28.1	12.6	1.17e-04	0	41	0	93323264	14	4234
2026-01-18 14:34:48.97	159.39	8.38	-26.8	-28.2	12.7	1.11e-04	0	41	0	101711872	14	4233
2026-01-18 14:34:49.98	159.39	8.47	-26.8	-28.2	12.7	9.49e-05	0	41	0	108003328	14	4237
2026-01-18 14:34:50.98	159.39	8.55	-27.0	-28.7	12.3	1.38e-04	0	42	0	115343360	14	4396
2026-01-18 14:34:51.98	159.40	8.63	-26.7	-28.1	12.7	1.09e-04	0	42	0	122683392	14	4213
2026-01-18 14:34:52.99	159.40	8.72	-26.7	-28.0	12.8	7.89e-05	0	42	0	130023424	14	4195
2026-01-18 14:34:53.99	159.40	8.80	-26.7	-28.2	12.7	8.23e-05	0	42	0	137363456	14	4242
2026-01-18 14:34:54.99	159.41	8.88	-26.6	-28.0	12.8	6.17e-05	0	41	0	144703488	14	4186
2026-01-18 14:34:55.99	159.41	8.97	-26.7	-28.1	12.7	8.58e-05	0	42	0	152043520	14	4230
2026-01-18 14:34:56.99	159.41	9.05	-27.1	-29.0	12.3	1.68e-04	0	42	0	159383552	14	4473
2026-01-18 14:34:57.99	159.42	9.13	-26.9	-28.6	12.4	1.29e-04	0	42	0	166723584	14	4378
2026-01-18 14:34:59.00	159.42	9.22	-26.5	-27.6	13.0	4.46e-05	0	42	0	173015040	14	4091
2026-01-18 14:35:00.00	159.42	9.30	-26.4	-27.4	13.2	3.31e-05	0	42	0	180355072	14	4035
2026-01-18 14:35:01.00	159.43	9.39	-26.2	-27.4	13.5	1.60e-05	0	42	0	187695104	13	4134
2026-01-18 14:35:02.00	159.43	9.47	-26.3	-27.7	13.3	2.28e-05	0	42	0	195035136	13	4216
2026-01-18 14:35:03.01	159.43	9.56	-26.3	-27.5	13.4	1.25e-05	0	42	0	202375168	13	4152
2026-01-18 14:35:04.01	159.44	9.65	-26.3	-27.7	13.3	2.74e-05	0	42	0	209715200	13	4195
2026-01-18 14:35:05.02	159.44	9.73	-26.3	-27.6	13.4	1.71e-05	0	42	0	217055232	13	4186
2026-01-18 14:35:06.02	159.44	9.82	-26.2	-27.3	13.5	1.71e-05	0	42	0	224395264	13	4114
2026-01-18 14:35:07.03	159.45	9.91	-26.3	-27.6	13.4	1.37e-05	0	42	0	231735296	13	4188
2026-01-18 14:35:08.03	159.45	10.00	-26.2	-27.4	13.5	8.00e-06	0	42	0	239075328	13	4127
2026-01-18 14:35:09.03	159.45	10.08	-26.3	-27.5	13.4	1.83e-05	0	42	0	246415360	13	4162
2026-01-18 14:35:10.04	159.46	10.17	-26.2	-27.4	13.6	1.48e-05	0	42	0	252706816	13	4116
2026-01-18 14:35:11.04	159.46	10.26	-26.0	-26.9	13.8	6.80e-06	0	42	0	260046848	13	4005
2026-01-18 14:35:12.05	159.46	10.35	-25.8	-27.1	14.0	4.50e-06	0	42	0	267386880	12	4145
2026-01-18 14:35:13.05	159.47	10.44	-26.0	-27.3	13.8	3.40e-06	0	42	0	274726912	12	4215
2026-01-18 14:35:14.05	159.47	10.53	-25.9	-27.3	13.8	1.02e-05	0	42	0	282066944	12	4220
2026-01-18 14:35:15.06	159.47	10.62	-25.9	-27.2	13.9	6.80e-06	0	42	0	289406976	12	4180
2026-01-18 14:35:16.07	159.48	10.71	-26.1	-27.6	13.7	2.20e-06	0	42	0	296747008	12	4280
2026-01-18 14:35:17.07	159.48	10.80	-26.3	-28.0	13.5	6.80e-06	0	42	0	304087040	12	4410
2026-01-18 14:35:18.08	159.48	10.89	-25.9	-27.3	13.9	3.40e-06	0	42	0	311427072	12	4195
2026-01-18 14:35:19.08	159.49	10.98	-25.8	-27.0	14.1	0.00e+00	0	42	0	318767104	12	4116
2026-01-18 14:35:20.08	159.49	11.07	-25.9	-27.3	13.9	2.20e-06	0	42	0	326107136	12	4199
2026-01-18 14:35:21.08	159.49	11.16	-25.8	-27.0	14.1	4.50e-06	0	42	0	333447168	12	4123
2026-01-18 14:35:22.08	159.50	11.25	-26.0	-27.4	13.9	3.40e-06	0	42	0	339738624	12	4219
2026-01-18 14:35:23.09	159.50	11.35	-25.8	-26.9	14.1	1.10e-06	0	42	0	347078656	12	4092
2026-01-18 14:35:24.10	159.50	11.44	-25.8	-26.9	14.2	1.10e-06	0	42	0	354418688	12	4083
2026-01-18 14:35:25.10	159.51	11.53	-25.8	-26.9	14.2	0.00e+00	0	42	0	361758720	12	4085
2026-01-18 14:35:26.10	159.51	11.63	-25.8	-27.0	14.1	0.00e+00	0	42	0	369098752	12	4125
2026-01-18 14:35:27.10	159.51	11.72	-25.8	-26.8	14.2	0.00e+00	0	42	0	376438784	12	4057
2026-01-18 14:35:28.10	159.52	11.81	-25.8	-27.0	14.1	1.10e-06	0	42	0	383778816	12	4115
2026-01-18 14:35:29.10	159.52	11.91	-25.9	-27.0	14.1	5.70e-06	0	42	0	391118848	12	4113
2026-01-18 14:35:30.10	159.52	12.00	-25.6	-26.5	14.4	0.00e+00	0	42	0	398458880	12	3979
2026-01-18 14:35:31.10	159.53	12.10	-25.7	-26.7	14.3	2.20e-06	0	42	0	404750336	12	4035
2026-01-18 14:35:32.10	159.53	12.19	-25.5	-26.3	14.5	1.10e-06	0	43	0	412090368	12	3928
2026-01-18 14:35:33.10	159.53	12.29	-25.6	-26.5	14.4	1.10e-06	0	42	0	419430400	12	3968
2026-01-18 14:35:34.10	159.54	12.38	-25.5	-26.2	14.6	0.00e+00	0	42	0	426770432	12	3895
2026-01-18 14:35:35.10	159.54	12.48	-25.5	-26.1	14.6	0.00e+00	0	42	0	434110464	12	3892
2026-01-18 14:35:36.11	159.54	12.58	-25.6	-26.8	14.6	0.00e+00	0	42	0	441450496	11	4171
2026-01-18 14:35:37.11	159.55	12.68	-25.4	-26.4	14.8	0.00e+00	0	42	0	448790528	11	4058
2026-01-18 14:35:38.12	159.55	12.77	-25.4	-26.5	14.8	0.00e+00	0	42	0	456130560	11	4076
2026-01-18 14:35:39.12	159.55	12.87	-25.6	-26.9	14.5	0.00e+00	0	42	0	463470592	11	4189
2026-01-18 14:35:40.13	159.56	12.97	-25.5	-26.6	14.7	0.00e+00	0	42	0	470810624	11	4118
2026-01-18 14:35:41.13	159.56	13.07	-25.2	-26.1	15.0	0.00e+00	0	42	0	478150656	11	3982
2026-01-18 14:35:42.14	159.56	13.17	-25.2	-26.1	15.0	0.00e+00	0	42	0	484442112	11	3966
2026-01-18 14:35:43.15	159.57	13.27	-25.2	-26.1	15.0	0.00e+00	0	43	0	491782144	11	3966
2026-01-18 14:35:44.15	159.57	13.37	-25.2	-25.9	15.1	0.00e+00	0	43	0	499122176	11	3930
2026-01-18 14:35:45.15	159.57	13.47	-25.2	-26.1	15.1	0.00e+00	0	42	0	506462208	11	3968
2026-01-18 14:35:46.16	159.58	13.57	-25.2	-26.0	15.1	0.00e+00	0	42	0	513802240	11	3963
2026-01-18 14:35:47.16	159.58	13.68	-25.0	-25.6	15.3	0.00e+00	0	43	0	521142272	11	3851
2026-01-18 14:35:48.16	159.58	13.78	-25.1	-25.7	15.3	0.00e+00	0	43	0	528482304	11	3872
2026-01-18 14:35:49.17	159.59	13.88	-25.2	-26.0	15.1	0.00e+00	0	43	0	535822336	11	3944
2026-01-18 14:35:50.17	159.59	13.98	-25.1	-25.8	15.2	0.00e+00	0	43	0	543162368	11	3911
2026-01-18 14:35:51.17	159.59	14.09	-25.1	-25.7	15.3	3.40e-06	0	42	0	550502400	11	3874
2026-01-18 14:35:52.17	159.60	14.19	-25.0	-25.5	15.4	0.00e+00	0	43	0	557842432	11	3823
2026-01-18 14:35:53.18	159.60	14.29	-25.0	-25.6	15.4	0.00e+00	0	42	0	565182464	11	3842
2026-01-18 14:35:54.19	159.60	14.40	-24.9	-25.9	15.5	4.50e-06	0	43	0	571473920	10	4019
2026-01-18 14:35:55.18	159.61	14.50	-24.9	-25.9	15.4	0.00e+00	0	43	0	578813952	10	4028
2026-01-18 14:35:56.19	159.61	14.61	-24.9	-25.9	15.5	0.00e+00	0	43	0	586153984	10	4021
2026-01-18 14:35:57.19	159.62	14.72	-24.8	-25.7	15.6	5.70e-06	0	43	0	593494016	10	3974
2026-01-18 14:35:58.20	159.62	14.82	-25.0	-26.0	15.4	0.00e+00	0	43	0	600834048	10	4057
2026-01-18 14:35:59.20	159.62	14.93	-25.0	-26.1	15.4	0.00e+00	0	43	0	608174080	10	4069
2026-01-18 14:36:00.21	159.63	15.04	-24.8	-25.6	15.7	2.20e-06	0	43	0	615514112	10	3941
2026-01-18 14:36:01.21	159.63	15.15	-24.7	-25.4	15.8	0.00e+00	0	43	0	622854144	10	3902
2026-01-18 14:36:02.21	159.63	15.25	-24.8	-25.6	15.7	0.00e+00	0	42	0	630194176	10	3941
2026-01-18 14:36:03.22	159.64	15.36	-24.9	-25.8	15.6	0.00e+00	0	43	0	637534208	10	3988
2026-01-18 14:36:04.22	159.64	15.47	-24.8	-25.6	15.7	0.00e+00	0	43	0	644874240	10	3947
2026-01-18 14:36:05.22	159.64	15.58	-24.8	-25.6	15.7	0.00e+00	0	43	0	651165696	10	3935
2026-01-18 14:36:06.22	159.65	15.69	-24.9	-25.8	15.6	0.00e+00	0	43	0	658505728	10	4006
2026-01-18 14:36:07.23	159.65	15.80	-24.7	-25.4	15.8	0.00e+00	0	43	0	665845760	10	3888
2026-01-18 14:36:08.23	159.65	15.92	-24.7	-25.4	15.8	0.00e+00	0	43	0	673185792	10	3893
2026-01-18 14:36:09.22	159.66	16.03	-24.5	-25.0	16.0	0.00e+00	0	43	0	680525824	10	3801
2026-01-18 14:36:10.23	159.66	16.14	-24.5	-25.0	16.0	0.00e+00	0	43	0	687865856	10	3797
2026-01-18 14:36:11.23	159.66	16.25	-24.6	-25.2	15.9	0.00e+00	0	43	0	695205888	10	3858
2026-01-18 14:36:12.24	159.67	16.37	-24.5	-25.0	16.0	0.00e+00	0	43	0	702545920	10	3809
2026-01-18 14:36:13.24	159.67	16.48	-24.4	-25.2	16.2	0.00e+00	0	43	0	709885952	9	3959
2026-01-18 14:36:14.25	159.67	16.60	-24.4	-25.3	16.1	0.00e+00	0	43	0	716177408	9	3971
2026-01-18 14:36:15.25	159.68	16.71	-24.3	-25.1	16.3	0.00e+00	0	43	0	723517440	9	3927
2026-01-18 14:36:16.25	159.68	16.83	-24.5	-25.4	16.1	0.00e+00	0	43	0	730857472	9	4001
2026-01-18 14:36:17.26	159.68	16.94	-24.5	-25.5	16.0	0.00e+00	0	43	0	738197504	9	4032
2026-01-18 14:36:18.26	159.69	17.06	-24.4	-25.3	16.1	0.00e+00	0	43	0	745537536	9	3970
2026-01-18 14:36:19.27	159.69	17.18	-24.3	-25.0	16.3	0.00e+00	0	43	0	752877568	9	3913
2026-01-18 14:36:20.27	159.70	17.29	-24.3	-25.1	16.3	0.00e+00	0	43	0	760217600	9	3929
2026-01-18 14:36:21.27	159.70	17.41	-24.4	-25.1	16.3	0.00e+00	0	43	0	767557632	9	3929
2026-01-18 14:36:22.27	159.70	17.53	-24.2	-24.7	16.5	0.00e+00	0	43	0	774897664	9	3840
2026-01-18 14:36:23.27	159.71	17.65	-24.3	-25.0	16.3	0.00e+00	0	43	0	782237696	9	3915
2026-01-18 14:36:24.27	159.71	17.77	-24.3	-25.0	16.4	0.00e+00	0	43	0	789577728	9	3896
2026-01-18 14:36:25.27	159.71	17.89	-24.3	-25.0	16.3	0.00e+00	0	43	0	796917760	9	3901
2026-01-18 14:36:26.27	159.72	18.01	-24.3	-25.1	16.3	0.00e+00	0	43	0	803209216	9	3925
2026-01-18 14:36:27.27	159.72	18.13	-24.1	-24.7	16.5	0.00e+00	0	43	0	810549248	9	3821
2026-01-18 14:36:28.28	159.72	18.26	-24.1	-24.7	16.5	0.00e+00	0	43	0	817889280	9	3832
2026-01-18 14:36:29.28	159.73	18.38	-24.1	-24.6	16.5	0.00e+00	0	43	0	825229312	9	3816
2026-01-18 14:36:30.29	159.73	18.50	-24.1	-24.6	16.5	0.00e+00	0	43	0	832569344	9	3819
2026-01-18 14:36:31.29	159.73	18.63	-24.1	-24.6	16.6	0.00e+00	0	43	0	839909376	9	3812
2026-01-18 14:36:32.29	159.74	18.75	-24.3	-25.0	16.4	0.00e+00	0	43	0	847249408	9	3912
2026-01-18 14:36:33.29	159.74	18.88	-24.4	-25.2	16.2	0.00e+00	0	43	0	854589440	9	3967
2026-01-18 14:36:34.30	159.74	19.01	-24.2	-24.8	16.4	0.00e+00	0	43	0	861929472	9	3868
2026-01-18 14:36:35.29	159.75	19.13	-24.1	-24.6	16.6	0.00e+00	0	43	0	868220928	9	3804
2026-01-18 14:36:36.29	159.75	19.26	-24.2	-24.9	16.4	0.00e+00	0	43	0	875560960	9	3877
2026-01-18 14:36:37.29	159.75	19.39	-24.4	-25.3	16.2	0.00e+00	0	43	0	882900992	9	3985
2026-01-18 14:36:38.29	159.76	19.52	-24.3	-25.0	16.4	0.00e+00	0	43	0	890241024	9	3902
2026-01-18 14:36:39.29	159.76	19.64	-24.3	-25.1	16.3	0.00e+00	0	43	0	897581056	9	3948
2026-01-18 14:36:40.28	159.77	19.77	-24.1	-24.7	16.5	0.00e+00	0	43	0	904921088	9	3841
2026-01-18 14:36:41.29	159.77	19.91	-24.1	-24.6	16.6	0.00e+00	0	43	0	912261120	9	3805
2026-01-18 14:36:42.29	159.77	20.04	-24.1	-24.5	16.6	0.00e+00	0	43	0	919601152	9	3794
2026-01-18 14:36:43.30	159.78	20.17	-24.0	-25.0	16.6	0.00e+00	0	43	0	925892608	8	4025
2026-01-18 14:36:44.30	159.78	20.30	-24.0	-24.9	16.7	0.00e+00	0	43	0	933232640	8	4005
2026-01-18 14:36:45.31	159.78	20.44	-24.0	-25.0	16.6	0.00e+00	0	43	0	941621248	8	4010
2026-01-18 14:36:46.30	159.79	20.57	-24.0	-25.0	16.6	0.00e+00	0	43	0	947912704	8	4023
2026-01-18 14:36:47.31	159.79	20.71	-24.0	-24.9	16.6	0.00e+00	0	43	0	955252736	8	4006
2026-01-18 14:36:48.31	159.79	20.84	-24.1	-25.1	16.6	0.00e+00	0	43	0	962592768	8	4042
2026-01-18 14:36:49.32	159.80	20.98	-23.8	-24.5	16.8	0.00e+00	0	43	0	969932800	8	3906
2026-01-18 14:36:50.32	159.80	21.12	-24.0	-25.0	16.6	0.00e+00	0	43	0	977272832	8	4010
2026-01-18 14:36:51.32	159.81	21.26	-24.0	-25.0	16.6	0.00e+00	0	43	0	984612864	8	4025
2026-01-18 14:36:52.32	159.81	21.39	-24.0	-24.9	16.7	0.00e+00	0	43	0	991952896	8	4003
2026-01-18 14:36:53.32	159.81	21.53	-23.9	-24.6	16.9	0.00e+00	0	43	0	999292928	8	3924
2026-01-18 14:36:54.33	159.82	21.68	-24.0	-24.9	16.7	0.00e+00	0	43	0	1006632960	8	4006
2026-01-18 14:36:55.33	159.82	21.82	-24.1	-25.2	16.6	0.00e+00	0	43	0	1012924416	8	4060
2026-01-18 14:36:56.33	159.82	21.96	-23.9	-24.8	16.8	0.00e+00	0	43	0	1020264448	8	3970
2026-01-18 14:36:57.34	159.83	22.10	-24.2	-25.2	16.6	0.00e+00	0	43	0	1027604480	8	4075
2026-01-18 14:36:58.34	159.83	22.25	-24.2	-25.4	16.5	0.00e+00	0	43	0	1034944512	8	4122
2026-01-18 14:36:59.34	159.83	22.39	-24.0	-24.8	16.7	0.00e+00	0	43	0	1042284544	8	3970
2026-01-18 14:37:00.34	159.84	22.53	-23.8	-24.6	16.9	0.00e+00	0	43	0	1049624576	8	3920
2026-01-18 14:37:01.35	159.84	22.68	-23.5	-23.9	17.2	0.00e+00	0	43	0	1056964608	8	3762
2026-01-18 14:37:02.35	159.85	22.83	-23.3	-24.0	17.4	0.00e+00	0	43	0	1064304640	7	3897
2026-01-18 14:37:03.36	159.85	22.98	-23.3	-23.9	17.4	0.00e+00	0	43	0	1071644672	7	3866
2026-01-18 14:37:04.36	159.85	23.13	-23.2	-23.7	17.5	0.00e+00	0	43	0	1078984704	7	3819
2026-01-18 14:37:05.37	159.86	23.28	-23.1	-23.5	17.6	0.00e+00	0	43	0	1086324736	7	3767
2026-01-18 14:37:06.37	159.86	23.43	-23.1	-23.6	17.6	0.00e+00	0	43	0	1092616192	7	3784
2026-01-18 14:37:07.37	159.86	23.58	-23.1	-23.5	17.6	0.00e+00	0	43	0	1099956224	7	3768
2026-01-18 14:37:08.37	159.87	23.73	-23.1	-23.5	17.6	0.00e+00	0	43	0	1107296256	7	3777
2026-01-18 14:37:09.37	159.87	23.88	-23.0	-23.4	17.7	0.00e+00	0	43	0	1114636288	7	3744
2026-01-18 14:37:10.37	159.87	24.04	-23.1	-23.6	17.6	0.00e+00	0	43	0	1121976320	7	3794
2026-01-18 14:37:11.38	159.88	24.19	-23.2	-23.7	17.5	0.00e+00	0	43	0	1129316352	7	3831
2026-01-18 14:37:12.37	159.88	24.35	-23.1	-23.5	17.6	0.00e+00	0	43	0	1136656384	7	3787
2026-01-18 14:37:13.37	159.89	24.50	-23.2	-23.8	17.4	0.00e+00	0	43	0	1143996416	7	3862
2026-01-18 14:37:14.38	159.89	24.66	-23.4	-24.2	17.2	0.00e+00	0	43	0	1151336448	7	3962
2026-01-18 14:37:15.38	159.89	24.82	-23.4	-24.1	17.3	0.00e+00	0	43	0	1157627904	7	3934
2026-01-18 14:37:16.38	159.90	24.98	-23.5	-24.4	17.2	0.00e+00	0	43	0	1164967936	7	3990
2026-01-18 14:37:17.39	159.90	25.14	-23.6	-24.7	17.0	0.00e+00	0	43	0	1172307968	7	4067
2026-01-18 14:37:18.40	159.90	25.30	-23.6	-24.6	17.0	0.00e+00	0	43	0	1179648000	7	4042
2026-01-18 14:37:19.40	159.91	25.47	-23.6	-24.7	17.0	0.00e+00	0	43	0	1186988032	7	4070
2026-01-18 14:37:20.41	159.91	25.63	-23.6	-24.7	17.0	0.00e+00	0	43	0	1194328064	7	4078
2026-01-18 14:37:21.41	159.92	25.80	-23.5	-24.5	17.1	0.00e+00	0	43	0	1201668096	7	4040
2026-01-18 14:37:22.42	159.92	25.96	-23.7	-24.9	16.9	0.00e+00	0	43	0	1209008128	7	4132
2026-01-18 14:37:23.42	159.92	26.13	-23.8	-25.1	16.8	0.00e+00	0	43	0	1216348160	7	4179
2026-01-18 14:37:24.42	159.93	26.30	-23.6	-24.6	17.0	0.00e+00	0	43	0	1223688192	7	4062
2026-01-18 14:37:25.43	159.93	26.47	-23.3	-24.2	17.2	0.00e+00	0	43	0	1231028224	7	3961
2026-01-18 14:37:26.43	159.93	26.64	-23.1	-23.7	17.5	0.00e+00	0	43	0	1238368256	7	3844
2026-01-18 14:37:27.44	159.94	26.81	-23.2	-23.8	17.4	0.00e+00	0	43	0	1244659712	7	3879
2026-01-18 14:37:28.44	159.94	26.98	-23.3	-24.0	17.4	0.00e+00	0	43	0	1251999744	7	3923
2026-01-18 14:37:29.45	159.95	27.15	-23.3	-24.1	17.3	0.00e+00	0	43	0	1259339776	7	3928
2026-01-18 14:37:30.46	159.95	27.33	-23.2	-23.7	17.5	0.00e+00	0	43	0	1266679808	7	3854
2026-01-18 14:37:31.46	159.95	27.50	-23.0	-23.4	17.6	0.00e+00	0	43	0	1274019840	7	3781
2026-01-18 14:37:32.47	159.96	27.68	-22.9	-23.2	17.8	0.00e+00	0	43	0	1281359872	7	3729
2026-01-18 14:37:33.47	159.96	27.86	-22.9	-23.2	17.8	0.00e+00	0	43	0	1288699904	7	3722
2026-01-18 14:37:34.47	159.97	28.04	-23.6	-23.9	18.2	0.00e+00	0	43	0	1296039936	7	3748
2026-01-18 14:37:35.47	159.97	28.22	-23.5	-23.8	18.3	0.00e+00	0	43	0	1303379968	7	3715
2026-01-18 14:37:36.47	159.97	28.40	-23.3	-23.3	18.5	0.00e+00	0	43	0	1310720000	7	3614
2026-01-18 14:37:37.46	159.98	28.58	-23.1	-22.9	18.8	0.00e+00	0	43	0	1318060032	7	3511
2026-01-18 14:37:38.47	159.98	28.76	-23.1	-22.9	18.7	0.00e+00	0	43	0	1324351488	7	3524
2026-01-18 14:37:39.47	159.98	28.95	-23.2	-23.1	18.6	0.00e+00	0	43	0	1331691520	7	3563
2026-01-18 14:37:40.47	159.99	29.13	-23.2	-23.1	18.7	0.00e+00	0	43	0	1339031552	7	3550
2026-01-18 14:37:41.48	159.99	29.32	-23.1	-22.9	18.8	0.00e+00	0	43	0	1346371584	7	3516
2026-01-18 14:37:42.47	160.00	29.51	-23.2	-23.1	18.7	0.00e+00	0	43	0	1353711616	7	3562
2026-01-18 14:37:43.47	160.00	29.70	-23.3	-23.3	18.6	0.00e+00	0	43	0	1361051648	7	3615
2026-01-18 14:37:44.48	160.00	29.89	-23.4	-23.5	18.5	0.00e+00	0	43	0	1368391680	7	3642
2026-01-18 14:37:45.48	160.01	30.08	-23.5	-23.8	18.4	0.00e+00	0	43	0	1375731712	7	3707
2026-01-18 14:37:46.48	160.01	30.27	-23.4	-23.5	18.5	0.00e+00	0	43	0	1383071744	7	3654
2026-01-18 14:37:47.49	160.02	30.47	-23.3	-23.3	18.5	0.00e+00	0	43	0	1389363200	7	3610
2026-01-18 14:37:48.50	160.02	30.67	-23.4	-23.6	18.5	0.00e+00	0	43	0	1396703232	7	3669
2026-01-18 14:37:49.50	160.02	30.87	-23.5	-23.7	18.4	0.00e+00	0	43	0	1404043264	7	3683
2026-01-18 14:37:50.50	160.03	31.06	-23.4	-23.5	18.5	0.00e+00	0	43	0	1411383296	7	3648
2026-01-18 14:37:51.51	160.03	31.27	-23.5	-23.7	18.4	0.00e+00	0	43	0	1418723328	7	3680
2026-01-18 14:37:52.51	160.04	31.47	-23.5	-23.7	18.4	0.00e+00	0	43	0	1426063360	7	3696
2026-01-18 14:37:53.52	160.04	31.67	-23.5	-23.6	18.4	0.00e+00	0	43	0	1433403392	7	3678
2026-01-18 14:37:54.52	160.04	31.88	-23.6	-23.9	18.3	0.00e+00	0	43	0	1440743424	7	3742
2026-01-18 14:37:55.52	160.05	32.08	-23.6	-23.9	18.3	0.00e+00	0	43	0	1448083456	7	3745
2026-01-18 14:37:56.52	160.05	32.29	-23.7	-24.2	18.2	0.00e+00	0	43	0	1455423488	7	3806
2026-01-18 14:37:57.52	160.06	32.50	-23.5	-23.8	18.4	0.00e+00	0	43	0	1462763520	7	3708
2026-01-18 14:37:58.52	160.06	32.71	-23.4	-23.5	18.5	0.00e+00	0	43	0	1470103552	7	3651
2026-01-18 14:37:59.52	160.06	32.92	-23.4	-23.5	18.6	0.00e+00	0	43	0	1476395008	7	3640
2026-01-18 14:38:00.53	160.07	33.13	-23.3	-23.3	18.6	0.00e+00	0	43	0	1483735040	7	3606
2026-01-18 14:38:01.54	160.07	33.35	-23.4	-23.4	18.6	0.00e+00	0	43	0	1491075072	7	3630
2026-01-18 14:38:02.55	160.08	33.57	-23.5	-23.6	18.5	0.00e+00	0	43	0	1498415104	7	3670
2026-01-18 14:38:03.55	160.08	33.78	-23.5	-23.6	18.5	0.00e+00	0	43	0	1505755136	7	3676
2026-01-18 14:38:04.55	160.08	34.00	-23.6	-23.8	18.4	0.00e+00	0	43	0	1513095168	7	3719
2026-01-18 14:38:05.56	160.09	34.23	-23.6	-24.0	18.3	0.00e+00	0	43	0	1520435200	7	3758
2026-01-18 14:38:06.56	160.09	34.45	-23.6	-23.9	18.3	0.00e+00	0	43	0	1527775232	7	3734
2026-01-18 14:38:07.56	160.10	34.67	-23.6	-23.9	18.4	0.00e+00	0	43	0	1535115264	7	3730
2026-01-18 14:38:08.56	160.10	34.90	-23.5	-23.7	18.5	0.00e+00	0	43	0	1542455296	7	3688
2026-01-18 14:38:09.56	160.10	35.12	-23.5	-23.6	18.5	0.00e+00	0	43	0	1549795328	7	3674
2026-01-18 14:38:10.57	160.11	35.35	-23.4	-23.5	18.6	0.00e+00	0	43	0	1556086784	7	3643
2026-01-18 14:38:11.57	160.11	35.58	-23.4	-23.5	18.6	0.00e+00	0	43	0	1563426816	7	3655
2026-01-18 14:38:12.58	160.12	35.82	-23.4	-23.4	18.6	0.00e+00	0	43	0	1570766848	7	3630
2026-01-18 14:38:13.58	160.12	36.05	-23.4	-23.5	18.6	0.00e+00	0	43	0	1578106880	7	3641
2026-01-18 14:38:14.58	160.12	36.29	-23.3	-23.3	18.7	0.00e+00	0	43	0	1585446912	7	3596
2026-01-18 14:38:15.58	160.13	36.52	-23.4	-23.6	18.5	0.00e+00	0	43	0	1592786944	7	3673
2026-01-18 14:38:16.59	160.13	36.77	-23.3	-23.2	18.7	0.00e+00	0	43	0	1600126976	7	3583
2026-01-18 14:38:17.60	160.14	37.01	-23.2	-23.1	18.8	0.00e+00	0	43	0	1607467008	7	3570
2026-01-18 14:38:18.60	160.14	37.25	-23.2	-23.2	18.8	0.00e+00	0	43	0	1614807040	7	3570
2026-01-18 14:38:19.60	160.15	37.49	-23.4	-23.5	18.6	0.00e+00	0	43	0	1621098496	7	3639
2026-01-18 14:38:20.60	160.15	37.74	-23.6	-23.9	18.4	0.00e+00	0	43	0	1628438528	7	3738
2026-01-18 14:38:21.60	160.15	37.99	-23.5	-23.8	18.5	0.00e+00	0	43	0	1635778560	7	3709
2026-01-18 14:38:22.61	160.16	38.24	-23.7	-24.0	18.4	0.00e+00	0	43	0	1643118592	7	3768
2026-01-18 14:38:23.62	160.16	38.49	-23.7	-24.2	18.3	0.00e+00	0	43	0	1650458624	7	3807
2026-01-18 14:38:24.62	160.17	38.75	-23.8	-24.3	18.2	0.00e+00	0	43	0	1657798656	7	3832
2026-01-18 14:38:25.62	160.17	39.00	-23.8	-24.3	18.2	0.00e+00	0	43	0	1665138688	7	3815
2026-01-18 14:38:26.62	160.18	39.26	-24.0	-24.8	18.0	0.00e+00	0	43	0	1672478720	7	3937
2026-01-18 14:38:27.63	160.18	39.52	-24.0	-24.3	18.0	0.00e+00	0	43	0	1679818752	8	3724
2026-01-18 14:38:28.62	160.18	39.78	-24.1	-24.5	17.9	0.00e+00	0	43	0	1687158784	8	3763
2026-01-18 14:38:29.63	160.19	40.05	-23.9	-24.0	18.1	0.00e+00	0	43	0	1694498816	8	3663
2026-01-18 14:38:30.63	160.19	40.31	-24.1	-24.5	17.9	0.00e+00	0	43	0	1701838848	8	3768
2026-01-18 14:38:31.64	160.20	40.58	-24.0	-24.2	18.0	0.00e+00	0	43	0	1708130304	8	3705
2026-01-18 14:38:32.64	160.20	40.85	-23.9	-24.2	18.1	0.00e+00	0	43	0	1715470336	8	3694
2026-01-18 14:38:33.64	160.21	41.12	-24.1	-24.4	18.0	0.00e+00	0	43	0	1722810368	8	3751
2026-01-18 14:38:34.65	160.21	41.40	-24.0	-24.2	18.1	0.00e+00	0	43	0	1730150400	8	3696
2026-01-18 14:38:35.65	160.22	41.67	-24.0	-24.2	18.0	0.00e+00	0	43	0	1737490432	8	3707
2026-01-18 14:38:36.65	160.22	41.95	-23.8	-23.9	18.2	0.00e+00	0	43	0	1744830464	8	3621
2026-01-18 14:38:37.65	160.23	42.23	-23.6	-23.4	18.5	0.00e+00	0	43	0	1752170496	8	3531
2026-01-18 14:38:38.66	160.23	42.51	-23.7	-23.5	18.4	0.00e+00	0	43	0	1759510528	8	3548
2026-01-18 14:38:39.67	160.23	42.80	-23.5	-23.2	18.6	0.00e+00	0	43	0	1766850560	8	3485
2026-01-18 14:38:40.67	160.24	43.08	-23.4	-23.0	18.7	0.00e+00	0	43	0	1774190592	8	3440
2026-01-18 14:38:41.66	160.24	43.37	-23.5	-23.2	18.6	0.00e+00	0	43	0	1781530624	8	3478
2026-01-18 14:38:42.67	160.25	43.66	-23.7	-23.7	18.4	0.00e+00	0	43	0	1787822080	8	3590
2026-01-18 14:38:43.68	160.25	43.96	-23.8	-23.7	18.4	0.00e+00	0	43	0	1795162112	8	3594
2026-01-18 14:38:44.68	160.26	44.25	-23.6	-23.4	18.5	0.00e+00	0	43	0	1802502144	8	3511
2026-01-18 14:38:45.69	160.26	44.55	-23.7	-23.6	18.4	0.00e+00	0	43	0	1809842176	8	3557
2026-01-18 14:38:46.70	160.27	44.85	-24.0	-24.2	18.2	0.00e+00	0	43	0	1817182208	8	3690
2026-01-18 14:38:47.70	160.27	45.15	-24.0	-24.3	18.1	0.00e+00	0	43	0	1824522240	8	3727
2026-01-18 14:38:48.71	160.28	45.46	-24.1	-24.5	18.0	0.00e+00	0	43	0	1831862272	8	3766
2026-01-18 14:38:49.70	160.28	45.76	-24.0	-24.3	18.1	0.00e+00	0	43	0	1839202304	8	3716
2026-01-18 14:38:50.71	160.29	46.07	-24.3	-24.9	17.7	0.00e+00	0	43	0	1846542336	8	3867
2026-01-18 14:38:51.70	160.29	46.38	-24.4	-25.1	17.7	0.00e+00	0	43	0	1852833792	8	3891
2026-01-18 14:38:52.70	160.30	46.70	-24.6	-25.0	17.5	0.00e+00	0	43	0	1860173824	9	3783
2026-01-18 14:38:53.70	160.30	47.01	-24.7	-25.3	17.3	0.00e+00	0	43	0	1867513856	9	3841
2026-01-18 14:38:54.70	160.31	47.33	-25.1	-26.0	17.0	0.00e+00	0	43	0	1874853888	9	4019
2026-01-18 14:38:55.70	160.31	47.65	-25.0	-25.3	17.1	0.00e+00	0	43	0	1882193920	10	3736
2026-01-18 14:38:56.70	160.32	47.97	-24.9	-25.1	17.2	0.00e+00	0	44	0	1889533952	10	3686
2026-01-18 14:38:57.71	160.32	48.30	-24.8	-24.8	17.4	0.00e+00	0	43	0	1896873984	10	3638
2026-01-18 14:38:58.71	160.33	48.63	-24.8	-25.0	17.2	0.00e+00	0	43	0	1904214016	10	3668
2026-01-18 14:38:59.72	160.33	48.96	-24.9	-25.2	17.1	0.00e+00	0	43	0	1911554048	10	3712
2026-01-18 14:39:00.71	160.34	49.29	-24.6	-24.6	17.4	0.00e+00	0	43	0	1918894080	10	3582
2026-01-18 14:39:01.72	160.34	49.63	-24.7	-24.8	17.3	0.00e+00	0	43	0	1926234112	10	3620
2026-01-18 14:39:02.72	160.35	49.96	-24.8	-24.9	17.3	0.00e+00	0	43	0	1932525568	10	3655
2026-01-18 14:39:03.73	160.35	50.31	-25.0	-25.5	17.0	0.00e+00	0	43	0	1939865600	10	3777
2026-01-18 14:39:04.74	160.36	50.65	-25.0	-25.3	17.1	0.00e+00	0	43	0	1947205632	10	3748
2026-01-18 14:39:05.74	160.36	51.00	-25.1	-25.6	17.0	0.00e+00	0	43	0	1954545664	10	3814
2026-01-18 14:39:06.74	160.37	51.35	-25.2	-25.9	16.8	0.00e+00	0	43	0	1961885696	10	3874
2026-01-18 14:39:07.74	160.37	51.70	-25.3	-26.1	16.7	0.00e+00	0	43	0	1969225728	10	3923
2026-01-18 14:39:08.75	160.38	52.05	-25.0	-25.4	17.0	0.00e+00	0	43	0	1976565760	10	3772
2026-01-18 14:39:09.75	160.39	52.41	-24.6	-24.6	17.5	0.00e+00	0	43	0	1983905792	10	3573
2026-01-18 14:39:10.74	160.39	52.76	-24.7	-25.1	17.5	0.00e+00	0	43	0	1991245824	9	3806
2026-01-18 14:39:11.74	160.40	53.12	-24.4	-24.6	17.7	0.00e+00	0	43	0	1997537280	9	3678
2026-01-18 14:39:12.74	160.40	53.49	-25.0	-25.8	17.1	0.00e+00	0	43	0	2004877312	9	3953
2026-01-18 14:39:13.74	160.41	53.85	-25.0	-25.8	17.1	0.00e+00	0	43	0	2012217344	9	3957
2026-01-18 14:39:14.74	160.41	54.22	-25.2	-25.9	16.8	0.00e+00	0	43	0	2019557376	10	3886
2026-01-18 14:39:15.74	160.42	54.59	-25.0	-25.4	17.1	0.00e+00	0	43	0	2026897408	10	3772
2026-01-18 14:39:16.74	160.43	54.96	-24.9	-25.1	17.3	0.00e+00	0	43	0	2034237440	10	3685
2026-01-18 14:39:17.75	160.43	55.34	-24.8	-25.0	17.3	0.00e+00	0	43	0	2041577472	10	3670
2026-01-18 14:39:18.76	160.44	55.73	-24.9	-25.1	17.3	0.00e+00	0	43	0	2048917504	10	3690
2026-01-18 14:39:19.76	160.44	56.11	-24.9	-25.2	17.2	0.00e+00	0	43	0	2056257536	10	3718
2026-01-18 14:39:20.76	160.45	56.49	-24.8	-25.1	17.3	0.00e+00	0	43	0	2063597568	10	3687
2026-01-18 14:39:21.76	160.46	56.88	-24.9	-25.1	17.2	0.00e+00	0	43	0	2070937600	10	3679
2026-01-18 14:39:22.77	160.46	57.27	-24.9	-25.1	17.2	0.00e+00	0	43	0	2078277632	10	3699
2026-01-18 14:39:23.77	160.47	57.67	-25.0	-25.4	17.1	0.00e+00	0	43	0	2084569088	10	3763
2026-01-18 14:39:24.77	160.48	58.06	-25.1	-25.6	17.0	0.00e+00	0	43	0	2091909120	10	3814
2026-01-18 14:39:25.77	160.48	58.46	-25.3	-25.6	16.7	0.00e+00	0	43	0	2099249152	11	3694
2026-01-18 14:39:26.77	160.49	58.86	-25.7	-25.9	16.3	0.00e+00	0	43	0	2106589184	12	3683
2026-01-18 14:39:27.77	160.50	59.26	-25.5	-25.4	16.6	0.00e+00	0	43	0	2113929216	12	3557
2026-01-18 14:39:28.76	160.50	59.66	-25.1	-25.1	17.0	0.00e+00	0	43	0	2121269248	11	3606
2026-01-18 14:39:29.77	160.51	60.08	-24.8	-24.9	17.4	0.00e+00	0	43	0	2128609280	10	3645
2026-01-18 14:39:30.77	160.52	60.49	-24.5	-24.3	17.6	0.00e+00	0	43	0	2135949312	10	3519
2026-01-18 14:39:31.78	160.53	60.90	-25.3	-26.0	16.7	0.00e+00	0	43	0	2142240768	10	3907
2026-01-18 14:39:32.78	160.53	61.32	-25.2	-25.8	16.9	0.00e+00	0	43	0	2149580800	10	3859
2026-01-18 14:39:33.79	160.54	61.74	-25.3	-25.9	16.9	0.00e+00	0	44	0	2156920832	10	3887
2026-01-18 14:39:34.78	160.55	62.16	-24.7	-24.7	17.5	0.00e+00	0	43	0	2164260864	10	3608
2026-01-18 14:39:35.79	160.56	62.59	-24.4	-24.6	17.8	0.00e+00	0	43	0	2171600896	9	3672
2026-01-18 14:39:36.79	160.57	63.02	-23.8	-23.9	18.5	0.00e+00	0	43	0	2178940928	8	3612
2026-01-18 14:39:37.79	160.57	63.45	-24.2	-24.6	18.1	0.00e+00	0	43	0	2186280960	8	3767
2026-01-18 14:39:38.79	160.58	63.88	-24.6	-25.5	17.7	0.00e+00	0	43	0	2193620992	8	3983
2026-01-18 14:39:39.80	160.59	64.32	-24.5	-24.7	17.8	0.00e+00	0	43	0	2200961024	9	3709
2026-01-18 14:39:40.80	160.60	64.75	-23.9	-23.6	18.3	0.00e+00	0	43	0	2207252480	9	3477
2026-01-18 14:39:41.80	160.61	65.19	-23.4	-22.9	18.9	0.00e+00	0	43	0	2214592512	8	3418
2026-01-18 14:39:42.79	160.62	65.63	-23.4	-23.6	18.8	0.00e+00	0	43	0	2221932544	7	3657
2026-01-18 14:39:43.80	160.63	66.08	-23.3	-23.2	19.0	0.00e+00	0	43	0	2229272576	7	3582
2026-01-18 14:39:44.80	160.64	66.53	-23.2	-23.1	19.1	0.00e+00	0	43	0	2236612608	7	3558
2026-01-18 14:39:45.81	160.65	66.98	-22.9	-22.5	19.4	0.00e+00	0	43	0	2243952640	7	3430
2026-01-18 14:39:46.81	160.66	67.43	-22.8	-22.8	19.4	0.00e+00	0	43	0	2251292672	6	3590
2026-01-18 14:39:47.82	160.67	67.89	-23.2	-23.5	19.1	0.00e+00	0	43	0	2258632704	6	3751
2026-01-18 14:39:48.82	160.68	68.35	-23.4	-24.0	18.9	0.00e+00	0	43	0	2265972736	6	3848
2026-01-18 14:39:49.82	160.69	68.81	-23.5	-24.2	18.8	0.00e+00	0	43	0	2273312768	6	3908
2026-01-18 14:39:50.82	160.70	69.27	-23.6	-23.9	18.7	0.00e+00	0	43	0	2280652800	7	3732
2026-01-18 14:39:51.83	160.71	69.74	-23.9	-24.5	18.4	0.00e+00	0	43	0	2287992832	7	3875
2026-01-18 14:39:52.84	160.73	70.21	-23.3	-22.8	18.5	0.00e+00	0	43	0	2294284288	8	3393
2026-01-18 14:39:53.84	160.74	70.68	-23.5	-23.7	18.8	0.00e+00	0	43	0	2301624320	7	3672
2026-01-18 14:39:54.84	160.75	71.15	-23.7	-24.1	18.6	0.00e+00	0	44	0	2308964352	7	3781
2026-01-18 14:39:55.84	160.77	71.62	-23.9	-24.5	18.4	0.00e+00	0	43	0	2316304384	7	3855
2026-01-18 14:39:56.84	160.78	72.10	-24.0	-24.2	18.3	0.00e+00	0	43	0	2323644416	8	3682
2026-01-18 14:39:57.85	160.80	72.58	-24.2	-24.7	17.9	0.00e+00	0	43	0	2330984448	8	3801
2026-01-18 14:39:58.85	160.81	73.06	-24.0	-24.3	18.3	0.00e+00	0	43	0	2338324480	8	3726
2026-01-18 14:39:59.86	160.83	73.54	-23.7	-23.7	18.6	0.00e+00	0	43	0	2345664512	8	3576
2026-01-18 14:40:00.85	160.85	74.02	-23.6	-23.4	18.8	0.00e+00	0	43	0	2351955968	8	3514
2026-01-18 14:40:01.86	160.87	74.51	-23.8	-23.7	18.6	0.00e+00	0	43	0	2360344576	8	3585
2026-01-18 14:40:02.85	160.89	74.99	-23.4	-23.0	18.9	0.00e+00	0	43	0	2366636032	8	3437
2026-01-18 14:40:03.86	160.91	75.49	-23.9	-24.5	18.5	0.00e+00	0	43	0	2373976064	7	3860
2026-01-18 14:40:04.86	160.93	75.98	-23.6	-23.8	18.7	0.00e+00	0	43	0	2381316096	7	3720
2026-01-18 14:40:05.87	160.95	76.48	-22.7	-22.6	19.7	0.00e+00	0	43	0	2388656128	6	3543
2026-01-18 14:40:06.88	160.98	76.97	-22.4	-21.9	20.0	0.00e+00	0	43	0	2395996160	6	3408
2026-01-18 14:40:07.88	161.00	77.47	-22.7	-23.0	19.7	0.00e+00	0	43	0	2403336192	5	3729
2026-01-18 14:40:08.89	161.03	77.97	-22.7	-23.0	19.7	0.00e+00	0	43	0	2410676224	5	3726
2026-01-18 14:40:09.90	161.06	78.47	-22.5	-22.7	19.8	0.00e+00	0	44	0	2418016256	5	3676
2026-01-18 14:40:10.90	161.10	78.97	-22.1	-21.8	20.3	0.00e+00	0	43	0	2425356288	5	3470
2026-01-18 14:40:11.90	161.13	79.48	-21.8	-21.6	20.6	0.00e+00	0	43	0	2432696320	4	3535
2026-01-18 14:40:12.90	161.17	79.98	-21.7	-21.5	20.6	0.00e+00	0	43	0	2438987776	4	3517
2026-01-18 14:40:13.90	161.22	80.48	-21.8	-21.6	20.6	0.00e+00	0	43	0	2446327808	4	3528
2026-01-18 14:40:14.89	161.26	80.98	-21.8	-21.7	20.6	0.00e+00	0	43	0	2453667840	4	3543
2026-01-18 14:40:15.90	161.32	81.49	-21.9	-21.8	20.5	0.00e+00	0	44	0	2461007872	4	3584
2026-01-18 14:40:16.89	161.37	82.00	-22.1	-22.2	20.3	0.00e+00	0	43	0	2468347904	4	3660
2026-01-18 14:40:17.89	161.44	82.51	-22.1	-22.3	20.2	0.00e+00	0	43	0	2475687936	4	3683
2026-01-18 14:40:18.90	161.52	83.02	-22.2	-22.6	20.1	0.00e+00	0	44	0	2483027968	4	3746
2026-01-18 14:40:19.89	161.61	83.53	-22.7	-23.0	19.7	0.00e+00	0	44	0	2490368000	5	3726
2026-01-18 14:40:20.89	161.71	84.04	-23.0	-23.6	19.4	0.00e+00	0	43	0	2496659456	5	3860
2026-01-18 14:40:21.89	161.83	84.55	-23.4	-24.1	18.9	0.00e+00	0	43	0	2503999488	6	3883
2026-01-18 14:40:22.90	161.98	85.07	-23.4	-24.0	19.0	0.00e+00	0	43	0	2511339520	6	3842
2026-01-18 14:40:23.90	162.16	85.58	-23.7	-24.0	18.8	0.00e+00	0	43	0	2518679552	7	3744
2026-01-18 14:40:24.91	162.38	86.10	-24.3	-24.9	18.1	0.00e+00	0	43	0	2526019584	8	3846
2026-01-18 14:40:25.91	162.68	86.61	-24.5	-25.3	17.9	0.00e+00	0	43	0	2533359616	8	3950
2026-01-18 14:40:26.91	163.08	87.13	-24.5	-24.7	17.9	0.00e+00	0	43	0	2540699648	9	3707
2026-01-18 14:40:27.91	163.65	87.64	-24.5	-24.8	17.9	0.00e+00	0	43	0	2548039680	9	3732
2026-01-18 14:40:28.91	164.53	88.16	-24.5	-24.7	17.9	0.00e+00	0	43	0	2555379712	9	3695
2026-01-18 14:40:29.92	166.13	88.68	-24.3	-24.4	18.0	0.00e+00	0	44	0	2562719744	9	3629
2026-01-18 14:40:30.93	169.76	89.19	-24.4	-24.6	18.0	0.00e+00	0	43	0	2570059776	9	3659
2026-01-18 14:40:31.94	185.72	89.69	-24.5	-24.7	17.9	0.00e+00	0	43	0	2577399808	9	3702
2026-01-18 14:40:32.94	312.09	89.73	-23.4	-23.0	19.0	0.00e+00	0	43	0	2583691264	8	3432
2026-01-18 14:40:33.95	330.83	89.23	-29.2	-30.5	12.5	0.00e+00	0	44	0	2591031296	18	4191
2026-01-18 14:40:34.94	334.68	88.72	-33.8	-40.7	4.2	7.61e-01	0	44	0	2596274176	27	7906
2026-01-18 14:40:35.95	336.37	88.20	-34.3	-43.8	3.8	8.46e-01	0	43	104	2596274176	28	10817
2026-01-18 14:40:36.95	337.30	87.69	-33.9	-41.3	3.8	8.45e-01	0	43	104	2596274176	28	8383
2026-01-18 14:40:37.96	337.90	87.17	-34.2	-43.1	3.8	8.46e-01	0	43	104	2596274176	28	9958
2026-01-18 14:40:38.95	338.30	86.66	-34.2	-42.7	3.8	8.45e-01	0	43	104	2596274176	28	9621
2026-01-18 14:40:39.96	338.61	86.14	-34.3	-44.0	3.8	8.45e-01	0	44	104	2596274176	28	10985
2026-01-18 14:40:40.96	338.84	85.63	-34.3	-43.6	3.8	8.45e-01	0	44	104	2596274176	28	10490
2026-01-18 14:40:41.96	339.02	85.11	-34.3	-44.0	3.8	8.47e-01	0	43	104	2596274176	28	10957
2026-01-18 14:40:42.96	339.17	84.60	-34.3	-43.7	3.8	8.45e-01	0	43	104	2596274176	28	10662
2026-01-18 14:40:43.96	339.29	84.09	-34.3	-44.1	3.8	8.47e-01	0	44	104	2596274176	28	11008
2026-01-18 14:40:44.97	339.40	83.57	-34.3	-44.0	3.8	8.46e-01	0	44	104	2596274176	28	10959
2026-01-18 14:40:45.97	339.49	83.06	-34.3	-44.0	3.8	8.45e-01	0	43	104	2596274176	28	10904
2026-01-18 14:40:46.97	339.56	82.55	-34.3	-44.0	3.8	8.47e-01	0	44	104	2596274176	28	10928
2026-01-18 14:40:47.97	339.63	82.05	-34.3	-44.0	3.8	8.47e-01	0	43	104	2596274176	28	10993
2026-01-18 14:40:48.96	339.69	81.54	-34.3	-44.0	3.8	8.47e-01	0	44	104	2596274176	28	10986
2026-01-18 14:40:49.96	339.74	81.04	-34.3	-44.0	3.8	8.45e-01	0	43	104	2596274176	28	10944
2026-01-18 14:40:50.97	339.79	80.53	-34.3	-44.0	3.8	8.46e-01	0	44	104	2596274176	28	10978
2026-01-18 14:40:51.97	339.84	80.02	-34.3	-44.0	3.8	8.45e-01	0	44	104	2596274176	28	10999
2026-01-18 14:40:52.97	339.88	79.52	-34.3	-44.0	3.8	8.46e-01	0	44	104	2596274176	28	11014
2026-01-18 14:40:53.98	339.91	79.02	-34.3	-44.0	3.8	8.47e-01	0	44	104	2596274176	28	10964
2026-01-18 14:40:54.97	339.95	78.52	-34.3	-44.0	3.8	8.45e-01	0	44	104	2596274176	28	10983
2026-01-18 14:40:55.98	339.98	78.02	-34.3	-44.0	3.8	8.46e-01	0	43	104	2596274176	28	10982
2026-01-18 14:40:56.98	340.01	77.52	-34.3	-44.0	3.8	8.46e-01	0	44	104	2596274176	28	10970
2026-01-18 14:40:57.98	340.03	77.03	-34.3	-44.0	3.8	8.45e-01	0	43	104	2596274176	28	10981
2026-01-18 14:40:58.99	340.06	76.53	-34.3	-44.0	3.8	8.46e-01	0	44	104	2596274176	28	10999
2026-01-18 14:40:59.98	340.08	76.04	-34.3	-44.0	3.8	8.46e-01	0	43	104	2596274176	28	11021
2026-01-18 14:41:00.99	340.10	75.55	-34.3	-44.1	3.8	8.46e-01	0	43	104	2596274176	28	11057
2026-01-18 14:41:01.99	340.12	75.06	-34.3	-44.1	3.8	8.46e-01	0	43	104	2596274176	28	11062
2026-01-18 14:41:02.99	340.14	74.57	-34.3	-44.0	3.8	8.46e-01	0	44	104	2596274176	28	11012
2026-01-18 14:41:04.00	340.16	74.08	-34.3	-44.0	3.8	8.46e-01	0	43	104	2596274176	28	11038
2026-01-18 14:41:05.00	340.18	73.60	-34.3	-44.0	3.8	8.46e-01	0	44	104	2596274176	28	11053
2026-01-18 14:41:06.00	340.20	73.12	-34.3	-44.0	3.8	8.46e-01	0	44	104	2596274176	28	10973
2026-01-18 14:41:07.01	340.21	72.64	-34.3	-44.0	3.8	8.45e-01	0	44	104	2596274176	28	11029
2026-01-18 14:41:08.01	340.23	72.16	-34.3	-44.0	3.8	8.46e-01	0	43	104	2596274176	28	11026
2026-01-18 14:41:09.01	340.24	71.69	-34.3	-44.0	3.8	8.47e-01	0	44	104	2596274176	28	11030
2026-01-18 14:41:10.02	340.26	71.21	-34.3	-44.1	3.8	8.46e-01	0	44	104	2596274176	28	11096
2026-01-18 14:41:11.02	340.27	70.74	-34.3	-44.0	3.8	8.46e-01	0	44	104	2596274176	28	11039
2026-01-18 14:41:12.02	340.28	70.27	-34.3	-44.1	3.8	8.46e-01	0	44	104	2596274176	28	11080
2026-01-18 14:41:13.02	340.30	69.81	-34.3	-44.0	3.8	8.47e-01	0	44	104	2596274176	28	11029
2026-01-18 14:41:14.02	340.31	69.34	-34.3	-44.0	3.8	8.46e-01	0	44	104	2596274176	28	11021
2026-01-18 14:41:15.03	340.32	68.88	-34.3	-44.0	3.8	8.46e-01	0	43	104	2596274176	28	11006
2026-01-18 14:41:16.04	340.33	68.41	-34.3	-44.0	3.8	8.46e-01	0	44	104	2596274176	28	11002
2026-01-18 14:41:17.04	340.34	67.96	-34.3	-43.9	3.8	8.47e-01	0	44	104	2596274176	28	10950
2026-01-18 14:41:18.04	340.35	67.50	-34.3	-44.0	3.8	8.46e-01	0	43	104	2596274176	28	11013
2026-01-18 14:41:19.05	340.37	67.05	-34.3	-43.9	3.8	8.45e-01	0	44	104	2596274176	28	10977
2026-01-18 14:41:20.04	340.38	66.60	-34.3	-44.0	3.8	8.46e-01	0	44	104	2596274176	28	10998
2026-01-18 14:41:21.05	340.39	66.15	-34.3	-44.0	3.8	8.45e-01	0	44	104	2596274176	28	10988
2026-01-18 14:41:22.05	340.40	65.71	-34.3	-44.0	3.8	8.47e-01	0	44	104	2596274176	28	11015
2026-01-18 14:41:23.06	340.40	65.26	-34.3	-43.9	3.8	8.46e-01	0	44	104	2596274176	28	10981
2026-01-18 14:41:24.06	340.41	64.82	-34.3	-44.0	3.8	8.46e-01	0	44	104	2596274176	28	11021
2026-01-18 14:41:25.06	340.42	64.39	-34.3	-43.9	3.8	8.45e-01	0	44	104	2596274176	28	10976
2026-01-18 14:41:26.07	340.43	63.95	-34.3	-43.9	3.8	8.45e-01	0	44	104	2596274176	28	10961
2026-01-18 14:41:27.07	340.44	63.52	-34.3	-43.9	3.8	8.46e-01	0	44	104	2596274176	28	10932
2026-01-18 14:41:28.08	340.45	63.08	-34.3	-44.0	3.8	8.46e-01	0	44	104	2596274176	28	11004
2026-01-18 14:41:29.08	340.46	62.66	-34.3	-43.9	3.8	8.47e-01	0	44	104	2596274176	28	10895
2026-01-18 14:41:30.09	340.47	62.23	-34.3	-43.9	3.8	8.46e-01	0	44	104	2596274176	28	10965
2026-01-18 14:41:31.09	340.47	61.81	-34.3	-43.9	3.8	8.45e-01	0	44	104	2596274176	28	10991
2026-01-18 14:41:32.10	340.48	61.39	-34.3	-43.9	3.8	8.47e-01	0	44	104	2596274176	28	10943
2026-01-18 14:41:33.09	340.49	60.98	-34.3	-43.9	3.8	8.46e-01	0	44	104	2596274176	28	10956
2026-01-18 14:41:34.10	340.50	60.56	-34.2	-43.9	3.8	8.46e-01	0	44	104	2596274176	28	10966
2026-01-18 14:41:35.10	340.50	60.15	-34.2	-43.9	3.8	8.45e-01	0	44	104	2596274176	28	10953
2026-01-18 14:41:36.11	340.51	59.74	-34.2	-43.9	3.8	8.45e-01	0	44	104	2596274176	28	10941
2026-01-18 14:41:37.11	340.52	59.33	-34.2	-43.9	3.8	8.46e-01	0	43	104	2596274176	28	10944
2026-01-18 14:41:38.11	340.53	58.93	-34.2	-43.9	3.8	8.46e-01	0	44	104	2596274176	28	10916
2026-01-18 14:41:39.12	340.53	58.53	-34.2	-43.9	3.8	8.45e-01	0	43	104	2596274176	28	10932
2026-01-18 14:41:40.13	340.54	58.13	-34.2	-43.9	3.8	8.46e-01	0	43	104	2596274176	28	10905
2026-01-18 14:41:41.14	340.55	57.73	-34.2	-43.8	3.8	8.46e-01	0	44	104	2596274176	28	10874
2026-01-18 14:41:42.14	340.55	57.34	-34.2	-43.8	3.8	8.47e-01	0	44	104	2596274176	28	10852
2026-01-18 14:41:43.14	340.56	56.95	-34.2	-43.8	3.8	8.45e-01	0	43	104	2596274176	28	10908
2026-01-18 14:41:44.14	340.57	56.56	-34.2	-43.8	3.8	8.45e-01	0	43	104	2596274176	28	10914
2026-01-18 14:41:45.16	340.57	56.17	-34.2	-43.8	3.8	8.46e-01	0	44	104	2596274176	28	10881
2026-01-18 14:41:46.16	340.58	55.79	-34.2	-43.8	3.8	8.46e-01	0	44	104	2596274176	28	10901
2026-01-18 14:41:47.17	340.59	55.41	-34.2	-43.8	3.8	8.46e-01	0	43	104	2596274176	28	10865
2026-01-18 14:41:48.17	340.59	55.03	-34.2	-43.8	3.8	8.46e-01	0	43	104	2596274176	28	10844
2026-01-18 14:41:49.19	340.60	54.65	-34.2	-43.8	3.8	8.46e-01	0	44	104	2596274176	28	10839
2026-01-18 14:41:50.18	340.60	54.29	-34.2	-43.8	3.8	8.45e-01	0	44	104	2596274176	28	10859
2026-01-18 14:41:51.18	340.61	53.92	-34.2	-43.8	3.8	8.47e-01	0	44	104	2596274176	28	10857
2026-01-18 14:41:52.19	340.62	53.55	-34.2	-43.7	3.8	8.45e-01	0	44	104	2596274176	28	10842
2026-01-18 14:41:53.20	340.62	53.18	-34.2	-43.7	3.8	8.46e-01	0	44	104	2596274176	28	10826
2026-01-18 14:41:54.20	340.63	52.83	-34.2	-43.8	3.8	8.45e-01	0	44	104	2596274176	28	10886
2026-01-18 14:41:55.21	340.63	52.46	-34.1	-43.7	3.8	8.46e-01	0	44	104	2596274176	28	10776
2026-01-18 14:41:56.21	340.64	52.11	-34.1	-43.7	3.8	8.46e-01	0	43	104	2596274176	28	10830
2026-01-18 14:41:57.22	340.65	51.76	-34.2	-43.7	3.8	8.46e-01	0	44	104	2596274176	28	10793
2026-01-18 14:41:58.22	340.65	51.41	-34.1	-43.7	3.8	8.47e-01	0	43	104	2596274176	28	10807
2026-01-18 14:41:59.23	340.66	51.06	-34.1	-43.7	3.8	8.47e-01	0	44	104	2596274176	28	10802
2026-01-18 14:42:00.23	340.66	50.71	-34.1	-43.7	3.8	8.46e-01	0	44	104	2596274176	28	10860
2026-01-18 14:42:01.24	340.67	50.37	-34.1	-43.7	3.8	8.46e-01	0	44	104	2596274176	28	10834
2026-01-18 14:42:02.24	340.67	50.03	-34.1	-43.7	3.8	8.45e-01	0	44	104	2596274176	28	10837
2026-01-18 14:42:03.24	340.68	49.69	-34.1	-43.6	3.8	8.46e-01	0	44	104	2596274176	28	10741
2026-01-18 14:42:04.25	340.69	49.36	-34.1	-43.7	3.8	8.45e-01	0	44	104	2596274176	28	10828
2026-01-18 14:42:05.25	340.69	49.02	-34.1	-43.6	3.8	8.46e-01	0	44	104	2596274176	28	10764
2026-01-18 14:42:06.25	340.70	48.69	-34.1	-43.6	3.8	8.45e-01	0	44	104	2596274176	28	10801
2026-01-18 14:42:07.26	340.70	48.37	-34.1	-43.5	3.8	8.46e-01	0	44	104	2596274176	28	10706
2026-01-18 14:42:08.26	340.71	48.04	-34.1	-43.6	3.8	8.47e-01	0	44	104	2596274176	28	10731
2026-01-18 14:42:09.27	340.71	47.72	-34.1	-43.6	3.8	8.46e-01	0	44	104	2596274176	28	10739
2026-01-18 14:42:10.28	340.72	47.39	-34.1	-43.6	3.8	8.46e-01	0	44	104	2596274176	28	10768
2026-01-18 14:42:11.28	340.72	47.08	-34.1	-43.6	3.8	8.47e-01	0	44	104	2596274176	28	10782
2026-01-18 14:42:12.29	340.73	46.76	-34.1	-43.6	3.8	8.46e-01	0	43	104	2596274176	28	10720
2026-01-18 14:42:13.29	340.73	46.45	-34.1	-43.6	3.8	8.47e-01	0	44	104	2596274176	28	10734
2026-01-18 14:42:14.29	340.74	46.14	-34.1	-43.6	3.8	8.46e-01	0	43	104	2596274176	28	10752
2026-01-18 14:42:15.29	340.74	45.83	-34.1	-43.6	3.8	8.47e-01	0	44	104	2596274176	28	10733
2026-01-18 14:42:16.29	340.75	45.53	-34.1	-43.6	3.8	8.45e-01	0	44	104	2596274176	28	10738
2026-01-18 14:42:17.29	340.75	45.22	-34.1	-43.6	3.8	8.45e-01	0	44	104	2596274176	28	10731
2026-01-18 14:42:18.30	340.76	44.92	-34.1	-43.6	3.8	8.46e-01	0	44	104	2596274176	28	10747
2026-01-18 14:42:19.30	340.76	44.62	-34.1	-43.6	3.8	8.47e-01	0	44	104	2596274176	28	10741
2026-01-18 14:42:20.31	340.77	44.32	-34.1	-43.6	3.8	8.46e-01	0	44	104	2596274176	28	10735
2026-01-18 14:42:21.32	340.77	44.03	-34.1	-43.5	3.8	8.46e-01	0	44	104	2596274176	28	10704
2026-01-18 14:42:22.33	340.78	43.73	-34.1	-43.5	3.8	8.46e-01	0	44	104	2596274176	28	10700
2026-01-18 14:42:23.33	340.78	43.44	-34.1	-43.5	3.8	8.45e-01	0	44	104	2596274176	28	10646
2026-01-18 14:42:24.33	340.79	43.16	-34.1	-43.5	3.8	8.46e-01	0	44	104	2596274176	28	10699
2026-01-18 14:42:25.33	340.79	42.87	-34.1	-43.5	3.8	8.45e-01	0	44	104	2596274176	28	10705
2026-01-18 14:42:26.33	340.80	42.59	-34.1	-43.5	3.8	8.46e-01	0	44	104	2596274176	28	10655
2026-01-18 14:42:27.33	340.80	42.31	-34.1	-43.5	3.8	8.46e-01	0	44	104	2596274176	28	10657
2026-01-18 14:42:28.33	340.81	42.03	-34.1	-43.5	3.8	8.44e-01	0	44	104	2596274176	28	10736
2026-01-18 14:42:29.33	340.81	41.75	-34.1	-43.5	3.8	8.46e-01	0	44	104	2596274176	28	10672
2026-01-18 14:42:30.34	340.82	41.48	-34.0	-43.5	3.8	8.46e-01	0	44	104	2596274176	28	10697
2026-01-18 14:42:31.34	340.82	41.21	-34.1	-43.5	3.8	8.46e-01	0	44	104	2596274176	28	10665
2026-01-18 14:42:32.34	340.83	40.93	-34.0	-43.5	3.8	8.46e-01	0	44	104	2596274176	28	10668
2026-01-18 14:42:33.35	340.83	40.66	-34.0	-43.4	3.8	8.46e-01	0	44	104	2596274176	28	10581
2026-01-18 14:42:34.35	340.84	40.40	-34.0	-43.5	3.8	8.47e-01	0	44	104	2596274176	28	10658
2026-01-18 14:42:35.35	340.84	40.13	-34.0	-43.5	3.8	8.46e-01	0	44	104	2596274176	28	10649
2026-01-18 14:42:36.35	340.85	39.87	-34.0	-43.5	3.8	8.45e-01	0	44	104	2596274176	28	10662
2026-01-18 14:42:37.36	340.85	39.61	-34.0	-43.4	3.8	8.47e-01	0	44	104	2596274176	28	10657
2026-01-18 14:42:38.37	340.86	39.35	-34.0	-43.4	3.8	8.47e-01	0	43	104	2596274176	28	10634
2026-01-18 14:42:39.37	340.86	39.09	-34.0	-43.4	3.8	8.45e-01	0	44	104	2596274176	28	10640
2026-01-18 14:42:40.37	340.87	38.84	-34.0	-43.4	3.8	8.45e-01	0	44	104	2596274176	28	10602
2026-01-18 14:42:41.37	340.87	38.59	-34.0	-43.4	3.8	8.46e-01	0	44	104	2596274176	28	10656
2026-01-18 14:42:42.38	340.88	38.33	-34.0	-43.4	3.8	8.46e-01	0	44	104	2596274176	28	10624
2026-01-18 14:42:43.38	340.88	38.08	-34.0	-43.4	3.8	8.45e-01	0	43	104	2596274176	28	10638
2026-01-18 14:42:44.38	340.88	37.84	-34.0	-43.4	3.8	8.46e-01	0	44	104	2596274176	28	10636
2026-01-18 14:42:45.38	340.89	37.59	-34.0	-43.4	3.8	8.47e-01	0	44	104	2596274176	28	10596
2026-01-18 14:42:46.39	340.89	37.35	-34.0	-43.4	3.8	8.47e-01	0	44	104	2596274176	28	10623
2026-01-18 14:42:47.39	340.90	37.10	-34.0	-43.3	3.8	8.47e-01	0	44	104	2596274176	28	10553
2026-01-18 14:42:48.40	340.90	36.86	-34.0	-43.4	3.8	8.44e-01	0	44	104	2596274176	28	10607
2026-01-18 14:42:49.40	340.91	36.62	-34.0	-43.3	3.8	8.46e-01	0	44	104	2596274176	28	10579
2026-01-18 14:42:50.40	340.91	36.39	-34.0	-43.4	3.8	8.46e-01	0	44	104	2596274176	28	10623
2026-01-18 14:42:51.41	340.92	36.15	-34.0	-43.3	3.8	8.47e-01	0	44	104	2596274176	28	10559
2026-01-18 14:42:52.42	340.92	35.92	-34.0	-43.3	3.8	8.46e-01	0	44	104	2596274176	28	10582
2026-01-18 14:42:53.41	340.93	35.69	-33.9	-43.3	3.8	8.45e-01	0	43	104	2596274176	28	10564
2026-01-18 14:42:54.42	340.93	35.46	-34.0	-43.3	3.8	8.46e-01	0	44	104	2596274176	28	10538
2026-01-18 14:42:55.43	340.93	35.23	-34.0	-43.3	3.8	8.47e-01	0	44	104	2596274176	28	10574
2026-01-18 14:42:56.42	340.94	35.00	-33.9	-43.3	3.8	8.46e-01	0	44	104	2596274176	28	10566
2026-01-18 14:42:57.43	340.94	34.77	-33.9	-43.3	3.8	8.47e-01	0	43	104	2596274176	28	10583
2026-01-18 14:42:58.43	340.95	34.55	-33.9	-43.2	3.8	8.46e-01	0	44	104	2596274176	28	10495
2026-01-18 14:42:59.43	340.95	34.33	-33.9	-43.3	3.8	8.46e-01	0	44	104	2596274176	28	10520
2026-01-18 14:43:00.43	340.96	34.11	-33.9	-43.2	3.8	8.47e-01	0	44	104	2596274176	28	10511
2026-01-18 14:43:01.44	340.96	33.89	-33.9	-43.3	3.8	8.46e-01	0	44	104	2596274176	28	10595
2026-01-18 14:43:02.44	340.97	33.67	-33.9	-43.2	3.8	8.45e-01	0	44	104	2596274176	28	10485
2026-01-18 14:43:03.44	340.97	33.46	-33.9	-43.2	3.8	8.45e-01	0	44	104	2596274176	28	10512
2026-01-18 14:43:04.44	340.98	33.24	-33.9	-43.2	3.8	8.45e-01	0	43	104	2596274176	28	10523
2026-01-18 14:43:05.45	340.98	33.03	-33.9	-43.2	3.8	8.46e-01	0	44	104	2596274176	28	10513
2026-01-18 14:43:06.45	340.98	32.82	-33.9	-43.2	3.8	8.46e-01	0	44	104	2596274176	28	10507
2026-01-18 14:43:07.45	340.99	32.61	-33.9	-43.2	3.8	8.45e-01	0	44	104	2596274176	28	10558
2026-01-18 14:43:08.45	340.99	32.40	-33.9	-43.2	3.8	8.47e-01	0	44	104	2596274176	28	10475
2026-01-18 14:43:09.46	341.00	32.19	-33.9	-43.2	3.8	8.45e-01	0	44	104	2596274176	28	10499
2026-01-18 14:43:10.47	341.00	31.99	-33.9	-43.2	3.8	8.47e-01	0	44	104	2596274176	28	10491
2026-01-18 14:43:11.48	341.01	31.78	-33.9	-43.2	3.8	8.45e-01	0	44	104	2596274176	28	10480
2026-01-18 14:43:12.48	341.01	31.58	-33.9	-43.2	3.8	8.46e-01	0	44	104	2596274176	28	10480
2026-01-18 14:43:13.48	341.02	31.38	-33.9	-43.2	3.8	8.46e-01	0	44	104	2596274176	28	10488
2026-01-18 14:43:14.48	341.02	31.18	-33.9	-43.2	3.8	8.45e-01	0	44	104	2596274176	28	10491
2026-01-18 14:43:15.48	341.02	30.98	-33.9	-43.1	3.8	8.47e-01	0	44	104	2596274176	28	10461
2026-01-18 14:43:16.49	341.03	30.78	-33.9	-43.2	3.8	8.46e-01	0	44	104	2596274176	28	10466
2026-01-18 14:43:17.49	341.03	30.59	-33.9	-43.2	3.8	8.44e-01	0	44	104	2596274176	28	10496
2026-01-18 14:43:18.49	341.04	30.40	-33.9	-43.2	3.8	8.47e-01	0	44	104	2596274176	28	10487
2026-01-18 14:43:19.49	341.04	30.20	-33.9	-43.2	3.8	8.47e-01	0	44	104	2596274176	28	10473
2026-01-18 14:43:20.49	341.05	30.01	-33.9	-43.1	3.8	8.47e-01	0	44	104	2596274176	28	10457
2026-01-18 14:43:21.50	341.05	29.82	-33.9	-43.2	3.8	8.47e-01	0	44	104	2596274176	28	10482
2026-01-18 14:43:22.50	341.05	29.63	-33.9	-43.1	3.8	8.45e-01	0	44	104	2596274176	28	10445
2026-01-18 14:43:23.51	341.06	29.44	-33.9	-43.1	3.8	8.45e-01	0	44	104	2596274176	28	10466
2026-01-18 14:43:24.52	341.06	29.25	-33.9	-43.2	3.8	8.46e-01	0	44	104	2596274176	28	10493
2026-01-18 14:43:25.51	341.07	29.07	-33.9	-43.1	3.8	8.46e-01	0	44	104	2596274176	28	10476
2026-01-18 14:43:26.52	341.07	28.88	-33.9	-43.1	3.8	8.45e-01	0	44	104	2596274176	28	10437
2026-01-18 14:43:27.53	341.08	28.70	-33.9	-43.1	3.8	8.46e-01	0	44	104	2596274176	28	10424
2026-01-18 14:43:28.53	341.08	28.52	-33.9	-43.1	3.8	8.46e-01	0	44	104	2596274176	28	10462
2026-01-18 14:43:29.53	341.08	28.34	-33.9	-43.1	3.8	8.46e-01	0	44	104	2596274176	28	10434
2026-01-18 14:43:30.53	341.09	28.16	-33.9	-43.1	3.8	8.46e-01	0	44	104	2596274176	28	10420
2026-01-18 14:43:31.53	341.09	27.98	-33.8	-43.1	3.8	8.47e-01	0	44	104	2596274176	28	10416
2026-01-18 14:43:32.54	341.10	27.80	-33.8	-43.1	3.8	8.45e-01	0	44	104	2596274176	28	10434
2026-01-18 14:43:33.54	341.10	27.63	-33.8	-43.0	3.8	8.46e-01	0	44	104	2596274176	28	10378
2026-01-18 14:43:34.54	341.11	27.45	-33.8	-43.1	3.8	8.46e-01	0	44	104	2596274176	28	10420
2026-01-18 14:43:35.54	341.11	27.28	-33.8	-43.1	3.8	8.46e-01	0	44	104	2596274176	28	10417
2026-01-18 14:43:36.55	341.12	27.11	-33.8	-43.1	3.8	8.47e-01	0	44	104	2596274176	28	10436
2026-01-18 14:43:37.55	341.12	26.93	-33.8	-43.0	3.8	8.45e-01	0	44	104	2596274176	28	10404
2026-01-18 14:43:38.56	341.12	26.76	-33.8	-43.0	3.8	8.46e-01	0	44	104	2596274176	28	10385
2026-01-18 14:43:39.55	341.13	26.60	-33.8	-43.0	3.8	8.46e-01	0	44	104	2596274176	28	10419
2026-01-18 14:43:40.56	341.13	26.43	-33.8	-43.0	3.8	8.45e-01	0	44	104	2596274176	28	10389
2026-01-18 14:43:41.56	341.14	26.26	-33.8	-43.0	3.8	8.47e-01	0	44	104	2596274176	28	10359
2026-01-18 14:43:42.57	341.14	26.09	-33.8	-43.0	3.8	8.47e-01	0	44	104	2596274176	28	10347
2026-01-18 14:43:43.57	341.15	25.93	-33.8	-43.0	3.8	8.46e-01	0	44	104	2596274176	28	10343
2026-01-18 14:43:44.56	341.15	25.76	-33.8	-43.0	3.8	8.46e-01	0	44	104	2596274176	28	10367
2026-01-18 14:43:45.56	341.15	25.60	-33.8	-43.0	3.8	8.46e-01	0	44	104	2596274176	28	10378
2026-01-18 14:43:46.57	341.16	25.44	-33.8	-43.0	3.8	8.46e-01	0	44	104	2596274176	28	10384
2026-01-18 14:43:47.57	341.16	25.28	-33.8	-42.9	3.8	8.47e-01	0	44	104	2596274176	28	10343
2026-01-18 14:43:48.56	341.17	25.12	-33.8	-42.9	3.8	8.45e-01	0	44	104	2596274176	28	10347
2026-01-18 14:43:49.57	341.17	24.96	-33.8	-42.9	3.8	8.47e-01	0	44	104	2596274176	28	10333
2026-01-18 14:43:50.57	341.17	24.80	-33.7	-42.9	3.8	8.47e-01	0	44	104	2596274176	28	10326
2026-01-18 14:43:51.57	341.18	24.64	-33.7	-42.9	3.8	8.45e-01	0	44	104	2596274176	28	10342
2026-01-18 14:43:52.57	341.18	24.49	-33.7	-42.9	3.8	8.46e-01	0	44	104	2596274176	28	10285
2026-01-18 14:43:53.58	341.19	24.33	-33.7	-42.9	3.8	8.46e-01	0	44	104	2596274176	28	10330
2026-01-18 14:43:54.58	341.19	24.18	-33.7	-42.9	3.8	8.46e-01	0	44	104	2596274176	28	10311
2026-01-18 14:43:55.59	341.20	24.02	-33.7	-42.9	3.8	8.47e-01	0	44	104	2596274176	28	10349
2026-01-18 14:43:56.59	341.20	23.87	-33.7	-42.8	3.8	8.47e-01	0	44	104	2596274176	28	10282
2026-01-18 14:43:57.60	341.20	23.72	-33.7	-42.9	3.8	8.45e-01	0	44	104	2596274176	28	10341
2026-01-18 14:43:58.59	341.21	23.57	-33.7	-42.8	3.8	8.48e-01	0	44	104	2596274176	28	10298
2026-01-18 14:43:59.60	341.21	23.42	-33.7	-42.9	3.8	8.45e-01	0	44	104	2596274176	28	10334
2026-01-18 14:44:00.61	341.22	23.27	-33.7	-42.8	3.8	8.46e-01	0	44	104	2596274176	28	10304
2026-01-18 14:44:01.61	341.22	23.12	-33.7	-42.9	3.8	8.46e-01	0	44	104	2596274176	28	10322
2026-01-18 14:44:02.62	341.23	22.97	-33.7	-42.8	3.8	8.46e-01	0	44	104	2596274176	28	10309
2026-01-18 14:44:03.63	341.23	22.82	-33.7	-42.8	3.8	8.46e-01	0	44	104	2596274176	28	10309
2026-01-18 14:44:04.63	341.23	22.68	-33.7	-42.8	3.8	8.46e-01	0	44	104	2596274176	28	10311
2026-01-18 14:44:05.63	341.24	22.53	-33.7	-42.8	3.8	8.46e-01	0	44	104	2596274176	28	10300
2026-01-18 14:44:06.63	341.24	22.39	-33.7	-42.8	3.8	8.46e-01	0	44	104	2596274176	28	10245
2026-01-18 14:44:07.64	341.25	22.24	-33.7	-42.8	3.8	8.46e-01	0	44	104	2596274176	28	10293
2026-01-18 14:44:08.64	341.25	22.10	-33.7	-42.8	3.8	8.48e-01	0	44	104	2596274176	28	10278
2026-01-18 14:44:09.64	341.26	21.96	-33.7	-42.8	3.8	8.45e-01	0	44	104	2596274176	28	10232
2026-01-18 14:44:10.65	341.26	21.82	-33.7	-42.8	3.8	8.47e-01	0	44	104	2596274176	28	10291
2026-01-18 14:44:11.65	341.26	21.68	-33.7	-42.7	3.8	8.45e-01	0	44	104	2596274176	28	10229
2026-01-18 14:44:12.65	341.27	21.54	-33.7	-42.8	3.8	8.47e-01	0	44	104	2596274176	28	10258
2026-01-18 14:44:13.64	341.27	21.40	-33.6	-42.8	3.8	8.48e-01	0	44	104	2596274176	28	10272
2026-01-18 14:44:14.65	341.28	21.26	-33.6	-42.7	3.8	8.46e-01	0	44	104	2596274176	28	10251
2026-01-18 14:44:15.65	341.28	21.13	-33.7	-42.8	3.8	8.46e-01	0	44	104	2596274176	28	10263
2026-01-18 14:44:16.66	341.29	20.99	-33.6	-42.7	3.8	8.46e-01	0	44	104	2596274176	28	10229
2026-01-18 14:44:17.66	341.29	20.85	-33.6	-42.7	3.8	8.46e-01	0	44	104	2596274176	28	10240
2026-01-18 14:44:18.66	341.29	20.72	-33.6	-42.7	3.8	8.45e-01	0	44	104	2596274176	28	10194
2026-01-18 14:44:19.66	341.30	20.58	-33.6	-42.7	3.8	8.46e-01	0	44	104	2596274176	28	10260
2026-01-18 14:44:20.66	341.30	20.45	-33.6	-42.7	3.8	8.46e-01	0	44	104	2596274176	28	10218
2026-01-18 14:44:21.67	341.31	20.32	-33.6	-42.7	3.8	8.46e-01	0	44	104	2596274176	28	10259
2026-01-18 14:44:22.67	341.31	20.19	-33.6	-42.7	3.8	8.46e-01	0	43	104	2596274176	28	10225
2026-01-18 14:44:23.68	341.31	20.05	-33.6	-42.7	3.8	8.45e-01	0	44	104	2596274176	28	10217
2026-01-18 14:44:24.67	341.32	19.92	-33.6	-42.7	3.8	8.46e-01	0	44	104	2596274176	28	10220
2026-01-18 14:44:25.68	341.32	19.79	-33.6	-42.6	3.8	8.46e-01	0	44	104	2596274176	28	10193
2026-01-18 14:44:26.68	341.33	19.66	-33.6	-42.6	3.8	8.47e-01	0	44	104	2596274176	28	10194
2026-01-18 14:44:27.68	341.33	19.54	-33.5	-42.6	3.8	8.48e-01	0	44	104	2596274176	28	10212
2026-01-18 14:44:28.68	341.34	19.41	-33.5	-42.6	3.8	8.46e-01	0	44	104	2596274176	28	10180
2026-01-18 14:44:29.68	341.34	19.28	-33.5	-42.5	3.8	8.46e-01	0	44	104	2596274176	28	10176
2026-01-18 14:44:30.68	341.34	19.15	-33.5	-42.5	3.8	8.46e-01	0	44	104	2596274176	28	10164
2026-01-18 14:44:31.69	341.35	19.03	-33.5	-42.5	3.8	8.45e-01	0	44	104	2596274176	28	10145
2026-01-18 14:44:32.70	341.35	18.90	-33.5	-42.5	3.8	8.46e-01	0	44	104	2596274176	28	10154
2026-01-18 14:44:33.70	341.36	18.78	-33.5	-42.5	3.8	8.47e-01	0	44	104	2596274176	28	10190
2026-01-18 14:44:34.71	341.36	18.65	-33.5	-42.5	3.8	8.45e-01	0	44	104	2596274176	28	10160
2026-01-18 14:44:35.72	341.37	18.53	-33.5	-42.5	3.8	8.46e-01	0	44	104	2596274176	28	10164
2026-01-18 14:44:36.72	341.37	18.41	-33.5	-42.5	3.8	8.47e-01	0	44	104	2596274176	28	10134
2026-01-18 14:44:37.73	341.37	18.28	-33.5	-42.5	3.8	8.45e-01	0	44	104	2596274176	28	10145
2026-01-18 14:44:38.73	341.38	18.16	-33.5	-42.4	3.8	8.46e-01	0	44	104	2596274176	28	10092
2026-01-18 14:44:39.74	341.38	18.04	-33.5	-42.5	3.8	8.46e-01	0	44	104	2596274176	28	10124
2026-01-18 14:44:40.74	341.39	17.92	-33.5	-42.4	3.8	8.46e-01	0	44	104	2596274176	28	10128
2026-01-18 14:44:41.74	341.39	17.80	-33.5	-42.4	3.8	8.46e-01	0	44	104	2596274176	28	10053
2026-01-18 14:44:42.75	341.39	17.68	-33.4	-42.4	3.8	8.47e-01	0	44	104	2596274176	28	10093
2026-01-18 14:44:43.76	341.40	17.56	-33.4	-42.4	3.8	8.46e-01	0	44	104	2596274176	28	10076
2026-01-18 14:44:44.76	341.40	17.44	-33.4	-42.4	3.8	8.46e-01	0	44	104	2596274176	28	10100
2026-01-18 14:44:45.76	341.41	17.32	-33.4	-42.4	3.8	8.46e-01	0	44	104	2596274176	28	10075
2026-01-18 14:44:46.76	341.41	17.21	-33.4	-42.4	3.8	8.47e-01	0	44	104	2596274176	28	10074
2026-01-18 14:44:47.77	341.42	17.09	-33.4	-42.4	3.8	8.46e-01	0	44	104	2596274176	28	10059
2026-01-18 14:44:48.77	341.42	16.97	-33.4	-42.4	3.8	8.47e-01	0	44	104	2596274176	28	10077
2026-01-18 14:44:49.78	341.42	16.86	-33.4	-42.3	3.8	8.45e-01	0	44	104	2596274176	28	10013
2026-01-18 14:44:50.78	341.43	16.74	-33.4	-42.4	3.8	8.46e-01	0	44	104	2596274176	28	10083
2026-01-18 14:44:51.78	341.43	16.63	-33.4	-42.4	3.8	8.47e-01	0	44	104	2596274176	28	10060
2026-01-18 14:44:52.79	341.44	16.52	-33.4	-42.4	3.8	8.46e-01	0	44	104	2596274176	28	10057
2026-01-18 14:44:53.79	341.44	16.40	-33.4	-42.3	3.8	8.44e-01	0	44	104	2596274176	28	10048
2026-01-18 14:44:54.80	341.45	16.29	-33.4	-42.4	3.8	8.46e-01	0	44	104	2596274176	28	10084
2026-01-18 14:44:55.80	341.45	16.18	-33.4	-42.4	3.8	8.46e-01	0	44	104	2596274176	28	10058
2026-01-18 14:44:56.80	341.45	16.07	-33.4	-42.3	3.8	8.47e-01	0	44	104	2596274176	28	10053
2026-01-18 14:44:57.80	341.46	15.95	-33.4	-42.3	3.8	8.46e-01	0	44	104	2596274176	28	10016
2026-01-18 14:44:58.80	341.46	15.84	-33.4	-42.3	3.8	8.46e-01	0	44	104	2596274176	28	10043
2026-01-18 14:44:59.80	341.47	15.73	-33.4	-42.3	3.8	8.47e-01	0	44	104	2596274176	28	10048
2026-01-18 14:45:00.81	341.47	15.62	-33.4	-42.3	3.8	8.45e-01	0	44	104	2596274176	28	10021
2026-01-18 14:45:01.81	341.47	15.52	-33.4	-42.3	3.8	8.45e-01	0	44	104	2596274176	28	10026
2026-01-18 14:45:02.81	341.48	15.41	-33.4	-42.3	3.8	8.46e-01	0	44	104	2596274176	28	10033
2026-01-18 14:45:03.81	341.48	15.30	-33.4	-42.2	3.8	8.46e-01	0	44	104	2596274176	28	9969
2026-01-18 14:45:04.81	341.49	15.19	-33.4	-42.3	3.8	8.46e-01	0	44	104	2596274176	28	10025
2026-01-18 14:45:05.82	341.49	15.08	-33.4	-42.3	3.8	8.46e-01	0	44	104	2596274176	28	10012
2026-01-18 14:45:06.83	341.50	14.98	-33.5	-43.0	3.8	8.46e-01	0	44	104	2596274176	27	10743
2026-01-18 14:45:07.83	341.50	14.87	-33.5	-42.9	3.8	8.46e-01	0	44	104	2596274176	27	10683
2026-01-18 14:45:08.84	341.50	14.76	-33.4	-42.9	3.8	8.47e-01	0	44	104	2596274176	27	10710
2026-01-18 14:45:09.84	341.51	14.66	-33.4	-42.9	3.8	8.46e-01	0	44	104	2596274176	27	10677
2026-01-18 14:45:10.84	341.51	14.55	-33.4	-42.9	3.8	8.45e-01	0	44	104	2596274176	27	10665
2026-01-18 14:45:11.85	341.52	14.45	-33.4	-42.9	3.8	8.45e-01	0	44	104	2596274176	27	10677
2026-01-18 14:45:12.85	341.52	14.35	-33.4	-42.9	3.8	8.46e-01	0	44	104	2596274176	27	10651
2026-01-18 14:45:13.84	341.52	14.24	-33.5	-42.9	3.8	8.47e-01	0	44	104	2596274176	27	10634
2026-01-18 14:45:14.85	341.53	14.14	-33.5	-42.8	3.8	8.46e-01	0	44	104	2596274176	27	10583
2026-01-18 14:45:15.85	341.53	14.04	-33.5	-42.9	3.8	8.46e-01	0	44	104	2596274176	27	10633
2026-01-18 14:45:16.85	341.54	13.93	-33.5	-42.9	3.8	8.46e-01	0	44	104	2596274176	27	10621
2026-01-18 14:45:17.86	341.54	13.83	-33.5	-42.9	3.8	8.46e-01	0	44	104	2596274176	27	10620
2026-01-18 14:45:18.86	341.55	13.73	-33.5	-42.8	3.8	8.46e-01	0	44	104	2596274176	27	10555
2026-01-18 14:45:19.87	341.55	13.63	-33.5	-42.8	3.8	8.45e-01	0	44	104	2596274176	27	10557
2026-01-18 14:45:20.87	341.55	13.53	-33.5	-42.9	3.8	8.47e-01	0	44	104	2596274176	27	10605
2026-01-18 14:45:21.88	341.56	13.43	-33.5	-42.9	3.8	8.46e-01	0	44	104	2596274176	27	10610
2026-01-18 14:45:22.87	341.56	13.33	-33.5	-42.8	3.8	8.46e-01	0	44	104	2596274176	27	10566
2026-01-18 14:45:23.88	341.57	13.23	-33.5	-42.8	3.8	8.47e-01	0	44	104	2596274176	27	10578
2026-01-18 14:45:24.88	341.57	13.13	-33.4	-42.7	3.8	8.45e-01	0	44	104	2596274176	27	10493
2026-01-18 14:45:25.89	341.58	13.03	-33.4	-42.8	3.8	8.47e-01	0	44	104	2596274176	27	10587
2026-01-18 14:45:26.89	341.58	12.93	-33.4	-42.8	3.8	8.47e-01	0	44	104	2596274176	27	10574
2026-01-18 14:45:27.90	341.58	12.84	-33.4	-42.7	3.8	8.47e-01	0	44	104	2596274176	27	10512
2026-01-18 14:45:28.89	341.59	12.74	-33.4	-42.7	3.8	8.47e-01	0	44	104	2596274176	27	10540
2026-01-18 14:45:29.90	341.59	12.64	-33.4	-42.7	3.8	8.46e-01	0	44	104	2596274176	27	10531
2026-01-18 14:45:30.90	341.60	12.55	-33.4	-42.7	3.8	8.46e-01	0	44	104	2596274176	27	10502
2026-01-18 14:45:31.90	341.60	12.45	-33.4	-42.7	3.8	8.46e-01	0	44	104	2596274176	27	10511
2026-01-18 14:45:32.91	341.60	12.35	-33.4	-42.7	3.8	8.46e-01	0	44	104	2596274176	27	10494
2026-01-18 14:45:33.92	341.61	12.26	-33.4	-42.7	3.8	8.46e-01	0	44	104	2596274176	27	10507
2026-01-18 14:45:34.93	341.61	12.16	-33.4	-42.7	3.8	8.47e-01	0	44	104	2596274176	27	10501
2026-01-18 14:45:35.94	341.62	12.07	-33.4	-42.6	3.8	8.46e-01	0	44	104	2596274176	27	10443
2026-01-18 14:45:36.94	341.62	11.97	-33.4	-42.6	3.8	8.46e-01	0	44	104	2596274176	27	10444
2026-01-18 14:45:37.95	341.63	11.88	-33.4	-42.6	3.8	8.46e-01	0	44	104	2596274176	27	10477
2026-01-18 14:45:38.95	341.63	11.78	-33.4	-42.6	3.8	8.47e-01	0	44	104	2596274176	27	10446
2026-01-18 14:45:39.96	341.63	11.69	-33.4	-42.6	3.8	8.47e-01	0	44	104	2596274176	27	10474
2026-01-18 14:45:40.97	341.64	11.60	-33.4	-42.6	3.8	8.47e-01	0	44	104	2596274176	27	10395
2026-01-18 14:45:41.97	341.64	11.51	-33.4	-42.6	3.8	8.45e-01	0	44	104	2596274176	27	10449
2026-01-18 14:45:42.97	341.65	11.41	-33.4	-42.7	3.8	8.44e-01	0	44	104	2596274176	27	10493
2026-01-18 14:45:43.98	341.65	11.32	-33.4	-42.6	3.8	8.46e-01	0	44	104	2596274176	27	10436
2026-01-18 14:45:44.98	341.66	11.23	-33.4	-42.6	3.8	8.46e-01	0	44	104	2596274176	27	10437
2026-01-18 14:45:45.98	341.66	11.14	-33.4	-42.6	3.8	8.46e-01	0	44	104	2596274176	27	10401
2026-01-18 14:45:46.99	341.66	11.05	-33.3	-42.6	3.8	8.46e-01	0	44	104	2596274176	27	10425
2026-01-18 14:45:47.99	341.67	10.96	-33.3	-42.5	3.8	8.46e-01	0	44	104	2596274176	27	10402
