passes_logs/2026/01/18/R2M6_AANII_01/R2M6_AANII_01__20260118_015917_SUOMI_NPP_rec.log

#Pass ID: 20260118_015917_SUOMI NPP
#Satellite: SUOMI NPP
#Configuration: NPP
#almurnet v.1.7.20240730
#Start time: 2026-01-18 01:59:18

#Version: 2.2.20231116
#Station: R2M6_AANII_01
#Location: 30.233357 lon 59.946436 lat
#TLE: 1 37849U 11061A   26017.28905266  .00000074  00000+0  55894-4 0  9999
#TLE: 2 37849  98.7814 319.3179 0002408  59.7048 300.4366 14.19525847737038

#Time	Az	El	Level	Level2	SNR	BER	BlckErr	Temp	State	Recorded	gain1	gain2
2026-01-18 01:59:18.94	11.47	7.10	-32.5	-38.9	4.4	1.41e+00	0	41	0	0	25	7570
2026-01-18 01:59:19.93	11.40	7.17	-32.3	-38.4	4.6	1.33e+00	0	41	104	0	24	7275
2026-01-18 01:59:20.94	11.32	7.24	-32.4	-38.5	6.2	3.10e-01	0	41	0	0	24	7264
2026-01-18 01:59:21.94	11.25	7.31	-32.3	-38.3	6.3	3.05e-01	0	41	0	1048576	24	7173
2026-01-18 01:59:22.94	11.17	7.37	-32.4	-39.0	5.9	3.32e-01	0	41	0	3145728	24	7650
2026-01-18 01:59:23.95	11.09	7.44	-32.4	-38.6	6.1	3.50e-01	0	41	0	5242880	24	7371
2026-01-18 01:59:24.95	11.01	7.51	-32.6	-39.5	5.3	3.36e-01	0	41	0	7340032	25	7942
2026-01-18 01:59:25.95	10.94	7.58	-32.6	-39.4	5.4	5.03e-01	0	41	0	9437184	25	7859
2026-01-18 01:59:26.96	10.86	7.65	-32.6	-39.2	5.5	5.87e-01	0	42	0	10485760	25	7702
2026-01-18 01:59:27.96	10.78	7.72	-32.7	-40.1	5.0	5.60e-01	0	42	0	12582912	25	8420
2026-01-18 01:59:28.97	10.70	7.79	-32.6	-39.4	5.4	5.22e-01	0	42	0	14680064	25	7876
2026-01-18 01:59:29.97	10.62	7.86	-32.4	-38.3	6.1	3.67e-01	0	42	0	16777216	25	7035
2026-01-18 01:59:30.98	10.54	7.93	-32.3	-37.8	6.8	2.69e-01	0	42	0	17825792	24	6782
2026-01-18 01:59:31.98	10.46	8.00	-32.0	-36.6	7.7	1.63e-01	0	42	0	19922944	24	6075
2026-01-18 01:59:32.98	10.38	8.07	-31.9	-36.7	8.0	7.18e-02	0	42	0	22020096	23	6218
2026-01-18 01:59:33.99	10.30	8.14	-31.6	-35.3	9.1	2.82e-02	0	42	0	24117248	23	5524
2026-01-18 01:59:35.00	10.21	8.21	-31.5	-35.0	9.4	2.09e-02	0	42	0	26214400	23	5362
2026-01-18 01:59:36.00	10.13	8.28	-31.7	-35.5	9.0	2.57e-02	0	42	0	28311552	23	5585
2026-01-18 01:59:37.01	10.05	8.36	-31.7	-35.5	9.0	1.98e-02	0	42	0	29360128	23	5594
2026-01-18 01:59:38.01	9.97	8.43	-31.7	-35.6	9.0	2.39e-02	0	42	0	31457280	23	5650
2026-01-18 01:59:39.02	9.88	8.50	-31.6	-35.1	9.4	1.74e-02	0	42	0	33554432	23	5390
2026-01-18 01:59:40.02	9.80	8.57	-31.5	-34.9	9.5	1.63e-02	0	42	0	35651584	23	5329
2026-01-18 01:59:41.01	9.72	8.64	-31.8	-35.8	8.9	1.53e-02	0	42	0	36700160	23	5737
2026-01-18 01:59:42.02	9.63	8.71	-31.5	-35.0	9.4	1.61e-02	0	42	0	38797312	23	5355
2026-01-18 01:59:43.02	9.55	8.78	-31.6	-35.3	9.2	2.10e-02	0	42	0	40894464	23	5512
2026-01-18 01:59:44.03	9.46	8.86	-31.4	-34.5	9.8	1.57e-02	0	42	0	42991616	23	5141
2026-01-18 01:59:45.03	9.37	8.93	-31.2	-34.4	10.3	9.16e-03	0	42	0	45088768	22	5185
2026-01-18 01:59:46.03	9.29	9.00	-31.2	-34.4	10.3	7.63e-03	0	42	0	46137344	22	5176
2026-01-18 01:59:47.03	9.20	9.07	-31.2	-34.2	10.4	7.95e-03	0	42	0	48234496	22	5102
2026-01-18 01:59:48.02	9.11	9.14	-31.3	-34.5	10.3	3.64e-03	0	42	0	50331648	22	5227
2026-01-18 01:59:49.03	9.03	9.22	-31.3	-34.6	10.2	9.01e-03	0	42	0	52428800	22	5252
2026-01-18 01:59:50.04	8.94	9.29	-31.0	-34.0	11.0	4.91e-03	0	42	0	54525952	21	5108
2026-01-18 01:59:51.03	8.85	9.36	-30.9	-33.8	11.1	2.20e-03	0	42	0	55574528	21	5040
2026-01-18 01:59:52.03	8.76	9.43	-31.1	-34.0	10.6	2.23e-03	0	42	0	57671680	22	5014
2026-01-18 01:59:53.03	8.67	9.51	-31.1	-33.8	10.8	7.17e-03	0	42	0	59768832	22	4918
2026-01-18 01:59:54.03	8.58	9.58	-31.0	-34.0	10.9	2.37e-03	0	42	0	61865984	21	5113
2026-01-18 01:59:55.04	8.49	9.65	-31.1	-34.0	10.6	3.88e-03	0	42	0	62914560	22	5010
2026-01-18 01:59:56.04	8.40	9.73	-31.1	-34.0	10.7	6.39e-03	0	42	0	65011712	22	4985
2026-01-18 01:59:57.05	8.31	9.80	-31.1	-33.8	10.8	3.22e-03	0	42	0	67108864	22	4938
2026-01-18 01:59:58.05	8.22	9.88	-31.2	-34.2	10.5	5.73e-03	0	42	0	69206016	22	5078
2026-01-18 01:59:59.06	8.12	9.95	-31.2	-34.1	10.7	5.86e-03	0	43	0	71303168	22	5019
2026-01-18 02:00:00.07	8.03	10.02	-31.0	-33.6	11.0	3.48e-03	0	42	0	73400320	22	4828
2026-01-18 02:00:01.07	7.94	10.10	-31.1	-33.8	10.9	5.07e-03	0	42	0	74448896	22	4908
2026-01-18 02:00:02.08	7.84	10.17	-31.0	-34.0	11.1	2.04e-03	0	42	0	76546048	21	5099
2026-01-18 02:00:03.08	7.75	10.25	-31.0	-33.6	10.9	2.77e-03	0	42	0	78643200	22	4863
2026-01-18 02:00:04.08	7.65	10.32	-31.1	-33.8	10.9	4.63e-03	0	42	0	80740352	22	4933
2026-01-18 02:00:05.08	7.56	10.40	-31.2	-34.1	10.6	4.93e-03	0	42	0	81788928	22	5053
2026-01-18 02:00:06.08	7.46	10.47	-31.0	-33.6	11.0	2.20e-03	0	42	0	83886080	22	4843
2026-01-18 02:00:07.08	7.36	10.55	-31.0	-33.6	11.0	3.88e-03	0	42	0	85983232	22	4855
2026-01-18 02:00:08.08	7.27	10.62	-31.0	-33.4	11.2	5.80e-03	0	42	0	88080384	22	4751
2026-01-18 02:00:09.08	7.17	10.70	-31.0	-33.5	11.2	1.20e-03	0	43	0	90177536	22	4789
2026-01-18 02:00:10.09	7.07	10.77	-31.2	-34.0	10.8	4.26e-03	0	43	0	91226112	22	4979
2026-01-18 02:00:11.09	6.97	10.85	-30.9	-33.0	11.5	4.59e-03	0	43	0	93323264	22	4590
2026-01-18 02:00:12.10	6.87	10.93	-31.2	-34.0	10.8	1.80e-03	0	43	0	95420416	22	4985
2026-01-18 02:00:13.10	6.77	11.00	-31.0	-33.3	11.3	3.96e-03	0	43	0	97517568	22	4702
2026-01-18 02:00:14.10	6.67	11.08	-30.8	-33.3	11.6	3.62e-03	0	43	0	99614720	21	4817
2026-01-18 02:00:15.11	6.57	11.15	-31.0	-33.8	11.4	1.02e-03	0	43	0	100663296	21	4974
2026-01-18 02:00:16.11	6.47	11.23	-31.0	-33.3	11.3	1.06e-03	0	43	0	102760448	22	4715
2026-01-18 02:00:17.11	6.37	11.31	-31.1	-33.8	11.0	4.04e-03	0	43	0	104857600	22	4877
2026-01-18 02:00:18.12	6.27	11.38	-30.9	-33.1	11.5	1.66e-03	0	43	0	106954752	22	4632
2026-01-18 02:00:19.12	6.16	11.46	-30.9	-33.2	11.4	3.65e-03	0	43	0	109051904	22	4682
2026-01-18 02:00:20.13	6.06	11.54	-30.9	-33.1	11.6	1.35e-03	0	43	0	110100480	22	4625
2026-01-18 02:00:21.13	5.96	11.62	-31.0	-33.3	11.4	1.35e-03	0	43	0	112197632	22	4691
2026-01-18 02:00:22.13	5.85	11.69	-30.9	-33.1	11.5	4.03e-03	0	43	0	114294784	22	4638
2026-01-18 02:00:23.13	5.75	11.77	-31.0	-33.4	11.3	1.35e-03	0	43	0	116391936	22	4738
2026-01-18 02:00:24.13	5.64	11.85	-30.9	-33.6	11.5	1.20e-03	0	43	0	118489088	21	4911
2026-01-18 02:00:25.13	5.54	11.93	-30.6	-32.8	12.2	3.28e-03	0	43	0	119537664	21	4594
2026-01-18 02:00:26.13	5.43	12.00	-30.7	-33.0	12.0	2.94e-03	0	43	0	121634816	21	4673
2026-01-18 02:00:27.13	5.32	12.08	-30.8	-33.3	11.8	6.53e-04	0	43	0	123731968	21	4795
2026-01-18 02:00:28.13	5.21	12.16	-30.8	-33.2	11.9	3.29e-03	0	43	0	125829120	21	4735
2026-01-18 02:00:29.13	5.11	12.24	-30.7	-33.0	12.0	3.45e-03	0	43	0	126877696	21	4680
2026-01-18 02:00:30.13	5.00	12.32	-30.8	-33.2	11.8	4.45e-04	0	43	0	128974848	21	4762
2026-01-18 02:00:31.14	4.89	12.40	-30.9	-33.5	11.6	3.24e-03	0	43	0	131072000	21	4859
2026-01-18 02:00:32.14	4.78	12.47	-30.8	-33.3	11.7	3.52e-03	0	43	0	133169152	21	4803
2026-01-18 02:00:33.14	4.66	12.55	-30.9	-33.6	11.6	5.61e-04	0	43	0	135266304	21	4884
2026-01-18 02:00:34.15	4.55	12.63	-30.9	-33.6	11.6	5.40e-04	0	43	0	136314880	21	4915
2026-01-18 02:00:35.16	4.44	12.71	-30.8	-33.3	11.8	3.15e-03	0	43	0	138412032	21	4784
2026-01-18 02:00:36.16	4.33	12.79	-30.8	-33.3	11.8	9.51e-04	0	43	0	140509184	21	4795
2026-01-18 02:00:37.17	4.21	12.87	-30.9	-33.4	11.8	5.59e-04	0	43	0	142606336	21	4822
2026-01-18 02:00:38.17	4.10	12.95	-30.9	-33.0	11.6	9.25e-04	0	43	0	144703488	22	4600
2026-01-18 02:00:39.18	3.98	13.03	-31.0	-33.1	11.6	9.13e-04	0	43	0	145752064	22	4634
2026-01-18 02:00:40.18	3.87	13.11	-31.1	-33.6	11.2	9.42e-04	0	43	0	147849216	22	4800
2026-01-18 02:00:41.18	3.75	13.19	-30.9	-33.5	11.7	7.84e-04	0	43	0	149946368	21	4864
2026-01-18 02:00:42.19	3.63	13.27	-31.1	-33.6	11.4	1.25e-03	0	43	0	152043520	22	4799
2026-01-18 02:00:43.18	3.52	13.35	-31.1	-33.7	11.3	3.74e-03	0	43	0	154140672	22	4829
2026-01-18 02:00:44.19	3.40	13.43	-31.1	-33.6	11.3	1.16e-03	0	43	0	155189248	22	4816
2026-01-18 02:00:45.19	3.28	13.52	-31.0	-33.4	11.4	1.26e-03	0	43	0	157286400	22	4747
2026-01-18 02:00:46.19	3.16	13.60	-31.1	-33.7	11.2	4.30e-03	0	43	0	159383552	22	4855
2026-01-18 02:00:47.19	3.04	13.68	-31.2	-34.0	11.0	2.00e-03	0	43	0	161480704	22	4975
2026-01-18 02:00:48.19	2.92	13.76	-31.2	-33.9	11.1	1.45e-03	0	43	0	163577856	22	4935
2026-01-18 02:00:49.20	2.80	13.84	-31.1	-33.8	11.2	1.21e-03	0	43	0	164626432	22	4867
2026-01-18 02:00:50.21	2.67	13.92	-31.1	-33.6	11.2	1.11e-03	0	43	0	166723584	22	4810
2026-01-18 02:00:51.21	2.55	14.00	-31.0	-33.3	11.5	7.12e-04	0	43	0	168820736	22	4675
2026-01-18 02:00:52.22	2.43	14.09	-30.9	-33.0	11.7	7.13e-04	0	43	0	170917888	22	4577
2026-01-18 02:00:53.22	2.30	14.17	-30.7	-33.0	12.1	3.17e-03	0	43	0	173015040	21	4663
2026-01-18 02:00:54.22	2.18	14.25	-30.9	-33.4	11.8	4.34e-04	0	43	0	174063616	21	4806
2026-01-18 02:00:55.22	2.05	14.33	-30.9	-33.4	11.8	2.79e-04	0	43	0	176160768	21	4811
2026-01-18 02:00:56.22	1.93	14.41	-30.8	-33.2	11.9	2.45e-04	0	43	0	178257920	21	4737
2026-01-18 02:00:57.22	1.80	14.50	-31.1	-33.4	11.5	6.47e-04	0	43	0	180355072	22	4702
2026-01-18 02:00:58.23	1.67	14.58	-30.8	-33.1	12.0	3.71e-04	0	43	0	181403648	21	4706
2026-01-18 02:00:59.24	1.54	14.66	-30.8	-33.0	12.0	3.31e-04	0	43	0	183500800	21	4675
2026-01-18 02:01:00.24	1.41	14.75	-30.9	-33.3	11.9	3.33e-04	0	43	0	185597952	21	4778
2026-01-18 02:01:01.24	1.28	14.83	-30.7	-32.7	12.3	2.07e-04	0	43	0	187695104	21	4554
2026-01-18 02:01:02.24	1.15	14.91	-30.8	-33.1	12.0	2.24e-04	0	43	0	189792256	21	4711
2026-01-18 02:01:03.24	1.02	14.99	-30.9	-33.3	11.9	3.29e-04	0	43	0	190840832	21	4776
2026-01-18 02:01:04.24	0.89	15.08	-30.8	-33.0	12.2	1.75e-04	0	43	0	192937984	21	4655
2026-01-18 02:01:05.25	0.75	15.16	-30.5	-32.2	12.7	1.31e-04	0	43	0	195035136	21	4379
2026-01-18 02:01:06.25	0.62	15.24	-30.4	-31.9	12.8	1.10e-04	0	43	0	197132288	21	4289
2026-01-18 02:01:07.26	0.48	15.33	-30.5	-32.4	12.5	3.01e-04	0	43	0	199229440	21	4456
2026-01-18 02:01:08.26	0.35	15.41	-30.7	-32.8	12.2	2.46e-04	0	43	0	200278016	21	4607
2026-01-18 02:01:09.27	0.21	15.50	-30.8	-33.1	12.1	2.64e-04	0	43	0	202375168	21	4691
2026-01-18 02:01:10.27	0.08	15.58	-31.0	-33.1	11.7	4.01e-04	0	43	0	204472320	22	4616
2026-01-18 02:01:11.27	359.94	15.67	-31.1	-33.4	11.6	6.54e-04	0	43	0	206569472	22	4711
2026-01-18 02:01:12.27	359.80	15.75	-31.1	-33.6	11.4	4.42e-04	0	43	0	208666624	22	4780
2026-01-18 02:01:13.27	359.66	15.83	-30.6	-33.5	11.0	1.71e-03	0	43	0	209715200	22	5017
2026-01-18 02:01:14.27	359.52	15.92	-30.4	-33.0	11.3	2.54e-03	0	43	0	211812352	22	4859
2026-01-18 02:01:15.27	359.38	16.00	-30.4	-33.5	10.4	2.59e-03	0	43	0	213909504	22	5168
2026-01-18 02:01:16.27	359.24	16.09	-31.3	-34.2	10.6	2.29e-03	0	43	0	216006656	22	5037
2026-01-18 02:01:17.28	359.09	16.17	-31.4	-34.4	10.8	1.94e-03	0	43	0	218103808	22	5101
2026-01-18 02:01:18.28	358.95	16.26	-31.4	-34.5	10.0	2.90e-03	0	43	0	219152384	22	5130
2026-01-18 02:01:19.29	358.81	16.34	-31.2	-33.8	10.6	1.51e-03	0	43	0	221249536	22	4857
2026-01-18 02:01:20.29	358.66	16.43	-31.0	-33.6	11.8	5.62e-04	0	43	0	223346688	21	4857
2026-01-18 02:01:21.29	358.52	16.51	-30.9	-33.4	11.9	3.98e-04	0	43	0	225443840	21	4803
2026-01-18 02:01:22.30	358.37	16.60	-30.7	-32.7	12.4	5.02e-04	0	43	0	227540992	21	4535
2026-01-18 02:01:23.31	358.22	16.69	-30.9	-33.2	12.1	2.76e-04	0	43	0	228589568	21	4731
2026-01-18 02:01:24.32	358.07	16.77	-30.8	-33.0	12.2	2.92e-03	0	43	0	230686720	21	4662
2026-01-18 02:01:25.32	357.92	16.86	-30.8	-33.0	12.2	5.13e-04	0	43	0	232783872	21	4660
2026-01-18 02:01:26.32	357.77	16.95	-30.8	-33.2	12.0	1.82e-04	0	43	0	234881024	21	4740
2026-01-18 02:01:27.32	357.62	17.03	-30.9	-33.3	12.0	3.06e-03	0	43	0	236978176	21	4755
2026-01-18 02:01:28.33	357.47	17.12	-30.6	-32.6	12.4	6.28e-04	0	43	0	238026752	21	4529
2026-01-18 02:01:29.32	357.31	17.20	-30.6	-32.5	12.5	1.07e-04	0	43	0	240123904	21	4500
2026-01-18 02:01:30.33	357.16	17.29	-30.5	-32.2	12.7	1.16e-04	0	43	0	242221056	21	4381
2026-01-18 02:01:31.32	357.01	17.38	-30.6	-32.5	12.5	3.06e-03	0	43	0	244318208	21	4477
2026-01-18 02:01:32.33	356.85	17.46	-30.6	-32.5	12.6	5.41e-04	0	43	0	245366784	21	4479
2026-01-18 02:01:33.32	356.69	17.55	-30.4	-32.5	12.9	6.63e-05	0	43	0	247463936	20	4562
2026-01-18 02:01:34.33	356.54	17.64	-30.3	-32.0	13.3	2.71e-03	0	43	0	249561088	20	4403
2026-01-18 02:01:35.33	356.38	17.72	-30.3	-32.2	13.1	9.33e-04	0	43	0	251658240	20	4482
2026-01-18 02:01:36.33	356.22	17.81	-30.5	-32.3	12.8	3.20e-05	0	43	0	253755392	21	4390
2026-01-18 02:01:37.34	356.06	17.90	-30.7	-32.6	12.6	8.69e-05	0	43	0	254803968	21	4511
2026-01-18 02:01:38.34	355.90	17.98	-30.5	-32.0	12.9	1.02e-03	0	43	0	256901120	21	4315
2026-01-18 02:01:39.34	355.73	18.07	-30.6	-32.5	12.7	1.10e-04	0	43	0	258998272	21	4467
2026-01-18 02:01:40.35	355.57	18.16	-30.7	-32.8	12.5	1.01e-04	0	43	0	261095424	21	4566
2026-01-18 02:01:41.35	355.41	18.24	-30.8	-32.9	12.4	1.26e-03	0	43	0	263192576	21	4608
2026-01-18 02:01:42.36	355.24	18.33	-30.8	-33.0	12.3	2.53e-03	0	43	0	264241152	21	4621
2026-01-18 02:01:43.36	355.07	18.42	-30.8	-32.9	12.4	8.32e-04	0	44	0	266338304	21	4601
2026-01-18 02:01:44.36	354.91	18.51	-30.5	-32.2	12.9	1.05e-03	0	43	0	268435456	21	4370
2026-01-18 02:01:45.37	354.74	18.59	-30.5	-32.1	13.0	2.18e-03	0	43	0	270532608	21	4330
2026-01-18 02:01:46.37	354.57	18.68	-30.3	-31.7	13.2	1.12e-03	0	43	0	272629760	21	4201
2026-01-18 02:01:47.38	354.40	18.77	-30.6	-32.5	12.7	8.08e-05	0	43	0	273678336	21	4466
2026-01-18 02:01:48.38	354.23	18.86	-30.8	-33.1	12.3	2.02e-03	0	43	0	275775488	21	4658
2026-01-18 02:01:49.38	354.06	18.94	-30.9	-33.4	12.0	2.61e-03	0	43	0	277872640	21	4804
2026-01-18 02:01:50.38	353.88	19.03	-30.9	-33.4	12.1	7.31e-04	0	43	0	279969792	21	4790
2026-01-18 02:01:51.39	353.71	19.12	-30.8	-32.9	12.4	2.09e-03	0	44	0	282066944	21	4596
2026-01-18 02:01:52.39	353.53	19.21	-30.6	-32.5	12.6	2.36e-03	0	44	0	283115520	21	4467
2026-01-18 02:01:53.40	353.36	19.30	-30.4	-32.5	13.0	8.25e-04	0	43	0	285212672	20	4566
2026-01-18 02:01:54.40	353.18	19.38	-30.3	-31.6	13.3	1.82e-03	0	44	0	287309824	21	4175
2026-01-18 02:01:55.41	353.00	19.47	-30.1	-31.6	13.6	1.99e-03	0	44	0	289406976	20	4264
2026-01-18 02:01:56.41	352.82	19.56	-30.1	-31.7	13.5	7.43e-04	0	44	0	291504128	20	4306
2026-01-18 02:01:57.42	352.64	19.65	-30.2	-31.7	13.5	1.22e-05	0	44	0	292552704	20	4303
2026-01-18 02:01:58.42	352.46	19.74	-30.3	-32.1	13.3	1.86e-03	0	43	0	294649856	20	4432
2026-01-18 02:01:59.43	352.27	19.82	-30.4	-31.9	13.1	6.42e-04	0	43	0	296747008	21	4269
2026-01-18 02:02:00.43	352.09	19.91	-30.4	-32.4	13.2	1.25e-03	0	43	0	298844160	20	4516
2026-01-18 02:02:01.44	351.90	20.00	-30.4	-32.3	13.2	1.14e-03	0	43	0	299892736	20	4501
2026-01-18 02:02:02.44	351.72	20.09	-30.5	-32.1	13.0	5.11e-04	0	44	0	301989888	21	4346
2026-01-18 02:02:03.44	351.53	20.18	-30.5	-32.1	13.0	1.19e-03	0	43	0	304087040	21	4333
2026-01-18 02:02:04.44	351.35	20.26	-30.6	-32.5	12.7	1.65e-03	0	44	0	306184192	21	4451
2026-01-18 02:02:05.44	351.16	20.35	-30.6	-32.3	12.8	2.91e-04	0	43	0	308281344	21	4396
2026-01-18 02:02:06.44	350.97	20.44	-30.7	-32.6	12.7	1.65e-03	0	44	0	310378496	21	4484
2026-01-18 02:02:07.44	350.78	20.53	-30.8	-33.0	12.4	2.08e-03	0	43	0	311427072	21	4631
2026-01-18 02:02:08.44	350.58	20.61	-31.1	-33.5	11.8	5.16e-04	0	44	0	313524224	22	4707
2026-01-18 02:02:09.44	350.39	20.70	-31.2	-33.6	11.6	2.51e-03	0	44	0	315621376	22	4758
2026-01-18 02:02:10.44	350.20	20.79	-31.0	-33.0	12.1	2.97e-03	0	43	0	317718528	22	4525
2026-01-18 02:02:11.45	350.00	20.88	-31.0	-32.9	12.2	2.42e-04	0	44	0	318767104	22	4491
2026-01-18 02:02:12.45	349.80	20.96	-30.9	-33.1	12.4	2.38e-03	0	44	0	320864256	21	4656
2026-01-18 02:02:13.46	349.61	21.05	-30.7	-32.7	12.6	2.22e-03	0	44	0	322961408	21	4531
2026-01-18 02:02:14.46	349.41	21.14	-30.6	-32.2	12.9	5.73e-04	0	43	0	325058560	21	4368
2026-01-18 02:02:15.47	349.20	21.23	-30.5	-32.1	12.9	1.09e-04	0	44	0	327155712	21	4330
2026-01-18 02:02:16.48	349.00	21.31	-30.7	-32.7	12.7	1.73e-03	0	44	0	328204288	21	4516
2026-01-18 02:02:17.48	348.80	21.40	-30.8	-32.9	12.5	3.87e-04	0	44	0	330301440	21	4585
2026-01-18 02:02:18.47	348.60	21.49	-30.9	-33.4	12.2	1.81e-04	0	43	0	332398592	21	4755
2026-01-18 02:02:19.48	348.39	21.57	-31.3	-33.8	11.6	1.13e-03	0	43	0	334495744	22	4830
2026-01-18 02:02:20.48	348.19	21.66	-31.4	-34.1	11.4	1.04e-03	0	44	0	336592896	22	4943
2026-01-18 02:02:21.49	347.98	21.75	-31.4	-33.8	11.2	1.65e-03	0	43	0	337641472	23	4714
2026-01-18 02:02:22.49	347.77	21.84	-31.4	-33.5	11.5	8.00e-04	0	44	0	339738624	23	4626
2026-01-18 02:02:23.49	347.56	21.92	-31.3	-33.3	11.7	9.61e-04	0	44	0	341835776	23	4536
2026-01-18 02:02:24.50	347.35	22.01	-31.1	-32.6	12.1	7.51e-04	0	44	0	343932928	23	4312
2026-01-18 02:02:25.50	347.14	22.09	-30.9	-32.2	12.4	1.38e-04	0	44	0	346030080	23	4165
2026-01-18 02:02:26.50	346.92	22.18	-31.0	-32.5	12.1	2.44e-04	0	44	0	347078656	23	4273
2026-01-18 02:02:27.50	346.71	22.27	-30.9	-32.0	12.5	1.93e-04	0	43	0	349175808	23	4118
2026-01-18 02:02:28.50	346.50	22.35	-30.9	-32.8	12.4	9.30e-05	0	43	0	351272960	22	4442
2026-01-18 02:02:29.50	346.28	22.44	-31.0	-32.9	12.2	3.34e-04	0	44	0	353370112	22	4496
2026-01-18 02:02:30.50	346.06	22.52	-30.9	-33.1	12.4	1.49e-03	0	43	0	355467264	21	4658
2026-01-18 02:02:31.51	345.84	22.61	-30.9	-32.8	12.2	1.76e-03	0	44	0	356515840	22	4451
2026-01-18 02:02:32.51	345.62	22.69	-30.9	-32.6	12.5	2.27e-04	0	43	0	358612992	22	4387
2026-01-18 02:02:33.52	345.40	22.78	-30.8	-32.8	12.7	1.38e-04	0	44	0	360710144	21	4553
2026-01-18 02:02:34.52	345.18	22.86	-30.7	-32.4	12.9	2.44e-03	0	44	0	362807296	21	4425
2026-01-18 02:02:35.52	344.95	22.95	-30.7	-32.5	12.8	5.18e-05	0	44	0	363855872	21	4444
2026-01-18 02:02:36.52	344.73	23.03	-30.7	-32.5	12.8	4.19e-05	0	44	0	365953024	21	4457
2026-01-18 02:02:37.52	344.50	23.12	-30.6	-32.3	13.0	2.33e-03	0	44	0	368050176	21	4371
2026-01-18 02:02:38.52	344.27	23.20	-30.7	-32.5	12.8	4.42e-05	0	44	0	370147328	21	4450
2026-01-18 02:02:39.53	344.04	23.29	-30.5	-32.2	12.9	1.13e-04	0	44	0	372244480	21	4338
2026-01-18 02:02:40.53	343.81	23.37	-30.3	-31.6	13.4	3.05e-05	0	44	0	373293056	21	4150
2026-01-18 02:02:41.52	343.58	23.45	-30.1	-30.8	13.8	6.10e-06	0	44	0	375390208	21	3936
2026-01-18 02:02:42.53	343.35	23.54	-29.7	-30.4	14.5	7.00e-07	0	44	0	377487360	20	3909
2026-01-18 02:02:43.53	343.12	23.62	-29.5	-30.5	14.8	0.00e+00	0	44	0	379584512	19	4002
2026-01-18 02:02:44.54	342.88	23.70	-29.4	-30.0	15.1	0.00e+00	0	44	0	381681664	19	3885
2026-01-18 02:02:45.54	342.64	23.78	-29.4	-30.7	15.0	7.00e-07	0	44	0	382730240	18	4176
2026-01-18 02:02:46.54	342.41	23.87	-29.4	-30.7	15.0	0.00e+00	0	44	0	384827392	18	4161
2026-01-18 02:02:47.55	342.17	23.95	-29.7	-30.9	14.5	0.00e+00	0	44	0	386924544	19	4142
2026-01-18 02:02:48.56	341.92	24.03	-29.8	-31.3	14.3	2.41e-03	0	44	0	389021696	19	4250
2026-01-18 02:02:49.56	341.68	24.11	-30.0	-31.4	13.9	2.20e-06	0	44	0	391118848	20	4199
2026-01-18 02:02:50.56	341.44	24.19	-30.5	-32.2	13.1	5.30e-06	0	44	0	392167424	21	4351
2026-01-18 02:02:51.56	341.20	24.27	-30.1	-31.6	13.8	8.30e-06	0	44	0	394264576	20	4244
2026-01-18 02:02:52.56	340.95	24.35	-29.9	-30.9	14.2	1.50e-06	0	44	0	396361728	20	4043
2026-01-18 02:02:53.55	340.71	24.43	-30.0	-31.2	14.0	7.00e-07	0	44	0	398458880	20	4131
2026-01-18 02:02:54.56	340.46	24.51	-30.1	-31.5	13.8	4.50e-06	0	44	0	400556032	20	4228
2026-01-18 02:02:55.56	340.21	24.59	-30.1	-31.6	13.7	2.20e-06	0	44	0	401604608	20	4252
2026-01-18 02:02:56.56	339.96	24.67	-30.2	-31.9	13.6	5.30e-06	0	44	0	403701760	20	4337
2026-01-18 02:02:57.55	339.71	24.75	-30.3	-32.2	13.4	6.10e-06	0	44	0	405798912	20	4439
2026-01-18 02:02:58.55	339.46	24.82	-30.4	-32.2	13.4	1.06e-05	0	43	0	407896064	20	4462
2026-01-18 02:02:59.56	339.20	24.90	-30.4	-31.8	13.3	2.28e-05	0	44	0	408944640	21	4224
2026-01-18 02:03:00.56	338.95	24.98	-30.1	-31.5	13.8	1.22e-05	0	44	0	411041792	20	4215
2026-01-18 02:03:01.56	338.69	25.06	-29.9	-31.0	14.2	7.00e-07	0	44	0	413138944	20	4068
2026-01-18 02:03:02.56	338.43	25.13	-30.0	-31.2	14.0	0.00e+00	0	44	0	415236096	20	4135
2026-01-18 02:03:03.57	338.17	25.21	-30.0	-31.3	14.1	6.10e-06	0	44	0	417333248	20	4164
2026-01-18 02:03:04.57	337.91	25.29	-30.2	-31.6	13.8	5.30e-06	0	44	0	418381824	20	4266
2026-01-18 02:03:05.58	337.65	25.36	-30.0	-31.3	13.9	5.30e-06	0	44	0	420478976	20	4180
2026-01-18 02:03:06.58	337.39	25.44	-30.0	-31.3	13.8	4.50e-06	0	44	0	422576128	20	4183
2026-01-18 02:03:07.58	337.12	25.51	-29.3	-30.9	14.0	3.80e-06	0	44	0	424673280	19	4357
2026-01-18 02:03:08.59	336.85	25.59	-30.0	-31.3	13.9	3.80e-06	0	44	0	426770432	20	4179
2026-01-18 02:03:09.59	336.59	25.66	-29.9	-31.1	14.0	7.00e-07	0	44	0	427819008	20	4145
2026-01-18 02:03:10.60	336.32	25.73	-30.1	-31.4	13.9	5.30e-06	0	44	0	429916160	20	4203
2026-01-18 02:03:11.60	336.05	25.80	-30.1	-31.8	13.2	6.10e-06	0	44	0	432013312	19	4406
2026-01-18 02:03:12.60	335.78	25.88	-29.7	-30.9	13.2	3.08e-03	0	44	0	434110464	19	4130
2026-01-18 02:03:13.61	335.50	25.95	-29.9	-31.3	14.2	7.00e-07	0	44	0	436207616	19	4247
2026-01-18 02:03:14.62	335.23	26.02	-30.0	-31.2	13.1	1.50e-06	0	44	0	437256192	20	4127
2026-01-18 02:03:15.62	334.95	26.09	-30.3	-32.1	12.7	9.10e-06	0	44	0	439353344	20	4415
2026-01-18 02:03:16.63	334.68	26.16	-30.5	-32.2	13.0	1.64e-03	0	44	0	441450496	21	4349
2026-01-18 02:03:17.63	334.40	26.23	-30.5	-32.5	13.1	2.28e-05	0	44	0	443547648	20	4558
2026-01-18 02:03:18.64	334.12	26.30	-30.3	-32.0	13.5	3.81e-05	0	44	0	445644800	20	4381
2026-01-18 02:03:19.64	333.84	26.37	-30.0	-31.2	14.1	1.67e-03	0	44	0	446693376	20	4127
2026-01-18 02:03:20.65	333.56	26.43	-30.0	-31.2	14.1	2.20e-06	0	44	0	448790528	20	4120
2026-01-18 02:03:21.65	333.28	26.50	-30.0	-31.6	14.2	1.50e-06	0	44	0	450887680	19	4328
2026-01-18 02:03:22.65	333.00	26.57	-30.3	-31.9	13.7	1.81e-03	0	44	0	452984832	20	4327
2026-01-18 02:03:23.65	332.71	26.63	-30.2	-31.7	13.8	1.14e-05	0	44	0	455081984	20	4270
2026-01-18 02:03:24.65	332.43	26.70	-30.2	-31.6	13.8	5.30e-06	0	44	0	456130560	20	4256
2026-01-18 02:03:25.66	332.14	26.76	-30.1	-31.3	13.9	1.22e-05	0	44	0	458227712	20	4168
2026-01-18 02:03:26.66	331.85	26.83	-30.0	-31.3	14.0	2.01e-03	0	44	0	460324864	20	4160
2026-01-18 02:03:27.66	331.56	26.89	-30.0	-31.3	14.0	4.21e-04	0	44	0	462422016	20	4174
2026-01-18 02:03:28.66	331.27	26.95	-30.2	-31.6	13.8	3.80e-06	0	44	0	464519168	20	4259
2026-01-18 02:03:29.66	330.98	27.01	-30.2	-31.8	13.7	3.91e-04	0	44	0	465567744	20	4307
2026-01-18 02:03:30.67	330.69	27.08	-30.2	-31.8	13.7	5.38e-04	0	44	0	467664896	20	4332
2026-01-18 02:03:31.67	330.40	27.14	-30.2	-31.8	13.7	6.10e-06	0	44	0	469762048	20	4314
2026-01-18 02:03:32.67	330.10	27.20	-30.3	-31.9	13.6	1.14e-05	0	44	0	471859200	20	4346
2026-01-18 02:03:33.67	329.81	27.26	-30.3	-32.0	13.5	2.08e-03	0	44	0	472907776	20	4381
2026-01-18 02:03:34.67	329.51	27.31	-30.0	-31.2	14.1	6.80e-06	0	44	0	475004928	20	4118
2026-01-18 02:03:35.67	329.21	27.37	-30.0	-31.1	14.1	7.00e-07	0	44	0	477102080	20	4111
2026-01-18 02:03:36.67	328.92	27.43	-30.0	-31.1	14.1	1.50e-03	0	44	0	479199232	20	4122
2026-01-18 02:03:37.68	328.61	27.48	-30.1	-31.5	13.8	6.98e-04	0	44	0	481296384	20	4222
2026-01-18 02:03:38.69	328.31	27.54	-30.4	-31.9	13.2	2.21e-05	0	44	0	482344960	21	4268
2026-01-18 02:03:39.69	328.01	27.59	-30.7	-32.5	12.9	5.26e-05	0	44	0	484442112	21	4451
2026-01-18 02:03:40.69	327.71	27.65	-30.8	-32.8	12.6	1.63e-03	0	44	0	486539264	21	4565
2026-01-18 02:03:41.69	327.40	27.70	-30.5	-32.0	13.2	1.28e-03	0	44	0	488636416	21	4281
2026-01-18 02:03:42.69	327.10	27.75	-30.1	-31.5	13.8	1.14e-05	0	44	0	490733568	20	4217
2026-01-18 02:03:43.70	326.79	27.81	-30.0	-31.7	14.2	2.32e-03	0	44	0	491782144	19	4361
2026-01-18 02:03:44.69	326.49	27.86	-29.7	-31.0	14.6	2.07e-03	0	44	0	493879296	19	4152
2026-01-18 02:03:45.69	326.18	27.91	-29.8	-31.3	14.4	6.47e-04	0	44	0	495976448	19	4239
2026-01-18 02:03:46.70	325.87	27.95	-29.9	-31.4	14.3	1.55e-03	0	44	0	498073600	19	4291
2026-01-18 02:03:47.70	325.56	28.00	-29.9	-31.4	14.3	2.47e-03	0	44	0	500170752	19	4277
2026-01-18 02:03:48.70	325.25	28.05	-30.1	-31.5	13.9	2.82e-03	0	44	0	501219328	20	4233
2026-01-18 02:03:49.71	324.93	28.10	-30.1	-31.5	13.8	3.80e-06	0	44	0	503316480	20	4231
2026-01-18 02:03:50.71	324.62	28.14	-30.0	-31.2	14.1	2.64e-03	0	44	0	505413632	20	4132
2026-01-18 02:03:51.72	324.30	28.19	-29.9	-30.8	14.3	3.04e-03	0	44	0	507510784	20	4030
2026-01-18 02:03:52.72	323.99	28.23	-29.9	-31.1	14.1	4.59e-04	0	44	0	509607936	20	4100
2026-01-18 02:03:53.72	323.68	28.27	-29.8	-31.3	14.3	2.72e-03	0	44	0	510656512	19	4249
2026-01-18 02:03:54.72	323.36	28.32	-29.8	-31.2	14.4	3.35e-03	0	44	0	512753664	19	4209
2026-01-18 02:03:55.73	323.04	28.36	-29.9	-31.5	14.3	1.37e-03	0	44	0	514850816	19	4308
2026-01-18 02:03:56.73	322.72	28.40	-30.0	-31.3	14.0	3.00e-06	0	44	0	516947968	20	4170
2026-01-18 02:03:57.74	322.40	28.44	-30.1	-31.6	13.8	3.02e-03	0	44	0	517996544	20	4247
2026-01-18 02:03:58.74	322.08	28.47	-30.3	-31.9	13.6	1.25e-03	0	44	0	520093696	20	4356
2026-01-18 02:03:59.74	321.76	28.51	-30.1	-31.4	13.9	3.27e-03	0	44	0	522190848	20	4182
2026-01-18 02:04:00.75	321.44	28.55	-29.8	-31.2	14.4	2.96e-03	0	44	0	524288000	19	4225
2026-01-18 02:04:01.76	321.12	28.58	-29.9	-31.4	14.3	8.41e-04	0	44	0	526385152	19	4275
2026-01-18 02:04:02.76	320.79	28.62	-30.2	-31.6	13.8	2.78e-03	0	44	0	527433728	20	4255
2026-01-18 02:04:03.76	320.47	28.65	-30.6	-32.3	13.0	3.16e-03	0	44	0	529530880	21	4383
2026-01-18 02:04:04.76	320.15	28.68	-31.0	-33.0	12.2	8.31e-04	0	44	0	531628032	22	4536
2026-01-18 02:04:05.77	319.82	28.72	-31.5	-34.1	11.1	3.95e-03	0	44	0	533725184	23	4838
2026-01-18 02:04:06.77	319.50	28.75	-31.5	-34.0	11.2	5.90e-03	0	44	0	535822336	23	4798
2026-01-18 02:04:07.78	319.17	28.78	-31.5	-33.8	11.3	1.93e-03	0	44	0	536870912	23	4737
2026-01-18 02:04:08.78	318.84	28.80	-31.3	-33.8	11.7	4.50e-03	0	44	0	538968064	22	4799
2026-01-18 02:04:09.78	318.52	28.83	-31.3	-33.9	11.7	4.12e-03	0	44	0	541065216	22	4831
2026-01-18 02:04:10.78	318.19	28.86	-31.0	-32.9	12.3	2.46e-04	0	44	0	543162368	22	4495
2026-01-18 02:04:11.78	317.86	28.88	-31.1	-33.2	12.1	2.83e-03	0	44	0	545259520	22	4588
2026-01-18 02:04:12.78	317.53	28.91	-31.4	-34.3	11.4	3.82e-03	0	44	0	546308096	22	4999
2026-01-18 02:04:13.79	317.20	28.93	-31.6	-34.3	10.9	1.44e-03	0	44	0	548405248	23	4916
2026-01-18 02:04:14.79	316.87	28.95	-31.6	-34.2	11.0	4.65e-03	0	44	0	550502400	23	4859
2026-01-18 02:04:15.79	316.54	28.97	-31.6	-34.1	11.1	4.38e-03	0	44	0	552599552	23	4840
2026-01-18 02:04:16.80	316.21	29.00	-31.4	-34.2	11.5	1.68e-03	0	44	0	554696704	22	4945
2026-01-18 02:04:17.80	315.88	29.01	-31.0	-32.9	12.3	3.23e-04	0	44	0	555745280	22	4482
2026-01-18 02:04:18.81	315.55	29.03	-30.7	-32.5	12.9	1.81e-03	0	44	0	557842432	21	4442
2026-01-18 02:04:19.81	315.22	29.05	-30.6	-32.4	12.9	5.11e-04	0	44	0	559939584	21	4430
2026-01-18 02:04:20.81	314.88	29.07	-30.9	-33.3	12.3	1.07e-04	0	44	0	562036736	21	4741
2026-01-18 02:04:21.81	314.55	29.08	-31.2	-33.7	11.8	9.41e-04	0	44	0	564133888	22	4772
2026-01-18 02:04:22.81	314.22	29.09	-31.6	-34.3	11.0	1.22e-03	0	44	0	565182464	23	4907
2026-01-18 02:04:23.82	313.89	29.11	-31.5	-34.2	10.8	2.31e-03	0	44	0	567279616	23	4909
2026-01-18 02:04:24.83	313.55	29.12	-31.5	-34.1	11.1	2.60e-03	0	44	0	569376768	23	4851
2026-01-18 02:04:25.83	313.22	29.13	-31.6	-34.3	10.9	3.59e-03	0	44	0	571473920	23	4933
2026-01-18 02:04:26.84	312.88	29.14	-31.5	-33.9	11.1	2.73e-03	0	44	0	572522496	23	4788
2026-01-18 02:04:27.84	312.55	29.15	-31.5	-34.1	11.1	1.43e-03	0	44	0	574619648	23	4846
2026-01-18 02:04:28.84	312.21	29.15	-31.4	-33.7	11.1	1.76e-03	0	44	0	576716800	23	4708
2026-01-18 02:04:29.84	311.88	29.16	-31.5	-34.3	11.0	3.69e-03	0	44	0	578813952	23	4927
2026-01-18 02:04:30.84	311.55	29.17	-31.5	-34.2	10.8	2.29e-03	0	44	0	580911104	23	4893
2026-01-18 02:04:31.85	311.21	29.17	-31.6	-34.4	10.8	3.42e-03	0	44	0	583008256	23	4984
2026-01-18 02:04:32.85	310.88	29.17	-31.4	-33.7	11.3	4.74e-03	0	44	0	584056832	23	4695
2026-01-18 02:04:33.85	310.54	29.18	-31.2	-33.6	11.8	3.77e-03	0	44	0	586153984	22	4753
2026-01-18 02:04:34.86	310.21	29.18	-31.1	-33.2	12.2	2.92e-04	0	44	0	588251136	22	4573
2026-01-18 02:04:35.86	309.87	29.18	-31.2	-33.6	11.9	3.42e-04	0	44	0	590348288	22	4732
2026-01-18 02:04:36.86	309.54	29.17	-30.8	-32.4	12.6	2.76e-03	0	44	0	591396864	22	4326
2026-01-18 02:04:37.86	309.20	29.17	-30.7	-32.4	12.9	4.65e-05	0	44	0	593494016	21	4420
2026-01-18 02:04:38.86	308.87	29.17	-30.6	-32.4	12.9	3.66e-05	0	44	0	595591168	21	4417
2026-01-18 02:04:39.86	308.54	29.16	-30.8	-33.0	12.6	2.55e-03	0	44	0	597688320	21	4603
2026-01-18 02:04:40.87	308.20	29.16	-30.8	-32.8	12.7	8.08e-05	0	44	0	599785472	21	4551
2026-01-18 02:04:41.87	307.87	29.15	-30.9	-33.2	12.4	1.20e-04	0	44	0	600834048	21	4688
2026-01-18 02:04:42.87	307.53	29.14	-31.4	-34.0	11.6	3.23e-04	0	44	0	602931200	22	4890
2026-01-18 02:04:43.88	307.20	29.13	-31.8	-34.9	10.7	1.76e-03	0	44	0	605028352	23	5119
2026-01-18 02:04:44.88	306.86	29.12	-31.7	-34.6	10.9	3.51e-03	0	44	0	607125504	23	5029
2026-01-18 02:04:45.88	306.53	29.11	-31.7	-34.5	10.9	2.35e-03	0	44	0	609222656	23	4970
2026-01-18 02:04:46.89	306.20	29.10	-31.7	-34.6	10.9	2.01e-03	0	44	0	610271232	23	4988
2026-01-18 02:04:47.89	305.86	29.09	-31.3	-33.4	11.7	7.04e-04	0	44	0	612368384	23	4543
2026-01-18 02:04:48.89	305.53	29.07	-30.9	-32.6	12.6	1.88e-04	0	44	0	614465536	22	4384
2026-01-18 02:04:49.90	305.20	29.06	-30.8	-32.9	12.6	7.62e-05	0	44	0	616562688	21	4585
2026-01-18 02:04:50.89	304.87	29.04	-31.1	-33.2	12.1	2.58e-04	0	44	0	618659840	22	4596
2026-01-18 02:04:51.90	304.53	29.02	-31.3	-33.8	11.7	5.86e-04	0	44	0	619708416	22	4795
2026-01-18 02:04:52.90	304.20	29.01	-31.4	-34.0	11.6	6.02e-04	0	44	0	621805568	22	4883
2026-01-18 02:04:53.89	303.88	28.99	-31.4	-34.1	11.4	4.92e-04	0	44	0	623902720	22	4934
2026-01-18 02:04:54.89	303.55	28.97	-31.3	-33.8	11.7	6.58e-04	0	44	0	625999872	22	4813
2026-01-18 02:04:55.89	303.22	28.94	-31.2	-33.5	11.9	3.64e-04	0	44	0	628097024	22	4694
2026-01-18 02:04:56.89	302.89	28.92	-31.1	-33.3	12.0	4.61e-04	0	44	0	629145600	22	4626
2026-01-18 02:04:57.90	302.56	28.90	-31.0	-33.0	12.2	2.59e-04	0	44	0	631242752	22	4531
2026-01-18 02:04:58.89	302.23	28.87	-31.3	-33.9	11.7	8.06e-04	0	44	0	633339904	22	4823
2026-01-18 02:04:59.89	301.91	28.85	-31.1	-33.1	12.1	4.40e-04	0	44	0	635437056	22	4569
2026-01-18 02:05:00.89	301.58	28.82	-30.7	-31.9	13.0	1.25e-04	0	44	0	636485632	22	4178
2026-01-18 02:05:01.90	301.25	28.79	-30.4	-31.7	13.4	1.14e-05	0	44	0	638582784	21	4188
2026-01-18 02:05:02.90	300.92	28.76	-30.2	-31.6	13.7	6.10e-06	0	44	0	640679936	20	4267
2026-01-18 02:05:03.90	300.60	28.73	-30.1	-31.4	13.9	4.50e-06	0	44	0	642777088	20	4204
2026-01-18 02:05:04.90	300.27	28.70	-30.2	-31.7	13.7	1.14e-05	0	44	0	644874240	20	4297
2026-01-18 02:05:05.90	299.95	28.67	-29.8	-30.6	14.4	3.80e-06	0	44	0	645922816	20	3968
2026-01-18 02:05:06.90	299.63	28.64	-29.9	-31.3	14.4	1.50e-06	0	44	0	648019968	19	4247
2026-01-18 02:05:07.90	299.30	28.60	-29.6	-30.7	14.7	1.50e-06	0	44	0	650117120	19	4089
2026-01-18 02:05:08.90	298.98	28.57	-29.8	-31.0	14.5	0.00e+00	0	44	0	652214272	19	4180
2026-01-18 02:05:09.90	298.66	28.53	-29.7	-30.9	14.5	7.00e-07	0	44	0	654311424	19	4138
2026-01-18 02:05:10.91	298.34	28.49	-29.8	-31.0	14.5	7.00e-07	0	44	0	655360000	19	4173
2026-01-18 02:05:11.91	298.02	28.46	-29.8	-31.1	14.5	0.00e+00	0	44	0	657457152	19	4198
2026-01-18 02:05:12.92	297.69	28.42	-29.9	-31.5	14.2	7.00e-07	0	44	0	659554304	19	4306
2026-01-18 02:05:13.92	297.38	28.38	-30.0	-31.3	14.0	2.20e-06	0	44	0	661651456	20	4148
2026-01-18 02:05:14.93	297.06	28.34	-30.2	-31.7	13.6	4.50e-06	0	44	0	663748608	20	4279
2026-01-18 02:05:15.93	296.74	28.30	-30.0	-31.2	13.9	5.30e-06	0	44	0	664797184	20	4125
2026-01-18 02:05:16.94	296.42	28.25	-29.9	-31.0	14.1	2.20e-06	0	44	0	666894336	20	4074
2026-01-18 02:05:17.94	296.11	28.21	-29.8	-30.8	14.3	0.00e+00	0	44	0	668991488	20	4018
2026-01-18 02:05:18.95	295.79	28.17	-29.9	-31.4	14.3	7.00e-07	0	44	0	671088640	19	4273
2026-01-18 02:05:19.95	295.48	28.12	-30.2	-31.8	13.7	3.00e-06	0	44	0	673185792	20	4317
2026-01-18 02:05:20.95	295.16	28.07	-30.2	-31.8	13.7	6.10e-06	0	44	0	674234368	20	4309
2026-01-18 02:05:21.95	294.85	28.03	-30.4	-32.1	13.5	1.39e-03	0	44	0	676331520	20	4415
2026-01-18 02:05:22.96	294.54	27.98	-30.1	-31.5	13.9	2.20e-06	0	44	0	678428672	20	4205
2026-01-18 02:05:23.96	294.23	27.93	-30.0	-31.3	14.0	1.50e-06	0	44	0	680525824	20	4145
2026-01-18 02:05:24.96	293.92	27.88	-30.0	-31.5	14.3	3.00e-06	0	44	0	681574400	19	4306
2026-01-18 02:05:25.96	293.61	27.83	-29.9	-30.9	14.2	0.00e+00	0	44	0	683671552	20	4041
2026-01-18 02:05:26.96	293.31	27.78	-29.9	-31.0	14.1	7.00e-07	0	44	0	685768704	20	4063
2026-01-18 02:05:27.96	293.00	27.73	-30.2	-31.8	13.7	4.50e-06	0	44	0	687865856	20	4298
2026-01-18 02:05:28.96	292.70	27.68	-30.5	-32.5	13.3	1.44e-05	0	44	0	689963008	20	4524
2026-01-18 02:05:29.96	292.39	27.62	-30.4	-32.2	13.4	4.50e-06	0	44	0	691011584	20	4435
2026-01-18 02:05:30.96	292.09	27.57	-30.2	-31.8	13.7	3.00e-06	0	44	0	693108736	20	4306
2026-01-18 02:05:31.97	291.78	27.51	-29.9	-30.9	14.2	5.30e-06	0	44	0	695205888	20	4040
2026-01-18 02:05:32.97	291.48	27.46	-29.7	-30.4	14.5	9.99e-05	0	44	0	697303040	20	3899
2026-01-18 02:05:33.97	291.18	27.40	-29.9	-31.0	14.1	7.00e-07	0	44	0	699400192	20	4079
2026-01-18 02:05:34.97	290.89	27.34	-30.0	-31.3	14.0	3.00e-06	0	44	0	700448768	20	4159
2026-01-18 02:05:35.97	290.59	27.29	-30.3	-31.9	13.6	4.50e-06	0	44	0	702545920	20	4345
2026-01-18 02:05:36.97	290.29	27.23	-30.3	-31.9	13.6	5.30e-06	0	44	0	704643072	20	4352
2026-01-18 02:05:37.98	289.99	27.17	-30.1	-31.5	13.8	8.30e-06	0	44	0	706740224	20	4223
2026-01-18 02:05:38.98	289.70	27.11	-30.3	-31.5	13.5	1.37e-05	0	44	0	708837376	21	4118
2026-01-18 02:05:39.98	289.41	27.05	-30.4	-31.7	13.4	1.44e-05	0	44	0	709885952	21	4201
2026-01-18 02:05:40.98	289.12	26.99	-30.5	-32.0	13.2	9.90e-06	0	44	0	711983104	21	4279
2026-01-18 02:05:41.98	288.83	26.92	-30.7	-32.6	12.8	3.28e-05	0	44	0	714080256	21	4472
2026-01-18 02:05:42.99	288.53	26.86	-30.8	-33.1	12.5	9.46e-05	0	44	0	716177408	21	4647
2026-01-18 02:05:43.99	288.24	26.80	-31.1	-33.2	12.1	1.99e-04	0	44	0	718274560	22	4612
2026-01-18 02:05:44.99	287.96	26.73	-31.1	-33.3	11.9	4.11e-04	0	44	0	719323136	22	4646
2026-01-18 02:05:45.99	287.67	26.67	-31.2	-33.6	11.7	6.64e-04	0	44	0	721420288	22	4756
2026-01-18 02:05:46.99	287.39	26.60	-31.4	-34.2	11.3	7.57e-04	0	44	0	723517440	22	4983
2026-01-18 02:05:48.00	287.10	26.54	-31.7	-34.7	10.6	2.37e-03	0	44	0	725614592	23	5082
2026-01-18 02:05:49.00	286.82	26.47	-31.7	-34.7	10.5	3.18e-03	0	44	0	726663168	23	5106
2026-01-18 02:05:50.01	286.53	26.40	-31.4	-33.7	11.2	2.17e-03	0	44	0	728760320	23	4696
2026-01-18 02:05:51.02	286.25	26.33	-31.2	-33.3	11.5	1.18e-03	0	44	0	730857472	23	4555
2026-01-18 02:05:52.02	285.97	26.26	-31.4	-33.7	11.2	1.03e-03	0	44	0	732954624	23	4695
2026-01-18 02:05:53.03	285.69	26.19	-31.2	-33.3	11.5	8.52e-04	0	44	0	735051776	23	4554
2026-01-18 02:05:54.03	285.41	26.12	-31.1	-32.9	11.7	5.65e-04	0	44	0	736100352	23	4440
2026-01-18 02:05:55.04	285.14	26.05	-31.0	-32.5	12.1	2.66e-04	0	44	0	738197504	23	4304
2026-01-18 02:05:56.04	284.86	25.98	-30.8	-32.4	12.5	1.32e-04	0	44	0	740294656	22	4330
2026-01-18 02:05:57.04	284.59	25.91	-30.9	-32.7	12.3	2.20e-04	0	44	0	742391808	22	4452
2026-01-18 02:05:58.03	284.32	25.84	-30.6	-31.8	12.8	2.85e-04	0	44	0	744488960	22	4161
2026-01-18 02:05:59.03	284.05	25.77	-30.2	-31.5	13.3	1.90e-05	0	44	0	745537536	21	4151
2026-01-18 02:06:00.04	283.78	25.70	-30.0	-30.7	13.8	2.67e-04	0	44	0	747634688	21	3922
2026-01-18 02:06:01.04	283.51	25.62	-29.5	-30.1	14.6	3.07e-04	0	44	0	749731840	20	3839
2026-01-18 02:06:02.04	283.24	25.55	-29.4	-30.1	14.9	0.00e+00	0	44	0	751828992	19	3935
2026-01-18 02:06:03.04	282.98	25.47	-29.5	-30.4	14.8	2.45e-04	0	44	0	753926144	19	3998
2026-01-18 02:06:04.05	282.71	25.40	-29.8	-31.3	14.2	1.83e-04	0	44	0	754974720	19	4270
2026-01-18 02:06:05.05	282.45	25.32	-29.9	-31.1	13.9	3.00e-06	0	44	0	757071872	20	4131
2026-01-18 02:06:06.06	282.19	25.25	-30.4	-32.5	13.0	2.59e-05	0	44	0	759169024	20	4578
2026-01-18 02:06:07.05	281.93	25.17	-30.4	-32.5	13.0	2.20e-04	0	44	0	761266176	20	4559
2026-01-18 02:06:08.06	281.67	25.09	-30.6	-32.4	12.7	5.34e-05	0	44	0	763363328	21	4448
2026-01-18 02:06:09.07	281.41	25.02	-30.8	-32.9	12.4	2.42e-04	0	44	0	764411904	21	4622
2026-01-18 02:06:10.07	281.15	24.94	-30.7	-32.7	12.5	2.84e-04	0	44	0	766509056	21	4561
2026-01-18 02:06:11.08	280.89	24.86	-30.9	-33.0	12.0	3.71e-04	0	44	0	768606208	22	4559
2026-01-18 02:06:12.08	280.64	24.78	-30.9	-32.8	12.1	2.75e-04	0	44	0	770703360	22	4495
2026-01-18 02:06:13.08	280.38	24.71	-31.1	-33.4	11.7	5.07e-04	0	44	0	771751936	22	4714
2026-01-18 02:06:14.08	280.13	24.63	-30.9	-33.0	12.0	4.58e-04	0	44	0	773849088	22	4579
2026-01-18 02:06:15.08	279.88	24.55	-30.9	-33.1	11.8	4.12e-04	0	44	0	775946240	22	4601
2026-01-18 02:06:16.07	279.64	24.47	-30.9	-32.8	12.1	3.10e-04	0	44	0	778043392	22	4507
2026-01-18 02:06:17.08	279.39	24.39	-30.9	-32.9	12.0	3.13e-04	0	44	0	780140544	22	4535
2026-01-18 02:06:18.08	279.14	24.31	-30.9	-33.0	12.0	2.81e-04	0	44	0	782237696	22	4571
2026-01-18 02:06:19.08	278.90	24.23	-31.0	-33.3	11.7	3.71e-04	0	44	0	783286272	22	4673
2026-01-18 02:06:20.08	278.65	24.15	-30.9	-32.8	12.1	3.04e-04	0	44	0	785383424	22	4500
2026-01-18 02:06:21.08	278.41	24.07	-30.9	-32.8	12.0	1.94e-04	0	44	0	787480576	22	4508
2026-01-18 02:06:22.09	278.17	23.98	-30.7	-32.1	12.5	1.36e-04	0	44	0	789577728	22	4271
2026-01-18 02:06:23.10	277.92	23.90	-30.4	-31.4	13.1	2.89e-05	0	44	0	790626304	22	4051
2026-01-18 02:06:24.10	277.68	23.82	-30.2	-31.3	13.5	1.44e-05	0	44	0	792723456	21	4097
2026-01-18 02:06:25.11	277.44	23.74	-30.2	-31.9	13.4	2.55e-04	0	44	0	794820608	20	4366
2026-01-18 02:06:26.11	277.21	23.65	-29.9	-31.1	14.0	6.10e-06	0	44	0	796917760	20	4114
2026-01-18 02:06:27.11	276.97	23.57	-29.6	-30.4	14.4	0.00e+00	0	44	0	799014912	20	3917
2026-01-18 02:06:28.11	276.74	23.49	-29.8	-31.2	14.2	2.29e-04	0	44	0	800063488	19	4234
2026-01-18 02:06:29.11	276.51	23.40	-29.7	-31.0	14.3	7.00e-07	0	44	0	802160640	19	4190
2026-01-18 02:06:30.11	276.28	23.32	-29.8	-31.2	14.2	7.00e-07	0	44	0	804257792	19	4252
2026-01-18 02:06:31.11	276.05	23.24	-29.6	-30.9	14.3	0.00e+00	0	44	0	806354944	19	4145
2026-01-18 02:06:32.11	275.82	23.15	-29.7	-31.0	14.3	0.00e+00	0	44	0	808452096	19	4175
2026-01-18 02:06:33.11	275.59	23.07	-29.6	-30.8	14.4	1.57e-04	0	44	0	809500672	19	4131
2026-01-18 02:06:34.11	275.36	22.98	-29.6	-30.7	14.4	1.50e-06	0	44	0	811597824	19	4107
2026-01-18 02:06:35.11	275.14	22.90	-29.4	-30.1	14.9	0.00e+00	0	44	0	813694976	19	3938
2026-01-18 02:06:36.11	274.91	22.81	-29.2	-29.8	15.0	0.00e+00	0	44	0	815792128	19	3853
2026-01-18 02:06:37.11	274.69	22.73	-29.1	-29.5	15.2	0.00e+00	0	44	0	816840704	19	3764
2026-01-18 02:06:38.12	274.47	22.64	-29.0	-29.1	15.4	0.00e+00	0	44	0	818937856	19	3670
2026-01-18 02:06:39.12	274.25	22.56	-28.7	-29.0	15.8	3.00e-06	0	44	0	821035008	18	3722
2026-01-18 02:06:40.13	274.03	22.47	-28.6	-28.7	15.9	1.22e-05	0	44	0	823132160	18	3644
2026-01-18 02:06:41.13	273.81	22.39	-28.7	-29.0	15.8	0.00e+00	0	44	0	825229312	18	3726
2026-01-18 02:06:42.13	273.59	22.30	-28.6	-29.2	15.9	3.00e-06	0	44	0	826277888	17	3884
2026-01-18 02:06:43.13	273.38	22.21	-28.9	-30.0	15.5	4.45e-04	0	44	0	828375040	17	4088
2026-01-18 02:06:44.13	273.16	22.13	-29.1	-29.9	15.2	0.00e+00	0	44	0	830472192	18	3971
2026-01-18 02:06:45.13	272.95	22.04	-29.5	-30.9	14.7	5.30e-06	0	44	0	832569344	18	4254
2026-01-18 02:06:46.14	272.74	21.95	-29.5	-30.9	14.6	1.14e-03	0	44	0	834666496	18	4256
2026-01-18 02:06:47.13	272.53	21.87	-29.8	-31.2	14.1	1.50e-06	0	44	0	835715072	19	4258
2026-01-18 02:06:48.14	272.32	21.78	-29.8	-31.4	14.0	5.30e-06	0	44	0	837812224	19	4323
2026-01-18 02:06:49.14	272.11	21.69	-29.9	-31.3	13.6	3.00e-06	0	44	0	839909376	20	4200
2026-01-18 02:06:50.14	271.90	21.61	-29.9	-31.1	13.7	1.50e-06	0	44	0	842006528	20	4133
2026-01-18 02:06:51.15	271.69	21.52	-29.9	-31.2	13.7	6.80e-06	0	44	0	844103680	20	4165
2026-01-18 02:06:52.15	271.49	21.43	-29.8	-30.9	13.9	2.20e-06	0	44	0	845152256	20	4081
2026-01-18 02:06:53.16	271.28	21.34	-29.7	-30.5	14.2	5.30e-06	0	44	0	847249408	20	3968
2026-01-18 02:06:54.16	271.08	21.26	-29.6	-30.4	14.3	7.00e-07	0	44	0	849346560	20	3920
2026-01-18 02:06:55.16	270.88	21.17	-29.9	-31.4	14.0	2.20e-06	0	44	0	851443712	19	4323
2026-01-18 02:06:56.17	270.68	21.08	-29.9	-31.6	13.8	3.80e-06	0	44	0	853540864	19	4375
2026-01-18 02:06:57.17	270.48	20.99	-30.0	-31.4	13.6	4.81e-04	0	44	0	854589440	20	4223
2026-01-18 02:06:58.18	270.28	20.91	-30.0	-31.3	13.7	1.60e-05	0	44	0	856686592	20	4191
2026-01-18 02:06:59.18	270.08	20.82	-29.9	-31.0	13.8	3.00e-06	0	44	0	858783744	20	4101
2026-01-18 02:07:00.18	269.89	20.73	-29.8	-31.1	14.1	2.20e-06	0	44	0	860880896	19	4224
2026-01-18 02:07:01.19	269.69	20.64	-29.2	-29.7	15.1	7.00e-07	0	44	0	862978048	19	3815
2026-01-18 02:07:02.19	269.50	20.55	-28.9	-29.1	15.5	0.00e+00	0	44	0	864026624	19	3655
2026-01-18 02:07:03.20	269.30	20.47	-28.6	-28.8	15.9	7.00e-07	0	44	0	866123776	18	3668
2026-01-18 02:07:04.19	269.11	20.38	-28.5	-29.2	15.9	0.00e+00	0	44	0	868220928	17	3858
2026-01-18 02:07:05.19	268.92	20.29	-28.8	-29.7	15.6	0.00e+00	0	44	0	870318080	17	3990
2026-01-18 02:07:06.20	268.73	20.20	-28.6	-29.4	15.7	0.00e+00	0	44	0	872415232	17	3924
2026-01-18 02:07:07.20	268.54	20.11	-28.7	-29.4	15.8	0.00e+00	0	44	0	873463808	17	3929
2026-01-18 02:07:08.21	268.36	20.03	-28.9	-30.0	15.4	0.00e+00	0	44	0	875560960	17	4080
2026-01-18 02:07:09.21	268.17	19.94	-29.0	-29.7	15.3	0.00e+00	0	44	0	877658112	18	3908
2026-01-18 02:07:10.21	267.99	19.85	-29.2	-30.2	15.0	0.00e+00	0	44	0	879755264	18	4049
2026-01-18 02:07:11.22	267.80	19.76	-29.3	-30.6	14.8	0.00e+00	0	44	0	880803840	18	4155
2026-01-18 02:07:12.22	267.62	19.67	-29.2	-30.3	14.9	0.00e+00	0	44	0	882900992	18	4082
2026-01-18 02:07:13.22	267.44	19.59	-29.3	-30.4	14.9	0.00e+00	0	44	0	884998144	18	4114
2026-01-18 02:07:14.22	267.26	19.50	-29.1	-29.9	15.2	0.00e+00	0	44	0	887095296	18	3961
2026-01-18 02:07:15.22	267.08	19.41	-29.1	-30.0	15.1	0.00e+00	0	44	0	889192448	18	4001
2026-01-18 02:07:16.22	266.90	19.32	-29.2	-30.4	14.9	0.00e+00	0	44	0	890241024	18	4096
2026-01-18 02:07:17.23	266.72	19.23	-29.1	-30.1	15.1	0.00e+00	0	44	0	892338176	18	4016
2026-01-18 02:07:18.24	266.54	19.14	-29.3	-30.6	13.4	7.00e-07	0	44	0	894435328	18	4172
2026-01-18 02:07:19.24	266.37	19.06	-29.5	-30.6	14.4	0.00e+00	0	44	0	896532480	19	4081
2026-01-18 02:07:20.25	266.19	18.97	-29.5	-30.6	13.4	7.00e-07	0	44	0	898629632	19	4061
2026-01-18 02:07:21.25	266.02	18.88	-29.5	-30.9	13.5	7.00e-07	0	44	0	899678208	18	4266
2026-01-18 02:07:22.25	265.85	18.79	-29.6	-30.7	14.4	7.00e-07	0	44	0	901775360	19	4095
2026-01-18 02:07:23.25	265.67	18.71	-29.7	-31.0	14.1	1.50e-06	0	44	0	903872512	19	4180
2026-01-18 02:07:24.24	265.51	18.62	-29.5	-31.0	14.4	2.10e-03	0	44	0	905969664	18	4290
2026-01-18 02:07:25.25	265.34	18.53	-29.5	-30.6	14.4	7.00e-07	0	44	0	908066816	19	4071
2026-01-18 02:07:26.25	265.17	18.44	-29.6	-30.7	14.4	0.00e+00	0	44	0	909115392	19	4104
2026-01-18 02:07:27.26	265.00	18.35	-29.3	-30.4	14.8	0.00e+00	0	44	0	911212544	18	4117
2026-01-18 02:07:28.26	264.83	18.27	-29.1	-30.1	15.1	0.00e+00	0	44	0	913309696	18	4016
2026-01-18 02:07:29.26	264.67	18.18	-29.0	-29.7	15.2	0.00e+00	0	44	0	915406848	18	3925
2026-01-18 02:07:30.26	264.50	18.09	-28.8	-29.3	15.5	0.00e+00	0	44	0	917504000	18	3820
2026-01-18 02:07:31.27	264.34	18.00	-29.0	-29.9	15.1	0.00e+00	0	44	0	918552576	18	3958
2026-01-18 02:07:32.27	264.18	17.92	-29.3	-30.6	14.6	7.00e-07	0	44	0	920649728	18	4183
2026-01-18 02:07:33.28	264.01	17.83	-29.4	-30.8	14.6	7.00e-07	0	44	0	922746880	18	4225
2026-01-18 02:07:34.29	263.85	17.74	-29.8	-31.4	13.9	3.00e-06	0	44	0	924844032	19	4319
2026-01-18 02:07:35.29	263.69	17.65	-30.1	-31.8	13.2	1.55e-04	0	44	0	926941184	20	4353
2026-01-18 02:07:36.29	263.53	17.57	-30.2	-32.1	13.0	2.74e-05	0	44	0	927989760	20	4456
2026-01-18 02:07:37.30	263.37	17.48	-30.3	-32.2	12.9	3.96e-05	0	44	0	930086912	20	4501
2026-01-18 02:07:38.30	263.22	17.39	-30.3	-32.4	12.8	1.62e-04	0	44	0	932184064	20	4555
2026-01-18 02:07:39.30	263.06	17.31	-30.4	-32.6	12.7	7.47e-05	0	44	0	934281216	20	4623
2026-01-18 02:07:40.30	262.91	17.22	-30.4	-32.5	12.7	8.08e-05	0	44	0	935329792	20	4608
2026-01-18 02:07:41.31	262.75	17.13	-30.4	-31.9	12.7	5.72e-04	0	44	0	937426944	21	4315
2026-01-18 02:07:42.31	262.60	17.05	-30.2	-31.9	13.1	4.89e-04	0	44	0	939524096	20	4409
2026-01-18 02:07:43.31	262.45	16.96	-30.1	-31.7	13.3	2.51e-05	0	44	0	941621248	20	4330
2026-01-18 02:07:44.32	262.29	16.87	-30.1	-31.6	13.3	2.05e-05	0	44	0	943718400	20	4315
2026-01-18 02:07:45.32	262.14	16.79	-30.1	-31.8	13.2	1.05e-03	0	44	0	944766976	20	4375
2026-01-18 02:07:46.32	261.99	16.70	-30.2	-31.9	13.0	3.96e-05	0	44	0	946864128	20	4395
2026-01-18 02:07:47.33	261.84	16.62	-30.1	-31.6	13.3	3.50e-05	0	44	0	948961280	20	4302
2026-01-18 02:07:48.33	261.69	16.53	-30.0	-31.3	13.5	1.41e-03	0	44	0	951058432	20	4216
2026-01-18 02:07:49.33	261.55	16.44	-30.0	-31.4	13.4	9.90e-06	0	44	0	953155584	20	4247
2026-01-18 02:07:50.33	261.40	16.36	-30.0	-31.4	13.4	1.44e-05	0	44	0	954204160	20	4240
2026-01-18 02:07:51.33	261.26	16.27	-30.1	-31.6	13.3	1.60e-05	0	44	0	956301312	20	4318
2026-01-18 02:07:52.33	261.11	16.19	-30.3	-32.4	12.8	5.72e-05	0	44	0	958398464	20	4559
2026-01-18 02:07:53.33	260.97	16.10	-30.4	-32.5	12.7	1.23e-03	0	44	0	960495616	20	4587
2026-01-18 02:07:54.33	260.82	16.02	-30.4	-32.2	12.5	6.02e-05	0	44	0	962592768	21	4420
2026-01-18 02:07:55.33	260.68	15.93	-30.3	-31.8	12.8	7.70e-05	0	44	0	963641344	21	4284
2026-01-18 02:07:56.33	260.54	15.85	-30.3	-32.2	12.8	6.69e-04	0	44	0	965738496	20	4508
2026-01-18 02:07:57.33	260.40	15.76	-30.1	-31.7	13.2	3.96e-05	0	44	0	967835648	20	4349
2026-01-18 02:07:58.32	260.26	15.68	-30.0	-31.4	13.4	1.29e-05	0	44	0	969932800	20	4254
2026-01-18 02:07:59.33	260.12	15.59	-29.9	-31.2	13.5	1.52e-05	0	44	0	970981376	20	4196
2026-01-18 02:08:00.33	259.98	15.51	-29.6	-30.4	14.1	7.00e-07	0	44	0	973078528	20	3946
2026-01-18 02:08:01.33	259.85	15.43	-29.7	-30.6	13.9	1.50e-06	0	44	0	975175680	20	3996
2026-01-18 02:08:02.33	259.71	15.34	-29.7	-31.2	13.9	2.84e-04	0	44	0	977272832	19	4262
2026-01-18 02:08:03.34	259.57	15.26	-29.9	-31.6	13.6	6.18e-04	0	44	0	979369984	19	4375
2026-01-18 02:08:04.34	259.44	15.17	-30.1	-31.6	13.2	6.10e-06	0	44	0	980418560	20	4319
2026-01-18 02:08:05.35	259.30	15.09	-30.2	-32.1	12.9	1.71e-03	0	44	0	982515712	20	4461
2026-01-18 02:08:06.36	259.17	15.00	-30.2	-32.1	12.9	2.03e-03	0	44	0	984612864	20	4461
2026-01-18 02:08:07.36	259.04	14.92	-30.3	-32.3	12.8	6.02e-05	0	44	0	986710016	20	4534
2026-01-18 02:08:08.36	258.90	14.84	-30.4	-32.1	12.5	9.00e-05	0	44	0	988807168	21	4389
2026-01-18 02:08:09.37	258.77	14.75	-30.2	-32.0	12.9	2.28e-03	0	44	0	989855744	20	4434
2026-01-18 02:08:10.37	258.64	14.67	-30.1	-31.8	13.0	3.81e-05	0	44	0	991952896	20	4386
2026-01-18 02:08:11.37	258.51	14.59	-30.0	-31.6	13.2	4.57e-05	0	44	0	994050048	20	4317
2026-01-18 02:08:12.38	258.38	14.50	-30.1	-31.8	13.0	2.28e-03	0	44	0	996147200	20	4388
2026-01-18 02:08:13.38	258.25	14.42	-30.2	-31.9	12.9	6.56e-05	0	44	0	998244352	20	4411
2026-01-18 02:08:14.39	258.13	14.34	-30.0	-31.5	13.2	1.90e-03	0	44	0	999292928	20	4269
2026-01-18 02:08:15.39	258.00	14.26	-29.8	-31.5	13.6	1.71e-03	0	44	0	1001390080	19	4365
2026-01-18 02:08:16.39	257.87	14.17	-29.8	-31.4	13.6	1.50e-06	0	44	0	1003487232	19	4343
2026-01-18 02:08:17.39	257.75	14.09	-29.8	-31.4	13.6	1.42e-03	0	44	0	1005584384	19	4345
2026-01-18 02:08:18.40	257.62	14.01	-29.7	-31.2	13.8	1.22e-03	0	44	0	1007681536	19	4269
2026-01-18 02:08:19.40	257.50	13.93	-29.8	-31.5	13.6	6.80e-06	0	44	0	1008730112	19	4360
2026-01-18 02:08:20.40	257.37	13.85	-29.7	-31.3	13.7	8.64e-04	0	44	0	1010827264	19	4312
2026-01-18 02:08:21.40	257.25	13.76	-30.0	-31.5	13.2	9.15e-04	0	44	0	1012924416	20	4274
2026-01-18 02:08:22.40	257.13	13.68	-30.0	-31.4	13.2	2.67e-05	0	44	0	1015021568	20	4268
2026-01-18 02:08:23.40	257.01	13.60	-30.0	-31.5	13.2	7.12e-04	0	44	0	1017118720	20	4295
2026-01-18 02:08:24.41	256.89	13.52	-30.0	-31.5	13.2	5.50e-04	0	44	0	1018167296	20	4276
2026-01-18 02:08:25.41	256.77	13.44	-30.0	-31.5	13.1	2.28e-05	0	44	0	1020264448	20	4291
2026-01-18 02:08:26.40	256.65	13.36	-30.2	-32.3	12.6	6.98e-04	0	44	0	1022361600	20	4537
2026-01-18 02:08:27.40	256.53	13.28	-30.2	-32.1	12.7	6.54e-04	0	44	0	1024458752	20	4492
2026-01-18 02:08:28.41	256.41	13.20	-30.3	-32.5	12.5	1.13e-04	0	44	0	1026555904	20	4628
2026-01-18 02:08:29.41	256.30	13.12	-30.5	-32.4	12.2	9.39e-04	0	44	0	1027604480	21	4487
2026-01-18 02:08:30.41	256.18	13.04	-30.5	-32.9	12.2	1.15e-03	0	44	0	1029701632	20	4749
2026-01-18 02:08:31.41	256.06	12.96	-30.6	-32.5	12.2	2.88e-04	0	44	0	1031798784	21	4512
2026-01-18 02:08:32.42	255.95	12.88	-30.3	-32.3	12.7	1.29e-03	0	44	0	1033895936	20	4539
2026-01-18 02:08:33.42	255.83	12.80	-30.3	-32.2	12.7	1.13e-03	0	44	0	1034944512	20	4509
2026-01-18 02:08:34.42	255.72	12.72	-30.3	-32.3	12.7	6.25e-05	0	44	0	1037041664	20	4531
2026-01-18 02:08:35.42	255.61	12.64	-30.3	-32.2	12.7	1.09e-03	0	44	0	1039138816	20	4499
2026-01-18 02:08:36.43	255.49	12.56	-30.2	-32.0	12.8	5.34e-05	0	44	0	1041235968	20	4450
2026-01-18 02:08:37.43	255.38	12.48	-30.3	-32.4	12.6	8.31e-05	0	44	0	1043333120	20	4570
2026-01-18 02:08:38.44	255.27	12.40	-30.3	-32.3	12.6	4.73e-04	0	44	0	1044381696	20	4538
2026-01-18 02:08:39.44	255.16	12.32	-30.5	-32.3	12.3	1.44e-04	0	44	0	1046478848	21	4432
2026-01-18 02:08:40.44	255.05	12.24	-30.6	-32.7	12.0	3.26e-04	0	44	0	1048576000	21	4585
2026-01-18 02:08:41.44	254.94	12.16	-30.8	-33.2	11.7	6.17e-04	0	44	0	1050673152	21	4750
2026-01-18 02:08:42.45	254.83	12.08	-30.9	-33.5	11.4	9.04e-04	0	44	0	1052770304	21	4893
2026-01-18 02:08:43.46	254.72	12.00	-30.9	-33.2	11.4	1.13e-03	0	44	0	1053818880	22	4673
2026-01-18 02:08:44.45	254.61	11.93	-31.0	-33.5	11.1	1.72e-03	0	44	0	1055916032	22	4807
2026-01-18 02:08:45.46	254.50	11.85	-31.0	-33.6	11.0	2.57e-03	0	44	0	1058013184	22	4824
2026-01-18 02:08:46.46	254.39	11.77	-30.9	-33.3	11.2	1.51e-03	0	44	0	1060110336	22	4723
2026-01-18 02:08:47.45	254.29	11.69	-31.0	-33.6	11.0	1.49e-03	0	44	0	1062207488	22	4824
2026-01-18 02:08:48.46	254.18	11.61	-30.9	-33.3	11.2	4.43e-03	0	44	0	1063256064	22	4715
2026-01-18 02:08:49.46	254.08	11.54	-30.7	-32.5	11.7	6.77e-04	0	44	0	1065353216	22	4442
2026-01-18 02:08:50.46	253.97	11.46	-30.4	-32.3	12.2	2.83e-04	0	44	0	1067450368	21	4446
2026-01-18 02:08:51.46	253.87	11.38	-30.4	-32.8	12.2	1.95e-03	0	44	0	1069547520	20	4733
2026-01-18 02:08:52.47	253.77	11.30	-30.3	-32.4	12.5	1.82e-04	0	44	0	1071644672	20	4586
2026-01-18 02:08:53.47	253.66	11.23	-30.1	-31.9	12.8	8.16e-05	0	44	0	1072693248	20	4427
2026-01-18 02:08:54.48	253.56	11.15	-30.2	-32.1	12.7	8.85e-05	0	44	0	1074790400	20	4481
2026-01-18 02:08:55.48	253.46	11.07	-30.1	-31.8	12.8	1.04e-04	0	44	0	1076887552	20	4387
2026-01-18 02:08:56.49	253.36	11.00	-30.2	-32.0	12.7	4.27e-05	0	44	0	1078984704	20	4452
2026-01-18 02:08:57.49	253.26	10.92	-30.2	-32.1	12.6	9.84e-05	0	44	0	1081081856	20	4500
2026-01-18 02:08:58.50	253.15	10.84	-30.3	-32.5	12.4	7.32e-05	0	44	0	1082130432	20	4615
2026-01-18 02:08:59.50	253.06	10.77	-30.5	-32.6	11.9	3.60e-04	0	44	0	1084227584	21	4556
2026-01-18 02:09:00.49	252.96	10.69	-30.4	-32.8	12.2	2.63e-04	0	44	0	1086324736	20	4714
2026-01-18 02:09:01.50	252.86	10.62	-30.7	-33.0	11.6	3.03e-04	0	44	0	1088421888	21	4729
2026-01-18 02:09:02.50	252.76	10.54	-30.7	-33.0	11.6	1.16e-03	0	44	0	1089470464	21	4726
2026-01-18 02:09:03.50	252.66	10.47	-30.7	-33.1	11.6	1.17e-03	0	44	0	1091567616	21	4733
2026-01-18 02:09:04.51	252.56	10.39	-30.9	-33.7	11.1	1.19e-03	0	44	0	1093664768	21	4968
2026-01-18 02:09:05.52	252.47	10.31	-31.0	-33.7	10.8	2.01e-03	0	44	0	1095761920	22	4872
2026-01-18 02:09:06.52	252.37	10.24	-31.0	-33.6	10.9	2.92e-03	0	44	0	1097859072	22	4849
2026-01-18 02:09:07.52	252.28	10.16	-31.1	-33.8	10.7	2.58e-03	0	44	0	1098907648	22	4939
2026-01-18 02:09:08.53	252.18	10.09	-31.2	-34.2	10.4	3.86e-03	0	44	0	1101004800	22	5111
2026-01-18 02:09:09.53	252.09	10.02	-31.1	-34.0	10.5	4.94e-03	0	44	0	1103101952	22	5026
2026-01-18 02:09:10.53	251.99	9.94	-31.3	-34.8	9.9	6.30e-03	0	44	0	1105199104	22	5334
2026-01-18 02:09:11.54	251.90	9.87	-31.4	-34.9	9.9	7.66e-03	0	44	0	1107296256	22	5404
2026-01-18 02:09:12.55	251.80	9.79	-31.4	-35.2	9.6	9.80e-03	0	44	0	1108344832	22	5545
2026-01-18 02:09:13.55	251.71	9.72	-31.4	-34.9	9.8	1.08e-02	0	44	0	1110441984	22	5392
2026-01-18 02:09:14.56	251.62	9.64	-31.2	-34.5	10.1	8.83e-03	0	44	0	1112539136	22	5218
2026-01-18 02:09:15.56	251.53	9.57	-31.1	-34.0	10.5	6.11e-03	0	44	0	1114636288	22	5028
2026-01-18 02:09:16.56	251.44	9.50	-31.1	-34.1	10.4	4.79e-03	0	44	0	1116733440	22	5051
2026-01-18 02:09:17.56	251.35	9.42	-31.2	-34.4	10.1	5.00e-03	0	44	0	1117782016	22	5211
2026-01-18 02:09:18.56	251.26	9.35	-31.1	-34.0	10.4	5.69e-03	0	44	0	1119879168	22	5006
2026-01-18 02:09:19.56	251.17	9.28	-31.0	-33.5	10.7	3.89e-03	0	44	0	1121976320	22	4843
2026-01-18 02:09:20.57	251.08	9.20	-31.1	-34.0	10.4	3.76e-03	0	44	0	1124073472	22	5013
2026-01-18 02:09:21.57	250.99	9.13	-31.0	-33.7	10.6	3.67e-03	0	44	0	1126170624	22	4902
2026-01-18 02:09:22.58	250.90	9.06	-31.0	-33.7	10.6	3.23e-03	0	44	0	1127219200	22	4909
2026-01-18 02:09:23.58	250.81	8.99	-31.1	-34.1	10.3	4.46e-03	0	44	0	1129316352	22	5092
2026-01-18 02:09:24.58	250.72	8.91	-31.2	-34.4	10.0	6.38e-03	0	44	0	1131413504	22	5194
2026-01-18 02:09:25.58	250.64	8.84	-31.1	-33.9	10.4	5.83e-03	0	44	0	1133510656	22	4988
2026-01-18 02:09:26.58	250.55	8.77	-31.3	-34.6	9.9	4.90e-03	0	44	0	1134559232	22	5309
2026-01-18 02:09:27.59	250.46	8.70	-31.4	-35.0	9.6	9.72e-03	0	44	0	1136656384	22	5456
2026-01-18 02:09:28.59	250.38	8.63	-31.4	-35.0	9.5	8.98e-03	0	44	0	1138753536	22	5484
2026-01-18 02:09:29.59	250.29	8.55	-31.4	-35.3	9.3	1.81e-02	0	44	0	1140850688	22	5599
2026-01-18 02:09:30.59	250.21	8.48	-31.5	-35.0	9.1	1.60e-02	0	44	0	1142947840	23	5408
2026-01-18 02:09:31.60	250.12	8.41	-30.7	-34.3	9.0	2.31e-02	0	44	0	1145044992	23	5479
2026-01-18 02:09:32.60	250.04	8.34	-31.5	-35.6	9.0	2.75e-02	0	44	0	1146093568	22	5750
2026-01-18 02:09:33.60	249.96	8.27	-31.3	-34.4	9.5	1.52e-02	0	44	0	1148190720	23	5138
2026-01-18 02:09:34.61	249.87	8.20	-31.3	-35.0	9.4	1.60e-02	0	44	0	1150287872	22	5476
2026-01-18 02:09:35.62	249.79	8.13	-31.2	-34.5	9.7	1.24e-02	0	44	0	1152385024	22	5262
2026-01-18 02:09:36.62	249.71	8.06	-31.1	-34.3	10.0	8.53e-03	0	44	0	1153433600	22	5180
2026-01-18 02:09:37.62	249.62	7.98	-31.2	-34.5	9.8	1.02e-02	0	44	0	1155530752	22	5291
2026-01-18 02:09:38.62	249.54	7.91	-30.9	-34.2	10.3	6.44e-03	0	44	0	1157627904	21	5238
2026-01-18 02:09:39.62	249.46	7.84	-30.8	-33.6	10.8	2.76e-03	0	44	0	1159725056	21	4994
2026-01-18 02:09:40.63	249.38	7.77	-30.8	-33.7	10.8	3.88e-03	0	44	0	1161822208	21	5025
2026-01-18 02:09:41.63	249.30	7.70	-30.5	-32.7	11.4	1.26e-03	0	44	0	1162870784	21	4666
2026-01-18 02:09:42.63	249.22	7.63	-30.5	-32.7	11.4	9.28e-04	0	44	0	1164967936	21	4658
2026-01-18 02:09:43.64	249.14	7.56	-30.5	-32.8	11.4	1.37e-03	0	44	0	1167065088	21	4679
2026-01-18 02:09:44.63	249.06	7.50	-30.4	-33.1	11.5	7.90e-04	0	44	0	1169162240	20	4904
2026-01-18 02:09:45.63	248.98	7.43	-30.4	-32.5	11.6	9.23e-04	0	44	0	1171259392	21	4598
2026-01-18 02:09:46.64	248.90	7.36	-30.5	-32.9	11.3	8.30e-04	0	44	0	1172307968	21	4742
2026-01-18 02:09:47.65	248.83	7.29	-30.4	-32.4	11.6	1.51e-03	0	44	0	1174405120	21	4566
2026-01-18 02:09:48.65	248.75	7.22	-30.1	-31.6	12.2	5.69e-04	0	44	0	1176502272	21	4294
2026-01-18 02:09:49.66	248.67	7.15	-30.5	-32.8	11.3	8.93e-04	0	44	0	1178599424	21	4690
2026-01-18 02:09:50.66	248.59	7.08	-33.1	-45.2	3.8	7.29e-01	0	44	104	1179648000	26	14541
2026-01-18 02:09:51.66	248.52	7.01	-33.4	-46.0	3.8	1.49e+00	0	44	104	1179648000	26	15422
2026-01-18 02:09:52.67	248.44	6.94	-33.7	-46.2	3.8	1.49e+00	0	44	104	1179648000	27	15100

#Closed at: 2026-01-18 02:09:53
#Recorded file [1179 MB]: D:/data/31010_260118_045920.dat