passes_logs/2026/01/18/R2M6_AANII_01/R2M6_AANII_01__20260118_001844_SUOMI_NPP_rec.log

#Pass ID: 20260118_001844_SUOMI NPP
#Satellite: SUOMI NPP
#Configuration: NPP
#almurnet v.1.7.20240730
#Start time: 2026-01-18 00:18:45

#Version: 2.2.20231116
#Station: R2M6_AANII_01
#Location: 30.233357 lon 59.946436 lat
#TLE: 1 37849U 11061A   26017.28905266  .00000074  00000+0  55894-4 0  9999
#TLE: 2 37849  98.7814 319.3179 0002408  59.7048 300.4366 14.19525847737038

#Time	Az	El	Level	Level2	SNR	BER	BlckErr	Temp	State	Recorded	gain1	gain2
2026-01-18 00:18:45.74	18.76	7.12	-31.4	-35.8	5.1	1.28e+00	0	41	0	0	22	6006
2026-01-18 00:18:46.75	18.77	7.20	-31.5	-36.1	5.0	1.32e+00	0	41	104	0	23	6049
2026-01-18 00:18:47.75	18.78	7.28	-31.6	-36.2	7.7	5.61e-02	0	41	0	0	23	6096
2026-01-18 00:18:48.75	18.79	7.36	-31.6	-36.3	7.7	8.78e-02	0	41	0	1048576	23	6143
2026-01-18 00:18:49.75	18.80	7.43	-31.5	-35.7	8.1	7.24e-02	0	41	0	3145728	23	5849
2026-01-18 00:18:50.75	18.81	7.51	-31.6	-36.0	7.9	5.82e-02	0	41	0	5242880	23	5994
2026-01-18 00:18:51.75	18.82	7.59	-31.6	-36.1	7.9	5.73e-02	0	42	0	7340032	23	6056
2026-01-18 00:18:52.75	18.83	7.67	-31.6	-35.9	8.0	6.75e-02	0	41	0	9437184	23	5954
2026-01-18 00:18:53.75	18.84	7.75	-31.8	-37.0	7.2	1.03e-01	0	42	0	10485760	23	6520
2026-01-18 00:18:54.75	18.85	7.83	-31.1	-36.4	7.1	1.56e-01	0	42	0	12582912	23	6635
2026-01-18 00:18:55.75	18.86	7.91	-31.9	-37.3	7.0	1.39e-01	0	42	0	14680064	23	6737
2026-01-18 00:18:56.75	18.87	7.99	-31.8	-36.9	7.3	1.54e-01	0	42	0	16777216	23	6458
2026-01-18 00:18:57.76	18.88	8.07	-31.5	-35.6	8.2	8.93e-02	0	42	0	17825792	23	5777
2026-01-18 00:18:58.75	18.89	8.15	-31.3	-35.3	8.9	3.35e-02	0	42	0	19922944	22	5676
2026-01-18 00:18:59.75	18.90	8.23	-31.1	-34.3	9.7	1.56e-02	0	42	0	22020096	22	5239
2026-01-18 00:19:00.75	18.91	8.31	-30.9	-34.3	10.0	8.50e-03	0	42	0	24117248	21	5325
2026-01-18 00:19:01.76	18.92	8.39	-30.9	-34.2	10.2	5.13e-03	0	42	0	26214400	21	5260
2026-01-18 00:19:02.77	18.93	8.47	-31.0	-34.1	9.9	7.27e-03	0	42	0	27262976	22	5136
2026-01-18 00:19:03.77	18.94	8.55	-31.2	-34.8	9.4	2.10e-02	0	42	0	29360128	22	5457
2026-01-18 00:19:04.77	18.95	8.63	-31.1	-34.4	9.7	2.09e-02	0	42	0	31457280	22	5265
2026-01-18 00:19:05.77	18.96	8.72	-31.0	-34.2	9.9	1.17e-02	0	42	0	33554432	22	5168
2026-01-18 00:19:06.77	18.97	8.80	-31.1	-34.6	9.6	1.40e-02	0	42	0	35651584	22	5351
2026-01-18 00:19:07.78	18.99	8.88	-31.1	-34.3	9.8	1.44e-02	0	42	0	36700160	22	5230
2026-01-18 00:19:08.78	19.00	8.96	-31.2	-34.8	9.5	1.15e-02	0	42	0	38797312	22	5418
2026-01-18 00:19:09.78	19.01	9.05	-31.1	-34.3	9.8	1.46e-02	0	42	0	40894464	22	5229
2026-01-18 00:19:10.79	19.02	9.13	-31.1	-34.3	9.8	1.23e-02	0	42	0	42991616	22	5200
2026-01-18 00:19:11.79	19.03	9.21	-31.0	-34.5	10.1	6.00e-03	0	42	0	45088768	21	5397
2026-01-18 00:19:12.78	19.04	9.30	-30.8	-33.9	10.5	8.46e-03	0	42	0	46137344	21	5140
2026-01-18 00:19:13.79	19.05	9.38	-30.6	-33.2	11.0	7.31e-03	0	42	0	48234496	21	4877
2026-01-18 00:19:14.79	19.06	9.47	-30.4	-32.7	11.3	2.45e-03	0	42	0	50331648	21	4677
2026-01-18 00:19:15.80	19.07	9.55	-30.2	-32.5	11.9	3.97e-03	0	42	0	52428800	20	4684
2026-01-18 00:19:16.81	19.08	9.64	-30.1	-32.3	12.0	3.78e-03	0	42	0	54525952	20	4618
2026-01-18 00:19:17.81	19.09	9.72	-30.2	-32.5	11.8	8.00e-04	0	42	0	55574528	20	4684
2026-01-18 00:19:18.81	19.10	9.81	-30.1	-32.3	12.0	2.93e-03	0	42	0	57671680	20	4609
2026-01-18 00:19:19.81	19.12	9.90	-30.0	-31.8	12.3	3.43e-03	0	42	0	59768832	20	4454
2026-01-18 00:19:20.82	19.13	9.98	-29.9	-31.6	12.6	5.13e-04	0	42	0	61865984	20	4357
2026-01-18 00:19:21.82	19.14	10.07	-30.0	-32.2	12.6	2.48e-03	0	42	0	62914560	19	4656
2026-01-18 00:19:22.82	19.15	10.16	-29.9	-31.6	12.6	3.36e-03	0	42	0	65011712	20	4354
2026-01-18 00:19:23.82	19.16	10.24	-30.0	-31.8	12.4	4.93e-04	0	42	0	67108864	20	4442
2026-01-18 00:19:24.82	19.17	10.33	-29.9	-32.1	12.6	2.81e-03	0	43	0	69206016	19	4615
2026-01-18 00:19:25.83	19.18	10.42	-29.9	-32.1	12.7	2.54e-03	0	42	0	71303168	19	4604
2026-01-18 00:19:26.82	19.19	10.51	-29.9	-32.0	12.7	4.12e-04	0	42	0	72351744	19	4595
2026-01-18 00:19:27.83	19.21	10.59	-29.8	-31.8	12.9	2.51e-03	0	42	0	74448896	19	4495
2026-01-18 00:19:28.83	19.22	10.68	-29.9	-31.9	12.8	2.45e-03	0	42	0	76546048	19	4542
2026-01-18 00:19:29.83	19.23	10.77	-29.9	-31.8	12.8	5.64e-05	0	42	0	78643200	19	4520
2026-01-18 00:19:30.82	19.24	10.86	-29.8	-31.6	13.0	3.00e-03	0	43	0	80740352	19	4437
2026-01-18 00:19:31.83	19.25	10.95	-29.9	-31.9	12.8	2.58e-03	0	43	0	81788928	19	4554
2026-01-18 00:19:32.84	19.26	11.04	-29.9	-31.8	12.9	2.95e-04	0	43	0	83886080	19	4521
2026-01-18 00:19:33.83	19.27	11.13	-29.7	-31.4	13.1	3.16e-03	0	43	0	85983232	19	4390
2026-01-18 00:19:34.84	19.29	11.22	-29.8	-31.6	13.0	2.47e-03	0	43	0	88080384	19	4447
2026-01-18 00:19:35.84	19.30	11.31	-29.9	-31.8	12.9	3.44e-04	0	42	0	90177536	19	4505
2026-01-18 00:19:36.84	19.31	11.41	-29.9	-31.8	12.9	5.24e-04	0	43	0	91226112	19	4510
2026-01-18 00:19:37.84	19.32	11.50	-29.7	-31.4	13.2	2.81e-03	0	43	0	93323264	19	4362
2026-01-18 00:19:38.85	19.33	11.59	-29.7	-31.2	13.3	2.94e-04	0	43	0	95420416	19	4313
2026-01-18 00:19:39.85	19.35	11.68	-29.7	-31.5	13.1	5.07e-04	0	43	0	97517568	19	4396
2026-01-18 00:19:40.85	19.36	11.78	-29.8	-31.6	13.0	3.00e-03	0	43	0	99614720	19	4442
2026-01-18 00:19:41.86	19.37	11.87	-29.8	-31.6	13.1	2.67e-04	0	43	0	100663296	19	4439
2026-01-18 00:19:42.86	19.38	11.96	-29.6	-31.2	13.3	2.48e-03	0	43	0	102760448	19	4314
2026-01-18 00:19:43.86	19.39	12.06	-29.7	-31.2	13.3	4.96e-04	0	43	0	104857600	19	4323
2026-01-18 00:19:44.86	19.41	12.15	-29.6	-31.2	13.4	2.39e-04	0	43	0	106954752	19	4309
2026-01-18 00:19:45.86	19.42	12.24	-29.6	-31.1	13.4	2.49e-03	0	43	0	108003328	19	4267
2026-01-18 00:19:46.87	19.43	12.34	-29.5	-30.7	13.7	4.40e-04	0	43	0	110100480	19	4159
2026-01-18 00:19:47.87	19.44	12.44	-29.7	-31.3	13.3	1.83e-05	0	43	0	112197632	19	4331
2026-01-18 00:19:48.88	19.46	12.53	-29.5	-30.8	13.6	2.68e-03	0	43	0	114294784	19	4168
2026-01-18 00:19:49.88	19.47	12.63	-29.4	-30.7	13.7	2.48e-03	0	43	0	116391936	19	4143
2026-01-18 00:19:50.88	19.48	12.72	-29.6	-31.0	13.5	1.29e-05	0	43	0	117440512	19	4239
2026-01-18 00:19:51.89	19.49	12.82	-29.4	-30.5	13.8	2.87e-03	0	43	0	119537664	19	4093
2026-01-18 00:19:52.89	19.51	12.92	-29.5	-30.8	13.7	2.47e-03	0	43	0	121634816	19	4173
2026-01-18 00:19:53.89	19.52	13.02	-29.5	-30.7	13.8	3.00e-06	0	43	0	123731968	19	4135
2026-01-18 00:19:54.89	19.53	13.12	-29.5	-30.7	13.8	3.62e-04	0	43	0	125829120	19	4139
2026-01-18 00:19:55.90	19.54	13.21	-29.4	-31.1	13.8	2.71e-03	0	43	0	126877696	18	4357
2026-01-18 00:19:56.90	19.56	13.31	-29.5	-30.8	13.7	6.10e-06	0	43	0	128974848	19	4183
2026-01-18 00:19:57.91	19.57	13.41	-29.3	-30.9	14.0	3.84e-04	0	43	0	131072000	18	4296
2026-01-18 00:19:58.92	19.58	13.51	-29.4	-31.0	13.9	3.39e-04	0	43	0	133169152	18	4316
2026-01-18 00:19:59.91	19.60	13.61	-29.4	-30.9	13.9	2.55e-04	0	43	0	135266304	18	4309
2026-01-18 00:20:00.92	19.61	13.71	-29.4	-31.1	13.8	3.47e-04	0	43	0	136314880	18	4371
2026-01-18 00:20:01.92	19.62	13.81	-29.2	-30.6	14.2	3.37e-04	0	43	0	138412032	18	4201
2026-01-18 00:20:02.92	19.64	13.92	-29.4	-30.9	14.0	1.92e-04	0	43	0	140509184	18	4302
2026-01-18 00:20:03.93	19.65	14.02	-29.5	-30.7	13.7	3.49e-04	0	43	0	142606336	19	4156
2026-01-18 00:20:04.94	19.66	14.12	-29.7	-31.3	13.4	3.71e-04	0	43	0	144703488	19	4336
2026-01-18 00:20:05.94	19.68	14.22	-29.5	-30.6	13.8	4.50e-06	0	43	0	145752064	19	4129
2026-01-18 00:20:06.94	19.69	14.33	-29.5	-30.8	13.8	2.55e-03	0	43	0	147849216	19	4161
2026-01-18 00:20:07.94	19.70	14.43	-29.4	-30.6	13.8	3.90e-04	0	43	0	149946368	19	4104
2026-01-18 00:20:08.94	19.72	14.53	-29.5	-30.8	13.7	2.20e-06	0	43	0	152043520	19	4163
2026-01-18 00:20:09.93	19.73	14.64	-29.4	-30.6	13.8	2.75e-03	0	43	0	153092096	19	4105
2026-01-18 00:20:10.93	19.74	14.74	-29.6	-31.0	13.6	3.86e-04	0	43	0	155189248	19	4240
2026-01-18 00:20:11.93	19.76	14.85	-29.6	-30.9	13.7	1.06e-05	0	43	0	157286400	19	4204
2026-01-18 00:20:12.93	19.77	14.95	-29.7	-31.2	13.5	3.76e-04	0	43	0	159383552	19	4290
2026-01-18 00:20:13.94	19.78	15.06	-29.8	-31.5	13.3	1.22e-05	0	43	0	161480704	19	4376
2026-01-18 00:20:14.93	19.80	15.17	-29.6	-31.1	13.6	6.80e-06	0	43	0	162529280	19	4263
2026-01-18 00:20:15.94	19.81	15.27	-29.5	-30.7	13.8	3.71e-04	0	43	0	164626432	19	4152
2026-01-18 00:20:16.94	19.83	15.38	-29.5	-30.7	13.9	2.91e-04	0	43	0	166723584	19	4134
2026-01-18 00:20:17.94	19.84	15.49	-29.5	-30.9	13.7	5.30e-06	0	43	0	168820736	19	4185
2026-01-18 00:20:18.95	19.85	15.60	-29.5	-30.7	13.9	3.58e-04	0	43	0	170917888	19	4121
2026-01-18 00:20:19.95	19.87	15.71	-29.6	-31.0	13.7	3.68e-04	0	43	0	171966464	19	4230
2026-01-18 00:20:20.95	19.88	15.82	-29.5	-30.8	13.8	5.30e-06	0	43	0	174063616	19	4175
2026-01-18 00:20:21.96	19.90	15.93	-29.6	-30.9	13.8	3.41e-04	0	43	0	176160768	19	4185
2026-01-18 00:20:22.96	19.91	16.04	-29.7	-31.3	13.5	3.46e-04	0	43	0	178257920	19	4310
2026-01-18 00:20:23.96	19.93	16.15	-29.5	-30.8	13.8	1.50e-06	0	43	0	180355072	19	4169
2026-01-18 00:20:24.96	19.94	16.26	-29.4	-30.5	14.0	3.80e-06	0	43	0	181403648	19	4086
2026-01-18 00:20:25.97	19.96	16.37	-29.3	-30.6	14.3	3.38e-04	0	43	0	183500800	18	4205
2026-01-18 00:20:26.98	19.97	16.49	-29.2	-30.5	14.4	0.00e+00	0	43	0	185597952	18	4155
2026-01-18 00:20:27.98	19.99	16.60	-29.2	-30.5	14.3	0.00e+00	0	43	0	187695104	18	4155
2026-01-18 00:20:28.98	20.00	16.71	-29.2	-30.3	14.5	4.45e-04	0	43	0	189792256	18	4102
2026-01-18 00:20:29.97	20.02	16.83	-29.4	-30.9	14.1	7.00e-07	0	43	0	190840832	18	4297
2026-01-18 00:20:30.98	20.03	16.94	-29.3	-30.6	14.3	7.00e-07	0	43	0	192937984	18	4200
2026-01-18 00:20:31.98	20.05	17.06	-29.5	-31.2	14.0	0.00e+00	0	43	0	195035136	18	4366
2026-01-18 00:20:32.98	20.06	17.17	-29.3	-30.2	14.2	7.00e-07	0	43	0	197132288	19	3995
2026-01-18 00:20:33.99	20.08	17.29	-29.5	-30.7	13.9	3.92e-04	0	43	0	198180864	19	4131
2026-01-18 00:20:34.99	20.09	17.41	-29.4	-30.5	14.0	7.00e-07	0	43	0	200278016	19	4081
2026-01-18 00:20:36.00	20.11	17.53	-29.5	-30.8	13.7	7.60e-06	0	43	0	202375168	19	4170
2026-01-18 00:20:37.00	20.13	17.64	-29.5	-30.7	13.9	4.70e-04	0	43	0	204472320	19	4124
2026-01-18 00:20:38.00	20.14	17.76	-29.7	-31.2	13.7	4.50e-06	0	43	0	206569472	19	4272
2026-01-18 00:20:39.01	20.16	17.88	-29.7	-31.2	13.7	1.50e-06	0	43	0	208666624	19	4266
2026-01-18 00:20:40.01	20.17	18.00	-29.9	-31.7	13.3	5.32e-04	0	43	0	209715200	19	4446
2026-01-18 00:20:41.02	20.19	18.12	-29.7	-31.2	13.6	7.40e-05	0	43	0	211812352	19	4270
2026-01-18 00:20:42.02	20.21	18.24	-29.9	-31.7	13.3	9.90e-06	0	43	0	213909504	19	4451
2026-01-18 00:20:43.02	20.22	18.37	-29.8	-31.5	13.4	1.06e-05	0	43	0	216006656	19	4378
2026-01-18 00:20:44.01	20.24	18.49	-29.8	-31.6	13.4	5.42e-04	0	43	0	217055232	19	4391
2026-01-18 00:20:45.01	20.25	18.61	-29.9	-31.7	13.4	3.20e-05	0	43	0	219152384	19	4427
2026-01-18 00:20:46.01	20.27	18.73	-29.9	-31.7	13.3	2.21e-05	0	43	0	221249536	19	4417
2026-01-18 00:20:47.02	20.29	18.86	-30.0	-31.9	13.2	5.43e-04	0	43	0	223346688	19	4510
2026-01-18 00:20:48.02	20.30	18.98	-30.1	-31.8	12.9	2.43e-03	0	43	0	225443840	20	4375
2026-01-18 00:20:49.02	20.32	19.11	-30.1	-32.0	12.8	4.80e-05	0	43	0	226492416	20	4441
2026-01-18 00:20:50.03	20.34	19.23	-30.1	-31.9	12.8	4.65e-05	0	43	0	228589568	20	4421
2026-01-18 00:20:51.03	20.36	19.36	-30.1	-31.9	12.8	7.09e-05	0	43	0	230686720	20	4408
2026-01-18 00:20:52.03	20.37	19.49	-30.2	-32.2	12.6	2.53e-03	0	43	0	232783872	20	4526
2026-01-18 00:20:53.04	20.39	19.62	-30.3	-32.5	12.4	1.01e-04	0	43	0	234881024	20	4631
2026-01-18 00:20:54.04	20.41	19.75	-30.5	-32.5	12.1	1.63e-04	0	43	0	235929600	21	4534
2026-01-18 00:20:55.04	20.42	19.87	-30.5	-32.5	12.1	2.72e-03	0	43	0	238026752	21	4523
2026-01-18 00:20:56.05	20.44	20.01	-30.7	-32.9	11.8	3.20e-04	0	43	0	240123904	21	4663
2026-01-18 00:20:57.05	20.46	20.14	-30.8	-33.4	11.5	5.52e-04	0	43	0	242221056	21	4838
2026-01-18 00:20:58.06	20.48	20.27	-30.7	-33.1	11.7	3.02e-03	0	43	0	244318208	21	4721
2026-01-18 00:20:59.07	20.50	20.40	-31.0	-33.3	11.2	1.74e-03	0	43	0	245366784	22	4724
2026-01-18 00:21:00.06	20.51	20.53	-30.9	-33.8	11.2	1.40e-03	0	43	0	247463936	21	4988
2026-01-18 00:21:01.07	20.53	20.67	-31.1	-33.8	10.9	1.75e-03	0	43	0	249561088	22	4915
2026-01-18 00:21:02.07	20.55	20.80	-31.0	-33.3	11.2	1.83e-03	0	43	0	251658240	22	4733
2026-01-18 00:21:03.07	20.57	20.94	-30.8	-33.3	11.6	9.31e-04	0	43	0	253755392	21	4795
2026-01-18 00:21:04.08	20.59	21.07	-30.8	-33.4	11.5	8.09e-04	0	43	0	254803968	21	4849
2026-01-18 00:21:05.08	20.61	21.21	-30.8	-33.4	11.5	1.01e-03	0	43	0	256901120	21	4840
2026-01-18 00:21:06.08	20.63	21.35	-30.8	-33.2	11.7	3.18e-03	0	43	0	258998272	21	4759
2026-01-18 00:21:07.08	20.64	21.48	-30.6	-32.9	11.9	5.06e-04	0	43	0	261095424	21	4651
2026-01-18 00:21:08.09	20.66	21.62	-30.7	-33.0	11.8	3.04e-04	0	43	0	262144000	21	4710
2026-01-18 00:21:09.09	20.68	21.76	-30.7	-32.9	11.9	2.68e-03	0	43	0	264241152	21	4647
2026-01-18 00:21:10.10	20.70	21.90	-30.5	-32.3	12.3	2.88e-03	0	43	0	266338304	21	4460
2026-01-18 00:21:11.10	20.72	22.04	-30.4	-32.2	12.3	2.17e-04	0	43	0	268435456	21	4427
2026-01-18 00:21:12.10	20.74	22.18	-30.6	-32.6	12.1	3.06e-03	0	43	0	270532608	21	4556
2026-01-18 00:21:13.11	20.76	22.33	-30.5	-32.6	12.2	2.73e-03	0	43	0	271581184	21	4534
2026-01-18 00:21:14.10	20.78	22.47	-30.7	-33.0	11.9	2.54e-04	0	43	0	273678336	21	4697
2026-01-18 00:21:15.11	20.80	22.62	-29.7	-32.1	11.8	2.95e-03	0	43	0	275775488	21	4731
2026-01-18 00:21:16.12	20.82	22.76	-30.7	-32.9	11.9	2.70e-03	0	43	0	277872640	21	4639
2026-01-18 00:21:17.12	20.84	22.91	-30.8	-33.3	11.7	5.43e-04	0	43	0	279969792	21	4811
2026-01-18 00:21:18.13	20.86	23.05	-30.7	-32.9	11.5	5.40e-04	0	43	0	281018368	21	4644
2026-01-18 00:21:19.13	20.88	23.20	-30.7	-33.0	11.7	2.88e-03	0	43	0	283115520	21	4695
2026-01-18 00:21:20.14	20.91	23.35	-30.8	-33.4	11.7	6.41e-04	0	44	0	285212672	21	4813
2026-01-18 00:21:21.14	20.93	23.50	-30.6	-32.8	12.1	4.49e-04	0	43	0	287309824	21	4602
2026-01-18 00:21:22.14	20.95	23.65	-30.7	-32.9	12.0	2.83e-03	0	43	0	289406976	21	4645
2026-01-18 00:21:23.14	20.97	23.80	-30.7	-32.9	11.9	4.53e-04	0	43	0	290455552	21	4652
2026-01-18 00:21:24.15	20.99	23.95	-30.7	-32.9	11.9	2.85e-03	0	43	0	292552704	21	4660
2026-01-18 00:21:25.15	21.01	24.11	-30.6	-32.7	12.1	2.94e-03	0	43	0	294649856	21	4580
2026-01-18 00:21:26.16	21.03	24.26	-30.4	-32.0	12.6	1.40e-04	0	43	0	296747008	21	4337
2026-01-18 00:21:27.17	21.06	24.42	-30.4	-32.5	12.6	2.22e-03	0	44	0	298844160	20	4608
2026-01-18 00:21:28.17	21.08	24.57	-30.4	-32.0	12.6	2.50e-03	0	43	0	299892736	21	4336
2026-01-18 00:21:29.18	21.10	24.73	-30.5	-32.4	12.3	1.66e-04	0	43	0	301989888	21	4459
2026-01-18 00:21:30.18	21.12	24.89	-30.8	-33.1	11.9	2.70e-03	0	44	0	304087040	21	4698
2026-01-18 00:21:31.19	21.15	25.05	-30.8	-33.1	11.9	2.70e-03	0	43	0	306184192	21	4711
2026-01-18 00:21:32.19	21.17	25.20	-30.6	-32.7	12.2	1.59e-04	0	43	0	308281344	21	4566
2026-01-18 00:21:33.19	21.19	25.36	-30.5	-32.2	12.5	2.51e-03	0	44	0	309329920	21	4413
2026-01-18 00:21:34.20	21.22	25.53	-30.5	-32.2	12.5	2.19e-03	0	44	0	311427072	21	4412
2026-01-18 00:21:35.21	21.24	25.69	-30.5	-32.3	12.5	1.15e-04	0	44	0	313524224	21	4418
2026-01-18 00:21:36.20	21.26	25.85	-30.5	-32.3	12.4	2.42e-03	0	44	0	315621376	21	4436
2026-01-18 00:21:37.21	21.29	26.02	-30.3	-32.3	12.8	2.48e-03	0	44	0	317718528	20	4517
2026-01-18 00:21:38.21	21.31	26.18	-30.2	-32.0	13.0	5.26e-05	0	43	0	318767104	20	4411
2026-01-18 00:21:39.21	21.34	26.35	-30.3	-32.2	12.9	2.01e-04	0	43	0	320864256	20	4474
2026-01-18 00:21:40.21	21.36	26.51	-30.2	-32.0	13.0	2.46e-03	0	44	0	322961408	20	4422
2026-01-18 00:21:41.22	21.39	26.68	-30.1	-31.8	13.2	4.42e-05	0	43	0	325058560	20	4347
2026-01-18 00:21:42.22	21.41	26.85	-30.3	-32.3	12.8	1.91e-04	0	43	0	327155712	20	4524
2026-01-18 00:21:43.22	21.44	27.02	-30.3	-32.4	12.8	2.27e-03	0	44	0	328204288	20	4540
2026-01-18 00:21:44.22	21.46	27.19	-30.2	-32.0	13.0	2.74e-05	0	43	0	330301440	20	4417
2026-01-18 00:21:45.22	21.49	27.37	-30.3	-32.4	12.8	2.15e-03	0	44	0	332398592	20	4539
2026-01-18 00:21:46.23	21.51	27.54	-30.1	-31.8	13.1	2.05e-04	0	44	0	334495744	20	4351
2026-01-18 00:21:47.24	21.54	27.72	-30.2	-32.0	13.0	2.13e-05	0	43	0	335544320	20	4430
2026-01-18 00:21:48.24	21.57	27.89	-30.1	-31.6	13.3	2.33e-03	0	43	0	337641472	20	4276
2026-01-18 00:21:49.25	21.59	28.07	-29.9	-31.2	13.6	1.55e-04	0	43	0	339738624	20	4162
2026-01-18 00:21:50.25	21.62	28.25	-30.0	-31.4	13.4	1.44e-05	0	44	0	341835776	20	4221
2026-01-18 00:21:51.26	21.65	28.43	-30.0	-31.4	13.4	2.26e-03	0	44	0	343932928	20	4222
2026-01-18 00:21:52.26	21.68	28.61	-29.9	-31.5	13.8	1.17e-04	0	44	0	346030080	19	4350
2026-01-18 00:21:53.26	21.70	28.79	-29.8	-30.9	13.7	4.50e-06	0	44	0	347078656	20	4085
2026-01-18 00:21:54.27	21.73	28.97	-29.8	-30.8	13.8	2.09e-03	0	44	0	349175808	20	4048
2026-01-18 00:21:55.28	21.76	29.16	-30.0	-31.8	13.7	2.35e-03	0	44	0	351272960	19	4422
2026-01-18 00:21:56.28	21.79	29.34	-29.9	-31.2	13.6	9.10e-06	0	43	0	353370112	20	4173
2026-01-18 00:21:57.28	21.82	29.53	-30.1	-31.7	13.3	9.68e-05	0	44	0	354418688	20	4317
2026-01-18 00:21:58.28	21.85	29.72	-30.2	-31.8	13.2	2.31e-03	0	44	0	356515840	20	4343
2026-01-18 00:21:59.29	21.88	29.91	-30.1	-31.6	13.3	2.28e-05	0	43	0	358612992	20	4292
2026-01-18 00:22:00.29	21.91	30.10	-30.2	-31.4	13.2	1.69e-04	0	44	0	360710144	21	4130
2026-01-18 00:22:01.30	21.94	30.29	-30.3	-32.1	13.0	2.19e-03	0	44	0	362807296	20	4431
2026-01-18 00:22:02.30	21.97	30.48	-30.4	-32.3	12.9	4.65e-05	0	44	0	363855872	20	4522
2026-01-18 00:22:03.31	22.00	30.68	-30.3	-32.1	13.0	7.40e-05	0	44	0	365953024	20	4451
2026-01-18 00:22:04.31	22.03	30.87	-30.4	-32.5	12.9	1.03e-04	0	44	0	368050176	20	4561
2026-01-18 00:22:05.31	22.06	31.07	-30.7	-32.7	12.4	9.38e-05	0	44	0	370147328	21	4552
2026-01-18 00:22:06.31	22.09	31.27	-30.4	-32.0	12.9	1.26e-04	0	44	0	372244480	21	4312
2026-01-18 00:22:07.31	22.12	31.47	-30.9	-33.5	11.8	2.54e-04	0	44	0	373293056	21	4816
2026-01-18 00:22:08.32	22.16	31.67	-31.2	-33.6	11.3	8.16e-04	0	44	0	375390208	22	4787
2026-01-18 00:22:09.32	22.19	31.87	-31.3	-34.0	11.1	1.18e-03	0	44	0	377487360	22	4926
2026-01-18 00:22:10.32	22.22	32.07	-31.6	-34.7	10.3	2.58e-03	0	44	0	379584512	23	5110
2026-01-18 00:22:11.32	22.25	32.28	-31.7	-34.9	10.1	7.47e-03	0	44	0	381681664	23	5212
2026-01-18 00:22:12.32	22.29	32.48	-31.6	-34.6	10.3	4.99e-03	0	43	0	382730240	23	5085
2026-01-18 00:22:13.33	22.32	32.69	-31.8	-35.4	9.8	6.77e-03	0	44	0	384827392	23	5409
2026-01-18 00:22:14.33	22.36	32.90	-31.6	-34.6	10.3	6.96e-03	0	44	0	386924544	23	5082
2026-01-18 00:22:15.34	22.39	33.11	-31.6	-34.7	10.2	7.08e-03	0	44	0	389021696	23	5130
2026-01-18 00:22:16.34	22.43	33.32	-31.7	-34.9	10.1	6.60e-03	0	44	0	391118848	23	5204
2026-01-18 00:22:17.34	22.46	33.54	-31.8	-35.3	9.9	7.13e-03	0	44	0	392167424	23	5357
2026-01-18 00:22:18.35	22.50	33.75	-31.8	-35.3	9.9	9.65e-03	0	44	0	394264576	23	5358
2026-01-18 00:22:19.35	22.54	33.97	-31.5	-34.1	10.7	4.35e-03	0	43	0	396361728	23	4863
2026-01-18 00:22:20.36	22.57	34.19	-31.4	-33.8	10.9	3.01e-03	0	44	0	398458880	23	4758
2026-01-18 00:22:21.36	22.61	34.41	-31.1	-33.1	11.5	2.01e-03	0	44	0	400556032	23	4485
2026-01-18 00:22:22.36	22.65	34.63	-31.0	-33.1	11.7	5.46e-04	0	43	0	401604608	22	4608
2026-01-18 00:22:23.36	22.69	34.85	-30.9	-32.7	12.1	2.27e-04	0	44	0	403701760	22	4448
2026-01-18 00:22:24.37	22.73	35.08	-30.5	-32.3	12.7	2.08e-04	0	44	0	405798912	21	4418
2026-01-18 00:22:25.37	22.77	35.30	-30.4	-31.8	13.0	1.81e-04	0	44	0	407896064	21	4251
2026-01-18 00:22:26.37	22.81	35.53	-30.2	-31.4	13.2	3.73e-05	0	44	0	408944640	21	4133
2026-01-18 00:22:27.37	22.85	35.76	-30.2	-31.8	13.4	1.06e-05	0	44	0	411041792	20	4328
2026-01-18 00:22:28.38	22.89	35.99	-30.2	-32.0	13.2	8.16e-05	0	44	0	413138944	20	4389
2026-01-18 00:22:29.38	22.93	36.22	-30.1	-31.5	13.5	1.60e-05	0	44	0	415236096	20	4236
2026-01-18 00:22:30.38	22.97	36.46	-29.6	-31.1	13.5	9.10e-06	0	44	0	417333248	20	4285
2026-01-18 00:22:31.38	23.01	36.69	-29.9	-31.1	13.9	6.94e-05	0	44	0	418381824	20	4111
2026-01-18 00:22:32.38	23.06	36.93	-30.0	-31.7	13.1	2.20e-06	0	44	0	420478976	19	4379
2026-01-18 00:22:33.38	23.10	37.17	-29.9	-31.4	13.0	3.00e-06	0	44	0	422576128	19	4306
2026-01-18 00:22:34.39	23.15	37.41	-29.7	-30.4	14.2	2.20e-06	0	44	0	424673280	20	3933
2026-01-18 00:22:35.39	23.19	37.65	-30.0	-31.2	13.2	1.50e-06	0	44	0	426770432	20	4160
2026-01-18 00:22:36.40	23.24	37.90	-29.9	-31.0	13.9	1.11e-03	0	44	0	427819008	20	4102
2026-01-18 00:22:37.40	23.28	38.15	-30.1	-31.6	13.6	3.80e-06	0	44	0	429916160	20	4261
2026-01-18 00:22:38.40	23.33	38.39	-29.8	-30.8	14.0	2.20e-06	0	44	0	432013312	20	4041
2026-01-18 00:22:39.40	23.38	38.64	-29.8	-31.2	14.1	4.90e-04	0	44	0	434110464	19	4237
2026-01-18 00:22:40.40	23.42	38.89	-29.8	-31.1	14.2	7.00e-07	0	44	0	436207616	19	4195
2026-01-18 00:22:41.40	23.47	39.15	-29.6	-30.8	14.4	2.20e-06	0	44	0	437256192	19	4114
2026-01-18 00:22:42.40	23.52	39.40	-29.5	-30.5	14.6	7.00e-07	0	44	0	439353344	19	4016
2026-01-18 00:22:43.40	23.57	39.66	-29.4	-30.2	14.8	0.00e+00	0	44	0	441450496	19	3936
2026-01-18 00:22:44.40	23.62	39.92	-29.6	-30.8	14.3	7.00e-07	0	44	0	443547648	19	4104
2026-01-18 00:22:45.40	23.68	40.18	-29.9	-31.4	14.1	1.50e-06	0	43	0	445644800	19	4300
2026-01-18 00:22:46.40	23.73	40.44	-29.8	-31.3	14.1	7.00e-07	0	44	0	446693376	19	4259
2026-01-18 00:22:47.41	23.78	40.71	-29.8	-30.8	14.1	3.80e-06	0	44	0	448790528	20	4025
2026-01-18 00:22:48.41	23.84	40.97	-29.8	-30.8	14.1	3.80e-06	0	43	0	450887680	20	4017
2026-01-18 00:22:49.40	23.89	41.24	-30.0	-31.2	13.8	1.50e-06	0	44	0	452984832	20	4148
2026-01-18 00:22:50.41	23.95	41.51	-30.3	-32.1	13.2	2.21e-04	0	44	0	454033408	20	4413
2026-01-18 00:22:51.41	24.00	41.79	-30.4	-32.3	13.1	8.30e-06	0	44	0	456130560	20	4493
2026-01-18 00:22:52.42	24.06	42.06	-30.5	-32.0	13.0	3.43e-05	0	44	0	458227712	21	4311
2026-01-18 00:22:53.41	24.12	42.34	-30.0	-30.7	13.8	1.44e-05	0	44	0	460324864	21	3903
2026-01-18 00:22:54.42	24.18	42.62	-30.1	-30.9	13.7	3.80e-06	0	44	0	462422016	21	3973
2026-01-18 00:22:55.43	24.24	42.90	-29.8	-30.3	14.1	7.00e-07	0	44	0	463470592	21	3790
2026-01-18 00:22:56.43	24.30	43.18	-29.8	-30.6	14.3	7.00e-07	0	44	0	465567744	20	3967
2026-01-18 00:22:57.42	24.36	43.47	-29.7	-30.5	14.3	1.50e-06	0	44	0	467664896	20	3946
2026-01-18 00:22:58.42	24.43	43.75	-29.6	-30.1	14.6	1.50e-06	0	44	0	469762048	20	3826
2026-01-18 00:22:59.42	24.49	44.04	-29.8	-30.6	14.3	0.00e+00	0	44	0	471859200	20	3954
2026-01-18 00:23:00.42	24.56	44.33	-29.9	-30.9	14.2	1.50e-06	0	44	0	472907776	20	4033
2026-01-18 00:23:01.43	24.62	44.63	-30.2	-31.6	13.7	6.10e-06	0	44	0	475004928	20	4266
2026-01-18 00:23:02.43	24.69	44.92	-30.4	-32.3	13.2	1.22e-05	0	44	0	477102080	20	4472
2026-01-18 00:23:03.44	24.76	45.22	-30.6	-32.4	12.9	3.35e-05	0	44	0	479199232	21	4405
2026-01-18 00:23:04.44	24.83	45.52	-31.1	-33.3	11.9	4.10e-04	0	44	0	481296384	22	4624
2026-01-18 00:23:05.44	24.90	45.83	-31.5	-34.4	11.2	1.64e-03	0	44	0	482344960	22	5054
2026-01-18 00:23:06.44	24.98	46.13	-31.9	-35.4	10.0	3.00e-03	0	44	0	484442112	23	5387
2026-01-18 00:23:07.44	25.05	46.44	-32.1	-35.5	9.6	1.19e-02	0	43	0	486539264	24	5337
2026-01-18 00:23:08.44	25.13	46.75	-32.0	-35.1	9.9	8.71e-03	0	44	0	488636416	24	5135
2026-01-18 00:23:09.45	25.21	47.06	-31.9	-34.8	10.0	1.00e-02	0	44	0	490733568	24	5048
2026-01-18 00:23:10.45	25.28	47.37	-31.7	-34.1	10.7	4.65e-03	0	44	0	491782144	24	4769
2026-01-18 00:23:11.45	25.36	47.69	-31.6	-34.4	11.1	5.55e-03	0	44	0	493879296	23	4936
2026-01-18 00:23:12.45	25.45	48.01	-31.5	-34.1	11.1	4.16e-03	0	44	0	495976448	23	4823
2026-01-18 00:23:13.46	25.53	48.33	-31.3	-33.2	11.6	1.86e-03	0	44	0	498073600	23	4506
2026-01-18 00:23:14.47	25.62	48.66	-31.1	-33.2	12.0	1.77e-03	0	44	0	499122176	22	4574
2026-01-18 00:23:15.47	25.70	48.98	-30.7	-32.6	12.8	1.11e-03	0	44	0	501219328	21	4467
2026-01-18 00:23:16.46	25.79	49.31	-30.3	-31.4	13.6	4.73e-05	0	44	0	503316480	21	4093
2026-01-18 00:23:17.47	25.88	49.64	-29.6	-30.7	14.7	1.12e-03	0	44	0	505413632	19	4073
2026-01-18 00:23:18.47	25.97	49.97	-29.4	-30.6	15.2	1.32e-03	0	44	0	507510784	18	4127
2026-01-18 00:23:19.48	26.07	50.31	-29.1	-30.0	15.3	0.00e+00	0	44	0	508559360	18	3953
2026-01-18 00:23:20.48	26.17	50.65	-29.5	-30.4	14.8	0.00e+00	0	44	0	510656512	19	3996
2026-01-18 00:23:21.49	26.27	50.99	-29.6	-30.6	14.8	6.27e-04	0	44	0	512753664	19	4042
2026-01-18 00:23:22.49	26.37	51.33	-29.9	-31.3	14.4	0.00e+00	0	44	0	514850816	19	4231
2026-01-18 00:23:23.50	26.47	51.68	-30.0	-31.1	14.0	4.73e-04	0	44	0	516947968	20	4100
2026-01-18 00:23:24.50	26.58	52.02	-29.7	-30.8	14.6	3.68e-04	0	44	0	517996544	19	4093
2026-01-18 00:23:25.50	26.68	52.37	-29.4	-30.1	15.2	1.50e-06	0	44	0	520093696	19	3914
2026-01-18 00:23:26.51	26.79	52.73	-29.8	-31.1	14.5	7.24e-05	0	44	0	522190848	19	4181
2026-01-18 00:23:27.52	26.91	53.08	-29.6	-30.7	14.7	2.51e-05	0	44	0	524288000	19	4063
2026-01-18 00:23:28.52	27.02	53.44	-29.3	-29.8	15.2	0.00e+00	0	44	0	526385152	19	3825
2026-01-18 00:23:29.53	27.14	53.80	-29.1	-29.5	15.5	4.50e-06	0	44	0	527433728	19	3736
2026-01-18 00:23:30.53	27.27	54.16	-29.0	-29.1	15.6	0.00e+00	0	44	0	529530880	19	3656
2026-01-18 00:23:31.53	27.39	54.53	-29.2	-29.6	15.4	0.00e+00	0	44	0	531628032	19	3772
2026-01-18 00:23:32.53	27.52	54.89	-29.4	-30.0	15.1	6.10e-06	0	44	0	533725184	19	3884
2026-01-18 00:23:33.53	27.65	55.26	-29.4	-30.2	15.1	3.20e-05	0	44	0	535822336	19	3923
2026-01-18 00:23:34.54	27.78	55.64	-28.4	-28.2	16.5	0.00e+00	0	44	0	536870912	18	3525
2026-01-18 00:23:35.54	27.92	56.01	-27.7	-27.6	17.3	7.01e-05	0	44	0	538968064	16	3558
2026-01-18 00:23:36.55	28.06	56.39	-27.4	-26.8	17.8	3.23e-04	0	44	0	541065216	16	3370
2026-01-18 00:23:37.55	28.21	56.77	-27.4	-27.0	17.7	0.00e+00	0	44	0	543162368	16	3406
2026-01-18 00:23:38.55	28.36	57.15	-27.9	-28.5	17.0	4.86e-04	0	44	0	545259520	15	3872
2026-01-18 00:23:39.55	28.51	57.53	-28.2	-28.7	16.8	4.00e-04	0	44	0	546308096	16	3804
2026-01-18 00:23:40.56	28.67	57.92	-28.6	-29.1	16.3	0.00e+00	0	44	0	548405248	17	3823
2026-01-18 00:23:41.55	28.83	58.30	-28.4	-28.6	16.6	0.00e+00	0	44	0	550502400	17	3683
2026-01-18 00:23:42.55	28.99	58.69	-28.3	-29.0	16.5	3.74e-04	0	44	0	552599552	16	3888
2026-01-18 00:23:43.55	29.17	59.09	-27.9	-28.0	17.3	0.00e+00	0	44	0	554696704	16	3630
2026-01-18 00:23:44.56	29.34	59.48	-28.0	-28.1	17.0	0.00e+00	0	44	0	555745280	16	3668
2026-01-18 00:23:45.56	29.53	59.88	-28.4	-28.6	16.6	0.00e+00	0	44	0	557842432	17	3682
2026-01-18 00:23:46.56	29.71	60.28	-28.9	-29.9	15.8	0.00e+00	0	44	0	559939584	17	4017
2026-01-18 00:23:47.56	29.91	60.68	-28.9	-29.4	15.8	0.00e+00	0	44	0	562036736	18	3798
2026-01-18 00:23:48.55	30.10	61.08	-28.8	-29.1	16.1	0.00e+00	0	44	0	563085312	18	3729
2026-01-18 00:23:49.55	30.31	61.49	-28.4	-28.6	16.6	0.00e+00	0	44	0	565182464	17	3689
2026-01-18 00:23:50.56	30.52	61.90	-28.4	-28.7	16.5	1.33e-04	0	44	0	567279616	17	3724
2026-01-18 00:23:51.56	30.74	62.31	-28.6	-29.1	16.3	0.00e+00	0	44	0	569376768	17	3831
2026-01-18 00:23:52.56	30.97	62.72	-27.9	-27.6	17.1	0.00e+00	0	44	0	571473920	17	3454
2026-01-18 00:23:53.56	31.20	63.14	-27.9	-27.9	17.3	0.00e+00	0	44	0	572522496	16	3623
2026-01-18 00:23:54.56	31.45	63.56	-28.4	-29.2	16.6	0.00e+00	0	44	0	574619648	16	3939
2026-01-18 00:23:55.56	31.70	63.97	-29.0	-29.7	15.8	0.00e+00	0	44	0	576716800	18	3874
2026-01-18 00:23:56.57	31.96	64.40	-29.8	-31.1	14.5	2.84e-04	0	44	0	578813952	19	4167
2026-01-18 00:23:57.57	32.23	64.82	-30.0	-31.1	14.3	3.81e-04	0	44	0	580911104	20	4081
2026-01-18 00:23:58.58	32.52	65.25	-29.8	-30.7	14.4	1.50e-06	0	44	0	581959680	20	3964
2026-01-18 00:23:59.58	32.81	65.68	-30.1	-31.4	14.1	7.00e-07	0	44	0	584056832	20	4170
2026-01-18 00:24:00.59	33.11	66.11	-29.6	-30.6	14.9	1.22e-03	0	44	0	586153984	19	4044
2026-01-18 00:24:01.59	33.43	66.54	-29.5	-30.3	15.1	0.00e+00	0	44	0	588251136	19	3952
2026-01-18 00:24:02.59	33.76	66.97	-29.3	-29.7	15.5	0.00e+00	0	44	0	590348288	19	3784
2026-01-18 00:24:03.59	34.10	67.40	-29.8	-31.0	14.8	0.00e+00	0	44	0	591396864	19	4124
2026-01-18 00:24:04.59	34.46	67.84	-30.9	-33.1	12.7	2.74e-05	0	44	0	593494016	21	4610
2026-01-18 00:24:05.60	34.83	68.28	-31.5	-33.7	11.5	6.55e-04	0	44	0	595591168	23	4632
2026-01-18 00:24:06.60	35.22	68.72	-31.5	-33.7	11.6	6.36e-04	0	44	0	597688320	23	4657
2026-01-18 00:24:07.61	35.63	69.16	-31.1	-32.7	12.3	5.03e-04	0	44	0	599785472	23	4298
2026-01-18 00:24:08.60	36.05	69.59	-31.4	-33.9	11.8	2.37e-04	0	44	0	600834048	22	4802
2026-01-18 00:24:09.60	36.49	70.03	-31.2	-33.4	12.2	3.49e-04	0	43	0	602931200	22	4612
2026-01-18 00:24:10.60	36.96	70.47	-30.6	-31.6	13.3	1.79e-04	0	44	0	605028352	22	4054
2026-01-18 00:24:11.60	37.45	70.92	-30.4	-31.6	13.6	7.60e-06	0	44	0	607125504	21	4152
2026-01-18 00:24:12.60	37.96	71.36	-30.6	-32.1	13.3	1.44e-05	0	44	0	608174080	21	4284
2026-01-18 00:24:13.60	38.50	71.80	-30.6	-32.1	13.3	3.66e-05	0	44	0	610271232	21	4296
2026-01-18 00:24:14.61	39.07	72.25	-30.5	-31.9	13.5	2.28e-05	0	44	0	612368384	21	4217
2026-01-18 00:24:15.61	39.67	72.69	-30.7	-32.4	13.1	1.44e-05	0	43	0	614465536	21	4376
2026-01-18 00:24:16.62	40.31	73.14	-31.0	-32.8	12.6	4.95e-05	0	43	0	616562688	22	4441
2026-01-18 00:24:17.61	40.97	73.58	-30.2	-31.0	14.0	2.97e-05	0	44	0	617611264	21	3970
2026-01-18 00:24:18.62	41.68	74.03	-30.4	-32.1	13.7	3.80e-06	0	44	0	619708416	20	4376
2026-01-18 00:24:19.62	42.43	74.47	-31.8	-34.8	10.8	3.00e-04	0	44	0	621805568	23	5070
2026-01-18 00:24:20.62	43.22	74.91	-32.6	-36.6	8.7	1.41e-02	0	44	0	623902720	25	5688
2026-01-18 00:24:21.62	44.06	75.35	-32.1	-34.8	10.1	2.33e-02	0	44	0	625999872	25	4900
2026-01-18 00:24:22.62	44.96	75.79	-31.4	-33.0	11.8	1.05e-03	0	44	0	627048448	24	4306
2026-01-18 00:24:23.62	45.91	76.22	-31.4	-33.5	11.9	3.12e-04	0	44	0	629145600	23	4564
2026-01-18 00:24:24.63	46.94	76.66	-32.0	-35.3	10.6	8.68e-04	0	44	0	631242752	23	5258
2026-01-18 00:24:25.63	48.03	77.09	-32.5	-36.2	9.1	2.19e-02	0	44	0	633339904	25	5481
2026-01-18 00:24:26.64	49.21	77.52	-32.8	-37.4	8.1	6.39e-02	0	44	0	635437056	25	6115
2026-01-18 00:24:27.64	50.46	77.94	-32.5	-36.2	9.1	5.45e-02	0	44	0	636485632	25	5476
2026-01-18 00:24:28.64	51.80	78.36	-32.4	-35.5	9.4	1.73e-02	0	44	0	638582784	25	5188
2026-01-18 00:24:29.64	53.24	78.77	-32.2	-35.1	10.0	1.31e-02	0	44	0	640679936	25	4984
2026-01-18 00:24:30.64	54.80	79.17	-31.8	-34.1	11.0	3.37e-03	0	44	0	642777088	24	4704
2026-01-18 00:24:31.64	56.47	79.57	-31.8	-34.6	10.7	2.01e-03	0	44	0	644874240	23	4977
2026-01-18 00:24:32.64	58.28	79.96	-32.4	-36.1	9.3	1.20e-02	0	44	0	645922816	24	5525
2026-01-18 00:24:33.65	60.26	80.34	-32.5	-36.0	9.2	1.98e-02	0	44	0	648019968	25	5373
2026-01-18 00:24:34.65	62.38	80.71	-32.1	-35.0	10.5	8.81e-03	0	44	0	650117120	24	5022
2026-01-18 00:24:35.66	64.69	81.07	-31.5	-33.5	11.8	7.22e-04	0	44	0	652214272	23	4548
2026-01-18 00:24:36.66	67.17	81.41	-31.1	-32.5	12.6	2.04e-04	0	44	0	653262848	23	4225
2026-01-18 00:24:37.66	69.85	81.73	-31.3	-32.9	12.5	9.15e-05	0	44	0	655360000	23	4334
2026-01-18 00:24:38.65	72.72	82.03	-31.0	-32.5	12.9	1.42e-04	0	44	0	657457152	22	4304
2026-01-18 00:24:39.65	75.83	82.31	-30.8	-31.9	13.3	9.10e-06	0	44	0	659554304	22	4125
2026-01-18 00:24:40.66	79.21	82.58	-30.8	-32.4	13.3	1.29e-05	0	44	0	661651456	21	4373
2026-01-18 00:24:41.66	82.79	82.81	-30.7	-32.4	13.2	2.82e-05	0	44	0	662700032	21	4365
2026-01-18 00:24:42.66	86.60	83.01	-30.5	-31.8	13.6	6.10e-06	0	44	0	664797184	21	4182
2026-01-18 00:24:43.66	90.61	83.18	-30.3	-31.8	14.0	1.50e-06	0	44	0	666894336	20	4260
2026-01-18 00:24:44.67	94.86	83.32	-30.4	-32.0	13.9	4.50e-06	0	44	0	668991488	20	4333
2026-01-18 00:24:45.67	99.21	83.42	-30.2	-31.5	14.3	7.00e-07	0	44	0	671088640	20	4189
2026-01-18 00:24:46.67	103.68	83.48	-29.7	-30.1	15.2	0.00e+00	0	44	0	672137216	20	3787
2026-01-18 00:24:47.67	108.19	83.50	-29.4	-30.0	15.4	0.00e+00	0	44	0	674234368	19	3861
2026-01-18 00:24:48.67	112.71	83.48	-29.5	-30.1	15.5	0.00e+00	0	44	0	676331520	19	3868
2026-01-18 00:24:49.68	117.22	83.42	-28.8	-29.1	16.4	5.70e-04	0	44	0	678428672	18	3701
2026-01-18 00:24:50.68	121.58	83.32	-28.6	-29.1	16.7	0.00e+00	0	43	0	680525824	17	3787
2026-01-18 00:24:51.69	125.82	83.18	-29.8	-31.0	15.0	0.00e+00	0	44	0	681574400	19	4121
2026-01-18 00:24:52.70	129.88	83.01	-31.2	-33.3	12.6	4.13e-04	0	44	0	683671552	22	4555
2026-01-18 00:24:53.70	133.69	82.81	-31.1	-32.9	12.8	1.70e-04	0	44	0	685768704	22	4439
2026-01-18 00:24:54.70	137.27	82.57	-31.2	-33.1	12.7	3.58e-05	0	44	0	687865856	22	4485
2026-01-18 00:24:55.71	140.65	82.31	-32.1	-34.9	10.7	2.11e-03	0	44	0	689963008	24	4972
2026-01-18 00:24:56.71	143.76	82.03	-32.0	-34.5	11.0	3.96e-03	0	44	0	691011584	24	4797
2026-01-18 00:24:57.71	146.66	81.72	-32.3	-35.6	10.1	1.57e-03	0	44	0	693108736	24	5279
2026-01-18 00:24:58.71	149.34	81.40	-32.9	-37.2	8.5	1.73e-02	0	43	0	695205888	25	5920
2026-01-18 00:24:59.72	151.84	81.06	-32.3	-34.9	10.3	6.45e-03	0	43	0	697303040	25	4870
2026-01-18 00:25:00.73	154.15	80.70	-32.7	-36.5	9.1	1.43e-02	0	44	0	698351616	25	5604
2026-01-18 00:25:01.73	156.26	80.33	-32.8	-36.5	8.7	5.35e-02	0	44	0	700448768	26	5464
2026-01-18 00:25:02.73	158.22	79.95	-32.8	-36.8	8.9	2.78e-02	0	44	0	702545920	25	5723
2026-01-18 00:25:03.74	160.04	79.56	-33.1	-37.7	7.8	8.60e-02	0	43	0	704643072	26	6123
2026-01-18 00:25:04.74	161.72	79.16	-32.9	-36.8	8.4	7.24e-02	0	44	0	706740224	26	5641
2026-01-18 00:25:05.74	163.27	78.76	-32.4	-35.2	10.0	2.46e-02	0	44	0	707788800	25	5007
2026-01-18 00:25:06.75	164.73	78.34	-32.0	-34.1	10.9	2.41e-03	0	44	0	709885952	25	4578
2026-01-18 00:25:07.75	166.07	77.92	-31.9	-34.3	11.1	3.06e-03	0	44	0	711983104	24	4732
2026-01-18 00:25:08.76	167.33	77.50	-33.0	-37.6	8.2	5.21e-03	0	44	0	714080256	25	6149
2026-01-18 00:25:09.76	168.49	77.07	-33.6	-39.7	6.0	3.08e-01	0	44	0	716177408	27	7310
2026-01-18 00:25:10.76	169.58	76.64	-34.0	-42.5	4.5	7.34e-01	0	44	0	717225984	27	9590
2026-01-18 00:25:11.76	170.59	76.21	-33.9	-42.6	4.2	1.10e+00	0	44	0	719323136	28	9806
2026-01-18 00:25:12.75	171.54	75.77	-33.8	-41.7	4.5	1.32e+00	0	44	0	719323136	28	8947
2026-01-18 00:25:13.76	172.44	75.33	-33.5	-39.0	6.0	4.59e-01	0	43	0	721420288	28	6788
2026-01-18 00:25:14.76	173.28	74.89	-33.6	-39.7	6.0	2.33e-01	0	44	0	723517440	27	7258
2026-01-18 00:25:15.76	174.07	74.45	-33.5	-39.3	6.2	3.02e-01	0	44	0	725614592	27	7065
2026-01-18 00:25:16.76	174.82	74.01	-33.6	-39.9	5.8	3.33e-01	0	44	0	727711744	27	7463
2026-01-18 00:25:17.76	175.53	73.56	-33.7	-40.7	5.4	4.31e-01	0	44	0	728760320	27	8082
2026-01-18 00:25:18.77	176.20	73.12	-33.6	-39.9	5.8	5.86e-01	0	44	0	730857472	27	7411
2026-01-18 00:25:19.77	176.83	72.67	-33.3	-38.1	7.0	2.14e-01	0	44	0	732954624	27	6277
2026-01-18 00:25:20.77	177.43	72.23	-33.3	-38.1	7.0	1.39e-01	0	44	0	735051776	27	6275
2026-01-18 00:25:21.77	177.99	71.78	-33.6	-40.1	5.7	2.19e-01	0	44	0	737148928	27	7609
2026-01-18 00:25:22.77	178.53	71.34	-33.9	-42.2	4.6	5.65e-01	0	44	0	738197504	27	9360
2026-01-18 00:25:23.77	179.04	70.90	-33.8	-41.9	4.7	9.09e-01	0	44	0	740294656	27	9118
2026-01-18 00:25:24.77	179.53	70.45	-33.7	-40.9	5.1	7.08e-01	0	44	0	742391808	27	8227
2026-01-18 00:25:25.77	180.00	70.01	-33.9	-41.9	4.7	6.09e-01	0	44	0	744488960	27	9092
2026-01-18 00:25:26.78	180.45	69.57	-33.8	-41.3	5.0	6.85e-01	0	44	0	745537536	27	8512
2026-01-18 00:25:27.78	180.87	69.13	-33.5	-39.3	6.1	3.68e-01	0	44	0	747634688	27	7069
2026-01-18 00:25:28.78	181.27	68.69	-33.0	-37.3	8.0	1.62e-01	0	44	0	749731840	26	5884
2026-01-18 00:25:29.78	181.66	68.25	-31.6	-33.4	11.5	2.55e-02	0	44	0	751828992	24	4436
2026-01-18 00:25:30.77	182.03	67.82	-31.2	-32.6	12.5	1.19e-04	0	44	0	753926144	23	4252
2026-01-18 00:25:31.77	182.39	67.38	-31.1	-32.4	12.7	1.12e-04	0	44	0	754974720	23	4191
2026-01-18 00:25:32.76	182.72	66.95	-30.7	-31.6	13.5	6.56e-05	0	44	0	757071872	22	4033
2026-01-18 00:25:33.77	183.06	66.51	-29.4	-29.4	15.5	0.00e+00	0	44	0	759169024	20	3617
2026-01-18 00:25:34.77	183.37	66.08	-29.3	-29.6	15.7	5.11e-05	0	44	0	761266176	19	3752
2026-01-18 00:25:35.76	183.67	65.66	-29.2	-29.4	15.8	1.40e-04	0	44	0	763363328	19	3699
2026-01-18 00:25:36.76	183.96	65.23	-29.1	-29.2	16.0	0.00e+00	0	44	0	764411904	19	3640
2026-01-18 00:25:37.77	184.25	64.80	-29.4	-30.5	15.5	7.32e-05	0	44	0	766509056	18	4087
2026-01-18 00:25:38.77	184.52	64.38	-30.2	-31.4	14.3	1.67e-05	0	44	0	768606208	20	4171
2026-01-18 00:25:39.78	184.78	63.95	-30.5	-31.9	13.7	6.10e-06	0	44	0	770703360	21	4202
2026-01-18 00:25:40.77	185.03	63.54	-30.9	-32.9	12.9	2.13e-05	0	44	0	771751936	21	4542
2026-01-18 00:25:41.77	185.27	63.12	-31.7	-34.2	11.5	4.20e-04	0	43	0	773849088	23	4812
2026-01-18 00:25:42.77	185.51	62.70	-31.1	-32.4	12.7	5.05e-04	0	44	0	775946240	23	4187
2026-01-18 00:25:43.77	185.73	62.29	-30.0	-30.5	14.5	3.52e-04	0	43	0	778043392	21	3803
2026-01-18 00:25:44.76	185.95	61.88	-30.0	-31.1	14.5	3.37e-04	0	43	0	780140544	20	4063
2026-01-18 00:25:45.76	186.16	61.47	-30.6	-32.2	13.4	4.50e-06	0	44	0	781189120	21	4293
2026-01-18 00:25:46.76	186.37	61.07	-31.2	-33.1	12.4	3.96e-04	0	44	0	783286272	22	4525
2026-01-18 00:25:47.76	186.57	60.66	-30.8	-32.3	13.0	4.04e-05	0	43	0	785383424	22	4233
2026-01-18 00:25:48.76	186.76	60.26	-31.1	-33.1	12.4	6.94e-05	0	44	0	787480576	22	4496
2026-01-18 00:25:49.76	186.95	59.86	-30.2	-31.0	14.1	3.31e-04	0	44	0	789577728	21	3940
2026-01-18 00:25:50.76	187.13	59.46	-29.6	-30.0	15.1	2.98e-04	0	44	0	790626304	20	3760
2026-01-18 00:25:51.76	187.31	59.06	-29.5	-29.7	15.2	0.00e+00	0	43	0	792723456	20	3700
2026-01-18 00:25:52.76	187.48	58.67	-30.7	-32.5	13.2	3.38e-04	0	43	0	794820608	21	4410
2026-01-18 00:25:53.76	187.65	58.28	-31.1	-33.0	12.5	4.36e-04	0	43	0	796917760	22	4497
2026-01-18 00:25:54.76	187.81	57.89	-30.6	-31.5	13.5	4.04e-05	0	44	0	799014912	22	4007
2026-01-18 00:25:55.76	187.97	57.50	-29.4	-29.5	15.3	3.41e-04	0	43	0	800063488	20	3636
2026-01-18 00:25:56.76	188.12	57.12	-29.6	-30.6	15.1	3.11e-04	0	43	0	802160640	19	4010
2026-01-18 00:25:57.77	188.27	56.73	-30.0	-31.1	14.4	1.50e-06	0	43	0	804257792	20	4081
2026-01-18 00:25:58.77	188.41	56.36	-31.1	-33.0	12.5	3.35e-05	0	43	0	806354944	22	4480
2026-01-18 00:25:59.77	188.56	55.98	-31.0	-32.7	12.6	4.46e-04	0	44	0	807403520	22	4373
2026-01-18 00:26:00.77	188.69	55.60	-30.8	-32.0	13.1	5.11e-05	0	44	0	809500672	22	4163
2026-01-18 00:26:01.78	188.83	55.23	-30.8	-32.6	13.1	2.82e-05	0	44	0	811597824	21	4461
2026-01-18 00:26:02.78	188.96	54.86	-30.6	-32.0	13.4	1.14e-05	0	43	0	813694976	21	4252
2026-01-18 00:26:03.78	189.09	54.49	-30.6	-32.0	13.4	1.52e-05	0	44	0	815792128	21	4261
2026-01-18 00:26:04.79	189.21	54.12	-31.3	-33.7	12.1	1.13e-04	0	44	0	816840704	22	4737
2026-01-18 00:26:05.79	189.33	53.76	-32.0	-35.2	10.6	1.22e-03	0	44	0	818937856	23	5250
2026-01-18 00:26:06.79	189.45	53.40	-31.9	-34.6	10.7	4.54e-03	0	43	0	821035008	24	4901
2026-01-18 00:26:07.80	189.57	53.04	-31.6	-33.4	11.5	1.25e-03	0	44	0	823132160	24	4460
2026-01-18 00:26:08.80	189.68	52.69	-31.1	-32.4	12.5	1.36e-04	0	44	0	825229312	23	4199
2026-01-18 00:26:09.81	189.79	52.33	-31.0	-32.9	12.6	6.17e-05	0	44	0	826277888	22	4440
2026-01-18 00:26:10.82	189.90	51.98	-31.9	-35.2	10.6	1.23e-03	0	44	0	828375040	23	5224
2026-01-18 00:26:11.82	190.00	51.63	-32.6	-36.6	8.7	1.35e-02	0	44	0	830472192	25	5685
2026-01-18 00:26:12.82	190.11	51.28	-32.7	-36.9	8.5	3.76e-02	0	44	0	832569344	25	5837
2026-01-18 00:26:13.82	190.21	50.94	-32.1	-35.1	10.2	1.28e-02	0	44	0	834666496	24	5101
2026-01-18 00:26:14.83	190.31	50.60	-31.4	-33.3	11.9	7.83e-04	0	44	0	835715072	23	4512
2026-01-18 00:26:15.83	190.40	50.26	-30.8	-32.2	13.0	8.01e-05	0	44	0	837812224	22	4212
2026-01-18 00:26:16.84	190.50	49.92	-30.3	-31.4	13.7	1.38e-04	0	44	0	839909376	21	4091
2026-01-18 00:26:17.84	190.59	49.59	-30.3	-31.9	13.8	4.67e-04	0	44	0	842006528	20	4324
2026-01-18 00:26:18.84	190.68	49.26	-30.6	-32.2	13.3	1.67e-05	0	44	0	844103680	21	4315
2026-01-18 00:26:19.85	190.77	48.92	-30.8	-32.8	12.9	1.01e-04	0	44	0	845152256	21	4520
2026-01-18 00:26:20.85	190.86	48.60	-31.9	-35.1	10.6	3.93e-04	0	44	0	847249408	23	5211
2026-01-18 00:26:21.85	190.94	48.27	-32.5	-36.5	8.8	2.70e-02	0	44	0	849346560	25	5689
2026-01-18 00:26:22.85	191.03	47.95	-32.0	-34.7	9.9	2.53e-02	0	44	0	851443712	25	4901
2026-01-18 00:26:23.86	191.11	47.63	-31.0	-32.3	12.4	2.30e-03	0	43	0	853540864	23	4200
2026-01-18 00:26:24.86	191.19	47.31	-30.5	-31.4	13.4	1.52e-05	0	44	0	854589440	22	4009
2026-01-18 00:26:25.87	191.27	47.00	-31.1	-33.1	12.3	1.29e-04	0	44	0	856686592	22	4545
2026-01-18 00:26:26.87	191.34	46.68	-31.2	-33.3	12.2	2.73e-04	0	44	0	858783744	22	4599
2026-01-18 00:26:27.88	191.42	46.37	-31.4	-34.0	11.7	5.19e-04	0	44	0	860880896	22	4834
2026-01-18 00:26:28.88	191.49	46.06	-31.4	-34.0	11.7	3.43e-04	0	44	0	861929472	22	4867
2026-01-18 00:26:29.89	191.57	45.76	-31.4	-33.6	11.6	7.75e-04	0	44	0	864026624	23	4635
2026-01-18 00:26:30.90	191.64	45.45	-31.4	-33.6	11.7	6.32e-04	0	44	0	866123776	23	4614
2026-01-18 00:26:31.90	191.71	45.15	-31.7	-34.3	11.0	1.94e-03	0	44	0	868220928	23	4895
2026-01-18 00:26:32.89	191.78	44.85	-31.5	-34.0	11.3	2.14e-03	0	44	0	870318080	23	4767
2026-01-18 00:26:33.90	191.85	44.55	-31.2	-32.8	12.1	8.14e-04	0	44	0	872415232	23	4370
2026-01-18 00:26:34.90	191.91	44.26	-30.5	-31.4	13.3	2.67e-05	0	44	0	873463808	22	3992
2026-01-18 00:26:35.90	191.98	43.97	-30.1	-30.8	14.0	4.11e-05	0	44	0	875560960	21	3909
2026-01-18 00:26:36.91	192.04	43.67	-29.1	-29.4	15.5	0.00e+00	0	44	0	877658112	19	3716
2026-01-18 00:26:37.91	192.11	43.39	-28.4	-28.2	16.5	0.00e+00	0	44	0	879755264	18	3515
2026-01-18 00:26:38.92	192.17	43.10	-28.5	-28.8	16.5	0.00e+00	0	44	0	880803840	17	3740
2026-01-18 00:26:39.92	192.23	42.81	-29.5	-30.7	14.8	0.00e+00	0	44	0	882900992	18	4153
2026-01-18 00:26:40.92	192.29	42.53	-30.3	-31.9	13.4	4.50e-06	0	44	0	884998144	20	4329
2026-01-18 00:26:41.92	192.35	42.25	-31.0	-33.4	12.4	4.80e-05	0	44	0	887095296	21	4734
2026-01-18 00:26:42.91	192.41	41.98	-31.7	-34.6	10.3	1.19e-03	0	44	0	889192448	23	5038
2026-01-18 00:26:43.92	192.47	41.70	-31.2	-33.6	11.4	1.61e-03	0	44	0	890241024	22	4730
2026-01-18 00:26:44.92	192.52	41.43	-30.9	-32.6	12.7	2.88e-04	0	44	0	892338176	22	4379
2026-01-18 00:26:45.93	192.58	41.15	-30.4	-31.6	13.4	3.66e-05	0	44	0	894435328	21	4162
2026-01-18 00:26:46.93	192.63	40.89	-30.5	-32.0	13.2	1.83e-05	0	44	0	896532480	21	4280
2026-01-18 00:26:47.93	192.69	40.62	-30.4	-31.6	13.5	2.21e-05	0	44	0	898629632	21	4149
2026-01-18 00:26:48.94	192.74	40.35	-30.8	-32.7	12.9	1.95e-03	0	44	0	899678208	21	4487
2026-01-18 00:26:49.94	192.79	40.09	-30.7	-32.6	12.9	3.89e-05	0	44	0	901775360	21	4446
2026-01-18 00:26:50.94	192.84	39.83	-30.5	-32.0	13.3	2.67e-05	0	44	0	903872512	21	4278
2026-01-18 00:26:51.94	192.89	39.57	-31.0	-32.8	12.3	2.32e-03	0	44	0	905969664	22	4439
2026-01-18 00:26:52.95	192.94	39.31	-31.6	-34.3	11.1	4.49e-04	0	44	0	908066816	23	4886
2026-01-18 00:26:53.95	192.99	39.05	-32.3	-36.1	9.3	4.76e-03	0	44	0	909115392	24	5610
2026-01-18 00:26:54.96	193.04	38.79	-32.4	-36.6	8.8	1.50e-02	0	44	0	911212544	24	5847
2026-01-18 00:26:55.95	193.09	38.54	-33.0	-38.3	6.7	1.64e-01	0	44	0	913309696	26	6658
2026-01-18 00:26:56.95	193.14	38.29	-33.0	-38.2	6.8	2.57e-01	0	44	0	915406848	26	6570
2026-01-18 00:26:57.95	193.18	38.05	-32.6	-37.1	8.0	1.33e-01	0	44	0	917504000	25	6036
2026-01-18 00:26:58.95	193.23	37.80	-32.7	-37.6	7.7	9.00e-02	0	44	0	918552576	25	6302
2026-01-18 00:26:59.96	193.27	37.55	-32.1	-35.1	9.6	2.15e-02	0	44	0	920649728	25	5069
2026-01-18 00:27:00.96	193.32	37.31	-32.2	-35.7	9.5	1.10e-02	0	44	0	922746880	24	5394
2026-01-18 00:27:01.97	193.36	37.07	-31.8	-34.9	10.5	9.37e-03	0	44	0	924844032	23	5145
2026-01-18 00:27:02.96	193.41	36.83	-32.0	-35.0	10.1	5.44e-03	0	44	0	925892608	24	5096
2026-01-18 00:27:03.96	193.45	36.59	-32.0	-35.5	10.1	6.55e-03	0	44	0	927989760	23	5406
2026-01-18 00:27:04.97	193.49	36.35	-32.3	-36.2	9.2	1.40e-02	0	44	0	930086912	24	5646
2026-01-18 00:27:05.96	193.53	36.12	-32.3	-36.0	9.4	1.83e-02	0	44	0	932184064	24	5516
2026-01-18 00:27:06.97	193.57	35.88	-32.3	-36.2	9.1	1.77e-02	0	44	0	934281216	24	5623
2026-01-18 00:27:07.97	193.61	35.65	-32.4	-36.4	9.0	3.11e-02	0	44	0	935329792	24	5753
2026-01-18 00:27:08.96	193.65	35.43	-32.5	-36.6	8.5	2.70e-02	0	44	0	937426944	25	5738
2026-01-18 00:27:09.96	193.69	35.20	-32.8	-37.7	7.7	5.46e-02	0	44	0	939524096	25	6311
2026-01-18 00:27:10.96	193.73	34.97	-32.7	-37.2	7.9	8.35e-02	0	44	0	941621248	25	6098
2026-01-18 00:27:11.97	193.77	34.75	-32.9	-37.9	7.1	1.18e-01	0	44	0	943718400	26	6383
2026-01-18 00:27:12.97	193.81	34.52	-33.1	-38.8	6.4	2.33e-01	0	44	0	944766976	26	6919
2026-01-18 00:27:13.98	193.85	34.30	-33.1	-39.2	6.1	2.83e-01	0	44	0	946864128	26	7228
2026-01-18 00:27:14.97	193.88	34.08	-33.3	-39.9	5.7	5.25e-01	0	44	0	948961280	26	7695
2026-01-18 00:27:15.98	193.92	33.86	-33.3	-40.3	5.4	5.02e-01	0	44	0	951058432	26	8016
2026-01-18 00:27:16.98	193.96	33.64	-33.3	-40.5	5.3	3.68e-01	0	44	0	953155584	26	8211
2026-01-18 00:27:17.98	193.99	33.43	-33.1	-38.7	6.5	2.80e-01	0	44	0	954204160	26	6877
2026-01-18 00:27:18.98	194.03	33.22	-33.0	-38.1	7.0	1.71e-01	0	44	0	956301312	26	6498
2026-01-18 00:27:19.99	194.06	33.00	-32.9	-38.5	7.0	1.73e-01	0	44	0	958398464	25	6806
2026-01-18 00:27:21.00	194.10	32.79	-32.8	-37.8	7.5	1.21e-01	0	44	0	960495616	25	6415
2026-01-18 00:27:22.00	194.13	32.58	-32.8	-37.9	7.4	1.23e-01	0	44	0	962592768	25	6451
2026-01-18 00:27:23.00	194.17	32.37	-32.7	-37.4	7.8	8.86e-02	0	44	0	963641344	25	6155
2026-01-18 00:27:24.00	194.20	32.17	-32.8	-37.6	7.7	8.21e-02	0	44	0	965738496	25	6272
2026-01-18 00:27:25.00	194.23	31.96	-32.3	-35.8	9.0	6.28e-02	0	44	0	967835648	25	5360
2026-01-18 00:27:26.00	194.27	31.76	-32.1	-35.5	9.6	1.55e-02	0	44	0	969932800	24	5332
2026-01-18 00:27:27.01	194.30	31.55	-31.6	-33.7	10.9	4.37e-03	0	44	0	970981376	24	4593
2026-01-18 00:27:28.01	194.33	31.35	-31.4	-34.0	11.5	3.67e-03	0	44	0	973078528	22	4875
2026-01-18 00:27:29.01	194.36	31.15	-30.9	-32.7	12.2	3.87e-04	0	44	0	975175680	22	4423
2026-01-18 00:27:30.01	194.39	30.95	-30.8	-32.3	12.6	1.11e-04	0	44	0	977272832	22	4299
2026-01-18 00:27:31.01	194.42	30.76	-31.0	-33.0	12.2	2.80e-03	0	44	0	979369984	22	4511
2026-01-18 00:27:32.01	194.45	30.56	-31.2	-33.6	11.8	2.92e-03	0	44	0	980418560	22	4731
2026-01-18 00:27:33.01	194.48	30.37	-31.7	-34.6	10.7	1.84e-03	0	44	0	982515712	23	5043
2026-01-18 00:27:34.02	194.51	30.17	-32.0	-35.2	9.8	9.25e-03	0	44	0	984612864	24	5209
2026-01-18 00:27:35.02	194.54	29.98	-32.4	-36.5	8.7	2.07e-02	0	44	0	986710016	24	5822
2026-01-18 00:27:36.03	194.57	29.79	-32.7	-37.6	7.5	4.84e-02	0	44	0	988807168	25	6333
2026-01-18 00:27:37.04	194.60	29.60	-32.9	-38.6	6.7	1.58e-01	0	44	0	989855744	25	6950
2026-01-18 00:27:38.04	194.63	29.41	-33.1	-39.4	5.9	2.56e-01	0	44	0	991952896	26	7370
2026-01-18 00:27:39.05	194.66	29.22	-33.1	-39.5	5.8	3.54e-01	0	44	0	994050048	26	7450
2026-01-18 00:27:40.05	194.69	29.04	-33.0	-38.9	6.3	3.16e-01	0	44	0	996147200	26	7049
2026-01-18 00:27:41.06	194.72	28.85	-32.9	-38.5	6.8	2.17e-01	0	44	0	998244352	25	6893
2026-01-18 00:27:42.06	194.74	28.67	-32.7	-37.5	7.5	1.32e-01	0	44	0	999292928	25	6285
2026-01-18 00:27:43.06	194.77	28.49	-32.4	-36.4	8.4	4.71e-02	0	44	0	1001390080	25	5692
2026-01-18 00:27:44.06	194.80	28.31	-32.1	-35.5	9.5	2.16e-02	0	44	0	1003487232	24	5370
2026-01-18 00:27:45.06	194.82	28.13	-31.8	-34.7	10.1	9.34e-03	0	44	0	1005584384	24	5015
2026-01-18 00:27:46.06	194.85	27.95	-31.9	-35.5	9.9	1.19e-02	0	44	0	1007681536	23	5441
2026-01-18 00:27:47.07	194.88	27.77	-31.4	-33.7	11.2	5.70e-03	0	44	0	1008730112	23	4696
2026-01-18 00:27:48.07	194.90	27.59	-31.4	-33.6	11.3	1.40e-03	0	44	0	1010827264	23	4662
2026-01-18 00:27:49.07	194.93	27.42	-31.4	-33.7	11.1	4.22e-03	0	44	0	1012924416	23	4704
2026-01-18 00:27:50.08	194.95	27.24	-31.2	-33.6	11.7	9.09e-04	0	44	0	1015021568	22	4735
2026-01-18 00:27:51.08	194.98	27.07	-31.0	-33.0	12.0	7.70e-04	0	44	0	1016070144	22	4544
2026-01-18 00:27:52.09	195.00	26.90	-31.1	-33.3	11.9	2.91e-03	0	44	0	1018167296	22	4633
2026-01-18 00:27:53.09	195.03	26.73	-31.1	-33.4	11.8	4.56e-04	0	44	0	1020264448	22	4661
2026-01-18 00:27:54.10	195.05	26.55	-30.8	-32.4	12.4	2.37e-04	0	44	0	1022361600	22	4318
2026-01-18 00:27:55.11	195.08	26.38	-30.4	-31.9	13.1	2.82e-03	0	44	0	1024458752	21	4263
2026-01-18 00:27:56.11	195.10	26.22	-30.1	-31.6	13.5	2.50e-03	0	44	0	1026555904	20	4277
2026-01-18 00:27:57.11	195.13	26.05	-29.8	-31.2	14.2	1.50e-06	0	44	0	1027604480	19	4218
2026-01-18 00:27:58.12	195.15	25.88	-29.6	-30.6	14.6	2.48e-03	0	44	0	1029701632	19	4063
2026-01-18 00:27:59.12	195.17	25.72	-29.2	-30.3	15.1	2.24e-03	0	44	0	1031798784	18	4052
2026-01-18 00:28:00.11	195.20	25.56	-29.2	-30.2	15.1	0.00e+00	0	44	0	1033895936	18	4050
2026-01-18 00:28:01.11	195.22	25.40	-29.2	-30.1	15.2	7.00e-07	0	44	0	1034944512	18	4004
2026-01-18 00:28:02.12	195.24	25.23	-29.2	-30.1	15.1	2.38e-03	0	44	0	1037041664	18	4015
2026-01-18 00:28:03.12	195.27	25.07	-29.1	-30.0	15.3	4.49e-04	0	44	0	1039138816	18	3975
2026-01-18 00:28:04.12	195.29	24.91	-29.4	-30.3	14.7	0.00e+00	0	44	0	1041235968	19	3972
2026-01-18 00:28:05.12	195.31	24.76	-29.4	-30.3	14.7	2.35e-03	0	44	0	1043333120	19	3978
2026-01-18 00:28:06.12	195.33	24.60	-29.4	-30.3	14.8	4.53e-04	0	44	0	1044381696	19	3970
2026-01-18 00:28:07.12	195.35	24.44	-29.6	-30.8	14.4	1.50e-06	0	44	0	1046478848	19	4124
2026-01-18 00:28:08.13	195.38	24.28	-29.6	-30.6	14.5	1.50e-06	0	44	0	1048576000	19	4068
2026-01-18 00:28:09.13	195.40	24.13	-29.7	-31.0	14.3	4.74e-04	0	44	0	1050673152	19	4180
2026-01-18 00:28:10.13	195.42	23.98	-29.7	-30.9	14.4	2.16e-03	0	44	0	1052770304	19	4133
2026-01-18 00:28:11.13	195.44	23.82	-29.6	-30.7	14.4	7.00e-07	0	44	0	1053818880	19	4096
2026-01-18 00:28:12.13	195.46	23.67	-29.6	-30.7	14.5	1.50e-06	0	44	0	1055916032	19	4083
2026-01-18 00:28:13.14	195.48	23.52	-29.4	-30.1	14.8	2.26e-03	0	44	0	1058013184	19	3931
2026-01-18 00:28:14.13	195.50	23.37	-29.3	-30.5	14.9	0.00e+00	0	44	0	1060110336	18	4115
2026-01-18 00:28:15.13	195.52	23.22	-29.2	-30.3	15.0	0.00e+00	0	44	0	1061158912	18	4074
2026-01-18 00:28:16.13	195.54	23.07	-29.0	-29.8	15.3	2.21e-03	0	44	0	1063256064	18	3921
2026-01-18 00:28:17.13	195.56	22.92	-28.9	-29.5	15.5	1.97e-03	0	44	0	1065353216	18	3861
2026-01-18 00:28:18.13	195.58	22.78	-29.1	-30.0	15.2	0.00e+00	0	44	0	1067450368	18	3979
2026-01-18 00:28:19.13	195.60	22.63	-28.8	-29.2	15.6	0.00e+00	0	44	0	1069547520	18	3784
2026-01-18 00:28:20.13	195.62	22.49	-28.6	-29.1	16.0	2.22e-03	0	44	0	1070596096	17	3849
2026-01-18 00:28:21.14	195.64	22.34	-28.4	-28.8	16.1	0.00e+00	0	44	0	1072693248	17	3764
2026-01-18 00:28:22.14	195.66	22.20	-28.4	-28.8	16.2	0.00e+00	0	44	0	1074790400	17	3757
2026-01-18 00:28:23.14	195.68	22.06	-28.4	-29.3	16.1	2.13e-03	0	44	0	1076887552	16	3984
2026-01-18 00:28:24.15	195.70	21.91	-28.4	-29.3	16.1	0.00e+00	0	44	0	1078984704	16	3988
2026-01-18 00:28:25.15	195.72	21.77	-28.6	-29.2	15.9	0.00e+00	0	44	0	1080033280	17	3864
2026-01-18 00:28:26.15	195.74	21.63	-28.5	-29.1	15.9	0.00e+00	0	44	0	1082130432	17	3852
2026-01-18 00:28:27.15	195.76	21.49	-28.9	-29.9	15.5	4.14e-04	0	44	0	1084227584	17	4053
2026-01-18 00:28:28.16	195.78	21.35	-28.8	-29.7	15.6	0.00e+00	0	44	0	1086324736	17	4009
2026-01-18 00:28:29.16	195.79	21.21	-29.0	-30.2	15.3	0.00e+00	0	44	0	1088421888	17	4146
2026-01-18 00:28:30.16	195.81	21.08	-29.2	-30.2	15.0	0.00e+00	0	44	0	1089470464	18	4041
2026-01-18 00:28:31.16	195.83	20.94	-29.2	-30.3	14.9	0.00e+00	0	44	0	1091567616	18	4070
2026-01-18 00:28:32.16	195.85	20.80	-29.5	-30.9	14.6	0.00e+00	0	44	0	1093664768	18	4237
2026-01-18 00:28:33.17	195.87	20.67	-29.6	-30.7	14.4	7.00e-07	0	44	0	1095761920	19	4080
2026-01-18 00:28:34.17	195.88	20.53	-29.8	-31.2	14.0	1.75e-03	0	44	0	1097859072	19	4246
2026-01-18 00:28:35.17	195.90	20.40	-30.0	-31.4	13.5	1.37e-05	0	44	0	1098907648	20	4213
2026-01-18 00:28:36.17	195.92	20.27	-30.0	-31.3	13.6	7.60e-06	0	44	0	1101004800	20	4176
2026-01-18 00:28:37.17	195.94	20.13	-30.1	-31.5	13.5	1.29e-05	0	44	0	1103101952	20	4243
2026-01-18 00:28:38.18	195.95	20.00	-30.2	-32.0	13.1	2.74e-04	0	44	0	1105199104	20	4400
2026-01-18 00:28:39.18	195.97	19.87	-30.3	-32.2	13.0	3.35e-05	0	44	0	1106247680	20	4475
2026-01-18 00:28:40.19	195.99	19.74	-30.4	-32.3	12.9	2.43e-04	0	44	0	1108344832	20	4523
2026-01-18 00:28:41.20	196.00	19.61	-30.3	-32.3	12.9	2.15e-04	0	44	0	1110441984	20	4498
2026-01-18 00:28:42.20	196.02	19.48	-30.2	-31.9	13.2	4.19e-05	0	44	0	1112539136	20	4373
2026-01-18 00:28:43.20	196.04	19.35	-30.3	-32.2	13.0	2.10e-04	0	44	0	1114636288	20	4484
2026-01-18 00:28:44.20	196.05	19.22	-30.4	-32.4	12.9	4.57e-05	0	44	0	1116733440	20	4547
2026-01-18 00:28:45.20	196.07	19.10	-30.2	-31.9	13.2	2.51e-05	0	44	0	1117782016	20	4387
2026-01-18 00:28:46.21	196.09	18.97	-30.3	-32.2	13.0	1.52e-04	0	44	0	1119879168	20	4478
2026-01-18 00:28:47.21	196.10	18.84	-30.4	-32.4	12.9	2.08e-04	0	44	0	1121976320	20	4554
2026-01-18 00:28:48.21	196.12	18.72	-30.3	-32.0	13.1	1.83e-05	0	44	0	1124073472	20	4411
2026-01-18 00:28:49.21	196.14	18.60	-30.4	-32.0	12.8	2.04e-04	0	44	0	1125122048	21	4302
2026-01-18 00:28:50.21	196.15	18.47	-30.3	-31.8	12.8	1.71e-04	0	44	0	1127219200	21	4248
2026-01-18 00:28:51.21	196.17	18.35	-30.4	-32.3	12.9	5.87e-05	0	44	0	1129316352	20	4526
2026-01-18 00:28:52.22	196.18	18.22	-30.3	-32.3	12.9	1.81e-04	0	44	0	1131413504	20	4505
2026-01-18 00:28:53.22	196.20	18.10	-30.4	-32.5	12.8	1.52e-04	0	44	0	1133510656	20	4563
2026-01-18 00:28:54.23	196.21	17.98	-30.6	-32.5	12.4	1.01e-04	0	44	0	1134559232	21	4483
2026-01-18 00:28:55.23	196.23	17.86	-30.2	-32.4	12.2	2.49e-04	0	44	0	1136656384	21	4611
2026-01-18 00:28:56.23	196.25	17.74	-30.6	-32.6	12.2	1.56e-04	0	44	0	1138753536	21	4511
2026-01-18 00:28:57.24	196.26	17.62	-30.7	-33.0	12.0	1.79e-04	0	44	0	1140850688	21	4653
2026-01-18 00:28:58.24	196.28	17.50	-30.6	-32.7	12.3	3.08e-04	0	44	0	1142947840	21	4544
2026-01-18 00:28:59.25	196.29	17.38	-30.7	-33.0	12.1	3.16e-04	0	44	0	1143996416	21	4649
2026-01-18 00:29:00.25	196.31	17.26	-30.9	-33.3	11.8	5.04e-04	0	44	0	1146093568	21	4784
2026-01-18 00:29:01.26	196.32	17.15	-30.8	-33.2	11.9	5.67e-04	0	44	0	1148190720	21	4737
2026-01-18 00:29:02.26	196.34	17.03	-31.0	-33.3	11.5	7.64e-04	0	44	0	1150287872	22	4689
2026-01-18 00:29:03.26	196.35	16.91	-31.2	-33.8	11.2	1.28e-03	0	44	0	1152385024	22	4854
2026-01-18 00:29:04.26	196.36	16.80	-31.3	-34.2	10.8	2.03e-03	0	44	0	1153433600	22	5035
2026-01-18 00:29:05.26	196.38	16.68	-31.3	-34.2	10.8	2.50e-03	0	44	0	1155530752	22	5017
2026-01-18 00:29:06.26	196.39	16.57	-31.1	-33.7	11.1	1.88e-03	0	44	0	1157627904	22	4842
2026-01-18 00:29:07.26	196.41	16.45	-31.0	-33.7	11.5	1.03e-03	0	44	0	1159725056	21	4945
2026-01-18 00:29:08.27	196.42	16.34	-30.9	-32.9	11.8	7.32e-04	0	44	0	1161822208	22	4551
2026-01-18 00:29:09.27	196.44	16.23	-30.8	-33.2	11.8	4.59e-04	0	44	0	1162870784	21	4762
2026-01-18 00:29:10.28	196.45	16.11	-30.9	-33.3	11.8	4.23e-04	0	44	0	1164967936	21	4788
2026-01-18 00:29:11.28	196.46	16.00	-30.9	-33.4	11.7	5.38e-04	0	44	0	1167065088	21	4809
2026-01-18 00:29:12.28	196.48	15.89	-30.7	-33.0	11.9	1.92e-03	0	44	0	1169162240	21	4686
2026-01-18 00:29:13.29	196.49	15.78	-30.7	-32.9	12.0	3.70e-04	0	44	0	1170210816	21	4638
2026-01-18 00:29:14.29	196.51	15.67	-30.8	-33.1	11.8	3.52e-04	0	44	0	1172307968	21	4716
2026-01-18 00:29:15.30	196.52	15.56	-30.7	-32.8	12.1	2.16e-03	0	44	0	1174405120	21	4607
2026-01-18 00:29:16.30	196.53	15.45	-30.9	-33.6	11.6	2.38e-03	0	44	0	1176502272	21	4882
2026-01-18 00:29:17.30	196.55	15.34	-30.9	-33.5	11.6	7.29e-04	0	44	0	1178599424	21	4851
2026-01-18 00:29:18.30	196.56	15.23	-30.9	-33.5	11.6	2.52e-03	0	44	0	1179648000	21	4864
2026-01-18 00:29:19.30	196.57	15.12	-31.0	-33.7	11.4	2.75e-03	0	44	0	1181745152	21	4961
2026-01-18 00:29:20.30	196.59	15.02	-30.9	-32.9	11.7	1.06e-03	0	44	0	1183842304	22	4553
2026-01-18 00:29:21.31	196.60	14.91	-31.0	-33.8	11.4	9.28e-04	0	44	0	1185939456	21	4971
2026-01-18 00:29:22.31	196.61	14.80	-31.1	-33.7	11.1	3.09e-03	0	44	0	1188036608	22	4845
2026-01-18 00:29:23.31	196.63	14.70	-31.1	-33.8	11.0	1.43e-03	0	44	0	1189085184	22	4892
2026-01-18 00:29:24.30	196.64	14.59	-31.1	-33.7	11.0	1.50e-03	0	44	0	1191182336	22	4868
2026-01-18 00:29:25.30	196.65	14.49	-31.1	-33.8	11.0	4.19e-03	0	44	0	1193279488	22	4888
2026-01-18 00:29:26.31	196.67	14.38	-31.0	-33.4	11.2	1.58e-03	0	44	0	1195376640	22	4759
2026-01-18 00:29:27.31	196.68	14.28	-31.1	-33.7	11.1	3.68e-03	0	44	0	1197473792	22	4859
2026-01-18 00:29:28.32	196.69	14.17	-31.1	-33.6	11.1	2.12e-03	0	44	0	1198522368	22	4829
2026-01-18 00:29:29.32	196.70	14.07	-31.0	-33.5	11.2	1.56e-03	0	44	0	1200619520	22	4773
2026-01-18 00:29:30.32	196.72	13.97	-31.0	-33.6	11.1	3.44e-03	0	44	0	1202716672	22	4804
2026-01-18 00:29:31.32	196.73	13.86	-31.0	-33.4	11.2	1.29e-03	0	44	0	1204813824	22	4763
2026-01-18 00:29:32.32	196.74	13.76	-30.9	-33.2	11.4	1.02e-03	0	44	0	1206910976	22	4662
2026-01-18 00:29:33.33	196.75	13.66	-30.9	-33.5	11.4	3.35e-03	0	44	0	1207959552	21	4892
2026-01-18 00:29:34.33	196.77	13.56	-30.9	-33.6	11.4	3.48e-03	0	44	0	1210056704	21	4922
2026-01-18 00:29:35.33	196.78	13.46	-30.8	-33.4	11.5	7.63e-04	0	44	0	1212153856	21	4834
2026-01-18 00:29:36.33	196.79	13.36	-30.7	-33.1	11.7	3.08e-03	0	44	0	1214251008	21	4748
2026-01-18 00:29:37.34	196.80	13.26	-30.7	-33.2	11.7	2.75e-03	0	44	0	1215299584	21	4766
2026-01-18 00:29:38.34	196.81	13.16	-30.8	-33.4	11.5	5.67e-04	0	44	0	1217396736	21	4871
2026-01-18 00:29:39.35	196.83	13.06	-30.7	-33.0	11.7	2.77e-03	0	44	0	1219493888	21	4724
2026-01-18 00:29:40.35	196.84	12.96	-30.7	-33.1	11.7	3.06e-03	0	44	0	1221591040	21	4757
2026-01-18 00:29:41.35	196.85	12.86	-30.8	-33.5	11.4	8.68e-04	0	44	0	1223688192	21	4912
2026-01-18 00:29:42.35	196.86	12.76	-30.7	-33.1	11.7	3.10e-03	0	44	0	1224736768	21	4747
2026-01-18 00:29:43.36	196.87	12.67	-30.8	-33.3	11.6	3.23e-03	0	44	0	1226833920	21	4804
2026-01-18 00:29:44.36	196.89	12.57	-30.9	-33.6	11.3	1.02e-03	0	44	0	1228931072	21	4954
2026-01-18 00:29:45.37	196.90	12.47	-30.7	-33.2	11.6	3.34e-03	0	44	0	1231028224	21	4799
2026-01-18 00:29:46.37	196.91	12.37	-30.9	-33.6	11.3	3.00e-03	0	44	0	1233125376	21	4941
2026-01-18 00:29:47.37	196.92	12.28	-30.8	-33.4	11.5	9.12e-04	0	44	0	1234173952	21	4846
2026-01-18 00:29:48.38	196.93	12.18	-30.8	-33.3	11.5	2.87e-03	0	44	0	1236271104	21	4841
2026-01-18 00:29:49.38	196.94	12.09	-30.8	-33.3	11.5	3.19e-03	0	44	0	1238368256	21	4828
2026-01-18 00:29:50.37	196.96	11.99	-30.7	-33.1	11.7	6.16e-04	0	44	0	1240465408	21	4736
2026-01-18 00:29:51.38	196.97	11.90	-30.8	-33.3	11.5	3.53e-03	0	44	0	1242562560	21	4815
2026-01-18 00:29:52.38	196.98	11.80	-30.6	-32.9	11.7	3.23e-03	0	44	0	1243611136	21	4696
2026-01-18 00:29:53.39	196.99	11.71	-30.5	-32.6	11.9	3.76e-04	0	44	0	1245708288	21	4583
2026-01-18 00:29:54.39	197.00	11.62	-30.5	-32.5	12.0	2.62e-03	0	44	0	1247805440	21	4538
2026-01-18 00:29:55.39	197.01	11.52	-30.5	-32.6	11.9	2.39e-03	0	44	0	1249902592	21	4574
2026-01-18 00:29:56.39	197.02	11.43	-30.4	-32.2	12.2	2.65e-04	0	44	0	1251999744	21	4441
2026-01-18 00:29:57.40	197.03	11.34	-30.4	-32.7	12.2	2.37e-03	0	44	0	1253048320	20	4705
2026-01-18 00:29:58.40	197.04	11.25	-30.4	-32.7	12.2	2.70e-03	0	44	0	1255145472	20	4686
2026-01-18 00:29:59.40	197.06	11.15	-30.3	-32.6	12.3	1.60e-04	0	44	0	1257242624	20	4668
2026-01-18 00:30:00.41	197.07	11.06	-30.3	-32.4	12.3	2.61e-03	0	44	0	1259339776	20	4608
2026-01-18 00:30:01.41	197.08	10.97	-30.1	-32.0	12.7	2.38e-03	0	44	0	1261436928	20	4445
2026-01-18 00:30:02.41	197.09	10.88	-30.2	-32.0	12.6	2.49e-04	0	44	0	1262485504	20	4471
2026-01-18 00:30:03.42	197.10	10.79	-30.2	-32.0	12.6	9.30e-05	0	44	0	1264582656	20	4476
2026-01-18 00:30:04.42	197.11	10.70	-30.3	-32.4	12.4	2.31e-03	0	44	0	1266679808	20	4592
2026-01-18 00:30:05.43	197.12	10.61	-30.2	-32.3	12.4	4.05e-04	0	44	0	1268776960	20	4569
2026-01-18 00:30:06.43	197.13	10.52	-30.2	-32.1	12.5	1.38e-04	0	44	0	1269825536	20	4516
2026-01-18 00:30:07.43	197.14	10.43	-30.3	-32.5	12.3	1.20e-04	0	44	0	1271922688	20	4650
2026-01-18 00:30:08.44	197.15	10.34	-30.4	-32.7	12.1	3.87e-04	0	44	0	1274019840	20	4721
2026-01-18 00:30:09.44	197.16	10.25	-30.2	-32.2	12.4	2.58e-03	0	44	0	1276116992	20	4548
2026-01-18 00:30:10.44	197.17	10.17	-30.2	-32.3	12.4	1.60e-04	0	44	0	1278214144	20	4567
2026-01-18 00:30:11.43	197.18	10.08	-30.3	-32.4	12.3	3.42e-04	0	44	0	1279262720	20	4597
2026-01-18 00:30:12.43	197.19	9.99	-30.2	-32.3	12.4	2.46e-03	0	44	0	1281359872	20	4578
2026-01-18 00:30:13.43	197.20	9.90	-30.3	-32.3	12.4	2.07e-04	0	44	0	1283457024	20	4580
2026-01-18 00:30:14.43	197.21	9.82	-30.2	-32.3	12.4	1.53e-04	0	44	0	1285554176	20	4556
2026-01-18 00:30:15.43	197.22	9.73	-30.2	-32.3	12.4	2.35e-03	0	44	0	1287651328	20	4551
