passes_logs/2026/01/18/R2M6_AANII_01/R2M6_AANII_01__20260118_022001_NOAA_20_JPSS-1_rec.log

#Pass ID: 20260118_022001_NOAA 20 (JPSS-1)
#Satellite: NOAA 20 (JPSS-1)
#Configuration: NOAA 20
#almurnet v.1.7.20240730
#Start time: 2026-01-18 02:20:02

#Version: 2.2.20231116
#Station: R2M6_AANII_01
#Location: 30.233357 lon 59.946436 lat
#TLE: 1 43013U 17073A   26017.30359522  .00000067  00000+0  52526-4 0  9990
#TLE: 2 43013  98.7639 318.2187 0001419  36.2087 323.9184 14.19536557423067

#Time	Az	El	Level	Level2	SNR	BER	BlckErr	Temp	State	Recorded	gain1	gain2
2026-01-18 02:20:02.27	10.14	7.02	-32.7	-41.8	4.2	1.43e+00	0	41	0	0	25	10300
2026-01-18 02:20:03.27	10.04	7.09	-32.5	-40.1	4.6	1.35e+00	0	41	104	0	25	8659
2026-01-18 02:20:04.27	9.95	7.15	-32.5	-40.2	6.0	3.09e-01	0	41	0	0	25	8760
2026-01-18 02:20:05.27	9.86	7.21	-32.5	-40.6	6.1	3.05e-01	0	41	0	1048576	24	9107
2026-01-18 02:20:06.28	9.76	7.28	-32.5	-40.1	6.1	3.26e-01	0	41	0	3145728	25	8627
2026-01-18 02:20:07.28	9.67	7.34	-32.5	-40.3	6.0	3.03e-01	0	42	0	5242880	25	8791
2026-01-18 02:20:08.28	9.57	7.40	-32.5	-40.2	6.0	3.41e-01	0	42	0	7340032	25	8754
2026-01-18 02:20:09.28	9.48	7.47	-32.6	-40.8	5.7	4.34e-01	0	42	0	9437184	25	9194
2026-01-18 02:20:10.28	9.38	7.53	-32.5	-40.1	6.1	3.61e-01	0	42	0	10485760	25	8596
2026-01-18 02:20:11.28	9.28	7.59	-32.3	-38.7	7.1	2.12e-01	0	42	0	12582912	25	7573
2026-01-18 02:20:12.28	9.19	7.66	-32.3	-39.1	7.2	1.30e-01	0	42	0	14680064	24	7901
2026-01-18 02:20:13.29	9.09	7.72	-32.4	-39.6	6.8	1.64e-01	0	42	0	16777216	24	8315
2026-01-18 02:20:14.29	8.99	7.79	-32.2	-38.7	7.5	1.34e-01	0	42	0	17825792	24	7618
2026-01-18 02:20:15.29	8.89	7.85	-32.2	-38.8	7.5	1.02e-01	0	42	0	19922944	24	7705
2026-01-18 02:20:16.30	8.79	7.91	-32.2	-38.8	7.5	9.62e-02	0	42	0	22020096	24	7655
2026-01-18 02:20:17.29	8.69	7.98	-32.2	-38.7	7.6	1.02e-01	0	42	0	24117248	24	7611
2026-01-18 02:20:18.30	8.59	8.04	-32.2	-38.5	7.7	9.78e-02	0	42	0	26214400	24	7439
2026-01-18 02:20:19.30	8.49	8.11	-32.2	-38.8	7.5	9.38e-02	0	42	0	27262976	24	7658
2026-01-18 02:20:20.31	8.39	8.17	-32.2	-38.8	7.6	9.53e-02	0	42	0	29360128	24	7638
2026-01-18 02:20:21.31	8.29	8.24	-32.2	-38.6	7.7	9.36e-02	0	42	0	31457280	24	7528
2026-01-18 02:20:22.31	8.19	8.30	-32.3	-39.1	7.2	1.39e-01	0	42	0	33554432	24	7907
2026-01-18 02:20:23.31	8.09	8.37	-32.1	-38.1	8.1	8.50e-02	0	42	0	35651584	24	7210
2026-01-18 02:20:24.31	7.98	8.43	-31.9	-37.3	8.8	4.44e-02	0	42	0	36700160	24	6681
2026-01-18 02:20:25.31	7.88	8.49	-31.7	-36.6	9.3	3.07e-02	0	42	0	38797312	24	6291
2026-01-18 02:20:26.31	7.78	8.56	-31.6	-36.1	9.8	1.20e-02	0	42	0	40894464	24	6008
2026-01-18 02:20:27.31	7.67	8.62	-31.5	-35.8	9.9	8.38e-03	0	42	0	42991616	24	5896
2026-01-18 02:20:28.31	7.57	8.69	-31.4	-35.4	10.3	7.15e-03	0	42	0	45088768	24	5668
2026-01-18 02:20:29.31	7.47	8.75	-31.5	-35.5	10.2	6.09e-03	0	42	0	46137344	24	5732
2026-01-18 02:20:30.32	7.36	8.82	-31.4	-35.4	10.3	5.32e-03	0	42	0	48234496	24	5668
2026-01-18 02:20:31.32	7.25	8.88	-31.4	-35.1	10.5	4.51e-03	0	42	0	50331648	24	5561
2026-01-18 02:20:32.33	7.15	8.95	-31.4	-35.6	10.5	3.90e-03	0	42	0	52428800	23	5872
2026-01-18 02:20:33.33	7.04	9.02	-31.3	-35.5	10.6	4.49e-03	0	42	0	54525952	23	5833
2026-01-18 02:20:34.34	6.93	9.08	-31.5	-36.0	10.3	3.37e-03	0	42	0	55574528	23	6051
2026-01-18 02:20:35.35	6.82	9.15	-31.5	-36.2	10.1	5.89e-03	0	42	0	57671680	23	6158
2026-01-18 02:20:36.35	6.71	9.21	-31.4	-35.7	10.4	4.38e-03	0	42	0	59768832	23	5930
2026-01-18 02:20:37.35	6.61	9.28	-31.5	-36.2	10.1	5.24e-03	0	42	0	61865984	23	6184
2026-01-18 02:20:38.35	6.50	9.34	-31.5	-36.0	10.3	9.75e-03	0	42	0	62914560	23	6056
2026-01-18 02:20:39.35	6.39	9.41	-31.5	-36.1	10.2	4.90e-03	0	42	0	65011712	23	6102
2026-01-18 02:20:40.36	6.27	9.48	-31.4	-35.6	10.5	4.33e-03	0	42	0	67108864	23	5876
2026-01-18 02:20:41.36	6.16	9.54	-31.4	-35.8	10.4	3.67e-03	0	42	0	69206016	23	5977
2026-01-18 02:20:42.36	6.05	9.61	-31.4	-35.6	10.5	4.77e-03	0	42	0	71303168	23	5853
2026-01-18 02:20:43.36	5.94	9.67	-31.4	-35.7	10.5	3.92e-03	0	42	0	72351744	23	5894
2026-01-18 02:20:44.36	5.83	9.74	-31.4	-35.6	10.5	3.90e-03	0	42	0	74448896	23	5891
2026-01-18 02:20:45.36	5.72	9.81	-31.4	-35.6	10.5	4.63e-03	0	43	0	76546048	23	5887
2026-01-18 02:20:46.37	5.60	9.87	-31.5	-36.0	10.3	4.40e-03	0	42	0	78643200	23	6049
2026-01-18 02:20:47.37	5.49	9.94	-31.4	-35.6	10.6	4.40e-03	0	42	0	80740352	23	5882
2026-01-18 02:20:48.37	5.37	10.01	-31.4	-35.7	10.5	3.41e-03	0	43	0	81788928	23	5890
2026-01-18 02:20:49.38	5.26	10.07	-31.4	-35.8	10.4	4.28e-03	0	43	0	83886080	23	5956
2026-01-18 02:20:50.39	5.14	10.14	-31.4	-36.3	10.4	4.07e-03	0	42	0	85983232	22	6311
2026-01-18 02:20:51.39	5.02	10.21	-31.4	-36.3	10.4	4.48e-03	0	43	0	88080384	22	6328
2026-01-18 02:20:52.39	4.91	10.27	-31.3	-35.9	10.8	3.64e-03	0	43	0	90177536	22	6090
2026-01-18 02:20:53.39	4.79	10.34	-31.4	-36.1	10.6	3.49e-03	0	43	0	91226112	22	6187
2026-01-18 02:20:54.39	4.67	10.41	-31.4	-36.1	10.6	3.71e-03	0	43	0	93323264	22	6195
2026-01-18 02:20:55.40	4.55	10.47	-31.3	-35.9	10.7	3.22e-03	0	43	0	95420416	22	6124
2026-01-18 02:20:56.40	4.43	10.54	-31.4	-36.2	10.5	3.02e-03	0	43	0	97517568	22	6231
2026-01-18 02:20:57.41	4.31	10.61	-31.4	-36.2	10.5	4.69e-03	0	43	0	99614720	22	6276
2026-01-18 02:20:58.41	4.19	10.67	-31.3	-35.9	10.8	2.81e-03	0	43	0	100663296	22	6091
2026-01-18 02:20:59.40	4.07	10.74	-31.3	-35.8	10.8	2.58e-03	0	43	0	102760448	22	6043
2026-01-18 02:21:00.41	3.95	10.81	-31.3	-35.9	10.8	2.36e-03	0	43	0	104857600	22	6112
2026-01-18 02:21:01.41	3.83	10.88	-31.3	-36.0	10.8	2.78e-03	0	43	0	106954752	22	6121
2026-01-18 02:21:02.41	3.71	10.94	-31.3	-35.9	10.8	2.49e-03	0	43	0	108003328	22	6102
2026-01-18 02:21:03.41	3.58	11.01	-31.3	-35.8	10.9	2.18e-03	0	43	0	110100480	22	6023
2026-01-18 02:21:04.42	3.46	11.08	-31.2	-35.6	11.1	1.53e-03	0	43	0	112197632	22	5927
2026-01-18 02:21:05.42	3.33	11.14	-31.2	-35.3	11.2	1.60e-03	0	43	0	114294784	22	5830
2026-01-18 02:21:06.43	3.21	11.21	-31.2	-35.5	11.1	1.44e-03	0	43	0	116391936	22	5899
2026-01-18 02:21:07.43	3.08	11.28	-31.4	-36.2	10.6	2.18e-03	0	43	0	118489088	22	6218
2026-01-18 02:21:08.44	2.96	11.35	-31.4	-35.6	10.6	4.44e-03	0	43	0	119537664	23	5864
2026-01-18 02:21:09.44	2.83	11.42	-31.3	-35.4	10.8	2.67e-03	0	43	0	121634816	23	5753
2026-01-18 02:21:10.44	2.70	11.48	-31.3	-35.2	11.0	1.60e-03	0	43	0	123731968	23	5677
2026-01-18 02:21:11.44	2.58	11.55	-31.4	-35.5	10.8	2.90e-03	0	43	0	125829120	23	5782
2026-01-18 02:21:12.44	2.45	11.62	-31.3	-35.4	10.8	2.37e-03	0	43	0	126877696	23	5763
2026-01-18 02:21:13.45	2.32	11.69	-31.3	-35.3	10.9	1.74e-03	0	43	0	128974848	23	5710
2026-01-18 02:21:14.45	2.19	11.75	-31.4	-35.6	10.7	2.52e-03	0	43	0	131072000	23	5852
2026-01-18 02:21:15.46	2.06	11.82	-31.3	-35.2	11.0	2.67e-03	0	43	0	133169152	23	5651
2026-01-18 02:21:16.46	1.93	11.89	-31.1	-34.6	11.4	1.70e-03	0	43	0	135266304	23	5384
2026-01-18 02:21:17.46	1.79	11.96	-31.3	-35.2	11.0	1.37e-03	0	43	0	136314880	23	5625
2026-01-18 02:21:18.45	1.66	12.03	-31.3	-35.1	11.1	1.75e-03	0	43	0	138412032	23	5621
2026-01-18 02:21:19.45	1.53	12.09	-31.3	-35.4	10.9	1.89e-03	0	43	0	140509184	23	5730
2026-01-18 02:21:20.45	1.40	12.16	-31.4	-35.7	10.6	3.57e-03	0	43	0	142606336	23	5892
2026-01-18 02:21:21.46	1.26	12.23	-31.2	-35.0	11.1	1.75e-03	0	43	0	144703488	23	5568
2026-01-18 02:21:22.46	1.13	12.30	-31.2	-34.8	11.3	1.36e-03	0	43	0	145752064	23	5475
2026-01-18 02:21:23.46	0.99	12.37	-31.1	-34.7	11.4	1.37e-03	0	43	0	147849216	23	5416
2026-01-18 02:21:24.47	0.86	12.43	-31.2	-35.0	11.1	1.72e-03	0	43	0	149946368	23	5572
2026-01-18 02:21:25.47	0.72	12.50	-31.4	-36.0	10.9	1.79e-03	0	43	0	152043520	22	6114
2026-01-18 02:21:26.47	0.58	12.57	-31.3	-35.8	10.9	2.19e-03	0	43	0	154140672	22	6034
2026-01-18 02:21:27.48	0.44	12.64	-31.4	-35.9	10.9	2.02e-03	0	43	0	155189248	22	6099
2026-01-18 02:21:28.48	0.30	12.71	-31.3	-35.7	11.1	2.05e-03	0	43	0	157286400	22	6001
2026-01-18 02:21:29.48	0.17	12.78	-31.1	-35.1	11.5	1.46e-03	0	43	0	159383552	22	5711
2026-01-18 02:21:30.48	0.03	12.84	-31.1	-35.2	11.5	8.03e-04	0	43	0	161480704	22	5731
2026-01-18 02:21:31.49	359.88	12.91	-31.2	-35.3	11.3	1.31e-03	0	43	0	163577856	22	5791
2026-01-18 02:21:32.48	359.74	12.98	-31.2	-35.5	11.2	1.02e-03	0	43	0	164626432	22	5873
2026-01-18 02:21:33.49	359.60	13.05	-31.2	-35.3	11.4	1.37e-03	0	43	0	166723584	22	5772
2026-01-18 02:21:34.50	359.46	13.12	-31.0	-34.7	11.8	8.89e-04	0	43	0	168820736	22	5515
2026-01-18 02:21:35.49	359.32	13.19	-30.8	-34.2	12.2	3.43e-04	0	43	0	170917888	22	5315
2026-01-18 02:21:36.50	359.17	13.26	-30.8	-34.1	12.2	2.27e-04	0	43	0	171966464	22	5265
2026-01-18 02:21:37.50	359.03	13.32	-30.8	-34.2	12.2	3.62e-04	0	43	0	174063616	22	5291
2026-01-18 02:21:38.50	358.88	13.39	-30.8	-34.7	12.2	4.15e-04	0	43	0	176160768	21	5601
2026-01-18 02:21:39.50	358.74	13.46	-30.8	-34.5	12.3	2.32e-04	0	43	0	178257920	21	5535
2026-01-18 02:21:40.51	358.59	13.53	-30.8	-34.7	12.2	4.03e-04	0	43	0	180355072	21	5602
2026-01-18 02:21:41.51	358.44	13.60	-30.8	-34.8	12.1	5.52e-04	0	43	0	181403648	21	5654
2026-01-18 02:21:42.51	358.29	13.67	-30.9	-34.9	12.1	1.78e-04	0	43	0	183500800	21	5690
2026-01-18 02:21:43.51	358.14	13.73	-30.7	-34.4	12.4	1.34e-04	0	43	0	185597952	21	5491
2026-01-18 02:21:44.52	357.99	13.80	-30.8	-34.6	12.2	5.11e-04	0	43	0	187695104	21	5598
2026-01-18 02:21:45.52	357.84	13.87	-30.8	-34.7	12.2	2.17e-04	0	43	0	189792256	21	5618
2026-01-18 02:21:46.52	357.69	13.94	-30.7	-34.2	12.6	1.30e-04	0	43	0	190840832	21	5416
2026-01-18 02:21:47.53	357.54	14.01	-30.9	-34.8	12.2	5.91e-04	0	43	0	192937984	21	5658
2026-01-18 02:21:48.53	357.39	14.08	-30.9	-34.8	12.2	2.01e-04	0	43	0	195035136	21	5667
2026-01-18 02:21:49.53	357.23	14.15	-30.8	-34.6	12.3	2.90e-04	0	43	0	197132288	21	5552
2026-01-18 02:21:50.54	357.08	14.22	-30.9	-34.7	12.2	4.55e-04	0	43	0	199229440	21	5627
2026-01-18 02:21:51.54	356.93	14.28	-31.1	-35.0	11.8	5.41e-04	0	43	0	200278016	22	5611
2026-01-18 02:21:52.54	356.77	14.35	-31.3	-35.6	11.3	1.05e-03	0	43	0	202375168	22	5916
2026-01-18 02:21:53.54	356.61	14.42	-31.2	-35.3	11.5	1.02e-03	0	43	0	204472320	22	5757
2026-01-18 02:21:54.54	356.46	14.49	-31.2	-35.3	11.5	5.59e-04	0	43	0	206569472	22	5778
2026-01-18 02:21:55.54	356.30	14.56	-31.3	-35.7	11.3	1.50e-03	0	43	0	208666624	22	5930
2026-01-18 02:21:56.55	356.14	14.63	-31.2	-35.3	11.5	1.76e-03	0	43	0	209715200	22	5765
2026-01-18 02:21:57.55	355.98	14.69	-31.3	-35.7	11.3	8.32e-04	0	43	0	211812352	22	5954
2026-01-18 02:21:58.55	355.82	14.76	-31.4	-35.8	11.1	2.36e-03	0	43	0	213909504	22	6002
2026-01-18 02:21:59.56	355.66	14.83	-31.5	-36.2	10.9	2.05e-03	0	43	0	216006656	22	6181
2026-01-18 02:22:00.56	355.50	14.90	-31.7	-36.3	10.4	2.68e-03	0	43	0	217055232	23	6153
2026-01-18 02:22:01.56	355.34	14.97	-31.7	-36.3	10.4	5.87e-03	0	43	0	219152384	23	6128
2026-01-18 02:22:02.56	355.18	15.03	-31.4	-35.5	11.0	3.79e-03	0	43	0	221249536	23	5757
2026-01-18 02:22:03.57	355.01	15.10	-31.3	-35.1	11.4	1.38e-03	0	43	0	223346688	23	5562
2026-01-18 02:22:04.57	354.85	15.17	-31.3	-35.4	11.5	1.34e-03	0	43	0	225443840	22	5816
2026-01-18 02:22:05.57	354.68	15.24	-31.3	-35.5	11.4	1.13e-03	0	43	0	226492416	22	5853
2026-01-18 02:22:06.58	354.52	15.31	-31.4	-35.8	11.2	9.87e-04	0	43	0	228589568	22	5974
2026-01-18 02:22:07.58	354.35	15.37	-31.4	-35.7	11.3	1.81e-03	0	43	0	230686720	22	5914
2026-01-18 02:22:08.58	354.18	15.44	-31.2	-35.2	11.7	1.13e-03	0	43	0	232783872	22	5684
2026-01-18 02:22:09.59	354.01	15.51	-31.2	-35.2	11.7	5.64e-04	0	43	0	234881024	22	5723
2026-01-18 02:22:10.59	353.84	15.58	-31.1	-35.0	11.8	1.05e-03	0	43	0	235929600	22	5640
2026-01-18 02:22:11.59	353.67	15.65	-31.2	-35.2	11.7	1.01e-03	0	43	0	238026752	22	5682
2026-01-18 02:22:12.59	353.50	15.71	-31.3	-35.4	11.5	7.51e-04	0	43	0	240123904	22	5800
2026-01-18 02:22:13.60	353.33	15.78	-31.3	-35.4	11.6	1.20e-03	0	43	0	242221056	22	5783
2026-01-18 02:22:14.60	353.16	15.85	-31.2	-35.2	11.7	6.11e-04	0	43	0	244318208	22	5708
2026-01-18 02:22:15.60	352.99	15.91	-31.3	-35.5	11.5	7.06e-04	0	43	0	245366784	22	5847
2026-01-18 02:22:16.60	352.81	15.98	-31.3	-35.4	11.6	1.34e-03	0	43	0	247463936	22	5771
2026-01-18 02:22:17.60	352.64	16.05	-31.3	-35.5	11.5	1.07e-03	0	43	0	249561088	22	5822
2026-01-18 02:22:18.60	352.47	16.12	-31.4	-35.8	11.3	1.22e-03	0	43	0	251658240	22	5986
2026-01-18 02:22:19.60	352.29	16.18	-31.3	-35.6	11.4	1.35e-03	0	43	0	253755392	22	5871
2026-01-18 02:22:20.60	352.11	16.25	-31.2	-35.3	11.7	1.08e-03	0	43	0	254803968	22	5724
2026-01-18 02:22:21.60	351.94	16.32	-31.1	-35.0	11.9	4.18e-04	0	43	0	256901120	22	5598
2026-01-18 02:22:22.61	351.76	16.38	-31.2	-35.3	11.7	7.51e-04	0	43	0	258998272	22	5714
2026-01-18 02:22:23.60	351.58	16.45	-31.2	-35.2	11.7	8.91e-04	0	43	0	261095424	22	5705
2026-01-18 02:22:24.60	351.40	16.52	-31.2	-35.2	11.8	6.32e-04	0	43	0	262144000	22	5707
2026-01-18 02:22:25.60	351.22	16.58	-31.2	-35.1	11.8	7.52e-04	0	43	0	264241152	22	5643
2026-01-18 02:22:26.60	351.04	16.65	-31.3	-35.4	11.6	8.30e-04	0	44	0	266338304	22	5773
2026-01-18 02:22:27.60	350.86	16.71	-31.3	-35.3	11.7	4.33e-04	0	43	0	268435456	22	5747
2026-01-18 02:22:28.60	350.67	16.78	-31.2	-35.3	11.7	5.84e-04	0	44	0	270532608	22	5715
2026-01-18 02:22:29.60	350.49	16.84	-31.3	-35.4	11.5	9.32e-04	0	43	0	271581184	22	5793
2026-01-18 02:22:30.60	350.30	16.91	-31.3	-35.5	11.5	1.15e-03	0	43	0	273678336	22	5842
2026-01-18 02:22:31.61	350.12	16.98	-31.3	-35.4	11.6	8.22e-04	0	44	0	275775488	22	5774
2026-01-18 02:22:32.61	349.93	17.04	-31.3	-35.3	11.7	7.39e-04	0	43	0	277872640	22	5751
2026-01-18 02:22:33.61	349.74	17.11	-31.2	-35.2	11.8	6.16e-04	0	44	0	279969792	22	5671
2026-01-18 02:22:34.62	349.55	17.17	-31.3	-35.5	11.6	8.41e-04	0	43	0	281018368	22	5840
2026-01-18 02:22:35.62	349.36	17.24	-31.3	-35.5	11.6	7.92e-04	0	43	0	283115520	22	5820
2026-01-18 02:22:36.62	349.18	17.30	-31.2	-35.2	11.8	5.41e-04	0	43	0	285212672	22	5678
2026-01-18 02:22:37.63	348.98	17.37	-31.2	-35.2	11.8	7.16e-04	0	43	0	287309824	22	5670
2026-01-18 02:22:38.62	348.79	17.43	-31.2	-35.2	11.8	5.40e-04	0	43	0	289406976	22	5669
2026-01-18 02:22:39.63	348.60	17.50	-31.2	-35.1	11.9	5.32e-04	0	43	0	290455552	22	5619
2026-01-18 02:22:40.62	348.41	17.56	-31.0	-34.5	12.3	4.57e-04	0	44	0	292552704	22	5398
2026-01-18 02:22:41.63	348.21	17.62	-30.9	-34.3	12.4	2.91e-04	0	44	0	294649856	22	5316
2026-01-18 02:22:42.63	348.02	17.69	-30.8	-34.0	12.6	9.23e-05	0	44	0	296747008	22	5192
2026-01-18 02:22:43.63	347.82	17.75	-30.8	-33.8	12.8	1.68e-04	0	43	0	298844160	22	5109
2026-01-18 02:22:44.63	347.63	17.82	-30.8	-33.8	12.8	8.85e-05	0	43	0	299892736	22	5105
2026-01-18 02:22:45.64	347.43	17.88	-30.8	-33.9	12.7	6.79e-05	0	43	0	301989888	22	5147
2026-01-18 02:22:46.64	347.23	17.94	-30.8	-33.9	12.7	6.71e-05	0	43	0	304087040	22	5147
2026-01-18 02:22:47.64	347.03	18.00	-30.9	-34.2	12.5	1.12e-04	0	44	0	306184192	22	5255
2026-01-18 02:22:48.63	346.83	18.07	-30.7	-33.7	12.8	9.15e-05	0	43	0	307232768	22	5059
2026-01-18 02:22:49.64	346.63	18.13	-30.5	-33.2	13.2	2.97e-05	0	43	0	309329920	22	4874
2026-01-18 02:22:50.63	346.43	18.19	-30.4	-32.9	13.4	3.50e-05	0	44	0	311427072	22	4763
2026-01-18 02:22:51.63	346.23	18.25	-30.4	-32.7	13.5	8.30e-06	0	44	0	313524224	22	4705
2026-01-18 02:22:52.64	346.03	18.32	-30.4	-32.8	13.4	1.29e-05	0	44	0	315621376	22	4762
2026-01-18 02:22:53.64	345.82	18.38	-30.4	-32.7	13.5	1.14e-05	0	44	0	316669952	22	4704
2026-01-18 02:22:54.63	345.62	18.44	-30.2	-32.9	13.7	9.90e-06	0	43	0	318767104	21	4869
2026-01-18 02:22:55.64	345.41	18.50	-30.2	-32.9	13.7	6.80e-06	0	44	0	320864256	21	4868
2026-01-18 02:22:56.64	345.21	18.56	-30.3	-33.0	13.6	1.14e-05	0	43	0	322961408	21	4902
2026-01-18 02:22:57.65	345.00	18.62	-30.2	-32.7	13.8	1.44e-05	0	43	0	325058560	21	4812
2026-01-18 02:22:58.65	344.79	18.68	-30.0	-32.1	14.2	8.30e-06	0	43	0	326107136	21	4624
2026-01-18 02:22:59.66	344.58	18.74	-30.0	-32.1	14.2	7.00e-07	0	43	0	328204288	21	4613
2026-01-18 02:23:00.65	344.37	18.80	-29.9	-32.0	14.3	1.50e-06	0	44	0	330301440	21	4560
2026-01-18 02:23:01.65	344.16	18.86	-30.0	-32.2	14.1	1.50e-06	0	44	0	332398592	21	4653
2026-01-18 02:23:02.66	343.95	18.92	-30.0	-32.2	14.1	2.20e-06	0	44	0	334495744	21	4648
2026-01-18 02:23:03.66	343.73	18.98	-29.8	-31.7	14.5	7.00e-07	0	43	0	335544320	21	4469
2026-01-18 02:23:04.66	343.52	19.04	-29.8	-32.1	14.5	7.00e-07	0	43	0	337641472	20	4703
2026-01-18 02:23:05.66	343.31	19.10	-29.7	-32.0	14.6	0.00e+00	0	43	0	339738624	20	4695
2026-01-18 02:23:06.66	343.09	19.16	-29.8	-32.2	14.5	0.00e+00	0	44	0	341835776	20	4750
2026-01-18 02:23:07.67	342.88	19.22	-29.8	-32.2	14.4	0.00e+00	0	44	0	342884352	20	4742
2026-01-18 02:23:08.67	342.66	19.27	-29.6	-31.8	14.8	7.00e-07	0	44	0	344981504	20	4597
2026-01-18 02:23:09.68	342.44	19.33	-29.8	-32.2	14.5	0.00e+00	0	44	0	347078656	20	4729
2026-01-18 02:23:10.68	342.22	19.39	-29.7	-32.0	14.6	0.00e+00	0	44	0	349175808	20	4669
2026-01-18 02:23:11.68	342.00	19.44	-29.7	-32.0	14.6	0.00e+00	0	43	0	351272960	20	4673
2026-01-18 02:23:12.69	341.78	19.50	-29.8	-32.1	14.5	0.00e+00	0	44	0	352321536	20	4717
2026-01-18 02:23:13.69	341.56	19.56	-29.8	-32.1	14.6	0.00e+00	0	43	0	354418688	20	4700
2026-01-18 02:23:14.69	341.34	19.61	-29.7	-31.8	14.7	0.00e+00	0	44	0	356515840	20	4613
2026-01-18 02:23:15.70	341.11	19.67	-29.7	-31.8	14.7	0.00e+00	0	44	0	358612992	20	4619
2026-01-18 02:23:16.70	340.89	19.73	-29.6	-31.6	14.8	7.00e-07	0	43	0	360710144	20	4552
2026-01-18 02:23:17.70	340.67	19.78	-29.5	-31.4	15.0	0.00e+00	0	44	0	361758720	20	4493
2026-01-18 02:23:18.71	340.44	19.83	-29.7	-31.9	14.7	0.00e+00	0	44	0	363855872	20	4647
2026-01-18 02:23:19.71	340.22	19.89	-29.8	-32.1	14.5	7.00e-07	0	44	0	365953024	20	4718
2026-01-18 02:23:20.71	339.99	19.94	-29.8	-32.3	14.5	0.00e+00	0	43	0	368050176	20	4774
2026-01-18 02:23:21.71	339.76	20.00	-29.8	-32.2	14.5	0.00e+00	0	43	0	370147328	20	4745
2026-01-18 02:23:22.72	339.53	20.05	-29.8	-32.2	14.5	0.00e+00	0	44	0	371195904	20	4727
2026-01-18 02:23:23.71	339.31	20.10	-29.8	-32.1	14.5	1.50e-06	0	44	0	373293056	20	4709
2026-01-18 02:23:24.72	339.07	20.16	-29.8	-32.2	14.5	7.00e-07	0	44	0	375390208	20	4752
2026-01-18 02:23:25.72	338.84	20.21	-29.8	-32.1	14.5	0.00e+00	0	44	0	377487360	20	4717
2026-01-18 02:23:26.72	338.61	20.26	-29.8	-32.1	14.6	0.00e+00	0	44	0	379584512	20	4718
2026-01-18 02:23:27.72	338.38	20.31	-29.8	-32.2	14.5	7.00e-07	0	44	0	380633088	20	4755
2026-01-18 02:23:28.72	338.15	20.36	-29.9	-32.4	14.4	1.50e-06	0	44	0	382730240	20	4806
2026-01-18 02:23:29.72	337.92	20.41	-29.9	-32.5	14.3	0.00e+00	0	44	0	384827392	20	4832
2026-01-18 02:23:30.72	337.68	20.46	-29.8	-32.3	14.5	1.50e-06	0	44	0	386924544	20	4757
2026-01-18 02:23:31.73	337.44	20.51	-29.8	-32.2	14.5	0.00e+00	0	44	0	389021696	20	4730
2026-01-18 02:23:32.73	337.21	20.56	-29.8	-32.5	14.7	7.00e-07	0	44	0	390070272	19	4961
2026-01-18 02:23:33.73	336.97	20.61	-29.8	-32.7	14.6	0.00e+00	0	44	0	392167424	19	4994
2026-01-18 02:23:34.74	336.73	20.66	-29.7	-32.4	14.8	0.00e+00	0	43	0	394264576	19	4893
2026-01-18 02:23:35.74	336.50	20.71	-29.7	-32.5	14.7	0.00e+00	0	44	0	396361728	19	4933
2026-01-18 02:23:36.74	336.26	20.75	-29.9	-32.9	14.5	0.00e+00	0	44	0	397410304	19	5070
2026-01-18 02:23:37.75	336.02	20.80	-29.7	-32.3	14.8	0.00e+00	0	43	0	399507456	19	4876
2026-01-18 02:23:38.74	335.78	20.85	-29.5	-31.8	15.1	0.00e+00	0	44	0	401604608	19	4710
2026-01-18 02:23:39.74	335.54	20.89	-29.4	-31.5	15.3	0.00e+00	0	44	0	403701760	19	4604
2026-01-18 02:23:40.74	335.29	20.94	-29.4	-31.7	15.2	0.00e+00	0	43	0	405798912	19	4678
2026-01-18 02:23:41.74	335.05	20.98	-29.3	-31.3	15.4	0.00e+00	0	44	0	406847488	19	4558
2026-01-18 02:23:42.74	334.81	21.03	-29.4	-31.6	15.3	0.00e+00	0	44	0	408944640	19	4626
2026-01-18 02:23:43.75	334.56	21.07	-29.4	-32.0	15.3	0.00e+00	0	44	0	411041792	18	4892
2026-01-18 02:23:44.74	334.32	21.12	-29.5	-31.9	15.1	0.00e+00	0	44	0	413138944	19	4723
2026-01-18 02:23:45.74	334.08	21.16	-29.6	-32.2	14.9	7.00e-07	0	44	0	415236096	19	4839
2026-01-18 02:23:46.75	333.83	21.20	-29.5	-31.9	15.1	0.00e+00	0	44	0	416284672	19	4730
2026-01-18 02:23:47.75	333.58	21.25	-29.4	-31.7	15.3	0.00e+00	0	43	0	418381824	19	4667
2026-01-18 02:23:48.75	333.33	21.29	-29.3	-31.9	15.2	0.00e+00	0	44	0	420478976	18	4828
2026-01-18 02:23:49.76	333.08	21.33	-29.3	-31.8	14.7	0.00e+00	0	44	0	422576128	18	4801
2026-01-18 02:23:50.76	332.84	21.37	-29.2	-31.5	15.7	0.00e+00	0	43	0	424673280	18	4707
2026-01-18 02:23:51.77	332.58	21.41	-29.3	-31.8	14.4	0.00e+00	0	44	0	425721856	18	4814
2026-01-18 02:23:52.76	332.34	21.45	-29.3	-31.8	14.3	0.00e+00	0	43	0	427819008	18	4820
2026-01-18 02:23:53.77	332.08	21.49	-29.4	-32.0	15.4	0.00e+00	0	44	0	429916160	18	4880
2026-01-18 02:23:54.77	331.83	21.53	-29.3	-31.9	15.3	0.00e+00	0	44	0	432013312	18	4850
2026-01-18 02:23:55.77	331.58	21.57	-29.3	-31.7	15.5	0.00e+00	0	44	0	434110464	18	4789
2026-01-18 02:23:56.78	331.32	21.61	-29.2	-31.7	15.5	0.00e+00	0	44	0	435159040	18	4778
2026-01-18 02:23:57.79	331.07	21.64	-29.2	-31.7	15.6	0.00e+00	0	43	0	437256192	18	4777
2026-01-18 02:23:58.79	330.82	21.68	-29.4	-32.0	15.4	0.00e+00	0	43	0	439353344	18	4869
2026-01-18 02:23:59.79	330.56	21.72	-29.3	-31.8	15.4	0.00e+00	0	44	0	441450496	18	4819
2026-01-18 02:24:00.79	330.31	21.75	-29.4	-32.0	15.3	1.02e-03	0	44	0	442499072	18	4870
2026-01-18 02:24:01.79	330.05	21.79	-29.4	-32.2	15.3	0.00e+00	0	43	0	444596224	18	4931
2026-01-18 02:24:02.78	329.80	21.82	-29.5	-31.7	15.2	0.00e+00	0	44	0	446693376	19	4682
2026-01-18 02:24:03.79	329.54	21.85	-29.5	-31.9	15.2	1.36e-03	0	44	0	448790528	19	4724
2026-01-18 02:24:04.79	329.28	21.89	-29.4	-32.2	15.2	1.37e-05	0	43	0	450887680	18	4937
2026-01-18 02:24:05.80	329.02	21.92	-29.3	-31.9	15.4	0.00e+00	0	44	0	451936256	18	4855
2026-01-18 02:24:06.80	328.76	21.95	-29.4	-32.0	15.3	0.00e+00	0	44	0	454033408	18	4890
2026-01-18 02:24:07.80	328.50	21.98	-29.4	-32.0	15.4	3.91e-04	0	44	0	456130560	18	4868
2026-01-18 02:24:08.80	328.24	22.02	-29.3	-31.9	15.5	0.00e+00	0	44	0	458227712	18	4835
2026-01-18 02:24:09.80	327.98	22.05	-29.5	-32.2	15.3	0.00e+00	0	44	0	460324864	18	4947
2026-01-18 02:24:10.81	327.72	22.08	-29.7	-32.2	14.9	1.51e-04	0	44	0	461373440	19	4846
2026-01-18 02:24:11.81	327.46	22.11	-29.8	-32.6	14.7	0.00e+00	0	44	0	463470592	19	4976
2026-01-18 02:24:12.82	327.20	22.13	-29.9	-32.9	14.5	0.00e+00	0	44	0	465567744	19	5078
2026-01-18 02:24:13.82	326.93	22.16	-30.0	-32.8	14.3	3.65e-04	0	44	0	467664896	20	4927
2026-01-18 02:24:14.82	326.67	22.19	-30.1	-33.0	14.0	1.50e-06	0	44	0	469762048	20	5026
2026-01-18 02:24:15.82	326.41	22.22	-30.1	-33.0	14.1	3.00e-06	0	44	0	470810624	20	5001
2026-01-18 02:24:16.82	326.15	22.24	-30.2	-33.2	14.0	3.80e-06	0	44	0	472907776	20	5069
2026-01-18 02:24:17.82	325.88	22.27	-30.3	-33.4	13.9	3.00e-06	0	44	0	475004928	20	5160
2026-01-18 02:24:18.83	325.61	22.29	-30.3	-33.6	13.7	1.98e-04	0	44	0	477102080	20	5208
2026-01-18 02:24:19.83	325.35	22.32	-30.4	-33.8	13.6	2.20e-06	0	44	0	479199232	20	5304
2026-01-18 02:24:20.83	325.08	22.34	-30.5	-33.5	13.4	1.60e-05	0	44	0	480247808	21	5093
2026-01-18 02:24:21.83	324.82	22.36	-30.6	-33.8	13.2	2.13e-05	0	44	0	482344960	21	5188
2026-01-18 02:24:22.84	324.55	22.39	-30.6	-33.9	13.2	2.59e-05	0	44	0	484442112	21	5231
2026-01-18 02:24:23.84	324.28	22.41	-30.5	-33.4	13.5	2.13e-05	0	44	0	486539264	21	5050
2026-01-18 02:24:24.84	324.02	22.43	-30.4	-33.1	13.7	3.80e-06	0	44	0	487587840	21	4940
2026-01-18 02:24:25.84	323.75	22.45	-30.3	-32.9	13.8	2.59e-05	0	44	0	489684992	21	4861
2026-01-18 02:24:26.85	323.48	22.47	-30.3	-33.0	13.8	3.80e-06	0	44	0	491782144	21	4916
2026-01-18 02:24:27.85	323.21	22.49	-30.4	-33.2	13.6	1.85e-04	0	43	0	493879296	21	4983
2026-01-18 02:24:28.85	322.95	22.51	-30.6	-33.8	13.3	1.71e-04	0	44	0	495976448	21	5188
2026-01-18 02:24:29.85	322.68	22.52	-30.7	-34.0	13.1	2.97e-05	0	44	0	497025024	21	5277
2026-01-18 02:24:30.85	322.41	22.54	-30.8	-34.2	13.0	2.97e-05	0	44	0	499122176	21	5343
2026-01-18 02:24:31.84	322.14	22.56	-30.7	-34.1	13.1	3.20e-05	0	44	0	501219328	21	5295
2026-01-18 02:24:32.85	321.87	22.57	-30.8	-34.3	12.9	4.11e-05	0	44	0	503316480	21	5384
2026-01-18 02:24:33.85	321.60	22.59	-30.7	-34.0	13.1	3.89e-05	0	44	0	505413632	21	5282
2026-01-18 02:24:34.85	321.33	22.60	-30.7	-34.0	13.2	5.80e-04	0	44	0	506462208	21	5263
2026-01-18 02:24:35.86	321.06	22.62	-30.6	-33.6	13.4	2.59e-05	0	44	0	508559360	21	5130
2026-01-18 02:24:36.86	320.79	22.63	-30.6	-33.6	13.3	1.25e-03	0	44	0	510656512	21	5136
2026-01-18 02:24:37.86	320.52	22.64	-30.7	-34.1	13.1	1.29e-05	0	44	0	512753664	21	5293
2026-01-18 02:24:38.86	320.25	22.65	-30.7	-33.9	13.2	1.90e-05	0	43	0	514850816	21	5230
2026-01-18 02:24:39.86	319.98	22.66	-30.7	-34.0	13.1	1.56e-03	0	43	0	515899392	21	5280
2026-01-18 02:24:40.87	319.70	22.68	-30.7	-34.0	13.1	3.12e-05	0	44	0	517996544	21	5252
2026-01-18 02:24:41.87	319.43	22.68	-30.7	-34.0	13.1	2.21e-05	0	44	0	520093696	21	5265
2026-01-18 02:24:42.87	319.16	22.69	-30.7	-34.0	13.1	1.85e-03	0	43	0	522190848	21	5274
2026-01-18 02:24:43.87	318.89	22.70	-30.8	-34.3	12.9	1.76e-03	0	44	0	524288000	21	5381
2026-01-18 02:24:44.88	318.61	22.71	-30.7	-34.0	13.1	2.97e-05	0	43	0	525336576	21	5266
2026-01-18 02:24:45.87	318.34	22.72	-30.7	-33.9	13.1	1.74e-03	0	44	0	527433728	21	5229
2026-01-18 02:24:46.88	318.07	22.72	-30.7	-34.1	13.1	1.66e-03	0	44	0	529530880	21	5291
2026-01-18 02:24:47.88	317.80	22.73	-30.8	-34.3	12.9	3.35e-05	0	44	0	531628032	21	5373
2026-01-18 02:24:48.88	317.53	22.73	-30.7	-34.1	13.0	1.61e-03	0	44	0	533725184	21	5296
2026-01-18 02:24:49.87	317.26	22.74	-30.7	-34.1	13.0	1.58e-03	0	44	0	534773760	21	5319
2026-01-18 02:24:50.87	316.98	22.74	-30.8	-34.3	12.9	3.89e-05	0	44	0	536870912	21	5393
2026-01-18 02:24:51.87	316.71	22.74	-30.8	-34.4	12.9	1.72e-03	0	44	0	538968064	21	5419
2026-01-18 02:24:52.87	316.44	22.75	-30.9	-34.5	12.8	1.68e-03	0	44	0	541065216	21	5487
2026-01-18 02:24:53.88	316.16	22.75	-30.9	-34.7	12.7	6.48e-05	0	44	0	542113792	21	5542
2026-01-18 02:24:54.88	315.89	22.75	-30.9	-34.7	12.6	1.41e-03	0	44	0	544210944	21	5559
2026-01-18 02:24:55.88	315.62	22.75	-30.8	-34.5	12.8	1.10e-03	0	44	0	546308096	21	5453
2026-01-18 02:24:56.89	315.34	22.75	-30.8	-34.3	12.9	3.12e-05	0	44	0	548405248	21	5384
2026-01-18 02:24:57.89	315.07	22.74	-30.8	-34.4	12.9	4.58e-04	0	43	0	550502400	21	5411
2026-01-18 02:24:58.89	314.80	22.74	-30.7	-34.0	13.1	3.75e-04	0	44	0	551550976	21	5278
2026-01-18 02:24:59.89	314.53	22.74	-30.7	-34.2	13.0	3.28e-05	0	44	0	553648128	21	5348
2026-01-18 02:25:00.90	314.25	22.74	-30.7	-34.1	13.0	2.19e-04	0	44	0	555745280	21	5322
2026-01-18 02:25:01.90	313.98	22.73	-30.9	-34.7	12.7	7.32e-05	0	44	0	557842432	21	5556
2026-01-18 02:25:02.90	313.71	22.73	-30.7	-34.0	13.1	5.03e-05	0	44	0	559939584	21	5265
2026-01-18 02:25:03.90	313.43	22.72	-30.4	-33.4	13.5	2.05e-05	0	44	0	560988160	21	5030
2026-01-18 02:25:04.91	313.16	22.72	-30.4	-33.1	13.7	1.06e-05	0	44	0	563085312	21	4934
2026-01-18 02:25:05.91	312.89	22.71	-30.2	-32.8	13.9	7.60e-06	0	44	0	565182464	21	4840
2026-01-18 02:25:06.92	312.61	22.70	-30.2	-32.7	13.9	7.60e-06	0	44	0	567279616	21	4810
2026-01-18 02:25:07.92	312.34	22.69	-30.1	-32.5	14.1	6.10e-06	0	44	0	568328192	21	4730
2026-01-18 02:25:08.92	312.07	22.68	-30.1	-32.4	14.1	4.50e-06	0	44	0	570425344	21	4709
2026-01-18 02:25:09.92	311.80	22.67	-30.0	-32.2	14.3	2.20e-06	0	44	0	572522496	21	4639
2026-01-18 02:25:10.93	311.52	22.66	-29.9	-31.8	14.5	0.00e+00	0	44	0	574619648	21	4508
2026-01-18 02:25:11.93	311.25	22.65	-29.9	-31.9	14.4	0.00e+00	0	44	0	576716800	21	4547
2026-01-18 02:25:12.94	310.98	22.64	-30.1	-32.5	14.1	1.50e-06	0	44	0	578813952	21	4736
2026-01-18 02:25:13.94	310.71	22.63	-30.0	-32.1	14.3	4.50e-06	0	44	0	579862528	21	4585
2026-01-18 02:25:14.94	310.44	22.61	-30.0	-32.2	14.2	7.00e-07	0	44	0	581959680	21	4637
2026-01-18 02:25:15.94	310.17	22.60	-30.1	-33.0	14.0	1.50e-06	0	44	0	584056832	20	5011
2026-01-18 02:25:16.95	309.90	22.59	-30.0	-32.6	14.3	9.91e-05	0	44	0	586153984	20	4869
2026-01-18 02:25:17.96	309.62	22.57	-29.8	-32.2	14.5	0.00e+00	0	44	0	587202560	20	4734
2026-01-18 02:25:18.96	309.36	22.55	-29.6	-31.8	14.8	0.00e+00	0	44	0	589299712	20	4591
2026-01-18 02:25:19.97	309.08	22.54	-29.6	-31.8	14.8	0.00e+00	0	44	0	591396864	20	4593
2026-01-18 02:25:20.97	308.81	22.52	-29.7	-31.8	14.8	0.00e+00	0	44	0	593494016	20	4613
2026-01-18 02:25:21.97	308.55	22.50	-29.5	-31.9	15.1	1.50e-04	0	44	0	595591168	19	4722
2026-01-18 02:25:22.97	308.28	22.48	-29.6	-32.0	15.0	0.00e+00	0	44	0	596639744	19	4774
2026-01-18 02:25:23.97	308.01	22.46	-29.4	-31.6	15.3	0.00e+00	0	44	0	598736896	19	4634
2026-01-18 02:25:24.97	307.74	22.44	-29.3	-31.5	15.3	7.00e-07	0	44	0	600834048	19	4599
2026-01-18 02:25:25.97	307.48	22.42	-29.2	-31.2	15.5	0.00e+00	0	44	0	602931200	19	4504
2026-01-18 02:25:26.96	307.21	22.40	-29.4	-31.5	15.3	0.00e+00	0	44	0	605028352	19	4619
2026-01-18 02:25:27.96	306.94	22.38	-29.3	-31.2	15.5	0.00e+00	0	44	0	606076928	19	4522
2026-01-18 02:25:28.97	306.68	22.36	-29.1	-30.9	15.7	0.00e+00	0	44	0	608174080	19	4418
2026-01-18 02:25:29.97	306.41	22.34	-29.2	-31.1	15.6	0.00e+00	0	44	0	610271232	19	4478
2026-01-18 02:25:30.97	306.15	22.31	-29.2	-31.1	15.5	0.00e+00	0	43	0	612368384	19	4499
2026-01-18 02:25:31.97	305.88	22.29	-29.1	-30.8	15.7	0.00e+00	0	44	0	614465536	19	4400
2026-01-18 02:25:32.97	305.62	22.26	-29.1	-30.8	15.7	0.00e+00	0	44	0	615514112	19	4389
2026-01-18 02:25:33.98	305.35	22.24	-28.9	-30.5	15.9	0.00e+00	0	44	0	617611264	19	4291
2026-01-18 02:25:34.98	305.09	22.21	-28.8	-30.2	16.1	0.00e+00	0	44	0	619708416	19	4217
2026-01-18 02:25:35.98	304.82	22.18	-28.9	-30.4	16.0	0.00e+00	0	44	0	621805568	19	4271
2026-01-18 02:25:36.99	304.56	22.16	-28.8	-30.2	16.0	0.00e+00	0	44	0	623902720	19	4219
2026-01-18 02:25:37.99	304.30	22.13	-28.8	-30.7	16.1	0.00e+00	0	44	0	624951296	18	4462
2026-01-18 02:25:39.00	304.03	22.10	-28.9	-30.8	16.0	0.00e+00	0	44	0	627048448	18	4506
2026-01-18 02:25:40.00	303.77	22.07	-29.1	-31.4	15.6	0.00e+00	0	44	0	629145600	18	4692
2026-01-18 02:25:41.00	303.51	22.04	-29.1	-31.5	15.6	0.00e+00	0	44	0	631242752	18	4724
2026-01-18 02:25:42.00	303.25	22.01	-29.2	-31.8	15.4	0.00e+00	0	44	0	632291328	18	4812
2026-01-18 02:25:43.00	302.99	21.98	-29.2	-31.6	15.5	0.00e+00	0	44	0	634388480	18	4758
2026-01-18 02:25:44.01	302.73	21.95	-29.3	-31.8	15.4	0.00e+00	0	44	0	636485632	18	4824
2026-01-18 02:25:45.01	302.47	21.91	-29.3	-32.0	15.3	0.00e+00	0	44	0	638582784	18	4874
2026-01-18 02:25:46.01	302.21	21.88	-29.1	-31.5	15.6	6.80e-06	0	44	0	640679936	18	4719
2026-01-18 02:25:47.01	301.95	21.85	-29.0	-31.2	15.8	0.00e+00	0	44	0	641728512	18	4615
2026-01-18 02:25:48.00	301.70	21.81	-29.0	-31.2	15.7	0.00e+00	0	44	0	643825664	18	4630
2026-01-18 02:25:49.01	301.44	21.78	-29.1	-31.4	15.7	0.00e+00	0	44	0	645922816	18	4690
2026-01-18 02:25:50.01	301.18	21.74	-29.3	-31.9	15.3	0.00e+00	0	44	0	648019968	18	4860
2026-01-18 02:25:51.02	300.93	21.71	-29.3	-31.9	15.3	0.00e+00	0	44	0	650117120	18	4852
2026-01-18 02:25:52.02	300.67	21.67	-29.6	-32.0	14.9	0.00e+00	0	44	0	651165696	19	4785
2026-01-18 02:25:53.02	300.42	21.63	-29.5	-31.9	15.1	0.00e+00	0	44	0	653262848	19	4728
2026-01-18 02:25:54.02	300.16	21.60	-29.5	-32.0	14.9	0.00e+00	0	44	0	655360000	19	4789
2026-01-18 02:25:55.02	299.91	21.56	-29.7	-32.4	14.6	0.00e+00	0	44	0	657457152	19	4933
2026-01-18 02:25:56.02	299.66	21.52	-29.8	-32.8	14.5	7.00e-07	0	44	0	658505728	19	5042
2026-01-18 02:25:57.02	299.41	21.48	-29.9	-33.0	14.3	7.00e-07	0	44	0	660602880	19	5146
2026-01-18 02:25:58.02	299.16	21.44	-29.9	-32.4	14.3	3.00e-06	0	44	0	662700032	20	4834
2026-01-18 02:25:59.02	298.91	21.40	-29.8	-32.2	14.4	0.00e+00	0	44	0	664797184	20	4762
2026-01-18 02:26:00.02	298.66	21.36	-29.9	-32.4	14.3	0.00e+00	0	44	0	666894336	20	4823
2026-01-18 02:26:01.02	298.41	21.32	-29.9	-32.9	14.4	1.50e-06	0	44	0	668991488	19	5097
2026-01-18 02:26:02.03	298.16	21.28	-29.8	-32.5	14.6	1.50e-06	0	44	0	670040064	19	4969
2026-01-18 02:26:03.03	297.91	21.24	-29.7	-32.5	14.6	7.00e-07	0	44	0	672137216	19	4940
2026-01-18 02:26:04.03	297.66	21.19	-29.7	-32.5	14.6	0.00e+00	0	44	0	674234368	19	4947
2026-01-18 02:26:05.03	297.42	21.15	-29.9	-32.9	14.3	0.00e+00	0	44	0	676331520	19	5099
2026-01-18 02:26:06.04	297.17	21.11	-30.0	-32.7	14.1	2.20e-06	0	44	0	677380096	20	4911
2026-01-18 02:26:07.04	296.92	21.06	-30.1	-33.1	13.9	3.00e-06	0	44	0	679477248	20	5052
2026-01-18 02:26:08.04	296.68	21.02	-30.2	-33.3	13.7	3.80e-06	0	44	0	681574400	20	5150
2026-01-18 02:26:09.05	296.43	20.97	-30.3	-33.4	13.6	9.10e-06	0	44	0	683671552	20	5192
2026-01-18 02:26:10.05	296.19	20.93	-30.2	-33.3	13.7	6.80e-06	0	44	0	685768704	20	5142
2026-01-18 02:26:11.05	295.95	20.88	-30.3	-33.6	13.5	8.30e-06	0	44	0	686817280	20	5267
2026-01-18 02:26:12.06	295.70	20.83	-30.2	-33.2	13.7	5.30e-06	0	44	0	688914432	20	5110
2026-01-18 02:26:13.06	295.46	20.79	-30.1	-33.0	13.9	4.50e-06	0	44	0	691011584	20	5039
2026-01-18 02:26:14.07	295.22	20.74	-30.1	-33.0	13.9	1.50e-06	0	44	0	693108736	20	5037
2026-01-18 02:26:15.07	294.98	20.69	-30.2	-33.3	13.7	5.30e-06	0	44	0	695205888	20	5138
2026-01-18 02:26:16.07	294.74	20.64	-30.1	-33.0	13.8	3.80e-06	0	44	0	696254464	20	5049
2026-01-18 02:26:17.07	294.51	20.60	-30.3	-33.5	13.5	7.60e-06	0	44	0	698351616	20	5227
2026-01-18 02:26:18.08	294.27	20.55	-30.3	-33.5	13.5	5.30e-06	0	44	0	700448768	20	5237
2026-01-18 02:26:19.08	294.03	20.50	-30.5	-33.6	13.2	2.28e-05	0	44	0	702545920	21	5139
2026-01-18 02:26:20.09	293.79	20.45	-30.4	-33.5	13.2	2.36e-05	0	44	0	704643072	21	5110
2026-01-18 02:26:21.10	293.56	20.40	-30.4	-33.5	13.2	1.83e-05	0	44	0	705691648	21	5096
2026-01-18 02:26:22.10	293.32	20.34	-30.5	-33.6	13.1	3.66e-05	0	44	0	707788800	21	5151
2026-01-18 02:26:23.11	293.09	20.29	-30.6	-33.9	12.9	2.67e-05	0	44	0	709885952	21	5274
2026-01-18 02:26:24.11	292.86	20.24	-30.5	-33.5	13.2	5.61e-04	0	44	0	711983104	21	5100
2026-01-18 02:26:25.12	292.62	20.19	-30.3	-33.6	13.5	1.29e-05	0	44	0	714080256	20	5274
2026-01-18 02:26:26.12	292.39	20.14	-30.2	-33.2	13.7	7.60e-06	0	44	0	715128832	20	5121
2026-01-18 02:26:27.13	292.16	20.08	-30.1	-33.0	13.8	1.28e-03	0	44	0	717225984	20	5035
2026-01-18 02:26:28.13	291.93	20.03	-30.0	-32.9	13.9	3.80e-06	0	44	0	719323136	20	4990
2026-01-18 02:26:29.13	291.70	19.98	-30.2	-33.3	13.6	6.80e-06	0	44	0	721420288	20	5161
2026-01-18 02:26:30.14	291.47	19.92	-30.3	-33.7	13.4	7.60e-06	0	44	0	723517440	20	5287
2026-01-18 02:26:31.15	291.24	19.87	-30.4	-34.0	13.2	1.01e-03	0	44	0	724566016	20	5408
2026-01-18 02:26:32.15	291.02	19.81	-30.5	-33.7	13.0	2.36e-05	0	44	0	726663168	21	5213
2026-01-18 02:26:33.15	290.79	19.76	-30.7	-34.2	12.7	4.73e-05	0	44	0	728760320	21	5378
2026-01-18 02:26:34.15	290.57	19.71	-30.5	-33.8	13.0	1.33e-03	0	44	0	730857472	21	5227
2026-01-18 02:26:35.16	290.34	19.65	-30.5	-33.6	13.1	3.35e-05	0	44	0	731906048	21	5149
2026-01-18 02:26:36.16	290.12	19.59	-30.5	-34.1	13.1	3.20e-05	0	44	0	734003200	20	5450
2026-01-18 02:26:37.17	289.90	19.54	-30.3	-33.7	13.4	9.86e-04	0	44	0	736100352	20	5303
2026-01-18 02:26:38.17	289.68	19.48	-30.3	-33.6	13.3	1.52e-05	0	44	0	738197504	20	5281
2026-01-18 02:26:39.17	289.46	19.42	-30.2	-33.2	13.7	6.10e-06	0	44	0	740294656	20	5110
2026-01-18 02:26:40.17	289.24	19.37	-30.1	-33.1	13.8	6.10e-06	0	44	0	742391808	20	5067
2026-01-18 02:26:41.18	289.02	19.31	-30.2	-33.3	13.6	9.90e-06	0	44	0	743440384	20	5141
2026-01-18 02:26:42.18	288.80	19.25	-30.2	-33.3	13.6	7.40e-05	0	44	0	745537536	20	5137
2026-01-18 02:26:43.18	288.58	19.19	-30.3	-33.7	13.4	7.60e-06	0	44	0	747634688	20	5305
2026-01-18 02:26:44.18	288.37	19.14	-30.4	-34.0	13.1	3.58e-05	0	44	0	749731840	20	5432
2026-01-18 02:26:45.18	288.15	19.08	-30.6	-33.8	12.9	1.93e-04	0	44	0	750780416	21	5241
2026-01-18 02:26:46.19	287.93	19.02	-30.7	-34.1	12.7	5.95e-05	0	44	0	752877568	21	5369
2026-01-18 02:26:47.19	287.72	18.96	-30.5	-33.6	13.1	4.19e-05	0	44	0	754974720	21	5149
2026-01-18 02:26:48.19	287.51	18.90	-30.4	-33.3	13.2	2.37e-04	0	44	0	757071872	21	5038
2026-01-18 02:26:49.19	287.30	18.84	-30.3	-33.1	13.4	1.75e-04	0	44	0	759169024	21	4991
2026-01-18 02:26:50.20	287.08	18.78	-30.3	-33.1	13.4	9.90e-06	0	44	0	760217600	21	4971
2026-01-18 02:26:51.19	286.88	18.72	-30.4	-33.3	13.2	1.60e-05	0	44	0	762314752	21	5056
2026-01-18 02:26:52.20	286.66	18.66	-30.4	-33.4	13.1	2.13e-05	0	44	0	764411904	21	5093
2026-01-18 02:26:53.20	286.46	18.60	-30.4	-33.3	13.2	3.35e-05	0	44	0	766509056	21	5053
2026-01-18 02:26:54.20	286.25	18.54	-30.4	-33.3	13.2	1.74e-04	0	44	0	768606208	21	5070
2026-01-18 02:26:55.20	286.04	18.48	-30.4	-34.0	13.1	2.47e-04	0	44	0	769654784	20	5421
2026-01-18 02:26:56.21	285.83	18.41	-30.4	-33.9	13.2	3.35e-05	0	44	0	771751936	20	5372
2026-01-18 02:26:57.21	285.63	18.35	-30.5	-34.2	13.0	2.51e-05	0	44	0	773849088	20	5499
2026-01-18 02:26:58.22	285.42	18.29	-30.5	-33.7	13.0	5.52e-04	0	44	0	775946240	21	5185
2026-01-18 02:26:59.22	285.22	18.23	-30.3	-33.3	13.2	2.36e-05	0	44	0	778043392	21	5029
2026-01-18 02:27:00.22	285.02	18.17	-30.3	-33.1	13.4	6.22e-04	0	44	0	779091968	21	4962
2026-01-18 02:27:01.22	284.81	18.10	-30.3	-33.6	13.4	5.34e-04	0	44	0	781189120	20	5258
2026-01-18 02:27:02.23	284.61	18.04	-30.2	-33.4	13.5	1.29e-05	0	44	0	783286272	20	5190
2026-01-18 02:27:03.23	284.41	17.98	-30.2	-33.4	13.4	6.06e-04	0	44	0	785383424	20	5199
2026-01-18 02:27:04.23	284.21	17.91	-30.3	-33.7	13.3	6.36e-04	0	44	0	787480576	20	5314
2026-01-18 02:27:05.22	284.02	17.85	-30.2	-33.3	13.5	1.37e-05	0	44	0	788529152	20	5166
2026-01-18 02:27:06.22	283.82	17.79	-30.2	-33.2	13.6	6.16e-04	0	44	0	790626304	20	5141
2026-01-18 02:27:07.22	283.62	17.72	-30.3	-33.7	13.2	8.04e-04	0	44	0	792723456	20	5319
2026-01-18 02:27:08.21	283.43	17.66	-30.3	-33.7	13.3	1.60e-05	0	44	0	794820608	20	5319
2026-01-18 02:27:09.21	283.23	17.60	-30.3	-33.7	13.2	1.48e-03	0	44	0	795869184	20	5331
2026-01-18 02:27:10.21	283.04	17.53	-30.5	-33.7	12.9	1.78e-03	0	44	0	797966336	21	5214
2026-01-18 02:27:11.21	282.84	17.47	-30.3	-33.3	13.2	2.51e-05	0	44	0	800063488	21	5040
2026-01-18 02:27:12.21	282.65	17.40	-30.2	-33.5	13.4	1.80e-03	0	44	0	802160640	20	5235
2026-01-18 02:27:13.21	282.46	17.34	-30.3	-33.7	13.2	1.78e-03	0	44	0	804257792	20	5330
2026-01-18 02:27:14.22	282.27	17.27	-30.4	-34.1	13.0	3.05e-05	0	44	0	805306368	20	5462
2026-01-18 02:27:15.22	282.08	17.21	-30.4	-34.1	13.0	1.45e-03	0	44	0	807403520	20	5474
2026-01-18 02:27:16.22	281.89	17.14	-30.4	-34.0	13.0	1.17e-03	0	44	0	809500672	20	5458
2026-01-18 02:27:17.22	281.70	17.08	-30.5	-33.8	12.8	4.95e-05	0	44	0	811597824	21	5244
2026-01-18 02:27:18.22	281.51	17.01	-30.5	-33.7	12.9	5.56e-05	0	44	0	813694976	21	5213
2026-01-18 02:27:19.22	281.33	16.95	-30.5	-33.8	12.8	2.43e-04	0	44	0	814743552	21	5257
2026-01-18 02:27:20.22	281.14	16.88	-30.7	-34.3	12.5	8.39e-05	0	44	0	816840704	21	5447
2026-01-18 02:27:21.22	280.95	16.82	-30.7	-34.2	12.5	1.05e-04	0	44	0	818937856	21	5434
2026-01-18 02:27:22.22	280.77	16.75	-30.7	-34.3	12.5	1.83e-04	0	44	0	821035008	21	5443
2026-01-18 02:27:23.22	280.59	16.68	-30.4	-33.5	12.9	7.55e-05	0	44	0	823132160	21	5153
2026-01-18 02:27:24.22	280.40	16.62	-30.4	-33.5	13.0	1.46e-04	0	44	0	824180736	21	5120
2026-01-18 02:27:25.22	280.22	16.55	-30.4	-34.1	12.9	4.04e-05	0	44	0	826277888	20	5494
2026-01-18 02:27:26.23	280.04	16.48	-30.3	-33.6	13.3	3.12e-05	0	44	0	828375040	20	5277
2026-01-18 02:27:27.22	279.86	16.42	-30.4	-34.0	13.0	7.39e-04	0	44	0	830472192	20	5445
2026-01-18 02:27:28.22	279.68	16.35	-30.5	-33.9	12.7	1.11e-03	0	44	0	831520768	21	5289
2026-01-18 02:27:29.22	279.50	16.29	-30.5	-33.8	12.7	6.10e-05	0	44	0	833617920	21	5275
2026-01-18 02:27:30.22	279.32	16.22	-30.7	-34.3	12.4	1.41e-03	0	44	0	835715072	21	5451
2026-01-18 02:27:31.23	279.15	16.15	-30.6	-34.0	12.6	1.33e-03	0	44	0	837812224	21	5346
2026-01-18 02:27:32.23	278.97	16.08	-30.7	-34.4	12.3	1.88e-04	0	44	0	839909376	21	5524
2026-01-18 02:27:33.24	278.79	16.02	-30.7	-34.4	12.3	3.04e-04	0	44	0	840957952	21	5502
2026-01-18 02:27:34.24	278.62	15.95	-30.7	-34.5	12.2	8.09e-04	0	44	0	843055104	21	5541
2026-01-18 02:27:35.24	278.44	15.88	-30.6	-34.0	12.6	1.33e-04	0	44	0	845152256	21	5344
2026-01-18 02:27:36.23	278.27	15.82	-30.6	-34.0	12.6	1.30e-04	0	44	0	847249408	21	5330
2026-01-18 02:27:37.24	278.10	15.75	-30.4	-33.4	13.0	4.27e-05	0	44	0	849346560	21	5121
2026-01-18 02:27:38.24	277.93	15.68	-30.5	-33.8	12.7	6.63e-05	0	44	0	850395136	21	5258
2026-01-18 02:27:39.24	277.76	15.61	-30.5	-33.9	12.6	4.50e-05	0	44	0	852492288	21	5299
2026-01-18 02:27:40.24	277.59	15.54	-30.5	-33.8	12.7	6.71e-05	0	44	0	854589440	21	5270
2026-01-18 02:27:41.24	277.42	15.48	-30.2	-33.0	13.2	4.50e-05	0	44	0	856686592	21	4951
2026-01-18 02:27:42.25	277.25	15.41	-30.2	-33.5	13.2	1.52e-05	0	44	0	857735168	20	5248
2026-01-18 02:27:43.25	277.08	15.34	-30.3	-33.9	13.0	5.34e-05	0	44	0	859832320	20	5405
2026-01-18 02:27:44.26	276.91	15.27	-30.2	-33.6	13.1	1.67e-05	0	44	0	861929472	20	5307
2026-01-18 02:27:45.26	276.74	15.20	-30.1	-33.2	13.3	6.40e-05	0	44	0	864026624	20	5166
2026-01-18 02:27:46.26	276.58	15.14	-30.1	-33.1	13.4	9.10e-06	0	44	0	866123776	20	5110
2026-01-18 02:27:47.26	276.41	15.07	-30.1	-33.2	13.4	9.90e-06	0	44	0	867172352	20	5156
2026-01-18 02:27:48.26	276.25	15.00	-30.0	-32.9	13.6	9.10e-06	0	44	0	869269504	20	5025
2026-01-18 02:27:49.27	276.09	14.93	-30.1	-33.3	13.3	1.90e-05	0	44	0	871366656	20	5174
2026-01-18 02:27:50.27	275.92	14.86	-30.0	-33.0	13.4	1.60e-05	0	44	0	873463808	20	5080
2026-01-18 02:27:51.27	275.76	14.79	-30.0	-33.0	13.5	9.55e-04	0	44	0	875560960	20	5070
2026-01-18 02:27:52.28	275.60	14.73	-30.0	-32.9	13.6	4.50e-06	0	44	0	876609536	20	5031
2026-01-18 02:27:53.28	275.44	14.66	-29.9	-32.8	13.6	1.52e-05	0	44	0	878706688	20	5006
2026-01-18 02:27:54.27	275.28	14.59	-30.1	-33.4	13.2	1.83e-05	0	44	0	880803840	20	5241
2026-01-18 02:27:55.27	275.12	14.52	-30.1	-33.2	13.3	2.10e-03	0	44	0	882900992	20	5140
2026-01-18 02:27:56.27	274.97	14.45	-30.0	-33.0	13.4	9.90e-06	0	44	0	884998144	20	5087
2026-01-18 02:27:57.28	274.81	14.38	-29.9	-32.8	13.6	1.14e-05	0	44	0	886046720	20	5003
2026-01-18 02:27:58.28	274.65	14.31	-29.9	-32.8	13.6	8.30e-06	0	44	0	888143872	20	5007
2026-01-18 02:27:59.28	274.50	14.25	-29.7	-32.3	13.9	3.80e-06	0	44	0	890241024	20	4826
2026-01-18 02:28:00.29	274.34	14.18	-29.8	-33.0	13.8	5.30e-06	0	44	0	892338176	19	5190
2026-01-18 02:28:01.29	274.18	14.11	-29.7	-32.6	14.0	3.00e-06	0	44	0	894435328	19	5046
2026-01-18 02:28:02.29	274.03	14.04	-29.7	-32.5	14.1	2.20e-06	0	44	0	895483904	19	5014
2026-01-18 02:28:03.30	273.88	13.97	-29.8	-32.8	14.0	3.00e-06	0	44	0	897581056	19	5094
2026-01-18 02:28:04.31	273.72	13.90	-29.7	-32.6	14.1	1.50e-06	0	44	0	899678208	19	5048
2026-01-18 02:28:05.30	273.57	13.83	-29.8	-32.8	13.9	3.80e-06	0	44	0	901775360	19	5126
2026-01-18 02:28:06.30	273.42	13.77	-29.9	-33.2	13.7	2.20e-06	0	44	0	902823936	19	5248
2026-01-18 02:28:07.31	273.27	13.70	-29.9	-33.2	13.6	6.10e-06	0	44	0	904921088	19	5278
2026-01-18 02:28:08.31	273.12	13.63	-29.8	-32.5	13.7	1.29e-05	0	44	0	907018240	20	4924
2026-01-18 02:28:09.32	272.97	13.56	-30.0	-33.1	13.3	5.41e-04	0	44	0	909115392	20	5112
2026-01-18 02:28:10.31	272.83	13.49	-30.2	-33.5	13.0	2.89e-05	0	44	0	911212544	20	5271
2026-01-18 02:28:11.32	272.68	13.42	-30.0	-32.9	13.4	2.21e-05	0	44	0	912261120	20	5064
2026-01-18 02:28:12.31	272.53	13.35	-29.9	-33.3	13.5	1.14e-05	0	44	0	914358272	19	5325
2026-01-18 02:28:13.32	272.39	13.28	-30.0	-33.4	13.5	1.29e-05	0	44	0	916455424	19	5344
2026-01-18 02:28:14.32	272.24	13.22	-29.9	-33.3	13.5	5.30e-06	0	44	0	918552576	19	5308
2026-01-18 02:28:15.32	272.10	13.15	-29.9	-32.8	13.4	9.10e-06	0	44	0	920649728	20	5023
2026-01-18 02:28:16.32	271.95	13.08	-29.9	-32.9	13.4	1.44e-05	0	44	0	921698304	20	5048
2026-01-18 02:28:17.33	271.81	13.01	-29.9	-32.7	13.5	1.75e-05	0	44	0	923795456	20	4990
2026-01-18 02:28:18.33	271.67	12.94	-30.0	-33.0	13.3	2.59e-05	0	44	0	925892608	20	5107
2026-01-18 02:28:19.34	271.52	12.87	-30.1	-33.3	13.1	2.05e-05	0	44	0	927989760	20	5224
2026-01-18 02:28:20.34	271.38	12.80	-30.3	-34.0	12.6	8.16e-05	0	44	0	930086912	20	5487
2026-01-18 02:28:21.34	271.24	12.73	-30.0	-33.0	13.3	3.28e-05	0	44	0	931135488	20	5088
2026-01-18 02:28:22.34	271.10	12.67	-29.9	-32.8	13.4	2.28e-05	0	44	0	933232640	20	5034
2026-01-18 02:28:23.35	270.96	12.60	-29.9	-32.7	13.5	1.14e-05	0	44	0	935329792	20	4981
2026-01-18 02:28:24.34	270.82	12.53	-29.8	-33.1	13.6	8.30e-06	0	44	0	937426944	19	5243
2026-01-18 02:28:25.35	270.69	12.46	-29.8	-33.1	13.6	9.10e-06	0	44	0	939524096	19	5227
2026-01-18 02:28:26.35	270.55	12.39	-30.0	-33.0	13.3	1.60e-05	0	44	0	940572672	20	5092
2026-01-18 02:28:27.34	270.41	12.32	-29.7	-32.3	13.7	9.90e-06	0	44	0	942669824	20	4856
2026-01-18 02:28:28.35	270.28	12.26	-29.9	-33.4	13.4	1.22e-05	0	44	0	944766976	19	5347
2026-01-18 02:28:29.35	270.14	12.19	-29.8	-33.0	13.5	1.29e-05	0	44	0	946864128	19	5223
2026-01-18 02:28:30.35	270.01	12.12	-29.9	-33.3	13.2	7.60e-06	0	44	0	947912704	19	5309
2026-01-18 02:28:31.36	269.87	12.05	-30.1	-33.4	13.0	1.98e-05	0	44	0	950009856	20	5267
2026-01-18 02:28:32.36	269.74	11.98	-30.1	-33.4	12.2	5.49e-05	0	44	0	952107008	20	5269
2026-01-18 02:28:33.36	269.61	11.91	-30.2	-33.7	12.1	5.18e-05	0	44	0	954204160	20	5362
2026-01-18 02:28:34.36	269.47	11.85	-30.3	-34.0	12.5	9.99e-05	0	44	0	956301312	20	5500
2026-01-18 02:28:35.36	269.34	11.78	-30.3	-33.9	12.4	7.32e-05	0	44	0	957349888	20	5464
2026-01-18 02:28:36.37	269.21	11.71	-30.2	-33.8	12.6	8.01e-05	0	44	0	959447040	20	5417
2026-01-18 02:28:37.37	269.08	11.64	-30.1	-33.5	12.9	5.64e-05	0	44	0	961544192	20	5311
2026-01-18 02:28:38.37	268.95	11.57	-30.1	-33.4	13.0	2.97e-05	0	44	0	963641344	20	5250
2026-01-18 02:28:39.38	268.82	11.51	-30.1	-33.4	12.9	5.72e-05	0	44	0	965738496	20	5274
2026-01-18 02:28:40.37	268.69	11.44	-30.1	-33.5	12.8	5.49e-05	0	44	0	966787072	20	5322
2026-01-18 02:28:41.37	268.57	11.37	-30.1	-33.5	12.9	8.39e-05	0	44	0	968884224	20	5290
2026-01-18 02:28:42.37	268.44	11.30	-30.0	-33.5	13.3	2.44e-05	0	44	0	970981376	19	5406
2026-01-18 02:28:43.38	268.31	11.24	-29.9	-33.3	13.4	1.44e-05	0	44	0	973078528	19	5320
2026-01-18 02:28:44.38	268.18	11.17	-30.0	-33.0	13.2	2.15e-03	0	44	0	975175680	20	5125
2026-01-18 02:28:45.37	268.06	11.10	-30.2	-33.8	12.6	4.88e-05	0	44	0	976224256	20	5433
2026-01-18 02:28:46.38	267.93	11.03	-30.3	-34.1	12.4	1.22e-04	0	44	0	978321408	20	5550
2026-01-18 02:28:47.38	267.81	10.97	-30.1	-33.5	12.8	2.04e-03	0	44	0	980418560	20	5304
2026-01-18 02:28:48.38	267.69	10.90	-30.3	-33.9	12.5	9.38e-05	0	44	0	982515712	20	5483
2026-01-18 02:28:49.39	267.56	10.83	-30.3	-33.9	12.5	1.28e-04	0	44	0	984612864	20	5482
2026-01-18 02:28:50.39	267.44	10.76	-30.4	-34.4	12.2	1.15e-04	0	44	0	985661440	20	5692
2026-01-18 02:28:51.39	267.32	10.70	-30.5	-34.5	12.1	6.71e-04	0	44	0	987758592	20	5736
2026-01-18 02:28:52.39	267.20	10.63	-30.4	-34.2	12.3	2.28e-04	0	44	0	989855744	20	5607
2026-01-18 02:28:53.40	267.08	10.56	-30.5	-34.1	11.9	3.03e-04	0	44	0	991952896	21	5464
2026-01-18 02:28:54.40	266.96	10.49	-30.8	-35.1	11.3	1.45e-03	0	44	0	993001472	21	5905
2026-01-18 02:28:55.41	266.83	10.43	-30.8	-35.0	11.3	1.12e-03	0	44	0	995098624	21	5864
2026-01-18 02:28:56.41	266.72	10.36	-30.8	-35.0	11.3	9.77e-04	0	44	0	997195776	21	5882
2026-01-18 02:28:57.41	266.60	10.29	-30.9	-35.5	11.0	3.31e-03	0	44	0	999292928	21	6091
2026-01-18 02:28:58.42	266.48	10.22	-31.1	-35.5	10.6	3.78e-03	0	44	0	1001390080	22	6001
2026-01-18 02:28:59.42	266.36	10.16	-30.8	-34.6	11.2	2.37e-03	0	44	0	1003487232	22	5593
2026-01-18 02:29:00.42	266.24	10.09	-30.8	-35.1	11.2	1.23e-03	0	44	0	1004535808	21	5914
2026-01-18 02:29:01.42	266.13	10.02	-30.7	-34.8	11.4	7.03e-04	0	44	0	1006632960	21	5784
2026-01-18 02:29:02.42	266.01	9.96	-30.8	-35.1	11.2	2.93e-03	0	44	0	1008730112	21	5912
2026-01-18 02:29:03.42	265.90	9.89	-30.8	-35.2	11.2	2.23e-03	0	44	0	1010827264	21	5942
2026-01-18 02:29:04.43	265.78	9.82	-30.8	-35.3	11.0	1.50e-03	0	44	0	1011875840	21	6004
2026-01-18 02:29:05.43	265.67	9.76	-30.9	-35.4	10.9	2.92e-03	0	44	0	1013972992	21	6081
2026-01-18 02:29:06.44	265.55	9.69	-30.9	-35.4	10.9	2.05e-03	0	44	0	1016070144	21	6080
2026-01-18 02:29:07.44	265.44	9.63	-30.8	-35.3	11.0	1.92e-03	0	44	0	1018167296	21	6014
2026-01-18 02:29:08.45	265.32	9.56	-30.8	-35.2	11.0	4.01e-03	0	44	0	1020264448	21	5993
2026-01-18 02:29:09.45	265.21	9.49	-30.5	-34.4	11.7	2.73e-03	0	44	0	1021313024	21	5609
2026-01-18 02:29:10.46	265.10	9.43	-30.6	-34.5	11.6	5.07e-04	0	44	0	1023410176	21	5656
2026-01-18 02:29:11.45	264.99	9.36	-30.6	-34.5	11.6	2.45e-03	0	44	0	1025507328	21	5652
2026-01-18 02:29:12.46	264.88	9.29	-30.6	-34.6	11.5	2.95e-03	0	44	0	1027604480	21	5686
2026-01-18 02:29:13.46	264.77	9.23	-30.6	-34.5	11.6	6.18e-04	0	44	0	1029701632	21	5645
2026-01-18 02:29:14.47	264.66	9.16	-30.5	-34.7	11.8	2.80e-03	0	44	0	1030750208	20	5857
2026-01-18 02:29:15.47	264.55	9.10	-30.4	-34.1	11.8	2.85e-03	0	44	0	1032847360	21	5475
2026-01-18 02:29:16.47	264.44	9.03	-30.7	-34.9	11.2	1.02e-03	0	44	0	1034944512	21	5869
2026-01-18 02:29:17.47	264.33	8.97	-30.6	-34.5	11.5	1.61e-03	0	44	0	1037041664	21	5674
2026-01-18 02:29:18.47	264.22	8.90	-30.7	-35.1	11.1	3.65e-03	0	44	0	1039138816	21	5924
2026-01-18 02:29:19.47	264.12	8.83	-30.6	-34.8	11.2	1.54e-03	0	44	0	1040187392	21	5807
2026-01-18 02:29:20.47	264.01	8.77	-30.7	-35.1	11.1	2.59e-03	0	44	0	1042284544	21	5938
2026-01-18 02:29:21.47	263.91	8.70	-30.7	-35.1	11.0	4.67e-03	0	44	0	1044381696	21	5946
2026-01-18 02:29:22.47	263.80	8.64	-30.8	-35.3	10.9	1.30e-03	0	44	0	1046478848	21	6038
2026-01-18 02:29:23.48	263.69	8.57	-30.7	-35.1	11.0	5.25e-03	0	44	0	1048576000	21	5947
2026-01-18 02:29:24.48	263.59	8.51	-30.7	-35.1	11.0	4.03e-03	0	44	0	1049624576	21	5970
2026-01-18 02:29:25.49	263.48	8.44	-30.7	-35.0	11.0	2.06e-03	0	44	0	1051721728	21	5930
2026-01-18 02:29:26.49	263.38	8.38	-30.6	-34.8	11.1	5.00e-03	0	44	0	1053818880	21	5840
2026-01-18 02:29:27.49	263.28	8.31	-30.8	-35.2	10.8	3.24e-03	0	44	0	1055916032	21	6037
2026-01-18 02:29:28.50	263.17	8.25	-30.8	-35.6	10.6	3.82e-03	0	44	0	1056964608	21	6201
2026-01-18 02:29:29.50	263.07	8.18	-30.9	-35.6	10.5	3.38e-03	0	44	0	1059061760	21	6230
2026-01-18 02:29:30.51	262.97	8.12	-30.6	-34.9	11.0	5.96e-03	0	44	0	1061158912	21	5883
2026-01-18 02:29:31.50	262.87	8.05	-30.7	-35.1	10.9	2.05e-03	0	44	0	1063256064	21	5966
2026-01-18 02:29:32.50	262.77	7.99	-30.7	-35.0	10.9	2.31e-03	0	44	0	1065353216	21	5938
2026-01-18 02:29:33.50	262.67	7.93	-30.7	-35.3	10.7	2.40e-03	0	44	0	1066401792	21	6083
2026-01-18 02:29:34.50	262.57	7.86	-30.8	-35.4	10.5	5.02e-03	0	44	0	1068498944	21	6147
2026-01-18 02:29:35.51	262.47	7.80	-30.8	-35.7	10.4	4.60e-03	0	44	0	1070596096	21	6286
2026-01-18 02:29:36.51	262.37	7.73	-31.0	-35.6	10.1	8.20e-03	0	44	0	1072693248	22	6119
2026-01-18 02:29:37.52	262.27	7.67	-30.8	-34.9	10.6	7.41e-03	0	44	0	1074790400	22	5795
2026-01-18 02:29:38.52	262.17	7.61	-30.9	-35.2	10.3	5.77e-03	0	44	0	1075838976	22	5952
2026-01-18 02:29:39.52	262.07	7.54	-30.9	-35.3	10.3	6.79e-03	0	44	0	1077936128	22	5974
2026-01-18 02:29:40.53	261.97	7.48	-30.8	-34.9	10.6	4.62e-03	0	44	0	1080033280	22	5797
2026-01-18 02:29:41.52	261.88	7.41	-31.1	-36.2	9.5	1.13e-02	0	44	0	1082130432	22	6452
2026-01-18 02:29:42.52	261.78	7.35	-31.0	-35.7	9.9	8.61e-03	0	44	0	1084227584	22	6212
2026-01-18 02:29:43.52	261.69	7.29	-31.0	-35.7	10.0	5.80e-03	0	44	0	1085276160	22	6205
2026-01-18 02:29:44.53	261.59	7.22	-30.9	-35.5	10.1	8.06e-03	0	44	0	1087373312	22	6084
2026-01-18 02:29:45.53	261.49	7.16	-30.9	-35.3	10.2	7.43e-03	0	44	0	1089470464	22	6020
2026-01-18 02:29:46.53	261.40	7.10	-30.8	-35.2	10.3	6.70e-03	0	44	0	1091567616	22	5960
2026-01-18 02:29:47.53	261.31	7.03	-32.9	-47.0	3.8	8.91e-03	0	44	104	1092616192	25	18406
2026-01-18 02:29:48.54	261.21	6.97	-33.3	-47.6	3.8	1.49e+00	0	44	104	1092616192	26	18732

#Closed at: 2026-01-18 02:29:48
#Recorded file [1092 MB]: D:/data/31010_260118_052004.dat