passes_logs/2026/01/18/R2M6_AANII_01/R2M6_AANII_01__20260118_101131_SUOMI_NPP_rec.log

#Pass ID: 20260118_101131_SUOMI NPP
#Satellite: SUOMI NPP
#Configuration: NPP
#almurnet v.1.7.20240730
#Start time: 2026-01-18 10:11:33

#Version: 2.2.20231116
#Station: R2M6_AANII_01
#Location: 30.233357 lon 59.946436 lat
#TLE: 1 37849U 11061A   26017.28905266  .00000074  00000+0  55894-4 0  9999
#TLE: 2 37849  98.7814 319.3179 0002408  59.7048 300.4366 14.19525847737038

#Time	Az	El	Level	Level2	SNR	BER	BlckErr	Temp	State	Recorded	gain1	gain2
2026-01-18 10:11:33.13	153.85	7.11	-31.1	-35.0	5.1	1.28e+00	0	41	0	0	23	5611
2026-01-18 10:11:34.13	153.84	7.19	-31.4	-35.3	5.0	1.31e+00	0	41	104	0	24	5656
2026-01-18 10:11:35.13	153.83	7.27	-31.5	-35.5	7.9	7.06e-02	0	41	0	0	24	5730
2026-01-18 10:11:36.13	153.83	7.34	-31.4	-35.2	8.2	6.26e-02	0	41	0	1048576	24	5549
2026-01-18 10:11:37.13	153.82	7.42	-31.5	-35.5	7.9	7.68e-02	0	41	0	3145728	24	5712
2026-01-18 10:11:38.14	153.81	7.50	-31.4	-35.1	8.2	5.76e-02	0	41	0	5242880	24	5534
2026-01-18 10:11:39.14	153.81	7.58	-31.3	-35.3	8.4	5.00e-02	0	41	0	7340032	23	5743
2026-01-18 10:11:40.14	153.80	7.66	-31.2	-35.2	8.5	2.99e-02	0	41	0	9437184	23	5665
2026-01-18 10:11:41.14	153.79	7.74	-31.4	-35.9	7.9	6.00e-02	0	41	0	10485760	23	6103
2026-01-18 10:11:42.15	153.79	7.82	-31.2	-35.2	8.5	6.34e-02	0	41	0	12582912	23	5725
2026-01-18 10:11:43.16	153.78	7.90	-31.1	-34.8	8.9	3.71e-02	0	41	0	14680064	23	5487
2026-01-18 10:11:44.16	153.77	7.98	-31.0	-34.4	9.1	2.67e-02	0	41	0	16777216	23	5285
2026-01-18 10:11:45.17	153.77	8.06	-31.0	-34.2	9.3	2.24e-02	0	41	0	17825792	23	5208
2026-01-18 10:11:46.17	153.76	8.15	-31.0	-34.0	9.6	1.44e-02	0	41	0	19922944	23	5088
2026-01-18 10:11:47.16	153.75	8.23	-31.1	-34.0	9.7	1.23e-02	0	41	0	22020096	23	5048
2026-01-18 10:11:48.16	153.74	8.31	-31.0	-33.6	10.0	8.44e-03	0	41	0	24117248	23	4860
2026-01-18 10:11:49.17	153.74	8.39	-31.0	-33.7	10.0	7.49e-03	0	41	0	26214400	23	4908
2026-01-18 10:11:50.17	153.73	8.47	-31.0	-33.4	10.2	6.06e-03	0	41	0	27262976	23	4759
2026-01-18 10:11:51.17	153.72	8.55	-30.9	-33.4	10.3	8.20e-03	0	41	0	29360128	23	4757
2026-01-18 10:11:52.17	153.71	8.64	-31.1	-33.9	9.8	7.94e-03	0	41	0	31457280	23	4996
2026-01-18 10:11:53.17	153.71	8.72	-30.8	-33.1	10.5	8.12e-03	0	41	0	33554432	23	4660
2026-01-18 10:11:54.17	153.70	8.80	-30.7	-33.1	10.8	3.10e-03	0	41	0	35651584	22	4756
2026-01-18 10:11:55.18	153.69	8.89	-30.8	-33.5	10.5	5.29e-03	0	41	0	36700160	22	4914
2026-01-18 10:11:56.19	153.68	8.97	-30.6	-33.0	10.8	3.48e-03	0	41	0	38797312	22	4750
2026-01-18 10:11:57.19	153.68	9.05	-30.5	-32.9	10.8	2.13e-03	0	42	0	40894464	22	4761
2026-01-18 10:11:58.19	153.67	9.14	-30.3	-33.1	11.0	1.40e-03	0	42	0	42991616	21	4972
2026-01-18 10:11:59.19	153.66	9.22	-30.5	-33.6	10.6	2.22e-03	0	42	0	45088768	21	5189
2026-01-18 10:12:00.19	153.65	9.31	-30.3	-33.1	10.9	2.54e-03	0	41	0	46137344	21	5013
2026-01-18 10:12:01.19	153.64	9.39	-30.3	-33.2	10.8	2.68e-03	0	42	0	48234496	21	5049
2026-01-18 10:12:02.18	153.64	9.48	-30.3	-33.2	10.9	2.03e-03	0	42	0	50331648	21	5022
2026-01-18 10:12:03.19	153.63	9.56	-30.4	-33.5	10.6	3.07e-03	0	42	0	52428800	21	5163
2026-01-18 10:12:04.19	153.62	9.65	-30.2	-33.1	10.9	2.67e-03	0	42	0	54525952	21	5018
2026-01-18 10:12:05.20	153.61	9.74	-30.3	-33.3	10.7	2.23e-03	0	42	0	55574528	21	5110
2026-01-18 10:12:06.19	153.60	9.82	-30.2	-33.0	10.9	2.83e-03	0	42	0	57671680	21	4980
2026-01-18 10:12:07.20	153.60	9.91	-30.2	-33.0	11.0	1.83e-03	0	42	0	59768832	21	4958
2026-01-18 10:12:08.20	153.59	10.00	-30.3	-33.3	10.8	2.63e-03	0	42	0	61865984	21	5059
2026-01-18 10:12:09.20	153.58	10.09	-30.3	-33.0	11.2	2.25e-03	0	42	0	62914560	21	4882
2026-01-18 10:12:10.20	153.57	10.17	-30.4	-32.9	11.3	1.36e-03	0	42	0	65011712	21	4824
2026-01-18 10:12:11.20	153.56	10.26	-30.4	-32.9	11.4	1.24e-03	0	42	0	67108864	21	4809
2026-01-18 10:12:12.21	153.55	10.35	-30.4	-33.1	11.2	1.24e-03	0	42	0	69206016	21	4884
2026-01-18 10:12:13.21	153.54	10.44	-30.6	-33.6	10.8	1.37e-03	0	42	0	71303168	21	5082
2026-01-18 10:12:14.21	153.53	10.53	-30.6	-33.4	11.0	1.82e-03	0	42	0	72351744	21	4981
2026-01-18 10:12:15.22	153.53	10.62	-30.6	-33.4	11.0	1.47e-03	0	42	0	74448896	21	4969
2026-01-18 10:12:16.22	153.52	10.71	-30.7	-33.4	11.1	1.46e-03	0	42	0	76546048	21	4924
2026-01-18 10:12:17.23	153.51	10.80	-30.7	-33.4	11.1	1.52e-03	0	42	0	78643200	21	4936
2026-01-18 10:12:18.23	153.50	10.89	-30.7	-33.3	11.3	1.41e-03	0	42	0	80740352	21	4869
2026-01-18 10:12:19.22	153.49	10.98	-30.8	-33.5	11.1	2.02e-03	0	42	0	81788928	21	4955
2026-01-18 10:12:20.22	153.48	11.07	-30.7	-33.3	11.2	1.33e-03	0	42	0	83886080	21	4871
2026-01-18 10:12:21.22	153.47	11.16	-30.6	-33.0	11.5	8.43e-04	0	42	0	85983232	21	4740
2026-01-18 10:12:22.23	153.46	11.25	-30.6	-32.9	11.6	1.12e-03	0	42	0	88080384	21	4715
2026-01-18 10:12:23.23	153.45	11.35	-30.6	-33.2	11.4	9.76e-04	0	42	0	90177536	21	4816
2026-01-18 10:12:24.23	153.44	11.44	-30.6	-33.2	11.3	1.49e-03	0	42	0	91226112	21	4820
2026-01-18 10:12:25.23	153.43	11.53	-30.6	-33.0	11.5	9.43e-04	0	42	0	93323264	21	4766
2026-01-18 10:12:26.23	153.42	11.62	-30.6	-33.2	11.4	9.63e-04	0	42	0	95420416	21	4823
2026-01-18 10:12:27.24	153.41	11.72	-30.6	-33.2	11.4	8.06e-04	0	42	0	97517568	21	4825
2026-01-18 10:12:28.24	153.40	11.81	-30.5	-32.8	11.7	7.17e-04	0	42	0	99614720	21	4700
2026-01-18 10:12:29.24	153.39	11.91	-30.5	-32.9	11.6	4.32e-04	0	42	0	100663296	21	4733
2026-01-18 10:12:30.24	153.38	12.00	-30.4	-32.4	11.9	4.39e-04	0	42	0	102760448	21	4555
2026-01-18 10:12:31.25	153.37	12.10	-30.3	-32.1	12.2	2.28e-04	0	42	0	104857600	21	4448
2026-01-18 10:12:32.25	153.36	12.19	-30.3	-32.1	12.2	2.84e-04	0	42	0	106954752	21	4455
2026-01-18 10:12:33.25	153.35	12.29	-30.3	-32.1	12.2	2.47e-04	0	42	0	108003328	21	4443
2026-01-18 10:12:34.26	153.34	12.38	-30.3	-32.3	12.1	2.39e-04	0	42	0	110100480	21	4520
2026-01-18 10:12:35.26	153.33	12.48	-30.3	-32.3	12.0	3.78e-04	0	42	0	112197632	21	4522
2026-01-18 10:12:36.26	153.32	12.58	-30.3	-32.1	12.2	2.51e-04	0	42	0	114294784	21	4464
2026-01-18 10:12:37.26	153.31	12.67	-30.2	-31.8	12.4	1.43e-04	0	42	0	116391936	21	4356
2026-01-18 10:12:38.27	153.30	12.77	-30.2	-31.9	12.4	1.51e-04	0	42	0	117440512	21	4370
2026-01-18 10:12:39.27	153.29	12.87	-30.2	-32.0	12.3	1.85e-04	0	42	0	119537664	21	4405
2026-01-18 10:12:40.27	153.28	12.97	-30.2	-31.9	12.3	2.17e-04	0	43	0	121634816	21	4376
2026-01-18 10:12:41.27	153.26	13.07	-30.3	-32.1	12.2	2.10e-04	0	42	0	123731968	21	4439
2026-01-18 10:12:42.27	153.25	13.17	-30.3	-32.0	12.4	2.33e-04	0	42	0	125829120	21	4387
2026-01-18 10:12:43.27	153.24	13.27	-30.4	-32.3	12.1	2.78e-04	0	42	0	126877696	21	4492
2026-01-18 10:12:44.27	153.23	13.37	-30.4	-32.2	12.2	2.67e-04	0	42	0	128974848	21	4474
2026-01-18 10:12:45.27	153.22	13.47	-30.4	-32.5	12.1	2.20e-04	0	42	0	131072000	21	4552
2026-01-18 10:12:46.28	153.21	13.57	-30.4	-32.4	12.1	2.61e-04	0	42	0	133169152	21	4533
2026-01-18 10:12:47.29	153.20	13.67	-30.4	-32.3	12.2	3.06e-04	0	43	0	135266304	21	4483
2026-01-18 10:12:48.29	153.18	13.77	-30.4	-32.3	12.2	2.07e-04	0	42	0	136314880	21	4496
2026-01-18 10:12:49.29	153.17	13.88	-30.4	-32.4	12.1	2.77e-04	0	42	0	138412032	21	4515
2026-01-18 10:12:50.29	153.16	13.98	-30.3	-32.0	12.4	2.41e-04	0	43	0	140509184	21	4395
2026-01-18 10:12:51.28	153.15	14.08	-30.3	-32.1	12.4	1.35e-04	0	42	0	142606336	21	4409
2026-01-18 10:12:52.29	153.14	14.18	-30.3	-32.1	12.3	2.13e-04	0	43	0	144703488	21	4429
2026-01-18 10:12:53.29	153.12	14.29	-30.3	-32.0	12.4	1.52e-04	0	42	0	145752064	21	4392
2026-01-18 10:12:54.29	153.11	14.39	-30.3	-31.9	12.5	1.36e-04	0	43	0	147849216	21	4360
2026-01-18 10:12:55.29	153.10	14.50	-30.3	-32.1	12.4	1.69e-04	0	42	0	149946368	21	4404
2026-01-18 10:12:56.29	153.09	14.60	-30.4	-32.2	12.3	1.69e-04	0	42	0	152043520	21	4432
2026-01-18 10:12:57.29	153.07	14.71	-30.4	-32.3	12.3	1.50e-04	0	42	0	153092096	21	4468
2026-01-18 10:12:58.30	153.06	14.81	-30.4	-32.3	12.3	1.87e-04	0	43	0	155189248	21	4482
2026-01-18 10:12:59.30	153.05	14.92	-30.5	-32.5	12.1	1.90e-04	0	42	0	157286400	21	4551
2026-01-18 10:13:00.30	153.03	15.03	-30.5	-32.6	12.1	2.63e-04	0	42	0	159383552	21	4578
2026-01-18 10:13:01.30	153.02	15.14	-30.6	-32.7	12.1	2.23e-04	0	43	0	161480704	21	4616
2026-01-18 10:13:02.31	153.01	15.24	-30.7	-32.9	11.9	2.59e-04	0	42	0	162529280	21	4676
2026-01-18 10:13:03.31	152.99	15.35	-30.6	-32.6	12.2	2.87e-04	0	43	0	164626432	21	4565
2026-01-18 10:13:04.32	152.98	15.46	-30.5	-32.5	12.2	2.26e-04	0	42	0	166723584	21	4540
2026-01-18 10:13:05.32	152.97	15.57	-30.6	-32.6	12.1	2.53e-04	0	43	0	168820736	21	4564
2026-01-18 10:13:06.32	152.95	15.68	-30.7	-32.9	11.9	3.54e-04	0	43	0	170917888	21	4674
2026-01-18 10:13:07.32	152.94	15.79	-30.5	-32.6	12.2	2.94e-04	0	43	0	171966464	21	4540
2026-01-18 10:13:08.33	152.92	15.90	-30.4	-32.2	12.4	1.54e-04	0	43	0	174063616	21	4433
2026-01-18 10:13:09.33	152.91	16.02	-30.4	-32.3	12.4	9.23e-05	0	43	0	176160768	21	4449
2026-01-18 10:13:10.33	152.90	16.13	-30.4	-32.1	12.6	1.10e-04	0	43	0	178257920	21	4364
2026-01-18 10:13:11.33	152.88	16.24	-30.3	-31.9	12.7	8.85e-05	0	43	0	180355072	21	4319
2026-01-18 10:13:12.33	152.87	16.35	-30.4	-32.1	12.6	7.24e-05	0	43	0	181403648	21	4365
2026-01-18 10:13:13.33	152.85	16.47	-30.4	-32.2	12.5	1.21e-04	0	42	0	183500800	21	4419
2026-01-18 10:13:14.33	152.84	16.58	-30.2	-31.5	13.1	7.85e-05	0	42	0	185597952	21	4185
2026-01-18 10:13:15.34	152.82	16.70	-30.1	-31.1	13.3	1.75e-05	0	43	0	187695104	21	4069
2026-01-18 10:13:16.34	152.81	16.81	-30.1	-31.1	13.3	1.67e-05	0	43	0	189792256	21	4069
2026-01-18 10:13:17.34	152.79	16.93	-30.2	-31.4	13.1	1.60e-05	0	43	0	190840832	21	4148
2026-01-18 10:13:18.35	152.78	17.04	-30.2	-31.4	13.2	1.98e-05	0	43	0	192937984	21	4130
2026-01-18 10:13:19.35	152.76	17.16	-30.1	-31.3	13.3	2.13e-05	0	43	0	195035136	21	4104
2026-01-18 10:13:20.35	152.75	17.28	-30.1	-31.3	13.2	2.28e-05	0	43	0	197132288	21	4104
2026-01-18 10:13:21.36	152.73	17.40	-30.2	-31.4	13.2	1.98e-05	0	43	0	198180864	21	4157
2026-01-18 10:13:22.36	152.71	17.52	-30.2	-31.6	13.1	3.73e-05	0	43	0	200278016	21	4189
2026-01-18 10:13:23.36	152.70	17.63	-30.2	-31.5	13.1	3.58e-05	0	43	0	202375168	21	4182
2026-01-18 10:13:24.36	152.68	17.75	-30.4	-32.0	12.8	3.43e-05	0	43	0	204472320	21	4336
2026-01-18 10:13:25.36	152.66	17.87	-30.6	-32.4	12.6	8.39e-05	0	43	0	206569472	21	4461
2026-01-18 10:13:26.36	152.65	18.00	-30.4	-32.0	12.9	4.88e-05	0	43	0	207618048	21	4313
2026-01-18 10:13:27.36	152.63	18.12	-30.5	-32.0	12.9	4.88e-05	0	43	0	209715200	21	4323
2026-01-18 10:13:28.37	152.61	18.24	-30.4	-31.9	13.0	2.97e-05	0	43	0	211812352	21	4273
2026-01-18 10:13:29.36	152.60	18.36	-30.4	-32.0	13.0	3.28e-05	0	43	0	213909504	21	4296
2026-01-18 10:13:30.36	152.58	18.48	-30.5	-32.0	12.9	2.82e-05	0	43	0	216006656	21	4318
2026-01-18 10:13:31.37	152.56	18.61	-30.5	-32.0	12.9	5.49e-05	0	43	0	217055232	21	4318
2026-01-18 10:13:32.37	152.55	18.73	-30.3	-31.6	13.2	2.82e-05	0	43	0	219152384	21	4178
2026-01-18 10:13:33.37	152.53	18.86	-30.3	-31.5	13.3	2.21e-05	0	43	0	221249536	21	4140
2026-01-18 10:13:34.38	152.51	18.99	-30.2	-31.4	13.4	1.37e-05	0	43	0	223346688	21	4106
2026-01-18 10:13:35.38	152.49	19.11	-30.2	-31.4	13.4	1.06e-05	0	43	0	225443840	21	4126
2026-01-18 10:13:36.39	152.47	19.24	-30.1	-31.1	13.5	1.37e-05	0	43	0	226492416	21	4024
2026-01-18 10:13:37.39	152.45	19.37	-30.1	-31.2	13.6	9.10e-06	0	43	0	228589568	21	4045
2026-01-18 10:13:38.40	152.44	19.50	-30.1	-31.1	13.6	9.90e-06	0	43	0	230686720	21	4030
2026-01-18 10:13:39.40	152.42	19.63	-30.1	-30.9	13.7	4.50e-06	0	43	0	232783872	21	3975
2026-01-18 10:13:40.40	152.40	19.76	-30.1	-31.1	13.7	6.10e-06	0	43	0	234881024	21	4027
2026-01-18 10:13:41.40	152.38	19.89	-30.2	-31.2	13.6	6.10e-06	0	43	0	235929600	21	4061
2026-01-18 10:13:42.40	152.36	20.02	-30.2	-31.2	13.6	1.06e-05	0	43	0	238026752	21	4049
2026-01-18 10:13:43.40	152.34	20.15	-30.1	-31.1	13.7	6.10e-06	0	43	0	240123904	21	4015
2026-01-18 10:13:44.40	152.32	20.28	-30.1	-31.0	13.7	7.60e-06	0	43	0	242221056	21	4003
2026-01-18 10:13:45.40	152.30	20.41	-30.1	-31.0	13.7	6.10e-06	0	43	0	243269632	21	3987
2026-01-18 10:13:46.41	152.28	20.55	-30.2	-31.2	13.5	9.10e-06	0	43	0	245366784	21	4066
2026-01-18 10:13:47.42	152.26	20.68	-30.1	-31.0	13.6	9.10e-06	0	43	0	247463936	21	4003
2026-01-18 10:13:48.42	152.24	20.82	-30.1	-31.0	13.7	3.80e-06	0	43	0	249561088	21	3983
2026-01-18 10:13:49.43	152.22	20.96	-30.1	-31.1	13.7	5.30e-06	0	43	0	251658240	21	4020
2026-01-18 10:13:50.43	152.20	21.09	-30.2	-31.1	13.7	3.80e-06	0	43	0	253755392	21	4034
2026-01-18 10:13:51.44	152.18	21.23	-30.1	-30.9	13.8	6.80e-06	0	43	0	254803968	21	3962
2026-01-18 10:13:52.43	152.16	21.37	-30.0	-30.7	13.9	2.20e-06	0	43	0	256901120	21	3900
2026-01-18 10:13:53.44	152.13	21.51	-30.1	-30.9	13.8	3.00e-06	0	43	0	258998272	21	3958
2026-01-18 10:13:54.44	152.11	21.65	-30.0	-30.8	13.9	6.80e-06	0	43	0	261095424	21	3926
2026-01-18 10:13:55.45	152.09	21.79	-29.9	-30.4	14.1	3.80e-06	0	43	0	262144000	21	3820
2026-01-18 10:13:56.45	152.07	21.93	-30.0	-30.6	14.1	3.00e-06	0	43	0	264241152	21	3876
2026-01-18 10:13:57.46	152.04	22.08	-30.0	-30.7	14.0	1.50e-06	0	43	0	266338304	21	3898
2026-01-18 10:13:58.46	152.02	22.22	-30.0	-30.6	14.2	1.50e-06	0	43	0	268435456	21	3859
2026-01-18 10:13:59.46	152.00	22.36	-29.9	-30.3	14.2	7.00e-07	0	43	0	270532608	21	3799
2026-01-18 10:14:00.45	151.98	22.50	-29.8	-30.6	14.4	3.00e-06	0	43	0	271581184	20	3967
2026-01-18 10:14:01.46	151.95	22.65	-29.8	-30.5	14.5	1.50e-06	0	43	0	273678336	20	3937
2026-01-18 10:14:02.46	151.93	22.80	-29.6	-30.2	14.7	0.00e+00	0	43	0	275775488	20	3831
2026-01-18 10:14:03.47	151.90	22.95	-29.5	-29.9	14.9	3.00e-06	0	43	0	277872640	20	3766
2026-01-18 10:14:04.47	151.88	23.09	-29.5	-29.9	14.9	0.00e+00	0	43	0	279969792	20	3764
2026-01-18 10:14:05.47	151.86	23.24	-29.5	-29.9	14.9	0.00e+00	0	43	0	281018368	20	3764
2026-01-18 10:14:06.47	151.83	23.39	-29.5	-29.8	15.0	1.50e-06	0	43	0	283115520	20	3718
2026-01-18 10:14:07.47	151.81	23.54	-29.4	-29.6	15.1	0.00e+00	0	43	0	285212672	20	3684
2026-01-18 10:14:08.47	151.78	23.69	-29.3	-29.8	15.3	0.00e+00	0	43	0	287309824	19	3815
2026-01-18 10:14:09.48	151.75	23.85	-29.4	-30.1	15.2	0.00e+00	0	43	0	289406976	19	3892
2026-01-18 10:14:10.48	151.73	24.00	-29.3	-29.9	15.3	0.00e+00	0	43	0	290455552	19	3836
2026-01-18 10:14:11.47	151.70	24.15	-29.2	-29.6	15.4	7.00e-07	0	43	0	292552704	19	3773
2026-01-18 10:14:12.47	151.68	24.31	-29.4	-30.0	15.3	0.00e+00	0	43	0	294649856	19	3858
2026-01-18 10:14:13.48	151.65	24.46	-29.5	-30.2	15.1	0.00e+00	0	43	0	296747008	19	3923
2026-01-18 10:14:14.48	151.62	24.62	-29.5	-30.3	15.1	0.00e+00	0	43	0	298844160	19	3928
2026-01-18 10:14:15.49	151.59	24.78	-29.6	-30.4	14.9	0.00e+00	0	43	0	299892736	19	3977
2026-01-18 10:14:16.49	151.57	24.94	-29.6	-30.5	14.9	0.00e+00	0	43	0	301989888	19	3989
2026-01-18 10:14:17.49	151.54	25.10	-29.8	-31.0	14.7	7.00e-07	0	43	0	304087040	19	4126
2026-01-18 10:14:18.49	151.51	25.26	-29.7	-30.7	14.8	0.00e+00	0	43	0	306184192	19	4063
2026-01-18 10:14:19.50	151.48	25.42	-29.7	-30.8	14.8	0.00e+00	0	43	0	307232768	19	4084
2026-01-18 10:14:20.50	151.45	25.58	-29.7	-30.8	14.8	7.00e-07	0	43	0	309329920	19	4089
2026-01-18 10:14:21.50	151.42	25.75	-29.7	-30.8	14.8	0.00e+00	0	43	0	311427072	19	4070
2026-01-18 10:14:22.49	151.39	25.91	-29.7	-30.7	14.8	7.00e-07	0	43	0	313524224	19	4061
2026-01-18 10:14:23.50	151.36	26.08	-29.6	-30.6	14.8	0.00e+00	0	43	0	315621376	19	4014
2026-01-18 10:14:24.50	151.33	26.24	-29.5	-30.2	15.2	0.00e+00	0	43	0	316669952	19	3916
2026-01-18 10:14:25.51	151.30	26.41	-29.6	-30.4	15.1	0.00e+00	0	43	0	318767104	19	3962
2026-01-18 10:14:26.52	151.27	26.58	-29.5	-30.2	15.2	0.00e+00	0	43	0	320864256	19	3899
2026-01-18 10:14:27.52	151.24	26.75	-29.7	-30.7	14.9	0.00e+00	0	43	0	322961408	19	4047
2026-01-18 10:14:28.53	151.21	26.92	-29.8	-31.0	14.7	0.00e+00	0	43	0	325058560	19	4138
2026-01-18 10:14:29.54	151.18	27.10	-30.0	-31.5	14.5	7.00e-07	0	43	0	326107136	19	4280
2026-01-18 10:14:30.54	151.14	27.27	-30.3	-31.7	13.9	1.50e-06	0	43	0	328204288	20	4259
2026-01-18 10:14:31.54	151.11	27.44	-30.5	-31.8	13.5	6.10e-06	0	43	0	330301440	21	4186
2026-01-18 10:14:32.54	151.08	27.62	-30.4	-31.5	13.7	3.00e-06	0	43	0	332398592	21	4107
2026-01-18 10:14:33.54	151.04	27.79	-30.5	-31.7	13.6	4.50e-06	0	43	0	334495744	21	4167
2026-01-18 10:14:34.53	151.01	27.97	-30.2	-31.1	14.0	1.14e-05	0	43	0	335544320	21	3982
2026-01-18 10:14:35.53	150.98	28.15	-30.5	-32.0	13.5	5.30e-06	0	43	0	337641472	21	4230
2026-01-18 10:14:36.54	150.94	28.33	-30.5	-31.9	13.5	6.80e-06	0	43	0	339738624	21	4213
2026-01-18 10:14:37.54	150.91	28.51	-30.4	-31.4	13.9	7.00e-07	0	43	0	341835776	21	4080
2026-01-18 10:14:38.54	150.87	28.69	-30.4	-31.6	13.8	3.00e-06	0	43	0	343932928	21	4131
2026-01-18 10:14:39.54	150.83	28.87	-30.5	-31.7	13.6	9.10e-06	0	43	0	344981504	21	4163
2026-01-18 10:14:40.54	150.80	29.06	-30.7	-32.5	13.2	2.28e-05	0	43	0	347078656	21	4408
2026-01-18 10:14:41.54	150.76	29.24	-30.8	-32.6	13.0	5.72e-05	0	43	0	349175808	21	4446
2026-01-18 10:14:42.54	150.72	29.43	-30.5	-32.0	13.5	6.10e-05	0	43	0	351272960	21	4235
2026-01-18 10:14:43.55	150.68	29.62	-31.1	-33.0	12.5	7.78e-05	0	43	0	352321536	22	4490
2026-01-18 10:14:44.55	150.65	29.81	-31.4	-33.8	12.0	2.03e-04	0	43	0	354418688	22	4758
2026-01-18 10:14:45.55	150.61	30.00	-31.4	-34.0	12.0	1.82e-04	0	43	0	356515840	22	4832
2026-01-18 10:14:46.56	150.57	30.19	-31.5	-33.8	11.7	5.77e-04	0	43	0	358612992	23	4649
2026-01-18 10:14:47.56	150.53	30.38	-31.7	-34.2	11.4	7.93e-04	0	43	0	360710144	23	4800
2026-01-18 10:14:48.57	150.49	30.58	-31.7	-34.2	11.4	4.67e-04	0	43	0	361758720	23	4788
2026-01-18 10:14:49.57	150.45	30.77	-31.6	-33.8	11.7	8.83e-04	0	43	0	363855872	23	4658
2026-01-18 10:14:50.57	150.40	30.97	-31.2	-32.7	12.4	2.38e-04	0	43	0	365953024	23	4290
2026-01-18 10:14:51.57	150.36	31.17	-31.2	-32.8	12.4	3.14e-04	0	43	0	368050176	23	4325
2026-01-18 10:14:52.56	150.32	31.36	-31.2	-32.8	12.4	2.57e-04	0	43	0	370147328	23	4321
2026-01-18 10:14:53.57	150.28	31.57	-31.3	-32.9	12.3	1.95e-04	0	43	0	371195904	23	4341
2026-01-18 10:14:54.57	150.23	31.77	-31.5	-33.6	11.9	5.53e-04	0	43	0	373293056	23	4565
2026-01-18 10:14:55.57	150.19	31.97	-31.7	-34.2	11.4	6.22e-04	0	43	0	375390208	23	4805
2026-01-18 10:14:56.57	150.14	32.18	-31.8	-34.4	11.3	5.03e-04	0	43	0	377487360	23	4866
2026-01-18 10:14:57.58	150.10	32.39	-31.9	-34.7	11.1	1.94e-03	0	43	0	379584512	23	4971
2026-01-18 10:14:58.57	150.05	32.59	-31.9	-34.6	11.2	1.45e-03	0	43	0	380633088	23	4960
2026-01-18 10:14:59.58	150.00	32.80	-31.9	-34.7	11.2	1.57e-03	0	43	0	382730240	23	4982
2026-01-18 10:15:00.57	149.96	33.01	-31.7	-34.2	11.5	1.32e-03	0	43	0	384827392	23	4786
2026-01-18 10:15:01.57	149.91	33.22	-31.6	-33.4	11.6	9.31e-04	0	43	0	386924544	24	4433
2026-01-18 10:15:02.58	149.86	33.44	-31.7	-33.8	11.5	1.31e-03	0	43	0	387973120	24	4543
2026-01-18 10:15:03.58	149.81	33.65	-31.9	-34.1	11.2	1.12e-03	0	43	0	390070272	24	4672
2026-01-18 10:15:04.58	149.76	33.87	-32.1	-34.8	10.7	2.29e-03	0	43	0	392167424	24	4942
2026-01-18 10:15:05.59	149.71	34.09	-32.2	-35.3	10.4	4.97e-03	0	43	0	394264576	24	5122
2026-01-18 10:15:06.59	149.66	34.31	-32.3	-35.6	10.1	8.00e-03	0	43	0	396361728	24	5268
2026-01-18 10:15:07.60	149.60	34.53	-32.4	-36.1	9.7	7.26e-03	0	43	0	397410304	24	5482
2026-01-18 10:15:08.60	149.55	34.75	-32.1	-35.1	10.4	6.51e-03	0	43	0	399507456	24	5089
2026-01-18 10:15:09.61	149.49	34.98	-32.1	-34.8	10.6	5.81e-03	0	43	0	401604608	24	4956
2026-01-18 10:15:10.61	149.44	35.20	-31.9	-34.3	11.1	3.28e-03	0	43	0	403701760	24	4735
2026-01-18 10:15:11.60	149.38	35.43	-31.9	-34.4	11.0	2.05e-03	0	43	0	405798912	24	4806
2026-01-18 10:15:12.61	149.33	35.66	-31.8	-33.9	11.3	1.21e-03	0	43	0	406847488	24	4618
2026-01-18 10:15:13.60	149.27	35.89	-31.5	-33.0	12.0	4.74e-04	0	43	0	408944640	24	4297
2026-01-18 10:15:14.61	149.21	36.12	-31.5	-33.7	12.0	2.37e-04	0	43	0	411041792	23	4607
2026-01-18 10:15:15.62	149.15	36.36	-31.3	-33.1	12.4	1.22e-04	0	43	0	413138944	23	4402
2026-01-18 10:15:16.61	149.09	36.59	-31.5	-33.5	12.0	3.62e-04	0	43	0	415236096	23	4545
2026-01-18 10:15:17.62	149.03	36.83	-31.4	-33.1	12.3	2.94e-04	0	43	0	416284672	23	4405
2026-01-18 10:15:18.63	148.97	37.07	-31.3	-32.9	12.4	1.81e-04	0	43	0	418381824	23	4349
2026-01-18 10:15:19.63	148.91	37.31	-31.3	-32.9	12.4	2.30e-04	0	43	0	420478976	23	4341
2026-01-18 10:15:20.63	148.84	37.55	-31.0	-32.1	12.9	5.97e-04	0	43	0	422576128	23	4070
2026-01-18 10:15:21.63	148.78	37.79	-30.7	-31.8	13.5	1.67e-05	0	43	0	424673280	22	4091
2026-01-18 10:15:22.63	148.71	38.04	-30.9	-32.3	13.2	3.80e-06	0	43	0	425721856	22	4234
2026-01-18 10:15:23.63	148.65	38.29	-30.4	-31.0	14.0	1.50e-06	0	43	0	427819008	22	3851
2026-01-18 10:15:24.63	148.58	38.54	-30.6	-31.4	13.8	4.50e-06	0	43	0	429916160	22	3963
2026-01-18 10:15:25.63	148.51	38.79	-30.6	-31.4	13.7	2.28e-05	0	43	0	432013312	22	3975
2026-01-18 10:15:26.63	148.44	39.04	-30.9	-32.3	13.2	1.06e-05	0	43	0	434110464	22	4221
2026-01-18 10:15:27.64	148.37	39.30	-30.9	-32.4	13.2	4.04e-05	0	43	0	435159040	22	4257
2026-01-18 10:15:28.65	148.29	39.55	-31.0	-32.6	13.0	3.43e-05	0	43	0	437256192	22	4327
2026-01-18 10:15:29.65	148.22	39.81	-31.2	-33.1	12.7	3.66e-05	0	43	0	439353344	22	4486
2026-01-18 10:15:30.65	148.15	40.07	-31.3	-32.9	12.5	1.60e-04	0	43	0	441450496	23	4327
2026-01-18 10:15:31.65	148.07	40.33	-31.9	-34.7	11.3	5.34e-04	0	43	0	442499072	23	4964
2026-01-18 10:15:32.66	147.99	40.60	-32.1	-35.0	10.8	1.14e-03	0	43	0	444596224	24	5000
2026-01-18 10:15:33.66	147.91	40.87	-32.0	-34.4	11.1	1.32e-03	0	43	0	446693376	24	4775
2026-01-18 10:15:34.67	147.83	41.14	-31.9	-34.1	11.3	1.81e-03	0	43	0	448790528	24	4666
2026-01-18 10:15:35.68	147.75	41.41	-32.1	-34.9	10.8	2.50e-03	0	43	0	450887680	24	4956
2026-01-18 10:15:36.68	147.67	41.68	-32.2	-35.0	10.7	1.55e-03	0	43	0	452984832	24	4999
2026-01-18 10:15:37.68	147.58	41.95	-32.2	-35.3	10.4	2.37e-03	0	43	0	454033408	24	5123
2026-01-18 10:15:38.68	147.50	42.23	-32.1	-35.0	10.7	3.92e-03	0	43	0	456130560	24	5007
2026-01-18 10:15:39.68	147.41	42.50	-32.5	-35.7	9.8	1.28e-02	0	43	0	458227712	25	5193
2026-01-18 10:15:40.68	147.32	42.78	-32.5	-35.9	9.7	9.34e-03	0	43	0	460324864	25	5296
2026-01-18 10:15:41.69	147.23	43.07	-32.5	-35.9	9.6	1.01e-02	0	43	0	461373440	25	5318
2026-01-18 10:15:42.70	147.13	43.35	-32.6	-36.1	9.5	1.61e-02	0	43	0	463470592	25	5398
2026-01-18 10:15:43.70	147.04	43.64	-32.4	-35.4	10.0	1.48e-02	0	43	0	465567744	25	5078
2026-01-18 10:15:44.70	146.94	43.93	-32.4	-35.6	9.8	1.19e-02	0	43	0	467664896	25	5151
2026-01-18 10:15:45.69	146.85	44.21	-32.5	-35.6	9.9	9.37e-03	0	43	0	469762048	25	5153
2026-01-18 10:15:46.70	146.75	44.51	-32.5	-35.9	9.7	5.06e-03	0	43	0	470810624	25	5276
2026-01-18 10:15:47.70	146.65	44.80	-32.4	-35.4	10.1	1.03e-02	0	43	0	472907776	25	5057
2026-01-18 10:15:48.71	146.54	45.10	-32.1	-34.1	11.0	4.60e-03	0	43	0	475004928	25	4578
2026-01-18 10:15:49.71	146.44	45.40	-31.7	-33.4	11.9	1.14e-03	0	43	0	477102080	24	4393
2026-01-18 10:15:50.71	146.33	45.70	-31.4	-32.7	12.3	4.00e-04	0	43	0	479199232	24	4177
2026-01-18 10:15:51.71	146.22	46.00	-31.2	-32.7	12.7	1.29e-04	0	43	0	480247808	23	4257
2026-01-18 10:15:52.71	146.11	46.30	-31.1	-32.3	13.0	3.89e-05	0	43	0	482344960	23	4120
2026-01-18 10:15:53.71	145.99	46.61	-31.0	-32.5	13.3	1.37e-05	0	43	0	484442112	22	4276
2026-01-18 10:15:54.72	145.88	46.92	-31.3	-33.4	12.6	2.74e-05	0	43	0	486539264	22	4568
2026-01-18 10:15:55.72	145.76	47.23	-31.5	-33.9	12.3	1.43e-04	0	43	0	487587840	22	4740
2026-01-18 10:15:56.72	145.64	47.54	-31.5	-33.3	12.2	2.42e-04	0	43	0	489684992	23	4459
2026-01-18 10:15:57.72	145.51	47.86	-31.2	-32.6	12.8	8.08e-05	0	43	0	491782144	23	4211
2026-01-18 10:15:58.73	145.39	48.18	-31.0	-32.0	13.2	3.20e-05	0	43	0	493879296	23	4029
2026-01-18 10:15:59.73	145.26	48.50	-30.9	-31.7	13.3	1.90e-05	0	43	0	495976448	23	3950
2026-01-18 10:16:00.73	145.12	48.82	-30.9	-32.3	13.4	3.00e-06	0	43	0	498073600	22	4211
2026-01-18 10:16:01.74	144.99	49.14	-30.7	-31.6	13.7	9.90e-06	0	43	0	499122176	22	4006
2026-01-18 10:16:02.74	144.85	49.47	-30.6	-31.5	13.9	7.60e-06	0	43	0	501219328	22	3978
2026-01-18 10:16:03.74	144.71	49.80	-30.7	-31.7	13.7	1.29e-05	0	43	0	503316480	22	4039
2026-01-18 10:16:04.74	144.57	50.13	-30.4	-31.0	14.3	7.00e-07	0	43	0	505413632	22	3836
2026-01-18 10:16:05.75	144.42	50.46	-30.0	-30.4	14.8	1.50e-06	0	43	0	506462208	21	3763
2026-01-18 10:16:06.75	144.27	50.80	-29.9	-30.6	15.0	0.00e+00	0	43	0	508559360	20	3903
2026-01-18 10:16:07.75	144.11	51.13	-29.8	-30.4	15.2	0.00e+00	0	43	0	510656512	20	3852
2026-01-18 10:16:08.75	143.96	51.47	-29.6	-30.0	15.4	0.00e+00	0	43	0	512753664	20	3749
2026-01-18 10:16:09.76	143.79	51.82	-30.0	-30.9	14.8	0.00e+00	0	43	0	514850816	20	3999
2026-01-18 10:16:10.75	143.63	52.16	-30.2	-31.5	14.4	0.00e+00	0	43	0	515899392	20	4162
2026-01-18 10:16:11.76	143.46	52.51	-30.3	-31.6	14.5	0.00e+00	0	43	0	517996544	20	4189
2026-01-18 10:16:12.76	143.29	52.85	-30.1	-31.2	14.5	7.00e-07	0	43	0	520093696	20	4088
2026-01-18 10:16:13.77	143.11	53.21	-30.0	-31.0	14.8	0.00e+00	0	43	0	522190848	20	4016
2026-01-18 10:16:14.76	142.93	53.56	-29.8	-30.5	15.1	0.00e+00	0	43	0	524288000	20	3872
2026-01-18 10:16:15.76	142.74	53.91	-29.9	-30.6	15.0	0.00e+00	0	43	0	525336576	20	3902
2026-01-18 10:16:16.76	142.55	54.27	-29.7	-30.2	15.3	0.00e+00	0	43	0	527433728	20	3810
2026-01-18 10:16:17.76	142.36	54.62	-29.3	-29.1	15.9	0.00e+00	0	43	0	529530880	20	3518
2026-01-18 10:16:18.77	142.15	54.99	-29.5	-30.2	15.6	0.00e+00	0	43	0	531628032	19	3882
2026-01-18 10:16:19.78	141.94	55.35	-29.9	-31.0	15.2	0.00e+00	0	43	0	533725184	19	4122
2026-01-18 10:16:20.78	141.73	55.72	-30.2	-31.4	14.5	7.00e-07	0	43	0	534773760	20	4132
2026-01-18 10:16:21.79	141.51	56.09	-30.5	-31.6	14.1	0.00e+00	0	43	0	536870912	21	4100
2026-01-18 10:16:22.79	141.29	56.46	-30.3	-31.1	14.4	1.50e-06	0	43	0	538968064	21	3957
2026-01-18 10:16:23.79	141.06	56.83	-30.0	-30.8	15.0	7.00e-07	0	43	0	541065216	20	3945
2026-01-18 10:16:24.80	140.82	57.20	-30.5	-31.7	14.1	7.00e-07	0	43	0	543162368	21	4137
2026-01-18 10:16:25.81	140.58	57.58	-31.2	-33.1	12.9	3.12e-05	0	43	0	544210944	22	4471
2026-01-18 10:16:26.81	140.33	57.96	-31.1	-32.7	13.1	5.79e-05	0	43	0	546308096	22	4324
2026-01-18 10:16:27.81	140.07	58.34	-30.6	-31.3	14.0	8.30e-06	0	43	0	548405248	22	3920
2026-01-18 10:16:28.81	139.81	58.72	-30.5	-31.2	13.9	2.20e-06	0	43	0	550502400	22	3894
2026-01-18 10:16:29.82	139.53	59.10	-30.7	-31.6	13.9	1.50e-06	0	43	0	551550976	22	4024
2026-01-18 10:16:30.82	139.25	59.49	-30.4	-30.8	14.3	3.00e-06	0	43	0	553648128	22	3788
2026-01-18 10:16:31.82	138.96	59.87	-29.7	-30.1	15.3	0.00e+00	0	43	0	555745280	20	3760
2026-01-18 10:16:32.82	138.67	60.26	-29.3	-29.2	15.9	0.00e+00	0	43	0	557842432	20	3553
2026-01-18 10:16:33.83	138.36	60.65	-30.0	-30.8	14.9	0.00e+00	0	43	0	559939584	20	3973
2026-01-18 10:16:34.83	138.04	61.04	-30.0	-30.8	15.0	7.00e-07	0	43	0	562036736	20	3954
2026-01-18 10:16:35.84	137.71	61.44	-30.1	-31.0	14.9	0.00e+00	0	43	0	563085312	20	4026
2026-01-18 10:16:36.84	137.37	61.83	-29.9	-30.5	15.3	0.00e+00	0	43	0	565182464	20	3881
2026-01-18 10:16:37.84	137.02	62.23	-29.8	-30.2	15.3	1.50e-06	0	43	0	567279616	20	3800
2026-01-18 10:16:38.84	136.66	62.63	-30.5	-32.0	14.2	0.00e+00	0	43	0	569376768	20	4309
2026-01-18 10:16:39.85	136.29	63.03	-30.9	-32.3	13.4	1.06e-05	0	43	0	570425344	22	4194
2026-01-18 10:16:40.85	135.90	63.43	-31.2	-32.9	13.1	2.59e-05	0	43	0	572522496	22	4382
2026-01-18 10:16:41.86	135.50	63.83	-30.7	-31.6	13.8	1.83e-05	0	43	0	574619648	22	4001
2026-01-18 10:16:42.86	135.09	64.23	-30.5	-31.0	14.2	2.20e-06	0	43	0	576716800	22	3839
2026-01-18 10:16:43.87	134.66	64.64	-30.6	-31.3	14.0	0.00e+00	0	43	0	578813952	22	3913
2026-01-18 10:16:44.87	134.21	65.04	-30.2	-30.8	15.0	7.00e-07	0	43	0	579862528	21	3852
2026-01-18 10:16:45.87	133.75	65.44	-29.9	-30.0	15.2	0.00e+00	0	43	0	581959680	21	3659
2026-01-18 10:16:46.88	133.27	65.85	-30.6	-31.7	14.1	7.00e-07	0	43	0	584056832	21	4116
2026-01-18 10:16:47.88	132.78	66.26	-30.9	-32.6	13.5	3.00e-06	0	43	0	586153984	21	4395
2026-01-18 10:16:48.89	132.26	66.67	-31.2	-32.8	13.1	3.43e-05	0	43	0	588251136	22	4359
2026-01-18 10:16:49.89	131.72	67.07	-30.5	-31.1	14.2	7.00e-07	0	43	0	589299712	22	3857
2026-01-18 10:16:50.89	131.17	67.48	-30.0	-30.4	14.9	7.00e-07	0	43	0	591396864	21	3759
2026-01-18 10:16:51.89	130.59	67.88	-30.4	-31.4	14.3	0.00e+00	0	43	0	593494016	21	4036
2026-01-18 10:16:52.89	129.99	68.28	-30.3	-31.2	14.3	1.50e-06	0	43	0	595591168	21	3961
2026-01-18 10:16:53.90	129.36	68.69	-30.1	-30.6	14.8	1.50e-06	0	43	0	597688320	21	3818
2026-01-18 10:16:54.90	128.71	69.10	-30.8	-32.3	13.8	0.00e+00	0	43	0	598736896	21	4300
2026-01-18 10:16:55.90	128.03	69.50	-31.4	-33.1	12.5	1.83e-05	0	43	0	600834048	23	4376
2026-01-18 10:16:56.90	127.32	69.90	-31.6	-33.5	12.3	3.18e-04	0	43	0	602931200	23	4504
2026-01-18 10:16:57.91	126.57	70.30	-31.0	-32.0	13.3	4.73e-05	0	43	0	605028352	23	4021
2026-01-18 10:16:58.91	125.79	70.70	-30.7	-31.5	13.9	6.80e-06	0	43	0	607125504	22	3976
2026-01-18 10:16:59.91	124.98	71.10	-30.6	-31.4	14.1	2.20e-06	0	43	0	608174080	22	3929
2026-01-18 10:17:00.91	124.14	71.49	-30.8	-31.8	13.8	6.80e-06	0	43	0	610271232	22	4068
2026-01-18 10:17:01.92	123.24	71.89	-30.4	-30.8	14.4	2.20e-06	0	43	0	612368384	22	3770
2026-01-18 10:17:02.92	122.32	72.28	-30.8	-31.8	13.8	2.20e-06	0	43	0	614465536	22	4045
2026-01-18 10:17:03.93	121.34	72.67	-30.8	-32.0	13.7	2.20e-06	0	43	0	616562688	22	4102
2026-01-18 10:17:04.93	120.32	73.05	-31.1	-32.8	13.1	1.22e-05	0	43	0	617611264	22	4350
2026-01-18 10:17:05.93	119.25	73.43	-31.8	-34.3	11.8	1.33e-04	0	43	0	619708416	23	4777
2026-01-18 10:17:06.92	118.15	73.80	-31.5	-32.8	12.4	1.87e-04	0	43	0	621805568	24	4168
2026-01-18 10:17:07.93	116.96	74.17	-30.6	-31.4	14.0	1.37e-05	0	43	0	623902720	22	3921
2026-01-18 10:17:08.93	115.73	74.53	-30.3	-31.0	14.5	1.50e-06	0	43	0	624951296	21	3918
2026-01-18 10:17:09.94	114.42	74.89	-30.8	-32.3	13.8	7.00e-07	0	43	0	627048448	21	4299
2026-01-18 10:17:10.93	113.08	75.24	-30.9	-32.0	13.6	6.10e-06	0	43	0	629145600	22	4097
2026-01-18 10:17:11.94	111.64	75.58	-31.6	-33.5	12.2	1.23e-04	0	43	0	631242752	23	4504
2026-01-18 10:17:12.94	110.15	75.91	-31.3	-32.7	12.9	4.41e-04	0	43	0	633339904	23	4225
2026-01-18 10:17:13.94	108.58	76.24	-31.0	-31.8	13.5	2.05e-05	0	43	0	634388480	23	3961
2026-01-18 10:17:14.94	106.93	76.55	-31.0	-31.9	13.5	1.52e-05	0	43	0	636485632	23	3976
2026-01-18 10:17:15.93	105.22	76.85	-31.5	-33.1	12.7	3.58e-05	0	43	0	638582784	23	4374
2026-01-18 10:17:16.93	103.41	77.15	-31.4	-33.1	12.8	6.33e-05	0	43	0	640679936	23	4344
2026-01-18 10:17:17.93	101.51	77.43	-32.0	-34.2	11.5	5.47e-04	0	43	0	642777088	24	4651
2026-01-18 10:17:18.94	99.51	77.70	-32.1	-34.6	11.3	4.97e-04	0	43	0	643825664	24	4794
2026-01-18 10:17:19.95	97.42	77.95	-32.4	-35.3	10.8	1.01e-03	0	43	0	645922816	24	5078
2026-01-18 10:17:20.95	95.26	78.19	-33.1	-37.0	8.8	1.08e-02	0	43	0	648019968	26	5636
2026-01-18 10:17:21.95	93.02	78.40	-33.0	-36.6	9.2	1.68e-02	0	43	0	650117120	26	5451
2026-01-18 10:17:22.95	90.69	78.60	-33.4	-38.1	8.0	3.59e-02	0	43	0	652214272	26	6196
2026-01-18 10:17:23.96	88.25	78.79	-33.7	-39.2	6.8	1.09e-01	0	43	0	653262848	27	6741
2026-01-18 10:17:24.96	85.77	78.95	-33.2	-36.9	8.5	8.67e-02	0	43	0	655360000	27	5490
2026-01-18 10:17:25.97	83.18	79.09	-33.0	-36.4	9.3	1.22e-02	0	43	0	657457152	26	5333
2026-01-18 10:17:26.97	80.56	79.21	-33.0	-36.5	9.3	1.80e-02	0	43	0	659554304	26	5382
2026-01-18 10:17:27.97	77.88	79.31	-33.3	-37.2	8.4	4.69e-02	0	43	0	660602880	27	5615
2026-01-18 10:17:28.97	75.16	79.38	-33.5	-38.0	7.8	3.18e-02	0	43	0	662700032	27	6034
2026-01-18 10:17:29.98	72.38	79.43	-33.3	-37.3	8.4	5.16e-02	0	43	0	664797184	27	5670
2026-01-18 10:17:30.99	69.58	79.46	-33.5	-38.2	7.5	5.71e-02	0	43	0	666894336	27	6146
2026-01-18 10:17:31.99	66.80	79.46	-33.8	-39.8	6.4	1.32e-01	0	43	0	668991488	27	7133
2026-01-18 10:17:33.00	64.00	79.43	-33.5	-38.0	7.6	2.14e-01	0	43	0	670040064	27	6048
2026-01-18 10:17:34.00	61.25	79.38	-32.5	-34.5	10.8	6.28e-03	0	43	0	672137216	26	4578
2026-01-18 10:17:35.00	58.53	79.31	-32.3	-34.4	11.2	8.57e-04	0	43	0	674234368	25	4611
2026-01-18 10:17:36.00	55.85	79.21	-32.5	-35.3	10.5	3.94e-03	0	43	0	676331520	25	4956
2026-01-18 10:17:37.00	53.23	79.10	-32.2	-34.3	11.3	2.16e-03	0	43	0	678428672	25	4585
2026-01-18 10:17:37.99	50.70	78.96	-32.4	-34.8	10.8	1.80e-03	0	43	0	679477248	25	4773
2026-01-18 10:17:39.00	48.18	78.79	-32.8	-35.9	9.7	1.43e-02	0	43	0	681574400	26	5116
2026-01-18 10:17:40.00	45.77	78.61	-31.9	-33.3	11.9	9.13e-03	0	43	0	683671552	25	4249
2026-01-18 10:17:41.00	43.44	78.41	-31.5	-32.8	12.6	1.39e-04	0	43	0	685768704	24	4152
2026-01-18 10:17:42.01	41.17	78.19	-32.3	-35.2	10.9	1.12e-03	0	43	0	687865856	24	5027
2026-01-18 10:17:43.01	39.01	77.96	-32.6	-35.6	10.3	5.06e-03	0	43	0	688914432	25	5079
2026-01-18 10:17:44.01	36.93	77.71	-32.1	-33.8	11.6	1.25e-03	0	43	0	691011584	25	4408
2026-01-18 10:17:45.01	34.95	77.44	-32.3	-34.6	11.3	1.15e-03	0	43	0	693108736	25	4685
2026-01-18 10:17:46.02	33.03	77.16	-32.6	-35.5	10.4	1.59e-03	0	43	0	695205888	25	5046
2026-01-18 10:17:47.02	31.22	76.87	-33.1	-37.0	8.9	1.00e-02	0	43	0	697303040	26	5616
2026-01-18 10:17:48.03	29.47	76.56	-33.1	-36.8	8.9	2.01e-02	0	43	0	698351616	26	5527
2026-01-18 10:17:49.02	27.84	76.25	-33.2	-37.6	8.4	3.36e-02	0	43	0	700448768	26	5950
2026-01-18 10:17:50.03	26.26	75.93	-33.2	-37.3	8.5	3.95e-02	0	43	0	702545920	26	5801
2026-01-18 10:17:51.03	24.76	75.59	-31.8	-33.5	12.1	1.25e-03	0	43	0	704643072	24	4403
2026-01-18 10:17:52.02	23.35	75.25	-31.7	-33.9	12.2	1.31e-04	0	43	0	705691648	23	4608
2026-01-18 10:17:53.03	21.97	74.90	-30.9	-31.5	13.7	2.89e-05	0	43	0	707788800	23	3867
2026-01-18 10:17:54.03	20.68	74.55	-30.4	-30.9	14.5	1.50e-06	0	43	0	709885952	22	3786
2026-01-18 10:17:55.03	19.45	74.19	-30.3	-30.9	14.6	0.00e+00	0	43	0	711983104	21	3894
2026-01-18 10:17:56.03	18.27	73.82	-30.5	-31.6	14.3	1.50e-06	0	43	0	714080256	21	4062
2026-01-18 10:17:57.03	17.15	73.45	-29.9	-30.6	15.2	0.00e+00	0	43	0	715128832	20	3890
2026-01-18 10:17:58.04	16.08	73.07	-29.3	-29.7	16.1	0.00e+00	0	43	0	717225984	19	3731
2026-01-18 10:17:59.04	15.06	72.68	-29.5	-30.1	15.9	0.00e+00	0	43	0	719323136	19	3838
2026-01-18 10:18:00.04	14.09	72.30	-30.1	-31.1	14.9	0.00e+00	0	43	0	721420288	20	4041
2026-01-18 10:18:01.04	13.16	71.91	-30.7	-32.0	14.0	3.00e-06	0	43	0	723517440	21	4203
2026-01-18 10:18:02.04	12.27	71.52	-29.9	-30.1	15.1	7.00e-07	0	43	0	724566016	21	3679
2026-01-18 10:18:03.04	11.43	71.13	-29.2	-29.2	16.2	0.00e+00	0	43	0	726663168	19	3622
2026-01-18 10:18:04.05	10.61	70.73	-29.0	-28.8	16.6	0.00e+00	0	43	0	728760320	19	3534
2026-01-18 10:18:05.05	9.83	70.33	-30.2	-31.3	14.7	0.00e+00	0	43	0	730857472	20	4083
2026-01-18 10:18:06.05	9.09	69.93	-30.4	-31.8	14.4	0.00e+00	0	43	0	732954624	20	4236
2026-01-18 10:18:07.05	8.38	69.53	-30.0	-30.8	15.0	0.00e+00	0	43	0	734003200	20	3948
2026-01-18 10:18:08.05	7.70	69.13	-30.5	-31.7	14.2	0.00e+00	0	43	0	736100352	21	4105
2026-01-18 10:18:09.05	7.05	68.73	-31.3	-33.1	13.1	1.29e-05	0	43	0	738197504	22	4459
2026-01-18 10:18:10.06	6.42	68.32	-31.8	-34.0	12.0	7.32e-05	0	43	0	740294656	23	4678
2026-01-18 10:18:11.06	5.81	67.92	-31.5	-32.7	12.5	6.66e-04	0	43	0	742391808	24	4161
2026-01-18 10:18:12.05	5.24	67.52	-30.5	-31.1	14.2	4.50e-06	0	43	0	743440384	22	3865
2026-01-18 10:18:13.06	4.68	67.11	-29.8	-30.3	15.3	0.00e+00	0	43	0	745537536	20	3817
2026-01-18 10:18:14.06	4.14	66.70	-30.6	-31.8	14.1	0.00e+00	0	43	0	747634688	21	4160
2026-01-18 10:18:15.06	3.63	66.30	-30.7	-32.1	13.8	5.30e-06	0	43	0	749731840	21	4238
2026-01-18 10:18:16.06	3.13	65.90	-30.5	-31.0	14.2	1.37e-05	0	43	0	750780416	22	3836
2026-01-18 10:18:17.07	2.65	65.49	-30.6	-31.5	13.9	6.80e-06	0	43	0	752877568	22	3964
2026-01-18 10:18:18.06	2.20	65.09	-30.6	-31.3	14.1	5.30e-06	0	43	0	754974720	22	3909
2026-01-18 10:18:19.06	1.75	64.69	-30.2	-30.8	14.8	0.00e+00	0	43	0	757071872	21	3854
2026-01-18 10:18:20.07	1.32	64.28	-30.1	-30.7	14.8	0.00e+00	0	43	0	759169024	21	3831
2026-01-18 10:18:21.08	0.90	63.88	-31.4	-33.5	12.7	5.30e-06	0	43	0	760217600	22	4594
2026-01-18 10:18:22.08	0.50	63.48	-30.8	-32.0	13.5	1.14e-05	0	43	0	762314752	22	4102
2026-01-18 10:18:23.08	0.12	63.08	-30.7	-31.5	13.9	3.80e-06	0	43	0	764411904	22	3980
2026-01-18 10:18:24.09	359.74	62.68	-31.4	-33.7	12.5	9.90e-06	0	43	0	766509056	22	4669
2026-01-18 10:18:25.10	359.38	62.28	-30.2	-30.9	14.6	3.80e-06	0	43	0	768606208	21	3891
2026-01-18 10:18:26.10	359.03	61.89	-29.5	-29.5	15.7	0.00e+00	0	43	0	769654784	20	3618
2026-01-18 10:18:27.10	358.69	61.50	-29.8	-30.3	15.2	0.00e+00	0	43	0	771751936	20	3816
2026-01-18 10:18:28.11	358.36	61.10	-29.6	-29.7	15.6	0.00e+00	0	43	0	773849088	20	3674
2026-01-18 10:18:29.11	358.05	60.71	-28.9	-28.7	16.5	0.00e+00	0	44	0	775946240	19	3506
2026-01-18 10:18:30.12	357.74	60.32	-29.7	-30.5	15.5	0.00e+00	0	43	0	778043392	19	3971
2026-01-18 10:18:31.13	357.43	59.93	-30.1	-31.1	14.9	0.00e+00	0	43	0	779091968	20	4022
2026-01-18 10:18:32.13	357.15	59.54	-30.2	-31.3	14.7	0.00e+00	0	43	0	781189120	20	4094
2026-01-18 10:18:33.13	356.87	59.16	-31.1	-32.8	13.1	7.00e-07	0	43	0	783286272	22	4351
2026-01-18 10:18:34.14	356.59	58.78	-32.0	-34.3	11.2	2.39e-04	0	43	0	785383424	24	4702
2026-01-18 10:18:35.14	356.33	58.40	-30.9	-31.6	13.5	1.04e-04	0	43	0	787480576	23	3919
2026-01-18 10:18:36.14	356.07	58.02	-30.3	-31.1	14.6	7.00e-07	0	43	0	788529152	21	3931
2026-01-18 10:18:37.15	355.82	57.64	-30.5	-31.5	14.2	2.20e-06	0	43	0	790626304	21	4056
2026-01-18 10:18:38.15	355.58	57.27	-30.9	-32.7	13.5	7.00e-07	0	43	0	792723456	21	4435
2026-01-18 10:18:39.16	355.34	56.89	-31.5	-33.4	12.3	8.16e-05	0	43	0	794820608	23	4465
2026-01-18 10:18:40.16	355.11	56.52	-31.4	-33.1	12.5	1.35e-04	0	43	0	796917760	23	4373
2026-01-18 10:18:41.16	354.88	56.15	-31.4	-33.0	12.6	6.56e-05	0	43	0	797966336	23	4344
2026-01-18 10:18:42.16	354.67	55.79	-31.4	-33.2	12.5	2.10e-04	0	43	0	800063488	23	4399
2026-01-18 10:18:43.16	354.46	55.43	-30.2	-30.7	14.6	5.30e-06	0	43	0	802160640	21	3850
2026-01-18 10:18:44.16	354.25	55.06	-29.2	-29.3	16.1	0.00e+00	0	43	0	804257792	19	3664
2026-01-18 10:18:45.17	354.05	54.70	-29.6	-30.4	15.5	0.00e+00	0	43	0	805306368	19	3943
2026-01-18 10:18:46.17	353.85	54.34	-29.5	-30.1	15.6	0.00e+00	0	43	0	807403520	19	3863
2026-01-18 10:18:47.17	353.66	53.99	-28.7	-28.7	16.7	0.00e+00	0	43	0	809500672	18	3601
2026-01-18 10:18:48.16	353.48	53.64	-28.0	-27.7	17.6	0.00e+00	0	43	0	811597824	17	3451
2026-01-18 10:18:49.17	353.29	53.28	-28.6	-28.9	17.0	0.00e+00	0	43	0	813694976	17	3736
2026-01-18 10:18:50.17	353.11	52.94	-29.5	-30.5	15.7	0.00e+00	0	43	0	814743552	18	4066
2026-01-18 10:18:51.17	352.94	52.59	-29.3	-29.5	16.0	0.00e+00	0	43	0	816840704	19	3697
2026-01-18 10:18:52.18	352.77	52.24	-29.7	-30.6	15.4	0.00e+00	0	43	0	818937856	19	3985
2026-01-18 10:18:53.19	352.60	51.90	-30.9	-32.7	13.5	3.00e-06	0	43	0	821035008	21	4431
2026-01-18 10:18:54.19	352.44	51.56	-31.8	-34.2	11.8	1.30e-04	0	43	0	823132160	23	4756
2026-01-18 10:18:55.20	352.29	51.21	-31.2	-32.4	12.9	4.07e-04	0	43	0	824180736	23	4139
2026-01-18 10:18:56.21	352.13	50.88	-31.0	-31.8	13.3	5.64e-05	0	43	0	826277888	23	3979
2026-01-18 10:18:57.20	351.98	50.55	-30.7	-31.6	13.6	1.44e-05	0	43	0	828375040	22	3999
2026-01-18 10:18:58.21	351.83	50.21	-30.9	-32.2	13.5	6.80e-06	0	43	0	830472192	22	4188
2026-01-18 10:18:59.21	351.69	49.88	-30.8	-32.0	13.6	2.82e-05	0	43	0	832569344	22	4106
2026-01-18 10:19:00.21	351.55	49.56	-31.1	-32.7	13.0	2.89e-05	0	43	0	833617920	22	4347
2026-01-18 10:19:01.21	351.41	49.23	-31.2	-32.5	12.9	9.30e-05	0	43	0	835715072	23	4188
2026-01-18 10:19:02.21	351.28	48.91	-31.4	-33.0	12.4	1.17e-04	0	43	0	837812224	23	4345
2026-01-18 10:19:03.21	351.15	48.59	-31.8	-34.2	11.7	5.66e-04	0	43	0	839909376	23	4767
2026-01-18 10:19:04.22	351.02	48.27	-32.2	-35.1	10.9	1.41e-03	0	43	0	842006528	24	5028
2026-01-18 10:19:05.22	350.89	47.95	-31.6	-33.1	12.1	1.15e-03	0	43	0	843055104	24	4302
2026-01-18 10:19:06.22	350.77	47.64	-30.9	-32.3	13.5	3.05e-05	0	43	0	845152256	22	4216
2026-01-18 10:19:07.22	350.64	47.33	-31.2	-33.1	12.7	1.04e-04	0	43	0	847249408	22	4479
2026-01-18 10:19:08.23	350.52	47.01	-31.3	-33.4	12.5	9.99e-05	0	43	0	849346560	22	4583
2026-01-18 10:19:09.24	350.41	46.70	-31.6	-33.6	12.0	3.39e-04	0	43	0	851443712	23	4558
2026-01-18 10:19:10.24	350.29	46.40	-31.6	-33.6	12.1	2.55e-04	0	43	0	852492288	23	4548
2026-01-18 10:19:11.25	350.18	46.09	-31.3	-32.7	12.6	1.43e-04	0	43	0	854589440	23	4262
2026-01-18 10:19:12.24	350.07	45.79	-30.9	-32.1	13.5	1.75e-05	0	43	0	856686592	22	4138
2026-01-18 10:19:13.24	349.97	45.49	-31.4	-33.2	12.3	1.20e-04	0	43	0	858783744	23	4421
2026-01-18 10:19:14.24	349.86	45.20	-31.9	-34.7	11.4	2.52e-04	0	43	0	860880896	23	4934
2026-01-18 10:19:15.24	349.76	44.90	-32.9	-37.3	8.7	9.57e-03	0	43	0	861929472	25	5932
2026-01-18 10:19:16.24	349.66	44.61	-33.3	-38.2	7.6	5.53e-02	0	43	0	864026624	26	6323
2026-01-18 10:19:17.24	349.56	44.32	-33.5	-38.9	6.7	1.33e-01	0	44	0	866123776	27	6714
2026-01-18 10:19:18.25	349.46	44.03	-33.8	-40.5	5.6	2.30e-01	0	43	0	868220928	27	7793
2026-01-18 10:19:19.25	349.36	43.74	-34.0	-42.2	4.6	7.68e-01	0	43	0	869269504	27	9304
2026-01-18 10:19:20.25	349.27	43.46	-34.0	-42.3	4.4	1.02e+00	0	43	0	871366656	28	9350
2026-01-18 10:19:21.26	349.18	43.17	-33.8	-40.8	4.9	1.34e+00	0	43	0	872415232	28	8006
2026-01-18 10:19:22.26	349.09	42.89	-32.9	-36.0	8.7	2.47e-01	0	43	0	874512384	27	5153
2026-01-18 10:19:23.26	349.00	42.61	-31.7	-33.4	11.8	1.27e-03	0	43	0	876609536	24	4408
2026-01-18 10:19:24.26	348.91	42.34	-31.0	-32.0	13.1	6.17e-05	0	43	0	878706688	23	4038
2026-01-18 10:19:25.26	348.82	42.06	-31.4	-33.7	12.4	2.59e-05	0	43	0	880803840	22	4675
2026-01-18 10:19:26.27	348.74	41.79	-31.4	-33.1	12.3	2.08e-04	0	43	0	881852416	23	4399
2026-01-18 10:19:27.27	348.66	41.52	-31.5	-33.5	12.1	2.00e-04	0	44	0	883949568	23	4517
2026-01-18 10:19:28.27	348.58	41.25	-32.1	-34.7	10.9	1.08e-03	0	43	0	886046720	24	4869
2026-01-18 10:19:29.27	348.50	40.98	-32.3	-35.5	10.3	1.52e-03	0	43	0	888143872	24	5192
2026-01-18 10:19:30.28	348.42	40.72	-32.6	-36.0	9.6	1.82e-02	0	43	0	890241024	25	5340
2026-01-18 10:19:31.29	348.34	40.45	-33.1	-37.4	8.2	2.46e-02	0	43	0	891289600	26	5909
2026-01-18 10:19:32.29	348.26	40.19	-32.8	-36.2	8.9	6.17e-02	0	43	0	893386752	26	5352
2026-01-18 10:19:33.29	348.19	39.93	-31.5	-33.1	11.9	2.47e-03	0	43	0	895483904	24	4291
2026-01-18 10:19:34.29	348.11	39.67	-30.5	-31.2	13.9	3.66e-05	0	43	0	897581056	22	3885
2026-01-18 10:19:35.29	348.04	39.42	-30.0	-30.5	14.7	7.00e-07	0	43	0	899678208	21	3790
2026-01-18 10:19:36.29	347.97	39.16	-30.1	-30.6	14.6	7.00e-07	0	43	0	900726784	21	3836
2026-01-18 10:19:37.29	347.90	38.91	-30.4	-31.5	14.0	3.00e-06	0	43	0	902823936	21	4063
2026-01-18 10:19:38.30	347.83	38.66	-31.1	-32.9	12.9	4.50e-06	0	43	0	904921088	22	4398
2026-01-18 10:19:39.30	347.76	38.41	-31.6	-33.8	11.9	1.72e-04	0	43	0	907018240	23	4620
2026-01-18 10:19:40.30	347.70	38.17	-32.2	-35.0	10.6	2.28e-03	0	43	0	908066816	24	4999
2026-01-18 10:19:41.31	347.63	37.92	-32.4	-35.7	10.1	4.95e-03	0	43	0	910163968	24	5297
2026-01-18 10:19:42.30	347.57	37.68	-32.3	-35.6	10.2	5.74e-03	0	43	0	912261120	24	5248
2026-01-18 10:19:43.30	347.50	37.44	-32.3	-35.6	10.2	7.52e-03	0	43	0	914358272	24	5236
2026-01-18 10:19:44.31	347.44	37.19	-31.8	-34.0	11.4	2.01e-03	0	43	0	916455424	24	4599
2026-01-18 10:19:45.31	347.38	36.96	-31.5	-33.1	12.0	5.65e-04	0	43	0	917504000	24	4298
2026-01-18 10:19:46.32	347.32	36.72	-31.3	-32.5	12.3	3.11e-04	0	43	0	919601152	24	4124
2026-01-18 10:19:47.32	347.26	36.48	-31.5	-33.4	12.2	1.17e-04	0	43	0	921698304	23	4475
2026-01-18 10:19:48.32	347.20	36.25	-31.7	-34.0	11.7	3.37e-04	0	43	0	923795456	23	4716
2026-01-18 10:19:49.32	347.14	36.02	-32.1	-34.9	10.6	1.27e-03	0	43	0	925892608	24	4973
2026-01-18 10:19:50.33	347.09	35.79	-32.0	-34.6	10.9	1.74e-03	0	43	0	926941184	24	4858
2026-01-18 10:19:51.33	347.03	35.56	-32.0	-34.6	10.9	1.66e-03	0	43	0	929038336	24	4851
2026-01-18 10:19:52.33	346.97	35.33	-32.0	-34.3	11.1	2.17e-03	0	43	0	931135488	24	4738
2026-01-18 10:19:53.33	346.92	35.11	-31.3	-32.4	12.4	2.42e-04	0	43	0	933232640	24	4092
2026-01-18 10:19:54.33	346.87	34.89	-30.8	-31.9	13.5	3.89e-05	0	44	0	935329792	22	4090
2026-01-18 10:19:55.34	346.81	34.66	-30.7	-31.6	13.7	9.90e-06	0	43	0	936378368	22	4008
2026-01-18 10:19:56.34	346.76	34.44	-30.6	-31.3	13.8	3.80e-06	0	43	0	938475520	22	3940
2026-01-18 10:19:57.35	346.71	34.22	-30.7	-31.8	13.6	9.90e-06	0	43	0	940572672	22	4060
2026-01-18 10:19:58.35	346.66	34.00	-31.2	-33.1	12.6	3.50e-05	0	43	0	942669824	22	4471
2026-01-18 10:19:59.35	346.61	33.79	-31.8	-34.3	11.5	2.11e-04	0	43	0	944766976	23	4834
2026-01-18 10:20:00.36	346.56	33.57	-32.2	-35.2	10.5	2.44e-03	0	43	0	945815552	24	5073
2026-01-18 10:20:01.36	346.51	33.36	-32.6	-36.3	9.4	1.37e-02	0	43	0	947912704	25	5470
2026-01-18 10:20:02.37	346.46	33.15	-33.0	-37.0	8.3	3.13e-02	0	44	0	950009856	26	5742
2026-01-18 10:20:03.37	346.41	32.94	-32.9	-36.9	8.4	6.86e-02	0	44	0	952107008	26	5674
2026-01-18 10:20:04.37	346.37	32.73	-32.7	-36.0	9.1	4.10e-02	0	43	0	953155584	26	5250
2026-01-18 10:20:05.37	346.32	32.52	-32.4	-34.9	9.9	1.24e-02	0	44	0	955252736	26	4803
2026-01-18 10:20:06.37	346.28	32.32	-31.9	-33.7	11.1	3.80e-03	0	43	0	957349888	25	4446
2026-01-18 10:20:07.37	346.23	32.11	-31.7	-33.5	11.6	6.74e-04	0	43	0	959447040	24	4443
2026-01-18 10:20:08.37	346.19	31.91	-31.6	-33.4	11.7	5.41e-04	0	43	0	961544192	24	4408
2026-01-18 10:20:09.37	346.14	31.71	-31.6	-33.4	11.7	4.10e-04	0	43	0	962592768	24	4421
2026-01-18 10:20:10.38	346.10	31.51	-31.7	-33.8	11.5	6.96e-04	0	43	0	964689920	24	4537
2026-01-18 10:20:11.38	346.06	31.31	-31.6	-33.4	11.7	6.55e-04	0	43	0	966787072	24	4415
2026-01-18 10:20:12.38	346.02	31.11	-31.7	-33.7	11.5	8.12e-04	0	43	0	968884224	24	4506
2026-01-18 10:20:13.38	345.98	30.91	-31.7	-33.6	11.6	6.41e-04	0	43	0	970981376	24	4476
2026-01-18 10:20:14.38	345.94	30.72	-31.8	-34.0	11.3	1.09e-03	0	44	0	972029952	24	4617
2026-01-18 10:20:15.39	345.90	30.52	-31.8	-33.9	11.3	1.11e-03	0	43	0	974127104	24	4602
2026-01-18 10:20:16.39	345.86	30.33	-31.9	-34.4	11.0	6.10e-04	0	43	0	976224256	24	4778
2026-01-18 10:20:17.39	345.82	30.14	-31.7	-33.7	11.5	7.74e-04	0	44	0	978321408	24	4511
2026-01-18 10:20:18.40	345.78	29.95	-31.7	-33.8	11.5	8.85e-04	0	43	0	980418560	24	4542
2026-01-18 10:20:19.40	345.74	29.76	-32.0	-34.5	10.9	1.78e-03	0	43	0	981467136	24	4808
2026-01-18 10:20:20.40	345.70	29.58	-32.0	-34.6	10.8	1.94e-03	0	43	0	983564288	24	4875
2026-01-18 10:20:21.40	345.66	29.39	-32.2	-35.2	10.4	4.37e-03	0	44	0	985661440	24	5079
2026-01-18 10:20:22.41	345.63	29.20	-32.1	-35.0	10.6	3.69e-03	0	43	0	987758592	24	5010
2026-01-18 10:20:23.41	345.59	29.02	-32.1	-35.0	10.4	3.60e-03	0	43	0	989855744	24	5025
2026-01-18 10:20:24.42	345.56	28.84	-32.2	-35.4	10.2	4.58e-03	0	43	0	990904320	24	5177
2026-01-18 10:20:25.42	345.52	28.65	-32.5	-36.2	9.7	9.33e-03	0	43	0	993001472	24	5544
2026-01-18 10:20:26.42	345.49	28.47	-32.6	-36.1	9.4	1.42e-02	0	44	0	995098624	25	5406
2026-01-18 10:20:27.42	345.45	28.30	-32.4	-35.6	9.7	1.29e-02	0	43	0	997195776	25	5193
2026-01-18 10:20:28.42	345.42	28.12	-32.2	-34.9	10.2	7.88e-03	0	43	0	998244352	25	4902
2026-01-18 10:20:29.43	345.38	27.94	-32.3	-35.0	10.1	6.19e-03	0	43	0	1000341504	25	4938
2026-01-18 10:20:30.42	345.35	27.77	-31.9	-33.9	10.9	2.32e-03	0	43	0	1002438656	25	4506
2026-01-18 10:20:31.43	345.32	27.59	-31.5	-33.1	11.9	4.98e-04	0	43	0	1004535808	24	4330
2026-01-18 10:20:32.42	345.29	27.42	-31.1	-32.4	12.7	1.67e-04	0	43	0	1006632960	23	4169
2026-01-18 10:20:33.43	345.25	27.24	-30.6	-31.6	13.6	2.59e-05	0	43	0	1008730112	22	4018
2026-01-18 10:20:34.42	345.22	27.07	-30.5	-31.3	13.7	3.80e-06	0	43	0	1009778688	22	3928
2026-01-18 10:20:35.43	345.19	26.90	-30.4	-30.9	14.0	3.80e-06	0	43	0	1011875840	22	3823
2026-01-18 10:20:36.43	345.16	26.73	-30.0	-30.5	14.5	2.20e-06	0	43	0	1013972992	21	3811
2026-01-18 10:20:37.43	345.13	26.57	-29.8	-30.0	14.8	7.00e-07	0	43	0	1016070144	21	3665
2026-01-18 10:20:38.44	345.10	26.40	-29.9	-30.8	14.6	7.00e-07	0	43	0	1017118720	20	3988
2026-01-18 10:20:39.44	345.07	26.23	-29.9	-30.7	14.7	0.00e+00	0	43	0	1019215872	20	3942
2026-01-18 10:20:40.44	345.04	26.07	-30.0	-31.0	14.5	7.00e-07	0	44	0	1021313024	20	4030
2026-01-18 10:20:41.43	345.01	25.90	-30.3	-31.7	14.0	1.50e-06	0	43	0	1023410176	20	4250
2026-01-18 10:20:42.44	344.98	25.74	-30.6	-32.0	13.5	5.30e-06	0	43	0	1025507328	21	4234
2026-01-18 10:20:43.44	344.95	25.58	-31.0	-33.1	12.8	2.13e-05	0	43	0	1026555904	21	4585
2026-01-18 10:20:44.44	344.93	25.42	-31.4	-33.8	12.0	2.93e-04	0	43	0	1028653056	22	4752
2026-01-18 10:20:45.44	344.90	25.26	-31.5	-33.8	11.7	5.50e-04	0	43	0	1030750208	23	4646
2026-01-18 10:20:46.45	344.87	25.10	-31.7	-34.3	11.3	7.40e-04	0	43	0	1032847360	23	4861
2026-01-18 10:20:47.45	344.84	24.94	-31.9	-34.7	11.0	1.62e-03	0	43	0	1034944512	23	4999
2026-01-18 10:20:48.46	344.82	24.78	-31.6	-33.9	11.5	9.61e-04	0	43	0	1035993088	23	4698
2026-01-18 10:20:49.47	344.79	24.62	-31.4	-33.4	11.8	3.13e-04	0	43	0	1038090240	23	4513
2026-01-18 10:20:50.47	344.76	24.47	-31.1	-32.6	12.5	2.06e-04	0	43	0	1040187392	23	4249
2026-01-18 10:20:51.48	344.74	24.31	-31.0	-32.0	12.9	5.18e-05	0	43	0	1042284544	23	4070
2026-01-18 10:20:52.49	344.71	24.16	-30.8	-31.6	13.1	3.89e-05	0	43	0	1044381696	23	3939
2026-01-18 10:20:53.49	344.69	24.00	-30.7	-31.8	13.3	3.66e-05	0	43	0	1045430272	22	4084
2026-01-18 10:20:54.49	344.66	23.85	-30.4	-31.0	13.8	4.50e-06	0	43	0	1047527424	22	3864
2026-01-18 10:20:55.49	344.64	23.70	-30.5	-31.4	13.5	1.22e-05	0	43	0	1049624576	22	3990
2026-01-18 10:20:56.49	344.61	23.55	-30.6	-31.7	13.4	2.44e-05	0	43	0	1051721728	22	4059
2026-01-18 10:20:57.50	344.59	23.40	-30.3	-30.8	13.9	5.30e-06	0	43	0	1053818880	22	3819
2026-01-18 10:20:58.50	344.56	23.25	-30.4	-31.1	13.7	2.20e-06	0	43	0	1054867456	22	3899
2026-01-18 10:20:59.51	344.54	23.10	-30.5	-31.4	13.6	9.90e-06	0	43	0	1056964608	22	3973
2026-01-18 10:21:00.51	344.52	22.96	-30.7	-31.8	13.3	8.30e-06	0	43	0	1059061760	22	4096
2026-01-18 10:21:01.52	344.49	22.81	-30.8	-32.2	13.1	3.20e-05	0	44	0	1061158912	22	4208
2026-01-18 10:21:02.52	344.47	22.67	-30.9	-32.4	12.9	5.26e-05	0	43	0	1062207488	22	4287
2026-01-18 10:21:03.52	344.45	22.52	-31.1	-32.9	12.6	8.62e-05	0	43	0	1064304640	22	4453
2026-01-18 10:21:04.52	344.42	22.38	-30.8	-32.1	13.1	6.33e-05	0	43	0	1066401792	22	4189
2026-01-18 10:21:05.53	344.40	22.23	-30.6	-31.7	13.3	1.98e-05	0	43	0	1068498944	22	4073
2026-01-18 10:21:06.53	344.38	22.09	-30.5	-31.3	13.6	1.52e-05	0	43	0	1070596096	22	3948
2026-01-18 10:21:07.54	344.36	21.95	-30.4	-31.1	13.7	9.10e-06	0	43	0	1071644672	22	3885
2026-01-18 10:21:08.54	344.34	21.81	-30.4	-31.1	13.7	3.00e-06	0	43	0	1073741824	22	3889
2026-01-18 10:21:09.53	344.32	21.67	-30.2	-31.0	13.9	1.50e-06	0	43	0	1075838976	21	3945
2026-01-18 10:21:10.54	344.29	21.53	-30.3	-31.4	13.8	8.30e-06	0	43	0	1077936128	21	4075
2026-01-18 10:21:11.54	344.27	21.39	-30.0	-30.6	14.1	1.50e-06	0	43	0	1080033280	21	3842
2026-01-18 10:21:12.53	344.25	21.26	-29.9	-30.3	14.4	0.00e+00	0	43	0	1081081856	21	3766
2026-01-18 10:21:13.53	344.23	21.12	-30.0	-30.6	14.2	2.20e-06	0	43	0	1083179008	21	3851
2026-01-18 10:21:14.53	344.21	20.99	-30.1	-30.8	14.1	7.00e-07	0	43	0	1085276160	21	3912
2026-01-18 10:21:15.54	344.19	20.85	-30.3	-31.3	13.8	3.80e-06	0	43	0	1087373312	21	4048
2026-01-18 10:21:16.54	344.17	20.72	-30.3	-31.4	13.7	2.20e-06	0	44	0	1089470464	21	4094
2026-01-18 10:21:17.54	344.15	20.58	-30.2	-31.1	13.9	6.80e-06	0	43	0	1090519040	21	3997
2026-01-18 10:21:18.55	344.13	20.45	-30.3	-31.2	13.8	3.00e-06	0	43	0	1092616192	21	4034
2026-01-18 10:21:19.55	344.11	20.32	-30.3	-31.5	13.7	4.50e-06	0	43	0	1094713344	21	4112
2026-01-18 10:21:20.55	344.10	20.19	-30.4	-31.6	13.5	9.10e-06	0	43	0	1096810496	21	4154
2026-01-18 10:21:21.56	344.08	20.05	-30.4	-31.6	13.6	1.52e-05	0	43	0	1098907648	21	4147
2026-01-18 10:21:22.56	344.06	19.92	-30.4	-31.5	13.6	1.37e-05	0	43	0	1099956224	21	4127
2026-01-18 10:21:23.57	344.04	19.79	-30.4	-31.8	13.4	1.75e-05	0	43	0	1102053376	21	4189
2026-01-18 10:21:24.57	344.02	19.67	-30.5	-31.9	13.3	1.67e-05	0	43	0	1104150528	21	4239
2026-01-18 10:21:25.57	344.00	19.54	-30.6	-32.3	13.1	2.44e-05	0	43	0	1106247680	21	4353
2026-01-18 10:21:26.57	343.99	19.41	-30.6	-32.2	13.1	4.27e-05	0	43	0	1107296256	21	4335
2026-01-18 10:21:27.57	343.97	19.28	-30.8	-32.7	13.0	4.04e-05	0	43	0	1109393408	21	4483
2026-01-18 10:21:28.56	343.95	19.16	-30.9	-32.9	12.6	7.70e-05	0	43	0	1111490560	21	4580
2026-01-18 10:21:29.57	343.93	19.03	-30.8	-32.7	12.8	3.73e-05	0	43	0	1113587712	21	4483
2026-01-18 10:21:30.57	343.92	18.91	-30.9	-33.2	12.4	6.48e-05	0	43	0	1115684864	21	4669
2026-01-18 10:21:31.57	343.90	18.78	-31.0	-32.7	12.5	1.52e-04	0	43	0	1116733440	22	4416
2026-01-18 10:21:32.57	343.88	18.66	-31.0	-32.8	12.4	1.30e-04	0	43	0	1118830592	22	4449
2026-01-18 10:21:33.57	343.87	18.54	-31.3	-33.8	11.7	3.03e-04	0	43	0	1120927744	22	4786
2026-01-18 10:21:34.58	343.85	18.41	-31.3	-33.8	11.8	4.13e-04	0	43	0	1123024896	22	4787
2026-01-18 10:21:35.58	343.83	18.29	-31.5	-33.9	11.2	7.09e-04	0	43	0	1125122048	23	4741
2026-01-18 10:21:36.58	343.82	18.17	-31.5	-33.8	11.3	1.19e-03	0	44	0	1126170624	23	4713
2026-01-18 10:21:37.59	343.80	18.05	-31.6	-34.2	11.0	1.22e-03	0	43	0	1128267776	23	4863
2026-01-18 10:21:38.60	343.79	17.93	-31.6	-34.3	11.0	2.09e-03	0	43	0	1130364928	23	4886
2026-01-18 10:21:39.60	343.77	17.81	-31.7	-34.6	10.8	2.49e-03	0	43	0	1132462080	23	5006
2026-01-18 10:21:40.61	343.75	17.69	-31.8	-35.0	10.4	4.26e-03	0	43	0	1134559232	23	5171
2026-01-18 10:21:41.61	343.74	17.57	-31.9	-35.1	10.3	4.10e-03	0	43	0	1135607808	23	5243
2026-01-18 10:21:42.62	343.72	17.45	-31.9	-35.3	10.1	5.26e-03	0	43	0	1137704960	23	5326
2026-01-18 10:21:43.62	343.71	17.33	-31.8	-34.7	10.6	3.89e-03	0	43	0	1139802112	23	5058
2026-01-18 10:21:44.62	343.69	17.22	-31.8	-35.0	10.4	4.50e-03	0	43	0	1141899264	23	5171
2026-01-18 10:21:45.62	343.68	17.10	-31.8	-34.8	10.5	4.12e-03	0	43	0	1143996416	23	5120
2026-01-18 10:21:46.62	343.67	16.99	-31.8	-34.7	10.6	3.22e-03	0	43	0	1145044992	23	5068
2026-01-18 10:21:47.62	343.65	16.87	-31.7	-34.4	10.8	3.14e-03	0	43	0	1147142144	23	4948
2026-01-18 10:21:48.62	343.64	16.76	-31.4	-33.7	11.3	2.13e-03	0	43	0	1149239296	23	4684
2026-01-18 10:21:49.63	343.62	16.64	-31.3	-33.2	11.7	7.62e-04	0	43	0	1151336448	23	4496
2026-01-18 10:21:50.63	343.61	16.53	-31.4	-33.5	11.4	8.27e-04	0	43	0	1153433600	23	4608
2026-01-18 10:21:51.63	343.59	16.42	-31.2	-33.0	11.8	7.74e-04	0	43	0	1154482176	23	4425
2026-01-18 10:21:52.63	343.58	16.31	-31.2	-33.1	11.7	4.38e-04	0	43	0	1156579328	23	4460
2026-01-18 10:21:53.63	343.57	16.19	-31.2	-32.9	11.9	4.94e-04	0	43	0	1158676480	23	4398
2026-01-18 10:21:54.64	343.55	16.08	-30.9	-32.2	12.3	2.78e-04	0	43	0	1160773632	23	4157
2026-01-18 10:21:55.65	343.54	15.97	-31.0	-32.3	12.2	1.63e-04	0	43	0	1161822208	23	4206
2026-01-18 10:21:56.65	343.53	15.86	-30.9	-32.2	12.3	1.17e-04	0	43	0	1163919360	23	4187
2026-01-18 10:21:57.66	343.51	15.75	-30.8	-32.3	12.6	1.40e-04	0	43	0	1166016512	22	4275
2026-01-18 10:21:58.66	343.50	15.64	-30.9	-32.7	12.3	1.46e-04	0	43	0	1168113664	22	4409
2026-01-18 10:21:59.66	343.49	15.53	-30.9	-32.8	12.2	2.04e-04	0	43	0	1170210816	22	4448
2026-01-18 10:22:00.66	343.48	15.42	-30.9	-32.8	12.2	1.40e-04	0	43	0	1171259392	22	4453
2026-01-18 10:22:01.67	343.46	15.31	-30.9	-32.8	12.3	1.85e-04	0	43	0	1173356544	22	4441
2026-01-18 10:22:02.67	343.45	15.21	-30.9	-32.7	12.2	2.31e-04	0	43	0	1175453696	22	4433
2026-01-18 10:22:03.68	343.44	15.10	-31.1	-33.1	12.0	3.14e-04	0	43	0	1177550848	22	4565
2026-01-18 10:22:04.68	343.43	14.99	-31.1	-33.2	11.9	3.03e-04	0	43	0	1179648000	22	4602
2026-01-18 10:22:05.68	343.41	14.89	-31.1	-33.3	11.9	4.33e-04	0	43	0	1180696576	22	4613
2026-01-18 10:22:06.69	343.40	14.78	-31.1	-33.4	11.8	4.41e-04	0	43	0	1182793728	22	4658
2026-01-18 10:22:07.69	343.39	14.68	-31.2	-33.6	11.6	5.08e-04	0	43	0	1184890880	22	4746
2026-01-18 10:22:08.69	343.38	14.57	-31.2	-33.6	11.7	5.39e-04	0	43	0	1186988032	22	4730
2026-01-18 10:22:09.70	343.37	14.47	-31.2	-33.7	11.6	7.70e-04	0	43	0	1189085184	22	4771
2026-01-18 10:22:10.70	343.35	14.36	-31.3	-33.8	11.4	9.27e-04	0	43	0	1190133760	22	4830
2026-01-18 10:22:11.70	343.34	14.26	-31.4	-34.1	11.3	9.44e-04	0	43	0	1192230912	22	4910
2026-01-18 10:22:12.70	343.33	14.16	-31.4	-34.3	11.0	1.33e-03	0	44	0	1194328064	22	5024
2026-01-18 10:22:13.70	343.32	14.05	-31.4	-34.1	11.2	1.32e-03	0	43	0	1196425216	22	4941
2026-01-18 10:22:14.71	343.31	13.95	-31.3	-34.0	11.3	1.28e-03	0	43	0	1198522368	22	4895
2026-01-18 10:22:15.71	343.30	13.85	-31.4	-34.2	11.1	1.12e-03	0	43	0	1199570944	22	4983
2026-01-18 10:22:16.71	343.29	13.75	-31.4	-34.1	11.2	1.44e-03	0	43	0	1201668096	22	4950
2026-01-18 10:22:17.72	343.28	13.65	-31.4	-34.3	11.1	1.59e-03	0	43	0	1203765248	22	5016
2026-01-18 10:22:18.72	343.27	13.55	-31.4	-33.9	11.0	2.59e-03	0	43	0	1205862400	23	4760
2026-01-18 10:22:19.72	343.25	13.45	-31.4	-33.7	11.1	2.01e-03	0	43	0	1207959552	23	4713
2026-01-18 10:22:20.73	343.24	13.35	-31.4	-33.9	10.9	1.42e-03	0	44	0	1209008128	23	4790
2026-01-18 10:22:21.73	343.23	13.25	-31.3	-33.4	11.1	1.65e-03	0	43	0	1211105280	23	4605
2026-01-18 10:22:22.73	343.22	13.15	-31.3	-33.5	11.2	1.58e-03	0	43	0	1213202432	23	4642
2026-01-18 10:22:23.73	343.21	13.05	-31.3	-33.6	11.1	1.55e-03	0	43	0	1215299584	23	4664
2026-01-18 10:22:24.74	343.20	12.95	-31.4	-33.7	11.0	1.29e-03	0	44	0	1217396736	23	4722
2026-01-18 10:22:25.74	343.19	12.86	-31.3	-33.6	11.1	2.22e-03	0	44	0	1218445312	23	4680
2026-01-18 10:22:26.75	343.18	12.76	-31.2	-33.1	11.5	9.56e-04	0	43	0	1220542464	23	4482
2026-01-18 10:22:27.75	343.17	12.66	-31.1	-33.0	11.5	8.37e-04	0	44	0	1222639616	23	4464
2026-01-18 10:22:28.75	343.16	12.57	-31.1	-32.8	11.6	8.99e-04	0	43	0	1224736768	23	4408
2026-01-18 10:22:29.75	343.15	12.47	-31.2	-33.2	11.4	1.12e-03	0	43	0	1225785344	23	4543
2026-01-18 10:22:30.75	343.14	12.37	-31.1	-33.0	11.5	7.29e-04	0	43	0	1227882496	23	4451
2026-01-18 10:22:31.76	343.13	12.28	-31.1	-33.0	11.5	7.68e-04	0	43	0	1229979648	23	4486
2026-01-18 10:22:32.76	343.13	12.18	-31.1	-33.0	11.5	1.06e-03	0	43	0	1232076800	23	4476
2026-01-18 10:22:33.76	343.12	12.09	-31.1	-33.0	11.6	7.29e-04	0	43	0	1234173952	23	4455
2026-01-18 10:22:34.76	343.11	12.00	-31.2	-33.1	11.4	7.16e-04	0	43	0	1235222528	23	4516
2026-01-18 10:22:35.77	343.10	11.90	-31.1	-33.1	11.4	7.48e-04	0	43	0	1237319680	23	4494
2026-01-18 10:22:36.77	343.09	11.81	-31.1	-33.0	11.5	9.27e-04	0	43	0	1239416832	23	4488
2026-01-18 10:22:37.77	343.08	11.71	-31.2	-33.3	11.2	9.17e-04	0	43	0	1241513984	23	4578
2026-01-18 10:22:38.78	343.07	11.62	-31.1	-33.1	11.4	1.17e-03	0	43	0	1243611136	23	4499
2026-01-18 10:22:39.78	343.06	11.53	-31.1	-32.9	11.5	7.35e-04	0	43	0	1244659712	23	4433
2026-01-18 10:22:40.78	343.05	11.44	-31.2	-33.2	11.3	8.84e-04	0	43	0	1246756864	23	4527
2026-01-18 10:22:41.79	343.04	11.34	-31.0	-32.8	11.6	1.16e-03	0	43	0	1248854016	23	4401
2026-01-18 10:22:42.79	343.04	11.25	-31.2	-33.2	11.3	1.05e-03	0	43	0	1250951168	23	4549
2026-01-18 10:22:43.79	343.03	11.16	-31.2	-33.1	11.3	1.07e-03	0	44	0	1253048320	23	4520
2026-01-18 10:22:44.80	343.02	11.07	-31.1	-32.9	11.5	8.97e-04	0	43	0	1254096896	23	4435
2026-01-18 10:22:45.81	343.01	10.98	-30.9	-32.4	11.8	6.27e-04	0	43	0	1256194048	23	4278
2026-01-18 10:22:46.80	343.00	10.89	-31.0	-32.5	11.7	6.73e-04	0	43	0	1258291200	23	4326
2026-01-18 10:22:47.80	342.99	10.80	-31.0	-32.6	11.6	6.76e-04	0	43	0	1260388352	23	4357
2026-01-18 10:22:48.81	342.99	10.71	-31.0	-32.6	11.6	4.84e-04	0	43	0	1262485504	23	4360
2026-01-18 10:22:49.80	342.98	10.62	-31.0	-32.6	11.6	7.42e-04	0	43	0	1263534080	23	4345
2026-01-18 10:22:50.80	342.97	10.54	-31.0	-32.8	11.5	5.58e-04	0	43	0	1265631232	23	4420
2026-01-18 10:22:51.80	342.96	10.45	-30.9	-32.6	11.6	6.75e-04	0	43	0	1267728384	23	4337
2026-01-18 10:22:52.81	342.95	10.36	-31.0	-32.6	11.6	4.68e-04	0	43	0	1269825536	23	4349
2026-01-18 10:22:53.81	342.95	10.27	-30.8	-32.2	11.9	4.86e-04	0	43	0	1270874112	23	4224
2026-01-18 10:22:54.81	342.94	10.18	-31.0	-32.8	11.5	9.47e-04	0	43	0	1272971264	23	4401
2026-01-18 10:22:55.81	342.93	10.10	-30.9	-32.5	11.6	7.88e-04	0	43	0	1275068416	23	4334
2026-01-18 10:22:56.82	342.92	10.01	-30.9	-32.4	11.8	5.37e-04	0	43	0	1277165568	23	4275
2026-01-18 10:22:57.82	342.92	9.92	-30.9	-32.4	11.7	6.42e-04	0	43	0	1279262720	23	4302
2026-01-18 10:22:58.82	342.91	9.84	-30.8	-32.6	12.0	5.52e-04	0	43	0	1280311296	22	4424
