passes_logs/2026/01/08/PlanumMoscow/PlanumMoscow__20260108_081012_METEOR-M2_3_rec.log

#Pass ID: 20260108_081012_METEOR-M2 3
#Satellite: METEOR-M2 3
#Configuration: METEOR-M2 3
#Start time: 2026-01-08 08:10:17.285402

#LorettStation: 1.0.0 05.05.2024
#Station: PlanumMoscow
#Location: 37.6253844 lon 55.6713361 lat
#TLE: 1 57166U 23091A   25293.99389264  .00000062  00000+0  46113-4 0  9997
#TLE: 2 57166  98.6457 348.4330 0004759 135.3141 224.8422 14.24016546120475

#Time	Az	El	Level	SNR
2026-01-08 08:13:59.945904	354.6	27.8	-62.2	8.5
2026-01-08 08:14:01.063660	354.4	28.0	-63.3	11.8
2026-01-08 08:14:02.178911	354.2	28.1	-63.4	9.5
2026-01-08 08:14:03.294170	354.1	28.3	-64.0	10.3
2026-01-08 08:14:04.411430	353.9	28.5	-64.2	12.3
2026-01-08 08:14:05.527186	353.7	28.7	-64.1	11.6
2026-01-08 08:14:06.643437	353.5	28.8	-64.3	11.0
2026-01-08 08:14:07.760192	353.3	29.0	-64.0	11.6
2026-01-08 08:14:08.877444	353.1	29.2	-63.2	10.2
2026-01-08 08:14:09.994704	352.9	29.4	-63.9	13.0
2026-01-08 08:14:11.110955	352.7	29.5	-62.2	10.0
2026-01-08 08:14:12.227711	352.5	29.7	-62.5	9.8
2026-01-08 08:14:13.346963	352.2	29.9	-64.2	12.4
2026-01-08 08:14:14.466215	352.0	30.1	-64.2	12.5
2026-01-08 08:14:15.584467	351.8	30.2	-62.9	11.6
2026-01-08 08:14:16.703223	351.6	30.4	-63.2	9.9
2026-01-08 08:14:17.820484	351.4	30.6	-64.9	12.6
2026-01-08 08:14:18.940736	351.1	30.8	-62.9	10.7
2026-01-08 08:14:20.061998	350.9	31.0	-64.6	13.3
2026-01-08 08:14:21.179250	350.7	31.2	-63.4	12.0
2026-01-08 08:14:22.298514	350.5	31.3	-64.1	13.4
2026-01-08 08:14:23.414269	350.2	31.5	-63.6	12.2
2026-01-08 08:14:24.530529	350.0	31.7	-63.8	12.6
2026-01-08 08:14:25.648294	349.8	31.9	-63.6	11.9
2026-01-08 08:14:26.769052	349.5	32.1	-62.0	9.9
2026-01-08 08:14:27.887312	349.3	32.3	-64.1	12.2
2026-01-08 08:14:29.009573	349.0	32.5	-63.6	10.6
2026-01-08 08:14:30.131331	348.8	32.6	-63.7	13.6
2026-01-08 08:14:31.253584	348.5	32.8	-64.7	14.0
2026-01-08 08:14:32.372844	348.3	33.0	-64.2	12.1
2026-01-08 08:14:33.495097	348.0	33.2	-63.7	12.3
2026-01-08 08:14:34.616854	347.7	33.4	-64.0	12.6
2026-01-08 08:14:35.739107	347.5	33.6	-64.6	13.0
2026-01-08 08:14:36.861359	347.2	33.8	-64.6	13.3
2026-01-08 08:14:37.983612	346.9	34.0	-64.8	12.8
2026-01-08 08:14:39.104874	346.6	34.2	-64.5	11.8
2026-01-08 08:14:40.226631	346.4	34.4	-64.6	11.9
2026-01-08 08:14:41.348388	346.1	34.6	-65.2	13.7
2026-01-08 08:14:42.470641	345.8	34.8	-65.4	14.4
2026-01-08 08:14:43.592397	345.5	35.0	-65.0	13.7
2026-01-08 08:14:44.715163	345.2	35.2	-64.5	13.3
2026-01-08 08:14:45.836920	344.9	35.3	-63.4	10.3
2026-01-08 08:14:46.958181	344.6	35.5	-63.9	11.6
2026-01-08 08:14:48.079938	344.3	35.7	-65.3	13.7
2026-01-08 08:14:49.201696	344.0	35.9	-64.7	12.2
2026-01-08 08:14:50.322948	343.7	36.1	-65.2	12.8
2026-01-08 08:14:51.439208	343.4	36.3	-65.1	13.0
2026-01-08 08:14:52.556964	343.0	36.5	-64.9	11.1
2026-01-08 08:14:53.675216	342.7	36.7	-65.6	12.8
2026-01-08 08:14:54.797973	342.4	36.9	-65.3	11.4
2026-01-08 08:14:55.919730	342.1	37.1	-65.1	11.9
2026-01-08 08:14:57.041487	341.7	37.3	-65.8	12.3
2026-01-08 08:14:58.163252	341.4	37.5	-65.4	12.2
2026-01-08 08:14:59.285009	341.0	37.7	-66.3	13.1
2026-01-08 08:15:00.403261	340.7	37.9	-65.9	12.3
2026-01-08 08:15:01.521512	340.3	38.1	-65.9	12.7
2026-01-08 08:15:02.641765	340.0	38.3	-66.2	13.2
2026-01-08 08:15:03.760017	339.6	38.5	-66.4	12.5
2026-01-08 08:15:04.881269	339.3	38.7	-65.8	12.8
2026-01-08 08:15:06.003522	338.9	38.9	-64.9	10.2
2026-01-08 08:15:07.124818	338.5	39.1	-66.5	13.1
2026-01-08 08:15:08.246079	338.1	39.3	-66.6	13.4
2026-01-08 08:15:09.366331	337.7	39.5	-65.9	12.0
2026-01-08 08:15:10.492089	337.3	39.7	-65.2	12.1
2026-01-08 08:15:11.611845	337.0	39.9	-66.4	12.7
2026-01-08 08:15:12.734098	336.6	40.1	-66.0	12.0
2026-01-08 08:15:13.855864	336.2	40.3	-66.4	12.1
2026-01-08 08:15:14.977125	335.7	40.4	-65.5	11.4
2026-01-08 08:15:16.097882	335.3	40.6	-65.8	11.8
2026-01-08 08:15:17.218134	334.9	40.8	-65.7	11.6
2026-01-08 08:15:18.338395	334.5	41.0	-66.5	13.5
2026-01-08 08:15:19.459648	334.1	41.2	-65.4	12.2
2026-01-08 08:15:20.580900	333.6	41.4	-66.5	13.4
2026-01-08 08:15:21.700657	333.2	41.6	-66.4	14.3
2026-01-08 08:15:22.822910	332.7	41.8	-65.0	11.6
2026-01-08 08:15:23.944667	332.3	42.0	-66.1	13.1
2026-01-08 08:15:25.064919	331.8	42.2	-65.5	10.6
2026-01-08 08:15:26.182171	331.4	42.3	-65.7	12.8
2026-01-08 08:15:27.301927	330.9	42.5	-66.5	14.3
2026-01-08 08:15:28.421179	330.4	42.7	-66.2	12.4
2026-01-08 08:15:29.543937	330.0	42.9	-66.5	14.1
2026-01-08 08:15:30.664197	329.5	43.1	-66.4	14.0
2026-01-08 08:15:31.784459	329.0	43.2	-65.9	12.7
2026-01-08 08:15:32.902223	328.5	43.4	-66.4	13.2
2026-01-08 08:15:34.019980	328.0	43.6	-66.1	12.0
2026-01-08 08:15:35.140736	327.5	43.8	-65.9	13.1
2026-01-08 08:15:36.262493	327.0	43.9	-66.6	14.2
2026-01-08 08:15:37.384250	326.5	44.1	-65.9	12.1
2026-01-08 08:15:38.503502	326.0	44.3	-66.5	13.8
2026-01-08 08:15:39.624258	325.4	44.4	-66.6	14.0
2026-01-08 08:15:40.743510	324.9	44.6	-65.9	13.3
2026-01-08 08:15:41.862771	324.4	44.8	-66.2	13.7
2026-01-08 08:15:42.986529	323.8	44.9	-66.1	13.7
2026-01-08 08:15:44.107791	323.3	45.1	-66.0	13.0
2026-01-08 08:15:45.229044	322.7	45.2	-66.2	12.6
2026-01-08 08:15:46.350296	322.2	45.4	-66.0	12.1
2026-01-08 08:15:47.471053	321.6	45.5	-66.7	12.6
2026-01-08 08:15:48.590818	321.0	45.7	-66.2	12.0
2026-01-08 08:15:49.713071	320.5	45.8	-66.5	12.0
2026-01-08 08:15:50.836836	319.9	46.0	-66.0	11.7
2026-01-08 08:15:51.957097	319.3	46.1	-66.4	11.8
2026-01-08 08:15:53.075853	318.7	46.3	-65.7	10.1
2026-01-08 08:15:54.195609	318.1	46.4	-65.7	9.5
2026-01-08 08:15:55.316374	317.5	46.5	-66.6	12.2
2026-01-08 08:15:56.437627	316.9	46.6	-66.3	11.7
2026-01-08 08:15:57.557879	316.3	46.8	-66.1	11.2
2026-01-08 08:15:58.680132	315.7	46.9	-66.2	11.3
2026-01-08 08:15:59.800889	315.0	47.0	-66.0	9.7
2026-01-08 08:16:00.923141	314.4	47.1	-65.5	8.7
2026-01-08 08:16:02.044420	313.8	47.2	-66.3	10.7
2026-01-08 08:16:03.166672	313.2	47.3	-65.8	11.9
2026-01-08 08:16:04.288429	312.5	47.4	-66.0	11.8
2026-01-08 08:16:05.410682	311.9	47.5	-66.2	11.6
2026-01-08 08:16:06.531943	311.2	47.6	-66.1	12.4
2026-01-08 08:16:07.652709	310.6	47.7	-65.8	12.2
2026-01-08 08:16:08.773970	309.9	47.8	-66.0	12.6
2026-01-08 08:16:09.895728	309.3	47.9	-65.8	12.4
2026-01-08 08:16:11.017485	308.6	48.0	-65.6	11.1
2026-01-08 08:16:12.139242	307.9	48.1	-65.8	12.3
2026-01-08 08:16:13.261494	307.3	48.1	-65.5	11.8
2026-01-08 08:16:14.381764	306.6	48.2	-66.3	12.2
2026-01-08 08:16:15.502529	305.9	48.3	-65.0	9.5
2026-01-08 08:16:16.623790	305.2	48.3	-66.1	11.3
2026-01-08 08:16:17.743042	304.6	48.4	-65.0	8.2
2026-01-08 08:16:18.864295	303.9	48.4	-65.1	9.6
2026-01-08 08:16:19.986051	303.2	48.5	-65.6	9.5
2026-01-08 08:16:21.105808	302.5	48.5	-65.8	10.5
2026-01-08 08:16:22.225564	301.8	48.6	-65.8	11.8
2026-01-08 08:16:23.344321	301.1	48.6	-66.2	11.1
2026-01-08 08:16:24.464573	300.4	48.6	-66.5	12.5
2026-01-08 08:16:25.585330	299.7	48.7	-65.5	10.6
2026-01-08 08:16:26.703086	299.1	48.7	-66.2	11.9
2026-01-08 08:16:27.826348	298.4	48.7	-66.0	11.8
2026-01-08 08:16:28.948105	297.7	48.7	-66.2	12.0
2026-01-08 08:16:30.067357	297.0	48.7	-65.7	11.6
2026-01-08 08:16:31.186609	296.3	48.7	-65.3	11.6
2026-01-08 08:16:32.307366	295.6	48.7	-65.5	12.0
2026-01-08 08:16:33.427618	294.9	48.7	-65.9	12.3
2026-01-08 08:16:34.547374	294.2	48.7	-64.8	11.9
2026-01-08 08:16:35.667131	293.5	48.7	-63.6	9.1
2026-01-08 08:16:36.784887	292.8	48.7	-64.5	10.3
2026-01-08 08:16:37.903139	292.1	48.6	-64.8	9.3
2026-01-08 08:16:39.023896	291.4	48.6	-64.5	9.7
2026-01-08 08:16:40.142157	290.7	48.6	-65.5	12.1
2026-01-08 08:16:41.260417	290.0	48.5	-64.5	9.6
2026-01-08 08:16:42.379669	289.3	48.5	-65.2	11.5
2026-01-08 08:16:43.500435	288.7	48.4	-65.2	10.9
2026-01-08 08:16:44.621696	288.0	48.4	-65.3	11.4
2026-01-08 08:16:45.742949	287.3	48.3	-65.5	11.1
2026-01-08 08:16:46.861201	286.6	48.3	-65.5	11.6
2026-01-08 08:16:47.981461	285.9	48.2	-65.6	11.5
2026-01-08 08:16:49.101713	285.3	48.1	-66.0	11.7
2026-01-08 08:16:50.219965	284.6	48.1	-65.7	10.4
2026-01-08 08:16:51.338217	283.9	48.0	-66.0	12.2
2026-01-08 08:16:52.455973	283.3	47.9	-65.5	10.9
2026-01-08 08:16:53.573737	282.6	47.8	-65.5	11.9
2026-01-08 08:16:54.690492	282.0	47.7	-65.3	11.2
2026-01-08 08:16:55.809744	281.3	47.7	-65.0	9.2
2026-01-08 08:16:56.927004	280.7	47.6	-65.3	11.6
2026-01-08 08:16:58.045256	280.0	47.5	-65.1	10.9
2026-01-08 08:16:59.167518	279.4	47.4	-65.1	12.3
2026-01-08 08:17:00.284273	278.7	47.2	-65.1	10.9
2026-01-08 08:17:01.402030	278.1	47.1	-65.0	11.5
2026-01-08 08:17:02.522282	277.5	47.0	-66.0	12.8
2026-01-08 08:17:03.641543	276.9	46.9	-65.9	12.8
2026-01-08 08:17:04.760804	276.2	46.8	-65.5	12.0
2026-01-08 08:17:05.880056	275.6	46.7	-65.1	11.6
2026-01-08 08:17:06.999812	275.0	46.5	-66.0	12.3
2026-01-08 08:17:08.117580	274.4	46.4	-65.8	11.3
2026-01-08 08:17:09.234336	273.8	46.3	-65.7	11.3
2026-01-08 08:17:10.353101	273.2	46.1	-65.2	10.4
2026-01-08 08:17:11.471858	272.7	46.0	-65.4	11.0
2026-01-08 08:17:12.589110	272.1	45.9	-66.0	11.4
2026-01-08 08:17:13.706865	271.5	45.7	-64.8	10.6
2026-01-08 08:17:14.828118	270.9	45.6	-65.5	11.1
2026-01-08 08:17:15.947370	270.4	45.4	-64.7	9.7
2026-01-08 08:17:17.069127	269.8	45.3	-64.9	10.1
2026-01-08 08:17:18.191380	269.2	45.1	-65.0	10.0
2026-01-08 08:17:19.312146	268.7	44.9	-64.5	11.1
2026-01-08 08:17:20.434398	268.1	44.8	-62.8	6.9
2026-01-08 08:17:21.556159	267.6	44.6	-63.7	8.1
2026-01-08 08:17:22.677422	267.1	44.5	-64.5	9.6
2026-01-08 08:17:23.799179	266.5	44.3	-64.7	9.2
2026-01-08 08:17:24.920440	266.0	44.1	-65.0	10.2
2026-01-08 08:17:26.042196	265.5	44.0	-64.2	9.1
2026-01-08 08:17:27.163953	265.0	43.8	-65.4	10.1
2026-01-08 08:17:28.283727	264.5	43.6	-64.7	10.6
2026-01-08 08:17:29.405980	264.0	43.4	-65.0	10.4
2026-01-08 08:17:30.527737	263.5	43.3	-65.1	12.7
2026-01-08 08:17:31.648502	263.0	43.1	-63.6	7.8
2026-01-08 08:17:32.769762	262.5	42.9	-65.0	10.6
2026-01-08 08:17:33.889519	262.0	42.7	-63.8	10.1
2026-01-08 08:17:35.010276	261.6	42.5	-65.2	11.4
2026-01-08 08:17:36.131536	261.1	42.3	-63.8	8.6
2026-01-08 08:17:37.249797	260.6	42.2	-63.7	6.3
2026-01-08 08:17:38.370049	260.2	42.0	-63.7	9.9
2026-01-08 08:17:39.489301	259.7	41.8	-63.9	9.8
2026-01-08 08:17:40.608553	259.3	41.6	-63.7	7.1
2026-01-08 08:17:41.730310	258.8	41.4	-63.1	6.7
2026-01-08 08:17:42.855067	258.4	41.2	-64.0	9.1
2026-01-08 08:17:43.974320	258.0	41.0	-63.4	10.1
2026-01-08 08:17:45.095572	257.5	40.8	-63.3	8.9
2026-01-08 08:17:46.216338	257.1	40.6	-61.7	6.4
2026-01-08 08:17:47.334598	256.7	40.4	-63.2	7.8
2026-01-08 08:17:48.455860	256.3	40.3	-62.2	5.0
2026-01-08 08:17:49.576625	255.9	40.1	-62.3	6.9
2026-01-08 08:17:50.695886	255.5	39.9	-62.4	6.2
2026-01-08 08:17:51.816147	255.1	39.7	-62.9	9.1
2026-01-08 08:17:52.935904	254.7	39.5	-63.5	7.8
2026-01-08 08:17:54.056660	254.3	39.3	-62.7	7.3
2026-01-08 08:17:55.178913	253.9	39.1	-62.8	8.7
2026-01-08 08:17:56.299669	253.6	38.9	-63.0	8.8
2026-01-08 08:17:57.419426	253.2	38.7	-63.4	8.8
2026-01-08 08:17:58.541182	252.8	38.5	-63.8	9.4
2026-01-08 08:17:59.661939	252.4	38.3	-63.1	8.2
2026-01-08 08:18:00.783192	252.1	38.1	-62.9	7.0
2026-01-08 08:18:01.902948	251.7	37.9	-61.9	6.5
2026-01-08 08:18:03.021704	251.4	37.7	-64.1	9.1
2026-01-08 08:18:04.143462	251.0	37.5	-63.0	7.6
2026-01-08 08:18:05.264227	250.7	37.3	-62.4	7.1
2026-01-08 08:18:06.384984	250.4	37.1	-60.9	4.4
2026-01-08 08:18:07.505236	250.0	36.9	-61.6	4.4
2026-01-08 08:18:08.626489	249.7	36.7	-61.0	5.5
2026-01-08 08:18:09.748245	249.4	36.5	-60.7	6.2
2026-01-08 08:18:10.870498	249.0	36.3	-61.0	5.4
2026-01-08 08:18:11.991751	248.7	36.1	-61.6	6.8
2026-01-08 08:18:13.112507	248.4	35.9	-61.4	4.4
2026-01-08 08:18:14.233759	248.1	35.7	-60.8	2.6
2026-01-08 08:18:15.354516	247.8	35.5	-61.9	6.4
2026-01-08 08:18:16.476769	247.5	35.3	-62.0	6.8
2026-01-08 08:18:17.596021	247.2	35.1	-61.2	7.5
2026-01-08 08:18:18.715778	246.9	34.9	-61.0	5.9
2026-01-08 08:18:19.836543	246.6	34.7	-59.6	3.4
2026-01-08 08:18:20.958795	246.3	34.5	-59.3	3.6
2026-01-08 08:18:22.078561	246.0	34.3	-60.9	6.9
2026-01-08 08:18:23.199814	245.7	34.2	-61.2	5.8
2026-01-08 08:18:24.321075	245.5	34.0	-60.8	3.8
2026-01-08 08:18:25.441336	245.2	33.8	-62.8	6.9
2026-01-08 08:18:26.561092	244.9	33.6	-62.2	5.7
2026-01-08 08:18:27.682344	244.7	33.4	-63.1	7.4
2026-01-08 08:18:28.802605	244.4	33.2	-60.4	6.0
2026-01-08 08:18:29.922362	244.1	33.0	-60.5	6.1
2026-01-08 08:18:31.043614	243.9	32.8	-59.4	2.9
2026-01-08 08:18:32.165372	243.6	32.6	-62.0	5.6
2026-01-08 08:18:33.287634	243.4	32.4	-61.7	5.5
2026-01-08 08:18:34.407903	243.1	32.2	-62.4	5.0
2026-01-08 08:18:35.529668	242.9	32.0	-61.9	3.9
2026-01-08 08:18:36.649929	242.6	31.9	-60.9	0.6
2026-01-08 08:18:37.769707	242.4	31.7	-61.7	5.4
2026-01-08 08:18:38.891960	242.1	31.5	-62.2	5.8
2026-01-08 08:18:40.014213	241.9	31.3	-61.7	5.6
2026-01-08 08:18:41.134474	241.7	31.1	-60.8	5.2
2026-01-08 08:18:42.255735	241.4	30.9	-61.0	2.5
2026-01-08 08:18:43.377501	241.2	30.7	-62.2	6.3
2026-01-08 08:18:44.498762	241.0	30.6	-61.4	3.4
2026-01-08 08:18:45.621015	240.8	30.4	-60.8	7.2
2026-01-08 08:18:46.741782	240.5	30.2	-60.7	4.5
2026-01-08 08:18:47.863539	240.3	30.0	-60.0	5.9
2026-01-08 08:18:48.985792	240.1	29.8	-59.9	1.4
2026-01-08 08:18:50.107549	239.9	29.6	-59.3	1.4
2026-01-08 08:18:51.229802	239.7	29.5	-57.5	0.0
2026-01-08 08:18:52.351558	239.5	29.3	-59.8	5.0
2026-01-08 08:18:53.473316	239.3	29.1	-59.5	3.5
2026-01-08 08:18:54.595568	239.1	28.9	-58.4	0.4
2026-01-08 08:18:55.716830	238.9	28.8	-58.3	2.6
2026-01-08 08:18:56.839588	238.7	28.6	-58.1	0.8
2026-01-08 08:18:57.961841	238.5	28.4	-58.7	0.0
2026-01-08 08:18:59.084093	238.3	28.2	-59.2	0.0
2026-01-08 08:19:00.203354	238.1	28.1	-59.1	5.4
2026-01-08 08:19:01.324606	237.9	27.9	-58.5	1.4
2026-01-08 08:19:02.445363	237.7	27.7	-60.7	0.0
2026-01-08 08:19:03.566615	237.5	27.5	-61.6	6.6
2026-01-08 08:19:04.687372	237.3	27.4	-61.3	4.7
2026-01-08 08:19:05.808625	237.1	27.2	-60.6	4.1
2026-01-08 08:19:06.927885	237.0	27.0	-58.1	2.1
2026-01-08 08:19:08.047146	236.8	26.9	-60.8	5.6
2026-01-08 08:19:09.166407	236.6	26.7	-60.7	5.6
2026-01-08 08:19:10.286669	236.4	26.5	-59.8	0.0
2026-01-08 08:19:11.409426	236.3	26.4	-58.8	0.1
2026-01-08 08:19:12.530183	236.1	26.2	-61.3	6.3
2026-01-08 08:19:13.647939	235.9	26.0	-60.5	4.1
2026-01-08 08:19:14.768696	235.8	25.9	-61.2	2.2
2026-01-08 08:19:15.887452	235.6	25.7	-59.1	3.8
2026-01-08 08:19:17.008713	235.4	25.5	-60.1	5.7
2026-01-08 08:19:18.127469	235.3	25.4	-60.9	4.7
2026-01-08 08:19:19.247225	235.1	25.2	-60.5	5.3
2026-01-08 08:19:20.366982	234.9	25.1	-61.6	6.4
2026-01-08 08:19:21.488234	234.8	24.9	-60.7	6.1
2026-01-08 08:19:22.610487	234.6	24.7	-60.7	4.7
2026-01-08 08:19:23.730252	234.5	24.6	-60.2	1.4
2026-01-08 08:19:24.851009	234.3	24.4	-61.8	6.6
2026-01-08 08:19:25.972262	234.2	24.3	-60.9	3.9
2026-01-08 08:19:27.092027	234.0	24.1	-61.3	5.3
2026-01-08 08:19:28.211783	233.9	24.0	-61.2	6.5
2026-01-08 08:19:29.330540	233.7	23.8	-61.2	5.3
2026-01-08 08:19:30.449792	233.6	23.6	-61.1	6.0
2026-01-08 08:19:31.571549	233.4	23.5	-60.8	4.2
2026-01-08 08:19:32.691305	233.3	23.3	-61.2	6.3
2026-01-08 08:19:33.809567	233.2	23.2	-59.8	3.7
2026-01-08 08:19:34.927818	233.0	23.0	-62.2	6.0
2026-01-08 08:19:36.047583	232.9	22.9	-61.6	4.5
2026-01-08 08:19:37.174837	232.7	22.7	-60.5	3.7
2026-01-08 08:19:38.292593	232.6	22.6	-60.5	5.8
2026-01-08 08:19:39.412347	232.5	22.4	-61.7	5.7
2026-01-08 08:19:40.533609	232.3	22.3	-61.5	4.3
2026-01-08 08:19:41.652870	232.2	22.1	-60.7	5.9
2026-01-08 08:19:42.774628	232.1	22.0	-61.0	5.4
2026-01-08 08:19:43.893383	232.0	21.9	-62.0	6.5
2026-01-08 08:19:45.016644	231.8	21.7	-61.2	5.2
2026-01-08 08:19:46.135905	231.7	21.6	-61.3	5.4
2026-01-08 08:19:47.255662	231.6	21.4	-59.9	0.0
2026-01-08 08:19:48.375427	231.5	21.3	-62.5	6.3
2026-01-08 08:19:49.494680	231.3	21.1	-62.5	6.9
2026-01-08 08:19:50.613436	231.2	21.0	-60.0	2.7
2026-01-08 08:19:51.730191	231.1	20.9	-62.4	6.4
2026-01-08 08:19:52.847443	231.0	20.7	-61.5	7.2
2026-01-08 08:19:53.964199	230.8	20.6	-61.2	5.2
2026-01-08 08:19:55.080451	230.7	20.4	-62.1	6.8
2026-01-08 08:19:56.196702	230.6	20.3	-62.6	5.2
2026-01-08 08:19:57.316458	230.5	20.2	-63.3	6.8
2026-01-08 08:19:58.433718	230.4	20.0	-61.7	6.8
2026-01-08 08:19:59.551474	230.3	19.9	-62.6	4.4
2026-01-08 08:20:00.669230	230.2	19.8	-61.8	0.1
2026-01-08 08:20:01.787987	230.1	19.6	-60.2	3.3
2026-01-08 08:20:02.906743	229.9	19.5	-61.1	4.1
2026-01-08 08:20:04.026507	229.8	19.4	-63.4	6.7
2026-01-08 08:20:05.144759	229.7	19.2	-62.7	6.2
2026-01-08 08:20:06.263011	229.6	19.1	-61.7	6.3
2026-01-08 08:20:07.382767	229.5	19.0	-62.5	7.2
2026-01-08 08:20:08.502019	229.4	18.8	-62.8	5.0
2026-01-08 08:20:09.621776	229.3	18.7	-62.3	8.8
2026-01-08 08:20:10.741541	229.2	18.6	-63.0	6.6
2026-01-08 08:20:11.861305	229.1	18.4	-59.8	1.5
2026-01-08 08:20:12.982558	229.0	18.3	-59.3	2.6
2026-01-08 08:20:14.103811	228.9	18.2	-62.9	6.0
2026-01-08 08:20:15.226063	228.8	18.0	-62.8	5.5
2026-01-08 08:20:16.347325	228.7	17.9	-62.5	6.2
2026-01-08 08:20:17.469578	228.6	17.8	-62.2	5.3
2026-01-08 08:20:18.591838	228.5	17.7	-62.6	7.4
2026-01-08 08:20:19.711099	228.4	17.5	-62.9	7.2
2026-01-08 08:20:20.832856	228.3	17.4	-60.6	2.8
2026-01-08 08:20:21.954117	228.2	17.3	-63.2	7.3
2026-01-08 08:20:23.075874	228.1	17.2	-63.5	4.8
2026-01-08 08:20:24.194630	228.0	17.0	-63.6	5.5
2026-01-08 08:20:25.316883	227.9	16.9	-62.9	4.7
2026-01-08 08:20:26.439136	227.8	16.8	-63.2	6.3
2026-01-08 08:20:27.560397	227.8	16.7	-62.9	6.2
2026-01-08 08:20:28.682154	227.7	16.6	-63.1	6.9
2026-01-08 08:20:29.803416	227.6	16.4	-62.9	5.7
2026-01-08 08:20:30.925173	227.5	16.3	-63.3	3.9
2026-01-08 08:20:32.046929	227.4	16.2	-63.8	7.1
2026-01-08 08:20:33.167182	227.3	16.1	-64.5	7.5
2026-01-08 08:20:34.286442	227.2	16.0	-63.3	6.4
2026-01-08 08:20:35.406695	227.1	15.8	-64.1	8.0
2026-01-08 08:20:36.529948	227.0	15.7	-63.8	6.6
2026-01-08 08:20:37.651200	227.0	15.6	-63.5	7.1
2026-01-08 08:20:38.770957	226.9	15.5	-63.8	7.8
2026-01-08 08:20:39.892209	226.8	15.4	-64.8	9.0
2026-01-08 08:20:41.012462	226.7	15.3	-64.2	7.7
2026-01-08 08:20:42.132714	226.6	15.1	-64.6	8.8
2026-01-08 08:20:43.249975	226.6	15.0	-63.6	6.7
2026-01-08 08:20:44.370731	226.5	14.9	-63.6	6.9
2026-01-08 08:20:45.488983	226.4	14.8	-64.5	8.9
2026-01-08 08:20:46.609236	226.3	14.7	-62.8	8.0
2026-01-08 08:20:47.729992	226.2	14.6	-65.2	9.0
2026-01-08 08:20:48.849749	226.2	14.5	-64.4	8.8
2026-01-08 08:20:49.970505	226.1	14.4	-64.7	8.0
2026-01-08 08:20:51.090270	226.0	14.2	-64.5	9.6
2026-01-08 08:20:52.211027	225.9	14.1	-64.6	8.6
2026-01-08 08:20:53.330287	225.9	14.0	-63.0	5.1
2026-01-08 08:20:54.450539	225.8	13.9	-65.0	9.2
2026-01-08 08:20:55.571792	225.7	13.8	-64.9	8.6
2026-01-08 08:20:56.692045	225.6	13.7	-64.8	8.9
2026-01-08 08:20:57.810296	225.6	13.6	-64.7	8.9
2026-01-08 08:20:58.931557	225.5	13.5	-64.4	6.9
2026-01-08 08:21:00.051817	225.4	13.4	-64.3	9.6
2026-01-08 08:21:01.171078	225.3	13.3	-64.5	7.3
2026-01-08 08:21:02.291330	225.3	13.2	-64.9	7.5
2026-01-08 08:21:03.410087	225.2	13.0	-65.1	9.5
2026-01-08 08:21:04.527853	225.1	12.9	-64.8	9.2
2026-01-08 08:21:05.647618	225.1	12.8	-64.3	7.7
2026-01-08 08:21:06.769871	225.0	12.7	-64.4	8.3
2026-01-08 08:21:07.889627	224.9	12.6	-64.9	7.8
2026-01-08 08:21:09.009879	224.9	12.5	-65.2	9.1
2026-01-08 08:21:10.130636	224.8	12.4	-65.0	8.3
2026-01-08 08:21:11.248888	224.7	12.3	-64.5	7.3
2026-01-08 08:21:12.369149	224.7	12.2	-64.5	7.6
2026-01-08 08:21:13.489905	224.6	12.1	-64.8	9.7
2026-01-08 08:21:14.609662	224.5	12.0	-64.6	7.6
2026-01-08 08:21:15.730914	224.5	11.9	-65.1	9.2
2026-01-08 08:21:16.851671	224.4	11.8	-63.8	5.7
2026-01-08 08:21:17.972427	224.3	11.7	-64.0	6.9
2026-01-08 08:21:19.091184	224.3	11.6	-64.6	7.4
2026-01-08 08:21:20.209940	224.2	11.5	-64.7	8.6
2026-01-08 08:21:21.328697	224.1	11.4	-65.0	8.0
2026-01-08 08:21:22.448453	224.1	11.3	-63.5	6.1
2026-01-08 08:21:23.568209	224.0	11.2	-64.6	7.5
2026-01-08 08:21:24.689470	224.0	11.1	-64.7	7.5
2026-01-08 08:21:25.808236	223.9	11.0	-65.2	8.3
2026-01-08 08:21:26.929488	223.8	10.9	-64.5	8.1
2026-01-08 08:21:28.049245	223.8	10.8	-65.2	7.7
2026-01-08 08:21:29.169497	223.7	10.7	-65.4	8.4
2026-01-08 08:21:30.288749	223.7	10.6	-64.7	6.5
2026-01-08 08:21:31.407010	223.6	10.5	-65.3	8.0
2026-01-08 08:21:32.527767	223.5	10.4	-65.0	8.1
2026-01-08 08:21:33.649027	223.5	10.3	-65.4	8.3
2026-01-08 08:21:34.769287	223.4	10.2	-65.4	7.9
2026-01-08 08:21:35.895045	223.4	10.1	-64.9	7.7
2026-01-08 08:21:37.016803	223.3	10.0	-64.5	6.6
2026-01-08 08:21:38.138560	223.2	9.9	-64.5	7.3
2026-01-08 08:21:39.260317	223.2	9.8	-64.5	8.6
2026-01-08 08:21:40.381580	223.1	9.8	-65.6	7.6
2026-01-08 08:21:41.503338	223.1	9.7	-64.5	8.7
2026-01-08 08:21:42.625094	223.0	9.6	-64.9	5.2
2026-01-08 08:21:43.747347	223.0	9.5	-65.0	8.7
2026-01-08 08:21:44.872609	222.9	9.4	-65.9	8.7
2026-01-08 08:21:45.993870	222.9	9.3	-65.9	8.7
2026-01-08 08:21:47.117123	222.8	9.2	-66.4	10.0
2026-01-08 08:21:48.238880	222.8	9.1	-66.6	9.1
2026-01-08 08:21:49.361133	222.7	9.0	-66.2	9.5
2026-01-08 08:21:50.482890	222.6	8.9	-66.7	9.4
2026-01-08 08:21:51.604648	222.6	8.8	-66.5	9.8
2026-01-08 08:21:52.726900	222.5	8.7	-66.5	9.5
2026-01-08 08:21:53.845161	222.5	8.7	-67.2	9.7
2026-01-08 08:21:54.962916	222.4	8.6	-65.7	8.7
2026-01-08 08:21:56.079168	222.4	8.5	-67.0	9.3
2026-01-08 08:21:57.196419	222.3	8.4	-67.0	9.7
2026-01-08 08:21:58.315192	222.3	8.3	-67.6	10.0
2026-01-08 08:21:59.434453	222.2	8.2	-67.0	9.5
2026-01-08 08:22:00.552222	222.2	8.1	-67.2	10.4
2026-01-08 08:22:01.672484	222.1	8.0	-67.5	10.2
2026-01-08 08:22:02.791744	222.1	7.9	-67.3	10.5
2026-01-08 08:22:03.908996	222.0	7.9	-67.2	9.3
2026-01-08 08:22:05.027753	222.0	7.8	-67.2	10.5
2026-01-08 08:22:06.147005	221.9	7.7	-66.4	7.4
2026-01-08 08:22:07.265761	221.9	7.6	-67.3	8.4
2026-01-08 08:22:08.384525	221.9	7.5	-67.3	9.9
2026-01-08 08:22:09.499776	221.8	7.4	-66.6	8.3
2026-01-08 08:22:10.622038	221.8	7.3	-66.8	7.8
2026-01-08 08:22:11.740289	221.7	7.3	-66.2	8.9
2026-01-08 08:22:12.856550	221.7	7.2	-67.2	9.0
2026-01-08 08:22:13.975306	221.6	7.1	-66.9	8.9
2026-01-08 08:22:15.095559	221.6	7.0	-66.7	9.9
2026-01-08 08:22:16.212810	221.5	6.9	-67.0	9.8
2026-01-08 08:22:17.332567	221.5	6.8	-66.5	7.7
2026-01-08 08:22:18.451331	221.4	6.7	-66.5	10.2
2026-01-08 08:22:19.570103	221.4	6.7	-66.0	5.5
2026-01-08 08:22:20.684353	221.4	6.6	-67.0	8.8
2026-01-08 08:22:21.801109	221.3	6.5	-66.8	8.3
2026-01-08 08:22:22.917369	221.3	6.4	-66.6	7.7
2026-01-08 08:22:24.033125	221.2	6.3	-66.8	8.2
2026-01-08 08:22:25.149889	221.2	6.2	-66.6	7.3
2026-01-08 08:22:26.265646	221.1	6.2	-66.6	7.6
2026-01-08 08:22:27.380401	221.1	6.1	-66.3	7.3
2026-01-08 08:22:28.494660	221.1	6.0	-67.2	9.0
2026-01-08 08:22:29.611431	221.0	5.9	-66.5	4.6
2026-01-08 08:22:30.731202	221.0	5.8	-66.0	0.0
2026-01-08 08:22:31.848454	220.9	5.8	-65.9	0.0
2026-01-08 08:22:32.968211	220.9	5.7	-63.9	0.0
2026-01-08 08:22:34.088463	220.8	5.6	-64.4	0.0
2026-01-08 08:22:35.206715	220.8	5.5	-66.3	0.0
2026-01-08 08:22:36.324967	220.8	5.4	-66.3	0.0
2026-01-08 08:22:37.441723	220.7	5.4	-69.8	0.0
2026-01-08 08:22:38.557478	220.7	5.3	-70.7	0.0
2026-01-08 08:22:39.674242	220.6	5.2	-72.3	0.0
2026-01-08 08:22:40.788493	220.6	5.1	-72.9	0.0
2026-01-08 08:22:41.903248	220.6	5.0	-72.5	0.0
2026-01-08 08:22:43.018003	220.5	5.0	-72.2	0.0
#Closed at: 2026-01-08 08:10:12.286099