passes_logs/2026/01/08/PlanumMoscow/PlanumMoscow__20260108_004743_METEOR-M2_4_rec.log

#Pass ID: 20260108_004743_METEOR-M2 4
#Satellite: METEOR-M2 4
#Configuration: METEOR-M2 4
#Start time: 2026-01-08 00:47:48.765330

#LorettStation: 1.0.0 05.05.2024
#Station: PlanumMoscow
#Location: 37.6253844 lon 55.6713361 lat
#TLE: 1 59051U 24039A   25293.94737965  .00000087  00000+0  58459-4 0  9998
#TLE: 2 59051  98.6671 251.7071 0007726 135.4772 224.7028 14.22388966 85257

#Time	Az	El	Level	SNR
2026-01-08 00:51:27.205620	24.7	28.9	-63.3	12.0
2026-01-08 00:51:28.323384	24.8	29.1	-63.8	10.7
2026-01-08 00:51:29.439139	24.9	29.3	-64.0	11.2
2026-01-08 00:51:30.554398	24.9	29.5	-63.8	9.4
2026-01-08 00:51:31.671657	25.0	29.7	-64.1	11.2
2026-01-08 00:51:32.788910	25.1	29.9	-63.7	11.3
2026-01-08 00:51:33.909170	25.2	30.1	-63.9	11.7
2026-01-08 00:51:35.024422	25.3	30.4	-64.1	11.2
2026-01-08 00:51:36.141673	25.3	30.6	-63.8	11.7
2026-01-08 00:51:37.256924	25.4	30.8	-63.7	11.1
2026-01-08 00:51:38.373680	25.5	31.0	-63.8	11.6
2026-01-08 00:51:39.489436	25.6	31.2	-63.9	10.7
2026-01-08 00:51:40.609688	25.7	31.4	-63.0	8.6
2026-01-08 00:51:41.731941	25.8	31.7	-63.9	9.9
2026-01-08 00:51:42.849193	25.8	31.9	-64.0	11.3
2026-01-08 00:51:43.970445	25.9	32.1	-63.2	9.8
2026-01-08 00:51:45.087697	26.0	32.3	-62.9	10.0
2026-01-08 00:51:46.206949	26.1	32.6	-63.5	11.3
2026-01-08 00:51:47.325714	26.2	32.8	-63.5	10.1
2026-01-08 00:51:48.443471	26.3	33.0	-63.9	10.8
2026-01-08 00:51:49.562723	26.4	33.2	-63.2	11.3
2026-01-08 00:51:50.680478	26.5	33.5	-63.2	9.1
2026-01-08 00:51:51.798730	26.6	33.7	-63.7	10.5
2026-01-08 00:51:52.915982	26.7	34.0	-63.1	9.0
2026-01-08 00:51:54.037234	26.8	34.2	-63.6	10.5
2026-01-08 00:51:55.152989	26.9	34.4	-63.4	11.0
2026-01-08 00:51:56.271241	27.0	34.7	-63.3	10.0
2026-01-08 00:51:57.386502	27.1	34.9	-63.2	10.1
2026-01-08 00:51:58.504753	27.2	35.2	-63.7	10.8
2026-01-08 00:51:59.621509	27.3	35.4	-63.5	9.6
2026-01-08 00:52:00.740265	27.4	35.7	-63.0	9.4
2026-01-08 00:52:01.857517	27.5	35.9	-63.2	10.7
2026-01-08 00:52:02.972768	27.6	36.2	-63.4	10.6
2026-01-08 00:52:04.090037	27.7	36.4	-63.3	10.6
2026-01-08 00:52:05.205288	27.8	36.7	-61.7	7.7
2026-01-08 00:52:06.320043	28.0	36.9	-63.0	10.1
2026-01-08 00:52:07.439296	28.1	37.2	-62.6	9.9
2026-01-08 00:52:08.556052	28.2	37.5	-63.3	9.7
2026-01-08 00:52:09.673312	28.3	37.7	-63.3	9.8
2026-01-08 00:52:10.790570	28.4	38.0	-63.6	9.8
2026-01-08 00:52:11.907822	28.6	38.3	-63.6	8.7
2026-01-08 00:52:13.027083	28.7	38.5	-62.6	8.7
2026-01-08 00:52:14.147352	28.8	38.8	-61.7	7.0
2026-01-08 00:52:15.269109	29.0	39.1	-63.2	9.4
2026-01-08 00:52:16.391362	29.1	39.4	-62.8	10.2
2026-01-08 00:52:17.513614	29.2	39.6	-63.0	7.6
2026-01-08 00:52:18.636867	29.4	39.9	-62.8	7.2
2026-01-08 00:52:19.753119	29.5	40.2	-63.1	8.7
2026-01-08 00:52:20.874380	29.7	40.5	-63.0	8.6
2026-01-08 00:52:21.995641	29.8	40.8	-62.8	6.7
2026-01-08 00:52:23.117398	30.0	41.1	-63.0	8.5
2026-01-08 00:52:24.239651	30.1	41.4	-63.4	8.9
2026-01-08 00:52:25.359903	30.3	41.7	-62.6	6.2
2026-01-08 00:52:26.479156	30.4	42.0	-63.5	7.4
2026-01-08 00:52:27.600416	30.6	42.3	-63.1	8.3
2026-01-08 00:52:28.722173	30.7	42.6	-62.8	8.2
2026-01-08 00:52:29.843938	30.9	42.9	-62.7	7.2
2026-01-08 00:52:30.963703	31.1	43.2	-63.3	8.0
2026-01-08 00:52:32.085956	31.2	43.5	-63.3	7.6
2026-01-08 00:52:33.207713	31.4	43.8	-61.9	4.9
2026-01-08 00:52:34.329966	31.6	44.1	-63.8	8.2
2026-01-08 00:52:35.449722	31.8	44.4	-63.6	7.5
2026-01-08 00:52:36.566973	32.0	44.7	-63.5	7.0
2026-01-08 00:52:37.684225	32.2	45.1	-63.2	7.8
2026-01-08 00:52:38.800484	32.4	45.4	-63.7	7.1
2026-01-08 00:52:39.917773	32.5	45.7	-63.6	6.9
2026-01-08 00:52:41.037537	32.8	46.0	-63.4	7.1
2026-01-08 00:52:42.155337	33.0	46.4	-63.5	6.9
2026-01-08 00:52:43.272589	33.2	46.7	-63.5	5.8
2026-01-08 00:52:44.391345	33.4	47.0	-63.3	7.2
2026-01-08 00:52:45.509597	33.6	47.4	-63.2	6.8
2026-01-08 00:52:46.628353	33.8	47.7	-64.2	7.7
2026-01-08 00:52:47.747109	34.0	48.0	-64.3	7.0
2026-01-08 00:52:48.862872	34.3	48.4	-64.6	6.0
2026-01-08 00:52:49.980124	34.5	48.7	-64.8	7.7
2026-01-08 00:52:51.097375	34.8	49.1	-64.4	7.6
2026-01-08 00:52:52.213130	35.0	49.4	-64.4	6.8
2026-01-08 00:52:53.332391	35.3	49.8	-64.3	7.1
2026-01-08 00:52:54.452147	35.5	50.1	-64.1	5.1
2026-01-08 00:52:55.571399	35.8	50.5	-64.0	6.5
2026-01-08 00:52:56.687651	36.1	50.8	-64.4	6.5
2026-01-08 00:52:57.804406	36.3	51.2	-63.6	5.4
2026-01-08 00:52:58.920658	36.6	51.5	-63.7	5.7
2026-01-08 00:53:00.038925	36.9	51.9	-64.6	7.3
2026-01-08 00:53:01.157176	37.2	52.3	-63.7	6.2
2026-01-08 00:53:02.272428	37.5	52.6	-64.5	6.9
2026-01-08 00:53:03.390688	37.8	53.0	-64.3	7.7
2026-01-08 00:53:04.513453	38.2	53.4	-64.8	8.2
2026-01-08 00:53:05.629715	38.5	53.7	-64.1	5.7
2026-01-08 00:53:06.745983	38.8	54.1	-64.9	8.3
2026-01-08 00:53:07.862739	39.2	54.5	-64.9	7.9
2026-01-08 00:53:08.978990	39.5	54.9	-64.4	6.9
2026-01-08 00:53:10.097242	39.9	55.2	-65.4	8.1
2026-01-08 00:53:11.213493	40.3	55.6	-65.4	8.3
2026-01-08 00:53:12.329249	40.7	56.0	-65.6	8.4
2026-01-08 00:53:13.447509	41.1	56.4	-65.2	8.8
2026-01-08 00:53:14.565777	41.5	56.8	-64.9	8.5
2026-01-08 00:53:15.684029	41.9	57.2	-65.5	9.2
2026-01-08 00:53:16.803281	42.3	57.6	-65.1	6.6
2026-01-08 00:53:17.920037	42.8	57.9	-65.4	8.3
2026-01-08 00:53:19.038793	43.2	58.3	-66.1	7.9
2026-01-08 00:53:20.157052	43.7	58.7	-66.2	8.3
2026-01-08 00:53:21.277312	44.2	59.1	-66.1	8.2
2026-01-08 00:53:22.394068	44.7	59.5	-66.0	8.1
2026-01-08 00:53:23.511825	45.2	59.9	-66.7	7.6
2026-01-08 00:53:24.635078	45.7	60.3	-66.6	6.7
2026-01-08 00:53:25.751834	46.3	60.7	-66.8	7.0
2026-01-08 00:53:26.871086	46.8	61.1	-66.5	6.9
2026-01-08 00:53:27.987841	47.4	61.5	-67.0	5.4
2026-01-08 00:53:29.106597	48.0	61.9	-67.3	6.8
2026-01-08 00:53:30.223849	48.6	62.3	-67.2	5.8
2026-01-08 00:53:31.342605	49.3	62.7	-67.5	6.9
2026-01-08 00:53:32.462361	49.9	63.0	-67.5	7.4
2026-01-08 00:53:33.581118	50.6	63.4	-67.3	7.3
2026-01-08 00:53:34.700379	51.3	63.8	-67.1	7.1
2026-01-08 00:53:35.817134	52.1	64.2	-66.7	8.5
2026-01-08 00:53:36.933890	52.8	64.6	-67.1	8.6
2026-01-08 00:53:38.050141	53.6	65.0	-67.5	9.4
2026-01-08 00:53:39.171899	54.4	65.4	-67.5	10.0
2026-01-08 00:53:40.294160	55.2	65.7	-67.3	9.3
2026-01-08 00:53:41.415918	56.1	66.1	-67.6	10.5
2026-01-08 00:53:42.537179	57.0	66.5	-67.5	9.9
2026-01-08 00:53:43.659432	57.9	66.9	-67.6	10.5
2026-01-08 00:53:44.781684	58.9	67.2	-67.5	10.3
2026-01-08 00:53:45.901450	59.9	67.6	-67.7	9.3
2026-01-08 00:53:47.023207	60.9	67.9	-68.0	9.5
2026-01-08 00:53:48.145460	62.0	68.3	-68.0	9.9
2026-01-08 00:53:49.267216	63.1	68.6	-67.6	10.6
2026-01-08 00:53:50.388973	64.2	69.0	-67.9	9.8
2026-01-08 00:53:51.511226	65.4	69.3	-67.7	10.0
2026-01-08 00:53:52.632487	66.7	69.6	-67.7	10.4
2026-01-08 00:53:53.752739	67.9	70.0	-67.8	10.5
2026-01-08 00:53:54.866999	69.2	70.3	-67.8	10.5
2026-01-08 00:53:55.984250	70.6	70.6	-67.8	10.9
2026-01-08 00:53:57.099501	72.0	70.8	-67.7	10.5
2026-01-08 00:53:58.213752	73.4	71.1	-67.8	11.3
2026-01-08 00:53:59.329012	74.9	71.4	-67.6	12.2
2026-01-08 00:54:00.444768	76.4	71.6	-67.7	12.4
2026-01-08 00:54:01.561019	78.0	71.9	-67.5	12.7
2026-01-08 00:54:02.677271	79.6	72.1	-67.4	12.5
2026-01-08 00:54:03.793522	81.2	72.3	-67.5	13.5
2026-01-08 00:54:04.910782	82.9	72.5	-67.6	13.3
2026-01-08 00:54:06.026034	84.7	72.7	-67.7	13.4
2026-01-08 00:54:07.142790	86.5	72.9	-67.7	13.1
2026-01-08 00:54:08.261050	88.3	73.1	-68.0	13.3
2026-01-08 00:54:09.379302	90.2	73.2	-68.1	13.2
2026-01-08 00:54:10.497058	92.0	73.3	-68.2	12.9
2026-01-08 00:54:11.617318	94.0	73.5	-68.2	13.2
2026-01-08 00:54:12.736074	95.9	73.5	-68.1	12.9
2026-01-08 00:54:13.855831	97.9	73.6	-68.3	12.9
2026-01-08 00:54:14.972082	99.8	73.7	-68.3	12.3
2026-01-08 00:54:16.089334	101.8	73.7	-68.6	12.7
2026-01-08 00:54:17.204585	103.8	73.7	-68.3	13.1
2026-01-08 00:54:18.320836	105.8	73.7	-68.2	13.6
2026-01-08 00:54:19.438609	107.8	73.7	-68.5	13.4
2026-01-08 00:54:20.556870	109.8	73.7	-68.4	13.3
2026-01-08 00:54:21.674130	111.8	73.6	-68.4	13.4
2026-01-08 00:54:22.792886	113.7	73.5	-68.3	13.3
2026-01-08 00:54:23.911138	115.7	73.4	-68.6	13.5
2026-01-08 00:54:25.028390	117.6	73.3	-68.4	13.6
2026-01-08 00:54:26.147642	119.5	73.2	-68.6	13.6
2026-01-08 00:54:27.265398	121.3	73.1	-68.5	13.6
2026-01-08 00:54:28.383658	123.2	72.9	-68.4	13.0
2026-01-08 00:54:29.499910	124.9	72.7	-68.7	13.0
2026-01-08 00:54:30.618162	126.7	72.5	-69.0	12.6
2026-01-08 00:54:31.740919	128.4	72.3	-69.0	12.3
2026-01-08 00:54:32.857170	130.0	72.1	-69.2	12.4
2026-01-08 00:54:33.973926	131.7	71.9	-69.1	12.5
2026-01-08 00:54:35.092682	133.2	71.6	-68.9	12.8
2026-01-08 00:54:36.210438	134.8	71.4	-68.8	12.6
2026-01-08 00:54:37.328690	136.2	71.1	-69.1	12.4
2026-01-08 00:54:38.446446	137.7	70.8	-69.0	12.6
2026-01-08 00:54:39.563697	139.1	70.5	-68.8	13.5
2026-01-08 00:54:40.687958	140.4	70.2	-68.5	13.6
2026-01-08 00:54:41.805715	141.7	69.9	-68.6	14.3
2026-01-08 00:54:42.921975	143.0	69.6	-68.3	13.9
2026-01-08 00:54:44.040227	144.2	69.3	-67.7	14.1
2026-01-08 00:54:45.158487	145.4	68.9	-67.9	13.3
2026-01-08 00:54:46.278739	146.5	68.6	-68.4	14.2
2026-01-08 00:54:47.395991	147.6	68.3	-68.2	13.5
2026-01-08 00:54:48.512242	148.7	67.9	-68.3	14.3
2026-01-08 00:54:49.630998	149.7	67.5	-68.4	14.2
2026-01-08 00:54:50.748754	150.7	67.2	-68.0	14.3
2026-01-08 00:54:51.865005	151.6	66.8	-68.3	13.8
2026-01-08 00:54:52.982266	152.6	66.4	-68.2	13.5
2026-01-08 00:54:54.104031	153.5	66.1	-68.6	13.0
2026-01-08 00:54:55.226284	154.3	65.7	-68.6	13.4
2026-01-08 00:54:56.347545	155.2	65.3	-68.5	13.1
2026-01-08 00:54:57.468310	156.0	64.9	-68.3	13.9
2026-01-08 00:54:58.589570	156.8	64.5	-68.2	13.9
2026-01-08 00:54:59.711823	157.5	64.2	-68.3	14.1
2026-01-08 00:55:00.833580	158.3	63.8	-68.2	14.2
2026-01-08 00:55:01.955337	159.0	63.4	-68.2	14.3
2026-01-08 00:55:03.077590	159.6	63.0	-68.1	14.1
2026-01-08 00:55:04.199346	160.3	62.6	-68.1	14.2
2026-01-08 00:55:05.320608	160.9	62.2	-68.2	14.2
2026-01-08 00:55:06.442365	161.6	61.8	-68.2	14.3
2026-01-08 00:55:07.569619	162.2	61.4	-68.0	14.2
2026-01-08 00:55:08.688871	162.8	61.0	-68.3	14.0
2026-01-08 00:55:09.806122	163.3	60.6	-68.5	13.7
2026-01-08 00:55:10.921374	163.9	60.2	-68.6	13.3
2026-01-08 00:55:12.039129	164.4	59.8	-68.8	13.1
2026-01-08 00:55:13.153380	164.9	59.4	-68.5	13.1
2026-01-08 00:55:14.272136	165.4	59.0	-68.4	12.2
2026-01-08 00:55:15.388893	165.9	58.6	-68.7	12.4
2026-01-08 00:55:16.508649	166.4	58.2	-68.6	12.1
2026-01-08 00:55:17.625901	166.8	57.9	-68.6	12.3
2026-01-08 00:55:18.744656	167.3	57.5	-68.6	12.2
2026-01-08 00:55:19.861420	167.7	57.1	-68.7	11.6
2026-01-08 00:55:20.978688	168.1	56.7	-68.9	12.0
2026-01-08 00:55:22.098444	168.5	56.3	-68.8	12.3
2026-01-08 00:55:23.217200	168.9	55.9	-69.0	11.7
2026-01-08 00:55:24.335452	169.3	55.5	-69.0	12.3
2026-01-08 00:55:25.453717	169.7	55.2	-68.8	12.2
2026-01-08 00:55:26.572473	170.0	54.8	-69.0	12.2
2026-01-08 00:55:27.691237	170.4	54.4	-68.7	12.4
2026-01-08 00:55:28.809994	170.7	54.0	-68.9	12.0
2026-01-08 00:55:29.930255	171.1	53.6	-68.9	12.6
2026-01-08 00:55:31.049011	171.4	53.3	-68.9	12.2
2026-01-08 00:55:32.166767	171.7	52.9	-68.8	12.4
2026-01-08 00:55:33.283523	172.0	52.5	-69.1	11.7
2026-01-08 00:55:34.402280	172.4	52.2	-68.9	11.9
2026-01-08 00:55:35.522037	172.7	51.8	-68.9	11.8
2026-01-08 00:55:36.642289	172.9	51.4	-68.6	10.8
2026-01-08 00:55:37.761541	173.2	51.1	-69.0	12.3
2026-01-08 00:55:38.879305	173.5	50.7	-68.8	11.9
2026-01-08 00:55:39.995060	173.8	50.3	-68.9	12.4
2026-01-08 00:55:41.113320	174.0	50.0	-68.6	11.9
2026-01-08 00:55:42.231076	174.3	49.6	-68.5	11.9
2026-01-08 00:55:43.348833	174.6	49.3	-68.7	11.5
2026-01-08 00:55:44.466589	174.8	48.9	-69.0	12.1
2026-01-08 00:55:45.586345	175.0	48.6	-68.8	11.9
2026-01-08 00:55:46.705598	175.3	48.2	-68.3	11.6
2026-01-08 00:55:47.821353	175.5	47.9	-68.5	11.9
2026-01-08 00:55:48.939605	175.7	47.6	-68.3	12.5
2026-01-08 00:55:50.058361	176.0	47.2	-68.3	12.1
2026-01-08 00:55:51.175623	176.2	46.9	-68.0	12.1
2026-01-08 00:55:52.294875	176.4	46.5	-68.4	13.1
2026-01-08 00:55:53.414128	176.6	46.2	-67.9	12.5
2026-01-08 00:55:54.534380	176.8	45.9	-68.3	13.3
2026-01-08 00:55:55.652136	177.0	45.6	-68.5	13.8
2026-01-08 00:55:56.772397	177.2	45.2	-68.0	13.1
2026-01-08 00:55:57.891153	177.4	44.9	-68.2	14.0
2026-01-08 00:55:59.010406	177.6	44.6	-67.8	12.7
2026-01-08 00:56:00.129658	177.8	44.3	-67.7	13.1
2026-01-08 00:56:01.247918	178.0	43.9	-67.4	13.1
2026-01-08 00:56:02.367674	178.1	43.6	-67.7	13.0
2026-01-08 00:56:03.488934	178.3	43.3	-67.8	13.5
2026-01-08 00:56:04.608186	178.5	43.0	-67.8	14.5
2026-01-08 00:56:05.727439	178.6	42.7	-67.6	14.1
2026-01-08 00:56:06.848691	178.8	42.4	-67.8	14.1
2026-01-08 00:56:07.966943	179.0	42.1	-67.7	14.0
2026-01-08 00:56:09.081698	179.1	41.8	-67.6	13.6
2026-01-08 00:56:10.198967	179.3	41.5	-67.6	14.2
2026-01-08 00:56:11.316219	179.4	41.2	-67.7	13.8
2026-01-08 00:56:12.436479	179.6	40.9	-67.3	13.0
2026-01-08 00:56:13.553234	179.7	40.6	-67.5	14.5
2026-01-08 00:56:14.670991	179.9	40.3	-67.5	14.5
2026-01-08 00:56:15.788251	180.0	40.0	-67.5	14.3
2026-01-08 00:56:16.906015	180.2	39.8	-67.3	14.3
2026-01-08 00:56:18.024283	180.3	39.5	-67.4	14.4
2026-01-08 00:56:19.144535	180.4	39.2	-67.4	14.7
2026-01-08 00:56:20.261787	180.6	38.9	-67.4	14.7
2026-01-08 00:56:21.380551	180.7	38.6	-67.1	15.0
2026-01-08 00:56:22.502308	180.8	38.4	-67.2	14.8
2026-01-08 00:56:23.619560	181.0	38.1	-67.4	14.5
2026-01-08 00:56:24.738316	181.1	37.8	-67.1	14.7
2026-01-08 00:56:25.857577	181.2	37.6	-67.1	14.5
2026-01-08 00:56:26.974340	181.3	37.3	-66.3	12.8
2026-01-08 00:56:28.091592	181.5	37.0	-67.1	14.7
2026-01-08 00:56:29.211845	181.6	36.8	-67.0	14.4
2026-01-08 00:56:30.330601	181.7	36.5	-66.4	13.4
2026-01-08 00:56:31.451862	181.8	36.2	-67.0	15.0
2026-01-08 00:56:32.573619	181.9	36.0	-67.2	15.3
2026-01-08 00:56:33.695376	182.0	35.7	-66.8	15.0
2026-01-08 00:56:34.816629	182.1	35.5	-66.8	14.9
2026-01-08 00:56:35.938385	182.2	35.2	-66.9	15.1
2026-01-08 00:56:37.059645	182.4	35.0	-67.0	15.0
2026-01-08 00:56:38.180897	182.5	34.7	-67.0	14.3
2026-01-08 00:56:39.300655	182.6	34.5	-66.6	13.5
2026-01-08 00:56:40.421916	182.7	34.2	-66.7	14.0
2026-01-08 00:56:41.542680	182.8	34.0	-66.8	13.3
2026-01-08 00:56:42.663942	182.9	33.8	-66.8	15.0
2026-01-08 00:56:43.786194	183.0	33.5	-66.9	15.1
2026-01-08 00:56:44.907951	183.1	33.3	-66.9	14.8
2026-01-08 00:56:46.030203	183.1	33.0	-66.7	13.8
2026-01-08 00:56:47.150464	183.2	32.8	-67.0	14.6
2026-01-08 00:56:48.267715	183.3	32.6	-66.2	12.7
2026-01-08 00:56:49.384976	183.4	32.3	-67.0	14.5
2026-01-08 00:56:50.500227	183.5	32.1	-66.8	14.0
2026-01-08 00:56:51.616983	183.6	31.9	-67.0	14.6
2026-01-08 00:56:52.731739	183.7	31.7	-67.1	14.6
2026-01-08 00:56:53.847990	183.8	31.4	-67.1	14.2
2026-01-08 00:56:54.965746	183.9	31.2	-67.1	14.0
2026-01-08 00:56:56.083007	183.9	31.0	-67.1	14.7
2026-01-08 00:56:57.200258	184.0	30.8	-67.0	14.9
2026-01-08 00:56:58.317022	184.1	30.6	-66.8	14.8
2026-01-08 00:56:59.434274	184.2	30.4	-66.5	14.2
2026-01-08 00:57:00.550525	184.3	30.1	-66.8	14.4
2026-01-08 00:57:01.669777	184.3	29.9	-66.4	13.6
2026-01-08 00:57:02.786541	184.4	29.7	-66.8	14.7
2026-01-08 00:57:03.904793	184.5	29.5	-66.3	14.8
2026-01-08 00:57:05.023557	184.6	29.3	-66.9	14.3
2026-01-08 00:57:06.139321	184.6	29.1	-66.4	13.1
2026-01-08 00:57:07.258085	184.7	28.9	-67.4	14.3
2026-01-08 00:57:08.375337	184.8	28.7	-67.1	13.8
2026-01-08 00:57:09.494596	184.9	28.5	-67.0	13.6
2026-01-08 00:57:10.614849	184.9	28.3	-67.1	14.4
2026-01-08 00:57:11.730604	185.0	28.1	-66.9	14.1
2026-01-08 00:57:12.849865	185.1	27.9	-66.6	14.1
2026-01-08 00:57:13.968622	185.1	27.7	-66.8	13.5
2026-01-08 00:57:15.083873	185.2	27.5	-66.8	13.7
2026-01-08 00:57:16.200125	185.3	27.3	-66.8	14.2
2026-01-08 00:57:17.318386	185.3	27.1	-66.9	12.9
2026-01-08 00:57:18.436646	185.4	26.9	-66.8	14.3
2026-01-08 00:57:19.554905	185.5	26.7	-66.4	14.7
2026-01-08 00:57:20.672661	185.5	26.6	-66.4	13.1
2026-01-08 00:57:21.789417	185.6	26.4	-67.0	14.7
2026-01-08 00:57:22.910173	185.7	26.2	-66.6	14.9
2026-01-08 00:57:24.027425	185.7	26.0	-66.6	14.1
2026-01-08 00:57:25.144685	185.8	25.8	-66.8	14.5
2026-01-08 00:57:26.263937	185.9	25.6	-66.5	14.6
2026-01-08 00:57:27.382197	185.9	25.5	-66.7	14.4
2026-01-08 00:57:28.498457	186.0	25.3	-66.6	14.0
2026-01-08 00:57:29.616709	186.0	25.1	-67.0	14.9
2026-01-08 00:57:30.734465	186.1	24.9	-67.0	14.8
2026-01-08 00:57:31.853717	186.1	24.7	-66.7	14.3
2026-01-08 00:57:32.969474	186.2	24.6	-66.5	13.0
2026-01-08 00:57:34.086734	186.3	24.4	-66.7	13.8
2026-01-08 00:57:35.203986	186.3	24.2	-66.9	14.1
2026-01-08 00:57:36.321743	186.4	24.0	-67.0	14.5
2026-01-08 00:57:37.443005	186.4	23.9	-66.7	13.9
2026-01-08 00:57:38.561770	186.5	23.7	-66.6	13.2
2026-01-08 00:57:39.680022	186.5	23.5	-66.4	14.3
2026-01-08 00:57:40.799274	186.6	23.4	-66.6	11.6
2026-01-08 00:57:41.916037	186.6	23.2	-66.6	13.2
2026-01-08 00:57:43.033289	186.7	23.0	-66.1	13.1
2026-01-08 00:57:44.151541	186.7	22.9	-67.0	14.7
2026-01-08 00:57:45.266792	186.8	22.7	-66.4	13.0
2026-01-08 00:57:46.384044	186.8	22.6	-66.8	14.6
2026-01-08 00:57:47.500809	186.9	22.4	-65.5	11.5
2026-01-08 00:57:48.617060	186.9	22.2	-65.8	13.3
2026-01-08 00:57:49.731815	187.0	22.1	-65.2	12.0
2026-01-08 00:57:50.846066	187.0	21.9	-65.1	11.7
2026-01-08 00:57:51.961317	187.1	21.8	-66.3	12.7
2026-01-08 00:57:53.076568	187.1	21.6	-66.5	13.3
2026-01-08 00:57:54.192324	187.2	21.5	-66.5	13.4
2026-01-08 00:57:55.307078	187.2	21.3	-66.3	12.6
2026-01-08 00:57:56.423835	187.3	21.1	-66.6	12.9
2026-01-08 00:57:57.541087	187.3	21.0	-66.5	13.1
2026-01-08 00:57:58.664853	187.4	20.8	-66.7	13.8
2026-01-08 00:57:59.784106	187.4	20.7	-66.8	12.9
2026-01-08 00:58:00.902357	187.5	20.5	-66.4	11.9
2026-01-08 00:58:02.024610	187.5	20.4	-66.8	11.9
2026-01-08 00:58:03.146863	187.6	20.2	-66.2	12.3
2026-01-08 00:58:04.268620	187.6	20.1	-66.9	12.8
2026-01-08 00:58:05.390872	187.6	19.9	-67.2	12.6
2026-01-08 00:58:06.509629	187.7	19.8	-67.0	12.9
2026-01-08 00:58:07.631386	187.7	19.7	-67.2	13.3
2026-01-08 00:58:08.753639	187.8	19.5	-66.4	12.8
2026-01-08 00:58:09.874900	187.8	19.4	-66.0	12.2
2026-01-08 00:58:10.994152	187.9	19.2	-66.5	12.3
2026-01-08 00:58:12.114404	187.9	19.1	-65.9	11.0
2026-01-08 00:58:13.234656	187.9	18.9	-66.3	12.6
2026-01-08 00:58:14.356909	188.0	18.8	-66.2	13.1
2026-01-08 00:58:15.478170	188.0	18.7	-66.4	13.5
2026-01-08 00:58:16.600431	188.1	18.5	-66.8	13.7
2026-01-08 00:58:17.719691	188.1	18.4	-66.7	12.9
2026-01-08 00:58:18.834943	188.1	18.3	-66.4	12.0
2026-01-08 00:58:19.951704	188.2	18.1	-66.3	12.4
2026-01-08 00:58:21.066460	188.2	18.0	-66.5	12.9
2026-01-08 00:58:22.183224	188.2	17.8	-66.8	13.6
2026-01-08 00:58:23.299485	188.3	17.7	-66.6	12.9
2026-01-08 00:58:24.414745	188.3	17.6	-66.7	13.2
2026-01-08 00:58:25.529996	188.4	17.4	-67.1	13.2
2026-01-08 00:58:26.645752	188.4	17.3	-67.0	12.9
2026-01-08 00:58:27.761003	188.4	17.2	-66.8	13.2
2026-01-08 00:58:28.879255	188.5	17.1	-67.0	13.4
2026-01-08 00:58:29.999011	188.5	16.9	-66.7	13.4
2026-01-08 00:58:31.117272	188.5	16.8	-66.8	12.7
2026-01-08 00:58:32.233531	188.6	16.7	-66.8	12.3
2026-01-08 00:58:33.349782	188.6	16.5	-67.0	13.0
2026-01-08 00:58:34.465538	188.6	16.4	-66.7	12.6
2026-01-08 00:58:35.583293	188.7	16.3	-66.4	12.0
2026-01-08 00:58:36.702545	188.7	16.2	-66.5	12.5
2026-01-08 00:58:37.820300	188.7	16.0	-66.3	11.3
2026-01-08 00:58:38.935056	188.8	15.9	-66.9	12.8
2026-01-08 00:58:40.052308	188.8	15.8	-66.7	11.1
2026-01-08 00:58:41.168567	188.9	15.7	-66.7	12.2
2026-01-08 00:58:42.284819	188.9	15.5	-66.7	12.2
2026-01-08 00:58:43.401078	188.9	15.4	-66.7	11.9
2026-01-08 00:58:44.519834	188.9	15.3	-66.8	12.3
2026-01-08 00:58:45.636594	189.0	15.2	-66.7	11.7
2026-01-08 00:58:46.753345	189.0	15.1	-66.5	12.2
2026-01-08 00:58:47.869596	189.0	14.9	-66.6	11.6
2026-01-08 00:58:48.985356	189.1	14.8	-66.6	11.3
2026-01-08 00:58:50.101603	189.1	14.7	-66.5	12.0
2026-01-08 00:58:51.217855	189.1	14.6	-65.8	12.0
2026-01-08 00:58:52.334106	189.2	14.5	-66.6	10.8
2026-01-08 00:58:53.450358	189.2	14.4	-66.9	11.2
2026-01-08 00:58:54.569113	189.2	14.2	-66.6	11.5
2026-01-08 00:58:55.683870	189.3	14.1	-67.0	11.1
2026-01-08 00:58:56.799625	189.3	14.0	-66.0	10.2
2026-01-08 00:58:57.922382	189.3	13.9	-66.8	10.9
2026-01-08 00:58:59.037138	189.4	13.8	-66.7	11.4
2026-01-08 00:59:00.153389	189.4	13.7	-66.8	11.0
2026-01-08 00:59:01.270145	189.4	13.6	-66.9	11.6
2026-01-08 00:59:02.386396	189.4	13.4	-66.8	11.2
2026-01-08 00:59:03.504648	189.5	13.3	-66.9	11.5
2026-01-08 00:59:04.624404	189.5	13.2	-67.1	11.2
2026-01-08 00:59:05.742160	189.5	13.1	-64.6	8.5
2026-01-08 00:59:06.858420	189.6	13.0	-65.3	9.3
2026-01-08 00:59:07.978176	189.6	12.9	-66.8	11.0
2026-01-08 00:59:09.095932	189.6	12.8	-66.5	8.1
2026-01-08 00:59:10.213184	189.6	12.7	-66.2	10.5
2026-01-08 00:59:11.330940	189.7	12.6	-65.9	10.6
2026-01-08 00:59:12.449704	189.7	12.5	-65.7	9.4
2026-01-08 00:59:13.564964	189.7	12.3	-66.0	9.7
2026-01-08 00:59:14.685217	189.8	12.2	-66.0	10.3
2026-01-08 00:59:15.802468	189.8	12.1	-66.4	9.2
2026-01-08 00:59:16.921728	189.8	12.0	-66.3	10.4
2026-01-08 00:59:18.036484	189.8	11.9	-66.3	10.0
2026-01-08 00:59:19.156746	189.9	11.8	-66.3	9.6
2026-01-08 00:59:20.278998	189.9	11.7	-66.3	10.3
2026-01-08 00:59:21.401251	189.9	11.6	-66.2	9.7
2026-01-08 00:59:22.522534	189.9	11.5	-66.7	9.8
2026-01-08 00:59:23.637794	190.0	11.4	-64.0	4.5
2026-01-08 00:59:24.756054	190.0	11.3	-65.9	10.0
2026-01-08 00:59:25.871305	190.0	11.2	-64.9	8.9
2026-01-08 00:59:26.987564	190.0	11.1	-65.7	6.6
2026-01-08 00:59:28.104320	190.1	11.0	-66.8	10.9
2026-01-08 00:59:29.218571	190.1	10.9	-65.4	7.3
2026-01-08 00:59:30.337327	190.1	10.8	-66.6	10.4
2026-01-08 00:59:31.457580	190.1	10.7	-66.8	9.8
2026-01-08 00:59:32.575336	190.2	10.6	-66.7	10.1
2026-01-08 00:59:33.693091	190.2	10.5	-66.7	10.0
2026-01-08 00:59:34.810351	190.2	10.4	-65.9	9.8
2026-01-08 00:59:35.931108	190.2	10.3	-65.0	5.4
2026-01-08 00:59:37.052370	190.3	10.2	-66.3	9.9
2026-01-08 00:59:38.174623	190.3	10.1	-66.4	10.2
2026-01-08 00:59:39.295884	190.3	10.0	-66.1	7.9
2026-01-08 00:59:40.417145	190.3	9.9	-65.6	8.4
2026-01-08 00:59:41.537910	190.4	9.8	-65.0	6.6
2026-01-08 00:59:42.659170	190.4	9.7	-66.2	9.0
2026-01-08 00:59:43.780937	190.4	9.6	-66.2	8.7
2026-01-08 00:59:44.902694	190.4	9.5	-63.9	5.9
2026-01-08 00:59:46.023955	190.4	9.4	-62.8	4.4
2026-01-08 00:59:47.141207	190.5	9.3	-65.7	8.5
2026-01-08 00:59:48.256466	190.5	9.2	-65.7	6.7
2026-01-08 00:59:49.372727	190.5	9.1	-65.9	8.7
2026-01-08 00:59:50.488483	190.5	9.0	-66.3	9.5
2026-01-08 00:59:51.607239	190.6	8.9	-65.9	8.5
2026-01-08 00:59:52.726491	190.6	8.9	-66.6	8.8
2026-01-08 00:59:53.845247	190.6	8.8	-66.3	8.5
2026-01-08 00:59:54.963516	190.6	8.7	-66.2	9.2
2026-01-08 00:59:56.080768	190.7	8.6	-65.1	7.8
2026-01-08 00:59:57.199020	190.7	8.5	-65.4	8.6
2026-01-08 00:59:58.315271	190.7	8.4	-66.5	8.8
2026-01-08 00:59:59.432036	190.7	8.3	-66.0	8.6
2026-01-08 01:00:00.550792	190.7	8.2	-65.7	8.8
2026-01-08 01:00:01.669549	190.8	8.1	-66.0	7.5
2026-01-08 01:00:02.787801	190.8	8.0	-65.4	8.2
2026-01-08 01:00:03.906564	190.8	7.9	-66.2	7.0
2026-01-08 01:00:05.024824	190.8	7.8	-65.2	8.4
2026-01-08 01:00:06.141076	190.8	7.8	-65.2	7.0
2026-01-08 01:00:07.258327	190.9	7.7	-64.4	7.4
2026-01-08 01:00:08.374587	190.9	7.6	-63.7	6.9
2026-01-08 01:00:09.491848	190.9	7.5	-63.9	0.0
2026-01-08 01:00:10.611604	190.9	7.4	-64.3	2.4
2026-01-08 01:00:11.728856	190.9	7.3	-62.6	2.3
2026-01-08 01:00:12.848117	191.0	7.2	-62.2	5.3
2026-01-08 01:00:13.967882	191.0	7.1	-64.0	7.3
2026-01-08 01:00:15.088135	191.0	7.1	-62.1	3.9
2026-01-08 01:00:16.203386	191.0	7.0	-63.9	5.0
2026-01-08 01:00:17.321142	191.0	6.9	-60.7	0.0
2026-01-08 01:00:18.424514	191.1	6.8	-61.8	3.9
2026-01-08 01:00:19.545774	191.1	6.7	-61.6	0.0
2026-01-08 01:00:20.665026	191.1	6.6	-62.6	4.1
2026-01-08 01:00:21.785287	191.1	6.5	-63.2	4.1
2026-01-08 01:00:22.902547	191.1	6.5	-63.5	0.0
2026-01-08 01:00:24.025303	191.2	6.4	-59.4	0.0
2026-01-08 01:00:25.144555	191.2	6.3	-61.9	0.0
2026-01-08 01:00:26.264312	191.2	6.2	-58.3	0.0
2026-01-08 01:00:27.383067	191.2	6.1	-66.5	6.7
2026-01-08 01:00:28.501824	191.2	6.0	-65.8	7.7
2026-01-08 01:00:29.622580	191.3	6.0	-67.6	6.3
2026-01-08 01:00:30.740840	191.3	5.9	-69.7	0.0
2026-01-08 01:00:31.864093	191.3	5.8	-71.2	0.0
2026-01-08 01:00:32.983858	191.3	5.7	-70.9	0.0
2026-01-08 01:00:34.102614	191.3	5.6	-71.8	0.0
2026-01-08 01:00:35.222866	191.3	5.5	-72.2	0.0
2026-01-08 01:00:36.341118	191.4	5.5	-72.3	0.0
2026-01-08 01:00:37.456873	191.4	5.4	-72.3	0.0
2026-01-08 01:00:38.576126	191.4	5.3	-72.3	0.0
2026-01-08 01:00:39.691880	191.4	5.2	-72.7	0.0
2026-01-08 01:00:40.811637	191.4	5.1	-72.4	0.0
2026-01-08 01:00:41.930393	191.5	5.1	-72.0	0.0
#Closed at: 2026-01-08 00:47:43.767760