passes_logs/2026/01/08/PlanumMoscow/PlanumMoscow__20260108_171153_METOP-C_rec.log

#Pass ID: 20260108_171153_METOP-C
#Satellite: METOP-C
#Configuration: METOP-C
#Start time: 2026-01-08 17:11:58.943265

#LorettStation: 1.0.0 05.05.2024
#Station: PlanumMoscow
#Location: 37.6253844 lon 55.6713361 lat
#TLE: 1 43689U 18087A   25293.88981035  .00000265  00000+0  14109-3 0  9997
#TLE: 2 43689  98.7006 352.4487 0002041 122.1097 238.0279 14.21482740360838

#Time	Az	El	Level	SNR
2026-01-08 17:15:37.419956	114.6	26.2	-64.7	4.9
2026-01-08 17:15:38.535207	114.4	26.3	-65.2	5.6
2026-01-08 17:15:39.651963	114.2	26.5	-65.3	5.1
2026-01-08 17:15:40.769719	114.0	26.6	-65.9	6.8
2026-01-08 17:15:41.889971	113.8	26.8	-65.9	5.6
2026-01-08 17:15:43.010224	113.5	26.9	-65.5	5.8
2026-01-08 17:15:44.129475	113.3	27.1	-65.7	6.4
2026-01-08 17:15:45.249728	113.1	27.3	-65.5	5.1
2026-01-08 17:15:46.371991	112.9	27.4	-65.8	6.3
2026-01-08 17:15:47.493252	112.7	27.6	-65.7	6.0
2026-01-08 17:15:48.613037	112.4	27.7	-65.9	5.3
2026-01-08 17:15:49.732299	112.2	27.9	-66.3	5.9
2026-01-08 17:15:50.854093	112.0	28.0	-65.4	1.7
2026-01-08 17:15:51.973345	111.8	28.2	-65.9	4.2
2026-01-08 17:15:53.093605	111.5	28.3	-66.3	4.4
2026-01-08 17:15:54.215362	111.3	28.5	-65.6	4.6
2026-01-08 17:15:55.335126	111.0	28.7	-66.0	3.1
2026-01-08 17:15:56.456379	110.8	28.8	-65.8	4.2
2026-01-08 17:15:57.577631	110.6	29.0	-66.2	3.7
2026-01-08 17:15:58.698893	110.3	29.1	-65.7	2.6
2026-01-08 17:15:59.821145	110.1	29.3	-66.2	3.7
2026-01-08 17:16:00.942406	109.8	29.4	-66.3	4.3
2026-01-08 17:16:02.066177	109.6	29.6	-65.5	2.4
2026-01-08 17:16:03.188438	109.3	29.8	-65.4	2.7
2026-01-08 17:16:04.310691	109.0	29.9	-65.1	1.0
2026-01-08 17:16:05.431455	108.8	30.1	-66.0	3.1
2026-01-08 17:16:06.553708	108.5	30.2	-64.9	2.9
2026-01-08 17:16:07.675466	108.3	30.4	-66.4	3.0
2026-01-08 17:16:08.795718	108.0	30.6	-65.9	5.4
2026-01-08 17:16:09.918988	107.7	30.7	-65.9	4.7
2026-01-08 17:16:11.042241	107.4	30.9	-65.6	2.8
2026-01-08 17:16:12.163511	107.2	31.0	-65.7	4.6
2026-01-08 17:16:13.285275	106.9	31.2	-64.5	3.4
2026-01-08 17:16:14.404527	106.6	31.4	-65.2	2.4
2026-01-08 17:16:15.523779	106.3	31.5	-65.3	3.1
2026-01-08 17:16:16.644032	106.0	31.7	-65.3	2.9
2026-01-08 17:16:17.762283	105.7	31.8	-65.9	3.6
2026-01-08 17:16:18.883039	105.4	32.0	-65.7	3.9
2026-01-08 17:16:20.003796	105.1	32.2	-66.0	4.6
2026-01-08 17:16:21.125562	104.8	32.3	-64.4	0.0
2026-01-08 17:16:22.242813	104.5	32.5	-64.2	0.0
2026-01-08 17:16:23.363074	104.2	32.7	-64.5	0.5
2026-01-08 17:16:24.482335	103.9	32.8	-65.4	1.3
2026-01-08 17:16:25.600091	103.6	33.0	-65.3	0.0
2026-01-08 17:16:26.719847	103.3	33.1	-65.9	3.8
2026-01-08 17:16:27.838603	103.0	33.3	-65.6	1.1
2026-01-08 17:16:28.956360	102.7	33.5	-65.3	0.0
2026-01-08 17:16:30.074611	102.3	33.6	-65.9	0.8
2026-01-08 17:16:31.192863	102.0	33.8	-65.9	3.5
2026-01-08 17:16:32.312620	101.7	33.9	-65.2	0.0
2026-01-08 17:16:33.433377	101.3	34.1	-65.9	0.0
2026-01-08 17:16:34.552637	101.0	34.3	-65.7	0.3
2026-01-08 17:16:35.672395	100.7	34.4	-65.0	0.0
2026-01-08 17:16:36.795647	100.3	34.6	-65.3	0.4
2026-01-08 17:16:37.912899	100.0	34.7	-65.7	0.7
2026-01-08 17:16:39.033151	99.6	34.9	-65.3	0.0
2026-01-08 17:16:40.151403	99.3	35.0	-64.4	0.0
2026-01-08 17:16:41.268160	98.9	35.2	-65.7	0.0
2026-01-08 17:16:42.385916	98.5	35.4	-65.4	0.0
2026-01-08 17:16:43.504176	98.2	35.5	-63.4	0.0
2026-01-08 17:16:44.623437	97.8	35.7	-63.7	0.0
2026-01-08 17:16:45.741688	97.4	35.8	-64.4	0.0
2026-01-08 17:16:46.858444	97.1	36.0	-64.0	0.0
2026-01-08 17:16:47.976200	96.7	36.1	-65.3	0.0
2026-01-08 17:16:49.093955	96.3	36.3	-65.6	0.0
2026-01-08 17:16:50.211216	95.9	36.4	-65.6	0.0
2026-01-08 17:16:51.328971	95.5	36.6	-66.7	0.1
2026-01-08 17:16:52.447223	95.1	36.7	-65.3	0.0
2026-01-08 17:16:53.565979	94.7	36.9	-66.8	0.0
2026-01-08 17:16:54.683231	94.3	37.0	-65.4	0.0
2026-01-08 17:16:55.800482	93.9	37.2	-65.3	0.0
2026-01-08 17:16:56.917734	93.5	37.3	-65.8	0.0
2026-01-08 17:16:58.034985	93.1	37.5	-65.4	0.0
2026-01-08 17:16:59.152742	92.7	37.6	-64.4	0.0
2026-01-08 17:17:00.268002	92.3	37.7	-66.2	0.0
2026-01-08 17:17:01.387758	91.9	37.9	-66.2	0.0
2026-01-08 17:17:02.508010	91.4	38.0	-64.3	0.0
2026-01-08 17:17:03.628262	91.0	38.2	-66.0	0.0
2026-01-08 17:17:04.746514	90.6	38.3	-65.7	0.0
2026-01-08 17:17:05.865784	90.1	38.4	-64.7	0.0
2026-01-08 17:17:06.985036	89.7	38.6	-64.2	0.0
2026-01-08 17:17:08.101287	89.2	38.7	-63.3	0.0
2026-01-08 17:17:09.218556	88.8	38.8	-64.4	0.0
2026-01-08 17:17:10.336312	88.3	39.0	-63.9	0.0
2026-01-08 17:17:11.453564	87.9	39.1	-64.6	0.0
2026-01-08 17:17:12.571320	87.4	39.2	-65.3	0.0
2026-01-08 17:17:13.691580	87.0	39.4	-63.1	0.0
2026-01-08 17:17:14.809832	86.5	39.5	-64.2	0.0
2026-01-08 17:17:15.926596	86.0	39.6	-64.6	0.0
2026-01-08 17:17:17.045353	85.6	39.7	-65.4	0.0
2026-01-08 17:17:18.163109	85.1	39.8	-64.5	0.0
2026-01-08 17:17:19.280880	84.6	40.0	-64.8	0.0
2026-01-08 17:17:20.397635	84.1	40.1	-62.2	0.0
2026-01-08 17:17:21.515391	83.6	40.2	-63.8	0.0
2026-01-08 17:17:22.633651	83.1	40.3	-61.9	0.0
2026-01-08 17:17:23.753409	82.7	40.4	-59.9	0.0
2026-01-08 17:17:24.871174	82.2	40.5	-61.5	0.0
2026-01-08 17:17:25.989930	81.7	40.6	-63.2	0.0
2026-01-08 17:17:27.107182	81.2	40.7	-62.4	0.0
2026-01-08 17:17:28.225939	80.6	40.8	-63.3	0.0
2026-01-08 17:17:29.346191	80.1	40.9	-65.7	0.0
2026-01-08 17:17:30.464443	79.6	41.0	-64.3	0.0
2026-01-08 17:17:31.584695	79.1	41.1	-62.1	0.0
2026-01-08 17:17:32.705947	78.6	41.2	-63.6	0.0
2026-01-08 17:17:33.830217	78.1	41.3	-63.7	0.0
2026-01-08 17:17:34.951974	77.5	41.4	-62.9	0.0
2026-01-08 17:17:36.074227	77.0	41.5	-64.0	0.0
2026-01-08 17:17:37.196480	76.5	41.5	-61.5	0.0
2026-01-08 17:17:38.318732	75.9	41.6	-60.8	0.0
2026-01-08 17:17:39.440490	75.4	41.7	-62.3	0.0
2026-01-08 17:17:40.559742	74.9	41.8	-64.3	0.0
2026-01-08 17:17:41.678498	74.3	41.8	-61.5	0.0
2026-01-08 17:17:42.800751	73.8	41.9	-63.2	0.0
2026-01-08 17:17:43.923004	73.2	42.0	-60.3	0.0
2026-01-08 17:17:45.044264	72.7	42.0	-63.0	0.0
2026-01-08 17:17:46.164525	72.1	42.1	-63.0	0.0
2026-01-08 17:17:47.286282	71.6	42.1	-63.3	0.0
2026-01-08 17:17:48.408535	71.0	42.2	-64.3	0.0
2026-01-08 17:17:49.530292	70.5	42.2	-64.0	0.0
2026-01-08 17:17:50.650544	69.9	42.3	-62.2	0.0
2026-01-08 17:17:51.765795	69.4	42.3	-64.4	0.0
2026-01-08 17:17:52.884551	68.8	42.4	-63.2	0.0
2026-01-08 17:17:54.002812	68.2	42.4	-61.8	0.0
2026-01-08 17:17:55.121064	67.7	42.4	-63.6	0.0
2026-01-08 17:17:56.237820	67.1	42.5	-60.7	0.0
2026-01-08 17:17:57.354080	66.6	42.5	-63.0	0.0
2026-01-08 17:17:58.471836	66.0	42.5	-59.2	0.0
2026-01-08 17:17:59.593593	65.4	42.6	-64.4	0.0
2026-01-08 17:18:00.710854	64.9	42.6	-64.0	0.0
2026-01-08 17:18:01.831106	64.3	42.6	-62.2	0.0
2026-01-08 17:18:02.949862	63.7	42.6	-62.1	0.0
2026-01-08 17:18:04.068123	63.2	42.6	-61.3	0.0
2026-01-08 17:18:05.184374	62.6	42.6	-61.4	0.0
2026-01-08 17:18:06.302131	62.0	42.6	-62.7	0.0
2026-01-08 17:18:07.420888	61.5	42.6	-61.6	0.0
2026-01-08 17:18:08.545141	60.9	42.6	-62.8	0.0
2026-01-08 17:18:09.661393	60.3	42.6	-59.4	0.0
2026-01-08 17:18:10.777644	59.7	42.6	-62.7	0.0
2026-01-08 17:18:11.894896	59.2	42.6	-61.1	0.0
2026-01-08 17:18:13.014148	58.6	42.6	-62.0	0.0
2026-01-08 17:18:14.133400	58.0	42.6	-60.2	0.0
2026-01-08 17:18:15.251156	57.5	42.5	-61.4	0.0
2026-01-08 17:18:16.369913	56.9	42.5	-59.5	0.0
2026-01-08 17:18:17.489181	56.4	42.5	-60.1	0.0
2026-01-08 17:18:18.607433	55.8	42.5	-62.7	0.0
2026-01-08 17:18:19.724189	55.2	42.4	-59.1	0.0
2026-01-08 17:18:20.840441	54.7	42.4	-61.6	0.0
2026-01-08 17:18:21.959197	54.1	42.3	-61.0	0.0
2026-01-08 17:18:23.077458	53.6	42.3	-60.0	0.0
2026-01-08 17:18:24.194710	53.0	42.3	-63.1	0.0
2026-01-08 17:18:25.314467	52.4	42.2	-64.0	0.0
2026-01-08 17:18:26.432719	51.9	42.2	-61.6	0.0
2026-01-08 17:18:27.552971	51.3	42.1	-63.3	0.0
2026-01-08 17:18:28.671223	50.8	42.0	-62.3	0.0
2026-01-08 17:18:29.790475	50.2	42.0	-63.6	0.0
2026-01-08 17:18:30.908727	49.7	41.9	-62.1	0.0
2026-01-08 17:18:32.028492	49.2	41.9	-62.0	0.0
2026-01-08 17:18:33.147256	48.6	41.8	-60.8	0.0
2026-01-08 17:18:34.266508	48.1	41.7	-61.5	0.0
2026-01-08 17:18:35.385760	47.5	41.6	-61.0	0.0
2026-01-08 17:18:36.507013	47.0	41.6	-61.3	0.0
2026-01-08 17:18:37.623769	46.5	41.5	-62.5	0.0
2026-01-08 17:18:38.744021	46.0	41.4	-62.4	0.0
2026-01-08 17:18:39.862282	45.4	41.3	-59.6	0.0
2026-01-08 17:18:40.979542	44.9	41.2	-62.8	0.0
2026-01-08 17:18:42.097802	44.4	41.1	-62.1	0.0
2026-01-08 17:18:43.216054	43.9	41.0	-62.4	0.0
2026-01-08 17:18:44.337316	43.4	41.0	-59.3	0.0
2026-01-08 17:18:45.455072	42.9	40.9	-63.8	0.0
2026-01-08 17:18:46.571829	42.3	40.8	-64.1	0.0
2026-01-08 17:18:47.689585	41.8	40.7	-63.3	0.0
2026-01-08 17:18:48.807837	41.3	40.6	-64.6	0.0
2026-01-08 17:18:49.925593	40.8	40.4	-60.3	0.0
2026-01-08 17:18:51.045845	40.4	40.3	-58.2	0.0
2026-01-08 17:18:52.168098	39.9	40.2	-63.1	0.0
2026-01-08 17:18:53.289360	39.4	40.1	-61.6	0.0
2026-01-08 17:18:54.411117	38.9	40.0	-58.1	0.0
2026-01-08 17:18:55.535388	38.4	39.9	-63.3	0.0
2026-01-08 17:18:56.656154	37.9	39.8	-62.6	0.0
2026-01-08 17:18:57.777911	37.5	39.6	-61.6	0.0
2026-01-08 17:18:58.899667	37.0	39.5	-63.0	0.0
2026-01-08 17:19:00.021920	36.5	39.4	-61.2	0.0
2026-01-08 17:19:01.144173	36.0	39.3	-62.2	0.0
2026-01-08 17:19:02.266426	35.6	39.1	-63.3	0.0
2026-01-08 17:19:03.390687	35.1	39.0	-63.8	0.0
2026-01-08 17:19:04.512948	34.7	38.9	-63.9	0.0
2026-01-08 17:19:05.635201	34.2	38.8	-63.0	0.0
2026-01-08 17:19:06.756958	33.8	38.6	-61.3	0.0
2026-01-08 17:19:07.877210	33.3	38.5	-62.2	0.0
2026-01-08 17:19:08.992965	32.9	38.4	-61.5	0.0
2026-01-08 17:19:10.108729	32.5	38.2	-64.3	0.0
2026-01-08 17:19:11.224989	32.0	38.1	-63.5	0.0
2026-01-08 17:19:12.341746	31.6	37.9	-64.7	0.0
2026-01-08 17:19:13.460502	31.2	37.8	-62.5	0.0
2026-01-08 17:19:14.579258	30.8	37.7	-62.7	0.0
2026-01-08 17:19:15.696510	30.4	37.5	-62.8	0.0
2026-01-08 17:19:16.814271	30.0	37.4	-61.4	0.0
2026-01-08 17:19:17.933527	29.5	37.2	-58.0	0.0
2026-01-08 17:19:19.051779	29.1	37.1	-60.3	0.0
2026-01-08 17:19:20.167534	28.7	36.9	-64.8	0.0
2026-01-08 17:19:21.285786	28.3	36.8	-61.3	0.0
2026-01-08 17:19:22.407047	28.0	36.6	-64.3	0.0
2026-01-08 17:19:23.523298	27.6	36.5	-65.3	0.0
2026-01-08 17:19:24.642054	27.2	36.3	-62.9	0.0
2026-01-08 17:19:25.759306	26.8	36.2	-65.4	0.0
2026-01-08 17:19:26.877558	26.4	36.0	-60.4	0.0
2026-01-08 17:19:27.996313	26.0	35.9	-63.1	0.0
2026-01-08 17:19:29.113575	25.7	35.7	-64.3	0.0
2026-01-08 17:19:30.230827	25.3	35.6	-65.1	0.0
2026-01-08 17:19:31.346583	24.9	35.4	-65.0	0.0
2026-01-08 17:19:32.464339	24.6	35.3	-65.1	0.0
2026-01-08 17:19:33.581096	24.2	35.1	-64.9	0.0
2026-01-08 17:19:34.698355	23.9	35.0	-64.5	0.0
2026-01-08 17:19:35.816112	23.5	34.8	-65.0	0.0
2026-01-08 17:19:36.934363	23.2	34.6	-61.8	0.0
2026-01-08 17:19:38.052615	22.8	34.5	-62.9	0.0
2026-01-08 17:19:39.171868	22.5	34.3	-63.0	0.0
2026-01-08 17:19:40.290119	22.1	34.2	-64.1	0.0
2026-01-08 17:19:41.409380	21.8	34.0	-63.4	0.0
2026-01-08 17:19:42.524639	21.5	33.9	-63.6	0.0
2026-01-08 17:19:43.641395	21.2	33.7	-65.6	0.0
2026-01-08 17:19:44.758655	20.8	33.5	-63.4	0.0
2026-01-08 17:19:45.878907	20.5	33.4	-63.1	0.0
2026-01-08 17:19:46.997159	20.2	33.2	-64.3	0.0
2026-01-08 17:19:48.116411	19.9	33.1	-62.3	0.0
2026-01-08 17:19:49.233671	19.6	32.9	-62.4	0.0
2026-01-08 17:19:50.350427	19.3	32.7	-64.7	0.0
2026-01-08 17:19:51.469183	19.0	32.6	-63.5	0.0
2026-01-08 17:19:52.585950	18.6	32.4	-63.5	0.0
2026-01-08 17:19:53.704211	18.4	32.3	-63.4	0.0
2026-01-08 17:19:54.821463	18.1	32.1	-65.1	0.0
2026-01-08 17:19:55.938714	17.8	31.9	-65.1	0.0
2026-01-08 17:19:57.057967	17.5	31.8	-63.4	0.0
2026-01-08 17:19:58.175227	17.2	31.6	-65.8	0.0
2026-01-08 17:19:59.292478	16.9	31.5	-65.7	0.0
2026-01-08 17:20:00.408730	16.6	31.3	-65.0	0.0
2026-01-08 17:20:01.528982	16.3	31.1	-65.1	0.0
2026-01-08 17:20:02.646234	16.1	31.0	-63.9	0.0
2026-01-08 17:20:03.765486	15.8	30.8	-64.9	0.4
2026-01-08 17:20:04.886738	15.5	30.7	-61.8	0.0
2026-01-08 17:20:06.005990	15.2	30.5	-61.8	0.0
2026-01-08 17:20:07.124251	15.0	30.3	-63.3	0.0
2026-01-08 17:20:08.242503	14.7	30.2	-63.7	0.3
2026-01-08 17:20:09.361259	14.5	30.0	-61.8	0.0
2026-01-08 17:20:10.480511	14.2	29.9	-64.9	1.9
2026-01-08 17:20:11.599267	13.9	29.7	-64.1	0.0
2026-01-08 17:20:12.718528	13.7	29.6	-64.7	0.0
2026-01-08 17:20:13.838301	13.4	29.4	-62.3	0.0
2026-01-08 17:20:14.957056	13.2	29.2	-62.5	0.0
2026-01-08 17:20:16.074308	12.9	29.1	-63.8	0.0
2026-01-08 17:20:17.193064	12.7	28.9	-61.8	0.0
2026-01-08 17:20:18.312819	12.5	28.8	-62.9	0.0
2026-01-08 17:20:19.432072	12.2	28.6	-64.4	2.7
2026-01-08 17:20:20.551828	12.0	28.5	-62.5	0.0
2026-01-08 17:20:21.674081	11.8	28.3	-62.3	0.0
2026-01-08 17:20:22.795342	11.5	28.1	-63.4	0.0
2026-01-08 17:20:23.918108	11.3	28.0	-62.6	1.8
2026-01-08 17:20:25.038885	11.1	27.8	-61.8	0.0
2026-01-08 17:20:26.160156	10.8	27.7	-62.2	0.4
2026-01-08 17:20:27.282408	10.6	27.5	-62.5	0.7
2026-01-08 17:20:28.403670	10.4	27.4	-64.8	4.4
2026-01-08 17:20:29.524426	10.2	27.2	-59.8	0.0
2026-01-08 17:20:30.646679	10.0	27.1	-61.5	0.0
2026-01-08 17:20:31.768931	9.7	26.9	-63.6	2.6
2026-01-08 17:20:32.889696	9.5	26.8	-62.5	0.0
2026-01-08 17:20:34.011966	9.3	26.6	-64.1	3.9
2026-01-08 17:20:35.133242	9.1	26.5	-64.5	3.4
2026-01-08 17:20:36.258491	8.9	26.3	-62.9	0.3
2026-01-08 17:20:37.378752	8.7	26.2	-61.1	0.0
2026-01-08 17:20:38.496003	8.5	26.0	-63.2	4.1
2026-01-08 17:20:39.612760	8.3	25.9	-63.7	2.7
2026-01-08 17:20:40.731517	8.1	25.7	-62.9	0.0
2026-01-08 17:20:41.848768	7.9	25.6	-61.8	0.0
2026-01-08 17:20:42.967020	7.7	25.4	-62.6	3.0
2026-01-08 17:20:44.086281	7.5	25.3	-64.1	4.4
2026-01-08 17:20:45.203045	7.3	25.1	-61.6	0.0
2026-01-08 17:20:46.321297	7.1	25.0	-58.9	0.0
2026-01-08 17:20:47.440549	7.0	24.8	-62.8	4.1
2026-01-08 17:20:48.560306	6.8	24.7	-61.5	1.9
2026-01-08 17:20:49.677061	6.6	24.5	-61.1	0.0
2026-01-08 17:20:50.795817	6.4	24.4	-61.2	0.8
2026-01-08 17:20:51.913077	6.2	24.3	-61.6	0.9
2026-01-08 17:20:53.031833	6.1	24.1	-62.7	3.2
2026-01-08 17:20:54.156086	5.9	24.0	-62.9	3.2
2026-01-08 17:20:55.274338	5.7	23.8	-61.2	0.0
2026-01-08 17:20:56.392599	5.5	23.7	-63.0	3.9
2026-01-08 17:20:57.513852	5.4	23.5	-63.0	0.5
2026-01-08 17:20:58.632113	5.2	23.4	-62.8	2.7
2026-01-08 17:20:59.751365	5.0	23.3	-63.6	3.5
2026-01-08 17:21:00.869121	4.8	23.1	-62.5	2.2
2026-01-08 17:21:01.990373	4.7	23.0	-60.5	0.0
2026-01-08 17:21:03.108625	4.5	22.8	-62.0	0.0
2026-01-08 17:21:04.229382	4.4	22.7	-62.8	1.9
2026-01-08 17:21:05.346633	4.2	22.6	-62.3	0.3
2026-01-08 17:21:06.466400	4.0	22.4	-61.4	0.0
2026-01-08 17:21:07.585661	3.9	22.3	-61.9	0.4
2026-01-08 17:21:08.702913	3.7	22.2	-61.7	0.3
2026-01-08 17:21:09.824165	3.6	22.0	-60.2	0.0
2026-01-08 17:21:10.942417	3.4	21.9	-61.1	0.0
2026-01-08 17:21:12.062174	3.3	21.7	-62.6	2.0
2026-01-08 17:21:13.177425	3.1	21.6	-61.7	0.0
2026-01-08 17:21:14.296190	3.0	21.5	-61.1	0.0
2026-01-08 17:21:15.413450	2.8	21.3	-60.5	0.0
2026-01-08 17:21:16.533207	2.7	21.2	-61.4	3.7
2026-01-08 17:21:17.650458	2.5	21.1	-61.2	2.3
2026-01-08 17:21:18.766710	2.4	20.9	-61.3	1.0
2026-01-08 17:21:19.885962	2.2	20.8	-62.0	3.4
2026-01-08 17:21:21.005718	2.1	20.7	-62.1	2.7
2026-01-08 17:21:22.124978	1.9	20.6	-61.5	1.4
2026-01-08 17:21:23.240230	1.8	20.4	-62.1	2.3
2026-01-08 17:21:24.360482	1.7	20.3	-61.8	0.0
2026-01-08 17:21:25.479238	1.5	20.2	-62.4	1.7
2026-01-08 17:21:26.598995	1.4	20.0	-62.3	3.8
2026-01-08 17:21:27.718247	1.3	19.9	-62.5	2.3
2026-01-08 17:21:28.836004	1.1	19.8	-63.6	4.0
2026-01-08 17:21:29.954760	1.0	19.7	-63.2	1.8
2026-01-08 17:21:31.073524	0.9	19.5	-62.8	4.2
2026-01-08 17:21:32.191776	0.7	19.4	-61.4	0.0
2026-01-08 17:21:33.309532	0.6	19.3	-62.1	3.0
2026-01-08 17:21:34.429793	0.5	19.2	-62.8	3.7
2026-01-08 17:21:35.549053	0.3	19.0	-62.6	2.9
2026-01-08 17:21:36.666810	0.2	18.9	-62.1	3.9
2026-01-08 17:21:37.787576	0.1	18.8	-62.8	5.8
2026-01-08 17:21:38.905845	360.0	18.7	-62.2	5.0
2026-01-08 17:21:40.028098	359.8	18.5	-62.8	4.2
2026-01-08 17:21:41.145358	359.7	18.4	-61.5	1.7
2026-01-08 17:21:42.262610	359.6	18.3	-62.1	1.7
2026-01-08 17:21:43.381366	359.5	18.2	-60.9	0.0
2026-01-08 17:21:44.500618	359.4	18.0	-60.7	0.2
2026-01-08 17:21:45.620374	359.2	17.9	-61.8	0.0
2026-01-08 17:21:46.737625	359.1	17.8	-61.4	2.5
2026-01-08 17:21:47.855381	359.0	17.7	-61.7	1.5
2026-01-08 17:21:48.974137	358.9	17.6	-61.6	2.6
2026-01-08 17:21:50.097390	358.8	17.5	-61.3	3.2
2026-01-08 17:21:51.217147	358.7	17.3	-62.2	2.9
2026-01-08 17:21:52.338400	358.6	17.2	-62.4	1.1
2026-01-08 17:21:53.458652	358.4	17.1	-63.0	2.0
2026-01-08 17:21:54.578905	358.3	17.0	-62.4	2.3
2026-01-08 17:21:55.699157	358.2	16.9	-62.7	2.6
2026-01-08 17:21:56.819914	358.1	16.7	-62.9	1.6
2026-01-08 17:21:57.944167	358.0	16.6	-62.9	3.2
2026-01-08 17:21:59.065924	357.9	16.5	-62.4	2.2
2026-01-08 17:22:00.188177	357.8	16.4	-62.6	3.2
2026-01-08 17:22:01.309934	357.7	16.3	-62.5	4.3
2026-01-08 17:22:02.431701	357.6	16.2	-62.1	2.2
2026-01-08 17:22:03.553458	357.5	16.1	-62.8	4.0
2026-01-08 17:22:04.675214	357.4	15.9	-62.4	3.9
2026-01-08 17:22:05.796476	357.3	15.8	-63.0	4.1
2026-01-08 17:22:06.917738	357.2	15.7	-61.9	2.0
2026-01-08 17:22:08.038999	357.1	15.6	-62.7	3.5
2026-01-08 17:22:09.160755	357.0	15.5	-62.8	0.0
2026-01-08 17:22:10.282512	356.9	15.4	-63.5	3.8
2026-01-08 17:22:11.404269	356.8	15.3	-62.8	1.7
2026-01-08 17:22:12.526522	356.7	15.2	-62.9	0.0
2026-01-08 17:22:13.644287	356.6	15.1	-62.9	2.6
2026-01-08 17:22:14.760538	356.5	14.9	-62.2	0.0
2026-01-08 17:22:15.877790	356.4	14.8	-62.6	2.4
2026-01-08 17:22:16.994041	356.3	14.7	-62.1	1.8
2026-01-08 17:22:18.112302	356.2	14.6	-62.0	2.5
2026-01-08 17:22:19.231554	356.1	14.5	-62.1	2.9
2026-01-08 17:22:20.349309	356.0	14.4	-62.4	3.9
2026-01-08 17:22:21.466570	355.9	14.3	-60.7	0.0
2026-01-08 17:22:22.588823	355.8	14.2	-61.6	0.2
2026-01-08 17:22:23.709075	355.7	14.1	-61.4	1.8
2026-01-08 17:22:24.828344	355.6	14.0	-61.8	3.1
2026-01-08 17:22:25.946604	355.6	13.9	-62.4	3.3
2026-01-08 17:22:27.067360	355.5	13.8	-61.8	2.0
2026-01-08 17:22:28.185116	355.4	13.7	-62.2	2.8
2026-01-08 17:22:29.304368	355.3	13.6	-63.1	2.6
2026-01-08 17:22:30.422124	355.2	13.5	-63.0	2.0
2026-01-08 17:22:31.540879	355.1	13.4	-62.9	2.7
2026-01-08 17:22:32.663141	355.0	13.3	-63.0	2.2
2026-01-08 17:22:33.779392	355.0	13.2	-62.5	1.4
2026-01-08 17:22:34.899149	354.9	13.1	-62.6	1.0
2026-01-08 17:22:36.015905	354.8	13.0	-62.9	1.2
2026-01-08 17:22:37.135661	354.7	12.8	-62.6	0.0
2026-01-08 17:22:38.253913	354.6	12.7	-63.3	3.1
2026-01-08 17:22:39.372669	354.5	12.6	-62.9	0.0
2026-01-08 17:22:40.492921	354.5	12.5	-62.9	3.0
2026-01-08 17:22:41.611173	354.4	12.4	-62.4	2.7
2026-01-08 17:22:42.728425	354.3	12.3	-61.5	1.9
2026-01-08 17:22:43.847181	354.2	12.2	-62.1	2.4
2026-01-08 17:22:44.966938	354.1	12.2	-63.1	3.8
2026-01-08 17:22:46.084694	354.1	12.1	-62.4	2.7
2026-01-08 17:22:47.204946	354.0	12.0	-61.8	2.7
2026-01-08 17:22:48.323198	353.9	11.9	-62.0	2.3
2026-01-08 17:22:49.442963	353.8	11.8	-61.8	0.8
2026-01-08 17:22:50.561720	353.8	11.7	-61.7	5.2
2026-01-08 17:22:51.677475	353.7	11.6	-61.8	3.0
2026-01-08 17:22:52.799231	353.6	11.5	-62.4	2.3
2026-01-08 17:22:53.919988	353.5	11.4	-62.4	3.3
2026-01-08 17:22:55.040744	353.5	11.3	-62.7	3.8
2026-01-08 17:22:56.158005	353.4	11.2	-62.2	1.9
2026-01-08 17:22:57.277257	353.3	11.1	-63.0	4.0
2026-01-08 17:22:58.397518	353.2	11.0	-63.7	2.7
2026-01-08 17:22:59.519275	353.2	10.9	-62.7	0.3
2026-01-08 17:23:00.638527	353.1	10.8	-62.7	0.0
2026-01-08 17:23:01.755282	353.0	10.7	-62.8	1.0
2026-01-08 17:23:02.875544	353.0	10.6	-63.3	1.0
2026-01-08 17:23:03.991805	352.9	10.5	-63.5	2.0
2026-01-08 17:23:05.111057	352.8	10.4	-62.4	1.6
2026-01-08 17:23:06.228308	352.7	10.3	-63.3	0.0
2026-01-08 17:23:07.347560	352.7	10.2	-63.2	1.3
2026-01-08 17:23:08.464812	352.6	10.2	-63.7	0.0
2026-01-08 17:23:09.583064	352.5	10.1	-63.2	0.8
2026-01-08 17:23:10.699820	352.5	10.0	-62.5	0.0
2026-01-08 17:23:11.816576	352.4	9.9	-63.8	3.0
2026-01-08 17:23:12.938829	352.3	9.8	-63.0	2.2
2026-01-08 17:23:14.059594	352.3	9.7	-63.1	2.9
2026-01-08 17:23:15.180854	352.2	9.6	-62.5	0.0
2026-01-08 17:23:16.303107	352.1	9.5	-63.2	2.4
2026-01-08 17:23:17.425372	352.1	9.4	-62.4	0.0
2026-01-08 17:23:18.549130	352.0	9.3	-62.4	1.7
2026-01-08 17:23:19.670391	352.0	9.2	-62.5	3.0
2026-01-08 17:23:20.791652	351.9	9.2	-62.4	0.5
2026-01-08 17:23:21.913905	351.8	9.1	-63.6	3.6
2026-01-08 17:23:23.035661	351.8	9.0	-63.6	1.7
2026-01-08 17:23:24.156923	351.7	8.9	-62.4	0.0
2026-01-08 17:23:25.278192	351.6	8.8	-63.9	4.1
2026-01-08 17:23:26.401454	351.6	8.7	-63.8	5.1
2026-01-08 17:23:27.522715	351.5	8.6	-63.5	3.3
2026-01-08 17:23:28.641976	351.5	8.5	-63.7	2.5
2026-01-08 17:23:29.759236	351.4	8.5	-63.3	2.9
2026-01-08 17:23:30.878489	351.3	8.4	-63.2	3.6
2026-01-08 17:23:31.995740	351.3	8.3	-62.1	0.9
2026-01-08 17:23:33.116001	351.2	8.2	-63.2	5.2
2026-01-08 17:23:34.231765	351.2	8.1	-62.4	1.8
2026-01-08 17:23:35.350017	351.1	8.0	-63.3	6.0
2026-01-08 17:23:36.469269	351.0	7.9	-63.1	5.5
2026-01-08 17:23:37.590521	351.0	7.9	-62.5	4.1
2026-01-08 17:23:38.708773	350.9	7.8	-62.9	2.6
2026-01-08 17:23:39.828530	350.9	7.7	-63.3	3.6
2026-01-08 17:23:40.945790	350.8	7.6	-62.9	2.4
2026-01-08 17:23:42.064042	350.8	7.5	-62.7	1.8
2026-01-08 17:23:43.181294	350.7	7.4	-62.3	1.7
2026-01-08 17:23:44.301050	350.7	7.4	-62.8	1.2
2026-01-08 17:23:45.418312	350.6	7.3	-63.8	4.1
2026-01-08 17:23:46.537564	350.5	7.2	-61.9	0.0
2026-01-08 17:23:47.656816	350.5	7.1	-63.1	1.7
2026-01-08 17:23:48.776076	350.4	7.0	-63.3	1.9
2026-01-08 17:23:49.892328	350.4	6.9	-63.6	3.6
2026-01-08 17:23:51.010084	350.3	6.9	-63.7	2.5
2026-01-08 17:23:52.128841	350.3	6.8	-64.0	3.8
2026-01-08 17:23:53.247100	350.2	6.7	-63.2	1.8
2026-01-08 17:23:54.366353	350.2	6.6	-64.0	2.4
2026-01-08 17:23:55.483604	350.1	6.5	-63.5	0.0
2026-01-08 17:23:56.602856	350.1	6.5	-64.1	0.0
2026-01-08 17:23:57.722108	350.0	6.4	-64.4	0.0
2026-01-08 17:23:58.842361	350.0	6.3	-63.6	0.0
2026-01-08 17:23:59.959612	349.9	6.2	-63.9	0.0
2026-01-08 17:24:01.076864	349.9	6.1	-63.5	0.0
2026-01-08 17:24:02.193115	349.8	6.1	-64.7	1.8
2026-01-08 17:24:03.309871	349.8	6.0	-67.4	1.1
2026-01-08 17:24:04.427139	349.7	5.9	-68.7	0.0
2026-01-08 17:24:05.543399	349.7	5.8	-68.5	0.0
2026-01-08 17:24:06.659658	349.6	5.7	-68.5	0.0
2026-01-08 17:24:07.774425	349.6	5.7	-68.8	0.0
2026-01-08 17:24:08.891190	349.5	5.6	-70.2	0.0
2026-01-08 17:24:10.008450	349.5	5.5	-70.4	0.0
2026-01-08 17:24:11.125214	349.4	5.4	-70.0	0.0
2026-01-08 17:24:12.243466	349.4	5.3	-67.5	0.0
2026-01-08 17:24:13.356717	349.3	5.3	-70.6	0.0
2026-01-08 17:24:14.475473	349.3	5.2	-71.7	0.0
2026-01-08 17:24:15.592725	349.2	5.1	-72.0	0.0
2026-01-08 17:24:16.711977	349.2	5.0	-71.1	0.0
2026-01-08 17:24:17.827228	349.1	5.0	-71.6	0.0
#Closed at: 2026-01-08 17:11:53.944522