passes_logs/2025/01/13/SPB_Silybum_02/SPB_Silybum_02__20250113_084035_AQUA_rec.log

#Pass ID: 20250113_084035_AQUA
#Satellite: AQUA
#Configuration: AQUA
#Start time: 2025-01-13 08:40:35

#Version: 2.0.20230423
#Station: SPB_Silybum_02
#Location: 30.233357 lon 59.946436 lat
#TLE: 1 27424U 02022A   25012.80860775  .00001720  00000+0  36312-3 0  9993
#TLE: 2 27424  98.3585 329.4528 0001624 113.6325 279.3978 14.60673868207302

#Time	Az	El	Level	Level2	SNR	BER	Gain	Gain2
2025-01-13 08:40:37.61	76.13	4.11	
2025-01-13 08:40:37.81	76.10	4.12	
2025-01-13 08:40:38.02	76.08	4.13	
2025-01-13 08:40:38.22	76.05	4.14	
2025-01-13 08:40:38.43	76.03	4.15	
2025-01-13 08:40:38.63	76.00	4.16	
2025-01-13 08:40:38.84	75.98	4.17	
2025-01-13 08:40:39.04	75.95	4.18	
2025-01-13 08:40:39.25	75.93	4.19	
2025-01-13 08:40:39.45	75.90	4.20	
2025-01-13 08:40:39.66	75.87	4.21	
2025-01-13 08:40:39.86	75.85	4.21	
2025-01-13 08:40:40.07	75.82	4.22	
2025-01-13 08:40:40.28	75.80	4.23	
2025-01-13 08:40:40.48	75.77	4.24	
2025-01-13 08:40:40.69	75.75	4.25	
2025-01-13 08:40:40.89	75.72	4.26	
2025-01-13 08:40:41.10	75.69	4.27	
2025-01-13 08:40:41.31	75.67	4.28	
2025-01-13 08:40:41.51	75.64	4.29	
2025-01-13 08:40:41.72	75.62	4.30	
2025-01-13 08:40:41.92	75.59	4.31	
2025-01-13 08:40:42.13	75.57	4.32	
2025-01-13 08:40:42.33	75.54	4.33	
2025-01-13 08:40:42.54	75.51	4.34	
2025-01-13 08:40:42.74	75.49	4.35	
2025-01-13 08:40:42.95	75.46	4.36	
2025-01-13 08:40:43.15	75.44	4.37	
2025-01-13 08:40:43.36	75.41	4.38	
2025-01-13 08:40:43.56	75.39	4.39	
2025-01-13 08:40:43.77	75.36	4.40	
2025-01-13 08:40:43.97	75.33	4.41	
2025-01-13 08:40:44.18	75.31	4.42	
2025-01-13 08:40:44.38	75.28	4.43	
2025-01-13 08:40:44.59	75.25	4.44	
2025-01-13 08:40:44.80	75.23	4.45	
2025-01-13 08:40:45.00	75.20	4.46	
2025-01-13 08:40:45.21	75.18	4.47	
2025-01-13 08:40:45.41	75.15	4.48	
2025-01-13 08:40:45.62	75.12	4.49	
2025-01-13 08:40:45.82	75.10	4.50	
2025-01-13 08:40:46.03	75.07	4.51	
2025-01-13 08:40:46.23	75.05	4.52	
2025-01-13 08:40:46.44	75.02	4.53	
2025-01-13 08:40:46.65	74.99	4.54	
2025-01-13 08:40:46.85	74.97	4.55	
2025-01-13 08:40:47.05	74.94	4.56	
2025-01-13 08:40:47.26	74.91	4.57	
2025-01-13 08:40:47.46	74.89	4.58	
2025-01-13 08:40:47.67	74.86	4.59	
2025-01-13 08:40:47.87	74.84	4.60	
2025-01-13 08:40:48.08	74.81	4.61	
2025-01-13 08:40:48.28	74.78	4.61	
2025-01-13 08:40:48.49	74.76	4.62	
2025-01-13 08:40:48.69	74.73	4.63	
2025-01-13 08:40:48.90	74.70	4.64	
2025-01-13 08:40:49.11	74.68	4.65	
2025-01-13 08:40:49.31	74.65	4.66	
2025-01-13 08:40:49.52	74.62	4.67	
2025-01-13 08:40:49.72	74.60	4.68	
2025-01-13 08:40:49.92	74.57	4.69	
2025-01-13 08:40:50.13	74.55	4.70	
2025-01-13 08:40:50.34	74.52	4.71	
2025-01-13 08:40:50.54	74.49	4.72	
2025-01-13 08:40:50.74	74.47	4.73	
2025-01-13 08:40:50.95	74.44	4.74	
2025-01-13 08:40:51.15	74.41	4.75	
2025-01-13 08:40:51.36	74.39	4.76	
2025-01-13 08:40:51.57	74.36	4.77	
2025-01-13 08:40:51.77	74.33	4.78	
2025-01-13 08:40:51.98	74.30	4.79	
2025-01-13 08:40:52.18	74.28	4.80	
2025-01-13 08:40:52.39	74.25	4.81	
2025-01-13 08:40:52.59	74.23	4.82	
2025-01-13 08:40:52.80	74.20	4.83	
2025-01-13 08:40:53.00	74.17	4.84	
2025-01-13 08:40:53.21	74.14	4.85	
2025-01-13 08:40:53.41	74.12	4.86	
2025-01-13 08:40:53.62	74.09	4.87	
2025-01-13 08:40:53.82	74.06	4.88	
2025-01-13 08:40:54.03	74.04	4.89	
2025-01-13 08:40:54.23	74.01	4.90	
2025-01-13 08:40:54.44	73.98	4.91	
2025-01-13 08:40:54.64	73.96	4.92	
2025-01-13 08:40:54.85	73.93	4.93	
2025-01-13 08:40:55.05	73.90	4.94	
2025-01-13 08:40:55.26	73.88	4.94	
2025-01-13 08:40:55.46	73.85	4.95	
2025-01-13 08:40:55.67	73.82	4.96	
2025-01-13 08:40:55.88	73.79	4.97	
2025-01-13 08:40:56.08	73.77	4.98	
2025-01-13 08:40:56.29	73.74	4.99	
2025-01-13 08:40:56.49	73.71	5.00	
2025-01-13 08:40:56.70	73.68	5.01	
2025-01-13 08:40:56.90	73.66	5.02	
2025-01-13 08:40:57.11	73.63	5.03	
2025-01-13 08:40:57.31	73.60	5.04	
2025-01-13 08:40:57.52	73.58	5.05	
2025-01-13 08:40:57.73	73.55	5.06	
2025-01-13 08:40:57.93	73.52	5.07	
2025-01-13 08:40:58.13	73.49	5.08	
2025-01-13 08:40:58.34	73.47	5.09	
2025-01-13 08:40:58.54	73.44	5.10	
2025-01-13 08:40:58.75	73.41	5.11	
2025-01-13 08:40:58.96	73.38	5.12	
2025-01-13 08:40:59.16	73.36	5.13	
2025-01-13 08:40:59.37	73.33	5.14	
2025-01-13 08:40:59.57	73.30	5.15	
2025-01-13 08:40:59.78	73.27	5.16	
2025-01-13 08:40:59.98	73.25	5.17	
2025-01-13 08:41:00.19	73.22	5.18	
2025-01-13 08:41:00.39	73.19	5.19	
2025-01-13 08:41:00.60	73.16	5.20	
2025-01-13 08:41:00.80	73.14	5.21	
2025-01-13 08:41:01.01	73.11	5.22	
2025-01-13 08:41:01.21	73.08	5.22	
2025-01-13 08:41:01.42	73.05	5.23	
2025-01-13 08:41:01.62	73.03	5.24	
2025-01-13 08:41:01.83	73.00	5.25	
2025-01-13 08:41:02.03	72.97	5.26	
2025-01-13 08:41:02.24	72.94	5.27	
2025-01-13 08:41:02.46	72.91	5.28	
2025-01-13 08:41:02.66	72.89	5.29	
2025-01-13 08:41:02.87	72.86	5.30	
2025-01-13 08:41:03.08	72.83	5.31	
2025-01-13 08:41:03.28	72.80	5.32	
2025-01-13 08:41:03.49	72.77	5.33	
2025-01-13 08:41:03.69	72.75	5.34	
2025-01-13 08:41:03.90	72.72	5.35	
2025-01-13 08:41:04.10	72.69	5.36	
2025-01-13 08:41:04.31	72.66	5.37	
2025-01-13 08:41:04.51	72.64	5.38	
2025-01-13 08:41:04.72	72.61	5.39	
2025-01-13 08:41:04.92	72.58	5.40	
2025-01-13 08:41:05.13	72.55	5.41	
2025-01-13 08:41:05.33	72.52	5.42	
2025-01-13 08:41:05.54	72.49	5.43	
2025-01-13 08:41:05.74	72.47	5.44	
2025-01-13 08:41:05.95	72.44	5.45	
2025-01-13 08:41:06.16	72.41	5.46	
2025-01-13 08:41:06.36	72.38	5.47	
2025-01-13 08:41:06.57	72.35	5.48	
2025-01-13 08:41:06.77	72.33	5.48	
2025-01-13 08:41:06.98	72.30	5.49	
2025-01-13 08:41:07.18	72.27	5.50	
2025-01-13 08:41:07.39	72.24	5.51	
2025-01-13 08:41:07.59	72.21	5.52	
2025-01-13 08:41:07.81	72.18	5.53	
2025-01-13 08:41:08.02	72.15	5.54	
2025-01-13 08:41:08.23	72.13	5.55	
2025-01-13 08:41:08.43	72.10	5.56	
2025-01-13 08:41:08.64	72.07	5.57	
2025-01-13 08:41:08.84	72.04	5.58	
2025-01-13 08:41:09.05	72.01	5.59	
2025-01-13 08:41:09.25	71.98	5.60	
2025-01-13 08:41:09.46	71.96	5.61	
2025-01-13 08:41:09.66	71.93	5.62	
2025-01-13 08:41:09.87	71.90	5.63	
2025-01-13 08:41:10.08	71.87	5.64	
2025-01-13 08:41:10.28	71.84	5.65	
2025-01-13 08:41:10.49	71.81	5.66	
2025-01-13 08:41:10.69	71.78	5.67	
2025-01-13 08:41:10.90	71.76	5.68	
2025-01-13 08:41:11.10	71.73	5.69	
2025-01-13 08:41:11.31	71.70	5.70	
2025-01-13 08:41:11.53	71.67	5.71	
2025-01-13 08:41:11.73	71.64	5.72	
2025-01-13 08:41:11.93	71.61	5.72	
2025-01-13 08:41:12.14	71.58	5.73	
2025-01-13 08:41:12.35	71.55	5.74	
2025-01-13 08:41:12.55	71.52	5.75	
2025-01-13 08:41:12.76	71.50	5.76	
2025-01-13 08:41:12.96	71.47	5.77	
2025-01-13 08:41:13.18	71.44	5.78	
2025-01-13 08:41:13.38	71.41	5.79	
2025-01-13 08:41:13.59	71.38	5.80	
2025-01-13 08:41:13.80	71.35	5.81	
2025-01-13 08:41:14.00	71.32	5.82	
2025-01-13 08:41:14.21	71.29	5.83	
2025-01-13 08:41:14.42	71.26	5.84	
2025-01-13 08:41:14.63	71.23	5.85	
2025-01-13 08:41:14.83	71.20	5.86	
2025-01-13 08:41:15.04	71.17	5.87	
2025-01-13 08:41:15.24	71.15	5.88	
2025-01-13 08:41:15.45	71.12	5.89	
2025-01-13 08:41:15.65	71.09	5.90	
2025-01-13 08:41:15.86	71.06	5.91	
2025-01-13 08:41:16.07	71.03	5.92	
2025-01-13 08:41:16.27	71.00	5.93	
2025-01-13 08:41:16.48	70.97	5.94	
2025-01-13 08:41:16.68	70.94	5.94	
2025-01-13 08:41:16.89	70.91	5.95	
2025-01-13 08:41:17.09	70.88	5.96	
2025-01-13 08:41:17.30	70.85	5.97	
2025-01-13 08:41:17.50	70.82	5.98	
2025-01-13 08:41:17.71	70.79	5.99	
2025-01-13 08:41:17.91	70.77	6.00	
2025-01-13 08:41:18.12	70.74	6.01	
2025-01-13 08:41:18.33	70.71	6.02	
2025-01-13 08:41:18.53	70.68	6.03	
2025-01-13 08:41:18.74	70.65	6.04	
2025-01-13 08:41:18.94	70.62	6.05	
2025-01-13 08:41:19.14	70.59	6.06	
2025-01-13 08:41:19.35	70.56	6.07	
2025-01-13 08:41:19.55	70.53	6.08	
2025-01-13 08:41:19.76	70.50	6.09	
2025-01-13 08:41:19.96	70.47	6.10	
2025-01-13 08:41:20.17	70.44	6.10	
2025-01-13 08:41:20.38	70.41	6.11	
2025-01-13 08:41:20.58	70.38	6.12	
2025-01-13 08:41:20.78	70.35	6.13	
2025-01-13 08:41:20.99	70.32	6.14	
2025-01-13 08:41:21.20	70.29	6.15	
2025-01-13 08:41:21.40	70.26	6.16	
2025-01-13 08:41:21.61	70.23	6.17	
2025-01-13 08:41:21.81	70.21	6.18	
2025-01-13 08:41:22.02	70.17	6.19	
2025-01-13 08:41:22.22	70.15	6.20	
2025-01-13 08:41:22.43	70.12	6.21	
2025-01-13 08:41:22.63	70.09	6.22	
2025-01-13 08:41:22.84	70.06	6.23	
2025-01-13 08:41:23.04	70.03	6.24	
2025-01-13 08:41:23.25	70.00	6.25	
2025-01-13 08:41:23.46	69.97	6.26	
2025-01-13 08:41:23.66	69.94	6.26	
2025-01-13 08:41:23.88	69.90	6.27	
2025-01-13 08:41:24.08	69.88	6.28	
2025-01-13 08:41:24.29	69.84	6.29	
2025-01-13 08:41:24.50	69.81	6.30	
2025-01-13 08:41:24.70	69.78	6.31	
2025-01-13 08:41:24.91	69.75	6.32	
2025-01-13 08:41:25.11	69.72	6.33	
2025-01-13 08:41:25.32	69.69	6.34	
2025-01-13 08:41:25.52	69.66	6.35	
2025-01-13 08:41:25.73	69.63	6.36	
2025-01-13 08:41:25.93	69.60	6.37	
2025-01-13 08:41:26.14	69.57	6.38	
2025-01-13 08:41:26.35	69.54	6.39	
2025-01-13 08:41:26.55	69.51	6.40	
2025-01-13 08:41:26.76	69.48	6.41	
2025-01-13 08:41:26.96	69.45	6.41	
2025-01-13 08:41:27.16	69.42	6.42	
2025-01-13 08:41:27.37	69.39	6.43	
2025-01-13 08:41:27.57	69.36	6.44	
2025-01-13 08:41:27.78	69.33	6.45	
2025-01-13 08:41:27.98	69.30	6.46	
2025-01-13 08:41:28.19	69.27	6.47	
2025-01-13 08:41:28.40	69.24	6.48	
2025-01-13 08:41:28.60	69.21	6.49	
2025-01-13 08:41:28.81	69.18	6.50	
2025-01-13 08:41:29.01	69.15	6.51	
2025-01-13 08:41:29.22	69.12	6.52	
2025-01-13 08:41:29.42	69.09	6.53	
2025-01-13 08:41:29.63	69.06	6.54	
2025-01-13 08:41:29.83	69.03	6.54	
2025-01-13 08:41:30.04	69.00	6.55	
2025-01-13 08:41:30.24	68.97	6.56	
2025-01-13 08:41:30.45	68.94	6.57	
2025-01-13 08:41:30.65	68.91	6.58	
2025-01-13 08:41:30.86	68.87	6.59	
2025-01-13 08:41:31.06	68.84	6.60	
2025-01-13 08:41:31.28	68.81	6.61	
2025-01-13 08:41:31.49	68.78	6.62	
2025-01-13 08:41:31.69	68.75	6.63	
2025-01-13 08:41:31.90	68.72	6.64	
2025-01-13 08:41:32.10	68.69	6.65	
2025-01-13 08:41:32.31	68.66	6.66	
2025-01-13 08:41:32.51	68.63	6.66	
2025-01-13 08:41:32.72	68.60	6.67	
2025-01-13 08:41:32.93	68.56	6.68	
2025-01-13 08:41:33.13	68.53	6.69	
2025-01-13 08:41:33.34	68.50	6.70	
2025-01-13 08:41:33.54	68.47	6.71	
2025-01-13 08:41:33.75	68.44	6.72	
2025-01-13 08:41:33.96	68.41	6.73	
2025-01-13 08:41:34.16	68.38	6.74	
2025-01-13 08:41:34.37	68.35	6.75	
2025-01-13 08:41:34.57	68.32	6.76	
2025-01-13 08:41:34.77	68.29	6.77	
2025-01-13 08:41:34.98	68.26	6.78	
2025-01-13 08:41:35.19	68.22	6.78	
2025-01-13 08:41:35.39	68.19	6.79	
2025-01-13 08:41:35.59	68.16	6.80	
2025-01-13 08:41:35.80	68.13	6.81	
2025-01-13 08:41:36.01	68.10	6.82	
2025-01-13 08:41:36.21	68.07	6.83	
2025-01-13 08:41:36.42	68.04	6.84	
2025-01-13 08:41:36.62	68.01	6.85	
2025-01-13 08:41:36.82	67.98	6.86	
2025-01-13 08:41:37.03	67.94	6.87	
2025-01-13 08:41:37.23	67.91	6.88	
2025-01-13 08:41:37.44	67.88	6.89	
2025-01-13 08:41:37.66	67.85	6.89	
2025-01-13 08:41:37.86	67.82	6.90	
2025-01-13 08:41:38.07	67.78	6.91	
2025-01-13 08:41:38.27	67.75	6.92	
2025-01-13 08:41:38.48	67.72	6.93	
2025-01-13 08:41:38.68	67.69	6.94	
2025-01-13 08:41:38.89	67.66	6.95	
2025-01-13 08:41:39.09	67.63	6.96	
2025-01-13 08:41:39.30	67.60	6.97	
2025-01-13 08:41:39.50	67.57	6.98	
2025-01-13 08:41:39.71	67.53	6.99	
2025-01-13 08:41:39.91	67.50	6.99	
2025-01-13 08:41:40.12	67.47	7.00	
2025-01-13 08:41:40.32	67.44	7.01	
2025-01-13 08:41:40.53	67.41	7.02	
2025-01-13 08:41:40.73	67.38	7.03	
2025-01-13 08:41:40.94	67.34	7.04	
2025-01-13 08:41:41.14	67.31	7.05	
2025-01-13 08:41:41.34	67.28	7.06	
2025-01-13 08:41:41.55	67.25	7.07	
2025-01-13 08:41:41.76	67.22	7.08	
2025-01-13 08:41:41.96	67.19	7.08	
2025-01-13 08:41:42.17	67.15	7.09	
2025-01-13 08:41:42.37	67.12	7.10	
2025-01-13 08:41:42.58	67.09	7.11	
2025-01-13 08:41:42.78	67.06	7.12	
2025-01-13 08:41:42.99	67.03	7.13	
2025-01-13 08:41:43.19	66.99	7.14	
2025-01-13 08:41:43.40	66.96	7.15	
2025-01-13 08:41:43.61	66.93	7.16	
2025-01-13 08:41:43.81	66.90	7.17	
2025-01-13 08:41:44.01	66.87	7.17	
2025-01-13 08:41:44.22	66.83	7.18	
2025-01-13 08:41:44.43	66.80	7.19	
2025-01-13 08:41:44.63	66.77	7.20	
2025-01-13 08:41:44.83	66.74	7.21	
2025-01-13 08:41:45.04	66.71	7.22	
2025-01-13 08:41:45.24	66.67	7.23	
2025-01-13 08:41:45.45	66.64	7.24	
2025-01-13 08:41:45.65	66.61	7.25	
2025-01-13 08:41:45.86	66.58	7.26	
2025-01-13 08:41:46.06	66.55	7.26	
2025-01-13 08:41:46.28	66.51	7.27	
2025-01-13 08:41:46.49	66.48	7.28	
2025-01-13 08:41:46.69	66.45	7.29	
2025-01-13 08:41:46.90	66.41	7.30	
2025-01-13 08:41:47.10	66.38	7.31	
2025-01-13 08:41:47.31	66.35	7.32	
2025-01-13 08:41:47.51	66.32	7.33	
2025-01-13 08:41:47.72	66.28	7.34	
2025-01-13 08:41:47.92	66.25	7.35	
2025-01-13 08:41:48.13	66.22	7.35	
2025-01-13 08:41:48.33	66.19	7.36	
2025-01-13 08:41:48.54	66.15	7.37	
2025-01-13 08:41:48.75	66.12	7.38	
2025-01-13 08:41:48.95	66.09	7.39	
2025-01-13 08:41:49.15	66.06	7.40	
2025-01-13 08:41:49.36	66.02	7.41	
2025-01-13 08:41:49.56	65.99	7.42	
2025-01-13 08:41:49.77	65.96	7.43	
2025-01-13 08:41:49.97	65.93	7.43	
2025-01-13 08:41:50.18	65.89	7.44	
2025-01-13 08:41:50.38	65.86	7.45	
2025-01-13 08:41:50.58	65.83	7.46	
2025-01-13 08:41:50.79	65.80	7.47	
2025-01-13 08:41:51.00	65.76	7.48	
2025-01-13 08:41:51.20	65.73	7.49	
2025-01-13 08:41:51.41	65.70	7.50	
2025-01-13 08:41:51.61	65.67	7.50	
2025-01-13 08:41:51.82	65.63	7.51	
2025-01-13 08:41:52.02	65.60	7.52	
2025-01-13 08:41:52.23	65.57	7.53	
2025-01-13 08:41:52.44	65.53	7.54	
2025-01-13 08:41:52.64	65.50	7.55	
2025-01-13 08:41:52.84	65.47	7.56	
2025-01-13 08:41:53.05	65.43	7.57	
2025-01-13 08:41:53.26	65.40	7.58	
2025-01-13 08:41:53.46	65.37	7.58	
2025-01-13 08:41:53.67	65.34	7.59	
2025-01-13 08:41:53.87	65.30	7.60	
2025-01-13 08:41:54.08	65.27	7.61	
2025-01-13 08:41:54.29	65.24	7.62	
2025-01-13 08:41:54.49	65.20	7.63	
2025-01-13 08:41:54.70	65.17	7.64	
2025-01-13 08:41:54.90	65.14	7.65	
2025-01-13 08:41:55.11	65.10	7.65	
2025-01-13 08:41:55.31	65.07	7.66	
2025-01-13 08:41:55.52	65.04	7.67	
2025-01-13 08:41:55.72	65.00	7.68	
2025-01-13 08:41:55.93	64.97	7.69	
2025-01-13 08:41:56.13	64.94	7.70	
2025-01-13 08:41:56.34	64.90	7.71	
2025-01-13 08:41:56.54	64.87	7.71	
2025-01-13 08:41:56.75	64.84	7.72	
2025-01-13 08:41:56.95	64.80	7.73	
2025-01-13 08:41:57.16	64.77	7.74	
2025-01-13 08:41:57.36	64.74	7.75	
2025-01-13 08:41:57.56	64.70	7.76	
2025-01-13 08:41:57.77	64.67	7.77	
2025-01-13 08:41:57.97	64.64	7.78	
2025-01-13 08:41:58.18	64.60	7.78	
2025-01-13 08:41:58.38	64.57	7.79	
2025-01-13 08:41:58.59	64.54	7.80	
2025-01-13 08:41:58.80	64.50	7.81	
2025-01-13 08:41:59.00	64.47	7.82	
2025-01-13 08:41:59.20	64.44	7.83	
2025-01-13 08:41:59.41	64.40	7.84	
2025-01-13 08:41:59.62	64.37	7.84	
2025-01-13 08:41:59.82	64.33	7.85	
2025-01-13 08:42:00.03	64.30	7.86	
2025-01-13 08:42:00.23	64.27	7.87	
2025-01-13 08:42:00.44	64.23	7.88	
2025-01-13 08:42:00.64	64.20	7.89	
2025-01-13 08:42:00.85	64.17	7.90	
2025-01-13 08:42:01.05	64.13	7.90	
2025-01-13 08:42:01.26	64.10	7.91	
2025-01-13 08:42:01.46	64.06	7.92	
2025-01-13 08:42:01.67	64.03	7.93	
2025-01-13 08:42:01.87	64.00	7.94	
2025-01-13 08:42:02.08	63.96	7.95	
2025-01-13 08:42:02.28	63.93	7.96	
2025-01-13 08:42:02.49	63.89	7.96	
2025-01-13 08:42:02.69	63.86	7.97	
2025-01-13 08:42:02.90	63.83	7.98	
2025-01-13 08:42:03.10	63.79	7.99	
2025-01-13 08:42:03.31	63.76	8.00	
2025-01-13 08:42:03.51	63.73	8.01	
2025-01-13 08:42:03.72	63.69	8.02	
2025-01-13 08:42:03.92	63.66	8.02	
2025-01-13 08:42:04.13	63.62	8.03	
2025-01-13 08:42:04.33	63.59	8.04	
2025-01-13 08:42:04.54	63.55	8.05	
2025-01-13 08:42:04.75	63.52	8.06	
2025-01-13 08:42:04.95	63.49	8.07	
2025-01-13 08:42:05.16	63.45	8.08	
2025-01-13 08:42:05.36	63.42	8.08	
2025-01-13 08:42:05.57	63.38	8.09	
2025-01-13 08:42:05.78	63.35	8.10	
2025-01-13 08:42:05.98	63.31	8.11	
2025-01-13 08:42:06.19	63.28	8.12	
2025-01-13 08:42:06.39	63.24	8.13	
2025-01-13 08:42:06.59	63.21	8.13	
2025-01-13 08:42:06.80	63.18	8.14	
2025-01-13 08:42:07.01	63.14	8.15	
2025-01-13 08:42:07.21	63.11	8.16	
2025-01-13 08:42:07.42	63.07	8.17	
2025-01-13 08:42:07.62	63.04	8.18	
2025-01-13 08:42:07.83	63.00	8.18	
2025-01-13 08:42:08.03	62.97	8.19	
2025-01-13 08:42:08.24	62.93	8.20	
2025-01-13 08:42:08.44	62.90	8.21	
2025-01-13 08:42:08.65	62.86	8.22	
2025-01-13 08:42:08.85	62.83	8.23	
2025-01-13 08:42:09.06	62.79	8.23	
2025-01-13 08:42:09.26	62.76	8.24	
2025-01-13 08:42:09.47	62.73	8.25	
2025-01-13 08:42:09.69	62.69	8.26	
2025-01-13 08:42:09.89	62.65	8.27	
2025-01-13 08:42:10.10	62.62	8.28	
2025-01-13 08:42:10.31	62.58	8.29	
2025-01-13 08:42:10.51	62.55	8.29	
2025-01-13 08:42:10.71	62.52	8.30	
2025-01-13 08:42:10.92	62.48	8.31	
2025-01-13 08:42:11.12	62.45	8.32	
2025-01-13 08:42:11.33	62.41	8.33	
2025-01-13 08:42:11.53	62.38	8.33	
2025-01-13 08:42:11.74	62.34	8.34	
2025-01-13 08:42:11.94	62.31	8.35	
2025-01-13 08:42:12.15	62.27	8.36	
2025-01-13 08:42:12.35	62.24	8.37	
2025-01-13 08:42:12.56	62.20	8.38	
2025-01-13 08:42:12.77	62.16	8.38	
2025-01-13 08:42:12.97	62.13	8.39	
2025-01-13 08:42:13.18	62.09	8.40	
2025-01-13 08:42:13.38	62.06	8.41	
2025-01-13 08:42:13.58	62.03	8.42	
2025-01-13 08:42:13.79	61.99	8.43	
2025-01-13 08:42:14.01	61.95	8.43	
2025-01-13 08:42:14.21	61.92	8.44	
2025-01-13 08:42:14.42	61.88	8.45	
2025-01-13 08:42:14.62	61.85	8.46	
2025-01-13 08:42:14.83	61.81	8.47	
2025-01-13 08:42:15.05	61.77	8.48	
2025-01-13 08:42:15.25	61.74	8.48	
2025-01-13 08:42:15.46	61.70	8.49	
2025-01-13 08:42:15.66	61.67	8.50	
2025-01-13 08:42:15.87	61.63	8.51	
2025-01-13 08:42:16.09	61.59	8.52	
2025-01-13 08:42:16.29	61.56	8.52	
2025-01-13 08:42:16.50	61.52	8.53	
2025-01-13 08:42:16.70	61.49	8.54	
2025-01-13 08:42:16.91	61.45	8.55	
2025-01-13 08:42:17.11	61.42	8.56	
2025-01-13 08:42:17.32	61.38	8.57	
2025-01-13 08:42:17.52	61.35	8.57	
2025-01-13 08:42:17.73	61.31	8.58	
2025-01-13 08:42:17.93	61.28	8.59	
2025-01-13 08:42:18.14	61.24	8.60	
2025-01-13 08:42:18.35	61.20	8.61	
2025-01-13 08:42:18.55	61.17	8.61	
2025-01-13 08:42:18.76	61.13	8.62	
2025-01-13 08:42:18.96	61.10	8.63	
2025-01-13 08:42:19.17	61.06	8.64	
2025-01-13 08:42:19.37	61.02	8.65	
2025-01-13 08:42:19.58	60.99	8.65	
2025-01-13 08:42:19.78	60.95	8.66	
2025-01-13 08:42:19.99	60.92	8.67	
2025-01-13 08:42:20.19	60.88	8.68	
2025-01-13 08:42:20.40	60.85	8.69	
2025-01-13 08:42:20.60	60.81	8.69	
2025-01-13 08:42:20.81	60.77	8.70	
2025-01-13 08:42:21.01	60.74	8.71	
2025-01-13 08:42:21.22	60.70	8.72	
2025-01-13 08:42:21.42	60.67	8.72	
2025-01-13 08:42:21.63	60.63	8.73	
2025-01-13 08:42:21.84	60.59	8.74	
2025-01-13 08:42:22.04	60.56	8.75	
2025-01-13 08:42:22.25	60.52	8.76	
2025-01-13 08:42:22.45	60.49	8.76	
2025-01-13 08:42:22.66	60.45	8.77	
2025-01-13 08:42:22.86	60.41	8.78	
2025-01-13 08:42:23.07	60.38	8.79	
2025-01-13 08:42:23.28	60.34	8.80	
2025-01-13 08:42:23.48	60.30	8.80	
2025-01-13 08:42:23.69	60.27	8.81	
2025-01-13 08:42:23.89	60.23	8.82	
2025-01-13 08:42:24.10	60.19	8.83	
2025-01-13 08:42:24.30	60.16	8.84	
2025-01-13 08:42:24.51	60.12	8.84	
2025-01-13 08:42:24.71	60.09	8.85	
2025-01-13 08:42:24.92	60.05	8.86	
2025-01-13 08:42:25.13	60.01	8.87	
2025-01-13 08:42:25.33	59.98	8.87	
2025-01-13 08:42:25.54	59.94	8.88	
2025-01-13 08:42:25.74	59.90	8.89	
2025-01-13 08:42:25.95	59.87	8.90	
2025-01-13 08:42:26.15	59.83	8.91	
2025-01-13 08:42:26.36	59.79	8.91	
2025-01-13 08:42:26.56	59.76	8.92	
2025-01-13 08:42:26.77	59.72	8.93	
2025-01-13 08:42:26.97	59.69	8.94	
2025-01-13 08:42:27.18	59.65	8.94	
2025-01-13 08:42:27.38	59.61	8.95	
2025-01-13 08:42:27.59	59.57	8.96	
2025-01-13 08:42:27.80	59.54	8.97	
2025-01-13 08:42:28.00	59.50	8.98	
2025-01-13 08:42:28.21	59.46	8.98	
2025-01-13 08:42:28.41	59.43	8.99	
2025-01-13 08:42:28.62	59.39	9.00	
2025-01-13 08:42:28.82	59.35	9.01	
2025-01-13 08:42:29.03	59.32	9.01	
2025-01-13 08:42:29.23	59.28	9.02	
2025-01-13 08:42:29.44	59.24	9.03	
2025-01-13 08:42:29.65	59.21	9.04	
2025-01-13 08:42:29.85	59.17	9.04	
2025-01-13 08:42:30.05	59.13	9.05	
2025-01-13 08:42:30.26	59.10	9.06	
2025-01-13 08:42:30.47	59.06	9.07	
2025-01-13 08:42:30.67	59.02	9.07	
2025-01-13 08:42:30.88	58.98	9.08	
2025-01-13 08:42:31.08	58.95	9.09	
2025-01-13 08:42:31.29	58.91	9.10	
2025-01-13 08:42:31.49	58.87	9.10	
2025-01-13 08:42:31.69	58.84	9.11	
2025-01-13 08:42:31.90	58.80	9.12	
2025-01-13 08:42:32.10	58.76	9.13	
2025-01-13 08:42:32.31	58.73	9.13	
2025-01-13 08:42:32.52	58.69	9.14	
2025-01-13 08:42:32.72	58.65	9.15	
2025-01-13 08:42:32.93	58.61	9.16	
2025-01-13 08:42:33.14	58.58	9.17	
2025-01-13 08:42:33.35	58.54	9.17	
2025-01-13 08:42:33.55	58.50	9.18	
2025-01-13 08:42:33.76	58.46	9.19	
2025-01-13 08:42:33.96	58.43	9.20	
2025-01-13 08:42:34.17	58.39	9.20	
2025-01-13 08:42:34.37	58.35	9.21	
2025-01-13 08:42:34.58	58.32	9.22	
2025-01-13 08:42:34.78	58.28	9.22	
2025-01-13 08:42:34.99	58.24	9.23	
2025-01-13 08:42:35.19	58.20	9.24	
2025-01-13 08:42:35.41	58.16	9.25	
2025-01-13 08:42:35.61	58.13	9.25	
2025-01-13 08:42:35.82	58.09	9.26	
2025-01-13 08:42:36.02	58.05	9.27	
2025-01-13 08:42:36.23	58.01	9.28	
2025-01-13 08:42:36.43	57.98	9.28	
2025-01-13 08:42:36.64	57.94	9.29	
2025-01-13 08:42:36.84	57.90	9.30	
2025-01-13 08:42:37.05	57.86	9.31	
2025-01-13 08:42:37.25	57.83	9.31	
2025-01-13 08:42:37.47	57.79	9.32	
2025-01-13 08:42:37.68	57.75	9.33	
2025-01-13 08:42:37.88	57.71	9.34	
2025-01-13 08:42:38.09	57.67	9.34	
2025-01-13 08:42:38.29	57.64	9.35	
2025-01-13 08:42:38.51	57.60	9.36	
2025-01-13 08:42:38.72	57.56	9.37	
2025-01-13 08:42:38.92	57.52	9.37	
2025-01-13 08:42:39.13	57.48	9.38	
2025-01-13 08:42:39.33	57.45	9.39	
2025-01-13 08:42:39.54	57.41	9.39	
2025-01-13 08:42:39.74	57.37	9.40	
2025-01-13 08:42:39.95	57.33	9.41	
2025-01-13 08:42:40.15	57.29	9.42	
2025-01-13 08:42:40.36	57.26	9.42	
2025-01-13 08:42:40.58	57.21	9.43	
2025-01-13 08:42:40.78	57.18	9.44	
2025-01-13 08:42:40.99	57.14	9.45	
2025-01-13 08:42:41.19	57.10	9.45	
2025-01-13 08:42:41.40	57.06	9.46	
2025-01-13 08:42:41.60	57.03	9.47	
2025-01-13 08:42:41.81	56.99	9.47	
2025-01-13 08:42:42.01	56.95	9.48	
2025-01-13 08:42:42.22	56.91	9.49	
2025-01-13 08:42:42.43	56.87	9.50	
2025-01-13 08:42:42.63	56.83	9.50	
2025-01-13 08:42:42.83	56.80	9.51	
2025-01-13 08:42:43.04	56.76	9.52	
2025-01-13 08:42:43.24	56.72	9.52	
2025-01-13 08:42:43.45	56.68	9.53	
2025-01-13 08:42:43.66	56.64	9.54	
2025-01-13 08:42:43.86	56.61	9.54	
2025-01-13 08:42:44.07	56.57	9.55	
2025-01-13 08:42:44.27	56.53	9.56	
2025-01-13 08:42:44.48	56.49	9.57	
2025-01-13 08:42:44.68	56.45	9.57	
2025-01-13 08:42:44.89	56.41	9.58	
2025-01-13 08:42:45.09	56.38	9.59	
2025-01-13 08:42:45.30	56.34	9.59	
2025-01-13 08:42:45.50	56.30	9.60	
2025-01-13 08:42:45.71	56.26	9.61	
2025-01-13 08:42:45.91	56.22	9.61	
2025-01-13 08:42:46.12	56.18	9.62	
2025-01-13 08:42:46.32	56.15	9.63	
2025-01-13 08:42:46.53	56.11	9.63	
2025-01-13 08:42:46.73	56.07	9.64	
2025-01-13 08:42:46.94	56.03	9.65	
2025-01-13 08:42:47.14	55.99	9.66	
2025-01-13 08:42:47.35	55.95	9.66	
2025-01-13 08:42:47.55	55.91	9.67	
2025-01-13 08:42:47.76	55.87	9.68	
2025-01-13 08:42:47.97	55.84	9.68	
2025-01-13 08:42:48.17	55.80	9.69	
2025-01-13 08:42:48.38	55.76	9.70	
2025-01-13 08:42:48.58	55.72	9.70	
2025-01-13 08:42:48.79	55.68	9.71	
2025-01-13 08:42:48.99	55.64	9.72	
2025-01-13 08:42:49.20	55.60	9.72	
2025-01-13 08:42:49.40	55.57	9.73	
2025-01-13 08:42:49.61	55.53	9.74	
2025-01-13 08:42:49.81	55.49	9.74	
2025-01-13 08:42:50.03	55.45	9.75	
2025-01-13 08:42:50.23	55.41	9.76	
2025-01-13 08:42:50.44	55.37	9.76	
2025-01-13 08:42:50.64	55.33	9.77	
2025-01-13 08:42:50.85	55.29	9.78	
2025-01-13 08:42:51.05	55.25	9.78	
2025-01-13 08:42:51.26	55.21	9.79	
2025-01-13 08:42:51.46	55.18	9.80	
2025-01-13 08:42:51.67	55.14	9.80	
2025-01-13 08:42:51.88	55.10	9.81	
2025-01-13 08:42:52.08	55.06	9.82	
2025-01-13 08:42:52.29	55.02	9.82	
2025-01-13 08:42:52.49	54.98	9.83	
2025-01-13 08:42:52.70	54.94	9.84	
2025-01-13 08:42:52.90	54.90	9.84	
2025-01-13 08:42:53.11	54.86	9.85	
2025-01-13 08:42:53.31	54.82	9.86	
2025-01-13 08:42:53.53	54.78	9.86	
2025-01-13 08:42:53.74	54.74	9.87	
2025-01-13 08:42:53.94	54.70	9.88	
2025-01-13 08:42:54.15	54.66	9.88	
2025-01-13 08:42:54.35	54.62	9.89	
2025-01-13 08:42:54.56	54.58	9.90	
2025-01-13 08:42:54.76	54.55	9.90	
2025-01-13 08:42:54.97	54.51	9.91	
2025-01-13 08:42:55.18	54.47	9.92	
2025-01-13 08:42:55.38	54.43	9.92	
2025-01-13 08:42:55.59	54.39	9.93	
2025-01-13 08:42:55.79	54.35	9.94	
2025-01-13 08:42:56.00	54.31	9.94	
2025-01-13 08:42:56.20	54.27	9.95	
2025-01-13 08:42:56.41	54.23	9.96	
2025-01-13 08:42:56.61	54.19	9.96	
2025-01-13 08:42:56.82	54.15	9.97	
2025-01-13 08:42:57.02	54.11	9.97	
2025-01-13 08:42:57.23	54.07	9.98	
2025-01-13 08:42:57.44	54.03	9.99	
2025-01-13 08:42:57.64	53.99	9.99	
2025-01-13 08:42:57.84	53.95	10.00	
2025-01-13 08:42:58.05	53.91	10.01	
2025-01-13 08:42:58.26	53.87	10.01	
2025-01-13 08:42:58.46	53.83	10.02	
2025-01-13 08:42:58.67	53.79	10.03	
2025-01-13 08:42:58.88	53.75	10.03	
2025-01-13 08:42:59.09	53.71	10.04	
2025-01-13 08:42:59.30	53.67	10.05	
2025-01-13 08:42:59.50	53.63	10.05	
2025-01-13 08:42:59.71	53.59	10.06	
2025-01-13 08:42:59.91	53.55	10.06	
2025-01-13 08:43:00.11	53.51	10.07	
2025-01-13 08:43:00.32	53.47	10.08	
2025-01-13 08:43:00.53	53.43	10.08	
2025-01-13 08:43:00.73	53.39	10.09	
2025-01-13 08:43:00.94	53.35	10.09	
2025-01-13 08:43:01.15	53.31	10.10	
2025-01-13 08:43:01.35	53.27	10.11	
2025-01-13 08:43:01.56	53.23	10.11	
2025-01-13 08:43:01.77	53.19	10.12	
2025-01-13 08:43:01.97	53.15	10.13	
2025-01-13 08:43:02.18	53.11	10.13	
2025-01-13 08:43:02.38	53.07	10.14	
2025-01-13 08:43:02.59	53.03	10.14	
2025-01-13 08:43:02.79	52.99	10.15	
2025-01-13 08:43:03.00	52.95	10.16	
2025-01-13 08:43:03.20	52.91	10.16	
2025-01-13 08:43:03.40	52.87	10.17	
2025-01-13 08:43:03.61	52.83	10.17	
2025-01-13 08:43:03.81	52.79	10.18	
2025-01-13 08:43:04.02	52.75	10.19	
2025-01-13 08:43:04.24	52.71	10.19	
2025-01-13 08:43:04.44	52.67	10.20	
2025-01-13 08:43:04.65	52.63	10.20	
2025-01-13 08:43:04.86	52.59	10.21	
2025-01-13 08:43:05.06	52.55	10.22	
2025-01-13 08:43:05.27	52.51	10.22	
2025-01-13 08:43:05.47	52.47	10.23	
2025-01-13 08:43:05.68	52.43	10.23	
2025-01-13 08:43:05.89	52.39	10.24	
2025-01-13 08:43:06.09	52.35	10.25	
2025-01-13 08:43:06.29	52.31	10.25	
2025-01-13 08:43:06.50	52.27	10.26	
2025-01-13 08:43:06.71	52.23	10.26	
2025-01-13 08:43:06.91	52.19	10.27	
2025-01-13 08:43:07.12	52.15	10.28	
2025-01-13 08:43:07.32	52.11	10.28	
2025-01-13 08:43:07.52	52.07	10.29	
2025-01-13 08:43:07.73	52.02	10.29	
2025-01-13 08:43:07.93	51.99	10.30	
2025-01-13 08:43:08.14	51.94	10.30	
2025-01-13 08:43:08.34	51.90	10.31	
2025-01-13 08:43:08.55	51.86	10.32	
2025-01-13 08:43:08.75	51.82	10.32	
2025-01-13 08:43:08.96	51.78	10.33	
2025-01-13 08:43:09.17	51.74	10.33	
2025-01-13 08:43:09.37	51.70	10.34	
2025-01-13 08:43:09.57	51.66	10.35	
2025-01-13 08:43:09.78	51.62	10.35	
2025-01-13 08:43:09.99	51.58	10.36	
2025-01-13 08:43:10.19	51.54	10.36	
2025-01-13 08:43:10.40	51.50	10.37	
2025-01-13 08:43:10.60	51.46	10.37	
2025-01-13 08:43:10.81	51.42	10.38	
2025-01-13 08:43:11.01	51.38	10.38	
2025-01-13 08:43:11.22	51.33	10.39	
2025-01-13 08:43:11.43	51.29	10.40	
2025-01-13 08:43:11.65	51.25	10.40	
2025-01-13 08:43:11.86	51.21	10.41	
2025-01-13 08:43:12.06	51.17	10.41	
2025-01-13 08:43:12.26	51.13	10.42	
2025-01-13 08:43:12.47	51.09	10.42	
2025-01-13 08:43:12.67	51.05	10.43	
2025-01-13 08:43:12.89	51.00	10.44	
2025-01-13 08:43:13.10	50.96	10.44	
2025-01-13 08:43:13.30	50.92	10.45	
2025-01-13 08:43:13.50	50.88	10.45	
2025-01-13 08:43:13.71	50.84	10.46	
2025-01-13 08:43:13.92	50.80	10.46	
2025-01-13 08:43:14.12	50.76	10.47	
2025-01-13 08:43:14.33	50.72	10.47	
2025-01-13 08:43:14.53	50.68	10.48	
2025-01-13 08:43:14.73	50.64	10.48	
2025-01-13 08:43:14.94	50.59	10.49	
2025-01-13 08:43:15.16	50.55	10.50	
2025-01-13 08:43:15.36	50.51	10.50	
2025-01-13 08:43:15.56	50.47	10.51	
2025-01-13 08:43:15.77	50.43	10.51	
2025-01-13 08:43:15.97	50.39	10.52	
2025-01-13 08:43:16.18	50.34	10.52	
2025-01-13 08:43:16.39	50.30	10.53	
2025-01-13 08:43:16.59	50.26	10.53	
2025-01-13 08:43:16.80	50.22	10.54	
2025-01-13 08:43:17.00	50.18	10.54	
2025-01-13 08:43:17.21	50.14	10.55	
2025-01-13 08:43:17.41	50.10	10.55	
2025-01-13 08:43:17.62	50.06	10.56	
2025-01-13 08:43:17.84	50.01	10.57	
2025-01-13 08:43:18.04	49.97	10.57	
2025-01-13 08:43:18.25	49.93	10.58	
2025-01-13 08:43:18.45	49.89	10.58	
2025-01-13 08:43:18.66	49.85	10.59	
2025-01-13 08:43:18.86	49.81	10.59	
2025-01-13 08:43:19.06	49.77	10.60	
2025-01-13 08:43:19.27	49.72	10.60	
2025-01-13 08:43:19.48	49.68	10.61	
2025-01-13 08:43:19.68	49.64	10.61	
2025-01-13 08:43:19.89	49.60	10.62	
2025-01-13 08:43:20.09	49.56	10.62	
2025-01-13 08:43:20.30	49.52	10.63	
2025-01-13 08:43:20.50	49.48	10.63	
2025-01-13 08:43:20.71	49.43	10.64	
2025-01-13 08:43:20.91	49.39	10.64	
2025-01-13 08:43:21.12	49.35	10.65	
2025-01-13 08:43:21.32	49.31	10.65	
2025-01-13 08:43:21.53	49.27	10.66	
2025-01-13 08:43:21.73	49.23	10.66	
2025-01-13 08:43:21.94	49.18	10.67	
2025-01-13 08:43:22.15	49.14	10.67	
2025-01-13 08:43:22.36	49.10	10.68	
2025-01-13 08:43:22.57	49.06	10.68	
2025-01-13 08:43:22.78	49.01	10.69	
2025-01-13 08:43:22.98	48.97	10.69	
2025-01-13 08:43:23.19	48.93	10.70	
2025-01-13 08:43:23.39	48.89	10.70	
2025-01-13 08:43:23.60	48.85	10.71	
2025-01-13 08:43:23.80	48.81	10.71	
2025-01-13 08:43:24.01	48.76	10.72	
2025-01-13 08:43:24.21	48.72	10.72	
2025-01-13 08:43:24.41	48.68	10.73	
2025-01-13 08:43:24.62	48.64	10.73	
2025-01-13 08:43:24.83	48.60	10.74	
2025-01-13 08:43:25.03	48.56	10.74	
2025-01-13 08:43:25.24	48.51	10.75	
2025-01-13 08:43:25.44	48.47	10.75	
2025-01-13 08:43:25.64	48.43	10.76	
2025-01-13 08:43:25.85	48.39	10.76	
2025-01-13 08:43:26.06	48.35	10.77	
2025-01-13 08:43:26.26	48.30	10.77	
2025-01-13 08:43:26.47	48.26	10.77	
2025-01-13 08:43:26.67	48.22	10.78	
2025-01-13 08:43:26.88	48.18	10.78	
2025-01-13 08:43:27.08	48.14	10.79	
2025-01-13 08:43:27.29	48.09	10.79	
2025-01-13 08:43:27.49	48.05	10.80	
2025-01-13 08:43:27.71	48.01	10.80	
2025-01-13 08:43:27.91	47.97	10.81	
2025-01-13 08:43:28.12	47.92	10.81	
2025-01-13 08:43:28.32	47.88	10.82	
2025-01-13 08:43:28.53	47.84	10.82	
2025-01-13 08:43:28.74	47.80	10.83	
2025-01-13 08:43:28.94	47.76	10.83	
2025-01-13 08:43:29.15	47.71	10.83	
2025-01-13 08:43:29.35	47.67	10.84	
2025-01-13 08:43:29.56	47.63	10.84	
2025-01-13 08:43:29.76	47.59	10.85	
2025-01-13 08:43:29.97	47.55	10.85	
2025-01-13 08:43:30.18	47.50	10.86	
2025-01-13 08:43:30.38	47.46	10.86	
2025-01-13 08:43:30.59	47.42	10.87	
2025-01-13 08:43:30.79	47.38	10.87	
2025-01-13 08:43:31.00	47.33	10.88	
2025-01-13 08:43:31.20	47.29	10.88	
2025-01-13 08:43:31.41	47.25	10.88	
2025-01-13 08:43:31.61	47.21	10.89	
2025-01-13 08:43:31.82	47.16	10.89	
2025-01-13 08:43:32.04	47.12	10.90	
2025-01-13 08:43:32.24	47.08	10.90	
2025-01-13 08:43:32.45	47.03	10.91	
2025-01-13 08:43:32.65	46.99	10.91	
2025-01-13 08:43:32.86	46.95	10.91	
2025-01-13 08:43:33.06	46.91	10.92	
2025-01-13 08:43:33.27	46.87	10.92	
2025-01-13 08:43:33.47	46.82	10.93	
2025-01-13 08:43:33.67	46.78	10.93	
2025-01-13 08:43:33.88	46.74	10.94	
2025-01-13 08:43:34.08	46.70	10.94	
2025-01-13 08:43:34.29	46.65	10.94	
2025-01-13 08:43:34.50	46.61	10.95	
2025-01-13 08:43:34.70	46.57	10.95	
2025-01-13 08:43:34.91	46.53	10.96	
2025-01-13 08:43:35.11	46.48	10.96	
2025-01-13 08:43:35.32	46.44	10.97	
2025-01-13 08:43:35.52	46.40	10.97	
2025-01-13 08:43:35.73	46.36	10.97	
2025-01-13 08:43:35.93	46.31	10.98	
2025-01-13 08:43:36.14	46.27	10.98	
2025-01-13 08:43:36.34	46.23	10.99	
2025-01-13 08:43:36.54	46.19	10.99	
2025-01-13 08:43:36.75	46.14	10.99	
2025-01-13 08:43:36.95	46.10	11.00	
2025-01-13 08:43:37.16	46.06	11.00	
2025-01-13 08:43:37.38	46.01	11.01	
2025-01-13 08:43:37.58	45.97	11.01	
2025-01-13 08:43:37.79	45.93	11.01	
2025-01-13 08:43:37.99	45.89	11.02	
2025-01-13 08:43:38.20	45.84	11.02	
2025-01-13 08:43:38.40	45.80	11.03	
2025-01-13 08:43:38.61	45.76	11.03	
2025-01-13 08:43:38.81	45.72	11.03	
2025-01-13 08:43:39.02	45.67	11.04	
2025-01-13 08:43:39.22	45.63	11.04	
2025-01-13 08:43:39.43	45.59	11.04	
2025-01-13 08:43:39.63	45.55	11.05	
2025-01-13 08:43:39.84	45.50	11.05	
2025-01-13 08:43:40.04	45.46	11.06	
2025-01-13 08:43:40.25	45.42	11.06	
2025-01-13 08:43:40.45	45.37	11.06	
2025-01-13 08:43:40.66	45.33	11.07	
2025-01-13 08:43:40.87	45.29	11.07	
2025-01-13 08:43:41.07	45.25	11.08	
2025-01-13 08:43:41.28	45.20	11.08	
2025-01-13 08:43:41.48	45.16	11.08	
2025-01-13 08:43:41.68	45.12	11.09	
2025-01-13 08:43:41.89	45.07	11.09	
2025-01-13 08:43:42.10	45.03	11.09	
2025-01-13 08:43:42.30	44.99	11.10	
2025-01-13 08:43:42.51	44.94	11.10	
2025-01-13 08:43:42.71	44.90	11.10	
2025-01-13 08:43:42.92	44.86	11.11	
2025-01-13 08:43:43.12	44.82	11.11	
2025-01-13 08:43:43.33	44.77	11.12	
2025-01-13 08:43:43.53	44.73	11.12	
2025-01-13 08:43:43.74	44.69	11.12	
2025-01-13 08:43:43.94	44.64	11.13	
2025-01-13 08:43:44.15	44.60	11.13	
2025-01-13 08:43:44.36	44.56	11.13	
2025-01-13 08:43:44.56	44.51	11.14	
2025-01-13 08:43:44.77	44.47	11.14	
2025-01-13 08:43:44.97	44.43	11.14	
2025-01-13 08:43:45.18	44.38	11.15	
2025-01-13 08:43:45.38	44.34	11.15	
2025-01-13 08:43:45.59	44.30	11.15	
2025-01-13 08:43:45.79	44.26	11.16	
2025-01-13 08:43:46.00	44.21	11.16	
2025-01-13 08:43:46.20	44.17	11.16	
2025-01-13 08:43:46.41	44.13	11.17	
2025-01-13 08:43:46.61	44.08	11.17	
2025-01-13 08:43:46.82	44.04	11.17	
2025-01-13 08:43:47.02	44.00	11.18	
2025-01-13 08:43:47.22	43.96	11.18	
2025-01-13 08:43:47.43	43.91	11.18	
2025-01-13 08:43:47.63	43.87	11.19	
2025-01-13 08:43:47.84	43.83	11.19	
2025-01-13 08:43:48.04	43.78	11.19	
2025-01-13 08:43:48.25	43.74	11.20	
2025-01-13 08:43:48.45	43.70	11.20	
2025-01-13 08:43:48.66	43.65	11.20	
2025-01-13 08:43:48.86	43.61	11.21	
2025-01-13 08:43:49.07	43.57	11.21	
2025-01-13 08:43:49.27	43.52	11.21	
2025-01-13 08:43:49.48	43.48	11.22	
2025-01-13 08:43:49.68	43.44	11.22	
2025-01-13 08:43:49.89	43.39	11.22	
2025-01-13 08:43:50.10	43.35	11.23	
2025-01-13 08:43:50.30	43.31	11.23	
2025-01-13 08:43:50.51	43.26	11.23	
2025-01-13 08:43:50.71	43.22	11.24	
2025-01-13 08:43:50.92	43.18	11.24	
2025-01-13 08:43:51.12	43.13	11.24	
2025-01-13 08:43:51.33	43.09	11.24	
2025-01-13 08:43:51.53	43.05	11.25	
2025-01-13 08:43:51.74	43.00	11.25	
2025-01-13 08:43:51.94	42.96	11.25	
2025-01-13 08:43:52.15	42.92	11.26	
2025-01-13 08:43:52.37	42.87	11.26	
2025-01-13 08:43:52.57	42.83	11.26	
2025-01-13 08:43:52.78	42.78	11.27	
2025-01-13 08:43:52.98	42.74	11.27	
2025-01-13 08:43:53.19	42.70	11.27	
2025-01-13 08:43:53.41	42.65	11.27	
2025-01-13 08:43:53.61	42.61	11.28	
2025-01-13 08:43:53.82	42.56	11.28	
2025-01-13 08:43:54.02	42.52	11.28	
2025-01-13 08:43:54.23	42.47	11.29	
2025-01-13 08:43:54.43	42.43	11.29	
2025-01-13 08:43:54.64	42.39	11.29	
2025-01-13 08:43:54.85	42.34	11.29	
2025-01-13 08:43:55.05	42.30	11.30	
2025-01-13 08:43:55.26	42.26	11.30	
2025-01-13 08:43:55.48	42.21	11.30	
2025-01-13 08:43:55.68	42.17	11.31	
2025-01-13 08:43:55.89	42.12	11.31	
2025-01-13 08:43:56.09	42.08	11.31	
2025-01-13 08:43:56.30	42.04	11.31	
2025-01-13 08:43:56.50	41.99	11.32	
2025-01-13 08:43:56.70	41.95	11.32	
2025-01-13 08:43:56.91	41.91	11.32	
2025-01-13 08:43:57.11	41.86	11.32	
2025-01-13 08:43:57.32	41.82	11.33	
2025-01-13 08:43:57.52	41.78	11.33	
2025-01-13 08:43:57.73	41.73	11.33	
2025-01-13 08:43:57.94	41.69	11.33	
2025-01-13 08:43:58.14	41.64	11.34	
2025-01-13 08:43:58.35	41.60	11.34	
2025-01-13 08:43:58.55	41.56	11.34	
2025-01-13 08:43:58.75	41.51	11.34	
2025-01-13 08:43:58.96	41.47	11.35	
2025-01-13 08:43:59.16	41.43	11.35	
2025-01-13 08:43:59.37	41.38	11.35	
2025-01-13 08:43:59.58	41.34	11.35	
2025-01-13 08:43:59.79	41.29	11.36	
2025-01-13 08:44:00.00	41.25	11.36	
2025-01-13 08:44:00.20	41.21	11.36	
2025-01-13 08:44:00.41	41.16	11.36	
2025-01-13 08:44:00.61	41.12	11.37	
2025-01-13 08:44:00.82	41.07	11.37	
2025-01-13 08:44:01.02	41.03	11.37	
2025-01-13 08:44:01.23	40.99	11.37	
2025-01-13 08:44:01.43	40.94	11.38	
2025-01-13 08:44:01.64	40.90	11.38	
2025-01-13 08:44:01.84	40.86	11.38	
2025-01-13 08:44:02.05	40.81	11.38	
2025-01-13 08:44:02.25	40.77	11.38	
2025-01-13 08:44:02.46	40.72	11.39	
2025-01-13 08:44:02.67	40.68	11.39	
2025-01-13 08:44:02.87	40.64	11.39	
2025-01-13 08:44:03.07	40.59	11.39	
2025-01-13 08:44:03.28	40.55	11.40	
2025-01-13 08:44:03.48	40.50	11.40	
2025-01-13 08:44:03.69	40.46	11.40	
2025-01-13 08:44:03.89	40.42	11.40	
2025-01-13 08:44:04.10	40.37	11.40	
2025-01-13 08:44:04.30	40.33	11.41	
2025-01-13 08:44:04.51	40.28	11.41	
2025-01-13 08:44:04.72	40.24	11.41	
2025-01-13 08:44:04.92	40.20	11.41	
2025-01-13 08:44:05.13	40.15	11.41	
2025-01-13 08:44:05.33	40.11	11.42	
2025-01-13 08:44:05.54	40.06	11.42	
2025-01-13 08:44:05.74	40.02	11.42	
2025-01-13 08:44:05.95	39.98	11.42	
2025-01-13 08:44:06.17	39.93	11.42	
2025-01-13 08:44:06.37	39.89	11.43	
2025-01-13 08:44:06.58	39.84	11.43	
2025-01-13 08:44:06.79	39.80	11.43	
2025-01-13 08:44:06.99	39.75	11.43	
2025-01-13 08:44:07.19	39.71	11.43	
2025-01-13 08:44:07.40	39.67	11.44	
2025-01-13 08:44:07.61	39.62	11.44	
2025-01-13 08:44:07.81	39.58	11.44	
2025-01-13 08:44:08.02	39.53	11.44	
2025-01-13 08:44:08.22	39.49	11.44	
2025-01-13 08:44:08.43	39.44	11.44	
2025-01-13 08:44:08.63	39.40	11.45	
2025-01-13 08:44:08.84	39.36	11.45	
2025-01-13 08:44:09.04	39.31	11.45	
2025-01-13 08:44:09.25	39.27	11.45	
2025-01-13 08:44:09.45	39.23	11.45	
2025-01-13 08:44:09.66	39.18	11.46	
2025-01-13 08:44:09.87	39.14	11.46	
2025-01-13 08:44:10.07	39.09	11.46	
2025-01-13 08:44:10.27	39.05	11.46	
2025-01-13 08:44:10.48	39.00	11.46	
2025-01-13 08:44:10.69	38.96	11.46	
2025-01-13 08:44:10.89	38.92	11.46	
2025-01-13 08:44:11.10	38.87	11.47	
2025-01-13 08:44:11.30	38.83	11.47	
2025-01-13 08:44:11.51	38.78	11.47	
2025-01-13 08:44:11.71	38.74	11.47	
2025-01-13 08:44:11.91	38.70	11.47	
2025-01-13 08:44:12.12	38.65	11.47	
2025-01-13 08:44:12.32	38.61	11.48	
2025-01-13 08:44:12.53	38.56	11.48	
2025-01-13 08:44:12.73	38.52	11.48	
2025-01-13 08:44:12.94	38.48	11.48	
2025-01-13 08:44:13.14	38.43	11.48	
2025-01-13 08:44:13.35	38.39	11.48	
2025-01-13 08:44:13.55	38.34	11.48	
2025-01-13 08:44:13.76	38.30	11.49	
2025-01-13 08:44:13.96	38.26	11.49	
2025-01-13 08:44:14.17	38.21	11.49	
2025-01-13 08:44:14.37	38.17	11.49	
2025-01-13 08:44:14.58	38.12	11.49	
2025-01-13 08:44:14.78	38.08	11.49	
2025-01-13 08:44:14.99	38.03	11.49	
2025-01-13 08:44:15.20	37.99	11.49	
2025-01-13 08:44:15.40	37.95	11.50	
2025-01-13 08:44:15.61	37.90	11.50	
2025-01-13 08:44:15.81	37.86	11.50	
2025-01-13 08:44:16.01	37.81	11.50	
2025-01-13 08:44:16.22	37.77	11.50	
2025-01-13 08:44:16.42	37.73	11.50	
2025-01-13 08:44:16.63	37.68	11.50	
2025-01-13 08:44:16.83	37.64	11.50	
2025-01-13 08:44:17.04	37.59	11.51	
2025-01-13 08:44:17.25	37.55	11.51	
2025-01-13 08:44:17.45	37.50	11.51	
2025-01-13 08:44:17.66	37.46	11.51	
2025-01-13 08:44:17.86	37.42	11.51	
2025-01-13 08:44:18.07	37.37	11.51	
2025-01-13 08:44:18.27	37.33	11.51	
2025-01-13 08:44:18.48	37.28	11.51	
2025-01-13 08:44:18.68	37.24	11.51	
2025-01-13 08:44:18.90	37.19	11.52	
2025-01-13 08:44:19.11	37.15	11.52	
2025-01-13 08:44:19.31	37.10	11.52	
2025-01-13 08:44:19.52	37.06	11.52	
2025-01-13 08:44:19.72	37.02	11.52	
2025-01-13 08:44:19.93	36.97	11.52	
2025-01-13 08:44:20.15	36.92	11.52	
2025-01-13 08:44:20.35	36.88	11.52	
2025-01-13 08:44:20.56	36.83	11.52	
2025-01-13 08:44:20.76	36.79	11.52	
2025-01-13 08:44:20.97	36.75	11.52	
2025-01-13 08:44:21.17	36.70	11.52	
2025-01-13 08:44:21.38	36.66	11.53	
2025-01-13 08:44:21.58	36.61	11.53	
2025-01-13 08:44:21.79	36.57	11.53	
2025-01-13 08:44:22.00	36.52	11.53	
2025-01-13 08:44:22.20	36.48	11.53	
2025-01-13 08:44:22.41	36.43	11.53	
2025-01-13 08:44:22.61	36.39	11.53	
2025-01-13 08:44:22.82	36.35	11.53	
2025-01-13 08:44:23.02	36.30	11.53	
2025-01-13 08:44:23.23	36.26	11.53	
2025-01-13 08:44:23.43	36.21	11.53	
2025-01-13 08:44:23.64	36.17	11.53	
2025-01-13 08:44:23.84	36.13	11.53	
2025-01-13 08:44:24.05	36.08	11.53	
2025-01-13 08:44:24.25	36.04	11.54	
2025-01-13 08:44:24.46	35.99	11.54	
2025-01-13 08:44:24.66	35.95	11.54	
2025-01-13 08:44:24.87	35.90	11.54	
2025-01-13 08:44:25.08	35.86	11.54	
2025-01-13 08:44:25.28	35.82	11.54	
2025-01-13 08:44:25.49	35.77	11.54	
2025-01-13 08:44:25.69	35.73	11.54	
2025-01-13 08:44:25.90	35.68	11.54	
2025-01-13 08:44:26.10	35.64	11.54	
2025-01-13 08:44:26.31	35.59	11.54	
2025-01-13 08:44:26.53	35.55	11.54	
2025-01-13 08:44:26.73	35.50	11.54	
2025-01-13 08:44:26.94	35.46	11.54	
2025-01-13 08:44:27.14	35.41	11.54	
2025-01-13 08:44:27.35	35.37	11.54	
2025-01-13 08:44:27.55	35.32	11.54	
2025-01-13 08:44:27.76	35.28	11.54	
2025-01-13 08:44:27.96	35.24	11.54	
2025-01-13 08:44:28.17	35.19	11.54	
2025-01-13 08:44:28.38	35.15	11.54	
2025-01-13 08:44:28.58	35.10	11.54	
2025-01-13 08:44:28.79	35.06	11.54	
2025-01-13 08:44:28.99	35.01	11.54	
2025-01-13 08:44:29.20	34.97	11.54	
2025-01-13 08:44:29.40	34.93	11.54	
2025-01-13 08:44:29.60	34.88	11.54	
2025-01-13 08:44:29.81	34.84	11.55	
2025-01-13 08:44:30.02	34.79	11.55	
2025-01-13 08:44:30.22	34.75	11.55	
2025-01-13 08:44:30.43	34.70	11.55	
2025-01-13 08:44:30.63	34.66	11.55	
2025-01-13 08:44:30.83	34.62	11.55	
2025-01-13 08:44:31.04	34.57	11.55	
2025-01-13 08:44:31.24	34.53	11.55	
2025-01-13 08:44:31.45	34.48	11.55	
2025-01-13 08:44:31.65	34.44	11.55	
2025-01-13 08:44:31.86	34.39	11.55	
2025-01-13 08:44:32.06	34.35	11.55	
2025-01-13 08:44:32.27	34.30	11.55	
2025-01-13 08:44:32.47	34.26	11.55	
2025-01-13 08:44:32.68	34.22	11.55	
2025-01-13 08:44:32.88	34.17	11.55	
2025-01-13 08:44:33.09	34.13	11.55	
2025-01-13 08:44:33.30	34.08	11.55	
2025-01-13 08:44:33.50	34.04	11.55	
2025-01-13 08:44:33.71	33.99	11.55	
2025-01-13 08:44:33.91	33.95	11.54	
2025-01-13 08:44:34.12	33.91	11.54	
2025-01-13 08:44:34.32	33.86	11.54	
2025-01-13 08:44:34.53	33.82	11.54	
2025-01-13 08:44:34.73	33.77	11.54	
2025-01-13 08:44:34.94	33.73	11.54	
2025-01-13 08:44:35.14	33.68	11.54	
2025-01-13 08:44:35.35	33.64	11.54	
2025-01-13 08:44:35.55	33.60	11.54	
2025-01-13 08:44:35.76	33.55	11.54	
2025-01-13 08:44:35.96	33.51	11.54	
2025-01-13 08:44:36.17	33.46	11.54	
2025-01-13 08:44:36.37	33.42	11.54	
2025-01-13 08:44:36.58	33.37	11.54	
2025-01-13 08:44:36.78	33.33	11.54	
2025-01-13 08:44:36.99	33.29	11.54	
2025-01-13 08:44:37.21	33.24	11.54	
2025-01-13 08:44:37.41	33.19	11.54	
2025-01-13 08:44:37.62	33.15	11.54	
2025-01-13 08:44:37.83	33.10	11.54	
2025-01-13 08:44:38.03	33.06	11.54	
2025-01-13 08:44:38.24	33.02	11.54	
2025-01-13 08:44:38.44	32.97	11.54	
2025-01-13 08:44:38.65	32.93	11.54	
2025-01-13 08:44:38.85	32.88	11.54	
2025-01-13 08:44:39.06	32.84	11.54	
2025-01-13 08:44:39.26	32.80	11.54	
2025-01-13 08:44:39.46	32.75	11.53	
2025-01-13 08:44:39.67	32.71	11.53	
2025-01-13 08:44:39.88	32.66	11.53	
2025-01-13 08:44:40.08	32.62	11.53	
2025-01-13 08:44:40.30	32.57	11.53	
2025-01-13 08:44:40.50	32.53	11.53	
2025-01-13 08:44:40.71	32.48	11.53	
2025-01-13 08:44:40.91	32.44	11.53	
2025-01-13 08:44:41.12	32.39	11.53	
2025-01-13 08:44:41.32	32.35	11.53	
2025-01-13 08:44:41.52	32.31	11.53	
2025-01-13 08:44:41.73	32.26	11.53	
2025-01-13 08:44:41.93	32.22	11.53	
2025-01-13 08:44:42.14	32.17	11.53	
2025-01-13 08:44:42.35	32.13	11.52	
2025-01-13 08:44:42.55	32.09	11.52	
2025-01-13 08:44:42.76	32.04	11.52	
2025-01-13 08:44:42.96	32.00	11.52	
2025-01-13 08:44:43.17	31.95	11.52	
2025-01-13 08:44:43.37	31.91	11.52	
2025-01-13 08:44:43.59	31.86	11.52	
2025-01-13 08:44:43.80	31.82	11.52	
2025-01-13 08:44:44.00	31.77	11.52	
2025-01-13 08:44:44.21	31.73	11.52	
2025-01-13 08:44:44.41	31.68	11.52	
2025-01-13 08:44:44.62	31.64	11.51	
2025-01-13 08:44:44.82	31.60	11.51	
2025-01-13 08:44:45.03	31.55	11.51	
2025-01-13 08:44:45.24	31.51	11.51	
2025-01-13 08:44:45.44	31.46	11.51	
2025-01-13 08:44:45.65	31.42	11.51	
2025-01-13 08:44:45.85	31.37	11.51	
2025-01-13 08:44:46.06	31.33	11.51	
2025-01-13 08:44:46.26	31.29	11.51	
2025-01-13 08:44:46.47	31.24	11.51	
2025-01-13 08:44:46.67	31.20	11.50	
2025-01-13 08:44:46.89	31.15	11.50	
2025-01-13 08:44:47.10	31.10	11.50	
2025-01-13 08:44:47.30	31.06	11.50	
2025-01-13 08:44:47.51	31.02	11.50	
2025-01-13 08:44:47.71	30.97	11.50	
2025-01-13 08:44:47.93	30.93	11.50	
2025-01-13 08:44:48.14	30.88	11.50	
2025-01-13 08:44:48.34	30.84	11.49	
2025-01-13 08:44:48.55	30.79	11.49	
2025-01-13 08:44:48.75	30.75	11.49	
2025-01-13 08:44:48.96	30.70	11.49	
2025-01-13 08:44:49.16	30.66	11.49	
2025-01-13 08:44:49.36	30.62	11.49	
2025-01-13 08:44:49.57	30.57	11.49	
2025-01-13 08:44:49.77	30.53	11.48	
2025-01-13 08:44:49.97	30.49	11.48	
2025-01-13 08:44:50.18	30.44	11.48	
2025-01-13 08:44:50.39	30.40	11.48	
2025-01-13 08:44:50.59	30.35	11.48	
2025-01-13 08:44:50.80	30.31	11.48	
2025-01-13 08:44:51.00	30.27	11.48	
2025-01-13 08:44:51.20	30.22	11.47	
2025-01-13 08:44:51.41	30.18	11.47	
2025-01-13 08:44:51.62	30.13	11.47	
2025-01-13 08:44:51.82	30.09	11.47	
2025-01-13 08:44:52.03	30.04	11.47	
2025-01-13 08:44:52.23	30.00	11.47	
2025-01-13 08:44:52.44	29.96	11.47	
2025-01-13 08:44:52.65	29.91	11.46	
2025-01-13 08:44:52.85	29.87	11.46	
2025-01-13 08:44:53.06	29.82	11.46	
2025-01-13 08:44:53.28	29.78	11.46	
2025-01-13 08:44:53.48	29.73	11.46	
2025-01-13 08:44:53.69	29.69	11.46	
2025-01-13 08:44:53.89	29.64	11.45	
2025-01-13 08:44:54.10	29.60	11.45	
2025-01-13 08:44:54.31	29.55	11.45	
2025-01-13 08:44:54.52	29.51	11.45	
2025-01-13 08:44:54.73	29.46	11.45	
2025-01-13 08:44:54.93	29.42	11.45	
2025-01-13 08:44:55.14	29.38	11.44	
2025-01-13 08:44:55.34	29.33	11.44	
2025-01-13 08:44:55.54	29.29	11.44	
2025-01-13 08:44:55.75	29.25	11.44	
2025-01-13 08:44:55.96	29.20	11.44	
2025-01-13 08:44:56.16	29.16	11.43	
2025-01-13 08:44:56.37	29.11	11.43	
2025-01-13 08:44:56.57	29.07	11.43	
2025-01-13 08:44:56.77	29.03	11.43	
2025-01-13 08:44:56.98	28.98	11.43	
2025-01-13 08:44:57.19	28.94	11.42	
2025-01-13 08:44:57.39	28.89	11.42	
2025-01-13 08:44:57.60	28.85	11.42	
2025-01-13 08:44:57.80	28.81	11.42	
2025-01-13 08:44:58.00	28.76	11.42	
2025-01-13 08:44:58.21	28.72	11.42	
2025-01-13 08:44:58.42	28.67	11.41	
2025-01-13 08:44:58.62	28.63	11.41	
2025-01-13 08:44:58.83	28.59	11.41	
2025-01-13 08:44:59.03	28.54	11.41	
2025-01-13 08:44:59.24	28.50	11.40	
2025-01-13 08:44:59.44	28.46	11.40	
2025-01-13 08:44:59.65	28.41	11.40	
2025-01-13 08:44:59.85	28.37	11.40	
2025-01-13 08:45:00.06	28.32	11.40	
2025-01-13 08:45:00.26	28.28	11.39	
2025-01-13 08:45:00.47	28.24	11.39	
2025-01-13 08:45:00.69	28.19	11.39	
2025-01-13 08:45:00.89	28.15	11.39	
2025-01-13 08:45:01.10	28.10	11.39	
2025-01-13 08:45:01.30	28.06	11.38	
2025-01-13 08:45:01.51	28.01	11.38	
2025-01-13 08:45:01.71	27.97	11.38	
2025-01-13 08:45:01.92	27.93	11.38	
2025-01-13 08:45:02.12	27.88	11.37	
2025-01-13 08:45:02.33	27.84	11.37	
2025-01-13 08:45:02.53	27.80	11.37	
2025-01-13 08:45:02.74	27.75	11.37	
2025-01-13 08:45:02.94	27.71	11.36	
2025-01-13 08:45:03.15	27.66	11.36	
2025-01-13 08:45:03.36	27.62	11.36	
2025-01-13 08:45:03.56	27.58	11.36	
2025-01-13 08:45:03.78	27.53	11.36	
2025-01-13 08:45:03.98	27.49	11.35	
2025-01-13 08:45:04.19	27.44	11.35	
2025-01-13 08:45:04.40	27.40	11.35	
2025-01-13 08:45:04.60	27.36	11.35	
2025-01-13 08:45:04.81	27.31	11.34	
2025-01-13 08:45:05.01	27.27	11.34	
2025-01-13 08:45:05.22	27.22	11.34	
2025-01-13 08:45:05.42	27.18	11.34	
2025-01-13 08:45:05.63	27.14	11.33	
2025-01-13 08:45:05.84	27.09	11.33	
2025-01-13 08:45:06.05	27.05	11.33	
2025-01-13 08:45:06.26	27.00	11.32	
2025-01-13 08:45:06.47	26.96	11.32	
2025-01-13 08:45:06.67	26.92	11.32	
2025-01-13 08:45:06.87	26.87	11.32	
2025-01-13 08:45:07.08	26.83	11.31	
2025-01-13 08:45:07.29	26.78	11.31	
2025-01-13 08:45:07.49	26.74	11.31	
2025-01-13 08:45:07.70	26.70	11.31	
2025-01-13 08:45:07.90	26.65	11.30	
2025-01-13 08:45:08.11	26.61	11.30	
2025-01-13 08:45:08.31	26.57	11.30	
2025-01-13 08:45:08.52	26.52	11.30	
2025-01-13 08:45:08.72	26.48	11.29	
2025-01-13 08:45:08.93	26.44	11.29	
2025-01-13 08:45:09.13	26.39	11.29	
2025-01-13 08:45:09.34	26.35	11.28	
2025-01-13 08:45:09.55	26.30	11.28	
2025-01-13 08:45:09.75	26.26	11.28	
2025-01-13 08:45:09.96	26.22	11.28	
2025-01-13 08:45:10.16	26.18	11.27	
2025-01-13 08:45:10.37	26.13	11.27	
2025-01-13 08:45:10.57	26.09	11.27	
2025-01-13 08:45:10.78	26.04	11.26	
2025-01-13 08:45:10.98	26.00	11.26	
2025-01-13 08:45:11.19	25.96	11.26	
2025-01-13 08:45:11.41	25.91	11.25	
2025-01-13 08:45:11.61	25.87	11.25	
2025-01-13 08:45:11.81	25.83	11.25	
2025-01-13 08:45:12.02	25.78	11.25	
2025-01-13 08:45:12.23	25.74	11.24	
2025-01-13 08:45:12.43	25.70	11.24	
2025-01-13 08:45:12.63	25.65	11.24	
2025-01-13 08:45:12.84	25.61	11.23	
2025-01-13 08:45:13.05	25.57	11.23	
2025-01-13 08:45:13.25	25.52	11.23	
2025-01-13 08:45:13.46	25.48	11.22	
2025-01-13 08:45:13.66	25.44	11.22	
2025-01-13 08:45:13.86	25.39	11.22	
2025-01-13 08:45:14.07	25.35	11.21	
2025-01-13 08:45:14.28	25.31	11.21	
2025-01-13 08:45:14.48	25.26	11.21	
2025-01-13 08:45:14.69	25.22	11.21	
2025-01-13 08:45:14.89	25.18	11.20	
2025-01-13 08:45:15.10	25.13	11.20	
2025-01-13 08:45:15.30	25.09	11.20	
2025-01-13 08:45:15.51	25.05	11.19	
2025-01-13 08:45:15.71	25.00	11.19	
2025-01-13 08:45:15.92	24.96	11.19	
2025-01-13 08:45:16.13	24.92	11.18	
2025-01-13 08:45:16.33	24.87	11.18	
2025-01-13 08:45:16.54	24.83	11.18	
2025-01-13 08:45:16.74	24.79	11.17	
2025-01-13 08:45:16.95	24.74	11.17	
2025-01-13 08:45:17.15	24.70	11.17	
2025-01-13 08:45:17.36	24.66	11.16	
2025-01-13 08:45:17.56	24.62	11.16	
2025-01-13 08:45:17.78	24.57	11.16	
2025-01-13 08:45:17.98	24.53	11.15	
2025-01-13 08:45:18.19	24.48	11.15	
2025-01-13 08:45:18.40	24.44	11.15	
2025-01-13 08:45:18.60	24.40	11.14	
2025-01-13 08:45:18.82	24.35	11.14	
2025-01-13 08:45:19.03	24.31	11.13	
2025-01-13 08:45:19.23	24.27	11.13	
2025-01-13 08:45:19.44	24.22	11.13	
2025-01-13 08:45:19.65	24.18	11.12	
2025-01-13 08:45:19.85	24.14	11.12	
2025-01-13 08:45:20.06	24.09	11.12	
2025-01-13 08:45:20.27	24.05	11.11	
2025-01-13 08:45:20.47	24.01	11.11	
2025-01-13 08:45:20.68	23.96	11.11	
2025-01-13 08:45:20.88	23.92	11.10	
2025-01-13 08:45:21.09	23.88	11.10	
2025-01-13 08:45:21.29	23.84	11.09	
2025-01-13 08:45:21.50	23.79	11.09	
2025-01-13 08:45:21.71	23.75	11.09	
2025-01-13 08:45:21.91	23.71	11.08	
2025-01-13 08:45:22.11	23.66	11.08	
2025-01-13 08:45:22.32	23.62	11.08	
2025-01-13 08:45:22.53	23.58	11.07	
2025-01-13 08:45:22.73	23.53	11.07	
2025-01-13 08:45:22.94	23.49	11.06	
2025-01-13 08:45:23.14	23.45	11.06	
2025-01-13 08:45:23.35	23.41	11.06	
2025-01-13 08:45:23.55	23.36	11.05	
2025-01-13 08:45:23.76	23.32	11.05	
2025-01-13 08:45:23.96	23.28	11.05	
2025-01-13 08:45:24.17	23.23	11.04	
2025-01-13 08:45:24.37	23.19	11.04	
2025-01-13 08:45:24.58	23.15	11.03	
2025-01-13 08:45:24.79	23.11	11.03	
2025-01-13 08:45:24.99	23.06	11.03	
2025-01-13 08:45:25.20	23.02	11.02	
2025-01-13 08:45:25.40	22.98	11.02	
2025-01-13 08:45:25.61	22.94	11.01	
2025-01-13 08:45:25.81	22.89	11.01	
2025-01-13 08:45:26.03	22.85	11.01	
2025-01-13 08:45:26.23	22.81	11.00	
2025-01-13 08:45:26.44	22.76	11.00	
2025-01-13 08:45:26.64	22.72	10.99	
2025-01-13 08:45:26.85	22.68	10.99	
2025-01-13 08:45:27.05	22.64	10.99	
2025-01-13 08:45:27.26	22.59	10.98	
2025-01-13 08:45:27.46	22.55	10.98	
2025-01-13 08:45:27.67	22.51	10.97	
2025-01-13 08:45:27.87	22.47	10.97	
2025-01-13 08:45:28.08	22.42	10.97	
2025-01-13 08:45:28.28	22.38	10.96	
2025-01-13 08:45:28.49	22.34	10.96	
2025-01-13 08:45:28.69	22.30	10.95	
2025-01-13 08:45:28.90	22.25	10.95	
2025-01-13 08:45:29.10	22.21	10.95	
2025-01-13 08:45:29.31	22.17	10.94	
2025-01-13 08:45:29.51	22.13	10.94	
2025-01-13 08:45:29.72	22.09	10.93	
2025-01-13 08:45:29.93	22.04	10.93	
2025-01-13 08:45:30.13	22.00	10.92	
2025-01-13 08:45:30.34	21.96	10.92	
2025-01-13 08:45:30.54	21.92	10.92	
2025-01-13 08:45:30.75	21.87	10.91	
2025-01-13 08:45:30.95	21.83	10.91	
2025-01-13 08:45:31.16	21.79	10.90	
2025-01-13 08:45:31.37	21.75	10.90	
2025-01-13 08:45:31.57	21.70	10.89	
2025-01-13 08:45:31.78	21.66	10.89	
2025-01-13 08:45:31.98	21.62	10.89	
2025-01-13 08:45:32.19	21.58	10.88	
2025-01-13 08:45:32.39	21.54	10.88	
2025-01-13 08:45:32.60	21.49	10.87	
2025-01-13 08:45:32.80	21.45	10.87	
2025-01-13 08:45:33.01	21.41	10.86	
2025-01-13 08:45:33.21	21.37	10.86	
2025-01-13 08:45:33.42	21.32	10.85	
2025-01-13 08:45:33.62	21.28	10.85	
2025-01-13 08:45:33.83	21.24	10.85	
2025-01-13 08:45:34.03	21.20	10.84	
2025-01-13 08:45:34.24	21.16	10.84	
2025-01-13 08:45:34.44	21.11	10.83	
2025-01-13 08:45:34.65	21.07	10.83	
2025-01-13 08:45:34.85	21.03	10.82	
2025-01-13 08:45:35.06	20.99	10.82	
2025-01-13 08:45:35.27	20.95	10.81	
2025-01-13 08:45:35.47	20.90	10.81	
2025-01-13 08:45:35.68	20.86	10.80	
2025-01-13 08:45:35.88	20.82	10.80	
2025-01-13 08:45:36.09	20.78	10.79	
2025-01-13 08:45:36.29	20.74	10.79	
2025-01-13 08:45:36.50	20.69	10.79	
2025-01-13 08:45:36.70	20.65	10.78	
2025-01-13 08:45:36.91	20.61	10.78	
2025-01-13 08:45:37.11	20.57	10.77	
2025-01-13 08:45:37.32	20.53	10.77	
2025-01-13 08:45:37.52	20.49	10.76	
2025-01-13 08:45:37.73	20.44	10.76	
2025-01-13 08:45:37.93	20.40	10.75	
2025-01-13 08:45:38.14	20.36	10.75	
2025-01-13 08:45:38.35	20.32	10.74	
2025-01-13 08:45:38.55	20.28	10.74	
2025-01-13 08:45:38.76	20.23	10.73	
2025-01-13 08:45:38.96	20.19	10.73	
2025-01-13 08:45:39.17	20.15	10.72	
2025-01-13 08:45:39.37	20.11	10.72	
2025-01-13 08:45:39.58	20.07	10.71	
2025-01-13 08:45:39.78	20.03	10.71	
2025-01-13 08:45:39.99	19.98	10.70	
2025-01-13 08:45:40.21	19.94	10.70	
2025-01-13 08:45:40.41	19.90	10.69	
2025-01-13 08:45:40.62	19.86	10.69	
2025-01-13 08:45:40.83	19.81	10.68	
2025-01-13 08:45:41.03	19.77	10.68	
2025-01-13 08:45:41.25	19.73	10.67	
2025-01-13 08:45:41.46	19.69	10.67	
2025-01-13 08:45:41.66	19.65	10.66	
2025-01-13 08:45:41.87	19.60	10.66	
2025-01-13 08:45:42.07	19.56	10.65	
2025-01-13 08:45:42.28	19.52	10.65	
2025-01-13 08:45:42.48	19.48	10.64	
2025-01-13 08:45:42.69	19.44	10.64	
2025-01-13 08:45:42.89	19.40	10.63	
2025-01-13 08:45:43.10	19.35	10.63	
2025-01-13 08:45:43.30	19.31	10.62	
2025-01-13 08:45:43.51	19.27	10.62	
2025-01-13 08:45:43.71	19.23	10.61	
2025-01-13 08:45:43.92	19.19	10.61	
2025-01-13 08:45:44.13	19.15	10.60	
2025-01-13 08:45:44.33	19.11	10.60	
2025-01-13 08:45:44.53	19.07	10.59	
2025-01-13 08:45:44.74	19.02	10.59	
2025-01-13 08:45:44.94	18.98	10.58	
2025-01-13 08:45:45.15	18.94	10.58	
2025-01-13 08:45:45.35	18.90	10.57	
2025-01-13 08:45:45.56	18.86	10.57	
2025-01-13 08:45:45.76	18.82	10.56	
2025-01-13 08:45:45.97	18.78	10.56	
2025-01-13 08:45:46.17	18.74	10.55	
2025-01-13 08:45:46.38	18.70	10.55	
2025-01-13 08:45:46.58	18.66	10.54	
2025-01-13 08:45:46.79	18.61	10.54	
2025-01-13 08:45:47.00	18.57	10.53	
2025-01-13 08:45:47.20	18.53	10.53	
2025-01-13 08:45:47.41	18.49	10.52	
2025-01-13 08:45:47.61	18.45	10.51	
2025-01-13 08:45:47.82	18.41	10.51	
2025-01-13 08:45:48.03	18.37	10.50	
2025-01-13 08:45:48.23	18.33	10.50	
2025-01-13 08:45:48.44	18.28	10.49	
2025-01-13 08:45:48.64	18.24	10.49	
2025-01-13 08:45:48.85	18.20	10.48	
2025-01-13 08:45:49.05	18.16	10.48	
2025-01-13 08:45:49.26	18.12	10.47	
2025-01-13 08:45:49.46	18.08	10.47	
2025-01-13 08:45:49.66	18.04	10.46	
2025-01-13 08:45:49.87	18.00	10.45	
2025-01-13 08:45:50.08	17.96	10.45	
2025-01-13 08:45:50.28	17.92	10.44	
2025-01-13 08:45:50.49	17.88	10.44	
2025-01-13 08:45:50.69	17.84	10.43	
2025-01-13 08:45:50.90	17.79	10.43	
2025-01-13 08:45:51.11	17.75	10.42	
2025-01-13 08:45:51.31	17.71	10.42	
2025-01-13 08:45:51.52	17.67	10.41	
2025-01-13 08:45:51.72	17.63	10.40	
2025-01-13 08:45:51.94	17.59	10.40	
2025-01-13 08:45:52.15	17.55	10.39	
2025-01-13 08:45:52.35	17.51	10.39	
2025-01-13 08:45:52.56	17.46	10.38	
2025-01-13 08:45:52.77	17.42	10.38	
2025-01-13 08:45:52.97	17.38	10.37	
2025-01-13 08:45:53.18	17.34	10.36	
2025-01-13 08:45:53.38	17.30	10.36	
2025-01-13 08:45:53.59	17.26	10.35	
2025-01-13 08:45:53.80	17.22	10.35	
2025-01-13 08:45:54.00	17.18	10.34	
2025-01-13 08:45:54.20	17.14	10.34	
2025-01-13 08:45:54.41	17.10	10.33	
2025-01-13 08:45:54.61	17.06	10.33	
2025-01-13 08:45:54.82	17.02	10.32	
2025-01-13 08:45:55.02	16.98	10.31	
2025-01-13 08:45:55.23	16.94	10.31	
2025-01-13 08:45:55.44	16.90	10.30	
2025-01-13 08:45:55.64	16.86	10.30	
2025-01-13 08:45:55.85	16.82	10.29	
2025-01-13 08:45:56.05	16.78	10.28	
2025-01-13 08:45:56.26	16.73	10.28	
2025-01-13 08:45:56.46	16.70	10.27	
2025-01-13 08:45:56.67	16.65	10.27	
2025-01-13 08:45:56.87	16.62	10.26	
2025-01-13 08:45:57.08	16.57	10.26	
2025-01-13 08:45:57.30	16.53	10.25	
2025-01-13 08:45:57.50	16.49	10.24	
2025-01-13 08:45:57.71	16.45	10.24	
2025-01-13 08:45:57.91	16.41	10.23	
2025-01-13 08:45:58.12	16.37	10.23	
2025-01-13 08:45:58.32	16.33	10.22	
2025-01-13 08:45:58.53	16.29	10.21	
2025-01-13 08:45:58.73	16.25	10.21	
2025-01-13 08:45:58.94	16.21	10.20	
2025-01-13 08:45:59.14	16.17	10.20	
2025-01-13 08:45:59.35	16.13	10.19	
2025-01-13 08:45:59.55	16.09	10.18	
2025-01-13 08:45:59.76	16.05	10.18	
2025-01-13 08:45:59.96	16.01	10.17	
2025-01-13 08:46:00.17	15.97	10.17	
2025-01-13 08:46:00.37	15.93	10.16	
2025-01-13 08:46:00.58	15.89	10.15	
2025-01-13 08:46:00.78	15.85	10.15	
2025-01-13 08:46:00.99	15.81	10.14	
2025-01-13 08:46:01.19	15.77	10.14	
2025-01-13 08:46:01.40	15.73	10.13	
2025-01-13 08:46:01.61	15.69	10.12	
2025-01-13 08:46:01.81	15.65	10.12	
2025-01-13 08:46:02.01	15.61	10.11	
2025-01-13 08:46:02.22	15.57	10.10	
2025-01-13 08:46:02.42	15.53	10.10	
2025-01-13 08:46:02.63	15.49	10.09	
2025-01-13 08:46:02.83	15.45	10.09	
2025-01-13 08:46:03.04	15.41	10.08	
2025-01-13 08:46:03.24	15.37	10.07	
2025-01-13 08:46:03.45	15.33	10.07	
2025-01-13 08:46:03.65	15.29	10.06	
2025-01-13 08:46:03.86	15.25	10.05	
2025-01-13 08:46:04.06	15.22	10.05	
2025-01-13 08:46:04.27	15.18	10.04	
2025-01-13 08:46:04.47	15.14	10.04	
2025-01-13 08:46:04.69	15.09	10.03	
2025-01-13 08:46:04.91	15.05	10.02	
2025-01-13 08:46:05.11	15.01	10.02	
2025-01-13 08:46:05.32	14.97	10.01	
2025-01-13 08:46:05.53	14.93	10.00	
2025-01-13 08:46:05.73	14.89	10.00	
2025-01-13 08:46:05.93	14.86	9.99	
2025-01-13 08:46:06.14	14.82	9.98	
2025-01-13 08:46:06.35	14.77	9.98	
2025-01-13 08:46:06.55	14.74	9.97	
2025-01-13 08:46:06.76	14.70	9.97	
2025-01-13 08:46:06.96	14.66	9.96	
2025-01-13 08:46:07.17	14.62	9.95	
2025-01-13 08:46:07.38	14.58	9.95	
2025-01-13 08:46:07.58	14.54	9.94	
2025-01-13 08:46:07.79	14.50	9.93	
2025-01-13 08:46:07.99	14.46	9.93	
2025-01-13 08:46:08.20	14.42	9.92	
2025-01-13 08:46:08.40	14.38	9.91	
2025-01-13 08:46:08.61	14.34	9.91	
2025-01-13 08:46:08.81	14.30	9.90	
2025-01-13 08:46:09.02	14.26	9.89	
2025-01-13 08:46:09.22	14.23	9.89	
2025-01-13 08:46:09.43	14.19	9.88	
2025-01-13 08:46:09.63	14.15	9.87	
2025-01-13 08:46:09.84	14.11	9.87	
2025-01-13 08:46:10.04	14.07	9.86	
2025-01-13 08:46:10.24	14.03	9.86	
2025-01-13 08:46:10.45	13.99	9.85	
2025-01-13 08:46:10.66	13.95	9.84	
2025-01-13 08:46:10.86	13.91	9.84	
2025-01-13 08:46:11.07	13.87	9.83	
2025-01-13 08:46:11.27	13.84	9.82	
2025-01-13 08:46:11.48	13.80	9.82	
2025-01-13 08:46:11.68	13.76	9.81	
2025-01-13 08:46:11.89	13.72	9.80	
2025-01-13 08:46:12.09	13.68	9.80	
2025-01-13 08:46:12.30	13.64	9.79	
2025-01-13 08:46:12.50	13.60	9.78	
2025-01-13 08:46:12.71	13.56	9.78	
2025-01-13 08:46:12.91	13.52	9.77	
2025-01-13 08:46:13.12	13.48	9.76	
2025-01-13 08:46:13.32	13.45	9.76	
2025-01-13 08:46:13.53	13.41	9.75	
2025-01-13 08:46:13.73	13.37	9.74	
2025-01-13 08:46:13.94	13.33	9.74	
2025-01-13 08:46:14.15	13.29	9.73	
2025-01-13 08:46:14.35	13.25	9.72	
2025-01-13 08:46:14.56	13.21	9.71	
2025-01-13 08:46:14.76	13.18	9.71	
2025-01-13 08:46:14.97	13.14	9.70	
2025-01-13 08:46:15.17	13.10	9.69	
2025-01-13 08:46:15.38	13.06	9.69	
2025-01-13 08:46:15.58	13.02	9.68	
2025-01-13 08:46:15.79	12.98	9.67	
2025-01-13 08:46:15.99	12.94	9.67	
2025-01-13 08:46:16.20	12.91	9.66	
2025-01-13 08:46:16.40	12.87	9.65	
2025-01-13 08:46:16.61	12.83	9.65	
2025-01-13 08:46:16.82	12.79	9.64	
2025-01-13 08:46:17.02	12.75	9.63	
2025-01-13 08:46:17.23	12.71	9.63	
2025-01-13 08:46:17.43	12.67	9.62	
2025-01-13 08:46:17.64	12.64	9.61	
2025-01-13 08:46:17.84	12.60	9.61	
2025-01-13 08:46:18.05	12.56	9.60	
2025-01-13 08:46:18.25	12.52	9.59	
2025-01-13 08:46:18.46	12.48	9.58	
2025-01-13 08:46:18.66	12.45	9.58	
2025-01-13 08:46:18.87	12.41	9.57	
2025-01-13 08:46:19.07	12.37	9.56	
2025-01-13 08:46:19.28	12.33	9.56	
2025-01-13 08:46:19.48	12.29	9.55	
2025-01-13 08:46:19.69	12.25	9.54	
2025-01-13 08:46:19.89	12.22	9.54	
2025-01-13 08:46:20.10	12.18	9.53	
2025-01-13 08:46:20.31	12.14	9.52	
2025-01-13 08:46:20.51	12.10	9.51	
2025-01-13 08:46:20.72	12.06	9.51	
2025-01-13 08:46:20.92	12.03	9.50	
2025-01-13 08:46:21.13	11.99	9.49	
2025-01-13 08:46:21.33	11.95	9.49	
2025-01-13 08:46:21.54	11.91	9.48	
2025-01-13 08:46:21.74	11.87	9.47	
2025-01-13 08:46:21.95	11.83	9.46	
2025-01-13 08:46:22.16	11.80	9.46	
2025-01-13 08:46:22.36	11.76	9.45	
