passes_logs/2025/01/13/SPB_Silybum_02/SPB_Silybum_02__20250113_003822_AQUA_rec.log

#Pass ID: 20250113_003822_AQUA
#Satellite: AQUA
#Configuration: AQUA
#Start time: 2025-01-13 00:38:22

#Version: 2.0.20230423
#Station: SPB_Silybum_02
#Location: 30.233357 lon 59.946436 lat
#TLE: 1 27424U 02022A   25012.20730597  .00001826  00000+0  38477-3 0  9996
#TLE: 2 27424  98.3584 328.8461 0001605 114.2253 358.7733 14.60671943207219

#Time	Az	El	Level	Level2	SNR	BER	Gain	Gain2
2025-01-13 00:38:24.68	21.18	4.12	
2025-01-13 00:38:24.88	21.19	4.13	
2025-01-13 00:38:25.09	21.20	4.15	
2025-01-13 00:38:25.29	21.21	4.16	
2025-01-13 00:38:25.49	21.21	4.17	
2025-01-13 00:38:25.70	21.22	4.19	
2025-01-13 00:38:25.90	21.23	4.20	
2025-01-13 00:38:26.11	21.24	4.22	
2025-01-13 00:38:26.31	21.25	4.23	
2025-01-13 00:38:26.52	21.26	4.24	
2025-01-13 00:38:26.72	21.27	4.26	
2025-01-13 00:38:26.93	21.27	4.27	
2025-01-13 00:38:27.14	21.28	4.29	
2025-01-13 00:38:27.34	21.29	4.30	
2025-01-13 00:38:27.54	21.30	4.32	
2025-01-13 00:38:27.75	21.31	4.33	
2025-01-13 00:38:27.95	21.32	4.34	
2025-01-13 00:38:28.16	21.33	4.36	
2025-01-13 00:38:28.37	21.34	4.37	
2025-01-13 00:38:28.57	21.35	4.39	
2025-01-13 00:38:28.77	21.35	4.40	
2025-01-13 00:38:28.97	21.36	4.42	
2025-01-13 00:38:29.18	21.37	4.43	
2025-01-13 00:38:29.39	21.38	4.45	
2025-01-13 00:38:29.59	21.39	4.46	
2025-01-13 00:38:29.80	21.40	4.47	
2025-01-13 00:38:30.00	21.41	4.49	
2025-01-13 00:38:30.21	21.42	4.50	
2025-01-13 00:38:30.41	21.43	4.52	
2025-01-13 00:38:30.62	21.43	4.53	
2025-01-13 00:38:30.82	21.44	4.55	
2025-01-13 00:38:31.03	21.45	4.56	
2025-01-13 00:38:31.23	21.46	4.58	
2025-01-13 00:38:31.44	21.47	4.59	
2025-01-13 00:38:31.64	21.48	4.60	
2025-01-13 00:38:31.85	21.49	4.62	
2025-01-13 00:38:32.05	21.50	4.63	
2025-01-13 00:38:32.26	21.51	4.65	
2025-01-13 00:38:32.47	21.52	4.66	
2025-01-13 00:38:32.67	21.52	4.68	
2025-01-13 00:38:32.88	21.53	4.69	
2025-01-13 00:38:33.08	21.54	4.71	
2025-01-13 00:38:33.28	21.55	4.72	
2025-01-13 00:38:33.49	21.56	4.74	
2025-01-13 00:38:33.70	21.57	4.75	
2025-01-13 00:38:33.90	21.58	4.76	
2025-01-13 00:38:34.10	21.59	4.78	
2025-01-13 00:38:34.31	21.60	4.79	
2025-01-13 00:38:34.52	21.61	4.81	
2025-01-13 00:38:34.72	21.61	4.82	
2025-01-13 00:38:34.92	21.62	4.84	
2025-01-13 00:38:35.13	21.63	4.85	
2025-01-13 00:38:35.34	21.64	4.87	
2025-01-13 00:38:35.54	21.65	4.88	
2025-01-13 00:38:35.74	21.66	4.90	
2025-01-13 00:38:35.95	21.67	4.91	
2025-01-13 00:38:36.16	21.68	4.93	
2025-01-13 00:38:36.36	21.69	4.94	
2025-01-13 00:38:36.57	21.70	4.95	
2025-01-13 00:38:36.77	21.71	4.97	
2025-01-13 00:38:36.98	21.72	4.98	
2025-01-13 00:38:37.18	21.72	5.00	
2025-01-13 00:38:37.39	21.73	5.01	
2025-01-13 00:38:37.59	21.74	5.03	
2025-01-13 00:38:37.80	21.75	5.04	
2025-01-13 00:38:38.00	21.76	5.06	
2025-01-13 00:38:38.21	21.77	5.07	
2025-01-13 00:38:38.42	21.78	5.09	
2025-01-13 00:38:38.62	21.79	5.10	
2025-01-13 00:38:38.83	21.80	5.12	
2025-01-13 00:38:39.03	21.81	5.13	
2025-01-13 00:38:39.24	21.82	5.15	
2025-01-13 00:38:39.44	21.83	5.16	
2025-01-13 00:38:39.65	21.84	5.18	
2025-01-13 00:38:39.85	21.85	5.19	
2025-01-13 00:38:40.06	21.85	5.21	
2025-01-13 00:38:40.28	21.86	5.22	
2025-01-13 00:38:40.48	21.87	5.24	
2025-01-13 00:38:40.69	21.88	5.25	
2025-01-13 00:38:40.89	21.89	5.27	
2025-01-13 00:38:41.10	21.90	5.28	
2025-01-13 00:38:41.30	21.91	5.30	
2025-01-13 00:38:41.51	21.92	5.31	
2025-01-13 00:38:41.72	21.93	5.33	
2025-01-13 00:38:41.92	21.94	5.34	
2025-01-13 00:38:42.13	21.95	5.36	
2025-01-13 00:38:42.33	21.96	5.37	
2025-01-13 00:38:42.54	21.97	5.39	
2025-01-13 00:38:42.74	21.98	5.40	
2025-01-13 00:38:42.95	21.99	5.42	
2025-01-13 00:38:43.15	22.00	5.43	
2025-01-13 00:38:43.36	22.01	5.45	
2025-01-13 00:38:43.56	22.02	5.46	
2025-01-13 00:38:43.77	22.03	5.48	
2025-01-13 00:38:43.98	22.03	5.49	
2025-01-13 00:38:44.18	22.04	5.51	
2025-01-13 00:38:44.39	22.05	5.52	
2025-01-13 00:38:44.59	22.06	5.54	
2025-01-13 00:38:44.79	22.07	5.55	
2025-01-13 00:38:45.00	22.08	5.57	
2025-01-13 00:38:45.21	22.09	5.58	
2025-01-13 00:38:45.41	22.10	5.60	
2025-01-13 00:38:45.62	22.11	5.61	
2025-01-13 00:38:45.82	22.12	5.63	
2025-01-13 00:38:46.03	22.13	5.64	
2025-01-13 00:38:46.23	22.14	5.66	
2025-01-13 00:38:46.44	22.15	5.67	
2025-01-13 00:38:46.64	22.16	5.69	
2025-01-13 00:38:46.85	22.17	5.70	
2025-01-13 00:38:47.05	22.18	5.72	
2025-01-13 00:38:47.26	22.19	5.73	
2025-01-13 00:38:47.46	22.20	5.75	
2025-01-13 00:38:47.67	22.21	5.76	
2025-01-13 00:38:47.87	22.22	5.78	
2025-01-13 00:38:48.08	22.23	5.79	
2025-01-13 00:38:48.28	22.24	5.81	
2025-01-13 00:38:48.49	22.25	5.82	
2025-01-13 00:38:48.69	22.26	5.84	
2025-01-13 00:38:48.90	22.27	5.85	
2025-01-13 00:38:49.10	22.28	5.87	
2025-01-13 00:38:49.31	22.29	5.88	
2025-01-13 00:38:49.51	22.30	5.90	
2025-01-13 00:38:49.72	22.31	5.92	
2025-01-13 00:38:49.92	22.31	5.93	
2025-01-13 00:38:50.13	22.32	5.95	
2025-01-13 00:38:50.33	22.33	5.96	
2025-01-13 00:38:50.54	22.34	5.98	
2025-01-13 00:38:50.75	22.35	5.99	
2025-01-13 00:38:50.95	22.36	6.01	
2025-01-13 00:38:51.15	22.37	6.02	
2025-01-13 00:38:51.36	22.38	6.04	
2025-01-13 00:38:51.57	22.39	6.05	
2025-01-13 00:38:51.77	22.40	6.07	
2025-01-13 00:38:51.98	22.41	6.08	
2025-01-13 00:38:52.18	22.42	6.10	
2025-01-13 00:38:52.38	22.43	6.11	
2025-01-13 00:38:52.59	22.44	6.13	
2025-01-13 00:38:52.80	22.45	6.15	
2025-01-13 00:38:53.00	22.46	6.16	
2025-01-13 00:38:53.21	22.47	6.18	
2025-01-13 00:38:53.41	22.48	6.19	
2025-01-13 00:38:53.62	22.49	6.21	
2025-01-13 00:38:53.82	22.50	6.22	
2025-01-13 00:38:54.02	22.51	6.24	
2025-01-13 00:38:54.23	22.52	6.25	
2025-01-13 00:38:54.43	22.53	6.27	
2025-01-13 00:38:54.64	22.54	6.28	
2025-01-13 00:38:54.85	22.55	6.30	
2025-01-13 00:38:55.05	22.56	6.32	
2025-01-13 00:38:55.25	22.57	6.33	
2025-01-13 00:38:55.47	22.58	6.35	
2025-01-13 00:38:55.67	22.59	6.36	
2025-01-13 00:38:55.88	22.60	6.38	
2025-01-13 00:38:56.09	22.61	6.39	
2025-01-13 00:38:56.29	22.62	6.41	
2025-01-13 00:38:56.49	22.63	6.42	
2025-01-13 00:38:56.70	22.64	6.44	
2025-01-13 00:38:56.90	22.65	6.46	
2025-01-13 00:38:57.11	22.66	6.47	
2025-01-13 00:38:57.31	22.67	6.49	
2025-01-13 00:38:57.52	22.69	6.50	
2025-01-13 00:38:57.72	22.70	6.52	
2025-01-13 00:38:57.93	22.71	6.53	
2025-01-13 00:38:58.13	22.72	6.55	
2025-01-13 00:38:58.34	22.73	6.57	
2025-01-13 00:38:58.54	22.74	6.58	
2025-01-13 00:38:58.75	22.75	6.60	
2025-01-13 00:38:58.96	22.76	6.61	
2025-01-13 00:38:59.16	22.77	6.63	
2025-01-13 00:38:59.37	22.78	6.64	
2025-01-13 00:38:59.57	22.79	6.66	
2025-01-13 00:38:59.78	22.80	6.68	
2025-01-13 00:38:59.98	22.81	6.69	
2025-01-13 00:39:00.19	22.82	6.71	
2025-01-13 00:39:00.39	22.83	6.72	
2025-01-13 00:39:00.60	22.84	6.74	
2025-01-13 00:39:00.80	22.85	6.75	
2025-01-13 00:39:01.01	22.86	6.77	
2025-01-13 00:39:01.21	22.87	6.79	
2025-01-13 00:39:01.42	22.88	6.80	
2025-01-13 00:39:01.62	22.89	6.82	
2025-01-13 00:39:01.83	22.90	6.83	
2025-01-13 00:39:02.03	22.91	6.85	
2025-01-13 00:39:02.24	22.92	6.87	
2025-01-13 00:39:02.44	22.93	6.88	
2025-01-13 00:39:02.66	22.94	6.90	
2025-01-13 00:39:02.86	22.95	6.91	
2025-01-13 00:39:03.07	22.97	6.93	
2025-01-13 00:39:03.27	22.98	6.95	
2025-01-13 00:39:03.48	22.99	6.96	
2025-01-13 00:39:03.68	23.00	6.98	
2025-01-13 00:39:03.89	23.01	6.99	
2025-01-13 00:39:04.09	23.02	7.01	
2025-01-13 00:39:04.30	23.03	7.03	
2025-01-13 00:39:04.50	23.04	7.04	
2025-01-13 00:39:04.71	23.05	7.06	
2025-01-13 00:39:04.91	23.06	7.07	
2025-01-13 00:39:05.12	23.07	7.09	
2025-01-13 00:39:05.32	23.08	7.10	
2025-01-13 00:39:05.53	23.09	7.12	
2025-01-13 00:39:05.73	23.10	7.14	
2025-01-13 00:39:05.94	23.11	7.15	
2025-01-13 00:39:06.14	23.12	7.17	
2025-01-13 00:39:06.35	23.13	7.19	
2025-01-13 00:39:06.55	23.14	7.20	
2025-01-13 00:39:06.76	23.16	7.22	
2025-01-13 00:39:06.96	23.17	7.23	
2025-01-13 00:39:07.17	23.18	7.25	
2025-01-13 00:39:07.38	23.19	7.27	
2025-01-13 00:39:07.58	23.20	7.28	
2025-01-13 00:39:07.79	23.21	7.30	
2025-01-13 00:39:07.99	23.22	7.31	
2025-01-13 00:39:08.20	23.23	7.33	
2025-01-13 00:39:08.40	23.24	7.35	
2025-01-13 00:39:08.61	23.25	7.36	
2025-01-13 00:39:08.81	23.26	7.38	
2025-01-13 00:39:09.02	23.27	7.40	
2025-01-13 00:39:09.22	23.29	7.41	
2025-01-13 00:39:09.43	23.30	7.43	
2025-01-13 00:39:09.64	23.31	7.44	
2025-01-13 00:39:09.84	23.32	7.46	
2025-01-13 00:39:10.05	23.33	7.48	
2025-01-13 00:39:10.25	23.34	7.49	
2025-01-13 00:39:10.46	23.35	7.51	
2025-01-13 00:39:10.67	23.36	7.53	
2025-01-13 00:39:10.87	23.37	7.54	
2025-01-13 00:39:11.08	23.38	7.56	
2025-01-13 00:39:11.28	23.39	7.57	
2025-01-13 00:39:11.49	23.41	7.59	
2025-01-13 00:39:11.69	23.42	7.61	
2025-01-13 00:39:11.90	23.43	7.62	
2025-01-13 00:39:12.10	23.44	7.64	
2025-01-13 00:39:12.31	23.45	7.66	
2025-01-13 00:39:12.51	23.46	7.67	
2025-01-13 00:39:12.72	23.47	7.69	
2025-01-13 00:39:12.92	23.48	7.71	
2025-01-13 00:39:13.13	23.49	7.72	
2025-01-13 00:39:13.33	23.50	7.74	
2025-01-13 00:39:13.54	23.52	7.76	
2025-01-13 00:39:13.75	23.53	7.77	
2025-01-13 00:39:13.95	23.54	7.79	
2025-01-13 00:39:14.16	23.55	7.81	
2025-01-13 00:39:14.37	23.56	7.82	
2025-01-13 00:39:14.58	23.57	7.84	
2025-01-13 00:39:14.79	23.58	7.86	
2025-01-13 00:39:14.99	23.59	7.87	
2025-01-13 00:39:15.19	23.61	7.89	
2025-01-13 00:39:15.40	23.62	7.91	
2025-01-13 00:39:15.60	23.63	7.92	
2025-01-13 00:39:15.81	23.64	7.94	
2025-01-13 00:39:16.01	23.65	7.95	
2025-01-13 00:39:16.22	23.66	7.97	
2025-01-13 00:39:16.42	23.67	7.99	
2025-01-13 00:39:16.63	23.68	8.00	
2025-01-13 00:39:16.83	23.70	8.02	
2025-01-13 00:39:17.04	23.71	8.04	
2025-01-13 00:39:17.25	23.72	8.06	
2025-01-13 00:39:17.45	23.73	8.07	
2025-01-13 00:39:17.66	23.74	8.09	
2025-01-13 00:39:17.86	23.75	8.10	
2025-01-13 00:39:18.07	23.76	8.12	
2025-01-13 00:39:18.28	23.78	8.14	
2025-01-13 00:39:18.48	23.79	8.16	
2025-01-13 00:39:18.69	23.80	8.17	
2025-01-13 00:39:18.89	23.81	8.19	
2025-01-13 00:39:19.10	23.82	8.21	
2025-01-13 00:39:19.30	23.83	8.22	
2025-01-13 00:39:19.51	23.84	8.24	
2025-01-13 00:39:19.71	23.86	8.26	
2025-01-13 00:39:19.92	23.87	8.27	
2025-01-13 00:39:20.12	23.88	8.29	
2025-01-13 00:39:20.33	23.89	8.31	
2025-01-13 00:39:20.53	23.90	8.32	
2025-01-13 00:39:20.74	23.91	8.34	
2025-01-13 00:39:20.94	23.93	8.36	
2025-01-13 00:39:21.15	23.94	8.37	
2025-01-13 00:39:21.35	23.95	8.39	
2025-01-13 00:39:21.56	23.96	8.41	
2025-01-13 00:39:21.76	23.97	8.42	
2025-01-13 00:39:21.97	23.98	8.44	
2025-01-13 00:39:22.17	23.99	8.46	
2025-01-13 00:39:22.38	24.01	8.48	
2025-01-13 00:39:22.59	24.02	8.49	
2025-01-13 00:39:22.79	24.03	8.51	
2025-01-13 00:39:23.00	24.04	8.53	
2025-01-13 00:39:23.20	24.05	8.54	
2025-01-13 00:39:23.41	24.07	8.56	
2025-01-13 00:39:23.61	24.08	8.58	
2025-01-13 00:39:23.82	24.09	8.59	
2025-01-13 00:39:24.02	24.10	8.61	
2025-01-13 00:39:24.23	24.11	8.63	
2025-01-13 00:39:24.44	24.12	8.65	
2025-01-13 00:39:24.64	24.14	8.66	
2025-01-13 00:39:24.85	24.15	8.68	
2025-01-13 00:39:25.05	24.16	8.70	
2025-01-13 00:39:25.26	24.17	8.71	
2025-01-13 00:39:25.46	24.18	8.73	
2025-01-13 00:39:25.67	24.20	8.75	
2025-01-13 00:39:25.87	24.21	8.77	
2025-01-13 00:39:26.07	24.22	8.78	
2025-01-13 00:39:26.28	24.23	8.80	
2025-01-13 00:39:26.49	24.24	8.82	
2025-01-13 00:39:26.69	24.25	8.83	
2025-01-13 00:39:26.89	24.27	8.85	
2025-01-13 00:39:27.10	24.28	8.87	
2025-01-13 00:39:27.30	24.29	8.89	
2025-01-13 00:39:27.51	24.30	8.90	
2025-01-13 00:39:27.71	24.31	8.92	
2025-01-13 00:39:27.92	24.33	8.94	
2025-01-13 00:39:28.13	24.34	8.96	
2025-01-13 00:39:28.33	24.35	8.97	
2025-01-13 00:39:28.53	24.36	8.99	
2025-01-13 00:39:28.74	24.37	9.01	
2025-01-13 00:39:28.95	24.39	9.02	
2025-01-13 00:39:29.15	24.40	9.04	
2025-01-13 00:39:29.36	24.41	9.06	
2025-01-13 00:39:29.56	24.42	9.08	
2025-01-13 00:39:29.77	24.44	9.09	
2025-01-13 00:39:29.97	24.45	9.11	
2025-01-13 00:39:30.18	24.46	9.13	
2025-01-13 00:39:30.40	24.47	9.15	
2025-01-13 00:39:30.60	24.49	9.16	
2025-01-13 00:39:30.81	24.50	9.18	
2025-01-13 00:39:31.01	24.51	9.20	
2025-01-13 00:39:31.22	24.52	9.22	
2025-01-13 00:39:31.42	24.53	9.23	
2025-01-13 00:39:31.63	24.55	9.25	
2025-01-13 00:39:31.83	24.56	9.27	
2025-01-13 00:39:32.04	24.57	9.29	
2025-01-13 00:39:32.24	24.58	9.30	
2025-01-13 00:39:32.45	24.60	9.32	
2025-01-13 00:39:32.65	24.61	9.34	
2025-01-13 00:39:32.86	24.62	9.36	
2025-01-13 00:39:33.06	24.63	9.37	
2025-01-13 00:39:33.27	24.65	9.39	
2025-01-13 00:39:33.47	24.66	9.41	
2025-01-13 00:39:33.68	24.67	9.43	
2025-01-13 00:39:33.88	24.68	9.44	
2025-01-13 00:39:34.09	24.70	9.46	
2025-01-13 00:39:34.29	24.71	9.48	
2025-01-13 00:39:34.50	24.72	9.50	
2025-01-13 00:39:34.70	24.73	9.52	
2025-01-13 00:39:34.91	24.75	9.53	
2025-01-13 00:39:35.11	24.76	9.55	
2025-01-13 00:39:35.32	24.77	9.57	
2025-01-13 00:39:35.52	24.78	9.59	
2025-01-13 00:39:35.74	24.80	9.61	
2025-01-13 00:39:35.95	24.81	9.62	
2025-01-13 00:39:36.15	24.82	9.64	
2025-01-13 00:39:36.36	24.83	9.66	
2025-01-13 00:39:36.56	24.85	9.68	
2025-01-13 00:39:36.78	24.86	9.70	
2025-01-13 00:39:36.99	24.87	9.71	
2025-01-13 00:39:37.19	24.89	9.73	
2025-01-13 00:39:37.40	24.90	9.75	
2025-01-13 00:39:37.60	24.91	9.77	
2025-01-13 00:39:37.81	24.92	9.79	
2025-01-13 00:39:38.01	24.94	9.80	
2025-01-13 00:39:38.22	24.95	9.82	
2025-01-13 00:39:38.42	24.96	9.84	
2025-01-13 00:39:38.63	24.98	9.86	
2025-01-13 00:39:38.83	24.99	9.87	
2025-01-13 00:39:39.04	25.00	9.89	
2025-01-13 00:39:39.24	25.01	9.91	
2025-01-13 00:39:39.45	25.03	9.93	
2025-01-13 00:39:39.65	25.04	9.95	
2025-01-13 00:39:39.86	25.05	9.97	
2025-01-13 00:39:40.06	25.07	9.98	
2025-01-13 00:39:40.27	25.08	10.00	
2025-01-13 00:39:40.48	25.09	10.02	
2025-01-13 00:39:40.68	25.10	10.04	
2025-01-13 00:39:40.89	25.12	10.06	
2025-01-13 00:39:41.09	25.13	10.07	
2025-01-13 00:39:41.30	25.14	10.09	
2025-01-13 00:39:41.50	25.16	10.11	
2025-01-13 00:39:41.71	25.17	10.13	
2025-01-13 00:39:41.92	25.18	10.15	
2025-01-13 00:39:42.12	25.20	10.16	
2025-01-13 00:39:42.32	25.21	10.18	
2025-01-13 00:39:42.53	25.22	10.20	
2025-01-13 00:39:42.73	25.23	10.22	
2025-01-13 00:39:42.94	25.25	10.24	
2025-01-13 00:39:43.14	25.26	10.26	
2025-01-13 00:39:43.35	25.27	10.27	
2025-01-13 00:39:43.55	25.29	10.29	
2025-01-13 00:39:43.76	25.30	10.31	
2025-01-13 00:39:43.97	25.31	10.33	
2025-01-13 00:39:44.17	25.33	10.35	
2025-01-13 00:39:44.37	25.34	10.36	
2025-01-13 00:39:44.58	25.35	10.38	
2025-01-13 00:39:44.78	25.37	10.40	
2025-01-13 00:39:44.99	25.38	10.42	
2025-01-13 00:39:45.19	25.39	10.44	
2025-01-13 00:39:45.41	25.41	10.46	
2025-01-13 00:39:45.61	25.42	10.48	
2025-01-13 00:39:45.82	25.43	10.49	
2025-01-13 00:39:46.03	25.45	10.51	
2025-01-13 00:39:46.23	25.46	10.53	
2025-01-13 00:39:46.44	25.48	10.55	
2025-01-13 00:39:46.64	25.49	10.57	
2025-01-13 00:39:46.85	25.50	10.59	
2025-01-13 00:39:47.05	25.52	10.61	
2025-01-13 00:39:47.26	25.53	10.62	
2025-01-13 00:39:47.46	25.54	10.64	
2025-01-13 00:39:47.67	25.56	10.66	
2025-01-13 00:39:47.87	25.57	10.68	
2025-01-13 00:39:48.08	25.58	10.70	
2025-01-13 00:39:48.28	25.60	10.72	
2025-01-13 00:39:48.49	25.61	10.74	
2025-01-13 00:39:48.69	25.62	10.75	
2025-01-13 00:39:48.90	25.64	10.77	
2025-01-13 00:39:49.10	25.65	10.79	
2025-01-13 00:39:49.31	25.66	10.81	
2025-01-13 00:39:49.51	25.68	10.83	
2025-01-13 00:39:49.72	25.69	10.85	
2025-01-13 00:39:49.92	25.71	10.87	
2025-01-13 00:39:50.13	25.72	10.89	
2025-01-13 00:39:50.33	25.73	10.90	
2025-01-13 00:39:50.54	25.75	10.92	
2025-01-13 00:39:50.76	25.76	10.94	
2025-01-13 00:39:50.96	25.78	10.96	
2025-01-13 00:39:51.17	25.79	10.98	
2025-01-13 00:39:51.38	25.80	11.00	
2025-01-13 00:39:51.58	25.82	11.02	
2025-01-13 00:39:51.78	25.83	11.04	
2025-01-13 00:39:51.99	25.85	11.06	
2025-01-13 00:39:52.19	25.86	11.07	
2025-01-13 00:39:52.40	25.87	11.09	
2025-01-13 00:39:52.61	25.89	11.11	
2025-01-13 00:39:52.82	25.90	11.13	
2025-01-13 00:39:53.03	25.92	11.15	
2025-01-13 00:39:53.23	25.93	11.17	
2025-01-13 00:39:53.44	25.94	11.19	
2025-01-13 00:39:53.65	25.96	11.21	
2025-01-13 00:39:53.85	25.97	11.23	
2025-01-13 00:39:54.05	25.99	11.25	
2025-01-13 00:39:54.26	26.00	11.27	
2025-01-13 00:39:54.47	26.01	11.29	
2025-01-13 00:39:54.67	26.03	11.30	
2025-01-13 00:39:54.88	26.04	11.32	
2025-01-13 00:39:55.08	26.06	11.34	
2025-01-13 00:39:55.29	26.07	11.36	
2025-01-13 00:39:55.49	26.09	11.38	
2025-01-13 00:39:55.70	26.10	11.40	
2025-01-13 00:39:55.90	26.11	11.42	
2025-01-13 00:39:56.11	26.13	11.44	
2025-01-13 00:39:56.31	26.14	11.46	
2025-01-13 00:39:56.52	26.16	11.48	
2025-01-13 00:39:56.72	26.17	11.49	
2025-01-13 00:39:56.92	26.19	11.51	
2025-01-13 00:39:57.13	26.20	11.53	
2025-01-13 00:39:57.33	26.21	11.55	
2025-01-13 00:39:57.54	26.23	11.57	
2025-01-13 00:39:57.74	26.24	11.59	
2025-01-13 00:39:57.95	26.26	11.61	
2025-01-13 00:39:58.15	26.27	11.63	
2025-01-13 00:39:58.36	26.29	11.65	
2025-01-13 00:39:58.56	26.30	11.67	
2025-01-13 00:39:58.77	26.32	11.69	
2025-01-13 00:39:58.97	26.33	11.71	
2025-01-13 00:39:59.18	26.34	11.73	
2025-01-13 00:39:59.38	26.36	11.75	
2025-01-13 00:39:59.59	26.37	11.77	
2025-01-13 00:39:59.79	26.39	11.78	
2025-01-13 00:40:00.00	26.40	11.80	
2025-01-13 00:40:00.20	26.42	11.82	
2025-01-13 00:40:00.41	26.43	11.84	
2025-01-13 00:40:00.61	26.45	11.86	
2025-01-13 00:40:00.81	26.46	11.88	
2025-01-13 00:40:01.02	26.48	11.90	
2025-01-13 00:40:01.22	26.49	11.92	
2025-01-13 00:40:01.43	26.51	11.94	
2025-01-13 00:40:01.63	26.52	11.96	
2025-01-13 00:40:01.84	26.54	11.98	
2025-01-13 00:40:02.04	26.55	12.00	
2025-01-13 00:40:02.25	26.56	12.02	
2025-01-13 00:40:02.45	26.58	12.04	
2025-01-13 00:40:02.65	26.59	12.06	
2025-01-13 00:40:02.86	26.61	12.08	
2025-01-13 00:40:03.06	26.62	12.10	
2025-01-13 00:40:03.27	26.64	12.12	
2025-01-13 00:40:03.47	26.65	12.14	
2025-01-13 00:40:03.67	26.67	12.16	
2025-01-13 00:40:03.88	26.68	12.18	
2025-01-13 00:40:04.08	26.70	12.19	
2025-01-13 00:40:04.29	26.71	12.21	
2025-01-13 00:40:04.50	26.73	12.24	
2025-01-13 00:40:04.70	26.74	12.25	
2025-01-13 00:40:04.90	26.76	12.27	
2025-01-13 00:40:05.11	26.77	12.29	
2025-01-13 00:40:05.31	26.79	12.31	
2025-01-13 00:40:05.52	26.80	12.33	
2025-01-13 00:40:05.74	26.82	12.36	
2025-01-13 00:40:05.94	26.84	12.37	
2025-01-13 00:40:06.15	26.85	12.40	
2025-01-13 00:40:06.35	26.87	12.41	
2025-01-13 00:40:06.56	26.88	12.44	
2025-01-13 00:40:06.76	26.90	12.45	
2025-01-13 00:40:06.97	26.91	12.48	
2025-01-13 00:40:07.17	26.93	12.49	
2025-01-13 00:40:07.38	26.94	12.52	
2025-01-13 00:40:07.58	26.96	12.53	
2025-01-13 00:40:07.78	26.97	12.55	
2025-01-13 00:40:07.99	26.99	12.57	
2025-01-13 00:40:08.20	27.00	12.60	
2025-01-13 00:40:08.40	27.02	12.62	
2025-01-13 00:40:08.61	27.04	12.64	
2025-01-13 00:40:08.81	27.05	12.66	
2025-01-13 00:40:09.02	27.07	12.68	
2025-01-13 00:40:09.22	27.08	12.70	
2025-01-13 00:40:09.43	27.10	12.72	
2025-01-13 00:40:09.63	27.11	12.74	
2025-01-13 00:40:09.84	27.13	12.76	
2025-01-13 00:40:10.04	27.14	12.78	
2025-01-13 00:40:10.25	27.16	12.80	
2025-01-13 00:40:10.45	27.18	12.82	
2025-01-13 00:40:10.66	27.19	12.84	
2025-01-13 00:40:10.86	27.21	12.86	
2025-01-13 00:40:11.07	27.22	12.88	
2025-01-13 00:40:11.27	27.24	12.90	
2025-01-13 00:40:11.48	27.25	12.92	
2025-01-13 00:40:11.68	27.27	12.94	
2025-01-13 00:40:11.89	27.29	12.96	
2025-01-13 00:40:12.09	27.30	12.98	
2025-01-13 00:40:12.30	27.32	13.00	
2025-01-13 00:40:12.50	27.33	13.02	
2025-01-13 00:40:12.71	27.35	13.04	
2025-01-13 00:40:12.91	27.37	13.06	
2025-01-13 00:40:13.12	27.38	13.08	
2025-01-13 00:40:13.32	27.40	13.10	
2025-01-13 00:40:13.53	27.41	13.12	
2025-01-13 00:40:13.73	27.43	13.14	
2025-01-13 00:40:13.94	27.45	13.17	
2025-01-13 00:40:14.14	27.46	13.19	
2025-01-13 00:40:14.35	27.48	13.21	
2025-01-13 00:40:14.55	27.49	13.23	
2025-01-13 00:40:14.76	27.51	13.25	
2025-01-13 00:40:14.97	27.53	13.27	
2025-01-13 00:40:15.17	27.54	13.29	
2025-01-13 00:40:15.38	27.56	13.31	
2025-01-13 00:40:15.58	27.58	13.33	
2025-01-13 00:40:15.79	27.59	13.35	
2025-01-13 00:40:15.99	27.61	13.37	
2025-01-13 00:40:16.20	27.62	13.39	
2025-01-13 00:40:16.40	27.64	13.41	
2025-01-13 00:40:16.61	27.66	13.43	
2025-01-13 00:40:16.81	27.67	13.45	
2025-01-13 00:40:17.02	27.69	13.48	
2025-01-13 00:40:17.22	27.71	13.50	
2025-01-13 00:40:17.43	27.72	13.52	
2025-01-13 00:40:17.63	27.74	13.54	
2025-01-13 00:40:17.84	27.76	13.56	
2025-01-13 00:40:18.04	27.77	13.58	
2025-01-13 00:40:18.25	27.79	13.60	
2025-01-13 00:40:18.45	27.81	13.62	
2025-01-13 00:40:18.66	27.82	13.64	
2025-01-13 00:40:18.86	27.84	13.66	
2025-01-13 00:40:19.07	27.86	13.69	
2025-01-13 00:40:19.27	27.87	13.71	
2025-01-13 00:40:19.48	27.89	13.73	
2025-01-13 00:40:19.68	27.91	13.75	
2025-01-13 00:40:19.89	27.92	13.77	
2025-01-13 00:40:20.10	27.94	13.79	
2025-01-13 00:40:20.30	27.96	13.81	
2025-01-13 00:40:20.50	27.97	13.83	
2025-01-13 00:40:20.71	27.99	13.85	
2025-01-13 00:40:20.91	28.01	13.88	
2025-01-13 00:40:21.12	28.02	13.90	
2025-01-13 00:40:21.33	28.04	13.92	
2025-01-13 00:40:21.53	28.06	13.94	
2025-01-13 00:40:21.74	28.07	13.96	
2025-01-13 00:40:21.94	28.09	13.98	
2025-01-13 00:40:22.15	28.11	14.00	
2025-01-13 00:40:22.35	28.13	14.02	
2025-01-13 00:40:22.56	28.14	14.05	
2025-01-13 00:40:22.76	28.16	14.07	
2025-01-13 00:40:22.96	28.18	14.09	
2025-01-13 00:40:23.17	28.19	14.11	
2025-01-13 00:40:23.38	28.21	14.13	
2025-01-13 00:40:23.58	28.23	14.15	
2025-01-13 00:40:23.79	28.25	14.17	
2025-01-13 00:40:23.99	28.26	14.20	
2025-01-13 00:40:24.20	28.28	14.22	
2025-01-13 00:40:24.41	28.30	14.24	
2025-01-13 00:40:24.61	28.31	14.26	
2025-01-13 00:40:24.81	28.33	14.28	
2025-01-13 00:40:25.02	28.35	14.30	
2025-01-13 00:40:25.23	28.37	14.33	
2025-01-13 00:40:25.43	28.38	14.35	
2025-01-13 00:40:25.63	28.40	14.37	
2025-01-13 00:40:25.84	28.42	14.39	
2025-01-13 00:40:26.04	28.44	14.41	
2025-01-13 00:40:26.25	28.45	14.43	
2025-01-13 00:40:26.46	28.47	14.46	
2025-01-13 00:40:26.66	28.49	14.48	
2025-01-13 00:40:26.86	28.51	14.50	
2025-01-13 00:40:27.07	28.52	14.52	
2025-01-13 00:40:27.27	28.54	14.54	
2025-01-13 00:40:27.48	28.56	14.56	
2025-01-13 00:40:27.68	28.58	14.59	
2025-01-13 00:40:27.89	28.60	14.61	
2025-01-13 00:40:28.10	28.61	14.63	
2025-01-13 00:40:28.31	28.63	14.65	
2025-01-13 00:40:28.51	28.65	14.67	
2025-01-13 00:40:28.72	28.67	14.70	
2025-01-13 00:40:28.93	28.69	14.72	
2025-01-13 00:40:29.13	28.70	14.74	
2025-01-13 00:40:29.34	28.72	14.76	
2025-01-13 00:40:29.54	28.74	14.78	
2025-01-13 00:40:29.75	28.76	14.81	
2025-01-13 00:40:29.95	28.77	14.83	
2025-01-13 00:40:30.16	28.79	14.85	
2025-01-13 00:40:30.36	28.81	14.87	
2025-01-13 00:40:30.57	28.83	14.90	
2025-01-13 00:40:30.77	28.85	14.92	
2025-01-13 00:40:30.98	28.87	14.94	
2025-01-13 00:40:31.18	28.88	14.96	
2025-01-13 00:40:31.38	28.90	14.98	
2025-01-13 00:40:31.59	28.92	15.01	
2025-01-13 00:40:31.80	28.94	15.03	
2025-01-13 00:40:32.00	28.96	15.05	
2025-01-13 00:40:32.20	28.97	15.07	
2025-01-13 00:40:32.41	28.99	15.09	
2025-01-13 00:40:32.61	29.01	15.12	
2025-01-13 00:40:32.82	29.03	15.14	
2025-01-13 00:40:33.02	29.05	15.16	
2025-01-13 00:40:33.23	29.07	15.18	
2025-01-13 00:40:33.43	29.08	15.21	
2025-01-13 00:40:33.64	29.10	15.23	
2025-01-13 00:40:33.84	29.12	15.25	
2025-01-13 00:40:34.05	29.14	15.27	
2025-01-13 00:40:34.25	29.16	15.30	
2025-01-13 00:40:34.46	29.18	15.32	
2025-01-13 00:40:34.66	29.20	15.34	
2025-01-13 00:40:34.87	29.21	15.36	
2025-01-13 00:40:35.07	29.23	15.39	
2025-01-13 00:40:35.28	29.25	15.41	
2025-01-13 00:40:35.48	29.27	15.43	
2025-01-13 00:40:35.69	29.29	15.45	
2025-01-13 00:40:35.89	29.31	15.48	
2025-01-13 00:40:36.10	29.33	15.50	
2025-01-13 00:40:36.30	29.35	15.52	
2025-01-13 00:40:36.51	29.36	15.54	
2025-01-13 00:40:36.72	29.38	15.57	
2025-01-13 00:40:36.92	29.40	15.59	
2025-01-13 00:40:37.12	29.42	15.61	
2025-01-13 00:40:37.33	29.44	15.63	
2025-01-13 00:40:37.54	29.46	15.66	
2025-01-13 00:40:37.74	29.48	15.68	
2025-01-13 00:40:37.95	29.50	15.70	
2025-01-13 00:40:38.16	29.52	15.73	
2025-01-13 00:40:38.36	29.54	15.75	
2025-01-13 00:40:38.57	29.56	15.77	
2025-01-13 00:40:38.77	29.57	15.80	
2025-01-13 00:40:38.98	29.59	15.82	
2025-01-13 00:40:39.18	29.61	15.84	
2025-01-13 00:40:39.39	29.63	15.86	
2025-01-13 00:40:39.60	29.65	15.89	
2025-01-13 00:40:39.80	29.67	15.91	
2025-01-13 00:40:40.01	29.69	15.93	
2025-01-13 00:40:40.21	29.71	15.96	
2025-01-13 00:40:40.42	29.73	15.98	
2025-01-13 00:40:40.62	29.75	16.00	
2025-01-13 00:40:40.83	29.77	16.03	
2025-01-13 00:40:41.03	29.79	16.05	
2025-01-13 00:40:41.24	29.81	16.07	
2025-01-13 00:40:41.44	29.83	16.10	
2025-01-13 00:40:41.65	29.85	16.12	
2025-01-13 00:40:41.85	29.87	16.14	
2025-01-13 00:40:42.06	29.89	16.17	
2025-01-13 00:40:42.26	29.91	16.19	
2025-01-13 00:40:42.47	29.93	16.21	
2025-01-13 00:40:42.67	29.95	16.24	
2025-01-13 00:40:42.88	29.97	16.26	
2025-01-13 00:40:43.08	29.99	16.28	
2025-01-13 00:40:43.29	30.01	16.31	
2025-01-13 00:40:43.49	30.03	16.33	
2025-01-13 00:40:43.70	30.05	16.35	
2025-01-13 00:40:43.91	30.07	16.38	
2025-01-13 00:40:44.11	30.09	16.40	
2025-01-13 00:40:44.31	30.11	16.42	
2025-01-13 00:40:44.52	30.13	16.45	
2025-01-13 00:40:44.73	30.15	16.47	
2025-01-13 00:40:44.93	30.17	16.49	
2025-01-13 00:40:45.13	30.19	16.52	
2025-01-13 00:40:45.34	30.21	16.54	
2025-01-13 00:40:45.55	30.23	16.56	
2025-01-13 00:40:45.75	30.25	16.59	
2025-01-13 00:40:45.96	30.27	16.61	
2025-01-13 00:40:46.16	30.29	16.64	
2025-01-13 00:40:46.37	30.31	16.66	
2025-01-13 00:40:46.57	30.33	16.68	
2025-01-13 00:40:46.78	30.35	16.71	
2025-01-13 00:40:46.99	30.37	16.73	
2025-01-13 00:40:47.19	30.39	16.75	
2025-01-13 00:40:47.39	30.41	16.78	
2025-01-13 00:40:47.60	30.43	16.80	
2025-01-13 00:40:47.80	30.45	16.83	
2025-01-13 00:40:48.01	30.47	16.85	
2025-01-13 00:40:48.21	30.49	16.87	
2025-01-13 00:40:48.42	30.51	16.90	
2025-01-13 00:40:48.62	30.53	16.92	
2025-01-13 00:40:48.83	30.56	16.95	
2025-01-13 00:40:49.04	30.58	16.97	
2025-01-13 00:40:49.24	30.60	16.99	
2025-01-13 00:40:49.46	30.62	17.02	
2025-01-13 00:40:49.66	30.64	17.04	
2025-01-13 00:40:49.87	30.66	17.07	
2025-01-13 00:40:50.07	30.68	17.09	
2025-01-13 00:40:50.28	30.70	17.12	
2025-01-13 00:40:50.48	30.72	17.14	
2025-01-13 00:40:50.69	30.75	17.16	
2025-01-13 00:40:50.89	30.77	17.19	
2025-01-13 00:40:51.10	30.79	17.21	
2025-01-13 00:40:51.31	30.81	17.24	
2025-01-13 00:40:51.51	30.83	17.26	
2025-01-13 00:40:51.71	30.85	17.29	
2025-01-13 00:40:51.92	30.87	17.31	
2025-01-13 00:40:52.12	30.89	17.33	
2025-01-13 00:40:52.33	30.92	17.36	
2025-01-13 00:40:52.53	30.94	17.38	
2025-01-13 00:40:52.74	30.96	17.41	
2025-01-13 00:40:52.95	30.98	17.43	
2025-01-13 00:40:53.15	31.00	17.46	
2025-01-13 00:40:53.35	31.02	17.48	
2025-01-13 00:40:53.56	31.04	17.51	
2025-01-13 00:40:53.76	31.07	17.53	
2025-01-13 00:40:53.97	31.09	17.55	
2025-01-13 00:40:54.17	31.11	17.58	
2025-01-13 00:40:54.38	31.13	17.60	
2025-01-13 00:40:54.58	31.15	17.63	
2025-01-13 00:40:54.79	31.17	17.65	
2025-01-13 00:40:54.99	31.20	17.68	
2025-01-13 00:40:55.20	31.22	17.70	
2025-01-13 00:40:55.40	31.24	17.73	
2025-01-13 00:40:55.61	31.26	17.75	
2025-01-13 00:40:55.81	31.28	17.78	
2025-01-13 00:40:56.02	31.31	17.80	
2025-01-13 00:40:56.22	31.33	17.83	
2025-01-13 00:40:56.43	31.35	17.85	
2025-01-13 00:40:56.63	31.37	17.88	
2025-01-13 00:40:56.84	31.39	17.90	
2025-01-13 00:40:57.04	31.42	17.93	
2025-01-13 00:40:57.25	31.44	17.95	
2025-01-13 00:40:57.46	31.46	17.98	
2025-01-13 00:40:57.66	31.48	18.00	
2025-01-13 00:40:57.86	31.50	18.03	
2025-01-13 00:40:58.07	31.53	18.05	
2025-01-13 00:40:58.27	31.55	18.08	
2025-01-13 00:40:58.48	31.57	18.10	
2025-01-13 00:40:58.68	31.59	18.13	
2025-01-13 00:40:58.89	31.62	18.15	
2025-01-13 00:40:59.11	31.64	18.18	
2025-01-13 00:40:59.31	31.66	18.20	
2025-01-13 00:40:59.52	31.69	18.23	
2025-01-13 00:40:59.72	31.71	18.25	
2025-01-13 00:40:59.93	31.73	18.28	
2025-01-13 00:41:00.13	31.75	18.30	
2025-01-13 00:41:00.34	31.78	18.33	
2025-01-13 00:41:00.55	31.80	18.36	
2025-01-13 00:41:00.75	31.82	18.38	
2025-01-13 00:41:00.96	31.85	18.41	
2025-01-13 00:41:01.16	31.87	18.43	
2025-01-13 00:41:01.37	31.89	18.46	
2025-01-13 00:41:01.57	31.92	18.48	
2025-01-13 00:41:01.78	31.94	18.51	
2025-01-13 00:41:01.98	31.96	18.53	
2025-01-13 00:41:02.18	31.98	18.56	
2025-01-13 00:41:02.39	32.01	18.58	
2025-01-13 00:41:02.59	32.03	18.61	
2025-01-13 00:41:02.80	32.05	18.64	
2025-01-13 00:41:03.01	32.08	18.66	
2025-01-13 00:41:03.21	32.10	18.69	
2025-01-13 00:41:03.42	32.12	18.71	
2025-01-13 00:41:03.62	32.15	18.74	
2025-01-13 00:41:03.83	32.17	18.76	
2025-01-13 00:41:04.03	32.19	18.79	
2025-01-13 00:41:04.24	32.22	18.82	
2025-01-13 00:41:04.44	32.24	18.84	
2025-01-13 00:41:04.65	32.27	18.87	
2025-01-13 00:41:04.85	32.29	18.89	
2025-01-13 00:41:05.06	32.31	18.92	
2025-01-13 00:41:05.26	32.34	18.94	
2025-01-13 00:41:05.48	32.36	18.97	
2025-01-13 00:41:05.69	32.39	19.00	
2025-01-13 00:41:05.89	32.41	19.02	
2025-01-13 00:41:06.10	32.43	19.05	
2025-01-13 00:41:06.30	32.46	19.08	
2025-01-13 00:41:06.51	32.48	19.10	
2025-01-13 00:41:06.71	32.51	19.13	
2025-01-13 00:41:06.92	32.53	19.16	
2025-01-13 00:41:07.13	32.55	19.18	
2025-01-13 00:41:07.33	32.58	19.21	
2025-01-13 00:41:07.54	32.60	19.23	
2025-01-13 00:41:07.74	32.63	19.26	
2025-01-13 00:41:07.95	32.65	19.29	
2025-01-13 00:41:08.16	32.68	19.31	
2025-01-13 00:41:08.36	32.70	19.34	
2025-01-13 00:41:08.56	32.72	19.36	
2025-01-13 00:41:08.77	32.75	19.39	
2025-01-13 00:41:08.97	32.77	19.42	
2025-01-13 00:41:09.18	32.80	19.44	
2025-01-13 00:41:09.38	32.82	19.47	
2025-01-13 00:41:09.59	32.85	19.50	
2025-01-13 00:41:09.79	32.87	19.52	
2025-01-13 00:41:10.00	32.90	19.55	
2025-01-13 00:41:10.20	32.92	19.58	
2025-01-13 00:41:10.41	32.95	19.60	
2025-01-13 00:41:10.61	32.97	19.63	
2025-01-13 00:41:10.82	33.00	19.66	
2025-01-13 00:41:11.02	33.02	19.68	
2025-01-13 00:41:11.23	33.05	19.71	
2025-01-13 00:41:11.43	33.07	19.74	
2025-01-13 00:41:11.64	33.10	19.76	
2025-01-13 00:41:11.84	33.12	19.79	
2025-01-13 00:41:12.05	33.15	19.82	
2025-01-13 00:41:12.25	33.17	19.84	
2025-01-13 00:41:12.46	33.20	19.87	
2025-01-13 00:41:12.66	33.22	19.90	
2025-01-13 00:41:12.86	33.25	19.92	
2025-01-13 00:41:13.07	33.27	19.95	
2025-01-13 00:41:13.27	33.30	19.98	
2025-01-13 00:41:13.48	33.32	20.00	
2025-01-13 00:41:13.68	33.35	20.03	
2025-01-13 00:41:13.89	33.37	20.06	
2025-01-13 00:41:14.09	33.40	20.08	
2025-01-13 00:41:14.30	33.43	20.11	
2025-01-13 00:41:14.51	33.45	20.14	
2025-01-13 00:41:14.71	33.48	20.17	
2025-01-13 00:41:14.91	33.50	20.19	
2025-01-13 00:41:15.12	33.53	20.22	
2025-01-13 00:41:15.32	33.55	20.25	
2025-01-13 00:41:15.53	33.58	20.28	
2025-01-13 00:41:15.73	33.61	20.30	
2025-01-13 00:41:15.94	33.63	20.33	
2025-01-13 00:41:16.14	33.66	20.36	
2025-01-13 00:41:16.34	33.68	20.38	
2025-01-13 00:41:16.55	33.71	20.41	
2025-01-13 00:41:16.75	33.74	20.44	
2025-01-13 00:41:16.96	33.76	20.47	
2025-01-13 00:41:17.16	33.79	20.49	
2025-01-13 00:41:17.37	33.81	20.52	
2025-01-13 00:41:17.57	33.84	20.55	
2025-01-13 00:41:17.78	33.87	20.58	
2025-01-13 00:41:17.98	33.89	20.60	
2025-01-13 00:41:18.19	33.92	20.63	
2025-01-13 00:41:18.39	33.95	20.66	
2025-01-13 00:41:18.60	33.97	20.69	
2025-01-13 00:41:18.80	34.00	20.71	
2025-01-13 00:41:19.01	34.03	20.74	
2025-01-13 00:41:19.21	34.05	20.77	
2025-01-13 00:41:19.41	34.08	20.80	
2025-01-13 00:41:19.62	34.11	20.82	
2025-01-13 00:41:19.83	34.13	20.85	
2025-01-13 00:41:20.03	34.16	20.88	
2025-01-13 00:41:20.24	34.19	20.91	
2025-01-13 00:41:20.44	34.22	20.94	
2025-01-13 00:41:20.64	34.24	20.96	
2025-01-13 00:41:20.85	34.27	20.99	
2025-01-13 00:41:21.05	34.30	21.02	
2025-01-13 00:41:21.26	34.32	21.05	
2025-01-13 00:41:21.46	34.35	21.07	
2025-01-13 00:41:21.67	34.38	21.10	
2025-01-13 00:41:21.87	34.41	21.13	
2025-01-13 00:41:22.08	34.43	21.16	
2025-01-13 00:41:22.28	34.46	21.19	
2025-01-13 00:41:22.49	34.49	21.22	
2025-01-13 00:41:22.69	34.52	21.24	
2025-01-13 00:41:22.90	34.54	21.27	
2025-01-13 00:41:23.10	34.57	21.30	
2025-01-13 00:41:23.31	34.60	21.33	
2025-01-13 00:41:23.51	34.63	21.36	
2025-01-13 00:41:23.72	34.66	21.39	
2025-01-13 00:41:23.92	34.68	21.41	
2025-01-13 00:41:24.12	34.71	21.44	
2025-01-13 00:41:24.33	34.74	21.47	
2025-01-13 00:41:24.54	34.77	21.50	
2025-01-13 00:41:24.74	34.79	21.53	
2025-01-13 00:41:24.94	34.82	21.55	
2025-01-13 00:41:25.15	34.85	21.58	
2025-01-13 00:41:25.36	34.88	21.61	
2025-01-13 00:41:25.56	34.91	21.64	
2025-01-13 00:41:25.78	34.94	21.67	
2025-01-13 00:41:25.98	34.97	21.70	
2025-01-13 00:41:26.19	35.00	21.73	
2025-01-13 00:41:26.39	35.02	21.76	
2025-01-13 00:41:26.60	35.05	21.79	
2025-01-13 00:41:26.82	35.08	21.82	
2025-01-13 00:41:27.02	35.11	21.85	
2025-01-13 00:41:27.23	35.14	21.87	
2025-01-13 00:41:27.43	35.17	21.90	
2025-01-13 00:41:27.64	35.20	21.93	
2025-01-13 00:41:27.84	35.23	21.96	
2025-01-13 00:41:28.05	35.26	21.99	
2025-01-13 00:41:28.25	35.29	22.02	
2025-01-13 00:41:28.46	35.32	22.05	
2025-01-13 00:41:28.67	35.35	22.08	
2025-01-13 00:41:28.87	35.37	22.11	
2025-01-13 00:41:29.07	35.40	22.13	
2025-01-13 00:41:29.28	35.43	22.16	
2025-01-13 00:41:29.49	35.46	22.19	
2025-01-13 00:41:29.69	35.49	22.22	
2025-01-13 00:41:29.90	35.52	22.25	
2025-01-13 00:41:30.10	35.55	22.28	
2025-01-13 00:41:30.31	35.58	22.31	
2025-01-13 00:41:30.51	35.61	22.34	
2025-01-13 00:41:30.72	35.64	22.37	
2025-01-13 00:41:30.92	35.67	22.40	
2025-01-13 00:41:31.13	35.70	22.43	
2025-01-13 00:41:31.33	35.73	22.46	
2025-01-13 00:41:31.54	35.76	22.49	
2025-01-13 00:41:31.74	35.79	22.52	
2025-01-13 00:41:31.95	35.82	22.55	
2025-01-13 00:41:32.17	35.85	22.58	
2025-01-13 00:41:32.38	35.88	22.61	
2025-01-13 00:41:32.58	35.91	22.64	
2025-01-13 00:41:32.78	35.94	22.67	
2025-01-13 00:41:32.99	35.97	22.70	
2025-01-13 00:41:33.20	36.00	22.73	
2025-01-13 00:41:33.40	36.03	22.76	
2025-01-13 00:41:33.60	36.06	22.78	
2025-01-13 00:41:33.81	36.10	22.82	
2025-01-13 00:41:34.02	36.13	22.85	
2025-01-13 00:41:34.22	36.16	22.87	
2025-01-13 00:41:34.43	36.19	22.91	
2025-01-13 00:41:34.63	36.22	22.93	
2025-01-13 00:41:34.84	36.25	22.97	
2025-01-13 00:41:35.04	36.28	22.99	
2025-01-13 00:41:35.25	36.31	23.03	
2025-01-13 00:41:35.45	36.34	23.05	
2025-01-13 00:41:35.66	36.37	23.09	
2025-01-13 00:41:35.86	36.40	23.11	
2025-01-13 00:41:36.07	36.44	23.15	
2025-01-13 00:41:36.28	36.47	23.18	
2025-01-13 00:41:36.48	36.50	23.21	
2025-01-13 00:41:36.69	36.53	23.24	
2025-01-13 00:41:36.89	36.56	23.27	
2025-01-13 00:41:37.10	36.60	23.30	
2025-01-13 00:41:37.30	36.63	23.33	
2025-01-13 00:41:37.50	36.66	23.36	
2025-01-13 00:41:37.71	36.69	23.39	
2025-01-13 00:41:37.92	36.72	23.42	
2025-01-13 00:41:38.12	36.75	23.45	
2025-01-13 00:41:38.33	36.79	23.48	
2025-01-13 00:41:38.53	36.82	23.51	
2025-01-13 00:41:38.74	36.85	23.54	
2025-01-13 00:41:38.94	36.88	23.57	
2025-01-13 00:41:39.15	36.91	23.60	
2025-01-13 00:41:39.35	36.95	23.63	
2025-01-13 00:41:39.55	36.98	23.66	
2025-01-13 00:41:39.76	37.01	23.69	
2025-01-13 00:41:39.96	37.04	23.72	
2025-01-13 00:41:40.17	37.08	23.75	
2025-01-13 00:41:40.38	37.11	23.78	
2025-01-13 00:41:40.58	37.14	23.81	
2025-01-13 00:41:40.79	37.17	23.85	
2025-01-13 00:41:40.99	37.21	23.88	
2025-01-13 00:41:41.19	37.24	23.91	
2025-01-13 00:41:41.40	37.27	23.94	
2025-01-13 00:41:41.60	37.30	23.97	
2025-01-13 00:41:41.82	37.34	24.00	
2025-01-13 00:41:42.03	37.37	24.03	
2025-01-13 00:41:42.23	37.41	24.06	
2025-01-13 00:41:42.43	37.44	24.09	
2025-01-13 00:41:42.64	37.47	24.13	
2025-01-13 00:41:42.85	37.51	24.16	
2025-01-13 00:41:43.05	37.54	24.19	
2025-01-13 00:41:43.26	37.57	24.22	
2025-01-13 00:41:43.46	37.61	24.25	
2025-01-13 00:41:43.67	37.64	24.28	
2025-01-13 00:41:43.88	37.68	24.31	
2025-01-13 00:41:44.09	37.71	24.35	
2025-01-13 00:41:44.29	37.74	24.38	
2025-01-13 00:41:44.50	37.78	24.41	
2025-01-13 00:41:44.71	37.81	24.44	
2025-01-13 00:41:44.91	37.85	24.47	
2025-01-13 00:41:45.12	37.88	24.50	
2025-01-13 00:41:45.32	37.92	24.53	
2025-01-13 00:41:45.53	37.95	24.57	
2025-01-13 00:41:45.73	37.98	24.60	
2025-01-13 00:41:45.93	38.02	24.63	
2025-01-13 00:41:46.14	38.05	24.66	
2025-01-13 00:41:46.34	38.09	24.69	
2025-01-13 00:41:46.55	38.12	24.72	
2025-01-13 00:41:46.75	38.16	24.76	
2025-01-13 00:41:46.96	38.19	24.79	
2025-01-13 00:41:47.16	38.23	24.82	
2025-01-13 00:41:47.37	38.26	24.85	
2025-01-13 00:41:47.57	38.30	24.88	
2025-01-13 00:41:47.78	38.33	24.91	
2025-01-13 00:41:47.98	38.37	24.95	
2025-01-13 00:41:48.19	38.40	24.98	
2025-01-13 00:41:48.39	38.44	25.01	
2025-01-13 00:41:48.60	38.47	25.04	
2025-01-13 00:41:48.80	38.51	25.07	
2025-01-13 00:41:49.01	38.54	25.11	
2025-01-13 00:41:49.21	38.58	25.14	
2025-01-13 00:41:49.41	38.61	25.17	
2025-01-13 00:41:49.62	38.65	25.20	
2025-01-13 00:41:49.82	38.68	25.23	
2025-01-13 00:41:50.03	38.72	25.27	
2025-01-13 00:41:50.23	38.76	25.30	
2025-01-13 00:41:50.44	38.79	25.33	
2025-01-13 00:41:50.64	38.83	25.36	
2025-01-13 00:41:50.85	38.87	25.40	
2025-01-13 00:41:51.05	38.90	25.43	
2025-01-13 00:41:51.25	38.94	25.46	
2025-01-13 00:41:51.46	38.97	25.49	
2025-01-13 00:41:51.67	39.01	25.52	
2025-01-13 00:41:51.87	39.05	25.56	
2025-01-13 00:41:52.08	39.08	25.59	
2025-01-13 00:41:52.28	39.12	25.62	
2025-01-13 00:41:52.48	39.16	25.65	
2025-01-13 00:41:52.69	39.19	25.69	
2025-01-13 00:41:52.90	39.23	25.72	
2025-01-13 00:41:53.10	39.27	25.75	
2025-01-13 00:41:53.31	39.31	25.79	
2025-01-13 00:41:53.51	39.34	25.82	
2025-01-13 00:41:53.72	39.38	25.85	
2025-01-13 00:41:53.92	39.42	25.88	
2025-01-13 00:41:54.13	39.46	25.92	
2025-01-13 00:41:54.34	39.49	25.95	
2025-01-13 00:41:54.54	39.53	25.98	
2025-01-13 00:41:54.75	39.57	26.02	
2025-01-13 00:41:54.95	39.61	26.05	
2025-01-13 00:41:55.16	39.64	26.08	
2025-01-13 00:41:55.36	39.68	26.11	
2025-01-13 00:41:55.56	39.72	26.15	
2025-01-13 00:41:55.77	39.76	26.18	
2025-01-13 00:41:55.97	39.79	26.21	
2025-01-13 00:41:56.18	39.83	26.25	
2025-01-13 00:41:56.39	39.87	26.28	
2025-01-13 00:41:56.59	39.91	26.31	
2025-01-13 00:41:56.79	39.95	26.35	
2025-01-13 00:41:57.00	39.99	26.38	
2025-01-13 00:41:57.22	40.03	26.41	
2025-01-13 00:41:57.42	40.07	26.45	
2025-01-13 00:41:57.63	40.11	26.48	
2025-01-13 00:41:57.83	40.14	26.51	
2025-01-13 00:41:58.03	40.18	26.55	
2025-01-13 00:41:58.24	40.22	26.58	
2025-01-13 00:41:58.44	40.26	26.61	
2025-01-13 00:41:58.64	40.30	26.65	
2025-01-13 00:41:58.86	40.34	26.68	
2025-01-13 00:41:59.06	40.38	26.72	
2025-01-13 00:41:59.27	40.42	26.75	
2025-01-13 00:41:59.47	40.46	26.78	
2025-01-13 00:41:59.67	40.50	26.82	
2025-01-13 00:41:59.88	40.54	26.85	
2025-01-13 00:42:00.08	40.58	26.88	
2025-01-13 00:42:00.29	40.62	26.92	
2025-01-13 00:42:00.49	40.66	26.95	
2025-01-13 00:42:00.70	40.70	26.98	
2025-01-13 00:42:00.90	40.74	27.02	
2025-01-13 00:42:01.11	40.78	27.05	
2025-01-13 00:42:01.31	40.82	27.09	
2025-01-13 00:42:01.51	40.86	27.12	
2025-01-13 00:42:01.72	40.90	27.15	
2025-01-13 00:42:01.92	40.94	27.19	
2025-01-13 00:42:02.13	40.98	27.22	
2025-01-13 00:42:02.33	41.02	27.25	
2025-01-13 00:42:02.54	41.06	27.29	
2025-01-13 00:42:02.74	41.10	27.32	
2025-01-13 00:42:02.95	41.14	27.36	
2025-01-13 00:42:03.17	41.19	27.39	
2025-01-13 00:42:03.38	41.23	27.43	
2025-01-13 00:42:03.58	41.27	27.46	
2025-01-13 00:42:03.79	41.31	27.50	
2025-01-13 00:42:03.99	41.35	27.53	
2025-01-13 00:42:04.21	41.40	27.57	
2025-01-13 00:42:04.41	41.44	27.60	
2025-01-13 00:42:04.62	41.48	27.64	
2025-01-13 00:42:04.82	41.52	27.67	
2025-01-13 00:42:05.03	41.56	27.71	
2025-01-13 00:42:05.23	41.60	27.74	
2025-01-13 00:42:05.44	41.65	27.78	
2025-01-13 00:42:05.64	41.69	27.81	
2025-01-13 00:42:05.85	41.73	27.84	
2025-01-13 00:42:06.05	41.77	27.88	
2025-01-13 00:42:06.25	41.82	27.91	
2025-01-13 00:42:06.46	41.86	27.95	
2025-01-13 00:42:06.67	41.90	27.98	
2025-01-13 00:42:06.87	41.94	28.02	
2025-01-13 00:42:07.07	41.99	28.05	
2025-01-13 00:42:07.28	42.03	28.09	
2025-01-13 00:42:07.48	42.07	28.12	
2025-01-13 00:42:07.69	42.12	28.16	
2025-01-13 00:42:07.89	42.16	28.19	
2025-01-13 00:42:08.10	42.20	28.23	
2025-01-13 00:42:08.30	42.25	28.26	
2025-01-13 00:42:08.51	42.29	28.30	
2025-01-13 00:42:08.71	42.33	28.33	
2025-01-13 00:42:08.91	42.38	28.37	
2025-01-13 00:42:09.12	42.42	28.40	
2025-01-13 00:42:09.33	42.46	28.44	
2025-01-13 00:42:09.53	42.51	28.47	
2025-01-13 00:42:09.74	42.55	28.51	
2025-01-13 00:42:09.94	42.60	28.54	
2025-01-13 00:42:10.15	42.64	28.58	
2025-01-13 00:42:10.35	42.68	28.61	
2025-01-13 00:42:10.56	42.73	28.65	
2025-01-13 00:42:10.76	42.77	28.68	
2025-01-13 00:42:10.97	42.82	28.72	
2025-01-13 00:42:11.17	42.86	28.75	
2025-01-13 00:42:11.38	42.91	28.79	
2025-01-13 00:42:11.58	42.95	28.82	
2025-01-13 00:42:11.79	43.00	28.86	
2025-01-13 00:42:12.00	43.05	28.90	
2025-01-13 00:42:12.20	43.09	28.93	
2025-01-13 00:42:12.41	43.14	28.97	
2025-01-13 00:42:12.61	43.18	29.00	
2025-01-13 00:42:12.82	43.23	29.04	
2025-01-13 00:42:13.02	43.27	29.07	
2025-01-13 00:42:13.23	43.32	29.11	
2025-01-13 00:42:13.43	43.36	29.15	
2025-01-13 00:42:13.64	43.41	29.18	
2025-01-13 00:42:13.84	43.46	29.22	
2025-01-13 00:42:14.05	43.50	29.25	
2025-01-13 00:42:14.25	43.55	29.29	
2025-01-13 00:42:14.46	43.60	29.33	
2025-01-13 00:42:14.66	43.64	29.36	
2025-01-13 00:42:14.87	43.69	29.40	
2025-01-13 00:42:15.07	43.74	29.43	
2025-01-13 00:42:15.28	43.78	29.47	
2025-01-13 00:42:15.48	43.83	29.50	
2025-01-13 00:42:15.69	43.88	29.54	
2025-01-13 00:42:15.89	43.92	29.58	
2025-01-13 00:42:16.10	43.97	29.61	
2025-01-13 00:42:16.31	44.02	29.65	
2025-01-13 00:42:16.51	44.07	29.69	
2025-01-13 00:42:16.72	44.12	29.72	
2025-01-13 00:42:16.92	44.16	29.76	
2025-01-13 00:42:17.13	44.21	29.80	
2025-01-13 00:42:17.33	44.26	29.83	
2025-01-13 00:42:17.54	44.31	29.87	
2025-01-13 00:42:17.75	44.36	29.91	
2025-01-13 00:42:17.95	44.40	29.94	
2025-01-13 00:42:18.15	44.45	29.98	
2025-01-13 00:42:18.36	44.50	30.01	
2025-01-13 00:42:18.56	44.55	30.05	
2025-01-13 00:42:18.77	44.60	30.09	
2025-01-13 00:42:18.97	44.65	30.12	
2025-01-13 00:42:19.19	44.70	30.16	
2025-01-13 00:42:19.40	44.75	30.20	
2025-01-13 00:42:19.60	44.80	30.24	
2025-01-13 00:42:19.80	44.84	30.27	
2025-01-13 00:42:20.01	44.90	30.31	
2025-01-13 00:42:20.21	44.94	30.34	
2025-01-13 00:42:20.42	44.99	30.38	
2025-01-13 00:42:20.62	45.04	30.42	
2025-01-13 00:42:20.83	45.09	30.46	
2025-01-13 00:42:21.03	45.14	30.49	
2025-01-13 00:42:21.25	45.20	30.53	
2025-01-13 00:42:21.46	45.25	30.57	
2025-01-13 00:42:21.66	45.30	30.60	
2025-01-13 00:42:21.87	45.35	30.64	
2025-01-13 00:42:22.07	45.40	30.68	
2025-01-13 00:42:22.28	45.45	30.72	
2025-01-13 00:42:22.48	45.50	30.75	
2025-01-13 00:42:22.69	45.55	30.79	
2025-01-13 00:42:22.89	45.60	30.83	
2025-01-13 00:42:23.10	45.65	30.86	
2025-01-13 00:42:23.30	45.70	30.90	
2025-01-13 00:42:23.51	45.76	30.94	
2025-01-13 00:42:23.71	45.81	30.98	
2025-01-13 00:42:23.92	45.86	31.01	
2025-01-13 00:42:24.12	45.91	31.05	
2025-01-13 00:42:24.33	45.96	31.09	
2025-01-13 00:42:24.53	46.01	31.12	
2025-01-13 00:42:24.74	46.07	31.16	
2025-01-13 00:42:24.94	46.12	31.20	
2025-01-13 00:42:25.15	46.17	31.24	
2025-01-13 00:42:25.36	46.23	31.28	
2025-01-13 00:42:25.57	46.28	31.31	
2025-01-13 00:42:25.78	46.33	31.35	
2025-01-13 00:42:25.99	46.39	31.39	
2025-01-13 00:42:26.20	46.44	31.43	
2025-01-13 00:42:26.40	46.49	31.47	
2025-01-13 00:42:26.60	46.55	31.50	
2025-01-13 00:42:26.81	46.60	31.54	
2025-01-13 00:42:27.02	46.66	31.58	
2025-01-13 00:42:27.22	46.71	31.62	
2025-01-13 00:42:27.43	46.76	31.65	
2025-01-13 00:42:27.63	46.82	31.69	
2025-01-13 00:42:27.84	46.87	31.73	
2025-01-13 00:42:28.04	46.92	31.77	
2025-01-13 00:42:28.25	46.98	31.80	
2025-01-13 00:42:28.45	47.03	31.84	
2025-01-13 00:42:28.66	47.09	31.88	
2025-01-13 00:42:28.86	47.14	31.92	
2025-01-13 00:42:29.07	47.20	31.96	
2025-01-13 00:42:29.27	47.25	31.99	
2025-01-13 00:42:29.48	47.31	32.03	
2025-01-13 00:42:29.68	47.36	32.07	
2025-01-13 00:42:29.90	47.42	32.11	
2025-01-13 00:42:30.11	47.48	32.15	
2025-01-13 00:42:30.31	47.53	32.19	
2025-01-13 00:42:30.52	47.59	32.22	
2025-01-13 00:42:30.72	47.64	32.26	
2025-01-13 00:42:30.94	47.70	32.30	
2025-01-13 00:42:31.15	47.76	32.34	
2025-01-13 00:42:31.35	47.82	32.38	
2025-01-13 00:42:31.56	47.87	32.42	
2025-01-13 00:42:31.76	47.93	32.45	
2025-01-13 00:42:31.96	47.98	32.49	
2025-01-13 00:42:32.17	48.04	32.53	
2025-01-13 00:42:32.37	48.10	32.57	
2025-01-13 00:42:32.58	48.16	32.61	
2025-01-13 00:42:32.79	48.21	32.65	
2025-01-13 00:42:32.99	48.27	32.68	
2025-01-13 00:42:33.19	48.33	32.72	
2025-01-13 00:42:33.40	48.39	32.76	
2025-01-13 00:42:33.60	48.44	32.80	
2025-01-13 00:42:33.81	48.50	32.84	
2025-01-13 00:42:34.01	48.56	32.87	
2025-01-13 00:42:34.22	48.62	32.91	
2025-01-13 00:42:34.42	48.67	32.95	
2025-01-13 00:42:34.63	48.73	32.99	
2025-01-13 00:42:34.84	48.79	33.03	
2025-01-13 00:42:35.04	48.85	33.07	
2025-01-13 00:42:35.26	48.91	33.11	
2025-01-13 00:42:35.46	48.97	33.15	
2025-01-13 00:42:35.68	49.04	33.19	
2025-01-13 00:42:35.89	49.10	33.23	
2025-01-13 00:42:36.09	49.15	33.27	
2025-01-13 00:42:36.30	49.22	33.30	
2025-01-13 00:42:36.50	49.27	33.34	
2025-01-13 00:42:36.71	49.33	33.38	
2025-01-13 00:42:36.91	49.39	33.42	
2025-01-13 00:42:37.12	49.45	33.46	
2025-01-13 00:42:37.32	49.51	33.50	
2025-01-13 00:42:37.53	49.58	33.54	
2025-01-13 00:42:37.74	49.64	33.58	
2025-01-13 00:42:37.94	49.70	33.61	
2025-01-13 00:42:38.15	49.76	33.65	
2025-01-13 00:42:38.35	49.82	33.69	
2025-01-13 00:42:38.56	49.88	33.73	
2025-01-13 00:42:38.76	49.94	33.77	
2025-01-13 00:42:38.96	50.00	33.81	
2025-01-13 00:42:39.17	50.06	33.85	
2025-01-13 00:42:39.37	50.12	33.89	
2025-01-13 00:42:39.58	50.19	33.93	
2025-01-13 00:42:39.79	50.25	33.97	
2025-01-13 00:42:39.99	50.31	34.00	
2025-01-13 00:42:40.20	50.38	34.04	
2025-01-13 00:42:40.40	50.44	34.08	
2025-01-13 00:42:40.60	50.50	34.12	
2025-01-13 00:42:40.81	50.56	34.16	
2025-01-13 00:42:41.01	50.62	34.20	
2025-01-13 00:42:41.22	50.69	34.24	
2025-01-13 00:42:41.42	50.75	34.28	
2025-01-13 00:42:41.64	50.82	34.32	
2025-01-13 00:42:41.85	50.88	34.36	
2025-01-13 00:42:42.05	50.95	34.40	
2025-01-13 00:42:42.26	51.01	34.44	
2025-01-13 00:42:42.46	51.07	34.47	
2025-01-13 00:42:42.67	51.14	34.51	
2025-01-13 00:42:42.87	51.20	34.55	
2025-01-13 00:42:43.08	51.27	34.59	
2025-01-13 00:42:43.28	51.33	34.63	
2025-01-13 00:42:43.48	51.40	34.67	
2025-01-13 00:42:43.69	51.46	34.71	
2025-01-13 00:42:43.89	51.53	34.75	
2025-01-13 00:42:44.10	51.59	34.79	
2025-01-13 00:42:44.30	51.66	34.83	
2025-01-13 00:42:44.51	51.72	34.87	
2025-01-13 00:42:44.71	51.79	34.90	
2025-01-13 00:42:44.92	51.86	34.94	
2025-01-13 00:42:45.12	51.92	34.98	
2025-01-13 00:42:45.33	51.99	35.02	
2025-01-13 00:42:45.53	52.05	35.06	
2025-01-13 00:42:45.74	52.12	35.10	
2025-01-13 00:42:45.94	52.19	35.14	
2025-01-13 00:42:46.14	52.25	35.18	
2025-01-13 00:42:46.35	52.32	35.22	
2025-01-13 00:42:46.55	52.39	35.26	
2025-01-13 00:42:46.76	52.45	35.30	
2025-01-13 00:42:46.96	52.52	35.34	
2025-01-13 00:42:47.17	52.59	35.38	
2025-01-13 00:42:47.38	52.66	35.42	
2025-01-13 00:42:47.58	52.73	35.45	
2025-01-13 00:42:47.79	52.80	35.49	
2025-01-13 00:42:48.00	52.87	35.54	
2025-01-13 00:42:48.21	52.94	35.58	
2025-01-13 00:42:48.41	53.00	35.61	
2025-01-13 00:42:48.62	53.07	35.65	
2025-01-13 00:42:48.83	53.14	35.69	
2025-01-13 00:42:49.03	53.21	35.73	
2025-01-13 00:42:49.23	53.28	35.77	
2025-01-13 00:42:49.44	53.35	35.81	
2025-01-13 00:42:49.64	53.42	35.85	
2025-01-13 00:42:49.85	53.49	35.89	
2025-01-13 00:42:50.05	53.56	35.93	
2025-01-13 00:42:50.26	53.63	35.97	
2025-01-13 00:42:50.46	53.70	36.01	
2025-01-13 00:42:50.67	53.77	36.05	
2025-01-13 00:42:50.87	53.84	36.09	
2025-01-13 00:42:51.08	53.91	36.13	
2025-01-13 00:42:51.28	53.98	36.17	
2025-01-13 00:42:51.49	54.06	36.21	
2025-01-13 00:42:51.69	54.13	36.25	
2025-01-13 00:42:51.90	54.20	36.29	
2025-01-13 00:42:52.10	54.27	36.32	
2025-01-13 00:42:52.31	54.34	36.37	
2025-01-13 00:42:52.51	54.41	36.40	
2025-01-13 00:42:52.72	54.49	36.44	
2025-01-13 00:42:52.92	54.56	36.48	
2025-01-13 00:42:53.13	54.63	36.52	
2025-01-13 00:42:53.33	54.71	36.56	
2025-01-13 00:42:53.54	54.78	36.60	
2025-01-13 00:42:53.74	54.85	36.64	
2025-01-13 00:42:53.95	54.93	36.68	
2025-01-13 00:42:54.15	55.00	36.72	
2025-01-13 00:42:54.35	55.07	36.76	
2025-01-13 00:42:54.56	55.15	36.80	
2025-01-13 00:42:54.77	55.22	36.84	
2025-01-13 00:42:54.97	55.30	36.88	
2025-01-13 00:42:55.18	55.37	36.92	
2025-01-13 00:42:55.38	55.44	36.96	
2025-01-13 00:42:55.59	55.52	37.00	
2025-01-13 00:42:55.79	55.59	37.04	
2025-01-13 00:42:56.00	55.67	37.08	
2025-01-13 00:42:56.21	55.75	37.12	
2025-01-13 00:42:56.41	55.82	37.16	
2025-01-13 00:42:56.61	55.90	37.19	
2025-01-13 00:42:56.82	55.97	37.24	
2025-01-13 00:42:57.03	56.05	37.28	
2025-01-13 00:42:57.23	56.13	37.31	
2025-01-13 00:42:57.44	56.21	37.35	
2025-01-13 00:42:57.65	56.28	37.40	
2025-01-13 00:42:57.86	56.36	37.44	
2025-01-13 00:42:58.06	56.44	37.47	
2025-01-13 00:42:58.27	56.52	37.51	
2025-01-13 00:42:58.47	56.59	37.55	
2025-01-13 00:42:58.67	56.67	37.59	
2025-01-13 00:42:58.88	56.75	37.63	
2025-01-13 00:42:59.09	56.83	37.67	
2025-01-13 00:42:59.29	56.91	37.71	
2025-01-13 00:42:59.50	56.99	37.75	
2025-01-13 00:42:59.71	57.07	37.79	
2025-01-13 00:42:59.92	57.15	37.83	
2025-01-13 00:43:00.13	57.23	37.87	
2025-01-13 00:43:00.33	57.31	37.91	
2025-01-13 00:43:00.54	57.39	37.95	
2025-01-13 00:43:00.75	57.47	37.99	
2025-01-13 00:43:00.95	57.55	38.03	
2025-01-13 00:43:01.16	57.63	38.07	
2025-01-13 00:43:01.36	57.71	38.11	
2025-01-13 00:43:01.57	57.79	38.15	
2025-01-13 00:43:01.77	57.87	38.19	
2025-01-13 00:43:01.98	57.95	38.23	
2025-01-13 00:43:02.18	58.03	38.27	
2025-01-13 00:43:02.39	58.11	38.31	
2025-01-13 00:43:02.59	58.19	38.34	
2025-01-13 00:43:02.80	58.28	38.38	
2025-01-13 00:43:03.00	58.36	38.42	
2025-01-13 00:43:03.21	58.44	38.46	
2025-01-13 00:43:03.42	58.52	38.50	
2025-01-13 00:43:03.62	58.61	38.54	
2025-01-13 00:43:03.83	58.69	38.58	
2025-01-13 00:43:04.03	58.77	38.62	
2025-01-13 00:43:04.24	58.86	38.66	
2025-01-13 00:43:04.44	58.94	38.70	
2025-01-13 00:43:04.65	59.02	38.74	
2025-01-13 00:43:04.85	59.10	38.78	
2025-01-13 00:43:05.06	59.19	38.82	
2025-01-13 00:43:05.26	59.27	38.85	
2025-01-13 00:43:05.47	59.36	38.89	
2025-01-13 00:43:05.67	59.44	38.93	
2025-01-13 00:43:05.88	59.53	38.97	
2025-01-13 00:43:06.08	59.61	39.01	
2025-01-13 00:43:06.29	59.70	39.05	
2025-01-13 00:43:06.49	59.78	39.09	
2025-01-13 00:43:06.70	59.87	39.13	
2025-01-13 00:43:06.90	59.95	39.17	
2025-01-13 00:43:07.11	60.04	39.21	
2025-01-13 00:43:07.31	60.12	39.24	
2025-01-13 00:43:07.52	60.21	39.28	
2025-01-13 00:43:07.72	60.30	39.32	
2025-01-13 00:43:07.93	60.39	39.36	
2025-01-13 00:43:08.14	60.48	39.40	
2025-01-13 00:43:08.34	60.56	39.44	
2025-01-13 00:43:08.54	60.65	39.48	
2025-01-13 00:43:08.75	60.74	39.52	
2025-01-13 00:43:08.96	60.83	39.56	
2025-01-13 00:43:09.16	60.91	39.59	
2025-01-13 00:43:09.36	61.00	39.63	
2025-01-13 00:43:09.57	61.09	39.67	
2025-01-13 00:43:09.77	61.17	39.71	
2025-01-13 00:43:09.98	61.27	39.75	
2025-01-13 00:43:10.18	61.35	39.78	
2025-01-13 00:43:10.40	61.45	39.83	
2025-01-13 00:43:10.61	61.54	39.87	
2025-01-13 00:43:10.81	61.63	39.90	
2025-01-13 00:43:11.02	61.72	39.94	
2025-01-13 00:43:11.23	61.81	39.98	
2025-01-13 00:43:11.43	61.90	40.02	
2025-01-13 00:43:11.64	61.99	40.06	
2025-01-13 00:43:11.84	62.08	40.09	
2025-01-13 00:43:12.04	62.17	40.13	
2025-01-13 00:43:12.25	62.26	40.17	
2025-01-13 00:43:12.46	62.36	40.21	
2025-01-13 00:43:12.66	62.45	40.25	
2025-01-13 00:43:12.87	62.54	40.29	
2025-01-13 00:43:13.07	62.63	40.32	
2025-01-13 00:43:13.28	62.73	40.36	
2025-01-13 00:43:13.48	62.82	40.40	
2025-01-13 00:43:13.70	62.92	40.44	
2025-01-13 00:43:13.90	63.01	40.48	
2025-01-13 00:43:14.11	63.10	40.52	
2025-01-13 00:43:14.31	63.19	40.55	
2025-01-13 00:43:14.52	63.29	40.59	
2025-01-13 00:43:14.72	63.38	40.63	
2025-01-13 00:43:14.93	63.48	40.67	
2025-01-13 00:43:15.13	63.57	40.70	
2025-01-13 00:43:15.33	63.66	40.74	
2025-01-13 00:43:15.54	63.76	40.78	
2025-01-13 00:43:15.74	63.85	40.81	
2025-01-13 00:43:15.95	63.95	40.85	
2025-01-13 00:43:16.15	64.04	40.89	
2025-01-13 00:43:16.36	64.14	40.93	
2025-01-13 00:43:16.56	64.23	40.96	
2025-01-13 00:43:16.77	64.33	41.00	
2025-01-13 00:43:16.97	64.43	41.04	
2025-01-13 00:43:17.18	64.52	41.08	
2025-01-13 00:43:17.38	64.62	41.11	
2025-01-13 00:43:17.59	64.72	41.15	
2025-01-13 00:43:17.79	64.81	41.19	
2025-01-13 00:43:18.00	64.91	41.22	
2025-01-13 00:43:18.20	65.01	41.26	
2025-01-13 00:43:18.41	65.11	41.30	
2025-01-13 00:43:18.61	65.20	41.33	
2025-01-13 00:43:18.82	65.30	41.37	
2025-01-13 00:43:19.02	65.40	41.41	
2025-01-13 00:43:19.23	65.50	41.44	
2025-01-13 00:43:19.43	65.60	41.48	
2025-01-13 00:43:19.64	65.70	41.52	
2025-01-13 00:43:19.84	65.80	41.55	
2025-01-13 00:43:20.05	65.90	41.59	
2025-01-13 00:43:20.25	66.00	41.63	
2025-01-13 00:43:20.46	66.10	41.66	
2025-01-13 00:43:20.66	66.20	41.70	
2025-01-13 00:43:20.87	66.30	41.74	
2025-01-13 00:43:21.08	66.40	41.77	
2025-01-13 00:43:21.28	66.50	41.81	
2025-01-13 00:43:21.49	66.61	41.84	
2025-01-13 00:43:21.69	66.71	41.88	
2025-01-13 00:43:21.90	66.81	41.92	
2025-01-13 00:43:22.11	66.91	41.95	
2025-01-13 00:43:22.32	67.02	41.99	
2025-01-13 00:43:22.52	67.12	42.02	
2025-01-13 00:43:22.73	67.22	42.06	
2025-01-13 00:43:22.94	67.33	42.10	
2025-01-13 00:43:23.14	67.43	42.13	
2025-01-13 00:43:23.34	67.53	42.17	
2025-01-13 00:43:23.55	67.64	42.20	
2025-01-13 00:43:23.76	67.74	42.24	
2025-01-13 00:43:23.96	67.84	42.27	
2025-01-13 00:43:24.17	67.95	42.31	
2025-01-13 00:43:24.37	68.05	42.34	
2025-01-13 00:43:24.57	68.16	42.38	
2025-01-13 00:43:24.78	68.26	42.41	
2025-01-13 00:43:24.98	68.37	42.45	
2025-01-13 00:43:25.19	68.47	42.48	
2025-01-13 00:43:25.39	68.58	42.52	
2025-01-13 00:43:25.60	68.69	42.55	
2025-01-13 00:43:25.80	68.79	42.59	
2025-01-13 00:43:26.01	68.90	42.62	
2025-01-13 00:43:26.21	69.00	42.66	
2025-01-13 00:43:26.42	69.11	42.69	
2025-01-13 00:43:26.62	69.22	42.72	
2025-01-13 00:43:26.83	69.33	42.76	
2025-01-13 00:43:27.03	69.43	42.79	
2025-01-13 00:43:27.24	69.54	42.83	
2025-01-13 00:43:27.44	69.65	42.86	
2025-01-13 00:43:27.65	69.76	42.90	
2025-01-13 00:43:27.85	69.86	42.93	
2025-01-13 00:43:28.06	69.97	42.96	
2025-01-13 00:43:28.26	70.08	43.00	
2025-01-13 00:43:28.47	70.19	43.03	
2025-01-13 00:43:28.68	70.30	43.07	
2025-01-13 00:43:28.88	70.41	43.10	
2025-01-13 00:43:29.09	70.52	43.13	
2025-01-13 00:43:29.30	70.64	43.17	
2025-01-13 00:43:29.50	70.74	43.20	
2025-01-13 00:43:29.71	70.86	43.23	
2025-01-13 00:43:29.91	70.97	43.26	
2025-01-13 00:43:30.12	71.08	43.30	
2025-01-13 00:43:30.32	71.19	43.33	
2025-01-13 00:43:30.53	71.30	43.36	
2025-01-13 00:43:30.73	71.41	43.40	
2025-01-13 00:43:30.94	71.53	43.43	
2025-01-13 00:43:31.14	71.64	43.46	
2025-01-13 00:43:31.35	71.75	43.49	
2025-01-13 00:43:31.55	71.86	43.53	
2025-01-13 00:43:31.76	71.98	43.56	
2025-01-13 00:43:31.96	72.09	43.59	
2025-01-13 00:43:32.17	72.20	43.62	
2025-01-13 00:43:32.37	72.31	43.65	
2025-01-13 00:43:32.58	72.43	43.69	
2025-01-13 00:43:32.78	72.54	43.72	
2025-01-13 00:43:32.99	72.66	43.75	
2025-01-13 00:43:33.19	72.77	43.78	
2025-01-13 00:43:33.40	72.89	43.81	
2025-01-13 00:43:33.61	73.00	43.85	
2025-01-13 00:43:33.81	73.12	43.88	
2025-01-13 00:43:34.02	73.23	43.91	
2025-01-13 00:43:34.22	73.35	43.94	
2025-01-13 00:43:34.43	73.47	43.97	
2025-01-13 00:43:34.63	73.58	44.00	
2025-01-13 00:43:34.84	73.70	44.03	
2025-01-13 00:43:35.04	73.81	44.06	
2025-01-13 00:43:35.25	73.93	44.09	
2025-01-13 00:43:35.45	74.05	44.12	
2025-01-13 00:43:35.66	74.17	44.15	
2025-01-13 00:43:35.86	74.28	44.18	
2025-01-13 00:43:36.07	74.40	44.21	
2025-01-13 00:43:36.27	74.52	44.24	
2025-01-13 00:43:36.48	74.64	44.27	
2025-01-13 00:43:36.68	74.75	44.30	
2025-01-13 00:43:36.89	74.87	44.33	
2025-01-13 00:43:37.09	74.99	44.36	
2025-01-13 00:43:37.30	75.11	44.39	
2025-01-13 00:43:37.50	75.23	44.42	
2025-01-13 00:43:37.71	75.35	44.45	
2025-01-13 00:43:37.92	75.47	44.48	
2025-01-13 00:43:38.12	75.59	44.51	
2025-01-13 00:43:38.32	75.71	44.54	
2025-01-13 00:43:38.53	75.83	44.57	
2025-01-13 00:43:38.74	75.95	44.60	
2025-01-13 00:43:38.94	76.07	44.63	
2025-01-13 00:43:39.15	76.19	44.66	
2025-01-13 00:43:39.35	76.31	44.68	
2025-01-13 00:43:39.56	76.44	44.71	
2025-01-13 00:43:39.77	76.56	44.74	
2025-01-13 00:43:39.97	76.68	44.77	
2025-01-13 00:43:40.18	76.81	44.80	
2025-01-13 00:43:40.38	76.93	44.82	
2025-01-13 00:43:40.59	77.05	44.85	
2025-01-13 00:43:40.79	77.17	44.88	
2025-01-13 00:43:40.99	77.29	44.91	
2025-01-13 00:43:41.20	77.42	44.93	
2025-01-13 00:43:41.40	77.54	44.96	
2025-01-13 00:43:41.61	77.66	44.99	
2025-01-13 00:43:41.81	77.78	45.01	
2025-01-13 00:43:42.02	77.91	45.04	
2025-01-13 00:43:42.23	78.04	45.07	
2025-01-13 00:43:42.44	78.17	45.10	
2025-01-13 00:43:42.65	78.29	45.12	
2025-01-13 00:43:42.86	78.42	45.15	
2025-01-13 00:43:43.06	78.54	45.18	
2025-01-13 00:43:43.27	78.67	45.20	
2025-01-13 00:43:43.47	78.79	45.23	
2025-01-13 00:43:43.68	78.92	45.25	
2025-01-13 00:43:43.88	79.05	45.28	
2025-01-13 00:43:44.09	79.17	45.31	
2025-01-13 00:43:44.29	79.30	45.33	
2025-01-13 00:43:44.49	79.42	45.36	
2025-01-13 00:43:44.70	79.55	45.38	
2025-01-13 00:43:44.91	79.68	45.41	
2025-01-13 00:43:45.11	79.80	45.43	
2025-01-13 00:43:45.32	79.94	45.46	
2025-01-13 00:43:45.52	80.06	45.48	
2025-01-13 00:43:45.73	80.19	45.51	
2025-01-13 00:43:45.93	80.32	45.53	
2025-01-13 00:43:46.14	80.45	45.55	
2025-01-13 00:43:46.34	80.57	45.58	
2025-01-13 00:43:46.55	80.70	45.60	
2025-01-13 00:43:46.77	80.84	45.63	
2025-01-13 00:43:46.97	80.97	45.65	
2025-01-13 00:43:47.18	81.10	45.68	
2025-01-13 00:43:47.38	81.23	45.70	
2025-01-13 00:43:47.59	81.36	45.72	
2025-01-13 00:43:47.79	81.48	45.74	
2025-01-13 00:43:48.00	81.62	45.77	
2025-01-13 00:43:48.20	81.74	45.79	
2025-01-13 00:43:48.41	81.88	45.81	
2025-01-13 00:43:48.61	82.01	45.84	
2025-01-13 00:43:48.82	82.14	45.86	
2025-01-13 00:43:49.02	82.27	45.88	
2025-01-13 00:43:49.23	82.40	45.90	
2025-01-13 00:43:49.43	82.53	45.92	
2025-01-13 00:43:49.64	82.66	45.95	
2025-01-13 00:43:49.84	82.79	45.97	
2025-01-13 00:43:50.05	82.93	45.99	
2025-01-13 00:43:50.25	83.06	46.01	
2025-01-13 00:43:50.46	83.19	46.03	
2025-01-13 00:43:50.66	83.32	46.05	
2025-01-13 00:43:50.86	83.45	46.07	
2025-01-13 00:43:51.07	83.58	46.09	
2025-01-13 00:43:51.27	83.71	46.11	
2025-01-13 00:43:51.48	83.85	46.13	
2025-01-13 00:43:51.69	83.99	46.16	
2025-01-13 00:43:51.89	84.12	46.18	
2025-01-13 00:43:52.09	84.25	46.19	
2025-01-13 00:43:52.30	84.38	46.21	
2025-01-13 00:43:52.50	84.51	46.23	
2025-01-13 00:43:52.71	84.65	46.25	
2025-01-13 00:43:52.91	84.78	46.27	
2025-01-13 00:43:53.11	84.91	46.29	
2025-01-13 00:43:53.32	85.05	46.31	
2025-01-13 00:43:53.53	85.19	46.33	
2025-01-13 00:43:53.73	85.32	46.35	
2025-01-13 00:43:53.94	85.46	46.37	
2025-01-13 00:43:54.15	85.60	46.39	
2025-01-13 00:43:54.36	85.74	46.40	
2025-01-13 00:43:54.56	85.87	46.42	
2025-01-13 00:43:54.77	86.01	46.44	
2025-01-13 00:43:54.97	86.14	46.46	
2025-01-13 00:43:55.18	86.28	46.48	
2025-01-13 00:43:55.38	86.41	46.49	
2025-01-13 00:43:55.59	86.55	46.51	
2025-01-13 00:43:55.79	86.68	46.53	
2025-01-13 00:43:56.00	86.82	46.54	
2025-01-13 00:43:56.20	86.96	46.56	
2025-01-13 00:43:56.41	87.10	46.58	
2025-01-13 00:43:56.61	87.23	46.59	
2025-01-13 00:43:56.82	87.37	46.61	
2025-01-13 00:43:57.02	87.51	46.63	
2025-01-13 00:43:57.23	87.65	46.64	
2025-01-13 00:43:57.43	87.78	46.66	
2025-01-13 00:43:57.64	87.92	46.67	
2025-01-13 00:43:57.84	88.06	46.69	
2025-01-13 00:43:58.05	88.20	46.70	
2025-01-13 00:43:58.25	88.33	46.72	
2025-01-13 00:43:58.46	88.47	46.73	
2025-01-13 00:43:58.66	88.61	46.75	
2025-01-13 00:43:58.87	88.75	46.76	
2025-01-13 00:43:59.07	88.89	46.78	
2025-01-13 00:43:59.28	89.03	46.79	
2025-01-13 00:43:59.48	89.16	46.81	
2025-01-13 00:43:59.69	89.31	46.82	
2025-01-13 00:43:59.89	89.44	46.83	
2025-01-13 00:44:00.10	89.58	46.85	
2025-01-13 00:44:00.31	89.73	46.86	
2025-01-13 00:44:00.51	89.86	46.87	
2025-01-13 00:44:00.72	90.01	46.89	
2025-01-13 00:44:00.92	90.14	46.90	
2025-01-13 00:44:01.13	90.29	46.91	
2025-01-13 00:44:01.33	90.42	46.92	
2025-01-13 00:44:01.53	90.56	46.94	
2025-01-13 00:44:01.74	90.70	46.95	
2025-01-13 00:44:01.94	90.84	46.96	
2025-01-13 00:44:02.15	90.98	46.97	
2025-01-13 00:44:02.35	91.12	46.98	
2025-01-13 00:44:02.55	91.26	46.99	
2025-01-13 00:44:02.76	91.40	47.01	
2025-01-13 00:44:02.96	91.54	47.02	
2025-01-13 00:44:03.17	91.68	47.03	
2025-01-13 00:44:03.38	91.83	47.04	
2025-01-13 00:44:03.58	91.97	47.05	
2025-01-13 00:44:03.78	92.10	47.06	
2025-01-13 00:44:03.99	92.25	47.07	
2025-01-13 00:44:04.19	92.39	47.08	
2025-01-13 00:44:04.40	92.53	47.09	
2025-01-13 00:44:04.60	92.67	47.10	
2025-01-13 00:44:04.81	92.81	47.11	
2025-01-13 00:44:05.01	92.95	47.12	
2025-01-13 00:44:05.22	93.10	47.13	
2025-01-13 00:44:05.43	93.24	47.13	
2025-01-13 00:44:05.63	93.38	47.14	
2025-01-13 00:44:05.84	93.53	47.15	
2025-01-13 00:44:06.04	93.67	47.16	
2025-01-13 00:44:06.25	93.81	47.17	
2025-01-13 00:44:06.45	93.95	47.18	
2025-01-13 00:44:06.66	94.10	47.18	
