passes_logs/2025/01/13/SPB_Silybum_02/SPB_Silybum_02__20250113_175439_TERRA_rec.log

#Pass ID: 20250113_175439_TERRA
#Satellite: TERRA
#Configuration: TERRA
#Start time: 2025-01-13 17:54:38

#Version: 2.0.20230423
#Station: SPB_Silybum_02
#Location: 30.233357 lon 59.946436 lat
#TLE: 1 25994U 99068A   25012.80475962  .00000761  00000+0  16654-3 0  9990
#TLE: 2 25994  98.0220  75.9049 0003508  77.1547  57.1006 14.60390868333758

#Time	Az	El	Level	Level2	SNR	BER	Gain	Gain2
2025-01-13 17:54:40.73	142.43	4.09	
2025-01-13 17:54:40.94	142.42	4.11	
2025-01-13 17:54:41.14	142.42	4.12	
2025-01-13 17:54:41.35	142.41	4.13	
2025-01-13 17:54:41.55	142.40	4.15	
2025-01-13 17:54:41.76	142.40	4.16	
2025-01-13 17:54:41.96	142.39	4.18	
2025-01-13 17:54:42.17	142.39	4.19	
2025-01-13 17:54:42.37	142.38	4.21	
2025-01-13 17:54:42.58	142.37	4.22	
2025-01-13 17:54:42.78	142.37	4.24	
2025-01-13 17:54:42.99	142.36	4.25	
2025-01-13 17:54:43.19	142.35	4.27	
2025-01-13 17:54:43.40	142.35	4.28	
2025-01-13 17:54:43.60	142.34	4.30	
2025-01-13 17:54:43.81	142.34	4.31	
2025-01-13 17:54:44.01	142.33	4.33	
2025-01-13 17:54:44.22	142.32	4.34	
2025-01-13 17:54:44.42	142.32	4.35	
2025-01-13 17:54:44.63	142.31	4.37	
2025-01-13 17:54:44.83	142.30	4.38	
2025-01-13 17:54:45.04	142.30	4.40	
2025-01-13 17:54:45.25	142.29	4.41	
2025-01-13 17:54:45.45	142.29	4.43	
2025-01-13 17:54:45.66	142.28	4.44	
2025-01-13 17:54:45.86	142.27	4.46	
2025-01-13 17:54:46.07	142.27	4.47	
2025-01-13 17:54:46.27	142.26	4.49	
2025-01-13 17:54:46.48	142.25	4.50	
2025-01-13 17:54:46.68	142.25	4.52	
2025-01-13 17:54:46.89	142.24	4.53	
2025-01-13 17:54:47.09	142.24	4.55	
2025-01-13 17:54:47.30	142.23	4.56	
2025-01-13 17:54:47.50	142.22	4.58	
2025-01-13 17:54:47.71	142.22	4.59	
2025-01-13 17:54:47.91	142.21	4.61	
2025-01-13 17:54:48.11	142.20	4.62	
2025-01-13 17:54:48.32	142.20	4.64	
2025-01-13 17:54:48.53	142.19	4.65	
2025-01-13 17:54:48.73	142.18	4.67	
2025-01-13 17:54:48.93	142.18	4.68	
2025-01-13 17:54:49.14	142.17	4.70	
2025-01-13 17:54:49.34	142.17	4.71	
2025-01-13 17:54:49.55	142.16	4.73	
2025-01-13 17:54:49.76	142.15	4.74	
2025-01-13 17:54:49.96	142.15	4.76	
2025-01-13 17:54:50.16	142.14	4.77	
2025-01-13 17:54:50.37	142.13	4.79	
2025-01-13 17:54:50.57	142.13	4.80	
2025-01-13 17:54:50.78	142.12	4.82	
2025-01-13 17:54:50.98	142.11	4.83	
2025-01-13 17:54:51.19	142.11	4.85	
2025-01-13 17:54:51.39	142.10	4.86	
2025-01-13 17:54:51.60	142.09	4.88	
2025-01-13 17:54:51.80	142.09	4.89	
2025-01-13 17:54:52.01	142.08	4.91	
2025-01-13 17:54:52.21	142.07	4.92	
2025-01-13 17:54:52.42	142.07	4.94	
2025-01-13 17:54:52.62	142.06	4.95	
2025-01-13 17:54:52.83	142.06	4.97	
2025-01-13 17:54:53.04	142.05	4.98	
2025-01-13 17:54:53.24	142.04	5.00	
2025-01-13 17:54:53.44	142.04	5.01	
2025-01-13 17:54:53.65	142.03	5.03	
2025-01-13 17:54:53.85	142.02	5.04	
2025-01-13 17:54:54.06	142.02	5.06	
2025-01-13 17:54:54.27	142.01	5.07	
2025-01-13 17:54:54.47	142.00	5.09	
2025-01-13 17:54:54.68	142.00	5.10	
2025-01-13 17:54:54.88	141.99	5.12	
2025-01-13 17:54:55.09	141.98	5.13	
2025-01-13 17:54:55.29	141.98	5.15	
2025-01-13 17:54:55.50	141.97	5.16	
2025-01-13 17:54:55.70	141.96	5.18	
2025-01-13 17:54:55.91	141.96	5.20	
2025-01-13 17:54:56.11	141.95	5.21	
2025-01-13 17:54:56.32	141.94	5.23	
2025-01-13 17:54:56.53	141.94	5.24	
2025-01-13 17:54:56.73	141.93	5.26	
2025-01-13 17:54:56.94	141.92	5.27	
2025-01-13 17:54:57.14	141.92	5.29	
2025-01-13 17:54:57.35	141.91	5.30	
2025-01-13 17:54:57.55	141.90	5.32	
2025-01-13 17:54:57.76	141.90	5.33	
2025-01-13 17:54:57.96	141.89	5.35	
2025-01-13 17:54:58.17	141.88	5.36	
2025-01-13 17:54:58.37	141.88	5.38	
2025-01-13 17:54:58.58	141.87	5.39	
2025-01-13 17:54:58.78	141.86	5.41	
2025-01-13 17:54:58.99	141.85	5.43	
2025-01-13 17:54:59.19	141.85	5.44	
2025-01-13 17:54:59.40	141.84	5.46	
2025-01-13 17:54:59.60	141.83	5.47	
2025-01-13 17:54:59.81	141.83	5.49	
2025-01-13 17:55:00.01	141.82	5.50	
2025-01-13 17:55:00.22	141.81	5.52	
2025-01-13 17:55:00.42	141.81	5.53	
2025-01-13 17:55:00.63	141.80	5.55	
2025-01-13 17:55:00.83	141.79	5.56	
2025-01-13 17:55:01.04	141.79	5.58	
2025-01-13 17:55:01.24	141.78	5.60	
2025-01-13 17:55:01.45	141.77	5.61	
2025-01-13 17:55:01.66	141.77	5.63	
2025-01-13 17:55:01.87	141.76	5.64	
2025-01-13 17:55:02.07	141.75	5.66	
2025-01-13 17:55:02.28	141.74	5.67	
2025-01-13 17:55:02.48	141.74	5.69	
2025-01-13 17:55:02.69	141.73	5.71	
2025-01-13 17:55:02.89	141.72	5.72	
2025-01-13 17:55:03.10	141.72	5.74	
2025-01-13 17:55:03.30	141.71	5.75	
2025-01-13 17:55:03.51	141.70	5.77	
2025-01-13 17:55:03.71	141.70	5.78	
2025-01-13 17:55:03.91	141.69	5.80	
2025-01-13 17:55:04.12	141.68	5.81	
2025-01-13 17:55:04.33	141.67	5.83	
2025-01-13 17:55:04.53	141.67	5.85	
2025-01-13 17:55:04.74	141.66	5.86	
2025-01-13 17:55:04.94	141.65	5.88	
2025-01-13 17:55:05.15	141.65	5.89	
2025-01-13 17:55:05.35	141.64	5.91	
2025-01-13 17:55:05.56	141.63	5.92	
2025-01-13 17:55:05.76	141.63	5.94	
2025-01-13 17:55:05.97	141.62	5.96	
2025-01-13 17:55:06.19	141.61	5.97	
2025-01-13 17:55:06.39	141.60	5.99	
2025-01-13 17:55:06.60	141.60	6.00	
2025-01-13 17:55:06.80	141.59	6.02	
2025-01-13 17:55:07.01	141.58	6.04	
2025-01-13 17:55:07.21	141.58	6.05	
2025-01-13 17:55:07.42	141.57	6.07	
2025-01-13 17:55:07.62	141.56	6.08	
2025-01-13 17:55:07.83	141.55	6.10	
2025-01-13 17:55:08.04	141.55	6.11	
2025-01-13 17:55:08.25	141.54	6.13	
2025-01-13 17:55:08.46	141.53	6.15	
2025-01-13 17:55:08.67	141.52	6.16	
2025-01-13 17:55:08.88	141.52	6.18	
2025-01-13 17:55:09.09	141.51	6.20	
2025-01-13 17:55:09.29	141.50	6.21	
2025-01-13 17:55:09.50	141.50	6.23	
2025-01-13 17:55:09.70	141.49	6.24	
2025-01-13 17:55:09.92	141.48	6.26	
2025-01-13 17:55:10.13	141.47	6.28	
2025-01-13 17:55:10.33	141.47	6.29	
2025-01-13 17:55:10.54	141.46	6.31	
2025-01-13 17:55:10.74	141.45	6.32	
2025-01-13 17:55:10.95	141.44	6.34	
2025-01-13 17:55:11.15	141.44	6.36	
2025-01-13 17:55:11.36	141.43	6.37	
2025-01-13 17:55:11.57	141.42	6.39	
2025-01-13 17:55:11.77	141.41	6.40	
2025-01-13 17:55:11.98	141.41	6.42	
2025-01-13 17:55:12.19	141.40	6.44	
2025-01-13 17:55:12.39	141.39	6.45	
2025-01-13 17:55:12.59	141.38	6.47	
2025-01-13 17:55:12.80	141.38	6.49	
2025-01-13 17:55:13.00	141.37	6.50	
2025-01-13 17:55:13.21	141.36	6.52	
2025-01-13 17:55:13.41	141.36	6.53	
2025-01-13 17:55:13.63	141.35	6.55	
2025-01-13 17:55:13.84	141.34	6.57	
2025-01-13 17:55:14.04	141.33	6.58	
2025-01-13 17:55:14.25	141.32	6.60	
2025-01-13 17:55:14.45	141.32	6.62	
2025-01-13 17:55:14.66	141.31	6.63	
2025-01-13 17:55:14.86	141.30	6.65	
2025-01-13 17:55:15.07	141.29	6.66	
2025-01-13 17:55:15.28	141.29	6.68	
2025-01-13 17:55:15.48	141.28	6.70	
2025-01-13 17:55:15.68	141.27	6.71	
2025-01-13 17:55:15.89	141.26	6.73	
2025-01-13 17:55:16.10	141.26	6.75	
2025-01-13 17:55:16.30	141.25	6.76	
2025-01-13 17:55:16.51	141.24	6.78	
2025-01-13 17:55:16.71	141.23	6.79	
2025-01-13 17:55:16.91	141.23	6.81	
2025-01-13 17:55:17.12	141.22	6.83	
2025-01-13 17:55:17.33	141.21	6.84	
2025-01-13 17:55:17.53	141.20	6.86	
2025-01-13 17:55:17.74	141.20	6.88	
2025-01-13 17:55:17.94	141.19	6.89	
2025-01-13 17:55:18.15	141.18	6.91	
2025-01-13 17:55:18.35	141.17	6.92	
2025-01-13 17:55:18.56	141.17	6.94	
2025-01-13 17:55:18.76	141.16	6.96	
2025-01-13 17:55:18.97	141.15	6.97	
2025-01-13 17:55:19.17	141.14	6.99	
2025-01-13 17:55:19.38	141.13	7.01	
2025-01-13 17:55:19.59	141.13	7.02	
2025-01-13 17:55:19.79	141.12	7.04	
2025-01-13 17:55:19.99	141.11	7.06	
2025-01-13 17:55:20.20	141.10	7.07	
2025-01-13 17:55:20.41	141.10	7.09	
2025-01-13 17:55:20.61	141.09	7.11	
2025-01-13 17:55:20.81	141.08	7.12	
2025-01-13 17:55:21.02	141.07	7.14	
2025-01-13 17:55:21.23	141.06	7.16	
2025-01-13 17:55:21.44	141.06	7.17	
2025-01-13 17:55:21.65	141.05	7.19	
2025-01-13 17:55:21.85	141.04	7.21	
2025-01-13 17:55:22.06	141.03	7.22	
2025-01-13 17:55:22.26	141.03	7.24	
2025-01-13 17:55:22.47	141.02	7.26	
2025-01-13 17:55:22.67	141.01	7.27	
2025-01-13 17:55:22.88	141.00	7.29	
2025-01-13 17:55:23.08	140.99	7.31	
2025-01-13 17:55:23.29	140.99	7.32	
2025-01-13 17:55:23.49	140.98	7.34	
2025-01-13 17:55:23.70	140.97	7.36	
2025-01-13 17:55:23.90	140.96	7.37	
2025-01-13 17:55:24.11	140.95	7.39	
2025-01-13 17:55:24.31	140.95	7.41	
2025-01-13 17:55:24.52	140.94	7.42	
2025-01-13 17:55:24.72	140.93	7.44	
2025-01-13 17:55:24.93	140.92	7.46	
2025-01-13 17:55:25.14	140.91	7.47	
2025-01-13 17:55:25.34	140.91	7.49	
2025-01-13 17:55:25.54	140.90	7.51	
2025-01-13 17:55:25.75	140.89	7.52	
2025-01-13 17:55:25.95	140.88	7.54	
2025-01-13 17:55:26.16	140.87	7.56	
2025-01-13 17:55:26.38	140.87	7.57	
2025-01-13 17:55:26.58	140.86	7.59	
2025-01-13 17:55:26.79	140.85	7.61	
2025-01-13 17:55:27.00	140.84	7.63	
2025-01-13 17:55:27.20	140.83	7.64	
2025-01-13 17:55:27.40	140.82	7.66	
2025-01-13 17:55:27.61	140.82	7.68	
2025-01-13 17:55:27.82	140.81	7.69	
2025-01-13 17:55:28.02	140.80	7.71	
2025-01-13 17:55:28.23	140.79	7.73	
2025-01-13 17:55:28.43	140.78	7.74	
2025-01-13 17:55:28.64	140.78	7.76	
2025-01-13 17:55:28.84	140.77	7.78	
2025-01-13 17:55:29.05	140.76	7.80	
2025-01-13 17:55:29.25	140.75	7.81	
2025-01-13 17:55:29.46	140.74	7.83	
2025-01-13 17:55:29.68	140.73	7.85	
2025-01-13 17:55:29.88	140.73	7.86	
2025-01-13 17:55:30.09	140.72	7.88	
2025-01-13 17:55:30.29	140.71	7.90	
2025-01-13 17:55:30.50	140.70	7.92	
2025-01-13 17:55:30.70	140.69	7.93	
2025-01-13 17:55:30.91	140.68	7.95	
2025-01-13 17:55:31.11	140.68	7.97	
2025-01-13 17:55:31.32	140.67	7.98	
2025-01-13 17:55:31.52	140.66	8.00	
2025-01-13 17:55:31.73	140.65	8.02	
2025-01-13 17:55:31.93	140.64	8.03	
2025-01-13 17:55:32.14	140.63	8.05	
2025-01-13 17:55:32.34	140.63	8.07	
2025-01-13 17:55:32.55	140.62	8.09	
2025-01-13 17:55:32.75	140.61	8.10	
2025-01-13 17:55:32.96	140.60	8.12	
2025-01-13 17:55:33.16	140.59	8.14	
2025-01-13 17:55:33.37	140.58	8.16	
2025-01-13 17:55:33.58	140.57	8.17	
2025-01-13 17:55:33.78	140.57	8.19	
2025-01-13 17:55:33.98	140.56	8.21	
2025-01-13 17:55:34.19	140.55	8.22	
2025-01-13 17:55:34.39	140.54	8.24	
2025-01-13 17:55:34.60	140.53	8.26	
2025-01-13 17:55:34.80	140.52	8.28	
2025-01-13 17:55:35.01	140.52	8.29	
2025-01-13 17:55:35.21	140.51	8.31	
2025-01-13 17:55:35.42	140.50	8.33	
2025-01-13 17:55:35.63	140.49	8.35	
2025-01-13 17:55:35.83	140.48	8.36	
2025-01-13 17:55:36.03	140.47	8.38	
2025-01-13 17:55:36.24	140.46	8.40	
2025-01-13 17:55:36.44	140.46	8.42	
2025-01-13 17:55:36.65	140.45	8.43	
2025-01-13 17:55:36.86	140.44	8.45	
2025-01-13 17:55:37.06	140.43	8.47	
2025-01-13 17:55:37.26	140.42	8.49	
2025-01-13 17:55:37.47	140.41	8.50	
2025-01-13 17:55:37.67	140.40	8.52	
2025-01-13 17:55:37.88	140.39	8.54	
2025-01-13 17:55:38.08	140.39	8.56	
2025-01-13 17:55:38.29	140.38	8.57	
2025-01-13 17:55:38.49	140.37	8.59	
2025-01-13 17:55:38.70	140.36	8.61	
2025-01-13 17:55:38.90	140.35	8.63	
2025-01-13 17:55:39.11	140.34	8.64	
2025-01-13 17:55:39.31	140.33	8.66	
2025-01-13 17:55:39.52	140.32	8.68	
2025-01-13 17:55:39.72	140.32	8.70	
2025-01-13 17:55:39.93	140.31	8.71	
2025-01-13 17:55:40.14	140.30	8.73	
2025-01-13 17:55:40.34	140.29	8.75	
2025-01-13 17:55:40.55	140.28	8.77	
2025-01-13 17:55:40.75	140.27	8.78	
2025-01-13 17:55:40.96	140.26	8.80	
2025-01-13 17:55:41.16	140.25	8.82	
2025-01-13 17:55:41.38	140.24	8.84	
2025-01-13 17:55:41.59	140.24	8.86	
2025-01-13 17:55:41.79	140.23	8.87	
2025-01-13 17:55:42.00	140.22	8.89	
2025-01-13 17:55:42.20	140.21	8.91	
2025-01-13 17:55:42.41	140.20	8.93	
2025-01-13 17:55:42.61	140.19	8.95	
2025-01-13 17:55:42.82	140.18	8.96	
2025-01-13 17:55:43.02	140.17	8.98	
2025-01-13 17:55:43.23	140.16	9.00	
2025-01-13 17:55:43.43	140.15	9.02	
2025-01-13 17:55:43.64	140.15	9.04	
2025-01-13 17:55:43.85	140.14	9.05	
2025-01-13 17:55:44.05	140.13	9.07	
2025-01-13 17:55:44.26	140.12	9.09	
2025-01-13 17:55:44.46	140.11	9.11	
2025-01-13 17:55:44.67	140.10	9.13	
2025-01-13 17:55:44.87	140.09	9.14	
2025-01-13 17:55:45.08	140.08	9.16	
2025-01-13 17:55:45.28	140.07	9.18	
2025-01-13 17:55:45.49	140.06	9.20	
2025-01-13 17:55:45.69	140.05	9.22	
2025-01-13 17:55:45.90	140.04	9.23	
2025-01-13 17:55:46.10	140.04	9.25	
2025-01-13 17:55:46.31	140.03	9.27	
2025-01-13 17:55:46.51	140.02	9.29	
2025-01-13 17:55:46.71	140.01	9.30	
2025-01-13 17:55:46.92	140.00	9.32	
2025-01-13 17:55:47.13	139.99	9.34	
2025-01-13 17:55:47.33	139.98	9.36	
2025-01-13 17:55:47.54	139.97	9.38	
2025-01-13 17:55:47.74	139.96	9.40	
2025-01-13 17:55:47.95	139.95	9.41	
2025-01-13 17:55:48.15	139.94	9.43	
2025-01-13 17:55:48.36	139.93	9.45	
2025-01-13 17:55:48.56	139.92	9.47	
2025-01-13 17:55:48.77	139.91	9.49	
2025-01-13 17:55:48.97	139.91	9.51	
2025-01-13 17:55:49.18	139.90	9.52	
2025-01-13 17:55:49.39	139.89	9.54	
2025-01-13 17:55:49.59	139.88	9.56	
2025-01-13 17:55:49.81	139.87	9.58	
2025-01-13 17:55:50.02	139.86	9.60	
2025-01-13 17:55:50.22	139.85	9.62	
2025-01-13 17:55:50.43	139.84	9.64	
2025-01-13 17:55:50.63	139.83	9.65	
2025-01-13 17:55:50.84	139.82	9.67	
2025-01-13 17:55:51.04	139.81	9.69	
2025-01-13 17:55:51.25	139.80	9.71	
2025-01-13 17:55:51.45	139.79	9.73	
2025-01-13 17:55:51.66	139.78	9.75	
2025-01-13 17:55:51.86	139.77	9.76	
2025-01-13 17:55:52.07	139.76	9.78	
2025-01-13 17:55:52.27	139.75	9.80	
2025-01-13 17:55:52.48	139.74	9.82	
2025-01-13 17:55:52.69	139.73	9.84	
2025-01-13 17:55:52.89	139.72	9.86	
2025-01-13 17:55:53.11	139.71	9.88	
2025-01-13 17:55:53.32	139.70	9.90	
2025-01-13 17:55:53.52	139.69	9.91	
2025-01-13 17:55:53.73	139.68	9.93	
2025-01-13 17:55:53.93	139.67	9.95	
2025-01-13 17:55:54.13	139.66	9.97	
2025-01-13 17:55:54.34	139.65	9.99	
2025-01-13 17:55:54.55	139.64	10.01	
2025-01-13 17:55:54.75	139.63	10.03	
2025-01-13 17:55:54.96	139.62	10.04	
2025-01-13 17:55:55.16	139.62	10.06	
2025-01-13 17:55:55.37	139.61	10.08	
2025-01-13 17:55:55.57	139.60	10.10	
2025-01-13 17:55:55.78	139.59	10.12	
2025-01-13 17:55:55.98	139.58	10.14	
2025-01-13 17:55:56.19	139.57	10.16	
2025-01-13 17:55:56.39	139.56	10.18	
2025-01-13 17:55:56.60	139.55	10.19	
2025-01-13 17:55:56.80	139.54	10.21	
2025-01-13 17:55:57.01	139.53	10.23	
2025-01-13 17:55:57.21	139.52	10.25	
2025-01-13 17:55:57.42	139.51	10.27	
2025-01-13 17:55:57.62	139.50	10.29	
2025-01-13 17:55:57.83	139.49	10.31	
2025-01-13 17:55:58.03	139.48	10.33	
2025-01-13 17:55:58.24	139.47	10.35	
2025-01-13 17:55:58.44	139.46	10.36	
2025-01-13 17:55:58.65	139.45	10.38	
2025-01-13 17:55:58.85	139.44	10.40	
2025-01-13 17:55:59.06	139.43	10.42	
2025-01-13 17:55:59.27	139.42	10.44	
2025-01-13 17:55:59.48	139.40	10.46	
2025-01-13 17:55:59.69	139.39	10.48	
2025-01-13 17:55:59.89	139.38	10.50	
2025-01-13 17:56:00.10	139.37	10.52	
2025-01-13 17:56:00.30	139.36	10.54	
2025-01-13 17:56:00.51	139.35	10.56	
2025-01-13 17:56:00.71	139.34	10.57	
2025-01-13 17:56:00.92	139.33	10.59	
2025-01-13 17:56:01.13	139.32	10.61	
2025-01-13 17:56:01.33	139.31	10.63	
2025-01-13 17:56:01.54	139.30	10.65	
2025-01-13 17:56:01.74	139.29	10.67	
2025-01-13 17:56:01.95	139.28	10.69	
2025-01-13 17:56:02.15	139.27	10.71	
2025-01-13 17:56:02.36	139.26	10.73	
2025-01-13 17:56:02.56	139.25	10.75	
2025-01-13 17:56:02.77	139.24	10.77	
2025-01-13 17:56:02.97	139.23	10.79	
2025-01-13 17:56:03.18	139.22	10.81	
2025-01-13 17:56:03.39	139.21	10.83	
2025-01-13 17:56:03.59	139.20	10.84	
2025-01-13 17:56:03.81	139.19	10.87	
2025-01-13 17:56:04.02	139.18	10.89	
2025-01-13 17:56:04.22	139.17	10.90	
2025-01-13 17:56:04.43	139.16	10.92	
2025-01-13 17:56:04.63	139.15	10.94	
2025-01-13 17:56:04.84	139.13	10.96	
2025-01-13 17:56:05.04	139.12	10.98	
2025-01-13 17:56:05.25	139.11	11.00	
2025-01-13 17:56:05.45	139.10	11.02	
2025-01-13 17:56:05.66	139.09	11.04	
2025-01-13 17:56:05.86	139.08	11.06	
2025-01-13 17:56:06.07	139.07	11.08	
2025-01-13 17:56:06.27	139.06	11.10	
2025-01-13 17:56:06.48	139.05	11.12	
2025-01-13 17:56:06.69	139.04	11.14	
2025-01-13 17:56:06.89	139.03	11.16	
2025-01-13 17:56:07.09	139.02	11.18	
2025-01-13 17:56:07.30	139.01	11.20	
2025-01-13 17:56:07.50	139.00	11.22	
2025-01-13 17:56:07.71	138.99	11.24	
2025-01-13 17:56:07.91	138.98	11.26	
2025-01-13 17:56:08.12	138.96	11.28	
2025-01-13 17:56:08.32	138.95	11.30	
2025-01-13 17:56:08.53	138.94	11.32	
2025-01-13 17:56:08.73	138.93	11.33	
2025-01-13 17:56:08.94	138.92	11.35	
2025-01-13 17:56:09.14	138.91	11.37	
2025-01-13 17:56:09.35	138.90	11.39	
2025-01-13 17:56:09.55	138.89	11.41	
2025-01-13 17:56:09.76	138.88	11.43	
2025-01-13 17:56:09.96	138.87	11.45	
2025-01-13 17:56:10.17	138.86	11.47	
2025-01-13 17:56:10.37	138.85	11.49	
2025-01-13 17:56:10.58	138.83	11.51	
2025-01-13 17:56:10.79	138.82	11.53	
2025-01-13 17:56:10.99	138.81	11.55	
2025-01-13 17:56:11.19	138.80	11.57	
2025-01-13 17:56:11.40	138.79	11.59	
2025-01-13 17:56:11.60	138.78	11.61	
2025-01-13 17:56:11.81	138.77	11.63	
2025-01-13 17:56:12.02	138.76	11.65	
2025-01-13 17:56:12.22	138.75	11.67	
2025-01-13 17:56:12.42	138.73	11.69	
2025-01-13 17:56:12.63	138.72	11.71	
2025-01-13 17:56:12.83	138.71	11.73	
2025-01-13 17:56:13.04	138.70	11.75	
2025-01-13 17:56:13.24	138.69	11.77	
2025-01-13 17:56:13.45	138.68	11.79	
2025-01-13 17:56:13.66	138.67	11.81	
2025-01-13 17:56:13.86	138.66	11.83	
2025-01-13 17:56:14.07	138.64	11.85	
2025-01-13 17:56:14.27	138.63	11.87	
2025-01-13 17:56:14.49	138.62	11.90	
2025-01-13 17:56:14.69	138.61	11.92	
2025-01-13 17:56:14.90	138.60	11.94	
2025-01-13 17:56:15.11	138.59	11.96	
2025-01-13 17:56:15.31	138.58	11.98	
2025-01-13 17:56:15.52	138.56	12.00	
2025-01-13 17:56:15.72	138.55	12.02	
2025-01-13 17:56:15.93	138.54	12.04	
2025-01-13 17:56:16.14	138.53	12.06	
2025-01-13 17:56:16.34	138.52	12.08	
2025-01-13 17:56:16.54	138.51	12.10	
2025-01-13 17:56:16.75	138.50	12.12	
2025-01-13 17:56:16.95	138.48	12.14	
2025-01-13 17:56:17.16	138.47	12.16	
2025-01-13 17:56:17.37	138.46	12.18	
2025-01-13 17:56:17.59	138.45	12.20	
2025-01-13 17:56:17.79	138.44	12.22	
2025-01-13 17:56:18.00	138.42	12.24	
2025-01-13 17:56:18.20	138.41	12.26	
2025-01-13 17:56:18.41	138.40	12.29	
2025-01-13 17:56:18.61	138.39	12.31	
2025-01-13 17:56:18.82	138.38	12.33	
2025-01-13 17:56:19.02	138.37	12.35	
2025-01-13 17:56:19.23	138.35	12.37	
2025-01-13 17:56:19.43	138.34	12.39	
2025-01-13 17:56:19.64	138.33	12.41	
2025-01-13 17:56:19.84	138.32	12.43	
2025-01-13 17:56:20.05	138.31	12.45	
2025-01-13 17:56:20.25	138.30	12.47	
2025-01-13 17:56:20.46	138.28	12.49	
2025-01-13 17:56:20.66	138.27	12.51	
2025-01-13 17:56:20.88	138.26	12.53	
2025-01-13 17:56:21.09	138.25	12.56	
2025-01-13 17:56:21.29	138.24	12.58	
2025-01-13 17:56:21.50	138.22	12.60	
2025-01-13 17:56:21.70	138.21	12.62	
2025-01-13 17:56:21.91	138.20	12.64	
2025-01-13 17:56:22.11	138.19	12.66	
2025-01-13 17:56:22.31	138.18	12.68	
2025-01-13 17:56:22.52	138.16	12.70	
2025-01-13 17:56:22.72	138.15	12.72	
2025-01-13 17:56:22.93	138.14	12.74	
2025-01-13 17:56:23.13	138.13	12.76	
2025-01-13 17:56:23.34	138.12	12.79	
2025-01-13 17:56:23.54	138.10	12.81	
2025-01-13 17:56:23.75	138.09	12.83	
2025-01-13 17:56:23.95	138.08	12.85	
2025-01-13 17:56:24.16	138.07	12.87	
2025-01-13 17:56:24.36	138.06	12.89	
2025-01-13 17:56:24.57	138.04	12.91	
2025-01-13 17:56:24.77	138.03	12.93	
2025-01-13 17:56:24.98	138.02	12.95	
2025-01-13 17:56:25.18	138.01	12.97	
2025-01-13 17:56:25.39	137.99	13.00	
2025-01-13 17:56:25.59	137.98	13.02	
2025-01-13 17:56:25.80	137.97	13.04	
2025-01-13 17:56:26.01	137.96	13.06	
2025-01-13 17:56:26.21	137.94	13.08	
2025-01-13 17:56:26.41	137.93	13.10	
2025-01-13 17:56:26.62	137.92	13.12	
2025-01-13 17:56:26.83	137.91	13.15	
2025-01-13 17:56:27.03	137.89	13.17	
2025-01-13 17:56:27.23	137.88	13.19	
2025-01-13 17:56:27.44	137.87	13.21	
2025-01-13 17:56:27.65	137.86	13.23	
2025-01-13 17:56:27.85	137.84	13.25	
2025-01-13 17:56:28.06	137.83	13.27	
2025-01-13 17:56:28.26	137.82	13.29	
2025-01-13 17:56:28.47	137.81	13.32	
2025-01-13 17:56:28.67	137.79	13.34	
2025-01-13 17:56:28.88	137.78	13.36	
2025-01-13 17:56:29.08	137.77	13.38	
2025-01-13 17:56:29.29	137.76	13.40	
2025-01-13 17:56:29.49	137.74	13.42	
2025-01-13 17:56:29.70	137.73	13.45	
2025-01-13 17:56:29.90	137.72	13.47	
2025-01-13 17:56:30.11	137.71	13.49	
2025-01-13 17:56:30.31	137.69	13.51	
2025-01-13 17:56:30.52	137.68	13.53	
2025-01-13 17:56:30.73	137.67	13.55	
2025-01-13 17:56:30.93	137.65	13.58	
2025-01-13 17:56:31.14	137.64	13.60	
2025-01-13 17:56:31.34	137.63	13.62	
2025-01-13 17:56:31.54	137.62	13.64	
2025-01-13 17:56:31.75	137.60	13.66	
2025-01-13 17:56:31.95	137.59	13.68	
2025-01-13 17:56:32.16	137.58	13.71	
2025-01-13 17:56:32.37	137.56	13.73	
2025-01-13 17:56:32.58	137.55	13.75	
2025-01-13 17:56:32.79	137.54	13.77	
2025-01-13 17:56:32.99	137.52	13.80	
2025-01-13 17:56:33.20	137.51	13.82	
2025-01-13 17:56:33.41	137.50	13.84	
2025-01-13 17:56:33.61	137.48	13.86	
2025-01-13 17:56:33.82	137.47	13.88	
2025-01-13 17:56:34.02	137.46	13.91	
2025-01-13 17:56:34.23	137.44	13.93	
2025-01-13 17:56:34.43	137.43	13.95	
2025-01-13 17:56:34.65	137.42	13.97	
2025-01-13 17:56:34.86	137.40	14.00	
2025-01-13 17:56:35.06	137.39	14.02	
2025-01-13 17:56:35.27	137.38	14.04	
2025-01-13 17:56:35.48	137.36	14.06	
2025-01-13 17:56:35.69	137.35	14.09	
2025-01-13 17:56:35.90	137.34	14.11	
2025-01-13 17:56:36.10	137.32	14.13	
2025-01-13 17:56:36.31	137.31	14.15	
2025-01-13 17:56:36.51	137.30	14.17	
2025-01-13 17:56:36.72	137.28	14.20	
2025-01-13 17:56:36.92	137.27	14.22	
2025-01-13 17:56:37.13	137.26	14.24	
2025-01-13 17:56:37.33	137.24	14.26	
2025-01-13 17:56:37.54	137.23	14.29	
2025-01-13 17:56:37.74	137.21	14.31	
2025-01-13 17:56:37.95	137.20	14.33	
2025-01-13 17:56:38.15	137.19	14.35	
2025-01-13 17:56:38.36	137.17	14.38	
2025-01-13 17:56:38.56	137.16	14.40	
2025-01-13 17:56:38.77	137.15	14.42	
2025-01-13 17:56:38.97	137.13	14.44	
2025-01-13 17:56:39.18	137.12	14.47	
2025-01-13 17:56:39.38	137.11	14.49	
2025-01-13 17:56:39.59	137.09	14.51	
2025-01-13 17:56:39.79	137.08	14.53	
2025-01-13 17:56:40.00	137.06	14.56	
2025-01-13 17:56:40.20	137.05	14.58	
2025-01-13 17:56:40.41	137.04	14.60	
2025-01-13 17:56:40.62	137.02	14.63	
2025-01-13 17:56:40.82	137.01	14.65	
2025-01-13 17:56:41.03	136.99	14.67	
2025-01-13 17:56:41.23	136.98	14.69	
2025-01-13 17:56:41.44	136.97	14.72	
2025-01-13 17:56:41.64	136.95	14.74	
2025-01-13 17:56:41.85	136.94	14.76	
2025-01-13 17:56:42.05	136.92	14.78	
2025-01-13 17:56:42.26	136.91	14.81	
2025-01-13 17:56:42.46	136.90	14.83	
2025-01-13 17:56:42.67	136.88	14.85	
2025-01-13 17:56:42.87	136.87	14.88	
2025-01-13 17:56:43.08	136.85	14.90	
2025-01-13 17:56:43.28	136.84	14.92	
2025-01-13 17:56:43.49	136.82	14.95	
2025-01-13 17:56:43.69	136.81	14.97	
2025-01-13 17:56:43.90	136.80	14.99	
2025-01-13 17:56:44.10	136.78	15.01	
2025-01-13 17:56:44.31	136.77	15.04	
2025-01-13 17:56:44.51	136.75	15.06	
2025-01-13 17:56:44.72	136.74	15.08	
2025-01-13 17:56:44.92	136.72	15.11	
2025-01-13 17:56:45.13	136.71	15.13	
2025-01-13 17:56:45.33	136.70	15.15	
2025-01-13 17:56:45.54	136.68	15.18	
2025-01-13 17:56:45.74	136.67	15.20	
2025-01-13 17:56:45.95	136.65	15.22	
2025-01-13 17:56:46.15	136.64	15.25	
2025-01-13 17:56:46.36	136.62	15.27	
2025-01-13 17:56:46.56	136.61	15.29	
2025-01-13 17:56:46.77	136.59	15.32	
2025-01-13 17:56:46.98	136.58	15.34	
2025-01-13 17:56:47.18	136.56	15.36	
2025-01-13 17:56:47.39	136.55	15.39	
2025-01-13 17:56:47.59	136.54	15.41	
2025-01-13 17:56:47.80	136.52	15.43	
2025-01-13 17:56:48.00	136.51	15.46	
2025-01-13 17:56:48.21	136.49	15.48	
2025-01-13 17:56:48.41	136.48	15.50	
2025-01-13 17:56:48.62	136.46	15.53	
2025-01-13 17:56:48.82	136.45	15.55	
2025-01-13 17:56:49.03	136.43	15.58	
2025-01-13 17:56:49.23	136.42	15.60	
2025-01-13 17:56:49.44	136.40	15.62	
2025-01-13 17:56:49.64	136.39	15.65	
2025-01-13 17:56:49.85	136.37	15.67	
2025-01-13 17:56:50.05	136.36	15.69	
2025-01-13 17:56:50.26	136.34	15.72	
2025-01-13 17:56:50.46	136.33	15.74	
2025-01-13 17:56:50.67	136.31	15.77	
2025-01-13 17:56:50.87	136.30	15.79	
2025-01-13 17:56:51.08	136.28	15.81	
2025-01-13 17:56:51.28	136.27	15.84	
2025-01-13 17:56:51.49	136.25	15.86	
2025-01-13 17:56:51.69	136.24	15.88	
2025-01-13 17:56:51.90	136.22	15.91	
2025-01-13 17:56:52.10	136.20	15.93	
2025-01-13 17:56:52.31	136.19	15.96	
2025-01-13 17:56:52.51	136.17	15.98	
2025-01-13 17:56:52.72	136.16	16.00	
2025-01-13 17:56:52.92	136.14	16.03	
2025-01-13 17:56:53.13	136.13	16.05	
2025-01-13 17:56:53.33	136.11	16.08	
2025-01-13 17:56:53.54	136.10	16.10	
2025-01-13 17:56:53.74	136.08	16.12	
2025-01-13 17:56:53.95	136.07	16.15	
2025-01-13 17:56:54.15	136.05	16.17	
2025-01-13 17:56:54.36	136.03	16.20	
2025-01-13 17:56:54.57	136.02	16.22	
2025-01-13 17:56:54.77	136.00	16.25	
2025-01-13 17:56:54.97	135.99	16.27	
2025-01-13 17:56:55.18	135.97	16.30	
2025-01-13 17:56:55.39	135.96	16.32	
2025-01-13 17:56:55.59	135.94	16.34	
2025-01-13 17:56:55.80	135.92	16.37	
2025-01-13 17:56:56.00	135.91	16.39	
2025-01-13 17:56:56.21	135.89	16.42	
2025-01-13 17:56:56.41	135.88	16.44	
2025-01-13 17:56:56.62	135.86	16.47	
2025-01-13 17:56:56.83	135.84	16.49	
2025-01-13 17:56:57.04	135.83	16.52	
2025-01-13 17:56:57.24	135.81	16.54	
2025-01-13 17:56:57.45	135.80	16.57	
2025-01-13 17:56:57.65	135.78	16.59	
2025-01-13 17:56:57.86	135.76	16.62	
2025-01-13 17:56:58.07	135.75	16.64	
2025-01-13 17:56:58.27	135.73	16.66	
2025-01-13 17:56:58.48	135.71	16.69	
2025-01-13 17:56:58.68	135.70	16.71	
2025-01-13 17:56:58.88	135.68	16.74	
2025-01-13 17:56:59.09	135.67	16.76	
2025-01-13 17:56:59.29	135.65	16.79	
2025-01-13 17:56:59.50	135.63	16.81	
2025-01-13 17:56:59.70	135.62	16.84	
2025-01-13 17:56:59.91	135.60	16.86	
2025-01-13 17:57:00.11	135.58	16.89	
2025-01-13 17:57:00.31	135.57	16.91	
2025-01-13 17:57:00.52	135.55	16.94	
2025-01-13 17:57:00.72	135.54	16.96	
2025-01-13 17:57:00.93	135.52	16.99	
2025-01-13 17:57:01.13	135.50	17.01	
2025-01-13 17:57:01.34	135.49	17.04	
2025-01-13 17:57:01.55	135.47	17.06	
2025-01-13 17:57:01.75	135.45	17.09	
2025-01-13 17:57:01.96	135.44	17.11	
2025-01-13 17:57:02.16	135.42	17.14	
2025-01-13 17:57:02.36	135.40	17.16	
2025-01-13 17:57:02.57	135.39	17.19	
2025-01-13 17:57:02.77	135.37	17.21	
2025-01-13 17:57:02.98	135.35	17.24	
2025-01-13 17:57:03.19	135.33	17.27	
2025-01-13 17:57:03.39	135.32	17.29	
2025-01-13 17:57:03.59	135.30	17.32	
2025-01-13 17:57:03.80	135.28	17.34	
2025-01-13 17:57:04.01	135.27	17.37	
2025-01-13 17:57:04.21	135.25	17.39	
2025-01-13 17:57:04.42	135.23	17.42	
2025-01-13 17:57:04.62	135.22	17.44	
2025-01-13 17:57:04.82	135.20	17.47	
2025-01-13 17:57:05.03	135.18	17.49	
2025-01-13 17:57:05.24	135.16	17.52	
2025-01-13 17:57:05.44	135.15	17.55	
2025-01-13 17:57:05.65	135.13	17.57	
2025-01-13 17:57:05.85	135.11	17.60	
2025-01-13 17:57:06.06	135.10	17.62	
2025-01-13 17:57:06.27	135.08	17.65	
2025-01-13 17:57:06.47	135.06	17.67	
2025-01-13 17:57:06.67	135.04	17.70	
2025-01-13 17:57:06.88	135.03	17.73	
2025-01-13 17:57:07.09	135.01	17.75	
2025-01-13 17:57:07.29	134.99	17.78	
2025-01-13 17:57:07.50	134.97	17.80	
2025-01-13 17:57:07.70	134.96	17.83	
2025-01-13 17:57:07.90	134.94	17.85	
2025-01-13 17:57:08.11	134.92	17.88	
2025-01-13 17:57:08.31	134.90	17.91	
2025-01-13 17:57:08.52	134.89	17.93	
2025-01-13 17:57:08.73	134.87	17.96	
2025-01-13 17:57:08.93	134.85	17.99	
2025-01-13 17:57:09.13	134.83	18.01	
2025-01-13 17:57:09.34	134.81	18.04	
2025-01-13 17:57:09.55	134.80	18.06	
2025-01-13 17:57:09.75	134.78	18.09	
2025-01-13 17:57:09.96	134.76	18.12	
2025-01-13 17:57:10.16	134.74	18.14	
2025-01-13 17:57:10.37	134.72	18.17	
2025-01-13 17:57:10.58	134.71	18.20	
2025-01-13 17:57:10.78	134.69	18.22	
2025-01-13 17:57:10.98	134.67	18.25	
2025-01-13 17:57:11.19	134.65	18.27	
2025-01-13 17:57:11.39	134.63	18.30	
2025-01-13 17:57:11.60	134.62	18.33	
2025-01-13 17:57:11.81	134.60	18.35	
2025-01-13 17:57:12.01	134.58	18.38	
2025-01-13 17:57:12.22	134.56	18.41	
2025-01-13 17:57:12.42	134.54	18.43	
2025-01-13 17:57:12.63	134.52	18.46	
2025-01-13 17:57:12.83	134.51	18.49	
2025-01-13 17:57:13.04	134.49	18.51	
2025-01-13 17:57:13.25	134.47	18.54	
2025-01-13 17:57:13.46	134.45	18.57	
2025-01-13 17:57:13.67	134.43	18.60	
2025-01-13 17:57:13.87	134.41	18.62	
2025-01-13 17:57:14.08	134.39	18.65	
2025-01-13 17:57:14.28	134.37	18.68	
2025-01-13 17:57:14.49	134.35	18.70	
2025-01-13 17:57:14.69	134.34	18.73	
2025-01-13 17:57:14.90	134.32	18.76	
2025-01-13 17:57:15.10	134.30	18.78	
2025-01-13 17:57:15.31	134.28	18.81	
2025-01-13 17:57:15.51	134.26	18.84	
2025-01-13 17:57:15.72	134.24	18.87	
2025-01-13 17:57:15.92	134.22	18.89	
2025-01-13 17:57:16.13	134.20	18.92	
2025-01-13 17:57:16.33	134.19	18.95	
2025-01-13 17:57:16.54	134.17	18.97	
2025-01-13 17:57:16.75	134.15	19.00	
2025-01-13 17:57:16.96	134.13	19.03	
2025-01-13 17:57:17.16	134.11	19.06	
2025-01-13 17:57:17.37	134.09	19.08	
2025-01-13 17:57:17.57	134.07	19.11	
2025-01-13 17:57:17.78	134.05	19.14	
2025-01-13 17:57:17.98	134.03	19.17	
2025-01-13 17:57:18.19	134.01	19.19	
2025-01-13 17:57:18.39	133.99	19.22	
2025-01-13 17:57:18.61	133.97	19.25	
2025-01-13 17:57:18.82	133.95	19.28	
2025-01-13 17:57:19.02	133.93	19.30	
2025-01-13 17:57:19.23	133.91	19.33	
2025-01-13 17:57:19.43	133.89	19.36	
2025-01-13 17:57:19.65	133.87	19.39	
2025-01-13 17:57:19.86	133.85	19.42	
2025-01-13 17:57:20.06	133.83	19.44	
2025-01-13 17:57:20.27	133.81	19.47	
2025-01-13 17:57:20.47	133.79	19.50	
2025-01-13 17:57:20.69	133.77	19.53	
2025-01-13 17:57:20.90	133.75	19.56	
2025-01-13 17:57:21.10	133.73	19.58	
2025-01-13 17:57:21.31	133.71	19.61	
2025-01-13 17:57:21.52	133.69	19.64	
2025-01-13 17:57:21.72	133.67	19.67	
2025-01-13 17:57:21.92	133.65	19.70	
2025-01-13 17:57:22.13	133.63	19.72	
2025-01-13 17:57:22.33	133.61	19.75	
2025-01-13 17:57:22.54	133.59	19.78	
2025-01-13 17:57:22.74	133.57	19.81	
2025-01-13 17:57:22.95	133.55	19.84	
2025-01-13 17:57:23.15	133.53	19.86	
2025-01-13 17:57:23.36	133.51	19.89	
2025-01-13 17:57:23.57	133.49	19.92	
2025-01-13 17:57:23.77	133.47	19.95	
2025-01-13 17:57:23.97	133.45	19.98	
2025-01-13 17:57:24.18	133.43	20.01	
2025-01-13 17:57:24.39	133.41	20.04	
2025-01-13 17:57:24.59	133.39	20.06	
2025-01-13 17:57:24.80	133.37	20.09	
2025-01-13 17:57:25.02	133.34	20.12	
2025-01-13 17:57:25.22	133.32	20.15	
2025-01-13 17:57:25.43	133.30	20.18	
2025-01-13 17:57:25.63	133.28	20.21	
2025-01-13 17:57:25.84	133.26	20.24	
2025-01-13 17:57:26.04	133.24	20.26	
2025-01-13 17:57:26.25	133.22	20.29	
2025-01-13 17:57:26.46	133.20	20.32	
2025-01-13 17:57:26.66	133.18	20.35	
2025-01-13 17:57:26.87	133.16	20.38	
2025-01-13 17:57:27.08	133.13	20.41	
2025-01-13 17:57:27.29	133.11	20.44	
2025-01-13 17:57:27.50	133.09	20.47	
2025-01-13 17:57:27.70	133.07	20.50	
2025-01-13 17:57:27.91	133.05	20.53	
2025-01-13 17:57:28.11	133.03	20.55	
2025-01-13 17:57:28.32	133.00	20.58	
2025-01-13 17:57:28.52	132.98	20.61	
2025-01-13 17:57:28.73	132.96	20.64	
2025-01-13 17:57:28.93	132.94	20.67	
2025-01-13 17:57:29.14	132.92	20.70	
2025-01-13 17:57:29.34	132.90	20.73	
2025-01-13 17:57:29.55	132.88	20.76	
2025-01-13 17:57:29.75	132.85	20.79	
2025-01-13 17:57:29.96	132.83	20.82	
2025-01-13 17:57:30.16	132.81	20.84	
2025-01-13 17:57:30.38	132.79	20.88	
2025-01-13 17:57:30.59	132.77	20.91	
2025-01-13 17:57:30.79	132.74	20.93	
2025-01-13 17:57:31.00	132.72	20.96	
2025-01-13 17:57:31.20	132.70	20.99	
2025-01-13 17:57:31.40	132.68	21.02	
2025-01-13 17:57:31.61	132.66	21.05	
2025-01-13 17:57:31.82	132.63	21.08	
2025-01-13 17:57:32.02	132.61	21.11	
2025-01-13 17:57:32.23	132.59	21.14	
2025-01-13 17:57:32.43	132.57	21.17	
2025-01-13 17:57:32.64	132.54	21.20	
2025-01-13 17:57:32.84	132.52	21.23	
2025-01-13 17:57:33.05	132.50	21.26	
2025-01-13 17:57:33.25	132.48	21.29	
2025-01-13 17:57:33.46	132.46	21.32	
2025-01-13 17:57:33.66	132.43	21.35	
2025-01-13 17:57:33.87	132.41	21.38	
2025-01-13 17:57:34.07	132.39	21.41	
2025-01-13 17:57:34.28	132.36	21.44	
2025-01-13 17:57:34.48	132.34	21.47	
2025-01-13 17:57:34.69	132.32	21.50	
2025-01-13 17:57:34.89	132.30	21.53	
2025-01-13 17:57:35.10	132.27	21.56	
2025-01-13 17:57:35.31	132.25	21.59	
2025-01-13 17:57:35.51	132.23	21.62	
2025-01-13 17:57:35.72	132.20	21.65	
2025-01-13 17:57:35.92	132.18	21.68	
2025-01-13 17:57:36.13	132.16	21.71	
2025-01-13 17:57:36.33	132.14	21.74	
2025-01-13 17:57:36.54	132.11	21.77	
2025-01-13 17:57:36.75	132.09	21.80	
2025-01-13 17:57:36.96	132.06	21.83	
2025-01-13 17:57:37.17	132.04	21.86	
2025-01-13 17:57:37.37	132.02	21.89	
2025-01-13 17:57:37.58	131.99	21.92	
2025-01-13 17:57:37.80	131.97	21.96	
2025-01-13 17:57:38.00	131.95	21.99	
2025-01-13 17:57:38.21	131.92	22.02	
2025-01-13 17:57:38.41	131.90	22.05	
2025-01-13 17:57:38.62	131.87	22.08	
2025-01-13 17:57:38.84	131.85	22.11	
2025-01-13 17:57:39.04	131.82	22.14	
2025-01-13 17:57:39.25	131.80	22.17	
2025-01-13 17:57:39.46	131.78	22.20	
2025-01-13 17:57:39.66	131.75	22.23	
2025-01-13 17:57:39.86	131.73	22.26	
2025-01-13 17:57:40.07	131.70	22.30	
2025-01-13 17:57:40.28	131.68	22.33	
2025-01-13 17:57:40.48	131.66	22.36	
2025-01-13 17:57:40.69	131.63	22.39	
2025-01-13 17:57:40.89	131.61	22.42	
2025-01-13 17:57:41.10	131.58	22.45	
2025-01-13 17:57:41.31	131.56	22.48	
2025-01-13 17:57:41.51	131.53	22.51	
2025-01-13 17:57:41.72	131.51	22.54	
2025-01-13 17:57:41.92	131.49	22.58	
2025-01-13 17:57:42.13	131.46	22.61	
2025-01-13 17:57:42.33	131.44	22.64	
2025-01-13 17:57:42.54	131.41	22.67	
2025-01-13 17:57:42.74	131.39	22.70	
2025-01-13 17:57:42.95	131.36	22.73	
2025-01-13 17:57:43.15	131.34	22.76	
2025-01-13 17:57:43.36	131.31	22.80	
2025-01-13 17:57:43.56	131.29	22.83	
2025-01-13 17:57:43.77	131.26	22.86	
2025-01-13 17:57:43.97	131.24	22.89	
2025-01-13 17:57:44.18	131.21	22.92	
2025-01-13 17:57:44.38	131.19	22.95	
2025-01-13 17:57:44.59	131.16	22.98	
2025-01-13 17:57:44.79	131.14	23.02	
2025-01-13 17:57:45.00	131.11	23.05	
2025-01-13 17:57:45.20	131.09	23.08	
2025-01-13 17:57:45.41	131.06	23.11	
2025-01-13 17:57:45.61	131.03	23.14	
2025-01-13 17:57:45.82	131.01	23.17	
2025-01-13 17:57:46.02	130.98	23.21	
2025-01-13 17:57:46.24	130.96	23.24	
2025-01-13 17:57:46.44	130.93	23.27	
2025-01-13 17:57:46.65	130.90	23.30	
2025-01-13 17:57:46.86	130.88	23.34	
2025-01-13 17:57:47.06	130.85	23.37	
2025-01-13 17:57:47.26	130.83	23.40	
2025-01-13 17:57:47.47	130.80	23.43	
2025-01-13 17:57:47.67	130.78	23.46	
2025-01-13 17:57:47.88	130.75	23.50	
2025-01-13 17:57:48.09	130.72	23.53	
2025-01-13 17:57:48.29	130.70	23.56	
2025-01-13 17:57:48.50	130.67	23.59	
2025-01-13 17:57:48.70	130.64	23.63	
2025-01-13 17:57:48.91	130.62	23.66	
2025-01-13 17:57:49.11	130.59	23.69	
2025-01-13 17:57:49.32	130.56	23.72	
2025-01-13 17:57:49.52	130.54	23.76	
2025-01-13 17:57:49.73	130.51	23.79	
2025-01-13 17:57:49.93	130.48	23.82	
2025-01-13 17:57:50.14	130.46	23.85	
2025-01-13 17:57:50.34	130.43	23.89	
2025-01-13 17:57:50.56	130.40	23.92	
2025-01-13 17:57:50.77	130.37	23.95	
2025-01-13 17:57:50.98	130.35	23.99	
2025-01-13 17:57:51.18	130.32	24.02	
2025-01-13 17:57:51.39	130.29	24.05	
2025-01-13 17:57:51.59	130.27	24.09	
2025-01-13 17:57:51.79	130.24	24.12	
2025-01-13 17:57:52.00	130.21	24.15	
2025-01-13 17:57:52.20	130.19	24.18	
2025-01-13 17:57:52.41	130.16	24.22	
2025-01-13 17:57:52.61	130.13	24.25	
2025-01-13 17:57:52.82	130.10	24.28	
2025-01-13 17:57:53.03	130.07	24.32	
2025-01-13 17:57:53.23	130.05	24.35	
2025-01-13 17:57:53.43	130.02	24.38	
2025-01-13 17:57:53.64	129.99	24.42	
2025-01-13 17:57:53.84	129.96	24.45	
2025-01-13 17:57:54.05	129.94	24.48	
2025-01-13 17:57:54.25	129.91	24.52	
2025-01-13 17:57:54.46	129.88	24.55	
2025-01-13 17:57:54.67	129.85	24.58	
2025-01-13 17:57:54.88	129.82	24.62	
2025-01-13 17:57:55.09	129.79	24.65	
2025-01-13 17:57:55.30	129.76	24.69	
2025-01-13 17:57:55.50	129.74	24.72	
2025-01-13 17:57:55.71	129.71	24.75	
2025-01-13 17:57:55.91	129.68	24.79	
2025-01-13 17:57:56.12	129.65	24.82	
2025-01-13 17:57:56.32	129.62	24.86	
2025-01-13 17:57:56.53	129.59	24.89	
2025-01-13 17:57:56.73	129.57	24.92	
2025-01-13 17:57:56.95	129.53	24.96	
2025-01-13 17:57:57.16	129.50	24.99	
2025-01-13 17:57:57.36	129.48	25.03	
2025-01-13 17:57:57.57	129.45	25.06	
2025-01-13 17:57:57.77	129.42	25.10	
2025-01-13 17:57:57.98	129.39	25.13	
2025-01-13 17:57:58.18	129.36	25.16	
2025-01-13 17:57:58.39	129.33	25.20	
2025-01-13 17:57:58.60	129.30	25.23	
2025-01-13 17:57:58.80	129.27	25.27	
2025-01-13 17:57:59.01	129.24	25.30	
2025-01-13 17:57:59.21	129.21	25.34	
2025-01-13 17:57:59.42	129.18	25.37	
2025-01-13 17:57:59.62	129.15	25.40	
2025-01-13 17:57:59.83	129.12	25.44	
2025-01-13 17:58:00.03	129.09	25.47	
2025-01-13 17:58:00.24	129.06	25.51	
2025-01-13 17:58:00.44	129.03	25.54	
2025-01-13 17:58:00.65	129.00	25.58	
2025-01-13 17:58:00.86	128.97	25.61	
2025-01-13 17:58:01.06	128.94	25.65	
2025-01-13 17:58:01.27	128.91	25.68	
2025-01-13 17:58:01.47	128.88	25.72	
2025-01-13 17:58:01.68	128.85	25.75	
2025-01-13 17:58:01.88	128.82	25.79	
2025-01-13 17:58:02.09	128.79	25.82	
2025-01-13 17:58:02.29	128.76	25.86	
2025-01-13 17:58:02.50	128.73	25.89	
2025-01-13 17:58:02.70	128.70	25.93	
2025-01-13 17:58:02.91	128.67	25.96	
2025-01-13 17:58:03.11	128.64	26.00	
2025-01-13 17:58:03.32	128.60	26.03	
2025-01-13 17:58:03.52	128.57	26.07	
2025-01-13 17:58:03.73	128.54	26.10	
2025-01-13 17:58:03.94	128.51	26.14	
2025-01-13 17:58:04.14	128.48	26.17	
2025-01-13 17:58:04.35	128.45	26.21	
2025-01-13 17:58:04.55	128.42	26.24	
2025-01-13 17:58:04.76	128.39	26.28	
2025-01-13 17:58:04.96	128.35	26.31	
2025-01-13 17:58:05.17	128.32	26.35	
2025-01-13 17:58:05.38	128.29	26.39	
2025-01-13 17:58:05.58	128.26	26.42	
2025-01-13 17:58:05.79	128.23	26.46	
2025-01-13 17:58:05.99	128.20	26.49	
2025-01-13 17:58:06.19	128.16	26.53	
2025-01-13 17:58:06.40	128.13	26.57	
2025-01-13 17:58:06.62	128.10	26.60	
2025-01-13 17:58:06.82	128.07	26.64	
2025-01-13 17:58:07.03	128.03	26.68	
2025-01-13 17:58:07.23	128.00	26.71	
2025-01-13 17:58:07.44	127.97	26.75	
2025-01-13 17:58:07.64	127.94	26.78	
2025-01-13 17:58:07.85	127.90	26.82	
2025-01-13 17:58:08.06	127.87	26.86	
2025-01-13 17:58:08.26	127.84	26.89	
2025-01-13 17:58:08.47	127.80	26.93	
2025-01-13 17:58:08.67	127.77	26.96	
2025-01-13 17:58:08.88	127.74	27.00	
2025-01-13 17:58:09.08	127.70	27.04	
2025-01-13 17:58:09.29	127.67	27.07	
2025-01-13 17:58:09.49	127.64	27.11	
2025-01-13 17:58:09.70	127.60	27.15	
2025-01-13 17:58:09.90	127.57	27.18	
2025-01-13 17:58:10.11	127.54	27.22	
2025-01-13 17:58:10.31	127.50	27.25	
2025-01-13 17:58:10.52	127.47	27.29	
2025-01-13 17:58:10.73	127.44	27.33	
2025-01-13 17:58:10.93	127.40	27.37	
2025-01-13 17:58:11.14	127.37	27.40	
2025-01-13 17:58:11.34	127.33	27.44	
2025-01-13 17:58:11.55	127.30	27.48	
2025-01-13 17:58:11.75	127.27	27.51	
2025-01-13 17:58:11.97	127.23	27.55	
2025-01-13 17:58:12.17	127.20	27.59	
2025-01-13 17:58:12.38	127.16	27.63	
2025-01-13 17:58:12.59	127.13	27.66	
2025-01-13 17:58:12.79	127.09	27.70	
2025-01-13 17:58:12.99	127.06	27.74	
2025-01-13 17:58:13.19	127.02	27.77	
2025-01-13 17:58:13.40	126.99	27.81	
2025-01-13 17:58:13.60	126.95	27.85	
2025-01-13 17:58:13.80	126.92	27.88	
2025-01-13 17:58:14.01	126.88	27.92	
2025-01-13 17:58:14.21	126.85	27.96	
2025-01-13 17:58:14.42	126.81	28.00	
2025-01-13 17:58:14.62	126.78	28.03	
2025-01-13 17:58:14.83	126.74	28.07	
2025-01-13 17:58:15.03	126.71	28.11	
2025-01-13 17:58:15.23	126.67	28.14	
2025-01-13 17:58:15.44	126.64	28.18	
2025-01-13 17:58:15.64	126.60	28.22	
2025-01-13 17:58:15.85	126.57	28.26	
2025-01-13 17:58:16.05	126.53	28.29	
2025-01-13 17:58:16.26	126.49	28.33	
2025-01-13 17:58:16.46	126.46	28.37	
2025-01-13 17:58:16.67	126.42	28.41	
2025-01-13 17:58:16.87	126.39	28.45	
2025-01-13 17:58:17.08	126.35	28.49	
2025-01-13 17:58:17.28	126.31	28.52	
2025-01-13 17:58:17.49	126.28	28.56	
2025-01-13 17:58:17.69	126.24	28.60	
2025-01-13 17:58:17.90	126.20	28.64	
2025-01-13 17:58:18.10	126.17	28.67	
2025-01-13 17:58:18.31	126.13	28.71	
2025-01-13 17:58:18.52	126.09	28.75	
2025-01-13 17:58:18.72	126.05	28.79	
2025-01-13 17:58:18.93	126.02	28.83	
2025-01-13 17:58:19.13	125.98	28.87	
2025-01-13 17:58:19.34	125.94	28.91	
2025-01-13 17:58:19.54	125.91	28.94	
2025-01-13 17:58:19.75	125.87	28.98	
2025-01-13 17:58:19.95	125.83	29.02	
2025-01-13 17:58:20.15	125.79	29.06	
2025-01-13 17:58:20.37	125.75	29.10	
2025-01-13 17:58:20.58	125.71	29.14	
2025-01-13 17:58:20.78	125.68	29.18	
2025-01-13 17:58:20.99	125.64	29.22	
2025-01-13 17:58:21.20	125.60	29.26	
2025-01-13 17:58:21.40	125.56	29.29	
2025-01-13 17:58:21.60	125.52	29.33	
2025-01-13 17:58:21.81	125.48	29.37	
2025-01-13 17:58:22.02	125.44	29.41	
2025-01-13 17:58:22.22	125.41	29.45	
2025-01-13 17:58:22.42	125.37	29.49	
2025-01-13 17:58:22.63	125.33	29.53	
2025-01-13 17:58:22.83	125.29	29.57	
2025-01-13 17:58:23.04	125.25	29.61	
2025-01-13 17:58:23.25	125.21	29.65	
2025-01-13 17:58:23.45	125.17	29.69	
2025-01-13 17:58:23.66	125.13	29.73	
2025-01-13 17:58:23.86	125.09	29.76	
2025-01-13 17:58:24.07	125.05	29.80	
2025-01-13 17:58:24.27	125.01	29.84	
2025-01-13 17:58:24.48	124.97	29.88	
2025-01-13 17:58:24.68	124.93	29.92	
2025-01-13 17:58:24.89	124.89	29.96	
2025-01-13 17:58:25.09	124.85	30.00	
2025-01-13 17:58:25.30	124.81	30.04	
2025-01-13 17:58:25.50	124.77	30.08	
2025-01-13 17:58:25.71	124.73	30.12	
2025-01-13 17:58:25.91	124.69	30.16	
2025-01-13 17:58:26.12	124.65	30.20	
2025-01-13 17:58:26.32	124.61	30.24	
2025-01-13 17:58:26.53	124.57	30.28	
2025-01-13 17:58:26.73	124.53	30.32	
2025-01-13 17:58:26.94	124.49	30.36	
2025-01-13 17:58:27.14	124.45	30.40	
2025-01-13 17:58:27.35	124.40	30.44	
2025-01-13 17:58:27.55	124.36	30.48	
2025-01-13 17:58:27.76	124.32	30.52	
2025-01-13 17:58:27.96	124.28	30.56	
2025-01-13 17:58:28.17	124.24	30.60	
2025-01-13 17:58:28.37	124.20	30.64	
2025-01-13 17:58:28.58	124.15	30.68	
2025-01-13 17:58:28.78	124.11	30.72	
2025-01-13 17:58:29.00	124.07	30.76	
2025-01-13 17:58:29.21	124.02	30.81	
2025-01-13 17:58:29.41	123.98	30.85	
2025-01-13 17:58:29.62	123.94	30.89	
2025-01-13 17:58:29.83	123.90	30.93	
2025-01-13 17:58:30.03	123.85	30.97	
2025-01-13 17:58:30.23	123.81	31.01	
2025-01-13 17:58:30.44	123.77	31.05	
2025-01-13 17:58:30.64	123.73	31.09	
2025-01-13 17:58:30.85	123.68	31.13	
2025-01-13 17:58:31.05	123.64	31.17	
2025-01-13 17:58:31.26	123.60	31.21	
2025-01-13 17:58:31.47	123.55	31.26	
2025-01-13 17:58:31.67	123.51	31.30	
2025-01-13 17:58:31.88	123.46	31.34	
2025-01-13 17:58:32.08	123.42	31.38	
2025-01-13 17:58:32.29	123.38	31.42	
2025-01-13 17:58:32.49	123.33	31.46	
2025-01-13 17:58:32.69	123.29	31.50	
2025-01-13 17:58:32.90	123.24	31.54	
2025-01-13 17:58:33.10	123.20	31.58	
2025-01-13 17:58:33.31	123.15	31.62	
2025-01-13 17:58:33.52	123.11	31.67	
2025-01-13 17:58:33.72	123.07	31.71	
2025-01-13 17:58:33.93	123.02	31.75	
2025-01-13 17:58:34.13	122.98	31.79	
2025-01-13 17:58:34.34	122.93	31.83	
2025-01-13 17:58:34.54	122.88	31.87	
2025-01-13 17:58:34.75	122.84	31.92	
2025-01-13 17:58:34.95	122.79	31.96	
2025-01-13 17:58:35.16	122.75	32.00	
2025-01-13 17:58:35.36	122.70	32.04	
2025-01-13 17:58:35.57	122.66	32.08	
2025-01-13 17:58:35.77	122.61	32.12	
2025-01-13 17:58:35.98	122.56	32.17	
2025-01-13 17:58:36.18	122.52	32.21	
2025-01-13 17:58:36.39	122.47	32.25	
2025-01-13 17:58:36.59	122.43	32.29	
2025-01-13 17:58:36.80	122.38	32.33	
2025-01-13 17:58:37.01	122.33	32.38	
2025-01-13 17:58:37.22	122.28	32.42	
2025-01-13 17:58:37.42	122.24	32.46	
2025-01-13 17:58:37.63	122.19	32.51	
2025-01-13 17:58:37.84	122.14	32.55	
2025-01-13 17:58:38.04	122.09	32.59	
2025-01-13 17:58:38.25	122.04	32.63	
2025-01-13 17:58:38.45	122.00	32.67	
2025-01-13 17:58:38.66	121.95	32.72	
2025-01-13 17:58:38.86	121.90	32.76	
2025-01-13 17:58:39.07	121.85	32.80	
2025-01-13 17:58:39.28	121.80	32.85	
2025-01-13 17:58:39.48	121.76	32.89	
2025-01-13 17:58:39.69	121.71	32.93	
2025-01-13 17:58:39.89	121.66	32.97	
2025-01-13 17:58:40.10	121.61	33.02	
2025-01-13 17:58:40.30	121.56	33.06	
2025-01-13 17:58:40.51	121.51	33.10	
2025-01-13 17:58:40.72	121.46	33.15	
2025-01-13 17:58:40.93	121.41	33.19	
2025-01-13 17:58:41.14	121.36	33.23	
2025-01-13 17:58:41.34	121.31	33.28	
2025-01-13 17:58:41.55	121.26	33.32	
2025-01-13 17:58:41.75	121.21	33.36	
2025-01-13 17:58:41.96	121.16	33.41	
2025-01-13 17:58:42.16	121.11	33.45	
2025-01-13 17:58:42.37	121.06	33.49	
2025-01-13 17:58:42.57	121.01	33.54	
2025-01-13 17:58:42.78	120.96	33.58	
2025-01-13 17:58:42.98	120.91	33.62	
2025-01-13 17:58:43.19	120.86	33.67	
2025-01-13 17:58:43.39	120.81	33.71	
2025-01-13 17:58:43.60	120.76	33.75	
2025-01-13 17:58:43.80	120.71	33.80	
2025-01-13 17:58:44.01	120.65	33.84	
2025-01-13 17:58:44.21	120.60	33.88	
2025-01-13 17:58:44.42	120.55	33.93	
2025-01-13 17:58:44.62	120.50	33.97	
2025-01-13 17:58:44.83	120.45	34.01	
2025-01-13 17:58:45.05	120.39	34.06	
2025-01-13 17:58:45.25	120.34	34.10	
2025-01-13 17:58:45.46	120.29	34.15	
2025-01-13 17:58:45.67	120.23	34.19	
2025-01-13 17:58:45.87	120.18	34.24	
2025-01-13 17:58:46.07	120.13	34.28	
2025-01-13 17:58:46.28	120.08	34.32	
2025-01-13 17:58:46.49	120.02	34.37	
2025-01-13 17:58:46.69	119.97	34.41	
2025-01-13 17:58:46.90	119.91	34.46	
2025-01-13 17:58:47.10	119.86	34.50	
2025-01-13 17:58:47.31	119.81	34.54	
2025-01-13 17:58:47.51	119.76	34.59	
2025-01-13 17:58:47.72	119.70	34.63	
2025-01-13 17:58:47.93	119.64	34.68	
2025-01-13 17:58:48.13	119.59	34.72	
2025-01-13 17:58:48.34	119.54	34.77	
2025-01-13 17:58:48.54	119.48	34.81	
2025-01-13 17:58:48.75	119.43	34.86	
2025-01-13 17:58:48.95	119.37	34.90	
2025-01-13 17:58:49.16	119.32	34.94	
2025-01-13 17:58:49.36	119.26	34.99	
2025-01-13 17:58:49.57	119.21	35.03	
2025-01-13 17:58:49.77	119.15	35.08	
2025-01-13 17:58:49.98	119.09	35.12	
2025-01-13 17:58:50.18	119.04	35.17	
2025-01-13 17:58:50.39	118.98	35.21	
2025-01-13 17:58:50.59	118.93	35.26	
2025-01-13 17:58:50.80	118.87	35.30	
2025-01-13 17:58:51.00	118.82	35.35	
2025-01-13 17:58:51.21	118.76	35.39	
2025-01-13 17:58:51.43	118.70	35.44	
2025-01-13 17:58:51.63	118.64	35.48	
2025-01-13 17:58:51.84	118.58	35.53	
2025-01-13 17:58:52.04	118.53	35.57	
2025-01-13 17:58:52.25	118.47	35.62	
2025-01-13 17:58:52.45	118.41	35.66	
2025-01-13 17:58:52.66	118.35	35.71	
2025-01-13 17:58:52.87	118.29	35.76	
2025-01-13 17:58:53.07	118.24	35.80	
2025-01-13 17:58:53.28	118.18	35.85	
2025-01-13 17:58:53.48	118.12	35.89	
2025-01-13 17:58:53.68	118.06	35.93	
2025-01-13 17:58:53.89	118.00	35.98	
2025-01-13 17:58:54.09	117.94	36.02	
2025-01-13 17:58:54.30	117.88	36.07	
2025-01-13 17:58:54.50	117.83	36.11	
2025-01-13 17:58:54.71	117.76	36.16	
2025-01-13 17:58:54.91	117.71	36.21	
2025-01-13 17:58:55.12	117.65	36.25	
2025-01-13 17:58:55.32	117.59	36.30	
2025-01-13 17:58:55.53	117.53	36.34	
2025-01-13 17:58:55.73	117.47	36.39	
2025-01-13 17:58:55.94	117.40	36.43	
2025-01-13 17:58:56.14	117.35	36.48	
2025-01-13 17:58:56.35	117.28	36.53	
2025-01-13 17:58:56.55	117.22	36.57	
2025-01-13 17:58:56.77	117.16	36.62	
2025-01-13 17:58:56.98	117.09	36.67	
2025-01-13 17:58:57.18	117.03	36.71	
2025-01-13 17:58:57.39	116.97	36.76	
2025-01-13 17:58:57.59	116.91	36.80	
2025-01-13 17:58:57.80	116.85	36.85	
2025-01-13 17:58:58.00	116.79	36.89	
2025-01-13 17:58:58.21	116.72	36.94	
2025-01-13 17:58:58.42	116.66	36.99	
2025-01-13 17:58:58.62	116.60	37.03	
2025-01-13 17:58:58.82	116.54	37.08	
2025-01-13 17:58:59.03	116.47	37.12	
2025-01-13 17:58:59.24	116.41	37.17	
2025-01-13 17:58:59.44	116.34	37.22	
2025-01-13 17:58:59.65	116.28	37.26	
2025-01-13 17:58:59.85	116.22	37.31	
2025-01-13 17:59:00.06	116.15	37.36	
2025-01-13 17:59:00.26	116.09	37.40	
2025-01-13 17:59:00.46	116.03	37.45	
2025-01-13 17:59:00.67	115.96	37.49	
2025-01-13 17:59:00.88	115.89	37.54	
2025-01-13 17:59:01.08	115.83	37.59	
2025-01-13 17:59:01.29	115.76	37.63	
2025-01-13 17:59:01.49	115.70	37.68	
2025-01-13 17:59:01.69	115.63	37.72	
2025-01-13 17:59:01.90	115.57	37.77	
2025-01-13 17:59:02.10	115.50	37.82	
2025-01-13 17:59:02.30	115.44	37.86	
2025-01-13 17:59:02.51	115.37	37.91	
2025-01-13 17:59:02.72	115.30	37.96	
2025-01-13 17:59:02.92	115.24	38.00	
2025-01-13 17:59:03.13	115.17	38.05	
2025-01-13 17:59:03.33	115.10	38.10	
2025-01-13 17:59:03.54	115.03	38.14	
2025-01-13 17:59:03.74	114.97	38.19	
2025-01-13 17:59:03.95	114.90	38.24	
2025-01-13 17:59:04.15	114.83	38.28	
2025-01-13 17:59:04.36	114.76	38.33	
2025-01-13 17:59:04.56	114.70	38.38	
2025-01-13 17:59:04.77	114.62	38.42	
2025-01-13 17:59:04.97	114.56	38.47	
2025-01-13 17:59:05.18	114.49	38.52	
2025-01-13 17:59:05.38	114.42	38.56	
2025-01-13 17:59:05.59	114.35	38.61	
2025-01-13 17:59:05.80	114.28	38.66	
2025-01-13 17:59:06.00	114.21	38.71	
2025-01-13 17:59:06.21	114.14	38.75	
2025-01-13 17:59:06.43	114.06	38.80	
2025-01-13 17:59:06.63	113.99	38.85	
2025-01-13 17:59:06.84	113.92	38.90	
2025-01-13 17:59:07.04	113.85	38.94	
2025-01-13 17:59:07.25	113.78	38.99	
2025-01-13 17:59:07.45	113.71	39.04	
2025-01-13 17:59:07.66	113.64	39.09	
2025-01-13 17:59:07.87	113.56	39.13	
2025-01-13 17:59:08.07	113.49	39.18	
2025-01-13 17:59:08.28	113.42	39.23	
2025-01-13 17:59:08.48	113.35	39.27	
2025-01-13 17:59:08.69	113.27	39.32	
2025-01-13 17:59:08.89	113.20	39.37	
2025-01-13 17:59:09.10	113.13	39.42	
2025-01-13 17:59:09.30	113.06	39.46	
2025-01-13 17:59:09.50	112.98	39.51	
2025-01-13 17:59:09.71	112.91	39.56	
2025-01-13 17:59:09.92	112.83	39.60	
2025-01-13 17:59:10.12	112.76	39.65	
2025-01-13 17:59:10.33	112.69	39.70	
2025-01-13 17:59:10.53	112.61	39.75	
2025-01-13 17:59:10.74	112.54	39.79	
2025-01-13 17:59:10.94	112.46	39.84	
2025-01-13 17:59:11.15	112.39	39.89	
2025-01-13 17:59:11.35	112.31	39.93	
2025-01-13 17:59:11.56	112.23	39.98	
2025-01-13 17:59:11.78	112.15	40.03	
2025-01-13 17:59:11.98	112.08	40.08	
2025-01-13 17:59:12.19	112.00	40.13	
2025-01-13 17:59:12.39	111.93	40.17	
2025-01-13 17:59:12.60	111.85	40.22	
2025-01-13 17:59:12.80	111.77	40.27	
2025-01-13 17:59:13.01	111.69	40.32	
2025-01-13 17:59:13.21	111.62	40.36	
2025-01-13 17:59:13.42	111.54	40.41	
2025-01-13 17:59:13.63	111.46	40.46	
2025-01-13 17:59:13.83	111.38	40.51	
2025-01-13 17:59:14.04	111.30	40.56	
2025-01-13 17:59:14.24	111.22	40.60	
2025-01-13 17:59:14.45	111.14	40.65	
2025-01-13 17:59:14.65	111.07	40.70	
2025-01-13 17:59:14.86	110.99	40.75	
2025-01-13 17:59:15.06	110.91	40.79	
2025-01-13 17:59:15.27	110.83	40.84	
2025-01-13 17:59:15.48	110.74	40.89	
2025-01-13 17:59:15.68	110.67	40.93	
2025-01-13 17:59:15.88	110.59	40.98	
2025-01-13 17:59:16.09	110.50	41.03	
2025-01-13 17:59:16.29	110.42	41.08	
2025-01-13 17:59:16.50	110.34	41.12	
2025-01-13 17:59:16.71	110.26	41.17	
2025-01-13 17:59:16.91	110.18	41.22	
2025-01-13 17:59:17.12	110.09	41.27	
2025-01-13 17:59:17.32	110.01	41.31	
2025-01-13 17:59:17.53	109.93	41.36	
2025-01-13 17:59:17.73	109.85	41.41	
2025-01-13 17:59:17.94	109.76	41.46	
2025-01-13 17:59:18.14	109.68	41.50	
2025-01-13 17:59:18.35	109.60	41.55	
2025-01-13 17:59:18.55	109.51	41.60	
2025-01-13 17:59:18.76	109.43	41.65	
2025-01-13 17:59:18.97	109.34	41.70	
2025-01-13 17:59:19.17	109.26	41.74	
2025-01-13 17:59:19.37	109.18	41.79	
2025-01-13 17:59:19.58	109.09	41.84	
2025-01-13 17:59:19.79	109.00	41.89	
2025-01-13 17:59:19.99	108.92	41.93	
2025-01-13 17:59:20.20	108.83	41.98	
2025-01-13 17:59:20.40	108.75	42.03	
2025-01-13 17:59:20.61	108.66	42.07	
2025-01-13 17:59:20.81	108.57	42.12	
2025-01-13 17:59:21.02	108.49	42.17	
2025-01-13 17:59:21.22	108.40	42.22	
2025-01-13 17:59:21.43	108.31	42.26	
2025-01-13 17:59:21.63	108.23	42.31	
2025-01-13 17:59:21.84	108.14	42.36	
2025-01-13 17:59:22.04	108.05	42.40	
2025-01-13 17:59:22.25	107.96	42.45	
2025-01-13 17:59:22.45	107.87	42.50	
2025-01-13 17:59:22.66	107.78	42.55	
2025-01-13 17:59:22.86	107.69	42.59	
2025-01-13 17:59:23.07	107.60	42.64	
2025-01-13 17:59:23.27	107.51	42.69	
2025-01-13 17:59:23.47	107.43	42.73	
2025-01-13 17:59:23.68	107.33	42.78	
2025-01-13 17:59:23.89	107.24	42.83	
2025-01-13 17:59:24.09	107.15	42.88	
2025-01-13 17:59:24.30	107.06	42.93	
2025-01-13 17:59:24.50	106.97	42.97	
2025-01-13 17:59:24.71	106.88	43.02	
2025-01-13 17:59:24.91	106.79	43.07	
2025-01-13 17:59:25.12	106.69	43.11	
2025-01-13 17:59:25.32	106.60	43.16	
2025-01-13 17:59:25.53	106.51	43.21	
2025-01-13 17:59:25.73	106.42	43.25	
2025-01-13 17:59:25.94	106.32	43.30	
2025-01-13 17:59:26.14	106.23	43.35	
2025-01-13 17:59:26.35	106.13	43.39	
2025-01-13 17:59:26.56	106.04	43.44	
2025-01-13 17:59:26.77	105.94	43.49	
2025-01-13 17:59:26.98	105.84	43.54	
2025-01-13 17:59:27.19	105.75	43.59	
2025-01-13 17:59:27.39	105.65	43.63	
2025-01-13 17:59:27.60	105.55	43.68	
2025-01-13 17:59:27.80	105.46	43.73	
2025-01-13 17:59:28.01	105.36	43.77	
2025-01-13 17:59:28.21	105.27	43.82	
2025-01-13 17:59:28.42	105.17	43.87	
2025-01-13 17:59:28.62	105.07	43.91	
2025-01-13 17:59:28.83	104.97	43.96	
2025-01-13 17:59:29.03	104.88	44.01	
2025-01-13 17:59:29.24	104.78	44.05	
2025-01-13 17:59:29.45	104.68	44.10	
2025-01-13 17:59:29.65	104.58	44.15	
2025-01-13 17:59:29.87	104.48	44.20	
2025-01-13 17:59:30.08	104.38	44.24	
2025-01-13 17:59:30.28	104.28	44.29	
2025-01-13 17:59:30.48	104.18	44.33	
2025-01-13 17:59:30.69	104.08	44.38	
2025-01-13 17:59:30.89	103.98	44.43	
2025-01-13 17:59:31.10	103.88	44.47	
2025-01-13 17:59:31.30	103.78	44.52	
2025-01-13 17:59:31.51	103.68	44.56	
2025-01-13 17:59:31.71	103.58	44.61	
2025-01-13 17:59:31.92	103.47	44.66	
2025-01-13 17:59:32.12	103.37	44.70	
2025-01-13 17:59:32.33	103.27	44.75	
2025-01-13 17:59:32.53	103.17	44.79	
2025-01-13 17:59:32.74	103.06	44.84	
2025-01-13 17:59:32.94	102.96	44.88	
2025-01-13 17:59:33.15	102.86	44.93	
2025-01-13 17:59:33.36	102.75	44.98	
2025-01-13 17:59:33.56	102.65	45.02	
2025-01-13 17:59:33.77	102.54	45.07	
2025-01-13 17:59:33.97	102.44	45.11	
2025-01-13 17:59:34.18	102.33	45.16	
2025-01-13 17:59:34.38	102.23	45.20	
2025-01-13 17:59:34.59	102.12	45.25	
2025-01-13 17:59:34.79	102.02	45.29	
2025-01-13 17:59:35.00	101.91	45.34	
2025-01-13 17:59:35.22	101.79	45.39	
2025-01-13 17:59:35.43	101.68	45.44	
2025-01-13 17:59:35.63	101.58	45.48	
2025-01-13 17:59:35.84	101.47	45.53	
2025-01-13 17:59:36.04	101.36	45.57	
2025-01-13 17:59:36.25	101.25	45.62	
2025-01-13 17:59:36.45	101.15	45.66	
2025-01-13 17:59:36.66	101.03	45.70	
2025-01-13 17:59:36.86	100.93	45.75	
2025-01-13 17:59:37.07	100.82	45.79	
2025-01-13 17:59:37.27	100.71	45.84	
2025-01-13 17:59:37.48	100.60	45.88	
2025-01-13 17:59:37.69	100.48	45.93	
2025-01-13 17:59:37.89	100.38	45.97	
2025-01-13 17:59:38.10	100.26	46.02	
2025-01-13 17:59:38.30	100.15	46.06	
2025-01-13 17:59:38.51	100.04	46.11	
2025-01-13 17:59:38.71	99.93	46.15	
2025-01-13 17:59:38.92	99.81	46.19	
2025-01-13 17:59:39.12	99.70	46.24	
2025-01-13 17:59:39.33	99.59	46.28	
2025-01-13 17:59:39.53	99.48	46.32	
2025-01-13 17:59:39.74	99.36	46.37	
2025-01-13 17:59:39.94	99.25	46.41	
2025-01-13 17:59:40.14	99.14	46.45	
2025-01-13 17:59:40.35	99.02	46.50	
2025-01-13 17:59:40.56	98.90	46.54	
2025-01-13 17:59:40.76	98.79	46.59	
2025-01-13 17:59:40.97	98.67	46.63	
2025-01-13 17:59:41.17	98.56	46.67	
2025-01-13 17:59:41.38	98.44	46.72	
2025-01-13 17:59:41.58	98.33	46.76	
2025-01-13 17:59:41.79	98.21	46.80	
2025-01-13 17:59:42.00	98.09	46.85	
2025-01-13 17:59:42.20	97.97	46.89	
2025-01-13 17:59:42.42	97.85	46.93	
2025-01-13 17:59:42.62	97.73	46.97	
2025-01-13 17:59:42.83	97.61	47.02	
2025-01-13 17:59:43.03	97.49	47.06	
2025-01-13 17:59:43.24	97.37	47.10	
2025-01-13 17:59:43.44	97.26	47.14	
2025-01-13 17:59:43.65	97.13	47.19	
2025-01-13 17:59:43.85	97.02	47.23	
2025-01-13 17:59:44.06	96.89	47.27	
2025-01-13 17:59:44.26	96.77	47.31	
2025-01-13 17:59:44.47	96.65	47.35	
2025-01-13 17:59:44.68	96.53	47.40	
2025-01-13 17:59:44.88	96.41	47.44	
2025-01-13 17:59:45.09	96.28	47.48	
2025-01-13 17:59:45.29	96.16	47.52	
2025-01-13 17:59:45.50	96.04	47.56	
2025-01-13 17:59:45.70	95.92	47.60	
2025-01-13 17:59:45.92	95.78	47.65	
2025-01-13 17:59:46.13	95.66	47.69	
2025-01-13 17:59:46.33	95.54	47.73	
2025-01-13 17:59:46.54	95.41	47.77	
2025-01-13 17:59:46.74	95.29	47.81	
2025-01-13 17:59:46.94	95.17	47.85	
2025-01-13 17:59:47.15	95.04	47.89	
2025-01-13 17:59:47.35	94.91	47.93	
2025-01-13 17:59:47.56	94.79	47.97	
2025-01-13 17:59:47.77	94.66	48.01	
2025-01-13 17:59:47.97	94.53	48.05	
2025-01-13 17:59:48.18	94.40	48.09	
2025-01-13 17:59:48.38	94.28	48.13	
2025-01-13 17:59:48.59	94.15	48.17	
2025-01-13 17:59:48.79	94.02	48.21	
2025-01-13 17:59:49.00	93.89	48.25	
2025-01-13 17:59:49.20	93.76	48.29	
2025-01-13 17:59:49.41	93.63	48.33	
2025-01-13 17:59:49.61	93.51	48.37	
2025-01-13 17:59:49.82	93.37	48.41	
2025-01-13 17:59:50.02	93.25	48.45	
2025-01-13 17:59:50.23	93.11	48.48	
2025-01-13 17:59:50.43	92.99	48.52	
2025-01-13 17:59:50.64	92.85	48.56	
2025-01-13 17:59:50.85	92.72	48.60	
2025-01-13 17:59:51.05	92.59	48.64	
2025-01-13 17:59:51.25	92.46	48.68	
2025-01-13 17:59:51.46	92.32	48.71	
2025-01-13 17:59:51.66	92.19	48.75	
2025-01-13 17:59:51.87	92.06	48.79	
2025-01-13 17:59:52.07	91.93	48.83	
2025-01-13 17:59:52.28	91.79	48.86	
2025-01-13 17:59:52.48	91.66	48.90	
2025-01-13 17:59:52.69	91.52	48.94	
2025-01-13 17:59:52.90	91.38	48.98	
2025-01-13 17:59:53.10	91.25	49.01	
2025-01-13 17:59:53.31	91.11	49.05	
2025-01-13 17:59:53.51	90.98	49.09	
2025-01-13 17:59:53.71	90.85	49.12	
2025-01-13 17:59:53.92	90.71	49.16	
2025-01-13 17:59:54.12	90.58	49.19	
2025-01-13 17:59:54.33	90.44	49.23	
2025-01-13 17:59:54.54	90.30	49.27	
2025-01-13 17:59:54.74	90.16	49.30	
2025-01-13 17:59:54.95	90.02	49.34	
2025-01-13 17:59:55.15	89.88	49.37	
2025-01-13 17:59:55.35	89.75	49.41	
2025-01-13 17:59:55.56	89.61	49.44	
2025-01-13 17:59:55.76	89.47	49.48	
2025-01-13 17:59:55.97	89.33	49.51	
2025-01-13 17:59:56.17	89.19	49.55	
2025-01-13 17:59:56.38	89.05	49.58	
2025-01-13 17:59:56.58	88.91	49.62	
2025-01-13 17:59:56.79	88.77	49.65	
2025-01-13 17:59:57.00	88.62	49.69	
2025-01-13 17:59:57.20	88.48	49.72	
2025-01-13 17:59:57.41	88.34	49.75	
2025-01-13 17:59:57.61	88.20	49.79	
2025-01-13 17:59:57.82	88.05	49.82	
2025-01-13 17:59:58.02	87.92	49.85	
2025-01-13 17:59:58.23	87.77	49.89	
2025-01-13 17:59:58.43	87.63	49.92	
2025-01-13 17:59:58.65	87.47	49.95	
2025-01-13 17:59:58.85	87.33	49.99	
2025-01-13 17:59:59.06	87.19	50.02	
2025-01-13 17:59:59.26	87.04	50.05	
2025-01-13 17:59:59.47	86.90	50.08	
2025-01-13 17:59:59.68	86.75	50.12	
2025-01-13 17:59:59.88	86.61	50.15	
2025-01-13 18:00:00.08	86.46	50.18	
2025-01-13 18:00:00.29	86.31	50.21	
2025-01-13 18:00:00.49	86.17	50.24	
2025-01-13 18:00:00.70	86.02	50.27	
2025-01-13 18:00:00.90	85.88	50.30	
2025-01-13 18:00:01.11	85.73	50.33	
2025-01-13 18:00:01.32	85.57	50.37	
2025-01-13 18:00:01.52	85.43	50.39	
2025-01-13 18:00:01.73	85.28	50.43	
2025-01-13 18:00:01.93	85.13	50.45	
2025-01-13 18:00:02.14	84.98	50.49	
2025-01-13 18:00:02.34	84.84	50.51	
2025-01-13 18:00:02.55	84.68	50.54	
2025-01-13 18:00:02.75	84.54	50.57	
2025-01-13 18:00:02.96	84.38	50.60	
2025-01-13 18:00:03.16	84.24	50.63	
2025-01-13 18:00:03.37	84.08	50.66	
2025-01-13 18:00:03.57	83.93	50.69	
2025-01-13 18:00:03.78	83.78	50.72	
2025-01-13 18:00:03.98	83.63	50.74	
2025-01-13 18:00:04.19	83.48	50.77	
2025-01-13 18:00:04.39	83.33	50.80	
2025-01-13 18:00:04.60	83.17	50.83	
2025-01-13 18:00:04.80	83.02	50.85	
2025-01-13 18:00:05.01	82.87	50.88	
2025-01-13 18:00:05.21	82.72	50.91	
2025-01-13 18:00:05.42	82.56	50.94	
2025-01-13 18:00:05.62	82.41	50.96	
2025-01-13 18:00:05.83	82.25	50.99	
2025-01-13 18:00:06.03	82.10	51.01	
2025-01-13 18:00:06.24	81.94	51.04	
2025-01-13 18:00:06.45	81.78	51.07	
2025-01-13 18:00:06.65	81.63	51.09	
2025-01-13 18:00:06.86	81.47	51.12	
2025-01-13 18:00:07.06	81.32	51.14	
2025-01-13 18:00:07.27	81.16	51.17	
2025-01-13 18:00:07.47	81.01	51.19	
2025-01-13 18:00:07.68	80.85	51.22	
2025-01-13 18:00:07.89	80.69	51.24	
2025-01-13 18:00:08.09	80.54	51.26	
2025-01-13 18:00:08.30	80.37	51.29	
2025-01-13 18:00:08.50	80.22	51.31	
2025-01-13 18:00:08.71	80.06	51.34	
2025-01-13 18:00:08.91	79.91	51.36	
2025-01-13 18:00:09.12	79.74	51.38	
2025-01-13 18:00:09.32	79.59	51.40	
2025-01-13 18:00:09.53	79.43	51.43	
2025-01-13 18:00:09.73	79.27	51.45	
2025-01-13 18:00:09.94	79.11	51.47	
2025-01-13 18:00:10.14	78.95	51.49	
2025-01-13 18:00:10.35	78.79	51.52	
2025-01-13 18:00:10.56	78.63	51.54	
2025-01-13 18:00:10.76	78.47	51.56	
2025-01-13 18:00:10.97	78.30	51.58	
2025-01-13 18:00:11.17	78.15	51.60	
2025-01-13 18:00:11.37	77.99	51.62	
2025-01-13 18:00:11.58	77.83	51.64	
2025-01-13 18:00:11.79	77.66	51.66	
2025-01-13 18:00:11.99	77.50	51.68	
2025-01-13 18:00:12.20	77.34	51.70	
2025-01-13 18:00:12.40	77.18	51.72	
2025-01-13 18:00:12.61	77.01	51.74	
2025-01-13 18:00:12.82	76.85	51.76	
2025-01-13 18:00:13.02	76.69	51.78	
2025-01-13 18:00:13.23	76.52	51.80	
2025-01-13 18:00:13.43	76.36	51.81	
2025-01-13 18:00:13.63	76.20	51.83	
2025-01-13 18:00:13.84	76.04	51.85	
2025-01-13 18:00:14.04	75.88	51.87	
2025-01-13 18:00:14.25	75.71	51.88	
2025-01-13 18:00:14.46	75.54	51.90	
2025-01-13 18:00:14.66	75.38	51.92	
