passes_logs/2025/01/13/SPB_Silybum_02/SPB_Silybum_02__20250113_113400_TERRA_rec.log

#Pass ID: 20250113_113400_TERRA
#Satellite: TERRA
#Configuration: TERRA
#Start time: 2025-01-13 11:34:00

#Version: 2.0.20230423
#Station: SPB_Silybum_02
#Location: 30.233357 lon 59.946436 lat
#TLE: 1 25994U 99068A   25012.80475962  .00000761  00000+0  16654-3 0  9990
#TLE: 2 25994  98.0220  75.9049 0003508  77.1547  57.1006 14.60390868333758

#Time	Az	El	Level	Level2	SNR	BER	Gain	Gain2
2025-01-13 11:34:02.16	4.70	4.07	
2025-01-13 11:34:02.36	4.67	4.08	
2025-01-13 11:34:02.56	4.64	4.09	
2025-01-13 11:34:02.77	4.61	4.10	
2025-01-13 11:34:02.98	4.58	4.11	
2025-01-13 11:34:03.18	4.56	4.11	
2025-01-13 11:34:03.40	4.53	4.12	
2025-01-13 11:34:03.61	4.50	4.13	
2025-01-13 11:34:03.81	4.47	4.14	
2025-01-13 11:34:04.02	4.44	4.15	
2025-01-13 11:34:04.22	4.41	4.15	
2025-01-13 11:34:04.43	4.39	4.16	
2025-01-13 11:34:04.63	4.36	4.17	
2025-01-13 11:34:04.85	4.33	4.18	
2025-01-13 11:34:05.05	4.30	4.19	
2025-01-13 11:34:05.26	4.27	4.20	
2025-01-13 11:34:05.46	4.24	4.20	
2025-01-13 11:34:05.67	4.21	4.21	
2025-01-13 11:34:05.88	4.19	4.22	
2025-01-13 11:34:06.08	4.16	4.23	
2025-01-13 11:34:06.29	4.13	4.24	
2025-01-13 11:34:06.49	4.10	4.24	
2025-01-13 11:34:06.70	4.07	4.25	
2025-01-13 11:34:06.90	4.04	4.26	
2025-01-13 11:34:07.11	4.01	4.27	
2025-01-13 11:34:07.31	3.99	4.28	
2025-01-13 11:34:07.52	3.96	4.28	
2025-01-13 11:34:07.72	3.93	4.29	
2025-01-13 11:34:07.93	3.90	4.30	
2025-01-13 11:34:08.13	3.87	4.31	
2025-01-13 11:34:08.34	3.84	4.32	
2025-01-13 11:34:08.55	3.81	4.32	
2025-01-13 11:34:08.75	3.79	4.33	
2025-01-13 11:34:08.95	3.76	4.34	
2025-01-13 11:34:09.16	3.73	4.35	
2025-01-13 11:34:09.37	3.70	4.36	
2025-01-13 11:34:09.57	3.67	4.36	
2025-01-13 11:34:09.78	3.64	4.37	
2025-01-13 11:34:09.98	3.61	4.38	
2025-01-13 11:34:10.19	3.59	4.39	
2025-01-13 11:34:10.39	3.56	4.40	
2025-01-13 11:34:10.60	3.53	4.40	
2025-01-13 11:34:10.82	3.50	4.41	
2025-01-13 11:34:11.02	3.47	4.42	
2025-01-13 11:34:11.23	3.44	4.43	
2025-01-13 11:34:11.43	3.41	4.44	
2025-01-13 11:34:11.64	3.38	4.44	
2025-01-13 11:34:11.84	3.35	4.45	
2025-01-13 11:34:12.04	3.33	4.46	
2025-01-13 11:34:12.25	3.30	4.47	
2025-01-13 11:34:12.46	3.27	4.48	
2025-01-13 11:34:12.66	3.24	4.48	
2025-01-13 11:34:12.86	3.21	4.49	
2025-01-13 11:34:13.07	3.18	4.50	
2025-01-13 11:34:13.28	3.15	4.51	
2025-01-13 11:34:13.48	3.12	4.52	
2025-01-13 11:34:13.69	3.09	4.52	
2025-01-13 11:34:13.89	3.06	4.53	
2025-01-13 11:34:14.10	3.03	4.54	
2025-01-13 11:34:14.30	3.01	4.55	
2025-01-13 11:34:14.51	2.98	4.56	
2025-01-13 11:34:14.71	2.95	4.56	
2025-01-13 11:34:14.92	2.92	4.57	
2025-01-13 11:34:15.14	2.89	4.58	
2025-01-13 11:34:15.34	2.86	4.59	
2025-01-13 11:34:15.54	2.83	4.59	
2025-01-13 11:34:15.75	2.80	4.60	
2025-01-13 11:34:15.96	2.77	4.61	
2025-01-13 11:34:16.16	2.74	4.62	
2025-01-13 11:34:16.36	2.71	4.63	
2025-01-13 11:34:16.57	2.68	4.63	
2025-01-13 11:34:16.78	2.65	4.64	
2025-01-13 11:34:16.98	2.63	4.65	
2025-01-13 11:34:17.18	2.60	4.66	
2025-01-13 11:34:17.39	2.57	4.67	
2025-01-13 11:34:17.60	2.54	4.67	
2025-01-13 11:34:17.80	2.51	4.68	
2025-01-13 11:34:18.01	2.48	4.69	
2025-01-13 11:34:18.21	2.45	4.70	
2025-01-13 11:34:18.41	2.42	4.70	
2025-01-13 11:34:18.63	2.39	4.71	
2025-01-13 11:34:18.84	2.36	4.72	
2025-01-13 11:34:19.04	2.33	4.73	
2025-01-13 11:34:19.24	2.30	4.74	
2025-01-13 11:34:19.45	2.27	4.74	
2025-01-13 11:34:19.66	2.24	4.75	
2025-01-13 11:34:19.86	2.21	4.76	
2025-01-13 11:34:20.07	2.18	4.77	
2025-01-13 11:34:20.27	2.15	4.78	
2025-01-13 11:34:20.48	2.12	4.78	
2025-01-13 11:34:20.68	2.09	4.79	
2025-01-13 11:34:20.89	2.06	4.80	
2025-01-13 11:34:21.10	2.03	4.81	
2025-01-13 11:34:21.30	2.00	4.81	
2025-01-13 11:34:21.52	1.97	4.82	
2025-01-13 11:34:21.72	1.94	4.83	
2025-01-13 11:34:21.93	1.91	4.84	
2025-01-13 11:34:22.13	1.88	4.85	
2025-01-13 11:34:22.34	1.85	4.85	
2025-01-13 11:34:22.56	1.82	4.86	
2025-01-13 11:34:22.76	1.79	4.87	
2025-01-13 11:34:22.96	1.76	4.88	
2025-01-13 11:34:23.17	1.73	4.89	
2025-01-13 11:34:23.37	1.70	4.89	
2025-01-13 11:34:23.59	1.67	4.90	
2025-01-13 11:34:23.80	1.64	4.91	
2025-01-13 11:34:24.00	1.61	4.92	
2025-01-13 11:34:24.20	1.58	4.92	
2025-01-13 11:34:24.41	1.55	4.93	
2025-01-13 11:34:24.61	1.52	4.94	
2025-01-13 11:34:24.82	1.49	4.95	
2025-01-13 11:34:25.02	1.46	4.96	
2025-01-13 11:34:25.23	1.43	4.96	
2025-01-13 11:34:25.44	1.40	4.97	
2025-01-13 11:34:25.64	1.37	4.98	
2025-01-13 11:34:25.84	1.34	4.99	
2025-01-13 11:34:26.05	1.31	4.99	
2025-01-13 11:34:26.26	1.28	5.00	
2025-01-13 11:34:26.46	1.25	5.01	
2025-01-13 11:34:26.66	1.22	5.02	
2025-01-13 11:34:26.87	1.19	5.02	
2025-01-13 11:34:27.07	1.16	5.03	
2025-01-13 11:34:27.28	1.13	5.04	
2025-01-13 11:34:27.48	1.10	5.05	
2025-01-13 11:34:27.69	1.07	5.05	
2025-01-13 11:34:27.89	1.04	5.06	
2025-01-13 11:34:28.10	1.01	5.07	
2025-01-13 11:34:28.30	0.98	5.08	
2025-01-13 11:34:28.51	0.95	5.09	
2025-01-13 11:34:28.71	0.92	5.09	
2025-01-13 11:34:28.91	0.89	5.10	
2025-01-13 11:34:29.12	0.86	5.11	
2025-01-13 11:34:29.33	0.83	5.12	
2025-01-13 11:34:29.53	0.80	5.12	
2025-01-13 11:34:29.74	0.77	5.13	
2025-01-13 11:34:29.94	0.74	5.14	
2025-01-13 11:34:30.15	0.71	5.15	
2025-01-13 11:34:30.35	0.68	5.15	
2025-01-13 11:34:30.56	0.65	5.16	
2025-01-13 11:34:30.77	0.62	5.17	
2025-01-13 11:34:30.98	0.58	5.18	
2025-01-13 11:34:31.18	0.55	5.18	
2025-01-13 11:34:31.39	0.52	5.19	
2025-01-13 11:34:31.59	0.49	5.20	
2025-01-13 11:34:31.80	0.46	5.21	
2025-01-13 11:34:32.00	0.43	5.21	
2025-01-13 11:34:32.22	0.40	5.22	
2025-01-13 11:34:32.43	0.37	5.23	
2025-01-13 11:34:32.63	0.34	5.24	
2025-01-13 11:34:32.84	0.31	5.25	
2025-01-13 11:34:33.04	0.28	5.25	
2025-01-13 11:34:33.25	0.25	5.26	
2025-01-13 11:34:33.45	0.22	5.27	
2025-01-13 11:34:33.66	0.18	5.28	
2025-01-13 11:34:33.86	0.15	5.28	
2025-01-13 11:34:34.07	0.12	5.29	
2025-01-13 11:34:34.27	0.09	5.30	
2025-01-13 11:34:34.48	0.06	5.31	
2025-01-13 11:34:34.68	0.03	5.31	
2025-01-13 11:34:34.89	0.00	5.32	
2025-01-13 11:34:35.09	359.97	5.33	
2025-01-13 11:34:35.29	359.94	5.33	
2025-01-13 11:34:35.50	359.91	5.34	
2025-01-13 11:34:35.71	359.88	5.35	
2025-01-13 11:34:35.91	359.85	5.36	
2025-01-13 11:34:36.12	359.81	5.36	
2025-01-13 11:34:36.32	359.78	5.37	
2025-01-13 11:34:36.53	359.75	5.38	
2025-01-13 11:34:36.73	359.72	5.39	
2025-01-13 11:34:36.94	359.69	5.39	
2025-01-13 11:34:37.14	359.66	5.40	
2025-01-13 11:34:37.35	359.63	5.41	
2025-01-13 11:34:37.56	359.60	5.42	
2025-01-13 11:34:37.77	359.57	5.42	
2025-01-13 11:34:37.97	359.53	5.43	
2025-01-13 11:34:38.18	359.50	5.44	
2025-01-13 11:34:38.39	359.47	5.45	
2025-01-13 11:34:38.59	359.44	5.45	
2025-01-13 11:34:38.80	359.41	5.46	
2025-01-13 11:34:39.00	359.38	5.47	
2025-01-13 11:34:39.21	359.35	5.48	
2025-01-13 11:34:39.41	359.32	5.48	
2025-01-13 11:34:39.62	359.28	5.49	
2025-01-13 11:34:39.82	359.25	5.50	
2025-01-13 11:34:40.03	359.22	5.51	
2025-01-13 11:34:40.23	359.19	5.51	
2025-01-13 11:34:40.44	359.16	5.52	
2025-01-13 11:34:40.64	359.13	5.53	
2025-01-13 11:34:40.85	359.10	5.54	
2025-01-13 11:34:41.05	359.07	5.54	
2025-01-13 11:34:41.26	359.03	5.55	
2025-01-13 11:34:41.47	359.00	5.56	
2025-01-13 11:34:41.67	358.97	5.56	
2025-01-13 11:34:41.88	358.94	5.57	
2025-01-13 11:34:42.08	358.91	5.58	
2025-01-13 11:34:42.29	358.88	5.59	
2025-01-13 11:34:42.49	358.85	5.59	
2025-01-13 11:34:42.69	358.81	5.60	
2025-01-13 11:34:42.90	358.78	5.61	
2025-01-13 11:34:43.10	358.75	5.62	
2025-01-13 11:34:43.31	358.72	5.62	
2025-01-13 11:34:43.51	358.69	5.63	
2025-01-13 11:34:43.72	358.66	5.64	
2025-01-13 11:34:43.92	358.63	5.64	
2025-01-13 11:34:44.13	358.59	5.65	
2025-01-13 11:34:44.34	358.56	5.66	
2025-01-13 11:34:44.54	358.53	5.67	
2025-01-13 11:34:44.75	358.50	5.67	
2025-01-13 11:34:44.97	358.46	5.68	
2025-01-13 11:34:45.17	358.43	5.69	
2025-01-13 11:34:45.38	358.40	5.70	
2025-01-13 11:34:45.58	358.37	5.70	
2025-01-13 11:34:45.79	358.34	5.71	
2025-01-13 11:34:45.99	358.31	5.72	
2025-01-13 11:34:46.20	358.27	5.72	
2025-01-13 11:34:46.40	358.24	5.73	
2025-01-13 11:34:46.61	358.21	5.74	
2025-01-13 11:34:46.81	358.18	5.75	
2025-01-13 11:34:47.02	358.15	5.75	
2025-01-13 11:34:47.22	358.11	5.76	
2025-01-13 11:34:47.43	358.08	5.77	
2025-01-13 11:34:47.64	358.05	5.77	
2025-01-13 11:34:47.84	358.02	5.78	
2025-01-13 11:34:48.04	357.99	5.79	
2025-01-13 11:34:48.25	357.95	5.80	
2025-01-13 11:34:48.46	357.92	5.80	
2025-01-13 11:34:48.66	357.89	5.81	
2025-01-13 11:34:48.87	357.86	5.82	
2025-01-13 11:34:49.07	357.83	5.82	
2025-01-13 11:34:49.28	357.79	5.83	
2025-01-13 11:34:49.48	357.76	5.84	
2025-01-13 11:34:49.69	357.73	5.85	
2025-01-13 11:34:49.89	357.70	5.85	
2025-01-13 11:34:50.10	357.67	5.86	
2025-01-13 11:34:50.30	357.63	5.87	
2025-01-13 11:34:50.51	357.60	5.87	
2025-01-13 11:34:50.72	357.57	5.88	
2025-01-13 11:34:50.92	357.54	5.89	
2025-01-13 11:34:51.12	357.51	5.90	
2025-01-13 11:34:51.33	357.47	5.90	
2025-01-13 11:34:51.53	357.44	5.91	
2025-01-13 11:34:51.74	357.41	5.92	
2025-01-13 11:34:51.94	357.38	5.92	
2025-01-13 11:34:52.15	357.34	5.93	
2025-01-13 11:34:52.35	357.31	5.94	
2025-01-13 11:34:52.56	357.28	5.94	
2025-01-13 11:34:52.76	357.25	5.95	
2025-01-13 11:34:52.97	357.21	5.96	
2025-01-13 11:34:53.18	357.18	5.97	
2025-01-13 11:34:53.38	357.15	5.97	
2025-01-13 11:34:53.58	357.12	5.98	
2025-01-13 11:34:53.79	357.08	5.99	
2025-01-13 11:34:53.99	357.05	5.99	
2025-01-13 11:34:54.20	357.02	6.00	
2025-01-13 11:34:54.40	356.99	6.01	
2025-01-13 11:34:54.61	356.95	6.01	
2025-01-13 11:34:54.81	356.92	6.02	
2025-01-13 11:34:55.02	356.89	6.03	
2025-01-13 11:34:55.22	356.86	6.03	
2025-01-13 11:34:55.43	356.82	6.04	
2025-01-13 11:34:55.65	356.79	6.05	
2025-01-13 11:34:55.85	356.76	6.06	
2025-01-13 11:34:56.06	356.72	6.06	
2025-01-13 11:34:56.26	356.69	6.07	
2025-01-13 11:34:56.47	356.66	6.08	
2025-01-13 11:34:56.69	356.62	6.08	
2025-01-13 11:34:56.89	356.59	6.09	
2025-01-13 11:34:57.10	356.56	6.10	
2025-01-13 11:34:57.30	356.53	6.10	
2025-01-13 11:34:57.51	356.49	6.11	
2025-01-13 11:34:57.71	356.46	6.12	
2025-01-13 11:34:57.92	356.43	6.13	
2025-01-13 11:34:58.12	356.40	6.13	
2025-01-13 11:34:58.33	356.36	6.14	
2025-01-13 11:34:58.53	356.33	6.15	
2025-01-13 11:34:58.73	356.30	6.15	
2025-01-13 11:34:58.94	356.26	6.16	
2025-01-13 11:34:59.15	356.23	6.17	
2025-01-13 11:34:59.35	356.20	6.17	
2025-01-13 11:34:59.55	356.17	6.18	
2025-01-13 11:34:59.76	356.13	6.19	
2025-01-13 11:34:59.96	356.10	6.19	
2025-01-13 11:35:00.17	356.07	6.20	
2025-01-13 11:35:00.37	356.03	6.21	
2025-01-13 11:35:00.58	356.00	6.21	
2025-01-13 11:35:00.79	355.97	6.22	
2025-01-13 11:35:00.99	355.93	6.23	
2025-01-13 11:35:01.20	355.90	6.23	
2025-01-13 11:35:01.40	355.87	6.24	
2025-01-13 11:35:01.61	355.83	6.25	
2025-01-13 11:35:01.81	355.80	6.25	
2025-01-13 11:35:02.02	355.77	6.26	
2025-01-13 11:35:02.22	355.74	6.27	
2025-01-13 11:35:02.43	355.70	6.27	
2025-01-13 11:35:02.64	355.67	6.28	
2025-01-13 11:35:02.84	355.64	6.29	
2025-01-13 11:35:03.05	355.60	6.29	
2025-01-13 11:35:03.25	355.57	6.30	
2025-01-13 11:35:03.46	355.54	6.31	
2025-01-13 11:35:03.66	355.50	6.31	
2025-01-13 11:35:03.87	355.47	6.32	
2025-01-13 11:35:04.07	355.44	6.33	
2025-01-13 11:35:04.28	355.40	6.33	
2025-01-13 11:35:04.48	355.37	6.34	
2025-01-13 11:35:04.69	355.34	6.35	
2025-01-13 11:35:04.90	355.30	6.35	
2025-01-13 11:35:05.10	355.27	6.36	
2025-01-13 11:35:05.30	355.24	6.37	
2025-01-13 11:35:05.51	355.20	6.37	
2025-01-13 11:35:05.72	355.17	6.38	
2025-01-13 11:35:05.92	355.14	6.39	
2025-01-13 11:35:06.13	355.10	6.39	
2025-01-13 11:35:06.33	355.07	6.40	
2025-01-13 11:35:06.53	355.04	6.41	
2025-01-13 11:35:06.74	355.00	6.41	
2025-01-13 11:35:06.94	354.97	6.42	
2025-01-13 11:35:07.15	354.93	6.43	
2025-01-13 11:35:07.35	354.90	6.43	
2025-01-13 11:35:07.56	354.87	6.44	
2025-01-13 11:35:07.77	354.83	6.45	
2025-01-13 11:35:07.97	354.80	6.45	
2025-01-13 11:35:08.18	354.77	6.46	
2025-01-13 11:35:08.38	354.73	6.47	
2025-01-13 11:35:08.59	354.70	6.47	
2025-01-13 11:35:08.79	354.67	6.48	
2025-01-13 11:35:08.99	354.63	6.49	
2025-01-13 11:35:09.20	354.60	6.49	
2025-01-13 11:35:09.40	354.57	6.50	
2025-01-13 11:35:09.61	354.53	6.51	
2025-01-13 11:35:09.82	354.50	6.51	
2025-01-13 11:35:10.02	354.46	6.52	
2025-01-13 11:35:10.23	354.43	6.52	
2025-01-13 11:35:10.43	354.40	6.53	
2025-01-13 11:35:10.64	354.36	6.54	
2025-01-13 11:35:10.84	354.33	6.54	
2025-01-13 11:35:11.05	354.29	6.55	
2025-01-13 11:35:11.25	354.26	6.56	
2025-01-13 11:35:11.46	354.23	6.56	
2025-01-13 11:35:11.66	354.19	6.57	
2025-01-13 11:35:11.87	354.16	6.58	
2025-01-13 11:35:12.07	354.13	6.58	
2025-01-13 11:35:12.28	354.09	6.59	
2025-01-13 11:35:12.49	354.06	6.60	
2025-01-13 11:35:12.69	354.02	6.60	
2025-01-13 11:35:12.89	353.99	6.61	
2025-01-13 11:35:13.10	353.95	6.61	
2025-01-13 11:35:13.30	353.92	6.62	
2025-01-13 11:35:13.51	353.89	6.63	
2025-01-13 11:35:13.71	353.85	6.63	
2025-01-13 11:35:13.92	353.82	6.64	
2025-01-13 11:35:14.13	353.78	6.65	
2025-01-13 11:35:14.33	353.75	6.65	
2025-01-13 11:35:14.54	353.72	6.66	
2025-01-13 11:35:14.74	353.68	6.67	
2025-01-13 11:35:14.94	353.65	6.67	
2025-01-13 11:35:15.15	353.61	6.68	
2025-01-13 11:35:15.36	353.58	6.68	
2025-01-13 11:35:15.56	353.55	6.69	
2025-01-13 11:35:15.77	353.51	6.70	
2025-01-13 11:35:15.97	353.48	6.70	
2025-01-13 11:35:16.17	353.44	6.71	
2025-01-13 11:35:16.38	353.41	6.72	
2025-01-13 11:35:16.58	353.37	6.72	
2025-01-13 11:35:16.79	353.34	6.73	
2025-01-13 11:35:16.99	353.31	6.73	
2025-01-13 11:35:17.20	353.27	6.74	
2025-01-13 11:35:17.40	353.24	6.75	
2025-01-13 11:35:17.61	353.20	6.75	
2025-01-13 11:35:17.81	353.17	6.76	
2025-01-13 11:35:18.01	353.14	6.76	
2025-01-13 11:35:18.22	353.10	6.77	
2025-01-13 11:35:18.42	353.07	6.78	
2025-01-13 11:35:18.63	353.03	6.78	
2025-01-13 11:35:18.84	353.00	6.79	
2025-01-13 11:35:19.04	352.96	6.80	
2025-01-13 11:35:19.25	352.93	6.80	
2025-01-13 11:35:19.45	352.89	6.81	
2025-01-13 11:35:19.66	352.86	6.81	
2025-01-13 11:35:19.86	352.82	6.82	
2025-01-13 11:35:20.07	352.79	6.83	
2025-01-13 11:35:20.27	352.75	6.83	
2025-01-13 11:35:20.48	352.72	6.84	
2025-01-13 11:35:20.68	352.69	6.84	
2025-01-13 11:35:20.89	352.65	6.85	
2025-01-13 11:35:21.09	352.62	6.86	
2025-01-13 11:35:21.30	352.58	6.86	
2025-01-13 11:35:21.50	352.55	6.87	
2025-01-13 11:35:21.71	352.51	6.87	
2025-01-13 11:35:21.92	352.48	6.88	
2025-01-13 11:35:22.12	352.44	6.89	
2025-01-13 11:35:22.32	352.41	6.89	
2025-01-13 11:35:22.53	352.37	6.90	
2025-01-13 11:35:22.74	352.34	6.91	
2025-01-13 11:35:22.94	352.30	6.91	
2025-01-13 11:35:23.15	352.27	6.92	
2025-01-13 11:35:23.35	352.23	6.92	
2025-01-13 11:35:23.55	352.20	6.93	
2025-01-13 11:35:23.76	352.16	6.93	
2025-01-13 11:35:23.97	352.13	6.94	
2025-01-13 11:35:24.17	352.09	6.95	
2025-01-13 11:35:24.38	352.06	6.95	
2025-01-13 11:35:24.58	352.02	6.96	
2025-01-13 11:35:24.79	351.99	6.96	
2025-01-13 11:35:24.99	351.95	6.97	
2025-01-13 11:35:25.20	351.92	6.98	
2025-01-13 11:35:25.40	351.88	6.98	
2025-01-13 11:35:25.61	351.85	6.99	
2025-01-13 11:35:25.81	351.81	6.99	
2025-01-13 11:35:26.02	351.78	7.00	
2025-01-13 11:35:26.22	351.74	7.01	
2025-01-13 11:35:26.43	351.71	7.01	
2025-01-13 11:35:26.63	351.67	7.02	
2025-01-13 11:35:26.84	351.64	7.02	
2025-01-13 11:35:27.05	351.60	7.03	
2025-01-13 11:35:27.25	351.57	7.04	
2025-01-13 11:35:27.46	351.53	7.04	
2025-01-13 11:35:27.66	351.50	7.05	
2025-01-13 11:35:27.87	351.46	7.05	
2025-01-13 11:35:28.07	351.43	7.06	
2025-01-13 11:35:28.28	351.39	7.06	
2025-01-13 11:35:28.48	351.36	7.07	
2025-01-13 11:35:28.69	351.32	7.08	
2025-01-13 11:35:28.90	351.28	7.08	
2025-01-13 11:35:29.10	351.25	7.09	
2025-01-13 11:35:29.31	351.21	7.09	
2025-01-13 11:35:29.51	351.18	7.10	
2025-01-13 11:35:29.72	351.14	7.10	
2025-01-13 11:35:29.92	351.11	7.11	
2025-01-13 11:35:30.13	351.07	7.12	
2025-01-13 11:35:30.33	351.04	7.12	
2025-01-13 11:35:30.54	351.00	7.13	
2025-01-13 11:35:30.74	350.97	7.13	
2025-01-13 11:35:30.96	350.93	7.14	
2025-01-13 11:35:31.16	350.90	7.14	
2025-01-13 11:35:31.37	350.86	7.15	
2025-01-13 11:35:31.58	350.82	7.16	
2025-01-13 11:35:31.78	350.79	7.16	
2025-01-13 11:35:32.00	350.75	7.17	
2025-01-13 11:35:32.20	350.72	7.17	
2025-01-13 11:35:32.41	350.68	7.18	
2025-01-13 11:35:32.62	350.64	7.19	
2025-01-13 11:35:32.82	350.61	7.19	
2025-01-13 11:35:33.02	350.57	7.20	
2025-01-13 11:35:33.23	350.54	7.20	
2025-01-13 11:35:33.44	350.50	7.21	
2025-01-13 11:35:33.64	350.47	7.21	
2025-01-13 11:35:33.85	350.43	7.22	
2025-01-13 11:35:34.05	350.39	7.22	
2025-01-13 11:35:34.25	350.36	7.23	
2025-01-13 11:35:34.46	350.32	7.24	
2025-01-13 11:35:34.66	350.29	7.24	
2025-01-13 11:35:34.87	350.25	7.25	
2025-01-13 11:35:35.08	350.22	7.25	
2025-01-13 11:35:35.29	350.18	7.26	
2025-01-13 11:35:35.50	350.14	7.26	
2025-01-13 11:35:35.70	350.11	7.27	
2025-01-13 11:35:35.91	350.07	7.27	
2025-01-13 11:35:36.11	350.04	7.28	
2025-01-13 11:35:36.31	350.00	7.28	
2025-01-13 11:35:36.52	349.96	7.29	
2025-01-13 11:35:36.73	349.93	7.30	
2025-01-13 11:35:36.93	349.89	7.30	
2025-01-13 11:35:37.13	349.86	7.31	
2025-01-13 11:35:37.34	349.82	7.31	
2025-01-13 11:35:37.54	349.79	7.32	
2025-01-13 11:35:37.75	349.75	7.32	
2025-01-13 11:35:37.95	349.71	7.33	
2025-01-13 11:35:38.16	349.68	7.33	
2025-01-13 11:35:38.36	349.64	7.34	
2025-01-13 11:35:38.57	349.61	7.34	
2025-01-13 11:35:38.78	349.57	7.35	
2025-01-13 11:35:38.98	349.53	7.36	
2025-01-13 11:35:39.19	349.50	7.36	
2025-01-13 11:35:39.39	349.46	7.37	
2025-01-13 11:35:39.60	349.42	7.37	
2025-01-13 11:35:39.80	349.39	7.38	
2025-01-13 11:35:40.01	349.35	7.38	
2025-01-13 11:35:40.21	349.32	7.39	
2025-01-13 11:35:40.42	349.28	7.39	
2025-01-13 11:35:40.62	349.24	7.40	
2025-01-13 11:35:40.83	349.21	7.40	
2025-01-13 11:35:41.03	349.17	7.41	
2025-01-13 11:35:41.24	349.14	7.41	
2025-01-13 11:35:41.44	349.10	7.42	
2025-01-13 11:35:41.65	349.06	7.42	
2025-01-13 11:35:41.85	349.03	7.43	
2025-01-13 11:35:42.06	348.99	7.43	
2025-01-13 11:35:42.26	348.96	7.44	
2025-01-13 11:35:42.47	348.92	7.45	
2025-01-13 11:35:42.67	348.88	7.45	
2025-01-13 11:35:42.88	348.85	7.46	
2025-01-13 11:35:43.08	348.81	7.46	
2025-01-13 11:35:43.29	348.77	7.47	
2025-01-13 11:35:43.50	348.74	7.47	
2025-01-13 11:35:43.70	348.70	7.48	
2025-01-13 11:35:43.90	348.67	7.48	
2025-01-13 11:35:44.11	348.63	7.49	
2025-01-13 11:35:44.31	348.59	7.49	
2025-01-13 11:35:44.52	348.56	7.50	
2025-01-13 11:35:44.72	348.52	7.50	
2025-01-13 11:35:44.93	348.48	7.51	
2025-01-13 11:35:45.13	348.45	7.51	
2025-01-13 11:35:45.34	348.41	7.52	
2025-01-13 11:35:45.55	348.37	7.52	
2025-01-13 11:35:45.75	348.34	7.53	
2025-01-13 11:35:45.95	348.30	7.53	
2025-01-13 11:35:46.16	348.26	7.54	
2025-01-13 11:35:46.37	348.23	7.54	
2025-01-13 11:35:46.57	348.19	7.55	
2025-01-13 11:35:46.78	348.15	7.55	
2025-01-13 11:35:46.98	348.12	7.56	
2025-01-13 11:35:47.19	348.08	7.56	
2025-01-13 11:35:47.39	348.04	7.57	
2025-01-13 11:35:47.60	348.01	7.57	
2025-01-13 11:35:47.81	347.97	7.58	
2025-01-13 11:35:48.01	347.93	7.58	
2025-01-13 11:35:48.22	347.90	7.59	
2025-01-13 11:35:48.42	347.86	7.59	
2025-01-13 11:35:48.63	347.82	7.60	
2025-01-13 11:35:48.83	347.79	7.60	
2025-01-13 11:35:49.03	347.75	7.61	
2025-01-13 11:35:49.24	347.71	7.61	
2025-01-13 11:35:49.45	347.68	7.62	
2025-01-13 11:35:49.65	347.64	7.62	
2025-01-13 11:35:49.86	347.60	7.63	
2025-01-13 11:35:50.08	347.56	7.63	
2025-01-13 11:35:50.28	347.53	7.64	
2025-01-13 11:35:50.49	347.49	7.64	
2025-01-13 11:35:50.69	347.45	7.65	
2025-01-13 11:35:50.90	347.42	7.65	
2025-01-13 11:35:51.10	347.38	7.66	
2025-01-13 11:35:51.31	347.34	7.66	
2025-01-13 11:35:51.51	347.31	7.67	
2025-01-13 11:35:51.72	347.27	7.67	
2025-01-13 11:35:51.92	347.23	7.68	
2025-01-13 11:35:52.12	347.20	7.68	
2025-01-13 11:35:52.33	347.16	7.68	
2025-01-13 11:35:52.53	347.12	7.69	
2025-01-13 11:35:52.74	347.09	7.69	
2025-01-13 11:35:52.94	347.05	7.70	
2025-01-13 11:35:53.14	347.01	7.70	
2025-01-13 11:35:53.35	346.98	7.71	
2025-01-13 11:35:53.55	346.94	7.71	
2025-01-13 11:35:53.76	346.90	7.72	
2025-01-13 11:35:53.96	346.87	7.72	
2025-01-13 11:35:54.17	346.83	7.73	
2025-01-13 11:35:54.39	346.79	7.73	
2025-01-13 11:35:54.59	346.75	7.74	
2025-01-13 11:35:54.80	346.71	7.74	
2025-01-13 11:35:55.00	346.68	7.75	
2025-01-13 11:35:55.21	346.64	7.75	
2025-01-13 11:35:55.41	346.60	7.75	
2025-01-13 11:35:55.62	346.57	7.76	
2025-01-13 11:35:55.82	346.53	7.76	
2025-01-13 11:35:56.03	346.49	7.77	
2025-01-13 11:35:56.23	346.46	7.77	
2025-01-13 11:35:56.44	346.42	7.78	
2025-01-13 11:35:56.64	346.38	7.78	
2025-01-13 11:35:56.85	346.34	7.79	
2025-01-13 11:35:57.05	346.31	7.79	
2025-01-13 11:35:57.26	346.27	7.80	
2025-01-13 11:35:57.46	346.23	7.80	
2025-01-13 11:35:57.67	346.19	7.81	
2025-01-13 11:35:57.87	346.16	7.81	
2025-01-13 11:35:58.08	346.12	7.81	
2025-01-13 11:35:58.28	346.08	7.82	
2025-01-13 11:35:58.49	346.04	7.82	
2025-01-13 11:35:58.71	346.00	7.83	
2025-01-13 11:35:58.91	345.97	7.83	
2025-01-13 11:35:59.12	345.93	7.84	
2025-01-13 11:35:59.32	345.89	7.84	
2025-01-13 11:35:59.53	345.86	7.85	
2025-01-13 11:35:59.73	345.82	7.85	
2025-01-13 11:35:59.94	345.78	7.85	
2025-01-13 11:36:00.14	345.74	7.86	
2025-01-13 11:36:00.35	345.71	7.86	
2025-01-13 11:36:00.55	345.67	7.87	
2025-01-13 11:36:00.75	345.63	7.87	
2025-01-13 11:36:00.96	345.59	7.88	
2025-01-13 11:36:01.16	345.56	7.88	
2025-01-13 11:36:01.37	345.52	7.88	
2025-01-13 11:36:01.58	345.48	7.89	
2025-01-13 11:36:01.78	345.44	7.89	
2025-01-13 11:36:01.99	345.41	7.90	
2025-01-13 11:36:02.19	345.37	7.90	
2025-01-13 11:36:02.40	345.33	7.91	
2025-01-13 11:36:02.61	345.29	7.91	
2025-01-13 11:36:02.81	345.26	7.91	
2025-01-13 11:36:03.01	345.22	7.92	
2025-01-13 11:36:03.22	345.18	7.92	
2025-01-13 11:36:03.42	345.14	7.93	
2025-01-13 11:36:03.63	345.11	7.93	
2025-01-13 11:36:03.83	345.07	7.94	
2025-01-13 11:36:04.04	345.03	7.94	
2025-01-13 11:36:04.24	344.99	7.94	
2025-01-13 11:36:04.45	344.96	7.95	
2025-01-13 11:36:04.65	344.92	7.95	
2025-01-13 11:36:04.86	344.88	7.96	
2025-01-13 11:36:05.06	344.84	7.96	
2025-01-13 11:36:05.27	344.80	7.97	
2025-01-13 11:36:05.47	344.77	7.97	
2025-01-13 11:36:05.68	344.73	7.97	
2025-01-13 11:36:05.88	344.69	7.98	
2025-01-13 11:36:06.10	344.65	7.98	
2025-01-13 11:36:06.30	344.62	7.99	
2025-01-13 11:36:06.51	344.58	7.99	
2025-01-13 11:36:06.72	344.54	7.99	
2025-01-13 11:36:06.92	344.50	8.00	
2025-01-13 11:36:07.14	344.46	8.00	
2025-01-13 11:36:07.35	344.42	8.01	
2025-01-13 11:36:07.55	344.38	8.01	
2025-01-13 11:36:07.76	344.35	8.01	
2025-01-13 11:36:07.96	344.31	8.02	
2025-01-13 11:36:08.17	344.27	8.02	
2025-01-13 11:36:08.37	344.23	8.03	
2025-01-13 11:36:08.58	344.19	8.03	
2025-01-13 11:36:08.78	344.16	8.03	
2025-01-13 11:36:08.99	344.12	8.04	
2025-01-13 11:36:09.19	344.08	8.04	
2025-01-13 11:36:09.40	344.04	8.05	
2025-01-13 11:36:09.60	344.01	8.05	
2025-01-13 11:36:09.81	343.97	8.05	
2025-01-13 11:36:10.01	343.93	8.06	
2025-01-13 11:36:10.22	343.89	8.06	
2025-01-13 11:36:10.42	343.85	8.07	
2025-01-13 11:36:10.63	343.82	8.07	
2025-01-13 11:36:10.83	343.78	8.07	
2025-01-13 11:36:11.04	343.74	8.08	
2025-01-13 11:36:11.24	343.70	8.08	
2025-01-13 11:36:11.46	343.66	8.09	
2025-01-13 11:36:11.66	343.62	8.09	
2025-01-13 11:36:11.87	343.59	8.09	
2025-01-13 11:36:12.08	343.55	8.10	
2025-01-13 11:36:12.28	343.51	8.10	
2025-01-13 11:36:12.48	343.47	8.10	
2025-01-13 11:36:12.69	343.43	8.11	
2025-01-13 11:36:12.90	343.39	8.11	
2025-01-13 11:36:13.10	343.36	8.12	
2025-01-13 11:36:13.31	343.32	8.12	
2025-01-13 11:36:13.51	343.28	8.12	
2025-01-13 11:36:13.72	343.24	8.13	
2025-01-13 11:36:13.92	343.20	8.13	
2025-01-13 11:36:14.13	343.16	8.13	
2025-01-13 11:36:14.33	343.13	8.14	
2025-01-13 11:36:14.54	343.09	8.14	
2025-01-13 11:36:14.76	343.05	8.15	
2025-01-13 11:36:14.96	343.01	8.15	
2025-01-13 11:36:15.17	342.97	8.15	
2025-01-13 11:36:15.37	342.93	8.16	
2025-01-13 11:36:15.58	342.89	8.16	
2025-01-13 11:36:15.78	342.86	8.16	
2025-01-13 11:36:15.99	342.82	8.17	
2025-01-13 11:36:16.19	342.78	8.17	
2025-01-13 11:36:16.40	342.74	8.17	
2025-01-13 11:36:16.60	342.70	8.18	
2025-01-13 11:36:16.81	342.66	8.18	
2025-01-13 11:36:17.01	342.63	8.18	
2025-01-13 11:36:17.22	342.59	8.19	
2025-01-13 11:36:17.42	342.55	8.19	
2025-01-13 11:36:17.63	342.51	8.20	
2025-01-13 11:36:17.83	342.47	8.20	
2025-01-13 11:36:18.04	342.43	8.20	
2025-01-13 11:36:18.24	342.40	8.21	
2025-01-13 11:36:18.45	342.36	8.21	
2025-01-13 11:36:18.66	342.32	8.21	
2025-01-13 11:36:18.86	342.28	8.22	
2025-01-13 11:36:19.06	342.24	8.22	
2025-01-13 11:36:19.27	342.20	8.22	
2025-01-13 11:36:19.48	342.16	8.23	
2025-01-13 11:36:19.68	342.13	8.23	
2025-01-13 11:36:19.88	342.09	8.23	
2025-01-13 11:36:20.09	342.05	8.24	
2025-01-13 11:36:20.30	342.01	8.24	
2025-01-13 11:36:20.50	341.97	8.24	
2025-01-13 11:36:20.71	341.93	8.25	
2025-01-13 11:36:20.91	341.90	8.25	
2025-01-13 11:36:21.12	341.86	8.25	
2025-01-13 11:36:21.33	341.82	8.26	
2025-01-13 11:36:21.54	341.78	8.26	
2025-01-13 11:36:21.74	341.74	8.26	
2025-01-13 11:36:21.95	341.70	8.27	
2025-01-13 11:36:22.15	341.66	8.27	
2025-01-13 11:36:22.35	341.63	8.27	
2025-01-13 11:36:22.56	341.59	8.28	
2025-01-13 11:36:22.76	341.55	8.28	
2025-01-13 11:36:22.97	341.51	8.28	
2025-01-13 11:36:23.17	341.47	8.29	
2025-01-13 11:36:23.38	341.43	8.29	
2025-01-13 11:36:23.58	341.39	8.29	
2025-01-13 11:36:23.79	341.35	8.30	
2025-01-13 11:36:24.00	341.31	8.30	
2025-01-13 11:36:24.21	341.28	8.30	
2025-01-13 11:36:24.42	341.24	8.30	
2025-01-13 11:36:24.63	341.20	8.31	
2025-01-13 11:36:24.83	341.16	8.31	
2025-01-13 11:36:25.03	341.12	8.31	
2025-01-13 11:36:25.24	341.08	8.32	
2025-01-13 11:36:25.45	341.04	8.32	
2025-01-13 11:36:25.65	341.00	8.32	
2025-01-13 11:36:25.86	340.96	8.33	
2025-01-13 11:36:26.06	340.93	8.33	
2025-01-13 11:36:26.27	340.89	8.33	
2025-01-13 11:36:26.47	340.85	8.34	
2025-01-13 11:36:26.68	340.81	8.34	
2025-01-13 11:36:26.88	340.77	8.34	
2025-01-13 11:36:27.09	340.73	8.34	
2025-01-13 11:36:27.29	340.69	8.35	
2025-01-13 11:36:27.50	340.65	8.35	
2025-01-13 11:36:27.70	340.62	8.35	
2025-01-13 11:36:27.91	340.58	8.36	
2025-01-13 11:36:28.11	340.54	8.36	
2025-01-13 11:36:28.32	340.50	8.36	
2025-01-13 11:36:28.54	340.46	8.37	
2025-01-13 11:36:28.74	340.42	8.37	
2025-01-13 11:36:28.94	340.38	8.37	
2025-01-13 11:36:29.15	340.34	8.37	
2025-01-13 11:36:29.36	340.30	8.38	
2025-01-13 11:36:29.56	340.26	8.38	
2025-01-13 11:36:29.77	340.22	8.38	
2025-01-13 11:36:29.97	340.19	8.39	
2025-01-13 11:36:30.17	340.15	8.39	
2025-01-13 11:36:30.38	340.11	8.39	
2025-01-13 11:36:30.59	340.07	8.39	
2025-01-13 11:36:30.79	340.03	8.40	
2025-01-13 11:36:31.00	339.99	8.40	
2025-01-13 11:36:31.20	339.95	8.40	
2025-01-13 11:36:31.41	339.91	8.41	
2025-01-13 11:36:31.61	339.87	8.41	
2025-01-13 11:36:31.82	339.83	8.41	
2025-01-13 11:36:32.02	339.80	8.41	
2025-01-13 11:36:32.23	339.76	8.42	
2025-01-13 11:36:32.44	339.72	8.42	
2025-01-13 11:36:32.64	339.68	8.42	
2025-01-13 11:36:32.85	339.64	8.42	
2025-01-13 11:36:33.05	339.60	8.43	
2025-01-13 11:36:33.26	339.56	8.43	
2025-01-13 11:36:33.46	339.52	8.43	
2025-01-13 11:36:33.66	339.48	8.43	
2025-01-13 11:36:33.87	339.44	8.44	
2025-01-13 11:36:34.08	339.40	8.44	
2025-01-13 11:36:34.28	339.37	8.44	
2025-01-13 11:36:34.49	339.33	8.44	
2025-01-13 11:36:34.69	339.29	8.45	
2025-01-13 11:36:34.91	339.24	8.45	
2025-01-13 11:36:35.12	339.20	8.45	
2025-01-13 11:36:35.32	339.17	8.46	
2025-01-13 11:36:35.53	339.13	8.46	
2025-01-13 11:36:35.73	339.09	8.46	
2025-01-13 11:36:35.94	339.05	8.46	
2025-01-13 11:36:36.14	339.01	8.47	
2025-01-13 11:36:36.35	338.97	8.47	
2025-01-13 11:36:36.55	338.93	8.47	
2025-01-13 11:36:36.76	338.89	8.47	
2025-01-13 11:36:36.96	338.85	8.48	
2025-01-13 11:36:37.17	338.81	8.48	
2025-01-13 11:36:37.38	338.77	8.48	
2025-01-13 11:36:37.58	338.73	8.48	
2025-01-13 11:36:37.79	338.69	8.48	
2025-01-13 11:36:37.99	338.66	8.49	
2025-01-13 11:36:38.20	338.62	8.49	
2025-01-13 11:36:38.40	338.58	8.49	
2025-01-13 11:36:38.61	338.54	8.49	
2025-01-13 11:36:38.81	338.50	8.50	
2025-01-13 11:36:39.02	338.46	8.50	
2025-01-13 11:36:39.22	338.42	8.50	
2025-01-13 11:36:39.43	338.38	8.50	
2025-01-13 11:36:39.63	338.34	8.51	
2025-01-13 11:36:39.84	338.30	8.51	
2025-01-13 11:36:40.04	338.26	8.51	
2025-01-13 11:36:40.24	338.23	8.51	
2025-01-13 11:36:40.45	338.19	8.51	
2025-01-13 11:36:40.65	338.15	8.52	
2025-01-13 11:36:40.86	338.11	8.52	
2025-01-13 11:36:41.07	338.07	8.52	
2025-01-13 11:36:41.27	338.03	8.52	
2025-01-13 11:36:41.48	337.99	8.53	
2025-01-13 11:36:41.68	337.95	8.53	
2025-01-13 11:36:41.89	337.91	8.53	
2025-01-13 11:36:42.09	337.87	8.53	
2025-01-13 11:36:42.30	337.83	8.53	
2025-01-13 11:36:42.50	337.79	8.54	
2025-01-13 11:36:42.71	337.75	8.54	
2025-01-13 11:36:42.91	337.71	8.54	
2025-01-13 11:36:43.12	337.67	8.54	
2025-01-13 11:36:43.32	337.63	8.54	
2025-01-13 11:36:43.53	337.59	8.55	
2025-01-13 11:36:43.73	337.56	8.55	
2025-01-13 11:36:43.94	337.52	8.55	
2025-01-13 11:36:44.14	337.48	8.55	
2025-01-13 11:36:44.35	337.44	8.55	
2025-01-13 11:36:44.55	337.40	8.56	
2025-01-13 11:36:44.76	337.36	8.56	
2025-01-13 11:36:44.96	337.32	8.56	
2025-01-13 11:36:45.17	337.28	8.56	
2025-01-13 11:36:45.37	337.24	8.56	
2025-01-13 11:36:45.58	337.20	8.57	
2025-01-13 11:36:45.78	337.16	8.57	
2025-01-13 11:36:45.99	337.12	8.57	
2025-01-13 11:36:46.19	337.08	8.57	
2025-01-13 11:36:46.40	337.04	8.57	
2025-01-13 11:36:46.60	337.00	8.58	
2025-01-13 11:36:46.81	336.96	8.58	
2025-01-13 11:36:47.01	336.92	8.58	
2025-01-13 11:36:47.22	336.88	8.58	
2025-01-13 11:36:47.43	336.84	8.58	
2025-01-13 11:36:47.63	336.80	8.59	
2025-01-13 11:36:47.83	336.77	8.59	
2025-01-13 11:36:48.04	336.73	8.59	
2025-01-13 11:36:48.25	336.69	8.59	
2025-01-13 11:36:48.45	336.65	8.59	
2025-01-13 11:36:48.66	336.61	8.59	
2025-01-13 11:36:48.86	336.57	8.60	
2025-01-13 11:36:49.07	336.53	8.60	
2025-01-13 11:36:49.27	336.49	8.60	
2025-01-13 11:36:49.48	336.45	8.60	
2025-01-13 11:36:49.69	336.41	8.60	
2025-01-13 11:36:49.89	336.37	8.60	
2025-01-13 11:36:50.09	336.33	8.61	
2025-01-13 11:36:50.30	336.29	8.61	
2025-01-13 11:36:50.51	336.25	8.61	
2025-01-13 11:36:50.71	336.21	8.61	
2025-01-13 11:36:50.92	336.17	8.61	
2025-01-13 11:36:51.12	336.13	8.61	
2025-01-13 11:36:51.33	336.09	8.62	
2025-01-13 11:36:51.53	336.05	8.62	
2025-01-13 11:36:51.74	336.01	8.62	
2025-01-13 11:36:51.94	335.97	8.62	
2025-01-13 11:36:52.15	335.93	8.62	
2025-01-13 11:36:52.35	335.89	8.62	
2025-01-13 11:36:52.56	335.85	8.63	
2025-01-13 11:36:52.77	335.81	8.63	
2025-01-13 11:36:52.97	335.77	8.63	
2025-01-13 11:36:53.18	335.73	8.63	
2025-01-13 11:36:53.38	335.69	8.63	
2025-01-13 11:36:53.59	335.65	8.63	
2025-01-13 11:36:53.79	335.62	8.63	
2025-01-13 11:36:54.00	335.57	8.64	
2025-01-13 11:36:54.22	335.53	8.64	
2025-01-13 11:36:54.42	335.49	8.64	
2025-01-13 11:36:54.63	335.45	8.64	
2025-01-13 11:36:54.83	335.41	8.64	
2025-01-13 11:36:55.04	335.37	8.64	
2025-01-13 11:36:55.24	335.33	8.64	
2025-01-13 11:36:55.44	335.30	8.65	
2025-01-13 11:36:55.65	335.26	8.65	
2025-01-13 11:36:55.85	335.22	8.65	
2025-01-13 11:36:56.06	335.18	8.65	
2025-01-13 11:36:56.26	335.14	8.65	
2025-01-13 11:36:56.47	335.10	8.65	
2025-01-13 11:36:56.67	335.06	8.65	
2025-01-13 11:36:56.88	335.02	8.66	
2025-01-13 11:36:57.09	334.98	8.66	
2025-01-13 11:36:57.29	334.94	8.66	
2025-01-13 11:36:57.50	334.90	8.66	
2025-01-13 11:36:57.70	334.86	8.66	
2025-01-13 11:36:57.91	334.82	8.66	
2025-01-13 11:36:58.11	334.78	8.66	
2025-01-13 11:36:58.32	334.74	8.66	
2025-01-13 11:36:58.52	334.70	8.66	
2025-01-13 11:36:58.73	334.66	8.67	
2025-01-13 11:36:58.93	334.62	8.67	
2025-01-13 11:36:59.14	334.58	8.67	
2025-01-13 11:36:59.34	334.54	8.67	
2025-01-13 11:36:59.55	334.50	8.67	
2025-01-13 11:36:59.76	334.46	8.67	
2025-01-13 11:36:59.96	334.42	8.67	
2025-01-13 11:37:00.16	334.38	8.67	
2025-01-13 11:37:00.37	334.34	8.67	
2025-01-13 11:37:00.58	334.30	8.68	
2025-01-13 11:37:00.78	334.26	8.68	
2025-01-13 11:37:00.99	334.22	8.68	
2025-01-13 11:37:01.19	334.18	8.68	
2025-01-13 11:37:01.39	334.14	8.68	
2025-01-13 11:37:01.60	334.10	8.68	
2025-01-13 11:37:01.80	334.06	8.68	
2025-01-13 11:37:02.01	334.02	8.68	
2025-01-13 11:37:02.21	333.98	8.68	
2025-01-13 11:37:02.42	333.94	8.68	
2025-01-13 11:37:02.62	333.90	8.69	
2025-01-13 11:37:02.83	333.86	8.69	
2025-01-13 11:37:03.03	333.82	8.69	
2025-01-13 11:37:03.24	333.78	8.69	
2025-01-13 11:37:03.44	333.74	8.69	
2025-01-13 11:37:03.65	333.70	8.69	
2025-01-13 11:37:03.85	333.66	8.69	
2025-01-13 11:37:04.06	333.62	8.69	
2025-01-13 11:37:04.27	333.58	8.69	
2025-01-13 11:37:04.47	333.54	8.69	
2025-01-13 11:37:04.68	333.50	8.69	
2025-01-13 11:37:04.88	333.46	8.70	
2025-01-13 11:37:05.09	333.42	8.70	
2025-01-13 11:37:05.29	333.38	8.70	
2025-01-13 11:37:05.50	333.34	8.70	
2025-01-13 11:37:05.70	333.30	8.70	
2025-01-13 11:37:05.92	333.26	8.70	
2025-01-13 11:37:06.12	333.22	8.70	
2025-01-13 11:37:06.33	333.18	8.70	
2025-01-13 11:37:06.54	333.14	8.70	
2025-01-13 11:37:06.74	333.10	8.70	
2025-01-13 11:37:06.96	333.06	8.70	
2025-01-13 11:37:07.16	333.02	8.70	
2025-01-13 11:37:07.37	332.98	8.70	
2025-01-13 11:37:07.58	332.94	8.70	
2025-01-13 11:37:07.78	332.90	8.71	
2025-01-13 11:37:07.98	332.86	8.71	
2025-01-13 11:37:08.19	332.82	8.71	
2025-01-13 11:37:08.39	332.78	8.71	
2025-01-13 11:37:08.60	332.74	8.71	
2025-01-13 11:37:08.80	332.70	8.71	
2025-01-13 11:37:09.01	332.66	8.71	
2025-01-13 11:37:09.21	332.62	8.71	
2025-01-13 11:37:09.42	332.58	8.71	
2025-01-13 11:37:09.62	332.54	8.71	
2025-01-13 11:37:09.83	332.50	8.71	
2025-01-13 11:37:10.04	332.46	8.71	
2025-01-13 11:37:10.24	332.42	8.71	
2025-01-13 11:37:10.45	332.38	8.71	
2025-01-13 11:37:10.65	332.34	8.71	
2025-01-13 11:37:10.86	332.30	8.71	
2025-01-13 11:37:11.06	332.26	8.71	
2025-01-13 11:37:11.27	332.22	8.71	
2025-01-13 11:37:11.47	332.18	8.71	
2025-01-13 11:37:11.68	332.14	8.71	
2025-01-13 11:37:11.88	332.10	8.71	
2025-01-13 11:37:12.09	332.06	8.72	
2025-01-13 11:37:12.29	332.02	8.72	
2025-01-13 11:37:12.50	331.98	8.72	
2025-01-13 11:37:12.70	331.94	8.72	
2025-01-13 11:37:12.91	331.90	8.72	
2025-01-13 11:37:13.11	331.86	8.72	
2025-01-13 11:37:13.33	331.82	8.72	
2025-01-13 11:37:13.54	331.78	8.72	
2025-01-13 11:37:13.74	331.74	8.72	
2025-01-13 11:37:13.95	331.70	8.72	
2025-01-13 11:37:14.15	331.66	8.72	
2025-01-13 11:37:14.36	331.62	8.72	
2025-01-13 11:37:14.56	331.58	8.72	
2025-01-13 11:37:14.77	331.54	8.72	
2025-01-13 11:37:14.97	331.50	8.72	
2025-01-13 11:37:15.18	331.46	8.72	
2025-01-13 11:37:15.38	331.42	8.72	
2025-01-13 11:37:15.60	331.38	8.72	
2025-01-13 11:37:15.80	331.34	8.72	
2025-01-13 11:37:16.01	331.30	8.72	
2025-01-13 11:37:16.21	331.26	8.72	
2025-01-13 11:37:16.42	331.22	8.72	
2025-01-13 11:37:16.62	331.18	8.72	
2025-01-13 11:37:16.83	331.14	8.72	
2025-01-13 11:37:17.03	331.10	8.72	
2025-01-13 11:37:17.24	331.06	8.72	
2025-01-13 11:37:17.44	331.02	8.72	
2025-01-13 11:37:17.64	330.98	8.72	
2025-01-13 11:37:17.85	330.94	8.72	
2025-01-13 11:37:18.06	330.90	8.72	
2025-01-13 11:37:18.26	330.86	8.72	
2025-01-13 11:37:18.47	330.82	8.72	
2025-01-13 11:37:18.67	330.78	8.72	
2025-01-13 11:37:18.88	330.74	8.72	
2025-01-13 11:37:19.09	330.70	8.72	
2025-01-13 11:37:19.29	330.66	8.72	
2025-01-13 11:37:19.50	330.62	8.72	
2025-01-13 11:37:19.70	330.58	8.72	
2025-01-13 11:37:19.91	330.54	8.72	
2025-01-13 11:37:20.11	330.50	8.72	
2025-01-13 11:37:20.32	330.46	8.72	
2025-01-13 11:37:20.52	330.42	8.72	
2025-01-13 11:37:20.73	330.38	8.72	
2025-01-13 11:37:20.93	330.34	8.72	
2025-01-13 11:37:21.13	330.30	8.72	
2025-01-13 11:37:21.34	330.26	8.72	
2025-01-13 11:37:21.54	330.22	8.72	
2025-01-13 11:37:21.75	330.18	8.72	
2025-01-13 11:37:21.95	330.14	8.72	
2025-01-13 11:37:22.15	330.10	8.72	
2025-01-13 11:37:22.36	330.06	8.72	
2025-01-13 11:37:22.57	330.02	8.72	
2025-01-13 11:37:22.77	329.98	8.72	
2025-01-13 11:37:22.98	329.94	8.72	
2025-01-13 11:37:23.18	329.90	8.72	
2025-01-13 11:37:23.39	329.86	8.72	
2025-01-13 11:37:23.60	329.82	8.72	
2025-01-13 11:37:23.80	329.78	8.72	
2025-01-13 11:37:24.01	329.74	8.71	
2025-01-13 11:37:24.21	329.70	8.71	
2025-01-13 11:37:24.42	329.66	8.71	
2025-01-13 11:37:24.62	329.62	8.71	
2025-01-13 11:37:24.83	329.58	8.71	
2025-01-13 11:37:25.03	329.54	8.71	
2025-01-13 11:37:25.24	329.50	8.71	
2025-01-13 11:37:25.44	329.46	8.71	
2025-01-13 11:37:25.65	329.42	8.71	
2025-01-13 11:37:25.85	329.38	8.71	
2025-01-13 11:37:26.06	329.34	8.71	
2025-01-13 11:37:26.26	329.30	8.71	
2025-01-13 11:37:26.47	329.26	8.71	
2025-01-13 11:37:26.67	329.22	8.71	
2025-01-13 11:37:26.88	329.18	8.71	
2025-01-13 11:37:27.09	329.14	8.71	
2025-01-13 11:37:27.29	329.10	8.71	
2025-01-13 11:37:27.49	329.06	8.71	
2025-01-13 11:37:27.70	329.02	8.71	
2025-01-13 11:37:27.90	328.98	8.71	
2025-01-13 11:37:28.11	328.94	8.70	
2025-01-13 11:37:28.31	328.90	8.70	
2025-01-13 11:37:28.52	328.86	8.70	
2025-01-13 11:37:28.72	328.82	8.70	
2025-01-13 11:37:28.93	328.78	8.70	
2025-01-13 11:37:29.14	328.74	8.70	
2025-01-13 11:37:29.35	328.70	8.70	
2025-01-13 11:37:29.56	328.66	8.70	
2025-01-13 11:37:29.77	328.62	8.70	
2025-01-13 11:37:29.97	328.58	8.70	
2025-01-13 11:37:30.18	328.54	8.70	
2025-01-13 11:37:30.38	328.50	8.70	
2025-01-13 11:37:30.59	328.46	8.70	
2025-01-13 11:37:30.79	328.42	8.70	
2025-01-13 11:37:31.00	328.38	8.69	
2025-01-13 11:37:31.20	328.34	8.69	
2025-01-13 11:37:31.41	328.30	8.69	
2025-01-13 11:37:31.61	328.26	8.69	
2025-01-13 11:37:31.82	328.22	8.69	
2025-01-13 11:37:32.02	328.18	8.69	
2025-01-13 11:37:32.23	328.14	8.69	
2025-01-13 11:37:32.43	328.10	8.69	
2025-01-13 11:37:32.64	328.06	8.69	
2025-01-13 11:37:32.84	328.02	8.69	
2025-01-13 11:37:33.05	327.98	8.69	
2025-01-13 11:37:33.25	327.94	8.69	
2025-01-13 11:37:33.46	327.90	8.68	
2025-01-13 11:37:33.66	327.86	8.68	
2025-01-13 11:37:33.87	327.82	8.68	
2025-01-13 11:37:34.07	327.78	8.68	
2025-01-13 11:37:34.28	327.74	8.68	
2025-01-13 11:37:34.49	327.70	8.68	
2025-01-13 11:37:34.69	327.66	8.68	
2025-01-13 11:37:34.90	327.62	8.68	
2025-01-13 11:37:35.10	327.58	8.68	
2025-01-13 11:37:35.31	327.54	8.68	
2025-01-13 11:37:35.51	327.50	8.67	
2025-01-13 11:37:35.73	327.46	8.67	
2025-01-13 11:37:35.93	327.42	8.67	
2025-01-13 11:37:36.14	327.38	8.67	
2025-01-13 11:37:36.34	327.34	8.67	
2025-01-13 11:37:36.55	327.30	8.67	
2025-01-13 11:37:36.76	327.26	8.67	
2025-01-13 11:37:36.96	327.22	8.67	
2025-01-13 11:37:37.17	327.18	8.67	
2025-01-13 11:37:37.37	327.14	8.66	
2025-01-13 11:37:37.58	327.10	8.66	
2025-01-13 11:37:37.78	327.06	8.66	
2025-01-13 11:37:37.99	327.02	8.66	
2025-01-13 11:37:38.19	326.98	8.66	
2025-01-13 11:37:38.40	326.94	8.66	
2025-01-13 11:37:38.60	326.90	8.66	
2025-01-13 11:37:38.81	326.86	8.66	
2025-01-13 11:37:39.01	326.82	8.65	
2025-01-13 11:37:39.22	326.78	8.65	
2025-01-13 11:37:39.42	326.74	8.65	
2025-01-13 11:37:39.63	326.70	8.65	
2025-01-13 11:37:39.83	326.67	8.65	
2025-01-13 11:37:40.04	326.62	8.65	
2025-01-13 11:37:40.24	326.59	8.65	
2025-01-13 11:37:40.45	326.55	8.65	
2025-01-13 11:37:40.65	326.51	8.64	
2025-01-13 11:37:40.86	326.47	8.64	
2025-01-13 11:37:41.06	326.43	8.64	
2025-01-13 11:37:41.27	326.39	8.64	
2025-01-13 11:37:41.47	326.35	8.64	
2025-01-13 11:37:41.68	326.31	8.64	
2025-01-13 11:37:41.89	326.27	8.64	
2025-01-13 11:37:42.09	326.23	8.63	
2025-01-13 11:37:42.30	326.19	8.63	
2025-01-13 11:37:42.50	326.15	8.63	
2025-01-13 11:37:42.71	326.11	8.63	
2025-01-13 11:37:42.91	326.07	8.63	
2025-01-13 11:37:43.12	326.03	8.63	
2025-01-13 11:37:43.32	325.99	8.63	
2025-01-13 11:37:43.53	325.95	8.62	
2025-01-13 11:37:43.73	325.91	8.62	
2025-01-13 11:37:43.94	325.87	8.62	
2025-01-13 11:37:44.14	325.83	8.62	
2025-01-13 11:37:44.35	325.79	8.62	
2025-01-13 11:37:44.55	325.75	8.62	
2025-01-13 11:37:44.76	325.71	8.61	
2025-01-13 11:37:44.96	325.67	8.61	
2025-01-13 11:37:45.17	325.63	8.61	
2025-01-13 11:37:45.39	325.59	8.61	
2025-01-13 11:37:45.60	325.55	8.61	
2025-01-13 11:37:45.80	325.51	8.61	
2025-01-13 11:37:46.01	325.47	8.60	
2025-01-13 11:37:46.21	325.43	8.60	
2025-01-13 11:37:46.41	325.39	8.60	
2025-01-13 11:37:46.62	325.35	8.60	
2025-01-13 11:37:46.82	325.31	8.60	
2025-01-13 11:37:47.03	325.27	8.60	
2025-01-13 11:37:47.23	325.23	8.59	
2025-01-13 11:37:47.43	325.20	8.59	
2025-01-13 11:37:47.64	325.16	8.59	
2025-01-13 11:37:47.85	325.11	8.59	
2025-01-13 11:37:48.05	325.08	8.59	
2025-01-13 11:37:48.26	325.04	8.58	
2025-01-13 11:37:48.46	325.00	8.58	
2025-01-13 11:37:48.66	324.96	8.58	
2025-01-13 11:37:48.87	324.92	8.58	
2025-01-13 11:37:49.08	324.88	8.58	
2025-01-13 11:37:49.28	324.84	8.58	
2025-01-13 11:37:49.48	324.80	8.57	
2025-01-13 11:37:49.70	324.76	8.57	
2025-01-13 11:37:49.90	324.72	8.57	
2025-01-13 11:37:50.11	324.68	8.57	
2025-01-13 11:37:50.31	324.64	8.57	
2025-01-13 11:37:50.52	324.60	8.56	
2025-01-13 11:37:50.74	324.56	8.56	
2025-01-13 11:37:50.94	324.52	8.56	
2025-01-13 11:37:51.15	324.48	8.56	
2025-01-13 11:37:51.35	324.44	8.56	
2025-01-13 11:37:51.56	324.40	8.55	
2025-01-13 11:37:51.78	324.36	8.55	
2025-01-13 11:37:51.98	324.32	8.55	
2025-01-13 11:37:52.19	324.28	8.55	
2025-01-13 11:37:52.39	324.24	8.55	
2025-01-13 11:37:52.60	324.20	8.54	
2025-01-13 11:37:52.81	324.16	8.54	
2025-01-13 11:37:53.02	324.12	8.54	
2025-01-13 11:37:53.23	324.08	8.54	
2025-01-13 11:37:53.43	324.04	8.54	
2025-01-13 11:37:53.64	324.00	8.53	
2025-01-13 11:37:53.84	323.96	8.53	
2025-01-13 11:37:54.05	323.92	8.53	
2025-01-13 11:37:54.25	323.88	8.53	
2025-01-13 11:37:54.46	323.84	8.52	
2025-01-13 11:37:54.66	323.80	8.52	
2025-01-13 11:37:54.86	323.77	8.52	
2025-01-13 11:37:55.07	323.73	8.52	
2025-01-13 11:37:55.27	323.69	8.52	
2025-01-13 11:37:55.48	323.65	8.51	
2025-01-13 11:37:55.69	323.61	8.51	
2025-01-13 11:37:55.89	323.57	8.51	
2025-01-13 11:37:56.09	323.53	8.51	
2025-01-13 11:37:56.30	323.49	8.50	
2025-01-13 11:37:56.50	323.45	8.50	
2025-01-13 11:37:56.71	323.41	8.50	
2025-01-13 11:37:56.91	323.37	8.50	
2025-01-13 11:37:57.12	323.33	8.50	
2025-01-13 11:37:57.32	323.29	8.49	
2025-01-13 11:37:57.53	323.25	8.49	
2025-01-13 11:37:57.73	323.22	8.49	
2025-01-13 11:37:57.94	323.18	8.49	
2025-01-13 11:37:58.14	323.14	8.48	
2025-01-13 11:37:58.35	323.10	8.48	
2025-01-13 11:37:58.55	323.06	8.48	
2025-01-13 11:37:58.76	323.02	8.48	
2025-01-13 11:37:58.96	322.98	8.47	
2025-01-13 11:37:59.17	322.94	8.47	
2025-01-13 11:37:59.37	322.90	8.47	
2025-01-13 11:37:59.58	322.86	8.47	
2025-01-13 11:37:59.78	322.82	8.46	
2025-01-13 11:37:59.99	322.78	8.46	
2025-01-13 11:38:00.19	322.74	8.46	
2025-01-13 11:38:00.39	322.71	8.46	
2025-01-13 11:38:00.60	322.67	8.45	
2025-01-13 11:38:00.81	322.63	8.45	
2025-01-13 11:38:01.01	322.59	8.45	
2025-01-13 11:38:01.22	322.55	8.45	
2025-01-13 11:38:01.42	322.51	8.44	
2025-01-13 11:38:01.63	322.47	8.44	
2025-01-13 11:38:01.83	322.43	8.44	
2025-01-13 11:38:02.04	322.39	8.44	
2025-01-13 11:38:02.24	322.35	8.43	
2025-01-13 11:38:02.46	322.31	8.43	
2025-01-13 11:38:02.67	322.27	8.43	
2025-01-13 11:38:02.87	322.23	8.43	
2025-01-13 11:38:03.08	322.19	8.42	
2025-01-13 11:38:03.28	322.16	8.42	
2025-01-13 11:38:03.49	322.12	8.42	
2025-01-13 11:38:03.69	322.08	8.41	
2025-01-13 11:38:03.90	322.04	8.41	
2025-01-13 11:38:04.10	322.00	8.41	
2025-01-13 11:38:04.31	321.96	8.41	
2025-01-13 11:38:04.51	321.92	8.40	
2025-01-13 11:38:04.72	321.88	8.40	
2025-01-13 11:38:04.92	321.84	8.40	
2025-01-13 11:38:05.13	321.80	8.40	
2025-01-13 11:38:05.34	321.76	8.39	
2025-01-13 11:38:05.54	321.73	8.39	
2025-01-13 11:38:05.75	321.69	8.39	
2025-01-13 11:38:05.95	321.65	8.38	
2025-01-13 11:38:06.16	321.61	8.38	
2025-01-13 11:38:06.36	321.57	8.38	
2025-01-13 11:38:06.57	321.53	8.38	
2025-01-13 11:38:06.77	321.49	8.37	
2025-01-13 11:38:06.98	321.45	8.37	
2025-01-13 11:38:07.18	321.41	8.37	
2025-01-13 11:38:07.39	321.37	8.36	
2025-01-13 11:38:07.59	321.34	8.36	
2025-01-13 11:38:07.80	321.30	8.36	
2025-01-13 11:38:08.00	321.26	8.36	
2025-01-13 11:38:08.21	321.22	8.35	
2025-01-13 11:38:08.41	321.18	8.35	
2025-01-13 11:38:08.62	321.14	8.35	
2025-01-13 11:38:08.84	321.10	8.34	
2025-01-13 11:38:09.04	321.06	8.34	
2025-01-13 11:38:09.24	321.02	8.34	
2025-01-13 11:38:09.45	320.98	8.33	
2025-01-13 11:38:09.65	320.95	8.33	
2025-01-13 11:38:09.86	320.91	8.33	
2025-01-13 11:38:10.06	320.87	8.33	
2025-01-13 11:38:10.27	320.83	8.32	
2025-01-13 11:38:10.47	320.79	8.32	
2025-01-13 11:38:10.68	320.75	8.32	
2025-01-13 11:38:10.88	320.71	8.31	
2025-01-13 11:38:11.09	320.67	8.31	
2025-01-13 11:38:11.29	320.64	8.31	
2025-01-13 11:38:11.50	320.60	8.30	
2025-01-13 11:38:11.71	320.56	8.30	
2025-01-13 11:38:11.91	320.52	8.30	
2025-01-13 11:38:12.12	320.48	8.29	
2025-01-13 11:38:12.32	320.44	8.29	
2025-01-13 11:38:12.53	320.40	8.29	
2025-01-13 11:38:12.74	320.36	8.28	
2025-01-13 11:38:12.94	320.32	8.28	
2025-01-13 11:38:13.14	320.29	8.28	
2025-01-13 11:38:13.35	320.25	8.27	
2025-01-13 11:38:13.56	320.21	8.27	
2025-01-13 11:38:13.76	320.17	8.27	
2025-01-13 11:38:13.97	320.13	8.26	
2025-01-13 11:38:14.17	320.09	8.26	
2025-01-13 11:38:14.38	320.05	8.26	
2025-01-13 11:38:14.58	320.02	8.26	
2025-01-13 11:38:14.79	319.98	8.25	
2025-01-13 11:38:14.99	319.94	8.25	
2025-01-13 11:38:15.19	319.90	8.25	
2025-01-13 11:38:15.40	319.86	8.24	
2025-01-13 11:38:15.60	319.82	8.24	
2025-01-13 11:38:15.81	319.78	8.24	
2025-01-13 11:38:16.01	319.75	8.23	
2025-01-13 11:38:16.22	319.71	8.23	
2025-01-13 11:38:16.42	319.67	8.22	
2025-01-13 11:38:16.64	319.63	8.22	
2025-01-13 11:38:16.84	319.59	8.22	
2025-01-13 11:38:17.05	319.55	8.21	
2025-01-13 11:38:17.25	319.51	8.21	
2025-01-13 11:38:17.46	319.47	8.21	
2025-01-13 11:38:17.66	319.44	8.20	
2025-01-13 11:38:17.87	319.40	8.20	
2025-01-13 11:38:18.08	319.36	8.20	
2025-01-13 11:38:18.28	319.32	8.19	
2025-01-13 11:38:18.49	319.28	8.19	
2025-01-13 11:38:18.69	319.24	8.19	
2025-01-13 11:38:18.90	319.20	8.18	
2025-01-13 11:38:19.11	319.16	8.18	
2025-01-13 11:38:19.31	319.13	8.18	
2025-01-13 11:38:19.51	319.09	8.17	
2025-01-13 11:38:19.72	319.05	8.17	
2025-01-13 11:38:19.93	319.01	8.17	
2025-01-13 11:38:20.13	318.97	8.16	
2025-01-13 11:38:20.34	318.93	8.16	
2025-01-13 11:38:20.54	318.90	8.15	
2025-01-13 11:38:20.75	318.86	8.15	
2025-01-13 11:38:20.97	318.82	8.15	
2025-01-13 11:38:21.17	318.78	8.14	
2025-01-13 11:38:21.38	318.74	8.14	
2025-01-13 11:38:21.59	318.70	8.14	
2025-01-13 11:38:21.80	318.66	8.13	
2025-01-13 11:38:22.01	318.62	8.13	
2025-01-13 11:38:22.21	318.59	8.12	
2025-01-13 11:38:22.42	318.55	8.12	
2025-01-13 11:38:22.62	318.51	8.12	
2025-01-13 11:38:22.83	318.47	8.11	
2025-01-13 11:38:23.03	318.43	8.11	
2025-01-13 11:38:23.24	318.39	8.11	
2025-01-13 11:38:23.44	318.36	8.10	
2025-01-13 11:38:23.65	318.32	8.10	
2025-01-13 11:38:23.85	318.28	8.09	
2025-01-13 11:38:24.06	318.24	8.09	
2025-01-13 11:38:24.26	318.20	8.09	
2025-01-13 11:38:24.47	318.17	8.08	
2025-01-13 11:38:24.67	318.13	8.08	
2025-01-13 11:38:24.88	318.09	8.08	
2025-01-13 11:38:25.08	318.05	8.07	
2025-01-13 11:38:25.29	318.01	8.07	
2025-01-13 11:38:25.49	317.98	8.06	
2025-01-13 11:38:25.70	317.94	8.06	
2025-01-13 11:38:25.92	317.90	8.06	
2025-01-13 11:38:26.12	317.86	8.05	
2025-01-13 11:38:26.33	317.82	8.05	
2025-01-13 11:38:26.53	317.78	8.04	
2025-01-13 11:38:26.73	317.75	8.04	
2025-01-13 11:38:26.94	317.71	8.04	
2025-01-13 11:38:27.14	317.67	8.03	
2025-01-13 11:38:27.34	317.63	8.03	
2025-01-13 11:38:27.55	317.59	8.02	
2025-01-13 11:38:27.77	317.55	8.02	
2025-01-13 11:38:27.97	317.52	8.02	
2025-01-13 11:38:28.17	317.48	8.01	
2025-01-13 11:38:28.38	317.44	8.01	
2025-01-13 11:38:28.58	317.40	8.00	
2025-01-13 11:38:28.79	317.37	8.00	
2025-01-13 11:38:28.99	317.33	8.00	
2025-01-13 11:38:29.20	317.29	7.99	
2025-01-13 11:38:29.40	317.25	7.99	
2025-01-13 11:38:29.61	317.21	7.98	
2025-01-13 11:38:29.81	317.18	7.98	
2025-01-13 11:38:30.02	317.14	7.98	
2025-01-13 11:38:30.22	317.10	7.97	
2025-01-13 11:38:30.43	317.06	7.97	
2025-01-13 11:38:30.63	317.03	7.96	
2025-01-13 11:38:30.83	316.99	7.96	
2025-01-13 11:38:31.04	316.95	7.96	
2025-01-13 11:38:31.24	316.91	7.95	
2025-01-13 11:38:31.45	316.88	7.95	
2025-01-13 11:38:31.65	316.84	7.94	
2025-01-13 11:38:31.86	316.80	7.94	
2025-01-13 11:38:32.07	316.76	7.93	
2025-01-13 11:38:32.27	316.72	7.93	
2025-01-13 11:38:32.48	316.69	7.93	
2025-01-13 11:38:32.68	316.65	7.92	
2025-01-13 11:38:32.89	316.61	7.92	
2025-01-13 11:38:33.09	316.57	7.91	
2025-01-13 11:38:33.30	316.54	7.91	
2025-01-13 11:38:33.50	316.50	7.90	
2025-01-13 11:38:33.71	316.46	7.90	
2025-01-13 11:38:33.91	316.42	7.90	
2025-01-13 11:38:34.12	316.39	7.89	
2025-01-13 11:38:34.32	316.35	7.89	
2025-01-13 11:38:34.53	316.31	7.88	
2025-01-13 11:38:34.73	316.27	7.88	
2025-01-13 11:38:34.94	316.24	7.87	
2025-01-13 11:38:35.14	316.20	7.87	
2025-01-13 11:38:35.35	316.16	7.87	
2025-01-13 11:38:35.55	316.12	7.86	
2025-01-13 11:38:35.76	316.09	7.86	
2025-01-13 11:38:35.96	316.05	7.85	
2025-01-13 11:38:36.17	316.01	7.85	
2025-01-13 11:38:36.37	315.97	7.84	
2025-01-13 11:38:36.58	315.94	7.84	
2025-01-13 11:38:36.78	315.90	7.83	
2025-01-13 11:38:36.99	315.86	7.83	
2025-01-13 11:38:37.19	315.82	7.83	
2025-01-13 11:38:37.40	315.79	7.82	
2025-01-13 11:38:37.60	315.75	7.82	
2025-01-13 11:38:37.81	315.71	7.81	
2025-01-13 11:38:38.01	315.68	7.81	
2025-01-13 11:38:38.22	315.64	7.80	
2025-01-13 11:38:38.42	315.60	7.80	
2025-01-13 11:38:38.63	315.56	7.79	
2025-01-13 11:38:38.84	315.52	7.79	
2025-01-13 11:38:39.05	315.49	7.78	
2025-01-13 11:38:39.25	315.45	7.78	
2025-01-13 11:38:39.46	315.41	7.78	
2025-01-13 11:38:39.66	315.38	7.77	
2025-01-13 11:38:39.88	315.34	7.77	
2025-01-13 11:38:40.09	315.30	7.76	
2025-01-13 11:38:40.29	315.26	7.76	
2025-01-13 11:38:40.50	315.22	7.75	
2025-01-13 11:38:40.72	315.18	7.75	
2025-01-13 11:38:40.92	315.15	7.74	
2025-01-13 11:38:41.12	315.11	7.74	
2025-01-13 11:38:41.33	315.07	7.73	
2025-01-13 11:38:41.54	315.03	7.73	
2025-01-13 11:38:41.74	315.00	7.72	
2025-01-13 11:38:41.95	314.96	7.72	
2025-01-13 11:38:42.15	314.92	7.72	
2025-01-13 11:38:42.36	314.89	7.71	
2025-01-13 11:38:42.56	314.85	7.71	
2025-01-13 11:38:42.77	314.81	7.70	
2025-01-13 11:38:42.99	314.77	7.70	
2025-01-13 11:38:43.19	314.74	7.69	
2025-01-13 11:38:43.40	314.70	7.69	
2025-01-13 11:38:43.60	314.66	7.68	
2025-01-13 11:38:43.81	314.62	7.68	
2025-01-13 11:38:44.01	314.59	7.67	
2025-01-13 11:38:44.22	314.55	7.67	
2025-01-13 11:38:44.42	314.51	7.66	
2025-01-13 11:38:44.63	314.48	7.66	
2025-01-13 11:38:44.83	314.44	7.65	
2025-01-13 11:38:45.04	314.40	7.65	
2025-01-13 11:38:45.24	314.37	7.64	
2025-01-13 11:38:45.44	314.33	7.64	
2025-01-13 11:38:45.65	314.29	7.63	
2025-01-13 11:38:45.86	314.26	7.63	
2025-01-13 11:38:46.06	314.22	7.62	
2025-01-13 11:38:46.27	314.18	7.62	
2025-01-13 11:38:46.47	314.15	7.61	
2025-01-13 11:38:46.68	314.11	7.61	
2025-01-13 11:38:46.88	314.07	7.60	
2025-01-13 11:38:47.09	314.04	7.60	
2025-01-13 11:38:47.29	314.00	7.59	
2025-01-13 11:38:47.50	313.96	7.59	
2025-01-13 11:38:47.70	313.93	7.58	
2025-01-13 11:38:47.91	313.89	7.58	
2025-01-13 11:38:48.11	313.85	7.57	
2025-01-13 11:38:48.33	313.81	7.57	
2025-01-13 11:38:48.54	313.78	7.56	
2025-01-13 11:38:48.74	313.74	7.56	
2025-01-13 11:38:48.95	313.70	7.55	
2025-01-13 11:38:49.15	313.67	7.55	
2025-01-13 11:38:49.36	313.63	7.54	
2025-01-13 11:38:49.56	313.59	7.54	
2025-01-13 11:38:49.77	313.56	7.53	
2025-01-13 11:38:49.97	313.52	7.53	
2025-01-13 11:38:50.18	313.48	7.52	
2025-01-13 11:38:50.38	313.45	7.52	
2025-01-13 11:38:50.59	313.41	7.51	
2025-01-13 11:38:50.79	313.37	7.51	
2025-01-13 11:38:51.00	313.34	7.50	
2025-01-13 11:38:51.20	313.30	7.50	
2025-01-13 11:38:51.41	313.26	7.49	
2025-01-13 11:38:51.61	313.23	7.49	
2025-01-13 11:38:51.82	313.19	7.48	
2025-01-13 11:38:52.02	313.16	7.48	
2025-01-13 11:38:52.23	313.12	7.47	
2025-01-13 11:38:52.44	313.08	7.47	
2025-01-13 11:38:52.64	313.05	7.46	
2025-01-13 11:38:52.85	313.01	7.46	
2025-01-13 11:38:53.05	312.97	7.45	
2025-01-13 11:38:53.26	312.94	7.45	
2025-01-13 11:38:53.46	312.90	7.44	
2025-01-13 11:38:53.67	312.86	7.44	
2025-01-13 11:38:53.87	312.83	7.43	
2025-01-13 11:38:54.08	312.79	7.43	
2025-01-13 11:38:54.28	312.76	7.42	
2025-01-13 11:38:54.49	312.72	7.42	
2025-01-13 11:38:54.69	312.68	7.41	
2025-01-13 11:38:54.90	312.65	7.40	
2025-01-13 11:38:55.10	312.61	7.40	
2025-01-13 11:38:55.31	312.57	7.39	
2025-01-13 11:38:55.51	312.54	7.39	
2025-01-13 11:38:55.71	312.50	7.38	
2025-01-13 11:38:55.92	312.47	7.38	
2025-01-13 11:38:56.13	312.43	7.37	
2025-01-13 11:38:56.33	312.39	7.37	
2025-01-13 11:38:56.54	312.36	7.36	
2025-01-13 11:38:56.74	312.32	7.36	
2025-01-13 11:38:56.95	312.28	7.35	
2025-01-13 11:38:57.15	312.25	7.35	
2025-01-13 11:38:57.36	312.21	7.34	
2025-01-13 11:38:57.56	312.18	7.34	
2025-01-13 11:38:57.77	312.14	7.33	
2025-01-13 11:38:57.97	312.11	7.32	
2025-01-13 11:38:58.18	312.07	7.32	
2025-01-13 11:38:58.38	312.03	7.31	
2025-01-13 11:38:58.59	312.00	7.31	
2025-01-13 11:38:58.80	311.96	7.30	
2025-01-13 11:38:59.00	311.93	7.30	
2025-01-13 11:38:59.21	311.89	7.29	
2025-01-13 11:38:59.41	311.85	7.29	
2025-01-13 11:38:59.62	311.82	7.28	
2025-01-13 11:38:59.82	311.78	7.28	
2025-01-13 11:39:00.03	311.74	7.27	
2025-01-13 11:39:00.23	311.71	7.26	
2025-01-13 11:39:00.44	311.67	7.26	
2025-01-13 11:39:00.64	311.64	7.25	
2025-01-13 11:39:00.85	311.60	7.25	
2025-01-13 11:39:01.07	311.56	7.24	
2025-01-13 11:39:01.27	311.53	7.24	
2025-01-13 11:39:01.48	311.49	7.23	
2025-01-13 11:39:01.68	311.46	7.23	
2025-01-13 11:39:01.89	311.42	7.22	
2025-01-13 11:39:02.09	311.39	7.21	
2025-01-13 11:39:02.30	311.35	7.21	
2025-01-13 11:39:02.51	311.31	7.20	
2025-01-13 11:39:02.71	311.28	7.20	
2025-01-13 11:39:02.92	311.24	7.19	
2025-01-13 11:39:03.12	311.21	7.19	
2025-01-13 11:39:03.33	311.17	7.18	
2025-01-13 11:39:03.53	311.14	7.18	
2025-01-13 11:39:03.73	311.10	7.17	
2025-01-13 11:39:03.94	311.06	7.16	
2025-01-13 11:39:04.14	311.03	7.16	
2025-01-13 11:39:04.36	310.99	7.15	
2025-01-13 11:39:04.57	310.95	7.15	
2025-01-13 11:39:04.77	310.92	7.14	
2025-01-13 11:39:04.98	310.88	7.14	
2025-01-13 11:39:05.18	310.85	7.13	
2025-01-13 11:39:05.39	310.81	7.12	
2025-01-13 11:39:05.59	310.78	7.12	
2025-01-13 11:39:05.80	310.74	7.11	
2025-01-13 11:39:06.00	310.71	7.11	
2025-01-13 11:39:06.21	310.67	7.10	
2025-01-13 11:39:06.41	310.64	7.10	
2025-01-13 11:39:06.62	310.60	7.09	
2025-01-13 11:39:06.82	310.57	7.08	
2025-01-13 11:39:07.03	310.53	7.08	
2025-01-13 11:39:07.23	310.50	7.07	
2025-01-13 11:39:07.43	310.46	7.07	
2025-01-13 11:39:07.64	310.43	7.06	
2025-01-13 11:39:07.84	310.39	7.06	
2025-01-13 11:39:08.05	310.35	7.05	
2025-01-13 11:39:08.25	310.32	7.04	
2025-01-13 11:39:08.46	310.28	7.04	
2025-01-13 11:39:08.67	310.25	7.03	
2025-01-13 11:39:08.88	310.21	7.03	
2025-01-13 11:39:09.09	310.18	7.02	
2025-01-13 11:39:09.29	310.14	7.01	
2025-01-13 11:39:09.50	310.11	7.01	
2025-01-13 11:39:09.70	310.07	7.00	
2025-01-13 11:39:09.90	310.04	7.00	
2025-01-13 11:39:10.11	310.00	6.99	
2025-01-13 11:39:10.32	309.97	6.98	
2025-01-13 11:39:10.52	309.93	6.98	
2025-01-13 11:39:10.73	309.90	6.97	
2025-01-13 11:39:10.93	309.86	6.97	
2025-01-13 11:39:11.14	309.83	6.96	
2025-01-13 11:39:11.34	309.79	6.95	
2025-01-13 11:39:11.55	309.76	6.95	
2025-01-13 11:39:11.75	309.72	6.94	
2025-01-13 11:39:11.95	309.69	6.94	
2025-01-13 11:39:12.16	309.65	6.93	
2025-01-13 11:39:12.37	309.62	6.92	
2025-01-13 11:39:12.57	309.58	6.92	
2025-01-13 11:39:12.77	309.55	6.91	
2025-01-13 11:39:12.98	309.51	6.91	
2025-01-13 11:39:13.18	309.48	6.90	
2025-01-13 11:39:13.39	309.44	6.89	
2025-01-13 11:39:13.60	309.41	6.89	
2025-01-13 11:39:13.80	309.37	6.88	
2025-01-13 11:39:14.00	309.34	6.88	
2025-01-13 11:39:14.21	309.30	6.87	
2025-01-13 11:39:14.42	309.27	6.86	
2025-01-13 11:39:14.62	309.23	6.86	
2025-01-13 11:39:14.83	309.20	6.85	
2025-01-13 11:39:15.03	309.16	6.85	
2025-01-13 11:39:15.24	309.13	6.84	
2025-01-13 11:39:15.44	309.09	6.83	
2025-01-13 11:39:15.65	309.06	6.83	
2025-01-13 11:39:15.85	309.02	6.82	
2025-01-13 11:39:16.07	308.99	6.82	
2025-01-13 11:39:16.28	308.95	6.81	
2025-01-13 11:39:16.48	308.92	6.80	
2025-01-13 11:39:16.68	308.88	6.80	
2025-01-13 11:39:16.89	308.85	6.79	
2025-01-13 11:39:17.09	308.82	6.79	
2025-01-13 11:39:17.30	308.78	6.78	
2025-01-13 11:39:17.51	308.74	6.77	
2025-01-13 11:39:17.71	308.71	6.77	
2025-01-13 11:39:17.92	308.68	6.76	
2025-01-13 11:39:18.13	308.64	6.75	
2025-01-13 11:39:18.34	308.61	6.75	
2025-01-13 11:39:18.54	308.57	6.74	
2025-01-13 11:39:18.75	308.54	6.73	
2025-01-13 11:39:18.95	308.50	6.73	
2025-01-13 11:39:19.16	308.47	6.72	
2025-01-13 11:39:19.36	308.43	6.72	
2025-01-13 11:39:19.57	308.40	6.71	
2025-01-13 11:39:19.77	308.37	6.70	
2025-01-13 11:39:19.98	308.33	6.70	
2025-01-13 11:39:20.18	308.30	6.69	
2025-01-13 11:39:20.39	308.26	6.68	
2025-01-13 11:39:20.59	308.23	6.68	
2025-01-13 11:39:20.80	308.19	6.67	
2025-01-13 11:39:21.01	308.16	6.67	
2025-01-13 11:39:21.21	308.12	6.66	
2025-01-13 11:39:21.42	308.09	6.65	
2025-01-13 11:39:21.62	308.06	6.65	
2025-01-13 11:39:21.83	308.02	6.64	
2025-01-13 11:39:22.03	307.99	6.63	
2025-01-13 11:39:22.24	307.95	6.63	
2025-01-13 11:39:22.44	307.92	6.62	
2025-01-13 11:39:22.65	307.88	6.62	
2025-01-13 11:39:22.85	307.85	6.61	
2025-01-13 11:39:23.06	307.82	6.60	
2025-01-13 11:39:23.27	307.78	6.60	
2025-01-13 11:39:23.47	307.75	6.59	
2025-01-13 11:39:23.67	307.72	6.58	
2025-01-13 11:39:23.88	307.68	6.58	
2025-01-13 11:39:24.08	307.65	6.57	
2025-01-13 11:39:24.29	307.61	6.56	
2025-01-13 11:39:24.49	307.58	6.56	
2025-01-13 11:39:24.70	307.54	6.55	
2025-01-13 11:39:24.90	307.51	6.55	
2025-01-13 11:39:25.11	307.48	6.54	
2025-01-13 11:39:25.31	307.44	6.53	
2025-01-13 11:39:25.52	307.41	6.53	
2025-01-13 11:39:25.72	307.38	6.52	
2025-01-13 11:39:25.93	307.34	6.51	
2025-01-13 11:39:26.13	307.31	6.51	
2025-01-13 11:39:26.34	307.27	6.50	
2025-01-13 11:39:26.54	307.24	6.49	
2025-01-13 11:39:26.75	307.21	6.49	
2025-01-13 11:39:26.96	307.17	6.48	
2025-01-13 11:39:27.16	307.14	6.47	
2025-01-13 11:39:27.37	307.10	6.47	
2025-01-13 11:39:27.57	307.07	6.46	
2025-01-13 11:39:27.78	307.04	6.45	
2025-01-13 11:39:27.98	307.00	6.45	
2025-01-13 11:39:28.19	306.97	6.44	
2025-01-13 11:39:28.39	306.94	6.43	
2025-01-13 11:39:28.60	306.90	6.43	
2025-01-13 11:39:28.80	306.87	6.42	
2025-01-13 11:39:29.01	306.83	6.41	
2025-01-13 11:39:29.21	306.80	6.41	
2025-01-13 11:39:29.42	306.77	6.40	
2025-01-13 11:39:29.62	306.73	6.40	
2025-01-13 11:39:29.83	306.70	6.39	
2025-01-13 11:39:30.03	306.67	6.38	
2025-01-13 11:39:30.24	306.63	6.38	
2025-01-13 11:39:30.44	306.60	6.37	
2025-01-13 11:39:30.65	306.57	6.36	
2025-01-13 11:39:30.85	306.53	6.36	
2025-01-13 11:39:31.06	306.50	6.35	
2025-01-13 11:39:31.26	306.47	6.34	
2025-01-13 11:39:31.47	306.43	6.34	
2025-01-13 11:39:31.67	306.40	6.33	
2025-01-13 11:39:31.88	306.37	6.32	
2025-01-13 11:39:32.10	306.33	6.31	
2025-01-13 11:39:32.30	306.30	6.31	
2025-01-13 11:39:32.51	306.26	6.30	
2025-01-13 11:39:32.71	306.23	6.30	
2025-01-13 11:39:32.92	306.20	6.29	
2025-01-13 11:39:33.12	306.16	6.28	
2025-01-13 11:39:33.33	306.13	6.27	
2025-01-13 11:39:33.53	306.10	6.27	
2025-01-13 11:39:33.74	306.06	6.26	
2025-01-13 11:39:33.94	306.03	6.25	
2025-01-13 11:39:34.15	306.00	6.25	
2025-01-13 11:39:34.35	305.97	6.24	
2025-01-13 11:39:34.56	305.93	6.23	
2025-01-13 11:39:34.76	305.90	6.23	
2025-01-13 11:39:34.97	305.86	6.22	
2025-01-13 11:39:35.17	305.83	6.21	
2025-01-13 11:39:35.38	305.80	6.21	
2025-01-13 11:39:35.58	305.77	6.20	
2025-01-13 11:39:35.79	305.73	6.19	
2025-01-13 11:39:35.99	305.70	6.19	
2025-01-13 11:39:36.21	305.67	6.18	
2025-01-13 11:39:36.41	305.63	6.17	
2025-01-13 11:39:36.62	305.60	6.17	
2025-01-13 11:39:36.83	305.57	6.16	
2025-01-13 11:39:37.03	305.53	6.15	
2025-01-13 11:39:37.24	305.50	6.15	
2025-01-13 11:39:37.44	305.47	6.14	
2025-01-13 11:39:37.65	305.43	6.13	
2025-01-13 11:39:37.85	305.40	6.13	
2025-01-13 11:39:38.06	305.37	6.12	
2025-01-13 11:39:38.26	305.34	6.11	
2025-01-13 11:39:38.46	305.30	6.10	
2025-01-13 11:39:38.67	305.27	6.10	
2025-01-13 11:39:38.88	305.24	6.09	
2025-01-13 11:39:39.08	305.20	6.08	
2025-01-13 11:39:39.29	305.17	6.08	
2025-01-13 11:39:39.49	305.14	6.07	
2025-01-13 11:39:39.70	305.11	6.06	
2025-01-13 11:39:39.90	305.07	6.06	
2025-01-13 11:39:40.11	305.04	6.05	
2025-01-13 11:39:40.31	305.01	6.04	
2025-01-13 11:39:40.52	304.97	6.04	
2025-01-13 11:39:40.72	304.94	6.03	
2025-01-13 11:39:40.93	304.91	6.02	
2025-01-13 11:39:41.13	304.88	6.01	
2025-01-13 11:39:41.34	304.84	6.01	
2025-01-13 11:39:41.54	304.81	6.00	
2025-01-13 11:39:41.75	304.78	5.99	
2025-01-13 11:39:41.95	304.75	5.99	
2025-01-13 11:39:42.16	304.71	5.98	
2025-01-13 11:39:42.36	304.68	5.97	
2025-01-13 11:39:42.57	304.65	5.97	
2025-01-13 11:39:42.78	304.62	5.96	
2025-01-13 11:39:42.99	304.58	5.95	
2025-01-13 11:39:43.19	304.55	5.94	
2025-01-13 11:39:43.40	304.52	5.94	
2025-01-13 11:39:43.60	304.49	5.93	
2025-01-13 11:39:43.81	304.45	5.92	
2025-01-13 11:39:44.01	304.42	5.92	
