passes_logs/2025/01/13/SPB_Silybum_02/SPB_Silybum_02__20250113_193237_TERRA_rec.log

#Pass ID: 20250113_193237_TERRA
#Satellite: TERRA
#Configuration: TERRA
#Start time: 2025-01-13 19:32:36

#Version: 2.0.20230423
#Station: SPB_Silybum_02
#Location: 30.233357 lon 59.946436 lat
#TLE: 1 25994U 99068A   25012.80475962  .00000761  00000+0  16654-3 0  9990
#TLE: 2 25994  98.0220  75.9049 0003508  77.1547  57.1006 14.60390868333758

#Time	Az	El	Level	Level2	SNR	BER	Gain	Gain2
2025-01-13 19:32:38.54	193.64	4.05	
2025-01-13 19:32:38.74	193.66	4.06	
2025-01-13 19:32:38.95	193.67	4.08	
2025-01-13 19:32:39.15	193.68	4.09	
2025-01-13 19:32:39.36	193.69	4.11	
2025-01-13 19:32:39.56	193.71	4.12	
2025-01-13 19:32:39.77	193.72	4.13	
2025-01-13 19:32:39.97	193.73	4.15	
2025-01-13 19:32:40.18	193.75	4.16	
2025-01-13 19:32:40.38	193.76	4.17	
2025-01-13 19:32:40.59	193.77	4.19	
2025-01-13 19:32:40.79	193.78	4.20	
2025-01-13 19:32:41.00	193.80	4.22	
2025-01-13 19:32:41.20	193.81	4.23	
2025-01-13 19:32:41.41	193.82	4.24	
2025-01-13 19:32:41.61	193.84	4.26	
2025-01-13 19:32:41.82	193.85	4.27	
2025-01-13 19:32:42.03	193.86	4.29	
2025-01-13 19:32:42.23	193.87	4.30	
2025-01-13 19:32:42.44	193.89	4.31	
2025-01-13 19:32:42.64	193.90	4.33	
2025-01-13 19:32:42.84	193.91	4.34	
2025-01-13 19:32:43.05	193.93	4.35	
2025-01-13 19:32:43.26	193.94	4.37	
2025-01-13 19:32:43.46	193.95	4.38	
2025-01-13 19:32:43.66	193.96	4.40	
2025-01-13 19:32:43.87	193.98	4.41	
2025-01-13 19:32:44.07	193.99	4.42	
2025-01-13 19:32:44.28	194.00	4.44	
2025-01-13 19:32:44.48	194.02	4.45	
2025-01-13 19:32:44.69	194.03	4.47	
2025-01-13 19:32:44.89	194.04	4.48	
2025-01-13 19:32:45.10	194.06	4.49	
2025-01-13 19:32:45.31	194.07	4.51	
2025-01-13 19:32:45.51	194.08	4.52	
2025-01-13 19:32:45.72	194.09	4.54	
2025-01-13 19:32:45.92	194.11	4.55	
2025-01-13 19:32:46.13	194.12	4.56	
2025-01-13 19:32:46.33	194.13	4.58	
2025-01-13 19:32:46.54	194.15	4.59	
2025-01-13 19:32:46.74	194.16	4.61	
2025-01-13 19:32:46.95	194.17	4.62	
2025-01-13 19:32:47.15	194.19	4.63	
2025-01-13 19:32:47.36	194.20	4.65	
2025-01-13 19:32:47.56	194.21	4.66	
2025-01-13 19:32:47.77	194.23	4.68	
2025-01-13 19:32:47.97	194.24	4.69	
2025-01-13 19:32:48.18	194.25	4.70	
2025-01-13 19:32:48.38	194.27	4.72	
2025-01-13 19:32:48.59	194.28	4.73	
2025-01-13 19:32:48.79	194.29	4.75	
2025-01-13 19:32:49.00	194.31	4.76	
2025-01-13 19:32:49.21	194.32	4.78	
2025-01-13 19:32:49.41	194.33	4.79	
2025-01-13 19:32:49.62	194.35	4.80	
2025-01-13 19:32:49.82	194.36	4.82	
2025-01-13 19:32:50.03	194.37	4.83	
2025-01-13 19:32:50.23	194.39	4.85	
2025-01-13 19:32:50.44	194.40	4.86	
2025-01-13 19:32:50.64	194.41	4.87	
2025-01-13 19:32:50.86	194.43	4.89	
2025-01-13 19:32:51.07	194.44	4.90	
2025-01-13 19:32:51.27	194.45	4.92	
2025-01-13 19:32:51.48	194.47	4.93	
2025-01-13 19:32:51.68	194.48	4.95	
2025-01-13 19:32:51.89	194.49	4.96	
2025-01-13 19:32:52.10	194.51	4.98	
2025-01-13 19:32:52.30	194.52	4.99	
2025-01-13 19:32:52.51	194.54	5.00	
2025-01-13 19:32:52.71	194.55	5.02	
2025-01-13 19:32:52.92	194.56	5.03	
2025-01-13 19:32:53.12	194.58	5.05	
2025-01-13 19:32:53.33	194.59	5.06	
2025-01-13 19:32:53.54	194.60	5.08	
2025-01-13 19:32:53.74	194.62	5.09	
2025-01-13 19:32:53.95	194.63	5.10	
2025-01-13 19:32:54.15	194.64	5.12	
2025-01-13 19:32:54.36	194.66	5.13	
2025-01-13 19:32:54.56	194.67	5.15	
2025-01-13 19:32:54.77	194.69	5.16	
2025-01-13 19:32:54.97	194.70	5.17	
2025-01-13 19:32:55.18	194.71	5.19	
2025-01-13 19:32:55.38	194.73	5.20	
2025-01-13 19:32:55.59	194.74	5.22	
2025-01-13 19:32:55.79	194.75	5.23	
2025-01-13 19:32:56.00	194.77	5.25	
2025-01-13 19:32:56.20	194.78	5.26	
2025-01-13 19:32:56.41	194.80	5.28	
2025-01-13 19:32:56.61	194.81	5.29	
2025-01-13 19:32:56.82	194.82	5.30	
2025-01-13 19:32:57.02	194.84	5.32	
2025-01-13 19:32:57.24	194.85	5.33	
2025-01-13 19:32:57.45	194.87	5.35	
2025-01-13 19:32:57.66	194.88	5.36	
2025-01-13 19:32:57.86	194.89	5.38	
2025-01-13 19:32:58.07	194.91	5.39	
2025-01-13 19:32:58.27	194.92	5.41	
2025-01-13 19:32:58.48	194.94	5.42	
2025-01-13 19:32:58.68	194.95	5.44	
2025-01-13 19:32:58.89	194.96	5.45	
2025-01-13 19:32:59.10	194.98	5.46	
2025-01-13 19:32:59.30	194.99	5.48	
2025-01-13 19:32:59.51	195.01	5.49	
2025-01-13 19:32:59.71	195.02	5.51	
2025-01-13 19:32:59.92	195.03	5.52	
2025-01-13 19:33:00.12	195.05	5.54	
2025-01-13 19:33:00.33	195.06	5.55	
2025-01-13 19:33:00.53	195.08	5.57	
2025-01-13 19:33:00.74	195.09	5.58	
2025-01-13 19:33:00.94	195.10	5.60	
2025-01-13 19:33:01.15	195.12	5.61	
2025-01-13 19:33:01.35	195.13	5.62	
2025-01-13 19:33:01.56	195.15	5.64	
2025-01-13 19:33:01.76	195.16	5.65	
2025-01-13 19:33:01.97	195.18	5.67	
2025-01-13 19:33:02.17	195.19	5.68	
2025-01-13 19:33:02.38	195.20	5.70	
2025-01-13 19:33:02.58	195.22	5.71	
2025-01-13 19:33:02.79	195.23	5.73	
2025-01-13 19:33:02.99	195.25	5.74	
2025-01-13 19:33:03.20	195.26	5.76	
2025-01-13 19:33:03.41	195.28	5.77	
2025-01-13 19:33:03.61	195.29	5.79	
2025-01-13 19:33:03.81	195.30	5.80	
2025-01-13 19:33:04.02	195.32	5.81	
2025-01-13 19:33:04.22	195.33	5.83	
2025-01-13 19:33:04.43	195.35	5.84	
2025-01-13 19:33:04.63	195.36	5.86	
2025-01-13 19:33:04.84	195.38	5.87	
2025-01-13 19:33:05.04	195.39	5.89	
2025-01-13 19:33:05.25	195.40	5.90	
2025-01-13 19:33:05.45	195.42	5.92	
2025-01-13 19:33:05.66	195.43	5.93	
2025-01-13 19:33:05.86	195.45	5.95	
2025-01-13 19:33:06.07	195.46	5.96	
2025-01-13 19:33:06.27	195.48	5.98	
2025-01-13 19:33:06.48	195.49	5.99	
2025-01-13 19:33:06.69	195.51	6.01	
2025-01-13 19:33:06.90	195.52	6.02	
2025-01-13 19:33:07.11	195.54	6.04	
2025-01-13 19:33:07.31	195.55	6.05	
2025-01-13 19:33:07.52	195.56	6.07	
2025-01-13 19:33:07.72	195.58	6.08	
2025-01-13 19:33:07.93	195.59	6.10	
2025-01-13 19:33:08.13	195.61	6.11	
2025-01-13 19:33:08.34	195.62	6.12	
2025-01-13 19:33:08.54	195.64	6.14	
2025-01-13 19:33:08.75	195.65	6.15	
2025-01-13 19:33:08.95	195.67	6.17	
2025-01-13 19:33:09.16	195.68	6.18	
2025-01-13 19:33:09.37	195.70	6.20	
2025-01-13 19:33:09.57	195.71	6.21	
2025-01-13 19:33:09.78	195.73	6.23	
2025-01-13 19:33:09.98	195.74	6.24	
2025-01-13 19:33:10.19	195.76	6.26	
2025-01-13 19:33:10.39	195.77	6.27	
2025-01-13 19:33:10.60	195.79	6.29	
2025-01-13 19:33:10.80	195.80	6.30	
2025-01-13 19:33:11.01	195.82	6.32	
2025-01-13 19:33:11.21	195.83	6.33	
2025-01-13 19:33:11.42	195.84	6.35	
2025-01-13 19:33:11.62	195.86	6.36	
2025-01-13 19:33:11.83	195.87	6.38	
2025-01-13 19:33:12.03	195.89	6.39	
2025-01-13 19:33:12.25	195.91	6.41	
2025-01-13 19:33:12.46	195.92	6.42	
2025-01-13 19:33:12.66	195.94	6.44	
2025-01-13 19:33:12.87	195.95	6.45	
2025-01-13 19:33:13.07	195.97	6.47	
2025-01-13 19:33:13.28	195.98	6.48	
2025-01-13 19:33:13.48	196.00	6.50	
2025-01-13 19:33:13.69	196.01	6.51	
2025-01-13 19:33:13.89	196.03	6.53	
2025-01-13 19:33:14.10	196.04	6.54	
2025-01-13 19:33:14.30	196.06	6.56	
2025-01-13 19:33:14.51	196.07	6.57	
2025-01-13 19:33:14.71	196.09	6.59	
2025-01-13 19:33:14.92	196.10	6.60	
2025-01-13 19:33:15.12	196.12	6.62	
2025-01-13 19:33:15.33	196.13	6.63	
2025-01-13 19:33:15.53	196.15	6.65	
2025-01-13 19:33:15.74	196.16	6.67	
2025-01-13 19:33:15.94	196.18	6.68	
2025-01-13 19:33:16.15	196.19	6.70	
2025-01-13 19:33:16.35	196.21	6.71	
2025-01-13 19:33:16.57	196.22	6.73	
2025-01-13 19:33:16.78	196.24	6.74	
2025-01-13 19:33:16.98	196.25	6.76	
2025-01-13 19:33:17.19	196.27	6.77	
2025-01-13 19:33:17.39	196.29	6.79	
2025-01-13 19:33:17.59	196.30	6.80	
2025-01-13 19:33:17.80	196.32	6.82	
2025-01-13 19:33:18.01	196.33	6.83	
2025-01-13 19:33:18.21	196.35	6.85	
2025-01-13 19:33:18.42	196.36	6.86	
2025-01-13 19:33:18.62	196.38	6.88	
2025-01-13 19:33:18.83	196.39	6.89	
2025-01-13 19:33:19.03	196.41	6.91	
2025-01-13 19:33:19.24	196.42	6.92	
2025-01-13 19:33:19.45	196.44	6.94	
2025-01-13 19:33:19.66	196.46	6.96	
2025-01-13 19:33:19.87	196.47	6.97	
2025-01-13 19:33:20.08	196.49	6.99	
2025-01-13 19:33:20.28	196.50	7.00	
2025-01-13 19:33:20.49	196.52	7.02	
2025-01-13 19:33:20.69	196.53	7.03	
2025-01-13 19:33:20.90	196.55	7.05	
2025-01-13 19:33:21.11	196.57	7.06	
2025-01-13 19:33:21.31	196.58	7.08	
2025-01-13 19:33:21.52	196.60	7.09	
2025-01-13 19:33:21.72	196.61	7.11	
2025-01-13 19:33:21.93	196.63	7.13	
2025-01-13 19:33:22.14	196.65	7.14	
2025-01-13 19:33:22.34	196.66	7.16	
2025-01-13 19:33:22.55	196.68	7.17	
2025-01-13 19:33:22.75	196.69	7.19	
2025-01-13 19:33:22.95	196.71	7.20	
2025-01-13 19:33:23.16	196.72	7.22	
2025-01-13 19:33:23.36	196.74	7.23	
2025-01-13 19:33:23.57	196.76	7.25	
2025-01-13 19:33:23.77	196.77	7.26	
2025-01-13 19:33:23.98	196.79	7.28	
2025-01-13 19:33:24.18	196.80	7.29	
2025-01-13 19:33:24.39	196.82	7.31	
2025-01-13 19:33:24.60	196.84	7.33	
2025-01-13 19:33:24.80	196.85	7.34	
2025-01-13 19:33:25.00	196.87	7.36	
2025-01-13 19:33:25.21	196.88	7.37	
2025-01-13 19:33:25.41	196.90	7.39	
2025-01-13 19:33:25.62	196.92	7.40	
2025-01-13 19:33:25.83	196.93	7.42	
2025-01-13 19:33:26.03	196.95	7.43	
2025-01-13 19:33:26.23	196.96	7.45	
2025-01-13 19:33:26.44	196.98	7.47	
2025-01-13 19:33:26.65	197.00	7.48	
2025-01-13 19:33:26.85	197.01	7.50	
2025-01-13 19:33:27.06	197.03	7.51	
2025-01-13 19:33:27.26	197.04	7.53	
2025-01-13 19:33:27.47	197.06	7.54	
2025-01-13 19:33:27.67	197.08	7.56	
2025-01-13 19:33:27.88	197.09	7.57	
2025-01-13 19:33:28.09	197.11	7.59	
2025-01-13 19:33:28.29	197.13	7.61	
2025-01-13 19:33:28.49	197.14	7.62	
2025-01-13 19:33:28.70	197.16	7.64	
2025-01-13 19:33:28.91	197.18	7.65	
2025-01-13 19:33:29.11	197.19	7.67	
2025-01-13 19:33:29.32	197.21	7.68	
2025-01-13 19:33:29.53	197.22	7.70	
2025-01-13 19:33:29.74	197.24	7.72	
2025-01-13 19:33:29.94	197.26	7.73	
2025-01-13 19:33:30.15	197.27	7.75	
2025-01-13 19:33:30.35	197.29	7.76	
2025-01-13 19:33:30.56	197.31	7.78	
2025-01-13 19:33:30.76	197.32	7.80	
2025-01-13 19:33:30.97	197.34	7.81	
2025-01-13 19:33:31.17	197.36	7.83	
2025-01-13 19:33:31.38	197.37	7.84	
2025-01-13 19:33:31.58	197.39	7.86	
2025-01-13 19:33:31.79	197.41	7.87	
2025-01-13 19:33:31.99	197.42	7.89	
2025-01-13 19:33:32.20	197.44	7.91	
2025-01-13 19:33:32.40	197.46	7.92	
2025-01-13 19:33:32.61	197.47	7.94	
2025-01-13 19:33:32.81	197.49	7.95	
2025-01-13 19:33:33.02	197.51	7.97	
2025-01-13 19:33:33.22	197.52	7.98	
2025-01-13 19:33:33.43	197.54	8.00	
2025-01-13 19:33:33.63	197.56	8.02	
2025-01-13 19:33:33.84	197.57	8.03	
2025-01-13 19:33:34.04	197.59	8.05	
2025-01-13 19:33:34.25	197.61	8.06	
2025-01-13 19:33:34.46	197.62	8.08	
2025-01-13 19:33:34.66	197.64	8.10	
2025-01-13 19:33:34.86	197.66	8.11	
2025-01-13 19:33:35.07	197.67	8.13	
2025-01-13 19:33:35.28	197.69	8.14	
2025-01-13 19:33:35.49	197.71	8.16	
2025-01-13 19:33:35.69	197.73	8.18	
2025-01-13 19:33:35.90	197.74	8.19	
2025-01-13 19:33:36.10	197.76	8.21	
2025-01-13 19:33:36.31	197.78	8.23	
2025-01-13 19:33:36.52	197.79	8.24	
2025-01-13 19:33:36.72	197.81	8.26	
2025-01-13 19:33:36.92	197.83	8.27	
2025-01-13 19:33:37.13	197.85	8.29	
2025-01-13 19:33:37.33	197.86	8.30	
2025-01-13 19:33:37.54	197.88	8.32	
2025-01-13 19:33:37.74	197.90	8.34	
2025-01-13 19:33:37.94	197.91	8.35	
2025-01-13 19:33:38.15	197.93	8.37	
2025-01-13 19:33:38.36	197.95	8.39	
2025-01-13 19:33:38.56	197.97	8.40	
2025-01-13 19:33:38.77	197.98	8.42	
2025-01-13 19:33:38.97	198.00	8.43	
2025-01-13 19:33:39.18	198.02	8.45	
2025-01-13 19:33:39.38	198.03	8.47	
2025-01-13 19:33:39.59	198.05	8.48	
2025-01-13 19:33:39.79	198.07	8.50	
2025-01-13 19:33:40.00	198.09	8.51	
2025-01-13 19:33:40.21	198.10	8.53	
2025-01-13 19:33:40.41	198.12	8.55	
2025-01-13 19:33:40.62	198.14	8.56	
2025-01-13 19:33:40.82	198.16	8.58	
2025-01-13 19:33:41.02	198.17	8.60	
2025-01-13 19:33:41.23	198.19	8.61	
2025-01-13 19:33:41.44	198.21	8.63	
2025-01-13 19:33:41.64	198.23	8.64	
2025-01-13 19:33:41.84	198.24	8.66	
2025-01-13 19:33:42.05	198.26	8.68	
2025-01-13 19:33:42.26	198.28	8.69	
2025-01-13 19:33:42.46	198.30	8.71	
2025-01-13 19:33:42.67	198.31	8.73	
2025-01-13 19:33:42.87	198.33	8.74	
2025-01-13 19:33:43.08	198.35	8.76	
2025-01-13 19:33:43.28	198.37	8.77	
2025-01-13 19:33:43.49	198.39	8.79	
2025-01-13 19:33:43.69	198.40	8.81	
2025-01-13 19:33:43.90	198.42	8.82	
2025-01-13 19:33:44.10	198.44	8.84	
2025-01-13 19:33:44.31	198.46	8.86	
2025-01-13 19:33:44.52	198.47	8.87	
2025-01-13 19:33:44.72	198.49	8.89	
2025-01-13 19:33:44.93	198.51	8.91	
2025-01-13 19:33:45.13	198.53	8.92	
2025-01-13 19:33:45.34	198.55	8.94	
2025-01-13 19:33:45.54	198.56	8.95	
2025-01-13 19:33:45.75	198.58	8.97	
2025-01-13 19:33:45.96	198.60	8.99	
2025-01-13 19:33:46.16	198.62	9.00	
2025-01-13 19:33:46.37	198.64	9.02	
2025-01-13 19:33:46.57	198.65	9.04	
2025-01-13 19:33:46.77	198.67	9.05	
2025-01-13 19:33:46.98	198.69	9.07	
2025-01-13 19:33:47.18	198.71	9.09	
2025-01-13 19:33:47.39	198.73	9.10	
2025-01-13 19:33:47.59	198.74	9.12	
2025-01-13 19:33:47.80	198.76	9.14	
2025-01-13 19:33:48.00	198.78	9.15	
2025-01-13 19:33:48.21	198.80	9.17	
2025-01-13 19:33:48.42	198.82	9.19	
2025-01-13 19:33:48.62	198.83	9.20	
2025-01-13 19:33:48.82	198.85	9.22	
2025-01-13 19:33:49.03	198.87	9.24	
2025-01-13 19:33:49.23	198.89	9.25	
2025-01-13 19:33:49.44	198.91	9.27	
2025-01-13 19:33:49.66	198.93	9.29	
2025-01-13 19:33:49.86	198.95	9.30	
2025-01-13 19:33:50.07	198.96	9.32	
2025-01-13 19:33:50.28	198.98	9.34	
2025-01-13 19:33:50.48	199.00	9.35	
2025-01-13 19:33:50.70	199.02	9.37	
2025-01-13 19:33:50.91	199.04	9.39	
2025-01-13 19:33:51.11	199.06	9.40	
2025-01-13 19:33:51.32	199.08	9.42	
2025-01-13 19:33:51.53	199.10	9.44	
2025-01-13 19:33:51.74	199.11	9.46	
2025-01-13 19:33:51.95	199.13	9.47	
2025-01-13 19:33:52.15	199.15	9.49	
2025-01-13 19:33:52.36	199.17	9.51	
2025-01-13 19:33:52.57	199.19	9.52	
2025-01-13 19:33:52.77	199.21	9.54	
2025-01-13 19:33:52.98	199.23	9.56	
2025-01-13 19:33:53.18	199.25	9.57	
2025-01-13 19:33:53.39	199.27	9.59	
2025-01-13 19:33:53.59	199.28	9.61	
2025-01-13 19:33:53.80	199.30	9.62	
2025-01-13 19:33:54.00	199.32	9.64	
2025-01-13 19:33:54.21	199.34	9.66	
2025-01-13 19:33:54.41	199.36	9.68	
2025-01-13 19:33:54.62	199.38	9.69	
2025-01-13 19:33:54.82	199.40	9.71	
2025-01-13 19:33:55.03	199.42	9.73	
2025-01-13 19:33:55.23	199.43	9.74	
2025-01-13 19:33:55.44	199.45	9.76	
2025-01-13 19:33:55.66	199.47	9.78	
2025-01-13 19:33:55.86	199.49	9.79	
2025-01-13 19:33:56.06	199.51	9.81	
2025-01-13 19:33:56.27	199.53	9.83	
2025-01-13 19:33:56.48	199.55	9.85	
2025-01-13 19:33:56.68	199.57	9.86	
2025-01-13 19:33:56.89	199.59	9.88	
2025-01-13 19:33:57.10	199.61	9.90	
2025-01-13 19:33:57.30	199.63	9.91	
2025-01-13 19:33:57.51	199.65	9.93	
2025-01-13 19:33:57.72	199.67	9.95	
2025-01-13 19:33:57.92	199.68	9.97	
2025-01-13 19:33:58.13	199.70	9.98	
2025-01-13 19:33:58.33	199.72	10.00	
2025-01-13 19:33:58.54	199.74	10.02	
2025-01-13 19:33:58.74	199.76	10.03	
2025-01-13 19:33:58.95	199.78	10.05	
2025-01-13 19:33:59.15	199.80	10.07	
2025-01-13 19:33:59.35	199.82	10.08	
2025-01-13 19:33:59.56	199.84	10.10	
2025-01-13 19:33:59.77	199.86	10.12	
2025-01-13 19:33:59.97	199.88	10.14	
2025-01-13 19:34:00.17	199.90	10.15	
2025-01-13 19:34:00.38	199.92	10.17	
2025-01-13 19:34:00.58	199.94	10.19	
2025-01-13 19:34:00.79	199.96	10.20	
2025-01-13 19:34:01.00	199.98	10.22	
2025-01-13 19:34:01.20	200.00	10.24	
2025-01-13 19:34:01.41	200.02	10.26	
2025-01-13 19:34:01.61	200.04	10.27	
2025-01-13 19:34:01.82	200.06	10.29	
2025-01-13 19:34:02.02	200.07	10.31	
2025-01-13 19:34:02.22	200.09	10.33	
2025-01-13 19:34:02.43	200.11	10.34	
2025-01-13 19:34:02.64	200.13	10.36	
2025-01-13 19:34:02.84	200.15	10.38	
2025-01-13 19:34:03.05	200.17	10.39	
2025-01-13 19:34:03.25	200.19	10.41	
2025-01-13 19:34:03.45	200.21	10.43	
2025-01-13 19:34:03.66	200.23	10.45	
2025-01-13 19:34:03.86	200.25	10.46	
2025-01-13 19:34:04.07	200.27	10.48	
2025-01-13 19:34:04.27	200.29	10.50	
2025-01-13 19:34:04.48	200.31	10.52	
2025-01-13 19:34:04.68	200.33	10.53	
2025-01-13 19:34:04.89	200.35	10.55	
2025-01-13 19:34:05.10	200.37	10.57	
2025-01-13 19:34:05.30	200.39	10.59	
2025-01-13 19:34:05.51	200.41	10.60	
2025-01-13 19:34:05.71	200.43	10.62	
2025-01-13 19:34:05.92	200.45	10.64	
2025-01-13 19:34:06.12	200.47	10.66	
2025-01-13 19:34:06.33	200.49	10.67	
2025-01-13 19:34:06.53	200.51	10.69	
2025-01-13 19:34:06.73	200.53	10.71	
2025-01-13 19:34:06.94	200.56	10.73	
2025-01-13 19:34:07.15	200.58	10.74	
2025-01-13 19:34:07.35	200.60	10.76	
2025-01-13 19:34:07.56	200.62	10.78	
2025-01-13 19:34:07.76	200.64	10.80	
2025-01-13 19:34:07.97	200.66	10.81	
2025-01-13 19:34:08.17	200.68	10.83	
2025-01-13 19:34:08.38	200.70	10.85	
2025-01-13 19:34:08.58	200.72	10.87	
2025-01-13 19:34:08.78	200.74	10.88	
2025-01-13 19:34:08.99	200.76	10.90	
2025-01-13 19:34:09.19	200.78	10.92	
2025-01-13 19:34:09.40	200.80	10.94	
2025-01-13 19:34:09.60	200.82	10.95	
2025-01-13 19:34:09.81	200.84	10.97	
2025-01-13 19:34:10.02	200.86	10.99	
2025-01-13 19:34:10.22	200.88	11.01	
2025-01-13 19:34:10.43	200.90	11.02	
2025-01-13 19:34:10.63	200.92	11.04	
2025-01-13 19:34:10.83	200.95	11.06	
2025-01-13 19:34:11.04	200.97	11.08	
2025-01-13 19:34:11.24	200.99	11.09	
2025-01-13 19:34:11.45	201.01	11.11	
2025-01-13 19:34:11.66	201.03	11.13	
2025-01-13 19:34:11.86	201.05	11.15	
2025-01-13 19:34:12.07	201.07	11.17	
2025-01-13 19:34:12.27	201.09	11.18	
2025-01-13 19:34:12.47	201.11	11.20	
2025-01-13 19:34:12.68	201.13	11.22	
2025-01-13 19:34:12.89	201.16	11.24	
2025-01-13 19:34:13.09	201.18	11.26	
2025-01-13 19:34:13.30	201.20	11.27	
2025-01-13 19:34:13.50	201.22	11.29	
2025-01-13 19:34:13.71	201.24	11.31	
2025-01-13 19:34:13.91	201.26	11.33	
2025-01-13 19:34:14.12	201.28	11.35	
2025-01-13 19:34:14.32	201.30	11.36	
2025-01-13 19:34:14.53	201.32	11.38	
2025-01-13 19:34:14.73	201.35	11.40	
2025-01-13 19:34:14.94	201.37	11.42	
2025-01-13 19:34:15.14	201.39	11.43	
2025-01-13 19:34:15.35	201.41	11.45	
2025-01-13 19:34:15.55	201.43	11.47	
2025-01-13 19:34:15.76	201.45	11.49	
2025-01-13 19:34:15.97	201.48	11.51	
2025-01-13 19:34:16.17	201.50	11.52	
2025-01-13 19:34:16.38	201.52	11.54	
2025-01-13 19:34:16.58	201.54	11.56	
2025-01-13 19:34:16.79	201.56	11.58	
2025-01-13 19:34:16.99	201.58	11.60	
2025-01-13 19:34:17.20	201.60	11.62	
2025-01-13 19:34:17.40	201.63	11.63	
2025-01-13 19:34:17.60	201.65	11.65	
2025-01-13 19:34:17.81	201.67	11.67	
2025-01-13 19:34:18.01	201.69	11.69	
2025-01-13 19:34:18.22	201.71	11.71	
2025-01-13 19:34:18.42	201.73	11.72	
2025-01-13 19:34:18.63	201.76	11.74	
2025-01-13 19:34:18.84	201.78	11.76	
2025-01-13 19:34:19.04	201.80	11.78	
2025-01-13 19:34:19.25	201.82	11.80	
2025-01-13 19:34:19.45	201.84	11.81	
2025-01-13 19:34:19.66	201.87	11.83	
2025-01-13 19:34:19.87	201.89	11.85	
2025-01-13 19:34:20.07	201.91	11.87	
2025-01-13 19:34:20.28	201.93	11.89	
2025-01-13 19:34:20.48	201.95	11.91	
2025-01-13 19:34:20.69	201.98	11.92	
2025-01-13 19:34:20.89	202.00	11.94	
2025-01-13 19:34:21.10	202.02	11.96	
2025-01-13 19:34:21.31	202.04	11.98	
2025-01-13 19:34:21.51	202.07	12.00	
2025-01-13 19:34:21.72	202.09	12.02	
2025-01-13 19:34:21.92	202.11	12.03	
2025-01-13 19:34:22.13	202.13	12.05	
2025-01-13 19:34:22.33	202.15	12.07	
2025-01-13 19:34:22.54	202.18	12.09	
2025-01-13 19:34:22.74	202.20	12.11	
2025-01-13 19:34:22.95	202.22	12.13	
2025-01-13 19:34:23.16	202.25	12.15	
2025-01-13 19:34:23.36	202.27	12.16	
2025-01-13 19:34:23.56	202.29	12.18	
2025-01-13 19:34:23.77	202.31	12.20	
2025-01-13 19:34:23.97	202.33	12.22	
2025-01-13 19:34:24.18	202.36	12.24	
2025-01-13 19:34:24.39	202.38	12.26	
2025-01-13 19:34:24.59	202.40	12.27	
2025-01-13 19:34:24.80	202.43	12.29	
2025-01-13 19:34:25.00	202.45	12.31	
2025-01-13 19:34:25.21	202.47	12.33	
2025-01-13 19:34:25.41	202.49	12.35	
2025-01-13 19:34:25.62	202.52	12.37	
2025-01-13 19:34:25.82	202.54	12.39	
2025-01-13 19:34:26.03	202.56	12.40	
2025-01-13 19:34:26.24	202.59	12.42	
2025-01-13 19:34:26.45	202.61	12.44	
2025-01-13 19:34:26.65	202.63	12.46	
2025-01-13 19:34:26.86	202.66	12.48	
2025-01-13 19:34:27.06	202.68	12.50	
2025-01-13 19:34:27.27	202.70	12.52	
2025-01-13 19:34:27.47	202.72	12.54	
2025-01-13 19:34:27.68	202.75	12.55	
2025-01-13 19:34:27.88	202.77	12.57	
2025-01-13 19:34:28.09	202.79	12.59	
2025-01-13 19:34:28.30	202.82	12.61	
2025-01-13 19:34:28.50	202.84	12.63	
2025-01-13 19:34:28.71	202.86	12.65	
2025-01-13 19:34:28.91	202.89	12.67	
2025-01-13 19:34:29.12	202.91	12.69	
2025-01-13 19:34:29.32	202.93	12.70	
2025-01-13 19:34:29.53	202.96	12.72	
2025-01-13 19:34:29.73	202.98	12.74	
2025-01-13 19:34:29.94	203.00	12.76	
2025-01-13 19:34:30.14	203.03	12.78	
2025-01-13 19:34:30.35	203.05	12.80	
2025-01-13 19:34:30.55	203.07	12.82	
2025-01-13 19:34:30.76	203.10	12.84	
2025-01-13 19:34:30.97	203.12	12.86	
2025-01-13 19:34:31.17	203.15	12.87	
2025-01-13 19:34:31.38	203.17	12.89	
2025-01-13 19:34:31.58	203.19	12.91	
2025-01-13 19:34:31.79	203.22	12.93	
2025-01-13 19:34:31.99	203.24	12.95	
2025-01-13 19:34:32.20	203.26	12.97	
2025-01-13 19:34:32.40	203.29	12.99	
2025-01-13 19:34:32.61	203.31	13.01	
2025-01-13 19:34:32.82	203.34	13.03	
2025-01-13 19:34:33.02	203.36	13.04	
2025-01-13 19:34:33.22	203.38	13.06	
2025-01-13 19:34:33.43	203.41	13.08	
2025-01-13 19:34:33.64	203.43	13.10	
2025-01-13 19:34:33.84	203.46	13.12	
2025-01-13 19:34:34.05	203.48	13.14	
2025-01-13 19:34:34.25	203.50	13.16	
2025-01-13 19:34:34.45	203.53	13.18	
2025-01-13 19:34:34.66	203.55	13.20	
2025-01-13 19:34:34.87	203.58	13.22	
2025-01-13 19:34:35.07	203.60	13.23	
2025-01-13 19:34:35.28	203.63	13.25	
2025-01-13 19:34:35.48	203.65	13.27	
2025-01-13 19:34:35.68	203.67	13.29	
2025-01-13 19:34:35.89	203.70	13.31	
2025-01-13 19:34:36.09	203.72	13.33	
2025-01-13 19:34:36.30	203.75	13.35	
2025-01-13 19:34:36.51	203.77	13.37	
2025-01-13 19:34:36.72	203.80	13.39	
2025-01-13 19:34:36.92	203.82	13.41	
2025-01-13 19:34:37.13	203.85	13.43	
2025-01-13 19:34:37.34	203.87	13.45	
2025-01-13 19:34:37.54	203.89	13.47	
2025-01-13 19:34:37.74	203.92	13.48	
2025-01-13 19:34:37.95	203.94	13.50	
2025-01-13 19:34:38.15	203.97	13.52	
2025-01-13 19:34:38.36	203.99	13.54	
2025-01-13 19:34:38.56	204.02	13.56	
2025-01-13 19:34:38.77	204.04	13.58	
2025-01-13 19:34:38.97	204.07	13.60	
2025-01-13 19:34:39.18	204.09	13.62	
2025-01-13 19:34:39.38	204.12	13.64	
2025-01-13 19:34:39.59	204.14	13.66	
2025-01-13 19:34:39.79	204.17	13.68	
2025-01-13 19:34:40.00	204.19	13.70	
2025-01-13 19:34:40.20	204.22	13.72	
2025-01-13 19:34:40.41	204.24	13.74	
2025-01-13 19:34:40.62	204.27	13.76	
2025-01-13 19:34:40.82	204.29	13.78	
2025-01-13 19:34:41.02	204.32	13.79	
2025-01-13 19:34:41.23	204.34	13.81	
2025-01-13 19:34:41.44	204.37	13.83	
2025-01-13 19:34:41.65	204.40	13.85	
2025-01-13 19:34:41.86	204.42	13.87	
2025-01-13 19:34:42.06	204.45	13.89	
2025-01-13 19:34:42.27	204.47	13.91	
2025-01-13 19:34:42.48	204.50	13.93	
2025-01-13 19:34:42.68	204.52	13.95	
2025-01-13 19:34:42.88	204.55	13.97	
2025-01-13 19:34:43.09	204.57	13.99	
2025-01-13 19:34:43.30	204.60	14.01	
2025-01-13 19:34:43.50	204.63	14.03	
2025-01-13 19:34:43.71	204.65	14.05	
2025-01-13 19:34:43.91	204.68	14.07	
2025-01-13 19:34:44.12	204.70	14.09	
2025-01-13 19:34:44.32	204.73	14.11	
2025-01-13 19:34:44.53	204.75	14.13	
2025-01-13 19:34:44.73	204.78	14.15	
2025-01-13 19:34:44.93	204.80	14.17	
2025-01-13 19:34:45.14	204.83	14.19	
2025-01-13 19:34:45.35	204.86	14.21	
2025-01-13 19:34:45.55	204.88	14.23	
2025-01-13 19:34:45.76	204.91	14.25	
2025-01-13 19:34:45.96	204.94	14.27	
2025-01-13 19:34:46.17	204.96	14.29	
2025-01-13 19:34:46.38	204.99	14.31	
2025-01-13 19:34:46.58	205.01	14.33	
2025-01-13 19:34:46.79	205.04	14.35	
2025-01-13 19:34:46.99	205.07	14.37	
2025-01-13 19:34:47.21	205.09	14.39	
2025-01-13 19:34:47.41	205.12	14.41	
2025-01-13 19:34:47.62	205.15	14.43	
2025-01-13 19:34:47.83	205.17	14.45	
2025-01-13 19:34:48.03	205.20	14.47	
2025-01-13 19:34:48.24	205.23	14.49	
2025-01-13 19:34:48.44	205.25	14.51	
2025-01-13 19:34:48.65	205.28	14.53	
2025-01-13 19:34:48.85	205.31	14.55	
2025-01-13 19:34:49.06	205.33	14.57	
2025-01-13 19:34:49.28	205.36	14.59	
2025-01-13 19:34:49.48	205.39	14.61	
2025-01-13 19:34:49.69	205.42	14.63	
2025-01-13 19:34:49.90	205.44	14.65	
2025-01-13 19:34:50.10	205.47	14.67	
2025-01-13 19:34:50.31	205.50	14.69	
2025-01-13 19:34:50.51	205.52	14.71	
2025-01-13 19:34:50.72	205.55	14.73	
2025-01-13 19:34:50.92	205.58	14.75	
2025-01-13 19:34:51.13	205.60	14.77	
2025-01-13 19:34:51.33	205.63	14.79	
2025-01-13 19:34:51.53	205.66	14.81	
2025-01-13 19:34:51.74	205.68	14.83	
2025-01-13 19:34:51.95	205.71	14.85	
2025-01-13 19:34:52.15	205.74	14.87	
2025-01-13 19:34:52.36	205.77	14.89	
2025-01-13 19:34:52.56	205.79	14.91	
2025-01-13 19:34:52.77	205.82	14.93	
2025-01-13 19:34:52.97	205.85	14.95	
2025-01-13 19:34:53.18	205.88	14.97	
2025-01-13 19:34:53.38	205.90	14.99	
2025-01-13 19:34:53.60	205.93	15.01	
2025-01-13 19:34:53.81	205.96	15.03	
2025-01-13 19:34:54.01	205.99	15.05	
2025-01-13 19:34:54.22	206.01	15.07	
2025-01-13 19:34:54.43	206.04	15.09	
2025-01-13 19:34:54.63	206.07	15.11	
2025-01-13 19:34:54.84	206.10	15.13	
2025-01-13 19:34:55.05	206.13	15.16	
2025-01-13 19:34:55.26	206.15	15.18	
2025-01-13 19:34:55.46	206.18	15.20	
2025-01-13 19:34:55.67	206.21	15.22	
2025-01-13 19:34:55.88	206.24	15.24	
2025-01-13 19:34:56.08	206.27	15.26	
2025-01-13 19:34:56.29	206.29	15.28	
2025-01-13 19:34:56.49	206.32	15.30	
2025-01-13 19:34:56.70	206.35	15.32	
2025-01-13 19:34:56.90	206.38	15.34	
2025-01-13 19:34:57.11	206.41	15.36	
2025-01-13 19:34:57.31	206.43	15.38	
2025-01-13 19:34:57.52	206.46	15.40	
2025-01-13 19:34:57.72	206.49	15.42	
2025-01-13 19:34:57.93	206.52	15.44	
2025-01-13 19:34:58.13	206.55	15.46	
2025-01-13 19:34:58.34	206.58	15.48	
2025-01-13 19:34:58.54	206.60	15.50	
2025-01-13 19:34:58.75	206.63	15.52	
2025-01-13 19:34:58.96	206.66	15.55	
2025-01-13 19:34:59.16	206.69	15.57	
2025-01-13 19:34:59.37	206.72	15.59	
2025-01-13 19:34:59.57	206.75	15.61	
2025-01-13 19:34:59.78	206.78	15.63	
2025-01-13 19:34:59.98	206.80	15.65	
2025-01-13 19:35:00.20	206.83	15.67	
2025-01-13 19:35:00.41	206.86	15.69	
2025-01-13 19:35:00.61	206.89	15.71	
2025-01-13 19:35:00.82	206.92	15.73	
2025-01-13 19:35:01.04	206.95	15.75	
2025-01-13 19:35:01.24	206.98	15.77	
2025-01-13 19:35:01.45	207.01	15.80	
2025-01-13 19:35:01.65	207.04	15.82	
2025-01-13 19:35:01.86	207.07	15.84	
2025-01-13 19:35:02.06	207.10	15.86	
2025-01-13 19:35:02.27	207.13	15.88	
2025-01-13 19:35:02.47	207.16	15.90	
2025-01-13 19:35:02.68	207.19	15.92	
2025-01-13 19:35:02.88	207.21	15.94	
2025-01-13 19:35:03.09	207.24	15.96	
2025-01-13 19:35:03.29	207.27	15.98	
2025-01-13 19:35:03.50	207.30	16.00	
2025-01-13 19:35:03.70	207.33	16.02	
2025-01-13 19:35:03.91	207.36	16.05	
2025-01-13 19:35:04.11	207.39	16.07	
2025-01-13 19:35:04.32	207.42	16.09	
2025-01-13 19:35:04.52	207.45	16.11	
2025-01-13 19:35:04.73	207.48	16.13	
2025-01-13 19:35:04.93	207.51	16.15	
2025-01-13 19:35:05.14	207.54	16.17	
2025-01-13 19:35:05.35	207.57	16.19	
2025-01-13 19:35:05.55	207.60	16.21	
2025-01-13 19:35:05.76	207.63	16.23	
2025-01-13 19:35:05.96	207.66	16.26	
2025-01-13 19:35:06.17	207.69	16.28	
2025-01-13 19:35:06.37	207.72	16.30	
2025-01-13 19:35:06.58	207.75	16.32	
2025-01-13 19:35:06.79	207.78	16.34	
2025-01-13 19:35:06.99	207.81	16.36	
2025-01-13 19:35:07.20	207.84	16.38	
2025-01-13 19:35:07.40	207.87	16.40	
2025-01-13 19:35:07.61	207.90	16.42	
2025-01-13 19:35:07.81	207.93	16.45	
2025-01-13 19:35:08.02	207.96	16.47	
2025-01-13 19:35:08.23	207.99	16.49	
2025-01-13 19:35:08.44	208.02	16.51	
2025-01-13 19:35:08.65	208.05	16.53	
2025-01-13 19:35:08.86	208.08	16.55	
2025-01-13 19:35:09.06	208.11	16.57	
2025-01-13 19:35:09.27	208.15	16.60	
2025-01-13 19:35:09.47	208.18	16.62	
2025-01-13 19:35:09.68	208.21	16.64	
2025-01-13 19:35:09.88	208.24	16.66	
2025-01-13 19:35:10.09	208.27	16.68	
2025-01-13 19:35:10.29	208.30	16.70	
2025-01-13 19:35:10.50	208.33	16.72	
2025-01-13 19:35:10.70	208.36	16.74	
2025-01-13 19:35:10.91	208.39	16.77	
2025-01-13 19:35:11.11	208.42	16.79	
2025-01-13 19:35:11.32	208.45	16.81	
2025-01-13 19:35:11.52	208.48	16.83	
2025-01-13 19:35:11.73	208.52	16.85	
2025-01-13 19:35:11.93	208.55	16.87	
2025-01-13 19:35:12.14	208.58	16.89	
2025-01-13 19:35:12.34	208.61	16.92	
2025-01-13 19:35:12.55	208.64	16.94	
2025-01-13 19:35:12.75	208.67	16.96	
2025-01-13 19:35:12.96	208.70	16.98	
2025-01-13 19:35:13.17	208.74	17.00	
2025-01-13 19:35:13.37	208.77	17.02	
2025-01-13 19:35:13.58	208.80	17.05	
2025-01-13 19:35:13.79	208.83	17.07	
2025-01-13 19:35:14.00	208.86	17.09	
2025-01-13 19:35:14.21	208.90	17.11	
2025-01-13 19:35:14.41	208.93	17.13	
2025-01-13 19:35:14.62	208.96	17.15	
2025-01-13 19:35:14.82	208.99	17.18	
2025-01-13 19:35:15.03	209.02	17.20	
2025-01-13 19:35:15.23	209.05	17.22	
2025-01-13 19:35:15.44	209.09	17.24	
2025-01-13 19:35:15.64	209.12	17.26	
2025-01-13 19:35:15.85	209.15	17.28	
2025-01-13 19:35:16.06	209.18	17.31	
2025-01-13 19:35:16.27	209.22	17.33	
2025-01-13 19:35:16.47	209.25	17.35	
2025-01-13 19:35:16.68	209.28	17.37	
2025-01-13 19:35:16.88	209.31	17.39	
2025-01-13 19:35:17.09	209.35	17.42	
2025-01-13 19:35:17.29	209.38	17.44	
2025-01-13 19:35:17.50	209.41	17.46	
2025-01-13 19:35:17.71	209.44	17.48	
2025-01-13 19:35:17.91	209.48	17.50	
2025-01-13 19:35:18.12	209.51	17.52	
2025-01-13 19:35:18.32	209.54	17.55	
2025-01-13 19:35:18.53	209.57	17.57	
2025-01-13 19:35:18.74	209.61	17.59	
2025-01-13 19:35:18.94	209.64	17.61	
2025-01-13 19:35:19.16	209.68	17.64	
2025-01-13 19:35:19.36	209.71	17.66	
2025-01-13 19:35:19.57	209.74	17.68	
2025-01-13 19:35:19.78	209.77	17.70	
2025-01-13 19:35:19.98	209.81	17.72	
2025-01-13 19:35:20.19	209.84	17.75	
2025-01-13 19:35:20.39	209.87	17.77	
2025-01-13 19:35:20.60	209.91	17.79	
2025-01-13 19:35:20.80	209.94	17.81	
2025-01-13 19:35:21.01	209.97	17.83	
2025-01-13 19:35:21.21	210.01	17.85	
2025-01-13 19:35:21.42	210.04	17.88	
2025-01-13 19:35:21.62	210.07	17.90	
2025-01-13 19:35:21.83	210.11	17.92	
2025-01-13 19:35:22.03	210.14	17.94	
2025-01-13 19:35:22.24	210.17	17.96	
2025-01-13 19:35:22.44	210.21	17.99	
2025-01-13 19:35:22.65	210.24	18.01	
2025-01-13 19:35:22.85	210.27	18.03	
2025-01-13 19:35:23.06	210.31	18.05	
2025-01-13 19:35:23.26	210.34	18.07	
2025-01-13 19:35:23.47	210.38	18.10	
2025-01-13 19:35:23.67	210.41	18.12	
2025-01-13 19:35:23.88	210.44	18.14	
2025-01-13 19:35:24.09	210.48	18.16	
2025-01-13 19:35:24.29	210.51	18.19	
2025-01-13 19:35:24.49	210.55	18.21	
2025-01-13 19:35:24.70	210.58	18.23	
2025-01-13 19:35:24.91	210.62	18.25	
2025-01-13 19:35:25.11	210.65	18.27	
2025-01-13 19:35:25.32	210.68	18.30	
2025-01-13 19:35:25.52	210.72	18.32	
2025-01-13 19:35:25.73	210.75	18.34	
2025-01-13 19:35:25.93	210.79	18.36	
2025-01-13 19:35:26.14	210.82	18.39	
2025-01-13 19:35:26.34	210.86	18.41	
2025-01-13 19:35:26.55	210.89	18.43	
2025-01-13 19:35:26.75	210.93	18.45	
2025-01-13 19:35:26.96	210.96	18.48	
2025-01-13 19:35:27.17	211.00	18.50	
2025-01-13 19:35:27.37	211.03	18.52	
2025-01-13 19:35:27.58	211.07	18.54	
2025-01-13 19:35:27.78	211.10	18.56	
2025-01-13 19:35:27.99	211.14	18.59	
2025-01-13 19:35:28.20	211.17	18.61	
2025-01-13 19:35:28.40	211.21	18.63	
2025-01-13 19:35:28.61	211.24	18.66	
2025-01-13 19:35:28.81	211.28	18.68	
2025-01-13 19:35:29.02	211.31	18.70	
2025-01-13 19:35:29.22	211.35	18.72	
2025-01-13 19:35:29.43	211.38	18.75	
2025-01-13 19:35:29.63	211.42	18.77	
2025-01-13 19:35:29.84	211.45	18.79	
2025-01-13 19:35:30.04	211.49	18.81	
2025-01-13 19:35:30.25	211.53	18.84	
2025-01-13 19:35:30.46	211.56	18.86	
2025-01-13 19:35:30.66	211.60	18.88	
2025-01-13 19:35:30.87	211.63	18.90	
2025-01-13 19:35:31.07	211.67	18.93	
2025-01-13 19:35:31.27	211.70	18.95	
2025-01-13 19:35:31.48	211.74	18.97	
2025-01-13 19:35:31.69	211.78	18.99	
2025-01-13 19:35:31.89	211.81	19.02	
2025-01-13 19:35:32.10	211.85	19.04	
2025-01-13 19:35:32.30	211.88	19.06	
2025-01-13 19:35:32.51	211.92	19.08	
2025-01-13 19:35:32.71	211.96	19.11	
2025-01-13 19:35:32.92	211.99	19.13	
2025-01-13 19:35:33.12	212.03	19.15	
2025-01-13 19:35:33.33	212.07	19.17	
2025-01-13 19:35:33.53	212.10	19.20	
2025-01-13 19:35:33.74	212.14	19.22	
2025-01-13 19:35:33.95	212.18	19.24	
2025-01-13 19:35:34.15	212.21	19.27	
2025-01-13 19:35:34.35	212.25	19.29	
2025-01-13 19:35:34.56	212.29	19.31	
2025-01-13 19:35:34.77	212.32	19.33	
2025-01-13 19:35:34.97	212.36	19.36	
2025-01-13 19:35:35.18	212.40	19.38	
2025-01-13 19:35:35.38	212.43	19.40	
2025-01-13 19:35:35.59	212.47	19.43	
2025-01-13 19:35:35.79	212.51	19.45	
2025-01-13 19:35:36.00	212.55	19.47	
2025-01-13 19:35:36.20	212.58	19.49	
2025-01-13 19:35:36.41	212.62	19.52	
2025-01-13 19:35:36.61	212.66	19.54	
2025-01-13 19:35:36.82	212.70	19.56	
2025-01-13 19:35:37.02	212.73	19.59	
2025-01-13 19:35:37.23	212.77	19.61	
2025-01-13 19:35:37.43	212.81	19.63	
2025-01-13 19:35:37.64	212.85	19.65	
2025-01-13 19:35:37.84	212.88	19.68	
2025-01-13 19:35:38.05	212.92	19.70	
2025-01-13 19:35:38.26	212.96	19.72	
2025-01-13 19:35:38.47	213.00	19.75	
2025-01-13 19:35:38.68	213.04	19.77	
2025-01-13 19:35:38.88	213.07	19.79	
2025-01-13 19:35:39.09	213.11	19.82	
2025-01-13 19:35:39.29	213.15	19.84	
2025-01-13 19:35:39.51	213.19	19.86	
2025-01-13 19:35:39.72	213.23	19.89	
2025-01-13 19:35:39.92	213.27	19.91	
2025-01-13 19:35:40.13	213.31	19.93	
2025-01-13 19:35:40.33	213.34	19.96	
2025-01-13 19:35:40.54	213.38	19.98	
2025-01-13 19:35:40.74	213.42	20.00	
2025-01-13 19:35:40.95	213.46	20.03	
2025-01-13 19:35:41.15	213.50	20.05	
2025-01-13 19:35:41.36	213.54	20.07	
2025-01-13 19:35:41.57	213.58	20.10	
2025-01-13 19:35:41.77	213.62	20.12	
2025-01-13 19:35:41.98	213.66	20.14	
2025-01-13 19:35:42.18	213.69	20.17	
2025-01-13 19:35:42.39	213.73	20.19	
2025-01-13 19:35:42.59	213.77	20.21	
2025-01-13 19:35:42.80	213.81	20.24	
2025-01-13 19:35:43.00	213.85	20.26	
2025-01-13 19:35:43.21	213.89	20.28	
2025-01-13 19:35:43.41	213.93	20.31	
2025-01-13 19:35:43.62	213.97	20.33	
2025-01-13 19:35:43.84	214.01	20.35	
2025-01-13 19:35:44.04	214.05	20.38	
2025-01-13 19:35:44.24	214.09	20.40	
2025-01-13 19:35:44.45	214.13	20.42	
2025-01-13 19:35:44.66	214.17	20.45	
2025-01-13 19:35:44.86	214.21	20.47	
2025-01-13 19:35:45.06	214.25	20.49	
2025-01-13 19:35:45.27	214.29	20.52	
2025-01-13 19:35:45.47	214.33	20.54	
2025-01-13 19:35:45.68	214.37	20.56	
2025-01-13 19:35:45.88	214.41	20.59	
2025-01-13 19:35:46.09	214.45	20.61	
2025-01-13 19:35:46.29	214.49	20.63	
2025-01-13 19:35:46.50	214.53	20.66	
2025-01-13 19:35:46.71	214.57	20.68	
2025-01-13 19:35:46.91	214.61	20.70	
2025-01-13 19:35:47.11	214.65	20.73	
2025-01-13 19:35:47.32	214.69	20.75	
2025-01-13 19:35:47.53	214.73	20.77	
2025-01-13 19:35:47.73	214.77	20.80	
2025-01-13 19:35:47.94	214.81	20.82	
2025-01-13 19:35:48.14	214.85	20.84	
2025-01-13 19:35:48.35	214.89	20.87	
2025-01-13 19:35:48.55	214.93	20.89	
2025-01-13 19:35:48.76	214.98	20.92	
2025-01-13 19:35:48.97	215.02	20.94	
2025-01-13 19:35:49.17	215.06	20.96	
2025-01-13 19:35:49.38	215.10	20.99	
2025-01-13 19:35:49.58	215.14	21.01	
2025-01-13 19:35:49.79	215.18	21.03	
2025-01-13 19:35:50.00	215.22	21.06	
2025-01-13 19:35:50.20	215.26	21.08	
2025-01-13 19:35:50.40	215.30	21.10	
2025-01-13 19:35:50.61	215.35	21.13	
2025-01-13 19:35:50.81	215.39	21.15	
2025-01-13 19:35:51.02	215.43	21.18	
2025-01-13 19:35:51.22	215.47	21.20	
2025-01-13 19:35:51.43	215.51	21.22	
2025-01-13 19:35:51.63	215.55	21.25	
2025-01-13 19:35:51.84	215.60	21.27	
2025-01-13 19:35:52.04	215.64	21.29	
2025-01-13 19:35:52.25	215.68	21.32	
2025-01-13 19:35:52.45	215.72	21.34	
2025-01-13 19:35:52.66	215.77	21.37	
2025-01-13 19:35:52.86	215.81	21.39	
2025-01-13 19:35:53.07	215.85	21.41	
2025-01-13 19:35:53.27	215.89	21.44	
2025-01-13 19:35:53.47	215.93	21.46	
2025-01-13 19:35:53.68	215.98	21.48	
2025-01-13 19:35:53.89	216.02	21.51	
2025-01-13 19:35:54.09	216.06	21.53	
2025-01-13 19:35:54.30	216.11	21.56	
2025-01-13 19:35:54.50	216.15	21.58	
2025-01-13 19:35:54.71	216.19	21.60	
2025-01-13 19:35:54.92	216.23	21.63	
2025-01-13 19:35:55.12	216.28	21.65	
2025-01-13 19:35:55.33	216.32	21.67	
2025-01-13 19:35:55.53	216.36	21.70	
2025-01-13 19:35:55.74	216.41	21.72	
2025-01-13 19:35:55.94	216.45	21.75	
2025-01-13 19:35:56.15	216.49	21.77	
2025-01-13 19:35:56.35	216.54	21.79	
2025-01-13 19:35:56.56	216.58	21.82	
2025-01-13 19:35:56.76	216.62	21.84	
2025-01-13 19:35:56.97	216.67	21.87	
2025-01-13 19:35:57.17	216.71	21.89	
2025-01-13 19:35:57.38	216.75	21.91	
2025-01-13 19:35:57.58	216.80	21.94	
2025-01-13 19:35:57.79	216.84	21.96	
2025-01-13 19:35:57.99	216.89	21.98	
2025-01-13 19:35:58.20	216.93	22.01	
2025-01-13 19:35:58.40	216.97	22.03	
2025-01-13 19:35:58.61	217.02	22.06	
2025-01-13 19:35:58.81	217.06	22.08	
2025-01-13 19:35:59.02	217.11	22.11	
2025-01-13 19:35:59.23	217.15	22.13	
2025-01-13 19:35:59.43	217.20	22.15	
2025-01-13 19:35:59.64	217.24	22.18	
2025-01-13 19:35:59.86	217.29	22.20	
2025-01-13 19:36:00.06	217.33	22.23	
2025-01-13 19:36:00.27	217.38	22.25	
2025-01-13 19:36:00.47	217.42	22.28	
2025-01-13 19:36:00.68	217.47	22.30	
2025-01-13 19:36:00.88	217.51	22.32	
2025-01-13 19:36:01.09	217.56	22.35	
2025-01-13 19:36:01.29	217.60	22.37	
2025-01-13 19:36:01.50	217.65	22.40	
2025-01-13 19:36:01.71	217.69	22.42	
2025-01-13 19:36:01.91	217.74	22.44	
2025-01-13 19:36:02.11	217.78	22.47	
2025-01-13 19:36:02.32	217.83	22.49	
2025-01-13 19:36:02.53	217.88	22.52	
2025-01-13 19:36:02.73	217.92	22.54	
2025-01-13 19:36:02.94	217.97	22.57	
2025-01-13 19:36:03.14	218.01	22.59	
2025-01-13 19:36:03.35	218.06	22.61	
2025-01-13 19:36:03.55	218.10	22.64	
2025-01-13 19:36:03.76	218.15	22.66	
2025-01-13 19:36:03.97	218.20	22.69	
2025-01-13 19:36:04.17	218.24	22.71	
2025-01-13 19:36:04.37	218.29	22.73	
2025-01-13 19:36:04.58	218.33	22.76	
2025-01-13 19:36:04.79	218.38	22.78	
2025-01-13 19:36:04.99	218.43	22.81	
2025-01-13 19:36:05.21	218.48	22.83	
2025-01-13 19:36:05.42	218.52	22.86	
2025-01-13 19:36:05.62	218.57	22.88	
2025-01-13 19:36:05.83	218.62	22.91	
2025-01-13 19:36:06.03	218.66	22.93	
2025-01-13 19:36:06.24	218.71	22.95	
2025-01-13 19:36:06.44	218.76	22.98	
2025-01-13 19:36:06.65	218.80	23.00	
2025-01-13 19:36:06.85	218.85	23.03	
2025-01-13 19:36:07.06	218.90	23.05	
2025-01-13 19:36:07.26	218.95	23.08	
2025-01-13 19:36:07.47	218.99	23.10	
2025-01-13 19:36:07.67	219.04	23.12	
2025-01-13 19:36:07.88	219.09	23.15	
2025-01-13 19:36:08.09	219.14	23.17	
2025-01-13 19:36:08.29	219.18	23.20	
2025-01-13 19:36:08.49	219.23	23.22	
2025-01-13 19:36:08.70	219.28	23.25	
2025-01-13 19:36:08.91	219.33	23.27	
2025-01-13 19:36:09.11	219.37	23.29	
2025-01-13 19:36:09.32	219.42	23.32	
2025-01-13 19:36:09.52	219.47	23.34	
2025-01-13 19:36:09.72	219.52	23.37	
2025-01-13 19:36:09.93	219.57	23.39	
2025-01-13 19:36:10.13	219.61	23.42	
2025-01-13 19:36:10.34	219.66	23.44	
2025-01-13 19:36:10.56	219.71	23.47	
2025-01-13 19:36:10.76	219.76	23.49	
2025-01-13 19:36:10.97	219.81	23.51	
2025-01-13 19:36:11.18	219.86	23.54	
2025-01-13 19:36:11.38	219.91	23.56	
2025-01-13 19:36:11.59	219.96	23.59	
2025-01-13 19:36:11.79	220.01	23.61	
2025-01-13 19:36:12.00	220.06	23.64	
2025-01-13 19:36:12.20	220.10	23.66	
2025-01-13 19:36:12.41	220.15	23.69	
2025-01-13 19:36:12.61	220.20	23.71	
2025-01-13 19:36:12.81	220.25	23.73	
2025-01-13 19:36:13.02	220.30	23.76	
2025-01-13 19:36:13.23	220.35	23.78	
2025-01-13 19:36:13.43	220.40	23.81	
2025-01-13 19:36:13.64	220.45	23.83	
2025-01-13 19:36:13.84	220.50	23.86	
2025-01-13 19:36:14.05	220.55	23.88	
2025-01-13 19:36:14.25	220.60	23.91	
2025-01-13 19:36:14.46	220.65	23.93	
2025-01-13 19:36:14.67	220.70	23.96	
2025-01-13 19:36:14.87	220.75	23.98	
2025-01-13 19:36:15.08	220.80	24.00	
2025-01-13 19:36:15.28	220.85	24.03	
2025-01-13 19:36:15.48	220.90	24.05	
2025-01-13 19:36:15.69	220.95	24.08	
2025-01-13 19:36:15.89	221.00	24.10	
2025-01-13 19:36:16.10	221.05	24.13	
2025-01-13 19:36:16.31	221.10	24.15	
2025-01-13 19:36:16.51	221.15	24.17	
2025-01-13 19:36:16.72	221.21	24.20	
2025-01-13 19:36:16.92	221.25	24.22	
2025-01-13 19:36:17.13	221.31	24.25	
2025-01-13 19:36:17.34	221.36	24.27	
2025-01-13 19:36:17.54	221.41	24.30	
2025-01-13 19:36:17.75	221.46	24.32	
2025-01-13 19:36:17.95	221.51	24.35	
2025-01-13 19:36:18.16	221.56	24.37	
2025-01-13 19:36:18.36	221.61	24.40	
2025-01-13 19:36:18.57	221.67	24.42	
2025-01-13 19:36:18.77	221.72	24.44	
2025-01-13 19:36:18.98	221.77	24.47	
2025-01-13 19:36:19.18	221.82	24.49	
2025-01-13 19:36:19.39	221.87	24.52	
2025-01-13 19:36:19.60	221.93	24.54	
2025-01-13 19:36:19.80	221.98	24.57	
2025-01-13 19:36:20.01	222.03	24.59	
2025-01-13 19:36:20.21	222.08	24.62	
2025-01-13 19:36:20.42	222.14	24.64	
2025-01-13 19:36:20.62	222.19	24.66	
2025-01-13 19:36:20.83	222.24	24.69	
2025-01-13 19:36:21.03	222.29	24.71	
2025-01-13 19:36:21.24	222.35	24.74	
2025-01-13 19:36:21.44	222.40	24.76	
2025-01-13 19:36:21.65	222.45	24.79	
2025-01-13 19:36:21.85	222.50	24.81	
2025-01-13 19:36:22.06	222.56	24.84	
2025-01-13 19:36:22.26	222.61	24.86	
2025-01-13 19:36:22.47	222.66	24.89	
2025-01-13 19:36:22.67	222.71	24.91	
2025-01-13 19:36:22.88	222.77	24.93	
2025-01-13 19:36:23.08	222.82	24.96	
2025-01-13 19:36:23.29	222.88	24.98	
2025-01-13 19:36:23.49	222.93	25.01	
2025-01-13 19:36:23.70	222.98	25.03	
2025-01-13 19:36:23.90	223.03	25.06	
2025-01-13 19:36:24.11	223.09	25.08	
2025-01-13 19:36:24.31	223.14	25.11	
2025-01-13 19:36:24.52	223.20	25.13	
2025-01-13 19:36:24.72	223.25	25.15	
2025-01-13 19:36:24.93	223.31	25.18	
2025-01-13 19:36:25.13	223.36	25.20	
2025-01-13 19:36:25.34	223.41	25.23	
2025-01-13 19:36:25.54	223.47	25.25	
2025-01-13 19:36:25.75	223.52	25.28	
2025-01-13 19:36:25.95	223.58	25.30	
2025-01-13 19:36:26.16	223.63	25.33	
2025-01-13 19:36:26.36	223.69	25.35	
2025-01-13 19:36:26.57	223.74	25.38	
2025-01-13 19:36:26.77	223.79	25.40	
2025-01-13 19:36:26.98	223.85	25.42	
2025-01-13 19:36:27.19	223.91	25.45	
2025-01-13 19:36:27.39	223.96	25.47	
2025-01-13 19:36:27.61	224.02	25.50	
2025-01-13 19:36:27.81	224.07	25.52	
2025-01-13 19:36:28.02	224.13	25.55	
2025-01-13 19:36:28.22	224.19	25.57	
2025-01-13 19:36:28.43	224.24	25.60	
2025-01-13 19:36:28.63	224.30	25.62	
2025-01-13 19:36:28.84	224.35	25.65	
2025-01-13 19:36:29.04	224.41	25.67	
2025-01-13 19:36:29.25	224.47	25.69	
2025-01-13 19:36:29.45	224.52	25.72	
2025-01-13 19:36:29.66	224.58	25.74	
2025-01-13 19:36:29.86	224.63	25.77	
2025-01-13 19:36:30.07	224.69	25.79	
2025-01-13 19:36:30.28	224.75	25.82	
2025-01-13 19:36:30.48	224.80	25.84	
2025-01-13 19:36:30.69	224.86	25.87	
2025-01-13 19:36:30.89	224.92	25.89	
2025-01-13 19:36:31.10	224.97	25.91	
2025-01-13 19:36:31.30	225.03	25.94	
2025-01-13 19:36:31.51	225.09	25.96	
2025-01-13 19:36:31.72	225.15	25.99	
2025-01-13 19:36:31.92	225.20	26.01	
2025-01-13 19:36:32.13	225.26	26.04	
2025-01-13 19:36:32.33	225.32	26.06	
2025-01-13 19:36:32.54	225.37	26.09	
2025-01-13 19:36:32.74	225.43	26.11	
2025-01-13 19:36:32.95	225.49	26.13	
2025-01-13 19:36:33.15	225.55	26.16	
2025-01-13 19:36:33.36	225.60	26.18	
2025-01-13 19:36:33.56	225.66	26.21	
2025-01-13 19:36:33.77	225.72	26.23	
2025-01-13 19:36:33.97	225.78	26.26	
2025-01-13 19:36:34.18	225.84	26.28	
2025-01-13 19:36:34.38	225.89	26.30	
2025-01-13 19:36:34.59	225.95	26.33	
2025-01-13 19:36:34.79	226.01	26.35	
2025-01-13 19:36:34.99	226.07	26.38	
2025-01-13 19:36:35.20	226.13	26.40	
2025-01-13 19:36:35.41	226.19	26.43	
2025-01-13 19:36:35.61	226.24	26.45	
2025-01-13 19:36:35.82	226.30	26.47	
2025-01-13 19:36:36.02	226.36	26.50	
2025-01-13 19:36:36.23	226.42	26.52	
2025-01-13 19:36:36.43	226.48	26.55	
2025-01-13 19:36:36.64	226.54	26.57	
2025-01-13 19:36:36.84	226.60	26.60	
2025-01-13 19:36:37.05	226.66	26.62	
2025-01-13 19:36:37.25	226.72	26.64	
2025-01-13 19:36:37.46	226.78	26.67	
2025-01-13 19:36:37.66	226.84	26.69	
2025-01-13 19:36:37.87	226.90	26.72	
2025-01-13 19:36:38.07	226.96	26.74	
2025-01-13 19:36:38.29	227.02	26.77	
2025-01-13 19:36:38.50	227.08	26.79	
2025-01-13 19:36:38.71	227.14	26.82	
2025-01-13 19:36:38.91	227.20	26.84	
2025-01-13 19:36:39.12	227.26	26.86	
2025-01-13 19:36:39.33	227.32	26.89	
2025-01-13 19:36:39.54	227.39	26.91	
2025-01-13 19:36:39.75	227.45	26.94	
2025-01-13 19:36:39.95	227.51	26.96	
2025-01-13 19:36:40.16	227.57	26.99	
2025-01-13 19:36:40.36	227.63	27.01	
2025-01-13 19:36:40.57	227.69	27.03	
2025-01-13 19:36:40.77	227.75	27.06	
2025-01-13 19:36:40.98	227.81	27.08	
2025-01-13 19:36:41.18	227.87	27.11	
2025-01-13 19:36:41.38	227.93	27.13	
2025-01-13 19:36:41.59	228.00	27.15	
2025-01-13 19:36:41.80	228.06	27.18	
2025-01-13 19:36:42.00	228.12	27.20	
2025-01-13 19:36:42.21	228.18	27.23	
2025-01-13 19:36:42.41	228.24	27.25	
2025-01-13 19:36:42.62	228.31	27.27	
2025-01-13 19:36:42.82	228.37	27.30	
2025-01-13 19:36:43.03	228.43	27.32	
2025-01-13 19:36:43.24	228.49	27.35	
2025-01-13 19:36:43.44	228.55	27.37	
2025-01-13 19:36:43.64	228.62	27.39	
2025-01-13 19:36:43.85	228.68	27.42	
2025-01-13 19:36:44.06	228.74	27.44	
2025-01-13 19:36:44.26	228.80	27.47	
2025-01-13 19:36:44.47	228.87	27.49	
2025-01-13 19:36:44.67	228.93	27.51	
2025-01-13 19:36:44.88	228.99	27.54	
2025-01-13 19:36:45.08	229.06	27.56	
2025-01-13 19:36:45.29	229.12	27.59	
2025-01-13 19:36:45.49	229.18	27.61	
2025-01-13 19:36:45.70	229.25	27.63	
2025-01-13 19:36:45.90	229.31	27.66	
2025-01-13 19:36:46.11	229.37	27.68	
2025-01-13 19:36:46.31	229.44	27.70	
2025-01-13 19:36:46.52	229.50	27.73	
2025-01-13 19:36:46.72	229.56	27.75	
2025-01-13 19:36:46.92	229.63	27.77	
2025-01-13 19:36:47.13	229.69	27.80	
2025-01-13 19:36:47.33	229.75	27.82	
2025-01-13 19:36:47.54	229.82	27.85	
2025-01-13 19:36:47.74	229.88	27.87	
2025-01-13 19:36:47.95	229.95	27.89	
2025-01-13 19:36:48.15	230.01	27.92	
2025-01-13 19:36:48.36	230.08	27.94	
2025-01-13 19:36:48.56	230.14	27.96	
2025-01-13 19:36:48.77	230.21	27.99	
2025-01-13 19:36:48.97	230.27	28.01	
2025-01-13 19:36:49.18	230.34	28.03	
2025-01-13 19:36:49.38	230.40	28.06	
2025-01-13 19:36:49.59	230.47	28.08	
2025-01-13 19:36:49.79	230.53	28.10	
2025-01-13 19:36:50.00	230.60	28.13	
2025-01-13 19:36:50.20	230.66	28.15	
2025-01-13 19:36:50.41	230.73	28.17	
2025-01-13 19:36:50.61	230.79	28.20	
2025-01-13 19:36:50.82	230.86	28.22	
2025-01-13 19:36:51.02	230.92	28.24	
2025-01-13 19:36:51.23	230.99	28.27	
2025-01-13 19:36:51.44	231.06	28.29	
2025-01-13 19:36:51.64	231.12	28.31	
2025-01-13 19:36:51.85	231.19	28.34	
2025-01-13 19:36:52.05	231.26	28.36	
2025-01-13 19:36:52.25	231.32	28.38	
2025-01-13 19:36:52.46	231.39	28.41	
2025-01-13 19:36:52.67	231.46	28.43	
2025-01-13 19:36:52.87	231.52	28.45	
2025-01-13 19:36:53.08	231.59	28.48	
2025-01-13 19:36:53.28	231.65	28.50	
2025-01-13 19:36:53.49	231.72	28.52	
2025-01-13 19:36:53.69	231.79	28.55	
2025-01-13 19:36:53.90	231.86	28.57	
2025-01-13 19:36:54.11	231.93	28.59	
2025-01-13 19:36:54.31	231.99	28.62	
2025-01-13 19:36:54.51	232.06	28.64	
2025-01-13 19:36:54.72	232.13	28.66	
2025-01-13 19:36:54.93	232.20	28.68	
2025-01-13 19:36:55.13	232.26	28.71	
2025-01-13 19:36:55.34	232.33	28.73	
2025-01-13 19:36:55.54	232.40	28.75	
2025-01-13 19:36:55.75	232.47	28.78	
2025-01-13 19:36:55.95	232.53	28.80	
2025-01-13 19:36:56.16	232.60	28.82	
2025-01-13 19:36:56.36	232.67	28.84	
2025-01-13 19:36:56.57	232.74	28.87	
2025-01-13 19:36:56.78	232.81	28.89	
2025-01-13 19:36:56.98	232.88	28.91	
2025-01-13 19:36:57.19	232.95	28.94	
2025-01-13 19:36:57.39	233.02	28.96	
2025-01-13 19:36:57.60	233.09	28.98	
2025-01-13 19:36:57.80	233.15	29.00	
2025-01-13 19:36:58.01	233.22	29.03	
2025-01-13 19:36:58.22	233.30	29.05	
2025-01-13 19:36:58.42	233.36	29.07	
2025-01-13 19:36:58.63	233.43	29.10	
2025-01-13 19:36:58.84	233.51	29.12	
2025-01-13 19:36:59.04	233.57	29.14	
2025-01-13 19:36:59.25	233.65	29.16	
2025-01-13 19:36:59.45	233.71	29.18	
2025-01-13 19:36:59.66	233.78	29.21	
2025-01-13 19:36:59.86	233.85	29.23	
2025-01-13 19:37:00.07	233.93	29.25	
2025-01-13 19:37:00.27	233.99	29.27	
2025-01-13 19:37:00.49	234.07	29.30	
2025-01-13 19:37:00.70	234.14	29.32	
2025-01-13 19:37:00.91	234.21	29.34	
2025-01-13 19:37:01.11	234.28	29.37	
2025-01-13 19:37:01.32	234.35	29.39	
2025-01-13 19:37:01.52	234.42	29.41	
2025-01-13 19:37:01.73	234.50	29.43	
2025-01-13 19:37:01.93	234.57	29.45	
2025-01-13 19:37:02.14	234.64	29.48	
2025-01-13 19:37:02.35	234.71	29.50	
2025-01-13 19:37:02.55	234.78	29.52	
2025-01-13 19:37:02.75	234.85	29.54	
2025-01-13 19:37:02.96	234.92	29.56	
2025-01-13 19:37:03.17	235.00	29.59	
2025-01-13 19:37:03.37	235.07	29.61	
2025-01-13 19:37:03.58	235.14	29.63	
2025-01-13 19:37:03.79	235.21	29.65	
2025-01-13 19:37:03.99	235.29	29.67	
2025-01-13 19:37:04.20	235.36	29.70	
2025-01-13 19:37:04.40	235.43	29.72	
2025-01-13 19:37:04.61	235.50	29.74	
2025-01-13 19:37:04.81	235.57	29.76	
2025-01-13 19:37:05.02	235.65	29.78	
2025-01-13 19:37:05.22	235.72	29.81	
2025-01-13 19:37:05.43	235.79	29.83	
2025-01-13 19:37:05.63	235.86	29.85	
2025-01-13 19:37:05.84	235.94	29.87	
2025-01-13 19:37:06.06	236.02	29.89	
2025-01-13 19:37:06.26	236.09	29.91	
2025-01-13 19:37:06.47	236.16	29.94	
2025-01-13 19:37:06.68	236.24	29.96	
2025-01-13 19:37:06.89	236.31	29.98	
2025-01-13 19:37:07.09	236.39	30.00	
2025-01-13 19:37:07.30	236.46	30.02	
2025-01-13 19:37:07.50	236.53	30.04	
2025-01-13 19:37:07.71	236.61	30.07	
2025-01-13 19:37:07.92	236.68	30.09	
2025-01-13 19:37:08.12	236.76	30.11	
2025-01-13 19:37:08.32	236.83	30.13	
2025-01-13 19:37:08.53	236.91	30.15	
2025-01-13 19:37:08.73	236.98	30.17	
2025-01-13 19:37:08.94	237.05	30.19	
2025-01-13 19:37:09.14	237.13	30.21	
2025-01-13 19:37:09.34	237.20	30.23	
2025-01-13 19:37:09.55	237.28	30.26	
2025-01-13 19:37:09.76	237.35	30.28	
2025-01-13 19:37:09.96	237.43	30.30	
2025-01-13 19:37:10.17	237.50	30.32	
2025-01-13 19:37:10.37	237.58	30.34	
2025-01-13 19:37:10.58	237.65	30.36	
2025-01-13 19:37:10.78	237.73	30.38	
2025-01-13 19:37:10.99	237.80	30.40	
2025-01-13 19:37:11.19	237.88	30.42	
2025-01-13 19:37:11.39	237.95	30.44	
2025-01-13 19:37:11.60	238.03	30.46	
2025-01-13 19:37:11.81	238.11	30.48	
2025-01-13 19:37:12.01	238.18	30.50	
2025-01-13 19:37:12.22	238.26	30.52	
2025-01-13 19:37:12.42	238.33	30.54	
2025-01-13 19:37:12.63	238.41	30.57	
2025-01-13 19:37:12.83	238.48	30.59	
2025-01-13 19:37:13.04	238.56	30.61	
2025-01-13 19:37:13.24	238.64	30.63	
2025-01-13 19:37:13.45	238.72	30.65	
2025-01-13 19:37:13.65	238.79	30.67	
2025-01-13 19:37:13.86	238.87	30.69	
2025-01-13 19:37:14.06	238.94	30.71	
2025-01-13 19:37:14.27	239.02	30.73	
2025-01-13 19:37:14.47	239.10	30.75	
2025-01-13 19:37:14.68	239.18	30.77	
2025-01-13 19:37:14.88	239.25	30.79	
2025-01-13 19:37:15.09	239.33	30.81	
2025-01-13 19:37:15.29	239.41	30.83	
2025-01-13 19:37:15.50	239.49	30.85	
2025-01-13 19:37:15.70	239.56	30.87	
2025-01-13 19:37:15.91	239.64	30.89	
2025-01-13 19:37:16.11	239.72	30.91	
2025-01-13 19:37:16.32	239.80	30.93	
2025-01-13 19:37:16.52	239.87	30.95	
2025-01-13 19:37:16.73	239.95	30.97	
2025-01-13 19:37:16.93	240.03	30.98	
2025-01-13 19:37:17.14	240.11	31.00	
2025-01-13 19:37:17.35	240.19	31.02	
2025-01-13 19:37:17.55	240.27	31.04	
2025-01-13 19:37:17.75	240.34	31.06	
2025-01-13 19:37:17.96	240.42	31.08	
2025-01-13 19:37:18.17	240.50	31.10	
2025-01-13 19:37:18.37	240.58	31.12	
2025-01-13 19:37:18.58	240.66	31.14	
2025-01-13 19:37:18.78	240.74	31.16	
2025-01-13 19:37:18.99	240.82	31.18	
2025-01-13 19:37:19.19	240.90	31.20	
2025-01-13 19:37:19.40	240.98	31.22	
2025-01-13 19:37:19.61	241.06	31.24	
2025-01-13 19:37:19.81	241.14	31.25	
2025-01-13 19:37:20.02	241.22	31.27	
2025-01-13 19:37:20.22	241.30	31.29	
2025-01-13 19:37:20.43	241.38	31.31	
2025-01-13 19:37:20.63	241.46	31.33	
2025-01-13 19:37:20.84	241.54	31.35	
2025-01-13 19:37:21.04	241.62	31.37	
2025-01-13 19:37:21.25	241.70	31.39	
2025-01-13 19:37:21.45	241.78	31.40	
2025-01-13 19:37:21.66	241.86	31.42	
2025-01-13 19:37:21.87	241.94	31.44	
2025-01-13 19:37:22.08	242.02	31.46	
2025-01-13 19:37:22.29	242.11	31.48	
2025-01-13 19:37:22.50	242.19	31.50	
2025-01-13 19:37:22.70	242.27	31.52	
2025-01-13 19:37:22.91	242.35	31.54	
2025-01-13 19:37:23.11	242.43	31.55	
2025-01-13 19:37:23.32	242.51	31.57	
2025-01-13 19:37:23.52	242.59	31.59	
2025-01-13 19:37:23.73	242.68	31.61	
2025-01-13 19:37:23.93	242.76	31.63	
2025-01-13 19:37:24.14	242.84	31.64	
2025-01-13 19:37:24.34	242.92	31.66	
2025-01-13 19:37:24.55	243.00	31.68	
2025-01-13 19:37:24.75	243.08	31.70	
2025-01-13 19:37:24.96	243.17	31.72	
2025-01-13 19:37:25.16	243.25	31.73	
2025-01-13 19:37:25.37	243.33	31.75	
2025-01-13 19:37:25.57	243.41	31.77	
2025-01-13 19:37:25.78	243.49	31.79	
2025-01-13 19:37:25.98	243.57	31.80	
2025-01-13 19:37:26.19	243.66	31.82	
2025-01-13 19:37:26.39	243.74	31.84	
2025-01-13 19:37:26.60	243.82	31.86	
2025-01-13 19:37:26.80	243.90	31.87	
2025-01-13 19:37:27.01	243.99	31.89	
2025-01-13 19:37:27.21	244.07	31.91	
2025-01-13 19:37:27.43	244.16	31.92	
2025-01-13 19:37:27.63	244.24	31.94	
2025-01-13 19:37:27.84	244.33	31.96	
2025-01-13 19:37:28.05	244.41	31.98	
2025-01-13 19:37:28.25	244.49	31.99	
2025-01-13 19:37:28.46	244.58	32.01	
2025-01-13 19:37:28.66	244.66	32.03	
2025-01-13 19:37:28.87	244.74	32.04	
2025-01-13 19:37:29.07	244.83	32.06	
2025-01-13 19:37:29.28	244.91	32.08	
2025-01-13 19:37:29.48	244.99	32.09	
2025-01-13 19:37:29.69	245.08	32.11	
2025-01-13 19:37:29.89	245.16	32.13	
2025-01-13 19:37:30.10	245.25	32.14	
2025-01-13 19:37:30.30	245.33	32.16	
2025-01-13 19:37:30.51	245.42	32.18	
2025-01-13 19:37:30.71	245.50	32.19	
2025-01-13 19:37:30.92	245.58	32.21	
2025-01-13 19:37:31.12	245.67	32.22	
2025-01-13 19:37:31.33	245.75	32.24	
2025-01-13 19:37:31.53	245.84	32.26	
2025-01-13 19:37:31.74	245.92	32.27	
2025-01-13 19:37:31.94	246.01	32.29	
2025-01-13 19:37:32.15	246.09	32.30	
2025-01-13 19:37:32.36	246.18	32.32	
2025-01-13 19:37:32.56	246.26	32.34	
2025-01-13 19:37:32.76	246.35	32.35	
2025-01-13 19:37:32.97	246.43	32.37	
2025-01-13 19:37:33.18	246.52	32.38	
2025-01-13 19:37:33.38	246.60	32.40	
2025-01-13 19:37:33.59	246.69	32.41	
2025-01-13 19:37:33.79	246.77	32.43	
2025-01-13 19:37:34.00	246.86	32.44	
2025-01-13 19:37:34.20	246.95	32.46	
2025-01-13 19:37:34.41	247.03	32.47	
2025-01-13 19:37:34.61	247.12	32.49	
2025-01-13 19:37:34.82	247.21	32.50	
2025-01-13 19:37:35.02	247.29	32.52	
2025-01-13 19:37:35.23	247.38	32.53	
2025-01-13 19:37:35.43	247.46	32.55	
2025-01-13 19:37:35.64	247.55	32.56	
2025-01-13 19:37:35.84	247.63	32.58	
2025-01-13 19:37:36.05	247.72	32.59	
2025-01-13 19:37:36.25	247.81	32.61	
2025-01-13 19:37:36.46	247.90	32.62	
2025-01-13 19:37:36.67	247.99	32.64	
2025-01-13 19:37:36.87	248.07	32.65	
2025-01-13 19:37:37.08	248.16	32.67	
2025-01-13 19:37:37.28	248.24	32.68	
2025-01-13 19:37:37.49	248.33	32.69	
2025-01-13 19:37:37.69	248.42	32.71	
2025-01-13 19:37:37.90	248.51	32.72	
2025-01-13 19:37:38.10	248.59	32.74	
2025-01-13 19:37:38.31	248.68	32.75	
2025-01-13 19:37:38.52	248.77	32.77	
2025-01-13 19:37:38.72	248.86	32.78	
2025-01-13 19:37:38.93	248.95	32.79	
2025-01-13 19:37:39.13	249.03	32.81	
2025-01-13 19:37:39.34	249.12	32.82	
2025-01-13 19:37:39.55	249.21	32.83	
2025-01-13 19:37:39.75	249.30	32.85	
2025-01-13 19:37:39.96	249.39	32.86	
2025-01-13 19:37:40.16	249.47	32.87	
2025-01-13 19:37:40.37	249.56	32.89	
2025-01-13 19:37:40.57	249.65	32.90	
2025-01-13 19:37:40.78	249.74	32.91	
2025-01-13 19:37:40.98	249.83	32.93	
2025-01-13 19:37:41.19	249.92	32.94	
2025-01-13 19:37:41.39	250.00	32.95	
2025-01-13 19:37:41.60	250.09	32.97	
2025-01-13 19:37:41.80	250.18	32.98	
2025-01-13 19:37:42.01	250.27	32.99	
2025-01-13 19:37:42.22	250.36	33.01	
2025-01-13 19:37:42.42	250.45	33.02	
2025-01-13 19:37:42.63	250.54	33.03	
2025-01-13 19:37:42.83	250.62	33.04	
2025-01-13 19:37:43.04	250.72	33.06	
2025-01-13 19:37:43.24	250.80	33.07	
2025-01-13 19:37:43.45	250.89	33.08	
2025-01-13 19:37:43.65	250.98	33.09	
2025-01-13 19:37:43.86	251.07	33.10	
2025-01-13 19:37:44.06	251.16	33.12	
2025-01-13 19:37:44.27	251.25	33.13	
2025-01-13 19:37:44.47	251.34	33.14	
2025-01-13 19:37:44.68	251.43	33.15	
2025-01-13 19:37:44.88	251.52	33.16	
2025-01-13 19:37:45.09	251.61	33.18	
2025-01-13 19:37:45.30	251.70	33.19	
2025-01-13 19:37:45.50	251.79	33.20	
2025-01-13 19:37:45.71	251.88	33.21	
2025-01-13 19:37:45.91	251.97	33.22	
2025-01-13 19:37:46.12	252.06	33.23	
2025-01-13 19:37:46.32	252.15	33.25	
2025-01-13 19:37:46.53	252.24	33.26	
2025-01-13 19:37:46.73	252.33	33.27	
2025-01-13 19:37:46.94	252.42	33.28	
2025-01-13 19:37:47.14	252.51	33.29	
2025-01-13 19:37:47.35	252.60	33.30	
2025-01-13 19:37:47.56	252.69	33.31	
2025-01-13 19:37:47.76	252.78	33.32	
2025-01-13 19:37:47.97	252.88	33.33	
2025-01-13 19:37:48.17	252.96	33.34	
2025-01-13 19:37:48.38	253.06	33.36	
2025-01-13 19:37:48.58	253.14	33.37	
2025-01-13 19:37:48.80	253.24	33.38	
2025-01-13 19:37:49.01	253.34	33.39	
2025-01-13 19:37:49.21	253.42	33.40	
2025-01-13 19:37:49.42	253.52	33.41	
2025-01-13 19:37:49.62	253.61	33.42	
2025-01-13 19:37:49.83	253.70	33.43	
2025-01-13 19:37:50.03	253.79	33.44	
2025-01-13 19:37:50.24	253.88	33.45	
2025-01-13 19:37:50.44	253.97	33.46	
2025-01-13 19:37:50.65	254.06	33.47	
2025-01-13 19:37:50.85	254.15	33.48	
2025-01-13 19:37:51.06	254.25	33.49	
2025-01-13 19:37:51.27	254.34	33.50	
2025-01-13 19:37:51.47	254.43	33.51	
2025-01-13 19:37:51.68	254.52	33.52	
2025-01-13 19:37:51.88	254.61	33.53	
2025-01-13 19:37:52.09	254.71	33.53	
2025-01-13 19:37:52.29	254.80	33.54	
2025-01-13 19:37:52.50	254.89	33.55	
2025-01-13 19:37:52.71	254.98	33.56	
2025-01-13 19:37:52.91	255.07	33.57	
2025-01-13 19:37:53.12	255.17	33.58	
2025-01-13 19:37:53.32	255.26	33.59	
2025-01-13 19:37:53.53	255.35	33.60	
2025-01-13 19:37:53.73	255.44	33.61	
2025-01-13 19:37:53.94	255.54	33.61	
2025-01-13 19:37:54.14	255.63	33.62	
2025-01-13 19:37:54.34	255.72	33.63	
2025-01-13 19:37:54.55	255.81	33.64	
2025-01-13 19:37:54.76	255.90	33.65	
2025-01-13 19:37:54.96	255.99	33.66	
2025-01-13 19:37:55.17	256.09	33.66	
2025-01-13 19:37:55.37	256.18	33.67	
2025-01-13 19:37:55.58	256.27	33.68	
2025-01-13 19:37:55.79	256.37	33.69	
2025-01-13 19:37:55.99	256.46	33.70	
2025-01-13 19:37:56.19	256.55	33.70	
2025-01-13 19:37:56.40	256.64	33.71	
2025-01-13 19:37:56.61	256.74	33.72	
2025-01-13 19:37:56.81	256.83	33.73	
2025-01-13 19:37:57.02	256.93	33.73	
2025-01-13 19:37:57.22	257.02	33.74	
2025-01-13 19:37:57.43	257.11	33.75	
2025-01-13 19:37:57.63	257.20	33.76	
2025-01-13 19:37:57.84	257.30	33.76	
2025-01-13 19:37:58.05	257.39	33.77	
2025-01-13 19:37:58.25	257.48	33.78	
2025-01-13 19:37:58.46	257.58	33.78	
2025-01-13 19:37:58.66	257.67	33.79	
2025-01-13 19:37:58.87	257.76	33.80	
2025-01-13 19:37:59.07	257.86	33.80	
2025-01-13 19:37:59.28	257.95	33.81	
2025-01-13 19:37:59.50	258.05	33.82	
2025-01-13 19:37:59.70	258.14	33.82	
2025-01-13 19:37:59.91	258.24	33.83	
2025-01-13 19:38:00.11	258.33	33.84	
2025-01-13 19:38:00.32	258.42	33.84	
2025-01-13 19:38:00.52	258.52	33.85	
2025-01-13 19:38:00.72	258.61	33.85	
2025-01-13 19:38:00.93	258.70	33.86	
2025-01-13 19:38:01.14	258.80	33.87	
2025-01-13 19:38:01.34	258.89	33.87	
2025-01-13 19:38:01.54	258.98	33.88	
2025-01-13 19:38:01.75	259.08	33.88	
2025-01-13 19:38:01.95	259.17	33.89	
2025-01-13 19:38:02.17	259.27	33.89	
2025-01-13 19:38:02.38	259.36	33.90	
2025-01-13 19:38:02.58	259.46	33.90	
2025-01-13 19:38:02.79	259.55	33.91	
2025-01-13 19:38:02.99	259.64	33.91	
2025-01-13 19:38:03.20	259.74	33.92	
2025-01-13 19:38:03.40	259.83	33.92	
2025-01-13 19:38:03.61	259.93	33.93	
2025-01-13 19:38:03.82	260.02	33.93	
2025-01-13 19:38:04.02	260.12	33.94	
2025-01-13 19:38:04.23	260.21	33.94	
2025-01-13 19:38:04.44	260.31	33.95	
2025-01-13 19:38:04.64	260.40	33.95	
2025-01-13 19:38:04.84	260.49	33.96	
2025-01-13 19:38:05.05	260.59	33.96	
2025-01-13 19:38:05.25	260.68	33.97	
2025-01-13 19:38:05.46	260.78	33.97	
2025-01-13 19:38:05.66	260.87	33.97	
2025-01-13 19:38:05.87	260.96	33.98	
2025-01-13 19:38:06.07	261.06	33.98	
2025-01-13 19:38:06.28	261.15	33.98	
2025-01-13 19:38:06.48	261.24	33.99	
2025-01-13 19:38:06.69	261.34	33.99	
2025-01-13 19:38:06.89	261.43	34.00	
2025-01-13 19:38:07.10	261.53	34.00	
2025-01-13 19:38:07.30	261.62	34.00	
2025-01-13 19:38:07.51	261.72	34.01	
2025-01-13 19:38:07.71	261.81	34.01	
2025-01-13 19:38:07.92	261.91	34.01	
2025-01-13 19:38:08.14	262.01	34.01	
2025-01-13 19:38:08.34	262.10	34.02	
2025-01-13 19:38:08.55	262.20	34.02	
2025-01-13 19:38:08.76	262.29	34.02	
2025-01-13 19:38:08.96	262.39	34.03	
2025-01-13 19:38:09.16	262.48	34.03	
2025-01-13 19:38:09.37	262.58	34.03	
2025-01-13 19:38:09.57	262.67	34.03	
2025-01-13 19:38:09.78	262.76	34.04	
2025-01-13 19:38:09.99	262.86	34.04	
2025-01-13 19:38:10.20	262.96	34.04	
2025-01-13 19:38:10.41	263.05	34.04	
2025-01-13 19:38:10.62	263.15	34.04	
2025-01-13 19:38:10.82	263.24	34.05	
2025-01-13 19:38:11.03	263.34	34.05	
2025-01-13 19:38:11.23	263.43	34.05	
2025-01-13 19:38:11.44	263.53	34.05	
2025-01-13 19:38:11.64	263.62	34.05	
