passes_logs/2025/01/13/SPB_Silybum_02/SPB_Silybum_02__20250113_104322_SUOMI_NPP_rec.log

#Pass ID: 20250113_104322_SUOMI NPP
#Satellite: SUOMI NPP
#Configuration: NPP
#Start time: 2025-01-13 10:43:22

#Version: 2.0.20230423
#Station: SPB_Silybum_02
#Location: 30.233357 lon 59.946436 lat
#TLE: 1 37849U 11061A   25012.80531474  .00000146  00000+0  90276-4 0  9990
#TLE: 2 37849  98.7443 313.8217 0001772  44.3490 315.7828 14.19537186684607

#Time	Az	El	Level	Level2	SNR	BER	Gain	Gain2
2025-01-13 10:43:24.97	172.44	4.17	
2025-01-13 10:43:25.17	172.44	4.18	
2025-01-13 10:43:25.38	172.45	4.19	
2025-01-13 10:43:25.58	172.45	4.21	
2025-01-13 10:43:25.78	172.46	4.22	
2025-01-13 10:43:25.99	172.46	4.24	
2025-01-13 10:43:26.20	172.47	4.25	
2025-01-13 10:43:26.40	172.47	4.26	
2025-01-13 10:43:26.61	172.48	4.28	
2025-01-13 10:43:26.81	172.48	4.29	
2025-01-13 10:43:27.02	172.49	4.31	
2025-01-13 10:43:27.22	172.49	4.32	
2025-01-13 10:43:27.43	172.50	4.34	
2025-01-13 10:43:27.63	172.50	4.35	
2025-01-13 10:43:27.84	172.51	4.36	
2025-01-13 10:43:28.04	172.51	4.38	
2025-01-13 10:43:28.25	172.52	4.39	
2025-01-13 10:43:28.45	172.52	4.41	
2025-01-13 10:43:28.66	172.53	4.42	
2025-01-13 10:43:28.87	172.53	4.44	
2025-01-13 10:43:29.07	172.54	4.45	
2025-01-13 10:43:29.28	172.54	4.46	
2025-01-13 10:43:29.48	172.55	4.48	
2025-01-13 10:43:29.69	172.55	4.49	
2025-01-13 10:43:29.89	172.56	4.51	
2025-01-13 10:43:30.10	172.56	4.52	
2025-01-13 10:43:30.30	172.57	4.53	
2025-01-13 10:43:30.51	172.57	4.55	
2025-01-13 10:43:30.71	172.58	4.56	
2025-01-13 10:43:30.92	172.58	4.58	
2025-01-13 10:43:31.12	172.59	4.59	
2025-01-13 10:43:31.33	172.59	4.61	
2025-01-13 10:43:31.53	172.60	4.62	
2025-01-13 10:43:31.74	172.60	4.64	
2025-01-13 10:43:31.94	172.61	4.65	
2025-01-13 10:43:32.15	172.61	4.66	
2025-01-13 10:43:32.35	172.62	4.68	
2025-01-13 10:43:32.56	172.62	4.69	
2025-01-13 10:43:32.76	172.63	4.71	
2025-01-13 10:43:32.97	172.63	4.72	
2025-01-13 10:43:33.17	172.64	4.74	
2025-01-13 10:43:33.39	172.64	4.75	
2025-01-13 10:43:33.60	172.65	4.77	
2025-01-13 10:43:33.80	172.65	4.78	
2025-01-13 10:43:34.01	172.66	4.79	
2025-01-13 10:43:34.21	172.66	4.81	
2025-01-13 10:43:34.41	172.67	4.82	
2025-01-13 10:43:34.62	172.67	4.84	
2025-01-13 10:43:34.83	172.68	4.85	
2025-01-13 10:43:35.03	172.68	4.87	
2025-01-13 10:43:35.24	172.69	4.88	
2025-01-13 10:43:35.44	172.69	4.90	
2025-01-13 10:43:35.65	172.70	4.91	
2025-01-13 10:43:35.85	172.70	4.92	
2025-01-13 10:43:36.06	172.71	4.94	
2025-01-13 10:43:36.26	172.71	4.95	
2025-01-13 10:43:36.47	172.72	4.97	
2025-01-13 10:43:36.67	172.73	4.98	
2025-01-13 10:43:36.88	172.73	5.00	
2025-01-13 10:43:37.08	172.74	5.01	
2025-01-13 10:43:37.28	172.74	5.03	
2025-01-13 10:43:37.49	172.75	5.04	
2025-01-13 10:43:37.70	172.75	5.05	
2025-01-13 10:43:37.91	172.76	5.07	
2025-01-13 10:43:38.11	172.76	5.08	
2025-01-13 10:43:38.32	172.77	5.10	
2025-01-13 10:43:38.52	172.77	5.11	
2025-01-13 10:43:38.73	172.78	5.13	
2025-01-13 10:43:38.93	172.78	5.14	
2025-01-13 10:43:39.13	172.79	5.16	
2025-01-13 10:43:39.34	172.79	5.17	
2025-01-13 10:43:39.54	172.80	5.19	
2025-01-13 10:43:39.75	172.80	5.20	
2025-01-13 10:43:39.95	172.81	5.22	
2025-01-13 10:43:40.16	172.81	5.23	
2025-01-13 10:43:40.36	172.82	5.24	
2025-01-13 10:43:40.57	172.82	5.26	
2025-01-13 10:43:40.77	172.83	5.27	
2025-01-13 10:43:40.98	172.83	5.29	
2025-01-13 10:43:41.18	172.84	5.30	
2025-01-13 10:43:41.39	172.85	5.32	
2025-01-13 10:43:41.59	172.85	5.33	
2025-01-13 10:43:41.79	172.86	5.35	
2025-01-13 10:43:42.00	172.86	5.36	
2025-01-13 10:43:42.21	172.87	5.38	
2025-01-13 10:43:42.41	172.87	5.39	
2025-01-13 10:43:42.62	172.88	5.41	
2025-01-13 10:43:42.82	172.88	5.42	
2025-01-13 10:43:43.03	172.89	5.44	
2025-01-13 10:43:43.23	172.89	5.45	
2025-01-13 10:43:43.44	172.90	5.47	
2025-01-13 10:43:43.64	172.90	5.48	
2025-01-13 10:43:43.85	172.91	5.50	
2025-01-13 10:43:44.05	172.91	5.51	
2025-01-13 10:43:44.26	172.92	5.52	
2025-01-13 10:43:44.46	172.92	5.54	
2025-01-13 10:43:44.67	172.93	5.55	
2025-01-13 10:43:44.89	172.94	5.57	
2025-01-13 10:43:45.09	172.94	5.58	
2025-01-13 10:43:45.30	172.95	5.60	
2025-01-13 10:43:45.50	172.95	5.61	
2025-01-13 10:43:45.71	172.96	5.63	
2025-01-13 10:43:45.91	172.96	5.64	
2025-01-13 10:43:46.12	172.97	5.66	
2025-01-13 10:43:46.32	172.97	5.67	
2025-01-13 10:43:46.53	172.98	5.69	
2025-01-13 10:43:46.73	172.98	5.70	
2025-01-13 10:43:46.94	172.99	5.72	
2025-01-13 10:43:47.14	172.99	5.73	
2025-01-13 10:43:47.34	173.00	5.75	
2025-01-13 10:43:47.55	173.01	5.76	
2025-01-13 10:43:47.76	173.01	5.78	
2025-01-13 10:43:47.96	173.02	5.79	
2025-01-13 10:43:48.17	173.02	5.81	
2025-01-13 10:43:48.37	173.03	5.82	
2025-01-13 10:43:48.58	173.03	5.84	
2025-01-13 10:43:48.78	173.04	5.85	
2025-01-13 10:43:48.99	173.04	5.87	
2025-01-13 10:43:49.20	173.05	5.88	
2025-01-13 10:43:49.40	173.05	5.90	
2025-01-13 10:43:49.61	173.06	5.91	
2025-01-13 10:43:49.81	173.07	5.93	
2025-01-13 10:43:50.02	173.07	5.94	
2025-01-13 10:43:50.22	173.08	5.96	
2025-01-13 10:43:50.42	173.08	5.97	
2025-01-13 10:43:50.63	173.09	5.99	
2025-01-13 10:43:50.84	173.09	6.00	
2025-01-13 10:43:51.04	173.10	6.02	
2025-01-13 10:43:51.25	173.10	6.03	
2025-01-13 10:43:51.46	173.11	6.05	
2025-01-13 10:43:51.66	173.11	6.06	
2025-01-13 10:43:51.87	173.12	6.08	
2025-01-13 10:43:52.07	173.13	6.09	
2025-01-13 10:43:52.28	173.13	6.11	
2025-01-13 10:43:52.48	173.14	6.12	
2025-01-13 10:43:52.68	173.14	6.14	
2025-01-13 10:43:52.89	173.15	6.16	
2025-01-13 10:43:53.09	173.15	6.17	
2025-01-13 10:43:53.30	173.16	6.19	
2025-01-13 10:43:53.51	173.16	6.20	
2025-01-13 10:43:53.71	173.17	6.22	
2025-01-13 10:43:53.92	173.18	6.23	
2025-01-13 10:43:54.12	173.18	6.25	
2025-01-13 10:43:54.33	173.19	6.26	
2025-01-13 10:43:54.53	173.19	6.28	
2025-01-13 10:43:54.74	173.20	6.29	
2025-01-13 10:43:54.94	173.20	6.31	
2025-01-13 10:43:55.15	173.21	6.32	
2025-01-13 10:43:55.35	173.21	6.34	
2025-01-13 10:43:55.56	173.22	6.35	
2025-01-13 10:43:55.76	173.23	6.37	
2025-01-13 10:43:55.97	173.23	6.38	
2025-01-13 10:43:56.19	173.24	6.40	
2025-01-13 10:43:56.39	173.24	6.42	
2025-01-13 10:43:56.59	173.25	6.43	
2025-01-13 10:43:56.80	173.25	6.45	
2025-01-13 10:43:57.00	173.26	6.46	
2025-01-13 10:43:57.21	173.27	6.48	
2025-01-13 10:43:57.41	173.27	6.49	
2025-01-13 10:43:57.62	173.28	6.51	
2025-01-13 10:43:57.83	173.28	6.52	
2025-01-13 10:43:58.04	173.29	6.54	
2025-01-13 10:43:58.25	173.29	6.55	
2025-01-13 10:43:58.45	173.30	6.57	
2025-01-13 10:43:58.66	173.31	6.59	
2025-01-13 10:43:58.87	173.31	6.60	
2025-01-13 10:43:59.07	173.32	6.62	
2025-01-13 10:43:59.27	173.32	6.63	
2025-01-13 10:43:59.48	173.33	6.65	
2025-01-13 10:43:59.69	173.33	6.66	
2025-01-13 10:43:59.89	173.34	6.68	
2025-01-13 10:44:00.09	173.35	6.69	
2025-01-13 10:44:00.30	173.35	6.71	
2025-01-13 10:44:00.51	173.36	6.72	
2025-01-13 10:44:00.71	173.36	6.74	
2025-01-13 10:44:00.91	173.37	6.76	
2025-01-13 10:44:01.13	173.37	6.77	
2025-01-13 10:44:01.34	173.38	6.79	
2025-01-13 10:44:01.54	173.39	6.80	
2025-01-13 10:44:01.75	173.39	6.82	
2025-01-13 10:44:01.96	173.40	6.83	
2025-01-13 10:44:02.16	173.40	6.85	
2025-01-13 10:44:02.36	173.41	6.87	
2025-01-13 10:44:02.57	173.42	6.88	
2025-01-13 10:44:02.77	173.42	6.90	
2025-01-13 10:44:02.98	173.43	6.91	
2025-01-13 10:44:03.18	173.43	6.93	
2025-01-13 10:44:03.39	173.44	6.94	
2025-01-13 10:44:03.59	173.44	6.96	
2025-01-13 10:44:03.80	173.45	6.97	
2025-01-13 10:44:04.00	173.46	6.99	
2025-01-13 10:44:04.21	173.46	7.01	
2025-01-13 10:44:04.41	173.47	7.02	
2025-01-13 10:44:04.62	173.47	7.04	
2025-01-13 10:44:04.83	173.48	7.05	
2025-01-13 10:44:05.03	173.48	7.07	
2025-01-13 10:44:05.24	173.49	7.08	
2025-01-13 10:44:05.44	173.50	7.10	
2025-01-13 10:44:05.65	173.50	7.12	
2025-01-13 10:44:05.85	173.51	7.13	
2025-01-13 10:44:06.06	173.51	7.15	
2025-01-13 10:44:06.27	173.52	7.16	
2025-01-13 10:44:06.47	173.53	7.18	
2025-01-13 10:44:06.68	173.53	7.20	
2025-01-13 10:44:06.88	173.54	7.21	
2025-01-13 10:44:07.09	173.54	7.23	
2025-01-13 10:44:07.29	173.55	7.24	
2025-01-13 10:44:07.50	173.56	7.26	
2025-01-13 10:44:07.70	173.56	7.27	
2025-01-13 10:44:07.91	173.57	7.29	
2025-01-13 10:44:08.11	173.57	7.31	
2025-01-13 10:44:08.32	173.58	7.32	
2025-01-13 10:44:08.52	173.59	7.34	
2025-01-13 10:44:08.73	173.59	7.35	
2025-01-13 10:44:08.93	173.60	7.37	
2025-01-13 10:44:09.14	173.60	7.39	
2025-01-13 10:44:09.34	173.61	7.40	
2025-01-13 10:44:09.55	173.62	7.42	
2025-01-13 10:44:09.76	173.62	7.43	
2025-01-13 10:44:09.97	173.63	7.45	
2025-01-13 10:44:10.17	173.63	7.47	
2025-01-13 10:44:10.38	173.64	7.48	
2025-01-13 10:44:10.58	173.65	7.50	
2025-01-13 10:44:10.79	173.65	7.51	
2025-01-13 10:44:10.99	173.66	7.53	
2025-01-13 10:44:11.20	173.66	7.55	
2025-01-13 10:44:11.40	173.67	7.56	
2025-01-13 10:44:11.61	173.68	7.58	
2025-01-13 10:44:11.81	173.68	7.59	
2025-01-13 10:44:12.02	173.69	7.61	
2025-01-13 10:44:12.22	173.69	7.63	
2025-01-13 10:44:12.43	173.70	7.64	
2025-01-13 10:44:12.63	173.71	7.66	
2025-01-13 10:44:12.83	173.71	7.67	
2025-01-13 10:44:13.04	173.72	7.69	
2025-01-13 10:44:13.24	173.72	7.71	
2025-01-13 10:44:13.45	173.73	7.72	
2025-01-13 10:44:13.66	173.74	7.74	
2025-01-13 10:44:13.86	173.74	7.75	
2025-01-13 10:44:14.06	173.75	7.77	
2025-01-13 10:44:14.27	173.75	7.79	
2025-01-13 10:44:14.47	173.76	7.80	
2025-01-13 10:44:14.68	173.77	7.82	
2025-01-13 10:44:14.89	173.77	7.83	
2025-01-13 10:44:15.09	173.78	7.85	
2025-01-13 10:44:15.30	173.79	7.87	
2025-01-13 10:44:15.50	173.79	7.88	
2025-01-13 10:44:15.71	173.80	7.90	
2025-01-13 10:44:15.91	173.80	7.92	
2025-01-13 10:44:16.13	173.81	7.93	
2025-01-13 10:44:16.34	173.82	7.95	
2025-01-13 10:44:16.54	173.82	7.97	
2025-01-13 10:44:16.75	173.83	7.98	
2025-01-13 10:44:16.95	173.84	8.00	
2025-01-13 10:44:17.16	173.84	8.01	
2025-01-13 10:44:17.36	173.85	8.03	
2025-01-13 10:44:17.57	173.85	8.05	
2025-01-13 10:44:17.77	173.86	8.06	
2025-01-13 10:44:17.98	173.87	8.08	
2025-01-13 10:44:18.18	173.87	8.10	
2025-01-13 10:44:18.39	173.88	8.11	
2025-01-13 10:44:18.59	173.88	8.13	
2025-01-13 10:44:18.80	173.89	8.15	
2025-01-13 10:44:19.01	173.90	8.16	
2025-01-13 10:44:19.21	173.90	8.18	
2025-01-13 10:44:19.41	173.91	8.19	
2025-01-13 10:44:19.62	173.92	8.21	
2025-01-13 10:44:19.82	173.92	8.23	
2025-01-13 10:44:20.03	173.93	8.24	
2025-01-13 10:44:20.24	173.94	8.26	
2025-01-13 10:44:20.45	173.94	8.28	
2025-01-13 10:44:20.66	173.95	8.29	
2025-01-13 10:44:20.86	173.95	8.31	
2025-01-13 10:44:21.07	173.96	8.33	
2025-01-13 10:44:21.28	173.97	8.34	
2025-01-13 10:44:21.48	173.97	8.36	
2025-01-13 10:44:21.69	173.98	8.38	
2025-01-13 10:44:21.89	173.99	8.39	
2025-01-13 10:44:22.10	173.99	8.41	
2025-01-13 10:44:22.30	174.00	8.43	
2025-01-13 10:44:22.50	174.01	8.44	
2025-01-13 10:44:22.71	174.01	8.46	
2025-01-13 10:44:22.91	174.02	8.48	
2025-01-13 10:44:23.12	174.02	8.49	
2025-01-13 10:44:23.33	174.03	8.51	
2025-01-13 10:44:23.53	174.04	8.53	
2025-01-13 10:44:23.73	174.04	8.54	
2025-01-13 10:44:23.94	174.05	8.56	
2025-01-13 10:44:24.15	174.06	8.58	
2025-01-13 10:44:24.35	174.06	8.59	
2025-01-13 10:44:24.56	174.07	8.61	
2025-01-13 10:44:24.76	174.08	8.63	
2025-01-13 10:44:24.97	174.08	8.64	
2025-01-13 10:44:25.17	174.09	8.66	
2025-01-13 10:44:25.38	174.10	8.68	
2025-01-13 10:44:25.59	174.10	8.69	
2025-01-13 10:44:25.79	174.11	8.71	
2025-01-13 10:44:25.99	174.11	8.73	
2025-01-13 10:44:26.20	174.12	8.74	
2025-01-13 10:44:26.41	174.13	8.76	
2025-01-13 10:44:26.61	174.13	8.78	
2025-01-13 10:44:26.82	174.14	8.79	
2025-01-13 10:44:27.02	174.15	8.81	
2025-01-13 10:44:27.23	174.15	8.83	
2025-01-13 10:44:27.43	174.16	8.84	
2025-01-13 10:44:27.64	174.17	8.86	
2025-01-13 10:44:27.84	174.17	8.88	
2025-01-13 10:44:28.05	174.18	8.89	
2025-01-13 10:44:28.25	174.19	8.91	
2025-01-13 10:44:28.46	174.19	8.93	
2025-01-13 10:44:28.66	174.20	8.94	
2025-01-13 10:44:28.87	174.21	8.96	
2025-01-13 10:44:29.07	174.21	8.98	
2025-01-13 10:44:29.28	174.22	9.00	
2025-01-13 10:44:29.49	174.23	9.01	
2025-01-13 10:44:29.69	174.23	9.03	
2025-01-13 10:44:29.90	174.24	9.05	
2025-01-13 10:44:30.11	174.25	9.06	
2025-01-13 10:44:30.32	174.25	9.08	
2025-01-13 10:44:30.52	174.26	9.10	
2025-01-13 10:44:30.73	174.27	9.12	
2025-01-13 10:44:30.94	174.27	9.13	
2025-01-13 10:44:31.14	174.28	9.15	
2025-01-13 10:44:31.34	174.29	9.17	
2025-01-13 10:44:31.55	174.29	9.18	
2025-01-13 10:44:31.76	174.30	9.20	
2025-01-13 10:44:31.96	174.31	9.22	
2025-01-13 10:44:32.17	174.31	9.24	
2025-01-13 10:44:32.37	174.32	9.25	
2025-01-13 10:44:32.58	174.33	9.27	
2025-01-13 10:44:32.78	174.33	9.29	
2025-01-13 10:44:32.99	174.34	9.30	
2025-01-13 10:44:33.19	174.35	9.32	
2025-01-13 10:44:33.40	174.35	9.34	
2025-01-13 10:44:33.61	174.36	9.36	
2025-01-13 10:44:33.81	174.37	9.37	
2025-01-13 10:44:34.02	174.37	9.39	
2025-01-13 10:44:34.22	174.38	9.41	
2025-01-13 10:44:34.43	174.39	9.42	
2025-01-13 10:44:34.63	174.39	9.44	
2025-01-13 10:44:34.84	174.40	9.46	
2025-01-13 10:44:35.05	174.41	9.48	
2025-01-13 10:44:35.25	174.41	9.49	
2025-01-13 10:44:35.46	174.42	9.51	
2025-01-13 10:44:35.66	174.43	9.53	
2025-01-13 10:44:35.87	174.44	9.55	
2025-01-13 10:44:36.07	174.44	9.56	
2025-01-13 10:44:36.27	174.45	9.58	
2025-01-13 10:44:36.48	174.46	9.60	
2025-01-13 10:44:36.68	174.46	9.61	
2025-01-13 10:44:36.89	174.47	9.63	
2025-01-13 10:44:37.09	174.48	9.65	
2025-01-13 10:44:37.30	174.48	9.67	
2025-01-13 10:44:37.50	174.49	9.68	
2025-01-13 10:44:37.71	174.50	9.70	
2025-01-13 10:44:37.92	174.50	9.72	
2025-01-13 10:44:38.12	174.51	9.74	
2025-01-13 10:44:38.33	174.52	9.75	
2025-01-13 10:44:38.53	174.52	9.77	
2025-01-13 10:44:38.74	174.53	9.79	
2025-01-13 10:44:38.94	174.54	9.81	
2025-01-13 10:44:39.15	174.55	9.82	
2025-01-13 10:44:39.36	174.55	9.84	
2025-01-13 10:44:39.56	174.56	9.86	
2025-01-13 10:44:39.77	174.57	9.88	
2025-01-13 10:44:39.97	174.57	9.89	
2025-01-13 10:44:40.18	174.58	9.91	
2025-01-13 10:44:40.38	174.59	9.93	
2025-01-13 10:44:40.59	174.59	9.95	
2025-01-13 10:44:40.79	174.60	9.96	
2025-01-13 10:44:41.00	174.61	9.98	
2025-01-13 10:44:41.20	174.62	10.00	
2025-01-13 10:44:41.41	174.62	10.02	
2025-01-13 10:44:41.61	174.63	10.03	
2025-01-13 10:44:41.82	174.64	10.05	
2025-01-13 10:44:42.02	174.64	10.07	
2025-01-13 10:44:42.23	174.65	10.09	
2025-01-13 10:44:42.44	174.66	10.11	
2025-01-13 10:44:42.64	174.66	10.12	
2025-01-13 10:44:42.84	174.67	10.14	
2025-01-13 10:44:43.05	174.68	10.16	
2025-01-13 10:44:43.26	174.69	10.18	
2025-01-13 10:44:43.46	174.69	10.19	
2025-01-13 10:44:43.67	174.70	10.21	
2025-01-13 10:44:43.87	174.71	10.23	
2025-01-13 10:44:44.07	174.71	10.25	
2025-01-13 10:44:44.28	174.72	10.26	
2025-01-13 10:44:44.48	174.73	10.28	
2025-01-13 10:44:44.69	174.74	10.30	
2025-01-13 10:44:44.89	174.74	10.32	
2025-01-13 10:44:45.10	174.75	10.34	
2025-01-13 10:44:45.30	174.76	10.35	
2025-01-13 10:44:45.51	174.76	10.37	
2025-01-13 10:44:45.71	174.77	10.39	
2025-01-13 10:44:45.92	174.78	10.41	
2025-01-13 10:44:46.12	174.79	10.42	
2025-01-13 10:44:46.33	174.79	10.44	
2025-01-13 10:44:46.53	174.80	10.46	
2025-01-13 10:44:46.74	174.81	10.48	
2025-01-13 10:44:46.94	174.81	10.50	
2025-01-13 10:44:47.14	174.82	10.51	
2025-01-13 10:44:47.35	174.83	10.53	
2025-01-13 10:44:47.56	174.84	10.55	
2025-01-13 10:44:47.76	174.84	10.57	
2025-01-13 10:44:47.97	174.85	10.59	
2025-01-13 10:44:48.17	174.86	10.60	
2025-01-13 10:44:48.38	174.87	10.62	
2025-01-13 10:44:48.58	174.87	10.64	
2025-01-13 10:44:48.79	174.88	10.66	
2025-01-13 10:44:48.99	174.89	10.68	
2025-01-13 10:44:49.20	174.89	10.69	
2025-01-13 10:44:49.41	174.90	10.71	
2025-01-13 10:44:49.61	174.91	10.73	
2025-01-13 10:44:49.82	174.92	10.75	
2025-01-13 10:44:50.02	174.92	10.77	
2025-01-13 10:44:50.22	174.93	10.78	
2025-01-13 10:44:50.43	174.94	10.80	
2025-01-13 10:44:50.64	174.95	10.82	
2025-01-13 10:44:50.84	174.95	10.84	
2025-01-13 10:44:51.05	174.96	10.86	
2025-01-13 10:44:51.25	174.97	10.88	
2025-01-13 10:44:51.46	174.98	10.89	
2025-01-13 10:44:51.66	174.98	10.91	
2025-01-13 10:44:51.87	174.99	10.93	
2025-01-13 10:44:52.07	175.00	10.95	
2025-01-13 10:44:52.28	175.01	10.97	
2025-01-13 10:44:52.48	175.01	10.99	
2025-01-13 10:44:52.69	175.02	11.00	
2025-01-13 10:44:52.89	175.03	11.02	
2025-01-13 10:44:53.10	175.04	11.04	
2025-01-13 10:44:53.30	175.04	11.06	
2025-01-13 10:44:53.51	175.05	11.08	
2025-01-13 10:44:53.71	175.06	11.10	
2025-01-13 10:44:53.92	175.07	11.11	
2025-01-13 10:44:54.12	175.07	11.13	
2025-01-13 10:44:54.33	175.08	11.15	
2025-01-13 10:44:54.53	175.09	11.17	
2025-01-13 10:44:54.74	175.10	11.19	
2025-01-13 10:44:54.94	175.10	11.21	
2025-01-13 10:44:55.15	175.11	11.22	
2025-01-13 10:44:55.35	175.12	11.24	
2025-01-13 10:44:55.56	175.13	11.26	
2025-01-13 10:44:55.76	175.13	11.28	
2025-01-13 10:44:55.97	175.14	11.30	
2025-01-13 10:44:56.17	175.15	11.32	
2025-01-13 10:44:56.38	175.16	11.34	
2025-01-13 10:44:56.58	175.16	11.35	
2025-01-13 10:44:56.79	175.17	11.37	
2025-01-13 10:44:56.99	175.18	11.39	
2025-01-13 10:44:57.20	175.19	11.41	
2025-01-13 10:44:57.40	175.19	11.43	
2025-01-13 10:44:57.61	175.20	11.45	
2025-01-13 10:44:57.81	175.21	11.47	
2025-01-13 10:44:58.02	175.22	11.48	
2025-01-13 10:44:58.22	175.23	11.50	
2025-01-13 10:44:58.43	175.23	11.52	
2025-01-13 10:44:58.63	175.24	11.54	
2025-01-13 10:44:58.84	175.25	11.56	
2025-01-13 10:44:59.04	175.26	11.58	
2025-01-13 10:44:59.25	175.26	11.60	
2025-01-13 10:44:59.46	175.27	11.62	
2025-01-13 10:44:59.66	175.28	11.63	
2025-01-13 10:44:59.87	175.29	11.65	
2025-01-13 10:45:00.07	175.30	11.67	
2025-01-13 10:45:00.27	175.30	11.69	
2025-01-13 10:45:00.48	175.31	11.71	
2025-01-13 10:45:00.69	175.32	11.73	
2025-01-13 10:45:00.89	175.33	11.75	
2025-01-13 10:45:01.10	175.33	11.77	
2025-01-13 10:45:01.30	175.34	11.79	
2025-01-13 10:45:01.51	175.35	11.80	
2025-01-13 10:45:01.71	175.36	11.82	
2025-01-13 10:45:01.92	175.37	11.84	
2025-01-13 10:45:02.12	175.37	11.86	
2025-01-13 10:45:02.33	175.38	11.88	
2025-01-13 10:45:02.53	175.39	11.90	
2025-01-13 10:45:02.74	175.40	11.92	
2025-01-13 10:45:02.94	175.41	11.94	
2025-01-13 10:45:03.15	175.41	11.96	
2025-01-13 10:45:03.35	175.42	11.97	
2025-01-13 10:45:03.56	175.43	11.99	
2025-01-13 10:45:03.76	175.44	12.01	
2025-01-13 10:45:03.97	175.45	12.03	
2025-01-13 10:45:04.17	175.45	12.05	
2025-01-13 10:45:04.38	175.46	12.07	
2025-01-13 10:45:04.58	175.47	12.09	
2025-01-13 10:45:04.79	175.48	12.11	
2025-01-13 10:45:04.99	175.48	12.13	
2025-01-13 10:45:05.19	175.49	12.15	
2025-01-13 10:45:05.40	175.50	12.17	
2025-01-13 10:45:05.60	175.51	12.18	
2025-01-13 10:45:05.81	175.52	12.20	
2025-01-13 10:45:06.02	175.53	12.22	
2025-01-13 10:45:06.22	175.53	12.24	
2025-01-13 10:45:06.43	175.54	12.26	
2025-01-13 10:45:06.63	175.55	12.28	
2025-01-13 10:45:06.84	175.56	12.30	
2025-01-13 10:45:07.04	175.57	12.32	
2025-01-13 10:45:07.24	175.57	12.34	
2025-01-13 10:45:07.45	175.58	12.36	
2025-01-13 10:45:07.66	175.59	12.38	
2025-01-13 10:45:07.86	175.60	12.40	
2025-01-13 10:45:08.07	175.61	12.42	
2025-01-13 10:45:08.27	175.61	12.44	
2025-01-13 10:45:08.49	175.62	12.46	
2025-01-13 10:45:08.69	175.63	12.48	
2025-01-13 10:45:08.89	175.64	12.49	
2025-01-13 10:45:09.10	175.65	12.51	
2025-01-13 10:45:09.30	175.66	12.53	
2025-01-13 10:45:09.50	175.66	12.55	
2025-01-13 10:45:09.71	175.67	12.57	
2025-01-13 10:45:09.92	175.68	12.59	
2025-01-13 10:45:10.12	175.69	12.61	
2025-01-13 10:45:10.33	175.70	12.63	
2025-01-13 10:45:10.53	175.71	12.65	
2025-01-13 10:45:10.75	175.71	12.67	
2025-01-13 10:45:10.95	175.72	12.69	
2025-01-13 10:45:11.16	175.73	12.71	
2025-01-13 10:45:11.36	175.74	12.73	
2025-01-13 10:45:11.57	175.75	12.75	
2025-01-13 10:45:11.77	175.76	12.77	
2025-01-13 10:45:11.98	175.76	12.79	
2025-01-13 10:45:12.18	175.77	12.81	
2025-01-13 10:45:12.39	175.78	12.83	
2025-01-13 10:45:12.59	175.79	12.85	
2025-01-13 10:45:12.80	175.80	12.87	
2025-01-13 10:45:13.00	175.81	12.89	
2025-01-13 10:45:13.21	175.81	12.91	
2025-01-13 10:45:13.42	175.82	12.93	
2025-01-13 10:45:13.62	175.83	12.95	
2025-01-13 10:45:13.83	175.84	12.97	
2025-01-13 10:45:14.03	175.85	12.99	
2025-01-13 10:45:14.24	175.86	13.01	
2025-01-13 10:45:14.44	175.86	13.03	
2025-01-13 10:45:14.65	175.87	13.05	
2025-01-13 10:45:14.85	175.88	13.07	
2025-01-13 10:45:15.06	175.89	13.09	
2025-01-13 10:45:15.26	175.90	13.11	
2025-01-13 10:45:15.47	175.91	13.13	
2025-01-13 10:45:15.67	175.92	13.15	
2025-01-13 10:45:15.88	175.92	13.17	
2025-01-13 10:45:16.08	175.93	13.19	
2025-01-13 10:45:16.29	175.94	13.21	
2025-01-13 10:45:16.49	175.95	13.23	
2025-01-13 10:45:16.70	175.96	13.25	
2025-01-13 10:45:16.90	175.97	13.27	
2025-01-13 10:45:17.11	175.98	13.29	
2025-01-13 10:45:17.31	175.98	13.31	
2025-01-13 10:45:17.52	175.99	13.33	
2025-01-13 10:45:17.73	176.00	13.35	
2025-01-13 10:45:17.93	176.01	13.37	
2025-01-13 10:45:18.14	176.02	13.39	
2025-01-13 10:45:18.34	176.03	13.41	
2025-01-13 10:45:18.55	176.04	13.43	
2025-01-13 10:45:18.75	176.05	13.45	
2025-01-13 10:45:18.96	176.05	13.47	
2025-01-13 10:45:19.16	176.06	13.49	
2025-01-13 10:45:19.37	176.07	13.51	
2025-01-13 10:45:19.57	176.08	13.53	
2025-01-13 10:45:19.78	176.09	13.55	
2025-01-13 10:45:19.98	176.10	13.57	
2025-01-13 10:45:20.19	176.11	13.59	
2025-01-13 10:45:20.39	176.12	13.61	
2025-01-13 10:45:20.60	176.12	13.63	
2025-01-13 10:45:20.80	176.13	13.65	
2025-01-13 10:45:21.00	176.14	13.67	
2025-01-13 10:45:21.22	176.15	13.69	
2025-01-13 10:45:21.43	176.16	13.71	
2025-01-13 10:45:21.63	176.17	13.73	
2025-01-13 10:45:21.84	176.18	13.75	
2025-01-13 10:45:22.04	176.19	13.77	
2025-01-13 10:45:22.25	176.20	13.79	
2025-01-13 10:45:22.45	176.20	13.81	
2025-01-13 10:45:22.66	176.21	13.83	
2025-01-13 10:45:22.86	176.22	13.85	
2025-01-13 10:45:23.07	176.23	13.88	
2025-01-13 10:45:23.27	176.24	13.90	
2025-01-13 10:45:23.48	176.25	13.92	
2025-01-13 10:45:23.68	176.26	13.94	
2025-01-13 10:45:23.89	176.27	13.96	
2025-01-13 10:45:24.09	176.28	13.98	
2025-01-13 10:45:24.30	176.28	14.00	
2025-01-13 10:45:24.50	176.29	14.02	
2025-01-13 10:45:24.71	176.30	14.04	
2025-01-13 10:45:24.91	176.31	14.06	
2025-01-13 10:45:25.11	176.32	14.08	
2025-01-13 10:45:25.32	176.33	14.10	
2025-01-13 10:45:25.52	176.34	14.12	
2025-01-13 10:45:25.73	176.35	14.14	
2025-01-13 10:45:25.93	176.36	14.16	
2025-01-13 10:45:26.14	176.37	14.18	
2025-01-13 10:45:26.34	176.37	14.21	
2025-01-13 10:45:26.55	176.38	14.23	
2025-01-13 10:45:26.75	176.39	14.25	
2025-01-13 10:45:26.96	176.40	14.27	
2025-01-13 10:45:27.16	176.41	14.29	
2025-01-13 10:45:27.37	176.42	14.31	
2025-01-13 10:45:27.57	176.43	14.33	
2025-01-13 10:45:27.78	176.44	14.35	
2025-01-13 10:45:27.98	176.45	14.37	
2025-01-13 10:45:28.19	176.46	14.39	
2025-01-13 10:45:28.39	176.47	14.41	
2025-01-13 10:45:28.60	176.48	14.44	
2025-01-13 10:45:28.80	176.49	14.46	
2025-01-13 10:45:29.01	176.49	14.48	
2025-01-13 10:45:29.21	176.50	14.50	
2025-01-13 10:45:29.42	176.51	14.52	
2025-01-13 10:45:29.62	176.52	14.54	
2025-01-13 10:45:29.83	176.53	14.56	
2025-01-13 10:45:30.04	176.54	14.58	
2025-01-13 10:45:30.24	176.55	14.60	
2025-01-13 10:45:30.45	176.56	14.63	
2025-01-13 10:45:30.65	176.57	14.65	
2025-01-13 10:45:30.86	176.58	14.67	
2025-01-13 10:45:31.06	176.59	14.69	
2025-01-13 10:45:31.27	176.60	14.71	
2025-01-13 10:45:31.48	176.61	14.73	
2025-01-13 10:45:31.68	176.62	14.75	
2025-01-13 10:45:31.89	176.63	14.77	
2025-01-13 10:45:32.09	176.64	14.80	
2025-01-13 10:45:32.30	176.65	14.82	
2025-01-13 10:45:32.50	176.65	14.84	
2025-01-13 10:45:32.71	176.66	14.86	
2025-01-13 10:45:32.91	176.67	14.88	
2025-01-13 10:45:33.12	176.68	14.90	
2025-01-13 10:45:33.32	176.69	14.92	
2025-01-13 10:45:33.53	176.70	14.95	
2025-01-13 10:45:33.74	176.71	14.97	
2025-01-13 10:45:33.94	176.72	14.99	
2025-01-13 10:45:34.15	176.73	15.01	
2025-01-13 10:45:34.35	176.74	15.03	
2025-01-13 10:45:34.56	176.75	15.05	
2025-01-13 10:45:34.76	176.76	15.07	
2025-01-13 10:45:34.98	176.77	15.10	
2025-01-13 10:45:35.19	176.78	15.12	
2025-01-13 10:45:35.39	176.79	15.14	
2025-01-13 10:45:35.60	176.80	15.16	
2025-01-13 10:45:35.80	176.81	15.18	
2025-01-13 10:45:36.01	176.82	15.21	
2025-01-13 10:45:36.21	176.83	15.23	
2025-01-13 10:45:36.41	176.84	15.25	
2025-01-13 10:45:36.62	176.85	15.27	
2025-01-13 10:45:36.82	176.86	15.29	
2025-01-13 10:45:37.03	176.87	15.31	
2025-01-13 10:45:37.23	176.88	15.34	
2025-01-13 10:45:37.44	176.89	15.36	
2025-01-13 10:45:37.65	176.90	15.38	
2025-01-13 10:45:37.85	176.91	15.40	
2025-01-13 10:45:38.06	176.92	15.42	
2025-01-13 10:45:38.26	176.93	15.44	
2025-01-13 10:45:38.46	176.94	15.47	
2025-01-13 10:45:38.67	176.95	15.49	
2025-01-13 10:45:38.87	176.96	15.51	
2025-01-13 10:45:39.08	176.97	15.53	
2025-01-13 10:45:39.28	176.98	15.55	
2025-01-13 10:45:39.49	176.99	15.58	
2025-01-13 10:45:39.69	177.00	15.60	
2025-01-13 10:45:39.90	177.01	15.62	
2025-01-13 10:45:40.10	177.01	15.64	
2025-01-13 10:45:40.31	177.03	15.66	
2025-01-13 10:45:40.51	177.03	15.69	
2025-01-13 10:45:40.71	177.04	15.71	
2025-01-13 10:45:40.92	177.05	15.73	
2025-01-13 10:45:41.12	177.06	15.75	
2025-01-13 10:45:41.33	177.08	15.77	
2025-01-13 10:45:41.53	177.08	15.80	
2025-01-13 10:45:41.74	177.10	15.82	
2025-01-13 10:45:41.94	177.10	15.84	
2025-01-13 10:45:42.15	177.12	15.86	
2025-01-13 10:45:42.36	177.13	15.89	
2025-01-13 10:45:42.57	177.14	15.91	
2025-01-13 10:45:42.78	177.15	15.93	
2025-01-13 10:45:42.98	177.16	15.95	
2025-01-13 10:45:43.19	177.17	15.98	
2025-01-13 10:45:43.40	177.18	16.00	
2025-01-13 10:45:43.60	177.19	16.02	
2025-01-13 10:45:43.81	177.20	16.04	
2025-01-13 10:45:44.01	177.21	16.06	
2025-01-13 10:45:44.22	177.22	16.09	
2025-01-13 10:45:44.42	177.23	16.11	
2025-01-13 10:45:44.63	177.24	16.13	
2025-01-13 10:45:44.83	177.25	16.15	
2025-01-13 10:45:45.04	177.26	16.18	
2025-01-13 10:45:45.24	177.27	16.20	
2025-01-13 10:45:45.45	177.28	16.22	
2025-01-13 10:45:45.65	177.29	16.24	
2025-01-13 10:45:45.86	177.30	16.27	
2025-01-13 10:45:46.06	177.31	16.29	
2025-01-13 10:45:46.27	177.32	16.31	
2025-01-13 10:45:46.47	177.33	16.34	
2025-01-13 10:45:46.68	177.34	16.36	
2025-01-13 10:45:46.90	177.35	16.38	
2025-01-13 10:45:47.10	177.36	16.40	
2025-01-13 10:45:47.31	177.37	16.43	
2025-01-13 10:45:47.51	177.38	16.45	
2025-01-13 10:45:47.72	177.40	16.47	
2025-01-13 10:45:47.92	177.41	16.50	
2025-01-13 10:45:48.13	177.42	16.52	
2025-01-13 10:45:48.33	177.43	16.54	
2025-01-13 10:45:48.54	177.44	16.56	
2025-01-13 10:45:48.74	177.45	16.59	
2025-01-13 10:45:48.95	177.46	16.61	
2025-01-13 10:45:49.15	177.47	16.63	
2025-01-13 10:45:49.36	177.48	16.66	
2025-01-13 10:45:49.56	177.49	16.68	
2025-01-13 10:45:49.77	177.50	16.70	
2025-01-13 10:45:49.97	177.51	16.72	
2025-01-13 10:45:50.17	177.52	16.75	
2025-01-13 10:45:50.38	177.53	16.77	
2025-01-13 10:45:50.59	177.54	16.79	
2025-01-13 10:45:50.79	177.55	16.82	
2025-01-13 10:45:50.99	177.56	16.84	
2025-01-13 10:45:51.20	177.58	16.86	
2025-01-13 10:45:51.41	177.59	16.89	
2025-01-13 10:45:51.61	177.60	16.91	
2025-01-13 10:45:51.82	177.61	16.93	
2025-01-13 10:45:52.02	177.62	16.96	
2025-01-13 10:45:52.23	177.63	16.98	
2025-01-13 10:45:52.43	177.64	17.00	
2025-01-13 10:45:52.64	177.65	17.03	
2025-01-13 10:45:52.84	177.66	17.05	
2025-01-13 10:45:53.05	177.67	17.07	
2025-01-13 10:45:53.26	177.68	17.10	
2025-01-13 10:45:53.47	177.70	17.12	
2025-01-13 10:45:53.67	177.71	17.14	
2025-01-13 10:45:53.88	177.72	17.17	
2025-01-13 10:45:54.09	177.73	17.19	
2025-01-13 10:45:54.29	177.74	17.21	
2025-01-13 10:45:54.50	177.75	17.24	
2025-01-13 10:45:54.70	177.76	17.26	
2025-01-13 10:45:54.91	177.77	17.28	
2025-01-13 10:45:55.11	177.78	17.31	
2025-01-13 10:45:55.32	177.80	17.33	
2025-01-13 10:45:55.52	177.81	17.35	
2025-01-13 10:45:55.73	177.82	17.38	
2025-01-13 10:45:55.93	177.83	17.40	
2025-01-13 10:45:56.14	177.84	17.43	
2025-01-13 10:45:56.34	177.85	17.45	
2025-01-13 10:45:56.55	177.86	17.47	
2025-01-13 10:45:56.75	177.87	17.50	
2025-01-13 10:45:56.96	177.88	17.52	
2025-01-13 10:45:57.16	177.90	17.54	
2025-01-13 10:45:57.37	177.91	17.57	
2025-01-13 10:45:57.57	177.92	17.59	
2025-01-13 10:45:57.78	177.93	17.62	
2025-01-13 10:45:57.99	177.94	17.64	
2025-01-13 10:45:58.19	177.95	17.66	
2025-01-13 10:45:58.40	177.96	17.69	
2025-01-13 10:45:58.60	177.97	17.71	
2025-01-13 10:45:58.81	177.99	17.74	
2025-01-13 10:45:59.02	178.00	17.76	
2025-01-13 10:45:59.22	178.01	17.78	
2025-01-13 10:45:59.43	178.02	17.81	
2025-01-13 10:45:59.64	178.03	17.83	
2025-01-13 10:45:59.85	178.04	17.86	
2025-01-13 10:46:00.05	178.05	17.88	
2025-01-13 10:46:00.26	178.07	17.91	
2025-01-13 10:46:00.46	178.08	17.93	
2025-01-13 10:46:00.66	178.09	17.95	
2025-01-13 10:46:00.87	178.10	17.98	
2025-01-13 10:46:01.08	178.11	18.00	
2025-01-13 10:46:01.28	178.12	18.03	
2025-01-13 10:46:01.49	178.14	18.05	
2025-01-13 10:46:01.69	178.15	18.07	
2025-01-13 10:46:01.90	178.16	18.10	
2025-01-13 10:46:02.10	178.17	18.12	
2025-01-13 10:46:02.31	178.18	18.15	
2025-01-13 10:46:02.51	178.19	18.17	
2025-01-13 10:46:02.72	178.21	18.20	
2025-01-13 10:46:02.94	178.22	18.22	
2025-01-13 10:46:03.14	178.23	18.25	
2025-01-13 10:46:03.35	178.24	18.27	
2025-01-13 10:46:03.55	178.25	18.29	
2025-01-13 10:46:03.76	178.27	18.32	
2025-01-13 10:46:03.96	178.28	18.34	
2025-01-13 10:46:04.17	178.29	18.37	
2025-01-13 10:46:04.37	178.30	18.39	
2025-01-13 10:46:04.58	178.31	18.42	
2025-01-13 10:46:04.78	178.32	18.44	
2025-01-13 10:46:04.99	178.34	18.47	
2025-01-13 10:46:05.19	178.35	18.49	
2025-01-13 10:46:05.40	178.36	18.52	
2025-01-13 10:46:05.61	178.37	18.54	
2025-01-13 10:46:05.81	178.38	18.57	
2025-01-13 10:46:06.01	178.40	18.59	
2025-01-13 10:46:06.22	178.41	18.61	
2025-01-13 10:46:06.43	178.42	18.64	
2025-01-13 10:46:06.63	178.43	18.66	
2025-01-13 10:46:06.84	178.44	18.69	
2025-01-13 10:46:07.04	178.46	18.71	
2025-01-13 10:46:07.25	178.47	18.74	
2025-01-13 10:46:07.45	178.48	18.76	
2025-01-13 10:46:07.66	178.49	18.79	
2025-01-13 10:46:07.86	178.50	18.81	
2025-01-13 10:46:08.07	178.52	18.84	
2025-01-13 10:46:08.29	178.53	18.87	
2025-01-13 10:46:08.50	178.54	18.89	
2025-01-13 10:46:08.70	178.55	18.92	
2025-01-13 10:46:08.91	178.57	18.94	
2025-01-13 10:46:09.11	178.58	18.97	
2025-01-13 10:46:09.33	178.59	18.99	
2025-01-13 10:46:09.54	178.60	19.02	
2025-01-13 10:46:09.74	178.62	19.04	
2025-01-13 10:46:09.95	178.63	19.07	
2025-01-13 10:46:10.15	178.64	19.09	
2025-01-13 10:46:10.36	178.65	19.12	
2025-01-13 10:46:10.56	178.67	19.14	
2025-01-13 10:46:10.77	178.68	19.17	
2025-01-13 10:46:10.98	178.69	19.20	
2025-01-13 10:46:11.18	178.70	19.22	
2025-01-13 10:46:11.38	178.72	19.25	
2025-01-13 10:46:11.59	178.73	19.27	
2025-01-13 10:46:11.80	178.74	19.30	
2025-01-13 10:46:12.00	178.75	19.32	
2025-01-13 10:46:12.21	178.77	19.35	
2025-01-13 10:46:12.41	178.78	19.37	
2025-01-13 10:46:12.61	178.79	19.40	
2025-01-13 10:46:12.82	178.80	19.42	
2025-01-13 10:46:13.03	178.82	19.45	
2025-01-13 10:46:13.23	178.83	19.47	
2025-01-13 10:46:13.44	178.84	19.50	
2025-01-13 10:46:13.65	178.85	19.53	
2025-01-13 10:46:13.86	178.87	19.55	
2025-01-13 10:46:14.06	178.88	19.58	
2025-01-13 10:46:14.27	178.89	19.60	
2025-01-13 10:46:14.47	178.91	19.63	
2025-01-13 10:46:14.68	178.92	19.66	
2025-01-13 10:46:14.88	178.93	19.68	
2025-01-13 10:46:15.09	178.94	19.71	
2025-01-13 10:46:15.29	178.96	19.73	
2025-01-13 10:46:15.50	178.97	19.76	
2025-01-13 10:46:15.70	178.98	19.78	
2025-01-13 10:46:15.91	179.00	19.81	
2025-01-13 10:46:16.12	179.01	19.84	
2025-01-13 10:46:16.32	179.02	19.86	
2025-01-13 10:46:16.53	179.03	19.89	
2025-01-13 10:46:16.73	179.05	19.92	
2025-01-13 10:46:16.93	179.06	19.94	
2025-01-13 10:46:17.14	179.07	19.97	
2025-01-13 10:46:17.35	179.09	19.99	
2025-01-13 10:46:17.55	179.10	20.02	
2025-01-13 10:46:17.76	179.11	20.05	
2025-01-13 10:46:17.96	179.13	20.07	
2025-01-13 10:46:18.17	179.14	20.10	
2025-01-13 10:46:18.37	179.15	20.12	
2025-01-13 10:46:18.58	179.17	20.15	
2025-01-13 10:46:18.79	179.18	20.18	
2025-01-13 10:46:19.00	179.19	20.20	
2025-01-13 10:46:19.21	179.21	20.23	
2025-01-13 10:46:19.41	179.22	20.26	
2025-01-13 10:46:19.62	179.23	20.28	
2025-01-13 10:46:19.82	179.25	20.31	
2025-01-13 10:46:20.03	179.26	20.34	
2025-01-13 10:46:20.23	179.27	20.36	
2025-01-13 10:46:20.44	179.29	20.39	
2025-01-13 10:46:20.64	179.30	20.42	
2025-01-13 10:46:20.85	179.31	20.44	
2025-01-13 10:46:21.05	179.33	20.47	
2025-01-13 10:46:21.26	179.34	20.50	
2025-01-13 10:46:21.46	179.35	20.52	
2025-01-13 10:46:21.67	179.37	20.55	
2025-01-13 10:46:21.87	179.38	20.58	
2025-01-13 10:46:22.08	179.39	20.60	
2025-01-13 10:46:22.28	179.41	20.63	
2025-01-13 10:46:22.49	179.42	20.66	
2025-01-13 10:46:22.69	179.43	20.68	
2025-01-13 10:46:22.90	179.45	20.71	
2025-01-13 10:46:23.10	179.46	20.74	
2025-01-13 10:46:23.30	179.47	20.76	
2025-01-13 10:46:23.51	179.49	20.79	
2025-01-13 10:46:23.71	179.50	20.82	
2025-01-13 10:46:23.92	179.52	20.84	
2025-01-13 10:46:24.12	179.53	20.87	
2025-01-13 10:46:24.32	179.54	20.90	
2025-01-13 10:46:24.53	179.56	20.92	
2025-01-13 10:46:24.74	179.57	20.95	
2025-01-13 10:46:24.94	179.59	20.98	
2025-01-13 10:46:25.15	179.60	21.01	
2025-01-13 10:46:25.35	179.61	21.03	
2025-01-13 10:46:25.56	179.63	21.06	
2025-01-13 10:46:25.76	179.64	21.09	
2025-01-13 10:46:25.97	179.66	21.11	
2025-01-13 10:46:26.18	179.67	21.14	
2025-01-13 10:46:26.38	179.68	21.17	
2025-01-13 10:46:26.58	179.70	21.20	
2025-01-13 10:46:26.79	179.71	21.22	
2025-01-13 10:46:27.00	179.73	21.25	
2025-01-13 10:46:27.20	179.74	21.28	
2025-01-13 10:46:27.41	179.75	21.31	
2025-01-13 10:46:27.61	179.77	21.33	
2025-01-13 10:46:27.81	179.78	21.36	
2025-01-13 10:46:28.02	179.80	21.39	
2025-01-13 10:46:28.23	179.81	21.42	
2025-01-13 10:46:28.43	179.82	21.44	
2025-01-13 10:46:28.64	179.84	21.47	
2025-01-13 10:46:28.84	179.85	21.50	
2025-01-13 10:46:29.05	179.87	21.53	
2025-01-13 10:46:29.25	179.88	21.55	
2025-01-13 10:46:29.46	179.90	21.58	
2025-01-13 10:46:29.66	179.91	21.61	
2025-01-13 10:46:29.87	179.93	21.64	
2025-01-13 10:46:30.07	179.94	21.66	
2025-01-13 10:46:30.28	179.95	21.69	
2025-01-13 10:46:30.48	179.97	21.72	
2025-01-13 10:46:30.69	179.98	21.75	
2025-01-13 10:46:30.89	180.00	21.78	
2025-01-13 10:46:31.10	180.01	21.80	
2025-01-13 10:46:31.31	180.03	21.83	
2025-01-13 10:46:31.51	180.04	21.86	
2025-01-13 10:46:31.73	180.06	21.89	
2025-01-13 10:46:31.94	180.07	21.92	
2025-01-13 10:46:32.14	180.09	21.95	
2025-01-13 10:46:32.35	180.10	21.98	
2025-01-13 10:46:32.56	180.12	22.00	
2025-01-13 10:46:32.76	180.13	22.03	
2025-01-13 10:46:32.97	180.15	22.06	
2025-01-13 10:46:33.17	180.16	22.09	
2025-01-13 10:46:33.37	180.18	22.12	
2025-01-13 10:46:33.58	180.19	22.14	
2025-01-13 10:46:33.79	180.21	22.17	
2025-01-13 10:46:34.00	180.22	22.20	
2025-01-13 10:46:34.21	180.24	22.23	
2025-01-13 10:46:34.41	180.25	22.26	
2025-01-13 10:46:34.62	180.27	22.29	
2025-01-13 10:46:34.82	180.28	22.32	
2025-01-13 10:46:35.03	180.30	22.35	
2025-01-13 10:46:35.23	180.31	22.37	
2025-01-13 10:46:35.44	180.33	22.40	
2025-01-13 10:46:35.64	180.34	22.43	
2025-01-13 10:46:35.85	180.36	22.46	
2025-01-13 10:46:36.05	180.37	22.49	
2025-01-13 10:46:36.26	180.39	22.52	
2025-01-13 10:46:36.46	180.40	22.55	
2025-01-13 10:46:36.67	180.42	22.57	
2025-01-13 10:46:36.87	180.43	22.60	
2025-01-13 10:46:37.08	180.45	22.63	
2025-01-13 10:46:37.28	180.46	22.66	
2025-01-13 10:46:37.49	180.48	22.69	
2025-01-13 10:46:37.70	180.50	22.72	
2025-01-13 10:46:37.90	180.51	22.75	
2025-01-13 10:46:38.11	180.53	22.78	
2025-01-13 10:46:38.31	180.54	22.81	
2025-01-13 10:46:38.52	180.56	22.84	
2025-01-13 10:46:38.72	180.57	22.86	
2025-01-13 10:46:38.93	180.59	22.89	
2025-01-13 10:46:39.13	180.60	22.92	
2025-01-13 10:46:39.34	180.62	22.95	
2025-01-13 10:46:39.54	180.64	22.98	
2025-01-13 10:46:39.75	180.65	23.01	
2025-01-13 10:46:39.95	180.67	23.04	
2025-01-13 10:46:40.16	180.68	23.07	
2025-01-13 10:46:40.38	180.70	23.10	
2025-01-13 10:46:40.58	180.71	23.13	
2025-01-13 10:46:40.79	180.73	23.16	
2025-01-13 10:46:40.99	180.75	23.19	
2025-01-13 10:46:41.20	180.76	23.22	
2025-01-13 10:46:41.40	180.78	23.25	
2025-01-13 10:46:41.61	180.79	23.28	
2025-01-13 10:46:41.81	180.81	23.30	
2025-01-13 10:46:42.02	180.83	23.34	
2025-01-13 10:46:42.22	180.84	23.36	
2025-01-13 10:46:42.43	180.86	23.39	
2025-01-13 10:46:42.63	180.87	23.42	
2025-01-13 10:46:42.84	180.89	23.45	
2025-01-13 10:46:43.04	180.91	23.48	
2025-01-13 10:46:43.25	180.92	23.51	
2025-01-13 10:46:43.45	180.94	23.54	
2025-01-13 10:46:43.66	180.96	23.57	
2025-01-13 10:46:43.86	180.97	23.60	
2025-01-13 10:46:44.07	180.99	23.63	
2025-01-13 10:46:44.27	181.00	23.66	
2025-01-13 10:46:44.48	181.02	23.69	
2025-01-13 10:46:44.68	181.04	23.72	
2025-01-13 10:46:44.89	181.05	23.75	
2025-01-13 10:46:45.09	181.07	23.78	
2025-01-13 10:46:45.30	181.09	23.81	
2025-01-13 10:46:45.50	181.10	23.84	
2025-01-13 10:46:45.71	181.12	23.87	
2025-01-13 10:46:45.91	181.14	23.90	
2025-01-13 10:46:46.12	181.15	23.93	
2025-01-13 10:46:46.32	181.17	23.96	
2025-01-13 10:46:46.53	181.19	23.99	
2025-01-13 10:46:46.74	181.20	24.02	
2025-01-13 10:46:46.94	181.22	24.05	
2025-01-13 10:46:47.15	181.24	24.08	
2025-01-13 10:46:47.35	181.25	24.11	
2025-01-13 10:46:47.56	181.27	24.15	
2025-01-13 10:46:47.78	181.29	24.18	
2025-01-13 10:46:47.98	181.30	24.21	
2025-01-13 10:46:48.19	181.32	24.24	
2025-01-13 10:46:48.39	181.34	24.27	
2025-01-13 10:46:48.60	181.36	24.30	
2025-01-13 10:46:48.80	181.37	24.33	
2025-01-13 10:46:49.00	181.39	24.36	
2025-01-13 10:46:49.21	181.41	24.39	
2025-01-13 10:46:49.41	181.42	24.42	
2025-01-13 10:46:49.62	181.44	24.45	
2025-01-13 10:46:49.82	181.46	24.48	
2025-01-13 10:46:50.04	181.48	24.52	
2025-01-13 10:46:50.24	181.49	24.55	
2025-01-13 10:46:50.45	181.51	24.58	
2025-01-13 10:46:50.66	181.53	24.61	
2025-01-13 10:46:50.86	181.55	24.64	
2025-01-13 10:46:51.06	181.56	24.67	
2025-01-13 10:46:51.27	181.58	24.70	
2025-01-13 10:46:51.48	181.60	24.73	
2025-01-13 10:46:51.68	181.61	24.76	
2025-01-13 10:46:51.89	181.63	24.80	
2025-01-13 10:46:52.09	181.65	24.83	
2025-01-13 10:46:52.30	181.67	24.86	
2025-01-13 10:46:52.50	181.69	24.89	
2025-01-13 10:46:52.71	181.70	24.92	
2025-01-13 10:46:52.91	181.72	24.95	
2025-01-13 10:46:53.12	181.74	24.98	
2025-01-13 10:46:53.32	181.76	25.01	
2025-01-13 10:46:53.53	181.77	25.05	
2025-01-13 10:46:53.73	181.79	25.08	
2025-01-13 10:46:53.94	181.81	25.11	
2025-01-13 10:46:54.14	181.83	25.14	
2025-01-13 10:46:54.35	181.85	25.17	
2025-01-13 10:46:54.55	181.86	25.20	
2025-01-13 10:46:54.75	181.88	25.23	
2025-01-13 10:46:54.96	181.90	25.27	
2025-01-13 10:46:55.17	181.92	25.30	
2025-01-13 10:46:55.37	181.93	25.33	
2025-01-13 10:46:55.58	181.95	25.36	
2025-01-13 10:46:55.78	181.97	25.39	
2025-01-13 10:46:55.99	181.99	25.43	
2025-01-13 10:46:56.19	182.01	25.46	
2025-01-13 10:46:56.40	182.03	25.49	
2025-01-13 10:46:56.60	182.04	25.52	
2025-01-13 10:46:56.81	182.06	25.55	
2025-01-13 10:46:57.01	182.08	25.58	
2025-01-13 10:46:57.22	182.10	25.62	
2025-01-13 10:46:57.42	182.12	25.65	
2025-01-13 10:46:57.63	182.14	25.68	
2025-01-13 10:46:57.83	182.15	25.71	
2025-01-13 10:46:58.04	182.17	25.75	
2025-01-13 10:46:58.24	182.19	25.78	
2025-01-13 10:46:58.45	182.21	25.81	
2025-01-13 10:46:58.65	182.23	25.84	
2025-01-13 10:46:58.86	182.25	25.87	
2025-01-13 10:46:59.07	182.27	25.91	
2025-01-13 10:46:59.27	182.29	25.94	
2025-01-13 10:46:59.47	182.30	25.97	
2025-01-13 10:46:59.68	182.32	26.00	
2025-01-13 10:46:59.88	182.34	26.04	
2025-01-13 10:47:00.09	182.36	26.07	
2025-01-13 10:47:00.29	182.38	26.10	
2025-01-13 10:47:00.50	182.40	26.13	
2025-01-13 10:47:00.70	182.42	26.17	
2025-01-13 10:47:00.91	182.44	26.20	
2025-01-13 10:47:01.12	182.46	26.23	
2025-01-13 10:47:01.32	182.47	26.26	
2025-01-13 10:47:01.53	182.49	26.30	
2025-01-13 10:47:01.73	182.51	26.33	
2025-01-13 10:47:01.93	182.53	26.36	
2025-01-13 10:47:02.14	182.55	26.40	
2025-01-13 10:47:02.35	182.57	26.43	
2025-01-13 10:47:02.55	182.59	26.46	
2025-01-13 10:47:02.75	182.61	26.49	
2025-01-13 10:47:02.96	182.63	26.53	
2025-01-13 10:47:03.16	182.65	26.56	
2025-01-13 10:47:03.37	182.67	26.59	
2025-01-13 10:47:03.57	182.69	26.63	
2025-01-13 10:47:03.78	182.71	26.66	
2025-01-13 10:47:03.98	182.73	26.69	
2025-01-13 10:47:04.19	182.75	26.73	
2025-01-13 10:47:04.39	182.77	26.76	
2025-01-13 10:47:04.60	182.79	26.79	
2025-01-13 10:47:04.80	182.80	26.83	
2025-01-13 10:47:05.02	182.83	26.86	
2025-01-13 10:47:05.23	182.85	26.90	
2025-01-13 10:47:05.43	182.87	26.93	
2025-01-13 10:47:05.64	182.89	26.96	
2025-01-13 10:47:05.85	182.91	27.00	
2025-01-13 10:47:06.06	182.93	27.03	
2025-01-13 10:47:06.27	182.95	27.07	
2025-01-13 10:47:06.47	182.97	27.10	
2025-01-13 10:47:06.68	182.99	27.13	
2025-01-13 10:47:06.88	183.01	27.17	
2025-01-13 10:47:07.09	183.03	27.20	
2025-01-13 10:47:07.29	183.05	27.23	
2025-01-13 10:47:07.50	183.07	27.27	
2025-01-13 10:47:07.70	183.09	27.30	
2025-01-13 10:47:07.91	183.11	27.34	
2025-01-13 10:47:08.11	183.13	27.37	
2025-01-13 10:47:08.32	183.15	27.41	
2025-01-13 10:47:08.52	183.17	27.44	
2025-01-13 10:47:08.73	183.19	27.47	
2025-01-13 10:47:08.93	183.21	27.51	
2025-01-13 10:47:09.14	183.23	27.54	
2025-01-13 10:47:09.34	183.25	27.58	
2025-01-13 10:47:09.55	183.27	27.61	
2025-01-13 10:47:09.75	183.29	27.64	
2025-01-13 10:47:09.96	183.32	27.68	
2025-01-13 10:47:10.16	183.34	27.71	
2025-01-13 10:47:10.36	183.36	27.75	
2025-01-13 10:47:10.57	183.38	27.78	
2025-01-13 10:47:10.78	183.40	27.82	
2025-01-13 10:47:10.98	183.42	27.85	
2025-01-13 10:47:11.19	183.44	27.89	
2025-01-13 10:47:11.39	183.46	27.92	
2025-01-13 10:47:11.60	183.48	27.96	
2025-01-13 10:47:11.80	183.50	27.99	
2025-01-13 10:47:12.01	183.53	28.02	
2025-01-13 10:47:12.22	183.55	28.06	
2025-01-13 10:47:12.42	183.57	28.09	
2025-01-13 10:47:12.63	183.59	28.13	
2025-01-13 10:47:12.83	183.61	28.16	
2025-01-13 10:47:13.04	183.63	28.20	
2025-01-13 10:47:13.24	183.65	28.23	
2025-01-13 10:47:13.44	183.68	28.27	
2025-01-13 10:47:13.65	183.70	28.30	
2025-01-13 10:47:13.85	183.72	28.34	
2025-01-13 10:47:14.06	183.74	28.37	
2025-01-13 10:47:14.27	183.76	28.41	
2025-01-13 10:47:14.47	183.78	28.44	
2025-01-13 10:47:14.68	183.81	28.48	
2025-01-13 10:47:14.88	183.83	28.52	
2025-01-13 10:47:15.09	183.85	28.55	
2025-01-13 10:47:15.29	183.87	28.59	
2025-01-13 10:47:15.50	183.89	28.62	
2025-01-13 10:47:15.70	183.92	28.66	
2025-01-13 10:47:15.91	183.94	28.69	
2025-01-13 10:47:16.11	183.96	28.73	
2025-01-13 10:47:16.33	183.98	28.77	
2025-01-13 10:47:16.53	184.01	28.80	
2025-01-13 10:47:16.74	184.03	28.84	
2025-01-13 10:47:16.94	184.05	28.87	
2025-01-13 10:47:17.14	184.07	28.91	
2025-01-13 10:47:17.35	184.10	28.94	
2025-01-13 10:47:17.56	184.12	28.98	
2025-01-13 10:47:17.76	184.14	29.02	
2025-01-13 10:47:17.97	184.16	29.05	
2025-01-13 10:47:18.17	184.19	29.09	
2025-01-13 10:47:18.38	184.21	29.12	
2025-01-13 10:47:18.58	184.23	29.16	
2025-01-13 10:47:18.80	184.26	29.20	
2025-01-13 10:47:19.01	184.28	29.23	
2025-01-13 10:47:19.21	184.30	29.27	
2025-01-13 10:47:19.42	184.33	29.31	
2025-01-13 10:47:19.62	184.35	29.34	
2025-01-13 10:47:19.83	184.37	29.38	
2025-01-13 10:47:20.03	184.39	29.42	
2025-01-13 10:47:20.24	184.42	29.45	
2025-01-13 10:47:20.44	184.44	29.49	
2025-01-13 10:47:20.65	184.46	29.53	
2025-01-13 10:47:20.87	184.49	29.56	
2025-01-13 10:47:21.07	184.51	29.60	
2025-01-13 10:47:21.28	184.54	29.64	
2025-01-13 10:47:21.49	184.56	29.68	
2025-01-13 10:47:21.69	184.58	29.71	
2025-01-13 10:47:21.90	184.61	29.75	
2025-01-13 10:47:22.10	184.63	29.78	
2025-01-13 10:47:22.31	184.65	29.82	
2025-01-13 10:47:22.51	184.68	29.86	
2025-01-13 10:47:22.72	184.70	29.90	
2025-01-13 10:47:22.92	184.72	29.93	
2025-01-13 10:47:23.13	184.75	29.97	
2025-01-13 10:47:23.33	184.77	30.01	
2025-01-13 10:47:23.54	184.80	30.04	
2025-01-13 10:47:23.74	184.82	30.08	
2025-01-13 10:47:23.95	184.85	30.12	
2025-01-13 10:47:24.15	184.87	30.15	
2025-01-13 10:47:24.36	184.89	30.19	
2025-01-13 10:47:24.57	184.92	30.23	
2025-01-13 10:47:24.77	184.94	30.27	
2025-01-13 10:47:24.98	184.97	30.31	
2025-01-13 10:47:25.18	184.99	30.34	
2025-01-13 10:47:25.39	185.02	30.38	
2025-01-13 10:47:25.59	185.04	30.42	
2025-01-13 10:47:25.80	185.07	30.46	
2025-01-13 10:47:26.00	185.09	30.49	
2025-01-13 10:47:26.21	185.11	30.53	
2025-01-13 10:47:26.41	185.14	30.57	
2025-01-13 10:47:26.62	185.16	30.61	
2025-01-13 10:47:26.82	185.19	30.64	
2025-01-13 10:47:27.03	185.21	30.68	
2025-01-13 10:47:27.23	185.24	30.72	
2025-01-13 10:47:27.44	185.26	30.76	
2025-01-13 10:47:27.65	185.29	30.80	
2025-01-13 10:47:27.85	185.31	30.83	
2025-01-13 10:47:28.06	185.34	30.87	
2025-01-13 10:47:28.26	185.36	30.91	
2025-01-13 10:47:28.46	185.39	30.95	
2025-01-13 10:47:28.67	185.42	30.99	
2025-01-13 10:47:28.87	185.44	31.02	
2025-01-13 10:47:29.08	185.47	31.06	
2025-01-13 10:47:29.29	185.49	31.10	
2025-01-13 10:47:29.50	185.52	31.14	
2025-01-13 10:47:29.71	185.54	31.18	
2025-01-13 10:47:29.91	185.57	31.22	
2025-01-13 10:47:30.12	185.60	31.26	
2025-01-13 10:47:30.32	185.62	31.29	
2025-01-13 10:47:30.53	185.65	31.33	
2025-01-13 10:47:30.73	185.67	31.37	
2025-01-13 10:47:30.94	185.70	31.41	
2025-01-13 10:47:31.14	185.73	31.45	
2025-01-13 10:47:31.35	185.75	31.49	
2025-01-13 10:47:31.55	185.78	31.53	
2025-01-13 10:47:31.76	185.80	31.57	
2025-01-13 10:47:31.96	185.83	31.60	
2025-01-13 10:47:32.17	185.86	31.64	
2025-01-13 10:47:32.37	185.88	31.68	
2025-01-13 10:47:32.58	185.91	31.72	
2025-01-13 10:47:32.78	185.94	31.76	
2025-01-13 10:47:32.99	185.96	31.80	
2025-01-13 10:47:33.19	185.99	31.84	
2025-01-13 10:47:33.40	186.02	31.88	
2025-01-13 10:47:33.60	186.04	31.92	
2025-01-13 10:47:33.81	186.07	31.96	
2025-01-13 10:47:34.01	186.10	31.99	
2025-01-13 10:47:34.22	186.12	32.03	
2025-01-13 10:47:34.43	186.15	32.08	
2025-01-13 10:47:34.63	186.18	32.11	
2025-01-13 10:47:34.83	186.21	32.15	
2025-01-13 10:47:35.04	186.23	32.19	
2025-01-13 10:47:35.24	186.26	32.23	
2025-01-13 10:47:35.44	186.29	32.27	
2025-01-13 10:47:35.65	186.31	32.31	
2025-01-13 10:47:35.85	186.34	32.35	
2025-01-13 10:47:36.06	186.37	32.39	
2025-01-13 10:47:36.27	186.40	32.43	
2025-01-13 10:47:36.47	186.43	32.47	
2025-01-13 10:47:36.68	186.45	32.51	
2025-01-13 10:47:36.88	186.48	32.55	
2025-01-13 10:47:37.09	186.51	32.59	
2025-01-13 10:47:37.29	186.54	32.63	
2025-01-13 10:47:37.50	186.57	32.67	
2025-01-13 10:47:37.71	186.59	32.71	
2025-01-13 10:47:37.91	186.62	32.75	
2025-01-13 10:47:38.11	186.65	32.79	
2025-01-13 10:47:38.32	186.68	32.83	
2025-01-13 10:47:38.52	186.71	32.87	
2025-01-13 10:47:38.73	186.74	32.91	
2025-01-13 10:47:38.93	186.76	32.95	
2025-01-13 10:47:39.15	186.79	33.00	
2025-01-13 10:47:39.36	186.82	33.04	
2025-01-13 10:47:39.56	186.85	33.08	
2025-01-13 10:47:39.77	186.88	33.12	
2025-01-13 10:47:39.97	186.91	33.16	
2025-01-13 10:47:40.18	186.94	33.20	
2025-01-13 10:47:40.38	186.97	33.24	
2025-01-13 10:47:40.59	187.00	33.28	
2025-01-13 10:47:40.79	187.03	33.32	
2025-01-13 10:47:41.00	187.05	33.36	
2025-01-13 10:47:41.20	187.08	33.40	
2025-01-13 10:47:41.40	187.11	33.44	
2025-01-13 10:47:41.61	187.14	33.48	
2025-01-13 10:47:41.82	187.17	33.53	
2025-01-13 10:47:42.02	187.20	33.57	
2025-01-13 10:47:42.23	187.23	33.61	
2025-01-13 10:47:42.43	187.26	33.65	
2025-01-13 10:47:42.64	187.29	33.69	
2025-01-13 10:47:42.84	187.32	33.73	
2025-01-13 10:47:43.05	187.35	33.77	
2025-01-13 10:47:43.25	187.38	33.81	
2025-01-13 10:47:43.46	187.41	33.86	
2025-01-13 10:47:43.66	187.44	33.90	
2025-01-13 10:47:43.87	187.47	33.94	
2025-01-13 10:47:44.07	187.50	33.98	
2025-01-13 10:47:44.28	187.53	34.02	
2025-01-13 10:47:44.48	187.56	34.06	
2025-01-13 10:47:44.69	187.59	34.11	
2025-01-13 10:47:44.89	187.62	34.15	
2025-01-13 10:47:45.10	187.66	34.19	
2025-01-13 10:47:45.30	187.69	34.23	
2025-01-13 10:47:45.52	187.72	34.28	
2025-01-13 10:47:45.73	187.75	34.32	
2025-01-13 10:47:45.93	187.78	34.36	
2025-01-13 10:47:46.14	187.81	34.40	
2025-01-13 10:47:46.34	187.84	34.44	
2025-01-13 10:47:46.55	187.87	34.49	
2025-01-13 10:47:46.75	187.91	34.53	
2025-01-13 10:47:46.96	187.94	34.57	
2025-01-13 10:47:47.16	187.97	34.61	
2025-01-13 10:47:47.37	188.00	34.66	
2025-01-13 10:47:47.57	188.03	34.70	
2025-01-13 10:47:47.78	188.06	34.74	
2025-01-13 10:47:47.98	188.09	34.78	
2025-01-13 10:47:48.19	188.13	34.83	
2025-01-13 10:47:48.39	188.16	34.87	
2025-01-13 10:47:48.60	188.19	34.91	
2025-01-13 10:47:48.80	188.22	34.95	
2025-01-13 10:47:49.01	188.26	35.00	
2025-01-13 10:47:49.22	188.29	35.04	
2025-01-13 10:47:49.42	188.32	35.08	
2025-01-13 10:47:49.63	188.35	35.13	
2025-01-13 10:47:49.83	188.39	35.17	
2025-01-13 10:47:50.04	188.42	35.21	
2025-01-13 10:47:50.24	188.45	35.25	
2025-01-13 10:47:50.45	188.48	35.30	
2025-01-13 10:47:50.65	188.52	35.34	
2025-01-13 10:47:50.86	188.55	35.38	
2025-01-13 10:47:51.06	188.58	35.43	
2025-01-13 10:47:51.27	188.62	35.47	
2025-01-13 10:47:51.48	188.65	35.52	
2025-01-13 10:47:51.68	188.68	35.56	
2025-01-13 10:47:51.89	188.72	35.60	
2025-01-13 10:47:52.09	188.75	35.64	
2025-01-13 10:47:52.30	188.78	35.69	
2025-01-13 10:47:52.50	188.82	35.73	
2025-01-13 10:47:52.71	188.85	35.78	
2025-01-13 10:47:52.91	188.89	35.82	
2025-01-13 10:47:53.12	188.92	35.86	
2025-01-13 10:47:53.32	188.95	35.91	
2025-01-13 10:47:53.53	188.99	35.95	
2025-01-13 10:47:53.74	189.02	36.00	
2025-01-13 10:47:53.94	189.06	36.04	
2025-01-13 10:47:54.14	189.09	36.08	
2025-01-13 10:47:54.35	189.13	36.13	
2025-01-13 10:47:54.56	189.16	36.17	
2025-01-13 10:47:54.76	189.19	36.22	
2025-01-13 10:47:54.97	189.23	36.26	
2025-01-13 10:47:55.17	189.26	36.30	
2025-01-13 10:47:55.37	189.30	36.35	
2025-01-13 10:47:55.58	189.33	36.39	
2025-01-13 10:47:55.79	189.37	36.44	
2025-01-13 10:47:55.99	189.40	36.48	
2025-01-13 10:47:56.20	189.44	36.53	
2025-01-13 10:47:56.40	189.48	36.57	
2025-01-13 10:47:56.61	189.51	36.62	
2025-01-13 10:47:56.82	189.55	36.66	
2025-01-13 10:47:57.02	189.58	36.71	
2025-01-13 10:47:57.23	189.62	36.75	
2025-01-13 10:47:57.43	189.65	36.79	
2025-01-13 10:47:57.64	189.69	36.84	
2025-01-13 10:47:57.84	189.73	36.88	
2025-01-13 10:47:58.05	189.76	36.93	
2025-01-13 10:47:58.26	189.80	36.98	
2025-01-13 10:47:58.47	189.84	37.02	
2025-01-13 10:47:58.67	189.87	37.07	
2025-01-13 10:47:58.88	189.91	37.11	
2025-01-13 10:47:59.09	189.95	37.16	
2025-01-13 10:47:59.29	189.98	37.20	
2025-01-13 10:47:59.49	190.02	37.25	
2025-01-13 10:47:59.70	190.06	37.29	
2025-01-13 10:47:59.90	190.09	37.34	
2025-01-13 10:48:00.11	190.13	37.38	
2025-01-13 10:48:00.31	190.17	37.43	
2025-01-13 10:48:00.51	190.21	37.47	
2025-01-13 10:48:00.72	190.24	37.52	
2025-01-13 10:48:00.93	190.28	37.57	
2025-01-13 10:48:01.13	190.32	37.61	
2025-01-13 10:48:01.34	190.36	37.66	
2025-01-13 10:48:01.54	190.39	37.70	
2025-01-13 10:48:01.74	190.43	37.75	
2025-01-13 10:48:01.95	190.47	37.79	
2025-01-13 10:48:02.15	190.51	37.84	
2025-01-13 10:48:02.36	190.55	37.89	
2025-01-13 10:48:02.58	190.59	37.93	
2025-01-13 10:48:02.78	190.63	37.98	
2025-01-13 10:48:02.98	190.66	38.02	
2025-01-13 10:48:03.19	190.70	38.07	
2025-01-13 10:48:03.40	190.74	38.12	
2025-01-13 10:48:03.60	190.78	38.16	
2025-01-13 10:48:03.81	190.82	38.21	
2025-01-13 10:48:04.01	190.86	38.26	
2025-01-13 10:48:04.22	190.90	38.30	
2025-01-13 10:48:04.43	190.94	38.35	
2025-01-13 10:48:04.64	190.98	38.40	
2025-01-13 10:48:04.85	191.02	38.45	
2025-01-13 10:48:05.05	191.06	38.49	
2025-01-13 10:48:05.26	191.10	38.54	
2025-01-13 10:48:05.47	191.14	38.59	
2025-01-13 10:48:05.67	191.18	38.63	
2025-01-13 10:48:05.87	191.22	38.68	
2025-01-13 10:48:06.08	191.26	38.73	
2025-01-13 10:48:06.28	191.30	38.77	
2025-01-13 10:48:06.49	191.34	38.82	
2025-01-13 10:48:06.70	191.38	38.87	
2025-01-13 10:48:06.90	191.42	38.91	
2025-01-13 10:48:07.10	191.46	38.96	
2025-01-13 10:48:07.31	191.51	39.01	
2025-01-13 10:48:07.51	191.55	39.06	
2025-01-13 10:48:07.72	191.59	39.10	
2025-01-13 10:48:07.92	191.63	39.15	
2025-01-13 10:48:08.13	191.67	39.20	
2025-01-13 10:48:08.34	191.71	39.25	
2025-01-13 10:48:08.54	191.75	39.29	
2025-01-13 10:48:08.75	191.80	39.34	
2025-01-13 10:48:08.97	191.84	39.39	
2025-01-13 10:48:09.17	191.88	39.44	
2025-01-13 10:48:09.37	191.92	39.49	
2025-01-13 10:48:09.58	191.97	39.53	
2025-01-13 10:48:09.78	192.01	39.58	
2025-01-13 10:48:09.99	192.05	39.63	
2025-01-13 10:48:10.19	192.09	39.68	
2025-01-13 10:48:10.40	192.14	39.73	
2025-01-13 10:48:10.61	192.18	39.77	
2025-01-13 10:48:10.81	192.22	39.82	
2025-01-13 10:48:11.02	192.27	39.87	
2025-01-13 10:48:11.22	192.31	39.92	
2025-01-13 10:48:11.43	192.35	39.97	
2025-01-13 10:48:11.63	192.40	40.01	
2025-01-13 10:48:11.84	192.44	40.06	
2025-01-13 10:48:12.05	192.49	40.11	
2025-01-13 10:48:12.25	192.53	40.16	
2025-01-13 10:48:12.46	192.57	40.21	
2025-01-13 10:48:12.66	192.62	40.26	
2025-01-13 10:48:12.87	192.66	40.31	
2025-01-13 10:48:13.07	192.71	40.35	
2025-01-13 10:48:13.28	192.75	40.40	
2025-01-13 10:48:13.48	192.80	40.45	
2025-01-13 10:48:13.69	192.84	40.50	
2025-01-13 10:48:13.89	192.88	40.55	
2025-01-13 10:48:14.10	192.93	40.60	
2025-01-13 10:48:14.30	192.98	40.64	
2025-01-13 10:48:14.51	193.02	40.69	
2025-01-13 10:48:14.71	193.07	40.74	
2025-01-13 10:48:14.92	193.11	40.79	
2025-01-13 10:48:15.13	193.16	40.84	
2025-01-13 10:48:15.33	193.20	40.89	
2025-01-13 10:48:15.53	193.25	40.94	
2025-01-13 10:48:15.74	193.30	40.99	
2025-01-13 10:48:15.94	193.34	41.04	
2025-01-13 10:48:16.15	193.39	41.09	
2025-01-13 10:48:16.35	193.43	41.13	
2025-01-13 10:48:16.56	193.48	41.18	
2025-01-13 10:48:16.76	193.53	41.23	
2025-01-13 10:48:16.97	193.58	41.28	
2025-01-13 10:48:17.17	193.62	41.33	
2025-01-13 10:48:17.38	193.67	41.38	
2025-01-13 10:48:17.58	193.72	41.43	
2025-01-13 10:48:17.79	193.77	41.48	
2025-01-13 10:48:17.99	193.81	41.53	
2025-01-13 10:48:18.20	193.86	41.58	
2025-01-13 10:48:18.40	193.91	41.63	
2025-01-13 10:48:18.60	193.96	41.68	
2025-01-13 10:48:18.81	194.00	41.73	
2025-01-13 10:48:19.02	194.05	41.78	
2025-01-13 10:48:19.22	194.10	41.83	
2025-01-13 10:48:19.42	194.15	41.88	
2025-01-13 10:48:19.63	194.20	41.93	
2025-01-13 10:48:19.83	194.25	41.98	
2025-01-13 10:48:20.04	194.30	42.03	
2025-01-13 10:48:20.25	194.35	42.08	
2025-01-13 10:48:20.45	194.40	42.13	
2025-01-13 10:48:20.66	194.45	42.18	
2025-01-13 10:48:20.86	194.50	42.23	
2025-01-13 10:48:21.06	194.54	42.28	
2025-01-13 10:48:21.27	194.60	42.33	
2025-01-13 10:48:21.48	194.65	42.38	
2025-01-13 10:48:21.68	194.70	42.43	
2025-01-13 10:48:21.89	194.75	42.48	
2025-01-13 10:48:22.09	194.80	42.53	
2025-01-13 10:48:22.30	194.85	42.58	
2025-01-13 10:48:22.50	194.90	42.63	
2025-01-13 10:48:22.71	194.95	42.68	
2025-01-13 10:48:22.91	195.00	42.73	
2025-01-13 10:48:23.12	195.05	42.78	
2025-01-13 10:48:23.32	195.11	42.83	
2025-01-13 10:48:23.53	195.16	42.89	
2025-01-13 10:48:23.73	195.21	42.94	
2025-01-13 10:48:23.93	195.26	42.99	
2025-01-13 10:48:24.14	195.31	43.04	
2025-01-13 10:48:24.34	195.36	43.09	
2025-01-13 10:48:24.55	195.42	43.14	
2025-01-13 10:48:24.75	195.47	43.19	
2025-01-13 10:48:24.96	195.52	43.24	
2025-01-13 10:48:25.16	195.58	43.29	
2025-01-13 10:48:25.37	195.63	43.34	
2025-01-13 10:48:25.57	195.68	43.39	
2025-01-13 10:48:25.78	195.74	43.45	
2025-01-13 10:48:25.98	195.79	43.50	
2025-01-13 10:48:26.19	195.85	43.55	
2025-01-13 10:48:26.39	195.90	43.60	
2025-01-13 10:48:26.60	195.95	43.65	
2025-01-13 10:48:26.81	196.01	43.70	
2025-01-13 10:48:27.01	196.06	43.75	
2025-01-13 10:48:27.22	196.12	43.81	
2025-01-13 10:48:27.42	196.17	43.86	
2025-01-13 10:48:27.63	196.23	43.91	
2025-01-13 10:48:27.83	196.28	43.96	
2025-01-13 10:48:28.04	196.34	44.01	
2025-01-13 10:48:28.24	196.39	44.06	
2025-01-13 10:48:28.45	196.45	44.12	
2025-01-13 10:48:28.65	196.51	44.17	
2025-01-13 10:48:28.86	196.56	44.22	
2025-01-13 10:48:29.06	196.62	44.27	
2025-01-13 10:48:29.27	196.68	44.32	
2025-01-13 10:48:29.47	196.73	44.38	
2025-01-13 10:48:29.68	196.79	44.43	
2025-01-13 10:48:29.89	196.85	44.48	
2025-01-13 10:48:30.09	196.91	44.53	
2025-01-13 10:48:30.29	196.96	44.58	
2025-01-13 10:48:30.50	197.02	44.64	
2025-01-13 10:48:30.71	197.08	44.69	
2025-01-13 10:48:30.91	197.14	44.74	
2025-01-13 10:48:31.12	197.20	44.80	
2025-01-13 10:48:31.32	197.25	44.85	
2025-01-13 10:48:31.53	197.31	44.90	
2025-01-13 10:48:31.73	197.37	44.95	
2025-01-13 10:48:31.94	197.43	45.00	
2025-01-13 10:48:32.15	197.49	45.06	
2025-01-13 10:48:32.35	197.55	45.11	
2025-01-13 10:48:32.55	197.61	45.16	
2025-01-13 10:48:32.76	197.67	45.21	
2025-01-13 10:48:32.97	197.73	45.27	
2025-01-13 10:48:33.17	197.79	45.32	
2025-01-13 10:48:33.38	197.85	45.37	
2025-01-13 10:48:33.58	197.91	45.43	
2025-01-13 10:48:33.79	197.97	45.48	
2025-01-13 10:48:33.99	198.03	45.53	
2025-01-13 10:48:34.20	198.10	45.59	
2025-01-13 10:48:34.40	198.16	45.64	
2025-01-13 10:48:34.61	198.22	45.69	
2025-01-13 10:48:34.82	198.28	45.74	
2025-01-13 10:48:35.02	198.34	45.80	
2025-01-13 10:48:35.23	198.41	45.85	
2025-01-13 10:48:35.43	198.47	45.90	
2025-01-13 10:48:35.63	198.53	45.95	
2025-01-13 10:48:35.84	198.59	46.01	
2025-01-13 10:48:36.04	198.65	46.06	
2025-01-13 10:48:36.25	198.72	46.11	
2025-01-13 10:48:36.46	198.78	46.17	
2025-01-13 10:48:36.66	198.85	46.22	
2025-01-13 10:48:36.87	198.91	46.28	
2025-01-13 10:48:37.07	198.97	46.33	
2025-01-13 10:48:37.28	199.04	46.38	
2025-01-13 10:48:37.49	199.11	46.44	
2025-01-13 10:48:37.69	199.17	46.49	
2025-01-13 10:48:37.89	199.23	46.54	
2025-01-13 10:48:38.10	199.30	46.60	
2025-01-13 10:48:38.31	199.37	46.65	
2025-01-13 10:48:38.51	199.43	46.70	
2025-01-13 10:48:38.71	199.49	46.75	
2025-01-13 10:48:38.92	199.56	46.81	
2025-01-13 10:48:39.12	199.63	46.86	
2025-01-13 10:48:39.33	199.69	46.92	
2025-01-13 10:48:39.54	199.76	46.97	
2025-01-13 10:48:39.74	199.83	47.02	
2025-01-13 10:48:39.95	199.90	47.08	
2025-01-13 10:48:40.15	199.96	47.13	
2025-01-13 10:48:40.36	200.03	47.19	
2025-01-13 10:48:40.56	200.10	47.24	
2025-01-13 10:48:40.77	200.17	47.29	
2025-01-13 10:48:40.99	200.24	47.35	
2025-01-13 10:48:41.19	200.31	47.40	
2025-01-13 10:48:41.40	200.38	47.46	
2025-01-13 10:48:41.61	200.45	47.51	
2025-01-13 10:48:41.81	200.52	47.57	
2025-01-13 10:48:42.02	200.59	47.62	
2025-01-13 10:48:42.22	200.66	47.67	
2025-01-13 10:48:42.43	200.73	47.73	
2025-01-13 10:48:42.64	200.80	47.79	
2025-01-13 10:48:42.84	200.87	47.84	
2025-01-13 10:48:43.04	200.94	47.89	
2025-01-13 10:48:43.25	201.01	47.95	
2025-01-13 10:48:43.45	201.08	48.00	
2025-01-13 10:48:43.66	201.15	48.05	
2025-01-13 10:48:43.86	201.22	48.11	
2025-01-13 10:48:44.07	201.30	48.16	
2025-01-13 10:48:44.27	201.37	48.22	
2025-01-13 10:48:44.48	201.44	48.27	
2025-01-13 10:48:44.68	201.51	48.32	
2025-01-13 10:48:44.89	201.59	48.38	
2025-01-13 10:48:45.10	201.66	48.43	
2025-01-13 10:48:45.31	201.74	48.49	
2025-01-13 10:48:45.52	201.81	48.55	
2025-01-13 10:48:45.72	201.89	48.60	
2025-01-13 10:48:45.93	201.96	48.65	
2025-01-13 10:48:46.14	202.04	48.71	
2025-01-13 10:48:46.34	202.11	48.76	
2025-01-13 10:48:46.55	202.19	48.82	
2025-01-13 10:48:46.75	202.26	48.87	
2025-01-13 10:48:46.96	202.34	48.93	
2025-01-13 10:48:47.16	202.41	48.98	
2025-01-13 10:48:47.38	202.50	49.04	
2025-01-13 10:48:47.59	202.57	49.09	
2025-01-13 10:48:47.79	202.65	49.15	
2025-01-13 10:48:48.00	202.73	49.20	
2025-01-13 10:48:48.20	202.80	49.26	
2025-01-13 10:48:48.41	202.88	49.31	
2025-01-13 10:48:48.61	202.96	49.37	
2025-01-13 10:48:48.82	203.04	49.42	
2025-01-13 10:48:49.02	203.11	49.47	
2025-01-13 10:48:49.23	203.19	49.53	
2025-01-13 10:48:49.43	203.27	49.58	
2025-01-13 10:48:49.64	203.35	49.64	
2025-01-13 10:48:49.84	203.43	49.69	
2025-01-13 10:48:50.05	203.51	49.75	
2025-01-13 10:48:50.25	203.59	49.80	
2025-01-13 10:48:50.46	203.67	49.86	
2025-01-13 10:48:50.66	203.75	49.91	
2025-01-13 10:48:50.86	203.83	49.96	
2025-01-13 10:48:51.07	203.91	50.02	
2025-01-13 10:48:51.27	203.99	50.07	
2025-01-13 10:48:51.48	204.08	50.13	
2025-01-13 10:48:51.69	204.16	50.19	
2025-01-13 10:48:51.89	204.24	50.24	
2025-01-13 10:48:52.10	204.32	50.29	
2025-01-13 10:48:52.30	204.41	50.35	
2025-01-13 10:48:52.51	204.49	50.40	
2025-01-13 10:48:52.71	204.57	50.46	
2025-01-13 10:48:52.92	204.66	50.51	
2025-01-13 10:48:53.12	204.74	50.57	
2025-01-13 10:48:53.33	204.83	50.62	
2025-01-13 10:48:53.53	204.91	50.68	
2025-01-13 10:48:53.74	205.00	50.73	
2025-01-13 10:48:53.94	205.08	50.78	
2025-01-13 10:48:54.15	205.17	50.84	
2025-01-13 10:48:54.36	205.26	50.90	
2025-01-13 10:48:54.56	205.34	50.95	
2025-01-13 10:48:54.76	205.42	51.00	
2025-01-13 10:48:54.97	205.51	51.06	
2025-01-13 10:48:55.17	205.60	51.11	
2025-01-13 10:48:55.38	205.69	51.17	
2025-01-13 10:48:55.58	205.77	51.22	
2025-01-13 10:48:55.79	205.86	51.28	
2025-01-13 10:48:55.99	205.95	51.33	
2025-01-13 10:48:56.19	206.04	51.38	
2025-01-13 10:48:56.40	206.13	51.44	
2025-01-13 10:48:56.61	206.22	51.50	
2025-01-13 10:48:56.81	206.31	51.55	
2025-01-13 10:48:57.02	206.40	51.60	
2025-01-13 10:48:57.22	206.49	51.66	
2025-01-13 10:48:57.43	206.58	51.71	
2025-01-13 10:48:57.63	206.67	51.77	
