passes_logs/2025/01/13/SPB_Silybum_02/SPB_Silybum_02__20250113_161914_TERRA_rec.log

#Pass ID: 20250113_161914_TERRA
#Satellite: TERRA
#Configuration: TERRA
#Start time: 2025-01-13 16:19:13

#Version: 2.0.20230423
#Station: SPB_Silybum_02
#Location: 30.233357 lon 59.946436 lat
#TLE: 1 25994U 99068A   25012.80475962  .00000761  00000+0  16654-3 0  9990
#TLE: 2 25994  98.0220  75.9049 0003508  77.1547  57.1006 14.60390868333758

#Time	Az	El	Level	Level2	SNR	BER	Gain	Gain2
2025-01-13 16:19:15.34	92.80	4.05	
2025-01-13 16:19:15.55	92.78	4.07	
2025-01-13 16:19:15.75	92.76	4.08	
2025-01-13 16:19:15.96	92.73	4.09	
2025-01-13 16:19:16.16	92.71	4.10	
2025-01-13 16:19:16.37	92.69	4.11	
2025-01-13 16:19:16.57	92.67	4.12	
2025-01-13 16:19:16.78	92.65	4.13	
2025-01-13 16:19:16.98	92.63	4.15	
2025-01-13 16:19:17.19	92.60	4.16	
2025-01-13 16:19:17.39	92.58	4.17	
2025-01-13 16:19:17.60	92.56	4.18	
2025-01-13 16:19:17.82	92.54	4.19	
2025-01-13 16:19:18.02	92.51	4.20	
2025-01-13 16:19:18.23	92.49	4.21	
2025-01-13 16:19:18.44	92.47	4.23	
2025-01-13 16:19:18.64	92.45	4.24	
2025-01-13 16:19:18.85	92.43	4.25	
2025-01-13 16:19:19.05	92.40	4.26	
2025-01-13 16:19:19.26	92.38	4.27	
2025-01-13 16:19:19.46	92.36	4.28	
2025-01-13 16:19:19.67	92.34	4.29	
2025-01-13 16:19:19.87	92.32	4.31	
2025-01-13 16:19:20.08	92.29	4.32	
2025-01-13 16:19:20.28	92.27	4.33	
2025-01-13 16:19:20.49	92.25	4.34	
2025-01-13 16:19:20.70	92.23	4.35	
2025-01-13 16:19:20.90	92.21	4.36	
2025-01-13 16:19:21.10	92.18	4.37	
2025-01-13 16:19:21.31	92.16	4.39	
2025-01-13 16:19:21.51	92.14	4.40	
2025-01-13 16:19:21.72	92.12	4.41	
2025-01-13 16:19:21.92	92.10	4.42	
2025-01-13 16:19:22.13	92.07	4.43	
2025-01-13 16:19:22.33	92.05	4.44	
2025-01-13 16:19:22.54	92.03	4.45	
2025-01-13 16:19:22.74	92.01	4.47	
2025-01-13 16:19:22.95	91.98	4.48	
2025-01-13 16:19:23.15	91.96	4.49	
2025-01-13 16:19:23.36	91.94	4.50	
2025-01-13 16:19:23.56	91.92	4.51	
2025-01-13 16:19:23.77	91.89	4.52	
2025-01-13 16:19:23.97	91.87	4.53	
2025-01-13 16:19:24.18	91.85	4.55	
2025-01-13 16:19:24.39	91.83	4.56	
2025-01-13 16:19:24.59	91.80	4.57	
2025-01-13 16:19:24.80	91.78	4.58	
2025-01-13 16:19:25.01	91.76	4.59	
2025-01-13 16:19:25.23	91.73	4.60	
2025-01-13 16:19:25.43	91.71	4.62	
2025-01-13 16:19:25.64	91.69	4.63	
2025-01-13 16:19:25.84	91.67	4.64	
2025-01-13 16:19:26.05	91.64	4.65	
2025-01-13 16:19:26.25	91.62	4.66	
2025-01-13 16:19:26.46	91.60	4.67	
2025-01-13 16:19:26.66	91.58	4.68	
2025-01-13 16:19:26.87	91.55	4.70	
2025-01-13 16:19:27.07	91.53	4.71	
2025-01-13 16:19:27.27	91.51	4.72	
2025-01-13 16:19:27.48	91.48	4.73	
2025-01-13 16:19:27.69	91.46	4.74	
2025-01-13 16:19:27.89	91.44	4.75	
2025-01-13 16:19:28.10	91.42	4.76	
2025-01-13 16:19:28.30	91.39	4.78	
2025-01-13 16:19:28.51	91.37	4.79	
2025-01-13 16:19:28.71	91.35	4.80	
2025-01-13 16:19:28.92	91.32	4.81	
2025-01-13 16:19:29.12	91.30	4.82	
2025-01-13 16:19:29.33	91.28	4.83	
2025-01-13 16:19:29.53	91.26	4.84	
2025-01-13 16:19:29.74	91.23	4.86	
2025-01-13 16:19:29.94	91.21	4.87	
2025-01-13 16:19:30.15	91.19	4.88	
2025-01-13 16:19:30.36	91.16	4.89	
2025-01-13 16:19:30.56	91.14	4.90	
2025-01-13 16:19:30.77	91.12	4.91	
2025-01-13 16:19:30.97	91.09	4.92	
2025-01-13 16:19:31.18	91.07	4.94	
2025-01-13 16:19:31.38	91.05	4.95	
2025-01-13 16:19:31.59	91.02	4.96	
2025-01-13 16:19:31.79	91.00	4.97	
2025-01-13 16:19:32.00	90.98	4.98	
2025-01-13 16:19:32.20	90.96	4.99	
2025-01-13 16:19:32.41	90.93	5.01	
2025-01-13 16:19:32.61	90.91	5.02	
2025-01-13 16:19:32.82	90.88	5.03	
2025-01-13 16:19:33.02	90.86	5.04	
2025-01-13 16:19:33.23	90.84	5.05	
2025-01-13 16:19:33.44	90.81	5.06	
2025-01-13 16:19:33.64	90.79	5.07	
2025-01-13 16:19:33.85	90.77	5.09	
2025-01-13 16:19:34.05	90.74	5.10	
2025-01-13 16:19:34.26	90.72	5.11	
2025-01-13 16:19:34.46	90.70	5.12	
2025-01-13 16:19:34.67	90.67	5.13	
2025-01-13 16:19:34.87	90.65	5.14	
2025-01-13 16:19:35.08	90.63	5.16	
2025-01-13 16:19:35.28	90.60	5.17	
2025-01-13 16:19:35.49	90.58	5.18	
2025-01-13 16:19:35.69	90.56	5.19	
2025-01-13 16:19:35.91	90.53	5.20	
2025-01-13 16:19:36.11	90.51	5.21	
2025-01-13 16:19:36.32	90.48	5.22	
2025-01-13 16:19:36.52	90.46	5.24	
2025-01-13 16:19:36.73	90.44	5.25	
2025-01-13 16:19:36.93	90.41	5.26	
2025-01-13 16:19:37.14	90.39	5.27	
2025-01-13 16:19:37.34	90.37	5.28	
2025-01-13 16:19:37.55	90.34	5.29	
2025-01-13 16:19:37.75	90.32	5.31	
2025-01-13 16:19:37.96	90.29	5.32	
2025-01-13 16:19:38.17	90.27	5.33	
2025-01-13 16:19:38.37	90.25	5.34	
2025-01-13 16:19:38.58	90.22	5.35	
2025-01-13 16:19:38.78	90.20	5.36	
2025-01-13 16:19:38.99	90.17	5.37	
2025-01-13 16:19:39.19	90.15	5.39	
2025-01-13 16:19:39.40	90.13	5.40	
2025-01-13 16:19:39.60	90.10	5.41	
2025-01-13 16:19:39.81	90.08	5.42	
2025-01-13 16:19:40.01	90.06	5.43	
2025-01-13 16:19:40.22	90.03	5.44	
2025-01-13 16:19:40.42	90.01	5.46	
2025-01-13 16:19:40.63	89.98	5.47	
2025-01-13 16:19:40.83	89.96	5.48	
2025-01-13 16:19:41.04	89.93	5.49	
2025-01-13 16:19:41.26	89.91	5.50	
2025-01-13 16:19:41.46	89.88	5.51	
2025-01-13 16:19:41.67	89.86	5.53	
2025-01-13 16:19:41.87	89.84	5.54	
2025-01-13 16:19:42.08	89.81	5.55	
2025-01-13 16:19:42.29	89.79	5.56	
2025-01-13 16:19:42.50	89.76	5.57	
2025-01-13 16:19:42.70	89.74	5.58	
2025-01-13 16:19:42.91	89.71	5.60	
2025-01-13 16:19:43.11	89.69	5.61	
2025-01-13 16:19:43.31	89.67	5.62	
2025-01-13 16:19:43.52	89.64	5.63	
2025-01-13 16:19:43.73	89.62	5.64	
2025-01-13 16:19:43.93	89.59	5.65	
2025-01-13 16:19:44.14	89.57	5.66	
2025-01-13 16:19:44.34	89.54	5.68	
2025-01-13 16:19:44.54	89.52	5.69	
2025-01-13 16:19:44.75	89.49	5.70	
2025-01-13 16:19:44.96	89.47	5.71	
2025-01-13 16:19:45.16	89.45	5.72	
2025-01-13 16:19:45.37	89.42	5.73	
2025-01-13 16:19:45.57	89.40	5.75	
2025-01-13 16:19:45.78	89.37	5.76	
2025-01-13 16:19:45.98	89.35	5.77	
2025-01-13 16:19:46.19	89.32	5.78	
2025-01-13 16:19:46.39	89.30	5.79	
2025-01-13 16:19:46.61	89.27	5.80	
2025-01-13 16:19:46.82	89.25	5.82	
2025-01-13 16:19:47.02	89.22	5.83	
2025-01-13 16:19:47.23	89.20	5.84	
2025-01-13 16:19:47.44	89.17	5.85	
2025-01-13 16:19:47.64	89.15	5.86	
2025-01-13 16:19:47.84	89.12	5.87	
2025-01-13 16:19:48.05	89.10	5.89	
2025-01-13 16:19:48.25	89.07	5.90	
2025-01-13 16:19:48.46	89.05	5.91	
2025-01-13 16:19:48.66	89.02	5.92	
2025-01-13 16:19:48.87	89.00	5.93	
2025-01-13 16:19:49.07	88.97	5.94	
2025-01-13 16:19:49.28	88.95	5.96	
2025-01-13 16:19:49.48	88.92	5.97	
2025-01-13 16:19:49.69	88.90	5.98	
2025-01-13 16:19:49.89	88.87	5.99	
2025-01-13 16:19:50.10	88.85	6.00	
2025-01-13 16:19:50.30	88.82	6.01	
2025-01-13 16:19:50.51	88.80	6.02	
2025-01-13 16:19:50.71	88.77	6.04	
2025-01-13 16:19:50.92	88.75	6.05	
2025-01-13 16:19:51.12	88.72	6.06	
2025-01-13 16:19:51.33	88.70	6.07	
2025-01-13 16:19:51.54	88.67	6.08	
2025-01-13 16:19:51.74	88.65	6.09	
2025-01-13 16:19:51.96	88.62	6.11	
2025-01-13 16:19:52.16	88.59	6.12	
2025-01-13 16:19:52.37	88.57	6.13	
2025-01-13 16:19:52.57	88.54	6.14	
2025-01-13 16:19:52.78	88.52	6.15	
2025-01-13 16:19:52.98	88.49	6.16	
2025-01-13 16:19:53.19	88.47	6.18	
2025-01-13 16:19:53.39	88.44	6.19	
2025-01-13 16:19:53.60	88.42	6.20	
2025-01-13 16:19:53.81	88.39	6.21	
2025-01-13 16:19:54.01	88.36	6.22	
2025-01-13 16:19:54.22	88.34	6.23	
2025-01-13 16:19:54.42	88.31	6.25	
2025-01-13 16:19:54.63	88.29	6.26	
2025-01-13 16:19:54.83	88.26	6.27	
2025-01-13 16:19:55.04	88.24	6.28	
2025-01-13 16:19:55.24	88.21	6.29	
2025-01-13 16:19:55.44	88.19	6.30	
2025-01-13 16:19:55.65	88.16	6.32	
2025-01-13 16:19:55.86	88.13	6.33	
2025-01-13 16:19:56.06	88.11	6.34	
2025-01-13 16:19:56.26	88.08	6.35	
2025-01-13 16:19:56.47	88.06	6.36	
2025-01-13 16:19:56.68	88.03	6.37	
2025-01-13 16:19:56.88	88.01	6.39	
2025-01-13 16:19:57.09	87.98	6.40	
2025-01-13 16:19:57.29	87.95	6.41	
2025-01-13 16:19:57.50	87.93	6.42	
2025-01-13 16:19:57.70	87.90	6.43	
2025-01-13 16:19:57.91	87.88	6.44	
2025-01-13 16:19:58.11	87.85	6.45	
2025-01-13 16:19:58.32	87.82	6.47	
2025-01-13 16:19:58.52	87.80	6.48	
2025-01-13 16:19:58.73	87.77	6.49	
2025-01-13 16:19:58.93	87.75	6.50	
2025-01-13 16:19:59.14	87.72	6.51	
2025-01-13 16:19:59.34	87.69	6.52	
2025-01-13 16:19:59.55	87.67	6.54	
2025-01-13 16:19:59.75	87.64	6.55	
2025-01-13 16:19:59.96	87.61	6.56	
2025-01-13 16:20:00.18	87.59	6.57	
2025-01-13 16:20:00.38	87.56	6.58	
2025-01-13 16:20:00.59	87.53	6.60	
2025-01-13 16:20:00.80	87.51	6.61	
2025-01-13 16:20:01.00	87.48	6.62	
2025-01-13 16:20:01.21	87.45	6.63	
2025-01-13 16:20:01.41	87.43	6.64	
2025-01-13 16:20:01.61	87.40	6.65	
2025-01-13 16:20:01.82	87.38	6.67	
2025-01-13 16:20:02.02	87.35	6.68	
2025-01-13 16:20:02.23	87.32	6.69	
2025-01-13 16:20:02.43	87.30	6.70	
2025-01-13 16:20:02.64	87.27	6.71	
2025-01-13 16:20:02.84	87.24	6.72	
2025-01-13 16:20:03.05	87.22	6.73	
2025-01-13 16:20:03.25	87.19	6.75	
2025-01-13 16:20:03.46	87.16	6.76	
2025-01-13 16:20:03.66	87.14	6.77	
2025-01-13 16:20:03.87	87.11	6.78	
2025-01-13 16:20:04.08	87.08	6.79	
2025-01-13 16:20:04.28	87.06	6.80	
2025-01-13 16:20:04.49	87.03	6.82	
2025-01-13 16:20:04.69	87.00	6.83	
2025-01-13 16:20:04.89	86.98	6.84	
2025-01-13 16:20:05.10	86.95	6.85	
2025-01-13 16:20:05.31	86.92	6.86	
2025-01-13 16:20:05.51	86.90	6.87	
2025-01-13 16:20:05.71	86.87	6.89	
2025-01-13 16:20:05.92	86.84	6.90	
2025-01-13 16:20:06.13	86.82	6.91	
2025-01-13 16:20:06.34	86.79	6.92	
2025-01-13 16:20:06.55	86.76	6.93	
2025-01-13 16:20:06.75	86.74	6.94	
2025-01-13 16:20:06.95	86.71	6.96	
2025-01-13 16:20:07.16	86.68	6.97	
2025-01-13 16:20:07.36	86.65	6.98	
2025-01-13 16:20:07.57	86.63	6.99	
2025-01-13 16:20:07.77	86.60	7.00	
2025-01-13 16:20:07.98	86.57	7.01	
2025-01-13 16:20:08.20	86.54	7.03	
2025-01-13 16:20:08.40	86.52	7.04	
2025-01-13 16:20:08.61	86.49	7.05	
2025-01-13 16:20:08.81	86.46	7.06	
2025-01-13 16:20:09.03	86.43	7.07	
2025-01-13 16:20:09.24	86.41	7.09	
2025-01-13 16:20:09.44	86.38	7.10	
2025-01-13 16:20:09.64	86.35	7.11	
2025-01-13 16:20:09.85	86.32	7.12	
2025-01-13 16:20:10.05	86.30	7.13	
2025-01-13 16:20:10.26	86.27	7.14	
2025-01-13 16:20:10.47	86.24	7.16	
2025-01-13 16:20:10.67	86.22	7.17	
2025-01-13 16:20:10.88	86.19	7.18	
2025-01-13 16:20:11.08	86.16	7.19	
2025-01-13 16:20:11.28	86.13	7.20	
2025-01-13 16:20:11.49	86.11	7.21	
2025-01-13 16:20:11.70	86.08	7.23	
2025-01-13 16:20:11.90	86.05	7.24	
2025-01-13 16:20:12.11	86.02	7.25	
2025-01-13 16:20:12.31	86.00	7.26	
2025-01-13 16:20:12.51	85.97	7.27	
2025-01-13 16:20:12.72	85.94	7.28	
2025-01-13 16:20:12.92	85.91	7.30	
2025-01-13 16:20:13.13	85.88	7.31	
2025-01-13 16:20:13.33	85.86	7.32	
2025-01-13 16:20:13.54	85.83	7.33	
2025-01-13 16:20:13.74	85.80	7.34	
2025-01-13 16:20:13.95	85.77	7.35	
2025-01-13 16:20:14.16	85.75	7.37	
2025-01-13 16:20:14.36	85.72	7.38	
2025-01-13 16:20:14.56	85.69	7.39	
2025-01-13 16:20:14.77	85.66	7.40	
2025-01-13 16:20:14.97	85.64	7.41	
2025-01-13 16:20:15.18	85.61	7.42	
2025-01-13 16:20:15.38	85.58	7.43	
2025-01-13 16:20:15.59	85.55	7.45	
2025-01-13 16:20:15.79	85.52	7.46	
2025-01-13 16:20:16.00	85.49	7.47	
2025-01-13 16:20:16.20	85.47	7.48	
2025-01-13 16:20:16.41	85.44	7.49	
2025-01-13 16:20:16.61	85.41	7.50	
2025-01-13 16:20:16.82	85.38	7.52	
2025-01-13 16:20:17.02	85.35	7.53	
2025-01-13 16:20:17.23	85.33	7.54	
2025-01-13 16:20:17.43	85.30	7.55	
2025-01-13 16:20:17.64	85.27	7.56	
2025-01-13 16:20:17.84	85.24	7.57	
2025-01-13 16:20:18.05	85.21	7.59	
2025-01-13 16:20:18.25	85.19	7.60	
2025-01-13 16:20:18.46	85.16	7.61	
2025-01-13 16:20:18.66	85.13	7.62	
2025-01-13 16:20:18.87	85.10	7.63	
2025-01-13 16:20:19.07	85.07	7.64	
2025-01-13 16:20:19.28	85.04	7.66	
2025-01-13 16:20:19.48	85.02	7.67	
2025-01-13 16:20:19.70	84.98	7.68	
2025-01-13 16:20:19.90	84.96	7.69	
2025-01-13 16:20:20.11	84.93	7.70	
2025-01-13 16:20:20.32	84.90	7.72	
2025-01-13 16:20:20.52	84.87	7.73	
2025-01-13 16:20:20.73	84.84	7.74	
2025-01-13 16:20:20.93	84.81	7.75	
2025-01-13 16:20:21.14	84.78	7.76	
2025-01-13 16:20:21.34	84.76	7.77	
2025-01-13 16:20:21.55	84.73	7.79	
2025-01-13 16:20:21.75	84.70	7.80	
2025-01-13 16:20:21.95	84.67	7.81	
2025-01-13 16:20:22.16	84.64	7.82	
2025-01-13 16:20:22.37	84.61	7.83	
2025-01-13 16:20:22.57	84.58	7.84	
2025-01-13 16:20:22.77	84.56	7.85	
2025-01-13 16:20:22.98	84.53	7.87	
2025-01-13 16:20:23.18	84.50	7.88	
2025-01-13 16:20:23.40	84.47	7.89	
2025-01-13 16:20:23.61	84.44	7.90	
2025-01-13 16:20:23.81	84.41	7.91	
2025-01-13 16:20:24.02	84.38	7.93	
2025-01-13 16:20:24.22	84.35	7.94	
2025-01-13 16:20:24.43	84.32	7.95	
2025-01-13 16:20:24.63	84.29	7.96	
2025-01-13 16:20:24.84	84.26	7.97	
2025-01-13 16:20:25.04	84.23	7.98	
2025-01-13 16:20:25.25	84.20	7.99	
2025-01-13 16:20:25.45	84.18	8.01	
2025-01-13 16:20:25.66	84.15	8.02	
2025-01-13 16:20:25.86	84.12	8.03	
2025-01-13 16:20:26.08	84.09	8.04	
2025-01-13 16:20:26.28	84.06	8.05	
2025-01-13 16:20:26.49	84.03	8.07	
2025-01-13 16:20:26.69	84.00	8.08	
2025-01-13 16:20:26.90	83.97	8.09	
2025-01-13 16:20:27.12	83.94	8.10	
2025-01-13 16:20:27.32	83.91	8.11	
2025-01-13 16:20:27.53	83.88	8.12	
2025-01-13 16:20:27.74	83.85	8.14	
2025-01-13 16:20:27.94	83.82	8.15	
2025-01-13 16:20:28.15	83.79	8.16	
2025-01-13 16:20:28.35	83.76	8.17	
2025-01-13 16:20:28.56	83.73	8.18	
2025-01-13 16:20:28.77	83.70	8.19	
2025-01-13 16:20:28.97	83.67	8.21	
2025-01-13 16:20:29.18	83.64	8.22	
2025-01-13 16:20:29.40	83.61	8.23	
2025-01-13 16:20:29.60	83.58	8.24	
2025-01-13 16:20:29.81	83.55	8.25	
2025-01-13 16:20:30.01	83.52	8.26	
2025-01-13 16:20:30.22	83.49	8.28	
2025-01-13 16:20:30.42	83.46	8.29	
2025-01-13 16:20:30.63	83.43	8.30	
2025-01-13 16:20:30.83	83.40	8.31	
2025-01-13 16:20:31.04	83.37	8.32	
2025-01-13 16:20:31.24	83.34	8.33	
2025-01-13 16:20:31.45	83.31	8.35	
2025-01-13 16:20:31.65	83.28	8.36	
2025-01-13 16:20:31.86	83.25	8.37	
2025-01-13 16:20:32.06	83.22	8.38	
2025-01-13 16:20:32.27	83.19	8.39	
2025-01-13 16:20:32.47	83.16	8.40	
2025-01-13 16:20:32.68	83.13	8.42	
2025-01-13 16:20:32.88	83.10	8.43	
2025-01-13 16:20:33.09	83.07	8.44	
2025-01-13 16:20:33.29	83.04	8.45	
2025-01-13 16:20:33.50	83.01	8.46	
2025-01-13 16:20:33.70	82.98	8.47	
2025-01-13 16:20:33.91	82.95	8.49	
2025-01-13 16:20:34.11	82.92	8.50	
2025-01-13 16:20:34.32	82.89	8.51	
2025-01-13 16:20:34.52	82.86	8.52	
2025-01-13 16:20:34.73	82.83	8.53	
2025-01-13 16:20:34.93	82.80	8.54	
2025-01-13 16:20:35.14	82.77	8.55	
2025-01-13 16:20:35.34	82.74	8.57	
2025-01-13 16:20:35.55	82.71	8.58	
2025-01-13 16:20:35.75	82.68	8.59	
2025-01-13 16:20:35.96	82.64	8.60	
2025-01-13 16:20:36.16	82.61	8.61	
2025-01-13 16:20:36.37	82.58	8.62	
2025-01-13 16:20:36.57	82.55	8.64	
2025-01-13 16:20:36.77	82.52	8.65	
2025-01-13 16:20:36.98	82.49	8.66	
2025-01-13 16:20:37.18	82.46	8.67	
2025-01-13 16:20:37.39	82.43	8.68	
2025-01-13 16:20:37.59	82.40	8.69	
2025-01-13 16:20:37.80	82.37	8.70	
2025-01-13 16:20:38.00	82.34	8.72	
2025-01-13 16:20:38.21	82.31	8.73	
2025-01-13 16:20:38.42	82.28	8.74	
2025-01-13 16:20:38.62	82.25	8.75	
2025-01-13 16:20:38.83	82.21	8.76	
2025-01-13 16:20:39.03	82.18	8.77	
2025-01-13 16:20:39.24	82.15	8.79	
2025-01-13 16:20:39.44	82.12	8.80	
2025-01-13 16:20:39.65	82.09	8.81	
2025-01-13 16:20:39.85	82.06	8.82	
2025-01-13 16:20:40.06	82.03	8.83	
2025-01-13 16:20:40.26	82.00	8.84	
2025-01-13 16:20:40.47	81.97	8.85	
2025-01-13 16:20:40.67	81.94	8.87	
2025-01-13 16:20:40.88	81.90	8.88	
2025-01-13 16:20:41.08	81.87	8.89	
2025-01-13 16:20:41.29	81.84	8.90	
2025-01-13 16:20:41.49	81.81	8.91	
2025-01-13 16:20:41.70	81.78	8.92	
2025-01-13 16:20:41.90	81.75	8.94	
2025-01-13 16:20:42.12	81.71	8.95	
2025-01-13 16:20:42.33	81.68	8.96	
2025-01-13 16:20:42.53	81.65	8.97	
2025-01-13 16:20:42.74	81.62	8.98	
2025-01-13 16:20:42.94	81.59	8.99	
2025-01-13 16:20:43.15	81.56	9.01	
2025-01-13 16:20:43.35	81.53	9.02	
2025-01-13 16:20:43.55	81.50	9.03	
2025-01-13 16:20:43.76	81.46	9.04	
2025-01-13 16:20:43.97	81.43	9.05	
2025-01-13 16:20:44.17	81.40	9.06	
2025-01-13 16:20:44.38	81.37	9.07	
2025-01-13 16:20:44.58	81.34	9.09	
2025-01-13 16:20:44.79	81.30	9.10	
2025-01-13 16:20:45.00	81.27	9.11	
2025-01-13 16:20:45.20	81.24	9.12	
2025-01-13 16:20:45.40	81.21	9.13	
2025-01-13 16:20:45.61	81.18	9.14	
2025-01-13 16:20:45.82	81.14	9.16	
2025-01-13 16:20:46.02	81.11	9.17	
2025-01-13 16:20:46.23	81.08	9.18	
2025-01-13 16:20:46.43	81.05	9.19	
2025-01-13 16:20:46.64	81.02	9.20	
2025-01-13 16:20:46.84	80.99	9.21	
2025-01-13 16:20:47.05	80.95	9.22	
2025-01-13 16:20:47.25	80.92	9.24	
2025-01-13 16:20:47.46	80.89	9.25	
2025-01-13 16:20:47.66	80.86	9.26	
2025-01-13 16:20:47.87	80.82	9.27	
2025-01-13 16:20:48.07	80.79	9.28	
2025-01-13 16:20:48.28	80.76	9.29	
2025-01-13 16:20:48.48	80.73	9.30	
2025-01-13 16:20:48.69	80.70	9.32	
2025-01-13 16:20:48.89	80.66	9.33	
2025-01-13 16:20:49.10	80.63	9.34	
2025-01-13 16:20:49.31	80.60	9.35	
2025-01-13 16:20:49.51	80.57	9.36	
2025-01-13 16:20:49.71	80.54	9.37	
2025-01-13 16:20:49.92	80.50	9.38	
2025-01-13 16:20:50.12	80.47	9.40	
2025-01-13 16:20:50.33	80.44	9.41	
2025-01-13 16:20:50.53	80.41	9.42	
2025-01-13 16:20:50.75	80.37	9.43	
2025-01-13 16:20:50.96	80.34	9.44	
2025-01-13 16:20:51.16	80.31	9.45	
2025-01-13 16:20:51.36	80.27	9.46	
2025-01-13 16:20:51.57	80.24	9.48	
2025-01-13 16:20:51.77	80.21	9.49	
2025-01-13 16:20:51.98	80.18	9.50	
2025-01-13 16:20:52.18	80.14	9.51	
2025-01-13 16:20:52.39	80.11	9.52	
2025-01-13 16:20:52.60	80.08	9.53	
2025-01-13 16:20:52.81	80.04	9.55	
2025-01-13 16:20:53.02	80.01	9.56	
2025-01-13 16:20:53.22	79.98	9.57	
2025-01-13 16:20:53.43	79.94	9.58	
2025-01-13 16:20:53.63	79.91	9.59	
2025-01-13 16:20:53.84	79.88	9.60	
2025-01-13 16:20:54.04	79.85	9.61	
2025-01-13 16:20:54.25	79.81	9.63	
2025-01-13 16:20:54.45	79.78	9.64	
2025-01-13 16:20:54.67	79.74	9.65	
2025-01-13 16:20:54.87	79.71	9.66	
2025-01-13 16:20:55.08	79.68	9.67	
2025-01-13 16:20:55.28	79.65	9.68	
2025-01-13 16:20:55.49	79.61	9.69	
2025-01-13 16:20:55.69	79.58	9.71	
2025-01-13 16:20:55.90	79.55	9.72	
2025-01-13 16:20:56.10	79.51	9.73	
2025-01-13 16:20:56.31	79.48	9.74	
2025-01-13 16:20:56.51	79.45	9.75	
2025-01-13 16:20:56.72	79.41	9.76	
2025-01-13 16:20:56.92	79.38	9.77	
2025-01-13 16:20:57.13	79.35	9.79	
2025-01-13 16:20:57.33	79.31	9.80	
2025-01-13 16:20:57.54	79.28	9.81	
2025-01-13 16:20:57.74	79.25	9.82	
2025-01-13 16:20:57.95	79.21	9.83	
2025-01-13 16:20:58.15	79.18	9.84	
2025-01-13 16:20:58.36	79.14	9.85	
2025-01-13 16:20:58.56	79.11	9.86	
2025-01-13 16:20:58.77	79.08	9.88	
2025-01-13 16:20:58.97	79.04	9.89	
2025-01-13 16:20:59.17	79.01	9.90	
2025-01-13 16:20:59.38	78.98	9.91	
2025-01-13 16:20:59.58	78.94	9.92	
2025-01-13 16:20:59.79	78.91	9.93	
2025-01-13 16:21:00.00	78.88	9.94	
2025-01-13 16:21:00.21	78.84	9.96	
2025-01-13 16:21:00.42	78.81	9.97	
2025-01-13 16:21:00.62	78.77	9.98	
2025-01-13 16:21:00.83	78.74	9.99	
2025-01-13 16:21:01.03	78.71	10.00	
2025-01-13 16:21:01.25	78.67	10.01	
2025-01-13 16:21:01.45	78.64	10.02	
2025-01-13 16:21:01.66	78.60	10.04	
2025-01-13 16:21:01.87	78.57	10.05	
2025-01-13 16:21:02.07	78.53	10.06	
2025-01-13 16:21:02.28	78.50	10.07	
2025-01-13 16:21:02.48	78.46	10.08	
2025-01-13 16:21:02.69	78.43	10.09	
2025-01-13 16:21:02.89	78.40	10.10	
2025-01-13 16:21:03.10	78.36	10.11	
2025-01-13 16:21:03.30	78.33	10.13	
2025-01-13 16:21:03.51	78.29	10.14	
2025-01-13 16:21:03.71	78.26	10.15	
2025-01-13 16:21:03.92	78.22	10.16	
2025-01-13 16:21:04.12	78.19	10.17	
2025-01-13 16:21:04.33	78.16	10.18	
2025-01-13 16:21:04.53	78.12	10.19	
2025-01-13 16:21:04.74	78.09	10.20	
2025-01-13 16:21:04.94	78.05	10.22	
2025-01-13 16:21:05.15	78.02	10.23	
2025-01-13 16:21:05.35	77.98	10.24	
2025-01-13 16:21:05.56	77.95	10.25	
2025-01-13 16:21:05.76	77.92	10.26	
2025-01-13 16:21:05.97	77.88	10.27	
2025-01-13 16:21:06.17	77.85	10.28	
2025-01-13 16:21:06.38	77.81	10.29	
2025-01-13 16:21:06.59	77.77	10.31	
2025-01-13 16:21:06.79	77.74	10.32	
2025-01-13 16:21:06.99	77.71	10.33	
2025-01-13 16:21:07.20	77.67	10.34	
2025-01-13 16:21:07.41	77.64	10.35	
2025-01-13 16:21:07.61	77.60	10.36	
2025-01-13 16:21:07.82	77.57	10.37	
2025-01-13 16:21:08.02	77.53	10.38	
2025-01-13 16:21:08.23	77.50	10.39	
2025-01-13 16:21:08.43	77.46	10.41	
2025-01-13 16:21:08.64	77.43	10.42	
2025-01-13 16:21:08.84	77.39	10.43	
2025-01-13 16:21:09.05	77.36	10.44	
2025-01-13 16:21:09.25	77.32	10.45	
2025-01-13 16:21:09.46	77.29	10.46	
2025-01-13 16:21:09.66	77.25	10.47	
2025-01-13 16:21:09.87	77.22	10.48	
2025-01-13 16:21:10.07	77.18	10.49	
2025-01-13 16:21:10.28	77.15	10.51	
2025-01-13 16:21:10.48	77.11	10.52	
2025-01-13 16:21:10.69	77.08	10.53	
2025-01-13 16:21:10.90	77.04	10.54	
2025-01-13 16:21:11.10	77.00	10.55	
2025-01-13 16:21:11.30	76.97	10.56	
2025-01-13 16:21:11.51	76.93	10.57	
2025-01-13 16:21:11.72	76.90	10.58	
2025-01-13 16:21:11.92	76.86	10.59	
2025-01-13 16:21:12.14	76.82	10.61	
2025-01-13 16:21:12.35	76.79	10.62	
2025-01-13 16:21:12.55	76.75	10.63	
2025-01-13 16:21:12.76	76.72	10.64	
2025-01-13 16:21:12.96	76.68	10.65	
2025-01-13 16:21:13.17	76.65	10.66	
2025-01-13 16:21:13.37	76.61	10.67	
2025-01-13 16:21:13.58	76.57	10.68	
2025-01-13 16:21:13.78	76.54	10.69	
2025-01-13 16:21:13.99	76.50	10.71	
2025-01-13 16:21:14.19	76.47	10.72	
2025-01-13 16:21:14.40	76.43	10.73	
2025-01-13 16:21:14.60	76.40	10.74	
2025-01-13 16:21:14.81	76.36	10.75	
2025-01-13 16:21:15.01	76.33	10.76	
2025-01-13 16:21:15.22	76.29	10.77	
2025-01-13 16:21:15.42	76.25	10.78	
2025-01-13 16:21:15.63	76.22	10.79	
2025-01-13 16:21:15.83	76.18	10.81	
2025-01-13 16:21:16.04	76.14	10.82	
2025-01-13 16:21:16.24	76.11	10.83	
2025-01-13 16:21:16.45	76.07	10.84	
2025-01-13 16:21:16.65	76.04	10.85	
2025-01-13 16:21:16.86	76.00	10.86	
2025-01-13 16:21:17.07	75.96	10.87	
2025-01-13 16:21:17.27	75.93	10.88	
2025-01-13 16:21:17.49	75.89	10.89	
2025-01-13 16:21:17.69	75.85	10.90	
2025-01-13 16:21:17.90	75.82	10.92	
2025-01-13 16:21:18.11	75.78	10.93	
2025-01-13 16:21:18.31	75.74	10.94	
2025-01-13 16:21:18.52	75.71	10.95	
2025-01-13 16:21:18.72	75.67	10.96	
2025-01-13 16:21:18.93	75.63	10.97	
2025-01-13 16:21:19.14	75.60	10.98	
2025-01-13 16:21:19.34	75.56	10.99	
2025-01-13 16:21:19.54	75.52	11.00	
2025-01-13 16:21:19.75	75.49	11.01	
2025-01-13 16:21:19.95	75.45	11.02	
2025-01-13 16:21:20.16	75.41	11.04	
2025-01-13 16:21:20.36	75.38	11.05	
2025-01-13 16:21:20.57	75.34	11.06	
2025-01-13 16:21:20.77	75.30	11.07	
2025-01-13 16:21:20.97	75.27	11.08	
2025-01-13 16:21:21.18	75.23	11.09	
2025-01-13 16:21:21.39	75.19	11.10	
2025-01-13 16:21:21.59	75.16	11.11	
2025-01-13 16:21:21.80	75.12	11.12	
2025-01-13 16:21:22.00	75.08	11.13	
2025-01-13 16:21:22.21	75.05	11.14	
2025-01-13 16:21:22.41	75.01	11.16	
2025-01-13 16:21:22.62	74.97	11.17	
2025-01-13 16:21:22.82	74.94	11.18	
2025-01-13 16:21:23.03	74.90	11.19	
2025-01-13 16:21:23.23	74.86	11.20	
2025-01-13 16:21:23.44	74.82	11.21	
2025-01-13 16:21:23.65	74.79	11.22	
2025-01-13 16:21:23.85	74.75	11.23	
2025-01-13 16:21:24.06	74.71	11.24	
2025-01-13 16:21:24.26	74.68	11.25	
2025-01-13 16:21:24.46	74.64	11.26	
2025-01-13 16:21:24.67	74.60	11.27	
2025-01-13 16:21:24.89	74.56	11.29	
2025-01-13 16:21:25.09	74.52	11.30	
2025-01-13 16:21:25.30	74.49	11.31	
2025-01-13 16:21:25.50	74.45	11.32	
2025-01-13 16:21:25.71	74.41	11.33	
2025-01-13 16:21:25.91	74.37	11.34	
2025-01-13 16:21:26.12	74.34	11.35	
2025-01-13 16:21:26.32	74.30	11.36	
2025-01-13 16:21:26.53	74.26	11.37	
2025-01-13 16:21:26.73	74.22	11.38	
2025-01-13 16:21:26.94	74.19	11.39	
2025-01-13 16:21:27.15	74.15	11.40	
2025-01-13 16:21:27.35	74.11	11.41	
2025-01-13 16:21:27.56	74.07	11.42	
2025-01-13 16:21:27.76	74.04	11.44	
2025-01-13 16:21:27.96	74.00	11.45	
2025-01-13 16:21:28.17	73.96	11.46	
2025-01-13 16:21:28.38	73.92	11.47	
2025-01-13 16:21:28.58	73.88	11.48	
2025-01-13 16:21:28.79	73.85	11.49	
2025-01-13 16:21:28.99	73.81	11.50	
2025-01-13 16:21:29.20	73.77	11.51	
2025-01-13 16:21:29.40	73.73	11.52	
2025-01-13 16:21:29.61	73.69	11.53	
2025-01-13 16:21:29.81	73.66	11.54	
2025-01-13 16:21:30.02	73.62	11.55	
2025-01-13 16:21:30.22	73.58	11.56	
2025-01-13 16:21:30.43	73.54	11.57	
2025-01-13 16:21:30.63	73.50	11.58	
2025-01-13 16:21:30.84	73.47	11.59	
2025-01-13 16:21:31.05	73.43	11.61	
2025-01-13 16:21:31.25	73.39	11.62	
2025-01-13 16:21:31.46	73.35	11.63	
2025-01-13 16:21:31.66	73.31	11.64	
2025-01-13 16:21:31.87	73.27	11.65	
2025-01-13 16:21:32.07	73.24	11.66	
2025-01-13 16:21:32.28	73.20	11.67	
2025-01-13 16:21:32.48	73.16	11.68	
2025-01-13 16:21:32.69	73.12	11.69	
2025-01-13 16:21:32.89	73.08	11.70	
2025-01-13 16:21:33.10	73.04	11.71	
2025-01-13 16:21:33.30	73.00	11.72	
2025-01-13 16:21:33.51	72.97	11.73	
2025-01-13 16:21:33.71	72.93	11.74	
2025-01-13 16:21:33.92	72.89	11.75	
2025-01-13 16:21:34.12	72.85	11.76	
2025-01-13 16:21:34.33	72.81	11.77	
2025-01-13 16:21:34.53	72.77	11.78	
2025-01-13 16:21:34.74	72.73	11.79	
2025-01-13 16:21:34.94	72.70	11.80	
2025-01-13 16:21:35.15	72.66	11.82	
2025-01-13 16:21:35.35	72.62	11.83	
2025-01-13 16:21:35.56	72.58	11.84	
2025-01-13 16:21:35.76	72.54	11.85	
2025-01-13 16:21:35.97	72.50	11.86	
2025-01-13 16:21:36.17	72.46	11.87	
2025-01-13 16:21:36.38	72.42	11.88	
2025-01-13 16:21:36.58	72.38	11.89	
2025-01-13 16:21:36.78	72.35	11.90	
2025-01-13 16:21:36.99	72.31	11.91	
2025-01-13 16:21:37.20	72.27	11.92	
2025-01-13 16:21:37.40	72.23	11.93	
2025-01-13 16:21:37.61	72.19	11.94	
2025-01-13 16:21:37.81	72.15	11.95	
2025-01-13 16:21:38.02	72.11	11.96	
2025-01-13 16:21:38.22	72.07	11.97	
2025-01-13 16:21:38.43	72.03	11.98	
2025-01-13 16:21:38.63	71.99	11.99	
2025-01-13 16:21:38.83	71.95	12.00	
2025-01-13 16:21:39.04	71.91	12.01	
2025-01-13 16:21:39.24	71.88	12.02	
2025-01-13 16:21:39.45	71.84	12.03	
2025-01-13 16:21:39.65	71.80	12.04	
2025-01-13 16:21:39.86	71.76	12.05	
2025-01-13 16:21:40.06	71.72	12.06	
2025-01-13 16:21:40.27	71.68	12.07	
2025-01-13 16:21:40.47	71.64	12.08	
2025-01-13 16:21:40.68	71.60	12.09	
2025-01-13 16:21:40.90	71.56	12.10	
2025-01-13 16:21:41.10	71.52	12.11	
2025-01-13 16:21:41.31	71.48	12.13	
2025-01-13 16:21:41.51	71.44	12.14	
2025-01-13 16:21:41.71	71.40	12.14	
2025-01-13 16:21:41.92	71.36	12.16	
2025-01-13 16:21:42.12	71.32	12.17	
2025-01-13 16:21:42.33	71.28	12.18	
2025-01-13 16:21:42.53	71.24	12.19	
2025-01-13 16:21:42.74	71.20	12.20	
2025-01-13 16:21:42.94	71.16	12.21	
2025-01-13 16:21:43.15	71.12	12.22	
2025-01-13 16:21:43.36	71.08	12.23	
2025-01-13 16:21:43.56	71.04	12.24	
2025-01-13 16:21:43.77	71.00	12.25	
2025-01-13 16:21:43.97	70.96	12.26	
2025-01-13 16:21:44.18	70.92	12.27	
2025-01-13 16:21:44.38	70.88	12.28	
2025-01-13 16:21:44.59	70.84	12.29	
2025-01-13 16:21:44.79	70.80	12.30	
2025-01-13 16:21:45.00	70.76	12.31	
2025-01-13 16:21:45.22	70.71	12.32	
2025-01-13 16:21:45.42	70.67	12.33	
2025-01-13 16:21:45.63	70.63	12.34	
2025-01-13 16:21:45.83	70.59	12.35	
2025-01-13 16:21:46.04	70.55	12.36	
2025-01-13 16:21:46.24	70.51	12.37	
2025-01-13 16:21:46.45	70.47	12.38	
2025-01-13 16:21:46.65	70.43	12.39	
2025-01-13 16:21:46.86	70.39	12.40	
2025-01-13 16:21:47.06	70.35	12.41	
2025-01-13 16:21:47.27	70.31	12.42	
2025-01-13 16:21:47.47	70.27	12.43	
2025-01-13 16:21:47.68	70.23	12.44	
2025-01-13 16:21:47.88	70.19	12.45	
2025-01-13 16:21:48.09	70.15	12.46	
2025-01-13 16:21:48.29	70.11	12.47	
2025-01-13 16:21:48.50	70.07	12.48	
2025-01-13 16:21:48.70	70.03	12.49	
2025-01-13 16:21:48.91	69.98	12.50	
2025-01-13 16:21:49.11	69.94	12.51	
2025-01-13 16:21:49.31	69.90	12.52	
2025-01-13 16:21:49.52	69.86	12.53	
2025-01-13 16:21:49.72	69.82	12.54	
2025-01-13 16:21:49.93	69.78	12.55	
2025-01-13 16:21:50.13	69.74	12.56	
2025-01-13 16:21:50.34	69.70	12.57	
2025-01-13 16:21:50.54	69.66	12.58	
2025-01-13 16:21:50.74	69.62	12.58	
2025-01-13 16:21:50.95	69.58	12.59	
2025-01-13 16:21:51.16	69.53	12.60	
2025-01-13 16:21:51.36	69.49	12.61	
2025-01-13 16:21:51.56	69.45	12.62	
2025-01-13 16:21:51.77	69.41	12.63	
2025-01-13 16:21:51.98	69.37	12.64	
2025-01-13 16:21:52.18	69.33	12.65	
2025-01-13 16:21:52.39	69.29	12.66	
2025-01-13 16:21:52.59	69.25	12.67	
2025-01-13 16:21:52.80	69.20	12.68	
2025-01-13 16:21:53.00	69.16	12.69	
2025-01-13 16:21:53.21	69.12	12.70	
2025-01-13 16:21:53.41	69.08	12.71	
2025-01-13 16:21:53.62	69.04	12.72	
2025-01-13 16:21:53.82	69.00	12.73	
2025-01-13 16:21:54.03	68.96	12.74	
2025-01-13 16:21:54.23	68.92	12.75	
2025-01-13 16:21:54.44	68.87	12.76	
2025-01-13 16:21:54.64	68.83	12.77	
2025-01-13 16:21:54.85	68.79	12.78	
2025-01-13 16:21:55.05	68.75	12.79	
2025-01-13 16:21:55.26	68.71	12.80	
2025-01-13 16:21:55.46	68.67	12.81	
2025-01-13 16:21:55.67	68.62	12.82	
2025-01-13 16:21:55.87	68.58	12.83	
2025-01-13 16:21:56.07	68.54	12.84	
2025-01-13 16:21:56.28	68.50	12.85	
2025-01-13 16:21:56.48	68.46	12.86	
2025-01-13 16:21:56.69	68.41	12.87	
2025-01-13 16:21:56.89	68.37	12.87	
2025-01-13 16:21:57.10	68.33	12.88	
2025-01-13 16:21:57.30	68.29	12.89	
2025-01-13 16:21:57.51	68.25	12.90	
2025-01-13 16:21:57.72	68.20	12.91	
2025-01-13 16:21:57.92	68.16	12.92	
2025-01-13 16:21:58.12	68.12	12.93	
2025-01-13 16:21:58.33	68.08	12.94	
2025-01-13 16:21:58.54	68.04	12.95	
2025-01-13 16:21:58.74	67.99	12.96	
2025-01-13 16:21:58.95	67.95	12.97	
2025-01-13 16:21:59.15	67.91	12.98	
2025-01-13 16:21:59.35	67.87	12.99	
2025-01-13 16:21:59.56	67.82	13.00	
2025-01-13 16:21:59.76	67.78	13.01	
2025-01-13 16:21:59.97	67.74	13.02	
2025-01-13 16:22:00.17	67.70	13.03	
2025-01-13 16:22:00.38	67.66	13.03	
2025-01-13 16:22:00.59	67.61	13.04	
2025-01-13 16:22:00.79	67.57	13.05	
2025-01-13 16:22:01.00	67.53	13.06	
2025-01-13 16:22:01.20	67.49	13.07	
2025-01-13 16:22:01.41	67.44	13.08	
2025-01-13 16:22:01.61	67.40	13.09	
2025-01-13 16:22:01.82	67.36	13.10	
2025-01-13 16:22:02.03	67.31	13.11	
2025-01-13 16:22:02.23	67.27	13.12	
2025-01-13 16:22:02.44	67.23	13.13	
2025-01-13 16:22:02.64	67.19	13.14	
2025-01-13 16:22:02.85	67.14	13.15	
2025-01-13 16:22:03.07	67.10	13.16	
2025-01-13 16:22:03.27	67.05	13.16	
2025-01-13 16:22:03.47	67.01	13.17	
2025-01-13 16:22:03.68	66.97	13.18	
2025-01-13 16:22:03.88	66.93	13.19	
2025-01-13 16:22:04.09	66.88	13.20	
2025-01-13 16:22:04.29	66.84	13.21	
2025-01-13 16:22:04.49	66.80	13.22	
2025-01-13 16:22:04.70	66.75	13.23	
2025-01-13 16:22:04.91	66.71	13.24	
2025-01-13 16:22:05.11	66.67	13.25	
2025-01-13 16:22:05.31	66.63	13.26	
2025-01-13 16:22:05.52	66.58	13.26	
2025-01-13 16:22:05.72	66.54	13.27	
2025-01-13 16:22:05.93	66.50	13.28	
2025-01-13 16:22:06.13	66.45	13.29	
2025-01-13 16:22:06.34	66.41	13.30	
2025-01-13 16:22:06.55	66.37	13.31	
2025-01-13 16:22:06.76	66.32	13.32	
2025-01-13 16:22:06.96	66.28	13.33	
2025-01-13 16:22:07.17	66.23	13.34	
2025-01-13 16:22:07.37	66.19	13.35	
2025-01-13 16:22:07.59	66.15	13.36	
2025-01-13 16:22:07.79	66.10	13.36	
2025-01-13 16:22:08.00	66.06	13.37	
2025-01-13 16:22:08.21	66.01	13.38	
2025-01-13 16:22:08.41	65.97	13.39	
2025-01-13 16:22:08.61	65.93	13.40	
2025-01-13 16:22:08.82	65.88	13.41	
2025-01-13 16:22:09.02	65.84	13.42	
2025-01-13 16:22:09.23	65.80	13.43	
2025-01-13 16:22:09.43	65.75	13.44	
2025-01-13 16:22:09.64	65.71	13.44	
2025-01-13 16:22:09.84	65.67	13.45	
2025-01-13 16:22:10.05	65.62	13.46	
2025-01-13 16:22:10.26	65.58	13.47	
2025-01-13 16:22:10.46	65.53	13.48	
2025-01-13 16:22:10.66	65.49	13.49	
2025-01-13 16:22:10.87	65.45	13.50	
2025-01-13 16:22:11.07	65.40	13.51	
2025-01-13 16:22:11.28	65.36	13.51	
2025-01-13 16:22:11.48	65.32	13.52	
2025-01-13 16:22:11.69	65.27	13.53	
2025-01-13 16:22:11.89	65.23	13.54	
2025-01-13 16:22:12.10	65.18	13.55	
2025-01-13 16:22:12.30	65.14	13.56	
2025-01-13 16:22:12.51	65.09	13.57	
2025-01-13 16:22:12.72	65.05	13.58	
2025-01-13 16:22:12.92	65.01	13.58	
2025-01-13 16:22:13.12	64.96	13.59	
2025-01-13 16:22:13.33	64.92	13.60	
2025-01-13 16:22:13.54	64.87	13.61	
2025-01-13 16:22:13.74	64.83	13.62	
2025-01-13 16:22:13.95	64.78	13.63	
2025-01-13 16:22:14.15	64.74	13.63	
2025-01-13 16:22:14.36	64.70	13.64	
2025-01-13 16:22:14.56	64.65	13.65	
2025-01-13 16:22:14.77	64.61	13.66	
2025-01-13 16:22:14.98	64.56	13.67	
2025-01-13 16:22:15.19	64.52	13.68	
2025-01-13 16:22:15.40	64.47	13.69	
2025-01-13 16:22:15.60	64.43	13.69	
2025-01-13 16:22:15.81	64.38	13.70	
2025-01-13 16:22:16.01	64.34	13.71	
2025-01-13 16:22:16.22	64.29	13.72	
2025-01-13 16:22:16.42	64.25	13.73	
2025-01-13 16:22:16.63	64.20	13.74	
2025-01-13 16:22:16.83	64.16	13.75	
2025-01-13 16:22:17.04	64.11	13.75	
2025-01-13 16:22:17.24	64.07	13.76	
2025-01-13 16:22:17.45	64.02	13.77	
2025-01-13 16:22:17.65	63.98	13.78	
2025-01-13 16:22:17.86	63.93	13.79	
2025-01-13 16:22:18.06	63.89	13.80	
2025-01-13 16:22:18.27	63.84	13.80	
2025-01-13 16:22:18.47	63.80	13.81	
2025-01-13 16:22:18.68	63.75	13.82	
2025-01-13 16:22:18.88	63.71	13.83	
2025-01-13 16:22:19.09	63.66	13.84	
2025-01-13 16:22:19.29	63.62	13.84	
2025-01-13 16:22:19.50	63.57	13.85	
2025-01-13 16:22:19.70	63.53	13.86	
2025-01-13 16:22:19.91	63.48	13.87	
2025-01-13 16:22:20.11	63.44	13.88	
2025-01-13 16:22:20.33	63.39	13.89	
2025-01-13 16:22:20.53	63.35	13.89	
2025-01-13 16:22:20.74	63.30	13.90	
2025-01-13 16:22:20.94	63.26	13.91	
2025-01-13 16:22:21.15	63.21	13.92	
2025-01-13 16:22:21.35	63.17	13.93	
2025-01-13 16:22:21.56	63.12	13.93	
2025-01-13 16:22:21.76	63.08	13.94	
2025-01-13 16:22:21.97	63.03	13.95	
2025-01-13 16:22:22.17	62.99	13.96	
2025-01-13 16:22:22.38	62.94	13.97	
2025-01-13 16:22:22.58	62.90	13.97	
2025-01-13 16:22:22.78	62.85	13.98	
2025-01-13 16:22:22.99	62.80	13.99	
2025-01-13 16:22:23.20	62.76	14.00	
2025-01-13 16:22:23.40	62.71	14.01	
2025-01-13 16:22:23.60	62.67	14.01	
2025-01-13 16:22:23.81	62.62	14.02	
2025-01-13 16:22:24.01	62.58	14.03	
2025-01-13 16:22:24.22	62.53	14.04	
2025-01-13 16:22:24.42	62.49	14.05	
2025-01-13 16:22:24.62	62.44	14.05	
2025-01-13 16:22:24.83	62.39	14.06	
2025-01-13 16:22:25.04	62.35	14.07	
2025-01-13 16:22:25.24	62.30	14.08	
2025-01-13 16:22:25.45	62.26	14.08	
2025-01-13 16:22:25.65	62.21	14.09	
2025-01-13 16:22:25.86	62.16	14.10	
2025-01-13 16:22:26.06	62.12	14.11	
2025-01-13 16:22:26.27	62.07	14.12	
2025-01-13 16:22:26.48	62.03	14.12	
2025-01-13 16:22:26.68	61.98	14.13	
2025-01-13 16:22:26.90	61.93	14.14	
2025-01-13 16:22:27.10	61.89	14.15	
2025-01-13 16:22:27.31	61.84	14.15	
2025-01-13 16:22:27.51	61.79	14.16	
2025-01-13 16:22:27.72	61.75	14.17	
2025-01-13 16:22:27.94	61.70	14.18	
2025-01-13 16:22:28.14	61.65	14.19	
2025-01-13 16:22:28.35	61.61	14.19	
2025-01-13 16:22:28.55	61.56	14.20	
2025-01-13 16:22:28.76	61.51	14.21	
2025-01-13 16:22:28.96	61.47	14.22	
2025-01-13 16:22:29.16	61.42	14.22	
2025-01-13 16:22:29.37	61.38	14.23	
2025-01-13 16:22:29.58	61.33	14.24	
2025-01-13 16:22:29.78	61.28	14.25	
2025-01-13 16:22:30.00	61.23	14.25	
2025-01-13 16:22:30.21	61.19	14.26	
2025-01-13 16:22:30.41	61.14	14.27	
2025-01-13 16:22:30.62	61.09	14.28	
2025-01-13 16:22:30.82	61.05	14.28	
2025-01-13 16:22:31.02	61.00	14.29	
2025-01-13 16:22:31.23	60.96	14.30	
2025-01-13 16:22:31.44	60.91	14.31	
2025-01-13 16:22:31.64	60.86	14.31	
2025-01-13 16:22:31.85	60.81	14.32	
2025-01-13 16:22:32.05	60.77	14.33	
2025-01-13 16:22:32.25	60.72	14.33	
2025-01-13 16:22:32.46	60.68	14.34	
2025-01-13 16:22:32.67	60.63	14.35	
2025-01-13 16:22:32.87	60.58	14.36	
2025-01-13 16:22:33.08	60.53	14.36	
2025-01-13 16:22:33.28	60.49	14.37	
2025-01-13 16:22:33.48	60.44	14.38	
2025-01-13 16:22:33.69	60.40	14.39	
2025-01-13 16:22:33.89	60.35	14.39	
2025-01-13 16:22:34.10	60.30	14.40	
2025-01-13 16:22:34.30	60.26	14.41	
2025-01-13 16:22:34.51	60.21	14.41	
2025-01-13 16:22:34.71	60.16	14.42	
2025-01-13 16:22:34.92	60.11	14.43	
2025-01-13 16:22:35.12	60.07	14.44	
2025-01-13 16:22:35.34	60.02	14.44	
2025-01-13 16:22:35.55	59.97	14.45	
2025-01-13 16:22:35.75	59.92	14.46	
2025-01-13 16:22:35.95	59.88	14.46	
2025-01-13 16:22:36.16	59.83	14.47	
2025-01-13 16:22:36.36	59.78	14.48	
2025-01-13 16:22:36.57	59.74	14.48	
2025-01-13 16:22:36.77	59.69	14.49	
2025-01-13 16:22:36.98	59.64	14.50	
2025-01-13 16:22:37.18	59.60	14.51	
2025-01-13 16:22:37.39	59.55	14.51	
2025-01-13 16:22:37.59	59.50	14.52	
2025-01-13 16:22:37.80	59.45	14.53	
2025-01-13 16:22:38.01	59.40	14.53	
2025-01-13 16:22:38.21	59.36	14.54	
2025-01-13 16:22:38.42	59.31	14.55	
2025-01-13 16:22:38.63	59.26	14.55	
2025-01-13 16:22:38.84	59.21	14.56	
2025-01-13 16:22:39.04	59.17	14.57	
2025-01-13 16:22:39.25	59.12	14.57	
2025-01-13 16:22:39.45	59.07	14.58	
2025-01-13 16:22:39.66	59.02	14.59	
2025-01-13 16:22:39.86	58.98	14.59	
2025-01-13 16:22:40.07	58.93	14.60	
2025-01-13 16:22:40.27	58.88	14.61	
2025-01-13 16:22:40.48	58.83	14.61	
2025-01-13 16:22:40.68	58.79	14.62	
2025-01-13 16:22:40.89	58.74	14.63	
2025-01-13 16:22:41.09	58.69	14.63	
2025-01-13 16:22:41.30	58.64	14.64	
2025-01-13 16:22:41.50	58.60	14.65	
2025-01-13 16:22:41.71	58.55	14.65	
2025-01-13 16:22:41.91	58.50	14.66	
2025-01-13 16:22:42.11	58.45	14.67	
2025-01-13 16:22:42.32	58.40	14.67	
2025-01-13 16:22:42.52	58.36	14.68	
2025-01-13 16:22:42.73	58.31	14.69	
2025-01-13 16:22:42.93	58.26	14.69	
2025-01-13 16:22:43.14	58.21	14.70	
2025-01-13 16:22:43.34	58.17	14.70	
2025-01-13 16:22:43.55	58.12	14.71	
2025-01-13 16:22:43.75	58.07	14.72	
2025-01-13 16:22:43.96	58.02	14.72	
2025-01-13 16:22:44.16	57.97	14.73	
2025-01-13 16:22:44.37	57.93	14.74	
2025-01-13 16:22:44.58	57.88	14.74	
2025-01-13 16:22:44.78	57.83	14.75	
2025-01-13 16:22:44.99	57.78	14.76	
2025-01-13 16:22:45.19	57.73	14.76	
2025-01-13 16:22:45.40	57.68	14.77	
2025-01-13 16:22:45.60	57.64	14.77	
2025-01-13 16:22:45.81	57.59	14.78	
2025-01-13 16:22:46.03	57.54	14.79	
2025-01-13 16:22:46.23	57.49	14.79	
2025-01-13 16:22:46.44	57.44	14.80	
2025-01-13 16:22:46.64	57.39	14.81	
2025-01-13 16:22:46.85	57.34	14.81	
2025-01-13 16:22:47.06	57.29	14.82	
2025-01-13 16:22:47.26	57.25	14.82	
2025-01-13 16:22:47.46	57.20	14.83	
2025-01-13 16:22:47.67	57.15	14.84	
2025-01-13 16:22:47.88	57.10	14.84	
2025-01-13 16:22:48.08	57.05	14.85	
2025-01-13 16:22:48.30	57.00	14.85	
2025-01-13 16:22:48.51	56.95	14.86	
2025-01-13 16:22:48.71	56.90	14.87	
2025-01-13 16:22:48.92	56.85	14.87	
2025-01-13 16:22:49.12	56.81	14.88	
2025-01-13 16:22:49.33	56.76	14.88	
2025-01-13 16:22:49.53	56.71	14.89	
2025-01-13 16:22:49.74	56.66	14.90	
2025-01-13 16:22:49.94	56.61	14.90	
2025-01-13 16:22:50.15	56.56	14.91	
2025-01-13 16:22:50.35	56.52	14.91	
2025-01-13 16:22:50.56	56.47	14.92	
2025-01-13 16:22:50.76	56.42	14.92	
2025-01-13 16:22:50.97	56.37	14.93	
2025-01-13 16:22:51.17	56.32	14.94	
2025-01-13 16:22:51.38	56.27	14.94	
2025-01-13 16:22:51.58	56.22	14.95	
2025-01-13 16:22:51.79	56.17	14.95	
2025-01-13 16:22:52.00	56.12	14.96	
2025-01-13 16:22:52.20	56.08	14.96	
2025-01-13 16:22:52.40	56.03	14.97	
2025-01-13 16:22:52.61	55.98	14.98	
2025-01-13 16:22:52.82	55.93	14.98	
2025-01-13 16:22:53.02	55.88	14.99	
2025-01-13 16:22:53.23	55.83	14.99	
2025-01-13 16:22:53.43	55.78	15.00	
2025-01-13 16:22:53.63	55.74	15.00	
2025-01-13 16:22:53.84	55.69	15.01	
2025-01-13 16:22:54.04	55.64	15.01	
2025-01-13 16:22:54.25	55.59	15.02	
2025-01-13 16:22:54.45	55.54	15.03	
2025-01-13 16:22:54.66	55.49	15.03	
2025-01-13 16:22:54.86	55.44	15.04	
2025-01-13 16:22:55.07	55.39	15.04	
2025-01-13 16:22:55.28	55.34	15.05	
2025-01-13 16:22:55.48	55.29	15.05	
2025-01-13 16:22:55.69	55.24	15.06	
2025-01-13 16:22:55.89	55.20	15.06	
2025-01-13 16:22:56.10	55.15	15.07	
2025-01-13 16:22:56.30	55.10	15.07	
2025-01-13 16:22:56.51	55.05	15.08	
2025-01-13 16:22:56.71	55.00	15.08	
2025-01-13 16:22:56.92	54.95	15.09	
2025-01-13 16:22:57.12	54.90	15.09	
2025-01-13 16:22:57.33	54.85	15.10	
2025-01-13 16:22:57.53	54.80	15.10	
2025-01-13 16:22:57.73	54.75	15.11	
2025-01-13 16:22:57.94	54.70	15.12	
2025-01-13 16:22:58.15	54.65	15.12	
2025-01-13 16:22:58.35	54.60	15.13	
2025-01-13 16:22:58.56	54.55	15.13	
2025-01-13 16:22:58.76	54.51	15.14	
2025-01-13 16:22:58.97	54.46	15.14	
2025-01-13 16:22:59.17	54.41	15.15	
2025-01-13 16:22:59.38	54.36	15.15	
2025-01-13 16:22:59.58	54.31	15.16	
2025-01-13 16:22:59.79	54.26	15.16	
2025-01-13 16:23:00.00	54.21	15.17	
2025-01-13 16:23:00.21	54.16	15.17	
2025-01-13 16:23:00.41	54.11	15.18	
2025-01-13 16:23:00.62	54.06	15.18	
2025-01-13 16:23:00.82	54.01	15.18	
2025-01-13 16:23:01.04	53.96	15.19	
2025-01-13 16:23:01.25	53.90	15.20	
2025-01-13 16:23:01.45	53.86	15.20	
2025-01-13 16:23:01.66	53.81	15.20	
2025-01-13 16:23:01.86	53.76	15.21	
2025-01-13 16:23:02.06	53.71	15.21	
2025-01-13 16:23:02.27	53.66	15.22	
2025-01-13 16:23:02.47	53.61	15.22	
2025-01-13 16:23:02.68	53.56	15.23	
2025-01-13 16:23:02.88	53.51	15.23	
2025-01-13 16:23:03.09	53.46	15.24	
2025-01-13 16:23:03.29	53.41	15.24	
2025-01-13 16:23:03.50	53.36	15.25	
2025-01-13 16:23:03.71	53.31	15.25	
2025-01-13 16:23:03.91	53.26	15.26	
2025-01-13 16:23:04.12	53.21	15.26	
2025-01-13 16:23:04.32	53.16	15.26	
2025-01-13 16:23:04.53	53.11	15.27	
2025-01-13 16:23:04.73	53.06	15.27	
2025-01-13 16:23:04.94	53.01	15.28	
2025-01-13 16:23:05.15	52.96	15.28	
2025-01-13 16:23:05.36	52.91	15.29	
2025-01-13 16:23:05.57	52.86	15.29	
2025-01-13 16:23:05.77	52.81	15.30	
2025-01-13 16:23:05.98	52.76	15.30	
2025-01-13 16:23:06.18	52.71	15.30	
2025-01-13 16:23:06.39	52.66	15.31	
2025-01-13 16:23:06.59	52.61	15.31	
2025-01-13 16:23:06.80	52.56	15.32	
2025-01-13 16:23:07.00	52.51	15.32	
2025-01-13 16:23:07.21	52.46	15.33	
2025-01-13 16:23:07.42	52.40	15.33	
2025-01-13 16:23:07.63	52.35	15.33	
2025-01-13 16:23:07.83	52.30	15.34	
2025-01-13 16:23:08.04	52.25	15.34	
2025-01-13 16:23:08.24	52.20	15.35	
2025-01-13 16:23:08.45	52.15	15.35	
2025-01-13 16:23:08.65	52.10	15.36	
2025-01-13 16:23:08.86	52.05	15.36	
2025-01-13 16:23:09.06	52.00	15.36	
2025-01-13 16:23:09.27	51.95	15.37	
2025-01-13 16:23:09.47	51.90	15.37	
2025-01-13 16:23:09.68	51.85	15.38	
2025-01-13 16:23:09.88	51.80	15.38	
2025-01-13 16:23:10.09	51.75	15.38	
2025-01-13 16:23:10.29	51.70	15.39	
2025-01-13 16:23:10.50	51.65	15.39	
2025-01-13 16:23:10.70	51.60	15.40	
2025-01-13 16:23:10.91	51.55	15.40	
2025-01-13 16:23:11.11	51.50	15.40	
2025-01-13 16:23:11.32	51.45	15.41	
2025-01-13 16:23:11.52	51.40	15.41	
2025-01-13 16:23:11.73	51.35	15.41	
2025-01-13 16:23:11.93	51.30	15.42	
2025-01-13 16:23:12.14	51.25	15.42	
2025-01-13 16:23:12.34	51.20	15.43	
2025-01-13 16:23:12.55	51.15	15.43	
2025-01-13 16:23:12.75	51.10	15.43	
2025-01-13 16:23:12.96	51.05	15.44	
2025-01-13 16:23:13.16	51.00	15.44	
2025-01-13 16:23:13.37	50.95	15.44	
2025-01-13 16:23:13.57	50.90	15.45	
2025-01-13 16:23:13.77	50.85	15.45	
2025-01-13 16:23:13.98	50.79	15.45	
2025-01-13 16:23:14.19	50.74	15.46	
2025-01-13 16:23:14.39	50.69	15.46	
2025-01-13 16:23:14.60	50.64	15.46	
2025-01-13 16:23:14.80	50.59	15.47	
2025-01-13 16:23:15.00	50.54	15.47	
2025-01-13 16:23:15.21	50.49	15.48	
2025-01-13 16:23:15.42	50.44	15.48	
2025-01-13 16:23:15.62	50.39	15.48	
2025-01-13 16:23:15.83	50.34	15.49	
2025-01-13 16:23:16.05	50.28	15.49	
2025-01-13 16:23:16.25	50.23	15.49	
2025-01-13 16:23:16.46	50.18	15.50	
2025-01-13 16:23:16.66	50.13	15.50	
2025-01-13 16:23:16.87	50.08	15.50	
2025-01-13 16:23:17.07	50.03	15.51	
2025-01-13 16:23:17.27	49.98	15.51	
2025-01-13 16:23:17.48	49.93	15.51	
2025-01-13 16:23:17.68	49.88	15.51	
2025-01-13 16:23:17.89	49.83	15.52	
2025-01-13 16:23:18.09	49.78	15.52	
2025-01-13 16:23:18.30	49.73	15.52	
2025-01-13 16:23:18.51	49.68	15.53	
2025-01-13 16:23:18.71	49.63	15.53	
2025-01-13 16:23:18.91	49.58	15.53	
2025-01-13 16:23:19.12	49.52	15.54	
2025-01-13 16:23:19.32	49.47	15.54	
2025-01-13 16:23:19.53	49.42	15.54	
2025-01-13 16:23:19.73	49.37	15.55	
2025-01-13 16:23:19.94	49.32	15.55	
2025-01-13 16:23:20.14	49.27	15.55	
2025-01-13 16:23:20.35	49.22	15.55	
2025-01-13 16:23:20.55	49.17	15.56	
2025-01-13 16:23:20.76	49.12	15.56	
2025-01-13 16:23:20.96	49.07	15.56	
2025-01-13 16:23:21.17	49.02	15.57	
2025-01-13 16:23:21.37	48.97	15.57	
2025-01-13 16:23:21.58	48.91	15.57	
2025-01-13 16:23:21.79	48.86	15.57	
2025-01-13 16:23:21.99	48.81	15.58	
2025-01-13 16:23:22.20	48.76	15.58	
2025-01-13 16:23:22.40	48.71	15.58	
2025-01-13 16:23:22.61	48.66	15.58	
2025-01-13 16:23:22.81	48.61	15.59	
2025-01-13 16:23:23.02	48.56	15.59	
2025-01-13 16:23:23.22	48.51	15.59	
2025-01-13 16:23:23.42	48.46	15.60	
2025-01-13 16:23:23.63	48.40	15.60	
2025-01-13 16:23:23.83	48.35	15.60	
2025-01-13 16:23:24.04	48.30	15.60	
2025-01-13 16:23:24.25	48.25	15.61	
2025-01-13 16:23:24.45	48.20	15.61	
2025-01-13 16:23:24.65	48.15	15.61	
2025-01-13 16:23:24.86	48.10	15.61	
2025-01-13 16:23:25.06	48.05	15.62	
2025-01-13 16:23:25.27	48.00	15.62	
2025-01-13 16:23:25.48	47.94	15.62	
2025-01-13 16:23:25.68	47.89	15.62	
2025-01-13 16:23:25.89	47.84	15.62	
2025-01-13 16:23:26.09	47.79	15.63	
2025-01-13 16:23:26.30	47.74	15.63	
2025-01-13 16:23:26.50	47.69	15.63	
2025-01-13 16:23:26.72	47.63	15.63	
2025-01-13 16:23:26.92	47.58	15.64	
2025-01-13 16:23:27.13	47.53	15.64	
2025-01-13 16:23:27.33	47.48	15.64	
2025-01-13 16:23:27.54	47.43	15.64	
2025-01-13 16:23:27.74	47.38	15.64	
2025-01-13 16:23:27.95	47.33	15.65	
2025-01-13 16:23:28.15	47.28	15.65	
2025-01-13 16:23:28.36	47.22	15.65	
2025-01-13 16:23:28.57	47.17	15.65	
2025-01-13 16:23:28.77	47.12	15.66	
2025-01-13 16:23:28.98	47.07	15.66	
2025-01-13 16:23:29.18	47.02	15.66	
2025-01-13 16:23:29.39	46.97	15.66	
2025-01-13 16:23:29.59	46.92	15.66	
2025-01-13 16:23:29.80	46.86	15.66	
2025-01-13 16:23:30.00	46.81	15.67	
2025-01-13 16:23:30.21	46.76	15.67	
2025-01-13 16:23:30.42	46.71	15.67	
2025-01-13 16:23:30.62	46.66	15.67	
2025-01-13 16:23:30.82	46.61	15.67	
2025-01-13 16:23:31.03	46.56	15.68	
2025-01-13 16:23:31.23	46.51	15.68	
2025-01-13 16:23:31.44	46.45	15.68	
2025-01-13 16:23:31.64	46.40	15.68	
2025-01-13 16:23:31.85	46.35	15.68	
2025-01-13 16:23:32.05	46.30	15.68	
2025-01-13 16:23:32.26	46.25	15.69	
2025-01-13 16:23:32.46	46.20	15.69	
2025-01-13 16:23:32.67	46.15	15.69	
2025-01-13 16:23:32.87	46.10	15.69	
2025-01-13 16:23:33.08	46.04	15.69	
2025-01-13 16:23:33.28	45.99	15.69	
2025-01-13 16:23:33.49	45.94	15.70	
2025-01-13 16:23:33.70	45.89	15.70	
2025-01-13 16:23:33.90	45.84	15.70	
2025-01-13 16:23:34.10	45.79	15.70	
2025-01-13 16:23:34.31	45.74	15.70	
2025-01-13 16:23:34.51	45.68	15.70	
2025-01-13 16:23:34.72	45.63	15.70	
2025-01-13 16:23:34.92	45.58	15.71	
2025-01-13 16:23:35.12	45.53	15.71	
2025-01-13 16:23:35.33	45.48	15.71	
2025-01-13 16:23:35.53	45.43	15.71	
2025-01-13 16:23:35.74	45.38	15.71	
2025-01-13 16:23:35.94	45.33	15.71	
2025-01-13 16:23:36.15	45.27	15.71	
2025-01-13 16:23:36.35	45.22	15.71	
2025-01-13 16:23:36.56	45.17	15.72	
2025-01-13 16:23:36.76	45.12	15.72	
2025-01-13 16:23:36.97	45.07	15.72	
2025-01-13 16:23:37.17	45.02	15.72	
2025-01-13 16:23:37.38	44.96	15.72	
2025-01-13 16:23:37.58	44.91	15.72	
2025-01-13 16:23:37.79	44.86	15.72	
2025-01-13 16:23:37.99	44.81	15.72	
2025-01-13 16:23:38.20	44.76	15.72	
2025-01-13 16:23:38.40	44.71	15.73	
2025-01-13 16:23:38.61	44.66	15.73	
2025-01-13 16:23:38.81	44.61	15.73	
2025-01-13 16:23:39.02	44.55	15.73	
2025-01-13 16:23:39.22	44.50	15.73	
2025-01-13 16:23:39.43	44.45	15.73	
2025-01-13 16:23:39.63	44.40	15.73	
2025-01-13 16:23:39.84	44.35	15.73	
2025-01-13 16:23:40.06	44.29	15.73	
2025-01-13 16:23:40.26	44.24	15.73	
2025-01-13 16:23:40.47	44.19	15.73	
2025-01-13 16:23:40.67	44.14	15.73	
2025-01-13 16:23:40.88	44.09	15.74	
2025-01-13 16:23:41.08	44.04	15.74	
2025-01-13 16:23:41.29	43.98	15.74	
2025-01-13 16:23:41.49	43.93	15.74	
2025-01-13 16:23:41.71	43.88	15.74	
2025-01-13 16:23:41.92	43.82	15.74	
2025-01-13 16:23:42.12	43.77	15.74	
2025-01-13 16:23:42.33	43.72	15.74	
2025-01-13 16:23:42.53	43.67	15.74	
2025-01-13 16:23:42.75	43.62	15.74	
2025-01-13 16:23:42.96	43.56	15.74	
2025-01-13 16:23:43.16	43.51	15.74	
2025-01-13 16:23:43.37	43.46	15.74	
2025-01-13 16:23:43.57	43.41	15.74	
2025-01-13 16:23:43.78	43.36	15.74	
2025-01-13 16:23:43.98	43.31	15.74	
2025-01-13 16:23:44.19	43.25	15.74	
2025-01-13 16:23:44.39	43.20	15.74	
2025-01-13 16:23:44.60	43.15	15.74	
2025-01-13 16:23:44.80	43.10	15.74	
2025-01-13 16:23:45.01	43.05	15.74	
2025-01-13 16:23:45.21	43.00	15.75	
2025-01-13 16:23:45.42	42.94	15.75	
2025-01-13 16:23:45.63	42.89	15.75	
2025-01-13 16:23:45.83	42.84	15.75	
2025-01-13 16:23:46.04	42.79	15.75	
2025-01-13 16:23:46.24	42.74	15.75	
2025-01-13 16:23:46.45	42.69	15.75	
2025-01-13 16:23:46.65	42.63	15.75	
2025-01-13 16:23:46.86	42.58	15.75	
2025-01-13 16:23:47.06	42.53	15.75	
2025-01-13 16:23:47.26	42.48	15.75	
2025-01-13 16:23:47.47	42.43	15.75	
2025-01-13 16:23:47.68	42.38	15.75	
2025-01-13 16:23:47.88	42.33	15.75	
2025-01-13 16:23:48.10	42.27	15.75	
2025-01-13 16:23:48.31	42.22	15.75	
2025-01-13 16:23:48.51	42.17	15.75	
2025-01-13 16:23:48.72	42.11	15.75	
2025-01-13 16:23:48.92	42.06	15.75	
2025-01-13 16:23:49.13	42.01	15.75	
2025-01-13 16:23:49.33	41.96	15.75	
2025-01-13 16:23:49.54	41.91	15.75	
2025-01-13 16:23:49.74	41.86	15.74	
2025-01-13 16:23:49.95	41.81	15.74	
2025-01-13 16:23:50.15	41.75	15.74	
2025-01-13 16:23:50.36	41.70	15.74	
2025-01-13 16:23:50.56	41.65	15.74	
2025-01-13 16:23:50.77	41.60	15.74	
2025-01-13 16:23:50.97	41.55	15.74	
2025-01-13 16:23:51.19	41.49	15.74	
2025-01-13 16:23:51.40	41.44	15.74	
2025-01-13 16:23:51.60	41.39	15.74	
2025-01-13 16:23:51.80	41.34	15.74	
2025-01-13 16:23:52.01	41.29	15.74	
2025-01-13 16:23:52.21	41.24	15.74	
2025-01-13 16:23:52.42	41.18	15.74	
2025-01-13 16:23:52.62	41.13	15.74	
2025-01-13 16:23:52.83	41.08	15.74	
2025-01-13 16:23:53.03	41.03	15.74	
2025-01-13 16:23:53.24	40.98	15.74	
2025-01-13 16:23:53.44	40.93	15.74	
2025-01-13 16:23:53.65	40.88	15.74	
2025-01-13 16:23:53.85	40.82	15.74	
2025-01-13 16:23:54.06	40.77	15.73	
2025-01-13 16:23:54.26	40.72	15.73	
2025-01-13 16:23:54.47	40.67	15.73	
2025-01-13 16:23:54.67	40.62	15.73	
2025-01-13 16:23:54.88	40.57	15.73	
2025-01-13 16:23:55.08	40.52	15.73	
2025-01-13 16:23:55.29	40.46	15.73	
2025-01-13 16:23:55.49	40.41	15.73	
2025-01-13 16:23:55.70	40.36	15.73	
2025-01-13 16:23:55.90	40.31	15.73	
2025-01-13 16:23:56.11	40.26	15.73	
2025-01-13 16:23:56.31	40.21	15.73	
2025-01-13 16:23:56.52	40.15	15.72	
2025-01-13 16:23:56.72	40.10	15.72	
2025-01-13 16:23:56.93	40.05	15.72	
2025-01-13 16:23:57.13	40.00	15.72	
2025-01-13 16:23:57.34	39.95	15.72	
2025-01-13 16:23:57.54	39.90	15.72	
2025-01-13 16:23:57.75	39.85	15.72	
2025-01-13 16:23:57.95	39.80	15.72	
2025-01-13 16:23:58.16	39.74	15.72	
2025-01-13 16:23:58.36	39.69	15.71	
2025-01-13 16:23:58.57	39.64	15.71	
2025-01-13 16:23:58.77	39.59	15.71	
2025-01-13 16:23:58.98	39.54	15.71	
2025-01-13 16:23:59.18	39.49	15.71	
2025-01-13 16:23:59.39	39.43	15.71	
2025-01-13 16:23:59.59	39.38	15.71	
2025-01-13 16:23:59.80	39.33	15.71	
2025-01-13 16:24:00.00	39.28	15.70	
2025-01-13 16:24:00.20	39.23	15.70	
2025-01-13 16:24:00.41	39.18	15.70	
2025-01-13 16:24:00.62	39.13	15.70	
2025-01-13 16:24:00.82	39.08	15.70	
2025-01-13 16:24:01.02	39.03	15.70	
2025-01-13 16:24:01.23	38.97	15.70	
2025-01-13 16:24:01.44	38.92	15.69	
2025-01-13 16:24:01.64	38.87	15.69	
2025-01-13 16:24:01.84	38.82	15.69	
2025-01-13 16:24:02.05	38.77	15.69	
2025-01-13 16:24:02.25	38.72	15.69	
2025-01-13 16:24:02.46	38.66	15.69	
2025-01-13 16:24:02.67	38.61	15.68	
2025-01-13 16:24:02.87	38.56	15.68	
2025-01-13 16:24:03.07	38.51	15.68	
2025-01-13 16:24:03.28	38.46	15.68	
2025-01-13 16:24:03.49	38.41	15.68	
2025-01-13 16:24:03.69	38.36	15.68	
2025-01-13 16:24:03.90	38.30	15.67	
2025-01-13 16:24:04.10	38.25	15.67	
2025-01-13 16:24:04.31	38.20	15.67	
2025-01-13 16:24:04.51	38.15	15.67	
2025-01-13 16:24:04.72	38.10	15.67	
2025-01-13 16:24:04.93	38.05	15.67	
2025-01-13 16:24:05.13	38.00	15.66	
2025-01-13 16:24:05.34	37.94	15.66	
2025-01-13 16:24:05.54	37.89	15.66	
2025-01-13 16:24:05.75	37.84	15.66	
2025-01-13 16:24:05.95	37.79	15.66	
2025-01-13 16:24:06.15	37.74	15.65	
2025-01-13 16:24:06.36	37.69	15.65	
2025-01-13 16:24:06.57	37.64	15.65	
2025-01-13 16:24:06.77	37.59	15.65	
2025-01-13 16:24:06.98	37.54	15.65	
2025-01-13 16:24:07.18	37.49	15.64	
2025-01-13 16:24:07.39	37.43	15.64	
2025-01-13 16:24:07.60	37.38	15.64	
2025-01-13 16:24:07.80	37.33	15.64	
2025-01-13 16:24:08.01	37.28	15.63	
2025-01-13 16:24:08.21	37.23	15.63	
2025-01-13 16:24:08.41	37.18	15.63	
2025-01-13 16:24:08.62	37.13	15.63	
2025-01-13 16:24:08.82	37.08	15.63	
2025-01-13 16:24:09.03	37.02	15.62	
2025-01-13 16:24:09.24	36.97	15.62	
2025-01-13 16:24:09.44	36.92	15.62	
2025-01-13 16:24:09.65	36.87	15.62	
2025-01-13 16:24:09.85	36.82	15.61	
2025-01-13 16:24:10.06	36.77	15.61	
2025-01-13 16:24:10.26	36.72	15.61	
2025-01-13 16:24:10.48	36.66	15.61	
2025-01-13 16:24:10.68	36.61	15.60	
2025-01-13 16:24:10.89	36.56	15.60	
2025-01-13 16:24:11.09	36.51	15.60	
2025-01-13 16:24:11.30	36.46	15.60	
2025-01-13 16:24:11.50	36.41	15.59	
2025-01-13 16:24:11.71	36.36	15.59	
2025-01-13 16:24:11.92	36.30	15.59	
2025-01-13 16:24:12.12	36.26	15.59	
2025-01-13 16:24:12.33	36.20	15.58	
2025-01-13 16:24:12.53	36.15	15.58	
2025-01-13 16:24:12.74	36.10	15.58	
2025-01-13 16:24:12.94	36.05	15.57	
2025-01-13 16:24:13.15	36.00	15.57	
2025-01-13 16:24:13.35	35.95	15.57	
2025-01-13 16:24:13.56	35.90	15.57	
2025-01-13 16:24:13.76	35.85	15.56	
2025-01-13 16:24:13.97	35.80	15.56	
2025-01-13 16:24:14.18	35.74	15.56	
2025-01-13 16:24:14.38	35.69	15.55	
2025-01-13 16:24:14.59	35.64	15.55	
2025-01-13 16:24:14.79	35.59	15.55	
2025-01-13 16:24:15.00	35.54	15.55	
2025-01-13 16:24:15.20	35.49	15.54	
2025-01-13 16:24:15.41	35.44	15.54	
2025-01-13 16:24:15.62	35.39	15.54	
2025-01-13 16:24:15.82	35.34	15.53	
2025-01-13 16:24:16.02	35.29	15.53	
2025-01-13 16:24:16.23	35.24	15.53	
2025-01-13 16:24:16.44	35.18	15.52	
2025-01-13 16:24:16.64	35.13	15.52	
2025-01-13 16:24:16.86	35.08	15.52	
2025-01-13 16:24:17.06	35.03	15.52	
2025-01-13 16:24:17.27	34.98	15.51	
2025-01-13 16:24:17.47	34.93	15.51	
2025-01-13 16:24:17.68	34.88	15.51	
2025-01-13 16:24:17.88	34.83	15.50	
2025-01-13 16:24:18.09	34.78	15.50	
2025-01-13 16:24:18.29	34.73	15.50	
2025-01-13 16:24:18.50	34.68	15.49	
2025-01-13 16:24:18.71	34.62	15.49	
2025-01-13 16:24:18.91	34.57	15.49	
2025-01-13 16:24:19.11	34.52	15.48	
2025-01-13 16:24:19.32	34.47	15.48	
2025-01-13 16:24:19.53	34.42	15.48	
2025-01-13 16:24:19.73	34.37	15.47	
2025-01-13 16:24:19.94	34.32	15.47	
2025-01-13 16:24:20.16	34.27	15.47	
2025-01-13 16:24:20.36	34.22	15.46	
2025-01-13 16:24:20.57	34.16	15.46	
2025-01-13 16:24:20.78	34.11	15.45	
2025-01-13 16:24:20.98	34.06	15.45	
2025-01-13 16:24:21.20	34.01	15.45	
2025-01-13 16:24:21.40	33.96	15.44	
2025-01-13 16:24:21.61	33.91	15.44	
2025-01-13 16:24:21.81	33.86	15.44	
2025-01-13 16:24:22.02	33.81	15.43	
2025-01-13 16:24:22.24	33.75	15.43	
2025-01-13 16:24:22.44	33.71	15.43	
2025-01-13 16:24:22.65	33.65	15.42	
2025-01-13 16:24:22.85	33.60	15.42	
2025-01-13 16:24:23.06	33.55	15.41	
2025-01-13 16:24:23.28	33.50	15.41	
2025-01-13 16:24:23.48	33.45	15.41	
2025-01-13 16:24:23.69	33.40	15.40	
2025-01-13 16:24:23.89	33.35	15.40	
2025-01-13 16:24:24.10	33.30	15.39	
2025-01-13 16:24:24.30	33.25	15.39	
2025-01-13 16:24:24.50	33.20	15.39	
2025-01-13 16:24:24.71	33.15	15.38	
2025-01-13 16:24:24.92	33.10	15.38	
2025-01-13 16:24:25.12	33.05	15.37	
2025-01-13 16:24:25.32	33.00	15.37	
2025-01-13 16:24:25.53	32.95	15.37	
2025-01-13 16:24:25.73	32.90	15.36	
2025-01-13 16:24:25.94	32.85	15.36	
2025-01-13 16:24:26.14	32.80	15.35	
2025-01-13 16:24:26.35	32.75	15.35	
2025-01-13 16:24:26.55	32.70	15.35	
2025-01-13 16:24:26.76	32.65	15.34	
2025-01-13 16:24:26.96	32.60	15.34	
2025-01-13 16:24:27.17	32.55	15.33	
2025-01-13 16:24:27.37	32.50	15.33	
2025-01-13 16:24:27.59	32.44	15.33	
2025-01-13 16:24:27.79	32.40	15.32	
2025-01-13 16:24:28.00	32.34	15.32	
2025-01-13 16:24:28.20	32.30	15.31	
2025-01-13 16:24:28.41	32.25	15.31	
2025-01-13 16:24:28.61	32.20	15.30	
2025-01-13 16:24:28.82	32.15	15.30	
2025-01-13 16:24:29.02	32.10	15.30	
2025-01-13 16:24:29.23	32.05	15.29	
2025-01-13 16:24:29.44	31.99	15.29	
2025-01-13 16:24:29.64	31.95	15.28	
2025-01-13 16:24:29.84	31.90	15.28	
2025-01-13 16:24:30.05	31.85	15.27	
2025-01-13 16:24:30.26	31.80	15.27	
2025-01-13 16:24:30.46	31.75	15.26	
2025-01-13 16:24:30.67	31.70	15.26	
2025-01-13 16:24:30.87	31.65	15.26	
2025-01-13 16:24:31.07	31.60	15.25	
2025-01-13 16:24:31.28	31.55	15.25	
2025-01-13 16:24:31.48	31.50	15.24	
2025-01-13 16:24:31.69	31.45	15.24	
2025-01-13 16:24:31.89	31.40	15.23	
2025-01-13 16:24:32.10	31.35	15.23	
2025-01-13 16:24:32.30	31.30	15.22	
2025-01-13 16:24:32.51	31.25	15.22	
2025-01-13 16:24:32.72	31.20	15.21	
2025-01-13 16:24:32.92	31.15	15.21	
2025-01-13 16:24:33.13	31.10	15.20	
2025-01-13 16:24:33.33	31.05	15.20	
2025-01-13 16:24:33.54	31.00	15.19	
2025-01-13 16:24:33.74	30.95	15.19	
2025-01-13 16:24:33.95	30.90	15.19	
2025-01-13 16:24:34.15	30.85	15.18	
2025-01-13 16:24:34.36	30.80	15.18	
2025-01-13 16:24:34.56	30.75	15.17	
2025-01-13 16:24:34.77	30.70	15.17	
2025-01-13 16:24:34.97	30.66	15.16	
2025-01-13 16:24:35.18	30.61	15.16	
2025-01-13 16:24:35.38	30.56	15.15	
2025-01-13 16:24:35.59	30.51	15.15	
2025-01-13 16:24:35.79	30.46	15.14	
2025-01-13 16:24:36.00	30.41	15.14	
2025-01-13 16:24:36.20	30.36	15.13	
2025-01-13 16:24:36.41	30.31	15.13	
2025-01-13 16:24:36.61	30.26	15.12	
2025-01-13 16:24:36.82	30.21	15.12	
2025-01-13 16:24:37.02	30.16	15.11	
2025-01-13 16:24:37.23	30.11	15.11	
2025-01-13 16:24:37.43	30.06	15.10	
2025-01-13 16:24:37.64	30.01	15.10	
2025-01-13 16:24:37.84	29.97	15.09	
2025-01-13 16:24:38.05	29.92	15.08	
2025-01-13 16:24:38.26	29.87	15.08	
2025-01-13 16:24:38.46	29.82	15.07	
2025-01-13 16:24:38.67	29.77	15.07	
2025-01-13 16:24:38.87	29.72	15.06	
2025-01-13 16:24:39.08	29.67	15.06	
2025-01-13 16:24:39.28	29.62	15.05	
2025-01-13 16:24:39.49	29.57	15.05	
2025-01-13 16:24:39.69	29.52	15.04	
2025-01-13 16:24:39.90	29.47	15.04	
2025-01-13 16:24:40.10	29.43	15.03	
2025-01-13 16:24:40.32	29.37	15.03	
2025-01-13 16:24:40.53	29.32	15.02	
2025-01-13 16:24:40.73	29.28	15.02	
2025-01-13 16:24:40.94	29.23	15.01	
2025-01-13 16:24:41.14	29.18	15.00	
2025-01-13 16:24:41.35	29.13	15.00	
2025-01-13 16:24:41.55	29.08	14.99	
2025-01-13 16:24:41.76	29.03	14.99	
2025-01-13 16:24:41.96	28.98	14.98	
2025-01-13 16:24:42.17	28.93	14.98	
2025-01-13 16:24:42.37	28.89	14.97	
2025-01-13 16:24:42.58	28.84	14.97	
2025-01-13 16:24:42.78	28.79	14.96	
2025-01-13 16:24:42.99	28.74	14.95	
2025-01-13 16:24:43.19	28.69	14.95	
2025-01-13 16:24:43.40	28.64	14.94	
2025-01-13 16:24:43.60	28.59	14.94	
2025-01-13 16:24:43.81	28.54	14.93	
2025-01-13 16:24:44.01	28.50	14.93	
2025-01-13 16:24:44.22	28.45	14.92	
2025-01-13 16:24:44.42	28.40	14.91	
2025-01-13 16:24:44.64	28.35	14.91	
2025-01-13 16:24:44.85	28.30	14.90	
2025-01-13 16:24:45.06	28.25	14.90	
2025-01-13 16:24:45.26	28.20	14.89	
2025-01-13 16:24:45.47	28.15	14.88	
2025-01-13 16:24:45.67	28.10	14.88	
2025-01-13 16:24:45.88	28.05	14.87	
2025-01-13 16:24:46.08	28.01	14.87	
2025-01-13 16:24:46.29	27.96	14.86	
2025-01-13 16:24:46.49	27.91	14.85	
2025-01-13 16:24:46.70	27.86	14.85	
2025-01-13 16:24:46.90	27.81	14.84	
2025-01-13 16:24:47.11	27.76	14.84	
2025-01-13 16:24:47.31	27.72	14.83	
2025-01-13 16:24:47.52	27.67	14.82	
2025-01-13 16:24:47.72	27.62	14.82	
2025-01-13 16:24:47.93	27.57	14.81	
2025-01-13 16:24:48.13	27.53	14.81	
2025-01-13 16:24:48.34	27.48	14.80	
2025-01-13 16:24:48.54	27.43	14.79	
2025-01-13 16:24:48.75	27.38	14.79	
2025-01-13 16:24:48.95	27.33	14.78	
2025-01-13 16:24:49.16	27.28	14.78	
2025-01-13 16:24:49.36	27.24	14.77	
2025-01-13 16:24:49.57	27.19	14.76	
2025-01-13 16:24:49.78	27.14	14.76	
2025-01-13 16:24:49.98	27.09	14.75	
2025-01-13 16:24:50.18	27.04	14.74	
2025-01-13 16:24:50.39	27.00	14.74	
2025-01-13 16:24:50.59	26.95	14.73	
2025-01-13 16:24:50.80	26.90	14.73	
2025-01-13 16:24:51.00	26.85	14.72	
2025-01-13 16:24:51.21	26.80	14.71	
2025-01-13 16:24:51.42	26.76	14.71	
2025-01-13 16:24:51.62	26.71	14.70	
2025-01-13 16:24:51.83	26.66	14.69	
2025-01-13 16:24:52.03	26.61	14.69	
2025-01-13 16:24:52.23	26.57	14.68	
2025-01-13 16:24:52.44	26.52	14.67	
2025-01-13 16:24:52.64	26.47	14.67	
2025-01-13 16:24:52.85	26.42	14.66	
2025-01-13 16:24:53.05	26.38	14.66	
2025-01-13 16:24:53.26	26.33	14.65	
2025-01-13 16:24:53.47	26.28	14.64	
2025-01-13 16:24:53.67	26.23	14.64	
2025-01-13 16:24:53.87	26.19	14.63	
2025-01-13 16:24:54.08	26.14	14.62	
2025-01-13 16:24:54.28	26.09	14.62	
2025-01-13 16:24:54.49	26.04	14.61	
2025-01-13 16:24:54.69	26.00	14.60	
2025-01-13 16:24:54.90	25.95	14.60	
2025-01-13 16:24:55.11	25.90	14.59	
2025-01-13 16:24:55.31	25.85	14.58	
2025-01-13 16:24:55.51	25.81	14.58	
2025-01-13 16:24:55.72	25.76	14.57	
2025-01-13 16:24:55.93	25.71	14.56	
2025-01-13 16:24:56.13	25.66	14.56	
2025-01-13 16:24:56.35	25.61	14.55	
2025-01-13 16:24:56.56	25.56	14.54	
2025-01-13 16:24:56.76	25.52	14.53	
2025-01-13 16:24:56.96	25.47	14.53	
2025-01-13 16:24:57.17	25.42	14.52	
2025-01-13 16:24:57.38	25.38	14.51	
2025-01-13 16:24:57.58	25.33	14.51	
2025-01-13 16:24:57.79	25.28	14.50	
2025-01-13 16:24:57.99	25.24	14.49	
2025-01-13 16:24:58.20	25.19	14.49	
2025-01-13 16:24:58.40	25.14	14.48	
