passes_logs/2025/01/13/SPB_Silybum_02/SPB_Silybum_02__20250113_101517_AQUA_rec.log

#Pass ID: 20250113_101517_AQUA
#Satellite: AQUA
#Configuration: AQUA
#Start time: 2025-01-13 10:15:17

#Version: 2.0.20230423
#Station: SPB_Silybum_02
#Location: 30.233357 lon 59.946436 lat
#TLE: 1 27424U 02022A   25012.80860775  .00001720  00000+0  36312-3 0  9993
#TLE: 2 27424  98.3585 329.4528 0001624 113.6325 279.3978 14.60673868207302

#Time	Az	El	Level	Level2	SNR	BER	Gain	Gain2
2025-01-13 10:15:19.61	125.78	4.14	
2025-01-13 10:15:19.82	125.77	4.15	
2025-01-13 10:15:20.02	125.76	4.17	
2025-01-13 10:15:20.23	125.75	4.18	
2025-01-13 10:15:20.43	125.74	4.19	
2025-01-13 10:15:20.64	125.72	4.21	
2025-01-13 10:15:20.84	125.71	4.22	
2025-01-13 10:15:21.05	125.70	4.24	
2025-01-13 10:15:21.25	125.69	4.25	
2025-01-13 10:15:21.46	125.68	4.26	
2025-01-13 10:15:21.66	125.67	4.28	
2025-01-13 10:15:21.87	125.65	4.29	
2025-01-13 10:15:22.07	125.64	4.31	
2025-01-13 10:15:22.27	125.63	4.32	
2025-01-13 10:15:22.48	125.62	4.33	
2025-01-13 10:15:22.69	125.61	4.35	
2025-01-13 10:15:22.89	125.60	4.36	
2025-01-13 10:15:23.10	125.58	4.38	
2025-01-13 10:15:23.30	125.57	4.39	
2025-01-13 10:15:23.51	125.56	4.41	
2025-01-13 10:15:23.71	125.55	4.42	
2025-01-13 10:15:23.92	125.54	4.43	
2025-01-13 10:15:24.12	125.52	4.45	
2025-01-13 10:15:24.33	125.51	4.46	
2025-01-13 10:15:24.53	125.50	4.48	
2025-01-13 10:15:24.74	125.49	4.49	
2025-01-13 10:15:24.95	125.48	4.50	
2025-01-13 10:15:25.15	125.46	4.52	
2025-01-13 10:15:25.36	125.45	4.53	
2025-01-13 10:15:25.56	125.44	4.55	
2025-01-13 10:15:25.77	125.43	4.56	
2025-01-13 10:15:25.97	125.42	4.57	
2025-01-13 10:15:26.18	125.40	4.59	
2025-01-13 10:15:26.38	125.39	4.60	
2025-01-13 10:15:26.59	125.38	4.62	
2025-01-13 10:15:26.79	125.37	4.63	
2025-01-13 10:15:27.00	125.36	4.65	
2025-01-13 10:15:27.20	125.34	4.66	
2025-01-13 10:15:27.41	125.33	4.67	
2025-01-13 10:15:27.61	125.32	4.69	
2025-01-13 10:15:27.82	125.31	4.70	
2025-01-13 10:15:28.02	125.30	4.72	
2025-01-13 10:15:28.23	125.28	4.73	
2025-01-13 10:15:28.43	125.27	4.75	
2025-01-13 10:15:28.64	125.26	4.76	
2025-01-13 10:15:28.84	125.25	4.77	
2025-01-13 10:15:29.05	125.23	4.79	
2025-01-13 10:15:29.25	125.22	4.80	
2025-01-13 10:15:29.46	125.21	4.82	
2025-01-13 10:15:29.66	125.20	4.83	
2025-01-13 10:15:29.87	125.19	4.85	
2025-01-13 10:15:30.07	125.17	4.86	
2025-01-13 10:15:30.28	125.16	4.87	
2025-01-13 10:15:30.48	125.15	4.89	
2025-01-13 10:15:30.68	125.14	4.90	
2025-01-13 10:15:30.89	125.12	4.92	
2025-01-13 10:15:31.10	125.11	4.93	
2025-01-13 10:15:31.30	125.10	4.95	
2025-01-13 10:15:31.51	125.09	4.96	
2025-01-13 10:15:31.71	125.07	4.97	
2025-01-13 10:15:31.92	125.06	4.99	
2025-01-13 10:15:32.12	125.05	5.00	
2025-01-13 10:15:32.33	125.04	5.02	
2025-01-13 10:15:32.53	125.02	5.03	
2025-01-13 10:15:32.73	125.01	5.05	
2025-01-13 10:15:32.94	125.00	5.06	
2025-01-13 10:15:33.15	124.99	5.08	
2025-01-13 10:15:33.35	124.97	5.09	
2025-01-13 10:15:33.56	124.96	5.10	
2025-01-13 10:15:33.76	124.95	5.12	
2025-01-13 10:15:33.97	124.94	5.13	
2025-01-13 10:15:34.17	124.92	5.15	
2025-01-13 10:15:34.38	124.91	5.16	
2025-01-13 10:15:34.58	124.90	5.18	
2025-01-13 10:15:34.79	124.89	5.19	
2025-01-13 10:15:34.99	124.87	5.21	
2025-01-13 10:15:35.20	124.86	5.22	
2025-01-13 10:15:35.40	124.85	5.23	
2025-01-13 10:15:35.61	124.84	5.25	
2025-01-13 10:15:35.81	124.82	5.26	
2025-01-13 10:15:36.02	124.81	5.28	
2025-01-13 10:15:36.22	124.80	5.29	
2025-01-13 10:15:36.43	124.79	5.31	
2025-01-13 10:15:36.63	124.77	5.32	
2025-01-13 10:15:36.84	124.76	5.34	
2025-01-13 10:15:37.04	124.75	5.35	
2025-01-13 10:15:37.25	124.73	5.37	
2025-01-13 10:15:37.45	124.72	5.38	
2025-01-13 10:15:37.66	124.71	5.40	
2025-01-13 10:15:37.86	124.70	5.41	
2025-01-13 10:15:38.07	124.68	5.42	
2025-01-13 10:15:38.27	124.67	5.44	
2025-01-13 10:15:38.48	124.66	5.45	
2025-01-13 10:15:38.68	124.64	5.47	
2025-01-13 10:15:38.89	124.63	5.48	
2025-01-13 10:15:39.09	124.62	5.50	
2025-01-13 10:15:39.30	124.61	5.51	
2025-01-13 10:15:39.50	124.59	5.53	
2025-01-13 10:15:39.71	124.58	5.54	
2025-01-13 10:15:39.91	124.57	5.56	
2025-01-13 10:15:40.12	124.55	5.57	
2025-01-13 10:15:40.32	124.54	5.59	
2025-01-13 10:15:40.53	124.53	5.60	
2025-01-13 10:15:40.73	124.52	5.61	
2025-01-13 10:15:40.94	124.50	5.63	
2025-01-13 10:15:41.14	124.49	5.64	
2025-01-13 10:15:41.35	124.48	5.66	
2025-01-13 10:15:41.55	124.46	5.67	
2025-01-13 10:15:41.76	124.45	5.69	
2025-01-13 10:15:41.96	124.44	5.70	
2025-01-13 10:15:42.17	124.42	5.72	
2025-01-13 10:15:42.37	124.41	5.73	
2025-01-13 10:15:42.58	124.40	5.75	
2025-01-13 10:15:42.78	124.38	5.76	
2025-01-13 10:15:42.99	124.37	5.78	
2025-01-13 10:15:43.19	124.36	5.79	
2025-01-13 10:15:43.41	124.34	5.81	
2025-01-13 10:15:43.62	124.33	5.82	
2025-01-13 10:15:43.82	124.32	5.84	
2025-01-13 10:15:44.03	124.30	5.85	
2025-01-13 10:15:44.23	124.29	5.87	
2025-01-13 10:15:44.44	124.28	5.88	
2025-01-13 10:15:44.64	124.26	5.90	
2025-01-13 10:15:44.85	124.25	5.91	
2025-01-13 10:15:45.05	124.24	5.93	
2025-01-13 10:15:45.26	124.22	5.94	
2025-01-13 10:15:45.46	124.21	5.96	
2025-01-13 10:15:45.67	124.20	5.97	
2025-01-13 10:15:45.87	124.18	5.99	
2025-01-13 10:15:46.08	124.17	6.00	
2025-01-13 10:15:46.28	124.16	6.02	
2025-01-13 10:15:46.49	124.14	6.03	
2025-01-13 10:15:46.69	124.13	6.05	
2025-01-13 10:15:46.90	124.12	6.06	
2025-01-13 10:15:47.10	124.10	6.08	
2025-01-13 10:15:47.31	124.09	6.09	
2025-01-13 10:15:47.51	124.08	6.11	
2025-01-13 10:15:47.72	124.06	6.12	
2025-01-13 10:15:47.92	124.05	6.14	
2025-01-13 10:15:48.13	124.03	6.15	
2025-01-13 10:15:48.34	124.02	6.17	
2025-01-13 10:15:48.54	124.01	6.18	
2025-01-13 10:15:48.75	123.99	6.20	
2025-01-13 10:15:48.95	123.98	6.21	
2025-01-13 10:15:49.16	123.97	6.23	
2025-01-13 10:15:49.36	123.95	6.24	
2025-01-13 10:15:49.57	123.94	6.26	
2025-01-13 10:15:49.79	123.92	6.27	
2025-01-13 10:15:49.99	123.91	6.29	
2025-01-13 10:15:50.20	123.90	6.30	
2025-01-13 10:15:50.41	123.88	6.32	
2025-01-13 10:15:50.61	123.87	6.33	
2025-01-13 10:15:50.82	123.85	6.35	
2025-01-13 10:15:51.02	123.84	6.36	
2025-01-13 10:15:51.23	123.83	6.38	
2025-01-13 10:15:51.43	123.81	6.39	
2025-01-13 10:15:51.64	123.80	6.41	
2025-01-13 10:15:51.86	123.78	6.43	
2025-01-13 10:15:52.06	123.77	6.44	
2025-01-13 10:15:52.27	123.76	6.46	
2025-01-13 10:15:52.47	123.74	6.47	
2025-01-13 10:15:52.68	123.73	6.49	
2025-01-13 10:15:52.88	123.72	6.50	
2025-01-13 10:15:53.09	123.70	6.52	
2025-01-13 10:15:53.29	123.69	6.53	
2025-01-13 10:15:53.50	123.67	6.55	
2025-01-13 10:15:53.71	123.66	6.56	
2025-01-13 10:15:53.91	123.65	6.58	
2025-01-13 10:15:54.11	123.63	6.59	
2025-01-13 10:15:54.32	123.62	6.61	
2025-01-13 10:15:54.52	123.60	6.62	
2025-01-13 10:15:54.73	123.59	6.64	
2025-01-13 10:15:54.93	123.58	6.65	
2025-01-13 10:15:55.14	123.56	6.67	
2025-01-13 10:15:55.34	123.55	6.68	
2025-01-13 10:15:55.55	123.53	6.70	
2025-01-13 10:15:55.75	123.52	6.71	
2025-01-13 10:15:55.96	123.50	6.73	
2025-01-13 10:15:56.16	123.49	6.75	
2025-01-13 10:15:56.37	123.48	6.76	
2025-01-13 10:15:56.57	123.46	6.78	
2025-01-13 10:15:56.78	123.45	6.79	
2025-01-13 10:15:56.98	123.43	6.81	
2025-01-13 10:15:57.19	123.42	6.82	
2025-01-13 10:15:57.39	123.40	6.84	
2025-01-13 10:15:57.60	123.39	6.85	
2025-01-13 10:15:57.80	123.38	6.87	
2025-01-13 10:15:58.01	123.36	6.88	
2025-01-13 10:15:58.21	123.35	6.90	
2025-01-13 10:15:58.42	123.33	6.92	
2025-01-13 10:15:58.62	123.32	6.93	
2025-01-13 10:15:58.83	123.30	6.95	
2025-01-13 10:15:59.03	123.29	6.96	
2025-01-13 10:15:59.24	123.27	6.98	
2025-01-13 10:15:59.45	123.26	6.99	
2025-01-13 10:15:59.66	123.24	7.01	
2025-01-13 10:15:59.87	123.23	7.02	
2025-01-13 10:16:00.07	123.22	7.04	
2025-01-13 10:16:00.28	123.20	7.06	
2025-01-13 10:16:00.48	123.19	7.07	
2025-01-13 10:16:00.69	123.17	7.09	
2025-01-13 10:16:00.89	123.16	7.10	
2025-01-13 10:16:01.10	123.14	7.12	
2025-01-13 10:16:01.30	123.13	7.13	
2025-01-13 10:16:01.51	123.11	7.15	
2025-01-13 10:16:01.71	123.10	7.16	
2025-01-13 10:16:01.92	123.08	7.18	
2025-01-13 10:16:02.12	123.07	7.20	
2025-01-13 10:16:02.33	123.05	7.21	
2025-01-13 10:16:02.53	123.04	7.23	
2025-01-13 10:16:02.73	123.03	7.24	
2025-01-13 10:16:02.94	123.01	7.26	
2025-01-13 10:16:03.15	122.99	7.27	
2025-01-13 10:16:03.35	122.98	7.29	
2025-01-13 10:16:03.55	122.97	7.30	
2025-01-13 10:16:03.76	122.95	7.32	
2025-01-13 10:16:03.97	122.94	7.34	
2025-01-13 10:16:04.17	122.92	7.35	
2025-01-13 10:16:04.38	122.91	7.37	
2025-01-13 10:16:04.58	122.89	7.38	
2025-01-13 10:16:04.79	122.88	7.40	
2025-01-13 10:16:05.00	122.86	7.41	
2025-01-13 10:16:05.20	122.85	7.43	
2025-01-13 10:16:05.41	122.83	7.45	
2025-01-13 10:16:05.61	122.82	7.46	
2025-01-13 10:16:05.83	122.80	7.48	
2025-01-13 10:16:06.04	122.78	7.49	
2025-01-13 10:16:06.24	122.77	7.51	
2025-01-13 10:16:06.45	122.75	7.53	
2025-01-13 10:16:06.65	122.74	7.54	
2025-01-13 10:16:06.86	122.72	7.56	
2025-01-13 10:16:07.06	122.71	7.57	
2025-01-13 10:16:07.27	122.69	7.59	
2025-01-13 10:16:07.47	122.68	7.60	
2025-01-13 10:16:07.68	122.66	7.62	
2025-01-13 10:16:07.90	122.65	7.64	
2025-01-13 10:16:08.10	122.63	7.65	
2025-01-13 10:16:08.31	122.62	7.67	
2025-01-13 10:16:08.52	122.60	7.69	
2025-01-13 10:16:08.72	122.59	7.70	
2025-01-13 10:16:08.93	122.57	7.72	
2025-01-13 10:16:09.13	122.55	7.73	
2025-01-13 10:16:09.34	122.54	7.75	
2025-01-13 10:16:09.54	122.52	7.77	
2025-01-13 10:16:09.75	122.51	7.78	
2025-01-13 10:16:09.95	122.49	7.80	
2025-01-13 10:16:10.16	122.48	7.81	
2025-01-13 10:16:10.36	122.46	7.83	
2025-01-13 10:16:10.57	122.45	7.85	
2025-01-13 10:16:10.78	122.43	7.86	
2025-01-13 10:16:10.98	122.42	7.88	
2025-01-13 10:16:11.18	122.40	7.89	
2025-01-13 10:16:11.39	122.38	7.91	
2025-01-13 10:16:11.59	122.37	7.92	
2025-01-13 10:16:11.80	122.35	7.94	
2025-01-13 10:16:12.01	122.34	7.96	
2025-01-13 10:16:12.21	122.32	7.97	
2025-01-13 10:16:12.41	122.31	7.99	
2025-01-13 10:16:12.62	122.29	8.01	
2025-01-13 10:16:12.83	122.27	8.02	
2025-01-13 10:16:13.03	122.26	8.04	
2025-01-13 10:16:13.25	122.24	8.05	
2025-01-13 10:16:13.45	122.23	8.07	
2025-01-13 10:16:13.66	122.21	8.09	
2025-01-13 10:16:13.86	122.20	8.10	
2025-01-13 10:16:14.08	122.18	8.12	
2025-01-13 10:16:14.30	122.16	8.14	
2025-01-13 10:16:14.51	122.14	8.15	
2025-01-13 10:16:14.71	122.13	8.17	
2025-01-13 10:16:14.92	122.11	8.19	
2025-01-13 10:16:15.13	122.10	8.20	
2025-01-13 10:16:15.33	122.08	8.22	
2025-01-13 10:16:15.54	122.07	8.23	
2025-01-13 10:16:15.74	122.05	8.25	
2025-01-13 10:16:15.94	122.03	8.27	
2025-01-13 10:16:16.15	122.02	8.28	
2025-01-13 10:16:16.37	122.00	8.30	
2025-01-13 10:16:16.57	121.98	8.32	
2025-01-13 10:16:16.78	121.97	8.33	
2025-01-13 10:16:16.98	121.95	8.35	
2025-01-13 10:16:17.19	121.94	8.37	
2025-01-13 10:16:17.39	121.92	8.38	
2025-01-13 10:16:17.60	121.90	8.40	
2025-01-13 10:16:17.80	121.89	8.41	
2025-01-13 10:16:18.01	121.87	8.43	
2025-01-13 10:16:18.21	121.86	8.45	
2025-01-13 10:16:18.42	121.84	8.46	
2025-01-13 10:16:18.62	121.82	8.48	
2025-01-13 10:16:18.83	121.81	8.50	
2025-01-13 10:16:19.03	121.79	8.51	
2025-01-13 10:16:19.24	121.77	8.53	
2025-01-13 10:16:19.45	121.76	8.55	
2025-01-13 10:16:19.65	121.74	8.56	
2025-01-13 10:16:19.86	121.72	8.58	
2025-01-13 10:16:20.06	121.71	8.59	
2025-01-13 10:16:20.27	121.69	8.61	
2025-01-13 10:16:20.47	121.68	8.63	
2025-01-13 10:16:20.69	121.66	8.64	
2025-01-13 10:16:20.89	121.64	8.66	
2025-01-13 10:16:21.10	121.62	8.68	
2025-01-13 10:16:21.30	121.61	8.69	
2025-01-13 10:16:21.51	121.59	8.71	
2025-01-13 10:16:21.71	121.58	8.73	
2025-01-13 10:16:21.92	121.56	8.74	
2025-01-13 10:16:22.13	121.54	8.76	
2025-01-13 10:16:22.33	121.53	8.78	
2025-01-13 10:16:22.54	121.51	8.79	
2025-01-13 10:16:22.74	121.49	8.81	
2025-01-13 10:16:22.95	121.47	8.83	
2025-01-13 10:16:23.15	121.46	8.84	
2025-01-13 10:16:23.36	121.44	8.86	
2025-01-13 10:16:23.56	121.43	8.88	
2025-01-13 10:16:23.77	121.41	8.89	
2025-01-13 10:16:23.97	121.39	8.91	
2025-01-13 10:16:24.18	121.37	8.93	
2025-01-13 10:16:24.39	121.36	8.94	
2025-01-13 10:16:24.59	121.34	8.96	
2025-01-13 10:16:24.80	121.32	8.98	
2025-01-13 10:16:25.00	121.31	8.99	
2025-01-13 10:16:25.21	121.29	9.01	
2025-01-13 10:16:25.41	121.27	9.03	
2025-01-13 10:16:25.62	121.26	9.04	
2025-01-13 10:16:25.82	121.24	9.06	
2025-01-13 10:16:26.03	121.22	9.08	
2025-01-13 10:16:26.24	121.20	9.09	
2025-01-13 10:16:26.44	121.19	9.11	
2025-01-13 10:16:26.65	121.17	9.13	
2025-01-13 10:16:26.85	121.15	9.14	
2025-01-13 10:16:27.05	121.14	9.16	
2025-01-13 10:16:27.26	121.12	9.18	
2025-01-13 10:16:27.47	121.10	9.19	
2025-01-13 10:16:27.67	121.08	9.21	
2025-01-13 10:16:27.88	121.07	9.23	
2025-01-13 10:16:28.08	121.05	9.24	
2025-01-13 10:16:28.29	121.03	9.26	
2025-01-13 10:16:28.49	121.02	9.28	
2025-01-13 10:16:28.70	121.00	9.29	
2025-01-13 10:16:28.90	120.98	9.31	
2025-01-13 10:16:29.11	120.96	9.33	
2025-01-13 10:16:29.31	120.95	9.34	
2025-01-13 10:16:29.52	120.93	9.36	
2025-01-13 10:16:29.72	120.91	9.38	
2025-01-13 10:16:29.93	120.89	9.40	
2025-01-13 10:16:30.13	120.88	9.41	
2025-01-13 10:16:30.34	120.86	9.43	
2025-01-13 10:16:30.54	120.84	9.45	
2025-01-13 10:16:30.75	120.82	9.46	
2025-01-13 10:16:30.95	120.81	9.48	
2025-01-13 10:16:31.16	120.79	9.50	
2025-01-13 10:16:31.36	120.77	9.51	
2025-01-13 10:16:31.57	120.75	9.53	
2025-01-13 10:16:31.77	120.74	9.55	
2025-01-13 10:16:31.98	120.72	9.56	
2025-01-13 10:16:32.19	120.70	9.58	
2025-01-13 10:16:32.40	120.68	9.60	
2025-01-13 10:16:32.60	120.66	9.62	
2025-01-13 10:16:32.81	120.65	9.63	
2025-01-13 10:16:33.02	120.63	9.65	
2025-01-13 10:16:33.22	120.61	9.67	
2025-01-13 10:16:33.43	120.59	9.69	
2025-01-13 10:16:33.63	120.58	9.70	
2025-01-13 10:16:33.84	120.56	9.72	
2025-01-13 10:16:34.05	120.54	9.74	
2025-01-13 10:16:34.25	120.52	9.75	
2025-01-13 10:16:34.45	120.50	9.77	
2025-01-13 10:16:34.66	120.49	9.79	
2025-01-13 10:16:34.86	120.47	9.80	
2025-01-13 10:16:35.07	120.45	9.82	
2025-01-13 10:16:35.27	120.43	9.84	
2025-01-13 10:16:35.48	120.41	9.86	
2025-01-13 10:16:35.68	120.40	9.87	
2025-01-13 10:16:35.89	120.38	9.89	
2025-01-13 10:16:36.10	120.36	9.91	
2025-01-13 10:16:36.30	120.34	9.93	
2025-01-13 10:16:36.51	120.32	9.94	
2025-01-13 10:16:36.71	120.30	9.96	
2025-01-13 10:16:36.91	120.29	9.98	
2025-01-13 10:16:37.12	120.27	9.99	
2025-01-13 10:16:37.32	120.25	10.01	
2025-01-13 10:16:37.53	120.23	10.03	
2025-01-13 10:16:37.73	120.21	10.05	
2025-01-13 10:16:37.94	120.19	10.06	
2025-01-13 10:16:38.15	120.18	10.08	
2025-01-13 10:16:38.35	120.16	10.10	
2025-01-13 10:16:38.56	120.14	10.12	
2025-01-13 10:16:38.76	120.12	10.13	
2025-01-13 10:16:38.97	120.10	10.15	
2025-01-13 10:16:39.17	120.08	10.17	
2025-01-13 10:16:39.38	120.07	10.18	
2025-01-13 10:16:39.58	120.05	10.20	
2025-01-13 10:16:39.79	120.03	10.22	
2025-01-13 10:16:39.99	120.01	10.24	
2025-01-13 10:16:40.20	119.99	10.25	
2025-01-13 10:16:40.41	119.97	10.27	
2025-01-13 10:16:40.61	119.95	10.29	
2025-01-13 10:16:40.82	119.93	10.31	
2025-01-13 10:16:41.02	119.92	10.32	
2025-01-13 10:16:41.22	119.90	10.34	
2025-01-13 10:16:41.43	119.88	10.36	
2025-01-13 10:16:41.64	119.86	10.38	
2025-01-13 10:16:41.84	119.84	10.39	
2025-01-13 10:16:42.06	119.82	10.41	
2025-01-13 10:16:42.27	119.80	10.43	
2025-01-13 10:16:42.47	119.78	10.45	
2025-01-13 10:16:42.68	119.76	10.47	
2025-01-13 10:16:42.88	119.75	10.48	
2025-01-13 10:16:43.09	119.73	10.50	
2025-01-13 10:16:43.29	119.71	10.52	
2025-01-13 10:16:43.50	119.69	10.54	
2025-01-13 10:16:43.71	119.67	10.55	
2025-01-13 10:16:43.91	119.65	10.57	
2025-01-13 10:16:44.12	119.63	10.59	
2025-01-13 10:16:44.32	119.61	10.61	
2025-01-13 10:16:44.53	119.59	10.62	
2025-01-13 10:16:44.73	119.57	10.64	
2025-01-13 10:16:44.94	119.55	10.66	
2025-01-13 10:16:45.14	119.54	10.68	
2025-01-13 10:16:45.36	119.51	10.70	
2025-01-13 10:16:45.56	119.50	10.71	
2025-01-13 10:16:45.77	119.48	10.73	
2025-01-13 10:16:45.98	119.46	10.75	
2025-01-13 10:16:46.18	119.44	10.77	
2025-01-13 10:16:46.39	119.42	10.79	
2025-01-13 10:16:46.59	119.40	10.80	
2025-01-13 10:16:46.80	119.38	10.82	
2025-01-13 10:16:47.01	119.36	10.84	
2025-01-13 10:16:47.21	119.34	10.86	
2025-01-13 10:16:47.41	119.32	10.87	
2025-01-13 10:16:47.62	119.30	10.89	
2025-01-13 10:16:47.82	119.28	10.91	
2025-01-13 10:16:48.03	119.26	10.93	
2025-01-13 10:16:48.23	119.24	10.94	
2025-01-13 10:16:48.44	119.22	10.96	
2025-01-13 10:16:48.64	119.20	10.98	
2025-01-13 10:16:48.85	119.18	11.00	
2025-01-13 10:16:49.05	119.16	11.02	
2025-01-13 10:16:49.26	119.14	11.03	
2025-01-13 10:16:49.46	119.12	11.05	
2025-01-13 10:16:49.67	119.10	11.07	
2025-01-13 10:16:49.87	119.08	11.09	
2025-01-13 10:16:50.08	119.06	11.11	
2025-01-13 10:16:50.28	119.05	11.12	
2025-01-13 10:16:50.48	119.03	11.14	
2025-01-13 10:16:50.69	119.01	11.16	
2025-01-13 10:16:50.89	118.99	11.18	
2025-01-13 10:16:51.10	118.97	11.20	
2025-01-13 10:16:51.30	118.95	11.21	
2025-01-13 10:16:51.51	118.93	11.23	
2025-01-13 10:16:51.71	118.91	11.25	
2025-01-13 10:16:51.92	118.89	11.27	
2025-01-13 10:16:52.12	118.87	11.29	
2025-01-13 10:16:52.33	118.84	11.30	
2025-01-13 10:16:52.54	118.82	11.32	
2025-01-13 10:16:52.74	118.80	11.34	
2025-01-13 10:16:52.94	118.78	11.36	
2025-01-13 10:16:53.15	118.76	11.38	
2025-01-13 10:16:53.36	118.74	11.40	
2025-01-13 10:16:53.56	118.72	11.41	
2025-01-13 10:16:53.77	118.70	11.43	
2025-01-13 10:16:53.97	118.68	11.45	
2025-01-13 10:16:54.18	118.66	11.47	
2025-01-13 10:16:54.38	118.64	11.49	
2025-01-13 10:16:54.59	118.62	11.50	
2025-01-13 10:16:54.79	118.60	11.52	
2025-01-13 10:16:55.00	118.58	11.54	
2025-01-13 10:16:55.20	118.56	11.56	
2025-01-13 10:16:55.41	118.54	11.58	
2025-01-13 10:16:55.61	118.52	11.59	
2025-01-13 10:16:55.82	118.50	11.61	
2025-01-13 10:16:56.02	118.48	11.63	
2025-01-13 10:16:56.23	118.46	11.65	
2025-01-13 10:16:56.43	118.44	11.67	
2025-01-13 10:16:56.64	118.42	11.69	
2025-01-13 10:16:56.84	118.39	11.70	
2025-01-13 10:16:57.06	118.37	11.72	
2025-01-13 10:16:57.26	118.35	11.74	
2025-01-13 10:16:57.47	118.33	11.76	
2025-01-13 10:16:57.67	118.31	11.78	
2025-01-13 10:16:57.88	118.29	11.80	
2025-01-13 10:16:58.08	118.27	11.82	
2025-01-13 10:16:58.29	118.25	11.83	
2025-01-13 10:16:58.49	118.23	11.85	
2025-01-13 10:16:58.70	118.21	11.87	
2025-01-13 10:16:58.90	118.18	11.89	
2025-01-13 10:16:59.11	118.16	11.91	
2025-01-13 10:16:59.31	118.14	11.93	
2025-01-13 10:16:59.52	118.12	11.95	
2025-01-13 10:16:59.72	118.10	11.96	
2025-01-13 10:16:59.93	118.08	11.98	
2025-01-13 10:17:00.13	118.06	12.00	
2025-01-13 10:17:00.33	118.04	12.02	
2025-01-13 10:17:00.54	118.02	12.04	
2025-01-13 10:17:00.75	117.99	12.06	
2025-01-13 10:17:00.95	117.97	12.07	
2025-01-13 10:17:01.16	117.95	12.09	
2025-01-13 10:17:01.36	117.93	12.11	
2025-01-13 10:17:01.56	117.91	12.13	
2025-01-13 10:17:01.77	117.89	12.15	
2025-01-13 10:17:01.97	117.87	12.17	
2025-01-13 10:17:02.18	117.84	12.19	
2025-01-13 10:17:02.38	117.82	12.20	
2025-01-13 10:17:02.59	117.80	12.22	
2025-01-13 10:17:02.80	117.78	12.24	
2025-01-13 10:17:03.00	117.76	12.26	
2025-01-13 10:17:03.21	117.74	12.28	
2025-01-13 10:17:03.41	117.71	12.30	
2025-01-13 10:17:03.62	117.69	12.32	
2025-01-13 10:17:03.82	117.67	12.34	
2025-01-13 10:17:04.03	117.65	12.35	
2025-01-13 10:17:04.24	117.63	12.37	
2025-01-13 10:17:04.44	117.61	12.39	
2025-01-13 10:17:04.64	117.58	12.41	
2025-01-13 10:17:04.85	117.56	12.43	
2025-01-13 10:17:05.05	117.54	12.45	
2025-01-13 10:17:05.26	117.52	12.47	
2025-01-13 10:17:05.46	117.50	12.49	
2025-01-13 10:17:05.67	117.47	12.50	
2025-01-13 10:17:05.87	117.45	12.52	
2025-01-13 10:17:06.08	117.43	12.54	
2025-01-13 10:17:06.28	117.41	12.56	
2025-01-13 10:17:06.49	117.38	12.58	
2025-01-13 10:17:06.70	117.36	12.60	
2025-01-13 10:17:06.90	117.34	12.62	
2025-01-13 10:17:07.11	117.32	12.64	
2025-01-13 10:17:07.31	117.30	12.66	
2025-01-13 10:17:07.52	117.27	12.68	
2025-01-13 10:17:07.72	117.25	12.69	
2025-01-13 10:17:07.93	117.23	12.71	
2025-01-13 10:17:08.14	117.21	12.73	
2025-01-13 10:17:08.34	117.18	12.75	
2025-01-13 10:17:08.55	117.16	12.77	
2025-01-13 10:17:08.75	117.14	12.79	
2025-01-13 10:17:08.95	117.12	12.81	
2025-01-13 10:17:09.16	117.09	12.83	
2025-01-13 10:17:09.37	117.07	12.85	
2025-01-13 10:17:09.57	117.05	12.87	
2025-01-13 10:17:09.78	117.03	12.89	
2025-01-13 10:17:09.98	117.00	12.90	
2025-01-13 10:17:10.19	116.98	12.92	
2025-01-13 10:17:10.40	116.96	12.94	
2025-01-13 10:17:10.60	116.93	12.96	
2025-01-13 10:17:10.81	116.91	12.98	
2025-01-13 10:17:11.01	116.89	13.00	
2025-01-13 10:17:11.22	116.87	13.02	
2025-01-13 10:17:11.42	116.84	13.04	
2025-01-13 10:17:11.63	116.82	13.06	
2025-01-13 10:17:11.83	116.80	13.08	
2025-01-13 10:17:12.05	116.77	13.10	
2025-01-13 10:17:12.25	116.75	13.12	
2025-01-13 10:17:12.45	116.73	13.13	
2025-01-13 10:17:12.66	116.70	13.15	
2025-01-13 10:17:12.86	116.68	13.17	
2025-01-13 10:17:13.07	116.66	13.19	
2025-01-13 10:17:13.27	116.63	13.21	
2025-01-13 10:17:13.48	116.61	13.23	
2025-01-13 10:17:13.68	116.59	13.25	
2025-01-13 10:17:13.89	116.56	13.27	
2025-01-13 10:17:14.09	116.54	13.29	
2025-01-13 10:17:14.30	116.52	13.31	
2025-01-13 10:17:14.50	116.49	13.33	
2025-01-13 10:17:14.71	116.47	13.35	
2025-01-13 10:17:14.91	116.45	13.37	
2025-01-13 10:17:15.12	116.42	13.39	
2025-01-13 10:17:15.33	116.40	13.41	
2025-01-13 10:17:15.54	116.38	13.43	
2025-01-13 10:17:15.75	116.35	13.45	
2025-01-13 10:17:15.95	116.33	13.46	
2025-01-13 10:17:16.16	116.30	13.48	
2025-01-13 10:17:16.36	116.28	13.50	
2025-01-13 10:17:16.57	116.26	13.52	
2025-01-13 10:17:16.77	116.23	13.54	
2025-01-13 10:17:16.98	116.21	13.56	
2025-01-13 10:17:17.19	116.18	13.58	
2025-01-13 10:17:17.39	116.16	13.60	
2025-01-13 10:17:17.60	116.14	13.62	
2025-01-13 10:17:17.80	116.11	13.64	
2025-01-13 10:17:18.01	116.09	13.66	
2025-01-13 10:17:18.21	116.06	13.68	
2025-01-13 10:17:18.42	116.04	13.70	
2025-01-13 10:17:18.62	116.02	13.72	
2025-01-13 10:17:18.83	115.99	13.74	
2025-01-13 10:17:19.03	115.97	13.76	
2025-01-13 10:17:19.24	115.94	13.78	
2025-01-13 10:17:19.44	115.92	13.80	
2025-01-13 10:17:19.65	115.90	13.82	
2025-01-13 10:17:19.85	115.87	13.84	
2025-01-13 10:17:20.06	115.85	13.86	
2025-01-13 10:17:20.26	115.82	13.88	
2025-01-13 10:17:20.47	115.80	13.90	
2025-01-13 10:17:20.67	115.77	13.92	
2025-01-13 10:17:20.88	115.75	13.94	
2025-01-13 10:17:21.08	115.72	13.96	
2025-01-13 10:17:21.29	115.70	13.98	
2025-01-13 10:17:21.50	115.67	14.00	
2025-01-13 10:17:21.70	115.65	14.02	
2025-01-13 10:17:21.91	115.63	14.04	
2025-01-13 10:17:22.11	115.60	14.06	
2025-01-13 10:17:22.32	115.58	14.08	
2025-01-13 10:17:22.52	115.55	14.10	
2025-01-13 10:17:22.73	115.53	14.12	
2025-01-13 10:17:22.93	115.50	14.13	
2025-01-13 10:17:23.14	115.48	14.16	
2025-01-13 10:17:23.35	115.45	14.18	
2025-01-13 10:17:23.55	115.43	14.19	
2025-01-13 10:17:23.77	115.40	14.22	
2025-01-13 10:17:23.98	115.37	14.24	
2025-01-13 10:17:24.18	115.35	14.26	
2025-01-13 10:17:24.39	115.32	14.28	
2025-01-13 10:17:24.59	115.30	14.30	
2025-01-13 10:17:24.80	115.27	14.32	
2025-01-13 10:17:25.00	115.25	14.34	
2025-01-13 10:17:25.21	115.22	14.36	
2025-01-13 10:17:25.41	115.20	14.38	
2025-01-13 10:17:25.62	115.17	14.40	
2025-01-13 10:17:25.82	115.15	14.42	
2025-01-13 10:17:26.03	115.12	14.44	
2025-01-13 10:17:26.23	115.10	14.46	
2025-01-13 10:17:26.44	115.07	14.48	
2025-01-13 10:17:26.65	115.04	14.50	
2025-01-13 10:17:26.85	115.02	14.52	
2025-01-13 10:17:27.06	114.99	14.54	
2025-01-13 10:17:27.26	114.97	14.56	
2025-01-13 10:17:27.47	114.94	14.58	
2025-01-13 10:17:27.67	114.92	14.60	
2025-01-13 10:17:27.88	114.89	14.62	
2025-01-13 10:17:28.08	114.87	14.64	
2025-01-13 10:17:28.29	114.84	14.66	
2025-01-13 10:17:28.49	114.81	14.68	
2025-01-13 10:17:28.70	114.79	14.70	
2025-01-13 10:17:28.90	114.76	14.72	
2025-01-13 10:17:29.12	114.73	14.74	
2025-01-13 10:17:29.32	114.71	14.76	
2025-01-13 10:17:29.53	114.68	14.78	
2025-01-13 10:17:29.73	114.66	14.80	
2025-01-13 10:17:29.94	114.63	14.82	
2025-01-13 10:17:30.14	114.60	14.84	
2025-01-13 10:17:30.35	114.58	14.86	
2025-01-13 10:17:30.55	114.55	14.88	
2025-01-13 10:17:30.76	114.53	14.90	
2025-01-13 10:17:30.96	114.50	14.92	
2025-01-13 10:17:31.16	114.47	14.94	
2025-01-13 10:17:31.37	114.45	14.96	
2025-01-13 10:17:31.58	114.42	14.99	
2025-01-13 10:17:31.78	114.39	15.01	
2025-01-13 10:17:31.99	114.37	15.03	
2025-01-13 10:17:32.19	114.34	15.05	
2025-01-13 10:17:32.40	114.31	15.07	
2025-01-13 10:17:32.60	114.29	15.09	
2025-01-13 10:17:32.81	114.26	15.11	
2025-01-13 10:17:33.01	114.23	15.13	
2025-01-13 10:17:33.21	114.21	15.15	
2025-01-13 10:17:33.41	114.18	15.17	
2025-01-13 10:17:33.62	114.15	15.19	
2025-01-13 10:17:33.83	114.13	15.21	
2025-01-13 10:17:34.03	114.10	15.23	
2025-01-13 10:17:34.24	114.07	15.25	
2025-01-13 10:17:34.45	114.05	15.27	
2025-01-13 10:17:34.66	114.02	15.29	
2025-01-13 10:17:34.86	113.99	15.31	
2025-01-13 10:17:35.07	113.96	15.34	
2025-01-13 10:17:35.27	113.94	15.36	
2025-01-13 10:17:35.49	113.91	15.38	
2025-01-13 10:17:35.70	113.88	15.40	
2025-01-13 10:17:35.90	113.85	15.42	
2025-01-13 10:17:36.11	113.83	15.44	
2025-01-13 10:17:36.31	113.80	15.46	
2025-01-13 10:17:36.52	113.77	15.48	
2025-01-13 10:17:36.72	113.74	15.50	
2025-01-13 10:17:36.93	113.72	15.52	
2025-01-13 10:17:37.13	113.69	15.54	
2025-01-13 10:17:37.34	113.66	15.56	
2025-01-13 10:17:37.54	113.63	15.58	
2025-01-13 10:17:37.75	113.61	15.61	
2025-01-13 10:17:37.95	113.58	15.63	
2025-01-13 10:17:38.16	113.55	15.65	
2025-01-13 10:17:38.36	113.52	15.67	
2025-01-13 10:17:38.57	113.49	15.69	
2025-01-13 10:17:38.79	113.46	15.71	
2025-01-13 10:17:38.99	113.44	15.73	
2025-01-13 10:17:39.20	113.41	15.75	
2025-01-13 10:17:39.40	113.38	15.77	
2025-01-13 10:17:39.61	113.35	15.80	
2025-01-13 10:17:39.81	113.33	15.82	
2025-01-13 10:17:40.02	113.30	15.84	
2025-01-13 10:17:40.22	113.27	15.86	
2025-01-13 10:17:40.43	113.24	15.88	
2025-01-13 10:17:40.64	113.21	15.90	
2025-01-13 10:17:40.84	113.18	15.92	
2025-01-13 10:17:41.04	113.16	15.94	
2025-01-13 10:17:41.25	113.13	15.96	
2025-01-13 10:17:41.46	113.10	15.99	
2025-01-13 10:17:41.66	113.07	16.01	
2025-01-13 10:17:41.87	113.04	16.03	
2025-01-13 10:17:42.07	113.01	16.05	
2025-01-13 10:17:42.28	112.98	16.07	
2025-01-13 10:17:42.48	112.96	16.09	
2025-01-13 10:17:42.69	112.93	16.11	
2025-01-13 10:17:42.89	112.90	16.13	
2025-01-13 10:17:43.09	112.87	16.15	
2025-01-13 10:17:43.30	112.84	16.17	
2025-01-13 10:17:43.50	112.81	16.20	
2025-01-13 10:17:43.71	112.78	16.22	
2025-01-13 10:17:43.91	112.75	16.24	
2025-01-13 10:17:44.12	112.73	16.26	
2025-01-13 10:17:44.32	112.70	16.28	
2025-01-13 10:17:44.53	112.67	16.30	
2025-01-13 10:17:44.73	112.64	16.32	
2025-01-13 10:17:44.94	112.61	16.34	
2025-01-13 10:17:45.15	112.58	16.37	
2025-01-13 10:17:45.35	112.55	16.39	
2025-01-13 10:17:45.56	112.52	16.41	
2025-01-13 10:17:45.76	112.49	16.43	
2025-01-13 10:17:45.97	112.46	16.45	
2025-01-13 10:17:46.17	112.43	16.47	
2025-01-13 10:17:46.38	112.40	16.49	
2025-01-13 10:17:46.58	112.37	16.52	
2025-01-13 10:17:46.79	112.34	16.54	
2025-01-13 10:17:46.99	112.31	16.56	
2025-01-13 10:17:47.20	112.28	16.58	
2025-01-13 10:17:47.40	112.26	16.60	
2025-01-13 10:17:47.61	112.22	16.62	
2025-01-13 10:17:47.81	112.20	16.64	
2025-01-13 10:17:48.02	112.17	16.67	
2025-01-13 10:17:48.22	112.14	16.69	
2025-01-13 10:17:48.42	112.11	16.71	
2025-01-13 10:17:48.63	112.08	16.73	
2025-01-13 10:17:48.84	112.05	16.75	
2025-01-13 10:17:49.04	112.02	16.77	
2025-01-13 10:17:49.24	111.99	16.79	
2025-01-13 10:17:49.45	111.96	16.82	
2025-01-13 10:17:49.65	111.93	16.84	
2025-01-13 10:17:49.86	111.90	16.86	
2025-01-13 10:17:50.06	111.87	16.88	
2025-01-13 10:17:50.27	111.83	16.90	
2025-01-13 10:17:50.49	111.80	16.93	
2025-01-13 10:17:50.69	111.77	16.95	
2025-01-13 10:17:50.90	111.74	16.97	
2025-01-13 10:17:51.10	111.71	16.99	
2025-01-13 10:17:51.31	111.68	17.01	
2025-01-13 10:17:51.51	111.65	17.03	
2025-01-13 10:17:51.72	111.62	17.06	
2025-01-13 10:17:51.92	111.59	17.08	
2025-01-13 10:17:52.13	111.56	17.10	
2025-01-13 10:17:52.33	111.53	17.12	
2025-01-13 10:17:52.54	111.50	17.14	
2025-01-13 10:17:52.74	111.47	17.16	
2025-01-13 10:17:52.95	111.43	17.19	
2025-01-13 10:17:53.15	111.40	17.21	
2025-01-13 10:17:53.36	111.37	17.23	
2025-01-13 10:17:53.56	111.34	17.25	
2025-01-13 10:17:53.76	111.31	17.27	
2025-01-13 10:17:53.97	111.28	17.30	
2025-01-13 10:17:54.17	111.25	17.32	
2025-01-13 10:17:54.38	111.22	17.34	
2025-01-13 10:17:54.58	111.19	17.36	
2025-01-13 10:17:54.80	111.15	17.38	
2025-01-13 10:17:55.01	111.12	17.41	
2025-01-13 10:17:55.21	111.09	17.43	
2025-01-13 10:17:55.42	111.06	17.45	
2025-01-13 10:17:55.62	111.03	17.47	
2025-01-13 10:17:55.83	110.99	17.49	
2025-01-13 10:17:56.03	110.96	17.52	
2025-01-13 10:17:56.24	110.93	17.54	
2025-01-13 10:17:56.44	110.90	17.56	
2025-01-13 10:17:56.65	110.87	17.58	
2025-01-13 10:17:56.85	110.84	17.60	
2025-01-13 10:17:57.06	110.80	17.63	
2025-01-13 10:17:57.26	110.77	17.65	
2025-01-13 10:17:57.47	110.74	17.67	
2025-01-13 10:17:57.67	110.71	17.69	
2025-01-13 10:17:57.88	110.67	17.71	
2025-01-13 10:17:58.08	110.64	17.74	
2025-01-13 10:17:58.29	110.61	17.76	
2025-01-13 10:17:58.49	110.58	17.78	
2025-01-13 10:17:58.70	110.55	17.80	
2025-01-13 10:17:58.90	110.51	17.82	
2025-01-13 10:17:59.11	110.48	17.85	
2025-01-13 10:17:59.31	110.45	17.87	
2025-01-13 10:17:59.52	110.42	17.89	
2025-01-13 10:17:59.72	110.38	17.91	
2025-01-13 10:17:59.93	110.35	17.94	
2025-01-13 10:18:00.15	110.31	17.96	
2025-01-13 10:18:00.35	110.28	17.98	
2025-01-13 10:18:00.56	110.25	18.00	
2025-01-13 10:18:00.76	110.22	18.03	
2025-01-13 10:18:00.97	110.18	18.05	
2025-01-13 10:18:01.17	110.15	18.07	
2025-01-13 10:18:01.37	110.12	18.09	
2025-01-13 10:18:01.58	110.09	18.12	
2025-01-13 10:18:01.79	110.05	18.14	
2025-01-13 10:18:01.99	110.02	18.16	
2025-01-13 10:18:02.20	109.98	18.18	
2025-01-13 10:18:02.40	109.95	18.20	
2025-01-13 10:18:02.61	109.92	18.23	
2025-01-13 10:18:02.81	109.89	18.25	
2025-01-13 10:18:03.02	109.85	18.27	
2025-01-13 10:18:03.22	109.82	18.29	
2025-01-13 10:18:03.43	109.78	18.32	
2025-01-13 10:18:03.63	109.75	18.34	
2025-01-13 10:18:03.84	109.72	18.36	
2025-01-13 10:18:04.04	109.68	18.38	
2025-01-13 10:18:04.25	109.65	18.41	
2025-01-13 10:18:04.45	109.62	18.43	
2025-01-13 10:18:04.66	109.58	18.45	
2025-01-13 10:18:04.86	109.55	18.47	
2025-01-13 10:18:05.07	109.51	18.50	
2025-01-13 10:18:05.27	109.48	18.52	
2025-01-13 10:18:05.48	109.45	18.54	
2025-01-13 10:18:05.68	109.41	18.56	
2025-01-13 10:18:05.89	109.38	18.59	
2025-01-13 10:18:06.09	109.34	18.61	
2025-01-13 10:18:06.30	109.31	18.63	
2025-01-13 10:18:06.50	109.28	18.66	
2025-01-13 10:18:06.70	109.24	18.68	
2025-01-13 10:18:06.91	109.21	18.70	
2025-01-13 10:18:07.12	109.17	18.72	
2025-01-13 10:18:07.32	109.14	18.75	
2025-01-13 10:18:07.52	109.10	18.77	
2025-01-13 10:18:07.73	109.07	18.79	
2025-01-13 10:18:07.93	109.03	18.81	
2025-01-13 10:18:08.14	109.00	18.84	
2025-01-13 10:18:08.35	108.96	18.86	
2025-01-13 10:18:08.55	108.93	18.88	
2025-01-13 10:18:08.76	108.89	18.91	
2025-01-13 10:18:08.96	108.86	18.93	
2025-01-13 10:18:09.17	108.82	18.95	
2025-01-13 10:18:09.38	108.79	18.97	
2025-01-13 10:18:09.58	108.75	19.00	
2025-01-13 10:18:09.78	108.72	19.02	
2025-01-13 10:18:09.99	108.68	19.04	
2025-01-13 10:18:10.19	108.65	19.06	
2025-01-13 10:18:10.40	108.61	19.09	
2025-01-13 10:18:10.60	108.58	19.11	
2025-01-13 10:18:10.81	108.54	19.13	
2025-01-13 10:18:11.01	108.51	19.16	
2025-01-13 10:18:11.22	108.47	19.18	
2025-01-13 10:18:11.42	108.43	19.20	
2025-01-13 10:18:11.63	108.40	19.23	
2025-01-13 10:18:11.83	108.36	19.25	
2025-01-13 10:18:12.04	108.33	19.27	
2025-01-13 10:18:12.24	108.29	19.29	
2025-01-13 10:18:12.45	108.25	19.32	
2025-01-13 10:18:12.65	108.22	19.34	
2025-01-13 10:18:12.87	108.18	19.36	
2025-01-13 10:18:13.08	108.14	19.39	
2025-01-13 10:18:13.29	108.11	19.41	
2025-01-13 10:18:13.49	108.07	19.43	
2025-01-13 10:18:13.70	108.03	19.46	
2025-01-13 10:18:13.91	108.00	19.48	
2025-01-13 10:18:14.12	107.96	19.51	
2025-01-13 10:18:14.33	107.92	19.53	
2025-01-13 10:18:14.53	107.89	19.55	
2025-01-13 10:18:14.74	107.85	19.58	
2025-01-13 10:18:14.94	107.81	19.60	
2025-01-13 10:18:15.14	107.78	19.62	
2025-01-13 10:18:15.35	107.74	19.64	
2025-01-13 10:18:15.55	107.70	19.67	
2025-01-13 10:18:15.76	107.66	19.69	
2025-01-13 10:18:15.97	107.63	19.71	
2025-01-13 10:18:16.17	107.59	19.74	
2025-01-13 10:18:16.37	107.55	19.76	
2025-01-13 10:18:16.58	107.52	19.78	
2025-01-13 10:18:16.78	107.48	19.81	
2025-01-13 10:18:16.99	107.44	19.83	
2025-01-13 10:18:17.19	107.41	19.85	
2025-01-13 10:18:17.40	107.37	19.88	
2025-01-13 10:18:17.60	107.33	19.90	
2025-01-13 10:18:17.81	107.29	19.92	
2025-01-13 10:18:18.01	107.26	19.95	
2025-01-13 10:18:18.22	107.22	19.97	
2025-01-13 10:18:18.42	107.18	19.99	
2025-01-13 10:18:18.63	107.14	20.02	
2025-01-13 10:18:18.83	107.10	20.04	
2025-01-13 10:18:19.04	107.07	20.06	
2025-01-13 10:18:19.24	107.03	20.09	
2025-01-13 10:18:19.45	106.99	20.11	
2025-01-13 10:18:19.66	106.95	20.13	
2025-01-13 10:18:19.86	106.91	20.16	
2025-01-13 10:18:20.07	106.87	20.18	
2025-01-13 10:18:20.27	106.84	20.20	
2025-01-13 10:18:20.47	106.80	20.23	
2025-01-13 10:18:20.68	106.76	20.25	
2025-01-13 10:18:20.89	106.72	20.27	
2025-01-13 10:18:21.09	106.68	20.30	
2025-01-13 10:18:21.30	106.64	20.32	
2025-01-13 10:18:21.50	106.61	20.34	
2025-01-13 10:18:21.70	106.57	20.37	
2025-01-13 10:18:21.91	106.53	20.39	
2025-01-13 10:18:22.12	106.49	20.41	
2025-01-13 10:18:22.32	106.45	20.44	
2025-01-13 10:18:22.53	106.41	20.46	
2025-01-13 10:18:22.73	106.37	20.48	
2025-01-13 10:18:22.94	106.33	20.51	
2025-01-13 10:18:23.14	106.29	20.53	
2025-01-13 10:18:23.35	106.25	20.56	
2025-01-13 10:18:23.55	106.22	20.58	
2025-01-13 10:18:23.76	106.18	20.60	
2025-01-13 10:18:23.96	106.14	20.63	
2025-01-13 10:18:24.17	106.10	20.65	
2025-01-13 10:18:24.37	106.06	20.67	
2025-01-13 10:18:24.57	106.02	20.70	
2025-01-13 10:18:24.78	105.98	20.72	
2025-01-13 10:18:24.98	105.94	20.74	
2025-01-13 10:18:25.19	105.90	20.77	
2025-01-13 10:18:25.40	105.86	20.79	
2025-01-13 10:18:25.60	105.82	20.82	
2025-01-13 10:18:25.81	105.78	20.84	
2025-01-13 10:18:26.01	105.74	20.86	
2025-01-13 10:18:26.22	105.70	20.89	
2025-01-13 10:18:26.42	105.66	20.91	
2025-01-13 10:18:26.63	105.62	20.93	
2025-01-13 10:18:26.83	105.58	20.96	
2025-01-13 10:18:27.04	105.54	20.98	
2025-01-13 10:18:27.24	105.50	21.01	
2025-01-13 10:18:27.45	105.46	21.03	
2025-01-13 10:18:27.65	105.42	21.05	
2025-01-13 10:18:27.86	105.38	21.08	
2025-01-13 10:18:28.06	105.34	21.10	
2025-01-13 10:18:28.27	105.29	21.13	
2025-01-13 10:18:28.47	105.25	21.15	
2025-01-13 10:18:28.68	105.21	21.17	
2025-01-13 10:18:28.88	105.17	21.20	
2025-01-13 10:18:29.09	105.13	21.22	
2025-01-13 10:18:29.29	105.09	21.24	
2025-01-13 10:18:29.50	105.05	21.27	
2025-01-13 10:18:29.70	105.01	21.29	
2025-01-13 10:18:29.92	104.96	21.32	
2025-01-13 10:18:30.13	104.92	21.34	
2025-01-13 10:18:30.33	104.88	21.37	
2025-01-13 10:18:30.54	104.84	21.39	
2025-01-13 10:18:30.74	104.80	21.41	
2025-01-13 10:18:30.95	104.75	21.44	
2025-01-13 10:18:31.15	104.71	21.46	
2025-01-13 10:18:31.36	104.67	21.49	
2025-01-13 10:18:31.56	104.63	21.51	
2025-01-13 10:18:31.77	104.59	21.53	
2025-01-13 10:18:31.97	104.55	21.56	
2025-01-13 10:18:32.18	104.50	21.58	
2025-01-13 10:18:32.38	104.46	21.60	
2025-01-13 10:18:32.59	104.42	21.63	
2025-01-13 10:18:32.79	104.38	21.65	
2025-01-13 10:18:33.00	104.33	21.68	
2025-01-13 10:18:33.20	104.29	21.70	
2025-01-13 10:18:33.41	104.25	21.73	
2025-01-13 10:18:33.62	104.21	21.75	
2025-01-13 10:18:33.82	104.16	21.77	
2025-01-13 10:18:34.03	104.12	21.80	
2025-01-13 10:18:34.23	104.08	21.82	
2025-01-13 10:18:34.44	104.03	21.85	
2025-01-13 10:18:34.64	103.99	21.87	
2025-01-13 10:18:34.85	103.95	21.89	
2025-01-13 10:18:35.05	103.91	21.92	
2025-01-13 10:18:35.26	103.86	21.94	
2025-01-13 10:18:35.46	103.82	21.97	
2025-01-13 10:18:35.67	103.78	21.99	
2025-01-13 10:18:35.87	103.73	22.01	
2025-01-13 10:18:36.08	103.69	22.04	
2025-01-13 10:18:36.28	103.65	22.06	
2025-01-13 10:18:36.49	103.60	22.09	
2025-01-13 10:18:36.70	103.56	22.11	
2025-01-13 10:18:36.90	103.51	22.14	
2025-01-13 10:18:37.11	103.47	22.16	
2025-01-13 10:18:37.31	103.43	22.18	
2025-01-13 10:18:37.51	103.38	22.21	
2025-01-13 10:18:37.72	103.34	22.23	
2025-01-13 10:18:37.93	103.29	22.26	
2025-01-13 10:18:38.13	103.25	22.28	
2025-01-13 10:18:38.33	103.21	22.31	
2025-01-13 10:18:38.54	103.16	22.33	
2025-01-13 10:18:38.74	103.12	22.35	
2025-01-13 10:18:38.95	103.07	22.38	
2025-01-13 10:18:39.15	103.03	22.40	
2025-01-13 10:18:39.36	102.98	22.43	
2025-01-13 10:18:39.58	102.94	22.45	
2025-01-13 10:18:39.78	102.89	22.48	
2025-01-13 10:18:39.99	102.85	22.50	
2025-01-13 10:18:40.19	102.80	22.53	
2025-01-13 10:18:40.40	102.76	22.55	
2025-01-13 10:18:40.60	102.71	22.57	
2025-01-13 10:18:40.81	102.67	22.60	
2025-01-13 10:18:41.01	102.62	22.62	
2025-01-13 10:18:41.22	102.58	22.65	
2025-01-13 10:18:41.42	102.53	22.67	
2025-01-13 10:18:41.63	102.49	22.70	
2025-01-13 10:18:41.83	102.44	22.72	
2025-01-13 10:18:42.04	102.40	22.75	
2025-01-13 10:18:42.25	102.35	22.77	
2025-01-13 10:18:42.45	102.30	22.79	
2025-01-13 10:18:42.65	102.26	22.82	
2025-01-13 10:18:42.86	102.21	22.84	
2025-01-13 10:18:43.06	102.17	22.87	
2025-01-13 10:18:43.27	102.12	22.89	
2025-01-13 10:18:43.47	102.08	22.92	
2025-01-13 10:18:43.68	102.03	22.94	
2025-01-13 10:18:43.88	101.98	22.96	
2025-01-13 10:18:44.09	101.94	22.99	
2025-01-13 10:18:44.29	101.89	23.01	
2025-01-13 10:18:44.50	101.84	23.04	
2025-01-13 10:18:44.70	101.80	23.06	
2025-01-13 10:18:44.91	101.75	23.09	
2025-01-13 10:18:45.11	101.70	23.11	
2025-01-13 10:18:45.31	101.66	23.13	
2025-01-13 10:18:45.52	101.61	23.16	
2025-01-13 10:18:45.73	101.56	23.18	
2025-01-13 10:18:45.94	101.51	23.21	
2025-01-13 10:18:46.15	101.47	23.23	
2025-01-13 10:18:46.35	101.42	23.26	
2025-01-13 10:18:46.56	101.37	23.28	
2025-01-13 10:18:46.76	101.33	23.31	
2025-01-13 10:18:46.97	101.28	23.33	
2025-01-13 10:18:47.17	101.23	23.36	
2025-01-13 10:18:47.38	101.18	23.38	
2025-01-13 10:18:47.58	101.14	23.41	
2025-01-13 10:18:47.79	101.09	23.43	
2025-01-13 10:18:47.99	101.04	23.45	
2025-01-13 10:18:48.20	100.99	23.48	
2025-01-13 10:18:48.40	100.94	23.50	
2025-01-13 10:18:48.61	100.90	23.53	
2025-01-13 10:18:48.81	100.85	23.55	
2025-01-13 10:18:49.02	100.80	23.58	
2025-01-13 10:18:49.22	100.75	23.60	
2025-01-13 10:18:49.43	100.70	23.63	
2025-01-13 10:18:49.63	100.66	23.65	
2025-01-13 10:18:49.84	100.61	23.68	
2025-01-13 10:18:50.04	100.56	23.70	
2025-01-13 10:18:50.26	100.51	23.73	
2025-01-13 10:18:50.47	100.46	23.75	
2025-01-13 10:18:50.67	100.41	23.78	
2025-01-13 10:18:50.88	100.36	23.80	
2025-01-13 10:18:51.09	100.31	23.83	
2025-01-13 10:18:51.29	100.26	23.85	
2025-01-13 10:18:51.50	100.21	23.88	
2025-01-13 10:18:51.70	100.16	23.90	
2025-01-13 10:18:51.91	100.11	23.92	
2025-01-13 10:18:52.11	100.06	23.95	
2025-01-13 10:18:52.32	100.01	23.97	
2025-01-13 10:18:52.52	99.96	24.00	
2025-01-13 10:18:52.73	99.91	24.02	
2025-01-13 10:18:52.93	99.87	24.05	
2025-01-13 10:18:53.14	99.81	24.07	
2025-01-13 10:18:53.34	99.77	24.10	
2025-01-13 10:18:53.55	99.71	24.12	
2025-01-13 10:18:53.76	99.66	24.15	
2025-01-13 10:18:53.96	99.61	24.17	
2025-01-13 10:18:54.17	99.56	24.20	
2025-01-13 10:18:54.37	99.51	24.22	
2025-01-13 10:18:54.59	99.46	24.25	
2025-01-13 10:18:54.80	99.41	24.27	
2025-01-13 10:18:55.00	99.36	24.30	
2025-01-13 10:18:55.21	99.31	24.32	
2025-01-13 10:18:55.42	99.25	24.35	
2025-01-13 10:18:55.63	99.20	24.37	
2025-01-13 10:18:55.84	99.15	24.40	
2025-01-13 10:18:56.04	99.10	24.42	
2025-01-13 10:18:56.25	99.05	24.45	
2025-01-13 10:18:56.45	99.00	24.47	
2025-01-13 10:18:56.66	98.95	24.49	
2025-01-13 10:18:56.86	98.90	24.52	
2025-01-13 10:18:57.07	98.84	24.54	
2025-01-13 10:18:57.28	98.79	24.57	
2025-01-13 10:18:57.48	98.74	24.59	
2025-01-13 10:18:57.68	98.69	24.62	
2025-01-13 10:18:57.89	98.64	24.64	
2025-01-13 10:18:58.10	98.58	24.67	
2025-01-13 10:18:58.30	98.53	24.69	
2025-01-13 10:18:58.51	98.48	24.72	
2025-01-13 10:18:58.71	98.43	24.74	
2025-01-13 10:18:58.92	98.38	24.77	
2025-01-13 10:18:59.13	98.32	24.79	
2025-01-13 10:18:59.34	98.27	24.82	
2025-01-13 10:18:59.54	98.22	24.84	
2025-01-13 10:18:59.75	98.16	24.87	
2025-01-13 10:18:59.95	98.11	24.89	
2025-01-13 10:19:00.16	98.06	24.92	
2025-01-13 10:19:00.36	98.01	24.94	
2025-01-13 10:19:00.57	97.95	24.96	
2025-01-13 10:19:00.77	97.90	24.99	
2025-01-13 10:19:00.99	97.84	25.02	
2025-01-13 10:19:01.20	97.79	25.04	
2025-01-13 10:19:01.40	97.74	25.06	
2025-01-13 10:19:01.61	97.68	25.09	
2025-01-13 10:19:01.81	97.63	25.11	
2025-01-13 10:19:02.02	97.58	25.14	
2025-01-13 10:19:02.22	97.52	25.16	
2025-01-13 10:19:02.43	97.47	25.19	
2025-01-13 10:19:02.63	97.42	25.21	
2025-01-13 10:19:02.84	97.36	25.24	
2025-01-13 10:19:03.04	97.31	25.26	
2025-01-13 10:19:03.25	97.25	25.29	
2025-01-13 10:19:03.45	97.20	25.31	
2025-01-13 10:19:03.66	97.15	25.34	
2025-01-13 10:19:03.87	97.09	25.36	
2025-01-13 10:19:04.07	97.04	25.39	
2025-01-13 10:19:04.28	96.98	25.41	
2025-01-13 10:19:04.48	96.93	25.43	
2025-01-13 10:19:04.69	96.87	25.46	
2025-01-13 10:19:04.89	96.82	25.48	
2025-01-13 10:19:05.10	96.76	25.51	
2025-01-13 10:19:05.30	96.71	25.53	
2025-01-13 10:19:05.50	96.66	25.56	
2025-01-13 10:19:05.71	96.60	25.58	
2025-01-13 10:19:05.91	96.55	25.61	
2025-01-13 10:19:06.12	96.49	25.63	
2025-01-13 10:19:06.32	96.44	25.65	
2025-01-13 10:19:06.53	96.38	25.68	
2025-01-13 10:19:06.73	96.32	25.70	
2025-01-13 10:19:06.94	96.27	25.73	
2025-01-13 10:19:07.15	96.21	25.75	
2025-01-13 10:19:07.35	96.16	25.78	
2025-01-13 10:19:07.55	96.10	25.80	
2025-01-13 10:19:07.76	96.04	25.83	
2025-01-13 10:19:07.97	95.99	25.85	
2025-01-13 10:19:08.17	95.93	25.88	
2025-01-13 10:19:08.37	95.88	25.90	
2025-01-13 10:19:08.58	95.82	25.93	
2025-01-13 10:19:08.78	95.76	25.95	
2025-01-13 10:19:08.99	95.71	25.97	
2025-01-13 10:19:09.19	95.65	26.00	
2025-01-13 10:19:09.40	95.59	26.02	
2025-01-13 10:19:09.60	95.54	26.05	
2025-01-13 10:19:09.81	95.48	26.07	
2025-01-13 10:19:10.02	95.42	26.10	
2025-01-13 10:19:10.22	95.37	26.12	
2025-01-13 10:19:10.42	95.31	26.15	
2025-01-13 10:19:10.63	95.25	26.17	
2025-01-13 10:19:10.83	95.20	26.19	
2025-01-13 10:19:11.04	95.14	26.22	
2025-01-13 10:19:11.24	95.08	26.24	
2025-01-13 10:19:11.45	95.02	26.27	
2025-01-13 10:19:11.65	94.97	26.29	
2025-01-13 10:19:11.86	94.91	26.32	
2025-01-13 10:19:12.06	94.85	26.34	
2025-01-13 10:19:12.27	94.79	26.37	
2025-01-13 10:19:12.47	94.73	26.39	
2025-01-13 10:19:12.69	94.67	26.42	
2025-01-13 10:19:12.89	94.61	26.44	
2025-01-13 10:19:13.10	94.56	26.46	
2025-01-13 10:19:13.30	94.50	26.49	
2025-01-13 10:19:13.51	94.44	26.51	
2025-01-13 10:19:13.72	94.38	26.54	
2025-01-13 10:19:13.92	94.32	26.56	
2025-01-13 10:19:14.13	94.26	26.59	
2025-01-13 10:19:14.33	94.20	26.61	
2025-01-13 10:19:14.54	94.14	26.64	
2025-01-13 10:19:14.74	94.09	26.66	
2025-01-13 10:19:14.95	94.02	26.68	
2025-01-13 10:19:15.15	93.97	26.71	
2025-01-13 10:19:15.36	93.91	26.73	
2025-01-13 10:19:15.56	93.85	26.76	
2025-01-13 10:19:15.76	93.79	26.78	
2025-01-13 10:19:15.97	93.73	26.80	
2025-01-13 10:19:16.17	93.67	26.83	
2025-01-13 10:19:16.38	93.61	26.85	
2025-01-13 10:19:16.59	93.55	26.88	
2025-01-13 10:19:16.79	93.49	26.90	
2025-01-13 10:19:17.00	93.43	26.93	
2025-01-13 10:19:17.20	93.37	26.95	
2025-01-13 10:19:17.41	93.31	26.97	
2025-01-13 10:19:17.61	93.25	27.00	
2025-01-13 10:19:17.82	93.19	27.02	
2025-01-13 10:19:18.02	93.13	27.05	
2025-01-13 10:19:18.23	93.06	27.07	
2025-01-13 10:19:18.43	93.01	27.09	
2025-01-13 10:19:18.64	92.94	27.12	
2025-01-13 10:19:18.85	92.88	27.14	
2025-01-13 10:19:19.05	92.82	27.17	
2025-01-13 10:19:19.26	92.76	27.19	
2025-01-13 10:19:19.46	92.70	27.22	
2025-01-13 10:19:19.67	92.64	27.24	
2025-01-13 10:19:19.87	92.58	27.26	
2025-01-13 10:19:20.08	92.51	27.29	
2025-01-13 10:19:20.28	92.45	27.31	
2025-01-13 10:19:20.49	92.39	27.34	
2025-01-13 10:19:20.69	92.33	27.36	
2025-01-13 10:19:20.90	92.27	27.38	
2025-01-13 10:19:21.10	92.20	27.41	
2025-01-13 10:19:21.30	92.14	27.43	
2025-01-13 10:19:21.51	92.08	27.46	
2025-01-13 10:19:21.71	92.02	27.48	
2025-01-13 10:19:21.92	91.96	27.50	
2025-01-13 10:19:22.12	91.89	27.53	
2025-01-13 10:19:22.33	91.83	27.55	
2025-01-13 10:19:22.53	91.77	27.57	
2025-01-13 10:19:22.74	91.70	27.60	
2025-01-13 10:19:22.95	91.64	27.62	
2025-01-13 10:19:23.15	91.58	27.65	
2025-01-13 10:19:23.37	91.51	27.67	
2025-01-13 10:19:23.57	91.45	27.69	
2025-01-13 10:19:23.78	91.38	27.72	
2025-01-13 10:19:23.98	91.32	27.74	
2025-01-13 10:19:24.19	91.26	27.77	
2025-01-13 10:19:24.41	91.19	27.79	
2025-01-13 10:19:24.61	91.13	27.81	
2025-01-13 10:19:24.82	91.06	27.84	
2025-01-13 10:19:25.02	91.00	27.86	
2025-01-13 10:19:25.23	90.93	27.89	
2025-01-13 10:19:25.43	90.87	27.91	
2025-01-13 10:19:25.64	90.81	27.93	
2025-01-13 10:19:25.84	90.74	27.96	
2025-01-13 10:19:26.05	90.68	27.98	
2025-01-13 10:19:26.25	90.61	28.00	
2025-01-13 10:19:26.45	90.55	28.03	
2025-01-13 10:19:26.66	90.48	28.05	
2025-01-13 10:19:26.87	90.42	28.07	
2025-01-13 10:19:27.07	90.36	28.10	
2025-01-13 10:19:27.28	90.29	28.12	
2025-01-13 10:19:27.48	90.22	28.14	
2025-01-13 10:19:27.69	90.16	28.17	
2025-01-13 10:19:27.89	90.09	28.19	
2025-01-13 10:19:28.10	90.03	28.22	
2025-01-13 10:19:28.30	89.96	28.24	
2025-01-13 10:19:28.51	89.90	28.26	
2025-01-13 10:19:28.71	89.83	28.28	
2025-01-13 10:19:28.92	89.76	28.31	
2025-01-13 10:19:29.12	89.70	28.33	
2025-01-13 10:19:29.33	89.63	28.36	
2025-01-13 10:19:29.54	89.57	28.38	
2025-01-13 10:19:29.74	89.50	28.40	
2025-01-13 10:19:29.95	89.43	28.43	
2025-01-13 10:19:30.15	89.37	28.45	
2025-01-13 10:19:30.35	89.30	28.47	
2025-01-13 10:19:30.56	89.24	28.49	
2025-01-13 10:19:30.78	89.16	28.52	
2025-01-13 10:19:30.98	89.10	28.54	
2025-01-13 10:19:31.19	89.03	28.57	
2025-01-13 10:19:31.39	88.96	28.59	
2025-01-13 10:19:31.60	88.90	28.61	
2025-01-13 10:19:31.80	88.83	28.63	
2025-01-13 10:19:32.01	88.76	28.66	
2025-01-13 10:19:32.21	88.70	28.68	
2025-01-13 10:19:32.42	88.63	28.70	
2025-01-13 10:19:32.62	88.56	28.73	
2025-01-13 10:19:32.83	88.49	28.75	
2025-01-13 10:19:33.03	88.42	28.77	
2025-01-13 10:19:33.24	88.36	28.79	
2025-01-13 10:19:33.44	88.29	28.82	
2025-01-13 10:19:33.65	88.22	28.84	
2025-01-13 10:19:33.85	88.15	28.86	
2025-01-13 10:19:34.05	88.09	28.88	
2025-01-13 10:19:34.26	88.02	28.91	
2025-01-13 10:19:34.47	87.95	28.93	
2025-01-13 10:19:34.67	87.88	28.95	
2025-01-13 10:19:34.88	87.81	28.98	
2025-01-13 10:19:35.08	87.74	29.00	
2025-01-13 10:19:35.29	87.67	29.02	
2025-01-13 10:19:35.49	87.60	29.04	
2025-01-13 10:19:35.70	87.53	29.07	
2025-01-13 10:19:35.90	87.47	29.09	
2025-01-13 10:19:36.12	87.39	29.11	
2025-01-13 10:19:36.33	87.32	29.14	
2025-01-13 10:19:36.53	87.25	29.16	
2025-01-13 10:19:36.74	87.18	29.18	
2025-01-13 10:19:36.95	87.11	29.20	
2025-01-13 10:19:37.15	87.04	29.23	
2025-01-13 10:19:37.36	86.97	29.25	
2025-01-13 10:19:37.56	86.90	29.27	
2025-01-13 10:19:37.77	86.83	29.29	
2025-01-13 10:19:37.98	86.76	29.32	
2025-01-13 10:19:38.18	86.69	29.34	
2025-01-13 10:19:38.39	86.62	29.36	
2025-01-13 10:19:38.59	86.55	29.38	
2025-01-13 10:19:38.80	86.48	29.40	
2025-01-13 10:19:39.01	86.40	29.43	
2025-01-13 10:19:39.21	86.33	29.45	
2025-01-13 10:19:39.42	86.26	29.47	
2025-01-13 10:19:39.62	86.19	29.49	
2025-01-13 10:19:39.83	86.12	29.52	
2025-01-13 10:19:40.04	86.05	29.54	
2025-01-13 10:19:40.24	85.98	29.56	
2025-01-13 10:19:40.44	85.91	29.58	
2025-01-13 10:19:40.65	85.83	29.60	
2025-01-13 10:19:40.86	85.76	29.63	
2025-01-13 10:19:41.06	85.69	29.65	
2025-01-13 10:19:41.27	85.62	29.67	
2025-01-13 10:19:41.47	85.55	29.69	
2025-01-13 10:19:41.68	85.47	29.71	
2025-01-13 10:19:41.88	85.40	29.73	
2025-01-13 10:19:42.09	85.33	29.76	
2025-01-13 10:19:42.29	85.26	29.78	
2025-01-13 10:19:42.50	85.18	29.80	
2025-01-13 10:19:42.70	85.11	29.82	
2025-01-13 10:19:42.91	85.04	29.84	
2025-01-13 10:19:43.12	84.96	29.86	
2025-01-13 10:19:43.32	84.89	29.88	
2025-01-13 10:19:43.52	84.82	29.91	
2025-01-13 10:19:43.73	84.75	29.93	
2025-01-13 10:19:43.94	84.67	29.95	
2025-01-13 10:19:44.14	84.60	29.97	
2025-01-13 10:19:44.35	84.53	29.99	
2025-01-13 10:19:44.55	84.45	30.01	
2025-01-13 10:19:44.76	84.38	30.03	
2025-01-13 10:19:44.96	84.31	30.06	
2025-01-13 10:19:45.16	84.24	30.08	
2025-01-13 10:19:45.37	84.16	30.10	
2025-01-13 10:19:45.57	84.09	30.12	
2025-01-13 10:19:45.79	84.01	30.14	
2025-01-13 10:19:45.99	83.94	30.16	
2025-01-13 10:19:46.20	83.86	30.18	
2025-01-13 10:19:46.41	83.78	30.20	
2025-01-13 10:19:46.61	83.71	30.22	
2025-01-13 10:19:46.81	83.64	30.24	
2025-01-13 10:19:47.02	83.56	30.27	
2025-01-13 10:19:47.23	83.48	30.29	
2025-01-13 10:19:47.43	83.41	30.31	
2025-01-13 10:19:47.65	83.33	30.33	
2025-01-13 10:19:47.85	83.26	30.35	
2025-01-13 10:19:48.06	83.18	30.37	
2025-01-13 10:19:48.27	83.10	30.39	
2025-01-13 10:19:48.47	83.03	30.41	
2025-01-13 10:19:48.68	82.95	30.43	
2025-01-13 10:19:48.88	82.88	30.45	
2025-01-13 10:19:49.09	82.80	30.47	
2025-01-13 10:19:49.29	82.73	30.49	
2025-01-13 10:19:49.50	82.65	30.51	
2025-01-13 10:19:49.70	82.58	30.53	
2025-01-13 10:19:49.91	82.50	30.56	
2025-01-13 10:19:50.11	82.42	30.57	
2025-01-13 10:19:50.32	82.35	30.60	
2025-01-13 10:19:50.53	82.27	30.62	
2025-01-13 10:19:50.73	82.19	30.64	
2025-01-13 10:19:50.94	82.12	30.66	
2025-01-13 10:19:51.15	82.04	30.68	
2025-01-13 10:19:51.36	81.96	30.70	
2025-01-13 10:19:51.56	81.88	30.72	
2025-01-13 10:19:51.77	81.80	30.74	
2025-01-13 10:19:51.97	81.73	30.76	
2025-01-13 10:19:52.18	81.65	30.78	
2025-01-13 10:19:52.38	81.58	30.80	
2025-01-13 10:19:52.59	81.50	30.82	
2025-01-13 10:19:52.80	81.42	30.84	
2025-01-13 10:19:53.00	81.34	30.86	
2025-01-13 10:19:53.20	81.27	30.87	
2025-01-13 10:19:53.41	81.19	30.89	
2025-01-13 10:19:53.62	81.11	30.91	
2025-01-13 10:19:53.82	81.03	30.93	
2025-01-13 10:19:54.03	80.95	30.95	
2025-01-13 10:19:54.23	80.87	30.97	
2025-01-13 10:19:54.44	80.79	30.99	
2025-01-13 10:19:54.64	80.72	31.01	
2025-01-13 10:19:54.85	80.64	31.03	
2025-01-13 10:19:55.05	80.56	31.05	
2025-01-13 10:19:55.25	80.48	31.07	
2025-01-13 10:19:55.46	80.40	31.09	
2025-01-13 10:19:55.67	80.32	31.11	
2025-01-13 10:19:55.87	80.25	31.13	
2025-01-13 10:19:56.08	80.17	31.15	
2025-01-13 10:19:56.28	80.09	31.16	
2025-01-13 10:19:56.49	80.01	31.18	
2025-01-13 10:19:56.69	79.93	31.20	
2025-01-13 10:19:56.90	79.85	31.22	
2025-01-13 10:19:57.10	79.77	31.24	
2025-01-13 10:19:57.31	79.69	31.26	
2025-01-13 10:19:57.53	79.60	31.28	
2025-01-13 10:19:57.73	79.53	31.30	
2025-01-13 10:19:57.94	79.44	31.31	
2025-01-13 10:19:58.14	79.37	31.33	
2025-01-13 10:19:58.35	79.28	31.35	
2025-01-13 10:19:58.55	79.21	31.37	
2025-01-13 10:19:58.76	79.12	31.39	
2025-01-13 10:19:58.96	79.05	31.41	
2025-01-13 10:19:59.17	78.96	31.42	
2025-01-13 10:19:59.38	78.88	31.44	
2025-01-13 10:19:59.59	78.80	31.46	
2025-01-13 10:19:59.80	78.72	31.48	
2025-01-13 10:20:00.00	78.64	31.50	
2025-01-13 10:20:00.22	78.55	31.52	
2025-01-13 10:20:00.43	78.47	31.54	
2025-01-13 10:20:00.63	78.39	31.55	
2025-01-13 10:20:00.83	78.31	31.57	
2025-01-13 10:20:01.04	78.23	31.59	
2025-01-13 10:20:01.25	78.14	31.61	
2025-01-13 10:20:01.45	78.06	31.62	
2025-01-13 10:20:01.65	77.98	31.64	
2025-01-13 10:20:01.86	77.90	31.66	
2025-01-13 10:20:02.06	77.82	31.68	
2025-01-13 10:20:02.27	77.74	31.69	
2025-01-13 10:20:02.48	77.65	31.71	
2025-01-13 10:20:02.68	77.57	31.73	
2025-01-13 10:20:02.89	77.49	31.75	
2025-01-13 10:20:03.09	77.41	31.76	
2025-01-13 10:20:03.30	77.33	31.78	
2025-01-13 10:20:03.50	77.24	31.80	
2025-01-13 10:20:03.71	77.16	31.82	
2025-01-13 10:20:03.91	77.08	31.83	
2025-01-13 10:20:04.11	77.00	31.85	
2025-01-13 10:20:04.32	76.91	31.87	
2025-01-13 10:20:04.53	76.83	31.88	
2025-01-13 10:20:04.73	76.75	31.90	
2025-01-13 10:20:04.93	76.67	31.92	
2025-01-13 10:20:05.14	76.58	31.93	
2025-01-13 10:20:05.35	76.50	31.95	
2025-01-13 10:20:05.55	76.42	31.97	
2025-01-13 10:20:05.76	76.33	31.98	
2025-01-13 10:20:05.96	76.25	32.00	
2025-01-13 10:20:06.17	76.16	32.02	
2025-01-13 10:20:06.37	76.08	32.03	
2025-01-13 10:20:06.58	76.00	32.05	
2025-01-13 10:20:06.78	75.92	32.06	
2025-01-13 10:20:06.99	75.83	32.08	
2025-01-13 10:20:07.19	75.75	32.10	
2025-01-13 10:20:07.40	75.66	32.11	
2025-01-13 10:20:07.60	75.58	32.13	
2025-01-13 10:20:07.81	75.49	32.14	
2025-01-13 10:20:08.02	75.41	32.16	
2025-01-13 10:20:08.22	75.33	32.18	
2025-01-13 10:20:08.42	75.24	32.19	
2025-01-13 10:20:08.63	75.16	32.21	
2025-01-13 10:20:08.84	75.07	32.22	
2025-01-13 10:20:09.04	74.99	32.24	
2025-01-13 10:20:09.25	74.90	32.25	
2025-01-13 10:20:09.45	74.82	32.27	
2025-01-13 10:20:09.66	74.73	32.29	
2025-01-13 10:20:09.86	74.65	32.30	
2025-01-13 10:20:10.07	74.56	32.32	
2025-01-13 10:20:10.27	74.48	32.33	
2025-01-13 10:20:10.47	74.40	32.35	
2025-01-13 10:20:10.68	74.31	32.36	
2025-01-13 10:20:10.89	74.22	32.38	
2025-01-13 10:20:11.09	74.14	32.39	
2025-01-13 10:20:11.30	74.05	32.41	
2025-01-13 10:20:11.50	73.97	32.42	
2025-01-13 10:20:11.70	73.88	32.44	
2025-01-13 10:20:11.91	73.79	32.45	
2025-01-13 10:20:12.12	73.71	32.47	
2025-01-13 10:20:12.32	73.62	32.48	
2025-01-13 10:20:12.53	73.53	32.49	
2025-01-13 10:20:12.73	73.45	32.51	
2025-01-13 10:20:12.93	73.37	32.52	
2025-01-13 10:20:13.14	73.28	32.54	
2025-01-13 10:20:13.35	73.19	32.55	
2025-01-13 10:20:13.55	73.11	32.57	
2025-01-13 10:20:13.75	73.02	32.58	
2025-01-13 10:20:13.96	72.93	32.59	
2025-01-13 10:20:14.16	72.85	32.61	
2025-01-13 10:20:14.37	72.76	32.62	
2025-01-13 10:20:14.57	72.67	32.64	
2025-01-13 10:20:14.78	72.59	32.65	
2025-01-13 10:20:14.99	72.50	32.66	
2025-01-13 10:20:15.19	72.41	32.68	
2025-01-13 10:20:15.40	72.32	32.69	
2025-01-13 10:20:15.60	72.24	32.70	
2025-01-13 10:20:15.80	72.15	32.72	
2025-01-13 10:20:16.01	72.06	32.73	
2025-01-13 10:20:16.21	71.98	32.74	
2025-01-13 10:20:16.42	71.89	32.76	
2025-01-13 10:20:16.62	71.80	32.77	
2025-01-13 10:20:16.83	71.71	32.78	
2025-01-13 10:20:17.03	71.63	32.80	
2025-01-13 10:20:17.24	71.54	32.81	
2025-01-13 10:20:17.44	71.45	32.82	
2025-01-13 10:20:17.65	71.36	32.84	
2025-01-13 10:20:17.85	71.28	32.85	
2025-01-13 10:20:18.06	71.19	32.86	
2025-01-13 10:20:18.26	71.10	32.87	
2025-01-13 10:20:18.47	71.01	32.89	
2025-01-13 10:20:18.67	70.92	32.90	
2025-01-13 10:20:18.88	70.83	32.91	
2025-01-13 10:20:19.08	70.75	32.92	
2025-01-13 10:20:19.29	70.66	32.94	
2025-01-13 10:20:19.49	70.57	32.95	
2025-01-13 10:20:19.70	70.48	32.96	
2025-01-13 10:20:19.90	70.39	32.97	
2025-01-13 10:20:20.11	70.30	32.98	
2025-01-13 10:20:20.31	70.21	33.00	
2025-01-13 10:20:20.52	70.12	33.01	
2025-01-13 10:20:20.72	70.04	33.02	
2025-01-13 10:20:20.93	69.95	33.03	
2025-01-13 10:20:21.13	69.86	33.04	
2025-01-13 10:20:21.34	69.77	33.05	
2025-01-13 10:20:21.55	69.68	33.07	
2025-01-13 10:20:21.75	69.59	33.08	
2025-01-13 10:20:21.96	69.50	33.09	
2025-01-13 10:20:22.16	69.41	33.10	
2025-01-13 10:20:22.37	69.32	33.11	
2025-01-13 10:20:22.57	69.23	33.12	
2025-01-13 10:20:22.78	69.14	33.13	
2025-01-13 10:20:22.98	69.05	33.14	
2025-01-13 10:20:23.19	68.96	33.16	
2025-01-13 10:20:23.39	68.87	33.17	
2025-01-13 10:20:23.60	68.78	33.18	
2025-01-13 10:20:23.80	68.69	33.19	
2025-01-13 10:20:24.01	68.60	33.20	
2025-01-13 10:20:24.21	68.51	33.21	
2025-01-13 10:20:24.42	68.42	33.22	
2025-01-13 10:20:24.62	68.33	33.23	
2025-01-13 10:20:24.83	68.24	33.24	
2025-01-13 10:20:25.03	68.15	33.25	
2025-01-13 10:20:25.24	68.06	33.26	
2025-01-13 10:20:25.44	67.97	33.27	
2025-01-13 10:20:25.65	67.88	33.28	
2025-01-13 10:20:25.85	67.79	33.29	
2025-01-13 10:20:26.06	67.70	33.30	
2025-01-13 10:20:26.26	67.61	33.31	
2025-01-13 10:20:26.47	67.52	33.32	
2025-01-13 10:20:26.67	67.43	33.33	
2025-01-13 10:20:26.88	67.34	33.34	
2025-01-13 10:20:27.08	67.25	33.35	
2025-01-13 10:20:27.29	67.15	33.36	
2025-01-13 10:20:27.49	67.07	33.37	
2025-01-13 10:20:27.70	66.97	33.38	
2025-01-13 10:20:27.90	66.88	33.39	
2025-01-13 10:20:28.11	66.79	33.40	
2025-01-13 10:20:28.31	66.70	33.40	
2025-01-13 10:20:28.51	66.61	33.41	
2025-01-13 10:20:28.72	66.52	33.42	
2025-01-13 10:20:28.93	66.43	33.43	
2025-01-13 10:20:29.13	66.34	33.44	
2025-01-13 10:20:29.34	66.24	33.45	
2025-01-13 10:20:29.54	66.15	33.46	
2025-01-13 10:20:29.75	66.06	33.47	
2025-01-13 10:20:29.95	65.97	33.47	
2025-01-13 10:20:30.16	65.88	33.48	
2025-01-13 10:20:30.36	65.79	33.49	
2025-01-13 10:20:30.57	65.69	33.50	
2025-01-13 10:20:30.77	65.60	33.51	
2025-01-13 10:20:30.98	65.51	33.52	
2025-01-13 10:20:31.18	65.42	33.52	
2025-01-13 10:20:31.39	65.33	33.53	
2025-01-13 10:20:31.61	65.23	33.54	
2025-01-13 10:20:31.81	65.14	33.55	
2025-01-13 10:20:32.02	65.04	33.55	
2025-01-13 10:20:32.22	64.95	33.56	
2025-01-13 10:20:32.43	64.86	33.57	
2025-01-13 10:20:32.63	64.77	33.58	
2025-01-13 10:20:32.84	64.68	33.58	
2025-01-13 10:20:33.05	64.58	33.59	
2025-01-13 10:20:33.25	64.49	33.60	
2025-01-13 10:20:33.46	64.40	33.61	
2025-01-13 10:20:33.66	64.31	33.61	
2025-01-13 10:20:33.86	64.22	33.62	
2025-01-13 10:20:34.07	64.12	33.63	
2025-01-13 10:20:34.28	64.03	33.63	
2025-01-13 10:20:34.48	63.94	33.64	
2025-01-13 10:20:34.69	63.84	33.65	
2025-01-13 10:20:34.90	63.75	33.65	
2025-01-13 10:20:35.11	63.65	33.66	
2025-01-13 10:20:35.31	63.56	33.67	
2025-01-13 10:20:35.52	63.47	33.67	
2025-01-13 10:20:35.73	63.37	33.68	
2025-01-13 10:20:35.93	63.28	33.68	
2025-01-13 10:20:36.13	63.19	33.69	
2025-01-13 10:20:36.34	63.10	33.70	
2025-01-13 10:20:36.54	63.01	33.70	
2025-01-13 10:20:36.75	62.91	33.71	
2025-01-13 10:20:36.95	62.82	33.71	
2025-01-13 10:20:37.16	62.73	33.72	
2025-01-13 10:20:37.36	62.63	33.72	
2025-01-13 10:20:37.57	62.54	33.73	
2025-01-13 10:20:37.77	62.45	33.74	
2025-01-13 10:20:37.97	62.36	33.74	
2025-01-13 10:20:38.18	62.26	33.75	
2025-01-13 10:20:38.39	62.17	33.75	
2025-01-13 10:20:38.59	62.08	33.76	
2025-01-13 10:20:38.80	61.98	33.76	
2025-01-13 10:20:39.00	61.89	33.77	
2025-01-13 10:20:39.21	61.79	33.77	
2025-01-13 10:20:39.41	61.70	33.77	
2025-01-13 10:20:39.62	61.61	33.78	
2025-01-13 10:20:39.82	61.52	33.78	
2025-01-13 10:20:40.03	61.42	33.79	
2025-01-13 10:20:40.23	61.33	33.79	
2025-01-13 10:20:40.44	61.23	33.80	
2025-01-13 10:20:40.65	61.14	33.80	
2025-01-13 10:20:40.85	61.05	33.81	
2025-01-13 10:20:41.06	60.95	33.81	
2025-01-13 10:20:41.26	60.86	33.81	
2025-01-13 10:20:41.46	60.77	33.82	
2025-01-13 10:20:41.67	60.67	33.82	
2025-01-13 10:20:41.88	60.58	33.82	
2025-01-13 10:20:42.08	60.49	33.83	
2025-01-13 10:20:42.30	60.39	33.83	
2025-01-13 10:20:42.51	60.29	33.83	
2025-01-13 10:20:42.71	60.20	33.84	
2025-01-13 10:20:42.92	60.10	33.84	
2025-01-13 10:20:43.12	60.01	33.84	
2025-01-13 10:20:43.33	59.92	33.85	
2025-01-13 10:20:43.53	59.82	33.85	
2025-01-13 10:20:43.74	59.73	33.85	
2025-01-13 10:20:43.94	59.64	33.86	
2025-01-13 10:20:44.15	59.54	33.86	
2025-01-13 10:20:44.35	59.45	33.86	
2025-01-13 10:20:44.56	59.35	33.86	
2025-01-13 10:20:44.76	59.26	33.87	
2025-01-13 10:20:44.97	59.17	33.87	
2025-01-13 10:20:45.18	59.07	33.87	
2025-01-13 10:20:45.38	58.98	33.87	
2025-01-13 10:20:45.58	58.89	33.88	
2025-01-13 10:20:45.79	58.79	33.88	
2025-01-13 10:20:46.00	58.69	33.88	
2025-01-13 10:20:46.20	58.60	33.88	
2025-01-13 10:20:46.41	58.51	33.88	
2025-01-13 10:20:46.61	58.41	33.88	
2025-01-13 10:20:46.82	58.32	33.89	
2025-01-13 10:20:47.02	58.23	33.89	
2025-01-13 10:20:47.23	58.13	33.89	
2025-01-13 10:20:47.43	58.04	33.89	
2025-01-13 10:20:47.64	57.94	33.89	
2025-01-13 10:20:47.84	57.85	33.89	
2025-01-13 10:20:48.05	57.75	33.89	
2025-01-13 10:20:48.25	57.66	33.90	
2025-01-13 10:20:48.46	57.57	33.90	
2025-01-13 10:20:48.66	57.48	33.90	
2025-01-13 10:20:48.87	57.38	33.90	
2025-01-13 10:20:49.07	57.29	33.90	
2025-01-13 10:20:49.28	57.19	33.90	
2025-01-13 10:20:49.48	57.10	33.90	
2025-01-13 10:20:49.69	57.00	33.90	
2025-01-13 10:20:49.89	56.91	33.90	
2025-01-13 10:20:50.10	56.82	33.90	
2025-01-13 10:20:50.30	56.72	33.90	
2025-01-13 10:20:50.51	56.63	33.90	
2025-01-13 10:20:50.72	56.53	33.90	
2025-01-13 10:20:50.92	56.44	33.90	
2025-01-13 10:20:51.13	56.34	33.90	
2025-01-13 10:20:51.33	56.25	33.90	
2025-01-13 10:20:51.54	56.15	33.90	
2025-01-13 10:20:51.75	56.06	33.90	
2025-01-13 10:20:51.95	55.97	33.90	
2025-01-13 10:20:52.16	55.87	33.90	
2025-01-13 10:20:52.36	55.78	33.90	
2025-01-13 10:20:52.57	55.68	33.90	
2025-01-13 10:20:52.77	55.59	33.90	
2025-01-13 10:20:52.97	55.50	33.89	
2025-01-13 10:20:53.18	55.40	33.89	
2025-01-13 10:20:53.39	55.31	33.89	
2025-01-13 10:20:53.59	55.22	33.89	
2025-01-13 10:20:53.80	55.12	33.89	
2025-01-13 10:20:54.00	55.03	33.89	
2025-01-13 10:20:54.21	54.93	33.89	
2025-01-13 10:20:54.41	54.84	33.89	
2025-01-13 10:20:54.61	54.75	33.88	
2025-01-13 10:20:54.82	54.65	33.88	
2025-01-13 10:20:55.02	54.56	33.88	
2025-01-13 10:20:55.23	54.46	33.88	
2025-01-13 10:20:55.43	54.37	33.88	
2025-01-13 10:20:55.64	54.28	33.87	
2025-01-13 10:20:55.85	54.18	33.87	
