passes_logs/2025/01/13/SPB_Silybum_02/SPB_Silybum_02__20250113_234019_AQUA_rec.log

#Pass ID: 20250113_234019_AQUA
#Satellite: AQUA
#Configuration: AQUA
#Start time: 2025-01-13 23:40:18

#Version: 2.0.20230423
#Station: SPB_Silybum_02
#Location: 30.233357 lon 59.946436 lat
#TLE: 1 27424U 02022A   25013.15568498  .00001660  00000+0  35066-3 0  9997
#TLE: 2 27424  98.3585 329.8030 0001646 113.3422 303.6913 14.60674931207350

#Time	Az	El	Level	Level2	SNR	BER	Gain	Gain2
2025-01-13 23:40:20.78	29.11	4.07	
2025-01-13 23:40:20.98	29.13	4.09	
2025-01-13 23:40:21.19	29.15	4.10	
2025-01-13 23:40:21.40	29.17	4.11	
2025-01-13 23:40:21.60	29.19	4.12	
2025-01-13 23:40:21.80	29.21	4.13	
2025-01-13 23:40:22.01	29.23	4.15	
2025-01-13 23:40:22.22	29.25	4.16	
2025-01-13 23:40:22.42	29.27	4.17	
2025-01-13 23:40:22.62	29.29	4.18	
2025-01-13 23:40:22.83	29.31	4.19	
2025-01-13 23:40:23.03	29.33	4.21	
2025-01-13 23:40:23.24	29.35	4.22	
2025-01-13 23:40:23.45	29.37	4.23	
2025-01-13 23:40:23.65	29.39	4.24	
2025-01-13 23:40:23.86	29.41	4.25	
2025-01-13 23:40:24.06	29.43	4.26	
2025-01-13 23:40:24.27	29.45	4.28	
2025-01-13 23:40:24.47	29.47	4.29	
2025-01-13 23:40:24.68	29.49	4.30	
2025-01-13 23:40:24.88	29.51	4.31	
2025-01-13 23:40:25.09	29.53	4.32	
2025-01-13 23:40:25.29	29.55	4.34	
2025-01-13 23:40:25.50	29.57	4.35	
2025-01-13 23:40:25.70	29.59	4.36	
2025-01-13 23:40:25.91	29.61	4.37	
2025-01-13 23:40:26.11	29.63	4.38	
2025-01-13 23:40:26.32	29.66	4.40	
2025-01-13 23:40:26.52	29.68	4.41	
2025-01-13 23:40:26.73	29.70	4.42	
2025-01-13 23:40:26.93	29.72	4.43	
2025-01-13 23:40:27.13	29.74	4.44	
2025-01-13 23:40:27.34	29.76	4.46	
2025-01-13 23:40:27.54	29.78	4.47	
2025-01-13 23:40:27.75	29.80	4.48	
2025-01-13 23:40:27.97	29.82	4.49	
2025-01-13 23:40:28.17	29.84	4.50	
2025-01-13 23:40:28.38	29.86	4.52	
2025-01-13 23:40:28.58	29.88	4.53	
2025-01-13 23:40:28.79	29.90	4.54	
2025-01-13 23:40:29.00	29.92	4.55	
2025-01-13 23:40:29.21	29.94	4.56	
2025-01-13 23:40:29.42	29.96	4.58	
2025-01-13 23:40:29.62	29.98	4.59	
2025-01-13 23:40:29.83	30.01	4.60	
2025-01-13 23:40:30.03	30.03	4.61	
2025-01-13 23:40:30.23	30.05	4.62	
2025-01-13 23:40:30.44	30.07	4.64	
2025-01-13 23:40:30.64	30.09	4.65	
2025-01-13 23:40:30.85	30.11	4.66	
2025-01-13 23:40:31.05	30.13	4.67	
2025-01-13 23:40:31.26	30.15	4.68	
2025-01-13 23:40:31.47	30.17	4.70	
2025-01-13 23:40:31.67	30.19	4.71	
2025-01-13 23:40:31.88	30.21	4.72	
2025-01-13 23:40:32.08	30.23	4.73	
2025-01-13 23:40:32.29	30.25	4.74	
2025-01-13 23:40:32.49	30.28	4.76	
2025-01-13 23:40:32.70	30.30	4.77	
2025-01-13 23:40:32.90	30.32	4.78	
2025-01-13 23:40:33.11	30.34	4.79	
2025-01-13 23:40:33.31	30.36	4.80	
2025-01-13 23:40:33.52	30.38	4.82	
2025-01-13 23:40:33.73	30.40	4.83	
2025-01-13 23:40:33.93	30.42	4.84	
2025-01-13 23:40:34.14	30.44	4.85	
2025-01-13 23:40:34.34	30.46	4.87	
2025-01-13 23:40:34.55	30.49	4.88	
2025-01-13 23:40:34.75	30.51	4.89	
2025-01-13 23:40:34.96	30.53	4.90	
2025-01-13 23:40:35.16	30.55	4.91	
2025-01-13 23:40:35.36	30.57	4.93	
2025-01-13 23:40:35.57	30.59	4.94	
2025-01-13 23:40:35.78	30.61	4.95	
2025-01-13 23:40:35.98	30.63	4.96	
2025-01-13 23:40:36.19	30.65	4.97	
2025-01-13 23:40:36.39	30.68	4.99	
2025-01-13 23:40:36.60	30.70	5.00	
2025-01-13 23:40:36.80	30.72	5.01	
2025-01-13 23:40:37.01	30.74	5.02	
2025-01-13 23:40:37.22	30.76	5.03	
2025-01-13 23:40:37.42	30.78	5.05	
2025-01-13 23:40:37.62	30.80	5.06	
2025-01-13 23:40:37.83	30.82	5.07	
2025-01-13 23:40:38.04	30.85	5.08	
2025-01-13 23:40:38.24	30.87	5.10	
2025-01-13 23:40:38.45	30.89	5.11	
2025-01-13 23:40:38.67	30.91	5.12	
2025-01-13 23:40:38.87	30.93	5.13	
2025-01-13 23:40:39.08	30.95	5.14	
2025-01-13 23:40:39.28	30.98	5.16	
2025-01-13 23:40:39.49	31.00	5.17	
2025-01-13 23:40:39.69	31.02	5.18	
2025-01-13 23:40:39.90	31.04	5.19	
2025-01-13 23:40:40.10	31.06	5.21	
2025-01-13 23:40:40.31	31.08	5.22	
2025-01-13 23:40:40.52	31.11	5.23	
2025-01-13 23:40:40.72	31.13	5.24	
2025-01-13 23:40:40.92	31.15	5.25	
2025-01-13 23:40:41.13	31.17	5.27	
2025-01-13 23:40:41.34	31.19	5.28	
2025-01-13 23:40:41.54	31.21	5.29	
2025-01-13 23:40:41.74	31.23	5.30	
2025-01-13 23:40:41.95	31.26	5.31	
2025-01-13 23:40:42.16	31.28	5.33	
2025-01-13 23:40:42.36	31.30	5.34	
2025-01-13 23:40:42.57	31.32	5.35	
2025-01-13 23:40:42.77	31.34	5.36	
2025-01-13 23:40:42.98	31.37	5.38	
2025-01-13 23:40:43.18	31.39	5.39	
2025-01-13 23:40:43.39	31.41	5.40	
2025-01-13 23:40:43.60	31.43	5.41	
2025-01-13 23:40:43.80	31.45	5.42	
2025-01-13 23:40:44.00	31.47	5.44	
2025-01-13 23:40:44.21	31.50	5.45	
2025-01-13 23:40:44.41	31.52	5.46	
2025-01-13 23:40:44.62	31.54	5.47	
2025-01-13 23:40:44.83	31.56	5.49	
2025-01-13 23:40:45.03	31.58	5.50	
2025-01-13 23:40:45.23	31.61	5.51	
2025-01-13 23:40:45.44	31.63	5.52	
2025-01-13 23:40:45.65	31.65	5.54	
2025-01-13 23:40:45.85	31.67	5.55	
2025-01-13 23:40:46.05	31.69	5.56	
2025-01-13 23:40:46.26	31.72	5.57	
2025-01-13 23:40:46.47	31.74	5.58	
2025-01-13 23:40:46.67	31.76	5.60	
2025-01-13 23:40:46.88	31.78	5.61	
2025-01-13 23:40:47.08	31.81	5.62	
2025-01-13 23:40:47.29	31.83	5.63	
2025-01-13 23:40:47.49	31.85	5.64	
2025-01-13 23:40:47.70	31.87	5.66	
2025-01-13 23:40:47.91	31.90	5.67	
2025-01-13 23:40:48.11	31.92	5.68	
2025-01-13 23:40:48.31	31.94	5.69	
2025-01-13 23:40:48.52	31.96	5.71	
2025-01-13 23:40:48.73	31.98	5.72	
2025-01-13 23:40:48.93	32.01	5.73	
2025-01-13 23:40:49.14	32.03	5.74	
2025-01-13 23:40:49.36	32.05	5.76	
2025-01-13 23:40:49.56	32.08	5.77	
2025-01-13 23:40:49.76	32.10	5.78	
2025-01-13 23:40:49.97	32.12	5.79	
2025-01-13 23:40:50.18	32.14	5.81	
2025-01-13 23:40:50.39	32.17	5.82	
2025-01-13 23:40:50.60	32.19	5.83	
2025-01-13 23:40:50.80	32.21	5.84	
2025-01-13 23:40:51.01	32.23	5.86	
2025-01-13 23:40:51.21	32.26	5.87	
2025-01-13 23:40:51.42	32.28	5.88	
2025-01-13 23:40:51.62	32.30	5.89	
2025-01-13 23:40:51.83	32.32	5.91	
2025-01-13 23:40:52.03	32.35	5.92	
2025-01-13 23:40:52.24	32.37	5.93	
2025-01-13 23:40:52.44	32.39	5.94	
2025-01-13 23:40:52.65	32.42	5.95	
2025-01-13 23:40:52.85	32.44	5.97	
2025-01-13 23:40:53.06	32.46	5.98	
2025-01-13 23:40:53.27	32.48	5.99	
2025-01-13 23:40:53.47	32.51	6.00	
2025-01-13 23:40:53.68	32.53	6.02	
2025-01-13 23:40:53.88	32.55	6.03	
2025-01-13 23:40:54.09	32.58	6.04	
2025-01-13 23:40:54.29	32.60	6.05	
2025-01-13 23:40:54.50	32.62	6.07	
2025-01-13 23:40:54.70	32.64	6.08	
2025-01-13 23:40:54.91	32.67	6.09	
2025-01-13 23:40:55.11	32.69	6.10	
2025-01-13 23:40:55.32	32.71	6.12	
2025-01-13 23:40:55.53	32.74	6.13	
2025-01-13 23:40:55.73	32.76	6.14	
2025-01-13 23:40:55.94	32.78	6.15	
2025-01-13 23:40:56.14	32.80	6.16	
2025-01-13 23:40:56.34	32.83	6.18	
2025-01-13 23:40:56.55	32.85	6.19	
2025-01-13 23:40:56.75	32.87	6.20	
2025-01-13 23:40:56.96	32.90	6.21	
2025-01-13 23:40:57.17	32.92	6.23	
2025-01-13 23:40:57.38	32.94	6.24	
2025-01-13 23:40:57.59	32.97	6.25	
2025-01-13 23:40:57.80	32.99	6.27	
2025-01-13 23:40:58.00	33.01	6.28	
2025-01-13 23:40:58.21	33.04	6.29	
2025-01-13 23:40:58.41	33.06	6.30	
2025-01-13 23:40:58.62	33.09	6.31	
2025-01-13 23:40:58.82	33.11	6.33	
2025-01-13 23:40:59.03	33.13	6.34	
2025-01-13 23:40:59.23	33.15	6.35	
2025-01-13 23:40:59.44	33.18	6.36	
2025-01-13 23:40:59.64	33.20	6.38	
2025-01-13 23:40:59.85	33.23	6.39	
2025-01-13 23:41:00.05	33.25	6.40	
2025-01-13 23:41:00.26	33.27	6.41	
2025-01-13 23:41:00.46	33.30	6.43	
2025-01-13 23:41:00.66	33.32	6.44	
2025-01-13 23:41:00.86	33.34	6.45	
2025-01-13 23:41:01.07	33.37	6.46	
2025-01-13 23:41:01.27	33.39	6.48	
2025-01-13 23:41:01.48	33.41	6.49	
2025-01-13 23:41:01.68	33.44	6.50	
2025-01-13 23:41:01.89	33.46	6.51	
2025-01-13 23:41:02.09	33.48	6.53	
2025-01-13 23:41:02.29	33.51	6.54	
2025-01-13 23:41:02.50	33.53	6.55	
2025-01-13 23:41:02.71	33.55	6.56	
2025-01-13 23:41:02.91	33.58	6.58	
2025-01-13 23:41:03.11	33.60	6.59	
2025-01-13 23:41:03.32	33.63	6.60	
2025-01-13 23:41:03.52	33.65	6.61	
2025-01-13 23:41:03.73	33.67	6.63	
2025-01-13 23:41:03.94	33.70	6.64	
2025-01-13 23:41:04.14	33.72	6.65	
2025-01-13 23:41:04.34	33.74	6.66	
2025-01-13 23:41:04.55	33.77	6.68	
2025-01-13 23:41:04.75	33.79	6.69	
2025-01-13 23:41:04.96	33.82	6.70	
2025-01-13 23:41:05.17	33.84	6.71	
2025-01-13 23:41:05.37	33.86	6.73	
2025-01-13 23:41:05.58	33.89	6.74	
2025-01-13 23:41:05.78	33.91	6.75	
2025-01-13 23:41:05.99	33.94	6.76	
2025-01-13 23:41:06.19	33.96	6.78	
2025-01-13 23:41:06.41	33.99	6.79	
2025-01-13 23:41:06.61	34.01	6.80	
2025-01-13 23:41:06.82	34.03	6.81	
2025-01-13 23:41:07.02	34.06	6.83	
2025-01-13 23:41:07.23	34.08	6.84	
2025-01-13 23:41:07.43	34.11	6.85	
2025-01-13 23:41:07.64	34.13	6.86	
2025-01-13 23:41:07.85	34.16	6.88	
2025-01-13 23:41:08.05	34.18	6.89	
2025-01-13 23:41:08.26	34.20	6.90	
2025-01-13 23:41:08.46	34.23	6.91	
2025-01-13 23:41:08.66	34.25	6.93	
2025-01-13 23:41:08.87	34.28	6.94	
2025-01-13 23:41:09.08	34.30	6.95	
2025-01-13 23:41:09.28	34.33	6.96	
2025-01-13 23:41:09.49	34.35	6.98	
2025-01-13 23:41:09.69	34.37	6.99	
2025-01-13 23:41:09.90	34.40	7.00	
2025-01-13 23:41:10.10	34.42	7.01	
2025-01-13 23:41:10.31	34.45	7.03	
2025-01-13 23:41:10.51	34.47	7.04	
2025-01-13 23:41:10.72	34.50	7.05	
2025-01-13 23:41:10.92	34.52	7.07	
2025-01-13 23:41:11.13	34.55	7.08	
2025-01-13 23:41:11.33	34.57	7.09	
2025-01-13 23:41:11.54	34.60	7.10	
2025-01-13 23:41:11.75	34.62	7.12	
2025-01-13 23:41:11.96	34.65	7.13	
2025-01-13 23:41:12.17	34.67	7.14	
2025-01-13 23:41:12.37	34.70	7.15	
2025-01-13 23:41:12.58	34.72	7.17	
2025-01-13 23:41:12.78	34.75	7.18	
2025-01-13 23:41:12.99	34.77	7.19	
2025-01-13 23:41:13.19	34.80	7.20	
2025-01-13 23:41:13.40	34.82	7.22	
2025-01-13 23:41:13.60	34.84	7.23	
2025-01-13 23:41:13.81	34.87	7.24	
2025-01-13 23:41:14.01	34.89	7.26	
2025-01-13 23:41:14.22	34.92	7.27	
2025-01-13 23:41:14.42	34.94	7.28	
2025-01-13 23:41:14.63	34.97	7.29	
2025-01-13 23:41:14.83	34.99	7.31	
2025-01-13 23:41:15.04	35.02	7.32	
2025-01-13 23:41:15.24	35.04	7.33	
2025-01-13 23:41:15.45	35.07	7.34	
2025-01-13 23:41:15.65	35.09	7.36	
2025-01-13 23:41:15.86	35.12	7.37	
2025-01-13 23:41:16.08	35.15	7.38	
2025-01-13 23:41:16.28	35.17	7.40	
2025-01-13 23:41:16.49	35.20	7.41	
2025-01-13 23:41:16.69	35.22	7.42	
2025-01-13 23:41:16.90	35.25	7.43	
2025-01-13 23:41:17.10	35.27	7.45	
2025-01-13 23:41:17.31	35.30	7.46	
2025-01-13 23:41:17.51	35.32	7.47	
2025-01-13 23:41:17.72	35.35	7.48	
2025-01-13 23:41:17.93	35.38	7.50	
2025-01-13 23:41:18.13	35.40	7.51	
2025-01-13 23:41:18.34	35.43	7.52	
2025-01-13 23:41:18.54	35.45	7.54	
2025-01-13 23:41:18.75	35.48	7.55	
2025-01-13 23:41:18.95	35.50	7.56	
2025-01-13 23:41:19.16	35.53	7.57	
2025-01-13 23:41:19.36	35.55	7.59	
2025-01-13 23:41:19.57	35.58	7.60	
2025-01-13 23:41:19.77	35.60	7.61	
2025-01-13 23:41:19.98	35.63	7.62	
2025-01-13 23:41:20.18	35.66	7.64	
2025-01-13 23:41:20.38	35.68	7.65	
2025-01-13 23:41:20.59	35.71	7.66	
2025-01-13 23:41:20.80	35.73	7.68	
2025-01-13 23:41:21.00	35.76	7.69	
2025-01-13 23:41:21.21	35.78	7.70	
2025-01-13 23:41:21.41	35.81	7.71	
2025-01-13 23:41:21.62	35.84	7.73	
2025-01-13 23:41:21.82	35.86	7.74	
2025-01-13 23:41:22.02	35.89	7.75	
2025-01-13 23:41:22.23	35.91	7.76	
2025-01-13 23:41:22.43	35.94	7.78	
2025-01-13 23:41:22.64	35.96	7.79	
2025-01-13 23:41:22.85	35.99	7.80	
2025-01-13 23:41:23.05	36.02	7.81	
2025-01-13 23:41:23.26	36.04	7.83	
2025-01-13 23:41:23.46	36.07	7.84	
2025-01-13 23:41:23.67	36.09	7.85	
2025-01-13 23:41:23.87	36.12	7.87	
2025-01-13 23:41:24.08	36.15	7.88	
2025-01-13 23:41:24.28	36.17	7.89	
2025-01-13 23:41:24.49	36.20	7.90	
2025-01-13 23:41:24.69	36.22	7.92	
2025-01-13 23:41:24.90	36.25	7.93	
2025-01-13 23:41:25.10	36.28	7.94	
2025-01-13 23:41:25.31	36.30	7.96	
2025-01-13 23:41:25.51	36.33	7.97	
2025-01-13 23:41:25.72	36.36	7.98	
2025-01-13 23:41:25.94	36.38	7.99	
2025-01-13 23:41:26.14	36.41	8.01	
2025-01-13 23:41:26.34	36.44	8.02	
2025-01-13 23:41:26.55	36.46	8.03	
2025-01-13 23:41:26.75	36.49	8.05	
2025-01-13 23:41:26.96	36.52	8.06	
2025-01-13 23:41:27.17	36.54	8.07	
2025-01-13 23:41:27.37	36.57	8.08	
2025-01-13 23:41:27.58	36.60	8.10	
2025-01-13 23:41:27.78	36.62	8.11	
2025-01-13 23:41:27.99	36.65	8.12	
2025-01-13 23:41:28.19	36.67	8.14	
2025-01-13 23:41:28.40	36.70	8.15	
2025-01-13 23:41:28.61	36.73	8.16	
2025-01-13 23:41:28.81	36.75	8.17	
2025-01-13 23:41:29.02	36.78	8.19	
2025-01-13 23:41:29.22	36.81	8.20	
2025-01-13 23:41:29.43	36.84	8.21	
2025-01-13 23:41:29.63	36.86	8.23	
2025-01-13 23:41:29.84	36.89	8.24	
2025-01-13 23:41:30.04	36.92	8.25	
2025-01-13 23:41:30.25	36.94	8.26	
2025-01-13 23:41:30.45	36.97	8.28	
2025-01-13 23:41:30.66	37.00	8.29	
2025-01-13 23:41:30.86	37.02	8.30	
2025-01-13 23:41:31.07	37.05	8.32	
2025-01-13 23:41:31.28	37.08	8.33	
2025-01-13 23:41:31.48	37.10	8.34	
2025-01-13 23:41:31.69	37.13	8.35	
2025-01-13 23:41:31.89	37.16	8.37	
2025-01-13 23:41:32.09	37.18	8.38	
2025-01-13 23:41:32.30	37.21	8.39	
2025-01-13 23:41:32.50	37.24	8.41	
2025-01-13 23:41:32.71	37.27	8.42	
2025-01-13 23:41:32.92	37.29	8.43	
2025-01-13 23:41:33.12	37.32	8.44	
2025-01-13 23:41:33.32	37.35	8.46	
2025-01-13 23:41:33.53	37.37	8.47	
2025-01-13 23:41:33.73	37.40	8.48	
2025-01-13 23:41:33.94	37.43	8.50	
2025-01-13 23:41:34.14	37.46	8.51	
2025-01-13 23:41:34.35	37.48	8.52	
2025-01-13 23:41:34.56	37.51	8.53	
2025-01-13 23:41:34.76	37.54	8.55	
2025-01-13 23:41:34.97	37.57	8.56	
2025-01-13 23:41:35.17	37.59	8.57	
2025-01-13 23:41:35.37	37.62	8.59	
2025-01-13 23:41:35.58	37.65	8.60	
2025-01-13 23:41:35.79	37.68	8.61	
2025-01-13 23:41:35.99	37.70	8.62	
2025-01-13 23:41:36.19	37.73	8.64	
2025-01-13 23:41:36.40	37.76	8.65	
2025-01-13 23:41:36.61	37.79	8.66	
2025-01-13 23:41:36.81	37.81	8.68	
2025-01-13 23:41:37.02	37.84	8.69	
2025-01-13 23:41:37.22	37.87	8.70	
2025-01-13 23:41:37.43	37.90	8.72	
2025-01-13 23:41:37.63	37.92	8.73	
2025-01-13 23:41:37.84	37.95	8.74	
2025-01-13 23:41:38.04	37.98	8.75	
2025-01-13 23:41:38.25	38.01	8.77	
2025-01-13 23:41:38.45	38.03	8.78	
2025-01-13 23:41:38.66	38.06	8.79	
2025-01-13 23:41:38.86	38.09	8.81	
2025-01-13 23:41:39.07	38.12	8.82	
2025-01-13 23:41:39.28	38.15	8.83	
2025-01-13 23:41:39.49	38.18	8.84	
2025-01-13 23:41:39.69	38.20	8.86	
2025-01-13 23:41:39.90	38.23	8.87	
2025-01-13 23:41:40.10	38.26	8.88	
2025-01-13 23:41:40.31	38.29	8.90	
2025-01-13 23:41:40.51	38.32	8.91	
2025-01-13 23:41:40.71	38.34	8.92	
2025-01-13 23:41:40.92	38.37	8.94	
2025-01-13 23:41:41.12	38.40	8.95	
2025-01-13 23:41:41.33	38.43	8.96	
2025-01-13 23:41:41.53	38.46	8.97	
2025-01-13 23:41:41.74	38.48	8.99	
2025-01-13 23:41:41.94	38.51	9.00	
2025-01-13 23:41:42.15	38.54	9.01	
2025-01-13 23:41:42.35	38.57	9.03	
2025-01-13 23:41:42.56	38.60	9.04	
2025-01-13 23:41:42.78	38.63	9.05	
2025-01-13 23:41:42.98	38.66	9.07	
2025-01-13 23:41:43.19	38.68	9.08	
2025-01-13 23:41:43.40	38.71	9.09	
2025-01-13 23:41:43.60	38.74	9.10	
2025-01-13 23:41:43.80	38.77	9.12	
2025-01-13 23:41:44.01	38.80	9.13	
2025-01-13 23:41:44.21	38.83	9.14	
2025-01-13 23:41:44.42	38.86	9.16	
2025-01-13 23:41:44.63	38.88	9.17	
2025-01-13 23:41:44.83	38.91	9.18	
2025-01-13 23:41:45.03	38.94	9.20	
2025-01-13 23:41:45.24	38.97	9.21	
2025-01-13 23:41:45.44	39.00	9.22	
2025-01-13 23:41:45.65	39.03	9.23	
2025-01-13 23:41:45.85	39.06	9.25	
2025-01-13 23:41:46.06	39.08	9.26	
2025-01-13 23:41:46.26	39.11	9.27	
2025-01-13 23:41:46.47	39.14	9.29	
2025-01-13 23:41:46.67	39.17	9.30	
2025-01-13 23:41:46.87	39.20	9.31	
2025-01-13 23:41:47.08	39.23	9.32	
2025-01-13 23:41:47.29	39.26	9.34	
2025-01-13 23:41:47.49	39.29	9.35	
2025-01-13 23:41:47.70	39.32	9.36	
2025-01-13 23:41:47.90	39.34	9.38	
2025-01-13 23:41:48.11	39.37	9.39	
2025-01-13 23:41:48.31	39.40	9.40	
2025-01-13 23:41:48.52	39.43	9.42	
2025-01-13 23:41:48.72	39.46	9.43	
2025-01-13 23:41:48.93	39.49	9.44	
2025-01-13 23:41:49.15	39.52	9.46	
2025-01-13 23:41:49.35	39.55	9.47	
2025-01-13 23:41:49.56	39.58	9.48	
2025-01-13 23:41:49.76	39.61	9.50	
2025-01-13 23:41:49.97	39.64	9.51	
2025-01-13 23:41:50.17	39.67	9.52	
2025-01-13 23:41:50.38	39.70	9.53	
2025-01-13 23:41:50.59	39.73	9.55	
2025-01-13 23:41:50.79	39.76	9.56	
2025-01-13 23:41:51.00	39.79	9.57	
2025-01-13 23:41:51.20	39.81	9.59	
2025-01-13 23:41:51.41	39.84	9.60	
2025-01-13 23:41:51.61	39.87	9.61	
2025-01-13 23:41:51.82	39.90	9.63	
2025-01-13 23:41:52.02	39.93	9.64	
2025-01-13 23:41:52.23	39.96	9.65	
2025-01-13 23:41:52.43	39.99	9.66	
2025-01-13 23:41:52.64	40.02	9.68	
2025-01-13 23:41:52.84	40.05	9.69	
2025-01-13 23:41:53.05	40.08	9.70	
2025-01-13 23:41:53.25	40.11	9.72	
2025-01-13 23:41:53.46	40.14	9.73	
2025-01-13 23:41:53.66	40.17	9.74	
2025-01-13 23:41:53.87	40.20	9.76	
2025-01-13 23:41:54.07	40.23	9.77	
2025-01-13 23:41:54.28	40.26	9.78	
2025-01-13 23:41:54.50	40.29	9.80	
2025-01-13 23:41:54.70	40.32	9.81	
2025-01-13 23:41:54.91	40.35	9.82	
2025-01-13 23:41:55.11	40.38	9.84	
2025-01-13 23:41:55.32	40.41	9.85	
2025-01-13 23:41:55.52	40.44	9.86	
2025-01-13 23:41:55.73	40.47	9.87	
2025-01-13 23:41:55.93	40.50	9.89	
2025-01-13 23:41:56.14	40.53	9.90	
2025-01-13 23:41:56.35	40.56	9.91	
2025-01-13 23:41:56.55	40.59	9.93	
2025-01-13 23:41:56.75	40.62	9.94	
2025-01-13 23:41:56.96	40.65	9.95	
2025-01-13 23:41:57.17	40.68	9.97	
2025-01-13 23:41:57.37	40.71	9.98	
2025-01-13 23:41:57.58	40.75	9.99	
2025-01-13 23:41:57.78	40.77	10.01	
2025-01-13 23:41:57.99	40.81	10.02	
2025-01-13 23:41:58.19	40.84	10.03	
2025-01-13 23:41:58.40	40.87	10.04	
2025-01-13 23:41:58.60	40.90	10.06	
2025-01-13 23:41:58.81	40.93	10.07	
2025-01-13 23:41:59.01	40.96	10.08	
2025-01-13 23:41:59.22	40.99	10.10	
2025-01-13 23:41:59.42	41.02	10.11	
2025-01-13 23:41:59.63	41.05	10.12	
2025-01-13 23:41:59.83	41.08	10.14	
2025-01-13 23:42:00.04	41.11	10.15	
2025-01-13 23:42:00.24	41.14	10.16	
2025-01-13 23:42:00.45	41.17	10.18	
2025-01-13 23:42:00.65	41.20	10.19	
2025-01-13 23:42:00.87	41.24	10.20	
2025-01-13 23:42:01.08	41.27	10.22	
2025-01-13 23:42:01.28	41.30	10.23	
2025-01-13 23:42:01.48	41.33	10.24	
2025-01-13 23:42:01.69	41.36	10.25	
2025-01-13 23:42:01.89	41.39	10.27	
2025-01-13 23:42:02.10	41.42	10.28	
2025-01-13 23:42:02.31	41.45	10.29	
2025-01-13 23:42:02.51	41.48	10.31	
2025-01-13 23:42:02.72	41.51	10.32	
2025-01-13 23:42:02.92	41.54	10.33	
2025-01-13 23:42:03.13	41.58	10.35	
2025-01-13 23:42:03.33	41.61	10.36	
2025-01-13 23:42:03.54	41.64	10.37	
2025-01-13 23:42:03.75	41.67	10.39	
2025-01-13 23:42:03.95	41.70	10.40	
2025-01-13 23:42:04.16	41.73	10.41	
2025-01-13 23:42:04.36	41.76	10.43	
2025-01-13 23:42:04.57	41.80	10.44	
2025-01-13 23:42:04.77	41.83	10.45	
2025-01-13 23:42:04.98	41.86	10.47	
2025-01-13 23:42:05.18	41.89	10.48	
2025-01-13 23:42:05.38	41.92	10.49	
2025-01-13 23:42:05.59	41.95	10.50	
2025-01-13 23:42:05.80	41.98	10.52	
2025-01-13 23:42:06.00	42.02	10.53	
2025-01-13 23:42:06.21	42.05	10.54	
2025-01-13 23:42:06.41	42.08	10.56	
2025-01-13 23:42:06.61	42.11	10.57	
2025-01-13 23:42:06.82	42.14	10.58	
2025-01-13 23:42:07.03	42.17	10.60	
2025-01-13 23:42:07.23	42.20	10.61	
2025-01-13 23:42:07.44	42.24	10.62	
2025-01-13 23:42:07.64	42.27	10.64	
2025-01-13 23:42:07.85	42.30	10.65	
2025-01-13 23:42:08.05	42.33	10.66	
2025-01-13 23:42:08.26	42.36	10.67	
2025-01-13 23:42:08.46	42.40	10.69	
2025-01-13 23:42:08.66	42.43	10.70	
2025-01-13 23:42:08.87	42.46	10.71	
2025-01-13 23:42:09.07	42.49	10.73	
2025-01-13 23:42:09.28	42.52	10.74	
2025-01-13 23:42:09.49	42.56	10.75	
2025-01-13 23:42:09.69	42.59	10.77	
2025-01-13 23:42:09.90	42.62	10.78	
2025-01-13 23:42:10.10	42.65	10.79	
2025-01-13 23:42:10.31	42.68	10.81	
2025-01-13 23:42:10.51	42.72	10.82	
2025-01-13 23:42:10.72	42.75	10.83	
2025-01-13 23:42:10.92	42.78	10.84	
2025-01-13 23:42:11.13	42.81	10.86	
2025-01-13 23:42:11.34	42.85	10.87	
2025-01-13 23:42:11.54	42.88	10.88	
2025-01-13 23:42:11.75	42.91	10.90	
2025-01-13 23:42:11.95	42.94	10.91	
2025-01-13 23:42:12.16	42.98	10.92	
2025-01-13 23:42:12.36	43.01	10.94	
2025-01-13 23:42:12.56	43.04	10.95	
2025-01-13 23:42:12.77	43.07	10.96	
2025-01-13 23:42:12.98	43.11	10.98	
2025-01-13 23:42:13.18	43.14	10.99	
2025-01-13 23:42:13.39	43.17	11.00	
2025-01-13 23:42:13.59	43.20	11.02	
2025-01-13 23:42:13.80	43.24	11.03	
2025-01-13 23:42:14.00	43.27	11.04	
2025-01-13 23:42:14.21	43.30	11.06	
2025-01-13 23:42:14.41	43.33	11.07	
2025-01-13 23:42:14.62	43.37	11.08	
2025-01-13 23:42:14.82	43.40	11.09	
2025-01-13 23:42:15.03	43.43	11.11	
2025-01-13 23:42:15.24	43.47	11.12	
2025-01-13 23:42:15.44	43.50	11.13	
2025-01-13 23:42:15.65	43.53	11.15	
2025-01-13 23:42:15.86	43.57	11.16	
2025-01-13 23:42:16.07	43.60	11.17	
2025-01-13 23:42:16.28	43.63	11.19	
2025-01-13 23:42:16.48	43.67	11.20	
2025-01-13 23:42:16.69	43.70	11.21	
2025-01-13 23:42:16.89	43.73	11.23	
2025-01-13 23:42:17.09	43.76	11.24	
2025-01-13 23:42:17.30	43.80	11.25	
2025-01-13 23:42:17.50	43.83	11.27	
2025-01-13 23:42:17.71	43.86	11.28	
2025-01-13 23:42:17.91	43.90	11.29	
2025-01-13 23:42:18.12	43.93	11.31	
2025-01-13 23:42:18.32	43.96	11.32	
2025-01-13 23:42:18.53	44.00	11.33	
2025-01-13 23:42:18.73	44.03	11.34	
2025-01-13 23:42:18.94	44.06	11.36	
2025-01-13 23:42:19.14	44.10	11.37	
2025-01-13 23:42:19.35	44.13	11.38	
2025-01-13 23:42:19.55	44.16	11.40	
2025-01-13 23:42:19.76	44.20	11.41	
2025-01-13 23:42:19.97	44.23	11.42	
2025-01-13 23:42:20.18	44.27	11.44	
2025-01-13 23:42:20.39	44.30	11.45	
2025-01-13 23:42:20.59	44.33	11.46	
2025-01-13 23:42:20.80	44.37	11.48	
2025-01-13 23:42:21.00	44.40	11.49	
2025-01-13 23:42:21.21	44.44	11.50	
2025-01-13 23:42:21.41	44.47	11.52	
2025-01-13 23:42:21.62	44.50	11.53	
2025-01-13 23:42:21.82	44.54	11.54	
2025-01-13 23:42:22.03	44.57	11.56	
2025-01-13 23:42:22.23	44.61	11.57	
2025-01-13 23:42:22.44	44.64	11.58	
2025-01-13 23:42:22.65	44.68	11.60	
2025-01-13 23:42:22.85	44.71	11.61	
2025-01-13 23:42:23.06	44.74	11.62	
2025-01-13 23:42:23.26	44.78	11.63	
2025-01-13 23:42:23.46	44.81	11.65	
2025-01-13 23:42:23.67	44.84	11.66	
2025-01-13 23:42:23.88	44.88	11.67	
2025-01-13 23:42:24.08	44.91	11.69	
2025-01-13 23:42:24.29	44.95	11.70	
2025-01-13 23:42:24.49	44.98	11.71	
2025-01-13 23:42:24.69	45.02	11.73	
2025-01-13 23:42:24.90	45.05	11.74	
2025-01-13 23:42:25.12	45.09	11.75	
2025-01-13 23:42:25.32	45.12	11.77	
2025-01-13 23:42:25.54	45.16	11.78	
2025-01-13 23:42:25.74	45.19	11.79	
2025-01-13 23:42:25.95	45.23	11.81	
2025-01-13 23:42:26.15	45.26	11.82	
2025-01-13 23:42:26.36	45.30	11.83	
2025-01-13 23:42:26.57	45.33	11.85	
2025-01-13 23:42:26.78	45.37	11.86	
2025-01-13 23:42:26.98	45.40	11.87	
2025-01-13 23:42:27.19	45.44	11.89	
2025-01-13 23:42:27.39	45.47	11.90	
2025-01-13 23:42:27.59	45.50	11.91	
2025-01-13 23:42:27.80	45.54	11.92	
2025-01-13 23:42:28.01	45.58	11.94	
2025-01-13 23:42:28.21	45.61	11.95	
2025-01-13 23:42:28.42	45.64	11.96	
2025-01-13 23:42:28.62	45.68	11.98	
2025-01-13 23:42:28.83	45.71	11.99	
2025-01-13 23:42:29.03	45.75	12.00	
2025-01-13 23:42:29.24	45.78	12.02	
2025-01-13 23:42:29.45	45.82	12.03	
2025-01-13 23:42:29.65	45.85	12.04	
2025-01-13 23:42:29.86	45.89	12.06	
2025-01-13 23:42:30.06	45.93	12.07	
2025-01-13 23:42:30.27	45.96	12.08	
2025-01-13 23:42:30.47	46.00	12.09	
2025-01-13 23:42:30.68	46.03	12.11	
2025-01-13 23:42:30.88	46.07	12.12	
2025-01-13 23:42:31.09	46.10	12.13	
2025-01-13 23:42:31.29	46.14	12.15	
2025-01-13 23:42:31.50	46.17	12.16	
2025-01-13 23:42:31.70	46.21	12.17	
2025-01-13 23:42:31.91	46.24	12.19	
2025-01-13 23:42:32.12	46.28	12.20	
2025-01-13 23:42:32.32	46.32	12.21	
2025-01-13 23:42:32.53	46.35	12.23	
2025-01-13 23:42:32.73	46.39	12.24	
2025-01-13 23:42:32.95	46.42	12.25	
2025-01-13 23:42:33.15	46.46	12.27	
2025-01-13 23:42:33.36	46.50	12.28	
2025-01-13 23:42:33.56	46.53	12.29	
2025-01-13 23:42:33.77	46.57	12.30	
2025-01-13 23:42:33.97	46.60	12.32	
2025-01-13 23:42:34.18	46.64	12.33	
2025-01-13 23:42:34.38	46.67	12.34	
2025-01-13 23:42:34.59	46.71	12.36	
2025-01-13 23:42:34.79	46.75	12.37	
2025-01-13 23:42:35.00	46.78	12.38	
2025-01-13 23:42:35.20	46.82	12.40	
2025-01-13 23:42:35.41	46.85	12.41	
2025-01-13 23:42:35.61	46.89	12.42	
2025-01-13 23:42:35.82	46.93	12.43	
2025-01-13 23:42:36.03	46.96	12.45	
2025-01-13 23:42:36.23	47.00	12.46	
2025-01-13 23:42:36.44	47.04	12.47	
2025-01-13 23:42:36.64	47.07	12.49	
2025-01-13 23:42:36.85	47.11	12.50	
2025-01-13 23:42:37.06	47.15	12.51	
2025-01-13 23:42:37.26	47.18	12.53	
2025-01-13 23:42:37.46	47.22	12.54	
2025-01-13 23:42:37.67	47.25	12.55	
2025-01-13 23:42:37.88	47.29	12.57	
2025-01-13 23:42:38.08	47.33	12.58	
2025-01-13 23:42:38.28	47.36	12.59	
2025-01-13 23:42:38.49	47.40	12.60	
2025-01-13 23:42:38.70	47.44	12.62	
2025-01-13 23:42:38.90	47.47	12.63	
2025-01-13 23:42:39.11	47.51	12.64	
2025-01-13 23:42:39.31	47.55	12.66	
2025-01-13 23:42:39.52	47.58	12.67	
2025-01-13 23:42:39.72	47.62	12.68	
2025-01-13 23:42:39.93	47.66	12.70	
2025-01-13 23:42:40.13	47.69	12.71	
2025-01-13 23:42:40.34	47.73	12.72	
2025-01-13 23:42:40.54	47.77	12.73	
2025-01-13 23:42:40.75	47.80	12.75	
2025-01-13 23:42:40.95	47.84	12.76	
2025-01-13 23:42:41.16	47.88	12.77	
2025-01-13 23:42:41.36	47.91	12.79	
2025-01-13 23:42:41.57	47.95	12.80	
2025-01-13 23:42:41.77	47.99	12.81	
2025-01-13 23:42:41.98	48.03	12.83	
2025-01-13 23:42:42.19	48.06	12.84	
2025-01-13 23:42:42.39	48.10	12.85	
2025-01-13 23:42:42.60	48.14	12.86	
2025-01-13 23:42:42.80	48.18	12.88	
2025-01-13 23:42:43.01	48.21	12.89	
2025-01-13 23:42:43.22	48.25	12.90	
2025-01-13 23:42:43.42	48.29	12.92	
2025-01-13 23:42:43.63	48.33	12.93	
2025-01-13 23:42:43.83	48.36	12.94	
2025-01-13 23:42:44.03	48.40	12.95	
2025-01-13 23:42:44.24	48.44	12.97	
2025-01-13 23:42:44.45	48.48	12.98	
2025-01-13 23:42:44.65	48.51	12.99	
2025-01-13 23:42:44.86	48.55	13.01	
2025-01-13 23:42:45.06	48.59	13.02	
2025-01-13 23:42:45.27	48.63	13.03	
2025-01-13 23:42:45.47	48.66	13.05	
2025-01-13 23:42:45.68	48.70	13.06	
2025-01-13 23:42:45.88	48.74	13.07	
2025-01-13 23:42:46.09	48.78	13.08	
2025-01-13 23:42:46.29	48.81	13.10	
2025-01-13 23:42:46.49	48.85	13.11	
2025-01-13 23:42:46.70	48.89	13.12	
2025-01-13 23:42:46.90	48.93	13.14	
2025-01-13 23:42:47.11	48.97	13.15	
2025-01-13 23:42:47.31	49.00	13.16	
2025-01-13 23:42:47.52	49.04	13.17	
2025-01-13 23:42:47.73	49.08	13.19	
2025-01-13 23:42:47.93	49.12	13.20	
2025-01-13 23:42:48.14	49.16	13.21	
2025-01-13 23:42:48.34	49.19	13.23	
2025-01-13 23:42:48.55	49.23	13.24	
2025-01-13 23:42:48.76	49.27	13.25	
2025-01-13 23:42:48.96	49.31	13.26	
2025-01-13 23:42:49.17	49.35	13.28	
2025-01-13 23:42:49.37	49.39	13.29	
2025-01-13 23:42:49.58	49.43	13.30	
2025-01-13 23:42:49.78	49.46	13.32	
2025-01-13 23:42:49.99	49.50	13.33	
2025-01-13 23:42:50.19	49.54	13.34	
2025-01-13 23:42:50.40	49.58	13.35	
2025-01-13 23:42:50.62	49.62	13.37	
2025-01-13 23:42:50.82	49.66	13.38	
2025-01-13 23:42:51.03	49.70	13.39	
2025-01-13 23:42:51.23	49.74	13.41	
2025-01-13 23:42:51.44	49.78	13.42	
2025-01-13 23:42:51.64	49.81	13.43	
2025-01-13 23:42:51.85	49.85	13.45	
2025-01-13 23:42:52.05	49.89	13.46	
2025-01-13 23:42:52.26	49.93	13.47	
2025-01-13 23:42:52.46	49.97	13.48	
2025-01-13 23:42:52.67	50.01	13.50	
2025-01-13 23:42:52.87	50.05	13.51	
2025-01-13 23:42:53.08	50.09	13.52	
2025-01-13 23:42:53.28	50.12	13.53	
2025-01-13 23:42:53.49	50.16	13.55	
2025-01-13 23:42:53.69	50.20	13.56	
2025-01-13 23:42:53.90	50.24	13.57	
2025-01-13 23:42:54.11	50.28	13.59	
2025-01-13 23:42:54.31	50.32	13.60	
2025-01-13 23:42:54.51	50.36	13.61	
2025-01-13 23:42:54.72	50.40	13.62	
2025-01-13 23:42:54.92	50.44	13.64	
2025-01-13 23:42:55.13	50.48	13.65	
2025-01-13 23:42:55.34	50.52	13.66	
2025-01-13 23:42:55.54	50.56	13.67	
2025-01-13 23:42:55.74	50.60	13.69	
2025-01-13 23:42:55.95	50.64	13.70	
2025-01-13 23:42:56.16	50.68	13.71	
2025-01-13 23:42:56.36	50.72	13.73	
2025-01-13 23:42:56.58	50.76	13.74	
2025-01-13 23:42:56.78	50.80	13.75	
2025-01-13 23:42:56.99	50.84	13.76	
2025-01-13 23:42:57.19	50.88	13.78	
2025-01-13 23:42:57.40	50.92	13.79	
2025-01-13 23:42:57.60	50.96	13.80	
2025-01-13 23:42:57.81	51.00	13.82	
2025-01-13 23:42:58.01	51.03	13.83	
2025-01-13 23:42:58.21	51.07	13.84	
2025-01-13 23:42:58.42	51.11	13.85	
2025-01-13 23:42:58.62	51.15	13.87	
2025-01-13 23:42:58.83	51.19	13.88	
2025-01-13 23:42:59.03	51.23	13.89	
2025-01-13 23:42:59.24	51.27	13.90	
2025-01-13 23:42:59.44	51.31	13.92	
2025-01-13 23:42:59.65	51.35	13.93	
2025-01-13 23:42:59.87	51.40	13.94	
2025-01-13 23:43:00.08	51.44	13.96	
2025-01-13 23:43:00.29	51.48	13.97	
2025-01-13 23:43:00.49	51.52	13.98	
2025-01-13 23:43:00.70	51.56	13.99	
2025-01-13 23:43:00.90	51.60	14.01	
2025-01-13 23:43:01.11	51.64	14.02	
2025-01-13 23:43:01.31	51.68	14.03	
2025-01-13 23:43:01.52	51.72	14.04	
2025-01-13 23:43:01.72	51.76	14.06	
2025-01-13 23:43:01.93	51.80	14.07	
2025-01-13 23:43:02.13	51.84	14.08	
2025-01-13 23:43:02.33	51.88	14.09	
2025-01-13 23:43:02.54	51.92	14.11	
2025-01-13 23:43:02.75	51.97	14.12	
2025-01-13 23:43:02.95	52.01	14.13	
2025-01-13 23:43:03.15	52.04	14.14	
2025-01-13 23:43:03.36	52.09	14.16	
2025-01-13 23:43:03.57	52.13	14.17	
2025-01-13 23:43:03.77	52.17	14.18	
2025-01-13 23:43:03.98	52.21	14.19	
2025-01-13 23:43:04.18	52.25	14.21	
2025-01-13 23:43:04.39	52.29	14.22	
2025-01-13 23:43:04.59	52.33	14.23	
2025-01-13 23:43:04.80	52.37	14.24	
2025-01-13 23:43:05.00	52.41	14.26	
2025-01-13 23:43:05.21	52.46	14.27	
2025-01-13 23:43:05.41	52.50	14.28	
2025-01-13 23:43:05.62	52.54	14.29	
2025-01-13 23:43:05.82	52.58	14.31	
2025-01-13 23:43:06.03	52.62	14.32	
2025-01-13 23:43:06.23	52.66	14.33	
2025-01-13 23:43:06.44	52.70	14.34	
2025-01-13 23:43:06.64	52.74	14.36	
2025-01-13 23:43:06.85	52.79	14.37	
2025-01-13 23:43:07.05	52.83	14.38	
2025-01-13 23:43:07.26	52.87	14.39	
2025-01-13 23:43:07.46	52.91	14.41	
2025-01-13 23:43:07.67	52.95	14.42	
2025-01-13 23:43:07.87	52.99	14.43	
2025-01-13 23:43:08.08	53.04	14.44	
2025-01-13 23:43:08.28	53.08	14.46	
2025-01-13 23:43:08.49	53.12	14.47	
2025-01-13 23:43:08.69	53.16	14.48	
2025-01-13 23:43:08.90	53.20	14.49	
2025-01-13 23:43:09.11	53.24	14.51	
2025-01-13 23:43:09.31	53.29	14.52	
2025-01-13 23:43:09.52	53.33	14.53	
2025-01-13 23:43:09.72	53.37	14.54	
2025-01-13 23:43:09.93	53.41	14.56	
2025-01-13 23:43:10.14	53.46	14.57	
2025-01-13 23:43:10.34	53.50	14.58	
2025-01-13 23:43:10.55	53.54	14.59	
2025-01-13 23:43:10.75	53.58	14.60	
2025-01-13 23:43:10.96	53.62	14.62	
2025-01-13 23:43:11.16	53.66	14.63	
2025-01-13 23:43:11.37	53.71	14.64	
2025-01-13 23:43:11.59	53.75	14.65	
2025-01-13 23:43:11.79	53.79	14.67	
2025-01-13 23:43:12.00	53.84	14.68	
2025-01-13 23:43:12.20	53.88	14.69	
2025-01-13 23:43:12.41	53.92	14.70	
2025-01-13 23:43:12.61	53.96	14.72	
2025-01-13 23:43:12.82	54.01	14.73	
2025-01-13 23:43:13.02	54.05	14.74	
2025-01-13 23:43:13.23	54.09	14.75	
2025-01-13 23:43:13.43	54.13	14.76	
2025-01-13 23:43:13.64	54.18	14.78	
2025-01-13 23:43:13.84	54.22	14.79	
2025-01-13 23:43:14.05	54.26	14.80	
2025-01-13 23:43:14.25	54.30	14.81	
2025-01-13 23:43:14.46	54.35	14.83	
2025-01-13 23:43:14.66	54.39	14.84	
2025-01-13 23:43:14.87	54.43	14.85	
2025-01-13 23:43:15.07	54.48	14.86	
2025-01-13 23:43:15.28	54.52	14.87	
2025-01-13 23:43:15.48	54.56	14.89	
2025-01-13 23:43:15.69	54.60	14.90	
2025-01-13 23:43:15.89	54.65	14.91	
2025-01-13 23:43:16.09	54.69	14.92	
2025-01-13 23:43:16.30	54.73	14.94	
2025-01-13 23:43:16.51	54.78	14.95	
2025-01-13 23:43:16.71	54.82	14.96	
2025-01-13 23:43:16.91	54.86	14.97	
2025-01-13 23:43:17.12	54.91	14.98	
2025-01-13 23:43:17.33	54.95	15.00	
2025-01-13 23:43:17.53	54.99	15.01	
2025-01-13 23:43:17.74	55.04	15.02	
2025-01-13 23:43:17.94	55.08	15.03	
2025-01-13 23:43:18.15	55.12	15.04	
2025-01-13 23:43:18.35	55.17	15.06	
2025-01-13 23:43:18.56	55.21	15.07	
2025-01-13 23:43:18.76	55.25	15.08	
2025-01-13 23:43:18.97	55.30	15.09	
2025-01-13 23:43:19.17	55.34	15.10	
2025-01-13 23:43:19.38	55.38	15.12	
2025-01-13 23:43:19.59	55.43	15.13	
2025-01-13 23:43:19.79	55.47	15.14	
2025-01-13 23:43:20.00	55.52	15.15	
2025-01-13 23:43:20.20	55.56	15.16	
2025-01-13 23:43:20.41	55.60	15.18	
2025-01-13 23:43:20.61	55.65	15.19	
2025-01-13 23:43:20.82	55.69	15.20	
2025-01-13 23:43:21.02	55.73	15.21	
2025-01-13 23:43:21.23	55.78	15.22	
2025-01-13 23:43:21.43	55.82	15.24	
2025-01-13 23:43:21.64	55.87	15.25	
2025-01-13 23:43:21.85	55.91	15.26	
2025-01-13 23:43:22.05	55.96	15.27	
2025-01-13 23:43:22.25	56.00	15.28	
2025-01-13 23:43:22.46	56.04	15.30	
2025-01-13 23:43:22.66	56.09	15.31	
2025-01-13 23:43:22.87	56.13	15.32	
2025-01-13 23:43:23.08	56.18	15.33	
2025-01-13 23:43:23.28	56.22	15.34	
2025-01-13 23:43:23.48	56.26	15.35	
2025-01-13 23:43:23.69	56.31	15.37	
2025-01-13 23:43:23.90	56.35	15.38	
2025-01-13 23:43:24.10	56.40	15.39	
2025-01-13 23:43:24.30	56.44	15.40	
2025-01-13 23:43:24.51	56.49	15.41	
2025-01-13 23:43:24.71	56.53	15.43	
2025-01-13 23:43:24.92	56.58	15.44	
2025-01-13 23:43:25.12	56.62	15.45	
2025-01-13 23:43:25.33	56.67	15.46	
2025-01-13 23:43:25.53	56.71	15.47	
2025-01-13 23:43:25.74	56.76	15.48	
2025-01-13 23:43:25.94	56.80	15.50	
2025-01-13 23:43:26.15	56.84	15.51	
2025-01-13 23:43:26.36	56.89	15.52	
2025-01-13 23:43:26.56	56.93	15.53	
2025-01-13 23:43:26.77	56.98	15.54	
2025-01-13 23:43:26.97	57.02	15.55	
2025-01-13 23:43:27.18	57.07	15.57	
2025-01-13 23:43:27.38	57.11	15.58	
2025-01-13 23:43:27.59	57.16	15.59	
2025-01-13 23:43:27.79	57.20	15.60	
2025-01-13 23:43:28.00	57.25	15.61	
2025-01-13 23:43:28.20	57.30	15.62	
2025-01-13 23:43:28.41	57.34	15.64	
2025-01-13 23:43:28.61	57.39	15.65	
2025-01-13 23:43:28.82	57.43	15.66	
2025-01-13 23:43:29.02	57.48	15.67	
2025-01-13 23:43:29.22	57.52	15.68	
2025-01-13 23:43:29.43	57.57	15.69	
2025-01-13 23:43:29.63	57.61	15.71	
2025-01-13 23:43:29.84	57.66	15.72	
2025-01-13 23:43:30.04	57.70	15.73	
2025-01-13 23:43:30.25	57.75	15.74	
2025-01-13 23:43:30.46	57.80	15.75	
2025-01-13 23:43:30.66	57.84	15.76	
2025-01-13 23:43:30.86	57.88	15.77	
2025-01-13 23:43:31.07	57.93	15.79	
2025-01-13 23:43:31.27	57.98	15.80	
2025-01-13 23:43:31.48	58.02	15.81	
2025-01-13 23:43:31.69	58.07	15.82	
2025-01-13 23:43:31.90	58.12	15.83	
2025-01-13 23:43:32.11	58.16	15.84	
2025-01-13 23:43:32.31	58.21	15.86	
2025-01-13 23:43:32.52	58.26	15.87	
2025-01-13 23:43:32.73	58.30	15.88	
2025-01-13 23:43:32.93	58.35	15.89	
2025-01-13 23:43:33.13	58.39	15.90	
2025-01-13 23:43:33.34	58.44	15.91	
2025-01-13 23:43:33.54	58.48	15.92	
2025-01-13 23:43:33.75	58.53	15.94	
2025-01-13 23:43:33.95	58.58	15.95	
2025-01-13 23:43:34.16	58.62	15.96	
2025-01-13 23:43:34.36	58.67	15.97	
2025-01-13 23:43:34.57	58.72	15.98	
2025-01-13 23:43:34.78	58.76	15.99	
2025-01-13 23:43:34.98	58.81	16.00	
2025-01-13 23:43:35.18	58.86	16.01	
2025-01-13 23:43:35.41	58.91	16.03	
2025-01-13 23:43:35.62	58.96	16.04	
2025-01-13 23:43:35.83	59.00	16.05	
2025-01-13 23:43:36.03	59.05	16.06	
2025-01-13 23:43:36.24	59.10	16.07	
2025-01-13 23:43:36.44	59.14	16.08	
2025-01-13 23:43:36.65	59.19	16.09	
2025-01-13 23:43:36.86	59.24	16.11	
2025-01-13 23:43:37.06	59.28	16.12	
2025-01-13 23:43:37.27	59.33	16.13	
2025-01-13 23:43:37.47	59.38	16.14	
2025-01-13 23:43:37.68	59.42	16.15	
2025-01-13 23:43:37.88	59.47	16.16	
2025-01-13 23:43:38.09	59.52	16.17	
2025-01-13 23:43:38.29	59.56	16.18	
2025-01-13 23:43:38.51	59.61	16.20	
2025-01-13 23:43:38.71	59.66	16.21	
2025-01-13 23:43:38.92	59.71	16.22	
2025-01-13 23:43:39.12	59.75	16.23	
2025-01-13 23:43:39.33	59.80	16.24	
2025-01-13 23:43:39.53	59.85	16.25	
2025-01-13 23:43:39.74	59.90	16.26	
2025-01-13 23:43:39.94	59.94	16.27	
2025-01-13 23:43:40.15	59.99	16.28	
2025-01-13 23:43:40.35	60.04	16.29	
2025-01-13 23:43:40.56	60.09	16.31	
2025-01-13 23:43:40.76	60.13	16.32	
2025-01-13 23:43:40.97	60.18	16.33	
2025-01-13 23:43:41.17	60.23	16.34	
2025-01-13 23:43:41.38	60.28	16.35	
2025-01-13 23:43:41.58	60.32	16.36	
2025-01-13 23:43:41.79	60.37	16.37	
2025-01-13 23:43:41.99	60.42	16.38	
2025-01-13 23:43:42.20	60.47	16.39	
2025-01-13 23:43:42.40	60.51	16.40	
2025-01-13 23:43:42.60	60.56	16.41	
2025-01-13 23:43:42.81	60.61	16.42	
2025-01-13 23:43:43.01	60.66	16.44	
2025-01-13 23:43:43.22	60.71	16.45	
2025-01-13 23:43:43.43	60.75	16.46	
2025-01-13 23:43:43.63	60.80	16.47	
2025-01-13 23:43:43.83	60.85	16.48	
2025-01-13 23:43:44.04	60.90	16.49	
2025-01-13 23:43:44.24	60.94	16.50	
2025-01-13 23:43:44.45	60.99	16.51	
2025-01-13 23:43:44.65	61.04	16.52	
2025-01-13 23:43:44.86	61.09	16.53	
2025-01-13 23:43:45.07	61.14	16.54	
2025-01-13 23:43:45.27	61.19	16.55	
2025-01-13 23:43:45.48	61.23	16.56	
2025-01-13 23:43:45.68	61.28	16.57	
2025-01-13 23:43:45.88	61.33	16.58	
2025-01-13 23:43:46.09	61.38	16.60	
2025-01-13 23:43:46.30	61.43	16.61	
2025-01-13 23:43:46.50	61.48	16.62	
2025-01-13 23:43:46.71	61.53	16.63	
2025-01-13 23:43:46.91	61.57	16.64	
2025-01-13 23:43:47.12	61.62	16.65	
2025-01-13 23:43:47.32	61.67	16.66	
2025-01-13 23:43:47.53	61.72	16.67	
2025-01-13 23:43:47.73	61.77	16.68	
2025-01-13 23:43:47.93	61.81	16.69	
2025-01-13 23:43:48.14	61.86	16.70	
2025-01-13 23:43:48.35	61.91	16.71	
2025-01-13 23:43:48.55	61.96	16.72	
2025-01-13 23:43:48.76	62.01	16.73	
2025-01-13 23:43:48.96	62.06	16.74	
2025-01-13 23:43:49.17	62.11	16.75	
2025-01-13 23:43:49.37	62.16	16.76	
2025-01-13 23:43:49.58	62.21	16.77	
2025-01-13 23:43:49.78	62.26	16.78	
2025-01-13 23:43:49.98	62.30	16.79	
2025-01-13 23:43:50.19	62.35	16.80	
2025-01-13 23:43:50.40	62.40	16.82	
2025-01-13 23:43:50.60	62.45	16.83	
2025-01-13 23:43:50.81	62.50	16.84	
2025-01-13 23:43:51.01	62.55	16.85	
2025-01-13 23:43:51.21	62.60	16.86	
2025-01-13 23:43:51.42	62.65	16.87	
2025-01-13 23:43:51.63	62.70	16.88	
2025-01-13 23:43:51.83	62.75	16.89	
2025-01-13 23:43:52.04	62.80	16.90	
2025-01-13 23:43:52.24	62.85	16.91	
2025-01-13 23:43:52.45	62.90	16.92	
2025-01-13 23:43:52.65	62.94	16.93	
2025-01-13 23:43:52.86	63.00	16.94	
2025-01-13 23:43:53.06	63.04	16.95	
2025-01-13 23:43:53.28	63.10	16.96	
2025-01-13 23:43:53.48	63.15	16.97	
2025-01-13 23:43:53.69	63.20	16.98	
2025-01-13 23:43:53.90	63.25	16.99	
2025-01-13 23:43:54.10	63.30	17.00	
2025-01-13 23:43:54.31	63.35	17.01	
2025-01-13 23:43:54.51	63.40	17.02	
2025-01-13 23:43:54.72	63.45	17.03	
2025-01-13 23:43:54.92	63.49	17.04	
2025-01-13 23:43:55.13	63.55	17.05	
2025-01-13 23:43:55.33	63.59	17.06	
2025-01-13 23:43:55.54	63.65	17.07	
2025-01-13 23:43:55.74	63.69	17.08	
2025-01-13 23:43:55.95	63.75	17.09	
2025-01-13 23:43:56.15	63.79	17.10	
2025-01-13 23:43:56.36	63.85	17.11	
2025-01-13 23:43:56.57	63.90	17.12	
2025-01-13 23:43:56.77	63.95	17.13	
2025-01-13 23:43:56.98	64.00	17.14	
2025-01-13 23:43:57.18	64.05	17.15	
2025-01-13 23:43:57.39	64.10	17.16	
2025-01-13 23:43:57.59	64.15	17.17	
2025-01-13 23:43:57.80	64.20	17.18	
2025-01-13 23:43:58.00	64.25	17.19	
2025-01-13 23:43:58.21	64.30	17.20	
2025-01-13 23:43:58.41	64.35	17.21	
2025-01-13 23:43:58.63	64.40	17.22	
2025-01-13 23:43:58.84	64.46	17.23	
2025-01-13 23:43:59.04	64.50	17.24	
2025-01-13 23:43:59.25	64.56	17.25	
2025-01-13 23:43:59.45	64.61	17.26	
2025-01-13 23:43:59.66	64.66	17.27	
2025-01-13 23:43:59.86	64.71	17.27	
2025-01-13 23:44:00.07	64.76	17.28	
2025-01-13 23:44:00.27	64.81	17.29	
2025-01-13 23:44:00.48	64.86	17.30	
2025-01-13 23:44:00.68	64.91	17.31	
2025-01-13 23:44:00.89	64.96	17.32	
2025-01-13 23:44:01.09	65.01	17.33	
2025-01-13 23:44:01.30	65.06	17.34	
2025-01-13 23:44:01.50	65.11	17.35	
2025-01-13 23:44:01.71	65.17	17.36	
2025-01-13 23:44:01.91	65.22	17.37	
2025-01-13 23:44:02.12	65.27	17.38	
2025-01-13 23:44:02.32	65.32	17.39	
2025-01-13 23:44:02.53	65.37	17.40	
2025-01-13 23:44:02.74	65.42	17.41	
2025-01-13 23:44:02.94	65.47	17.42	
2025-01-13 23:44:03.14	65.52	17.43	
2025-01-13 23:44:03.35	65.57	17.44	
2025-01-13 23:44:03.56	65.63	17.45	
2025-01-13 23:44:03.76	65.68	17.45	
2025-01-13 23:44:03.96	65.73	17.46	
2025-01-13 23:44:04.17	65.78	17.47	
2025-01-13 23:44:04.38	65.83	17.48	
2025-01-13 23:44:04.58	65.88	17.49	
2025-01-13 23:44:04.79	65.94	17.50	
2025-01-13 23:44:04.99	65.99	17.51	
2025-01-13 23:44:05.20	66.04	17.52	
2025-01-13 23:44:05.40	66.09	17.53	
2025-01-13 23:44:05.61	66.14	17.54	
2025-01-13 23:44:05.81	66.19	17.55	
2025-01-13 23:44:06.02	66.25	17.56	
2025-01-13 23:44:06.22	66.30	17.56	
2025-01-13 23:44:06.43	66.35	17.57	
2025-01-13 23:44:06.63	66.40	17.58	
2025-01-13 23:44:06.84	66.45	17.59	
2025-01-13 23:44:07.06	66.51	17.60	
2025-01-13 23:44:07.26	66.56	17.61	
2025-01-13 23:44:07.47	66.61	17.62	
2025-01-13 23:44:07.67	66.66	17.63	
2025-01-13 23:44:07.88	66.72	17.64	
2025-01-13 23:44:08.08	66.77	17.65	
2025-01-13 23:44:08.29	66.82	17.66	
2025-01-13 23:44:08.49	66.87	17.66	
2025-01-13 23:44:08.70	66.92	17.67	
2025-01-13 23:44:08.90	66.98	17.68	
2025-01-13 23:44:09.11	67.03	17.69	
2025-01-13 23:44:09.31	67.08	17.70	
2025-01-13 23:44:09.52	67.13	17.71	
2025-01-13 23:44:09.72	67.18	17.72	
2025-01-13 23:44:09.93	67.24	17.73	
2025-01-13 23:44:10.13	67.29	17.73	
2025-01-13 23:44:10.33	67.34	17.74	
2025-01-13 23:44:10.54	67.39	17.75	
2025-01-13 23:44:10.74	67.44	17.76	
2025-01-13 23:44:10.95	67.50	17.77	
2025-01-13 23:44:11.16	67.55	17.78	
2025-01-13 23:44:11.36	67.60	17.79	
2025-01-13 23:44:11.57	67.66	17.79	
2025-01-13 23:44:11.77	67.71	17.80	
2025-01-13 23:44:11.98	67.76	17.81	
2025-01-13 23:44:12.18	67.81	17.82	
2025-01-13 23:44:12.38	67.86	17.83	
2025-01-13 23:44:12.59	67.92	17.84	
2025-01-13 23:44:12.80	67.97	17.85	
2025-01-13 23:44:13.00	68.02	17.85	
2025-01-13 23:44:13.21	68.08	17.86	
2025-01-13 23:44:13.41	68.13	17.87	
2025-01-13 23:44:13.62	68.18	17.88	
2025-01-13 23:44:13.82	68.24	17.89	
2025-01-13 23:44:14.03	68.29	17.90	
2025-01-13 23:44:14.23	68.34	17.90	
2025-01-13 23:44:14.43	68.39	17.91	
2025-01-13 23:44:14.64	68.45	17.92	
2025-01-13 23:44:14.84	68.50	17.93	
2025-01-13 23:44:15.05	68.55	17.94	
2025-01-13 23:44:15.25	68.61	17.95	
2025-01-13 23:44:15.46	68.66	17.95	
2025-01-13 23:44:15.66	68.71	17.96	
2025-01-13 23:44:15.87	68.77	17.97	
2025-01-13 23:44:16.07	68.82	17.98	
2025-01-13 23:44:16.27	68.87	17.99	
2025-01-13 23:44:16.48	68.92	17.99	
2025-01-13 23:44:16.68	68.98	18.00	
2025-01-13 23:44:16.89	69.03	18.01	
2025-01-13 23:44:17.09	69.08	18.02	
2025-01-13 23:44:17.30	69.14	18.03	
2025-01-13 23:44:17.50	69.19	18.03	
2025-01-13 23:44:17.71	69.25	18.04	
2025-01-13 23:44:17.91	69.30	18.05	
2025-01-13 23:44:18.11	69.35	18.06	
2025-01-13 23:44:18.32	69.40	18.07	
2025-01-13 23:44:18.52	69.46	18.07	
2025-01-13 23:44:18.73	69.51	18.08	
2025-01-13 23:44:18.93	69.56	18.09	
2025-01-13 23:44:19.14	69.62	18.10	
2025-01-13 23:44:19.34	69.67	18.11	
2025-01-13 23:44:19.55	69.73	18.11	
2025-01-13 23:44:19.75	69.78	18.12	
2025-01-13 23:44:19.96	69.83	18.13	
2025-01-13 23:44:20.16	69.89	18.14	
2025-01-13 23:44:20.37	69.94	18.15	
2025-01-13 23:44:20.57	69.99	18.15	
2025-01-13 23:44:20.78	70.05	18.16	
2025-01-13 23:44:21.00	70.11	18.17	
2025-01-13 23:44:21.20	70.16	18.18	
2025-01-13 23:44:21.41	70.21	18.18	
2025-01-13 23:44:21.61	70.27	18.19	
2025-01-13 23:44:21.82	70.32	18.20	
2025-01-13 23:44:22.02	70.38	18.21	
2025-01-13 23:44:22.23	70.43	18.21	
2025-01-13 23:44:22.44	70.49	18.22	
2025-01-13 23:44:22.64	70.54	18.23	
2025-01-13 23:44:22.85	70.59	18.24	
2025-01-13 23:44:23.05	70.65	18.24	
2025-01-13 23:44:23.25	70.70	18.25	
2025-01-13 23:44:23.46	70.76	18.26	
2025-01-13 23:44:23.67	70.81	18.27	
2025-01-13 23:44:23.87	70.86	18.27	
2025-01-13 23:44:24.08	70.92	18.28	
2025-01-13 23:44:24.28	70.97	18.29	
2025-01-13 23:44:24.49	71.03	18.30	
2025-01-13 23:44:24.69	71.08	18.30	
2025-01-13 23:44:24.90	71.14	18.31	
2025-01-13 23:44:25.11	71.19	18.32	
2025-01-13 23:44:25.31	71.25	18.33	
2025-01-13 23:44:25.52	71.30	18.33	
2025-01-13 23:44:25.72	71.36	18.34	
2025-01-13 23:44:25.93	71.41	18.35	
2025-01-13 23:44:26.13	71.47	18.35	
2025-01-13 23:44:26.35	71.52	18.36	
2025-01-13 23:44:26.55	71.58	18.37	
2025-01-13 23:44:26.76	71.63	18.38	
2025-01-13 23:44:26.97	71.69	18.38	
2025-01-13 23:44:27.17	71.74	18.39	
2025-01-13 23:44:27.38	71.80	18.40	
2025-01-13 23:44:27.58	71.85	18.40	
2025-01-13 23:44:27.79	71.91	18.41	
2025-01-13 23:44:27.99	71.96	18.42	
2025-01-13 23:44:28.20	72.02	18.42	
2025-01-13 23:44:28.40	72.07	18.43	
2025-01-13 23:44:28.60	72.13	18.44	
2025-01-13 23:44:28.81	72.18	18.45	
2025-01-13 23:44:29.01	72.24	18.45	
2025-01-13 23:44:29.22	72.29	18.46	
2025-01-13 23:44:29.43	72.35	18.47	
2025-01-13 23:44:29.63	72.40	18.47	
2025-01-13 23:44:29.84	72.46	18.48	
2025-01-13 23:44:30.04	72.51	18.49	
2025-01-13 23:44:30.25	72.57	18.49	
2025-01-13 23:44:30.45	72.62	18.50	
2025-01-13 23:44:30.66	72.68	18.51	
2025-01-13 23:44:30.86	72.73	18.51	
2025-01-13 23:44:31.07	72.79	18.52	
2025-01-13 23:44:31.27	72.84	18.53	
2025-01-13 23:44:31.48	72.90	18.53	
2025-01-13 23:44:31.69	72.96	18.54	
2025-01-13 23:44:31.89	73.01	18.55	
2025-01-13 23:44:32.10	73.07	18.55	
2025-01-13 23:44:32.30	73.12	18.56	
2025-01-13 23:44:32.51	73.18	18.56	
2025-01-13 23:44:32.71	73.23	18.57	
2025-01-13 23:44:32.92	73.29	18.58	
2025-01-13 23:44:33.12	73.34	18.58	
2025-01-13 23:44:33.33	73.40	18.59	
2025-01-13 23:44:33.54	73.46	18.60	
2025-01-13 23:44:33.75	73.51	18.60	
2025-01-13 23:44:33.96	73.57	18.61	
2025-01-13 23:44:34.16	73.63	18.62	
2025-01-13 23:44:34.37	73.68	18.62	
2025-01-13 23:44:34.58	73.74	18.63	
2025-01-13 23:44:34.79	73.80	18.63	
2025-01-13 23:44:35.00	73.85	18.64	
2025-01-13 23:44:35.20	73.91	18.65	
2025-01-13 23:44:35.41	73.97	18.65	
2025-01-13 23:44:35.62	74.02	18.66	
2025-01-13 23:44:35.82	74.08	18.67	
2025-01-13 23:44:36.02	74.13	18.67	
2025-01-13 23:44:36.23	74.19	18.68	
2025-01-13 23:44:36.43	74.24	18.68	
2025-01-13 23:44:36.64	74.30	18.69	
2025-01-13 23:44:36.85	74.36	18.70	
2025-01-13 23:44:37.05	74.41	18.70	
2025-01-13 23:44:37.25	74.47	18.71	
2025-01-13 23:44:37.46	74.52	18.71	
2025-01-13 23:44:37.66	74.58	18.72	
2025-01-13 23:44:37.87	74.64	18.72	
2025-01-13 23:44:38.07	74.69	18.73	
2025-01-13 23:44:38.28	74.75	18.74	
2025-01-13 23:44:38.49	74.81	18.74	
2025-01-13 23:44:38.69	74.86	18.75	
2025-01-13 23:44:38.90	74.92	18.75	
2025-01-13 23:44:39.10	74.97	18.76	
2025-01-13 23:44:39.32	75.03	18.76	
2025-01-13 23:44:39.52	75.09	18.77	
2025-01-13 23:44:39.73	75.15	18.78	
2025-01-13 23:44:39.93	75.20	18.78	
2025-01-13 23:44:40.14	75.26	18.79	
2025-01-13 23:44:40.34	75.31	18.79	
2025-01-13 23:44:40.55	75.37	18.80	
2025-01-13 23:44:40.75	75.43	18.80	
2025-01-13 23:44:40.96	75.48	18.81	
2025-01-13 23:44:41.16	75.54	18.81	
2025-01-13 23:44:41.37	75.60	18.82	
2025-01-13 23:44:41.58	75.65	18.83	
2025-01-13 23:44:41.78	75.71	18.83	
2025-01-13 23:44:41.99	75.77	18.84	
2025-01-13 23:44:42.19	75.82	18.84	
2025-01-13 23:44:42.39	75.88	18.85	
2025-01-13 23:44:42.60	75.94	18.85	
2025-01-13 23:44:42.81	75.99	18.86	
2025-01-13 23:44:43.01	76.05	18.86	
2025-01-13 23:44:43.22	76.11	18.87	
2025-01-13 23:44:43.42	76.16	18.87	
2025-01-13 23:44:43.63	76.22	18.88	
2025-01-13 23:44:43.83	76.27	18.88	
2025-01-13 23:44:44.04	76.33	18.89	
2025-01-13 23:44:44.24	76.39	18.89	
2025-01-13 23:44:44.44	76.44	18.90	
2025-01-13 23:44:44.65	76.50	18.90	
2025-01-13 23:44:44.86	76.56	18.91	
2025-01-13 23:44:45.06	76.62	18.91	
2025-01-13 23:44:45.27	76.67	18.92	
2025-01-13 23:44:45.47	76.73	18.92	
2025-01-13 23:44:45.68	76.79	18.93	
2025-01-13 23:44:45.89	76.85	18.93	
2025-01-13 23:44:46.09	76.90	18.94	
2025-01-13 23:44:46.30	76.96	18.94	
2025-01-13 23:44:46.50	77.01	18.95	
2025-01-13 23:44:46.70	77.07	18.95	
2025-01-13 23:44:46.91	77.13	18.96	
2025-01-13 23:44:47.12	77.19	18.96	
2025-01-13 23:44:47.32	77.24	18.97	
2025-01-13 23:44:47.53	77.30	18.97	
2025-01-13 23:44:47.73	77.36	18.97	
2025-01-13 23:44:47.93	77.41	18.98	
2025-01-13 23:44:48.14	77.47	18.98	
2025-01-13 23:44:48.34	77.53	18.99	
2025-01-13 23:44:48.55	77.58	18.99	
2025-01-13 23:44:48.77	77.65	19.00	
2025-01-13 23:44:48.97	77.70	19.00	
2025-01-13 23:44:49.18	77.76	19.01	
2025-01-13 23:44:49.38	77.82	19.01	
2025-01-13 23:44:49.59	77.87	19.02	
2025-01-13 23:44:49.79	77.93	19.02	
2025-01-13 23:44:50.00	77.99	19.02	
2025-01-13 23:44:50.21	78.05	19.03	
2025-01-13 23:44:50.41	78.10	19.03	
2025-01-13 23:44:50.62	78.16	19.04	
2025-01-13 23:44:50.82	78.22	19.04	
2025-01-13 23:44:51.03	78.28	19.05	
2025-01-13 23:44:51.23	78.33	19.05	
2025-01-13 23:44:51.44	78.39	19.05	
2025-01-13 23:44:51.64	78.45	19.06	
2025-01-13 23:44:51.84	78.50	19.06	
2025-01-13 23:44:52.05	78.56	19.07	
2025-01-13 23:44:52.25	78.62	19.07	
2025-01-13 23:44:52.46	78.68	19.07	
2025-01-13 23:44:52.66	78.73	19.08	
2025-01-13 23:44:52.87	78.79	19.08	
2025-01-13 23:44:53.07	78.85	19.09	
2025-01-13 23:44:53.28	78.91	19.09	
2025-01-13 23:44:53.48	78.96	19.09	
2025-01-13 23:44:53.69	79.02	19.10	
2025-01-13 23:44:53.90	79.08	19.10	
2025-01-13 23:44:54.10	79.14	19.11	
2025-01-13 23:44:54.30	79.19	19.11	
2025-01-13 23:44:54.51	79.25	19.11	
2025-01-13 23:44:54.72	79.31	19.12	
2025-01-13 23:44:54.92	79.37	19.12	
2025-01-13 23:44:55.12	79.42	19.12	
2025-01-13 23:44:55.33	79.48	19.13	
2025-01-13 23:44:55.54	79.54	19.13	
2025-01-13 23:44:55.74	79.60	19.13	
2025-01-13 23:44:55.95	79.66	19.14	
2025-01-13 23:44:56.15	79.71	19.14	
2025-01-13 23:44:56.35	79.77	19.15	
2025-01-13 23:44:56.56	79.83	19.15	
2025-01-13 23:44:56.76	79.88	19.15	
2025-01-13 23:44:56.97	79.94	19.16	
2025-01-13 23:44:57.17	80.00	19.16	
2025-01-13 23:44:57.38	80.06	19.16	
2025-01-13 23:44:57.58	80.12	19.17	
2025-01-13 23:44:57.78	80.17	19.17	
2025-01-13 23:44:57.99	80.23	19.17	
2025-01-13 23:44:58.20	80.29	19.18	
2025-01-13 23:44:58.40	80.35	19.18	
2025-01-13 23:44:58.60	80.40	19.18	
2025-01-13 23:44:58.81	80.46	19.19	
2025-01-13 23:44:59.02	80.52	19.19	
2025-01-13 23:44:59.22	80.58	19.19	
2025-01-13 23:44:59.43	80.64	19.19	
2025-01-13 23:44:59.63	80.69	19.20	
2025-01-13 23:44:59.84	80.75	19.20	
2025-01-13 23:45:00.04	80.81	19.20	
2025-01-13 23:45:00.25	80.87	19.21	
2025-01-13 23:45:00.45	80.93	19.21	
2025-01-13 23:45:00.66	80.99	19.21	
2025-01-13 23:45:00.86	81.04	19.22	
2025-01-13 23:45:01.07	81.10	19.22	
2025-01-13 23:45:01.27	81.16	19.22	
2025-01-13 23:45:01.48	81.22	19.22	
2025-01-13 23:45:01.68	81.27	19.23	
2025-01-13 23:45:01.89	81.33	19.23	
2025-01-13 23:45:02.09	81.39	19.23	
2025-01-13 23:45:02.30	81.45	19.24	
2025-01-13 23:45:02.50	81.51	19.24	
2025-01-13 23:45:02.71	81.57	19.24	
2025-01-13 23:45:02.91	81.62	19.24	
2025-01-13 23:45:03.12	81.68	19.25	
2025-01-13 23:45:03.32	81.74	19.25	
2025-01-13 23:45:03.53	81.80	19.25	
2025-01-13 23:45:03.73	81.85	19.25	
2025-01-13 23:45:03.94	81.91	19.26	
2025-01-13 23:45:04.14	81.97	19.26	
2025-01-13 23:45:04.35	82.03	19.26	
2025-01-13 23:45:04.56	82.09	19.26	
2025-01-13 23:45:04.76	82.15	19.27	
2025-01-13 23:45:04.97	82.21	19.27	
2025-01-13 23:45:05.17	82.26	19.27	
2025-01-13 23:45:05.38	82.32	19.27	
2025-01-13 23:45:05.58	82.38	19.27	
2025-01-13 23:45:05.79	82.44	19.28	
2025-01-13 23:45:05.99	82.50	19.28	
2025-01-13 23:45:06.20	82.56	19.28	
2025-01-13 23:45:06.41	82.62	19.28	
2025-01-13 23:45:06.61	82.67	19.29	
2025-01-13 23:45:06.81	82.73	19.29	
2025-01-13 23:45:07.02	82.79	19.29	
2025-01-13 23:45:07.22	82.85	19.29	
2025-01-13 23:45:07.43	82.91	19.29	
2025-01-13 23:45:07.64	82.97	19.30	
2025-01-13 23:45:07.84	83.02	19.30	
2025-01-13 23:45:08.05	83.08	19.30	
2025-01-13 23:45:08.25	83.14	19.30	
2025-01-13 23:45:08.46	83.20	19.30	
2025-01-13 23:45:08.66	83.26	19.31	
2025-01-13 23:45:08.87	83.32	19.31	
2025-01-13 23:45:09.09	83.38	19.31	
2025-01-13 23:45:09.29	83.43	19.31	
2025-01-13 23:45:09.50	83.49	19.31	
2025-01-13 23:45:09.70	83.55	19.31	
2025-01-13 23:45:09.91	83.61	19.32	
2025-01-13 23:45:10.13	83.67	19.32	
2025-01-13 23:45:10.33	83.73	19.32	
2025-01-13 23:45:10.54	83.79	19.32	
2025-01-13 23:45:10.74	83.85	19.32	
2025-01-13 23:45:10.95	83.91	19.32	
2025-01-13 23:45:11.15	83.96	19.33	
2025-01-13 23:45:11.37	84.03	19.33	
2025-01-13 23:45:11.57	84.08	19.33	
2025-01-13 23:45:11.78	84.14	19.33	
2025-01-13 23:45:11.98	84.20	19.33	
2025-01-13 23:45:12.18	84.26	19.33	
2025-01-13 23:45:12.39	84.32	19.33	
2025-01-13 23:45:12.59	84.38	19.34	
2025-01-13 23:45:12.80	84.44	19.34	
2025-01-13 23:45:13.00	84.49	19.34	
2025-01-13 23:45:13.21	84.55	19.34	
2025-01-13 23:45:13.41	84.61	19.34	
2025-01-13 23:45:13.62	84.67	19.34	
2025-01-13 23:45:13.83	84.73	19.34	
2025-01-13 23:45:14.03	84.79	19.34	
2025-01-13 23:45:14.24	84.85	19.35	
2025-01-13 23:45:14.44	84.90	19.35	
2025-01-13 23:45:14.65	84.96	19.35	
2025-01-13 23:45:14.85	85.02	19.35	
2025-01-13 23:45:15.06	85.08	19.35	
2025-01-13 23:45:15.26	85.14	19.35	
2025-01-13 23:45:15.48	85.20	19.35	
2025-01-13 23:45:15.69	85.26	19.35	
2025-01-13 23:45:15.89	85.32	19.35	
2025-01-13 23:45:16.10	85.38	19.35	
2025-01-13 23:45:16.30	85.43	19.36	
2025-01-13 23:45:16.50	85.49	19.36	
2025-01-13 23:45:16.71	85.55	19.36	
2025-01-13 23:45:16.92	85.61	19.36	
2025-01-13 23:45:17.12	85.67	19.36	
2025-01-13 23:45:17.33	85.73	19.36	
2025-01-13 23:45:17.53	85.79	19.36	
2025-01-13 23:45:17.74	85.85	19.36	
2025-01-13 23:45:17.94	85.90	19.36	
2025-01-13 23:45:18.15	85.96	19.36	
2025-01-13 23:45:18.35	86.02	19.36	
2025-01-13 23:45:18.57	86.08	19.36	
2025-01-13 23:45:18.77	86.14	19.36	
2025-01-13 23:45:18.98	86.20	19.36	
2025-01-13 23:45:19.18	86.26	19.36	
2025-01-13 23:45:19.39	86.32	19.36	
2025-01-13 23:45:19.59	86.38	19.36	
2025-01-13 23:45:19.80	86.44	19.36	
2025-01-13 23:45:20.00	86.49	19.36	
2025-01-13 23:45:20.21	86.55	19.37	
2025-01-13 23:45:20.42	86.61	19.37	
2025-01-13 23:45:20.62	86.67	19.37	
2025-01-13 23:45:20.82	86.73	19.37	
2025-01-13 23:45:21.03	86.79	19.37	
2025-01-13 23:45:21.23	86.84	19.37	
2025-01-13 23:45:21.44	86.90	19.37	
2025-01-13 23:45:21.64	86.96	19.37	
2025-01-13 23:45:21.85	87.02	19.37	
2025-01-13 23:45:22.05	87.08	19.37	
2025-01-13 23:45:22.26	87.14	19.37	
2025-01-13 23:45:22.47	87.20	19.37	
2025-01-13 23:45:22.67	87.26	19.37	
2025-01-13 23:45:22.88	87.32	19.37	
2025-01-13 23:45:23.08	87.37	19.37	
2025-01-13 23:45:23.29	87.43	19.37	
2025-01-13 23:45:23.49	87.49	19.37	
2025-01-13 23:45:23.70	87.55	19.37	
2025-01-13 23:45:23.90	87.61	19.37	
2025-01-13 23:45:24.11	87.67	19.36	
2025-01-13 23:45:24.31	87.72	19.36	
2025-01-13 23:45:24.52	87.78	19.36	
2025-01-13 23:45:24.72	87.84	19.36	
2025-01-13 23:45:24.93	87.90	19.36	
2025-01-13 23:45:25.13	87.96	19.36	
2025-01-13 23:45:25.33	88.02	19.36	
2025-01-13 23:45:25.54	88.08	19.36	
2025-01-13 23:45:25.74	88.13	19.36	
2025-01-13 23:45:25.95	88.19	19.36	
2025-01-13 23:45:26.15	88.25	19.36	
2025-01-13 23:45:26.36	88.31	19.36	
2025-01-13 23:45:26.56	88.37	19.36	
2025-01-13 23:45:26.77	88.43	19.36	
2025-01-13 23:45:26.98	88.49	19.36	
2025-01-13 23:45:27.18	88.55	19.36	
2025-01-13 23:45:27.39	88.61	19.36	
2025-01-13 23:45:27.59	88.66	19.36	
2025-01-13 23:45:27.80	88.72	19.36	
2025-01-13 23:45:28.00	88.78	19.35	
2025-01-13 23:45:28.21	88.84	19.35	
2025-01-13 23:45:28.41	88.90	19.35	
2025-01-13 23:45:28.62	88.96	19.35	
2025-01-13 23:45:28.82	89.01	19.35	
2025-01-13 23:45:29.03	89.07	19.35	
2025-01-13 23:45:29.23	89.13	19.35	
2025-01-13 23:45:29.44	89.19	19.35	
2025-01-13 23:45:29.64	89.25	19.35	
2025-01-13 23:45:29.85	89.31	19.35	
2025-01-13 23:45:30.05	89.37	19.34	
2025-01-13 23:45:30.26	89.43	19.34	
2025-01-13 23:45:30.46	89.48	19.34	
2025-01-13 23:45:30.67	89.54	19.34	
2025-01-13 23:45:30.87	89.60	19.34	
2025-01-13 23:45:31.08	89.66	19.34	
2025-01-13 23:45:31.29	89.72	19.34	
2025-01-13 23:45:31.49	89.78	19.34	
2025-01-13 23:45:31.70	89.84	19.33	
2025-01-13 23:45:31.90	89.89	19.33	
2025-01-13 23:45:32.11	89.95	19.33	
2025-01-13 23:45:32.31	90.01	19.33	
2025-01-13 23:45:32.52	90.07	19.33	
2025-01-13 23:45:32.72	90.13	19.33	
2025-01-13 23:45:32.93	90.19	19.33	
2025-01-13 23:45:33.13	90.24	19.32	
2025-01-13 23:45:33.34	90.30	19.32	
2025-01-13 23:45:33.56	90.37	19.32	
2025-01-13 23:45:33.77	90.43	19.32	
2025-01-13 23:45:33.97	90.48	19.32	
2025-01-13 23:45:34.18	90.54	19.32	
2025-01-13 23:45:34.38	90.60	19.32	
2025-01-13 23:45:34.58	90.66	19.31	
2025-01-13 23:45:34.79	90.72	19.31	
2025-01-13 23:45:34.99	90.77	19.31	
2025-01-13 23:45:35.20	90.83	19.31	
2025-01-13 23:45:35.41	90.89	19.31	
2025-01-13 23:45:35.61	90.95	19.30	
2025-01-13 23:45:35.82	91.01	19.30	
2025-01-13 23:45:36.02	91.07	19.30	
2025-01-13 23:45:36.23	91.13	19.30	
2025-01-13 23:45:36.43	91.19	19.30	
2025-01-13 23:45:36.64	91.24	19.29	
2025-01-13 23:45:36.84	91.30	19.29	
2025-01-13 23:45:37.05	91.36	19.29	
2025-01-13 23:45:37.25	91.42	19.29	
2025-01-13 23:45:37.46	91.48	19.29	
2025-01-13 23:45:37.66	91.54	19.28	
2025-01-13 23:45:37.87	91.59	19.28	
2025-01-13 23:45:38.07	91.65	19.28	
2025-01-13 23:45:38.28	91.71	19.28	
2025-01-13 23:45:38.48	91.77	19.28	
2025-01-13 23:45:38.69	91.83	19.27	
2025-01-13 23:45:38.90	91.89	19.27	
2025-01-13 23:45:39.11	91.95	19.27	
2025-01-13 23:45:39.31	92.00	19.27	
2025-01-13 23:45:39.52	92.06	19.26	
2025-01-13 23:45:39.73	92.12	19.26	
2025-01-13 23:45:39.93	92.18	19.26	
2025-01-13 23:45:40.13	92.24	19.26	
2025-01-13 23:45:40.34	92.30	19.25	
2025-01-13 23:45:40.55	92.36	19.25	
2025-01-13 23:45:40.75	92.41	19.25	
2025-01-13 23:45:40.96	92.47	19.25	
2025-01-13 23:45:41.16	92.53	19.24	
2025-01-13 23:45:41.37	92.59	19.24	
2025-01-13 23:45:41.57	92.65	19.24	
2025-01-13 23:45:41.78	92.71	19.24	
2025-01-13 23:45:41.98	92.76	19.23	
2025-01-13 23:45:42.18	92.82	19.23	
2025-01-13 23:45:42.39	92.88	19.23	
2025-01-13 23:45:42.59	92.94	19.22	
2025-01-13 23:45:42.80	92.99	19.22	
2025-01-13 23:45:43.00	93.05	19.22	
2025-01-13 23:45:43.21	93.11	19.22	
2025-01-13 23:45:43.41	93.17	19.21	
2025-01-13 23:45:43.62	93.23	19.21	
2025-01-13 23:45:43.82	93.28	19.21	
2025-01-13 23:45:44.03	93.34	19.20	
2025-01-13 23:45:44.23	93.40	19.20	
2025-01-13 23:45:44.44	93.46	19.20	
2025-01-13 23:45:44.65	93.52	19.20	
2025-01-13 23:45:44.85	93.58	19.19	
2025-01-13 23:45:45.06	93.63	19.19	
2025-01-13 23:45:45.26	93.69	19.19	
2025-01-13 23:45:45.47	93.75	19.18	
2025-01-13 23:45:45.67	93.81	19.18	
2025-01-13 23:45:45.88	93.87	19.18	
2025-01-13 23:45:46.08	93.92	19.17	
2025-01-13 23:45:46.29	93.98	19.17	
2025-01-13 23:45:46.49	94.04	19.17	
2025-01-13 23:45:46.70	94.10	19.16	
2025-01-13 23:45:46.90	94.15	19.16	
2025-01-13 23:45:47.11	94.21	19.16	
2025-01-13 23:45:47.31	94.27	19.15	
2025-01-13 23:45:47.52	94.33	19.15	
2025-01-13 23:45:47.72	94.39	19.15	
2025-01-13 23:45:47.93	94.44	19.14	
2025-01-13 23:45:48.13	94.50	19.14	
2025-01-13 23:45:48.34	94.56	19.14	
2025-01-13 23:45:48.54	94.62	19.13	
2025-01-13 23:45:48.75	94.68	19.13	
2025-01-13 23:45:48.95	94.73	19.12	
2025-01-13 23:45:49.16	94.79	19.12	
2025-01-13 23:45:49.37	94.85	19.12	
2025-01-13 23:45:49.57	94.91	19.11	
2025-01-13 23:45:49.78	94.97	19.11	
2025-01-13 23:45:49.98	95.02	19.11	
2025-01-13 23:45:50.19	95.08	19.10	
2025-01-13 23:45:50.39	95.14	19.10	
2025-01-13 23:45:50.60	95.20	19.09	
2025-01-13 23:45:50.80	95.25	19.09	
2025-01-13 23:45:51.01	95.31	19.09	
2025-01-13 23:45:51.21	95.37	19.08	
2025-01-13 23:45:51.42	95.43	19.08	
2025-01-13 23:45:51.62	95.48	19.07	
2025-01-13 23:45:51.84	95.54	19.07	
2025-01-13 23:45:52.05	95.60	19.07	
2025-01-13 23:45:52.25	95.66	19.06	
2025-01-13 23:45:52.46	95.72	19.06	
2025-01-13 23:45:52.66	95.77	19.05	
2025-01-13 23:45:52.88	95.84	19.05	
2025-01-13 23:45:53.09	95.89	19.05	
2025-01-13 23:45:53.29	95.95	19.04	
2025-01-13 23:45:53.50	96.01	19.04	
2025-01-13 23:45:53.70	96.07	19.03	
2025-01-13 23:45:53.92	96.13	19.03	
2025-01-13 23:45:54.13	96.19	19.02	
2025-01-13 23:45:54.33	96.24	19.02	
2025-01-13 23:45:54.54	96.30	19.01	
2025-01-13 23:45:54.74	96.36	19.01	
2025-01-13 23:45:54.95	96.41	19.01	
2025-01-13 23:45:55.15	96.47	19.00	
2025-01-13 23:45:55.36	96.53	19.00	
2025-01-13 23:45:55.56	96.59	18.99	
2025-01-13 23:45:55.77	96.64	18.99	
2025-01-13 23:45:55.97	96.70	18.98	
2025-01-13 23:45:56.18	96.76	18.98	
2025-01-13 23:45:56.38	96.81	18.97	
2025-01-13 23:45:56.59	96.87	18.97	
2025-01-13 23:45:56.79	96.93	18.97	
2025-01-13 23:45:57.00	96.99	18.96	
2025-01-13 23:45:57.21	97.04	18.96	
2025-01-13 23:45:57.41	97.10	18.95	
2025-01-13 23:45:57.62	97.16	18.95	
2025-01-13 23:45:57.83	97.22	18.94	
2025-01-13 23:45:58.03	97.27	18.94	
2025-01-13 23:45:58.23	97.33	18.93	
2025-01-13 23:45:58.44	97.39	18.93	
2025-01-13 23:45:58.65	97.45	18.92	
2025-01-13 23:45:58.85	97.50	18.92	
2025-01-13 23:45:59.06	97.56	18.91	
2025-01-13 23:45:59.26	97.61	18.91	
2025-01-13 23:45:59.47	97.67	18.90	
2025-01-13 23:45:59.67	97.73	18.90	
2025-01-13 23:45:59.88	97.79	18.89	
2025-01-13 23:46:00.09	97.84	18.89	
2025-01-13 23:46:00.30	97.90	18.88	
2025-01-13 23:46:00.50	97.96	18.88	
2025-01-13 23:46:00.71	98.02	18.87	
2025-01-13 23:46:00.91	98.07	18.87	
2025-01-13 23:46:01.12	98.13	18.86	
2025-01-13 23:46:01.32	98.19	18.86	
2025-01-13 23:46:01.52	98.24	18.85	
2025-01-13 23:46:01.73	98.30	18.85	
2025-01-13 23:46:01.93	98.35	18.84	
2025-01-13 23:46:02.14	98.41	18.83	
2025-01-13 23:46:02.34	98.47	18.83	
2025-01-13 23:46:02.55	98.53	18.82	
2025-01-13 23:46:02.75	98.58	18.82	
2025-01-13 23:46:02.96	98.64	18.81	
2025-01-13 23:46:03.17	98.70	18.81	
2025-01-13 23:46:03.37	98.75	18.80	
2025-01-13 23:46:03.59	98.81	18.80	
