passes_logs/2025/01/13/SPB_Silybum_02/SPB_Silybum_02__20250113_041113_SUOMI_NPP_rec.log

#Pass ID: 20250113_041113_SUOMI NPP
#Satellite: SUOMI NPP
#Configuration: NPP
#Start time: 2025-01-13 04:11:12

#Version: 2.0.20230423
#Station: SPB_Silybum_02
#Location: 30.233357 lon 59.946436 lat
#TLE: 1 37849U 11061A   25012.17094835  .00000145  00000+0  89644-4 0  9991
#TLE: 2 37849  98.7443 313.1954 0001789  45.3429 314.7892 14.19536935684510

#Time	Az	El	Level	Level2	SNR	BER	Gain	Gain2
2025-01-13 04:11:14.37	17.07	4.04	
2025-01-13 04:11:14.57	17.05	4.05	
2025-01-13 04:11:14.79	17.02	4.06	
2025-01-13 04:11:15.00	17.00	4.07	
2025-01-13 04:11:15.20	16.97	4.08	
2025-01-13 04:11:15.41	16.95	4.08	
2025-01-13 04:11:15.62	16.92	4.09	
2025-01-13 04:11:15.82	16.90	4.10	
2025-01-13 04:11:16.03	16.87	4.11	
2025-01-13 04:11:16.23	16.85	4.12	
2025-01-13 04:11:16.44	16.82	4.12	
2025-01-13 04:11:16.64	16.80	4.13	
2025-01-13 04:11:16.85	16.77	4.14	
2025-01-13 04:11:17.05	16.75	4.15	
2025-01-13 04:11:17.26	16.72	4.16	
2025-01-13 04:11:17.47	16.70	4.16	
2025-01-13 04:11:17.67	16.67	4.17	
2025-01-13 04:11:17.88	16.65	4.18	
2025-01-13 04:11:18.08	16.62	4.19	
2025-01-13 04:11:18.29	16.60	4.19	
2025-01-13 04:11:18.50	16.57	4.20	
2025-01-13 04:11:18.70	16.55	4.21	
2025-01-13 04:11:18.91	16.52	4.22	
2025-01-13 04:11:19.11	16.50	4.23	
2025-01-13 04:11:19.32	16.47	4.23	
2025-01-13 04:11:19.52	16.45	4.24	
2025-01-13 04:11:19.73	16.42	4.25	
2025-01-13 04:11:19.93	16.40	4.26	
2025-01-13 04:11:20.14	16.37	4.27	
2025-01-13 04:11:20.34	16.35	4.27	
2025-01-13 04:11:20.55	16.32	4.28	
2025-01-13 04:11:20.76	16.29	4.29	
2025-01-13 04:11:20.97	16.27	4.30	
2025-01-13 04:11:21.17	16.24	4.31	
2025-01-13 04:11:21.38	16.22	4.31	
2025-01-13 04:11:21.58	16.19	4.32	
2025-01-13 04:11:21.79	16.17	4.33	
2025-01-13 04:11:21.99	16.14	4.34	
2025-01-13 04:11:22.20	16.12	4.34	
2025-01-13 04:11:22.40	16.09	4.35	
2025-01-13 04:11:22.61	16.07	4.36	
2025-01-13 04:11:22.81	16.04	4.37	
2025-01-13 04:11:23.02	16.02	4.38	
2025-01-13 04:11:23.22	15.99	4.38	
2025-01-13 04:11:23.43	15.97	4.39	
2025-01-13 04:11:23.63	15.94	4.40	
2025-01-13 04:11:23.84	15.91	4.41	
2025-01-13 04:11:24.05	15.89	4.41	
2025-01-13 04:11:24.25	15.86	4.42	
2025-01-13 04:11:24.45	15.84	4.43	
2025-01-13 04:11:24.66	15.81	4.44	
2025-01-13 04:11:24.86	15.79	4.45	
2025-01-13 04:11:25.07	15.76	4.45	
2025-01-13 04:11:25.27	15.74	4.46	
2025-01-13 04:11:25.49	15.71	4.47	
2025-01-13 04:11:25.70	15.68	4.48	
2025-01-13 04:11:25.90	15.66	4.48	
2025-01-13 04:11:26.11	15.63	4.49	
2025-01-13 04:11:26.31	15.61	4.50	
2025-01-13 04:11:26.52	15.58	4.51	
2025-01-13 04:11:26.72	15.56	4.52	
2025-01-13 04:11:26.93	15.53	4.52	
2025-01-13 04:11:27.13	15.51	4.53	
2025-01-13 04:11:27.34	15.48	4.54	
2025-01-13 04:11:27.54	15.45	4.55	
2025-01-13 04:11:27.74	15.43	4.55	
2025-01-13 04:11:27.94	15.40	4.56	
2025-01-13 04:11:28.15	15.38	4.57	
2025-01-13 04:11:28.35	15.35	4.58	
2025-01-13 04:11:28.55	15.33	4.58	
2025-01-13 04:11:28.76	15.30	4.59	
2025-01-13 04:11:28.97	15.27	4.60	
2025-01-13 04:11:29.17	15.25	4.61	
2025-01-13 04:11:29.38	15.22	4.62	
2025-01-13 04:11:29.58	15.20	4.62	
2025-01-13 04:11:29.80	15.17	4.63	
2025-01-13 04:11:30.00	15.15	4.64	
2025-01-13 04:11:30.21	15.12	4.65	
2025-01-13 04:11:30.42	15.09	4.65	
2025-01-13 04:11:30.62	15.07	4.66	
2025-01-13 04:11:30.82	15.04	4.67	
2025-01-13 04:11:31.03	15.02	4.68	
2025-01-13 04:11:31.23	14.99	4.68	
2025-01-13 04:11:31.44	14.96	4.69	
2025-01-13 04:11:31.64	14.94	4.70	
2025-01-13 04:11:31.85	14.91	4.71	
2025-01-13 04:11:32.05	14.89	4.72	
2025-01-13 04:11:32.26	14.86	4.72	
2025-01-13 04:11:32.46	14.83	4.73	
2025-01-13 04:11:32.67	14.81	4.74	
2025-01-13 04:11:32.87	14.78	4.75	
2025-01-13 04:11:33.07	14.76	4.75	
2025-01-13 04:11:33.28	14.73	4.76	
2025-01-13 04:11:33.48	14.70	4.77	
2025-01-13 04:11:33.69	14.68	4.78	
2025-01-13 04:11:33.89	14.65	4.78	
2025-01-13 04:11:34.10	14.63	4.79	
2025-01-13 04:11:34.30	14.60	4.80	
2025-01-13 04:11:34.51	14.57	4.81	
2025-01-13 04:11:34.72	14.55	4.81	
2025-01-13 04:11:34.92	14.52	4.82	
2025-01-13 04:11:35.13	14.49	4.83	
2025-01-13 04:11:35.33	14.47	4.84	
2025-01-13 04:11:35.54	14.44	4.85	
2025-01-13 04:11:35.74	14.42	4.85	
2025-01-13 04:11:35.95	14.39	4.86	
2025-01-13 04:11:36.17	14.36	4.87	
2025-01-13 04:11:36.37	14.34	4.88	
2025-01-13 04:11:36.58	14.31	4.88	
2025-01-13 04:11:36.78	14.28	4.89	
2025-01-13 04:11:36.99	14.26	4.90	
2025-01-13 04:11:37.19	14.23	4.91	
2025-01-13 04:11:37.40	14.20	4.91	
2025-01-13 04:11:37.61	14.18	4.92	
2025-01-13 04:11:37.81	14.15	4.93	
2025-01-13 04:11:38.02	14.12	4.94	
2025-01-13 04:11:38.22	14.10	4.94	
2025-01-13 04:11:38.43	14.07	4.95	
2025-01-13 04:11:38.63	14.05	4.96	
2025-01-13 04:11:38.84	14.02	4.97	
2025-01-13 04:11:39.05	13.99	4.97	
2025-01-13 04:11:39.25	13.97	4.98	
2025-01-13 04:11:39.46	13.94	4.99	
2025-01-13 04:11:39.66	13.91	5.00	
2025-01-13 04:11:39.87	13.89	5.00	
2025-01-13 04:11:40.07	13.86	5.01	
2025-01-13 04:11:40.28	13.83	5.02	
2025-01-13 04:11:40.48	13.81	5.03	
2025-01-13 04:11:40.69	13.78	5.03	
2025-01-13 04:11:40.89	13.75	5.04	
2025-01-13 04:11:41.10	13.73	5.05	
2025-01-13 04:11:41.30	13.70	5.06	
2025-01-13 04:11:41.51	13.67	5.06	
2025-01-13 04:11:41.71	13.65	5.07	
2025-01-13 04:11:41.92	13.62	5.08	
2025-01-13 04:11:42.12	13.59	5.09	
2025-01-13 04:11:42.33	13.57	5.09	
2025-01-13 04:11:42.54	13.54	5.10	
2025-01-13 04:11:42.74	13.51	5.11	
2025-01-13 04:11:42.95	13.49	5.12	
2025-01-13 04:11:43.15	13.46	5.12	
2025-01-13 04:11:43.36	13.43	5.13	
2025-01-13 04:11:43.56	13.41	5.14	
2025-01-13 04:11:43.77	13.38	5.15	
2025-01-13 04:11:43.97	13.35	5.15	
2025-01-13 04:11:44.18	13.33	5.16	
2025-01-13 04:11:44.38	13.30	5.17	
2025-01-13 04:11:44.59	13.27	5.18	
2025-01-13 04:11:44.79	13.25	5.18	
2025-01-13 04:11:45.00	13.22	5.19	
2025-01-13 04:11:45.20	13.19	5.20	
2025-01-13 04:11:45.41	13.16	5.21	
2025-01-13 04:11:45.61	13.14	5.21	
2025-01-13 04:11:45.82	13.11	5.22	
2025-01-13 04:11:46.02	13.08	5.23	
2025-01-13 04:11:46.23	13.06	5.24	
2025-01-13 04:11:46.43	13.03	5.24	
2025-01-13 04:11:46.64	13.00	5.25	
2025-01-13 04:11:46.84	12.98	5.26	
2025-01-13 04:11:47.05	12.95	5.27	
2025-01-13 04:11:47.25	12.92	5.27	
2025-01-13 04:11:47.46	12.90	5.28	
2025-01-13 04:11:47.67	12.87	5.29	
2025-01-13 04:11:47.87	12.84	5.30	
2025-01-13 04:11:48.08	12.81	5.30	
2025-01-13 04:11:48.28	12.79	5.31	
2025-01-13 04:11:48.49	12.76	5.32	
2025-01-13 04:11:48.69	12.73	5.33	
2025-01-13 04:11:48.90	12.71	5.33	
2025-01-13 04:11:49.10	12.68	5.34	
2025-01-13 04:11:49.31	12.65	5.35	
2025-01-13 04:11:49.51	12.62	5.35	
2025-01-13 04:11:49.72	12.60	5.36	
2025-01-13 04:11:49.92	12.57	5.37	
2025-01-13 04:11:50.13	12.54	5.38	
2025-01-13 04:11:50.33	12.52	5.38	
2025-01-13 04:11:50.54	12.49	5.39	
2025-01-13 04:11:50.74	12.46	5.40	
2025-01-13 04:11:50.95	12.43	5.41	
2025-01-13 04:11:51.17	12.40	5.41	
2025-01-13 04:11:51.37	12.38	5.42	
2025-01-13 04:11:51.58	12.35	5.43	
2025-01-13 04:11:51.79	12.32	5.44	
2025-01-13 04:11:51.99	12.30	5.44	
2025-01-13 04:11:52.20	12.27	5.45	
2025-01-13 04:11:52.40	12.24	5.46	
2025-01-13 04:11:52.61	12.21	5.47	
2025-01-13 04:11:52.81	12.19	5.47	
2025-01-13 04:11:53.02	12.16	5.48	
2025-01-13 04:11:53.24	12.13	5.49	
2025-01-13 04:11:53.44	12.10	5.49	
2025-01-13 04:11:53.65	12.07	5.50	
2025-01-13 04:11:53.85	12.05	5.51	
2025-01-13 04:11:54.06	12.02	5.52	
2025-01-13 04:11:54.26	11.99	5.52	
2025-01-13 04:11:54.46	11.97	5.53	
2025-01-13 04:11:54.67	11.94	5.54	
2025-01-13 04:11:54.88	11.91	5.55	
2025-01-13 04:11:55.08	11.88	5.55	
2025-01-13 04:11:55.29	11.85	5.56	
2025-01-13 04:11:55.49	11.83	5.57	
2025-01-13 04:11:55.70	11.80	5.57	
2025-01-13 04:11:55.90	11.77	5.58	
2025-01-13 04:11:56.11	11.74	5.59	
2025-01-13 04:11:56.31	11.72	5.60	
2025-01-13 04:11:56.51	11.69	5.60	
2025-01-13 04:11:56.72	11.66	5.61	
2025-01-13 04:11:56.93	11.63	5.62	
2025-01-13 04:11:57.13	11.61	5.62	
2025-01-13 04:11:57.34	11.58	5.63	
2025-01-13 04:11:57.54	11.55	5.64	
2025-01-13 04:11:57.75	11.52	5.65	
2025-01-13 04:11:57.95	11.50	5.65	
2025-01-13 04:11:58.16	11.47	5.66	
2025-01-13 04:11:58.36	11.44	5.67	
2025-01-13 04:11:58.57	11.41	5.68	
2025-01-13 04:11:58.78	11.38	5.68	
2025-01-13 04:11:58.98	11.36	5.69	
2025-01-13 04:11:59.19	11.33	5.70	
2025-01-13 04:11:59.39	11.30	5.70	
2025-01-13 04:11:59.60	11.27	5.71	
2025-01-13 04:11:59.80	11.24	5.72	
2025-01-13 04:12:00.01	11.22	5.73	
2025-01-13 04:12:00.22	11.19	5.73	
2025-01-13 04:12:00.42	11.16	5.74	
2025-01-13 04:12:00.62	11.13	5.75	
2025-01-13 04:12:00.83	11.10	5.75	
2025-01-13 04:12:01.04	11.08	5.76	
2025-01-13 04:12:01.24	11.05	5.77	
2025-01-13 04:12:01.45	11.02	5.78	
2025-01-13 04:12:01.65	10.99	5.78	
2025-01-13 04:12:01.86	10.96	5.79	
2025-01-13 04:12:02.06	10.94	5.80	
2025-01-13 04:12:02.27	10.91	5.80	
2025-01-13 04:12:02.48	10.88	5.81	
2025-01-13 04:12:02.68	10.85	5.82	
2025-01-13 04:12:02.88	10.82	5.82	
2025-01-13 04:12:03.09	10.80	5.83	
2025-01-13 04:12:03.29	10.77	5.84	
2025-01-13 04:12:03.50	10.74	5.85	
2025-01-13 04:12:03.70	10.71	5.85	
2025-01-13 04:12:03.91	10.68	5.86	
2025-01-13 04:12:04.11	10.66	5.87	
2025-01-13 04:12:04.32	10.63	5.87	
2025-01-13 04:12:04.53	10.60	5.88	
2025-01-13 04:12:04.73	10.57	5.89	
2025-01-13 04:12:04.93	10.54	5.90	
2025-01-13 04:12:05.14	10.51	5.90	
2025-01-13 04:12:05.35	10.49	5.91	
2025-01-13 04:12:05.55	10.46	5.92	
2025-01-13 04:12:05.76	10.43	5.92	
2025-01-13 04:12:05.96	10.40	5.93	
2025-01-13 04:12:06.17	10.37	5.94	
2025-01-13 04:12:06.37	10.35	5.94	
2025-01-13 04:12:06.58	10.32	5.95	
2025-01-13 04:12:06.79	10.29	5.96	
2025-01-13 04:12:06.99	10.26	5.97	
2025-01-13 04:12:07.19	10.23	5.97	
2025-01-13 04:12:07.40	10.20	5.98	
2025-01-13 04:12:07.61	10.17	5.99	
2025-01-13 04:12:07.81	10.15	5.99	
2025-01-13 04:12:08.02	10.12	6.00	
2025-01-13 04:12:08.22	10.09	6.01	
2025-01-13 04:12:08.43	10.06	6.01	
2025-01-13 04:12:08.63	10.03	6.02	
2025-01-13 04:12:08.84	10.00	6.03	
2025-01-13 04:12:09.04	9.98	6.03	
2025-01-13 04:12:09.25	9.95	6.04	
2025-01-13 04:12:09.45	9.92	6.05	
2025-01-13 04:12:09.66	9.89	6.06	
2025-01-13 04:12:09.86	9.86	6.06	
2025-01-13 04:12:10.07	9.83	6.07	
2025-01-13 04:12:10.27	9.80	6.08	
2025-01-13 04:12:10.48	9.77	6.08	
2025-01-13 04:12:10.68	9.75	6.09	
2025-01-13 04:12:10.89	9.72	6.10	
2025-01-13 04:12:11.09	9.69	6.10	
2025-01-13 04:12:11.30	9.66	6.11	
2025-01-13 04:12:11.50	9.63	6.12	
2025-01-13 04:12:11.71	9.60	6.12	
2025-01-13 04:12:11.91	9.58	6.13	
2025-01-13 04:12:12.12	9.55	6.14	
2025-01-13 04:12:12.32	9.52	6.15	
2025-01-13 04:12:12.53	9.49	6.15	
2025-01-13 04:12:12.73	9.46	6.16	
2025-01-13 04:12:12.94	9.43	6.17	
2025-01-13 04:12:13.14	9.40	6.17	
2025-01-13 04:12:13.35	9.37	6.18	
2025-01-13 04:12:13.55	9.35	6.19	
2025-01-13 04:12:13.76	9.32	6.19	
2025-01-13 04:12:13.96	9.29	6.20	
2025-01-13 04:12:14.17	9.26	6.21	
2025-01-13 04:12:14.38	9.23	6.21	
2025-01-13 04:12:14.58	9.20	6.22	
2025-01-13 04:12:14.79	9.17	6.23	
2025-01-13 04:12:14.99	9.14	6.23	
2025-01-13 04:12:15.20	9.11	6.24	
2025-01-13 04:12:15.41	9.08	6.25	
2025-01-13 04:12:15.62	9.05	6.25	
2025-01-13 04:12:15.83	9.02	6.26	
2025-01-13 04:12:16.03	9.00	6.27	
2025-01-13 04:12:16.24	8.97	6.28	
2025-01-13 04:12:16.45	8.94	6.28	
2025-01-13 04:12:16.65	8.91	6.29	
2025-01-13 04:12:16.86	8.88	6.30	
2025-01-13 04:12:17.06	8.85	6.30	
2025-01-13 04:12:17.27	8.82	6.31	
2025-01-13 04:12:17.47	8.79	6.32	
2025-01-13 04:12:17.68	8.76	6.32	
2025-01-13 04:12:17.88	8.73	6.33	
2025-01-13 04:12:18.09	8.70	6.34	
2025-01-13 04:12:18.29	8.68	6.34	
2025-01-13 04:12:18.50	8.65	6.35	
2025-01-13 04:12:18.70	8.62	6.36	
2025-01-13 04:12:18.91	8.59	6.36	
2025-01-13 04:12:19.11	8.56	6.37	
2025-01-13 04:12:19.32	8.53	6.38	
2025-01-13 04:12:19.52	8.50	6.38	
2025-01-13 04:12:19.73	8.47	6.39	
2025-01-13 04:12:19.93	8.44	6.40	
2025-01-13 04:12:20.14	8.41	6.40	
2025-01-13 04:12:20.34	8.38	6.41	
2025-01-13 04:12:20.55	8.35	6.42	
2025-01-13 04:12:20.75	8.33	6.42	
2025-01-13 04:12:20.96	8.30	6.43	
2025-01-13 04:12:21.16	8.27	6.44	
2025-01-13 04:12:21.37	8.24	6.44	
2025-01-13 04:12:21.57	8.21	6.45	
2025-01-13 04:12:21.78	8.18	6.46	
2025-01-13 04:12:21.98	8.15	6.46	
2025-01-13 04:12:22.19	8.12	6.47	
2025-01-13 04:12:22.39	8.09	6.48	
2025-01-13 04:12:22.60	8.06	6.48	
2025-01-13 04:12:22.81	8.03	6.49	
2025-01-13 04:12:23.01	8.00	6.50	
2025-01-13 04:12:23.21	7.97	6.50	
2025-01-13 04:12:23.42	7.94	6.51	
2025-01-13 04:12:23.63	7.91	6.52	
2025-01-13 04:12:23.83	7.89	6.52	
2025-01-13 04:12:24.04	7.86	6.53	
2025-01-13 04:12:24.24	7.83	6.53	
2025-01-13 04:12:24.44	7.80	6.54	
2025-01-13 04:12:24.65	7.77	6.55	
2025-01-13 04:12:24.86	7.74	6.55	
2025-01-13 04:12:25.06	7.71	6.56	
2025-01-13 04:12:25.27	7.68	6.57	
2025-01-13 04:12:25.47	7.65	6.57	
2025-01-13 04:12:25.68	7.62	6.58	
2025-01-13 04:12:25.89	7.59	6.59	
2025-01-13 04:12:26.10	7.56	6.59	
2025-01-13 04:12:26.30	7.53	6.60	
2025-01-13 04:12:26.51	7.50	6.61	
2025-01-13 04:12:26.71	7.47	6.61	
2025-01-13 04:12:26.92	7.44	6.62	
2025-01-13 04:12:27.12	7.41	6.63	
2025-01-13 04:12:27.32	7.38	6.63	
2025-01-13 04:12:27.53	7.35	6.64	
2025-01-13 04:12:27.73	7.32	6.65	
2025-01-13 04:12:27.94	7.29	6.65	
2025-01-13 04:12:28.15	7.26	6.66	
2025-01-13 04:12:28.35	7.23	6.67	
2025-01-13 04:12:28.55	7.20	6.67	
2025-01-13 04:12:28.76	7.17	6.68	
2025-01-13 04:12:28.97	7.14	6.68	
2025-01-13 04:12:29.17	7.11	6.69	
2025-01-13 04:12:29.38	7.08	6.70	
2025-01-13 04:12:29.58	7.05	6.70	
2025-01-13 04:12:29.79	7.02	6.71	
2025-01-13 04:12:29.99	6.99	6.72	
2025-01-13 04:12:30.20	6.96	6.72	
2025-01-13 04:12:30.41	6.93	6.73	
2025-01-13 04:12:30.61	6.90	6.74	
2025-01-13 04:12:30.81	6.87	6.74	
2025-01-13 04:12:31.02	6.84	6.75	
2025-01-13 04:12:31.23	6.81	6.76	
2025-01-13 04:12:31.43	6.78	6.76	
2025-01-13 04:12:31.65	6.75	6.77	
2025-01-13 04:12:31.86	6.72	6.77	
2025-01-13 04:12:32.06	6.69	6.78	
2025-01-13 04:12:32.27	6.66	6.79	
2025-01-13 04:12:32.47	6.63	6.79	
2025-01-13 04:12:32.68	6.60	6.80	
2025-01-13 04:12:32.88	6.57	6.81	
2025-01-13 04:12:33.09	6.54	6.81	
2025-01-13 04:12:33.29	6.51	6.82	
2025-01-13 04:12:33.50	6.48	6.83	
2025-01-13 04:12:33.70	6.45	6.83	
2025-01-13 04:12:33.91	6.42	6.84	
2025-01-13 04:12:34.11	6.39	6.84	
2025-01-13 04:12:34.32	6.36	6.85	
2025-01-13 04:12:34.53	6.33	6.86	
2025-01-13 04:12:34.73	6.30	6.86	
2025-01-13 04:12:34.94	6.27	6.87	
2025-01-13 04:12:35.14	6.24	6.88	
2025-01-13 04:12:35.35	6.21	6.88	
2025-01-13 04:12:35.56	6.18	6.89	
2025-01-13 04:12:35.76	6.15	6.89	
2025-01-13 04:12:35.97	6.12	6.90	
2025-01-13 04:12:36.17	6.09	6.91	
2025-01-13 04:12:36.38	6.06	6.91	
2025-01-13 04:12:36.58	6.03	6.92	
2025-01-13 04:12:36.79	6.00	6.93	
2025-01-13 04:12:36.99	5.97	6.93	
2025-01-13 04:12:37.20	5.93	6.94	
2025-01-13 04:12:37.40	5.91	6.94	
2025-01-13 04:12:37.61	5.87	6.95	
2025-01-13 04:12:37.82	5.84	6.96	
2025-01-13 04:12:38.03	5.81	6.96	
2025-01-13 04:12:38.24	5.78	6.97	
2025-01-13 04:12:38.44	5.75	6.98	
2025-01-13 04:12:38.65	5.72	6.98	
2025-01-13 04:12:38.86	5.69	6.99	
2025-01-13 04:12:39.06	5.66	6.99	
2025-01-13 04:12:39.27	5.63	7.00	
2025-01-13 04:12:39.47	5.60	7.01	
2025-01-13 04:12:39.68	5.57	7.01	
2025-01-13 04:12:39.88	5.54	7.02	
2025-01-13 04:12:40.09	5.51	7.02	
2025-01-13 04:12:40.29	5.48	7.03	
2025-01-13 04:12:40.50	5.44	7.04	
2025-01-13 04:12:40.70	5.42	7.04	
2025-01-13 04:12:40.91	5.38	7.05	
2025-01-13 04:12:41.12	5.35	7.05	
2025-01-13 04:12:41.32	5.32	7.06	
2025-01-13 04:12:41.53	5.29	7.07	
2025-01-13 04:12:41.73	5.26	7.07	
2025-01-13 04:12:41.94	5.23	7.08	
2025-01-13 04:12:42.15	5.20	7.09	
2025-01-13 04:12:42.35	5.17	7.09	
2025-01-13 04:12:42.56	5.14	7.10	
2025-01-13 04:12:42.76	5.11	7.10	
2025-01-13 04:12:42.97	5.08	7.11	
2025-01-13 04:12:43.18	5.04	7.12	
2025-01-13 04:12:43.39	5.01	7.12	
2025-01-13 04:12:43.60	4.98	7.13	
2025-01-13 04:12:43.81	4.95	7.13	
2025-01-13 04:12:44.01	4.92	7.14	
2025-01-13 04:12:44.22	4.89	7.15	
2025-01-13 04:12:44.42	4.86	7.15	
2025-01-13 04:12:44.63	4.83	7.16	
2025-01-13 04:12:44.83	4.80	7.16	
2025-01-13 04:12:45.04	4.77	7.17	
2025-01-13 04:12:45.24	4.74	7.18	
2025-01-13 04:12:45.45	4.70	7.18	
2025-01-13 04:12:45.65	4.67	7.19	
2025-01-13 04:12:45.86	4.64	7.19	
2025-01-13 04:12:46.06	4.61	7.20	
2025-01-13 04:12:46.27	4.58	7.21	
2025-01-13 04:12:46.48	4.55	7.21	
2025-01-13 04:12:46.68	4.52	7.22	
2025-01-13 04:12:46.89	4.49	7.22	
2025-01-13 04:12:47.09	4.46	7.23	
2025-01-13 04:12:47.30	4.42	7.24	
2025-01-13 04:12:47.51	4.39	7.24	
2025-01-13 04:12:47.71	4.36	7.25	
2025-01-13 04:12:47.92	4.33	7.25	
2025-01-13 04:12:48.12	4.30	7.26	
2025-01-13 04:12:48.33	4.27	7.26	
2025-01-13 04:12:48.53	4.24	7.27	
2025-01-13 04:12:48.74	4.21	7.28	
2025-01-13 04:12:48.94	4.18	7.28	
2025-01-13 04:12:49.15	4.14	7.29	
2025-01-13 04:12:49.35	4.11	7.29	
2025-01-13 04:12:49.56	4.08	7.30	
2025-01-13 04:12:49.76	4.05	7.31	
2025-01-13 04:12:49.97	4.02	7.31	
2025-01-13 04:12:50.17	3.99	7.32	
2025-01-13 04:12:50.38	3.96	7.32	
2025-01-13 04:12:50.59	3.93	7.33	
2025-01-13 04:12:50.79	3.90	7.33	
2025-01-13 04:12:51.00	3.86	7.34	
2025-01-13 04:12:51.20	3.83	7.35	
2025-01-13 04:12:51.41	3.80	7.35	
2025-01-13 04:12:51.61	3.77	7.36	
2025-01-13 04:12:51.82	3.74	7.36	
2025-01-13 04:12:52.02	3.71	7.37	
2025-01-13 04:12:52.23	3.68	7.37	
2025-01-13 04:12:52.43	3.65	7.38	
2025-01-13 04:12:52.64	3.61	7.39	
2025-01-13 04:12:52.84	3.58	7.39	
2025-01-13 04:12:53.05	3.55	7.40	
2025-01-13 04:12:53.25	3.52	7.40	
2025-01-13 04:12:53.46	3.49	7.41	
2025-01-13 04:12:53.67	3.46	7.41	
2025-01-13 04:12:53.87	3.43	7.42	
2025-01-13 04:12:54.07	3.39	7.43	
2025-01-13 04:12:54.28	3.36	7.43	
2025-01-13 04:12:54.49	3.33	7.44	
2025-01-13 04:12:54.69	3.30	7.44	
2025-01-13 04:12:54.90	3.27	7.45	
2025-01-13 04:12:55.10	3.24	7.45	
2025-01-13 04:12:55.31	3.20	7.46	
2025-01-13 04:12:55.51	3.17	7.47	
2025-01-13 04:12:55.72	3.14	7.47	
2025-01-13 04:12:55.92	3.11	7.48	
2025-01-13 04:12:56.13	3.08	7.48	
2025-01-13 04:12:56.33	3.05	7.49	
2025-01-13 04:12:56.54	3.02	7.49	
2025-01-13 04:12:56.74	2.98	7.50	
2025-01-13 04:12:56.95	2.95	7.50	
2025-01-13 04:12:57.15	2.92	7.51	
2025-01-13 04:12:57.36	2.89	7.52	
2025-01-13 04:12:57.57	2.86	7.52	
2025-01-13 04:12:57.77	2.83	7.53	
2025-01-13 04:12:57.98	2.79	7.53	
2025-01-13 04:12:58.18	2.76	7.54	
2025-01-13 04:12:58.39	2.73	7.54	
2025-01-13 04:12:58.59	2.70	7.55	
2025-01-13 04:12:58.80	2.67	7.55	
2025-01-13 04:12:59.01	2.63	7.56	
2025-01-13 04:12:59.21	2.60	7.57	
2025-01-13 04:12:59.43	2.57	7.57	
2025-01-13 04:12:59.63	2.54	7.58	
2025-01-13 04:12:59.84	2.51	7.58	
2025-01-13 04:13:00.05	2.47	7.59	
2025-01-13 04:13:00.27	2.44	7.59	
2025-01-13 04:13:00.47	2.41	7.60	
2025-01-13 04:13:00.67	2.38	7.60	
2025-01-13 04:13:00.88	2.35	7.61	
2025-01-13 04:13:01.08	2.31	7.61	
2025-01-13 04:13:01.29	2.28	7.62	
2025-01-13 04:13:01.49	2.25	7.63	
2025-01-13 04:13:01.70	2.22	7.63	
2025-01-13 04:13:01.90	2.19	7.64	
2025-01-13 04:13:02.11	2.15	7.64	
2025-01-13 04:13:02.31	2.12	7.65	
2025-01-13 04:13:02.52	2.09	7.65	
2025-01-13 04:13:02.72	2.06	7.66	
2025-01-13 04:13:02.93	2.03	7.66	
2025-01-13 04:13:03.13	2.00	7.67	
2025-01-13 04:13:03.34	1.96	7.67	
2025-01-13 04:13:03.54	1.93	7.68	
2025-01-13 04:13:03.75	1.90	7.68	
2025-01-13 04:13:03.95	1.87	7.69	
2025-01-13 04:13:04.16	1.83	7.70	
2025-01-13 04:13:04.36	1.80	7.70	
2025-01-13 04:13:04.57	1.77	7.71	
2025-01-13 04:13:04.78	1.74	7.71	
2025-01-13 04:13:04.98	1.71	7.72	
2025-01-13 04:13:05.19	1.67	7.72	
2025-01-13 04:13:05.40	1.64	7.73	
2025-01-13 04:13:05.60	1.61	7.73	
2025-01-13 04:13:05.81	1.58	7.74	
2025-01-13 04:13:06.01	1.55	7.74	
2025-01-13 04:13:06.22	1.51	7.75	
2025-01-13 04:13:06.42	1.48	7.75	
2025-01-13 04:13:06.63	1.45	7.76	
2025-01-13 04:13:06.83	1.42	7.76	
2025-01-13 04:13:07.04	1.38	7.77	
2025-01-13 04:13:07.24	1.35	7.77	
2025-01-13 04:13:07.45	1.32	7.78	
2025-01-13 04:13:07.65	1.29	7.78	
2025-01-13 04:13:07.86	1.26	7.79	
2025-01-13 04:13:08.06	1.22	7.80	
2025-01-13 04:13:08.27	1.19	7.80	
2025-01-13 04:13:08.47	1.16	7.81	
2025-01-13 04:13:08.68	1.13	7.81	
2025-01-13 04:13:08.89	1.09	7.82	
2025-01-13 04:13:09.09	1.06	7.82	
2025-01-13 04:13:09.30	1.03	7.83	
2025-01-13 04:13:09.50	1.00	7.83	
2025-01-13 04:13:09.71	0.96	7.84	
2025-01-13 04:13:09.91	0.93	7.84	
2025-01-13 04:13:10.13	0.90	7.85	
2025-01-13 04:13:10.33	0.87	7.85	
2025-01-13 04:13:10.54	0.83	7.86	
2025-01-13 04:13:10.74	0.80	7.86	
2025-01-13 04:13:10.95	0.77	7.87	
2025-01-13 04:13:11.15	0.74	7.87	
2025-01-13 04:13:11.36	0.70	7.88	
2025-01-13 04:13:11.57	0.67	7.88	
2025-01-13 04:13:11.77	0.64	7.89	
2025-01-13 04:13:11.98	0.61	7.89	
2025-01-13 04:13:12.19	0.57	7.90	
2025-01-13 04:13:12.39	0.54	7.90	
2025-01-13 04:13:12.60	0.51	7.91	
2025-01-13 04:13:12.81	0.47	7.91	
2025-01-13 04:13:13.01	0.44	7.92	
2025-01-13 04:13:13.21	0.41	7.92	
2025-01-13 04:13:13.42	0.38	7.93	
2025-01-13 04:13:13.62	0.35	7.93	
2025-01-13 04:13:13.83	0.31	7.94	
2025-01-13 04:13:14.04	0.28	7.94	
2025-01-13 04:13:14.24	0.25	7.95	
2025-01-13 04:13:14.45	0.21	7.95	
2025-01-13 04:13:14.66	0.18	7.96	
2025-01-13 04:13:14.86	0.15	7.96	
2025-01-13 04:13:15.06	0.12	7.97	
2025-01-13 04:13:15.27	0.08	7.97	
2025-01-13 04:13:15.47	0.05	7.98	
2025-01-13 04:13:15.68	0.02	7.98	
2025-01-13 04:13:15.88	359.99	7.99	
2025-01-13 04:13:16.09	359.95	7.99	
2025-01-13 04:13:16.29	359.92	8.00	
2025-01-13 04:13:16.51	359.89	8.00	
2025-01-13 04:13:16.72	359.85	8.01	
2025-01-13 04:13:16.92	359.82	8.01	
2025-01-13 04:13:17.13	359.79	8.02	
2025-01-13 04:13:17.33	359.76	8.02	
2025-01-13 04:13:17.54	359.72	8.03	
2025-01-13 04:13:17.74	359.69	8.03	
2025-01-13 04:13:17.95	359.66	8.04	
2025-01-13 04:13:18.16	359.62	8.04	
2025-01-13 04:13:18.36	359.59	8.04	
2025-01-13 04:13:18.57	359.56	8.05	
2025-01-13 04:13:18.77	359.53	8.05	
2025-01-13 04:13:18.98	359.49	8.06	
2025-01-13 04:13:19.18	359.46	8.06	
2025-01-13 04:13:19.39	359.43	8.07	
2025-01-13 04:13:19.59	359.39	8.07	
2025-01-13 04:13:19.80	359.36	8.08	
2025-01-13 04:13:20.00	359.33	8.08	
2025-01-13 04:13:20.21	359.29	8.09	
2025-01-13 04:13:20.41	359.26	8.09	
2025-01-13 04:13:20.62	359.23	8.10	
2025-01-13 04:13:20.82	359.20	8.10	
2025-01-13 04:13:21.03	359.16	8.11	
2025-01-13 04:13:21.24	359.13	8.11	
2025-01-13 04:13:21.44	359.10	8.12	
2025-01-13 04:13:21.65	359.06	8.12	
2025-01-13 04:13:21.87	359.03	8.13	
2025-01-13 04:13:22.07	359.00	8.13	
2025-01-13 04:13:22.28	358.96	8.13	
2025-01-13 04:13:22.48	358.93	8.14	
2025-01-13 04:13:22.69	358.90	8.14	
2025-01-13 04:13:22.89	358.86	8.15	
2025-01-13 04:13:23.10	358.83	8.15	
2025-01-13 04:13:23.30	358.80	8.16	
2025-01-13 04:13:23.51	358.76	8.16	
2025-01-13 04:13:23.71	358.73	8.17	
2025-01-13 04:13:23.92	358.70	8.17	
2025-01-13 04:13:24.12	358.67	8.18	
2025-01-13 04:13:24.33	358.63	8.18	
2025-01-13 04:13:24.53	358.60	8.19	
2025-01-13 04:13:24.74	358.57	8.19	
2025-01-13 04:13:24.94	358.53	8.19	
2025-01-13 04:13:25.15	358.50	8.20	
2025-01-13 04:13:25.35	358.47	8.20	
2025-01-13 04:13:25.56	358.43	8.21	
2025-01-13 04:13:25.76	358.40	8.21	
2025-01-13 04:13:25.97	358.37	8.22	
2025-01-13 04:13:26.17	358.33	8.22	
2025-01-13 04:13:26.37	358.30	8.23	
2025-01-13 04:13:26.58	358.27	8.23	
2025-01-13 04:13:26.79	358.23	8.23	
2025-01-13 04:13:26.99	358.20	8.24	
2025-01-13 04:13:27.20	358.17	8.24	
2025-01-13 04:13:27.40	358.13	8.25	
2025-01-13 04:13:27.61	358.10	8.25	
2025-01-13 04:13:27.81	358.07	8.26	
2025-01-13 04:13:28.02	358.03	8.26	
2025-01-13 04:13:28.22	358.00	8.27	
2025-01-13 04:13:28.43	357.97	8.27	
2025-01-13 04:13:28.64	357.93	8.27	
2025-01-13 04:13:28.84	357.90	8.28	
2025-01-13 04:13:29.05	357.87	8.28	
2025-01-13 04:13:29.27	357.83	8.29	
2025-01-13 04:13:29.47	357.80	8.29	
2025-01-13 04:13:29.68	357.76	8.30	
2025-01-13 04:13:29.88	357.73	8.30	
2025-01-13 04:13:30.09	357.70	8.30	
2025-01-13 04:13:30.29	357.67	8.31	
2025-01-13 04:13:30.50	357.63	8.31	
2025-01-13 04:13:30.71	357.60	8.32	
2025-01-13 04:13:30.91	357.56	8.32	
2025-01-13 04:13:31.12	357.53	8.33	
2025-01-13 04:13:31.33	357.50	8.33	
2025-01-13 04:13:31.53	357.46	8.34	
2025-01-13 04:13:31.74	357.43	8.34	
2025-01-13 04:13:31.94	357.40	8.34	
2025-01-13 04:13:32.15	357.36	8.35	
2025-01-13 04:13:32.35	357.33	8.35	
2025-01-13 04:13:32.56	357.29	8.36	
2025-01-13 04:13:32.76	357.26	8.36	
2025-01-13 04:13:32.97	357.23	8.36	
2025-01-13 04:13:33.17	357.20	8.37	
2025-01-13 04:13:33.38	357.16	8.37	
2025-01-13 04:13:33.58	357.13	8.38	
2025-01-13 04:13:33.79	357.09	8.38	
2025-01-13 04:13:34.01	357.06	8.39	
2025-01-13 04:13:34.21	357.02	8.39	
2025-01-13 04:13:34.41	356.99	8.39	
2025-01-13 04:13:34.62	356.96	8.40	
2025-01-13 04:13:34.82	356.92	8.40	
2025-01-13 04:13:35.03	356.89	8.41	
2025-01-13 04:13:35.23	356.86	8.41	
2025-01-13 04:13:35.44	356.82	8.41	
2025-01-13 04:13:35.65	356.79	8.42	
2025-01-13 04:13:35.85	356.76	8.42	
2025-01-13 04:13:36.05	356.72	8.43	
2025-01-13 04:13:36.26	356.69	8.43	
2025-01-13 04:13:36.47	356.65	8.43	
2025-01-13 04:13:36.67	356.62	8.44	
2025-01-13 04:13:36.87	356.59	8.44	
2025-01-13 04:13:37.08	356.55	8.45	
2025-01-13 04:13:37.29	356.52	8.45	
2025-01-13 04:13:37.49	356.49	8.45	
2025-01-13 04:13:37.70	356.45	8.46	
2025-01-13 04:13:37.90	356.42	8.46	
2025-01-13 04:13:38.11	356.38	8.47	
2025-01-13 04:13:38.31	356.35	8.47	
2025-01-13 04:13:38.52	356.32	8.47	
2025-01-13 04:13:38.73	356.28	8.48	
2025-01-13 04:13:38.94	356.25	8.48	
2025-01-13 04:13:39.15	356.21	8.49	
2025-01-13 04:13:39.35	356.18	8.49	
2025-01-13 04:13:39.56	356.15	8.49	
2025-01-13 04:13:39.77	356.11	8.50	
2025-01-13 04:13:39.97	356.08	8.50	
2025-01-13 04:13:40.17	356.04	8.51	
2025-01-13 04:13:40.38	356.01	8.51	
2025-01-13 04:13:40.58	355.98	8.51	
2025-01-13 04:13:40.79	355.94	8.52	
2025-01-13 04:13:40.99	355.91	8.52	
2025-01-13 04:13:41.20	355.87	8.53	
2025-01-13 04:13:41.40	355.84	8.53	
2025-01-13 04:13:41.61	355.81	8.53	
2025-01-13 04:13:41.81	355.77	8.54	
2025-01-13 04:13:42.02	355.74	8.54	
2025-01-13 04:13:42.22	355.71	8.54	
2025-01-13 04:13:42.43	355.67	8.55	
2025-01-13 04:13:42.63	355.64	8.55	
2025-01-13 04:13:42.84	355.60	8.56	
2025-01-13 04:13:43.05	355.57	8.56	
2025-01-13 04:13:43.25	355.53	8.56	
2025-01-13 04:13:43.46	355.50	8.57	
2025-01-13 04:13:43.66	355.47	8.57	
2025-01-13 04:13:43.87	355.43	8.57	
2025-01-13 04:13:44.07	355.40	8.58	
2025-01-13 04:13:44.28	355.36	8.58	
2025-01-13 04:13:44.49	355.33	8.59	
2025-01-13 04:13:44.69	355.30	8.59	
2025-01-13 04:13:44.90	355.26	8.59	
2025-01-13 04:13:45.10	355.23	8.60	
2025-01-13 04:13:45.31	355.19	8.60	
2025-01-13 04:13:45.51	355.16	8.60	
2025-01-13 04:13:45.72	355.12	8.61	
2025-01-13 04:13:45.92	355.09	8.61	
2025-01-13 04:13:46.13	355.06	8.62	
2025-01-13 04:13:46.34	355.02	8.62	
2025-01-13 04:13:46.54	354.99	8.62	
2025-01-13 04:13:46.75	354.95	8.63	
2025-01-13 04:13:46.95	354.92	8.63	
2025-01-13 04:13:47.16	354.88	8.63	
2025-01-13 04:13:47.36	354.85	8.64	
2025-01-13 04:13:47.57	354.82	8.64	
2025-01-13 04:13:47.77	354.78	8.64	
2025-01-13 04:13:47.98	354.75	8.65	
2025-01-13 04:13:48.19	354.71	8.65	
2025-01-13 04:13:48.39	354.68	8.65	
2025-01-13 04:13:48.61	354.64	8.66	
2025-01-13 04:13:48.82	354.61	8.66	
2025-01-13 04:13:49.02	354.57	8.67	
2025-01-13 04:13:49.23	354.54	8.67	
2025-01-13 04:13:49.44	354.50	8.67	
2025-01-13 04:13:49.64	354.47	8.68	
2025-01-13 04:13:49.85	354.44	8.68	
2025-01-13 04:13:50.05	354.40	8.68	
2025-01-13 04:13:50.26	354.37	8.69	
2025-01-13 04:13:50.46	354.33	8.69	
2025-01-13 04:13:50.68	354.30	8.69	
2025-01-13 04:13:50.89	354.26	8.70	
2025-01-13 04:13:51.09	354.23	8.70	
2025-01-13 04:13:51.30	354.19	8.70	
2025-01-13 04:13:51.50	354.16	8.71	
2025-01-13 04:13:51.71	354.12	8.71	
2025-01-13 04:13:51.91	354.09	8.71	
2025-01-13 04:13:52.12	354.06	8.72	
2025-01-13 04:13:52.32	354.02	8.72	
2025-01-13 04:13:52.53	353.99	8.72	
2025-01-13 04:13:52.73	353.95	8.73	
2025-01-13 04:13:52.94	353.92	8.73	
2025-01-13 04:13:53.14	353.88	8.73	
2025-01-13 04:13:53.35	353.85	8.74	
2025-01-13 04:13:53.55	353.82	8.74	
2025-01-13 04:13:53.76	353.78	8.74	
2025-01-13 04:13:53.96	353.75	8.75	
2025-01-13 04:13:54.17	353.71	8.75	
2025-01-13 04:13:54.37	353.68	8.75	
2025-01-13 04:13:54.58	353.64	8.76	
2025-01-13 04:13:54.78	353.61	8.76	
2025-01-13 04:13:54.99	353.57	8.76	
2025-01-13 04:13:55.19	353.54	8.77	
2025-01-13 04:13:55.40	353.50	8.77	
2025-01-13 04:13:55.60	353.47	8.77	
2025-01-13 04:13:55.81	353.44	8.78	
2025-01-13 04:13:56.01	353.40	8.78	
2025-01-13 04:13:56.22	353.37	8.78	
2025-01-13 04:13:56.42	353.33	8.79	
2025-01-13 04:13:56.63	353.30	8.79	
2025-01-13 04:13:56.84	353.26	8.79	
2025-01-13 04:13:57.04	353.23	8.79	
2025-01-13 04:13:57.24	353.19	8.80	
2025-01-13 04:13:57.45	353.16	8.80	
2025-01-13 04:13:57.65	353.13	8.80	
2025-01-13 04:13:57.86	353.09	8.81	
2025-01-13 04:13:58.06	353.06	8.81	
2025-01-13 04:13:58.28	353.02	8.81	
2025-01-13 04:13:58.49	352.98	8.82	
2025-01-13 04:13:58.69	352.95	8.82	
2025-01-13 04:13:58.90	352.91	8.82	
2025-01-13 04:13:59.11	352.88	8.83	
2025-01-13 04:13:59.31	352.85	8.83	
2025-01-13 04:13:59.52	352.81	8.83	
2025-01-13 04:13:59.72	352.78	8.83	
2025-01-13 04:13:59.93	352.74	8.84	
2025-01-13 04:14:00.13	352.71	8.84	
2025-01-13 04:14:00.34	352.67	8.84	
2025-01-13 04:14:00.54	352.64	8.85	
2025-01-13 04:14:00.75	352.60	8.85	
2025-01-13 04:14:00.95	352.57	8.85	
2025-01-13 04:14:01.16	352.53	8.86	
2025-01-13 04:14:01.36	352.50	8.86	
2025-01-13 04:14:01.57	352.46	8.86	
2025-01-13 04:14:01.77	352.43	8.86	
2025-01-13 04:14:01.98	352.39	8.87	
2025-01-13 04:14:02.18	352.36	8.87	
2025-01-13 04:14:02.39	352.32	8.87	
2025-01-13 04:14:02.60	352.29	8.88	
2025-01-13 04:14:02.80	352.26	8.88	
2025-01-13 04:14:03.01	352.22	8.88	
2025-01-13 04:14:03.21	352.19	8.88	
2025-01-13 04:14:03.42	352.15	8.89	
2025-01-13 04:14:03.62	352.12	8.89	
2025-01-13 04:14:03.83	352.08	8.89	
2025-01-13 04:14:04.03	352.05	8.90	
2025-01-13 04:14:04.24	352.01	8.90	
2025-01-13 04:14:04.45	351.98	8.90	
2025-01-13 04:14:04.65	351.94	8.90	
2025-01-13 04:14:04.86	351.91	8.91	
2025-01-13 04:14:05.06	351.87	8.91	
2025-01-13 04:14:05.27	351.84	8.91	
2025-01-13 04:14:05.47	351.80	8.91	
2025-01-13 04:14:05.68	351.77	8.92	
2025-01-13 04:14:05.88	351.73	8.92	
2025-01-13 04:14:06.09	351.70	8.92	
2025-01-13 04:14:06.30	351.66	8.93	
2025-01-13 04:14:06.50	351.63	8.93	
2025-01-13 04:14:06.71	351.59	8.93	
2025-01-13 04:14:06.91	351.56	8.93	
2025-01-13 04:14:07.12	351.52	8.94	
2025-01-13 04:14:07.33	351.49	8.94	
2025-01-13 04:14:07.53	351.45	8.94	
2025-01-13 04:14:07.74	351.42	8.94	
2025-01-13 04:14:07.94	351.38	8.95	
2025-01-13 04:14:08.15	351.35	8.95	
2025-01-13 04:14:08.35	351.31	8.95	
2025-01-13 04:14:08.56	351.28	8.95	
2025-01-13 04:14:08.77	351.24	8.96	
2025-01-13 04:14:08.97	351.21	8.96	
2025-01-13 04:14:09.18	351.17	8.96	
2025-01-13 04:14:09.38	351.14	8.97	
2025-01-13 04:14:09.59	351.10	8.97	
2025-01-13 04:14:09.79	351.07	8.97	
2025-01-13 04:14:10.00	351.03	8.97	
2025-01-13 04:14:10.20	351.00	8.98	
2025-01-13 04:14:10.41	350.96	8.98	
2025-01-13 04:14:10.61	350.93	8.98	
2025-01-13 04:14:10.82	350.89	8.98	
2025-01-13 04:14:11.02	350.86	8.99	
2025-01-13 04:14:11.23	350.82	8.99	
2025-01-13 04:14:11.43	350.79	8.99	
2025-01-13 04:14:11.64	350.75	8.99	
2025-01-13 04:14:11.84	350.72	8.99	
2025-01-13 04:14:12.04	350.68	9.00	
2025-01-13 04:14:12.25	350.65	9.00	
2025-01-13 04:14:12.46	350.61	9.00	
2025-01-13 04:14:12.66	350.58	9.00	
2025-01-13 04:14:12.87	350.54	9.01	
2025-01-13 04:14:13.07	350.51	9.01	
2025-01-13 04:14:13.28	350.47	9.01	
2025-01-13 04:14:13.48	350.44	9.01	
2025-01-13 04:14:13.69	350.40	9.02	
2025-01-13 04:14:13.89	350.37	9.02	
2025-01-13 04:14:14.10	350.33	9.02	
2025-01-13 04:14:14.30	350.30	9.02	
2025-01-13 04:14:14.51	350.26	9.03	
2025-01-13 04:14:14.72	350.22	9.03	
2025-01-13 04:14:14.92	350.19	9.03	
2025-01-13 04:14:15.13	350.15	9.03	
2025-01-13 04:14:15.33	350.12	9.03	
2025-01-13 04:14:15.54	350.08	9.04	
2025-01-13 04:14:15.74	350.05	9.04	
2025-01-13 04:14:15.95	350.01	9.04	
2025-01-13 04:14:16.16	349.98	9.04	
2025-01-13 04:14:16.36	349.94	9.05	
2025-01-13 04:14:16.56	349.91	9.05	
2025-01-13 04:14:16.77	349.87	9.05	
2025-01-13 04:14:16.97	349.84	9.05	
2025-01-13 04:14:17.18	349.80	9.05	
2025-01-13 04:14:17.38	349.77	9.06	
2025-01-13 04:14:17.59	349.73	9.06	
2025-01-13 04:14:17.79	349.70	9.06	
2025-01-13 04:14:18.00	349.66	9.06	
2025-01-13 04:14:18.20	349.63	9.07	
2025-01-13 04:14:18.41	349.59	9.07	
2025-01-13 04:14:18.61	349.56	9.07	
2025-01-13 04:14:18.82	349.52	9.07	
2025-01-13 04:14:19.02	349.49	9.07	
2025-01-13 04:14:19.23	349.45	9.08	
2025-01-13 04:14:19.44	349.41	9.08	
2025-01-13 04:14:19.66	349.38	9.08	
2025-01-13 04:14:19.86	349.34	9.08	
2025-01-13 04:14:20.07	349.30	9.08	
2025-01-13 04:14:20.27	349.27	9.09	
2025-01-13 04:14:20.48	349.23	9.09	
2025-01-13 04:14:20.68	349.20	9.09	
2025-01-13 04:14:20.89	349.16	9.09	
2025-01-13 04:14:21.10	349.13	9.09	
2025-01-13 04:14:21.30	349.09	9.10	
2025-01-13 04:14:21.51	349.06	9.10	
2025-01-13 04:14:21.71	349.02	9.10	
2025-01-13 04:14:21.92	348.99	9.10	
2025-01-13 04:14:22.12	348.95	9.10	
2025-01-13 04:14:22.33	348.92	9.11	
2025-01-13 04:14:22.53	348.88	9.11	
2025-01-13 04:14:22.73	348.85	9.11	
2025-01-13 04:14:22.94	348.81	9.11	
2025-01-13 04:14:23.14	348.78	9.11	
2025-01-13 04:14:23.35	348.74	9.11	
2025-01-13 04:14:23.55	348.71	9.12	
2025-01-13 04:14:23.76	348.67	9.12	
2025-01-13 04:14:23.97	348.63	9.12	
2025-01-13 04:14:24.17	348.60	9.12	
2025-01-13 04:14:24.38	348.56	9.12	
2025-01-13 04:14:24.60	348.52	9.13	
2025-01-13 04:14:24.80	348.49	9.13	
2025-01-13 04:14:25.00	348.46	9.13	
2025-01-13 04:14:25.21	348.42	9.13	
2025-01-13 04:14:25.42	348.38	9.13	
2025-01-13 04:14:25.62	348.35	9.13	
2025-01-13 04:14:25.83	348.31	9.14	
2025-01-13 04:14:26.03	348.28	9.14	
2025-01-13 04:14:26.24	348.24	9.14	
2025-01-13 04:14:26.44	348.21	9.14	
2025-01-13 04:14:26.65	348.17	9.14	
2025-01-13 04:14:26.85	348.14	9.14	
2025-01-13 04:14:27.07	348.10	9.15	
2025-01-13 04:14:27.27	348.06	9.15	
2025-01-13 04:14:27.48	348.03	9.15	
2025-01-13 04:14:27.68	347.99	9.15	
2025-01-13 04:14:27.89	347.96	9.15	
2025-01-13 04:14:28.09	347.92	9.15	
2025-01-13 04:14:28.30	347.89	9.16	
2025-01-13 04:14:28.50	347.85	9.16	
2025-01-13 04:14:28.71	347.81	9.16	
2025-01-13 04:14:28.91	347.78	9.16	
2025-01-13 04:14:29.12	347.74	9.16	
2025-01-13 04:14:29.32	347.71	9.16	
2025-01-13 04:14:29.53	347.67	9.17	
2025-01-13 04:14:29.73	347.64	9.17	
2025-01-13 04:14:29.94	347.60	9.17	
2025-01-13 04:14:30.14	347.57	9.17	
2025-01-13 04:14:30.35	347.53	9.17	
2025-01-13 04:14:30.55	347.50	9.17	
2025-01-13 04:14:30.76	347.46	9.18	
2025-01-13 04:14:30.97	347.42	9.18	
2025-01-13 04:14:31.17	347.39	9.18	
2025-01-13 04:14:31.39	347.35	9.18	
2025-01-13 04:14:31.60	347.31	9.18	
2025-01-13 04:14:31.80	347.28	9.18	
2025-01-13 04:14:32.01	347.24	9.18	
2025-01-13 04:14:32.21	347.21	9.19	
2025-01-13 04:14:32.42	347.17	9.19	
2025-01-13 04:14:32.62	347.14	9.19	
2025-01-13 04:14:32.83	347.10	9.19	
2025-01-13 04:14:33.03	347.07	9.19	
2025-01-13 04:14:33.24	347.03	9.19	
2025-01-13 04:14:33.44	347.00	9.19	
2025-01-13 04:14:33.65	346.96	9.19	
2025-01-13 04:14:33.86	346.92	9.20	
2025-01-13 04:14:34.06	346.89	9.20	
2025-01-13 04:14:34.27	346.85	9.20	
2025-01-13 04:14:34.47	346.82	9.20	
2025-01-13 04:14:34.67	346.78	9.20	
2025-01-13 04:14:34.88	346.75	9.20	
2025-01-13 04:14:35.09	346.71	9.20	
2025-01-13 04:14:35.29	346.68	9.21	
2025-01-13 04:14:35.50	346.64	9.21	
2025-01-13 04:14:35.70	346.60	9.21	
2025-01-13 04:14:35.91	346.57	9.21	
2025-01-13 04:14:36.12	346.53	9.21	
2025-01-13 04:14:36.32	346.50	9.21	
2025-01-13 04:14:36.53	346.46	9.21	
2025-01-13 04:14:36.73	346.43	9.21	
2025-01-13 04:14:36.94	346.39	9.21	
2025-01-13 04:14:37.14	346.35	9.22	
2025-01-13 04:14:37.35	346.32	9.22	
2025-01-13 04:14:37.55	346.28	9.22	
2025-01-13 04:14:37.77	346.25	9.22	
2025-01-13 04:14:37.98	346.21	9.22	
2025-01-13 04:14:38.18	346.17	9.22	
2025-01-13 04:14:38.39	346.14	9.22	
2025-01-13 04:14:38.59	346.10	9.22	
2025-01-13 04:14:38.79	346.07	9.22	
2025-01-13 04:14:39.00	346.03	9.23	
2025-01-13 04:14:39.21	345.99	9.23	
2025-01-13 04:14:39.41	345.96	9.23	
2025-01-13 04:14:39.62	345.92	9.23	
2025-01-13 04:14:39.82	345.89	9.23	
2025-01-13 04:14:40.03	345.85	9.23	
2025-01-13 04:14:40.23	345.82	9.23	
2025-01-13 04:14:40.44	345.78	9.23	
2025-01-13 04:14:40.64	345.75	9.23	
2025-01-13 04:14:40.85	345.71	9.24	
2025-01-13 04:14:41.05	345.68	9.24	
2025-01-13 04:14:41.26	345.64	9.24	
2025-01-13 04:14:41.46	345.60	9.24	
2025-01-13 04:14:41.67	345.57	9.24	
2025-01-13 04:14:41.88	345.53	9.24	
2025-01-13 04:14:42.08	345.50	9.24	
2025-01-13 04:14:42.29	345.46	9.24	
2025-01-13 04:14:42.49	345.42	9.24	
2025-01-13 04:14:42.70	345.39	9.24	
2025-01-13 04:14:42.90	345.35	9.24	
2025-01-13 04:14:43.11	345.32	9.25	
2025-01-13 04:14:43.31	345.28	9.25	
2025-01-13 04:14:43.52	345.25	9.25	
2025-01-13 04:14:43.72	345.21	9.25	
2025-01-13 04:14:43.93	345.17	9.25	
2025-01-13 04:14:44.13	345.14	9.25	
2025-01-13 04:14:44.34	345.10	9.25	
2025-01-13 04:14:44.55	345.07	9.25	
2025-01-13 04:14:44.75	345.03	9.25	
2025-01-13 04:14:44.96	345.00	9.25	
2025-01-13 04:14:45.16	344.96	9.25	
2025-01-13 04:14:45.37	344.92	9.25	
2025-01-13 04:14:45.57	344.89	9.25	
2025-01-13 04:14:45.78	344.85	9.26	
2025-01-13 04:14:45.99	344.82	9.26	
2025-01-13 04:14:46.19	344.78	9.26	
2025-01-13 04:14:46.39	344.75	9.26	
2025-01-13 04:14:46.60	344.71	9.26	
2025-01-13 04:14:46.80	344.67	9.26	
2025-01-13 04:14:47.01	344.64	9.26	
2025-01-13 04:14:47.21	344.60	9.26	
2025-01-13 04:14:47.42	344.57	9.26	
2025-01-13 04:14:47.62	344.53	9.26	
2025-01-13 04:14:47.83	344.50	9.26	
2025-01-13 04:14:48.04	344.46	9.26	
2025-01-13 04:14:48.24	344.42	9.26	
2025-01-13 04:14:48.45	344.39	9.26	
2025-01-13 04:14:48.65	344.35	9.26	
2025-01-13 04:14:48.86	344.32	9.26	
2025-01-13 04:14:49.06	344.28	9.27	
2025-01-13 04:14:49.27	344.24	9.27	
2025-01-13 04:14:49.47	344.21	9.27	
2025-01-13 04:14:49.68	344.17	9.27	
2025-01-13 04:14:49.88	344.14	9.27	
2025-01-13 04:14:50.09	344.10	9.27	
2025-01-13 04:14:50.30	344.07	9.27	
2025-01-13 04:14:50.50	344.03	9.27	
2025-01-13 04:14:50.71	343.99	9.27	
2025-01-13 04:14:50.91	343.96	9.27	
2025-01-13 04:14:51.12	343.92	9.27	
2025-01-13 04:14:51.32	343.89	9.27	
2025-01-13 04:14:51.53	343.85	9.27	
2025-01-13 04:14:51.73	343.82	9.27	
2025-01-13 04:14:51.94	343.78	9.27	
2025-01-13 04:14:52.15	343.74	9.27	
2025-01-13 04:14:52.35	343.71	9.27	
2025-01-13 04:14:52.55	343.67	9.27	
2025-01-13 04:14:52.76	343.64	9.27	
2025-01-13 04:14:52.96	343.60	9.27	
2025-01-13 04:14:53.17	343.57	9.27	
2025-01-13 04:14:53.37	343.53	9.27	
2025-01-13 04:14:53.58	343.49	9.27	
2025-01-13 04:14:53.80	343.46	9.27	
2025-01-13 04:14:54.00	343.42	9.28	
2025-01-13 04:14:54.21	343.38	9.28	
2025-01-13 04:14:54.41	343.35	9.28	
2025-01-13 04:14:54.62	343.31	9.28	
2025-01-13 04:14:54.82	343.28	9.28	
2025-01-13 04:14:55.03	343.24	9.28	
2025-01-13 04:14:55.23	343.21	9.28	
2025-01-13 04:14:55.44	343.17	9.28	
2025-01-13 04:14:55.65	343.13	9.28	
2025-01-13 04:14:55.85	343.10	9.28	
2025-01-13 04:14:56.05	343.06	9.28	
2025-01-13 04:14:56.26	343.03	9.28	
2025-01-13 04:14:56.47	342.99	9.28	
2025-01-13 04:14:56.67	342.96	9.28	
2025-01-13 04:14:56.88	342.92	9.28	
2025-01-13 04:14:57.08	342.88	9.28	
2025-01-13 04:14:57.28	342.85	9.28	
2025-01-13 04:14:57.49	342.81	9.28	
2025-01-13 04:14:57.70	342.78	9.28	
2025-01-13 04:14:57.90	342.74	9.28	
2025-01-13 04:14:58.11	342.70	9.28	
2025-01-13 04:14:58.31	342.67	9.28	
2025-01-13 04:14:58.52	342.63	9.28	
2025-01-13 04:14:58.72	342.60	9.28	
2025-01-13 04:14:58.93	342.56	9.28	
2025-01-13 04:14:59.13	342.53	9.28	
2025-01-13 04:14:59.34	342.49	9.28	
2025-01-13 04:14:59.54	342.45	9.28	
2025-01-13 04:14:59.75	342.42	9.28	
2025-01-13 04:14:59.95	342.38	9.28	
2025-01-13 04:15:00.16	342.35	9.28	
2025-01-13 04:15:00.36	342.31	9.28	
2025-01-13 04:15:00.57	342.28	9.28	
2025-01-13 04:15:00.78	342.24	9.28	
2025-01-13 04:15:00.98	342.20	9.28	
2025-01-13 04:15:01.18	342.17	9.28	
2025-01-13 04:15:01.39	342.13	9.28	
2025-01-13 04:15:01.60	342.10	9.28	
2025-01-13 04:15:01.80	342.06	9.28	
2025-01-13 04:15:02.01	342.02	9.28	
2025-01-13 04:15:02.21	341.99	9.28	
2025-01-13 04:15:02.41	341.95	9.28	
2025-01-13 04:15:02.62	341.92	9.28	
2025-01-13 04:15:02.83	341.88	9.28	
2025-01-13 04:15:03.03	341.85	9.28	
2025-01-13 04:15:03.24	341.81	9.28	
2025-01-13 04:15:03.44	341.77	9.28	
2025-01-13 04:15:03.65	341.74	9.28	
2025-01-13 04:15:03.85	341.70	9.28	
2025-01-13 04:15:04.06	341.67	9.28	
2025-01-13 04:15:04.27	341.63	9.28	
2025-01-13 04:15:04.47	341.60	9.28	
2025-01-13 04:15:04.68	341.56	9.28	
2025-01-13 04:15:04.88	341.52	9.28	
2025-01-13 04:15:05.09	341.49	9.27	
2025-01-13 04:15:05.29	341.45	9.27	
2025-01-13 04:15:05.50	341.42	9.27	
2025-01-13 04:15:05.70	341.38	9.27	
2025-01-13 04:15:05.91	341.34	9.27	
2025-01-13 04:15:06.11	341.31	9.27	
2025-01-13 04:15:06.32	341.27	9.27	
2025-01-13 04:15:06.52	341.24	9.27	
2025-01-13 04:15:06.73	341.20	9.27	
2025-01-13 04:15:06.93	341.17	9.27	
2025-01-13 04:15:07.14	341.13	9.27	
2025-01-13 04:15:07.34	341.09	9.27	
2025-01-13 04:15:07.55	341.06	9.27	
2025-01-13 04:15:07.76	341.02	9.27	
2025-01-13 04:15:07.96	340.99	9.27	
2025-01-13 04:15:08.17	340.95	9.27	
2025-01-13 04:15:08.37	340.92	9.27	
2025-01-13 04:15:08.58	340.88	9.27	
2025-01-13 04:15:08.78	340.84	9.27	
2025-01-13 04:15:08.99	340.81	9.27	
2025-01-13 04:15:09.20	340.77	9.27	
2025-01-13 04:15:09.40	340.74	9.27	
2025-01-13 04:15:09.60	340.70	9.27	
2025-01-13 04:15:09.81	340.66	9.27	
2025-01-13 04:15:10.01	340.63	9.26	
2025-01-13 04:15:10.22	340.59	9.26	
2025-01-13 04:15:10.43	340.56	9.26	
2025-01-13 04:15:10.63	340.52	9.26	
2025-01-13 04:15:10.84	340.49	9.26	
2025-01-13 04:15:11.04	340.45	9.26	
2025-01-13 04:15:11.25	340.41	9.26	
2025-01-13 04:15:11.45	340.38	9.26	
2025-01-13 04:15:11.66	340.34	9.26	
2025-01-13 04:15:11.86	340.31	9.26	
2025-01-13 04:15:12.07	340.27	9.26	
2025-01-13 04:15:12.27	340.24	9.26	
2025-01-13 04:15:12.48	340.20	9.26	
2025-01-13 04:15:12.68	340.16	9.26	
2025-01-13 04:15:12.89	340.13	9.26	
2025-01-13 04:15:13.10	340.09	9.26	
2025-01-13 04:15:13.30	340.06	9.25	
2025-01-13 04:15:13.50	340.02	9.25	
2025-01-13 04:15:13.71	339.99	9.25	
2025-01-13 04:15:13.91	339.95	9.25	
2025-01-13 04:15:14.13	339.91	9.25	
2025-01-13 04:15:14.34	339.88	9.25	
2025-01-13 04:15:14.54	339.84	9.25	
2025-01-13 04:15:14.75	339.80	9.25	
2025-01-13 04:15:14.95	339.77	9.25	
2025-01-13 04:15:15.17	339.73	9.25	
2025-01-13 04:15:15.38	339.69	9.25	
2025-01-13 04:15:15.58	339.66	9.25	
2025-01-13 04:15:15.79	339.62	9.25	
2025-01-13 04:15:16.00	339.59	9.24	
2025-01-13 04:15:16.20	339.55	9.24	
2025-01-13 04:15:16.41	339.52	9.24	
2025-01-13 04:15:16.61	339.48	9.24	
2025-01-13 04:15:16.82	339.44	9.24	
2025-01-13 04:15:17.03	339.41	9.24	
2025-01-13 04:15:17.23	339.37	9.24	
2025-01-13 04:15:17.43	339.34	9.24	
2025-01-13 04:15:17.65	339.30	9.24	
2025-01-13 04:15:17.85	339.27	9.24	
2025-01-13 04:15:18.06	339.23	9.24	
2025-01-13 04:15:18.26	339.19	9.23	
2025-01-13 04:15:18.47	339.16	9.23	
2025-01-13 04:15:18.67	339.12	9.23	
2025-01-13 04:15:18.88	339.09	9.23	
2025-01-13 04:15:19.08	339.05	9.23	
2025-01-13 04:15:19.29	339.01	9.23	
2025-01-13 04:15:19.49	338.98	9.23	
2025-01-13 04:15:19.70	338.94	9.23	
2025-01-13 04:15:19.90	338.91	9.23	
2025-01-13 04:15:20.11	338.87	9.23	
2025-01-13 04:15:20.32	338.84	9.22	
2025-01-13 04:15:20.53	338.80	9.22	
2025-01-13 04:15:20.74	338.76	9.22	
2025-01-13 04:15:20.94	338.73	9.22	
2025-01-13 04:15:21.15	338.69	9.22	
2025-01-13 04:15:21.36	338.66	9.22	
2025-01-13 04:15:21.56	338.62	9.22	
2025-01-13 04:15:21.77	338.58	9.22	
2025-01-13 04:15:21.98	338.55	9.22	
2025-01-13 04:15:22.18	338.51	9.21	
2025-01-13 04:15:22.39	338.48	9.21	
2025-01-13 04:15:22.59	338.44	9.21	
2025-01-13 04:15:22.80	338.41	9.21	
2025-01-13 04:15:23.00	338.37	9.21	
2025-01-13 04:15:23.21	338.33	9.21	
2025-01-13 04:15:23.41	338.30	9.21	
2025-01-13 04:15:23.62	338.26	9.21	
2025-01-13 04:15:23.82	338.23	9.20	
2025-01-13 04:15:24.03	338.19	9.20	
2025-01-13 04:15:24.23	338.16	9.20	
2025-01-13 04:15:24.44	338.12	9.20	
2025-01-13 04:15:24.64	338.09	9.20	
2025-01-13 04:15:24.85	338.05	9.20	
2025-01-13 04:15:25.06	338.01	9.20	
2025-01-13 04:15:25.26	337.98	9.20	
2025-01-13 04:15:25.47	337.94	9.19	
2025-01-13 04:15:25.67	337.91	9.19	
2025-01-13 04:15:25.88	337.87	9.19	
2025-01-13 04:15:26.08	337.84	9.19	
2025-01-13 04:15:26.29	337.80	9.19	
2025-01-13 04:15:26.49	337.77	9.19	
2025-01-13 04:15:26.70	337.73	9.19	
2025-01-13 04:15:26.90	337.69	9.18	
2025-01-13 04:15:27.11	337.66	9.18	
2025-01-13 04:15:27.31	337.62	9.18	
2025-01-13 04:15:27.52	337.59	9.18	
2025-01-13 04:15:27.72	337.55	9.18	
2025-01-13 04:15:27.93	337.52	9.18	
2025-01-13 04:15:28.13	337.48	9.18	
2025-01-13 04:15:28.34	337.44	9.17	
2025-01-13 04:15:28.54	337.41	9.17	
2025-01-13 04:15:28.75	337.37	9.17	
2025-01-13 04:15:28.96	337.34	9.17	
2025-01-13 04:15:29.16	337.30	9.17	
2025-01-13 04:15:29.37	337.27	9.17	
2025-01-13 04:15:29.57	337.23	9.16	
2025-01-13 04:15:29.78	337.20	9.16	
2025-01-13 04:15:29.98	337.16	9.16	
2025-01-13 04:15:30.19	337.12	9.16	
2025-01-13 04:15:30.39	337.09	9.16	
2025-01-13 04:15:30.60	337.05	9.16	
2025-01-13 04:15:30.80	337.02	9.16	
2025-01-13 04:15:31.01	336.98	9.15	
2025-01-13 04:15:31.21	336.95	9.15	
2025-01-13 04:15:31.42	336.91	9.15	
2025-01-13 04:15:31.62	336.88	9.15	
2025-01-13 04:15:31.83	336.84	9.15	
2025-01-13 04:15:32.03	336.81	9.15	
2025-01-13 04:15:32.25	336.77	9.14	
2025-01-13 04:15:32.45	336.73	9.14	
2025-01-13 04:15:32.66	336.70	9.14	
2025-01-13 04:15:32.87	336.66	9.14	
2025-01-13 04:15:33.07	336.63	9.14	
2025-01-13 04:15:33.29	336.59	9.14	
2025-01-13 04:15:33.50	336.55	9.13	
2025-01-13 04:15:33.70	336.52	9.13	
2025-01-13 04:15:33.91	336.48	9.13	
2025-01-13 04:15:34.11	336.45	9.13	
2025-01-13 04:15:34.32	336.41	9.13	
2025-01-13 04:15:34.52	336.38	9.12	
2025-01-13 04:15:34.73	336.34	9.12	
2025-01-13 04:15:34.93	336.31	9.12	
2025-01-13 04:15:35.14	336.27	9.12	
2025-01-13 04:15:35.34	336.24	9.12	
2025-01-13 04:15:35.55	336.20	9.12	
2025-01-13 04:15:35.75	336.16	9.11	
2025-01-13 04:15:35.96	336.13	9.11	
2025-01-13 04:15:36.16	336.09	9.11	
2025-01-13 04:15:36.37	336.06	9.11	
2025-01-13 04:15:36.57	336.02	9.11	
2025-01-13 04:15:36.78	335.99	9.10	
2025-01-13 04:15:36.98	335.95	9.10	
2025-01-13 04:15:37.19	335.92	9.10	
2025-01-13 04:15:37.41	335.88	9.10	
2025-01-13 04:15:37.61	335.84	9.10	
2025-01-13 04:15:37.81	335.81	9.09	
2025-01-13 04:15:38.02	335.77	9.09	
2025-01-13 04:15:38.23	335.74	9.09	
2025-01-13 04:15:38.43	335.70	9.09	
2025-01-13 04:15:38.64	335.67	9.09	
2025-01-13 04:15:38.84	335.63	9.08	
2025-01-13 04:15:39.05	335.60	9.08	
2025-01-13 04:15:39.25	335.56	9.08	
2025-01-13 04:15:39.46	335.53	9.08	
2025-01-13 04:15:39.66	335.49	9.08	
2025-01-13 04:15:39.87	335.46	9.07	
2025-01-13 04:15:40.07	335.42	9.07	
2025-01-13 04:15:40.28	335.38	9.07	
2025-01-13 04:15:40.49	335.35	9.07	
2025-01-13 04:15:40.70	335.31	9.07	
2025-01-13 04:15:40.91	335.28	9.06	
2025-01-13 04:15:41.12	335.24	9.06	
2025-01-13 04:15:41.32	335.21	9.06	
2025-01-13 04:15:41.53	335.17	9.06	
2025-01-13 04:15:41.73	335.14	9.06	
2025-01-13 04:15:41.94	335.10	9.05	
2025-01-13 04:15:42.15	335.06	9.05	
2025-01-13 04:15:42.35	335.03	9.05	
2025-01-13 04:15:42.56	334.99	9.05	
2025-01-13 04:15:42.76	334.96	9.04	
2025-01-13 04:15:42.97	334.92	9.04	
2025-01-13 04:15:43.17	334.89	9.04	
2025-01-13 04:15:43.38	334.85	9.04	
2025-01-13 04:15:43.58	334.82	9.04	
2025-01-13 04:15:43.79	334.78	9.03	
2025-01-13 04:15:44.01	334.74	9.03	
2025-01-13 04:15:44.21	334.71	9.03	
2025-01-13 04:15:44.42	334.67	9.03	
2025-01-13 04:15:44.62	334.64	9.02	
2025-01-13 04:15:44.83	334.60	9.02	
2025-01-13 04:15:45.05	334.57	9.02	
2025-01-13 04:15:45.25	334.53	9.02	
2025-01-13 04:15:45.46	334.50	9.01	
2025-01-13 04:15:45.66	334.46	9.01	
2025-01-13 04:15:45.87	334.43	9.01	
2025-01-13 04:15:46.09	334.39	9.01	
2025-01-13 04:15:46.29	334.35	9.00	
2025-01-13 04:15:46.50	334.32	9.00	
2025-01-13 04:15:46.71	334.28	9.00	
2025-01-13 04:15:46.91	334.25	9.00	
2025-01-13 04:15:47.11	334.21	9.00	
2025-01-13 04:15:47.32	334.18	8.99	
2025-01-13 04:15:47.53	334.14	8.99	
2025-01-13 04:15:47.73	334.11	8.99	
2025-01-13 04:15:47.94	334.07	8.99	
2025-01-13 04:15:48.14	334.04	8.98	
2025-01-13 04:15:48.34	334.00	8.98	
2025-01-13 04:15:48.55	333.97	8.98	
2025-01-13 04:15:48.76	333.93	8.98	
2025-01-13 04:15:48.96	333.90	8.97	
2025-01-13 04:15:49.17	333.86	8.97	
2025-01-13 04:15:49.37	333.83	8.97	
2025-01-13 04:15:49.58	333.79	8.97	
2025-01-13 04:15:49.78	333.76	8.96	
2025-01-13 04:15:49.99	333.72	8.96	
2025-01-13 04:15:50.20	333.69	8.96	
2025-01-13 04:15:50.41	333.65	8.95	
2025-01-13 04:15:50.62	333.61	8.95	
2025-01-13 04:15:50.83	333.58	8.95	
2025-01-13 04:15:51.03	333.54	8.95	
2025-01-13 04:15:51.24	333.51	8.94	
2025-01-13 04:15:51.46	333.47	8.94	
2025-01-13 04:15:51.66	333.44	8.94	
2025-01-13 04:15:51.87	333.40	8.94	
2025-01-13 04:15:52.08	333.37	8.93	
2025-01-13 04:15:52.28	333.33	8.93	
2025-01-13 04:15:52.49	333.30	8.93	
2025-01-13 04:15:52.69	333.26	8.93	
2025-01-13 04:15:52.90	333.23	8.92	
2025-01-13 04:15:53.10	333.19	8.92	
2025-01-13 04:15:53.31	333.16	8.92	
2025-01-13 04:15:53.51	333.12	8.91	
2025-01-13 04:15:53.72	333.09	8.91	
2025-01-13 04:15:53.92	333.05	8.91	
2025-01-13 04:15:54.13	333.02	8.91	
2025-01-13 04:15:54.33	332.98	8.90	
2025-01-13 04:15:54.54	332.95	8.90	
2025-01-13 04:15:54.74	332.91	8.90	
2025-01-13 04:15:54.95	332.88	8.90	
2025-01-13 04:15:55.15	332.84	8.89	
2025-01-13 04:15:55.36	332.81	8.89	
2025-01-13 04:15:55.56	332.77	8.89	
2025-01-13 04:15:55.77	332.74	8.88	
2025-01-13 04:15:55.97	332.70	8.88	
2025-01-13 04:15:56.18	332.67	8.88	
2025-01-13 04:15:56.38	332.64	8.88	
2025-01-13 04:15:56.59	332.60	8.87	
2025-01-13 04:15:56.79	332.57	8.87	
2025-01-13 04:15:57.00	332.53	8.87	
2025-01-13 04:15:57.20	332.50	8.86	
2025-01-13 04:15:57.41	332.46	8.86	
2025-01-13 04:15:57.62	332.43	8.86	
2025-01-13 04:15:57.82	332.39	8.86	
2025-01-13 04:15:58.02	332.36	8.85	
2025-01-13 04:15:58.23	332.32	8.85	
2025-01-13 04:15:58.43	332.29	8.85	
2025-01-13 04:15:58.64	332.25	8.84	
2025-01-13 04:15:58.84	332.22	8.84	
2025-01-13 04:15:59.05	332.18	8.84	
2025-01-13 04:15:59.26	332.15	8.83	
2025-01-13 04:15:59.46	332.11	8.83	
2025-01-13 04:15:59.67	332.08	8.83	
2025-01-13 04:15:59.87	332.04	8.83	
2025-01-13 04:16:00.07	332.01	8.82	
2025-01-13 04:16:00.28	331.98	8.82	
2025-01-13 04:16:00.48	331.94	8.82	
2025-01-13 04:16:00.69	331.91	8.81	
2025-01-13 04:16:00.90	331.87	8.81	
2025-01-13 04:16:01.10	331.84	8.81	
2025-01-13 04:16:01.31	331.80	8.80	
2025-01-13 04:16:01.51	331.77	8.80	
2025-01-13 04:16:01.72	331.73	8.80	
2025-01-13 04:16:01.92	331.70	8.79	
2025-01-13 04:16:02.13	331.66	8.79	
2025-01-13 04:16:02.33	331.63	8.79	
2025-01-13 04:16:02.54	331.59	8.79	
2025-01-13 04:16:02.75	331.56	8.78	
2025-01-13 04:16:02.95	331.52	8.78	
2025-01-13 04:16:03.17	331.49	8.78	
2025-01-13 04:16:03.37	331.45	8.77	
2025-01-13 04:16:03.58	331.42	8.77	
2025-01-13 04:16:03.79	331.38	8.77	
2025-01-13 04:16:03.99	331.35	8.76	
2025-01-13 04:16:04.20	331.31	8.76	
2025-01-13 04:16:04.40	331.28	8.76	
2025-01-13 04:16:04.61	331.25	8.75	
2025-01-13 04:16:04.81	331.21	8.75	
2025-01-13 04:16:05.02	331.18	8.75	
2025-01-13 04:16:05.22	331.14	8.74	
2025-01-13 04:16:05.43	331.11	8.74	
2025-01-13 04:16:05.63	331.07	8.74	
2025-01-13 04:16:05.84	331.04	8.73	
2025-01-13 04:16:06.04	331.01	8.73	
2025-01-13 04:16:06.25	330.97	8.73	
2025-01-13 04:16:06.45	330.94	8.72	
2025-01-13 04:16:06.66	330.90	8.72	
2025-01-13 04:16:06.86	330.87	8.72	
2025-01-13 04:16:07.07	330.83	8.71	
2025-01-13 04:16:07.28	330.80	8.71	
2025-01-13 04:16:07.49	330.76	8.71	
2025-01-13 04:16:07.70	330.73	8.70	
2025-01-13 04:16:07.90	330.69	8.70	
2025-01-13 04:16:08.11	330.66	8.70	
2025-01-13 04:16:08.31	330.62	8.69	
2025-01-13 04:16:08.52	330.59	8.69	
2025-01-13 04:16:08.72	330.56	8.69	
2025-01-13 04:16:08.93	330.52	8.68	
2025-01-13 04:16:09.13	330.49	8.68	
2025-01-13 04:16:09.34	330.45	8.68	
2025-01-13 04:16:09.54	330.42	8.67	
2025-01-13 04:16:09.75	330.38	8.67	
2025-01-13 04:16:09.96	330.35	8.67	
2025-01-13 04:16:10.16	330.32	8.66	
2025-01-13 04:16:10.37	330.28	8.66	
2025-01-13 04:16:10.57	330.25	8.65	
2025-01-13 04:16:10.78	330.21	8.65	
2025-01-13 04:16:10.98	330.18	8.65	
2025-01-13 04:16:11.19	330.14	8.64	
2025-01-13 04:16:11.39	330.11	8.64	
2025-01-13 04:16:11.60	330.07	8.64	
2025-01-13 04:16:11.80	330.04	8.63	
2025-01-13 04:16:12.01	330.01	8.63	
2025-01-13 04:16:12.21	329.97	8.63	
2025-01-13 04:16:12.42	329.94	8.62	
2025-01-13 04:16:12.63	329.90	8.62	
2025-01-13 04:16:12.83	329.87	8.62	
2025-01-13 04:16:13.04	329.83	8.61	
2025-01-13 04:16:13.24	329.80	8.61	
2025-01-13 04:16:13.45	329.77	8.60	
2025-01-13 04:16:13.65	329.73	8.60	
2025-01-13 04:16:13.85	329.70	8.60	
2025-01-13 04:16:14.06	329.66	8.59	
2025-01-13 04:16:14.27	329.63	8.59	
2025-01-13 04:16:14.47	329.60	8.59	
2025-01-13 04:16:14.68	329.56	8.58	
2025-01-13 04:16:14.88	329.53	8.58	
2025-01-13 04:16:15.09	329.49	8.58	
2025-01-13 04:16:15.29	329.46	8.57	
2025-01-13 04:16:15.50	329.43	8.57	
2025-01-13 04:16:15.70	329.39	8.56	
2025-01-13 04:16:15.91	329.36	8.56	
2025-01-13 04:16:16.12	329.32	8.56	
2025-01-13 04:16:16.32	329.29	8.55	
2025-01-13 04:16:16.53	329.25	8.55	
2025-01-13 04:16:16.73	329.22	8.55	
2025-01-13 04:16:16.93	329.19	8.54	
2025-01-13 04:16:17.14	329.15	8.54	
2025-01-13 04:16:17.35	329.12	8.53	
2025-01-13 04:16:17.55	329.09	8.53	
2025-01-13 04:16:17.76	329.05	8.53	
2025-01-13 04:16:17.97	329.02	8.52	
2025-01-13 04:16:18.17	328.98	8.52	
2025-01-13 04:16:18.38	328.95	8.51	
2025-01-13 04:16:18.58	328.92	8.51	
2025-01-13 04:16:18.79	328.88	8.51	
2025-01-13 04:16:18.99	328.85	8.50	
2025-01-13 04:16:19.20	328.81	8.50	
2025-01-13 04:16:19.40	328.78	8.49	
2025-01-13 04:16:19.61	328.75	8.49	
2025-01-13 04:16:19.81	328.71	8.49	
2025-01-13 04:16:20.02	328.68	8.48	
2025-01-13 04:16:20.22	328.64	8.48	
2025-01-13 04:16:20.43	328.61	8.48	
2025-01-13 04:16:20.63	328.58	8.47	
2025-01-13 04:16:20.84	328.54	8.47	
2025-01-13 04:16:21.04	328.51	8.46	
2025-01-13 04:16:21.26	328.47	8.46	
2025-01-13 04:16:21.47	328.44	8.45	
2025-01-13 04:16:21.67	328.41	8.45	
2025-01-13 04:16:21.88	328.37	8.45	
2025-01-13 04:16:22.08	328.34	8.44	
2025-01-13 04:16:22.29	328.30	8.44	
2025-01-13 04:16:22.49	328.27	8.43	
2025-01-13 04:16:22.70	328.24	8.43	
2025-01-13 04:16:22.90	328.20	8.43	
2025-01-13 04:16:23.11	328.17	8.42	
2025-01-13 04:16:23.32	328.13	8.42	
2025-01-13 04:16:23.52	328.10	8.41	
2025-01-13 04:16:23.73	328.07	8.41	
2025-01-13 04:16:23.93	328.03	8.41	
2025-01-13 04:16:24.14	328.00	8.40	
2025-01-13 04:16:24.34	327.97	8.40	
2025-01-13 04:16:24.56	327.93	8.39	
2025-01-13 04:16:24.77	327.90	8.39	
2025-01-13 04:16:24.97	327.86	8.39	
2025-01-13 04:16:25.18	327.83	8.38	
2025-01-13 04:16:25.38	327.80	8.38	
2025-01-13 04:16:25.59	327.76	8.37	
2025-01-13 04:16:25.79	327.73	8.37	
2025-01-13 04:16:26.00	327.69	8.36	
2025-01-13 04:16:26.21	327.66	8.36	
2025-01-13 04:16:26.41	327.63	8.36	
2025-01-13 04:16:26.61	327.59	8.35	
2025-01-13 04:16:26.82	327.56	8.35	
2025-01-13 04:16:27.02	327.53	8.34	
2025-01-13 04:16:27.23	327.49	8.34	
2025-01-13 04:16:27.43	327.46	8.34	
2025-01-13 04:16:27.63	327.43	8.33	
2025-01-13 04:16:27.83	327.40	8.33	
2025-01-13 04:16:28.04	327.36	8.32	
2025-01-13 04:16:28.24	327.33	8.32	
2025-01-13 04:16:28.45	327.29	8.31	
2025-01-13 04:16:28.65	327.26	8.31	
2025-01-13 04:16:28.86	327.23	8.31	
2025-01-13 04:16:29.06	327.20	8.30	
2025-01-13 04:16:29.27	327.16	8.30	
2025-01-13 04:16:29.48	327.13	8.29	
2025-01-13 04:16:29.68	327.09	8.29	
2025-01-13 04:16:29.89	327.06	8.28	
2025-01-13 04:16:30.09	327.03	8.28	
2025-01-13 04:16:30.30	326.99	8.27	
2025-01-13 04:16:30.50	326.96	8.27	
2025-01-13 04:16:30.71	326.93	8.27	
2025-01-13 04:16:30.93	326.89	8.26	
2025-01-13 04:16:31.13	326.86	8.26	
2025-01-13 04:16:31.34	326.82	8.25	
2025-01-13 04:16:31.54	326.79	8.25	
2025-01-13 04:16:31.75	326.76	8.24	
2025-01-13 04:16:31.95	326.73	8.24	
2025-01-13 04:16:32.16	326.69	8.23	
2025-01-13 04:16:32.36	326.66	8.23	
2025-01-13 04:16:32.57	326.62	8.23	
2025-01-13 04:16:32.77	326.59	8.22	
2025-01-13 04:16:32.98	326.56	8.22	
2025-01-13 04:16:33.18	326.53	8.21	
2025-01-13 04:16:33.39	326.49	8.21	
2025-01-13 04:16:33.60	326.46	8.20	
2025-01-13 04:16:33.80	326.43	8.20	
2025-01-13 04:16:34.01	326.39	8.19	
2025-01-13 04:16:34.21	326.36	8.19	
2025-01-13 04:16:34.42	326.33	8.19	
2025-01-13 04:16:34.62	326.29	8.18	
2025-01-13 04:16:34.83	326.26	8.18	
2025-01-13 04:16:35.03	326.23	8.17	
2025-01-13 04:16:35.24	326.19	8.17	
2025-01-13 04:16:35.44	326.16	8.16	
2025-01-13 04:16:35.65	326.13	8.16	
2025-01-13 04:16:35.85	326.09	8.15	
2025-01-13 04:16:36.06	326.06	8.15	
2025-01-13 04:16:36.26	326.03	8.14	
2025-01-13 04:16:36.47	325.99	8.14	
2025-01-13 04:16:36.67	325.96	8.14	
2025-01-13 04:16:36.88	325.93	8.13	
2025-01-13 04:16:37.09	325.89	8.13	
2025-01-13 04:16:37.29	325.86	8.12	
2025-01-13 04:16:37.49	325.83	8.12	
2025-01-13 04:16:37.70	325.80	8.11	
2025-01-13 04:16:37.90	325.76	8.11	
2025-01-13 04:16:38.11	325.73	8.10	
2025-01-13 04:16:38.31	325.70	8.10	
2025-01-13 04:16:38.52	325.66	8.09	
2025-01-13 04:16:38.72	325.63	8.09	
2025-01-13 04:16:38.93	325.60	8.08	
2025-01-13 04:16:39.14	325.56	8.08	
2025-01-13 04:16:39.34	325.53	8.07	
2025-01-13 04:16:39.55	325.50	8.07	
2025-01-13 04:16:39.75	325.47	8.06	
2025-01-13 04:16:39.96	325.43	8.06	
2025-01-13 04:16:40.16	325.40	8.06	
2025-01-13 04:16:40.37	325.37	8.05	
2025-01-13 04:16:40.57	325.34	8.05	
2025-01-13 04:16:40.78	325.30	8.04	
2025-01-13 04:16:40.99	325.27	8.04	
2025-01-13 04:16:41.19	325.24	8.03	
2025-01-13 04:16:41.39	325.20	8.03	
2025-01-13 04:16:41.60	325.17	8.02	
2025-01-13 04:16:41.81	325.14	8.02	
2025-01-13 04:16:42.01	325.11	8.01	
2025-01-13 04:16:42.21	325.07	8.01	
2025-01-13 04:16:42.42	325.04	8.00	
2025-01-13 04:16:42.62	325.01	8.00	
2025-01-13 04:16:42.83	324.97	7.99	
2025-01-13 04:16:43.03	324.94	7.99	
2025-01-13 04:16:43.24	324.91	7.98	
2025-01-13 04:16:43.45	324.88	7.98	
2025-01-13 04:16:43.65	324.84	7.97	
2025-01-13 04:16:43.85	324.81	7.97	
2025-01-13 04:16:44.06	324.78	7.96	
2025-01-13 04:16:44.26	324.75	7.96	
2025-01-13 04:16:44.47	324.71	7.95	
2025-01-13 04:16:44.69	324.68	7.95	
2025-01-13 04:16:44.89	324.65	7.94	
2025-01-13 04:16:45.10	324.61	7.94	
2025-01-13 04:16:45.31	324.58	7.93	
2025-01-13 04:16:45.51	324.55	7.93	
2025-01-13 04:16:45.71	324.52	7.92	
2025-01-13 04:16:45.92	324.48	7.92	
2025-01-13 04:16:46.12	324.45	7.91	
2025-01-13 04:16:46.33	324.42	7.91	
2025-01-13 04:16:46.54	324.38	7.90	
2025-01-13 04:16:46.74	324.35	7.90	
2025-01-13 04:16:46.95	324.32	7.89	
2025-01-13 04:16:47.15	324.29	7.89	
2025-01-13 04:16:47.36	324.25	7.88	
2025-01-13 04:16:47.57	324.22	7.88	
2025-01-13 04:16:47.77	324.19	7.87	
2025-01-13 04:16:47.97	324.16	7.87	
2025-01-13 04:16:48.18	324.13	7.86	
2025-01-13 04:16:48.39	324.09	7.86	
2025-01-13 04:16:48.59	324.06	7.85	
2025-01-13 04:16:48.80	324.03	7.85	
2025-01-13 04:16:49.00	324.00	7.84	
2025-01-13 04:16:49.21	323.96	7.84	
2025-01-13 04:16:49.42	323.93	7.83	
2025-01-13 04:16:49.62	323.90	7.83	
2025-01-13 04:16:49.83	323.86	7.82	
2025-01-13 04:16:50.03	323.83	7.82	
2025-01-13 04:16:50.24	323.80	7.81	
2025-01-13 04:16:50.44	323.77	7.81	
2025-01-13 04:16:50.65	323.74	7.80	
2025-01-13 04:16:50.85	323.70	7.80	
2025-01-13 04:16:51.06	323.67	7.79	
2025-01-13 04:16:51.26	323.64	7.79	
2025-01-13 04:16:51.47	323.61	7.78	
2025-01-13 04:16:51.67	323.58	7.78	
2025-01-13 04:16:51.88	323.54	7.77	
2025-01-13 04:16:52.09	323.51	7.76	
2025-01-13 04:16:52.29	323.48	7.76	
2025-01-13 04:16:52.49	323.45	7.75	
2025-01-13 04:16:52.70	323.41	7.75	
2025-01-13 04:16:52.90	323.38	7.74	
2025-01-13 04:16:53.11	323.35	7.74	
2025-01-13 04:16:53.32	323.32	7.73	
2025-01-13 04:16:53.53	323.28	7.73	
2025-01-13 04:16:53.73	323.25	7.72	
2025-01-13 04:16:53.94	323.22	7.72	
2025-01-13 04:16:54.14	323.19	7.71	
2025-01-13 04:16:54.35	323.16	7.71	
2025-01-13 04:16:54.55	323.12	7.70	
2025-01-13 04:16:54.76	323.09	7.70	
2025-01-13 04:16:54.97	323.06	7.69	
2025-01-13 04:16:55.17	323.03	7.69	
2025-01-13 04:16:55.37	323.00	7.68	
2025-01-13 04:16:55.58	322.96	7.68	
2025-01-13 04:16:55.79	322.93	7.67	
2025-01-13 04:16:55.99	322.90	7.66	
2025-01-13 04:16:56.20	322.87	7.66	
2025-01-13 04:16:56.40	322.84	7.65	
2025-01-13 04:16:56.61	322.80	7.65	
2025-01-13 04:16:56.81	322.77	7.64	
2025-01-13 04:16:57.02	322.74	7.64	
2025-01-13 04:16:57.22	322.71	7.63	
2025-01-13 04:16:57.43	322.67	7.63	
2025-01-13 04:16:57.64	322.64	7.62	
2025-01-13 04:16:57.84	322.61	7.62	
2025-01-13 04:16:58.05	322.58	7.61	
2025-01-13 04:16:58.25	322.55	7.61	
2025-01-13 04:16:58.46	322.51	7.60	
2025-01-13 04:16:58.68	322.48	7.59	
2025-01-13 04:16:58.88	322.45	7.59	
2025-01-13 04:16:59.09	322.42	7.58	
2025-01-13 04:16:59.29	322.39	7.58	
2025-01-13 04:16:59.50	322.35	7.57	
2025-01-13 04:16:59.71	322.32	7.57	
2025-01-13 04:16:59.91	322.29	7.56	
