passes_logs/2025/01/13/SPB_Silybum_02/SPB_Silybum_02__20250113_081804_TERRA_rec.log

#Pass ID: 20250113_081804_TERRA
#Satellite: TERRA
#Configuration: TERRA
#Start time: 2025-01-13 08:18:04

#Version: 2.0.20230423
#Station: SPB_Silybum_02
#Location: 30.233357 lon 59.946436 lat
#TLE: 1 25994U 99068A   25012.80475962  .00000761  00000+0  16654-3 0  9990
#TLE: 2 25994  98.0220  75.9049 0003508  77.1547  57.1006 14.60390868333758

#Time	Az	El	Level	Level2	SNR	BER	Gain	Gain2
2025-01-13 08:18:06.86	17.01	4.19	
2025-01-13 08:18:07.07	17.01	4.21	
2025-01-13 08:18:07.28	17.01	4.22	
2025-01-13 08:18:07.48	17.01	4.24	
2025-01-13 08:18:07.69	17.02	4.25	
2025-01-13 08:18:07.89	17.02	4.27	
2025-01-13 08:18:08.09	17.02	4.28	
2025-01-13 08:18:08.30	17.02	4.30	
2025-01-13 08:18:08.51	17.02	4.31	
2025-01-13 08:18:08.71	17.02	4.33	
2025-01-13 08:18:08.92	17.03	4.34	
2025-01-13 08:18:09.12	17.03	4.36	
2025-01-13 08:18:09.33	17.03	4.37	
2025-01-13 08:18:09.53	17.03	4.39	
2025-01-13 08:18:09.74	17.03	4.40	
2025-01-13 08:18:09.94	17.03	4.42	
2025-01-13 08:18:10.15	17.04	4.43	
2025-01-13 08:18:10.35	17.04	4.45	
2025-01-13 08:18:10.56	17.04	4.46	
2025-01-13 08:18:10.77	17.04	4.48	
2025-01-13 08:18:10.97	17.04	4.49	
2025-01-13 08:18:11.17	17.05	4.51	
2025-01-13 08:18:11.38	17.05	4.52	
2025-01-13 08:18:11.58	17.05	4.54	
2025-01-13 08:18:11.79	17.05	4.55	
2025-01-13 08:18:12.00	17.05	4.57	
2025-01-13 08:18:12.20	17.05	4.58	
2025-01-13 08:18:12.41	17.06	4.60	
2025-01-13 08:18:12.61	17.06	4.61	
2025-01-13 08:18:12.82	17.06	4.63	
2025-01-13 08:18:13.02	17.06	4.64	
2025-01-13 08:18:13.23	17.06	4.66	
2025-01-13 08:18:13.43	17.06	4.67	
2025-01-13 08:18:13.64	17.07	4.69	
2025-01-13 08:18:13.84	17.07	4.70	
2025-01-13 08:18:14.05	17.07	4.72	
2025-01-13 08:18:14.25	17.07	4.73	
2025-01-13 08:18:14.46	17.07	4.75	
2025-01-13 08:18:14.66	17.07	4.76	
2025-01-13 08:18:14.87	17.08	4.78	
2025-01-13 08:18:15.07	17.08	4.79	
2025-01-13 08:18:15.28	17.08	4.81	
2025-01-13 08:18:15.48	17.08	4.82	
2025-01-13 08:18:15.69	17.08	4.84	
2025-01-13 08:18:15.89	17.09	4.85	
2025-01-13 08:18:16.10	17.09	4.87	
2025-01-13 08:18:16.31	17.09	4.88	
2025-01-13 08:18:16.52	17.09	4.90	
2025-01-13 08:18:16.73	17.09	4.91	
2025-01-13 08:18:16.93	17.09	4.93	
2025-01-13 08:18:17.14	17.10	4.94	
2025-01-13 08:18:17.34	17.10	4.96	
2025-01-13 08:18:17.56	17.10	4.98	
2025-01-13 08:18:17.77	17.10	4.99	
2025-01-13 08:18:17.97	17.10	5.01	
2025-01-13 08:18:18.18	17.10	5.02	
2025-01-13 08:18:18.39	17.11	5.04	
2025-01-13 08:18:18.59	17.11	5.05	
2025-01-13 08:18:18.79	17.11	5.07	
2025-01-13 08:18:19.00	17.11	5.08	
2025-01-13 08:18:19.21	17.11	5.10	
2025-01-13 08:18:19.41	17.12	5.11	
2025-01-13 08:18:19.61	17.12	5.13	
2025-01-13 08:18:19.82	17.12	5.14	
2025-01-13 08:18:20.02	17.12	5.16	
2025-01-13 08:18:20.23	17.12	5.18	
2025-01-13 08:18:20.43	17.12	5.19	
2025-01-13 08:18:20.64	17.13	5.21	
2025-01-13 08:18:20.85	17.13	5.22	
2025-01-13 08:18:21.05	17.13	5.24	
2025-01-13 08:18:21.26	17.13	5.25	
2025-01-13 08:18:21.46	17.13	5.27	
2025-01-13 08:18:21.67	17.13	5.28	
2025-01-13 08:18:21.88	17.14	5.30	
2025-01-13 08:18:22.09	17.14	5.32	
2025-01-13 08:18:22.30	17.14	5.33	
2025-01-13 08:18:22.50	17.14	5.35	
2025-01-13 08:18:22.71	17.14	5.36	
2025-01-13 08:18:22.91	17.15	5.38	
2025-01-13 08:18:23.12	17.15	5.39	
2025-01-13 08:18:23.32	17.15	5.41	
2025-01-13 08:18:23.53	17.15	5.42	
2025-01-13 08:18:23.74	17.15	5.44	
2025-01-13 08:18:23.94	17.15	5.45	
2025-01-13 08:18:24.15	17.16	5.47	
2025-01-13 08:18:24.35	17.16	5.49	
2025-01-13 08:18:24.56	17.16	5.50	
2025-01-13 08:18:24.76	17.16	5.52	
2025-01-13 08:18:24.97	17.16	5.53	
2025-01-13 08:18:25.17	17.17	5.55	
2025-01-13 08:18:25.38	17.17	5.56	
2025-01-13 08:18:25.58	17.17	5.58	
2025-01-13 08:18:25.79	17.17	5.60	
2025-01-13 08:18:25.99	17.17	5.61	
2025-01-13 08:18:26.21	17.17	5.63	
2025-01-13 08:18:26.42	17.18	5.64	
2025-01-13 08:18:26.62	17.18	5.66	
2025-01-13 08:18:26.83	17.18	5.67	
2025-01-13 08:18:27.03	17.18	5.69	
2025-01-13 08:18:27.24	17.18	5.71	
2025-01-13 08:18:27.44	17.19	5.72	
2025-01-13 08:18:27.65	17.19	5.74	
2025-01-13 08:18:27.85	17.19	5.75	
2025-01-13 08:18:28.06	17.19	5.77	
2025-01-13 08:18:28.26	17.19	5.78	
2025-01-13 08:18:28.47	17.19	5.80	
2025-01-13 08:18:28.67	17.20	5.82	
2025-01-13 08:18:28.88	17.20	5.83	
2025-01-13 08:18:29.08	17.20	5.85	
2025-01-13 08:18:29.28	17.20	5.86	
2025-01-13 08:18:29.49	17.20	5.88	
2025-01-13 08:18:29.70	17.21	5.90	
2025-01-13 08:18:29.90	17.21	5.91	
2025-01-13 08:18:30.11	17.21	5.93	
2025-01-13 08:18:30.31	17.21	5.94	
2025-01-13 08:18:30.52	17.21	5.96	
2025-01-13 08:18:30.72	17.21	5.97	
2025-01-13 08:18:30.93	17.22	5.99	
2025-01-13 08:18:31.13	17.22	6.01	
2025-01-13 08:18:31.34	17.22	6.02	
2025-01-13 08:18:31.54	17.22	6.04	
2025-01-13 08:18:31.75	17.22	6.05	
2025-01-13 08:18:31.95	17.23	6.07	
2025-01-13 08:18:32.16	17.23	6.09	
2025-01-13 08:18:32.36	17.23	6.10	
2025-01-13 08:18:32.58	17.23	6.12	
2025-01-13 08:18:32.79	17.23	6.14	
2025-01-13 08:18:32.99	17.23	6.15	
2025-01-13 08:18:33.20	17.24	6.17	
2025-01-13 08:18:33.40	17.24	6.18	
2025-01-13 08:18:33.61	17.24	6.20	
2025-01-13 08:18:33.81	17.24	6.22	
2025-01-13 08:18:34.02	17.24	6.23	
2025-01-13 08:18:34.22	17.25	6.25	
2025-01-13 08:18:34.43	17.25	6.26	
2025-01-13 08:18:34.63	17.25	6.28	
2025-01-13 08:18:34.84	17.25	6.30	
2025-01-13 08:18:35.04	17.25	6.31	
2025-01-13 08:18:35.25	17.26	6.33	
2025-01-13 08:18:35.45	17.26	6.34	
2025-01-13 08:18:35.66	17.26	6.36	
2025-01-13 08:18:35.86	17.26	6.38	
2025-01-13 08:18:36.07	17.26	6.39	
2025-01-13 08:18:36.27	17.26	6.41	
2025-01-13 08:18:36.48	17.27	6.43	
2025-01-13 08:18:36.68	17.27	6.44	
2025-01-13 08:18:36.89	17.27	6.46	
2025-01-13 08:18:37.09	17.27	6.47	
2025-01-13 08:18:37.30	17.27	6.49	
2025-01-13 08:18:37.51	17.28	6.51	
2025-01-13 08:18:37.71	17.28	6.52	
2025-01-13 08:18:37.93	17.28	6.54	
2025-01-13 08:18:38.13	17.28	6.56	
2025-01-13 08:18:38.34	17.28	6.57	
2025-01-13 08:18:38.55	17.29	6.59	
2025-01-13 08:18:38.75	17.29	6.61	
2025-01-13 08:18:38.96	17.29	6.62	
2025-01-13 08:18:39.16	17.29	6.64	
2025-01-13 08:18:39.37	17.29	6.65	
2025-01-13 08:18:39.57	17.29	6.67	
2025-01-13 08:18:39.78	17.30	6.69	
2025-01-13 08:18:39.98	17.30	6.70	
2025-01-13 08:18:40.19	17.30	6.72	
2025-01-13 08:18:40.39	17.30	6.74	
2025-01-13 08:18:40.60	17.30	6.75	
2025-01-13 08:18:40.80	17.31	6.77	
2025-01-13 08:18:41.01	17.31	6.79	
2025-01-13 08:18:41.21	17.31	6.80	
2025-01-13 08:18:41.42	17.31	6.82	
2025-01-13 08:18:41.62	17.31	6.83	
2025-01-13 08:18:41.83	17.32	6.85	
2025-01-13 08:18:42.03	17.32	6.87	
2025-01-13 08:18:42.24	17.32	6.88	
2025-01-13 08:18:42.44	17.32	6.90	
2025-01-13 08:18:42.65	17.32	6.92	
2025-01-13 08:18:42.85	17.32	6.93	
2025-01-13 08:18:43.06	17.33	6.95	
2025-01-13 08:18:43.26	17.33	6.97	
2025-01-13 08:18:43.47	17.33	6.98	
2025-01-13 08:18:43.67	17.33	7.00	
2025-01-13 08:18:43.88	17.33	7.02	
2025-01-13 08:18:44.08	17.34	7.03	
2025-01-13 08:18:44.29	17.34	7.05	
2025-01-13 08:18:44.49	17.34	7.07	
2025-01-13 08:18:44.70	17.34	7.08	
2025-01-13 08:18:44.90	17.34	7.10	
2025-01-13 08:18:45.11	17.35	7.12	
2025-01-13 08:18:45.31	17.35	7.13	
2025-01-13 08:18:45.52	17.35	7.15	
2025-01-13 08:18:45.73	17.35	7.17	
2025-01-13 08:18:45.93	17.35	7.18	
2025-01-13 08:18:46.14	17.36	7.20	
2025-01-13 08:18:46.36	17.36	7.22	
2025-01-13 08:18:46.56	17.36	7.24	
2025-01-13 08:18:46.77	17.36	7.25	
2025-01-13 08:18:46.99	17.36	7.27	
2025-01-13 08:18:47.19	17.36	7.29	
2025-01-13 08:18:47.39	17.37	7.30	
2025-01-13 08:18:47.60	17.37	7.32	
2025-01-13 08:18:47.81	17.37	7.34	
2025-01-13 08:18:48.01	17.37	7.35	
2025-01-13 08:18:48.22	17.37	7.37	
2025-01-13 08:18:48.42	17.38	7.39	
2025-01-13 08:18:48.63	17.38	7.41	
2025-01-13 08:18:48.83	17.38	7.42	
2025-01-13 08:18:49.04	17.38	7.44	
2025-01-13 08:18:49.25	17.38	7.46	
2025-01-13 08:18:49.45	17.39	7.47	
2025-01-13 08:18:49.66	17.39	7.49	
2025-01-13 08:18:49.86	17.39	7.51	
2025-01-13 08:18:50.07	17.39	7.52	
2025-01-13 08:18:50.27	17.39	7.54	
2025-01-13 08:18:50.48	17.40	7.56	
2025-01-13 08:18:50.68	17.40	7.57	
2025-01-13 08:18:50.89	17.40	7.59	
2025-01-13 08:18:51.09	17.40	7.61	
2025-01-13 08:18:51.30	17.40	7.63	
2025-01-13 08:18:51.50	17.41	7.64	
2025-01-13 08:18:51.70	17.41	7.66	
2025-01-13 08:18:51.91	17.41	7.68	
2025-01-13 08:18:52.12	17.41	7.69	
2025-01-13 08:18:52.32	17.41	7.71	
2025-01-13 08:18:52.53	17.42	7.73	
2025-01-13 08:18:52.73	17.42	7.75	
2025-01-13 08:18:52.93	17.42	7.76	
2025-01-13 08:18:53.14	17.42	7.78	
2025-01-13 08:18:53.34	17.42	7.80	
2025-01-13 08:18:53.55	17.43	7.81	
2025-01-13 08:18:53.75	17.43	7.83	
2025-01-13 08:18:53.96	17.43	7.85	
2025-01-13 08:18:54.16	17.43	7.87	
2025-01-13 08:18:54.37	17.43	7.88	
2025-01-13 08:18:54.58	17.44	7.90	
2025-01-13 08:18:54.78	17.44	7.92	
2025-01-13 08:18:54.99	17.44	7.94	
2025-01-13 08:18:55.19	17.44	7.95	
2025-01-13 08:18:55.40	17.44	7.97	
2025-01-13 08:18:55.60	17.44	7.99	
2025-01-13 08:18:55.81	17.45	8.00	
2025-01-13 08:18:56.01	17.45	8.02	
2025-01-13 08:18:56.22	17.45	8.04	
2025-01-13 08:18:56.43	17.45	8.06	
2025-01-13 08:18:56.63	17.45	8.07	
2025-01-13 08:18:56.84	17.46	8.09	
2025-01-13 08:18:57.04	17.46	8.11	
2025-01-13 08:18:57.25	17.46	8.13	
2025-01-13 08:18:57.45	17.46	8.14	
2025-01-13 08:18:57.66	17.46	8.16	
2025-01-13 08:18:57.86	17.47	8.18	
2025-01-13 08:18:58.07	17.47	8.20	
2025-01-13 08:18:58.27	17.47	8.21	
2025-01-13 08:18:58.48	17.47	8.23	
2025-01-13 08:18:58.68	17.47	8.25	
2025-01-13 08:18:58.89	17.48	8.27	
2025-01-13 08:18:59.10	17.48	8.29	
2025-01-13 08:18:59.30	17.48	8.30	
2025-01-13 08:18:59.51	17.48	8.32	
2025-01-13 08:18:59.71	17.48	8.34	
2025-01-13 08:18:59.92	17.49	8.36	
2025-01-13 08:19:00.12	17.49	8.37	
2025-01-13 08:19:00.33	17.49	8.39	
2025-01-13 08:19:00.53	17.49	8.41	
2025-01-13 08:19:00.74	17.49	8.43	
2025-01-13 08:19:00.94	17.50	8.44	
2025-01-13 08:19:01.15	17.50	8.46	
2025-01-13 08:19:01.35	17.50	8.48	
2025-01-13 08:19:01.56	17.50	8.50	
2025-01-13 08:19:01.76	17.50	8.51	
2025-01-13 08:19:01.97	17.51	8.53	
2025-01-13 08:19:02.17	17.51	8.55	
2025-01-13 08:19:02.38	17.51	8.57	
2025-01-13 08:19:02.58	17.51	8.59	
2025-01-13 08:19:02.79	17.52	8.60	
2025-01-13 08:19:02.99	17.52	8.62	
2025-01-13 08:19:03.20	17.52	8.64	
2025-01-13 08:19:03.40	17.52	8.66	
2025-01-13 08:19:03.61	17.52	8.67	
2025-01-13 08:19:03.81	17.53	8.69	
2025-01-13 08:19:04.02	17.53	8.71	
2025-01-13 08:19:04.23	17.53	8.73	
2025-01-13 08:19:04.43	17.53	8.75	
2025-01-13 08:19:04.63	17.53	8.76	
2025-01-13 08:19:04.84	17.54	8.78	
2025-01-13 08:19:05.04	17.54	8.80	
2025-01-13 08:19:05.25	17.54	8.82	
2025-01-13 08:19:05.45	17.54	8.84	
2025-01-13 08:19:05.66	17.54	8.85	
2025-01-13 08:19:05.86	17.55	8.87	
2025-01-13 08:19:06.07	17.55	8.89	
2025-01-13 08:19:06.27	17.55	8.91	
2025-01-13 08:19:06.48	17.55	8.93	
2025-01-13 08:19:06.70	17.55	8.95	
2025-01-13 08:19:06.90	17.56	8.96	
2025-01-13 08:19:07.11	17.56	8.98	
2025-01-13 08:19:07.31	17.56	9.00	
2025-01-13 08:19:07.52	17.56	9.02	
2025-01-13 08:19:07.72	17.56	9.04	
2025-01-13 08:19:07.92	17.57	9.05	
2025-01-13 08:19:08.13	17.57	9.07	
2025-01-13 08:19:08.34	17.57	9.09	
2025-01-13 08:19:08.55	17.57	9.11	
2025-01-13 08:19:08.76	17.57	9.13	
2025-01-13 08:19:08.96	17.58	9.15	
2025-01-13 08:19:09.17	17.58	9.16	
2025-01-13 08:19:09.37	17.58	9.18	
2025-01-13 08:19:09.58	17.58	9.20	
2025-01-13 08:19:09.79	17.59	9.22	
2025-01-13 08:19:09.99	17.59	9.24	
2025-01-13 08:19:10.19	17.59	9.26	
2025-01-13 08:19:10.40	17.59	9.27	
2025-01-13 08:19:10.60	17.59	9.29	
2025-01-13 08:19:10.81	17.60	9.31	
2025-01-13 08:19:11.01	17.60	9.33	
2025-01-13 08:19:11.22	17.60	9.35	
2025-01-13 08:19:11.42	17.60	9.37	
2025-01-13 08:19:11.63	17.60	9.38	
2025-01-13 08:19:11.83	17.61	9.40	
2025-01-13 08:19:12.04	17.61	9.42	
2025-01-13 08:19:12.24	17.61	9.44	
2025-01-13 08:19:12.45	17.61	9.46	
2025-01-13 08:19:12.66	17.61	9.48	
2025-01-13 08:19:12.86	17.62	9.50	
2025-01-13 08:19:13.06	17.62	9.51	
2025-01-13 08:19:13.27	17.62	9.53	
2025-01-13 08:19:13.47	17.62	9.55	
2025-01-13 08:19:13.68	17.63	9.57	
2025-01-13 08:19:13.89	17.63	9.59	
2025-01-13 08:19:14.09	17.63	9.61	
2025-01-13 08:19:14.31	17.63	9.63	
2025-01-13 08:19:14.51	17.63	9.65	
2025-01-13 08:19:14.72	17.64	9.66	
2025-01-13 08:19:14.93	17.64	9.68	
2025-01-13 08:19:15.13	17.64	9.70	
2025-01-13 08:19:15.33	17.64	9.72	
2025-01-13 08:19:15.54	17.64	9.74	
2025-01-13 08:19:15.74	17.65	9.76	
2025-01-13 08:19:15.95	17.65	9.78	
2025-01-13 08:19:16.16	17.65	9.80	
2025-01-13 08:19:16.36	17.65	9.81	
2025-01-13 08:19:16.57	17.66	9.83	
2025-01-13 08:19:16.77	17.66	9.85	
2025-01-13 08:19:16.98	17.66	9.87	
2025-01-13 08:19:17.19	17.66	9.89	
2025-01-13 08:19:17.40	17.66	9.91	
2025-01-13 08:19:17.61	17.67	9.93	
2025-01-13 08:19:17.81	17.67	9.95	
2025-01-13 08:19:18.02	17.67	9.97	
2025-01-13 08:19:18.23	17.67	9.99	
2025-01-13 08:19:18.43	17.67	10.01	
2025-01-13 08:19:18.64	17.68	10.02	
2025-01-13 08:19:18.84	17.68	10.04	
2025-01-13 08:19:19.05	17.68	10.06	
2025-01-13 08:19:19.26	17.68	10.08	
2025-01-13 08:19:19.46	17.69	10.10	
2025-01-13 08:19:19.66	17.69	10.12	
2025-01-13 08:19:19.87	17.69	10.14	
2025-01-13 08:19:20.08	17.69	10.16	
2025-01-13 08:19:20.28	17.69	10.18	
2025-01-13 08:19:20.49	17.70	10.20	
2025-01-13 08:19:20.69	17.70	10.22	
2025-01-13 08:19:20.89	17.70	10.23	
2025-01-13 08:19:21.10	17.70	10.25	
2025-01-13 08:19:21.31	17.70	10.27	
2025-01-13 08:19:21.51	17.71	10.29	
2025-01-13 08:19:21.73	17.71	10.31	
2025-01-13 08:19:21.93	17.71	10.33	
2025-01-13 08:19:22.14	17.71	10.35	
2025-01-13 08:19:22.34	17.72	10.37	
2025-01-13 08:19:22.55	17.72	10.39	
2025-01-13 08:19:22.75	17.72	10.41	
2025-01-13 08:19:22.96	17.72	10.43	
2025-01-13 08:19:23.16	17.72	10.45	
2025-01-13 08:19:23.37	17.73	10.47	
2025-01-13 08:19:23.57	17.73	10.49	
2025-01-13 08:19:23.78	17.73	10.51	
2025-01-13 08:19:23.98	17.73	10.52	
2025-01-13 08:19:24.19	17.74	10.54	
2025-01-13 08:19:24.39	17.74	10.56	
2025-01-13 08:19:24.60	17.74	10.58	
2025-01-13 08:19:24.80	17.74	10.60	
2025-01-13 08:19:25.01	17.74	10.62	
2025-01-13 08:19:25.21	17.75	10.64	
2025-01-13 08:19:25.42	17.75	10.66	
2025-01-13 08:19:25.62	17.75	10.68	
2025-01-13 08:19:25.83	17.75	10.70	
2025-01-13 08:19:26.03	17.76	10.72	
2025-01-13 08:19:26.24	17.76	10.74	
2025-01-13 08:19:26.44	17.76	10.76	
2025-01-13 08:19:26.65	17.76	10.78	
2025-01-13 08:19:26.86	17.76	10.80	
2025-01-13 08:19:27.06	17.77	10.82	
2025-01-13 08:19:27.27	17.77	10.84	
2025-01-13 08:19:27.47	17.77	10.86	
2025-01-13 08:19:27.68	17.77	10.88	
2025-01-13 08:19:27.89	17.78	10.90	
2025-01-13 08:19:28.09	17.78	10.92	
2025-01-13 08:19:28.30	17.78	10.94	
2025-01-13 08:19:28.50	17.78	10.96	
2025-01-13 08:19:28.71	17.78	10.98	
2025-01-13 08:19:28.91	17.79	11.00	
2025-01-13 08:19:29.12	17.79	11.02	
2025-01-13 08:19:29.32	17.79	11.04	
2025-01-13 08:19:29.53	17.79	11.06	
2025-01-13 08:19:29.74	17.80	11.08	
2025-01-13 08:19:29.94	17.80	11.10	
2025-01-13 08:19:30.14	17.80	11.12	
2025-01-13 08:19:30.35	17.80	11.14	
2025-01-13 08:19:30.55	17.81	11.16	
2025-01-13 08:19:30.76	17.81	11.18	
2025-01-13 08:19:30.96	17.81	11.20	
2025-01-13 08:19:31.17	17.81	11.22	
2025-01-13 08:19:31.37	17.81	11.24	
2025-01-13 08:19:31.58	17.82	11.26	
2025-01-13 08:19:31.78	17.82	11.28	
2025-01-13 08:19:31.99	17.82	11.30	
2025-01-13 08:19:32.20	17.82	11.32	
2025-01-13 08:19:32.41	17.83	11.34	
2025-01-13 08:19:32.62	17.83	11.36	
2025-01-13 08:19:32.83	17.83	11.38	
2025-01-13 08:19:33.03	17.83	11.40	
2025-01-13 08:19:33.24	17.84	11.42	
2025-01-13 08:19:33.44	17.84	11.44	
2025-01-13 08:19:33.64	17.84	11.46	
2025-01-13 08:19:33.85	17.84	11.48	
2025-01-13 08:19:34.06	17.84	11.50	
2025-01-13 08:19:34.26	17.85	11.52	
2025-01-13 08:19:34.46	17.85	11.54	
2025-01-13 08:19:34.67	17.85	11.56	
2025-01-13 08:19:34.88	17.85	11.58	
2025-01-13 08:19:35.08	17.86	11.60	
2025-01-13 08:19:35.29	17.86	11.62	
2025-01-13 08:19:35.49	17.86	11.64	
2025-01-13 08:19:35.70	17.86	11.66	
2025-01-13 08:19:35.90	17.86	11.68	
2025-01-13 08:19:36.11	17.87	11.70	
2025-01-13 08:19:36.31	17.87	11.72	
2025-01-13 08:19:36.52	17.87	11.75	
2025-01-13 08:19:36.72	17.87	11.77	
2025-01-13 08:19:36.93	17.88	11.79	
2025-01-13 08:19:37.13	17.88	11.81	
2025-01-13 08:19:37.34	17.88	11.83	
2025-01-13 08:19:37.55	17.88	11.85	
2025-01-13 08:19:37.76	17.89	11.87	
2025-01-13 08:19:37.97	17.89	11.89	
2025-01-13 08:19:38.18	17.89	11.91	
2025-01-13 08:19:38.38	17.89	11.93	
2025-01-13 08:19:38.59	17.90	11.95	
2025-01-13 08:19:38.79	17.90	11.97	
2025-01-13 08:19:38.99	17.90	11.99	
2025-01-13 08:19:39.20	17.90	12.01	
2025-01-13 08:19:39.40	17.90	12.04	
2025-01-13 08:19:39.61	17.91	12.06	
2025-01-13 08:19:39.81	17.91	12.08	
2025-01-13 08:19:40.02	17.91	12.10	
2025-01-13 08:19:40.22	17.91	12.12	
2025-01-13 08:19:40.43	17.92	12.14	
2025-01-13 08:19:40.63	17.92	12.16	
2025-01-13 08:19:40.84	17.92	12.18	
2025-01-13 08:19:41.04	17.92	12.20	
2025-01-13 08:19:41.25	17.93	12.22	
2025-01-13 08:19:41.46	17.93	12.24	
2025-01-13 08:19:41.66	17.93	12.27	
2025-01-13 08:19:41.87	17.93	12.29	
2025-01-13 08:19:42.07	17.94	12.31	
2025-01-13 08:19:42.27	17.94	12.33	
2025-01-13 08:19:42.48	17.94	12.35	
2025-01-13 08:19:42.69	17.94	12.37	
2025-01-13 08:19:42.89	17.95	12.39	
2025-01-13 08:19:43.10	17.95	12.41	
2025-01-13 08:19:43.30	17.95	12.43	
2025-01-13 08:19:43.51	17.95	12.46	
2025-01-13 08:19:43.71	17.96	12.48	
2025-01-13 08:19:43.92	17.96	12.50	
2025-01-13 08:19:44.12	17.96	12.52	
2025-01-13 08:19:44.33	17.96	12.54	
2025-01-13 08:19:44.53	17.96	12.56	
2025-01-13 08:19:44.74	17.97	12.58	
2025-01-13 08:19:44.94	17.97	12.60	
2025-01-13 08:19:45.15	17.97	12.63	
2025-01-13 08:19:45.35	17.97	12.65	
2025-01-13 08:19:45.56	17.98	12.67	
2025-01-13 08:19:45.76	17.98	12.69	
2025-01-13 08:19:45.97	17.98	12.71	
2025-01-13 08:19:46.18	17.98	12.73	
2025-01-13 08:19:46.39	17.99	12.76	
2025-01-13 08:19:46.60	17.99	12.78	
2025-01-13 08:19:46.81	17.99	12.80	
2025-01-13 08:19:47.01	17.99	12.82	
2025-01-13 08:19:47.22	18.00	12.84	
2025-01-13 08:19:47.42	18.00	12.86	
2025-01-13 08:19:47.63	18.00	12.89	
2025-01-13 08:19:47.84	18.00	12.91	
2025-01-13 08:19:48.04	18.01	12.93	
2025-01-13 08:19:48.24	18.01	12.95	
2025-01-13 08:19:48.45	18.01	12.97	
2025-01-13 08:19:48.65	18.01	12.99	
2025-01-13 08:19:48.86	18.02	13.02	
2025-01-13 08:19:49.06	18.02	13.04	
2025-01-13 08:19:49.27	18.02	13.06	
2025-01-13 08:19:49.47	18.02	13.08	
2025-01-13 08:19:49.68	18.03	13.10	
2025-01-13 08:19:49.89	18.03	13.13	
2025-01-13 08:19:50.09	18.03	13.15	
2025-01-13 08:19:50.30	18.03	13.17	
2025-01-13 08:19:50.50	18.04	13.19	
2025-01-13 08:19:50.70	18.04	13.21	
2025-01-13 08:19:50.91	18.04	13.23	
2025-01-13 08:19:51.12	18.04	13.26	
2025-01-13 08:19:51.32	18.05	13.28	
2025-01-13 08:19:51.53	18.05	13.30	
2025-01-13 08:19:51.73	18.05	13.32	
2025-01-13 08:19:51.94	18.05	13.34	
2025-01-13 08:19:52.14	18.06	13.37	
2025-01-13 08:19:52.35	18.06	13.39	
2025-01-13 08:19:52.55	18.06	13.41	
2025-01-13 08:19:52.76	18.06	13.43	
2025-01-13 08:19:52.96	18.07	13.45	
2025-01-13 08:19:53.17	18.07	13.48	
2025-01-13 08:19:53.37	18.07	13.50	
2025-01-13 08:19:53.58	18.07	13.52	
2025-01-13 08:19:53.78	18.08	13.54	
2025-01-13 08:19:53.99	18.08	13.57	
2025-01-13 08:19:54.20	18.08	13.59	
2025-01-13 08:19:54.41	18.08	13.61	
2025-01-13 08:19:54.62	18.09	13.64	
2025-01-13 08:19:54.82	18.09	13.66	
2025-01-13 08:19:55.03	18.09	13.68	
2025-01-13 08:19:55.23	18.09	13.70	
2025-01-13 08:19:55.44	18.10	13.72	
2025-01-13 08:19:55.64	18.10	13.75	
2025-01-13 08:19:55.84	18.10	13.77	
2025-01-13 08:19:56.05	18.10	13.79	
2025-01-13 08:19:56.26	18.11	13.81	
2025-01-13 08:19:56.46	18.11	13.84	
2025-01-13 08:19:56.67	18.11	13.86	
2025-01-13 08:19:56.87	18.11	13.88	
2025-01-13 08:19:57.07	18.12	13.90	
2025-01-13 08:19:57.28	18.12	13.93	
2025-01-13 08:19:57.48	18.12	13.95	
2025-01-13 08:19:57.69	18.13	13.97	
2025-01-13 08:19:57.90	18.13	14.00	
2025-01-13 08:19:58.10	18.13	14.02	
2025-01-13 08:19:58.30	18.13	14.04	
2025-01-13 08:19:58.51	18.14	14.06	
2025-01-13 08:19:58.72	18.14	14.09	
2025-01-13 08:19:58.92	18.14	14.11	
2025-01-13 08:19:59.13	18.14	14.13	
2025-01-13 08:19:59.33	18.15	14.15	
2025-01-13 08:19:59.54	18.15	14.18	
2025-01-13 08:19:59.74	18.15	14.20	
2025-01-13 08:19:59.95	18.15	14.22	
2025-01-13 08:20:00.15	18.16	14.25	
2025-01-13 08:20:00.37	18.16	14.27	
2025-01-13 08:20:00.57	18.16	14.29	
2025-01-13 08:20:00.78	18.16	14.32	
2025-01-13 08:20:00.99	18.17	14.34	
2025-01-13 08:20:01.19	18.17	14.36	
2025-01-13 08:20:01.40	18.17	14.39	
2025-01-13 08:20:01.60	18.18	14.41	
2025-01-13 08:20:01.81	18.18	14.43	
2025-01-13 08:20:02.01	18.18	14.46	
2025-01-13 08:20:02.22	18.18	14.48	
2025-01-13 08:20:02.42	18.19	14.50	
2025-01-13 08:20:02.63	18.19	14.53	
2025-01-13 08:20:02.83	18.19	14.55	
2025-01-13 08:20:03.04	18.19	14.57	
2025-01-13 08:20:03.25	18.20	14.60	
2025-01-13 08:20:03.45	18.20	14.62	
2025-01-13 08:20:03.66	18.20	14.64	
2025-01-13 08:20:03.86	18.20	14.67	
2025-01-13 08:20:04.07	18.21	14.69	
2025-01-13 08:20:04.27	18.21	14.71	
2025-01-13 08:20:04.48	18.21	14.74	
2025-01-13 08:20:04.68	18.22	14.76	
2025-01-13 08:20:04.89	18.22	14.78	
2025-01-13 08:20:05.09	18.22	14.81	
2025-01-13 08:20:05.30	18.22	14.83	
2025-01-13 08:20:05.51	18.23	14.86	
2025-01-13 08:20:05.71	18.23	14.88	
2025-01-13 08:20:05.92	18.23	14.90	
2025-01-13 08:20:06.12	18.23	14.93	
2025-01-13 08:20:06.33	18.24	14.95	
2025-01-13 08:20:06.53	18.24	14.97	
2025-01-13 08:20:06.74	18.24	15.00	
2025-01-13 08:20:06.94	18.24	15.02	
2025-01-13 08:20:07.15	18.25	15.05	
2025-01-13 08:20:07.36	18.25	15.07	
2025-01-13 08:20:07.56	18.25	15.09	
2025-01-13 08:20:07.77	18.26	15.12	
2025-01-13 08:20:07.98	18.26	15.14	
2025-01-13 08:20:08.19	18.26	15.17	
2025-01-13 08:20:08.39	18.26	15.19	
2025-01-13 08:20:08.60	18.27	15.22	
2025-01-13 08:20:08.80	18.27	15.24	
2025-01-13 08:20:09.01	18.27	15.26	
2025-01-13 08:20:09.22	18.28	15.29	
2025-01-13 08:20:09.42	18.28	15.31	
2025-01-13 08:20:09.63	18.28	15.34	
2025-01-13 08:20:09.85	18.28	15.36	
2025-01-13 08:20:10.05	18.29	15.39	
2025-01-13 08:20:10.26	18.29	15.41	
2025-01-13 08:20:10.46	18.29	15.43	
2025-01-13 08:20:10.67	18.29	15.46	
2025-01-13 08:20:10.89	18.30	15.49	
2025-01-13 08:20:11.10	18.30	15.51	
2025-01-13 08:20:11.30	18.30	15.53	
2025-01-13 08:20:11.51	18.31	15.56	
2025-01-13 08:20:11.71	18.31	15.58	
2025-01-13 08:20:11.91	18.31	15.61	
2025-01-13 08:20:12.12	18.31	15.63	
2025-01-13 08:20:12.32	18.32	15.66	
2025-01-13 08:20:12.53	18.32	15.68	
2025-01-13 08:20:12.73	18.32	15.70	
2025-01-13 08:20:12.94	18.33	15.73	
2025-01-13 08:20:13.14	18.33	15.75	
2025-01-13 08:20:13.35	18.33	15.78	
2025-01-13 08:20:13.55	18.33	15.80	
2025-01-13 08:20:13.76	18.34	15.83	
2025-01-13 08:20:13.96	18.34	15.85	
2025-01-13 08:20:14.17	18.34	15.88	
2025-01-13 08:20:14.38	18.35	15.90	
2025-01-13 08:20:14.58	18.35	15.93	
2025-01-13 08:20:14.78	18.35	15.95	
2025-01-13 08:20:14.99	18.35	15.98	
2025-01-13 08:20:15.19	18.36	16.00	
2025-01-13 08:20:15.40	18.36	16.03	
2025-01-13 08:20:15.60	18.36	16.05	
2025-01-13 08:20:15.81	18.37	16.08	
2025-01-13 08:20:16.02	18.37	16.10	
2025-01-13 08:20:16.23	18.37	16.13	
2025-01-13 08:20:16.44	18.37	16.15	
2025-01-13 08:20:16.65	18.38	16.18	
2025-01-13 08:20:16.85	18.38	16.20	
2025-01-13 08:20:17.06	18.38	16.23	
2025-01-13 08:20:17.27	18.39	16.26	
2025-01-13 08:20:17.48	18.39	16.28	
2025-01-13 08:20:17.68	18.39	16.31	
2025-01-13 08:20:17.89	18.39	16.33	
2025-01-13 08:20:18.10	18.40	16.36	
2025-01-13 08:20:18.30	18.40	16.38	
2025-01-13 08:20:18.51	18.40	16.41	
2025-01-13 08:20:18.71	18.41	16.43	
2025-01-13 08:20:18.92	18.41	16.46	
2025-01-13 08:20:19.12	18.41	16.48	
2025-01-13 08:20:19.33	18.42	16.51	
2025-01-13 08:20:19.53	18.42	16.53	
2025-01-13 08:20:19.74	18.42	16.56	
2025-01-13 08:20:19.94	18.42	16.59	
2025-01-13 08:20:20.15	18.43	16.61	
2025-01-13 08:20:20.36	18.43	16.64	
2025-01-13 08:20:20.56	18.43	16.66	
2025-01-13 08:20:20.76	18.44	16.69	
2025-01-13 08:20:20.97	18.44	16.71	
2025-01-13 08:20:21.17	18.44	16.74	
2025-01-13 08:20:21.38	18.44	16.77	
2025-01-13 08:20:21.59	18.45	16.79	
2025-01-13 08:20:21.79	18.45	16.82	
2025-01-13 08:20:21.99	18.45	16.84	
2025-01-13 08:20:22.20	18.46	16.87	
2025-01-13 08:20:22.40	18.46	16.89	
2025-01-13 08:20:22.61	18.46	16.92	
2025-01-13 08:20:22.81	18.47	16.95	
2025-01-13 08:20:23.02	18.47	16.97	
2025-01-13 08:20:23.22	18.47	17.00	
2025-01-13 08:20:23.43	18.47	17.03	
2025-01-13 08:20:23.65	18.48	17.05	
2025-01-13 08:20:23.86	18.48	17.08	
2025-01-13 08:20:24.06	18.48	17.11	
2025-01-13 08:20:24.27	18.49	17.13	
2025-01-13 08:20:24.47	18.49	17.16	
2025-01-13 08:20:24.68	18.49	17.18	
2025-01-13 08:20:24.88	18.50	17.21	
2025-01-13 08:20:25.09	18.50	17.24	
2025-01-13 08:20:25.29	18.50	17.26	
2025-01-13 08:20:25.50	18.51	17.29	
2025-01-13 08:20:25.70	18.51	17.32	
2025-01-13 08:20:25.91	18.51	17.34	
2025-01-13 08:20:26.11	18.51	17.37	
2025-01-13 08:20:26.32	18.52	17.40	
2025-01-13 08:20:26.53	18.52	17.42	
2025-01-13 08:20:26.73	18.52	17.45	
2025-01-13 08:20:26.95	18.53	17.48	
2025-01-13 08:20:27.15	18.53	17.50	
2025-01-13 08:20:27.36	18.53	17.53	
2025-01-13 08:20:27.57	18.54	17.56	
2025-01-13 08:20:27.77	18.54	17.58	
2025-01-13 08:20:27.98	18.54	17.61	
2025-01-13 08:20:28.19	18.55	17.64	
2025-01-13 08:20:28.39	18.55	17.67	
2025-01-13 08:20:28.60	18.55	17.69	
2025-01-13 08:20:28.80	18.56	17.72	
2025-01-13 08:20:29.02	18.56	17.75	
2025-01-13 08:20:29.23	18.56	17.78	
2025-01-13 08:20:29.43	18.56	17.80	
2025-01-13 08:20:29.64	18.57	17.83	
2025-01-13 08:20:29.84	18.57	17.86	
2025-01-13 08:20:30.05	18.57	17.88	
2025-01-13 08:20:30.25	18.58	17.91	
2025-01-13 08:20:30.46	18.58	17.94	
2025-01-13 08:20:30.66	18.58	17.96	
2025-01-13 08:20:30.87	18.59	17.99	
2025-01-13 08:20:31.07	18.59	18.02	
2025-01-13 08:20:31.28	18.59	18.05	
2025-01-13 08:20:31.49	18.60	18.07	
2025-01-13 08:20:31.69	18.60	18.10	
2025-01-13 08:20:31.90	18.60	18.13	
2025-01-13 08:20:32.10	18.61	18.16	
2025-01-13 08:20:32.31	18.61	18.18	
2025-01-13 08:20:32.51	18.61	18.21	
2025-01-13 08:20:32.72	18.62	18.24	
2025-01-13 08:20:32.92	18.62	18.27	
2025-01-13 08:20:33.13	18.62	18.29	
2025-01-13 08:20:33.33	18.62	18.32	
2025-01-13 08:20:33.54	18.63	18.35	
2025-01-13 08:20:33.74	18.63	18.38	
2025-01-13 08:20:33.95	18.63	18.40	
2025-01-13 08:20:34.16	18.64	18.43	
2025-01-13 08:20:34.37	18.64	18.46	
2025-01-13 08:20:34.57	18.64	18.49	
2025-01-13 08:20:34.78	18.65	18.52	
2025-01-13 08:20:34.98	18.65	18.54	
2025-01-13 08:20:35.19	18.65	18.57	
2025-01-13 08:20:35.39	18.66	18.60	
2025-01-13 08:20:35.60	18.66	18.63	
2025-01-13 08:20:35.81	18.66	18.66	
2025-01-13 08:20:36.01	18.67	18.69	
2025-01-13 08:20:36.22	18.67	18.71	
2025-01-13 08:20:36.42	18.67	18.74	
2025-01-13 08:20:36.62	18.68	18.77	
2025-01-13 08:20:36.83	18.68	18.80	
2025-01-13 08:20:37.03	18.68	18.83	
2025-01-13 08:20:37.24	18.69	18.85	
2025-01-13 08:20:37.45	18.69	18.88	
2025-01-13 08:20:37.65	18.69	18.91	
2025-01-13 08:20:37.86	18.70	18.94	
2025-01-13 08:20:38.06	18.70	18.97	
2025-01-13 08:20:38.27	18.70	19.00	
2025-01-13 08:20:38.47	18.71	19.02	
2025-01-13 08:20:38.68	18.71	19.05	
2025-01-13 08:20:38.88	18.71	19.08	
2025-01-13 08:20:39.09	18.72	19.11	
2025-01-13 08:20:39.29	18.72	19.14	
2025-01-13 08:20:39.50	18.72	19.17	
2025-01-13 08:20:39.70	18.73	19.20	
2025-01-13 08:20:39.91	18.73	19.23	
2025-01-13 08:20:40.11	18.73	19.25	
2025-01-13 08:20:40.32	18.74	19.28	
2025-01-13 08:20:40.52	18.74	19.31	
2025-01-13 08:20:40.74	18.74	19.34	
2025-01-13 08:20:40.95	18.75	19.37	
2025-01-13 08:20:41.15	18.75	19.40	
2025-01-13 08:20:41.35	18.75	19.43	
2025-01-13 08:20:41.56	18.76	19.46	
2025-01-13 08:20:41.76	18.76	19.49	
2025-01-13 08:20:41.97	18.76	19.52	
2025-01-13 08:20:42.17	18.77	19.55	
2025-01-13 08:20:42.38	18.77	19.58	
2025-01-13 08:20:42.58	18.77	19.60	
2025-01-13 08:20:42.79	18.78	19.63	
2025-01-13 08:20:42.99	18.78	19.66	
2025-01-13 08:20:43.20	18.79	19.69	
2025-01-13 08:20:43.40	18.79	19.72	
2025-01-13 08:20:43.61	18.79	19.75	
2025-01-13 08:20:43.82	18.80	19.78	
2025-01-13 08:20:44.02	18.80	19.81	
2025-01-13 08:20:44.23	18.80	19.84	
2025-01-13 08:20:44.43	18.81	19.87	
2025-01-13 08:20:44.64	18.81	19.90	
2025-01-13 08:20:44.84	18.81	19.93	
2025-01-13 08:20:45.04	18.82	19.96	
2025-01-13 08:20:45.25	18.82	19.99	
2025-01-13 08:20:45.46	18.82	20.02	
2025-01-13 08:20:45.66	18.83	20.05	
2025-01-13 08:20:45.87	18.83	20.08	
2025-01-13 08:20:46.07	18.83	20.11	
2025-01-13 08:20:46.28	18.84	20.14	
2025-01-13 08:20:46.48	18.84	20.17	
2025-01-13 08:20:46.69	18.84	20.20	
2025-01-13 08:20:46.89	18.85	20.23	
2025-01-13 08:20:47.10	18.85	20.26	
2025-01-13 08:20:47.30	18.86	20.29	
2025-01-13 08:20:47.51	18.86	20.32	
2025-01-13 08:20:47.71	18.86	20.35	
2025-01-13 08:20:47.92	18.87	20.38	
2025-01-13 08:20:48.12	18.87	20.41	
2025-01-13 08:20:48.33	18.87	20.44	
2025-01-13 08:20:48.53	18.88	20.47	
2025-01-13 08:20:48.74	18.88	20.50	
2025-01-13 08:20:48.95	18.88	20.53	
2025-01-13 08:20:49.15	18.89	20.56	
2025-01-13 08:20:49.35	18.89	20.59	
2025-01-13 08:20:49.56	18.89	20.62	
2025-01-13 08:20:49.77	18.90	20.65	
2025-01-13 08:20:49.97	18.90	20.68	
2025-01-13 08:20:50.18	18.91	20.71	
2025-01-13 08:20:50.38	18.91	20.74	
2025-01-13 08:20:50.59	18.91	20.78	
2025-01-13 08:20:50.79	18.92	20.81	
2025-01-13 08:20:51.00	18.92	20.84	
2025-01-13 08:20:51.20	18.92	20.87	
2025-01-13 08:20:51.41	18.93	20.90	
2025-01-13 08:20:51.61	18.93	20.93	
2025-01-13 08:20:51.82	18.93	20.96	
2025-01-13 08:20:52.02	18.94	20.99	
2025-01-13 08:20:52.23	18.94	21.02	
2025-01-13 08:20:52.43	18.95	21.05	
2025-01-13 08:20:52.64	18.95	21.09	
2025-01-13 08:20:52.85	18.95	21.12	
2025-01-13 08:20:53.05	18.96	21.15	
2025-01-13 08:20:53.25	18.96	21.18	
2025-01-13 08:20:53.46	18.96	21.21	
2025-01-13 08:20:53.67	18.97	21.24	
2025-01-13 08:20:53.87	18.97	21.27	
2025-01-13 08:20:54.08	18.98	21.31	
2025-01-13 08:20:54.28	18.98	21.34	
2025-01-13 08:20:54.49	18.98	21.37	
2025-01-13 08:20:54.70	18.99	21.40	
2025-01-13 08:20:54.91	18.99	21.43	
2025-01-13 08:20:55.12	19.00	21.47	
2025-01-13 08:20:55.32	19.00	21.50	
2025-01-13 08:20:55.53	19.00	21.53	
2025-01-13 08:20:55.73	19.01	21.56	
2025-01-13 08:20:55.94	19.01	21.59	
2025-01-13 08:20:56.14	19.01	21.62	
2025-01-13 08:20:56.34	19.02	21.66	
2025-01-13 08:20:56.55	19.02	21.69	
2025-01-13 08:20:56.75	19.03	21.72	
2025-01-13 08:20:56.96	19.03	21.75	
2025-01-13 08:20:57.16	19.03	21.78	
2025-01-13 08:20:57.37	19.04	21.82	
2025-01-13 08:20:57.57	19.04	21.85	
2025-01-13 08:20:57.78	19.04	21.88	
2025-01-13 08:20:57.98	19.05	21.91	
2025-01-13 08:20:58.19	19.05	21.95	
2025-01-13 08:20:58.39	19.06	21.98	
2025-01-13 08:20:58.60	19.06	22.01	
2025-01-13 08:20:58.81	19.06	22.04	
2025-01-13 08:20:59.01	19.07	22.08	
2025-01-13 08:20:59.21	19.07	22.11	
2025-01-13 08:20:59.42	19.08	22.14	
2025-01-13 08:20:59.62	19.08	22.17	
2025-01-13 08:20:59.83	19.08	22.21	
2025-01-13 08:21:00.03	19.09	22.24	
2025-01-13 08:21:00.25	19.09	22.27	
2025-01-13 08:21:00.45	19.10	22.31	
2025-01-13 08:21:00.66	19.10	22.34	
2025-01-13 08:21:00.86	19.10	22.37	
2025-01-13 08:21:01.08	19.11	22.41	
2025-01-13 08:21:01.29	19.11	22.44	
2025-01-13 08:21:01.49	19.12	22.47	
2025-01-13 08:21:01.70	19.12	22.51	
2025-01-13 08:21:01.90	19.12	22.54	
2025-01-13 08:21:02.12	19.13	22.58	
2025-01-13 08:21:02.32	19.13	22.61	
2025-01-13 08:21:02.53	19.14	22.64	
2025-01-13 08:21:02.74	19.14	22.68	
2025-01-13 08:21:02.94	19.14	22.71	
2025-01-13 08:21:03.15	19.15	22.74	
2025-01-13 08:21:03.35	19.15	22.78	
2025-01-13 08:21:03.56	19.16	22.81	
2025-01-13 08:21:03.76	19.16	22.84	
2025-01-13 08:21:03.97	19.16	22.88	
2025-01-13 08:21:04.17	19.17	22.91	
2025-01-13 08:21:04.37	19.17	22.94	
2025-01-13 08:21:04.58	19.18	22.98	
2025-01-13 08:21:04.79	19.18	23.01	
2025-01-13 08:21:04.99	19.19	23.05	
2025-01-13 08:21:05.20	19.19	23.08	
2025-01-13 08:21:05.40	19.19	23.11	
2025-01-13 08:21:05.61	19.20	23.15	
2025-01-13 08:21:05.81	19.20	23.18	
2025-01-13 08:21:06.02	19.21	23.22	
2025-01-13 08:21:06.23	19.21	23.25	
2025-01-13 08:21:06.43	19.21	23.29	
2025-01-13 08:21:06.64	19.22	23.32	
2025-01-13 08:21:06.84	19.22	23.35	
2025-01-13 08:21:07.05	19.23	23.39	
2025-01-13 08:21:07.25	19.23	23.42	
2025-01-13 08:21:07.46	19.24	23.46	
2025-01-13 08:21:07.66	19.24	23.49	
2025-01-13 08:21:07.87	19.24	23.53	
2025-01-13 08:21:08.08	19.25	23.56	
2025-01-13 08:21:08.28	19.25	23.60	
2025-01-13 08:21:08.48	19.26	23.63	
2025-01-13 08:21:08.69	19.26	23.67	
2025-01-13 08:21:08.89	19.26	23.70	
2025-01-13 08:21:09.10	19.27	23.74	
2025-01-13 08:21:09.30	19.27	23.77	
2025-01-13 08:21:09.51	19.28	23.81	
2025-01-13 08:21:09.71	19.28	23.84	
2025-01-13 08:21:09.92	19.29	23.88	
2025-01-13 08:21:10.12	19.29	23.91	
2025-01-13 08:21:10.33	19.29	23.95	
2025-01-13 08:21:10.53	19.30	23.98	
2025-01-13 08:21:10.73	19.30	24.01	
2025-01-13 08:21:10.94	19.31	24.05	
2025-01-13 08:21:11.15	19.31	24.09	
2025-01-13 08:21:11.35	19.32	24.12	
2025-01-13 08:21:11.56	19.32	24.16	
2025-01-13 08:21:11.76	19.33	24.19	
2025-01-13 08:21:11.97	19.33	24.23	
2025-01-13 08:21:12.18	19.33	24.27	
2025-01-13 08:21:12.38	19.34	24.30	
2025-01-13 08:21:12.59	19.34	24.34	
2025-01-13 08:21:12.79	19.35	24.37	
2025-01-13 08:21:13.00	19.35	24.41	
2025-01-13 08:21:13.20	19.36	24.44	
2025-01-13 08:21:13.41	19.36	24.48	
2025-01-13 08:21:13.62	19.37	24.52	
2025-01-13 08:21:13.82	19.37	24.55	
2025-01-13 08:21:14.03	19.37	24.59	
2025-01-13 08:21:14.23	19.38	24.63	
2025-01-13 08:21:14.44	19.38	24.66	
2025-01-13 08:21:14.65	19.39	24.70	
2025-01-13 08:21:14.85	19.39	24.74	
2025-01-13 08:21:15.05	19.40	24.77	
2025-01-13 08:21:15.26	19.40	24.81	
2025-01-13 08:21:15.47	19.41	24.85	
2025-01-13 08:21:15.67	19.41	24.88	
2025-01-13 08:21:15.88	19.42	24.92	
2025-01-13 08:21:16.10	19.42	24.96	
2025-01-13 08:21:16.30	19.42	24.99	
2025-01-13 08:21:16.51	19.43	25.03	
2025-01-13 08:21:16.71	19.43	25.07	
2025-01-13 08:21:16.92	19.44	25.11	
2025-01-13 08:21:17.12	19.44	25.14	
2025-01-13 08:21:17.33	19.45	25.18	
2025-01-13 08:21:17.54	19.45	25.22	
2025-01-13 08:21:17.74	19.46	25.25	
2025-01-13 08:21:17.95	19.46	25.29	
2025-01-13 08:21:18.15	19.47	25.33	
2025-01-13 08:21:18.36	19.47	25.37	
2025-01-13 08:21:18.56	19.48	25.40	
2025-01-13 08:21:18.77	19.48	25.44	
2025-01-13 08:21:18.97	19.48	25.48	
2025-01-13 08:21:19.18	19.49	25.52	
2025-01-13 08:21:19.38	19.49	25.55	
2025-01-13 08:21:19.59	19.50	25.59	
2025-01-13 08:21:19.79	19.50	25.63	
2025-01-13 08:21:20.00	19.51	25.67	
2025-01-13 08:21:20.20	19.51	25.70	
2025-01-13 08:21:20.41	19.52	25.74	
2025-01-13 08:21:20.61	19.52	25.78	
2025-01-13 08:21:20.82	19.53	25.82	
2025-01-13 08:21:21.03	19.53	25.86	
2025-01-13 08:21:21.23	19.54	25.90	
2025-01-13 08:21:21.44	19.54	25.93	
2025-01-13 08:21:21.65	19.55	25.97	
2025-01-13 08:21:21.86	19.55	26.01	
2025-01-13 08:21:22.06	19.56	26.05	
2025-01-13 08:21:22.27	19.56	26.09	
2025-01-13 08:21:22.47	19.57	26.13	
2025-01-13 08:21:22.68	19.57	26.17	
2025-01-13 08:21:22.88	19.58	26.20	
2025-01-13 08:21:23.09	19.58	26.24	
2025-01-13 08:21:23.29	19.59	26.28	
2025-01-13 08:21:23.49	19.59	26.32	
2025-01-13 08:21:23.70	19.60	26.36	
2025-01-13 08:21:23.91	19.60	26.40	
2025-01-13 08:21:24.11	19.61	26.44	
2025-01-13 08:21:24.32	19.61	26.48	
2025-01-13 08:21:24.52	19.62	26.52	
2025-01-13 08:21:24.73	19.62	26.56	
2025-01-13 08:21:24.93	19.63	26.59	
2025-01-13 08:21:25.14	19.63	26.63	
2025-01-13 08:21:25.35	19.64	26.67	
2025-01-13 08:21:25.55	19.64	26.71	
2025-01-13 08:21:25.76	19.65	26.75	
2025-01-13 08:21:25.96	19.65	26.79	
2025-01-13 08:21:26.17	19.66	26.83	
2025-01-13 08:21:26.37	19.66	26.87	
2025-01-13 08:21:26.58	19.67	26.91	
2025-01-13 08:21:26.78	19.67	26.95	
2025-01-13 08:21:26.98	19.68	26.99	
2025-01-13 08:21:27.19	19.68	27.03	
2025-01-13 08:21:27.39	19.69	27.07	
2025-01-13 08:21:27.60	19.69	27.11	
2025-01-13 08:21:27.80	19.70	27.15	
2025-01-13 08:21:28.01	19.70	27.19	
2025-01-13 08:21:28.21	19.71	27.23	
2025-01-13 08:21:28.42	19.71	27.27	
2025-01-13 08:21:28.62	19.72	27.31	
2025-01-13 08:21:28.83	19.72	27.35	
2025-01-13 08:21:29.03	19.73	27.39	
2025-01-13 08:21:29.24	19.73	27.43	
2025-01-13 08:21:29.44	19.74	27.47	
2025-01-13 08:21:29.65	19.74	27.51	
2025-01-13 08:21:29.85	19.75	27.55	
2025-01-13 08:21:30.05	19.75	27.59	
2025-01-13 08:21:30.26	19.76	27.64	
2025-01-13 08:21:30.47	19.76	27.68	
2025-01-13 08:21:30.67	19.77	27.72	
2025-01-13 08:21:30.88	19.77	27.76	
2025-01-13 08:21:31.08	19.78	27.80	
2025-01-13 08:21:31.29	19.79	27.84	
2025-01-13 08:21:31.49	19.79	27.88	
2025-01-13 08:21:31.70	19.80	27.92	
2025-01-13 08:21:31.91	19.80	27.97	
2025-01-13 08:21:32.11	19.81	28.01	
2025-01-13 08:21:32.31	19.81	28.05	
2025-01-13 08:21:32.52	19.82	28.09	
2025-01-13 08:21:32.73	19.82	28.13	
2025-01-13 08:21:32.93	19.83	28.17	
2025-01-13 08:21:33.14	19.83	28.22	
2025-01-13 08:21:33.34	19.84	28.26	
2025-01-13 08:21:33.55	19.84	28.30	
2025-01-13 08:21:33.75	19.85	28.34	
2025-01-13 08:21:33.96	19.86	28.38	
2025-01-13 08:21:34.16	19.86	28.43	
2025-01-13 08:21:34.37	19.87	28.47	
2025-01-13 08:21:34.57	19.87	28.51	
2025-01-13 08:21:34.78	19.88	28.55	
2025-01-13 08:21:34.99	19.88	28.60	
2025-01-13 08:21:35.19	19.89	28.64	
2025-01-13 08:21:35.40	19.89	28.68	
2025-01-13 08:21:35.60	19.90	28.72	
2025-01-13 08:21:35.81	19.91	28.77	
2025-01-13 08:21:36.01	19.91	28.81	
2025-01-13 08:21:36.22	19.92	28.85	
2025-01-13 08:21:36.42	19.92	28.90	
2025-01-13 08:21:36.63	19.93	28.94	
2025-01-13 08:21:36.83	19.93	28.98	
2025-01-13 08:21:37.04	19.94	29.03	
2025-01-13 08:21:37.25	19.95	29.07	
2025-01-13 08:21:37.45	19.95	29.11	
2025-01-13 08:21:37.66	19.96	29.16	
2025-01-13 08:21:37.86	19.96	29.20	
2025-01-13 08:21:38.07	19.97	29.24	
2025-01-13 08:21:38.27	19.97	29.29	
2025-01-13 08:21:38.49	19.98	29.33	
2025-01-13 08:21:38.69	19.99	29.38	
2025-01-13 08:21:38.90	19.99	29.42	
2025-01-13 08:21:39.10	20.00	29.46	
2025-01-13 08:21:39.31	20.00	29.51	
2025-01-13 08:21:39.52	20.01	29.55	
2025-01-13 08:21:39.72	20.02	29.60	
2025-01-13 08:21:39.93	20.02	29.64	
2025-01-13 08:21:40.13	20.03	29.68	
2025-01-13 08:21:40.34	20.03	29.73	
2025-01-13 08:21:40.54	20.04	29.77	
2025-01-13 08:21:40.75	20.05	29.82	
2025-01-13 08:21:40.95	20.05	29.86	
2025-01-13 08:21:41.16	20.06	29.91	
2025-01-13 08:21:41.36	20.06	29.95	
2025-01-13 08:21:41.57	20.07	30.00	
2025-01-13 08:21:41.77	20.08	30.04	
2025-01-13 08:21:41.98	20.08	30.09	
2025-01-13 08:21:42.18	20.09	30.13	
2025-01-13 08:21:42.39	20.09	30.18	
2025-01-13 08:21:42.60	20.10	30.22	
2025-01-13 08:21:42.80	20.11	30.27	
2025-01-13 08:21:43.01	20.11	30.31	
2025-01-13 08:21:43.21	20.12	30.36	
2025-01-13 08:21:43.42	20.12	30.40	
2025-01-13 08:21:43.62	20.13	30.45	
2025-01-13 08:21:43.83	20.14	30.49	
2025-01-13 08:21:44.03	20.14	30.54	
2025-01-13 08:21:44.24	20.15	30.59	
2025-01-13 08:21:44.44	20.15	30.63	
2025-01-13 08:21:44.65	20.16	30.68	
2025-01-13 08:21:44.85	20.17	30.72	
2025-01-13 08:21:45.06	20.17	30.77	
2025-01-13 08:21:45.26	20.18	30.81	
2025-01-13 08:21:45.47	20.19	30.86	
2025-01-13 08:21:45.67	20.19	30.91	
2025-01-13 08:21:45.88	20.20	30.95	
2025-01-13 08:21:46.08	20.21	31.00	
2025-01-13 08:21:46.29	20.21	31.05	
2025-01-13 08:21:46.49	20.22	31.09	
2025-01-13 08:21:46.70	20.22	31.14	
2025-01-13 08:21:46.90	20.23	31.19	
2025-01-13 08:21:47.11	20.24	31.23	
2025-01-13 08:21:47.31	20.24	31.28	
2025-01-13 08:21:47.52	20.25	31.33	
2025-01-13 08:21:47.72	20.26	31.37	
2025-01-13 08:21:47.93	20.26	31.42	
2025-01-13 08:21:48.15	20.27	31.47	
2025-01-13 08:21:48.35	20.28	31.52	
2025-01-13 08:21:48.56	20.28	31.57	
2025-01-13 08:21:48.76	20.29	31.61	
2025-01-13 08:21:48.97	20.30	31.66	
2025-01-13 08:21:49.17	20.30	31.71	
2025-01-13 08:21:49.38	20.31	31.76	
2025-01-13 08:21:49.59	20.32	31.81	
2025-01-13 08:21:49.79	20.32	31.85	
2025-01-13 08:21:50.00	20.33	31.90	
2025-01-13 08:21:50.20	20.34	31.95	
2025-01-13 08:21:50.41	20.34	32.00	
2025-01-13 08:21:50.61	20.35	32.05	
2025-01-13 08:21:50.82	20.36	32.10	
2025-01-13 08:21:51.02	20.36	32.14	
2025-01-13 08:21:51.23	20.37	32.19	
2025-01-13 08:21:51.43	20.38	32.24	
2025-01-13 08:21:51.64	20.38	32.29	
2025-01-13 08:21:51.84	20.39	32.34	
2025-01-13 08:21:52.05	20.40	32.39	
2025-01-13 08:21:52.25	20.40	32.44	
2025-01-13 08:21:52.46	20.41	32.49	
2025-01-13 08:21:52.66	20.42	32.53	
2025-01-13 08:21:52.87	20.43	32.58	
2025-01-13 08:21:53.07	20.43	32.63	
2025-01-13 08:21:53.28	20.44	32.68	
2025-01-13 08:21:53.50	20.45	32.74	
2025-01-13 08:21:53.71	20.45	32.79	
2025-01-13 08:21:53.91	20.46	32.83	
2025-01-13 08:21:54.11	20.47	32.88	
2025-01-13 08:21:54.32	20.47	32.93	
2025-01-13 08:21:54.54	20.48	32.99	
2025-01-13 08:21:54.74	20.49	33.04	
2025-01-13 08:21:54.95	20.50	33.09	
2025-01-13 08:21:55.16	20.50	33.14	
2025-01-13 08:21:55.36	20.51	33.19	
2025-01-13 08:21:55.56	20.52	33.24	
2025-01-13 08:21:55.77	20.53	33.29	
2025-01-13 08:21:55.97	20.53	33.34	
2025-01-13 08:21:56.18	20.54	33.39	
2025-01-13 08:21:56.39	20.55	33.44	
2025-01-13 08:21:56.59	20.55	33.49	
2025-01-13 08:21:56.79	20.56	33.54	
2025-01-13 08:21:57.00	20.57	33.59	
2025-01-13 08:21:57.20	20.58	33.64	
2025-01-13 08:21:57.41	20.58	33.69	
2025-01-13 08:21:57.61	20.59	33.74	
2025-01-13 08:21:57.82	20.60	33.80	
2025-01-13 08:21:58.02	20.61	33.85	
2025-01-13 08:21:58.23	20.61	33.90	
2025-01-13 08:21:58.43	20.62	33.95	
2025-01-13 08:21:58.64	20.63	34.00	
2025-01-13 08:21:58.84	20.64	34.05	
2025-01-13 08:21:59.05	20.64	34.11	
2025-01-13 08:21:59.25	20.65	34.16	
2025-01-13 08:21:59.46	20.66	34.21	
2025-01-13 08:21:59.66	20.67	34.26	
2025-01-13 08:21:59.87	20.67	34.31	
2025-01-13 08:22:00.07	20.68	34.37	
2025-01-13 08:22:00.27	20.69	34.42	
2025-01-13 08:22:00.48	20.70	34.47	
2025-01-13 08:22:00.68	20.70	34.52	
2025-01-13 08:22:00.89	20.71	34.58	
2025-01-13 08:22:01.09	20.72	34.63	
2025-01-13 08:22:01.30	20.73	34.68	
2025-01-13 08:22:01.50	20.74	34.73	
2025-01-13 08:22:01.71	20.74	34.79	
2025-01-13 08:22:01.91	20.75	34.84	
2025-01-13 08:22:02.12	20.76	34.89	
2025-01-13 08:22:02.34	20.77	34.95	
2025-01-13 08:22:02.54	20.78	35.00	
2025-01-13 08:22:02.75	20.78	35.06	
2025-01-13 08:22:02.95	20.79	35.11	
2025-01-13 08:22:03.16	20.80	35.17	
2025-01-13 08:22:03.36	20.81	35.22	
2025-01-13 08:22:03.57	20.82	35.27	
2025-01-13 08:22:03.77	20.82	35.33	
2025-01-13 08:22:03.98	20.83	35.38	
2025-01-13 08:22:04.18	20.84	35.43	
2025-01-13 08:22:04.39	20.85	35.49	
2025-01-13 08:22:04.59	20.86	35.54	
2025-01-13 08:22:04.80	20.86	35.60	
2025-01-13 08:22:05.01	20.87	35.65	
2025-01-13 08:22:05.21	20.88	35.71	
2025-01-13 08:22:05.42	20.89	35.76	
2025-01-13 08:22:05.62	20.90	35.82	
2025-01-13 08:22:05.83	20.91	35.87	
2025-01-13 08:22:06.03	20.91	35.93	
2025-01-13 08:22:06.24	20.92	35.98	
2025-01-13 08:22:06.44	20.93	36.04	
2025-01-13 08:22:06.65	20.94	36.10	
2025-01-13 08:22:06.86	20.95	36.15	
2025-01-13 08:22:07.06	20.96	36.21	
2025-01-13 08:22:07.27	20.97	36.26	
2025-01-13 08:22:07.47	20.97	36.32	
2025-01-13 08:22:07.68	20.98	36.37	
2025-01-13 08:22:07.88	20.99	36.43	
2025-01-13 08:22:08.09	21.00	36.49	
2025-01-13 08:22:08.29	21.01	36.54	
2025-01-13 08:22:08.50	21.02	36.60	
2025-01-13 08:22:08.70	21.03	36.65	
2025-01-13 08:22:08.91	21.03	36.71	
2025-01-13 08:22:09.12	21.04	36.77	
2025-01-13 08:22:09.32	21.05	36.83	
2025-01-13 08:22:09.53	21.06	36.88	
2025-01-13 08:22:09.74	21.07	36.94	
2025-01-13 08:22:09.94	21.08	37.00	
2025-01-13 08:22:10.15	21.09	37.06	
2025-01-13 08:22:10.36	21.10	37.12	
2025-01-13 08:22:10.56	21.11	37.17	
2025-01-13 08:22:10.77	21.12	37.23	
2025-01-13 08:22:10.97	21.12	37.29	
2025-01-13 08:22:11.19	21.13	37.35	
2025-01-13 08:22:11.39	21.14	37.40	
2025-01-13 08:22:11.60	21.15	37.46	
2025-01-13 08:22:11.80	21.16	37.52	
2025-01-13 08:22:12.01	21.17	37.58	
2025-01-13 08:22:12.21	21.18	37.64	
2025-01-13 08:22:12.42	21.19	37.70	
2025-01-13 08:22:12.62	21.20	37.75	
2025-01-13 08:22:12.83	21.21	37.81	
2025-01-13 08:22:13.04	21.22	37.87	
2025-01-13 08:22:13.24	21.23	37.93	
2025-01-13 08:22:13.45	21.24	37.99	
2025-01-13 08:22:13.65	21.25	38.05	
2025-01-13 08:22:13.86	21.26	38.11	
2025-01-13 08:22:14.06	21.26	38.17	
2025-01-13 08:22:14.27	21.27	38.23	
2025-01-13 08:22:14.47	21.28	38.29	
2025-01-13 08:22:14.68	21.29	38.35	
2025-01-13 08:22:14.88	21.30	38.41	
2025-01-13 08:22:15.09	21.31	38.47	
2025-01-13 08:22:15.29	21.32	38.52	
2025-01-13 08:22:15.50	21.33	38.59	
2025-01-13 08:22:15.70	21.34	38.64	
2025-01-13 08:22:15.92	21.35	38.71	
2025-01-13 08:22:16.13	21.36	38.77	
2025-01-13 08:22:16.33	21.37	38.83	
2025-01-13 08:22:16.54	21.38	38.89	
2025-01-13 08:22:16.74	21.39	38.95	
2025-01-13 08:22:16.95	21.40	39.01	
2025-01-13 08:22:17.15	21.41	39.07	
2025-01-13 08:22:17.36	21.42	39.14	
2025-01-13 08:22:17.57	21.43	39.20	
2025-01-13 08:22:17.77	21.44	39.26	
2025-01-13 08:22:17.98	21.45	39.32	
2025-01-13 08:22:18.18	21.46	39.38	
2025-01-13 08:22:18.39	21.47	39.44	
2025-01-13 08:22:18.59	21.48	39.50	
2025-01-13 08:22:18.80	21.49	39.57	
2025-01-13 08:22:19.00	21.50	39.63	
2025-01-13 08:22:19.21	21.51	39.69	
2025-01-13 08:22:19.42	21.52	39.75	
2025-01-13 08:22:19.62	21.54	39.82	
2025-01-13 08:22:19.83	21.55	39.88	
2025-01-13 08:22:20.03	21.56	39.94	
2025-01-13 08:22:20.24	21.57	40.00	
2025-01-13 08:22:20.44	21.58	40.07	
2025-01-13 08:22:20.65	21.59	40.13	
2025-01-13 08:22:20.85	21.60	40.19	
2025-01-13 08:22:21.06	21.61	40.26	
2025-01-13 08:22:21.26	21.62	40.32	
2025-01-13 08:22:21.47	21.63	40.38	
2025-01-13 08:22:21.67	21.64	40.44	
2025-01-13 08:22:21.88	21.65	40.51	
2025-01-13 08:22:22.08	21.66	40.57	
2025-01-13 08:22:22.29	21.67	40.64	
2025-01-13 08:22:22.50	21.69	40.70	
2025-01-13 08:22:22.70	21.70	40.77	
2025-01-13 08:22:22.90	21.71	40.83	
2025-01-13 08:22:23.11	21.72	40.89	
2025-01-13 08:22:23.31	21.73	40.96	
2025-01-13 08:22:23.52	21.74	41.02	
2025-01-13 08:22:23.73	21.75	41.09	
2025-01-13 08:22:23.93	21.76	41.15	
2025-01-13 08:22:24.14	21.78	41.22	
2025-01-13 08:22:24.34	21.79	41.28	
2025-01-13 08:22:24.55	21.80	41.35	
2025-01-13 08:22:24.75	21.81	41.41	
2025-01-13 08:22:24.96	21.82	41.48	
2025-01-13 08:22:25.16	21.83	41.54	
2025-01-13 08:22:25.37	21.84	41.61	
2025-01-13 08:22:25.57	21.86	41.67	
2025-01-13 08:22:25.78	21.87	41.74	
2025-01-13 08:22:25.99	21.88	41.81	
2025-01-13 08:22:26.19	21.89	41.87	
2025-01-13 08:22:26.40	21.90	41.94	
2025-01-13 08:22:26.60	21.91	42.01	
2025-01-13 08:22:26.80	21.93	42.07	
2025-01-13 08:22:27.01	21.94	42.14	
2025-01-13 08:22:27.22	21.95	42.21	
2025-01-13 08:22:27.42	21.96	42.27	
2025-01-13 08:22:27.63	21.98	42.34	
2025-01-13 08:22:27.83	21.99	42.41	
2025-01-13 08:22:28.04	22.00	42.48	
2025-01-13 08:22:28.24	22.01	42.54	
2025-01-13 08:22:28.45	22.02	42.61	
2025-01-13 08:22:28.65	22.04	42.68	
2025-01-13 08:22:28.86	22.05	42.75	
2025-01-13 08:22:29.07	22.06	42.82	
2025-01-13 08:22:29.27	22.07	42.88	
2025-01-13 08:22:29.48	22.09	42.95	
2025-01-13 08:22:29.68	22.10	43.02	
2025-01-13 08:22:29.88	22.11	43.09	
2025-01-13 08:22:30.09	22.12	43.16	
2025-01-13 08:22:30.30	22.14	43.23	
2025-01-13 08:22:30.50	22.15	43.29	
2025-01-13 08:22:30.71	22.16	43.36	
2025-01-13 08:22:30.91	22.18	43.43	
2025-01-13 08:22:31.12	22.19	43.50	
2025-01-13 08:22:31.32	22.20	43.57	
2025-01-13 08:22:31.53	22.22	43.64	
2025-01-13 08:22:31.73	22.23	43.71	
2025-01-13 08:22:31.94	22.24	43.78	
2025-01-13 08:22:32.14	22.25	43.85	
2025-01-13 08:22:32.35	22.27	43.92	
2025-01-13 08:22:32.55	22.28	43.99	
2025-01-13 08:22:32.76	22.29	44.06	
2025-01-13 08:22:32.96	22.31	44.13	
2025-01-13 08:22:33.17	22.32	44.20	
2025-01-13 08:22:33.37	22.34	44.27	
2025-01-13 08:22:33.58	22.35	44.34	
2025-01-13 08:22:33.79	22.36	44.41	
2025-01-13 08:22:33.99	22.38	44.48	
2025-01-13 08:22:34.20	22.39	44.56	
2025-01-13 08:22:34.40	22.40	44.63	
2025-01-13 08:22:34.61	22.42	44.70	
2025-01-13 08:22:34.81	22.43	44.77	
2025-01-13 08:22:35.02	22.45	44.84	
2025-01-13 08:22:35.22	22.46	44.91	
2025-01-13 08:22:35.43	22.47	44.99	
2025-01-13 08:22:35.63	22.49	45.06	
2025-01-13 08:22:35.84	22.50	45.13	
2025-01-13 08:22:36.04	22.52	45.20	
2025-01-13 08:22:36.25	22.53	45.28	
2025-01-13 08:22:36.45	22.55	45.35	
2025-01-13 08:22:36.66	22.56	45.42	
2025-01-13 08:22:36.86	22.58	45.49	
2025-01-13 08:22:37.07	22.59	45.57	
2025-01-13 08:22:37.27	22.60	45.64	
2025-01-13 08:22:37.48	22.62	45.71	
2025-01-13 08:22:37.68	22.63	45.79	
2025-01-13 08:22:37.89	22.65	45.86	
2025-01-13 08:22:38.09	22.66	45.93	
2025-01-13 08:22:38.30	22.68	46.01	
2025-01-13 08:22:38.50	22.69	46.08	
2025-01-13 08:22:38.71	22.71	46.16	
2025-01-13 08:22:38.91	22.73	46.23	
2025-01-13 08:22:39.12	22.74	46.31	
2025-01-13 08:22:39.32	22.76	46.38	
2025-01-13 08:22:39.53	22.77	46.45	
2025-01-13 08:22:39.73	22.79	46.53	
2025-01-13 08:22:39.94	22.80	46.60	
2025-01-13 08:22:40.15	22.82	46.68	
2025-01-13 08:22:40.35	22.83	46.76	
2025-01-13 08:22:40.56	22.85	46.83	
2025-01-13 08:22:40.76	22.87	46.91	
2025-01-13 08:22:40.97	22.88	46.98	
2025-01-13 08:22:41.17	22.90	47.06	
2025-01-13 08:22:41.38	22.92	47.14	
2025-01-13 08:22:41.58	22.93	47.21	
2025-01-13 08:22:41.79	22.95	47.29	
2025-01-13 08:22:41.99	22.96	47.36	
2025-01-13 08:22:42.20	22.98	47.44	
2025-01-13 08:22:42.41	23.00	47.52	
2025-01-13 08:22:42.61	23.01	47.59	
2025-01-13 08:22:42.82	23.03	47.67	
2025-01-13 08:22:43.02	23.05	47.75	
2025-01-13 08:22:43.23	23.06	47.83	
2025-01-13 08:22:43.43	23.08	47.90	
2025-01-13 08:22:43.64	23.10	47.98	
2025-01-13 08:22:43.84	23.12	48.06	
2025-01-13 08:22:44.05	23.13	48.14	
2025-01-13 08:22:44.25	23.15	48.21	
2025-01-13 08:22:44.46	23.17	48.29	
2025-01-13 08:22:44.66	23.18	48.37	
2025-01-13 08:22:44.87	23.20	48.45	
2025-01-13 08:22:45.07	23.22	48.53	
2025-01-13 08:22:45.28	23.24	48.61	
2025-01-13 08:22:45.48	23.26	48.69	
2025-01-13 08:22:45.69	23.27	48.77	
2025-01-13 08:22:45.89	23.29	48.84	
2025-01-13 08:22:46.10	23.31	48.92	
2025-01-13 08:22:46.30	23.33	49.00	
2025-01-13 08:22:46.51	23.35	49.08	
2025-01-13 08:22:46.71	23.36	49.16	
2025-01-13 08:22:46.92	23.38	49.24	
2025-01-13 08:22:47.12	23.40	49.32	
2025-01-13 08:22:47.33	23.42	49.40	
2025-01-13 08:22:47.53	23.44	49.48	
2025-01-13 08:22:47.74	23.46	49.56	
2025-01-13 08:22:47.94	23.48	49.64	
2025-01-13 08:22:48.15	23.50	49.73	
2025-01-13 08:22:48.35	23.51	49.80	
2025-01-13 08:22:48.56	23.53	49.89	
2025-01-13 08:22:48.77	23.55	49.97	
2025-01-13 08:22:48.98	23.57	50.05	
2025-01-13 08:22:49.19	23.59	50.14	
2025-01-13 08:22:49.39	23.61	50.22	
2025-01-13 08:22:49.60	23.63	50.30	
2025-01-13 08:22:49.81	23.65	50.39	
2025-01-13 08:22:50.01	23.67	50.47	
2025-01-13 08:22:50.22	23.69	50.55	
2025-01-13 08:22:50.42	23.71	50.63	
2025-01-13 08:22:50.63	23.73	50.72	
2025-01-13 08:22:50.83	23.75	50.80	
2025-01-13 08:22:51.04	23.77	50.88	
2025-01-13 08:22:51.24	23.79	50.96	
2025-01-13 08:22:51.45	23.82	51.05	
2025-01-13 08:22:51.65	23.84	51.13	
2025-01-13 08:22:51.86	23.86	51.21	
2025-01-13 08:22:52.06	23.88	51.30	
2025-01-13 08:22:52.26	23.90	51.38	
2025-01-13 08:22:52.47	23.92	51.46	
2025-01-13 08:22:52.68	23.94	51.55	
2025-01-13 08:22:52.88	23.96	51.63	
2025-01-13 08:22:53.09	23.98	51.72	
2025-01-13 08:22:53.30	24.01	51.80	
2025-01-13 08:22:53.51	24.03	51.89	
2025-01-13 08:22:53.71	24.05	51.97	
2025-01-13 08:22:53.92	24.07	52.06	
2025-01-13 08:22:54.12	24.10	52.14	
2025-01-13 08:22:54.33	24.12	52.23	
2025-01-13 08:22:54.53	24.14	52.32	
2025-01-13 08:22:54.74	24.16	52.40	
2025-01-13 08:22:54.94	24.19	52.49	
2025-01-13 08:22:55.15	24.21	52.57	
2025-01-13 08:22:55.35	24.23	52.66	
2025-01-13 08:22:55.56	24.25	52.75	
2025-01-13 08:22:55.77	24.28	52.84	
2025-01-13 08:22:55.97	24.30	52.92	
2025-01-13 08:22:56.18	24.33	53.01	
2025-01-13 08:22:56.38	24.35	53.09	
2025-01-13 08:22:56.59	24.37	53.18	
2025-01-13 08:22:56.79	24.40	53.27	
2025-01-13 08:22:57.00	24.42	53.36	
2025-01-13 08:22:57.21	24.45	53.45	
2025-01-13 08:22:57.41	24.47	53.53	
2025-01-13 08:22:57.62	24.49	53.62	
2025-01-13 08:22:57.82	24.52	53.71	
2025-01-13 08:22:58.03	24.54	53.80	
2025-01-13 08:22:58.23	24.57	53.88	
2025-01-13 08:22:58.44	24.59	53.97	
2025-01-13 08:22:58.64	24.62	54.06	
2025-01-13 08:22:58.85	24.64	54.15	
2025-01-13 08:22:59.05	24.67	54.24	
2025-01-13 08:22:59.26	24.70	54.33	
2025-01-13 08:22:59.46	24.72	54.42	
2025-01-13 08:22:59.67	24.75	54.51	
2025-01-13 08:22:59.87	24.77	54.60	
2025-01-13 08:23:00.08	24.80	54.69	
2025-01-13 08:23:00.28	24.83	54.77	
2025-01-13 08:23:00.49	24.85	54.87	
2025-01-13 08:23:00.69	24.88	54.95	
2025-01-13 08:23:00.90	24.91	55.05	
2025-01-13 08:23:01.10	24.93	55.14	
2025-01-13 08:23:01.31	24.96	55.23	
2025-01-13 08:23:01.51	24.99	55.32	
2025-01-13 08:23:01.72	25.02	55.41	
2025-01-13 08:23:01.92	25.04	55.50	
2025-01-13 08:23:02.13	25.07	55.59	
2025-01-13 08:23:02.33	25.10	55.68	
2025-01-13 08:23:02.54	25.13	55.77	
2025-01-13 08:23:02.74	25.16	55.86	
2025-01-13 08:23:02.96	25.19	55.96	
2025-01-13 08:23:03.17	25.22	56.06	
2025-01-13 08:23:03.38	25.25	56.15	
2025-01-13 08:23:03.58	25.28	56.24	
2025-01-13 08:23:03.79	25.31	56.34	
2025-01-13 08:23:03.99	25.34	56.43	
2025-01-13 08:23:04.20	25.37	56.52	
2025-01-13 08:23:04.40	25.40	56.61	
2025-01-13 08:23:04.61	25.43	56.71	
2025-01-13 08:23:04.82	25.46	56.80	
2025-01-13 08:23:05.02	25.49	56.89	
2025-01-13 08:23:05.23	25.52	56.99	
2025-01-13 08:23:05.44	25.55	57.09	
2025-01-13 08:23:05.64	25.58	57.18	
2025-01-13 08:23:05.85	25.61	57.27	
2025-01-13 08:23:06.05	25.65	57.37	
2025-01-13 08:23:06.26	25.68	57.46	
2025-01-13 08:23:06.47	25.71	57.56	
2025-01-13 08:23:06.67	25.74	57.65	
2025-01-13 08:23:06.88	25.78	57.75	
2025-01-13 08:23:07.08	25.81	57.84	
2025-01-13 08:23:07.29	25.84	57.94	
2025-01-13 08:23:07.49	25.88	58.03	
2025-01-13 08:23:07.70	25.91	58.13	
2025-01-13 08:23:07.90	25.94	58.22	
2025-01-13 08:23:08.11	25.98	58.32	
2025-01-13 08:23:08.31	26.01	58.41	
2025-01-13 08:23:08.52	26.05	58.51	
2025-01-13 08:23:08.72	26.08	58.60	
2025-01-13 08:23:08.93	26.12	58.70	
2025-01-13 08:23:09.14	26.15	58.80	
2025-01-13 08:23:09.35	26.19	58.90	
2025-01-13 08:23:09.56	26.23	59.00	
2025-01-13 08:23:09.76	26.26	59.09	
2025-01-13 08:23:09.97	26.30	59.19	
2025-01-13 08:23:10.17	26.33	59.29	
2025-01-13 08:23:10.39	26.37	59.39	
2025-01-13 08:23:10.60	26.41	59.49	
2025-01-13 08:23:10.81	26.45	59.59	
2025-01-13 08:23:11.02	26.49	59.69	
2025-01-13 08:23:11.23	26.53	59.79	
2025-01-13 08:23:11.43	26.57	59.89	
2025-01-13 08:23:11.63	26.60	59.99	
2025-01-13 08:23:11.84	26.64	60.09	
2025-01-13 08:23:12.04	26.68	60.18	
2025-01-13 08:23:12.25	26.72	60.28	
2025-01-13 08:23:12.45	26.76	60.38	
2025-01-13 08:23:12.66	26.80	60.48	
2025-01-13 08:23:12.86	26.84	60.58	
2025-01-13 08:23:13.06	26.88	60.67	
2025-01-13 08:23:13.27	26.92	60.78	
2025-01-13 08:23:13.48	26.96	60.88	
2025-01-13 08:23:13.68	27.01	60.98	
2025-01-13 08:23:13.89	27.05	61.08	
2025-01-13 08:23:14.09	27.09	61.18	
2025-01-13 08:23:14.30	27.13	61.28	
2025-01-13 08:23:14.50	27.18	61.38	
2025-01-13 08:23:14.71	27.22	61.48	
2025-01-13 08:23:14.91	27.26	61.58	
2025-01-13 08:23:15.12	27.31	61.68	
2025-01-13 08:23:15.32	27.35	61.78	
2025-01-13 08:23:15.53	27.40	61.88	
2025-01-13 08:23:15.73	27.44	61.98	
2025-01-13 08:23:15.94	27.49	62.08	
2025-01-13 08:23:16.14	27.53	62.18	
2025-01-13 08:23:16.35	27.58	62.29	
2025-01-13 08:23:16.56	27.63	62.39	
2025-01-13 08:23:16.76	27.67	62.49	
2025-01-13 08:23:16.97	27.72	62.60	
2025-01-13 08:23:17.17	27.77	62.70	
2025-01-13 08:23:17.38	27.82	62.80	
2025-01-13 08:23:17.58	27.87	62.90	
2025-01-13 08:23:17.79	27.92	63.01	
2025-01-13 08:23:17.99	27.96	63.11	
2025-01-13 08:23:18.20	28.02	63.21	
2025-01-13 08:23:18.40	28.06	63.31	
2025-01-13 08:23:18.61	28.12	63.42	
2025-01-13 08:23:18.81	28.17	63.52	
2025-01-13 08:23:19.01	28.22	63.62	
2025-01-13 08:23:19.22	28.27	63.73	
2025-01-13 08:23:19.42	28.32	63.83	
2025-01-13 08:23:19.63	28.38	63.93	
2025-01-13 08:23:19.84	28.43	64.04	
2025-01-13 08:23:20.04	28.48	64.14	
2025-01-13 08:23:20.24	28.54	64.24	
2025-01-13 08:23:20.45	28.59	64.35	
2025-01-13 08:23:20.66	28.65	64.46	
2025-01-13 08:23:20.86	28.70	64.56	
2025-01-13 08:23:21.07	28.76	64.67	
2025-01-13 08:23:21.27	28.82	64.77	
2025-01-13 08:23:21.48	28.88	64.88	
2025-01-13 08:23:21.68	28.93	64.98	
2025-01-13 08:23:21.89	28.99	65.09	
2025-01-13 08:23:22.09	29.05	65.19	
2025-01-13 08:23:22.30	29.11	65.30	
2025-01-13 08:23:22.50	29.17	65.40	
2025-01-13 08:23:22.71	29.23	65.51	
2025-01-13 08:23:22.91	29.29	65.61	
2025-01-13 08:23:23.12	29.36	65.72	
2025-01-13 08:23:23.32	29.42	65.82	
2025-01-13 08:23:23.53	29.48	65.93	
2025-01-13 08:23:23.73	29.55	66.04	
2025-01-13 08:23:23.94	29.61	66.15	
2025-01-13 08:23:24.15	29.68	66.25	
2025-01-13 08:23:24.35	29.74	66.36	
2025-01-13 08:23:24.56	29.81	66.47	
2025-01-13 08:23:24.76	29.88	66.57	
2025-01-13 08:23:24.97	29.95	66.68	
2025-01-13 08:23:25.17	30.01	66.79	
2025-01-13 08:23:25.38	30.08	66.90	
2025-01-13 08:23:25.58	30.15	67.00	
2025-01-13 08:23:25.79	30.22	67.11	
2025-01-13 08:23:25.99	30.29	67.22	
2025-01-13 08:23:26.20	30.37	67.33	
2025-01-13 08:23:26.40	30.44	67.43	
2025-01-13 08:23:26.61	30.51	67.54	
2025-01-13 08:23:26.81	30.58	67.65	
2025-01-13 08:23:27.02	30.66	67.76	
2025-01-13 08:23:27.23	30.74	67.87	
2025-01-13 08:23:27.43	30.81	67.98	
2025-01-13 08:23:27.64	30.89	68.09	
2025-01-13 08:23:27.84	30.97	68.19	
2025-01-13 08:23:28.05	31.05	68.30	
2025-01-13 08:23:28.25	31.13	68.41	
2025-01-13 08:23:28.46	31.21	68.52	
2025-01-13 08:23:28.66	31.29	68.63	
2025-01-13 08:23:28.87	31.38	68.74	
2025-01-13 08:23:29.07	31.46	68.85	
2025-01-13 08:23:29.28	31.54	68.96	
2025-01-13 08:23:29.48	31.63	69.07	
2025-01-13 08:23:29.69	31.72	69.18	
2025-01-13 08:23:29.89	31.80	69.28	
2025-01-13 08:23:30.10	31.89	69.40	
2025-01-13 08:23:30.30	31.98	69.50	
2025-01-13 08:23:30.50	32.07	69.61	
2025-01-13 08:23:30.71	32.16	69.72	
2025-01-13 08:23:30.92	32.26	69.84	
2025-01-13 08:23:31.12	32.35	69.94	
2025-01-13 08:23:31.33	32.44	70.06	
2025-01-13 08:23:31.53	32.54	70.16	
2025-01-13 08:23:31.74	32.64	70.28	
2025-01-13 08:23:31.94	32.73	70.39	
2025-01-13 08:23:32.15	32.83	70.50	
2025-01-13 08:23:32.35	32.93	70.61	
2025-01-13 08:23:32.56	33.04	70.72	
2025-01-13 08:23:32.76	33.14	70.83	
2025-01-13 08:23:32.96	33.24	70.94	
2025-01-13 08:23:33.17	33.35	71.05	
2025-01-13 08:23:33.38	33.46	71.16	
2025-01-13 08:23:33.58	33.56	71.27	
2025-01-13 08:23:33.79	33.67	71.38	
2025-01-13 08:23:33.99	33.78	71.49	
2025-01-13 08:23:34.20	33.90	71.61	
2025-01-13 08:23:34.40	34.01	71.72	
2025-01-13 08:23:34.61	34.13	71.83	
2025-01-13 08:23:34.81	34.24	71.94	
2025-01-13 08:23:35.02	34.36	72.05	
2025-01-13 08:23:35.22	34.48	72.16	
2025-01-13 08:23:35.44	34.61	72.28	
2025-01-13 08:23:35.64	34.73	72.39	
2025-01-13 08:23:35.85	34.86	72.50	
2025-01-13 08:23:36.05	34.98	72.61	
2025-01-13 08:23:36.25	35.11	72.72	
2025-01-13 08:23:36.46	35.24	72.84	
2025-01-13 08:23:36.67	35.37	72.95	
2025-01-13 08:23:36.87	35.50	73.06	
2025-01-13 08:23:37.07	35.64	73.17	
2025-01-13 08:23:37.28	35.78	73.28	
2025-01-13 08:23:37.49	35.92	73.40	
2025-01-13 08:23:37.69	36.06	73.51	
2025-01-13 08:23:37.90	36.20	73.62	
2025-01-13 08:23:38.10	36.35	73.73	
2025-01-13 08:23:38.31	36.50	73.84	
2025-01-13 08:23:38.51	36.64	73.95	
2025-01-13 08:23:38.72	36.80	74.07	
2025-01-13 08:23:38.92	36.95	74.18	
2025-01-13 08:23:39.13	37.11	74.29	
2025-01-13 08:23:39.33	37.26	74.40	
2025-01-13 08:23:39.54	37.43	74.52	
2025-01-13 08:23:39.74	37.59	74.62	
2025-01-13 08:23:39.95	37.76	74.74	
2025-01-13 08:23:40.15	37.92	74.85	
2025-01-13 08:23:40.36	38.09	74.96	
2025-01-13 08:23:40.56	38.26	75.07	
2025-01-13 08:23:40.77	38.44	75.19	
2025-01-13 08:23:40.98	38.63	75.30	
2025-01-13 08:23:41.18	38.81	75.41	
2025-01-13 08:23:41.40	39.00	75.53	
2025-01-13 08:23:41.60	39.19	75.64	
2025-01-13 08:23:41.81	39.38	75.75	
2025-01-13 08:23:42.01	39.57	75.86	
2025-01-13 08:23:42.22	39.77	75.97	
2025-01-13 08:23:42.43	39.98	76.09	
2025-01-13 08:23:42.64	40.19	76.20	
2025-01-13 08:23:42.84	40.39	76.31	
2025-01-13 08:23:43.05	40.61	76.42	
2025-01-13 08:23:43.25	40.82	76.53	
2025-01-13 08:23:43.46	41.04	76.65	
2025-01-13 08:23:43.66	41.26	76.75	
2025-01-13 08:23:43.87	41.49	76.87	
2025-01-13 08:23:44.08	41.72	76.98	
2025-01-13 08:23:44.28	41.95	77.09	
2025-01-13 08:23:44.49	42.20	77.20	
2025-01-13 08:23:44.69	42.43	77.31	
2025-01-13 08:23:44.90	42.68	77.42	
2025-01-13 08:23:45.10	42.93	77.53	
2025-01-13 08:23:45.30	43.18	77.63	
2025-01-13 08:23:45.51	43.44	77.75	
2025-01-13 08:23:45.71	43.70	77.85	
2025-01-13 08:23:45.92	43.98	77.97	
2025-01-13 08:23:46.13	44.26	78.08	
2025-01-13 08:23:46.33	44.53	78.18	
2025-01-13 08:23:46.54	44.83	78.29	
2025-01-13 08:23:46.74	45.11	78.40	
2025-01-13 08:23:46.95	45.41	78.51	
2025-01-13 08:23:47.15	45.71	78.62	
2025-01-13 08:23:47.36	46.03	78.73	
2025-01-13 08:23:47.56	46.33	78.83	
2025-01-13 08:23:47.77	46.66	78.94	
2025-01-13 08:23:47.97	46.98	79.04	
2025-01-13 08:23:48.18	47.32	79.15	
2025-01-13 08:23:48.39	47.67	79.26	
2025-01-13 08:23:48.59	48.01	79.37	
2025-01-13 08:23:48.80	48.37	79.47	
2025-01-13 08:23:49.00	48.72	79.58	
