passes_logs/2025/01/13/SPB_Silybum_02/SPB_Silybum_02__20250113_122611_SUOMI_NPP_rec.log

#Pass ID: 20250113_122611_SUOMI NPP
#Satellite: SUOMI NPP
#Configuration: NPP
#Start time: 2025-01-13 12:26:09

#Version: 2.0.20230423
#Station: SPB_Silybum_02
#Location: 30.233357 lon 59.946436 lat
#TLE: 1 37849U 11061A   25012.80531474  .00000146  00000+0  90276-4 0  9990
#TLE: 2 37849  98.7443 313.8217 0001772  44.3490 315.7828 14.19537186684607

#Time	Az	El	Level	Level2	SNR	BER	Gain	Gain2
2025-01-13 12:26:11.46	226.89	4.02	
2025-01-13 12:26:11.67	226.91	4.03	
2025-01-13 12:26:11.88	226.93	4.04	
2025-01-13 12:26:12.08	226.95	4.05	
2025-01-13 12:26:12.28	226.97	4.06	
2025-01-13 12:26:12.49	226.99	4.07	
2025-01-13 12:26:12.70	227.01	4.08	
2025-01-13 12:26:12.90	227.03	4.09	
2025-01-13 12:26:13.11	227.05	4.11	
2025-01-13 12:26:13.31	227.07	4.12	
2025-01-13 12:26:13.52	227.09	4.13	
2025-01-13 12:26:13.73	227.12	4.14	
2025-01-13 12:26:13.93	227.14	4.15	
2025-01-13 12:26:14.14	227.16	4.16	
2025-01-13 12:26:14.34	227.18	4.17	
2025-01-13 12:26:14.55	227.20	4.18	
2025-01-13 12:26:14.75	227.22	4.19	
2025-01-13 12:26:14.96	227.24	4.20	
2025-01-13 12:26:15.16	227.26	4.21	
2025-01-13 12:26:15.37	227.28	4.22	
2025-01-13 12:26:15.59	227.30	4.23	
2025-01-13 12:26:15.79	227.33	4.24	
2025-01-13 12:26:16.00	227.35	4.25	
2025-01-13 12:26:16.20	227.37	4.26	
2025-01-13 12:26:16.41	227.39	4.27	
2025-01-13 12:26:16.61	227.41	4.28	
2025-01-13 12:26:16.81	227.43	4.29	
2025-01-13 12:26:17.02	227.45	4.30	
2025-01-13 12:26:17.22	227.47	4.31	
2025-01-13 12:26:17.43	227.49	4.32	
2025-01-13 12:26:17.63	227.51	4.33	
2025-01-13 12:26:17.84	227.54	4.34	
2025-01-13 12:26:18.04	227.56	4.35	
2025-01-13 12:26:18.25	227.58	4.36	
2025-01-13 12:26:18.45	227.60	4.37	
2025-01-13 12:26:18.66	227.62	4.39	
2025-01-13 12:26:18.86	227.64	4.40	
2025-01-13 12:26:19.07	227.66	4.41	
2025-01-13 12:26:19.27	227.68	4.42	
2025-01-13 12:26:19.48	227.70	4.43	
2025-01-13 12:26:19.68	227.73	4.44	
2025-01-13 12:26:19.89	227.75	4.45	
2025-01-13 12:26:20.09	227.77	4.46	
2025-01-13 12:26:20.30	227.79	4.47	
2025-01-13 12:26:20.50	227.81	4.48	
2025-01-13 12:26:20.71	227.83	4.49	
2025-01-13 12:26:20.91	227.85	4.50	
2025-01-13 12:26:21.12	227.88	4.51	
2025-01-13 12:26:21.33	227.90	4.52	
2025-01-13 12:26:21.53	227.92	4.53	
2025-01-13 12:26:21.73	227.94	4.54	
2025-01-13 12:26:21.94	227.96	4.55	
2025-01-13 12:26:22.14	227.98	4.56	
2025-01-13 12:26:22.35	228.00	4.57	
2025-01-13 12:26:22.55	228.02	4.58	
2025-01-13 12:26:22.76	228.05	4.59	
2025-01-13 12:26:22.96	228.07	4.60	
2025-01-13 12:26:23.17	228.09	4.61	
2025-01-13 12:26:23.37	228.11	4.62	
2025-01-13 12:26:23.58	228.13	4.63	
2025-01-13 12:26:23.78	228.15	4.64	
2025-01-13 12:26:23.98	228.17	4.65	
2025-01-13 12:26:24.19	228.20	4.67	
2025-01-13 12:26:24.39	228.22	4.68	
2025-01-13 12:26:24.60	228.24	4.69	
2025-01-13 12:26:24.80	228.26	4.70	
2025-01-13 12:26:25.01	228.28	4.71	
2025-01-13 12:26:25.21	228.30	4.72	
2025-01-13 12:26:25.42	228.33	4.73	
2025-01-13 12:26:25.62	228.35	4.74	
2025-01-13 12:26:25.83	228.37	4.75	
2025-01-13 12:26:26.03	228.39	4.76	
2025-01-13 12:26:26.24	228.41	4.77	
2025-01-13 12:26:26.44	228.43	4.78	
2025-01-13 12:26:26.65	228.46	4.79	
2025-01-13 12:26:26.85	228.48	4.80	
2025-01-13 12:26:27.06	228.50	4.81	
2025-01-13 12:26:27.28	228.52	4.82	
2025-01-13 12:26:27.48	228.54	4.83	
2025-01-13 12:26:27.69	228.57	4.84	
2025-01-13 12:26:27.89	228.59	4.85	
2025-01-13 12:26:28.10	228.61	4.86	
2025-01-13 12:26:28.30	228.63	4.87	
2025-01-13 12:26:28.51	228.65	4.88	
2025-01-13 12:26:28.71	228.68	4.89	
2025-01-13 12:26:28.92	228.70	4.91	
2025-01-13 12:26:29.12	228.72	4.92	
2025-01-13 12:26:29.33	228.74	4.93	
2025-01-13 12:26:29.53	228.76	4.94	
2025-01-13 12:26:29.74	228.79	4.95	
2025-01-13 12:26:29.94	228.81	4.96	
2025-01-13 12:26:30.15	228.83	4.97	
2025-01-13 12:26:30.35	228.85	4.98	
2025-01-13 12:26:30.56	228.87	4.99	
2025-01-13 12:26:30.76	228.89	5.00	
2025-01-13 12:26:30.97	228.92	5.01	
2025-01-13 12:26:31.18	228.94	5.02	
2025-01-13 12:26:31.38	228.96	5.03	
2025-01-13 12:26:31.58	228.98	5.04	
2025-01-13 12:26:31.79	229.01	5.05	
2025-01-13 12:26:32.00	229.03	5.06	
2025-01-13 12:26:32.20	229.05	5.07	
2025-01-13 12:26:32.41	229.07	5.08	
2025-01-13 12:26:32.61	229.09	5.09	
2025-01-13 12:26:32.82	229.12	5.10	
2025-01-13 12:26:33.02	229.14	5.11	
2025-01-13 12:26:33.23	229.16	5.12	
2025-01-13 12:26:33.43	229.18	5.13	
2025-01-13 12:26:33.65	229.21	5.15	
2025-01-13 12:26:33.86	229.23	5.16	
2025-01-13 12:26:34.06	229.25	5.17	
2025-01-13 12:26:34.27	229.27	5.18	
2025-01-13 12:26:34.47	229.30	5.19	
2025-01-13 12:26:34.68	229.32	5.20	
2025-01-13 12:26:34.88	229.34	5.21	
2025-01-13 12:26:35.09	229.36	5.22	
2025-01-13 12:26:35.29	229.39	5.23	
2025-01-13 12:26:35.50	229.41	5.24	
2025-01-13 12:26:35.70	229.43	5.25	
2025-01-13 12:26:35.91	229.45	5.26	
2025-01-13 12:26:36.11	229.47	5.27	
2025-01-13 12:26:36.32	229.50	5.28	
2025-01-13 12:26:36.52	229.52	5.29	
2025-01-13 12:26:36.73	229.54	5.30	
2025-01-13 12:26:36.93	229.56	5.31	
2025-01-13 12:26:37.14	229.59	5.32	
2025-01-13 12:26:37.35	229.61	5.33	
2025-01-13 12:26:37.55	229.63	5.34	
2025-01-13 12:26:37.76	229.66	5.35	
2025-01-13 12:26:37.96	229.68	5.36	
2025-01-13 12:26:38.17	229.70	5.38	
2025-01-13 12:26:38.37	229.72	5.39	
2025-01-13 12:26:38.58	229.75	5.40	
2025-01-13 12:26:38.78	229.77	5.41	
2025-01-13 12:26:38.99	229.79	5.42	
2025-01-13 12:26:39.19	229.81	5.43	
2025-01-13 12:26:39.40	229.84	5.44	
2025-01-13 12:26:39.60	229.86	5.45	
2025-01-13 12:26:39.81	229.88	5.46	
2025-01-13 12:26:40.01	229.90	5.47	
2025-01-13 12:26:40.22	229.93	5.48	
2025-01-13 12:26:40.42	229.95	5.49	
2025-01-13 12:26:40.63	229.97	5.50	
2025-01-13 12:26:40.83	230.00	5.51	
2025-01-13 12:26:41.04	230.02	5.52	
2025-01-13 12:26:41.24	230.04	5.53	
2025-01-13 12:26:41.45	230.06	5.54	
2025-01-13 12:26:41.65	230.09	5.55	
2025-01-13 12:26:41.86	230.11	5.56	
2025-01-13 12:26:42.06	230.13	5.57	
2025-01-13 12:26:42.27	230.16	5.58	
2025-01-13 12:26:42.47	230.18	5.59	
2025-01-13 12:26:42.68	230.20	5.60	
2025-01-13 12:26:42.88	230.22	5.61	
2025-01-13 12:26:43.09	230.25	5.63	
2025-01-13 12:26:43.29	230.27	5.64	
2025-01-13 12:26:43.50	230.29	5.65	
2025-01-13 12:26:43.70	230.32	5.66	
2025-01-13 12:26:43.91	230.34	5.67	
2025-01-13 12:26:44.12	230.36	5.68	
2025-01-13 12:26:44.32	230.39	5.69	
2025-01-13 12:26:44.52	230.41	5.70	
2025-01-13 12:26:44.73	230.43	5.71	
2025-01-13 12:26:44.94	230.46	5.72	
2025-01-13 12:26:45.14	230.48	5.73	
2025-01-13 12:26:45.35	230.50	5.74	
2025-01-13 12:26:45.55	230.52	5.75	
2025-01-13 12:26:45.76	230.55	5.76	
2025-01-13 12:26:45.96	230.57	5.77	
2025-01-13 12:26:46.17	230.59	5.78	
2025-01-13 12:26:46.37	230.62	5.79	
2025-01-13 12:26:46.58	230.64	5.80	
2025-01-13 12:26:46.78	230.66	5.81	
2025-01-13 12:26:46.99	230.69	5.82	
2025-01-13 12:26:47.19	230.71	5.83	
2025-01-13 12:26:47.40	230.73	5.85	
2025-01-13 12:26:47.60	230.76	5.86	
2025-01-13 12:26:47.81	230.78	5.87	
2025-01-13 12:26:48.01	230.80	5.88	
2025-01-13 12:26:48.22	230.83	5.89	
2025-01-13 12:26:48.42	230.85	5.90	
2025-01-13 12:26:48.62	230.87	5.91	
2025-01-13 12:26:48.83	230.90	5.92	
2025-01-13 12:26:49.04	230.92	5.93	
2025-01-13 12:26:49.24	230.94	5.94	
2025-01-13 12:26:49.45	230.97	5.95	
2025-01-13 12:26:49.66	230.99	5.96	
2025-01-13 12:26:49.87	231.02	5.97	
2025-01-13 12:26:50.07	231.04	5.98	
2025-01-13 12:26:50.28	231.06	5.99	
2025-01-13 12:26:50.49	231.09	6.00	
2025-01-13 12:26:50.70	231.11	6.01	
2025-01-13 12:26:50.91	231.14	6.02	
2025-01-13 12:26:51.12	231.16	6.03	
2025-01-13 12:26:51.32	231.18	6.04	
2025-01-13 12:26:51.53	231.21	6.06	
2025-01-13 12:26:51.75	231.23	6.07	
2025-01-13 12:26:51.95	231.25	6.08	
2025-01-13 12:26:52.16	231.28	6.09	
2025-01-13 12:26:52.36	231.30	6.10	
2025-01-13 12:26:52.57	231.33	6.11	
2025-01-13 12:26:52.77	231.35	6.12	
2025-01-13 12:26:52.97	231.37	6.13	
2025-01-13 12:26:53.18	231.40	6.14	
2025-01-13 12:26:53.38	231.42	6.15	
2025-01-13 12:26:53.59	231.44	6.16	
2025-01-13 12:26:53.80	231.47	6.17	
2025-01-13 12:26:54.00	231.49	6.18	
2025-01-13 12:26:54.20	231.52	6.19	
2025-01-13 12:26:54.41	231.54	6.20	
2025-01-13 12:26:54.62	231.56	6.21	
2025-01-13 12:26:54.82	231.59	6.22	
2025-01-13 12:26:55.03	231.61	6.23	
2025-01-13 12:26:55.23	231.64	6.24	
2025-01-13 12:26:55.43	231.66	6.25	
2025-01-13 12:26:55.64	231.68	6.27	
2025-01-13 12:26:55.84	231.71	6.28	
2025-01-13 12:26:56.04	231.73	6.29	
2025-01-13 12:26:56.25	231.75	6.30	
2025-01-13 12:26:56.45	231.78	6.31	
2025-01-13 12:26:56.66	231.80	6.32	
2025-01-13 12:26:56.87	231.83	6.33	
2025-01-13 12:26:57.07	231.85	6.34	
2025-01-13 12:26:57.28	231.88	6.35	
2025-01-13 12:26:57.48	231.90	6.36	
2025-01-13 12:26:57.69	231.92	6.37	
2025-01-13 12:26:57.89	231.95	6.38	
2025-01-13 12:26:58.10	231.97	6.39	
2025-01-13 12:26:58.30	232.00	6.40	
2025-01-13 12:26:58.51	232.02	6.41	
2025-01-13 12:26:58.71	232.04	6.42	
2025-01-13 12:26:58.92	232.07	6.43	
2025-01-13 12:26:59.12	232.09	6.44	
2025-01-13 12:26:59.34	232.12	6.45	
2025-01-13 12:26:59.55	232.14	6.46	
2025-01-13 12:26:59.75	232.17	6.47	
2025-01-13 12:26:59.96	232.19	6.49	
2025-01-13 12:27:00.16	232.22	6.50	
2025-01-13 12:27:00.36	232.24	6.51	
2025-01-13 12:27:00.57	232.26	6.52	
2025-01-13 12:27:00.77	232.29	6.53	
2025-01-13 12:27:00.98	232.31	6.54	
2025-01-13 12:27:01.18	232.34	6.55	
2025-01-13 12:27:01.39	232.36	6.56	
2025-01-13 12:27:01.59	232.39	6.57	
2025-01-13 12:27:01.80	232.41	6.58	
2025-01-13 12:27:02.00	232.43	6.59	
2025-01-13 12:27:02.21	232.46	6.60	
2025-01-13 12:27:02.41	232.48	6.61	
2025-01-13 12:27:02.62	232.51	6.62	
2025-01-13 12:27:02.82	232.53	6.63	
2025-01-13 12:27:03.03	232.56	6.64	
2025-01-13 12:27:03.24	232.58	6.65	
2025-01-13 12:27:03.44	232.61	6.66	
2025-01-13 12:27:03.65	232.63	6.67	
2025-01-13 12:27:03.85	232.66	6.68	
2025-01-13 12:27:04.06	232.68	6.69	
2025-01-13 12:27:04.26	232.71	6.70	
2025-01-13 12:27:04.47	232.73	6.72	
2025-01-13 12:27:04.68	232.76	6.73	
2025-01-13 12:27:04.89	232.78	6.74	
2025-01-13 12:27:05.09	232.81	6.75	
2025-01-13 12:27:05.30	232.83	6.76	
2025-01-13 12:27:05.51	232.86	6.77	
2025-01-13 12:27:05.71	232.88	6.78	
2025-01-13 12:27:05.92	232.91	6.79	
2025-01-13 12:27:06.12	232.93	6.80	
2025-01-13 12:27:06.33	232.95	6.81	
2025-01-13 12:27:06.53	232.98	6.82	
2025-01-13 12:27:06.73	233.00	6.83	
2025-01-13 12:27:06.94	233.03	6.84	
2025-01-13 12:27:07.15	233.05	6.85	
2025-01-13 12:27:07.35	233.08	6.86	
2025-01-13 12:27:07.56	233.10	6.87	
2025-01-13 12:27:07.76	233.13	6.88	
2025-01-13 12:27:07.96	233.15	6.89	
2025-01-13 12:27:08.17	233.18	6.90	
2025-01-13 12:27:08.38	233.20	6.91	
2025-01-13 12:27:08.58	233.23	6.92	
2025-01-13 12:27:08.78	233.25	6.93	
2025-01-13 12:27:08.99	233.28	6.95	
2025-01-13 12:27:09.19	233.30	6.96	
2025-01-13 12:27:09.40	233.33	6.97	
2025-01-13 12:27:09.61	233.35	6.98	
2025-01-13 12:27:09.81	233.38	6.99	
2025-01-13 12:27:10.01	233.40	7.00	
2025-01-13 12:27:10.22	233.43	7.01	
2025-01-13 12:27:10.43	233.45	7.02	
2025-01-13 12:27:10.63	233.48	7.03	
2025-01-13 12:27:10.84	233.51	7.04	
2025-01-13 12:27:11.05	233.53	7.05	
2025-01-13 12:27:11.26	233.56	7.06	
2025-01-13 12:27:11.47	233.58	7.07	
2025-01-13 12:27:11.67	233.61	7.08	
2025-01-13 12:27:11.88	233.63	7.09	
2025-01-13 12:27:12.09	233.66	7.10	
2025-01-13 12:27:12.30	233.69	7.11	
2025-01-13 12:27:12.51	233.71	7.12	
2025-01-13 12:27:12.71	233.74	7.14	
2025-01-13 12:27:12.92	233.76	7.15	
2025-01-13 12:27:13.12	233.79	7.16	
2025-01-13 12:27:13.33	233.81	7.17	
2025-01-13 12:27:13.53	233.84	7.18	
2025-01-13 12:27:13.74	233.86	7.19	
2025-01-13 12:27:13.94	233.89	7.20	
2025-01-13 12:27:14.15	233.91	7.21	
2025-01-13 12:27:14.35	233.94	7.22	
2025-01-13 12:27:14.56	233.97	7.23	
2025-01-13 12:27:14.76	233.99	7.24	
2025-01-13 12:27:14.97	234.02	7.25	
2025-01-13 12:27:15.18	234.04	7.26	
2025-01-13 12:27:15.38	234.07	7.27	
2025-01-13 12:27:15.59	234.09	7.28	
2025-01-13 12:27:15.79	234.12	7.29	
2025-01-13 12:27:16.00	234.15	7.30	
2025-01-13 12:27:16.20	234.17	7.31	
2025-01-13 12:27:16.41	234.20	7.32	
2025-01-13 12:27:16.61	234.22	7.33	
2025-01-13 12:27:16.82	234.25	7.34	
2025-01-13 12:27:17.02	234.27	7.35	
2025-01-13 12:27:17.23	234.30	7.36	
2025-01-13 12:27:17.43	234.32	7.38	
2025-01-13 12:27:17.64	234.35	7.39	
2025-01-13 12:27:17.84	234.38	7.40	
2025-01-13 12:27:18.05	234.40	7.41	
2025-01-13 12:27:18.25	234.43	7.42	
2025-01-13 12:27:18.46	234.45	7.43	
2025-01-13 12:27:18.66	234.48	7.44	
2025-01-13 12:27:18.87	234.51	7.45	
2025-01-13 12:27:19.07	234.53	7.46	
2025-01-13 12:27:19.28	234.56	7.47	
2025-01-13 12:27:19.48	234.58	7.48	
2025-01-13 12:27:19.69	234.61	7.49	
2025-01-13 12:27:19.89	234.64	7.50	
2025-01-13 12:27:20.10	234.66	7.51	
2025-01-13 12:27:20.31	234.69	7.52	
2025-01-13 12:27:20.51	234.71	7.53	
2025-01-13 12:27:20.72	234.74	7.54	
2025-01-13 12:27:20.92	234.77	7.55	
2025-01-13 12:27:21.13	234.79	7.56	
2025-01-13 12:27:21.33	234.82	7.57	
2025-01-13 12:27:21.54	234.85	7.58	
2025-01-13 12:27:21.74	234.87	7.59	
2025-01-13 12:27:21.95	234.90	7.60	
2025-01-13 12:27:22.15	234.92	7.61	
2025-01-13 12:27:22.36	234.95	7.63	
2025-01-13 12:27:22.56	234.98	7.64	
2025-01-13 12:27:22.77	235.00	7.65	
2025-01-13 12:27:22.97	235.03	7.66	
2025-01-13 12:27:23.18	235.05	7.67	
2025-01-13 12:27:23.38	235.08	7.68	
2025-01-13 12:27:23.59	235.11	7.69	
2025-01-13 12:27:23.81	235.14	7.70	
2025-01-13 12:27:24.01	235.16	7.71	
2025-01-13 12:27:24.22	235.19	7.72	
2025-01-13 12:27:24.42	235.21	7.73	
2025-01-13 12:27:24.63	235.24	7.74	
2025-01-13 12:27:24.83	235.27	7.75	
2025-01-13 12:27:25.04	235.29	7.76	
2025-01-13 12:27:25.25	235.32	7.77	
2025-01-13 12:27:25.45	235.35	7.78	
2025-01-13 12:27:25.66	235.37	7.79	
2025-01-13 12:27:25.86	235.40	7.80	
2025-01-13 12:27:26.07	235.43	7.81	
2025-01-13 12:27:26.27	235.45	7.82	
2025-01-13 12:27:26.48	235.48	7.83	
2025-01-13 12:27:26.68	235.51	7.84	
2025-01-13 12:27:26.89	235.53	7.86	
2025-01-13 12:27:27.09	235.56	7.87	
2025-01-13 12:27:27.30	235.59	7.88	
2025-01-13 12:27:27.50	235.61	7.89	
2025-01-13 12:27:27.71	235.64	7.90	
2025-01-13 12:27:27.91	235.67	7.91	
2025-01-13 12:27:28.12	235.69	7.92	
2025-01-13 12:27:28.33	235.72	7.93	
2025-01-13 12:27:28.54	235.75	7.94	
2025-01-13 12:27:28.74	235.77	7.95	
2025-01-13 12:27:28.94	235.80	7.96	
2025-01-13 12:27:29.15	235.83	7.97	
2025-01-13 12:27:29.35	235.85	7.98	
2025-01-13 12:27:29.57	235.88	7.99	
2025-01-13 12:27:29.77	235.91	8.00	
2025-01-13 12:27:29.98	235.94	8.01	
2025-01-13 12:27:30.18	235.96	8.02	
2025-01-13 12:27:30.39	235.99	8.03	
2025-01-13 12:27:30.59	236.02	8.04	
2025-01-13 12:27:30.80	236.04	8.05	
2025-01-13 12:27:31.00	236.07	8.06	
2025-01-13 12:27:31.21	236.10	8.07	
2025-01-13 12:27:31.41	236.12	8.08	
2025-01-13 12:27:31.62	236.15	8.09	
2025-01-13 12:27:31.82	236.18	8.10	
2025-01-13 12:27:32.03	236.21	8.12	
2025-01-13 12:27:32.24	236.23	8.13	
2025-01-13 12:27:32.45	236.26	8.14	
2025-01-13 12:27:32.66	236.29	8.15	
2025-01-13 12:27:32.86	236.32	8.16	
2025-01-13 12:27:33.07	236.34	8.17	
2025-01-13 12:27:33.27	236.37	8.18	
2025-01-13 12:27:33.48	236.40	8.19	
2025-01-13 12:27:33.68	236.42	8.20	
2025-01-13 12:27:33.89	236.45	8.21	
2025-01-13 12:27:34.09	236.48	8.22	
2025-01-13 12:27:34.30	236.51	8.23	
2025-01-13 12:27:34.50	236.53	8.24	
2025-01-13 12:27:34.71	236.56	8.25	
2025-01-13 12:27:34.91	236.59	8.26	
2025-01-13 12:27:35.12	236.62	8.27	
2025-01-13 12:27:35.32	236.64	8.28	
2025-01-13 12:27:35.53	236.67	8.29	
2025-01-13 12:27:35.74	236.70	8.30	
2025-01-13 12:27:35.94	236.73	8.31	
2025-01-13 12:27:36.15	236.75	8.32	
2025-01-13 12:27:36.35	236.78	8.33	
2025-01-13 12:27:36.56	236.81	8.34	
2025-01-13 12:27:36.76	236.84	8.35	
2025-01-13 12:27:36.98	236.87	8.37	
2025-01-13 12:27:37.18	236.89	8.38	
2025-01-13 12:27:37.39	236.92	8.39	
2025-01-13 12:27:37.59	236.95	8.40	
2025-01-13 12:27:37.80	236.98	8.41	
2025-01-13 12:27:38.00	237.00	8.42	
2025-01-13 12:27:38.21	237.03	8.43	
2025-01-13 12:27:38.41	237.06	8.44	
2025-01-13 12:27:38.62	237.09	8.45	
2025-01-13 12:27:38.82	237.11	8.46	
2025-01-13 12:27:39.03	237.14	8.47	
2025-01-13 12:27:39.24	237.17	8.48	
2025-01-13 12:27:39.44	237.20	8.49	
2025-01-13 12:27:39.65	237.23	8.50	
2025-01-13 12:27:39.85	237.25	8.51	
2025-01-13 12:27:40.07	237.28	8.52	
2025-01-13 12:27:40.28	237.31	8.53	
2025-01-13 12:27:40.48	237.34	8.54	
2025-01-13 12:27:40.69	237.37	8.55	
2025-01-13 12:27:40.89	237.39	8.56	
2025-01-13 12:27:41.10	237.42	8.57	
2025-01-13 12:27:41.30	237.45	8.58	
2025-01-13 12:27:41.51	237.48	8.59	
2025-01-13 12:27:41.71	237.51	8.60	
2025-01-13 12:27:41.93	237.54	8.61	
2025-01-13 12:27:42.13	237.56	8.62	
2025-01-13 12:27:42.34	237.59	8.63	
2025-01-13 12:27:42.54	237.62	8.64	
2025-01-13 12:27:42.75	237.65	8.66	
2025-01-13 12:27:42.95	237.67	8.67	
2025-01-13 12:27:43.16	237.70	8.68	
2025-01-13 12:27:43.36	237.73	8.69	
2025-01-13 12:27:43.57	237.76	8.70	
2025-01-13 12:27:43.77	237.79	8.71	
2025-01-13 12:27:43.99	237.82	8.72	
2025-01-13 12:27:44.20	237.85	8.73	
2025-01-13 12:27:44.40	237.87	8.74	
2025-01-13 12:27:44.61	237.90	8.75	
2025-01-13 12:27:44.81	237.93	8.76	
2025-01-13 12:27:45.01	237.96	8.77	
2025-01-13 12:27:45.22	237.99	8.78	
2025-01-13 12:27:45.42	238.01	8.79	
2025-01-13 12:27:45.63	238.04	8.80	
2025-01-13 12:27:45.83	238.07	8.81	
2025-01-13 12:27:46.04	238.10	8.82	
2025-01-13 12:27:46.24	238.13	8.83	
2025-01-13 12:27:46.45	238.16	8.84	
2025-01-13 12:27:46.65	238.18	8.85	
2025-01-13 12:27:46.86	238.21	8.86	
2025-01-13 12:27:47.06	238.24	8.87	
2025-01-13 12:27:47.27	238.27	8.88	
2025-01-13 12:27:47.47	238.30	8.89	
2025-01-13 12:27:47.68	238.33	8.90	
2025-01-13 12:27:47.88	238.36	8.91	
2025-01-13 12:27:48.09	238.38	8.92	
2025-01-13 12:27:48.29	238.41	8.93	
2025-01-13 12:27:48.50	238.44	8.94	
2025-01-13 12:27:48.70	238.47	8.95	
2025-01-13 12:27:48.91	238.50	8.96	
2025-01-13 12:27:49.12	238.53	8.97	
2025-01-13 12:27:49.32	238.56	8.98	
2025-01-13 12:27:49.52	238.58	8.99	
2025-01-13 12:27:49.73	238.61	9.00	
2025-01-13 12:27:49.93	238.64	9.01	
2025-01-13 12:27:50.14	238.67	9.02	
2025-01-13 12:27:50.34	238.70	9.03	
2025-01-13 12:27:50.55	238.73	9.05	
2025-01-13 12:27:50.75	238.76	9.06	
2025-01-13 12:27:50.96	238.79	9.07	
2025-01-13 12:27:51.16	238.81	9.08	
2025-01-13 12:27:51.37	238.84	9.09	
2025-01-13 12:27:51.57	238.87	9.10	
2025-01-13 12:27:51.78	238.90	9.11	
2025-01-13 12:27:51.98	238.93	9.12	
2025-01-13 12:27:52.19	238.96	9.13	
2025-01-13 12:27:52.40	238.99	9.14	
2025-01-13 12:27:52.60	239.02	9.15	
2025-01-13 12:27:52.81	239.05	9.16	
2025-01-13 12:27:53.01	239.08	9.17	
2025-01-13 12:27:53.22	239.11	9.18	
2025-01-13 12:27:53.42	239.13	9.19	
2025-01-13 12:27:53.63	239.16	9.20	
2025-01-13 12:27:53.83	239.19	9.21	
2025-01-13 12:27:54.04	239.22	9.22	
2025-01-13 12:27:54.24	239.25	9.23	
2025-01-13 12:27:54.45	239.28	9.24	
2025-01-13 12:27:54.65	239.31	9.25	
2025-01-13 12:27:54.85	239.34	9.26	
2025-01-13 12:27:55.06	239.37	9.27	
2025-01-13 12:27:55.26	239.40	9.28	
2025-01-13 12:27:55.47	239.43	9.29	
2025-01-13 12:27:55.67	239.45	9.30	
2025-01-13 12:27:55.88	239.48	9.31	
2025-01-13 12:27:56.08	239.51	9.32	
2025-01-13 12:27:56.29	239.54	9.33	
2025-01-13 12:27:56.49	239.57	9.34	
2025-01-13 12:27:56.69	239.60	9.35	
2025-01-13 12:27:56.90	239.63	9.36	
2025-01-13 12:27:57.11	239.66	9.37	
2025-01-13 12:27:57.31	239.69	9.38	
2025-01-13 12:27:57.52	239.72	9.39	
2025-01-13 12:27:57.72	239.75	9.40	
2025-01-13 12:27:57.93	239.78	9.41	
2025-01-13 12:27:58.13	239.81	9.42	
2025-01-13 12:27:58.33	239.84	9.43	
2025-01-13 12:27:58.54	239.87	9.44	
2025-01-13 12:27:58.75	239.90	9.45	
2025-01-13 12:27:58.95	239.92	9.46	
2025-01-13 12:27:59.16	239.95	9.47	
2025-01-13 12:27:59.36	239.98	9.48	
2025-01-13 12:27:59.57	240.01	9.49	
2025-01-13 12:27:59.77	240.04	9.50	
2025-01-13 12:27:59.98	240.07	9.51	
2025-01-13 12:28:00.18	240.10	9.52	
2025-01-13 12:28:00.39	240.13	9.53	
2025-01-13 12:28:00.59	240.16	9.54	
2025-01-13 12:28:00.80	240.19	9.55	
2025-01-13 12:28:01.00	240.22	9.56	
2025-01-13 12:28:01.21	240.25	9.57	
2025-01-13 12:28:01.41	240.28	9.58	
2025-01-13 12:28:01.62	240.31	9.59	
2025-01-13 12:28:01.82	240.34	9.60	
2025-01-13 12:28:02.03	240.37	9.61	
2025-01-13 12:28:02.23	240.40	9.62	
2025-01-13 12:28:02.44	240.43	9.63	
2025-01-13 12:28:02.64	240.46	9.64	
2025-01-13 12:28:02.85	240.49	9.65	
2025-01-13 12:28:03.05	240.52	9.66	
2025-01-13 12:28:03.26	240.55	9.67	
2025-01-13 12:28:03.46	240.58	9.68	
2025-01-13 12:28:03.67	240.61	9.69	
2025-01-13 12:28:03.87	240.64	9.70	
2025-01-13 12:28:04.08	240.67	9.71	
2025-01-13 12:28:04.28	240.70	9.72	
2025-01-13 12:28:04.49	240.73	9.73	
2025-01-13 12:28:04.69	240.76	9.74	
2025-01-13 12:28:04.90	240.79	9.75	
2025-01-13 12:28:05.10	240.82	9.76	
2025-01-13 12:28:05.31	240.85	9.77	
2025-01-13 12:28:05.51	240.88	9.78	
2025-01-13 12:28:05.72	240.91	9.79	
2025-01-13 12:28:05.92	240.94	9.80	
2025-01-13 12:28:06.13	240.97	9.81	
2025-01-13 12:28:06.34	241.00	9.82	
2025-01-13 12:28:06.54	241.03	9.83	
2025-01-13 12:28:06.75	241.06	9.84	
2025-01-13 12:28:06.95	241.09	9.85	
2025-01-13 12:28:07.16	241.13	9.86	
2025-01-13 12:28:07.36	241.16	9.87	
2025-01-13 12:28:07.56	241.18	9.88	
2025-01-13 12:28:07.77	241.22	9.89	
2025-01-13 12:28:07.98	241.25	9.90	
2025-01-13 12:28:08.18	241.28	9.91	
2025-01-13 12:28:08.39	241.31	9.92	
2025-01-13 12:28:08.59	241.34	9.93	
2025-01-13 12:28:08.80	241.37	9.94	
2025-01-13 12:28:09.00	241.40	9.95	
2025-01-13 12:28:09.21	241.43	9.96	
2025-01-13 12:28:09.41	241.46	9.97	
2025-01-13 12:28:09.61	241.49	9.98	
2025-01-13 12:28:09.82	241.52	9.99	
2025-01-13 12:28:10.02	241.55	10.00	
2025-01-13 12:28:10.23	241.58	10.01	
2025-01-13 12:28:10.43	241.61	10.02	
2025-01-13 12:28:10.64	241.64	10.03	
2025-01-13 12:28:10.84	241.67	10.04	
2025-01-13 12:28:11.04	241.70	10.05	
2025-01-13 12:28:11.25	241.74	10.06	
2025-01-13 12:28:11.45	241.77	10.07	
2025-01-13 12:28:11.66	241.80	10.08	
2025-01-13 12:28:11.87	241.83	10.09	
2025-01-13 12:28:12.07	241.86	10.10	
2025-01-13 12:28:12.28	241.89	10.11	
2025-01-13 12:28:12.48	241.92	10.12	
2025-01-13 12:28:12.69	241.95	10.13	
2025-01-13 12:28:12.89	241.98	10.14	
2025-01-13 12:28:13.10	242.01	10.15	
2025-01-13 12:28:13.30	242.04	10.16	
2025-01-13 12:28:13.51	242.08	10.17	
2025-01-13 12:28:13.71	242.11	10.18	
2025-01-13 12:28:13.92	242.14	10.19	
2025-01-13 12:28:14.12	242.17	10.20	
2025-01-13 12:28:14.33	242.20	10.21	
2025-01-13 12:28:14.53	242.23	10.22	
2025-01-13 12:28:14.74	242.26	10.23	
2025-01-13 12:28:14.94	242.29	10.24	
2025-01-13 12:28:15.14	242.32	10.25	
2025-01-13 12:28:15.35	242.36	10.26	
2025-01-13 12:28:15.56	242.39	10.27	
2025-01-13 12:28:15.76	242.42	10.28	
2025-01-13 12:28:15.97	242.45	10.29	
2025-01-13 12:28:16.17	242.48	10.30	
2025-01-13 12:28:16.38	242.51	10.31	
2025-01-13 12:28:16.58	242.54	10.32	
2025-01-13 12:28:16.79	242.58	10.33	
2025-01-13 12:28:16.99	242.61	10.34	
2025-01-13 12:28:17.20	242.64	10.35	
2025-01-13 12:28:17.40	242.67	10.36	
2025-01-13 12:28:17.61	242.70	10.37	
2025-01-13 12:28:17.82	242.73	10.38	
2025-01-13 12:28:18.02	242.76	10.39	
2025-01-13 12:28:18.23	242.80	10.40	
2025-01-13 12:28:18.43	242.83	10.41	
2025-01-13 12:28:18.64	242.86	10.42	
2025-01-13 12:28:18.84	242.89	10.43	
2025-01-13 12:28:19.05	242.92	10.44	
2025-01-13 12:28:19.25	242.95	10.45	
2025-01-13 12:28:19.45	242.98	10.46	
2025-01-13 12:28:19.66	243.02	10.47	
2025-01-13 12:28:19.86	243.05	10.48	
2025-01-13 12:28:20.07	243.08	10.49	
2025-01-13 12:28:20.27	243.11	10.50	
2025-01-13 12:28:20.48	243.14	10.51	
2025-01-13 12:28:20.68	243.17	10.52	
2025-01-13 12:28:20.89	243.21	10.53	
2025-01-13 12:28:21.10	243.24	10.54	
2025-01-13 12:28:21.30	243.27	10.55	
2025-01-13 12:28:21.50	243.30	10.56	
2025-01-13 12:28:21.71	243.33	10.57	
2025-01-13 12:28:21.92	243.37	10.58	
2025-01-13 12:28:22.12	243.40	10.59	
2025-01-13 12:28:22.33	243.43	10.60	
2025-01-13 12:28:22.55	243.46	10.61	
2025-01-13 12:28:22.75	243.50	10.62	
2025-01-13 12:28:22.96	243.53	10.63	
2025-01-13 12:28:23.16	243.56	10.64	
2025-01-13 12:28:23.37	243.59	10.65	
2025-01-13 12:28:23.57	243.62	10.66	
2025-01-13 12:28:23.78	243.66	10.67	
2025-01-13 12:28:23.98	243.69	10.67	
2025-01-13 12:28:24.19	243.72	10.68	
2025-01-13 12:28:24.40	243.75	10.69	
2025-01-13 12:28:24.60	243.78	10.70	
2025-01-13 12:28:24.80	243.82	10.71	
2025-01-13 12:28:25.01	243.85	10.72	
2025-01-13 12:28:25.22	243.88	10.73	
2025-01-13 12:28:25.42	243.91	10.74	
2025-01-13 12:28:25.62	243.94	10.75	
2025-01-13 12:28:25.83	243.98	10.76	
2025-01-13 12:28:26.04	244.01	10.77	
2025-01-13 12:28:26.24	244.04	10.78	
2025-01-13 12:28:26.45	244.07	10.79	
2025-01-13 12:28:26.65	244.11	10.80	
2025-01-13 12:28:26.86	244.14	10.81	
2025-01-13 12:28:27.06	244.17	10.82	
2025-01-13 12:28:27.27	244.20	10.83	
2025-01-13 12:28:27.47	244.24	10.84	
2025-01-13 12:28:27.68	244.27	10.85	
2025-01-13 12:28:27.88	244.30	10.86	
2025-01-13 12:28:28.09	244.33	10.87	
2025-01-13 12:28:28.29	244.37	10.88	
2025-01-13 12:28:28.50	244.40	10.89	
2025-01-13 12:28:28.70	244.43	10.90	
2025-01-13 12:28:28.91	244.46	10.91	
2025-01-13 12:28:29.11	244.50	10.92	
2025-01-13 12:28:29.32	244.53	10.93	
2025-01-13 12:28:29.52	244.56	10.94	
2025-01-13 12:28:29.73	244.59	10.95	
2025-01-13 12:28:29.93	244.63	10.95	
2025-01-13 12:28:30.13	244.66	10.96	
2025-01-13 12:28:30.34	244.69	10.97	
2025-01-13 12:28:30.55	244.73	10.98	
2025-01-13 12:28:30.75	244.76	10.99	
2025-01-13 12:28:30.96	244.79	11.00	
2025-01-13 12:28:31.16	244.82	11.01	
2025-01-13 12:28:31.37	244.86	11.02	
2025-01-13 12:28:31.58	244.89	11.03	
2025-01-13 12:28:31.78	244.92	11.04	
2025-01-13 12:28:31.99	244.96	11.05	
2025-01-13 12:28:32.19	244.99	11.06	
2025-01-13 12:28:32.40	245.02	11.07	
2025-01-13 12:28:32.60	245.05	11.08	
2025-01-13 12:28:32.81	245.09	11.09	
2025-01-13 12:28:33.01	245.12	11.10	
2025-01-13 12:28:33.22	245.15	11.11	
2025-01-13 12:28:33.44	245.19	11.12	
2025-01-13 12:28:33.64	245.22	11.13	
2025-01-13 12:28:33.85	245.25	11.14	
2025-01-13 12:28:34.05	245.29	11.15	
2025-01-13 12:28:34.26	245.32	11.16	
2025-01-13 12:28:34.46	245.35	11.17	
2025-01-13 12:28:34.67	245.39	11.18	
2025-01-13 12:28:34.87	245.42	11.18	
2025-01-13 12:28:35.08	245.45	11.19	
2025-01-13 12:28:35.28	245.49	11.20	
2025-01-13 12:28:35.49	245.52	11.21	
2025-01-13 12:28:35.70	245.55	11.22	
2025-01-13 12:28:35.90	245.59	11.23	
2025-01-13 12:28:36.11	245.62	11.24	
2025-01-13 12:28:36.31	245.65	11.25	
2025-01-13 12:28:36.52	245.69	11.26	
2025-01-13 12:28:36.72	245.72	11.27	
2025-01-13 12:28:36.93	245.75	11.28	
2025-01-13 12:28:37.13	245.79	11.29	
2025-01-13 12:28:37.33	245.82	11.30	
2025-01-13 12:28:37.54	245.85	11.31	
2025-01-13 12:28:37.74	245.89	11.32	
2025-01-13 12:28:37.95	245.92	11.33	
2025-01-13 12:28:38.15	245.95	11.34	
2025-01-13 12:28:38.36	245.99	11.35	
2025-01-13 12:28:38.56	246.02	11.35	
2025-01-13 12:28:38.77	246.05	11.36	
2025-01-13 12:28:38.97	246.09	11.37	
2025-01-13 12:28:39.18	246.12	11.38	
2025-01-13 12:28:39.38	246.15	11.39	
2025-01-13 12:28:39.59	246.19	11.40	
2025-01-13 12:28:39.79	246.22	11.41	
2025-01-13 12:28:40.00	246.26	11.42	
2025-01-13 12:28:40.20	246.29	11.43	
2025-01-13 12:28:40.41	246.32	11.44	
2025-01-13 12:28:40.61	246.36	11.45	
2025-01-13 12:28:40.82	246.39	11.46	
2025-01-13 12:28:41.02	246.42	11.47	
2025-01-13 12:28:41.23	246.46	11.48	
2025-01-13 12:28:41.43	246.49	11.49	
2025-01-13 12:28:41.64	246.53	11.50	
2025-01-13 12:28:41.84	246.56	11.50	
2025-01-13 12:28:42.05	246.59	11.51	
2025-01-13 12:28:42.25	246.63	11.52	
2025-01-13 12:28:42.46	246.66	11.53	
2025-01-13 12:28:42.66	246.69	11.54	
2025-01-13 12:28:42.87	246.73	11.55	
2025-01-13 12:28:43.07	246.76	11.56	
2025-01-13 12:28:43.28	246.80	11.57	
2025-01-13 12:28:43.48	246.83	11.58	
2025-01-13 12:28:43.69	246.86	11.59	
2025-01-13 12:28:43.89	246.90	11.60	
2025-01-13 12:28:44.10	246.93	11.61	
2025-01-13 12:28:44.30	246.97	11.62	
2025-01-13 12:28:44.51	247.00	11.63	
2025-01-13 12:28:44.71	247.03	11.63	
2025-01-13 12:28:44.93	247.07	11.64	
2025-01-13 12:28:45.13	247.10	11.65	
2025-01-13 12:28:45.34	247.14	11.66	
2025-01-13 12:28:45.55	247.17	11.67	
2025-01-13 12:28:45.75	247.21	11.68	
2025-01-13 12:28:45.95	247.24	11.69	
2025-01-13 12:28:46.16	247.28	11.70	
2025-01-13 12:28:46.37	247.31	11.71	
2025-01-13 12:28:46.57	247.35	11.72	
2025-01-13 12:28:46.78	247.38	11.73	
2025-01-13 12:28:46.98	247.41	11.74	
2025-01-13 12:28:47.19	247.45	11.75	
2025-01-13 12:28:47.39	247.48	11.75	
2025-01-13 12:28:47.60	247.52	11.76	
2025-01-13 12:28:47.80	247.55	11.77	
2025-01-13 12:28:48.01	247.59	11.78	
2025-01-13 12:28:48.21	247.62	11.79	
2025-01-13 12:28:48.42	247.66	11.80	
2025-01-13 12:28:48.62	247.69	11.81	
2025-01-13 12:28:48.83	247.73	11.82	
2025-01-13 12:28:49.03	247.76	11.83	
2025-01-13 12:28:49.24	247.79	11.84	
2025-01-13 12:28:49.44	247.83	11.85	
2025-01-13 12:28:49.65	247.86	11.85	
2025-01-13 12:28:49.86	247.90	11.86	
2025-01-13 12:28:50.06	247.93	11.87	
2025-01-13 12:28:50.27	247.97	11.88	
2025-01-13 12:28:50.47	248.00	11.89	
2025-01-13 12:28:50.68	248.04	11.90	
2025-01-13 12:28:50.88	248.07	11.91	
2025-01-13 12:28:51.09	248.11	11.92	
2025-01-13 12:28:51.31	248.14	11.93	
2025-01-13 12:28:51.51	248.18	11.94	
2025-01-13 12:28:51.72	248.21	11.95	
2025-01-13 12:28:51.92	248.25	11.96	
2025-01-13 12:28:52.13	248.28	11.96	
2025-01-13 12:28:52.33	248.32	11.97	
2025-01-13 12:28:52.53	248.35	11.98	
2025-01-13 12:28:52.74	248.39	11.99	
2025-01-13 12:28:52.95	248.42	12.00	
2025-01-13 12:28:53.15	248.46	12.01	
2025-01-13 12:28:53.35	248.49	12.02	
2025-01-13 12:28:53.56	248.53	12.03	
2025-01-13 12:28:53.77	248.56	12.04	
2025-01-13 12:28:53.97	248.60	12.05	
2025-01-13 12:28:54.18	248.63	12.05	
2025-01-13 12:28:54.38	248.67	12.06	
2025-01-13 12:28:54.59	248.70	12.07	
2025-01-13 12:28:54.79	248.74	12.08	
2025-01-13 12:28:55.00	248.77	12.09	
2025-01-13 12:28:55.21	248.81	12.10	
2025-01-13 12:28:55.42	248.85	12.11	
2025-01-13 12:28:55.62	248.88	12.12	
2025-01-13 12:28:55.83	248.92	12.13	
2025-01-13 12:28:56.03	248.95	12.13	
2025-01-13 12:28:56.24	248.99	12.14	
2025-01-13 12:28:56.45	249.02	12.15	
2025-01-13 12:28:56.65	249.06	12.16	
2025-01-13 12:28:56.85	249.09	12.17	
2025-01-13 12:28:57.06	249.13	12.18	
2025-01-13 12:28:57.26	249.16	12.19	
2025-01-13 12:28:57.47	249.20	12.20	
2025-01-13 12:28:57.67	249.23	12.21	
2025-01-13 12:28:57.88	249.27	12.21	
2025-01-13 12:28:58.09	249.31	12.22	
2025-01-13 12:28:58.29	249.34	12.23	
2025-01-13 12:28:58.50	249.38	12.24	
2025-01-13 12:28:58.70	249.41	12.25	
2025-01-13 12:28:58.91	249.45	12.26	
2025-01-13 12:28:59.11	249.48	12.27	
2025-01-13 12:28:59.32	249.52	12.28	
2025-01-13 12:28:59.52	249.56	12.29	
2025-01-13 12:28:59.73	249.59	12.29	
2025-01-13 12:28:59.93	249.63	12.30	
2025-01-13 12:29:00.13	249.66	12.31	
2025-01-13 12:29:00.34	249.70	12.32	
2025-01-13 12:29:00.54	249.73	12.33	
2025-01-13 12:29:00.75	249.77	12.34	
2025-01-13 12:29:00.97	249.81	12.35	
2025-01-13 12:29:01.17	249.84	12.36	
2025-01-13 12:29:01.38	249.88	12.36	
2025-01-13 12:29:01.58	249.91	12.37	
2025-01-13 12:29:01.79	249.95	12.38	
2025-01-13 12:29:01.99	249.99	12.39	
2025-01-13 12:29:02.19	250.02	12.40	
2025-01-13 12:29:02.40	250.06	12.41	
2025-01-13 12:29:02.60	250.09	12.42	
2025-01-13 12:29:02.81	250.13	12.43	
2025-01-13 12:29:03.02	250.17	12.43	
2025-01-13 12:29:03.22	250.20	12.44	
2025-01-13 12:29:03.43	250.24	12.45	
2025-01-13 12:29:03.63	250.27	12.46	
2025-01-13 12:29:03.84	250.31	12.47	
2025-01-13 12:29:04.04	250.35	12.48	
2025-01-13 12:29:04.25	250.38	12.49	
2025-01-13 12:29:04.45	250.42	12.49	
2025-01-13 12:29:04.66	250.46	12.50	
2025-01-13 12:29:04.86	250.49	12.51	
2025-01-13 12:29:05.07	250.53	12.52	
2025-01-13 12:29:05.27	250.56	12.53	
2025-01-13 12:29:05.48	250.60	12.54	
2025-01-13 12:29:05.68	250.64	12.55	
2025-01-13 12:29:05.89	250.67	12.55	
2025-01-13 12:29:06.09	250.71	12.56	
2025-01-13 12:29:06.30	250.75	12.57	
2025-01-13 12:29:06.50	250.78	12.58	
2025-01-13 12:29:06.71	250.82	12.59	
2025-01-13 12:29:06.91	250.85	12.60	
2025-01-13 12:29:07.12	250.89	12.61	
2025-01-13 12:29:07.32	250.93	12.61	
2025-01-13 12:29:07.53	250.96	12.62	
2025-01-13 12:29:07.73	251.00	12.63	
2025-01-13 12:29:07.94	251.04	12.64	
2025-01-13 12:29:08.14	251.07	12.65	
2025-01-13 12:29:08.34	251.11	12.66	
2025-01-13 12:29:08.55	251.15	12.67	
2025-01-13 12:29:08.77	251.18	12.67	
2025-01-13 12:29:08.97	251.22	12.68	
2025-01-13 12:29:09.18	251.26	12.69	
2025-01-13 12:29:09.38	251.29	12.70	
2025-01-13 12:29:09.59	251.33	12.71	
2025-01-13 12:29:09.79	251.37	12.72	
2025-01-13 12:29:10.00	251.40	12.72	
2025-01-13 12:29:10.20	251.44	12.73	
2025-01-13 12:29:10.40	251.48	12.74	
2025-01-13 12:29:10.61	251.51	12.75	
2025-01-13 12:29:10.82	251.55	12.76	
2025-01-13 12:29:11.02	251.59	12.77	
2025-01-13 12:29:11.23	251.63	12.78	
2025-01-13 12:29:11.43	251.66	12.78	
2025-01-13 12:29:11.63	251.70	12.79	
2025-01-13 12:29:11.84	251.73	12.80	
2025-01-13 12:29:12.04	251.77	12.81	
2025-01-13 12:29:12.25	251.81	12.82	
2025-01-13 12:29:12.45	251.84	12.82	
2025-01-13 12:29:12.67	251.88	12.83	
2025-01-13 12:29:12.88	251.92	12.84	
2025-01-13 12:29:13.08	251.96	12.85	
2025-01-13 12:29:13.29	252.00	12.86	
2025-01-13 12:29:13.49	252.03	12.87	
2025-01-13 12:29:13.69	252.07	12.87	
2025-01-13 12:29:13.90	252.11	12.88	
2025-01-13 12:29:14.10	252.14	12.89	
2025-01-13 12:29:14.31	252.18	12.90	
2025-01-13 12:29:14.51	252.22	12.91	
2025-01-13 12:29:14.72	252.25	12.92	
2025-01-13 12:29:14.92	252.29	12.92	
2025-01-13 12:29:15.13	252.33	12.93	
2025-01-13 12:29:15.33	252.37	12.94	
2025-01-13 12:29:15.54	252.40	12.95	
2025-01-13 12:29:15.75	252.44	12.96	
2025-01-13 12:29:15.95	252.48	12.97	
2025-01-13 12:29:16.15	252.51	12.97	
2025-01-13 12:29:16.36	252.55	12.98	
2025-01-13 12:29:16.56	252.59	12.99	
2025-01-13 12:29:16.77	252.63	13.00	
2025-01-13 12:29:16.97	252.66	13.01	
2025-01-13 12:29:17.18	252.70	13.01	
2025-01-13 12:29:17.38	252.74	13.02	
2025-01-13 12:29:17.59	252.78	13.03	
2025-01-13 12:29:17.79	252.81	13.04	
2025-01-13 12:29:18.00	252.85	13.05	
2025-01-13 12:29:18.20	252.89	13.05	
2025-01-13 12:29:18.41	252.93	13.06	
2025-01-13 12:29:18.61	252.96	13.07	
2025-01-13 12:29:18.82	253.00	13.08	
2025-01-13 12:29:19.02	253.04	13.09	
2025-01-13 12:29:19.23	253.08	13.10	
2025-01-13 12:29:19.43	253.11	13.10	
2025-01-13 12:29:19.64	253.15	13.11	
2025-01-13 12:29:19.84	253.19	13.12	
2025-01-13 12:29:20.05	253.23	13.13	
2025-01-13 12:29:20.25	253.26	13.14	
2025-01-13 12:29:20.46	253.30	13.14	
2025-01-13 12:29:20.66	253.34	13.15	
2025-01-13 12:29:20.87	253.38	13.16	
2025-01-13 12:29:21.07	253.42	13.17	
2025-01-13 12:29:21.28	253.45	13.18	
2025-01-13 12:29:21.48	253.49	13.18	
2025-01-13 12:29:21.69	253.53	13.19	
2025-01-13 12:29:21.89	253.57	13.20	
2025-01-13 12:29:22.10	253.61	13.21	
2025-01-13 12:29:22.30	253.64	13.21	
2025-01-13 12:29:22.51	253.68	13.22	
2025-01-13 12:29:22.71	253.72	13.23	
2025-01-13 12:29:22.92	253.76	13.24	
2025-01-13 12:29:23.12	253.79	13.25	
2025-01-13 12:29:23.33	253.83	13.25	
2025-01-13 12:29:23.53	253.87	13.26	
2025-01-13 12:29:23.74	253.91	13.27	
2025-01-13 12:29:23.94	253.95	13.28	
2025-01-13 12:29:24.15	253.98	13.29	
2025-01-13 12:29:24.35	254.02	13.29	
2025-01-13 12:29:24.56	254.06	13.30	
2025-01-13 12:29:24.76	254.10	13.31	
2025-01-13 12:29:24.97	254.14	13.32	
2025-01-13 12:29:25.17	254.17	13.32	
2025-01-13 12:29:25.38	254.21	13.33	
2025-01-13 12:29:25.58	254.25	13.34	
2025-01-13 12:29:25.79	254.29	13.35	
2025-01-13 12:29:25.99	254.33	13.36	
2025-01-13 12:29:26.20	254.37	13.36	
2025-01-13 12:29:26.40	254.40	13.37	
2025-01-13 12:29:26.61	254.44	13.38	
2025-01-13 12:29:26.81	254.48	13.39	
2025-01-13 12:29:27.02	254.52	13.39	
2025-01-13 12:29:27.23	254.56	13.40	
2025-01-13 12:29:27.43	254.60	13.41	
2025-01-13 12:29:27.63	254.63	13.42	
2025-01-13 12:29:27.84	254.67	13.43	
2025-01-13 12:29:28.04	254.71	13.43	
2025-01-13 12:29:28.25	254.75	13.44	
2025-01-13 12:29:28.45	254.79	13.45	
2025-01-13 12:29:28.66	254.83	13.46	
2025-01-13 12:29:28.86	254.86	13.46	
2025-01-13 12:29:29.07	254.90	13.47	
2025-01-13 12:29:29.27	254.94	13.48	
2025-01-13 12:29:29.48	254.98	13.49	
2025-01-13 12:29:29.68	255.02	13.49	
2025-01-13 12:29:29.89	255.06	13.50	
2025-01-13 12:29:30.09	255.10	13.51	
2025-01-13 12:29:30.30	255.14	13.52	
2025-01-13 12:29:30.50	255.17	13.52	
2025-01-13 12:29:30.71	255.21	13.53	
2025-01-13 12:29:30.91	255.25	13.54	
2025-01-13 12:29:31.12	255.29	13.55	
2025-01-13 12:29:31.32	255.33	13.55	
2025-01-13 12:29:31.53	255.37	13.56	
2025-01-13 12:29:31.73	255.41	13.57	
2025-01-13 12:29:31.94	255.44	13.58	
2025-01-13 12:29:32.14	255.48	13.58	
2025-01-13 12:29:32.35	255.52	13.59	
2025-01-13 12:29:32.56	255.56	13.60	
2025-01-13 12:29:32.76	255.60	13.61	
2025-01-13 12:29:32.97	255.64	13.61	
2025-01-13 12:29:33.17	255.68	13.62	
2025-01-13 12:29:33.38	255.72	13.63	
2025-01-13 12:29:33.58	255.76	13.64	
2025-01-13 12:29:33.79	255.80	13.64	
2025-01-13 12:29:33.99	255.83	13.65	
2025-01-13 12:29:34.20	255.87	13.66	
2025-01-13 12:29:34.40	255.91	13.67	
2025-01-13 12:29:34.61	255.95	13.67	
2025-01-13 12:29:34.81	255.99	13.68	
2025-01-13 12:29:35.02	256.03	13.69	
2025-01-13 12:29:35.22	256.07	13.70	
2025-01-13 12:29:35.43	256.11	13.70	
2025-01-13 12:29:35.64	256.15	13.71	
2025-01-13 12:29:35.84	256.19	13.72	
2025-01-13 12:29:36.05	256.23	13.72	
2025-01-13 12:29:36.25	256.26	13.73	
2025-01-13 12:29:36.46	256.30	13.74	
2025-01-13 12:29:36.66	256.34	13.75	
2025-01-13 12:29:36.87	256.38	13.75	
2025-01-13 12:29:37.07	256.42	13.76	
2025-01-13 12:29:37.28	256.46	13.77	
2025-01-13 12:29:37.48	256.50	13.78	
2025-01-13 12:29:37.69	256.54	13.78	
2025-01-13 12:29:37.90	256.58	13.79	
2025-01-13 12:29:38.10	256.62	13.80	
2025-01-13 12:29:38.32	256.66	13.80	
2025-01-13 12:29:38.53	256.70	13.81	
2025-01-13 12:29:38.73	256.74	13.82	
2025-01-13 12:29:38.94	256.78	13.83	
2025-01-13 12:29:39.14	256.82	13.83	
2025-01-13 12:29:39.35	256.86	13.84	
2025-01-13 12:29:39.55	256.90	13.85	
2025-01-13 12:29:39.76	256.94	13.85	
2025-01-13 12:29:39.97	256.98	13.86	
2025-01-13 12:29:40.17	257.02	13.87	
2025-01-13 12:29:40.38	257.06	13.88	
2025-01-13 12:29:40.58	257.10	13.88	
2025-01-13 12:29:40.79	257.14	13.89	
2025-01-13 12:29:40.99	257.18	13.90	
2025-01-13 12:29:41.20	257.22	13.90	
2025-01-13 12:29:41.40	257.25	13.91	
2025-01-13 12:29:41.61	257.30	13.92	
2025-01-13 12:29:41.81	257.33	13.93	
2025-01-13 12:29:42.02	257.37	13.93	
2025-01-13 12:29:42.22	257.41	13.94	
2025-01-13 12:29:42.43	257.45	13.95	
2025-01-13 12:29:42.63	257.49	13.95	
2025-01-13 12:29:42.84	257.53	13.96	
2025-01-13 12:29:43.04	257.57	13.97	
2025-01-13 12:29:43.25	257.61	13.97	
2025-01-13 12:29:43.46	257.65	13.98	
2025-01-13 12:29:43.66	257.69	13.99	
2025-01-13 12:29:43.86	257.73	13.99	
2025-01-13 12:29:44.07	257.77	14.00	
2025-01-13 12:29:44.28	257.81	14.01	
2025-01-13 12:29:44.48	257.85	14.02	
2025-01-13 12:29:44.69	257.89	14.02	
2025-01-13 12:29:44.89	257.93	14.03	
2025-01-13 12:29:45.10	257.97	14.04	
2025-01-13 12:29:45.30	258.01	14.04	
2025-01-13 12:29:45.51	258.05	14.05	
2025-01-13 12:29:45.71	258.09	14.06	
2025-01-13 12:29:45.91	258.13	14.06	
2025-01-13 12:29:46.12	258.17	14.07	
2025-01-13 12:29:46.33	258.21	14.08	
2025-01-13 12:29:46.53	258.25	14.08	
2025-01-13 12:29:46.73	258.29	14.09	
2025-01-13 12:29:46.94	258.33	14.10	
2025-01-13 12:29:47.14	258.37	14.10	
2025-01-13 12:29:47.35	258.41	14.11	
2025-01-13 12:29:47.55	258.45	14.12	
2025-01-13 12:29:47.76	258.49	14.12	
2025-01-13 12:29:47.97	258.53	14.13	
2025-01-13 12:29:48.17	258.57	14.14	
2025-01-13 12:29:48.37	258.61	14.14	
2025-01-13 12:29:48.58	258.65	14.15	
2025-01-13 12:29:48.78	258.69	14.16	
2025-01-13 12:29:48.99	258.73	14.16	
2025-01-13 12:29:49.19	258.77	14.17	
2025-01-13 12:29:49.40	258.82	14.18	
2025-01-13 12:29:49.61	258.86	14.18	
2025-01-13 12:29:49.81	258.90	14.19	
2025-01-13 12:29:50.01	258.94	14.20	
2025-01-13 12:29:50.22	258.98	14.20	
2025-01-13 12:29:50.42	259.02	14.21	
2025-01-13 12:29:50.63	259.06	14.22	
2025-01-13 12:29:50.83	259.10	14.22	
2025-01-13 12:29:51.05	259.14	14.23	
2025-01-13 12:29:51.26	259.18	14.24	
2025-01-13 12:29:51.46	259.22	14.24	
2025-01-13 12:29:51.67	259.26	14.25	
2025-01-13 12:29:51.87	259.30	14.25	
2025-01-13 12:29:52.08	259.34	14.26	
2025-01-13 12:29:52.28	259.38	14.27	
2025-01-13 12:29:52.49	259.43	14.27	
2025-01-13 12:29:52.69	259.46	14.28	
2025-01-13 12:29:52.90	259.51	14.29	
2025-01-13 12:29:53.10	259.55	14.29	
2025-01-13 12:29:53.31	259.59	14.30	
2025-01-13 12:29:53.51	259.63	14.31	
2025-01-13 12:29:53.72	259.67	14.31	
2025-01-13 12:29:53.92	259.71	14.32	
2025-01-13 12:29:54.13	259.75	14.32	
2025-01-13 12:29:54.33	259.79	14.33	
2025-01-13 12:29:54.54	259.83	14.34	
2025-01-13 12:29:54.74	259.87	14.34	
2025-01-13 12:29:54.95	259.91	14.35	
2025-01-13 12:29:55.15	259.95	14.36	
2025-01-13 12:29:55.36	260.00	14.36	
2025-01-13 12:29:55.56	260.04	14.37	
2025-01-13 12:29:55.78	260.08	14.38	
2025-01-13 12:29:55.99	260.12	14.38	
2025-01-13 12:29:56.19	260.16	14.39	
2025-01-13 12:29:56.40	260.20	14.39	
2025-01-13 12:29:56.60	260.24	14.40	
2025-01-13 12:29:56.81	260.28	14.41	
2025-01-13 12:29:57.01	260.32	14.41	
2025-01-13 12:29:57.22	260.37	14.42	
2025-01-13 12:29:57.44	260.41	14.43	
2025-01-13 12:29:57.65	260.45	14.43	
2025-01-13 12:29:57.86	260.49	14.44	
2025-01-13 12:29:58.06	260.53	14.44	
2025-01-13 12:29:58.27	260.58	14.45	
2025-01-13 12:29:58.47	260.62	14.46	
2025-01-13 12:29:58.68	260.66	14.46	
2025-01-13 12:29:58.88	260.70	14.47	
2025-01-13 12:29:59.09	260.74	14.47	
2025-01-13 12:29:59.29	260.78	14.48	
2025-01-13 12:29:59.50	260.82	14.49	
2025-01-13 12:29:59.71	260.87	14.49	
2025-01-13 12:29:59.91	260.91	14.50	
2025-01-13 12:30:00.12	260.95	14.50	
2025-01-13 12:30:00.32	260.99	14.51	
2025-01-13 12:30:00.54	261.03	14.52	
2025-01-13 12:30:00.74	261.07	14.52	
2025-01-13 12:30:00.95	261.11	14.53	
2025-01-13 12:30:01.16	261.16	14.53	
2025-01-13 12:30:01.36	261.20	14.54	
2025-01-13 12:30:01.57	261.24	14.55	
2025-01-13 12:30:01.77	261.28	14.55	
2025-01-13 12:30:01.98	261.32	14.56	
2025-01-13 12:30:02.18	261.36	14.56	
2025-01-13 12:30:02.39	261.40	14.57	
2025-01-13 12:30:02.59	261.45	14.58	
2025-01-13 12:30:02.81	261.49	14.58	
2025-01-13 12:30:03.01	261.53	14.59	
2025-01-13 12:30:03.22	261.57	14.59	
2025-01-13 12:30:03.43	261.61	14.60	
2025-01-13 12:30:03.63	261.66	14.60	
2025-01-13 12:30:03.83	261.70	14.61	
2025-01-13 12:30:04.04	261.74	14.62	
2025-01-13 12:30:04.25	261.78	14.62	
2025-01-13 12:30:04.45	261.82	14.63	
2025-01-13 12:30:04.66	261.86	14.63	
2025-01-13 12:30:04.86	261.90	14.64	
2025-01-13 12:30:05.07	261.95	14.64	
2025-01-13 12:30:05.27	261.99	14.65	
2025-01-13 12:30:05.48	262.03	14.66	
2025-01-13 12:30:05.69	262.07	14.66	
2025-01-13 12:30:05.89	262.11	14.67	
2025-01-13 12:30:06.10	262.16	14.67	
2025-01-13 12:30:06.30	262.20	14.68	
2025-01-13 12:30:06.51	262.24	14.68	
2025-01-13 12:30:06.71	262.28	14.69	
2025-01-13 12:30:06.92	262.32	14.70	
2025-01-13 12:30:07.12	262.36	14.70	
2025-01-13 12:30:07.33	262.41	14.71	
2025-01-13 12:30:07.53	262.45	14.71	
2025-01-13 12:30:07.74	262.49	14.72	
2025-01-13 12:30:07.94	262.53	14.72	
2025-01-13 12:30:08.15	262.57	14.73	
2025-01-13 12:30:08.35	262.61	14.73	
2025-01-13 12:30:08.56	262.66	14.74	
2025-01-13 12:30:08.76	262.70	14.74	
2025-01-13 12:30:08.97	262.74	14.75	
2025-01-13 12:30:09.19	262.79	14.76	
2025-01-13 12:30:09.39	262.83	14.76	
2025-01-13 12:30:09.60	262.87	14.77	
2025-01-13 12:30:09.80	262.91	14.77	
2025-01-13 12:30:10.01	262.95	14.78	
2025-01-13 12:30:10.23	263.00	14.78	
2025-01-13 12:30:10.43	263.04	14.79	
2025-01-13 12:30:10.64	263.08	14.79	
2025-01-13 12:30:10.84	263.12	14.80	
2025-01-13 12:30:11.05	263.17	14.80	
2025-01-13 12:30:11.25	263.21	14.81	
2025-01-13 12:30:11.46	263.25	14.81	
2025-01-13 12:30:11.66	263.29	14.82	
2025-01-13 12:30:11.87	263.33	14.83	
2025-01-13 12:30:12.07	263.38	14.83	
2025-01-13 12:30:12.28	263.42	14.84	
2025-01-13 12:30:12.48	263.46	14.84	
2025-01-13 12:30:12.69	263.50	14.85	
2025-01-13 12:30:12.90	263.55	14.85	
2025-01-13 12:30:13.10	263.59	14.86	
2025-01-13 12:30:13.31	263.63	14.86	
2025-01-13 12:30:13.52	263.67	14.87	
2025-01-13 12:30:13.73	263.72	14.87	
2025-01-13 12:30:13.94	263.76	14.88	
2025-01-13 12:30:14.14	263.80	14.88	
2025-01-13 12:30:14.35	263.84	14.89	
2025-01-13 12:30:14.55	263.89	14.89	
2025-01-13 12:30:14.76	263.93	14.90	
2025-01-13 12:30:14.96	263.97	14.90	
2025-01-13 12:30:15.17	264.01	14.91	
2025-01-13 12:30:15.37	264.05	14.91	
2025-01-13 12:30:15.59	264.10	14.92	
2025-01-13 12:30:15.80	264.14	14.92	
2025-01-13 12:30:16.00	264.18	14.93	
2025-01-13 12:30:16.21	264.23	14.93	
2025-01-13 12:30:16.41	264.27	14.94	
2025-01-13 12:30:16.62	264.31	14.94	
2025-01-13 12:30:16.82	264.35	14.95	
2025-01-13 12:30:17.03	264.40	14.95	
2025-01-13 12:30:17.23	264.44	14.96	
2025-01-13 12:30:17.44	264.48	14.96	
2025-01-13 12:30:17.66	264.53	14.97	
2025-01-13 12:30:17.86	264.57	14.97	
2025-01-13 12:30:18.07	264.61	14.98	
2025-01-13 12:30:18.28	264.66	14.98	
2025-01-13 12:30:18.48	264.70	14.99	
2025-01-13 12:30:18.69	264.74	14.99	
2025-01-13 12:30:18.89	264.78	15.00	
2025-01-13 12:30:19.09	264.82	15.00	
2025-01-13 12:30:19.30	264.87	15.01	
2025-01-13 12:30:19.50	264.91	15.01	
2025-01-13 12:30:19.71	264.95	15.02	
2025-01-13 12:30:19.91	264.99	15.02	
2025-01-13 12:30:20.12	265.04	15.02	
2025-01-13 12:30:20.33	265.08	15.03	
2025-01-13 12:30:20.53	265.12	15.03	
2025-01-13 12:30:20.74	265.17	15.04	
2025-01-13 12:30:20.95	265.21	15.04	
2025-01-13 12:30:21.16	265.25	15.05	
2025-01-13 12:30:21.37	265.30	15.05	
2025-01-13 12:30:21.57	265.34	15.06	
2025-01-13 12:30:21.78	265.38	15.06	
2025-01-13 12:30:21.98	265.43	15.07	
2025-01-13 12:30:22.19	265.47	15.07	
2025-01-13 12:30:22.39	265.51	15.08	
2025-01-13 12:30:22.60	265.55	15.08	
2025-01-13 12:30:22.81	265.60	15.09	
2025-01-13 12:30:23.01	265.64	15.09	
2025-01-13 12:30:23.22	265.68	15.09	
2025-01-13 12:30:23.42	265.73	15.10	
2025-01-13 12:30:23.63	265.77	15.10	
2025-01-13 12:30:23.83	265.81	15.11	
2025-01-13 12:30:24.04	265.86	15.11	
2025-01-13 12:30:24.24	265.90	15.12	
2025-01-13 12:30:24.45	265.94	15.12	
2025-01-13 12:30:24.67	265.99	15.13	
2025-01-13 12:30:24.87	266.03	15.13	
2025-01-13 12:30:25.08	266.07	15.13	
2025-01-13 12:30:25.28	266.11	15.14	
2025-01-13 12:30:25.49	266.16	15.14	
2025-01-13 12:30:25.69	266.20	15.15	
2025-01-13 12:30:25.89	266.24	15.15	
2025-01-13 12:30:26.10	266.29	15.16	
2025-01-13 12:30:26.30	266.33	15.16	
2025-01-13 12:30:26.51	266.37	15.16	
2025-01-13 12:30:26.71	266.41	15.17	
2025-01-13 12:30:26.92	266.46	15.17	
2025-01-13 12:30:27.13	266.50	15.18	
2025-01-13 12:30:27.35	266.55	15.18	
2025-01-13 12:30:27.56	266.59	15.19	
2025-01-13 12:30:27.76	266.64	15.19	
2025-01-13 12:30:27.97	266.68	15.19	
2025-01-13 12:30:28.17	266.72	15.20	
2025-01-13 12:30:28.38	266.77	15.20	
2025-01-13 12:30:28.58	266.81	15.21	
2025-01-13 12:30:28.79	266.85	15.21	
2025-01-13 12:30:28.99	266.89	15.21	
2025-01-13 12:30:29.20	266.94	15.22	
2025-01-13 12:30:29.40	266.98	15.22	
2025-01-13 12:30:29.61	267.02	15.23	
2025-01-13 12:30:29.81	267.07	15.23	
2025-01-13 12:30:30.02	267.11	15.23	
2025-01-13 12:30:30.22	267.15	15.24	
2025-01-13 12:30:30.43	267.20	15.24	
2025-01-13 12:30:30.63	267.24	15.25	
2025-01-13 12:30:30.84	267.28	15.25	
2025-01-13 12:30:31.04	267.33	15.25	
2025-01-13 12:30:31.25	267.37	15.26	
2025-01-13 12:30:31.46	267.41	15.26	
2025-01-13 12:30:31.66	267.46	15.27	
2025-01-13 12:30:31.87	267.50	15.27	
2025-01-13 12:30:32.07	267.54	15.27	
2025-01-13 12:30:32.28	267.59	15.28	
2025-01-13 12:30:32.48	267.63	15.28	
2025-01-13 12:30:32.69	267.67	15.29	
2025-01-13 12:30:32.89	267.72	15.29	
2025-01-13 12:30:33.10	267.76	15.29	
2025-01-13 12:30:33.31	267.81	15.30	
2025-01-13 12:30:33.51	267.85	15.30	
2025-01-13 12:30:33.72	267.89	15.30	
2025-01-13 12:30:33.92	267.93	15.31	
2025-01-13 12:30:34.13	267.98	15.31	
2025-01-13 12:30:34.33	268.02	15.32	
2025-01-13 12:30:34.54	268.07	15.32	
2025-01-13 12:30:34.74	268.11	15.32	
2025-01-13 12:30:34.94	268.15	15.33	
2025-01-13 12:30:35.15	268.19	15.33	
2025-01-13 12:30:35.36	268.24	15.33	
2025-01-13 12:30:35.56	268.28	15.34	
2025-01-13 12:30:35.77	268.33	15.34	
2025-01-13 12:30:35.97	268.37	15.34	
2025-01-13 12:30:36.18	268.41	15.35	
2025-01-13 12:30:36.38	268.46	15.35	
2025-01-13 12:30:36.59	268.50	15.36	
2025-01-13 12:30:36.79	268.54	15.36	
2025-01-13 12:30:37.00	268.59	15.36	
2025-01-13 12:30:37.20	268.63	15.37	
2025-01-13 12:30:37.40	268.67	15.37	
2025-01-13 12:30:37.61	268.72	15.37	
2025-01-13 12:30:37.81	268.76	15.38	
2025-01-13 12:30:38.02	268.80	15.38	
2025-01-13 12:30:38.22	268.85	15.38	
2025-01-13 12:30:38.43	268.89	15.39	
2025-01-13 12:30:38.64	268.94	15.39	
2025-01-13 12:30:38.84	268.98	15.39	
2025-01-13 12:30:39.04	269.02	15.40	
2025-01-13 12:30:39.25	269.07	15.40	
2025-01-13 12:30:39.46	269.11	15.40	
2025-01-13 12:30:39.66	269.15	15.41	
2025-01-13 12:30:39.87	269.20	15.41	
2025-01-13 12:30:40.07	269.24	15.41	
2025-01-13 12:30:40.28	269.29	15.42	
2025-01-13 12:30:40.48	269.33	15.42	
2025-01-13 12:30:40.69	269.37	15.42	
2025-01-13 12:30:40.89	269.42	15.43	
2025-01-13 12:30:41.10	269.46	15.43	
2025-01-13 12:30:41.30	269.50	15.43	
2025-01-13 12:30:41.51	269.55	15.44	
2025-01-13 12:30:41.71	269.59	15.44	
2025-01-13 12:30:41.92	269.64	15.44	
2025-01-13 12:30:42.12	269.68	15.44	
2025-01-13 12:30:42.33	269.72	15.45	
2025-01-13 12:30:42.53	269.77	15.45	
2025-01-13 12:30:42.74	269.81	15.45	
2025-01-13 12:30:42.94	269.85	15.46	
2025-01-13 12:30:43.15	269.90	15.46	
2025-01-13 12:30:43.37	269.94	15.46	
2025-01-13 12:30:43.57	269.99	15.47	
2025-01-13 12:30:43.78	270.03	15.47	
2025-01-13 12:30:43.98	270.08	15.47	
2025-01-13 12:30:44.19	270.12	15.48	
2025-01-13 12:30:44.39	270.16	15.48	
2025-01-13 12:30:44.60	270.21	15.48	
2025-01-13 12:30:44.80	270.25	15.48	
2025-01-13 12:30:45.01	270.30	15.49	
2025-01-13 12:30:45.21	270.34	15.49	
2025-01-13 12:30:45.42	270.38	15.49	
2025-01-13 12:30:45.62	270.43	15.50	
2025-01-13 12:30:45.83	270.47	15.50	
2025-01-13 12:30:46.04	270.52	15.50	
2025-01-13 12:30:46.24	270.56	15.50	
2025-01-13 12:30:46.45	270.60	15.51	
2025-01-13 12:30:46.65	270.65	15.51	
2025-01-13 12:30:46.86	270.69	15.51	
2025-01-13 12:30:47.06	270.74	15.52	
2025-01-13 12:30:47.27	270.78	15.52	
2025-01-13 12:30:47.47	270.82	15.52	
2025-01-13 12:30:47.68	270.87	15.52	
2025-01-13 12:30:47.88	270.91	15.53	
2025-01-13 12:30:48.09	270.96	15.53	
2025-01-13 12:30:48.29	271.00	15.53	
2025-01-13 12:30:48.50	271.04	15.53	
2025-01-13 12:30:48.70	271.09	15.54	
2025-01-13 12:30:48.91	271.13	15.54	
2025-01-13 12:30:49.11	271.18	15.54	
2025-01-13 12:30:49.32	271.22	15.54	
2025-01-13 12:30:49.52	271.26	15.55	
2025-01-13 12:30:49.73	271.31	15.55	
2025-01-13 12:30:49.93	271.35	15.55	
2025-01-13 12:30:50.14	271.40	15.55	
2025-01-13 12:30:50.34	271.44	15.56	
2025-01-13 12:30:50.55	271.48	15.56	
2025-01-13 12:30:50.75	271.53	15.56	
2025-01-13 12:30:50.96	271.57	15.56	
2025-01-13 12:30:51.16	271.62	15.57	
2025-01-13 12:30:51.37	271.66	15.57	
2025-01-13 12:30:51.58	271.71	15.57	
2025-01-13 12:30:51.78	271.75	15.57	
2025-01-13 12:30:51.98	271.79	15.58	
2025-01-13 12:30:52.19	271.84	15.58	
2025-01-13 12:30:52.39	271.88	15.58	
2025-01-13 12:30:52.60	271.93	15.58	
2025-01-13 12:30:52.81	271.97	15.59	
2025-01-13 12:30:53.01	272.01	15.59	
2025-01-13 12:30:53.22	272.06	15.59	
2025-01-13 12:30:53.42	272.10	15.59	
2025-01-13 12:30:53.63	272.15	15.60	
2025-01-13 12:30:53.83	272.19	15.60	
2025-01-13 12:30:54.03	272.23	15.60	
2025-01-13 12:30:54.24	272.28	15.60	
2025-01-13 12:30:54.45	272.32	15.60	
2025-01-13 12:30:54.65	272.37	15.61	
2025-01-13 12:30:54.86	272.41	15.61	
2025-01-13 12:30:55.06	272.46	15.61	
2025-01-13 12:30:55.27	272.50	15.61	
2025-01-13 12:30:55.47	272.55	15.61	
2025-01-13 12:30:55.68	272.59	15.62	
2025-01-13 12:30:55.88	272.63	15.62	
2025-01-13 12:30:56.09	272.68	15.62	
2025-01-13 12:30:56.29	272.72	15.62	
2025-01-13 12:30:56.50	272.77	15.62	
2025-01-13 12:30:56.70	272.81	15.63	
2025-01-13 12:30:56.91	272.86	15.63	
2025-01-13 12:30:57.11	272.90	15.63	
2025-01-13 12:30:57.32	272.94	15.63	
2025-01-13 12:30:57.52	272.99	15.63	
2025-01-13 12:30:57.73	273.03	15.64	
2025-01-13 12:30:57.93	273.08	15.64	
2025-01-13 12:30:58.14	273.12	15.64	
2025-01-13 12:30:58.36	273.17	15.64	
2025-01-13 12:30:58.56	273.21	15.64	
2025-01-13 12:30:58.77	273.26	15.65	
2025-01-13 12:30:58.97	273.30	15.65	
2025-01-13 12:30:59.18	273.35	15.65	
2025-01-13 12:30:59.38	273.39	15.65	
2025-01-13 12:30:59.59	273.44	15.65	
2025-01-13 12:30:59.79	273.48	15.66	
2025-01-13 12:31:00.00	273.52	15.66	
2025-01-13 12:31:00.20	273.57	15.66	
2025-01-13 12:31:00.41	273.61	15.66	
2025-01-13 12:31:00.61	273.66	15.66	
2025-01-13 12:31:00.82	273.70	15.66	
2025-01-13 12:31:01.02	273.74	15.67	
2025-01-13 12:31:01.23	273.79	15.67	
2025-01-13 12:31:01.45	273.84	15.67	
2025-01-13 12:31:01.65	273.88	15.67	
2025-01-13 12:31:01.86	273.93	15.67	
2025-01-13 12:31:02.06	273.97	15.67	
2025-01-13 12:31:02.26	274.01	15.68	
2025-01-13 12:31:02.47	274.06	15.68	
2025-01-13 12:31:02.67	274.10	15.68	
2025-01-13 12:31:02.88	274.15	15.68	
2025-01-13 12:31:03.08	274.19	15.68	
2025-01-13 12:31:03.29	274.24	15.68	
2025-01-13 12:31:03.50	274.28	15.68	
2025-01-13 12:31:03.70	274.33	15.69	
2025-01-13 12:31:03.91	274.37	15.69	
2025-01-13 12:31:04.11	274.41	15.69	
2025-01-13 12:31:04.32	274.46	15.69	
2025-01-13 12:31:04.53	274.51	15.69	
2025-01-13 12:31:04.73	274.55	15.69	
2025-01-13 12:31:04.94	274.59	15.69	
2025-01-13 12:31:05.14	274.64	15.70	
2025-01-13 12:31:05.34	274.68	15.70	
2025-01-13 12:31:05.55	274.73	15.70	
2025-01-13 12:31:05.75	274.77	15.70	
2025-01-13 12:31:05.96	274.82	15.70	
2025-01-13 12:31:06.17	274.86	15.70	
2025-01-13 12:31:06.37	274.90	15.70	
2025-01-13 12:31:06.58	274.95	15.70	
2025-01-13 12:31:06.78	274.99	15.71	
2025-01-13 12:31:06.99	275.04	15.71	
2025-01-13 12:31:07.19	275.08	15.71	
2025-01-13 12:31:07.40	275.13	15.71	
2025-01-13 12:31:07.60	275.17	15.71	
2025-01-13 12:31:07.81	275.22	15.71	
2025-01-13 12:31:08.02	275.26	15.71	
2025-01-13 12:31:08.23	275.31	15.71	
2025-01-13 12:31:08.44	275.35	15.72	
2025-01-13 12:31:08.64	275.40	15.72	
2025-01-13 12:31:08.84	275.44	15.72	
2025-01-13 12:31:09.06	275.49	15.72	
2025-01-13 12:31:09.27	275.53	15.72	
2025-01-13 12:31:09.47	275.58	15.72	
2025-01-13 12:31:09.68	275.62	15.72	
2025-01-13 12:31:09.88	275.67	15.72	
2025-01-13 12:31:10.09	275.71	15.72	
2025-01-13 12:31:10.29	275.76	15.72	
2025-01-13 12:31:10.49	275.80	15.73	
2025-01-13 12:31:10.70	275.85	15.73	
2025-01-13 12:31:10.91	275.89	15.73	
2025-01-13 12:31:11.12	275.94	15.73	
2025-01-13 12:31:11.32	275.98	15.73	
2025-01-13 12:31:11.53	276.03	15.73	
2025-01-13 12:31:11.74	276.07	15.73	
2025-01-13 12:31:11.94	276.12	15.73	
2025-01-13 12:31:12.15	276.16	15.73	
2025-01-13 12:31:12.35	276.20	15.73	
2025-01-13 12:31:12.56	276.25	15.73	
2025-01-13 12:31:12.77	276.30	15.73	
2025-01-13 12:31:12.97	276.34	15.74	
2025-01-13 12:31:13.18	276.38	15.74	
2025-01-13 12:31:13.38	276.43	15.74	
2025-01-13 12:31:13.59	276.47	15.74	
2025-01-13 12:31:13.79	276.52	15.74	
2025-01-13 12:31:14.00	276.56	15.74	
2025-01-13 12:31:14.20	276.61	15.74	
2025-01-13 12:31:14.42	276.65	15.74	
2025-01-13 12:31:14.62	276.70	15.74	
2025-01-13 12:31:14.83	276.74	15.74	
2025-01-13 12:31:15.03	276.79	15.74	
2025-01-13 12:31:15.24	276.83	15.74	
2025-01-13 12:31:15.46	276.88	15.74	
2025-01-13 12:31:15.66	276.92	15.74	
2025-01-13 12:31:15.87	276.97	15.74	
2025-01-13 12:31:16.07	277.01	15.74	
2025-01-13 12:31:16.28	277.06	15.74	
2025-01-13 12:31:16.48	277.10	15.75	
2025-01-13 12:31:16.69	277.15	15.75	
2025-01-13 12:31:16.89	277.19	15.75	
2025-01-13 12:31:17.10	277.24	15.75	
2025-01-13 12:31:17.30	277.28	15.75	
2025-01-13 12:31:17.51	277.33	15.75	
2025-01-13 12:31:17.71	277.37	15.75	
2025-01-13 12:31:17.92	277.42	15.75	
2025-01-13 12:31:18.12	277.46	15.75	
2025-01-13 12:31:18.33	277.51	15.75	
2025-01-13 12:31:18.53	277.55	15.75	
2025-01-13 12:31:18.74	277.59	15.75	
2025-01-13 12:31:18.94	277.64	15.75	
2025-01-13 12:31:19.15	277.68	15.75	
2025-01-13 12:31:19.35	277.73	15.75	
2025-01-13 12:31:19.55	277.77	15.75	
2025-01-13 12:31:19.77	277.82	15.75	
2025-01-13 12:31:19.97	277.86	15.75	
2025-01-13 12:31:20.18	277.91	15.75	
2025-01-13 12:31:20.39	277.95	15.75	
2025-01-13 12:31:20.59	278.00	15.75	
2025-01-13 12:31:20.79	278.04	15.75	
2025-01-13 12:31:21.00	278.09	15.75	
2025-01-13 12:31:21.21	278.13	15.75	
2025-01-13 12:31:21.41	278.18	15.75	
2025-01-13 12:31:21.62	278.22	15.75	
2025-01-13 12:31:21.82	278.26	15.75	
2025-01-13 12:31:22.03	278.31	15.75	
2025-01-13 12:31:22.23	278.35	15.75	
2025-01-13 12:31:22.44	278.40	15.75	
2025-01-13 12:31:22.64	278.44	15.75	
2025-01-13 12:31:22.85	278.49	15.75	
2025-01-13 12:31:23.05	278.53	15.75	
2025-01-13 12:31:23.26	278.58	15.75	
2025-01-13 12:31:23.46	278.62	15.75	
2025-01-13 12:31:23.67	278.67	15.75	
2025-01-13 12:31:23.87	278.71	15.75	
2025-01-13 12:31:24.09	278.76	15.75	
2025-01-13 12:31:24.31	278.81	15.75	
2025-01-13 12:31:24.51	278.85	15.75	
2025-01-13 12:31:24.72	278.90	15.75	
2025-01-13 12:31:24.92	278.94	15.75	
2025-01-13 12:31:25.13	278.99	15.75	
2025-01-13 12:31:25.33	279.03	15.75	
2025-01-13 12:31:25.54	279.07	15.75	
2025-01-13 12:31:25.74	279.12	15.75	
2025-01-13 12:31:25.95	279.16	15.75	
2025-01-13 12:31:26.15	279.21	15.75	
2025-01-13 12:31:26.36	279.25	15.75	
2025-01-13 12:31:26.56	279.30	15.75	
2025-01-13 12:31:26.77	279.34	15.75	
2025-01-13 12:31:26.97	279.39	15.75	
2025-01-13 12:31:27.18	279.43	15.75	
2025-01-13 12:31:27.39	279.48	15.75	
2025-01-13 12:31:27.59	279.52	15.75	
2025-01-13 12:31:27.80	279.57	15.75	
2025-01-13 12:31:28.00	279.61	15.74	
2025-01-13 12:31:28.21	279.66	15.74	
2025-01-13 12:31:28.41	279.70	15.74	
2025-01-13 12:31:28.62	279.74	15.74	
2025-01-13 12:31:28.82	279.79	15.74	
2025-01-13 12:31:29.03	279.83	15.74	
2025-01-13 12:31:29.23	279.88	15.74	
2025-01-13 12:31:29.44	279.92	15.74	
2025-01-13 12:31:29.64	279.97	15.74	
2025-01-13 12:31:29.85	280.01	15.74	
2025-01-13 12:31:30.05	280.06	15.74	
2025-01-13 12:31:30.26	280.10	15.74	
2025-01-13 12:31:30.48	280.15	15.74	
2025-01-13 12:31:30.68	280.19	15.74	
2025-01-13 12:31:30.89	280.24	15.74	
2025-01-13 12:31:31.09	280.28	15.74	
2025-01-13 12:31:31.30	280.33	15.73	
2025-01-13 12:31:31.52	280.37	15.73	
2025-01-13 12:31:31.72	280.42	15.73	
2025-01-13 12:31:31.93	280.46	15.73	
2025-01-13 12:31:32.13	280.51	15.73	
2025-01-13 12:31:32.34	280.55	15.73	
2025-01-13 12:31:32.54	280.60	15.73	
2025-01-13 12:31:32.75	280.64	15.73	
2025-01-13 12:31:32.95	280.69	15.73	
2025-01-13 12:31:33.16	280.73	15.73	
2025-01-13 12:31:33.36	280.77	15.73	
2025-01-13 12:31:33.57	280.82	15.73	
2025-01-13 12:31:33.77	280.86	15.72	
2025-01-13 12:31:33.98	280.91	15.72	
2025-01-13 12:31:34.18	280.95	15.72	
2025-01-13 12:31:34.39	281.00	15.72	
2025-01-13 12:31:34.59	281.04	15.72	
2025-01-13 12:31:34.80	281.09	15.72	
2025-01-13 12:31:35.00	281.13	15.72	
2025-01-13 12:31:35.21	281.18	15.72	
2025-01-13 12:31:35.41	281.22	15.72	
2025-01-13 12:31:35.62	281.27	15.72	
2025-01-13 12:31:35.82	281.31	15.71	
2025-01-13 12:31:36.02	281.35	15.71	
2025-01-13 12:31:36.23	281.40	15.71	
2025-01-13 12:31:36.43	281.44	15.71	
2025-01-13 12:31:36.64	281.49	15.71	
2025-01-13 12:31:36.86	281.53	15.71	
2025-01-13 12:31:37.06	281.58	15.71	
2025-01-13 12:31:37.27	281.62	15.71	
2025-01-13 12:31:37.48	281.67	15.71	
2025-01-13 12:31:37.68	281.71	15.70	
2025-01-13 12:31:37.89	281.76	15.70	
2025-01-13 12:31:38.09	281.80	15.70	
2025-01-13 12:31:38.29	281.84	15.70	
2025-01-13 12:31:38.50	281.89	15.70	
2025-01-13 12:31:38.70	281.93	15.70	
2025-01-13 12:31:38.91	281.98	15.70	
2025-01-13 12:31:39.11	282.02	15.70	
2025-01-13 12:31:39.32	282.07	15.69	
2025-01-13 12:31:39.52	282.11	15.69	
2025-01-13 12:31:39.74	282.16	15.69	
2025-01-13 12:31:39.95	282.20	15.69	
2025-01-13 12:31:40.15	282.25	15.69	
2025-01-13 12:31:40.36	282.29	15.69	
2025-01-13 12:31:40.56	282.34	15.69	
2025-01-13 12:31:40.77	282.38	15.68	
2025-01-13 12:31:40.97	282.43	15.68	
2025-01-13 12:31:41.17	282.47	15.68	
2025-01-13 12:31:41.38	282.51	15.68	
2025-01-13 12:31:41.58	282.56	15.68	
2025-01-13 12:31:41.79	282.60	15.68	
2025-01-13 12:31:41.99	282.65	15.67	
2025-01-13 12:31:42.19	282.69	15.67	
2025-01-13 12:31:42.40	282.74	15.67	
2025-01-13 12:31:42.60	282.78	15.67	
2025-01-13 12:31:42.81	282.82	15.67	
2025-01-13 12:31:43.02	282.87	15.67	
2025-01-13 12:31:43.22	282.91	15.66	
2025-01-13 12:31:43.43	282.96	15.66	
2025-01-13 12:31:43.63	283.00	15.66	
2025-01-13 12:31:43.84	283.05	15.66	
2025-01-13 12:31:44.04	283.09	15.66	
2025-01-13 12:31:44.24	283.13	15.66	
2025-01-13 12:31:44.45	283.18	15.65	
2025-01-13 12:31:44.66	283.22	15.65	
2025-01-13 12:31:44.86	283.27	15.65	
2025-01-13 12:31:45.07	283.31	15.65	
2025-01-13 12:31:45.27	283.36	15.65	
2025-01-13 12:31:45.49	283.40	15.65	
