passes_logs/2025/01/13/SPB_Silybum_02/SPB_Silybum_02__20250113_095555_TERRA_rec.log

#Pass ID: 20250113_095555_TERRA
#Satellite: TERRA
#Configuration: TERRA
#Start time: 2025-01-13 09:55:56

#Version: 2.0.20230423
#Station: SPB_Silybum_02
#Location: 30.233357 lon 59.946436 lat
#TLE: 1 25994U 99068A   25012.80475962  .00000761  00000+0  16654-3 0  9990
#TLE: 2 25994  98.0220  75.9049 0003508  77.1547  57.1006 14.60390868333758

#Time	Az	El	Level	Level2	SNR	BER	Gain	Gain2
2025-01-13 09:55:58.23	9.96	4.15	
2025-01-13 09:55:58.44	9.94	4.17	
2025-01-13 09:55:58.64	9.93	4.18	
2025-01-13 09:55:58.85	9.91	4.19	
2025-01-13 09:55:59.05	9.90	4.20	
2025-01-13 09:55:59.26	9.88	4.22	
2025-01-13 09:55:59.46	9.87	4.23	
2025-01-13 09:55:59.67	9.85	4.24	
2025-01-13 09:55:59.87	9.83	4.26	
2025-01-13 09:56:00.08	9.82	4.27	
2025-01-13 09:56:00.28	9.80	4.28	
2025-01-13 09:56:00.48	9.79	4.30	
2025-01-13 09:56:00.69	9.77	4.31	
2025-01-13 09:56:00.89	9.76	4.32	
2025-01-13 09:56:01.10	9.74	4.34	
2025-01-13 09:56:01.30	9.72	4.35	
2025-01-13 09:56:01.51	9.71	4.36	
2025-01-13 09:56:01.71	9.69	4.37	
2025-01-13 09:56:01.92	9.68	4.39	
2025-01-13 09:56:02.12	9.66	4.40	
2025-01-13 09:56:02.33	9.64	4.41	
2025-01-13 09:56:02.53	9.63	4.43	
2025-01-13 09:56:02.74	9.61	4.44	
2025-01-13 09:56:02.94	9.60	4.45	
2025-01-13 09:56:03.14	9.58	4.47	
2025-01-13 09:56:03.35	9.57	4.48	
2025-01-13 09:56:03.56	9.55	4.49	
2025-01-13 09:56:03.76	9.53	4.51	
2025-01-13 09:56:03.97	9.52	4.52	
2025-01-13 09:56:04.17	9.50	4.53	
2025-01-13 09:56:04.37	9.49	4.55	
2025-01-13 09:56:04.58	9.47	4.56	
2025-01-13 09:56:04.78	9.45	4.57	
2025-01-13 09:56:04.99	9.44	4.59	
2025-01-13 09:56:05.19	9.42	4.60	
2025-01-13 09:56:05.40	9.40	4.61	
2025-01-13 09:56:05.61	9.39	4.63	
2025-01-13 09:56:05.81	9.37	4.64	
2025-01-13 09:56:06.02	9.36	4.65	
2025-01-13 09:56:06.23	9.34	4.67	
2025-01-13 09:56:06.43	9.32	4.68	
2025-01-13 09:56:06.64	9.31	4.69	
2025-01-13 09:56:06.84	9.29	4.71	
2025-01-13 09:56:07.05	9.27	4.72	
2025-01-13 09:56:07.25	9.26	4.73	
2025-01-13 09:56:07.46	9.24	4.75	
2025-01-13 09:56:07.66	9.23	4.76	
2025-01-13 09:56:07.87	9.21	4.77	
2025-01-13 09:56:08.07	9.19	4.79	
2025-01-13 09:56:08.28	9.18	4.80	
2025-01-13 09:56:08.48	9.16	4.81	
2025-01-13 09:56:08.69	9.14	4.83	
2025-01-13 09:56:08.89	9.13	4.84	
2025-01-13 09:56:09.10	9.11	4.85	
2025-01-13 09:56:09.31	9.09	4.87	
2025-01-13 09:56:09.51	9.08	4.88	
2025-01-13 09:56:09.71	9.06	4.89	
2025-01-13 09:56:09.92	9.04	4.91	
2025-01-13 09:56:10.12	9.03	4.92	
2025-01-13 09:56:10.33	9.01	4.93	
2025-01-13 09:56:10.53	9.00	4.95	
2025-01-13 09:56:10.74	8.98	4.96	
2025-01-13 09:56:10.94	8.96	4.97	
2025-01-13 09:56:11.15	8.95	4.99	
2025-01-13 09:56:11.35	8.93	5.00	
2025-01-13 09:56:11.57	8.91	5.01	
2025-01-13 09:56:11.78	8.89	5.03	
2025-01-13 09:56:11.98	8.88	5.04	
2025-01-13 09:56:12.19	8.86	5.05	
2025-01-13 09:56:12.39	8.84	5.07	
2025-01-13 09:56:12.60	8.83	5.08	
2025-01-13 09:56:12.80	8.81	5.09	
2025-01-13 09:56:13.01	8.79	5.11	
2025-01-13 09:56:13.22	8.78	5.12	
2025-01-13 09:56:13.42	8.76	5.14	
2025-01-13 09:56:13.63	8.74	5.15	
2025-01-13 09:56:13.83	8.73	5.16	
2025-01-13 09:56:14.04	8.71	5.18	
2025-01-13 09:56:14.24	8.69	5.19	
2025-01-13 09:56:14.45	8.68	5.20	
2025-01-13 09:56:14.65	8.66	5.22	
2025-01-13 09:56:14.86	8.64	5.23	
2025-01-13 09:56:15.06	8.62	5.24	
2025-01-13 09:56:15.27	8.61	5.26	
2025-01-13 09:56:15.48	8.59	5.27	
2025-01-13 09:56:15.68	8.57	5.28	
2025-01-13 09:56:15.90	8.56	5.30	
2025-01-13 09:56:16.11	8.54	5.31	
2025-01-13 09:56:16.31	8.52	5.33	
2025-01-13 09:56:16.52	8.50	5.34	
2025-01-13 09:56:16.72	8.49	5.35	
2025-01-13 09:56:16.93	8.47	5.37	
2025-01-13 09:56:17.13	8.45	5.38	
2025-01-13 09:56:17.34	8.43	5.39	
2025-01-13 09:56:17.54	8.42	5.41	
2025-01-13 09:56:17.75	8.40	5.42	
2025-01-13 09:56:17.95	8.38	5.43	
2025-01-13 09:56:18.16	8.37	5.45	
2025-01-13 09:56:18.36	8.35	5.46	
2025-01-13 09:56:18.57	8.33	5.47	
2025-01-13 09:56:18.77	8.31	5.49	
2025-01-13 09:56:18.98	8.30	5.50	
2025-01-13 09:56:19.18	8.28	5.52	
2025-01-13 09:56:19.39	8.26	5.53	
2025-01-13 09:56:19.59	8.25	5.54	
2025-01-13 09:56:19.80	8.23	5.56	
2025-01-13 09:56:20.00	8.21	5.57	
2025-01-13 09:56:20.20	8.19	5.58	
2025-01-13 09:56:20.41	8.18	5.60	
2025-01-13 09:56:20.61	8.16	5.61	
2025-01-13 09:56:20.82	8.14	5.62	
2025-01-13 09:56:21.03	8.12	5.64	
2025-01-13 09:56:21.23	8.11	5.65	
2025-01-13 09:56:21.43	8.09	5.67	
2025-01-13 09:56:21.64	8.07	5.68	
2025-01-13 09:56:21.85	8.05	5.69	
2025-01-13 09:56:22.05	8.04	5.71	
2025-01-13 09:56:22.25	8.02	5.72	
2025-01-13 09:56:22.46	8.00	5.73	
2025-01-13 09:56:22.66	7.98	5.75	
2025-01-13 09:56:22.87	7.97	5.76	
2025-01-13 09:56:23.08	7.95	5.78	
2025-01-13 09:56:23.28	7.93	5.79	
2025-01-13 09:56:23.49	7.91	5.80	
2025-01-13 09:56:23.69	7.89	5.82	
2025-01-13 09:56:23.90	7.88	5.83	
2025-01-13 09:56:24.10	7.86	5.84	
2025-01-13 09:56:24.31	7.84	5.86	
2025-01-13 09:56:24.53	7.82	5.87	
2025-01-13 09:56:24.73	7.80	5.89	
2025-01-13 09:56:24.94	7.79	5.90	
2025-01-13 09:56:25.14	7.77	5.91	
2025-01-13 09:56:25.35	7.75	5.93	
2025-01-13 09:56:25.55	7.73	5.94	
2025-01-13 09:56:25.76	7.71	5.95	
2025-01-13 09:56:25.97	7.70	5.97	
2025-01-13 09:56:26.17	7.68	5.98	
2025-01-13 09:56:26.38	7.66	6.00	
2025-01-13 09:56:26.59	7.64	6.01	
2025-01-13 09:56:26.80	7.62	6.02	
2025-01-13 09:56:27.01	7.60	6.04	
2025-01-13 09:56:27.22	7.59	6.05	
2025-01-13 09:56:27.42	7.57	6.07	
2025-01-13 09:56:27.63	7.55	6.08	
2025-01-13 09:56:27.83	7.53	6.09	
2025-01-13 09:56:28.04	7.51	6.11	
2025-01-13 09:56:28.24	7.50	6.12	
2025-01-13 09:56:28.45	7.48	6.14	
2025-01-13 09:56:28.65	7.46	6.15	
2025-01-13 09:56:28.86	7.44	6.16	
2025-01-13 09:56:29.06	7.42	6.18	
2025-01-13 09:56:29.27	7.40	6.19	
2025-01-13 09:56:29.48	7.39	6.21	
2025-01-13 09:56:29.68	7.37	6.22	
2025-01-13 09:56:29.88	7.35	6.23	
2025-01-13 09:56:30.09	7.33	6.25	
2025-01-13 09:56:30.29	7.31	6.26	
2025-01-13 09:56:30.50	7.29	6.28	
2025-01-13 09:56:30.70	7.28	6.29	
2025-01-13 09:56:30.91	7.26	6.30	
2025-01-13 09:56:31.11	7.24	6.32	
2025-01-13 09:56:31.32	7.22	6.33	
2025-01-13 09:56:31.52	7.20	6.34	
2025-01-13 09:56:31.73	7.18	6.36	
2025-01-13 09:56:31.93	7.17	6.37	
2025-01-13 09:56:32.13	7.15	6.39	
2025-01-13 09:56:32.34	7.13	6.40	
2025-01-13 09:56:32.55	7.11	6.41	
2025-01-13 09:56:32.75	7.09	6.43	
2025-01-13 09:56:32.96	7.07	6.44	
2025-01-13 09:56:33.16	7.05	6.46	
2025-01-13 09:56:33.37	7.04	6.47	
2025-01-13 09:56:33.57	7.02	6.48	
2025-01-13 09:56:33.78	7.00	6.50	
2025-01-13 09:56:33.98	6.98	6.51	
2025-01-13 09:56:34.19	6.96	6.53	
2025-01-13 09:56:34.39	6.94	6.54	
2025-01-13 09:56:34.60	6.92	6.55	
2025-01-13 09:56:34.81	6.90	6.57	
2025-01-13 09:56:35.01	6.89	6.58	
2025-01-13 09:56:35.22	6.87	6.60	
2025-01-13 09:56:35.42	6.85	6.61	
2025-01-13 09:56:35.63	6.83	6.63	
2025-01-13 09:56:35.83	6.81	6.64	
2025-01-13 09:56:36.04	6.79	6.65	
2025-01-13 09:56:36.25	6.77	6.67	
2025-01-13 09:56:36.46	6.75	6.68	
2025-01-13 09:56:36.67	6.73	6.70	
2025-01-13 09:56:36.87	6.71	6.71	
2025-01-13 09:56:37.08	6.69	6.72	
2025-01-13 09:56:37.28	6.68	6.74	
2025-01-13 09:56:37.49	6.66	6.75	
2025-01-13 09:56:37.69	6.64	6.77	
2025-01-13 09:56:37.90	6.62	6.78	
2025-01-13 09:56:38.10	6.60	6.79	
2025-01-13 09:56:38.31	6.58	6.81	
2025-01-13 09:56:38.51	6.56	6.82	
2025-01-13 09:56:38.72	6.54	6.84	
2025-01-13 09:56:38.92	6.52	6.85	
2025-01-13 09:56:39.13	6.50	6.87	
2025-01-13 09:56:39.33	6.48	6.88	
2025-01-13 09:56:39.54	6.46	6.89	
2025-01-13 09:56:39.74	6.45	6.91	
2025-01-13 09:56:39.95	6.43	6.92	
2025-01-13 09:56:40.16	6.41	6.94	
2025-01-13 09:56:40.37	6.39	6.95	
2025-01-13 09:56:40.57	6.37	6.97	
2025-01-13 09:56:40.78	6.35	6.98	
2025-01-13 09:56:40.99	6.33	6.99	
2025-01-13 09:56:41.19	6.31	7.01	
2025-01-13 09:56:41.40	6.29	7.02	
2025-01-13 09:56:41.60	6.27	7.04	
2025-01-13 09:56:41.81	6.25	7.05	
2025-01-13 09:56:42.01	6.23	7.07	
2025-01-13 09:56:42.22	6.21	7.08	
2025-01-13 09:56:42.42	6.19	7.09	
2025-01-13 09:56:42.63	6.17	7.11	
2025-01-13 09:56:42.83	6.15	7.12	
2025-01-13 09:56:43.04	6.13	7.14	
2025-01-13 09:56:43.24	6.11	7.15	
2025-01-13 09:56:43.45	6.09	7.17	
2025-01-13 09:56:43.65	6.07	7.18	
2025-01-13 09:56:43.86	6.05	7.19	
2025-01-13 09:56:44.06	6.03	7.21	
2025-01-13 09:56:44.27	6.01	7.22	
2025-01-13 09:56:44.47	5.99	7.24	
2025-01-13 09:56:44.67	5.97	7.25	
2025-01-13 09:56:44.88	5.95	7.27	
2025-01-13 09:56:45.08	5.93	7.28	
2025-01-13 09:56:45.29	5.91	7.29	
2025-01-13 09:56:45.49	5.90	7.31	
2025-01-13 09:56:45.70	5.87	7.32	
2025-01-13 09:56:45.90	5.86	7.34	
2025-01-13 09:56:46.11	5.83	7.35	
2025-01-13 09:56:46.31	5.82	7.37	
2025-01-13 09:56:46.52	5.79	7.38	
2025-01-13 09:56:46.73	5.77	7.39	
2025-01-13 09:56:46.93	5.75	7.41	
2025-01-13 09:56:47.13	5.73	7.42	
2025-01-13 09:56:47.34	5.71	7.44	
2025-01-13 09:56:47.55	5.69	7.45	
2025-01-13 09:56:47.75	5.67	7.47	
2025-01-13 09:56:47.96	5.65	7.48	
2025-01-13 09:56:48.16	5.63	7.49	
2025-01-13 09:56:48.37	5.61	7.51	
2025-01-13 09:56:48.57	5.59	7.52	
2025-01-13 09:56:48.78	5.57	7.54	
2025-01-13 09:56:48.98	5.55	7.55	
2025-01-13 09:56:49.18	5.53	7.57	
2025-01-13 09:56:49.39	5.51	7.58	
2025-01-13 09:56:49.60	5.49	7.60	
2025-01-13 09:56:49.80	5.47	7.61	
2025-01-13 09:56:50.00	5.45	7.62	
2025-01-13 09:56:50.21	5.43	7.64	
2025-01-13 09:56:50.41	5.41	7.65	
2025-01-13 09:56:50.62	5.39	7.67	
2025-01-13 09:56:50.82	5.37	7.68	
2025-01-13 09:56:51.03	5.35	7.70	
2025-01-13 09:56:51.24	5.33	7.71	
2025-01-13 09:56:51.45	5.31	7.73	
2025-01-13 09:56:51.66	5.29	7.74	
2025-01-13 09:56:51.86	5.27	7.76	
2025-01-13 09:56:52.07	5.24	7.77	
2025-01-13 09:56:52.27	5.22	7.78	
2025-01-13 09:56:52.48	5.20	7.80	
2025-01-13 09:56:52.68	5.18	7.81	
2025-01-13 09:56:52.89	5.16	7.83	
2025-01-13 09:56:53.10	5.14	7.84	
2025-01-13 09:56:53.30	5.12	7.86	
2025-01-13 09:56:53.51	5.10	7.87	
2025-01-13 09:56:53.72	5.08	7.89	
2025-01-13 09:56:53.92	5.06	7.90	
2025-01-13 09:56:54.13	5.04	7.92	
2025-01-13 09:56:54.34	5.01	7.93	
2025-01-13 09:56:54.55	4.99	7.95	
2025-01-13 09:56:54.75	4.97	7.96	
2025-01-13 09:56:54.96	4.95	7.98	
2025-01-13 09:56:55.17	4.93	7.99	
2025-01-13 09:56:55.37	4.91	8.01	
2025-01-13 09:56:55.58	4.89	8.02	
2025-01-13 09:56:55.78	4.87	8.03	
2025-01-13 09:56:55.99	4.85	8.05	
2025-01-13 09:56:56.19	4.82	8.06	
2025-01-13 09:56:56.40	4.80	8.08	
2025-01-13 09:56:56.60	4.78	8.09	
2025-01-13 09:56:56.81	4.76	8.11	
2025-01-13 09:56:57.01	4.74	8.12	
2025-01-13 09:56:57.22	4.72	8.14	
2025-01-13 09:56:57.43	4.70	8.15	
2025-01-13 09:56:57.63	4.68	8.17	
2025-01-13 09:56:57.83	4.65	8.18	
2025-01-13 09:56:58.04	4.63	8.20	
2025-01-13 09:56:58.24	4.61	8.21	
2025-01-13 09:56:58.45	4.59	8.23	
2025-01-13 09:56:58.65	4.57	8.24	
2025-01-13 09:56:58.86	4.55	8.25	
2025-01-13 09:56:59.07	4.53	8.27	
2025-01-13 09:56:59.27	4.50	8.28	
2025-01-13 09:56:59.48	4.48	8.30	
2025-01-13 09:56:59.68	4.46	8.31	
2025-01-13 09:56:59.89	4.44	8.33	
2025-01-13 09:57:00.09	4.42	8.34	
2025-01-13 09:57:00.30	4.40	8.36	
2025-01-13 09:57:00.50	4.38	8.37	
2025-01-13 09:57:00.70	4.35	8.39	
2025-01-13 09:57:00.91	4.33	8.40	
2025-01-13 09:57:01.12	4.31	8.42	
2025-01-13 09:57:01.32	4.29	8.43	
2025-01-13 09:57:01.53	4.27	8.45	
2025-01-13 09:57:01.73	4.25	8.46	
2025-01-13 09:57:01.94	4.22	8.48	
2025-01-13 09:57:02.14	4.20	8.49	
2025-01-13 09:57:02.35	4.18	8.51	
2025-01-13 09:57:02.56	4.16	8.52	
2025-01-13 09:57:02.76	4.14	8.54	
2025-01-13 09:57:02.97	4.11	8.55	
2025-01-13 09:57:03.17	4.09	8.57	
2025-01-13 09:57:03.38	4.07	8.58	
2025-01-13 09:57:03.58	4.05	8.60	
2025-01-13 09:57:03.79	4.03	8.61	
2025-01-13 09:57:03.99	4.00	8.62	
2025-01-13 09:57:04.20	3.98	8.64	
2025-01-13 09:57:04.41	3.96	8.66	
2025-01-13 09:57:04.61	3.94	8.67	
2025-01-13 09:57:04.81	3.92	8.68	
2025-01-13 09:57:05.03	3.89	8.70	
2025-01-13 09:57:05.24	3.87	8.72	
2025-01-13 09:57:05.44	3.85	8.73	
2025-01-13 09:57:05.65	3.82	8.75	
2025-01-13 09:57:05.86	3.80	8.76	
2025-01-13 09:57:06.06	3.78	8.78	
2025-01-13 09:57:06.26	3.76	8.79	
2025-01-13 09:57:06.47	3.73	8.80	
2025-01-13 09:57:06.68	3.71	8.82	
2025-01-13 09:57:06.88	3.69	8.83	
2025-01-13 09:57:07.08	3.67	8.85	
2025-01-13 09:57:07.29	3.65	8.86	
2025-01-13 09:57:07.50	3.62	8.88	
2025-01-13 09:57:07.70	3.60	8.89	
2025-01-13 09:57:07.91	3.58	8.91	
2025-01-13 09:57:08.11	3.56	8.92	
2025-01-13 09:57:08.32	3.53	8.94	
2025-01-13 09:57:08.52	3.51	8.95	
2025-01-13 09:57:08.72	3.49	8.97	
2025-01-13 09:57:08.93	3.46	8.98	
2025-01-13 09:57:09.13	3.44	9.00	
2025-01-13 09:57:09.33	3.42	9.01	
2025-01-13 09:57:09.54	3.40	9.03	
2025-01-13 09:57:09.75	3.37	9.04	
2025-01-13 09:57:09.96	3.35	9.06	
2025-01-13 09:57:10.16	3.33	9.07	
2025-01-13 09:57:10.37	3.30	9.09	
2025-01-13 09:57:10.57	3.28	9.10	
2025-01-13 09:57:10.77	3.26	9.12	
2025-01-13 09:57:10.98	3.24	9.13	
2025-01-13 09:57:11.18	3.21	9.15	
2025-01-13 09:57:11.39	3.19	9.16	
2025-01-13 09:57:11.59	3.17	9.18	
2025-01-13 09:57:11.80	3.14	9.20	
2025-01-13 09:57:12.00	3.12	9.21	
2025-01-13 09:57:12.21	3.10	9.23	
2025-01-13 09:57:12.43	3.07	9.24	
2025-01-13 09:57:12.63	3.05	9.26	
2025-01-13 09:57:12.84	3.03	9.27	
2025-01-13 09:57:13.05	3.00	9.29	
2025-01-13 09:57:13.25	2.98	9.30	
2025-01-13 09:57:13.45	2.96	9.32	
2025-01-13 09:57:13.66	2.93	9.33	
2025-01-13 09:57:13.86	2.91	9.35	
2025-01-13 09:57:14.07	2.89	9.36	
2025-01-13 09:57:14.27	2.87	9.38	
2025-01-13 09:57:14.48	2.84	9.39	
2025-01-13 09:57:14.68	2.82	9.41	
2025-01-13 09:57:14.89	2.79	9.42	
2025-01-13 09:57:15.09	2.77	9.44	
2025-01-13 09:57:15.29	2.75	9.45	
2025-01-13 09:57:15.50	2.72	9.47	
2025-01-13 09:57:15.70	2.70	9.48	
2025-01-13 09:57:15.91	2.68	9.50	
2025-01-13 09:57:16.12	2.65	9.51	
2025-01-13 09:57:16.32	2.63	9.53	
2025-01-13 09:57:16.53	2.61	9.54	
2025-01-13 09:57:16.73	2.58	9.56	
2025-01-13 09:57:16.94	2.56	9.58	
2025-01-13 09:57:17.14	2.54	9.59	
2025-01-13 09:57:17.35	2.51	9.61	
2025-01-13 09:57:17.55	2.49	9.62	
2025-01-13 09:57:17.76	2.46	9.64	
2025-01-13 09:57:17.96	2.44	9.65	
2025-01-13 09:57:18.17	2.42	9.67	
2025-01-13 09:57:18.37	2.39	9.68	
2025-01-13 09:57:18.58	2.37	9.70	
2025-01-13 09:57:18.78	2.35	9.71	
2025-01-13 09:57:18.99	2.32	9.73	
2025-01-13 09:57:19.19	2.30	9.74	
2025-01-13 09:57:19.40	2.27	9.76	
2025-01-13 09:57:19.60	2.25	9.77	
2025-01-13 09:57:19.81	2.22	9.79	
2025-01-13 09:57:20.01	2.20	9.80	
2025-01-13 09:57:20.22	2.18	9.82	
2025-01-13 09:57:20.42	2.15	9.83	
2025-01-13 09:57:20.63	2.13	9.85	
2025-01-13 09:57:20.83	2.10	9.87	
2025-01-13 09:57:21.04	2.08	9.88	
2025-01-13 09:57:21.24	2.06	9.90	
2025-01-13 09:57:21.45	2.03	9.91	
2025-01-13 09:57:21.65	2.01	9.93	
2025-01-13 09:57:21.86	1.98	9.94	
2025-01-13 09:57:22.06	1.96	9.96	
2025-01-13 09:57:22.27	1.93	9.97	
2025-01-13 09:57:22.47	1.91	9.99	
2025-01-13 09:57:22.68	1.88	10.00	
2025-01-13 09:57:22.89	1.86	10.02	
2025-01-13 09:57:23.09	1.84	10.03	
2025-01-13 09:57:23.29	1.81	10.05	
2025-01-13 09:57:23.50	1.79	10.07	
2025-01-13 09:57:23.71	1.76	10.08	
2025-01-13 09:57:23.91	1.74	10.10	
2025-01-13 09:57:24.12	1.71	10.11	
2025-01-13 09:57:24.32	1.69	10.13	
2025-01-13 09:57:24.53	1.66	10.14	
2025-01-13 09:57:24.73	1.64	10.16	
2025-01-13 09:57:24.94	1.61	10.17	
2025-01-13 09:57:25.14	1.59	10.19	
2025-01-13 09:57:25.35	1.56	10.20	
2025-01-13 09:57:25.55	1.54	10.22	
2025-01-13 09:57:25.76	1.51	10.24	
2025-01-13 09:57:25.96	1.49	10.25	
2025-01-13 09:57:26.17	1.46	10.27	
2025-01-13 09:57:26.37	1.44	10.28	
2025-01-13 09:57:26.58	1.41	10.30	
2025-01-13 09:57:26.79	1.39	10.31	
2025-01-13 09:57:26.99	1.36	10.33	
2025-01-13 09:57:27.20	1.34	10.34	
2025-01-13 09:57:27.40	1.31	10.36	
2025-01-13 09:57:27.61	1.29	10.38	
2025-01-13 09:57:27.81	1.26	10.39	
2025-01-13 09:57:28.01	1.24	10.41	
2025-01-13 09:57:28.22	1.21	10.42	
2025-01-13 09:57:28.42	1.19	10.44	
2025-01-13 09:57:28.63	1.16	10.45	
2025-01-13 09:57:28.83	1.14	10.47	
2025-01-13 09:57:29.04	1.11	10.48	
2025-01-13 09:57:29.25	1.08	10.50	
2025-01-13 09:57:29.45	1.06	10.52	
2025-01-13 09:57:29.65	1.03	10.53	
2025-01-13 09:57:29.86	1.01	10.55	
2025-01-13 09:57:30.06	0.98	10.56	
2025-01-13 09:57:30.28	0.96	10.58	
2025-01-13 09:57:30.48	0.93	10.59	
2025-01-13 09:57:30.69	0.90	10.61	
2025-01-13 09:57:30.89	0.88	10.62	
2025-01-13 09:57:31.10	0.85	10.64	
2025-01-13 09:57:31.30	0.83	10.66	
2025-01-13 09:57:31.51	0.80	10.67	
2025-01-13 09:57:31.72	0.78	10.69	
2025-01-13 09:57:31.93	0.75	10.70	
2025-01-13 09:57:32.13	0.72	10.72	
2025-01-13 09:57:32.34	0.70	10.74	
2025-01-13 09:57:32.54	0.67	10.75	
2025-01-13 09:57:32.75	0.65	10.77	
2025-01-13 09:57:32.95	0.62	10.78	
2025-01-13 09:57:33.16	0.59	10.80	
2025-01-13 09:57:33.36	0.57	10.81	
2025-01-13 09:57:33.57	0.54	10.83	
2025-01-13 09:57:33.77	0.52	10.84	
2025-01-13 09:57:33.98	0.49	10.86	
2025-01-13 09:57:34.18	0.46	10.88	
2025-01-13 09:57:34.39	0.44	10.89	
2025-01-13 09:57:34.59	0.41	10.91	
2025-01-13 09:57:34.80	0.38	10.92	
2025-01-13 09:57:35.00	0.36	10.94	
2025-01-13 09:57:35.21	0.33	10.96	
2025-01-13 09:57:35.41	0.31	10.97	
2025-01-13 09:57:35.62	0.28	10.99	
2025-01-13 09:57:35.83	0.25	11.00	
2025-01-13 09:57:36.03	0.23	11.02	
2025-01-13 09:57:36.24	0.20	11.03	
2025-01-13 09:57:36.44	0.17	11.05	
2025-01-13 09:57:36.65	0.15	11.07	
2025-01-13 09:57:36.85	0.12	11.08	
2025-01-13 09:57:37.06	0.09	11.10	
2025-01-13 09:57:37.26	0.07	11.11	
2025-01-13 09:57:37.46	0.04	11.13	
2025-01-13 09:57:37.67	0.01	11.14	
2025-01-13 09:57:37.88	359.99	11.16	
2025-01-13 09:57:38.08	359.96	11.18	
2025-01-13 09:57:38.29	359.93	11.19	
2025-01-13 09:57:38.49	359.91	11.21	
2025-01-13 09:57:38.70	359.88	11.22	
2025-01-13 09:57:38.90	359.85	11.24	
2025-01-13 09:57:39.11	359.83	11.26	
2025-01-13 09:57:39.31	359.80	11.27	
2025-01-13 09:57:39.52	359.77	11.29	
2025-01-13 09:57:39.72	359.74	11.30	
2025-01-13 09:57:39.93	359.72	11.32	
2025-01-13 09:57:40.13	359.69	11.33	
2025-01-13 09:57:40.34	359.66	11.35	
2025-01-13 09:57:40.55	359.64	11.37	
2025-01-13 09:57:40.75	359.61	11.38	
2025-01-13 09:57:40.96	359.58	11.40	
2025-01-13 09:57:41.16	359.55	11.41	
2025-01-13 09:57:41.36	359.53	11.43	
2025-01-13 09:57:41.57	359.50	11.45	
2025-01-13 09:57:41.77	359.47	11.46	
2025-01-13 09:57:41.98	359.45	11.48	
2025-01-13 09:57:42.18	359.42	11.49	
2025-01-13 09:57:42.39	359.39	11.51	
2025-01-13 09:57:42.59	359.36	11.53	
2025-01-13 09:57:42.80	359.34	11.54	
2025-01-13 09:57:43.01	359.31	11.56	
2025-01-13 09:57:43.21	359.28	11.57	
2025-01-13 09:57:43.43	359.25	11.59	
2025-01-13 09:57:43.64	359.22	11.61	
2025-01-13 09:57:43.84	359.20	11.62	
2025-01-13 09:57:44.05	359.17	11.64	
2025-01-13 09:57:44.25	359.14	11.65	
2025-01-13 09:57:44.47	359.11	11.67	
2025-01-13 09:57:44.68	359.08	11.69	
2025-01-13 09:57:44.88	359.05	11.70	
2025-01-13 09:57:45.09	359.03	11.72	
2025-01-13 09:57:45.29	359.00	11.74	
2025-01-13 09:57:45.50	358.97	11.75	
2025-01-13 09:57:45.70	358.94	11.77	
2025-01-13 09:57:45.91	358.91	11.78	
2025-01-13 09:57:46.11	358.89	11.80	
2025-01-13 09:57:46.32	358.86	11.82	
2025-01-13 09:57:46.52	358.83	11.83	
2025-01-13 09:57:46.73	358.80	11.85	
2025-01-13 09:57:46.93	358.77	11.86	
2025-01-13 09:57:47.14	358.75	11.88	
2025-01-13 09:57:47.35	358.72	11.90	
2025-01-13 09:57:47.55	358.69	11.91	
2025-01-13 09:57:47.75	358.66	11.93	
2025-01-13 09:57:47.96	358.63	11.94	
2025-01-13 09:57:48.17	358.60	11.96	
2025-01-13 09:57:48.37	358.58	11.98	
2025-01-13 09:57:48.58	358.55	11.99	
2025-01-13 09:57:48.78	358.52	12.01	
2025-01-13 09:57:48.99	358.49	12.03	
2025-01-13 09:57:49.19	358.46	12.04	
2025-01-13 09:57:49.40	358.43	12.06	
2025-01-13 09:57:49.60	358.40	12.07	
2025-01-13 09:57:49.80	358.38	12.09	
2025-01-13 09:57:50.01	358.35	12.11	
2025-01-13 09:57:50.21	358.32	12.12	
2025-01-13 09:57:50.42	358.29	12.14	
2025-01-13 09:57:50.62	358.26	12.15	
2025-01-13 09:57:50.83	358.23	12.17	
2025-01-13 09:57:51.03	358.20	12.19	
2025-01-13 09:57:51.24	358.17	12.20	
2025-01-13 09:57:51.44	358.15	12.22	
2025-01-13 09:57:51.65	358.12	12.23	
2025-01-13 09:57:51.85	358.09	12.25	
2025-01-13 09:57:52.06	358.06	12.27	
2025-01-13 09:57:52.26	358.03	12.28	
2025-01-13 09:57:52.47	358.00	12.30	
2025-01-13 09:57:52.67	357.97	12.32	
2025-01-13 09:57:52.88	357.94	12.33	
2025-01-13 09:57:53.08	357.91	12.35	
2025-01-13 09:57:53.28	357.88	12.36	
2025-01-13 09:57:53.49	357.85	12.38	
2025-01-13 09:57:53.69	357.83	12.40	
2025-01-13 09:57:53.90	357.80	12.41	
2025-01-13 09:57:54.12	357.76	12.43	
2025-01-13 09:57:54.32	357.74	12.45	
2025-01-13 09:57:54.53	357.71	12.46	
2025-01-13 09:57:54.73	357.68	12.48	
2025-01-13 09:57:54.94	357.65	12.49	
2025-01-13 09:57:55.14	357.62	12.51	
2025-01-13 09:57:55.34	357.59	12.53	
2025-01-13 09:57:55.55	357.56	12.54	
2025-01-13 09:57:55.76	357.53	12.56	
2025-01-13 09:57:55.96	357.50	12.58	
2025-01-13 09:57:56.17	357.47	12.59	
2025-01-13 09:57:56.37	357.44	12.61	
2025-01-13 09:57:56.58	357.41	12.62	
2025-01-13 09:57:56.79	357.38	12.64	
2025-01-13 09:57:56.99	357.35	12.66	
2025-01-13 09:57:57.19	357.32	12.67	
2025-01-13 09:57:57.40	357.29	12.69	
2025-01-13 09:57:57.60	357.26	12.71	
2025-01-13 09:57:57.81	357.23	12.72	
2025-01-13 09:57:58.01	357.20	12.74	
2025-01-13 09:57:58.22	357.17	12.76	
2025-01-13 09:57:58.42	357.14	12.77	
2025-01-13 09:57:58.63	357.11	12.79	
2025-01-13 09:57:58.84	357.08	12.80	
2025-01-13 09:57:59.04	357.05	12.82	
2025-01-13 09:57:59.25	357.02	12.84	
2025-01-13 09:57:59.45	356.99	12.85	
2025-01-13 09:57:59.65	356.96	12.87	
2025-01-13 09:57:59.86	356.93	12.89	
2025-01-13 09:58:00.06	356.90	12.90	
2025-01-13 09:58:00.27	356.87	12.92	
2025-01-13 09:58:00.47	356.84	12.93	
2025-01-13 09:58:00.68	356.80	12.95	
2025-01-13 09:58:00.88	356.77	12.97	
2025-01-13 09:58:01.09	356.74	12.98	
2025-01-13 09:58:01.29	356.71	13.00	
2025-01-13 09:58:01.50	356.68	13.02	
2025-01-13 09:58:01.70	356.65	13.03	
2025-01-13 09:58:01.91	356.62	13.05	
2025-01-13 09:58:02.12	356.59	13.07	
2025-01-13 09:58:02.32	356.56	13.08	
2025-01-13 09:58:02.53	356.53	13.10	
2025-01-13 09:58:02.73	356.50	13.12	
2025-01-13 09:58:02.94	356.47	13.13	
2025-01-13 09:58:03.14	356.44	13.15	
2025-01-13 09:58:03.35	356.40	13.16	
2025-01-13 09:58:03.56	356.37	13.18	
2025-01-13 09:58:03.76	356.34	13.20	
2025-01-13 09:58:03.96	356.31	13.21	
2025-01-13 09:58:04.17	356.28	13.23	
2025-01-13 09:58:04.38	356.25	13.25	
2025-01-13 09:58:04.58	356.22	13.26	
2025-01-13 09:58:04.79	356.18	13.28	
2025-01-13 09:58:04.99	356.15	13.30	
2025-01-13 09:58:05.20	356.12	13.31	
2025-01-13 09:58:05.40	356.09	13.33	
2025-01-13 09:58:05.61	356.06	13.35	
2025-01-13 09:58:05.82	356.03	13.36	
2025-01-13 09:58:06.03	355.99	13.38	
2025-01-13 09:58:06.23	355.96	13.40	
2025-01-13 09:58:06.44	355.93	13.41	
2025-01-13 09:58:06.64	355.90	13.43	
2025-01-13 09:58:06.85	355.87	13.45	
2025-01-13 09:58:07.06	355.84	13.46	
2025-01-13 09:58:07.26	355.80	13.48	
2025-01-13 09:58:07.47	355.77	13.50	
2025-01-13 09:58:07.67	355.74	13.51	
2025-01-13 09:58:07.88	355.71	13.53	
2025-01-13 09:58:08.08	355.68	13.55	
2025-01-13 09:58:08.28	355.65	13.56	
2025-01-13 09:58:08.49	355.61	13.58	
2025-01-13 09:58:08.69	355.58	13.59	
2025-01-13 09:58:08.90	355.55	13.61	
2025-01-13 09:58:09.10	355.52	13.63	
2025-01-13 09:58:09.31	355.48	13.64	
2025-01-13 09:58:09.51	355.45	13.66	
2025-01-13 09:58:09.72	355.42	13.68	
2025-01-13 09:58:09.92	355.39	13.69	
2025-01-13 09:58:10.13	355.36	13.71	
2025-01-13 09:58:10.33	355.32	13.73	
2025-01-13 09:58:10.54	355.29	13.74	
2025-01-13 09:58:10.75	355.26	13.76	
2025-01-13 09:58:10.95	355.23	13.78	
2025-01-13 09:58:11.16	355.19	13.79	
2025-01-13 09:58:11.36	355.16	13.81	
2025-01-13 09:58:11.57	355.13	13.83	
2025-01-13 09:58:11.77	355.10	13.84	
2025-01-13 09:58:11.98	355.06	13.86	
2025-01-13 09:58:12.18	355.03	13.88	
2025-01-13 09:58:12.39	355.00	13.89	
2025-01-13 09:58:12.59	354.96	13.91	
2025-01-13 09:58:12.79	354.93	13.93	
2025-01-13 09:58:13.00	354.90	13.94	
2025-01-13 09:58:13.21	354.86	13.96	
2025-01-13 09:58:13.41	354.83	13.98	
2025-01-13 09:58:13.61	354.80	13.99	
2025-01-13 09:58:13.82	354.77	14.01	
2025-01-13 09:58:14.02	354.73	14.03	
2025-01-13 09:58:14.23	354.70	14.04	
2025-01-13 09:58:14.45	354.66	14.06	
2025-01-13 09:58:14.65	354.63	14.08	
2025-01-13 09:58:14.86	354.60	14.09	
2025-01-13 09:58:15.06	354.57	14.11	
2025-01-13 09:58:15.27	354.53	14.13	
2025-01-13 09:58:15.47	354.50	14.14	
2025-01-13 09:58:15.68	354.47	14.16	
2025-01-13 09:58:15.88	354.43	14.18	
2025-01-13 09:58:16.09	354.40	14.19	
2025-01-13 09:58:16.29	354.37	14.21	
2025-01-13 09:58:16.50	354.33	14.23	
2025-01-13 09:58:16.70	354.30	14.24	
2025-01-13 09:58:16.91	354.26	14.26	
2025-01-13 09:58:17.11	354.23	14.28	
2025-01-13 09:58:17.32	354.20	14.29	
2025-01-13 09:58:17.52	354.16	14.31	
2025-01-13 09:58:17.73	354.13	14.33	
2025-01-13 09:58:17.94	354.09	14.34	
2025-01-13 09:58:18.14	354.06	14.36	
2025-01-13 09:58:18.35	354.03	14.38	
2025-01-13 09:58:18.55	353.99	14.39	
2025-01-13 09:58:18.75	353.96	14.41	
2025-01-13 09:58:18.96	353.93	14.43	
2025-01-13 09:58:19.16	353.89	14.44	
2025-01-13 09:58:19.37	353.86	14.46	
2025-01-13 09:58:19.57	353.82	14.48	
2025-01-13 09:58:19.77	353.79	14.49	
2025-01-13 09:58:19.98	353.75	14.51	
2025-01-13 09:58:20.19	353.72	14.53	
2025-01-13 09:58:20.39	353.69	14.54	
2025-01-13 09:58:20.60	353.65	14.56	
2025-01-13 09:58:20.80	353.62	14.58	
2025-01-13 09:58:21.01	353.58	14.59	
2025-01-13 09:58:21.21	353.55	14.61	
2025-01-13 09:58:21.42	353.51	14.63	
2025-01-13 09:58:21.63	353.48	14.64	
2025-01-13 09:58:21.83	353.44	14.66	
2025-01-13 09:58:22.03	353.41	14.68	
2025-01-13 09:58:22.24	353.37	14.69	
2025-01-13 09:58:22.45	353.34	14.71	
2025-01-13 09:58:22.65	353.30	14.73	
2025-01-13 09:58:22.86	353.27	14.75	
2025-01-13 09:58:23.06	353.23	14.76	
2025-01-13 09:58:23.27	353.20	14.78	
2025-01-13 09:58:23.47	353.17	14.80	
2025-01-13 09:58:23.68	353.13	14.81	
2025-01-13 09:58:23.89	353.09	14.83	
2025-01-13 09:58:24.09	353.06	14.85	
2025-01-13 09:58:24.30	353.02	14.86	
2025-01-13 09:58:24.50	352.99	14.88	
2025-01-13 09:58:24.71	352.95	14.90	
2025-01-13 09:58:24.91	352.92	14.91	
2025-01-13 09:58:25.13	352.88	14.93	
2025-01-13 09:58:25.33	352.85	14.95	
2025-01-13 09:58:25.54	352.81	14.96	
2025-01-13 09:58:25.75	352.77	14.98	
2025-01-13 09:58:25.95	352.74	15.00	
2025-01-13 09:58:26.15	352.70	15.01	
2025-01-13 09:58:26.36	352.67	15.03	
2025-01-13 09:58:26.57	352.63	15.05	
2025-01-13 09:58:26.77	352.60	15.07	
2025-01-13 09:58:26.98	352.56	15.08	
2025-01-13 09:58:27.18	352.52	15.10	
2025-01-13 09:58:27.39	352.49	15.12	
2025-01-13 09:58:27.59	352.45	15.13	
2025-01-13 09:58:27.80	352.42	15.15	
2025-01-13 09:58:28.00	352.38	15.17	
2025-01-13 09:58:28.21	352.34	15.18	
2025-01-13 09:58:28.41	352.31	15.20	
2025-01-13 09:58:28.62	352.27	15.22	
2025-01-13 09:58:28.83	352.23	15.23	
2025-01-13 09:58:29.03	352.20	15.25	
2025-01-13 09:58:29.24	352.16	15.27	
2025-01-13 09:58:29.44	352.13	15.28	
2025-01-13 09:58:29.65	352.09	15.30	
2025-01-13 09:58:29.85	352.05	15.32	
2025-01-13 09:58:30.06	352.02	15.34	
2025-01-13 09:58:30.26	351.98	15.35	
2025-01-13 09:58:30.46	351.95	15.37	
2025-01-13 09:58:30.67	351.91	15.39	
2025-01-13 09:58:30.88	351.87	15.40	
2025-01-13 09:58:31.08	351.84	15.42	
2025-01-13 09:58:31.29	351.80	15.44	
2025-01-13 09:58:31.49	351.76	15.45	
2025-01-13 09:58:31.70	351.72	15.47	
2025-01-13 09:58:31.90	351.69	15.49	
2025-01-13 09:58:32.11	351.65	15.50	
2025-01-13 09:58:32.32	351.61	15.52	
2025-01-13 09:58:32.52	351.58	15.54	
2025-01-13 09:58:32.73	351.54	15.55	
2025-01-13 09:58:32.93	351.50	15.57	
2025-01-13 09:58:33.14	351.46	15.59	
2025-01-13 09:58:33.35	351.43	15.61	
2025-01-13 09:58:33.55	351.39	15.62	
2025-01-13 09:58:33.76	351.35	15.64	
2025-01-13 09:58:33.96	351.32	15.66	
2025-01-13 09:58:34.17	351.28	15.67	
2025-01-13 09:58:34.37	351.24	15.69	
2025-01-13 09:58:34.57	351.20	15.71	
2025-01-13 09:58:34.78	351.17	15.72	
2025-01-13 09:58:34.99	351.13	15.74	
2025-01-13 09:58:35.19	351.09	15.76	
2025-01-13 09:58:35.40	351.05	15.77	
2025-01-13 09:58:35.60	351.02	15.79	
2025-01-13 09:58:35.80	350.98	15.81	
2025-01-13 09:58:36.01	350.94	15.82	
2025-01-13 09:58:36.22	350.90	15.84	
2025-01-13 09:58:36.42	350.87	15.86	
2025-01-13 09:58:36.63	350.83	15.88	
2025-01-13 09:58:36.85	350.79	15.89	
2025-01-13 09:58:37.05	350.75	15.91	
2025-01-13 09:58:37.26	350.71	15.93	
2025-01-13 09:58:37.46	350.67	15.94	
2025-01-13 09:58:37.67	350.63	15.96	
2025-01-13 09:58:37.87	350.60	15.98	
2025-01-13 09:58:38.08	350.56	15.99	
2025-01-13 09:58:38.28	350.52	16.01	
2025-01-13 09:58:38.49	350.48	16.03	
2025-01-13 09:58:38.69	350.44	16.05	
2025-01-13 09:58:38.90	350.40	16.06	
2025-01-13 09:58:39.10	350.37	16.08	
2025-01-13 09:58:39.31	350.33	16.10	
2025-01-13 09:58:39.51	350.29	16.11	
2025-01-13 09:58:39.72	350.25	16.13	
2025-01-13 09:58:39.92	350.21	16.15	
2025-01-13 09:58:40.13	350.17	16.16	
2025-01-13 09:58:40.34	350.13	16.18	
2025-01-13 09:58:40.54	350.10	16.20	
2025-01-13 09:58:40.75	350.06	16.21	
2025-01-13 09:58:40.95	350.02	16.23	
2025-01-13 09:58:41.17	349.98	16.25	
2025-01-13 09:58:41.38	349.94	16.27	
2025-01-13 09:58:41.58	349.90	16.28	
2025-01-13 09:58:41.79	349.86	16.30	
2025-01-13 09:58:42.00	349.82	16.32	
2025-01-13 09:58:42.20	349.78	16.33	
2025-01-13 09:58:42.40	349.74	16.35	
2025-01-13 09:58:42.60	349.70	16.37	
2025-01-13 09:58:42.81	349.66	16.38	
2025-01-13 09:58:43.02	349.62	16.40	
2025-01-13 09:58:43.22	349.58	16.42	
2025-01-13 09:58:43.43	349.54	16.44	
2025-01-13 09:58:43.63	349.51	16.45	
2025-01-13 09:58:43.84	349.47	16.47	
2025-01-13 09:58:44.04	349.43	16.49	
2025-01-13 09:58:44.24	349.39	16.50	
2025-01-13 09:58:44.45	349.35	16.52	
2025-01-13 09:58:44.66	349.31	16.54	
2025-01-13 09:58:44.86	349.27	16.55	
2025-01-13 09:58:45.07	349.23	16.57	
2025-01-13 09:58:45.27	349.19	16.59	
2025-01-13 09:58:45.47	349.15	16.60	
2025-01-13 09:58:45.68	349.11	16.62	
2025-01-13 09:58:45.88	349.07	16.64	
2025-01-13 09:58:46.09	349.03	16.65	
2025-01-13 09:58:46.29	348.99	16.67	
2025-01-13 09:58:46.50	348.95	16.69	
2025-01-13 09:58:46.70	348.91	16.70	
2025-01-13 09:58:46.91	348.87	16.72	
2025-01-13 09:58:47.11	348.83	16.74	
2025-01-13 09:58:47.32	348.79	16.76	
2025-01-13 09:58:47.53	348.75	16.77	
2025-01-13 09:58:47.73	348.71	16.79	
2025-01-13 09:58:47.94	348.67	16.81	
2025-01-13 09:58:48.14	348.63	16.82	
2025-01-13 09:58:48.35	348.58	16.84	
2025-01-13 09:58:48.55	348.54	16.86	
2025-01-13 09:58:48.76	348.50	16.87	
2025-01-13 09:58:48.96	348.46	16.89	
2025-01-13 09:58:49.17	348.42	16.91	
2025-01-13 09:58:49.37	348.38	16.92	
2025-01-13 09:58:49.58	348.34	16.94	
2025-01-13 09:58:49.78	348.30	16.96	
2025-01-13 09:58:49.99	348.26	16.98	
2025-01-13 09:58:50.19	348.22	16.99	
2025-01-13 09:58:50.40	348.18	17.01	
2025-01-13 09:58:50.60	348.14	17.03	
2025-01-13 09:58:50.81	348.09	17.04	
2025-01-13 09:58:51.01	348.05	17.06	
2025-01-13 09:58:51.21	348.01	17.08	
2025-01-13 09:58:51.42	347.97	17.09	
2025-01-13 09:58:51.62	347.93	17.11	
2025-01-13 09:58:51.83	347.89	17.13	
2025-01-13 09:58:52.03	347.85	17.14	
2025-01-13 09:58:52.24	347.80	17.16	
2025-01-13 09:58:52.45	347.76	17.18	
2025-01-13 09:58:52.65	347.72	17.19	
2025-01-13 09:58:52.86	347.68	17.21	
2025-01-13 09:58:53.06	347.64	17.23	
2025-01-13 09:58:53.27	347.60	17.24	
2025-01-13 09:58:53.48	347.55	17.26	
2025-01-13 09:58:53.68	347.51	17.28	
2025-01-13 09:58:53.90	347.47	17.30	
2025-01-13 09:58:54.10	347.43	17.31	
2025-01-13 09:58:54.31	347.38	17.33	
2025-01-13 09:58:54.52	347.34	17.35	
2025-01-13 09:58:54.72	347.30	17.36	
2025-01-13 09:58:54.94	347.25	17.38	
2025-01-13 09:58:55.15	347.21	17.40	
2025-01-13 09:58:55.35	347.17	17.41	
2025-01-13 09:58:55.56	347.13	17.43	
2025-01-13 09:58:55.76	347.08	17.45	
2025-01-13 09:58:55.97	347.04	17.47	
2025-01-13 09:58:56.17	347.00	17.48	
2025-01-13 09:58:56.38	346.96	17.50	
2025-01-13 09:58:56.58	346.91	17.52	
2025-01-13 09:58:56.79	346.87	17.53	
2025-01-13 09:58:56.99	346.83	17.55	
2025-01-13 09:58:57.19	346.79	17.57	
2025-01-13 09:58:57.40	346.74	17.58	
2025-01-13 09:58:57.60	346.70	17.60	
2025-01-13 09:58:57.81	346.66	17.62	
2025-01-13 09:58:58.01	346.62	17.63	
2025-01-13 09:58:58.22	346.57	17.65	
2025-01-13 09:58:58.42	346.53	17.67	
2025-01-13 09:58:58.63	346.49	17.68	
2025-01-13 09:58:58.84	346.44	17.70	
2025-01-13 09:58:59.04	346.40	17.72	
2025-01-13 09:58:59.25	346.36	17.73	
2025-01-13 09:58:59.45	346.31	17.75	
2025-01-13 09:58:59.66	346.27	17.77	
2025-01-13 09:58:59.86	346.23	17.78	
2025-01-13 09:59:00.06	346.18	17.80	
2025-01-13 09:59:00.27	346.14	17.82	
2025-01-13 09:59:00.47	346.10	17.83	
2025-01-13 09:59:00.68	346.05	17.85	
2025-01-13 09:59:00.88	346.01	17.87	
2025-01-13 09:59:01.09	345.96	17.88	
2025-01-13 09:59:01.29	345.92	17.90	
2025-01-13 09:59:01.50	345.88	17.92	
2025-01-13 09:59:01.70	345.83	17.93	
2025-01-13 09:59:01.91	345.79	17.95	
2025-01-13 09:59:02.11	345.75	17.97	
2025-01-13 09:59:02.32	345.70	17.98	
2025-01-13 09:59:02.52	345.66	18.00	
2025-01-13 09:59:02.73	345.61	18.02	
2025-01-13 09:59:02.94	345.57	18.03	
2025-01-13 09:59:03.14	345.52	18.05	
2025-01-13 09:59:03.34	345.48	18.07	
2025-01-13 09:59:03.55	345.44	18.08	
2025-01-13 09:59:03.75	345.39	18.10	
2025-01-13 09:59:03.96	345.35	18.12	
2025-01-13 09:59:04.16	345.30	18.13	
2025-01-13 09:59:04.37	345.26	18.15	
2025-01-13 09:59:04.57	345.21	18.17	
2025-01-13 09:59:04.78	345.17	18.18	
2025-01-13 09:59:04.98	345.13	18.20	
2025-01-13 09:59:05.19	345.08	18.22	
2025-01-13 09:59:05.39	345.04	18.23	
2025-01-13 09:59:05.61	344.99	18.25	
2025-01-13 09:59:05.82	344.94	18.27	
2025-01-13 09:59:06.02	344.90	18.28	
2025-01-13 09:59:06.23	344.85	18.30	
2025-01-13 09:59:06.44	344.81	18.32	
2025-01-13 09:59:06.64	344.76	18.33	
2025-01-13 09:59:06.85	344.72	18.35	
2025-01-13 09:59:07.05	344.67	18.37	
2025-01-13 09:59:07.25	344.63	18.38	
2025-01-13 09:59:07.46	344.58	18.40	
2025-01-13 09:59:07.67	344.53	18.42	
2025-01-13 09:59:07.87	344.49	18.43	
2025-01-13 09:59:08.08	344.44	18.45	
2025-01-13 09:59:08.28	344.40	18.47	
2025-01-13 09:59:08.48	344.35	18.48	
2025-01-13 09:59:08.69	344.31	18.50	
2025-01-13 09:59:08.89	344.26	18.52	
2025-01-13 09:59:09.10	344.22	18.53	
2025-01-13 09:59:09.30	344.17	18.55	
2025-01-13 09:59:09.51	344.12	18.57	
2025-01-13 09:59:09.71	344.08	18.58	
2025-01-13 09:59:09.92	344.03	18.60	
2025-01-13 09:59:10.12	343.99	18.61	
2025-01-13 09:59:10.33	343.94	18.63	
2025-01-13 09:59:10.53	343.90	18.65	
2025-01-13 09:59:10.74	343.85	18.66	
2025-01-13 09:59:10.94	343.80	18.68	
2025-01-13 09:59:11.15	343.76	18.70	
2025-01-13 09:59:11.35	343.71	18.71	
2025-01-13 09:59:11.56	343.66	18.73	
2025-01-13 09:59:11.76	343.62	18.75	
2025-01-13 09:59:11.96	343.57	18.76	
2025-01-13 09:59:12.17	343.52	18.78	
2025-01-13 09:59:12.38	343.48	18.80	
2025-01-13 09:59:12.58	343.43	18.81	
2025-01-13 09:59:12.79	343.38	18.83	
2025-01-13 09:59:12.99	343.34	18.84	
2025-01-13 09:59:13.20	343.29	18.86	
2025-01-13 09:59:13.40	343.24	18.88	
2025-01-13 09:59:13.61	343.20	18.89	
2025-01-13 09:59:13.81	343.15	18.91	
2025-01-13 09:59:14.02	343.10	18.93	
2025-01-13 09:59:14.22	343.06	18.94	
2025-01-13 09:59:14.43	343.01	18.96	
2025-01-13 09:59:14.63	342.96	18.98	
2025-01-13 09:59:14.84	342.91	18.99	
2025-01-13 09:59:15.05	342.86	19.01	
2025-01-13 09:59:15.26	342.82	19.03	
2025-01-13 09:59:15.47	342.77	19.04	
2025-01-13 09:59:15.68	342.72	19.06	
2025-01-13 09:59:15.88	342.67	19.07	
2025-01-13 09:59:16.09	342.62	19.09	
2025-01-13 09:59:16.29	342.58	19.11	
2025-01-13 09:59:16.50	342.53	19.12	
2025-01-13 09:59:16.70	342.48	19.14	
2025-01-13 09:59:16.91	342.43	19.16	
2025-01-13 09:59:17.11	342.39	19.17	
2025-01-13 09:59:17.32	342.34	19.19	
2025-01-13 09:59:17.52	342.29	19.20	
2025-01-13 09:59:17.73	342.24	19.22	
2025-01-13 09:59:17.93	342.19	19.24	
2025-01-13 09:59:18.14	342.14	19.25	
2025-01-13 09:59:18.34	342.10	19.27	
2025-01-13 09:59:18.55	342.05	19.29	
2025-01-13 09:59:18.75	342.00	19.30	
2025-01-13 09:59:18.96	341.95	19.32	
2025-01-13 09:59:19.16	341.90	19.33	
2025-01-13 09:59:19.37	341.85	19.35	
2025-01-13 09:59:19.57	341.81	19.37	
2025-01-13 09:59:19.78	341.76	19.38	
2025-01-13 09:59:19.98	341.71	19.40	
2025-01-13 09:59:20.19	341.66	19.41	
2025-01-13 09:59:20.39	341.61	19.43	
2025-01-13 09:59:20.60	341.56	19.45	
2025-01-13 09:59:20.80	341.52	19.46	
2025-01-13 09:59:21.01	341.46	19.48	
2025-01-13 09:59:21.21	341.42	19.49	
2025-01-13 09:59:21.42	341.37	19.51	
2025-01-13 09:59:21.62	341.32	19.53	
2025-01-13 09:59:21.83	341.27	19.54	
2025-01-13 09:59:22.03	341.22	19.56	
2025-01-13 09:59:22.24	341.17	19.57	
2025-01-13 09:59:22.44	341.12	19.59	
2025-01-13 09:59:22.65	341.07	19.61	
2025-01-13 09:59:22.85	341.02	19.62	
2025-01-13 09:59:23.06	340.97	19.64	
2025-01-13 09:59:23.26	340.92	19.65	
2025-01-13 09:59:23.47	340.87	19.67	
2025-01-13 09:59:23.67	340.83	19.69	
2025-01-13 09:59:23.87	340.78	19.70	
2025-01-13 09:59:24.08	340.73	19.72	
2025-01-13 09:59:24.29	340.67	19.73	
2025-01-13 09:59:24.49	340.63	19.75	
2025-01-13 09:59:24.70	340.58	19.77	
2025-01-13 09:59:24.90	340.53	19.78	
2025-01-13 09:59:25.11	340.48	19.80	
2025-01-13 09:59:25.31	340.43	19.81	
2025-01-13 09:59:25.52	340.38	19.83	
2025-01-13 09:59:25.73	340.32	19.85	
2025-01-13 09:59:25.93	340.27	19.86	
2025-01-13 09:59:26.14	340.22	19.88	
2025-01-13 09:59:26.35	340.17	19.89	
2025-01-13 09:59:26.55	340.12	19.91	
2025-01-13 09:59:26.76	340.07	19.92	
2025-01-13 09:59:26.98	340.02	19.94	
2025-01-13 09:59:27.18	339.97	19.96	
2025-01-13 09:59:27.39	339.92	19.97	
2025-01-13 09:59:27.59	339.87	19.99	
2025-01-13 09:59:27.80	339.81	20.00	
2025-01-13 09:59:28.00	339.76	20.02	
2025-01-13 09:59:28.21	339.71	20.04	
2025-01-13 09:59:28.41	339.66	20.05	
2025-01-13 09:59:28.62	339.61	20.07	
2025-01-13 09:59:28.82	339.56	20.08	
2025-01-13 09:59:29.03	339.51	20.10	
2025-01-13 09:59:29.23	339.46	20.11	
2025-01-13 09:59:29.43	339.41	20.13	
2025-01-13 09:59:29.64	339.36	20.14	
2025-01-13 09:59:29.85	339.30	20.16	
2025-01-13 09:59:30.05	339.25	20.18	
2025-01-13 09:59:30.25	339.20	20.19	
2025-01-13 09:59:30.46	339.15	20.21	
2025-01-13 09:59:30.67	339.10	20.22	
2025-01-13 09:59:30.87	339.05	20.24	
2025-01-13 09:59:31.08	338.99	20.25	
2025-01-13 09:59:31.28	338.94	20.27	
2025-01-13 09:59:31.49	338.89	20.28	
2025-01-13 09:59:31.69	338.84	20.30	
2025-01-13 09:59:31.90	338.79	20.32	
2025-01-13 09:59:32.10	338.74	20.33	
2025-01-13 09:59:32.30	338.69	20.35	
2025-01-13 09:59:32.51	338.63	20.36	
2025-01-13 09:59:32.72	338.58	20.38	
2025-01-13 09:59:32.92	338.53	20.39	
2025-01-13 09:59:33.13	338.48	20.41	
2025-01-13 09:59:33.33	338.42	20.42	
2025-01-13 09:59:33.54	338.37	20.44	
2025-01-13 09:59:33.74	338.32	20.45	
2025-01-13 09:59:33.95	338.27	20.47	
2025-01-13 09:59:34.15	338.22	20.48	
2025-01-13 09:59:34.36	338.16	20.50	
2025-01-13 09:59:34.57	338.11	20.52	
2025-01-13 09:59:34.77	338.06	20.53	
2025-01-13 09:59:34.98	338.00	20.55	
2025-01-13 09:59:35.18	337.95	20.56	
2025-01-13 09:59:35.39	337.90	20.58	
2025-01-13 09:59:35.59	337.85	20.59	
2025-01-13 09:59:35.80	337.79	20.61	
2025-01-13 09:59:36.00	337.74	20.62	
2025-01-13 09:59:36.21	337.69	20.64	
2025-01-13 09:59:36.41	337.63	20.65	
2025-01-13 09:59:36.62	337.58	20.67	
2025-01-13 09:59:36.82	337.53	20.68	
2025-01-13 09:59:37.03	337.47	20.70	
2025-01-13 09:59:37.23	337.42	20.71	
2025-01-13 09:59:37.44	337.37	20.73	
2025-01-13 09:59:37.64	337.31	20.74	
2025-01-13 09:59:37.84	337.26	20.76	
2025-01-13 09:59:38.05	337.21	20.77	
2025-01-13 09:59:38.26	337.15	20.79	
2025-01-13 09:59:38.46	337.10	20.80	
2025-01-13 09:59:38.67	337.04	20.82	
2025-01-13 09:59:38.87	336.99	20.83	
2025-01-13 09:59:39.08	336.94	20.85	
2025-01-13 09:59:39.28	336.88	20.86	
2025-01-13 09:59:39.49	336.83	20.88	
2025-01-13 09:59:39.71	336.77	20.89	
2025-01-13 09:59:39.91	336.72	20.91	
2025-01-13 09:59:40.12	336.66	20.92	
2025-01-13 09:59:40.32	336.61	20.94	
2025-01-13 09:59:40.53	336.56	20.95	
2025-01-13 09:59:40.73	336.50	20.97	
2025-01-13 09:59:40.94	336.45	20.98	
2025-01-13 09:59:41.15	336.39	21.00	
2025-01-13 09:59:41.35	336.34	21.01	
2025-01-13 09:59:41.56	336.28	21.03	
2025-01-13 09:59:41.76	336.23	21.04	
2025-01-13 09:59:41.96	336.18	21.06	
2025-01-13 09:59:42.17	336.12	21.07	
2025-01-13 09:59:42.37	336.07	21.08	
2025-01-13 09:59:42.58	336.01	21.10	
2025-01-13 09:59:42.78	335.96	21.11	
2025-01-13 09:59:43.00	335.90	21.13	
2025-01-13 09:59:43.20	335.84	21.14	
2025-01-13 09:59:43.41	335.79	21.16	
2025-01-13 09:59:43.61	335.73	21.17	
2025-01-13 09:59:43.82	335.68	21.19	
2025-01-13 09:59:44.03	335.62	21.20	
2025-01-13 09:59:44.23	335.57	21.22	
2025-01-13 09:59:44.44	335.51	21.23	
2025-01-13 09:59:44.64	335.46	21.25	
2025-01-13 09:59:44.85	335.40	21.26	
2025-01-13 09:59:45.05	335.35	21.27	
2025-01-13 09:59:45.26	335.29	21.29	
2025-01-13 09:59:45.46	335.24	21.30	
2025-01-13 09:59:45.67	335.18	21.32	
2025-01-13 09:59:45.87	335.12	21.33	
2025-01-13 09:59:46.08	335.07	21.35	
2025-01-13 09:59:46.28	335.01	21.36	
2025-01-13 09:59:46.49	334.96	21.38	
2025-01-13 09:59:46.69	334.90	21.39	
2025-01-13 09:59:46.90	334.84	21.40	
2025-01-13 09:59:47.10	334.79	21.42	
2025-01-13 09:59:47.31	334.73	21.43	
2025-01-13 09:59:47.51	334.68	21.45	
2025-01-13 09:59:47.72	334.62	21.46	
2025-01-13 09:59:47.93	334.56	21.48	
2025-01-13 09:59:48.13	334.51	21.49	
2025-01-13 09:59:48.33	334.45	21.50	
2025-01-13 09:59:48.54	334.40	21.52	
2025-01-13 09:59:48.74	334.34	21.53	
2025-01-13 09:59:48.95	334.28	21.55	
2025-01-13 09:59:49.15	334.23	21.56	
2025-01-13 09:59:49.37	334.17	21.57	
2025-01-13 09:59:49.57	334.11	21.59	
2025-01-13 09:59:49.78	334.05	21.60	
2025-01-13 09:59:49.99	334.00	21.62	
2025-01-13 09:59:50.19	333.94	21.63	
2025-01-13 09:59:50.40	333.88	21.64	
2025-01-13 09:59:50.60	333.83	21.66	
2025-01-13 09:59:50.81	333.77	21.67	
2025-01-13 09:59:51.01	333.71	21.69	
2025-01-13 09:59:51.22	333.65	21.70	
2025-01-13 09:59:51.42	333.60	21.71	
2025-01-13 09:59:51.63	333.54	21.73	
2025-01-13 09:59:51.83	333.48	21.74	
2025-01-13 09:59:52.04	333.43	21.76	
2025-01-13 09:59:52.24	333.37	21.77	
2025-01-13 09:59:52.44	333.31	21.78	
2025-01-13 09:59:52.65	333.25	21.80	
2025-01-13 09:59:52.86	333.20	21.81	
2025-01-13 09:59:53.06	333.14	21.82	
2025-01-13 09:59:53.27	333.08	21.84	
2025-01-13 09:59:53.47	333.02	21.85	
2025-01-13 09:59:53.68	332.97	21.86	
2025-01-13 09:59:53.88	332.91	21.88	
2025-01-13 09:59:54.09	332.85	21.89	
2025-01-13 09:59:54.29	332.79	21.90	
2025-01-13 09:59:54.50	332.73	21.92	
2025-01-13 09:59:54.70	332.68	21.93	
2025-01-13 09:59:54.91	332.62	21.95	
2025-01-13 09:59:55.11	332.56	21.96	
2025-01-13 09:59:55.32	332.50	21.97	
2025-01-13 09:59:55.52	332.44	21.99	
2025-01-13 09:59:55.73	332.39	22.00	
2025-01-13 09:59:55.93	332.33	22.01	
2025-01-13 09:59:56.14	332.27	22.03	
2025-01-13 09:59:56.34	332.21	22.04	
2025-01-13 09:59:56.55	332.15	22.05	
2025-01-13 09:59:56.75	332.09	22.07	
2025-01-13 09:59:56.95	332.04	22.08	
2025-01-13 09:59:57.16	331.98	22.09	
2025-01-13 09:59:57.36	331.92	22.10	
2025-01-13 09:59:57.57	331.86	22.12	
2025-01-13 09:59:57.77	331.80	22.13	
2025-01-13 09:59:57.98	331.74	22.14	
2025-01-13 09:59:58.19	331.68	22.16	
2025-01-13 09:59:58.39	331.63	22.17	
2025-01-13 09:59:58.59	331.57	22.18	
2025-01-13 09:59:58.80	331.51	22.20	
2025-01-13 09:59:59.00	331.45	22.21	
2025-01-13 09:59:59.21	331.39	22.22	
2025-01-13 09:59:59.41	331.33	22.24	
2025-01-13 09:59:59.62	331.27	22.25	
2025-01-13 09:59:59.82	331.21	22.26	
2025-01-13 10:00:00.03	331.15	22.27	
2025-01-13 10:00:00.23	331.09	22.29	
2025-01-13 10:00:00.44	331.03	22.30	
2025-01-13 10:00:00.64	330.98	22.31	
2025-01-13 10:00:00.85	330.91	22.33	
2025-01-13 10:00:01.05	330.86	22.34	
2025-01-13 10:00:01.27	330.79	22.35	
2025-01-13 10:00:01.47	330.73	22.36	
2025-01-13 10:00:01.68	330.67	22.38	
2025-01-13 10:00:01.88	330.61	22.39	
2025-01-13 10:00:02.09	330.55	22.40	
2025-01-13 10:00:02.29	330.49	22.41	
2025-01-13 10:00:02.50	330.43	22.43	
2025-01-13 10:00:02.70	330.37	22.44	
2025-01-13 10:00:02.91	330.31	22.45	
2025-01-13 10:00:03.12	330.25	22.46	
2025-01-13 10:00:03.32	330.19	22.48	
2025-01-13 10:00:03.53	330.13	22.49	
2025-01-13 10:00:03.73	330.07	22.50	
2025-01-13 10:00:03.94	330.01	22.51	
2025-01-13 10:00:04.14	329.95	22.53	
2025-01-13 10:00:04.34	329.89	22.54	
2025-01-13 10:00:04.55	329.83	22.55	
2025-01-13 10:00:04.76	329.77	22.56	
2025-01-13 10:00:04.96	329.71	22.58	
2025-01-13 10:00:05.16	329.65	22.59	
2025-01-13 10:00:05.37	329.59	22.60	
2025-01-13 10:00:05.57	329.53	22.61	
2025-01-13 10:00:05.78	329.47	22.62	
2025-01-13 10:00:05.99	329.40	22.64	
2025-01-13 10:00:06.19	329.35	22.65	
2025-01-13 10:00:06.40	329.28	22.66	
2025-01-13 10:00:06.60	329.22	22.67	
2025-01-13 10:00:06.81	329.16	22.69	
2025-01-13 10:00:07.01	329.10	22.70	
2025-01-13 10:00:07.22	329.04	22.71	
2025-01-13 10:00:07.42	328.98	22.72	
2025-01-13 10:00:07.63	328.92	22.73	
2025-01-13 10:00:07.84	328.85	22.75	
2025-01-13 10:00:08.04	328.79	22.76	
2025-01-13 10:00:08.25	328.73	22.77	
2025-01-13 10:00:08.45	328.67	22.78	
2025-01-13 10:00:08.66	328.61	22.79	
2025-01-13 10:00:08.86	328.55	22.80	
2025-01-13 10:00:09.07	328.49	22.82	
2025-01-13 10:00:09.27	328.43	22.83	
2025-01-13 10:00:09.48	328.36	22.84	
2025-01-13 10:00:09.68	328.30	22.85	
2025-01-13 10:00:09.89	328.24	22.86	
2025-01-13 10:00:10.09	328.18	22.87	
2025-01-13 10:00:10.30	328.11	22.89	
2025-01-13 10:00:10.50	328.05	22.90	
2025-01-13 10:00:10.71	327.99	22.91	
2025-01-13 10:00:10.91	327.93	22.92	
2025-01-13 10:00:11.12	327.87	22.93	
2025-01-13 10:00:11.32	327.81	22.94	
2025-01-13 10:00:11.53	327.74	22.95	
2025-01-13 10:00:11.73	327.68	22.96	
2025-01-13 10:00:11.94	327.62	22.98	
2025-01-13 10:00:12.14	327.56	22.99	
2025-01-13 10:00:12.35	327.49	23.00	
2025-01-13 10:00:12.55	327.43	23.01	
2025-01-13 10:00:12.76	327.37	23.02	
2025-01-13 10:00:12.96	327.31	23.03	
2025-01-13 10:00:13.17	327.24	23.04	
2025-01-13 10:00:13.37	327.18	23.05	
2025-01-13 10:00:13.58	327.12	23.07	
2025-01-13 10:00:13.78	327.06	23.08	
2025-01-13 10:00:13.99	326.99	23.09	
2025-01-13 10:00:14.19	326.93	23.10	
2025-01-13 10:00:14.40	326.87	23.11	
2025-01-13 10:00:14.60	326.81	23.12	
2025-01-13 10:00:14.81	326.74	23.13	
2025-01-13 10:00:15.01	326.68	23.14	
2025-01-13 10:00:15.22	326.62	23.15	
2025-01-13 10:00:15.42	326.55	23.16	
2025-01-13 10:00:15.63	326.49	23.17	
2025-01-13 10:00:15.83	326.43	23.18	
2025-01-13 10:00:16.04	326.36	23.20	
2025-01-13 10:00:16.24	326.30	23.21	
2025-01-13 10:00:16.45	326.24	23.22	
2025-01-13 10:00:16.65	326.18	23.23	
2025-01-13 10:00:16.86	326.11	23.24	
2025-01-13 10:00:17.06	326.05	23.25	
2025-01-13 10:00:17.27	325.98	23.26	
2025-01-13 10:00:17.47	325.92	23.27	
2025-01-13 10:00:17.68	325.86	23.28	
2025-01-13 10:00:17.88	325.80	23.29	
2025-01-13 10:00:18.09	325.73	23.30	
2025-01-13 10:00:18.29	325.67	23.31	
2025-01-13 10:00:18.50	325.60	23.32	
2025-01-13 10:00:18.70	325.54	23.33	
2025-01-13 10:00:18.91	325.47	23.34	
2025-01-13 10:00:19.11	325.41	23.35	
2025-01-13 10:00:19.32	325.35	23.36	
2025-01-13 10:00:19.52	325.28	23.37	
2025-01-13 10:00:19.73	325.22	23.38	
2025-01-13 10:00:19.93	325.16	23.39	
2025-01-13 10:00:20.14	325.09	23.40	
2025-01-13 10:00:20.34	325.03	23.41	
2025-01-13 10:00:20.55	324.96	23.42	
2025-01-13 10:00:20.75	324.90	23.43	
2025-01-13 10:00:20.96	324.83	23.44	
2025-01-13 10:00:21.16	324.77	23.45	
2025-01-13 10:00:21.37	324.71	23.46	
2025-01-13 10:00:21.57	324.64	23.47	
2025-01-13 10:00:21.78	324.58	23.48	
2025-01-13 10:00:21.98	324.51	23.49	
2025-01-13 10:00:22.19	324.45	23.50	
2025-01-13 10:00:22.39	324.39	23.51	
2025-01-13 10:00:22.60	324.32	23.52	
2025-01-13 10:00:22.80	324.26	23.53	
2025-01-13 10:00:23.01	324.19	23.54	
2025-01-13 10:00:23.21	324.13	23.55	
2025-01-13 10:00:23.42	324.06	23.56	
2025-01-13 10:00:23.62	324.00	23.57	
2025-01-13 10:00:23.82	323.93	23.58	
2025-01-13 10:00:24.03	323.87	23.59	
2025-01-13 10:00:24.24	323.80	23.60	
2025-01-13 10:00:24.44	323.74	23.61	
2025-01-13 10:00:24.65	323.67	23.62	
2025-01-13 10:00:24.85	323.61	23.62	
2025-01-13 10:00:25.06	323.54	23.63	
2025-01-13 10:00:25.26	323.48	23.64	
2025-01-13 10:00:25.47	323.41	23.65	
2025-01-13 10:00:25.67	323.35	23.66	
2025-01-13 10:00:25.88	323.28	23.67	
2025-01-13 10:00:26.09	323.21	23.68	
2025-01-13 10:00:26.30	323.15	23.69	
2025-01-13 10:00:26.50	323.08	23.70	
2025-01-13 10:00:26.72	323.01	23.71	
2025-01-13 10:00:26.92	322.95	23.72	
2025-01-13 10:00:27.13	322.88	23.72	
2025-01-13 10:00:27.34	322.81	23.73	
2025-01-13 10:00:27.54	322.75	23.74	
2025-01-13 10:00:27.75	322.68	23.75	
2025-01-13 10:00:27.95	322.62	23.76	
2025-01-13 10:00:28.16	322.55	23.77	
2025-01-13 10:00:28.36	322.49	23.78	
2025-01-13 10:00:28.57	322.42	23.79	
2025-01-13 10:00:28.77	322.36	23.79	
2025-01-13 10:00:28.98	322.29	23.80	
2025-01-13 10:00:29.18	322.23	23.81	
2025-01-13 10:00:29.39	322.16	23.82	
2025-01-13 10:00:29.60	322.09	23.83	
2025-01-13 10:00:29.80	322.03	23.84	
2025-01-13 10:00:30.01	321.96	23.85	
2025-01-13 10:00:30.21	321.89	23.85	
2025-01-13 10:00:30.42	321.83	23.86	
2025-01-13 10:00:30.62	321.76	23.87	
2025-01-13 10:00:30.83	321.69	23.88	
2025-01-13 10:00:31.03	321.63	23.89	
2025-01-13 10:00:31.24	321.56	23.90	
2025-01-13 10:00:31.44	321.50	23.90	
2025-01-13 10:00:31.65	321.43	23.91	
2025-01-13 10:00:31.85	321.36	23.92	
2025-01-13 10:00:32.06	321.30	23.93	
2025-01-13 10:00:32.26	321.23	23.93	
2025-01-13 10:00:32.47	321.16	23.94	
2025-01-13 10:00:32.67	321.10	23.95	
2025-01-13 10:00:32.88	321.03	23.96	
2025-01-13 10:00:33.10	320.96	23.97	
2025-01-13 10:00:33.31	320.89	23.98	
2025-01-13 10:00:33.52	320.82	23.98	
2025-01-13 10:00:33.73	320.75	23.99	
2025-01-13 10:00:33.93	320.69	24.00	
2025-01-13 10:00:34.14	320.62	24.01	
2025-01-13 10:00:34.34	320.56	24.01	
2025-01-13 10:00:34.55	320.49	24.02	
2025-01-13 10:00:34.75	320.42	24.03	
2025-01-13 10:00:34.96	320.35	24.04	
2025-01-13 10:00:35.18	320.28	24.04	
2025-01-13 10:00:35.38	320.22	24.05	
2025-01-13 10:00:35.59	320.15	24.06	
2025-01-13 10:00:35.79	320.08	24.07	
2025-01-13 10:00:35.99	320.02	24.07	
2025-01-13 10:00:36.20	319.95	24.08	
2025-01-13 10:00:36.40	319.88	24.09	
2025-01-13 10:00:36.61	319.81	24.09	
2025-01-13 10:00:36.81	319.75	24.10	
2025-01-13 10:00:37.02	319.68	24.11	
2025-01-13 10:00:37.22	319.61	24.12	
2025-01-13 10:00:37.43	319.55	24.12	
2025-01-13 10:00:37.63	319.48	24.13	
2025-01-13 10:00:37.84	319.41	24.14	
2025-01-13 10:00:38.05	319.34	24.14	
2025-01-13 10:00:38.25	319.28	24.15	
2025-01-13 10:00:38.47	319.20	24.16	
2025-01-13 10:00:38.67	319.14	24.16	
2025-01-13 10:00:38.88	319.07	24.17	
2025-01-13 10:00:39.08	319.00	24.18	
2025-01-13 10:00:39.29	318.93	24.18	
2025-01-13 10:00:39.49	318.87	24.19	
2025-01-13 10:00:39.70	318.80	24.20	
2025-01-13 10:00:39.90	318.73	24.20	
2025-01-13 10:00:40.11	318.66	24.21	
2025-01-13 10:00:40.31	318.60	24.22	
2025-01-13 10:00:40.52	318.53	24.22	
2025-01-13 10:00:40.72	318.46	24.23	
2025-01-13 10:00:40.93	318.39	24.24	
2025-01-13 10:00:41.13	318.33	24.24	
2025-01-13 10:00:41.34	318.26	24.25	
2025-01-13 10:00:41.54	318.19	24.25	
2025-01-13 10:00:41.75	318.12	24.26	
2025-01-13 10:00:41.95	318.05	24.27	
2025-01-13 10:00:42.15	317.99	24.27	
2025-01-13 10:00:42.36	317.92	24.28	
2025-01-13 10:00:42.57	317.85	24.28	
2025-01-13 10:00:42.77	317.78	24.29	
2025-01-13 10:00:42.97	317.72	24.30	
2025-01-13 10:00:43.18	317.65	24.30	
2025-01-13 10:00:43.38	317.58	24.31	
2025-01-13 10:00:43.59	317.51	24.31	
2025-01-13 10:00:43.79	317.44	24.32	
2025-01-13 10:00:44.00	317.37	24.33	
2025-01-13 10:00:44.20	317.31	24.33	
2025-01-13 10:00:44.41	317.24	24.34	
2025-01-13 10:00:44.61	317.17	24.34	
2025-01-13 10:00:44.82	317.10	24.35	
2025-01-13 10:00:45.02	317.03	24.35	
2025-01-13 10:00:45.23	316.96	24.36	
2025-01-13 10:00:45.43	316.90	24.36	
2025-01-13 10:00:45.64	316.83	24.37	
2025-01-13 10:00:45.84	316.76	24.37	
2025-01-13 10:00:46.05	316.69	24.38	
2025-01-13 10:00:46.25	316.62	24.39	
2025-01-13 10:00:46.47	316.55	24.39	
2025-01-13 10:00:46.67	316.48	24.40	
2025-01-13 10:00:46.88	316.41	24.40	
2025-01-13 10:00:47.08	316.35	24.41	
2025-01-13 10:00:47.29	316.28	24.41	
2025-01-13 10:00:47.50	316.21	24.42	
2025-01-13 10:00:47.70	316.14	24.42	
2025-01-13 10:00:47.91	316.07	24.43	
2025-01-13 10:00:48.11	316.00	24.43	
2025-01-13 10:00:48.31	315.93	24.44	
2025-01-13 10:00:48.52	315.86	24.44	
2025-01-13 10:00:48.73	315.79	24.45	
2025-01-13 10:00:48.93	315.73	24.45	
2025-01-13 10:00:49.15	315.65	24.45	
2025-01-13 10:00:49.35	315.59	24.46	
2025-01-13 10:00:49.56	315.52	24.46	
2025-01-13 10:00:49.76	315.45	24.47	
2025-01-13 10:00:49.97	315.38	24.47	
2025-01-13 10:00:50.17	315.31	24.48	
2025-01-13 10:00:50.38	315.24	24.48	
2025-01-13 10:00:50.58	315.17	24.49	
2025-01-13 10:00:50.79	315.10	24.49	
2025-01-13 10:00:50.99	315.03	24.49	
2025-01-13 10:00:51.20	314.96	24.50	
2025-01-13 10:00:51.40	314.90	24.50	
2025-01-13 10:00:51.61	314.83	24.51	
2025-01-13 10:00:51.81	314.76	24.51	
2025-01-13 10:00:52.02	314.69	24.52	
2025-01-13 10:00:52.22	314.62	24.52	
2025-01-13 10:00:52.43	314.55	24.52	
2025-01-13 10:00:52.63	314.48	24.53	
2025-01-13 10:00:52.84	314.41	24.53	
2025-01-13 10:00:53.04	314.34	24.54	
2025-01-13 10:00:53.25	314.27	24.54	
2025-01-13 10:00:53.45	314.21	24.54	
2025-01-13 10:00:53.66	314.13	24.55	
2025-01-13 10:00:53.86	314.07	24.55	
2025-01-13 10:00:54.07	314.00	24.55	
2025-01-13 10:00:54.27	313.93	24.56	
2025-01-13 10:00:54.48	313.86	24.56	
2025-01-13 10:00:54.68	313.79	24.56	
2025-01-13 10:00:54.89	313.72	24.57	
2025-01-13 10:00:55.09	313.65	24.57	
2025-01-13 10:00:55.30	313.58	24.57	
2025-01-13 10:00:55.50	313.51	24.58	
2025-01-13 10:00:55.71	313.44	24.58	
2025-01-13 10:00:55.91	313.37	24.58	
2025-01-13 10:00:56.12	313.30	24.59	
2025-01-13 10:00:56.32	313.23	24.59	
2025-01-13 10:00:56.52	313.17	24.59	
2025-01-13 10:00:56.73	313.10	24.60	
2025-01-13 10:00:56.94	313.02	24.60	
2025-01-13 10:00:57.14	312.96	24.60	
2025-01-13 10:00:57.35	312.89	24.61	
2025-01-13 10:00:57.55	312.82	24.61	
2025-01-13 10:00:57.75	312.75	24.61	
2025-01-13 10:00:57.96	312.68	24.61	
2025-01-13 10:00:58.17	312.61	24.62	
2025-01-13 10:00:58.37	312.54	24.62	
2025-01-13 10:00:58.58	312.47	24.62	
2025-01-13 10:00:58.78	312.40	24.62	
2025-01-13 10:00:58.98	312.33	24.63	
2025-01-13 10:00:59.19	312.26	24.63	
2025-01-13 10:00:59.40	312.19	24.63	
2025-01-13 10:00:59.60	312.12	24.63	
2025-01-13 10:00:59.81	312.05	24.64	
2025-01-13 10:01:00.01	311.98	24.64	
2025-01-13 10:01:00.23	311.91	24.64	
2025-01-13 10:01:00.43	311.84	24.64	
2025-01-13 10:01:00.64	311.77	24.65	
2025-01-13 10:01:00.86	311.69	24.65	
2025-01-13 10:01:01.06	311.63	24.65	
2025-01-13 10:01:01.27	311.55	24.65	
2025-01-13 10:01:01.47	311.49	24.65	
2025-01-13 10:01:01.68	311.42	24.66	
2025-01-13 10:01:01.90	311.34	24.66	
2025-01-13 10:01:02.10	311.27	24.66	
2025-01-13 10:01:02.31	311.20	24.66	
2025-01-13 10:01:02.51	311.13	24.66	
2025-01-13 10:01:02.72	311.06	24.67	
2025-01-13 10:01:02.92	310.99	24.67	
2025-01-13 10:01:03.13	310.92	24.67	
2025-01-13 10:01:03.33	310.85	24.67	
2025-01-13 10:01:03.54	310.78	24.67	
2025-01-13 10:01:03.74	310.71	24.67	
2025-01-13 10:01:03.95	310.64	24.68	
2025-01-13 10:01:04.15	310.57	24.68	
2025-01-13 10:01:04.36	310.50	24.68	
2025-01-13 10:01:04.56	310.43	24.68	
2025-01-13 10:01:04.77	310.36	24.68	
2025-01-13 10:01:04.97	310.29	24.68	
2025-01-13 10:01:05.18	310.22	24.68	
2025-01-13 10:01:05.38	310.15	24.69	
2025-01-13 10:01:05.59	310.08	24.69	
2025-01-13 10:01:05.80	310.01	24.69	
2025-01-13 10:01:06.00	309.94	24.69	
2025-01-13 10:01:06.20	309.88	24.69	
2025-01-13 10:01:06.41	309.80	24.69	
2025-01-13 10:01:06.62	309.73	24.69	
2025-01-13 10:01:06.82	309.66	24.69	
2025-01-13 10:01:07.03	309.59	24.69	
2025-01-13 10:01:07.23	309.52	24.69	
2025-01-13 10:01:07.44	309.45	24.69	
2025-01-13 10:01:07.64	309.38	24.70	
2025-01-13 10:01:07.84	309.32	24.70	
2025-01-13 10:01:08.05	309.24	24.70	
2025-01-13 10:01:08.26	309.17	24.70	
2025-01-13 10:01:08.46	309.10	24.70	
2025-01-13 10:01:08.66	309.04	24.70	
2025-01-13 10:01:08.87	308.96	24.70	
2025-01-13 10:01:09.07	308.90	24.70	
2025-01-13 10:01:09.28	308.82	24.70	
2025-01-13 10:01:09.48	308.76	24.70	
2025-01-13 10:01:09.69	308.68	24.70	
2025-01-13 10:01:09.89	308.62	24.70	
2025-01-13 10:01:10.10	308.54	24.70	
2025-01-13 10:01:10.30	308.48	24.70	
2025-01-13 10:01:10.51	308.40	24.70	
2025-01-13 10:01:10.71	308.34	24.70	
2025-01-13 10:01:10.92	308.27	24.70	
2025-01-13 10:01:11.12	308.20	24.70	
2025-01-13 10:01:11.33	308.13	24.70	
2025-01-13 10:01:11.53	308.06	24.70	
2025-01-13 10:01:11.74	307.99	24.70	
2025-01-13 10:01:11.94	307.92	24.70	
2025-01-13 10:01:12.15	307.85	24.70	
2025-01-13 10:01:12.35	307.78	24.70	
2025-01-13 10:01:12.56	307.71	24.70	
2025-01-13 10:01:12.76	307.64	24.70	
2025-01-13 10:01:12.97	307.57	24.70	
2025-01-13 10:01:13.17	307.50	24.70	
2025-01-13 10:01:13.38	307.43	24.70	
2025-01-13 10:01:13.58	307.36	24.70	
2025-01-13 10:01:13.79	307.29	24.69	
2025-01-13 10:01:13.99	307.22	24.69	
2025-01-13 10:01:14.20	307.15	24.69	
2025-01-13 10:01:14.40	307.08	24.69	
2025-01-13 10:01:14.61	307.01	24.69	
2025-01-13 10:01:14.81	306.94	24.69	
2025-01-13 10:01:15.02	306.87	24.69	
2025-01-13 10:01:15.22	306.80	24.69	
2025-01-13 10:01:15.43	306.73	24.69	
2025-01-13 10:01:15.63	306.66	24.69	
2025-01-13 10:01:15.84	306.59	24.69	
2025-01-13 10:01:16.04	306.52	24.68	
2025-01-13 10:01:16.25	306.45	24.68	
2025-01-13 10:01:16.46	306.38	24.68	
2025-01-13 10:01:16.66	306.31	24.68	
2025-01-13 10:01:16.88	306.23	24.68	
2025-01-13 10:01:17.09	306.16	24.68	
2025-01-13 10:01:17.29	306.09	24.68	
2025-01-13 10:01:17.50	306.02	24.68	
2025-01-13 10:01:17.70	305.95	24.67	
2025-01-13 10:01:17.90	305.88	24.67	
2025-01-13 10:01:18.11	305.81	24.67	
2025-01-13 10:01:18.32	305.74	24.67	
2025-01-13 10:01:18.52	305.67	24.67	
2025-01-13 10:01:18.73	305.60	24.67	
2025-01-13 10:01:18.94	305.53	24.66	
2025-01-13 10:01:19.15	305.46	24.66	
2025-01-13 10:01:19.35	305.39	24.66	
2025-01-13 10:01:19.56	305.32	24.66	
2025-01-13 10:01:19.76	305.25	24.66	
2025-01-13 10:01:19.96	305.18	24.65	
2025-01-13 10:01:20.17	305.11	24.65	
2025-01-13 10:01:20.37	305.04	24.65	
2025-01-13 10:01:20.58	304.97	24.65	
2025-01-13 10:01:20.79	304.90	24.65	
2025-01-13 10:01:20.99	304.83	24.64	
2025-01-13 10:01:21.19	304.76	24.64	
2025-01-13 10:01:21.40	304.69	24.64	
2025-01-13 10:01:21.61	304.62	24.64	
2025-01-13 10:01:21.81	304.55	24.63	
2025-01-13 10:01:22.01	304.49	24.63	
2025-01-13 10:01:22.22	304.41	24.63	
2025-01-13 10:01:22.42	304.35	24.63	
2025-01-13 10:01:22.63	304.28	24.62	
2025-01-13 10:01:22.83	304.21	24.62	
2025-01-13 10:01:23.04	304.14	24.62	
2025-01-13 10:01:23.26	304.06	24.62	
2025-01-13 10:01:23.47	303.99	24.61	
2025-01-13 10:01:23.67	303.92	24.61	
2025-01-13 10:01:23.87	303.85	24.61	
2025-01-13 10:01:24.08	303.78	24.60	
2025-01-13 10:01:24.28	303.72	24.60	
2025-01-13 10:01:24.49	303.64	24.60	
2025-01-13 10:01:24.69	303.58	24.60	
2025-01-13 10:01:24.90	303.50	24.59	
2025-01-13 10:01:25.11	303.43	24.59	
2025-01-13 10:01:25.31	303.37	24.59	
2025-01-13 10:01:25.51	303.30	24.58	
2025-01-13 10:01:25.72	303.23	24.58	
2025-01-13 10:01:25.93	303.16	24.58	
2025-01-13 10:01:26.13	303.09	24.57	
2025-01-13 10:01:26.34	303.02	24.57	
2025-01-13 10:01:26.54	302.95	24.57	
2025-01-13 10:01:26.75	302.88	24.56	
2025-01-13 10:01:26.95	302.81	24.56	
2025-01-13 10:01:27.16	302.74	24.56	
2025-01-13 10:01:27.36	302.67	24.55	
2025-01-13 10:01:27.58	302.60	24.55	
2025-01-13 10:01:27.79	302.53	24.54	
2025-01-13 10:01:27.99	302.46	24.54	
2025-01-13 10:01:28.19	302.39	24.54	
2025-01-13 10:01:28.40	302.32	24.53	
2025-01-13 10:01:28.60	302.25	24.53	
2025-01-13 10:01:28.81	302.18	24.53	
2025-01-13 10:01:29.02	302.11	24.52	
2025-01-13 10:01:29.22	302.04	24.52	
2025-01-13 10:01:29.43	301.97	24.51	
2025-01-13 10:01:29.63	301.91	24.51	
2025-01-13 10:01:29.84	301.83	24.51	
2025-01-13 10:01:30.04	301.77	24.50	
2025-01-13 10:01:30.25	301.70	24.50	
2025-01-13 10:01:30.46	301.63	24.49	
2025-01-13 10:01:30.66	301.56	24.49	
2025-01-13 10:01:30.86	301.49	24.48	
2025-01-13 10:01:31.07	301.42	24.48	
2025-01-13 10:01:31.28	301.35	24.48	
2025-01-13 10:01:31.48	301.28	24.47	
2025-01-13 10:01:31.69	301.21	24.47	
2025-01-13 10:01:31.89	301.15	24.46	
2025-01-13 10:01:32.10	301.07	24.46	
2025-01-13 10:01:32.30	301.01	24.45	
2025-01-13 10:01:32.51	300.94	24.45	
2025-01-13 10:01:32.71	300.87	24.44	
2025-01-13 10:01:32.92	300.80	24.44	
2025-01-13 10:01:33.12	300.73	24.43	
2025-01-13 10:01:33.33	300.66	24.43	
2025-01-13 10:01:33.53	300.59	24.42	
2025-01-13 10:01:33.74	300.52	24.42	
2025-01-13 10:01:33.94	300.46	24.41	
2025-01-13 10:01:34.15	300.39	24.41	
2025-01-13 10:01:34.35	300.32	24.40	
2025-01-13 10:01:34.56	300.25	24.40	
2025-01-13 10:01:34.76	300.18	24.39	
2025-01-13 10:01:34.97	300.11	24.39	
2025-01-13 10:01:35.17	300.05	24.38	
2025-01-13 10:01:35.38	299.98	24.38	
2025-01-13 10:01:35.58	299.91	24.37	
2025-01-13 10:01:35.79	299.84	24.37	
2025-01-13 10:01:35.99	299.77	24.36	
2025-01-13 10:01:36.19	299.70	24.36	
2025-01-13 10:01:36.40	299.63	24.35	
2025-01-13 10:01:36.60	299.57	24.35	
