passes_logs/2025/01/13/SPB_Silybum_02/SPB_Silybum_02__20250113_064047_TERRA_rec.log

#Pass ID: 20250113_064047_TERRA
#Satellite: TERRA
#Configuration: TERRA
#Start time: 2025-01-13 06:40:47

#Version: 2.0.20230423
#Station: SPB_Silybum_02
#Location: 30.233357 lon 59.946436 lat
#TLE: 1 25994U 99068A   25012.80475962  .00000761  00000+0  16654-3 0  9990
#TLE: 2 25994  98.0220  75.9049 0003508  77.1547  57.1006 14.60390868333758

#Time	Az	El	Level	Level2	SNR	BER	Gain	Gain2
2025-01-13 06:40:49.55	29.03	4.12	
2025-01-13 06:40:49.75	29.05	4.13	
2025-01-13 06:40:49.96	29.07	4.14	
2025-01-13 06:40:50.16	29.09	4.15	
2025-01-13 06:40:50.37	29.11	4.17	
2025-01-13 06:40:50.57	29.13	4.18	
2025-01-13 06:40:50.78	29.15	4.19	
2025-01-13 06:40:50.98	29.17	4.20	
2025-01-13 06:40:51.19	29.20	4.21	
2025-01-13 06:40:51.39	29.22	4.22	
2025-01-13 06:40:51.60	29.24	4.24	
2025-01-13 06:40:51.80	29.26	4.25	
2025-01-13 06:40:52.01	29.28	4.26	
2025-01-13 06:40:52.21	29.30	4.27	
2025-01-13 06:40:52.42	29.32	4.28	
2025-01-13 06:40:52.63	29.34	4.29	
2025-01-13 06:40:52.83	29.36	4.31	
2025-01-13 06:40:53.03	29.38	4.32	
2025-01-13 06:40:53.24	29.40	4.33	
2025-01-13 06:40:53.45	29.42	4.34	
2025-01-13 06:40:53.65	29.44	4.35	
2025-01-13 06:40:53.86	29.47	4.37	
2025-01-13 06:40:54.06	29.49	4.38	
2025-01-13 06:40:54.27	29.51	4.39	
2025-01-13 06:40:54.48	29.53	4.40	
2025-01-13 06:40:54.68	29.55	4.41	
2025-01-13 06:40:54.88	29.57	4.42	
2025-01-13 06:40:55.09	29.59	4.44	
2025-01-13 06:40:55.29	29.61	4.45	
2025-01-13 06:40:55.50	29.63	4.46	
2025-01-13 06:40:55.70	29.65	4.47	
2025-01-13 06:40:55.91	29.68	4.48	
2025-01-13 06:40:56.11	29.70	4.49	
2025-01-13 06:40:56.31	29.72	4.51	
2025-01-13 06:40:56.52	29.74	4.52	
2025-01-13 06:40:56.73	29.76	4.53	
2025-01-13 06:40:56.93	29.78	4.54	
2025-01-13 06:40:57.15	29.80	4.55	
2025-01-13 06:40:57.35	29.82	4.57	
2025-01-13 06:40:57.56	29.84	4.58	
2025-01-13 06:40:57.76	29.87	4.59	
2025-01-13 06:40:57.97	29.89	4.60	
2025-01-13 06:40:58.17	29.91	4.61	
2025-01-13 06:40:58.38	29.93	4.62	
2025-01-13 06:40:58.59	29.95	4.64	
2025-01-13 06:40:58.79	29.97	4.65	
2025-01-13 06:40:59.00	29.99	4.66	
2025-01-13 06:40:59.20	30.01	4.67	
2025-01-13 06:40:59.41	30.04	4.68	
2025-01-13 06:40:59.61	30.06	4.70	
2025-01-13 06:40:59.82	30.08	4.71	
2025-01-13 06:41:00.02	30.10	4.72	
2025-01-13 06:41:00.23	30.12	4.73	
2025-01-13 06:41:00.43	30.14	4.74	
2025-01-13 06:41:00.64	30.16	4.75	
2025-01-13 06:41:00.84	30.19	4.77	
2025-01-13 06:41:01.05	30.21	4.78	
2025-01-13 06:41:01.25	30.23	4.79	
2025-01-13 06:41:01.46	30.25	4.80	
2025-01-13 06:41:01.67	30.27	4.81	
2025-01-13 06:41:01.87	30.29	4.83	
2025-01-13 06:41:02.07	30.31	4.84	
2025-01-13 06:41:02.28	30.34	4.85	
2025-01-13 06:41:02.48	30.36	4.86	
2025-01-13 06:41:02.69	30.38	4.87	
2025-01-13 06:41:02.89	30.40	4.88	
2025-01-13 06:41:03.10	30.42	4.90	
2025-01-13 06:41:03.30	30.44	4.91	
2025-01-13 06:41:03.50	30.47	4.92	
2025-01-13 06:41:03.71	30.49	4.93	
2025-01-13 06:41:03.91	30.51	4.94	
2025-01-13 06:41:04.12	30.53	4.96	
2025-01-13 06:41:04.32	30.55	4.97	
2025-01-13 06:41:04.52	30.57	4.98	
2025-01-13 06:41:04.73	30.60	4.99	
2025-01-13 06:41:04.94	30.62	5.00	
2025-01-13 06:41:05.14	30.64	5.02	
2025-01-13 06:41:05.35	30.66	5.03	
2025-01-13 06:41:05.56	30.68	5.04	
2025-01-13 06:41:05.76	30.71	5.05	
2025-01-13 06:41:05.96	30.73	5.06	
2025-01-13 06:41:06.17	30.75	5.07	
2025-01-13 06:41:06.37	30.77	5.09	
2025-01-13 06:41:06.58	30.79	5.10	
2025-01-13 06:41:06.80	30.82	5.11	
2025-01-13 06:41:07.00	30.84	5.12	
2025-01-13 06:41:07.21	30.86	5.14	
2025-01-13 06:41:07.42	30.88	5.15	
2025-01-13 06:41:07.62	30.90	5.16	
2025-01-13 06:41:07.83	30.93	5.17	
2025-01-13 06:41:08.03	30.95	5.18	
2025-01-13 06:41:08.24	30.97	5.20	
2025-01-13 06:41:08.44	30.99	5.21	
2025-01-13 06:41:08.65	31.02	5.22	
2025-01-13 06:41:08.85	31.04	5.23	
2025-01-13 06:41:09.06	31.06	5.24	
2025-01-13 06:41:09.27	31.08	5.26	
2025-01-13 06:41:09.47	31.10	5.27	
2025-01-13 06:41:09.68	31.13	5.28	
2025-01-13 06:41:09.88	31.15	5.29	
2025-01-13 06:41:10.09	31.17	5.30	
2025-01-13 06:41:10.29	31.19	5.31	
2025-01-13 06:41:10.50	31.22	5.33	
2025-01-13 06:41:10.71	31.24	5.34	
2025-01-13 06:41:10.91	31.26	5.35	
2025-01-13 06:41:11.11	31.28	5.36	
2025-01-13 06:41:11.33	31.31	5.38	
2025-01-13 06:41:11.54	31.33	5.39	
2025-01-13 06:41:11.74	31.35	5.40	
2025-01-13 06:41:11.95	31.37	5.41	
2025-01-13 06:41:12.15	31.40	5.42	
2025-01-13 06:41:12.36	31.42	5.44	
2025-01-13 06:41:12.56	31.44	5.45	
2025-01-13 06:41:12.77	31.46	5.46	
2025-01-13 06:41:12.97	31.49	5.47	
2025-01-13 06:41:13.18	31.51	5.48	
2025-01-13 06:41:13.38	31.53	5.50	
2025-01-13 06:41:13.59	31.55	5.51	
2025-01-13 06:41:13.80	31.58	5.52	
2025-01-13 06:41:14.00	31.60	5.53	
2025-01-13 06:41:14.22	31.62	5.54	
2025-01-13 06:41:14.42	31.65	5.56	
2025-01-13 06:41:14.63	31.67	5.57	
2025-01-13 06:41:14.83	31.69	5.58	
2025-01-13 06:41:15.04	31.72	5.59	
2025-01-13 06:41:15.24	31.74	5.60	
2025-01-13 06:41:15.45	31.76	5.62	
2025-01-13 06:41:15.66	31.78	5.63	
2025-01-13 06:41:15.86	31.81	5.64	
2025-01-13 06:41:16.07	31.83	5.65	
2025-01-13 06:41:16.27	31.85	5.66	
2025-01-13 06:41:16.48	31.88	5.68	
2025-01-13 06:41:16.68	31.90	5.69	
2025-01-13 06:41:16.89	31.92	5.70	
2025-01-13 06:41:17.09	31.94	5.71	
2025-01-13 06:41:17.30	31.97	5.73	
2025-01-13 06:41:17.50	31.99	5.74	
2025-01-13 06:41:17.71	32.01	5.75	
2025-01-13 06:41:17.92	32.04	5.76	
2025-01-13 06:41:18.12	32.06	5.77	
2025-01-13 06:41:18.33	32.08	5.79	
2025-01-13 06:41:18.53	32.11	5.80	
2025-01-13 06:41:18.73	32.13	5.81	
2025-01-13 06:41:18.94	32.15	5.82	
2025-01-13 06:41:19.14	32.17	5.83	
2025-01-13 06:41:19.35	32.20	5.85	
2025-01-13 06:41:19.56	32.22	5.86	
2025-01-13 06:41:19.76	32.24	5.87	
2025-01-13 06:41:19.97	32.27	5.88	
2025-01-13 06:41:20.17	32.29	5.89	
2025-01-13 06:41:20.38	32.31	5.91	
2025-01-13 06:41:20.58	32.34	5.92	
2025-01-13 06:41:20.79	32.36	5.93	
2025-01-13 06:41:20.99	32.38	5.94	
2025-01-13 06:41:21.20	32.41	5.95	
2025-01-13 06:41:21.41	32.43	5.97	
2025-01-13 06:41:21.61	32.45	5.98	
2025-01-13 06:41:21.82	32.48	5.99	
2025-01-13 06:41:22.02	32.50	6.00	
2025-01-13 06:41:22.23	32.53	6.02	
2025-01-13 06:41:22.43	32.55	6.03	
2025-01-13 06:41:22.64	32.57	6.04	
2025-01-13 06:41:22.84	32.60	6.05	
2025-01-13 06:41:23.05	32.62	6.06	
2025-01-13 06:41:23.26	32.64	6.08	
2025-01-13 06:41:23.46	32.67	6.09	
2025-01-13 06:41:23.67	32.69	6.10	
2025-01-13 06:41:23.87	32.71	6.11	
2025-01-13 06:41:24.08	32.74	6.13	
2025-01-13 06:41:24.28	32.76	6.14	
2025-01-13 06:41:24.49	32.78	6.15	
2025-01-13 06:41:24.69	32.81	6.16	
2025-01-13 06:41:24.90	32.83	6.17	
2025-01-13 06:41:25.10	32.86	6.19	
2025-01-13 06:41:25.31	32.88	6.20	
2025-01-13 06:41:25.51	32.90	6.21	
2025-01-13 06:41:25.72	32.93	6.22	
2025-01-13 06:41:25.94	32.95	6.24	
2025-01-13 06:41:26.14	32.98	6.25	
2025-01-13 06:41:26.35	33.00	6.26	
2025-01-13 06:41:26.55	33.02	6.27	
2025-01-13 06:41:26.76	33.05	6.28	
2025-01-13 06:41:26.96	33.07	6.30	
2025-01-13 06:41:27.17	33.10	6.31	
2025-01-13 06:41:27.37	33.12	6.32	
2025-01-13 06:41:27.58	33.14	6.33	
2025-01-13 06:41:27.79	33.17	6.35	
2025-01-13 06:41:27.99	33.19	6.36	
2025-01-13 06:41:28.19	33.22	6.37	
2025-01-13 06:41:28.40	33.24	6.38	
2025-01-13 06:41:28.61	33.26	6.39	
2025-01-13 06:41:28.81	33.29	6.41	
2025-01-13 06:41:29.01	33.31	6.42	
2025-01-13 06:41:29.22	33.34	6.43	
2025-01-13 06:41:29.42	33.36	6.44	
2025-01-13 06:41:29.63	33.38	6.45	
2025-01-13 06:41:29.83	33.41	6.47	
2025-01-13 06:41:30.04	33.43	6.48	
2025-01-13 06:41:30.24	33.46	6.49	
2025-01-13 06:41:30.45	33.48	6.50	
2025-01-13 06:41:30.65	33.51	6.52	
2025-01-13 06:41:30.85	33.53	6.53	
2025-01-13 06:41:31.06	33.55	6.54	
2025-01-13 06:41:31.26	33.58	6.55	
2025-01-13 06:41:31.47	33.60	6.56	
2025-01-13 06:41:31.67	33.63	6.58	
2025-01-13 06:41:31.88	33.65	6.59	
2025-01-13 06:41:32.09	33.68	6.60	
2025-01-13 06:41:32.29	33.70	6.61	
2025-01-13 06:41:32.49	33.72	6.63	
2025-01-13 06:41:32.70	33.75	6.64	
2025-01-13 06:41:32.91	33.77	6.65	
2025-01-13 06:41:33.11	33.80	6.66	
2025-01-13 06:41:33.32	33.82	6.67	
2025-01-13 06:41:33.54	33.85	6.69	
2025-01-13 06:41:33.74	33.87	6.70	
2025-01-13 06:41:33.94	33.90	6.71	
2025-01-13 06:41:34.15	33.92	6.72	
2025-01-13 06:41:34.36	33.95	6.74	
2025-01-13 06:41:34.57	33.97	6.75	
2025-01-13 06:41:34.78	34.00	6.76	
2025-01-13 06:41:34.99	34.02	6.77	
2025-01-13 06:41:35.19	34.05	6.79	
2025-01-13 06:41:35.40	34.07	6.80	
2025-01-13 06:41:35.60	34.10	6.81	
2025-01-13 06:41:35.81	34.12	6.82	
2025-01-13 06:41:36.01	34.15	6.84	
2025-01-13 06:41:36.22	34.17	6.85	
2025-01-13 06:41:36.43	34.20	6.86	
2025-01-13 06:41:36.63	34.22	6.87	
2025-01-13 06:41:36.84	34.25	6.89	
2025-01-13 06:41:37.04	34.27	6.90	
2025-01-13 06:41:37.25	34.30	6.91	
2025-01-13 06:41:37.45	34.32	6.92	
2025-01-13 06:41:37.65	34.35	6.93	
2025-01-13 06:41:37.86	34.37	6.95	
2025-01-13 06:41:38.07	34.40	6.96	
2025-01-13 06:41:38.27	34.42	6.97	
2025-01-13 06:41:38.48	34.45	6.98	
2025-01-13 06:41:38.68	34.47	7.00	
2025-01-13 06:41:38.89	34.50	7.01	
2025-01-13 06:41:39.09	34.52	7.02	
2025-01-13 06:41:39.30	34.55	7.03	
2025-01-13 06:41:39.50	34.57	7.05	
2025-01-13 06:41:39.71	34.60	7.06	
2025-01-13 06:41:39.93	34.63	7.07	
2025-01-13 06:41:40.13	34.65	7.08	
2025-01-13 06:41:40.34	34.68	7.10	
2025-01-13 06:41:40.55	34.70	7.11	
2025-01-13 06:41:40.75	34.73	7.12	
2025-01-13 06:41:40.95	34.75	7.13	
2025-01-13 06:41:41.16	34.78	7.14	
2025-01-13 06:41:41.36	34.80	7.16	
2025-01-13 06:41:41.57	34.83	7.17	
2025-01-13 06:41:41.78	34.86	7.18	
2025-01-13 06:41:42.00	34.88	7.20	
2025-01-13 06:41:42.20	34.91	7.21	
2025-01-13 06:41:42.41	34.93	7.22	
2025-01-13 06:41:42.61	34.96	7.23	
2025-01-13 06:41:42.82	34.99	7.24	
2025-01-13 06:41:43.02	35.01	7.26	
2025-01-13 06:41:43.23	35.04	7.27	
2025-01-13 06:41:43.43	35.06	7.28	
2025-01-13 06:41:43.64	35.09	7.29	
2025-01-13 06:41:43.84	35.11	7.31	
2025-01-13 06:41:44.05	35.14	7.32	
2025-01-13 06:41:44.25	35.17	7.33	
2025-01-13 06:41:44.46	35.19	7.34	
2025-01-13 06:41:44.66	35.22	7.36	
2025-01-13 06:41:44.87	35.24	7.37	
2025-01-13 06:41:45.08	35.27	7.38	
2025-01-13 06:41:45.28	35.29	7.39	
2025-01-13 06:41:45.48	35.32	7.41	
2025-01-13 06:41:45.69	35.35	7.42	
2025-01-13 06:41:45.90	35.37	7.43	
2025-01-13 06:41:46.10	35.40	7.44	
2025-01-13 06:41:46.30	35.42	7.45	
2025-01-13 06:41:46.51	35.45	7.47	
2025-01-13 06:41:46.72	35.48	7.48	
2025-01-13 06:41:46.92	35.50	7.49	
2025-01-13 06:41:47.13	35.53	7.51	
2025-01-13 06:41:47.33	35.55	7.52	
2025-01-13 06:41:47.54	35.58	7.53	
2025-01-13 06:41:47.74	35.61	7.54	
2025-01-13 06:41:47.95	35.63	7.55	
2025-01-13 06:41:48.16	35.66	7.57	
2025-01-13 06:41:48.36	35.69	7.58	
2025-01-13 06:41:48.57	35.71	7.59	
2025-01-13 06:41:48.77	35.74	7.60	
2025-01-13 06:41:48.98	35.77	7.62	
2025-01-13 06:41:49.18	35.79	7.63	
2025-01-13 06:41:49.39	35.82	7.64	
2025-01-13 06:41:49.60	35.85	7.65	
2025-01-13 06:41:49.81	35.87	7.67	
2025-01-13 06:41:50.01	35.90	7.68	
2025-01-13 06:41:50.22	35.93	7.69	
2025-01-13 06:41:50.42	35.95	7.70	
2025-01-13 06:41:50.63	35.98	7.72	
2025-01-13 06:41:50.83	36.00	7.73	
2025-01-13 06:41:51.04	36.03	7.74	
2025-01-13 06:41:51.25	36.06	7.75	
2025-01-13 06:41:51.45	36.08	7.77	
2025-01-13 06:41:51.67	36.11	7.78	
2025-01-13 06:41:51.88	36.14	7.79	
2025-01-13 06:41:52.08	36.17	7.81	
2025-01-13 06:41:52.29	36.19	7.82	
2025-01-13 06:41:52.49	36.22	7.83	
2025-01-13 06:41:52.70	36.25	7.84	
2025-01-13 06:41:52.90	36.27	7.85	
2025-01-13 06:41:53.11	36.30	7.87	
2025-01-13 06:41:53.32	36.33	7.88	
2025-01-13 06:41:53.52	36.35	7.89	
2025-01-13 06:41:53.72	36.38	7.90	
2025-01-13 06:41:53.93	36.41	7.92	
2025-01-13 06:41:54.14	36.43	7.93	
2025-01-13 06:41:54.34	36.46	7.94	
2025-01-13 06:41:54.55	36.49	7.96	
2025-01-13 06:41:54.75	36.51	7.97	
2025-01-13 06:41:54.96	36.54	7.98	
2025-01-13 06:41:55.16	36.57	7.99	
2025-01-13 06:41:55.37	36.60	8.01	
2025-01-13 06:41:55.57	36.62	8.02	
2025-01-13 06:41:55.78	36.65	8.03	
2025-01-13 06:41:55.98	36.68	8.04	
2025-01-13 06:41:56.19	36.70	8.06	
2025-01-13 06:41:56.40	36.73	8.07	
2025-01-13 06:41:56.61	36.76	8.08	
2025-01-13 06:41:56.81	36.79	8.09	
2025-01-13 06:41:57.02	36.82	8.11	
2025-01-13 06:41:57.22	36.84	8.12	
2025-01-13 06:41:57.43	36.87	8.13	
2025-01-13 06:41:57.63	36.90	8.14	
2025-01-13 06:41:57.84	36.92	8.16	
2025-01-13 06:41:58.04	36.95	8.17	
2025-01-13 06:41:58.25	36.98	8.18	
2025-01-13 06:41:58.45	37.01	8.19	
2025-01-13 06:41:58.66	37.03	8.21	
2025-01-13 06:41:58.86	37.06	8.22	
2025-01-13 06:41:59.07	37.09	8.23	
2025-01-13 06:41:59.27	37.12	8.24	
2025-01-13 06:41:59.48	37.14	8.26	
2025-01-13 06:41:59.68	37.17	8.27	
2025-01-13 06:41:59.89	37.20	8.28	
2025-01-13 06:42:00.09	37.23	8.29	
2025-01-13 06:42:00.30	37.25	8.31	
2025-01-13 06:42:00.50	37.28	8.32	
2025-01-13 06:42:00.71	37.31	8.33	
2025-01-13 06:42:00.91	37.34	8.34	
2025-01-13 06:42:01.12	37.36	8.36	
2025-01-13 06:42:01.32	37.39	8.37	
2025-01-13 06:42:01.53	37.42	8.38	
2025-01-13 06:42:01.73	37.45	8.39	
2025-01-13 06:42:01.94	37.48	8.41	
2025-01-13 06:42:02.14	37.50	8.42	
2025-01-13 06:42:02.34	37.53	8.43	
2025-01-13 06:42:02.55	37.56	8.44	
2025-01-13 06:42:02.75	37.59	8.46	
2025-01-13 06:42:02.96	37.61	8.47	
2025-01-13 06:42:03.16	37.64	8.48	
2025-01-13 06:42:03.36	37.67	8.49	
2025-01-13 06:42:03.57	37.70	8.51	
2025-01-13 06:42:03.78	37.73	8.52	
2025-01-13 06:42:03.98	37.75	8.53	
2025-01-13 06:42:04.19	37.78	8.54	
2025-01-13 06:42:04.39	37.81	8.56	
2025-01-13 06:42:04.60	37.84	8.57	
2025-01-13 06:42:04.81	37.87	8.58	
2025-01-13 06:42:05.01	37.90	8.59	
2025-01-13 06:42:05.22	37.92	8.61	
2025-01-13 06:42:05.44	37.95	8.62	
2025-01-13 06:42:05.64	37.98	8.63	
2025-01-13 06:42:05.85	38.01	8.65	
2025-01-13 06:42:06.05	38.04	8.66	
2025-01-13 06:42:06.26	38.07	8.67	
2025-01-13 06:42:06.46	38.10	8.68	
2025-01-13 06:42:06.67	38.12	8.70	
2025-01-13 06:42:06.87	38.15	8.71	
2025-01-13 06:42:07.08	38.18	8.72	
2025-01-13 06:42:07.29	38.21	8.73	
2025-01-13 06:42:07.49	38.24	8.75	
2025-01-13 06:42:07.70	38.27	8.76	
2025-01-13 06:42:07.90	38.30	8.77	
2025-01-13 06:42:08.11	38.32	8.78	
2025-01-13 06:42:08.31	38.35	8.80	
2025-01-13 06:42:08.52	38.38	8.81	
2025-01-13 06:42:08.74	38.41	8.82	
2025-01-13 06:42:08.94	38.44	8.83	
2025-01-13 06:42:09.15	38.47	8.85	
2025-01-13 06:42:09.36	38.50	8.86	
2025-01-13 06:42:09.56	38.53	8.87	
2025-01-13 06:42:09.77	38.56	8.89	
2025-01-13 06:42:09.97	38.58	8.90	
2025-01-13 06:42:10.18	38.61	8.91	
2025-01-13 06:42:10.38	38.64	8.92	
2025-01-13 06:42:10.59	38.67	8.94	
2025-01-13 06:42:10.79	38.70	8.95	
2025-01-13 06:42:11.00	38.73	8.96	
2025-01-13 06:42:11.20	38.76	8.97	
2025-01-13 06:42:11.41	38.79	8.99	
2025-01-13 06:42:11.61	38.82	9.00	
2025-01-13 06:42:11.82	38.85	9.01	
2025-01-13 06:42:12.02	38.87	9.02	
2025-01-13 06:42:12.23	38.90	9.04	
2025-01-13 06:42:12.44	38.93	9.05	
2025-01-13 06:42:12.64	38.96	9.06	
2025-01-13 06:42:12.85	38.99	9.07	
2025-01-13 06:42:13.05	39.02	9.09	
2025-01-13 06:42:13.26	39.05	9.10	
2025-01-13 06:42:13.47	39.08	9.11	
2025-01-13 06:42:13.67	39.11	9.13	
2025-01-13 06:42:13.88	39.14	9.14	
2025-01-13 06:42:14.10	39.17	9.15	
2025-01-13 06:42:14.30	39.20	9.16	
2025-01-13 06:42:14.51	39.23	9.18	
2025-01-13 06:42:14.72	39.26	9.19	
2025-01-13 06:42:14.92	39.29	9.20	
2025-01-13 06:42:15.14	39.32	9.22	
2025-01-13 06:42:15.34	39.35	9.23	
2025-01-13 06:42:15.55	39.38	9.24	
2025-01-13 06:42:15.76	39.41	9.25	
2025-01-13 06:42:15.96	39.44	9.27	
2025-01-13 06:42:16.16	39.47	9.28	
2025-01-13 06:42:16.37	39.50	9.29	
2025-01-13 06:42:16.57	39.53	9.30	
2025-01-13 06:42:16.78	39.56	9.32	
2025-01-13 06:42:16.98	39.59	9.33	
2025-01-13 06:42:17.19	39.62	9.34	
2025-01-13 06:42:17.39	39.65	9.35	
2025-01-13 06:42:17.60	39.68	9.37	
2025-01-13 06:42:17.81	39.71	9.38	
2025-01-13 06:42:18.01	39.74	9.39	
2025-01-13 06:42:18.22	39.77	9.41	
2025-01-13 06:42:18.42	39.80	9.42	
2025-01-13 06:42:18.63	39.83	9.43	
2025-01-13 06:42:18.83	39.86	9.44	
2025-01-13 06:42:19.04	39.89	9.46	
2025-01-13 06:42:19.24	39.92	9.47	
2025-01-13 06:42:19.45	39.95	9.48	
2025-01-13 06:42:19.65	39.98	9.49	
2025-01-13 06:42:19.86	40.01	9.51	
2025-01-13 06:42:20.07	40.04	9.52	
2025-01-13 06:42:20.27	40.07	9.53	
2025-01-13 06:42:20.47	40.10	9.54	
2025-01-13 06:42:20.68	40.13	9.56	
2025-01-13 06:42:20.89	40.16	9.57	
2025-01-13 06:42:21.09	40.19	9.58	
2025-01-13 06:42:21.30	40.22	9.60	
2025-01-13 06:42:21.50	40.25	9.61	
2025-01-13 06:42:21.71	40.28	9.62	
2025-01-13 06:42:21.91	40.31	9.63	
2025-01-13 06:42:22.12	40.34	9.65	
2025-01-13 06:42:22.32	40.37	9.66	
2025-01-13 06:42:22.53	40.40	9.67	
2025-01-13 06:42:22.73	40.43	9.68	
2025-01-13 06:42:22.94	40.46	9.70	
2025-01-13 06:42:23.14	40.49	9.71	
2025-01-13 06:42:23.35	40.52	9.72	
2025-01-13 06:42:23.55	40.55	9.73	
2025-01-13 06:42:23.76	40.58	9.75	
2025-01-13 06:42:23.97	40.62	9.76	
2025-01-13 06:42:24.17	40.65	9.77	
2025-01-13 06:42:24.38	40.68	9.79	
2025-01-13 06:42:24.58	40.71	9.80	
2025-01-13 06:42:24.80	40.74	9.81	
2025-01-13 06:42:25.00	40.77	9.82	
2025-01-13 06:42:25.21	40.80	9.84	
2025-01-13 06:42:25.42	40.83	9.85	
2025-01-13 06:42:25.62	40.86	9.86	
2025-01-13 06:42:25.82	40.89	9.87	
2025-01-13 06:42:26.03	40.92	9.89	
2025-01-13 06:42:26.23	40.95	9.90	
2025-01-13 06:42:26.44	40.99	9.91	
2025-01-13 06:42:26.65	41.02	9.93	
2025-01-13 06:42:26.86	41.05	9.94	
2025-01-13 06:42:27.07	41.08	9.95	
2025-01-13 06:42:27.27	41.11	9.96	
2025-01-13 06:42:27.48	41.14	9.98	
2025-01-13 06:42:27.69	41.18	9.99	
2025-01-13 06:42:27.89	41.21	10.00	
2025-01-13 06:42:28.09	41.24	10.01	
2025-01-13 06:42:28.30	41.27	10.03	
2025-01-13 06:42:28.50	41.30	10.04	
2025-01-13 06:42:28.71	41.33	10.05	
2025-01-13 06:42:28.91	41.36	10.06	
2025-01-13 06:42:29.12	41.39	10.08	
2025-01-13 06:42:29.33	41.43	10.09	
2025-01-13 06:42:29.53	41.46	10.10	
2025-01-13 06:42:29.74	41.49	10.12	
2025-01-13 06:42:29.94	41.52	10.13	
2025-01-13 06:42:30.15	41.55	10.14	
2025-01-13 06:42:30.35	41.58	10.15	
2025-01-13 06:42:30.56	41.62	10.17	
2025-01-13 06:42:30.77	41.65	10.18	
2025-01-13 06:42:30.97	41.68	10.19	
2025-01-13 06:42:31.17	41.71	10.20	
2025-01-13 06:42:31.38	41.74	10.22	
2025-01-13 06:42:31.58	41.77	10.23	
2025-01-13 06:42:31.80	41.81	10.24	
2025-01-13 06:42:32.00	41.84	10.26	
2025-01-13 06:42:32.21	41.87	10.27	
2025-01-13 06:42:32.42	41.90	10.28	
2025-01-13 06:42:32.62	41.93	10.29	
2025-01-13 06:42:32.83	41.97	10.31	
2025-01-13 06:42:33.03	42.00	10.32	
2025-01-13 06:42:33.24	42.03	10.33	
2025-01-13 06:42:33.44	42.06	10.34	
2025-01-13 06:42:33.65	42.09	10.36	
2025-01-13 06:42:33.86	42.13	10.37	
2025-01-13 06:42:34.06	42.16	10.38	
2025-01-13 06:42:34.28	42.19	10.40	
2025-01-13 06:42:34.49	42.23	10.41	
2025-01-13 06:42:34.69	42.26	10.42	
2025-01-13 06:42:34.91	42.29	10.43	
2025-01-13 06:42:35.11	42.32	10.45	
2025-01-13 06:42:35.33	42.36	10.46	
2025-01-13 06:42:35.53	42.39	10.47	
2025-01-13 06:42:35.74	42.42	10.49	
2025-01-13 06:42:35.94	42.45	10.50	
2025-01-13 06:42:36.15	42.49	10.51	
2025-01-13 06:42:36.35	42.52	10.52	
2025-01-13 06:42:36.56	42.55	10.54	
2025-01-13 06:42:36.76	42.58	10.55	
2025-01-13 06:42:36.96	42.61	10.56	
2025-01-13 06:42:37.17	42.65	10.57	
2025-01-13 06:42:37.37	42.68	10.59	
2025-01-13 06:42:37.58	42.71	10.60	
2025-01-13 06:42:37.78	42.74	10.61	
2025-01-13 06:42:37.99	42.78	10.63	
2025-01-13 06:42:38.19	42.81	10.64	
2025-01-13 06:42:38.40	42.84	10.65	
2025-01-13 06:42:38.60	42.88	10.66	
2025-01-13 06:42:38.80	42.91	10.68	
2025-01-13 06:42:39.01	42.94	10.69	
2025-01-13 06:42:39.22	42.97	10.70	
2025-01-13 06:42:39.42	43.01	10.71	
2025-01-13 06:42:39.63	43.04	10.73	
2025-01-13 06:42:39.83	43.07	10.74	
2025-01-13 06:42:40.04	43.11	10.75	
2025-01-13 06:42:40.24	43.14	10.76	
2025-01-13 06:42:40.45	43.17	10.78	
2025-01-13 06:42:40.65	43.20	10.79	
2025-01-13 06:42:40.86	43.24	10.80	
2025-01-13 06:42:41.06	43.27	10.81	
2025-01-13 06:42:41.27	43.30	10.83	
2025-01-13 06:42:41.47	43.34	10.84	
2025-01-13 06:42:41.68	43.37	10.85	
2025-01-13 06:42:41.88	43.40	10.86	
2025-01-13 06:42:42.09	43.44	10.88	
2025-01-13 06:42:42.29	43.47	10.89	
2025-01-13 06:42:42.50	43.50	10.90	
2025-01-13 06:42:42.71	43.54	10.92	
2025-01-13 06:42:42.91	43.57	10.93	
2025-01-13 06:42:43.12	43.60	10.94	
2025-01-13 06:42:43.32	43.64	10.95	
2025-01-13 06:42:43.53	43.67	10.97	
2025-01-13 06:42:43.73	43.70	10.98	
2025-01-13 06:42:43.94	43.74	10.99	
2025-01-13 06:42:44.15	43.77	11.00	
2025-01-13 06:42:44.36	43.81	11.02	
2025-01-13 06:42:44.56	43.84	11.03	
2025-01-13 06:42:44.77	43.87	11.04	
2025-01-13 06:42:44.97	43.91	11.06	
2025-01-13 06:42:45.18	43.94	11.07	
2025-01-13 06:42:45.38	43.97	11.08	
2025-01-13 06:42:45.59	44.01	11.09	
2025-01-13 06:42:45.79	44.04	11.11	
2025-01-13 06:42:46.00	44.08	11.12	
2025-01-13 06:42:46.20	44.11	11.13	
2025-01-13 06:42:46.41	44.14	11.14	
2025-01-13 06:42:46.61	44.18	11.16	
2025-01-13 06:42:46.82	44.21	11.17	
2025-01-13 06:42:47.04	44.25	11.18	
2025-01-13 06:42:47.24	44.28	11.19	
2025-01-13 06:42:47.45	44.32	11.21	
2025-01-13 06:42:47.65	44.35	11.22	
2025-01-13 06:42:47.86	44.38	11.23	
2025-01-13 06:42:48.06	44.42	11.25	
2025-01-13 06:42:48.26	44.45	11.26	
2025-01-13 06:42:48.47	44.48	11.27	
2025-01-13 06:42:48.68	44.52	11.28	
2025-01-13 06:42:48.88	44.55	11.30	
2025-01-13 06:42:49.08	44.59	11.31	
2025-01-13 06:42:49.30	44.62	11.32	
2025-01-13 06:42:49.51	44.66	11.33	
2025-01-13 06:42:49.71	44.69	11.35	
2025-01-13 06:42:49.92	44.73	11.36	
2025-01-13 06:42:50.13	44.76	11.37	
2025-01-13 06:42:50.33	44.80	11.38	
2025-01-13 06:42:50.54	44.83	11.40	
2025-01-13 06:42:50.74	44.86	11.41	
2025-01-13 06:42:50.95	44.90	11.42	
2025-01-13 06:42:51.15	44.93	11.44	
2025-01-13 06:42:51.36	44.97	11.45	
2025-01-13 06:42:51.56	45.00	11.46	
2025-01-13 06:42:51.77	45.04	11.47	
2025-01-13 06:42:51.97	45.07	11.49	
2025-01-13 06:42:52.18	45.11	11.50	
2025-01-13 06:42:52.38	45.14	11.51	
2025-01-13 06:42:52.59	45.18	11.52	
2025-01-13 06:42:52.79	45.21	11.54	
2025-01-13 06:42:53.00	45.25	11.55	
2025-01-13 06:42:53.21	45.28	11.56	
2025-01-13 06:42:53.41	45.32	11.57	
2025-01-13 06:42:53.62	45.35	11.59	
2025-01-13 06:42:53.82	45.39	11.60	
2025-01-13 06:42:54.03	45.42	11.61	
2025-01-13 06:42:54.23	45.46	11.62	
2025-01-13 06:42:54.44	45.49	11.64	
2025-01-13 06:42:54.64	45.53	11.65	
2025-01-13 06:42:54.85	45.56	11.66	
2025-01-13 06:42:55.05	45.60	11.67	
2025-01-13 06:42:55.26	45.63	11.69	
2025-01-13 06:42:55.47	45.67	11.70	
2025-01-13 06:42:55.67	45.70	11.71	
2025-01-13 06:42:55.87	45.74	11.72	
2025-01-13 06:42:56.08	45.77	11.74	
2025-01-13 06:42:56.28	45.81	11.75	
2025-01-13 06:42:56.49	45.84	11.76	
2025-01-13 06:42:56.69	45.88	11.77	
2025-01-13 06:42:56.90	45.92	11.79	
2025-01-13 06:42:57.10	45.95	11.80	
2025-01-13 06:42:57.32	45.99	11.81	
2025-01-13 06:42:57.52	46.02	11.83	
2025-01-13 06:42:57.73	46.06	11.84	
2025-01-13 06:42:57.93	46.09	11.85	
2025-01-13 06:42:58.14	46.13	11.86	
2025-01-13 06:42:58.34	46.17	11.88	
2025-01-13 06:42:58.55	46.20	11.89	
2025-01-13 06:42:58.75	46.24	11.90	
2025-01-13 06:42:58.97	46.28	11.91	
2025-01-13 06:42:59.18	46.31	11.93	
2025-01-13 06:42:59.38	46.35	11.94	
2025-01-13 06:42:59.59	46.38	11.95	
2025-01-13 06:42:59.79	46.42	11.96	
2025-01-13 06:43:00.00	46.46	11.98	
2025-01-13 06:43:00.20	46.49	11.99	
2025-01-13 06:43:00.41	46.53	12.00	
2025-01-13 06:43:00.62	46.56	12.01	
2025-01-13 06:43:00.82	46.60	12.03	
2025-01-13 06:43:01.02	46.63	12.04	
2025-01-13 06:43:01.23	46.67	12.05	
2025-01-13 06:43:01.43	46.71	12.06	
2025-01-13 06:43:01.64	46.74	12.08	
2025-01-13 06:43:01.84	46.78	12.09	
2025-01-13 06:43:02.05	46.82	12.10	
2025-01-13 06:43:02.25	46.85	12.11	
2025-01-13 06:43:02.46	46.89	12.13	
2025-01-13 06:43:02.67	46.93	12.14	
2025-01-13 06:43:02.87	46.96	12.15	
2025-01-13 06:43:03.08	47.00	12.16	
2025-01-13 06:43:03.28	47.03	12.18	
2025-01-13 06:43:03.49	47.07	12.19	
2025-01-13 06:43:03.69	47.11	12.20	
2025-01-13 06:43:03.90	47.14	12.21	
2025-01-13 06:43:04.10	47.18	12.23	
2025-01-13 06:43:04.31	47.22	12.24	
2025-01-13 06:43:04.51	47.25	12.25	
2025-01-13 06:43:04.72	47.29	12.26	
2025-01-13 06:43:04.92	47.33	12.28	
2025-01-13 06:43:05.13	47.36	12.29	
2025-01-13 06:43:05.33	47.40	12.30	
2025-01-13 06:43:05.54	47.44	12.31	
2025-01-13 06:43:05.75	47.48	12.33	
2025-01-13 06:43:05.95	47.51	12.34	
2025-01-13 06:43:06.16	47.55	12.35	
2025-01-13 06:43:06.36	47.59	12.36	
2025-01-13 06:43:06.57	47.62	12.38	
2025-01-13 06:43:06.77	47.66	12.39	
2025-01-13 06:43:06.98	47.70	12.40	
2025-01-13 06:43:07.18	47.73	12.41	
2025-01-13 06:43:07.39	47.77	12.43	
2025-01-13 06:43:07.59	47.81	12.44	
2025-01-13 06:43:07.80	47.85	12.45	
2025-01-13 06:43:08.01	47.88	12.46	
2025-01-13 06:43:08.21	47.92	12.48	
2025-01-13 06:43:08.41	47.96	12.49	
2025-01-13 06:43:08.62	47.99	12.50	
2025-01-13 06:43:08.82	48.03	12.51	
2025-01-13 06:43:09.03	48.07	12.52	
2025-01-13 06:43:09.24	48.11	12.54	
2025-01-13 06:43:09.44	48.14	12.55	
2025-01-13 06:43:09.64	48.18	12.56	
2025-01-13 06:43:09.85	48.22	12.57	
2025-01-13 06:43:10.06	48.26	12.59	
2025-01-13 06:43:10.26	48.29	12.60	
2025-01-13 06:43:10.47	48.33	12.61	
2025-01-13 06:43:10.67	48.37	12.62	
2025-01-13 06:43:10.88	48.41	12.64	
2025-01-13 06:43:11.08	48.44	12.65	
2025-01-13 06:43:11.29	48.48	12.66	
2025-01-13 06:43:11.49	48.52	12.67	
2025-01-13 06:43:11.70	48.56	12.69	
2025-01-13 06:43:11.90	48.59	12.70	
2025-01-13 06:43:12.11	48.63	12.71	
2025-01-13 06:43:12.31	48.67	12.72	
2025-01-13 06:43:12.52	48.71	12.73	
2025-01-13 06:43:12.72	48.75	12.75	
2025-01-13 06:43:12.93	48.79	12.76	
2025-01-13 06:43:13.13	48.82	12.77	
2025-01-13 06:43:13.34	48.86	12.78	
2025-01-13 06:43:13.54	48.90	12.80	
2025-01-13 06:43:13.74	48.94	12.81	
2025-01-13 06:43:13.95	48.97	12.82	
2025-01-13 06:43:14.16	49.01	12.83	
2025-01-13 06:43:14.36	49.05	12.85	
2025-01-13 06:43:14.57	49.09	12.86	
2025-01-13 06:43:14.77	49.13	12.87	
2025-01-13 06:43:14.98	49.17	12.88	
2025-01-13 06:43:15.18	49.20	12.89	
2025-01-13 06:43:15.39	49.24	12.91	
2025-01-13 06:43:15.59	49.28	12.92	
2025-01-13 06:43:15.80	49.32	12.93	
2025-01-13 06:43:16.00	49.36	12.94	
2025-01-13 06:43:16.21	49.40	12.96	
2025-01-13 06:43:16.41	49.43	12.97	
2025-01-13 06:43:16.62	49.47	12.98	
2025-01-13 06:43:16.82	49.51	12.99	
2025-01-13 06:43:17.03	49.55	13.00	
2025-01-13 06:43:17.23	49.59	13.02	
2025-01-13 06:43:17.44	49.63	13.03	
2025-01-13 06:43:17.64	49.67	13.04	
2025-01-13 06:43:17.85	49.71	13.05	
2025-01-13 06:43:18.07	49.75	13.07	
2025-01-13 06:43:18.27	49.79	13.08	
2025-01-13 06:43:18.48	49.83	13.09	
2025-01-13 06:43:18.68	49.86	13.10	
2025-01-13 06:43:18.89	49.90	13.12	
2025-01-13 06:43:19.09	49.94	13.13	
2025-01-13 06:43:19.29	49.98	13.14	
2025-01-13 06:43:19.50	50.02	13.15	
2025-01-13 06:43:19.70	50.06	13.16	
2025-01-13 06:43:19.91	50.10	13.18	
2025-01-13 06:43:20.12	50.14	13.19	
2025-01-13 06:43:20.32	50.18	13.20	
2025-01-13 06:43:20.53	50.22	13.21	
2025-01-13 06:43:20.73	50.25	13.22	
2025-01-13 06:43:20.94	50.29	13.24	
2025-01-13 06:43:21.14	50.33	13.25	
2025-01-13 06:43:21.35	50.37	13.26	
2025-01-13 06:43:21.55	50.41	13.27	
2025-01-13 06:43:21.76	50.45	13.29	
2025-01-13 06:43:21.97	50.49	13.30	
2025-01-13 06:43:22.17	50.53	13.31	
2025-01-13 06:43:22.37	50.57	13.32	
2025-01-13 06:43:22.58	50.61	13.33	
2025-01-13 06:43:22.78	50.65	13.35	
2025-01-13 06:43:22.99	50.69	13.36	
2025-01-13 06:43:23.19	50.73	13.37	
2025-01-13 06:43:23.40	50.77	13.38	
2025-01-13 06:43:23.60	50.81	13.39	
2025-01-13 06:43:23.81	50.85	13.41	
2025-01-13 06:43:24.01	50.89	13.42	
2025-01-13 06:43:24.22	50.93	13.43	
2025-01-13 06:43:24.42	50.97	13.44	
2025-01-13 06:43:24.63	51.01	13.45	
2025-01-13 06:43:24.83	51.05	13.47	
2025-01-13 06:43:25.04	51.09	13.48	
2025-01-13 06:43:25.25	51.13	13.49	
2025-01-13 06:43:25.45	51.17	13.50	
2025-01-13 06:43:25.66	51.21	13.51	
2025-01-13 06:43:25.86	51.25	13.53	
2025-01-13 06:43:26.07	51.29	13.54	
2025-01-13 06:43:26.27	51.33	13.55	
2025-01-13 06:43:26.48	51.37	13.56	
2025-01-13 06:43:26.68	51.41	13.57	
2025-01-13 06:43:26.89	51.45	13.59	
2025-01-13 06:43:27.10	51.49	13.60	
2025-01-13 06:43:27.30	51.53	13.61	
2025-01-13 06:43:27.51	51.57	13.62	
2025-01-13 06:43:27.71	51.61	13.63	
2025-01-13 06:43:27.92	51.65	13.65	
2025-01-13 06:43:28.12	51.69	13.66	
2025-01-13 06:43:28.33	51.73	13.67	
2025-01-13 06:43:28.53	51.77	13.68	
2025-01-13 06:43:28.74	51.81	13.69	
2025-01-13 06:43:28.95	51.85	13.71	
2025-01-13 06:43:29.15	51.89	13.72	
2025-01-13 06:43:29.36	51.94	13.73	
2025-01-13 06:43:29.56	51.98	13.74	
2025-01-13 06:43:29.77	52.02	13.75	
2025-01-13 06:43:29.97	52.06	13.77	
2025-01-13 06:43:30.18	52.10	13.78	
2025-01-13 06:43:30.38	52.14	13.79	
2025-01-13 06:43:30.59	52.18	13.80	
2025-01-13 06:43:30.79	52.22	13.81	
2025-01-13 06:43:31.00	52.26	13.83	
2025-01-13 06:43:31.20	52.30	13.84	
2025-01-13 06:43:31.41	52.34	13.85	
2025-01-13 06:43:31.62	52.39	13.86	
2025-01-13 06:43:31.82	52.43	13.87	
2025-01-13 06:43:32.02	52.47	13.88	
2025-01-13 06:43:32.23	52.51	13.90	
2025-01-13 06:43:32.44	52.55	13.91	
2025-01-13 06:43:32.64	52.59	13.92	
2025-01-13 06:43:32.85	52.63	13.93	
2025-01-13 06:43:33.05	52.67	13.94	
2025-01-13 06:43:33.26	52.72	13.96	
2025-01-13 06:43:33.46	52.76	13.97	
2025-01-13 06:43:33.67	52.80	13.98	
2025-01-13 06:43:33.88	52.84	13.99	
2025-01-13 06:43:34.08	52.88	14.00	
2025-01-13 06:43:34.28	52.92	14.01	
2025-01-13 06:43:34.49	52.96	14.03	
2025-01-13 06:43:34.70	53.01	14.04	
2025-01-13 06:43:34.90	53.05	14.05	
2025-01-13 06:43:35.11	53.09	14.06	
2025-01-13 06:43:35.31	53.13	14.07	
2025-01-13 06:43:35.52	53.17	14.09	
2025-01-13 06:43:35.72	53.21	14.10	
2025-01-13 06:43:35.92	53.26	14.11	
2025-01-13 06:43:36.13	53.30	14.12	
2025-01-13 06:43:36.33	53.34	14.13	
2025-01-13 06:43:36.54	53.38	14.14	
2025-01-13 06:43:36.74	53.42	14.15	
2025-01-13 06:43:36.95	53.47	14.17	
2025-01-13 06:43:37.15	53.51	14.18	
2025-01-13 06:43:37.37	53.55	14.19	
2025-01-13 06:43:37.58	53.59	14.20	
2025-01-13 06:43:37.78	53.64	14.21	
2025-01-13 06:43:37.99	53.68	14.23	
2025-01-13 06:43:38.19	53.72	14.24	
2025-01-13 06:43:38.40	53.76	14.25	
2025-01-13 06:43:38.60	53.80	14.26	
2025-01-13 06:43:38.81	53.85	14.27	
2025-01-13 06:43:39.01	53.89	14.28	
2025-01-13 06:43:39.22	53.93	14.30	
2025-01-13 06:43:39.42	53.97	14.31	
2025-01-13 06:43:39.62	54.01	14.32	
2025-01-13 06:43:39.83	54.06	14.33	
2025-01-13 06:43:40.04	54.10	14.34	
2025-01-13 06:43:40.24	54.14	14.35	
2025-01-13 06:43:40.45	54.19	14.36	
2025-01-13 06:43:40.65	54.23	14.38	
2025-01-13 06:43:40.86	54.27	14.39	
2025-01-13 06:43:41.07	54.32	14.40	
2025-01-13 06:43:41.27	54.36	14.41	
2025-01-13 06:43:41.48	54.40	14.42	
2025-01-13 06:43:41.68	54.44	14.43	
2025-01-13 06:43:41.88	54.48	14.44	
2025-01-13 06:43:42.09	54.53	14.46	
2025-01-13 06:43:42.29	54.57	14.47	
2025-01-13 06:43:42.50	54.61	14.48	
2025-01-13 06:43:42.71	54.66	14.49	
2025-01-13 06:43:42.91	54.70	14.50	
2025-01-13 06:43:43.12	54.74	14.51	
2025-01-13 06:43:43.32	54.79	14.53	
2025-01-13 06:43:43.53	54.83	14.54	
2025-01-13 06:43:43.75	54.88	14.55	
2025-01-13 06:43:43.95	54.92	14.56	
2025-01-13 06:43:44.16	54.96	14.57	
2025-01-13 06:43:44.36	55.00	14.58	
2025-01-13 06:43:44.57	55.05	14.59	
2025-01-13 06:43:44.77	55.09	14.61	
2025-01-13 06:43:44.98	55.14	14.62	
2025-01-13 06:43:45.18	55.18	14.63	
2025-01-13 06:43:45.39	55.22	14.64	
2025-01-13 06:43:45.60	55.27	14.65	
2025-01-13 06:43:45.80	55.31	14.66	
2025-01-13 06:43:46.00	55.35	14.67	
2025-01-13 06:43:46.21	55.40	14.69	
2025-01-13 06:43:46.42	55.44	14.70	
2025-01-13 06:43:46.62	55.48	14.71	
2025-01-13 06:43:46.83	55.53	14.72	
2025-01-13 06:43:47.03	55.57	14.73	
2025-01-13 06:43:47.24	55.61	14.74	
2025-01-13 06:43:47.44	55.66	14.75	
2025-01-13 06:43:47.65	55.70	14.76	
2025-01-13 06:43:47.85	55.74	14.78	
2025-01-13 06:43:48.05	55.79	14.79	
2025-01-13 06:43:48.26	55.83	14.80	
2025-01-13 06:43:48.47	55.88	14.81	
2025-01-13 06:43:48.67	55.92	14.82	
2025-01-13 06:43:48.88	55.96	14.83	
2025-01-13 06:43:49.08	56.01	14.84	
2025-01-13 06:43:49.29	56.05	14.85	
2025-01-13 06:43:49.49	56.10	14.86	
2025-01-13 06:43:49.70	56.14	14.88	
2025-01-13 06:43:49.90	56.18	14.89	
2025-01-13 06:43:50.11	56.23	14.90	
2025-01-13 06:43:50.31	56.27	14.91	
2025-01-13 06:43:50.52	56.32	14.92	
2025-01-13 06:43:50.73	56.36	14.93	
2025-01-13 06:43:50.93	56.41	14.94	
2025-01-13 06:43:51.14	56.45	14.95	
2025-01-13 06:43:51.34	56.49	14.96	
2025-01-13 06:43:51.55	56.54	14.98	
2025-01-13 06:43:51.75	56.58	14.99	
2025-01-13 06:43:51.96	56.63	15.00	
2025-01-13 06:43:52.16	56.67	15.01	
2025-01-13 06:43:52.36	56.72	15.02	
2025-01-13 06:43:52.57	56.76	15.03	
2025-01-13 06:43:52.77	56.81	15.04	
2025-01-13 06:43:52.98	56.85	15.05	
2025-01-13 06:43:53.19	56.90	15.06	
2025-01-13 06:43:53.40	56.94	15.08	
2025-01-13 06:43:53.61	56.99	15.09	
2025-01-13 06:43:53.82	57.03	15.10	
2025-01-13 06:43:54.02	57.08	15.11	
2025-01-13 06:43:54.23	57.12	15.12	
2025-01-13 06:43:54.43	57.17	15.13	
2025-01-13 06:43:54.64	57.21	15.14	
2025-01-13 06:43:54.84	57.26	15.15	
2025-01-13 06:43:55.04	57.30	15.16	
2025-01-13 06:43:55.25	57.35	15.17	
2025-01-13 06:43:55.46	57.39	15.19	
2025-01-13 06:43:55.66	57.44	15.20	
2025-01-13 06:43:55.87	57.48	15.21	
2025-01-13 06:43:56.07	57.53	15.22	
2025-01-13 06:43:56.28	57.57	15.23	
2025-01-13 06:43:56.48	57.62	15.24	
2025-01-13 06:43:56.69	57.66	15.25	
2025-01-13 06:43:56.90	57.71	15.26	
2025-01-13 06:43:57.10	57.76	15.27	
2025-01-13 06:43:57.31	57.80	15.28	
2025-01-13 06:43:57.51	57.85	15.29	
2025-01-13 06:43:57.73	57.89	15.30	
2025-01-13 06:43:57.93	57.94	15.32	
2025-01-13 06:43:58.14	57.99	15.33	
2025-01-13 06:43:58.34	58.03	15.34	
2025-01-13 06:43:58.54	58.07	15.35	
2025-01-13 06:43:58.75	58.12	15.36	
2025-01-13 06:43:58.95	58.17	15.37	
2025-01-13 06:43:59.16	58.21	15.38	
2025-01-13 06:43:59.36	58.26	15.39	
2025-01-13 06:43:59.57	58.30	15.40	
2025-01-13 06:43:59.77	58.35	15.41	
2025-01-13 06:43:59.98	58.40	15.42	
2025-01-13 06:44:00.20	58.44	15.43	
2025-01-13 06:44:00.40	58.49	15.44	
2025-01-13 06:44:00.61	58.54	15.45	
2025-01-13 06:44:00.81	58.58	15.47	
2025-01-13 06:44:01.02	58.63	15.48	
2025-01-13 06:44:01.22	58.67	15.49	
2025-01-13 06:44:01.43	58.72	15.50	
2025-01-13 06:44:01.63	58.77	15.51	
2025-01-13 06:44:01.84	58.81	15.52	
2025-01-13 06:44:02.04	58.86	15.53	
2025-01-13 06:44:02.25	58.90	15.54	
2025-01-13 06:44:02.45	58.95	15.55	
2025-01-13 06:44:02.66	59.00	15.56	
2025-01-13 06:44:02.87	59.04	15.57	
2025-01-13 06:44:03.07	59.09	15.58	
2025-01-13 06:44:03.28	59.14	15.59	
2025-01-13 06:44:03.48	59.18	15.60	
2025-01-13 06:44:03.69	59.23	15.61	
2025-01-13 06:44:03.89	59.28	15.62	
2025-01-13 06:44:04.10	59.32	15.63	
2025-01-13 06:44:04.30	59.37	15.64	
2025-01-13 06:44:04.51	59.42	15.65	
2025-01-13 06:44:04.71	59.46	15.66	
2025-01-13 06:44:04.92	59.51	15.67	
2025-01-13 06:44:05.12	59.55	15.68	
2025-01-13 06:44:05.33	59.60	15.70	
2025-01-13 06:44:05.53	59.65	15.71	
2025-01-13 06:44:05.74	59.70	15.72	
2025-01-13 06:44:05.95	59.74	15.73	
2025-01-13 06:44:06.16	59.79	15.74	
2025-01-13 06:44:06.37	59.84	15.75	
2025-01-13 06:44:06.57	59.89	15.76	
2025-01-13 06:44:06.78	59.93	15.77	
2025-01-13 06:44:06.98	59.98	15.78	
2025-01-13 06:44:07.20	60.03	15.79	
2025-01-13 06:44:07.41	60.08	15.80	
2025-01-13 06:44:07.61	60.12	15.81	
2025-01-13 06:44:07.82	60.17	15.82	
2025-01-13 06:44:08.02	60.22	15.83	
2025-01-13 06:44:08.23	60.27	15.84	
2025-01-13 06:44:08.43	60.31	15.85	
2025-01-13 06:44:08.64	60.36	15.86	
2025-01-13 06:44:08.84	60.41	15.87	
2025-01-13 06:44:09.05	60.46	15.88	
2025-01-13 06:44:09.25	60.50	15.89	
2025-01-13 06:44:09.46	60.55	15.90	
2025-01-13 06:44:09.66	60.60	15.91	
2025-01-13 06:44:09.87	60.64	15.92	
2025-01-13 06:44:10.07	60.69	15.93	
2025-01-13 06:44:10.27	60.74	15.94	
2025-01-13 06:44:10.48	60.79	15.95	
2025-01-13 06:44:10.68	60.83	15.96	
2025-01-13 06:44:10.89	60.88	15.97	
2025-01-13 06:44:11.10	60.93	15.98	
2025-01-13 06:44:11.30	60.98	15.99	
2025-01-13 06:44:11.50	61.02	16.00	
2025-01-13 06:44:11.71	61.07	16.01	
2025-01-13 06:44:11.92	61.12	16.02	
2025-01-13 06:44:12.12	61.17	16.03	
2025-01-13 06:44:12.33	61.22	16.04	
2025-01-13 06:44:12.53	61.26	16.05	
2025-01-13 06:44:12.74	61.31	16.06	
2025-01-13 06:44:12.94	61.36	16.07	
2025-01-13 06:44:13.15	61.41	16.08	
2025-01-13 06:44:13.35	61.45	16.09	
2025-01-13 06:44:13.57	61.51	16.10	
2025-01-13 06:44:13.77	61.55	16.11	
2025-01-13 06:44:13.98	61.60	16.12	
2025-01-13 06:44:14.18	61.65	16.13	
2025-01-13 06:44:14.39	61.70	16.14	
2025-01-13 06:44:14.59	61.75	16.15	
2025-01-13 06:44:14.80	61.80	16.16	
2025-01-13 06:44:15.00	61.84	16.17	
2025-01-13 06:44:15.21	61.89	16.18	
2025-01-13 06:44:15.41	61.94	16.19	
2025-01-13 06:44:15.62	61.99	16.20	
2025-01-13 06:44:15.82	62.04	16.21	
2025-01-13 06:44:16.02	62.08	16.22	
2025-01-13 06:44:16.23	62.13	16.23	
2025-01-13 06:44:16.44	62.18	16.24	
2025-01-13 06:44:16.64	62.23	16.24	
2025-01-13 06:44:16.85	62.28	16.25	
2025-01-13 06:44:17.05	62.33	16.26	
2025-01-13 06:44:17.26	62.38	16.27	
2025-01-13 06:44:17.46	62.42	16.28	
2025-01-13 06:44:17.67	62.47	16.29	
2025-01-13 06:44:17.87	62.52	16.30	
2025-01-13 06:44:18.08	62.57	16.31	
2025-01-13 06:44:18.28	62.62	16.32	
2025-01-13 06:44:18.49	62.67	16.33	
2025-01-13 06:44:18.69	62.72	16.34	
2025-01-13 06:44:18.89	62.76	16.35	
2025-01-13 06:44:19.10	62.81	16.36	
2025-01-13 06:44:19.30	62.86	16.37	
2025-01-13 06:44:19.51	62.91	16.38	
2025-01-13 06:44:19.71	62.96	16.39	
2025-01-13 06:44:19.92	63.01	16.40	
2025-01-13 06:44:20.13	63.06	16.41	
2025-01-13 06:44:20.34	63.11	16.42	
2025-01-13 06:44:20.54	63.16	16.42	
2025-01-13 06:44:20.75	63.21	16.43	
2025-01-13 06:44:20.95	63.26	16.44	
2025-01-13 06:44:21.16	63.31	16.45	
2025-01-13 06:44:21.36	63.35	16.46	
2025-01-13 06:44:21.57	63.41	16.47	
2025-01-13 06:44:21.77	63.45	16.48	
2025-01-13 06:44:21.98	63.50	16.49	
2025-01-13 06:44:22.18	63.55	16.50	
2025-01-13 06:44:22.39	63.60	16.51	
2025-01-13 06:44:22.59	63.65	16.52	
2025-01-13 06:44:22.80	63.70	16.53	
2025-01-13 06:44:23.00	63.75	16.53	
2025-01-13 06:44:23.21	63.80	16.54	
2025-01-13 06:44:23.41	63.85	16.55	
2025-01-13 06:44:23.62	63.90	16.56	
2025-01-13 06:44:23.82	63.95	16.57	
2025-01-13 06:44:24.03	64.00	16.58	
2025-01-13 06:44:24.23	64.05	16.59	
2025-01-13 06:44:24.45	64.10	16.60	
2025-01-13 06:44:24.66	64.15	16.61	
2025-01-13 06:44:24.86	64.20	16.62	
2025-01-13 06:44:25.07	64.25	16.63	
2025-01-13 06:44:25.28	64.30	16.64	
2025-01-13 06:44:25.49	64.35	16.64	
2025-01-13 06:44:25.70	64.40	16.65	
2025-01-13 06:44:25.90	64.45	16.66	
2025-01-13 06:44:26.11	64.50	16.67	
2025-01-13 06:44:26.32	64.56	16.68	
2025-01-13 06:44:26.53	64.61	16.69	
2025-01-13 06:44:26.74	64.66	16.70	
2025-01-13 06:44:26.94	64.71	16.71	
2025-01-13 06:44:27.15	64.76	16.72	
2025-01-13 06:44:27.35	64.81	16.72	
2025-01-13 06:44:27.56	64.86	16.73	
2025-01-13 06:44:27.76	64.91	16.74	
2025-01-13 06:44:27.97	64.96	16.75	
2025-01-13 06:44:28.17	65.01	16.76	
2025-01-13 06:44:28.38	65.06	16.77	
2025-01-13 06:44:28.58	65.11	16.78	
2025-01-13 06:44:28.79	65.16	16.79	
2025-01-13 06:44:28.99	65.21	16.79	
2025-01-13 06:44:29.20	65.26	16.80	
2025-01-13 06:44:29.41	65.31	16.81	
2025-01-13 06:44:29.61	65.36	16.82	
2025-01-13 06:44:29.81	65.41	16.83	
2025-01-13 06:44:30.02	65.46	16.84	
2025-01-13 06:44:30.23	65.52	16.85	
2025-01-13 06:44:30.43	65.56	16.85	
2025-01-13 06:44:30.64	65.62	16.86	
2025-01-13 06:44:30.84	65.67	16.87	
2025-01-13 06:44:31.05	65.72	16.88	
2025-01-13 06:44:31.25	65.77	16.89	
2025-01-13 06:44:31.46	65.82	16.90	
2025-01-13 06:44:31.66	65.87	16.91	
2025-01-13 06:44:31.88	65.92	16.91	
2025-01-13 06:44:32.09	65.98	16.92	
2025-01-13 06:44:32.29	66.03	16.93	
2025-01-13 06:44:32.50	66.08	16.94	
2025-01-13 06:44:32.70	66.13	16.95	
2025-01-13 06:44:32.90	66.18	16.96	
2025-01-13 06:44:33.11	66.23	16.96	
2025-01-13 06:44:33.32	66.28	16.97	
2025-01-13 06:44:33.52	66.33	16.98	
2025-01-13 06:44:33.73	66.38	16.99	
2025-01-13 06:44:33.93	66.43	17.00	
2025-01-13 06:44:34.14	66.49	17.01	
2025-01-13 06:44:34.34	66.54	17.01	
2025-01-13 06:44:34.55	66.59	17.02	
2025-01-13 06:44:34.75	66.64	17.03	
2025-01-13 06:44:34.96	66.69	17.04	
2025-01-13 06:44:35.16	66.74	17.05	
2025-01-13 06:44:35.37	66.79	17.05	
2025-01-13 06:44:35.57	66.84	17.06	
2025-01-13 06:44:35.78	66.90	17.07	
2025-01-13 06:44:35.99	66.95	17.08	
2025-01-13 06:44:36.19	67.00	17.09	
2025-01-13 06:44:36.40	67.05	17.10	
2025-01-13 06:44:36.60	67.10	17.10	
2025-01-13 06:44:36.81	67.15	17.11	
2025-01-13 06:44:37.01	67.21	17.12	
2025-01-13 06:44:37.22	67.26	17.13	
2025-01-13 06:44:37.42	67.31	17.13	
2025-01-13 06:44:37.63	67.36	17.14	
2025-01-13 06:44:37.83	67.41	17.15	
2025-01-13 06:44:38.04	67.46	17.16	
2025-01-13 06:44:38.24	67.51	17.17	
2025-01-13 06:44:38.44	67.57	17.17	
2025-01-13 06:44:38.65	67.62	17.18	
2025-01-13 06:44:38.86	67.67	17.19	
2025-01-13 06:44:39.06	67.72	17.20	
2025-01-13 06:44:39.27	67.78	17.21	
2025-01-13 06:44:39.47	67.83	17.21	
2025-01-13 06:44:39.68	67.88	17.22	
2025-01-13 06:44:39.88	67.93	17.23	
2025-01-13 06:44:40.09	67.98	17.24	
2025-01-13 06:44:40.29	68.03	17.24	
2025-01-13 06:44:40.50	68.09	17.25	
2025-01-13 06:44:40.70	68.14	17.26	
2025-01-13 06:44:40.91	68.19	17.27	
2025-01-13 06:44:41.12	68.24	17.27	
2025-01-13 06:44:41.32	68.30	17.28	
2025-01-13 06:44:41.53	68.35	17.29	
2025-01-13 06:44:41.73	68.40	17.30	
2025-01-13 06:44:41.94	68.45	17.30	
2025-01-13 06:44:42.14	68.50	17.31	
2025-01-13 06:44:42.35	68.56	17.32	
2025-01-13 06:44:42.57	68.61	17.33	
2025-01-13 06:44:42.77	68.66	17.33	
2025-01-13 06:44:42.98	68.72	17.34	
2025-01-13 06:44:43.18	68.77	17.35	
2025-01-13 06:44:43.39	68.82	17.36	
2025-01-13 06:44:43.59	68.87	17.36	
2025-01-13 06:44:43.80	68.93	17.37	
2025-01-13 06:44:44.00	68.98	17.38	
2025-01-13 06:44:44.21	69.03	17.39	
2025-01-13 06:44:44.42	69.09	17.39	
2025-01-13 06:44:44.62	69.14	17.40	
2025-01-13 06:44:44.82	69.19	17.41	
2025-01-13 06:44:45.03	69.24	17.42	
2025-01-13 06:44:45.24	69.30	17.42	
2025-01-13 06:44:45.45	69.35	17.43	
2025-01-13 06:44:45.65	69.40	17.44	
2025-01-13 06:44:45.86	69.46	17.44	
2025-01-13 06:44:46.06	69.51	17.45	
2025-01-13 06:44:46.26	69.56	17.46	
2025-01-13 06:44:46.47	69.61	17.47	
2025-01-13 06:44:46.68	69.67	17.47	
2025-01-13 06:44:46.88	69.72	17.48	
2025-01-13 06:44:47.09	69.77	17.49	
2025-01-13 06:44:47.29	69.83	17.49	
2025-01-13 06:44:47.50	69.88	17.50	
2025-01-13 06:44:47.70	69.93	17.51	
2025-01-13 06:44:47.91	69.99	17.51	
2025-01-13 06:44:48.11	70.04	17.52	
2025-01-13 06:44:48.32	70.09	17.53	
2025-01-13 06:44:48.52	70.14	17.54	
2025-01-13 06:44:48.73	70.20	17.54	
2025-01-13 06:44:48.95	70.25	17.55	
2025-01-13 06:44:49.15	70.31	17.56	
2025-01-13 06:44:49.36	70.36	17.56	
2025-01-13 06:44:49.56	70.41	17.57	
2025-01-13 06:44:49.77	70.47	17.58	
2025-01-13 06:44:49.98	70.52	17.58	
2025-01-13 06:44:50.18	70.57	17.59	
2025-01-13 06:44:50.39	70.63	17.60	
2025-01-13 06:44:50.60	70.68	17.60	
2025-01-13 06:44:50.80	70.74	17.61	
2025-01-13 06:44:51.00	70.79	17.62	
2025-01-13 06:44:51.21	70.84	17.62	
2025-01-13 06:44:51.42	70.90	17.63	
2025-01-13 06:44:51.62	70.95	17.64	
2025-01-13 06:44:51.83	71.00	17.64	
2025-01-13 06:44:52.03	71.06	17.65	
2025-01-13 06:44:52.24	71.11	17.66	
2025-01-13 06:44:52.44	71.16	17.66	
2025-01-13 06:44:52.65	71.22	17.67	
2025-01-13 06:44:52.85	71.27	17.68	
2025-01-13 06:44:53.06	71.32	17.68	
2025-01-13 06:44:53.26	71.38	17.69	
2025-01-13 06:44:53.47	71.43	17.69	
2025-01-13 06:44:53.67	71.48	17.70	
2025-01-13 06:44:53.88	71.54	17.71	
2025-01-13 06:44:54.09	71.59	17.71	
2025-01-13 06:44:54.29	71.65	17.72	
2025-01-13 06:44:54.50	71.70	17.73	
2025-01-13 06:44:54.70	71.75	17.73	
2025-01-13 06:44:54.91	71.81	17.74	
2025-01-13 06:44:55.11	71.86	17.74	
2025-01-13 06:44:55.32	71.92	17.75	
2025-01-13 06:44:55.52	71.97	17.76	
2025-01-13 06:44:55.73	72.03	17.76	
2025-01-13 06:44:55.93	72.08	17.77	
2025-01-13 06:44:56.14	72.13	17.78	
2025-01-13 06:44:56.34	72.19	17.78	
2025-01-13 06:44:56.55	72.24	17.79	
2025-01-13 06:44:56.75	72.29	17.79	
2025-01-13 06:44:56.96	72.35	17.80	
2025-01-13 06:44:57.16	72.40	17.81	
2025-01-13 06:44:57.37	72.46	17.81	
2025-01-13 06:44:57.57	72.51	17.82	
2025-01-13 06:44:57.78	72.57	17.82	
2025-01-13 06:44:57.99	72.62	17.83	
2025-01-13 06:44:58.19	72.67	17.83	
2025-01-13 06:44:58.40	72.73	17.84	
2025-01-13 06:44:58.60	72.78	17.85	
2025-01-13 06:44:58.81	72.84	17.85	
2025-01-13 06:44:59.02	72.89	17.86	
2025-01-13 06:44:59.22	72.95	17.86	
2025-01-13 06:44:59.43	73.00	17.87	
2025-01-13 06:44:59.63	73.06	17.88	
2025-01-13 06:44:59.84	73.11	17.88	
2025-01-13 06:45:00.04	73.16	17.89	
2025-01-13 06:45:00.26	73.22	17.89	
2025-01-13 06:45:00.47	73.28	17.90	
2025-01-13 06:45:00.67	73.33	17.90	
2025-01-13 06:45:00.87	73.38	17.91	
2025-01-13 06:45:01.08	73.44	17.92	
2025-01-13 06:45:01.28	73.49	17.92	
2025-01-13 06:45:01.49	73.55	17.93	
2025-01-13 06:45:01.70	73.60	17.93	
2025-01-13 06:45:01.90	73.66	17.94	
2025-01-13 06:45:02.11	73.71	17.94	
2025-01-13 06:45:02.31	73.77	17.95	
2025-01-13 06:45:02.51	73.82	17.95	
2025-01-13 06:45:02.72	73.88	17.96	
2025-01-13 06:45:02.92	73.93	17.96	
2025-01-13 06:45:03.13	73.99	17.97	
2025-01-13 06:45:03.34	74.04	17.97	
2025-01-13 06:45:03.54	74.10	17.98	
2025-01-13 06:45:03.75	74.15	17.99	
2025-01-13 06:45:03.96	74.21	17.99	
2025-01-13 06:45:04.17	74.26	18.00	
2025-01-13 06:45:04.38	74.32	18.00	
2025-01-13 06:45:04.58	74.37	18.01	
2025-01-13 06:45:04.79	74.43	18.01	
2025-01-13 06:45:04.99	74.48	18.02	
2025-01-13 06:45:05.20	74.54	18.02	
2025-01-13 06:45:05.41	74.60	18.03	
2025-01-13 06:45:05.61	74.65	18.03	
2025-01-13 06:45:05.82	74.71	18.04	
2025-01-13 06:45:06.02	74.76	18.04	
2025-01-13 06:45:06.23	74.82	18.05	
2025-01-13 06:45:06.44	74.87	18.05	
2025-01-13 06:45:06.64	74.93	18.06	
2025-01-13 06:45:06.85	74.98	18.06	
2025-01-13 06:45:07.05	75.04	18.07	
2025-01-13 06:45:07.26	75.09	18.07	
2025-01-13 06:45:07.46	75.15	18.08	
2025-01-13 06:45:07.67	75.20	18.08	
2025-01-13 06:45:07.87	75.26	18.09	
2025-01-13 06:45:08.08	75.31	18.09	
2025-01-13 06:45:08.28	75.37	18.09	
2025-01-13 06:45:08.49	75.42	18.10	
2025-01-13 06:45:08.70	75.48	18.10	
2025-01-13 06:45:08.90	75.53	18.11	
2025-01-13 06:45:09.11	75.59	18.11	
2025-01-13 06:45:09.33	75.65	18.12	
2025-01-13 06:45:09.53	75.70	18.12	
2025-01-13 06:45:09.74	75.76	18.13	
2025-01-13 06:45:09.95	75.82	18.13	
2025-01-13 06:45:10.15	75.87	18.14	
2025-01-13 06:45:10.36	75.93	18.14	
2025-01-13 06:45:10.56	75.98	18.15	
2025-01-13 06:45:10.77	76.04	18.15	
2025-01-13 06:45:10.97	76.09	18.15	
2025-01-13 06:45:11.18	76.15	18.16	
2025-01-13 06:45:11.38	76.20	18.16	
2025-01-13 06:45:11.58	76.26	18.17	
2025-01-13 06:45:11.79	76.31	18.17	
2025-01-13 06:45:12.00	76.37	18.18	
2025-01-13 06:45:12.20	76.42	18.18	
2025-01-13 06:45:12.40	76.48	18.18	
2025-01-13 06:45:12.61	76.54	18.19	
2025-01-13 06:45:12.82	76.59	18.19	
2025-01-13 06:45:13.02	76.65	18.20	
2025-01-13 06:45:13.23	76.70	18.20	
2025-01-13 06:45:13.43	76.76	18.21	
2025-01-13 06:45:13.65	76.82	18.21	
2025-01-13 06:45:13.85	76.87	18.21	
2025-01-13 06:45:14.06	76.93	18.22	
2025-01-13 06:45:14.26	76.98	18.22	
2025-01-13 06:45:14.47	77.04	18.23	
2025-01-13 06:45:14.69	77.10	18.23	
2025-01-13 06:45:14.89	77.15	18.23	
2025-01-13 06:45:15.10	77.21	18.24	
2025-01-13 06:45:15.30	77.27	18.24	
2025-01-13 06:45:15.51	77.32	18.25	
2025-01-13 06:45:15.71	77.38	18.25	
2025-01-13 06:45:15.92	77.43	18.25	
2025-01-13 06:45:16.13	77.49	18.26	
2025-01-13 06:45:16.33	77.55	18.26	
2025-01-13 06:45:16.54	77.60	18.27	
2025-01-13 06:45:16.74	77.66	18.27	
2025-01-13 06:45:16.95	77.71	18.27	
2025-01-13 06:45:17.15	77.77	18.28	
2025-01-13 06:45:17.36	77.83	18.28	
2025-01-13 06:45:17.56	77.88	18.28	
2025-01-13 06:45:17.77	77.94	18.29	
2025-01-13 06:45:17.97	77.99	18.29	
2025-01-13 06:45:18.17	78.05	18.29	
2025-01-13 06:45:18.38	78.10	18.30	
2025-01-13 06:45:18.59	78.16	18.30	
2025-01-13 06:45:18.79	78.22	18.30	
2025-01-13 06:45:18.99	78.27	18.31	
2025-01-13 06:45:19.20	78.33	18.31	
2025-01-13 06:45:19.40	78.38	18.32	
2025-01-13 06:45:19.61	78.44	18.32	
2025-01-13 06:45:19.82	78.50	18.32	
2025-01-13 06:45:20.02	78.55	18.33	
2025-01-13 06:45:20.22	78.61	18.33	
2025-01-13 06:45:20.43	78.67	18.33	
2025-01-13 06:45:20.64	78.72	18.34	
2025-01-13 06:45:20.84	78.78	18.34	
2025-01-13 06:45:21.05	78.83	18.34	
2025-01-13 06:45:21.25	78.89	18.34	
2025-01-13 06:45:21.46	78.95	18.35	
2025-01-13 06:45:21.66	79.00	18.35	
2025-01-13 06:45:21.87	79.06	18.35	
2025-01-13 06:45:22.07	79.11	18.36	
2025-01-13 06:45:22.28	79.17	18.36	
2025-01-13 06:45:22.48	79.23	18.36	
2025-01-13 06:45:22.69	79.28	18.37	
2025-01-13 06:45:22.90	79.34	18.37	
2025-01-13 06:45:23.10	79.40	18.37	
2025-01-13 06:45:23.31	79.45	18.38	
2025-01-13 06:45:23.51	79.51	18.38	
2025-01-13 06:45:23.71	79.56	18.38	
2025-01-13 06:45:23.92	79.62	18.38	
2025-01-13 06:45:24.12	79.68	18.39	
2025-01-13 06:45:24.33	79.73	18.39	
2025-01-13 06:45:24.54	79.79	18.39	
2025-01-13 06:45:24.74	79.85	18.39	
2025-01-13 06:45:24.95	79.90	18.40	
2025-01-13 06:45:25.15	79.96	18.40	
2025-01-13 06:45:25.35	80.01	18.40	
2025-01-13 06:45:25.56	80.07	18.41	
2025-01-13 06:45:25.77	80.13	18.41	
2025-01-13 06:45:25.98	80.19	18.41	
2025-01-13 06:45:26.18	80.24	18.41	
2025-01-13 06:45:26.39	80.30	18.42	
2025-01-13 06:45:26.59	80.36	18.42	
2025-01-13 06:45:26.80	80.41	18.42	
2025-01-13 06:45:27.00	80.47	18.42	
2025-01-13 06:45:27.21	80.53	18.43	
2025-01-13 06:45:27.41	80.58	18.43	
2025-01-13 06:45:27.62	80.64	18.43	
2025-01-13 06:45:27.82	80.69	18.43	
2025-01-13 06:45:28.03	80.75	18.44	
2025-01-13 06:45:28.23	80.81	18.44	
2025-01-13 06:45:28.44	80.87	18.44	
2025-01-13 06:45:28.64	80.92	18.44	
2025-01-13 06:45:28.85	80.98	18.44	
2025-01-13 06:45:29.05	81.03	18.45	
2025-01-13 06:45:29.26	81.09	18.45	
2025-01-13 06:45:29.47	81.15	18.45	
2025-01-13 06:45:29.68	81.21	18.45	
2025-01-13 06:45:29.88	81.26	18.46	
2025-01-13 06:45:30.09	81.32	18.46	
2025-01-13 06:45:30.30	81.38	18.46	
2025-01-13 06:45:30.50	81.43	18.46	
2025-01-13 06:45:30.71	81.49	18.46	
2025-01-13 06:45:30.91	81.55	18.47	
2025-01-13 06:45:31.12	81.61	18.47	
2025-01-13 06:45:31.32	81.66	18.47	
2025-01-13 06:45:31.53	81.72	18.47	
2025-01-13 06:45:31.73	81.77	18.47	
2025-01-13 06:45:31.94	81.83	18.47	
2025-01-13 06:45:32.14	81.89	18.48	
2025-01-13 06:45:32.35	81.95	18.48	
2025-01-13 06:45:32.55	82.00	18.48	
2025-01-13 06:45:32.76	82.06	18.48	
2025-01-13 06:45:32.96	82.11	18.48	
2025-01-13 06:45:33.17	82.17	18.49	
2025-01-13 06:45:33.38	82.23	18.49	
2025-01-13 06:45:33.58	82.29	18.49	
2025-01-13 06:45:33.79	82.34	18.49	
2025-01-13 06:45:33.99	82.40	18.49	
2025-01-13 06:45:34.20	82.46	18.49	
2025-01-13 06:45:34.40	82.51	18.49	
2025-01-13 06:45:34.61	82.57	18.50	
2025-01-13 06:45:34.81	82.63	18.50	
2025-01-13 06:45:35.02	82.68	18.50	
2025-01-13 06:45:35.22	82.74	18.50	
2025-01-13 06:45:35.43	82.80	18.50	
2025-01-13 06:45:35.63	82.85	18.50	
2025-01-13 06:45:35.83	82.91	18.50	
2025-01-13 06:45:36.04	82.97	18.51	
2025-01-13 06:45:36.25	83.02	18.51	
2025-01-13 06:45:36.45	83.08	18.51	
2025-01-13 06:45:36.66	83.14	18.51	
2025-01-13 06:45:36.86	83.19	18.51	
2025-01-13 06:45:37.08	83.25	18.51	
2025-01-13 06:45:37.28	83.31	18.51	
2025-01-13 06:45:37.49	83.37	18.51	
2025-01-13 06:45:37.70	83.43	18.52	
2025-01-13 06:45:37.90	83.48	18.52	
2025-01-13 06:45:38.11	83.54	18.52	
2025-01-13 06:45:38.31	83.60	18.52	
2025-01-13 06:45:38.52	83.65	18.52	
2025-01-13 06:45:38.72	83.71	18.52	
2025-01-13 06:45:38.93	83.77	18.52	
2025-01-13 06:45:39.14	83.83	18.52	
2025-01-13 06:45:39.35	83.88	18.52	
2025-01-13 06:45:39.55	83.94	18.52	
2025-01-13 06:45:39.76	84.00	18.53	
2025-01-13 06:45:39.97	84.06	18.53	
2025-01-13 06:45:40.17	84.11	18.53	
2025-01-13 06:45:40.38	84.17	18.53	
2025-01-13 06:45:40.58	84.23	18.53	
2025-01-13 06:45:40.79	84.28	18.53	
2025-01-13 06:45:40.99	84.34	18.53	
2025-01-13 06:45:41.20	84.40	18.53	
2025-01-13 06:45:41.40	84.45	18.53	
2025-01-13 06:45:41.61	84.51	18.53	
2025-01-13 06:45:41.81	84.57	18.53	
2025-01-13 06:45:42.02	84.62	18.53	
2025-01-13 06:45:42.22	84.68	18.53	
2025-01-13 06:45:42.43	84.74	18.53	
2025-01-13 06:45:42.64	84.80	18.53	
2025-01-13 06:45:42.84	84.85	18.53	
2025-01-13 06:45:43.05	84.91	18.54	
2025-01-13 06:45:43.25	84.97	18.54	
2025-01-13 06:45:43.45	85.02	18.54	
2025-01-13 06:45:43.66	85.08	18.54	
2025-01-13 06:45:43.87	85.14	18.54	
2025-01-13 06:45:44.07	85.19	18.54	
2025-01-13 06:45:44.27	85.25	18.54	
2025-01-13 06:45:44.49	85.31	18.54	
2025-01-13 06:45:44.70	85.37	18.54	
2025-01-13 06:45:44.90	85.42	18.54	
2025-01-13 06:45:45.11	85.48	18.54	
2025-01-13 06:45:45.31	85.54	18.54	
2025-01-13 06:45:45.52	85.60	18.54	
2025-01-13 06:45:45.72	85.65	18.54	
2025-01-13 06:45:45.93	85.71	18.54	
2025-01-13 06:45:46.13	85.77	18.54	
2025-01-13 06:45:46.34	85.82	18.54	
2025-01-13 06:45:46.54	85.88	18.54	
2025-01-13 06:45:46.75	85.94	18.54	
2025-01-13 06:45:46.96	86.00	18.54	
2025-01-13 06:45:47.16	86.05	18.54	
2025-01-13 06:45:47.37	86.11	18.54	
2025-01-13 06:45:47.57	86.17	18.54	
2025-01-13 06:45:47.78	86.22	18.54	
2025-01-13 06:45:47.98	86.28	18.54	
2025-01-13 06:45:48.19	86.34	18.54	
2025-01-13 06:45:48.39	86.39	18.54	
2025-01-13 06:45:48.60	86.45	18.54	
2025-01-13 06:45:48.80	86.51	18.54	
2025-01-13 06:45:49.01	86.57	18.54	
2025-01-13 06:45:49.21	86.62	18.54	
2025-01-13 06:45:49.42	86.68	18.53	
2025-01-13 06:45:49.63	86.74	18.53	
2025-01-13 06:45:49.83	86.79	18.53	
2025-01-13 06:45:50.03	86.85	18.53	
2025-01-13 06:45:50.24	86.91	18.53	
2025-01-13 06:45:50.45	86.97	18.53	
2025-01-13 06:45:50.65	87.02	18.53	
2025-01-13 06:45:50.86	87.08	18.53	
2025-01-13 06:45:51.07	87.14	18.53	
2025-01-13 06:45:51.28	87.20	18.53	
2025-01-13 06:45:51.48	87.25	18.53	
2025-01-13 06:45:51.69	87.31	18.53	
2025-01-13 06:45:51.89	87.37	18.53	
2025-01-13 06:45:52.10	87.42	18.53	
2025-01-13 06:45:52.30	87.48	18.53	
2025-01-13 06:45:52.51	87.54	18.53	
2025-01-13 06:45:52.71	87.59	18.52	
2025-01-13 06:45:52.92	87.65	18.52	
2025-01-13 06:45:53.12	87.71	18.52	
2025-01-13 06:45:53.33	87.76	18.52	
2025-01-13 06:45:53.53	87.82	18.52	
2025-01-13 06:45:53.74	87.88	18.52	
2025-01-13 06:45:53.94	87.93	18.52	
2025-01-13 06:45:54.16	87.99	18.52	
2025-01-13 06:45:54.37	88.05	18.52	
2025-01-13 06:45:54.58	88.11	18.52	
2025-01-13 06:45:54.78	88.17	18.51	
2025-01-13 06:45:54.99	88.23	18.51	
2025-01-13 06:45:55.20	88.28	18.51	
2025-01-13 06:45:55.41	88.34	18.51	
2025-01-13 06:45:55.61	88.40	18.51	
2025-01-13 06:45:55.82	88.46	18.51	
2025-01-13 06:45:56.03	88.51	18.51	
2025-01-13 06:45:56.24	88.57	18.51	
2025-01-13 06:45:56.45	88.63	18.50	
2025-01-13 06:45:56.66	88.69	18.50	
2025-01-13 06:45:56.86	88.74	18.50	
2025-01-13 06:45:57.07	88.80	18.50	
2025-01-13 06:45:57.27	88.86	18.50	
2025-01-13 06:45:57.48	88.92	18.50	
2025-01-13 06:45:57.68	88.97	18.50	
2025-01-13 06:45:57.89	89.03	18.49	
2025-01-13 06:45:58.10	89.09	18.49	
2025-01-13 06:45:58.30	89.14	18.49	
2025-01-13 06:45:58.50	89.20	18.49	
2025-01-13 06:45:58.71	89.26	18.49	
2025-01-13 06:45:58.91	89.31	18.49	
2025-01-13 06:45:59.12	89.37	18.49	
2025-01-13 06:45:59.32	89.42	18.48	
2025-01-13 06:45:59.53	89.48	18.48	
2025-01-13 06:45:59.73	89.54	18.48	
2025-01-13 06:45:59.94	89.60	18.48	
2025-01-13 06:46:00.14	89.65	18.48	
2025-01-13 06:46:00.35	89.71	18.47	
2025-01-13 06:46:00.55	89.77	18.47	
2025-01-13 06:46:00.75	89.82	18.47	
2025-01-13 06:46:00.96	89.88	18.47	
2025-01-13 06:46:01.16	89.93	18.47	
2025-01-13 06:46:01.37	89.99	18.47	
2025-01-13 06:46:01.57	90.05	18.46	
2025-01-13 06:46:01.78	90.11	18.46	
2025-01-13 06:46:01.98	90.16	18.46	
2025-01-13 06:46:02.19	90.22	18.46	
2025-01-13 06:46:02.40	90.28	18.46	
2025-01-13 06:46:02.60	90.33	18.45	
2025-01-13 06:46:02.80	90.39	18.45	
2025-01-13 06:46:03.01	90.44	18.45	
2025-01-13 06:46:03.22	90.50	18.45	
2025-01-13 06:46:03.42	90.56	18.44	
2025-01-13 06:46:03.63	90.62	18.44	
2025-01-13 06:46:03.83	90.67	18.44	
2025-01-13 06:46:04.04	90.73	18.44	
2025-01-13 06:46:04.24	90.78	18.44	
2025-01-13 06:46:04.45	90.84	18.43	
2025-01-13 06:46:04.65	90.90	18.43	
2025-01-13 06:46:04.86	90.96	18.43	
2025-01-13 06:46:05.06	91.01	18.43	
2025-01-13 06:46:05.27	91.07	18.42	
2025-01-13 06:46:05.48	91.13	18.42	
2025-01-13 06:46:05.68	91.18	18.42	
2025-01-13 06:46:05.89	91.24	18.42	
2025-01-13 06:46:06.09	91.29	18.41	
2025-01-13 06:46:06.30	91.35	18.41	
2025-01-13 06:46:06.50	91.41	18.41	
2025-01-13 06:46:06.71	91.47	18.41	
2025-01-13 06:46:06.93	91.53	18.40	
2025-01-13 06:46:07.13	91.58	18.40	
2025-01-13 06:46:07.34	91.64	18.40	
2025-01-13 06:46:07.54	91.69	18.39	
2025-01-13 06:46:07.75	91.75	18.39	
2025-01-13 06:46:07.96	91.81	18.39	
2025-01-13 06:46:08.16	91.86	18.39	
2025-01-13 06:46:08.37	91.92	18.38	
2025-01-13 06:46:08.57	91.98	18.38	
2025-01-13 06:46:08.78	92.03	18.38	
2025-01-13 06:46:08.98	92.09	18.38	
2025-01-13 06:46:09.18	92.14	18.37	
2025-01-13 06:46:09.39	92.20	18.37	
2025-01-13 06:46:09.60	92.26	18.37	
2025-01-13 06:46:09.80	92.31	18.36	
2025-01-13 06:46:10.01	92.37	18.36	
2025-01-13 06:46:10.21	92.43	18.36	
2025-01-13 06:46:10.42	92.48	18.35	
2025-01-13 06:46:10.62	92.54	18.35	
2025-01-13 06:46:10.83	92.60	18.35	
2025-01-13 06:46:11.03	92.65	18.34	
2025-01-13 06:46:11.23	92.71	18.34	
2025-01-13 06:46:11.44	92.76	18.34	
2025-01-13 06:46:11.65	92.82	18.33	
2025-01-13 06:46:11.85	92.88	18.33	
2025-01-13 06:46:12.06	92.93	18.33	
2025-01-13 06:46:12.26	92.99	18.33	
2025-01-13 06:46:12.47	93.05	18.32	
2025-01-13 06:46:12.67	93.10	18.32	
2025-01-13 06:46:12.88	93.16	18.31	
2025-01-13 06:46:13.08	93.21	18.31	
2025-01-13 06:46:13.29	93.27	18.31	
2025-01-13 06:46:13.49	93.33	18.30	
2025-01-13 06:46:13.70	93.38	18.30	
2025-01-13 06:46:13.90	93.44	18.30	
2025-01-13 06:46:14.11	93.50	18.29	
2025-01-13 06:46:14.31	93.55	18.29	
2025-01-13 06:46:14.52	93.61	18.29	
2025-01-13 06:46:14.72	93.66	18.28	
2025-01-13 06:46:14.93	93.72	18.28	
2025-01-13 06:46:15.13	93.77	18.28	
2025-01-13 06:46:15.34	93.83	18.27	
2025-01-13 06:46:15.54	93.89	18.27	
2025-01-13 06:46:15.75	93.94	18.26	
2025-01-13 06:46:15.95	94.00	18.26	
2025-01-13 06:46:16.16	94.06	18.26	
2025-01-13 06:46:16.37	94.11	18.25	
2025-01-13 06:46:16.57	94.17	18.25	
2025-01-13 06:46:16.78	94.22	18.25	
2025-01-13 06:46:16.98	94.28	18.24	
2025-01-13 06:46:17.19	94.34	18.24	
2025-01-13 06:46:17.39	94.39	18.23	
2025-01-13 06:46:17.59	94.44	18.23	
2025-01-13 06:46:17.80	94.50	18.23	
2025-01-13 06:46:18.01	94.56	18.22	
2025-01-13 06:46:18.21	94.61	18.22	
2025-01-13 06:46:18.42	94.67	18.21	
2025-01-13 06:46:18.62	94.72	18.21	
2025-01-13 06:46:18.82	94.78	18.21	
2025-01-13 06:46:19.03	94.84	18.20	
2025-01-13 06:46:19.24	94.89	18.20	
2025-01-13 06:46:19.44	94.95	18.19	
2025-01-13 06:46:19.65	95.00	18.19	
2025-01-13 06:46:19.85	95.06	18.19	
2025-01-13 06:46:20.06	95.12	18.18	
2025-01-13 06:46:20.26	95.17	18.18	
2025-01-13 06:46:20.47	95.23	18.17	
2025-01-13 06:46:20.67	95.28	18.17	
2025-01-13 06:46:20.88	95.34	18.16	
2025-01-13 06:46:21.08	95.39	18.16	
2025-01-13 06:46:21.29	95.45	18.15	
2025-01-13 06:46:21.49	95.50	18.15	
2025-01-13 06:46:21.70	95.56	18.15	
2025-01-13 06:46:21.90	95.61	18.14	
2025-01-13 06:46:22.11	95.67	18.14	
2025-01-13 06:46:22.31	95.72	18.13	
2025-01-13 06:46:22.52	95.78	18.13	
2025-01-13 06:46:22.72	95.84	18.12	
2025-01-13 06:46:22.93	95.89	18.12	
2025-01-13 06:46:23.13	95.95	18.11	
2025-01-13 06:46:23.34	96.00	18.11	
2025-01-13 06:46:23.54	96.06	18.10	
2025-01-13 06:46:23.75	96.11	18.10	
2025-01-13 06:46:23.95	96.17	18.10	
2025-01-13 06:46:24.16	96.22	18.09	
2025-01-13 06:46:24.36	96.28	18.09	
2025-01-13 06:46:24.57	96.33	18.08	
2025-01-13 06:46:24.77	96.39	18.08	
2025-01-13 06:46:24.97	96.44	18.07	
2025-01-13 06:46:25.18	96.50	18.07	
2025-01-13 06:46:25.39	96.56	18.06	
2025-01-13 06:46:25.59	96.61	18.06	
2025-01-13 06:46:25.80	96.67	18.05	
2025-01-13 06:46:26.00	96.72	18.05	
2025-01-13 06:46:26.21	96.78	18.04	
2025-01-13 06:46:26.41	96.83	18.04	
2025-01-13 06:46:26.62	96.89	18.03	
2025-01-13 06:46:26.82	96.94	18.03	
2025-01-13 06:46:27.03	97.00	18.02	
2025-01-13 06:46:27.23	97.05	18.02	
2025-01-13 06:46:27.44	97.11	18.01	
2025-01-13 06:46:27.64	97.16	18.01	
2025-01-13 06:46:27.85	97.22	18.00	
2025-01-13 06:46:28.05	97.27	18.00	
2025-01-13 06:46:28.26	97.33	17.99	
2025-01-13 06:46:28.46	97.38	17.99	
2025-01-13 06:46:28.67	97.44	17.98	
2025-01-13 06:46:28.87	97.49	17.98	
2025-01-13 06:46:29.08	97.55	17.97	
2025-01-13 06:46:29.28	97.60	17.96	
2025-01-13 06:46:29.49	97.66	17.96	
2025-01-13 06:46:29.69	97.71	17.95	
2025-01-13 06:46:29.90	97.76	17.95	
2025-01-13 06:46:30.10	97.82	17.94	
2025-01-13 06:46:30.31	97.87	17.94	
2025-01-13 06:46:30.51	97.93	17.93	
2025-01-13 06:46:30.72	97.98	17.93	
2025-01-13 06:46:30.92	98.04	17.92	
2025-01-13 06:46:31.13	98.09	17.92	
2025-01-13 06:46:31.33	98.15	17.91	
2025-01-13 06:46:31.54	98.20	17.90	
2025-01-13 06:46:31.74	98.26	17.90	
2025-01-13 06:46:31.95	98.31	17.89	
2025-01-13 06:46:32.15	98.36	17.89	
2025-01-13 06:46:32.36	98.42	17.88	
2025-01-13 06:46:32.58	98.48	17.88	
