passes_logs/2025/01/13/SPB_Silybum_02/SPB_Silybum_02__20250113_090343_SUOMI_NPP_rec.log

#Pass ID: 20250113_090343_SUOMI NPP
#Satellite: SUOMI NPP
#Configuration: NPP
#Start time: 2025-01-13 09:03:42

#Version: 2.0.20230423
#Station: SPB_Silybum_02
#Location: 30.233357 lon 59.946436 lat
#TLE: 1 37849U 11061A   25012.80531474  .00000146  00000+0  90276-4 0  9990
#TLE: 2 37849  98.7443 313.8217 0001772  44.3490 315.7828 14.19537186684607

#Time	Az	El	Level	Level2	SNR	BER	Gain	Gain2
2025-01-13 09:03:44.41	124.36	4.08	
2025-01-13 09:03:44.61	124.35	4.10	
2025-01-13 09:03:44.82	124.34	4.11	
2025-01-13 09:03:45.02	124.33	4.12	
2025-01-13 09:03:45.23	124.32	4.14	
2025-01-13 09:03:45.44	124.31	4.15	
2025-01-13 09:03:45.64	124.30	4.16	
2025-01-13 09:03:45.84	124.29	4.18	
2025-01-13 09:03:46.05	124.28	4.19	
2025-01-13 09:03:46.25	124.27	4.20	
2025-01-13 09:03:46.46	124.26	4.22	
2025-01-13 09:03:46.66	124.25	4.23	
2025-01-13 09:03:46.87	124.24	4.24	
2025-01-13 09:03:47.07	124.23	4.26	
2025-01-13 09:03:47.28	124.22	4.27	
2025-01-13 09:03:47.48	124.21	4.28	
2025-01-13 09:03:47.69	124.20	4.30	
2025-01-13 09:03:47.89	124.19	4.31	
2025-01-13 09:03:48.10	124.18	4.33	
2025-01-13 09:03:48.30	124.17	4.34	
2025-01-13 09:03:48.51	124.15	4.35	
2025-01-13 09:03:48.72	124.14	4.37	
2025-01-13 09:03:48.92	124.13	4.38	
2025-01-13 09:03:49.13	124.12	4.39	
2025-01-13 09:03:49.33	124.11	4.41	
2025-01-13 09:03:49.54	124.10	4.42	
2025-01-13 09:03:49.74	124.09	4.43	
2025-01-13 09:03:49.95	124.08	4.45	
2025-01-13 09:03:50.15	124.07	4.46	
2025-01-13 09:03:50.36	124.06	4.48	
2025-01-13 09:03:50.56	124.05	4.49	
2025-01-13 09:03:50.77	124.04	4.50	
2025-01-13 09:03:50.98	124.03	4.52	
2025-01-13 09:03:51.18	124.02	4.53	
2025-01-13 09:03:51.39	124.01	4.54	
2025-01-13 09:03:51.59	124.00	4.56	
2025-01-13 09:03:51.80	123.99	4.57	
2025-01-13 09:03:52.00	123.98	4.58	
2025-01-13 09:03:52.21	123.97	4.60	
2025-01-13 09:03:52.41	123.96	4.61	
2025-01-13 09:03:52.62	123.95	4.63	
2025-01-13 09:03:52.83	123.94	4.64	
2025-01-13 09:03:53.03	123.93	4.65	
2025-01-13 09:03:53.24	123.92	4.67	
2025-01-13 09:03:53.44	123.91	4.68	
2025-01-13 09:03:53.65	123.90	4.69	
2025-01-13 09:03:53.85	123.89	4.71	
2025-01-13 09:03:54.06	123.87	4.72	
2025-01-13 09:03:54.26	123.86	4.73	
2025-01-13 09:03:54.47	123.85	4.75	
2025-01-13 09:03:54.68	123.84	4.76	
2025-01-13 09:03:54.88	123.83	4.78	
2025-01-13 09:03:55.09	123.82	4.79	
2025-01-13 09:03:55.29	123.81	4.80	
2025-01-13 09:03:55.49	123.80	4.82	
2025-01-13 09:03:55.70	123.79	4.83	
2025-01-13 09:03:55.91	123.78	4.84	
2025-01-13 09:03:56.11	123.77	4.86	
2025-01-13 09:03:56.32	123.76	4.87	
2025-01-13 09:03:56.52	123.75	4.89	
2025-01-13 09:03:56.73	123.74	4.90	
2025-01-13 09:03:56.93	123.73	4.91	
2025-01-13 09:03:57.14	123.72	4.93	
2025-01-13 09:03:57.35	123.71	4.94	
2025-01-13 09:03:57.55	123.69	4.95	
2025-01-13 09:03:57.75	123.68	4.97	
2025-01-13 09:03:57.96	123.67	4.98	
2025-01-13 09:03:58.16	123.66	5.00	
2025-01-13 09:03:58.37	123.65	5.01	
2025-01-13 09:03:58.57	123.64	5.02	
2025-01-13 09:03:58.78	123.63	5.04	
2025-01-13 09:03:58.98	123.62	5.05	
2025-01-13 09:03:59.19	123.61	5.07	
2025-01-13 09:03:59.40	123.60	5.08	
2025-01-13 09:03:59.60	123.59	5.09	
2025-01-13 09:03:59.81	123.58	5.11	
2025-01-13 09:04:00.01	123.57	5.12	
2025-01-13 09:04:00.22	123.56	5.13	
2025-01-13 09:04:00.42	123.54	5.15	
2025-01-13 09:04:00.64	123.53	5.16	
2025-01-13 09:04:00.84	123.52	5.18	
2025-01-13 09:04:01.05	123.51	5.19	
2025-01-13 09:04:01.25	123.50	5.20	
2025-01-13 09:04:01.46	123.49	5.22	
2025-01-13 09:04:01.67	123.48	5.23	
2025-01-13 09:04:01.87	123.47	5.25	
2025-01-13 09:04:02.08	123.46	5.26	
2025-01-13 09:04:02.28	123.45	5.27	
2025-01-13 09:04:02.49	123.43	5.29	
2025-01-13 09:04:02.69	123.42	5.30	
2025-01-13 09:04:02.90	123.41	5.32	
2025-01-13 09:04:03.10	123.40	5.33	
2025-01-13 09:04:03.31	123.39	5.34	
2025-01-13 09:04:03.52	123.38	5.36	
2025-01-13 09:04:03.72	123.37	5.37	
2025-01-13 09:04:03.93	123.36	5.39	
2025-01-13 09:04:04.13	123.35	5.40	
2025-01-13 09:04:04.34	123.34	5.41	
2025-01-13 09:04:04.54	123.33	5.43	
2025-01-13 09:04:04.75	123.31	5.44	
2025-01-13 09:04:04.95	123.30	5.46	
2025-01-13 09:04:05.16	123.29	5.47	
2025-01-13 09:04:05.36	123.28	5.48	
2025-01-13 09:04:05.57	123.27	5.50	
2025-01-13 09:04:05.78	123.26	5.51	
2025-01-13 09:04:05.98	123.25	5.53	
2025-01-13 09:04:06.19	123.24	5.54	
2025-01-13 09:04:06.39	123.23	5.56	
2025-01-13 09:04:06.59	123.21	5.57	
2025-01-13 09:04:06.80	123.20	5.58	
2025-01-13 09:04:07.01	123.19	5.60	
2025-01-13 09:04:07.21	123.18	5.61	
2025-01-13 09:04:07.41	123.17	5.63	
2025-01-13 09:04:07.62	123.16	5.64	
2025-01-13 09:04:07.83	123.15	5.65	
2025-01-13 09:04:08.04	123.14	5.67	
2025-01-13 09:04:08.24	123.12	5.68	
2025-01-13 09:04:08.45	123.11	5.70	
2025-01-13 09:04:08.65	123.10	5.71	
2025-01-13 09:04:08.86	123.09	5.73	
2025-01-13 09:04:09.06	123.08	5.74	
2025-01-13 09:04:09.27	123.07	5.75	
2025-01-13 09:04:09.47	123.06	5.77	
2025-01-13 09:04:09.68	123.05	5.78	
2025-01-13 09:04:09.88	123.03	5.80	
2025-01-13 09:04:10.09	123.02	5.81	
2025-01-13 09:04:10.29	123.01	5.82	
2025-01-13 09:04:10.50	123.00	5.84	
2025-01-13 09:04:10.70	122.99	5.85	
2025-01-13 09:04:10.91	122.98	5.87	
2025-01-13 09:04:11.11	122.97	5.88	
2025-01-13 09:04:11.32	122.95	5.90	
2025-01-13 09:04:11.52	122.94	5.91	
2025-01-13 09:04:11.73	122.93	5.92	
2025-01-13 09:04:11.94	122.92	5.94	
2025-01-13 09:04:12.14	122.91	5.95	
2025-01-13 09:04:12.35	122.90	5.97	
2025-01-13 09:04:12.57	122.88	5.98	
2025-01-13 09:04:12.77	122.87	6.00	
2025-01-13 09:04:12.98	122.86	6.01	
2025-01-13 09:04:13.18	122.85	6.02	
2025-01-13 09:04:13.39	122.84	6.04	
2025-01-13 09:04:13.59	122.83	6.05	
2025-01-13 09:04:13.80	122.82	6.07	
2025-01-13 09:04:14.00	122.80	6.08	
2025-01-13 09:04:14.21	122.79	6.10	
2025-01-13 09:04:14.42	122.78	6.11	
2025-01-13 09:04:14.62	122.77	6.13	
2025-01-13 09:04:14.83	122.76	6.14	
2025-01-13 09:04:15.03	122.75	6.15	
2025-01-13 09:04:15.24	122.73	6.17	
2025-01-13 09:04:15.44	122.72	6.18	
2025-01-13 09:04:15.65	122.71	6.20	
2025-01-13 09:04:15.85	122.70	6.21	
2025-01-13 09:04:16.05	122.69	6.23	
2025-01-13 09:04:16.26	122.68	6.24	
2025-01-13 09:04:16.47	122.66	6.25	
2025-01-13 09:04:16.67	122.65	6.27	
2025-01-13 09:04:16.88	122.64	6.28	
2025-01-13 09:04:17.08	122.63	6.30	
2025-01-13 09:04:17.29	122.62	6.31	
2025-01-13 09:04:17.50	122.60	6.33	
2025-01-13 09:04:17.70	122.59	6.34	
2025-01-13 09:04:17.91	122.58	6.36	
2025-01-13 09:04:18.11	122.57	6.37	
2025-01-13 09:04:18.32	122.56	6.38	
2025-01-13 09:04:18.52	122.55	6.40	
2025-01-13 09:04:18.73	122.53	6.41	
2025-01-13 09:04:18.95	122.52	6.43	
2025-01-13 09:04:19.15	122.51	6.44	
2025-01-13 09:04:19.36	122.50	6.46	
2025-01-13 09:04:19.57	122.49	6.47	
2025-01-13 09:04:19.77	122.47	6.49	
2025-01-13 09:04:19.98	122.46	6.50	
2025-01-13 09:04:20.18	122.45	6.52	
2025-01-13 09:04:20.39	122.44	6.53	
2025-01-13 09:04:20.59	122.43	6.55	
2025-01-13 09:04:20.80	122.41	6.56	
2025-01-13 09:04:21.00	122.40	6.57	
2025-01-13 09:04:21.21	122.39	6.59	
2025-01-13 09:04:21.41	122.38	6.60	
2025-01-13 09:04:21.62	122.37	6.62	
2025-01-13 09:04:21.82	122.35	6.63	
2025-01-13 09:04:22.03	122.34	6.65	
2025-01-13 09:04:22.23	122.33	6.66	
2025-01-13 09:04:22.44	122.32	6.68	
2025-01-13 09:04:22.65	122.31	6.69	
2025-01-13 09:04:22.85	122.29	6.71	
2025-01-13 09:04:23.05	122.28	6.72	
2025-01-13 09:04:23.26	122.27	6.74	
2025-01-13 09:04:23.46	122.26	6.75	
2025-01-13 09:04:23.67	122.25	6.76	
2025-01-13 09:04:23.88	122.23	6.78	
2025-01-13 09:04:24.08	122.22	6.79	
2025-01-13 09:04:24.28	122.21	6.81	
2025-01-13 09:04:24.49	122.20	6.82	
2025-01-13 09:04:24.70	122.18	6.84	
2025-01-13 09:04:24.90	122.17	6.85	
2025-01-13 09:04:25.11	122.16	6.87	
2025-01-13 09:04:25.33	122.15	6.88	
2025-01-13 09:04:25.53	122.13	6.90	
2025-01-13 09:04:25.73	122.12	6.91	
2025-01-13 09:04:25.94	122.11	6.93	
2025-01-13 09:04:26.14	122.10	6.94	
2025-01-13 09:04:26.35	122.09	6.96	
2025-01-13 09:04:26.55	122.07	6.97	
2025-01-13 09:04:26.76	122.06	6.99	
2025-01-13 09:04:26.96	122.05	7.00	
2025-01-13 09:04:27.17	122.04	7.02	
2025-01-13 09:04:27.37	122.02	7.03	
2025-01-13 09:04:27.58	122.01	7.04	
2025-01-13 09:04:27.78	122.00	7.06	
2025-01-13 09:04:27.99	121.99	7.07	
2025-01-13 09:04:28.20	121.97	7.09	
2025-01-13 09:04:28.40	121.96	7.10	
2025-01-13 09:04:28.61	121.95	7.12	
2025-01-13 09:04:28.81	121.94	7.13	
2025-01-13 09:04:29.02	121.92	7.15	
2025-01-13 09:04:29.23	121.91	7.16	
2025-01-13 09:04:29.44	121.90	7.18	
2025-01-13 09:04:29.64	121.89	7.19	
2025-01-13 09:04:29.85	121.87	7.21	
2025-01-13 09:04:30.05	121.86	7.22	
2025-01-13 09:04:30.26	121.85	7.24	
2025-01-13 09:04:30.46	121.84	7.25	
2025-01-13 09:04:30.67	121.82	7.27	
2025-01-13 09:04:30.87	121.81	7.28	
2025-01-13 09:04:31.08	121.80	7.30	
2025-01-13 09:04:31.28	121.79	7.31	
2025-01-13 09:04:31.49	121.77	7.33	
2025-01-13 09:04:31.69	121.76	7.34	
2025-01-13 09:04:31.90	121.75	7.36	
2025-01-13 09:04:32.10	121.73	7.37	
2025-01-13 09:04:32.31	121.72	7.39	
2025-01-13 09:04:32.52	121.71	7.40	
2025-01-13 09:04:32.73	121.70	7.42	
2025-01-13 09:04:32.94	121.68	7.43	
2025-01-13 09:04:33.14	121.67	7.45	
2025-01-13 09:04:33.35	121.66	7.46	
2025-01-13 09:04:33.55	121.64	7.48	
2025-01-13 09:04:33.76	121.63	7.49	
2025-01-13 09:04:33.96	121.62	7.51	
2025-01-13 09:04:34.17	121.61	7.52	
2025-01-13 09:04:34.38	121.59	7.54	
2025-01-13 09:04:34.58	121.58	7.55	
2025-01-13 09:04:34.78	121.57	7.57	
2025-01-13 09:04:34.99	121.55	7.58	
2025-01-13 09:04:35.19	121.54	7.60	
2025-01-13 09:04:35.40	121.53	7.61	
2025-01-13 09:04:35.60	121.52	7.63	
2025-01-13 09:04:35.81	121.50	7.64	
2025-01-13 09:04:36.01	121.49	7.66	
2025-01-13 09:04:36.22	121.48	7.67	
2025-01-13 09:04:36.43	121.46	7.69	
2025-01-13 09:04:36.63	121.45	7.70	
2025-01-13 09:04:36.84	121.44	7.72	
2025-01-13 09:04:37.04	121.43	7.73	
2025-01-13 09:04:37.25	121.41	7.75	
2025-01-13 09:04:37.45	121.40	7.76	
2025-01-13 09:04:37.66	121.39	7.78	
2025-01-13 09:04:37.86	121.37	7.79	
2025-01-13 09:04:38.06	121.36	7.81	
2025-01-13 09:04:38.27	121.35	7.82	
2025-01-13 09:04:38.48	121.33	7.84	
2025-01-13 09:04:38.68	121.32	7.86	
2025-01-13 09:04:38.89	121.31	7.87	
2025-01-13 09:04:39.09	121.29	7.89	
2025-01-13 09:04:39.29	121.28	7.90	
2025-01-13 09:04:39.50	121.27	7.92	
2025-01-13 09:04:39.71	121.25	7.93	
2025-01-13 09:04:39.91	121.24	7.95	
2025-01-13 09:04:40.12	121.23	7.96	
2025-01-13 09:04:40.32	121.22	7.98	
2025-01-13 09:04:40.53	121.20	7.99	
2025-01-13 09:04:40.73	121.19	8.01	
2025-01-13 09:04:40.94	121.18	8.02	
2025-01-13 09:04:41.14	121.16	8.04	
2025-01-13 09:04:41.36	121.15	8.05	
2025-01-13 09:04:41.57	121.13	8.07	
2025-01-13 09:04:41.77	121.12	8.08	
2025-01-13 09:04:41.98	121.11	8.10	
2025-01-13 09:04:42.18	121.09	8.12	
2025-01-13 09:04:42.39	121.08	8.13	
2025-01-13 09:04:42.59	121.07	8.15	
2025-01-13 09:04:42.79	121.05	8.16	
2025-01-13 09:04:43.00	121.04	8.18	
2025-01-13 09:04:43.21	121.03	8.19	
2025-01-13 09:04:43.41	121.01	8.21	
2025-01-13 09:04:43.61	121.00	8.22	
2025-01-13 09:04:43.82	120.99	8.24	
2025-01-13 09:04:44.03	120.97	8.25	
2025-01-13 09:04:44.23	120.96	8.27	
2025-01-13 09:04:44.44	120.95	8.28	
2025-01-13 09:04:44.64	120.93	8.30	
2025-01-13 09:04:44.85	120.92	8.32	
2025-01-13 09:04:45.05	120.91	8.33	
2025-01-13 09:04:45.26	120.89	8.35	
2025-01-13 09:04:45.46	120.88	8.36	
2025-01-13 09:04:45.67	120.86	8.38	
2025-01-13 09:04:45.87	120.85	8.39	
2025-01-13 09:04:46.08	120.84	8.41	
2025-01-13 09:04:46.28	120.82	8.42	
2025-01-13 09:04:46.49	120.81	8.44	
2025-01-13 09:04:46.69	120.80	8.45	
2025-01-13 09:04:46.90	120.78	8.47	
2025-01-13 09:04:47.10	120.77	8.48	
2025-01-13 09:04:47.31	120.76	8.50	
2025-01-13 09:04:47.52	120.74	8.52	
2025-01-13 09:04:47.72	120.73	8.53	
2025-01-13 09:04:47.92	120.71	8.55	
2025-01-13 09:04:48.13	120.70	8.56	
2025-01-13 09:04:48.34	120.69	8.58	
2025-01-13 09:04:48.54	120.67	8.59	
2025-01-13 09:04:48.75	120.66	8.61	
2025-01-13 09:04:48.95	120.65	8.63	
2025-01-13 09:04:49.16	120.63	8.64	
2025-01-13 09:04:49.36	120.62	8.66	
2025-01-13 09:04:49.57	120.60	8.67	
2025-01-13 09:04:49.77	120.59	8.69	
2025-01-13 09:04:49.98	120.58	8.70	
2025-01-13 09:04:50.19	120.56	8.72	
2025-01-13 09:04:50.39	120.55	8.73	
2025-01-13 09:04:50.60	120.53	8.75	
2025-01-13 09:04:50.80	120.52	8.77	
2025-01-13 09:04:51.01	120.50	8.78	
2025-01-13 09:04:51.22	120.49	8.80	
2025-01-13 09:04:51.42	120.48	8.81	
2025-01-13 09:04:51.63	120.46	8.83	
2025-01-13 09:04:51.83	120.45	8.84	
2025-01-13 09:04:52.04	120.43	8.86	
2025-01-13 09:04:52.24	120.42	8.88	
2025-01-13 09:04:52.45	120.41	8.89	
2025-01-13 09:04:52.65	120.39	8.91	
2025-01-13 09:04:52.86	120.38	8.92	
2025-01-13 09:04:53.08	120.36	8.94	
2025-01-13 09:04:53.28	120.35	8.96	
2025-01-13 09:04:53.49	120.33	8.97	
2025-01-13 09:04:53.70	120.32	8.99	
2025-01-13 09:04:53.90	120.31	9.00	
2025-01-13 09:04:54.11	120.29	9.02	
2025-01-13 09:04:54.31	120.28	9.03	
2025-01-13 09:04:54.52	120.26	9.05	
2025-01-13 09:04:54.72	120.25	9.07	
2025-01-13 09:04:54.93	120.23	9.08	
2025-01-13 09:04:55.15	120.22	9.10	
2025-01-13 09:04:55.35	120.20	9.11	
2025-01-13 09:04:55.56	120.19	9.13	
2025-01-13 09:04:55.77	120.18	9.15	
2025-01-13 09:04:55.97	120.16	9.16	
2025-01-13 09:04:56.17	120.15	9.18	
2025-01-13 09:04:56.38	120.13	9.19	
2025-01-13 09:04:56.59	120.12	9.21	
2025-01-13 09:04:56.79	120.10	9.23	
2025-01-13 09:04:57.00	120.09	9.24	
2025-01-13 09:04:57.20	120.07	9.26	
2025-01-13 09:04:57.41	120.06	9.27	
2025-01-13 09:04:57.61	120.05	9.29	
2025-01-13 09:04:57.82	120.03	9.31	
2025-01-13 09:04:58.03	120.02	9.32	
2025-01-13 09:04:58.23	120.00	9.34	
2025-01-13 09:04:58.43	119.99	9.35	
2025-01-13 09:04:58.64	119.97	9.37	
2025-01-13 09:04:58.85	119.96	9.39	
2025-01-13 09:04:59.05	119.94	9.40	
2025-01-13 09:04:59.26	119.93	9.42	
2025-01-13 09:04:59.46	119.91	9.43	
2025-01-13 09:04:59.67	119.90	9.45	
2025-01-13 09:04:59.88	119.88	9.47	
2025-01-13 09:05:00.08	119.87	9.48	
2025-01-13 09:05:00.28	119.85	9.50	
2025-01-13 09:05:00.49	119.84	9.51	
2025-01-13 09:05:00.69	119.83	9.53	
2025-01-13 09:05:00.90	119.81	9.55	
2025-01-13 09:05:01.10	119.80	9.56	
2025-01-13 09:05:01.31	119.78	9.58	
2025-01-13 09:05:01.51	119.77	9.59	
2025-01-13 09:05:01.72	119.75	9.61	
2025-01-13 09:05:01.92	119.74	9.63	
2025-01-13 09:05:02.13	119.72	9.64	
2025-01-13 09:05:02.34	119.71	9.66	
2025-01-13 09:05:02.54	119.69	9.67	
2025-01-13 09:05:02.74	119.68	9.69	
2025-01-13 09:05:02.95	119.66	9.71	
2025-01-13 09:05:03.16	119.65	9.72	
2025-01-13 09:05:03.36	119.63	9.74	
2025-01-13 09:05:03.57	119.62	9.76	
2025-01-13 09:05:03.79	119.60	9.77	
2025-01-13 09:05:03.99	119.58	9.79	
2025-01-13 09:05:04.20	119.57	9.81	
2025-01-13 09:05:04.41	119.55	9.82	
2025-01-13 09:05:04.61	119.54	9.84	
2025-01-13 09:05:04.82	119.52	9.85	
2025-01-13 09:05:05.02	119.51	9.87	
2025-01-13 09:05:05.23	119.49	9.89	
2025-01-13 09:05:05.43	119.48	9.90	
2025-01-13 09:05:05.64	119.46	9.92	
2025-01-13 09:05:05.84	119.45	9.94	
2025-01-13 09:05:06.05	119.43	9.95	
2025-01-13 09:05:06.25	119.42	9.97	
2025-01-13 09:05:06.46	119.40	9.98	
2025-01-13 09:05:06.66	119.39	10.00	
2025-01-13 09:05:06.87	119.37	10.02	
2025-01-13 09:05:07.08	119.36	10.03	
2025-01-13 09:05:07.28	119.34	10.05	
2025-01-13 09:05:07.49	119.33	10.07	
2025-01-13 09:05:07.69	119.31	10.08	
2025-01-13 09:05:07.90	119.29	10.10	
2025-01-13 09:05:08.10	119.28	10.12	
2025-01-13 09:05:08.30	119.26	10.13	
2025-01-13 09:05:08.51	119.25	10.15	
2025-01-13 09:05:08.71	119.23	10.16	
2025-01-13 09:05:08.91	119.22	10.18	
2025-01-13 09:05:09.13	119.20	10.20	
2025-01-13 09:05:09.33	119.19	10.21	
2025-01-13 09:05:09.54	119.17	10.23	
2025-01-13 09:05:09.74	119.16	10.25	
2025-01-13 09:05:09.95	119.14	10.26	
2025-01-13 09:05:10.15	119.12	10.28	
2025-01-13 09:05:10.36	119.11	10.30	
2025-01-13 09:05:10.56	119.09	10.31	
2025-01-13 09:05:10.77	119.08	10.33	
2025-01-13 09:05:10.98	119.06	10.35	
2025-01-13 09:05:11.18	119.05	10.36	
2025-01-13 09:05:11.38	119.03	10.38	
2025-01-13 09:05:11.59	119.01	10.39	
2025-01-13 09:05:11.80	119.00	10.41	
2025-01-13 09:05:12.00	118.98	10.43	
2025-01-13 09:05:12.21	118.97	10.44	
2025-01-13 09:05:12.41	118.95	10.46	
2025-01-13 09:05:12.62	118.94	10.48	
2025-01-13 09:05:12.82	118.92	10.49	
2025-01-13 09:05:13.03	118.90	10.51	
2025-01-13 09:05:13.23	118.89	10.53	
2025-01-13 09:05:13.43	118.87	10.54	
2025-01-13 09:05:13.64	118.86	10.56	
2025-01-13 09:05:13.84	118.84	10.58	
2025-01-13 09:05:14.05	118.82	10.59	
2025-01-13 09:05:14.25	118.81	10.61	
2025-01-13 09:05:14.46	118.79	10.63	
2025-01-13 09:05:14.66	118.78	10.64	
2025-01-13 09:05:14.87	118.76	10.66	
2025-01-13 09:05:15.08	118.74	10.68	
2025-01-13 09:05:15.28	118.73	10.69	
2025-01-13 09:05:15.48	118.71	10.71	
2025-01-13 09:05:15.69	118.70	10.73	
2025-01-13 09:05:15.89	118.68	10.74	
2025-01-13 09:05:16.10	118.66	10.76	
2025-01-13 09:05:16.30	118.65	10.78	
2025-01-13 09:05:16.51	118.63	10.79	
2025-01-13 09:05:16.71	118.62	10.81	
2025-01-13 09:05:16.92	118.60	10.83	
2025-01-13 09:05:17.13	118.58	10.84	
2025-01-13 09:05:17.33	118.57	10.86	
2025-01-13 09:05:17.55	118.55	10.88	
2025-01-13 09:05:17.76	118.53	10.90	
2025-01-13 09:05:17.96	118.52	10.91	
2025-01-13 09:05:18.17	118.50	10.93	
2025-01-13 09:05:18.37	118.48	10.95	
2025-01-13 09:05:18.57	118.47	10.96	
2025-01-13 09:05:18.78	118.45	10.98	
2025-01-13 09:05:18.98	118.44	11.00	
2025-01-13 09:05:19.19	118.42	11.01	
2025-01-13 09:05:19.40	118.40	11.03	
2025-01-13 09:05:19.60	118.39	11.05	
2025-01-13 09:05:19.81	118.37	11.06	
2025-01-13 09:05:20.01	118.35	11.08	
2025-01-13 09:05:20.22	118.34	11.10	
2025-01-13 09:05:20.42	118.32	11.11	
2025-01-13 09:05:20.62	118.30	11.13	
2025-01-13 09:05:20.83	118.29	11.15	
2025-01-13 09:05:21.04	118.27	11.16	
2025-01-13 09:05:21.24	118.25	11.18	
2025-01-13 09:05:21.44	118.24	11.20	
2025-01-13 09:05:21.65	118.22	11.22	
2025-01-13 09:05:21.85	118.20	11.23	
2025-01-13 09:05:22.06	118.19	11.25	
2025-01-13 09:05:22.27	118.17	11.27	
2025-01-13 09:05:22.47	118.15	11.28	
2025-01-13 09:05:22.68	118.14	11.30	
2025-01-13 09:05:22.88	118.12	11.32	
2025-01-13 09:05:23.09	118.10	11.33	
2025-01-13 09:05:23.29	118.09	11.35	
2025-01-13 09:05:23.50	118.07	11.37	
2025-01-13 09:05:23.70	118.05	11.38	
2025-01-13 09:05:23.91	118.04	11.40	
2025-01-13 09:05:24.11	118.02	11.42	
2025-01-13 09:05:24.32	118.00	11.44	
2025-01-13 09:05:24.53	117.98	11.45	
2025-01-13 09:05:24.73	117.97	11.47	
2025-01-13 09:05:24.94	117.95	11.49	
2025-01-13 09:05:25.14	117.93	11.50	
2025-01-13 09:05:25.35	117.92	11.52	
2025-01-13 09:05:25.55	117.90	11.54	
2025-01-13 09:05:25.76	117.88	11.56	
2025-01-13 09:05:25.96	117.87	11.57	
2025-01-13 09:05:26.17	117.85	11.59	
2025-01-13 09:05:26.37	117.83	11.61	
2025-01-13 09:05:26.58	117.81	11.63	
2025-01-13 09:05:26.78	117.80	11.64	
2025-01-13 09:05:26.99	117.78	11.66	
2025-01-13 09:05:27.19	117.76	11.68	
2025-01-13 09:05:27.40	117.75	11.69	
2025-01-13 09:05:27.61	117.73	11.71	
2025-01-13 09:05:27.81	117.71	11.73	
2025-01-13 09:05:28.01	117.69	11.75	
2025-01-13 09:05:28.23	117.68	11.76	
2025-01-13 09:05:28.44	117.66	11.78	
2025-01-13 09:05:28.64	117.64	11.80	
2025-01-13 09:05:28.85	117.62	11.82	
2025-01-13 09:05:29.06	117.61	11.83	
2025-01-13 09:05:29.26	117.59	11.85	
2025-01-13 09:05:29.47	117.57	11.87	
2025-01-13 09:05:29.67	117.55	11.89	
2025-01-13 09:05:29.88	117.54	11.90	
2025-01-13 09:05:30.08	117.52	11.92	
2025-01-13 09:05:30.29	117.50	11.94	
2025-01-13 09:05:30.49	117.48	11.95	
2025-01-13 09:05:30.70	117.47	11.97	
2025-01-13 09:05:30.90	117.45	11.99	
2025-01-13 09:05:31.11	117.43	12.01	
2025-01-13 09:05:31.31	117.41	12.02	
2025-01-13 09:05:31.52	117.39	12.04	
2025-01-13 09:05:31.72	117.38	12.06	
2025-01-13 09:05:31.93	117.36	12.08	
2025-01-13 09:05:32.13	117.34	12.09	
2025-01-13 09:05:32.34	117.32	12.11	
2025-01-13 09:05:32.54	117.31	12.13	
2025-01-13 09:05:32.75	117.29	12.15	
2025-01-13 09:05:32.95	117.27	12.16	
2025-01-13 09:05:33.16	117.25	12.18	
2025-01-13 09:05:33.37	117.23	12.20	
2025-01-13 09:05:33.57	117.22	12.22	
2025-01-13 09:05:33.78	117.20	12.23	
2025-01-13 09:05:33.98	117.18	12.25	
2025-01-13 09:05:34.19	117.16	12.27	
2025-01-13 09:05:34.39	117.15	12.29	
2025-01-13 09:05:34.60	117.13	12.30	
2025-01-13 09:05:34.80	117.11	12.32	
2025-01-13 09:05:35.01	117.09	12.34	
2025-01-13 09:05:35.21	117.07	12.36	
2025-01-13 09:05:35.42	117.06	12.37	
2025-01-13 09:05:35.62	117.04	12.39	
2025-01-13 09:05:35.83	117.02	12.41	
2025-01-13 09:05:36.03	117.00	12.43	
2025-01-13 09:05:36.24	116.98	12.45	
2025-01-13 09:05:36.45	116.96	12.46	
2025-01-13 09:05:36.66	116.95	12.48	
2025-01-13 09:05:36.87	116.93	12.50	
2025-01-13 09:05:37.08	116.91	12.52	
2025-01-13 09:05:37.28	116.89	12.53	
2025-01-13 09:05:37.49	116.87	12.55	
2025-01-13 09:05:37.69	116.85	12.57	
2025-01-13 09:05:37.90	116.84	12.59	
2025-01-13 09:05:38.11	116.82	12.61	
2025-01-13 09:05:38.31	116.80	12.62	
2025-01-13 09:05:38.52	116.78	12.64	
2025-01-13 09:05:38.72	116.76	12.66	
2025-01-13 09:05:38.93	116.74	12.68	
2025-01-13 09:05:39.13	116.72	12.69	
2025-01-13 09:05:39.34	116.71	12.71	
2025-01-13 09:05:39.55	116.69	12.73	
2025-01-13 09:05:39.75	116.67	12.75	
2025-01-13 09:05:39.97	116.65	12.77	
2025-01-13 09:05:40.17	116.63	12.78	
2025-01-13 09:05:40.38	116.61	12.80	
2025-01-13 09:05:40.58	116.59	12.82	
2025-01-13 09:05:40.79	116.57	12.84	
2025-01-13 09:05:40.99	116.56	12.86	
2025-01-13 09:05:41.20	116.54	12.87	
2025-01-13 09:05:41.40	116.52	12.89	
2025-01-13 09:05:41.61	116.50	12.91	
2025-01-13 09:05:41.81	116.48	12.93	
2025-01-13 09:05:42.02	116.46	12.95	
2025-01-13 09:05:42.22	116.44	12.96	
2025-01-13 09:05:42.43	116.42	12.98	
2025-01-13 09:05:42.64	116.41	13.00	
2025-01-13 09:05:42.84	116.39	13.02	
2025-01-13 09:05:43.06	116.37	13.04	
2025-01-13 09:05:43.26	116.35	13.05	
2025-01-13 09:05:43.47	116.33	13.07	
2025-01-13 09:05:43.67	116.31	13.09	
2025-01-13 09:05:43.88	116.29	13.11	
2025-01-13 09:05:44.09	116.27	13.13	
2025-01-13 09:05:44.29	116.25	13.14	
2025-01-13 09:05:44.50	116.23	13.16	
2025-01-13 09:05:44.70	116.21	13.18	
2025-01-13 09:05:44.91	116.19	13.20	
2025-01-13 09:05:45.11	116.18	13.22	
2025-01-13 09:05:45.32	116.16	13.24	
2025-01-13 09:05:45.52	116.14	13.25	
2025-01-13 09:05:45.73	116.12	13.27	
2025-01-13 09:05:45.94	116.10	13.29	
2025-01-13 09:05:46.14	116.08	13.31	
2025-01-13 09:05:46.34	116.06	13.33	
2025-01-13 09:05:46.55	116.04	13.34	
2025-01-13 09:05:46.76	116.02	13.36	
2025-01-13 09:05:46.96	116.00	13.38	
2025-01-13 09:05:47.17	115.98	13.40	
2025-01-13 09:05:47.37	115.96	13.42	
2025-01-13 09:05:47.58	115.94	13.44	
2025-01-13 09:05:47.78	115.92	13.45	
2025-01-13 09:05:47.99	115.90	13.47	
2025-01-13 09:05:48.19	115.89	13.49	
2025-01-13 09:05:48.40	115.87	13.51	
2025-01-13 09:05:48.60	115.85	13.53	
2025-01-13 09:05:48.81	115.83	13.54	
2025-01-13 09:05:49.01	115.81	13.56	
2025-01-13 09:05:49.22	115.79	13.58	
2025-01-13 09:05:49.42	115.77	13.60	
2025-01-13 09:05:49.63	115.75	13.62	
2025-01-13 09:05:49.83	115.73	13.64	
2025-01-13 09:05:50.04	115.71	13.65	
2025-01-13 09:05:50.24	115.69	13.67	
2025-01-13 09:05:50.45	115.67	13.69	
2025-01-13 09:05:50.65	115.65	13.71	
2025-01-13 09:05:50.86	115.63	13.73	
2025-01-13 09:05:51.06	115.61	13.75	
2025-01-13 09:05:51.27	115.59	13.76	
2025-01-13 09:05:51.48	115.57	13.78	
2025-01-13 09:05:51.68	115.55	13.80	
2025-01-13 09:05:51.88	115.53	13.82	
2025-01-13 09:05:52.09	115.51	13.84	
2025-01-13 09:05:52.30	115.49	13.86	
2025-01-13 09:05:52.50	115.47	13.87	
2025-01-13 09:05:52.70	115.45	13.89	
2025-01-13 09:05:52.91	115.43	13.91	
2025-01-13 09:05:53.12	115.41	13.93	
2025-01-13 09:05:53.32	115.39	13.95	
2025-01-13 09:05:53.53	115.37	13.97	
2025-01-13 09:05:53.73	115.35	13.99	
2025-01-13 09:05:53.93	115.33	14.00	
2025-01-13 09:05:54.14	115.31	14.02	
2025-01-13 09:05:54.34	115.29	14.04	
2025-01-13 09:05:54.55	115.27	14.06	
2025-01-13 09:05:54.76	115.25	14.08	
2025-01-13 09:05:54.96	115.23	14.10	
2025-01-13 09:05:55.16	115.21	14.11	
2025-01-13 09:05:55.37	115.19	14.13	
2025-01-13 09:05:55.58	115.17	14.15	
2025-01-13 09:05:55.78	115.15	14.17	
2025-01-13 09:05:55.99	115.12	14.19	
2025-01-13 09:05:56.19	115.10	14.21	
2025-01-13 09:05:56.40	115.08	14.23	
2025-01-13 09:05:56.60	115.06	14.25	
2025-01-13 09:05:56.81	115.04	14.26	
2025-01-13 09:05:57.01	115.02	14.28	
2025-01-13 09:05:57.22	115.00	14.30	
2025-01-13 09:05:57.42	114.98	14.32	
2025-01-13 09:05:57.63	114.96	14.34	
2025-01-13 09:05:57.83	114.94	14.36	
2025-01-13 09:05:58.04	114.92	14.38	
2025-01-13 09:05:58.24	114.90	14.39	
2025-01-13 09:05:58.45	114.88	14.41	
2025-01-13 09:05:58.66	114.86	14.43	
2025-01-13 09:05:58.86	114.84	14.45	
2025-01-13 09:05:59.07	114.81	14.47	
2025-01-13 09:05:59.27	114.79	14.49	
2025-01-13 09:05:59.48	114.77	14.51	
2025-01-13 09:05:59.68	114.75	14.53	
2025-01-13 09:05:59.89	114.73	14.55	
2025-01-13 09:06:00.09	114.71	14.56	
2025-01-13 09:06:00.30	114.69	14.58	
2025-01-13 09:06:00.50	114.67	14.60	
2025-01-13 09:06:00.71	114.65	14.62	
2025-01-13 09:06:00.92	114.62	14.64	
2025-01-13 09:06:01.13	114.60	14.66	
2025-01-13 09:06:01.33	114.58	14.68	
2025-01-13 09:06:01.54	114.56	14.70	
2025-01-13 09:06:01.74	114.54	14.72	
2025-01-13 09:06:01.95	114.52	14.74	
2025-01-13 09:06:02.15	114.50	14.75	
2025-01-13 09:06:02.36	114.48	14.77	
2025-01-13 09:06:02.57	114.45	14.79	
2025-01-13 09:06:02.77	114.43	14.81	
2025-01-13 09:06:02.98	114.41	14.83	
2025-01-13 09:06:03.18	114.39	14.85	
2025-01-13 09:06:03.40	114.37	14.87	
2025-01-13 09:06:03.61	114.34	14.89	
2025-01-13 09:06:03.81	114.32	14.91	
2025-01-13 09:06:04.02	114.30	14.93	
2025-01-13 09:06:04.22	114.28	14.95	
2025-01-13 09:06:04.43	114.26	14.97	
2025-01-13 09:06:04.63	114.24	14.98	
2025-01-13 09:06:04.84	114.22	15.00	
2025-01-13 09:06:05.04	114.19	15.02	
2025-01-13 09:06:05.25	114.17	15.04	
2025-01-13 09:06:05.46	114.15	15.06	
2025-01-13 09:06:05.66	114.13	15.08	
2025-01-13 09:06:05.87	114.11	15.10	
2025-01-13 09:06:06.07	114.08	15.12	
2025-01-13 09:06:06.28	114.06	15.14	
2025-01-13 09:06:06.49	114.04	15.16	
2025-01-13 09:06:06.70	114.02	15.18	
2025-01-13 09:06:06.91	113.99	15.20	
2025-01-13 09:06:07.11	113.97	15.22	
2025-01-13 09:06:07.33	113.95	15.24	
2025-01-13 09:06:07.53	113.93	15.25	
2025-01-13 09:06:07.74	113.91	15.27	
2025-01-13 09:06:07.94	113.88	15.29	
2025-01-13 09:06:08.15	113.86	15.31	
2025-01-13 09:06:08.35	113.84	15.33	
2025-01-13 09:06:08.56	113.82	15.35	
2025-01-13 09:06:08.76	113.80	15.37	
2025-01-13 09:06:08.97	113.77	15.39	
2025-01-13 09:06:09.17	113.75	15.41	
2025-01-13 09:06:09.38	113.73	15.43	
2025-01-13 09:06:09.58	113.71	15.45	
2025-01-13 09:06:09.78	113.68	15.47	
2025-01-13 09:06:09.99	113.66	15.49	
2025-01-13 09:06:10.20	113.64	15.51	
2025-01-13 09:06:10.40	113.62	15.52	
2025-01-13 09:06:10.61	113.59	15.54	
2025-01-13 09:06:10.81	113.57	15.56	
2025-01-13 09:06:11.02	113.55	15.58	
2025-01-13 09:06:11.22	113.53	15.60	
2025-01-13 09:06:11.43	113.50	15.62	
2025-01-13 09:06:11.63	113.48	15.64	
2025-01-13 09:06:11.84	113.46	15.66	
2025-01-13 09:06:12.04	113.44	15.68	
2025-01-13 09:06:12.25	113.41	15.70	
2025-01-13 09:06:12.46	113.39	15.72	
2025-01-13 09:06:12.66	113.37	15.74	
2025-01-13 09:06:12.87	113.34	15.76	
2025-01-13 09:06:13.07	113.32	15.78	
2025-01-13 09:06:13.28	113.30	15.80	
2025-01-13 09:06:13.48	113.28	15.82	
2025-01-13 09:06:13.69	113.25	15.84	
2025-01-13 09:06:13.90	113.23	15.86	
2025-01-13 09:06:14.10	113.21	15.88	
2025-01-13 09:06:14.30	113.18	15.89	
2025-01-13 09:06:14.51	113.16	15.91	
2025-01-13 09:06:14.72	113.14	15.93	
2025-01-13 09:06:14.92	113.11	15.95	
2025-01-13 09:06:15.13	113.09	15.97	
2025-01-13 09:06:15.33	113.07	15.99	
2025-01-13 09:06:15.54	113.04	16.01	
2025-01-13 09:06:15.74	113.02	16.03	
2025-01-13 09:06:15.95	113.00	16.05	
2025-01-13 09:06:16.15	112.98	16.07	
2025-01-13 09:06:16.36	112.95	16.09	
2025-01-13 09:06:16.56	112.93	16.11	
2025-01-13 09:06:16.77	112.90	16.13	
2025-01-13 09:06:16.98	112.88	16.15	
2025-01-13 09:06:17.18	112.86	16.17	
2025-01-13 09:06:17.39	112.83	16.19	
2025-01-13 09:06:17.59	112.81	16.21	
2025-01-13 09:06:17.80	112.79	16.23	
2025-01-13 09:06:18.01	112.76	16.25	
2025-01-13 09:06:18.21	112.74	16.27	
2025-01-13 09:06:18.41	112.72	16.29	
2025-01-13 09:06:18.62	112.69	16.31	
2025-01-13 09:06:18.82	112.67	16.33	
2025-01-13 09:06:19.03	112.64	16.35	
2025-01-13 09:06:19.24	112.62	16.37	
2025-01-13 09:06:19.44	112.60	16.39	
2025-01-13 09:06:19.64	112.57	16.41	
2025-01-13 09:06:19.85	112.55	16.43	
2025-01-13 09:06:20.06	112.52	16.45	
2025-01-13 09:06:20.26	112.50	16.47	
2025-01-13 09:06:20.47	112.48	16.49	
2025-01-13 09:06:20.67	112.45	16.51	
2025-01-13 09:06:20.88	112.43	16.53	
2025-01-13 09:06:21.08	112.41	16.55	
2025-01-13 09:06:21.29	112.38	16.57	
2025-01-13 09:06:21.49	112.36	16.59	
2025-01-13 09:06:21.70	112.33	16.61	
2025-01-13 09:06:21.90	112.31	16.63	
2025-01-13 09:06:22.11	112.28	16.65	
2025-01-13 09:06:22.31	112.26	16.67	
2025-01-13 09:06:22.52	112.24	16.69	
2025-01-13 09:06:22.72	112.21	16.71	
2025-01-13 09:06:22.93	112.19	16.73	
2025-01-13 09:06:23.13	112.16	16.75	
2025-01-13 09:06:23.34	112.14	16.77	
2025-01-13 09:06:23.54	112.11	16.79	
2025-01-13 09:06:23.75	112.09	16.81	
2025-01-13 09:06:23.95	112.07	16.83	
2025-01-13 09:06:24.16	112.04	16.85	
2025-01-13 09:06:24.36	112.02	16.87	
2025-01-13 09:06:24.57	111.99	16.89	
2025-01-13 09:06:24.77	111.97	16.91	
2025-01-13 09:06:24.98	111.94	16.93	
2025-01-13 09:06:25.18	111.92	16.95	
2025-01-13 09:06:25.39	111.89	16.97	
2025-01-13 09:06:25.59	111.87	16.99	
2025-01-13 09:06:25.80	111.84	17.01	
2025-01-13 09:06:26.00	111.82	17.03	
2025-01-13 09:06:26.21	111.79	17.05	
2025-01-13 09:06:26.41	111.77	17.07	
2025-01-13 09:06:26.62	111.74	17.09	
2025-01-13 09:06:26.82	111.72	17.11	
2025-01-13 09:06:27.02	111.69	17.13	
2025-01-13 09:06:27.23	111.67	17.15	
2025-01-13 09:06:27.43	111.64	17.17	
2025-01-13 09:06:27.64	111.62	17.19	
2025-01-13 09:06:27.85	111.59	17.21	
2025-01-13 09:06:28.05	111.57	17.23	
2025-01-13 09:06:28.25	111.54	17.25	
2025-01-13 09:06:28.46	111.52	17.27	
2025-01-13 09:06:28.66	111.49	17.29	
2025-01-13 09:06:28.87	111.47	17.31	
2025-01-13 09:06:29.07	111.44	17.33	
2025-01-13 09:06:29.28	111.42	17.35	
2025-01-13 09:06:29.49	111.39	17.37	
2025-01-13 09:06:29.69	111.37	17.39	
2025-01-13 09:06:29.90	111.34	17.42	
2025-01-13 09:06:30.10	111.31	17.44	
2025-01-13 09:06:30.31	111.29	17.46	
2025-01-13 09:06:30.51	111.26	17.48	
2025-01-13 09:06:30.72	111.24	17.50	
2025-01-13 09:06:30.92	111.21	17.52	
2025-01-13 09:06:31.14	111.18	17.54	
2025-01-13 09:06:31.34	111.16	17.56	
2025-01-13 09:06:31.55	111.13	17.58	
2025-01-13 09:06:31.75	111.11	17.60	
2025-01-13 09:06:31.96	111.08	17.62	
2025-01-13 09:06:32.16	111.06	17.64	
2025-01-13 09:06:32.36	111.03	17.66	
2025-01-13 09:06:32.57	111.00	17.68	
2025-01-13 09:06:32.78	110.98	17.70	
2025-01-13 09:06:32.98	110.95	17.72	
2025-01-13 09:06:33.19	110.92	17.74	
2025-01-13 09:06:33.39	110.90	17.76	
2025-01-13 09:06:33.60	110.87	17.79	
2025-01-13 09:06:33.80	110.85	17.81	
2025-01-13 09:06:34.01	110.82	17.83	
2025-01-13 09:06:34.21	110.79	17.85	
2025-01-13 09:06:34.41	110.77	17.87	
2025-01-13 09:06:34.62	110.74	17.89	
2025-01-13 09:06:34.82	110.72	17.91	
2025-01-13 09:06:35.03	110.69	17.93	
2025-01-13 09:06:35.24	110.66	17.95	
2025-01-13 09:06:35.44	110.64	17.97	
2025-01-13 09:06:35.65	110.61	17.99	
2025-01-13 09:06:35.85	110.58	18.01	
2025-01-13 09:06:36.06	110.56	18.03	
2025-01-13 09:06:36.26	110.53	18.05	
2025-01-13 09:06:36.47	110.50	18.08	
2025-01-13 09:06:36.67	110.48	18.10	
2025-01-13 09:06:36.88	110.45	18.12	
2025-01-13 09:06:37.09	110.42	18.14	
2025-01-13 09:06:37.29	110.40	18.16	
2025-01-13 09:06:37.50	110.37	18.18	
2025-01-13 09:06:37.71	110.34	18.20	
2025-01-13 09:06:37.92	110.31	18.22	
2025-01-13 09:06:38.12	110.29	18.24	
2025-01-13 09:06:38.33	110.26	18.26	
2025-01-13 09:06:38.53	110.23	18.28	
2025-01-13 09:06:38.74	110.20	18.31	
2025-01-13 09:06:38.94	110.18	18.33	
2025-01-13 09:06:39.15	110.15	18.35	
2025-01-13 09:06:39.35	110.12	18.37	
2025-01-13 09:06:39.56	110.10	18.39	
2025-01-13 09:06:39.76	110.07	18.41	
2025-01-13 09:06:39.97	110.04	18.43	
2025-01-13 09:06:40.17	110.01	18.45	
2025-01-13 09:06:40.38	109.99	18.47	
2025-01-13 09:06:40.58	109.96	18.49	
2025-01-13 09:06:40.79	109.93	18.52	
2025-01-13 09:06:40.99	109.90	18.54	
2025-01-13 09:06:41.20	109.88	18.56	
2025-01-13 09:06:41.40	109.85	18.58	
2025-01-13 09:06:41.61	109.82	18.60	
2025-01-13 09:06:41.81	109.79	18.62	
2025-01-13 09:06:42.02	109.77	18.64	
2025-01-13 09:06:42.22	109.74	18.66	
2025-01-13 09:06:42.43	109.71	18.68	
2025-01-13 09:06:42.64	109.68	18.71	
2025-01-13 09:06:42.84	109.65	18.73	
2025-01-13 09:06:43.06	109.63	18.75	
2025-01-13 09:06:43.26	109.60	18.77	
2025-01-13 09:06:43.47	109.57	18.79	
2025-01-13 09:06:43.67	109.54	18.81	
2025-01-13 09:06:43.88	109.51	18.83	
2025-01-13 09:06:44.09	109.48	18.85	
2025-01-13 09:06:44.29	109.46	18.88	
2025-01-13 09:06:44.50	109.43	18.90	
2025-01-13 09:06:44.70	109.40	18.92	
2025-01-13 09:06:44.91	109.37	18.94	
2025-01-13 09:06:45.11	109.34	18.96	
2025-01-13 09:06:45.32	109.31	18.98	
2025-01-13 09:06:45.52	109.29	19.00	
2025-01-13 09:06:45.73	109.26	19.02	
2025-01-13 09:06:45.93	109.23	19.05	
2025-01-13 09:06:46.14	109.20	19.07	
2025-01-13 09:06:46.34	109.17	19.09	
2025-01-13 09:06:46.55	109.14	19.11	
2025-01-13 09:06:46.75	109.12	19.13	
2025-01-13 09:06:46.96	109.09	19.15	
2025-01-13 09:06:47.16	109.06	19.17	
2025-01-13 09:06:47.36	109.03	19.19	
2025-01-13 09:06:47.57	109.00	19.22	
2025-01-13 09:06:47.78	108.97	19.24	
2025-01-13 09:06:47.98	108.94	19.26	
2025-01-13 09:06:48.19	108.91	19.28	
2025-01-13 09:06:48.39	108.89	19.30	
2025-01-13 09:06:48.60	108.86	19.32	
2025-01-13 09:06:48.81	108.83	19.35	
2025-01-13 09:06:49.01	108.80	19.37	
2025-01-13 09:06:49.22	108.77	19.39	
2025-01-13 09:06:49.42	108.74	19.41	
2025-01-13 09:06:49.63	108.71	19.43	
2025-01-13 09:06:49.83	108.68	19.45	
2025-01-13 09:06:50.04	108.65	19.47	
2025-01-13 09:06:50.25	108.62	19.50	
2025-01-13 09:06:50.45	108.59	19.52	
2025-01-13 09:06:50.65	108.56	19.54	
2025-01-13 09:06:50.86	108.53	19.56	
2025-01-13 09:06:51.06	108.51	19.58	
2025-01-13 09:06:51.27	108.47	19.60	
2025-01-13 09:06:51.47	108.45	19.62	
2025-01-13 09:06:51.68	108.42	19.65	
2025-01-13 09:06:51.89	108.39	19.67	
2025-01-13 09:06:52.09	108.36	19.69	
2025-01-13 09:06:52.30	108.33	19.71	
2025-01-13 09:06:52.50	108.30	19.73	
2025-01-13 09:06:52.71	108.27	19.75	
2025-01-13 09:06:52.91	108.24	19.78	
2025-01-13 09:06:53.12	108.21	19.80	
2025-01-13 09:06:53.32	108.18	19.82	
2025-01-13 09:06:53.53	108.15	19.84	
2025-01-13 09:06:53.73	108.12	19.86	
2025-01-13 09:06:53.94	108.09	19.88	
2025-01-13 09:06:54.14	108.06	19.91	
2025-01-13 09:06:54.35	108.03	19.93	
2025-01-13 09:06:54.55	108.00	19.95	
2025-01-13 09:06:54.76	107.97	19.97	
2025-01-13 09:06:54.96	107.94	19.99	
2025-01-13 09:06:55.17	107.90	20.01	
2025-01-13 09:06:55.38	107.87	20.04	
2025-01-13 09:06:55.58	107.84	20.06	
2025-01-13 09:06:55.79	107.81	20.08	
2025-01-13 09:06:55.99	107.78	20.10	
2025-01-13 09:06:56.20	107.75	20.12	
2025-01-13 09:06:56.40	107.72	20.15	
2025-01-13 09:06:56.61	107.69	20.17	
2025-01-13 09:06:56.81	107.66	20.19	
2025-01-13 09:06:57.02	107.63	20.21	
2025-01-13 09:06:57.22	107.60	20.23	
2025-01-13 09:06:57.43	107.57	20.25	
2025-01-13 09:06:57.63	107.54	20.28	
2025-01-13 09:06:57.84	107.51	20.30	
2025-01-13 09:06:58.04	107.48	20.32	
2025-01-13 09:06:58.25	107.44	20.34	
2025-01-13 09:06:58.46	107.41	20.36	
2025-01-13 09:06:58.66	107.38	20.39	
2025-01-13 09:06:58.87	107.35	20.41	
2025-01-13 09:06:59.07	107.32	20.43	
2025-01-13 09:06:59.28	107.29	20.45	
2025-01-13 09:06:59.49	107.26	20.48	
2025-01-13 09:06:59.69	107.22	20.50	
2025-01-13 09:06:59.90	107.19	20.52	
2025-01-13 09:07:00.10	107.16	20.54	
2025-01-13 09:07:00.31	107.13	20.56	
2025-01-13 09:07:00.51	107.10	20.58	
2025-01-13 09:07:00.72	107.07	20.61	
2025-01-13 09:07:00.92	107.04	20.63	
2025-01-13 09:07:01.13	107.00	20.65	
2025-01-13 09:07:01.33	106.97	20.67	
2025-01-13 09:07:01.54	106.94	20.70	
2025-01-13 09:07:01.74	106.91	20.72	
2025-01-13 09:07:01.95	106.88	20.74	
2025-01-13 09:07:02.15	106.85	20.76	
2025-01-13 09:07:02.36	106.81	20.78	
2025-01-13 09:07:02.57	106.78	20.81	
2025-01-13 09:07:02.77	106.75	20.83	
2025-01-13 09:07:02.98	106.72	20.85	
2025-01-13 09:07:03.18	106.68	20.87	
2025-01-13 09:07:03.39	106.65	20.89	
2025-01-13 09:07:03.59	106.62	20.92	
2025-01-13 09:07:03.80	106.59	20.94	
2025-01-13 09:07:04.00	106.56	20.96	
2025-01-13 09:07:04.21	106.52	20.98	
2025-01-13 09:07:04.41	106.49	21.01	
2025-01-13 09:07:04.62	106.46	21.03	
2025-01-13 09:07:04.82	106.43	21.05	
2025-01-13 09:07:05.03	106.39	21.07	
2025-01-13 09:07:05.23	106.36	21.09	
2025-01-13 09:07:05.44	106.33	21.12	
2025-01-13 09:07:05.64	106.30	21.14	
2025-01-13 09:07:05.85	106.26	21.16	
2025-01-13 09:07:06.06	106.23	21.18	
2025-01-13 09:07:06.26	106.20	21.21	
2025-01-13 09:07:06.46	106.16	21.23	
2025-01-13 09:07:06.67	106.13	21.25	
2025-01-13 09:07:06.87	106.10	21.27	
2025-01-13 09:07:07.08	106.06	21.29	
2025-01-13 09:07:07.28	106.03	21.32	
2025-01-13 09:07:07.48	106.00	21.34	
2025-01-13 09:07:07.69	105.97	21.36	
2025-01-13 09:07:07.89	105.93	21.38	
2025-01-13 09:07:08.10	105.90	21.41	
2025-01-13 09:07:08.30	105.87	21.43	
2025-01-13 09:07:08.51	105.83	21.45	
2025-01-13 09:07:08.71	105.80	21.47	
2025-01-13 09:07:08.92	105.77	21.50	
2025-01-13 09:07:09.12	105.73	21.52	
2025-01-13 09:07:09.33	105.70	21.54	
2025-01-13 09:07:09.54	105.66	21.56	
2025-01-13 09:07:09.74	105.63	21.59	
2025-01-13 09:07:09.94	105.60	21.61	
2025-01-13 09:07:10.15	105.56	21.63	
2025-01-13 09:07:10.35	105.53	21.65	
2025-01-13 09:07:10.56	105.50	21.68	
2025-01-13 09:07:10.77	105.46	21.70	
2025-01-13 09:07:10.97	105.43	21.72	
2025-01-13 09:07:11.18	105.39	21.74	
2025-01-13 09:07:11.38	105.36	21.77	
2025-01-13 09:07:11.59	105.33	21.79	
2025-01-13 09:07:11.81	105.29	21.81	
2025-01-13 09:07:12.01	105.26	21.83	
2025-01-13 09:07:12.22	105.22	21.86	
2025-01-13 09:07:12.42	105.19	21.88	
2025-01-13 09:07:12.63	105.15	21.90	
2025-01-13 09:07:12.83	105.12	21.92	
2025-01-13 09:07:13.04	105.08	21.95	
2025-01-13 09:07:13.24	105.05	21.97	
2025-01-13 09:07:13.45	105.01	21.99	
2025-01-13 09:07:13.66	104.98	22.02	
2025-01-13 09:07:13.86	104.95	22.04	
2025-01-13 09:07:14.06	104.91	22.06	
2025-01-13 09:07:14.27	104.88	22.08	
2025-01-13 09:07:14.48	104.84	22.11	
2025-01-13 09:07:14.68	104.81	22.13	
2025-01-13 09:07:14.89	104.77	22.15	
2025-01-13 09:07:15.10	104.73	22.18	
2025-01-13 09:07:15.30	104.70	22.20	
2025-01-13 09:07:15.51	104.66	22.22	
2025-01-13 09:07:15.71	104.63	22.24	
2025-01-13 09:07:15.92	104.59	22.27	
2025-01-13 09:07:16.13	104.56	22.29	
2025-01-13 09:07:16.34	104.52	22.31	
2025-01-13 09:07:16.54	104.49	22.33	
2025-01-13 09:07:16.75	104.45	22.36	
2025-01-13 09:07:16.95	104.42	22.38	
2025-01-13 09:07:17.17	104.38	22.40	
2025-01-13 09:07:17.38	104.34	22.43	
2025-01-13 09:07:17.58	104.31	22.45	
2025-01-13 09:07:17.79	104.27	22.47	
2025-01-13 09:07:18.00	104.23	22.50	
2025-01-13 09:07:18.20	104.20	22.52	
2025-01-13 09:07:18.41	104.16	22.54	
2025-01-13 09:07:18.61	104.13	22.56	
2025-01-13 09:07:18.82	104.09	22.59	
2025-01-13 09:07:19.03	104.05	22.61	
2025-01-13 09:07:19.23	104.02	22.63	
2025-01-13 09:07:19.43	103.98	22.66	
2025-01-13 09:07:19.64	103.95	22.68	
2025-01-13 09:07:19.85	103.91	22.70	
2025-01-13 09:07:20.05	103.87	22.73	
2025-01-13 09:07:20.26	103.84	22.75	
2025-01-13 09:07:20.46	103.80	22.77	
2025-01-13 09:07:20.67	103.76	22.79	
2025-01-13 09:07:20.87	103.73	22.82	
2025-01-13 09:07:21.08	103.69	22.84	
2025-01-13 09:07:21.29	103.65	22.86	
2025-01-13 09:07:21.49	103.62	22.89	
2025-01-13 09:07:21.69	103.58	22.91	
2025-01-13 09:07:21.90	103.55	22.93	
2025-01-13 09:07:22.11	103.51	22.96	
2025-01-13 09:07:22.31	103.47	22.98	
2025-01-13 09:07:22.51	103.44	23.00	
2025-01-13 09:07:22.72	103.40	23.02	
2025-01-13 09:07:22.92	103.36	23.05	
2025-01-13 09:07:23.13	103.32	23.07	
2025-01-13 09:07:23.33	103.29	23.09	
2025-01-13 09:07:23.55	103.25	23.12	
2025-01-13 09:07:23.76	103.21	23.14	
2025-01-13 09:07:23.97	103.17	23.16	
2025-01-13 09:07:24.17	103.13	23.19	
2025-01-13 09:07:24.37	103.10	23.21	
2025-01-13 09:07:24.58	103.06	23.23	
2025-01-13 09:07:24.79	103.02	23.26	
2025-01-13 09:07:24.99	102.98	23.28	
2025-01-13 09:07:25.20	102.95	23.30	
2025-01-13 09:07:25.40	102.91	23.33	
2025-01-13 09:07:25.61	102.87	23.35	
2025-01-13 09:07:25.81	102.83	23.37	
2025-01-13 09:07:26.02	102.80	23.40	
2025-01-13 09:07:26.22	102.76	23.42	
2025-01-13 09:07:26.43	102.72	23.44	
2025-01-13 09:07:26.63	102.68	23.46	
2025-01-13 09:07:26.84	102.64	23.49	
2025-01-13 09:07:27.04	102.61	23.51	
2025-01-13 09:07:27.25	102.57	23.53	
2025-01-13 09:07:27.46	102.53	23.56	
2025-01-13 09:07:27.66	102.49	23.58	
2025-01-13 09:07:27.88	102.45	23.60	
2025-01-13 09:07:28.08	102.41	23.63	
2025-01-13 09:07:28.29	102.37	23.65	
2025-01-13 09:07:28.49	102.33	23.67	
2025-01-13 09:07:28.70	102.30	23.70	
2025-01-13 09:07:28.90	102.26	23.72	
2025-01-13 09:07:29.11	102.22	23.74	
2025-01-13 09:07:29.32	102.18	23.77	
2025-01-13 09:07:29.52	102.14	23.79	
2025-01-13 09:07:29.73	102.10	23.81	
2025-01-13 09:07:29.95	102.06	23.84	
2025-01-13 09:07:30.16	102.02	23.86	
2025-01-13 09:07:30.36	101.98	23.89	
2025-01-13 09:07:30.57	101.94	23.91	
2025-01-13 09:07:30.77	101.90	23.93	
2025-01-13 09:07:30.98	101.86	23.96	
2025-01-13 09:07:31.19	101.82	23.98	
2025-01-13 09:07:31.39	101.78	24.00	
2025-01-13 09:07:31.60	101.74	24.03	
2025-01-13 09:07:31.80	101.70	24.05	
2025-01-13 09:07:32.00	101.67	24.07	
2025-01-13 09:07:32.21	101.63	24.10	
2025-01-13 09:07:32.42	101.59	24.12	
2025-01-13 09:07:32.62	101.55	24.14	
2025-01-13 09:07:32.83	101.51	24.17	
2025-01-13 09:07:33.03	101.47	24.19	
2025-01-13 09:07:33.24	101.43	24.21	
2025-01-13 09:07:33.44	101.39	24.24	
2025-01-13 09:07:33.65	101.35	24.26	
2025-01-13 09:07:33.85	101.31	24.28	
2025-01-13 09:07:34.06	101.27	24.31	
2025-01-13 09:07:34.26	101.23	24.33	
2025-01-13 09:07:34.47	101.19	24.35	
2025-01-13 09:07:34.67	101.15	24.38	
2025-01-13 09:07:34.88	101.10	24.40	
2025-01-13 09:07:35.08	101.07	24.42	
2025-01-13 09:07:35.30	101.02	24.45	
2025-01-13 09:07:35.51	100.98	24.47	
2025-01-13 09:07:35.71	100.94	24.49	
2025-01-13 09:07:35.92	100.90	24.52	
2025-01-13 09:07:36.13	100.86	24.54	
2025-01-13 09:07:36.35	100.81	24.57	
2025-01-13 09:07:36.55	100.77	24.59	
2025-01-13 09:07:36.76	100.73	24.61	
2025-01-13 09:07:36.96	100.69	24.64	
2025-01-13 09:07:37.17	100.65	24.66	
2025-01-13 09:07:37.37	100.61	24.68	
2025-01-13 09:07:37.58	100.57	24.71	
2025-01-13 09:07:37.78	100.53	24.73	
2025-01-13 09:07:37.99	100.48	24.75	
2025-01-13 09:07:38.19	100.44	24.78	
2025-01-13 09:07:38.39	100.40	24.80	
2025-01-13 09:07:38.60	100.36	24.82	
2025-01-13 09:07:38.81	100.32	24.85	
2025-01-13 09:07:39.01	100.28	24.87	
2025-01-13 09:07:39.22	100.24	24.90	
2025-01-13 09:07:39.42	100.20	24.92	
2025-01-13 09:07:39.63	100.15	24.94	
2025-01-13 09:07:39.84	100.11	24.97	
2025-01-13 09:07:40.04	100.07	24.99	
2025-01-13 09:07:40.25	100.03	25.01	
2025-01-13 09:07:40.45	99.98	25.04	
2025-01-13 09:07:40.67	99.94	25.06	
2025-01-13 09:07:40.88	99.90	25.09	
2025-01-13 09:07:41.08	99.85	25.11	
2025-01-13 09:07:41.29	99.81	25.13	
2025-01-13 09:07:41.49	99.77	25.16	
2025-01-13 09:07:41.70	99.73	25.18	
2025-01-13 09:07:41.90	99.69	25.20	
2025-01-13 09:07:42.11	99.64	25.23	
2025-01-13 09:07:42.32	99.60	25.25	
2025-01-13 09:07:42.52	99.56	25.27	
2025-01-13 09:07:42.73	99.51	25.30	
2025-01-13 09:07:42.93	99.47	25.32	
2025-01-13 09:07:43.14	99.43	25.34	
2025-01-13 09:07:43.34	99.39	25.37	
2025-01-13 09:07:43.55	99.34	25.39	
2025-01-13 09:07:43.75	99.30	25.41	
2025-01-13 09:07:43.95	99.26	25.44	
2025-01-13 09:07:44.16	99.21	25.46	
2025-01-13 09:07:44.37	99.17	25.49	
2025-01-13 09:07:44.57	99.13	25.51	
2025-01-13 09:07:44.78	99.08	25.53	
2025-01-13 09:07:44.98	99.04	25.56	
2025-01-13 09:07:45.19	98.99	25.58	
2025-01-13 09:07:45.39	98.95	25.60	
2025-01-13 09:07:45.60	98.91	25.63	
2025-01-13 09:07:45.80	98.86	25.65	
2025-01-13 09:07:46.02	98.82	25.68	
2025-01-13 09:07:46.22	98.77	25.70	
2025-01-13 09:07:46.43	98.73	25.72	
2025-01-13 09:07:46.64	98.68	25.75	
2025-01-13 09:07:46.84	98.64	25.77	
2025-01-13 09:07:47.05	98.60	25.79	
2025-01-13 09:07:47.25	98.55	25.82	
2025-01-13 09:07:47.46	98.51	25.84	
2025-01-13 09:07:47.67	98.46	25.87	
2025-01-13 09:07:47.87	98.42	25.89	
2025-01-13 09:07:48.09	98.37	25.91	
2025-01-13 09:07:48.30	98.33	25.94	
2025-01-13 09:07:48.50	98.28	25.96	
2025-01-13 09:07:48.71	98.24	25.99	
2025-01-13 09:07:48.91	98.19	26.01	
2025-01-13 09:07:49.11	98.15	26.03	
2025-01-13 09:07:49.32	98.10	26.06	
2025-01-13 09:07:49.53	98.06	26.08	
2025-01-13 09:07:49.73	98.01	26.10	
2025-01-13 09:07:49.94	97.97	26.13	
2025-01-13 09:07:50.14	97.92	26.15	
2025-01-13 09:07:50.35	97.88	26.17	
2025-01-13 09:07:50.55	97.83	26.20	
2025-01-13 09:07:50.76	97.79	26.22	
2025-01-13 09:07:50.96	97.74	26.24	
2025-01-13 09:07:51.17	97.70	26.27	
2025-01-13 09:07:51.37	97.65	26.29	
2025-01-13 09:07:51.58	97.60	26.32	
2025-01-13 09:07:51.79	97.56	26.34	
2025-01-13 09:07:51.99	97.51	26.36	
2025-01-13 09:07:52.20	97.47	26.39	
2025-01-13 09:07:52.40	97.42	26.41	
2025-01-13 09:07:52.61	97.37	26.43	
2025-01-13 09:07:52.81	97.33	26.46	
2025-01-13 09:07:53.02	97.28	26.48	
2025-01-13 09:07:53.22	97.24	26.50	
2025-01-13 09:07:53.43	97.19	26.53	
2025-01-13 09:07:53.63	97.14	26.55	
2025-01-13 09:07:53.84	97.10	26.58	
2025-01-13 09:07:54.05	97.05	26.60	
2025-01-13 09:07:54.25	97.00	26.62	
2025-01-13 09:07:54.45	96.96	26.65	
2025-01-13 09:07:54.66	96.91	26.67	
2025-01-13 09:07:54.87	96.86	26.69	
2025-01-13 09:07:55.07	96.82	26.72	
2025-01-13 09:07:55.28	96.77	26.74	
2025-01-13 09:07:55.48	96.72	26.76	
2025-01-13 09:07:55.69	96.68	26.79	
2025-01-13 09:07:55.89	96.63	26.81	
2025-01-13 09:07:56.10	96.58	26.84	
2025-01-13 09:07:56.31	96.53	26.86	
2025-01-13 09:07:56.51	96.49	26.88	
2025-01-13 09:07:56.71	96.44	26.91	
2025-01-13 09:07:56.92	96.39	26.93	
2025-01-13 09:07:57.13	96.34	26.95	
2025-01-13 09:07:57.33	96.30	26.98	
2025-01-13 09:07:57.54	96.25	27.00	
2025-01-13 09:07:57.74	96.20	27.03	
2025-01-13 09:07:57.94	96.15	27.05	
2025-01-13 09:07:58.15	96.11	27.07	
2025-01-13 09:07:58.36	96.06	27.10	
2025-01-13 09:07:58.56	96.01	27.12	
2025-01-13 09:07:58.77	95.96	27.14	
2025-01-13 09:07:58.97	95.91	27.17	
2025-01-13 09:07:59.18	95.86	27.19	
2025-01-13 09:07:59.38	95.82	27.21	
2025-01-13 09:07:59.59	95.77	27.24	
2025-01-13 09:07:59.79	95.72	27.26	
2025-01-13 09:08:00.00	95.67	27.29	
2025-01-13 09:08:00.20	95.62	27.31	
2025-01-13 09:08:00.41	95.57	27.33	
2025-01-13 09:08:00.61	95.53	27.36	
2025-01-13 09:08:00.82	95.48	27.38	
2025-01-13 09:08:01.02	95.43	27.40	
2025-01-13 09:08:01.23	95.38	27.43	
2025-01-13 09:08:01.44	95.33	27.45	
2025-01-13 09:08:01.64	95.28	27.47	
2025-01-13 09:08:01.84	95.23	27.50	
2025-01-13 09:08:02.05	95.18	27.52	
2025-01-13 09:08:02.25	95.13	27.54	
2025-01-13 09:08:02.46	95.08	27.57	
2025-01-13 09:08:02.66	95.03	27.59	
2025-01-13 09:08:02.87	94.98	27.61	
2025-01-13 09:08:03.07	94.94	27.64	
2025-01-13 09:08:03.28	94.89	27.66	
2025-01-13 09:08:03.49	94.83	27.69	
2025-01-13 09:08:03.69	94.79	27.71	
2025-01-13 09:08:03.90	94.73	27.73	
2025-01-13 09:08:04.10	94.69	27.76	
2025-01-13 09:08:04.31	94.63	27.78	
2025-01-13 09:08:04.51	94.59	27.80	
2025-01-13 09:08:04.72	94.53	27.83	
2025-01-13 09:08:04.92	94.49	27.85	
2025-01-13 09:08:05.14	94.43	27.88	
2025-01-13 09:08:05.35	94.38	27.90	
2025-01-13 09:08:05.55	94.33	27.92	
2025-01-13 09:08:05.76	94.28	27.95	
2025-01-13 09:08:05.96	94.23	27.97	
2025-01-13 09:08:06.17	94.18	27.99	
2025-01-13 09:08:06.38	94.13	28.02	
2025-01-13 09:08:06.58	94.08	28.04	
2025-01-13 09:08:06.78	94.03	28.06	
2025-01-13 09:08:06.99	93.97	28.09	
2025-01-13 09:08:07.19	93.92	28.11	
2025-01-13 09:08:07.40	93.87	28.13	
2025-01-13 09:08:07.60	93.82	28.16	
2025-01-13 09:08:07.81	93.77	28.18	
2025-01-13 09:08:08.02	93.72	28.20	
2025-01-13 09:08:08.22	93.67	28.23	
2025-01-13 09:08:08.42	93.62	28.25	
2025-01-13 09:08:08.63	93.56	28.27	
2025-01-13 09:08:08.84	93.51	28.30	
2025-01-13 09:08:09.04	93.46	28.32	
2025-01-13 09:08:09.25	93.41	28.35	
2025-01-13 09:08:09.45	93.36	28.37	
2025-01-13 09:08:09.66	93.30	28.39	
2025-01-13 09:08:09.86	93.25	28.41	
2025-01-13 09:08:10.07	93.20	28.44	
2025-01-13 09:08:10.28	93.14	28.46	
2025-01-13 09:08:10.48	93.09	28.49	
2025-01-13 09:08:10.69	93.04	28.51	
2025-01-13 09:08:10.89	92.99	28.53	
2025-01-13 09:08:11.10	92.93	28.56	
2025-01-13 09:08:11.31	92.88	28.58	
2025-01-13 09:08:11.51	92.83	28.60	
2025-01-13 09:08:11.72	92.78	28.63	
2025-01-13 09:08:11.92	92.72	28.65	
2025-01-13 09:08:12.13	92.67	28.67	
2025-01-13 09:08:12.33	92.62	28.70	
2025-01-13 09:08:12.53	92.57	28.72	
2025-01-13 09:08:12.74	92.51	28.74	
2025-01-13 09:08:12.95	92.46	28.77	
2025-01-13 09:08:13.15	92.41	28.79	
2025-01-13 09:08:13.36	92.35	28.81	
2025-01-13 09:08:13.56	92.30	28.83	
2025-01-13 09:08:13.77	92.24	28.86	
2025-01-13 09:08:13.97	92.19	28.88	
2025-01-13 09:08:14.18	92.14	28.90	
2025-01-13 09:08:14.39	92.08	28.93	
2025-01-13 09:08:14.59	92.03	28.95	
2025-01-13 09:08:14.79	91.98	28.97	
2025-01-13 09:08:15.00	91.92	29.00	
2025-01-13 09:08:15.21	91.87	29.02	
2025-01-13 09:08:15.41	91.81	29.04	
2025-01-13 09:08:15.62	91.76	29.07	
2025-01-13 09:08:15.82	91.70	29.09	
2025-01-13 09:08:16.02	91.65	29.11	
2025-01-13 09:08:16.23	91.60	29.14	
2025-01-13 09:08:16.44	91.54	29.16	
2025-01-13 09:08:16.64	91.49	29.18	
2025-01-13 09:08:16.85	91.43	29.21	
2025-01-13 09:08:17.05	91.38	29.23	
2025-01-13 09:08:17.26	91.32	29.25	
2025-01-13 09:08:17.46	91.27	29.27	
2025-01-13 09:08:17.67	91.21	29.30	
2025-01-13 09:08:17.87	91.16	29.32	
2025-01-13 09:08:18.08	91.10	29.34	
2025-01-13 09:08:18.28	91.05	29.37	
2025-01-13 09:08:18.49	90.99	29.39	
2025-01-13 09:08:18.70	90.93	29.41	
2025-01-13 09:08:18.90	90.88	29.44	
2025-01-13 09:08:19.11	90.82	29.46	
2025-01-13 09:08:19.31	90.77	29.48	
2025-01-13 09:08:19.51	90.71	29.50	
2025-01-13 09:08:19.72	90.66	29.53	
2025-01-13 09:08:19.93	90.60	29.55	
2025-01-13 09:08:20.13	90.54	29.57	
2025-01-13 09:08:20.34	90.49	29.60	
2025-01-13 09:08:20.54	90.43	29.62	
2025-01-13 09:08:20.75	90.37	29.64	
2025-01-13 09:08:20.95	90.32	29.66	
2025-01-13 09:08:21.17	90.26	29.69	
2025-01-13 09:08:21.38	90.20	29.71	
2025-01-13 09:08:21.58	90.15	29.73	
2025-01-13 09:08:21.79	90.09	29.76	
2025-01-13 09:08:21.99	90.03	29.78	
2025-01-13 09:08:22.20	89.97	29.80	
2025-01-13 09:08:22.40	89.92	29.83	
2025-01-13 09:08:22.61	89.86	29.85	
2025-01-13 09:08:22.81	89.80	29.87	
2025-01-13 09:08:23.02	89.75	29.89	
2025-01-13 09:08:23.22	89.69	29.92	
2025-01-13 09:08:23.43	89.63	29.94	
2025-01-13 09:08:23.63	89.58	29.96	
2025-01-13 09:08:23.84	89.52	29.99	
2025-01-13 09:08:24.05	89.46	30.01	
2025-01-13 09:08:24.25	89.40	30.03	
2025-01-13 09:08:24.46	89.34	30.05	
2025-01-13 09:08:24.66	89.29	30.08	
2025-01-13 09:08:24.87	89.23	30.10	
2025-01-13 09:08:25.07	89.17	30.12	
2025-01-13 09:08:25.27	89.11	30.14	
2025-01-13 09:08:25.48	89.05	30.17	
2025-01-13 09:08:25.69	88.99	30.19	
2025-01-13 09:08:25.89	88.94	30.21	
2025-01-13 09:08:26.10	88.88	30.23	
2025-01-13 09:08:26.31	88.82	30.26	
2025-01-13 09:08:26.51	88.76	30.28	
2025-01-13 09:08:26.72	88.70	30.30	
2025-01-13 09:08:26.92	88.64	30.32	
2025-01-13 09:08:27.13	88.58	30.35	
2025-01-13 09:08:27.34	88.52	30.37	
2025-01-13 09:08:27.54	88.47	30.39	
2025-01-13 09:08:27.74	88.41	30.41	
2025-01-13 09:08:27.95	88.35	30.44	
2025-01-13 09:08:28.16	88.29	30.46	
2025-01-13 09:08:28.36	88.23	30.48	
2025-01-13 09:08:28.57	88.17	30.50	
2025-01-13 09:08:28.77	88.11	30.52	
2025-01-13 09:08:28.98	88.05	30.55	
2025-01-13 09:08:29.18	87.99	30.57	
2025-01-13 09:08:29.39	87.93	30.59	
2025-01-13 09:08:29.59	87.87	30.61	
2025-01-13 09:08:29.79	87.81	30.64	
2025-01-13 09:08:30.00	87.75	30.66	
2025-01-13 09:08:30.21	87.69	30.68	
2025-01-13 09:08:30.41	87.63	30.70	
2025-01-13 09:08:30.62	87.57	30.72	
2025-01-13 09:08:30.83	87.51	30.75	
2025-01-13 09:08:31.04	87.45	30.77	
2025-01-13 09:08:31.24	87.39	30.79	
2025-01-13 09:08:31.45	87.33	30.81	
2025-01-13 09:08:31.66	87.26	30.84	
2025-01-13 09:08:31.86	87.21	30.86	
2025-01-13 09:08:32.06	87.15	30.88	
2025-01-13 09:08:32.27	87.08	30.90	
2025-01-13 09:08:32.48	87.02	30.92	
2025-01-13 09:08:32.68	86.96	30.95	
2025-01-13 09:08:32.89	86.90	30.97	
2025-01-13 09:08:33.09	86.84	30.99	
2025-01-13 09:08:33.30	86.78	31.01	
2025-01-13 09:08:33.50	86.72	31.03	
2025-01-13 09:08:33.71	86.65	31.06	
2025-01-13 09:08:33.91	86.59	31.08	
2025-01-13 09:08:34.12	86.53	31.10	
2025-01-13 09:08:34.32	86.47	31.12	
2025-01-13 09:08:34.53	86.41	31.14	
2025-01-13 09:08:34.74	86.34	31.16	
2025-01-13 09:08:34.94	86.28	31.19	
2025-01-13 09:08:35.15	86.22	31.21	
2025-01-13 09:08:35.35	86.16	31.23	
2025-01-13 09:08:35.55	86.10	31.25	
2025-01-13 09:08:35.76	86.04	31.27	
2025-01-13 09:08:35.96	85.98	31.29	
2025-01-13 09:08:36.18	85.91	31.32	
2025-01-13 09:08:36.39	85.84	31.34	
2025-01-13 09:08:36.59	85.78	31.36	
2025-01-13 09:08:36.80	85.72	31.38	
2025-01-13 09:08:37.01	85.65	31.40	
2025-01-13 09:08:37.22	85.59	31.42	
2025-01-13 09:08:37.43	85.53	31.45	
2025-01-13 09:08:37.63	85.46	31.47	
2025-01-13 09:08:37.84	85.40	31.49	
2025-01-13 09:08:38.05	85.34	31.51	
2025-01-13 09:08:38.25	85.27	31.53	
2025-01-13 09:08:38.46	85.21	31.55	
2025-01-13 09:08:38.66	85.15	31.57	
2025-01-13 09:08:38.87	85.08	31.60	
2025-01-13 09:08:39.07	85.02	31.62	
2025-01-13 09:08:39.28	84.95	31.64	
2025-01-13 09:08:39.48	84.89	31.66	
2025-01-13 09:08:39.69	84.83	31.68	
2025-01-13 09:08:39.89	84.76	31.70	
2025-01-13 09:08:40.10	84.70	31.72	
2025-01-13 09:08:40.31	84.63	31.74	
2025-01-13 09:08:40.52	84.57	31.77	
2025-01-13 09:08:40.73	84.50	31.79	
2025-01-13 09:08:40.93	84.44	31.81	
2025-01-13 09:08:41.14	84.37	31.83	
2025-01-13 09:08:41.34	84.31	31.85	
2025-01-13 09:08:41.54	84.25	31.87	
2025-01-13 09:08:41.75	84.18	31.89	
2025-01-13 09:08:41.96	84.11	31.91	
2025-01-13 09:08:42.16	84.05	31.93	
2025-01-13 09:08:42.37	83.99	31.95	
2025-01-13 09:08:42.57	83.92	31.97	
2025-01-13 09:08:42.77	83.86	31.99	
2025-01-13 09:08:42.98	83.79	32.02	
2025-01-13 09:08:43.19	83.72	32.04	
2025-01-13 09:08:43.39	83.66	32.06	
2025-01-13 09:08:43.60	83.59	32.08	
2025-01-13 09:08:43.80	83.53	32.10	
2025-01-13 09:08:44.01	83.46	32.12	
2025-01-13 09:08:44.21	83.40	32.14	
2025-01-13 09:08:44.42	83.33	32.16	
2025-01-13 09:08:44.62	83.27	32.18	
2025-01-13 09:08:44.83	83.20	32.20	
2025-01-13 09:08:45.03	83.14	32.22	
2025-01-13 09:08:45.24	83.07	32.24	
2025-01-13 09:08:45.45	83.00	32.26	
2025-01-13 09:08:45.65	82.94	32.28	
2025-01-13 09:08:45.85	82.87	32.30	
2025-01-13 09:08:46.06	82.80	32.32	
2025-01-13 09:08:46.27	82.73	32.34	
2025-01-13 09:08:46.47	82.67	32.36	
2025-01-13 09:08:46.67	82.60	32.38	
2025-01-13 09:08:46.88	82.54	32.40	
2025-01-13 09:08:47.09	82.47	32.42	
2025-01-13 09:08:47.29	82.40	32.44	
2025-01-13 09:08:47.50	82.33	32.46	
2025-01-13 09:08:47.70	82.27	32.48	
2025-01-13 09:08:47.91	82.20	32.50	
2025-01-13 09:08:48.11	82.13	32.52	
2025-01-13 09:08:48.32	82.06	32.54	
2025-01-13 09:08:48.52	82.00	32.56	
2025-01-13 09:08:48.73	81.93	32.58	
2025-01-13 09:08:48.93	81.86	32.60	
2025-01-13 09:08:49.14	81.79	32.62	
2025-01-13 09:08:49.34	81.73	32.64	
2025-01-13 09:08:49.55	81.66	32.66	
2025-01-13 09:08:49.76	81.59	32.68	
2025-01-13 09:08:49.96	81.52	32.70	
2025-01-13 09:08:50.17	81.45	32.72	
2025-01-13 09:08:50.37	81.39	32.74	
2025-01-13 09:08:50.58	81.32	32.76	
2025-01-13 09:08:50.78	81.25	32.78	
2025-01-13 09:08:50.99	81.18	32.80	
2025-01-13 09:08:51.19	81.11	32.82	
2025-01-13 09:08:51.40	81.04	32.84	
2025-01-13 09:08:51.60	80.98	32.86	
2025-01-13 09:08:51.81	80.91	32.88	
2025-01-13 09:08:52.01	80.84	32.90	
2025-01-13 09:08:52.22	80.77	32.92	
2025-01-13 09:08:52.43	80.70	32.94	
2025-01-13 09:08:52.63	80.63	32.96	
2025-01-13 09:08:52.84	80.56	32.98	
2025-01-13 09:08:53.04	80.49	32.99	
2025-01-13 09:08:53.25	80.42	33.01	
2025-01-13 09:08:53.45	80.35	33.03	
2025-01-13 09:08:53.65	80.29	33.05	
2025-01-13 09:08:53.86	80.21	33.07	
2025-01-13 09:08:54.06	80.15	33.09	
2025-01-13 09:08:54.28	80.07	33.11	
2025-01-13 09:08:54.49	80.00	33.13	
2025-01-13 09:08:54.69	79.93	33.15	
2025-01-13 09:08:54.90	79.86	33.17	
2025-01-13 09:08:55.10	79.79	33.18	
2025-01-13 09:08:55.30	79.72	33.20	
2025-01-13 09:08:55.51	79.65	33.22	
2025-01-13 09:08:55.72	79.58	33.24	
2025-01-13 09:08:55.92	79.51	33.26	
2025-01-13 09:08:56.13	79.44	33.28	
2025-01-13 09:08:56.34	79.37	33.30	
2025-01-13 09:08:56.55	79.29	33.32	
2025-01-13 09:08:56.76	79.22	33.34	
2025-01-13 09:08:56.96	79.15	33.35	
2025-01-13 09:08:57.17	79.08	33.37	
2025-01-13 09:08:57.37	79.01	33.39	
2025-01-13 09:08:57.58	78.94	33.41	
2025-01-13 09:08:57.78	78.87	33.43	
2025-01-13 09:08:57.99	78.80	33.45	
2025-01-13 09:08:58.19	78.73	33.46	
2025-01-13 09:08:58.40	78.65	33.48	
2025-01-13 09:08:58.60	78.58	33.50	
2025-01-13 09:08:58.81	78.51	33.52	
2025-01-13 09:08:59.01	78.44	33.54	
2025-01-13 09:08:59.22	78.37	33.55	
2025-01-13 09:08:59.43	78.29	33.57	
2025-01-13 09:08:59.63	78.22	33.59	
2025-01-13 09:08:59.83	78.15	33.61	
2025-01-13 09:09:00.04	78.08	33.63	
2025-01-13 09:09:00.24	78.01	33.64	
2025-01-13 09:09:00.45	77.94	33.66	
2025-01-13 09:09:00.67	77.86	33.68	
2025-01-13 09:09:00.87	77.79	33.70	
2025-01-13 09:09:01.08	77.71	33.72	
2025-01-13 09:09:01.28	77.64	33.73	
2025-01-13 09:09:01.49	77.57	33.75	
2025-01-13 09:09:01.69	77.50	33.77	
2025-01-13 09:09:01.90	77.42	33.79	
2025-01-13 09:09:02.10	77.35	33.80	
2025-01-13 09:09:02.31	77.28	33.82	
2025-01-13 09:09:02.52	77.20	33.84	
2025-01-13 09:09:02.72	77.13	33.85	
2025-01-13 09:09:02.93	77.06	33.87	
2025-01-13 09:09:03.13	76.99	33.89	
2025-01-13 09:09:03.34	76.91	33.91	
2025-01-13 09:09:03.55	76.84	33.92	
2025-01-13 09:09:03.75	76.76	33.94	
2025-01-13 09:09:03.96	76.69	33.96	
2025-01-13 09:09:04.16	76.62	33.97	
2025-01-13 09:09:04.36	76.55	33.99	
2025-01-13 09:09:04.57	76.47	34.01	
2025-01-13 09:09:04.77	76.40	34.03	
2025-01-13 09:09:04.98	76.32	34.04	
2025-01-13 09:09:05.19	76.25	34.06	
2025-01-13 09:09:05.39	76.17	34.08	
2025-01-13 09:09:05.60	76.10	34.09	
2025-01-13 09:09:05.80	76.03	34.11	
2025-01-13 09:09:06.00	75.95	34.13	
2025-01-13 09:09:06.21	75.88	34.14	
2025-01-13 09:09:06.42	75.80	34.16	
2025-01-13 09:09:06.62	75.73	34.18	
2025-01-13 09:09:06.83	75.65	34.19	
2025-01-13 09:09:07.05	75.57	34.21	
2025-01-13 09:09:07.25	75.50	34.23	
2025-01-13 09:09:07.46	75.42	34.24	
2025-01-13 09:09:07.67	75.35	34.26	
2025-01-13 09:09:07.87	75.27	34.27	
2025-01-13 09:09:08.07	75.20	34.29	
2025-01-13 09:09:08.28	75.12	34.31	
2025-01-13 09:09:08.48	75.05	34.32	
2025-01-13 09:09:08.69	74.97	34.34	
2025-01-13 09:09:08.90	74.90	34.35	
2025-01-13 09:09:09.11	74.82	34.37	
2025-01-13 09:09:09.32	74.74	34.39	
2025-01-13 09:09:09.52	74.67	34.40	
2025-01-13 09:09:09.73	74.59	34.42	
2025-01-13 09:09:09.93	74.52	34.43	
2025-01-13 09:09:10.13	74.44	34.45	
2025-01-13 09:09:10.34	74.37	34.47	
2025-01-13 09:09:10.55	74.29	34.48	
2025-01-13 09:09:10.75	74.21	34.50	
2025-01-13 09:09:10.96	74.14	34.51	
2025-01-13 09:09:11.16	74.06	34.53	
2025-01-13 09:09:11.37	73.98	34.54	
2025-01-13 09:09:11.57	73.91	34.56	
2025-01-13 09:09:11.78	73.83	34.57	
2025-01-13 09:09:11.98	73.76	34.59	
2025-01-13 09:09:12.19	73.68	34.60	
2025-01-13 09:09:12.39	73.60	34.62	
2025-01-13 09:09:12.61	73.52	34.63	
2025-01-13 09:09:12.81	73.45	34.65	
2025-01-13 09:09:13.02	73.37	34.66	
2025-01-13 09:09:13.23	73.29	34.68	
2025-01-13 09:09:13.44	73.21	34.69	
2025-01-13 09:09:13.65	73.13	34.71	
2025-01-13 09:09:13.86	73.05	34.72	
2025-01-13 09:09:14.06	72.98	34.74	
2025-01-13 09:09:14.27	72.90	34.75	
2025-01-13 09:09:14.47	72.82	34.77	
2025-01-13 09:09:14.68	72.74	34.78	
2025-01-13 09:09:14.88	72.67	34.80	
2025-01-13 09:09:15.09	72.59	34.81	
2025-01-13 09:09:15.29	72.51	34.83	
2025-01-13 09:09:15.49	72.44	34.84	
2025-01-13 09:09:15.70	72.36	34.85	
2025-01-13 09:09:15.91	72.28	34.87	
2025-01-13 09:09:16.11	72.20	34.88	
2025-01-13 09:09:16.32	72.12	34.90	
2025-01-13 09:09:16.52	72.05	34.91	
2025-01-13 09:09:16.73	71.97	34.92	
2025-01-13 09:09:16.94	71.89	34.94	
2025-01-13 09:09:17.14	71.81	34.95	
2025-01-13 09:09:17.35	71.73	34.97	
2025-01-13 09:09:17.56	71.65	34.98	
2025-01-13 09:09:17.76	71.58	34.99	
2025-01-13 09:09:17.96	71.50	35.01	
2025-01-13 09:09:18.17	71.42	35.02	
2025-01-13 09:09:18.38	71.34	35.04	
2025-01-13 09:09:18.58	71.26	35.05	
2025-01-13 09:09:18.78	71.18	35.06	
2025-01-13 09:09:18.99	71.10	35.08	
2025-01-13 09:09:19.20	71.02	35.09	
2025-01-13 09:09:19.40	70.95	35.10	
2025-01-13 09:09:19.61	70.87	35.12	
2025-01-13 09:09:19.81	70.79	35.13	
2025-01-13 09:09:20.02	70.71	35.14	
2025-01-13 09:09:20.22	70.63	35.15	
