passes_logs/2025/01/13/SPB_Silybum_02/SPB_Silybum_02__20250113_115218_AQUA_rec.log

#Pass ID: 20250113_115218_AQUA
#Satellite: AQUA
#Configuration: AQUA
#Start time: 2025-01-13 11:52:18

#Version: 2.0.20230423
#Station: SPB_Silybum_02
#Location: 30.233357 lon 59.946436 lat
#TLE: 1 27424U 02022A   25012.80860775  .00001720  00000+0  36312-3 0  9993
#TLE: 2 27424  98.3585 329.4528 0001624 113.6325 279.3978 14.60673868207302

#Time	Az	El	Level	Level2	SNR	BER	Gain	Gain2
2025-01-13 11:52:20.16	175.71	4.09	
2025-01-13 11:52:20.37	175.71	4.11	
2025-01-13 11:52:20.58	175.72	4.12	
2025-01-13 11:52:20.78	175.73	4.14	
2025-01-13 11:52:20.99	175.73	4.15	
2025-01-13 11:52:21.20	175.74	4.17	
2025-01-13 11:52:21.40	175.75	4.18	
2025-01-13 11:52:21.61	175.75	4.20	
2025-01-13 11:52:21.82	175.76	4.21	
2025-01-13 11:52:22.02	175.77	4.23	
2025-01-13 11:52:22.22	175.77	4.24	
2025-01-13 11:52:22.43	175.78	4.26	
2025-01-13 11:52:22.64	175.79	4.27	
2025-01-13 11:52:22.84	175.79	4.29	
2025-01-13 11:52:23.05	175.80	4.30	
2025-01-13 11:52:23.26	175.81	4.32	
2025-01-13 11:52:23.47	175.81	4.33	
2025-01-13 11:52:23.68	175.82	4.35	
2025-01-13 11:52:23.88	175.82	4.36	
2025-01-13 11:52:24.09	175.83	4.37	
2025-01-13 11:52:24.30	175.84	4.39	
2025-01-13 11:52:24.51	175.84	4.41	
2025-01-13 11:52:24.71	175.85	4.42	
2025-01-13 11:52:24.92	175.86	4.43	
2025-01-13 11:52:25.12	175.86	4.45	
2025-01-13 11:52:25.33	175.87	4.46	
2025-01-13 11:52:25.53	175.88	4.48	
2025-01-13 11:52:25.74	175.88	4.49	
2025-01-13 11:52:25.94	175.89	4.51	
2025-01-13 11:52:26.15	175.90	4.52	
2025-01-13 11:52:26.35	175.90	4.54	
2025-01-13 11:52:26.56	175.91	4.55	
2025-01-13 11:52:26.76	175.92	4.57	
2025-01-13 11:52:26.97	175.92	4.58	
2025-01-13 11:52:27.17	175.93	4.60	
2025-01-13 11:52:27.38	175.94	4.61	
2025-01-13 11:52:27.58	175.94	4.63	
2025-01-13 11:52:27.79	175.95	4.64	
2025-01-13 11:52:27.99	175.96	4.66	
2025-01-13 11:52:28.20	175.96	4.67	
2025-01-13 11:52:28.40	175.97	4.69	
2025-01-13 11:52:28.61	175.98	4.70	
2025-01-13 11:52:28.81	175.98	4.72	
2025-01-13 11:52:29.02	175.99	4.73	
2025-01-13 11:52:29.22	176.00	4.75	
2025-01-13 11:52:29.43	176.00	4.76	
2025-01-13 11:52:29.63	176.01	4.78	
2025-01-13 11:52:29.84	176.02	4.79	
2025-01-13 11:52:30.04	176.02	4.81	
2025-01-13 11:52:30.25	176.03	4.82	
2025-01-13 11:52:30.45	176.04	4.84	
2025-01-13 11:52:30.66	176.04	4.85	
2025-01-13 11:52:30.87	176.05	4.87	
2025-01-13 11:52:31.07	176.06	4.88	
2025-01-13 11:52:31.28	176.06	4.90	
2025-01-13 11:52:31.48	176.07	4.91	
2025-01-13 11:52:31.68	176.08	4.93	
2025-01-13 11:52:31.89	176.09	4.94	
2025-01-13 11:52:32.09	176.09	4.96	
2025-01-13 11:52:32.30	176.10	4.97	
2025-01-13 11:52:32.50	176.11	4.99	
2025-01-13 11:52:32.71	176.11	5.00	
2025-01-13 11:52:32.92	176.12	5.02	
2025-01-13 11:52:33.12	176.13	5.03	
2025-01-13 11:52:33.33	176.13	5.05	
2025-01-13 11:52:33.53	176.14	5.06	
2025-01-13 11:52:33.74	176.15	5.08	
2025-01-13 11:52:33.94	176.15	5.09	
2025-01-13 11:52:34.15	176.16	5.11	
2025-01-13 11:52:34.35	176.17	5.12	
2025-01-13 11:52:34.56	176.17	5.14	
2025-01-13 11:52:34.76	176.18	5.15	
2025-01-13 11:52:34.96	176.19	5.17	
2025-01-13 11:52:35.17	176.19	5.19	
2025-01-13 11:52:35.37	176.20	5.20	
2025-01-13 11:52:35.58	176.21	5.22	
2025-01-13 11:52:35.78	176.22	5.23	
2025-01-13 11:52:36.00	176.22	5.25	
2025-01-13 11:52:36.21	176.23	5.26	
2025-01-13 11:52:36.41	176.24	5.28	
2025-01-13 11:52:36.62	176.24	5.29	
2025-01-13 11:52:36.82	176.25	5.31	
2025-01-13 11:52:37.02	176.26	5.32	
2025-01-13 11:52:37.23	176.26	5.34	
2025-01-13 11:52:37.43	176.27	5.35	
2025-01-13 11:52:37.64	176.28	5.37	
2025-01-13 11:52:37.84	176.29	5.38	
2025-01-13 11:52:38.05	176.29	5.40	
2025-01-13 11:52:38.26	176.30	5.42	
2025-01-13 11:52:38.47	176.31	5.43	
2025-01-13 11:52:38.68	176.31	5.45	
2025-01-13 11:52:38.88	176.32	5.46	
2025-01-13 11:52:39.09	176.33	5.48	
2025-01-13 11:52:39.29	176.33	5.49	
2025-01-13 11:52:39.50	176.34	5.51	
2025-01-13 11:52:39.70	176.35	5.52	
2025-01-13 11:52:39.91	176.36	5.54	
2025-01-13 11:52:40.12	176.36	5.56	
2025-01-13 11:52:40.32	176.37	5.57	
2025-01-13 11:52:40.53	176.38	5.59	
2025-01-13 11:52:40.73	176.38	5.60	
2025-01-13 11:52:40.94	176.39	5.62	
2025-01-13 11:52:41.14	176.40	5.63	
2025-01-13 11:52:41.36	176.41	5.65	
2025-01-13 11:52:41.57	176.41	5.67	
2025-01-13 11:52:41.77	176.42	5.68	
2025-01-13 11:52:41.98	176.43	5.70	
2025-01-13 11:52:42.19	176.44	5.71	
2025-01-13 11:52:42.39	176.44	5.73	
2025-01-13 11:52:42.59	176.45	5.74	
2025-01-13 11:52:42.80	176.46	5.76	
2025-01-13 11:52:43.01	176.46	5.77	
2025-01-13 11:52:43.21	176.47	5.79	
2025-01-13 11:52:43.42	176.48	5.81	
2025-01-13 11:52:43.62	176.49	5.82	
2025-01-13 11:52:43.83	176.49	5.84	
2025-01-13 11:52:44.03	176.50	5.85	
2025-01-13 11:52:44.24	176.51	5.87	
2025-01-13 11:52:44.45	176.51	5.88	
2025-01-13 11:52:44.65	176.52	5.90	
2025-01-13 11:52:44.85	176.53	5.92	
2025-01-13 11:52:45.06	176.54	5.93	
2025-01-13 11:52:45.27	176.54	5.95	
2025-01-13 11:52:45.47	176.55	5.96	
2025-01-13 11:52:45.67	176.56	5.98	
2025-01-13 11:52:45.88	176.57	5.99	
2025-01-13 11:52:46.09	176.57	6.01	
2025-01-13 11:52:46.29	176.58	6.03	
2025-01-13 11:52:46.50	176.59	6.04	
2025-01-13 11:52:46.70	176.59	6.06	
2025-01-13 11:52:46.91	176.60	6.07	
2025-01-13 11:52:47.11	176.61	6.09	
2025-01-13 11:52:47.32	176.62	6.11	
2025-01-13 11:52:47.52	176.62	6.12	
2025-01-13 11:52:47.73	176.63	6.14	
2025-01-13 11:52:47.93	176.64	6.15	
2025-01-13 11:52:48.14	176.65	6.17	
2025-01-13 11:52:48.34	176.65	6.18	
2025-01-13 11:52:48.55	176.66	6.20	
2025-01-13 11:52:48.75	176.67	6.22	
2025-01-13 11:52:48.96	176.68	6.23	
2025-01-13 11:52:49.16	176.68	6.25	
2025-01-13 11:52:49.37	176.69	6.26	
2025-01-13 11:52:49.57	176.70	6.28	
2025-01-13 11:52:49.78	176.71	6.30	
2025-01-13 11:52:49.98	176.71	6.31	
2025-01-13 11:52:50.19	176.72	6.33	
2025-01-13 11:52:50.39	176.73	6.34	
2025-01-13 11:52:50.60	176.74	6.36	
2025-01-13 11:52:50.81	176.74	6.38	
2025-01-13 11:52:51.02	176.75	6.39	
2025-01-13 11:52:51.23	176.76	6.41	
2025-01-13 11:52:51.44	176.77	6.43	
2025-01-13 11:52:51.64	176.77	6.44	
2025-01-13 11:52:51.84	176.78	6.46	
2025-01-13 11:52:52.05	176.79	6.47	
2025-01-13 11:52:52.25	176.80	6.49	
2025-01-13 11:52:52.46	176.80	6.51	
2025-01-13 11:52:52.66	176.81	6.52	
2025-01-13 11:52:52.87	176.82	6.54	
2025-01-13 11:52:53.07	176.83	6.55	
2025-01-13 11:52:53.28	176.83	6.57	
2025-01-13 11:52:53.48	176.84	6.59	
2025-01-13 11:52:53.69	176.85	6.60	
2025-01-13 11:52:53.89	176.86	6.62	
2025-01-13 11:52:54.10	176.86	6.63	
2025-01-13 11:52:54.30	176.87	6.65	
2025-01-13 11:52:54.51	176.88	6.67	
2025-01-13 11:52:54.71	176.89	6.68	
2025-01-13 11:52:54.92	176.90	6.70	
2025-01-13 11:52:55.12	176.90	6.72	
2025-01-13 11:52:55.33	176.91	6.73	
2025-01-13 11:52:55.53	176.92	6.75	
2025-01-13 11:52:55.74	176.93	6.76	
2025-01-13 11:52:55.94	176.93	6.78	
2025-01-13 11:52:56.15	176.94	6.80	
2025-01-13 11:52:56.35	176.95	6.81	
2025-01-13 11:52:56.56	176.96	6.83	
2025-01-13 11:52:56.76	176.96	6.85	
2025-01-13 11:52:56.97	176.97	6.86	
2025-01-13 11:52:57.17	176.98	6.88	
2025-01-13 11:52:57.38	176.99	6.89	
2025-01-13 11:52:57.58	177.00	6.91	
2025-01-13 11:52:57.79	177.00	6.93	
2025-01-13 11:52:57.99	177.01	6.94	
2025-01-13 11:52:58.20	177.02	6.96	
2025-01-13 11:52:58.40	177.03	6.98	
2025-01-13 11:52:58.61	177.03	6.99	
2025-01-13 11:52:58.82	177.04	7.01	
2025-01-13 11:52:59.02	177.05	7.03	
2025-01-13 11:52:59.23	177.06	7.04	
2025-01-13 11:52:59.43	177.07	7.06	
2025-01-13 11:52:59.64	177.07	7.08	
2025-01-13 11:52:59.84	177.08	7.09	
2025-01-13 11:53:00.05	177.09	7.11	
2025-01-13 11:53:00.25	177.10	7.12	
2025-01-13 11:53:00.46	177.11	7.14	
2025-01-13 11:53:00.66	177.11	7.16	
2025-01-13 11:53:00.87	177.12	7.17	
2025-01-13 11:53:01.07	177.13	7.19	
2025-01-13 11:53:01.28	177.14	7.21	
2025-01-13 11:53:01.49	177.14	7.22	
2025-01-13 11:53:01.69	177.15	7.24	
2025-01-13 11:53:01.89	177.16	7.26	
2025-01-13 11:53:02.10	177.17	7.27	
2025-01-13 11:53:02.31	177.18	7.29	
2025-01-13 11:53:02.51	177.18	7.31	
2025-01-13 11:53:02.71	177.19	7.32	
2025-01-13 11:53:02.92	177.20	7.34	
2025-01-13 11:53:03.13	177.21	7.36	
2025-01-13 11:53:03.33	177.22	7.37	
2025-01-13 11:53:03.54	177.22	7.39	
2025-01-13 11:53:03.74	177.23	7.41	
2025-01-13 11:53:03.95	177.24	7.42	
2025-01-13 11:53:04.15	177.25	7.44	
2025-01-13 11:53:04.35	177.26	7.46	
2025-01-13 11:53:04.56	177.26	7.47	
2025-01-13 11:53:04.76	177.27	7.49	
2025-01-13 11:53:04.97	177.28	7.51	
2025-01-13 11:53:05.18	177.29	7.53	
2025-01-13 11:53:05.38	177.30	7.54	
2025-01-13 11:53:05.59	177.31	7.56	
2025-01-13 11:53:05.79	177.31	7.58	
2025-01-13 11:53:05.99	177.32	7.59	
2025-01-13 11:53:06.20	177.33	7.61	
2025-01-13 11:53:06.41	177.34	7.63	
2025-01-13 11:53:06.61	177.35	7.64	
2025-01-13 11:53:06.81	177.35	7.66	
2025-01-13 11:53:07.02	177.36	7.68	
2025-01-13 11:53:07.22	177.37	7.69	
2025-01-13 11:53:07.43	177.38	7.71	
2025-01-13 11:53:07.63	177.39	7.73	
2025-01-13 11:53:07.84	177.40	7.74	
2025-01-13 11:53:08.04	177.40	7.76	
2025-01-13 11:53:08.25	177.41	7.78	
2025-01-13 11:53:08.45	177.42	7.79	
2025-01-13 11:53:08.67	177.43	7.81	
2025-01-13 11:53:08.89	177.44	7.83	
2025-01-13 11:53:09.09	177.45	7.85	
2025-01-13 11:53:09.29	177.45	7.86	
2025-01-13 11:53:09.50	177.46	7.88	
2025-01-13 11:53:09.71	177.47	7.90	
2025-01-13 11:53:09.91	177.48	7.92	
2025-01-13 11:53:10.12	177.49	7.93	
2025-01-13 11:53:10.32	177.50	7.95	
2025-01-13 11:53:10.53	177.50	7.97	
2025-01-13 11:53:10.73	177.51	7.98	
2025-01-13 11:53:10.94	177.52	8.00	
2025-01-13 11:53:11.14	177.53	8.02	
2025-01-13 11:53:11.35	177.54	8.04	
2025-01-13 11:53:11.55	177.55	8.05	
2025-01-13 11:53:11.76	177.55	8.07	
2025-01-13 11:53:11.96	177.56	8.09	
2025-01-13 11:53:12.17	177.57	8.11	
2025-01-13 11:53:12.39	177.58	8.12	
2025-01-13 11:53:12.59	177.59	8.14	
2025-01-13 11:53:12.80	177.60	8.16	
2025-01-13 11:53:13.01	177.61	8.18	
2025-01-13 11:53:13.21	177.61	8.19	
2025-01-13 11:53:13.41	177.62	8.21	
2025-01-13 11:53:13.62	177.63	8.23	
2025-01-13 11:53:13.83	177.64	8.25	
2025-01-13 11:53:14.03	177.65	8.26	
2025-01-13 11:53:14.24	177.66	8.28	
2025-01-13 11:53:14.45	177.67	8.30	
2025-01-13 11:53:14.66	177.67	8.32	
2025-01-13 11:53:14.86	177.68	8.33	
2025-01-13 11:53:15.07	177.69	8.35	
2025-01-13 11:53:15.27	177.70	8.37	
2025-01-13 11:53:15.48	177.71	8.38	
2025-01-13 11:53:15.68	177.72	8.40	
2025-01-13 11:53:15.89	177.73	8.42	
2025-01-13 11:53:16.10	177.73	8.44	
2025-01-13 11:53:16.30	177.74	8.45	
2025-01-13 11:53:16.50	177.75	8.47	
2025-01-13 11:53:16.71	177.76	8.49	
2025-01-13 11:53:16.91	177.77	8.51	
2025-01-13 11:53:17.12	177.78	8.52	
2025-01-13 11:53:17.33	177.79	8.54	
2025-01-13 11:53:17.53	177.79	8.56	
2025-01-13 11:53:17.74	177.80	8.58	
2025-01-13 11:53:17.94	177.81	8.59	
2025-01-13 11:53:18.15	177.82	8.61	
2025-01-13 11:53:18.35	177.83	8.63	
2025-01-13 11:53:18.56	177.84	8.65	
2025-01-13 11:53:18.76	177.85	8.67	
2025-01-13 11:53:18.97	177.86	8.68	
2025-01-13 11:53:19.17	177.86	8.70	
2025-01-13 11:53:19.38	177.87	8.72	
2025-01-13 11:53:19.59	177.88	8.74	
2025-01-13 11:53:19.80	177.89	8.75	
2025-01-13 11:53:20.01	177.90	8.77	
2025-01-13 11:53:20.21	177.91	8.79	
2025-01-13 11:53:20.42	177.92	8.81	
2025-01-13 11:53:20.63	177.93	8.83	
2025-01-13 11:53:20.83	177.94	8.84	
2025-01-13 11:53:21.04	177.95	8.86	
2025-01-13 11:53:21.24	177.95	8.88	
2025-01-13 11:53:21.45	177.96	8.90	
2025-01-13 11:53:21.65	177.97	8.92	
2025-01-13 11:53:21.85	177.98	8.93	
2025-01-13 11:53:22.06	177.99	8.95	
2025-01-13 11:53:22.26	178.00	8.97	
2025-01-13 11:53:22.47	178.01	8.99	
2025-01-13 11:53:22.68	178.02	9.00	
2025-01-13 11:53:22.88	178.03	9.02	
2025-01-13 11:53:23.09	178.03	9.04	
2025-01-13 11:53:23.30	178.04	9.06	
2025-01-13 11:53:23.50	178.05	9.08	
2025-01-13 11:53:23.71	178.06	9.09	
2025-01-13 11:53:23.91	178.07	9.11	
2025-01-13 11:53:24.12	178.08	9.13	
2025-01-13 11:53:24.32	178.09	9.15	
2025-01-13 11:53:24.53	178.10	9.17	
2025-01-13 11:53:24.73	178.11	9.18	
2025-01-13 11:53:24.94	178.12	9.20	
2025-01-13 11:53:25.14	178.13	9.22	
2025-01-13 11:53:25.35	178.13	9.24	
2025-01-13 11:53:25.55	178.14	9.26	
2025-01-13 11:53:25.76	178.15	9.28	
2025-01-13 11:53:25.96	178.16	9.29	
2025-01-13 11:53:26.17	178.17	9.31	
2025-01-13 11:53:26.37	178.18	9.33	
2025-01-13 11:53:26.58	178.19	9.35	
2025-01-13 11:53:26.79	178.20	9.37	
2025-01-13 11:53:26.99	178.21	9.38	
2025-01-13 11:53:27.19	178.22	9.40	
2025-01-13 11:53:27.40	178.23	9.42	
2025-01-13 11:53:27.60	178.24	9.44	
2025-01-13 11:53:27.81	178.24	9.46	
2025-01-13 11:53:28.02	178.25	9.48	
2025-01-13 11:53:28.22	178.26	9.49	
2025-01-13 11:53:28.42	178.27	9.51	
2025-01-13 11:53:28.63	178.28	9.53	
2025-01-13 11:53:28.83	178.29	9.55	
2025-01-13 11:53:29.04	178.30	9.57	
2025-01-13 11:53:29.24	178.31	9.58	
2025-01-13 11:53:29.45	178.32	9.60	
2025-01-13 11:53:29.66	178.33	9.62	
2025-01-13 11:53:29.86	178.34	9.64	
2025-01-13 11:53:30.07	178.35	9.66	
2025-01-13 11:53:30.27	178.36	9.68	
2025-01-13 11:53:30.48	178.37	9.70	
2025-01-13 11:53:30.68	178.38	9.71	
2025-01-13 11:53:30.89	178.38	9.73	
2025-01-13 11:53:31.10	178.39	9.75	
2025-01-13 11:53:31.31	178.40	9.77	
2025-01-13 11:53:31.52	178.41	9.79	
2025-01-13 11:53:31.72	178.42	9.81	
2025-01-13 11:53:31.93	178.43	9.83	
2025-01-13 11:53:32.14	178.44	9.85	
2025-01-13 11:53:32.34	178.45	9.86	
2025-01-13 11:53:32.54	178.46	9.88	
2025-01-13 11:53:32.75	178.47	9.90	
2025-01-13 11:53:32.95	178.48	9.92	
2025-01-13 11:53:33.16	178.49	9.94	
2025-01-13 11:53:33.37	178.50	9.96	
2025-01-13 11:53:33.57	178.51	9.98	
2025-01-13 11:53:33.77	178.52	9.99	
2025-01-13 11:53:33.98	178.53	10.01	
2025-01-13 11:53:34.18	178.54	10.03	
2025-01-13 11:53:34.39	178.55	10.05	
2025-01-13 11:53:34.59	178.56	10.07	
2025-01-13 11:53:34.80	178.57	10.09	
2025-01-13 11:53:35.00	178.58	10.11	
2025-01-13 11:53:35.21	178.59	10.12	
2025-01-13 11:53:35.42	178.60	10.14	
2025-01-13 11:53:35.62	178.61	10.16	
2025-01-13 11:53:35.83	178.62	10.18	
2025-01-13 11:53:36.03	178.62	10.20	
2025-01-13 11:53:36.24	178.63	10.22	
2025-01-13 11:53:36.44	178.64	10.24	
2025-01-13 11:53:36.65	178.65	10.26	
2025-01-13 11:53:36.85	178.66	10.28	
2025-01-13 11:53:37.05	178.67	10.29	
2025-01-13 11:53:37.26	178.68	10.31	
2025-01-13 11:53:37.47	178.69	10.33	
2025-01-13 11:53:37.67	178.70	10.35	
2025-01-13 11:53:37.88	178.71	10.37	
2025-01-13 11:53:38.08	178.72	10.39	
2025-01-13 11:53:38.29	178.73	10.41	
2025-01-13 11:53:38.49	178.74	10.43	
2025-01-13 11:53:38.70	178.75	10.45	
2025-01-13 11:53:38.90	178.76	10.47	
2025-01-13 11:53:39.10	178.77	10.48	
2025-01-13 11:53:39.31	178.78	10.50	
2025-01-13 11:53:39.52	178.79	10.52	
2025-01-13 11:53:39.72	178.80	10.54	
2025-01-13 11:53:39.93	178.81	10.56	
2025-01-13 11:53:40.14	178.82	10.58	
2025-01-13 11:53:40.35	178.83	10.60	
2025-01-13 11:53:40.56	178.84	10.62	
2025-01-13 11:53:40.76	178.85	10.64	
2025-01-13 11:53:40.97	178.86	10.66	
2025-01-13 11:53:41.17	178.87	10.68	
2025-01-13 11:53:41.38	178.88	10.70	
2025-01-13 11:53:41.58	178.89	10.72	
2025-01-13 11:53:41.79	178.90	10.74	
2025-01-13 11:53:41.99	178.91	10.75	
2025-01-13 11:53:42.19	178.92	10.77	
2025-01-13 11:53:42.40	178.93	10.79	
2025-01-13 11:53:42.61	178.94	10.81	
2025-01-13 11:53:42.81	178.95	10.83	
2025-01-13 11:53:43.02	178.96	10.85	
2025-01-13 11:53:43.22	178.97	10.87	
2025-01-13 11:53:43.43	178.98	10.89	
2025-01-13 11:53:43.63	178.99	10.91	
2025-01-13 11:53:43.84	179.01	10.93	
2025-01-13 11:53:44.04	179.02	10.95	
2025-01-13 11:53:44.25	179.03	10.97	
2025-01-13 11:53:44.45	179.04	10.99	
2025-01-13 11:53:44.66	179.05	11.01	
2025-01-13 11:53:44.86	179.06	11.03	
2025-01-13 11:53:45.07	179.07	11.05	
2025-01-13 11:53:45.27	179.08	11.07	
2025-01-13 11:53:45.48	179.09	11.09	
2025-01-13 11:53:45.68	179.10	11.10	
2025-01-13 11:53:45.89	179.11	11.12	
2025-01-13 11:53:46.09	179.12	11.14	
2025-01-13 11:53:46.29	179.13	11.16	
2025-01-13 11:53:46.51	179.14	11.18	
2025-01-13 11:53:46.72	179.15	11.20	
2025-01-13 11:53:46.92	179.16	11.22	
2025-01-13 11:53:47.13	179.17	11.24	
2025-01-13 11:53:47.33	179.18	11.26	
2025-01-13 11:53:47.55	179.19	11.28	
2025-01-13 11:53:47.76	179.20	11.30	
2025-01-13 11:53:47.96	179.21	11.32	
2025-01-13 11:53:48.17	179.22	11.34	
2025-01-13 11:53:48.37	179.23	11.36	
2025-01-13 11:53:48.58	179.25	11.38	
2025-01-13 11:53:48.78	179.26	11.40	
2025-01-13 11:53:48.99	179.27	11.42	
2025-01-13 11:53:49.19	179.28	11.44	
2025-01-13 11:53:49.40	179.29	11.46	
2025-01-13 11:53:49.60	179.30	11.48	
2025-01-13 11:53:49.81	179.31	11.50	
2025-01-13 11:53:50.02	179.32	11.52	
2025-01-13 11:53:50.22	179.33	11.54	
2025-01-13 11:53:50.43	179.34	11.56	
2025-01-13 11:53:50.63	179.35	11.58	
2025-01-13 11:53:50.84	179.36	11.60	
2025-01-13 11:53:51.05	179.37	11.62	
2025-01-13 11:53:51.25	179.38	11.64	
2025-01-13 11:53:51.45	179.39	11.66	
2025-01-13 11:53:51.66	179.41	11.68	
2025-01-13 11:53:51.86	179.42	11.70	
2025-01-13 11:53:52.07	179.43	11.72	
2025-01-13 11:53:52.28	179.44	11.74	
2025-01-13 11:53:52.48	179.45	11.76	
2025-01-13 11:53:52.69	179.46	11.78	
2025-01-13 11:53:52.89	179.47	11.80	
2025-01-13 11:53:53.10	179.48	11.82	
2025-01-13 11:53:53.30	179.49	11.84	
2025-01-13 11:53:53.51	179.50	11.87	
2025-01-13 11:53:53.72	179.51	11.89	
2025-01-13 11:53:53.93	179.53	11.91	
2025-01-13 11:53:54.14	179.54	11.93	
2025-01-13 11:53:54.34	179.55	11.95	
2025-01-13 11:53:54.55	179.56	11.97	
2025-01-13 11:53:54.75	179.57	11.99	
2025-01-13 11:53:54.96	179.58	12.01	
2025-01-13 11:53:55.16	179.59	12.03	
2025-01-13 11:53:55.37	179.60	12.05	
2025-01-13 11:53:55.57	179.61	12.07	
2025-01-13 11:53:55.78	179.63	12.09	
2025-01-13 11:53:55.98	179.64	12.11	
2025-01-13 11:53:56.18	179.65	12.13	
2025-01-13 11:53:56.39	179.66	12.15	
2025-01-13 11:53:56.59	179.67	12.17	
2025-01-13 11:53:56.80	179.68	12.19	
2025-01-13 11:53:57.00	179.69	12.21	
2025-01-13 11:53:57.20	179.70	12.23	
2025-01-13 11:53:57.41	179.71	12.25	
2025-01-13 11:53:57.61	179.72	12.27	
2025-01-13 11:53:57.82	179.74	12.29	
2025-01-13 11:53:58.03	179.75	12.32	
2025-01-13 11:53:58.23	179.76	12.34	
2025-01-13 11:53:58.44	179.77	12.36	
2025-01-13 11:53:58.64	179.78	12.38	
2025-01-13 11:53:58.85	179.79	12.40	
2025-01-13 11:53:59.06	179.80	12.42	
2025-01-13 11:53:59.26	179.82	12.44	
2025-01-13 11:53:59.46	179.83	12.46	
2025-01-13 11:53:59.67	179.84	12.48	
2025-01-13 11:53:59.88	179.85	12.50	
2025-01-13 11:54:00.08	179.86	12.52	
2025-01-13 11:54:00.28	179.87	12.54	
2025-01-13 11:54:00.49	179.88	12.57	
2025-01-13 11:54:00.69	179.89	12.59	
2025-01-13 11:54:00.90	179.91	12.61	
2025-01-13 11:54:01.10	179.92	12.63	
2025-01-13 11:54:01.30	179.93	12.65	
2025-01-13 11:54:01.51	179.94	12.67	
2025-01-13 11:54:01.71	179.95	12.69	
2025-01-13 11:54:01.92	179.96	12.71	
2025-01-13 11:54:02.12	179.98	12.73	
2025-01-13 11:54:02.33	179.99	12.75	
2025-01-13 11:54:02.53	180.00	12.77	
2025-01-13 11:54:02.74	180.01	12.80	
2025-01-13 11:54:02.94	180.02	12.82	
2025-01-13 11:54:03.15	180.03	12.84	
2025-01-13 11:54:03.35	180.04	12.86	
2025-01-13 11:54:03.55	180.06	12.88	
2025-01-13 11:54:03.76	180.07	12.90	
2025-01-13 11:54:03.97	180.08	12.92	
2025-01-13 11:54:04.17	180.09	12.94	
2025-01-13 11:54:04.38	180.10	12.96	
2025-01-13 11:54:04.58	180.12	12.99	
2025-01-13 11:54:04.79	180.13	13.01	
2025-01-13 11:54:04.99	180.14	13.03	
2025-01-13 11:54:05.20	180.15	13.05	
2025-01-13 11:54:05.40	180.16	13.07	
2025-01-13 11:54:05.60	180.17	13.09	
2025-01-13 11:54:05.81	180.19	13.11	
2025-01-13 11:54:06.02	180.20	13.14	
2025-01-13 11:54:06.22	180.21	13.16	
2025-01-13 11:54:06.43	180.22	13.18	
2025-01-13 11:54:06.63	180.23	13.20	
2025-01-13 11:54:06.83	180.25	13.22	
2025-01-13 11:54:07.04	180.26	13.24	
2025-01-13 11:54:07.24	180.27	13.26	
2025-01-13 11:54:07.45	180.28	13.28	
2025-01-13 11:54:07.65	180.29	13.31	
2025-01-13 11:54:07.86	180.31	13.33	
2025-01-13 11:54:08.06	180.32	13.35	
2025-01-13 11:54:08.27	180.33	13.37	
2025-01-13 11:54:08.47	180.34	13.39	
2025-01-13 11:54:08.68	180.35	13.41	
2025-01-13 11:54:08.88	180.37	13.44	
2025-01-13 11:54:09.09	180.38	13.46	
2025-01-13 11:54:09.30	180.39	13.48	
2025-01-13 11:54:09.50	180.40	13.50	
2025-01-13 11:54:09.71	180.42	13.52	
2025-01-13 11:54:09.92	180.43	13.55	
2025-01-13 11:54:10.13	180.44	13.57	
2025-01-13 11:54:10.34	180.45	13.59	
2025-01-13 11:54:10.54	180.46	13.61	
2025-01-13 11:54:10.75	180.48	13.63	
2025-01-13 11:54:10.95	180.49	13.66	
2025-01-13 11:54:11.16	180.50	13.68	
2025-01-13 11:54:11.36	180.51	13.70	
2025-01-13 11:54:11.57	180.53	13.72	
2025-01-13 11:54:11.77	180.54	13.74	
2025-01-13 11:54:11.98	180.55	13.77	
2025-01-13 11:54:12.18	180.56	13.79	
2025-01-13 11:54:12.39	180.58	13.81	
2025-01-13 11:54:12.59	180.59	13.83	
2025-01-13 11:54:12.80	180.60	13.85	
2025-01-13 11:54:13.00	180.61	13.88	
2025-01-13 11:54:13.21	180.63	13.90	
2025-01-13 11:54:13.41	180.64	13.92	
2025-01-13 11:54:13.62	180.65	13.94	
2025-01-13 11:54:13.82	180.66	13.96	
2025-01-13 11:54:14.03	180.68	13.99	
2025-01-13 11:54:14.23	180.69	14.01	
2025-01-13 11:54:14.44	180.70	14.03	
2025-01-13 11:54:14.64	180.71	14.05	
2025-01-13 11:54:14.85	180.73	14.08	
2025-01-13 11:54:15.05	180.74	14.10	
2025-01-13 11:54:15.26	180.75	14.12	
2025-01-13 11:54:15.46	180.77	14.14	
2025-01-13 11:54:15.67	180.78	14.16	
2025-01-13 11:54:15.87	180.79	14.19	
2025-01-13 11:54:16.08	180.80	14.21	
2025-01-13 11:54:16.28	180.82	14.23	
2025-01-13 11:54:16.49	180.83	14.25	
2025-01-13 11:54:16.69	180.84	14.28	
2025-01-13 11:54:16.90	180.86	14.30	
2025-01-13 11:54:17.10	180.87	14.32	
2025-01-13 11:54:17.31	180.88	14.34	
2025-01-13 11:54:17.51	180.89	14.37	
2025-01-13 11:54:17.72	180.91	14.39	
2025-01-13 11:54:17.92	180.92	14.41	
2025-01-13 11:54:18.13	180.93	14.43	
2025-01-13 11:54:18.33	180.95	14.46	
2025-01-13 11:54:18.54	180.96	14.48	
2025-01-13 11:54:18.75	180.97	14.50	
2025-01-13 11:54:18.95	180.98	14.53	
2025-01-13 11:54:19.16	181.00	14.55	
2025-01-13 11:54:19.36	181.01	14.57	
2025-01-13 11:54:19.57	181.02	14.59	
2025-01-13 11:54:19.77	181.04	14.62	
2025-01-13 11:54:19.98	181.05	14.64	
2025-01-13 11:54:20.18	181.06	14.66	
2025-01-13 11:54:20.39	181.08	14.69	
2025-01-13 11:54:20.60	181.09	14.71	
2025-01-13 11:54:20.80	181.10	14.73	
2025-01-13 11:54:21.01	181.12	14.75	
2025-01-13 11:54:21.22	181.13	14.78	
2025-01-13 11:54:21.42	181.14	14.80	
2025-01-13 11:54:21.62	181.16	14.82	
2025-01-13 11:54:21.83	181.17	14.85	
2025-01-13 11:54:22.04	181.18	14.87	
2025-01-13 11:54:22.24	181.20	14.89	
2025-01-13 11:54:22.45	181.21	14.92	
2025-01-13 11:54:22.65	181.22	14.94	
2025-01-13 11:54:22.85	181.24	14.96	
2025-01-13 11:54:23.06	181.25	14.99	
2025-01-13 11:54:23.26	181.26	15.01	
2025-01-13 11:54:23.47	181.28	15.03	
2025-01-13 11:54:23.67	181.29	15.05	
2025-01-13 11:54:23.88	181.31	15.08	
2025-01-13 11:54:24.08	181.32	15.10	
2025-01-13 11:54:24.29	181.33	15.13	
2025-01-13 11:54:24.49	181.35	15.15	
2025-01-13 11:54:24.70	181.36	15.17	
2025-01-13 11:54:24.91	181.37	15.20	
2025-01-13 11:54:25.11	181.39	15.22	
2025-01-13 11:54:25.32	181.40	15.24	
2025-01-13 11:54:25.52	181.41	15.27	
2025-01-13 11:54:25.73	181.43	15.29	
2025-01-13 11:54:25.93	181.44	15.31	
2025-01-13 11:54:26.14	181.46	15.34	
2025-01-13 11:54:26.34	181.47	15.36	
2025-01-13 11:54:26.55	181.48	15.38	
2025-01-13 11:54:26.75	181.50	15.41	
2025-01-13 11:54:26.96	181.51	15.43	
2025-01-13 11:54:27.16	181.53	15.45	
2025-01-13 11:54:27.37	181.54	15.48	
2025-01-13 11:54:27.57	181.55	15.50	
2025-01-13 11:54:27.78	181.57	15.53	
2025-01-13 11:54:27.99	181.58	15.55	
2025-01-13 11:54:28.19	181.60	15.57	
2025-01-13 11:54:28.39	181.61	15.60	
2025-01-13 11:54:28.60	181.62	15.62	
2025-01-13 11:54:28.81	181.64	15.64	
2025-01-13 11:54:29.01	181.65	15.67	
2025-01-13 11:54:29.22	181.67	15.69	
2025-01-13 11:54:29.42	181.68	15.72	
2025-01-13 11:54:29.63	181.69	15.74	
2025-01-13 11:54:29.83	181.71	15.76	
2025-01-13 11:54:30.04	181.72	15.79	
2025-01-13 11:54:30.24	181.74	15.81	
2025-01-13 11:54:30.45	181.75	15.84	
2025-01-13 11:54:30.66	181.77	15.86	
2025-01-13 11:54:30.86	181.78	15.88	
2025-01-13 11:54:31.07	181.79	15.91	
2025-01-13 11:54:31.27	181.81	15.93	
2025-01-13 11:54:31.48	181.82	15.96	
2025-01-13 11:54:31.68	181.84	15.98	
2025-01-13 11:54:31.89	181.85	16.01	
2025-01-13 11:54:32.09	181.87	16.03	
2025-01-13 11:54:32.30	181.88	16.05	
2025-01-13 11:54:32.50	181.90	16.08	
2025-01-13 11:54:32.71	181.91	16.10	
2025-01-13 11:54:32.91	181.92	16.13	
2025-01-13 11:54:33.12	181.94	16.15	
2025-01-13 11:54:33.32	181.95	16.18	
2025-01-13 11:54:33.53	181.97	16.20	
2025-01-13 11:54:33.73	181.98	16.22	
2025-01-13 11:54:33.94	182.00	16.25	
2025-01-13 11:54:34.14	182.01	16.27	
2025-01-13 11:54:34.35	182.03	16.30	
2025-01-13 11:54:34.55	182.04	16.32	
2025-01-13 11:54:34.76	182.06	16.35	
2025-01-13 11:54:34.96	182.07	16.37	
2025-01-13 11:54:35.17	182.09	16.40	
2025-01-13 11:54:35.38	182.10	16.42	
2025-01-13 11:54:35.58	182.12	16.45	
2025-01-13 11:54:35.78	182.13	16.47	
2025-01-13 11:54:35.99	182.15	16.49	
2025-01-13 11:54:36.19	182.16	16.52	
2025-01-13 11:54:36.40	182.18	16.54	
2025-01-13 11:54:36.60	182.19	16.57	
2025-01-13 11:54:36.81	182.21	16.59	
2025-01-13 11:54:37.01	182.22	16.62	
2025-01-13 11:54:37.22	182.24	16.64	
2025-01-13 11:54:37.42	182.25	16.67	
2025-01-13 11:54:37.63	182.27	16.69	
2025-01-13 11:54:37.83	182.28	16.72	
2025-01-13 11:54:38.04	182.30	16.74	
2025-01-13 11:54:38.24	182.31	16.77	
2025-01-13 11:54:38.45	182.33	16.79	
2025-01-13 11:54:38.65	182.34	16.82	
2025-01-13 11:54:38.86	182.36	16.84	
2025-01-13 11:54:39.06	182.37	16.87	
2025-01-13 11:54:39.27	182.39	16.89	
2025-01-13 11:54:39.47	182.40	16.92	
2025-01-13 11:54:39.68	182.42	16.94	
2025-01-13 11:54:39.88	182.43	16.97	
2025-01-13 11:54:40.09	182.45	16.99	
2025-01-13 11:54:40.29	182.46	17.02	
2025-01-13 11:54:40.50	182.48	17.04	
2025-01-13 11:54:40.70	182.50	17.07	
2025-01-13 11:54:40.90	182.51	17.09	
2025-01-13 11:54:41.11	182.53	17.12	
2025-01-13 11:54:41.32	182.54	17.15	
2025-01-13 11:54:41.52	182.56	17.17	
2025-01-13 11:54:41.73	182.57	17.20	
2025-01-13 11:54:41.94	182.59	17.22	
2025-01-13 11:54:42.15	182.61	17.25	
2025-01-13 11:54:42.36	182.62	17.28	
2025-01-13 11:54:42.56	182.64	17.30	
2025-01-13 11:54:42.76	182.65	17.33	
2025-01-13 11:54:42.97	182.67	17.35	
2025-01-13 11:54:43.17	182.68	17.38	
2025-01-13 11:54:43.38	182.70	17.40	
2025-01-13 11:54:43.58	182.72	17.43	
2025-01-13 11:54:43.79	182.73	17.45	
2025-01-13 11:54:43.99	182.75	17.48	
2025-01-13 11:54:44.20	182.76	17.51	
2025-01-13 11:54:44.40	182.78	17.53	
2025-01-13 11:54:44.61	182.80	17.56	
2025-01-13 11:54:44.81	182.81	17.58	
2025-01-13 11:54:45.02	182.83	17.61	
2025-01-13 11:54:45.22	182.84	17.63	
2025-01-13 11:54:45.43	182.86	17.66	
2025-01-13 11:54:45.63	182.88	17.69	
2025-01-13 11:54:45.84	182.89	17.71	
2025-01-13 11:54:46.04	182.91	17.74	
2025-01-13 11:54:46.24	182.92	17.76	
2025-01-13 11:54:46.45	182.94	17.79	
2025-01-13 11:54:46.65	182.96	17.82	
2025-01-13 11:54:46.86	182.97	17.84	
2025-01-13 11:54:47.06	182.99	17.87	
2025-01-13 11:54:47.28	183.01	17.90	
2025-01-13 11:54:47.49	183.02	17.92	
2025-01-13 11:54:47.69	183.04	17.95	
2025-01-13 11:54:47.90	183.06	17.98	
2025-01-13 11:54:48.10	183.07	18.00	
2025-01-13 11:54:48.30	183.09	18.03	
2025-01-13 11:54:48.51	183.11	18.05	
2025-01-13 11:54:48.72	183.12	18.08	
2025-01-13 11:54:48.92	183.14	18.11	
2025-01-13 11:54:49.13	183.16	18.13	
2025-01-13 11:54:49.33	183.17	18.16	
2025-01-13 11:54:49.54	183.19	18.19	
2025-01-13 11:54:49.74	183.21	18.21	
2025-01-13 11:54:49.95	183.22	18.24	
2025-01-13 11:54:50.15	183.24	18.27	
2025-01-13 11:54:50.35	183.26	18.29	
2025-01-13 11:54:50.56	183.27	18.32	
2025-01-13 11:54:50.76	183.29	18.35	
2025-01-13 11:54:50.97	183.31	18.37	
2025-01-13 11:54:51.17	183.32	18.40	
2025-01-13 11:54:51.38	183.34	18.43	
2025-01-13 11:54:51.58	183.36	18.45	
2025-01-13 11:54:51.79	183.38	18.48	
2025-01-13 11:54:51.99	183.39	18.51	
2025-01-13 11:54:52.20	183.41	18.53	
2025-01-13 11:54:52.40	183.43	18.56	
2025-01-13 11:54:52.60	183.44	18.59	
2025-01-13 11:54:52.81	183.46	18.61	
2025-01-13 11:54:53.01	183.48	18.64	
2025-01-13 11:54:53.22	183.49	18.67	
2025-01-13 11:54:53.43	183.51	18.70	
2025-01-13 11:54:53.63	183.53	18.72	
2025-01-13 11:54:53.83	183.55	18.75	
2025-01-13 11:54:54.04	183.56	18.78	
2025-01-13 11:54:54.24	183.58	18.80	
2025-01-13 11:54:54.45	183.60	18.83	
2025-01-13 11:54:54.66	183.62	18.86	
2025-01-13 11:54:54.87	183.63	18.89	
2025-01-13 11:54:55.08	183.65	18.92	
2025-01-13 11:54:55.28	183.67	18.94	
2025-01-13 11:54:55.49	183.69	18.97	
2025-01-13 11:54:55.69	183.71	19.00	
2025-01-13 11:54:55.90	183.72	19.02	
2025-01-13 11:54:56.10	183.74	19.05	
2025-01-13 11:54:56.31	183.76	19.08	
2025-01-13 11:54:56.51	183.78	19.11	
2025-01-13 11:54:56.71	183.79	19.13	
2025-01-13 11:54:56.92	183.81	19.16	
2025-01-13 11:54:57.12	183.83	19.19	
2025-01-13 11:54:57.33	183.85	19.22	
2025-01-13 11:54:57.53	183.86	19.24	
2025-01-13 11:54:57.74	183.88	19.27	
2025-01-13 11:54:57.94	183.90	19.30	
2025-01-13 11:54:58.15	183.92	19.33	
2025-01-13 11:54:58.35	183.94	19.36	
2025-01-13 11:54:58.56	183.96	19.38	
2025-01-13 11:54:58.77	183.97	19.41	
2025-01-13 11:54:58.97	183.99	19.44	
2025-01-13 11:54:59.17	184.01	19.47	
2025-01-13 11:54:59.38	184.03	19.50	
2025-01-13 11:54:59.59	184.05	19.52	
2025-01-13 11:54:59.79	184.06	19.55	
2025-01-13 11:55:00.00	184.08	19.58	
2025-01-13 11:55:00.20	184.10	19.61	
2025-01-13 11:55:00.41	184.12	19.64	
2025-01-13 11:55:00.61	184.14	19.66	
2025-01-13 11:55:00.82	184.16	19.69	
2025-01-13 11:55:01.02	184.17	19.72	
2025-01-13 11:55:01.22	184.19	19.75	
2025-01-13 11:55:01.43	184.21	19.78	
2025-01-13 11:55:01.64	184.23	19.81	
2025-01-13 11:55:01.84	184.25	19.83	
2025-01-13 11:55:02.05	184.27	19.86	
2025-01-13 11:55:02.25	184.29	19.89	
2025-01-13 11:55:02.45	184.30	19.92	
2025-01-13 11:55:02.66	184.32	19.95	
2025-01-13 11:55:02.87	184.34	19.98	
2025-01-13 11:55:03.07	184.36	20.00	
2025-01-13 11:55:03.28	184.38	20.03	
2025-01-13 11:55:03.48	184.40	20.06	
2025-01-13 11:55:03.69	184.42	20.09	
2025-01-13 11:55:03.89	184.44	20.12	
2025-01-13 11:55:04.10	184.46	20.15	
2025-01-13 11:55:04.30	184.48	20.18	
2025-01-13 11:55:04.51	184.49	20.21	
2025-01-13 11:55:04.72	184.51	20.24	
2025-01-13 11:55:04.92	184.53	20.26	
2025-01-13 11:55:05.12	184.55	20.29	
2025-01-13 11:55:05.33	184.57	20.32	
2025-01-13 11:55:05.53	184.59	20.35	
2025-01-13 11:55:05.74	184.61	20.38	
2025-01-13 11:55:05.94	184.63	20.41	
2025-01-13 11:55:06.15	184.65	20.44	
2025-01-13 11:55:06.35	184.67	20.47	
2025-01-13 11:55:06.56	184.69	20.50	
2025-01-13 11:55:06.76	184.71	20.52	
2025-01-13 11:55:06.97	184.73	20.55	
2025-01-13 11:55:07.17	184.75	20.58	
2025-01-13 11:55:07.38	184.77	20.61	
2025-01-13 11:55:07.58	184.78	20.64	
2025-01-13 11:55:07.79	184.81	20.67	
2025-01-13 11:55:07.99	184.82	20.70	
2025-01-13 11:55:08.20	184.84	20.73	
2025-01-13 11:55:08.40	184.86	20.76	
2025-01-13 11:55:08.62	184.89	20.79	
2025-01-13 11:55:08.82	184.90	20.82	
2025-01-13 11:55:09.03	184.92	20.85	
2025-01-13 11:55:09.23	184.94	20.88	
2025-01-13 11:55:09.44	184.96	20.91	
2025-01-13 11:55:09.65	184.99	20.94	
2025-01-13 11:55:09.85	185.00	20.97	
2025-01-13 11:55:10.05	185.02	21.00	
2025-01-13 11:55:10.26	185.05	21.03	
2025-01-13 11:55:10.47	185.07	21.06	
2025-01-13 11:55:10.67	185.09	21.09	
2025-01-13 11:55:10.87	185.11	21.12	
2025-01-13 11:55:11.08	185.13	21.15	
2025-01-13 11:55:11.29	185.15	21.18	
2025-01-13 11:55:11.49	185.17	21.21	
2025-01-13 11:55:11.70	185.19	21.24	
2025-01-13 11:55:11.90	185.21	21.27	
2025-01-13 11:55:12.11	185.23	21.30	
2025-01-13 11:55:12.31	185.25	21.33	
2025-01-13 11:55:12.52	185.27	21.36	
2025-01-13 11:55:12.72	185.29	21.39	
2025-01-13 11:55:12.93	185.31	21.42	
2025-01-13 11:55:13.13	185.33	21.45	
2025-01-13 11:55:13.34	185.35	21.48	
2025-01-13 11:55:13.54	185.37	21.51	
2025-01-13 11:55:13.75	185.39	21.54	
2025-01-13 11:55:13.95	185.41	21.57	
2025-01-13 11:55:14.16	185.44	21.60	
2025-01-13 11:55:14.37	185.46	21.63	
2025-01-13 11:55:14.57	185.48	21.66	
2025-01-13 11:55:14.78	185.50	21.69	
2025-01-13 11:55:15.00	185.52	21.73	
2025-01-13 11:55:15.20	185.54	21.76	
2025-01-13 11:55:15.41	185.56	21.79	
2025-01-13 11:55:15.61	185.58	21.82	
2025-01-13 11:55:15.82	185.61	21.85	
2025-01-13 11:55:16.02	185.63	21.88	
2025-01-13 11:55:16.23	185.65	21.91	
2025-01-13 11:55:16.43	185.67	21.94	
2025-01-13 11:55:16.64	185.69	21.97	
2025-01-13 11:55:16.84	185.71	22.00	
2025-01-13 11:55:17.04	185.73	22.03	
2025-01-13 11:55:17.25	185.76	22.06	
2025-01-13 11:55:17.46	185.78	22.10	
2025-01-13 11:55:17.66	185.80	22.13	
2025-01-13 11:55:17.87	185.82	22.16	
2025-01-13 11:55:18.07	185.84	22.19	
2025-01-13 11:55:18.28	185.86	22.22	
2025-01-13 11:55:18.48	185.89	22.25	
2025-01-13 11:55:18.69	185.91	22.28	
2025-01-13 11:55:18.89	185.93	22.31	
2025-01-13 11:55:19.10	185.95	22.35	
2025-01-13 11:55:19.30	185.97	22.38	
2025-01-13 11:55:19.51	186.00	22.41	
2025-01-13 11:55:19.71	186.02	22.44	
2025-01-13 11:55:19.92	186.04	22.47	
2025-01-13 11:55:20.13	186.06	22.50	
2025-01-13 11:55:20.33	186.09	22.53	
2025-01-13 11:55:20.53	186.11	22.56	
2025-01-13 11:55:20.74	186.13	22.60	
2025-01-13 11:55:20.94	186.15	22.63	
2025-01-13 11:55:21.15	186.17	22.66	
2025-01-13 11:55:21.35	186.20	22.69	
2025-01-13 11:55:21.56	186.22	22.72	
2025-01-13 11:55:21.76	186.24	22.76	
2025-01-13 11:55:21.97	186.26	22.79	
2025-01-13 11:55:22.18	186.29	22.82	
2025-01-13 11:55:22.38	186.31	22.85	
2025-01-13 11:55:22.59	186.33	22.88	
2025-01-13 11:55:22.79	186.36	22.92	
2025-01-13 11:55:22.99	186.38	22.95	
2025-01-13 11:55:23.20	186.40	22.98	
2025-01-13 11:55:23.40	186.42	23.01	
2025-01-13 11:55:23.61	186.45	23.04	
2025-01-13 11:55:23.82	186.47	23.08	
2025-01-13 11:55:24.02	186.49	23.11	
2025-01-13 11:55:24.23	186.52	23.14	
2025-01-13 11:55:24.43	186.54	23.17	
2025-01-13 11:55:24.64	186.56	23.21	
2025-01-13 11:55:24.84	186.59	23.24	
2025-01-13 11:55:25.05	186.61	23.27	
2025-01-13 11:55:25.25	186.63	23.30	
2025-01-13 11:55:25.46	186.66	23.34	
2025-01-13 11:55:25.66	186.68	23.37	
2025-01-13 11:55:25.86	186.70	23.40	
2025-01-13 11:55:26.07	186.73	23.43	
2025-01-13 11:55:26.27	186.75	23.47	
2025-01-13 11:55:26.48	186.77	23.50	
2025-01-13 11:55:26.68	186.80	23.53	
2025-01-13 11:55:26.89	186.82	23.56	
2025-01-13 11:55:27.10	186.84	23.60	
2025-01-13 11:55:27.31	186.87	23.63	
2025-01-13 11:55:27.52	186.89	23.67	
2025-01-13 11:55:27.72	186.92	23.70	
2025-01-13 11:55:27.93	186.94	23.73	
2025-01-13 11:55:28.13	186.97	23.76	
2025-01-13 11:55:28.34	186.99	23.80	
2025-01-13 11:55:28.55	187.01	23.83	
2025-01-13 11:55:28.75	187.04	23.86	
2025-01-13 11:55:28.95	187.06	23.90	
2025-01-13 11:55:29.16	187.09	23.93	
2025-01-13 11:55:29.36	187.11	23.96	
2025-01-13 11:55:29.57	187.14	24.00	
2025-01-13 11:55:29.77	187.16	24.03	
2025-01-13 11:55:29.98	187.18	24.06	
2025-01-13 11:55:30.19	187.21	24.10	
2025-01-13 11:55:30.39	187.23	24.13	
2025-01-13 11:55:30.60	187.26	24.17	
2025-01-13 11:55:30.80	187.28	24.20	
2025-01-13 11:55:31.02	187.31	24.23	
2025-01-13 11:55:31.22	187.33	24.27	
2025-01-13 11:55:31.43	187.36	24.30	
2025-01-13 11:55:31.64	187.38	24.34	
2025-01-13 11:55:31.84	187.41	24.37	
2025-01-13 11:55:32.04	187.43	24.40	
2025-01-13 11:55:32.25	187.46	24.44	
2025-01-13 11:55:32.45	187.48	24.47	
2025-01-13 11:55:32.66	187.51	24.50	
2025-01-13 11:55:32.87	187.54	24.54	
2025-01-13 11:55:33.07	187.56	24.57	
2025-01-13 11:55:33.28	187.59	24.61	
2025-01-13 11:55:33.48	187.61	24.64	
2025-01-13 11:55:33.69	187.64	24.68	
2025-01-13 11:55:33.89	187.66	24.71	
2025-01-13 11:55:34.09	187.69	24.74	
2025-01-13 11:55:34.30	187.71	24.78	
2025-01-13 11:55:34.51	187.74	24.81	
2025-01-13 11:55:34.72	187.77	24.85	
2025-01-13 11:55:34.93	187.79	24.88	
2025-01-13 11:55:35.13	187.82	24.92	
2025-01-13 11:55:35.34	187.84	24.95	
2025-01-13 11:55:35.54	187.87	24.99	
2025-01-13 11:55:35.74	187.90	25.02	
2025-01-13 11:55:35.95	187.92	25.06	
2025-01-13 11:55:36.15	187.95	25.09	
2025-01-13 11:55:36.36	187.97	25.12	
2025-01-13 11:55:36.56	188.00	25.16	
2025-01-13 11:55:36.77	188.03	25.19	
2025-01-13 11:55:36.98	188.05	25.23	
2025-01-13 11:55:37.18	188.08	25.26	
2025-01-13 11:55:37.39	188.11	25.30	
2025-01-13 11:55:37.59	188.13	25.33	
2025-01-13 11:55:37.80	188.16	25.37	
2025-01-13 11:55:38.00	188.19	25.40	
2025-01-13 11:55:38.21	188.21	25.44	
2025-01-13 11:55:38.41	188.24	25.47	
2025-01-13 11:55:38.62	188.27	25.51	
2025-01-13 11:55:38.82	188.29	25.55	
2025-01-13 11:55:39.03	188.32	25.58	
2025-01-13 11:55:39.23	188.35	25.62	
2025-01-13 11:55:39.44	188.38	25.65	
2025-01-13 11:55:39.64	188.40	25.69	
2025-01-13 11:55:39.86	188.43	25.72	
2025-01-13 11:55:40.06	188.46	25.76	
2025-01-13 11:55:40.27	188.49	25.80	
2025-01-13 11:55:40.47	188.51	25.83	
2025-01-13 11:55:40.67	188.54	25.87	
2025-01-13 11:55:40.88	188.57	25.90	
2025-01-13 11:55:41.09	188.60	25.94	
2025-01-13 11:55:41.29	188.62	25.97	
2025-01-13 11:55:41.50	188.65	26.01	
2025-01-13 11:55:41.70	188.68	26.05	
2025-01-13 11:55:41.91	188.71	26.08	
2025-01-13 11:55:42.11	188.73	26.12	
2025-01-13 11:55:42.32	188.76	26.15	
2025-01-13 11:55:42.53	188.79	26.19	
2025-01-13 11:55:42.73	188.82	26.23	
2025-01-13 11:55:42.93	188.85	26.26	
2025-01-13 11:55:43.14	188.88	26.30	
2025-01-13 11:55:43.35	188.91	26.34	
2025-01-13 11:55:43.55	188.93	26.37	
2025-01-13 11:55:43.75	188.96	26.41	
2025-01-13 11:55:43.96	188.99	26.44	
2025-01-13 11:55:44.16	189.02	26.48	
2025-01-13 11:55:44.37	189.05	26.52	
2025-01-13 11:55:44.57	189.08	26.55	
2025-01-13 11:55:44.78	189.10	26.59	
2025-01-13 11:55:44.98	189.13	26.63	
2025-01-13 11:55:45.19	189.16	26.66	
2025-01-13 11:55:45.39	189.19	26.70	
2025-01-13 11:55:45.60	189.22	26.74	
2025-01-13 11:55:45.81	189.25	26.77	
2025-01-13 11:55:46.03	189.28	26.81	
2025-01-13 11:55:46.23	189.31	26.85	
2025-01-13 11:55:46.44	189.34	26.89	
2025-01-13 11:55:46.65	189.37	26.93	
2025-01-13 11:55:46.85	189.40	26.96	
2025-01-13 11:55:47.06	189.43	27.00	
2025-01-13 11:55:47.26	189.46	27.04	
2025-01-13 11:55:47.47	189.49	27.07	
2025-01-13 11:55:47.67	189.52	27.11	
2025-01-13 11:55:47.88	189.55	27.15	
2025-01-13 11:55:48.08	189.58	27.19	
2025-01-13 11:55:48.29	189.61	27.22	
2025-01-13 11:55:48.49	189.64	27.26	
2025-01-13 11:55:48.70	189.67	27.30	
2025-01-13 11:55:48.90	189.70	27.34	
2025-01-13 11:55:49.11	189.73	27.37	
2025-01-13 11:55:49.31	189.76	27.41	
2025-01-13 11:55:49.52	189.79	27.45	
2025-01-13 11:55:49.72	189.82	27.49	
2025-01-13 11:55:49.93	189.85	27.52	
2025-01-13 11:55:50.13	189.88	27.56	
2025-01-13 11:55:50.34	189.91	27.60	
2025-01-13 11:55:50.54	189.94	27.64	
2025-01-13 11:55:50.75	189.97	27.68	
2025-01-13 11:55:50.96	190.01	27.71	
2025-01-13 11:55:51.16	190.04	27.75	
2025-01-13 11:55:51.36	190.07	27.79	
2025-01-13 11:55:51.57	190.10	27.83	
2025-01-13 11:55:51.77	190.13	27.87	
2025-01-13 11:55:51.98	190.16	27.90	
2025-01-13 11:55:52.18	190.19	27.94	
2025-01-13 11:55:52.39	190.22	27.98	
2025-01-13 11:55:52.59	190.25	28.02	
2025-01-13 11:55:52.80	190.29	28.06	
2025-01-13 11:55:53.01	190.32	28.10	
2025-01-13 11:55:53.21	190.35	28.14	
2025-01-13 11:55:53.41	190.38	28.17	
2025-01-13 11:55:53.62	190.41	28.21	
2025-01-13 11:55:53.83	190.45	28.25	
2025-01-13 11:55:54.03	190.48	28.29	
2025-01-13 11:55:54.24	190.51	28.33	
2025-01-13 11:55:54.44	190.54	28.37	
2025-01-13 11:55:54.64	190.57	28.41	
2025-01-13 11:55:54.85	190.61	28.45	
2025-01-13 11:55:55.06	190.64	28.49	
2025-01-13 11:55:55.26	190.67	28.52	
2025-01-13 11:55:55.47	190.70	28.56	
2025-01-13 11:55:55.67	190.74	28.60	
2025-01-13 11:55:55.88	190.77	28.64	
2025-01-13 11:55:56.08	190.80	28.68	
2025-01-13 11:55:56.29	190.84	28.72	
2025-01-13 11:55:56.50	190.87	28.76	
2025-01-13 11:55:56.71	190.90	28.80	
2025-01-13 11:55:56.92	190.94	28.84	
2025-01-13 11:55:57.12	190.97	28.88	
2025-01-13 11:55:57.33	191.00	28.92	
2025-01-13 11:55:57.54	191.04	28.96	
2025-01-13 11:55:57.74	191.07	29.00	
2025-01-13 11:55:57.94	191.10	29.04	
2025-01-13 11:55:58.15	191.14	29.08	
2025-01-13 11:55:58.35	191.17	29.12	
2025-01-13 11:55:58.56	191.21	29.16	
2025-01-13 11:55:58.76	191.24	29.20	
2025-01-13 11:55:58.97	191.27	29.24	
2025-01-13 11:55:59.18	191.31	29.28	
2025-01-13 11:55:59.38	191.34	29.32	
2025-01-13 11:55:59.59	191.38	29.36	
2025-01-13 11:55:59.79	191.41	29.40	
2025-01-13 11:56:00.00	191.45	29.44	
2025-01-13 11:56:00.20	191.48	29.48	
2025-01-13 11:56:00.41	191.51	29.52	
2025-01-13 11:56:00.62	191.55	29.56	
2025-01-13 11:56:00.82	191.58	29.60	
2025-01-13 11:56:01.02	191.62	29.64	
2025-01-13 11:56:01.23	191.65	29.68	
2025-01-13 11:56:01.43	191.69	29.72	
2025-01-13 11:56:01.64	191.72	29.76	
2025-01-13 11:56:01.85	191.76	29.80	
2025-01-13 11:56:02.05	191.79	29.84	
2025-01-13 11:56:02.26	191.83	29.89	
2025-01-13 11:56:02.46	191.87	29.93	
2025-01-13 11:56:02.67	191.90	29.97	
2025-01-13 11:56:02.87	191.94	30.01	
2025-01-13 11:56:03.07	191.97	30.05	
2025-01-13 11:56:03.28	192.01	30.09	
2025-01-13 11:56:03.49	192.05	30.13	
2025-01-13 11:56:03.69	192.08	30.17	
2025-01-13 11:56:03.90	192.12	30.21	
2025-01-13 11:56:04.10	192.15	30.25	
2025-01-13 11:56:04.31	192.19	30.30	
2025-01-13 11:56:04.51	192.23	30.34	
2025-01-13 11:56:04.72	192.26	30.38	
2025-01-13 11:56:04.92	192.30	30.42	
2025-01-13 11:56:05.12	192.33	30.46	
2025-01-13 11:56:05.33	192.37	30.50	
2025-01-13 11:56:05.53	192.41	30.54	
2025-01-13 11:56:05.74	192.45	30.58	
2025-01-13 11:56:05.94	192.48	30.63	
2025-01-13 11:56:06.15	192.52	30.67	
2025-01-13 11:56:06.35	192.56	30.71	
2025-01-13 11:56:06.56	192.60	30.75	
2025-01-13 11:56:06.77	192.63	30.79	
2025-01-13 11:56:06.97	192.67	30.84	
2025-01-13 11:56:07.18	192.71	30.88	
2025-01-13 11:56:07.38	192.75	30.92	
2025-01-13 11:56:07.59	192.78	30.96	
2025-01-13 11:56:07.79	192.82	31.00	
2025-01-13 11:56:08.00	192.86	31.05	
2025-01-13 11:56:08.20	192.90	31.09	
2025-01-13 11:56:08.42	192.94	31.13	
2025-01-13 11:56:08.63	192.98	31.18	
2025-01-13 11:56:08.83	193.02	31.22	
2025-01-13 11:56:09.04	193.05	31.26	
2025-01-13 11:56:09.25	193.09	31.30	
2025-01-13 11:56:09.45	193.13	31.35	
2025-01-13 11:56:09.66	193.17	31.39	
2025-01-13 11:56:09.86	193.21	31.43	
2025-01-13 11:56:10.07	193.25	31.48	
2025-01-13 11:56:10.27	193.29	31.52	
2025-01-13 11:56:10.47	193.33	31.56	
2025-01-13 11:56:10.68	193.37	31.60	
2025-01-13 11:56:10.88	193.41	31.64	
2025-01-13 11:56:11.09	193.45	31.69	
2025-01-13 11:56:11.30	193.49	31.73	
2025-01-13 11:56:11.50	193.53	31.77	
2025-01-13 11:56:11.70	193.56	31.82	
2025-01-13 11:56:11.92	193.61	31.86	
2025-01-13 11:56:12.12	193.65	31.90	
2025-01-13 11:56:12.33	193.69	31.95	
2025-01-13 11:56:12.54	193.73	31.99	
2025-01-13 11:56:12.74	193.77	32.04	
2025-01-13 11:56:12.94	193.81	32.08	
2025-01-13 11:56:13.15	193.85	32.12	
2025-01-13 11:56:13.36	193.89	32.17	
2025-01-13 11:56:13.56	193.93	32.21	
2025-01-13 11:56:13.78	193.98	32.26	
2025-01-13 11:56:13.99	194.02	32.30	
2025-01-13 11:56:14.19	194.06	32.34	
2025-01-13 11:56:14.40	194.10	32.39	
2025-01-13 11:56:14.60	194.14	32.43	
2025-01-13 11:56:14.81	194.18	32.48	
2025-01-13 11:56:15.01	194.22	32.52	
2025-01-13 11:56:15.21	194.27	32.56	
2025-01-13 11:56:15.42	194.31	32.61	
2025-01-13 11:56:15.63	194.35	32.65	
2025-01-13 11:56:15.84	194.39	32.70	
2025-01-13 11:56:16.05	194.44	32.74	
2025-01-13 11:56:16.26	194.48	32.79	
2025-01-13 11:56:16.46	194.52	32.83	
2025-01-13 11:56:16.67	194.57	32.88	
2025-01-13 11:56:16.87	194.61	32.92	
2025-01-13 11:56:17.08	194.65	32.97	
2025-01-13 11:56:17.28	194.69	33.01	
2025-01-13 11:56:17.49	194.74	33.06	
2025-01-13 11:56:17.69	194.78	33.10	
2025-01-13 11:56:17.90	194.82	33.14	
2025-01-13 11:56:18.10	194.87	33.19	
2025-01-13 11:56:18.31	194.91	33.23	
2025-01-13 11:56:18.51	194.95	33.28	
2025-01-13 11:56:18.72	195.00	33.32	
2025-01-13 11:56:18.93	195.04	33.37	
2025-01-13 11:56:19.13	195.09	33.41	
2025-01-13 11:56:19.34	195.13	33.46	
2025-01-13 11:56:19.54	195.18	33.50	
2025-01-13 11:56:19.75	195.22	33.55	
2025-01-13 11:56:19.95	195.26	33.59	
2025-01-13 11:56:20.16	195.31	33.64	
2025-01-13 11:56:20.36	195.35	33.69	
2025-01-13 11:56:20.57	195.40	33.73	
2025-01-13 11:56:20.77	195.44	33.78	
2025-01-13 11:56:20.98	195.49	33.82	
2025-01-13 11:56:21.18	195.53	33.87	
2025-01-13 11:56:21.38	195.58	33.91	
2025-01-13 11:56:21.59	195.63	33.96	
2025-01-13 11:56:21.79	195.67	34.00	
2025-01-13 11:56:22.00	195.72	34.05	
2025-01-13 11:56:22.20	195.76	34.09	
2025-01-13 11:56:22.41	195.81	34.14	
2025-01-13 11:56:22.61	195.85	34.19	
2025-01-13 11:56:22.82	195.90	34.23	
2025-01-13 11:56:23.03	195.95	34.28	
2025-01-13 11:56:23.23	196.00	34.33	
2025-01-13 11:56:23.43	196.04	34.37	
2025-01-13 11:56:23.64	196.09	34.42	
2025-01-13 11:56:23.84	196.13	34.46	
2025-01-13 11:56:24.05	196.18	34.51	
2025-01-13 11:56:24.25	196.23	34.56	
2025-01-13 11:56:24.46	196.28	34.60	
2025-01-13 11:56:24.66	196.32	34.65	
2025-01-13 11:56:24.87	196.37	34.70	
2025-01-13 11:56:25.08	196.42	34.74	
2025-01-13 11:56:25.28	196.47	34.79	
2025-01-13 11:56:25.49	196.52	34.84	
2025-01-13 11:56:25.69	196.57	34.88	
2025-01-13 11:56:25.90	196.61	34.93	
2025-01-13 11:56:26.10	196.66	34.98	
2025-01-13 11:56:26.31	196.71	35.02	
2025-01-13 11:56:26.51	196.76	35.07	
2025-01-13 11:56:26.71	196.81	35.12	
2025-01-13 11:56:26.92	196.86	35.16	
2025-01-13 11:56:27.13	196.91	35.21	
2025-01-13 11:56:27.33	196.96	35.26	
2025-01-13 11:56:27.53	197.00	35.30	
2025-01-13 11:56:27.74	197.06	35.35	
2025-01-13 11:56:27.94	197.10	35.40	
2025-01-13 11:56:28.14	197.15	35.44	
2025-01-13 11:56:28.35	197.20	35.49	
2025-01-13 11:56:28.56	197.26	35.54	
2025-01-13 11:56:28.76	197.30	35.59	
2025-01-13 11:56:28.96	197.35	35.63	
2025-01-13 11:56:29.17	197.41	35.68	
2025-01-13 11:56:29.37	197.46	35.73	
2025-01-13 11:56:29.58	197.51	35.78	
2025-01-13 11:56:29.78	197.56	35.82	
2025-01-13 11:56:29.98	197.61	35.87	
2025-01-13 11:56:30.19	197.66	35.92	
2025-01-13 11:56:30.40	197.71	35.97	
2025-01-13 11:56:30.60	197.76	36.02	
2025-01-13 11:56:30.81	197.82	36.07	
2025-01-13 11:56:31.01	197.87	36.11	
2025-01-13 11:56:31.22	197.92	36.16	
2025-01-13 11:56:31.42	197.97	36.21	
2025-01-13 11:56:31.63	198.03	36.26	
2025-01-13 11:56:31.83	198.08	36.30	
2025-01-13 11:56:32.04	198.13	36.35	
2025-01-13 11:56:32.24	198.18	36.40	
2025-01-13 11:56:32.45	198.24	36.45	
2025-01-13 11:56:32.65	198.29	36.50	
2025-01-13 11:56:32.86	198.34	36.55	
2025-01-13 11:56:33.06	198.40	36.59	
2025-01-13 11:56:33.26	198.45	36.64	
2025-01-13 11:56:33.47	198.50	36.69	
2025-01-13 11:56:33.68	198.56	36.74	
2025-01-13 11:56:33.88	198.61	36.79	
2025-01-13 11:56:34.09	198.67	36.84	
2025-01-13 11:56:34.29	198.72	36.89	
2025-01-13 11:56:34.50	198.78	36.94	
2025-01-13 11:56:34.71	198.83	36.99	
2025-01-13 11:56:34.91	198.89	37.04	
2025-01-13 11:56:35.12	198.94	37.09	
2025-01-13 11:56:35.32	199.00	37.13	
2025-01-13 11:56:35.53	199.06	37.18	
2025-01-13 11:56:35.73	199.11	37.23	
2025-01-13 11:56:35.94	199.17	37.28	
2025-01-13 11:56:36.14	199.22	37.33	
2025-01-13 11:56:36.35	199.28	37.38	
2025-01-13 11:56:36.55	199.33	37.43	
2025-01-13 11:56:36.76	199.39	37.48	
2025-01-13 11:56:36.96	199.45	37.53	
2025-01-13 11:56:37.17	199.51	37.58	
2025-01-13 11:56:37.37	199.56	37.63	
2025-01-13 11:56:37.58	199.62	37.68	
2025-01-13 11:56:37.79	199.68	37.73	
2025-01-13 11:56:37.99	199.74	37.78	
2025-01-13 11:56:38.20	199.80	37.83	
2025-01-13 11:56:38.40	199.85	37.88	
2025-01-13 11:56:38.61	199.91	37.93	
2025-01-13 11:56:38.81	199.97	37.98	
2025-01-13 11:56:39.02	200.03	38.03	
2025-01-13 11:56:39.23	200.09	38.08	
2025-01-13 11:56:39.43	200.15	38.13	
2025-01-13 11:56:39.64	200.21	38.18	
2025-01-13 11:56:39.84	200.26	38.23	
2025-01-13 11:56:40.05	200.33	38.28	
2025-01-13 11:56:40.25	200.38	38.33	
2025-01-13 11:56:40.47	200.45	38.38	
2025-01-13 11:56:40.67	200.51	38.43	
2025-01-13 11:56:40.88	200.57	38.48	
2025-01-13 11:56:41.08	200.63	38.53	
2025-01-13 11:56:41.29	200.69	38.58	
2025-01-13 11:56:41.49	200.75	38.63	
2025-01-13 11:56:41.69	200.81	38.68	
2025-01-13 11:56:41.90	200.87	38.73	
2025-01-13 11:56:42.10	200.93	38.78	
2025-01-13 11:56:42.31	200.99	38.83	
2025-01-13 11:56:42.52	201.06	38.89	
2025-01-13 11:56:42.72	201.12	38.94	
2025-01-13 11:56:42.92	201.18	38.98	
2025-01-13 11:56:43.13	201.24	39.04	
2025-01-13 11:56:43.33	201.30	39.09	
2025-01-13 11:56:43.54	201.37	39.14	
2025-01-13 11:56:43.74	201.43	39.19	
2025-01-13 11:56:43.95	201.49	39.24	
2025-01-13 11:56:44.16	201.56	39.29	
2025-01-13 11:56:44.36	201.62	39.34	
2025-01-13 11:56:44.57	201.68	39.39	
2025-01-13 11:56:44.77	201.75	39.44	
2025-01-13 11:56:44.98	201.81	39.50	
2025-01-13 11:56:45.18	201.88	39.55	
2025-01-13 11:56:45.39	201.94	39.60	
2025-01-13 11:56:45.59	202.00	39.65	
2025-01-13 11:56:45.80	202.07	39.70	
2025-01-13 11:56:46.00	202.13	39.75	
2025-01-13 11:56:46.21	202.20	39.80	
2025-01-13 11:56:46.41	202.27	39.86	
2025-01-13 11:56:46.62	202.33	39.91	
2025-01-13 11:56:46.82	202.40	39.96	
2025-01-13 11:56:47.02	202.46	40.01	
2025-01-13 11:56:47.23	202.53	40.06	
2025-01-13 11:56:47.43	202.59	40.11	
2025-01-13 11:56:47.64	202.66	40.16	
2025-01-13 11:56:47.84	202.73	40.21	
2025-01-13 11:56:48.05	202.80	40.27	
2025-01-13 11:56:48.25	202.86	40.32	
2025-01-13 11:56:48.46	202.93	40.37	
2025-01-13 11:56:48.66	203.00	40.42	
2025-01-13 11:56:48.87	203.07	40.48	
2025-01-13 11:56:49.07	203.13	40.53	
2025-01-13 11:56:49.28	203.21	40.58	
2025-01-13 11:56:49.48	203.27	40.63	
2025-01-13 11:56:49.69	203.34	40.68	
2025-01-13 11:56:49.89	203.41	40.73	
2025-01-13 11:56:50.11	203.48	40.79	
2025-01-13 11:56:50.32	203.56	40.84	
2025-01-13 11:56:50.52	203.62	40.89	
2025-01-13 11:56:50.73	203.70	40.95	
2025-01-13 11:56:50.93	203.76	41.00	
2025-01-13 11:56:51.14	203.84	41.05	
2025-01-13 11:56:51.34	203.91	41.10	
2025-01-13 11:56:51.55	203.98	41.16	
2025-01-13 11:56:51.75	204.05	41.21	
2025-01-13 11:56:51.96	204.12	41.26	
2025-01-13 11:56:52.16	204.19	41.31	
2025-01-13 11:56:52.37	204.27	41.37	
2025-01-13 11:56:52.58	204.34	41.42	
2025-01-13 11:56:52.78	204.41	41.47	
2025-01-13 11:56:52.99	204.48	41.53	
2025-01-13 11:56:53.19	204.56	41.58	
2025-01-13 11:56:53.39	204.63	41.63	
2025-01-13 11:56:53.60	204.70	41.68	
2025-01-13 11:56:53.80	204.77	41.73	
2025-01-13 11:56:54.01	204.85	41.79	
2025-01-13 11:56:54.21	204.92	41.84	
2025-01-13 11:56:54.42	205.00	41.89	
2025-01-13 11:56:54.62	205.07	41.94	
2025-01-13 11:56:54.83	205.15	42.00	
2025-01-13 11:56:55.03	205.22	42.05	
2025-01-13 11:56:55.24	205.30	42.10	
2025-01-13 11:56:55.44	205.37	42.16	
2025-01-13 11:56:55.65	205.45	42.21	
2025-01-13 11:56:55.85	205.52	42.26	
2025-01-13 11:56:56.06	205.60	42.32	
2025-01-13 11:56:56.26	205.68	42.37	
2025-01-13 11:56:56.47	205.76	42.42	
2025-01-13 11:56:56.67	205.83	42.47	
2025-01-13 11:56:56.88	205.91	42.53	
2025-01-13 11:56:57.08	205.99	42.58	
2025-01-13 11:56:57.29	206.07	42.63	
2025-01-13 11:56:57.49	206.14	42.69	
2025-01-13 11:56:57.70	206.22	42.74	
2025-01-13 11:56:57.91	206.30	42.79	
2025-01-13 11:56:58.11	206.38	42.85	
2025-01-13 11:56:58.32	206.46	42.90	
2025-01-13 11:56:58.52	206.54	42.95	
2025-01-13 11:56:58.73	206.62	43.01	
2025-01-13 11:56:58.93	206.70	43.06	
2025-01-13 11:56:59.14	206.78	43.11	
2025-01-13 11:56:59.34	206.86	43.17	
2025-01-13 11:56:59.55	206.94	43.22	
2025-01-13 11:56:59.77	207.03	43.28	
2025-01-13 11:56:59.97	207.11	43.33	
2025-01-13 11:57:00.17	207.19	43.38	
2025-01-13 11:57:00.38	207.27	43.44	
2025-01-13 11:57:00.59	207.35	43.49	
2025-01-13 11:57:00.79	207.44	43.54	
2025-01-13 11:57:01.00	207.52	43.60	
2025-01-13 11:57:01.20	207.60	43.65	
2025-01-13 11:57:01.41	207.69	43.71	
2025-01-13 11:57:01.61	207.77	43.76	
2025-01-13 11:57:01.82	207.85	43.81	
2025-01-13 11:57:02.02	207.94	43.86	
2025-01-13 11:57:02.23	208.02	43.92	
2025-01-13 11:57:02.43	208.10	43.97	
2025-01-13 11:57:02.64	208.19	44.03	
2025-01-13 11:57:02.84	208.27	44.08	
2025-01-13 11:57:03.05	208.36	44.13	
2025-01-13 11:57:03.25	208.45	44.19	
2025-01-13 11:57:03.45	208.53	44.24	
2025-01-13 11:57:03.66	208.62	44.29	
2025-01-13 11:57:03.86	208.70	44.35	
2025-01-13 11:57:04.07	208.79	44.40	
2025-01-13 11:57:04.27	208.88	44.45	
2025-01-13 11:57:04.48	208.97	44.51	
2025-01-13 11:57:04.68	209.05	44.56	
2025-01-13 11:57:04.89	209.14	44.61	
2025-01-13 11:57:05.09	209.23	44.67	
2025-01-13 11:57:05.29	209.32	44.72	
2025-01-13 11:57:05.50	209.41	44.77	
2025-01-13 11:57:05.71	209.50	44.83	
2025-01-13 11:57:05.91	209.59	44.88	
2025-01-13 11:57:06.13	209.68	44.94	
2025-01-13 11:57:06.34	209.78	44.99	
2025-01-13 11:57:06.54	209.86	45.05	
2025-01-13 11:57:06.75	209.96	45.10	
2025-01-13 11:57:06.95	210.05	45.15	
2025-01-13 11:57:07.17	210.14	45.21	
2025-01-13 11:57:07.37	210.23	45.26	
2025-01-13 11:57:07.58	210.33	45.32	
2025-01-13 11:57:07.79	210.42	45.37	
2025-01-13 11:57:07.99	210.51	45.42	
2025-01-13 11:57:08.20	210.61	45.48	
2025-01-13 11:57:08.40	210.70	45.53	
2025-01-13 11:57:08.60	210.79	45.58	
2025-01-13 11:57:08.81	210.89	45.64	
2025-01-13 11:57:09.02	210.98	45.69	
2025-01-13 11:57:09.22	211.08	45.75	
2025-01-13 11:57:09.43	211.17	45.80	
2025-01-13 11:57:09.63	211.27	45.85	
2025-01-13 11:57:09.84	211.36	45.91	
2025-01-13 11:57:10.04	211.46	45.96	
2025-01-13 11:57:10.25	211.56	46.01	
2025-01-13 11:57:10.45	211.65	46.07	
2025-01-13 11:57:10.66	211.75	46.12	
2025-01-13 11:57:10.86	211.85	46.17	
2025-01-13 11:57:11.07	211.95	46.23	
2025-01-13 11:57:11.27	212.04	46.28	
2025-01-13 11:57:11.48	212.14	46.34	
2025-01-13 11:57:11.68	212.24	46.39	
2025-01-13 11:57:11.88	212.33	46.44	
2025-01-13 11:57:12.09	212.44	46.49	
2025-01-13 11:57:12.30	212.54	46.55	
2025-01-13 11:57:12.50	212.64	46.60	
2025-01-13 11:57:12.71	212.74	46.66	
2025-01-13 11:57:12.91	212.84	46.71	
2025-01-13 11:57:13.12	212.94	46.76	
2025-01-13 11:57:13.32	213.04	46.81	
2025-01-13 11:57:13.53	213.14	46.87	
2025-01-13 11:57:13.73	213.24	46.92	
2025-01-13 11:57:13.94	213.35	46.97	
2025-01-13 11:57:14.14	213.45	47.03	
2025-01-13 11:57:14.35	213.55	47.08	
2025-01-13 11:57:14.55	213.65	47.13	
2025-01-13 11:57:14.76	213.76	47.19	
2025-01-13 11:57:14.96	213.86	47.24	
2025-01-13 11:57:15.17	213.97	47.29	
2025-01-13 11:57:15.37	214.07	47.34	
2025-01-13 11:57:15.58	214.18	47.40	
2025-01-13 11:57:15.78	214.28	47.45	
2025-01-13 11:57:15.99	214.39	47.50	
2025-01-13 11:57:16.19	214.49	47.56	
2025-01-13 11:57:16.40	214.60	47.61	
2025-01-13 11:57:16.60	214.71	47.66	
2025-01-13 11:57:16.81	214.82	47.72	
2025-01-13 11:57:17.02	214.93	47.77	
2025-01-13 11:57:17.22	215.03	47.82	
2025-01-13 11:57:17.43	215.15	47.87	
2025-01-13 11:57:17.63	215.25	47.93	
2025-01-13 11:57:17.85	215.37	47.98	
2025-01-13 11:57:18.05	215.48	48.03	
2025-01-13 11:57:18.26	215.59	48.09	
2025-01-13 11:57:18.46	215.70	48.14	
2025-01-13 11:57:18.67	215.81	48.19	
2025-01-13 11:57:18.87	215.92	48.24	
2025-01-13 11:57:19.08	216.03	48.30	
2025-01-13 11:57:19.28	216.14	48.35	
2025-01-13 11:57:19.49	216.26	48.40	
2025-01-13 11:57:19.70	216.37	48.45	
2025-01-13 11:57:19.90	216.48	48.50	
2025-01-13 11:57:20.11	216.60	48.56	
2025-01-13 11:57:20.31	216.71	48.61	
2025-01-13 11:57:20.52	216.83	48.66	
2025-01-13 11:57:20.72	216.94	48.71	
2025-01-13 11:57:20.92	217.05	48.76	
2025-01-13 11:57:21.13	217.17	48.81	
2025-01-13 11:57:21.34	217.29	48.87	
2025-01-13 11:57:21.54	217.40	48.92	
2025-01-13 11:57:21.75	217.52	48.97	
2025-01-13 11:57:21.95	217.63	49.02	
2025-01-13 11:57:22.15	217.75	49.07	
2025-01-13 11:57:22.36	217.87	49.12	
2025-01-13 11:57:22.57	217.99	49.18	
2025-01-13 11:57:22.77	218.10	49.23	
2025-01-13 11:57:22.98	218.23	49.28	
2025-01-13 11:57:23.18	218.34	49.33	
2025-01-13 11:57:23.39	218.47	49.38	
2025-01-13 11:57:23.59	218.58	49.43	
2025-01-13 11:57:23.80	218.71	49.48	
2025-01-13 11:57:24.00	218.82	49.53	
2025-01-13 11:57:24.21	218.95	49.58	
2025-01-13 11:57:24.42	219.07	49.63	
2025-01-13 11:57:24.62	219.19	49.68	
2025-01-13 11:57:24.83	219.32	49.74	
2025-01-13 11:57:25.04	219.44	49.79	
2025-01-13 11:57:25.24	219.56	49.84	
2025-01-13 11:57:25.45	219.69	49.89	
2025-01-13 11:57:25.66	219.82	49.94	
2025-01-13 11:57:25.86	219.94	49.99	
2025-01-13 11:57:26.07	220.07	50.04	
2025-01-13 11:57:26.27	220.19	50.09	
2025-01-13 11:57:26.48	220.32	50.14	
2025-01-13 11:57:26.68	220.44	50.19	
2025-01-13 11:57:26.89	220.57	50.24	
2025-01-13 11:57:27.09	220.69	50.29	
2025-01-13 11:57:27.30	220.82	50.34	
2025-01-13 11:57:27.50	220.95	50.39	
2025-01-13 11:57:27.71	221.08	50.44	
2025-01-13 11:57:27.91	221.21	50.48	
2025-01-13 11:57:28.12	221.34	50.53	
2025-01-13 11:57:28.32	221.47	50.58	
2025-01-13 11:57:28.53	221.60	50.63	
2025-01-13 11:57:28.73	221.73	50.68	
2025-01-13 11:57:28.94	221.86	50.73	
2025-01-13 11:57:29.15	221.99	50.78	
2025-01-13 11:57:29.35	222.12	50.83	
2025-01-13 11:57:29.55	222.25	50.87	
2025-01-13 11:57:29.76	222.39	50.92	
2025-01-13 11:57:29.96	222.52	50.97	
2025-01-13 11:57:30.17	222.65	51.02	
2025-01-13 11:57:30.37	222.78	51.07	
2025-01-13 11:57:30.58	222.92	51.11	
2025-01-13 11:57:30.78	223.05	51.16	
2025-01-13 11:57:30.99	223.19	51.21	
2025-01-13 11:57:31.19	223.32	51.26	
2025-01-13 11:57:31.40	223.46	51.31	
2025-01-13 11:57:31.60	223.60	51.35	
2025-01-13 11:57:31.81	223.74	51.40	
2025-01-13 11:57:32.01	223.87	51.45	
2025-01-13 11:57:32.22	224.01	51.49	
2025-01-13 11:57:32.42	224.14	51.54	
2025-01-13 11:57:32.62	224.28	51.58	
2025-01-13 11:57:32.83	224.42	51.63	
2025-01-13 11:57:33.04	224.56	51.68	
2025-01-13 11:57:33.24	224.70	51.72	
2025-01-13 11:57:33.45	224.85	51.77	
2025-01-13 11:57:33.65	224.98	51.82	
2025-01-13 11:57:33.86	225.13	51.86	
2025-01-13 11:57:34.06	225.26	51.91	
2025-01-13 11:57:34.27	225.41	51.96	
2025-01-13 11:57:34.47	225.55	52.00	
2025-01-13 11:57:34.68	225.70	52.05	
2025-01-13 11:57:34.88	225.84	52.09	
2025-01-13 11:57:35.09	225.98	52.14	
2025-01-13 11:57:35.29	226.12	52.18	
2025-01-13 11:57:35.50	226.27	52.23	
2025-01-13 11:57:35.70	226.41	52.27	
2025-01-13 11:57:35.92	226.57	52.32	
2025-01-13 11:57:36.13	226.72	52.36	
2025-01-13 11:57:36.33	226.86	52.41	
2025-01-13 11:57:36.54	227.01	52.45	
2025-01-13 11:57:36.74	227.16	52.49	
2025-01-13 11:57:36.95	227.31	52.54	
2025-01-13 11:57:37.15	227.45	52.58	
2025-01-13 11:57:37.36	227.60	52.63	
2025-01-13 11:57:37.56	227.75	52.67	
2025-01-13 11:57:37.77	227.90	52.71	
2025-01-13 11:57:37.99	228.06	52.76	
2025-01-13 11:57:38.19	228.21	52.80	
2025-01-13 11:57:38.40	228.36	52.84	
2025-01-13 11:57:38.60	228.51	52.89	
2025-01-13 11:57:38.81	228.67	52.93	
2025-01-13 11:57:39.01	228.82	52.97	
2025-01-13 11:57:39.22	228.97	53.01	
2025-01-13 11:57:39.43	229.13	53.06	
2025-01-13 11:57:39.63	229.28	53.10	
2025-01-13 11:57:39.84	229.44	53.14	
2025-01-13 11:57:40.04	229.59	53.18	
2025-01-13 11:57:40.25	229.74	53.22	
2025-01-13 11:57:40.45	229.90	53.26	
2025-01-13 11:57:40.66	230.06	53.30	
2025-01-13 11:57:40.86	230.21	53.34	
2025-01-13 11:57:41.07	230.37	53.39	
2025-01-13 11:57:41.28	230.53	53.43	
2025-01-13 11:57:41.49	230.69	53.47	
2025-01-13 11:57:41.69	230.84	53.51	
2025-01-13 11:57:41.90	231.01	53.55	
2025-01-13 11:57:42.10	231.16	53.59	
2025-01-13 11:57:42.31	231.32	53.63	
2025-01-13 11:57:42.51	231.48	53.66	
2025-01-13 11:57:42.72	231.64	53.70	
2025-01-13 11:57:42.92	231.80	53.74	
2025-01-13 11:57:43.13	231.97	53.78	
2025-01-13 11:57:43.33	232.12	53.82	
2025-01-13 11:57:43.54	232.29	53.86	
2025-01-13 11:57:43.74	232.45	53.90	
2025-01-13 11:57:43.95	232.61	53.93	
2025-01-13 11:57:44.15	232.77	53.97	
2025-01-13 11:57:44.36	232.94	54.01	
2025-01-13 11:57:44.56	233.10	54.05	
2025-01-13 11:57:44.77	233.27	54.08	
2025-01-13 11:57:44.98	233.44	54.12	
2025-01-13 11:57:45.18	233.60	54.16	
2025-01-13 11:57:45.39	233.77	54.19	
2025-01-13 11:57:45.59	233.93	54.23	
2025-01-13 11:57:45.80	234.10	54.27	
2025-01-13 11:57:46.00	234.26	54.30	
2025-01-13 11:57:46.21	234.43	54.34	
2025-01-13 11:57:46.42	234.60	54.37	
2025-01-13 11:57:46.62	234.77	54.41	
2025-01-13 11:57:46.83	234.94	54.44	
2025-01-13 11:57:47.03	235.11	54.48	
2025-01-13 11:57:47.24	235.28	54.51	
2025-01-13 11:57:47.44	235.45	54.55	
2025-01-13 11:57:47.66	235.63	54.58	
2025-01-13 11:57:47.87	235.80	54.62	
2025-01-13 11:57:48.07	235.97	54.65	
2025-01-13 11:57:48.28	236.14	54.68	
2025-01-13 11:57:48.49	236.32	54.72	
2025-01-13 11:57:48.69	236.49	54.75	
2025-01-13 11:57:48.90	236.67	54.78	
2025-01-13 11:57:49.10	236.83	54.81	
2025-01-13 11:57:49.31	237.01	54.85	
2025-01-13 11:57:49.51	237.18	54.88	
2025-01-13 11:57:49.72	237.36	54.91	
2025-01-13 11:57:49.92	237.53	54.94	
2025-01-13 11:57:50.13	237.71	54.97	
2025-01-13 11:57:50.33	237.88	55.00	
2025-01-13 11:57:50.54	238.06	55.04	
2025-01-13 11:57:50.74	238.23	55.07	
2025-01-13 11:57:50.95	238.41	55.10	
2025-01-13 11:57:51.15	238.58	55.13	
2025-01-13 11:57:51.36	238.77	55.16	
2025-01-13 11:57:51.56	238.94	55.18	
2025-01-13 11:57:51.77	239.12	55.21	
2025-01-13 11:57:51.99	239.31	55.25	
2025-01-13 11:57:52.19	239.49	55.27	
2025-01-13 11:57:52.39	239.66	55.30	
2025-01-13 11:57:52.60	239.84	55.33	
2025-01-13 11:57:52.80	240.02	55.36	
