passes_logs/2025/01/13/SPB_Silybum_02/SPB_Silybum_02__20250113_035358_AQUA_rec.log

#Pass ID: 20250113_035358_AQUA
#Satellite: AQUA
#Configuration: AQUA
#Start time: 2025-01-13 03:53:57

#Version: 2.0.20230423
#Station: SPB_Silybum_02
#Location: 30.233357 lon 59.946436 lat
#TLE: 1 27424U 02022A   25012.20730597  .00001826  00000+0  38477-3 0  9996
#TLE: 2 27424  98.3584 328.8461 0001605 114.2253 358.7733 14.60671943207219

#Time	Az	El	Level	Level2	SNR	BER	Gain	Gain2
2025-01-13 03:53:59.58	7.82	4.06	
2025-01-13 03:53:59.78	7.80	4.07	
2025-01-13 03:53:59.99	7.77	4.08	
2025-01-13 03:54:00.19	7.75	4.09	
2025-01-13 03:54:00.39	7.73	4.10	
2025-01-13 03:54:00.61	7.70	4.11	
2025-01-13 03:54:00.82	7.68	4.12	
2025-01-13 03:54:01.02	7.65	4.13	
2025-01-13 03:54:01.23	7.63	4.14	
2025-01-13 03:54:01.44	7.61	4.15	
2025-01-13 03:54:01.64	7.58	4.16	
2025-01-13 03:54:01.85	7.56	4.17	
2025-01-13 03:54:02.05	7.53	4.18	
2025-01-13 03:54:02.26	7.51	4.19	
2025-01-13 03:54:02.47	7.48	4.20	
2025-01-13 03:54:02.67	7.46	4.21	
2025-01-13 03:54:02.87	7.44	4.22	
2025-01-13 03:54:03.08	7.41	4.23	
2025-01-13 03:54:03.29	7.39	4.25	
2025-01-13 03:54:03.49	7.36	4.26	
2025-01-13 03:54:03.69	7.34	4.27	
2025-01-13 03:54:03.90	7.32	4.28	
2025-01-13 03:54:04.11	7.29	4.29	
2025-01-13 03:54:04.31	7.27	4.30	
2025-01-13 03:54:04.52	7.24	4.31	
2025-01-13 03:54:04.72	7.22	4.32	
2025-01-13 03:54:04.93	7.19	4.33	
2025-01-13 03:54:05.14	7.17	4.34	
2025-01-13 03:54:05.34	7.15	4.35	
2025-01-13 03:54:05.55	7.12	4.36	
2025-01-13 03:54:05.76	7.10	4.37	
2025-01-13 03:54:05.96	7.07	4.38	
2025-01-13 03:54:06.16	7.05	4.39	
2025-01-13 03:54:06.37	7.02	4.40	
2025-01-13 03:54:06.57	7.00	4.41	
2025-01-13 03:54:06.78	6.97	4.42	
2025-01-13 03:54:06.98	6.95	4.43	
2025-01-13 03:54:07.19	6.92	4.44	
2025-01-13 03:54:07.39	6.90	4.45	
2025-01-13 03:54:07.60	6.88	4.46	
2025-01-13 03:54:07.81	6.85	4.47	
2025-01-13 03:54:08.01	6.83	4.48	
2025-01-13 03:54:08.22	6.80	4.49	
2025-01-13 03:54:08.42	6.78	4.50	
2025-01-13 03:54:08.63	6.75	4.52	
2025-01-13 03:54:08.83	6.73	4.53	
2025-01-13 03:54:09.04	6.70	4.54	
2025-01-13 03:54:09.24	6.68	4.55	
2025-01-13 03:54:09.45	6.65	4.56	
2025-01-13 03:54:09.65	6.63	4.57	
2025-01-13 03:54:09.86	6.60	4.58	
2025-01-13 03:54:10.06	6.58	4.59	
2025-01-13 03:54:10.27	6.55	4.60	
2025-01-13 03:54:10.48	6.53	4.61	
2025-01-13 03:54:10.68	6.50	4.62	
2025-01-13 03:54:10.89	6.48	4.63	
2025-01-13 03:54:11.09	6.45	4.64	
2025-01-13 03:54:11.31	6.43	4.65	
2025-01-13 03:54:11.52	6.40	4.66	
2025-01-13 03:54:11.72	6.38	4.67	
2025-01-13 03:54:11.93	6.35	4.68	
2025-01-13 03:54:12.13	6.33	4.69	
2025-01-13 03:54:12.34	6.30	4.70	
2025-01-13 03:54:12.54	6.28	4.71	
2025-01-13 03:54:12.75	6.25	4.72	
2025-01-13 03:54:12.95	6.23	4.73	
2025-01-13 03:54:13.16	6.20	4.74	
2025-01-13 03:54:13.36	6.18	4.75	
2025-01-13 03:54:13.57	6.15	4.76	
2025-01-13 03:54:13.77	6.13	4.77	
2025-01-13 03:54:13.98	6.10	4.79	
2025-01-13 03:54:14.18	6.08	4.80	
2025-01-13 03:54:14.39	6.05	4.81	
2025-01-13 03:54:14.59	6.03	4.82	
2025-01-13 03:54:14.80	6.00	4.83	
2025-01-13 03:54:15.00	5.98	4.84	
2025-01-13 03:54:15.21	5.95	4.85	
2025-01-13 03:54:15.41	5.93	4.86	
2025-01-13 03:54:15.62	5.90	4.87	
2025-01-13 03:54:15.82	5.88	4.88	
2025-01-13 03:54:16.03	5.85	4.89	
2025-01-13 03:54:16.24	5.82	4.90	
2025-01-13 03:54:16.44	5.80	4.91	
2025-01-13 03:54:16.64	5.77	4.92	
2025-01-13 03:54:16.85	5.75	4.93	
2025-01-13 03:54:17.05	5.72	4.94	
2025-01-13 03:54:17.26	5.70	4.95	
2025-01-13 03:54:17.47	5.67	4.96	
2025-01-13 03:54:17.67	5.65	4.97	
2025-01-13 03:54:17.87	5.62	4.98	
2025-01-13 03:54:18.08	5.59	4.99	
2025-01-13 03:54:18.28	5.57	5.00	
2025-01-13 03:54:18.49	5.54	5.01	
2025-01-13 03:54:18.71	5.52	5.02	
2025-01-13 03:54:18.91	5.49	5.03	
2025-01-13 03:54:19.12	5.46	5.04	
2025-01-13 03:54:19.32	5.44	5.05	
2025-01-13 03:54:19.53	5.41	5.06	
2025-01-13 03:54:19.73	5.39	5.07	
2025-01-13 03:54:19.94	5.36	5.09	
2025-01-13 03:54:20.15	5.33	5.10	
2025-01-13 03:54:20.35	5.31	5.11	
2025-01-13 03:54:20.56	5.28	5.12	
2025-01-13 03:54:20.76	5.26	5.13	
2025-01-13 03:54:20.97	5.23	5.14	
2025-01-13 03:54:21.17	5.21	5.15	
2025-01-13 03:54:21.38	5.18	5.16	
2025-01-13 03:54:21.59	5.15	5.17	
2025-01-13 03:54:21.79	5.13	5.18	
2025-01-13 03:54:21.99	5.10	5.19	
2025-01-13 03:54:22.20	5.08	5.20	
2025-01-13 03:54:22.40	5.05	5.21	
2025-01-13 03:54:22.61	5.02	5.22	
2025-01-13 03:54:22.82	5.00	5.23	
2025-01-13 03:54:23.02	4.97	5.24	
2025-01-13 03:54:23.23	4.95	5.25	
2025-01-13 03:54:23.43	4.92	5.26	
2025-01-13 03:54:23.64	4.89	5.27	
2025-01-13 03:54:23.84	4.87	5.28	
2025-01-13 03:54:24.06	4.84	5.29	
2025-01-13 03:54:24.27	4.81	5.30	
2025-01-13 03:54:24.47	4.79	5.31	
2025-01-13 03:54:24.68	4.76	5.32	
2025-01-13 03:54:24.89	4.73	5.33	
2025-01-13 03:54:25.10	4.71	5.35	
2025-01-13 03:54:25.31	4.68	5.36	
2025-01-13 03:54:25.52	4.65	5.37	
2025-01-13 03:54:25.72	4.63	5.38	
2025-01-13 03:54:25.93	4.60	5.39	
2025-01-13 03:54:26.13	4.57	5.40	
2025-01-13 03:54:26.34	4.55	5.41	
2025-01-13 03:54:26.54	4.52	5.42	
2025-01-13 03:54:26.75	4.49	5.43	
2025-01-13 03:54:26.95	4.47	5.44	
2025-01-13 03:54:27.16	4.44	5.45	
2025-01-13 03:54:27.36	4.42	5.46	
2025-01-13 03:54:27.57	4.39	5.47	
2025-01-13 03:54:27.77	4.36	5.48	
2025-01-13 03:54:27.98	4.34	5.49	
2025-01-13 03:54:28.18	4.31	5.50	
2025-01-13 03:54:28.39	4.28	5.51	
2025-01-13 03:54:28.59	4.26	5.52	
2025-01-13 03:54:28.80	4.23	5.53	
2025-01-13 03:54:29.01	4.20	5.54	
2025-01-13 03:54:29.21	4.18	5.55	
2025-01-13 03:54:29.43	4.15	5.56	
2025-01-13 03:54:29.63	4.12	5.57	
2025-01-13 03:54:29.84	4.09	5.58	
2025-01-13 03:54:30.04	4.07	5.59	
2025-01-13 03:54:30.25	4.04	5.60	
2025-01-13 03:54:30.45	4.01	5.61	
2025-01-13 03:54:30.66	3.99	5.62	
2025-01-13 03:54:30.87	3.96	5.63	
2025-01-13 03:54:31.07	3.93	5.65	
2025-01-13 03:54:31.28	3.90	5.66	
2025-01-13 03:54:31.48	3.88	5.67	
2025-01-13 03:54:31.69	3.85	5.68	
2025-01-13 03:54:31.89	3.82	5.69	
2025-01-13 03:54:32.10	3.80	5.70	
2025-01-13 03:54:32.31	3.77	5.71	
2025-01-13 03:54:32.51	3.74	5.72	
2025-01-13 03:54:32.72	3.71	5.73	
2025-01-13 03:54:32.92	3.69	5.74	
2025-01-13 03:54:33.13	3.66	5.75	
2025-01-13 03:54:33.33	3.63	5.76	
2025-01-13 03:54:33.54	3.61	5.77	
2025-01-13 03:54:33.74	3.58	5.78	
2025-01-13 03:54:33.95	3.55	5.79	
2025-01-13 03:54:34.16	3.52	5.80	
2025-01-13 03:54:34.36	3.50	5.81	
2025-01-13 03:54:34.57	3.47	5.82	
2025-01-13 03:54:34.77	3.44	5.83	
2025-01-13 03:54:34.98	3.42	5.84	
2025-01-13 03:54:35.18	3.39	5.85	
2025-01-13 03:54:35.39	3.36	5.86	
2025-01-13 03:54:35.59	3.33	5.87	
2025-01-13 03:54:35.81	3.30	5.88	
2025-01-13 03:54:36.02	3.28	5.89	
2025-01-13 03:54:36.22	3.25	5.90	
2025-01-13 03:54:36.43	3.22	5.91	
2025-01-13 03:54:36.63	3.19	5.92	
2025-01-13 03:54:36.85	3.17	5.93	
2025-01-13 03:54:37.06	3.14	5.94	
2025-01-13 03:54:37.26	3.11	5.95	
2025-01-13 03:54:37.47	3.08	5.97	
2025-01-13 03:54:37.68	3.05	5.98	
2025-01-13 03:54:37.88	3.03	5.99	
2025-01-13 03:54:38.08	3.00	6.00	
2025-01-13 03:54:38.29	2.97	6.01	
2025-01-13 03:54:38.50	2.94	6.02	
2025-01-13 03:54:38.70	2.92	6.03	
2025-01-13 03:54:38.90	2.89	6.04	
2025-01-13 03:54:39.11	2.86	6.05	
2025-01-13 03:54:39.32	2.83	6.06	
2025-01-13 03:54:39.52	2.81	6.07	
2025-01-13 03:54:39.73	2.78	6.08	
2025-01-13 03:54:39.93	2.75	6.09	
2025-01-13 03:54:40.14	2.72	6.10	
2025-01-13 03:54:40.34	2.69	6.11	
2025-01-13 03:54:40.55	2.67	6.12	
2025-01-13 03:54:40.75	2.64	6.13	
2025-01-13 03:54:40.96	2.61	6.14	
2025-01-13 03:54:41.16	2.58	6.15	
2025-01-13 03:54:41.37	2.55	6.16	
2025-01-13 03:54:41.58	2.52	6.17	
2025-01-13 03:54:41.78	2.50	6.18	
2025-01-13 03:54:41.99	2.47	6.19	
2025-01-13 03:54:42.21	2.44	6.20	
2025-01-13 03:54:42.41	2.41	6.21	
2025-01-13 03:54:42.62	2.38	6.22	
2025-01-13 03:54:42.82	2.36	6.23	
2025-01-13 03:54:43.03	2.33	6.24	
2025-01-13 03:54:43.23	2.30	6.25	
2025-01-13 03:54:43.44	2.27	6.26	
2025-01-13 03:54:43.65	2.24	6.27	
2025-01-13 03:54:43.85	2.21	6.28	
2025-01-13 03:54:44.06	2.18	6.29	
2025-01-13 03:54:44.28	2.15	6.30	
2025-01-13 03:54:44.48	2.13	6.31	
2025-01-13 03:54:44.69	2.10	6.33	
2025-01-13 03:54:44.89	2.07	6.34	
2025-01-13 03:54:45.10	2.04	6.35	
2025-01-13 03:54:45.30	2.01	6.36	
2025-01-13 03:54:45.51	1.98	6.37	
2025-01-13 03:54:45.72	1.96	6.38	
2025-01-13 03:54:45.92	1.93	6.39	
2025-01-13 03:54:46.13	1.90	6.40	
2025-01-13 03:54:46.33	1.87	6.41	
2025-01-13 03:54:46.54	1.84	6.42	
2025-01-13 03:54:46.74	1.81	6.43	
2025-01-13 03:54:46.95	1.78	6.44	
2025-01-13 03:54:47.15	1.76	6.45	
2025-01-13 03:54:47.36	1.73	6.46	
2025-01-13 03:54:47.56	1.70	6.47	
2025-01-13 03:54:47.77	1.67	6.48	
2025-01-13 03:54:47.97	1.64	6.49	
2025-01-13 03:54:48.18	1.61	6.50	
2025-01-13 03:54:48.38	1.58	6.51	
2025-01-13 03:54:48.59	1.55	6.52	
2025-01-13 03:54:48.79	1.53	6.53	
2025-01-13 03:54:49.00	1.50	6.54	
2025-01-13 03:54:49.20	1.47	6.55	
2025-01-13 03:54:49.41	1.44	6.56	
2025-01-13 03:54:49.61	1.41	6.57	
2025-01-13 03:54:49.82	1.38	6.58	
2025-01-13 03:54:50.02	1.35	6.59	
2025-01-13 03:54:50.23	1.32	6.60	
2025-01-13 03:54:50.44	1.29	6.61	
2025-01-13 03:54:50.64	1.27	6.62	
2025-01-13 03:54:50.85	1.24	6.63	
2025-01-13 03:54:51.05	1.21	6.64	
2025-01-13 03:54:51.26	1.18	6.65	
2025-01-13 03:54:51.47	1.15	6.66	
2025-01-13 03:54:51.67	1.12	6.67	
2025-01-13 03:54:51.87	1.09	6.68	
2025-01-13 03:54:52.08	1.06	6.69	
2025-01-13 03:54:52.29	1.03	6.70	
2025-01-13 03:54:52.49	1.00	6.71	
2025-01-13 03:54:52.70	0.97	6.72	
2025-01-13 03:54:52.90	0.95	6.73	
2025-01-13 03:54:53.11	0.92	6.74	
2025-01-13 03:54:53.31	0.89	6.75	
2025-01-13 03:54:53.52	0.86	6.76	
2025-01-13 03:54:53.73	0.83	6.77	
2025-01-13 03:54:53.93	0.80	6.78	
2025-01-13 03:54:54.14	0.77	6.79	
2025-01-13 03:54:54.34	0.74	6.80	
2025-01-13 03:54:54.55	0.71	6.81	
2025-01-13 03:54:54.75	0.68	6.82	
2025-01-13 03:54:54.97	0.65	6.83	
2025-01-13 03:54:55.18	0.62	6.84	
2025-01-13 03:54:55.38	0.59	6.85	
2025-01-13 03:54:55.59	0.56	6.86	
2025-01-13 03:54:55.79	0.53	6.87	
2025-01-13 03:54:56.00	0.50	6.88	
2025-01-13 03:54:56.20	0.47	6.89	
2025-01-13 03:54:56.41	0.44	6.90	
2025-01-13 03:54:56.61	0.41	6.91	
2025-01-13 03:54:56.82	0.38	6.92	
2025-01-13 03:54:57.02	0.35	6.93	
2025-01-13 03:54:57.23	0.32	6.94	
2025-01-13 03:54:57.43	0.29	6.95	
2025-01-13 03:54:57.64	0.26	6.96	
2025-01-13 03:54:57.84	0.23	6.97	
2025-01-13 03:54:58.05	0.20	6.98	
2025-01-13 03:54:58.25	0.17	6.99	
2025-01-13 03:54:58.46	0.14	7.00	
2025-01-13 03:54:58.67	0.11	7.02	
2025-01-13 03:54:58.87	0.08	7.02	
2025-01-13 03:54:59.08	0.05	7.04	
2025-01-13 03:54:59.28	0.02	7.05	
2025-01-13 03:54:59.49	359.99	7.06	
2025-01-13 03:54:59.69	359.96	7.07	
2025-01-13 03:54:59.89	359.94	7.07	
2025-01-13 03:55:00.10	359.90	7.09	
2025-01-13 03:55:00.30	359.88	7.09	
2025-01-13 03:55:00.51	359.84	7.11	
2025-01-13 03:55:00.72	359.81	7.12	
2025-01-13 03:55:00.93	359.78	7.13	
2025-01-13 03:55:01.13	359.75	7.14	
2025-01-13 03:55:01.33	359.72	7.15	
2025-01-13 03:55:01.54	359.69	7.16	
2025-01-13 03:55:01.74	359.66	7.17	
2025-01-13 03:55:01.95	359.63	7.18	
2025-01-13 03:55:02.16	359.60	7.19	
2025-01-13 03:55:02.36	359.57	7.20	
2025-01-13 03:55:02.56	359.54	7.21	
2025-01-13 03:55:02.77	359.51	7.22	
2025-01-13 03:55:02.98	359.48	7.23	
2025-01-13 03:55:03.18	359.45	7.24	
2025-01-13 03:55:03.39	359.42	7.25	
2025-01-13 03:55:03.59	359.39	7.26	
2025-01-13 03:55:03.79	359.36	7.27	
2025-01-13 03:55:04.00	359.33	7.28	
2025-01-13 03:55:04.21	359.30	7.29	
2025-01-13 03:55:04.41	359.27	7.30	
2025-01-13 03:55:04.62	359.24	7.31	
2025-01-13 03:55:04.82	359.21	7.32	
2025-01-13 03:55:05.03	359.18	7.33	
2025-01-13 03:55:05.23	359.15	7.34	
2025-01-13 03:55:05.43	359.12	7.34	
2025-01-13 03:55:05.64	359.08	7.35	
2025-01-13 03:55:05.85	359.05	7.37	
2025-01-13 03:55:06.05	359.02	7.37	
2025-01-13 03:55:06.26	358.99	7.39	
2025-01-13 03:55:06.46	358.96	7.39	
2025-01-13 03:55:06.67	358.93	7.40	
2025-01-13 03:55:06.87	358.90	7.41	
2025-01-13 03:55:07.08	358.87	7.42	
2025-01-13 03:55:07.28	358.84	7.43	
2025-01-13 03:55:07.49	358.81	7.44	
2025-01-13 03:55:07.69	358.78	7.45	
2025-01-13 03:55:07.90	358.75	7.46	
2025-01-13 03:55:08.10	358.72	7.47	
2025-01-13 03:55:08.31	358.68	7.48	
2025-01-13 03:55:08.51	358.65	7.49	
2025-01-13 03:55:08.72	358.62	7.50	
2025-01-13 03:55:08.92	358.59	7.51	
2025-01-13 03:55:09.12	358.56	7.52	
2025-01-13 03:55:09.33	358.53	7.53	
2025-01-13 03:55:09.54	358.50	7.54	
2025-01-13 03:55:09.74	358.47	7.55	
2025-01-13 03:55:09.94	358.44	7.56	
2025-01-13 03:55:10.15	358.40	7.57	
2025-01-13 03:55:10.36	358.37	7.58	
2025-01-13 03:55:10.56	358.34	7.59	
2025-01-13 03:55:10.77	358.31	7.60	
2025-01-13 03:55:10.99	358.28	7.61	
2025-01-13 03:55:11.19	358.25	7.62	
2025-01-13 03:55:11.40	358.21	7.63	
2025-01-13 03:55:11.60	358.18	7.64	
2025-01-13 03:55:11.81	358.15	7.65	
2025-01-13 03:55:12.01	358.12	7.66	
2025-01-13 03:55:12.22	358.09	7.67	
2025-01-13 03:55:12.42	358.06	7.68	
2025-01-13 03:55:12.63	358.03	7.69	
2025-01-13 03:55:12.83	358.00	7.70	
2025-01-13 03:55:13.05	357.96	7.71	
2025-01-13 03:55:13.25	357.93	7.72	
2025-01-13 03:55:13.46	357.90	7.73	
2025-01-13 03:55:13.67	357.87	7.74	
2025-01-13 03:55:13.87	357.84	7.75	
2025-01-13 03:55:14.08	357.80	7.76	
2025-01-13 03:55:14.28	357.77	7.77	
2025-01-13 03:55:14.49	357.74	7.78	
2025-01-13 03:55:14.69	357.71	7.79	
2025-01-13 03:55:14.90	357.68	7.80	
2025-01-13 03:55:15.10	357.65	7.81	
2025-01-13 03:55:15.32	357.61	7.82	
2025-01-13 03:55:15.52	357.58	7.83	
2025-01-13 03:55:15.73	357.55	7.84	
2025-01-13 03:55:15.93	357.52	7.85	
2025-01-13 03:55:16.14	357.48	7.86	
2025-01-13 03:55:16.36	357.45	7.87	
2025-01-13 03:55:16.56	357.42	7.88	
2025-01-13 03:55:16.77	357.39	7.89	
2025-01-13 03:55:16.98	357.35	7.90	
2025-01-13 03:55:17.18	357.32	7.91	
2025-01-13 03:55:17.40	357.29	7.92	
2025-01-13 03:55:17.61	357.25	7.93	
2025-01-13 03:55:17.81	357.22	7.94	
2025-01-13 03:55:18.02	357.19	7.95	
2025-01-13 03:55:18.22	357.16	7.96	
2025-01-13 03:55:18.44	357.12	7.97	
2025-01-13 03:55:18.64	357.09	7.98	
2025-01-13 03:55:18.85	357.06	7.99	
2025-01-13 03:55:19.05	357.03	8.00	
2025-01-13 03:55:19.26	357.00	8.01	
2025-01-13 03:55:19.46	356.96	8.02	
2025-01-13 03:55:19.68	356.93	8.03	
2025-01-13 03:55:19.89	356.90	8.04	
2025-01-13 03:55:20.09	356.87	8.05	
2025-01-13 03:55:20.30	356.83	8.06	
2025-01-13 03:55:20.50	356.80	8.07	
2025-01-13 03:55:20.71	356.77	8.08	
2025-01-13 03:55:20.91	356.74	8.09	
2025-01-13 03:55:21.12	356.70	8.10	
2025-01-13 03:55:21.33	356.67	8.11	
2025-01-13 03:55:21.53	356.64	8.12	
2025-01-13 03:55:21.74	356.60	8.13	
2025-01-13 03:55:21.94	356.57	8.14	
2025-01-13 03:55:22.15	356.54	8.15	
2025-01-13 03:55:22.36	356.51	8.16	
2025-01-13 03:55:22.56	356.47	8.16	
2025-01-13 03:55:22.76	356.44	8.17	
2025-01-13 03:55:22.97	356.41	8.18	
2025-01-13 03:55:23.18	356.38	8.19	
2025-01-13 03:55:23.38	356.34	8.20	
2025-01-13 03:55:23.59	356.31	8.21	
2025-01-13 03:55:23.80	356.28	8.22	
2025-01-13 03:55:24.01	356.24	8.23	
2025-01-13 03:55:24.22	356.21	8.24	
2025-01-13 03:55:24.42	356.18	8.25	
2025-01-13 03:55:24.63	356.14	8.26	
2025-01-13 03:55:24.83	356.11	8.27	
2025-01-13 03:55:25.04	356.08	8.28	
2025-01-13 03:55:25.24	356.05	8.29	
2025-01-13 03:55:25.45	356.01	8.30	
2025-01-13 03:55:25.65	355.98	8.31	
2025-01-13 03:55:25.85	355.95	8.32	
2025-01-13 03:55:26.06	355.91	8.33	
2025-01-13 03:55:26.27	355.88	8.34	
2025-01-13 03:55:26.47	355.85	8.35	
2025-01-13 03:55:26.68	355.81	8.36	
2025-01-13 03:55:26.88	355.78	8.37	
2025-01-13 03:55:27.09	355.75	8.38	
2025-01-13 03:55:27.29	355.72	8.39	
2025-01-13 03:55:27.50	355.68	8.40	
2025-01-13 03:55:27.70	355.65	8.41	
2025-01-13 03:55:27.91	355.62	8.41	
2025-01-13 03:55:28.11	355.58	8.42	
2025-01-13 03:55:28.32	355.55	8.43	
2025-01-13 03:55:28.52	355.52	8.44	
2025-01-13 03:55:28.73	355.48	8.45	
2025-01-13 03:55:28.93	355.45	8.46	
2025-01-13 03:55:29.14	355.42	8.47	
2025-01-13 03:55:29.34	355.38	8.48	
2025-01-13 03:55:29.55	355.35	8.49	
2025-01-13 03:55:29.75	355.32	8.50	
2025-01-13 03:55:29.96	355.28	8.51	
2025-01-13 03:55:30.16	355.25	8.52	
2025-01-13 03:55:30.37	355.22	8.53	
2025-01-13 03:55:30.58	355.18	8.54	
2025-01-13 03:55:30.78	355.15	8.55	
2025-01-13 03:55:30.99	355.11	8.56	
2025-01-13 03:55:31.21	355.08	8.57	
2025-01-13 03:55:31.41	355.04	8.58	
2025-01-13 03:55:31.61	355.01	8.59	
2025-01-13 03:55:31.82	354.98	8.60	
2025-01-13 03:55:32.03	354.94	8.61	
2025-01-13 03:55:32.23	354.91	8.61	
2025-01-13 03:55:32.43	354.88	8.62	
2025-01-13 03:55:32.64	354.84	8.63	
2025-01-13 03:55:32.84	354.81	8.64	
2025-01-13 03:55:33.05	354.77	8.65	
2025-01-13 03:55:33.27	354.74	8.66	
2025-01-13 03:55:33.48	354.70	8.67	
2025-01-13 03:55:33.68	354.67	8.68	
2025-01-13 03:55:33.89	354.64	8.69	
2025-01-13 03:55:34.09	354.60	8.70	
2025-01-13 03:55:34.30	354.57	8.71	
2025-01-13 03:55:34.51	354.53	8.72	
2025-01-13 03:55:34.71	354.50	8.73	
2025-01-13 03:55:34.92	354.47	8.74	
2025-01-13 03:55:35.12	354.43	8.75	
2025-01-13 03:55:35.33	354.40	8.76	
2025-01-13 03:55:35.53	354.36	8.77	
2025-01-13 03:55:35.74	354.33	8.78	
2025-01-13 03:55:35.94	354.30	8.78	
2025-01-13 03:55:36.15	354.26	8.79	
2025-01-13 03:55:36.36	354.23	8.80	
2025-01-13 03:55:36.56	354.19	8.81	
2025-01-13 03:55:36.76	354.16	8.82	
2025-01-13 03:55:36.97	354.12	8.83	
2025-01-13 03:55:37.17	354.09	8.84	
2025-01-13 03:55:37.38	354.05	8.85	
2025-01-13 03:55:37.58	354.02	8.86	
2025-01-13 03:55:37.79	353.99	8.87	
2025-01-13 03:55:37.99	353.95	8.88	
2025-01-13 03:55:38.20	353.92	8.89	
2025-01-13 03:55:38.40	353.88	8.90	
2025-01-13 03:55:38.61	353.85	8.91	
2025-01-13 03:55:38.81	353.81	8.91	
2025-01-13 03:55:39.02	353.78	8.92	
2025-01-13 03:55:39.22	353.75	8.93	
2025-01-13 03:55:39.43	353.71	8.94	
2025-01-13 03:55:39.63	353.68	8.95	
2025-01-13 03:55:39.84	353.64	8.96	
2025-01-13 03:55:40.04	353.61	8.97	
2025-01-13 03:55:40.25	353.57	8.98	
2025-01-13 03:55:40.46	353.54	8.99	
2025-01-13 03:55:40.66	353.50	9.00	
2025-01-13 03:55:40.86	353.47	9.01	
2025-01-13 03:55:41.07	353.43	9.02	
2025-01-13 03:55:41.27	353.40	9.03	
2025-01-13 03:55:41.48	353.36	9.04	
2025-01-13 03:55:41.68	353.33	9.04	
2025-01-13 03:55:41.89	353.29	9.05	
2025-01-13 03:55:42.09	353.26	9.06	
2025-01-13 03:55:42.30	353.22	9.07	
2025-01-13 03:55:42.51	353.19	9.08	
2025-01-13 03:55:42.71	353.15	9.09	
2025-01-13 03:55:42.91	353.12	9.10	
2025-01-13 03:55:43.12	353.08	9.11	
2025-01-13 03:55:43.33	353.05	9.12	
2025-01-13 03:55:43.53	353.01	9.13	
2025-01-13 03:55:43.74	352.98	9.14	
2025-01-13 03:55:43.94	352.94	9.15	
2025-01-13 03:55:44.15	352.91	9.15	
2025-01-13 03:55:44.36	352.87	9.16	
2025-01-13 03:55:44.56	352.84	9.17	
2025-01-13 03:55:44.77	352.80	9.18	
2025-01-13 03:55:44.97	352.77	9.19	
2025-01-13 03:55:45.18	352.73	9.20	
2025-01-13 03:55:45.38	352.70	9.21	
2025-01-13 03:55:45.59	352.66	9.22	
2025-01-13 03:55:45.79	352.63	9.23	
2025-01-13 03:55:46.00	352.59	9.24	
2025-01-13 03:55:46.20	352.55	9.25	
2025-01-13 03:55:46.41	352.52	9.25	
2025-01-13 03:55:46.61	352.48	9.26	
2025-01-13 03:55:46.82	352.45	9.27	
2025-01-13 03:55:47.03	352.41	9.28	
2025-01-13 03:55:47.23	352.38	9.29	
2025-01-13 03:55:47.43	352.34	9.30	
2025-01-13 03:55:47.64	352.31	9.31	
2025-01-13 03:55:47.85	352.27	9.32	
2025-01-13 03:55:48.05	352.23	9.33	
2025-01-13 03:55:48.26	352.20	9.34	
2025-01-13 03:55:48.46	352.16	9.34	
2025-01-13 03:55:48.66	352.13	9.35	
2025-01-13 03:55:48.87	352.09	9.36	
2025-01-13 03:55:49.07	352.06	9.37	
2025-01-13 03:55:49.28	352.02	9.38	
2025-01-13 03:55:49.48	351.99	9.39	
2025-01-13 03:55:49.69	351.95	9.40	
2025-01-13 03:55:49.90	351.91	9.41	
2025-01-13 03:55:50.10	351.88	9.42	
2025-01-13 03:55:50.31	351.84	9.43	
2025-01-13 03:55:50.51	351.81	9.43	
2025-01-13 03:55:50.72	351.77	9.44	
2025-01-13 03:55:50.92	351.73	9.45	
2025-01-13 03:55:51.13	351.70	9.46	
2025-01-13 03:55:51.33	351.66	9.47	
2025-01-13 03:55:51.54	351.62	9.48	
2025-01-13 03:55:51.74	351.59	9.49	
2025-01-13 03:55:51.95	351.55	9.50	
2025-01-13 03:55:52.16	351.52	9.51	
2025-01-13 03:55:52.36	351.48	9.51	
2025-01-13 03:55:52.56	351.45	9.52	
2025-01-13 03:55:52.77	351.41	9.53	
2025-01-13 03:55:52.98	351.37	9.54	
2025-01-13 03:55:53.18	351.34	9.55	
2025-01-13 03:55:53.39	351.30	9.56	
2025-01-13 03:55:53.59	351.26	9.57	
2025-01-13 03:55:53.80	351.23	9.58	
2025-01-13 03:55:54.00	351.19	9.59	
2025-01-13 03:55:54.21	351.15	9.59	
2025-01-13 03:55:54.41	351.12	9.60	
2025-01-13 03:55:54.62	351.08	9.61	
2025-01-13 03:55:54.82	351.05	9.62	
2025-01-13 03:55:55.03	351.01	9.63	
2025-01-13 03:55:55.23	350.97	9.64	
2025-01-13 03:55:55.44	350.94	9.65	
2025-01-13 03:55:55.66	350.90	9.66	
2025-01-13 03:55:55.86	350.86	9.66	
2025-01-13 03:55:56.07	350.82	9.67	
2025-01-13 03:55:56.27	350.79	9.68	
2025-01-13 03:55:56.48	350.75	9.69	
2025-01-13 03:55:56.69	350.71	9.70	
2025-01-13 03:55:56.90	350.67	9.71	
2025-01-13 03:55:57.11	350.64	9.72	
2025-01-13 03:55:57.31	350.60	9.73	
2025-01-13 03:55:57.52	350.56	9.74	
2025-01-13 03:55:57.73	350.53	9.74	
2025-01-13 03:55:57.93	350.49	9.75	
2025-01-13 03:55:58.14	350.45	9.76	
2025-01-13 03:55:58.34	350.42	9.77	
2025-01-13 03:55:58.55	350.38	9.78	
2025-01-13 03:55:58.75	350.34	9.79	
2025-01-13 03:55:58.96	350.31	9.80	
2025-01-13 03:55:59.16	350.27	9.80	
2025-01-13 03:55:59.37	350.23	9.81	
2025-01-13 03:55:59.58	350.19	9.82	
2025-01-13 03:55:59.78	350.16	9.83	
2025-01-13 03:55:59.99	350.12	9.84	
2025-01-13 03:56:00.19	350.08	9.85	
2025-01-13 03:56:00.39	350.05	9.86	
2025-01-13 03:56:00.60	350.01	9.86	
2025-01-13 03:56:00.80	349.97	9.87	
2025-01-13 03:56:01.01	349.94	9.88	
2025-01-13 03:56:01.21	349.90	9.89	
2025-01-13 03:56:01.42	349.86	9.90	
2025-01-13 03:56:01.63	349.82	9.91	
2025-01-13 03:56:01.83	349.79	9.92	
2025-01-13 03:56:02.03	349.75	9.92	
2025-01-13 03:56:02.25	349.71	9.93	
2025-01-13 03:56:02.46	349.67	9.94	
2025-01-13 03:56:02.66	349.64	9.95	
2025-01-13 03:56:02.87	349.60	9.96	
2025-01-13 03:56:03.08	349.56	9.97	
2025-01-13 03:56:03.30	349.52	9.98	
2025-01-13 03:56:03.50	349.48	9.99	
2025-01-13 03:56:03.70	349.45	9.99	
2025-01-13 03:56:03.91	349.41	10.00	
2025-01-13 03:56:04.11	349.37	10.01	
2025-01-13 03:56:04.32	349.33	10.02	
2025-01-13 03:56:04.52	349.30	10.03	
2025-01-13 03:56:04.73	349.26	10.04	
2025-01-13 03:56:04.94	349.22	10.04	
2025-01-13 03:56:05.14	349.18	10.05	
2025-01-13 03:56:05.34	349.15	10.06	
2025-01-13 03:56:05.55	349.11	10.07	
2025-01-13 03:56:05.76	349.07	10.08	
2025-01-13 03:56:05.96	349.03	10.09	
2025-01-13 03:56:06.17	348.99	10.09	
2025-01-13 03:56:06.37	348.96	10.10	
2025-01-13 03:56:06.58	348.92	10.11	
2025-01-13 03:56:06.78	348.88	10.12	
2025-01-13 03:56:06.99	348.84	10.13	
2025-01-13 03:56:07.20	348.80	10.14	
2025-01-13 03:56:07.40	348.77	10.14	
2025-01-13 03:56:07.62	348.73	10.15	
2025-01-13 03:56:07.82	348.69	10.16	
2025-01-13 03:56:08.03	348.65	10.17	
2025-01-13 03:56:08.24	348.61	10.18	
2025-01-13 03:56:08.44	348.57	10.19	
2025-01-13 03:56:08.64	348.54	10.20	
2025-01-13 03:56:08.85	348.50	10.20	
2025-01-13 03:56:09.05	348.46	10.21	
2025-01-13 03:56:09.26	348.42	10.22	
2025-01-13 03:56:09.47	348.38	10.23	
2025-01-13 03:56:09.67	348.35	10.24	
2025-01-13 03:56:09.88	348.31	10.24	
2025-01-13 03:56:10.08	348.27	10.25	
2025-01-13 03:56:10.29	348.23	10.26	
2025-01-13 03:56:10.49	348.19	10.27	
2025-01-13 03:56:10.69	348.16	10.28	
2025-01-13 03:56:10.90	348.12	10.29	
2025-01-13 03:56:11.11	348.08	10.29	
2025-01-13 03:56:11.31	348.04	10.30	
2025-01-13 03:56:11.52	348.00	10.31	
2025-01-13 03:56:11.72	347.96	10.32	
2025-01-13 03:56:11.93	347.92	10.33	
2025-01-13 03:56:12.13	347.89	10.33	
2025-01-13 03:56:12.34	347.85	10.34	
2025-01-13 03:56:12.54	347.81	10.35	
2025-01-13 03:56:12.75	347.77	10.36	
2025-01-13 03:56:12.95	347.73	10.37	
2025-01-13 03:56:13.16	347.69	10.38	
2025-01-13 03:56:13.36	347.66	10.38	
2025-01-13 03:56:13.57	347.62	10.39	
2025-01-13 03:56:13.77	347.58	10.40	
2025-01-13 03:56:13.98	347.54	10.41	
2025-01-13 03:56:14.18	347.50	10.42	
2025-01-13 03:56:14.39	347.46	10.42	
2025-01-13 03:56:14.59	347.42	10.43	
2025-01-13 03:56:14.80	347.38	10.44	
2025-01-13 03:56:15.00	347.35	10.45	
2025-01-13 03:56:15.21	347.31	10.46	
2025-01-13 03:56:15.42	347.27	10.46	
2025-01-13 03:56:15.62	347.23	10.47	
2025-01-13 03:56:15.83	347.19	10.48	
2025-01-13 03:56:16.03	347.15	10.49	
2025-01-13 03:56:16.24	347.11	10.50	
2025-01-13 03:56:16.44	347.07	10.50	
2025-01-13 03:56:16.65	347.03	10.51	
2025-01-13 03:56:16.85	347.00	10.52	
2025-01-13 03:56:17.06	346.96	10.53	
2025-01-13 03:56:17.26	346.92	10.53	
2025-01-13 03:56:17.47	346.88	10.54	
2025-01-13 03:56:17.68	346.84	10.55	
2025-01-13 03:56:17.88	346.80	10.56	
2025-01-13 03:56:18.09	346.76	10.57	
2025-01-13 03:56:18.29	346.72	10.57	
2025-01-13 03:56:18.50	346.68	10.58	
2025-01-13 03:56:18.70	346.64	10.59	
2025-01-13 03:56:18.91	346.60	10.60	
2025-01-13 03:56:19.11	346.57	10.61	
2025-01-13 03:56:19.32	346.53	10.61	
2025-01-13 03:56:19.52	346.49	10.62	
2025-01-13 03:56:19.73	346.45	10.63	
2025-01-13 03:56:19.94	346.41	10.64	
2025-01-13 03:56:20.14	346.37	10.64	
2025-01-13 03:56:20.34	346.33	10.65	
2025-01-13 03:56:20.55	346.29	10.66	
2025-01-13 03:56:20.76	346.25	10.67	
2025-01-13 03:56:20.96	346.21	10.68	
2025-01-13 03:56:21.17	346.17	10.68	
2025-01-13 03:56:21.37	346.13	10.69	
2025-01-13 03:56:21.58	346.09	10.70	
2025-01-13 03:56:21.78	346.05	10.71	
2025-01-13 03:56:21.99	346.01	10.71	
2025-01-13 03:56:22.19	345.97	10.72	
2025-01-13 03:56:22.39	345.94	10.73	
2025-01-13 03:56:22.60	345.89	10.74	
2025-01-13 03:56:22.81	345.85	10.74	
2025-01-13 03:56:23.01	345.82	10.75	
2025-01-13 03:56:23.21	345.78	10.76	
2025-01-13 03:56:23.41	345.74	10.77	
2025-01-13 03:56:23.61	345.70	10.77	
2025-01-13 03:56:23.82	345.66	10.78	
2025-01-13 03:56:24.02	345.62	10.79	
2025-01-13 03:56:24.23	345.58	10.80	
2025-01-13 03:56:24.43	345.54	10.80	
2025-01-13 03:56:24.63	345.50	10.81	
2025-01-13 03:56:24.84	345.46	10.82	
2025-01-13 03:56:25.05	345.42	10.83	
2025-01-13 03:56:25.25	345.38	10.83	
2025-01-13 03:56:25.46	345.34	10.84	
2025-01-13 03:56:25.66	345.30	10.85	
2025-01-13 03:56:25.87	345.26	10.86	
2025-01-13 03:56:26.07	345.22	10.86	
2025-01-13 03:56:26.28	345.18	10.87	
2025-01-13 03:56:26.49	345.14	10.88	
2025-01-13 03:56:26.69	345.10	10.89	
2025-01-13 03:56:26.90	345.06	10.89	
2025-01-13 03:56:27.10	345.02	10.90	
2025-01-13 03:56:27.31	344.98	10.91	
2025-01-13 03:56:27.52	344.94	10.92	
2025-01-13 03:56:27.73	344.90	10.92	
2025-01-13 03:56:27.94	344.86	10.93	
2025-01-13 03:56:28.14	344.82	10.94	
2025-01-13 03:56:28.35	344.78	10.95	
2025-01-13 03:56:28.55	344.74	10.95	
2025-01-13 03:56:28.76	344.69	10.96	
2025-01-13 03:56:28.96	344.66	10.97	
2025-01-13 03:56:29.17	344.61	10.98	
2025-01-13 03:56:29.37	344.57	10.98	
2025-01-13 03:56:29.58	344.53	10.99	
2025-01-13 03:56:29.78	344.49	11.00	
2025-01-13 03:56:29.99	344.45	11.01	
2025-01-13 03:56:30.20	344.41	11.01	
2025-01-13 03:56:30.40	344.37	11.02	
2025-01-13 03:56:30.61	344.33	11.03	
2025-01-13 03:56:30.81	344.29	11.03	
2025-01-13 03:56:31.02	344.25	11.04	
2025-01-13 03:56:31.22	344.21	11.05	
2025-01-13 03:56:31.43	344.17	11.06	
2025-01-13 03:56:31.63	344.13	11.06	
2025-01-13 03:56:31.84	344.09	11.07	
2025-01-13 03:56:32.06	344.04	11.08	
2025-01-13 03:56:32.26	344.00	11.09	
2025-01-13 03:56:32.47	343.96	11.09	
2025-01-13 03:56:32.68	343.92	11.10	
2025-01-13 03:56:32.88	343.88	11.11	
2025-01-13 03:56:33.09	343.84	11.11	
2025-01-13 03:56:33.29	343.80	11.12	
2025-01-13 03:56:33.50	343.76	11.13	
2025-01-13 03:56:33.70	343.72	11.14	
2025-01-13 03:56:33.91	343.68	11.14	
2025-01-13 03:56:34.11	343.64	11.15	
2025-01-13 03:56:34.32	343.59	11.16	
2025-01-13 03:56:34.52	343.55	11.16	
2025-01-13 03:56:34.73	343.51	11.17	
2025-01-13 03:56:34.93	343.47	11.18	
2025-01-13 03:56:35.14	343.43	11.18	
2025-01-13 03:56:35.34	343.39	11.19	
2025-01-13 03:56:35.55	343.35	11.20	
2025-01-13 03:56:35.75	343.31	11.21	
2025-01-13 03:56:35.96	343.27	11.21	
2025-01-13 03:56:36.17	343.23	11.22	
2025-01-13 03:56:36.37	343.19	11.23	
2025-01-13 03:56:36.58	343.14	11.23	
2025-01-13 03:56:36.78	343.10	11.24	
2025-01-13 03:56:36.99	343.06	11.25	
2025-01-13 03:56:37.19	343.02	11.25	
2025-01-13 03:56:37.40	342.98	11.26	
2025-01-13 03:56:37.60	342.94	11.27	
2025-01-13 03:56:37.81	342.90	11.27	
2025-01-13 03:56:38.02	342.85	11.28	
2025-01-13 03:56:38.22	342.81	11.29	
2025-01-13 03:56:38.44	342.77	11.30	
2025-01-13 03:56:38.64	342.73	11.30	
2025-01-13 03:56:38.85	342.69	11.31	
2025-01-13 03:56:39.05	342.65	11.32	
2025-01-13 03:56:39.26	342.60	11.32	
2025-01-13 03:56:39.46	342.56	11.33	
2025-01-13 03:56:39.67	342.52	11.34	
2025-01-13 03:56:39.87	342.48	11.34	
2025-01-13 03:56:40.08	342.44	11.35	
2025-01-13 03:56:40.28	342.40	11.36	
2025-01-13 03:56:40.49	342.36	11.36	
2025-01-13 03:56:40.69	342.32	11.37	
2025-01-13 03:56:40.90	342.27	11.38	
2025-01-13 03:56:41.11	342.23	11.38	
2025-01-13 03:56:41.32	342.19	11.39	
2025-01-13 03:56:41.53	342.14	11.40	
2025-01-13 03:56:41.74	342.10	11.40	
2025-01-13 03:56:41.95	342.06	11.41	
2025-01-13 03:56:42.16	342.02	11.42	
2025-01-13 03:56:42.36	341.98	11.42	
2025-01-13 03:56:42.57	341.93	11.43	
2025-01-13 03:56:42.77	341.89	11.44	
2025-01-13 03:56:42.98	341.85	11.44	
2025-01-13 03:56:43.19	341.81	11.45	
2025-01-13 03:56:43.39	341.77	11.46	
2025-01-13 03:56:43.60	341.72	11.46	
2025-01-13 03:56:43.80	341.68	11.47	
2025-01-13 03:56:44.01	341.64	11.48	
2025-01-13 03:56:44.21	341.60	11.48	
2025-01-13 03:56:44.42	341.56	11.49	
2025-01-13 03:56:44.63	341.51	11.50	
2025-01-13 03:56:44.83	341.47	11.50	
2025-01-13 03:56:45.03	341.43	11.51	
2025-01-13 03:56:45.24	341.39	11.52	
2025-01-13 03:56:45.44	341.35	11.52	
2025-01-13 03:56:45.65	341.30	11.53	
2025-01-13 03:56:45.85	341.26	11.53	
2025-01-13 03:56:46.06	341.22	11.54	
2025-01-13 03:56:46.26	341.18	11.55	
2025-01-13 03:56:46.47	341.14	11.55	
2025-01-13 03:56:46.67	341.10	11.56	
2025-01-13 03:56:46.88	341.05	11.57	
2025-01-13 03:56:47.08	341.01	11.57	
2025-01-13 03:56:47.29	340.97	11.58	
2025-01-13 03:56:47.49	340.93	11.58	
2025-01-13 03:56:47.70	340.88	11.59	
2025-01-13 03:56:47.90	340.84	11.60	
2025-01-13 03:56:48.11	340.80	11.60	
2025-01-13 03:56:48.31	340.76	11.61	
2025-01-13 03:56:48.52	340.71	11.62	
2025-01-13 03:56:48.72	340.67	11.62	
2025-01-13 03:56:48.93	340.63	11.63	
2025-01-13 03:56:49.15	340.58	11.64	
2025-01-13 03:56:49.35	340.54	11.64	
2025-01-13 03:56:49.56	340.50	11.65	
2025-01-13 03:56:49.76	340.46	11.65	
2025-01-13 03:56:49.97	340.42	11.66	
2025-01-13 03:56:50.18	340.37	11.67	
2025-01-13 03:56:50.39	340.33	11.67	
2025-01-13 03:56:50.59	340.29	11.68	
2025-01-13 03:56:50.80	340.24	11.68	
2025-01-13 03:56:51.01	340.20	11.69	
2025-01-13 03:56:51.21	340.16	11.70	
2025-01-13 03:56:51.42	340.11	11.70	
2025-01-13 03:56:51.62	340.07	11.71	
2025-01-13 03:56:51.83	340.03	11.71	
2025-01-13 03:56:52.03	339.99	11.72	
2025-01-13 03:56:52.23	339.95	11.73	
2025-01-13 03:56:52.44	339.90	11.73	
2025-01-13 03:56:52.64	339.86	11.74	
2025-01-13 03:56:52.85	339.82	11.74	
2025-01-13 03:56:53.05	339.78	11.75	
2025-01-13 03:56:53.26	339.73	11.76	
2025-01-13 03:56:53.46	339.69	11.76	
2025-01-13 03:56:53.67	339.65	11.77	
2025-01-13 03:56:53.87	339.60	11.77	
2025-01-13 03:56:54.08	339.56	11.78	
2025-01-13 03:56:54.28	339.52	11.79	
2025-01-13 03:56:54.49	339.48	11.79	
2025-01-13 03:56:54.70	339.43	11.80	
2025-01-13 03:56:54.90	339.39	11.80	
2025-01-13 03:56:55.11	339.35	11.81	
2025-01-13 03:56:55.31	339.30	11.82	
2025-01-13 03:56:55.51	339.26	11.82	
2025-01-13 03:56:55.72	339.22	11.83	
2025-01-13 03:56:55.93	339.17	11.83	
2025-01-13 03:56:56.13	339.13	11.84	
2025-01-13 03:56:56.34	339.09	11.84	
2025-01-13 03:56:56.54	339.05	11.85	
2025-01-13 03:56:56.74	339.00	11.86	
2025-01-13 03:56:56.95	338.96	11.86	
2025-01-13 03:56:57.15	338.92	11.87	
2025-01-13 03:56:57.36	338.87	11.87	
2025-01-13 03:56:57.56	338.83	11.88	
2025-01-13 03:56:57.77	338.79	11.88	
2025-01-13 03:56:57.97	338.75	11.89	
2025-01-13 03:56:58.18	338.70	11.89	
2025-01-13 03:56:58.38	338.66	11.90	
2025-01-13 03:56:58.59	338.62	11.91	
2025-01-13 03:56:58.79	338.57	11.91	
2025-01-13 03:56:59.00	338.53	11.92	
2025-01-13 03:56:59.20	338.49	11.92	
2025-01-13 03:56:59.41	338.44	11.93	
2025-01-13 03:56:59.62	338.40	11.93	
2025-01-13 03:56:59.82	338.36	11.94	
2025-01-13 03:57:00.03	338.31	11.94	
2025-01-13 03:57:00.23	338.27	11.95	
2025-01-13 03:57:00.43	338.23	11.96	
2025-01-13 03:57:00.64	338.18	11.96	
2025-01-13 03:57:00.85	338.14	11.97	
2025-01-13 03:57:01.05	338.10	11.97	
2025-01-13 03:57:01.26	338.05	11.98	
2025-01-13 03:57:01.46	338.01	11.98	
2025-01-13 03:57:01.67	337.96	11.99	
2025-01-13 03:57:01.87	337.92	11.99	
2025-01-13 03:57:02.07	337.88	12.00	
2025-01-13 03:57:02.28	337.83	12.00	
2025-01-13 03:57:02.48	337.79	12.01	
2025-01-13 03:57:02.69	337.75	12.01	
2025-01-13 03:57:02.89	337.70	12.02	
2025-01-13 03:57:03.10	337.66	12.03	
2025-01-13 03:57:03.31	337.62	12.03	
2025-01-13 03:57:03.51	337.57	12.04	
2025-01-13 03:57:03.72	337.53	12.04	
2025-01-13 03:57:03.92	337.49	12.05	
2025-01-13 03:57:04.13	337.44	12.05	
2025-01-13 03:57:04.33	337.40	12.06	
2025-01-13 03:57:04.54	337.35	12.06	
2025-01-13 03:57:04.74	337.31	12.07	
2025-01-13 03:57:04.95	337.27	12.07	
2025-01-13 03:57:05.15	337.22	12.08	
2025-01-13 03:57:05.36	337.18	12.08	
2025-01-13 03:57:05.56	337.14	12.09	
2025-01-13 03:57:05.77	337.09	12.09	
2025-01-13 03:57:05.97	337.05	12.10	
2025-01-13 03:57:06.19	337.00	12.10	
2025-01-13 03:57:06.40	336.96	12.11	
2025-01-13 03:57:06.60	336.91	12.11	
2025-01-13 03:57:06.81	336.87	12.12	
2025-01-13 03:57:07.01	336.83	12.12	
2025-01-13 03:57:07.22	336.78	12.13	
2025-01-13 03:57:07.42	336.74	12.13	
2025-01-13 03:57:07.63	336.69	12.14	
2025-01-13 03:57:07.83	336.65	12.14	
2025-01-13 03:57:08.04	336.61	12.15	
2025-01-13 03:57:08.24	336.56	12.15	
2025-01-13 03:57:08.45	336.52	12.16	
2025-01-13 03:57:08.65	336.47	12.16	
2025-01-13 03:57:08.85	336.43	12.17	
2025-01-13 03:57:09.06	336.39	12.17	
2025-01-13 03:57:09.26	336.34	12.18	
2025-01-13 03:57:09.47	336.30	12.18	
2025-01-13 03:57:09.67	336.25	12.19	
2025-01-13 03:57:09.88	336.21	12.19	
2025-01-13 03:57:10.08	336.17	12.20	
2025-01-13 03:57:10.28	336.12	12.20	
2025-01-13 03:57:10.49	336.08	12.21	
2025-01-13 03:57:10.69	336.04	12.21	
2025-01-13 03:57:10.90	335.99	12.22	
2025-01-13 03:57:11.11	335.94	12.22	
2025-01-13 03:57:11.31	335.90	12.22	
2025-01-13 03:57:11.52	335.86	12.23	
2025-01-13 03:57:11.73	335.81	12.23	
2025-01-13 03:57:11.93	335.77	12.24	
2025-01-13 03:57:12.14	335.72	12.24	
2025-01-13 03:57:12.35	335.68	12.25	
2025-01-13 03:57:12.55	335.63	12.25	
2025-01-13 03:57:12.76	335.59	12.26	
2025-01-13 03:57:12.96	335.54	12.26	
2025-01-13 03:57:13.17	335.50	12.27	
2025-01-13 03:57:13.37	335.46	12.27	
2025-01-13 03:57:13.58	335.41	12.28	
2025-01-13 03:57:13.78	335.37	12.28	
2025-01-13 03:57:13.99	335.32	12.28	
2025-01-13 03:57:14.19	335.28	12.29	
2025-01-13 03:57:14.40	335.23	12.29	
2025-01-13 03:57:14.60	335.19	12.30	
2025-01-13 03:57:14.81	335.14	12.30	
2025-01-13 03:57:15.01	335.10	12.31	
2025-01-13 03:57:15.22	335.05	12.31	
2025-01-13 03:57:15.42	335.01	12.32	
2025-01-13 03:57:15.63	334.97	12.32	
2025-01-13 03:57:15.83	334.92	12.32	
2025-01-13 03:57:16.04	334.88	12.33	
2025-01-13 03:57:16.24	334.83	12.33	
2025-01-13 03:57:16.45	334.79	12.34	
2025-01-13 03:57:16.65	334.74	12.34	
2025-01-13 03:57:16.86	334.70	12.35	
2025-01-13 03:57:17.06	334.65	12.35	
2025-01-13 03:57:17.27	334.61	12.35	
2025-01-13 03:57:17.47	334.57	12.36	
2025-01-13 03:57:17.68	334.52	12.36	
2025-01-13 03:57:17.90	334.47	12.37	
2025-01-13 03:57:18.10	334.43	12.37	
2025-01-13 03:57:18.31	334.38	12.38	
2025-01-13 03:57:18.51	334.34	12.38	
2025-01-13 03:57:18.72	334.29	12.38	
2025-01-13 03:57:18.92	334.25	12.39	
2025-01-13 03:57:19.13	334.20	12.39	
2025-01-13 03:57:19.33	334.16	12.40	
2025-01-13 03:57:19.54	334.11	12.40	
2025-01-13 03:57:19.74	334.07	12.40	
2025-01-13 03:57:19.95	334.02	12.41	
2025-01-13 03:57:20.15	333.98	12.41	
2025-01-13 03:57:20.36	333.93	12.42	
2025-01-13 03:57:20.56	333.89	12.42	
2025-01-13 03:57:20.77	333.84	12.43	
2025-01-13 03:57:20.97	333.80	12.43	
2025-01-13 03:57:21.18	333.75	12.43	
2025-01-13 03:57:21.38	333.71	12.44	
2025-01-13 03:57:21.59	333.66	12.44	
2025-01-13 03:57:21.80	333.62	12.44	
2025-01-13 03:57:22.00	333.57	12.45	
2025-01-13 03:57:22.21	333.53	12.45	
2025-01-13 03:57:22.41	333.48	12.46	
2025-01-13 03:57:22.61	333.44	12.46	
2025-01-13 03:57:22.82	333.39	12.46	
2025-01-13 03:57:23.02	333.35	12.47	
2025-01-13 03:57:23.24	333.30	12.47	
2025-01-13 03:57:23.44	333.26	12.48	
2025-01-13 03:57:23.65	333.21	12.48	
2025-01-13 03:57:23.85	333.17	12.48	
2025-01-13 03:57:24.06	333.12	12.49	
2025-01-13 03:57:24.28	333.07	12.49	
2025-01-13 03:57:24.48	333.03	12.49	
2025-01-13 03:57:24.69	332.98	12.50	
2025-01-13 03:57:24.89	332.94	12.50	
2025-01-13 03:57:25.10	332.89	12.51	
2025-01-13 03:57:25.30	332.85	12.51	
2025-01-13 03:57:25.51	332.80	12.51	
2025-01-13 03:57:25.71	332.76	12.52	
2025-01-13 03:57:25.92	332.71	12.52	
2025-01-13 03:57:26.12	332.67	12.52	
2025-01-13 03:57:26.33	332.62	12.53	
2025-01-13 03:57:26.53	332.58	12.53	
2025-01-13 03:57:26.74	332.53	12.53	
2025-01-13 03:57:26.94	332.49	12.54	
2025-01-13 03:57:27.15	332.44	12.54	
2025-01-13 03:57:27.35	332.40	12.54	
2025-01-13 03:57:27.56	332.35	12.55	
2025-01-13 03:57:27.76	332.31	12.55	
2025-01-13 03:57:27.97	332.26	12.56	
2025-01-13 03:57:28.17	332.21	12.56	
2025-01-13 03:57:28.38	332.17	12.56	
2025-01-13 03:57:28.58	332.12	12.57	
2025-01-13 03:57:28.79	332.08	12.57	
2025-01-13 03:57:29.00	332.03	12.57	
2025-01-13 03:57:29.20	331.99	12.58	
2025-01-13 03:57:29.41	331.94	12.58	
2025-01-13 03:57:29.61	331.90	12.58	
2025-01-13 03:57:29.82	331.85	12.59	
2025-01-13 03:57:30.02	331.81	12.59	
2025-01-13 03:57:30.23	331.76	12.59	
2025-01-13 03:57:30.43	331.71	12.60	
2025-01-13 03:57:30.64	331.67	12.60	
2025-01-13 03:57:30.84	331.62	12.60	
2025-01-13 03:57:31.05	331.58	12.61	
2025-01-13 03:57:31.26	331.53	12.61	
2025-01-13 03:57:31.46	331.49	12.61	
2025-01-13 03:57:31.67	331.44	12.61	
2025-01-13 03:57:31.87	331.39	12.62	
2025-01-13 03:57:32.08	331.35	12.62	
2025-01-13 03:57:32.28	331.30	12.62	
2025-01-13 03:57:32.49	331.26	12.63	
2025-01-13 03:57:32.69	331.21	12.63	
2025-01-13 03:57:32.89	331.17	12.63	
2025-01-13 03:57:33.10	331.12	12.64	
2025-01-13 03:57:33.31	331.07	12.64	
2025-01-13 03:57:33.51	331.03	12.64	
2025-01-13 03:57:33.72	330.98	12.65	
2025-01-13 03:57:33.92	330.94	12.65	
2025-01-13 03:57:34.13	330.89	12.65	
2025-01-13 03:57:34.33	330.85	12.65	
2025-01-13 03:57:34.54	330.80	12.66	
2025-01-13 03:57:34.74	330.76	12.66	
2025-01-13 03:57:34.95	330.71	12.66	
2025-01-13 03:57:35.15	330.66	12.67	
2025-01-13 03:57:35.36	330.62	12.67	
2025-01-13 03:57:35.56	330.57	12.67	
2025-01-13 03:57:35.77	330.53	12.67	
2025-01-13 03:57:35.97	330.48	12.68	
2025-01-13 03:57:36.18	330.43	12.68	
2025-01-13 03:57:36.38	330.39	12.68	
2025-01-13 03:57:36.59	330.34	12.69	
2025-01-13 03:57:36.79	330.30	12.69	
2025-01-13 03:57:37.00	330.25	12.69	
2025-01-13 03:57:37.21	330.20	12.69	
2025-01-13 03:57:37.42	330.16	12.70	
2025-01-13 03:57:37.62	330.11	12.70	
2025-01-13 03:57:37.83	330.07	12.70	
2025-01-13 03:57:38.04	330.02	12.70	
2025-01-13 03:57:38.24	329.97	12.71	
2025-01-13 03:57:38.45	329.93	12.71	
2025-01-13 03:57:38.65	329.88	12.71	
2025-01-13 03:57:38.86	329.84	12.71	
2025-01-13 03:57:39.06	329.79	12.72	
2025-01-13 03:57:39.27	329.74	12.72	
2025-01-13 03:57:39.47	329.70	12.72	
2025-01-13 03:57:39.68	329.65	12.72	
2025-01-13 03:57:39.88	329.61	12.73	
2025-01-13 03:57:40.09	329.56	12.73	
2025-01-13 03:57:40.29	329.52	12.73	
2025-01-13 03:57:40.50	329.47	12.73	
2025-01-13 03:57:40.70	329.42	12.74	
2025-01-13 03:57:40.91	329.38	12.74	
2025-01-13 03:57:41.12	329.33	12.74	
2025-01-13 03:57:41.32	329.28	12.74	
2025-01-13 03:57:41.52	329.24	12.75	
2025-01-13 03:57:41.73	329.19	12.75	
2025-01-13 03:57:41.93	329.15	12.75	
2025-01-13 03:57:42.14	329.10	12.75	
2025-01-13 03:57:42.34	329.06	12.76	
2025-01-13 03:57:42.55	329.01	12.76	
2025-01-13 03:57:42.75	328.96	12.76	
2025-01-13 03:57:42.97	328.91	12.76	
2025-01-13 03:57:43.17	328.87	12.76	
2025-01-13 03:57:43.38	328.82	12.77	
2025-01-13 03:57:43.58	328.78	12.77	
2025-01-13 03:57:43.79	328.73	12.77	
2025-01-13 03:57:43.99	328.68	12.77	
2025-01-13 03:57:44.20	328.64	12.78	
2025-01-13 03:57:44.40	328.59	12.78	
2025-01-13 03:57:44.61	328.55	12.78	
2025-01-13 03:57:44.81	328.50	12.78	
2025-01-13 03:57:45.02	328.45	12.78	
2025-01-13 03:57:45.22	328.41	12.79	
2025-01-13 03:57:45.43	328.36	12.79	
2025-01-13 03:57:45.63	328.32	12.79	
2025-01-13 03:57:45.84	328.27	12.79	
2025-01-13 03:57:46.05	328.22	12.79	
2025-01-13 03:57:46.25	328.18	12.80	
2025-01-13 03:57:46.46	328.13	12.80	
2025-01-13 03:57:46.66	328.08	12.80	
2025-01-13 03:57:46.87	328.04	12.80	
2025-01-13 03:57:47.07	327.99	12.80	
2025-01-13 03:57:47.28	327.94	12.81	
2025-01-13 03:57:47.48	327.90	12.81	
2025-01-13 03:57:47.69	327.85	12.81	
2025-01-13 03:57:47.89	327.81	12.81	
2025-01-13 03:57:48.10	327.76	12.81	
2025-01-13 03:57:48.30	327.71	12.81	
2025-01-13 03:57:48.51	327.67	12.82	
2025-01-13 03:57:48.71	327.62	12.82	
2025-01-13 03:57:48.92	327.57	12.82	
2025-01-13 03:57:49.12	327.53	12.82	
2025-01-13 03:57:49.33	327.48	12.82	
2025-01-13 03:57:49.53	327.44	12.82	
2025-01-13 03:57:49.74	327.39	12.83	
2025-01-13 03:57:49.96	327.34	12.83	
2025-01-13 03:57:50.16	327.29	12.83	
2025-01-13 03:57:50.37	327.25	12.83	
2025-01-13 03:57:50.58	327.20	12.83	
2025-01-13 03:57:50.79	327.15	12.83	
2025-01-13 03:57:50.99	327.11	12.84	
2025-01-13 03:57:51.20	327.06	12.84	
2025-01-13 03:57:51.41	327.01	12.84	
2025-01-13 03:57:51.61	326.97	12.84	
2025-01-13 03:57:51.82	326.92	12.84	
2025-01-13 03:57:52.02	326.87	12.84	
2025-01-13 03:57:52.23	326.83	12.85	
2025-01-13 03:57:52.43	326.78	12.85	
2025-01-13 03:57:52.64	326.73	12.85	
2025-01-13 03:57:52.84	326.69	12.85	
2025-01-13 03:57:53.04	326.64	12.85	
2025-01-13 03:57:53.25	326.60	12.85	
2025-01-13 03:57:53.46	326.55	12.85	
2025-01-13 03:57:53.66	326.50	12.85	
2025-01-13 03:57:53.87	326.46	12.86	
2025-01-13 03:57:54.07	326.41	12.86	
2025-01-13 03:57:54.28	326.36	12.86	
2025-01-13 03:57:54.48	326.32	12.86	
2025-01-13 03:57:54.69	326.27	12.86	
2025-01-13 03:57:54.89	326.23	12.86	
2025-01-13 03:57:55.10	326.18	12.86	
2025-01-13 03:57:55.30	326.13	12.86	
2025-01-13 03:57:55.51	326.08	12.87	
2025-01-13 03:57:55.71	326.04	12.87	
2025-01-13 03:57:55.92	325.99	12.87	
2025-01-13 03:57:56.12	325.95	12.87	
2025-01-13 03:57:56.33	325.90	12.87	
2025-01-13 03:57:56.53	325.85	12.87	
2025-01-13 03:57:56.74	325.81	12.87	
2025-01-13 03:57:56.95	325.76	12.87	
2025-01-13 03:57:57.15	325.71	12.87	
2025-01-13 03:57:57.35	325.67	12.88	
2025-01-13 03:57:57.56	325.62	12.88	
2025-01-13 03:57:57.76	325.58	12.88	
2025-01-13 03:57:57.97	325.53	12.88	
2025-01-13 03:57:58.17	325.48	12.88	
2025-01-13 03:57:58.38	325.43	12.88	
2025-01-13 03:57:58.58	325.39	12.88	
2025-01-13 03:57:58.79	325.34	12.88	
2025-01-13 03:57:58.99	325.30	12.88	
2025-01-13 03:57:59.20	325.25	12.88	
2025-01-13 03:57:59.40	325.20	12.88	
2025-01-13 03:57:59.61	325.16	12.89	
2025-01-13 03:57:59.81	325.11	12.89	
2025-01-13 03:58:00.02	325.06	12.89	
2025-01-13 03:58:00.22	325.02	12.89	
2025-01-13 03:58:00.43	324.97	12.89	
2025-01-13 03:58:00.63	324.92	12.89	
2025-01-13 03:58:00.84	324.88	12.89	
2025-01-13 03:58:01.04	324.83	12.89	
2025-01-13 03:58:01.25	324.78	12.89	
2025-01-13 03:58:01.45	324.74	12.89	
2025-01-13 03:58:01.66	324.69	12.89	
2025-01-13 03:58:01.86	324.65	12.89	
2025-01-13 03:58:02.07	324.60	12.89	
2025-01-13 03:58:02.27	324.55	12.89	
2025-01-13 03:58:02.48	324.50	12.90	
2025-01-13 03:58:02.68	324.46	12.90	
2025-01-13 03:58:02.89	324.41	12.90	
2025-01-13 03:58:03.09	324.37	12.90	
2025-01-13 03:58:03.30	324.32	12.90	
2025-01-13 03:58:03.51	324.27	12.90	
2025-01-13 03:58:03.71	324.23	12.90	
2025-01-13 03:58:03.91	324.18	12.90	
2025-01-13 03:58:04.12	324.13	12.90	
2025-01-13 03:58:04.33	324.09	12.90	
2025-01-13 03:58:04.53	324.04	12.90	
2025-01-13 03:58:04.74	323.99	12.90	
2025-01-13 03:58:04.95	323.94	12.90	
2025-01-13 03:58:05.16	323.90	12.90	
2025-01-13 03:58:05.37	323.85	12.90	
2025-01-13 03:58:05.57	323.80	12.90	
2025-01-13 03:58:05.78	323.76	12.90	
2025-01-13 03:58:05.98	323.71	12.90	
2025-01-13 03:58:06.18	323.67	12.90	
2025-01-13 03:58:06.39	323.62	12.90	
2025-01-13 03:58:06.60	323.57	12.90	
2025-01-13 03:58:06.80	323.52	12.90	
2025-01-13 03:58:07.01	323.48	12.90	
2025-01-13 03:58:07.21	323.43	12.90	
2025-01-13 03:58:07.42	323.38	12.90	
2025-01-13 03:58:07.62	323.34	12.90	
2025-01-13 03:58:07.83	323.29	12.90	
2025-01-13 03:58:08.03	323.25	12.90	
2025-01-13 03:58:08.24	323.20	12.90	
2025-01-13 03:58:08.44	323.15	12.90	
2025-01-13 03:58:08.65	323.10	12.90	
2025-01-13 03:58:08.86	323.06	12.90	
2025-01-13 03:58:09.06	323.01	12.90	
2025-01-13 03:58:09.26	322.97	12.90	
2025-01-13 03:58:09.47	322.92	12.90	
2025-01-13 03:58:09.68	322.87	12.90	
2025-01-13 03:58:09.88	322.82	12.90	
2025-01-13 03:58:10.09	322.78	12.90	
2025-01-13 03:58:10.29	322.73	12.90	
2025-01-13 03:58:10.50	322.68	12.90	
2025-01-13 03:58:10.71	322.64	12.90	
2025-01-13 03:58:10.91	322.59	12.90	
2025-01-13 03:58:11.12	322.54	12.90	
2025-01-13 03:58:11.32	322.50	12.90	
2025-01-13 03:58:11.53	322.45	12.90	
2025-01-13 03:58:11.73	322.40	12.90	
2025-01-13 03:58:11.94	322.36	12.90	
2025-01-13 03:58:12.14	322.31	12.90	
2025-01-13 03:58:12.35	322.26	12.90	
2025-01-13 03:58:12.55	322.22	12.90	
2025-01-13 03:58:12.76	322.17	12.90	
2025-01-13 03:58:12.96	322.13	12.90	
2025-01-13 03:58:13.17	322.08	12.90	
2025-01-13 03:58:13.37	322.03	12.90	
2025-01-13 03:58:13.58	321.98	12.90	
2025-01-13 03:58:13.78	321.94	12.90	
2025-01-13 03:58:13.99	321.89	12.90	
2025-01-13 03:58:14.20	321.84	12.90	
2025-01-13 03:58:14.40	321.80	12.90	
2025-01-13 03:58:14.61	321.75	12.90	
2025-01-13 03:58:14.81	321.71	12.90	
2025-01-13 03:58:15.02	321.66	12.90	
2025-01-13 03:58:15.22	321.61	12.90	
2025-01-13 03:58:15.43	321.56	12.90	
2025-01-13 03:58:15.63	321.52	12.90	
2025-01-13 03:58:15.84	321.47	12.90	
2025-01-13 03:58:16.04	321.43	12.89	
2025-01-13 03:58:16.25	321.38	12.89	
2025-01-13 03:58:16.46	321.33	12.89	
2025-01-13 03:58:16.66	321.29	12.89	
2025-01-13 03:58:16.86	321.24	12.89	
2025-01-13 03:58:17.07	321.19	12.89	
2025-01-13 03:58:17.27	321.15	12.89	
2025-01-13 03:58:17.48	321.10	12.89	
2025-01-13 03:58:17.69	321.05	12.89	
2025-01-13 03:58:17.89	321.01	12.89	
2025-01-13 03:58:18.10	320.96	12.89	
2025-01-13 03:58:18.30	320.91	12.89	
2025-01-13 03:58:18.51	320.87	12.89	
2025-01-13 03:58:18.71	320.82	12.89	
2025-01-13 03:58:18.91	320.78	12.88	
2025-01-13 03:58:19.12	320.73	12.88	
2025-01-13 03:58:19.33	320.68	12.88	
2025-01-13 03:58:19.53	320.63	12.88	
2025-01-13 03:58:19.74	320.59	12.88	
2025-01-13 03:58:19.94	320.54	12.88	
2025-01-13 03:58:20.15	320.49	12.88	
2025-01-13 03:58:20.35	320.45	12.88	
2025-01-13 03:58:20.56	320.40	12.88	
2025-01-13 03:58:20.76	320.36	12.88	
2025-01-13 03:58:20.98	320.31	12.88	
2025-01-13 03:58:21.19	320.26	12.87	
2025-01-13 03:58:21.39	320.21	12.87	
2025-01-13 03:58:21.60	320.17	12.87	
2025-01-13 03:58:21.81	320.12	12.87	
2025-01-13 03:58:22.01	320.07	12.87	
2025-01-13 03:58:22.22	320.02	12.87	
2025-01-13 03:58:22.42	319.98	12.87	
2025-01-13 03:58:22.63	319.93	12.87	
2025-01-13 03:58:22.83	319.89	12.87	
2025-01-13 03:58:23.04	319.84	12.86	
2025-01-13 03:58:23.25	319.79	12.86	
2025-01-13 03:58:23.46	319.74	12.86	
2025-01-13 03:58:23.67	319.70	12.86	
2025-01-13 03:58:23.87	319.65	12.86	
2025-01-13 03:58:24.08	319.60	12.86	
2025-01-13 03:58:24.28	319.56	12.86	
2025-01-13 03:58:24.49	319.51	12.86	
2025-01-13 03:58:24.69	319.47	12.85	
2025-01-13 03:58:24.90	319.42	12.85	
2025-01-13 03:58:25.10	319.37	12.85	
2025-01-13 03:58:25.32	319.32	12.85	
2025-01-13 03:58:25.53	319.28	12.85	
2025-01-13 03:58:25.73	319.23	12.85	
2025-01-13 03:58:25.93	319.19	12.85	
2025-01-13 03:58:26.14	319.14	12.84	
2025-01-13 03:58:26.35	319.09	12.84	
2025-01-13 03:58:26.55	319.04	12.84	
2025-01-13 03:58:26.76	319.00	12.84	
2025-01-13 03:58:26.96	318.95	12.84	
2025-01-13 03:58:27.17	318.90	12.84	
2025-01-13 03:58:27.37	318.86	12.83	
2025-01-13 03:58:27.58	318.81	12.83	
2025-01-13 03:58:27.78	318.77	12.83	
2025-01-13 03:58:27.99	318.72	12.83	
2025-01-13 03:58:28.19	318.67	12.83	
2025-01-13 03:58:28.40	318.63	12.83	
2025-01-13 03:58:28.60	318.58	12.83	
2025-01-13 03:58:28.81	318.53	12.82	
2025-01-13 03:58:29.02	318.49	12.82	
2025-01-13 03:58:29.22	318.44	12.82	
2025-01-13 03:58:29.43	318.39	12.82	
2025-01-13 03:58:29.63	318.35	12.82	
2025-01-13 03:58:29.84	318.30	12.81	
2025-01-13 03:58:30.04	318.26	12.81	
2025-01-13 03:58:30.25	318.21	12.81	
2025-01-13 03:58:30.45	318.16	12.81	
2025-01-13 03:58:30.66	318.12	12.81	
2025-01-13 03:58:30.86	318.07	12.81	
2025-01-13 03:58:31.07	318.02	12.80	
2025-01-13 03:58:31.27	317.98	12.80	
2025-01-13 03:58:31.48	317.93	12.80	
2025-01-13 03:58:31.68	317.89	12.80	
2025-01-13 03:58:31.89	317.84	12.80	
2025-01-13 03:58:32.10	317.79	12.79	
2025-01-13 03:58:32.30	317.75	12.79	
2025-01-13 03:58:32.50	317.70	12.79	
2025-01-13 03:58:32.71	317.65	12.79	
2025-01-13 03:58:32.92	317.61	12.79	
2025-01-13 03:58:33.12	317.56	12.78	
2025-01-13 03:58:33.32	317.52	12.78	
2025-01-13 03:58:33.53	317.47	12.78	
2025-01-13 03:58:33.73	317.43	12.78	
2025-01-13 03:58:33.94	317.38	12.78	
2025-01-13 03:58:34.14	317.33	12.77	
2025-01-13 03:58:34.35	317.29	12.77	
2025-01-13 03:58:34.56	317.24	12.77	
2025-01-13 03:58:34.76	317.19	12.77	
2025-01-13 03:58:34.97	317.15	12.77	
2025-01-13 03:58:35.17	317.10	12.76	
2025-01-13 03:58:35.38	317.05	12.76	
2025-01-13 03:58:35.59	317.01	12.76	
2025-01-13 03:58:35.79	316.96	12.76	
2025-01-13 03:58:35.99	316.92	12.75	
2025-01-13 03:58:36.20	316.87	12.75	
2025-01-13 03:58:36.41	316.82	12.75	
2025-01-13 03:58:36.61	316.78	12.75	
2025-01-13 03:58:36.82	316.73	12.74	
2025-01-13 03:58:37.02	316.69	12.74	
2025-01-13 03:58:37.23	316.64	12.74	
2025-01-13 03:58:37.43	316.59	12.74	
2025-01-13 03:58:37.64	316.55	12.74	
2025-01-13 03:58:37.85	316.50	12.73	
2025-01-13 03:58:38.06	316.45	12.73	
2025-01-13 03:58:38.27	316.40	12.73	
2025-01-13 03:58:38.48	316.36	12.73	
2025-01-13 03:58:38.68	316.31	12.72	
2025-01-13 03:58:38.89	316.27	12.72	
2025-01-13 03:58:39.09	316.22	12.72	
2025-01-13 03:58:39.30	316.17	12.71	
2025-01-13 03:58:39.50	316.13	12.71	
2025-01-13 03:58:39.71	316.08	12.71	
2025-01-13 03:58:39.91	316.04	12.71	
2025-01-13 03:58:40.12	315.99	12.70	
2025-01-13 03:58:40.32	315.95	12.70	
2025-01-13 03:58:40.53	315.90	12.70	
2025-01-13 03:58:40.73	315.85	12.70	
2025-01-13 03:58:40.94	315.81	12.69	
2025-01-13 03:58:41.14	315.76	12.69	
2025-01-13 03:58:41.35	315.72	12.69	
2025-01-13 03:58:41.55	315.67	12.69	
2025-01-13 03:58:41.76	315.62	12.68	
2025-01-13 03:58:41.97	315.58	12.68	
2025-01-13 03:58:42.17	315.53	12.68	
2025-01-13 03:58:42.39	315.48	12.67	
2025-01-13 03:58:42.60	315.44	12.67	
2025-01-13 03:58:42.80	315.39	12.67	
2025-01-13 03:58:43.01	315.34	12.67	
2025-01-13 03:58:43.21	315.30	12.66	
2025-01-13 03:58:43.42	315.25	12.66	
2025-01-13 03:58:43.63	315.21	12.66	
2025-01-13 03:58:43.83	315.16	12.65	
2025-01-13 03:58:44.04	315.11	12.65	
2025-01-13 03:58:44.24	315.07	12.65	
2025-01-13 03:58:44.46	315.02	12.65	
2025-01-13 03:58:44.66	314.98	12.64	
2025-01-13 03:58:44.87	314.93	12.64	
2025-01-13 03:58:45.08	314.88	12.64	
2025-01-13 03:58:45.28	314.84	12.63	
2025-01-13 03:58:45.49	314.79	12.63	
2025-01-13 03:58:45.69	314.75	12.63	
2025-01-13 03:58:45.90	314.70	12.62	
2025-01-13 03:58:46.11	314.65	12.62	
2025-01-13 03:58:46.31	314.61	12.62	
2025-01-13 03:58:46.52	314.56	12.61	
2025-01-13 03:58:46.72	314.52	12.61	
2025-01-13 03:58:46.93	314.47	12.61	
2025-01-13 03:58:47.13	314.43	12.61	
2025-01-13 03:58:47.34	314.38	12.60	
2025-01-13 03:58:47.55	314.33	12.60	
2025-01-13 03:58:47.75	314.29	12.60	
2025-01-13 03:58:47.95	314.24	12.59	
2025-01-13 03:58:48.16	314.20	12.59	
2025-01-13 03:58:48.37	314.15	12.59	
2025-01-13 03:58:48.57	314.11	12.58	
2025-01-13 03:58:48.78	314.06	12.58	
2025-01-13 03:58:48.98	314.02	12.58	
2025-01-13 03:58:49.18	313.97	12.57	
2025-01-13 03:58:49.39	313.92	12.57	
2025-01-13 03:58:49.60	313.88	12.57	
2025-01-13 03:58:49.80	313.83	12.56	
2025-01-13 03:58:50.01	313.79	12.56	
2025-01-13 03:58:50.22	313.74	12.56	
2025-01-13 03:58:50.42	313.70	12.55	
2025-01-13 03:58:50.63	313.65	12.55	
2025-01-13 03:58:50.83	313.61	12.55	
2025-01-13 03:58:51.03	313.56	12.54	
2025-01-13 03:58:51.24	313.51	12.54	
2025-01-13 03:58:51.45	313.47	12.53	
2025-01-13 03:58:51.65	313.42	12.53	
2025-01-13 03:58:51.85	313.38	12.53	
2025-01-13 03:58:52.06	313.33	12.52	
2025-01-13 03:58:52.26	313.29	12.52	
2025-01-13 03:58:52.47	313.24	12.52	
2025-01-13 03:58:52.68	313.20	12.51	
2025-01-13 03:58:52.88	313.15	12.51	
2025-01-13 03:58:53.08	313.11	12.51	
2025-01-13 03:58:53.29	313.06	12.50	
2025-01-13 03:58:53.49	313.02	12.50	
2025-01-13 03:58:53.70	312.97	12.49	
2025-01-13 03:58:53.91	312.93	12.49	
2025-01-13 03:58:54.11	312.88	12.49	
2025-01-13 03:58:54.31	312.84	12.48	
2025-01-13 03:58:54.52	312.79	12.48	
2025-01-13 03:58:54.73	312.74	12.48	
2025-01-13 03:58:54.93	312.70	12.47	
2025-01-13 03:58:55.13	312.66	12.47	
2025-01-13 03:58:55.34	312.61	12.46	
2025-01-13 03:58:55.55	312.56	12.46	
2025-01-13 03:58:55.75	312.52	12.46	
2025-01-13 03:58:55.96	312.47	12.45	
2025-01-13 03:58:56.16	312.43	12.45	
2025-01-13 03:58:56.37	312.38	12.45	
2025-01-13 03:58:56.57	312.34	12.44	
2025-01-13 03:58:56.78	312.29	12.44	
2025-01-13 03:58:56.99	312.25	12.43	
2025-01-13 03:58:57.19	312.20	12.43	
2025-01-13 03:58:57.40	312.16	12.43	
2025-01-13 03:58:57.60	312.11	12.42	
2025-01-13 03:58:57.81	312.07	12.42	
2025-01-13 03:58:58.01	312.02	12.41	
2025-01-13 03:58:58.22	311.98	12.41	
2025-01-13 03:58:58.42	311.93	12.41	
2025-01-13 03:58:58.63	311.89	12.40	
2025-01-13 03:58:58.84	311.84	12.40	
2025-01-13 03:58:59.04	311.80	12.39	
2025-01-13 03:58:59.25	311.75	12.39	
2025-01-13 03:58:59.45	311.71	12.38	
2025-01-13 03:58:59.66	311.66	12.38	
2025-01-13 03:58:59.86	311.62	12.38	
2025-01-13 03:59:00.07	311.57	12.37	
2025-01-13 03:59:00.27	311.53	12.37	
2025-01-13 03:59:00.47	311.49	12.36	
2025-01-13 03:59:00.68	311.44	12.36	
2025-01-13 03:59:00.89	311.39	12.36	
2025-01-13 03:59:01.09	311.35	12.35	
2025-01-13 03:59:01.30	311.30	12.35	
2025-01-13 03:59:01.50	311.26	12.34	
2025-01-13 03:59:01.71	311.21	12.34	
2025-01-13 03:59:01.91	311.17	12.33	
2025-01-13 03:59:02.12	311.13	12.33	
2025-01-13 03:59:02.33	311.08	12.32	
2025-01-13 03:59:02.53	311.04	12.32	
2025-01-13 03:59:02.73	310.99	12.32	
2025-01-13 03:59:02.94	310.95	12.31	
2025-01-13 03:59:03.14	310.90	12.31	
2025-01-13 03:59:03.35	310.86	12.30	
2025-01-13 03:59:03.55	310.81	12.30	
2025-01-13 03:59:03.76	310.77	12.29	
2025-01-13 03:59:03.96	310.73	12.29	
2025-01-13 03:59:04.17	310.68	12.29	
2025-01-13 03:59:04.38	310.63	12.28	
2025-01-13 03:59:04.58	310.59	12.28	
2025-01-13 03:59:04.78	310.55	12.27	
2025-01-13 03:59:04.99	310.50	12.27	
2025-01-13 03:59:05.20	310.46	12.26	
2025-01-13 03:59:05.40	310.41	12.26	
2025-01-13 03:59:05.61	310.37	12.25	
2025-01-13 03:59:05.81	310.32	12.25	
2025-01-13 03:59:06.02	310.28	12.24	
2025-01-13 03:59:06.22	310.23	12.24	
2025-01-13 03:59:06.43	310.19	12.23	
2025-01-13 03:59:06.63	310.15	12.23	
2025-01-13 03:59:06.84	310.10	12.23	
2025-01-13 03:59:07.04	310.06	12.22	
2025-01-13 03:59:07.25	310.01	12.22	
2025-01-13 03:59:07.46	309.97	12.21	
2025-01-13 03:59:07.66	309.92	12.21	
2025-01-13 03:59:07.88	309.88	12.20	
2025-01-13 03:59:08.09	309.83	12.20	
2025-01-13 03:59:08.29	309.79	12.19	
2025-01-13 03:59:08.50	309.74	12.19	
2025-01-13 03:59:08.70	309.70	12.18	
2025-01-13 03:59:08.90	309.66	12.18	
2025-01-13 03:59:09.11	309.61	12.17	
2025-01-13 03:59:09.31	309.57	12.17	
2025-01-13 03:59:09.52	309.52	12.16	
2025-01-13 03:59:09.72	309.48	12.16	
2025-01-13 03:59:09.93	309.43	12.15	
2025-01-13 03:59:10.13	309.39	12.15	
2025-01-13 03:59:10.34	309.35	12.14	
2025-01-13 03:59:10.54	309.30	12.14	
2025-01-13 03:59:10.75	309.26	12.13	
2025-01-13 03:59:10.95	309.22	12.13	
2025-01-13 03:59:11.16	309.17	12.12	
2025-01-13 03:59:11.36	309.13	12.12	
2025-01-13 03:59:11.57	309.08	12.11	
2025-01-13 03:59:11.78	309.04	12.11	
2025-01-13 03:59:11.98	308.99	12.10	
2025-01-13 03:59:12.19	308.95	12.10	
2025-01-13 03:59:12.39	308.91	12.09	
2025-01-13 03:59:12.60	308.86	12.09	
2025-01-13 03:59:12.80	308.82	12.08	
2025-01-13 03:59:13.01	308.77	12.08	
2025-01-13 03:59:13.21	308.73	12.07	
2025-01-13 03:59:13.42	308.69	12.07	
2025-01-13 03:59:13.62	308.64	12.06	
2025-01-13 03:59:13.83	308.60	12.06	
2025-01-13 03:59:14.03	308.56	12.05	
2025-01-13 03:59:14.24	308.51	12.05	
2025-01-13 03:59:14.44	308.47	12.04	
2025-01-13 03:59:14.65	308.42	12.04	
2025-01-13 03:59:14.85	308.38	12.03	
2025-01-13 03:59:15.06	308.34	12.03	
2025-01-13 03:59:15.26	308.29	12.02	
2025-01-13 03:59:15.47	308.25	12.01	
2025-01-13 03:59:15.67	308.21	12.01	
2025-01-13 03:59:15.88	308.16	12.00	
2025-01-13 03:59:16.08	308.12	12.00	
2025-01-13 03:59:16.29	308.07	11.99	
2025-01-13 03:59:16.49	308.03	11.99	
2025-01-13 03:59:16.70	307.99	11.98	
2025-01-13 03:59:16.90	307.94	11.98	
2025-01-13 03:59:17.11	307.90	11.97	
2025-01-13 03:59:17.32	307.86	11.97	
2025-01-13 03:59:17.52	307.81	11.96	
2025-01-13 03:59:17.72	307.77	11.96	
2025-01-13 03:59:17.93	307.73	11.95	
2025-01-13 03:59:18.13	307.68	11.94	
2025-01-13 03:59:18.34	307.64	11.94	
2025-01-13 03:59:18.54	307.60	11.93	
2025-01-13 03:59:18.75	307.55	11.93	
2025-01-13 03:59:18.95	307.51	11.92	
2025-01-13 03:59:19.16	307.47	11.92	
2025-01-13 03:59:19.36	307.42	11.91	
2025-01-13 03:59:19.57	307.38	11.91	
2025-01-13 03:59:19.77	307.34	11.90	
2025-01-13 03:59:19.98	307.29	11.89	
2025-01-13 03:59:20.18	307.25	11.89	
2025-01-13 03:59:20.39	307.21	11.88	
2025-01-13 03:59:20.60	307.16	11.88	
2025-01-13 03:59:20.80	307.12	11.87	
2025-01-13 03:59:21.01	307.08	11.87	
2025-01-13 03:59:21.21	307.03	11.86	
2025-01-13 03:59:21.42	306.99	11.86	
2025-01-13 03:59:21.63	306.94	11.85	
2025-01-13 03:59:21.83	306.90	11.84	
2025-01-13 03:59:22.04	306.86	11.84	
2025-01-13 03:59:22.24	306.82	11.83	
2025-01-13 03:59:22.45	306.77	11.83	
2025-01-13 03:59:22.65	306.73	11.82	
2025-01-13 03:59:22.87	306.68	11.81	
2025-01-13 03:59:23.08	306.64	11.81	
2025-01-13 03:59:23.28	306.60	11.80	
2025-01-13 03:59:23.49	306.55	11.80	
2025-01-13 03:59:23.69	306.51	11.79	
2025-01-13 03:59:23.89	306.47	11.79	
2025-01-13 03:59:24.10	306.43	11.78	
2025-01-13 03:59:24.30	306.38	11.77	
2025-01-13 03:59:24.51	306.34	11.77	
2025-01-13 03:59:24.71	306.30	11.76	
2025-01-13 03:59:24.91	306.26	11.76	
2025-01-13 03:59:25.12	306.21	11.75	
2025-01-13 03:59:25.33	306.17	11.74	
2025-01-13 03:59:25.53	306.13	11.74	
2025-01-13 03:59:25.74	306.08	11.73	
2025-01-13 03:59:25.94	306.04	11.73	
2025-01-13 03:59:26.14	306.00	11.72	
2025-01-13 03:59:26.35	305.96	11.71	
2025-01-13 03:59:26.56	305.91	11.71	
2025-01-13 03:59:26.76	305.87	11.70	
2025-01-13 03:59:26.97	305.83	11.70	
2025-01-13 03:59:27.17	305.79	11.69	
2025-01-13 03:59:27.38	305.74	11.68	
2025-01-13 03:59:27.58	305.70	11.68	
2025-01-13 03:59:27.79	305.66	11.67	
2025-01-13 03:59:28.00	305.61	11.67	
2025-01-13 03:59:28.20	305.57	11.66	
2025-01-13 03:59:28.41	305.53	11.65	
2025-01-13 03:59:28.61	305.49	11.65	
2025-01-13 03:59:28.82	305.44	11.64	
2025-01-13 03:59:29.02	305.40	11.63	
2025-01-13 03:59:29.23	305.36	11.63	
2025-01-13 03:59:29.43	305.32	11.62	
2025-01-13 03:59:29.64	305.27	11.62	
2025-01-13 03:59:29.84	305.23	11.61	
2025-01-13 03:59:30.05	305.19	11.60	
2025-01-13 03:59:30.25	305.15	11.60	
2025-01-13 03:59:30.46	305.10	11.59	
2025-01-13 03:59:30.66	305.06	11.58	
2025-01-13 03:59:30.87	305.02	11.58	
2025-01-13 03:59:31.08	304.98	11.57	
2025-01-13 03:59:31.28	304.94	11.57	
2025-01-13 03:59:31.48	304.89	11.56	
2025-01-13 03:59:31.69	304.85	11.55	
2025-01-13 03:59:31.89	304.81	11.55	
2025-01-13 03:59:32.10	304.77	11.54	
2025-01-13 03:59:32.31	304.72	11.53	
2025-01-13 03:59:32.52	304.68	11.53	
2025-01-13 03:59:32.73	304.64	11.52	
2025-01-13 03:59:32.93	304.60	11.51	
2025-01-13 03:59:33.14	304.55	11.51	
2025-01-13 03:59:33.35	304.51	11.50	
2025-01-13 03:59:33.55	304.47	11.49	
2025-01-13 03:59:33.76	304.43	11.49	
2025-01-13 03:59:33.96	304.38	11.48	
2025-01-13 03:59:34.17	304.34	11.48	
2025-01-13 03:59:34.37	304.30	11.47	
2025-01-13 03:59:34.58	304.26	11.46	
2025-01-13 03:59:34.78	304.22	11.46	
2025-01-13 03:59:34.99	304.17	11.45	
2025-01-13 03:59:35.20	304.13	11.44	
2025-01-13 03:59:35.40	304.09	11.44	
2025-01-13 03:59:35.61	304.05	11.43	
2025-01-13 03:59:35.81	304.01	11.42	
2025-01-13 03:59:36.02	303.96	11.42	
2025-01-13 03:59:36.22	303.92	11.41	
2025-01-13 03:59:36.43	303.88	11.40	
2025-01-13 03:59:36.64	303.84	11.40	
2025-01-13 03:59:36.84	303.80	11.39	
2025-01-13 03:59:37.05	303.75	11.38	
2025-01-13 03:59:37.25	303.71	11.38	
