passes_logs/2025/01/13/SPB_Silybum_02/SPB_Silybum_02__20250113_133231_AQUA_rec.log

#Pass ID: 20250113_133231_AQUA
#Satellite: AQUA
#Configuration: AQUA
#Start time: 2025-01-13 13:32:32

#Version: 2.0.20230423
#Station: SPB_Silybum_02
#Location: 30.233357 lon 59.946436 lat
#TLE: 1 27424U 02022A   25012.80860775  .00001720  00000+0  36312-3 0  9993
#TLE: 2 27424  98.3585 329.4528 0001624 113.6325 279.3978 14.60673868207302

#Time	Az	El	Level	Level2	SNR	BER	Gain	Gain2
2025-01-13 13:32:34.12	233.59	4.10	
2025-01-13 13:32:34.32	233.62	4.11	
2025-01-13 13:32:34.53	233.64	4.12	
2025-01-13 13:32:34.75	233.67	4.13	
2025-01-13 13:32:34.95	233.70	4.14	
2025-01-13 13:32:35.16	233.72	4.15	
2025-01-13 13:32:35.36	233.75	4.16	
2025-01-13 13:32:35.57	233.77	4.17	
2025-01-13 13:32:35.78	233.80	4.18	
2025-01-13 13:32:35.99	233.82	4.19	
2025-01-13 13:32:36.20	233.85	4.20	
2025-01-13 13:32:36.40	233.88	4.21	
2025-01-13 13:32:36.61	233.90	4.22	
2025-01-13 13:32:36.81	233.93	4.23	
2025-01-13 13:32:37.02	233.95	4.24	
2025-01-13 13:32:37.22	233.98	4.25	
2025-01-13 13:32:37.43	234.00	4.26	
2025-01-13 13:32:37.63	234.03	4.27	
2025-01-13 13:32:37.84	234.06	4.28	
2025-01-13 13:32:38.04	234.08	4.29	
2025-01-13 13:32:38.25	234.11	4.30	
2025-01-13 13:32:38.46	234.13	4.31	
2025-01-13 13:32:38.66	234.16	4.32	
2025-01-13 13:32:38.87	234.18	4.33	
2025-01-13 13:32:39.07	234.21	4.34	
2025-01-13 13:32:39.28	234.24	4.35	
2025-01-13 13:32:39.48	234.26	4.36	
2025-01-13 13:32:39.69	234.29	4.37	
2025-01-13 13:32:39.89	234.31	4.38	
2025-01-13 13:32:40.10	234.34	4.39	
2025-01-13 13:32:40.30	234.36	4.40	
2025-01-13 13:32:40.51	234.39	4.41	
2025-01-13 13:32:40.71	234.42	4.42	
2025-01-13 13:32:40.92	234.44	4.43	
2025-01-13 13:32:41.12	234.47	4.44	
2025-01-13 13:32:41.33	234.49	4.45	
2025-01-13 13:32:41.53	234.52	4.46	
2025-01-13 13:32:41.74	234.55	4.47	
2025-01-13 13:32:41.95	234.57	4.48	
2025-01-13 13:32:42.15	234.60	4.49	
2025-01-13 13:32:42.36	234.62	4.50	
2025-01-13 13:32:42.57	234.65	4.51	
2025-01-13 13:32:42.78	234.68	4.52	
2025-01-13 13:32:42.98	234.70	4.53	
2025-01-13 13:32:43.19	234.73	4.54	
2025-01-13 13:32:43.39	234.76	4.55	
2025-01-13 13:32:43.60	234.78	4.56	
2025-01-13 13:32:43.80	234.81	4.57	
2025-01-13 13:32:44.01	234.83	4.58	
2025-01-13 13:32:44.21	234.86	4.59	
2025-01-13 13:32:44.42	234.89	4.60	
2025-01-13 13:32:44.62	234.91	4.61	
2025-01-13 13:32:44.83	234.94	4.62	
2025-01-13 13:32:45.03	234.97	4.63	
2025-01-13 13:32:45.24	234.99	4.64	
2025-01-13 13:32:45.44	235.02	4.65	
2025-01-13 13:32:45.65	235.04	4.66	
2025-01-13 13:32:45.85	235.07	4.67	
2025-01-13 13:32:46.06	235.10	4.68	
2025-01-13 13:32:46.27	235.12	4.69	
2025-01-13 13:32:46.47	235.15	4.70	
2025-01-13 13:32:46.68	235.18	4.71	
2025-01-13 13:32:46.88	235.20	4.72	
2025-01-13 13:32:47.09	235.23	4.73	
2025-01-13 13:32:47.30	235.26	4.74	
2025-01-13 13:32:47.50	235.28	4.74	
2025-01-13 13:32:47.70	235.31	4.75	
2025-01-13 13:32:47.91	235.34	4.76	
2025-01-13 13:32:48.12	235.36	4.77	
2025-01-13 13:32:48.32	235.39	4.78	
2025-01-13 13:32:48.52	235.42	4.79	
2025-01-13 13:32:48.73	235.44	4.80	
2025-01-13 13:32:48.94	235.47	4.81	
2025-01-13 13:32:49.14	235.50	4.82	
2025-01-13 13:32:49.35	235.52	4.83	
2025-01-13 13:32:49.55	235.55	4.84	
2025-01-13 13:32:49.76	235.58	4.85	
2025-01-13 13:32:49.96	235.60	4.86	
2025-01-13 13:32:50.17	235.63	4.87	
2025-01-13 13:32:50.37	235.66	4.88	
2025-01-13 13:32:50.58	235.68	4.89	
2025-01-13 13:32:50.78	235.71	4.90	
2025-01-13 13:32:50.99	235.74	4.91	
2025-01-13 13:32:51.19	235.76	4.92	
2025-01-13 13:32:51.40	235.79	4.93	
2025-01-13 13:32:51.61	235.82	4.94	
2025-01-13 13:32:51.81	235.84	4.95	
2025-01-13 13:32:52.02	235.87	4.96	
2025-01-13 13:32:52.22	235.90	4.97	
2025-01-13 13:32:52.43	235.93	4.98	
2025-01-13 13:32:52.63	235.95	4.99	
2025-01-13 13:32:52.84	235.98	5.00	
2025-01-13 13:32:53.04	236.01	5.01	
2025-01-13 13:32:53.25	236.03	5.02	
2025-01-13 13:32:53.45	236.06	5.03	
2025-01-13 13:32:53.66	236.09	5.04	
2025-01-13 13:32:53.86	236.11	5.05	
2025-01-13 13:32:54.06	236.14	5.06	
2025-01-13 13:32:54.27	236.17	5.07	
2025-01-13 13:32:54.47	236.20	5.08	
2025-01-13 13:32:54.68	236.22	5.09	
2025-01-13 13:32:54.88	236.25	5.10	
2025-01-13 13:32:55.09	236.28	5.11	
2025-01-13 13:32:55.29	236.30	5.12	
2025-01-13 13:32:55.50	236.33	5.13	
2025-01-13 13:32:55.71	236.36	5.14	
2025-01-13 13:32:55.91	236.39	5.15	
2025-01-13 13:32:56.11	236.41	5.16	
2025-01-13 13:32:56.32	236.44	5.17	
2025-01-13 13:32:56.52	236.47	5.18	
2025-01-13 13:32:56.73	236.50	5.19	
2025-01-13 13:32:56.94	236.52	5.20	
2025-01-13 13:32:57.16	236.55	5.21	
2025-01-13 13:32:57.36	236.58	5.22	
2025-01-13 13:32:57.57	236.61	5.23	
2025-01-13 13:32:57.77	236.63	5.24	
2025-01-13 13:32:57.98	236.66	5.25	
2025-01-13 13:32:58.18	236.69	5.26	
2025-01-13 13:32:58.39	236.72	5.27	
2025-01-13 13:32:58.60	236.75	5.28	
2025-01-13 13:32:58.80	236.77	5.29	
2025-01-13 13:32:59.01	236.80	5.30	
2025-01-13 13:32:59.21	236.83	5.31	
2025-01-13 13:32:59.42	236.86	5.32	
2025-01-13 13:32:59.62	236.88	5.33	
2025-01-13 13:32:59.83	236.91	5.34	
2025-01-13 13:33:00.03	236.94	5.35	
2025-01-13 13:33:00.25	236.97	5.36	
2025-01-13 13:33:00.46	237.00	5.37	
2025-01-13 13:33:00.66	237.02	5.38	
2025-01-13 13:33:00.88	237.05	5.39	
2025-01-13 13:33:01.09	237.08	5.40	
2025-01-13 13:33:01.29	237.11	5.41	
2025-01-13 13:33:01.49	237.14	5.41	
2025-01-13 13:33:01.70	237.16	5.42	
2025-01-13 13:33:01.91	237.19	5.43	
2025-01-13 13:33:02.11	237.22	5.44	
2025-01-13 13:33:02.31	237.25	5.45	
2025-01-13 13:33:02.52	237.28	5.46	
2025-01-13 13:33:02.72	237.30	5.47	
2025-01-13 13:33:02.93	237.33	5.48	
2025-01-13 13:33:03.13	237.36	5.49	
2025-01-13 13:33:03.34	237.39	5.50	
2025-01-13 13:33:03.54	237.42	5.51	
2025-01-13 13:33:03.75	237.44	5.52	
2025-01-13 13:33:03.95	237.47	5.53	
2025-01-13 13:33:04.16	237.50	5.54	
2025-01-13 13:33:04.37	237.53	5.55	
2025-01-13 13:33:04.57	237.56	5.56	
2025-01-13 13:33:04.77	237.58	5.57	
2025-01-13 13:33:04.98	237.61	5.58	
2025-01-13 13:33:05.18	237.64	5.59	
2025-01-13 13:33:05.39	237.67	5.60	
2025-01-13 13:33:05.61	237.70	5.61	
2025-01-13 13:33:05.81	237.73	5.62	
2025-01-13 13:33:06.02	237.76	5.63	
2025-01-13 13:33:06.23	237.78	5.64	
2025-01-13 13:33:06.43	237.81	5.65	
2025-01-13 13:33:06.63	237.84	5.66	
2025-01-13 13:33:06.84	237.87	5.67	
2025-01-13 13:33:07.05	237.90	5.68	
2025-01-13 13:33:07.25	237.93	5.69	
2025-01-13 13:33:07.46	237.95	5.70	
2025-01-13 13:33:07.67	237.98	5.71	
2025-01-13 13:33:07.87	238.01	5.72	
2025-01-13 13:33:08.08	238.04	5.73	
2025-01-13 13:33:08.28	238.07	5.74	
2025-01-13 13:33:08.49	238.10	5.75	
2025-01-13 13:33:08.69	238.13	5.76	
2025-01-13 13:33:08.89	238.15	5.77	
2025-01-13 13:33:09.10	238.18	5.78	
2025-01-13 13:33:09.30	238.21	5.79	
2025-01-13 13:33:09.51	238.24	5.80	
2025-01-13 13:33:09.71	238.27	5.81	
2025-01-13 13:33:09.92	238.30	5.82	
2025-01-13 13:33:10.12	238.32	5.83	
2025-01-13 13:33:10.33	238.35	5.84	
2025-01-13 13:33:10.53	238.38	5.84	
2025-01-13 13:33:10.74	238.41	5.85	
2025-01-13 13:33:10.94	238.44	5.86	
2025-01-13 13:33:11.15	238.47	5.87	
2025-01-13 13:33:11.36	238.50	5.88	
2025-01-13 13:33:11.56	238.53	5.89	
2025-01-13 13:33:11.77	238.56	5.90	
2025-01-13 13:33:11.97	238.58	5.91	
2025-01-13 13:33:12.18	238.61	5.92	
2025-01-13 13:33:12.38	238.64	5.93	
2025-01-13 13:33:12.58	238.67	5.94	
2025-01-13 13:33:12.79	238.70	5.95	
2025-01-13 13:33:12.99	238.73	5.96	
2025-01-13 13:33:13.20	238.76	5.97	
2025-01-13 13:33:13.40	238.79	5.98	
2025-01-13 13:33:13.61	238.82	5.99	
2025-01-13 13:33:13.81	238.84	6.00	
2025-01-13 13:33:14.02	238.87	6.01	
2025-01-13 13:33:14.22	238.90	6.02	
2025-01-13 13:33:14.43	238.93	6.03	
2025-01-13 13:33:14.64	238.96	6.04	
2025-01-13 13:33:14.84	238.99	6.05	
2025-01-13 13:33:15.05	239.02	6.06	
2025-01-13 13:33:15.26	239.05	6.07	
2025-01-13 13:33:15.47	239.08	6.08	
2025-01-13 13:33:15.67	239.11	6.09	
2025-01-13 13:33:15.88	239.14	6.10	
2025-01-13 13:33:16.08	239.17	6.11	
2025-01-13 13:33:16.29	239.20	6.12	
2025-01-13 13:33:16.50	239.23	6.13	
2025-01-13 13:33:16.70	239.25	6.14	
2025-01-13 13:33:16.91	239.28	6.15	
2025-01-13 13:33:17.11	239.31	6.16	
2025-01-13 13:33:17.32	239.34	6.17	
2025-01-13 13:33:17.52	239.37	6.17	
2025-01-13 13:33:17.73	239.40	6.18	
2025-01-13 13:33:17.93	239.43	6.19	
2025-01-13 13:33:18.14	239.46	6.20	
2025-01-13 13:33:18.34	239.49	6.21	
2025-01-13 13:33:18.55	239.52	6.22	
2025-01-13 13:33:18.75	239.55	6.23	
2025-01-13 13:33:18.96	239.58	6.24	
2025-01-13 13:33:19.17	239.61	6.25	
2025-01-13 13:33:19.37	239.64	6.26	
2025-01-13 13:33:19.58	239.67	6.27	
2025-01-13 13:33:19.78	239.70	6.28	
2025-01-13 13:33:19.99	239.73	6.29	
2025-01-13 13:33:20.19	239.76	6.30	
2025-01-13 13:33:20.40	239.79	6.31	
2025-01-13 13:33:20.60	239.82	6.32	
2025-01-13 13:33:20.81	239.85	6.33	
2025-01-13 13:33:21.01	239.88	6.34	
2025-01-13 13:33:21.22	239.91	6.35	
2025-01-13 13:33:21.42	239.93	6.36	
2025-01-13 13:33:21.63	239.97	6.37	
2025-01-13 13:33:21.83	239.99	6.38	
2025-01-13 13:33:22.04	240.02	6.39	
2025-01-13 13:33:22.24	240.05	6.40	
2025-01-13 13:33:22.45	240.08	6.41	
2025-01-13 13:33:22.65	240.11	6.42	
2025-01-13 13:33:22.86	240.14	6.43	
2025-01-13 13:33:23.06	240.17	6.44	
2025-01-13 13:33:23.27	240.20	6.44	
2025-01-13 13:33:23.47	240.23	6.45	
2025-01-13 13:33:23.68	240.26	6.46	
2025-01-13 13:33:23.88	240.29	6.47	
2025-01-13 13:33:24.09	240.32	6.48	
2025-01-13 13:33:24.30	240.35	6.49	
2025-01-13 13:33:24.50	240.38	6.50	
2025-01-13 13:33:24.71	240.42	6.51	
2025-01-13 13:33:24.91	240.44	6.52	
2025-01-13 13:33:25.12	240.48	6.53	
2025-01-13 13:33:25.32	240.50	6.54	
2025-01-13 13:33:25.53	240.54	6.55	
2025-01-13 13:33:25.73	240.57	6.56	
2025-01-13 13:33:25.94	240.60	6.57	
2025-01-13 13:33:26.14	240.63	6.58	
2025-01-13 13:33:26.35	240.66	6.59	
2025-01-13 13:33:26.55	240.69	6.60	
2025-01-13 13:33:26.76	240.72	6.61	
2025-01-13 13:33:26.96	240.75	6.62	
2025-01-13 13:33:27.17	240.78	6.63	
2025-01-13 13:33:27.38	240.81	6.64	
2025-01-13 13:33:27.58	240.84	6.65	
2025-01-13 13:33:27.79	240.87	6.66	
2025-01-13 13:33:27.99	240.90	6.67	
2025-01-13 13:33:28.20	240.93	6.67	
2025-01-13 13:33:28.41	240.96	6.68	
2025-01-13 13:33:28.61	240.99	6.69	
2025-01-13 13:33:28.82	241.02	6.70	
2025-01-13 13:33:29.02	241.05	6.71	
2025-01-13 13:33:29.22	241.08	6.72	
2025-01-13 13:33:29.43	241.11	6.73	
2025-01-13 13:33:29.64	241.14	6.74	
2025-01-13 13:33:29.84	241.17	6.75	
2025-01-13 13:33:30.05	241.21	6.76	
2025-01-13 13:33:30.25	241.24	6.77	
2025-01-13 13:33:30.46	241.27	6.78	
2025-01-13 13:33:30.66	241.30	6.79	
2025-01-13 13:33:30.87	241.33	6.80	
2025-01-13 13:33:31.08	241.36	6.81	
2025-01-13 13:33:31.28	241.39	6.82	
2025-01-13 13:33:31.49	241.42	6.83	
2025-01-13 13:33:31.69	241.45	6.84	
2025-01-13 13:33:31.90	241.48	6.85	
2025-01-13 13:33:32.10	241.51	6.86	
2025-01-13 13:33:32.31	241.55	6.87	
2025-01-13 13:33:32.51	241.58	6.87	
2025-01-13 13:33:32.72	241.61	6.88	
2025-01-13 13:33:32.92	241.64	6.89	
2025-01-13 13:33:33.13	241.67	6.90	
2025-01-13 13:33:33.33	241.70	6.91	
2025-01-13 13:33:33.54	241.73	6.92	
2025-01-13 13:33:33.75	241.76	6.93	
2025-01-13 13:33:33.96	241.79	6.94	
2025-01-13 13:33:34.17	241.83	6.95	
2025-01-13 13:33:34.37	241.86	6.96	
2025-01-13 13:33:34.58	241.89	6.97	
2025-01-13 13:33:34.78	241.92	6.98	
2025-01-13 13:33:34.99	241.95	6.99	
2025-01-13 13:33:35.19	241.98	7.00	
2025-01-13 13:33:35.40	242.01	7.01	
2025-01-13 13:33:35.60	242.04	7.02	
2025-01-13 13:33:35.81	242.08	7.03	
2025-01-13 13:33:36.01	242.11	7.04	
2025-01-13 13:33:36.22	242.14	7.05	
2025-01-13 13:33:36.43	242.17	7.06	
2025-01-13 13:33:36.63	242.20	7.06	
2025-01-13 13:33:36.83	242.23	7.07	
2025-01-13 13:33:37.04	242.26	7.08	
2025-01-13 13:33:37.25	242.30	7.09	
2025-01-13 13:33:37.45	242.33	7.10	
2025-01-13 13:33:37.67	242.36	7.11	
2025-01-13 13:33:37.88	242.39	7.12	
2025-01-13 13:33:38.08	242.42	7.13	
2025-01-13 13:33:38.29	242.46	7.14	
2025-01-13 13:33:38.49	242.49	7.15	
2025-01-13 13:33:38.71	242.52	7.16	
2025-01-13 13:33:38.92	242.55	7.17	
2025-01-13 13:33:39.12	242.58	7.18	
2025-01-13 13:33:39.33	242.62	7.19	
2025-01-13 13:33:39.53	242.65	7.20	
2025-01-13 13:33:39.74	242.68	7.21	
2025-01-13 13:33:39.94	242.71	7.22	
2025-01-13 13:33:40.15	242.74	7.23	
2025-01-13 13:33:40.35	242.77	7.24	
2025-01-13 13:33:40.56	242.81	7.24	
2025-01-13 13:33:40.76	242.84	7.25	
2025-01-13 13:33:40.97	242.87	7.26	
2025-01-13 13:33:41.17	242.90	7.27	
2025-01-13 13:33:41.38	242.93	7.28	
2025-01-13 13:33:41.58	242.96	7.29	
2025-01-13 13:33:41.79	243.00	7.30	
2025-01-13 13:33:41.99	243.03	7.31	
2025-01-13 13:33:42.20	243.06	7.32	
2025-01-13 13:33:42.40	243.09	7.33	
2025-01-13 13:33:42.61	243.12	7.34	
2025-01-13 13:33:42.82	243.16	7.35	
2025-01-13 13:33:43.02	243.19	7.36	
2025-01-13 13:33:43.23	243.22	7.37	
2025-01-13 13:33:43.43	243.25	7.38	
2025-01-13 13:33:43.64	243.28	7.39	
2025-01-13 13:33:43.84	243.32	7.39	
2025-01-13 13:33:44.06	243.35	7.40	
2025-01-13 13:33:44.27	243.38	7.41	
2025-01-13 13:33:44.47	243.41	7.42	
2025-01-13 13:33:44.68	243.45	7.43	
2025-01-13 13:33:44.88	243.48	7.44	
2025-01-13 13:33:45.10	243.51	7.45	
2025-01-13 13:33:45.30	243.54	7.46	
2025-01-13 13:33:45.51	243.58	7.47	
2025-01-13 13:33:45.71	243.61	7.48	
2025-01-13 13:33:45.92	243.64	7.49	
2025-01-13 13:33:46.12	243.67	7.50	
2025-01-13 13:33:46.33	243.71	7.51	
2025-01-13 13:33:46.53	243.74	7.52	
2025-01-13 13:33:46.74	243.77	7.53	
2025-01-13 13:33:46.95	243.80	7.54	
2025-01-13 13:33:47.15	243.84	7.54	
2025-01-13 13:33:47.35	243.87	7.55	
2025-01-13 13:33:47.56	243.90	7.56	
2025-01-13 13:33:47.77	243.93	7.57	
2025-01-13 13:33:47.97	243.97	7.58	
2025-01-13 13:33:48.18	244.00	7.59	
2025-01-13 13:33:48.38	244.03	7.60	
2025-01-13 13:33:48.59	244.06	7.61	
2025-01-13 13:33:48.80	244.10	7.62	
2025-01-13 13:33:49.00	244.13	7.63	
2025-01-13 13:33:49.20	244.16	7.64	
2025-01-13 13:33:49.42	244.20	7.65	
2025-01-13 13:33:49.63	244.23	7.66	
2025-01-13 13:33:49.83	244.26	7.66	
2025-01-13 13:33:50.04	244.30	7.67	
2025-01-13 13:33:50.24	244.33	7.68	
2025-01-13 13:33:50.45	244.36	7.69	
2025-01-13 13:33:50.65	244.39	7.70	
2025-01-13 13:33:50.86	244.43	7.71	
2025-01-13 13:33:51.06	244.46	7.72	
2025-01-13 13:33:51.27	244.49	7.73	
2025-01-13 13:33:51.47	244.52	7.74	
2025-01-13 13:33:51.68	244.56	7.75	
2025-01-13 13:33:51.89	244.59	7.76	
2025-01-13 13:33:52.09	244.62	7.77	
2025-01-13 13:33:52.30	244.66	7.78	
2025-01-13 13:33:52.50	244.69	7.78	
2025-01-13 13:33:52.71	244.72	7.79	
2025-01-13 13:33:52.91	244.76	7.80	
2025-01-13 13:33:53.12	244.79	7.81	
2025-01-13 13:33:53.32	244.82	7.82	
2025-01-13 13:33:53.53	244.86	7.83	
2025-01-13 13:33:53.73	244.89	7.84	
2025-01-13 13:33:53.94	244.92	7.85	
2025-01-13 13:33:54.14	244.95	7.86	
2025-01-13 13:33:54.35	244.99	7.87	
2025-01-13 13:33:54.55	245.02	7.88	
2025-01-13 13:33:54.76	245.06	7.88	
2025-01-13 13:33:54.96	245.09	7.89	
2025-01-13 13:33:55.17	245.12	7.90	
2025-01-13 13:33:55.37	245.15	7.91	
2025-01-13 13:33:55.58	245.19	7.92	
2025-01-13 13:33:55.80	245.22	7.93	
2025-01-13 13:33:56.00	245.26	7.94	
2025-01-13 13:33:56.21	245.29	7.95	
2025-01-13 13:33:56.42	245.32	7.96	
2025-01-13 13:33:56.62	245.36	7.97	
2025-01-13 13:33:56.83	245.39	7.98	
2025-01-13 13:33:57.03	245.42	7.99	
2025-01-13 13:33:57.24	245.46	7.99	
2025-01-13 13:33:57.44	245.49	8.00	
2025-01-13 13:33:57.65	245.53	8.01	
2025-01-13 13:33:57.85	245.56	8.02	
2025-01-13 13:33:58.06	245.59	8.03	
2025-01-13 13:33:58.26	245.63	8.04	
2025-01-13 13:33:58.47	245.66	8.05	
2025-01-13 13:33:58.67	245.69	8.06	
2025-01-13 13:33:58.88	245.73	8.07	
2025-01-13 13:33:59.08	245.76	8.08	
2025-01-13 13:33:59.29	245.79	8.09	
2025-01-13 13:33:59.50	245.83	8.09	
2025-01-13 13:33:59.70	245.86	8.10	
2025-01-13 13:33:59.91	245.90	8.11	
2025-01-13 13:34:00.12	245.93	8.12	
2025-01-13 13:34:00.33	245.97	8.13	
2025-01-13 13:34:00.54	246.00	8.14	
2025-01-13 13:34:00.74	246.03	8.15	
2025-01-13 13:34:00.95	246.07	8.16	
2025-01-13 13:34:01.15	246.10	8.17	
2025-01-13 13:34:01.35	246.13	8.18	
2025-01-13 13:34:01.56	246.17	8.18	
2025-01-13 13:34:01.76	246.20	8.19	
2025-01-13 13:34:01.97	246.24	8.20	
2025-01-13 13:34:02.17	246.27	8.21	
2025-01-13 13:34:02.38	246.31	8.22	
2025-01-13 13:34:02.59	246.34	8.23	
2025-01-13 13:34:02.79	246.37	8.24	
2025-01-13 13:34:03.00	246.41	8.25	
2025-01-13 13:34:03.20	246.44	8.26	
2025-01-13 13:34:03.41	246.48	8.27	
2025-01-13 13:34:03.61	246.51	8.27	
2025-01-13 13:34:03.82	246.54	8.28	
2025-01-13 13:34:04.02	246.58	8.29	
2025-01-13 13:34:04.23	246.61	8.30	
2025-01-13 13:34:04.43	246.65	8.31	
2025-01-13 13:34:04.64	246.68	8.32	
2025-01-13 13:34:04.84	246.72	8.33	
2025-01-13 13:34:05.05	246.75	8.34	
2025-01-13 13:34:05.25	246.78	8.35	
2025-01-13 13:34:05.46	246.82	8.35	
2025-01-13 13:34:05.66	246.85	8.36	
2025-01-13 13:34:05.87	246.89	8.37	
2025-01-13 13:34:06.07	246.92	8.38	
2025-01-13 13:34:06.28	246.96	8.39	
2025-01-13 13:34:06.48	246.99	8.40	
2025-01-13 13:34:06.69	247.03	8.41	
2025-01-13 13:34:06.89	247.06	8.42	
2025-01-13 13:34:07.10	247.09	8.42	
2025-01-13 13:34:07.30	247.13	8.43	
2025-01-13 13:34:07.51	247.16	8.44	
2025-01-13 13:34:07.71	247.20	8.45	
2025-01-13 13:34:07.92	247.23	8.46	
2025-01-13 13:34:08.13	247.27	8.47	
2025-01-13 13:34:08.33	247.30	8.48	
2025-01-13 13:34:08.53	247.34	8.49	
2025-01-13 13:34:08.74	247.37	8.50	
2025-01-13 13:34:08.95	247.41	8.50	
2025-01-13 13:34:09.15	247.44	8.51	
2025-01-13 13:34:09.36	247.48	8.52	
2025-01-13 13:34:09.56	247.51	8.53	
2025-01-13 13:34:09.76	247.54	8.54	
2025-01-13 13:34:09.97	247.58	8.55	
2025-01-13 13:34:10.18	247.62	8.56	
2025-01-13 13:34:10.38	247.65	8.57	
2025-01-13 13:34:10.58	247.68	8.57	
2025-01-13 13:34:10.79	247.72	8.58	
2025-01-13 13:34:10.99	247.75	8.59	
2025-01-13 13:34:11.20	247.79	8.60	
2025-01-13 13:34:11.41	247.83	8.61	
2025-01-13 13:34:11.61	247.86	8.62	
2025-01-13 13:34:11.82	247.90	8.63	
2025-01-13 13:34:12.02	247.93	8.64	
2025-01-13 13:34:12.23	247.97	8.64	
2025-01-13 13:34:12.43	248.00	8.65	
2025-01-13 13:34:12.64	248.04	8.66	
2025-01-13 13:34:12.85	248.07	8.67	
2025-01-13 13:34:13.06	248.11	8.68	
2025-01-13 13:34:13.27	248.14	8.69	
2025-01-13 13:34:13.47	248.18	8.70	
2025-01-13 13:34:13.68	248.21	8.71	
2025-01-13 13:34:13.88	248.25	8.71	
2025-01-13 13:34:14.09	248.29	8.72	
2025-01-13 13:34:14.29	248.32	8.73	
2025-01-13 13:34:14.50	248.36	8.74	
2025-01-13 13:34:14.70	248.39	8.75	
2025-01-13 13:34:14.91	248.43	8.76	
2025-01-13 13:34:15.12	248.46	8.77	
2025-01-13 13:34:15.32	248.50	8.77	
2025-01-13 13:34:15.53	248.53	8.78	
2025-01-13 13:34:15.73	248.57	8.79	
2025-01-13 13:34:15.94	248.60	8.80	
2025-01-13 13:34:16.14	248.64	8.81	
2025-01-13 13:34:16.35	248.68	8.82	
2025-01-13 13:34:16.55	248.71	8.83	
2025-01-13 13:34:16.76	248.75	8.83	
2025-01-13 13:34:16.96	248.78	8.84	
2025-01-13 13:34:17.17	248.82	8.85	
2025-01-13 13:34:17.37	248.85	8.86	
2025-01-13 13:34:17.58	248.89	8.87	
2025-01-13 13:34:17.78	248.92	8.88	
2025-01-13 13:34:17.99	248.96	8.89	
2025-01-13 13:34:18.19	249.00	8.89	
2025-01-13 13:34:18.40	249.03	8.90	
2025-01-13 13:34:18.60	249.07	8.91	
2025-01-13 13:34:18.81	249.10	8.92	
2025-01-13 13:34:19.02	249.14	8.93	
2025-01-13 13:34:19.22	249.18	8.94	
2025-01-13 13:34:19.43	249.21	8.95	
2025-01-13 13:34:19.63	249.25	8.95	
2025-01-13 13:34:19.84	249.28	8.96	
2025-01-13 13:34:20.04	249.32	8.97	
2025-01-13 13:34:20.24	249.35	8.98	
2025-01-13 13:34:20.45	249.39	8.99	
2025-01-13 13:34:20.66	249.43	9.00	
2025-01-13 13:34:20.86	249.46	9.01	
2025-01-13 13:34:21.06	249.50	9.01	
2025-01-13 13:34:21.27	249.54	9.02	
2025-01-13 13:34:21.47	249.57	9.03	
2025-01-13 13:34:21.68	249.61	9.04	
2025-01-13 13:34:21.88	249.64	9.05	
2025-01-13 13:34:22.09	249.68	9.06	
2025-01-13 13:34:22.30	249.72	9.06	
2025-01-13 13:34:22.50	249.75	9.07	
2025-01-13 13:34:22.70	249.79	9.08	
2025-01-13 13:34:22.91	249.82	9.09	
2025-01-13 13:34:23.11	249.86	9.10	
2025-01-13 13:34:23.32	249.90	9.11	
2025-01-13 13:34:23.52	249.93	9.11	
2025-01-13 13:34:23.73	249.97	9.12	
2025-01-13 13:34:23.94	250.01	9.13	
2025-01-13 13:34:24.14	250.04	9.14	
2025-01-13 13:34:24.35	250.08	9.15	
2025-01-13 13:34:24.55	250.11	9.16	
2025-01-13 13:34:24.76	250.15	9.16	
2025-01-13 13:34:24.96	250.19	9.17	
2025-01-13 13:34:25.17	250.22	9.18	
2025-01-13 13:34:25.37	250.26	9.19	
2025-01-13 13:34:25.58	250.30	9.20	
2025-01-13 13:34:25.78	250.33	9.21	
2025-01-13 13:34:25.99	250.37	9.21	
2025-01-13 13:34:26.19	250.41	9.22	
2025-01-13 13:34:26.40	250.44	9.23	
2025-01-13 13:34:26.60	250.48	9.24	
2025-01-13 13:34:26.81	250.52	9.25	
2025-01-13 13:34:27.01	250.55	9.26	
2025-01-13 13:34:27.22	250.59	9.26	
2025-01-13 13:34:27.42	250.63	9.27	
2025-01-13 13:34:27.64	250.67	9.28	
2025-01-13 13:34:27.84	250.70	9.29	
2025-01-13 13:34:28.05	250.74	9.30	
2025-01-13 13:34:28.25	250.78	9.31	
2025-01-13 13:34:28.46	250.81	9.31	
2025-01-13 13:34:28.66	250.85	9.32	
2025-01-13 13:34:28.87	250.89	9.33	
2025-01-13 13:34:29.07	250.92	9.34	
2025-01-13 13:34:29.28	250.96	9.35	
2025-01-13 13:34:29.48	251.00	9.35	
2025-01-13 13:34:29.69	251.03	9.36	
2025-01-13 13:34:29.89	251.07	9.37	
2025-01-13 13:34:30.10	251.11	9.38	
2025-01-13 13:34:30.30	251.14	9.39	
2025-01-13 13:34:30.51	251.18	9.40	
2025-01-13 13:34:30.71	251.22	9.40	
2025-01-13 13:34:30.92	251.26	9.41	
2025-01-13 13:34:31.14	251.30	9.42	
2025-01-13 13:34:31.34	251.33	9.43	
2025-01-13 13:34:31.55	251.37	9.44	
2025-01-13 13:34:31.75	251.41	9.45	
2025-01-13 13:34:31.96	251.44	9.45	
2025-01-13 13:34:32.16	251.48	9.46	
2025-01-13 13:34:32.37	251.52	9.47	
2025-01-13 13:34:32.57	251.56	9.48	
2025-01-13 13:34:32.77	251.59	9.49	
2025-01-13 13:34:32.98	251.63	9.49	
2025-01-13 13:34:33.19	251.67	9.50	
2025-01-13 13:34:33.39	251.70	9.51	
2025-01-13 13:34:33.60	251.74	9.52	
2025-01-13 13:34:33.80	251.78	9.53	
2025-01-13 13:34:34.01	251.82	9.53	
2025-01-13 13:34:34.21	251.85	9.54	
2025-01-13 13:34:34.42	251.89	9.55	
2025-01-13 13:34:34.62	251.93	9.56	
2025-01-13 13:34:34.83	251.97	9.57	
2025-01-13 13:34:35.04	252.01	9.57	
2025-01-13 13:34:35.24	252.04	9.58	
2025-01-13 13:34:35.45	252.08	9.59	
2025-01-13 13:34:35.65	252.12	9.60	
2025-01-13 13:34:35.86	252.16	9.61	
2025-01-13 13:34:36.06	252.19	9.61	
2025-01-13 13:34:36.27	252.23	9.62	
2025-01-13 13:34:36.47	252.27	9.63	
2025-01-13 13:34:36.68	252.31	9.64	
2025-01-13 13:34:36.89	252.35	9.65	
2025-01-13 13:34:37.09	252.38	9.65	
2025-01-13 13:34:37.30	252.42	9.66	
2025-01-13 13:34:37.50	252.46	9.67	
2025-01-13 13:34:37.71	252.50	9.68	
2025-01-13 13:34:37.91	252.53	9.69	
2025-01-13 13:34:38.12	252.57	9.69	
2025-01-13 13:34:38.32	252.61	9.70	
2025-01-13 13:34:38.53	252.65	9.71	
2025-01-13 13:34:38.73	252.68	9.72	
2025-01-13 13:34:38.94	252.72	9.72	
2025-01-13 13:34:39.14	252.76	9.73	
2025-01-13 13:34:39.35	252.80	9.74	
2025-01-13 13:34:39.55	252.84	9.75	
2025-01-13 13:34:39.76	252.88	9.76	
2025-01-13 13:34:39.96	252.91	9.76	
2025-01-13 13:34:40.17	252.95	9.77	
2025-01-13 13:34:40.37	252.99	9.78	
2025-01-13 13:34:40.58	253.03	9.79	
2025-01-13 13:34:40.79	253.07	9.80	
2025-01-13 13:34:40.99	253.10	9.80	
2025-01-13 13:34:41.20	253.14	9.81	
2025-01-13 13:34:41.40	253.18	9.82	
2025-01-13 13:34:41.61	253.22	9.83	
2025-01-13 13:34:41.81	253.26	9.83	
2025-01-13 13:34:42.01	253.29	9.84	
2025-01-13 13:34:42.22	253.33	9.85	
2025-01-13 13:34:42.43	253.37	9.86	
2025-01-13 13:34:42.63	253.41	9.86	
2025-01-13 13:34:42.84	253.45	9.87	
2025-01-13 13:34:43.04	253.49	9.88	
2025-01-13 13:34:43.25	253.53	9.89	
2025-01-13 13:34:43.45	253.56	9.90	
2025-01-13 13:34:43.66	253.60	9.90	
2025-01-13 13:34:43.88	253.64	9.91	
2025-01-13 13:34:44.08	253.68	9.92	
2025-01-13 13:34:44.29	253.72	9.93	
2025-01-13 13:34:44.49	253.76	9.93	
2025-01-13 13:34:44.70	253.80	9.94	
2025-01-13 13:34:44.92	253.84	9.95	
2025-01-13 13:34:45.12	253.88	9.96	
2025-01-13 13:34:45.33	253.92	9.97	
2025-01-13 13:34:45.53	253.95	9.97	
2025-01-13 13:34:45.74	253.99	9.98	
2025-01-13 13:34:45.94	254.03	9.99	
2025-01-13 13:34:46.15	254.07	10.00	
2025-01-13 13:34:46.36	254.11	10.00	
2025-01-13 13:34:46.56	254.15	10.01	
2025-01-13 13:34:46.77	254.19	10.02	
2025-01-13 13:34:46.97	254.22	10.03	
2025-01-13 13:34:47.18	254.26	10.03	
2025-01-13 13:34:47.38	254.30	10.04	
2025-01-13 13:34:47.59	254.34	10.05	
2025-01-13 13:34:47.79	254.38	10.06	
2025-01-13 13:34:48.00	254.42	10.06	
2025-01-13 13:34:48.20	254.46	10.07	
2025-01-13 13:34:48.41	254.50	10.08	
2025-01-13 13:34:48.61	254.54	10.09	
2025-01-13 13:34:48.82	254.58	10.09	
2025-01-13 13:34:49.03	254.62	10.10	
2025-01-13 13:34:49.23	254.65	10.11	
2025-01-13 13:34:49.44	254.69	10.12	
2025-01-13 13:34:49.64	254.73	10.12	
2025-01-13 13:34:49.85	254.77	10.13	
2025-01-13 13:34:50.05	254.81	10.14	
2025-01-13 13:34:50.26	254.85	10.15	
2025-01-13 13:34:50.46	254.89	10.15	
2025-01-13 13:34:50.67	254.93	10.16	
2025-01-13 13:34:50.88	254.97	10.17	
2025-01-13 13:34:51.08	255.01	10.17	
2025-01-13 13:34:51.28	255.04	10.18	
2025-01-13 13:34:51.49	255.08	10.19	
2025-01-13 13:34:51.70	255.12	10.20	
2025-01-13 13:34:51.90	255.16	10.20	
2025-01-13 13:34:52.11	255.20	10.21	
2025-01-13 13:34:52.31	255.24	10.22	
2025-01-13 13:34:52.51	255.28	10.23	
2025-01-13 13:34:52.72	255.32	10.23	
2025-01-13 13:34:52.93	255.36	10.24	
2025-01-13 13:34:53.13	255.40	10.25	
2025-01-13 13:34:53.34	255.44	10.26	
2025-01-13 13:34:53.54	255.48	10.26	
2025-01-13 13:34:53.75	255.52	10.27	
2025-01-13 13:34:53.95	255.56	10.28	
2025-01-13 13:34:54.16	255.60	10.28	
2025-01-13 13:34:54.36	255.63	10.29	
2025-01-13 13:34:54.56	255.67	10.30	
2025-01-13 13:34:54.77	255.71	10.31	
2025-01-13 13:34:54.97	255.75	10.31	
2025-01-13 13:34:55.18	255.79	10.32	
2025-01-13 13:34:55.39	255.83	10.33	
2025-01-13 13:34:55.59	255.87	10.33	
2025-01-13 13:34:55.79	255.91	10.34	
2025-01-13 13:34:56.00	255.95	10.35	
2025-01-13 13:34:56.21	255.99	10.36	
2025-01-13 13:34:56.41	256.03	10.36	
2025-01-13 13:34:56.62	256.07	10.37	
2025-01-13 13:34:56.82	256.11	10.38	
2025-01-13 13:34:57.03	256.15	10.38	
2025-01-13 13:34:57.23	256.19	10.39	
2025-01-13 13:34:57.44	256.23	10.40	
2025-01-13 13:34:57.64	256.27	10.41	
2025-01-13 13:34:57.85	256.31	10.41	
2025-01-13 13:34:58.05	256.35	10.42	
2025-01-13 13:34:58.26	256.39	10.43	
2025-01-13 13:34:58.46	256.43	10.43	
2025-01-13 13:34:58.67	256.47	10.44	
2025-01-13 13:34:58.87	256.51	10.45	
2025-01-13 13:34:59.08	256.55	10.45	
2025-01-13 13:34:59.28	256.59	10.46	
2025-01-13 13:34:59.49	256.63	10.47	
2025-01-13 13:34:59.69	256.67	10.48	
2025-01-13 13:34:59.89	256.71	10.48	
2025-01-13 13:35:00.10	256.75	10.49	
2025-01-13 13:35:00.30	256.79	10.50	
2025-01-13 13:35:00.51	256.83	10.50	
2025-01-13 13:35:00.72	256.87	10.51	
2025-01-13 13:35:00.93	256.91	10.52	
2025-01-13 13:35:01.14	256.95	10.52	
2025-01-13 13:35:01.34	256.99	10.53	
2025-01-13 13:35:01.55	257.03	10.54	
2025-01-13 13:35:01.76	257.07	10.55	
2025-01-13 13:35:01.96	257.11	10.55	
2025-01-13 13:35:02.16	257.15	10.56	
2025-01-13 13:35:02.37	257.19	10.57	
2025-01-13 13:35:02.57	257.23	10.57	
2025-01-13 13:35:02.78	257.27	10.58	
2025-01-13 13:35:02.98	257.31	10.59	
2025-01-13 13:35:03.19	257.35	10.59	
2025-01-13 13:35:03.39	257.39	10.60	
2025-01-13 13:35:03.60	257.43	10.61	
2025-01-13 13:35:03.80	257.47	10.61	
2025-01-13 13:35:04.01	257.52	10.62	
2025-01-13 13:35:04.21	257.56	10.63	
2025-01-13 13:35:04.42	257.60	10.63	
2025-01-13 13:35:04.62	257.64	10.64	
2025-01-13 13:35:04.83	257.68	10.65	
2025-01-13 13:35:05.04	257.72	10.65	
2025-01-13 13:35:05.24	257.76	10.66	
2025-01-13 13:35:05.45	257.80	10.67	
2025-01-13 13:35:05.65	257.84	10.67	
2025-01-13 13:35:05.86	257.88	10.68	
2025-01-13 13:35:06.06	257.92	10.69	
2025-01-13 13:35:06.27	257.96	10.69	
2025-01-13 13:35:06.47	258.00	10.70	
2025-01-13 13:35:06.68	258.04	10.71	
2025-01-13 13:35:06.88	258.08	10.71	
2025-01-13 13:35:07.09	258.13	10.72	
2025-01-13 13:35:07.31	258.17	10.73	
2025-01-13 13:35:07.51	258.21	10.73	
2025-01-13 13:35:07.72	258.25	10.74	
2025-01-13 13:35:07.93	258.29	10.75	
2025-01-13 13:35:08.13	258.33	10.75	
2025-01-13 13:35:08.34	258.37	10.76	
2025-01-13 13:35:08.54	258.41	10.77	
2025-01-13 13:35:08.75	258.46	10.77	
2025-01-13 13:35:08.95	258.50	10.78	
2025-01-13 13:35:09.16	258.54	10.79	
2025-01-13 13:35:09.36	258.58	10.79	
2025-01-13 13:35:09.56	258.62	10.80	
2025-01-13 13:35:09.77	258.66	10.81	
2025-01-13 13:35:09.98	258.70	10.81	
2025-01-13 13:35:10.18	258.74	10.82	
2025-01-13 13:35:10.38	258.78	10.83	
2025-01-13 13:35:10.59	258.82	10.83	
2025-01-13 13:35:10.80	258.86	10.84	
2025-01-13 13:35:11.00	258.90	10.85	
2025-01-13 13:35:11.21	258.95	10.85	
2025-01-13 13:35:11.41	258.99	10.86	
2025-01-13 13:35:11.63	259.03	10.86	
2025-01-13 13:35:11.84	259.07	10.87	
2025-01-13 13:35:12.04	259.11	10.88	
2025-01-13 13:35:12.25	259.16	10.88	
2025-01-13 13:35:12.45	259.20	10.89	
2025-01-13 13:35:12.66	259.24	10.90	
2025-01-13 13:35:12.86	259.28	10.90	
2025-01-13 13:35:13.07	259.32	10.91	
2025-01-13 13:35:13.27	259.36	10.92	
2025-01-13 13:35:13.48	259.40	10.92	
2025-01-13 13:35:13.69	259.45	10.93	
2025-01-13 13:35:13.90	259.49	10.93	
2025-01-13 13:35:14.11	259.53	10.94	
2025-01-13 13:35:14.31	259.57	10.95	
2025-01-13 13:35:14.52	259.61	10.95	
2025-01-13 13:35:14.72	259.65	10.96	
2025-01-13 13:35:14.93	259.70	10.97	
2025-01-13 13:35:15.13	259.74	10.97	
2025-01-13 13:35:15.34	259.78	10.98	
2025-01-13 13:35:15.54	259.82	10.98	
2025-01-13 13:35:15.75	259.86	10.99	
2025-01-13 13:35:15.95	259.90	11.00	
2025-01-13 13:35:16.16	259.94	11.00	
2025-01-13 13:35:16.37	259.99	11.01	
2025-01-13 13:35:16.57	260.03	11.02	
2025-01-13 13:35:16.78	260.07	11.02	
2025-01-13 13:35:16.98	260.11	11.03	
2025-01-13 13:35:17.19	260.15	11.03	
2025-01-13 13:35:17.40	260.20	11.04	
2025-01-13 13:35:17.60	260.24	11.05	
2025-01-13 13:35:17.81	260.28	11.05	
2025-01-13 13:35:18.01	260.32	11.06	
2025-01-13 13:35:18.22	260.36	11.06	
2025-01-13 13:35:18.42	260.40	11.07	
2025-01-13 13:35:18.63	260.45	11.08	
2025-01-13 13:35:18.84	260.49	11.08	
2025-01-13 13:35:19.04	260.53	11.09	
2025-01-13 13:35:19.25	260.57	11.09	
2025-01-13 13:35:19.45	260.61	11.10	
2025-01-13 13:35:19.66	260.66	11.11	
2025-01-13 13:35:19.86	260.70	11.11	
2025-01-13 13:35:20.06	260.74	11.12	
2025-01-13 13:35:20.27	260.78	11.12	
2025-01-13 13:35:20.48	260.82	11.13	
2025-01-13 13:35:20.68	260.86	11.14	
2025-01-13 13:35:20.89	260.91	11.14	
2025-01-13 13:35:21.09	260.95	11.15	
2025-01-13 13:35:21.30	260.99	11.15	
2025-01-13 13:35:21.50	261.03	11.16	
2025-01-13 13:35:21.71	261.08	11.17	
2025-01-13 13:35:21.92	261.12	11.17	
2025-01-13 13:35:22.12	261.16	11.18	
2025-01-13 13:35:22.33	261.20	11.18	
2025-01-13 13:35:22.53	261.24	11.19	
2025-01-13 13:35:22.74	261.29	11.19	
2025-01-13 13:35:22.94	261.33	11.20	
2025-01-13 13:35:23.15	261.37	11.21	
2025-01-13 13:35:23.35	261.41	11.21	
2025-01-13 13:35:23.56	261.46	11.22	
2025-01-13 13:35:23.76	261.50	11.22	
2025-01-13 13:35:23.97	261.54	11.23	
2025-01-13 13:35:24.17	261.58	11.23	
2025-01-13 13:35:24.38	261.62	11.24	
2025-01-13 13:35:24.58	261.67	11.25	
2025-01-13 13:35:24.79	261.71	11.25	
2025-01-13 13:35:24.99	261.75	11.26	
2025-01-13 13:35:25.20	261.79	11.26	
2025-01-13 13:35:25.40	261.83	11.27	
2025-01-13 13:35:25.61	261.88	11.27	
2025-01-13 13:35:25.81	261.92	11.28	
2025-01-13 13:35:26.02	261.96	11.29	
2025-01-13 13:35:26.22	262.00	11.29	
2025-01-13 13:35:26.43	262.05	11.30	
2025-01-13 13:35:26.63	262.09	11.30	
2025-01-13 13:35:26.84	262.13	11.31	
2025-01-13 13:35:27.04	262.17	11.31	
2025-01-13 13:35:27.25	262.22	11.32	
2025-01-13 13:35:27.45	262.26	11.32	
2025-01-13 13:35:27.66	262.30	11.33	
2025-01-13 13:35:27.86	262.34	11.33	
2025-01-13 13:35:28.07	262.39	11.34	
2025-01-13 13:35:28.27	262.43	11.35	
2025-01-13 13:35:28.48	262.47	11.35	
2025-01-13 13:35:28.68	262.51	11.36	
2025-01-13 13:35:28.89	262.56	11.36	
2025-01-13 13:35:29.09	262.60	11.37	
2025-01-13 13:35:29.30	262.64	11.37	
2025-01-13 13:35:29.51	262.69	11.38	
2025-01-13 13:35:29.72	262.73	11.38	
2025-01-13 13:35:29.93	262.77	11.39	
2025-01-13 13:35:30.13	262.82	11.39	
2025-01-13 13:35:30.34	262.86	11.40	
2025-01-13 13:35:30.54	262.90	11.41	
2025-01-13 13:35:30.75	262.94	11.41	
2025-01-13 13:35:30.95	262.99	11.42	
2025-01-13 13:35:31.16	263.03	11.42	
2025-01-13 13:35:31.36	263.07	11.43	
2025-01-13 13:35:31.57	263.12	11.43	
2025-01-13 13:35:31.77	263.16	11.44	
2025-01-13 13:35:31.98	263.20	11.44	
2025-01-13 13:35:32.19	263.25	11.45	
2025-01-13 13:35:32.39	263.29	11.45	
2025-01-13 13:35:32.60	263.33	11.46	
2025-01-13 13:35:32.80	263.37	11.46	
2025-01-13 13:35:33.01	263.42	11.47	
2025-01-13 13:35:33.21	263.46	11.47	
2025-01-13 13:35:33.42	263.50	11.48	
2025-01-13 13:35:33.63	263.55	11.48	
2025-01-13 13:35:33.83	263.59	11.49	
2025-01-13 13:35:34.04	263.63	11.49	
2025-01-13 13:35:34.24	263.67	11.50	
2025-01-13 13:35:34.45	263.72	11.50	
2025-01-13 13:35:34.65	263.76	11.51	
2025-01-13 13:35:34.86	263.80	11.51	
2025-01-13 13:35:35.06	263.85	11.52	
2025-01-13 13:35:35.27	263.89	11.52	
2025-01-13 13:35:35.48	263.93	11.53	
2025-01-13 13:35:35.68	263.98	11.53	
2025-01-13 13:35:35.89	264.02	11.54	
2025-01-13 13:35:36.11	264.07	11.55	
2025-01-13 13:35:36.31	264.11	11.55	
2025-01-13 13:35:36.52	264.15	11.56	
2025-01-13 13:35:36.72	264.20	11.56	
2025-01-13 13:35:36.93	264.24	11.57	
2025-01-13 13:35:37.13	264.28	11.57	
2025-01-13 13:35:37.34	264.33	11.58	
2025-01-13 13:35:37.54	264.37	11.58	
2025-01-13 13:35:37.75	264.41	11.58	
2025-01-13 13:35:37.95	264.46	11.59	
2025-01-13 13:35:38.16	264.50	11.59	
2025-01-13 13:35:38.36	264.54	11.60	
2025-01-13 13:35:38.57	264.59	11.60	
2025-01-13 13:35:38.77	264.63	11.61	
2025-01-13 13:35:38.98	264.67	11.61	
2025-01-13 13:35:39.18	264.72	11.62	
2025-01-13 13:35:39.38	264.76	11.62	
2025-01-13 13:35:39.59	264.80	11.63	
2025-01-13 13:35:39.79	264.84	11.63	
2025-01-13 13:35:40.00	264.89	11.64	
2025-01-13 13:35:40.21	264.93	11.64	
2025-01-13 13:35:40.41	264.98	11.65	
2025-01-13 13:35:40.62	265.02	11.65	
2025-01-13 13:35:40.82	265.06	11.66	
2025-01-13 13:35:41.03	265.11	11.66	
2025-01-13 13:35:41.23	265.15	11.67	
2025-01-13 13:35:41.44	265.19	11.67	
2025-01-13 13:35:41.64	265.24	11.68	
2025-01-13 13:35:41.85	265.28	11.68	
2025-01-13 13:35:42.05	265.32	11.68	
2025-01-13 13:35:42.26	265.37	11.69	
2025-01-13 13:35:42.47	265.41	11.69	
2025-01-13 13:35:42.68	265.46	11.70	
2025-01-13 13:35:42.88	265.50	11.70	
2025-01-13 13:35:43.09	265.55	11.71	
2025-01-13 13:35:43.30	265.59	11.71	
2025-01-13 13:35:43.50	265.63	11.72	
2025-01-13 13:35:43.71	265.68	11.72	
2025-01-13 13:35:43.91	265.72	11.73	
2025-01-13 13:35:44.12	265.76	11.73	
2025-01-13 13:35:44.32	265.81	11.73	
2025-01-13 13:35:44.53	265.85	11.74	
2025-01-13 13:35:44.74	265.90	11.74	
2025-01-13 13:35:44.94	265.94	11.75	
2025-01-13 13:35:45.15	265.98	11.75	
2025-01-13 13:35:45.35	266.03	11.76	
2025-01-13 13:35:45.56	266.07	11.76	
2025-01-13 13:35:45.77	266.12	11.77	
2025-01-13 13:35:45.98	266.16	11.77	
2025-01-13 13:35:46.18	266.20	11.77	
2025-01-13 13:35:46.39	266.25	11.78	
2025-01-13 13:35:46.60	266.29	11.78	
2025-01-13 13:35:46.80	266.34	11.79	
2025-01-13 13:35:47.01	266.38	11.79	
2025-01-13 13:35:47.21	266.43	11.80	
2025-01-13 13:35:47.41	266.47	11.80	
2025-01-13 13:35:47.62	266.51	11.80	
2025-01-13 13:35:47.82	266.56	11.81	
2025-01-13 13:35:48.03	266.60	11.81	
2025-01-13 13:35:48.23	266.64	11.82	
2025-01-13 13:35:48.44	266.69	11.82	
2025-01-13 13:35:48.64	266.73	11.83	
2025-01-13 13:35:48.85	266.78	11.83	
2025-01-13 13:35:49.05	266.82	11.83	
2025-01-13 13:35:49.26	266.87	11.84	
2025-01-13 13:35:49.46	266.91	11.84	
2025-01-13 13:35:49.67	266.95	11.85	
2025-01-13 13:35:49.87	267.00	11.85	
2025-01-13 13:35:50.08	267.04	11.85	
2025-01-13 13:35:50.28	267.08	11.86	
2025-01-13 13:35:50.49	267.13	11.86	
2025-01-13 13:35:50.69	267.17	11.87	
2025-01-13 13:35:50.90	267.22	11.87	
2025-01-13 13:35:51.10	267.26	11.87	
2025-01-13 13:35:51.31	267.31	11.88	
2025-01-13 13:35:51.51	267.35	11.88	
2025-01-13 13:35:51.72	267.39	11.89	
2025-01-13 13:35:51.93	267.44	11.89	
2025-01-13 13:35:52.13	267.48	11.89	
2025-01-13 13:35:52.33	267.53	11.90	
2025-01-13 13:35:52.54	267.57	11.90	
2025-01-13 13:35:52.75	267.62	11.91	
2025-01-13 13:35:52.95	267.66	11.91	
2025-01-13 13:35:53.17	267.71	11.91	
2025-01-13 13:35:53.37	267.75	11.92	
2025-01-13 13:35:53.58	267.80	11.92	
2025-01-13 13:35:53.79	267.84	11.93	
2025-01-13 13:35:53.99	267.88	11.93	
2025-01-13 13:35:54.20	267.93	11.93	
2025-01-13 13:35:54.40	267.97	11.94	
2025-01-13 13:35:54.61	268.02	11.94	
2025-01-13 13:35:54.81	268.06	11.94	
2025-01-13 13:35:55.02	268.11	11.95	
2025-01-13 13:35:55.22	268.15	11.95	
2025-01-13 13:35:55.42	268.19	11.96	
2025-01-13 13:35:55.63	268.24	11.96	
2025-01-13 13:35:55.83	268.28	11.96	
2025-01-13 13:35:56.04	268.33	11.97	
2025-01-13 13:35:56.24	268.37	11.97	
2025-01-13 13:35:56.45	268.42	11.97	
2025-01-13 13:35:56.66	268.46	11.98	
2025-01-13 13:35:56.86	268.51	11.98	
2025-01-13 13:35:57.07	268.55	11.99	
2025-01-13 13:35:57.27	268.60	11.99	
2025-01-13 13:35:57.49	268.64	11.99	
2025-01-13 13:35:57.70	268.69	12.00	
2025-01-13 13:35:57.90	268.73	12.00	
2025-01-13 13:35:58.11	268.78	12.00	
2025-01-13 13:35:58.31	268.82	12.01	
2025-01-13 13:35:58.52	268.87	12.01	
2025-01-13 13:35:58.72	268.91	12.01	
2025-01-13 13:35:58.93	268.96	12.02	
2025-01-13 13:35:59.13	269.00	12.02	
2025-01-13 13:35:59.34	269.05	12.02	
2025-01-13 13:35:59.54	269.09	12.03	
2025-01-13 13:35:59.75	269.13	12.03	
2025-01-13 13:35:59.95	269.18	12.03	
2025-01-13 13:36:00.16	269.22	12.04	
2025-01-13 13:36:00.36	269.27	12.04	
2025-01-13 13:36:00.56	269.31	12.04	
2025-01-13 13:36:00.77	269.36	12.05	
2025-01-13 13:36:00.98	269.40	12.05	
2025-01-13 13:36:01.18	269.45	12.05	
2025-01-13 13:36:01.39	269.49	12.06	
2025-01-13 13:36:01.59	269.54	12.06	
2025-01-13 13:36:01.80	269.58	12.06	
2025-01-13 13:36:02.00	269.63	12.07	
2025-01-13 13:36:02.21	269.67	12.07	
2025-01-13 13:36:02.41	269.72	12.07	
2025-01-13 13:36:02.62	269.76	12.08	
2025-01-13 13:36:02.82	269.80	12.08	
2025-01-13 13:36:03.03	269.85	12.08	
2025-01-13 13:36:03.23	269.89	12.09	
2025-01-13 13:36:03.44	269.94	12.09	
2025-01-13 13:36:03.65	269.99	12.09	
2025-01-13 13:36:03.86	270.03	12.10	
2025-01-13 13:36:04.07	270.08	12.10	
2025-01-13 13:36:04.28	270.12	12.10	
2025-01-13 13:36:04.48	270.17	12.11	
2025-01-13 13:36:04.69	270.21	12.11	
2025-01-13 13:36:04.89	270.26	12.11	
2025-01-13 13:36:05.10	270.30	12.11	
2025-01-13 13:36:05.30	270.35	12.12	
2025-01-13 13:36:05.51	270.39	12.12	
2025-01-13 13:36:05.71	270.44	12.12	
2025-01-13 13:36:05.92	270.48	12.13	
2025-01-13 13:36:06.12	270.53	12.13	
2025-01-13 13:36:06.33	270.57	12.13	
2025-01-13 13:36:06.53	270.62	12.14	
2025-01-13 13:36:06.74	270.66	12.14	
2025-01-13 13:36:06.94	270.71	12.14	
2025-01-13 13:36:07.15	270.75	12.14	
2025-01-13 13:36:07.35	270.80	12.15	
2025-01-13 13:36:07.56	270.84	12.15	
2025-01-13 13:36:07.76	270.89	12.15	
2025-01-13 13:36:07.97	270.93	12.16	
2025-01-13 13:36:08.19	270.98	12.16	
2025-01-13 13:36:08.39	271.03	12.16	
2025-01-13 13:36:08.60	271.07	12.16	
2025-01-13 13:36:08.80	271.12	12.17	
2025-01-13 13:36:09.01	271.16	12.17	
2025-01-13 13:36:09.21	271.21	12.17	
2025-01-13 13:36:09.42	271.25	12.18	
2025-01-13 13:36:09.62	271.30	12.18	
2025-01-13 13:36:09.83	271.34	12.18	
2025-01-13 13:36:10.03	271.39	12.18	
2025-01-13 13:36:10.25	271.43	12.19	
2025-01-13 13:36:10.45	271.48	12.19	
2025-01-13 13:36:10.66	271.53	12.19	
2025-01-13 13:36:10.87	271.57	12.19	
2025-01-13 13:36:11.07	271.62	12.20	
2025-01-13 13:36:11.28	271.66	12.20	
2025-01-13 13:36:11.48	271.71	12.20	
2025-01-13 13:36:11.69	271.75	12.20	
2025-01-13 13:36:11.89	271.80	12.21	
2025-01-13 13:36:12.10	271.84	12.21	
2025-01-13 13:36:12.30	271.89	12.21	
2025-01-13 13:36:12.51	271.93	12.21	
2025-01-13 13:36:12.71	271.98	12.22	
2025-01-13 13:36:12.92	272.02	12.22	
2025-01-13 13:36:13.12	272.07	12.22	
2025-01-13 13:36:13.33	272.11	12.22	
2025-01-13 13:36:13.53	272.16	12.23	
2025-01-13 13:36:13.74	272.20	12.23	
2025-01-13 13:36:13.94	272.25	12.23	
2025-01-13 13:36:14.15	272.29	12.23	
2025-01-13 13:36:14.36	272.34	12.24	
2025-01-13 13:36:14.58	272.39	12.24	
2025-01-13 13:36:14.78	272.43	12.24	
2025-01-13 13:36:14.99	272.48	12.24	
2025-01-13 13:36:15.19	272.52	12.25	
2025-01-13 13:36:15.40	272.57	12.25	
2025-01-13 13:36:15.61	272.62	12.25	
2025-01-13 13:36:15.82	272.66	12.25	
2025-01-13 13:36:16.03	272.71	12.25	
2025-01-13 13:36:16.23	272.75	12.26	
2025-01-13 13:36:16.43	272.80	12.26	
2025-01-13 13:36:16.64	272.85	12.26	
2025-01-13 13:36:16.84	272.89	12.26	
2025-01-13 13:36:17.05	272.94	12.27	
2025-01-13 13:36:17.25	272.98	12.27	
2025-01-13 13:36:17.46	273.03	12.27	
2025-01-13 13:36:17.66	273.07	12.27	
2025-01-13 13:36:17.87	273.12	12.27	
2025-01-13 13:36:18.07	273.16	12.28	
2025-01-13 13:36:18.28	273.21	12.28	
2025-01-13 13:36:18.48	273.25	12.28	
2025-01-13 13:36:18.69	273.30	12.28	
2025-01-13 13:36:18.89	273.34	12.28	
2025-01-13 13:36:19.10	273.39	12.29	
2025-01-13 13:36:19.30	273.43	12.29	
2025-01-13 13:36:19.51	273.48	12.29	
2025-01-13 13:36:19.71	273.53	12.29	
2025-01-13 13:36:19.92	273.57	12.29	
2025-01-13 13:36:20.12	273.62	12.30	
2025-01-13 13:36:20.32	273.66	12.30	
2025-01-13 13:36:20.53	273.71	12.30	
2025-01-13 13:36:20.73	273.75	12.30	
2025-01-13 13:36:20.94	273.80	12.30	
2025-01-13 13:36:21.14	273.84	12.31	
2025-01-13 13:36:21.35	273.89	12.31	
2025-01-13 13:36:21.55	273.93	12.31	
2025-01-13 13:36:21.76	273.98	12.31	
2025-01-13 13:36:21.97	274.03	12.31	
2025-01-13 13:36:22.17	274.07	12.31	
2025-01-13 13:36:22.38	274.12	12.32	
2025-01-13 13:36:22.58	274.16	12.32	
2025-01-13 13:36:22.79	274.21	12.32	
2025-01-13 13:36:22.99	274.25	12.32	
2025-01-13 13:36:23.20	274.30	12.32	
2025-01-13 13:36:23.40	274.34	12.33	
2025-01-13 13:36:23.61	274.39	12.33	
2025-01-13 13:36:23.82	274.44	12.33	
2025-01-13 13:36:24.02	274.48	12.33	
2025-01-13 13:36:24.22	274.53	12.33	
2025-01-13 13:36:24.43	274.57	12.33	
2025-01-13 13:36:24.64	274.62	12.33	
2025-01-13 13:36:24.84	274.67	12.34	
2025-01-13 13:36:25.05	274.71	12.34	
2025-01-13 13:36:25.25	274.76	12.34	
2025-01-13 13:36:25.46	274.80	12.34	
2025-01-13 13:36:25.66	274.85	12.34	
2025-01-13 13:36:25.87	274.89	12.34	
2025-01-13 13:36:26.07	274.94	12.35	
2025-01-13 13:36:26.27	274.98	12.35	
2025-01-13 13:36:26.48	275.03	12.35	
2025-01-13 13:36:26.69	275.08	12.35	
2025-01-13 13:36:26.89	275.12	12.35	
2025-01-13 13:36:27.10	275.17	12.35	
2025-01-13 13:36:27.30	275.21	12.35	
2025-01-13 13:36:27.51	275.26	12.36	
2025-01-13 13:36:27.71	275.30	12.36	
2025-01-13 13:36:27.92	275.35	12.36	
2025-01-13 13:36:28.13	275.40	12.36	
2025-01-13 13:36:28.33	275.44	12.36	
2025-01-13 13:36:28.54	275.49	12.36	
2025-01-13 13:36:28.74	275.53	12.36	
2025-01-13 13:36:28.95	275.58	12.36	
2025-01-13 13:36:29.15	275.62	12.37	
2025-01-13 13:36:29.36	275.67	12.37	
2025-01-13 13:36:29.56	275.72	12.37	
2025-01-13 13:36:29.77	275.76	12.37	
2025-01-13 13:36:29.97	275.81	12.37	
2025-01-13 13:36:30.18	275.85	12.37	
2025-01-13 13:36:30.38	275.90	12.37	
2025-01-13 13:36:30.60	275.95	12.37	
2025-01-13 13:36:30.80	275.99	12.38	
2025-01-13 13:36:31.01	276.04	12.38	
2025-01-13 13:36:31.22	276.09	12.38	
2025-01-13 13:36:31.42	276.13	12.38	
2025-01-13 13:36:31.63	276.18	12.38	
2025-01-13 13:36:31.83	276.22	12.38	
2025-01-13 13:36:32.04	276.27	12.38	
2025-01-13 13:36:32.24	276.31	12.38	
2025-01-13 13:36:32.45	276.36	12.38	
2025-01-13 13:36:32.65	276.41	12.38	
2025-01-13 13:36:32.85	276.45	12.39	
2025-01-13 13:36:33.06	276.50	12.39	
2025-01-13 13:36:33.26	276.54	12.39	
2025-01-13 13:36:33.47	276.59	12.39	
2025-01-13 13:36:33.67	276.63	12.39	
2025-01-13 13:36:33.88	276.68	12.39	
2025-01-13 13:36:34.08	276.72	12.39	
2025-01-13 13:36:34.29	276.77	12.39	
2025-01-13 13:36:34.50	276.82	12.39	
2025-01-13 13:36:34.70	276.86	12.39	
2025-01-13 13:36:34.91	276.91	12.39	
2025-01-13 13:36:35.11	276.95	12.40	
2025-01-13 13:36:35.32	277.00	12.40	
2025-01-13 13:36:35.52	277.05	12.40	
2025-01-13 13:36:35.73	277.09	12.40	
2025-01-13 13:36:35.93	277.14	12.40	
2025-01-13 13:36:36.14	277.18	12.40	
2025-01-13 13:36:36.34	277.23	12.40	
2025-01-13 13:36:36.55	277.28	12.40	
2025-01-13 13:36:36.76	277.32	12.40	
2025-01-13 13:36:36.98	277.37	12.40	
2025-01-13 13:36:37.18	277.42	12.40	
2025-01-13 13:36:37.39	277.46	12.40	
2025-01-13 13:36:37.59	277.51	12.40	
2025-01-13 13:36:37.80	277.56	12.40	
2025-01-13 13:36:38.00	277.60	12.40	
2025-01-13 13:36:38.21	277.65	12.41	
2025-01-13 13:36:38.41	277.69	12.41	
2025-01-13 13:36:38.62	277.74	12.41	
2025-01-13 13:36:38.82	277.78	12.41	
2025-01-13 13:36:39.03	277.83	12.41	
2025-01-13 13:36:39.23	277.88	12.41	
2025-01-13 13:36:39.43	277.92	12.41	
2025-01-13 13:36:39.64	277.97	12.41	
2025-01-13 13:36:39.85	278.01	12.41	
2025-01-13 13:36:40.05	278.06	12.41	
2025-01-13 13:36:40.25	278.10	12.41	
2025-01-13 13:36:40.46	278.15	12.41	
2025-01-13 13:36:40.67	278.20	12.41	
2025-01-13 13:36:40.87	278.24	12.41	
2025-01-13 13:36:41.07	278.29	12.41	
2025-01-13 13:36:41.28	278.33	12.41	
2025-01-13 13:36:41.48	278.38	12.41	
2025-01-13 13:36:41.69	278.43	12.41	
2025-01-13 13:36:41.90	278.47	12.41	
2025-01-13 13:36:42.10	278.52	12.41	
2025-01-13 13:36:42.32	278.57	12.41	
2025-01-13 13:36:42.52	278.61	12.41	
2025-01-13 13:36:42.73	278.66	12.41	
2025-01-13 13:36:42.94	278.70	12.41	
2025-01-13 13:36:43.14	278.75	12.41	
2025-01-13 13:36:43.34	278.79	12.41	
2025-01-13 13:36:43.55	278.84	12.41	
2025-01-13 13:36:43.76	278.89	12.41	
2025-01-13 13:36:43.96	278.93	12.41	
2025-01-13 13:36:44.17	278.98	12.41	
2025-01-13 13:36:44.37	279.02	12.41	
2025-01-13 13:36:44.58	279.07	12.41	
2025-01-13 13:36:44.78	279.12	12.41	
2025-01-13 13:36:44.99	279.16	12.41	
2025-01-13 13:36:45.19	279.21	12.41	
2025-01-13 13:36:45.39	279.25	12.41	
2025-01-13 13:36:45.60	279.30	12.41	
2025-01-13 13:36:45.81	279.35	12.41	
2025-01-13 13:36:46.01	279.39	12.41	
2025-01-13 13:36:46.22	279.44	12.41	
2025-01-13 13:36:46.42	279.48	12.41	
2025-01-13 13:36:46.63	279.53	12.41	
2025-01-13 13:36:46.83	279.57	12.41	
2025-01-13 13:36:47.04	279.62	12.41	
2025-01-13 13:36:47.24	279.67	12.41	
2025-01-13 13:36:47.45	279.71	12.41	
2025-01-13 13:36:47.65	279.76	12.41	
2025-01-13 13:36:47.86	279.80	12.41	
2025-01-13 13:36:48.06	279.85	12.41	
2025-01-13 13:36:48.27	279.90	12.41	
2025-01-13 13:36:48.48	279.94	12.41	
2025-01-13 13:36:48.69	279.99	12.41	
2025-01-13 13:36:48.90	280.04	12.41	
2025-01-13 13:36:49.11	280.08	12.41	
2025-01-13 13:36:49.31	280.13	12.41	
2025-01-13 13:36:49.51	280.17	12.41	
2025-01-13 13:36:49.72	280.22	12.41	
2025-01-13 13:36:49.92	280.26	12.41	
2025-01-13 13:36:50.13	280.31	12.41	
2025-01-13 13:36:50.33	280.36	12.41	
2025-01-13 13:36:50.54	280.40	12.41	
2025-01-13 13:36:50.76	280.45	12.41	
2025-01-13 13:36:50.96	280.50	12.41	
2025-01-13 13:36:51.17	280.54	12.41	
2025-01-13 13:36:51.37	280.59	12.41	
2025-01-13 13:36:51.58	280.64	12.41	
2025-01-13 13:36:51.78	280.68	12.41	
2025-01-13 13:36:51.99	280.73	12.41	
2025-01-13 13:36:52.20	280.77	12.41	
2025-01-13 13:36:52.40	280.82	12.40	
2025-01-13 13:36:52.61	280.87	12.40	
2025-01-13 13:36:52.81	280.91	12.40	
2025-01-13 13:36:53.02	280.96	12.40	
2025-01-13 13:36:53.22	281.00	12.40	
2025-01-13 13:36:53.43	281.05	12.40	
2025-01-13 13:36:53.63	281.09	12.40	
2025-01-13 13:36:53.84	281.14	12.40	
2025-01-13 13:36:54.04	281.19	12.40	
2025-01-13 13:36:54.25	281.23	12.40	
2025-01-13 13:36:54.45	281.28	12.40	
2025-01-13 13:36:54.66	281.32	12.40	
2025-01-13 13:36:54.86	281.37	12.40	
2025-01-13 13:36:55.07	281.42	12.40	
2025-01-13 13:36:55.27	281.46	12.40	
2025-01-13 13:36:55.48	281.51	12.39	
2025-01-13 13:36:55.69	281.55	12.39	
2025-01-13 13:36:55.89	281.60	12.39	
2025-01-13 13:36:56.10	281.65	12.39	
2025-01-13 13:36:56.30	281.69	12.39	
2025-01-13 13:36:56.51	281.74	12.39	
2025-01-13 13:36:56.71	281.78	12.39	
2025-01-13 13:36:56.92	281.83	12.39	
2025-01-13 13:36:57.12	281.87	12.39	
2025-01-13 13:36:57.33	281.92	12.39	
2025-01-13 13:36:57.53	281.96	12.39	
2025-01-13 13:36:57.74	282.01	12.39	
2025-01-13 13:36:57.94	282.06	12.38	
2025-01-13 13:36:58.15	282.10	12.38	
2025-01-13 13:36:58.35	282.15	12.38	
2025-01-13 13:36:58.56	282.19	12.38	
2025-01-13 13:36:58.76	282.24	12.38	
2025-01-13 13:36:58.97	282.29	12.38	
2025-01-13 13:36:59.18	282.33	12.38	
2025-01-13 13:36:59.38	282.38	12.38	
2025-01-13 13:36:59.59	282.42	12.38	
2025-01-13 13:36:59.79	282.47	12.37	
2025-01-13 13:37:00.00	282.51	12.37	
2025-01-13 13:37:00.20	282.56	12.37	
2025-01-13 13:37:00.42	282.61	12.37	
2025-01-13 13:37:00.63	282.66	12.37	
2025-01-13 13:37:00.83	282.70	12.37	
2025-01-13 13:37:01.04	282.75	12.37	
2025-01-13 13:37:01.24	282.79	12.37	
2025-01-13 13:37:01.45	282.84	12.37	
2025-01-13 13:37:01.65	282.88	12.36	
2025-01-13 13:37:01.86	282.93	12.36	
2025-01-13 13:37:02.06	282.97	12.36	
2025-01-13 13:37:02.27	283.02	12.36	
2025-01-13 13:37:02.47	283.06	12.36	
2025-01-13 13:37:02.68	283.11	12.36	
2025-01-13 13:37:02.88	283.16	12.36	
2025-01-13 13:37:03.09	283.20	12.35	
2025-01-13 13:37:03.30	283.25	12.35	
2025-01-13 13:37:03.50	283.29	12.35	
2025-01-13 13:37:03.70	283.34	12.35	
2025-01-13 13:37:03.91	283.39	12.35	
2025-01-13 13:37:04.11	283.43	12.35	
2025-01-13 13:37:04.32	283.48	12.35	
2025-01-13 13:37:04.53	283.52	12.34	
2025-01-13 13:37:04.73	283.57	12.34	
2025-01-13 13:37:04.94	283.61	12.34	
2025-01-13 13:37:05.14	283.66	12.34	
2025-01-13 13:37:05.35	283.71	12.34	
2025-01-13 13:37:05.56	283.75	12.34	
2025-01-13 13:37:05.77	283.80	12.34	
2025-01-13 13:37:05.98	283.85	12.33	
2025-01-13 13:37:06.18	283.89	12.33	
2025-01-13 13:37:06.39	283.94	12.33	
2025-01-13 13:37:06.60	283.98	12.33	
2025-01-13 13:37:06.80	284.03	12.33	
2025-01-13 13:37:07.01	284.07	12.33	
2025-01-13 13:37:07.21	284.12	12.32	
2025-01-13 13:37:07.42	284.17	12.32	
2025-01-13 13:37:07.63	284.21	12.32	
2025-01-13 13:37:07.83	284.26	12.32	
2025-01-13 13:37:08.03	284.30	12.32	
2025-01-13 13:37:08.24	284.35	12.32	
2025-01-13 13:37:08.44	284.39	12.31	
2025-01-13 13:37:08.65	284.44	12.31	
2025-01-13 13:37:08.85	284.48	12.31	
2025-01-13 13:37:09.06	284.53	12.31	
2025-01-13 13:37:09.26	284.57	12.31	
2025-01-13 13:37:09.47	284.62	12.30	
2025-01-13 13:37:09.67	284.66	12.30	
2025-01-13 13:37:09.88	284.71	12.30	
2025-01-13 13:37:10.08	284.76	12.30	
2025-01-13 13:37:10.29	284.80	12.30	
2025-01-13 13:37:10.49	284.85	12.30	
2025-01-13 13:37:10.70	284.89	12.29	
2025-01-13 13:37:10.91	284.94	12.29	
2025-01-13 13:37:11.12	284.99	12.29	
2025-01-13 13:37:11.33	285.03	12.29	
2025-01-13 13:37:11.53	285.08	12.29	
2025-01-13 13:37:11.74	285.12	12.28	
2025-01-13 13:37:11.95	285.17	12.28	
2025-01-13 13:37:12.15	285.21	12.28	
2025-01-13 13:37:12.35	285.26	12.28	
2025-01-13 13:37:12.56	285.30	12.27	
2025-01-13 13:37:12.76	285.35	12.27	
2025-01-13 13:37:12.97	285.40	12.27	
2025-01-13 13:37:13.17	285.44	12.27	
2025-01-13 13:37:13.38	285.49	12.27	
2025-01-13 13:37:13.58	285.53	12.26	
2025-01-13 13:37:13.79	285.58	12.26	
2025-01-13 13:37:13.99	285.62	12.26	
2025-01-13 13:37:14.20	285.67	12.26	
2025-01-13 13:37:14.40	285.71	12.26	
2025-01-13 13:37:14.61	285.76	12.25	
2025-01-13 13:37:14.82	285.80	12.25	
2025-01-13 13:37:15.02	285.85	12.25	
2025-01-13 13:37:15.23	285.89	12.25	
2025-01-13 13:37:15.43	285.94	12.24	
2025-01-13 13:37:15.63	285.98	12.24	
2025-01-13 13:37:15.84	286.03	12.24	
2025-01-13 13:37:16.05	286.08	12.24	
2025-01-13 13:37:16.25	286.12	12.23	
2025-01-13 13:37:16.45	286.16	12.23	
2025-01-13 13:37:16.66	286.21	12.23	
2025-01-13 13:37:16.86	286.25	12.23	
2025-01-13 13:37:17.07	286.30	12.23	
2025-01-13 13:37:17.28	286.35	12.22	
2025-01-13 13:37:17.48	286.39	12.22	
2025-01-13 13:37:17.69	286.44	12.22	
2025-01-13 13:37:17.89	286.48	12.22	
2025-01-13 13:37:18.10	286.53	12.21	
2025-01-13 13:37:18.30	286.57	12.21	
2025-01-13 13:37:18.51	286.62	12.21	
2025-01-13 13:37:18.71	286.66	12.21	
2025-01-13 13:37:18.92	286.71	12.20	
2025-01-13 13:37:19.12	286.75	12.20	
2025-01-13 13:37:19.33	286.80	12.20	
2025-01-13 13:37:19.53	286.84	12.20	
2025-01-13 13:37:19.73	286.89	12.19	
2025-01-13 13:37:19.94	286.93	12.19	
2025-01-13 13:37:20.15	286.98	12.19	
2025-01-13 13:37:20.35	287.02	12.18	
2025-01-13 13:37:20.56	287.07	12.18	
2025-01-13 13:37:20.76	287.11	12.18	
2025-01-13 13:37:20.97	287.16	12.18	
2025-01-13 13:37:21.17	287.20	12.17	
2025-01-13 13:37:21.38	287.25	12.17	
2025-01-13 13:37:21.59	287.29	12.17	
2025-01-13 13:37:21.79	287.34	12.17	
2025-01-13 13:37:21.99	287.38	12.16	
2025-01-13 13:37:22.20	287.43	12.16	
2025-01-13 13:37:22.41	287.47	12.16	
2025-01-13 13:37:22.61	287.52	12.15	
2025-01-13 13:37:22.82	287.56	12.15	
2025-01-13 13:37:23.02	287.61	12.15	
2025-01-13 13:37:23.23	287.65	12.15	
2025-01-13 13:37:23.43	287.70	12.14	
2025-01-13 13:37:23.64	287.74	12.14	
2025-01-13 13:37:23.84	287.79	12.14	
2025-01-13 13:37:24.05	287.83	12.13	
2025-01-13 13:37:24.25	287.88	12.13	
2025-01-13 13:37:24.46	287.92	12.13	
2025-01-13 13:37:24.67	287.97	12.13	
2025-01-13 13:37:24.88	288.02	12.12	
2025-01-13 13:37:25.08	288.06	12.12	
2025-01-13 13:37:25.29	288.11	12.12	
2025-01-13 13:37:25.49	288.15	12.11	
2025-01-13 13:37:25.70	288.19	12.11	
2025-01-13 13:37:25.90	288.24	12.11	
2025-01-13 13:37:26.11	288.28	12.10	
2025-01-13 13:37:26.31	288.33	12.10	
2025-01-13 13:37:26.52	288.37	12.10	
2025-01-13 13:37:26.72	288.42	12.10	
2025-01-13 13:37:26.93	288.46	12.09	
2025-01-13 13:37:27.13	288.51	12.09	
2025-01-13 13:37:27.34	288.55	12.09	
2025-01-13 13:37:27.54	288.60	12.08	
2025-01-13 13:37:27.75	288.64	12.08	
2025-01-13 13:37:27.95	288.69	12.08	
2025-01-13 13:37:28.16	288.73	12.07	
2025-01-13 13:37:28.36	288.78	12.07	
2025-01-13 13:37:28.57	288.82	12.07	
2025-01-13 13:37:28.78	288.87	12.06	
2025-01-13 13:37:28.98	288.91	12.06	
2025-01-13 13:37:29.19	288.96	12.06	
2025-01-13 13:37:29.39	289.00	12.05	
2025-01-13 13:37:29.60	289.05	12.05	
2025-01-13 13:37:29.80	289.09	12.05	
2025-01-13 13:37:30.01	289.13	12.04	
2025-01-13 13:37:30.21	289.18	12.04	
2025-01-13 13:37:30.42	289.22	12.04	
2025-01-13 13:37:30.62	289.27	12.03	
2025-01-13 13:37:30.83	289.31	12.03	
2025-01-13 13:37:31.04	289.36	12.03	
2025-01-13 13:37:31.24	289.40	12.02	
2025-01-13 13:37:31.45	289.45	12.02	
2025-01-13 13:37:31.65	289.49	12.02	
2025-01-13 13:37:31.86	289.54	12.01	
2025-01-13 13:37:32.06	289.58	12.01	
2025-01-13 13:37:32.27	289.63	12.01	
2025-01-13 13:37:32.47	289.67	12.00	
2025-01-13 13:37:32.68	289.71	12.00	
2025-01-13 13:37:32.88	289.76	11.99	
2025-01-13 13:37:33.09	289.80	11.99	
2025-01-13 13:37:33.29	289.85	11.99	
2025-01-13 13:37:33.51	289.89	11.98	
2025-01-13 13:37:33.72	289.94	11.98	
2025-01-13 13:37:33.92	289.98	11.98	
2025-01-13 13:37:34.13	290.03	11.97	
2025-01-13 13:37:34.33	290.07	11.97	
2025-01-13 13:37:34.54	290.12	11.97	
2025-01-13 13:37:34.74	290.16	11.96	
2025-01-13 13:37:34.95	290.21	11.96	
2025-01-13 13:37:35.15	290.25	11.95	
2025-01-13 13:37:35.36	290.29	11.95	
2025-01-13 13:37:35.56	290.34	11.95	
2025-01-13 13:37:35.77	290.38	11.94	
2025-01-13 13:37:35.97	290.43	11.94	
2025-01-13 13:37:36.18	290.47	11.94	
2025-01-13 13:37:36.38	290.51	11.93	
2025-01-13 13:37:36.60	290.56	11.93	
2025-01-13 13:37:36.80	290.61	11.92	
2025-01-13 13:37:37.00	290.65	11.92	
2025-01-13 13:37:37.20	290.69	11.92	
2025-01-13 13:37:37.41	290.74	11.91	
2025-01-13 13:37:37.62	290.78	11.91	
2025-01-13 13:37:37.82	290.82	11.91	
2025-01-13 13:37:38.03	290.87	11.90	
2025-01-13 13:37:38.23	290.91	11.90	
2025-01-13 13:37:38.44	290.96	11.89	
2025-01-13 13:37:38.64	291.00	11.89	
2025-01-13 13:37:38.85	291.05	11.89	
2025-01-13 13:37:39.05	291.09	11.88	
2025-01-13 13:37:39.26	291.13	11.88	
2025-01-13 13:37:39.47	291.18	11.87	
2025-01-13 13:37:39.67	291.22	11.87	
2025-01-13 13:37:39.87	291.27	11.87	
2025-01-13 13:37:40.08	291.31	11.86	
2025-01-13 13:37:40.28	291.35	11.86	
2025-01-13 13:37:40.49	291.40	11.85	
2025-01-13 13:37:40.71	291.45	11.85	
2025-01-13 13:37:40.92	291.49	11.85	
2025-01-13 13:37:41.13	291.54	11.84	
2025-01-13 13:37:41.33	291.58	11.84	
2025-01-13 13:37:41.54	291.62	11.83	
2025-01-13 13:37:41.75	291.67	11.83	
2025-01-13 13:37:41.95	291.71	11.82	
2025-01-13 13:37:42.15	291.75	11.82	
2025-01-13 13:37:42.36	291.80	11.82	
2025-01-13 13:37:42.57	291.84	11.81	
2025-01-13 13:37:42.77	291.89	11.81	
2025-01-13 13:37:42.97	291.93	11.80	
2025-01-13 13:37:43.18	291.97	11.80	
2025-01-13 13:37:43.39	292.02	11.79	
2025-01-13 13:37:43.59	292.06	11.79	
2025-01-13 13:37:43.80	292.11	11.79	
2025-01-13 13:37:44.00	292.15	11.78	
2025-01-13 13:37:44.20	292.19	11.78	
2025-01-13 13:37:44.41	292.24	11.77	
2025-01-13 13:37:44.61	292.28	11.77	
2025-01-13 13:37:44.82	292.32	11.76	
2025-01-13 13:37:45.02	292.37	11.76	
2025-01-13 13:37:45.23	292.41	11.76	
2025-01-13 13:37:45.43	292.45	11.75	
2025-01-13 13:37:45.64	292.50	11.75	
2025-01-13 13:37:45.84	292.54	11.74	
2025-01-13 13:37:46.05	292.59	11.74	
2025-01-13 13:37:46.25	292.63	11.73	
2025-01-13 13:37:46.46	292.67	11.73	
2025-01-13 13:37:46.66	292.72	11.73	
2025-01-13 13:37:46.87	292.76	11.72	
2025-01-13 13:37:47.08	292.81	11.72	
2025-01-13 13:37:47.28	292.85	11.71	
2025-01-13 13:37:47.48	292.89	11.71	
2025-01-13 13:37:47.69	292.94	11.70	
2025-01-13 13:37:47.90	292.98	11.70	
2025-01-13 13:37:48.10	293.02	11.69	
2025-01-13 13:37:48.31	293.07	11.69	
2025-01-13 13:37:48.51	293.11	11.68	
2025-01-13 13:37:48.72	293.15	11.68	
2025-01-13 13:37:48.92	293.20	11.68	
2025-01-13 13:37:49.13	293.24	11.67	
2025-01-13 13:37:49.34	293.28	11.67	
2025-01-13 13:37:49.54	293.33	11.66	
2025-01-13 13:37:49.75	293.37	11.66	
2025-01-13 13:37:49.95	293.41	11.65	
2025-01-13 13:37:50.16	293.46	11.65	
2025-01-13 13:37:50.36	293.50	11.64	
2025-01-13 13:37:50.57	293.54	11.64	
2025-01-13 13:37:50.77	293.59	11.63	
2025-01-13 13:37:50.98	293.63	11.63	
2025-01-13 13:37:51.18	293.67	11.62	
2025-01-13 13:37:51.39	293.72	11.62	
2025-01-13 13:37:51.59	293.76	11.61	
2025-01-13 13:37:51.80	293.80	11.61	
2025-01-13 13:37:52.00	293.85	11.60	
2025-01-13 13:37:52.21	293.89	11.60	
2025-01-13 13:37:52.42	293.93	11.59	
2025-01-13 13:37:52.62	293.98	11.59	
2025-01-13 13:37:52.82	294.02	11.58	
2025-01-13 13:37:53.03	294.06	11.58	
2025-01-13 13:37:53.24	294.11	11.58	
2025-01-13 13:37:53.44	294.15	11.57	
2025-01-13 13:37:53.65	294.19	11.57	
2025-01-13 13:37:53.85	294.24	11.56	
2025-01-13 13:37:54.05	294.28	11.56	
2025-01-13 13:37:54.26	294.32	11.55	
2025-01-13 13:37:54.46	294.36	11.55	
2025-01-13 13:37:54.67	294.41	11.54	
2025-01-13 13:37:54.87	294.45	11.54	
2025-01-13 13:37:55.08	294.49	11.53	
2025-01-13 13:37:55.28	294.54	11.53	
2025-01-13 13:37:55.49	294.58	11.52	
2025-01-13 13:37:55.69	294.62	11.52	
2025-01-13 13:37:55.90	294.67	11.51	
2025-01-13 13:37:56.10	294.71	11.51	
2025-01-13 13:37:56.31	294.75	11.50	
2025-01-13 13:37:56.51	294.79	11.50	
2025-01-13 13:37:56.72	294.84	11.49	
2025-01-13 13:37:56.92	294.88	11.49	
2025-01-13 13:37:57.13	294.92	11.48	
2025-01-13 13:37:57.33	294.96	11.48	
2025-01-13 13:37:57.54	295.01	11.47	
2025-01-13 13:37:57.74	295.05	11.46	
2025-01-13 13:37:57.95	295.09	11.46	
2025-01-13 13:37:58.15	295.14	11.45	
2025-01-13 13:37:58.35	295.18	11.45	
2025-01-13 13:37:58.56	295.22	11.44	
2025-01-13 13:37:58.77	295.26	11.44	
2025-01-13 13:37:58.97	295.31	11.43	
2025-01-13 13:37:59.17	295.35	11.43	
2025-01-13 13:37:59.38	295.39	11.42	
2025-01-13 13:37:59.59	295.44	11.42	
2025-01-13 13:37:59.79	295.48	11.41	
2025-01-13 13:38:00.00	295.52	11.41	
2025-01-13 13:38:00.20	295.56	11.40	
2025-01-13 13:38:00.41	295.61	11.40	
2025-01-13 13:38:00.61	295.65	11.39	
2025-01-13 13:38:00.81	295.69	11.39	
2025-01-13 13:38:01.02	295.73	11.38	
2025-01-13 13:38:01.22	295.77	11.38	
2025-01-13 13:38:01.43	295.82	11.37	
2025-01-13 13:38:01.63	295.86	11.36	
2025-01-13 13:38:01.84	295.90	11.36	
2025-01-13 13:38:02.05	295.95	11.35	
2025-01-13 13:38:02.25	295.99	11.35	
2025-01-13 13:38:02.45	296.03	11.34	
2025-01-13 13:38:02.66	296.07	11.34	
2025-01-13 13:38:02.86	296.11	11.33	
2025-01-13 13:38:03.07	296.16	11.33	
2025-01-13 13:38:03.27	296.20	11.32	
2025-01-13 13:38:03.48	296.24	11.32	
2025-01-13 13:38:03.69	296.28	11.31	
2025-01-13 13:38:03.89	296.33	11.30	
2025-01-13 13:38:04.10	296.37	11.30	
2025-01-13 13:38:04.30	296.41	11.29	
2025-01-13 13:38:04.51	296.45	11.29	
2025-01-13 13:38:04.71	296.49	11.28	
2025-01-13 13:38:04.92	296.54	11.28	
2025-01-13 13:38:05.12	296.58	11.27	
2025-01-13 13:38:05.33	296.62	11.27	
2025-01-13 13:38:05.54	296.66	11.26	
2025-01-13 13:38:05.74	296.71	11.25	
2025-01-13 13:38:05.95	296.75	11.25	
2025-01-13 13:38:06.15	296.79	11.24	
2025-01-13 13:38:06.36	296.83	11.24	
2025-01-13 13:38:06.58	296.88	11.23	
2025-01-13 13:38:06.78	296.92	11.23	
2025-01-13 13:38:06.99	296.96	11.22	
2025-01-13 13:38:07.20	297.01	11.21	
2025-01-13 13:38:07.40	297.05	11.21	
2025-01-13 13:38:07.60	297.09	11.20	
2025-01-13 13:38:07.81	297.13	11.20	
2025-01-13 13:38:08.02	297.17	11.19	
2025-01-13 13:38:08.22	297.21	11.19	
2025-01-13 13:38:08.43	297.26	11.18	
2025-01-13 13:38:08.63	297.30	11.17	
