passes_logs/2025/01/13/SPB_Silybum_02/SPB_Silybum_02__20250113_005033_SUOMI_NPP_rec.log

#Pass ID: 20250113_005033_SUOMI NPP
#Satellite: SUOMI NPP
#Configuration: NPP
#Start time: 2025-01-13 00:50:33

#Version: 2.0.20230423
#Station: SPB_Silybum_02
#Location: 30.233357 lon 59.946436 lat
#TLE: 1 37849U 11061A   25012.17094835  .00000145  00000+0  89644-4 0  9991
#TLE: 2 37849  98.7443 313.1954 0001789  45.3429 314.7892 14.19536935684510

#Time	Az	El	Level	Level2	SNR	BER	Gain	Gain2
2025-01-13 00:50:35.56	16.43	4.12	
2025-01-13 00:50:35.77	16.42	4.13	
2025-01-13 00:50:35.97	16.42	4.14	
2025-01-13 00:50:36.18	16.42	4.16	
2025-01-13 00:50:36.38	16.41	4.17	
2025-01-13 00:50:36.59	16.41	4.19	
2025-01-13 00:50:36.79	16.41	4.20	
2025-01-13 00:50:37.00	16.40	4.21	
2025-01-13 00:50:37.20	16.40	4.23	
2025-01-13 00:50:37.41	16.39	4.24	
2025-01-13 00:50:37.61	16.39	4.26	
2025-01-13 00:50:37.82	16.39	4.27	
2025-01-13 00:50:38.02	16.38	4.28	
2025-01-13 00:50:38.23	16.38	4.30	
2025-01-13 00:50:38.43	16.37	4.31	
2025-01-13 00:50:38.64	16.37	4.33	
2025-01-13 00:50:38.84	16.37	4.34	
2025-01-13 00:50:39.05	16.36	4.35	
2025-01-13 00:50:39.26	16.36	4.37	
2025-01-13 00:50:39.46	16.35	4.38	
2025-01-13 00:50:39.67	16.35	4.40	
2025-01-13 00:50:39.87	16.35	4.41	
2025-01-13 00:50:40.07	16.34	4.43	
2025-01-13 00:50:40.28	16.34	4.44	
2025-01-13 00:50:40.49	16.33	4.45	
2025-01-13 00:50:40.69	16.33	4.47	
2025-01-13 00:50:40.89	16.33	4.48	
2025-01-13 00:50:41.10	16.32	4.50	
2025-01-13 00:50:41.31	16.32	4.51	
2025-01-13 00:50:41.51	16.31	4.52	
2025-01-13 00:50:41.72	16.31	4.54	
2025-01-13 00:50:41.92	16.31	4.55	
2025-01-13 00:50:42.13	16.30	4.57	
2025-01-13 00:50:42.34	16.30	4.58	
2025-01-13 00:50:42.54	16.29	4.60	
2025-01-13 00:50:42.75	16.29	4.61	
2025-01-13 00:50:42.95	16.28	4.62	
2025-01-13 00:50:43.16	16.28	4.64	
2025-01-13 00:50:43.36	16.28	4.65	
2025-01-13 00:50:43.57	16.27	4.67	
2025-01-13 00:50:43.77	16.27	4.68	
2025-01-13 00:50:43.98	16.26	4.70	
2025-01-13 00:50:44.18	16.26	4.71	
2025-01-13 00:50:44.39	16.26	4.72	
2025-01-13 00:50:44.59	16.25	4.74	
2025-01-13 00:50:44.80	16.25	4.75	
2025-01-13 00:50:45.00	16.24	4.77	
2025-01-13 00:50:45.21	16.24	4.78	
2025-01-13 00:50:45.41	16.24	4.80	
2025-01-13 00:50:45.62	16.23	4.81	
2025-01-13 00:50:45.82	16.23	4.82	
2025-01-13 00:50:46.03	16.22	4.84	
2025-01-13 00:50:46.25	16.22	4.85	
2025-01-13 00:50:46.45	16.21	4.87	
2025-01-13 00:50:46.66	16.21	4.88	
2025-01-13 00:50:46.86	16.21	4.90	
2025-01-13 00:50:47.07	16.20	4.91	
2025-01-13 00:50:47.27	16.20	4.93	
2025-01-13 00:50:47.48	16.19	4.94	
2025-01-13 00:50:47.68	16.19	4.96	
2025-01-13 00:50:47.89	16.18	4.97	
2025-01-13 00:50:48.10	16.18	4.98	
2025-01-13 00:50:48.30	16.18	5.00	
2025-01-13 00:50:48.51	16.17	5.01	
2025-01-13 00:50:48.71	16.17	5.03	
2025-01-13 00:50:48.92	16.16	5.04	
2025-01-13 00:50:49.12	16.16	5.06	
2025-01-13 00:50:49.33	16.16	5.07	
2025-01-13 00:50:49.53	16.15	5.09	
2025-01-13 00:50:49.74	16.15	5.10	
2025-01-13 00:50:49.94	16.14	5.11	
2025-01-13 00:50:50.15	16.14	5.13	
2025-01-13 00:50:50.35	16.13	5.14	
2025-01-13 00:50:50.56	16.13	5.16	
2025-01-13 00:50:50.76	16.13	5.17	
2025-01-13 00:50:50.97	16.12	5.19	
2025-01-13 00:50:51.17	16.12	5.20	
2025-01-13 00:50:51.38	16.11	5.22	
2025-01-13 00:50:51.58	16.11	5.23	
2025-01-13 00:50:51.79	16.10	5.25	
2025-01-13 00:50:51.99	16.10	5.26	
2025-01-13 00:50:52.20	16.10	5.28	
2025-01-13 00:50:52.40	16.09	5.29	
2025-01-13 00:50:52.61	16.09	5.30	
2025-01-13 00:50:52.81	16.08	5.32	
2025-01-13 00:50:53.02	16.08	5.33	
2025-01-13 00:50:53.22	16.07	5.35	
2025-01-13 00:50:53.43	16.07	5.36	
2025-01-13 00:50:53.63	16.07	5.38	
2025-01-13 00:50:53.83	16.06	5.39	
2025-01-13 00:50:54.04	16.06	5.41	
2025-01-13 00:50:54.24	16.05	5.42	
2025-01-13 00:50:54.45	16.05	5.44	
2025-01-13 00:50:54.65	16.04	5.45	
2025-01-13 00:50:54.86	16.04	5.47	
2025-01-13 00:50:55.06	16.03	5.48	
2025-01-13 00:50:55.27	16.03	5.49	
2025-01-13 00:50:55.47	16.03	5.51	
2025-01-13 00:50:55.68	16.02	5.52	
2025-01-13 00:50:55.88	16.02	5.54	
2025-01-13 00:50:56.09	16.01	5.55	
2025-01-13 00:50:56.29	16.01	5.57	
2025-01-13 00:50:56.50	16.00	5.58	
2025-01-13 00:50:56.70	16.00	5.60	
2025-01-13 00:50:56.91	16.00	5.61	
2025-01-13 00:50:57.11	15.99	5.63	
2025-01-13 00:50:57.32	15.99	5.64	
2025-01-13 00:50:57.53	15.98	5.66	
2025-01-13 00:50:57.73	15.98	5.67	
2025-01-13 00:50:57.95	15.97	5.69	
2025-01-13 00:50:58.16	15.97	5.70	
2025-01-13 00:50:58.36	15.96	5.72	
2025-01-13 00:50:58.57	15.96	5.73	
2025-01-13 00:50:58.77	15.95	5.75	
2025-01-13 00:50:58.97	15.95	5.76	
2025-01-13 00:50:59.18	15.95	5.78	
2025-01-13 00:50:59.39	15.94	5.79	
2025-01-13 00:50:59.59	15.94	5.81	
2025-01-13 00:50:59.80	15.93	5.82	
2025-01-13 00:51:00.00	15.93	5.84	
2025-01-13 00:51:00.21	15.92	5.85	
2025-01-13 00:51:00.41	15.92	5.87	
2025-01-13 00:51:00.62	15.91	5.88	
2025-01-13 00:51:00.83	15.91	5.90	
2025-01-13 00:51:01.03	15.91	5.91	
2025-01-13 00:51:01.24	15.90	5.93	
2025-01-13 00:51:01.44	15.90	5.94	
2025-01-13 00:51:01.65	15.89	5.96	
2025-01-13 00:51:01.86	15.89	5.97	
2025-01-13 00:51:02.06	15.88	5.99	
2025-01-13 00:51:02.26	15.88	6.00	
2025-01-13 00:51:02.47	15.87	6.02	
2025-01-13 00:51:02.67	15.87	6.03	
2025-01-13 00:51:02.88	15.86	6.05	
2025-01-13 00:51:03.08	15.86	6.06	
2025-01-13 00:51:03.30	15.85	6.08	
2025-01-13 00:51:03.51	15.85	6.09	
2025-01-13 00:51:03.71	15.85	6.11	
2025-01-13 00:51:03.92	15.84	6.12	
2025-01-13 00:51:04.12	15.84	6.14	
2025-01-13 00:51:04.33	15.83	6.15	
2025-01-13 00:51:04.53	15.83	6.17	
2025-01-13 00:51:04.74	15.82	6.18	
2025-01-13 00:51:04.94	15.82	6.20	
2025-01-13 00:51:05.15	15.81	6.21	
2025-01-13 00:51:05.35	15.81	6.23	
2025-01-13 00:51:05.56	15.80	6.24	
2025-01-13 00:51:05.76	15.80	6.26	
2025-01-13 00:51:05.97	15.79	6.27	
2025-01-13 00:51:06.17	15.79	6.29	
2025-01-13 00:51:06.38	15.78	6.30	
2025-01-13 00:51:06.58	15.78	6.32	
2025-01-13 00:51:06.79	15.78	6.33	
2025-01-13 00:51:06.99	15.77	6.35	
2025-01-13 00:51:07.21	15.77	6.37	
2025-01-13 00:51:07.41	15.76	6.38	
2025-01-13 00:51:07.62	15.76	6.40	
2025-01-13 00:51:07.82	15.75	6.41	
2025-01-13 00:51:08.03	15.75	6.43	
2025-01-13 00:51:08.23	15.74	6.44	
2025-01-13 00:51:08.44	15.74	6.46	
2025-01-13 00:51:08.64	15.73	6.47	
2025-01-13 00:51:08.85	15.73	6.49	
2025-01-13 00:51:09.05	15.72	6.50	
2025-01-13 00:51:09.26	15.72	6.52	
2025-01-13 00:51:09.46	15.71	6.53	
2025-01-13 00:51:09.67	15.71	6.55	
2025-01-13 00:51:09.87	15.70	6.56	
2025-01-13 00:51:10.08	15.70	6.58	
2025-01-13 00:51:10.28	15.69	6.59	
2025-01-13 00:51:10.49	15.69	6.61	
2025-01-13 00:51:10.69	15.68	6.62	
2025-01-13 00:51:10.90	15.68	6.64	
2025-01-13 00:51:11.10	15.68	6.66	
2025-01-13 00:51:11.31	15.67	6.67	
2025-01-13 00:51:11.52	15.67	6.69	
2025-01-13 00:51:11.72	15.66	6.70	
2025-01-13 00:51:11.92	15.66	6.72	
2025-01-13 00:51:12.13	15.65	6.73	
2025-01-13 00:51:12.33	15.65	6.75	
2025-01-13 00:51:12.54	15.64	6.76	
2025-01-13 00:51:12.75	15.64	6.78	
2025-01-13 00:51:12.95	15.63	6.79	
2025-01-13 00:51:13.15	15.63	6.81	
2025-01-13 00:51:13.36	15.62	6.83	
2025-01-13 00:51:13.57	15.62	6.84	
2025-01-13 00:51:13.77	15.61	6.86	
2025-01-13 00:51:13.99	15.61	6.87	
2025-01-13 00:51:14.20	15.60	6.89	
2025-01-13 00:51:14.40	15.60	6.90	
2025-01-13 00:51:14.61	15.59	6.92	
2025-01-13 00:51:14.81	15.59	6.93	
2025-01-13 00:51:15.02	15.58	6.95	
2025-01-13 00:51:15.23	15.58	6.97	
2025-01-13 00:51:15.43	15.57	6.98	
2025-01-13 00:51:15.64	15.57	7.00	
2025-01-13 00:51:15.84	15.56	7.01	
2025-01-13 00:51:16.05	15.56	7.03	
2025-01-13 00:51:16.25	15.55	7.04	
2025-01-13 00:51:16.46	15.55	7.06	
2025-01-13 00:51:16.66	15.54	7.08	
2025-01-13 00:51:16.86	15.54	7.09	
2025-01-13 00:51:17.07	15.53	7.11	
2025-01-13 00:51:17.27	15.53	7.12	
2025-01-13 00:51:17.48	15.52	7.14	
2025-01-13 00:51:17.68	15.52	7.15	
2025-01-13 00:51:17.89	15.51	7.17	
2025-01-13 00:51:18.09	15.51	7.18	
2025-01-13 00:51:18.30	15.50	7.20	
2025-01-13 00:51:18.50	15.50	7.22	
2025-01-13 00:51:18.71	15.49	7.23	
2025-01-13 00:51:18.91	15.49	7.25	
2025-01-13 00:51:19.12	15.48	7.26	
2025-01-13 00:51:19.32	15.48	7.28	
2025-01-13 00:51:19.53	15.47	7.29	
2025-01-13 00:51:19.73	15.47	7.31	
2025-01-13 00:51:19.94	15.46	7.33	
2025-01-13 00:51:20.14	15.46	7.34	
2025-01-13 00:51:20.35	15.45	7.36	
2025-01-13 00:51:20.55	15.45	7.37	
2025-01-13 00:51:20.76	15.44	7.39	
2025-01-13 00:51:20.97	15.44	7.41	
2025-01-13 00:51:21.17	15.43	7.42	
2025-01-13 00:51:21.37	15.43	7.44	
2025-01-13 00:51:21.58	15.42	7.45	
2025-01-13 00:51:21.78	15.42	7.47	
2025-01-13 00:51:21.99	15.41	7.48	
2025-01-13 00:51:22.19	15.41	7.50	
2025-01-13 00:51:22.41	15.40	7.52	
2025-01-13 00:51:22.62	15.39	7.53	
2025-01-13 00:51:22.82	15.39	7.55	
2025-01-13 00:51:23.03	15.38	7.56	
2025-01-13 00:51:23.23	15.38	7.58	
2025-01-13 00:51:23.43	15.37	7.60	
2025-01-13 00:51:23.64	15.37	7.61	
2025-01-13 00:51:23.84	15.36	7.63	
2025-01-13 00:51:24.05	15.36	7.64	
2025-01-13 00:51:24.25	15.35	7.66	
2025-01-13 00:51:24.46	15.35	7.68	
2025-01-13 00:51:24.66	15.34	7.69	
2025-01-13 00:51:24.87	15.34	7.71	
2025-01-13 00:51:25.07	15.33	7.72	
2025-01-13 00:51:25.28	15.33	7.74	
2025-01-13 00:51:25.48	15.32	7.76	
2025-01-13 00:51:25.69	15.32	7.77	
2025-01-13 00:51:25.89	15.31	7.79	
2025-01-13 00:51:26.10	15.31	7.80	
2025-01-13 00:51:26.30	15.30	7.82	
2025-01-13 00:51:26.51	15.30	7.84	
2025-01-13 00:51:26.71	15.29	7.85	
2025-01-13 00:51:26.92	15.28	7.87	
2025-01-13 00:51:27.12	15.28	7.88	
2025-01-13 00:51:27.33	15.27	7.90	
2025-01-13 00:51:27.53	15.27	7.92	
2025-01-13 00:51:27.73	15.26	7.93	
2025-01-13 00:51:27.94	15.26	7.95	
2025-01-13 00:51:28.15	15.25	7.96	
2025-01-13 00:51:28.35	15.25	7.98	
2025-01-13 00:51:28.56	15.24	8.00	
2025-01-13 00:51:28.76	15.24	8.01	
2025-01-13 00:51:28.96	15.23	8.03	
2025-01-13 00:51:29.17	15.23	8.05	
2025-01-13 00:51:29.37	15.22	8.06	
2025-01-13 00:51:29.58	15.22	8.08	
2025-01-13 00:51:29.78	15.21	8.09	
2025-01-13 00:51:29.98	15.20	8.11	
2025-01-13 00:51:30.19	15.20	8.13	
2025-01-13 00:51:30.40	15.19	8.14	
2025-01-13 00:51:30.60	15.19	8.16	
2025-01-13 00:51:30.81	15.18	8.18	
2025-01-13 00:51:31.01	15.18	8.19	
2025-01-13 00:51:31.22	15.17	8.21	
2025-01-13 00:51:31.42	15.17	8.22	
2025-01-13 00:51:31.63	15.16	8.24	
2025-01-13 00:51:31.83	15.16	8.26	
2025-01-13 00:51:32.03	15.15	8.27	
2025-01-13 00:51:32.24	15.14	8.29	
2025-01-13 00:51:32.45	15.14	8.31	
2025-01-13 00:51:32.65	15.13	8.32	
2025-01-13 00:51:32.86	15.13	8.34	
2025-01-13 00:51:33.06	15.12	8.35	
2025-01-13 00:51:33.27	15.12	8.37	
2025-01-13 00:51:33.47	15.11	8.39	
2025-01-13 00:51:33.68	15.11	8.40	
2025-01-13 00:51:33.88	15.10	8.42	
2025-01-13 00:51:34.09	15.09	8.44	
2025-01-13 00:51:34.29	15.09	8.45	
2025-01-13 00:51:34.50	15.08	8.47	
2025-01-13 00:51:34.70	15.08	8.49	
2025-01-13 00:51:34.91	15.07	8.50	
2025-01-13 00:51:35.11	15.07	8.52	
2025-01-13 00:51:35.31	15.06	8.54	
2025-01-13 00:51:35.52	15.06	8.55	
2025-01-13 00:51:35.73	15.05	8.57	
2025-01-13 00:51:35.93	15.04	8.59	
2025-01-13 00:51:36.14	15.04	8.60	
2025-01-13 00:51:36.34	15.03	8.62	
2025-01-13 00:51:36.55	15.03	8.64	
2025-01-13 00:51:36.75	15.02	8.65	
2025-01-13 00:51:36.96	15.02	8.67	
2025-01-13 00:51:37.16	15.01	8.68	
2025-01-13 00:51:37.37	15.00	8.70	
2025-01-13 00:51:37.57	15.00	8.72	
2025-01-13 00:51:37.78	14.99	8.73	
2025-01-13 00:51:37.98	14.99	8.75	
2025-01-13 00:51:38.19	14.98	8.77	
2025-01-13 00:51:38.39	14.98	8.78	
2025-01-13 00:51:38.60	14.97	8.80	
2025-01-13 00:51:38.80	14.96	8.82	
2025-01-13 00:51:39.01	14.96	8.83	
2025-01-13 00:51:39.21	14.95	8.85	
2025-01-13 00:51:39.42	14.95	8.87	
2025-01-13 00:51:39.62	14.94	8.88	
2025-01-13 00:51:39.82	14.94	8.90	
2025-01-13 00:51:40.03	14.93	8.92	
2025-01-13 00:51:40.24	14.92	8.94	
2025-01-13 00:51:40.44	14.92	8.95	
2025-01-13 00:51:40.65	14.91	8.97	
2025-01-13 00:51:40.85	14.91	8.99	
2025-01-13 00:51:41.06	14.90	9.00	
2025-01-13 00:51:41.27	14.90	9.02	
2025-01-13 00:51:41.47	14.89	9.04	
2025-01-13 00:51:41.67	14.88	9.05	
2025-01-13 00:51:41.88	14.88	9.07	
2025-01-13 00:51:42.09	14.87	9.09	
2025-01-13 00:51:42.29	14.87	9.10	
2025-01-13 00:51:42.50	14.86	9.12	
2025-01-13 00:51:42.71	14.85	9.14	
2025-01-13 00:51:42.92	14.85	9.16	
2025-01-13 00:51:43.12	14.84	9.17	
2025-01-13 00:51:43.33	14.84	9.19	
2025-01-13 00:51:43.54	14.83	9.21	
2025-01-13 00:51:43.74	14.82	9.22	
2025-01-13 00:51:43.94	14.82	9.24	
2025-01-13 00:51:44.15	14.81	9.26	
2025-01-13 00:51:44.36	14.81	9.27	
2025-01-13 00:51:44.56	14.80	9.29	
2025-01-13 00:51:44.77	14.79	9.31	
2025-01-13 00:51:44.97	14.79	9.32	
2025-01-13 00:51:45.18	14.78	9.34	
2025-01-13 00:51:45.38	14.78	9.36	
2025-01-13 00:51:45.59	14.77	9.38	
2025-01-13 00:51:45.79	14.77	9.39	
2025-01-13 00:51:46.00	14.76	9.41	
2025-01-13 00:51:46.20	14.75	9.43	
2025-01-13 00:51:46.41	14.75	9.44	
2025-01-13 00:51:46.61	14.74	9.46	
2025-01-13 00:51:46.82	14.73	9.48	
2025-01-13 00:51:47.02	14.73	9.50	
2025-01-13 00:51:47.23	14.72	9.51	
2025-01-13 00:51:47.43	14.72	9.53	
2025-01-13 00:51:47.64	14.71	9.55	
2025-01-13 00:51:47.84	14.70	9.56	
2025-01-13 00:51:48.05	14.70	9.58	
2025-01-13 00:51:48.25	14.69	9.60	
2025-01-13 00:51:48.45	14.69	9.62	
2025-01-13 00:51:48.66	14.68	9.63	
2025-01-13 00:51:48.87	14.67	9.65	
2025-01-13 00:51:49.07	14.67	9.67	
2025-01-13 00:51:49.27	14.66	9.68	
2025-01-13 00:51:49.48	14.66	9.70	
2025-01-13 00:51:49.68	14.65	9.72	
2025-01-13 00:51:49.89	14.64	9.74	
2025-01-13 00:51:50.09	14.64	9.75	
2025-01-13 00:51:50.30	14.63	9.77	
2025-01-13 00:51:50.50	14.63	9.79	
2025-01-13 00:51:50.71	14.62	9.81	
2025-01-13 00:51:50.91	14.61	9.82	
2025-01-13 00:51:51.12	14.61	9.84	
2025-01-13 00:51:51.32	14.60	9.86	
2025-01-13 00:51:51.53	14.59	9.88	
2025-01-13 00:51:51.73	14.59	9.89	
2025-01-13 00:51:51.94	14.58	9.91	
2025-01-13 00:51:52.14	14.58	9.93	
2025-01-13 00:51:52.35	14.57	9.95	
2025-01-13 00:51:52.55	14.56	9.96	
2025-01-13 00:51:52.76	14.56	9.98	
2025-01-13 00:51:52.96	14.55	10.00	
2025-01-13 00:51:53.17	14.54	10.02	
2025-01-13 00:51:53.37	14.54	10.03	
2025-01-13 00:51:53.58	14.53	10.05	
2025-01-13 00:51:53.78	14.53	10.07	
2025-01-13 00:51:53.99	14.52	10.09	
2025-01-13 00:51:54.19	14.51	10.10	
2025-01-13 00:51:54.40	14.51	10.12	
2025-01-13 00:51:54.60	14.50	10.14	
2025-01-13 00:51:54.81	14.49	10.16	
2025-01-13 00:51:55.01	14.49	10.17	
2025-01-13 00:51:55.22	14.48	10.19	
2025-01-13 00:51:55.42	14.47	10.21	
2025-01-13 00:51:55.62	14.47	10.22	
2025-01-13 00:51:55.83	14.46	10.24	
2025-01-13 00:51:56.03	14.46	10.26	
2025-01-13 00:51:56.24	14.45	10.28	
2025-01-13 00:51:56.44	14.44	10.30	
2025-01-13 00:51:56.65	14.44	10.31	
2025-01-13 00:51:56.85	14.43	10.33	
2025-01-13 00:51:57.06	14.42	10.35	
2025-01-13 00:51:57.27	14.42	10.37	
2025-01-13 00:51:57.47	14.41	10.38	
2025-01-13 00:51:57.68	14.40	10.40	
2025-01-13 00:51:57.88	14.40	10.42	
2025-01-13 00:51:58.09	14.39	10.44	
2025-01-13 00:51:58.29	14.38	10.46	
2025-01-13 00:51:58.50	14.38	10.47	
2025-01-13 00:51:58.70	14.37	10.49	
2025-01-13 00:51:58.91	14.36	10.51	
2025-01-13 00:51:59.11	14.36	10.53	
2025-01-13 00:51:59.32	14.35	10.55	
2025-01-13 00:51:59.52	14.35	10.56	
2025-01-13 00:51:59.73	14.34	10.58	
2025-01-13 00:51:59.93	14.33	10.60	
2025-01-13 00:52:00.14	14.33	10.62	
2025-01-13 00:52:00.34	14.32	10.63	
2025-01-13 00:52:00.55	14.31	10.65	
2025-01-13 00:52:00.75	14.31	10.67	
2025-01-13 00:52:00.95	14.30	10.69	
2025-01-13 00:52:01.16	14.29	10.71	
2025-01-13 00:52:01.37	14.29	10.72	
2025-01-13 00:52:01.57	14.28	10.74	
2025-01-13 00:52:01.78	14.27	10.76	
2025-01-13 00:52:01.98	14.27	10.78	
2025-01-13 00:52:02.19	14.26	10.80	
2025-01-13 00:52:02.39	14.25	10.81	
2025-01-13 00:52:02.60	14.25	10.83	
2025-01-13 00:52:02.81	14.24	10.85	
2025-01-13 00:52:03.01	14.23	10.87	
2025-01-13 00:52:03.22	14.23	10.89	
2025-01-13 00:52:03.42	14.22	10.90	
2025-01-13 00:52:03.63	14.21	10.92	
2025-01-13 00:52:03.83	14.21	10.94	
2025-01-13 00:52:04.04	14.20	10.96	
2025-01-13 00:52:04.24	14.19	10.98	
2025-01-13 00:52:04.45	14.18	11.00	
2025-01-13 00:52:04.65	14.18	11.01	
2025-01-13 00:52:04.86	14.17	11.03	
2025-01-13 00:52:05.06	14.16	11.05	
2025-01-13 00:52:05.27	14.16	11.07	
2025-01-13 00:52:05.47	14.15	11.09	
2025-01-13 00:52:05.68	14.14	11.11	
2025-01-13 00:52:05.88	14.14	11.12	
2025-01-13 00:52:06.10	14.13	11.14	
2025-01-13 00:52:06.30	14.12	11.16	
2025-01-13 00:52:06.51	14.12	11.18	
2025-01-13 00:52:06.71	14.11	11.20	
2025-01-13 00:52:06.92	14.10	11.22	
2025-01-13 00:52:07.13	14.10	11.23	
2025-01-13 00:52:07.33	14.09	11.25	
2025-01-13 00:52:07.54	14.08	11.27	
2025-01-13 00:52:07.74	14.07	11.29	
2025-01-13 00:52:07.95	14.07	11.31	
2025-01-13 00:52:08.15	14.06	11.33	
2025-01-13 00:52:08.35	14.05	11.34	
2025-01-13 00:52:08.56	14.05	11.36	
2025-01-13 00:52:08.77	14.04	11.38	
2025-01-13 00:52:08.97	14.03	11.40	
2025-01-13 00:52:09.18	14.03	11.42	
2025-01-13 00:52:09.38	14.02	11.44	
2025-01-13 00:52:09.58	14.01	11.45	
2025-01-13 00:52:09.79	14.00	11.47	
2025-01-13 00:52:09.99	14.00	11.49	
2025-01-13 00:52:10.20	13.99	11.51	
2025-01-13 00:52:10.40	13.98	11.53	
2025-01-13 00:52:10.61	13.98	11.55	
2025-01-13 00:52:10.81	13.97	11.57	
2025-01-13 00:52:11.02	13.96	11.59	
2025-01-13 00:52:11.23	13.95	11.60	
2025-01-13 00:52:11.43	13.95	11.62	
2025-01-13 00:52:11.63	13.94	11.64	
2025-01-13 00:52:11.84	13.93	11.66	
2025-01-13 00:52:12.04	13.93	11.68	
2025-01-13 00:52:12.25	13.92	11.70	
2025-01-13 00:52:12.45	13.91	11.72	
2025-01-13 00:52:12.66	13.91	11.73	
2025-01-13 00:52:12.86	13.90	11.75	
2025-01-13 00:52:13.07	13.89	11.77	
2025-01-13 00:52:13.27	13.88	11.79	
2025-01-13 00:52:13.48	13.88	11.81	
2025-01-13 00:52:13.68	13.87	11.83	
2025-01-13 00:52:13.89	13.86	11.85	
2025-01-13 00:52:14.09	13.85	11.87	
2025-01-13 00:52:14.30	13.85	11.88	
2025-01-13 00:52:14.50	13.84	11.90	
2025-01-13 00:52:14.70	13.83	11.92	
2025-01-13 00:52:14.91	13.83	11.94	
2025-01-13 00:52:15.12	13.82	11.96	
2025-01-13 00:52:15.32	13.81	11.98	
2025-01-13 00:52:15.53	13.80	12.00	
2025-01-13 00:52:15.73	13.80	12.02	
2025-01-13 00:52:15.94	13.79	12.04	
2025-01-13 00:52:16.14	13.78	12.05	
2025-01-13 00:52:16.35	13.77	12.07	
2025-01-13 00:52:16.55	13.77	12.09	
2025-01-13 00:52:16.76	13.76	12.11	
2025-01-13 00:52:16.96	13.75	12.13	
2025-01-13 00:52:17.16	13.75	12.15	
2025-01-13 00:52:17.37	13.74	12.17	
2025-01-13 00:52:17.57	13.73	12.19	
2025-01-13 00:52:17.78	13.72	12.21	
2025-01-13 00:52:17.98	13.72	12.22	
2025-01-13 00:52:18.19	13.71	12.24	
2025-01-13 00:52:18.39	13.70	12.26	
2025-01-13 00:52:18.60	13.69	12.28	
2025-01-13 00:52:18.80	13.69	12.30	
2025-01-13 00:52:19.02	13.68	12.32	
2025-01-13 00:52:19.23	13.67	12.34	
2025-01-13 00:52:19.44	13.66	12.36	
2025-01-13 00:52:19.64	13.65	12.38	
2025-01-13 00:52:19.85	13.65	12.40	
2025-01-13 00:52:20.05	13.64	12.42	
2025-01-13 00:52:20.26	13.63	12.44	
2025-01-13 00:52:20.46	13.62	12.46	
2025-01-13 00:52:20.67	13.62	12.48	
2025-01-13 00:52:20.87	13.61	12.49	
2025-01-13 00:52:21.08	13.60	12.51	
2025-01-13 00:52:21.28	13.59	12.53	
2025-01-13 00:52:21.49	13.59	12.55	
2025-01-13 00:52:21.69	13.58	12.57	
2025-01-13 00:52:21.90	13.57	12.59	
2025-01-13 00:52:22.10	13.56	12.61	
2025-01-13 00:52:22.30	13.56	12.63	
2025-01-13 00:52:22.51	13.55	12.65	
2025-01-13 00:52:22.72	13.54	12.67	
2025-01-13 00:52:22.92	13.53	12.69	
2025-01-13 00:52:23.13	13.52	12.71	
2025-01-13 00:52:23.33	13.52	12.73	
2025-01-13 00:52:23.54	13.51	12.75	
2025-01-13 00:52:23.74	13.50	12.77	
2025-01-13 00:52:23.95	13.49	12.79	
2025-01-13 00:52:24.15	13.49	12.81	
2025-01-13 00:52:24.36	13.48	12.83	
2025-01-13 00:52:24.56	13.47	12.84	
2025-01-13 00:52:24.77	13.46	12.86	
2025-01-13 00:52:24.97	13.46	12.88	
2025-01-13 00:52:25.18	13.45	12.90	
2025-01-13 00:52:25.40	13.44	12.92	
2025-01-13 00:52:25.60	13.43	12.94	
2025-01-13 00:52:25.81	13.42	12.96	
2025-01-13 00:52:26.01	13.42	12.98	
2025-01-13 00:52:26.22	13.41	13.00	
2025-01-13 00:52:26.42	13.40	13.02	
2025-01-13 00:52:26.62	13.39	13.04	
2025-01-13 00:52:26.83	13.38	13.06	
2025-01-13 00:52:27.03	13.38	13.08	
2025-01-13 00:52:27.24	13.37	13.10	
2025-01-13 00:52:27.44	13.36	13.12	
2025-01-13 00:52:27.65	13.35	13.14	
2025-01-13 00:52:27.85	13.34	13.16	
2025-01-13 00:52:28.06	13.34	13.18	
2025-01-13 00:52:28.26	13.33	13.20	
2025-01-13 00:52:28.47	13.32	13.22	
2025-01-13 00:52:28.67	13.31	13.24	
2025-01-13 00:52:28.88	13.30	13.26	
2025-01-13 00:52:29.09	13.30	13.28	
2025-01-13 00:52:29.29	13.29	13.30	
2025-01-13 00:52:29.50	13.28	13.32	
2025-01-13 00:52:29.71	13.27	13.34	
2025-01-13 00:52:29.92	13.26	13.36	
2025-01-13 00:52:30.12	13.25	13.38	
2025-01-13 00:52:30.33	13.25	13.40	
2025-01-13 00:52:30.53	13.24	13.42	
2025-01-13 00:52:30.73	13.23	13.44	
2025-01-13 00:52:30.94	13.22	13.46	
2025-01-13 00:52:31.15	13.21	13.48	
2025-01-13 00:52:31.35	13.21	13.50	
2025-01-13 00:52:31.56	13.20	13.52	
2025-01-13 00:52:31.76	13.19	13.54	
2025-01-13 00:52:31.96	13.18	13.56	
2025-01-13 00:52:32.17	13.17	13.58	
2025-01-13 00:52:32.38	13.16	13.60	
2025-01-13 00:52:32.58	13.16	13.62	
2025-01-13 00:52:32.78	13.15	13.64	
2025-01-13 00:52:32.99	13.14	13.66	
2025-01-13 00:52:33.19	13.13	13.68	
2025-01-13 00:52:33.40	13.12	13.70	
2025-01-13 00:52:33.60	13.12	13.72	
2025-01-13 00:52:33.81	13.11	13.74	
2025-01-13 00:52:34.01	13.10	13.76	
2025-01-13 00:52:34.22	13.09	13.78	
2025-01-13 00:52:34.42	13.08	13.80	
2025-01-13 00:52:34.63	13.07	13.82	
2025-01-13 00:52:34.83	13.06	13.84	
2025-01-13 00:52:35.03	13.06	13.86	
2025-01-13 00:52:35.24	13.05	13.88	
2025-01-13 00:52:35.45	13.04	13.90	
2025-01-13 00:52:35.65	13.03	13.92	
2025-01-13 00:52:35.86	13.02	13.95	
2025-01-13 00:52:36.08	13.01	13.97	
2025-01-13 00:52:36.28	13.01	13.99	
2025-01-13 00:52:36.49	13.00	14.01	
2025-01-13 00:52:36.69	12.99	14.03	
2025-01-13 00:52:36.90	12.98	14.05	
2025-01-13 00:52:37.10	12.97	14.07	
2025-01-13 00:52:37.31	12.96	14.09	
2025-01-13 00:52:37.51	12.95	14.11	
2025-01-13 00:52:37.72	12.95	14.13	
2025-01-13 00:52:37.93	12.94	14.15	
2025-01-13 00:52:38.13	12.93	14.17	
2025-01-13 00:52:38.33	12.92	14.19	
2025-01-13 00:52:38.54	12.91	14.21	
2025-01-13 00:52:38.74	12.90	14.23	
2025-01-13 00:52:38.95	12.89	14.26	
2025-01-13 00:52:39.15	12.88	14.28	
2025-01-13 00:52:39.37	12.88	14.30	
2025-01-13 00:52:39.58	12.87	14.32	
2025-01-13 00:52:39.78	12.86	14.34	
2025-01-13 00:52:39.99	12.85	14.36	
2025-01-13 00:52:40.19	12.84	14.38	
2025-01-13 00:52:40.40	12.83	14.40	
2025-01-13 00:52:40.60	12.82	14.42	
2025-01-13 00:52:40.81	12.81	14.44	
2025-01-13 00:52:41.02	12.81	14.46	
2025-01-13 00:52:41.22	12.80	14.49	
2025-01-13 00:52:41.42	12.79	14.51	
2025-01-13 00:52:41.63	12.78	14.53	
2025-01-13 00:52:41.84	12.77	14.55	
2025-01-13 00:52:42.04	12.76	14.57	
2025-01-13 00:52:42.25	12.75	14.59	
2025-01-13 00:52:42.45	12.74	14.61	
2025-01-13 00:52:42.66	12.73	14.63	
2025-01-13 00:52:42.86	12.73	14.65	
2025-01-13 00:52:43.07	12.72	14.67	
2025-01-13 00:52:43.28	12.71	14.70	
2025-01-13 00:52:43.48	12.70	14.72	
2025-01-13 00:52:43.69	12.69	14.74	
2025-01-13 00:52:43.89	12.68	14.76	
2025-01-13 00:52:44.10	12.67	14.78	
2025-01-13 00:52:44.30	12.66	14.80	
2025-01-13 00:52:44.51	12.65	14.82	
2025-01-13 00:52:44.71	12.64	14.84	
2025-01-13 00:52:44.92	12.64	14.86	
2025-01-13 00:52:45.12	12.63	14.89	
2025-01-13 00:52:45.33	12.62	14.91	
2025-01-13 00:52:45.53	12.61	14.93	
2025-01-13 00:52:45.74	12.60	14.95	
2025-01-13 00:52:45.94	12.59	14.97	
2025-01-13 00:52:46.15	12.58	14.99	
2025-01-13 00:52:46.35	12.57	15.01	
2025-01-13 00:52:46.56	12.56	15.03	
2025-01-13 00:52:46.78	12.55	15.06	
2025-01-13 00:52:46.98	12.54	15.08	
2025-01-13 00:52:47.19	12.53	15.10	
2025-01-13 00:52:47.39	12.53	15.12	
2025-01-13 00:52:47.60	12.52	15.14	
2025-01-13 00:52:47.80	12.51	15.16	
2025-01-13 00:52:48.01	12.50	15.19	
2025-01-13 00:52:48.21	12.49	15.21	
2025-01-13 00:52:48.42	12.48	15.23	
2025-01-13 00:52:48.62	12.47	15.25	
2025-01-13 00:52:48.82	12.46	15.27	
2025-01-13 00:52:49.03	12.45	15.29	
2025-01-13 00:52:49.23	12.44	15.31	
2025-01-13 00:52:49.44	12.43	15.34	
2025-01-13 00:52:49.64	12.42	15.36	
2025-01-13 00:52:49.85	12.41	15.38	
2025-01-13 00:52:50.05	12.40	15.40	
2025-01-13 00:52:50.26	12.39	15.42	
2025-01-13 00:52:50.46	12.39	15.44	
2025-01-13 00:52:50.67	12.38	15.47	
2025-01-13 00:52:50.88	12.37	15.49	
2025-01-13 00:52:51.08	12.36	15.51	
2025-01-13 00:52:51.28	12.35	15.53	
2025-01-13 00:52:51.49	12.34	15.55	
2025-01-13 00:52:51.70	12.33	15.57	
2025-01-13 00:52:51.90	12.32	15.60	
2025-01-13 00:52:52.11	12.31	15.62	
2025-01-13 00:52:52.31	12.30	15.64	
2025-01-13 00:52:52.52	12.29	15.66	
2025-01-13 00:52:52.72	12.28	15.68	
2025-01-13 00:52:52.93	12.27	15.71	
2025-01-13 00:52:53.13	12.26	15.73	
2025-01-13 00:52:53.33	12.25	15.75	
2025-01-13 00:52:53.54	12.24	15.77	
2025-01-13 00:52:53.74	12.23	15.79	
2025-01-13 00:52:53.95	12.22	15.81	
2025-01-13 00:52:54.15	12.21	15.84	
2025-01-13 00:52:54.36	12.20	15.86	
2025-01-13 00:52:54.56	12.19	15.88	
2025-01-13 00:52:54.77	12.18	15.90	
2025-01-13 00:52:54.97	12.17	15.92	
2025-01-13 00:52:55.18	12.16	15.95	
2025-01-13 00:52:55.38	12.15	15.97	
2025-01-13 00:52:55.59	12.14	15.99	
2025-01-13 00:52:55.79	12.13	16.01	
2025-01-13 00:52:56.00	12.12	16.04	
2025-01-13 00:52:56.21	12.11	16.06	
2025-01-13 00:52:56.41	12.10	16.08	
2025-01-13 00:52:56.61	12.09	16.10	
2025-01-13 00:52:56.82	12.08	16.12	
2025-01-13 00:52:57.02	12.08	16.15	
2025-01-13 00:52:57.23	12.06	16.17	
2025-01-13 00:52:57.43	12.06	16.19	
2025-01-13 00:52:57.64	12.04	16.21	
2025-01-13 00:52:57.84	12.04	16.24	
2025-01-13 00:52:58.05	12.02	16.26	
2025-01-13 00:52:58.25	12.02	16.28	
2025-01-13 00:52:58.46	12.00	16.30	
2025-01-13 00:52:58.66	11.99	16.32	
2025-01-13 00:52:58.87	11.98	16.35	
2025-01-13 00:52:59.07	11.97	16.37	
2025-01-13 00:52:59.28	11.96	16.39	
2025-01-13 00:52:59.48	11.95	16.41	
2025-01-13 00:52:59.69	11.94	16.44	
2025-01-13 00:52:59.89	11.93	16.46	
2025-01-13 00:53:00.10	11.92	16.48	
2025-01-13 00:53:00.30	11.91	16.50	
2025-01-13 00:53:00.51	11.90	16.53	
2025-01-13 00:53:00.71	11.89	16.55	
2025-01-13 00:53:00.92	11.88	16.57	
2025-01-13 00:53:01.12	11.87	16.60	
2025-01-13 00:53:01.34	11.86	16.62	
2025-01-13 00:53:01.55	11.85	16.64	
2025-01-13 00:53:01.75	11.84	16.66	
2025-01-13 00:53:01.95	11.83	16.69	
2025-01-13 00:53:02.16	11.82	16.71	
2025-01-13 00:53:02.37	11.81	16.73	
2025-01-13 00:53:02.57	11.80	16.76	
2025-01-13 00:53:02.77	11.79	16.78	
2025-01-13 00:53:02.98	11.78	16.80	
2025-01-13 00:53:03.19	11.77	16.83	
2025-01-13 00:53:03.39	11.76	16.85	
2025-01-13 00:53:03.60	11.75	16.87	
2025-01-13 00:53:03.82	11.74	16.90	
2025-01-13 00:53:04.02	11.73	16.92	
2025-01-13 00:53:04.23	11.72	16.94	
2025-01-13 00:53:04.44	11.70	16.96	
2025-01-13 00:53:04.64	11.69	16.99	
2025-01-13 00:53:04.85	11.68	17.01	
2025-01-13 00:53:05.05	11.67	17.03	
2025-01-13 00:53:05.26	11.66	17.06	
2025-01-13 00:53:05.47	11.65	17.08	
2025-01-13 00:53:05.67	11.64	17.10	
2025-01-13 00:53:05.89	11.63	17.13	
2025-01-13 00:53:06.10	11.62	17.15	
2025-01-13 00:53:06.30	11.61	17.17	
2025-01-13 00:53:06.51	11.60	17.20	
2025-01-13 00:53:06.71	11.59	17.22	
2025-01-13 00:53:06.92	11.58	17.24	
2025-01-13 00:53:07.12	11.56	17.27	
2025-01-13 00:53:07.33	11.55	17.29	
2025-01-13 00:53:07.53	11.54	17.31	
2025-01-13 00:53:07.74	11.53	17.34	
2025-01-13 00:53:07.94	11.52	17.36	
2025-01-13 00:53:08.14	11.51	17.38	
2025-01-13 00:53:08.35	11.50	17.41	
2025-01-13 00:53:08.55	11.49	17.43	
2025-01-13 00:53:08.76	11.48	17.45	
2025-01-13 00:53:08.96	11.47	17.48	
2025-01-13 00:53:09.17	11.46	17.50	
2025-01-13 00:53:09.38	11.45	17.52	
2025-01-13 00:53:09.58	11.43	17.55	
2025-01-13 00:53:09.78	11.42	17.57	
2025-01-13 00:53:09.99	11.41	17.59	
2025-01-13 00:53:10.19	11.40	17.62	
2025-01-13 00:53:10.40	11.39	17.64	
2025-01-13 00:53:10.60	11.38	17.66	
2025-01-13 00:53:10.81	11.37	17.69	
2025-01-13 00:53:11.02	11.36	17.71	
2025-01-13 00:53:11.22	11.35	17.74	
2025-01-13 00:53:11.42	11.34	17.76	
2025-01-13 00:53:11.63	11.32	17.78	
2025-01-13 00:53:11.84	11.31	17.81	
2025-01-13 00:53:12.04	11.30	17.83	
2025-01-13 00:53:12.25	11.29	17.86	
2025-01-13 00:53:12.45	11.28	17.88	
2025-01-13 00:53:12.66	11.27	17.90	
2025-01-13 00:53:12.86	11.26	17.93	
2025-01-13 00:53:13.07	11.24	17.95	
2025-01-13 00:53:13.27	11.23	17.97	
2025-01-13 00:53:13.47	11.22	18.00	
2025-01-13 00:53:13.68	11.21	18.02	
2025-01-13 00:53:13.89	11.20	18.05	
2025-01-13 00:53:14.09	11.19	18.07	
2025-01-13 00:53:14.30	11.18	18.09	
2025-01-13 00:53:14.50	11.17	18.12	
2025-01-13 00:53:14.71	11.15	18.14	
2025-01-13 00:53:14.91	11.14	18.17	
2025-01-13 00:53:15.12	11.13	18.19	
2025-01-13 00:53:15.32	11.12	18.21	
2025-01-13 00:53:15.53	11.11	18.24	
2025-01-13 00:53:15.73	11.10	18.26	
2025-01-13 00:53:15.94	11.08	18.29	
2025-01-13 00:53:16.14	11.07	18.31	
2025-01-13 00:53:16.35	11.06	18.34	
2025-01-13 00:53:16.55	11.05	18.36	
2025-01-13 00:53:16.76	11.04	18.38	
2025-01-13 00:53:16.96	11.03	18.41	
2025-01-13 00:53:17.17	11.01	18.43	
2025-01-13 00:53:17.37	11.00	18.46	
2025-01-13 00:53:17.57	10.99	18.48	
2025-01-13 00:53:17.78	10.98	18.51	
2025-01-13 00:53:17.98	10.97	18.53	
2025-01-13 00:53:18.19	10.96	18.55	
2025-01-13 00:53:18.39	10.94	18.58	
2025-01-13 00:53:18.60	10.93	18.60	
2025-01-13 00:53:18.80	10.92	18.63	
2025-01-13 00:53:19.00	10.91	18.65	
2025-01-13 00:53:19.21	10.90	18.68	
2025-01-13 00:53:19.41	10.89	18.70	
2025-01-13 00:53:19.62	10.87	18.73	
2025-01-13 00:53:19.83	10.86	18.75	
2025-01-13 00:53:20.03	10.85	18.77	
2025-01-13 00:53:20.24	10.84	18.80	
2025-01-13 00:53:20.44	10.83	18.82	
2025-01-13 00:53:20.65	10.81	18.85	
2025-01-13 00:53:20.85	10.80	18.87	
2025-01-13 00:53:21.06	10.79	18.90	
2025-01-13 00:53:21.26	10.78	18.92	
2025-01-13 00:53:21.47	10.76	18.95	
2025-01-13 00:53:21.67	10.75	18.97	
2025-01-13 00:53:21.88	10.74	19.00	
2025-01-13 00:53:22.08	10.73	19.02	
2025-01-13 00:53:22.29	10.72	19.05	
2025-01-13 00:53:22.49	10.70	19.07	
2025-01-13 00:53:22.70	10.69	19.10	
2025-01-13 00:53:22.91	10.68	19.12	
2025-01-13 00:53:23.11	10.67	19.15	
2025-01-13 00:53:23.31	10.65	19.17	
2025-01-13 00:53:23.52	10.64	19.20	
2025-01-13 00:53:23.73	10.63	19.22	
2025-01-13 00:53:23.93	10.62	19.25	
2025-01-13 00:53:24.13	10.61	19.27	
2025-01-13 00:53:24.34	10.59	19.30	
2025-01-13 00:53:24.55	10.58	19.32	
2025-01-13 00:53:24.75	10.57	19.35	
2025-01-13 00:53:24.96	10.56	19.37	
2025-01-13 00:53:25.16	10.54	19.40	
2025-01-13 00:53:25.37	10.53	19.43	
2025-01-13 00:53:25.57	10.52	19.45	
2025-01-13 00:53:25.78	10.50	19.48	
2025-01-13 00:53:25.99	10.49	19.50	
2025-01-13 00:53:26.19	10.48	19.53	
2025-01-13 00:53:26.40	10.47	19.55	
2025-01-13 00:53:26.60	10.45	19.58	
2025-01-13 00:53:26.81	10.44	19.60	
2025-01-13 00:53:27.01	10.43	19.63	
2025-01-13 00:53:27.21	10.42	19.65	
2025-01-13 00:53:27.42	10.40	19.68	
2025-01-13 00:53:27.62	10.39	19.70	
2025-01-13 00:53:27.83	10.38	19.73	
2025-01-13 00:53:28.04	10.36	19.76	
2025-01-13 00:53:28.24	10.35	19.78	
2025-01-13 00:53:28.44	10.34	19.81	
2025-01-13 00:53:28.65	10.33	19.83	
2025-01-13 00:53:28.85	10.31	19.86	
2025-01-13 00:53:29.06	10.30	19.88	
2025-01-13 00:53:29.26	10.29	19.91	
2025-01-13 00:53:29.47	10.27	19.94	
2025-01-13 00:53:29.67	10.26	19.96	
2025-01-13 00:53:29.88	10.25	19.99	
2025-01-13 00:53:30.08	10.24	20.01	
2025-01-13 00:53:30.29	10.22	20.04	
2025-01-13 00:53:30.52	10.21	20.07	
2025-01-13 00:53:30.74	10.19	20.10	
2025-01-13 00:53:30.94	10.18	20.12	
2025-01-13 00:53:31.15	10.17	20.15	
2025-01-13 00:53:31.35	10.15	20.17	
2025-01-13 00:53:31.55	10.14	20.20	
2025-01-13 00:53:31.76	10.13	20.22	
2025-01-13 00:53:31.97	10.11	20.25	
2025-01-13 00:53:32.17	10.10	20.28	
2025-01-13 00:53:32.38	10.09	20.30	
2025-01-13 00:53:32.58	10.07	20.33	
2025-01-13 00:53:32.79	10.06	20.36	
2025-01-13 00:53:32.99	10.05	20.38	
2025-01-13 00:53:33.20	10.03	20.41	
2025-01-13 00:53:33.41	10.02	20.44	
2025-01-13 00:53:33.61	10.01	20.46	
2025-01-13 00:53:33.81	9.99	20.49	
2025-01-13 00:53:34.02	9.98	20.51	
2025-01-13 00:53:34.22	9.97	20.54	
2025-01-13 00:53:34.43	9.95	20.57	
2025-01-13 00:53:34.63	9.94	20.59	
2025-01-13 00:53:34.84	9.93	20.62	
2025-01-13 00:53:35.04	9.91	20.64	
2025-01-13 00:53:35.25	9.90	20.67	
2025-01-13 00:53:35.45	9.89	20.70	
2025-01-13 00:53:35.66	9.87	20.72	
2025-01-13 00:53:35.86	9.86	20.75	
2025-01-13 00:53:36.07	9.84	20.78	
2025-01-13 00:53:36.27	9.83	20.80	
2025-01-13 00:53:36.48	9.82	20.83	
2025-01-13 00:53:36.69	9.80	20.86	
2025-01-13 00:53:36.89	9.79	20.88	
2025-01-13 00:53:37.09	9.78	20.91	
2025-01-13 00:53:37.30	9.76	20.94	
2025-01-13 00:53:37.50	9.75	20.96	
2025-01-13 00:53:37.71	9.73	20.99	
2025-01-13 00:53:37.91	9.72	21.02	
2025-01-13 00:53:38.12	9.71	21.05	
2025-01-13 00:53:38.32	9.69	21.07	
2025-01-13 00:53:38.53	9.68	21.10	
2025-01-13 00:53:38.73	9.66	21.13	
2025-01-13 00:53:38.94	9.65	21.15	
2025-01-13 00:53:39.14	9.64	21.18	
2025-01-13 00:53:39.35	9.62	21.21	
2025-01-13 00:53:39.56	9.61	21.23	
2025-01-13 00:53:39.76	9.59	21.26	
2025-01-13 00:53:39.97	9.58	21.29	
2025-01-13 00:53:40.17	9.56	21.31	
2025-01-13 00:53:40.37	9.55	21.34	
2025-01-13 00:53:40.58	9.54	21.37	
2025-01-13 00:53:40.78	9.52	21.40	
2025-01-13 00:53:40.99	9.51	21.42	
2025-01-13 00:53:41.19	9.49	21.45	
2025-01-13 00:53:41.40	9.48	21.48	
2025-01-13 00:53:41.60	9.46	21.50	
2025-01-13 00:53:41.81	9.45	21.53	
2025-01-13 00:53:42.01	9.43	21.56	
2025-01-13 00:53:42.22	9.42	21.59	
2025-01-13 00:53:42.42	9.41	21.61	
2025-01-13 00:53:42.63	9.39	21.64	
2025-01-13 00:53:42.83	9.38	21.67	
2025-01-13 00:53:43.04	9.36	21.70	
2025-01-13 00:53:43.24	9.35	21.72	
2025-01-13 00:53:43.45	9.33	21.75	
2025-01-13 00:53:43.65	9.32	21.78	
2025-01-13 00:53:43.86	9.30	21.81	
2025-01-13 00:53:44.07	9.29	21.84	
2025-01-13 00:53:44.27	9.27	21.86	
2025-01-13 00:53:44.48	9.26	21.89	
2025-01-13 00:53:44.68	9.24	21.92	
2025-01-13 00:53:44.89	9.23	21.95	
2025-01-13 00:53:45.09	9.21	21.97	
2025-01-13 00:53:45.30	9.20	22.00	
2025-01-13 00:53:45.51	9.18	22.03	
2025-01-13 00:53:45.72	9.17	22.06	
2025-01-13 00:53:45.92	9.15	22.09	
2025-01-13 00:53:46.13	9.14	22.12	
2025-01-13 00:53:46.33	9.12	22.14	
2025-01-13 00:53:46.54	9.11	22.17	
2025-01-13 00:53:46.74	9.09	22.20	
2025-01-13 00:53:46.95	9.08	22.23	
2025-01-13 00:53:47.15	9.06	22.25	
2025-01-13 00:53:47.36	9.05	22.28	
2025-01-13 00:53:47.56	9.03	22.31	
2025-01-13 00:53:47.78	9.01	22.34	
2025-01-13 00:53:47.98	9.00	22.37	
2025-01-13 00:53:48.19	8.98	22.40	
2025-01-13 00:53:48.39	8.97	22.42	
2025-01-13 00:53:48.60	8.95	22.45	
2025-01-13 00:53:48.80	8.94	22.48	
2025-01-13 00:53:49.01	8.92	22.51	
2025-01-13 00:53:49.21	8.91	22.54	
2025-01-13 00:53:49.42	8.89	22.57	
2025-01-13 00:53:49.62	8.88	22.59	
2025-01-13 00:53:49.82	8.86	22.62	
2025-01-13 00:53:50.03	8.85	22.65	
2025-01-13 00:53:50.23	8.83	22.68	
2025-01-13 00:53:50.44	8.81	22.71	
2025-01-13 00:53:50.64	8.80	22.74	
2025-01-13 00:53:50.85	8.78	22.77	
2025-01-13 00:53:51.05	8.77	22.79	
2025-01-13 00:53:51.26	8.75	22.82	
2025-01-13 00:53:51.46	8.74	22.85	
2025-01-13 00:53:51.67	8.72	22.88	
2025-01-13 00:53:51.87	8.70	22.91	
2025-01-13 00:53:52.08	8.69	22.94	
2025-01-13 00:53:52.28	8.67	22.97	
2025-01-13 00:53:52.49	8.66	23.00	
2025-01-13 00:53:52.70	8.64	23.03	
2025-01-13 00:53:52.90	8.62	23.05	
2025-01-13 00:53:53.11	8.61	23.08	
2025-01-13 00:53:53.31	8.59	23.11	
2025-01-13 00:53:53.52	8.57	23.14	
2025-01-13 00:53:53.73	8.56	23.17	
2025-01-13 00:53:53.93	8.54	23.20	
2025-01-13 00:53:54.13	8.53	23.23	
2025-01-13 00:53:54.34	8.51	23.26	
2025-01-13 00:53:54.54	8.49	23.29	
2025-01-13 00:53:54.75	8.48	23.32	
2025-01-13 00:53:54.95	8.46	23.34	
2025-01-13 00:53:55.16	8.44	23.37	
2025-01-13 00:53:55.36	8.43	23.40	
2025-01-13 00:53:55.57	8.41	23.43	
2025-01-13 00:53:55.77	8.40	23.46	
2025-01-13 00:53:55.98	8.38	23.49	
2025-01-13 00:53:56.18	8.36	23.52	
2025-01-13 00:53:56.39	8.35	23.55	
2025-01-13 00:53:56.59	8.33	23.58	
2025-01-13 00:53:56.80	8.31	23.61	
2025-01-13 00:53:57.00	8.30	23.64	
2025-01-13 00:53:57.21	8.28	23.67	
2025-01-13 00:53:57.41	8.26	23.70	
2025-01-13 00:53:57.62	8.24	23.73	
2025-01-13 00:53:57.83	8.23	23.76	
2025-01-13 00:53:58.03	8.21	23.79	
2025-01-13 00:53:58.23	8.19	23.81	
2025-01-13 00:53:58.44	8.18	23.85	
2025-01-13 00:53:58.65	8.16	23.88	
2025-01-13 00:53:58.85	8.14	23.90	
2025-01-13 00:53:59.06	8.13	23.94	
2025-01-13 00:53:59.26	8.11	23.96	
2025-01-13 00:53:59.46	8.09	23.99	
2025-01-13 00:53:59.67	8.08	24.02	
2025-01-13 00:53:59.88	8.06	24.05	
2025-01-13 00:54:00.09	8.04	24.09	
2025-01-13 00:54:00.29	8.02	24.11	
2025-01-13 00:54:00.50	8.01	24.15	
2025-01-13 00:54:00.70	7.99	24.17	
2025-01-13 00:54:00.91	7.97	24.21	
2025-01-13 00:54:01.11	7.95	24.24	
2025-01-13 00:54:01.32	7.94	24.27	
2025-01-13 00:54:01.52	7.92	24.30	
2025-01-13 00:54:01.73	7.90	24.33	
2025-01-13 00:54:01.94	7.88	24.36	
2025-01-13 00:54:02.14	7.87	24.39	
2025-01-13 00:54:02.35	7.85	24.42	
2025-01-13 00:54:02.57	7.83	24.45	
2025-01-13 00:54:02.77	7.81	24.48	
2025-01-13 00:54:02.98	7.79	24.51	
2025-01-13 00:54:03.18	7.78	24.54	
2025-01-13 00:54:03.39	7.76	24.57	
2025-01-13 00:54:03.59	7.74	24.60	
2025-01-13 00:54:03.80	7.72	24.63	
2025-01-13 00:54:04.00	7.71	24.66	
2025-01-13 00:54:04.21	7.69	24.69	
2025-01-13 00:54:04.41	7.67	24.72	
2025-01-13 00:54:04.61	7.65	24.75	
2025-01-13 00:54:04.82	7.63	24.79	
2025-01-13 00:54:05.03	7.62	24.82	
2025-01-13 00:54:05.23	7.60	24.85	
2025-01-13 00:54:05.43	7.58	24.88	
2025-01-13 00:54:05.64	7.56	24.91	
2025-01-13 00:54:05.84	7.54	24.94	
2025-01-13 00:54:06.05	7.52	24.97	
2025-01-13 00:54:06.25	7.51	25.00	
2025-01-13 00:54:06.46	7.49	25.03	
2025-01-13 00:54:06.67	7.47	25.06	
2025-01-13 00:54:06.87	7.45	25.09	
2025-01-13 00:54:07.08	7.43	25.13	
2025-01-13 00:54:07.28	7.41	25.16	
2025-01-13 00:54:07.49	7.40	25.19	
2025-01-13 00:54:07.69	7.38	25.22	
2025-01-13 00:54:07.90	7.36	25.25	
2025-01-13 00:54:08.10	7.34	25.28	
2025-01-13 00:54:08.31	7.32	25.31	
2025-01-13 00:54:08.51	7.30	25.34	
2025-01-13 00:54:08.72	7.28	25.38	
2025-01-13 00:54:08.92	7.27	25.41	
2025-01-13 00:54:09.13	7.25	25.44	
2025-01-13 00:54:09.33	7.23	25.47	
2025-01-13 00:54:09.54	7.21	25.50	
2025-01-13 00:54:09.74	7.19	25.53	
2025-01-13 00:54:09.94	7.17	25.56	
2025-01-13 00:54:10.15	7.15	25.60	
2025-01-13 00:54:10.35	7.13	25.63	
2025-01-13 00:54:10.56	7.11	25.66	
2025-01-13 00:54:10.77	7.09	25.69	
2025-01-13 00:54:10.97	7.08	25.72	
2025-01-13 00:54:11.18	7.06	25.75	
2025-01-13 00:54:11.38	7.04	25.79	
2025-01-13 00:54:11.59	7.02	25.82	
2025-01-13 00:54:11.79	7.00	25.85	
2025-01-13 00:54:12.00	6.98	25.88	
2025-01-13 00:54:12.20	6.96	25.91	
2025-01-13 00:54:12.41	6.94	25.95	
2025-01-13 00:54:12.61	6.92	25.98	
2025-01-13 00:54:12.82	6.90	26.01	
2025-01-13 00:54:13.02	6.88	26.04	
2025-01-13 00:54:13.23	6.86	26.07	
2025-01-13 00:54:13.43	6.84	26.11	
2025-01-13 00:54:13.64	6.82	26.14	
2025-01-13 00:54:13.84	6.80	26.17	
2025-01-13 00:54:14.05	6.78	26.20	
2025-01-13 00:54:14.25	6.76	26.23	
2025-01-13 00:54:14.46	6.74	26.27	
2025-01-13 00:54:14.66	6.72	26.30	
2025-01-13 00:54:14.87	6.70	26.33	
2025-01-13 00:54:15.08	6.68	26.36	
2025-01-13 00:54:15.28	6.66	26.40	
2025-01-13 00:54:15.49	6.64	26.43	
2025-01-13 00:54:15.69	6.62	26.46	
2025-01-13 00:54:15.90	6.60	26.49	
2025-01-13 00:54:16.10	6.58	26.53	
2025-01-13 00:54:16.31	6.56	26.56	
2025-01-13 00:54:16.51	6.54	26.59	
2025-01-13 00:54:16.72	6.52	26.63	
2025-01-13 00:54:16.92	6.50	26.66	
2025-01-13 00:54:17.13	6.48	26.69	
2025-01-13 00:54:17.33	6.46	26.72	
2025-01-13 00:54:17.54	6.44	26.76	
2025-01-13 00:54:17.74	6.42	26.79	
2025-01-13 00:54:17.95	6.40	26.82	
2025-01-13 00:54:18.16	6.38	26.86	
2025-01-13 00:54:18.36	6.36	26.89	
2025-01-13 00:54:18.57	6.34	26.92	
2025-01-13 00:54:18.77	6.32	26.95	
2025-01-13 00:54:18.98	6.30	26.99	
2025-01-13 00:54:19.18	6.27	27.02	
2025-01-13 00:54:19.39	6.25	27.05	
2025-01-13 00:54:19.59	6.23	27.09	
2025-01-13 00:54:19.80	6.21	27.12	
2025-01-13 00:54:20.00	6.19	27.15	
2025-01-13 00:54:20.21	6.17	27.19	
2025-01-13 00:54:20.41	6.15	27.22	
2025-01-13 00:54:20.62	6.13	27.25	
2025-01-13 00:54:20.82	6.11	27.29	
2025-01-13 00:54:21.03	6.08	27.32	
2025-01-13 00:54:21.23	6.06	27.35	
2025-01-13 00:54:21.44	6.04	27.39	
2025-01-13 00:54:21.64	6.02	27.42	
2025-01-13 00:54:21.85	6.00	27.45	
2025-01-13 00:54:22.05	5.98	27.49	
2025-01-13 00:54:22.26	5.96	27.52	
2025-01-13 00:54:22.46	5.94	27.55	
2025-01-13 00:54:22.67	5.91	27.59	
2025-01-13 00:54:22.89	5.89	27.63	
2025-01-13 00:54:23.09	5.87	27.66	
2025-01-13 00:54:23.30	5.85	27.69	
2025-01-13 00:54:23.50	5.83	27.73	
2025-01-13 00:54:23.71	5.80	27.76	
2025-01-13 00:54:23.93	5.78	27.80	
2025-01-13 00:54:24.13	5.76	27.83	
2025-01-13 00:54:24.34	5.74	27.87	
2025-01-13 00:54:24.54	5.71	27.90	
2025-01-13 00:54:24.75	5.69	27.93	
2025-01-13 00:54:24.95	5.67	27.97	
2025-01-13 00:54:25.16	5.65	28.00	
2025-01-13 00:54:25.36	5.62	28.04	
2025-01-13 00:54:25.57	5.60	28.07	
2025-01-13 00:54:25.77	5.58	28.10	
2025-01-13 00:54:25.98	5.56	28.14	
2025-01-13 00:54:26.18	5.54	28.17	
2025-01-13 00:54:26.39	5.51	28.21	
2025-01-13 00:54:26.59	5.49	28.24	
2025-01-13 00:54:26.80	5.47	28.28	
2025-01-13 00:54:27.00	5.45	28.31	
2025-01-13 00:54:27.21	5.42	28.35	
2025-01-13 00:54:27.41	5.40	28.38	
2025-01-13 00:54:27.62	5.38	28.41	
2025-01-13 00:54:27.82	5.35	28.45	
2025-01-13 00:54:28.03	5.33	28.48	
2025-01-13 00:54:28.23	5.31	28.52	
2025-01-13 00:54:28.43	5.29	28.55	
2025-01-13 00:54:28.64	5.26	28.59	
2025-01-13 00:54:28.84	5.24	28.62	
2025-01-13 00:54:29.05	5.22	28.66	
2025-01-13 00:54:29.25	5.19	28.69	
2025-01-13 00:54:29.46	5.17	28.73	
2025-01-13 00:54:29.66	5.15	28.76	
2025-01-13 00:54:29.87	5.12	28.80	
2025-01-13 00:54:30.07	5.10	28.83	
2025-01-13 00:54:30.28	5.08	28.87	
2025-01-13 00:54:30.48	5.05	28.90	
2025-01-13 00:54:30.69	5.03	28.94	
2025-01-13 00:54:30.89	5.01	28.97	
2025-01-13 00:54:31.10	4.98	29.01	
2025-01-13 00:54:31.30	4.96	29.04	
2025-01-13 00:54:31.51	4.93	29.08	
2025-01-13 00:54:31.71	4.91	29.11	
2025-01-13 00:54:31.92	4.89	29.15	
2025-01-13 00:54:32.12	4.86	29.18	
2025-01-13 00:54:32.33	4.84	29.22	
2025-01-13 00:54:32.53	4.81	29.26	
2025-01-13 00:54:32.74	4.79	29.29	
2025-01-13 00:54:32.94	4.77	29.33	
2025-01-13 00:54:33.15	4.74	29.36	
2025-01-13 00:54:33.35	4.72	29.40	
2025-01-13 00:54:33.56	4.69	29.43	
2025-01-13 00:54:33.76	4.67	29.47	
2025-01-13 00:54:33.97	4.64	29.51	
2025-01-13 00:54:34.17	4.62	29.54	
2025-01-13 00:54:34.38	4.59	29.58	
2025-01-13 00:54:34.58	4.57	29.61	
2025-01-13 00:54:34.78	4.55	29.65	
2025-01-13 00:54:34.99	4.52	29.69	
2025-01-13 00:54:35.19	4.50	29.72	
2025-01-13 00:54:35.40	4.47	29.76	
2025-01-13 00:54:35.60	4.45	29.79	
2025-01-13 00:54:35.81	4.42	29.83	
2025-01-13 00:54:36.01	4.40	29.86	
2025-01-13 00:54:36.22	4.37	29.90	
2025-01-13 00:54:36.42	4.35	29.94	
2025-01-13 00:54:36.63	4.32	29.97	
2025-01-13 00:54:36.83	4.30	30.01	
2025-01-13 00:54:37.04	4.27	30.05	
2025-01-13 00:54:37.24	4.25	30.08	
2025-01-13 00:54:37.45	4.22	30.12	
2025-01-13 00:54:37.65	4.19	30.16	
2025-01-13 00:54:37.85	4.17	30.19	
2025-01-13 00:54:38.06	4.14	30.23	
2025-01-13 00:54:38.26	4.12	30.27	
2025-01-13 00:54:38.47	4.09	30.30	
2025-01-13 00:54:38.67	4.07	30.34	
2025-01-13 00:54:38.88	4.04	30.38	
2025-01-13 00:54:39.08	4.02	30.41	
2025-01-13 00:54:39.29	3.99	30.45	
2025-01-13 00:54:39.49	3.96	30.49	
2025-01-13 00:54:39.70	3.94	30.52	
2025-01-13 00:54:39.90	3.91	30.56	
2025-01-13 00:54:40.11	3.88	30.60	
2025-01-13 00:54:40.31	3.86	30.63	
2025-01-13 00:54:40.52	3.83	30.67	
2025-01-13 00:54:40.73	3.80	30.71	
2025-01-13 00:54:40.93	3.78	30.75	
2025-01-13 00:54:41.14	3.75	30.78	
2025-01-13 00:54:41.34	3.73	30.82	
2025-01-13 00:54:41.55	3.70	30.86	
2025-01-13 00:54:41.75	3.67	30.90	
2025-01-13 00:54:41.95	3.65	30.93	
2025-01-13 00:54:42.16	3.62	30.97	
2025-01-13 00:54:42.36	3.59	31.01	
2025-01-13 00:54:42.57	3.56	31.05	
2025-01-13 00:54:42.78	3.54	31.08	
2025-01-13 00:54:42.98	3.51	31.12	
2025-01-13 00:54:43.18	3.48	31.16	
2025-01-13 00:54:43.39	3.46	31.20	
2025-01-13 00:54:43.60	3.43	31.23	
2025-01-13 00:54:43.80	3.40	31.27	
2025-01-13 00:54:44.01	3.37	31.31	
2025-01-13 00:54:44.21	3.35	31.35	
2025-01-13 00:54:44.42	3.32	31.39	
2025-01-13 00:54:44.62	3.29	31.42	
2025-01-13 00:54:44.83	3.26	31.46	
2025-01-13 00:54:45.03	3.24	31.50	
2025-01-13 00:54:45.23	3.21	31.54	
2025-01-13 00:54:45.44	3.18	31.57	
2025-01-13 00:54:45.64	3.15	31.61	
2025-01-13 00:54:45.85	3.12	31.65	
2025-01-13 00:54:46.05	3.10	31.69	
2025-01-13 00:54:46.27	3.07	31.73	
2025-01-13 00:54:46.48	3.04	31.77	
2025-01-13 00:54:46.68	3.01	31.81	
2025-01-13 00:54:46.89	2.98	31.85	
2025-01-13 00:54:47.09	2.95	31.88	
2025-01-13 00:54:47.30	2.92	31.92	
2025-01-13 00:54:47.50	2.90	31.96	
2025-01-13 00:54:47.71	2.87	32.00	
2025-01-13 00:54:47.91	2.84	32.04	
2025-01-13 00:54:48.12	2.81	32.08	
2025-01-13 00:54:48.32	2.78	32.11	
2025-01-13 00:54:48.53	2.75	32.15	
2025-01-13 00:54:48.73	2.72	32.19	
2025-01-13 00:54:48.94	2.69	32.23	
2025-01-13 00:54:49.14	2.66	32.27	
2025-01-13 00:54:49.35	2.63	32.31	
2025-01-13 00:54:49.57	2.60	32.35	
2025-01-13 00:54:49.77	2.57	32.39	
2025-01-13 00:54:49.98	2.54	32.43	
2025-01-13 00:54:50.19	2.51	32.47	
2025-01-13 00:54:50.39	2.49	32.51	
2025-01-13 00:54:50.60	2.45	32.55	
2025-01-13 00:54:50.80	2.43	32.59	
2025-01-13 00:54:51.00	2.40	32.62	
2025-01-13 00:54:51.21	2.37	32.66	
2025-01-13 00:54:51.42	2.34	32.70	
2025-01-13 00:54:51.62	2.31	32.74	
2025-01-13 00:54:51.82	2.28	32.78	
2025-01-13 00:54:52.03	2.25	32.82	
2025-01-13 00:54:52.23	2.22	32.86	
2025-01-13 00:54:52.44	2.19	32.90	
2025-01-13 00:54:52.64	2.16	32.94	
2025-01-13 00:54:52.85	2.12	32.98	
2025-01-13 00:54:53.06	2.09	33.02	
2025-01-13 00:54:53.26	2.06	33.06	
2025-01-13 00:54:53.47	2.03	33.10	
2025-01-13 00:54:53.67	2.00	33.14	
2025-01-13 00:54:53.88	1.97	33.18	
2025-01-13 00:54:54.08	1.94	33.22	
2025-01-13 00:54:54.29	1.91	33.26	
2025-01-13 00:54:54.49	1.88	33.30	
2025-01-13 00:54:54.70	1.85	33.34	
2025-01-13 00:54:54.90	1.82	33.38	
2025-01-13 00:54:55.11	1.78	33.42	
2025-01-13 00:54:55.31	1.75	33.46	
2025-01-13 00:54:55.52	1.72	33.50	
2025-01-13 00:54:55.73	1.69	33.54	
2025-01-13 00:54:55.93	1.66	33.58	
2025-01-13 00:54:56.13	1.63	33.62	
2025-01-13 00:54:56.34	1.59	33.66	
2025-01-13 00:54:56.55	1.56	33.70	
2025-01-13 00:54:56.75	1.53	33.74	
2025-01-13 00:54:56.95	1.50	33.78	
2025-01-13 00:54:57.16	1.47	33.82	
2025-01-13 00:54:57.36	1.43	33.86	
2025-01-13 00:54:57.57	1.40	33.90	
2025-01-13 00:54:57.78	1.37	33.94	
2025-01-13 00:54:57.98	1.34	33.98	
2025-01-13 00:54:58.18	1.30	34.02	
2025-01-13 00:54:58.39	1.27	34.07	
2025-01-13 00:54:58.60	1.24	34.11	
2025-01-13 00:54:58.80	1.21	34.15	
2025-01-13 00:54:59.00	1.17	34.19	
2025-01-13 00:54:59.21	1.14	34.23	
2025-01-13 00:54:59.41	1.11	34.27	
2025-01-13 00:54:59.62	1.07	34.31	
2025-01-13 00:54:59.82	1.04	34.35	
2025-01-13 00:55:00.03	1.01	34.39	
2025-01-13 00:55:00.23	0.97	34.43	
2025-01-13 00:55:00.44	0.94	34.48	
2025-01-13 00:55:00.64	0.91	34.52	
2025-01-13 00:55:00.85	0.87	34.56	
2025-01-13 00:55:01.05	0.84	34.60	
2025-01-13 00:55:01.27	0.80	34.64	
2025-01-13 00:55:01.48	0.77	34.69	
2025-01-13 00:55:01.68	0.74	34.73	
2025-01-13 00:55:01.89	0.70	34.77	
2025-01-13 00:55:02.09	0.67	34.81	
2025-01-13 00:55:02.30	0.63	34.85	
2025-01-13 00:55:02.50	0.60	34.89	
2025-01-13 00:55:02.71	0.56	34.94	
2025-01-13 00:55:02.91	0.53	34.98	
2025-01-13 00:55:03.12	0.49	35.02	
2025-01-13 00:55:03.32	0.46	35.06	
2025-01-13 00:55:03.53	0.42	35.10	
2025-01-13 00:55:03.73	0.39	35.14	
2025-01-13 00:55:03.94	0.35	35.19	
2025-01-13 00:55:04.14	0.32	35.23	
2025-01-13 00:55:04.34	0.29	35.27	
2025-01-13 00:55:04.55	0.25	35.31	
2025-01-13 00:55:04.75	0.22	35.35	
2025-01-13 00:55:04.96	0.18	35.40	
2025-01-13 00:55:05.16	0.14	35.44	
2025-01-13 00:55:05.37	0.11	35.48	
2025-01-13 00:55:05.57	0.07	35.52	
2025-01-13 00:55:05.78	0.04	35.56	
2025-01-13 00:55:05.98	0.00	35.61	
2025-01-13 00:55:06.19	359.96	35.65	
2025-01-13 00:55:06.39	359.93	35.69	
2025-01-13 00:55:06.61	359.89	35.74	
2025-01-13 00:55:06.82	359.85	35.78	
2025-01-13 00:55:07.02	359.82	35.82	
2025-01-13 00:55:07.22	359.78	35.86	
2025-01-13 00:55:07.43	359.74	35.91	
2025-01-13 00:55:07.63	359.71	35.95	
2025-01-13 00:55:07.84	359.67	35.99	
2025-01-13 00:55:08.04	359.63	36.03	
2025-01-13 00:55:08.25	359.60	36.08	
2025-01-13 00:55:08.45	359.56	36.12	
2025-01-13 00:55:08.66	359.52	36.16	
2025-01-13 00:55:08.86	359.49	36.21	
2025-01-13 00:55:09.07	359.45	36.25	
2025-01-13 00:55:09.27	359.41	36.29	
2025-01-13 00:55:09.48	359.37	36.34	
2025-01-13 00:55:09.68	359.34	36.38	
2025-01-13 00:55:09.89	359.30	36.42	
2025-01-13 00:55:10.09	359.26	36.46	
2025-01-13 00:55:10.30	359.22	36.51	
2025-01-13 00:55:10.51	359.18	36.55	
2025-01-13 00:55:10.71	359.14	36.60	
2025-01-13 00:55:10.92	359.11	36.64	
2025-01-13 00:55:11.13	359.07	36.68	
2025-01-13 00:55:11.33	359.03	36.73	
2025-01-13 00:55:11.54	358.99	36.77	
2025-01-13 00:55:11.75	358.95	36.82	
2025-01-13 00:55:11.95	358.91	36.86	
2025-01-13 00:55:12.15	358.87	36.90	
2025-01-13 00:55:12.36	358.83	36.95	
2025-01-13 00:55:12.57	358.79	36.99	
2025-01-13 00:55:12.77	358.75	37.03	
2025-01-13 00:55:12.98	358.71	37.08	
2025-01-13 00:55:13.18	358.68	37.12	
2025-01-13 00:55:13.39	358.64	37.17	
2025-01-13 00:55:13.59	358.60	37.21	
2025-01-13 00:55:13.80	358.56	37.25	
2025-01-13 00:55:14.00	358.52	37.30	
2025-01-13 00:55:14.21	358.48	37.34	
2025-01-13 00:55:14.41	358.44	37.39	
2025-01-13 00:55:14.62	358.39	37.43	
2025-01-13 00:55:14.82	358.36	37.47	
2025-01-13 00:55:15.02	358.32	37.52	
2025-01-13 00:55:15.23	358.27	37.56	
2025-01-13 00:55:15.44	358.23	37.61	
2025-01-13 00:55:15.64	358.19	37.65	
2025-01-13 00:55:15.85	358.15	37.70	
2025-01-13 00:55:16.05	358.11	37.74	
2025-01-13 00:55:16.26	358.07	37.79	
2025-01-13 00:55:16.46	358.03	37.83	
2025-01-13 00:55:16.67	357.99	37.88	
2025-01-13 00:55:16.87	357.95	37.92	
2025-01-13 00:55:17.08	357.90	37.96	
2025-01-13 00:55:17.28	357.86	38.01	
2025-01-13 00:55:17.49	357.82	38.05	
2025-01-13 00:55:17.69	357.78	38.10	
2025-01-13 00:55:17.90	357.74	38.14	
2025-01-13 00:55:18.10	357.69	38.19	
2025-01-13 00:55:18.31	357.65	38.23	
2025-01-13 00:55:18.51	357.61	38.28	
2025-01-13 00:55:18.72	357.57	38.32	
2025-01-13 00:55:18.93	357.52	38.37	
2025-01-13 00:55:19.13	357.48	38.41	
2025-01-13 00:55:19.33	357.44	38.46	
2025-01-13 00:55:19.54	357.39	38.50	
2025-01-13 00:55:19.74	357.35	38.55	
2025-01-13 00:55:19.95	357.31	38.59	
2025-01-13 00:55:20.15	357.27	38.64	
2025-01-13 00:55:20.36	357.22	38.69	
2025-01-13 00:55:20.56	357.18	38.73	
2025-01-13 00:55:20.77	357.13	38.78	
2025-01-13 00:55:20.97	357.09	38.82	
2025-01-13 00:55:21.18	357.04	38.87	
2025-01-13 00:55:21.38	357.00	38.91	
2025-01-13 00:55:21.59	356.96	38.96	
2025-01-13 00:55:21.79	356.91	39.00	
2025-01-13 00:55:22.00	356.87	39.05	
2025-01-13 00:55:22.20	356.82	39.09	
2025-01-13 00:55:22.41	356.78	39.14	
2025-01-13 00:55:22.61	356.73	39.19	
2025-01-13 00:55:22.82	356.69	39.23	
2025-01-13 00:55:23.02	356.64	39.28	
2025-01-13 00:55:23.22	356.60	39.32	
2025-01-13 00:55:23.43	356.55	39.37	
2025-01-13 00:55:23.63	356.51	39.41	
2025-01-13 00:55:23.84	356.46	39.46	
2025-01-13 00:55:24.04	356.42	39.51	
2025-01-13 00:55:24.25	356.37	39.55	
2025-01-13 00:55:24.45	356.32	39.60	
2025-01-13 00:55:24.67	356.28	39.65	
2025-01-13 00:55:24.87	356.23	39.69	
2025-01-13 00:55:25.08	356.18	39.74	
2025-01-13 00:55:25.29	356.13	39.79	
2025-01-13 00:55:25.49	356.09	39.83	
2025-01-13 00:55:25.70	356.04	39.88	
2025-01-13 00:55:25.90	355.99	39.93	
2025-01-13 00:55:26.11	355.95	39.97	
2025-01-13 00:55:26.31	355.90	40.02	
2025-01-13 00:55:26.52	355.85	40.07	
2025-01-13 00:55:26.72	355.81	40.11	
2025-01-13 00:55:26.92	355.76	40.16	
2025-01-13 00:55:27.13	355.71	40.21	
2025-01-13 00:55:27.34	355.66	40.25	
2025-01-13 00:55:27.54	355.61	40.30	
2025-01-13 00:55:27.75	355.56	40.35	
2025-01-13 00:55:27.95	355.52	40.39	
2025-01-13 00:55:28.16	355.47	40.44	
2025-01-13 00:55:28.36	355.42	40.49	
2025-01-13 00:55:28.56	355.37	40.53	
2025-01-13 00:55:28.77	355.32	40.58	
2025-01-13 00:55:28.97	355.27	40.63	
2025-01-13 00:55:29.18	355.22	40.68	
2025-01-13 00:55:29.38	355.17	40.72	
2025-01-13 00:55:29.59	355.12	40.77	
2025-01-13 00:55:29.80	355.07	40.82	
2025-01-13 00:55:30.01	355.02	40.87	
2025-01-13 00:55:30.22	354.97	40.91	
2025-01-13 00:55:30.43	354.92	40.96	
2025-01-13 00:55:30.63	354.87	41.01	
2025-01-13 00:55:30.84	354.82	41.06	
2025-01-13 00:55:31.04	354.77	41.10	
2025-01-13 00:55:31.25	354.72	41.15	
2025-01-13 00:55:31.45	354.67	41.20	
2025-01-13 00:55:31.66	354.61	41.25	
2025-01-13 00:55:31.86	354.56	41.29	
2025-01-13 00:55:32.07	354.51	41.34	
2025-01-13 00:55:32.27	354.46	41.39	
2025-01-13 00:55:32.48	354.41	41.44	
2025-01-13 00:55:32.68	354.36	41.48	
2025-01-13 00:55:32.89	354.30	41.53	
2025-01-13 00:55:33.09	354.25	41.58	
2025-01-13 00:55:33.29	354.20	41.63	
2025-01-13 00:55:33.50	354.15	41.68	
2025-01-13 00:55:33.70	354.10	41.72	
2025-01-13 00:55:33.91	354.04	41.77	
2025-01-13 00:55:34.12	353.99	41.82	
2025-01-13 00:55:34.32	353.94	41.87	
2025-01-13 00:55:34.52	353.88	41.91	
2025-01-13 00:55:34.73	353.83	41.96	
2025-01-13 00:55:34.94	353.78	42.01	
2025-01-13 00:55:35.14	353.72	42.06	
2025-01-13 00:55:35.34	353.67	42.11	
2025-01-13 00:55:35.55	353.61	42.16	
2025-01-13 00:55:35.75	353.56	42.20	
2025-01-13 00:55:35.96	353.51	42.25	
2025-01-13 00:55:36.17	353.45	42.30	
2025-01-13 00:55:36.37	353.40	42.35	
2025-01-13 00:55:36.57	353.34	42.40	
2025-01-13 00:55:36.78	353.29	42.45	
2025-01-13 00:55:36.99	353.23	42.50	
2025-01-13 00:55:37.19	353.18	42.54	
2025-01-13 00:55:37.40	353.12	42.59	
2025-01-13 00:55:37.60	353.06	42.64	
2025-01-13 00:55:37.81	353.01	42.69	
2025-01-13 00:55:38.01	352.95	42.74	
2025-01-13 00:55:38.22	352.89	42.79	
2025-01-13 00:55:38.42	352.84	42.83	
2025-01-13 00:55:38.63	352.78	42.88	
2025-01-13 00:55:38.83	352.73	42.93	
2025-01-13 00:55:39.04	352.67	42.98	
2025-01-13 00:55:39.24	352.61	43.03	
2025-01-13 00:55:39.45	352.55	43.08	
2025-01-13 00:55:39.67	352.49	43.13	
2025-01-13 00:55:39.87	352.43	43.18	
2025-01-13 00:55:40.08	352.38	43.23	
2025-01-13 00:55:40.28	352.32	43.28	
2025-01-13 00:55:40.49	352.26	43.33	
2025-01-13 00:55:40.69	352.20	43.38	
2025-01-13 00:55:40.90	352.14	43.43	
2025-01-13 00:55:41.11	352.08	43.48	
2025-01-13 00:55:41.31	352.02	43.52	
2025-01-13 00:55:41.52	351.96	43.57	
2025-01-13 00:55:41.72	351.91	43.62	
2025-01-13 00:55:41.93	351.84	43.67	
2025-01-13 00:55:42.13	351.79	43.72	
2025-01-13 00:55:42.34	351.72	43.77	
2025-01-13 00:55:42.54	351.67	43.82	
2025-01-13 00:55:42.75	351.60	43.87	
2025-01-13 00:55:42.95	351.55	43.92	
2025-01-13 00:55:43.16	351.48	43.97	
2025-01-13 00:55:43.37	351.42	44.02	
2025-01-13 00:55:43.57	351.36	44.07	
2025-01-13 00:55:43.78	351.30	44.12	
2025-01-13 00:55:43.98	351.24	44.17	
2025-01-13 00:55:44.19	351.18	44.22	
2025-01-13 00:55:44.39	351.12	44.26	
2025-01-13 00:55:44.60	351.05	44.31	
2025-01-13 00:55:44.80	350.99	44.36	
2025-01-13 00:55:45.01	350.93	44.41	
2025-01-13 00:55:45.21	350.87	44.46	
2025-01-13 00:55:45.42	350.80	44.51	
2025-01-13 00:55:45.62	350.74	44.56	
2025-01-13 00:55:45.83	350.68	44.61	
2025-01-13 00:55:46.04	350.61	44.66	
2025-01-13 00:55:46.24	350.55	44.71	
2025-01-13 00:55:46.45	350.48	44.76	
2025-01-13 00:55:46.65	350.42	44.81	
2025-01-13 00:55:46.86	350.35	44.86	
2025-01-13 00:55:47.08	350.29	44.92	
2025-01-13 00:55:47.28	350.22	44.96	
2025-01-13 00:55:47.49	350.16	45.02	
2025-01-13 00:55:47.69	350.09	45.06	
2025-01-13 00:55:47.90	350.03	45.11	
2025-01-13 00:55:48.11	349.96	45.17	
2025-01-13 00:55:48.32	349.89	45.22	
2025-01-13 00:55:48.53	349.82	45.27	
2025-01-13 00:55:48.73	349.76	45.32	
2025-01-13 00:55:48.93	349.69	45.37	
2025-01-13 00:55:49.14	349.63	45.42	
2025-01-13 00:55:49.34	349.56	45.47	
2025-01-13 00:55:49.55	349.49	45.52	
2025-01-13 00:55:49.75	349.43	45.57	
2025-01-13 00:55:49.96	349.36	45.62	
2025-01-13 00:55:50.16	349.29	45.67	
2025-01-13 00:55:50.36	349.23	45.71	
2025-01-13 00:55:50.57	349.16	45.77	
2025-01-13 00:55:50.77	349.09	45.82	
2025-01-13 00:55:50.98	349.02	45.87	
2025-01-13 00:55:51.18	348.95	45.92	
2025-01-13 00:55:51.39	348.88	45.97	
2025-01-13 00:55:51.59	348.81	46.02	
2025-01-13 00:55:51.80	348.74	46.07	
2025-01-13 00:55:52.00	348.68	46.12	
2025-01-13 00:55:52.21	348.60	46.17	
2025-01-13 00:55:52.41	348.54	46.22	
2025-01-13 00:55:52.61	348.47	46.27	
2025-01-13 00:55:52.82	348.40	46.32	
2025-01-13 00:55:53.02	348.33	46.37	
2025-01-13 00:55:53.23	348.25	46.42	
2025-01-13 00:55:53.43	348.18	46.47	
2025-01-13 00:55:53.64	348.11	46.52	
2025-01-13 00:55:53.84	348.04	46.57	
2025-01-13 00:55:54.05	347.97	46.62	
2025-01-13 00:55:54.25	347.90	46.67	
2025-01-13 00:55:54.46	347.82	46.72	
2025-01-13 00:55:54.66	347.75	46.77	
2025-01-13 00:55:54.87	347.68	46.82	
2025-01-13 00:55:55.07	347.61	46.87	
2025-01-13 00:55:55.28	347.53	46.92	
2025-01-13 00:55:55.48	347.46	46.97	
2025-01-13 00:55:55.68	347.39	47.02	
2025-01-13 00:55:55.89	347.31	47.07	
2025-01-13 00:55:56.09	347.24	47.12	
2025-01-13 00:55:56.30	347.16	47.17	
2025-01-13 00:55:56.50	347.09	47.22	
2025-01-13 00:55:56.72	347.01	47.28	
2025-01-13 00:55:56.92	346.94	47.33	
2025-01-13 00:55:57.13	346.86	47.38	
2025-01-13 00:55:57.33	346.79	47.43	
2025-01-13 00:55:57.53	346.71	47.48	
2025-01-13 00:55:57.74	346.63	47.53	
2025-01-13 00:55:57.94	346.56	47.58	
2025-01-13 00:55:58.14	346.48	47.63	
2025-01-13 00:55:58.35	346.40	47.68	
2025-01-13 00:55:58.56	346.33	47.73	
2025-01-13 00:55:58.76	346.25	47.78	
2025-01-13 00:55:58.97	346.17	47.83	
2025-01-13 00:55:59.17	346.09	47.88	
2025-01-13 00:55:59.38	346.01	47.93	
2025-01-13 00:55:59.58	345.94	47.98	
2025-01-13 00:55:59.79	345.86	48.03	
2025-01-13 00:55:59.99	345.78	48.08	
2025-01-13 00:56:00.20	345.70	48.13	
2025-01-13 00:56:00.40	345.62	48.18	
2025-01-13 00:56:00.61	345.54	48.23	
2025-01-13 00:56:00.81	345.46	48.28	
2025-01-13 00:56:01.02	345.38	48.34	
2025-01-13 00:56:01.22	345.30	48.39	
2025-01-13 00:56:01.43	345.22	48.44	
2025-01-13 00:56:01.63	345.14	48.49	
2025-01-13 00:56:01.84	345.06	48.54	
2025-01-13 00:56:02.04	344.98	48.59	
2025-01-13 00:56:02.25	344.89	48.64	
2025-01-13 00:56:02.45	344.81	48.69	
2025-01-13 00:56:02.66	344.73	48.74	
2025-01-13 00:56:02.86	344.65	48.79	
2025-01-13 00:56:03.07	344.56	48.84	
2025-01-13 00:56:03.27	344.48	48.89	
2025-01-13 00:56:03.48	344.39	48.94	
2025-01-13 00:56:03.69	344.31	48.99	
2025-01-13 00:56:03.89	344.23	49.04	
2025-01-13 00:56:04.09	344.14	49.09	
2025-01-13 00:56:04.30	344.06	49.14	
2025-01-13 00:56:04.51	343.97	49.20	
2025-01-13 00:56:04.71	343.89	49.24	
2025-01-13 00:56:04.92	343.80	49.30	
2025-01-13 00:56:05.12	343.72	49.35	
2025-01-13 00:56:05.33	343.63	49.40	
2025-01-13 00:56:05.53	343.54	49.45	
2025-01-13 00:56:05.74	343.45	49.50	
2025-01-13 00:56:05.94	343.37	49.55	
2025-01-13 00:56:06.15	343.28	49.60	
2025-01-13 00:56:06.35	343.19	49.65	
2025-01-13 00:56:06.56	343.10	49.70	
2025-01-13 00:56:06.76	343.02	49.75	
2025-01-13 00:56:06.97	342.93	49.80	
2025-01-13 00:56:07.17	342.84	49.85	
2025-01-13 00:56:07.38	342.75	49.90	
2025-01-13 00:56:07.58	342.66	49.95	
2025-01-13 00:56:07.79	342.57	50.00	
2025-01-13 00:56:07.99	342.48	50.05	
2025-01-13 00:56:08.20	342.39	50.10	
2025-01-13 00:56:08.41	342.30	50.15	
2025-01-13 00:56:08.62	342.21	50.20	
2025-01-13 00:56:08.82	342.12	50.25	
2025-01-13 00:56:09.03	342.02	50.30	
2025-01-13 00:56:09.24	341.93	50.35	
2025-01-13 00:56:09.44	341.84	50.40	
2025-01-13 00:56:09.64	341.75	50.45	
2025-01-13 00:56:09.85	341.65	50.50	
2025-01-13 00:56:10.05	341.56	50.55	
2025-01-13 00:56:10.26	341.47	50.60	
2025-01-13 00:56:10.46	341.38	50.65	
2025-01-13 00:56:10.67	341.28	50.70	
2025-01-13 00:56:10.87	341.19	50.75	
2025-01-13 00:56:11.07	341.10	50.80	
2025-01-13 00:56:11.28	341.00	50.85	
2025-01-13 00:56:11.49	340.90	50.90	
2025-01-13 00:56:11.69	340.81	50.95	
2025-01-13 00:56:11.90	340.71	51.00	
2025-01-13 00:56:12.10	340.62	51.05	
2025-01-13 00:56:12.31	340.52	51.10	
2025-01-13 00:56:12.51	340.42	51.15	
2025-01-13 00:56:12.72	340.32	51.20	
2025-01-13 00:56:12.92	340.23	51.25	
2025-01-13 00:56:13.13	340.13	51.30	
2025-01-13 00:56:13.33	340.03	51.35	
2025-01-13 00:56:13.54	339.93	51.40	
2025-01-13 00:56:13.74	339.84	51.44	
2025-01-13 00:56:13.95	339.73	51.50	
2025-01-13 00:56:14.16	339.63	51.55	
2025-01-13 00:56:14.36	339.54	51.59	
2025-01-13 00:56:14.57	339.43	51.64	
2025-01-13 00:56:14.78	339.33	51.69	
2025-01-13 00:56:14.99	339.23	51.74	
2025-01-13 00:56:15.19	339.13	51.79	
2025-01-13 00:56:15.40	339.02	51.84	
2025-01-13 00:56:15.60	338.93	51.89	
2025-01-13 00:56:15.81	338.82	51.94	
2025-01-13 00:56:16.01	338.72	51.99	
2025-01-13 00:56:16.22	338.62	52.04	
2025-01-13 00:56:16.42	338.52	52.09	
2025-01-13 00:56:16.63	338.41	52.14	
2025-01-13 00:56:16.83	338.31	52.18	
2025-01-13 00:56:17.04	338.20	52.23	
2025-01-13 00:56:17.24	338.10	52.28	
2025-01-13 00:56:17.45	337.99	52.33	
2025-01-13 00:56:17.65	337.89	52.38	
2025-01-13 00:56:17.86	337.78	52.43	
