passes_logs/2025/01/13/SPB_Silybum_02/SPB_Silybum_02__20250113_023104_SUOMI_NPP_rec.log

#Pass ID: 20250113_023104_SUOMI NPP
#Satellite: SUOMI NPP
#Configuration: NPP
#Start time: 2025-01-13 02:31:02

#Version: 2.0.20230423
#Station: SPB_Silybum_02
#Location: 30.233357 lon 59.946436 lat
#TLE: 1 37849U 11061A   25012.17094835  .00000145  00000+0  89644-4 0  9991
#TLE: 2 37849  98.7443 313.1954 0001789  45.3429 314.7892 14.19536935684510

#Time	Az	El	Level	Level2	SNR	BER	Gain	Gain2
2025-01-13 02:31:04.95	14.07	4.05	
2025-01-13 02:31:05.17	14.05	4.06	
2025-01-13 02:31:05.38	14.03	4.08	
2025-01-13 02:31:05.59	14.01	4.09	
2025-01-13 02:31:05.80	14.00	4.10	
2025-01-13 02:31:06.00	13.98	4.11	
2025-01-13 02:31:06.20	13.96	4.12	
2025-01-13 02:31:06.41	13.95	4.13	
2025-01-13 02:31:06.62	13.93	4.15	
2025-01-13 02:31:06.82	13.91	4.16	
2025-01-13 02:31:07.03	13.89	4.17	
2025-01-13 02:31:07.23	13.88	4.18	
2025-01-13 02:31:07.44	13.86	4.19	
2025-01-13 02:31:07.64	13.84	4.20	
2025-01-13 02:31:07.85	13.83	4.22	
2025-01-13 02:31:08.05	13.81	4.23	
2025-01-13 02:31:08.26	13.79	4.24	
2025-01-13 02:31:08.46	13.78	4.25	
2025-01-13 02:31:08.67	13.76	4.26	
2025-01-13 02:31:08.88	13.74	4.28	
2025-01-13 02:31:09.08	13.72	4.29	
2025-01-13 02:31:09.29	13.71	4.30	
2025-01-13 02:31:09.49	13.69	4.31	
2025-01-13 02:31:09.70	13.67	4.32	
2025-01-13 02:31:09.90	13.65	4.33	
2025-01-13 02:31:10.11	13.64	4.35	
2025-01-13 02:31:10.32	13.62	4.36	
2025-01-13 02:31:10.52	13.60	4.37	
2025-01-13 02:31:10.72	13.59	4.38	
2025-01-13 02:31:10.93	13.57	4.39	
2025-01-13 02:31:11.13	13.55	4.40	
2025-01-13 02:31:11.34	13.53	4.42	
2025-01-13 02:31:11.54	13.52	4.43	
2025-01-13 02:31:11.75	13.50	4.44	
2025-01-13 02:31:11.95	13.48	4.45	
2025-01-13 02:31:12.16	13.46	4.46	
2025-01-13 02:31:12.36	13.45	4.47	
2025-01-13 02:31:12.57	13.43	4.49	
2025-01-13 02:31:12.77	13.41	4.50	
2025-01-13 02:31:12.98	13.40	4.51	
2025-01-13 02:31:13.18	13.38	4.52	
2025-01-13 02:31:13.39	13.36	4.53	
2025-01-13 02:31:13.59	13.34	4.54	
2025-01-13 02:31:13.80	13.33	4.56	
2025-01-13 02:31:14.00	13.31	4.57	
2025-01-13 02:31:14.21	13.29	4.58	
2025-01-13 02:31:14.41	13.27	4.59	
2025-01-13 02:31:14.62	13.26	4.60	
2025-01-13 02:31:14.82	13.24	4.62	
2025-01-13 02:31:15.03	13.22	4.63	
2025-01-13 02:31:15.23	13.20	4.64	
2025-01-13 02:31:15.44	13.19	4.65	
2025-01-13 02:31:15.65	13.17	4.66	
2025-01-13 02:31:15.85	13.15	4.67	
2025-01-13 02:31:16.06	13.13	4.69	
2025-01-13 02:31:16.26	13.12	4.70	
2025-01-13 02:31:16.47	13.10	4.71	
2025-01-13 02:31:16.67	13.08	4.72	
2025-01-13 02:31:16.88	13.06	4.73	
2025-01-13 02:31:17.08	13.04	4.75	
2025-01-13 02:31:17.29	13.03	4.76	
2025-01-13 02:31:17.49	13.01	4.77	
2025-01-13 02:31:17.70	12.99	4.78	
2025-01-13 02:31:17.91	12.97	4.79	
2025-01-13 02:31:18.11	12.96	4.80	
2025-01-13 02:31:18.32	12.94	4.82	
2025-01-13 02:31:18.52	12.92	4.83	
2025-01-13 02:31:18.73	12.90	4.84	
2025-01-13 02:31:18.93	12.88	4.85	
2025-01-13 02:31:19.14	12.87	4.86	
2025-01-13 02:31:19.34	12.85	4.88	
2025-01-13 02:31:19.55	12.83	4.89	
2025-01-13 02:31:19.76	12.81	4.90	
2025-01-13 02:31:19.96	12.80	4.91	
2025-01-13 02:31:20.17	12.78	4.92	
2025-01-13 02:31:20.37	12.76	4.93	
2025-01-13 02:31:20.58	12.74	4.95	
2025-01-13 02:31:20.78	12.72	4.96	
2025-01-13 02:31:20.99	12.70	4.97	
2025-01-13 02:31:21.19	12.69	4.98	
2025-01-13 02:31:21.40	12.67	4.99	
2025-01-13 02:31:21.60	12.65	5.01	
2025-01-13 02:31:21.81	12.63	5.02	
2025-01-13 02:31:22.02	12.61	5.03	
2025-01-13 02:31:22.22	12.60	5.04	
2025-01-13 02:31:22.42	12.58	5.05	
2025-01-13 02:31:22.63	12.56	5.07	
2025-01-13 02:31:22.83	12.54	5.08	
2025-01-13 02:31:23.04	12.52	5.09	
2025-01-13 02:31:23.25	12.51	5.10	
2025-01-13 02:31:23.45	12.49	5.11	
2025-01-13 02:31:23.66	12.47	5.13	
2025-01-13 02:31:23.86	12.45	5.14	
2025-01-13 02:31:24.07	12.43	5.15	
2025-01-13 02:31:24.28	12.41	5.16	
2025-01-13 02:31:24.48	12.40	5.17	
2025-01-13 02:31:24.69	12.38	5.18	
2025-01-13 02:31:24.89	12.36	5.20	
2025-01-13 02:31:25.10	12.34	5.21	
2025-01-13 02:31:25.30	12.32	5.22	
2025-01-13 02:31:25.52	12.30	5.23	
2025-01-13 02:31:25.73	12.29	5.25	
2025-01-13 02:31:25.93	12.27	5.26	
2025-01-13 02:31:26.14	12.25	5.27	
2025-01-13 02:31:26.35	12.23	5.28	
2025-01-13 02:31:26.55	12.21	5.29	
2025-01-13 02:31:26.76	12.19	5.30	
2025-01-13 02:31:26.96	12.18	5.32	
2025-01-13 02:31:27.17	12.16	5.33	
2025-01-13 02:31:27.37	12.14	5.34	
2025-01-13 02:31:27.58	12.12	5.35	
2025-01-13 02:31:27.78	12.10	5.36	
2025-01-13 02:31:27.99	12.08	5.38	
2025-01-13 02:31:28.19	12.06	5.39	
2025-01-13 02:31:28.40	12.05	5.40	
2025-01-13 02:31:28.60	12.03	5.41	
2025-01-13 02:31:28.81	12.01	5.42	
2025-01-13 02:31:29.02	11.99	5.44	
2025-01-13 02:31:29.22	11.97	5.45	
2025-01-13 02:31:29.43	11.95	5.46	
2025-01-13 02:31:29.63	11.93	5.47	
2025-01-13 02:31:29.85	11.91	5.48	
2025-01-13 02:31:30.06	11.90	5.50	
2025-01-13 02:31:30.26	11.88	5.51	
2025-01-13 02:31:30.47	11.86	5.52	
2025-01-13 02:31:30.68	11.84	5.53	
2025-01-13 02:31:30.88	11.82	5.55	
2025-01-13 02:31:31.08	11.80	5.56	
2025-01-13 02:31:31.29	11.78	5.57	
2025-01-13 02:31:31.50	11.76	5.58	
2025-01-13 02:31:31.70	11.75	5.59	
2025-01-13 02:31:31.91	11.73	5.61	
2025-01-13 02:31:32.11	11.71	5.62	
2025-01-13 02:31:32.32	11.69	5.63	
2025-01-13 02:31:32.52	11.67	5.64	
2025-01-13 02:31:32.73	11.65	5.65	
2025-01-13 02:31:32.93	11.63	5.66	
2025-01-13 02:31:33.14	11.61	5.68	
2025-01-13 02:31:33.35	11.59	5.69	
2025-01-13 02:31:33.55	11.58	5.70	
2025-01-13 02:31:33.76	11.56	5.71	
2025-01-13 02:31:33.96	11.54	5.73	
2025-01-13 02:31:34.17	11.52	5.74	
2025-01-13 02:31:34.37	11.50	5.75	
2025-01-13 02:31:34.58	11.48	5.76	
2025-01-13 02:31:34.78	11.46	5.77	
2025-01-13 02:31:34.99	11.44	5.79	
2025-01-13 02:31:35.19	11.42	5.80	
2025-01-13 02:31:35.40	11.40	5.81	
2025-01-13 02:31:35.60	11.39	5.82	
2025-01-13 02:31:35.81	11.37	5.83	
2025-01-13 02:31:36.01	11.35	5.85	
2025-01-13 02:31:36.23	11.33	5.86	
2025-01-13 02:31:36.44	11.31	5.87	
2025-01-13 02:31:36.65	11.29	5.88	
2025-01-13 02:31:36.85	11.27	5.89	
2025-01-13 02:31:37.06	11.25	5.91	
2025-01-13 02:31:37.26	11.23	5.92	
2025-01-13 02:31:37.47	11.21	5.93	
2025-01-13 02:31:37.67	11.19	5.94	
2025-01-13 02:31:37.88	11.17	5.96	
2025-01-13 02:31:38.08	11.15	5.97	
2025-01-13 02:31:38.29	11.13	5.98	
2025-01-13 02:31:38.50	11.11	5.99	
2025-01-13 02:31:38.70	11.09	6.00	
2025-01-13 02:31:38.91	11.07	6.02	
2025-01-13 02:31:39.11	11.06	6.03	
2025-01-13 02:31:39.32	11.04	6.04	
2025-01-13 02:31:39.53	11.02	6.05	
2025-01-13 02:31:39.74	11.00	6.06	
2025-01-13 02:31:39.95	10.98	6.08	
2025-01-13 02:31:40.15	10.96	6.09	
2025-01-13 02:31:40.36	10.94	6.10	
2025-01-13 02:31:40.56	10.92	6.11	
2025-01-13 02:31:40.77	10.90	6.13	
2025-01-13 02:31:40.97	10.88	6.14	
2025-01-13 02:31:41.18	10.86	6.15	
2025-01-13 02:31:41.38	10.84	6.16	
2025-01-13 02:31:41.59	10.82	6.17	
2025-01-13 02:31:41.80	10.80	6.19	
2025-01-13 02:31:42.00	10.78	6.20	
2025-01-13 02:31:42.21	10.76	6.21	
2025-01-13 02:31:42.42	10.74	6.22	
2025-01-13 02:31:42.63	10.72	6.24	
2025-01-13 02:31:42.84	10.70	6.25	
2025-01-13 02:31:43.04	10.68	6.26	
2025-01-13 02:31:43.25	10.66	6.27	
2025-01-13 02:31:43.45	10.64	6.28	
2025-01-13 02:31:43.66	10.62	6.30	
2025-01-13 02:31:43.86	10.60	6.31	
2025-01-13 02:31:44.07	10.58	6.32	
2025-01-13 02:31:44.27	10.56	6.33	
2025-01-13 02:31:44.48	10.54	6.34	
2025-01-13 02:31:44.68	10.52	6.36	
2025-01-13 02:31:44.89	10.50	6.37	
2025-01-13 02:31:45.09	10.48	6.38	
2025-01-13 02:31:45.30	10.46	6.39	
2025-01-13 02:31:45.50	10.44	6.40	
2025-01-13 02:31:45.71	10.42	6.42	
2025-01-13 02:31:45.91	10.40	6.43	
2025-01-13 02:31:46.12	10.38	6.44	
2025-01-13 02:31:46.32	10.36	6.45	
2025-01-13 02:31:46.53	10.34	6.47	
2025-01-13 02:31:46.73	10.32	6.48	
2025-01-13 02:31:46.94	10.30	6.49	
2025-01-13 02:31:47.14	10.28	6.50	
2025-01-13 02:31:47.35	10.26	6.51	
2025-01-13 02:31:47.56	10.24	6.53	
2025-01-13 02:31:47.76	10.22	6.54	
2025-01-13 02:31:47.96	10.20	6.55	
2025-01-13 02:31:48.17	10.18	6.56	
2025-01-13 02:31:48.38	10.16	6.58	
2025-01-13 02:31:48.58	10.14	6.59	
2025-01-13 02:31:48.79	10.12	6.60	
2025-01-13 02:31:49.01	10.10	6.61	
2025-01-13 02:31:49.21	10.08	6.63	
2025-01-13 02:31:49.42	10.06	6.64	
2025-01-13 02:31:49.62	10.04	6.65	
2025-01-13 02:31:49.83	10.02	6.66	
2025-01-13 02:31:50.05	10.00	6.68	
2025-01-13 02:31:50.25	9.98	6.69	
2025-01-13 02:31:50.46	9.96	6.70	
2025-01-13 02:31:50.66	9.94	6.71	
2025-01-13 02:31:50.87	9.92	6.72	
2025-01-13 02:31:51.07	9.90	6.74	
2025-01-13 02:31:51.28	9.88	6.75	
2025-01-13 02:31:51.48	9.86	6.76	
2025-01-13 02:31:51.69	9.84	6.77	
2025-01-13 02:31:51.90	9.81	6.79	
2025-01-13 02:31:52.10	9.79	6.80	
2025-01-13 02:31:52.30	9.77	6.81	
2025-01-13 02:31:52.51	9.75	6.82	
2025-01-13 02:31:52.72	9.73	6.83	
2025-01-13 02:31:52.92	9.71	6.85	
2025-01-13 02:31:53.13	9.69	6.86	
2025-01-13 02:31:53.33	9.67	6.87	
2025-01-13 02:31:53.54	9.65	6.88	
2025-01-13 02:31:53.74	9.63	6.89	
2025-01-13 02:31:53.95	9.61	6.91	
2025-01-13 02:31:54.15	9.59	6.92	
2025-01-13 02:31:54.36	9.57	6.93	
2025-01-13 02:31:54.56	9.55	6.94	
2025-01-13 02:31:54.76	9.53	6.96	
2025-01-13 02:31:54.97	9.51	6.97	
2025-01-13 02:31:55.17	9.49	6.98	
2025-01-13 02:31:55.38	9.46	6.99	
2025-01-13 02:31:55.58	9.44	7.00	
2025-01-13 02:31:55.79	9.42	7.02	
2025-01-13 02:31:55.99	9.40	7.03	
2025-01-13 02:31:56.20	9.38	7.04	
2025-01-13 02:31:56.40	9.36	7.05	
2025-01-13 02:31:56.61	9.34	7.07	
2025-01-13 02:31:56.81	9.32	7.08	
2025-01-13 02:31:57.02	9.30	7.09	
2025-01-13 02:31:57.22	9.28	7.10	
2025-01-13 02:31:57.42	9.26	7.12	
2025-01-13 02:31:57.63	9.24	7.13	
2025-01-13 02:31:57.84	9.21	7.14	
2025-01-13 02:31:58.04	9.19	7.15	
2025-01-13 02:31:58.25	9.17	7.16	
2025-01-13 02:31:58.45	9.15	7.18	
2025-01-13 02:31:58.66	9.13	7.19	
2025-01-13 02:31:58.86	9.11	7.20	
2025-01-13 02:31:59.07	9.09	7.21	
2025-01-13 02:31:59.28	9.07	7.23	
2025-01-13 02:31:59.48	9.05	7.24	
2025-01-13 02:31:59.69	9.02	7.25	
2025-01-13 02:31:59.89	9.00	7.26	
2025-01-13 02:32:00.09	8.98	7.28	
2025-01-13 02:32:00.30	8.96	7.29	
2025-01-13 02:32:00.51	8.94	7.30	
2025-01-13 02:32:00.71	8.92	7.31	
2025-01-13 02:32:00.92	8.90	7.32	
2025-01-13 02:32:01.12	8.88	7.34	
2025-01-13 02:32:01.32	8.86	7.35	
2025-01-13 02:32:01.53	8.83	7.36	
2025-01-13 02:32:01.73	8.81	7.37	
2025-01-13 02:32:01.94	8.79	7.39	
2025-01-13 02:32:02.14	8.77	7.40	
2025-01-13 02:32:02.35	8.75	7.41	
2025-01-13 02:32:02.56	8.73	7.42	
2025-01-13 02:32:02.76	8.71	7.44	
2025-01-13 02:32:02.96	8.68	7.45	
2025-01-13 02:32:03.17	8.66	7.46	
2025-01-13 02:32:03.38	8.64	7.47	
2025-01-13 02:32:03.58	8.62	7.48	
2025-01-13 02:32:03.79	8.60	7.50	
2025-01-13 02:32:04.00	8.58	7.51	
2025-01-13 02:32:04.21	8.55	7.52	
2025-01-13 02:32:04.41	8.53	7.53	
2025-01-13 02:32:04.62	8.51	7.55	
2025-01-13 02:32:04.83	8.49	7.56	
2025-01-13 02:32:05.03	8.47	7.57	
2025-01-13 02:32:05.24	8.45	7.58	
2025-01-13 02:32:05.44	8.42	7.60	
2025-01-13 02:32:05.65	8.40	7.61	
2025-01-13 02:32:05.85	8.38	7.62	
2025-01-13 02:32:06.06	8.36	7.63	
2025-01-13 02:32:06.27	8.34	7.65	
2025-01-13 02:32:06.47	8.32	7.66	
2025-01-13 02:32:06.68	8.29	7.67	
2025-01-13 02:32:06.88	8.27	7.68	
2025-01-13 02:32:07.09	8.25	7.70	
2025-01-13 02:32:07.29	8.23	7.71	
2025-01-13 02:32:07.50	8.21	7.72	
2025-01-13 02:32:07.70	8.18	7.73	
2025-01-13 02:32:07.91	8.16	7.75	
2025-01-13 02:32:08.11	8.14	7.76	
2025-01-13 02:32:08.32	8.12	7.77	
2025-01-13 02:32:08.53	8.10	7.78	
2025-01-13 02:32:08.73	8.07	7.80	
2025-01-13 02:32:08.94	8.05	7.81	
2025-01-13 02:32:09.14	8.03	7.82	
2025-01-13 02:32:09.35	8.01	7.83	
2025-01-13 02:32:09.55	7.99	7.85	
2025-01-13 02:32:09.76	7.96	7.86	
2025-01-13 02:32:09.97	7.94	7.87	
2025-01-13 02:32:10.18	7.92	7.88	
2025-01-13 02:32:10.38	7.90	7.90	
2025-01-13 02:32:10.59	7.87	7.91	
2025-01-13 02:32:10.79	7.85	7.92	
2025-01-13 02:32:11.00	7.83	7.93	
2025-01-13 02:32:11.20	7.81	7.95	
2025-01-13 02:32:11.41	7.79	7.96	
2025-01-13 02:32:11.61	7.76	7.97	
2025-01-13 02:32:11.82	7.74	7.98	
2025-01-13 02:32:12.02	7.72	7.99	
2025-01-13 02:32:12.23	7.70	8.01	
2025-01-13 02:32:12.43	7.67	8.02	
2025-01-13 02:32:12.64	7.65	8.03	
2025-01-13 02:32:12.84	7.63	8.04	
2025-01-13 02:32:13.05	7.61	8.06	
2025-01-13 02:32:13.26	7.58	8.07	
2025-01-13 02:32:13.46	7.56	8.08	
2025-01-13 02:32:13.67	7.54	8.09	
2025-01-13 02:32:13.87	7.52	8.11	
2025-01-13 02:32:14.08	7.49	8.12	
2025-01-13 02:32:14.28	7.47	8.13	
2025-01-13 02:32:14.49	7.45	8.14	
2025-01-13 02:32:14.69	7.43	8.16	
2025-01-13 02:32:14.90	7.40	8.17	
2025-01-13 02:32:15.10	7.38	8.18	
2025-01-13 02:32:15.31	7.36	8.19	
2025-01-13 02:32:15.51	7.34	8.21	
2025-01-13 02:32:15.72	7.31	8.22	
2025-01-13 02:32:15.92	7.29	8.23	
2025-01-13 02:32:16.13	7.27	8.24	
2025-01-13 02:32:16.33	7.25	8.26	
2025-01-13 02:32:16.54	7.22	8.27	
2025-01-13 02:32:16.74	7.20	8.28	
2025-01-13 02:32:16.95	7.18	8.29	
2025-01-13 02:32:17.15	7.16	8.31	
2025-01-13 02:32:17.36	7.13	8.32	
2025-01-13 02:32:17.56	7.11	8.33	
2025-01-13 02:32:17.77	7.09	8.34	
2025-01-13 02:32:17.97	7.06	8.36	
2025-01-13 02:32:18.18	7.04	8.37	
2025-01-13 02:32:18.38	7.02	8.38	
2025-01-13 02:32:18.59	6.99	8.39	
2025-01-13 02:32:18.79	6.97	8.41	
2025-01-13 02:32:19.00	6.95	8.42	
2025-01-13 02:32:19.20	6.93	8.43	
2025-01-13 02:32:19.41	6.90	8.44	
2025-01-13 02:32:19.61	6.88	8.46	
2025-01-13 02:32:19.82	6.86	8.47	
2025-01-13 02:32:20.03	6.83	8.48	
2025-01-13 02:32:20.24	6.81	8.49	
2025-01-13 02:32:20.45	6.79	8.51	
2025-01-13 02:32:20.65	6.76	8.52	
2025-01-13 02:32:20.86	6.74	8.53	
2025-01-13 02:32:21.06	6.72	8.54	
2025-01-13 02:32:21.27	6.69	8.56	
2025-01-13 02:32:21.47	6.67	8.57	
2025-01-13 02:32:21.68	6.65	8.58	
2025-01-13 02:32:21.88	6.62	8.59	
2025-01-13 02:32:22.09	6.60	8.61	
2025-01-13 02:32:22.29	6.58	8.62	
2025-01-13 02:32:22.50	6.55	8.63	
2025-01-13 02:32:22.70	6.53	8.64	
2025-01-13 02:32:22.91	6.51	8.66	
2025-01-13 02:32:23.12	6.48	8.67	
2025-01-13 02:32:23.33	6.46	8.68	
2025-01-13 02:32:23.54	6.44	8.70	
2025-01-13 02:32:23.74	6.41	8.71	
2025-01-13 02:32:23.95	6.39	8.72	
2025-01-13 02:32:24.15	6.37	8.73	
2025-01-13 02:32:24.36	6.34	8.75	
2025-01-13 02:32:24.57	6.32	8.76	
2025-01-13 02:32:24.77	6.29	8.77	
2025-01-13 02:32:24.98	6.27	8.78	
2025-01-13 02:32:25.18	6.25	8.80	
2025-01-13 02:32:25.39	6.22	8.81	
2025-01-13 02:32:25.59	6.20	8.82	
2025-01-13 02:32:25.80	6.18	8.83	
2025-01-13 02:32:26.00	6.15	8.85	
2025-01-13 02:32:26.21	6.13	8.86	
2025-01-13 02:32:26.41	6.11	8.87	
2025-01-13 02:32:26.62	6.08	8.88	
2025-01-13 02:32:26.82	6.06	8.90	
2025-01-13 02:32:27.03	6.03	8.91	
2025-01-13 02:32:27.23	6.01	8.92	
2025-01-13 02:32:27.45	5.99	8.94	
2025-01-13 02:32:27.66	5.96	8.95	
2025-01-13 02:32:27.86	5.94	8.96	
2025-01-13 02:32:28.07	5.91	8.97	
2025-01-13 02:32:28.27	5.89	8.99	
2025-01-13 02:32:28.48	5.87	9.00	
2025-01-13 02:32:28.68	5.84	9.01	
2025-01-13 02:32:28.89	5.82	9.02	
2025-01-13 02:32:29.09	5.79	9.04	
2025-01-13 02:32:29.30	5.77	9.05	
2025-01-13 02:32:29.50	5.75	9.06	
2025-01-13 02:32:29.71	5.72	9.07	
2025-01-13 02:32:29.91	5.70	9.09	
2025-01-13 02:32:30.12	5.67	9.10	
2025-01-13 02:32:30.32	5.65	9.11	
2025-01-13 02:32:30.53	5.63	9.12	
2025-01-13 02:32:30.73	5.60	9.14	
2025-01-13 02:32:30.93	5.58	9.15	
2025-01-13 02:32:31.14	5.55	9.16	
2025-01-13 02:32:31.35	5.53	9.17	
2025-01-13 02:32:31.55	5.50	9.19	
2025-01-13 02:32:31.75	5.48	9.20	
2025-01-13 02:32:31.96	5.46	9.21	
2025-01-13 02:32:32.16	5.43	9.22	
2025-01-13 02:32:32.37	5.41	9.24	
2025-01-13 02:32:32.58	5.38	9.25	
2025-01-13 02:32:32.78	5.36	9.26	
2025-01-13 02:32:32.98	5.34	9.27	
2025-01-13 02:32:33.19	5.31	9.29	
2025-01-13 02:32:33.39	5.29	9.30	
2025-01-13 02:32:33.60	5.26	9.31	
2025-01-13 02:32:33.80	5.24	9.32	
2025-01-13 02:32:34.01	5.21	9.34	
2025-01-13 02:32:34.22	5.19	9.35	
2025-01-13 02:32:34.42	5.16	9.36	
2025-01-13 02:32:34.63	5.14	9.38	
2025-01-13 02:32:34.84	5.11	9.39	
2025-01-13 02:32:35.04	5.09	9.40	
2025-01-13 02:32:35.25	5.06	9.41	
2025-01-13 02:32:35.45	5.04	9.43	
2025-01-13 02:32:35.66	5.01	9.44	
2025-01-13 02:32:35.87	4.99	9.45	
2025-01-13 02:32:36.07	4.97	9.46	
2025-01-13 02:32:36.28	4.94	9.48	
2025-01-13 02:32:36.48	4.92	9.49	
2025-01-13 02:32:36.69	4.89	9.50	
2025-01-13 02:32:36.89	4.87	9.51	
2025-01-13 02:32:37.10	4.84	9.53	
2025-01-13 02:32:37.30	4.82	9.54	
2025-01-13 02:32:37.51	4.79	9.55	
2025-01-13 02:32:37.72	4.77	9.57	
2025-01-13 02:32:37.92	4.74	9.58	
2025-01-13 02:32:38.12	4.72	9.59	
2025-01-13 02:32:38.33	4.69	9.60	
2025-01-13 02:32:38.53	4.67	9.62	
2025-01-13 02:32:38.74	4.64	9.63	
2025-01-13 02:32:38.94	4.62	9.64	
2025-01-13 02:32:39.15	4.59	9.65	
2025-01-13 02:32:39.35	4.57	9.67	
2025-01-13 02:32:39.56	4.54	9.68	
2025-01-13 02:32:39.77	4.52	9.69	
2025-01-13 02:32:39.97	4.49	9.70	
2025-01-13 02:32:40.18	4.47	9.72	
2025-01-13 02:32:40.38	4.44	9.73	
2025-01-13 02:32:40.59	4.41	9.74	
2025-01-13 02:32:40.79	4.39	9.75	
2025-01-13 02:32:41.00	4.36	9.77	
2025-01-13 02:32:41.20	4.34	9.78	
2025-01-13 02:32:41.41	4.31	9.79	
2025-01-13 02:32:41.61	4.29	9.81	
2025-01-13 02:32:41.82	4.26	9.82	
2025-01-13 02:32:42.03	4.24	9.83	
2025-01-13 02:32:42.23	4.21	9.84	
2025-01-13 02:32:42.44	4.19	9.86	
2025-01-13 02:32:42.64	4.16	9.87	
2025-01-13 02:32:42.85	4.14	9.88	
2025-01-13 02:32:43.05	4.11	9.89	
2025-01-13 02:32:43.26	4.08	9.91	
2025-01-13 02:32:43.48	4.06	9.92	
2025-01-13 02:32:43.68	4.03	9.93	
2025-01-13 02:32:43.89	4.01	9.95	
2025-01-13 02:32:44.10	3.98	9.96	
2025-01-13 02:32:44.30	3.95	9.97	
2025-01-13 02:32:44.50	3.93	9.98	
2025-01-13 02:32:44.71	3.90	10.00	
2025-01-13 02:32:44.92	3.88	10.01	
2025-01-13 02:32:45.12	3.85	10.02	
2025-01-13 02:32:45.33	3.83	10.03	
2025-01-13 02:32:45.53	3.80	10.05	
2025-01-13 02:32:45.74	3.77	10.06	
2025-01-13 02:32:45.94	3.75	10.07	
2025-01-13 02:32:46.15	3.72	10.09	
2025-01-13 02:32:46.35	3.70	10.10	
2025-01-13 02:32:46.56	3.67	10.11	
2025-01-13 02:32:46.76	3.65	10.12	
2025-01-13 02:32:46.97	3.62	10.14	
2025-01-13 02:32:47.17	3.59	10.15	
2025-01-13 02:32:47.38	3.57	10.16	
2025-01-13 02:32:47.58	3.54	10.17	
2025-01-13 02:32:47.79	3.52	10.19	
2025-01-13 02:32:47.99	3.49	10.20	
2025-01-13 02:32:48.20	3.46	10.21	
2025-01-13 02:32:48.41	3.44	10.23	
2025-01-13 02:32:48.61	3.41	10.24	
2025-01-13 02:32:48.82	3.38	10.25	
2025-01-13 02:32:49.02	3.36	10.26	
2025-01-13 02:32:49.23	3.33	10.28	
2025-01-13 02:32:49.43	3.31	10.29	
2025-01-13 02:32:49.64	3.28	10.30	
2025-01-13 02:32:49.84	3.25	10.31	
2025-01-13 02:32:50.05	3.23	10.33	
2025-01-13 02:32:50.25	3.20	10.34	
2025-01-13 02:32:50.46	3.17	10.35	
2025-01-13 02:32:50.66	3.15	10.36	
2025-01-13 02:32:50.87	3.12	10.38	
2025-01-13 02:32:51.07	3.10	10.39	
2025-01-13 02:32:51.28	3.07	10.40	
2025-01-13 02:32:51.48	3.04	10.42	
2025-01-13 02:32:51.69	3.02	10.43	
2025-01-13 02:32:51.89	2.99	10.44	
2025-01-13 02:32:52.10	2.96	10.45	
2025-01-13 02:32:52.30	2.94	10.47	
2025-01-13 02:32:52.51	2.91	10.48	
2025-01-13 02:32:52.71	2.88	10.49	
2025-01-13 02:32:52.92	2.86	10.50	
2025-01-13 02:32:53.12	2.83	10.52	
2025-01-13 02:32:53.33	2.80	10.53	
2025-01-13 02:32:53.53	2.78	10.54	
2025-01-13 02:32:53.74	2.75	10.55	
2025-01-13 02:32:53.94	2.72	10.57	
2025-01-13 02:32:54.15	2.70	10.58	
2025-01-13 02:32:54.35	2.67	10.59	
2025-01-13 02:32:54.56	2.64	10.61	
2025-01-13 02:32:54.76	2.62	10.62	
2025-01-13 02:32:54.97	2.59	10.63	
2025-01-13 02:32:55.17	2.56	10.64	
2025-01-13 02:32:55.38	2.54	10.66	
2025-01-13 02:32:55.58	2.51	10.67	
2025-01-13 02:32:55.79	2.48	10.68	
2025-01-13 02:32:56.00	2.46	10.69	
2025-01-13 02:32:56.20	2.43	10.71	
2025-01-13 02:32:56.41	2.40	10.72	
2025-01-13 02:32:56.61	2.37	10.73	
2025-01-13 02:32:56.82	2.35	10.75	
2025-01-13 02:32:57.03	2.32	10.76	
2025-01-13 02:32:57.23	2.29	10.77	
2025-01-13 02:32:57.44	2.27	10.78	
2025-01-13 02:32:57.64	2.24	10.80	
2025-01-13 02:32:57.85	2.21	10.81	
2025-01-13 02:32:58.06	2.18	10.82	
2025-01-13 02:32:58.26	2.16	10.83	
2025-01-13 02:32:58.46	2.13	10.85	
2025-01-13 02:32:58.67	2.10	10.86	
2025-01-13 02:32:58.87	2.08	10.87	
2025-01-13 02:32:59.08	2.05	10.89	
2025-01-13 02:32:59.28	2.02	10.90	
2025-01-13 02:32:59.49	1.99	10.91	
2025-01-13 02:32:59.70	1.96	10.92	
2025-01-13 02:32:59.90	1.94	10.94	
2025-01-13 02:33:00.11	1.91	10.95	
2025-01-13 02:33:00.31	1.88	10.96	
2025-01-13 02:33:00.51	1.86	10.97	
2025-01-13 02:33:00.72	1.83	10.99	
2025-01-13 02:33:00.93	1.80	11.00	
2025-01-13 02:33:01.13	1.77	11.01	
2025-01-13 02:33:01.34	1.74	11.03	
2025-01-13 02:33:01.54	1.72	11.04	
2025-01-13 02:33:01.75	1.69	11.05	
2025-01-13 02:33:01.95	1.66	11.06	
2025-01-13 02:33:02.16	1.63	11.08	
2025-01-13 02:33:02.36	1.61	11.09	
2025-01-13 02:33:02.57	1.58	11.10	
2025-01-13 02:33:02.77	1.55	11.11	
2025-01-13 02:33:02.98	1.52	11.13	
2025-01-13 02:33:03.18	1.50	11.14	
2025-01-13 02:33:03.39	1.47	11.15	
2025-01-13 02:33:03.60	1.44	11.17	
2025-01-13 02:33:03.80	1.41	11.18	
2025-01-13 02:33:04.01	1.38	11.19	
2025-01-13 02:33:04.21	1.36	11.20	
2025-01-13 02:33:04.42	1.33	11.22	
2025-01-13 02:33:04.62	1.30	11.23	
2025-01-13 02:33:04.83	1.27	11.24	
2025-01-13 02:33:05.03	1.24	11.25	
2025-01-13 02:33:05.24	1.22	11.27	
2025-01-13 02:33:05.45	1.19	11.28	
2025-01-13 02:33:05.65	1.16	11.29	
2025-01-13 02:33:05.85	1.13	11.30	
2025-01-13 02:33:06.06	1.10	11.32	
2025-01-13 02:33:06.27	1.07	11.33	
2025-01-13 02:33:06.47	1.05	11.34	
2025-01-13 02:33:06.67	1.02	11.36	
2025-01-13 02:33:06.88	0.99	11.37	
2025-01-13 02:33:07.08	0.96	11.38	
2025-01-13 02:33:07.29	0.93	11.39	
2025-01-13 02:33:07.49	0.91	11.41	
2025-01-13 02:33:07.70	0.88	11.42	
2025-01-13 02:33:07.90	0.85	11.43	
2025-01-13 02:33:08.11	0.82	11.44	
2025-01-13 02:33:08.32	0.79	11.46	
2025-01-13 02:33:08.52	0.76	11.47	
2025-01-13 02:33:08.73	0.73	11.48	
2025-01-13 02:33:08.93	0.71	11.50	
2025-01-13 02:33:09.14	0.68	11.51	
2025-01-13 02:33:09.34	0.65	11.52	
2025-01-13 02:33:09.55	0.62	11.53	
2025-01-13 02:33:09.75	0.59	11.55	
2025-01-13 02:33:09.96	0.56	11.56	
2025-01-13 02:33:10.17	0.53	11.57	
2025-01-13 02:33:10.37	0.51	11.58	
2025-01-13 02:33:10.58	0.48	11.60	
2025-01-13 02:33:10.78	0.45	11.61	
2025-01-13 02:33:10.99	0.42	11.62	
2025-01-13 02:33:11.19	0.39	11.63	
2025-01-13 02:33:11.39	0.36	11.65	
2025-01-13 02:33:11.60	0.33	11.66	
2025-01-13 02:33:11.81	0.30	11.67	
2025-01-13 02:33:12.01	0.28	11.69	
2025-01-13 02:33:12.22	0.25	11.70	
2025-01-13 02:33:12.42	0.22	11.71	
2025-01-13 02:33:12.63	0.19	11.72	
2025-01-13 02:33:12.83	0.16	11.74	
2025-01-13 02:33:13.04	0.13	11.75	
2025-01-13 02:33:13.24	0.10	11.76	
2025-01-13 02:33:13.44	0.07	11.77	
2025-01-13 02:33:13.65	0.04	11.79	
2025-01-13 02:33:13.85	0.02	11.80	
2025-01-13 02:33:14.06	359.99	11.81	
2025-01-13 02:33:14.26	359.96	11.82	
2025-01-13 02:33:14.47	359.93	11.84	
2025-01-13 02:33:14.67	359.90	11.85	
2025-01-13 02:33:14.88	359.87	11.86	
2025-01-13 02:33:15.09	359.84	11.88	
2025-01-13 02:33:15.29	359.81	11.89	
2025-01-13 02:33:15.49	359.78	11.90	
2025-01-13 02:33:15.70	359.75	11.91	
2025-01-13 02:33:15.90	359.72	11.93	
2025-01-13 02:33:16.11	359.69	11.94	
2025-01-13 02:33:16.32	359.66	11.95	
2025-01-13 02:33:16.52	359.63	11.96	
2025-01-13 02:33:16.73	359.60	11.98	
2025-01-13 02:33:16.93	359.58	11.99	
2025-01-13 02:33:17.14	359.54	12.00	
2025-01-13 02:33:17.34	359.52	12.01	
2025-01-13 02:33:17.55	359.49	12.03	
2025-01-13 02:33:17.75	359.46	12.04	
2025-01-13 02:33:17.96	359.43	12.05	
2025-01-13 02:33:18.16	359.40	12.07	
2025-01-13 02:33:18.37	359.37	12.08	
2025-01-13 02:33:18.57	359.34	12.09	
2025-01-13 02:33:18.78	359.31	12.10	
2025-01-13 02:33:18.99	359.28	12.12	
2025-01-13 02:33:19.19	359.25	12.13	
2025-01-13 02:33:19.40	359.22	12.14	
2025-01-13 02:33:19.60	359.19	12.15	
2025-01-13 02:33:19.81	359.16	12.17	
2025-01-13 02:33:20.01	359.13	12.18	
2025-01-13 02:33:20.22	359.10	12.19	
2025-01-13 02:33:20.42	359.07	12.21	
2025-01-13 02:33:20.63	359.04	12.22	
2025-01-13 02:33:20.83	359.01	12.23	
2025-01-13 02:33:21.04	358.98	12.24	
2025-01-13 02:33:21.25	358.95	12.26	
2025-01-13 02:33:21.45	358.92	12.27	
2025-01-13 02:33:21.66	358.89	12.28	
2025-01-13 02:33:21.88	358.86	12.30	
2025-01-13 02:33:22.08	358.83	12.31	
2025-01-13 02:33:22.29	358.79	12.32	
2025-01-13 02:33:22.50	358.76	12.33	
2025-01-13 02:33:22.70	358.73	12.35	
2025-01-13 02:33:22.90	358.70	12.36	
2025-01-13 02:33:23.11	358.67	12.37	
2025-01-13 02:33:23.31	358.64	12.38	
2025-01-13 02:33:23.52	358.61	12.40	
2025-01-13 02:33:23.73	358.58	12.41	
2025-01-13 02:33:23.93	358.55	12.42	
2025-01-13 02:33:24.13	358.52	12.43	
2025-01-13 02:33:24.34	358.49	12.45	
2025-01-13 02:33:24.55	358.46	12.46	
2025-01-13 02:33:24.75	358.43	12.47	
2025-01-13 02:33:24.95	358.40	12.48	
2025-01-13 02:33:25.16	358.37	12.50	
2025-01-13 02:33:25.37	358.34	12.51	
2025-01-13 02:33:25.57	358.31	12.52	
2025-01-13 02:33:25.78	358.28	12.54	
2025-01-13 02:33:25.98	358.25	12.55	
2025-01-13 02:33:26.19	358.22	12.56	
2025-01-13 02:33:26.39	358.19	12.57	
2025-01-13 02:33:26.60	358.15	12.59	
2025-01-13 02:33:26.80	358.12	12.60	
2025-01-13 02:33:27.01	358.09	12.61	
2025-01-13 02:33:27.21	358.06	12.62	
2025-01-13 02:33:27.42	358.03	12.64	
2025-01-13 02:33:27.62	358.00	12.65	
2025-01-13 02:33:27.83	357.97	12.66	
2025-01-13 02:33:28.04	357.94	12.67	
2025-01-13 02:33:28.25	357.91	12.69	
2025-01-13 02:33:28.46	357.87	12.70	
2025-01-13 02:33:28.67	357.84	12.71	
2025-01-13 02:33:28.87	357.81	12.72	
2025-01-13 02:33:29.08	357.78	12.74	
2025-01-13 02:33:29.28	357.75	12.75	
2025-01-13 02:33:29.49	357.72	12.76	
2025-01-13 02:33:29.69	357.69	12.78	
2025-01-13 02:33:29.90	357.66	12.79	
2025-01-13 02:33:30.10	357.63	12.80	
2025-01-13 02:33:30.31	357.59	12.81	
2025-01-13 02:33:30.51	357.56	12.83	
2025-01-13 02:33:30.72	357.53	12.84	
2025-01-13 02:33:30.92	357.50	12.85	
2025-01-13 02:33:31.13	357.47	12.86	
2025-01-13 02:33:31.33	357.44	12.88	
2025-01-13 02:33:31.54	357.41	12.89	
2025-01-13 02:33:31.75	357.37	12.90	
2025-01-13 02:33:31.95	357.34	12.91	
2025-01-13 02:33:32.15	357.31	12.93	
2025-01-13 02:33:32.36	357.28	12.94	
2025-01-13 02:33:32.56	357.25	12.95	
2025-01-13 02:33:32.77	357.22	12.96	
2025-01-13 02:33:32.98	357.18	12.98	
2025-01-13 02:33:33.18	357.15	12.99	
2025-01-13 02:33:33.39	357.12	13.00	
2025-01-13 02:33:33.59	357.09	13.01	
2025-01-13 02:33:33.80	357.06	13.03	
2025-01-13 02:33:34.00	357.03	13.04	
2025-01-13 02:33:34.21	356.99	13.05	
2025-01-13 02:33:34.42	356.96	13.06	
2025-01-13 02:33:34.62	356.93	13.08	
2025-01-13 02:33:34.83	356.90	13.09	
2025-01-13 02:33:35.06	356.86	13.10	
2025-01-13 02:33:35.26	356.83	13.12	
2025-01-13 02:33:35.47	356.80	13.13	
2025-01-13 02:33:35.69	356.76	13.14	
2025-01-13 02:33:35.89	356.73	13.15	
2025-01-13 02:33:36.10	356.70	13.17	
2025-01-13 02:33:36.30	356.67	13.18	
2025-01-13 02:33:36.50	356.64	13.19	
2025-01-13 02:33:36.71	356.60	13.20	
2025-01-13 02:33:36.91	356.57	13.22	
2025-01-13 02:33:37.12	356.54	13.23	
2025-01-13 02:33:37.33	356.51	13.24	
2025-01-13 02:33:37.53	356.48	13.25	
2025-01-13 02:33:37.74	356.44	13.27	
2025-01-13 02:33:37.94	356.41	13.28	
2025-01-13 02:33:38.15	356.38	13.29	
2025-01-13 02:33:38.35	356.35	13.30	
2025-01-13 02:33:38.56	356.31	13.32	
2025-01-13 02:33:38.77	356.28	13.33	
2025-01-13 02:33:38.97	356.25	13.34	
2025-01-13 02:33:39.17	356.22	13.35	
2025-01-13 02:33:39.38	356.18	13.37	
2025-01-13 02:33:39.59	356.15	13.38	
2025-01-13 02:33:39.79	356.12	13.39	
2025-01-13 02:33:39.99	356.09	13.40	
2025-01-13 02:33:40.20	356.05	13.42	
2025-01-13 02:33:40.41	356.02	13.43	
2025-01-13 02:33:40.61	355.99	13.44	
2025-01-13 02:33:40.82	355.96	13.45	
2025-01-13 02:33:41.02	355.92	13.47	
2025-01-13 02:33:41.23	355.89	13.48	
2025-01-13 02:33:41.43	355.86	13.49	
2025-01-13 02:33:41.64	355.82	13.50	
2025-01-13 02:33:41.85	355.79	13.52	
2025-01-13 02:33:42.05	355.76	13.53	
2025-01-13 02:33:42.26	355.73	13.54	
2025-01-13 02:33:42.46	355.69	13.55	
2025-01-13 02:33:42.67	355.66	13.57	
2025-01-13 02:33:42.87	355.63	13.58	
2025-01-13 02:33:43.08	355.59	13.59	
2025-01-13 02:33:43.28	355.56	13.60	
2025-01-13 02:33:43.49	355.53	13.62	
2025-01-13 02:33:43.69	355.50	13.63	
2025-01-13 02:33:43.90	355.46	13.64	
2025-01-13 02:33:44.11	355.43	13.65	
2025-01-13 02:33:44.31	355.40	13.67	
2025-01-13 02:33:44.52	355.36	13.68	
2025-01-13 02:33:44.72	355.33	13.69	
2025-01-13 02:33:44.93	355.30	13.70	
2025-01-13 02:33:45.14	355.26	13.72	
2025-01-13 02:33:45.34	355.23	13.73	
2025-01-13 02:33:45.55	355.19	13.74	
2025-01-13 02:33:45.75	355.16	13.75	
2025-01-13 02:33:45.96	355.13	13.77	
2025-01-13 02:33:46.16	355.10	13.78	
2025-01-13 02:33:46.37	355.06	13.79	
2025-01-13 02:33:46.57	355.03	13.80	
2025-01-13 02:33:46.78	354.99	13.81	
2025-01-13 02:33:46.98	354.96	13.83	
2025-01-13 02:33:47.19	354.93	13.84	
2025-01-13 02:33:47.39	354.89	13.85	
2025-01-13 02:33:47.60	354.86	13.86	
2025-01-13 02:33:47.80	354.83	13.88	
2025-01-13 02:33:48.01	354.79	13.89	
2025-01-13 02:33:48.22	354.76	13.90	
2025-01-13 02:33:48.42	354.73	13.91	
2025-01-13 02:33:48.62	354.69	13.93	
2025-01-13 02:33:48.83	354.66	13.94	
2025-01-13 02:33:49.04	354.62	13.95	
2025-01-13 02:33:49.24	354.59	13.96	
2025-01-13 02:33:49.45	354.56	13.97	
2025-01-13 02:33:49.65	354.52	13.99	
2025-01-13 02:33:49.86	354.49	14.00	
2025-01-13 02:33:50.06	354.46	14.01	
2025-01-13 02:33:50.27	354.42	14.02	
2025-01-13 02:33:50.47	354.39	14.04	
2025-01-13 02:33:50.68	354.35	14.05	
2025-01-13 02:33:50.88	354.32	14.06	
2025-01-13 02:33:51.09	354.28	14.07	
2025-01-13 02:33:51.30	354.25	14.09	
2025-01-13 02:33:51.50	354.22	14.10	
2025-01-13 02:33:51.71	354.18	14.11	
2025-01-13 02:33:51.91	354.15	14.12	
2025-01-13 02:33:52.12	354.11	14.13	
2025-01-13 02:33:52.33	354.08	14.15	
2025-01-13 02:33:52.53	354.04	14.16	
2025-01-13 02:33:52.74	354.01	14.17	
2025-01-13 02:33:52.94	353.98	14.18	
2025-01-13 02:33:53.15	353.94	14.20	
2025-01-13 02:33:53.35	353.91	14.21	
2025-01-13 02:33:53.56	353.87	14.22	
2025-01-13 02:33:53.76	353.84	14.23	
2025-01-13 02:33:53.97	353.80	14.25	
2025-01-13 02:33:54.17	353.77	14.26	
2025-01-13 02:33:54.38	353.73	14.27	
2025-01-13 02:33:54.58	353.70	14.28	
2025-01-13 02:33:54.79	353.66	14.29	
2025-01-13 02:33:54.99	353.63	14.31	
2025-01-13 02:33:55.20	353.60	14.32	
2025-01-13 02:33:55.41	353.56	14.33	
2025-01-13 02:33:55.61	353.53	14.34	
2025-01-13 02:33:55.82	353.49	14.36	
2025-01-13 02:33:56.02	353.46	14.37	
2025-01-13 02:33:56.23	353.42	14.38	
2025-01-13 02:33:56.43	353.39	14.39	
2025-01-13 02:33:56.64	353.35	14.40	
2025-01-13 02:33:56.85	353.32	14.42	
2025-01-13 02:33:57.05	353.28	14.43	
2025-01-13 02:33:57.26	353.25	14.44	
2025-01-13 02:33:57.46	353.21	14.45	
2025-01-13 02:33:57.67	353.18	14.46	
2025-01-13 02:33:57.88	353.14	14.48	
2025-01-13 02:33:58.08	353.11	14.49	
2025-01-13 02:33:58.28	353.07	14.50	
2025-01-13 02:33:58.49	353.04	14.51	
2025-01-13 02:33:58.69	353.00	14.53	
2025-01-13 02:33:58.90	352.97	14.54	
2025-01-13 02:33:59.10	352.93	14.55	
2025-01-13 02:33:59.31	352.89	14.56	
2025-01-13 02:33:59.51	352.86	14.57	
2025-01-13 02:33:59.72	352.82	14.59	
2025-01-13 02:33:59.92	352.79	14.60	
2025-01-13 02:34:00.13	352.75	14.61	
2025-01-13 02:34:00.34	352.72	14.62	
2025-01-13 02:34:00.55	352.68	14.63	
2025-01-13 02:34:00.76	352.64	14.65	
2025-01-13 02:34:00.96	352.61	14.66	
2025-01-13 02:34:01.16	352.58	14.67	
2025-01-13 02:34:01.37	352.54	14.68	
2025-01-13 02:34:01.58	352.50	14.70	
2025-01-13 02:34:01.78	352.47	14.71	
2025-01-13 02:34:01.99	352.43	14.72	
2025-01-13 02:34:02.19	352.40	14.73	
2025-01-13 02:34:02.40	352.36	14.74	
2025-01-13 02:34:02.60	352.33	14.75	
2025-01-13 02:34:02.81	352.29	14.77	
2025-01-13 02:34:03.01	352.25	14.78	
2025-01-13 02:34:03.22	352.22	14.79	
2025-01-13 02:34:03.42	352.18	14.80	
2025-01-13 02:34:03.63	352.15	14.82	
2025-01-13 02:34:03.84	352.11	14.83	
2025-01-13 02:34:04.04	352.07	14.84	
2025-01-13 02:34:04.25	352.04	14.85	
2025-01-13 02:34:04.45	352.00	14.86	
2025-01-13 02:34:04.67	351.96	14.88	
2025-01-13 02:34:04.88	351.93	14.89	
2025-01-13 02:34:05.08	351.89	14.90	
2025-01-13 02:34:05.29	351.85	14.91	
2025-01-13 02:34:05.49	351.82	14.92	
2025-01-13 02:34:05.70	351.78	14.94	
2025-01-13 02:34:05.90	351.75	14.95	
2025-01-13 02:34:06.11	351.71	14.96	
2025-01-13 02:34:06.32	351.67	14.97	
2025-01-13 02:34:06.52	351.64	14.98	
2025-01-13 02:34:06.73	351.60	15.00	
2025-01-13 02:34:06.93	351.56	15.01	
2025-01-13 02:34:07.14	351.53	15.02	
2025-01-13 02:34:07.34	351.49	15.03	
2025-01-13 02:34:07.55	351.45	15.04	
2025-01-13 02:34:07.76	351.42	15.06	
2025-01-13 02:34:07.96	351.38	15.07	
2025-01-13 02:34:08.17	351.34	15.08	
2025-01-13 02:34:08.37	351.31	15.09	
2025-01-13 02:34:08.58	351.27	15.10	
2025-01-13 02:34:08.78	351.24	15.11	
2025-01-13 02:34:08.98	351.20	15.13	
2025-01-13 02:34:09.19	351.16	15.14	
2025-01-13 02:34:09.40	351.13	15.15	
2025-01-13 02:34:09.60	351.09	15.16	
2025-01-13 02:34:09.81	351.05	15.17	
2025-01-13 02:34:10.01	351.02	15.19	
2025-01-13 02:34:10.22	350.98	15.20	
2025-01-13 02:34:10.42	350.94	15.21	
2025-01-13 02:34:10.63	350.90	15.22	
2025-01-13 02:34:10.84	350.87	15.23	
2025-01-13 02:34:11.04	350.83	15.24	
2025-01-13 02:34:11.25	350.79	15.26	
2025-01-13 02:34:11.45	350.76	15.27	
2025-01-13 02:34:11.66	350.72	15.28	
2025-01-13 02:34:11.86	350.68	15.29	
2025-01-13 02:34:12.07	350.64	15.30	
2025-01-13 02:34:12.27	350.61	15.31	
2025-01-13 02:34:12.48	350.57	15.33	
2025-01-13 02:34:12.68	350.53	15.34	
2025-01-13 02:34:12.89	350.50	15.35	
2025-01-13 02:34:13.09	350.46	15.36	
2025-01-13 02:34:13.30	350.42	15.37	
2025-01-13 02:34:13.50	350.39	15.39	
2025-01-13 02:34:13.71	350.35	15.40	
2025-01-13 02:34:13.92	350.31	15.41	
2025-01-13 02:34:14.12	350.27	15.42	
2025-01-13 02:34:14.33	350.23	15.43	
2025-01-13 02:34:14.53	350.20	15.44	
2025-01-13 02:34:14.74	350.16	15.46	
2025-01-13 02:34:14.95	350.12	15.47	
2025-01-13 02:34:15.15	350.08	15.48	
2025-01-13 02:34:15.36	350.05	15.49	
2025-01-13 02:34:15.57	350.01	15.50	
2025-01-13 02:34:15.78	349.97	15.51	
2025-01-13 02:34:15.98	349.93	15.53	
2025-01-13 02:34:16.19	349.89	15.54	
2025-01-13 02:34:16.39	349.86	15.55	
2025-01-13 02:34:16.60	349.82	15.56	
2025-01-13 02:34:16.80	349.78	15.57	
2025-01-13 02:34:17.01	349.74	15.58	
2025-01-13 02:34:17.22	349.70	15.60	
2025-01-13 02:34:17.42	349.67	15.61	
2025-01-13 02:34:17.63	349.63	15.62	
2025-01-13 02:34:17.83	349.59	15.63	
2025-01-13 02:34:18.04	349.55	15.64	
2025-01-13 02:34:18.24	349.52	15.65	
2025-01-13 02:34:18.45	349.48	15.67	
2025-01-13 02:34:18.65	349.44	15.68	
2025-01-13 02:34:18.86	349.40	15.69	
2025-01-13 02:34:19.06	349.36	15.70	
2025-01-13 02:34:19.27	349.32	15.71	
2025-01-13 02:34:19.47	349.29	15.72	
2025-01-13 02:34:19.68	349.25	15.73	
2025-01-13 02:34:19.89	349.21	15.75	
2025-01-13 02:34:20.09	349.17	15.76	
2025-01-13 02:34:20.30	349.13	15.77	
2025-01-13 02:34:20.50	349.10	15.78	
2025-01-13 02:34:20.71	349.06	15.79	
2025-01-13 02:34:20.91	349.02	15.80	
2025-01-13 02:34:21.12	348.98	15.81	
2025-01-13 02:34:21.32	348.94	15.83	
2025-01-13 02:34:21.53	348.90	15.84	
2025-01-13 02:34:21.75	348.86	15.85	
2025-01-13 02:34:21.95	348.82	15.86	
2025-01-13 02:34:22.16	348.78	15.87	
2025-01-13 02:34:22.36	348.75	15.88	
2025-01-13 02:34:22.57	348.71	15.90	
2025-01-13 02:34:22.79	348.67	15.91	
2025-01-13 02:34:22.99	348.63	15.92	
2025-01-13 02:34:23.20	348.59	15.93	
2025-01-13 02:34:23.40	348.55	15.94	
2025-01-13 02:34:23.61	348.51	15.95	
2025-01-13 02:34:23.81	348.47	15.96	
2025-01-13 02:34:24.02	348.43	15.98	
2025-01-13 02:34:24.22	348.40	15.99	
2025-01-13 02:34:24.43	348.36	16.00	
2025-01-13 02:34:24.63	348.32	16.01	
2025-01-13 02:34:24.84	348.28	16.02	
2025-01-13 02:34:25.04	348.24	16.03	
2025-01-13 02:34:25.25	348.20	16.04	
2025-01-13 02:34:25.46	348.16	16.05	
2025-01-13 02:34:25.66	348.12	16.07	
2025-01-13 02:34:25.86	348.08	16.08	
2025-01-13 02:34:26.07	348.04	16.09	
2025-01-13 02:34:26.27	348.01	16.10	
2025-01-13 02:34:26.48	347.97	16.11	
2025-01-13 02:34:26.69	347.93	16.12	
2025-01-13 02:34:26.89	347.89	16.13	
2025-01-13 02:34:27.10	347.85	16.14	
2025-01-13 02:34:27.30	347.81	16.16	
2025-01-13 02:34:27.51	347.77	16.17	
2025-01-13 02:34:27.71	347.73	16.18	
2025-01-13 02:34:27.92	347.69	16.19	
2025-01-13 02:34:28.13	347.65	16.20	
2025-01-13 02:34:28.34	347.61	16.21	
2025-01-13 02:34:28.54	347.57	16.22	
2025-01-13 02:34:28.75	347.53	16.23	
2025-01-13 02:34:28.96	347.49	16.25	
2025-01-13 02:34:29.17	347.45	16.26	
2025-01-13 02:34:29.38	347.41	16.27	
2025-01-13 02:34:29.58	347.37	16.28	
2025-01-13 02:34:29.79	347.33	16.29	
2025-01-13 02:34:29.99	347.29	16.30	
2025-01-13 02:34:30.20	347.25	16.31	
2025-01-13 02:34:30.40	347.21	16.32	
2025-01-13 02:34:30.61	347.17	16.33	
2025-01-13 02:34:30.81	347.13	16.35	
2025-01-13 02:34:31.02	347.09	16.36	
2025-01-13 02:34:31.22	347.05	16.37	
2025-01-13 02:34:31.43	347.01	16.38	
2025-01-13 02:34:31.63	346.97	16.39	
2025-01-13 02:34:31.84	346.93	16.40	
2025-01-13 02:34:32.04	346.89	16.41	
2025-01-13 02:34:32.25	346.85	16.42	
2025-01-13 02:34:32.45	346.81	16.43	
2025-01-13 02:34:32.66	346.77	16.44	
2025-01-13 02:34:32.86	346.73	16.46	
2025-01-13 02:34:33.07	346.69	16.47	
2025-01-13 02:34:33.27	346.65	16.48	
2025-01-13 02:34:33.48	346.61	16.49	
2025-01-13 02:34:33.68	346.57	16.50	
2025-01-13 02:34:33.89	346.53	16.51	
2025-01-13 02:34:34.09	346.49	16.52	
2025-01-13 02:34:34.30	346.45	16.53	
2025-01-13 02:34:34.50	346.41	16.54	
2025-01-13 02:34:34.71	346.37	16.55	
2025-01-13 02:34:34.91	346.33	16.56	
2025-01-13 02:34:35.12	346.29	16.58	
2025-01-13 02:34:35.33	346.25	16.59	
2025-01-13 02:34:35.53	346.21	16.60	
2025-01-13 02:34:35.73	346.17	16.61	
2025-01-13 02:34:35.94	346.13	16.62	
2025-01-13 02:34:36.15	346.09	16.63	
2025-01-13 02:34:36.35	346.05	16.64	
2025-01-13 02:34:36.57	346.00	16.65	
2025-01-13 02:34:36.78	345.96	16.66	
2025-01-13 02:34:36.98	345.92	16.67	
2025-01-13 02:34:37.19	345.88	16.68	
2025-01-13 02:34:37.39	345.84	16.69	
2025-01-13 02:34:37.60	345.80	16.71	
2025-01-13 02:34:37.80	345.76	16.72	
2025-01-13 02:34:38.01	345.72	16.73	
2025-01-13 02:34:38.21	345.68	16.74	
2025-01-13 02:34:38.42	345.63	16.75	
2025-01-13 02:34:38.62	345.59	16.76	
2025-01-13 02:34:38.83	345.55	16.77	
2025-01-13 02:34:39.03	345.51	16.78	
2025-01-13 02:34:39.24	345.47	16.79	
2025-01-13 02:34:39.44	345.43	16.80	
2025-01-13 02:34:39.65	345.39	16.81	
2025-01-13 02:34:39.85	345.35	16.82	
2025-01-13 02:34:40.06	345.31	16.83	
2025-01-13 02:34:40.27	345.26	16.84	
2025-01-13 02:34:40.47	345.22	16.85	
2025-01-13 02:34:40.68	345.18	16.86	
2025-01-13 02:34:40.88	345.14	16.88	
2025-01-13 02:34:41.08	345.10	16.89	
2025-01-13 02:34:41.29	345.06	16.90	
2025-01-13 02:34:41.50	345.02	16.91	
2025-01-13 02:34:41.70	344.98	16.92	
2025-01-13 02:34:41.90	344.94	16.93	
2025-01-13 02:34:42.11	344.89	16.94	
2025-01-13 02:34:42.32	344.85	16.95	
2025-01-13 02:34:42.52	344.81	16.96	
2025-01-13 02:34:42.73	344.77	16.97	
2025-01-13 02:34:42.93	344.73	16.98	
2025-01-13 02:34:43.14	344.69	16.99	
2025-01-13 02:34:43.34	344.64	17.00	
2025-01-13 02:34:43.55	344.60	17.01	
2025-01-13 02:34:43.75	344.56	17.02	
2025-01-13 02:34:43.96	344.52	17.03	
2025-01-13 02:34:44.16	344.48	17.04	
2025-01-13 02:34:44.37	344.44	17.05	
2025-01-13 02:34:44.57	344.39	17.06	
2025-01-13 02:34:44.78	344.35	17.07	
2025-01-13 02:34:44.99	344.31	17.08	
2025-01-13 02:34:45.20	344.27	17.09	
2025-01-13 02:34:45.41	344.22	17.11	
2025-01-13 02:34:45.61	344.18	17.12	
2025-01-13 02:34:45.82	344.14	17.13	
2025-01-13 02:34:46.03	344.10	17.14	
2025-01-13 02:34:46.23	344.06	17.15	
2025-01-13 02:34:46.43	344.01	17.16	
2025-01-13 02:34:46.64	343.97	17.17	
2025-01-13 02:34:46.85	343.93	17.18	
2025-01-13 02:34:47.05	343.89	17.19	
2025-01-13 02:34:47.26	343.84	17.20	
2025-01-13 02:34:47.46	343.80	17.21	
2025-01-13 02:34:47.67	343.76	17.22	
2025-01-13 02:34:47.87	343.72	17.23	
2025-01-13 02:34:48.08	343.68	17.24	
2025-01-13 02:34:48.29	343.63	17.25	
2025-01-13 02:34:48.49	343.59	17.26	
2025-01-13 02:34:48.70	343.55	17.27	
2025-01-13 02:34:48.90	343.51	17.28	
2025-01-13 02:34:49.11	343.46	17.29	
2025-01-13 02:34:49.31	343.42	17.30	
2025-01-13 02:34:49.52	343.38	17.31	
2025-01-13 02:34:49.72	343.34	17.32	
2025-01-13 02:34:49.93	343.29	17.33	
2025-01-13 02:34:50.13	343.25	17.34	
2025-01-13 02:34:50.34	343.21	17.35	
2025-01-13 02:34:50.55	343.16	17.36	
2025-01-13 02:34:50.75	343.12	17.37	
2025-01-13 02:34:50.96	343.08	17.38	
2025-01-13 02:34:51.16	343.04	17.39	
2025-01-13 02:34:51.36	343.00	17.40	
2025-01-13 02:34:51.57	342.95	17.41	
2025-01-13 02:34:51.77	342.91	17.42	
2025-01-13 02:34:51.98	342.87	17.43	
2025-01-13 02:34:52.19	342.82	17.44	
2025-01-13 02:34:52.39	342.78	17.45	
2025-01-13 02:34:52.60	342.74	17.46	
2025-01-13 02:34:52.80	342.69	17.47	
2025-01-13 02:34:53.01	342.65	17.48	
2025-01-13 02:34:53.21	342.61	17.49	
2025-01-13 02:34:53.42	342.56	17.50	
2025-01-13 02:34:53.63	342.52	17.51	
2025-01-13 02:34:53.83	342.48	17.52	
2025-01-13 02:34:54.03	342.44	17.53	
2025-01-13 02:34:54.24	342.39	17.54	
2025-01-13 02:34:54.45	342.35	17.55	
2025-01-13 02:34:54.65	342.31	17.56	
2025-01-13 02:34:54.86	342.26	17.57	
2025-01-13 02:34:55.06	342.22	17.58	
2025-01-13 02:34:55.27	342.18	17.59	
2025-01-13 02:34:55.47	342.13	17.60	
2025-01-13 02:34:55.68	342.09	17.61	
2025-01-13 02:34:55.88	342.05	17.62	
2025-01-13 02:34:56.09	342.00	17.63	
2025-01-13 02:34:56.29	341.96	17.63	
2025-01-13 02:34:56.50	341.91	17.64	
2025-01-13 02:34:56.70	341.87	17.65	
2025-01-13 02:34:56.91	341.83	17.66	
2025-01-13 02:34:57.12	341.78	17.67	
2025-01-13 02:34:57.32	341.74	17.68	
2025-01-13 02:34:57.53	341.70	17.69	
2025-01-13 02:34:57.73	341.65	17.70	
2025-01-13 02:34:57.94	341.61	17.71	
2025-01-13 02:34:58.14	341.57	17.72	
2025-01-13 02:34:58.35	341.52	17.73	
2025-01-13 02:34:58.55	341.48	17.74	
2025-01-13 02:34:58.76	341.43	17.75	
2025-01-13 02:34:58.96	341.39	17.76	
2025-01-13 02:34:59.17	341.35	17.77	
2025-01-13 02:34:59.38	341.30	17.78	
2025-01-13 02:34:59.58	341.26	17.79	
2025-01-13 02:34:59.79	341.21	17.80	
2025-01-13 02:34:59.99	341.17	17.81	
2025-01-13 02:35:00.19	341.13	17.82	
2025-01-13 02:35:00.40	341.08	17.83	
2025-01-13 02:35:00.61	341.04	17.84	
2025-01-13 02:35:00.81	341.00	17.84	
2025-01-13 02:35:01.02	340.95	17.85	
2025-01-13 02:35:01.22	340.91	17.86	
2025-01-13 02:35:01.43	340.86	17.87	
2025-01-13 02:35:01.63	340.82	17.88	
2025-01-13 02:35:01.84	340.77	17.89	
2025-01-13 02:35:02.05	340.73	17.90	
2025-01-13 02:35:02.26	340.68	17.91	
2025-01-13 02:35:02.46	340.64	17.92	
2025-01-13 02:35:02.67	340.60	17.93	
2025-01-13 02:35:02.87	340.55	17.94	
2025-01-13 02:35:03.08	340.51	17.95	
2025-01-13 02:35:03.28	340.46	17.96	
2025-01-13 02:35:03.49	340.42	17.97	
2025-01-13 02:35:03.69	340.37	17.97	
2025-01-13 02:35:03.90	340.33	17.98	
2025-01-13 02:35:04.11	340.28	17.99	
2025-01-13 02:35:04.31	340.24	18.00	
2025-01-13 02:35:04.51	340.20	18.01	
2025-01-13 02:35:04.72	340.15	18.02	
2025-01-13 02:35:04.93	340.11	18.03	
2025-01-13 02:35:05.13	340.06	18.04	
2025-01-13 02:35:05.34	340.02	18.05	
2025-01-13 02:35:05.54	339.97	18.06	
2025-01-13 02:35:05.75	339.93	18.07	
2025-01-13 02:35:05.95	339.88	18.07	
2025-01-13 02:35:06.16	339.84	18.08	
2025-01-13 02:35:06.37	339.79	18.09	
2025-01-13 02:35:06.57	339.75	18.10	
2025-01-13 02:35:06.78	339.70	18.11	
2025-01-13 02:35:06.98	339.66	18.12	
2025-01-13 02:35:07.19	339.61	18.13	
2025-01-13 02:35:07.39	339.57	18.14	
2025-01-13 02:35:07.60	339.52	18.15	
2025-01-13 02:35:07.80	339.48	18.15	
2025-01-13 02:35:08.01	339.43	18.16	
2025-01-13 02:35:08.21	339.39	18.17	
2025-01-13 02:35:08.42	339.34	18.18	
2025-01-13 02:35:08.62	339.30	18.19	
2025-01-13 02:35:08.83	339.25	18.20	
2025-01-13 02:35:09.03	339.21	18.21	
2025-01-13 02:35:09.24	339.16	18.22	
2025-01-13 02:35:09.45	339.12	18.23	
2025-01-13 02:35:09.65	339.07	18.23	
2025-01-13 02:35:09.87	339.02	18.24	
2025-01-13 02:35:10.08	338.98	18.25	
2025-01-13 02:35:10.28	338.93	18.26	
2025-01-13 02:35:10.49	338.89	18.27	
2025-01-13 02:35:10.69	338.84	18.28	
2025-01-13 02:35:10.90	338.80	18.29	
2025-01-13 02:35:11.10	338.75	18.29	
2025-01-13 02:35:11.31	338.71	18.30	
2025-01-13 02:35:11.52	338.66	18.31	
2025-01-13 02:35:11.72	338.61	18.32	
2025-01-13 02:35:11.93	338.57	18.33	
2025-01-13 02:35:12.13	338.52	18.34	
2025-01-13 02:35:12.34	338.48	18.35	
2025-01-13 02:35:12.55	338.43	18.36	
2025-01-13 02:35:12.75	338.39	18.36	
2025-01-13 02:35:12.96	338.34	18.37	
2025-01-13 02:35:13.16	338.29	18.38	
2025-01-13 02:35:13.37	338.25	18.39	
2025-01-13 02:35:13.58	338.20	18.40	
2025-01-13 02:35:13.78	338.16	18.41	
2025-01-13 02:35:14.00	338.11	18.42	
2025-01-13 02:35:14.20	338.06	18.42	
2025-01-13 02:35:14.41	338.02	18.43	
2025-01-13 02:35:14.62	337.97	18.44	
2025-01-13 02:35:14.82	337.92	18.45	
2025-01-13 02:35:15.03	337.88	18.46	
2025-01-13 02:35:15.23	337.83	18.47	
2025-01-13 02:35:15.44	337.79	18.47	
2025-01-13 02:35:15.64	337.74	18.48	
2025-01-13 02:35:15.85	337.69	18.49	
2025-01-13 02:35:16.06	337.65	18.50	
2025-01-13 02:35:16.26	337.60	18.51	
2025-01-13 02:35:16.47	337.55	18.51	
2025-01-13 02:35:16.67	337.51	18.52	
2025-01-13 02:35:16.88	337.46	18.53	
2025-01-13 02:35:17.08	337.42	18.54	
2025-01-13 02:35:17.29	337.37	18.55	
2025-01-13 02:35:17.49	337.33	18.56	
2025-01-13 02:35:17.70	337.28	18.56	
2025-01-13 02:35:17.90	337.23	18.57	
2025-01-13 02:35:18.11	337.19	18.58	
2025-01-13 02:35:18.31	337.14	18.59	
2025-01-13 02:35:18.52	337.09	18.60	
2025-01-13 02:35:18.73	337.05	18.60	
2025-01-13 02:35:18.93	337.00	18.61	
2025-01-13 02:35:19.14	336.95	18.62	
2025-01-13 02:35:19.34	336.91	18.63	
2025-01-13 02:35:19.55	336.86	18.64	
2025-01-13 02:35:19.75	336.81	18.64	
2025-01-13 02:35:19.96	336.77	18.65	
2025-01-13 02:35:20.16	336.72	18.66	
2025-01-13 02:35:20.37	336.67	18.67	
2025-01-13 02:35:20.57	336.63	18.68	
2025-01-13 02:35:20.78	336.58	18.68	
2025-01-13 02:35:20.99	336.53	18.69	
2025-01-13 02:35:21.19	336.49	18.70	
2025-01-13 02:35:21.40	336.44	18.71	
2025-01-13 02:35:21.60	336.39	18.71	
2025-01-13 02:35:21.81	336.35	18.72	
2025-01-13 02:35:22.02	336.30	18.73	
2025-01-13 02:35:22.22	336.25	18.74	
2025-01-13 02:35:22.43	336.21	18.75	
2025-01-13 02:35:22.65	336.16	18.75	
2025-01-13 02:35:22.85	336.11	18.76	
2025-01-13 02:35:23.06	336.06	18.77	
2025-01-13 02:35:23.26	336.02	18.78	
2025-01-13 02:35:23.47	335.97	18.78	
2025-01-13 02:35:23.67	335.92	18.79	
2025-01-13 02:35:23.88	335.87	18.80	
2025-01-13 02:35:24.08	335.83	18.81	
2025-01-13 02:35:24.29	335.78	18.81	
2025-01-13 02:35:24.49	335.73	18.82	
2025-01-13 02:35:24.70	335.69	18.83	
2025-01-13 02:35:24.90	335.64	18.84	
2025-01-13 02:35:25.11	335.59	18.84	
2025-01-13 02:35:25.31	335.55	18.85	
2025-01-13 02:35:25.52	335.50	18.86	
2025-01-13 02:35:25.72	335.45	18.87	
2025-01-13 02:35:25.93	335.40	18.87	
2025-01-13 02:35:26.14	335.36	18.88	
2025-01-13 02:35:26.34	335.31	18.89	
2025-01-13 02:35:26.55	335.26	18.90	
2025-01-13 02:35:26.75	335.21	18.90	
2025-01-13 02:35:26.96	335.17	18.91	
2025-01-13 02:35:27.16	335.12	18.92	
2025-01-13 02:35:27.37	335.07	18.93	
2025-01-13 02:35:27.57	335.03	18.93	
2025-01-13 02:35:27.78	334.98	18.94	
2025-01-13 02:35:27.98	334.93	18.95	
2025-01-13 02:35:28.19	334.88	18.95	
2025-01-13 02:35:28.40	334.83	18.96	
2025-01-13 02:35:28.60	334.79	18.97	
2025-01-13 02:35:28.81	334.74	18.98	
2025-01-13 02:35:29.01	334.69	18.98	
2025-01-13 02:35:29.22	334.64	18.99	
2025-01-13 02:35:29.42	334.60	19.00	
2025-01-13 02:35:29.63	334.55	19.00	
2025-01-13 02:35:29.84	334.50	19.01	
2025-01-13 02:35:30.04	334.45	19.02	
2025-01-13 02:35:30.24	334.41	19.03	
2025-01-13 02:35:30.45	334.36	19.03	
2025-01-13 02:35:30.65	334.31	19.04	
2025-01-13 02:35:30.86	334.26	19.05	
2025-01-13 02:35:31.06	334.22	19.05	
2025-01-13 02:35:31.27	334.17	19.06	
2025-01-13 02:35:31.47	334.12	19.07	
2025-01-13 02:35:31.68	334.07	19.07	
2025-01-13 02:35:31.88	334.03	19.08	
2025-01-13 02:35:32.09	333.98	19.09	
2025-01-13 02:35:32.29	333.93	19.09	
2025-01-13 02:35:32.50	333.88	19.10	
2025-01-13 02:35:32.70	333.83	19.11	
2025-01-13 02:35:32.91	333.78	19.12	
2025-01-13 02:35:33.11	333.74	19.12	
2025-01-13 02:35:33.32	333.69	19.13	
2025-01-13 02:35:33.52	333.64	19.14	
2025-01-13 02:35:33.73	333.59	19.14	
2025-01-13 02:35:33.93	333.55	19.15	
2025-01-13 02:35:34.14	333.50	19.16	
2025-01-13 02:35:34.34	333.45	19.16	
2025-01-13 02:35:34.55	333.40	19.17	
2025-01-13 02:35:34.75	333.35	19.18	
2025-01-13 02:35:34.96	333.30	19.18	
2025-01-13 02:35:35.16	333.26	19.19	
2025-01-13 02:35:35.37	333.21	19.19	
2025-01-13 02:35:35.57	333.16	19.20	
2025-01-13 02:35:35.78	333.11	19.21	
2025-01-13 02:35:35.98	333.06	19.21	
2025-01-13 02:35:36.19	333.02	19.22	
2025-01-13 02:35:36.39	332.97	19.23	
2025-01-13 02:35:36.60	332.92	19.23	
2025-01-13 02:35:36.81	332.87	19.24	
2025-01-13 02:35:37.01	332.82	19.25	
2025-01-13 02:35:37.21	332.77	19.25	
2025-01-13 02:35:37.42	332.73	19.26	
2025-01-13 02:35:37.62	332.68	19.27	
2025-01-13 02:35:37.83	332.63	19.27	
2025-01-13 02:35:38.03	332.58	19.28	
2025-01-13 02:35:38.24	332.53	19.28	
2025-01-13 02:35:38.45	332.48	19.29	
2025-01-13 02:35:38.65	332.43	19.30	
2025-01-13 02:35:38.85	332.39	19.30	
2025-01-13 02:35:39.06	332.34	19.31	
2025-01-13 02:35:39.26	332.29	19.32	
2025-01-13 02:35:39.47	332.24	19.32	
2025-01-13 02:35:39.67	332.19	19.33	
2025-01-13 02:35:39.88	332.14	19.33	
2025-01-13 02:35:40.08	332.10	19.34	
2025-01-13 02:35:40.29	332.05	19.35	
2025-01-13 02:35:40.49	332.00	19.35	
2025-01-13 02:35:40.70	331.95	19.36	
2025-01-13 02:35:40.90	331.90	19.36	
2025-01-13 02:35:41.11	331.85	19.37	
2025-01-13 02:35:41.31	331.80	19.38	
2025-01-13 02:35:41.52	331.75	19.38	
2025-01-13 02:35:41.73	331.70	19.39	
2025-01-13 02:35:41.93	331.66	19.39	
2025-01-13 02:35:42.14	331.61	19.40	
2025-01-13 02:35:42.34	331.56	19.41	
2025-01-13 02:35:42.55	331.51	19.41	
2025-01-13 02:35:42.75	331.46	19.42	
2025-01-13 02:35:42.96	331.41	19.42	
2025-01-13 02:35:43.16	331.36	19.43	
2025-01-13 02:35:43.37	331.31	19.43	
2025-01-13 02:35:43.57	331.26	19.44	
2025-01-13 02:35:43.78	331.21	19.45	
2025-01-13 02:35:43.98	331.17	19.45	
2025-01-13 02:35:44.19	331.12	19.46	
2025-01-13 02:35:44.40	331.07	19.46	
2025-01-13 02:35:44.60	331.02	19.47	
2025-01-13 02:35:44.81	330.97	19.47	
2025-01-13 02:35:45.01	330.92	19.48	
2025-01-13 02:35:45.22	330.87	19.49	
2025-01-13 02:35:45.43	330.82	19.49	
2025-01-13 02:35:45.63	330.77	19.50	
2025-01-13 02:35:45.84	330.72	19.50	
2025-01-13 02:35:46.04	330.67	19.51	
2025-01-13 02:35:46.25	330.62	19.51	
2025-01-13 02:35:46.45	330.58	19.52	
2025-01-13 02:35:46.66	330.52	19.52	
2025-01-13 02:35:46.87	330.47	19.53	
2025-01-13 02:35:47.07	330.43	19.53	
2025-01-13 02:35:47.28	330.38	19.54	
2025-01-13 02:35:47.48	330.33	19.55	
2025-01-13 02:35:47.69	330.28	19.55	
2025-01-13 02:35:47.89	330.23	19.56	
2025-01-13 02:35:48.10	330.18	19.56	
2025-01-13 02:35:48.30	330.13	19.57	
2025-01-13 02:35:48.51	330.08	19.57	
2025-01-13 02:35:48.71	330.03	19.58	
2025-01-13 02:35:48.92	329.98	19.58	
2025-01-13 02:35:49.13	329.93	19.59	
2025-01-13 02:35:49.33	329.88	19.59	
2025-01-13 02:35:49.53	329.83	19.60	
2025-01-13 02:35:49.74	329.78	19.60	
2025-01-13 02:35:49.94	329.73	19.61	
2025-01-13 02:35:50.15	329.68	19.61	
2025-01-13 02:35:50.35	329.64	19.62	
2025-01-13 02:35:50.56	329.58	19.62	
2025-01-13 02:35:50.76	329.54	19.63	
2025-01-13 02:35:50.97	329.49	19.63	
2025-01-13 02:35:51.18	329.43	19.64	
2025-01-13 02:35:51.38	329.39	19.64	
2025-01-13 02:35:51.58	329.34	19.65	
2025-01-13 02:35:51.79	329.29	19.65	
2025-01-13 02:35:52.00	329.24	19.66	
2025-01-13 02:35:52.20	329.19	19.66	
2025-01-13 02:35:52.41	329.14	19.67	
2025-01-13 02:35:52.61	329.09	19.67	
2025-01-13 02:35:52.82	329.04	19.68	
2025-01-13 02:35:53.02	328.99	19.68	
2025-01-13 02:35:53.23	328.94	19.69	
2025-01-13 02:35:53.43	328.89	19.69	
2025-01-13 02:35:53.64	328.84	19.70	
2025-01-13 02:35:53.84	328.79	19.70	
2025-01-13 02:35:54.05	328.74	19.71	
2025-01-13 02:35:54.26	328.69	19.71	
2025-01-13 02:35:54.47	328.64	19.71	
2025-01-13 02:35:54.67	328.59	19.72	
2025-01-13 02:35:54.88	328.54	19.72	
2025-01-13 02:35:55.08	328.49	19.73	
2025-01-13 02:35:55.29	328.44	19.73	
2025-01-13 02:35:55.50	328.39	19.74	
2025-01-13 02:35:55.70	328.34	19.74	
2025-01-13 02:35:55.90	328.29	19.75	
2025-01-13 02:35:56.12	328.23	19.75	
2025-01-13 02:35:56.33	328.18	19.76	
2025-01-13 02:35:56.53	328.13	19.76	
2025-01-13 02:35:56.74	328.08	19.76	
2025-01-13 02:35:56.94	328.03	19.77	
2025-01-13 02:35:57.15	327.98	19.77	
2025-01-13 02:35:57.36	327.93	19.78	
2025-01-13 02:35:57.56	327.88	19.78	
2025-01-13 02:35:57.76	327.83	19.79	
2025-01-13 02:35:57.97	327.78	19.79	
2025-01-13 02:35:58.18	327.73	19.79	
2025-01-13 02:35:58.38	327.68	19.80	
2025-01-13 02:35:58.59	327.63	19.80	
2025-01-13 02:35:58.79	327.58	19.81	
2025-01-13 02:35:59.00	327.53	19.81	
2025-01-13 02:35:59.20	327.48	19.82	
2025-01-13 02:35:59.41	327.43	19.82	
2025-01-13 02:35:59.61	327.38	19.82	
2025-01-13 02:35:59.82	327.33	19.83	
2025-01-13 02:36:00.04	327.28	19.83	
2025-01-13 02:36:00.24	327.23	19.84	
2025-01-13 02:36:00.44	327.18	19.84	
2025-01-13 02:36:00.64	327.13	19.84	
2025-01-13 02:36:00.85	327.08	19.85	
2025-01-13 02:36:01.05	327.03	19.85	
2025-01-13 02:36:01.26	326.98	19.85	
2025-01-13 02:36:01.47	326.92	19.86	
2025-01-13 02:36:01.67	326.88	19.86	
2025-01-13 02:36:01.88	326.82	19.87	
2025-01-13 02:36:02.08	326.77	19.87	
2025-01-13 02:36:02.29	326.72	19.87	
2025-01-13 02:36:02.49	326.67	19.88	
2025-01-13 02:36:02.70	326.62	19.88	
2025-01-13 02:36:02.90	326.57	19.89	
2025-01-13 02:36:03.11	326.52	19.89	
2025-01-13 02:36:03.31	326.47	19.89	
2025-01-13 02:36:03.52	326.42	19.90	
2025-01-13 02:36:03.72	326.37	19.90	
2025-01-13 02:36:03.93	326.32	19.90	
2025-01-13 02:36:04.14	326.27	19.91	
2025-01-13 02:36:04.35	326.22	19.91	
2025-01-13 02:36:04.56	326.16	19.91	
2025-01-13 02:36:04.76	326.12	19.92	
2025-01-13 02:36:04.97	326.06	19.92	
2025-01-13 02:36:05.17	326.01	19.92	
2025-01-13 02:36:05.38	325.96	19.93	
2025-01-13 02:36:05.58	325.91	19.93	
2025-01-13 02:36:05.79	325.86	19.93	
2025-01-13 02:36:05.99	325.81	19.94	
2025-01-13 02:36:06.20	325.76	19.94	
2025-01-13 02:36:06.40	325.71	19.94	
2025-01-13 02:36:06.61	325.66	19.95	
2025-01-13 02:36:06.82	325.61	19.95	
2025-01-13 02:36:07.02	325.56	19.95	
2025-01-13 02:36:07.22	325.51	19.96	
2025-01-13 02:36:07.43	325.46	19.96	
2025-01-13 02:36:07.63	325.41	19.96	
2025-01-13 02:36:07.85	325.35	19.97	
2025-01-13 02:36:08.06	325.30	19.97	
2025-01-13 02:36:08.26	325.25	19.97	
2025-01-13 02:36:08.47	325.20	19.98	
2025-01-13 02:36:08.67	325.15	19.98	
2025-01-13 02:36:08.88	325.10	19.98	
2025-01-13 02:36:09.08	325.05	19.99	
2025-01-13 02:36:09.29	325.00	19.99	
2025-01-13 02:36:09.49	324.95	19.99	
2025-01-13 02:36:09.71	324.89	19.99	
2025-01-13 02:36:09.91	324.84	20.00	
2025-01-13 02:36:10.12	324.79	20.00	
2025-01-13 02:36:10.33	324.74	20.00	
2025-01-13 02:36:10.53	324.69	20.01	
2025-01-13 02:36:10.74	324.64	20.01	
2025-01-13 02:36:10.94	324.59	20.01	
2025-01-13 02:36:11.15	324.53	20.01	
2025-01-13 02:36:11.36	324.48	20.02	
2025-01-13 02:36:11.56	324.43	20.02	
2025-01-13 02:36:11.76	324.38	20.02	
2025-01-13 02:36:11.97	324.33	20.03	
2025-01-13 02:36:12.18	324.28	20.03	
2025-01-13 02:36:12.38	324.23	20.03	
2025-01-13 02:36:12.59	324.18	20.03	
2025-01-13 02:36:12.79	324.13	20.04	
2025-01-13 02:36:13.00	324.07	20.04	
2025-01-13 02:36:13.20	324.02	20.04	
2025-01-13 02:36:13.41	323.97	20.04	
2025-01-13 02:36:13.61	323.92	20.05	
2025-01-13 02:36:13.82	323.87	20.05	
2025-01-13 02:36:14.02	323.82	20.05	
2025-01-13 02:36:14.23	323.77	20.05	
2025-01-13 02:36:14.44	323.72	20.06	
2025-01-13 02:36:14.64	323.67	20.06	
2025-01-13 02:36:14.85	323.61	20.06	
2025-01-13 02:36:15.05	323.56	20.06	
2025-01-13 02:36:15.25	323.51	20.06	
2025-01-13 02:36:15.46	323.46	20.07	
2025-01-13 02:36:15.68	323.41	20.07	
2025-01-13 02:36:15.88	323.36	20.07	
2025-01-13 02:36:16.08	323.31	20.07	
2025-01-13 02:36:16.29	323.26	20.08	
2025-01-13 02:36:16.50	323.20	20.08	
2025-01-13 02:36:16.70	323.15	20.08	
2025-01-13 02:36:16.91	323.10	20.08	
2025-01-13 02:36:17.13	323.05	20.08	
2025-01-13 02:36:17.33	323.00	20.09	
2025-01-13 02:36:17.54	322.94	20.09	
2025-01-13 02:36:17.74	322.89	20.09	
2025-01-13 02:36:17.95	322.84	20.09	
2025-01-13 02:36:18.15	322.79	20.09	
2025-01-13 02:36:18.36	322.74	20.10	
2025-01-13 02:36:18.56	322.69	20.10	
2025-01-13 02:36:18.77	322.64	20.10	
2025-01-13 02:36:18.98	322.58	20.10	
2025-01-13 02:36:19.18	322.53	20.10	
2025-01-13 02:36:19.39	322.48	20.11	
2025-01-13 02:36:19.59	322.43	20.11	
2025-01-13 02:36:19.80	322.38	20.11	
2025-01-13 02:36:20.00	322.33	20.11	
2025-01-13 02:36:20.21	322.28	20.11	
2025-01-13 02:36:20.41	322.23	20.11	
2025-01-13 02:36:20.62	322.17	20.12	
2025-01-13 02:36:20.82	322.12	20.12	
2025-01-13 02:36:21.03	322.07	20.12	
2025-01-13 02:36:21.24	322.02	20.12	
2025-01-13 02:36:21.44	321.97	20.12	
2025-01-13 02:36:21.65	321.92	20.12	
2025-01-13 02:36:21.85	321.87	20.13	
2025-01-13 02:36:22.05	321.82	20.13	
2025-01-13 02:36:22.26	321.76	20.13	
2025-01-13 02:36:22.46	321.71	20.13	
2025-01-13 02:36:22.67	321.66	20.13	
2025-01-13 02:36:22.88	321.61	20.13	
2025-01-13 02:36:23.08	321.56	20.13	
2025-01-13 02:36:23.29	321.51	20.14	
2025-01-13 02:36:23.49	321.46	20.14	
2025-01-13 02:36:23.70	321.40	20.14	
2025-01-13 02:36:23.91	321.35	20.14	
2025-01-13 02:36:24.11	321.30	20.14	
2025-01-13 02:36:24.32	321.25	20.14	
2025-01-13 02:36:24.52	321.20	20.14	
2025-01-13 02:36:24.73	321.15	20.14	
2025-01-13 02:36:24.93	321.10	20.15	
2025-01-13 02:36:25.14	321.04	20.15	
2025-01-13 02:36:25.34	320.99	20.15	
2025-01-13 02:36:25.55	320.94	20.15	
2025-01-13 02:36:25.75	320.89	20.15	
2025-01-13 02:36:25.96	320.84	20.15	
2025-01-13 02:36:26.17	320.79	20.15	
2025-01-13 02:36:26.37	320.74	20.15	
2025-01-13 02:36:26.58	320.68	20.15	
2025-01-13 02:36:26.78	320.63	20.16	
2025-01-13 02:36:26.99	320.58	20.16	
2025-01-13 02:36:27.19	320.53	20.16	
2025-01-13 02:36:27.40	320.48	20.16	
2025-01-13 02:36:27.61	320.43	20.16	
2025-01-13 02:36:27.81	320.38	20.16	
2025-01-13 02:36:28.02	320.32	20.16	
2025-01-13 02:36:28.22	320.27	20.16	
2025-01-13 02:36:28.43	320.22	20.16	
2025-01-13 02:36:28.63	320.17	20.16	
2025-01-13 02:36:28.84	320.12	20.16	
2025-01-13 02:36:29.04	320.07	20.16	
2025-01-13 02:36:29.25	320.01	20.16	
2025-01-13 02:36:29.45	319.96	20.17	
2025-01-13 02:36:29.66	319.91	20.17	
2025-01-13 02:36:29.87	319.86	20.17	
2025-01-13 02:36:30.07	319.81	20.17	
2025-01-13 02:36:30.28	319.76	20.17	
2025-01-13 02:36:30.48	319.71	20.17	
2025-01-13 02:36:30.69	319.65	20.17	
2025-01-13 02:36:30.89	319.60	20.17	
2025-01-13 02:36:31.10	319.55	20.17	
2025-01-13 02:36:31.30	319.50	20.17	
2025-01-13 02:36:31.51	319.45	20.17	
2025-01-13 02:36:31.72	319.39	20.17	
2025-01-13 02:36:31.92	319.34	20.17	
2025-01-13 02:36:32.12	319.29	20.17	
2025-01-13 02:36:32.33	319.24	20.17	
2025-01-13 02:36:32.54	319.19	20.17	
2025-01-13 02:36:32.74	319.14	20.17	
2025-01-13 02:36:32.95	319.09	20.17	
2025-01-13 02:36:33.17	319.03	20.17	
2025-01-13 02:36:33.37	318.98	20.17	
2025-01-13 02:36:33.58	318.93	20.17	
2025-01-13 02:36:33.78	318.88	20.17	
2025-01-13 02:36:33.99	318.83	20.17	
2025-01-13 02:36:34.19	318.78	20.17	
2025-01-13 02:36:34.40	318.72	20.17	
2025-01-13 02:36:34.60	318.67	20.17	
2025-01-13 02:36:34.81	318.62	20.17	
2025-01-13 02:36:35.01	318.57	20.17	
2025-01-13 02:36:35.22	318.52	20.17	
2025-01-13 02:36:35.42	318.47	20.17	
2025-01-13 02:36:35.62	318.42	20.17	
2025-01-13 02:36:35.83	318.36	20.17	
2025-01-13 02:36:36.04	318.31	20.17	
2025-01-13 02:36:36.24	318.26	20.17	
2025-01-13 02:36:36.45	318.21	20.17	
2025-01-13 02:36:36.65	318.16	20.17	
2025-01-13 02:36:36.86	318.11	20.17	
2025-01-13 02:36:37.06	318.06	20.17	
2025-01-13 02:36:37.27	318.00	20.17	
2025-01-13 02:36:37.47	317.95	20.17	
2025-01-13 02:36:37.68	317.90	20.17	
2025-01-13 02:36:37.89	317.85	20.17	
2025-01-13 02:36:38.09	317.80	20.17	
2025-01-13 02:36:38.30	317.74	20.17	
2025-01-13 02:36:38.50	317.69	20.17	
2025-01-13 02:36:38.71	317.64	20.17	
2025-01-13 02:36:38.92	317.59	20.17	
2025-01-13 02:36:39.12	317.54	20.17	
2025-01-13 02:36:39.33	317.49	20.17	
2025-01-13 02:36:39.53	317.44	20.17	
2025-01-13 02:36:39.73	317.39	20.17	
2025-01-13 02:36:39.94	317.33	20.16	
2025-01-13 02:36:40.15	317.28	20.16	
2025-01-13 02:36:40.35	317.23	20.16	
2025-01-13 02:36:40.56	317.18	20.16	
2025-01-13 02:36:40.76	317.13	20.16	
2025-01-13 02:36:40.97	317.07	20.16	
2025-01-13 02:36:41.17	317.02	20.16	
2025-01-13 02:36:41.38	316.97	20.16	
2025-01-13 02:36:41.59	316.92	20.16	
2025-01-13 02:36:41.80	316.87	20.16	
2025-01-13 02:36:42.01	316.81	20.16	
2025-01-13 02:36:42.21	316.76	20.16	
2025-01-13 02:36:42.42	316.71	20.16	
2025-01-13 02:36:42.62	316.66	20.15	
2025-01-13 02:36:42.82	316.61	20.15	
2025-01-13 02:36:43.03	316.56	20.15	
2025-01-13 02:36:43.23	316.51	20.15	
2025-01-13 02:36:43.44	316.46	20.15	
2025-01-13 02:36:43.64	316.41	20.15	
2025-01-13 02:36:43.86	316.35	20.15	
2025-01-13 02:36:44.07	316.30	20.15	
2025-01-13 02:36:44.27	316.25	20.15	
2025-01-13 02:36:44.48	316.19	20.15	
