passes_logs/2025/01/13/SPB_Silybum_02/SPB_Silybum_02__20250113_225132_SUOMI_NPP_rec.log

#Pass ID: 20250113_225132_SUOMI NPP
#Satellite: SUOMI NPP
#Configuration: NPP
#Start time: 2025-01-13 22:51:33

#Version: 2.0.20230423
#Station: SPB_Silybum_02
#Location: 30.233357 lon 59.946436 lat
#TLE: 1 37849U 11061A   25013.15774042  .00000145  00000+0  89802-4 0  9991
#TLE: 2 37849  98.7444 314.1696 0001761  43.7896 316.3420 14.19537310684653

#Time	Az	El	Level	Level2	SNR	BER	Gain	Gain2
2025-01-13 22:51:35.17	24.84	4.17	
2025-01-13 22:51:35.38	24.85	4.19	
2025-01-13 22:51:35.58	24.86	4.20	
2025-01-13 22:51:35.79	24.88	4.21	
2025-01-13 22:51:36.00	24.89	4.22	
2025-01-13 22:51:36.20	24.91	4.24	
2025-01-13 22:51:36.41	24.92	4.25	
2025-01-13 22:51:36.61	24.94	4.26	
2025-01-13 22:51:36.82	24.95	4.27	
2025-01-13 22:51:37.02	24.97	4.29	
2025-01-13 22:51:37.23	24.98	4.30	
2025-01-13 22:51:37.43	25.00	4.31	
2025-01-13 22:51:37.64	25.01	4.32	
2025-01-13 22:51:37.84	25.03	4.34	
2025-01-13 22:51:38.05	25.04	4.35	
2025-01-13 22:51:38.25	25.06	4.36	
2025-01-13 22:51:38.46	25.07	4.37	
2025-01-13 22:51:38.66	25.09	4.39	
2025-01-13 22:51:38.87	25.10	4.40	
2025-01-13 22:51:39.07	25.11	4.41	
2025-01-13 22:51:39.28	25.13	4.42	
2025-01-13 22:51:39.48	25.14	4.44	
2025-01-13 22:51:39.69	25.16	4.45	
2025-01-13 22:51:39.89	25.17	4.46	
2025-01-13 22:51:40.10	25.19	4.47	
2025-01-13 22:51:40.31	25.20	4.49	
2025-01-13 22:51:40.51	25.22	4.50	
2025-01-13 22:51:40.72	25.23	4.51	
2025-01-13 22:51:40.92	25.25	4.52	
2025-01-13 22:51:41.13	25.26	4.54	
2025-01-13 22:51:41.34	25.28	4.55	
2025-01-13 22:51:41.54	25.29	4.56	
2025-01-13 22:51:41.74	25.31	4.57	
2025-01-13 22:51:41.95	25.32	4.59	
2025-01-13 22:51:42.16	25.34	4.60	
2025-01-13 22:51:42.36	25.35	4.61	
2025-01-13 22:51:42.57	25.37	4.62	
2025-01-13 22:51:42.77	25.38	4.64	
2025-01-13 22:51:42.98	25.40	4.65	
2025-01-13 22:51:43.19	25.41	4.66	
2025-01-13 22:51:43.39	25.43	4.67	
2025-01-13 22:51:43.60	25.44	4.69	
2025-01-13 22:51:43.80	25.46	4.70	
2025-01-13 22:51:44.00	25.47	4.71	
2025-01-13 22:51:44.21	25.49	4.72	
2025-01-13 22:51:44.42	25.51	4.74	
2025-01-13 22:51:44.62	25.52	4.75	
2025-01-13 22:51:44.83	25.54	4.76	
2025-01-13 22:51:45.03	25.55	4.77	
2025-01-13 22:51:45.24	25.57	4.79	
2025-01-13 22:51:45.44	25.58	4.80	
2025-01-13 22:51:45.65	25.60	4.81	
2025-01-13 22:51:45.85	25.61	4.82	
2025-01-13 22:51:46.05	25.63	4.84	
2025-01-13 22:51:46.26	25.64	4.85	
2025-01-13 22:51:46.47	25.66	4.86	
2025-01-13 22:51:46.67	25.67	4.87	
2025-01-13 22:51:46.88	25.69	4.89	
2025-01-13 22:51:47.08	25.70	4.90	
2025-01-13 22:51:47.29	25.72	4.91	
2025-01-13 22:51:47.49	25.73	4.92	
2025-01-13 22:51:47.70	25.75	4.94	
2025-01-13 22:51:47.91	25.76	4.95	
2025-01-13 22:51:48.11	25.78	4.96	
2025-01-13 22:51:48.31	25.79	4.98	
2025-01-13 22:51:48.52	25.81	4.99	
2025-01-13 22:51:48.72	25.82	5.00	
2025-01-13 22:51:48.93	25.84	5.01	
2025-01-13 22:51:49.14	25.86	5.03	
2025-01-13 22:51:49.34	25.87	5.04	
2025-01-13 22:51:49.55	25.89	5.05	
2025-01-13 22:51:49.75	25.90	5.06	
2025-01-13 22:51:49.96	25.92	5.08	
2025-01-13 22:51:50.18	25.93	5.09	
2025-01-13 22:51:50.38	25.95	5.10	
2025-01-13 22:51:50.59	25.97	5.12	
2025-01-13 22:51:50.79	25.98	5.13	
2025-01-13 22:51:51.00	26.00	5.14	
2025-01-13 22:51:51.20	26.01	5.15	
2025-01-13 22:51:51.41	26.03	5.17	
2025-01-13 22:51:51.62	26.04	5.18	
2025-01-13 22:51:51.83	26.06	5.19	
2025-01-13 22:51:52.04	26.08	5.21	
2025-01-13 22:51:52.24	26.09	5.22	
2025-01-13 22:51:52.45	26.11	5.23	
2025-01-13 22:51:52.65	26.12	5.24	
2025-01-13 22:51:52.86	26.14	5.26	
2025-01-13 22:51:53.06	26.15	5.27	
2025-01-13 22:51:53.27	26.17	5.28	
2025-01-13 22:51:53.47	26.18	5.29	
2025-01-13 22:51:53.68	26.20	5.31	
2025-01-13 22:51:53.88	26.22	5.32	
2025-01-13 22:51:54.09	26.23	5.33	
2025-01-13 22:51:54.30	26.25	5.35	
2025-01-13 22:51:54.50	26.26	5.36	
2025-01-13 22:51:54.71	26.28	5.37	
2025-01-13 22:51:54.91	26.29	5.38	
2025-01-13 22:51:55.12	26.31	5.40	
2025-01-13 22:51:55.32	26.33	5.41	
2025-01-13 22:51:55.53	26.34	5.42	
2025-01-13 22:51:55.73	26.36	5.44	
2025-01-13 22:51:55.94	26.37	5.45	
2025-01-13 22:51:56.14	26.39	5.46	
2025-01-13 22:51:56.35	26.41	5.47	
2025-01-13 22:51:56.57	26.42	5.49	
2025-01-13 22:51:56.77	26.44	5.50	
2025-01-13 22:51:56.98	26.45	5.51	
2025-01-13 22:51:57.18	26.47	5.53	
2025-01-13 22:51:57.39	26.49	5.54	
2025-01-13 22:51:57.59	26.50	5.55	
2025-01-13 22:51:57.80	26.52	5.56	
2025-01-13 22:51:58.00	26.53	5.58	
2025-01-13 22:51:58.21	26.55	5.59	
2025-01-13 22:51:58.42	26.57	5.60	
2025-01-13 22:51:58.62	26.58	5.62	
2025-01-13 22:51:58.83	26.60	5.63	
2025-01-13 22:51:59.03	26.61	5.64	
2025-01-13 22:51:59.24	26.63	5.66	
2025-01-13 22:51:59.44	26.65	5.67	
2025-01-13 22:51:59.65	26.66	5.68	
2025-01-13 22:51:59.85	26.68	5.69	
2025-01-13 22:52:00.06	26.69	5.71	
2025-01-13 22:52:00.26	26.71	5.72	
2025-01-13 22:52:00.47	26.73	5.73	
2025-01-13 22:52:00.67	26.74	5.75	
2025-01-13 22:52:00.88	26.76	5.76	
2025-01-13 22:52:01.08	26.77	5.77	
2025-01-13 22:52:01.29	26.79	5.78	
2025-01-13 22:52:01.50	26.81	5.80	
2025-01-13 22:52:01.70	26.82	5.81	
2025-01-13 22:52:01.91	26.84	5.82	
2025-01-13 22:52:02.11	26.86	5.84	
2025-01-13 22:52:02.32	26.87	5.85	
2025-01-13 22:52:02.52	26.89	5.86	
2025-01-13 22:52:02.73	26.91	5.88	
2025-01-13 22:52:02.93	26.92	5.89	
2025-01-13 22:52:03.14	26.94	5.90	
2025-01-13 22:52:03.34	26.95	5.91	
2025-01-13 22:52:03.55	26.97	5.93	
2025-01-13 22:52:03.75	26.99	5.94	
2025-01-13 22:52:03.96	27.00	5.95	
2025-01-13 22:52:04.16	27.02	5.97	
2025-01-13 22:52:04.37	27.04	5.98	
2025-01-13 22:52:04.57	27.05	5.99	
2025-01-13 22:52:04.78	27.07	6.00	
2025-01-13 22:52:04.99	27.09	6.02	
2025-01-13 22:52:05.19	27.10	6.03	
2025-01-13 22:52:05.40	27.12	6.04	
2025-01-13 22:52:05.60	27.13	6.06	
2025-01-13 22:52:05.81	27.15	6.07	
2025-01-13 22:52:06.01	27.17	6.08	
2025-01-13 22:52:06.22	27.18	6.10	
2025-01-13 22:52:06.42	27.20	6.11	
2025-01-13 22:52:06.63	27.22	6.12	
2025-01-13 22:52:06.84	27.23	6.14	
2025-01-13 22:52:07.04	27.25	6.15	
2025-01-13 22:52:07.24	27.27	6.16	
2025-01-13 22:52:07.45	27.28	6.17	
2025-01-13 22:52:07.66	27.30	6.19	
2025-01-13 22:52:07.86	27.32	6.20	
2025-01-13 22:52:08.07	27.33	6.21	
2025-01-13 22:52:08.27	27.35	6.23	
2025-01-13 22:52:08.48	27.37	6.24	
2025-01-13 22:52:08.69	27.38	6.25	
2025-01-13 22:52:08.89	27.40	6.27	
2025-01-13 22:52:09.10	27.42	6.28	
2025-01-13 22:52:09.30	27.43	6.29	
2025-01-13 22:52:09.50	27.45	6.31	
2025-01-13 22:52:09.71	27.47	6.32	
2025-01-13 22:52:09.92	27.48	6.33	
2025-01-13 22:52:10.12	27.50	6.35	
2025-01-13 22:52:10.33	27.52	6.36	
2025-01-13 22:52:10.53	27.53	6.37	
2025-01-13 22:52:10.73	27.55	6.38	
2025-01-13 22:52:10.94	27.57	6.40	
2025-01-13 22:52:11.14	27.58	6.41	
2025-01-13 22:52:11.35	27.60	6.42	
2025-01-13 22:52:11.57	27.62	6.44	
2025-01-13 22:52:11.77	27.64	6.45	
2025-01-13 22:52:11.98	27.65	6.46	
2025-01-13 22:52:12.18	27.67	6.48	
2025-01-13 22:52:12.39	27.69	6.49	
2025-01-13 22:52:12.59	27.70	6.50	
2025-01-13 22:52:12.80	27.72	6.52	
2025-01-13 22:52:13.01	27.74	6.53	
2025-01-13 22:52:13.21	27.75	6.54	
2025-01-13 22:52:13.42	27.77	6.56	
2025-01-13 22:52:13.62	27.79	6.57	
2025-01-13 22:52:13.83	27.81	6.58	
2025-01-13 22:52:14.03	27.82	6.60	
2025-01-13 22:52:14.24	27.84	6.61	
2025-01-13 22:52:14.44	27.86	6.62	
2025-01-13 22:52:14.65	27.87	6.64	
2025-01-13 22:52:14.85	27.89	6.65	
2025-01-13 22:52:15.06	27.91	6.66	
2025-01-13 22:52:15.26	27.92	6.68	
2025-01-13 22:52:15.47	27.94	6.69	
2025-01-13 22:52:15.68	27.96	6.70	
2025-01-13 22:52:15.88	27.98	6.72	
2025-01-13 22:52:16.09	27.99	6.73	
2025-01-13 22:52:16.29	28.01	6.74	
2025-01-13 22:52:16.50	28.03	6.76	
2025-01-13 22:52:16.70	28.05	6.77	
2025-01-13 22:52:16.90	28.06	6.78	
2025-01-13 22:52:17.11	28.08	6.80	
2025-01-13 22:52:17.32	28.10	6.81	
2025-01-13 22:52:17.52	28.11	6.82	
2025-01-13 22:52:17.73	28.13	6.84	
2025-01-13 22:52:17.93	28.15	6.85	
2025-01-13 22:52:18.13	28.17	6.86	
2025-01-13 22:52:18.34	28.18	6.87	
2025-01-13 22:52:18.54	28.20	6.89	
2025-01-13 22:52:18.75	28.22	6.90	
2025-01-13 22:52:18.95	28.24	6.91	
2025-01-13 22:52:19.16	28.25	6.93	
2025-01-13 22:52:19.36	28.27	6.94	
2025-01-13 22:52:19.57	28.29	6.95	
2025-01-13 22:52:19.77	28.30	6.97	
2025-01-13 22:52:19.98	28.32	6.98	
2025-01-13 22:52:20.18	28.34	6.99	
2025-01-13 22:52:20.38	28.36	7.01	
2025-01-13 22:52:20.59	28.37	7.02	
2025-01-13 22:52:20.80	28.39	7.03	
2025-01-13 22:52:21.01	28.41	7.05	
2025-01-13 22:52:21.22	28.43	7.06	
2025-01-13 22:52:21.42	28.45	7.08	
2025-01-13 22:52:21.63	28.46	7.09	
2025-01-13 22:52:21.83	28.48	7.10	
2025-01-13 22:52:22.04	28.50	7.12	
2025-01-13 22:52:22.24	28.52	7.13	
2025-01-13 22:52:22.45	28.53	7.14	
2025-01-13 22:52:22.67	28.55	7.16	
2025-01-13 22:52:22.87	28.57	7.17	
2025-01-13 22:52:23.08	28.59	7.18	
2025-01-13 22:52:23.28	28.61	7.20	
2025-01-13 22:52:23.49	28.62	7.21	
2025-01-13 22:52:23.69	28.64	7.22	
2025-01-13 22:52:23.90	28.66	7.24	
2025-01-13 22:52:24.10	28.68	7.25	
2025-01-13 22:52:24.31	28.70	7.26	
2025-01-13 22:52:24.51	28.71	7.28	
2025-01-13 22:52:24.72	28.73	7.29	
2025-01-13 22:52:24.93	28.75	7.31	
2025-01-13 22:52:25.13	28.77	7.32	
2025-01-13 22:52:25.33	28.78	7.33	
2025-01-13 22:52:25.54	28.80	7.35	
2025-01-13 22:52:25.74	28.82	7.36	
2025-01-13 22:52:25.95	28.84	7.37	
2025-01-13 22:52:26.16	28.86	7.39	
2025-01-13 22:52:26.36	28.87	7.40	
2025-01-13 22:52:26.56	28.89	7.41	
2025-01-13 22:52:26.77	28.91	7.43	
2025-01-13 22:52:26.97	28.93	7.44	
2025-01-13 22:52:27.18	28.95	7.45	
2025-01-13 22:52:27.39	28.96	7.47	
2025-01-13 22:52:27.60	28.98	7.48	
2025-01-13 22:52:27.81	29.00	7.49	
2025-01-13 22:52:28.01	29.02	7.51	
2025-01-13 22:52:28.22	29.04	7.52	
2025-01-13 22:52:28.43	29.06	7.54	
2025-01-13 22:52:28.63	29.07	7.55	
2025-01-13 22:52:28.83	29.09	7.56	
2025-01-13 22:52:29.04	29.11	7.58	
2025-01-13 22:52:29.25	29.13	7.59	
2025-01-13 22:52:29.45	29.15	7.60	
2025-01-13 22:52:29.66	29.16	7.62	
2025-01-13 22:52:29.86	29.18	7.63	
2025-01-13 22:52:30.07	29.20	7.64	
2025-01-13 22:52:30.27	29.22	7.66	
2025-01-13 22:52:30.48	29.24	7.67	
2025-01-13 22:52:30.68	29.26	7.68	
2025-01-13 22:52:30.89	29.27	7.70	
2025-01-13 22:52:31.10	29.29	7.71	
2025-01-13 22:52:31.30	29.31	7.73	
2025-01-13 22:52:31.51	29.33	7.74	
2025-01-13 22:52:31.71	29.35	7.75	
2025-01-13 22:52:31.92	29.37	7.77	
2025-01-13 22:52:32.12	29.38	7.78	
2025-01-13 22:52:32.33	29.40	7.79	
2025-01-13 22:52:32.54	29.42	7.81	
2025-01-13 22:52:32.74	29.44	7.82	
2025-01-13 22:52:32.95	29.46	7.84	
2025-01-13 22:52:33.15	29.48	7.85	
2025-01-13 22:52:33.36	29.50	7.86	
2025-01-13 22:52:33.56	29.51	7.88	
2025-01-13 22:52:33.77	29.53	7.89	
2025-01-13 22:52:33.99	29.55	7.91	
2025-01-13 22:52:34.19	29.57	7.92	
2025-01-13 22:52:34.40	29.59	7.93	
2025-01-13 22:52:34.60	29.61	7.95	
2025-01-13 22:52:34.81	29.63	7.96	
2025-01-13 22:52:35.01	29.65	7.97	
2025-01-13 22:52:35.22	29.66	7.99	
2025-01-13 22:52:35.42	29.68	8.00	
2025-01-13 22:52:35.63	29.70	8.01	
2025-01-13 22:52:35.84	29.72	8.03	
2025-01-13 22:52:36.04	29.74	8.04	
2025-01-13 22:52:36.24	29.76	8.06	
2025-01-13 22:52:36.45	29.78	8.07	
2025-01-13 22:52:36.66	29.80	8.08	
2025-01-13 22:52:36.86	29.81	8.10	
2025-01-13 22:52:37.07	29.83	8.11	
2025-01-13 22:52:37.27	29.85	8.12	
2025-01-13 22:52:37.48	29.87	8.14	
2025-01-13 22:52:37.69	29.89	8.15	
2025-01-13 22:52:37.89	29.91	8.17	
2025-01-13 22:52:38.10	29.93	8.18	
2025-01-13 22:52:38.30	29.95	8.19	
2025-01-13 22:52:38.51	29.97	8.21	
2025-01-13 22:52:38.71	29.98	8.22	
2025-01-13 22:52:38.92	30.00	8.24	
2025-01-13 22:52:39.12	30.02	8.25	
2025-01-13 22:52:39.32	30.04	8.26	
2025-01-13 22:52:39.53	30.06	8.28	
2025-01-13 22:52:39.73	30.08	8.29	
2025-01-13 22:52:39.94	30.10	8.30	
2025-01-13 22:52:40.15	30.12	8.32	
2025-01-13 22:52:40.35	30.14	8.33	
2025-01-13 22:52:40.56	30.16	8.35	
2025-01-13 22:52:40.76	30.17	8.36	
2025-01-13 22:52:40.97	30.19	8.37	
2025-01-13 22:52:41.17	30.21	8.39	
2025-01-13 22:52:41.38	30.23	8.40	
2025-01-13 22:52:41.58	30.25	8.42	
2025-01-13 22:52:41.79	30.27	8.43	
2025-01-13 22:52:41.99	30.29	8.44	
2025-01-13 22:52:42.20	30.31	8.46	
2025-01-13 22:52:42.41	30.33	8.47	
2025-01-13 22:52:42.61	30.35	8.49	
2025-01-13 22:52:42.82	30.37	8.50	
2025-01-13 22:52:43.02	30.39	8.51	
2025-01-13 22:52:43.23	30.41	8.53	
2025-01-13 22:52:43.43	30.42	8.54	
2025-01-13 22:52:43.63	30.44	8.55	
2025-01-13 22:52:43.84	30.46	8.57	
2025-01-13 22:52:44.05	30.48	8.58	
2025-01-13 22:52:44.25	30.50	8.60	
2025-01-13 22:52:44.46	30.52	8.61	
2025-01-13 22:52:44.66	30.54	8.62	
2025-01-13 22:52:44.87	30.56	8.64	
2025-01-13 22:52:45.08	30.58	8.65	
2025-01-13 22:52:45.28	30.60	8.67	
2025-01-13 22:52:45.50	30.62	8.68	
2025-01-13 22:52:45.70	30.64	8.70	
2025-01-13 22:52:45.91	30.66	8.71	
2025-01-13 22:52:46.11	30.68	8.72	
2025-01-13 22:52:46.32	30.70	8.74	
2025-01-13 22:52:46.52	30.72	8.75	
2025-01-13 22:52:46.73	30.74	8.77	
2025-01-13 22:52:46.93	30.76	8.78	
2025-01-13 22:52:47.14	30.78	8.79	
2025-01-13 22:52:47.34	30.80	8.81	
2025-01-13 22:52:47.55	30.82	8.82	
2025-01-13 22:52:47.76	30.84	8.84	
2025-01-13 22:52:47.96	30.86	8.85	
2025-01-13 22:52:48.16	30.87	8.86	
2025-01-13 22:52:48.37	30.89	8.88	
2025-01-13 22:52:48.58	30.92	8.89	
2025-01-13 22:52:48.78	30.93	8.91	
2025-01-13 22:52:48.99	30.95	8.92	
2025-01-13 22:52:49.19	30.97	8.93	
2025-01-13 22:52:49.40	30.99	8.95	
2025-01-13 22:52:49.60	31.01	8.96	
2025-01-13 22:52:49.81	31.03	8.98	
2025-01-13 22:52:50.01	31.05	8.99	
2025-01-13 22:52:50.22	31.07	9.00	
2025-01-13 22:52:50.42	31.09	9.02	
2025-01-13 22:52:50.63	31.11	9.03	
2025-01-13 22:52:50.83	31.13	9.05	
2025-01-13 22:52:51.05	31.15	9.06	
2025-01-13 22:52:51.26	31.18	9.08	
2025-01-13 22:52:51.46	31.19	9.09	
2025-01-13 22:52:51.67	31.22	9.10	
2025-01-13 22:52:51.87	31.23	9.12	
2025-01-13 22:52:52.08	31.26	9.13	
2025-01-13 22:52:52.28	31.27	9.15	
2025-01-13 22:52:52.49	31.30	9.16	
2025-01-13 22:52:52.69	31.32	9.17	
2025-01-13 22:52:52.90	31.34	9.19	
2025-01-13 22:52:53.10	31.36	9.20	
2025-01-13 22:52:53.31	31.38	9.22	
2025-01-13 22:52:53.52	31.40	9.23	
2025-01-13 22:52:53.72	31.42	9.25	
2025-01-13 22:52:53.93	31.44	9.26	
2025-01-13 22:52:54.13	31.46	9.27	
2025-01-13 22:52:54.33	31.48	9.29	
2025-01-13 22:52:54.54	31.50	9.30	
2025-01-13 22:52:54.74	31.52	9.32	
2025-01-13 22:52:54.95	31.54	9.33	
2025-01-13 22:52:55.15	31.56	9.34	
2025-01-13 22:52:55.36	31.58	9.36	
2025-01-13 22:52:55.57	31.60	9.37	
2025-01-13 22:52:55.77	31.62	9.39	
2025-01-13 22:52:55.98	31.64	9.40	
2025-01-13 22:52:56.18	31.66	9.42	
2025-01-13 22:52:56.39	31.68	9.43	
2025-01-13 22:52:56.59	31.70	9.44	
2025-01-13 22:52:56.80	31.72	9.46	
2025-01-13 22:52:57.00	31.74	9.47	
2025-01-13 22:52:57.21	31.76	9.49	
2025-01-13 22:52:57.41	31.78	9.50	
2025-01-13 22:52:57.62	31.80	9.52	
2025-01-13 22:52:57.82	31.83	9.53	
2025-01-13 22:52:58.03	31.85	9.54	
2025-01-13 22:52:58.24	31.87	9.56	
2025-01-13 22:52:58.44	31.89	9.57	
2025-01-13 22:52:58.65	31.91	9.59	
2025-01-13 22:52:58.85	31.93	9.60	
2025-01-13 22:52:59.05	31.95	9.62	
2025-01-13 22:52:59.26	31.97	9.63	
2025-01-13 22:52:59.47	31.99	9.65	
2025-01-13 22:52:59.67	32.01	9.66	
2025-01-13 22:52:59.88	32.03	9.67	
2025-01-13 22:53:00.08	32.05	9.69	
2025-01-13 22:53:00.28	32.07	9.70	
2025-01-13 22:53:00.49	32.10	9.72	
2025-01-13 22:53:00.69	32.12	9.73	
2025-01-13 22:53:00.90	32.14	9.75	
2025-01-13 22:53:01.10	32.16	9.76	
2025-01-13 22:53:01.31	32.18	9.77	
2025-01-13 22:53:01.52	32.20	9.79	
2025-01-13 22:53:01.72	32.22	9.80	
2025-01-13 22:53:01.93	32.24	9.82	
2025-01-13 22:53:02.13	32.26	9.83	
2025-01-13 22:53:02.34	32.28	9.85	
2025-01-13 22:53:02.54	32.30	9.86	
2025-01-13 22:53:02.75	32.33	9.87	
2025-01-13 22:53:02.95	32.35	9.89	
2025-01-13 22:53:03.16	32.37	9.90	
2025-01-13 22:53:03.36	32.39	9.92	
2025-01-13 22:53:03.57	32.41	9.93	
2025-01-13 22:53:03.77	32.43	9.95	
2025-01-13 22:53:03.98	32.45	9.96	
2025-01-13 22:53:04.19	32.47	9.98	
2025-01-13 22:53:04.39	32.50	9.99	
2025-01-13 22:53:04.60	32.52	10.01	
2025-01-13 22:53:04.80	32.54	10.02	
2025-01-13 22:53:05.01	32.56	10.03	
2025-01-13 22:53:05.21	32.58	10.05	
2025-01-13 22:53:05.42	32.60	10.06	
2025-01-13 22:53:05.62	32.62	10.08	
2025-01-13 22:53:05.83	32.65	10.09	
2025-01-13 22:53:06.03	32.67	10.11	
2025-01-13 22:53:06.24	32.69	10.12	
2025-01-13 22:53:06.44	32.71	10.13	
2025-01-13 22:53:06.65	32.73	10.15	
2025-01-13 22:53:06.86	32.75	10.16	
2025-01-13 22:53:07.06	32.77	10.18	
2025-01-13 22:53:07.27	32.80	10.19	
2025-01-13 22:53:07.47	32.82	10.21	
2025-01-13 22:53:07.68	32.84	10.22	
2025-01-13 22:53:07.88	32.86	10.24	
2025-01-13 22:53:08.08	32.88	10.25	
2025-01-13 22:53:08.29	32.90	10.27	
2025-01-13 22:53:08.49	32.92	10.28	
2025-01-13 22:53:08.70	32.95	10.30	
2025-01-13 22:53:08.90	32.97	10.31	
2025-01-13 22:53:09.11	32.99	10.32	
2025-01-13 22:53:09.31	33.01	10.34	
2025-01-13 22:53:09.52	33.03	10.35	
2025-01-13 22:53:09.72	33.05	10.37	
2025-01-13 22:53:09.93	33.08	10.38	
2025-01-13 22:53:10.13	33.10	10.40	
2025-01-13 22:53:10.34	33.12	10.41	
2025-01-13 22:53:10.55	33.14	10.43	
2025-01-13 22:53:10.75	33.16	10.44	
2025-01-13 22:53:10.96	33.19	10.46	
2025-01-13 22:53:11.16	33.21	10.47	
2025-01-13 22:53:11.37	33.23	10.48	
2025-01-13 22:53:11.57	33.25	10.50	
2025-01-13 22:53:11.78	33.27	10.51	
2025-01-13 22:53:11.98	33.30	10.53	
2025-01-13 22:53:12.19	33.32	10.54	
2025-01-13 22:53:12.39	33.34	10.56	
2025-01-13 22:53:12.60	33.36	10.57	
2025-01-13 22:53:12.80	33.38	10.59	
2025-01-13 22:53:13.01	33.41	10.60	
2025-01-13 22:53:13.21	33.43	10.62	
2025-01-13 22:53:13.42	33.45	10.63	
2025-01-13 22:53:13.62	33.47	10.65	
2025-01-13 22:53:13.83	33.50	10.66	
2025-01-13 22:53:14.03	33.52	10.67	
2025-01-13 22:53:14.24	33.54	10.69	
2025-01-13 22:53:14.45	33.56	10.71	
2025-01-13 22:53:14.66	33.59	10.72	
2025-01-13 22:53:14.87	33.61	10.74	
2025-01-13 22:53:15.07	33.63	10.75	
2025-01-13 22:53:15.28	33.65	10.76	
2025-01-13 22:53:15.48	33.67	10.78	
2025-01-13 22:53:15.69	33.70	10.79	
2025-01-13 22:53:15.89	33.72	10.81	
2025-01-13 22:53:16.10	33.74	10.82	
2025-01-13 22:53:16.31	33.77	10.84	
2025-01-13 22:53:16.52	33.79	10.85	
2025-01-13 22:53:16.72	33.81	10.87	
2025-01-13 22:53:16.93	33.83	10.88	
2025-01-13 22:53:17.14	33.86	10.90	
2025-01-13 22:53:17.34	33.88	10.91	
2025-01-13 22:53:17.55	33.90	10.93	
2025-01-13 22:53:17.75	33.92	10.94	
2025-01-13 22:53:17.96	33.95	10.96	
2025-01-13 22:53:18.16	33.97	10.97	
2025-01-13 22:53:18.37	33.99	10.99	
2025-01-13 22:53:18.58	34.02	11.00	
2025-01-13 22:53:18.78	34.04	11.02	
2025-01-13 22:53:18.99	34.06	11.03	
2025-01-13 22:53:19.19	34.08	11.05	
2025-01-13 22:53:19.40	34.11	11.06	
2025-01-13 22:53:19.60	34.13	11.08	
2025-01-13 22:53:19.80	34.15	11.09	
2025-01-13 22:53:20.01	34.17	11.11	
2025-01-13 22:53:20.21	34.20	11.12	
2025-01-13 22:53:20.42	34.22	11.14	
2025-01-13 22:53:20.63	34.24	11.15	
2025-01-13 22:53:20.83	34.27	11.16	
2025-01-13 22:53:21.04	34.29	11.18	
2025-01-13 22:53:21.24	34.31	11.19	
2025-01-13 22:53:21.45	34.33	11.21	
2025-01-13 22:53:21.65	34.36	11.22	
2025-01-13 22:53:21.85	34.38	11.24	
2025-01-13 22:53:22.06	34.40	11.25	
2025-01-13 22:53:22.27	34.43	11.27	
2025-01-13 22:53:22.47	34.45	11.28	
2025-01-13 22:53:22.68	34.47	11.30	
2025-01-13 22:53:22.89	34.50	11.31	
2025-01-13 22:53:23.09	34.52	11.33	
2025-01-13 22:53:23.30	34.54	11.34	
2025-01-13 22:53:23.50	34.57	11.36	
2025-01-13 22:53:23.71	34.59	11.37	
2025-01-13 22:53:23.91	34.61	11.39	
2025-01-13 22:53:24.11	34.64	11.40	
2025-01-13 22:53:24.32	34.66	11.42	
2025-01-13 22:53:24.53	34.68	11.43	
2025-01-13 22:53:24.73	34.71	11.45	
2025-01-13 22:53:24.94	34.73	11.46	
2025-01-13 22:53:25.14	34.75	11.48	
2025-01-13 22:53:25.35	34.78	11.49	
2025-01-13 22:53:25.56	34.80	11.51	
2025-01-13 22:53:25.76	34.82	11.52	
2025-01-13 22:53:25.97	34.85	11.54	
2025-01-13 22:53:26.17	34.87	11.55	
2025-01-13 22:53:26.38	34.89	11.57	
2025-01-13 22:53:26.58	34.92	11.58	
2025-01-13 22:53:26.79	34.94	11.60	
2025-01-13 22:53:26.99	34.96	11.61	
2025-01-13 22:53:27.20	34.99	11.63	
2025-01-13 22:53:27.40	35.01	11.64	
2025-01-13 22:53:27.61	35.04	11.66	
2025-01-13 22:53:27.81	35.06	11.67	
2025-01-13 22:53:28.02	35.08	11.69	
2025-01-13 22:53:28.22	35.11	11.70	
2025-01-13 22:53:28.43	35.13	11.72	
2025-01-13 22:53:28.63	35.15	11.73	
2025-01-13 22:53:28.84	35.18	11.75	
2025-01-13 22:53:29.05	35.20	11.76	
2025-01-13 22:53:29.25	35.23	11.78	
2025-01-13 22:53:29.46	35.25	11.79	
2025-01-13 22:53:29.66	35.27	11.81	
2025-01-13 22:53:29.87	35.30	11.82	
2025-01-13 22:53:30.07	35.32	11.84	
2025-01-13 22:53:30.28	35.35	11.85	
2025-01-13 22:53:30.50	35.37	11.87	
2025-01-13 22:53:30.70	35.40	11.89	
2025-01-13 22:53:30.91	35.42	11.90	
2025-01-13 22:53:31.11	35.44	11.92	
2025-01-13 22:53:31.32	35.47	11.93	
2025-01-13 22:53:31.52	35.49	11.95	
2025-01-13 22:53:31.73	35.52	11.96	
2025-01-13 22:53:31.93	35.54	11.98	
2025-01-13 22:53:32.14	35.57	11.99	
2025-01-13 22:53:32.34	35.59	12.01	
2025-01-13 22:53:32.56	35.61	12.02	
2025-01-13 22:53:32.76	35.64	12.04	
2025-01-13 22:53:32.97	35.66	12.05	
2025-01-13 22:53:33.18	35.69	12.07	
2025-01-13 22:53:33.38	35.71	12.08	
2025-01-13 22:53:33.59	35.74	12.10	
2025-01-13 22:53:33.79	35.76	12.11	
2025-01-13 22:53:34.00	35.79	12.13	
2025-01-13 22:53:34.21	35.81	12.14	
2025-01-13 22:53:34.41	35.83	12.16	
2025-01-13 22:53:34.62	35.86	12.18	
2025-01-13 22:53:34.82	35.88	12.19	
2025-01-13 22:53:35.03	35.91	12.21	
2025-01-13 22:53:35.23	35.93	12.22	
2025-01-13 22:53:35.44	35.96	12.24	
2025-01-13 22:53:35.64	35.98	12.25	
2025-01-13 22:53:35.85	36.01	12.27	
2025-01-13 22:53:36.05	36.03	12.28	
2025-01-13 22:53:36.26	36.06	12.30	
2025-01-13 22:53:36.46	36.08	12.31	
2025-01-13 22:53:36.67	36.11	12.33	
2025-01-13 22:53:36.87	36.13	12.34	
2025-01-13 22:53:37.07	36.15	12.36	
2025-01-13 22:53:37.28	36.18	12.37	
2025-01-13 22:53:37.49	36.21	12.39	
2025-01-13 22:53:37.69	36.23	12.40	
2025-01-13 22:53:37.90	36.25	12.42	
2025-01-13 22:53:38.10	36.28	12.43	
2025-01-13 22:53:38.31	36.30	12.45	
2025-01-13 22:53:38.51	36.33	12.46	
2025-01-13 22:53:38.72	36.35	12.48	
2025-01-13 22:53:38.92	36.38	12.49	
2025-01-13 22:53:39.14	36.41	12.51	
2025-01-13 22:53:39.35	36.43	12.53	
2025-01-13 22:53:39.55	36.46	12.54	
2025-01-13 22:53:39.76	36.48	12.56	
2025-01-13 22:53:39.97	36.51	12.57	
2025-01-13 22:53:40.17	36.53	12.59	
2025-01-13 22:53:40.37	36.56	12.60	
2025-01-13 22:53:40.58	36.58	12.62	
2025-01-13 22:53:40.79	36.61	12.63	
2025-01-13 22:53:40.99	36.63	12.65	
2025-01-13 22:53:41.20	36.66	12.67	
2025-01-13 22:53:41.40	36.68	12.68	
2025-01-13 22:53:41.61	36.71	12.70	
2025-01-13 22:53:41.82	36.74	12.71	
2025-01-13 22:53:42.02	36.76	12.73	
2025-01-13 22:53:42.22	36.78	12.74	
2025-01-13 22:53:42.43	36.81	12.76	
2025-01-13 22:53:42.64	36.84	12.77	
2025-01-13 22:53:42.84	36.86	12.79	
2025-01-13 22:53:43.05	36.89	12.80	
2025-01-13 22:53:43.25	36.91	12.82	
2025-01-13 22:53:43.46	36.94	12.83	
2025-01-13 22:53:43.66	36.96	12.85	
2025-01-13 22:53:43.87	36.99	12.87	
2025-01-13 22:53:44.08	37.02	12.88	
2025-01-13 22:53:44.28	37.04	12.90	
2025-01-13 22:53:44.48	37.07	12.91	
2025-01-13 22:53:44.69	37.09	12.93	
2025-01-13 22:53:44.89	37.12	12.94	
2025-01-13 22:53:45.10	37.14	12.96	
2025-01-13 22:53:45.30	37.17	12.97	
2025-01-13 22:53:45.51	37.20	12.99	
2025-01-13 22:53:45.71	37.22	13.00	
2025-01-13 22:53:45.92	37.25	13.02	
2025-01-13 22:53:46.13	37.27	13.04	
2025-01-13 22:53:46.33	37.30	13.05	
2025-01-13 22:53:46.54	37.33	13.07	
2025-01-13 22:53:46.74	37.35	13.08	
2025-01-13 22:53:46.95	37.38	13.10	
2025-01-13 22:53:47.15	37.40	13.11	
2025-01-13 22:53:47.36	37.43	13.13	
2025-01-13 22:53:47.56	37.46	13.14	
2025-01-13 22:53:47.77	37.48	13.16	
2025-01-13 22:53:47.97	37.51	13.17	
2025-01-13 22:53:48.18	37.53	13.19	
2025-01-13 22:53:48.38	37.56	13.21	
2025-01-13 22:53:48.59	37.59	13.22	
2025-01-13 22:53:48.79	37.61	13.24	
2025-01-13 22:53:49.01	37.64	13.25	
2025-01-13 22:53:49.22	37.67	13.27	
2025-01-13 22:53:49.42	37.69	13.28	
2025-01-13 22:53:49.63	37.72	13.30	
2025-01-13 22:53:49.83	37.75	13.32	
2025-01-13 22:53:50.04	37.77	13.33	
2025-01-13 22:53:50.24	37.80	13.35	
2025-01-13 22:53:50.45	37.83	13.36	
2025-01-13 22:53:50.65	37.85	13.38	
2025-01-13 22:53:50.86	37.88	13.39	
2025-01-13 22:53:51.06	37.91	13.41	
2025-01-13 22:53:51.27	37.93	13.42	
2025-01-13 22:53:51.48	37.96	13.44	
2025-01-13 22:53:51.68	37.99	13.46	
2025-01-13 22:53:51.89	38.01	13.47	
2025-01-13 22:53:52.09	38.04	13.49	
2025-01-13 22:53:52.30	38.07	13.50	
2025-01-13 22:53:52.50	38.09	13.52	
2025-01-13 22:53:52.71	38.12	13.53	
2025-01-13 22:53:52.91	38.15	13.55	
2025-01-13 22:53:53.12	38.17	13.57	
2025-01-13 22:53:53.32	38.20	13.58	
2025-01-13 22:53:53.53	38.23	13.60	
2025-01-13 22:53:53.74	38.25	13.61	
2025-01-13 22:53:53.94	38.28	13.63	
2025-01-13 22:53:54.15	38.31	13.64	
2025-01-13 22:53:54.35	38.33	13.66	
2025-01-13 22:53:54.56	38.36	13.67	
2025-01-13 22:53:54.76	38.39	13.69	
2025-01-13 22:53:54.96	38.41	13.71	
2025-01-13 22:53:55.17	38.44	13.72	
2025-01-13 22:53:55.38	38.47	13.74	
2025-01-13 22:53:55.58	38.50	13.75	
2025-01-13 22:53:55.79	38.52	13.77	
2025-01-13 22:53:55.99	38.55	13.78	
2025-01-13 22:53:56.20	38.58	13.80	
2025-01-13 22:53:56.40	38.61	13.82	
2025-01-13 22:53:56.61	38.63	13.83	
2025-01-13 22:53:56.81	38.66	13.85	
2025-01-13 22:53:57.02	38.69	13.86	
2025-01-13 22:53:57.22	38.72	13.88	
2025-01-13 22:53:57.43	38.74	13.89	
2025-01-13 22:53:57.63	38.77	13.91	
2025-01-13 22:53:57.84	38.80	13.93	
2025-01-13 22:53:58.04	38.82	13.94	
2025-01-13 22:53:58.26	38.85	13.96	
2025-01-13 22:53:58.47	38.88	13.97	
2025-01-13 22:53:58.67	38.91	13.99	
2025-01-13 22:53:58.88	38.94	14.01	
2025-01-13 22:53:59.08	38.96	14.02	
2025-01-13 22:53:59.29	38.99	14.04	
2025-01-13 22:53:59.49	39.02	14.05	
2025-01-13 22:53:59.70	39.05	14.07	
2025-01-13 22:53:59.90	39.08	14.08	
2025-01-13 22:54:00.11	39.10	14.10	
2025-01-13 22:54:00.31	39.13	14.12	
2025-01-13 22:54:00.52	39.16	14.13	
2025-01-13 22:54:00.72	39.19	14.15	
2025-01-13 22:54:00.93	39.21	14.16	
2025-01-13 22:54:01.13	39.24	14.18	
2025-01-13 22:54:01.33	39.27	14.19	
2025-01-13 22:54:01.53	39.30	14.21	
2025-01-13 22:54:01.74	39.33	14.23	
2025-01-13 22:54:01.94	39.35	14.24	
2025-01-13 22:54:02.14	39.38	14.26	
2025-01-13 22:54:02.34	39.41	14.27	
2025-01-13 22:54:02.56	39.44	14.29	
2025-01-13 22:54:02.76	39.47	14.30	
2025-01-13 22:54:02.96	39.49	14.32	
2025-01-13 22:54:03.17	39.52	14.34	
2025-01-13 22:54:03.37	39.55	14.35	
2025-01-13 22:54:03.58	39.58	14.37	
2025-01-13 22:54:03.78	39.61	14.38	
2025-01-13 22:54:03.99	39.63	14.40	
2025-01-13 22:54:04.20	39.66	14.42	
2025-01-13 22:54:04.40	39.69	14.43	
2025-01-13 22:54:04.61	39.72	14.45	
2025-01-13 22:54:04.81	39.75	14.46	
2025-01-13 22:54:05.02	39.78	14.48	
2025-01-13 22:54:05.22	39.80	14.49	
2025-01-13 22:54:05.43	39.83	14.51	
2025-01-13 22:54:05.63	39.86	14.53	
2025-01-13 22:54:05.84	39.89	14.54	
2025-01-13 22:54:06.04	39.92	14.56	
2025-01-13 22:54:06.25	39.95	14.57	
2025-01-13 22:54:06.46	39.98	14.59	
2025-01-13 22:54:06.66	40.01	14.61	
2025-01-13 22:54:06.87	40.04	14.62	
2025-01-13 22:54:07.07	40.06	14.64	
2025-01-13 22:54:07.28	40.09	14.65	
2025-01-13 22:54:07.48	40.12	14.67	
2025-01-13 22:54:07.68	40.15	14.68	
2025-01-13 22:54:07.89	40.18	14.70	
2025-01-13 22:54:08.09	40.21	14.72	
2025-01-13 22:54:08.30	40.24	14.73	
2025-01-13 22:54:08.50	40.26	14.75	
2025-01-13 22:54:08.71	40.29	14.76	
2025-01-13 22:54:08.91	40.32	14.78	
2025-01-13 22:54:09.12	40.35	14.80	
2025-01-13 22:54:09.33	40.38	14.81	
2025-01-13 22:54:09.53	40.41	14.83	
2025-01-13 22:54:09.74	40.44	14.84	
2025-01-13 22:54:09.94	40.47	14.86	
2025-01-13 22:54:10.14	40.50	14.88	
2025-01-13 22:54:10.35	40.53	14.89	
2025-01-13 22:54:10.55	40.56	14.91	
2025-01-13 22:54:10.76	40.59	14.92	
2025-01-13 22:54:10.96	40.61	14.94	
2025-01-13 22:54:11.17	40.64	14.96	
2025-01-13 22:54:11.37	40.67	14.97	
2025-01-13 22:54:11.58	40.70	14.99	
2025-01-13 22:54:11.78	40.73	15.00	
2025-01-13 22:54:11.99	40.76	15.02	
2025-01-13 22:54:12.19	40.79	15.04	
2025-01-13 22:54:12.40	40.82	15.05	
2025-01-13 22:54:12.60	40.85	15.07	
2025-01-13 22:54:12.81	40.88	15.08	
2025-01-13 22:54:13.01	40.91	15.10	
2025-01-13 22:54:13.22	40.94	15.12	
2025-01-13 22:54:13.42	40.97	15.13	
2025-01-13 22:54:13.63	41.00	15.15	
2025-01-13 22:54:13.83	41.03	15.16	
2025-01-13 22:54:14.04	41.06	15.18	
2025-01-13 22:54:14.24	41.09	15.20	
2025-01-13 22:54:14.45	41.12	15.21	
2025-01-13 22:54:14.65	41.15	15.23	
2025-01-13 22:54:14.86	41.18	15.24	
2025-01-13 22:54:15.06	41.21	15.26	
2025-01-13 22:54:15.28	41.24	15.28	
2025-01-13 22:54:15.49	41.27	15.29	
2025-01-13 22:54:15.69	41.30	15.31	
2025-01-13 22:54:15.90	41.33	15.33	
2025-01-13 22:54:16.10	41.36	15.34	
2025-01-13 22:54:16.32	41.39	15.36	
2025-01-13 22:54:16.53	41.42	15.37	
2025-01-13 22:54:16.73	41.45	15.39	
2025-01-13 22:54:16.94	41.48	15.41	
2025-01-13 22:54:17.15	41.51	15.42	
2025-01-13 22:54:17.35	41.54	15.44	
2025-01-13 22:54:17.55	41.57	15.45	
2025-01-13 22:54:17.76	41.60	15.47	
2025-01-13 22:54:17.97	41.64	15.49	
2025-01-13 22:54:18.17	41.66	15.50	
2025-01-13 22:54:18.38	41.70	15.52	
2025-01-13 22:54:18.58	41.73	15.54	
2025-01-13 22:54:18.79	41.76	15.55	
2025-01-13 22:54:19.00	41.79	15.57	
2025-01-13 22:54:19.20	41.82	15.58	
2025-01-13 22:54:19.41	41.85	15.60	
2025-01-13 22:54:19.61	41.88	15.62	
2025-01-13 22:54:19.82	41.91	15.63	
2025-01-13 22:54:20.02	41.94	15.65	
2025-01-13 22:54:20.23	41.97	15.67	
2025-01-13 22:54:20.43	42.00	15.68	
2025-01-13 22:54:20.64	42.03	15.70	
2025-01-13 22:54:20.84	42.06	15.71	
2025-01-13 22:54:21.05	42.10	15.73	
2025-01-13 22:54:21.25	42.13	15.75	
2025-01-13 22:54:21.46	42.16	15.76	
2025-01-13 22:54:21.66	42.19	15.78	
2025-01-13 22:54:21.87	42.22	15.79	
2025-01-13 22:54:22.07	42.25	15.81	
2025-01-13 22:54:22.28	42.28	15.83	
2025-01-13 22:54:22.49	42.31	15.84	
2025-01-13 22:54:22.69	42.34	15.86	
2025-01-13 22:54:22.89	42.37	15.87	
2025-01-13 22:54:23.10	42.41	15.89	
2025-01-13 22:54:23.31	42.44	15.91	
2025-01-13 22:54:23.51	42.47	15.92	
2025-01-13 22:54:23.71	42.50	15.94	
2025-01-13 22:54:23.92	42.53	15.96	
2025-01-13 22:54:24.12	42.56	15.97	
2025-01-13 22:54:24.33	42.59	15.99	
2025-01-13 22:54:24.53	42.62	16.00	
2025-01-13 22:54:24.74	42.66	16.02	
2025-01-13 22:54:24.94	42.69	16.04	
2025-01-13 22:54:25.15	42.72	16.05	
2025-01-13 22:54:25.35	42.75	16.07	
2025-01-13 22:54:25.56	42.78	16.09	
2025-01-13 22:54:25.77	42.81	16.10	
2025-01-13 22:54:25.97	42.85	16.12	
2025-01-13 22:54:26.17	42.88	16.13	
2025-01-13 22:54:26.38	42.91	16.15	
2025-01-13 22:54:26.58	42.94	16.17	
2025-01-13 22:54:26.79	42.97	16.18	
2025-01-13 22:54:26.99	43.00	16.20	
2025-01-13 22:54:27.20	43.04	16.22	
2025-01-13 22:54:27.40	43.07	16.23	
2025-01-13 22:54:27.61	43.10	16.25	
2025-01-13 22:54:27.82	43.13	16.26	
2025-01-13 22:54:28.02	43.16	16.28	
2025-01-13 22:54:28.23	43.20	16.30	
2025-01-13 22:54:28.43	43.23	16.31	
2025-01-13 22:54:28.64	43.26	16.33	
2025-01-13 22:54:28.84	43.29	16.35	
2025-01-13 22:54:29.05	43.32	16.36	
2025-01-13 22:54:29.25	43.36	16.38	
2025-01-13 22:54:29.46	43.39	16.39	
2025-01-13 22:54:29.66	43.42	16.41	
2025-01-13 22:54:29.87	43.45	16.43	
2025-01-13 22:54:30.07	43.49	16.44	
2025-01-13 22:54:30.29	43.52	16.46	
2025-01-13 22:54:30.50	43.55	16.48	
2025-01-13 22:54:30.70	43.58	16.49	
2025-01-13 22:54:30.91	43.62	16.51	
2025-01-13 22:54:31.11	43.65	16.53	
2025-01-13 22:54:31.32	43.68	16.54	
2025-01-13 22:54:31.52	43.71	16.56	
2025-01-13 22:54:31.73	43.75	16.57	
2025-01-13 22:54:31.94	43.78	16.59	
2025-01-13 22:54:32.14	43.81	16.61	
2025-01-13 22:54:32.36	43.85	16.62	
2025-01-13 22:54:32.56	43.88	16.64	
2025-01-13 22:54:32.77	43.91	16.66	
2025-01-13 22:54:32.97	43.95	16.67	
2025-01-13 22:54:33.18	43.98	16.69	
2025-01-13 22:54:33.38	44.01	16.71	
2025-01-13 22:54:33.59	44.05	16.72	
2025-01-13 22:54:33.79	44.08	16.74	
2025-01-13 22:54:34.00	44.11	16.75	
2025-01-13 22:54:34.20	44.14	16.77	
2025-01-13 22:54:34.41	44.18	16.79	
2025-01-13 22:54:34.62	44.21	16.80	
2025-01-13 22:54:34.82	44.24	16.82	
2025-01-13 22:54:35.03	44.28	16.84	
2025-01-13 22:54:35.23	44.31	16.85	
2025-01-13 22:54:35.44	44.34	16.87	
2025-01-13 22:54:35.64	44.38	16.89	
2025-01-13 22:54:35.84	44.41	16.90	
2025-01-13 22:54:36.05	44.44	16.92	
2025-01-13 22:54:36.25	44.48	16.93	
2025-01-13 22:54:36.46	44.51	16.95	
2025-01-13 22:54:36.66	44.54	16.97	
2025-01-13 22:54:36.87	44.58	16.98	
2025-01-13 22:54:37.08	44.61	17.00	
2025-01-13 22:54:37.28	44.64	17.02	
2025-01-13 22:54:37.49	44.68	17.03	
2025-01-13 22:54:37.69	44.71	17.05	
2025-01-13 22:54:37.90	44.75	17.07	
2025-01-13 22:54:38.10	44.78	17.08	
2025-01-13 22:54:38.31	44.81	17.10	
2025-01-13 22:54:38.52	44.85	17.11	
2025-01-13 22:54:38.72	44.88	17.13	
2025-01-13 22:54:38.92	44.91	17.15	
2025-01-13 22:54:39.13	44.95	17.16	
2025-01-13 22:54:39.33	44.98	17.18	
2025-01-13 22:54:39.54	45.02	17.20	
2025-01-13 22:54:39.74	45.05	17.21	
2025-01-13 22:54:39.95	45.08	17.23	
2025-01-13 22:54:40.15	45.12	17.24	
2025-01-13 22:54:40.36	45.15	17.26	
2025-01-13 22:54:40.57	45.19	17.28	
2025-01-13 22:54:40.77	45.22	17.29	
2025-01-13 22:54:40.98	45.25	17.31	
2025-01-13 22:54:41.18	45.29	17.33	
2025-01-13 22:54:41.39	45.32	17.34	
2025-01-13 22:54:41.59	45.36	17.36	
2025-01-13 22:54:41.80	45.39	17.38	
2025-01-13 22:54:42.00	45.43	17.39	
2025-01-13 22:54:42.20	45.46	17.41	
2025-01-13 22:54:42.41	45.49	17.43	
2025-01-13 22:54:42.62	45.53	17.44	
2025-01-13 22:54:42.82	45.56	17.46	
2025-01-13 22:54:43.03	45.60	17.47	
2025-01-13 22:54:43.23	45.63	17.49	
2025-01-13 22:54:43.44	45.67	17.51	
2025-01-13 22:54:43.64	45.70	17.52	
2025-01-13 22:54:43.85	45.74	17.54	
2025-01-13 22:54:44.06	45.77	17.56	
2025-01-13 22:54:44.26	45.81	17.57	
2025-01-13 22:54:44.46	45.84	17.59	
2025-01-13 22:54:44.67	45.88	17.61	
2025-01-13 22:54:44.88	45.91	17.62	
2025-01-13 22:54:45.08	45.95	17.64	
2025-01-13 22:54:45.29	45.98	17.66	
2025-01-13 22:54:45.49	46.02	17.67	
2025-01-13 22:54:45.70	46.05	17.69	
2025-01-13 22:54:45.90	46.09	17.70	
2025-01-13 22:54:46.11	46.12	17.72	
2025-01-13 22:54:46.31	46.16	17.74	
2025-01-13 22:54:46.52	46.19	17.75	
2025-01-13 22:54:46.72	46.23	17.77	
2025-01-13 22:54:46.93	46.26	17.79	
2025-01-13 22:54:47.13	46.30	17.80	
2025-01-13 22:54:47.34	46.33	17.82	
2025-01-13 22:54:47.54	46.37	17.84	
2025-01-13 22:54:47.75	46.40	17.85	
2025-01-13 22:54:47.95	46.44	17.87	
2025-01-13 22:54:48.16	46.47	17.88	
2025-01-13 22:54:48.36	46.51	17.90	
2025-01-13 22:54:48.56	46.54	17.92	
2025-01-13 22:54:48.77	46.58	17.93	
2025-01-13 22:54:48.97	46.61	17.95	
2025-01-13 22:54:49.18	46.65	17.97	
2025-01-13 22:54:49.38	46.69	17.98	
2025-01-13 22:54:49.59	46.72	18.00	
2025-01-13 22:54:49.79	46.76	18.01	
2025-01-13 22:54:50.00	46.79	18.03	
2025-01-13 22:54:50.21	46.83	18.05	
2025-01-13 22:54:50.41	46.87	18.06	
2025-01-13 22:54:50.61	46.90	18.08	
2025-01-13 22:54:50.82	46.94	18.10	
2025-01-13 22:54:51.03	46.97	18.11	
2025-01-13 22:54:51.23	47.01	18.13	
2025-01-13 22:54:51.44	47.05	18.15	
2025-01-13 22:54:51.64	47.08	18.16	
2025-01-13 22:54:51.85	47.12	18.18	
2025-01-13 22:54:52.05	47.15	18.20	
2025-01-13 22:54:52.26	47.19	18.21	
2025-01-13 22:54:52.46	47.23	18.23	
2025-01-13 22:54:52.67	47.26	18.25	
2025-01-13 22:54:52.87	47.30	18.26	
2025-01-13 22:54:53.08	47.34	18.28	
2025-01-13 22:54:53.28	47.37	18.29	
2025-01-13 22:54:53.49	47.41	18.31	
2025-01-13 22:54:53.69	47.45	18.33	
2025-01-13 22:54:53.90	47.48	18.34	
2025-01-13 22:54:54.10	47.52	18.36	
2025-01-13 22:54:54.31	47.56	18.38	
2025-01-13 22:54:54.51	47.59	18.39	
2025-01-13 22:54:54.72	47.63	18.41	
2025-01-13 22:54:54.92	47.66	18.43	
2025-01-13 22:54:55.13	47.70	18.44	
2025-01-13 22:54:55.33	47.74	18.46	
2025-01-13 22:54:55.54	47.78	18.47	
2025-01-13 22:54:55.74	47.81	18.49	
2025-01-13 22:54:55.96	47.85	18.51	
2025-01-13 22:54:56.17	47.89	18.53	
2025-01-13 22:54:56.37	47.93	18.54	
2025-01-13 22:54:56.58	47.96	18.56	
2025-01-13 22:54:56.78	48.00	18.57	
2025-01-13 22:54:56.98	48.04	18.59	
2025-01-13 22:54:57.19	48.07	18.61	
2025-01-13 22:54:57.39	48.11	18.62	
2025-01-13 22:54:57.60	48.15	18.64	
2025-01-13 22:54:57.81	48.19	18.66	
2025-01-13 22:54:58.01	48.22	18.67	
2025-01-13 22:54:58.22	48.26	18.69	
2025-01-13 22:54:58.42	48.30	18.71	
2025-01-13 22:54:58.63	48.34	18.72	
2025-01-13 22:54:58.83	48.37	18.74	
2025-01-13 22:54:59.04	48.41	18.75	
2025-01-13 22:54:59.24	48.45	18.77	
2025-01-13 22:54:59.45	48.49	18.79	
2025-01-13 22:54:59.65	48.52	18.80	
2025-01-13 22:54:59.86	48.56	18.82	
2025-01-13 22:55:00.07	48.60	18.84	
2025-01-13 22:55:00.27	48.64	18.85	
2025-01-13 22:55:00.48	48.68	18.87	
2025-01-13 22:55:00.68	48.71	18.89	
2025-01-13 22:55:00.89	48.75	18.90	
2025-01-13 22:55:01.09	48.79	18.92	
2025-01-13 22:55:01.31	48.83	18.94	
2025-01-13 22:55:01.52	48.87	18.95	
2025-01-13 22:55:01.72	48.90	18.97	
2025-01-13 22:55:01.93	48.94	18.99	
2025-01-13 22:55:02.13	48.98	19.00	
2025-01-13 22:55:02.34	49.02	19.02	
2025-01-13 22:55:02.54	49.06	19.03	
2025-01-13 22:55:02.75	49.10	19.05	
2025-01-13 22:55:02.95	49.13	19.07	
2025-01-13 22:55:03.16	49.17	19.08	
2025-01-13 22:55:03.36	49.21	19.10	
2025-01-13 22:55:03.57	49.25	19.12	
2025-01-13 22:55:03.78	49.29	19.13	
2025-01-13 22:55:03.98	49.33	19.15	
2025-01-13 22:55:04.18	49.36	19.17	
2025-01-13 22:55:04.40	49.41	19.18	
2025-01-13 22:55:04.61	49.44	19.20	
2025-01-13 22:55:04.81	49.48	19.22	
2025-01-13 22:55:05.01	49.52	19.23	
2025-01-13 22:55:05.22	49.56	19.25	
2025-01-13 22:55:05.42	49.60	19.26	
2025-01-13 22:55:05.63	49.64	19.28	
2025-01-13 22:55:05.83	49.67	19.30	
2025-01-13 22:55:06.04	49.71	19.31	
2025-01-13 22:55:06.24	49.75	19.33	
2025-01-13 22:55:06.45	49.79	19.35	
2025-01-13 22:55:06.65	49.83	19.36	
2025-01-13 22:55:06.86	49.87	19.38	
2025-01-13 22:55:07.07	49.91	19.40	
2025-01-13 22:55:07.27	49.95	19.41	
2025-01-13 22:55:07.48	49.99	19.43	
2025-01-13 22:55:07.68	50.03	19.44	
2025-01-13 22:55:07.89	50.07	19.46	
2025-01-13 22:55:08.09	50.11	19.48	
2025-01-13 22:55:08.30	50.15	19.49	
2025-01-13 22:55:08.50	50.18	19.51	
2025-01-13 22:55:08.71	50.22	19.53	
2025-01-13 22:55:08.91	50.26	19.54	
2025-01-13 22:55:09.12	50.30	19.56	
2025-01-13 22:55:09.32	50.34	19.57	
2025-01-13 22:55:09.53	50.38	19.59	
2025-01-13 22:55:09.73	50.42	19.61	
2025-01-13 22:55:09.94	50.46	19.62	
2025-01-13 22:55:10.14	50.50	19.64	
2025-01-13 22:55:10.35	50.54	19.66	
2025-01-13 22:55:10.55	50.58	19.67	
2025-01-13 22:55:10.76	50.62	19.69	
2025-01-13 22:55:10.96	50.66	19.71	
2025-01-13 22:55:11.17	50.70	19.72	
2025-01-13 22:55:11.37	50.74	19.74	
2025-01-13 22:55:11.58	50.78	19.75	
2025-01-13 22:55:11.78	50.82	19.77	
2025-01-13 22:55:12.00	50.86	19.79	
2025-01-13 22:55:12.20	50.90	19.80	
2025-01-13 22:55:12.41	50.94	19.82	
2025-01-13 22:55:12.61	50.98	19.84	
2025-01-13 22:55:12.82	51.02	19.85	
2025-01-13 22:55:13.02	51.06	19.87	
2025-01-13 22:55:13.23	51.10	19.89	
2025-01-13 22:55:13.43	51.14	19.90	
2025-01-13 22:55:13.64	51.18	19.92	
2025-01-13 22:55:13.84	51.22	19.93	
2025-01-13 22:55:14.05	51.27	19.95	
2025-01-13 22:55:14.25	51.30	19.97	
2025-01-13 22:55:14.46	51.35	19.98	
2025-01-13 22:55:14.66	51.39	20.00	
2025-01-13 22:55:14.87	51.43	20.02	
2025-01-13 22:55:15.07	51.47	20.03	
2025-01-13 22:55:15.28	51.51	20.05	
2025-01-13 22:55:15.49	51.55	20.06	
2025-01-13 22:55:15.69	51.59	20.08	
2025-01-13 22:55:15.90	51.63	20.10	
2025-01-13 22:55:16.10	51.67	20.11	
2025-01-13 22:55:16.31	51.71	20.13	
2025-01-13 22:55:16.51	51.75	20.14	
2025-01-13 22:55:16.72	51.80	20.16	
2025-01-13 22:55:16.92	51.84	20.18	
2025-01-13 22:55:17.13	51.88	20.19	
2025-01-13 22:55:17.33	51.92	20.21	
2025-01-13 22:55:17.54	51.96	20.23	
2025-01-13 22:55:17.74	52.00	20.24	
2025-01-13 22:55:17.95	52.04	20.26	
2025-01-13 22:55:18.16	52.09	20.27	
2025-01-13 22:55:18.36	52.13	20.29	
2025-01-13 22:55:18.56	52.17	20.31	
2025-01-13 22:55:18.77	52.21	20.32	
2025-01-13 22:55:18.97	52.25	20.34	
2025-01-13 22:55:19.18	52.29	20.36	
2025-01-13 22:55:19.38	52.33	20.37	
2025-01-13 22:55:19.59	52.37	20.39	
2025-01-13 22:55:19.80	52.42	20.40	
2025-01-13 22:55:20.00	52.46	20.42	
2025-01-13 22:55:20.21	52.50	20.44	
2025-01-13 22:55:20.41	52.54	20.45	
2025-01-13 22:55:20.61	52.58	20.47	
2025-01-13 22:55:20.82	52.63	20.48	
2025-01-13 22:55:21.03	52.67	20.50	
2025-01-13 22:55:21.23	52.71	20.52	
2025-01-13 22:55:21.44	52.75	20.53	
2025-01-13 22:55:21.64	52.79	20.55	
2025-01-13 22:55:21.85	52.84	20.57	
2025-01-13 22:55:22.05	52.88	20.58	
2025-01-13 22:55:22.26	52.92	20.60	
2025-01-13 22:55:22.46	52.96	20.61	
2025-01-13 22:55:22.67	53.01	20.63	
2025-01-13 22:55:22.87	53.05	20.65	
2025-01-13 22:55:23.08	53.09	20.66	
2025-01-13 22:55:23.29	53.13	20.68	
2025-01-13 22:55:23.49	53.17	20.69	
2025-01-13 22:55:23.70	53.22	20.71	
2025-01-13 22:55:23.90	53.26	20.73	
2025-01-13 22:55:24.11	53.30	20.74	
2025-01-13 22:55:24.32	53.35	20.76	
2025-01-13 22:55:24.52	53.39	20.77	
2025-01-13 22:55:24.74	53.43	20.79	
2025-01-13 22:55:24.95	53.48	20.81	
2025-01-13 22:55:25.15	53.52	20.82	
2025-01-13 22:55:25.36	53.56	20.84	
2025-01-13 22:55:25.56	53.61	20.86	
2025-01-13 22:55:25.77	53.65	20.87	
2025-01-13 22:55:25.97	53.69	20.89	
2025-01-13 22:55:26.18	53.74	20.90	
2025-01-13 22:55:26.38	53.78	20.92	
2025-01-13 22:55:26.59	53.82	20.94	
2025-01-13 22:55:26.79	53.86	20.95	
2025-01-13 22:55:27.00	53.91	20.97	
2025-01-13 22:55:27.21	53.95	20.98	
2025-01-13 22:55:27.41	53.99	21.00	
2025-01-13 22:55:27.62	54.04	21.02	
2025-01-13 22:55:27.82	54.08	21.03	
2025-01-13 22:55:28.02	54.12	21.05	
2025-01-13 22:55:28.23	54.17	21.06	
2025-01-13 22:55:28.44	54.21	21.08	
2025-01-13 22:55:28.64	54.25	21.09	
2025-01-13 22:55:28.85	54.30	21.11	
2025-01-13 22:55:29.05	54.34	21.13	
2025-01-13 22:55:29.26	54.39	21.14	
2025-01-13 22:55:29.46	54.43	21.16	
2025-01-13 22:55:29.67	54.47	21.17	
2025-01-13 22:55:29.88	54.52	21.19	
2025-01-13 22:55:30.08	54.56	21.21	
2025-01-13 22:55:30.28	54.60	21.22	
2025-01-13 22:55:30.49	54.65	21.24	
2025-01-13 22:55:30.70	54.69	21.25	
2025-01-13 22:55:30.90	54.74	21.27	
2025-01-13 22:55:31.12	54.78	21.29	
2025-01-13 22:55:31.32	54.83	21.30	
2025-01-13 22:55:31.53	54.87	21.32	
2025-01-13 22:55:31.74	54.92	21.33	
2025-01-13 22:55:31.94	54.96	21.35	
2025-01-13 22:55:32.15	55.01	21.37	
2025-01-13 22:55:32.35	55.05	21.38	
2025-01-13 22:55:32.56	55.10	21.40	
2025-01-13 22:55:32.76	55.14	21.41	
2025-01-13 22:55:32.97	55.18	21.43	
2025-01-13 22:55:33.17	55.23	21.44	
2025-01-13 22:55:33.38	55.27	21.46	
2025-01-13 22:55:33.59	55.32	21.48	
2025-01-13 22:55:33.79	55.36	21.49	
2025-01-13 22:55:34.00	55.41	21.51	
2025-01-13 22:55:34.20	55.45	21.52	
2025-01-13 22:55:34.41	55.50	21.54	
2025-01-13 22:55:34.61	55.54	21.55	
2025-01-13 22:55:34.82	55.59	21.57	
2025-01-13 22:55:35.02	55.63	21.59	
2025-01-13 22:55:35.23	55.68	21.60	
2025-01-13 22:55:35.45	55.73	21.62	
2025-01-13 22:55:35.65	55.77	21.63	
2025-01-13 22:55:35.86	55.82	21.65	
2025-01-13 22:55:36.06	55.86	21.67	
2025-01-13 22:55:36.27	55.91	21.68	
2025-01-13 22:55:36.47	55.95	21.70	
2025-01-13 22:55:36.68	56.00	21.71	
2025-01-13 22:55:36.88	56.04	21.73	
2025-01-13 22:55:37.09	56.09	21.74	
2025-01-13 22:55:37.29	56.13	21.76	
2025-01-13 22:55:37.50	56.18	21.78	
2025-01-13 22:55:37.70	56.22	21.79	
2025-01-13 22:55:37.91	56.27	21.81	
2025-01-13 22:55:38.11	56.31	21.82	
2025-01-13 22:55:38.32	56.36	21.84	
2025-01-13 22:55:38.52	56.40	21.85	
2025-01-13 22:55:38.73	56.45	21.87	
2025-01-13 22:55:38.93	56.50	21.88	
2025-01-13 22:55:39.14	56.54	21.90	
2025-01-13 22:55:39.35	56.59	21.92	
2025-01-13 22:55:39.55	56.63	21.93	
2025-01-13 22:55:39.76	56.68	21.95	
2025-01-13 22:55:39.96	56.73	21.96	
2025-01-13 22:55:40.17	56.77	21.98	
2025-01-13 22:55:40.38	56.82	21.99	
2025-01-13 22:55:40.58	56.87	22.01	
2025-01-13 22:55:40.80	56.92	22.03	
2025-01-13 22:55:41.01	56.96	22.04	
2025-01-13 22:55:41.21	57.01	22.06	
2025-01-13 22:55:41.42	57.06	22.07	
2025-01-13 22:55:41.62	57.10	22.09	
2025-01-13 22:55:41.83	57.15	22.10	
2025-01-13 22:55:42.03	57.19	22.12	
2025-01-13 22:55:42.24	57.24	22.13	
2025-01-13 22:55:42.44	57.29	22.15	
2025-01-13 22:55:42.65	57.33	22.16	
2025-01-13 22:55:42.87	57.38	22.18	
2025-01-13 22:55:43.07	57.43	22.20	
2025-01-13 22:55:43.28	57.48	22.21	
2025-01-13 22:55:43.48	57.52	22.23	
2025-01-13 22:55:43.69	57.57	22.24	
2025-01-13 22:55:43.89	57.62	22.26	
2025-01-13 22:55:44.10	57.67	22.27	
2025-01-13 22:55:44.30	57.71	22.29	
2025-01-13 22:55:44.51	57.76	22.30	
2025-01-13 22:55:44.71	57.80	22.32	
2025-01-13 22:55:44.92	57.85	22.33	
2025-01-13 22:55:45.12	57.90	22.35	
2025-01-13 22:55:45.33	57.95	22.36	
2025-01-13 22:55:45.54	58.00	22.38	
2025-01-13 22:55:45.74	58.04	22.39	
2025-01-13 22:55:45.95	58.09	22.41	
2025-01-13 22:55:46.15	58.14	22.42	
2025-01-13 22:55:46.36	58.18	22.44	
2025-01-13 22:55:46.56	58.23	22.46	
2025-01-13 22:55:46.77	58.28	22.47	
2025-01-13 22:55:46.97	58.33	22.49	
2025-01-13 22:55:47.19	58.38	22.50	
2025-01-13 22:55:47.40	58.43	22.52	
2025-01-13 22:55:47.60	58.47	22.53	
2025-01-13 22:55:47.81	58.52	22.55	
2025-01-13 22:55:48.01	58.57	22.56	
2025-01-13 22:55:48.22	58.62	22.58	
2025-01-13 22:55:48.42	58.66	22.59	
2025-01-13 22:55:48.63	58.71	22.61	
2025-01-13 22:55:48.84	58.76	22.62	
2025-01-13 22:55:49.04	58.81	22.64	
2025-01-13 22:55:49.25	58.86	22.65	
2025-01-13 22:55:49.45	58.90	22.67	
2025-01-13 22:55:49.65	58.95	22.68	
2025-01-13 22:55:49.86	59.00	22.70	
2025-01-13 22:55:50.07	59.05	22.71	
2025-01-13 22:55:50.27	59.10	22.73	
2025-01-13 22:55:50.48	59.15	22.74	
2025-01-13 22:55:50.68	59.19	22.76	
2025-01-13 22:55:50.88	59.24	22.77	
2025-01-13 22:55:51.09	59.29	22.79	
2025-01-13 22:55:51.30	59.34	22.80	
2025-01-13 22:55:51.51	59.39	22.82	
2025-01-13 22:55:51.72	59.44	22.83	
2025-01-13 22:55:51.93	59.49	22.85	
2025-01-13 22:55:52.13	59.54	22.86	
2025-01-13 22:55:52.34	59.59	22.88	
2025-01-13 22:55:52.56	59.64	22.89	
2025-01-13 22:55:52.76	59.69	22.91	
2025-01-13 22:55:52.97	59.74	22.92	
2025-01-13 22:55:53.17	59.79	22.94	
2025-01-13 22:55:53.38	59.84	22.95	
2025-01-13 22:55:53.58	59.88	22.97	
2025-01-13 22:55:53.79	59.93	22.98	
2025-01-13 22:55:53.99	59.98	23.00	
2025-01-13 22:55:54.20	60.03	23.01	
2025-01-13 22:55:54.40	60.08	23.03	
2025-01-13 22:55:54.61	60.13	23.04	
2025-01-13 22:55:54.81	60.18	23.06	
2025-01-13 22:55:55.02	60.23	23.07	
2025-01-13 22:55:55.22	60.28	23.09	
2025-01-13 22:55:55.43	60.33	23.10	
2025-01-13 22:55:55.63	60.38	23.11	
2025-01-13 22:55:55.84	60.43	23.13	
2025-01-13 22:55:56.04	60.47	23.14	
2025-01-13 22:55:56.25	60.53	23.16	
2025-01-13 22:55:56.45	60.57	23.17	
2025-01-13 22:55:56.66	60.62	23.19	
2025-01-13 22:55:56.86	60.67	23.20	
2025-01-13 22:55:57.07	60.72	23.22	
2025-01-13 22:55:57.28	60.78	23.23	
2025-01-13 22:55:57.48	60.82	23.25	
2025-01-13 22:55:57.69	60.87	23.26	
2025-01-13 22:55:57.89	60.92	23.28	
2025-01-13 22:55:58.09	60.97	23.29	
2025-01-13 22:55:58.30	61.02	23.30	
2025-01-13 22:55:58.51	61.08	23.32	
2025-01-13 22:55:58.71	61.12	23.33	
2025-01-13 22:55:58.91	61.17	23.35	
2025-01-13 22:55:59.12	61.22	23.36	
2025-01-13 22:55:59.33	61.28	23.38	
2025-01-13 22:55:59.53	61.32	23.39	
2025-01-13 22:55:59.74	61.38	23.41	
2025-01-13 22:55:59.94	61.43	23.42	
2025-01-13 22:56:00.16	61.48	23.43	
2025-01-13 22:56:00.36	61.53	23.45	
2025-01-13 22:56:00.57	61.58	23.46	
2025-01-13 22:56:00.78	61.63	23.48	
2025-01-13 22:56:00.98	61.68	23.49	
2025-01-13 22:56:01.18	61.73	23.51	
2025-01-13 22:56:01.39	61.78	23.52	
2025-01-13 22:56:01.60	61.84	23.53	
2025-01-13 22:56:01.80	61.89	23.55	
2025-01-13 22:56:02.01	61.94	23.56	
2025-01-13 22:56:02.21	61.99	23.58	
2025-01-13 22:56:02.42	62.04	23.59	
2025-01-13 22:56:02.62	62.09	23.61	
2025-01-13 22:56:02.83	62.14	23.62	
2025-01-13 22:56:03.04	62.19	23.63	
2025-01-13 22:56:03.24	62.24	23.65	
2025-01-13 22:56:03.45	62.30	23.66	
2025-01-13 22:56:03.65	62.35	23.68	
2025-01-13 22:56:03.86	62.40	23.69	
2025-01-13 22:56:04.06	62.45	23.70	
2025-01-13 22:56:04.26	62.50	23.72	
2025-01-13 22:56:04.47	62.55	23.73	
2025-01-13 22:56:04.68	62.60	23.75	
2025-01-13 22:56:04.88	62.65	23.76	
2025-01-13 22:56:05.09	62.71	23.77	
2025-01-13 22:56:05.29	62.76	23.79	
2025-01-13 22:56:05.50	62.81	23.80	
2025-01-13 22:56:05.70	62.86	23.82	
2025-01-13 22:56:05.91	62.91	23.83	
2025-01-13 22:56:06.12	62.97	23.84	
2025-01-13 22:56:06.32	63.02	23.86	
2025-01-13 22:56:06.54	63.07	23.87	
2025-01-13 22:56:06.74	63.12	23.89	
2025-01-13 22:56:06.95	63.18	23.90	
2025-01-13 22:56:07.15	63.23	23.91	
2025-01-13 22:56:07.36	63.28	23.93	
2025-01-13 22:56:07.56	63.33	23.94	
2025-01-13 22:56:07.77	63.38	23.96	
2025-01-13 22:56:07.97	63.44	23.97	
2025-01-13 22:56:08.18	63.49	23.98	
2025-01-13 22:56:08.39	63.54	24.00	
2025-01-13 22:56:08.59	63.59	24.01	
2025-01-13 22:56:08.80	63.65	24.02	
2025-01-13 22:56:09.00	63.70	24.04	
2025-01-13 22:56:09.21	63.75	24.05	
2025-01-13 22:56:09.41	63.80	24.06	
2025-01-13 22:56:09.62	63.86	24.08	
2025-01-13 22:56:09.82	63.91	24.09	
2025-01-13 22:56:10.03	63.96	24.11	
2025-01-13 22:56:10.23	64.01	24.12	
2025-01-13 22:56:10.44	64.07	24.13	
2025-01-13 22:56:10.64	64.12	24.15	
2025-01-13 22:56:10.85	64.17	24.16	
2025-01-13 22:56:11.05	64.23	24.17	
2025-01-13 22:56:11.26	64.28	24.19	
2025-01-13 22:56:11.47	64.33	24.20	
2025-01-13 22:56:11.67	64.39	24.21	
2025-01-13 22:56:11.88	64.44	24.23	
2025-01-13 22:56:12.08	64.49	24.24	
2025-01-13 22:56:12.29	64.55	24.25	
2025-01-13 22:56:12.49	64.60	24.27	
2025-01-13 22:56:12.70	64.65	24.28	
2025-01-13 22:56:12.90	64.70	24.29	
2025-01-13 22:56:13.11	64.76	24.31	
2025-01-13 22:56:13.31	64.81	24.32	
2025-01-13 22:56:13.52	64.87	24.33	
2025-01-13 22:56:13.73	64.92	24.35	
2025-01-13 22:56:13.93	64.97	24.36	
2025-01-13 22:56:14.13	65.02	24.37	
2025-01-13 22:56:14.34	65.08	24.39	
2025-01-13 22:56:14.54	65.13	24.40	
2025-01-13 22:56:14.75	65.19	24.41	
2025-01-13 22:56:14.95	65.24	24.43	
2025-01-13 22:56:15.16	65.29	24.44	
2025-01-13 22:56:15.36	65.35	24.45	
2025-01-13 22:56:15.57	65.40	24.47	
2025-01-13 22:56:15.77	65.45	24.48	
2025-01-13 22:56:15.98	65.51	24.49	
2025-01-13 22:56:16.19	65.56	24.50	
2025-01-13 22:56:16.40	65.62	24.52	
2025-01-13 22:56:16.61	65.68	24.53	
2025-01-13 22:56:16.81	65.73	24.54	
2025-01-13 22:56:17.02	65.78	24.56	
2025-01-13 22:56:17.23	65.84	24.57	
2025-01-13 22:56:17.44	65.89	24.58	
2025-01-13 22:56:17.65	65.95	24.60	
2025-01-13 22:56:17.85	66.00	24.61	
2025-01-13 22:56:18.06	66.06	24.62	
2025-01-13 22:56:18.26	66.11	24.63	
2025-01-13 22:56:18.47	66.17	24.65	
2025-01-13 22:56:18.67	66.22	24.66	
2025-01-13 22:56:18.88	66.28	24.67	
2025-01-13 22:56:19.08	66.33	24.69	
2025-01-13 22:56:19.29	66.39	24.70	
2025-01-13 22:56:19.49	66.44	24.71	
2025-01-13 22:56:19.70	66.50	24.72	
2025-01-13 22:56:19.91	66.55	24.74	
2025-01-13 22:56:20.11	66.61	24.75	
2025-01-13 22:56:20.33	66.66	24.76	
2025-01-13 22:56:20.54	66.72	24.78	
2025-01-13 22:56:20.74	66.77	24.79	
2025-01-13 22:56:20.95	66.83	24.80	
2025-01-13 22:56:21.16	66.89	24.81	
2025-01-13 22:56:21.36	66.94	24.83	
2025-01-13 22:56:21.56	66.99	24.84	
2025-01-13 22:56:21.77	67.05	24.85	
2025-01-13 22:56:21.97	67.10	24.86	
2025-01-13 22:56:22.18	67.16	24.88	
2025-01-13 22:56:22.39	67.22	24.89	
2025-01-13 22:56:22.59	67.27	24.90	
2025-01-13 22:56:22.79	67.33	24.91	
2025-01-13 22:56:23.00	67.38	24.92	
2025-01-13 22:56:23.20	67.44	24.94	
2025-01-13 22:56:23.41	67.49	24.95	
2025-01-13 22:56:23.61	67.55	24.96	
2025-01-13 22:56:23.82	67.60	24.97	
2025-01-13 22:56:24.02	67.66	24.99	
2025-01-13 22:56:24.23	67.72	25.00	
2025-01-13 22:56:24.43	67.77	25.01	
2025-01-13 22:56:24.64	67.83	25.02	
2025-01-13 22:56:24.84	67.88	25.03	
2025-01-13 22:56:25.05	67.94	25.05	
2025-01-13 22:56:25.25	67.99	25.06	
2025-01-13 22:56:25.46	68.05	25.07	
2025-01-13 22:56:25.68	68.11	25.08	
2025-01-13 22:56:25.88	68.16	25.10	
2025-01-13 22:56:26.09	68.22	25.11	
2025-01-13 22:56:26.29	68.28	25.12	
2025-01-13 22:56:26.50	68.33	25.13	
2025-01-13 22:56:26.70	68.39	25.14	
2025-01-13 22:56:26.91	68.45	25.16	
2025-01-13 22:56:27.11	68.50	25.17	
2025-01-13 22:56:27.32	68.56	25.18	
2025-01-13 22:56:27.53	68.62	25.19	
2025-01-13 22:56:27.73	68.67	25.20	
2025-01-13 22:56:27.93	68.73	25.21	
2025-01-13 22:56:28.14	68.78	25.23	
2025-01-13 22:56:28.35	68.84	25.24	
2025-01-13 22:56:28.55	68.90	25.25	
2025-01-13 22:56:28.76	68.96	25.26	
2025-01-13 22:56:28.96	69.01	25.27	
2025-01-13 22:56:29.17	69.07	25.28	
2025-01-13 22:56:29.37	69.12	25.30	
2025-01-13 22:56:29.58	69.18	25.31	
2025-01-13 22:56:29.78	69.24	25.32	
2025-01-13 22:56:29.99	69.30	25.33	
2025-01-13 22:56:30.19	69.35	25.34	
2025-01-13 22:56:30.40	69.41	25.35	
2025-01-13 22:56:30.60	69.47	25.37	
2025-01-13 22:56:30.81	69.52	25.38	
2025-01-13 22:56:31.01	69.58	25.39	
2025-01-13 22:56:31.22	69.64	25.40	
2025-01-13 22:56:31.42	69.69	25.41	
2025-01-13 22:56:31.63	69.75	25.42	
2025-01-13 22:56:31.83	69.81	25.43	
2025-01-13 22:56:32.04	69.87	25.44	
2025-01-13 22:56:32.24	69.92	25.46	
2025-01-13 22:56:32.45	69.98	25.47	
2025-01-13 22:56:32.65	70.04	25.48	
2025-01-13 22:56:32.86	70.10	25.49	
2025-01-13 22:56:33.06	70.15	25.50	
2025-01-13 22:56:33.27	70.21	25.51	
2025-01-13 22:56:33.47	70.27	25.52	
2025-01-13 22:56:33.68	70.33	25.53	
2025-01-13 22:56:33.89	70.39	25.55	
2025-01-13 22:56:34.09	70.44	25.56	
2025-01-13 22:56:34.30	70.50	25.57	
2025-01-13 22:56:34.50	70.56	25.58	
2025-01-13 22:56:34.71	70.62	25.59	
2025-01-13 22:56:34.91	70.67	25.60	
2025-01-13 22:56:35.12	70.73	25.61	
2025-01-13 22:56:35.32	70.79	25.62	
2025-01-13 22:56:35.53	70.85	25.63	
2025-01-13 22:56:35.73	70.90	25.64	
2025-01-13 22:56:35.94	70.96	25.65	
2025-01-13 22:56:36.14	71.02	25.67	
2025-01-13 22:56:36.35	71.08	25.68	
2025-01-13 22:56:36.55	71.14	25.69	
2025-01-13 22:56:36.76	71.20	25.70	
2025-01-13 22:56:36.96	71.25	25.71	
2025-01-13 22:56:37.17	71.31	25.72	
2025-01-13 22:56:37.37	71.37	25.73	
2025-01-13 22:56:37.58	71.43	25.74	
2025-01-13 22:56:37.78	71.49	25.75	
2025-01-13 22:56:37.99	71.55	25.76	
2025-01-13 22:56:38.19	71.60	25.77	
2025-01-13 22:56:38.40	71.66	25.78	
2025-01-13 22:56:38.60	71.72	25.79	
2025-01-13 22:56:38.81	71.78	25.80	
2025-01-13 22:56:39.01	71.84	25.81	
2025-01-13 22:56:39.22	71.90	25.82	
2025-01-13 22:56:39.43	71.96	25.83	
2025-01-13 22:56:39.63	72.01	25.84	
2025-01-13 22:56:39.83	72.07	25.85	
2025-01-13 22:56:40.04	72.13	25.86	
2025-01-13 22:56:40.24	72.19	25.87	
2025-01-13 22:56:40.45	72.25	25.89	
2025-01-13 22:56:40.65	72.31	25.90	
2025-01-13 22:56:40.86	72.37	25.91	
2025-01-13 22:56:41.07	72.43	25.92	
2025-01-13 22:56:41.27	72.48	25.93	
2025-01-13 22:56:41.48	72.54	25.94	
2025-01-13 22:56:41.68	72.60	25.95	
2025-01-13 22:56:41.89	72.66	25.96	
2025-01-13 22:56:42.09	72.72	25.97	
2025-01-13 22:56:42.30	72.78	25.98	
2025-01-13 22:56:42.51	72.84	25.99	
2025-01-13 22:56:42.71	72.90	26.00	
2025-01-13 22:56:42.91	72.96	26.01	
2025-01-13 22:56:43.12	73.02	26.02	
2025-01-13 22:56:43.33	73.08	26.03	
2025-01-13 22:56:43.53	73.14	26.04	
2025-01-13 22:56:43.74	73.20	26.05	
2025-01-13 22:56:43.94	73.26	26.05	
2025-01-13 22:56:44.15	73.32	26.06	
2025-01-13 22:56:44.35	73.37	26.07	
2025-01-13 22:56:44.56	73.44	26.08	
2025-01-13 22:56:44.76	73.49	26.09	
2025-01-13 22:56:44.97	73.56	26.10	
2025-01-13 22:56:45.17	73.61	26.11	
2025-01-13 22:56:45.38	73.67	26.12	
2025-01-13 22:56:45.58	73.73	26.13	
2025-01-13 22:56:45.79	73.79	26.14	
2025-01-13 22:56:45.99	73.85	26.15	
2025-01-13 22:56:46.20	73.91	26.16	
2025-01-13 22:56:46.40	73.97	26.17	
2025-01-13 22:56:46.61	74.03	26.18	
2025-01-13 22:56:46.81	74.09	26.19	
2025-01-13 22:56:47.02	74.15	26.20	
2025-01-13 22:56:47.22	74.21	26.21	
2025-01-13 22:56:47.43	74.27	26.22	
2025-01-13 22:56:47.63	74.33	26.22	
2025-01-13 22:56:47.84	74.39	26.23	
2025-01-13 22:56:48.04	74.45	26.24	
2025-01-13 22:56:48.25	74.51	26.25	
2025-01-13 22:56:48.45	74.57	26.26	
2025-01-13 22:56:48.66	74.63	26.27	
2025-01-13 22:56:48.86	74.69	26.28	
2025-01-13 22:56:49.07	74.76	26.29	
2025-01-13 22:56:49.27	74.81	26.30	
2025-01-13 22:56:49.48	74.88	26.31	
2025-01-13 22:56:49.69	74.94	26.32	
2025-01-13 22:56:49.89	75.00	26.32	
2025-01-13 22:56:50.10	75.06	26.33	
2025-01-13 22:56:50.32	75.12	26.34	
2025-01-13 22:56:50.52	75.18	26.35	
2025-01-13 22:56:50.73	75.24	26.36	
2025-01-13 22:56:50.93	75.30	26.37	
2025-01-13 22:56:51.14	75.37	26.38	
2025-01-13 22:56:51.35	75.43	26.39	
2025-01-13 22:56:51.55	75.49	26.40	
2025-01-13 22:56:51.76	75.55	26.40	
2025-01-13 22:56:51.96	75.61	26.41	
2025-01-13 22:56:52.17	75.67	26.42	
2025-01-13 22:56:52.39	75.74	26.43	
2025-01-13 22:56:52.59	75.80	26.44	
2025-01-13 22:56:52.80	75.86	26.45	
2025-01-13 22:56:53.00	75.92	26.46	
2025-01-13 22:56:53.21	75.98	26.46	
2025-01-13 22:56:53.41	76.04	26.47	
2025-01-13 22:56:53.62	76.10	26.48	
2025-01-13 22:56:53.83	76.17	26.49	
2025-01-13 22:56:54.03	76.22	26.50	
2025-01-13 22:56:54.24	76.29	26.51	
2025-01-13 22:56:54.44	76.35	26.51	
2025-01-13 22:56:54.65	76.41	26.52	
2025-01-13 22:56:54.85	76.47	26.53	
2025-01-13 22:56:55.06	76.53	26.54	
2025-01-13 22:56:55.27	76.60	26.55	
2025-01-13 22:56:55.47	76.65	26.55	
2025-01-13 22:56:55.69	76.72	26.56	
2025-01-13 22:56:55.89	76.78	26.57	
2025-01-13 22:56:56.10	76.84	26.58	
2025-01-13 22:56:56.31	76.91	26.59	
2025-01-13 22:56:56.51	76.97	26.59	
2025-01-13 22:56:56.71	77.03	26.60	
2025-01-13 22:56:56.92	77.09	26.61	
2025-01-13 22:56:57.13	77.15	26.62	
2025-01-13 22:56:57.33	77.21	26.63	
2025-01-13 22:56:57.54	77.28	26.63	
2025-01-13 22:56:57.74	77.34	26.64	
2025-01-13 22:56:57.95	77.40	26.65	
2025-01-13 22:56:58.16	77.46	26.66	
2025-01-13 22:56:58.36	77.52	26.66	
2025-01-13 22:56:58.57	77.59	26.67	
2025-01-13 22:56:58.77	77.65	26.68	
2025-01-13 22:56:58.98	77.71	26.69	
2025-01-13 22:56:59.19	77.77	26.69	
2025-01-13 22:56:59.39	77.83	26.70	
2025-01-13 22:56:59.60	77.90	26.71	
2025-01-13 22:56:59.80	77.96	26.72	
2025-01-13 22:57:00.02	78.02	26.72	
2025-01-13 22:57:00.22	78.08	26.73	
2025-01-13 22:57:00.43	78.15	26.74	
2025-01-13 22:57:00.64	78.21	26.75	
2025-01-13 22:57:00.84	78.27	26.75	
2025-01-13 22:57:01.06	78.34	26.76	
2025-01-13 22:57:01.27	78.40	26.77	
2025-01-13 22:57:01.47	78.46	26.77	
2025-01-13 22:57:01.68	78.53	26.78	
2025-01-13 22:57:01.88	78.59	26.79	
2025-01-13 22:57:02.09	78.65	26.80	
2025-01-13 22:57:02.29	78.71	26.80	
2025-01-13 22:57:02.50	78.78	26.81	
2025-01-13 22:57:02.70	78.84	26.82	
2025-01-13 22:57:02.91	78.90	26.82	
2025-01-13 22:57:03.11	78.96	26.83	
2025-01-13 22:57:03.32	79.03	26.84	
2025-01-13 22:57:03.52	79.09	26.84	
2025-01-13 22:57:03.73	79.15	26.85	
2025-01-13 22:57:03.93	79.21	26.86	
2025-01-13 22:57:04.14	79.28	26.86	
2025-01-13 22:57:04.34	79.34	26.87	
2025-01-13 22:57:04.55	79.40	26.88	
2025-01-13 22:57:04.75	79.46	26.88	
2025-01-13 22:57:04.95	79.52	26.89	
2025-01-13 22:57:05.16	79.59	26.90	
2025-01-13 22:57:05.38	79.65	26.90	
2025-01-13 22:57:05.58	79.72	26.91	
2025-01-13 22:57:05.79	79.78	26.92	
2025-01-13 22:57:05.99	79.84	26.92	
2025-01-13 22:57:06.20	79.91	26.93	
2025-01-13 22:57:06.42	79.97	26.93	
2025-01-13 22:57:06.62	80.03	26.94	
2025-01-13 22:57:06.83	80.10	26.95	
2025-01-13 22:57:07.03	80.16	26.95	
2025-01-13 22:57:07.24	80.22	26.96	
2025-01-13 22:57:07.44	80.29	26.96	
2025-01-13 22:57:07.65	80.35	26.97	
2025-01-13 22:57:07.85	80.41	26.98	
2025-01-13 22:57:08.06	80.48	26.98	
2025-01-13 22:57:08.27	80.54	26.99	
2025-01-13 22:57:08.47	80.60	26.99	
2025-01-13 22:57:08.68	80.67	27.00	
2025-01-13 22:57:08.88	80.73	27.01	
2025-01-13 22:57:09.09	80.79	27.01	
2025-01-13 22:57:09.29	80.85	27.02	
2025-01-13 22:57:09.50	80.92	27.02	
2025-01-13 22:57:09.70	80.98	27.03	
2025-01-13 22:57:09.91	81.05	27.04	
2025-01-13 22:57:10.11	81.11	27.04	
2025-01-13 22:57:10.32	81.17	27.05	
2025-01-13 22:57:10.52	81.23	27.05	
2025-01-13 22:57:10.73	81.30	27.06	
2025-01-13 22:57:10.93	81.36	27.06	
2025-01-13 22:57:11.14	81.43	27.07	
2025-01-13 22:57:11.35	81.49	27.07	
2025-01-13 22:57:11.55	81.55	27.08	
2025-01-13 22:57:11.75	81.61	27.08	
2025-01-13 22:57:11.96	81.68	27.09	
2025-01-13 22:57:12.17	81.74	27.09	
2025-01-13 22:57:12.37	81.81	27.10	
2025-01-13 22:57:12.58	81.87	27.11	
2025-01-13 22:57:12.78	81.93	27.11	
2025-01-13 22:57:12.99	82.00	27.12	
2025-01-13 22:57:13.19	82.06	27.12	
2025-01-13 22:57:13.40	82.13	27.13	
2025-01-13 22:57:13.60	82.19	27.13	
2025-01-13 22:57:13.81	82.25	27.14	
2025-01-13 22:57:14.01	82.31	27.14	
2025-01-13 22:57:14.22	82.38	27.15	
2025-01-13 22:57:14.42	82.44	27.15	
2025-01-13 22:57:14.63	82.51	27.15	
2025-01-13 22:57:14.83	82.57	27.16	
2025-01-13 22:57:15.04	82.63	27.16	
2025-01-13 22:57:15.25	82.70	27.17	
2025-01-13 22:57:15.45	82.76	27.17	
2025-01-13 22:57:15.66	82.83	27.18	
2025-01-13 22:57:15.86	82.89	27.18	
2025-01-13 22:57:16.07	82.96	27.19	
2025-01-13 22:57:16.27	83.02	27.19	
2025-01-13 22:57:16.48	83.08	27.20	
2025-01-13 22:57:16.70	83.15	27.20	
2025-01-13 22:57:16.91	83.22	27.21	
2025-01-13 22:57:17.11	83.28	27.21	
2025-01-13 22:57:17.32	83.34	27.21	
2025-01-13 22:57:17.52	83.41	27.22	
2025-01-13 22:57:17.73	83.47	27.22	
