passes_logs/2025/01/13/SPB_Silybum_02/SPB_Silybum_02__20250113_072616_SUOMI_NPP_rec.log

#Pass ID: 20250113_072616_SUOMI NPP
#Satellite: SUOMI NPP
#Configuration: NPP
#Start time: 2025-01-13 07:26:16

#Version: 2.0.20230423
#Station: SPB_Silybum_02
#Location: 30.233357 lon 59.946436 lat
#TLE: 1 37849U 11061A   25012.80531474  .00000146  00000+0  90276-4 0  9990
#TLE: 2 37849  98.7443 313.8217 0001772  44.3490 315.7828 14.19537186684607

#Time	Az	El	Level	Level2	SNR	BER	Gain	Gain2
2025-01-13 07:26:18.55	77.65	4.10	
2025-01-13 07:26:18.76	77.63	4.11	
2025-01-13 07:26:18.96	77.61	4.12	
2025-01-13 07:26:19.17	77.58	4.13	
2025-01-13 07:26:19.37	77.56	4.14	
2025-01-13 07:26:19.58	77.54	4.15	
2025-01-13 07:26:19.78	77.52	4.16	
2025-01-13 07:26:19.99	77.50	4.17	
2025-01-13 07:26:20.20	77.48	4.18	
2025-01-13 07:26:20.40	77.46	4.19	
2025-01-13 07:26:20.61	77.44	4.20	
2025-01-13 07:26:20.81	77.41	4.21	
2025-01-13 07:26:21.01	77.39	4.22	
2025-01-13 07:26:21.22	77.37	4.23	
2025-01-13 07:26:21.43	77.35	4.25	
2025-01-13 07:26:21.63	77.33	4.25	
2025-01-13 07:26:21.84	77.31	4.27	
2025-01-13 07:26:22.04	77.29	4.28	
2025-01-13 07:26:22.25	77.26	4.29	
2025-01-13 07:26:22.46	77.24	4.30	
2025-01-13 07:26:22.66	77.22	4.31	
2025-01-13 07:26:22.87	77.20	4.32	
2025-01-13 07:26:23.07	77.18	4.33	
2025-01-13 07:26:23.28	77.16	4.34	
2025-01-13 07:26:23.49	77.14	4.35	
2025-01-13 07:26:23.69	77.11	4.36	
2025-01-13 07:26:23.90	77.09	4.37	
2025-01-13 07:26:24.10	77.07	4.38	
2025-01-13 07:26:24.31	77.05	4.39	
2025-01-13 07:26:24.51	77.03	4.40	
2025-01-13 07:26:24.72	77.01	4.41	
2025-01-13 07:26:24.92	76.99	4.42	
2025-01-13 07:26:25.13	76.96	4.43	
2025-01-13 07:26:25.33	76.94	4.44	
2025-01-13 07:26:25.54	76.92	4.45	
2025-01-13 07:26:25.74	76.90	4.46	
2025-01-13 07:26:25.95	76.88	4.47	
2025-01-13 07:26:26.15	76.86	4.48	
2025-01-13 07:26:26.36	76.83	4.49	
2025-01-13 07:26:26.56	76.81	4.50	
2025-01-13 07:26:26.77	76.79	4.51	
2025-01-13 07:26:26.97	76.77	4.52	
2025-01-13 07:26:27.18	76.75	4.53	
2025-01-13 07:26:27.38	76.73	4.54	
2025-01-13 07:26:27.59	76.70	4.55	
2025-01-13 07:26:27.79	76.68	4.56	
2025-01-13 07:26:28.00	76.66	4.57	
2025-01-13 07:26:28.20	76.64	4.58	
2025-01-13 07:26:28.41	76.62	4.59	
2025-01-13 07:26:28.62	76.59	4.60	
2025-01-13 07:26:28.82	76.57	4.61	
2025-01-13 07:26:29.03	76.55	4.62	
2025-01-13 07:26:29.23	76.53	4.63	
2025-01-13 07:26:29.44	76.51	4.64	
2025-01-13 07:26:29.64	76.49	4.65	
2025-01-13 07:26:29.85	76.46	4.66	
2025-01-13 07:26:30.06	76.44	4.67	
2025-01-13 07:26:30.26	76.42	4.68	
2025-01-13 07:26:30.47	76.40	4.69	
2025-01-13 07:26:30.67	76.37	4.70	
2025-01-13 07:26:30.88	76.35	4.71	
2025-01-13 07:26:31.08	76.33	4.72	
2025-01-13 07:26:31.29	76.31	4.73	
2025-01-13 07:26:31.49	76.29	4.74	
2025-01-13 07:26:31.70	76.26	4.75	
2025-01-13 07:26:31.90	76.24	4.76	
2025-01-13 07:26:32.11	76.22	4.77	
2025-01-13 07:26:32.31	76.20	4.78	
2025-01-13 07:26:32.52	76.18	4.79	
2025-01-13 07:26:32.72	76.15	4.80	
2025-01-13 07:26:32.93	76.13	4.81	
2025-01-13 07:26:33.13	76.11	4.82	
2025-01-13 07:26:33.34	76.09	4.83	
2025-01-13 07:26:33.54	76.07	4.84	
2025-01-13 07:26:33.75	76.04	4.85	
2025-01-13 07:26:33.95	76.02	4.86	
2025-01-13 07:26:34.16	76.00	4.87	
2025-01-13 07:26:34.36	75.98	4.88	
2025-01-13 07:26:34.57	75.95	4.89	
2025-01-13 07:26:34.77	75.93	4.90	
2025-01-13 07:26:34.98	75.91	4.91	
2025-01-13 07:26:35.18	75.89	4.92	
2025-01-13 07:26:35.39	75.86	4.93	
2025-01-13 07:26:35.59	75.84	4.94	
2025-01-13 07:26:35.80	75.82	4.96	
2025-01-13 07:26:36.00	75.80	4.96	
2025-01-13 07:26:36.21	75.77	4.98	
2025-01-13 07:26:36.41	75.75	4.99	
2025-01-13 07:26:36.62	75.73	5.00	
2025-01-13 07:26:36.83	75.71	5.01	
2025-01-13 07:26:37.04	75.68	5.02	
2025-01-13 07:26:37.24	75.66	5.03	
2025-01-13 07:26:37.45	75.64	5.04	
2025-01-13 07:26:37.65	75.62	5.05	
2025-01-13 07:26:37.85	75.60	5.06	
2025-01-13 07:26:38.06	75.57	5.07	
2025-01-13 07:26:38.26	75.55	5.08	
2025-01-13 07:26:38.47	75.53	5.09	
2025-01-13 07:26:38.68	75.50	5.10	
2025-01-13 07:26:38.88	75.48	5.11	
2025-01-13 07:26:39.08	75.46	5.12	
2025-01-13 07:26:39.29	75.44	5.13	
2025-01-13 07:26:39.49	75.41	5.14	
2025-01-13 07:26:39.70	75.39	5.15	
2025-01-13 07:26:39.91	75.37	5.16	
2025-01-13 07:26:40.11	75.35	5.17	
2025-01-13 07:26:40.32	75.32	5.18	
2025-01-13 07:26:40.52	75.30	5.19	
2025-01-13 07:26:40.73	75.28	5.20	
2025-01-13 07:26:40.93	75.25	5.21	
2025-01-13 07:26:41.14	75.23	5.22	
2025-01-13 07:26:41.34	75.21	5.23	
2025-01-13 07:26:41.55	75.19	5.24	
2025-01-13 07:26:41.75	75.16	5.25	
2025-01-13 07:26:41.96	75.14	5.26	
2025-01-13 07:26:42.16	75.12	5.27	
2025-01-13 07:26:42.37	75.09	5.28	
2025-01-13 07:26:42.57	75.07	5.29	
2025-01-13 07:26:42.78	75.05	5.30	
2025-01-13 07:26:42.98	75.03	5.31	
2025-01-13 07:26:43.20	75.00	5.32	
2025-01-13 07:26:43.41	74.98	5.33	
2025-01-13 07:26:43.61	74.96	5.34	
2025-01-13 07:26:43.82	74.93	5.35	
2025-01-13 07:26:44.02	74.91	5.36	
2025-01-13 07:26:44.23	74.89	5.37	
2025-01-13 07:26:44.43	74.86	5.38	
2025-01-13 07:26:44.64	74.84	5.39	
2025-01-13 07:26:44.84	74.82	5.40	
2025-01-13 07:26:45.05	74.79	5.41	
2025-01-13 07:26:45.25	74.77	5.42	
2025-01-13 07:26:45.46	74.75	5.43	
2025-01-13 07:26:45.66	74.72	5.44	
2025-01-13 07:26:45.87	74.70	5.45	
2025-01-13 07:26:46.07	74.68	5.46	
2025-01-13 07:26:46.28	74.65	5.47	
2025-01-13 07:26:46.48	74.63	5.48	
2025-01-13 07:26:46.69	74.61	5.49	
2025-01-13 07:26:46.90	74.58	5.50	
2025-01-13 07:26:47.10	74.56	5.51	
2025-01-13 07:26:47.31	74.54	5.52	
2025-01-13 07:26:47.51	74.52	5.53	
2025-01-13 07:26:47.72	74.49	5.54	
2025-01-13 07:26:47.92	74.47	5.55	
2025-01-13 07:26:48.13	74.44	5.56	
2025-01-13 07:26:48.33	74.42	5.57	
2025-01-13 07:26:48.54	74.40	5.58	
2025-01-13 07:26:48.74	74.38	5.59	
2025-01-13 07:26:48.95	74.35	5.60	
2025-01-13 07:26:49.16	74.33	5.61	
2025-01-13 07:26:49.36	74.30	5.62	
2025-01-13 07:26:49.58	74.28	5.64	
2025-01-13 07:26:49.78	74.26	5.64	
2025-01-13 07:26:49.99	74.23	5.66	
2025-01-13 07:26:50.20	74.21	5.67	
2025-01-13 07:26:50.40	74.19	5.68	
2025-01-13 07:26:50.61	74.16	5.69	
2025-01-13 07:26:50.81	74.14	5.70	
2025-01-13 07:26:51.02	74.11	5.71	
2025-01-13 07:26:51.22	74.09	5.72	
2025-01-13 07:26:51.42	74.07	5.73	
2025-01-13 07:26:51.63	74.04	5.74	
2025-01-13 07:26:51.83	74.02	5.75	
2025-01-13 07:26:52.04	74.00	5.76	
2025-01-13 07:26:52.25	73.97	5.77	
2025-01-13 07:26:52.45	73.95	5.78	
2025-01-13 07:26:52.66	73.92	5.79	
2025-01-13 07:26:52.86	73.90	5.80	
2025-01-13 07:26:53.07	73.88	5.81	
2025-01-13 07:26:53.27	73.85	5.82	
2025-01-13 07:26:53.48	73.83	5.83	
2025-01-13 07:26:53.68	73.81	5.84	
2025-01-13 07:26:53.89	73.78	5.85	
2025-01-13 07:26:54.09	73.76	5.86	
2025-01-13 07:26:54.30	73.73	5.87	
2025-01-13 07:26:54.51	73.71	5.88	
2025-01-13 07:26:54.71	73.69	5.89	
2025-01-13 07:26:54.91	73.66	5.90	
2025-01-13 07:26:55.12	73.64	5.91	
2025-01-13 07:26:55.32	73.62	5.92	
2025-01-13 07:26:55.53	73.59	5.93	
2025-01-13 07:26:55.73	73.57	5.94	
2025-01-13 07:26:55.94	73.54	5.95	
2025-01-13 07:26:56.14	73.52	5.96	
2025-01-13 07:26:56.35	73.49	5.97	
2025-01-13 07:26:56.55	73.47	5.98	
2025-01-13 07:26:56.76	73.45	5.99	
2025-01-13 07:26:56.96	73.42	6.00	
2025-01-13 07:26:57.17	73.40	6.01	
2025-01-13 07:26:57.37	73.38	6.02	
2025-01-13 07:26:57.58	73.35	6.03	
2025-01-13 07:26:57.79	73.33	6.04	
2025-01-13 07:26:57.99	73.30	6.05	
2025-01-13 07:26:58.20	73.28	6.06	
2025-01-13 07:26:58.40	73.25	6.07	
2025-01-13 07:26:58.61	73.23	6.08	
2025-01-13 07:26:58.81	73.21	6.09	
2025-01-13 07:26:59.01	73.18	6.10	
2025-01-13 07:26:59.22	73.16	6.11	
2025-01-13 07:26:59.42	73.13	6.12	
2025-01-13 07:26:59.63	73.11	6.13	
2025-01-13 07:26:59.84	73.08	6.14	
2025-01-13 07:27:00.04	73.06	6.15	
2025-01-13 07:27:00.25	73.03	6.16	
2025-01-13 07:27:00.45	73.01	6.17	
2025-01-13 07:27:00.66	72.99	6.18	
2025-01-13 07:27:00.86	72.96	6.19	
2025-01-13 07:27:01.07	72.94	6.20	
2025-01-13 07:27:01.27	72.91	6.21	
2025-01-13 07:27:01.48	72.89	6.22	
2025-01-13 07:27:01.69	72.86	6.23	
2025-01-13 07:27:01.89	72.84	6.24	
2025-01-13 07:27:02.10	72.81	6.25	
2025-01-13 07:27:02.30	72.79	6.26	
2025-01-13 07:27:02.51	72.77	6.27	
2025-01-13 07:27:02.71	72.74	6.28	
2025-01-13 07:27:02.92	72.72	6.29	
2025-01-13 07:27:03.12	72.69	6.30	
2025-01-13 07:27:03.33	72.67	6.31	
2025-01-13 07:27:03.53	72.64	6.32	
2025-01-13 07:27:03.74	72.62	6.33	
2025-01-13 07:27:03.95	72.59	6.34	
2025-01-13 07:27:04.15	72.57	6.35	
2025-01-13 07:27:04.36	72.54	6.36	
2025-01-13 07:27:04.56	72.52	6.37	
2025-01-13 07:27:04.77	72.49	6.38	
2025-01-13 07:27:04.97	72.47	6.39	
2025-01-13 07:27:05.18	72.44	6.40	
2025-01-13 07:27:05.38	72.42	6.41	
2025-01-13 07:27:05.58	72.40	6.42	
2025-01-13 07:27:05.79	72.37	6.43	
2025-01-13 07:27:06.00	72.35	6.44	
2025-01-13 07:27:06.20	72.32	6.45	
2025-01-13 07:27:06.41	72.30	6.46	
2025-01-13 07:27:06.61	72.27	6.47	
2025-01-13 07:27:06.82	72.25	6.48	
2025-01-13 07:27:07.02	72.22	6.49	
2025-01-13 07:27:07.23	72.20	6.50	
2025-01-13 07:27:07.44	72.17	6.51	
2025-01-13 07:27:07.64	72.15	6.52	
2025-01-13 07:27:07.85	72.12	6.53	
2025-01-13 07:27:08.05	72.10	6.54	
2025-01-13 07:27:08.26	72.07	6.55	
2025-01-13 07:27:08.46	72.05	6.56	
2025-01-13 07:27:08.67	72.02	6.57	
2025-01-13 07:27:08.87	72.00	6.58	
2025-01-13 07:27:09.08	71.97	6.59	
2025-01-13 07:27:09.29	71.94	6.60	
2025-01-13 07:27:09.49	71.92	6.61	
2025-01-13 07:27:09.69	71.90	6.62	
2025-01-13 07:27:09.90	71.87	6.63	
2025-01-13 07:27:10.10	71.84	6.64	
2025-01-13 07:27:10.31	71.82	6.65	
2025-01-13 07:27:10.51	71.79	6.66	
2025-01-13 07:27:10.72	71.77	6.67	
2025-01-13 07:27:10.92	71.74	6.68	
2025-01-13 07:27:11.13	71.72	6.69	
2025-01-13 07:27:11.33	71.69	6.70	
2025-01-13 07:27:11.54	71.67	6.71	
2025-01-13 07:27:11.74	71.64	6.72	
2025-01-13 07:27:11.95	71.62	6.73	
2025-01-13 07:27:12.16	71.59	6.74	
2025-01-13 07:27:12.36	71.57	6.75	
2025-01-13 07:27:12.57	71.54	6.76	
2025-01-13 07:27:12.77	71.52	6.77	
2025-01-13 07:27:12.97	71.49	6.78	
2025-01-13 07:27:13.18	71.46	6.79	
2025-01-13 07:27:13.39	71.44	6.80	
2025-01-13 07:27:13.59	71.41	6.81	
2025-01-13 07:27:13.80	71.39	6.82	
2025-01-13 07:27:14.00	71.36	6.83	
2025-01-13 07:27:14.20	71.34	6.84	
2025-01-13 07:27:14.41	71.31	6.85	
2025-01-13 07:27:14.62	71.29	6.86	
2025-01-13 07:27:14.82	71.26	6.87	
2025-01-13 07:27:15.03	71.23	6.88	
2025-01-13 07:27:15.23	71.21	6.89	
2025-01-13 07:27:15.44	71.18	6.90	
2025-01-13 07:27:15.64	71.16	6.91	
2025-01-13 07:27:15.85	71.13	6.92	
2025-01-13 07:27:16.05	71.11	6.93	
2025-01-13 07:27:16.26	71.08	6.94	
2025-01-13 07:27:16.46	71.06	6.95	
2025-01-13 07:27:16.67	71.03	6.96	
2025-01-13 07:27:16.88	71.00	6.97	
2025-01-13 07:27:17.08	70.98	6.98	
2025-01-13 07:27:17.29	70.95	6.99	
2025-01-13 07:27:17.49	70.93	7.00	
2025-01-13 07:27:17.70	70.90	7.01	
2025-01-13 07:27:17.90	70.87	7.02	
2025-01-13 07:27:18.11	70.85	7.03	
2025-01-13 07:27:18.31	70.82	7.04	
2025-01-13 07:27:18.52	70.80	7.05	
2025-01-13 07:27:18.72	70.77	7.06	
2025-01-13 07:27:18.93	70.74	7.07	
2025-01-13 07:27:19.13	70.72	7.08	
2025-01-13 07:27:19.34	70.69	7.09	
2025-01-13 07:27:19.54	70.67	7.10	
2025-01-13 07:27:19.75	70.64	7.11	
2025-01-13 07:27:19.95	70.61	7.12	
2025-01-13 07:27:20.16	70.59	7.13	
2025-01-13 07:27:20.36	70.56	7.14	
2025-01-13 07:27:20.57	70.54	7.15	
2025-01-13 07:27:20.78	70.51	7.16	
2025-01-13 07:27:20.98	70.48	7.17	
2025-01-13 07:27:21.19	70.46	7.18	
2025-01-13 07:27:21.39	70.43	7.19	
2025-01-13 07:27:21.60	70.40	7.20	
2025-01-13 07:27:21.80	70.38	7.21	
2025-01-13 07:27:22.01	70.35	7.22	
2025-01-13 07:27:22.21	70.33	7.23	
2025-01-13 07:27:22.41	70.30	7.24	
2025-01-13 07:27:22.62	70.27	7.25	
2025-01-13 07:27:22.83	70.25	7.26	
2025-01-13 07:27:23.03	70.22	7.27	
2025-01-13 07:27:23.24	70.19	7.28	
2025-01-13 07:27:23.45	70.17	7.29	
2025-01-13 07:27:23.65	70.14	7.30	
2025-01-13 07:27:23.85	70.12	7.31	
2025-01-13 07:27:24.06	70.09	7.32	
2025-01-13 07:27:24.26	70.06	7.33	
2025-01-13 07:27:24.47	70.04	7.34	
2025-01-13 07:27:24.68	70.01	7.35	
2025-01-13 07:27:24.88	69.98	7.36	
2025-01-13 07:27:25.09	69.96	7.37	
2025-01-13 07:27:25.29	69.93	7.38	
2025-01-13 07:27:25.50	69.90	7.39	
2025-01-13 07:27:25.70	69.88	7.40	
2025-01-13 07:27:25.91	69.85	7.41	
2025-01-13 07:27:26.11	69.82	7.42	
2025-01-13 07:27:26.32	69.80	7.43	
2025-01-13 07:27:26.53	69.77	7.44	
2025-01-13 07:27:26.74	69.74	7.45	
2025-01-13 07:27:26.95	69.71	7.46	
2025-01-13 07:27:27.15	69.69	7.47	
2025-01-13 07:27:27.36	69.66	7.48	
2025-01-13 07:27:27.57	69.63	7.49	
2025-01-13 07:27:27.77	69.61	7.50	
2025-01-13 07:27:27.98	69.58	7.51	
2025-01-13 07:27:28.18	69.55	7.52	
2025-01-13 07:27:28.39	69.53	7.53	
2025-01-13 07:27:28.59	69.50	7.54	
2025-01-13 07:27:28.80	69.47	7.55	
2025-01-13 07:27:29.00	69.45	7.56	
2025-01-13 07:27:29.21	69.42	7.57	
2025-01-13 07:27:29.41	69.39	7.58	
2025-01-13 07:27:29.62	69.37	7.59	
2025-01-13 07:27:29.82	69.34	7.60	
2025-01-13 07:27:30.02	69.31	7.61	
2025-01-13 07:27:30.23	69.29	7.62	
2025-01-13 07:27:30.43	69.26	7.63	
2025-01-13 07:27:30.64	69.23	7.64	
2025-01-13 07:27:30.84	69.21	7.65	
2025-01-13 07:27:31.05	69.18	7.66	
2025-01-13 07:27:31.25	69.15	7.67	
2025-01-13 07:27:31.46	69.12	7.68	
2025-01-13 07:27:31.66	69.10	7.69	
2025-01-13 07:27:31.87	69.07	7.70	
2025-01-13 07:27:32.07	69.04	7.70	
2025-01-13 07:27:32.28	69.02	7.71	
2025-01-13 07:27:32.48	68.99	7.72	
2025-01-13 07:27:32.69	68.96	7.73	
2025-01-13 07:27:32.89	68.93	7.74	
2025-01-13 07:27:33.10	68.91	7.75	
2025-01-13 07:27:33.30	68.88	7.76	
2025-01-13 07:27:33.51	68.85	7.77	
2025-01-13 07:27:33.71	68.83	7.78	
2025-01-13 07:27:33.92	68.80	7.79	
2025-01-13 07:27:34.13	68.77	7.80	
2025-01-13 07:27:34.33	68.74	7.81	
2025-01-13 07:27:34.53	68.72	7.82	
2025-01-13 07:27:34.74	68.69	7.83	
2025-01-13 07:27:34.95	68.66	7.84	
2025-01-13 07:27:35.15	68.63	7.85	
2025-01-13 07:27:35.35	68.61	7.86	
2025-01-13 07:27:35.56	68.58	7.87	
2025-01-13 07:27:35.77	68.55	7.88	
2025-01-13 07:27:35.97	68.52	7.89	
2025-01-13 07:27:36.18	68.50	7.90	
2025-01-13 07:27:36.38	68.47	7.91	
2025-01-13 07:27:36.58	68.44	7.92	
2025-01-13 07:27:36.79	68.41	7.93	
2025-01-13 07:27:37.00	68.39	7.94	
2025-01-13 07:27:37.20	68.36	7.95	
2025-01-13 07:27:37.42	68.33	7.96	
2025-01-13 07:27:37.63	68.30	7.97	
2025-01-13 07:27:37.83	68.27	7.98	
2025-01-13 07:27:38.04	68.25	7.99	
2025-01-13 07:27:38.24	68.22	8.00	
2025-01-13 07:27:38.45	68.19	8.01	
2025-01-13 07:27:38.65	68.16	8.02	
2025-01-13 07:27:38.86	68.13	8.03	
2025-01-13 07:27:39.07	68.11	8.04	
2025-01-13 07:27:39.27	68.08	8.05	
2025-01-13 07:27:39.48	68.05	8.06	
2025-01-13 07:27:39.68	68.02	8.07	
2025-01-13 07:27:39.89	67.99	8.08	
2025-01-13 07:27:40.10	67.97	8.09	
2025-01-13 07:27:40.30	67.94	8.10	
2025-01-13 07:27:40.51	67.91	8.11	
2025-01-13 07:27:40.71	67.88	8.12	
2025-01-13 07:27:40.92	67.85	8.13	
2025-01-13 07:27:41.12	67.83	8.14	
2025-01-13 07:27:41.33	67.80	8.15	
2025-01-13 07:27:41.53	67.77	8.16	
2025-01-13 07:27:41.75	67.74	8.17	
2025-01-13 07:27:41.96	67.71	8.18	
2025-01-13 07:27:42.16	67.69	8.18	
2025-01-13 07:27:42.37	67.66	8.19	
2025-01-13 07:27:42.58	67.63	8.20	
2025-01-13 07:27:42.78	67.60	8.21	
2025-01-13 07:27:42.99	67.57	8.22	
2025-01-13 07:27:43.19	67.54	8.23	
2025-01-13 07:27:43.40	67.52	8.24	
2025-01-13 07:27:43.60	67.49	8.25	
2025-01-13 07:27:43.81	67.46	8.26	
2025-01-13 07:27:44.01	67.43	8.27	
2025-01-13 07:27:44.22	67.40	8.28	
2025-01-13 07:27:44.43	67.37	8.29	
2025-01-13 07:27:44.63	67.35	8.30	
2025-01-13 07:27:44.84	67.32	8.31	
2025-01-13 07:27:45.04	67.29	8.32	
2025-01-13 07:27:45.24	67.26	8.33	
2025-01-13 07:27:45.45	67.23	8.34	
2025-01-13 07:27:45.66	67.20	8.35	
2025-01-13 07:27:45.86	67.18	8.36	
2025-01-13 07:27:46.07	67.15	8.37	
2025-01-13 07:27:46.27	67.12	8.38	
2025-01-13 07:27:46.48	67.09	8.39	
2025-01-13 07:27:46.68	67.06	8.40	
2025-01-13 07:27:46.89	67.03	8.41	
2025-01-13 07:27:47.09	67.01	8.42	
2025-01-13 07:27:47.30	66.98	8.43	
2025-01-13 07:27:47.50	66.95	8.44	
2025-01-13 07:27:47.71	66.92	8.45	
2025-01-13 07:27:47.91	66.89	8.46	
2025-01-13 07:27:48.11	66.86	8.46	
2025-01-13 07:27:48.32	66.83	8.47	
2025-01-13 07:27:48.53	66.80	8.48	
2025-01-13 07:27:48.73	66.78	8.49	
2025-01-13 07:27:48.94	66.75	8.50	
2025-01-13 07:27:49.14	66.72	8.51	
2025-01-13 07:27:49.35	66.69	8.52	
2025-01-13 07:27:49.56	66.66	8.53	
2025-01-13 07:27:49.76	66.63	8.54	
2025-01-13 07:27:49.97	66.60	8.55	
2025-01-13 07:27:50.17	66.57	8.56	
2025-01-13 07:27:50.38	66.55	8.57	
2025-01-13 07:27:50.58	66.52	8.58	
2025-01-13 07:27:50.79	66.49	8.59	
2025-01-13 07:27:50.99	66.46	8.60	
2025-01-13 07:27:51.20	66.43	8.61	
2025-01-13 07:27:51.40	66.40	8.62	
2025-01-13 07:27:51.61	66.37	8.63	
2025-01-13 07:27:51.82	66.34	8.64	
2025-01-13 07:27:52.02	66.31	8.65	
2025-01-13 07:27:52.23	66.28	8.66	
2025-01-13 07:27:52.44	66.25	8.67	
2025-01-13 07:27:52.65	66.22	8.68	
2025-01-13 07:27:52.86	66.20	8.69	
2025-01-13 07:27:53.06	66.17	8.70	
2025-01-13 07:27:53.26	66.14	8.71	
2025-01-13 07:27:53.47	66.11	8.71	
2025-01-13 07:27:53.67	66.08	8.72	
2025-01-13 07:27:53.88	66.05	8.73	
2025-01-13 07:27:54.08	66.02	8.74	
2025-01-13 07:27:54.29	65.99	8.75	
2025-01-13 07:27:54.51	65.96	8.76	
2025-01-13 07:27:54.71	65.93	8.77	
2025-01-13 07:27:54.92	65.90	8.78	
2025-01-13 07:27:55.12	65.87	8.79	
2025-01-13 07:27:55.33	65.84	8.80	
2025-01-13 07:27:55.54	65.81	8.81	
2025-01-13 07:27:55.75	65.78	8.82	
2025-01-13 07:27:55.96	65.75	8.83	
2025-01-13 07:27:56.16	65.72	8.84	
2025-01-13 07:27:56.37	65.69	8.85	
2025-01-13 07:27:56.57	65.67	8.86	
2025-01-13 07:27:56.78	65.64	8.87	
2025-01-13 07:27:56.98	65.61	8.88	
2025-01-13 07:27:57.19	65.58	8.89	
2025-01-13 07:27:57.39	65.55	8.90	
2025-01-13 07:27:57.60	65.52	8.91	
2025-01-13 07:27:57.80	65.49	8.92	
2025-01-13 07:27:58.01	65.46	8.92	
2025-01-13 07:27:58.21	65.43	8.93	
2025-01-13 07:27:58.42	65.40	8.94	
2025-01-13 07:27:58.62	65.37	8.95	
2025-01-13 07:27:58.83	65.34	8.96	
2025-01-13 07:27:59.03	65.31	8.97	
2025-01-13 07:27:59.24	65.28	8.98	
2025-01-13 07:27:59.44	65.25	8.99	
2025-01-13 07:27:59.65	65.22	9.00	
2025-01-13 07:27:59.85	65.19	9.01	
2025-01-13 07:28:00.06	65.16	9.02	
2025-01-13 07:28:00.27	65.13	9.03	
2025-01-13 07:28:00.48	65.10	9.04	
2025-01-13 07:28:00.70	65.07	9.05	
2025-01-13 07:28:00.90	65.04	9.06	
2025-01-13 07:28:01.11	65.01	9.07	
2025-01-13 07:28:01.31	64.98	9.08	
2025-01-13 07:28:01.52	64.95	9.09	
2025-01-13 07:28:01.72	64.92	9.09	
2025-01-13 07:28:01.93	64.89	9.10	
2025-01-13 07:28:02.13	64.86	9.11	
2025-01-13 07:28:02.34	64.83	9.12	
2025-01-13 07:28:02.55	64.80	9.13	
2025-01-13 07:28:02.75	64.77	9.14	
2025-01-13 07:28:02.96	64.74	9.15	
2025-01-13 07:28:03.16	64.71	9.16	
2025-01-13 07:28:03.37	64.68	9.17	
2025-01-13 07:28:03.57	64.65	9.18	
2025-01-13 07:28:03.78	64.62	9.19	
2025-01-13 07:28:03.98	64.59	9.20	
2025-01-13 07:28:04.19	64.56	9.21	
2025-01-13 07:28:04.39	64.53	9.22	
2025-01-13 07:28:04.60	64.50	9.23	
2025-01-13 07:28:04.81	64.47	9.24	
2025-01-13 07:28:05.01	64.44	9.24	
2025-01-13 07:28:05.23	64.41	9.25	
2025-01-13 07:28:05.43	64.38	9.26	
2025-01-13 07:28:05.64	64.35	9.27	
2025-01-13 07:28:05.84	64.32	9.28	
2025-01-13 07:28:06.05	64.29	9.29	
2025-01-13 07:28:06.25	64.26	9.30	
2025-01-13 07:28:06.45	64.23	9.31	
2025-01-13 07:28:06.66	64.20	9.32	
2025-01-13 07:28:06.87	64.16	9.33	
2025-01-13 07:28:07.07	64.13	9.34	
2025-01-13 07:28:07.28	64.10	9.35	
2025-01-13 07:28:07.48	64.07	9.36	
2025-01-13 07:28:07.69	64.04	9.37	
2025-01-13 07:28:07.89	64.01	9.38	
2025-01-13 07:28:08.10	63.98	9.38	
2025-01-13 07:28:08.30	63.95	9.39	
2025-01-13 07:28:08.51	63.92	9.40	
2025-01-13 07:28:08.71	63.89	9.41	
2025-01-13 07:28:08.92	63.86	9.42	
2025-01-13 07:28:09.12	63.83	9.43	
2025-01-13 07:28:09.33	63.80	9.44	
2025-01-13 07:28:09.53	63.77	9.45	
2025-01-13 07:28:09.74	63.74	9.46	
2025-01-13 07:28:09.95	63.71	9.47	
2025-01-13 07:28:10.15	63.68	9.48	
2025-01-13 07:28:10.36	63.64	9.49	
2025-01-13 07:28:10.56	63.61	9.50	
2025-01-13 07:28:10.76	63.58	9.50	
2025-01-13 07:28:10.97	63.55	9.51	
2025-01-13 07:28:11.18	63.52	9.52	
2025-01-13 07:28:11.38	63.49	9.53	
2025-01-13 07:28:11.58	63.46	9.54	
2025-01-13 07:28:11.79	63.43	9.55	
2025-01-13 07:28:12.00	63.40	9.56	
2025-01-13 07:28:12.20	63.37	9.57	
2025-01-13 07:28:12.41	63.34	9.58	
2025-01-13 07:28:12.61	63.31	9.59	
2025-01-13 07:28:12.82	63.27	9.60	
2025-01-13 07:28:13.02	63.24	9.61	
2025-01-13 07:28:13.23	63.21	9.61	
2025-01-13 07:28:13.43	63.18	9.62	
2025-01-13 07:28:13.64	63.15	9.63	
2025-01-13 07:28:13.84	63.12	9.64	
2025-01-13 07:28:14.04	63.09	9.65	
2025-01-13 07:28:14.25	63.06	9.66	
2025-01-13 07:28:14.46	63.03	9.67	
2025-01-13 07:28:14.66	63.00	9.68	
2025-01-13 07:28:14.87	62.96	9.69	
2025-01-13 07:28:15.07	62.93	9.70	
2025-01-13 07:28:15.28	62.90	9.71	
2025-01-13 07:28:15.48	62.87	9.71	
2025-01-13 07:28:15.69	62.84	9.72	
2025-01-13 07:28:15.89	62.81	9.73	
2025-01-13 07:28:16.10	62.78	9.74	
2025-01-13 07:28:16.30	62.75	9.75	
2025-01-13 07:28:16.51	62.71	9.76	
2025-01-13 07:28:16.71	62.68	9.77	
2025-01-13 07:28:16.92	62.65	9.78	
2025-01-13 07:28:17.12	62.62	9.79	
2025-01-13 07:28:17.33	62.59	9.80	
2025-01-13 07:28:17.53	62.56	9.80	
2025-01-13 07:28:17.74	62.53	9.81	
2025-01-13 07:28:17.94	62.50	9.82	
2025-01-13 07:28:18.15	62.46	9.83	
2025-01-13 07:28:18.36	62.43	9.84	
2025-01-13 07:28:18.56	62.40	9.85	
2025-01-13 07:28:18.76	62.37	9.86	
2025-01-13 07:28:18.97	62.34	9.87	
2025-01-13 07:28:19.17	62.31	9.88	
2025-01-13 07:28:19.38	62.27	9.89	
2025-01-13 07:28:19.58	62.24	9.89	
2025-01-13 07:28:19.79	62.21	9.90	
2025-01-13 07:28:20.00	62.18	9.91	
2025-01-13 07:28:20.20	62.15	9.92	
2025-01-13 07:28:20.40	62.12	9.93	
2025-01-13 07:28:20.61	62.08	9.94	
2025-01-13 07:28:20.82	62.05	9.95	
2025-01-13 07:28:21.02	62.02	9.96	
2025-01-13 07:28:21.23	61.99	9.97	
2025-01-13 07:28:21.43	61.96	9.98	
2025-01-13 07:28:21.64	61.93	9.98	
2025-01-13 07:28:21.84	61.89	9.99	
2025-01-13 07:28:22.05	61.86	10.00	
2025-01-13 07:28:22.25	61.83	10.01	
2025-01-13 07:28:22.46	61.80	10.02	
2025-01-13 07:28:22.66	61.77	10.03	
2025-01-13 07:28:22.87	61.73	10.04	
2025-01-13 07:28:23.07	61.70	10.05	
2025-01-13 07:28:23.28	61.67	10.06	
2025-01-13 07:28:23.48	61.64	10.06	
2025-01-13 07:28:23.69	61.61	10.07	
2025-01-13 07:28:23.90	61.57	10.08	
2025-01-13 07:28:24.10	61.54	10.09	
2025-01-13 07:28:24.31	61.51	10.10	
2025-01-13 07:28:24.51	61.48	10.11	
2025-01-13 07:28:24.72	61.45	10.12	
2025-01-13 07:28:24.92	61.41	10.13	
2025-01-13 07:28:25.12	61.38	10.14	
2025-01-13 07:28:25.33	61.35	10.14	
2025-01-13 07:28:25.55	61.32	10.15	
2025-01-13 07:28:25.75	61.28	10.16	
2025-01-13 07:28:25.96	61.25	10.17	
2025-01-13 07:28:26.16	61.22	10.18	
2025-01-13 07:28:26.37	61.19	10.19	
2025-01-13 07:28:26.57	61.15	10.20	
2025-01-13 07:28:26.78	61.12	10.21	
2025-01-13 07:28:26.98	61.09	10.22	
2025-01-13 07:28:27.19	61.06	10.22	
2025-01-13 07:28:27.40	61.02	10.23	
2025-01-13 07:28:27.60	60.99	10.24	
2025-01-13 07:28:27.81	60.96	10.25	
2025-01-13 07:28:28.01	60.93	10.26	
2025-01-13 07:28:28.22	60.89	10.27	
2025-01-13 07:28:28.42	60.86	10.28	
2025-01-13 07:28:28.63	60.83	10.29	
2025-01-13 07:28:28.83	60.80	10.29	
2025-01-13 07:28:29.04	60.76	10.30	
2025-01-13 07:28:29.24	60.73	10.31	
2025-01-13 07:28:29.45	60.70	10.32	
2025-01-13 07:28:29.65	60.67	10.33	
2025-01-13 07:28:29.86	60.63	10.34	
2025-01-13 07:28:30.06	60.60	10.35	
2025-01-13 07:28:30.27	60.57	10.36	
2025-01-13 07:28:30.48	60.54	10.36	
2025-01-13 07:28:30.68	60.50	10.37	
2025-01-13 07:28:30.89	60.47	10.38	
2025-01-13 07:28:31.09	60.44	10.39	
2025-01-13 07:28:31.30	60.41	10.40	
2025-01-13 07:28:31.50	60.37	10.41	
2025-01-13 07:28:31.71	60.34	10.42	
2025-01-13 07:28:31.93	60.30	10.43	
2025-01-13 07:28:32.13	60.27	10.43	
2025-01-13 07:28:32.34	60.24	10.44	
2025-01-13 07:28:32.54	60.21	10.45	
2025-01-13 07:28:32.75	60.17	10.46	
2025-01-13 07:28:32.97	60.14	10.47	
2025-01-13 07:28:33.17	60.11	10.48	
2025-01-13 07:28:33.38	60.07	10.49	
2025-01-13 07:28:33.58	60.04	10.50	
2025-01-13 07:28:33.79	60.01	10.50	
2025-01-13 07:28:33.99	59.97	10.51	
2025-01-13 07:28:34.20	59.94	10.52	
2025-01-13 07:28:34.40	59.91	10.53	
2025-01-13 07:28:34.61	59.87	10.54	
2025-01-13 07:28:34.81	59.84	10.55	
2025-01-13 07:28:35.02	59.81	10.56	
2025-01-13 07:28:35.22	59.78	10.56	
2025-01-13 07:28:35.43	59.74	10.57	
2025-01-13 07:28:35.64	59.71	10.58	
2025-01-13 07:28:35.84	59.68	10.59	
2025-01-13 07:28:36.05	59.64	10.60	
2025-01-13 07:28:36.25	59.61	10.61	
2025-01-13 07:28:36.46	59.58	10.62	
2025-01-13 07:28:36.66	59.54	10.62	
2025-01-13 07:28:36.87	59.51	10.63	
2025-01-13 07:28:37.07	59.48	10.64	
2025-01-13 07:28:37.28	59.44	10.65	
2025-01-13 07:28:37.48	59.41	10.66	
2025-01-13 07:28:37.69	59.38	10.67	
2025-01-13 07:28:37.90	59.34	10.67	
2025-01-13 07:28:38.10	59.31	10.68	
2025-01-13 07:28:38.30	59.28	10.69	
2025-01-13 07:28:38.51	59.24	10.70	
2025-01-13 07:28:38.72	59.21	10.71	
2025-01-13 07:28:38.92	59.18	10.72	
2025-01-13 07:28:39.13	59.14	10.73	
2025-01-13 07:28:39.33	59.11	10.73	
2025-01-13 07:28:39.54	59.07	10.74	
2025-01-13 07:28:39.74	59.04	10.75	
2025-01-13 07:28:39.95	59.01	10.76	
2025-01-13 07:28:40.15	58.97	10.77	
2025-01-13 07:28:40.36	58.94	10.78	
2025-01-13 07:28:40.56	58.91	10.78	
2025-01-13 07:28:40.77	58.87	10.79	
2025-01-13 07:28:40.97	58.84	10.80	
2025-01-13 07:28:41.18	58.81	10.81	
2025-01-13 07:28:41.38	58.77	10.82	
2025-01-13 07:28:41.58	58.74	10.83	
2025-01-13 07:28:41.79	58.71	10.83	
2025-01-13 07:28:42.00	58.67	10.84	
2025-01-13 07:28:42.20	58.64	10.85	
2025-01-13 07:28:42.41	58.60	10.86	
2025-01-13 07:28:42.61	58.57	10.87	
2025-01-13 07:28:42.82	58.54	10.88	
2025-01-13 07:28:43.02	58.50	10.88	
2025-01-13 07:28:43.23	58.47	10.89	
2025-01-13 07:28:43.43	58.44	10.90	
2025-01-13 07:28:43.64	58.40	10.91	
2025-01-13 07:28:43.84	58.37	10.92	
2025-01-13 07:28:44.05	58.33	10.93	
2025-01-13 07:28:44.25	58.30	10.93	
2025-01-13 07:28:44.46	58.26	10.94	
2025-01-13 07:28:44.66	58.23	10.95	
2025-01-13 07:28:44.87	58.20	10.96	
2025-01-13 07:28:45.07	58.16	10.97	
2025-01-13 07:28:45.28	58.13	10.98	
2025-01-13 07:28:45.48	58.10	10.98	
2025-01-13 07:28:45.69	58.06	10.99	
2025-01-13 07:28:45.89	58.03	11.00	
2025-01-13 07:28:46.10	57.99	11.01	
2025-01-13 07:28:46.30	57.96	11.02	
2025-01-13 07:28:46.51	57.92	11.02	
2025-01-13 07:28:46.72	57.89	11.03	
2025-01-13 07:28:46.92	57.86	11.04	
2025-01-13 07:28:47.13	57.82	11.05	
2025-01-13 07:28:47.33	57.79	11.06	
2025-01-13 07:28:47.54	57.75	11.07	
2025-01-13 07:28:47.74	57.72	11.07	
2025-01-13 07:28:47.94	57.69	11.08	
2025-01-13 07:28:48.15	57.65	11.09	
2025-01-13 07:28:48.35	57.62	11.10	
2025-01-13 07:28:48.56	57.58	11.11	
2025-01-13 07:28:48.77	57.55	11.11	
2025-01-13 07:28:48.97	57.51	11.12	
2025-01-13 07:28:49.18	57.48	11.13	
2025-01-13 07:28:49.38	57.44	11.14	
2025-01-13 07:28:49.59	57.41	11.15	
2025-01-13 07:28:49.80	57.37	11.15	
2025-01-13 07:28:50.00	57.34	11.16	
2025-01-13 07:28:50.21	57.30	11.17	
2025-01-13 07:28:50.41	57.27	11.18	
2025-01-13 07:28:50.62	57.24	11.19	
2025-01-13 07:28:50.82	57.20	11.19	
2025-01-13 07:28:51.03	57.17	11.20	
2025-01-13 07:28:51.23	57.13	11.21	
2025-01-13 07:28:51.43	57.10	11.22	
2025-01-13 07:28:51.64	57.06	11.23	
2025-01-13 07:28:51.85	57.03	11.23	
2025-01-13 07:28:52.05	56.99	11.24	
2025-01-13 07:28:52.27	56.96	11.25	
2025-01-13 07:28:52.48	56.92	11.26	
2025-01-13 07:28:52.68	56.89	11.27	
2025-01-13 07:28:52.89	56.85	11.28	
2025-01-13 07:28:53.09	56.82	11.28	
2025-01-13 07:28:53.29	56.78	11.29	
2025-01-13 07:28:53.50	56.75	11.30	
2025-01-13 07:28:53.71	56.71	11.31	
2025-01-13 07:28:53.91	56.68	11.31	
2025-01-13 07:28:54.12	56.64	11.32	
2025-01-13 07:28:54.32	56.61	11.33	
2025-01-13 07:28:54.53	56.57	11.34	
2025-01-13 07:28:54.73	56.54	11.35	
2025-01-13 07:28:54.94	56.50	11.35	
2025-01-13 07:28:55.15	56.47	11.36	
2025-01-13 07:28:55.35	56.43	11.37	
2025-01-13 07:28:55.56	56.40	11.38	
2025-01-13 07:28:55.76	56.36	11.39	
2025-01-13 07:28:55.97	56.33	11.39	
2025-01-13 07:28:56.17	56.29	11.40	
2025-01-13 07:28:56.38	56.26	11.41	
2025-01-13 07:28:56.58	56.22	11.42	
2025-01-13 07:28:56.79	56.19	11.42	
2025-01-13 07:28:56.99	56.15	11.43	
2025-01-13 07:28:57.20	56.12	11.44	
2025-01-13 07:28:57.40	56.08	11.45	
2025-01-13 07:28:57.61	56.05	11.46	
2025-01-13 07:28:57.82	56.01	11.46	
2025-01-13 07:28:58.02	55.98	11.47	
2025-01-13 07:28:58.23	55.94	11.48	
2025-01-13 07:28:58.43	55.91	11.49	
2025-01-13 07:28:58.64	55.87	11.49	
2025-01-13 07:28:58.84	55.84	11.50	
2025-01-13 07:28:59.05	55.80	11.51	
2025-01-13 07:28:59.25	55.76	11.52	
2025-01-13 07:28:59.46	55.73	11.53	
2025-01-13 07:28:59.66	55.69	11.53	
2025-01-13 07:28:59.87	55.66	11.54	
2025-01-13 07:29:00.07	55.62	11.55	
2025-01-13 07:29:00.28	55.59	11.56	
2025-01-13 07:29:00.48	55.55	11.56	
2025-01-13 07:29:00.69	55.52	11.57	
2025-01-13 07:29:00.89	55.48	11.58	
2025-01-13 07:29:01.10	55.44	11.59	
2025-01-13 07:29:01.30	55.41	11.59	
2025-01-13 07:29:01.51	55.37	11.60	
2025-01-13 07:29:01.72	55.34	11.61	
2025-01-13 07:29:01.92	55.30	11.62	
2025-01-13 07:29:02.13	55.27	11.63	
2025-01-13 07:29:02.33	55.23	11.63	
2025-01-13 07:29:02.54	55.20	11.64	
2025-01-13 07:29:02.74	55.16	11.65	
2025-01-13 07:29:02.95	55.12	11.66	
2025-01-13 07:29:03.15	55.09	11.66	
2025-01-13 07:29:03.36	55.05	11.67	
2025-01-13 07:29:03.56	55.02	11.68	
2025-01-13 07:29:03.77	54.98	11.69	
2025-01-13 07:29:03.97	54.95	11.69	
2025-01-13 07:29:04.18	54.91	11.70	
2025-01-13 07:29:04.38	54.87	11.71	
2025-01-13 07:29:04.59	54.84	11.72	
2025-01-13 07:29:04.79	54.80	11.72	
2025-01-13 07:29:05.00	54.77	11.73	
2025-01-13 07:29:05.20	54.73	11.74	
2025-01-13 07:29:05.41	54.69	11.75	
2025-01-13 07:29:05.61	54.66	11.75	
2025-01-13 07:29:05.82	54.62	11.76	
2025-01-13 07:29:06.02	54.59	11.77	
2025-01-13 07:29:06.23	54.55	11.78	
2025-01-13 07:29:06.43	54.52	11.78	
2025-01-13 07:29:06.64	54.48	11.79	
2025-01-13 07:29:06.85	54.44	11.80	
2025-01-13 07:29:07.05	54.41	11.80	
2025-01-13 07:29:07.26	54.37	11.81	
2025-01-13 07:29:07.46	54.33	11.82	
2025-01-13 07:29:07.67	54.30	11.83	
2025-01-13 07:29:07.87	54.26	11.83	
2025-01-13 07:29:08.08	54.23	11.84	
2025-01-13 07:29:08.28	54.19	11.85	
2025-01-13 07:29:08.49	54.15	11.86	
2025-01-13 07:29:08.69	54.12	11.86	
2025-01-13 07:29:08.89	54.08	11.87	
2025-01-13 07:29:09.10	54.05	11.88	
2025-01-13 07:29:09.30	54.01	11.89	
2025-01-13 07:29:09.51	53.97	11.89	
2025-01-13 07:29:09.72	53.94	11.90	
2025-01-13 07:29:09.92	53.90	11.91	
2025-01-13 07:29:10.13	53.86	11.91	
2025-01-13 07:29:10.33	53.83	11.92	
2025-01-13 07:29:10.54	53.79	11.93	
2025-01-13 07:29:10.74	53.75	11.94	
2025-01-13 07:29:10.95	53.72	11.94	
2025-01-13 07:29:11.15	53.68	11.95	
2025-01-13 07:29:11.37	53.64	11.96	
2025-01-13 07:29:11.57	53.61	11.97	
2025-01-13 07:29:11.78	53.57	11.97	
2025-01-13 07:29:11.98	53.53	11.98	
2025-01-13 07:29:12.19	53.50	11.99	
2025-01-13 07:29:12.40	53.46	11.99	
2025-01-13 07:29:12.60	53.42	12.00	
2025-01-13 07:29:12.80	53.39	12.01	
2025-01-13 07:29:13.01	53.35	12.02	
2025-01-13 07:29:13.22	53.31	12.02	
2025-01-13 07:29:13.42	53.28	12.03	
2025-01-13 07:29:13.63	53.24	12.04	
2025-01-13 07:29:13.83	53.20	12.04	
2025-01-13 07:29:14.04	53.17	12.05	
2025-01-13 07:29:14.24	53.13	12.06	
2025-01-13 07:29:14.45	53.09	12.06	
2025-01-13 07:29:14.65	53.06	12.07	
2025-01-13 07:29:14.85	53.02	12.08	
2025-01-13 07:29:15.06	52.98	12.09	
2025-01-13 07:29:15.26	52.95	12.09	
2025-01-13 07:29:15.47	52.91	12.10	
2025-01-13 07:29:15.68	52.87	12.11	
2025-01-13 07:29:15.88	52.84	12.11	
2025-01-13 07:29:16.09	52.80	12.12	
2025-01-13 07:29:16.29	52.76	12.13	
2025-01-13 07:29:16.50	52.73	12.13	
2025-01-13 07:29:16.71	52.69	12.14	
2025-01-13 07:29:16.91	52.65	12.15	
2025-01-13 07:29:17.11	52.62	12.16	
2025-01-13 07:29:17.33	52.58	12.16	
2025-01-13 07:29:17.54	52.54	12.17	
2025-01-13 07:29:17.74	52.50	12.18	
2025-01-13 07:29:17.95	52.46	12.18	
2025-01-13 07:29:18.15	52.43	12.19	
2025-01-13 07:29:18.36	52.39	12.20	
2025-01-13 07:29:18.57	52.35	12.20	
2025-01-13 07:29:18.77	52.32	12.21	
2025-01-13 07:29:18.98	52.28	12.22	
2025-01-13 07:29:19.18	52.24	12.22	
2025-01-13 07:29:19.39	52.20	12.23	
2025-01-13 07:29:19.59	52.17	12.24	
2025-01-13 07:29:19.80	52.13	12.25	
2025-01-13 07:29:20.02	52.09	12.25	
2025-01-13 07:29:20.23	52.05	12.26	
2025-01-13 07:29:20.43	52.02	12.27	
2025-01-13 07:29:20.64	51.98	12.27	
2025-01-13 07:29:20.84	51.94	12.28	
2025-01-13 07:29:21.05	51.90	12.29	
2025-01-13 07:29:21.25	51.87	12.29	
2025-01-13 07:29:21.46	51.83	12.30	
2025-01-13 07:29:21.67	51.79	12.31	
2025-01-13 07:29:21.87	51.75	12.31	
2025-01-13 07:29:22.07	51.72	12.32	
2025-01-13 07:29:22.28	51.68	12.33	
2025-01-13 07:29:22.48	51.64	12.33	
2025-01-13 07:29:22.69	51.60	12.34	
2025-01-13 07:29:22.89	51.57	12.35	
2025-01-13 07:29:23.10	51.53	12.35	
2025-01-13 07:29:23.30	51.49	12.36	
2025-01-13 07:29:23.51	51.46	12.37	
2025-01-13 07:29:23.71	51.42	12.37	
2025-01-13 07:29:23.93	51.38	12.38	
2025-01-13 07:29:24.14	51.34	12.39	
2025-01-13 07:29:24.35	51.30	12.39	
2025-01-13 07:29:24.56	51.26	12.40	
2025-01-13 07:29:24.77	51.22	12.41	
2025-01-13 07:29:24.97	51.19	12.41	
2025-01-13 07:29:25.18	51.15	12.42	
2025-01-13 07:29:25.38	51.11	12.43	
2025-01-13 07:29:25.59	51.07	12.43	
2025-01-13 07:29:25.79	51.04	12.44	
2025-01-13 07:29:26.00	51.00	12.45	
2025-01-13 07:29:26.20	50.96	12.45	
2025-01-13 07:29:26.41	50.92	12.46	
2025-01-13 07:29:26.61	50.89	12.47	
2025-01-13 07:29:26.82	50.85	12.47	
2025-01-13 07:29:27.03	50.81	12.48	
2025-01-13 07:29:27.23	50.77	12.48	
2025-01-13 07:29:27.44	50.73	12.49	
2025-01-13 07:29:27.64	50.70	12.50	
2025-01-13 07:29:27.85	50.66	12.50	
2025-01-13 07:29:28.06	50.62	12.51	
2025-01-13 07:29:28.26	50.58	12.52	
2025-01-13 07:29:28.47	50.54	12.52	
2025-01-13 07:29:28.68	50.51	12.53	
2025-01-13 07:29:28.89	50.47	12.54	
2025-01-13 07:29:29.10	50.43	12.54	
2025-01-13 07:29:29.30	50.39	12.55	
2025-01-13 07:29:29.51	50.35	12.56	
2025-01-13 07:29:29.72	50.31	12.56	
2025-01-13 07:29:29.93	50.27	12.57	
2025-01-13 07:29:30.14	50.23	12.57	
2025-01-13 07:29:30.34	50.20	12.58	
2025-01-13 07:29:30.55	50.16	12.59	
2025-01-13 07:29:30.75	50.12	12.59	
2025-01-13 07:29:30.96	50.08	12.60	
2025-01-13 07:29:31.16	50.05	12.61	
2025-01-13 07:29:31.37	50.01	12.61	
2025-01-13 07:29:31.57	49.97	12.62	
2025-01-13 07:29:31.78	49.93	12.62	
2025-01-13 07:29:31.98	49.89	12.63	
2025-01-13 07:29:32.19	49.85	12.64	
2025-01-13 07:29:32.39	49.82	12.64	
2025-01-13 07:29:32.60	49.78	12.65	
2025-01-13 07:29:32.82	49.74	12.66	
2025-01-13 07:29:33.02	49.70	12.66	
2025-01-13 07:29:33.23	49.66	12.67	
2025-01-13 07:29:33.43	49.62	12.67	
2025-01-13 07:29:33.64	49.58	12.68	
2025-01-13 07:29:33.84	49.55	12.69	
2025-01-13 07:29:34.05	49.51	12.69	
2025-01-13 07:29:34.25	49.47	12.70	
2025-01-13 07:29:34.46	49.43	12.70	
2025-01-13 07:29:34.66	49.39	12.71	
2025-01-13 07:29:34.87	49.35	12.72	
2025-01-13 07:29:35.07	49.32	12.72	
2025-01-13 07:29:35.28	49.28	12.73	
2025-01-13 07:29:35.48	49.24	12.73	
2025-01-13 07:29:35.69	49.20	12.74	
2025-01-13 07:29:35.90	49.16	12.75	
2025-01-13 07:29:36.10	49.12	12.75	
2025-01-13 07:29:36.31	49.08	12.76	
2025-01-13 07:29:36.51	49.05	12.76	
2025-01-13 07:29:36.72	49.01	12.77	
2025-01-13 07:29:36.92	48.97	12.78	
2025-01-13 07:29:37.13	48.93	12.78	
2025-01-13 07:29:37.33	48.89	12.79	
2025-01-13 07:29:37.54	48.85	12.79	
2025-01-13 07:29:37.74	48.82	12.80	
2025-01-13 07:29:37.95	48.78	12.81	
2025-01-13 07:29:38.15	48.74	12.81	
2025-01-13 07:29:38.36	48.70	12.82	
2025-01-13 07:29:38.56	48.66	12.82	
2025-01-13 07:29:38.77	48.62	12.83	
2025-01-13 07:29:38.97	48.58	12.83	
2025-01-13 07:29:39.18	48.54	12.84	
2025-01-13 07:29:39.38	48.51	12.85	
2025-01-13 07:29:39.59	48.47	12.85	
2025-01-13 07:29:39.79	48.43	12.86	
2025-01-13 07:29:40.00	48.39	12.86	
2025-01-13 07:29:40.20	48.35	12.87	
2025-01-13 07:29:40.41	48.31	12.88	
2025-01-13 07:29:40.62	48.27	12.88	
2025-01-13 07:29:40.82	48.23	12.89	
2025-01-13 07:29:41.03	48.19	12.89	
2025-01-13 07:29:41.23	48.16	12.90	
2025-01-13 07:29:41.44	48.12	12.90	
2025-01-13 07:29:41.64	48.08	12.91	
2025-01-13 07:29:41.85	48.04	12.91	
2025-01-13 07:29:42.06	48.00	12.92	
2025-01-13 07:29:42.26	47.96	12.93	
2025-01-13 07:29:42.48	47.92	12.93	
2025-01-13 07:29:42.68	47.88	12.94	
2025-01-13 07:29:42.89	47.84	12.94	
2025-01-13 07:29:43.10	47.80	12.95	
2025-01-13 07:29:43.30	47.76	12.95	
2025-01-13 07:29:43.51	47.72	12.96	
2025-01-13 07:29:43.71	47.69	12.97	
2025-01-13 07:29:43.92	47.65	12.97	
2025-01-13 07:29:44.12	47.61	12.98	
2025-01-13 07:29:44.33	47.57	12.98	
2025-01-13 07:29:44.53	47.53	12.99	
2025-01-13 07:29:44.74	47.49	12.99	
2025-01-13 07:29:44.94	47.45	13.00	
2025-01-13 07:29:45.15	47.41	13.00	
2025-01-13 07:29:45.36	47.37	13.01	
2025-01-13 07:29:45.56	47.33	13.01	
2025-01-13 07:29:45.77	47.29	13.02	
2025-01-13 07:29:45.97	47.25	13.03	
2025-01-13 07:29:46.18	47.21	13.03	
2025-01-13 07:29:46.38	47.18	13.04	
2025-01-13 07:29:46.59	47.14	13.04	
2025-01-13 07:29:46.79	47.10	13.05	
2025-01-13 07:29:47.00	47.06	13.05	
2025-01-13 07:29:47.20	47.02	13.06	
2025-01-13 07:29:47.41	46.98	13.06	
2025-01-13 07:29:47.61	46.94	13.07	
2025-01-13 07:29:47.82	46.90	13.07	
2025-01-13 07:29:48.03	46.86	13.08	
2025-01-13 07:29:48.23	46.82	13.08	
2025-01-13 07:29:48.44	46.78	13.09	
2025-01-13 07:29:48.64	46.74	13.09	
2025-01-13 07:29:48.86	46.70	13.10	
2025-01-13 07:29:49.06	46.66	13.11	
2025-01-13 07:29:49.27	46.62	13.11	
2025-01-13 07:29:49.47	46.58	13.12	
2025-01-13 07:29:49.68	46.54	13.12	
2025-01-13 07:29:49.88	46.50	13.13	
2025-01-13 07:29:50.09	46.46	13.13	
2025-01-13 07:29:50.29	46.43	13.14	
2025-01-13 07:29:50.50	46.38	13.14	
2025-01-13 07:29:50.70	46.35	13.15	
2025-01-13 07:29:50.91	46.31	13.15	
2025-01-13 07:29:51.11	46.27	13.16	
2025-01-13 07:29:51.32	46.23	13.16	
2025-01-13 07:29:51.52	46.19	13.17	
2025-01-13 07:29:51.73	46.15	13.17	
2025-01-13 07:29:51.93	46.11	13.18	
2025-01-13 07:29:52.14	46.07	13.18	
2025-01-13 07:29:52.34	46.03	13.19	
2025-01-13 07:29:52.55	45.99	13.19	
2025-01-13 07:29:52.75	45.95	13.20	
2025-01-13 07:29:52.96	45.91	13.20	
2025-01-13 07:29:53.16	45.87	13.21	
2025-01-13 07:29:53.37	45.83	13.21	
2025-01-13 07:29:53.57	45.79	13.22	
2025-01-13 07:29:53.78	45.75	13.22	
2025-01-13 07:29:53.98	45.71	13.23	
2025-01-13 07:29:54.19	45.67	13.23	
2025-01-13 07:29:54.39	45.63	13.24	
2025-01-13 07:29:54.60	45.59	13.24	
2025-01-13 07:29:54.80	45.55	13.25	
2025-01-13 07:29:55.01	45.51	13.25	
2025-01-13 07:29:55.21	45.47	13.26	
2025-01-13 07:29:55.42	45.43	13.26	
2025-01-13 07:29:55.63	45.39	13.27	
2025-01-13 07:29:55.83	45.35	13.27	
2025-01-13 07:29:56.04	45.31	13.28	
2025-01-13 07:29:56.24	45.27	13.28	
2025-01-13 07:29:56.45	45.23	13.29	
2025-01-13 07:29:56.66	45.19	13.29	
2025-01-13 07:29:56.86	45.15	13.29	
2025-01-13 07:29:57.06	45.11	13.30	
2025-01-13 07:29:57.27	45.07	13.30	
2025-01-13 07:29:57.47	45.03	13.31	
2025-01-13 07:29:57.68	44.99	13.31	
2025-01-13 07:29:57.89	44.95	13.32	
2025-01-13 07:29:58.09	44.91	13.32	
2025-01-13 07:29:58.30	44.87	13.33	
2025-01-13 07:29:58.50	44.83	13.33	
2025-01-13 07:29:58.71	44.79	13.34	
2025-01-13 07:29:58.92	44.75	13.34	
2025-01-13 07:29:59.12	44.71	13.35	
2025-01-13 07:29:59.33	44.67	13.35	
2025-01-13 07:29:59.53	44.63	13.36	
2025-01-13 07:29:59.73	44.59	13.36	
2025-01-13 07:29:59.94	44.55	13.36	
2025-01-13 07:30:00.14	44.51	13.37	
2025-01-13 07:30:00.35	44.47	13.37	
2025-01-13 07:30:00.57	44.43	13.38	
2025-01-13 07:30:00.77	44.39	13.38	
2025-01-13 07:30:00.97	44.35	13.39	
2025-01-13 07:30:01.18	44.31	13.39	
2025-01-13 07:30:01.38	44.27	13.40	
2025-01-13 07:30:01.59	44.23	13.40	
2025-01-13 07:30:01.79	44.19	13.40	
2025-01-13 07:30:02.00	44.15	13.41	
2025-01-13 07:30:02.20	44.11	13.41	
2025-01-13 07:30:02.41	44.07	13.42	
2025-01-13 07:30:02.61	44.03	13.42	
2025-01-13 07:30:02.82	43.99	13.43	
2025-01-13 07:30:03.02	43.95	13.43	
2025-01-13 07:30:03.23	43.91	13.44	
2025-01-13 07:30:03.43	43.87	13.44	
2025-01-13 07:30:03.64	43.83	13.44	
2025-01-13 07:30:03.84	43.79	13.45	
2025-01-13 07:30:04.05	43.75	13.45	
2025-01-13 07:30:04.26	43.70	13.46	
2025-01-13 07:30:04.46	43.67	13.46	
2025-01-13 07:30:04.67	43.62	13.47	
2025-01-13 07:30:04.89	43.58	13.47	
2025-01-13 07:30:05.09	43.54	13.47	
2025-01-13 07:30:05.30	43.50	13.48	
2025-01-13 07:30:05.50	43.46	13.48	
2025-01-13 07:30:05.70	43.42	13.49	
2025-01-13 07:30:05.91	43.38	13.49	
2025-01-13 07:30:06.11	43.34	13.49	
2025-01-13 07:30:06.32	43.30	13.50	
2025-01-13 07:30:06.52	43.26	13.50	
2025-01-13 07:30:06.73	43.22	13.51	
2025-01-13 07:30:06.93	43.18	13.51	
2025-01-13 07:30:07.14	43.14	13.52	
2025-01-13 07:30:07.34	43.10	13.52	
2025-01-13 07:30:07.55	43.06	13.52	
2025-01-13 07:30:07.75	43.02	13.53	
2025-01-13 07:30:07.96	42.97	13.53	
2025-01-13 07:30:08.16	42.93	13.54	
2025-01-13 07:30:08.37	42.89	13.54	
2025-01-13 07:30:08.57	42.85	13.54	
2025-01-13 07:30:08.78	42.81	13.55	
2025-01-13 07:30:08.98	42.77	13.55	
2025-01-13 07:30:09.19	42.73	13.56	
2025-01-13 07:30:09.39	42.69	13.56	
2025-01-13 07:30:09.60	42.65	13.56	
2025-01-13 07:30:09.80	42.61	13.57	
2025-01-13 07:30:10.01	42.57	13.57	
2025-01-13 07:30:10.21	42.53	13.57	
2025-01-13 07:30:10.42	42.49	13.58	
2025-01-13 07:30:10.62	42.45	13.58	
2025-01-13 07:30:10.83	42.41	13.59	
2025-01-13 07:30:11.04	42.36	13.59	
2025-01-13 07:30:11.24	42.32	13.59	
2025-01-13 07:30:11.45	42.28	13.60	
2025-01-13 07:30:11.65	42.24	13.60	
2025-01-13 07:30:11.86	42.20	13.61	
2025-01-13 07:30:12.06	42.16	13.61	
2025-01-13 07:30:12.27	42.12	13.61	
2025-01-13 07:30:12.47	42.08	13.62	
2025-01-13 07:30:12.68	42.04	13.62	
2025-01-13 07:30:12.88	42.00	13.62	
2025-01-13 07:30:13.09	41.96	13.63	
2025-01-13 07:30:13.29	41.92	13.63	
2025-01-13 07:30:13.51	41.87	13.64	
2025-01-13 07:30:13.72	41.83	13.64	
2025-01-13 07:30:13.92	41.79	13.64	
2025-01-13 07:30:14.13	41.75	13.65	
2025-01-13 07:30:14.34	41.71	13.65	
2025-01-13 07:30:14.54	41.67	13.65	
2025-01-13 07:30:14.74	41.63	13.66	
2025-01-13 07:30:14.95	41.59	13.66	
2025-01-13 07:30:15.16	41.54	13.66	
2025-01-13 07:30:15.36	41.50	13.67	
2025-01-13 07:30:15.56	41.46	13.67	
2025-01-13 07:30:15.77	41.42	13.67	
2025-01-13 07:30:15.98	41.38	13.68	
2025-01-13 07:30:16.18	41.34	13.68	
2025-01-13 07:30:16.39	41.30	13.69	
2025-01-13 07:30:16.59	41.26	13.69	
2025-01-13 07:30:16.80	41.22	13.69	
2025-01-13 07:30:17.00	41.18	13.70	
2025-01-13 07:30:17.21	41.13	13.70	
2025-01-13 07:30:17.41	41.09	13.70	
2025-01-13 07:30:17.62	41.05	13.71	
2025-01-13 07:30:17.82	41.01	13.71	
2025-01-13 07:30:18.03	40.97	13.71	
2025-01-13 07:30:18.23	40.93	13.72	
2025-01-13 07:30:18.44	40.89	13.72	
2025-01-13 07:30:18.65	40.85	13.72	
2025-01-13 07:30:18.85	40.81	13.73	
2025-01-13 07:30:19.05	40.77	13.73	
2025-01-13 07:30:19.26	40.72	13.73	
2025-01-13 07:30:19.46	40.68	13.74	
2025-01-13 07:30:19.67	40.64	13.74	
2025-01-13 07:30:19.88	40.60	13.74	
2025-01-13 07:30:20.08	40.56	13.74	
2025-01-13 07:30:20.28	40.52	13.75	
2025-01-13 07:30:20.49	40.48	13.75	
2025-01-13 07:30:20.70	40.43	13.75	
2025-01-13 07:30:20.90	40.39	13.76	
2025-01-13 07:30:21.11	40.35	13.76	
2025-01-13 07:30:21.31	40.31	13.76	
2025-01-13 07:30:21.52	40.27	13.77	
2025-01-13 07:30:21.72	40.23	13.77	
2025-01-13 07:30:21.92	40.19	13.77	
2025-01-13 07:30:22.13	40.15	13.78	
2025-01-13 07:30:22.33	40.11	13.78	
2025-01-13 07:30:22.54	40.06	13.78	
2025-01-13 07:30:22.74	40.02	13.79	
2025-01-13 07:30:22.95	39.98	13.79	
2025-01-13 07:30:23.15	39.94	13.79	
2025-01-13 07:30:23.36	39.90	13.79	
2025-01-13 07:30:23.57	39.86	13.80	
2025-01-13 07:30:23.77	39.82	13.80	
2025-01-13 07:30:23.98	39.77	13.80	
2025-01-13 07:30:24.18	39.73	13.81	
2025-01-13 07:30:24.39	39.69	13.81	
2025-01-13 07:30:24.59	39.65	13.81	
2025-01-13 07:30:24.80	39.61	13.81	
2025-01-13 07:30:25.01	39.57	13.82	
2025-01-13 07:30:25.22	39.52	13.82	
2025-01-13 07:30:25.42	39.48	13.82	
2025-01-13 07:30:25.63	39.44	13.83	
2025-01-13 07:30:25.83	39.40	13.83	
2025-01-13 07:30:26.04	39.36	13.83	
2025-01-13 07:30:26.24	39.32	13.83	
2025-01-13 07:30:26.45	39.28	13.84	
2025-01-13 07:30:26.65	39.24	13.84	
2025-01-13 07:30:26.86	39.19	13.84	
2025-01-13 07:30:27.07	39.15	13.85	
2025-01-13 07:30:27.27	39.11	13.85	
2025-01-13 07:30:27.48	39.07	13.85	
2025-01-13 07:30:27.68	39.03	13.85	
2025-01-13 07:30:27.89	38.99	13.86	
2025-01-13 07:30:28.09	38.95	13.86	
2025-01-13 07:30:28.30	38.90	13.86	
2025-01-13 07:30:28.50	38.86	13.86	
2025-01-13 07:30:28.71	38.82	13.87	
2025-01-13 07:30:28.91	38.78	13.87	
2025-01-13 07:30:29.12	38.74	13.87	
2025-01-13 07:30:29.32	38.70	13.87	
2025-01-13 07:30:29.53	38.65	13.88	
2025-01-13 07:30:29.73	38.61	13.88	
2025-01-13 07:30:29.94	38.57	13.88	
2025-01-13 07:30:30.14	38.53	13.88	
2025-01-13 07:30:30.35	38.49	13.89	
2025-01-13 07:30:30.55	38.45	13.89	
2025-01-13 07:30:30.76	38.40	13.89	
2025-01-13 07:30:30.97	38.36	13.89	
2025-01-13 07:30:31.17	38.32	13.90	
2025-01-13 07:30:31.38	38.28	13.90	
2025-01-13 07:30:31.58	38.24	13.90	
2025-01-13 07:30:31.79	38.20	13.90	
2025-01-13 07:30:31.99	38.16	13.91	
2025-01-13 07:30:32.20	38.11	13.91	
2025-01-13 07:30:32.40	38.07	13.91	
2025-01-13 07:30:32.61	38.03	13.91	
2025-01-13 07:30:32.81	37.99	13.92	
2025-01-13 07:30:33.02	37.95	13.92	
2025-01-13 07:30:33.22	37.91	13.92	
2025-01-13 07:30:33.43	37.86	13.92	
2025-01-13 07:30:33.64	37.82	13.92	
2025-01-13 07:30:33.84	37.78	13.93	
2025-01-13 07:30:34.04	37.74	13.93	
2025-01-13 07:30:34.25	37.70	13.93	
2025-01-13 07:30:34.45	37.66	13.93	
2025-01-13 07:30:34.66	37.61	13.94	
2025-01-13 07:30:34.88	37.57	13.94	
2025-01-13 07:30:35.08	37.53	13.94	
2025-01-13 07:30:35.29	37.48	13.94	
2025-01-13 07:30:35.49	37.44	13.94	
2025-01-13 07:30:35.70	37.40	13.95	
2025-01-13 07:30:35.90	37.36	13.95	
2025-01-13 07:30:36.11	37.32	13.95	
2025-01-13 07:30:36.32	37.28	13.95	
2025-01-13 07:30:36.52	37.23	13.95	
2025-01-13 07:30:36.73	37.19	13.96	
2025-01-13 07:30:36.93	37.15	13.96	
2025-01-13 07:30:37.14	37.11	13.96	
2025-01-13 07:30:37.34	37.07	13.96	
2025-01-13 07:30:37.55	37.03	13.96	
2025-01-13 07:30:37.76	36.98	13.97	
2025-01-13 07:30:37.96	36.94	13.97	
2025-01-13 07:30:38.17	36.90	13.97	
2025-01-13 07:30:38.37	36.86	13.97	
2025-01-13 07:30:38.58	36.82	13.97	
2025-01-13 07:30:38.79	36.77	13.98	
2025-01-13 07:30:38.99	36.73	13.98	
2025-01-13 07:30:39.19	36.69	13.98	
2025-01-13 07:30:39.40	36.65	13.98	
2025-01-13 07:30:39.60	36.61	13.98	
2025-01-13 07:30:39.81	36.56	13.98	
2025-01-13 07:30:40.02	36.52	13.99	
2025-01-13 07:30:40.23	36.48	13.99	
2025-01-13 07:30:40.44	36.44	13.99	
2025-01-13 07:30:40.64	36.40	13.99	
2025-01-13 07:30:40.85	36.35	13.99	
2025-01-13 07:30:41.05	36.31	14.00	
2025-01-13 07:30:41.27	36.27	14.00	
2025-01-13 07:30:41.48	36.22	14.00	
2025-01-13 07:30:41.69	36.18	14.00	
2025-01-13 07:30:41.89	36.14	14.00	
2025-01-13 07:30:42.10	36.10	14.00	
2025-01-13 07:30:42.30	36.06	14.01	
2025-01-13 07:30:42.51	36.01	14.01	
2025-01-13 07:30:42.71	35.97	14.01	
2025-01-13 07:30:42.92	35.93	14.01	
2025-01-13 07:30:43.12	35.89	14.01	
2025-01-13 07:30:43.33	35.85	14.01	
2025-01-13 07:30:43.53	35.80	14.01	
2025-01-13 07:30:43.74	35.76	14.02	
2025-01-13 07:30:43.95	35.72	14.02	
2025-01-13 07:30:44.15	35.68	14.02	
2025-01-13 07:30:44.36	35.64	14.02	
2025-01-13 07:30:44.56	35.59	14.02	
2025-01-13 07:30:44.77	35.55	14.02	
2025-01-13 07:30:44.97	35.51	14.02	
2025-01-13 07:30:45.18	35.47	14.03	
2025-01-13 07:30:45.38	35.43	14.03	
2025-01-13 07:30:45.59	35.38	14.03	
2025-01-13 07:30:45.79	35.34	14.03	
2025-01-13 07:30:46.00	35.30	14.03	
2025-01-13 07:30:46.20	35.26	14.03	
2025-01-13 07:30:46.41	35.22	14.03	
2025-01-13 07:30:46.62	35.17	14.04	
2025-01-13 07:30:46.83	35.13	14.04	
2025-01-13 07:30:47.03	35.09	14.04	
2025-01-13 07:30:47.24	35.05	14.04	
2025-01-13 07:30:47.45	35.00	14.04	
2025-01-13 07:30:47.65	34.96	14.04	
2025-01-13 07:30:47.86	34.92	14.04	
2025-01-13 07:30:48.06	34.88	14.04	
2025-01-13 07:30:48.27	34.84	14.05	
2025-01-13 07:30:48.47	34.79	14.05	
2025-01-13 07:30:48.68	34.75	14.05	
2025-01-13 07:30:48.88	34.71	14.05	
2025-01-13 07:30:49.09	34.67	14.05	
2025-01-13 07:30:49.29	34.63	14.05	
2025-01-13 07:30:49.50	34.58	14.05	
2025-01-13 07:30:49.70	34.54	14.05	
2025-01-13 07:30:49.91	34.50	14.05	
2025-01-13 07:30:50.11	34.46	14.06	
2025-01-13 07:30:50.32	34.42	14.06	
2025-01-13 07:30:50.52	34.37	14.06	
2025-01-13 07:30:50.73	34.33	14.06	
2025-01-13 07:30:50.95	34.29	14.06	
2025-01-13 07:30:51.15	34.25	14.06	
2025-01-13 07:30:51.36	34.20	14.06	
2025-01-13 07:30:51.56	34.16	14.06	
2025-01-13 07:30:51.77	34.12	14.06	
2025-01-13 07:30:51.97	34.08	14.06	
2025-01-13 07:30:52.18	34.03	14.06	
2025-01-13 07:30:52.38	33.99	14.07	
2025-01-13 07:30:52.59	33.95	14.07	
2025-01-13 07:30:52.79	33.91	14.07	
2025-01-13 07:30:52.99	33.87	14.07	
2025-01-13 07:30:53.20	33.83	14.07	
2025-01-13 07:30:53.41	33.78	14.07	
2025-01-13 07:30:53.61	33.74	14.07	
2025-01-13 07:30:53.82	33.70	14.07	
2025-01-13 07:30:54.02	33.66	14.07	
2025-01-13 07:30:54.23	33.61	14.07	
2025-01-13 07:30:54.43	33.57	14.07	
2025-01-13 07:30:54.64	33.53	14.07	
2025-01-13 07:30:54.84	33.49	14.07	
2025-01-13 07:30:55.05	33.45	14.08	
2025-01-13 07:30:55.26	33.40	14.08	
2025-01-13 07:30:55.47	33.36	14.08	
2025-01-13 07:30:55.67	33.32	14.08	
2025-01-13 07:30:55.88	33.28	14.08	
2025-01-13 07:30:56.08	33.23	14.08	
2025-01-13 07:30:56.29	33.19	14.08	
2025-01-13 07:30:56.50	33.15	14.08	
2025-01-13 07:30:56.70	33.11	14.08	
2025-01-13 07:30:56.91	33.06	14.08	
2025-01-13 07:30:57.11	33.02	14.08	
2025-01-13 07:30:57.32	32.98	14.08	
2025-01-13 07:30:57.53	32.94	14.08	
2025-01-13 07:30:57.73	32.90	14.08	
2025-01-13 07:30:57.94	32.85	14.08	
2025-01-13 07:30:58.14	32.81	14.08	
2025-01-13 07:30:58.34	32.77	14.08	
2025-01-13 07:30:58.55	32.73	14.08	
2025-01-13 07:30:58.76	32.68	14.08	
2025-01-13 07:30:58.96	32.64	14.09	
2025-01-13 07:30:59.17	32.60	14.09	
2025-01-13 07:30:59.37	32.56	14.09	
2025-01-13 07:30:59.57	32.52	14.09	
2025-01-13 07:30:59.78	32.47	14.09	
2025-01-13 07:30:59.99	32.43	14.09	
2025-01-13 07:31:00.19	32.39	14.09	
2025-01-13 07:31:00.39	32.35	14.09	
2025-01-13 07:31:00.60	32.31	14.09	
2025-01-13 07:31:00.81	32.26	14.09	
2025-01-13 07:31:01.01	32.22	14.09	
2025-01-13 07:31:01.22	32.18	14.09	
2025-01-13 07:31:01.42	32.14	14.09	
2025-01-13 07:31:01.63	32.09	14.09	
2025-01-13 07:31:01.83	32.05	14.09	
2025-01-13 07:31:02.04	32.01	14.09	
2025-01-13 07:31:02.24	31.97	14.09	
2025-01-13 07:31:02.45	31.93	14.09	
2025-01-13 07:31:02.65	31.89	14.09	
2025-01-13 07:31:02.86	31.84	14.09	
2025-01-13 07:31:03.06	31.80	14.09	
2025-01-13 07:31:03.27	31.76	14.09	
2025-01-13 07:31:03.47	31.72	14.09	
2025-01-13 07:31:03.68	31.67	14.09	
2025-01-13 07:31:03.88	31.63	14.09	
2025-01-13 07:31:04.09	31.59	14.09	
2025-01-13 07:31:04.31	31.54	14.09	
2025-01-13 07:31:04.51	31.50	14.09	
2025-01-13 07:31:04.71	31.46	14.09	
2025-01-13 07:31:04.92	31.42	14.09	
2025-01-13 07:31:05.12	31.38	14.09	
2025-01-13 07:31:05.33	31.34	14.09	
2025-01-13 07:31:05.54	31.29	14.09	
2025-01-13 07:31:05.74	31.25	14.09	
2025-01-13 07:31:05.94	31.21	14.09	
2025-01-13 07:31:06.15	31.17	14.09	
2025-01-13 07:31:06.35	31.13	14.09	
2025-01-13 07:31:06.56	31.08	14.09	
2025-01-13 07:31:06.77	31.04	14.09	
2025-01-13 07:31:06.98	31.00	14.09	
2025-01-13 07:31:07.19	30.95	14.09	
2025-01-13 07:31:07.39	30.91	14.09	
2025-01-13 07:31:07.60	30.87	14.09	
2025-01-13 07:31:07.80	30.83	14.09	
2025-01-13 07:31:08.01	30.79	14.09	
2025-01-13 07:31:08.21	30.74	14.09	
2025-01-13 07:31:08.42	30.70	14.09	
2025-01-13 07:31:08.62	30.66	14.08	
2025-01-13 07:31:08.83	30.62	14.08	
2025-01-13 07:31:09.03	30.58	14.08	
2025-01-13 07:31:09.24	30.53	14.08	
2025-01-13 07:31:09.44	30.49	14.08	
2025-01-13 07:31:09.65	30.45	14.08	
2025-01-13 07:31:09.85	30.41	14.08	
2025-01-13 07:31:10.06	30.36	14.08	
2025-01-13 07:31:10.26	30.32	14.08	
2025-01-13 07:31:10.47	30.28	14.08	
2025-01-13 07:31:10.67	30.24	14.08	
2025-01-13 07:31:10.88	30.20	14.08	
2025-01-13 07:31:11.08	30.15	14.08	
2025-01-13 07:31:11.29	30.11	14.08	
2025-01-13 07:31:11.49	30.07	14.08	
2025-01-13 07:31:11.70	30.03	14.08	
2025-01-13 07:31:11.90	29.99	14.08	
2025-01-13 07:31:12.11	29.94	14.08	
2025-01-13 07:31:12.32	29.90	14.08	
2025-01-13 07:31:12.52	29.86	14.08	
2025-01-13 07:31:12.72	29.82	14.07	
2025-01-13 07:31:12.93	29.78	14.07	
2025-01-13 07:31:13.14	29.73	14.07	
2025-01-13 07:31:13.34	29.69	14.07	
2025-01-13 07:31:13.55	29.65	14.07	
2025-01-13 07:31:13.75	29.61	14.07	
2025-01-13 07:31:13.96	29.56	14.07	
2025-01-13 07:31:14.16	29.52	14.07	
2025-01-13 07:31:14.37	29.48	14.07	
2025-01-13 07:31:14.57	29.44	14.07	
2025-01-13 07:31:14.78	29.40	14.07	
2025-01-13 07:31:14.98	29.36	14.07	
2025-01-13 07:31:15.19	29.31	14.07	
2025-01-13 07:31:15.39	29.27	14.06	
2025-01-13 07:31:15.60	29.23	14.06	
2025-01-13 07:31:15.80	29.19	14.06	
2025-01-13 07:31:16.01	29.14	14.06	
2025-01-13 07:31:16.21	29.10	14.06	
2025-01-13 07:31:16.42	29.06	14.06	
2025-01-13 07:31:16.62	29.02	14.06	
2025-01-13 07:31:16.83	28.98	14.06	
2025-01-13 07:31:17.03	28.94	14.06	
2025-01-13 07:31:17.24	28.89	14.06	
2025-01-13 07:31:17.45	28.85	14.05	
2025-01-13 07:31:17.65	28.81	14.05	
2025-01-13 07:31:17.86	28.77	14.05	
2025-01-13 07:31:18.06	28.72	14.05	
2025-01-13 07:31:18.27	28.68	14.05	
2025-01-13 07:31:18.47	28.64	14.05	
2025-01-13 07:31:18.68	28.60	14.05	
2025-01-13 07:31:18.88	28.56	14.05	
2025-01-13 07:31:19.09	28.51	14.05	
2025-01-13 07:31:19.30	28.47	14.04	
2025-01-13 07:31:19.50	28.43	14.04	
2025-01-13 07:31:19.70	28.39	14.04	
2025-01-13 07:31:19.91	28.35	14.04	
2025-01-13 07:31:20.12	28.30	14.04	
2025-01-13 07:31:20.32	28.26	14.04	
2025-01-13 07:31:20.53	28.22	14.04	
2025-01-13 07:31:20.73	28.18	14.04	
2025-01-13 07:31:20.94	28.13	14.04	
2025-01-13 07:31:21.14	28.09	14.03	
2025-01-13 07:31:21.35	28.05	14.03	
2025-01-13 07:31:21.56	28.01	14.03	
2025-01-13 07:31:21.76	27.97	14.03	
2025-01-13 07:31:21.97	27.92	14.03	
2025-01-13 07:31:22.17	27.88	14.03	
2025-01-13 07:31:22.38	27.84	14.03	
2025-01-13 07:31:22.59	27.80	14.02	
2025-01-13 07:31:22.80	27.75	14.02	
2025-01-13 07:31:23.02	27.71	14.02	
2025-01-13 07:31:23.22	27.67	14.02	
2025-01-13 07:31:23.43	27.63	14.02	
2025-01-13 07:31:23.64	27.58	14.02	
2025-01-13 07:31:23.84	27.54	14.02	
2025-01-13 07:31:24.06	27.50	14.01	
2025-01-13 07:31:24.27	27.45	14.01	
2025-01-13 07:31:24.48	27.41	14.01	
2025-01-13 07:31:24.68	27.37	14.01	
2025-01-13 07:31:24.89	27.33	14.01	
2025-01-13 07:31:25.09	27.29	14.01	
2025-01-13 07:31:25.30	27.24	14.00	
2025-01-13 07:31:25.50	27.20	14.00	
2025-01-13 07:31:25.71	27.16	14.00	
2025-01-13 07:31:25.92	27.12	14.00	
2025-01-13 07:31:26.12	27.08	14.00	
2025-01-13 07:31:26.33	27.03	14.00	
2025-01-13 07:31:26.53	26.99	13.99	
2025-01-13 07:31:26.74	26.95	13.99	
2025-01-13 07:31:26.94	26.91	13.99	
2025-01-13 07:31:27.15	26.87	13.99	
2025-01-13 07:31:27.35	26.83	13.99	
2025-01-13 07:31:27.56	26.78	13.99	
2025-01-13 07:31:27.76	26.74	13.98	
2025-01-13 07:31:27.97	26.70	13.98	
2025-01-13 07:31:28.18	26.66	13.98	
2025-01-13 07:31:28.38	26.62	13.98	
2025-01-13 07:31:28.59	26.57	13.98	
2025-01-13 07:31:28.79	26.53	13.97	
2025-01-13 07:31:29.00	26.49	13.97	
2025-01-13 07:31:29.20	26.45	13.97	
2025-01-13 07:31:29.41	26.41	13.97	
2025-01-13 07:31:29.61	26.37	13.97	
2025-01-13 07:31:29.82	26.32	13.97	
2025-01-13 07:31:30.02	26.28	13.96	
2025-01-13 07:31:30.23	26.24	13.96	
2025-01-13 07:31:30.43	26.20	13.96	
2025-01-13 07:31:30.64	26.16	13.96	
2025-01-13 07:31:30.84	26.12	13.96	
2025-01-13 07:31:31.05	26.07	13.95	
2025-01-13 07:31:31.25	26.03	13.95	
2025-01-13 07:31:31.46	25.99	13.95	
2025-01-13 07:31:31.66	25.95	13.95	
2025-01-13 07:31:31.87	25.91	13.95	
2025-01-13 07:31:32.07	25.87	13.94	
2025-01-13 07:31:32.28	25.82	13.94	
2025-01-13 07:31:32.48	25.78	13.94	
2025-01-13 07:31:32.69	25.74	13.94	
2025-01-13 07:31:32.89	25.70	13.93	
2025-01-13 07:31:33.10	25.66	13.93	
2025-01-13 07:31:33.31	25.61	13.93	
2025-01-13 07:31:33.51	25.57	13.93	
2025-01-13 07:31:33.72	25.53	13.93	
2025-01-13 07:31:33.92	25.49	13.92	
2025-01-13 07:31:34.13	25.45	13.92	
2025-01-13 07:31:34.33	25.41	13.92	
2025-01-13 07:31:34.54	25.36	13.92	
2025-01-13 07:31:34.76	25.32	13.91	
2025-01-13 07:31:34.96	25.28	13.91	
2025-01-13 07:31:35.17	25.24	13.91	
2025-01-13 07:31:35.37	25.20	13.91	
2025-01-13 07:31:35.57	25.15	13.91	
2025-01-13 07:31:35.78	25.11	13.90	
2025-01-13 07:31:35.99	25.07	13.90	
2025-01-13 07:31:36.19	25.03	13.90	
2025-01-13 07:31:36.40	24.99	13.90	
2025-01-13 07:31:36.60	24.95	13.89	
2025-01-13 07:31:36.82	24.90	13.89	
2025-01-13 07:31:37.02	24.86	13.89	
2025-01-13 07:31:37.23	24.82	13.89	
2025-01-13 07:31:37.44	24.78	13.88	
2025-01-13 07:31:37.64	24.74	13.88	
2025-01-13 07:31:37.84	24.70	13.88	
2025-01-13 07:31:38.05	24.65	13.88	
2025-01-13 07:31:38.26	24.61	13.87	
2025-01-13 07:31:38.46	24.57	13.87	
2025-01-13 07:31:38.67	24.53	13.87	
2025-01-13 07:31:38.87	24.49	13.87	
2025-01-13 07:31:39.08	24.44	13.86	
2025-01-13 07:31:39.28	24.40	13.86	
2025-01-13 07:31:39.49	24.36	13.86	
2025-01-13 07:31:39.69	24.32	13.85	
2025-01-13 07:31:39.90	24.28	13.85	
2025-01-13 07:31:40.10	24.24	13.85	
2025-01-13 07:31:40.31	24.20	13.85	
2025-01-13 07:31:40.51	24.16	13.84	
2025-01-13 07:31:40.72	24.11	13.84	
2025-01-13 07:31:40.93	24.07	13.84	
2025-01-13 07:31:41.13	24.03	13.84	
2025-01-13 07:31:41.33	23.99	13.83	
2025-01-13 07:31:41.54	23.95	13.83	
2025-01-13 07:31:41.75	23.91	13.83	
2025-01-13 07:31:41.95	23.87	13.82	
2025-01-13 07:31:42.16	23.82	13.82	
2025-01-13 07:31:42.36	23.78	13.82	
2025-01-13 07:31:42.57	23.74	13.82	
2025-01-13 07:31:42.78	23.70	13.81	
2025-01-13 07:31:42.98	23.66	13.81	
2025-01-13 07:31:43.19	23.62	13.81	
2025-01-13 07:31:43.39	23.58	13.80	
2025-01-13 07:31:43.60	23.53	13.80	
2025-01-13 07:31:43.81	23.49	13.80	
2025-01-13 07:31:44.01	23.45	13.80	
2025-01-13 07:31:44.22	23.41	13.79	
2025-01-13 07:31:44.42	23.37	13.79	
2025-01-13 07:31:44.63	23.33	13.79	
2025-01-13 07:31:44.83	23.29	13.78	
2025-01-13 07:31:45.04	23.24	13.78	
2025-01-13 07:31:45.24	23.20	13.78	
2025-01-13 07:31:45.45	23.16	13.77	
2025-01-13 07:31:45.65	23.12	13.77	
2025-01-13 07:31:45.86	23.08	13.77	
2025-01-13 07:31:46.07	23.04	13.77	
2025-01-13 07:31:46.27	23.00	13.76	
2025-01-13 07:31:46.47	22.96	13.76	
2025-01-13 07:31:46.68	22.91	13.76	
2025-01-13 07:31:46.88	22.87	13.75	
2025-01-13 07:31:47.09	22.83	13.75	
2025-01-13 07:31:47.30	22.79	13.75	
2025-01-13 07:31:47.50	22.75	13.74	
2025-01-13 07:31:47.70	22.71	13.74	
2025-01-13 07:31:47.91	22.67	13.74	
2025-01-13 07:31:48.12	22.63	13.73	
2025-01-13 07:31:48.32	22.59	13.73	
2025-01-13 07:31:48.52	22.55	13.73	
2025-01-13 07:31:48.73	22.50	13.72	
2025-01-13 07:31:48.93	22.46	13.72	
2025-01-13 07:31:49.14	22.42	13.72	
2025-01-13 07:31:49.35	22.38	13.71	
2025-01-13 07:31:49.55	22.34	13.71	
2025-01-13 07:31:49.76	22.30	13.71	
2025-01-13 07:31:49.96	22.26	13.70	
2025-01-13 07:31:50.17	22.22	13.70	
2025-01-13 07:31:50.37	22.18	13.70	
2025-01-13 07:31:50.58	22.13	13.69	
2025-01-13 07:31:50.80	22.09	13.69	
2025-01-13 07:31:51.00	22.05	13.69	
2025-01-13 07:31:51.21	22.01	13.68	
2025-01-13 07:31:51.41	21.97	13.68	
2025-01-13 07:31:51.62	21.93	13.68	
2025-01-13 07:31:51.82	21.89	13.67	
2025-01-13 07:31:52.03	21.84	13.67	
2025-01-13 07:31:52.24	21.80	13.67	
2025-01-13 07:31:52.44	21.76	13.66	
2025-01-13 07:31:52.65	21.72	13.66	
2025-01-13 07:31:52.85	21.68	13.66	
2025-01-13 07:31:53.06	21.64	13.65	
2025-01-13 07:31:53.26	21.60	13.65	
2025-01-13 07:31:53.47	21.56	13.64	
2025-01-13 07:31:53.67	21.52	13.64	
2025-01-13 07:31:53.88	21.48	13.64	
2025-01-13 07:31:54.08	21.44	13.63	
2025-01-13 07:31:54.29	21.39	13.63	
2025-01-13 07:31:54.49	21.35	13.63	
2025-01-13 07:31:54.71	21.31	13.62	
2025-01-13 07:31:54.92	21.27	13.62	
2025-01-13 07:31:55.12	21.23	13.61	
2025-01-13 07:31:55.33	21.19	13.61	
2025-01-13 07:31:55.54	21.15	13.61	
2025-01-13 07:31:55.74	21.11	13.60	
2025-01-13 07:31:55.95	21.06	13.60	
2025-01-13 07:31:56.15	21.02	13.60	
2025-01-13 07:31:56.36	20.98	13.59	
2025-01-13 07:31:56.56	20.94	13.59	
2025-01-13 07:31:56.77	20.90	13.58	
2025-01-13 07:31:56.97	20.86	13.58	
2025-01-13 07:31:57.18	20.82	13.58	
2025-01-13 07:31:57.38	20.78	13.57	
2025-01-13 07:31:57.59	20.74	13.57	
2025-01-13 07:31:57.79	20.70	13.57	
2025-01-13 07:31:58.00	20.66	13.56	
2025-01-13 07:31:58.20	20.62	13.56	
2025-01-13 07:31:58.41	20.58	13.55	
2025-01-13 07:31:58.61	20.54	13.55	
2025-01-13 07:31:58.82	20.50	13.55	
2025-01-13 07:31:59.02	20.46	13.54	
2025-01-13 07:31:59.23	20.41	13.54	
2025-01-13 07:31:59.43	20.38	13.53	
2025-01-13 07:31:59.64	20.33	13.53	
2025-01-13 07:31:59.84	20.29	13.53	
2025-01-13 07:32:00.05	20.25	13.52	
2025-01-13 07:32:00.26	20.21	13.52	
2025-01-13 07:32:00.47	20.17	13.51	
2025-01-13 07:32:00.67	20.13	13.51	
2025-01-13 07:32:00.88	20.09	13.50	
2025-01-13 07:32:01.08	20.05	13.50	
2025-01-13 07:32:01.29	20.01	13.50	
2025-01-13 07:32:01.49	19.97	13.49	
2025-01-13 07:32:01.70	19.93	13.49	
2025-01-13 07:32:01.90	19.89	13.48	
2025-01-13 07:32:02.11	19.85	13.48	
