passes_logs/2025/01/13/SPB_Silybum_02/SPB_Silybum_02__20250113_021602_AQUA_rec.log

#Pass ID: 20250113_021602_AQUA
#Satellite: AQUA
#Configuration: AQUA
#Start time: 2025-01-13 02:16:00

#Version: 2.0.20230423
#Station: SPB_Silybum_02
#Location: 30.233357 lon 59.946436 lat
#TLE: 1 27424U 02022A   25012.20730597  .00001826  00000+0  38477-3 0  9996
#TLE: 2 27424  98.3584 328.8461 0001605 114.2253 358.7733 14.60671943207219

#Time	Az	El	Level	Level2	SNR	BER	Gain	Gain2
2025-01-13 02:16:02.90	13.16	4.03	
2025-01-13 02:16:03.11	13.15	4.04	
2025-01-13 02:16:03.32	13.14	4.05	
2025-01-13 02:16:03.52	13.13	4.07	
2025-01-13 02:16:03.72	13.12	4.08	
2025-01-13 02:16:03.93	13.11	4.10	
2025-01-13 02:16:04.13	13.10	4.11	
2025-01-13 02:16:04.34	13.09	4.12	
2025-01-13 02:16:04.55	13.09	4.14	
2025-01-13 02:16:04.75	13.08	4.15	
2025-01-13 02:16:04.96	13.07	4.17	
2025-01-13 02:16:05.16	13.06	4.18	
2025-01-13 02:16:05.36	13.05	4.20	
2025-01-13 02:16:05.57	13.04	4.21	
2025-01-13 02:16:05.77	13.03	4.22	
2025-01-13 02:16:05.98	13.02	4.24	
2025-01-13 02:16:06.19	13.01	4.25	
2025-01-13 02:16:06.39	13.00	4.27	
2025-01-13 02:16:06.60	12.99	4.28	
2025-01-13 02:16:06.80	12.98	4.30	
2025-01-13 02:16:07.01	12.97	4.31	
2025-01-13 02:16:07.22	12.96	4.32	
2025-01-13 02:16:07.42	12.95	4.34	
2025-01-13 02:16:07.63	12.94	4.35	
2025-01-13 02:16:07.83	12.93	4.37	
2025-01-13 02:16:08.04	12.92	4.38	
2025-01-13 02:16:08.24	12.91	4.40	
2025-01-13 02:16:08.45	12.90	4.41	
2025-01-13 02:16:08.66	12.89	4.42	
2025-01-13 02:16:08.86	12.88	4.44	
2025-01-13 02:16:09.07	12.87	4.45	
2025-01-13 02:16:09.27	12.86	4.47	
2025-01-13 02:16:09.48	12.85	4.48	
2025-01-13 02:16:09.68	12.85	4.50	
2025-01-13 02:16:09.89	12.84	4.51	
2025-01-13 02:16:10.09	12.83	4.52	
2025-01-13 02:16:10.30	12.82	4.54	
2025-01-13 02:16:10.50	12.81	4.55	
2025-01-13 02:16:10.71	12.80	4.57	
2025-01-13 02:16:10.91	12.79	4.58	
2025-01-13 02:16:11.12	12.78	4.60	
2025-01-13 02:16:11.32	12.77	4.61	
2025-01-13 02:16:11.52	12.76	4.62	
2025-01-13 02:16:11.73	12.75	4.64	
2025-01-13 02:16:11.93	12.74	4.65	
2025-01-13 02:16:12.14	12.73	4.67	
2025-01-13 02:16:12.34	12.72	4.68	
2025-01-13 02:16:12.55	12.71	4.70	
2025-01-13 02:16:12.75	12.70	4.71	
2025-01-13 02:16:12.96	12.69	4.73	
2025-01-13 02:16:13.17	12.68	4.74	
2025-01-13 02:16:13.37	12.67	4.75	
2025-01-13 02:16:13.58	12.66	4.77	
2025-01-13 02:16:13.78	12.65	4.78	
2025-01-13 02:16:13.99	12.64	4.80	
2025-01-13 02:16:14.20	12.63	4.81	
2025-01-13 02:16:14.40	12.62	4.83	
2025-01-13 02:16:14.61	12.61	4.84	
2025-01-13 02:16:14.81	12.60	4.86	
2025-01-13 02:16:15.02	12.59	4.87	
2025-01-13 02:16:15.22	12.58	4.89	
2025-01-13 02:16:15.44	12.57	4.90	
2025-01-13 02:16:15.64	12.56	4.92	
2025-01-13 02:16:15.85	12.55	4.93	
2025-01-13 02:16:16.06	12.54	4.95	
2025-01-13 02:16:16.26	12.53	4.96	
2025-01-13 02:16:16.47	12.52	4.97	
2025-01-13 02:16:16.67	12.51	4.99	
2025-01-13 02:16:16.88	12.50	5.00	
2025-01-13 02:16:17.08	12.49	5.02	
2025-01-13 02:16:17.29	12.48	5.03	
2025-01-13 02:16:17.49	12.47	5.05	
2025-01-13 02:16:17.70	12.46	5.06	
2025-01-13 02:16:17.91	12.45	5.08	
2025-01-13 02:16:18.11	12.44	5.09	
2025-01-13 02:16:18.32	12.43	5.11	
2025-01-13 02:16:18.52	12.42	5.12	
2025-01-13 02:16:18.73	12.40	5.14	
2025-01-13 02:16:18.94	12.39	5.15	
2025-01-13 02:16:19.14	12.38	5.17	
2025-01-13 02:16:19.35	12.37	5.18	
2025-01-13 02:16:19.55	12.36	5.19	
2025-01-13 02:16:19.75	12.35	5.21	
2025-01-13 02:16:19.96	12.34	5.22	
2025-01-13 02:16:20.16	12.33	5.24	
2025-01-13 02:16:20.37	12.32	5.25	
2025-01-13 02:16:20.57	12.31	5.27	
2025-01-13 02:16:20.78	12.30	5.28	
2025-01-13 02:16:20.98	12.29	5.30	
2025-01-13 02:16:21.19	12.28	5.31	
2025-01-13 02:16:21.40	12.27	5.33	
2025-01-13 02:16:21.60	12.26	5.34	
2025-01-13 02:16:21.80	12.25	5.36	
2025-01-13 02:16:22.01	12.24	5.37	
2025-01-13 02:16:22.22	12.23	5.39	
2025-01-13 02:16:22.42	12.22	5.40	
2025-01-13 02:16:22.63	12.21	5.42	
2025-01-13 02:16:22.83	12.20	5.43	
2025-01-13 02:16:23.04	12.19	5.45	
2025-01-13 02:16:23.24	12.18	5.46	
2025-01-13 02:16:23.45	12.17	5.48	
2025-01-13 02:16:23.65	12.16	5.49	
2025-01-13 02:16:23.86	12.14	5.51	
2025-01-13 02:16:24.06	12.13	5.52	
2025-01-13 02:16:24.27	12.12	5.54	
2025-01-13 02:16:24.47	12.11	5.55	
2025-01-13 02:16:24.68	12.10	5.57	
2025-01-13 02:16:24.88	12.09	5.58	
2025-01-13 02:16:25.09	12.08	5.60	
2025-01-13 02:16:25.29	12.07	5.61	
2025-01-13 02:16:25.50	12.06	5.62	
2025-01-13 02:16:25.70	12.05	5.64	
2025-01-13 02:16:25.91	12.04	5.65	
2025-01-13 02:16:26.11	12.03	5.67	
2025-01-13 02:16:26.32	12.02	5.68	
2025-01-13 02:16:26.52	12.01	5.70	
2025-01-13 02:16:26.73	12.00	5.71	
2025-01-13 02:16:26.94	11.98	5.73	
2025-01-13 02:16:27.14	11.97	5.74	
2025-01-13 02:16:27.35	11.96	5.76	
2025-01-13 02:16:27.55	11.95	5.77	
2025-01-13 02:16:27.76	11.94	5.79	
2025-01-13 02:16:27.96	11.93	5.80	
2025-01-13 02:16:28.17	11.92	5.82	
2025-01-13 02:16:28.37	11.91	5.84	
2025-01-13 02:16:28.58	11.90	5.85	
2025-01-13 02:16:28.78	11.89	5.87	
2025-01-13 02:16:28.99	11.88	5.88	
2025-01-13 02:16:29.19	11.87	5.90	
2025-01-13 02:16:29.40	11.85	5.91	
2025-01-13 02:16:29.60	11.84	5.93	
2025-01-13 02:16:29.81	11.83	5.94	
2025-01-13 02:16:30.01	11.82	5.96	
2025-01-13 02:16:30.23	11.81	5.97	
2025-01-13 02:16:30.45	11.80	5.99	
2025-01-13 02:16:30.65	11.79	6.00	
2025-01-13 02:16:30.86	11.78	6.02	
2025-01-13 02:16:31.07	11.77	6.03	
2025-01-13 02:16:31.27	11.75	6.05	
2025-01-13 02:16:31.47	11.74	6.06	
2025-01-13 02:16:31.68	11.73	6.08	
2025-01-13 02:16:31.89	11.72	6.10	
2025-01-13 02:16:32.09	11.71	6.11	
2025-01-13 02:16:32.29	11.70	6.12	
2025-01-13 02:16:32.50	11.69	6.14	
2025-01-13 02:16:32.70	11.68	6.16	
2025-01-13 02:16:32.91	11.67	6.17	
2025-01-13 02:16:33.11	11.65	6.19	
2025-01-13 02:16:33.32	11.64	6.20	
2025-01-13 02:16:33.52	11.63	6.22	
2025-01-13 02:16:33.73	11.62	6.23	
2025-01-13 02:16:33.93	11.61	6.25	
2025-01-13 02:16:34.14	11.60	6.26	
2025-01-13 02:16:34.34	11.59	6.28	
2025-01-13 02:16:34.55	11.58	6.29	
2025-01-13 02:16:34.75	11.57	6.31	
2025-01-13 02:16:34.96	11.55	6.32	
2025-01-13 02:16:35.16	11.54	6.34	
2025-01-13 02:16:35.37	11.53	6.35	
2025-01-13 02:16:35.57	11.52	6.37	
2025-01-13 02:16:35.78	11.51	6.39	
2025-01-13 02:16:35.98	11.50	6.40	
2025-01-13 02:16:36.19	11.49	6.42	
2025-01-13 02:16:36.39	11.47	6.43	
2025-01-13 02:16:36.60	11.46	6.45	
2025-01-13 02:16:36.82	11.45	6.46	
2025-01-13 02:16:37.02	11.44	6.48	
2025-01-13 02:16:37.23	11.43	6.49	
2025-01-13 02:16:37.44	11.42	6.51	
2025-01-13 02:16:37.64	11.41	6.53	
2025-01-13 02:16:37.85	11.39	6.54	
2025-01-13 02:16:38.05	11.38	6.56	
2025-01-13 02:16:38.26	11.37	6.57	
2025-01-13 02:16:38.46	11.36	6.59	
2025-01-13 02:16:38.67	11.35	6.60	
2025-01-13 02:16:38.87	11.34	6.62	
2025-01-13 02:16:39.08	11.32	6.63	
2025-01-13 02:16:39.28	11.31	6.65	
2025-01-13 02:16:39.49	11.30	6.67	
2025-01-13 02:16:39.69	11.29	6.68	
2025-01-13 02:16:39.90	11.28	6.70	
2025-01-13 02:16:40.10	11.27	6.71	
2025-01-13 02:16:40.31	11.25	6.73	
2025-01-13 02:16:40.51	11.24	6.74	
2025-01-13 02:16:40.72	11.23	6.76	
2025-01-13 02:16:40.92	11.22	6.77	
2025-01-13 02:16:41.14	11.21	6.79	
2025-01-13 02:16:41.35	11.20	6.81	
2025-01-13 02:16:41.55	11.18	6.82	
2025-01-13 02:16:41.76	11.17	6.84	
2025-01-13 02:16:41.96	11.16	6.85	
2025-01-13 02:16:42.18	11.15	6.87	
2025-01-13 02:16:42.39	11.14	6.89	
2025-01-13 02:16:42.59	11.12	6.90	
2025-01-13 02:16:42.80	11.11	6.92	
2025-01-13 02:16:43.01	11.10	6.93	
2025-01-13 02:16:43.21	11.09	6.95	
2025-01-13 02:16:43.42	11.08	6.97	
2025-01-13 02:16:43.62	11.06	6.98	
2025-01-13 02:16:43.83	11.05	7.00	
2025-01-13 02:16:44.03	11.04	7.01	
2025-01-13 02:16:44.25	11.03	7.03	
2025-01-13 02:16:44.45	11.02	7.04	
2025-01-13 02:16:44.66	11.00	7.06	
2025-01-13 02:16:44.87	10.99	7.08	
2025-01-13 02:16:45.07	10.98	7.09	
2025-01-13 02:16:45.28	10.97	7.11	
2025-01-13 02:16:45.48	10.96	7.12	
2025-01-13 02:16:45.68	10.94	7.14	
2025-01-13 02:16:45.89	10.93	7.16	
2025-01-13 02:16:46.10	10.92	7.17	
2025-01-13 02:16:46.30	10.91	7.19	
2025-01-13 02:16:46.50	10.90	7.20	
2025-01-13 02:16:46.71	10.88	7.22	
2025-01-13 02:16:46.91	10.87	7.24	
2025-01-13 02:16:47.12	10.86	7.25	
2025-01-13 02:16:47.32	10.85	7.27	
2025-01-13 02:16:47.53	10.84	7.28	
2025-01-13 02:16:47.74	10.82	7.30	
2025-01-13 02:16:47.94	10.81	7.32	
2025-01-13 02:16:48.15	10.80	7.33	
2025-01-13 02:16:48.35	10.79	7.35	
2025-01-13 02:16:48.57	10.77	7.36	
2025-01-13 02:16:48.77	10.76	7.38	
2025-01-13 02:16:48.98	10.75	7.40	
2025-01-13 02:16:49.19	10.74	7.41	
2025-01-13 02:16:49.39	10.72	7.43	
2025-01-13 02:16:49.60	10.71	7.44	
2025-01-13 02:16:49.80	10.70	7.46	
2025-01-13 02:16:50.01	10.69	7.48	
2025-01-13 02:16:50.21	10.68	7.49	
2025-01-13 02:16:50.42	10.66	7.51	
2025-01-13 02:16:50.64	10.65	7.53	
2025-01-13 02:16:50.84	10.64	7.54	
2025-01-13 02:16:51.05	10.62	7.56	
2025-01-13 02:16:51.25	10.61	7.57	
2025-01-13 02:16:51.46	10.60	7.59	
2025-01-13 02:16:51.66	10.59	7.61	
2025-01-13 02:16:51.87	10.57	7.62	
2025-01-13 02:16:52.07	10.56	7.64	
2025-01-13 02:16:52.28	10.55	7.66	
2025-01-13 02:16:52.48	10.54	7.67	
2025-01-13 02:16:52.69	10.52	7.69	
2025-01-13 02:16:52.89	10.51	7.70	
2025-01-13 02:16:53.10	10.50	7.72	
2025-01-13 02:16:53.30	10.49	7.74	
2025-01-13 02:16:53.51	10.47	7.75	
2025-01-13 02:16:53.72	10.46	7.77	
2025-01-13 02:16:53.94	10.45	7.79	
2025-01-13 02:16:54.14	10.43	7.80	
2025-01-13 02:16:54.35	10.42	7.82	
2025-01-13 02:16:54.55	10.41	7.83	
2025-01-13 02:16:54.76	10.40	7.85	
2025-01-13 02:16:54.96	10.38	7.87	
2025-01-13 02:16:55.17	10.37	7.88	
2025-01-13 02:16:55.37	10.36	7.90	
2025-01-13 02:16:55.58	10.35	7.92	
2025-01-13 02:16:55.79	10.33	7.93	
2025-01-13 02:16:55.99	10.32	7.95	
2025-01-13 02:16:56.20	10.31	7.97	
2025-01-13 02:16:56.40	10.29	7.98	
2025-01-13 02:16:56.61	10.28	8.00	
2025-01-13 02:16:56.82	10.27	8.02	
2025-01-13 02:16:57.03	10.25	8.03	
2025-01-13 02:16:57.24	10.24	8.05	
2025-01-13 02:16:57.44	10.23	8.07	
2025-01-13 02:16:57.65	10.22	8.08	
2025-01-13 02:16:57.85	10.20	8.10	
2025-01-13 02:16:58.06	10.19	8.11	
2025-01-13 02:16:58.26	10.18	8.13	
2025-01-13 02:16:58.47	10.16	8.15	
2025-01-13 02:16:58.67	10.15	8.16	
2025-01-13 02:16:58.88	10.14	8.18	
2025-01-13 02:16:59.09	10.12	8.20	
2025-01-13 02:16:59.29	10.11	8.21	
2025-01-13 02:16:59.50	10.10	8.23	
2025-01-13 02:16:59.70	10.08	8.25	
2025-01-13 02:16:59.91	10.07	8.26	
2025-01-13 02:17:00.11	10.06	8.28	
2025-01-13 02:17:00.31	10.05	8.30	
2025-01-13 02:17:00.52	10.03	8.31	
2025-01-13 02:17:00.73	10.02	8.33	
2025-01-13 02:17:00.93	10.01	8.35	
2025-01-13 02:17:01.14	9.99	8.36	
2025-01-13 02:17:01.34	9.98	8.38	
2025-01-13 02:17:01.55	9.97	8.40	
2025-01-13 02:17:01.75	9.95	8.41	
2025-01-13 02:17:01.96	9.94	8.43	
2025-01-13 02:17:02.16	9.93	8.45	
2025-01-13 02:17:02.36	9.91	8.46	
2025-01-13 02:17:02.57	9.90	8.48	
2025-01-13 02:17:02.77	9.89	8.50	
2025-01-13 02:17:02.98	9.87	8.51	
2025-01-13 02:17:03.19	9.86	8.53	
2025-01-13 02:17:03.39	9.85	8.55	
2025-01-13 02:17:03.59	9.83	8.56	
2025-01-13 02:17:03.80	9.82	8.58	
2025-01-13 02:17:04.01	9.80	8.60	
2025-01-13 02:17:04.21	9.79	8.61	
2025-01-13 02:17:04.42	9.78	8.63	
2025-01-13 02:17:04.62	9.76	8.65	
2025-01-13 02:17:04.83	9.75	8.66	
2025-01-13 02:17:05.03	9.74	8.68	
2025-01-13 02:17:05.24	9.72	8.70	
2025-01-13 02:17:05.44	9.71	8.71	
2025-01-13 02:17:05.65	9.70	8.73	
2025-01-13 02:17:05.85	9.68	8.75	
2025-01-13 02:17:06.06	9.67	8.77	
2025-01-13 02:17:06.27	9.66	8.78	
2025-01-13 02:17:06.47	9.64	8.80	
2025-01-13 02:17:06.68	9.63	8.82	
2025-01-13 02:17:06.88	9.61	8.83	
2025-01-13 02:17:07.09	9.60	8.85	
2025-01-13 02:17:07.29	9.59	8.87	
2025-01-13 02:17:07.50	9.57	8.88	
2025-01-13 02:17:07.72	9.56	8.90	
2025-01-13 02:17:07.92	9.54	8.92	
2025-01-13 02:17:08.13	9.53	8.94	
2025-01-13 02:17:08.33	9.52	8.95	
2025-01-13 02:17:08.54	9.50	8.97	
2025-01-13 02:17:08.74	9.49	8.99	
2025-01-13 02:17:08.95	9.47	9.00	
2025-01-13 02:17:09.16	9.46	9.02	
2025-01-13 02:17:09.36	9.45	9.04	
2025-01-13 02:17:09.57	9.43	9.06	
2025-01-13 02:17:09.77	9.42	9.07	
2025-01-13 02:17:09.99	9.40	9.09	
2025-01-13 02:17:10.20	9.39	9.11	
2025-01-13 02:17:10.40	9.38	9.13	
2025-01-13 02:17:10.61	9.36	9.14	
2025-01-13 02:17:10.82	9.35	9.16	
2025-01-13 02:17:11.02	9.33	9.18	
2025-01-13 02:17:11.23	9.32	9.19	
2025-01-13 02:17:11.43	9.30	9.21	
2025-01-13 02:17:11.64	9.29	9.23	
2025-01-13 02:17:11.85	9.28	9.25	
2025-01-13 02:17:12.05	9.26	9.26	
2025-01-13 02:17:12.26	9.25	9.28	
2025-01-13 02:17:12.46	9.23	9.30	
2025-01-13 02:17:12.67	9.22	9.32	
2025-01-13 02:17:12.88	9.20	9.33	
2025-01-13 02:17:13.08	9.19	9.35	
2025-01-13 02:17:13.28	9.18	9.37	
2025-01-13 02:17:13.49	9.16	9.38	
2025-01-13 02:17:13.70	9.15	9.40	
2025-01-13 02:17:13.90	9.13	9.42	
2025-01-13 02:17:14.10	9.12	9.44	
2025-01-13 02:17:14.31	9.10	9.45	
2025-01-13 02:17:14.52	9.09	9.47	
2025-01-13 02:17:14.72	9.07	9.49	
2025-01-13 02:17:14.93	9.06	9.51	
2025-01-13 02:17:15.13	9.05	9.52	
2025-01-13 02:17:15.34	9.03	9.54	
2025-01-13 02:17:15.54	9.02	9.56	
2025-01-13 02:17:15.75	9.00	9.58	
2025-01-13 02:17:15.96	8.99	9.59	
2025-01-13 02:17:16.16	8.97	9.61	
2025-01-13 02:17:16.36	8.96	9.63	
2025-01-13 02:17:16.57	8.94	9.65	
2025-01-13 02:17:16.78	8.93	9.66	
2025-01-13 02:17:16.98	8.91	9.68	
2025-01-13 02:17:17.19	8.90	9.70	
2025-01-13 02:17:17.39	8.88	9.72	
2025-01-13 02:17:17.60	8.87	9.73	
2025-01-13 02:17:17.80	8.85	9.75	
2025-01-13 02:17:18.01	8.84	9.77	
2025-01-13 02:17:18.21	8.83	9.79	
2025-01-13 02:17:18.42	8.81	9.80	
2025-01-13 02:17:18.62	8.80	9.82	
2025-01-13 02:17:18.83	8.78	9.84	
2025-01-13 02:17:19.03	8.77	9.86	
2025-01-13 02:17:19.24	8.75	9.87	
2025-01-13 02:17:19.44	8.74	9.89	
2025-01-13 02:17:19.65	8.72	9.91	
2025-01-13 02:17:19.85	8.71	9.93	
2025-01-13 02:17:20.06	8.69	9.94	
2025-01-13 02:17:20.26	8.68	9.96	
2025-01-13 02:17:20.47	8.66	9.98	
2025-01-13 02:17:20.67	8.65	10.00	
2025-01-13 02:17:20.88	8.63	10.02	
2025-01-13 02:17:21.08	8.62	10.03	
2025-01-13 02:17:21.29	8.60	10.05	
2025-01-13 02:17:21.50	8.58	10.07	
2025-01-13 02:17:21.71	8.57	10.09	
2025-01-13 02:17:21.92	8.55	10.11	
2025-01-13 02:17:22.12	8.54	10.12	
2025-01-13 02:17:22.33	8.52	10.14	
2025-01-13 02:17:22.53	8.51	10.16	
2025-01-13 02:17:22.74	8.49	10.18	
2025-01-13 02:17:22.94	8.48	10.19	
2025-01-13 02:17:23.15	8.46	10.21	
2025-01-13 02:17:23.35	8.45	10.23	
2025-01-13 02:17:23.56	8.43	10.25	
2025-01-13 02:17:23.76	8.42	10.27	
2025-01-13 02:17:23.96	8.40	10.28	
2025-01-13 02:17:24.17	8.39	10.30	
2025-01-13 02:17:24.38	8.37	10.32	
2025-01-13 02:17:24.58	8.35	10.34	
2025-01-13 02:17:24.79	8.34	10.36	
2025-01-13 02:17:24.99	8.32	10.37	
2025-01-13 02:17:25.20	8.31	10.39	
2025-01-13 02:17:25.40	8.29	10.41	
2025-01-13 02:17:25.61	8.28	10.43	
2025-01-13 02:17:25.82	8.26	10.45	
2025-01-13 02:17:26.02	8.25	10.46	
2025-01-13 02:17:26.23	8.23	10.48	
2025-01-13 02:17:26.43	8.21	10.50	
2025-01-13 02:17:26.64	8.20	10.52	
2025-01-13 02:17:26.84	8.18	10.54	
2025-01-13 02:17:27.04	8.17	10.55	
2025-01-13 02:17:27.25	8.15	10.57	
2025-01-13 02:17:27.46	8.14	10.59	
2025-01-13 02:17:27.66	8.12	10.61	
2025-01-13 02:17:27.87	8.10	10.63	
2025-01-13 02:17:28.07	8.09	10.64	
2025-01-13 02:17:28.28	8.07	10.66	
2025-01-13 02:17:28.48	8.06	10.68	
2025-01-13 02:17:28.69	8.04	10.70	
2025-01-13 02:17:28.89	8.02	10.72	
2025-01-13 02:17:29.09	8.01	10.73	
2025-01-13 02:17:29.30	7.99	10.75	
2025-01-13 02:17:29.50	7.98	10.77	
2025-01-13 02:17:29.71	7.96	10.79	
2025-01-13 02:17:29.92	7.94	10.81	
2025-01-13 02:17:30.12	7.93	10.83	
2025-01-13 02:17:30.33	7.91	10.85	
2025-01-13 02:17:30.53	7.90	10.86	
2025-01-13 02:17:30.74	7.88	10.88	
2025-01-13 02:17:30.94	7.86	10.90	
2025-01-13 02:17:31.15	7.85	10.92	
2025-01-13 02:17:31.35	7.83	10.94	
2025-01-13 02:17:31.56	7.82	10.96	
2025-01-13 02:17:31.76	7.80	10.97	
2025-01-13 02:17:31.97	7.78	10.99	
2025-01-13 02:17:32.18	7.77	11.01	
2025-01-13 02:17:32.38	7.75	11.03	
2025-01-13 02:17:32.58	7.73	11.05	
2025-01-13 02:17:32.79	7.72	11.07	
2025-01-13 02:17:33.00	7.70	11.08	
2025-01-13 02:17:33.20	7.69	11.10	
2025-01-13 02:17:33.41	7.67	11.12	
2025-01-13 02:17:33.61	7.65	11.14	
2025-01-13 02:17:33.82	7.64	11.16	
2025-01-13 02:17:34.03	7.62	11.18	
2025-01-13 02:17:34.23	7.60	11.20	
2025-01-13 02:17:34.43	7.59	11.21	
2025-01-13 02:17:34.64	7.57	11.23	
2025-01-13 02:17:34.84	7.55	11.25	
2025-01-13 02:17:35.05	7.54	11.27	
2025-01-13 02:17:35.26	7.52	11.29	
2025-01-13 02:17:35.47	7.50	11.31	
2025-01-13 02:17:35.67	7.49	11.33	
2025-01-13 02:17:35.88	7.47	11.35	
2025-01-13 02:17:36.08	7.45	11.36	
2025-01-13 02:17:36.29	7.44	11.38	
2025-01-13 02:17:36.49	7.42	11.40	
2025-01-13 02:17:36.70	7.40	11.42	
2025-01-13 02:17:36.90	7.39	11.44	
2025-01-13 02:17:37.11	7.37	11.46	
2025-01-13 02:17:37.31	7.35	11.48	
2025-01-13 02:17:37.52	7.33	11.50	
2025-01-13 02:17:37.72	7.32	11.51	
2025-01-13 02:17:37.93	7.30	11.53	
2025-01-13 02:17:38.13	7.28	11.55	
2025-01-13 02:17:38.34	7.27	11.57	
2025-01-13 02:17:38.54	7.25	11.59	
2025-01-13 02:17:38.74	7.23	11.61	
2025-01-13 02:17:38.95	7.22	11.63	
2025-01-13 02:17:39.16	7.20	11.65	
2025-01-13 02:17:39.36	7.18	11.66	
2025-01-13 02:17:39.57	7.16	11.68	
2025-01-13 02:17:39.77	7.15	11.70	
2025-01-13 02:17:39.98	7.13	11.72	
2025-01-13 02:17:40.18	7.11	11.74	
2025-01-13 02:17:40.39	7.10	11.76	
2025-01-13 02:17:40.60	7.08	11.78	
2025-01-13 02:17:40.80	7.06	11.80	
2025-01-13 02:17:41.01	7.04	11.82	
2025-01-13 02:17:41.21	7.03	11.84	
2025-01-13 02:17:41.42	7.01	11.85	
2025-01-13 02:17:41.62	6.99	11.87	
2025-01-13 02:17:41.83	6.97	11.89	
2025-01-13 02:17:42.03	6.96	11.91	
2025-01-13 02:17:42.24	6.94	11.93	
2025-01-13 02:17:42.44	6.92	11.95	
2025-01-13 02:17:42.65	6.90	11.97	
2025-01-13 02:17:42.86	6.89	11.99	
2025-01-13 02:17:43.06	6.87	12.01	
2025-01-13 02:17:43.27	6.85	12.03	
2025-01-13 02:17:43.47	6.83	12.05	
2025-01-13 02:17:43.68	6.81	12.07	
2025-01-13 02:17:43.88	6.80	12.08	
2025-01-13 02:17:44.09	6.78	12.10	
2025-01-13 02:17:44.29	6.76	12.12	
2025-01-13 02:17:44.50	6.74	12.14	
2025-01-13 02:17:44.70	6.73	12.16	
2025-01-13 02:17:44.91	6.71	12.18	
2025-01-13 02:17:45.11	6.69	12.20	
2025-01-13 02:17:45.32	6.67	12.22	
2025-01-13 02:17:45.53	6.65	12.24	
2025-01-13 02:17:45.73	6.64	12.26	
2025-01-13 02:17:45.94	6.62	12.28	
2025-01-13 02:17:46.15	6.60	12.30	
2025-01-13 02:17:46.35	6.58	12.32	
2025-01-13 02:17:46.56	6.56	12.34	
2025-01-13 02:17:46.76	6.55	12.35	
2025-01-13 02:17:46.97	6.53	12.37	
2025-01-13 02:17:47.17	6.51	12.39	
2025-01-13 02:17:47.38	6.49	12.41	
2025-01-13 02:17:47.58	6.47	12.43	
2025-01-13 02:17:47.79	6.46	12.45	
2025-01-13 02:17:47.99	6.44	12.47	
2025-01-13 02:17:48.20	6.42	12.49	
2025-01-13 02:17:48.40	6.40	12.51	
2025-01-13 02:17:48.61	6.38	12.53	
2025-01-13 02:17:48.82	6.36	12.55	
2025-01-13 02:17:49.02	6.35	12.57	
2025-01-13 02:17:49.23	6.33	12.59	
2025-01-13 02:17:49.43	6.31	12.61	
2025-01-13 02:17:49.63	6.29	12.63	
2025-01-13 02:17:49.84	6.27	12.65	
2025-01-13 02:17:50.05	6.25	12.67	
2025-01-13 02:17:50.25	6.24	12.69	
2025-01-13 02:17:50.45	6.22	12.71	
2025-01-13 02:17:50.66	6.20	12.73	
2025-01-13 02:17:50.87	6.18	12.75	
2025-01-13 02:17:51.07	6.16	12.77	
2025-01-13 02:17:51.28	6.14	12.79	
2025-01-13 02:17:51.48	6.12	12.81	
2025-01-13 02:17:51.68	6.11	12.82	
2025-01-13 02:17:51.89	6.09	12.84	
2025-01-13 02:17:52.10	6.07	12.86	
2025-01-13 02:17:52.30	6.05	12.88	
2025-01-13 02:17:52.51	6.03	12.90	
2025-01-13 02:17:52.72	6.01	12.92	
2025-01-13 02:17:52.93	5.99	12.95	
2025-01-13 02:17:53.14	5.97	12.97	
2025-01-13 02:17:53.34	5.95	12.98	
2025-01-13 02:17:53.54	5.93	13.00	
2025-01-13 02:17:53.76	5.91	13.03	
2025-01-13 02:17:53.97	5.89	13.05	
2025-01-13 02:17:54.17	5.88	13.07	
2025-01-13 02:17:54.38	5.86	13.09	
2025-01-13 02:17:54.58	5.84	13.11	
2025-01-13 02:17:54.78	5.82	13.12	
2025-01-13 02:17:54.99	5.80	13.15	
2025-01-13 02:17:55.20	5.78	13.17	
2025-01-13 02:17:55.40	5.76	13.19	
2025-01-13 02:17:55.61	5.74	13.21	
2025-01-13 02:17:55.81	5.72	13.23	
2025-01-13 02:17:56.01	5.70	13.24	
2025-01-13 02:17:56.22	5.68	13.27	
2025-01-13 02:17:56.43	5.66	13.29	
2025-01-13 02:17:56.63	5.65	13.31	
2025-01-13 02:17:56.84	5.63	13.33	
2025-01-13 02:17:57.04	5.61	13.35	
2025-01-13 02:17:57.25	5.59	13.37	
2025-01-13 02:17:57.45	5.57	13.39	
2025-01-13 02:17:57.66	5.55	13.41	
2025-01-13 02:17:57.87	5.53	13.43	
2025-01-13 02:17:58.07	5.51	13.45	
2025-01-13 02:17:58.28	5.49	13.47	
2025-01-13 02:17:58.48	5.47	13.49	
2025-01-13 02:17:58.69	5.45	13.51	
2025-01-13 02:17:58.89	5.43	13.53	
2025-01-13 02:17:59.10	5.41	13.55	
2025-01-13 02:17:59.30	5.39	13.57	
2025-01-13 02:17:59.51	5.37	13.59	
2025-01-13 02:17:59.71	5.35	13.61	
2025-01-13 02:17:59.92	5.33	13.63	
2025-01-13 02:18:00.12	5.31	13.65	
2025-01-13 02:18:00.33	5.29	13.67	
2025-01-13 02:18:00.54	5.27	13.69	
2025-01-13 02:18:00.74	5.25	13.71	
2025-01-13 02:18:00.95	5.23	13.73	
2025-01-13 02:18:01.15	5.21	13.75	
2025-01-13 02:18:01.35	5.19	13.77	
2025-01-13 02:18:01.56	5.17	13.79	
2025-01-13 02:18:01.77	5.15	13.81	
2025-01-13 02:18:01.97	5.13	13.83	
2025-01-13 02:18:02.18	5.11	13.86	
2025-01-13 02:18:02.38	5.09	13.88	
2025-01-13 02:18:02.59	5.07	13.90	
2025-01-13 02:18:02.79	5.05	13.92	
2025-01-13 02:18:03.00	5.03	13.94	
2025-01-13 02:18:03.20	5.01	13.96	
2025-01-13 02:18:03.41	4.99	13.98	
2025-01-13 02:18:03.61	4.97	14.00	
2025-01-13 02:18:03.82	4.95	14.02	
2025-01-13 02:18:04.03	4.93	14.04	
2025-01-13 02:18:04.23	4.91	14.06	
2025-01-13 02:18:04.44	4.88	14.08	
2025-01-13 02:18:04.64	4.86	14.10	
2025-01-13 02:18:04.85	4.84	14.12	
2025-01-13 02:18:05.05	4.82	14.14	
2025-01-13 02:18:05.26	4.80	14.17	
2025-01-13 02:18:05.46	4.78	14.19	
2025-01-13 02:18:05.67	4.76	14.21	
2025-01-13 02:18:05.87	4.74	14.23	
2025-01-13 02:18:06.08	4.72	14.25	
2025-01-13 02:18:06.28	4.70	14.27	
2025-01-13 02:18:06.49	4.68	14.29	
2025-01-13 02:18:06.70	4.66	14.31	
2025-01-13 02:18:06.90	4.64	14.33	
2025-01-13 02:18:07.11	4.61	14.35	
2025-01-13 02:18:07.31	4.59	14.37	
2025-01-13 02:18:07.52	4.57	14.40	
2025-01-13 02:18:07.72	4.55	14.42	
2025-01-13 02:18:07.92	4.53	14.44	
2025-01-13 02:18:08.13	4.51	14.46	
2025-01-13 02:18:08.33	4.49	14.48	
2025-01-13 02:18:08.54	4.47	14.50	
2025-01-13 02:18:08.75	4.45	14.52	
2025-01-13 02:18:08.95	4.42	14.54	
2025-01-13 02:18:09.16	4.40	14.56	
2025-01-13 02:18:09.36	4.38	14.58	
2025-01-13 02:18:09.57	4.36	14.61	
2025-01-13 02:18:09.79	4.34	14.63	
2025-01-13 02:18:09.99	4.32	14.65	
2025-01-13 02:18:10.20	4.29	14.67	
2025-01-13 02:18:10.40	4.27	14.69	
2025-01-13 02:18:10.61	4.25	14.71	
2025-01-13 02:18:10.81	4.23	14.73	
2025-01-13 02:18:11.02	4.21	14.75	
2025-01-13 02:18:11.22	4.19	14.78	
2025-01-13 02:18:11.43	4.16	14.80	
2025-01-13 02:18:11.64	4.14	14.82	
2025-01-13 02:18:11.84	4.12	14.84	
2025-01-13 02:18:12.04	4.10	14.86	
2025-01-13 02:18:12.25	4.08	14.88	
2025-01-13 02:18:12.46	4.06	14.90	
2025-01-13 02:18:12.66	4.03	14.93	
2025-01-13 02:18:12.86	4.01	14.95	
2025-01-13 02:18:13.07	3.99	14.97	
2025-01-13 02:18:13.27	3.97	14.99	
2025-01-13 02:18:13.48	3.95	15.01	
2025-01-13 02:18:13.69	3.92	15.03	
2025-01-13 02:18:13.89	3.90	15.05	
2025-01-13 02:18:14.11	3.88	15.08	
2025-01-13 02:18:14.32	3.86	15.10	
2025-01-13 02:18:14.52	3.83	15.12	
2025-01-13 02:18:14.73	3.81	15.14	
2025-01-13 02:18:14.93	3.79	15.16	
2025-01-13 02:18:15.14	3.77	15.18	
2025-01-13 02:18:15.35	3.74	15.21	
2025-01-13 02:18:15.55	3.72	15.23	
2025-01-13 02:18:15.75	3.70	15.25	
2025-01-13 02:18:15.96	3.68	15.27	
2025-01-13 02:18:16.16	3.66	15.29	
2025-01-13 02:18:16.37	3.63	15.31	
2025-01-13 02:18:16.57	3.61	15.34	
2025-01-13 02:18:16.78	3.59	15.36	
2025-01-13 02:18:16.99	3.56	15.38	
2025-01-13 02:18:17.19	3.54	15.40	
2025-01-13 02:18:17.40	3.52	15.42	
2025-01-13 02:18:17.60	3.50	15.44	
2025-01-13 02:18:17.81	3.47	15.47	
2025-01-13 02:18:18.01	3.45	15.49	
2025-01-13 02:18:18.22	3.43	15.51	
2025-01-13 02:18:18.42	3.41	15.53	
2025-01-13 02:18:18.63	3.38	15.55	
2025-01-13 02:18:18.83	3.36	15.58	
2025-01-13 02:18:19.04	3.34	15.60	
2025-01-13 02:18:19.24	3.31	15.62	
2025-01-13 02:18:19.45	3.29	15.64	
2025-01-13 02:18:19.65	3.27	15.66	
2025-01-13 02:18:19.86	3.24	15.69	
2025-01-13 02:18:20.07	3.22	15.71	
2025-01-13 02:18:20.27	3.20	15.73	
2025-01-13 02:18:20.49	3.17	15.75	
2025-01-13 02:18:20.69	3.15	15.77	
2025-01-13 02:18:20.90	3.13	15.80	
2025-01-13 02:18:21.10	3.10	15.82	
2025-01-13 02:18:21.31	3.08	15.84	
2025-01-13 02:18:21.51	3.06	15.86	
2025-01-13 02:18:21.72	3.03	15.88	
2025-01-13 02:18:21.92	3.01	15.91	
2025-01-13 02:18:22.13	2.98	15.93	
2025-01-13 02:18:22.34	2.96	15.95	
2025-01-13 02:18:22.54	2.94	15.97	
2025-01-13 02:18:22.75	2.91	16.00	
2025-01-13 02:18:22.95	2.89	16.02	
2025-01-13 02:18:23.16	2.87	16.04	
2025-01-13 02:18:23.36	2.84	16.06	
2025-01-13 02:18:23.56	2.82	16.08	
2025-01-13 02:18:23.77	2.80	16.11	
2025-01-13 02:18:23.97	2.77	16.13	
2025-01-13 02:18:24.18	2.75	16.15	
2025-01-13 02:18:24.38	2.72	16.17	
2025-01-13 02:18:24.59	2.70	16.20	
2025-01-13 02:18:24.79	2.68	16.22	
2025-01-13 02:18:25.00	2.65	16.24	
2025-01-13 02:18:25.20	2.63	16.26	
2025-01-13 02:18:25.41	2.60	16.29	
2025-01-13 02:18:25.61	2.58	16.31	
2025-01-13 02:18:25.82	2.55	16.33	
2025-01-13 02:18:26.02	2.53	16.35	
2025-01-13 02:18:26.23	2.51	16.37	
2025-01-13 02:18:26.43	2.48	16.40	
2025-01-13 02:18:26.64	2.46	16.42	
2025-01-13 02:18:26.84	2.43	16.44	
2025-01-13 02:18:27.05	2.41	16.47	
2025-01-13 02:18:27.25	2.38	16.49	
2025-01-13 02:18:27.46	2.36	16.51	
2025-01-13 02:18:27.66	2.33	16.53	
2025-01-13 02:18:27.87	2.31	16.56	
2025-01-13 02:18:28.08	2.28	16.58	
2025-01-13 02:18:28.28	2.26	16.60	
2025-01-13 02:18:28.49	2.23	16.62	
2025-01-13 02:18:28.69	2.21	16.65	
2025-01-13 02:18:28.90	2.19	16.67	
2025-01-13 02:18:29.10	2.16	16.69	
2025-01-13 02:18:29.31	2.14	16.71	
2025-01-13 02:18:29.52	2.11	16.74	
2025-01-13 02:18:29.72	2.09	16.76	
2025-01-13 02:18:29.93	2.06	16.78	
2025-01-13 02:18:30.14	2.03	16.81	
2025-01-13 02:18:30.35	2.01	16.83	
2025-01-13 02:18:30.56	1.98	16.85	
2025-01-13 02:18:30.76	1.96	16.88	
2025-01-13 02:18:30.97	1.93	16.90	
2025-01-13 02:18:31.17	1.91	16.92	
2025-01-13 02:18:31.38	1.88	16.95	
2025-01-13 02:18:31.58	1.86	16.97	
2025-01-13 02:18:31.79	1.83	16.99	
2025-01-13 02:18:32.00	1.80	17.01	
2025-01-13 02:18:32.20	1.78	17.04	
2025-01-13 02:18:32.41	1.75	17.06	
2025-01-13 02:18:32.61	1.73	17.08	
2025-01-13 02:18:32.82	1.70	17.11	
2025-01-13 02:18:33.02	1.68	17.13	
2025-01-13 02:18:33.23	1.65	17.15	
2025-01-13 02:18:33.43	1.63	17.18	
2025-01-13 02:18:33.64	1.60	17.20	
2025-01-13 02:18:33.85	1.57	17.22	
2025-01-13 02:18:34.05	1.55	17.25	
2025-01-13 02:18:34.26	1.52	17.27	
2025-01-13 02:18:34.46	1.50	17.29	
2025-01-13 02:18:34.67	1.47	17.32	
2025-01-13 02:18:34.87	1.44	17.34	
2025-01-13 02:18:35.08	1.42	17.36	
2025-01-13 02:18:35.28	1.39	17.38	
2025-01-13 02:18:35.49	1.36	17.41	
2025-01-13 02:18:35.69	1.34	17.43	
2025-01-13 02:18:35.90	1.31	17.46	
2025-01-13 02:18:36.11	1.28	17.48	
2025-01-13 02:18:36.31	1.26	17.50	
2025-01-13 02:18:36.52	1.23	17.53	
2025-01-13 02:18:36.72	1.21	17.55	
2025-01-13 02:18:36.93	1.18	17.57	
2025-01-13 02:18:37.13	1.15	17.60	
2025-01-13 02:18:37.34	1.13	17.62	
2025-01-13 02:18:37.54	1.10	17.64	
2025-01-13 02:18:37.75	1.07	17.67	
2025-01-13 02:18:37.96	1.04	17.69	
2025-01-13 02:18:38.16	1.02	17.71	
2025-01-13 02:18:38.37	0.99	17.74	
2025-01-13 02:18:38.58	0.96	17.76	
2025-01-13 02:18:38.79	0.94	17.79	
2025-01-13 02:18:38.99	0.91	17.81	
2025-01-13 02:18:39.20	0.88	17.83	
2025-01-13 02:18:39.40	0.86	17.86	
2025-01-13 02:18:39.61	0.83	17.88	
2025-01-13 02:18:39.81	0.80	17.90	
2025-01-13 02:18:40.02	0.77	17.93	
2025-01-13 02:18:40.22	0.75	17.95	
2025-01-13 02:18:40.43	0.72	17.98	
2025-01-13 02:18:40.64	0.69	18.00	
2025-01-13 02:18:40.84	0.66	18.02	
2025-01-13 02:18:41.05	0.64	18.05	
2025-01-13 02:18:41.25	0.61	18.07	
2025-01-13 02:18:41.46	0.58	18.09	
2025-01-13 02:18:41.67	0.55	18.12	
2025-01-13 02:18:41.87	0.53	18.14	
2025-01-13 02:18:42.08	0.50	18.17	
2025-01-13 02:18:42.28	0.47	18.19	
2025-01-13 02:18:42.49	0.44	18.21	
2025-01-13 02:18:42.69	0.41	18.24	
2025-01-13 02:18:42.91	0.38	18.26	
2025-01-13 02:18:43.12	0.36	18.29	
2025-01-13 02:18:43.32	0.33	18.31	
2025-01-13 02:18:43.53	0.30	18.34	
2025-01-13 02:18:43.73	0.27	18.36	
2025-01-13 02:18:43.94	0.24	18.38	
2025-01-13 02:18:44.14	0.22	18.41	
2025-01-13 02:18:44.35	0.19	18.43	
2025-01-13 02:18:44.55	0.16	18.46	
2025-01-13 02:18:44.76	0.13	18.48	
2025-01-13 02:18:44.96	0.10	18.50	
2025-01-13 02:18:45.17	0.07	18.53	
2025-01-13 02:18:45.37	0.05	18.55	
2025-01-13 02:18:45.58	0.02	18.58	
2025-01-13 02:18:45.79	359.99	18.60	
2025-01-13 02:18:45.99	359.96	18.63	
2025-01-13 02:18:46.20	359.93	18.65	
2025-01-13 02:18:46.40	359.90	18.67	
2025-01-13 02:18:46.61	359.87	18.70	
2025-01-13 02:18:46.81	359.84	18.72	
2025-01-13 02:18:47.02	359.82	18.75	
2025-01-13 02:18:47.22	359.79	18.77	
2025-01-13 02:18:47.43	359.76	18.80	
2025-01-13 02:18:47.63	359.73	18.82	
2025-01-13 02:18:47.84	359.70	18.85	
2025-01-13 02:18:48.05	359.67	18.87	
2025-01-13 02:18:48.25	359.64	18.89	
2025-01-13 02:18:48.46	359.61	18.92	
2025-01-13 02:18:48.66	359.58	18.94	
2025-01-13 02:18:48.87	359.55	18.97	
2025-01-13 02:18:49.07	359.52	18.99	
2025-01-13 02:18:49.29	359.49	19.02	
2025-01-13 02:18:49.50	359.46	19.04	
2025-01-13 02:18:49.71	359.43	19.07	
2025-01-13 02:18:49.91	359.40	19.09	
2025-01-13 02:18:50.12	359.37	19.12	
2025-01-13 02:18:50.32	359.34	19.14	
2025-01-13 02:18:50.53	359.31	19.17	
2025-01-13 02:18:50.73	359.28	19.19	
2025-01-13 02:18:50.94	359.25	19.22	
2025-01-13 02:18:51.14	359.22	19.24	
2025-01-13 02:18:51.35	359.19	19.27	
2025-01-13 02:18:51.56	359.16	19.29	
2025-01-13 02:18:51.76	359.13	19.32	
2025-01-13 02:18:51.97	359.10	19.34	
2025-01-13 02:18:52.17	359.07	19.36	
2025-01-13 02:18:52.38	359.04	19.39	
2025-01-13 02:18:52.59	359.01	19.42	
2025-01-13 02:18:52.80	358.98	19.44	
2025-01-13 02:18:53.00	358.95	19.47	
2025-01-13 02:18:53.21	358.92	19.49	
2025-01-13 02:18:53.41	358.89	19.52	
2025-01-13 02:18:53.62	358.86	19.54	
2025-01-13 02:18:53.83	358.83	19.57	
2025-01-13 02:18:54.03	358.80	19.59	
2025-01-13 02:18:54.24	358.77	19.62	
2025-01-13 02:18:54.44	358.74	19.64	
2025-01-13 02:18:54.65	358.70	19.67	
2025-01-13 02:18:54.85	358.67	19.69	
2025-01-13 02:18:55.06	358.64	19.72	
2025-01-13 02:18:55.26	358.61	19.74	
2025-01-13 02:18:55.47	358.58	19.77	
2025-01-13 02:18:55.67	358.55	19.79	
2025-01-13 02:18:55.87	358.52	19.82	
2025-01-13 02:18:56.08	358.49	19.84	
2025-01-13 02:18:56.29	358.46	19.87	
2025-01-13 02:18:56.49	358.43	19.89	
2025-01-13 02:18:56.70	358.39	19.92	
2025-01-13 02:18:56.90	358.36	19.94	
2025-01-13 02:18:57.10	358.33	19.97	
2025-01-13 02:18:57.31	358.30	19.99	
2025-01-13 02:18:57.52	358.27	20.02	
2025-01-13 02:18:57.72	358.24	20.04	
2025-01-13 02:18:57.92	358.21	20.07	
2025-01-13 02:18:58.13	358.17	20.09	
2025-01-13 02:18:58.34	358.14	20.12	
2025-01-13 02:18:58.54	358.11	20.15	
2025-01-13 02:18:58.75	358.08	20.17	
2025-01-13 02:18:58.95	358.05	20.20	
2025-01-13 02:18:59.16	358.01	20.22	
2025-01-13 02:18:59.36	357.98	20.25	
2025-01-13 02:18:59.57	357.95	20.27	
2025-01-13 02:18:59.77	357.92	20.30	
2025-01-13 02:18:59.98	357.88	20.32	
2025-01-13 02:19:00.18	357.85	20.35	
2025-01-13 02:19:00.39	357.82	20.38	
2025-01-13 02:19:00.59	357.79	20.40	
2025-01-13 02:19:00.80	357.76	20.43	
2025-01-13 02:19:01.01	357.72	20.45	
2025-01-13 02:19:01.21	357.69	20.48	
2025-01-13 02:19:01.41	357.66	20.50	
2025-01-13 02:19:01.62	357.62	20.53	
2025-01-13 02:19:01.83	357.59	20.56	
2025-01-13 02:19:02.03	357.56	20.58	
2025-01-13 02:19:02.25	357.52	20.61	
2025-01-13 02:19:02.45	357.49	20.63	
2025-01-13 02:19:02.66	357.46	20.66	
2025-01-13 02:19:02.87	357.42	20.69	
2025-01-13 02:19:03.07	357.39	20.71	
2025-01-13 02:19:03.28	357.36	20.74	
2025-01-13 02:19:03.48	357.33	20.76	
2025-01-13 02:19:03.69	357.29	20.79	
2025-01-13 02:19:03.89	357.26	20.81	
2025-01-13 02:19:04.10	357.22	20.84	
2025-01-13 02:19:04.32	357.19	20.87	
2025-01-13 02:19:04.52	357.16	20.89	
2025-01-13 02:19:04.73	357.12	20.92	
2025-01-13 02:19:04.93	357.09	20.95	
2025-01-13 02:19:05.14	357.05	20.97	
2025-01-13 02:19:05.34	357.02	21.00	
2025-01-13 02:19:05.55	356.99	21.03	
2025-01-13 02:19:05.75	356.95	21.05	
2025-01-13 02:19:05.96	356.92	21.08	
2025-01-13 02:19:06.16	356.88	21.10	
2025-01-13 02:19:06.36	356.85	21.13	
2025-01-13 02:19:06.57	356.82	21.16	
2025-01-13 02:19:06.78	356.78	21.18	
2025-01-13 02:19:06.98	356.75	21.21	
2025-01-13 02:19:07.19	356.71	21.23	
2025-01-13 02:19:07.39	356.68	21.26	
2025-01-13 02:19:07.60	356.64	21.29	
2025-01-13 02:19:07.80	356.61	21.31	
2025-01-13 02:19:08.01	356.57	21.34	
2025-01-13 02:19:08.21	356.54	21.37	
2025-01-13 02:19:08.42	356.51	21.39	
2025-01-13 02:19:08.62	356.47	21.42	
2025-01-13 02:19:08.83	356.44	21.44	
2025-01-13 02:19:09.03	356.40	21.47	
2025-01-13 02:19:09.24	356.37	21.50	
2025-01-13 02:19:09.44	356.33	21.52	
2025-01-13 02:19:09.66	356.29	21.55	
2025-01-13 02:19:09.86	356.26	21.58	
2025-01-13 02:19:10.07	356.22	21.60	
2025-01-13 02:19:10.28	356.19	21.63	
2025-01-13 02:19:10.48	356.15	21.66	
2025-01-13 02:19:10.68	356.12	21.68	
2025-01-13 02:19:10.89	356.08	21.71	
2025-01-13 02:19:11.10	356.05	21.74	
2025-01-13 02:19:11.30	356.01	21.76	
2025-01-13 02:19:11.51	355.97	21.79	
2025-01-13 02:19:11.71	355.94	21.82	
2025-01-13 02:19:11.92	355.90	21.84	
2025-01-13 02:19:12.12	355.87	21.87	
2025-01-13 02:19:12.33	355.83	21.90	
2025-01-13 02:19:12.54	355.79	21.93	
2025-01-13 02:19:12.74	355.76	21.95	
2025-01-13 02:19:12.95	355.72	21.98	
2025-01-13 02:19:13.15	355.69	22.00	
2025-01-13 02:19:13.36	355.65	22.03	
2025-01-13 02:19:13.57	355.61	22.06	
2025-01-13 02:19:13.77	355.58	22.09	
2025-01-13 02:19:13.97	355.54	22.11	
2025-01-13 02:19:14.18	355.50	22.14	
2025-01-13 02:19:14.39	355.47	22.17	
2025-01-13 02:19:14.59	355.43	22.19	
2025-01-13 02:19:14.80	355.39	22.22	
2025-01-13 02:19:15.00	355.36	22.25	
2025-01-13 02:19:15.21	355.32	22.27	
2025-01-13 02:19:15.41	355.28	22.30	
2025-01-13 02:19:15.62	355.24	22.33	
2025-01-13 02:19:15.82	355.21	22.35	
2025-01-13 02:19:16.03	355.17	22.38	
2025-01-13 02:19:16.24	355.13	22.41	
2025-01-13 02:19:16.44	355.10	22.44	
2025-01-13 02:19:16.65	355.06	22.46	
2025-01-13 02:19:16.85	355.02	22.49	
2025-01-13 02:19:17.06	354.98	22.52	
2025-01-13 02:19:17.26	354.95	22.54	
2025-01-13 02:19:17.47	354.91	22.57	
2025-01-13 02:19:17.67	354.87	22.60	
2025-01-13 02:19:17.88	354.83	22.63	
2025-01-13 02:19:18.09	354.79	22.65	
2025-01-13 02:19:18.29	354.76	22.68	
2025-01-13 02:19:18.50	354.72	22.71	
2025-01-13 02:19:18.70	354.68	22.74	
2025-01-13 02:19:18.91	354.64	22.76	
2025-01-13 02:19:19.11	354.60	22.79	
2025-01-13 02:19:19.33	354.56	22.82	
2025-01-13 02:19:19.54	354.52	22.85	
2025-01-13 02:19:19.74	354.48	22.87	
2025-01-13 02:19:19.95	354.45	22.90	
2025-01-13 02:19:20.15	354.41	22.93	
2025-01-13 02:19:20.36	354.37	22.96	
2025-01-13 02:19:20.56	354.33	22.98	
2025-01-13 02:19:20.77	354.29	23.01	
2025-01-13 02:19:20.97	354.25	23.04	
2025-01-13 02:19:21.18	354.21	23.07	
2025-01-13 02:19:21.38	354.17	23.09	
2025-01-13 02:19:21.59	354.13	23.12	
2025-01-13 02:19:21.80	354.09	23.15	
2025-01-13 02:19:22.00	354.06	23.18	
2025-01-13 02:19:22.21	354.02	23.21	
2025-01-13 02:19:22.41	353.98	23.23	
2025-01-13 02:19:22.62	353.94	23.26	
2025-01-13 02:19:22.82	353.90	23.29	
2025-01-13 02:19:23.03	353.86	23.32	
2025-01-13 02:19:23.23	353.82	23.34	
2025-01-13 02:19:23.43	353.78	23.37	
2025-01-13 02:19:23.64	353.74	23.40	
2025-01-13 02:19:23.84	353.70	23.43	
2025-01-13 02:19:24.05	353.66	23.45	
2025-01-13 02:19:24.26	353.62	23.48	
2025-01-13 02:19:24.46	353.58	23.51	
2025-01-13 02:19:24.67	353.54	23.54	
2025-01-13 02:19:24.88	353.50	23.57	
2025-01-13 02:19:25.09	353.45	23.59	
2025-01-13 02:19:25.29	353.42	23.62	
2025-01-13 02:19:25.50	353.37	23.65	
2025-01-13 02:19:25.72	353.33	23.68	
2025-01-13 02:19:25.92	353.29	23.71	
2025-01-13 02:19:26.13	353.25	23.74	
2025-01-13 02:19:26.33	353.21	23.76	
2025-01-13 02:19:26.54	353.17	23.79	
2025-01-13 02:19:26.76	353.12	23.82	
2025-01-13 02:19:26.96	353.08	23.85	
2025-01-13 02:19:27.17	353.04	23.88	
2025-01-13 02:19:27.37	353.00	23.91	
2025-01-13 02:19:27.58	352.96	23.93	
2025-01-13 02:19:27.78	352.92	23.96	
2025-01-13 02:19:27.99	352.88	23.99	
2025-01-13 02:19:28.19	352.83	24.02	
2025-01-13 02:19:28.40	352.79	24.05	
2025-01-13 02:19:28.61	352.75	24.07	
2025-01-13 02:19:28.81	352.71	24.10	
2025-01-13 02:19:29.01	352.67	24.13	
2025-01-13 02:19:29.22	352.62	24.16	
2025-01-13 02:19:29.43	352.58	24.19	
2025-01-13 02:19:29.63	352.54	24.22	
2025-01-13 02:19:29.84	352.50	24.24	
2025-01-13 02:19:30.04	352.46	24.27	
2025-01-13 02:19:30.25	352.41	24.30	
2025-01-13 02:19:30.45	352.37	24.33	
2025-01-13 02:19:30.66	352.33	24.36	
2025-01-13 02:19:30.86	352.29	24.38	
2025-01-13 02:19:31.07	352.24	24.41	
2025-01-13 02:19:31.27	352.20	24.44	
2025-01-13 02:19:31.48	352.16	24.47	
2025-01-13 02:19:31.68	352.11	24.50	
2025-01-13 02:19:31.89	352.07	24.53	
2025-01-13 02:19:32.09	352.03	24.55	
2025-01-13 02:19:32.30	351.98	24.58	
2025-01-13 02:19:32.50	351.94	24.61	
2025-01-13 02:19:32.71	351.90	24.64	
2025-01-13 02:19:32.92	351.85	24.67	
2025-01-13 02:19:33.12	351.81	24.70	
2025-01-13 02:19:33.32	351.77	24.73	
2025-01-13 02:19:33.53	351.72	24.75	
2025-01-13 02:19:33.74	351.68	24.78	
2025-01-13 02:19:33.94	351.64	24.81	
2025-01-13 02:19:34.15	351.59	24.84	
2025-01-13 02:19:34.35	351.55	24.87	
2025-01-13 02:19:34.56	351.50	24.90	
2025-01-13 02:19:34.76	351.46	24.93	
2025-01-13 02:19:34.97	351.41	24.96	
2025-01-13 02:19:35.17	351.37	24.98	
2025-01-13 02:19:35.38	351.33	25.01	
2025-01-13 02:19:35.58	351.28	25.04	
2025-01-13 02:19:35.79	351.24	25.07	
2025-01-13 02:19:35.99	351.19	25.10	
2025-01-13 02:19:36.20	351.15	25.13	
2025-01-13 02:19:36.40	351.10	25.16	
2025-01-13 02:19:36.60	351.06	25.18	
2025-01-13 02:19:36.81	351.01	25.21	
2025-01-13 02:19:37.01	350.97	25.24	
2025-01-13 02:19:37.22	350.92	25.27	
2025-01-13 02:19:37.42	350.88	25.30	
2025-01-13 02:19:37.63	350.83	25.33	
2025-01-13 02:19:37.83	350.79	25.36	
2025-01-13 02:19:38.04	350.74	25.39	
2025-01-13 02:19:38.25	350.69	25.41	
2025-01-13 02:19:38.45	350.65	25.44	
2025-01-13 02:19:38.65	350.60	25.47	
2025-01-13 02:19:38.86	350.56	25.50	
2025-01-13 02:19:39.06	350.51	25.53	
2025-01-13 02:19:39.27	350.47	25.56	
2025-01-13 02:19:39.47	350.42	25.59	
2025-01-13 02:19:39.68	350.37	25.62	
2025-01-13 02:19:39.89	350.33	25.65	
2025-01-13 02:19:40.09	350.28	25.67	
2025-01-13 02:19:40.30	350.23	25.70	
2025-01-13 02:19:40.50	350.19	25.73	
2025-01-13 02:19:40.72	350.14	25.76	
2025-01-13 02:19:40.93	350.09	25.79	
2025-01-13 02:19:41.13	350.04	25.82	
2025-01-13 02:19:41.34	350.00	25.85	
2025-01-13 02:19:41.54	349.95	25.88	
2025-01-13 02:19:41.75	349.90	25.91	
2025-01-13 02:19:41.95	349.85	25.94	
2025-01-13 02:19:42.16	349.81	25.97	
2025-01-13 02:19:42.36	349.76	26.00	
2025-01-13 02:19:42.57	349.71	26.03	
2025-01-13 02:19:42.77	349.66	26.05	
2025-01-13 02:19:42.98	349.62	26.08	
2025-01-13 02:19:43.18	349.57	26.11	
2025-01-13 02:19:43.39	349.52	26.14	
2025-01-13 02:19:43.59	349.47	26.17	
2025-01-13 02:19:43.80	349.42	26.20	
2025-01-13 02:19:44.00	349.38	26.23	
2025-01-13 02:19:44.21	349.33	26.26	
2025-01-13 02:19:44.41	349.28	26.29	
2025-01-13 02:19:44.62	349.23	26.32	
2025-01-13 02:19:44.83	349.18	26.35	
2025-01-13 02:19:45.03	349.13	26.38	
2025-01-13 02:19:45.24	349.08	26.41	
2025-01-13 02:19:45.44	349.04	26.44	
2025-01-13 02:19:45.65	348.99	26.47	
2025-01-13 02:19:45.85	348.94	26.49	
2025-01-13 02:19:46.05	348.89	26.52	
2025-01-13 02:19:46.26	348.84	26.55	
2025-01-13 02:19:46.47	348.79	26.58	
2025-01-13 02:19:46.68	348.74	26.61	
2025-01-13 02:19:46.88	348.69	26.64	
2025-01-13 02:19:47.09	348.64	26.67	
2025-01-13 02:19:47.29	348.59	26.70	
2025-01-13 02:19:47.50	348.54	26.73	
2025-01-13 02:19:47.70	348.49	26.76	
2025-01-13 02:19:47.91	348.44	26.79	
2025-01-13 02:19:48.11	348.39	26.82	
2025-01-13 02:19:48.32	348.34	26.85	
2025-01-13 02:19:48.52	348.29	26.88	
2025-01-13 02:19:48.73	348.24	26.91	
2025-01-13 02:19:48.93	348.19	26.94	
2025-01-13 02:19:49.14	348.14	26.97	
2025-01-13 02:19:49.34	348.09	27.00	
2025-01-13 02:19:49.55	348.04	27.03	
2025-01-13 02:19:49.75	347.99	27.05	
2025-01-13 02:19:49.96	347.93	27.08	
2025-01-13 02:19:50.16	347.88	27.11	
2025-01-13 02:19:50.38	347.83	27.15	
2025-01-13 02:19:50.59	347.78	27.18	
2025-01-13 02:19:50.80	347.72	27.21	
2025-01-13 02:19:51.00	347.67	27.23	
2025-01-13 02:19:51.21	347.62	27.27	
2025-01-13 02:19:51.41	347.57	27.29	
2025-01-13 02:19:51.62	347.52	27.32	
2025-01-13 02:19:51.83	347.46	27.35	
2025-01-13 02:19:52.03	347.41	27.38	
2025-01-13 02:19:52.24	347.36	27.41	
2025-01-13 02:19:52.44	347.31	27.44	
2025-01-13 02:19:52.66	347.25	27.47	
2025-01-13 02:19:52.86	347.20	27.50	
2025-01-13 02:19:53.07	347.15	27.53	
2025-01-13 02:19:53.27	347.10	27.56	
2025-01-13 02:19:53.48	347.04	27.59	
2025-01-13 02:19:53.68	346.99	27.62	
2025-01-13 02:19:53.89	346.94	27.65	
2025-01-13 02:19:54.09	346.88	27.68	
2025-01-13 02:19:54.30	346.83	27.71	
2025-01-13 02:19:54.50	346.78	27.74	
2025-01-13 02:19:54.71	346.72	27.77	
2025-01-13 02:19:54.91	346.67	27.80	
2025-01-13 02:19:55.12	346.62	27.83	
2025-01-13 02:19:55.32	346.56	27.86	
2025-01-13 02:19:55.53	346.51	27.89	
2025-01-13 02:19:55.75	346.45	27.92	
2025-01-13 02:19:55.95	346.40	27.95	
2025-01-13 02:19:56.16	346.34	27.98	
2025-01-13 02:19:56.36	346.29	28.01	
2025-01-13 02:19:56.57	346.23	28.04	
2025-01-13 02:19:56.77	346.18	28.07	
2025-01-13 02:19:56.98	346.13	28.10	
2025-01-13 02:19:57.18	346.07	28.13	
2025-01-13 02:19:57.39	346.02	28.16	
2025-01-13 02:19:57.59	345.96	28.19	
2025-01-13 02:19:57.80	345.91	28.22	
2025-01-13 02:19:58.00	345.85	28.25	
2025-01-13 02:19:58.21	345.80	28.28	
2025-01-13 02:19:58.41	345.74	28.31	
2025-01-13 02:19:58.62	345.69	28.34	
2025-01-13 02:19:58.82	345.63	28.37	
2025-01-13 02:19:59.03	345.57	28.40	
2025-01-13 02:19:59.23	345.52	28.43	
2025-01-13 02:19:59.44	345.46	28.46	
2025-01-13 02:19:59.65	345.41	28.49	
2025-01-13 02:19:59.85	345.35	28.52	
2025-01-13 02:20:00.06	345.29	28.55	
2025-01-13 02:20:00.26	345.24	28.58	
2025-01-13 02:20:00.46	345.18	28.61	
2025-01-13 02:20:00.67	345.13	28.64	
2025-01-13 02:20:00.87	345.07	28.67	
2025-01-13 02:20:01.08	345.01	28.70	
2025-01-13 02:20:01.28	344.96	28.73	
2025-01-13 02:20:01.49	344.90	28.76	
2025-01-13 02:20:01.70	344.84	28.79	
2025-01-13 02:20:01.90	344.78	28.82	
2025-01-13 02:20:02.10	344.73	28.85	
2025-01-13 02:20:02.31	344.67	28.88	
2025-01-13 02:20:02.51	344.61	28.91	
2025-01-13 02:20:02.72	344.55	28.94	
2025-01-13 02:20:02.92	344.50	28.97	
2025-01-13 02:20:03.14	344.44	29.00	
2025-01-13 02:20:03.35	344.38	29.03	
2025-01-13 02:20:03.55	344.32	29.06	
2025-01-13 02:20:03.76	344.26	29.09	
2025-01-13 02:20:03.97	344.20	29.12	
2025-01-13 02:20:04.17	344.14	29.15	
2025-01-13 02:20:04.37	344.09	29.18	
2025-01-13 02:20:04.58	344.03	29.21	
2025-01-13 02:20:04.78	343.97	29.24	
2025-01-13 02:20:04.99	343.91	29.27	
2025-01-13 02:20:05.19	343.85	29.30	
2025-01-13 02:20:05.40	343.79	29.33	
2025-01-13 02:20:05.61	343.73	29.36	
2025-01-13 02:20:05.81	343.67	29.39	
2025-01-13 02:20:06.02	343.61	29.42	
2025-01-13 02:20:06.22	343.55	29.45	
2025-01-13 02:20:06.43	343.49	29.48	
2025-01-13 02:20:06.63	343.43	29.51	
2025-01-13 02:20:06.84	343.37	29.54	
2025-01-13 02:20:07.04	343.31	29.57	
2025-01-13 02:20:07.25	343.25	29.60	
2025-01-13 02:20:07.45	343.19	29.63	
2025-01-13 02:20:07.66	343.13	29.66	
2025-01-13 02:20:07.86	343.07	29.69	
2025-01-13 02:20:08.07	343.01	29.72	
2025-01-13 02:20:08.27	342.95	29.75	
2025-01-13 02:20:08.48	342.89	29.78	
2025-01-13 02:20:08.68	342.83	29.81	
2025-01-13 02:20:08.89	342.77	29.84	
2025-01-13 02:20:09.10	342.70	29.87	
2025-01-13 02:20:09.30	342.64	29.90	
2025-01-13 02:20:09.50	342.58	29.93	
2025-01-13 02:20:09.71	342.52	29.96	
2025-01-13 02:20:09.92	342.46	29.99	
2025-01-13 02:20:10.12	342.40	30.02	
2025-01-13 02:20:10.33	342.33	30.05	
2025-01-13 02:20:10.53	342.27	30.08	
2025-01-13 02:20:10.74	342.21	30.11	
2025-01-13 02:20:10.94	342.15	30.14	
2025-01-13 02:20:11.15	342.09	30.17	
2025-01-13 02:20:11.35	342.03	30.20	
2025-01-13 02:20:11.56	341.96	30.23	
2025-01-13 02:20:11.76	341.90	30.26	
2025-01-13 02:20:11.97	341.84	30.29	
2025-01-13 02:20:12.17	341.77	30.32	
2025-01-13 02:20:12.38	341.71	30.35	
2025-01-13 02:20:12.58	341.65	30.38	
2025-01-13 02:20:12.79	341.58	30.41	
2025-01-13 02:20:13.00	341.52	30.44	
2025-01-13 02:20:13.20	341.46	30.47	
2025-01-13 02:20:13.41	341.39	30.50	
2025-01-13 02:20:13.62	341.32	30.53	
2025-01-13 02:20:13.82	341.26	30.56	
2025-01-13 02:20:14.02	341.20	30.59	
2025-01-13 02:20:14.23	341.13	30.62	
2025-01-13 02:20:14.44	341.07	30.65	
2025-01-13 02:20:14.64	341.00	30.68	
2025-01-13 02:20:14.85	340.94	30.71	
2025-01-13 02:20:15.05	340.88	30.74	
2025-01-13 02:20:15.26	340.81	30.77	
2025-01-13 02:20:15.46	340.75	30.80	
2025-01-13 02:20:15.67	340.68	30.83	
2025-01-13 02:20:15.87	340.62	30.86	
2025-01-13 02:20:16.08	340.55	30.89	
2025-01-13 02:20:16.29	340.48	30.92	
2025-01-13 02:20:16.49	340.42	30.95	
2025-01-13 02:20:16.70	340.35	30.98	
2025-01-13 02:20:16.90	340.29	31.01	
2025-01-13 02:20:17.11	340.22	31.04	
2025-01-13 02:20:17.31	340.15	31.07	
2025-01-13 02:20:17.52	340.09	31.10	
2025-01-13 02:20:17.73	340.02	31.13	
2025-01-13 02:20:17.93	339.95	31.16	
2025-01-13 02:20:18.15	339.88	31.19	
2025-01-13 02:20:18.35	339.82	31.22	
2025-01-13 02:20:18.56	339.75	31.25	
2025-01-13 02:20:18.76	339.68	31.28	
2025-01-13 02:20:18.97	339.61	31.31	
2025-01-13 02:20:19.19	339.54	31.34	
2025-01-13 02:20:19.40	339.47	31.37	
2025-01-13 02:20:19.60	339.41	31.40	
2025-01-13 02:20:19.81	339.34	31.43	
2025-01-13 02:20:20.01	339.27	31.46	
2025-01-13 02:20:20.22	339.20	31.49	
2025-01-13 02:20:20.42	339.13	31.52	
2025-01-13 02:20:20.63	339.07	31.55	
2025-01-13 02:20:20.83	339.00	31.58	
2025-01-13 02:20:21.04	338.93	31.61	
2025-01-13 02:20:21.24	338.86	31.64	
2025-01-13 02:20:21.45	338.79	31.67	
2025-01-13 02:20:21.65	338.72	31.70	
2025-01-13 02:20:21.86	338.65	31.73	
2025-01-13 02:20:22.06	338.59	31.76	
2025-01-13 02:20:22.27	338.51	31.79	
2025-01-13 02:20:22.47	338.45	31.82	
2025-01-13 02:20:22.68	338.38	31.85	
2025-01-13 02:20:22.89	338.30	31.88	
2025-01-13 02:20:23.09	338.24	31.91	
2025-01-13 02:20:23.29	338.17	31.93	
2025-01-13 02:20:23.50	338.10	31.96	
2025-01-13 02:20:23.71	338.02	31.99	
2025-01-13 02:20:23.91	337.96	32.02	
2025-01-13 02:20:24.11	337.89	32.05	
2025-01-13 02:20:24.32	337.82	32.08	
2025-01-13 02:20:24.52	337.75	32.11	
2025-01-13 02:20:24.73	337.67	32.14	
2025-01-13 02:20:24.93	337.60	32.17	
2025-01-13 02:20:25.14	337.53	32.20	
2025-01-13 02:20:25.34	337.46	32.23	
2025-01-13 02:20:25.55	337.39	32.26	
2025-01-13 02:20:25.75	337.32	32.29	
2025-01-13 02:20:25.96	337.25	32.32	
2025-01-13 02:20:26.16	337.18	32.34	
2025-01-13 02:20:26.37	337.10	32.37	
2025-01-13 02:20:26.57	337.03	32.40	
2025-01-13 02:20:26.78	336.96	32.43	
2025-01-13 02:20:26.98	336.89	32.46	
2025-01-13 02:20:27.19	336.81	32.49	
2025-01-13 02:20:27.39	336.74	32.52	
2025-01-13 02:20:27.60	336.67	32.55	
2025-01-13 02:20:27.80	336.60	32.58	
2025-01-13 02:20:28.01	336.52	32.61	
2025-01-13 02:20:28.21	336.45	32.63	
2025-01-13 02:20:28.42	336.38	32.66	
2025-01-13 02:20:28.62	336.30	32.69	
2025-01-13 02:20:28.83	336.23	32.72	
2025-01-13 02:20:29.03	336.16	32.75	
2025-01-13 02:20:29.24	336.08	32.78	
2025-01-13 02:20:29.45	336.01	32.81	
2025-01-13 02:20:29.65	335.93	32.84	
2025-01-13 02:20:29.85	335.86	32.87	
2025-01-13 02:20:30.06	335.79	32.89	
2025-01-13 02:20:30.26	335.71	32.92	
2025-01-13 02:20:30.47	335.64	32.95	
2025-01-13 02:20:30.68	335.56	32.98	
2025-01-13 02:20:30.88	335.49	33.01	
2025-01-13 02:20:31.08	335.41	33.04	
2025-01-13 02:20:31.29	335.34	33.07	
2025-01-13 02:20:31.50	335.26	33.10	
2025-01-13 02:20:31.70	335.19	33.12	
2025-01-13 02:20:31.92	335.10	33.15	
2025-01-13 02:20:32.12	335.03	33.18	
2025-01-13 02:20:32.33	334.95	33.21	
2025-01-13 02:20:32.53	334.88	33.24	
2025-01-13 02:20:32.74	334.80	33.27	
2025-01-13 02:20:32.94	334.73	33.30	
2025-01-13 02:20:33.15	334.65	33.32	
2025-01-13 02:20:33.35	334.57	33.35	
2025-01-13 02:20:33.56	334.50	33.38	
2025-01-13 02:20:33.76	334.42	33.41	
2025-01-13 02:20:33.97	334.34	33.44	
2025-01-13 02:20:34.17	334.27	33.47	
2025-01-13 02:20:34.38	334.19	33.49	
2025-01-13 02:20:34.59	334.11	33.52	
2025-01-13 02:20:34.79	334.03	33.55	
2025-01-13 02:20:35.00	333.95	33.58	
2025-01-13 02:20:35.20	333.88	33.61	
2025-01-13 02:20:35.41	333.80	33.64	
2025-01-13 02:20:35.61	333.72	33.66	
2025-01-13 02:20:35.82	333.64	33.69	
2025-01-13 02:20:36.03	333.56	33.72	
2025-01-13 02:20:36.23	333.48	33.75	
2025-01-13 02:20:36.44	333.40	33.78	
2025-01-13 02:20:36.64	333.33	33.80	
2025-01-13 02:20:36.85	333.25	33.83	
2025-01-13 02:20:37.06	333.17	33.86	
2025-01-13 02:20:37.27	333.08	33.89	
2025-01-13 02:20:37.48	333.00	33.92	
2025-01-13 02:20:37.69	332.92	33.94	
2025-01-13 02:20:37.89	332.84	33.97	
2025-01-13 02:20:38.10	332.76	34.00	
2025-01-13 02:20:38.30	332.68	34.03	
2025-01-13 02:20:38.50	332.61	34.05	
2025-01-13 02:20:38.71	332.52	34.08	
2025-01-13 02:20:38.92	332.44	34.11	
2025-01-13 02:20:39.12	332.36	34.14	
2025-01-13 02:20:39.32	332.28	34.16	
2025-01-13 02:20:39.53	332.20	34.19	
2025-01-13 02:20:39.73	332.12	34.22	
2025-01-13 02:20:39.94	332.04	34.25	
2025-01-13 02:20:40.14	331.96	34.27	
2025-01-13 02:20:40.35	331.88	34.30	
2025-01-13 02:20:40.55	331.80	34.33	
2025-01-13 02:20:40.76	331.71	34.35	
2025-01-13 02:20:40.96	331.63	34.38	
2025-01-13 02:20:41.17	331.55	34.41	
2025-01-13 02:20:41.38	331.47	34.44	
2025-01-13 02:20:41.59	331.38	34.46	
2025-01-13 02:20:41.80	331.30	34.49	
2025-01-13 02:20:42.01	331.21	34.52	
2025-01-13 02:20:42.21	331.13	34.54	
2025-01-13 02:20:42.42	331.05	34.57	
2025-01-13 02:20:42.63	330.96	34.60	
2025-01-13 02:20:42.84	330.88	34.63	
2025-01-13 02:20:43.04	330.80	34.65	
2025-01-13 02:20:43.25	330.71	34.68	
2025-01-13 02:20:43.46	330.63	34.71	
2025-01-13 02:20:43.66	330.55	34.73	
2025-01-13 02:20:43.87	330.46	34.76	
2025-01-13 02:20:44.07	330.38	34.79	
2025-01-13 02:20:44.28	330.29	34.81	
2025-01-13 02:20:44.48	330.21	34.84	
2025-01-13 02:20:44.69	330.12	34.87	
2025-01-13 02:20:44.89	330.04	34.89	
2025-01-13 02:20:45.10	329.95	34.92	
2025-01-13 02:20:45.30	329.87	34.94	
2025-01-13 02:20:45.51	329.79	34.97	
2025-01-13 02:20:45.71	329.70	35.00	
2025-01-13 02:20:45.92	329.62	35.02	
2025-01-13 02:20:46.13	329.53	35.05	
2025-01-13 02:20:46.33	329.44	35.07	
2025-01-13 02:20:46.53	329.36	35.10	
2025-01-13 02:20:46.74	329.27	35.13	
2025-01-13 02:20:46.94	329.19	35.15	
2025-01-13 02:20:47.15	329.10	35.18	
2025-01-13 02:20:47.36	329.01	35.20	
2025-01-13 02:20:47.56	328.93	35.23	
2025-01-13 02:20:47.77	328.84	35.25	
2025-01-13 02:20:47.97	328.76	35.28	
2025-01-13 02:20:48.18	328.67	35.31	
2025-01-13 02:20:48.38	328.58	35.33	
2025-01-13 02:20:48.59	328.49	35.36	
2025-01-13 02:20:48.80	328.41	35.38	
2025-01-13 02:20:49.00	328.32	35.41	
2025-01-13 02:20:49.21	328.23	35.43	
2025-01-13 02:20:49.41	328.15	35.46	
2025-01-13 02:20:49.62	328.06	35.48	
2025-01-13 02:20:49.82	327.97	35.51	
2025-01-13 02:20:50.03	327.88	35.53	
2025-01-13 02:20:50.23	327.79	35.56	
2025-01-13 02:20:50.44	327.70	35.58	
2025-01-13 02:20:50.65	327.61	35.61	
2025-01-13 02:20:50.85	327.53	35.63	
2025-01-13 02:20:51.06	327.44	35.66	
2025-01-13 02:20:51.26	327.35	35.68	
2025-01-13 02:20:51.47	327.26	35.71	
2025-01-13 02:20:51.67	327.17	35.73	
2025-01-13 02:20:51.88	327.08	35.76	
2025-01-13 02:20:52.08	326.99	35.78	
2025-01-13 02:20:52.30	326.90	35.81	
2025-01-13 02:20:52.51	326.81	35.83	
2025-01-13 02:20:52.71	326.72	35.85	
2025-01-13 02:20:52.92	326.63	35.88	
2025-01-13 02:20:53.12	326.54	35.90	
2025-01-13 02:20:53.33	326.45	35.93	
2025-01-13 02:20:53.53	326.36	35.95	
2025-01-13 02:20:53.74	326.27	35.97	
2025-01-13 02:20:53.94	326.18	36.00	
2025-01-13 02:20:54.15	326.08	36.02	
2025-01-13 02:20:54.37	325.99	36.05	
2025-01-13 02:20:54.57	325.90	36.07	
2025-01-13 02:20:54.78	325.80	36.09	
2025-01-13 02:20:54.98	325.72	36.12	
2025-01-13 02:20:55.19	325.62	36.14	
2025-01-13 02:20:55.39	325.53	36.16	
2025-01-13 02:20:55.59	325.44	36.19	
2025-01-13 02:20:55.80	325.35	36.21	
2025-01-13 02:20:56.01	325.26	36.24	
2025-01-13 02:20:56.21	325.17	36.26	
2025-01-13 02:20:56.41	325.08	36.28	
2025-01-13 02:20:56.62	324.98	36.30	
2025-01-13 02:20:56.83	324.89	36.33	
2025-01-13 02:20:57.03	324.80	36.35	
2025-01-13 02:20:57.24	324.70	36.37	
2025-01-13 02:20:57.44	324.61	36.40	
2025-01-13 02:20:57.65	324.52	36.42	
2025-01-13 02:20:57.85	324.42	36.44	
2025-01-13 02:20:58.06	324.33	36.46	
2025-01-13 02:20:58.26	324.24	36.49	
2025-01-13 02:20:58.47	324.14	36.51	
2025-01-13 02:20:58.69	324.04	36.53	
2025-01-13 02:20:58.89	323.95	36.55	
2025-01-13 02:20:59.10	323.85	36.58	
2025-01-13 02:20:59.30	323.76	36.60	
2025-01-13 02:20:59.51	323.67	36.62	
2025-01-13 02:20:59.71	323.57	36.64	
2025-01-13 02:20:59.92	323.48	36.67	
2025-01-13 02:21:00.12	323.38	36.69	
2025-01-13 02:21:00.33	323.29	36.71	
2025-01-13 02:21:00.53	323.19	36.73	
2025-01-13 02:21:00.74	323.10	36.75	
2025-01-13 02:21:00.94	323.00	36.77	
2025-01-13 02:21:01.15	322.91	36.80	
2025-01-13 02:21:01.35	322.81	36.82	
2025-01-13 02:21:01.56	322.72	36.84	
2025-01-13 02:21:01.76	322.62	36.86	
2025-01-13 02:21:01.97	322.53	36.88	
2025-01-13 02:21:02.18	322.43	36.90	
2025-01-13 02:21:02.38	322.33	36.92	
2025-01-13 02:21:02.59	322.23	36.94	
2025-01-13 02:21:02.79	322.14	36.96	
2025-01-13 02:21:03.00	322.04	36.99	
2025-01-13 02:21:03.20	321.95	37.01	
2025-01-13 02:21:03.41	321.85	37.03	
2025-01-13 02:21:03.61	321.75	37.05	
2025-01-13 02:21:03.82	321.66	37.07	
2025-01-13 02:21:04.04	321.55	37.09	
2025-01-13 02:21:04.24	321.46	37.11	
2025-01-13 02:21:04.45	321.36	37.13	
2025-01-13 02:21:04.65	321.26	37.15	
2025-01-13 02:21:04.86	321.16	37.17	
2025-01-13 02:21:05.06	321.07	37.19	
2025-01-13 02:21:05.27	320.97	37.21	
2025-01-13 02:21:05.48	320.87	37.23	
2025-01-13 02:21:05.68	320.77	37.25	
2025-01-13 02:21:05.89	320.67	37.27	
2025-01-13 02:21:06.09	320.57	37.29	
2025-01-13 02:21:06.30	320.47	37.31	
2025-01-13 02:21:06.50	320.38	37.33	
2025-01-13 02:21:06.71	320.28	37.35	
2025-01-13 02:21:06.91	320.18	37.37	
2025-01-13 02:21:07.12	320.08	37.39	
2025-01-13 02:21:07.32	319.98	37.41	
2025-01-13 02:21:07.53	319.88	37.43	
2025-01-13 02:21:07.73	319.78	37.44	
2025-01-13 02:21:07.94	319.68	37.46	
2025-01-13 02:21:08.15	319.58	37.48	
2025-01-13 02:21:08.35	319.48	37.50	
2025-01-13 02:21:08.55	319.39	37.52	
2025-01-13 02:21:08.76	319.28	37.54	
2025-01-13 02:21:08.97	319.18	37.56	
2025-01-13 02:21:09.17	319.08	37.58	
2025-01-13 02:21:09.38	318.98	37.59	
2025-01-13 02:21:09.58	318.88	37.61	
2025-01-13 02:21:09.79	318.78	37.63	
2025-01-13 02:21:10.00	318.68	37.65	
2025-01-13 02:21:10.20	318.58	37.67	
2025-01-13 02:21:10.40	318.48	37.68	
2025-01-13 02:21:10.61	318.38	37.70	
2025-01-13 02:21:10.81	318.28	37.72	
2025-01-13 02:21:11.02	318.18	37.74	
2025-01-13 02:21:11.23	318.07	37.75	
2025-01-13 02:21:11.43	317.97	37.77	
2025-01-13 02:21:11.64	317.87	37.79	
2025-01-13 02:21:11.84	317.77	37.81	
2025-01-13 02:21:12.05	317.67	37.82	
2025-01-13 02:21:12.25	317.57	37.84	
2025-01-13 02:21:12.46	317.46	37.86	
2025-01-13 02:21:12.66	317.36	37.87	
2025-01-13 02:21:12.87	317.26	37.89	
2025-01-13 02:21:13.07	317.16	37.91	
2025-01-13 02:21:13.28	317.05	37.92	
2025-01-13 02:21:13.49	316.95	37.94	
2025-01-13 02:21:13.69	316.85	37.96	
2025-01-13 02:21:13.89	316.75	37.97	
2025-01-13 02:21:14.10	316.64	37.99	
2025-01-13 02:21:14.30	316.54	38.01	
2025-01-13 02:21:14.51	316.44	38.02	
2025-01-13 02:21:14.71	316.34	38.04	
2025-01-13 02:21:14.92	316.23	38.05	
2025-01-13 02:21:15.13	316.13	38.07	
2025-01-13 02:21:15.33	316.03	38.08	
2025-01-13 02:21:15.53	315.92	38.10	
2025-01-13 02:21:15.75	315.81	38.12	
2025-01-13 02:21:15.96	315.71	38.13	
2025-01-13 02:21:16.16	315.61	38.15	
2025-01-13 02:21:16.37	315.50	38.16	
2025-01-13 02:21:16.58	315.39	38.18	
2025-01-13 02:21:16.78	315.29	38.19	
2025-01-13 02:21:16.98	315.19	38.21	
2025-01-13 02:21:17.19	315.08	38.22	
2025-01-13 02:21:17.40	314.98	38.24	
2025-01-13 02:21:17.60	314.87	38.25	
2025-01-13 02:21:17.80	314.77	38.26	
2025-01-13 02:21:18.01	314.67	38.28	
2025-01-13 02:21:18.22	314.56	38.29	
2025-01-13 02:21:18.42	314.46	38.31	
2025-01-13 02:21:18.63	314.35	38.32	
2025-01-13 02:21:18.83	314.25	38.34	
2025-01-13 02:21:19.04	314.14	38.35	
2025-01-13 02:21:19.24	314.04	38.36	
2025-01-13 02:21:19.45	313.93	38.38	
2025-01-13 02:21:19.65	313.82	38.39	
2025-01-13 02:21:19.86	313.72	38.40	
2025-01-13 02:21:20.06	313.61	38.42	
2025-01-13 02:21:20.27	313.51	38.43	
2025-01-13 02:21:20.47	313.40	38.44	
2025-01-13 02:21:20.68	313.29	38.46	
2025-01-13 02:21:20.89	313.19	38.47	
2025-01-13 02:21:21.10	313.08	38.48	
2025-01-13 02:21:21.31	312.97	38.50	
2025-01-13 02:21:21.51	312.86	38.51	
2025-01-13 02:21:21.72	312.76	38.52	
2025-01-13 02:21:21.93	312.65	38.53	
2025-01-13 02:21:22.13	312.54	38.55	
2025-01-13 02:21:22.34	312.43	38.56	
2025-01-13 02:21:22.54	312.33	38.57	
2025-01-13 02:21:22.75	312.22	38.58	
2025-01-13 02:21:22.95	312.12	38.59	
2025-01-13 02:21:23.16	312.01	38.61	
2025-01-13 02:21:23.36	311.90	38.62	
2025-01-13 02:21:23.57	311.79	38.63	
2025-01-13 02:21:23.77	311.69	38.64	
2025-01-13 02:21:23.98	311.58	38.65	
2025-01-13 02:21:24.18	311.47	38.66	
2025-01-13 02:21:24.39	311.36	38.67	
2025-01-13 02:21:24.59	311.26	38.68	
2025-01-13 02:21:24.80	311.15	38.70	
2025-01-13 02:21:25.01	311.04	38.71	
2025-01-13 02:21:25.21	310.93	38.72	
2025-01-13 02:21:25.43	310.82	38.73	
2025-01-13 02:21:25.63	310.71	38.74	
2025-01-13 02:21:25.84	310.60	38.75	
2025-01-13 02:21:26.04	310.50	38.76	
2025-01-13 02:21:26.25	310.39	38.77	
2025-01-13 02:21:26.45	310.28	38.78	
2025-01-13 02:21:26.66	310.17	38.79	
2025-01-13 02:21:26.87	310.06	38.80	
2025-01-13 02:21:27.07	309.96	38.81	
2025-01-13 02:21:27.28	309.84	38.82	
2025-01-13 02:21:27.50	309.73	38.83	
2025-01-13 02:21:27.70	309.62	38.84	
2025-01-13 02:21:27.91	309.51	38.85	
2025-01-13 02:21:28.11	309.41	38.85	
2025-01-13 02:21:28.32	309.29	38.86	
2025-01-13 02:21:28.54	309.18	38.87	
2025-01-13 02:21:28.74	309.07	38.88	
2025-01-13 02:21:28.94	308.97	38.89	
2025-01-13 02:21:29.15	308.85	38.90	
2025-01-13 02:21:29.36	308.74	38.91	
2025-01-13 02:21:29.56	308.64	38.92	
2025-01-13 02:21:29.76	308.53	38.92	
2025-01-13 02:21:29.97	308.42	38.93	
2025-01-13 02:21:30.18	308.31	38.94	
2025-01-13 02:21:30.38	308.20	38.95	
2025-01-13 02:21:30.59	308.09	38.96	
2025-01-13 02:21:30.79	307.98	38.96	
2025-01-13 02:21:31.00	307.87	38.97	
2025-01-13 02:21:31.20	307.76	38.98	
2025-01-13 02:21:31.41	307.65	38.98	
2025-01-13 02:21:31.62	307.54	38.99	
2025-01-13 02:21:31.83	307.43	39.00	
2025-01-13 02:21:32.04	307.31	39.01	
2025-01-13 02:21:32.25	307.20	39.01	
2025-01-13 02:21:32.45	307.09	39.02	
2025-01-13 02:21:32.66	306.98	39.03	
2025-01-13 02:21:32.86	306.87	39.03	
2025-01-13 02:21:33.07	306.76	39.04	
2025-01-13 02:21:33.27	306.66	39.05	
2025-01-13 02:21:33.48	306.54	39.05	
2025-01-13 02:21:33.68	306.44	39.06	
2025-01-13 02:21:33.89	306.32	39.06	
2025-01-13 02:21:34.09	306.22	39.07	
2025-01-13 02:21:34.30	306.10	39.07	
2025-01-13 02:21:34.50	306.00	39.08	
2025-01-13 02:21:34.71	305.88	39.09	
2025-01-13 02:21:34.91	305.77	39.09	
2025-01-13 02:21:35.12	305.66	39.10	
2025-01-13 02:21:35.32	305.55	39.10	
2025-01-13 02:21:35.53	305.44	39.11	
2025-01-13 02:21:35.74	305.33	39.11	
2025-01-13 02:21:35.94	305.22	39.11	
2025-01-13 02:21:36.16	305.10	39.12	
2025-01-13 02:21:36.36	304.99	39.12	
2025-01-13 02:21:36.57	304.88	39.13	
2025-01-13 02:21:36.78	304.77	39.13	
2025-01-13 02:21:36.98	304.66	39.14	
2025-01-13 02:21:37.18	304.55	39.14	
2025-01-13 02:21:37.39	304.44	39.14	
2025-01-13 02:21:37.60	304.33	39.15	
2025-01-13 02:21:37.80	304.22	39.15	
2025-01-13 02:21:38.01	304.10	39.15	
2025-01-13 02:21:38.21	304.00	39.16	
2025-01-13 02:21:38.42	303.88	39.16	
2025-01-13 02:21:38.62	303.78	39.16	
2025-01-13 02:21:38.83	303.66	39.17	
2025-01-13 02:21:39.04	303.55	39.17	
2025-01-13 02:21:39.24	303.44	39.17	
2025-01-13 02:21:39.45	303.33	39.18	
2025-01-13 02:21:39.65	303.22	39.18	
2025-01-13 02:21:39.86	303.11	39.18	
2025-01-13 02:21:40.06	303.00	39.18	
2025-01-13 02:21:40.27	302.88	39.18	
2025-01-13 02:21:40.47	302.78	39.19	
2025-01-13 02:21:40.68	302.66	39.19	
2025-01-13 02:21:40.88	302.55	39.19	
2025-01-13 02:21:41.09	302.44	39.19	
2025-01-13 02:21:41.29	302.33	39.19	
2025-01-13 02:21:41.50	302.22	39.20	
2025-01-13 02:21:41.70	302.11	39.20	
2025-01-13 02:21:41.91	302.00	39.20	
2025-01-13 02:21:42.11	301.89	39.20	
2025-01-13 02:21:42.32	301.77	39.20	
2025-01-13 02:21:42.52	301.67	39.20	
2025-01-13 02:21:42.73	301.55	39.20	
2025-01-13 02:21:42.93	301.44	39.20	
2025-01-13 02:21:43.14	301.33	39.20	
2025-01-13 02:21:43.34	301.22	39.20	
