passes_logs/2025/01/24/planumMaritime01/planumMaritime01__20250124_091444_NOAA_18_rec.log

#Pass ID: 20250124_091444_NOAA 18
#Satellite: NOAA 18
#Configuration: NOAA 18
#Start time: 2025-01-24 09:14:49.372271

#LorettStation: 1.0.0 05.05.2024
#Station: planumMaritime01
#Location: 37.49445 lon 55.92918 lat
#TLE: 1 28654U 05018A   25023.79872758  .00000470  00000+0  27266-3 0  9990
#TLE: 2 28654  98.8553 104.7652 0014753 154.7972 205.3923 14.13495354 14429

#Time	Az	El	Level	SNR
2025-01-24 09:14:51.530531	14.8	10.2	-74.2	0.0
2025-01-24 09:14:52.652234	14.8	10.3	-74.8	0.0
2025-01-24 09:14:53.773926	14.8	10.4	-74.9	0.0
2025-01-24 09:14:54.898594	14.8	10.5	-75.3	0.0
2025-01-24 09:14:56.020976	14.8	10.6	-75.1	0.0
2025-01-24 09:14:57.144569	14.8	10.7	-74.7	0.0
2025-01-24 09:14:58.268360	14.7	10.8	-75.3	0.0
2025-01-24 09:14:59.390303	14.7	10.9	-74.6	0.0
2025-01-24 09:15:00.511574	14.7	11.0	-74.6	0.0
2025-01-24 09:15:01.634515	14.7	11.1	-74.4	0.0
2025-01-24 09:15:02.755624	14.7	11.2	-75.1	0.0
2025-01-24 09:15:03.878139	14.7	11.3	-74.9	0.0
2025-01-24 09:15:05.001320	14.7	11.4	-75.3	0.0
2025-01-24 09:15:06.126328	14.6	11.5	-74.9	0.0
2025-01-24 09:15:07.247956	14.6	11.6	-75.2	0.0
2025-01-24 09:15:08.372571	14.6	11.7	-75.5	0.0
2025-01-24 09:15:09.496304	14.6	11.8	-75.0	0.0
2025-01-24 09:15:10.618625	14.6	11.9	-74.6	0.0
2025-01-24 09:15:11.741088	14.6	12.0	-74.7	0.0
2025-01-24 09:15:12.863958	14.6	12.1	-74.9	0.0
2025-01-24 09:15:13.989627	14.6	12.2	-74.9	0.0
2025-01-24 09:15:15.111939	14.5	12.3	-75.0	0.0
2025-01-24 09:15:16.234527	14.5	12.4	-75.3	0.0
2025-01-24 09:15:17.358470	14.5	12.5	-75.0	0.0
2025-01-24 09:15:18.481008	14.5	12.6	-74.5	0.0
2025-01-24 09:15:19.605537	14.5	12.7	-75.1	0.0
2025-01-24 09:15:20.728439	14.5	12.8	-74.9	0.0
2025-01-24 09:15:21.850325	14.4	13.0	-74.3	0.0
2025-01-24 09:15:22.975371	14.4	13.1	-75.2	0.0
2025-01-24 09:15:24.098210	14.4	13.2	-75.0	0.0
2025-01-24 09:15:25.220687	14.4	13.3	-74.6	0.0
2025-01-24 09:15:26.344620	14.4	13.4	-75.0	0.0
2025-01-24 09:15:27.466731	14.4	13.5	-74.6	0.0
2025-01-24 09:15:28.590236	14.4	13.6	-75.2	0.0
2025-01-24 09:15:29.713412	14.3	13.7	-75.1	0.0
2025-01-24 09:15:30.834898	14.3	13.8	-74.8	0.0
2025-01-24 09:15:31.958016	14.3	13.9	-75.6	0.0
2025-01-24 09:15:33.081355	14.3	14.1	-75.4	0.0
2025-01-24 09:15:34.206456	14.3	14.2	-75.0	0.0
2025-01-24 09:15:35.326219	14.3	14.3	-74.6	0.0
2025-01-24 09:15:36.449835	14.2	14.4	-75.0	0.0
2025-01-24 09:15:37.571853	14.2	14.5	-74.5	0.0
2025-01-24 09:15:38.694600	14.2	14.6	-75.4	0.0
2025-01-24 09:15:39.819445	14.2	14.8	-75.4	0.0
2025-01-24 09:15:40.945487	14.2	14.9	-74.5	0.0
2025-01-24 09:15:42.068927	14.1	15.0	-74.8	0.0
2025-01-24 09:15:43.193492	14.1	15.1	-75.1	0.0
2025-01-24 09:15:44.314041	14.1	15.2	-74.6	0.0
2025-01-24 09:15:45.435782	14.1	15.3	-74.8	0.0
2025-01-24 09:15:46.559994	14.1	15.5	-75.0	0.0
2025-01-24 09:15:47.681107	14.1	15.6	-75.0	0.0
2025-01-24 09:15:48.803724	14.0	15.7	-75.0	0.0
2025-01-24 09:15:49.927723	14.0	15.8	-75.1	0.0
2025-01-24 09:15:51.049528	14.0	15.9	-75.5	0.0
2025-01-24 09:15:52.170153	14.0	16.1	-74.8	0.0
2025-01-24 09:15:53.294070	14.0	16.2	-75.0	0.0
2025-01-24 09:15:54.417031	13.9	16.3	-74.8	0.0
2025-01-24 09:15:55.540453	13.9	16.4	-75.1	0.0
2025-01-24 09:15:56.664048	13.9	16.6	-75.4	0.0
2025-01-24 09:15:57.789197	13.9	16.7	-75.7	0.0
2025-01-24 09:15:58.913766	13.9	16.8	-75.7	0.0
2025-01-24 09:16:00.036491	13.8	16.9	-74.9	0.0
2025-01-24 09:16:01.157385	13.8	17.1	-74.0	0.0
2025-01-24 09:16:02.283118	13.8	17.2	-75.4	0.0
2025-01-24 09:16:03.406755	13.8	17.3	-75.5	0.0
2025-01-24 09:16:04.529264	13.7	17.5	-75.7	0.0
2025-01-24 09:16:05.650147	13.7	17.6	-75.6	0.0
2025-01-24 09:16:06.772734	13.7	17.7	-74.7	0.0
2025-01-24 09:16:07.896549	13.7	17.9	-74.8	0.0
2025-01-24 09:16:09.019662	13.7	18.0	-75.1	0.0
2025-01-24 09:16:10.142083	13.6	18.1	-74.9	0.0
2025-01-24 09:16:11.264932	13.6	18.3	-75.7	0.0
2025-01-24 09:16:12.388153	13.6	18.4	-75.5	0.0
2025-01-24 09:16:13.510955	13.6	18.5	-74.9	0.0
2025-01-24 09:16:14.633086	13.5	18.7	-74.8	0.0
2025-01-24 09:16:15.757518	13.5	18.8	-75.1	0.0
2025-01-24 09:16:16.880251	13.5	18.9	-75.4	0.0
2025-01-24 09:16:18.002344	13.5	19.1	-75.3	0.0
2025-01-24 09:16:19.125872	13.4	19.2	-75.5	0.0
2025-01-24 09:16:20.250819	13.4	19.4	-75.9	0.0
2025-01-24 09:16:21.373018	13.4	19.5	-75.3	0.0
2025-01-24 09:16:22.495367	13.4	19.6	-75.4	0.0
2025-01-24 09:16:23.618867	13.3	19.8	-76.0	0.0
2025-01-24 09:16:24.741481	13.3	19.9	-75.8	0.0
2025-01-24 09:16:25.863933	13.3	20.1	-75.7	0.0
2025-01-24 09:16:26.984875	13.2	20.2	-75.8	0.0
2025-01-24 09:16:28.109138	13.2	20.4	-76.2	0.0
2025-01-24 09:16:29.232237	13.2	20.5	-75.5	0.0
2025-01-24 09:16:30.354890	13.2	20.6	-76.2	0.0
2025-01-24 09:16:31.477105	13.1	20.8	-75.9	0.0
2025-01-24 09:16:32.600347	13.1	20.9	-75.5	0.0
2025-01-24 09:16:33.724216	13.1	21.1	-75.7	0.0
2025-01-24 09:16:34.846921	13.0	21.2	-76.2	0.0
2025-01-24 09:16:35.971199	13.0	21.4	-75.9	0.0
2025-01-24 09:16:37.094193	13.0	21.6	-75.7	0.0
2025-01-24 09:16:38.216476	13.0	21.7	-75.8	0.0
2025-01-24 09:16:39.338546	12.9	21.9	-75.6	0.0
2025-01-24 09:16:40.463559	12.9	22.0	-75.6	0.0
2025-01-24 09:16:41.586563	12.9	22.2	-75.8	0.0
2025-01-24 09:16:42.708893	12.8	22.3	-75.6	0.0
2025-01-24 09:16:43.831361	12.8	22.5	-76.1	0.0
2025-01-24 09:16:44.955363	12.8	22.6	-75.5	0.0
2025-01-24 09:16:46.077292	12.7	22.8	-75.6	0.0
2025-01-24 09:16:47.200336	12.7	23.0	-75.7	0.0
2025-01-24 09:16:48.322536	12.7	23.1	-75.8	0.0
2025-01-24 09:16:49.444627	12.6	23.3	-75.5	0.0
2025-01-24 09:16:50.568215	12.6	23.5	-75.4	0.0
2025-01-24 09:16:51.691700	12.6	23.6	-75.4	0.0
2025-01-24 09:16:52.816171	12.5	23.8	-75.8	0.0
2025-01-24 09:16:53.937530	12.5	24.0	-75.6	0.0
2025-01-24 09:16:55.059843	12.5	24.1	-75.3	0.0
2025-01-24 09:16:56.182289	12.4	24.3	-75.2	0.0
2025-01-24 09:16:57.304900	12.4	24.5	-74.8	0.0
2025-01-24 09:16:58.427958	12.3	24.6	-74.9	0.0
2025-01-24 09:16:59.548707	12.3	24.8	-75.4	0.0
2025-01-24 09:17:00.670945	12.3	25.0	-75.1	0.0
2025-01-24 09:17:01.792970	12.2	25.2	-75.1	0.0
2025-01-24 09:17:02.915544	12.2	25.3	-75.0	0.0
2025-01-24 09:17:04.037710	12.1	25.5	-75.4	0.0
2025-01-24 09:17:05.159779	12.1	25.7	-75.6	0.0
2025-01-24 09:17:06.280276	12.1	25.9	-75.0	0.0
2025-01-24 09:17:07.401564	12.0	26.1	-75.1	0.0
2025-01-24 09:17:08.525373	12.0	26.2	-75.0	0.0
2025-01-24 09:17:09.646371	11.9	26.4	-75.6	0.0
2025-01-24 09:17:10.768541	11.9	26.6	-74.9	0.0
2025-01-24 09:17:11.891883	11.9	26.8	-75.1	0.0
2025-01-24 09:17:13.014398	11.8	27.0	-75.1	0.0
2025-01-24 09:17:14.138399	11.8	27.2	-74.1	0.0
2025-01-24 09:17:15.261723	11.7	27.4	-74.5	0.0
2025-01-24 09:17:16.386320	11.7	27.5	-75.0	0.0
2025-01-24 09:17:17.509810	11.6	27.7	-74.1	0.0
2025-01-24 09:17:18.633610	11.6	27.9	-74.8	0.0
2025-01-24 09:17:19.757439	11.5	28.1	-74.9	0.0
2025-01-24 09:17:20.879677	11.5	28.3	-74.5	0.0
2025-01-24 09:17:22.004388	11.4	28.5	-74.6	0.0
2025-01-24 09:17:23.127900	11.4	28.7	-75.1	0.0
2025-01-24 09:17:24.251056	11.3	28.9	-75.1	0.0
2025-01-24 09:17:25.372641	11.3	29.1	-74.8	0.0
2025-01-24 09:17:26.497002	11.2	29.3	-75.0	0.0
2025-01-24 09:17:27.620991	11.2	29.5	-74.9	0.0
2025-01-24 09:17:28.742615	11.1	29.7	-75.3	0.0
2025-01-24 09:17:29.865989	11.1	29.9	-75.3	0.0
2025-01-24 09:17:30.989703	11.0	30.2	-74.9	0.0
2025-01-24 09:17:32.113286	11.0	30.4	-75.4	0.0
2025-01-24 09:17:33.236281	10.9	30.6	-75.3	0.0
2025-01-24 09:17:34.358126	10.8	30.8	-75.3	0.0
2025-01-24 09:17:35.481686	10.8	31.0	-74.9	0.0
2025-01-24 09:17:36.604286	10.7	31.2	-74.9	0.0
2025-01-24 09:17:37.726837	10.7	31.4	-75.2	0.0
2025-01-24 09:17:38.850052	10.6	31.7	-75.9	0.0
2025-01-24 09:17:39.971733	10.5	31.9	-75.5	0.0
2025-01-24 09:17:41.094374	10.5	32.1	-75.3	0.0
2025-01-24 09:17:42.217667	10.4	32.3	-74.7	0.0
2025-01-24 09:17:43.339879	10.4	32.6	-74.4	0.0
2025-01-24 09:17:44.462107	10.3	32.8	-75.3	0.0
2025-01-24 09:17:45.585220	10.2	33.0	-76.0	0.0
2025-01-24 09:17:46.709727	10.2	33.3	-75.8	0.0
2025-01-24 09:17:47.833625	10.1	33.5	-76.1	0.0
2025-01-24 09:17:48.957467	10.0	33.7	-75.5	0.0
2025-01-24 09:17:50.080567	9.9	34.0	-75.5	0.0
2025-01-24 09:17:51.202505	9.9	34.2	-75.6	0.0
2025-01-24 09:17:52.324295	9.8	34.4	-75.1	0.0
2025-01-24 09:17:53.447711	9.7	34.7	-75.8	0.0
2025-01-24 09:17:54.569873	9.7	34.9	-75.1	0.0
2025-01-24 09:17:55.693137	9.6	35.2	-75.8	0.0
2025-01-24 09:17:56.813956	9.5	35.4	-75.6	0.0
2025-01-24 09:17:57.938460	9.4	35.7	-75.4	0.0
2025-01-24 09:17:59.061685	9.3	35.9	-75.7	0.0
2025-01-24 09:18:00.186688	9.3	36.2	-76.2	0.0
2025-01-24 09:18:01.309781	9.2	36.4	-75.5	0.0
2025-01-24 09:18:02.433987	9.1	36.7	-75.0	0.0
2025-01-24 09:18:03.558601	9.0	36.9	-75.3	0.0
2025-01-24 09:18:04.680428	8.9	37.2	-75.1	0.0
2025-01-24 09:18:05.804852	8.8	37.5	-75.4	0.0
2025-01-24 09:18:06.929436	8.7	37.7	-75.3	0.0
2025-01-24 09:18:08.052681	8.6	38.0	-75.9	0.0
2025-01-24 09:18:09.175592	8.6	38.3	-75.8	0.0
2025-01-24 09:18:10.300045	8.5	38.5	-75.7	0.0
2025-01-24 09:18:11.424244	8.4	38.8	-75.0	0.0
2025-01-24 09:18:12.546340	8.3	39.1	-75.4	0.0
2025-01-24 09:18:13.669687	8.2	39.4	-76.0	0.0
2025-01-24 09:18:14.794139	8.1	39.7	-75.9	0.0
2025-01-24 09:18:15.917485	8.0	39.9	-75.9	0.0
2025-01-24 09:18:17.042168	7.9	40.2	-75.4	0.0
2025-01-24 09:18:18.164939	7.7	40.5	-75.9	0.0
2025-01-24 09:18:19.288212	7.6	40.8	-75.7	0.0
2025-01-24 09:18:20.411130	7.5	41.1	-76.1	0.0
2025-01-24 09:18:21.533052	7.4	41.4	-76.0	0.0
2025-01-24 09:18:22.655910	7.3	41.7	-75.6	0.0
2025-01-24 09:18:23.779998	7.2	42.0	-76.3	0.0
2025-01-24 09:18:24.905555	7.1	42.3	-75.8	0.0
2025-01-24 09:18:26.027811	6.9	42.6	-75.7	0.0
2025-01-24 09:18:27.151098	6.8	42.9	-75.6	0.0
2025-01-24 09:18:28.275341	6.7	43.2	-75.3	0.0
2025-01-24 09:18:29.399099	6.6	43.5	-75.8	0.0
2025-01-24 09:18:30.520897	6.4	43.8	-75.1	0.0
2025-01-24 09:18:31.642509	6.3	44.1	-75.8	0.0
2025-01-24 09:18:32.766197	6.1	44.4	-75.8	0.0
2025-01-24 09:18:33.887049	6.0	44.8	-75.9	0.0
2025-01-24 09:18:35.012945	5.9	45.1	-76.2	0.0
2025-01-24 09:18:36.137367	5.7	45.4	-76.5	0.0
2025-01-24 09:18:37.261524	5.6	45.7	-76.2	0.0
2025-01-24 09:18:38.381942	5.4	46.1	-75.8	0.0
2025-01-24 09:18:39.504768	5.3	46.4	-75.5	0.0
2025-01-24 09:18:40.627658	5.1	46.7	-76.1	0.0
2025-01-24 09:18:41.751175	4.9	47.1	-75.9	0.0
2025-01-24 09:18:42.873025	4.8	47.4	-76.4	0.0
2025-01-24 09:18:43.997792	4.6	47.7	-75.8	0.0
2025-01-24 09:18:45.121977	4.4	48.1	-75.6	0.0
2025-01-24 09:18:46.241370	4.2	48.4	-75.5	0.0
2025-01-24 09:18:47.364586	4.1	48.8	-75.4	0.0
2025-01-24 09:18:48.486965	3.9	49.1	-75.9	0.0
2025-01-24 09:18:49.610131	3.7	49.5	-76.3	0.0
2025-01-24 09:18:50.732392	3.5	49.8	-75.9	0.0
2025-01-24 09:18:51.855516	3.3	50.2	-76.1	0.0
2025-01-24 09:18:52.978593	3.1	50.6	-75.8	0.0
2025-01-24 09:18:54.102715	2.9	50.9	-75.9	0.0
2025-01-24 09:18:55.227131	2.7	51.3	-75.8	0.0
2025-01-24 09:18:56.351058	2.4	51.7	-76.2	0.0
2025-01-24 09:18:57.473673	2.2	52.0	-76.2	0.0
2025-01-24 09:18:58.596961	2.0	52.4	-75.0	0.0
2025-01-24 09:18:59.718458	1.7	52.8	-75.9	0.0
2025-01-24 09:19:00.842312	1.5	53.2	-76.0	0.0
2025-01-24 09:19:01.966286	1.2	53.5	-75.5	0.0
2025-01-24 09:19:03.088763	1.0	53.9	-76.1	0.0
2025-01-24 09:19:04.211588	0.7	54.3	-76.0	0.0
2025-01-24 09:19:05.333819	0.4	54.7	-75.9	0.0
2025-01-24 09:19:06.455916	0.2	55.1	-75.8	0.0
2025-01-24 09:19:07.579404	359.9	55.5	-75.5	0.0
2025-01-24 09:19:08.703603	359.6	55.9	-75.8	0.0
2025-01-24 09:19:09.827197	359.3	56.3	-75.9	0.0
2025-01-24 09:19:10.949666	358.9	56.7	-75.9	0.0
2025-01-24 09:19:12.074368	358.6	57.1	-75.6	0.0
2025-01-24 09:19:13.197778	358.3	57.5	-75.9	0.0
2025-01-24 09:19:14.321445	357.9	57.9	-75.8	0.0
2025-01-24 09:19:15.443688	357.6	58.3	-76.0	0.0
2025-01-24 09:19:16.565994	357.2	58.7	-76.0	0.0
2025-01-24 09:19:17.689575	356.8	59.1	-76.2	0.0
2025-01-24 09:19:18.811547	356.5	59.5	-76.4	0.0
2025-01-24 09:19:19.935534	356.0	59.9	-76.4	0.0
2025-01-24 09:19:21.058868	355.6	60.3	-76.1	0.0
2025-01-24 09:19:22.182429	355.2	60.7	-76.6	0.0
2025-01-24 09:19:23.306240	354.8	61.1	-76.1	0.0
2025-01-24 09:19:24.429509	354.3	61.5	-76.2	0.0
2025-01-24 09:19:25.551874	353.8	62.0	-75.9	0.0
2025-01-24 09:19:26.676358	353.3	62.4	-75.9	0.0
2025-01-24 09:19:27.800999	352.8	62.8	-75.7	0.0
2025-01-24 09:19:28.924296	352.3	63.2	-76.0	0.0
2025-01-24 09:19:30.045265	351.8	63.6	-76.0	0.0
2025-01-24 09:19:31.169010	351.2	64.1	-76.2	0.0
2025-01-24 09:19:32.293251	350.6	64.5	-76.3	0.0
2025-01-24 09:19:33.419505	350.0	64.9	-75.5	0.0
2025-01-24 09:19:34.543656	349.4	65.3	-75.8	0.0
2025-01-24 09:19:35.668905	348.7	65.7	-76.3	0.0
2025-01-24 09:19:36.793069	348.0	66.2	-75.9	0.0
2025-01-24 09:19:37.915536	347.3	66.6	-75.8	0.0
2025-01-24 09:19:39.038087	346.6	67.0	-76.1	0.0
2025-01-24 09:19:40.160155	345.8	67.4	-76.4	0.0
2025-01-24 09:19:41.283894	345.0	67.8	-75.9	0.0
2025-01-24 09:19:42.406866	344.2	68.2	-76.0	0.0
2025-01-24 09:19:43.530120	343.3	68.6	-76.0	0.0
2025-01-24 09:19:44.651203	342.4	69.0	-75.9	0.0
2025-01-24 09:19:45.772543	341.5	69.4	-76.5	0.0
2025-01-24 09:19:46.895961	340.5	69.8	-76.0	0.0
2025-01-24 09:19:48.019499	339.5	70.2	-76.3	0.0
2025-01-24 09:19:49.142173	338.4	70.6	-76.0	0.0
2025-01-24 09:19:50.266016	337.3	71.0	-75.8	0.0
2025-01-24 09:19:51.388569	336.1	71.4	-76.1	0.0
2025-01-24 09:19:52.512214	334.9	71.7	-76.0	0.0
2025-01-24 09:19:53.633211	333.6	72.1	-76.1	0.0
2025-01-24 09:19:54.756310	332.3	72.5	-75.9	0.0
2025-01-24 09:19:55.880816	330.9	72.8	-76.0	0.0
2025-01-24 09:19:57.003667	329.5	73.2	-76.4	0.0
2025-01-24 09:19:58.127680	328.0	73.5	-76.1	0.0
2025-01-24 09:19:59.248880	326.4	73.8	-76.0	0.0
2025-01-24 09:20:00.373694	324.8	74.1	-76.2	0.0
2025-01-24 09:20:01.498581	323.1	74.4	-76.0	0.0
2025-01-24 09:20:02.620474	321.3	74.7	-75.7	0.0
2025-01-24 09:20:03.743699	319.5	75.0	-76.2	0.0
2025-01-24 09:20:04.866064	317.6	75.2	-76.3	0.0
2025-01-24 09:20:05.989940	315.6	75.5	-76.4	0.0
2025-01-24 09:20:07.113382	313.6	75.7	-76.5	0.0
2025-01-24 09:20:08.234511	311.5	75.9	-76.1	0.0
2025-01-24 09:20:09.357191	309.4	76.1	-76.3	0.0
2025-01-24 09:20:10.479355	307.2	76.2	-76.1	0.0
2025-01-24 09:20:11.605503	304.9	76.4	-76.4	0.0
2025-01-24 09:20:12.727786	302.6	76.5	-76.4	0.0
2025-01-24 09:20:13.850831	300.2	76.6	-76.4	0.0
2025-01-24 09:20:14.972901	297.8	76.7	-76.0	0.0
2025-01-24 09:20:16.094007	295.4	76.7	-76.4	0.0
2025-01-24 09:20:17.216778	293.0	76.8	-76.3	0.0
2025-01-24 09:20:18.340315	290.5	76.8	-76.4	0.0
2025-01-24 09:20:19.465471	288.1	76.8	-76.0	0.0
2025-01-24 09:20:20.589289	285.7	76.8	-76.3	0.0
2025-01-24 09:20:21.713899	283.2	76.7	-76.1	0.0
2025-01-24 09:20:22.838276	280.9	76.6	-76.2	0.0
2025-01-24 09:20:23.961489	278.5	76.5	-76.0	0.0
2025-01-24 09:20:25.083618	276.2	76.4	-76.0	0.0
2025-01-24 09:20:26.204656	273.9	76.2	-76.0	0.0
2025-01-24 09:20:27.329363	271.7	76.1	-76.3	0.0
2025-01-24 09:20:28.451736	269.5	75.9	-76.2	0.0
2025-01-24 09:20:29.574502	267.4	75.7	-76.3	0.0
2025-01-24 09:20:30.697112	265.4	75.5	-75.9	0.0
2025-01-24 09:20:31.818193	263.4	75.2	-75.8	0.0
2025-01-24 09:20:32.942164	261.5	75.0	-75.9	0.0
2025-01-24 09:20:34.063819	259.7	74.7	-76.1	0.0
2025-01-24 09:20:35.186256	257.9	74.4	-76.6	0.0
2025-01-24 09:20:36.308522	256.2	74.1	-76.4	0.0
2025-01-24 09:20:37.431442	254.6	73.8	-76.3	0.0
2025-01-24 09:20:38.553812	253.0	73.5	-76.1	0.0
2025-01-24 09:20:39.676388	251.5	73.2	-76.6	0.0
2025-01-24 09:20:40.800656	250.1	72.8	-76.4	0.0
2025-01-24 09:20:41.925259	248.7	72.5	-76.2	0.0
2025-01-24 09:20:43.047252	247.4	72.1	-76.4	0.0
2025-01-24 09:20:44.172185	246.1	71.8	-76.6	0.0
2025-01-24 09:20:45.296075	244.9	71.4	-76.3	0.0
2025-01-24 09:20:46.421027	243.7	71.0	-76.2	0.0
2025-01-24 09:20:47.543851	242.6	70.6	-76.5	0.0
2025-01-24 09:20:48.666862	241.5	70.2	-76.3	0.0
2025-01-24 09:20:49.791024	240.5	69.8	-76.6	0.0
2025-01-24 09:20:50.914595	239.5	69.4	-76.1	0.0
2025-01-24 09:20:52.036742	238.6	69.0	-76.0	0.0
2025-01-24 09:20:53.160151	237.7	68.6	-75.9	0.0
2025-01-24 09:20:54.284338	236.8	68.2	-76.3	0.0
2025-01-24 09:20:55.406965	235.9	67.8	-76.7	0.0
2025-01-24 09:20:56.531128	235.1	67.4	-76.5	0.0
2025-01-24 09:20:57.652998	234.4	67.0	-76.5	0.0
2025-01-24 09:20:58.775222	233.6	66.6	-76.6	0.0
2025-01-24 09:20:59.897070	232.9	66.1	-76.7	0.0
2025-01-24 09:21:01.019536	232.2	65.7	-76.3	0.0
2025-01-24 09:21:02.142289	231.6	65.3	-76.2	0.0
2025-01-24 09:21:03.264699	231.0	64.9	-76.4	0.0
2025-01-24 09:21:04.385435	230.3	64.5	-76.9	0.0
2025-01-24 09:21:05.508142	229.8	64.0	-75.8	0.0
2025-01-24 09:21:06.628506	229.2	63.6	-76.3	0.0
2025-01-24 09:21:07.750925	228.6	63.2	-76.5	0.0
2025-01-24 09:21:08.874376	228.1	62.8	-76.2	0.0
2025-01-24 09:21:09.997410	227.6	62.4	-76.2	0.0
2025-01-24 09:21:11.119518	227.1	61.9	-76.5	0.0
2025-01-24 09:21:12.243269	226.6	61.5	-76.3	0.0
2025-01-24 09:21:13.364469	226.2	61.1	-76.0	0.0
2025-01-24 09:21:14.486878	225.7	60.7	-76.1	0.0
2025-01-24 09:21:15.610327	225.3	60.3	-76.8	0.0
2025-01-24 09:21:16.732475	224.9	59.9	-76.6	0.0
2025-01-24 09:21:17.855708	224.5	59.5	-76.9	0.0
2025-01-24 09:21:18.979435	224.1	59.0	-76.0	0.0
2025-01-24 09:21:20.100996	223.7	58.6	-76.9	0.0
2025-01-24 09:21:21.225008	223.3	58.2	-76.9	0.0
2025-01-24 09:21:22.347586	223.0	57.8	-76.2	0.0
2025-01-24 09:21:23.471445	222.6	57.4	-76.1	0.0
2025-01-24 09:21:24.593754	222.3	57.0	-76.4	0.0
2025-01-24 09:21:25.716892	222.0	56.6	-76.4	0.0
2025-01-24 09:21:26.840338	221.7	56.2	-76.5	0.0
2025-01-24 09:21:27.963118	221.4	55.8	-76.7	0.0
2025-01-24 09:21:29.084540	221.1	55.4	-76.6	0.0
2025-01-24 09:21:30.208738	220.8	55.0	-76.5	0.0
2025-01-24 09:21:31.331752	220.5	54.6	-76.3	0.0
2025-01-24 09:21:32.452964	220.2	54.2	-76.3	0.0
2025-01-24 09:21:33.574990	219.9	53.9	-76.0	0.0
2025-01-24 09:21:34.697459	219.7	53.5	-76.3	0.0
2025-01-24 09:21:35.819520	219.4	53.1	-76.2	0.0
2025-01-24 09:21:36.941752	219.2	52.7	-76.5	0.0
2025-01-24 09:21:38.065609	218.9	52.3	-76.3	0.0
2025-01-24 09:21:39.188875	218.7	52.0	-76.4	0.0
2025-01-24 09:21:40.311275	218.5	51.6	-76.8	0.0
2025-01-24 09:21:41.433234	218.3	51.2	-76.5	0.0
2025-01-24 09:21:42.555640	218.0	50.9	-76.0	0.0
2025-01-24 09:21:43.678234	217.8	50.5	-76.2	0.0
2025-01-24 09:21:44.801653	217.6	50.1	-76.6	0.0
2025-01-24 09:21:45.924041	217.4	49.8	-76.5	0.0
2025-01-24 09:21:47.048171	217.2	49.4	-76.2	0.0
2025-01-24 09:21:48.170831	217.0	49.1	-76.9	0.0
2025-01-24 09:21:49.293414	216.8	48.7	-76.4	0.0
2025-01-24 09:21:50.416341	216.7	48.4	-76.2	0.0
2025-01-24 09:21:51.538638	216.5	48.0	-76.2	0.0
2025-01-24 09:21:52.661783	216.3	47.7	-75.9	0.0
2025-01-24 09:21:53.786072	216.1	47.3	-76.3	0.0
2025-01-24 09:21:54.907495	216.0	47.0	-76.3	0.0
2025-01-24 09:21:56.029772	215.8	46.6	-76.3	0.0
2025-01-24 09:21:57.154425	215.6	46.3	-76.1	0.0
2025-01-24 09:21:58.277090	215.5	46.0	-76.5	0.0
2025-01-24 09:21:59.400755	215.3	45.6	-76.5	0.0
2025-01-24 09:22:00.524262	215.2	45.3	-75.8	0.0
2025-01-24 09:22:01.647674	215.0	45.0	-75.9	0.0
2025-01-24 09:22:02.769851	214.9	44.7	-76.2	0.0
2025-01-24 09:22:03.891060	214.7	44.3	-76.1	0.0
2025-01-24 09:22:05.012475	214.6	44.0	-76.4	0.0
2025-01-24 09:22:06.134831	214.5	43.7	-76.3	0.0
2025-01-24 09:22:07.256579	214.3	43.4	-76.2	0.0
2025-01-24 09:22:08.379073	214.2	43.1	-75.8	0.0
2025-01-24 09:22:09.503640	214.1	42.8	-76.3	0.0
2025-01-24 09:22:10.627928	214.0	42.5	-76.2	0.0
2025-01-24 09:22:11.749789	213.8	42.2	-75.8	0.0
2025-01-24 09:22:12.873489	213.7	41.9	-76.1	0.0
2025-01-24 09:22:13.997774	213.6	41.6	-76.1	0.0
2025-01-24 09:22:15.120863	213.5	41.3	-76.3	0.0
2025-01-24 09:22:16.243773	213.4	41.0	-76.5	0.0
2025-01-24 09:22:17.365346	213.3	40.7	-76.1	0.0
2025-01-24 09:22:18.486892	213.1	40.4	-76.0	0.0
2025-01-24 09:22:19.611265	213.0	40.1	-76.3	0.0
2025-01-24 09:22:20.735768	212.9	39.8	-75.9	0.0
2025-01-24 09:22:21.859700	212.8	39.5	-76.3	0.0
2025-01-24 09:22:22.980762	212.7	39.2	-76.0	0.0
2025-01-24 09:22:24.103395	212.6	39.0	-76.0	0.0
2025-01-24 09:22:25.227234	212.5	38.7	-75.9	0.0
2025-01-24 09:22:26.347799	212.4	38.4	-76.0	0.0
2025-01-24 09:22:27.471670	212.3	38.1	-75.6	0.0
2025-01-24 09:22:28.595728	212.2	37.9	-76.2	0.0
2025-01-24 09:22:29.717830	212.1	37.6	-76.6	0.0
2025-01-24 09:22:30.841172	212.1	37.3	-76.1	0.0
2025-01-24 09:22:31.966736	212.0	37.1	-75.9	0.0
2025-01-24 09:22:33.089932	211.9	36.8	-76.0	0.0
2025-01-24 09:22:34.212097	211.8	36.5	-76.4	0.0
2025-01-24 09:22:35.333589	211.7	36.3	-76.3	0.0
2025-01-24 09:22:36.457004	211.6	36.0	-76.1	0.0
2025-01-24 09:22:37.579883	211.5	35.8	-75.7	0.0
2025-01-24 09:22:38.702944	211.5	35.5	-75.9	0.0
2025-01-24 09:22:39.827822	211.4	35.3	-76.7	0.0
2025-01-24 09:22:40.948271	211.3	35.0	-76.0	0.0
2025-01-24 09:22:42.071127	211.2	34.8	-76.3	0.0
2025-01-24 09:22:43.192801	211.2	34.5	-75.9	0.0
2025-01-24 09:22:44.316405	211.1	34.3	-75.7	0.0
2025-01-24 09:22:45.439641	211.0	34.0	-76.3	0.0
2025-01-24 09:22:46.565747	210.9	33.8	-76.2	0.0
2025-01-24 09:22:47.687702	210.9	33.6	-76.4	0.0
2025-01-24 09:22:48.811045	210.8	33.3	-76.3	0.0
2025-01-24 09:22:49.935970	210.7	33.1	-76.1	0.0
2025-01-24 09:22:51.059569	210.7	32.8	-76.3	0.0
2025-01-24 09:22:52.181351	210.6	32.6	-76.4	0.0
2025-01-24 09:22:53.307746	210.5	32.4	-76.0	0.0
2025-01-24 09:22:54.430707	210.5	32.2	-76.0	0.0
2025-01-24 09:22:55.552439	210.4	31.9	-76.1	0.0
2025-01-24 09:22:56.674375	210.3	31.7	-76.2	0.0
2025-01-24 09:22:57.797676	210.3	31.5	-76.0	0.0
2025-01-24 09:22:58.919872	210.2	31.3	-76.0	0.0
2025-01-24 09:23:00.043700	210.1	31.0	-76.2	0.0
2025-01-24 09:23:01.166838	210.1	30.8	-75.9	0.0
2025-01-24 09:23:02.290876	210.0	30.6	-76.0	0.0
2025-01-24 09:23:03.412840	210.0	30.4	-76.0	0.0
2025-01-24 09:23:04.534172	209.9	30.2	-76.2	0.0
2025-01-24 09:23:05.658116	209.9	30.0	-76.2	0.0
2025-01-24 09:23:06.781734	209.8	29.8	-76.4	0.0
2025-01-24 09:23:07.905010	209.7	29.6	-76.2	0.0
2025-01-24 09:23:09.027341	209.7	29.3	-76.0	0.0
2025-01-24 09:23:10.148879	209.6	29.1	-76.2	0.0
2025-01-24 09:23:11.273630	209.6	28.9	-76.1	0.0
2025-01-24 09:23:12.396183	209.5	28.7	-75.8	0.0
2025-01-24 09:23:13.519217	209.5	28.5	-76.4	0.0
2025-01-24 09:23:14.640127	209.4	28.3	-76.3	0.0
2025-01-24 09:23:15.763373	209.4	28.1	-76.2	0.0
2025-01-24 09:23:16.886299	209.3	27.9	-76.3	0.0
2025-01-24 09:23:18.009863	209.3	27.7	-76.4	0.0
2025-01-24 09:23:19.133609	209.2	27.5	-76.4	0.0
2025-01-24 09:23:20.256173	209.2	27.3	-76.2	0.0
2025-01-24 09:23:21.379097	209.1	27.2	-76.2	0.0
2025-01-24 09:23:22.503102	209.1	27.0	-75.4	0.0
2025-01-24 09:23:23.627578	209.0	26.8	-76.2	0.0
2025-01-24 09:23:24.750647	209.0	26.6	-76.2	0.0
2025-01-24 09:23:25.875452	209.0	26.4	-76.3	0.0
2025-01-24 09:23:26.998277	208.9	26.2	-76.0	0.0
2025-01-24 09:23:28.118683	208.9	26.0	-76.7	0.0
2025-01-24 09:23:29.241367	208.8	25.8	-76.4	0.0
2025-01-24 09:23:30.363799	208.8	25.7	-76.2	0.0
2025-01-24 09:23:31.487825	208.7	25.5	-76.4	0.0
2025-01-24 09:23:32.612540	208.7	25.3	-76.1	0.0
2025-01-24 09:23:33.735354	208.7	25.1	-76.4	0.0
2025-01-24 09:23:34.858669	208.6	24.9	-76.2	0.0
2025-01-24 09:23:35.979942	208.6	24.8	-76.4	0.0
2025-01-24 09:23:37.104620	208.5	24.6	-76.0	0.0
2025-01-24 09:23:38.227582	208.5	24.4	-76.4	0.0
2025-01-24 09:23:39.349500	208.5	24.3	-76.2	0.0
2025-01-24 09:23:40.471318	208.4	24.1	-76.4	0.0
2025-01-24 09:23:41.592134	208.4	23.9	-75.9	0.0
2025-01-24 09:23:42.715096	208.4	23.7	-76.3	0.0
2025-01-24 09:23:43.839339	208.3	23.6	-76.5	0.0
2025-01-24 09:23:44.964079	208.3	23.4	-76.7	0.0
2025-01-24 09:23:46.087657	208.2	23.2	-76.7	0.0
2025-01-24 09:23:47.212408	208.2	23.1	-75.8	0.0
2025-01-24 09:23:48.337480	208.2	22.9	-76.7	0.0
2025-01-24 09:23:49.460071	208.1	22.7	-76.4	0.0
2025-01-24 09:23:50.581776	208.1	22.6	-75.8	0.0
2025-01-24 09:23:51.707583	208.1	22.4	-76.2	0.0
2025-01-24 09:23:52.829007	208.0	22.3	-76.2	0.0
2025-01-24 09:23:53.949829	208.0	22.1	-76.8	0.0
2025-01-24 09:23:55.071875	208.0	21.9	-76.6	0.0
2025-01-24 09:23:56.193504	207.9	21.8	-76.6	0.0
2025-01-24 09:23:57.315993	207.9	21.6	-76.4	0.0
2025-01-24 09:23:58.437292	207.9	21.5	-76.5	0.0
2025-01-24 09:23:59.558620	207.8	21.3	-76.3	0.0
2025-01-24 09:24:00.678983	207.8	21.2	-76.7	0.0
2025-01-24 09:24:01.801260	207.8	21.0	-76.1	0.0
2025-01-24 09:24:02.923144	207.7	20.9	-76.0	0.0
2025-01-24 09:24:04.044011	207.7	20.7	-76.6	0.0
2025-01-24 09:24:05.167045	207.7	20.6	-76.6	0.0
2025-01-24 09:24:06.292533	207.7	20.4	-76.4	0.0
2025-01-24 09:24:07.414778	207.6	20.3	-76.4	0.0
2025-01-24 09:24:08.538029	207.6	20.1	-76.6	0.0
2025-01-24 09:24:09.661896	207.6	20.0	-76.8	0.0
2025-01-24 09:24:10.785078	207.5	19.8	-76.1	0.0
2025-01-24 09:24:11.908326	207.5	19.7	-76.0	0.0
2025-01-24 09:24:13.030480	207.5	19.5	-76.3	0.0
2025-01-24 09:24:14.155308	207.5	19.4	-76.2	0.0
2025-01-24 09:24:15.276817	207.4	19.3	-76.5	0.0
2025-01-24 09:24:16.399556	207.4	19.1	-76.4	0.0
2025-01-24 09:24:17.524040	207.4	19.0	-76.2	0.0
2025-01-24 09:24:18.648013	207.4	18.8	-76.1	0.0
2025-01-24 09:24:19.771522	207.3	18.7	-76.9	0.0
2025-01-24 09:24:20.893002	207.3	18.6	-76.5	0.0
2025-01-24 09:24:22.015534	207.3	18.4	-76.1	0.0
2025-01-24 09:24:23.138165	207.3	18.3	-76.2	0.0
2025-01-24 09:24:24.260069	207.2	18.1	-77.1	0.0
2025-01-24 09:24:25.382928	207.2	18.0	-76.4	0.0
2025-01-24 09:24:26.506422	207.2	17.9	-76.3	0.0
2025-01-24 09:24:27.631439	207.2	17.7	-76.3	0.0
2025-01-24 09:24:28.756121	207.1	17.6	-76.3	0.0
2025-01-24 09:24:29.881948	207.1	17.5	-76.9	0.0
2025-01-24 09:24:31.003468	207.1	17.3	-76.7	0.0
2025-01-24 09:24:32.126105	207.1	17.2	-76.7	0.0
2025-01-24 09:24:33.248183	207.0	17.1	-76.5	0.0
2025-01-24 09:24:34.371906	207.0	17.0	-76.0	0.0
2025-01-24 09:24:35.495476	207.0	16.8	-76.4	0.0
2025-01-24 09:24:36.618459	207.0	16.7	-76.6	0.0
2025-01-24 09:24:37.742845	206.9	16.6	-76.6	0.0
2025-01-24 09:24:38.864103	206.9	16.4	-76.2	0.0
2025-01-24 09:24:39.987239	206.9	16.3	-76.6	0.0
2025-01-24 09:24:41.109501	206.9	16.2	-76.2	0.0
2025-01-24 09:24:42.231977	206.9	16.1	-75.1	0.0
2025-01-24 09:24:43.354873	206.8	15.9	-76.2	0.0
2025-01-24 09:24:44.478719	206.8	15.8	-76.7	0.0
2025-01-24 09:24:45.601505	206.8	15.7	-76.3	0.0
2025-01-24 09:24:46.725142	206.8	15.6	-76.4	0.0
2025-01-24 09:24:47.847982	206.8	15.4	-75.8	0.0
2025-01-24 09:24:48.970175	206.7	15.3	-76.0	0.0
2025-01-24 09:24:50.093290	206.7	15.2	-76.4	0.0
2025-01-24 09:24:51.214925	206.7	15.1	-75.9	0.0
2025-01-24 09:24:52.337705	206.7	15.0	-76.1	0.0
2025-01-24 09:24:53.462859	206.7	14.8	-75.9	0.0
2025-01-24 09:24:54.587067	206.6	14.7	-75.7	0.0
2025-01-24 09:24:55.713228	206.6	14.6	-75.9	0.0
2025-01-24 09:24:56.835218	206.6	14.5	-76.1	0.0
2025-01-24 09:24:57.957379	206.6	14.4	-76.1	0.0
2025-01-24 09:24:59.079965	206.6	14.3	-76.0	0.0
2025-01-24 09:25:00.200930	206.5	14.1	-75.5	0.0
2025-01-24 09:25:01.323498	206.5	14.0	-75.5	0.0
2025-01-24 09:25:02.445252	206.5	13.9	-76.1	0.0
2025-01-24 09:25:03.567452	206.5	13.8	-76.0	0.0
2025-01-24 09:25:04.691086	206.5	13.7	-76.2	0.0
2025-01-24 09:25:05.814079	206.5	13.6	-76.1	0.0
2025-01-24 09:25:06.935710	206.4	13.5	-76.0	0.0
2025-01-24 09:25:08.058774	206.4	13.4	-75.7	0.0
2025-01-24 09:25:09.180610	206.4	13.2	-76.5	0.0
2025-01-24 09:25:10.302797	206.4	13.1	-76.2	0.0
2025-01-24 09:25:11.423927	206.4	13.0	-76.0	0.0
2025-01-24 09:25:12.544919	206.4	12.9	-75.9	0.0
2025-01-24 09:25:13.665420	206.3	12.8	-76.0	0.0
2025-01-24 09:25:14.787775	206.3	12.7	-76.3	0.0
2025-01-24 09:25:15.909864	206.3	12.6	-76.0	0.0
2025-01-24 09:25:17.031678	206.3	12.5	-76.1	0.0
2025-01-24 09:25:18.154829	206.3	12.4	-76.1	0.0
2025-01-24 09:25:19.279589	206.3	12.3	-75.7	0.0
2025-01-24 09:25:20.402478	206.2	12.2	-76.0	0.0
2025-01-24 09:25:21.525872	206.2	12.0	-75.9	0.0
2025-01-24 09:25:22.649496	206.2	11.9	-75.5	0.0
2025-01-24 09:25:23.774179	206.2	11.8	-76.3	0.0
2025-01-24 09:25:24.899019	206.2	11.7	-75.9	0.0
2025-01-24 09:25:26.022150	206.2	11.6	-76.0	0.0
2025-01-24 09:25:27.143588	206.1	11.5	-76.3	0.0
2025-01-24 09:25:28.266430	206.1	11.4	-76.0	0.0
2025-01-24 09:25:29.390316	206.1	11.3	-76.3	0.0
2025-01-24 09:25:30.513787	206.1	11.2	-75.3	0.0
2025-01-24 09:25:31.636791	206.1	11.1	-75.5	0.0
2025-01-24 09:25:32.759626	206.1	11.0	-76.1	0.0
2025-01-24 09:25:33.883271	206.1	10.9	-75.8	0.0
2025-01-24 09:25:35.004791	206.0	10.8	-75.8	0.0
2025-01-24 09:25:36.128126	206.0	10.7	-76.2	0.0
2025-01-24 09:25:37.249528	206.0	10.6	-76.3	0.0
2025-01-24 09:25:38.372738	206.0	10.5	-75.7	0.0
2025-01-24 09:25:39.498189	206.0	10.4	-75.8	0.0
2025-01-24 09:25:40.621349	206.0	10.3	-76.3	0.0
2025-01-24 09:25:41.744189	206.0	10.2	-75.8	0.0
2025-01-24 09:25:42.869647	206.0	10.1	-76.0	0.0
#Closed at: 2025-01-24 09:14:44.377353