passes_logs/2025/01/24/planumMaritime01/planumMaritime01__20250124_015711_METEOR-M2_2_rec.log

#Pass ID: 20250124_015711_METEOR-M2 2
#Satellite: METEOR-M2 2
#Configuration: METEOR-M2 2
#Start time: 2025-01-24 01:57:16.676025

#LorettStation: 1.0.0 05.05.2024
#Station: planumMaritime01
#Location: 37.49445 lon 55.92918 lat
#TLE: 1 44387U 19038A   25023.85032452  .00000409  00000+0  19745-3 0  9999
#TLE: 2 44387  98.8577   0.3146 0002179  65.3887 294.7518 14.24123988288794

#Time	Az	El	Level	SNR
2025-01-24 01:57:18.836626	18.4	10.2	-78.2	0.0
2025-01-24 01:57:19.959296	18.4	10.3	-78.1	0.0
2025-01-24 01:57:21.083356	18.4	10.4	-78.3	0.0
2025-01-24 01:57:22.207069	18.4	10.5	-78.4	0.0
2025-01-24 01:57:23.332240	18.4	10.6	-78.3	0.0
2025-01-24 01:57:24.454852	18.4	10.7	-78.3	0.0
2025-01-24 01:57:25.578359	18.5	10.8	-78.3	0.0
2025-01-24 01:57:26.701116	18.5	10.9	-78.4	0.0
2025-01-24 01:57:27.823455	18.5	11.0	-78.4	0.0
2025-01-24 01:57:28.948132	18.5	11.1	-78.4	0.0
2025-01-24 01:57:30.071412	18.5	11.2	-78.5	0.0
2025-01-24 01:57:31.195364	18.5	11.3	-78.6	0.0
2025-01-24 01:57:32.319456	18.6	11.4	-78.4	0.0
2025-01-24 01:57:33.441977	18.6	11.5	-78.4	0.0
2025-01-24 01:57:34.564448	18.6	11.6	-78.0	0.0
2025-01-24 01:57:35.686683	18.6	11.7	-78.0	0.0
2025-01-24 01:57:36.810901	18.6	11.8	-78.3	0.0
2025-01-24 01:57:37.932329	18.6	11.9	-78.3	0.0
2025-01-24 01:57:39.055363	18.7	12.0	-78.3	0.0
2025-01-24 01:57:40.178914	18.7	12.1	-78.2	0.0
2025-01-24 01:57:41.300891	18.7	12.2	-78.6	0.0
2025-01-24 01:57:42.426464	18.7	12.3	-78.6	0.0
2025-01-24 01:57:43.547369	18.7	12.5	-78.6	0.0
2025-01-24 01:57:44.671004	18.8	12.6	-78.5	0.0
2025-01-24 01:57:45.794686	18.8	12.7	-78.5	0.0
2025-01-24 01:57:46.918146	18.8	12.8	-78.3	0.0
2025-01-24 01:57:48.041242	18.8	12.9	-78.2	0.0
2025-01-24 01:57:49.164458	18.8	13.0	-78.5	0.0
2025-01-24 01:57:50.287917	18.8	13.1	-78.4	0.0
2025-01-24 01:57:51.413614	18.9	13.2	-78.5	0.0
2025-01-24 01:57:52.535407	18.9	13.3	-78.5	0.0
2025-01-24 01:57:53.658831	18.9	13.4	-78.3	0.0
2025-01-24 01:57:54.781365	18.9	13.6	-78.4	0.0
2025-01-24 01:57:55.903927	18.9	13.7	-78.2	0.0
2025-01-24 01:57:57.027518	19.0	13.8	-78.1	0.0
2025-01-24 01:57:58.149446	19.0	13.9	-78.4	0.0
2025-01-24 01:57:59.274369	19.0	14.0	-78.1	0.0
2025-01-24 01:58:00.397132	19.0	14.1	-78.1	0.0
2025-01-24 01:58:01.520151	19.0	14.3	-78.2	0.0
2025-01-24 01:58:02.645408	19.1	14.4	-78.2	0.0
2025-01-24 01:58:03.768421	19.1	14.5	-77.6	0.0
2025-01-24 01:58:04.891461	19.1	14.6	-77.8	0.0
2025-01-24 01:58:06.014689	19.1	14.7	-77.7	0.0
2025-01-24 01:58:07.137062	19.1	14.8	-77.6	0.0
2025-01-24 01:58:08.259618	19.2	15.0	-77.8	0.0
2025-01-24 01:58:09.381785	19.2	15.1	-77.7	0.0
2025-01-24 01:58:10.504744	19.2	15.2	-77.8	0.0
2025-01-24 01:58:11.628793	19.2	15.3	-77.5	0.0
2025-01-24 01:58:12.750869	19.2	15.4	-77.6	0.0
2025-01-24 01:58:13.873066	19.3	15.6	-77.6	0.0
2025-01-24 01:58:14.996955	19.3	15.7	-77.6	0.0
2025-01-24 01:58:16.119053	19.3	15.8	-77.7	0.0
2025-01-24 01:58:17.241356	19.3	15.9	-77.5	0.0
2025-01-24 01:58:18.363836	19.3	16.1	-77.6	0.0
2025-01-24 01:58:19.487439	19.4	16.2	-77.7	0.0
2025-01-24 01:58:20.611521	19.4	16.3	-77.7	0.0
2025-01-24 01:58:21.733132	19.4	16.4	-77.5	0.0
2025-01-24 01:58:22.856245	19.4	16.6	-77.9	0.0
2025-01-24 01:58:23.979778	19.5	16.7	-77.6	0.0
2025-01-24 01:58:25.101930	19.5	16.8	-77.5	0.0
2025-01-24 01:58:26.225042	19.5	17.0	-77.7	0.0
2025-01-24 01:58:27.349744	19.5	17.1	-77.5	0.0
2025-01-24 01:58:28.474782	19.6	17.2	-77.8	0.0
2025-01-24 01:58:29.595369	19.6	17.4	-77.9	0.0
2025-01-24 01:58:30.719319	19.6	17.5	-77.8	0.0
2025-01-24 01:58:31.842137	19.6	17.6	-77.7	0.0
2025-01-24 01:58:32.963519	19.6	17.8	-77.8	0.0
2025-01-24 01:58:34.086479	19.7	17.9	-77.9	0.0
2025-01-24 01:58:35.207502	19.7	18.0	-77.7	0.0
2025-01-24 01:58:36.330838	19.7	18.2	-77.7	0.0
2025-01-24 01:58:37.454075	19.7	18.3	-77.8	0.0
2025-01-24 01:58:38.575003	19.8	18.4	-77.7	0.0
2025-01-24 01:58:39.698113	19.8	18.6	-77.8	0.0
2025-01-24 01:58:40.821326	19.8	18.7	-78.0	0.0
2025-01-24 01:58:41.946328	19.8	18.9	-77.8	0.0
2025-01-24 01:58:43.069087	19.9	19.0	-77.5	0.0
2025-01-24 01:58:44.192260	19.9	19.1	-77.8	0.0
2025-01-24 01:58:45.315664	19.9	19.3	-77.7	0.0
2025-01-24 01:58:46.441018	19.9	19.4	-77.8	0.0
2025-01-24 01:58:47.563418	20.0	19.6	-77.7	0.0
2025-01-24 01:58:48.685446	20.0	19.7	-77.8	0.0
2025-01-24 01:58:49.808084	20.0	19.9	-77.9	0.0
2025-01-24 01:58:50.931576	20.1	20.0	-77.9	0.0
2025-01-24 01:58:52.054044	20.1	20.2	-77.9	0.0
2025-01-24 01:58:53.178047	20.1	20.3	-77.7	0.0
2025-01-24 01:58:54.304086	20.1	20.5	-77.9	0.0
2025-01-24 01:58:55.426598	20.2	20.6	-77.6	0.0
2025-01-24 01:58:56.549772	20.2	20.8	-77.7	0.0
2025-01-24 01:58:57.674313	20.2	20.9	-77.9	0.0
2025-01-24 01:58:58.799211	20.2	21.1	-77.8	0.0
2025-01-24 01:58:59.925919	20.3	21.2	-77.7	0.0
2025-01-24 01:59:01.047792	20.3	21.4	-77.9	0.0
2025-01-24 01:59:02.169573	20.3	21.5	-77.8	0.0
2025-01-24 01:59:03.292121	20.4	21.7	-77.6	0.0
2025-01-24 01:59:04.417235	20.4	21.8	-77.7	0.0
2025-01-24 01:59:05.539165	20.4	22.0	-77.9	0.0
2025-01-24 01:59:06.661949	20.5	22.2	-77.8	0.0
2025-01-24 01:59:07.785368	20.5	22.3	-77.7	0.0
2025-01-24 01:59:08.909880	20.5	22.5	-77.8	0.0
2025-01-24 01:59:10.032401	20.5	22.7	-77.7	0.0
2025-01-24 01:59:11.157057	20.6	22.8	-77.8	0.0
2025-01-24 01:59:12.279558	20.6	23.0	-77.4	0.0
2025-01-24 01:59:13.403339	20.6	23.1	-77.6	0.0
2025-01-24 01:59:14.525947	20.7	23.3	-76.4	0.0
2025-01-24 01:59:15.649518	20.7	23.5	-77.7	0.0
2025-01-24 01:59:16.772612	20.7	23.7	-77.7	0.0
2025-01-24 01:59:17.895507	20.8	23.8	-77.7	0.0
2025-01-24 01:59:19.018811	20.8	24.0	-77.9	0.0
2025-01-24 01:59:20.141213	20.8	24.2	-77.6	0.0
2025-01-24 01:59:21.264206	20.9	24.3	-77.8	0.0
2025-01-24 01:59:22.387408	20.9	24.5	-76.7	0.0
2025-01-24 01:59:23.512765	20.9	24.7	-78.0	0.0
2025-01-24 01:59:24.636059	21.0	24.9	-77.9	0.0
2025-01-24 01:59:25.762403	21.0	25.1	-77.8	0.0
2025-01-24 01:59:26.887527	21.1	25.2	-77.7	0.0
2025-01-24 01:59:28.012399	21.1	25.4	-77.8	0.0
2025-01-24 01:59:29.133475	21.1	25.6	-77.8	0.0
2025-01-24 01:59:30.257856	21.2	25.8	-77.7	0.0
2025-01-24 01:59:31.380363	21.2	26.0	-77.7	0.0
2025-01-24 01:59:32.500931	21.2	26.2	-77.8	0.0
2025-01-24 01:59:33.622053	21.3	26.3	-77.8	0.0
2025-01-24 01:59:34.744089	21.3	26.5	-77.9	0.0
2025-01-24 01:59:35.865800	21.4	26.7	-77.9	0.0
2025-01-24 01:59:36.988801	21.4	26.9	-77.7	0.0
2025-01-24 01:59:38.112141	21.4	27.1	-77.8	0.0
2025-01-24 01:59:39.234867	21.5	27.3	-77.9	0.0
2025-01-24 01:59:40.357231	21.5	27.5	-77.9	0.0
2025-01-24 01:59:41.481980	21.6	27.7	-77.8	0.0
2025-01-24 01:59:42.603947	21.6	27.9	-78.0	0.0
2025-01-24 01:59:43.726538	21.6	28.1	-77.9	0.0
2025-01-24 01:59:44.848714	21.7	28.3	-77.9	0.0
2025-01-24 01:59:45.971917	21.7	28.5	-78.2	0.0
2025-01-24 01:59:47.093856	21.8	28.7	-78.1	0.0
2025-01-24 01:59:48.216285	21.8	28.9	-78.1	0.0
2025-01-24 01:59:49.338224	21.9	29.1	-78.1	0.0
2025-01-24 01:59:50.463414	21.9	29.3	-77.8	0.0
2025-01-24 01:59:51.585255	21.9	29.5	-78.0	0.0
2025-01-24 01:59:52.709237	22.0	29.8	-78.1	0.0
2025-01-24 01:59:53.831290	22.0	30.0	-78.0	0.0
2025-01-24 01:59:54.952792	22.1	30.2	-78.1	0.0
2025-01-24 01:59:56.075320	22.1	30.4	-78.0	0.0
2025-01-24 01:59:57.196656	22.2	30.6	-78.1	0.0
2025-01-24 01:59:58.320830	22.2	30.9	-78.1	0.0
2025-01-24 01:59:59.442883	22.3	31.1	-78.1	0.0
2025-01-24 02:00:00.566696	22.3	31.3	-78.1	0.0
2025-01-24 02:00:01.690208	22.4	31.5	-78.0	0.0
2025-01-24 02:00:02.812612	22.4	31.8	-77.9	0.0
2025-01-24 02:00:03.935216	22.5	32.0	-78.1	0.0
2025-01-24 02:00:05.057307	22.5	32.2	-78.0	0.0
2025-01-24 02:00:06.181608	22.6	32.4	-78.1	0.0
2025-01-24 02:00:07.305123	22.7	32.7	-78.2	0.0
2025-01-24 02:00:08.427148	22.7	32.9	-78.3	0.0
2025-01-24 02:00:09.548307	22.8	33.2	-78.0	0.0
2025-01-24 02:00:10.672027	22.8	33.4	-78.1	0.0
2025-01-24 02:00:11.795682	22.9	33.6	-78.1	0.0
2025-01-24 02:00:12.921401	22.9	33.9	-78.0	0.0
2025-01-24 02:00:14.046270	23.0	34.1	-78.2	0.0
2025-01-24 02:00:15.168318	23.1	34.4	-78.0	0.0
2025-01-24 02:00:16.292061	23.1	34.6	-78.0	0.0
2025-01-24 02:00:17.412849	23.2	34.9	-78.0	0.0
2025-01-24 02:00:18.535169	23.2	35.1	-78.1	0.0
2025-01-24 02:00:19.657789	23.3	35.4	-78.2	0.0
2025-01-24 02:00:20.781399	23.4	35.7	-78.4	0.0
2025-01-24 02:00:21.904609	23.4	35.9	-78.2	0.0
2025-01-24 02:00:23.026670	23.5	36.2	-78.1	0.0
2025-01-24 02:00:24.148392	23.6	36.4	-78.3	0.0
2025-01-24 02:00:25.271311	23.6	36.7	-78.0	0.0
2025-01-24 02:00:26.394579	23.7	37.0	-77.9	0.0
2025-01-24 02:00:27.520330	23.8	37.3	-77.7	0.0
2025-01-24 02:00:28.643433	23.8	37.5	-78.2	0.0
2025-01-24 02:00:29.764255	23.9	37.8	-78.3	0.0
2025-01-24 02:00:30.884747	24.0	38.1	-78.2	0.0
2025-01-24 02:00:32.008932	24.1	38.4	-78.2	0.0
2025-01-24 02:00:33.129542	24.1	38.7	-78.1	0.0
2025-01-24 02:00:34.250935	24.2	38.9	-78.3	0.0
2025-01-24 02:00:35.374130	24.3	39.2	-78.3	0.0
2025-01-24 02:00:36.496625	24.4	39.5	-78.1	0.0
2025-01-24 02:00:37.619964	24.5	39.8	-78.0	0.0
2025-01-24 02:00:38.740937	24.5	40.1	-78.2	0.0
2025-01-24 02:00:39.863406	24.6	40.4	-78.1	0.0
2025-01-24 02:00:40.985654	24.7	40.7	-78.1	0.0
2025-01-24 02:00:42.108188	24.8	41.0	-78.0	0.0
2025-01-24 02:00:43.229181	24.9	41.3	-78.1	0.0
2025-01-24 02:00:44.352873	25.0	41.6	-78.2	0.0
2025-01-24 02:00:45.473954	25.1	41.9	-78.1	0.0
2025-01-24 02:00:46.596970	25.2	42.2	-78.2	0.0
2025-01-24 02:00:47.720026	25.3	42.6	-78.2	0.0
2025-01-24 02:00:48.841662	25.4	42.9	-78.1	0.0
2025-01-24 02:00:49.964390	25.5	43.2	-78.1	0.0
2025-01-24 02:00:51.087452	25.6	43.5	-78.2	0.0
2025-01-24 02:00:52.211352	25.7	43.8	-78.3	0.0
2025-01-24 02:00:53.332902	25.8	44.2	-78.1	0.0
2025-01-24 02:00:54.456288	25.9	44.5	-78.4	0.0
2025-01-24 02:00:55.581002	26.0	44.8	-78.3	0.0
2025-01-24 02:00:56.701549	26.1	45.2	-78.4	0.0
2025-01-24 02:00:57.825768	26.2	45.5	-78.1	0.0
2025-01-24 02:00:58.949776	26.3	45.9	-78.3	0.0
2025-01-24 02:01:00.076464	26.5	46.2	-78.2	0.0
2025-01-24 02:01:01.198651	26.6	46.6	-78.3	0.0
2025-01-24 02:01:02.324877	26.7	46.9	-78.1	0.0
2025-01-24 02:01:03.448125	26.8	47.3	-78.0	0.0
2025-01-24 02:01:04.571628	27.0	47.6	-77.9	0.0
2025-01-24 02:01:05.694480	27.1	48.0	-78.1	0.0
2025-01-24 02:01:06.816739	27.2	48.3	-78.0	0.0
2025-01-24 02:01:07.939266	27.4	48.7	-78.1	0.0
2025-01-24 02:01:09.062788	27.5	49.1	-78.1	0.0
2025-01-24 02:01:10.185964	27.7	49.4	-78.1	0.0
2025-01-24 02:01:11.309325	27.8	49.8	-78.1	0.0
2025-01-24 02:01:12.433936	28.0	50.2	-78.1	0.0
2025-01-24 02:01:13.559042	28.1	50.6	-77.9	0.0
2025-01-24 02:01:14.682404	28.3	51.0	-78.1	0.0
2025-01-24 02:01:15.804674	28.5	51.3	-78.3	0.0
2025-01-24 02:01:16.926065	28.6	51.7	-78.0	0.0
2025-01-24 02:01:18.048565	28.8	52.1	-78.1	0.0
2025-01-24 02:01:19.171816	29.0	52.5	-78.2	0.0
2025-01-24 02:01:20.294185	29.2	52.9	-78.2	0.0
2025-01-24 02:01:21.416462	29.4	53.3	-78.1	0.0
2025-01-24 02:01:22.538835	29.6	53.7	-77.9	0.0
2025-01-24 02:01:23.661620	29.8	54.1	-78.1	0.0
2025-01-24 02:01:24.782700	30.0	54.5	-78.1	0.0
2025-01-24 02:01:25.906658	30.2	55.0	-78.1	0.0
2025-01-24 02:01:27.031321	30.4	55.4	-78.2	0.0
2025-01-24 02:01:28.154328	30.6	55.8	-78.1	0.0
2025-01-24 02:01:29.277486	30.8	56.2	-78.0	0.0
2025-01-24 02:01:30.399828	31.1	56.6	-78.2	0.0
2025-01-24 02:01:31.524372	31.3	57.1	-77.9	0.0
2025-01-24 02:01:32.647751	31.6	57.5	-78.1	0.0
2025-01-24 02:01:33.771201	31.8	57.9	-78.2	0.0
2025-01-24 02:01:34.894698	32.1	58.4	-78.1	0.0
2025-01-24 02:01:36.017368	32.4	58.8	-78.1	0.0
2025-01-24 02:01:37.140394	32.7	59.2	-78.2	0.0
2025-01-24 02:01:38.263260	33.0	59.7	-78.2	0.0
2025-01-24 02:01:39.386843	33.3	60.1	-78.1	0.0
2025-01-24 02:01:40.508859	33.6	60.6	-78.1	0.0
2025-01-24 02:01:41.631323	33.9	61.0	-78.2	0.0
2025-01-24 02:01:42.753736	34.2	61.5	-78.3	0.0
2025-01-24 02:01:43.880798	34.6	61.9	-78.2	0.0
2025-01-24 02:01:45.002753	35.0	62.4	-78.3	0.0
2025-01-24 02:01:46.126734	35.3	62.9	-78.2	0.0
2025-01-24 02:01:47.248534	35.7	63.3	-78.2	0.0
2025-01-24 02:01:48.371501	36.2	63.8	-78.3	0.0
2025-01-24 02:01:49.493251	36.6	64.2	-78.2	0.0
2025-01-24 02:01:50.615084	37.0	64.7	-78.1	0.0
2025-01-24 02:01:51.739019	37.5	65.2	-78.0	0.0
2025-01-24 02:01:52.861123	38.0	65.6	-77.9	0.0
2025-01-24 02:01:53.986563	38.5	66.1	-78.1	0.0
2025-01-24 02:01:55.109715	39.0	66.6	-78.3	0.0
2025-01-24 02:01:56.234999	39.5	67.1	-78.1	0.0
2025-01-24 02:01:57.356518	40.1	67.5	-78.1	0.0
2025-01-24 02:01:58.480038	40.7	68.0	-78.2	0.0
2025-01-24 02:01:59.603026	41.4	68.5	-78.1	0.0
2025-01-24 02:02:00.726105	42.0	69.0	-77.9	0.0
2025-01-24 02:02:01.849019	42.7	69.4	-78.0	0.0
2025-01-24 02:02:02.973786	43.4	69.9	-78.2	0.0
2025-01-24 02:02:04.096866	44.2	70.4	-78.2	0.0
2025-01-24 02:02:05.219019	45.0	70.8	-78.1	0.0
2025-01-24 02:02:06.344484	45.9	71.3	-78.0	0.0
2025-01-24 02:02:07.467885	46.7	71.8	-77.9	0.0
2025-01-24 02:02:08.591301	47.7	72.3	-78.1	0.0
2025-01-24 02:02:09.714749	48.7	72.7	-78.1	0.0
2025-01-24 02:02:10.837640	49.7	73.2	-78.0	0.0
2025-01-24 02:02:11.960376	50.9	73.6	-78.1	0.0
2025-01-24 02:02:13.083212	52.0	74.1	-78.0	0.0
2025-01-24 02:02:14.205676	53.3	74.5	-78.2	0.0
2025-01-24 02:02:15.328027	54.6	75.0	-78.1	0.0
2025-01-24 02:02:16.450138	56.1	75.4	-77.7	0.0
2025-01-24 02:02:17.574151	57.6	75.8	-77.9	0.0
2025-01-24 02:02:18.695460	59.2	76.2	-78.0	0.0
2025-01-24 02:02:19.818090	60.9	76.7	-78.1	0.0
2025-01-24 02:02:20.941161	62.7	77.1	-78.1	0.0
2025-01-24 02:02:22.064663	64.6	77.4	-78.1	0.0
2025-01-24 02:02:23.188293	66.6	77.8	-78.2	0.0
2025-01-24 02:02:24.311717	68.8	78.2	-78.2	0.0
2025-01-24 02:02:25.434617	71.1	78.5	-78.3	0.0
2025-01-24 02:02:26.559992	73.6	78.8	-77.9	0.0
2025-01-24 02:02:27.682571	76.2	79.1	-77.9	0.0
2025-01-24 02:02:28.804797	78.9	79.4	-78.2	0.0
2025-01-24 02:02:29.927188	81.8	79.6	-78.1	0.0
2025-01-24 02:02:31.052450	84.8	79.9	-77.9	0.0
2025-01-24 02:02:32.174831	88.0	80.1	-78.3	0.0
2025-01-24 02:02:33.297525	91.2	80.2	-78.3	0.0
2025-01-24 02:02:34.421859	94.6	80.4	-78.3	0.0
2025-01-24 02:02:35.544819	98.1	80.5	-78.1	0.0
2025-01-24 02:02:36.668213	101.6	80.5	-78.5	0.0
2025-01-24 02:02:37.791244	105.2	80.6	-78.1	0.0
2025-01-24 02:02:38.913853	108.7	80.6	-78.3	0.0
2025-01-24 02:02:40.036119	112.3	80.5	-78.3	0.0
2025-01-24 02:02:41.160763	115.8	80.4	-78.3	0.0
2025-01-24 02:02:42.282628	119.2	80.3	-77.6	0.0
2025-01-24 02:02:43.405649	122.6	80.2	-78.3	0.0
2025-01-24 02:02:44.529679	125.8	80.0	-78.5	0.0
2025-01-24 02:02:45.652615	128.9	79.8	-78.3	0.0
2025-01-24 02:02:46.774191	131.9	79.6	-78.3	0.0
2025-01-24 02:02:47.898854	134.7	79.3	-78.3	0.0
2025-01-24 02:02:49.022628	137.4	79.0	-78.4	0.0
2025-01-24 02:02:50.146053	140.0	78.7	-78.4	0.0
2025-01-24 02:02:51.269504	142.4	78.4	-78.2	0.0
2025-01-24 02:02:52.392652	144.7	78.1	-78.4	0.0
2025-01-24 02:02:53.516826	146.8	77.7	-78.2	0.0
2025-01-24 02:02:54.638454	148.8	77.3	-78.3	0.0
2025-01-24 02:02:55.761823	150.7	76.9	-78.5	0.0
2025-01-24 02:02:56.885053	152.5	76.5	-78.3	0.0
2025-01-24 02:02:58.006951	154.2	76.1	-78.1	0.0
2025-01-24 02:02:59.129587	155.7	75.7	-78.5	0.0
2025-01-24 02:03:00.253104	157.2	75.3	-78.4	0.0
2025-01-24 02:03:01.374895	158.6	74.8	-78.3	0.0
2025-01-24 02:03:02.497254	159.9	74.4	-78.2	0.0
2025-01-24 02:03:03.620891	161.1	73.9	-78.4	0.0
2025-01-24 02:03:04.743206	162.3	73.5	-78.2	0.0
2025-01-24 02:03:05.865238	163.4	73.0	-78.5	0.0
2025-01-24 02:03:06.987655	164.4	72.6	-78.4	0.0
2025-01-24 02:03:08.109576	165.4	72.1	-78.4	0.0
2025-01-24 02:03:09.231640	166.3	71.6	-78.3	0.0
2025-01-24 02:03:10.353714	167.2	71.2	-78.4	0.0
2025-01-24 02:03:11.477298	168.1	70.7	-78.5	0.0
2025-01-24 02:03:12.599998	168.9	70.2	-78.5	0.0
2025-01-24 02:03:13.723358	169.6	69.8	-78.5	0.0
2025-01-24 02:03:14.848255	170.3	69.3	-78.3	0.0
2025-01-24 02:03:15.972195	171.0	68.8	-78.4	0.0
2025-01-24 02:03:17.095397	171.7	68.3	-78.3	0.0
2025-01-24 02:03:18.217282	172.3	67.8	-78.5	0.0
2025-01-24 02:03:19.340000	172.9	67.4	-78.4	0.0
2025-01-24 02:03:20.464194	173.4	66.9	-78.4	0.0
2025-01-24 02:03:21.588535	174.0	66.4	-78.4	0.0
2025-01-24 02:03:22.710813	174.5	66.0	-78.2	0.0
2025-01-24 02:03:23.833024	175.0	65.5	-78.1	0.0
2025-01-24 02:03:24.954385	175.5	65.0	-78.2	0.0
2025-01-24 02:03:26.076878	175.9	64.5	-78.2	0.0
2025-01-24 02:03:27.201585	176.4	64.1	-78.3	0.0
2025-01-24 02:03:28.325518	176.8	63.6	-78.2	0.0
2025-01-24 02:03:29.449274	177.2	63.1	-78.4	0.0
2025-01-24 02:03:30.572600	177.6	62.7	-78.3	0.0
2025-01-24 02:03:31.695222	178.0	62.2	-78.4	0.0
2025-01-24 02:03:32.818583	178.3	61.8	-78.0	0.0
2025-01-24 02:03:33.941595	178.7	61.3	-78.3	0.0
2025-01-24 02:03:35.063729	179.0	60.9	-78.4	0.0
2025-01-24 02:03:36.187094	179.3	60.4	-78.3	0.0
2025-01-24 02:03:37.310114	179.7	60.0	-78.5	0.0
2025-01-24 02:03:38.432885	180.0	59.5	-78.3	0.0
2025-01-24 02:03:39.554695	180.3	59.1	-78.5	0.0
2025-01-24 02:03:40.677872	180.5	58.6	-78.3	0.0
2025-01-24 02:03:41.801819	180.8	58.2	-78.3	0.0
2025-01-24 02:03:42.924350	181.1	57.8	-78.3	0.0
2025-01-24 02:03:44.047164	181.3	57.3	-78.4	0.0
2025-01-24 02:03:45.171979	181.6	56.9	-78.2	0.0
2025-01-24 02:03:46.292913	181.8	56.5	-78.5	0.0
2025-01-24 02:03:47.415280	182.1	56.0	-78.3	0.0
2025-01-24 02:03:48.536389	182.3	55.6	-78.4	0.0
2025-01-24 02:03:49.658632	182.5	55.2	-78.3	0.0
2025-01-24 02:03:50.782131	182.7	54.8	-78.3	0.0
2025-01-24 02:03:51.906762	182.9	54.4	-78.2	0.0
2025-01-24 02:03:53.030599	183.1	54.0	-78.4	0.0
2025-01-24 02:03:54.154275	183.3	53.5	-78.4	0.0
2025-01-24 02:03:55.277769	183.5	53.1	-78.3	0.0
2025-01-24 02:03:56.398170	183.7	52.7	-78.6	0.0
2025-01-24 02:03:57.519825	183.9	52.3	-78.4	0.0
2025-01-24 02:03:58.642346	184.1	52.0	-78.4	0.0
2025-01-24 02:03:59.765523	184.2	51.6	-78.4	0.0
2025-01-24 02:04:00.887381	184.4	51.2	-78.5	0.0
2025-01-24 02:04:02.011508	184.6	50.8	-78.4	0.0
2025-01-24 02:04:03.133627	184.7	50.4	-78.5	0.0
2025-01-24 02:04:04.255455	184.9	50.0	-78.3	0.0
2025-01-24 02:04:05.379369	185.0	49.6	-78.3	0.0
2025-01-24 02:04:06.504698	185.2	49.3	-78.5	0.0
2025-01-24 02:04:07.627543	185.3	48.9	-78.4	0.0
2025-01-24 02:04:08.751912	185.5	48.5	-78.5	0.0
2025-01-24 02:04:09.877015	185.6	48.2	-78.6	0.0
2025-01-24 02:04:10.999414	185.8	47.8	-78.4	0.0
2025-01-24 02:04:12.121961	185.9	47.4	-78.4	0.0
2025-01-24 02:04:13.247559	186.0	47.1	-78.4	0.0
2025-01-24 02:04:14.368320	186.1	46.7	-78.5	0.0
2025-01-24 02:04:15.492484	186.3	46.4	-78.4	0.0
2025-01-24 02:04:16.617489	186.4	46.0	-78.3	0.0
2025-01-24 02:04:17.740135	186.5	45.7	-78.3	0.0
2025-01-24 02:04:18.863959	186.6	45.3	-78.1	0.0
2025-01-24 02:04:19.989172	186.7	45.0	-78.5	0.0
2025-01-24 02:04:21.112087	186.9	44.7	-78.5	0.0
2025-01-24 02:04:22.233990	187.0	44.3	-78.5	0.0
2025-01-24 02:04:23.356861	187.1	44.0	-78.5	0.0
2025-01-24 02:04:24.482965	187.2	43.7	-78.4	0.0
2025-01-24 02:04:25.606290	187.3	43.3	-78.4	0.0
2025-01-24 02:04:26.727599	187.4	43.0	-78.5	0.0
2025-01-24 02:04:27.851272	187.5	42.7	-78.3	0.0
2025-01-24 02:04:28.975337	187.6	42.4	-78.3	0.0
2025-01-24 02:04:30.098564	187.7	42.1	-78.4	0.0
2025-01-24 02:04:31.220577	187.8	41.7	-78.3	0.0
2025-01-24 02:04:32.343240	187.9	41.4	-78.5	0.0
2025-01-24 02:04:33.467704	187.9	41.1	-78.7	0.0
2025-01-24 02:04:34.592148	188.0	40.8	-78.5	0.0
2025-01-24 02:04:35.715588	188.1	40.5	-78.6	0.0
2025-01-24 02:04:36.838192	188.2	40.2	-78.6	0.0
2025-01-24 02:04:37.961769	188.3	39.9	-78.5	0.0
2025-01-24 02:04:39.086133	188.4	39.6	-78.5	0.0
2025-01-24 02:04:40.208562	188.5	39.3	-78.5	0.0
2025-01-24 02:04:41.332242	188.5	39.0	-78.4	0.0
2025-01-24 02:04:42.456140	188.6	38.7	-78.4	0.0
2025-01-24 02:04:43.578163	188.7	38.5	-78.6	0.0
2025-01-24 02:04:44.700626	188.8	38.2	-78.5	0.0
2025-01-24 02:04:45.825405	188.8	37.9	-78.4	0.0
2025-01-24 02:04:46.947589	188.9	37.6	-78.5	0.0
2025-01-24 02:04:48.069753	189.0	37.3	-78.5	0.0
2025-01-24 02:04:49.190261	189.1	37.1	-78.6	0.0
2025-01-24 02:04:50.314612	189.1	36.8	-78.4	0.0
2025-01-24 02:04:51.436813	189.2	36.5	-78.3	0.0
2025-01-24 02:04:52.563014	189.3	36.3	-78.2	0.0
2025-01-24 02:04:53.685847	189.3	36.0	-78.6	0.0
2025-01-24 02:04:54.808832	189.4	35.7	-78.4	0.0
2025-01-24 02:04:55.932079	189.5	35.5	-78.3	0.0
2025-01-24 02:04:57.054552	189.5	35.2	-78.3	0.0
2025-01-24 02:04:58.176398	189.6	34.9	-78.5	0.0
2025-01-24 02:04:59.296284	189.6	34.7	-78.5	0.0
2025-01-24 02:05:00.421119	189.7	34.4	-78.5	0.0
2025-01-24 02:05:01.543139	189.8	34.2	-78.4	0.0
2025-01-24 02:05:02.665887	189.8	33.9	-78.5	0.0
2025-01-24 02:05:03.787476	189.9	33.7	-78.4	0.0
2025-01-24 02:05:04.911726	189.9	33.4	-78.6	0.0
2025-01-24 02:05:06.033894	190.0	33.2	-78.3	0.0
2025-01-24 02:05:07.155394	190.1	33.0	-78.4	0.0
2025-01-24 02:05:08.276704	190.1	32.7	-78.6	0.0
2025-01-24 02:05:09.397311	190.2	32.5	-78.7	0.0
2025-01-24 02:05:10.521141	190.2	32.3	-78.6	0.0
2025-01-24 02:05:11.644390	190.3	32.0	-78.8	0.0
2025-01-24 02:05:12.766763	190.3	31.8	-78.7	0.0
2025-01-24 02:05:13.890520	190.4	31.6	-78.5	0.0
2025-01-24 02:05:15.014426	190.4	31.3	-78.6	0.0
2025-01-24 02:05:16.138112	190.5	31.1	-78.4	0.0
2025-01-24 02:05:17.260016	190.5	30.9	-78.6	0.0
2025-01-24 02:05:18.383743	190.6	30.7	-78.5	0.0
2025-01-24 02:05:19.506799	190.6	30.4	-78.6	0.0
2025-01-24 02:05:20.628132	190.7	30.2	-78.5	0.0
2025-01-24 02:05:21.750813	190.7	30.0	-78.6	0.0
2025-01-24 02:05:22.874761	190.8	29.8	-78.5	0.0
2025-01-24 02:05:23.997468	190.8	29.6	-78.6	0.0
2025-01-24 02:05:25.119920	190.9	29.3	-78.6	0.0
2025-01-24 02:05:26.242986	190.9	29.1	-78.3	0.0
2025-01-24 02:05:27.367027	190.9	28.9	-78.5	0.0
2025-01-24 02:05:28.491976	191.0	28.7	-78.4	0.0
2025-01-24 02:05:29.614098	191.0	28.5	-78.5	0.0
2025-01-24 02:05:30.735866	191.1	28.3	-78.4	0.0
2025-01-24 02:05:31.858334	191.1	28.1	-78.3	0.0
2025-01-24 02:05:32.981061	191.2	27.9	-78.5	0.0
2025-01-24 02:05:34.103175	191.2	27.7	-78.5	0.0
2025-01-24 02:05:35.225807	191.2	27.5	-78.5	0.0
2025-01-24 02:05:36.348950	191.3	27.3	-78.5	0.0
2025-01-24 02:05:37.473417	191.3	27.1	-78.5	0.0
2025-01-24 02:05:38.596567	191.4	26.9	-78.5	0.0
2025-01-24 02:05:39.722014	191.4	26.7	-78.6	0.0
2025-01-24 02:05:40.844735	191.4	26.5	-78.5	0.0
2025-01-24 02:05:41.968468	191.5	26.3	-78.5	0.0
2025-01-24 02:05:43.092550	191.5	26.1	-78.5	0.0
2025-01-24 02:05:44.214892	191.6	26.0	-78.8	0.0
2025-01-24 02:05:45.339200	191.6	25.8	-78.6	0.0
2025-01-24 02:05:46.461947	191.6	25.6	-78.6	0.0
2025-01-24 02:05:47.586741	191.7	25.4	-78.5	0.0
2025-01-24 02:05:48.710856	191.7	25.2	-78.7	0.0
2025-01-24 02:05:49.833270	191.7	25.0	-78.5	0.0
2025-01-24 02:05:50.955660	191.8	24.8	-78.5	0.0
2025-01-24 02:05:52.076304	191.8	24.7	-78.3	0.0
2025-01-24 02:05:53.201099	191.8	24.5	-78.4	0.0
2025-01-24 02:05:54.323720	191.9	24.3	-77.7	0.0
2025-01-24 02:05:55.445604	191.9	24.1	-78.4	0.0
2025-01-24 02:05:56.568368	191.9	24.0	-78.4	0.0
2025-01-24 02:05:57.692712	192.0	23.8	-78.2	0.0
2025-01-24 02:05:58.814823	192.0	23.6	-78.0	0.0
2025-01-24 02:05:59.936472	192.0	23.4	-78.5	0.0
2025-01-24 02:06:01.059212	192.1	23.3	-78.4	0.0
2025-01-24 02:06:02.180796	192.1	23.1	-78.2	0.0
2025-01-24 02:06:03.304055	192.1	22.9	-78.3	0.0
2025-01-24 02:06:04.426363	192.2	22.8	-78.5	0.0
2025-01-24 02:06:05.550113	192.2	22.6	-78.4	0.0
2025-01-24 02:06:06.672211	192.2	22.4	-78.5	0.0
2025-01-24 02:06:07.796249	192.3	22.3	-78.7	0.0
2025-01-24 02:06:08.917460	192.3	22.1	-78.5	0.0
2025-01-24 02:06:10.041984	192.3	22.0	-78.4	0.0
2025-01-24 02:06:11.167247	192.4	21.8	-78.4	0.0
2025-01-24 02:06:12.289888	192.4	21.6	-78.7	0.0
2025-01-24 02:06:13.412633	192.4	21.5	-78.5	0.0
2025-01-24 02:06:14.533158	192.4	21.3	-78.5	0.0
2025-01-24 02:06:15.656363	192.5	21.2	-78.4	0.0
2025-01-24 02:06:16.779737	192.5	21.0	-78.4	0.0
2025-01-24 02:06:17.901929	192.5	20.9	-78.5	0.0
2025-01-24 02:06:19.027767	192.5	20.7	-78.6	0.0
2025-01-24 02:06:20.151087	192.6	20.5	-78.5	0.0
2025-01-24 02:06:21.275237	192.6	20.4	-78.7	0.0
2025-01-24 02:06:22.398737	192.6	20.2	-78.5	0.0
2025-01-24 02:06:23.521851	192.7	20.1	-78.6	0.0
2025-01-24 02:06:24.645092	192.7	19.9	-78.5	0.0
2025-01-24 02:06:25.768732	192.7	19.8	-78.5	0.0
2025-01-24 02:06:26.892315	192.7	19.6	-78.7	0.0
2025-01-24 02:06:28.014778	192.8	19.5	-78.5	0.0
2025-01-24 02:06:29.138036	192.8	19.4	-78.5	0.0
2025-01-24 02:06:30.261282	192.8	19.2	-78.4	0.0
2025-01-24 02:06:31.386055	192.8	19.1	-78.5	0.0
2025-01-24 02:06:32.509051	192.9	18.9	-78.5	0.0
2025-01-24 02:06:33.632307	192.9	18.8	-78.6	0.0
2025-01-24 02:06:34.753190	192.9	18.6	-78.6	0.0
2025-01-24 02:06:35.875580	192.9	18.5	-78.5	0.0
2025-01-24 02:06:36.998691	193.0	18.4	-78.4	0.0
2025-01-24 02:06:38.120598	193.0	18.2	-78.4	0.0
2025-01-24 02:06:39.244413	193.0	18.1	-78.5	0.0
2025-01-24 02:06:40.366221	193.0	17.9	-78.3	0.0
2025-01-24 02:06:41.490813	193.1	17.8	-78.3	0.0
2025-01-24 02:06:42.616814	193.1	17.7	-78.3	0.0
2025-01-24 02:06:43.741817	193.1	17.5	-78.6	0.0
2025-01-24 02:06:44.865009	193.1	17.4	-78.6	0.0
2025-01-24 02:06:45.988178	193.1	17.3	-78.7	0.0
2025-01-24 02:06:47.114207	193.2	17.1	-78.5	0.0
2025-01-24 02:06:48.238263	193.2	17.0	-78.7	0.0
2025-01-24 02:06:49.362446	193.2	16.9	-78.6	0.0
2025-01-24 02:06:50.485681	193.2	16.7	-78.7	0.0
2025-01-24 02:06:51.608713	193.3	16.6	-78.3	0.0
2025-01-24 02:06:52.731876	193.3	16.5	-78.6	0.0
2025-01-24 02:06:53.853598	193.3	16.4	-78.7	0.0
2025-01-24 02:06:54.975506	193.3	16.2	-78.5	0.0
2025-01-24 02:06:56.097859	193.3	16.1	-78.8	0.0
2025-01-24 02:06:57.221872	193.4	16.0	-78.6	0.0
2025-01-24 02:06:58.344111	193.4	15.8	-78.3	0.0
2025-01-24 02:06:59.466469	193.4	15.7	-78.7	0.0
2025-01-24 02:07:00.590077	193.4	15.6	-78.4	0.0
2025-01-24 02:07:01.713775	193.5	15.5	-78.6	0.0
2025-01-24 02:07:02.836133	193.5	15.4	-78.3	0.0
2025-01-24 02:07:03.956190	193.5	15.2	-78.5	0.0
2025-01-24 02:07:05.079574	193.5	15.1	-78.5	0.0
2025-01-24 02:07:06.201928	193.5	15.0	-78.5	0.0
2025-01-24 02:07:07.325895	193.6	14.9	-78.7	0.0
2025-01-24 02:07:08.448658	193.6	14.7	-78.5	0.0
2025-01-24 02:07:09.572342	193.6	14.6	-78.4	0.0
2025-01-24 02:07:10.696502	193.6	14.5	-78.6	0.0
2025-01-24 02:07:11.819667	193.6	14.4	-78.5	0.0
2025-01-24 02:07:12.941948	193.6	14.3	-78.5	0.0
2025-01-24 02:07:14.065417	193.7	14.2	-78.6	0.0
2025-01-24 02:07:15.188831	193.7	14.0	-78.5	0.0
2025-01-24 02:07:16.311613	193.7	13.9	-78.6	0.0
2025-01-24 02:07:17.434778	193.7	13.8	-78.5	0.0
2025-01-24 02:07:18.560206	193.7	13.7	-78.5	0.0
2025-01-24 02:07:19.683759	193.8	13.6	-78.3	0.0
2025-01-24 02:07:20.806830	193.8	13.5	-78.5	0.0
2025-01-24 02:07:21.930639	193.8	13.3	-78.5	0.0
2025-01-24 02:07:23.053047	193.8	13.2	-78.6	0.0
2025-01-24 02:07:24.175766	193.8	13.1	-78.5	0.0
2025-01-24 02:07:25.297850	193.9	13.0	-78.3	0.0
2025-01-24 02:07:26.422176	193.9	12.9	-78.4	0.0
2025-01-24 02:07:27.548356	193.9	12.8	-78.6	0.0
2025-01-24 02:07:28.672100	193.9	12.7	-78.5	0.0
2025-01-24 02:07:29.796501	193.9	12.6	-78.5	0.0
2025-01-24 02:07:30.918404	193.9	12.5	-78.5	0.0
2025-01-24 02:07:32.038482	194.0	12.3	-78.4	0.0
2025-01-24 02:07:33.160812	194.0	12.2	-78.5	0.0
2025-01-24 02:07:34.283374	194.0	12.1	-78.5	0.0
2025-01-24 02:07:35.405941	194.0	12.0	-78.6	0.0
2025-01-24 02:07:36.527490	194.0	11.9	-78.7	0.0
2025-01-24 02:07:37.648761	194.0	11.8	-78.6	0.0
2025-01-24 02:07:38.770091	194.1	11.7	-78.9	0.0
2025-01-24 02:07:39.894992	194.1	11.6	-78.7	0.0
2025-01-24 02:07:41.017022	194.1	11.5	-78.8	0.0
2025-01-24 02:07:42.138851	194.1	11.4	-78.7	0.0
2025-01-24 02:07:43.260139	194.1	11.3	-78.8	0.0
2025-01-24 02:07:44.380511	194.1	11.2	-78.7	0.0
2025-01-24 02:07:45.502826	194.2	11.1	-78.6	0.0
2025-01-24 02:07:46.626109	194.2	11.0	-78.6	0.0
2025-01-24 02:07:47.749282	194.2	10.9	-78.7	0.0
2025-01-24 02:07:48.869349	194.2	10.8	-78.5	0.0
2025-01-24 02:07:49.991287	194.2	10.7	-78.7	0.0
2025-01-24 02:07:51.114873	194.2	10.6	-78.5	0.0
2025-01-24 02:07:52.237206	194.3	10.5	-78.5	0.0
2025-01-24 02:07:53.358466	194.3	10.4	-78.8	0.0
2025-01-24 02:07:54.482863	194.3	10.3	-78.4	0.0
2025-01-24 02:07:55.607504	194.3	10.2	-78.6	0.0
2025-01-24 02:07:56.729582	194.3	10.1	-78.6	0.0
#Closed at: 2025-01-24 01:57:11.679890