passes_logs/2025/01/24/planumMaritime01/planumMaritime01__20250124_071056_NOAA_19_rec.log

#Pass ID: 20250124_071056_NOAA 19
#Satellite: NOAA 19
#Configuration: NOAA 19
#Start time: 2025-01-24 07:11:01.180538

#LorettStation: 1.0.0 05.05.2024
#Station: planumMaritime01
#Location: 37.49445 lon 55.92918 lat
#TLE: 1 33591U 09005A   25023.78299149  .00000396  00000+0  23548-3 0  9998
#TLE: 2 33591  99.0182  87.6127 0014154  33.7555 326.4515 14.13267063822782

#Time	Az	El	Level	SNR
2025-01-24 07:11:03.350444	25.7	10.2	-76.7	0.0
2025-01-24 07:11:04.472275	25.7	10.3	-75.8	0.0
2025-01-24 07:11:05.593229	25.8	10.4	-76.7	0.0
2025-01-24 07:11:06.717008	25.9	10.5	-76.2	0.0
2025-01-24 07:11:07.840137	25.9	10.5	-76.5	0.0
2025-01-24 07:11:08.962965	26.0	10.6	-76.4	0.0
2025-01-24 07:11:10.085194	26.1	10.7	-76.8	0.0
2025-01-24 07:11:11.206381	26.1	10.8	-76.8	0.0
2025-01-24 07:11:12.330744	26.2	10.9	-76.7	0.0
2025-01-24 07:11:13.453741	26.3	11.0	-76.9	0.0
2025-01-24 07:11:14.576758	26.3	11.1	-76.7	0.0
2025-01-24 07:11:15.702228	26.4	11.2	-76.8	0.0
2025-01-24 07:11:16.823128	26.5	11.3	-76.5	0.0
2025-01-24 07:11:17.944945	26.6	11.4	-76.8	0.0
2025-01-24 07:11:19.067932	26.6	11.5	-76.3	0.0
2025-01-24 07:11:20.193822	26.7	11.6	-76.6	0.0
2025-01-24 07:11:21.316435	26.8	11.7	-76.7	0.0
2025-01-24 07:11:22.438399	26.9	11.8	-76.1	0.0
2025-01-24 07:11:23.563035	26.9	11.9	-76.2	0.0
2025-01-24 07:11:24.686764	27.0	12.0	-76.2	0.0
2025-01-24 07:11:25.809668	27.1	12.1	-76.1	0.0
2025-01-24 07:11:26.929938	27.2	12.2	-76.1	0.0
2025-01-24 07:11:28.053218	27.2	12.3	-76.8	0.0
2025-01-24 07:11:29.176360	27.3	12.4	-76.5	0.0
2025-01-24 07:11:30.299421	27.4	12.5	-75.6	0.0
2025-01-24 07:11:31.423782	27.5	12.6	-76.5	0.0
2025-01-24 07:11:32.547761	27.5	12.7	-76.8	0.0
2025-01-24 07:11:33.670943	27.6	12.8	-76.8	0.0
2025-01-24 07:11:34.794572	27.7	12.9	-76.7	0.0
2025-01-24 07:11:35.915177	27.8	13.0	-77.2	0.0
2025-01-24 07:11:37.038777	27.9	13.1	-76.4	0.0
2025-01-24 07:11:38.160293	27.9	13.2	-77.0	0.0
2025-01-24 07:11:39.283116	28.0	13.3	-76.6	0.0
2025-01-24 07:11:40.403517	28.1	13.4	-76.7	0.0
2025-01-24 07:11:41.526920	28.2	13.5	-76.7	0.0
2025-01-24 07:11:42.649950	28.3	13.6	-76.7	0.0
2025-01-24 07:11:43.772395	28.4	13.7	-76.7	0.0
2025-01-24 07:11:44.895164	28.4	13.8	-76.6	0.0
2025-01-24 07:11:46.019192	28.5	13.9	-76.5	0.0
2025-01-24 07:11:47.141410	28.6	14.0	-76.5	0.0
2025-01-24 07:11:48.263263	28.7	14.1	-76.7	0.0
2025-01-24 07:11:49.385958	28.8	14.2	-76.7	0.0
2025-01-24 07:11:50.507250	28.9	14.3	-76.7	0.0
2025-01-24 07:11:51.629682	29.0	14.4	-76.0	0.0
2025-01-24 07:11:52.753761	29.0	14.5	-76.0	0.0
2025-01-24 07:11:53.876999	29.1	14.6	-76.2	0.0
2025-01-24 07:11:55.001556	29.2	14.7	-75.8	0.0
2025-01-24 07:11:56.123858	29.3	14.9	-76.8	0.0
2025-01-24 07:11:57.245920	29.4	15.0	-76.7	0.0
2025-01-24 07:11:58.370027	29.5	15.1	-76.6	0.0
2025-01-24 07:11:59.495170	29.6	15.2	-76.2	0.0
2025-01-24 07:12:00.617940	29.7	15.3	-76.4	0.0
2025-01-24 07:12:01.743010	29.8	15.4	-76.4	0.0
2025-01-24 07:12:02.865206	29.9	15.5	-77.0	0.0
2025-01-24 07:12:03.989075	30.0	15.6	-76.5	0.0
2025-01-24 07:12:05.111927	30.1	15.7	-76.3	0.0
2025-01-24 07:12:06.233878	30.2	15.8	-76.9	0.0
2025-01-24 07:12:07.358224	30.3	16.0	-76.9	0.0
2025-01-24 07:12:08.479915	30.3	16.1	-76.2	0.0
2025-01-24 07:12:09.602685	30.4	16.2	-77.0	0.0
2025-01-24 07:12:10.724261	30.5	16.3	-76.9	0.0
2025-01-24 07:12:11.846714	30.6	16.4	-76.7	0.0
2025-01-24 07:12:12.971486	30.7	16.5	-76.5	0.0
2025-01-24 07:12:14.093611	30.8	16.6	-76.7	0.0
2025-01-24 07:12:15.216264	30.9	16.8	-76.7	0.0
2025-01-24 07:12:16.338485	31.0	16.9	-76.5	0.0
2025-01-24 07:12:17.460403	31.1	17.0	-77.0	0.0
2025-01-24 07:12:18.582763	31.3	17.1	-77.4	0.0
2025-01-24 07:12:19.706540	31.4	17.2	-76.9	0.0
2025-01-24 07:12:20.830493	31.5	17.3	-77.0	0.0
2025-01-24 07:12:21.955735	31.6	17.5	-76.6	0.0
2025-01-24 07:12:23.079817	31.7	17.6	-77.2	0.0
2025-01-24 07:12:24.202312	31.8	17.7	-76.6	0.0
2025-01-24 07:12:25.325634	31.9	17.8	-76.6	0.0
2025-01-24 07:12:26.448253	32.0	17.9	-76.6	0.0
2025-01-24 07:12:27.569513	32.1	18.1	-75.9	0.0
2025-01-24 07:12:28.693693	32.2	18.2	-76.2	0.0
2025-01-24 07:12:29.818376	32.3	18.3	-76.1	0.0
2025-01-24 07:12:30.940653	32.4	18.4	-76.9	0.0
2025-01-24 07:12:32.065665	32.6	18.5	-76.9	0.0
2025-01-24 07:12:33.188802	32.7	18.7	-77.0	0.0
2025-01-24 07:12:34.312444	32.8	18.8	-77.0	0.0
2025-01-24 07:12:35.435890	32.9	18.9	-76.8	0.0
2025-01-24 07:12:36.558164	33.0	19.0	-77.2	0.0
2025-01-24 07:12:37.679304	33.1	19.2	-77.1	0.0
2025-01-24 07:12:38.801625	33.3	19.3	-76.6	0.0
2025-01-24 07:12:39.925431	33.4	19.4	-76.5	0.0
2025-01-24 07:12:41.048537	33.5	19.5	-76.3	0.0
2025-01-24 07:12:42.171474	33.6	19.7	-76.9	0.0
2025-01-24 07:12:43.294098	33.7	19.8	-77.0	0.0
2025-01-24 07:12:44.416570	33.9	19.9	-76.7	0.0
2025-01-24 07:12:45.538655	34.0	20.1	-76.2	0.0
2025-01-24 07:12:46.661395	34.1	20.2	-76.5	0.0
2025-01-24 07:12:47.786326	34.2	20.3	-77.0	0.0
2025-01-24 07:12:48.911830	34.4	20.4	-76.6	0.0
2025-01-24 07:12:50.035073	34.5	20.6	-76.5	0.0
2025-01-24 07:12:51.158163	34.6	20.7	-76.9	0.0
2025-01-24 07:12:52.283644	34.8	20.8	-76.5	0.0
2025-01-24 07:12:53.408816	34.9	21.0	-77.0	0.0
2025-01-24 07:12:54.531254	35.0	21.1	-77.4	0.0
2025-01-24 07:12:55.651460	35.2	21.2	-77.1	0.0
2025-01-24 07:12:56.773757	35.3	21.4	-77.0	0.0
2025-01-24 07:12:57.896693	35.4	21.5	-77.0	0.0
2025-01-24 07:12:59.019732	35.6	21.6	-77.2	0.0
2025-01-24 07:13:00.142836	35.7	21.8	-77.4	0.0
2025-01-24 07:13:01.265638	35.8	21.9	-77.2	0.0
2025-01-24 07:13:02.390506	36.0	22.1	-77.5	0.0
2025-01-24 07:13:03.512274	36.1	22.2	-76.7	0.0
2025-01-24 07:13:04.635151	36.3	22.3	-76.9	0.0
2025-01-24 07:13:05.757169	36.4	22.5	-76.8	0.0
2025-01-24 07:13:06.881684	36.6	22.6	-76.7	0.0
2025-01-24 07:13:08.008237	36.7	22.7	-76.8	0.0
2025-01-24 07:13:09.131937	36.9	22.9	-76.9	0.0
2025-01-24 07:13:10.255121	37.0	23.0	-76.9	0.0
2025-01-24 07:13:11.378572	37.2	23.2	-76.8	0.0
2025-01-24 07:13:12.502021	37.3	23.3	-76.3	0.0
2025-01-24 07:13:13.627321	37.5	23.5	-77.0	0.0
2025-01-24 07:13:14.749785	37.6	23.6	-76.3	0.0
2025-01-24 07:13:15.872496	37.8	23.7	-77.1	0.0
2025-01-24 07:13:16.994288	37.9	23.9	-76.8	0.0
2025-01-24 07:13:18.118465	38.1	24.0	-77.0	0.0
2025-01-24 07:13:19.243403	38.2	24.2	-77.2	0.0
2025-01-24 07:13:20.365306	38.4	24.3	-77.0	0.0
2025-01-24 07:13:21.487824	38.6	24.5	-77.2	0.0
2025-01-24 07:13:22.609013	38.7	24.6	-77.1	0.0
2025-01-24 07:13:23.729882	38.9	24.8	-76.9	0.0
2025-01-24 07:13:24.853119	39.1	24.9	-77.3	0.0
2025-01-24 07:13:25.975266	39.2	25.1	-76.9	0.0
2025-01-24 07:13:27.098014	39.4	25.2	-77.0	0.0
2025-01-24 07:13:28.221822	39.6	25.4	-77.7	0.0
2025-01-24 07:13:29.346377	39.8	25.5	-77.6	0.0
2025-01-24 07:13:30.469729	39.9	25.7	-77.6	0.0
2025-01-24 07:13:31.593036	40.1	25.8	-77.5	0.0
2025-01-24 07:13:32.718564	40.3	26.0	-77.2	0.0
2025-01-24 07:13:33.843082	40.5	26.1	-77.0	0.0
2025-01-24 07:13:34.962625	40.7	26.3	-77.0	0.0
2025-01-24 07:13:36.085385	40.8	26.4	-77.1	0.0
2025-01-24 07:13:37.206798	41.0	26.6	-76.9	0.0
2025-01-24 07:13:38.328043	41.2	26.7	-77.1	0.0
2025-01-24 07:13:39.451448	41.4	26.9	-76.8	0.0
2025-01-24 07:13:40.574799	41.6	27.1	-76.9	0.0
2025-01-24 07:13:41.698990	41.8	27.2	-76.7	0.0
2025-01-24 07:13:42.821468	42.0	27.4	-76.8	0.0
2025-01-24 07:13:43.944626	42.2	27.5	-76.8	0.0
2025-01-24 07:13:45.066813	42.4	27.7	-76.9	0.0
2025-01-24 07:13:46.189694	42.6	27.9	-77.2	0.0
2025-01-24 07:13:47.314142	42.8	28.0	-76.8	0.0
2025-01-24 07:13:48.437095	43.0	28.2	-77.1	0.0
2025-01-24 07:13:49.559288	43.2	28.3	-77.3	0.0
2025-01-24 07:13:50.681981	43.4	28.5	-77.2	0.0
2025-01-24 07:13:51.803603	43.6	28.7	-77.1	0.0
2025-01-24 07:13:52.928961	43.8	28.8	-77.3	0.0
2025-01-24 07:13:54.051024	44.0	29.0	-77.5	0.0
2025-01-24 07:13:55.175767	44.2	29.1	-77.3	0.0
2025-01-24 07:13:56.298755	44.5	29.3	-77.5	0.0
2025-01-24 07:13:57.423071	44.7	29.5	-77.2	0.0
2025-01-24 07:13:58.546345	44.9	29.6	-77.6	0.0
2025-01-24 07:13:59.667564	45.1	29.8	-77.1	0.0
2025-01-24 07:14:00.791079	45.4	30.0	-77.5	0.0
2025-01-24 07:14:01.912607	45.6	30.1	-77.6	0.0
2025-01-24 07:14:03.035261	45.8	30.3	-77.7	0.0
2025-01-24 07:14:04.157456	46.1	30.5	-77.2	0.0
2025-01-24 07:14:05.279176	46.3	30.6	-77.4	0.0
2025-01-24 07:14:06.402434	46.5	30.8	-77.4	0.0
2025-01-24 07:14:07.526434	46.8	31.0	-77.0	0.0
2025-01-24 07:14:08.650810	47.0	31.2	-77.0	0.0
2025-01-24 07:14:09.772020	47.3	31.3	-76.6	0.0
2025-01-24 07:14:10.894657	47.5	31.5	-76.7	0.0
2025-01-24 07:14:12.018734	47.8	31.7	-76.8	0.0
2025-01-24 07:14:13.141793	48.0	31.8	-77.1	0.0
2025-01-24 07:14:14.266430	48.3	32.0	-77.0	0.0
2025-01-24 07:14:15.390103	48.5	32.2	-76.7	0.0
2025-01-24 07:14:16.512232	48.8	32.3	-77.1	0.0
2025-01-24 07:14:17.634372	49.1	32.5	-76.8	0.0
2025-01-24 07:14:18.757471	49.3	32.7	-77.0	0.0
2025-01-24 07:14:19.878775	49.6	32.9	-77.1	0.0
2025-01-24 07:14:21.002611	49.9	33.0	-77.1	0.0
2025-01-24 07:14:22.125127	50.2	33.2	-77.1	0.0
2025-01-24 07:14:23.249561	50.4	33.4	-77.2	0.0
2025-01-24 07:14:24.374082	50.7	33.6	-76.9	0.0
2025-01-24 07:14:25.496626	51.0	33.7	-76.8	0.0
2025-01-24 07:14:26.619883	51.3	33.9	-76.7	0.0
2025-01-24 07:14:27.743962	51.6	34.1	-76.9	0.0
2025-01-24 07:14:28.865918	51.9	34.3	-76.8	0.0
2025-01-24 07:14:29.987469	52.2	34.4	-76.8	0.0
2025-01-24 07:14:31.112291	52.5	34.6	-76.9	0.0
2025-01-24 07:14:32.234794	52.8	34.8	-76.8	0.0
2025-01-24 07:14:33.358259	53.1	35.0	-77.2	0.0
2025-01-24 07:14:34.482643	53.4	35.1	-77.2	0.0
2025-01-24 07:14:35.603695	53.7	35.3	-77.4	0.0
2025-01-24 07:14:36.727826	54.0	35.5	-77.0	0.0
2025-01-24 07:14:37.850137	54.4	35.7	-77.3	0.0
2025-01-24 07:14:38.973032	54.7	35.8	-76.7	0.0
2025-01-24 07:14:40.097133	55.0	36.0	-76.8	0.0
2025-01-24 07:14:41.221549	55.3	36.2	-76.8	0.0
2025-01-24 07:14:42.340735	55.7	36.4	-77.0	0.0
2025-01-24 07:14:43.462789	56.0	36.5	-76.7	0.0
2025-01-24 07:14:44.585128	56.4	36.7	-76.4	0.0
2025-01-24 07:14:45.707876	56.7	36.9	-76.9	0.0
2025-01-24 07:14:46.829526	57.1	37.1	-77.2	0.0
2025-01-24 07:14:47.952888	57.4	37.2	-77.2	0.0
2025-01-24 07:14:49.075943	57.8	37.4	-77.3	0.0
2025-01-24 07:14:50.199996	58.1	37.6	-77.3	0.0
2025-01-24 07:14:51.322864	58.5	37.8	-77.2	0.0
2025-01-24 07:14:52.446269	58.9	37.9	-77.6	0.0
2025-01-24 07:14:53.568408	59.2	38.1	-77.0	0.0
2025-01-24 07:14:54.691787	59.6	38.3	-77.1	0.0
2025-01-24 07:14:55.815942	60.0	38.5	-77.5	0.0
2025-01-24 07:14:56.937293	60.4	38.6	-77.4	0.0
2025-01-24 07:14:58.059863	60.8	38.8	-77.1	0.0
2025-01-24 07:14:59.185524	61.1	39.0	-77.4	0.0
2025-01-24 07:15:00.309301	61.5	39.1	-77.1	0.0
2025-01-24 07:15:01.433216	61.9	39.3	-77.2	0.0
2025-01-24 07:15:02.556905	62.3	39.5	-77.2	0.0
2025-01-24 07:15:03.680565	62.7	39.6	-77.5	0.0
2025-01-24 07:15:04.803402	63.2	39.8	-77.3	0.0
2025-01-24 07:15:05.926693	63.6	40.0	-77.4	0.0
2025-01-24 07:15:07.049842	64.0	40.1	-77.4	0.0
2025-01-24 07:15:08.172527	64.4	40.3	-77.4	0.0
2025-01-24 07:15:09.293794	64.8	40.5	-77.5	0.0
2025-01-24 07:15:10.414346	65.3	40.6	-77.8	0.0
2025-01-24 07:15:11.535774	65.7	40.8	-77.4	0.0
2025-01-24 07:15:12.659888	66.2	40.9	-77.4	0.0
2025-01-24 07:15:13.784220	66.6	41.1	-77.9	0.0
2025-01-24 07:15:14.906761	67.1	41.3	-77.3	0.0
2025-01-24 07:15:16.030409	67.5	41.4	-77.5	0.0
2025-01-24 07:15:17.153331	68.0	41.6	-77.1	0.0
2025-01-24 07:15:18.276701	68.4	41.7	-77.4	0.0
2025-01-24 07:15:19.399869	68.9	41.9	-77.5	0.0
2025-01-24 07:15:20.521524	69.4	42.0	-77.7	0.0
2025-01-24 07:15:21.643401	69.8	42.2	-77.5	0.0
2025-01-24 07:15:22.766297	70.3	42.3	-77.2	0.0
2025-01-24 07:15:23.889948	70.8	42.5	-77.6	0.0
2025-01-24 07:15:25.014216	71.3	42.6	-77.3	0.0
2025-01-24 07:15:26.136369	71.8	42.7	-77.0	0.0
2025-01-24 07:15:27.259141	72.3	42.9	-77.3	0.0
2025-01-24 07:15:28.383578	72.8	43.0	-77.3	0.0
2025-01-24 07:15:29.504940	73.3	43.2	-77.0	0.0
2025-01-24 07:15:30.627977	73.8	43.3	-76.8	0.0
2025-01-24 07:15:31.752403	74.3	43.4	-77.5	0.0
2025-01-24 07:15:32.875009	74.8	43.5	-77.1	0.0
2025-01-24 07:15:33.996286	75.4	43.7	-77.5	0.0
2025-01-24 07:15:35.117929	75.9	43.8	-77.6	0.0
2025-01-24 07:15:36.239893	76.4	43.9	-77.4	0.0
2025-01-24 07:15:37.363412	76.9	44.0	-77.4	0.0
2025-01-24 07:15:38.485943	77.5	44.2	-77.4	0.0
2025-01-24 07:15:39.608095	78.0	44.3	-77.3	0.0
2025-01-24 07:15:40.732109	78.6	44.4	-77.3	0.0
2025-01-24 07:15:41.854669	79.1	44.5	-77.4	0.0
2025-01-24 07:15:42.979949	79.7	44.6	-77.7	0.0
2025-01-24 07:15:44.101050	80.2	44.7	-77.3	0.0
2025-01-24 07:15:45.222611	80.8	44.8	-77.6	0.0
2025-01-24 07:15:46.344467	81.4	44.9	-77.9	0.0
2025-01-24 07:15:47.467004	81.9	45.0	-77.4	0.0
2025-01-24 07:15:48.589465	82.5	45.1	-77.2	0.0
2025-01-24 07:15:49.711479	83.1	45.2	-77.6	0.0
2025-01-24 07:15:50.833761	83.7	45.3	-77.9	0.0
2025-01-24 07:15:51.957894	84.2	45.4	-77.8	0.0
2025-01-24 07:15:53.079725	84.8	45.5	-77.4	0.0
2025-01-24 07:15:54.202440	85.4	45.5	-77.7	0.0
2025-01-24 07:15:55.323070	86.0	45.6	-77.7	0.0
2025-01-24 07:15:56.446212	86.6	45.7	-77.7	0.0
2025-01-24 07:15:57.569478	87.2	45.8	-77.6	0.0
2025-01-24 07:15:58.691775	87.8	45.8	-77.6	0.0
2025-01-24 07:15:59.815007	88.4	45.9	-77.1	0.0
2025-01-24 07:16:00.937610	89.0	46.0	-77.2	0.0
2025-01-24 07:16:02.061075	89.6	46.0	-77.2	0.0
2025-01-24 07:16:03.184712	90.2	46.1	-77.7	0.0
2025-01-24 07:16:04.306190	90.8	46.1	-77.7	0.0
2025-01-24 07:16:05.429179	91.4	46.2	-77.2	0.0
2025-01-24 07:16:06.552567	92.0	46.2	-76.8	0.0
2025-01-24 07:16:07.675494	92.7	46.2	-77.2	0.0
2025-01-24 07:16:08.797686	93.3	46.3	-77.3	0.0
2025-01-24 07:16:09.920878	93.9	46.3	-77.5	0.0
2025-01-24 07:16:11.044078	94.5	46.3	-77.6	0.0
2025-01-24 07:16:12.165128	95.1	46.4	-77.6	0.0
2025-01-24 07:16:13.288081	95.7	46.4	-77.2	0.0
2025-01-24 07:16:14.410110	96.4	46.4	-77.7	0.0
2025-01-24 07:16:15.533906	97.0	46.4	-77.8	0.0
2025-01-24 07:16:16.656578	97.6	46.4	-77.3	0.0
2025-01-24 07:16:17.780181	98.2	46.4	-77.0	0.0
2025-01-24 07:16:18.902142	98.9	46.4	-77.0	0.0
2025-01-24 07:16:20.026024	99.5	46.4	-77.4	0.0
2025-01-24 07:16:21.149719	100.1	46.4	-77.1	0.0
2025-01-24 07:16:22.273232	100.7	46.4	-77.7	0.0
2025-01-24 07:16:23.400039	101.4	46.4	-77.4	0.0
2025-01-24 07:16:24.523936	102.0	46.4	-77.4	0.0
2025-01-24 07:16:25.647198	102.6	46.4	-77.2	0.0
2025-01-24 07:16:26.767920	103.2	46.4	-77.1	0.0
2025-01-24 07:16:27.892744	103.8	46.3	-77.0	0.0
2025-01-24 07:16:29.013973	104.5	46.3	-77.0	0.0
2025-01-24 07:16:30.138646	105.1	46.3	-77.3	0.0
2025-01-24 07:16:31.260210	105.7	46.3	-77.5	0.0
2025-01-24 07:16:32.383853	106.3	46.2	-77.6	0.0
2025-01-24 07:16:33.506771	106.9	46.2	-77.4	0.0
2025-01-24 07:16:34.629388	107.5	46.1	-77.3	0.0
2025-01-24 07:16:35.752317	108.1	46.1	-76.9	0.0
2025-01-24 07:16:36.876728	108.8	46.0	-77.2	0.0
2025-01-24 07:16:37.999114	109.4	46.0	-77.3	0.0
2025-01-24 07:16:39.121659	110.0	45.9	-77.1	0.0
2025-01-24 07:16:40.243814	110.6	45.8	-77.3	0.0
2025-01-24 07:16:41.366714	111.2	45.8	-76.8	0.0
2025-01-24 07:16:42.490635	111.8	45.7	-77.2	0.0
2025-01-24 07:16:43.615619	112.4	45.6	-76.8	0.0
2025-01-24 07:16:44.737418	112.9	45.6	-77.0	0.0
2025-01-24 07:16:45.859985	113.5	45.5	-76.6	0.0
2025-01-24 07:16:46.983403	114.1	45.4	-77.2	0.0
2025-01-24 07:16:48.104299	114.7	45.3	-77.2	0.0
2025-01-24 07:16:49.228306	115.3	45.2	-76.8	0.0
2025-01-24 07:16:50.349174	115.9	45.1	-77.4	0.0
2025-01-24 07:16:51.473119	116.4	45.0	-77.4	0.0
2025-01-24 07:16:52.596572	117.0	44.9	-77.7	0.0
2025-01-24 07:16:53.720332	117.6	44.8	-77.3	0.0
2025-01-24 07:16:54.841712	118.1	44.7	-77.5	0.0
2025-01-24 07:16:55.965346	118.7	44.6	-77.3	0.0
2025-01-24 07:16:57.088258	119.2	44.5	-77.4	0.0
2025-01-24 07:16:58.210456	119.8	44.4	-77.5	0.0
2025-01-24 07:16:59.333252	120.3	44.3	-77.5	0.0
2025-01-24 07:17:00.457877	120.9	44.2	-77.4	0.0
2025-01-24 07:17:01.579366	121.4	44.1	-77.1	0.0
2025-01-24 07:17:02.701909	122.0	43.9	-76.7	0.0
2025-01-24 07:17:03.825593	122.5	43.8	-77.3	0.0
2025-01-24 07:17:04.946470	123.0	43.7	-77.3	0.0
2025-01-24 07:17:06.071153	123.5	43.6	-77.3	0.0
2025-01-24 07:17:07.192792	124.1	43.4	-77.3	0.0
2025-01-24 07:17:08.316027	124.6	43.3	-77.4	0.0
2025-01-24 07:17:09.438220	125.1	43.2	-77.5	0.0
2025-01-24 07:17:10.561179	125.6	43.0	-77.5	0.0
2025-01-24 07:17:11.683358	126.1	42.9	-77.3	0.0
2025-01-24 07:17:12.806819	126.6	42.8	-77.2	0.0
2025-01-24 07:17:13.928420	127.1	42.6	-76.9	0.0
2025-01-24 07:17:15.051469	127.6	42.5	-77.2	0.0
2025-01-24 07:17:16.173351	128.1	42.3	-77.3	0.0
2025-01-24 07:17:17.296108	128.5	42.2	-77.4	0.0
2025-01-24 07:17:18.420084	129.0	42.0	-77.2	0.0
2025-01-24 07:17:19.542396	129.5	41.9	-77.1	0.0
2025-01-24 07:17:20.664506	130.0	41.7	-77.0	0.0
2025-01-24 07:17:21.786060	130.4	41.6	-77.1	0.0
2025-01-24 07:17:22.908543	130.9	41.4	-76.8	0.0
2025-01-24 07:17:24.032987	131.3	41.3	-77.2	0.0
2025-01-24 07:17:25.156580	131.8	41.1	-77.1	0.0
2025-01-24 07:17:26.281316	132.2	41.0	-77.4	0.0
2025-01-24 07:17:27.403694	132.7	40.8	-77.2	0.0
2025-01-24 07:17:28.524225	133.1	40.6	-77.0	0.0
2025-01-24 07:17:29.648437	133.5	40.5	-77.2	0.0
2025-01-24 07:17:30.772907	134.0	40.3	-77.1	0.0
2025-01-24 07:17:31.895341	134.4	40.1	-77.1	0.0
2025-01-24 07:17:33.016570	134.8	40.0	-77.2	0.0
2025-01-24 07:17:34.137988	135.2	39.8	-77.1	0.0
2025-01-24 07:17:35.260732	135.6	39.7	-77.1	0.0
2025-01-24 07:17:36.385676	136.1	39.5	-77.0	0.0
2025-01-24 07:17:37.508850	136.5	39.3	-77.2	0.0
2025-01-24 07:17:38.634958	136.9	39.1	-77.1	0.0
2025-01-24 07:17:39.758638	137.3	39.0	-76.7	0.0
2025-01-24 07:17:40.880717	137.6	38.8	-77.0	0.0
2025-01-24 07:17:42.002081	138.0	38.6	-77.0	0.0
2025-01-24 07:17:43.124963	138.4	38.5	-76.6	0.0
2025-01-24 07:17:44.245492	138.8	38.3	-77.1	0.0
2025-01-24 07:17:45.366908	139.2	38.1	-77.0	0.0
2025-01-24 07:17:46.487683	139.5	38.0	-77.5	0.0
2025-01-24 07:17:47.611526	139.9	37.8	-77.1	0.0
2025-01-24 07:17:48.735952	140.3	37.6	-77.4	0.0
2025-01-24 07:17:49.860837	140.6	37.4	-77.2	0.0
2025-01-24 07:17:50.985106	141.0	37.3	-77.7	0.0
2025-01-24 07:17:52.107842	141.4	37.1	-77.5	0.0
2025-01-24 07:17:53.230290	141.7	36.9	-77.6	0.0
2025-01-24 07:17:54.354687	142.0	36.7	-77.3	0.0
2025-01-24 07:17:55.477725	142.4	36.6	-77.5	0.0
2025-01-24 07:17:56.600648	142.7	36.4	-77.1	0.0
2025-01-24 07:17:57.722578	143.1	36.2	-77.5	0.0
2025-01-24 07:17:58.841630	143.4	36.0	-77.3	0.0
2025-01-24 07:17:59.962893	143.7	35.9	-77.1	0.0
2025-01-24 07:18:01.089475	144.0	35.7	-77.6	0.0
2025-01-24 07:18:02.212154	144.4	35.5	-77.1	0.0
2025-01-24 07:18:03.334363	144.7	35.3	-77.4	0.0
2025-01-24 07:18:04.458294	145.0	35.2	-77.6	0.0
2025-01-24 07:18:05.580511	145.3	35.0	-77.4	0.0
2025-01-24 07:18:06.703768	145.6	34.8	-77.3	0.0
2025-01-24 07:18:07.826178	145.9	34.6	-76.9	0.0
2025-01-24 07:18:08.950720	146.2	34.4	-77.4	0.0
2025-01-24 07:18:10.073878	146.5	34.3	-77.2	0.0
2025-01-24 07:18:11.195772	146.8	34.1	-77.2	0.0
2025-01-24 07:18:12.318310	147.1	33.9	-77.6	0.0
2025-01-24 07:18:13.442340	147.4	33.7	-77.0	0.0
2025-01-24 07:18:14.564416	147.7	33.6	-77.3	0.0
2025-01-24 07:18:15.688164	148.0	33.4	-75.9	0.0
2025-01-24 07:18:16.814340	148.3	33.2	-77.2	0.0
2025-01-24 07:18:17.937847	148.5	33.0	-77.3	0.0
2025-01-24 07:18:19.058982	148.8	32.9	-77.4	0.0
2025-01-24 07:18:20.181969	149.1	32.7	-77.2	0.0
2025-01-24 07:18:21.305169	149.3	32.5	-77.1	0.0
2025-01-24 07:18:22.429180	149.6	32.4	-76.2	0.0
2025-01-24 07:18:23.552138	149.9	32.2	-76.9	0.0
2025-01-24 07:18:24.675151	150.1	32.0	-77.1	0.0
2025-01-24 07:18:25.798573	150.4	31.8	-77.1	0.0
2025-01-24 07:18:26.919965	150.6	31.7	-77.5	0.0
2025-01-24 07:18:28.040847	150.9	31.5	-76.6	0.0
2025-01-24 07:18:29.164624	151.1	31.3	-77.0	0.0
2025-01-24 07:18:30.286832	151.4	31.2	-77.2	0.0
2025-01-24 07:18:31.410084	151.6	31.0	-77.2	0.0
2025-01-24 07:18:32.534637	151.9	30.8	-77.1	0.0
2025-01-24 07:18:33.656880	152.1	30.6	-77.0	0.0
2025-01-24 07:18:34.780453	152.4	30.5	-77.4	0.0
2025-01-24 07:18:35.903750	152.6	30.3	-77.2	0.0
2025-01-24 07:18:37.025402	152.8	30.1	-77.2	0.0
2025-01-24 07:18:38.150440	153.1	30.0	-77.1	0.0
2025-01-24 07:18:39.272720	153.3	29.8	-76.7	0.0
2025-01-24 07:18:40.395952	153.5	29.6	-76.5	0.0
2025-01-24 07:18:41.518487	153.7	29.5	-76.6	0.3
2025-01-24 07:18:42.640960	154.0	29.3	-76.7	0.0
2025-01-24 07:18:43.764139	154.2	29.1	-76.8	0.0
2025-01-24 07:18:44.887286	154.4	29.0	-76.5	0.0
2025-01-24 07:18:46.009008	154.6	28.8	-76.7	0.7
2025-01-24 07:18:47.130895	154.8	28.7	-76.8	1.9
2025-01-24 07:18:48.253604	155.0	28.5	-76.5	1.8
2025-01-24 07:18:49.377377	155.2	28.3	-76.8	2.9
2025-01-24 07:18:50.501766	155.4	28.2	-76.8	1.3
2025-01-24 07:18:51.626622	155.6	28.0	-76.9	0.7
2025-01-24 07:18:52.747957	155.8	27.8	-76.6	2.4
2025-01-24 07:18:53.870462	156.0	27.7	-76.8	1.7
2025-01-24 07:18:54.993696	156.2	27.5	-76.6	2.2
2025-01-24 07:18:56.115880	156.4	27.4	-76.5	2.8
2025-01-24 07:18:57.239660	156.6	27.2	-76.4	2.4
2025-01-24 07:18:58.365309	156.8	27.1	-76.7	2.6
2025-01-24 07:18:59.488962	157.0	26.9	-76.7	2.8
2025-01-24 07:19:00.613418	157.2	26.7	-76.4	4.3
2025-01-24 07:19:01.735921	157.4	26.6	-76.3	3.1
2025-01-24 07:19:02.857308	157.6	26.4	-76.4	2.6
2025-01-24 07:19:03.980305	157.8	26.3	-76.8	3.8
2025-01-24 07:19:05.102797	158.0	26.1	-76.4	4.2
2025-01-24 07:19:06.224910	158.1	26.0	-76.3	4.5
2025-01-24 07:19:07.346084	158.3	25.8	-76.5	5.1
2025-01-24 07:19:08.468617	158.5	25.7	-76.3	5.2
2025-01-24 07:19:09.590600	158.7	25.5	-76.0	4.7
2025-01-24 07:19:10.713298	158.8	25.4	-76.4	5.3
2025-01-24 07:19:11.836370	159.0	25.2	-76.2	5.8
2025-01-24 07:19:12.958017	159.2	25.1	-76.3	5.5
2025-01-24 07:19:14.079511	159.3	24.9	-76.2	5.5
2025-01-24 07:19:15.200943	159.5	24.8	-76.3	5.5
2025-01-24 07:19:16.324484	159.7	24.6	-75.7	4.9
2025-01-24 07:19:17.447206	159.8	24.5	-76.1	5.9
2025-01-24 07:19:18.571128	160.0	24.3	-75.9	4.1
2025-01-24 07:19:19.694542	160.2	24.2	-75.8	5.3
2025-01-24 07:19:20.819784	160.3	24.0	-75.5	6.0
2025-01-24 07:19:21.942201	160.5	23.9	-75.2	4.3
2025-01-24 07:19:23.064083	160.6	23.7	-75.9	4.7
2025-01-24 07:19:24.185776	160.8	23.6	-75.7	6.0
2025-01-24 07:19:25.307269	161.0	23.4	-75.7	6.2
2025-01-24 07:19:26.432835	161.1	23.3	-75.8	7.2
2025-01-24 07:19:27.556342	161.3	23.2	-75.8	7.5
2025-01-24 07:19:28.678066	161.4	23.0	-75.6	6.4
2025-01-24 07:19:29.801837	161.6	22.9	-75.7	5.9
2025-01-24 07:19:30.925182	161.7	22.7	-76.2	6.2
2025-01-24 07:19:32.047359	161.9	22.6	-75.9	6.0
2025-01-24 07:19:33.170471	162.0	22.5	-75.7	6.1
2025-01-24 07:19:34.295300	162.1	22.3	-76.1	6.2
2025-01-24 07:19:35.418077	162.3	22.2	-76.2	6.8
2025-01-24 07:19:36.542036	162.4	22.0	-76.0	6.8
2025-01-24 07:19:37.665318	162.6	21.9	-76.1	6.5
2025-01-24 07:19:38.787534	162.7	21.8	-76.0	6.1
2025-01-24 07:19:39.913025	162.8	21.6	-75.6	5.8
2025-01-24 07:19:41.035050	163.0	21.5	-75.5	4.6
2025-01-24 07:19:42.156013	163.1	21.4	-75.7	4.7
2025-01-24 07:19:43.278898	163.3	21.2	-76.4	4.9
2025-01-24 07:19:44.403234	163.4	21.1	-76.2	6.3
2025-01-24 07:19:45.525350	163.5	21.0	-76.0	6.2
2025-01-24 07:19:46.643574	163.6	20.8	-76.3	5.6
2025-01-24 07:19:47.766562	163.8	20.7	-76.0	5.9
2025-01-24 07:19:48.890957	163.9	20.6	-76.0	6.0
2025-01-24 07:19:50.011306	164.0	20.4	-76.3	5.3
2025-01-24 07:19:51.132318	164.2	20.3	-76.0	6.5
2025-01-24 07:19:52.256023	164.3	20.2	-76.1	6.6
2025-01-24 07:19:53.378124	164.4	20.0	-75.7	6.7
2025-01-24 07:19:54.502956	164.5	19.9	-76.0	6.8
2025-01-24 07:19:55.626196	164.7	19.8	-76.0	6.5
2025-01-24 07:19:56.748181	164.8	19.6	-76.0	7.4
2025-01-24 07:19:57.870680	164.9	19.5	-75.7	5.9
2025-01-24 07:19:58.995678	165.0	19.4	-75.4	6.0
2025-01-24 07:20:00.116983	165.1	19.3	-75.3	5.8
2025-01-24 07:20:01.238708	165.3	19.1	-75.6	6.4
2025-01-24 07:20:02.361700	165.4	19.0	-75.7	6.9
2025-01-24 07:20:03.483437	165.5	18.9	-75.7	7.7
2025-01-24 07:20:04.608572	165.6	18.8	-75.6	7.6
2025-01-24 07:20:05.733535	165.7	18.6	-75.7	7.9
2025-01-24 07:20:06.855953	165.8	18.5	-75.6	6.2
2025-01-24 07:20:07.980592	166.0	18.4	-75.6	7.0
2025-01-24 07:20:09.104245	166.1	18.3	-75.7	7.1
2025-01-24 07:20:10.227214	166.2	18.1	-75.7	6.7
2025-01-24 07:20:11.351164	166.3	18.0	-75.7	6.3
2025-01-24 07:20:12.473408	166.4	17.9	-75.8	6.9
2025-01-24 07:20:13.597009	166.5	17.8	-75.7	5.7
2025-01-24 07:20:14.719111	166.6	17.7	-75.9	5.9
2025-01-24 07:20:15.840292	166.7	17.5	-75.9	6.2
2025-01-24 07:20:16.965052	166.8	17.4	-75.8	6.2
2025-01-24 07:20:18.088575	166.9	17.3	-76.0	5.3
2025-01-24 07:20:19.210303	167.0	17.2	-75.9	6.2
2025-01-24 07:20:20.333743	167.1	17.1	-75.5	6.2
2025-01-24 07:20:21.457670	167.2	17.0	-75.5	6.1
2025-01-24 07:20:22.581433	167.3	16.8	-75.7	5.4
2025-01-24 07:20:23.706037	167.4	16.7	-75.3	4.9
2025-01-24 07:20:24.829404	167.5	16.6	-75.4	4.7
2025-01-24 07:20:25.952274	167.6	16.5	-75.0	4.7
2025-01-24 07:20:27.072534	167.7	16.4	-75.4	4.7
2025-01-24 07:20:28.195314	167.8	16.3	-75.2	4.9
2025-01-24 07:20:29.317495	167.9	16.1	-75.4	4.1
2025-01-24 07:20:30.440830	168.0	16.0	-75.6	4.3
2025-01-24 07:20:31.562288	168.1	15.9	-75.8	4.5
2025-01-24 07:20:32.686266	168.2	15.8	-75.4	4.5
2025-01-24 07:20:33.809074	168.3	15.7	-75.5	4.3
2025-01-24 07:20:34.931093	168.4	15.6	-75.9	4.7
2025-01-24 07:20:36.054148	168.5	15.5	-75.9	4.0
2025-01-24 07:20:37.177129	168.6	15.4	-75.6	4.5
2025-01-24 07:20:38.301257	168.7	15.3	-75.9	4.5
2025-01-24 07:20:39.423425	168.8	15.1	-75.7	3.9
2025-01-24 07:20:40.547238	168.9	15.0	-75.9	4.4
2025-01-24 07:20:41.670829	169.0	14.9	-75.5	2.8
2025-01-24 07:20:42.795610	169.1	14.8	-75.7	2.6
2025-01-24 07:20:43.919019	169.1	14.7	-75.7	3.3
2025-01-24 07:20:45.043771	169.2	14.6	-75.6	3.2
2025-01-24 07:20:46.166826	169.3	14.5	-75.9	2.9
2025-01-24 07:20:47.288483	169.4	14.4	-76.2	3.7
2025-01-24 07:20:48.411007	169.5	14.3	-75.5	3.7
2025-01-24 07:20:49.533598	169.6	14.2	-75.9	2.3
2025-01-24 07:20:50.658544	169.7	14.1	-75.9	2.9
2025-01-24 07:20:51.781920	169.8	14.0	-76.3	1.6
2025-01-24 07:20:52.904153	169.8	13.9	-76.2	2.6
2025-01-24 07:20:54.028166	169.9	13.7	-76.1	2.5
2025-01-24 07:20:55.152214	170.0	13.6	-76.4	1.5
2025-01-24 07:20:56.273837	170.1	13.5	-76.2	3.0
2025-01-24 07:20:57.395856	170.2	13.4	-75.7	1.8
2025-01-24 07:20:58.519865	170.3	13.3	-76.0	0.9
2025-01-24 07:20:59.641813	170.3	13.2	-76.1	2.9
2025-01-24 07:21:00.766040	170.4	13.1	-76.0	2.7
2025-01-24 07:21:01.889037	170.5	13.0	-76.3	0.3
2025-01-24 07:21:03.010740	170.6	12.9	-76.3	2.0
2025-01-24 07:21:04.136471	170.7	12.8	-76.4	1.7
2025-01-24 07:21:05.258665	170.7	12.7	-76.4	1.5
2025-01-24 07:21:06.380957	170.8	12.6	-76.4	1.3
2025-01-24 07:21:07.504617	170.9	12.5	-76.0	2.1
2025-01-24 07:21:08.626314	171.0	12.4	-76.2	1.5
2025-01-24 07:21:09.747444	171.0	12.3	-76.5	0.0
2025-01-24 07:21:10.870876	171.1	12.2	-75.9	1.9
2025-01-24 07:21:11.993738	171.2	12.1	-76.1	1.0
2025-01-24 07:21:13.117452	171.3	12.0	-76.1	1.4
2025-01-24 07:21:14.240805	171.3	11.9	-76.2	2.7
2025-01-24 07:21:15.363724	171.4	11.8	-75.7	1.1
2025-01-24 07:21:16.486463	171.5	11.7	-76.1	1.0
2025-01-24 07:21:17.607785	171.6	11.6	-76.2	2.1
2025-01-24 07:21:18.731331	171.6	11.5	-76.5	0.0
2025-01-24 07:21:19.854955	171.7	11.4	-76.0	0.0
2025-01-24 07:21:20.977214	171.8	11.3	-76.5	0.0
2025-01-24 07:21:22.098980	171.9	11.2	-76.3	0.0
2025-01-24 07:21:23.223814	171.9	11.2	-76.2	0.2
2025-01-24 07:21:24.345148	172.0	11.1	-76.4	0.0
2025-01-24 07:21:25.468335	172.1	11.0	-76.1	0.0
2025-01-24 07:21:26.590844	172.1	10.9	-76.3	0.0
2025-01-24 07:21:27.713509	172.2	10.8	-76.8	0.0
2025-01-24 07:21:28.835468	172.3	10.7	-76.6	0.0
2025-01-24 07:21:29.958057	172.3	10.6	-76.3	0.0
2025-01-24 07:21:31.083451	172.4	10.5	-76.7	0.0
2025-01-24 07:21:32.206721	172.5	10.4	-76.4	0.0
2025-01-24 07:21:33.328450	172.5	10.3	-76.3	0.0
2025-01-24 07:21:34.451311	172.6	10.2	-76.4	0.0
2025-01-24 07:21:35.575579	172.7	10.1	-76.9	0.0
2025-01-24 07:21:36.701508	172.7	10.0	-76.2	0.0
#Closed at: 2025-01-24 07:10:56.185284