passes_logs/2025/01/24/planumMaritime01/planumMaritime01__20250124_205018_NOAA_18_rec.log

#Pass ID: 20250124_205018_NOAA 18
#Satellite: NOAA 18
#Configuration: NOAA 18
#Start time: 2025-01-24 20:50:23.006607

#LorettStation: 1.0.0 05.05.2024
#Station: planumMaritime01
#Location: 37.49445 lon 55.92918 lat
#TLE: 1 28654U 05018A   25023.79872758  .00000470  00000+0  27266-3 0  9990
#TLE: 2 28654  98.8553 104.7652 0014753 154.7972 205.3923 14.13495354 14429

#Time	Az	El	Level	SNR
2025-01-24 20:50:25.164918	219.4	10.1	-75.5	0.0
2025-01-24 20:50:26.286188	219.5	10.2	-75.1	0.0
2025-01-24 20:50:27.409525	219.6	10.3	-75.8	0.0
2025-01-24 20:50:28.531139	219.8	10.4	-75.8	0.0
2025-01-24 20:50:29.656104	219.9	10.4	-75.9	0.0
2025-01-24 20:50:30.780348	220.1	10.5	-75.3	0.0
2025-01-24 20:50:31.904792	220.2	10.6	-75.4	0.0
2025-01-24 20:50:33.026951	220.3	10.6	-75.7	0.0
2025-01-24 20:50:34.149705	220.5	10.7	-75.2	0.0
2025-01-24 20:50:35.272980	220.6	10.8	-75.3	0.0
2025-01-24 20:50:36.396450	220.7	10.9	-75.7	0.0
2025-01-24 20:50:37.518725	220.9	10.9	-75.5	0.0
2025-01-24 20:50:38.641488	221.0	11.0	-75.6	0.0
2025-01-24 20:50:39.764150	221.2	11.1	-76.4	0.0
2025-01-24 20:50:40.886982	221.3	11.2	-75.7	0.0
2025-01-24 20:50:42.010496	221.4	11.2	-75.4	0.0
2025-01-24 20:50:43.136777	221.6	11.3	-76.1	0.0
2025-01-24 20:50:44.258940	221.7	11.4	-76.2	0.0
2025-01-24 20:50:45.382545	221.9	11.5	-76.1	0.0
2025-01-24 20:50:46.505566	222.0	11.5	-75.1	0.0
2025-01-24 20:50:47.628430	222.2	11.6	-75.6	0.0
2025-01-24 20:50:48.750549	222.3	11.7	-75.7	0.0
2025-01-24 20:50:49.874248	222.5	11.7	-75.4	0.0
2025-01-24 20:50:50.997767	222.6	11.8	-75.2	0.0
2025-01-24 20:50:52.120900	222.8	11.9	-75.4	0.0
2025-01-24 20:50:53.242679	222.9	12.0	-75.7	0.0
2025-01-24 20:50:54.365137	223.1	12.0	-75.5	0.0
2025-01-24 20:50:55.487806	223.2	12.1	-75.4	0.0
2025-01-24 20:50:56.610110	223.4	12.2	-75.5	0.0
2025-01-24 20:50:57.735196	223.5	12.3	-76.1	0.0
2025-01-24 20:50:58.855530	223.7	12.3	-75.8	0.0
2025-01-24 20:50:59.979108	223.8	12.4	-75.9	0.0
2025-01-24 20:51:01.100565	224.0	12.5	-75.7	0.0
2025-01-24 20:51:02.220487	224.1	12.6	-75.1	0.0
2025-01-24 20:51:03.344945	224.3	12.6	-76.1	0.0
2025-01-24 20:51:04.466647	224.4	12.7	-75.2	0.0
2025-01-24 20:51:05.591172	224.6	12.8	-75.4	0.0
2025-01-24 20:51:06.717113	224.8	12.9	-75.3	0.0
2025-01-24 20:51:07.837954	224.9	12.9	-75.9	0.0
2025-01-24 20:51:08.961199	225.1	13.0	-75.8	0.0
2025-01-24 20:51:10.083576	225.2	13.1	-75.6	0.0
2025-01-24 20:51:11.206771	225.4	13.2	-75.7	0.0
2025-01-24 20:51:12.333214	225.6	13.2	-76.0	0.0
2025-01-24 20:51:13.455309	225.7	13.3	-76.2	0.0
2025-01-24 20:51:14.580591	225.9	13.4	-76.1	0.0
2025-01-24 20:51:15.703930	226.1	13.5	-75.7	0.0
2025-01-24 20:51:16.827249	226.2	13.5	-75.7	0.0
2025-01-24 20:51:17.950714	226.4	13.6	-75.9	0.0
2025-01-24 20:51:19.074441	226.5	13.7	-76.1	0.0
2025-01-24 20:51:20.196002	226.7	13.8	-75.6	0.0
2025-01-24 20:51:21.317199	226.9	13.8	-75.6	0.0
2025-01-24 20:51:22.438474	227.1	13.9	-75.5	0.0
2025-01-24 20:51:23.564413	227.2	14.0	-75.6	0.0
2025-01-24 20:51:24.689624	227.4	14.1	-75.7	0.0
2025-01-24 20:51:25.813782	227.6	14.1	-75.9	0.0
2025-01-24 20:51:26.934304	227.7	14.2	-76.0	0.0
2025-01-24 20:51:28.056021	227.9	14.3	-76.2	0.0
2025-01-24 20:51:29.179870	228.1	14.4	-76.0	0.0
2025-01-24 20:51:30.304682	228.3	14.4	-76.1	0.0
2025-01-24 20:51:31.428696	228.4	14.5	-76.1	0.0
2025-01-24 20:51:32.552657	228.6	14.6	-76.1	0.0
2025-01-24 20:51:33.676895	228.8	14.7	-76.1	0.0
2025-01-24 20:51:34.799709	229.0	14.7	-75.8	0.0
2025-01-24 20:51:35.920140	229.2	14.8	-76.8	0.0
2025-01-24 20:51:37.043631	229.3	14.9	-76.6	0.0
2025-01-24 20:51:38.166668	229.5	14.9	-76.1	0.0
2025-01-24 20:51:39.288397	229.7	15.0	-75.9	0.0
2025-01-24 20:51:40.411571	229.9	15.1	-76.4	0.0
2025-01-24 20:51:41.535259	230.1	15.2	-76.0	0.0
2025-01-24 20:51:42.657640	230.2	15.2	-76.0	0.0
2025-01-24 20:51:43.782622	230.4	15.3	-75.6	0.0
2025-01-24 20:51:44.908432	230.6	15.4	-75.9	0.0
2025-01-24 20:51:46.031555	230.8	15.5	-75.9	0.0
2025-01-24 20:51:47.154661	231.0	15.5	-76.2	0.0
2025-01-24 20:51:48.278585	231.2	15.6	-76.1	0.0
2025-01-24 20:51:49.401793	231.4	15.7	-76.2	0.0
2025-01-24 20:51:50.525020	231.6	15.8	-76.2	0.0
2025-01-24 20:51:51.648791	231.8	15.8	-76.2	0.0
2025-01-24 20:51:52.772527	231.9	15.9	-76.2	0.0
2025-01-24 20:51:53.896613	232.1	16.0	-76.7	0.0
2025-01-24 20:51:55.017517	232.3	16.1	-76.3	0.0
2025-01-24 20:51:56.138314	232.5	16.1	-76.2	0.0
2025-01-24 20:51:57.261748	232.7	16.2	-75.8	0.0
2025-01-24 20:51:58.386779	232.9	16.3	-76.3	0.0
2025-01-24 20:51:59.511697	233.1	16.3	-76.5	0.0
2025-01-24 20:52:00.634998	233.3	16.4	-76.8	0.0
2025-01-24 20:52:01.757891	233.5	16.5	-76.0	0.0
2025-01-24 20:52:02.881585	233.7	16.6	-77.0	0.0
2025-01-24 20:52:04.005870	233.9	16.6	-76.7	0.0
2025-01-24 20:52:05.129500	234.1	16.7	-76.5	0.0
2025-01-24 20:52:06.255313	234.3	16.8	-76.1	0.0
2025-01-24 20:52:07.379096	234.5	16.9	-76.8	0.0
2025-01-24 20:52:08.502741	234.7	16.9	-76.2	0.0
2025-01-24 20:52:09.626717	235.0	17.0	-76.5	0.0
2025-01-24 20:52:10.748147	235.2	17.1	-76.3	0.0
2025-01-24 20:52:11.871143	235.4	17.1	-76.5	0.0
2025-01-24 20:52:12.993854	235.6	17.2	-77.0	0.0
2025-01-24 20:52:14.116084	235.8	17.3	-76.5	0.0
2025-01-24 20:52:15.237770	236.0	17.4	-76.1	0.0
2025-01-24 20:52:16.362154	236.2	17.4	-76.0	0.0
2025-01-24 20:52:17.484028	236.4	17.5	-75.9	0.0
2025-01-24 20:52:18.608381	236.6	17.6	-76.2	0.0
2025-01-24 20:52:19.731286	236.9	17.6	-76.2	0.0
2025-01-24 20:52:20.855099	237.1	17.7	-76.0	0.0
2025-01-24 20:52:21.978868	237.3	17.8	-76.1	0.0
2025-01-24 20:52:23.103295	237.5	17.8	-76.8	0.0
2025-01-24 20:52:24.226910	237.7	17.9	-76.1	0.0
2025-01-24 20:52:25.349577	237.9	18.0	-75.8	0.0
2025-01-24 20:52:26.472021	238.2	18.0	-75.9	0.0
2025-01-24 20:52:27.593010	238.4	18.1	-76.3	0.0
2025-01-24 20:52:28.715955	238.6	18.2	-76.8	0.0
2025-01-24 20:52:29.839651	238.8	18.3	-76.5	0.0
2025-01-24 20:52:30.963609	239.1	18.3	-76.4	0.0
2025-01-24 20:52:32.085787	239.3	18.4	-76.6	0.0
2025-01-24 20:52:33.210296	239.5	18.5	-76.3	0.0
2025-01-24 20:52:34.335232	239.7	18.5	-76.1	0.0
2025-01-24 20:52:35.456566	240.0	18.6	-76.2	0.0
2025-01-24 20:52:36.579632	240.2	18.7	-76.4	0.0
2025-01-24 20:52:37.703716	240.4	18.7	-76.5	0.0
2025-01-24 20:52:38.826028	240.7	18.8	-76.3	0.0
2025-01-24 20:52:39.948684	240.9	18.9	-76.1	0.0
2025-01-24 20:52:41.073444	241.1	18.9	-76.3	0.0
2025-01-24 20:52:42.196088	241.4	19.0	-75.8	0.0
2025-01-24 20:52:43.317885	241.6	19.1	-76.4	0.0
2025-01-24 20:52:44.440170	241.8	19.1	-76.5	0.0
2025-01-24 20:52:45.561287	242.1	19.2	-76.1	0.0
2025-01-24 20:52:46.682903	242.3	19.2	-76.2	0.0
2025-01-24 20:52:47.807709	242.6	19.3	-76.4	0.0
2025-01-24 20:52:48.930073	242.8	19.4	-76.3	0.0
2025-01-24 20:52:50.051330	243.0	19.4	-76.6	0.0
2025-01-24 20:52:51.174772	243.3	19.5	-76.1	0.0
2025-01-24 20:52:52.297753	243.5	19.6	-76.5	0.0
2025-01-24 20:52:53.420763	243.8	19.6	-76.4	0.0
2025-01-24 20:52:54.545659	244.0	19.7	-76.1	0.0
2025-01-24 20:52:55.670895	244.3	19.7	-76.5	0.0
2025-01-24 20:52:56.794157	244.5	19.8	-75.9	0.0
2025-01-24 20:52:57.913774	244.8	19.9	-76.2	0.0
2025-01-24 20:52:59.037340	245.0	19.9	-76.1	0.0
2025-01-24 20:53:00.158931	245.3	20.0	-75.5	0.0
2025-01-24 20:53:01.281498	245.5	20.0	-76.5	0.0
2025-01-24 20:53:02.402865	245.8	20.1	-76.5	0.0
2025-01-24 20:53:03.524106	246.0	20.2	-75.8	0.0
2025-01-24 20:53:04.647219	246.3	20.2	-76.6	0.0
2025-01-24 20:53:05.769495	246.5	20.3	-76.3	0.0
2025-01-24 20:53:06.890994	246.8	20.3	-76.5	0.0
2025-01-24 20:53:08.013509	247.0	20.4	-75.9	0.0
2025-01-24 20:53:09.138378	247.3	20.4	-76.8	0.0
2025-01-24 20:53:10.261130	247.6	20.5	-76.4	0.0
2025-01-24 20:53:11.385589	247.8	20.6	-76.3	0.0
2025-01-24 20:53:12.507558	248.1	20.6	-76.5	0.0
2025-01-24 20:53:13.628973	248.3	20.7	-76.2	0.0
2025-01-24 20:53:14.751018	248.6	20.7	-76.7	0.0
2025-01-24 20:53:15.875510	248.9	20.8	-76.6	0.0
2025-01-24 20:53:17.000440	249.1	20.8	-76.5	0.0
2025-01-24 20:53:18.122470	249.4	20.9	-76.2	0.0
2025-01-24 20:53:19.247361	249.7	20.9	-76.7	0.0
2025-01-24 20:53:20.370561	249.9	21.0	-76.5	0.0
2025-01-24 20:53:21.492593	250.2	21.0	-76.4	0.0
2025-01-24 20:53:22.618202	250.5	21.1	-76.7	0.0
2025-01-24 20:53:23.741120	250.7	21.1	-76.2	0.0
2025-01-24 20:53:24.863498	251.0	21.2	-76.6	0.0
2025-01-24 20:53:25.985788	251.3	21.2	-76.2	0.0
2025-01-24 20:53:27.107455	251.5	21.3	-76.7	0.0
2025-01-24 20:53:28.233068	251.8	21.3	-76.6	0.0
2025-01-24 20:53:29.357369	252.1	21.4	-76.6	0.0
2025-01-24 20:53:30.480372	252.4	21.4	-76.5	0.0
2025-01-24 20:53:31.604168	252.6	21.5	-76.9	0.0
2025-01-24 20:53:32.727834	252.9	21.5	-76.6	0.0
2025-01-24 20:53:33.850052	253.2	21.6	-77.0	0.0
2025-01-24 20:53:34.973559	253.5	21.6	-76.7	0.0
2025-01-24 20:53:36.096022	253.7	21.6	-76.8	0.0
2025-01-24 20:53:37.219422	254.0	21.7	-76.3	0.0
2025-01-24 20:53:38.343596	254.3	21.7	-76.5	0.0
2025-01-24 20:53:39.467586	254.6	21.8	-77.1	0.0
2025-01-24 20:53:40.590257	254.9	21.8	-76.4	0.0
2025-01-24 20:53:41.713950	255.1	21.8	-76.2	0.0
2025-01-24 20:53:42.837698	255.4	21.9	-76.4	0.0
2025-01-24 20:53:43.961821	255.7	21.9	-76.5	0.0
2025-01-24 20:53:45.083751	256.0	22.0	-76.3	0.0
2025-01-24 20:53:46.207347	256.3	22.0	-76.2	0.0
2025-01-24 20:53:47.329430	256.6	22.0	-76.6	0.0
2025-01-24 20:53:48.453293	256.8	22.1	-76.6	0.0
2025-01-24 20:53:49.576119	257.1	22.1	-76.9	0.0
2025-01-24 20:53:50.699538	257.4	22.1	-76.3	0.0
2025-01-24 20:53:51.823152	257.7	22.2	-76.4	0.0
2025-01-24 20:53:52.947205	258.0	22.2	-77.0	0.0
2025-01-24 20:53:54.069440	258.3	22.2	-76.4	0.0
2025-01-24 20:53:55.191624	258.6	22.3	-76.4	0.0
2025-01-24 20:53:56.314807	258.9	22.3	-76.8	0.0
2025-01-24 20:53:57.438996	259.1	22.3	-76.8	0.0
2025-01-24 20:53:58.559348	259.4	22.4	-76.7	0.0
2025-01-24 20:53:59.682256	259.7	22.4	-76.8	0.0
2025-01-24 20:54:00.805252	260.0	22.4	-76.6	0.0
2025-01-24 20:54:01.926925	260.3	22.5	-76.5	0.0
2025-01-24 20:54:03.050151	260.6	22.5	-76.4	0.0
2025-01-24 20:54:04.174221	260.9	22.5	-76.4	0.0
2025-01-24 20:54:05.299125	261.2	22.5	-76.5	0.0
2025-01-24 20:54:06.423836	261.5	22.6	-76.8	0.0
2025-01-24 20:54:07.545941	261.8	22.6	-77.1	0.0
2025-01-24 20:54:08.669925	262.1	22.6	-76.9	0.0
2025-01-24 20:54:09.792795	262.4	22.6	-76.8	0.0
2025-01-24 20:54:10.915606	262.7	22.7	-77.0	0.0
2025-01-24 20:54:12.041524	263.0	22.7	-76.8	0.0
2025-01-24 20:54:13.165842	263.3	22.7	-77.0	0.0
2025-01-24 20:54:14.290354	263.6	22.7	-76.6	0.0
2025-01-24 20:54:15.413286	263.9	22.7	-76.7	0.0
2025-01-24 20:54:16.536032	264.2	22.7	-76.8	0.0
2025-01-24 20:54:17.657956	264.5	22.8	-76.1	0.0
2025-01-24 20:54:18.780618	264.8	22.8	-76.7	0.0
2025-01-24 20:54:19.903688	265.1	22.8	-76.1	0.0
2025-01-24 20:54:21.026894	265.4	22.8	-76.4	0.0
2025-01-24 20:54:22.149389	265.7	22.8	-76.7	0.0
2025-01-24 20:54:23.273474	266.0	22.8	-77.0	0.0
2025-01-24 20:54:24.396309	266.3	22.9	-76.9	0.0
2025-01-24 20:54:25.519904	266.6	22.9	-77.2	0.0
2025-01-24 20:54:26.644411	266.9	22.9	-76.6	0.0
2025-01-24 20:54:27.768760	267.2	22.9	-76.4	0.0
2025-01-24 20:54:28.890404	267.5	22.9	-76.9	0.0
2025-01-24 20:54:30.014666	267.8	22.9	-76.6	0.0
2025-01-24 20:54:31.137208	268.1	22.9	-76.3	0.0
2025-01-24 20:54:32.263393	268.4	22.9	-76.4	0.0
2025-01-24 20:54:33.386459	268.7	22.9	-76.8	0.0
2025-01-24 20:54:34.507853	269.0	22.9	-76.6	0.0
2025-01-24 20:54:35.630182	269.3	22.9	-76.7	0.0
2025-01-24 20:54:36.753632	269.6	22.9	-76.9	0.0
2025-01-24 20:54:37.875469	269.9	22.9	-76.4	0.0
2025-01-24 20:54:38.997706	270.2	22.9	-76.8	0.0
2025-01-24 20:54:40.118286	270.5	22.9	-76.8	0.0
2025-01-24 20:54:41.241857	270.8	22.9	-76.7	0.0
2025-01-24 20:54:42.363488	271.1	22.9	-76.5	0.0
2025-01-24 20:54:43.485109	271.4	22.9	-76.5	0.0
2025-01-24 20:54:44.609354	271.7	22.9	-76.6	0.0
2025-01-24 20:54:45.730823	272.0	22.9	-76.6	0.0
2025-01-24 20:54:46.852933	272.3	22.9	-76.5	0.0
2025-01-24 20:54:47.976100	272.6	22.9	-76.5	0.0
2025-01-24 20:54:49.098659	272.9	22.9	-76.5	0.0
2025-01-24 20:54:50.220019	273.2	22.9	-77.0	0.0
2025-01-24 20:54:51.343043	273.5	22.9	-76.8	0.0
2025-01-24 20:54:52.464912	273.8	22.9	-76.6	0.0
2025-01-24 20:54:53.588697	274.1	22.9	-76.7	0.0
2025-01-24 20:54:54.711941	274.4	22.9	-76.8	0.0
2025-01-24 20:54:55.832980	274.7	22.9	-76.0	0.0
2025-01-24 20:54:56.955590	275.0	22.9	-76.6	0.0
2025-01-24 20:54:58.077659	275.3	22.9	-76.6	0.0
2025-01-24 20:54:59.200836	275.6	22.8	-76.5	0.0
2025-01-24 20:55:00.325199	275.9	22.8	-76.9	0.0
2025-01-24 20:55:01.448523	276.2	22.8	-76.8	0.0
2025-01-24 20:55:02.571576	276.5	22.8	-76.8	0.0
2025-01-24 20:55:03.693917	276.8	22.8	-76.6	0.0
2025-01-24 20:55:04.814223	277.1	22.8	-76.0	0.0
2025-01-24 20:55:05.937038	277.4	22.8	-76.8	0.0
2025-01-24 20:55:07.059158	277.7	22.7	-76.4	0.0
2025-01-24 20:55:08.181456	278.0	22.7	-76.4	0.0
2025-01-24 20:55:09.303765	278.3	22.7	-76.5	0.0
2025-01-24 20:55:10.426434	278.6	22.7	-76.5	0.0
2025-01-24 20:55:11.546691	278.9	22.7	-76.5	0.0
2025-01-24 20:55:12.670980	279.2	22.6	-77.0	0.0
2025-01-24 20:55:13.797158	279.5	22.6	-76.7	0.0
2025-01-24 20:55:14.918822	279.8	22.6	-76.8	0.0
2025-01-24 20:55:16.042652	280.1	22.6	-76.5	0.0
2025-01-24 20:55:17.166216	280.4	22.5	-76.7	0.0
2025-01-24 20:55:18.289387	280.6	22.5	-76.6	0.0
2025-01-24 20:55:19.412646	280.9	22.5	-76.7	0.0
2025-01-24 20:55:20.536100	281.2	22.5	-76.6	0.0
2025-01-24 20:55:21.658512	281.5	22.4	-77.5	0.0
2025-01-24 20:55:22.781959	281.8	22.4	-77.5	0.0
2025-01-24 20:55:23.905482	282.1	22.4	-76.8	0.0
2025-01-24 20:55:25.027415	282.4	22.3	-77.1	0.0
2025-01-24 20:55:26.149446	282.7	22.3	-76.9	0.0
2025-01-24 20:55:27.271185	283.0	22.3	-77.0	0.0
2025-01-24 20:55:28.393707	283.3	22.2	-77.3	0.0
2025-01-24 20:55:29.516481	283.6	22.2	-77.2	0.0
2025-01-24 20:55:30.638949	283.8	22.2	-76.9	0.0
2025-01-24 20:55:31.763514	284.1	22.1	-76.8	0.0
2025-01-24 20:55:32.888406	284.4	22.1	-76.5	0.0
2025-01-24 20:55:34.012517	284.7	22.1	-76.6	0.0
2025-01-24 20:55:35.133014	285.0	22.0	-76.3	0.0
2025-01-24 20:55:36.257481	285.3	22.0	-76.7	0.0
2025-01-24 20:55:37.378680	285.6	22.0	-76.5	0.0
2025-01-24 20:55:38.501537	285.8	21.9	-77.2	0.0
2025-01-24 20:55:39.625780	286.1	21.9	-76.8	0.0
2025-01-24 20:55:40.749786	286.4	21.8	-77.1	0.0
2025-01-24 20:55:41.873975	286.7	21.8	-76.8	0.0
2025-01-24 20:55:42.997327	287.0	21.8	-76.6	0.0
2025-01-24 20:55:44.121226	287.2	21.7	-76.0	0.0
2025-01-24 20:55:45.242570	287.5	21.7	-76.4	0.0
2025-01-24 20:55:46.365345	287.8	21.6	-76.2	0.0
2025-01-24 20:55:47.487236	288.1	21.6	-76.2	0.0
2025-01-24 20:55:48.608235	288.4	21.6	-76.5	0.0
2025-01-24 20:55:49.730317	288.6	21.5	-76.7	0.0
2025-01-24 20:55:50.854151	288.9	21.5	-76.4	0.0
2025-01-24 20:55:51.976335	289.2	21.4	-76.3	0.0
2025-01-24 20:55:53.099384	289.5	21.4	-76.7	0.0
2025-01-24 20:55:54.222010	289.7	21.3	-76.5	0.0
2025-01-24 20:55:55.343429	290.0	21.3	-76.5	0.0
2025-01-24 20:55:56.466519	290.3	21.2	-76.3	0.0
2025-01-24 20:55:57.590723	290.5	21.2	-76.6	0.0
2025-01-24 20:55:58.713566	290.8	21.1	-76.4	0.0
2025-01-24 20:55:59.837781	291.1	21.1	-76.5	0.0
2025-01-24 20:56:00.961486	291.4	21.0	-76.1	0.0
2025-01-24 20:56:02.082534	291.6	21.0	-76.1	0.0
2025-01-24 20:56:03.204806	291.9	20.9	-76.5	0.0
2025-01-24 20:56:04.328041	292.2	20.9	-76.5	0.0
2025-01-24 20:56:05.450377	292.4	20.8	-76.8	0.0
2025-01-24 20:56:06.573509	292.7	20.8	-76.5	0.0
2025-01-24 20:56:07.697295	292.9	20.7	-76.6	0.0
2025-01-24 20:56:08.820873	293.2	20.7	-76.5	0.0
2025-01-24 20:56:09.944055	293.5	20.6	-76.3	0.0
2025-01-24 20:56:11.067554	293.7	20.6	-76.6	0.0
2025-01-24 20:56:12.189806	294.0	20.5	-77.0	0.0
2025-01-24 20:56:13.314548	294.2	20.5	-76.9	0.0
2025-01-24 20:56:14.435544	294.5	20.4	-77.3	0.0
2025-01-24 20:56:15.558541	294.8	20.3	-76.9	0.0
2025-01-24 20:56:16.683202	295.0	20.3	-76.7	0.0
2025-01-24 20:56:17.806427	295.3	20.2	-76.9	0.0
2025-01-24 20:56:18.927753	295.5	20.2	-76.9	0.0
2025-01-24 20:56:20.053378	295.8	20.1	-77.0	0.0
2025-01-24 20:56:21.175937	296.0	20.1	-76.7	0.0
2025-01-24 20:56:22.298815	296.3	20.0	-77.0	0.0
2025-01-24 20:56:23.420494	296.5	19.9	-76.5	0.0
2025-01-24 20:56:24.544929	296.8	19.9	-76.8	0.0
2025-01-24 20:56:25.669547	297.0	19.8	-76.2	0.0
2025-01-24 20:56:26.792419	297.3	19.8	-76.7	0.0
2025-01-24 20:56:27.915609	297.5	19.7	-76.4	0.0
2025-01-24 20:56:29.038817	297.8	19.6	-76.5	0.0
2025-01-24 20:56:30.161615	298.0	19.6	-76.5	0.0
2025-01-24 20:56:31.285362	298.3	19.5	-76.5	0.0
2025-01-24 20:56:32.408903	298.5	19.4	-75.5	0.0
2025-01-24 20:56:33.534208	298.7	19.4	-76.4	0.0
2025-01-24 20:56:34.655419	299.0	19.3	-76.6	0.0
2025-01-24 20:56:35.777928	299.2	19.3	-77.0	0.0
2025-01-24 20:56:36.899741	299.5	19.2	-76.7	0.0
2025-01-24 20:56:38.023018	299.7	19.1	-76.5	0.0
2025-01-24 20:56:39.145714	299.9	19.1	-76.5	0.0
2025-01-24 20:56:40.268519	300.2	19.0	-76.6	0.0
2025-01-24 20:56:41.393690	300.4	18.9	-76.5	0.0
2025-01-24 20:56:42.517857	300.6	18.9	-76.8	0.0
2025-01-24 20:56:43.641822	300.9	18.8	-76.8	0.0
2025-01-24 20:56:44.766545	301.1	18.7	-77.1	0.0
2025-01-24 20:56:45.887650	301.3	18.7	-76.3	0.0
2025-01-24 20:56:47.010497	301.6	18.6	-76.5	0.0
2025-01-24 20:56:48.132385	301.8	18.5	-76.7	0.0
2025-01-24 20:56:49.255741	302.0	18.5	-76.7	0.0
2025-01-24 20:56:50.379840	302.2	18.4	-76.4	0.0
2025-01-24 20:56:51.502556	302.5	18.3	-76.4	0.0
2025-01-24 20:56:52.623746	302.7	18.3	-76.6	0.0
2025-01-24 20:56:53.747295	302.9	18.2	-76.2	0.0
2025-01-24 20:56:54.873144	303.1	18.1	-72.3	0.0
2025-01-24 20:56:55.996540	303.4	18.1	-76.4	0.0
2025-01-24 20:56:57.119474	303.6	18.0	-76.7	0.0
2025-01-24 20:56:58.240433	303.8	17.9	-76.9	0.0
2025-01-24 20:56:59.363450	304.0	17.9	-76.9	0.0
2025-01-24 20:57:00.486522	304.2	17.8	-76.0	0.0
2025-01-24 20:57:01.609642	304.5	17.7	-76.5	0.0
2025-01-24 20:57:02.734781	304.7	17.7	-76.6	0.0
2025-01-24 20:57:03.857837	304.9	17.6	-76.2	0.0
2025-01-24 20:57:04.980088	305.1	17.5	-76.7	0.0
2025-01-24 20:57:06.103219	305.3	17.4	-76.7	0.0
2025-01-24 20:57:07.224470	305.5	17.4	-77.0	0.0
2025-01-24 20:57:08.347089	305.8	17.3	-76.8	0.0
2025-01-24 20:57:09.470068	306.0	17.2	-76.5	0.0
2025-01-24 20:57:10.591429	306.2	17.2	-76.8	0.0
2025-01-24 20:57:11.715439	306.4	17.1	-76.4	0.0
2025-01-24 20:57:12.837216	306.6	17.0	-76.8	0.0
2025-01-24 20:57:13.956612	306.8	16.9	-76.8	0.0
2025-01-24 20:57:15.079872	307.0	16.9	-76.7	0.0
2025-01-24 20:57:16.201872	307.2	16.8	-76.7	0.0
2025-01-24 20:57:17.324122	307.4	16.7	-76.7	0.0
2025-01-24 20:57:18.446998	307.6	16.7	-76.3	0.0
2025-01-24 20:57:19.570708	307.8	16.6	-76.6	0.0
2025-01-24 20:57:20.690477	308.0	16.5	-77.0	0.0
2025-01-24 20:57:21.814762	308.2	16.4	-76.7	0.0
2025-01-24 20:57:22.937085	308.4	16.4	-76.5	0.0
2025-01-24 20:57:24.060750	308.6	16.3	-77.0	0.0
2025-01-24 20:57:25.181694	308.8	16.2	-76.6	0.0
2025-01-24 20:57:26.307146	309.0	16.2	-77.0	0.0
2025-01-24 20:57:27.429052	309.2	16.1	-76.8	0.0
2025-01-24 20:57:28.551429	309.4	16.0	-77.0	0.0
2025-01-24 20:57:29.673577	309.6	15.9	-76.4	0.0
2025-01-24 20:57:30.796227	309.8	15.9	-76.5	0.0
2025-01-24 20:57:31.918200	310.0	15.8	-76.4	0.0
2025-01-24 20:57:33.042472	310.2	15.7	-76.7	0.0
2025-01-24 20:57:34.165239	310.4	15.6	-76.5	0.0
2025-01-24 20:57:35.287919	310.5	15.6	-76.9	0.0
2025-01-24 20:57:36.411651	310.7	15.5	-76.8	0.0
2025-01-24 20:57:37.535358	310.9	15.4	-76.7	0.0
2025-01-24 20:57:38.655764	311.1	15.3	-76.9	0.0
2025-01-24 20:57:39.780625	311.3	15.3	-76.7	0.0
2025-01-24 20:57:40.901997	311.5	15.2	-76.2	0.0
2025-01-24 20:57:42.024599	311.7	15.1	-76.3	0.0
2025-01-24 20:57:43.148611	311.8	15.1	-76.4	0.0
2025-01-24 20:57:44.272045	312.0	15.0	-76.5	0.0
2025-01-24 20:57:45.394868	312.2	14.9	-76.5	0.0
2025-01-24 20:57:46.517053	312.4	14.8	-76.9	0.0
2025-01-24 20:57:47.640875	312.6	14.8	-76.4	0.0
2025-01-24 20:57:48.765363	312.8	14.7	-76.8	0.0
2025-01-24 20:57:49.889002	312.9	14.6	-76.8	0.0
2025-01-24 20:57:51.011356	313.1	14.5	-77.1	0.0
2025-01-24 20:57:52.134900	313.3	14.5	-76.8	0.0
2025-01-24 20:57:53.258510	313.5	14.4	-76.8	0.0
2025-01-24 20:57:54.381538	313.6	14.3	-76.6	0.0
2025-01-24 20:57:55.504714	313.8	14.2	-76.7	0.0
2025-01-24 20:57:56.626784	314.0	14.2	-76.2	0.0
2025-01-24 20:57:57.751217	314.2	14.1	-76.1	0.0
2025-01-24 20:57:58.873155	314.3	14.0	-76.5	0.0
2025-01-24 20:57:59.996467	314.5	13.9	-76.5	0.0
2025-01-24 20:58:01.121872	314.7	13.9	-76.5	0.0
2025-01-24 20:58:02.244449	314.8	13.8	-76.4	0.0
2025-01-24 20:58:03.368348	315.0	13.7	-77.0	0.0
2025-01-24 20:58:04.490208	315.2	13.6	-76.8	0.0
2025-01-24 20:58:05.615242	315.3	13.6	-76.8	0.0
2025-01-24 20:58:06.737824	315.5	13.5	-77.1	0.0
2025-01-24 20:58:07.862564	315.7	13.4	-76.8	0.0
2025-01-24 20:58:08.986576	315.8	13.3	-76.6	0.0
2025-01-24 20:58:10.109666	316.0	13.3	-77.0	0.0
2025-01-24 20:58:11.234022	316.2	13.2	-76.7	0.0
2025-01-24 20:58:12.357139	316.3	13.1	-76.6	0.0
2025-01-24 20:58:13.480316	316.5	13.0	-76.7	0.0
2025-01-24 20:58:14.605261	316.6	13.0	-76.9	0.0
2025-01-24 20:58:15.729370	316.8	12.9	-76.7	0.0
2025-01-24 20:58:16.851492	317.0	12.8	-76.6	0.0
2025-01-24 20:58:17.973770	317.1	12.8	-76.8	0.0
2025-01-24 20:58:19.099834	317.3	12.7	-76.9	0.0
2025-01-24 20:58:20.222963	317.4	12.6	-76.7	0.0
2025-01-24 20:58:21.344885	317.6	12.5	-77.3	0.0
2025-01-24 20:58:22.468589	317.7	12.5	-76.9	0.0
2025-01-24 20:58:23.589002	317.9	12.4	-76.9	0.0
2025-01-24 20:58:24.713030	318.0	12.3	-76.5	0.0
2025-01-24 20:58:25.837368	318.2	12.2	-77.1	0.0
2025-01-24 20:58:26.961464	318.4	12.2	-76.8	0.0
2025-01-24 20:58:28.085296	318.5	12.1	-76.7	0.0
2025-01-24 20:58:29.208322	318.7	12.0	-77.0	0.0
2025-01-24 20:58:30.331421	318.8	11.9	-76.6	0.0
2025-01-24 20:58:31.456722	319.0	11.9	-76.5	0.0
2025-01-24 20:58:32.576637	319.1	11.8	-76.5	0.0
2025-01-24 20:58:33.700680	319.2	11.7	-76.2	0.0
2025-01-24 20:58:34.823950	319.4	11.6	-76.7	0.0
2025-01-24 20:58:35.948428	319.5	11.6	-76.6	0.0
2025-01-24 20:58:37.071654	319.7	11.5	-77.1	0.0
2025-01-24 20:58:38.195277	319.8	11.4	-76.7	0.0
2025-01-24 20:58:39.318107	320.0	11.4	-76.7	0.0
2025-01-24 20:58:40.442284	320.1	11.3	-76.8	0.0
2025-01-24 20:58:41.564737	320.3	11.2	-76.4	0.0
2025-01-24 20:58:42.688460	320.4	11.1	-76.7	0.0
2025-01-24 20:58:43.811760	320.5	11.1	-76.5	0.0
2025-01-24 20:58:44.934764	320.7	11.0	-76.3	0.0
2025-01-24 20:58:46.056374	320.8	10.9	-76.6	0.0
2025-01-24 20:58:47.177928	321.0	10.8	-76.7	0.0
2025-01-24 20:58:48.299325	321.1	10.8	-76.8	0.0
2025-01-24 20:58:49.422301	321.2	10.7	-76.6	0.0
2025-01-24 20:58:50.542688	321.4	10.6	-76.8	0.0
2025-01-24 20:58:51.663235	321.5	10.6	-76.9	0.0
2025-01-24 20:58:52.786703	321.7	10.5	-76.9	0.0
2025-01-24 20:58:53.910781	321.8	10.4	-76.5	0.0
2025-01-24 20:58:55.033032	321.9	10.3	-76.5	0.0
2025-01-24 20:58:56.155020	322.1	10.3	-76.8	0.0
2025-01-24 20:58:57.278417	322.2	10.2	-76.7	0.0
2025-01-24 20:58:58.399943	322.3	10.1	-76.7	0.0
2025-01-24 20:58:59.521782	322.5	10.0	-76.5	0.0
#Closed at: 2025-01-24 20:50:18.012252