passes_logs/2025/01/24/planumMaritime01/planumMaritime01__20250124_184503_NOAA_19_rec.log

#Pass ID: 20250124_184503_NOAA 19
#Satellite: NOAA 19
#Configuration: NOAA 19
#Start time: 2025-01-24 18:45:08.726657

#LorettStation: 1.0.0 05.05.2024
#Station: planumMaritime01
#Location: 37.49445 lon 55.92918 lat
#TLE: 1 33591U 09005A   25023.78299149  .00000396  00000+0  23548-3 0  9998
#TLE: 2 33591  99.0182  87.6127 0014154  33.7555 326.4515 14.13267063822782

#Time	Az	El	Level	SNR
2025-01-24 18:45:10.886556	182.9	10.2	-76.5	0.0
2025-01-24 18:45:12.007056	183.0	10.3	-76.0	0.0
2025-01-24 18:45:13.129737	183.1	10.4	-76.3	0.0
2025-01-24 18:45:14.253447	183.1	10.5	-77.0	0.0
2025-01-24 18:45:15.375432	183.2	10.6	-76.9	0.0
2025-01-24 18:45:16.498302	183.2	10.7	-76.2	0.0
2025-01-24 18:45:17.621211	183.3	10.8	-77.1	0.0
2025-01-24 18:45:18.743717	183.4	10.9	-77.0	0.0
2025-01-24 18:45:19.866807	183.4	10.9	-77.0	0.0
2025-01-24 18:45:20.990594	183.5	11.0	-77.1	0.0
2025-01-24 18:45:22.115266	183.5	11.1	-77.4	0.0
2025-01-24 18:45:23.239671	183.6	11.2	-77.1	0.0
2025-01-24 18:45:24.364306	183.7	11.3	-77.0	0.0
2025-01-24 18:45:25.488012	183.7	11.4	-77.0	0.0
2025-01-24 18:45:26.611494	183.8	11.5	-77.3	0.0
2025-01-24 18:45:27.735351	183.8	11.6	-77.0	0.0
2025-01-24 18:45:28.858325	183.9	11.7	-76.8	0.0
2025-01-24 18:45:29.985197	184.0	11.8	-77.4	0.0
2025-01-24 18:45:31.110191	184.0	11.9	-77.5	0.0
2025-01-24 18:45:32.232720	184.1	12.0	-76.9	0.0
2025-01-24 18:45:33.356255	184.2	12.1	-77.6	0.0
2025-01-24 18:45:34.480219	184.2	12.2	-77.4	0.0
2025-01-24 18:45:35.600979	184.3	12.3	-77.4	0.0
2025-01-24 18:45:36.724279	184.4	12.4	-77.7	0.0
2025-01-24 18:45:37.845333	184.4	12.6	-77.4	0.0
2025-01-24 18:45:38.967451	184.5	12.7	-77.4	0.0
2025-01-24 18:45:40.087831	184.6	12.8	-77.0	0.0
2025-01-24 18:45:41.209468	184.6	12.9	-77.4	0.0
2025-01-24 18:45:42.331885	184.7	13.0	-77.7	0.0
2025-01-24 18:45:43.455701	184.8	13.1	-77.4	0.0
2025-01-24 18:45:44.577835	184.8	13.2	-77.4	0.0
2025-01-24 18:45:45.701208	184.9	13.3	-77.6	0.0
2025-01-24 18:45:46.824703	185.0	13.4	-77.7	0.0
2025-01-24 18:45:47.948100	185.0	13.5	-77.2	0.0
2025-01-24 18:45:49.071238	185.1	13.6	-77.2	0.0
2025-01-24 18:45:50.193585	185.2	13.7	-77.6	0.0
2025-01-24 18:45:51.316703	185.3	13.8	-76.9	0.0
2025-01-24 18:45:52.437910	185.3	13.9	-76.8	0.0
2025-01-24 18:45:53.561183	185.4	14.0	-77.0	0.0
2025-01-24 18:45:54.684595	185.5	14.1	-77.3	0.0
2025-01-24 18:45:55.807005	185.5	14.3	-77.1	0.0
2025-01-24 18:45:56.929183	185.6	14.4	-77.2	0.0
2025-01-24 18:45:58.052301	185.7	14.5	-77.2	0.0
2025-01-24 18:45:59.175535	185.8	14.6	-77.3	0.0
2025-01-24 18:46:00.298890	185.8	14.7	-77.1	0.0
2025-01-24 18:46:01.422304	185.9	14.8	-77.3	0.0
2025-01-24 18:46:02.545585	186.0	14.9	-77.4	0.0
2025-01-24 18:46:03.667138	186.1	15.0	-77.5	0.0
2025-01-24 18:46:04.793616	186.2	15.2	-77.1	0.0
2025-01-24 18:46:05.918058	186.2	15.3	-76.9	0.0
2025-01-24 18:46:07.042255	186.3	15.4	-77.2	0.0
2025-01-24 18:46:08.163319	186.4	15.5	-76.7	0.0
2025-01-24 18:46:09.285848	186.5	15.6	-77.3	0.0
2025-01-24 18:46:10.406819	186.6	15.7	-77.3	0.0
2025-01-24 18:46:11.529092	186.6	15.8	-77.3	0.0
2025-01-24 18:46:12.652081	186.7	16.0	-77.3	0.0
2025-01-24 18:46:13.772562	186.8	16.1	-77.2	0.0
2025-01-24 18:46:14.895121	186.9	16.2	-77.7	0.0
2025-01-24 18:46:16.018309	187.0	16.3	-77.0	0.0
2025-01-24 18:46:17.142833	187.1	16.4	-77.2	0.0
2025-01-24 18:46:18.265075	187.1	16.6	-76.8	0.0
2025-01-24 18:46:19.391211	187.2	16.7	-77.5	0.0
2025-01-24 18:46:20.514362	187.3	16.8	-77.2	0.0
2025-01-24 18:46:21.636307	187.4	16.9	-77.3	0.0
2025-01-24 18:46:22.759115	187.5	17.0	-77.6	0.0
2025-01-24 18:46:23.880680	187.6	17.2	-77.2	0.0
2025-01-24 18:46:25.004409	187.7	17.3	-77.5	0.0
2025-01-24 18:46:26.126442	187.8	17.4	-77.3	0.0
2025-01-24 18:46:27.250841	187.9	17.5	-77.1	0.0
2025-01-24 18:46:28.373433	187.9	17.7	-77.2	0.0
2025-01-24 18:46:29.497416	188.0	17.8	-77.3	0.0
2025-01-24 18:46:30.621382	188.1	17.9	-77.4	0.0
2025-01-24 18:46:31.743476	188.2	18.0	-77.4	0.0
2025-01-24 18:46:32.868347	188.3	18.2	-77.5	0.0
2025-01-24 18:46:33.990920	188.4	18.3	-76.7	0.0
2025-01-24 18:46:35.112311	188.5	18.4	-77.6	0.0
2025-01-24 18:46:36.233213	188.6	18.5	-77.0	0.0
2025-01-24 18:46:37.354399	188.7	18.7	-77.1	0.0
2025-01-24 18:46:38.475995	188.8	18.8	-77.4	0.0
2025-01-24 18:46:39.600477	188.9	18.9	-77.3	0.0
2025-01-24 18:46:40.723954	189.0	19.1	-77.5	0.0
2025-01-24 18:46:41.846742	189.1	19.2	-77.3	0.0
2025-01-24 18:46:42.968274	189.2	19.3	-77.6	0.0
2025-01-24 18:46:44.091020	189.3	19.5	-77.7	0.0
2025-01-24 18:46:45.214152	189.4	19.6	-77.4	0.0
2025-01-24 18:46:46.339290	189.5	19.7	-77.7	0.0
2025-01-24 18:46:47.465682	189.6	19.9	-77.5	0.0
2025-01-24 18:46:48.589342	189.7	20.0	-78.0	0.0
2025-01-24 18:46:49.711957	189.8	20.1	-77.2	0.0
2025-01-24 18:46:50.833400	189.9	20.3	-77.9	0.0
2025-01-24 18:46:51.956191	190.0	20.4	-77.5	0.0
2025-01-24 18:46:53.079058	190.2	20.6	-77.8	0.0
2025-01-24 18:46:54.201660	190.3	20.7	-77.2	0.0
2025-01-24 18:46:55.324722	190.4	20.8	-77.3	0.0
2025-01-24 18:46:56.447647	190.5	21.0	-76.0	0.0
2025-01-24 18:46:57.569735	190.6	21.1	-77.8	0.0
2025-01-24 18:46:58.692521	190.7	21.3	-77.8	0.0
2025-01-24 18:46:59.814647	190.8	21.4	-76.7	0.0
2025-01-24 18:47:00.936298	190.9	21.5	-77.6	0.0
2025-01-24 18:47:02.060449	191.1	21.7	-77.1	0.0
2025-01-24 18:47:03.184493	191.2	21.8	-77.5	0.0
2025-01-24 18:47:04.306662	191.3	22.0	-77.2	0.0
2025-01-24 18:47:05.428339	191.4	22.1	-76.9	0.0
2025-01-24 18:47:06.552935	191.5	22.3	-77.1	0.0
2025-01-24 18:47:07.674806	191.7	22.4	-77.3	0.0
2025-01-24 18:47:08.797508	191.8	22.6	-77.4	0.0
2025-01-24 18:47:09.921856	191.9	22.7	-76.9	0.0
2025-01-24 18:47:11.043012	192.0	22.9	-77.6	0.0
2025-01-24 18:47:12.166965	192.2	23.0	-77.1	0.0
2025-01-24 18:47:13.291202	192.3	23.2	-77.8	0.0
2025-01-24 18:47:14.414551	192.4	23.3	-77.6	0.0
2025-01-24 18:47:15.538620	192.6	23.5	-77.5	0.0
2025-01-24 18:47:16.663470	192.7	23.6	-77.4	0.0
2025-01-24 18:47:17.786757	192.8	23.8	-77.1	0.0
2025-01-24 18:47:18.909687	193.0	23.9	-76.7	0.0
2025-01-24 18:47:20.033979	193.1	24.1	-77.5	0.0
2025-01-24 18:47:21.157291	193.2	24.2	-72.7	0.0
2025-01-24 18:47:22.279959	193.4	24.4	-76.6	0.0
2025-01-24 18:47:23.402056	193.5	24.5	-77.4	0.0
2025-01-24 18:47:24.524183	193.7	24.7	-77.7	0.0
2025-01-24 18:47:25.647197	193.8	24.9	-77.3	0.0
2025-01-24 18:47:26.770651	193.9	25.0	-77.3	0.0
2025-01-24 18:47:27.894354	194.1	25.2	-77.5	0.0
2025-01-24 18:47:29.015652	194.2	25.3	-76.9	0.0
2025-01-24 18:47:30.138438	194.4	25.5	-77.6	0.0
2025-01-24 18:47:31.261042	194.5	25.7	-77.4	0.0
2025-01-24 18:47:32.382957	194.7	25.8	-77.0	0.0
2025-01-24 18:47:33.504635	194.8	26.0	-77.1	0.0
2025-01-24 18:47:34.628890	195.0	26.2	-77.3	0.0
2025-01-24 18:47:35.750576	195.2	26.3	-77.5	0.0
2025-01-24 18:47:36.874382	195.3	26.5	-77.3	0.0
2025-01-24 18:47:37.998153	195.5	26.7	-77.1	0.0
2025-01-24 18:47:39.121919	195.6	26.8	-77.6	0.0
2025-01-24 18:47:40.242682	195.8	27.0	-77.3	0.0
2025-01-24 18:47:41.365337	196.0	27.2	-77.3	0.0
2025-01-24 18:47:42.488086	196.1	27.3	-77.1	0.0
2025-01-24 18:47:43.609291	196.3	27.5	-77.2	0.0
2025-01-24 18:47:44.732439	196.5	27.7	-77.0	0.0
2025-01-24 18:47:45.858281	196.6	27.9	-77.0	0.0
2025-01-24 18:47:46.982131	196.8	28.0	-77.5	0.0
2025-01-24 18:47:48.104930	197.0	28.2	-77.4	0.0
2025-01-24 18:47:49.226263	197.2	28.4	-77.1	0.0
2025-01-24 18:47:50.347635	197.3	28.6	-77.4	0.0
2025-01-24 18:47:51.471045	197.5	28.7	-77.2	0.0
2025-01-24 18:47:52.595035	197.7	28.9	-77.4	0.0
2025-01-24 18:47:53.718595	197.9	29.1	-77.3	0.0
2025-01-24 18:47:54.843649	198.1	29.3	-77.5	0.0
2025-01-24 18:47:55.964555	198.3	29.4	-76.7	0.0
2025-01-24 18:47:57.088517	198.5	29.6	-76.9	0.0
2025-01-24 18:47:58.212318	198.6	29.8	-76.6	0.0
2025-01-24 18:47:59.335935	198.8	30.0	-77.6	0.0
2025-01-24 18:48:00.460336	199.0	30.2	-76.9	0.0
2025-01-24 18:48:01.584988	199.2	30.4	-77.5	0.0
2025-01-24 18:48:02.706282	199.4	30.5	-77.4	0.0
2025-01-24 18:48:03.829446	199.6	30.7	-76.5	0.0
2025-01-24 18:48:04.951952	199.9	30.9	-76.7	0.0
2025-01-24 18:48:06.075024	200.1	31.1	-77.1	0.0
2025-01-24 18:48:07.198492	200.3	31.3	-77.5	0.0
2025-01-24 18:48:08.319711	200.5	31.5	-77.6	0.0
2025-01-24 18:48:09.442570	200.7	31.7	-77.4	0.0
2025-01-24 18:48:10.564815	200.9	31.9	-77.0	0.0
2025-01-24 18:48:11.688248	201.1	32.1	-77.3	0.0
2025-01-24 18:48:12.808793	201.4	32.2	-77.3	0.0
2025-01-24 18:48:13.931244	201.6	32.4	-77.2	0.0
2025-01-24 18:48:15.054286	201.8	32.6	-77.9	0.0
2025-01-24 18:48:16.176465	202.0	32.8	-78.1	0.0
2025-01-24 18:48:17.299189	202.3	33.0	-77.5	0.0
2025-01-24 18:48:18.422012	202.5	33.2	-77.8	0.0
2025-01-24 18:48:19.543649	202.8	33.4	-77.3	0.0
2025-01-24 18:48:20.666022	203.0	33.6	-77.8	0.0
2025-01-24 18:48:21.789557	203.2	33.8	-78.2	0.0
2025-01-24 18:48:22.912672	203.5	34.0	-76.5	0.0
2025-01-24 18:48:24.036482	203.7	34.2	-77.3	0.0
2025-01-24 18:48:25.159228	204.0	34.4	-77.3	0.0
2025-01-24 18:48:26.281731	204.3	34.6	-77.5	0.0
2025-01-24 18:48:27.406021	204.5	34.8	-78.1	0.0
2025-01-24 18:48:28.530232	204.8	35.0	-77.5	0.0
2025-01-24 18:48:29.653607	205.1	35.2	-77.1	0.0
2025-01-24 18:48:30.777713	205.3	35.4	-78.1	0.0
2025-01-24 18:48:31.901452	205.6	35.6	-77.2	0.0
2025-01-24 18:48:33.025614	205.9	35.8	-77.5	0.0
2025-01-24 18:48:34.148979	206.2	36.0	-77.1	0.0
2025-01-24 18:48:35.271266	206.4	36.2	-77.5	0.0
2025-01-24 18:48:36.394586	206.7	36.4	-77.9	0.0
2025-01-24 18:48:37.519404	207.0	36.7	-77.5	0.0
2025-01-24 18:48:38.643385	207.3	36.9	-77.6	0.0
2025-01-24 18:48:39.765590	207.6	37.1	-77.7	0.0
2025-01-24 18:48:40.888146	207.9	37.3	-77.6	0.0
2025-01-24 18:48:42.009671	208.2	37.5	-77.4	0.0
2025-01-24 18:48:43.134114	208.5	37.7	-77.6	0.0
2025-01-24 18:48:44.256251	208.8	37.9	-77.1	0.0
2025-01-24 18:48:45.375934	209.2	38.1	-76.7	0.0
2025-01-24 18:48:46.498913	209.5	38.3	-77.9	0.0
2025-01-24 18:48:47.623778	209.8	38.5	-78.2	0.0
2025-01-24 18:48:48.746663	210.1	38.7	-77.5	0.0
2025-01-24 18:48:49.869709	210.5	39.0	-77.5	0.0
2025-01-24 18:48:50.991284	210.8	39.2	-78.3	0.0
2025-01-24 18:48:52.116118	211.1	39.4	-77.7	0.0
2025-01-24 18:48:53.238125	211.5	39.6	-77.5	0.0
2025-01-24 18:48:54.361130	211.8	39.8	-77.9	0.0
2025-01-24 18:48:55.486098	212.2	40.0	-78.2	0.0
2025-01-24 18:48:56.607439	212.6	40.2	-77.9	0.0
2025-01-24 18:48:57.731088	212.9	40.4	-77.5	0.0
2025-01-24 18:48:58.855782	213.3	40.6	-78.4	0.0
2025-01-24 18:48:59.979247	213.7	40.9	-78.2	0.0
2025-01-24 18:49:01.102155	214.1	41.1	-77.8	0.0
2025-01-24 18:49:02.223899	214.4	41.3	-77.9	0.0
2025-01-24 18:49:03.348622	214.8	41.5	-78.1	0.0
2025-01-24 18:49:04.470318	215.2	41.7	-77.3	0.0
2025-01-24 18:49:05.594947	215.6	41.9	-77.7	0.0
2025-01-24 18:49:06.717412	216.0	42.1	-76.9	0.0
2025-01-24 18:49:07.839648	216.4	42.3	-77.2	0.0
2025-01-24 18:49:08.962435	216.9	42.5	-77.4	0.0
2025-01-24 18:49:10.086091	217.3	42.8	-77.7	0.0
2025-01-24 18:49:11.209009	217.7	43.0	-77.6	0.0
2025-01-24 18:49:12.332398	218.1	43.2	-77.3	0.0
2025-01-24 18:49:13.458818	218.6	43.4	-78.0	0.0
2025-01-24 18:49:14.583430	219.0	43.6	-77.9	0.0
2025-01-24 18:49:15.707956	219.5	43.8	-77.9	0.0
2025-01-24 18:49:16.831165	219.9	44.0	-77.8	0.0
2025-01-24 18:49:17.956121	220.4	44.2	-77.2	0.0
2025-01-24 18:49:19.079139	220.8	44.4	-77.9	0.0
2025-01-24 18:49:20.202624	221.3	44.6	-77.7	0.0
2025-01-24 18:49:21.325500	221.8	44.8	-77.2	0.0
2025-01-24 18:49:22.448629	222.3	45.0	-77.6	0.0
2025-01-24 18:49:23.571709	222.8	45.2	-77.9	0.0
2025-01-24 18:49:24.694724	223.3	45.4	-77.8	0.0
2025-01-24 18:49:25.818445	223.8	45.6	-77.9	0.0
2025-01-24 18:49:26.940016	224.3	45.8	-77.8	0.0
2025-01-24 18:49:28.063308	224.8	46.0	-77.5	0.0
2025-01-24 18:49:29.186506	225.3	46.2	-77.6	0.0
2025-01-24 18:49:30.307779	225.8	46.4	-78.1	0.0
2025-01-24 18:49:31.432758	226.4	46.5	-77.8	0.0
2025-01-24 18:49:32.555619	226.9	46.7	-77.8	0.0
2025-01-24 18:49:33.680422	227.4	46.9	-77.9	0.0
2025-01-24 18:49:34.802386	228.0	47.1	-78.0	0.0
2025-01-24 18:49:35.922809	228.6	47.3	-77.9	0.0
2025-01-24 18:49:37.045904	229.1	47.4	-78.0	0.0
2025-01-24 18:49:38.167604	229.7	47.6	-77.8	0.0
2025-01-24 18:49:39.290239	230.3	47.8	-78.1	0.0
2025-01-24 18:49:40.412046	230.8	48.0	-77.6	0.0
2025-01-24 18:49:41.534771	231.4	48.1	-77.8	0.0
2025-01-24 18:49:42.659643	232.0	48.3	-77.5	0.0
2025-01-24 18:49:43.784232	232.6	48.5	-77.8	0.0
2025-01-24 18:49:44.907428	233.2	48.6	-77.8	0.0
2025-01-24 18:49:46.030402	233.9	48.8	-77.6	0.0
2025-01-24 18:49:47.154622	234.5	48.9	-77.9	0.0
2025-01-24 18:49:48.277108	235.1	49.1	-78.1	0.0
2025-01-24 18:49:49.401122	235.7	49.2	-78.0	0.0
2025-01-24 18:49:50.524932	236.4	49.4	-78.0	0.0
2025-01-24 18:49:51.648138	237.0	49.5	-78.1	0.0
2025-01-24 18:49:52.771450	237.7	49.6	-78.1	0.0
2025-01-24 18:49:53.896147	238.3	49.8	-77.3	0.0
2025-01-24 18:49:55.019567	239.0	49.9	-77.7	0.0
2025-01-24 18:49:56.140164	239.6	50.0	-77.1	0.0
2025-01-24 18:49:57.264220	240.3	50.2	-78.1	0.0
2025-01-24 18:49:58.386395	241.0	50.3	-77.1	0.0
2025-01-24 18:49:59.509822	241.7	50.4	-78.2	0.0
2025-01-24 18:50:00.631271	242.4	50.5	-78.0	0.0
2025-01-24 18:50:01.754845	243.1	50.6	-78.6	0.0
2025-01-24 18:50:02.875474	243.8	50.7	-78.0	0.0
2025-01-24 18:50:03.997666	244.5	50.8	-77.5	0.0
2025-01-24 18:50:05.121685	245.2	50.9	-78.0	0.0
2025-01-24 18:50:06.245169	245.9	51.0	-77.9	0.0
2025-01-24 18:50:07.367096	246.6	51.1	-78.1	0.0
2025-01-24 18:50:08.487951	247.3	51.2	-78.1	0.0
2025-01-24 18:50:09.609370	248.0	51.2	-77.6	0.0
2025-01-24 18:50:10.732225	248.8	51.3	-77.6	0.0
2025-01-24 18:50:11.855730	249.5	51.4	-77.9	0.0
2025-01-24 18:50:12.978776	250.2	51.4	-77.7	0.0
2025-01-24 18:50:14.100708	250.9	51.5	-77.9	0.0
2025-01-24 18:50:15.222560	251.7	51.6	-77.9	0.0
2025-01-24 18:50:16.345904	252.4	51.6	-77.8	0.0
2025-01-24 18:50:17.468626	253.2	51.6	-77.8	0.0
2025-01-24 18:50:18.592447	253.9	51.7	-78.1	0.0
2025-01-24 18:50:19.716234	254.7	51.7	-77.0	0.0
2025-01-24 18:50:20.839535	255.4	51.7	-77.8	0.0
2025-01-24 18:50:21.965144	256.2	51.8	-78.0	0.0
2025-01-24 18:50:23.089107	256.9	51.8	-77.8	0.0
2025-01-24 18:50:24.211066	257.7	51.8	-77.9	0.0
2025-01-24 18:50:25.334353	258.4	51.8	-77.9	0.0
2025-01-24 18:50:26.456934	259.2	51.8	-77.7	0.0
2025-01-24 18:50:27.581571	259.9	51.8	-78.0	0.0
2025-01-24 18:50:28.705102	260.7	51.8	-77.9	0.0
2025-01-24 18:50:29.829802	261.4	51.8	-77.7	0.0
2025-01-24 18:50:30.955734	262.2	51.8	-77.9	0.0
2025-01-24 18:50:32.079025	262.9	51.8	-78.1	0.0
2025-01-24 18:50:33.203075	263.7	51.7	-77.6	0.0
2025-01-24 18:50:34.326883	264.4	51.7	-77.8	0.0
2025-01-24 18:50:35.449675	265.2	51.7	-77.7	0.0
2025-01-24 18:50:36.571452	265.9	51.6	-77.7	0.0
2025-01-24 18:50:37.695210	266.6	51.6	-78.0	0.0
2025-01-24 18:50:38.817521	267.4	51.5	-77.9	0.0
2025-01-24 18:50:39.940429	268.1	51.5	-77.5	0.0
2025-01-24 18:50:41.063691	268.9	51.4	-78.1	0.0
2025-01-24 18:50:42.186681	269.6	51.3	-78.0	0.0
2025-01-24 18:50:43.310990	270.3	51.3	-78.2	0.0
2025-01-24 18:50:44.434348	271.0	51.2	-77.9	0.0
2025-01-24 18:50:45.557873	271.8	51.1	-78.0	0.0
2025-01-24 18:50:46.681240	272.5	51.0	-77.8	0.0
2025-01-24 18:50:47.805051	273.2	50.9	-77.8	0.0
2025-01-24 18:50:48.929503	273.9	50.9	-78.1	0.0
2025-01-24 18:50:50.052261	274.6	50.8	-77.3	0.0
2025-01-24 18:50:51.174668	275.3	50.7	-77.8	0.0
2025-01-24 18:50:52.297220	276.0	50.6	-77.9	0.0
2025-01-24 18:50:53.420962	276.7	50.4	-77.5	0.0
2025-01-24 18:50:54.541933	277.4	50.3	-78.0	0.0
2025-01-24 18:50:55.666411	278.0	50.2	-78.3	0.0
2025-01-24 18:50:56.789125	278.7	50.1	-78.2	0.0
2025-01-24 18:50:57.913753	279.4	50.0	-78.0	0.0
2025-01-24 18:50:59.036745	280.0	49.8	-78.0	0.0
2025-01-24 18:51:00.160136	280.7	49.7	-77.9	0.0
2025-01-24 18:51:01.282421	281.3	49.6	-78.1	0.0
2025-01-24 18:51:02.405484	282.0	49.4	-77.7	0.0
2025-01-24 18:51:03.528811	282.6	49.3	-77.8	0.0
2025-01-24 18:51:04.650070	283.3	49.1	-78.1	0.0
2025-01-24 18:51:05.772178	283.9	49.0	-77.5	0.0
2025-01-24 18:51:06.895095	284.5	48.9	-78.4	0.0
2025-01-24 18:51:08.019748	285.1	48.7	-78.1	0.0
2025-01-24 18:51:09.140109	285.7	48.5	-78.1	0.0
2025-01-24 18:51:10.264931	286.3	48.4	-78.0	0.0
2025-01-24 18:51:11.387949	286.9	48.2	-78.0	0.0
2025-01-24 18:51:12.510674	287.5	48.1	-78.3	0.0
2025-01-24 18:51:13.632827	288.1	47.9	-78.3	0.0
2025-01-24 18:51:14.756214	288.7	47.7	-78.1	0.0
2025-01-24 18:51:15.877493	289.3	47.5	-78.5	0.0
2025-01-24 18:51:17.000604	289.8	47.4	-77.6	0.0
2025-01-24 18:51:18.122742	290.4	47.2	-78.0	0.0
2025-01-24 18:51:19.243632	290.9	47.0	-78.1	0.0
2025-01-24 18:51:20.364854	291.5	46.8	-77.8	0.0
2025-01-24 18:51:21.487192	292.0	46.6	-77.9	0.0
2025-01-24 18:51:22.611203	292.5	46.5	-77.8	0.0
2025-01-24 18:51:23.732423	293.1	46.3	-77.8	0.0
2025-01-24 18:51:24.854624	293.6	46.1	-77.9	0.0
2025-01-24 18:51:25.977207	294.1	45.9	-78.5	0.0
2025-01-24 18:51:27.097640	294.6	45.7	-78.0	0.0
2025-01-24 18:51:28.222555	295.1	45.5	-78.3	0.0
2025-01-24 18:51:29.346633	295.6	45.3	-77.6	0.0
2025-01-24 18:51:30.471297	296.1	45.1	-78.0	0.0
2025-01-24 18:51:31.596457	296.6	44.9	-78.5	0.0
2025-01-24 18:51:32.719917	297.1	44.7	-77.9	0.0
2025-01-24 18:51:33.841473	297.5	44.5	-78.3	0.0
2025-01-24 18:51:34.964543	298.0	44.3	-77.9	0.0
2025-01-24 18:51:36.086951	298.5	44.1	-77.6	0.0
2025-01-24 18:51:37.209582	298.9	43.9	-77.8	0.0
2025-01-24 18:51:38.331477	299.4	43.7	-78.0	0.0
2025-01-24 18:51:39.457204	299.8	43.5	-77.9	0.0
2025-01-24 18:51:40.582341	300.3	43.3	-77.6	0.0
2025-01-24 18:51:41.706874	300.7	43.1	-76.7	0.0
2025-01-24 18:51:42.829174	301.1	42.9	-78.1	0.0
2025-01-24 18:51:43.954427	301.5	42.7	-78.1	0.0
2025-01-24 18:51:45.079418	302.0	42.5	-77.6	0.0
2025-01-24 18:51:46.201675	302.4	42.3	-78.4	0.0
2025-01-24 18:51:47.324702	302.8	42.1	-77.8	0.0
2025-01-24 18:51:48.447063	303.2	41.9	-78.3	0.0
2025-01-24 18:51:49.567112	303.6	41.6	-78.2	0.0
2025-01-24 18:51:50.689538	304.0	41.4	-78.0	0.0
2025-01-24 18:51:51.813108	304.3	41.2	-78.2	0.0
2025-01-24 18:51:52.933570	304.7	41.0	-78.0	0.0
2025-01-24 18:51:54.058508	305.1	40.8	-78.3	0.0
2025-01-24 18:51:55.182956	305.5	40.6	-78.3	0.0
2025-01-24 18:51:56.304566	305.8	40.4	-77.7	0.0
2025-01-24 18:51:57.428148	306.2	40.2	-78.2	0.0
2025-01-24 18:51:58.549297	306.6	40.0	-78.3	0.0
2025-01-24 18:51:59.670930	306.9	39.8	-78.0	0.0
2025-01-24 18:52:00.793961	307.3	39.5	-78.1	0.0
2025-01-24 18:52:01.916415	307.6	39.3	-77.8	0.0
2025-01-24 18:52:03.038911	307.9	39.1	-78.2	0.0
2025-01-24 18:52:04.160220	308.3	38.9	-77.5	0.0
2025-01-24 18:52:05.285203	308.6	38.7	-77.8	0.0
2025-01-24 18:52:06.409976	308.9	38.5	-77.5	0.0
2025-01-24 18:52:07.534451	309.3	38.3	-77.7	0.0
2025-01-24 18:52:08.657336	309.6	38.1	-77.3	0.0
2025-01-24 18:52:09.781876	309.9	37.9	-77.5	0.0
2025-01-24 18:52:10.905544	310.2	37.7	-77.7	0.0
2025-01-24 18:52:12.028621	310.5	37.5	-77.6	0.0
2025-01-24 18:52:13.151145	310.8	37.3	-77.8	0.0
2025-01-24 18:52:14.273237	311.1	37.0	-78.1	0.0
2025-01-24 18:52:15.396249	311.4	36.8	-77.9	0.0
2025-01-24 18:52:16.522646	311.7	36.6	-78.3	0.0
2025-01-24 18:52:17.644772	312.0	36.4	-78.1	0.0
2025-01-24 18:52:18.766790	312.3	36.2	-77.9	0.0
2025-01-24 18:52:19.889472	312.6	36.0	-77.9	0.0
2025-01-24 18:52:21.012072	312.8	35.8	-78.0	0.0
2025-01-24 18:52:22.136640	313.1	35.6	-78.1	0.0
2025-01-24 18:52:23.260721	313.4	35.4	-78.1	0.0
2025-01-24 18:52:24.383601	313.6	35.2	-78.6	0.0
2025-01-24 18:52:25.507337	313.9	35.0	-78.1	0.0
2025-01-24 18:52:26.630976	314.2	34.8	-78.0	0.0
2025-01-24 18:52:27.753980	314.4	34.6	-78.1	0.0
2025-01-24 18:52:28.878432	314.7	34.4	-78.3	0.0
2025-01-24 18:52:30.001393	314.9	34.2	-78.1	0.0
2025-01-24 18:52:31.121738	315.2	34.0	-78.4	0.0
2025-01-24 18:52:32.243586	315.4	33.8	-78.1	0.0
2025-01-24 18:52:33.365314	315.7	33.6	-78.2	0.0
2025-01-24 18:52:34.487718	315.9	33.4	-78.4	0.0
2025-01-24 18:52:35.611093	316.2	33.2	-78.4	0.0
2025-01-24 18:52:36.732451	316.4	33.0	-78.5	0.0
2025-01-24 18:52:37.856808	316.6	32.8	-78.2	0.0
2025-01-24 18:52:38.981255	316.9	32.6	-78.0	0.0
2025-01-24 18:52:40.104022	317.1	32.5	-78.0	0.0
2025-01-24 18:52:41.226634	317.3	32.3	-77.7	0.0
2025-01-24 18:52:42.350363	317.5	32.1	-78.0	0.0
2025-01-24 18:52:43.474102	317.7	31.9	-78.1	0.0
2025-01-24 18:52:44.596500	318.0	31.7	-78.4	0.0
2025-01-24 18:52:45.718101	318.2	31.5	-77.7	0.0
2025-01-24 18:52:46.841125	318.4	31.3	-78.5	0.0
2025-01-24 18:52:47.966614	318.6	31.1	-77.8	0.0
2025-01-24 18:52:49.091135	318.8	30.9	-78.2	0.0
2025-01-24 18:52:50.216142	319.0	30.8	-77.7	0.0
2025-01-24 18:52:51.335996	319.2	30.6	-78.0	0.0
2025-01-24 18:52:52.458619	319.4	30.4	-78.1	0.0
2025-01-24 18:52:53.582327	319.6	30.2	-78.3	0.0
2025-01-24 18:52:54.705535	319.8	30.0	-78.1	0.0
2025-01-24 18:52:55.828706	320.0	29.9	-77.9	0.0
2025-01-24 18:52:56.952037	320.2	29.7	-78.2	0.0
2025-01-24 18:52:58.075631	320.4	29.5	-77.7	0.0
2025-01-24 18:52:59.197855	320.6	29.3	-77.8	0.0
2025-01-24 18:53:00.322294	320.8	29.1	-78.2	0.0
2025-01-24 18:53:01.447861	320.9	29.0	-78.2	0.0
2025-01-24 18:53:02.572578	321.1	28.8	-78.1	0.0
2025-01-24 18:53:03.698309	321.3	28.6	-78.6	0.0
2025-01-24 18:53:04.819686	321.5	28.4	-78.2	0.0
2025-01-24 18:53:05.943876	321.7	28.3	-78.0	0.0
2025-01-24 18:53:07.066579	321.8	28.1	-77.9	0.0
2025-01-24 18:53:08.188302	322.0	27.9	-77.1	0.0
2025-01-24 18:53:09.310099	322.2	27.7	-78.4	0.0
2025-01-24 18:53:10.433249	322.3	27.6	-78.3	0.0
2025-01-24 18:53:11.557442	322.5	27.4	-78.5	0.0
2025-01-24 18:53:12.682361	322.7	27.2	-78.2	0.0
2025-01-24 18:53:13.808009	322.8	27.1	-78.2	0.0
2025-01-24 18:53:14.929580	323.0	26.9	-78.3	0.0
2025-01-24 18:53:16.052404	323.2	26.7	-78.4	0.0
2025-01-24 18:53:17.175305	323.3	26.6	-77.7	0.0
2025-01-24 18:53:18.299113	323.5	26.4	-78.0	0.0
2025-01-24 18:53:19.422920	323.6	26.2	-78.1	0.0
2025-01-24 18:53:20.547244	323.8	26.1	-78.1	0.0
2025-01-24 18:53:21.670205	323.9	25.9	-78.7	0.0
2025-01-24 18:53:22.795051	324.1	25.7	-78.2	0.0
2025-01-24 18:53:23.918088	324.2	25.6	-77.8	0.0
2025-01-24 18:53:25.039953	324.4	25.4	-78.2	0.0
2025-01-24 18:53:26.162938	324.5	25.3	-78.2	0.0
2025-01-24 18:53:27.285284	324.7	25.1	-78.2	0.0
2025-01-24 18:53:28.406893	324.8	24.9	-77.9	0.0
2025-01-24 18:53:29.531053	325.0	24.8	-77.8	0.0
2025-01-24 18:53:30.653900	325.1	24.6	-78.0	0.0
2025-01-24 18:53:31.777778	325.2	24.5	-78.0	0.0
2025-01-24 18:53:32.903033	325.4	24.3	-77.9	0.0
2025-01-24 18:53:34.027690	325.5	24.2	-78.0	0.0
2025-01-24 18:53:35.150671	325.7	24.0	-77.7	0.0
2025-01-24 18:53:36.272089	325.8	23.9	-77.9	0.0
2025-01-24 18:53:37.394300	325.9	23.7	-77.7	0.0
2025-01-24 18:53:38.517242	326.1	23.6	-77.8	0.0
2025-01-24 18:53:39.639194	326.2	23.4	-78.3	0.0
2025-01-24 18:53:40.762071	326.3	23.3	-77.7	0.0
2025-01-24 18:53:41.884461	326.4	23.1	-78.0	0.0
2025-01-24 18:53:43.004766	326.6	23.0	-77.7	0.0
2025-01-24 18:53:44.126651	326.7	22.8	-78.0	0.0
2025-01-24 18:53:45.248334	326.8	22.7	-77.8	0.0
2025-01-24 18:53:46.369080	326.9	22.5	-78.3	0.0
2025-01-24 18:53:47.492764	327.1	22.4	-78.1	0.0
2025-01-24 18:53:48.616319	327.2	22.2	-77.8	0.0
2025-01-24 18:53:49.738711	327.3	22.1	-77.5	0.0
2025-01-24 18:53:50.861866	327.4	21.9	-77.9	0.0
2025-01-24 18:53:51.985288	327.6	21.8	-78.0	0.0
2025-01-24 18:53:53.107298	327.7	21.7	-78.2	0.0
2025-01-24 18:53:54.229437	327.8	21.5	-77.7	0.0
2025-01-24 18:53:55.352091	327.9	21.4	-78.0	0.0
2025-01-24 18:53:56.474863	328.0	21.2	-77.5	0.0
2025-01-24 18:53:57.598798	328.1	21.1	-78.0	0.0
2025-01-24 18:53:58.720547	328.2	21.0	-77.5	0.0
2025-01-24 18:53:59.843636	328.4	20.8	-77.3	0.0
2025-01-24 18:54:00.966114	328.5	20.7	-76.9	0.0
2025-01-24 18:54:02.091322	328.6	20.5	-77.0	0.0
2025-01-24 18:54:03.215037	328.7	20.4	-77.1	0.0
2025-01-24 18:54:04.336478	328.8	20.3	-77.1	0.0
2025-01-24 18:54:05.458042	328.9	20.1	-77.6	0.0
2025-01-24 18:54:06.583327	329.0	20.0	-78.0	0.0
2025-01-24 18:54:07.707559	329.1	19.9	-77.6	0.0
2025-01-24 18:54:08.831076	329.2	19.7	-77.9	0.0
2025-01-24 18:54:09.954857	329.3	19.6	-77.3	0.0
2025-01-24 18:54:11.079105	329.4	19.5	-77.7	0.0
2025-01-24 18:54:12.199632	329.5	19.3	-77.5	0.0
2025-01-24 18:54:13.323463	329.6	19.2	-77.7	0.0
2025-01-24 18:54:14.444542	329.7	19.1	-77.8	0.0
2025-01-24 18:54:15.566935	329.8	19.0	-77.6	0.0
2025-01-24 18:54:16.690905	329.9	18.8	-77.7	0.0
2025-01-24 18:54:17.812283	330.0	18.7	-77.3	0.0
2025-01-24 18:54:18.934880	330.1	18.6	-78.0	0.0
2025-01-24 18:54:20.059047	330.2	18.4	-77.9	0.0
2025-01-24 18:54:21.181346	330.3	18.3	-77.9	0.0
2025-01-24 18:54:22.305584	330.4	18.2	-77.9	0.0
2025-01-24 18:54:23.428832	330.5	18.1	-78.3	0.0
2025-01-24 18:54:24.552775	330.6	17.9	-77.5	0.0
2025-01-24 18:54:25.676866	330.7	17.8	-77.9	0.0
2025-01-24 18:54:26.800727	330.8	17.7	-78.0	0.0
2025-01-24 18:54:27.924957	330.9	17.6	-77.6	0.0
2025-01-24 18:54:29.046982	331.0	17.4	-77.8	0.0
2025-01-24 18:54:30.169293	331.0	17.3	-78.2	0.0
2025-01-24 18:54:31.293092	331.1	17.2	-78.0	0.0
2025-01-24 18:54:32.413906	331.2	17.1	-78.0	0.0
2025-01-24 18:54:33.537203	331.3	17.0	-78.0	0.0
2025-01-24 18:54:34.659551	331.4	16.8	-77.5	0.0
2025-01-24 18:54:35.783631	331.5	16.7	-78.2	0.0
2025-01-24 18:54:36.906113	331.6	16.6	-77.6	0.0
2025-01-24 18:54:38.026414	331.7	16.5	-77.8	0.0
2025-01-24 18:54:39.149957	331.7	16.4	-77.8	0.0
2025-01-24 18:54:40.272402	331.8	16.3	-77.0	0.0
2025-01-24 18:54:41.395317	331.9	16.1	-78.2	0.0
2025-01-24 18:54:42.517947	332.0	16.0	-78.1	0.0
2025-01-24 18:54:43.639197	332.1	15.9	-77.9	0.0
2025-01-24 18:54:44.762130	332.2	15.8	-77.9	0.0
2025-01-24 18:54:45.884311	332.2	15.7	-77.1	0.0
2025-01-24 18:54:47.009021	332.3	15.6	-77.4	0.0
2025-01-24 18:54:48.131214	332.4	15.4	-77.2	0.0
2025-01-24 18:54:49.256964	332.5	15.3	-76.3	0.0
2025-01-24 18:54:50.380394	332.5	15.2	-78.1	0.0
2025-01-24 18:54:51.503396	332.6	15.1	-78.0	0.0
2025-01-24 18:54:52.624726	332.7	15.0	-78.0	0.0
2025-01-24 18:54:53.746579	332.8	14.9	-77.8	0.0
2025-01-24 18:54:54.870109	332.9	14.8	-78.3	0.0
2025-01-24 18:54:55.995116	332.9	14.7	-78.0	0.0
2025-01-24 18:54:57.116620	333.0	14.6	-78.3	0.0
2025-01-24 18:54:58.238018	333.1	14.4	-77.7	0.0
2025-01-24 18:54:59.362664	333.2	14.3	-78.1	0.0
2025-01-24 18:55:00.487239	333.2	14.2	-77.9	0.0
2025-01-24 18:55:01.611225	333.3	14.1	-78.3	0.0
2025-01-24 18:55:02.736764	333.4	14.0	-78.1	0.0
2025-01-24 18:55:03.857317	333.5	13.9	-77.9	0.0
2025-01-24 18:55:04.980877	333.5	13.8	-77.8	0.0
2025-01-24 18:55:06.103371	333.6	13.7	-78.5	0.0
2025-01-24 18:55:07.225970	333.7	13.6	-78.1	0.0
2025-01-24 18:55:08.348926	333.7	13.5	-77.8	0.0
2025-01-24 18:55:09.469526	333.8	13.4	-77.9	0.0
2025-01-24 18:55:10.590493	333.9	13.3	-78.1	0.0
2025-01-24 18:55:11.713574	333.9	13.2	-78.0	0.0
2025-01-24 18:55:12.837948	334.0	13.1	-78.2	0.0
2025-01-24 18:55:13.960430	334.1	13.0	-78.0	0.0
2025-01-24 18:55:15.084211	334.1	12.9	-78.4	0.0
2025-01-24 18:55:16.206533	334.2	12.8	-78.3	0.0
2025-01-24 18:55:17.331671	334.3	12.6	-78.4	0.0
2025-01-24 18:55:18.454797	334.4	12.5	-78.0	0.0
2025-01-24 18:55:19.575687	334.4	12.4	-78.2	0.0
2025-01-24 18:55:20.697541	334.5	12.3	-78.2	0.0
2025-01-24 18:55:21.820772	334.5	12.2	-77.6	0.0
2025-01-24 18:55:22.942941	334.6	12.1	-77.9	0.0
2025-01-24 18:55:24.066227	334.7	12.0	-77.9	0.0
2025-01-24 18:55:25.189746	334.7	11.9	-78.1	0.0
2025-01-24 18:55:26.310591	334.8	11.8	-78.2	0.0
2025-01-24 18:55:27.434064	334.9	11.7	-78.1	0.0
2025-01-24 18:55:28.558234	334.9	11.6	-78.1	0.0
2025-01-24 18:55:29.684396	335.0	11.5	-77.9	0.0
2025-01-24 18:55:30.806182	335.1	11.5	-77.7	0.0
2025-01-24 18:55:31.929255	335.1	11.4	-77.9	0.0
2025-01-24 18:55:33.051547	335.2	11.3	-77.7	0.0
2025-01-24 18:55:34.174578	335.2	11.2	-78.0	0.0
2025-01-24 18:55:35.297135	335.3	11.1	-78.1	0.0
2025-01-24 18:55:36.421248	335.4	11.0	-78.2	0.0
2025-01-24 18:55:37.544667	335.4	10.9	-77.5	0.0
2025-01-24 18:55:38.667507	335.5	10.8	-77.4	0.0
2025-01-24 18:55:39.790710	335.5	10.7	-78.1	0.0
2025-01-24 18:55:40.912236	335.6	10.6	-78.4	0.0
2025-01-24 18:55:42.034369	335.7	10.5	-77.2	0.0
2025-01-24 18:55:43.158312	335.7	10.4	-77.5	0.0
2025-01-24 18:55:44.280160	335.8	10.3	-78.5	0.0
2025-01-24 18:55:45.403209	335.8	10.2	-78.3	0.0
2025-01-24 18:55:46.526508	335.9	10.1	-77.9	0.0
2025-01-24 18:55:47.650542	335.9	10.0	-78.3	0.0
#Closed at: 2025-01-24 18:45:03.729504