passes_logs/2025/01/24/planumMaritime01/planumMaritime01__20250124_173433_METOP-C_rec.log

#Pass ID: 20250124_173433_METOP-C
#Satellite: METOP-C
#Configuration: METOP-C
#Start time: 2025-01-24 17:34:38.185015

#LorettStation: 1.0.0 05.05.2024
#Station: planumMaritime01
#Location: 37.49445 lon 55.92918 lat
#TLE: 1 43689U 18087A   25023.80960871  .00000345  00000+0  17780-3 0  9992
#TLE: 2 43689  98.6952  86.1699 0001813 148.0530 212.0757 14.21487618322467

#Time	Az	El	Level	SNR
2025-01-24 17:34:40.353180	143.9	10.2	-74.9	0.0
2025-01-24 17:34:41.476762	143.9	10.3	-74.6	0.0
2025-01-24 17:34:42.599569	143.8	10.4	-74.4	0.0
2025-01-24 17:34:43.723266	143.8	10.5	-75.9	0.0
2025-01-24 17:34:44.845461	143.7	10.6	-75.8	0.0
2025-01-24 17:34:45.967951	143.7	10.7	-76.1	0.0
2025-01-24 17:34:47.090572	143.7	10.8	-75.7	0.0
2025-01-24 17:34:48.215436	143.6	10.9	-75.8	0.6
2025-01-24 17:34:49.339625	143.6	11.0	-76.1	0.0
2025-01-24 17:34:50.463356	143.5	11.1	-76.0	0.0
2025-01-24 17:34:51.585844	143.5	11.2	-75.6	0.0
2025-01-24 17:34:52.707349	143.5	11.3	-75.8	0.0
2025-01-24 17:34:53.828993	143.4	11.4	-75.8	0.3
2025-01-24 17:34:54.956160	143.4	11.5	-75.7	0.0
2025-01-24 17:34:56.080225	143.3	11.6	-75.7	2.0
2025-01-24 17:34:57.202652	143.3	11.7	-75.8	0.8
2025-01-24 17:34:58.323712	143.2	11.8	-75.8	0.0
2025-01-24 17:34:59.447948	143.2	11.9	-75.9	0.0
2025-01-24 17:35:00.571172	143.2	12.0	-75.8	0.0
2025-01-24 17:35:01.693200	143.1	12.1	-76.0	1.7
2025-01-24 17:35:02.814965	143.1	12.2	-76.0	0.6
2025-01-24 17:35:03.938058	143.0	12.3	-75.9	0.0
2025-01-24 17:35:05.060516	143.0	12.4	-75.8	0.0
2025-01-24 17:35:06.185135	142.9	12.5	-76.0	0.9
2025-01-24 17:35:07.308118	142.9	12.6	-76.0	0.0
2025-01-24 17:35:08.431293	142.8	12.7	-76.1	0.0
2025-01-24 17:35:09.554833	142.8	12.9	-76.1	0.0
2025-01-24 17:35:10.678181	142.7	13.0	-75.7	0.0
2025-01-24 17:35:11.801520	142.7	13.1	-75.7	0.3
2025-01-24 17:35:12.923921	142.6	13.2	-75.8	0.9
2025-01-24 17:35:14.046966	142.6	13.3	-76.0	1.4
2025-01-24 17:35:15.169772	142.5	13.4	-75.6	1.3
2025-01-24 17:35:16.291133	142.5	13.5	-75.9	2.4
2025-01-24 17:35:17.413347	142.4	13.6	-76.0	1.7
2025-01-24 17:35:18.535190	142.4	13.7	-75.2	0.0
2025-01-24 17:35:19.656633	142.3	13.8	-75.3	2.3
2025-01-24 17:35:20.781096	142.3	14.0	-75.8	1.6
2025-01-24 17:35:21.903155	142.2	14.1	-75.4	1.2
2025-01-24 17:35:23.026177	142.2	14.2	-75.8	1.8
2025-01-24 17:35:24.149816	142.1	14.3	-76.1	2.0
2025-01-24 17:35:25.272853	142.1	14.4	-75.9	0.0
2025-01-24 17:35:26.396863	142.0	14.5	-75.7	2.1
2025-01-24 17:35:27.521132	142.0	14.6	-75.8	0.0
2025-01-24 17:35:28.645263	141.9	14.8	-75.7	0.0
2025-01-24 17:35:29.766409	141.9	14.9	-75.7	0.0
2025-01-24 17:35:30.888218	141.8	15.0	-75.9	0.5
2025-01-24 17:35:32.011637	141.8	15.1	-76.2	0.0
2025-01-24 17:35:33.132223	141.7	15.2	-75.8	0.0
2025-01-24 17:35:34.256186	141.6	15.3	-76.0	0.2
2025-01-24 17:35:35.378924	141.6	15.5	-76.2	0.0
2025-01-24 17:35:36.499447	141.5	15.6	-75.7	0.0
2025-01-24 17:35:37.623159	141.5	15.7	-75.4	0.0
2025-01-24 17:35:38.744786	141.4	15.8	-75.6	0.0
2025-01-24 17:35:39.868069	141.4	16.0	-76.7	0.0
2025-01-24 17:35:40.990948	141.3	16.1	-76.5	0.0
2025-01-24 17:35:42.113474	141.2	16.2	-76.4	0.0
2025-01-24 17:35:43.238835	141.2	16.3	-76.6	0.0
2025-01-24 17:35:44.363104	141.1	16.4	-76.6	0.0
2025-01-24 17:35:45.486602	141.1	16.6	-76.3	0.0
2025-01-24 17:35:46.609350	141.0	16.7	-76.5	0.0
2025-01-24 17:35:47.732178	140.9	16.8	-76.1	0.0
2025-01-24 17:35:48.856360	140.9	16.9	-76.4	0.0
2025-01-24 17:35:49.980146	140.8	17.1	-76.6	0.0
2025-01-24 17:35:51.103203	140.7	17.2	-76.6	0.0
2025-01-24 17:35:52.227339	140.7	17.3	-76.7	0.0
2025-01-24 17:35:53.350900	140.6	17.5	-76.4	0.0
2025-01-24 17:35:54.473564	140.5	17.6	-76.2	0.0
2025-01-24 17:35:55.597559	140.5	17.7	-77.1	0.0
2025-01-24 17:35:56.718272	140.4	17.9	-77.0	0.0
2025-01-24 17:35:57.841749	140.3	18.0	-76.5	0.0
2025-01-24 17:35:58.962681	140.3	18.1	-77.2	0.0
2025-01-24 17:36:00.085798	140.2	18.3	-77.3	0.0
2025-01-24 17:36:01.208639	140.1	18.4	-76.9	0.0
2025-01-24 17:36:02.332037	140.1	18.5	-77.3	0.0
2025-01-24 17:36:03.455190	140.0	18.7	-77.0	0.0
2025-01-24 17:36:04.577183	139.9	18.8	-76.7	0.0
2025-01-24 17:36:05.698034	139.9	18.9	-77.1	0.0
2025-01-24 17:36:06.820032	139.8	19.1	-76.9	0.0
2025-01-24 17:36:07.943292	139.7	19.2	-77.4	0.0
2025-01-24 17:36:09.066544	139.6	19.3	-77.7	0.0
2025-01-24 17:36:10.189525	139.6	19.5	-77.3	0.0
2025-01-24 17:36:11.311925	139.5	19.6	-77.0	0.0
2025-01-24 17:36:12.434858	139.4	19.8	-77.0	0.0
2025-01-24 17:36:13.556962	139.3	19.9	-77.3	0.0
2025-01-24 17:36:14.681413	139.3	20.0	-77.7	0.0
2025-01-24 17:36:15.805061	139.2	20.2	-77.3	0.0
2025-01-24 17:36:16.929222	139.1	20.3	-77.2	0.0
2025-01-24 17:36:18.052239	139.0	20.5	-77.5	0.0
2025-01-24 17:36:19.175209	138.9	20.6	-77.4	0.0
2025-01-24 17:36:20.296861	138.9	20.8	-77.5	0.0
2025-01-24 17:36:21.419236	138.8	20.9	-77.4	0.0
2025-01-24 17:36:22.545401	138.7	21.1	-77.7	0.0
2025-01-24 17:36:23.669049	138.6	21.2	-77.5	0.0
2025-01-24 17:36:24.790194	138.5	21.4	-77.4	0.0
2025-01-24 17:36:25.912096	138.4	21.5	-77.5	0.0
2025-01-24 17:36:27.036224	138.3	21.7	-77.3	0.0
2025-01-24 17:36:28.160242	138.3	21.8	-77.5	0.0
2025-01-24 17:36:29.285180	138.2	22.0	-77.9	0.0
2025-01-24 17:36:30.407152	138.1	22.1	-77.8	0.0
2025-01-24 17:36:31.531213	138.0	22.3	-77.8	0.0
2025-01-24 17:36:32.653992	137.9	22.4	-77.4	0.0
2025-01-24 17:36:33.776849	137.8	22.6	-77.7	0.0
2025-01-24 17:36:34.898852	137.7	22.7	-77.7	0.0
2025-01-24 17:36:36.022910	137.6	22.9	-77.9	0.0
2025-01-24 17:36:37.146125	137.5	23.1	-77.5	0.0
2025-01-24 17:36:38.268948	137.4	23.2	-78.1	0.0
2025-01-24 17:36:39.392124	137.3	23.4	-77.4	0.0
2025-01-24 17:36:40.513650	137.2	23.5	-77.7	0.0
2025-01-24 17:36:41.636839	137.1	23.7	-77.4	0.0
2025-01-24 17:36:42.758455	137.0	23.9	-77.4	0.0
2025-01-24 17:36:43.882673	136.9	24.0	-77.6	0.0
2025-01-24 17:36:45.004407	136.8	24.2	-77.9	0.0
2025-01-24 17:36:46.128547	136.7	24.4	-77.8	0.0
2025-01-24 17:36:47.251324	136.6	24.5	-77.4	0.0
2025-01-24 17:36:48.375732	136.5	24.7	-77.0	0.0
2025-01-24 17:36:49.497775	136.4	24.9	-77.0	0.0
2025-01-24 17:36:50.622847	136.3	25.0	-77.3	0.0
2025-01-24 17:36:51.745745	136.2	25.2	-77.3	0.0
2025-01-24 17:36:52.866903	136.1	25.4	-77.2	0.0
2025-01-24 17:36:53.990222	136.0	25.6	-77.1	0.0
2025-01-24 17:36:55.114537	135.8	25.7	-77.1	0.0
2025-01-24 17:36:56.237564	135.7	25.9	-76.5	0.0
2025-01-24 17:36:57.358954	135.6	26.1	-76.6	0.0
2025-01-24 17:36:58.481144	135.5	26.3	-77.3	0.0
2025-01-24 17:36:59.605586	135.4	26.4	-77.3	0.0
2025-01-24 17:37:00.728005	135.3	26.6	-76.9	0.0
2025-01-24 17:37:01.852111	135.1	26.8	-77.4	0.0
2025-01-24 17:37:02.975327	135.0	27.0	-77.0	0.0
2025-01-24 17:37:04.098557	134.9	27.2	-77.0	0.0
2025-01-24 17:37:05.221531	134.8	27.4	-77.1	0.0
2025-01-24 17:37:06.345267	134.6	27.5	-76.9	0.0
2025-01-24 17:37:07.467709	134.5	27.7	-76.9	0.0
2025-01-24 17:37:08.589223	134.4	27.9	-77.4	0.0
2025-01-24 17:37:09.712553	134.3	28.1	-76.8	0.0
2025-01-24 17:37:10.833821	134.1	28.3	-73.9	0.0
2025-01-24 17:37:11.957244	134.0	28.5	-77.0	0.0
2025-01-24 17:37:13.081378	133.8	28.7	-76.6	0.0
2025-01-24 17:37:14.206246	133.7	28.9	-74.3	0.0
2025-01-24 17:37:15.330090	133.6	29.1	-76.5	0.0
2025-01-24 17:37:16.452736	133.4	29.3	-76.0	0.0
2025-01-24 17:37:17.573549	133.3	29.4	-76.1	0.0
2025-01-24 17:37:18.696427	133.1	29.6	-76.6	0.0
2025-01-24 17:37:19.819314	133.0	29.8	-76.1	0.0
2025-01-24 17:37:20.942832	132.8	30.0	-76.3	0.0
2025-01-24 17:37:22.065875	132.7	30.2	-76.1	0.0
2025-01-24 17:37:23.188810	132.5	30.4	-76.7	0.0
2025-01-24 17:37:24.313113	132.4	30.7	-76.7	0.0
2025-01-24 17:37:25.437351	132.2	30.9	-76.9	0.0
2025-01-24 17:37:26.559910	132.1	31.1	-77.0	0.0
2025-01-24 17:37:27.683018	131.9	31.3	-77.1	0.0
2025-01-24 17:37:28.804291	131.7	31.5	-76.9	0.0
2025-01-24 17:37:29.928603	131.6	31.7	-77.0	0.0
2025-01-24 17:37:31.050712	131.4	31.9	-76.9	0.0
2025-01-24 17:37:32.174889	131.2	32.1	-76.9	0.0
2025-01-24 17:37:33.297405	131.1	32.3	-76.9	0.0
2025-01-24 17:37:34.421551	130.9	32.5	-76.7	0.0
2025-01-24 17:37:35.544824	130.7	32.8	-76.7	0.0
2025-01-24 17:37:36.666693	130.5	33.0	-76.9	0.0
2025-01-24 17:37:37.789021	130.4	33.2	-77.0	0.0
2025-01-24 17:37:38.914968	130.2	33.4	-76.6	0.0
2025-01-24 17:37:40.035353	130.0	33.6	-76.9	0.0
2025-01-24 17:37:41.160759	129.8	33.8	-76.7	0.0
2025-01-24 17:37:42.283506	129.6	34.1	-76.7	0.0
2025-01-24 17:37:43.406531	129.4	34.3	-76.7	0.0
2025-01-24 17:37:44.526861	129.2	34.5	-77.0	0.0
2025-01-24 17:37:45.649468	129.0	34.7	-76.8	0.0
2025-01-24 17:37:46.772706	128.8	35.0	-77.3	0.0
2025-01-24 17:37:47.894731	128.6	35.2	-77.3	0.0
2025-01-24 17:37:49.018347	128.4	35.4	-77.3	0.0
2025-01-24 17:37:50.142669	128.2	35.7	-77.4	0.0
2025-01-24 17:37:51.267508	128.0	35.9	-77.4	0.0
2025-01-24 17:37:52.390544	127.7	36.1	-77.6	0.0
2025-01-24 17:37:53.515831	127.5	36.4	-77.3	0.0
2025-01-24 17:37:54.637002	127.3	36.6	-77.6	0.0
2025-01-24 17:37:55.758591	127.1	36.8	-77.6	0.0
2025-01-24 17:37:56.881842	126.8	37.1	-76.9	0.0
2025-01-24 17:37:58.007485	126.6	37.3	-76.9	0.0
2025-01-24 17:37:59.128784	126.4	37.6	-77.1	0.0
2025-01-24 17:38:00.252628	126.1	37.8	-76.9	0.0
2025-01-24 17:38:01.374829	125.9	38.0	-77.4	0.0
2025-01-24 17:38:02.496915	125.6	38.3	-77.5	0.0
2025-01-24 17:38:03.622154	125.4	38.5	-77.4	0.0
2025-01-24 17:38:04.746825	125.1	38.8	-77.4	0.0
2025-01-24 17:38:05.868382	124.9	39.0	-77.5	0.0
2025-01-24 17:38:06.993193	124.6	39.3	-76.9	0.0
2025-01-24 17:38:08.115897	124.3	39.5	-77.0	0.0
2025-01-24 17:38:09.238114	124.1	39.8	-77.4	0.0
2025-01-24 17:38:10.361184	123.8	40.0	-77.3	0.0
2025-01-24 17:38:11.483771	123.5	40.3	-76.9	0.0
2025-01-24 17:38:12.608092	123.2	40.5	-77.1	0.0
2025-01-24 17:38:13.730807	122.9	40.8	-76.9	0.0
2025-01-24 17:38:14.856782	122.6	41.1	-77.5	0.0
2025-01-24 17:38:15.979660	122.3	41.3	-77.6	0.0
2025-01-24 17:38:17.101664	122.0	41.6	-76.9	0.0
2025-01-24 17:38:18.227907	121.7	41.8	-77.6	0.0
2025-01-24 17:38:19.351177	121.4	42.1	-77.6	0.0
2025-01-24 17:38:20.475912	121.1	42.4	-77.4	0.0
2025-01-24 17:38:21.599120	120.7	42.6	-77.6	0.0
2025-01-24 17:38:22.723607	120.4	42.9	-77.8	0.0
2025-01-24 17:38:23.845297	120.1	43.1	-78.0	0.0
2025-01-24 17:38:24.968671	119.7	43.4	-77.7	0.0
2025-01-24 17:38:26.092206	119.4	43.7	-77.8	0.0
2025-01-24 17:38:27.212597	119.0	43.9	-76.8	0.0
2025-01-24 17:38:28.334940	118.7	44.2	-77.7	0.0
2025-01-24 17:38:29.459820	118.3	44.5	-77.4	0.0
2025-01-24 17:38:30.582229	117.9	44.7	-77.1	0.0
2025-01-24 17:38:31.704102	117.6	45.0	-77.7	0.0
2025-01-24 17:38:32.826813	117.2	45.3	-77.8	0.0
2025-01-24 17:38:33.951468	116.8	45.5	-77.2	0.0
2025-01-24 17:38:35.074299	116.4	45.8	-76.8	0.0
2025-01-24 17:38:36.197263	116.0	46.1	-77.1	0.0
2025-01-24 17:38:37.320548	115.6	46.3	-77.4	0.0
2025-01-24 17:38:38.442609	115.1	46.6	-77.7	0.0
2025-01-24 17:38:39.565944	114.7	46.9	-77.7	0.0
2025-01-24 17:38:40.688872	114.3	47.1	-78.1	0.0
2025-01-24 17:38:41.811777	113.8	47.4	-77.7	0.0
2025-01-24 17:38:42.933079	113.4	47.7	-78.2	0.0
2025-01-24 17:38:44.055594	112.9	48.0	-78.1	0.0
2025-01-24 17:38:45.179607	112.5	48.2	-78.1	0.0
2025-01-24 17:38:46.302515	112.0	48.5	-77.8	0.0
2025-01-24 17:38:47.426172	111.5	48.8	-77.3	0.0
2025-01-24 17:38:48.548696	111.0	49.0	-77.4	0.0
2025-01-24 17:38:49.672054	110.5	49.3	-77.4	0.0
2025-01-24 17:38:50.795603	110.0	49.5	-77.5	0.0
2025-01-24 17:38:51.919921	109.5	49.8	-78.1	0.0
2025-01-24 17:38:53.043607	109.0	50.1	-78.2	0.0
2025-01-24 17:38:54.167274	108.4	50.3	-77.8	0.0
2025-01-24 17:38:55.290555	107.9	50.6	-77.7	0.0
2025-01-24 17:38:56.414862	107.3	50.9	-77.9	0.0
2025-01-24 17:38:57.540953	106.8	51.1	-77.9	0.0
2025-01-24 17:38:58.664792	106.2	51.4	-78.1	0.0
2025-01-24 17:38:59.789325	105.6	51.6	-77.9	0.0
2025-01-24 17:39:00.914281	105.0	51.9	-78.0	0.0
2025-01-24 17:39:02.037794	104.4	52.1	-77.9	0.0
2025-01-24 17:39:03.161124	103.8	52.4	-77.8	0.0
2025-01-24 17:39:04.284024	103.2	52.6	-77.9	0.0
2025-01-24 17:39:05.408163	102.6	52.9	-77.8	0.0
2025-01-24 17:39:06.532356	101.9	53.1	-77.4	0.0
2025-01-24 17:39:07.653705	101.3	53.3	-77.9	0.0
2025-01-24 17:39:08.777615	100.6	53.6	-77.1	0.0
2025-01-24 17:39:09.900988	99.9	53.8	-76.7	0.0
2025-01-24 17:39:11.024217	99.2	54.0	-76.8	0.0
2025-01-24 17:39:12.146887	98.5	54.3	-77.5	0.0
2025-01-24 17:39:13.268860	97.8	54.5	-77.2	0.0
2025-01-24 17:39:14.391750	97.1	54.7	-77.1	0.0
2025-01-24 17:39:15.514102	96.4	54.9	-77.2	0.0
2025-01-24 17:39:16.637973	95.6	55.1	-77.1	0.0
2025-01-24 17:39:17.761517	94.9	55.4	-77.1	0.0
2025-01-24 17:39:18.885697	94.1	55.6	-77.3	0.0
2025-01-24 17:39:20.008713	93.3	55.8	-77.7	0.0
2025-01-24 17:39:21.132873	92.5	55.9	-77.5	0.0
2025-01-24 17:39:22.254658	91.7	56.1	-77.4	0.0
2025-01-24 17:39:23.378961	90.9	56.3	-77.2	0.0
2025-01-24 17:39:24.503136	90.1	56.5	-77.6	0.0
2025-01-24 17:39:25.626576	89.3	56.7	-77.2	0.0
2025-01-24 17:39:26.750845	88.4	56.9	-77.6	0.0
2025-01-24 17:39:27.874328	87.6	57.0	-77.2	0.0
2025-01-24 17:39:28.996441	86.7	57.2	-77.3	0.0
2025-01-24 17:39:30.120872	85.8	57.3	-77.8	0.0
2025-01-24 17:39:31.245259	85.0	57.5	-77.5	0.0
2025-01-24 17:39:32.369123	84.1	57.6	-77.8	0.0
2025-01-24 17:39:33.490253	83.2	57.7	-78.2	0.0
2025-01-24 17:39:34.613305	82.3	57.9	-78.1	0.0
2025-01-24 17:39:35.737207	81.3	58.0	-77.9	0.0
2025-01-24 17:39:36.860965	80.4	58.1	-77.8	0.0
2025-01-24 17:39:37.984297	79.5	58.2	-78.0	0.0
2025-01-24 17:39:39.107588	78.5	58.3	-77.9	0.0
2025-01-24 17:39:40.230433	77.6	58.4	-78.4	0.0
2025-01-24 17:39:41.354094	76.6	58.5	-78.2	0.0
2025-01-24 17:39:42.476541	75.7	58.6	-78.1	0.0
2025-01-24 17:39:43.600300	74.7	58.6	-78.3	0.0
2025-01-24 17:39:44.724343	73.7	58.7	-78.3	0.0
2025-01-24 17:39:45.849092	72.8	58.8	-78.2	0.0
2025-01-24 17:39:46.972300	71.8	58.8	-77.8	0.0
2025-01-24 17:39:48.097647	70.8	58.9	-78.5	0.0
2025-01-24 17:39:49.218556	69.8	58.9	-78.1	0.0
2025-01-24 17:39:50.339653	68.8	58.9	-77.9	0.0
2025-01-24 17:39:51.463213	67.8	58.9	-78.0	0.0
2025-01-24 17:39:52.585050	66.9	58.9	-78.1	0.0
2025-01-24 17:39:53.709704	65.9	58.9	-78.1	0.0
2025-01-24 17:39:54.830841	64.9	58.9	-77.9	0.0
2025-01-24 17:39:55.954431	63.9	58.9	-78.0	0.0
2025-01-24 17:39:57.078767	62.9	58.9	-77.9	0.0
2025-01-24 17:39:58.200937	61.9	58.9	-78.1	0.0
2025-01-24 17:39:59.322813	60.9	58.8	-78.2	0.0
2025-01-24 17:40:00.445827	60.0	58.8	-78.2	0.0
2025-01-24 17:40:01.566233	59.0	58.7	-78.1	0.0
2025-01-24 17:40:02.689522	58.0	58.7	-78.4	0.0
2025-01-24 17:40:03.814397	57.0	58.6	-78.3	0.0
2025-01-24 17:40:04.935752	56.1	58.5	-78.4	0.0
2025-01-24 17:40:06.058756	55.1	58.4	-78.5	0.0
2025-01-24 17:40:07.183437	54.2	58.4	-78.3	0.0
2025-01-24 17:40:08.307501	53.2	58.3	-78.4	0.0
2025-01-24 17:40:09.429163	52.3	58.2	-78.4	0.0
2025-01-24 17:40:10.552858	51.4	58.0	-78.6	0.0
2025-01-24 17:40:11.675765	50.5	57.9	-78.2	0.0
2025-01-24 17:40:12.798962	49.5	57.8	-78.4	0.0
2025-01-24 17:40:13.923298	48.6	57.7	-78.1	0.0
2025-01-24 17:40:15.046834	47.7	57.5	-78.3	0.0
2025-01-24 17:40:16.170064	46.9	57.4	-78.3	0.0
2025-01-24 17:40:17.293735	46.0	57.2	-78.1	0.0
2025-01-24 17:40:18.417104	45.1	57.1	-78.6	0.0
2025-01-24 17:40:19.540198	44.3	56.9	-78.6	0.0
2025-01-24 17:40:20.663943	43.4	56.8	-78.5	0.0
2025-01-24 17:40:21.786678	42.6	56.6	-78.1	0.0
2025-01-24 17:40:22.910678	41.8	56.4	-78.3	0.0
2025-01-24 17:40:24.033369	40.9	56.2	-78.2	0.0
2025-01-24 17:40:25.156346	40.1	56.0	-78.4	0.0
2025-01-24 17:40:26.279070	39.4	55.8	-78.0	0.0
2025-01-24 17:40:27.400506	38.6	55.6	-77.8	0.0
2025-01-24 17:40:28.524087	37.8	55.4	-77.5	0.0
2025-01-24 17:40:29.648284	37.0	55.2	-77.7	0.0
2025-01-24 17:40:30.767444	36.3	55.0	-77.8	0.0
2025-01-24 17:40:31.889548	35.6	54.8	-77.8	0.0
2025-01-24 17:40:33.013873	34.8	54.6	-77.9	0.0
2025-01-24 17:40:34.137965	34.1	54.4	-78.0	0.0
2025-01-24 17:40:35.260227	33.4	54.1	-78.5	0.0
2025-01-24 17:40:36.382232	32.7	53.9	-78.4	0.0
2025-01-24 17:40:37.504456	32.1	53.7	-78.3	0.0
2025-01-24 17:40:38.628286	31.4	53.5	-78.0	0.0
2025-01-24 17:40:39.752004	30.7	53.2	-77.9	0.0
2025-01-24 17:40:40.875439	30.1	53.0	-77.5	0.0
2025-01-24 17:40:42.000032	29.4	52.7	-77.8	0.0
2025-01-24 17:40:43.123500	28.8	52.5	-77.1	0.0
2025-01-24 17:40:44.245525	28.2	52.2	-77.0	0.0
2025-01-24 17:40:45.370926	27.6	52.0	-78.1	0.0
2025-01-24 17:40:46.494130	27.0	51.7	-72.7	0.0
2025-01-24 17:40:47.618523	26.4	51.5	-77.6	0.0
2025-01-24 17:40:48.741857	25.8	51.2	-77.5	0.0
2025-01-24 17:40:49.865394	25.3	51.0	-77.3	0.0
2025-01-24 17:40:50.990589	24.7	50.7	-77.4	0.0
2025-01-24 17:40:52.113458	24.2	50.5	-78.2	0.0
2025-01-24 17:40:53.235438	23.6	50.2	-77.6	0.0
2025-01-24 17:40:54.359155	23.1	49.9	-76.3	0.0
2025-01-24 17:40:55.483700	22.6	49.7	-77.2	0.0
2025-01-24 17:40:56.606805	22.1	49.4	-77.8	0.0
2025-01-24 17:40:57.730521	21.6	49.2	-77.5	0.0
2025-01-24 17:40:58.854663	21.1	48.9	-78.2	0.0
2025-01-24 17:40:59.978731	20.6	48.6	-77.3	0.0
2025-01-24 17:41:01.101037	20.1	48.4	-78.6	0.0
2025-01-24 17:41:02.223912	19.6	48.1	-78.4	0.0
2025-01-24 17:41:03.347420	19.2	47.8	-78.2	0.0
2025-01-24 17:41:04.472221	18.7	47.6	-78.4	0.0
2025-01-24 17:41:05.596886	18.3	47.3	-78.6	0.0
2025-01-24 17:41:06.719172	17.9	47.0	-78.6	0.0
2025-01-24 17:41:07.841117	17.4	46.8	-78.2	0.0
2025-01-24 17:41:08.964517	17.0	46.5	-77.0	0.0
2025-01-24 17:41:10.090051	16.6	46.2	-77.8	0.0
2025-01-24 17:41:11.213193	16.2	45.9	-78.4	0.0
2025-01-24 17:41:12.337837	15.8	45.7	-78.0	0.0
2025-01-24 17:41:13.461125	15.4	45.4	-77.9	0.0
2025-01-24 17:41:14.583902	15.0	45.1	-77.1	0.0
2025-01-24 17:41:15.705968	14.6	44.9	-77.4	0.0
2025-01-24 17:41:16.828213	14.2	44.6	-78.2	0.0
2025-01-24 17:41:17.950430	13.9	44.3	-77.7	0.0
2025-01-24 17:41:19.072327	13.5	44.1	-77.7	0.0
2025-01-24 17:41:20.195233	13.2	43.8	-77.9	0.0
2025-01-24 17:41:21.317373	12.8	43.6	-77.6	0.0
2025-01-24 17:41:22.442147	12.5	43.3	-78.0	0.0
2025-01-24 17:41:23.565871	12.1	43.0	-77.9	0.0
2025-01-24 17:41:24.688707	11.8	42.8	-77.0	0.0
2025-01-24 17:41:25.811296	11.5	42.5	-77.7	0.0
2025-01-24 17:41:26.934860	11.1	42.2	-77.6	0.0
2025-01-24 17:41:28.059114	10.8	42.0	-78.0	0.0
2025-01-24 17:41:29.182769	10.5	41.7	-78.0	0.0
2025-01-24 17:41:30.309012	10.2	41.5	-78.2	0.0
2025-01-24 17:41:31.433697	9.9	41.2	-78.2	0.0
2025-01-24 17:41:32.557617	9.6	41.0	-77.5	0.0
2025-01-24 17:41:33.682194	9.3	40.7	-77.5	0.0
2025-01-24 17:41:34.806196	9.0	40.4	-77.5	0.0
2025-01-24 17:41:35.929856	8.7	40.2	-77.4	0.0
2025-01-24 17:41:37.053400	8.5	39.9	-77.6	0.0
2025-01-24 17:41:38.175837	8.2	39.7	-77.5	0.0
2025-01-24 17:41:39.300323	7.9	39.4	-77.7	0.0
2025-01-24 17:41:40.423945	7.7	39.2	-78.2	0.0
2025-01-24 17:41:41.548173	7.4	38.9	-78.1	0.0
2025-01-24 17:41:42.671958	7.1	38.7	-77.7	0.0
2025-01-24 17:41:43.794144	6.9	38.5	-77.5	0.0
2025-01-24 17:41:44.917141	6.6	38.2	-78.0	0.0
2025-01-24 17:41:46.036430	6.4	38.0	-78.1	0.0
2025-01-24 17:41:47.158032	6.1	37.7	-77.5	0.0
2025-01-24 17:41:48.281012	5.9	37.5	-78.2	0.0
2025-01-24 17:41:49.403275	5.7	37.2	-78.4	0.0
2025-01-24 17:41:50.526018	5.4	37.0	-77.2	0.0
2025-01-24 17:41:51.647395	5.2	36.8	-77.9	0.0
2025-01-24 17:41:52.770004	5.0	36.5	-77.6	0.0
2025-01-24 17:41:53.894861	4.8	36.3	-76.6	0.0
2025-01-24 17:41:55.017430	4.6	36.1	-77.5	0.0
2025-01-24 17:41:56.139838	4.3	35.8	-78.2	0.0
2025-01-24 17:41:57.262766	4.1	35.6	-77.7	0.0
2025-01-24 17:41:58.386468	3.9	35.4	-77.5	0.0
2025-01-24 17:41:59.509655	3.7	35.1	-77.8	0.0
2025-01-24 17:42:00.632425	3.5	34.9	-77.2	0.0
2025-01-24 17:42:01.755890	3.3	34.7	-78.2	0.0
2025-01-24 17:42:02.878236	3.1	34.5	-78.1	0.0
2025-01-24 17:42:04.000583	2.9	34.2	-78.0	0.0
2025-01-24 17:42:05.125686	2.7	34.0	-78.6	0.0
2025-01-24 17:42:06.249122	2.5	33.8	-78.3	0.0
2025-01-24 17:42:07.374619	2.3	33.6	-78.4	0.0
2025-01-24 17:42:08.497110	2.2	33.4	-78.7	0.0
2025-01-24 17:42:09.619157	2.0	33.1	-78.5	0.0
2025-01-24 17:42:10.745396	1.8	32.9	-78.5	0.0
2025-01-24 17:42:11.870985	1.6	32.7	-78.1	0.0
2025-01-24 17:42:12.994982	1.4	32.5	-77.5	0.0
2025-01-24 17:42:14.117892	1.3	32.3	-78.3	0.0
2025-01-24 17:42:15.242011	1.1	32.1	-78.4	0.0
2025-01-24 17:42:16.367360	0.9	31.9	-78.1	0.0
2025-01-24 17:42:17.492087	0.8	31.6	-78.5	0.0
2025-01-24 17:42:18.615165	0.6	31.4	-78.1	0.0
2025-01-24 17:42:19.738381	0.4	31.2	-77.6	0.0
2025-01-24 17:42:20.859969	0.3	31.0	-78.7	0.0
2025-01-24 17:42:21.983425	0.1	30.8	-78.2	0.0
2025-01-24 17:42:23.104260	360.0	30.6	-77.5	0.0
2025-01-24 17:42:24.225919	359.8	30.4	-78.6	0.0
2025-01-24 17:42:25.350532	359.7	30.2	-77.7	0.0
2025-01-24 17:42:26.474310	359.5	30.0	-78.2	0.0
2025-01-24 17:42:27.597173	359.4	29.8	-77.8	0.0
2025-01-24 17:42:28.720034	359.2	29.6	-78.2	0.0
2025-01-24 17:42:29.841945	359.1	29.4	-77.8	0.0
2025-01-24 17:42:30.965437	358.9	29.2	-78.4	0.0
2025-01-24 17:42:32.087753	358.8	29.0	-78.6	0.0
2025-01-24 17:42:33.210086	358.7	28.8	-77.9	0.0
2025-01-24 17:42:34.334181	358.5	28.7	-77.7	0.0
2025-01-24 17:42:35.456941	358.4	28.5	-78.0	0.0
2025-01-24 17:42:36.580960	358.3	28.3	-78.0	0.0
2025-01-24 17:42:37.705239	358.1	28.1	-78.3	0.0
2025-01-24 17:42:38.827698	358.0	27.9	-78.0	0.0
2025-01-24 17:42:39.948620	357.9	27.7	-78.4	0.0
2025-01-24 17:42:41.072519	357.7	27.5	-77.8	0.0
2025-01-24 17:42:42.195791	357.6	27.3	-77.8	0.0
2025-01-24 17:42:43.320593	357.5	27.2	-78.3	0.0
2025-01-24 17:42:44.445180	357.4	27.0	-78.2	0.0
2025-01-24 17:42:45.567419	357.2	26.8	-78.7	0.0
2025-01-24 17:42:46.691475	357.1	26.6	-78.5	0.0
2025-01-24 17:42:47.814670	357.0	26.4	-77.5	0.0
2025-01-24 17:42:48.937214	356.9	26.3	-78.3	0.0
2025-01-24 17:42:50.060409	356.8	26.1	-78.4	0.0
2025-01-24 17:42:51.184500	356.7	25.9	-77.8	0.0
2025-01-24 17:42:52.308381	356.5	25.7	-77.4	0.0
2025-01-24 17:42:53.430087	356.4	25.6	-77.3	0.0
2025-01-24 17:42:54.553018	356.3	25.4	-77.7	0.0
2025-01-24 17:42:55.672433	356.2	25.2	-78.1	0.0
2025-01-24 17:42:56.794177	356.1	25.1	-78.3	0.0
2025-01-24 17:42:57.917033	356.0	24.9	-77.5	0.0
2025-01-24 17:42:59.042969	355.9	24.7	-78.0	0.0
2025-01-24 17:43:00.165550	355.8	24.5	-78.2	0.0
2025-01-24 17:43:01.288338	355.7	24.4	-78.0	0.0
2025-01-24 17:43:02.411493	355.6	24.2	-78.0	0.0
2025-01-24 17:43:03.534390	355.5	24.1	-78.3	0.0
2025-01-24 17:43:04.658217	355.4	23.9	-78.4	0.0
2025-01-24 17:43:05.781418	355.3	23.7	-77.9	0.0
2025-01-24 17:43:06.905995	355.2	23.6	-78.7	0.0
2025-01-24 17:43:08.028337	355.1	23.4	-78.6	0.0
2025-01-24 17:43:09.151206	355.0	23.2	-78.3	0.0
2025-01-24 17:43:10.274889	354.9	23.1	-78.7	0.0
2025-01-24 17:43:11.400327	354.8	22.9	-77.6	0.0
2025-01-24 17:43:12.522594	354.7	22.8	-78.1	0.0
2025-01-24 17:43:13.644976	354.6	22.6	-78.3	0.0
2025-01-24 17:43:14.767662	354.5	22.5	-77.9	0.0
2025-01-24 17:43:15.890116	354.4	22.3	-77.9	0.0
2025-01-24 17:43:17.013758	354.4	22.1	-78.6	0.0
2025-01-24 17:43:18.134529	354.3	22.0	-77.8	0.0
2025-01-24 17:43:19.258399	354.2	21.8	-78.3	0.0
2025-01-24 17:43:20.380432	354.1	21.7	-77.9	0.0
2025-01-24 17:43:21.502149	354.0	21.5	-77.9	0.0
2025-01-24 17:43:22.626440	353.9	21.4	-78.5	0.0
2025-01-24 17:43:23.750064	353.8	21.2	-78.0	0.0
2025-01-24 17:43:24.874754	353.8	21.1	-78.1	0.0
2025-01-24 17:43:25.996909	353.7	20.9	-77.9	0.0
2025-01-24 17:43:27.118740	353.6	20.8	-77.9	0.0
2025-01-24 17:43:28.239498	353.5	20.7	-78.6	0.0
2025-01-24 17:43:29.360326	353.4	20.5	-78.7	0.0
2025-01-24 17:43:30.483589	353.4	20.4	-77.9	0.0
2025-01-24 17:43:31.604258	353.3	20.2	-78.1	0.0
2025-01-24 17:43:32.725587	353.2	20.1	-78.5	0.0
2025-01-24 17:43:33.850970	353.1	19.9	-78.4	0.0
2025-01-24 17:43:34.973021	353.0	19.8	-78.0	0.0
2025-01-24 17:43:36.097096	353.0	19.7	-77.5	0.0
2025-01-24 17:43:37.218585	352.9	19.5	-77.7	0.0
2025-01-24 17:43:38.342273	352.8	19.4	-78.6	0.0
2025-01-24 17:43:39.461878	352.7	19.2	-77.9	0.0
2025-01-24 17:43:40.583516	352.7	19.1	-77.8	0.0
2025-01-24 17:43:41.705899	352.6	19.0	-78.1	0.0
2025-01-24 17:43:42.832294	352.5	18.8	-78.7	0.0
2025-01-24 17:43:43.954628	352.5	18.7	-78.2	0.0
2025-01-24 17:43:45.079639	352.4	18.6	-77.8	0.0
2025-01-24 17:43:46.200454	352.3	18.4	-78.4	0.0
2025-01-24 17:43:47.322407	352.3	18.3	-78.2	0.0
2025-01-24 17:43:48.444827	352.2	18.2	-78.4	0.0
2025-01-24 17:43:49.567722	352.1	18.0	-78.3	0.0
2025-01-24 17:43:50.691314	352.1	17.9	-78.6	0.0
2025-01-24 17:43:51.815168	352.0	17.8	-78.4	0.0
2025-01-24 17:43:52.936495	351.9	17.6	-78.6	0.0
2025-01-24 17:43:54.060608	351.9	17.5	-78.4	0.0
2025-01-24 17:43:55.183655	351.8	17.4	-77.8	0.0
2025-01-24 17:43:56.304341	351.7	17.3	-78.2	0.0
2025-01-24 17:43:57.427002	351.7	17.1	-77.4	0.0
2025-01-24 17:43:58.549686	351.6	17.0	-77.9	0.0
2025-01-24 17:43:59.673368	351.5	16.9	-77.5	0.0
2025-01-24 17:44:00.796223	351.5	16.8	-77.6	0.0
2025-01-24 17:44:01.920691	351.4	16.6	-77.7	0.0
2025-01-24 17:44:03.043444	351.4	16.5	-78.3	0.0
2025-01-24 17:44:04.167838	351.3	16.4	-78.6	0.0
2025-01-24 17:44:05.292002	351.2	16.3	-78.8	0.0
2025-01-24 17:44:06.417530	351.2	16.1	-78.4	0.0
2025-01-24 17:44:07.542172	351.1	16.0	-78.5	0.0
2025-01-24 17:44:08.663450	351.1	15.9	-78.3	0.0
2025-01-24 17:44:09.786134	351.0	15.8	-78.2	0.0
2025-01-24 17:44:10.907746	351.0	15.7	-78.7	0.0
2025-01-24 17:44:12.032724	350.9	15.5	-78.4	0.0
2025-01-24 17:44:13.154961	350.8	15.4	-78.5	0.0
2025-01-24 17:44:14.278758	350.8	15.3	-77.7	0.0
2025-01-24 17:44:15.400135	350.7	15.2	-78.3	0.0
2025-01-24 17:44:16.522367	350.7	15.1	-78.1	0.0
2025-01-24 17:44:17.644077	350.6	14.9	-77.7	0.0
2025-01-24 17:44:18.766200	350.6	14.8	-78.0	0.0
2025-01-24 17:44:19.887858	350.5	14.7	-78.3	0.0
2025-01-24 17:44:21.011607	350.5	14.6	-77.9	0.0
2025-01-24 17:44:22.133453	350.4	14.5	-77.7	0.0
2025-01-24 17:44:23.256979	350.4	14.4	-77.5	0.0
2025-01-24 17:44:24.379951	350.3	14.3	-78.1	0.0
2025-01-24 17:44:25.499967	350.3	14.1	-77.5	0.0
2025-01-24 17:44:26.622898	350.2	14.0	-75.6	0.0
2025-01-24 17:44:27.745410	350.2	13.9	-77.1	0.0
2025-01-24 17:44:28.870106	350.1	13.8	-77.6	0.0
2025-01-24 17:44:29.993256	350.1	13.7	-76.2	0.0
2025-01-24 17:44:31.116600	350.0	13.6	-77.6	0.0
2025-01-24 17:44:32.238529	350.0	13.5	-76.9	0.0
2025-01-24 17:44:33.362061	349.9	13.4	-77.1	0.0
2025-01-24 17:44:34.486391	349.9	13.3	-77.0	0.0
2025-01-24 17:44:35.608503	349.8	13.1	-77.3	0.0
2025-01-24 17:44:36.732959	349.8	13.0	-77.7	0.0
2025-01-24 17:44:37.857659	349.7	12.9	-77.6	0.0
2025-01-24 17:44:38.982373	349.7	12.8	-78.3	0.0
2025-01-24 17:44:40.105380	349.6	12.7	-78.3	0.0
2025-01-24 17:44:41.229874	349.6	12.6	-77.6	0.0
2025-01-24 17:44:42.353182	349.5	12.5	-77.8	0.0
2025-01-24 17:44:43.477214	349.5	12.4	-77.4	0.0
2025-01-24 17:44:44.600386	349.5	12.3	-78.3	0.0
2025-01-24 17:44:45.724451	349.4	12.2	-78.1	0.0
2025-01-24 17:44:46.846683	349.4	12.1	-78.1	0.0
2025-01-24 17:44:47.970812	349.3	12.0	-77.9	0.0
2025-01-24 17:44:49.093373	349.3	11.9	-78.4	0.0
2025-01-24 17:44:50.216454	349.2	11.8	-77.9	0.0
2025-01-24 17:44:51.340670	349.2	11.7	-78.3	0.0
2025-01-24 17:44:52.464117	349.2	11.6	-76.8	0.0
2025-01-24 17:44:53.587632	349.1	11.5	-77.9	0.0
2025-01-24 17:44:54.711526	349.1	11.4	-77.7	0.0
2025-01-24 17:44:55.835888	349.0	11.3	-77.6	0.0
2025-01-24 17:44:56.958898	349.0	11.2	-77.9	0.0
2025-01-24 17:44:58.084440	349.0	11.1	-77.6	0.0
2025-01-24 17:44:59.205493	348.9	11.0	-77.8	0.0
2025-01-24 17:45:00.330084	348.9	10.9	-77.8	0.0
2025-01-24 17:45:01.455178	348.8	10.8	-78.0	0.0
2025-01-24 17:45:02.578151	348.8	10.7	-78.4	0.0
2025-01-24 17:45:03.701629	348.8	10.6	-77.9	0.0
2025-01-24 17:45:04.824779	348.7	10.5	-77.8	0.0
2025-01-24 17:45:05.946749	348.7	10.4	-77.9	0.0
2025-01-24 17:45:07.071371	348.6	10.3	-77.5	0.0
2025-01-24 17:45:08.194438	348.6	10.2	-78.0	0.0
2025-01-24 17:45:09.319418	348.6	10.1	-78.4	0.0
#Closed at: 2025-01-24 17:34:33.190228