passes_logs/2025/01/24/planumMaritime01/planumMaritime01__20250124_080701_METEOR-M2_3_rec.log

#Pass ID: 20250124_080701_METEOR-M2 3
#Satellite: METEOR-M2 3
#Configuration: METEOR-M2 3
#Start time: 2025-01-24 08:07:06.963638

#LorettStation: 1.0.0 05.05.2024
#Station: planumMaritime01
#Location: 37.49445 lon 55.92918 lat
#TLE: 1 57166U 23091A   25023.82634034  .00000085  00000+0  56339-4 0  9994
#TLE: 2 57166  98.6836  82.1812 0003643 195.3672 164.7397 14.23971493 82020

#Time	Az	El	Level	SNR
2025-01-24 08:07:09.113923	10.3	10.2	-76.0	0.0
2025-01-24 08:07:10.238354	10.2	10.3	-75.7	0.0
2025-01-24 08:07:11.363566	10.2	10.4	-75.7	0.0
2025-01-24 08:07:12.486989	10.1	10.5	-75.5	0.0
2025-01-24 08:07:13.610710	10.1	10.6	-75.1	0.0
2025-01-24 08:07:14.734011	10.0	10.7	-75.6	0.0
2025-01-24 08:07:15.857543	10.0	10.8	-75.6	0.0
2025-01-24 08:07:16.980095	9.9	10.9	-75.3	0.0
2025-01-24 08:07:18.103934	9.9	11.0	-75.5	0.0
2025-01-24 08:07:19.228054	9.8	11.1	-75.8	0.0
2025-01-24 08:07:20.352012	9.8	11.2	-75.6	0.0
2025-01-24 08:07:21.475534	9.7	11.3	-75.3	0.0
2025-01-24 08:07:22.601982	9.7	11.4	-75.4	0.0
2025-01-24 08:07:23.724200	9.6	11.5	-75.3	0.0
2025-01-24 08:07:24.849256	9.6	11.6	-75.6	0.0
2025-01-24 08:07:25.975337	9.5	11.7	-75.7	0.0
2025-01-24 08:07:27.097534	9.5	11.8	-75.8	0.0
2025-01-24 08:07:28.218849	9.4	11.9	-75.5	0.0
2025-01-24 08:07:29.342104	9.4	12.0	-75.6	0.0
2025-01-24 08:07:30.465660	9.3	12.1	-75.8	0.0
2025-01-24 08:07:31.587400	9.3	12.2	-75.4	0.0
2025-01-24 08:07:32.710923	9.2	12.3	-75.8	0.0
2025-01-24 08:07:33.832895	9.2	12.4	-75.7	0.0
2025-01-24 08:07:34.958296	9.1	12.5	-75.5	0.0
2025-01-24 08:07:36.080942	9.0	12.6	-75.7	0.0
2025-01-24 08:07:37.205233	9.0	12.7	-75.7	0.0
2025-01-24 08:07:38.327979	8.9	12.8	-75.7	0.0
2025-01-24 08:07:39.450592	8.9	12.9	-75.7	0.0
2025-01-24 08:07:40.573654	8.8	13.0	-76.1	0.0
2025-01-24 08:07:41.697699	8.8	13.1	-76.1	0.0
2025-01-24 08:07:42.822658	8.7	13.2	-75.8	0.0
2025-01-24 08:07:43.944472	8.6	13.3	-75.5	0.0
2025-01-24 08:07:45.066548	8.6	13.5	-75.5	0.0
2025-01-24 08:07:46.187756	8.5	13.6	-75.8	0.0
2025-01-24 08:07:47.309423	8.5	13.7	-75.7	0.0
2025-01-24 08:07:48.431532	8.4	13.8	-76.1	0.0
2025-01-24 08:07:49.555506	8.3	13.9	-75.9	0.0
2025-01-24 08:07:50.675624	8.3	14.0	-76.1	0.0
2025-01-24 08:07:51.798391	8.2	14.1	-76.2	0.0
2025-01-24 08:07:52.922543	8.2	14.2	-75.7	0.0
2025-01-24 08:07:54.044621	8.1	14.3	-76.0	0.0
2025-01-24 08:07:55.167753	8.0	14.5	-75.7	0.0
2025-01-24 08:07:56.291099	8.0	14.6	-75.5	0.0
2025-01-24 08:07:57.414118	7.9	14.7	-76.3	0.0
2025-01-24 08:07:58.538399	7.8	14.8	-76.0	0.0
2025-01-24 08:07:59.661772	7.8	14.9	-76.0	0.0
2025-01-24 08:08:00.785575	7.7	15.0	-76.1	0.0
2025-01-24 08:08:01.908086	7.6	15.1	-76.1	0.0
2025-01-24 08:08:03.033007	7.6	15.3	-76.3	0.0
2025-01-24 08:08:04.157941	7.5	15.4	-76.1	0.0
2025-01-24 08:08:05.281952	7.4	15.5	-76.4	0.0
2025-01-24 08:08:06.404734	7.4	15.6	-76.4	0.0
2025-01-24 08:08:07.527190	7.3	15.7	-76.1	0.0
2025-01-24 08:08:08.650451	7.2	15.8	-76.4	0.0
2025-01-24 08:08:09.771390	7.2	16.0	-76.3	0.0
2025-01-24 08:08:10.895997	7.1	16.1	-76.2	0.0
2025-01-24 08:08:12.019133	7.0	16.2	-76.2	0.0
2025-01-24 08:08:13.143119	6.9	16.3	-76.3	0.0
2025-01-24 08:08:14.264600	6.9	16.5	-76.2	0.0
2025-01-24 08:08:15.386993	6.8	16.6	-76.5	0.0
2025-01-24 08:08:16.510152	6.7	16.7	-76.3	0.0
2025-01-24 08:08:17.631907	6.6	16.8	-76.6	0.0
2025-01-24 08:08:18.756558	6.6	16.9	-75.9	0.0
2025-01-24 08:08:19.878325	6.5	17.1	-76.4	0.0
2025-01-24 08:08:21.000740	6.4	17.2	-76.1	0.0
2025-01-24 08:08:22.122177	6.3	17.3	-76.3	0.0
2025-01-24 08:08:23.246065	6.3	17.4	-76.5	0.0
2025-01-24 08:08:24.369462	6.2	17.6	-76.4	0.0
2025-01-24 08:08:25.493513	6.1	17.7	-76.0	0.0
2025-01-24 08:08:26.616863	6.0	17.8	-76.3	0.0
2025-01-24 08:08:27.740189	5.9	18.0	-76.0	0.0
2025-01-24 08:08:28.862997	5.9	18.1	-76.5	0.0
2025-01-24 08:08:29.984350	5.8	18.2	-76.5	0.0
2025-01-24 08:08:31.106948	5.7	18.4	-76.4	0.0
2025-01-24 08:08:32.227501	5.6	18.5	-76.6	0.0
2025-01-24 08:08:33.347540	5.5	18.6	-76.3	0.0
2025-01-24 08:08:34.470742	5.4	18.7	-76.5	0.0
2025-01-24 08:08:35.594337	5.3	18.9	-76.3	0.0
2025-01-24 08:08:36.717210	5.3	19.0	-76.4	0.0
2025-01-24 08:08:37.838411	5.2	19.1	-76.1	0.0
2025-01-24 08:08:38.960760	5.1	19.3	-76.6	0.0
2025-01-24 08:08:40.082560	5.0	19.4	-76.3	0.0
2025-01-24 08:08:41.205307	4.9	19.6	-76.0	0.0
2025-01-24 08:08:42.326496	4.8	19.7	-76.1	0.0
2025-01-24 08:08:43.449519	4.7	19.8	-76.5	0.0
2025-01-24 08:08:44.573399	4.6	20.0	-76.6	0.0
2025-01-24 08:08:45.695517	4.5	20.1	-76.9	0.0
2025-01-24 08:08:46.818693	4.4	20.3	-76.8	0.0
2025-01-24 08:08:47.941428	4.3	20.4	-76.7	0.0
2025-01-24 08:08:49.063364	4.2	20.5	-76.8	0.0
2025-01-24 08:08:50.185813	4.1	20.7	-76.7	0.0
2025-01-24 08:08:51.307705	4.0	20.8	-76.7	0.0
2025-01-24 08:08:52.430857	3.9	21.0	-76.4	0.0
2025-01-24 08:08:53.552303	3.8	21.1	-76.5	0.0
2025-01-24 08:08:54.673656	3.7	21.3	-76.3	0.0
2025-01-24 08:08:55.798356	3.6	21.4	-76.3	0.0
2025-01-24 08:08:56.920270	3.5	21.5	-76.5	0.0
2025-01-24 08:08:58.043935	3.4	21.7	-76.2	0.0
2025-01-24 08:08:59.165649	3.3	21.8	-76.6	0.0
2025-01-24 08:09:00.291144	3.2	22.0	-76.5	0.0
2025-01-24 08:09:01.412541	3.1	22.1	-76.3	0.0
2025-01-24 08:09:02.537697	3.0	22.3	-76.1	0.0
2025-01-24 08:09:03.660046	2.9	22.4	-76.3	0.0
2025-01-24 08:09:04.783184	2.8	22.6	-76.4	0.0
2025-01-24 08:09:05.905919	2.7	22.8	-76.4	0.0
2025-01-24 08:09:07.031787	2.5	22.9	-76.2	0.0
2025-01-24 08:09:08.153089	2.4	23.1	-76.2	0.0
2025-01-24 08:09:09.274969	2.3	23.2	-76.3	0.0
2025-01-24 08:09:10.397366	2.2	23.4	-76.2	0.0
2025-01-24 08:09:11.519988	2.1	23.5	-76.6	0.0
2025-01-24 08:09:12.644666	2.0	23.7	-76.6	0.0
2025-01-24 08:09:13.767838	1.8	23.9	-76.8	0.0
2025-01-24 08:09:14.891276	1.7	24.0	-76.7	0.0
2025-01-24 08:09:16.012200	1.6	24.2	-76.2	0.0
2025-01-24 08:09:17.136488	1.5	24.3	-76.6	0.0
2025-01-24 08:09:18.258579	1.3	24.5	-76.4	0.0
2025-01-24 08:09:19.381666	1.2	24.7	-76.4	0.0
2025-01-24 08:09:20.505736	1.1	24.8	-76.7	0.0
2025-01-24 08:09:21.629376	1.0	25.0	-76.4	0.0
2025-01-24 08:09:22.753380	0.8	25.2	-76.2	0.0
2025-01-24 08:09:23.875873	0.7	25.3	-76.5	0.0
2025-01-24 08:09:24.997669	0.6	25.5	-76.2	0.0
2025-01-24 08:09:26.121356	0.4	25.7	-76.5	0.0
2025-01-24 08:09:27.243283	0.3	25.8	-76.3	0.0
2025-01-24 08:09:28.366886	0.1	26.0	-76.3	0.0
2025-01-24 08:09:29.489247	360.0	26.2	-76.7	0.0
2025-01-24 08:09:30.613562	359.9	26.3	-76.7	0.0
2025-01-24 08:09:31.735925	359.7	26.5	-76.1	0.0
2025-01-24 08:09:32.859691	359.6	26.7	-76.3	0.0
2025-01-24 08:09:33.983716	359.4	26.9	-76.7	0.0
2025-01-24 08:09:35.106302	359.3	27.0	-76.6	0.0
2025-01-24 08:09:36.228366	359.1	27.2	-76.1	0.0
2025-01-24 08:09:37.350764	359.0	27.4	-76.3	0.0
2025-01-24 08:09:38.472913	358.8	27.6	-76.3	0.0
2025-01-24 08:09:39.595204	358.6	27.8	-76.0	0.0
2025-01-24 08:09:40.718420	358.5	27.9	-76.2	0.0
2025-01-24 08:09:41.840226	358.3	28.1	-76.4	0.0
2025-01-24 08:09:42.964692	358.2	28.3	-76.6	0.0
2025-01-24 08:09:44.085224	358.0	28.5	-76.4	0.0
2025-01-24 08:09:45.208115	357.8	28.7	-76.4	0.0
2025-01-24 08:09:46.331877	357.7	28.9	-76.4	0.0
2025-01-24 08:09:47.455501	357.5	29.0	-76.5	0.0
2025-01-24 08:09:48.580040	357.3	29.2	-76.6	0.0
2025-01-24 08:09:49.703592	357.2	29.4	-76.4	0.0
2025-01-24 08:09:50.826191	357.0	29.6	-76.4	0.0
2025-01-24 08:09:51.949544	356.8	29.8	-76.8	0.0
2025-01-24 08:09:53.072516	356.6	30.0	-76.1	0.0
2025-01-24 08:09:54.193859	356.4	30.2	-76.7	0.0
2025-01-24 08:09:55.317307	356.3	30.4	-76.4	0.0
2025-01-24 08:09:56.439448	356.1	30.6	-76.2	0.0
2025-01-24 08:09:57.561647	355.9	30.8	-76.4	0.0
2025-01-24 08:09:58.683777	355.7	31.0	-76.3	0.0
2025-01-24 08:09:59.806840	355.5	31.2	-76.1	0.0
2025-01-24 08:10:00.928759	355.3	31.4	-76.2	0.0
2025-01-24 08:10:02.052059	355.1	31.6	-76.5	0.0
2025-01-24 08:10:03.171990	354.9	31.8	-76.5	0.0
2025-01-24 08:10:04.296157	354.7	32.0	-76.4	0.0
2025-01-24 08:10:05.418761	354.5	32.2	-76.4	0.0
2025-01-24 08:10:06.539652	354.3	32.4	-76.3	0.0
2025-01-24 08:10:07.661474	354.1	32.6	-76.4	0.0
2025-01-24 08:10:08.785859	353.8	32.8	-76.7	0.0
2025-01-24 08:10:09.908568	353.6	33.0	-76.4	0.0
2025-01-24 08:10:11.033093	353.4	33.2	-76.7	0.0
2025-01-24 08:10:12.155888	353.2	33.4	-76.2	0.0
2025-01-24 08:10:13.279749	353.0	33.6	-76.0	0.0
2025-01-24 08:10:14.400607	352.7	33.8	-76.3	0.0
2025-01-24 08:10:15.522222	352.5	34.0	-76.5	0.0
2025-01-24 08:10:16.644050	352.3	34.2	-76.6	0.0
2025-01-24 08:10:17.766419	352.0	34.4	-76.6	0.0
2025-01-24 08:10:18.889180	351.8	34.7	-76.6	0.0
2025-01-24 08:10:20.011306	351.5	34.9	-76.5	0.0
2025-01-24 08:10:21.134709	351.3	35.1	-76.6	0.0
2025-01-24 08:10:22.258527	351.0	35.3	-76.2	0.0
2025-01-24 08:10:23.383684	350.8	35.5	-76.5	0.0
2025-01-24 08:10:24.506681	350.5	35.7	-76.3	0.0
2025-01-24 08:10:25.630754	350.3	35.9	-76.2	0.0
2025-01-24 08:10:26.753054	350.0	36.2	-76.4	0.0
2025-01-24 08:10:27.875950	349.7	36.4	-76.3	0.0
2025-01-24 08:10:28.999206	349.5	36.6	-76.3	0.0
2025-01-24 08:10:30.123222	349.2	36.8	-76.3	0.0
2025-01-24 08:10:31.245753	348.9	37.1	-76.6	0.0
2025-01-24 08:10:32.369247	348.6	37.3	-76.4	0.0
2025-01-24 08:10:33.493920	348.3	37.5	-76.5	0.0
2025-01-24 08:10:34.616607	348.0	37.7	-76.6	0.0
2025-01-24 08:10:35.738716	347.7	37.9	-76.4	0.0
2025-01-24 08:10:36.860934	347.4	38.2	-76.4	0.0
2025-01-24 08:10:37.984237	347.1	38.4	-76.6	0.0
2025-01-24 08:10:39.109391	346.8	38.6	-76.6	0.0
2025-01-24 08:10:40.230583	346.5	38.9	-76.2	0.0
2025-01-24 08:10:41.354394	346.2	39.1	-76.5	0.0
2025-01-24 08:10:42.474279	345.9	39.3	-76.6	0.0
2025-01-24 08:10:43.598906	345.5	39.5	-76.6	0.0
2025-01-24 08:10:44.722144	345.2	39.8	-76.8	0.0
2025-01-24 08:10:45.843913	344.9	40.0	-76.7	0.0
2025-01-24 08:10:46.967908	344.5	40.2	-76.4	0.0
2025-01-24 08:10:48.091686	344.2	40.5	-76.4	0.0
2025-01-24 08:10:49.213231	343.8	40.7	-76.6	0.0
2025-01-24 08:10:50.338163	343.5	40.9	-76.6	0.0
2025-01-24 08:10:51.462413	343.1	41.2	-76.9	0.0
2025-01-24 08:10:52.585594	342.7	41.4	-76.5	0.0
2025-01-24 08:10:53.710019	342.4	41.6	-76.7	0.0
2025-01-24 08:10:54.833892	342.0	41.8	-76.4	0.0
2025-01-24 08:10:55.956961	341.6	42.1	-76.7	0.0
2025-01-24 08:10:57.077780	341.2	42.3	-76.7	0.0
2025-01-24 08:10:58.200235	340.8	42.5	-76.6	0.0
2025-01-24 08:10:59.324129	340.4	42.8	-76.8	0.0
2025-01-24 08:11:00.446400	340.0	43.0	-76.7	0.0
2025-01-24 08:11:01.569120	339.6	43.2	-76.8	0.0
2025-01-24 08:11:02.691492	339.2	43.5	-76.6	0.0
2025-01-24 08:11:03.813082	338.7	43.7	-76.8	0.0
2025-01-24 08:11:04.937215	338.3	43.9	-76.7	0.0
2025-01-24 08:11:06.060277	337.9	44.2	-76.7	0.0
2025-01-24 08:11:07.182864	337.4	44.4	-76.3	0.0
2025-01-24 08:11:08.307335	337.0	44.6	-76.4	0.0
2025-01-24 08:11:09.430363	336.5	44.8	-76.4	0.0
2025-01-24 08:11:10.552768	336.1	45.1	-76.7	0.0
2025-01-24 08:11:11.676429	335.6	45.3	-76.7	0.0
2025-01-24 08:11:12.800254	335.1	45.5	-76.4	0.0
2025-01-24 08:11:13.923431	334.6	45.7	-76.6	0.0
2025-01-24 08:11:15.046504	334.1	46.0	-76.7	0.0
2025-01-24 08:11:16.171039	333.6	46.2	-76.5	0.0
2025-01-24 08:11:17.294222	333.1	46.4	-76.6	0.0
2025-01-24 08:11:18.415013	332.6	46.6	-77.2	0.0
2025-01-24 08:11:19.538882	332.1	46.8	-76.7	0.0
2025-01-24 08:11:20.662425	331.6	47.1	-76.5	0.0
2025-01-24 08:11:21.787272	331.0	47.3	-76.7	0.0
2025-01-24 08:11:22.911970	330.5	47.5	-76.5	0.0
2025-01-24 08:11:24.034558	329.9	47.7	-76.1	0.0
2025-01-24 08:11:25.158902	329.4	47.9	-76.3	0.0
2025-01-24 08:11:26.282026	328.8	48.1	-76.7	0.0
2025-01-24 08:11:27.405735	328.2	48.3	-76.5	0.0
2025-01-24 08:11:28.527776	327.7	48.5	-76.8	0.0
2025-01-24 08:11:29.651027	327.1	48.7	-76.7	0.0
2025-01-24 08:11:30.773820	326.5	48.9	-76.9	0.0
2025-01-24 08:11:31.895177	325.9	49.1	-76.9	0.0
2025-01-24 08:11:33.016698	325.3	49.3	-76.5	0.0
2025-01-24 08:11:34.138462	324.6	49.5	-76.9	0.0
2025-01-24 08:11:35.261529	324.0	49.7	-76.8	0.0
2025-01-24 08:11:36.386154	323.4	49.9	-76.8	0.0
2025-01-24 08:11:37.508335	322.7	50.1	-76.7	0.0
2025-01-24 08:11:38.631346	322.1	50.2	-76.6	0.0
2025-01-24 08:11:39.754112	321.4	50.4	-76.6	0.0
2025-01-24 08:11:40.874225	320.8	50.6	-76.8	0.0
2025-01-24 08:11:41.997766	320.1	50.8	-76.6	0.0
2025-01-24 08:11:43.120981	319.4	50.9	-76.9	0.0
2025-01-24 08:11:44.242910	318.7	51.1	-76.9	0.0
2025-01-24 08:11:45.367524	318.0	51.2	-76.8	0.0
2025-01-24 08:11:46.490115	317.3	51.4	-76.5	0.0
2025-01-24 08:11:47.611460	316.6	51.5	-76.9	0.0
2025-01-24 08:11:48.735469	315.9	51.7	-76.9	0.0
2025-01-24 08:11:49.858826	315.2	51.8	-76.7	0.0
2025-01-24 08:11:50.981513	314.4	52.0	-76.5	0.0
2025-01-24 08:11:52.104826	313.7	52.1	-76.7	0.0
2025-01-24 08:11:53.229037	313.0	52.2	-76.3	0.0
2025-01-24 08:11:54.352026	312.2	52.3	-77.0	0.0
2025-01-24 08:11:55.472852	311.4	52.5	-76.9	0.0
2025-01-24 08:11:56.594794	310.7	52.6	-76.9	0.0
2025-01-24 08:11:57.717978	309.9	52.7	-76.9	0.0
2025-01-24 08:11:58.839871	309.1	52.8	-76.8	0.0
2025-01-24 08:11:59.962966	308.4	52.9	-76.9	0.0
2025-01-24 08:12:01.086200	307.6	53.0	-76.7	0.0
2025-01-24 08:12:02.208659	306.8	53.1	-76.8	0.0
2025-01-24 08:12:03.332874	306.0	53.1	-76.7	0.0
2025-01-24 08:12:04.455019	305.2	53.2	-76.4	0.0
2025-01-24 08:12:05.577396	304.4	53.3	-76.7	0.0
2025-01-24 08:12:06.702004	303.6	53.4	-76.8	0.0
2025-01-24 08:12:07.824207	302.8	53.4	-77.1	0.0
2025-01-24 08:12:08.945570	302.0	53.5	-76.6	0.0
2025-01-24 08:12:10.067447	301.1	53.5	-76.9	0.0
2025-01-24 08:12:11.192579	300.3	53.6	-76.9	0.0
2025-01-24 08:12:12.314158	299.5	53.6	-76.7	0.0
2025-01-24 08:12:13.436037	298.7	53.6	-76.9	0.0
2025-01-24 08:12:14.558869	297.9	53.6	-76.8	0.0
2025-01-24 08:12:15.682351	297.0	53.7	-76.9	0.0
2025-01-24 08:12:16.806150	296.2	53.7	-76.7	0.0
2025-01-24 08:12:17.927802	295.4	53.7	-76.7	0.0
2025-01-24 08:12:19.048039	294.5	53.7	-77.0	0.0
2025-01-24 08:12:20.171878	293.7	53.7	-76.6	0.0
2025-01-24 08:12:21.296397	292.9	53.7	-76.6	0.0
2025-01-24 08:12:22.419385	292.1	53.6	-76.4	0.0
2025-01-24 08:12:23.540663	291.2	53.6	-76.8	0.0
2025-01-24 08:12:24.662462	290.4	53.6	-77.1	0.0
2025-01-24 08:12:25.784592	289.6	53.5	-76.6	0.0
2025-01-24 08:12:26.910095	288.8	53.5	-76.5	0.0
2025-01-24 08:12:28.033896	288.0	53.5	-76.7	0.0
2025-01-24 08:12:29.155316	287.2	53.4	-76.3	0.0
2025-01-24 08:12:30.278512	286.3	53.3	-76.8	0.0
2025-01-24 08:12:31.402973	285.5	53.3	-76.7	0.0
2025-01-24 08:12:32.524564	284.7	53.2	-77.0	0.0
2025-01-24 08:12:33.647689	283.9	53.1	-76.7	0.0
2025-01-24 08:12:34.770523	283.1	53.0	-77.1	0.0
2025-01-24 08:12:35.893815	282.3	53.0	-76.9	0.0
2025-01-24 08:12:37.015733	281.6	52.9	-77.0	0.0
2025-01-24 08:12:38.137565	280.8	52.8	-76.9	0.0
2025-01-24 08:12:39.262435	280.0	52.7	-77.0	0.0
2025-01-24 08:12:40.385292	279.2	52.5	-77.2	0.0
2025-01-24 08:12:41.508329	278.5	52.4	-77.1	0.0
2025-01-24 08:12:42.630981	277.7	52.3	-77.0	0.0
2025-01-24 08:12:43.754057	277.0	52.2	-77.1	0.0
2025-01-24 08:12:44.876166	276.2	52.1	-77.1	0.0
2025-01-24 08:12:45.997034	275.5	51.9	-76.8	0.0
2025-01-24 08:12:47.121206	274.8	51.8	-77.1	0.0
2025-01-24 08:12:48.241608	274.0	51.6	-77.0	0.0
2025-01-24 08:12:49.365989	273.3	51.5	-77.2	0.0
2025-01-24 08:12:50.490326	272.6	51.3	-77.2	0.0
2025-01-24 08:12:51.611820	271.9	51.2	-77.2	0.0
2025-01-24 08:12:52.734804	271.2	51.0	-77.1	0.0
2025-01-24 08:12:53.858899	270.5	50.9	-77.0	0.0
2025-01-24 08:12:54.982324	269.8	50.7	-76.9	0.0
2025-01-24 08:12:56.103658	269.2	50.5	-76.9	0.0
2025-01-24 08:12:57.228086	268.5	50.4	-77.0	0.0
2025-01-24 08:12:58.349723	267.8	50.2	-76.8	0.0
2025-01-24 08:12:59.473429	267.2	50.0	-76.5	0.0
2025-01-24 08:13:00.594924	266.5	49.8	-76.6	0.0
2025-01-24 08:13:01.718208	265.9	49.6	-76.4	0.0
2025-01-24 08:13:02.840747	265.3	49.4	-76.5	0.0
2025-01-24 08:13:03.965972	264.7	49.3	-76.7	0.0
2025-01-24 08:13:05.088944	264.1	49.1	-76.8	0.0
2025-01-24 08:13:06.210673	263.5	48.9	-76.5	0.0
2025-01-24 08:13:07.332875	262.9	48.7	-77.0	0.0
2025-01-24 08:13:08.454992	262.3	48.5	-76.9	0.0
2025-01-24 08:13:09.576173	261.7	48.3	-76.6	0.0
2025-01-24 08:13:10.700037	261.1	48.0	-77.2	0.0
2025-01-24 08:13:11.824698	260.6	47.8	-76.9	0.0
2025-01-24 08:13:12.948189	260.0	47.6	-76.8	0.0
2025-01-24 08:13:14.068776	259.4	47.4	-76.9	0.0
2025-01-24 08:13:15.192377	258.9	47.2	-76.9	0.0
2025-01-24 08:13:16.315467	258.4	47.0	-76.7	0.0
2025-01-24 08:13:17.438571	257.8	46.8	-76.8	0.0
2025-01-24 08:13:18.562320	257.3	46.5	-76.4	0.0
2025-01-24 08:13:19.685384	256.8	46.3	-76.6	0.0
2025-01-24 08:13:20.807799	256.3	46.1	-75.8	0.0
2025-01-24 08:13:21.930354	255.8	45.9	-76.7	0.0
2025-01-24 08:13:23.053207	255.3	45.7	-76.9	0.0
2025-01-24 08:13:24.176567	254.8	45.4	-76.8	0.0
2025-01-24 08:13:25.300995	254.4	45.2	-76.6	0.0
2025-01-24 08:13:26.423962	253.9	45.0	-76.5	0.0
2025-01-24 08:13:27.547658	253.4	44.7	-76.5	0.0
2025-01-24 08:13:28.669502	253.0	44.5	-76.4	0.0
2025-01-24 08:13:29.793381	252.5	44.3	-76.4	0.0
2025-01-24 08:13:30.916012	252.1	44.1	-76.4	0.0
2025-01-24 08:13:32.037130	251.6	43.8	-76.2	0.0
2025-01-24 08:13:33.163130	251.2	43.6	-76.5	0.0
2025-01-24 08:13:34.287477	250.8	43.4	-76.2	0.0
2025-01-24 08:13:35.411876	250.4	43.1	-76.3	0.0
2025-01-24 08:13:36.533525	249.9	42.9	-76.3	0.0
2025-01-24 08:13:37.657844	249.5	42.7	-75.9	0.0
2025-01-24 08:13:38.778780	249.1	42.4	-76.3	0.0
2025-01-24 08:13:39.902027	248.7	42.2	-76.2	0.0
2025-01-24 08:13:41.026556	248.3	42.0	-76.3	0.0
2025-01-24 08:13:42.147958	248.0	41.7	-76.3	0.0
2025-01-24 08:13:43.271492	247.6	41.5	-76.0	0.0
2025-01-24 08:13:44.395333	247.2	41.3	-76.3	0.0
2025-01-24 08:13:45.519087	246.8	41.0	-76.5	0.0
2025-01-24 08:13:46.642338	246.5	40.8	-76.5	0.0
2025-01-24 08:13:47.766309	246.1	40.6	-76.2	0.0
2025-01-24 08:13:48.889368	245.8	40.3	-76.4	0.0
2025-01-24 08:13:50.010716	245.4	40.1	-76.1	0.0
2025-01-24 08:13:51.131020	245.1	39.9	-76.2	0.0
2025-01-24 08:13:52.255557	244.7	39.7	-76.2	0.0
2025-01-24 08:13:53.377719	244.4	39.4	-76.5	0.0
2025-01-24 08:13:54.503272	244.1	39.2	-76.5	0.0
2025-01-24 08:13:55.627625	243.8	39.0	-76.1	0.0
2025-01-24 08:13:56.749406	243.4	38.7	-76.6	0.0
2025-01-24 08:13:57.872957	243.1	38.5	-76.3	0.0
2025-01-24 08:13:58.998540	242.8	38.3	-76.6	0.0
2025-01-24 08:14:00.121126	242.5	38.0	-76.4	0.0
2025-01-24 08:14:01.242105	242.2	37.8	-76.5	0.0
2025-01-24 08:14:02.364529	241.9	37.6	-76.5	0.0
2025-01-24 08:14:03.485986	241.6	37.4	-76.4	0.0
2025-01-24 08:14:04.607262	241.3	37.1	-76.5	0.0
2025-01-24 08:14:05.729607	241.1	36.9	-76.5	0.0
2025-01-24 08:14:06.851846	240.8	36.7	-76.6	0.0
2025-01-24 08:14:07.973225	240.5	36.5	-76.5	0.0
2025-01-24 08:14:09.096918	240.2	36.3	-76.3	0.0
2025-01-24 08:14:10.222291	240.0	36.0	-76.6	0.0
2025-01-24 08:14:11.345355	239.7	35.8	-76.9	0.0
2025-01-24 08:14:12.467223	239.4	35.6	-76.4	0.0
2025-01-24 08:14:13.589239	239.2	35.4	-76.5	0.0
2025-01-24 08:14:14.711820	238.9	35.2	-76.5	0.0
2025-01-24 08:14:15.836990	238.7	34.9	-76.6	0.0
2025-01-24 08:14:16.958528	238.4	34.7	-76.5	0.0
2025-01-24 08:14:18.079876	238.2	34.5	-76.5	0.0
2025-01-24 08:14:19.203501	237.9	34.3	-76.2	0.0
2025-01-24 08:14:20.327436	237.7	34.1	-76.4	0.0
2025-01-24 08:14:21.450830	237.4	33.9	-76.2	0.0
2025-01-24 08:14:22.575467	237.2	33.7	-76.5	0.0
2025-01-24 08:14:23.697288	237.0	33.4	-76.6	0.0
2025-01-24 08:14:24.821066	236.8	33.2	-76.7	0.0
2025-01-24 08:14:25.942995	236.5	33.0	-76.5	0.0
2025-01-24 08:14:27.066777	236.3	32.8	-76.6	0.0
2025-01-24 08:14:28.187731	236.1	32.6	-76.6	0.0
2025-01-24 08:14:29.311586	235.9	32.4	-76.6	0.0
2025-01-24 08:14:30.433883	235.7	32.2	-76.5	0.0
2025-01-24 08:14:31.559384	235.5	32.0	-76.6	0.0
2025-01-24 08:14:32.679799	235.3	31.8	-76.5	0.0
2025-01-24 08:14:33.800822	235.0	31.6	-76.3	0.0
2025-01-24 08:14:34.923489	234.8	31.4	-76.5	0.0
2025-01-24 08:14:36.044581	234.6	31.2	-76.3	0.0
2025-01-24 08:14:37.166501	234.5	31.0	-76.7	0.0
2025-01-24 08:14:38.287377	234.3	30.8	-76.3	0.0
2025-01-24 08:14:39.410368	234.1	30.6	-76.3	0.0
2025-01-24 08:14:40.533801	233.9	30.4	-76.5	0.0
2025-01-24 08:14:41.657651	233.7	30.2	-76.2	0.0
2025-01-24 08:14:42.780171	233.5	30.0	-76.4	0.0
2025-01-24 08:14:43.903974	233.3	29.8	-76.4	0.0
2025-01-24 08:14:45.026136	233.1	29.6	-76.3	0.0
2025-01-24 08:14:46.146650	233.0	29.4	-76.5	0.0
2025-01-24 08:14:47.269324	232.8	29.3	-76.6	0.0
2025-01-24 08:14:48.391111	232.6	29.1	-76.4	0.0
2025-01-24 08:14:49.512155	232.4	28.9	-76.3	0.0
2025-01-24 08:14:50.637696	232.3	28.7	-76.8	0.0
2025-01-24 08:14:51.761967	232.1	28.5	-76.7	0.0
2025-01-24 08:14:52.886291	231.9	28.3	-76.5	0.0
2025-01-24 08:14:54.007563	231.8	28.1	-76.8	0.0
2025-01-24 08:14:55.130717	231.6	28.0	-76.5	0.0
2025-01-24 08:14:56.253547	231.4	27.8	-76.4	0.0
2025-01-24 08:14:57.375686	231.3	27.6	-76.3	0.0
2025-01-24 08:14:58.500310	231.1	27.4	-77.0	0.0
2025-01-24 08:14:59.622587	231.0	27.2	-76.6	0.0
2025-01-24 08:15:00.744122	230.8	27.0	-76.7	0.0
2025-01-24 08:15:01.865701	230.7	26.9	-76.7	0.0
2025-01-24 08:15:02.989616	230.5	26.7	-76.4	0.0
2025-01-24 08:15:04.110096	230.4	26.5	-76.6	0.0
2025-01-24 08:15:05.233555	230.2	26.3	-76.3	0.0
2025-01-24 08:15:06.357776	230.1	26.2	-76.8	0.0
2025-01-24 08:15:07.479992	229.9	26.0	-76.8	0.0
2025-01-24 08:15:08.602085	229.8	25.8	-76.7	0.0
2025-01-24 08:15:09.725612	229.7	25.7	-76.6	0.0
2025-01-24 08:15:10.848851	229.5	25.5	-76.8	0.0
2025-01-24 08:15:11.970206	229.4	25.3	-77.0	0.0
2025-01-24 08:15:13.092038	229.2	25.1	-76.4	0.0
2025-01-24 08:15:14.215013	229.1	25.0	-76.8	0.0
2025-01-24 08:15:15.338023	229.0	24.8	-77.0	0.0
2025-01-24 08:15:16.461173	228.8	24.6	-76.5	0.0
2025-01-24 08:15:17.584211	228.7	24.5	-76.7	0.0
2025-01-24 08:15:18.705258	228.6	24.3	-76.9	0.0
2025-01-24 08:15:19.828378	228.5	24.2	-76.6	0.0
2025-01-24 08:15:20.950411	228.3	24.0	-76.7	0.0
2025-01-24 08:15:22.072957	228.2	23.8	-76.7	0.0
2025-01-24 08:15:23.196934	228.1	23.7	-76.8	0.0
2025-01-24 08:15:24.319010	228.0	23.5	-76.8	0.0
2025-01-24 08:15:25.441319	227.8	23.4	-76.8	0.0
2025-01-24 08:15:26.563987	227.7	23.2	-77.0	0.0
2025-01-24 08:15:27.687121	227.6	23.0	-76.9	0.0
2025-01-24 08:15:28.811925	227.5	22.9	-76.7	0.0
2025-01-24 08:15:29.934928	227.4	22.7	-76.3	0.0
2025-01-24 08:15:31.055132	227.3	22.6	-76.3	0.0
2025-01-24 08:15:32.177784	227.1	22.4	-77.0	0.0
2025-01-24 08:15:33.301378	227.0	22.3	-76.7	0.0
2025-01-24 08:15:34.423406	226.9	22.1	-77.0	0.0
2025-01-24 08:15:35.546515	226.8	22.0	-77.0	0.0
2025-01-24 08:15:36.668382	226.7	21.8	-76.8	0.0
2025-01-24 08:15:37.790756	226.6	21.7	-76.9	0.0
2025-01-24 08:15:38.913841	226.5	21.5	-76.9	0.0
2025-01-24 08:15:40.040200	226.4	21.4	-76.9	0.0
2025-01-24 08:15:41.163297	226.3	21.2	-76.7	0.0
2025-01-24 08:15:42.287299	226.2	21.1	-76.7	0.0
2025-01-24 08:15:43.411197	226.1	20.9	-76.4	0.0
2025-01-24 08:15:44.535357	226.0	20.8	-76.8	0.0
2025-01-24 08:15:45.658918	225.9	20.6	-77.0	0.0
2025-01-24 08:15:46.784455	225.8	20.5	-77.1	0.0
2025-01-24 08:15:47.907151	225.7	20.3	-76.7	0.0
2025-01-24 08:15:49.032333	225.6	20.2	-76.8	0.0
2025-01-24 08:15:50.155233	225.5	20.1	-76.5	0.0
2025-01-24 08:15:51.275745	225.4	19.9	-76.5	0.0
2025-01-24 08:15:52.398521	225.3	19.8	-76.4	0.0
2025-01-24 08:15:53.521912	225.2	19.6	-76.3	0.0
2025-01-24 08:15:54.645894	225.1	19.5	-76.2	0.0
2025-01-24 08:15:55.769071	225.0	19.4	-76.0	0.0
2025-01-24 08:15:56.892461	224.9	19.2	-76.2	0.0
2025-01-24 08:15:58.013299	224.8	19.1	-76.5	0.0
2025-01-24 08:15:59.134905	224.7	19.0	-76.3	0.0
2025-01-24 08:16:00.256231	224.6	18.8	-76.7	0.0
2025-01-24 08:16:01.378430	224.6	18.7	-76.4	0.0
2025-01-24 08:16:02.499827	224.5	18.6	-76.5	0.0
2025-01-24 08:16:03.623705	224.4	18.4	-76.6	0.0
2025-01-24 08:16:04.745259	224.3	18.3	-76.2	0.0
2025-01-24 08:16:05.868053	224.2	18.2	-75.7	0.0
2025-01-24 08:16:06.991425	224.1	18.0	-76.8	0.0
2025-01-24 08:16:08.116815	224.0	17.9	-76.4	0.0
2025-01-24 08:16:09.241676	224.0	17.8	-76.4	0.0
2025-01-24 08:16:10.363461	223.9	17.6	-76.5	0.0
2025-01-24 08:16:11.484430	223.8	17.5	-76.3	0.0
2025-01-24 08:16:12.608619	223.7	17.4	-76.0	0.0
2025-01-24 08:16:13.732025	223.6	17.2	-76.3	0.0
2025-01-24 08:16:14.855287	223.6	17.1	-76.5	0.0
2025-01-24 08:16:15.976715	223.5	17.0	-76.2	0.0
2025-01-24 08:16:17.098446	223.4	16.9	-76.6	0.0
2025-01-24 08:16:18.221340	223.3	16.7	-76.3	0.0
2025-01-24 08:16:19.343352	223.3	16.6	-76.6	0.0
2025-01-24 08:16:20.464168	223.2	16.5	-75.9	0.0
2025-01-24 08:16:21.586559	223.1	16.4	-75.9	0.0
2025-01-24 08:16:22.710899	223.0	16.2	-75.7	0.0
2025-01-24 08:16:23.833928	223.0	16.1	-75.9	0.0
2025-01-24 08:16:24.957196	222.9	16.0	-76.2	0.0
2025-01-24 08:16:26.080473	222.8	15.9	-76.2	0.0
2025-01-24 08:16:27.200942	222.7	15.8	-76.5	0.0
2025-01-24 08:16:28.324774	222.7	15.6	-76.5	0.0
2025-01-24 08:16:29.449368	222.6	15.5	-76.7	0.0
2025-01-24 08:16:30.573365	222.5	15.4	-76.2	0.0
2025-01-24 08:16:31.694800	222.5	15.3	-76.2	0.0
2025-01-24 08:16:32.817481	222.4	15.2	-76.4	0.0
2025-01-24 08:16:33.940201	222.3	15.0	-76.7	0.0
2025-01-24 08:16:35.063394	222.2	14.9	-76.2	0.0
2025-01-24 08:16:36.186175	222.2	14.8	-75.8	0.0
2025-01-24 08:16:37.308346	222.1	14.7	-76.6	0.0
2025-01-24 08:16:38.431199	222.0	14.6	-76.2	0.0
2025-01-24 08:16:39.555879	222.0	14.5	-75.8	0.0
2025-01-24 08:16:40.677442	221.9	14.4	-75.7	0.0
2025-01-24 08:16:41.800155	221.8	14.2	-76.3	0.0
2025-01-24 08:16:42.924009	221.8	14.1	-76.5	0.0
2025-01-24 08:16:44.048243	221.7	14.0	-76.7	0.0
2025-01-24 08:16:45.172395	221.7	13.9	-76.5	0.0
2025-01-24 08:16:46.292869	221.6	13.8	-76.2	0.0
2025-01-24 08:16:47.416131	221.5	13.7	-76.5	0.0
2025-01-24 08:16:48.538151	221.5	13.6	-76.4	0.0
2025-01-24 08:16:49.660203	221.4	13.5	-76.6	0.0
2025-01-24 08:16:50.783705	221.3	13.4	-76.3	0.0
2025-01-24 08:16:51.906626	221.3	13.2	-76.5	0.0
2025-01-24 08:16:53.029330	221.2	13.1	-76.6	0.0
2025-01-24 08:16:54.154547	221.2	13.0	-76.5	0.0
2025-01-24 08:16:55.277168	221.1	12.9	-76.7	0.0
2025-01-24 08:16:56.401099	221.1	12.8	-76.7	0.0
2025-01-24 08:16:57.522431	221.0	12.7	-76.5	0.0
2025-01-24 08:16:58.643252	220.9	12.6	-76.0	0.0
2025-01-24 08:16:59.767729	220.9	12.5	-76.1	0.0
2025-01-24 08:17:00.891157	220.8	12.4	-76.4	0.0
2025-01-24 08:17:02.013711	220.8	12.3	-75.7	0.0
2025-01-24 08:17:03.136097	220.7	12.2	-76.7	0.0
2025-01-24 08:17:04.256697	220.7	12.1	-76.6	0.0
2025-01-24 08:17:05.379454	220.6	12.0	-75.9	0.0
2025-01-24 08:17:06.504038	220.5	11.9	-76.4	0.0
2025-01-24 08:17:07.626944	220.5	11.8	-76.4	0.0
2025-01-24 08:17:08.751170	220.4	11.7	-76.3	0.0
2025-01-24 08:17:09.875456	220.4	11.6	-76.8	0.0
2025-01-24 08:17:10.998030	220.3	11.4	-76.7	0.0
2025-01-24 08:17:12.119241	220.3	11.3	-76.5	0.0
2025-01-24 08:17:13.242650	220.2	11.2	-76.2	0.0
2025-01-24 08:17:14.364563	220.2	11.1	-76.6	0.0
2025-01-24 08:17:15.486512	220.1	11.0	-76.1	0.0
2025-01-24 08:17:16.608679	220.1	10.9	-76.3	0.0
2025-01-24 08:17:17.733144	220.0	10.8	-76.4	0.0
2025-01-24 08:17:18.856876	220.0	10.7	-76.4	0.0
2025-01-24 08:17:19.980273	219.9	10.6	-76.4	0.0
2025-01-24 08:17:21.103539	219.9	10.5	-76.4	0.0
2025-01-24 08:17:22.226929	219.8	10.5	-76.2	0.0
2025-01-24 08:17:23.351283	219.8	10.4	-76.7	0.0
2025-01-24 08:17:24.474155	219.7	10.3	-76.5	0.0
2025-01-24 08:17:25.597602	219.7	10.2	-76.4	0.0
2025-01-24 08:17:26.719861	219.6	10.1	-76.3	0.0
#Closed at: 2025-01-24 08:07:01.966689