passes_logs/2025/01/24/planumMaritime01/planumMaritime01__20250124_085144_NOAA_19_rec.log

#Pass ID: 20250124_085144_NOAA 19
#Satellite: NOAA 19
#Configuration: NOAA 19
#Start time: 2025-01-24 08:51:49.305224

#LorettStation: 1.0.0 05.05.2024
#Station: planumMaritime01
#Location: 37.49445 lon 55.92918 lat
#TLE: 1 33591U 09005A   25023.78299149  .00000396  00000+0  23548-3 0  9998
#TLE: 2 33591  99.0182  87.6127 0014154  33.7555 326.4515 14.13267063822782

#Time	Az	El	Level	SNR
2025-01-24 08:51:51.465500	7.9	10.2	-75.0	0.0
2025-01-24 08:51:52.588565	7.8	10.3	-74.8	0.0
2025-01-24 08:51:53.710359	7.7	10.4	-75.6	0.0
2025-01-24 08:51:54.832251	7.7	10.4	-75.1	0.0
2025-01-24 08:51:55.953108	7.6	10.5	-74.9	0.0
2025-01-24 08:51:57.074580	7.5	10.6	-75.8	0.0
2025-01-24 08:51:58.197849	7.5	10.7	-75.6	0.0
2025-01-24 08:51:59.322408	7.4	10.8	-74.6	0.0
2025-01-24 08:52:00.445149	7.3	10.9	-75.1	0.0
2025-01-24 08:52:01.569687	7.2	11.0	-75.8	0.0
2025-01-24 08:52:02.695408	7.2	11.1	-74.6	0.0
2025-01-24 08:52:03.818486	7.1	11.2	-74.2	0.0
2025-01-24 08:52:04.940297	7.0	11.3	-75.0	0.0
2025-01-24 08:52:06.065880	6.9	11.4	-75.2	0.0
2025-01-24 08:52:07.188557	6.8	11.5	-75.2	0.0
2025-01-24 08:52:08.310105	6.8	11.6	-75.3	0.0
2025-01-24 08:52:09.432377	6.7	11.7	-75.2	0.0
2025-01-24 08:52:10.554934	6.6	11.8	-75.9	0.0
2025-01-24 08:52:11.680896	6.5	11.9	-75.3	0.0
2025-01-24 08:52:12.804713	6.5	12.0	-74.7	0.0
2025-01-24 08:52:13.925223	6.4	12.1	-75.2	0.0
2025-01-24 08:52:15.048174	6.3	12.1	-75.4	0.0
2025-01-24 08:52:16.171005	6.2	12.2	-75.1	0.0
2025-01-24 08:52:17.293477	6.1	12.3	-75.1	0.0
2025-01-24 08:52:18.415641	6.0	12.4	-75.1	0.0
2025-01-24 08:52:19.538839	6.0	12.5	-75.3	0.0
2025-01-24 08:52:20.663221	5.9	12.6	-75.2	0.0
2025-01-24 08:52:21.786727	5.8	12.7	-75.0	0.0
2025-01-24 08:52:22.910021	5.7	12.8	-75.3	0.0
2025-01-24 08:52:24.032886	5.6	12.9	-75.2	0.0
2025-01-24 08:52:25.156001	5.5	13.0	-75.1	0.0
2025-01-24 08:52:26.279675	5.4	13.1	-75.1	0.0
2025-01-24 08:52:27.404471	5.4	13.2	-75.2	0.0
2025-01-24 08:52:28.526744	5.3	13.3	-75.3	0.0
2025-01-24 08:52:29.651275	5.2	13.4	-75.2	0.0
2025-01-24 08:52:30.776729	5.1	13.5	-75.4	0.0
2025-01-24 08:52:31.899038	5.0	13.6	-75.3	0.0
2025-01-24 08:52:33.021987	4.9	13.7	-75.5	0.0
2025-01-24 08:52:34.144411	4.8	13.9	-75.3	0.0
2025-01-24 08:52:35.267167	4.7	14.0	-75.3	0.0
2025-01-24 08:52:36.388585	4.6	14.1	-75.4	0.0
2025-01-24 08:52:37.510898	4.5	14.2	-75.4	0.0
2025-01-24 08:52:38.635510	4.4	14.3	-75.1	0.0
2025-01-24 08:52:39.757370	4.4	14.4	-75.1	0.0
2025-01-24 08:52:40.880982	4.3	14.5	-75.2	0.0
2025-01-24 08:52:42.004657	4.2	14.6	-75.6	0.0
2025-01-24 08:52:43.128023	4.1	14.7	-75.5	0.0
2025-01-24 08:52:44.249901	4.0	14.8	-75.4	0.0
2025-01-24 08:52:45.377176	3.9	14.9	-75.4	0.0
2025-01-24 08:52:46.500932	3.8	15.0	-75.2	0.0
2025-01-24 08:52:47.626081	3.7	15.1	-75.3	0.0
2025-01-24 08:52:48.748716	3.6	15.2	-75.6	0.0
2025-01-24 08:52:49.871834	3.5	15.3	-75.5	0.0
2025-01-24 08:52:50.996066	3.4	15.4	-75.6	0.0
2025-01-24 08:52:52.118256	3.3	15.5	-76.1	0.0
2025-01-24 08:52:53.242748	3.2	15.7	-75.4	0.0
2025-01-24 08:52:54.368151	3.1	15.8	-75.3	0.0
2025-01-24 08:52:55.489391	2.9	15.9	-75.1	0.0
2025-01-24 08:52:56.613424	2.8	16.0	-75.8	0.0
2025-01-24 08:52:57.736169	2.7	16.1	-75.6	0.0
2025-01-24 08:52:58.858928	2.6	16.2	-75.7	0.0
2025-01-24 08:52:59.981758	2.5	16.3	-76.2	0.0
2025-01-24 08:53:01.104747	2.4	16.4	-75.7	0.0
2025-01-24 08:53:02.227039	2.3	16.5	-75.9	0.0
2025-01-24 08:53:03.349208	2.2	16.7	-76.0	0.0
2025-01-24 08:53:04.474015	2.1	16.8	-75.6	0.0
2025-01-24 08:53:05.595134	2.0	16.9	-75.7	0.0
2025-01-24 08:53:06.715966	1.9	17.0	-75.7	0.0
2025-01-24 08:53:07.840796	1.7	17.1	-75.7	0.0
2025-01-24 08:53:08.963761	1.6	17.2	-75.8	0.0
2025-01-24 08:53:10.085204	1.5	17.3	-75.8	0.0
2025-01-24 08:53:11.209465	1.4	17.5	-75.4	0.0
2025-01-24 08:53:12.333337	1.3	17.6	-75.7	0.0
2025-01-24 08:53:13.457997	1.2	17.7	-75.8	0.0
2025-01-24 08:53:14.583090	1.0	17.8	-75.3	0.0
2025-01-24 08:53:15.706098	0.9	17.9	-75.6	0.0
2025-01-24 08:53:16.828936	0.8	18.0	-75.8	0.0
2025-01-24 08:53:17.954222	0.7	18.2	-75.8	0.0
2025-01-24 08:53:19.076172	0.5	18.3	-75.4	0.0
2025-01-24 08:53:20.198546	0.4	18.4	-75.7	0.0
2025-01-24 08:53:21.322285	0.3	18.5	-75.5	0.0
2025-01-24 08:53:22.444093	0.2	18.6	-75.8	0.0
2025-01-24 08:53:23.565950	0.0	18.8	-75.3	0.0
2025-01-24 08:53:24.691182	359.9	18.9	-75.5	0.0
2025-01-24 08:53:25.813650	359.8	19.0	-75.5	0.0
2025-01-24 08:53:26.935285	359.6	19.1	-75.5	0.0
2025-01-24 08:53:28.058351	359.5	19.2	-75.6	0.0
2025-01-24 08:53:29.181369	359.4	19.4	-75.5	0.0
2025-01-24 08:53:30.304252	359.2	19.5	-75.5	0.0
2025-01-24 08:53:31.427018	359.1	19.6	-75.5	0.0
2025-01-24 08:53:32.550706	359.0	19.7	-75.8	0.0
2025-01-24 08:53:33.671741	358.8	19.9	-76.1	0.0
2025-01-24 08:53:34.794547	358.7	20.0	-75.9	0.0
2025-01-24 08:53:35.916389	358.6	20.1	-76.0	0.0
2025-01-24 08:53:37.039533	358.4	20.2	-75.9	0.0
2025-01-24 08:53:38.163393	358.3	20.4	-75.7	0.0
2025-01-24 08:53:39.287359	358.1	20.5	-75.7	0.0
2025-01-24 08:53:40.411185	358.0	20.6	-76.2	0.0
2025-01-24 08:53:41.535253	357.8	20.7	-76.2	0.0
2025-01-24 08:53:42.657147	357.7	20.9	-75.7	0.0
2025-01-24 08:53:43.780501	357.5	21.0	-75.8	0.0
2025-01-24 08:53:44.902128	357.4	21.1	-74.8	0.0
2025-01-24 08:53:46.023855	357.2	21.2	-75.8	0.0
2025-01-24 08:53:47.146826	357.1	21.4	-76.5	0.0
2025-01-24 08:53:48.270006	356.9	21.5	-76.0	0.0
2025-01-24 08:53:49.395348	356.8	21.6	-76.8	0.0
2025-01-24 08:53:50.517915	356.6	21.8	-75.1	0.0
2025-01-24 08:53:51.640199	356.5	21.9	-76.9	0.0
2025-01-24 08:53:52.762090	356.3	22.0	-76.9	0.0
2025-01-24 08:53:53.884537	356.2	22.2	-75.5	0.0
2025-01-24 08:53:55.008075	356.0	22.3	-76.7	0.0
2025-01-24 08:53:56.132881	355.8	22.4	-75.5	0.0
2025-01-24 08:53:57.255135	355.7	22.6	-77.0	0.0
2025-01-24 08:53:58.377992	355.5	22.7	-75.6	0.0
2025-01-24 08:53:59.503471	355.3	22.8	-76.9	0.0
2025-01-24 08:54:00.626189	355.2	23.0	-76.8	0.0
2025-01-24 08:54:01.750609	355.0	23.1	-75.8	0.0
2025-01-24 08:54:02.874622	354.8	23.2	-75.2	0.0
2025-01-24 08:54:03.999113	354.6	23.4	-77.0	0.0
2025-01-24 08:54:05.122906	354.5	23.5	-76.6	0.0
2025-01-24 08:54:06.246099	354.3	23.6	-75.6	0.0
2025-01-24 08:54:07.370491	354.1	23.8	-76.4	0.0
2025-01-24 08:54:08.494971	353.9	23.9	-77.0	0.0
2025-01-24 08:54:09.619925	353.8	24.0	-75.7	0.0
2025-01-24 08:54:10.742254	353.6	24.2	-76.0	0.0
2025-01-24 08:54:11.864573	353.4	24.3	-75.4	0.0
2025-01-24 08:54:12.988454	353.2	24.5	-76.9	0.0
2025-01-24 08:54:14.111789	353.0	24.6	-76.5	0.0
2025-01-24 08:54:15.235907	352.8	24.7	-75.8	0.0
2025-01-24 08:54:16.358233	352.6	24.9	-75.7	0.0
2025-01-24 08:54:17.482637	352.4	25.0	-76.3	0.0
2025-01-24 08:54:18.606847	352.2	25.2	-76.4	0.0
2025-01-24 08:54:19.730777	352.1	25.3	-76.1	0.0
2025-01-24 08:54:20.855300	351.9	25.4	-76.0	0.0
2025-01-24 08:54:21.978372	351.7	25.6	-76.2	0.0
2025-01-24 08:54:23.103571	351.5	25.7	-75.5	0.0
2025-01-24 08:54:24.225007	351.2	25.9	-75.6	0.0
2025-01-24 08:54:25.346642	351.0	26.0	-76.0	0.0
2025-01-24 08:54:26.469532	350.8	26.2	-75.7	0.0
2025-01-24 08:54:27.591276	350.6	26.3	-75.3	0.0
2025-01-24 08:54:28.715595	350.4	26.4	-75.7	0.0
2025-01-24 08:54:29.840588	350.2	26.6	-76.0	0.0
2025-01-24 08:54:30.965060	350.0	26.7	-75.9	0.0
2025-01-24 08:54:32.087287	349.8	26.9	-76.0	0.0
2025-01-24 08:54:33.211805	349.6	27.0	-75.9	0.0
2025-01-24 08:54:34.333185	349.3	27.2	-76.1	0.0
2025-01-24 08:54:35.458054	349.1	27.3	-76.0	0.0
2025-01-24 08:54:36.581602	348.9	27.5	-75.5	0.0
2025-01-24 08:54:37.704672	348.7	27.6	-75.8	0.0
2025-01-24 08:54:38.827273	348.4	27.8	-76.1	0.0
2025-01-24 08:54:39.948050	348.2	27.9	-75.9	0.0
2025-01-24 08:54:41.071689	348.0	28.0	-76.1	0.0
2025-01-24 08:54:42.195569	347.7	28.2	-75.5	0.0
2025-01-24 08:54:43.317329	347.5	28.3	-76.1	0.0
2025-01-24 08:54:44.439360	347.2	28.5	-76.3	0.0
2025-01-24 08:54:45.562478	347.0	28.6	-75.9	0.0
2025-01-24 08:54:46.686202	346.8	28.8	-76.4	0.0
2025-01-24 08:54:47.808916	346.5	28.9	-75.8	0.0
2025-01-24 08:54:48.933320	346.3	29.1	-76.2	0.0
2025-01-24 08:54:50.057162	346.0	29.2	-76.0	0.0
2025-01-24 08:54:51.180489	345.8	29.4	-76.0	0.0
2025-01-24 08:54:52.303690	345.5	29.5	-75.8	0.0
2025-01-24 08:54:53.425766	345.2	29.7	-76.2	0.0
2025-01-24 08:54:54.550573	345.0	29.8	-76.0	0.0
2025-01-24 08:54:55.671811	344.7	30.0	-75.7	0.0
2025-01-24 08:54:56.796260	344.5	30.1	-76.2	0.0
2025-01-24 08:54:57.919379	344.2	30.3	-75.5	0.0
2025-01-24 08:54:59.042307	343.9	30.4	-76.2	0.0
2025-01-24 08:55:00.164028	343.6	30.6	-75.7	0.0
2025-01-24 08:55:01.287360	343.4	30.7	-76.1	0.0
2025-01-24 08:55:02.408648	343.1	30.9	-75.8	0.0
2025-01-24 08:55:03.529779	342.8	31.0	-75.9	0.0
2025-01-24 08:55:04.655302	342.5	31.2	-76.1	0.0
2025-01-24 08:55:05.776288	342.2	31.3	-76.4	0.0
2025-01-24 08:55:06.899740	341.9	31.5	-76.1	0.0
2025-01-24 08:55:08.021287	341.7	31.6	-76.4	0.0
2025-01-24 08:55:09.143796	341.4	31.8	-76.2	0.0
2025-01-24 08:55:10.267758	341.1	31.9	-76.4	0.0
2025-01-24 08:55:11.390660	340.8	32.1	-76.5	0.0
2025-01-24 08:55:12.514820	340.5	32.2	-76.2	0.0
2025-01-24 08:55:13.638111	340.2	32.4	-75.9	0.0
2025-01-24 08:55:14.761227	339.8	32.5	-76.1	0.0
2025-01-24 08:55:15.882567	339.5	32.7	-76.0	0.0
2025-01-24 08:55:17.004203	339.2	32.8	-75.7	0.0
2025-01-24 08:55:18.126219	338.9	33.0	-75.9	0.0
2025-01-24 08:55:19.248904	338.6	33.1	-76.2	0.0
2025-01-24 08:55:20.372225	338.3	33.2	-76.1	0.0
2025-01-24 08:55:21.495386	337.9	33.4	-75.9	0.0
2025-01-24 08:55:22.619092	337.6	33.5	-76.3	0.0
2025-01-24 08:55:23.741722	337.3	33.7	-76.7	0.0
2025-01-24 08:55:24.863293	336.9	33.8	-76.8	0.0
2025-01-24 08:55:25.986529	336.6	34.0	-76.9	0.0
2025-01-24 08:55:27.109576	336.3	34.1	-76.9	0.0
2025-01-24 08:55:28.231766	335.9	34.3	-76.2	0.0
2025-01-24 08:55:29.354278	335.6	34.4	-76.5	0.0
2025-01-24 08:55:30.479564	335.2	34.5	-76.8	0.0
2025-01-24 08:55:31.602802	334.9	34.7	-76.0	0.0
2025-01-24 08:55:32.722740	334.5	34.8	-76.3	0.0
2025-01-24 08:55:33.847367	334.2	35.0	-76.7	0.0
2025-01-24 08:55:34.970957	333.8	35.1	-77.1	0.0
2025-01-24 08:55:36.096136	333.4	35.3	-76.2	0.0
2025-01-24 08:55:37.218602	333.1	35.4	-77.0	0.0
2025-01-24 08:55:38.341125	332.7	35.5	-76.5	0.0
2025-01-24 08:55:39.466030	332.3	35.7	-77.1	0.0
2025-01-24 08:55:40.589345	331.9	35.8	-76.3	0.0
2025-01-24 08:55:41.712084	331.6	35.9	-76.6	0.0
2025-01-24 08:55:42.834621	331.2	36.1	-76.9	0.0
2025-01-24 08:55:43.958676	330.8	36.2	-76.1	0.0
2025-01-24 08:55:45.080165	330.4	36.3	-76.9	0.0
2025-01-24 08:55:46.201722	330.0	36.5	-76.7	0.0
2025-01-24 08:55:47.325755	329.6	36.6	-76.1	0.0
2025-01-24 08:55:48.447533	329.2	36.7	-76.5	0.0
2025-01-24 08:55:49.569468	328.8	36.9	-77.3	0.0
2025-01-24 08:55:50.692153	328.4	37.0	-77.5	0.0
2025-01-24 08:55:51.815362	328.0	37.1	-76.9	0.0
2025-01-24 08:55:52.938342	327.6	37.2	-77.0	0.0
2025-01-24 08:55:54.060859	327.1	37.4	-77.3	0.0
2025-01-24 08:55:55.184424	326.7	37.5	-77.3	0.0
2025-01-24 08:55:56.306288	326.3	37.6	-76.9	0.0
2025-01-24 08:55:57.428017	325.9	37.7	-77.0	0.0
2025-01-24 08:55:58.549955	325.5	37.8	-77.3	0.0
2025-01-24 08:55:59.673296	325.0	38.0	-77.1	0.0
2025-01-24 08:56:00.795925	324.6	38.1	-76.8	0.0
2025-01-24 08:56:01.919586	324.1	38.2	-77.1	0.0
2025-01-24 08:56:03.044543	323.7	38.3	-77.1	0.0
2025-01-24 08:56:04.166862	323.3	38.4	-76.9	0.0
2025-01-24 08:56:05.290290	322.8	38.5	-76.8	0.0
2025-01-24 08:56:06.412753	322.4	38.6	-77.0	0.0
2025-01-24 08:56:07.536699	321.9	38.7	-76.3	0.0
2025-01-24 08:56:08.658809	321.5	38.8	-76.8	0.0
2025-01-24 08:56:09.781714	321.0	38.9	-77.0	0.0
2025-01-24 08:56:10.904557	320.5	39.0	-77.2	0.0
2025-01-24 08:56:12.027647	320.1	39.1	-76.8	0.0
2025-01-24 08:56:13.151315	319.6	39.2	-76.8	0.0
2025-01-24 08:56:14.274029	319.1	39.3	-77.1	0.0
2025-01-24 08:56:15.398333	318.7	39.4	-77.1	0.0
2025-01-24 08:56:16.520949	318.2	39.5	-77.0	0.0
2025-01-24 08:56:17.644608	317.7	39.6	-76.6	0.0
2025-01-24 08:56:18.769011	317.2	39.7	-77.1	0.0
2025-01-24 08:56:19.893126	316.7	39.8	-76.4	0.0
2025-01-24 08:56:21.015709	316.3	39.8	-77.0	0.0
2025-01-24 08:56:22.138608	315.8	39.9	-76.4	0.0
2025-01-24 08:56:23.259039	315.3	40.0	-76.8	0.0
2025-01-24 08:56:24.381774	314.8	40.1	-77.0	0.0
2025-01-24 08:56:25.503734	314.3	40.2	-77.1	0.0
2025-01-24 08:56:26.629202	313.8	40.2	-76.7	0.0
2025-01-24 08:56:27.749956	313.3	40.3	-76.9	0.0
2025-01-24 08:56:28.874170	312.8	40.4	-77.0	0.0
2025-01-24 08:56:29.996623	312.3	40.4	-77.1	0.0
2025-01-24 08:56:31.118595	311.8	40.5	-77.3	0.0
2025-01-24 08:56:32.244978	311.3	40.5	-77.1	0.0
2025-01-24 08:56:33.368731	310.8	40.6	-76.9	0.0
2025-01-24 08:56:34.492368	310.2	40.7	-76.7	0.0
2025-01-24 08:56:35.616136	309.7	40.7	-77.1	0.0
2025-01-24 08:56:36.738277	309.2	40.8	-77.0	0.0
2025-01-24 08:56:37.861286	308.7	40.8	-77.3	0.0
2025-01-24 08:56:38.984433	308.2	40.8	-77.3	0.0
2025-01-24 08:56:40.109126	307.7	40.9	-77.0	0.0
2025-01-24 08:56:41.231584	307.1	40.9	-76.8	0.0
2025-01-24 08:56:42.355789	306.6	41.0	-77.2	0.0
2025-01-24 08:56:43.480601	306.1	41.0	-77.6	0.0
2025-01-24 08:56:44.603387	305.6	41.0	-77.0	0.0
2025-01-24 08:56:45.725864	305.1	41.1	-77.0	0.0
2025-01-24 08:56:46.848030	304.5	41.1	-77.3	0.0
2025-01-24 08:56:47.969943	304.0	41.1	-76.9	0.0
2025-01-24 08:56:49.092986	303.5	41.1	-77.3	0.0
2025-01-24 08:56:50.215687	303.0	41.1	-77.1	0.0
2025-01-24 08:56:51.339081	302.4	41.2	-77.2	0.0
2025-01-24 08:56:52.460232	301.9	41.2	-77.3	0.0
2025-01-24 08:56:53.579602	301.4	41.2	-76.7	0.0
2025-01-24 08:56:54.703333	300.8	41.2	-77.3	0.0
2025-01-24 08:56:55.825978	300.3	41.2	-77.2	0.0
2025-01-24 08:56:56.948154	299.8	41.2	-77.2	0.0
2025-01-24 08:56:58.069884	299.3	41.2	-77.4	0.0
2025-01-24 08:56:59.193636	298.7	41.2	-77.0	0.0
2025-01-24 08:57:00.318173	298.2	41.2	-77.3	0.0
2025-01-24 08:57:01.441992	297.7	41.2	-77.3	0.0
2025-01-24 08:57:02.565629	297.1	41.1	-77.4	0.0
2025-01-24 08:57:03.684423	296.6	41.1	-77.1	0.0
2025-01-24 08:57:04.807401	296.1	41.1	-77.5	0.0
2025-01-24 08:57:05.932480	295.6	41.1	-77.3	0.0
2025-01-24 08:57:07.053777	295.0	41.1	-77.3	0.0
2025-01-24 08:57:08.177371	294.5	41.0	-77.4	0.0
2025-01-24 08:57:09.300810	294.0	41.0	-77.4	0.0
2025-01-24 08:57:10.422540	293.5	41.0	-77.2	0.0
2025-01-24 08:57:11.543636	292.9	40.9	-77.7	0.0
2025-01-24 08:57:12.666952	292.4	40.9	-77.6	0.0
2025-01-24 08:57:13.789717	291.9	40.9	-77.3	0.0
2025-01-24 08:57:14.912417	291.4	40.8	-77.2	0.0
2025-01-24 08:57:16.036276	290.9	40.8	-77.3	0.0
2025-01-24 08:57:17.158925	290.3	40.7	-77.8	0.0
2025-01-24 08:57:18.279536	289.8	40.7	-77.4	0.0
2025-01-24 08:57:19.404167	289.3	40.6	-77.4	0.0
2025-01-24 08:57:20.524652	288.8	40.6	-77.4	0.0
2025-01-24 08:57:21.648841	288.3	40.5	-77.5	0.0
2025-01-24 08:57:22.772930	287.8	40.4	-76.5	0.0
2025-01-24 08:57:23.897350	287.3	40.4	-77.0	0.0
2025-01-24 08:57:25.020724	286.8	40.3	-77.0	0.0
2025-01-24 08:57:26.143928	286.3	40.3	-77.3	0.0
2025-01-24 08:57:27.266401	285.8	40.2	-77.4	0.0
2025-01-24 08:57:28.389854	285.3	40.1	-77.7	0.0
2025-01-24 08:57:29.512167	284.8	40.0	-77.7	0.0
2025-01-24 08:57:30.633688	284.3	40.0	-77.2	0.0
2025-01-24 08:57:31.759018	283.8	39.9	-77.5	0.0
2025-01-24 08:57:32.880935	283.3	39.8	-77.7	0.0
2025-01-24 08:57:34.002467	282.9	39.7	-77.3	0.0
2025-01-24 08:57:35.125043	282.4	39.6	-77.4	0.0
2025-01-24 08:57:36.248276	281.9	39.5	-77.4	0.0
2025-01-24 08:57:37.373094	281.4	39.4	-77.5	0.0
2025-01-24 08:57:38.496797	280.9	39.4	-77.2	0.0
2025-01-24 08:57:39.620712	280.5	39.3	-77.4	0.0
2025-01-24 08:57:40.743323	280.0	39.2	-77.8	0.0
2025-01-24 08:57:41.867122	279.5	39.1	-77.0	0.0
2025-01-24 08:57:42.990296	279.1	39.0	-77.6	0.0
2025-01-24 08:57:44.112839	278.6	38.9	-77.1	0.0
2025-01-24 08:57:45.232916	278.2	38.8	-77.5	0.0
2025-01-24 08:57:46.354718	277.7	38.7	-77.5	0.0
2025-01-24 08:57:47.477241	277.2	38.6	-77.1	0.0
2025-01-24 08:57:48.597220	276.8	38.4	-77.5	0.0
2025-01-24 08:57:49.720957	276.4	38.3	-77.2	0.0
2025-01-24 08:57:50.842258	275.9	38.2	-77.1	0.0
2025-01-24 08:57:51.966812	275.5	38.1	-77.3	0.0
2025-01-24 08:57:53.090658	275.0	38.0	-77.3	0.0
2025-01-24 08:57:54.212354	274.6	37.9	-77.5	0.0
2025-01-24 08:57:55.333738	274.2	37.8	-77.1	0.0
2025-01-24 08:57:56.456855	273.7	37.6	-76.8	0.0
2025-01-24 08:57:57.579973	273.3	37.5	-77.5	0.0
2025-01-24 08:57:58.703756	272.9	37.4	-77.4	0.0
2025-01-24 08:57:59.825796	272.5	37.3	-77.3	0.0
2025-01-24 08:58:00.948261	272.1	37.2	-77.3	0.0
2025-01-24 08:58:02.071960	271.7	37.0	-77.3	0.0
2025-01-24 08:58:03.192306	271.3	36.9	-77.6	0.0
2025-01-24 08:58:04.312592	270.8	36.8	-77.6	0.0
2025-01-24 08:58:05.437051	270.4	36.6	-77.5	0.0
2025-01-24 08:58:06.559165	270.0	36.5	-77.6	0.0
2025-01-24 08:58:07.680064	269.7	36.4	-77.1	0.0
2025-01-24 08:58:08.803638	269.3	36.3	-77.4	0.0
2025-01-24 08:58:09.927787	268.9	36.1	-77.0	0.0
2025-01-24 08:58:11.052541	268.5	36.0	-77.4	0.0
2025-01-24 08:58:12.174967	268.1	35.8	-77.1	0.0
2025-01-24 08:58:13.299680	267.7	35.7	-77.3	0.0
2025-01-24 08:58:14.423342	267.3	35.6	-77.6	0.0
2025-01-24 08:58:15.545602	267.0	35.4	-77.7	0.0
2025-01-24 08:58:16.671026	266.6	35.3	-77.4	0.0
2025-01-24 08:58:17.793831	266.2	35.2	-77.0	0.0
2025-01-24 08:58:18.917596	265.9	35.0	-77.3	0.0
2025-01-24 08:58:20.039506	265.5	34.9	-77.2	0.0
2025-01-24 08:58:21.162423	265.2	34.7	-77.1	0.0
2025-01-24 08:58:22.283888	264.8	34.6	-77.4	0.0
2025-01-24 08:58:23.405584	264.5	34.5	-77.2	0.0
2025-01-24 08:58:24.529293	264.1	34.3	-77.4	0.0
2025-01-24 08:58:25.654271	263.8	34.2	-77.7	0.0
2025-01-24 08:58:26.775158	263.4	34.0	-77.3	0.0
2025-01-24 08:58:27.897517	263.1	33.9	-77.1	0.0
2025-01-24 08:58:29.019234	262.7	33.7	-77.1	0.0
2025-01-24 08:58:30.143308	262.4	33.6	-77.6	0.0
2025-01-24 08:58:31.265524	262.1	33.4	-77.7	0.0
2025-01-24 08:58:32.387844	261.8	33.3	-77.3	0.0
2025-01-24 08:58:33.509780	261.4	33.2	-77.0	0.0
2025-01-24 08:58:34.632726	261.1	33.0	-77.6	0.0
2025-01-24 08:58:35.755128	260.8	32.9	-77.0	0.0
2025-01-24 08:58:36.881513	260.5	32.7	-77.6	0.0
2025-01-24 08:58:38.004867	260.2	32.6	-77.8	0.0
2025-01-24 08:58:39.127852	259.8	32.4	-77.0	0.0
2025-01-24 08:58:40.248556	259.5	32.3	-77.4	0.0
2025-01-24 08:58:41.372725	259.2	32.1	-77.7	0.0
2025-01-24 08:58:42.495683	258.9	32.0	-76.8	0.0
2025-01-24 08:58:43.617088	258.6	31.8	-77.3	0.0
2025-01-24 08:58:44.741639	258.3	31.7	-76.6	0.0
2025-01-24 08:58:45.866147	258.0	31.5	-77.7	0.0
2025-01-24 08:58:46.986937	257.8	31.4	-77.7	0.0
2025-01-24 08:58:48.108995	257.5	31.2	-77.5	0.0
2025-01-24 08:58:49.231790	257.2	31.1	-76.7	0.0
2025-01-24 08:58:50.353116	256.9	30.9	-77.2	0.0
2025-01-24 08:58:51.475094	256.6	30.8	-76.8	0.0
2025-01-24 08:58:52.598091	256.3	30.6	-76.8	0.0
2025-01-24 08:58:53.719475	256.1	30.5	-77.2	0.0
2025-01-24 08:58:54.840455	255.8	30.3	-77.5	0.0
2025-01-24 08:58:55.964374	255.5	30.2	-77.6	0.0
2025-01-24 08:58:57.087357	255.3	30.0	-77.6	0.0
2025-01-24 08:58:58.209592	255.0	29.9	-77.6	0.0
2025-01-24 08:58:59.334115	254.7	29.7	-77.5	0.0
2025-01-24 08:59:00.456290	254.5	29.6	-77.7	0.0
2025-01-24 08:59:01.577568	254.2	29.4	-77.6	0.0
2025-01-24 08:59:02.698945	254.0	29.3	-77.8	0.0
2025-01-24 08:59:03.821000	253.7	29.1	-77.5	0.0
2025-01-24 08:59:04.944093	253.5	29.0	-77.6	0.0
2025-01-24 08:59:06.065495	253.2	28.8	-77.7	0.0
2025-01-24 08:59:07.188524	253.0	28.7	-77.7	0.0
2025-01-24 08:59:08.313819	252.7	28.5	-76.8	0.0
2025-01-24 08:59:09.435697	252.5	28.4	-77.3	0.0
2025-01-24 08:59:10.559375	252.2	28.2	-77.8	0.0
2025-01-24 08:59:11.681009	252.0	28.1	-77.4	0.0
2025-01-24 08:59:12.803624	251.8	28.0	-77.5	0.0
2025-01-24 08:59:13.926946	251.5	27.8	-77.3	0.0
2025-01-24 08:59:15.048742	251.3	27.7	-77.7	0.0
2025-01-24 08:59:16.172344	251.1	27.5	-77.6	0.0
2025-01-24 08:59:17.294702	250.9	27.4	-77.8	0.0
2025-01-24 08:59:18.416974	250.6	27.2	-77.6	0.0
2025-01-24 08:59:19.540338	250.4	27.1	-77.4	0.0
2025-01-24 08:59:20.662395	250.2	26.9	-77.5	0.0
2025-01-24 08:59:21.787255	250.0	26.8	-77.5	0.0
2025-01-24 08:59:22.908174	249.8	26.6	-77.3	0.0
2025-01-24 08:59:24.031284	249.5	26.5	-77.2	0.0
2025-01-24 08:59:25.153567	249.3	26.4	-77.5	0.0
2025-01-24 08:59:26.277240	249.1	26.2	-77.7	0.0
2025-01-24 08:59:27.399293	248.9	26.1	-77.4	0.0
2025-01-24 08:59:28.521586	248.7	25.9	-77.5	0.0
2025-01-24 08:59:29.645150	248.5	25.8	-77.7	0.0
2025-01-24 08:59:30.768785	248.3	25.6	-77.9	0.0
2025-01-24 08:59:31.892559	248.1	25.5	-77.2	0.0
2025-01-24 08:59:33.013632	247.9	25.4	-77.8	0.0
2025-01-24 08:59:34.138322	247.7	25.2	-77.4	0.0
2025-01-24 08:59:35.261213	247.5	25.1	-76.9	0.0
2025-01-24 08:59:36.384951	247.3	24.9	-77.0	0.0
2025-01-24 08:59:37.509835	247.1	24.8	-77.0	0.0
2025-01-24 08:59:38.632008	246.9	24.7	-76.2	0.0
2025-01-24 08:59:39.755777	246.7	24.5	-77.0	0.0
2025-01-24 08:59:40.879843	246.6	24.4	-77.3	0.0
2025-01-24 08:59:42.003383	246.4	24.2	-77.4	0.0
2025-01-24 08:59:43.127798	246.2	24.1	-77.0	0.0
2025-01-24 08:59:44.251275	246.0	24.0	-76.9	0.0
2025-01-24 08:59:45.374849	245.8	23.8	-76.7	0.0
2025-01-24 08:59:46.498678	245.6	23.7	-76.5	0.0
2025-01-24 08:59:47.622893	245.5	23.6	-77.3	0.0
2025-01-24 08:59:48.746053	245.3	23.4	-76.9	0.0
2025-01-24 08:59:49.868471	245.1	23.3	-77.3	0.0
2025-01-24 08:59:50.990294	244.9	23.1	-76.6	0.0
2025-01-24 08:59:52.113959	244.8	23.0	-77.4	0.0
2025-01-24 08:59:53.235838	244.6	22.9	-77.5	0.0
2025-01-24 08:59:54.359047	244.4	22.7	-77.5	0.0
2025-01-24 08:59:55.481001	244.3	22.6	-77.6	0.0
2025-01-24 08:59:56.602530	244.1	22.5	-77.3	0.0
2025-01-24 08:59:57.727437	243.9	22.3	-77.4	0.0
2025-01-24 08:59:58.849941	243.8	22.2	-77.5	0.0
2025-01-24 08:59:59.970991	243.6	22.1	-76.9	0.0
2025-01-24 09:00:01.092994	243.4	21.9	-77.2	0.0
2025-01-24 09:00:02.216145	243.3	21.8	-76.8	0.0
2025-01-24 09:00:03.338867	243.1	21.7	-77.1	0.0
2025-01-24 09:00:04.465519	243.0	21.6	-76.9	0.0
2025-01-24 09:00:05.587270	242.8	21.4	-77.6	0.0
2025-01-24 09:00:06.711736	242.7	21.3	-77.8	0.0
2025-01-24 09:00:07.833816	242.5	21.2	-77.9	0.0
2025-01-24 09:00:08.956402	242.4	21.0	-78.1	0.0
2025-01-24 09:00:10.082556	242.2	20.9	-77.9	0.0
2025-01-24 09:00:11.207308	242.1	20.8	-77.7	0.0
2025-01-24 09:00:12.329321	241.9	20.7	-77.9	0.0
2025-01-24 09:00:13.452558	241.8	20.5	-77.9	0.0
2025-01-24 09:00:14.575568	241.6	20.4	-77.0	0.0
2025-01-24 09:00:15.698406	241.5	20.3	-77.4	0.0
2025-01-24 09:00:16.821654	241.3	20.2	-77.5	0.0
2025-01-24 09:00:17.944521	241.2	20.0	-77.7	0.0
2025-01-24 09:00:19.069398	241.1	19.9	-77.2	0.0
2025-01-24 09:00:20.192169	240.9	19.8	-77.1	0.0
2025-01-24 09:00:21.314122	240.8	19.7	-77.4	0.0
2025-01-24 09:00:22.435992	240.7	19.5	-77.0	0.0
2025-01-24 09:00:23.558165	240.5	19.4	-77.8	0.0
2025-01-24 09:00:24.684470	240.4	19.3	-77.4	0.0
2025-01-24 09:00:25.807159	240.3	19.2	-77.3	0.0
2025-01-24 09:00:26.930781	240.1	19.0	-77.2	0.0
2025-01-24 09:00:28.055937	240.0	18.9	-77.6	0.0
2025-01-24 09:00:29.180762	239.9	18.8	-77.1	0.0
2025-01-24 09:00:30.300827	239.7	18.7	-78.0	0.0
2025-01-24 09:00:31.421473	239.6	18.6	-77.1	0.0
2025-01-24 09:00:32.541673	239.5	18.4	-77.1	0.0
2025-01-24 09:00:33.665283	239.3	18.3	-77.8	0.0
2025-01-24 09:00:34.788820	239.2	18.2	-77.4	0.0
2025-01-24 09:00:35.911223	239.1	18.1	-77.3	0.0
2025-01-24 09:00:37.034087	239.0	18.0	-77.6	0.0
2025-01-24 09:00:38.156693	238.9	17.9	-77.8	0.0
2025-01-24 09:00:39.282557	238.7	17.7	-77.2	0.0
2025-01-24 09:00:40.404814	238.6	17.6	-77.8	0.0
2025-01-24 09:00:41.528412	238.5	17.5	-77.3	0.0
2025-01-24 09:00:42.650933	238.4	17.4	-77.5	0.0
2025-01-24 09:00:43.771406	238.3	17.3	-77.5	0.0
2025-01-24 09:00:44.895103	238.1	17.2	-77.4	0.0
2025-01-24 09:00:46.018335	238.0	17.0	-77.6	0.0
2025-01-24 09:00:47.142494	237.9	16.9	-76.9	0.0
2025-01-24 09:00:48.262943	237.8	16.8	-77.2	0.0
2025-01-24 09:00:49.386830	237.7	16.7	-77.2	0.0
2025-01-24 09:00:50.510787	237.6	16.6	-77.2	0.0
2025-01-24 09:00:51.634466	237.5	16.5	-77.5	0.0
2025-01-24 09:00:52.757379	237.4	16.4	-77.3	0.0
2025-01-24 09:00:53.880168	237.2	16.3	-77.4	0.0
2025-01-24 09:00:55.002945	237.1	16.1	-77.3	0.0
2025-01-24 09:00:56.126565	237.0	16.0	-77.8	0.0
2025-01-24 09:00:57.249373	236.9	15.9	-77.1	0.0
2025-01-24 09:00:58.370971	236.8	15.8	-77.3	0.0
2025-01-24 09:00:59.494387	236.7	15.7	-77.2	0.0
2025-01-24 09:01:00.617825	236.6	15.6	-77.2	0.0
2025-01-24 09:01:01.739917	236.5	15.5	-77.7	0.0
2025-01-24 09:01:02.862407	236.4	15.4	-77.9	0.0
2025-01-24 09:01:03.985026	236.3	15.3	-77.4	0.0
2025-01-24 09:01:05.108150	236.2	15.2	-77.6	0.0
2025-01-24 09:01:06.230294	236.1	15.1	-77.4	0.0
2025-01-24 09:01:07.355945	236.0	14.9	-77.8	0.0
2025-01-24 09:01:08.482554	235.9	14.8	-77.7	0.0
2025-01-24 09:01:09.605928	235.8	14.7	-77.8	0.0
2025-01-24 09:01:10.727789	235.7	14.6	-77.5	0.0
2025-01-24 09:01:11.848103	235.6	14.5	-78.0	0.0
2025-01-24 09:01:12.969850	235.5	14.4	-77.8	0.0
2025-01-24 09:01:14.094581	235.4	14.3	-77.9	0.0
2025-01-24 09:01:15.216198	235.3	14.2	-78.0	0.0
2025-01-24 09:01:16.340472	235.2	14.1	-77.4	0.0
2025-01-24 09:01:17.463297	235.1	14.0	-77.6	0.0
2025-01-24 09:01:18.583964	235.0	13.9	-77.1	0.0
2025-01-24 09:01:19.708595	234.9	13.8	-77.8	0.0
2025-01-24 09:01:20.830699	234.8	13.7	-77.9	0.0
2025-01-24 09:01:21.953155	234.8	13.6	-77.8	0.0
2025-01-24 09:01:23.077103	234.7	13.5	-77.8	0.0
2025-01-24 09:01:24.200955	234.6	13.4	-77.6	0.0
2025-01-24 09:01:25.324746	234.5	13.3	-77.5	0.0
2025-01-24 09:01:26.445034	234.4	13.2	-76.9	0.0
2025-01-24 09:01:27.568724	234.3	13.1	-76.5	0.0
2025-01-24 09:01:28.692619	234.2	13.0	-77.4	0.0
2025-01-24 09:01:29.816407	234.1	12.9	-77.8	0.0
2025-01-24 09:01:30.940392	234.0	12.8	-77.2	0.0
2025-01-24 09:01:32.062124	234.0	12.7	-77.1	0.0
2025-01-24 09:01:33.183583	233.9	12.6	-77.4	0.0
2025-01-24 09:01:34.305151	233.8	12.5	-77.8	0.0
2025-01-24 09:01:35.426382	233.7	12.4	-77.9	0.0
2025-01-24 09:01:36.548705	233.6	12.3	-77.5	0.0
2025-01-24 09:01:37.670736	233.5	12.2	-77.8	0.0
2025-01-24 09:01:38.794007	233.5	12.1	-77.8	0.0
2025-01-24 09:01:39.918598	233.4	12.0	-78.0	0.0
2025-01-24 09:01:41.040232	233.3	11.9	-78.0	0.0
2025-01-24 09:01:42.164877	233.2	11.8	-78.2	0.0
2025-01-24 09:01:43.285244	233.1	11.7	-78.1	0.0
2025-01-24 09:01:44.409571	233.1	11.6	-77.8	0.0
2025-01-24 09:01:45.531764	233.0	11.5	-75.3	0.0
2025-01-24 09:01:46.652214	232.9	11.4	-74.3	0.0
2025-01-24 09:01:47.772621	232.8	11.3	-75.3	0.0
2025-01-24 09:01:48.895336	232.7	11.2	-74.2	0.0
2025-01-24 09:01:50.015562	232.7	11.1	-75.0	0.0
2025-01-24 09:01:51.137471	232.6	11.0	-74.3	0.0
2025-01-24 09:01:52.259650	232.5	11.0	-74.6	0.0
2025-01-24 09:01:53.382542	232.4	10.9	-74.3	0.3
2025-01-24 09:01:54.506424	232.4	10.8	-74.6	0.0
2025-01-24 09:01:55.628800	232.3	10.7	-74.4	0.0
2025-01-24 09:01:56.753090	232.2	10.6	-74.6	0.0
2025-01-24 09:01:57.876727	232.1	10.5	-74.5	0.0
2025-01-24 09:01:58.999439	232.1	10.4	-74.2	0.0
2025-01-24 09:02:00.121002	232.0	10.3	-73.8	0.9
2025-01-24 09:02:01.245364	231.9	10.2	-74.0	0.6
2025-01-24 09:02:02.367570	231.8	10.1	-74.2	0.0
#Closed at: 2025-01-24 08:51:44.309882