passes_logs/2025/01/24/planumMaritime01/planumMaritime01__20250124_190749_NOAA_18_rec.log

#Pass ID: 20250124_190749_NOAA 18
#Satellite: NOAA 18
#Configuration: NOAA 18
#Start time: 2025-01-24 19:07:54.873598

#LorettStation: 1.0.0 05.05.2024
#Station: planumMaritime01
#Location: 37.49445 lon 55.92918 lat
#TLE: 1 28654U 05018A   25023.79872758  .00000470  00000+0  27266-3 0  9990
#TLE: 2 28654  98.8553 104.7652 0014753 154.7972 205.3923 14.13495354 14429

#Time	Az	El	Level	SNR
2025-01-24 19:07:57.031023	155.5	10.2	-73.8	5.3
2025-01-24 19:07:58.153772	155.5	10.3	-73.5	5.9
2025-01-24 19:07:59.276793	155.5	10.4	-73.9	5.8
2025-01-24 19:08:00.399611	155.5	10.5	-73.6	6.2
2025-01-24 19:08:01.523303	155.5	10.6	-73.5	5.9
2025-01-24 19:08:02.647338	155.5	10.7	-73.8	5.5
2025-01-24 19:08:03.768766	155.5	10.8	-73.7	5.8
2025-01-24 19:08:04.890638	155.5	10.9	-73.8	6.9
2025-01-24 19:08:06.013653	155.4	11.0	-73.8	6.7
2025-01-24 19:08:07.137840	155.4	11.1	-74.0	6.1
2025-01-24 19:08:08.259444	155.4	11.2	-73.9	6.6
2025-01-24 19:08:09.382765	155.4	11.3	-73.7	6.1
2025-01-24 19:08:10.502783	155.4	11.4	-74.0	6.5
2025-01-24 19:08:11.626167	155.4	11.5	-73.8	6.4
2025-01-24 19:08:12.748477	155.4	11.6	-73.4	5.5
2025-01-24 19:08:13.870962	155.4	11.7	-73.8	6.9
2025-01-24 19:08:14.995349	155.4	11.8	-74.1	5.7
2025-01-24 19:08:16.117363	155.4	11.9	-73.9	6.6
2025-01-24 19:08:17.241229	155.3	12.0	-72.7	5.7
2025-01-24 19:08:18.365876	155.3	12.1	-73.7	6.2
2025-01-24 19:08:19.490689	155.3	12.2	-73.7	6.5
2025-01-24 19:08:20.614646	155.3	12.3	-74.0	6.6
2025-01-24 19:08:21.738099	155.3	12.4	-74.1	6.6
2025-01-24 19:08:22.860087	155.3	12.5	-73.7	6.9
2025-01-24 19:08:23.984464	155.3	12.6	-74.1	7.1
2025-01-24 19:08:25.108089	155.3	12.7	-73.9	6.7
2025-01-24 19:08:26.231282	155.2	12.9	-74.3	6.8
2025-01-24 19:08:27.354558	155.2	13.0	-73.9	6.6
2025-01-24 19:08:28.477358	155.2	13.1	-74.0	4.4
2025-01-24 19:08:29.598370	155.2	13.2	-73.9	7.0
2025-01-24 19:08:30.721475	155.2	13.3	-73.9	6.0
2025-01-24 19:08:31.844033	155.2	13.4	-73.8	6.6
2025-01-24 19:08:32.968128	155.2	13.5	-73.6	7.1
2025-01-24 19:08:34.093762	155.2	13.6	-74.1	6.4
2025-01-24 19:08:35.215215	155.2	13.7	-74.0	7.1
2025-01-24 19:08:36.338642	155.1	13.9	-74.2	5.9
2025-01-24 19:08:37.460743	155.1	14.0	-73.9	7.4
2025-01-24 19:08:38.585072	155.1	14.1	-73.9	6.4
2025-01-24 19:08:39.707263	155.1	14.2	-73.8	7.0
2025-01-24 19:08:40.831323	155.1	14.3	-74.4	6.8
2025-01-24 19:08:41.953776	155.1	14.4	-73.8	7.3
2025-01-24 19:08:43.075922	155.1	14.5	-73.8	5.9
2025-01-24 19:08:44.197352	155.0	14.7	-74.1	6.1
2025-01-24 19:08:45.320706	155.0	14.8	-74.0	7.2
2025-01-24 19:08:46.442963	155.0	14.9	-73.9	6.8
2025-01-24 19:08:47.565372	155.0	15.0	-73.5	5.9
2025-01-24 19:08:48.688585	155.0	15.1	-73.5	6.5
2025-01-24 19:08:49.810108	155.0	15.2	-74.0	6.9
2025-01-24 19:08:50.933121	155.0	15.4	-74.0	7.3
2025-01-24 19:08:52.055007	154.9	15.5	-74.4	7.0
2025-01-24 19:08:53.178317	154.9	15.6	-74.1	6.5
2025-01-24 19:08:54.301309	154.9	15.7	-74.0	6.0
2025-01-24 19:08:55.423272	154.9	15.8	-74.3	7.4
2025-01-24 19:08:56.545298	154.9	16.0	-74.5	6.1
2025-01-24 19:08:57.667617	154.9	16.1	-73.9	6.8
2025-01-24 19:08:58.792186	154.9	16.2	-74.0	5.6
2025-01-24 19:08:59.915751	154.8	16.3	-74.1	6.7
2025-01-24 19:09:01.038573	154.8	16.5	-74.1	6.1
2025-01-24 19:09:02.163607	154.8	16.6	-74.2	7.5
2025-01-24 19:09:03.290969	154.8	16.7	-74.0	6.6
2025-01-24 19:09:04.413066	154.8	16.8	-73.9	6.8
2025-01-24 19:09:05.535032	154.8	17.0	-74.1	6.6
2025-01-24 19:09:06.656636	154.7	17.1	-74.0	7.2
2025-01-24 19:09:07.777899	154.7	17.2	-74.7	6.7
2025-01-24 19:09:08.900519	154.7	17.4	-74.1	6.7
2025-01-24 19:09:10.022052	154.7	17.5	-74.1	5.8
2025-01-24 19:09:11.144100	154.7	17.6	-74.1	5.2
2025-01-24 19:09:12.265578	154.7	17.8	-73.9	6.2
2025-01-24 19:09:13.387117	154.6	17.9	-73.8	5.0
2025-01-24 19:09:14.508578	154.6	18.0	-74.0	6.0
2025-01-24 19:09:15.632059	154.6	18.2	-74.3	5.0
2025-01-24 19:09:16.755078	154.6	18.3	-73.9	5.6
2025-01-24 19:09:17.877699	154.6	18.4	-73.9	5.7
2025-01-24 19:09:19.000942	154.5	18.6	-74.5	5.6
2025-01-24 19:09:20.123726	154.5	18.7	-74.3	6.1
2025-01-24 19:09:21.246192	154.5	18.8	-74.5	5.5
2025-01-24 19:09:22.369305	154.5	19.0	-74.4	6.0
2025-01-24 19:09:23.492946	154.5	19.1	-74.2	4.8
2025-01-24 19:09:24.615490	154.4	19.3	-74.3	5.3
2025-01-24 19:09:25.736028	154.4	19.4	-74.5	5.3
2025-01-24 19:09:26.858752	154.4	19.5	-74.0	5.2
2025-01-24 19:09:27.982753	154.4	19.7	-74.4	4.8
2025-01-24 19:09:29.106737	154.4	19.8	-74.6	5.6
2025-01-24 19:09:30.231021	154.3	20.0	-74.4	5.5
2025-01-24 19:09:31.353671	154.3	20.1	-74.4	4.0
2025-01-24 19:09:32.477471	154.3	20.3	-74.4	3.3
2025-01-24 19:09:33.600722	154.3	20.4	-74.2	3.8
2025-01-24 19:09:34.722532	154.3	20.5	-74.6	4.1
2025-01-24 19:09:35.845564	154.2	20.7	-74.5	4.4
2025-01-24 19:09:36.966427	154.2	20.8	-74.4	4.0
2025-01-24 19:09:38.089584	154.2	21.0	-75.0	5.0
2025-01-24 19:09:39.212497	154.2	21.1	-75.1	5.1
2025-01-24 19:09:40.335471	154.1	21.3	-74.9	4.2
2025-01-24 19:09:41.456808	154.1	21.4	-74.9	5.2
2025-01-24 19:09:42.577891	154.1	21.6	-74.8	4.7
2025-01-24 19:09:43.701241	154.1	21.8	-74.9	3.9
2025-01-24 19:09:44.826346	154.1	21.9	-74.9	3.5
2025-01-24 19:09:45.949684	154.0	22.1	-74.9	2.8
2025-01-24 19:09:47.074124	154.0	22.2	-75.0	3.3
2025-01-24 19:09:48.196440	154.0	22.4	-74.8	3.0
2025-01-24 19:09:49.319192	154.0	22.5	-74.8	3.6
2025-01-24 19:09:50.442818	153.9	22.7	-74.9	3.4
2025-01-24 19:09:51.564743	153.9	22.9	-74.6	3.7
2025-01-24 19:09:52.688220	153.9	23.0	-74.8	3.6
2025-01-24 19:09:53.808399	153.9	23.2	-75.1	3.9
2025-01-24 19:09:54.931997	153.8	23.4	-75.4	2.0
2025-01-24 19:09:56.053340	153.8	23.5	-75.2	3.0
2025-01-24 19:09:57.174561	153.8	23.7	-75.2	3.0
2025-01-24 19:09:58.297656	153.7	23.8	-75.5	2.0
2025-01-24 19:09:59.422352	153.7	24.0	-75.1	1.6
2025-01-24 19:10:00.544190	153.7	24.2	-74.9	0.0
2025-01-24 19:10:01.668885	153.7	24.4	-75.5	2.7
2025-01-24 19:10:02.792848	153.6	24.5	-75.1	2.0
2025-01-24 19:10:03.916816	153.6	24.7	-75.8	1.6
2025-01-24 19:10:05.039968	153.6	24.9	-76.0	2.7
2025-01-24 19:10:06.162763	153.5	25.1	-75.6	1.8
2025-01-24 19:10:07.288460	153.5	25.2	-75.8	1.3
2025-01-24 19:10:08.410768	153.5	25.4	-75.4	0.0
2025-01-24 19:10:09.530906	153.4	25.6	-75.1	0.0
2025-01-24 19:10:10.652670	153.4	25.8	-75.5	1.9
2025-01-24 19:10:11.775774	153.4	25.9	-75.8	1.1
2025-01-24 19:10:12.899760	153.4	26.1	-75.4	0.0
2025-01-24 19:10:14.023151	153.3	26.3	-75.9	0.3
2025-01-24 19:10:15.145809	153.3	26.5	-76.0	0.3
2025-01-24 19:10:16.268778	153.3	26.7	-75.8	0.0
2025-01-24 19:10:17.389689	153.2	26.9	-75.9	0.0
2025-01-24 19:10:18.512895	153.2	27.1	-75.5	0.0
2025-01-24 19:10:19.636976	153.2	27.2	-75.5	0.0
2025-01-24 19:10:20.759401	153.1	27.4	-75.0	0.0
2025-01-24 19:10:21.884232	153.1	27.6	-75.0	0.0
2025-01-24 19:10:23.006588	153.0	27.8	-75.0	0.0
2025-01-24 19:10:24.131654	153.0	28.0	-75.1	0.0
2025-01-24 19:10:25.255135	153.0	28.2	-75.8	0.0
2025-01-24 19:10:26.377531	152.9	28.4	-75.7	0.0
2025-01-24 19:10:27.501206	152.9	28.6	-75.8	0.0
2025-01-24 19:10:28.624459	152.9	28.8	-76.0	0.0
2025-01-24 19:10:29.747421	152.8	29.0	-75.7	0.0
2025-01-24 19:10:30.870966	152.8	29.2	-74.9	0.0
2025-01-24 19:10:31.996203	152.7	29.4	-75.5	0.0
2025-01-24 19:10:33.120918	152.7	29.6	-75.9	0.0
2025-01-24 19:10:34.245688	152.7	29.8	-76.0	0.0
2025-01-24 19:10:35.367321	152.6	30.0	-75.7	0.0
2025-01-24 19:10:36.492098	152.6	30.2	-75.9	0.0
2025-01-24 19:10:37.613713	152.5	30.5	-76.1	0.0
2025-01-24 19:10:38.737636	152.5	30.7	-75.7	0.0
2025-01-24 19:10:39.859522	152.4	30.9	-75.9	0.0
2025-01-24 19:10:40.981683	152.4	31.1	-76.2	0.0
2025-01-24 19:10:42.106276	152.3	31.3	-76.2	0.0
2025-01-24 19:10:43.231495	152.3	31.5	-76.5	0.0
2025-01-24 19:10:44.354455	152.3	31.8	-76.5	0.0
2025-01-24 19:10:45.479210	152.2	32.0	-76.4	0.0
2025-01-24 19:10:46.603460	152.2	32.2	-75.6	0.0
2025-01-24 19:10:47.725694	152.1	32.4	-75.9	0.0
2025-01-24 19:10:48.849064	152.1	32.7	-76.0	0.0
2025-01-24 19:10:49.971745	152.0	32.9	-75.9	0.0
2025-01-24 19:10:51.092475	152.0	33.1	-76.3	0.0
2025-01-24 19:10:52.214390	151.9	33.4	-76.2	0.0
2025-01-24 19:10:53.335711	151.9	33.6	-76.5	0.0
2025-01-24 19:10:54.460171	151.8	33.8	-76.4	0.0
2025-01-24 19:10:55.583466	151.7	34.1	-76.5	0.0
2025-01-24 19:10:56.707390	151.7	34.3	-75.7	0.0
2025-01-24 19:10:57.830668	151.6	34.5	-76.3	0.0
2025-01-24 19:10:58.954716	151.6	34.8	-76.5	0.0
2025-01-24 19:11:00.078327	151.5	35.0	-76.2	0.0
2025-01-24 19:11:01.200216	151.5	35.3	-76.4	0.0
2025-01-24 19:11:02.322770	151.4	35.5	-76.5	0.0
2025-01-24 19:11:03.445862	151.3	35.8	-76.4	0.0
2025-01-24 19:11:04.567875	151.3	36.0	-76.2	0.0
2025-01-24 19:11:05.692744	151.2	36.3	-76.0	0.0
2025-01-24 19:11:06.815966	151.1	36.5	-76.7	0.0
2025-01-24 19:11:07.939188	151.1	36.8	-76.1	0.0
2025-01-24 19:11:09.061863	151.0	37.1	-76.3	0.0
2025-01-24 19:11:10.185063	150.9	37.3	-76.3	0.0
2025-01-24 19:11:11.306586	150.9	37.6	-76.2	0.0
2025-01-24 19:11:12.428481	150.8	37.9	-76.2	0.0
2025-01-24 19:11:13.551705	150.7	38.1	-75.8	0.0
2025-01-24 19:11:14.678518	150.7	38.4	-75.6	0.0
2025-01-24 19:11:15.802140	150.6	38.7	-75.6	0.0
2025-01-24 19:11:16.925090	150.5	39.0	-75.8	0.0
2025-01-24 19:11:18.049135	150.4	39.2	-75.8	0.0
2025-01-24 19:11:19.172443	150.4	39.5	-76.2	0.0
2025-01-24 19:11:20.293139	150.3	39.8	-76.2	0.0
2025-01-24 19:11:21.419133	150.2	40.1	-75.8	0.0
2025-01-24 19:11:22.541826	150.1	40.4	-76.0	0.0
2025-01-24 19:11:23.667615	150.0	40.7	-75.9	0.0
2025-01-24 19:11:24.788586	150.0	40.9	-76.1	0.0
2025-01-24 19:11:25.911497	149.9	41.2	-76.0	0.0
2025-01-24 19:11:27.033638	149.8	41.5	-76.0	0.0
2025-01-24 19:11:28.156541	149.7	41.8	-76.0	0.0
2025-01-24 19:11:29.283681	149.6	42.1	-75.8	0.0
2025-01-24 19:11:30.407570	149.5	42.4	-75.7	0.0
2025-01-24 19:11:31.531475	149.4	42.7	-75.4	0.0
2025-01-24 19:11:32.654586	149.3	43.1	-76.2	0.0
2025-01-24 19:11:33.777530	149.2	43.4	-75.0	0.0
2025-01-24 19:11:34.901284	149.1	43.7	-76.1	0.0
2025-01-24 19:11:36.024678	149.0	44.0	-76.2	0.0
2025-01-24 19:11:37.146724	148.9	44.3	-76.4	0.0
2025-01-24 19:11:38.269620	148.8	44.6	-75.8	0.0
2025-01-24 19:11:39.393268	148.7	44.9	-75.9	0.0
2025-01-24 19:11:40.516781	148.6	45.3	-75.7	0.0
2025-01-24 19:11:41.638776	148.5	45.6	-74.9	0.0
2025-01-24 19:11:42.762410	148.3	45.9	-76.0	0.0
2025-01-24 19:11:43.885426	148.2	46.3	-75.2	0.0
2025-01-24 19:11:45.011578	148.1	46.6	-75.8	0.0
2025-01-24 19:11:46.134701	148.0	46.9	-75.9	0.0
2025-01-24 19:11:47.257530	147.9	47.3	-76.3	0.0
2025-01-24 19:11:48.379892	147.7	47.6	-75.8	0.0
2025-01-24 19:11:49.501732	147.6	48.0	-75.5	0.0
2025-01-24 19:11:50.626990	147.5	48.3	-75.8	0.0
2025-01-24 19:11:51.750376	147.3	48.7	-75.6	0.0
2025-01-24 19:11:52.872721	147.2	49.0	-75.2	0.0
2025-01-24 19:11:53.997375	147.0	49.4	-75.5	0.0
2025-01-24 19:11:55.123025	146.9	49.7	-75.8	0.0
2025-01-24 19:11:56.247810	146.7	50.1	-75.5	0.0
2025-01-24 19:11:57.370468	146.6	50.5	-75.9	0.0
2025-01-24 19:11:58.493264	146.4	50.8	-76.0	0.0
2025-01-24 19:11:59.616099	146.2	51.2	-74.1	0.0
2025-01-24 19:12:00.736226	146.1	51.6	-75.4	0.0
2025-01-24 19:12:01.861269	145.9	51.9	-76.4	0.0
2025-01-24 19:12:02.984452	145.7	52.3	-76.1	0.0
2025-01-24 19:12:04.107982	145.5	52.7	-75.9	0.0
2025-01-24 19:12:05.231424	145.3	53.1	-76.3	0.0
2025-01-24 19:12:06.353053	145.2	53.5	-75.5	0.0
2025-01-24 19:12:07.475158	145.0	53.8	-76.5	0.0
2025-01-24 19:12:08.598856	144.8	54.2	-76.5	0.0
2025-01-24 19:12:09.720842	144.5	54.6	-76.2	0.0
2025-01-24 19:12:10.845045	144.3	55.0	-76.1	0.0
2025-01-24 19:12:11.967305	144.1	55.4	-75.8	0.0
2025-01-24 19:12:13.090569	143.9	55.8	-75.9	0.0
2025-01-24 19:12:14.213930	143.6	56.2	-75.9	0.0
2025-01-24 19:12:15.338222	143.4	56.6	-76.4	0.0
2025-01-24 19:12:16.460493	143.2	57.0	-75.7	0.0
2025-01-24 19:12:17.584524	142.9	57.4	-75.9	0.0
2025-01-24 19:12:18.706470	142.6	57.8	-76.0	0.0
2025-01-24 19:12:19.831459	142.4	58.3	-76.1	0.0
2025-01-24 19:12:20.953966	142.1	58.7	-75.9	0.0
2025-01-24 19:12:22.074657	141.8	59.1	-75.9	0.0
2025-01-24 19:12:23.198859	141.5	59.5	-75.9	0.0
2025-01-24 19:12:24.321498	141.2	59.9	-75.2	0.0
2025-01-24 19:12:25.445927	140.9	60.4	-75.1	0.0
2025-01-24 19:12:26.569675	140.5	60.8	-75.2	0.0
2025-01-24 19:12:27.695274	140.2	61.2	-76.0	0.0
2025-01-24 19:12:28.819527	139.8	61.6	-75.9	0.0
2025-01-24 19:12:29.940558	139.5	62.1	-76.1	0.0
2025-01-24 19:12:31.065049	139.1	62.5	-75.8	0.0
2025-01-24 19:12:32.189119	138.7	62.9	-76.0	0.0
2025-01-24 19:12:33.311728	138.3	63.4	-76.0	0.0
2025-01-24 19:12:34.430880	137.8	63.8	-76.4	0.0
2025-01-24 19:12:35.552698	137.4	64.3	-76.1	0.0
2025-01-24 19:12:36.677190	136.9	64.7	-76.4	0.0
2025-01-24 19:12:37.798545	136.5	65.1	-75.6	0.0
2025-01-24 19:12:38.923849	136.0	65.6	-76.4	0.0
2025-01-24 19:12:40.045760	135.5	66.0	-76.3	0.0
2025-01-24 19:12:41.170312	134.9	66.5	-76.4	0.0
2025-01-24 19:12:42.294443	134.3	66.9	-76.6	0.0
2025-01-24 19:12:43.416651	133.8	67.4	-76.6	0.0
2025-01-24 19:12:44.538808	133.1	67.8	-76.0	0.0
2025-01-24 19:12:45.660949	132.5	68.2	-76.4	0.0
2025-01-24 19:12:46.783347	131.8	68.7	-76.1	0.0
2025-01-24 19:12:47.903123	131.1	69.1	-76.1	0.0
2025-01-24 19:12:49.024575	130.4	69.6	-76.5	0.0
2025-01-24 19:12:50.148718	129.6	70.0	-74.8	0.0
2025-01-24 19:12:51.273724	128.8	70.5	-76.0	0.0
2025-01-24 19:12:52.395576	128.0	70.9	-76.0	0.0
2025-01-24 19:12:53.520199	127.1	71.3	-75.5	0.0
2025-01-24 19:12:54.643559	126.2	71.8	-75.6	0.0
2025-01-24 19:12:55.764319	125.2	72.2	-75.8	0.0
2025-01-24 19:12:56.889345	124.2	72.6	-75.8	0.0
2025-01-24 19:12:58.013785	123.1	73.0	-76.2	0.0
2025-01-24 19:12:59.136608	121.9	73.5	-76.1	0.0
2025-01-24 19:13:00.260360	120.7	73.9	-76.0	0.0
2025-01-24 19:13:01.383476	119.5	74.3	-76.6	0.0
2025-01-24 19:13:02.505267	118.1	74.7	-76.6	0.0
2025-01-24 19:13:03.629896	116.7	75.1	-76.6	0.0
2025-01-24 19:13:04.753068	115.2	75.5	-76.1	0.0
2025-01-24 19:13:05.874673	113.6	75.8	-76.3	0.0
2025-01-24 19:13:06.996348	112.0	76.2	-76.2	0.0
2025-01-24 19:13:08.119025	110.2	76.5	-76.4	0.0
2025-01-24 19:13:09.243214	108.3	76.9	-76.4	0.0
2025-01-24 19:13:10.367368	106.4	77.2	-76.2	0.0
2025-01-24 19:13:11.491202	104.3	77.5	-75.9	0.0
2025-01-24 19:13:12.614383	102.2	77.8	-76.4	0.0
2025-01-24 19:13:13.736232	99.9	78.1	-75.7	0.0
2025-01-24 19:13:14.858220	97.5	78.4	-76.5	0.0
2025-01-24 19:13:15.983434	95.0	78.6	-76.0	0.0
2025-01-24 19:13:17.106985	92.4	78.8	-76.1	0.0
2025-01-24 19:13:18.228659	89.7	79.0	-76.0	0.0
2025-01-24 19:13:19.352152	86.9	79.2	-75.9	0.0
2025-01-24 19:13:20.473545	84.1	79.3	-76.0	0.0
2025-01-24 19:13:21.596785	81.1	79.5	-75.8	0.0
2025-01-24 19:13:22.722370	78.1	79.6	-76.5	0.0
2025-01-24 19:13:23.844851	75.0	79.6	-76.3	0.0
2025-01-24 19:13:24.969793	71.9	79.7	-76.0	0.0
2025-01-24 19:13:26.093631	68.8	79.7	-76.2	0.0
2025-01-24 19:13:27.216087	65.8	79.6	-76.3	0.0
2025-01-24 19:13:28.339015	62.7	79.6	-76.2	0.0
2025-01-24 19:13:29.463872	59.7	79.5	-76.1	0.0
2025-01-24 19:13:30.586950	56.7	79.4	-76.2	0.0
2025-01-24 19:13:31.711898	53.8	79.2	-75.8	0.0
2025-01-24 19:13:32.835246	51.0	79.1	-75.6	0.0
2025-01-24 19:13:33.959858	48.3	78.9	-76.1	0.0
2025-01-24 19:13:35.083221	45.7	78.7	-76.3	0.0
2025-01-24 19:13:36.205604	43.1	78.4	-75.5	0.0
2025-01-24 19:13:37.328840	40.7	78.2	-76.0	0.0
2025-01-24 19:13:38.453256	38.4	77.9	-76.1	0.0
2025-01-24 19:13:39.576604	36.2	77.6	-75.5	0.0
2025-01-24 19:13:40.696133	34.2	77.3	-76.1	0.0
2025-01-24 19:13:41.819076	32.2	77.0	-75.9	0.0
2025-01-24 19:13:42.940818	30.3	76.6	-75.7	0.0
2025-01-24 19:13:44.065326	28.5	76.3	-76.1	0.0
2025-01-24 19:13:45.188198	26.9	75.9	-76.1	0.0
2025-01-24 19:13:46.309849	25.3	75.5	-75.8	0.0
2025-01-24 19:13:47.432717	23.7	75.2	-75.9	0.0
2025-01-24 19:13:48.555262	22.3	74.8	-76.0	0.0
2025-01-24 19:13:49.678126	21.0	74.4	-76.3	0.0
2025-01-24 19:13:50.799370	19.7	74.0	-75.6	0.0
2025-01-24 19:13:51.923668	18.4	73.6	-75.5	0.0
2025-01-24 19:13:53.049233	17.3	73.1	-76.2	0.0
2025-01-24 19:13:54.171235	16.2	72.7	-76.3	0.0
2025-01-24 19:13:55.295318	15.1	72.3	-76.3	0.0
2025-01-24 19:13:56.417138	14.2	71.9	-76.5	0.0
2025-01-24 19:13:57.539588	13.2	71.4	-76.2	0.0
2025-01-24 19:13:58.661991	12.3	71.0	-76.2	0.0
2025-01-24 19:13:59.783734	11.5	70.6	-76.4	0.0
2025-01-24 19:14:00.905676	10.7	70.1	-76.0	0.0
2025-01-24 19:14:02.028018	9.9	69.7	-76.3	0.0
2025-01-24 19:14:03.151081	9.1	69.2	-76.3	0.0
2025-01-24 19:14:04.271970	8.4	68.8	-76.3	0.0
2025-01-24 19:14:05.395508	7.8	68.4	-75.6	0.0
2025-01-24 19:14:06.516793	7.1	67.9	-76.0	0.0
2025-01-24 19:14:07.639754	6.5	67.5	-76.7	0.0
2025-01-24 19:14:08.763936	5.9	67.0	-76.0	0.0
2025-01-24 19:14:09.886678	5.3	66.6	-76.0	0.0
2025-01-24 19:14:11.007594	4.8	66.1	-75.9	0.0
2025-01-24 19:14:12.130354	4.3	65.7	-75.4	0.0
2025-01-24 19:14:13.253036	3.8	65.2	-75.9	0.0
2025-01-24 19:14:14.377790	3.3	64.8	-76.0	0.0
2025-01-24 19:14:15.501897	2.8	64.4	-75.5	0.0
2025-01-24 19:14:16.625222	2.4	63.9	-75.8	0.0
2025-01-24 19:14:17.747138	1.9	63.5	-76.0	0.0
2025-01-24 19:14:18.867681	1.5	63.1	-76.0	0.0
2025-01-24 19:14:19.991514	1.1	62.6	-76.0	0.0
2025-01-24 19:14:21.116463	0.7	62.2	-76.6	0.0
2025-01-24 19:14:22.237894	0.4	61.7	-75.8	0.0
2025-01-24 19:14:23.359959	0.0	61.3	-75.1	0.0
2025-01-24 19:14:24.482411	359.7	60.9	-75.9	0.0
2025-01-24 19:14:25.607649	359.3	60.5	-76.2	0.0
2025-01-24 19:14:26.728118	359.0	60.0	-76.0	0.0
2025-01-24 19:14:27.849482	358.7	59.6	-76.5	0.0
2025-01-24 19:14:28.974353	358.4	59.2	-76.5	0.0
2025-01-24 19:14:30.096860	358.1	58.8	-75.9	0.0
2025-01-24 19:14:31.218065	357.8	58.4	-75.7	0.0
2025-01-24 19:14:32.341296	357.5	57.9	-76.3	0.0
2025-01-24 19:14:33.464306	357.3	57.5	-76.1	0.0
2025-01-24 19:14:34.587433	357.0	57.1	-75.9	0.0
2025-01-24 19:14:35.708605	356.8	56.7	-76.2	0.0
2025-01-24 19:14:36.831056	356.5	56.3	-76.5	0.0
2025-01-24 19:14:37.953413	356.3	55.9	-76.1	0.0
2025-01-24 19:14:39.075690	356.1	55.5	-76.3	0.0
2025-01-24 19:14:40.199656	355.8	55.1	-76.4	0.0
2025-01-24 19:14:41.324676	355.6	54.7	-76.3	0.0
2025-01-24 19:14:42.446634	355.4	54.3	-76.1	0.0
2025-01-24 19:14:43.568698	355.2	53.9	-75.8	0.0
2025-01-24 19:14:44.692541	355.0	53.6	-75.8	0.0
2025-01-24 19:14:45.814710	354.8	53.2	-76.2	0.0
2025-01-24 19:14:46.933865	354.6	52.8	-75.9	0.0
2025-01-24 19:14:48.056390	354.4	52.4	-76.3	0.0
2025-01-24 19:14:49.178352	354.3	52.0	-76.2	0.0
2025-01-24 19:14:50.300449	354.1	51.7	-76.3	0.0
2025-01-24 19:14:51.423208	353.9	51.3	-76.1	0.0
2025-01-24 19:14:52.547067	353.8	50.9	-76.0	0.0
2025-01-24 19:14:53.671475	353.6	50.6	-75.8	0.0
2025-01-24 19:14:54.795278	353.4	50.2	-75.5	0.0
2025-01-24 19:14:55.919022	353.3	49.8	-75.9	0.0
2025-01-24 19:14:57.040705	353.1	49.5	-76.2	0.0
2025-01-24 19:14:58.165116	353.0	49.1	-76.1	0.0
2025-01-24 19:14:59.287949	352.8	48.8	-76.3	0.0
2025-01-24 19:15:00.411304	352.7	48.4	-75.5	0.0
2025-01-24 19:15:01.534822	352.6	48.1	-76.2	0.0
2025-01-24 19:15:02.656111	352.4	47.7	-76.3	0.0
2025-01-24 19:15:03.779256	352.3	47.4	-75.6	0.0
2025-01-24 19:15:04.901241	352.2	47.0	-76.3	0.0
2025-01-24 19:15:06.024878	352.1	46.7	-74.8	0.0
2025-01-24 19:15:07.148322	351.9	46.4	-75.9	0.0
2025-01-24 19:15:08.269995	351.8	46.0	-75.9	0.0
2025-01-24 19:15:09.395113	351.7	45.7	-76.1	0.0
2025-01-24 19:15:10.517773	351.6	45.4	-75.8	0.0
2025-01-24 19:15:11.641858	351.5	45.0	-76.1	0.0
2025-01-24 19:15:12.764690	351.4	44.7	-76.5	0.0
2025-01-24 19:15:13.887601	351.2	44.4	-76.3	0.0
2025-01-24 19:15:15.013408	351.1	44.1	-75.7	0.0
2025-01-24 19:15:16.136793	351.0	43.8	-75.9	0.0
2025-01-24 19:15:17.261390	350.9	43.5	-76.4	0.0
2025-01-24 19:15:18.385462	350.8	43.1	-76.1	0.0
2025-01-24 19:15:19.510712	350.7	42.8	-76.5	0.0
2025-01-24 19:15:20.634347	350.6	42.5	-76.5	0.0
2025-01-24 19:15:21.756833	350.6	42.2	-76.2	0.0
2025-01-24 19:15:22.880612	350.5	41.9	-76.3	0.0
2025-01-24 19:15:24.003644	350.4	41.6	-76.2	0.0
2025-01-24 19:15:25.127341	350.3	41.3	-76.4	0.0
2025-01-24 19:15:26.248703	350.2	41.0	-76.4	0.0
2025-01-24 19:15:27.373366	350.1	40.7	-76.0	0.0
2025-01-24 19:15:28.496482	350.0	40.5	-76.7	0.0
2025-01-24 19:15:29.620537	349.9	40.2	-75.8	0.0
2025-01-24 19:15:30.742944	349.9	39.9	-75.9	0.0
2025-01-24 19:15:31.867073	349.8	39.6	-76.3	0.0
2025-01-24 19:15:32.992659	349.7	39.3	-76.4	0.0
2025-01-24 19:15:34.113778	349.6	39.0	-76.1	0.0
2025-01-24 19:15:35.235244	349.6	38.8	-76.5	0.0
2025-01-24 19:15:36.357207	349.5	38.5	-76.1	0.0
2025-01-24 19:15:37.480978	349.4	38.2	-76.6	0.0
2025-01-24 19:15:38.602615	349.3	37.9	-76.6	0.0
2025-01-24 19:15:39.723977	349.3	37.7	-76.3	0.0
2025-01-24 19:15:40.845273	349.2	37.4	-74.6	0.0
2025-01-24 19:15:41.969209	349.1	37.2	-76.0	0.0
2025-01-24 19:15:43.092448	349.1	36.9	-76.1	0.0
2025-01-24 19:15:44.214960	349.0	36.6	-76.4	0.0
2025-01-24 19:15:45.336513	348.9	36.4	-76.1	0.0
2025-01-24 19:15:46.459760	348.9	36.1	-76.1	0.0
2025-01-24 19:15:47.584050	348.8	35.9	-77.2	0.0
2025-01-24 19:15:48.704990	348.8	35.6	-76.3	0.0
2025-01-24 19:15:49.826801	348.7	35.4	-76.4	0.0
2025-01-24 19:15:50.950075	348.6	35.1	-76.0	0.0
2025-01-24 19:15:52.073131	348.6	34.9	-75.8	0.0
2025-01-24 19:15:53.196896	348.5	34.6	-76.0	0.0
2025-01-24 19:15:54.319138	348.5	34.4	-76.4	0.0
2025-01-24 19:15:55.440931	348.4	34.1	-76.6	0.0
2025-01-24 19:15:56.564049	348.4	33.9	-76.1	0.0
2025-01-24 19:15:57.686982	348.3	33.7	-76.4	0.0
2025-01-24 19:15:58.808930	348.3	33.4	-76.1	0.0
2025-01-24 19:15:59.932315	348.2	33.2	-76.3	0.0
2025-01-24 19:16:01.054274	348.2	33.0	-76.1	0.0
2025-01-24 19:16:02.177516	348.1	32.7	-76.0	0.0
2025-01-24 19:16:03.301895	348.1	32.5	-76.2	0.0
2025-01-24 19:16:04.425674	348.0	32.3	-76.6	0.0
2025-01-24 19:16:05.548926	348.0	32.1	-76.5	0.0
2025-01-24 19:16:06.670195	347.9	31.8	-76.7	0.0
2025-01-24 19:16:07.793378	347.9	31.6	-76.2	0.0
2025-01-24 19:16:08.915693	347.8	31.4	-76.2	0.0
2025-01-24 19:16:10.040866	347.8	31.2	-76.5	0.0
2025-01-24 19:16:11.165528	347.7	31.0	-76.5	0.0
2025-01-24 19:16:12.288699	347.7	30.7	-76.5	0.0
2025-01-24 19:16:13.413326	347.6	30.5	-76.1	0.0
2025-01-24 19:16:14.536385	347.6	30.3	-76.6	0.0
2025-01-24 19:16:15.658309	347.6	30.1	-75.8	0.0
2025-01-24 19:16:16.782201	347.5	29.9	-76.0	0.0
2025-01-24 19:16:17.904581	347.5	29.7	-76.1	0.0
2025-01-24 19:16:19.028399	347.4	29.5	-76.4	0.0
2025-01-24 19:16:20.150439	347.4	29.3	-75.9	0.0
2025-01-24 19:16:21.272288	347.4	29.1	-76.3	0.0
2025-01-24 19:16:22.396688	347.3	28.9	-76.3	0.0
2025-01-24 19:16:23.519490	347.3	28.7	-76.6	0.0
2025-01-24 19:16:24.643155	347.2	28.5	-76.0	0.0
2025-01-24 19:16:25.768805	347.2	28.3	-76.3	0.0
2025-01-24 19:16:26.891014	347.2	28.1	-76.9	0.0
2025-01-24 19:16:28.014830	347.1	27.9	-76.5	0.0
2025-01-24 19:16:29.137805	347.1	27.7	-76.5	0.0
2025-01-24 19:16:30.260132	347.1	27.5	-76.6	0.0
2025-01-24 19:16:31.382876	347.0	27.3	-77.1	0.0
2025-01-24 19:16:32.506637	347.0	27.1	-76.8	0.0
2025-01-24 19:16:33.629491	347.0	26.9	-76.5	0.0
2025-01-24 19:16:34.751008	346.9	26.7	-76.6	0.0
2025-01-24 19:16:35.872372	346.9	26.6	-76.5	0.0
2025-01-24 19:16:36.996869	346.9	26.4	-76.2	0.0
2025-01-24 19:16:38.122404	346.8	26.2	-76.6	0.0
2025-01-24 19:16:39.243633	346.8	26.0	-76.1	0.0
2025-01-24 19:16:40.367464	346.8	25.8	-76.3	0.0
2025-01-24 19:16:41.490805	346.7	25.6	-76.5	0.0
2025-01-24 19:16:42.614848	346.7	25.5	-76.2	0.0
2025-01-24 19:16:43.738324	346.7	25.3	-76.6	0.0
2025-01-24 19:16:44.860450	346.6	25.1	-76.4	0.0
2025-01-24 19:16:45.983893	346.6	24.9	-76.4	0.0
2025-01-24 19:16:47.107071	346.6	24.8	-75.8	0.0
2025-01-24 19:16:48.231890	346.6	24.6	-76.8	0.0
2025-01-24 19:16:49.356829	346.5	24.4	-76.1	0.0
2025-01-24 19:16:50.478970	346.5	24.3	-77.0	0.0
2025-01-24 19:16:51.601215	346.5	24.1	-76.9	0.0
2025-01-24 19:16:52.724076	346.4	23.9	-76.9	0.0
2025-01-24 19:16:53.845252	346.4	23.7	-76.7	0.0
2025-01-24 19:16:54.969166	346.4	23.6	-77.0	0.0
2025-01-24 19:16:56.091934	346.4	23.4	-76.6	0.0
2025-01-24 19:16:57.216822	346.3	23.3	-76.7	0.0
2025-01-24 19:16:58.340183	346.3	23.1	-77.1	0.0
2025-01-24 19:16:59.464159	346.3	22.9	-76.9	0.0
2025-01-24 19:17:00.586036	346.3	22.8	-76.7	0.0
2025-01-24 19:17:01.707432	346.2	22.6	-76.9	0.0
2025-01-24 19:17:02.830957	346.2	22.4	-76.6	0.0
2025-01-24 19:17:03.953613	346.2	22.3	-76.4	0.0
2025-01-24 19:17:05.076809	346.2	22.1	-77.2	0.0
2025-01-24 19:17:06.197934	346.1	22.0	-76.7	0.0
2025-01-24 19:17:07.321176	346.1	21.8	-77.1	0.0
2025-01-24 19:17:08.442409	346.1	21.7	-77.2	0.0
2025-01-24 19:17:09.566248	346.1	21.5	-76.7	0.0
2025-01-24 19:17:10.689272	346.0	21.4	-77.0	0.0
2025-01-24 19:17:11.812122	346.0	21.2	-76.3	0.0
2025-01-24 19:17:12.934744	346.0	21.1	-77.0	0.0
2025-01-24 19:17:14.057077	346.0	20.9	-76.7	0.0
2025-01-24 19:17:15.180774	346.0	20.8	-76.9	0.0
2025-01-24 19:17:16.303396	345.9	20.6	-76.6	0.0
2025-01-24 19:17:17.424988	345.9	20.5	-76.2	0.0
2025-01-24 19:17:18.548557	345.9	20.3	-76.7	0.0
2025-01-24 19:17:19.672151	345.9	20.2	-76.7	0.0
2025-01-24 19:17:20.798005	345.9	20.0	-76.9	0.0
2025-01-24 19:17:21.921608	345.8	19.9	-76.7	0.0
2025-01-24 19:17:23.043824	345.8	19.7	-76.6	0.0
2025-01-24 19:17:24.166406	345.8	19.6	-76.5	0.0
2025-01-24 19:17:25.289356	345.8	19.5	-76.3	0.0
2025-01-24 19:17:26.412481	345.8	19.3	-76.7	0.0
2025-01-24 19:17:27.536041	345.7	19.2	-76.9	0.0
2025-01-24 19:17:28.659027	345.7	19.0	-76.5	0.0
2025-01-24 19:17:29.782396	345.7	18.9	-76.9	0.0
2025-01-24 19:17:30.904752	345.7	18.8	-76.7	0.0
2025-01-24 19:17:32.027332	345.7	18.6	-76.9	0.0
2025-01-24 19:17:33.150608	345.6	18.5	-76.8	0.0
2025-01-24 19:17:34.273260	345.6	18.3	-76.8	0.0
2025-01-24 19:17:35.396887	345.6	18.2	-76.6	0.0
2025-01-24 19:17:36.521496	345.6	18.1	-76.5	0.0
2025-01-24 19:17:37.642629	345.6	17.9	-76.5	0.0
2025-01-24 19:17:38.764624	345.6	17.8	-76.7	0.0
2025-01-24 19:17:39.886106	345.5	17.7	-76.4	0.0
2025-01-24 19:17:41.008994	345.5	17.6	-76.6	0.0
2025-01-24 19:17:42.132980	345.5	17.4	-76.4	0.0
2025-01-24 19:17:43.255194	345.5	17.3	-76.4	0.0
2025-01-24 19:17:44.378162	345.5	17.2	-76.6	0.0
2025-01-24 19:17:45.502575	345.5	17.0	-76.3	0.0
2025-01-24 19:17:46.627414	345.4	16.9	-76.0	0.0
2025-01-24 19:17:47.753246	345.4	16.8	-76.6	0.0
2025-01-24 19:17:48.875731	345.4	16.7	-76.7	0.0
2025-01-24 19:17:49.999699	345.4	16.5	-76.1	0.0
2025-01-24 19:17:51.123194	345.4	16.4	-76.7	0.0
2025-01-24 19:17:52.244153	345.4	16.3	-77.0	0.0
2025-01-24 19:17:53.367002	345.4	16.2	-76.4	0.0
2025-01-24 19:17:54.489912	345.3	16.0	-76.5	0.0
2025-01-24 19:17:55.614858	345.3	15.9	-76.8	0.0
2025-01-24 19:17:56.738908	345.3	15.8	-76.2	0.0
2025-01-24 19:17:57.864485	345.3	15.7	-76.2	0.0
2025-01-24 19:17:58.985199	345.3	15.5	-76.8	0.0
2025-01-24 19:18:00.108018	345.3	15.4	-76.5	0.0
2025-01-24 19:18:01.230397	345.3	15.3	-76.3	0.0
2025-01-24 19:18:02.354234	345.2	15.2	-76.5	0.0
2025-01-24 19:18:03.477804	345.2	15.1	-76.1	0.0
2025-01-24 19:18:04.600476	345.2	14.9	-76.1	0.0
2025-01-24 19:18:05.723777	345.2	14.8	-76.2	0.0
2025-01-24 19:18:06.845900	345.2	14.7	-76.3	0.0
2025-01-24 19:18:07.967154	345.2	14.6	-76.7	0.0
2025-01-24 19:18:09.089599	345.2	14.5	-76.5	0.0
2025-01-24 19:18:10.214609	345.2	14.4	-76.3	0.0
2025-01-24 19:18:11.337406	345.1	14.2	-76.8	0.0
2025-01-24 19:18:12.461076	345.1	14.1	-76.0	0.0
2025-01-24 19:18:13.585519	345.1	14.0	-76.5	0.0
2025-01-24 19:18:14.706882	345.1	13.9	-76.4	0.0
2025-01-24 19:18:15.831558	345.1	13.8	-76.5	0.0
2025-01-24 19:18:16.954364	345.1	13.7	-76.5	0.0
2025-01-24 19:18:18.076074	345.1	13.6	-76.2	0.0
2025-01-24 19:18:19.202078	345.1	13.5	-75.9	0.0
2025-01-24 19:18:20.325718	345.0	13.3	-76.2	0.0
2025-01-24 19:18:21.450765	345.0	13.2	-76.3	0.0
2025-01-24 19:18:22.571778	345.0	13.1	-76.2	0.0
2025-01-24 19:18:23.692493	345.0	13.0	-76.4	0.0
2025-01-24 19:18:24.816089	345.0	12.9	-76.4	0.0
2025-01-24 19:18:25.938775	345.0	12.8	-76.6	0.0
2025-01-24 19:18:27.062505	345.0	12.7	-76.5	0.0
2025-01-24 19:18:28.186629	345.0	12.6	-76.7	0.0
2025-01-24 19:18:29.310147	345.0	12.5	-77.0	0.0
2025-01-24 19:18:30.430073	344.9	12.4	-76.6	0.0
2025-01-24 19:18:31.553330	344.9	12.3	-76.4	0.0
2025-01-24 19:18:32.677061	344.9	12.2	-76.8	0.0
2025-01-24 19:18:33.799504	344.9	12.1	-76.7	0.0
2025-01-24 19:18:34.923092	344.9	12.0	-76.8	0.0
2025-01-24 19:18:36.048425	344.9	11.8	-76.2	0.0
2025-01-24 19:18:37.171965	344.9	11.7	-76.2	0.0
2025-01-24 19:18:38.295901	344.9	11.6	-76.7	0.0
2025-01-24 19:18:39.418179	344.9	11.5	-76.8	0.0
2025-01-24 19:18:40.541246	344.9	11.4	-76.6	0.0
2025-01-24 19:18:41.664395	344.8	11.3	-76.6	0.0
2025-01-24 19:18:42.786123	344.8	11.2	-76.8	0.0
2025-01-24 19:18:43.908858	344.8	11.1	-76.7	0.0
2025-01-24 19:18:45.031615	344.8	11.0	-76.3	0.0
2025-01-24 19:18:46.153409	344.8	10.9	-76.0	0.0
2025-01-24 19:18:47.273517	344.8	10.8	-75.6	0.0
2025-01-24 19:18:48.396222	344.8	10.7	-76.3	0.0
2025-01-24 19:18:49.518880	344.8	10.6	-76.1	0.0
2025-01-24 19:18:50.643348	344.8	10.5	-76.2	0.0
2025-01-24 19:18:51.764069	344.8	10.4	-75.8	0.0
2025-01-24 19:18:52.886997	344.8	10.3	-76.1	0.0
2025-01-24 19:18:54.009191	344.8	10.2	-76.6	0.0
2025-01-24 19:18:55.132906	344.7	10.1	-76.6	0.0
2025-01-24 19:18:56.253915	344.7	10.0	-76.7	0.0
#Closed at: 2025-01-24 19:07:49.876148