passes_logs/2025/01/24/planumMaritime01/planumMaritime01__20250124_124636_METEOR-M2_4_rec.log

#Pass ID: 20250124_124636_METEOR-M2 4
#Satellite: METEOR-M2 4
#Configuration: METEOR-M2 4
#Start time: 2025-01-24 12:46:41.673413

#LorettStation: 1.0.0 05.05.2024
#Station: planumMaritime01
#Location: 37.49445 lon 55.92918 lat
#TLE: 1 59051U 24039A   25023.82134414  .00000153  00000+0  88244-4 0  9995
#TLE: 2 59051  98.6304 346.6458 0006606 196.6758 163.4204 14.22328196 46859

#Time	Az	El	Level	SNR
2025-01-24 12:46:43.830924	211.9	10.2	-77.0	0.0
2025-01-24 12:46:44.953838	212.0	10.2	-77.0	0.0
2025-01-24 12:46:46.076800	212.2	10.3	-76.9	0.0
2025-01-24 12:46:47.200238	212.3	10.4	-76.9	0.0
2025-01-24 12:46:48.323257	212.4	10.5	-77.2	0.0
2025-01-24 12:46:49.446243	212.5	10.6	-77.3	0.0
2025-01-24 12:46:50.568635	212.7	10.6	-76.9	0.0
2025-01-24 12:46:51.689001	212.8	10.7	-76.9	0.0
2025-01-24 12:46:52.812844	212.9	10.8	-77.1	0.0
2025-01-24 12:46:53.935318	213.0	10.9	-76.7	0.0
2025-01-24 12:46:55.055968	213.2	11.0	-75.2	0.0
2025-01-24 12:46:56.178840	213.3	11.0	-73.4	0.0
2025-01-24 12:46:57.302461	213.4	11.1	-73.8	0.0
2025-01-24 12:46:58.423947	213.5	11.2	-76.2	0.0
2025-01-24 12:46:59.546102	213.7	11.3	-75.9	0.0
2025-01-24 12:47:00.668484	213.8	11.4	-75.9	0.0
2025-01-24 12:47:01.789723	213.9	11.4	-76.3	0.0
2025-01-24 12:47:02.912388	214.1	11.5	-76.7	0.0
2025-01-24 12:47:04.037343	214.2	11.6	-76.0	0.0
2025-01-24 12:47:05.161106	214.3	11.7	-76.0	0.0
2025-01-24 12:47:06.282425	214.5	11.8	-75.8	0.0
2025-01-24 12:47:07.405314	214.6	11.9	-75.7	0.0
2025-01-24 12:47:08.528502	214.7	11.9	-76.4	0.0
2025-01-24 12:47:09.651658	214.9	12.0	-76.8	0.0
2025-01-24 12:47:10.773883	215.0	12.1	-76.7	0.0
2025-01-24 12:47:11.897965	215.2	12.2	-77.4	0.0
2025-01-24 12:47:13.023811	215.3	12.3	-77.0	0.0
2025-01-24 12:47:14.146013	215.4	12.4	-75.4	0.0
2025-01-24 12:47:15.270321	215.6	12.4	-74.4	0.0
2025-01-24 12:47:16.392738	215.7	12.5	-73.3	0.0
2025-01-24 12:47:17.514415	215.9	12.6	-74.5	0.0
2025-01-24 12:47:18.637916	216.0	12.7	-76.1	0.0
2025-01-24 12:47:19.761933	216.2	12.8	-76.3	0.0
2025-01-24 12:47:20.883922	216.3	12.9	-76.9	0.0
2025-01-24 12:47:22.006247	216.4	12.9	-77.2	0.0
2025-01-24 12:47:23.126709	216.6	13.0	-77.0	0.0
2025-01-24 12:47:24.249906	216.7	13.1	-77.3	0.0
2025-01-24 12:47:25.374360	216.9	13.2	-76.9	0.0
2025-01-24 12:47:26.496348	217.0	13.3	-76.2	0.0
2025-01-24 12:47:27.621293	217.2	13.4	-76.4	0.0
2025-01-24 12:47:28.742422	217.3	13.4	-76.4	0.0
2025-01-24 12:47:29.866291	217.5	13.5	-76.1	0.0
2025-01-24 12:47:30.989402	217.6	13.6	-76.3	0.0
2025-01-24 12:47:32.113342	217.8	13.7	-76.3	0.0
2025-01-24 12:47:33.235990	217.9	13.8	-76.2	0.0
2025-01-24 12:47:34.358831	218.1	13.9	-75.3	0.0
2025-01-24 12:47:35.482466	218.3	14.0	-74.2	0.0
2025-01-24 12:47:36.604212	218.4	14.0	-72.9	0.0
2025-01-24 12:47:37.727173	218.6	14.1	-75.2	0.0
2025-01-24 12:47:38.850497	218.7	14.2	-75.8	0.0
2025-01-24 12:47:39.974614	218.9	14.3	-75.9	0.0
2025-01-24 12:47:41.097729	219.0	14.4	-76.2	0.0
2025-01-24 12:47:42.221665	219.2	14.5	-76.4	0.0
2025-01-24 12:47:43.344144	219.4	14.6	-76.1	0.0
2025-01-24 12:47:44.465724	219.5	14.7	-76.0	0.0
2025-01-24 12:47:45.588238	219.7	14.7	-76.3	0.0
2025-01-24 12:47:46.713135	219.9	14.8	-75.4	0.0
2025-01-24 12:47:47.834623	220.0	14.9	-75.9	0.0
2025-01-24 12:47:48.958498	220.2	15.0	-76.1	0.0
2025-01-24 12:47:50.080776	220.4	15.1	-75.8	0.0
2025-01-24 12:47:51.203984	220.5	15.2	-76.1	0.0
2025-01-24 12:47:52.325239	220.7	15.3	-76.2	0.0
2025-01-24 12:47:53.447652	220.9	15.3	-77.0	0.0
2025-01-24 12:47:54.570626	221.0	15.4	-76.3	0.0
2025-01-24 12:47:55.691965	221.2	15.5	-75.2	0.0
2025-01-24 12:47:56.815461	221.4	15.6	-73.4	0.0
2025-01-24 12:47:57.939833	221.6	15.7	-75.4	0.0
2025-01-24 12:47:59.061398	221.7	15.8	-77.3	0.0
2025-01-24 12:48:00.183915	221.9	15.9	-75.8	0.0
2025-01-24 12:48:01.305376	222.1	16.0	-77.2	0.0
2025-01-24 12:48:02.427060	222.3	16.0	-77.2	0.0
2025-01-24 12:48:03.551977	222.4	16.1	-76.4	0.0
2025-01-24 12:48:04.674651	222.6	16.2	-76.8	0.0
2025-01-24 12:48:05.801133	222.8	16.3	-76.9	0.0
2025-01-24 12:48:06.922472	223.0	16.4	-76.6	0.0
2025-01-24 12:48:08.047026	223.2	16.5	-77.0	0.0
2025-01-24 12:48:09.168195	223.3	16.6	-76.5	0.0
2025-01-24 12:48:10.290456	223.5	16.7	-77.3	0.0
2025-01-24 12:48:11.412159	223.7	16.8	-76.6	0.0
2025-01-24 12:48:12.535533	223.9	16.8	-77.0	0.0
2025-01-24 12:48:13.659234	224.1	16.9	-77.7	0.0
2025-01-24 12:48:14.784250	224.3	17.0	-76.7	0.0
2025-01-24 12:48:15.906592	224.5	17.1	-74.9	0.0
2025-01-24 12:48:17.026400	224.7	17.2	-73.6	0.0
2025-01-24 12:48:18.150482	224.9	17.3	-75.9	0.0
2025-01-24 12:48:19.271286	225.1	17.4	-77.5	0.0
2025-01-24 12:48:20.395060	225.3	17.5	-77.5	0.0
2025-01-24 12:48:21.518211	225.4	17.5	-77.9	0.0
2025-01-24 12:48:22.640464	225.6	17.6	-77.8	0.0
2025-01-24 12:48:23.764171	225.8	17.7	-77.6	0.0
2025-01-24 12:48:24.888492	226.0	17.8	-77.6	0.0
2025-01-24 12:48:26.010289	226.2	17.9	-77.5	0.0
2025-01-24 12:48:27.133852	226.4	18.0	-77.6	0.0
2025-01-24 12:48:28.258488	226.7	18.1	-77.9	0.0
2025-01-24 12:48:29.381542	226.9	18.2	-77.6	0.0
2025-01-24 12:48:30.504092	227.1	18.3	-77.4	0.0
2025-01-24 12:48:31.623023	227.3	18.3	-77.3	0.0
2025-01-24 12:48:32.745852	227.5	18.4	-76.6	0.0
2025-01-24 12:48:33.868532	227.7	18.5	-76.7	0.0
2025-01-24 12:48:34.990292	227.9	18.6	-75.3	0.0
2025-01-24 12:48:36.112778	228.1	18.7	-74.6	0.0
2025-01-24 12:48:37.235517	228.3	18.8	-73.4	0.0
2025-01-24 12:48:38.358488	228.5	18.9	-76.0	0.0
2025-01-24 12:48:39.483450	228.7	19.0	-77.4	0.0
2025-01-24 12:48:40.606776	229.0	19.0	-77.5	0.0
2025-01-24 12:48:41.728947	229.2	19.1	-77.0	0.0
2025-01-24 12:48:42.853817	229.4	19.2	-77.0	0.0
2025-01-24 12:48:43.977216	229.6	19.3	-77.1	0.0
2025-01-24 12:48:45.099193	229.8	19.4	-75.8	0.0
2025-01-24 12:48:46.222908	230.1	19.5	-75.9	0.0
2025-01-24 12:48:47.347653	230.3	19.6	-77.2	0.0
2025-01-24 12:48:48.469647	230.5	19.7	-77.4	0.0
2025-01-24 12:48:49.593890	230.7	19.7	-77.8	0.0
2025-01-24 12:48:50.715033	231.0	19.8	-77.8	0.0
2025-01-24 12:48:51.837900	231.2	19.9	-76.5	0.0
2025-01-24 12:48:52.960336	231.4	20.0	-77.7	0.0
2025-01-24 12:48:54.081914	231.7	20.1	-77.7	0.0
2025-01-24 12:48:55.206939	231.9	20.2	-76.0	0.0
2025-01-24 12:48:56.329390	232.1	20.3	-75.4	0.0
2025-01-24 12:48:57.454700	232.4	20.3	-74.4	0.0
2025-01-24 12:48:58.577220	232.6	20.4	-75.7	0.0
2025-01-24 12:48:59.698952	232.8	20.5	-76.8	0.0
2025-01-24 12:49:00.823821	233.1	20.6	-76.6	0.0
2025-01-24 12:49:01.947355	233.3	20.7	-76.5	0.0
2025-01-24 12:49:03.070109	233.5	20.8	-77.0	0.0
2025-01-24 12:49:04.193443	233.8	20.9	-77.0	0.0
2025-01-24 12:49:05.317462	234.0	20.9	-78.0	0.0
2025-01-24 12:49:06.441839	234.3	21.0	-77.8	0.0
2025-01-24 12:49:07.563019	234.5	21.1	-78.0	0.0
2025-01-24 12:49:08.684217	234.8	21.2	-77.8	0.0
2025-01-24 12:49:09.807082	235.0	21.3	-77.4	0.0
2025-01-24 12:49:10.928745	235.3	21.4	-77.5	0.0
2025-01-24 12:49:12.050470	235.5	21.4	-77.3	0.0
2025-01-24 12:49:13.173596	235.8	21.5	-77.7	0.0
2025-01-24 12:49:14.294911	236.0	21.6	-77.8	0.0
2025-01-24 12:49:15.416810	236.3	21.7	-76.8	0.0
2025-01-24 12:49:16.540027	236.5	21.8	-75.2	0.0
2025-01-24 12:49:17.663975	236.8	21.8	-73.5	0.0
2025-01-24 12:49:18.786397	237.1	21.9	-76.3	0.0
2025-01-24 12:49:19.908838	237.3	22.0	-77.8	0.0
2025-01-24 12:49:21.030749	237.6	22.1	-77.7	0.0
2025-01-24 12:49:22.153245	237.8	22.2	-78.1	0.0
2025-01-24 12:49:23.273765	238.1	22.2	-78.1	0.0
2025-01-24 12:49:24.397642	238.4	22.3	-78.0	0.0
2025-01-24 12:49:25.521265	238.6	22.4	-76.5	0.0
2025-01-24 12:49:26.642296	238.9	22.5	-76.3	0.0
2025-01-24 12:49:27.763335	239.2	22.6	-76.4	0.0
2025-01-24 12:49:28.885392	239.5	22.6	-77.5	0.0
2025-01-24 12:49:30.007290	239.7	22.7	-76.8	0.0
2025-01-24 12:49:31.127093	240.0	22.8	-76.3	0.0
2025-01-24 12:49:32.251186	240.3	22.9	-75.8	0.0
2025-01-24 12:49:33.374756	240.6	22.9	-76.9	0.0
2025-01-24 12:49:34.497337	240.8	23.0	-76.2	0.0
2025-01-24 12:49:35.618378	241.1	23.1	-75.7	0.0
2025-01-24 12:49:36.741261	241.4	23.2	-74.6	0.0
2025-01-24 12:49:37.864524	241.7	23.2	-73.6	0.0
2025-01-24 12:49:38.987127	242.0	23.3	-75.8	0.0
2025-01-24 12:49:40.109662	242.2	23.4	-77.0	0.0
2025-01-24 12:49:41.232239	242.5	23.5	-77.2	0.0
2025-01-24 12:49:42.353597	242.8	23.5	-76.9	0.0
2025-01-24 12:49:43.475841	243.1	23.6	-77.1	0.0
2025-01-24 12:49:44.599470	243.4	23.7	-77.2	0.0
2025-01-24 12:49:45.720519	243.7	23.7	-77.1	0.0
2025-01-24 12:49:46.843346	244.0	23.8	-76.8	0.0
2025-01-24 12:49:47.967344	244.3	23.9	-76.9	0.0
2025-01-24 12:49:49.089977	244.6	23.9	-77.6	0.0
2025-01-24 12:49:50.212315	244.9	24.0	-77.2	0.0
2025-01-24 12:49:51.335581	245.2	24.1	-76.3	0.0
2025-01-24 12:49:52.460061	245.5	24.2	-76.1	0.0
2025-01-24 12:49:53.582759	245.8	24.2	-75.9	0.0
2025-01-24 12:49:54.705362	246.1	24.3	-76.7	0.0
2025-01-24 12:49:55.829927	246.4	24.3	-75.6	0.0
2025-01-24 12:49:56.953506	246.7	24.4	-75.1	0.0
2025-01-24 12:49:58.077160	247.0	24.5	-74.7	0.0
2025-01-24 12:49:59.199639	247.3	24.5	-76.2	0.0
2025-01-24 12:50:00.323853	247.6	24.6	-77.0	0.0
2025-01-24 12:50:01.448022	247.9	24.7	-77.3	0.0
2025-01-24 12:50:02.570729	248.2	24.7	-77.4	0.0
2025-01-24 12:50:03.692311	248.5	24.8	-77.4	0.0
2025-01-24 12:50:04.815472	248.8	24.8	-77.3	0.0
2025-01-24 12:50:05.938340	249.1	24.9	-77.8	0.0
2025-01-24 12:50:07.063301	249.5	25.0	-75.9	0.0
2025-01-24 12:50:08.186929	249.8	25.0	-76.4	0.0
2025-01-24 12:50:09.311710	250.1	25.1	-76.6	0.0
2025-01-24 12:50:10.434538	250.4	25.1	-77.4	0.0
2025-01-24 12:50:11.556647	250.7	25.2	-77.6	0.0
2025-01-24 12:50:12.680208	251.0	25.2	-77.5	0.0
2025-01-24 12:50:13.803341	251.4	25.3	-75.9	0.0
2025-01-24 12:50:14.927506	251.7	25.3	-77.7	0.0
2025-01-24 12:50:16.050646	252.0	25.4	-77.0	0.0
2025-01-24 12:50:17.173942	252.3	25.4	-75.9	0.0
2025-01-24 12:50:18.297925	252.7	25.5	-74.3	0.0
2025-01-24 12:50:19.421891	253.0	25.5	-75.9	0.0
2025-01-24 12:50:20.545916	253.3	25.6	-77.8	0.0
2025-01-24 12:50:21.669155	253.6	25.6	-76.9	0.0
2025-01-24 12:50:22.791966	254.0	25.7	-76.5	0.0
2025-01-24 12:50:23.915277	254.3	25.7	-77.1	0.0
2025-01-24 12:50:25.036913	254.6	25.8	-77.5	0.0
2025-01-24 12:50:26.160079	254.9	25.8	-78.1	0.0
2025-01-24 12:50:27.282384	255.3	25.8	-78.0	0.0
2025-01-24 12:50:28.404169	255.6	25.9	-77.9	0.0
2025-01-24 12:50:29.524998	255.9	25.9	-78.3	0.0
2025-01-24 12:50:30.648120	256.3	26.0	-78.2	0.0
2025-01-24 12:50:31.772330	256.6	26.0	-78.3	0.0
2025-01-24 12:50:32.895033	257.0	26.0	-77.7	0.0
2025-01-24 12:50:34.016408	257.3	26.1	-77.3	0.0
2025-01-24 12:50:35.138552	257.6	26.1	-77.8	0.0
2025-01-24 12:50:36.259332	258.0	26.1	-76.9	0.0
2025-01-24 12:50:37.382846	258.3	26.2	-75.7	0.0
2025-01-24 12:50:38.503801	258.6	26.2	-74.8	0.0
2025-01-24 12:50:39.626538	259.0	26.2	-76.7	0.0
2025-01-24 12:50:40.749218	259.3	26.3	-78.0	0.0
2025-01-24 12:50:41.872060	259.7	26.3	-78.5	0.0
2025-01-24 12:50:42.994692	260.0	26.3	-78.6	0.0
2025-01-24 12:50:44.117552	260.3	26.4	-77.6	0.0
2025-01-24 12:50:45.238586	260.7	26.4	-77.9	0.0
2025-01-24 12:50:46.361920	261.0	26.4	-77.3	0.0
2025-01-24 12:50:47.484603	261.4	26.4	-77.9	0.0
2025-01-24 12:50:48.607050	261.7	26.5	-77.8	0.0
2025-01-24 12:50:49.730211	262.1	26.5	-77.9	0.0
2025-01-24 12:50:50.852916	262.4	26.5	-78.3	0.0
2025-01-24 12:50:51.974097	262.8	26.5	-77.5	0.0
2025-01-24 12:50:53.097406	263.1	26.5	-77.5	0.0
2025-01-24 12:50:54.220926	263.5	26.6	-77.5	0.0
2025-01-24 12:50:55.344438	263.8	26.6	-78.1	0.0
2025-01-24 12:50:56.466371	264.1	26.6	-76.9	0.0
2025-01-24 12:50:57.588016	264.5	26.6	-75.8	0.0
2025-01-24 12:50:58.712691	264.8	26.6	-75.4	0.0
2025-01-24 12:50:59.836936	265.2	26.6	-76.2	0.0
2025-01-24 12:51:00.958090	265.5	26.6	-78.3	0.0
2025-01-24 12:51:02.080899	265.9	26.6	-78.0	0.0
2025-01-24 12:51:03.204255	266.2	26.7	-78.0	0.0
2025-01-24 12:51:04.328015	266.6	26.7	-77.8	0.0
2025-01-24 12:51:05.451364	266.9	26.7	-77.7	0.0
2025-01-24 12:51:06.574223	267.3	26.7	-78.3	0.0
2025-01-24 12:51:07.697088	267.6	26.7	-78.2	0.0
2025-01-24 12:51:08.821075	268.0	26.7	-78.1	0.0
2025-01-24 12:51:09.946375	268.3	26.7	-78.3	0.0
2025-01-24 12:51:11.069666	268.7	26.7	-77.9	0.0
2025-01-24 12:51:12.191689	269.0	26.7	-78.3	0.0
2025-01-24 12:51:13.313069	269.4	26.7	-78.3	0.0
2025-01-24 12:51:14.436768	269.7	26.7	-78.1	0.0
2025-01-24 12:51:15.558712	270.1	26.7	-77.6	0.0
2025-01-24 12:51:16.681296	270.4	26.7	-76.8	0.0
2025-01-24 12:51:17.802631	270.8	26.7	-75.6	0.0
2025-01-24 12:51:18.923937	271.1	26.7	-75.4	0.0
2025-01-24 12:51:20.047441	271.5	26.6	-76.6	0.0
2025-01-24 12:51:21.170532	271.8	26.6	-78.0	0.0
2025-01-24 12:51:22.292622	272.2	26.6	-77.5	0.0
2025-01-24 12:51:23.416630	272.5	26.6	-78.4	0.0
2025-01-24 12:51:24.540800	272.9	26.6	-78.1	0.0
2025-01-24 12:51:25.662939	273.2	26.6	-77.8	0.0
2025-01-24 12:51:26.784646	273.6	26.6	-78.2	0.0
2025-01-24 12:51:27.907822	273.9	26.6	-78.3	0.0
2025-01-24 12:51:29.031690	274.3	26.5	-78.2	0.0
2025-01-24 12:51:30.155422	274.6	26.5	-78.5	0.0
2025-01-24 12:51:31.278192	275.0	26.5	-78.6	0.0
2025-01-24 12:51:32.402813	275.3	26.5	-78.3	0.0
2025-01-24 12:51:33.523643	275.6	26.5	-78.2	0.0
2025-01-24 12:51:34.645727	276.0	26.4	-78.2	0.0
2025-01-24 12:51:35.769618	276.3	26.4	-78.2	0.0
2025-01-24 12:51:36.891783	276.7	26.4	-77.3	0.0
2025-01-24 12:51:38.013693	277.0	26.4	-75.9	0.0
2025-01-24 12:51:39.136209	277.4	26.3	-75.5	0.0
2025-01-24 12:51:40.257344	277.7	26.3	-76.7	0.0
2025-01-24 12:51:41.380895	278.0	26.3	-78.2	0.0
2025-01-24 12:51:42.505252	278.4	26.3	-78.2	0.0
2025-01-24 12:51:43.626951	278.7	26.2	-78.0	0.0
2025-01-24 12:51:44.748719	279.1	26.2	-78.2	0.0
2025-01-24 12:51:45.871609	279.4	26.2	-78.2	0.0
2025-01-24 12:51:46.993682	279.7	26.1	-78.3	0.0
2025-01-24 12:51:48.114691	280.1	26.1	-78.3	0.0
2025-01-24 12:51:49.237889	280.4	26.1	-78.6	0.0
2025-01-24 12:51:50.359835	280.8	26.0	-78.2	0.0
2025-01-24 12:51:51.482815	281.1	26.0	-78.0	0.0
2025-01-24 12:51:52.605300	281.4	25.9	-78.4	0.0
2025-01-24 12:51:53.730541	281.8	25.9	-77.9	0.0
2025-01-24 12:51:54.853076	282.1	25.9	-77.9	0.0
2025-01-24 12:51:55.973382	282.4	25.8	-77.7	0.0
2025-01-24 12:51:57.098155	282.7	25.8	-77.6	0.0
2025-01-24 12:51:58.222187	283.1	25.7	-76.0	0.0
2025-01-24 12:51:59.346426	283.4	25.7	-75.3	0.0
2025-01-24 12:52:00.470675	283.7	25.6	-77.1	0.0
2025-01-24 12:52:01.590243	284.1	25.6	-78.6	0.0
2025-01-24 12:52:02.714592	284.4	25.6	-78.3	0.0
2025-01-24 12:52:03.837378	284.7	25.5	-78.3	0.0
2025-01-24 12:52:04.960489	285.0	25.5	-78.1	0.0
2025-01-24 12:52:06.083481	285.4	25.4	-78.2	0.0
2025-01-24 12:52:07.208926	285.7	25.4	-78.4	0.0
2025-01-24 12:52:08.332475	286.0	25.3	-78.4	0.0
2025-01-24 12:52:09.454207	286.3	25.3	-78.5	0.0
2025-01-24 12:52:10.578288	286.6	25.2	-77.4	0.0
2025-01-24 12:52:11.701501	287.0	25.1	-78.3	0.0
2025-01-24 12:52:12.823259	287.3	25.1	-77.9	0.0
2025-01-24 12:52:13.947046	287.6	25.0	-78.3	0.0
2025-01-24 12:52:15.071074	287.9	25.0	-78.4	0.0
2025-01-24 12:52:16.196251	288.2	24.9	-78.5	0.0
2025-01-24 12:52:17.318691	288.5	24.9	-77.2	0.0
2025-01-24 12:52:18.440719	288.8	24.8	-75.6	0.0
2025-01-24 12:52:19.561762	289.2	24.7	-76.3	0.0
2025-01-24 12:52:20.684929	289.5	24.7	-76.8	0.0
2025-01-24 12:52:21.809618	289.8	24.6	-78.4	0.0
2025-01-24 12:52:22.931854	290.1	24.6	-78.9	0.0
2025-01-24 12:52:24.054050	290.4	24.5	-78.3	0.0
2025-01-24 12:52:25.178905	290.7	24.4	-78.3	0.0
2025-01-24 12:52:26.300899	291.0	24.4	-78.6	0.0
2025-01-24 12:52:27.423135	291.3	24.3	-78.0	0.0
2025-01-24 12:52:28.547310	291.6	24.2	-78.3	0.0
2025-01-24 12:52:29.670068	291.9	24.2	-77.8	0.0
2025-01-24 12:52:30.790712	292.2	24.1	-77.7	0.0
2025-01-24 12:52:31.914244	292.5	24.1	-77.3	0.0
2025-01-24 12:52:33.036542	292.8	24.0	-76.9	0.0
2025-01-24 12:52:34.158821	293.1	23.9	-77.7	0.0
2025-01-24 12:52:35.281357	293.4	23.8	-77.8	0.0
2025-01-24 12:52:36.403661	293.7	23.8	-78.1	0.0
2025-01-24 12:52:37.525381	294.0	23.7	-77.3	0.0
2025-01-24 12:52:38.648262	294.2	23.6	-75.7	0.0
2025-01-24 12:52:39.771247	294.5	23.6	-75.4	0.0
2025-01-24 12:52:40.896516	294.8	23.5	-76.3	0.0
2025-01-24 12:52:42.018698	295.1	23.4	-77.9	0.0
2025-01-24 12:52:43.141601	295.4	23.4	-77.9	0.0
2025-01-24 12:52:44.264051	295.7	23.3	-78.0	0.0
2025-01-24 12:52:45.386931	296.0	23.2	-78.2	0.0
2025-01-24 12:52:46.509276	296.2	23.1	-78.3	0.0
2025-01-24 12:52:47.631911	296.5	23.1	-78.2	0.0
2025-01-24 12:52:48.755298	296.8	23.0	-78.0	0.0
2025-01-24 12:52:49.876263	297.1	22.9	-78.2	0.0
2025-01-24 12:52:50.997996	297.3	22.8	-78.1	0.0
2025-01-24 12:52:52.120998	297.6	22.8	-78.2	0.0
2025-01-24 12:52:53.243980	297.9	22.7	-78.1	0.0
2025-01-24 12:52:54.366266	298.2	22.6	-77.1	0.0
2025-01-24 12:52:55.491008	298.4	22.5	-77.6	0.0
2025-01-24 12:52:56.615753	298.7	22.5	-77.9	0.0
2025-01-24 12:52:57.737280	299.0	22.4	-77.9	0.0
2025-01-24 12:52:58.859080	299.2	22.3	-76.5	0.0
2025-01-24 12:52:59.983284	299.5	22.2	-75.9	0.0
2025-01-24 12:53:01.104476	299.8	22.1	-76.7	0.0
2025-01-24 12:53:02.225500	300.0	22.1	-78.7	0.0
2025-01-24 12:53:03.349496	300.3	22.0	-77.9	0.0
2025-01-24 12:53:04.473255	300.5	21.9	-78.3	0.0
2025-01-24 12:53:05.594449	300.8	21.8	-78.5	0.0
2025-01-24 12:53:06.718230	301.1	21.7	-78.4	0.0
2025-01-24 12:53:07.839421	301.3	21.7	-78.5	0.0
2025-01-24 12:53:08.962527	301.6	21.6	-77.8	0.0
2025-01-24 12:53:10.085262	301.8	21.5	-78.0	0.0
2025-01-24 12:53:11.208021	302.1	21.4	-78.3	0.0
2025-01-24 12:53:12.332627	302.3	21.3	-78.1	0.0
2025-01-24 12:53:13.453275	302.6	21.2	-77.9	0.0
2025-01-24 12:53:14.578255	302.8	21.2	-78.1	0.0
2025-01-24 12:53:15.698547	303.1	21.1	-78.0	0.0
2025-01-24 12:53:16.821401	303.3	21.0	-78.3	0.0
2025-01-24 12:53:17.942859	303.6	20.9	-77.0	0.0
2025-01-24 12:53:19.065371	303.8	20.8	-76.1	0.0
2025-01-24 12:53:20.185867	304.0	20.7	-75.8	0.0
2025-01-24 12:53:21.308257	304.3	20.7	-76.6	0.0
2025-01-24 12:53:22.430759	304.5	20.6	-78.3	0.0
2025-01-24 12:53:23.554310	304.8	20.5	-78.1	0.0
2025-01-24 12:53:24.678388	305.0	20.4	-78.2	0.0
2025-01-24 12:53:25.800788	305.2	20.3	-78.3	0.0
2025-01-24 12:53:26.921522	305.5	20.2	-78.6	0.0
2025-01-24 12:53:28.045756	305.7	20.2	-78.0	0.0
2025-01-24 12:53:29.166864	305.9	20.1	-77.8	0.0
2025-01-24 12:53:30.289935	306.1	20.0	-78.2	0.0
2025-01-24 12:53:31.410605	306.4	19.9	-78.2	0.0
2025-01-24 12:53:32.533130	306.6	19.8	-78.1	0.0
2025-01-24 12:53:33.656940	306.8	19.7	-78.3	0.0
2025-01-24 12:53:34.780273	307.1	19.6	-78.2	0.0
2025-01-24 12:53:35.902182	307.3	19.6	-78.2	0.0
2025-01-24 12:53:37.024499	307.5	19.5	-78.5	0.0
2025-01-24 12:53:38.145420	307.7	19.4	-77.8	0.0
2025-01-24 12:53:39.269352	307.9	19.3	-76.0	0.0
2025-01-24 12:53:40.391084	308.2	19.2	-75.6	0.0
2025-01-24 12:53:41.514201	308.4	19.1	-76.4	0.0
2025-01-24 12:53:42.637132	308.6	19.0	-77.1	0.0
2025-01-24 12:53:43.758179	308.8	18.9	-77.0	0.0
2025-01-24 12:53:44.880741	309.0	18.9	-77.8	0.0
2025-01-24 12:53:46.001726	309.2	18.8	-77.0	0.0
2025-01-24 12:53:47.123832	309.4	18.7	-78.1	0.0
2025-01-24 12:53:48.247151	309.7	18.6	-78.3	0.0
2025-01-24 12:53:49.369343	309.9	18.5	-78.4	0.0
2025-01-24 12:53:50.491912	310.1	18.4	-77.9	0.0
2025-01-24 12:53:51.615377	310.3	18.3	-77.8	0.0
2025-01-24 12:53:52.737235	310.5	18.2	-77.7	0.0
2025-01-24 12:53:53.858447	310.7	18.2	-77.6	0.0
2025-01-24 12:53:54.982778	310.9	18.1	-77.7	0.0
2025-01-24 12:53:56.107037	311.1	18.0	-77.2	0.0
2025-01-24 12:53:57.229679	311.3	17.9	-77.9	0.0
2025-01-24 12:53:58.353042	311.5	17.8	-76.8	0.0
2025-01-24 12:53:59.476854	311.7	17.7	-75.9	0.0
2025-01-24 12:54:00.600626	311.9	17.6	-74.7	0.0
2025-01-24 12:54:01.723902	312.1	17.5	-75.4	0.0
2025-01-24 12:54:02.845511	312.3	17.5	-77.8	0.0
2025-01-24 12:54:03.968300	312.5	17.4	-77.4	0.0
2025-01-24 12:54:05.088514	312.7	17.3	-78.2	0.0
2025-01-24 12:54:06.212257	312.9	17.2	-77.9	0.0
2025-01-24 12:54:07.334046	313.0	17.1	-77.6	0.0
2025-01-24 12:54:08.456893	313.2	17.0	-77.7	0.0
2025-01-24 12:54:09.579217	313.4	16.9	-78.0	0.0
2025-01-24 12:54:10.702667	313.6	16.8	-78.1	0.0
2025-01-24 12:54:11.824849	313.8	16.8	-78.0	0.0
2025-01-24 12:54:12.948786	314.0	16.7	-78.0	0.0
2025-01-24 12:54:14.070490	314.2	16.6	-78.2	0.0
2025-01-24 12:54:15.194503	314.4	16.5	-78.4	0.0
2025-01-24 12:54:16.318576	314.5	16.4	-78.3	0.0
2025-01-24 12:54:17.440808	314.7	16.3	-78.3	0.0
2025-01-24 12:54:18.565311	314.9	16.2	-77.8	0.0
2025-01-24 12:54:19.687777	315.1	16.1	-76.3	0.0
2025-01-24 12:54:20.811363	315.3	16.1	-75.7	0.0
2025-01-24 12:54:21.933432	315.4	16.0	-75.2	0.0
2025-01-24 12:54:23.057913	315.6	15.9	-78.0	0.0
2025-01-24 12:54:24.180420	315.8	15.8	-78.0	0.0
2025-01-24 12:54:25.302047	316.0	15.7	-77.7	0.0
2025-01-24 12:54:26.423659	316.1	15.6	-78.1	0.0
2025-01-24 12:54:27.546185	316.3	15.5	-78.2	0.0
2025-01-24 12:54:28.668545	316.5	15.4	-78.1	0.0
2025-01-24 12:54:29.791551	316.6	15.4	-77.3	0.0
2025-01-24 12:54:30.913912	316.8	15.3	-77.7	0.0
2025-01-24 12:54:32.036199	317.0	15.2	-78.2	0.0
2025-01-24 12:54:33.156711	317.2	15.1	-78.1	0.0
2025-01-24 12:54:34.278271	317.3	15.0	-77.4	0.0
2025-01-24 12:54:35.399207	317.5	14.9	-77.9	0.0
2025-01-24 12:54:36.521493	317.6	14.8	-78.2	0.0
2025-01-24 12:54:37.643573	317.8	14.8	-78.4	0.0
2025-01-24 12:54:38.768437	318.0	14.7	-75.9	0.0
2025-01-24 12:54:39.891528	318.1	14.6	-75.0	0.0
2025-01-24 12:54:41.014889	318.3	14.5	-74.6	0.0
2025-01-24 12:54:42.135741	318.5	14.4	-76.3	0.0
2025-01-24 12:54:43.256601	318.6	14.3	-78.2	0.0
2025-01-24 12:54:44.380225	318.8	14.2	-78.1	0.0
2025-01-24 12:54:45.502862	318.9	14.2	-78.4	0.0
2025-01-24 12:54:46.624549	319.1	14.1	-78.5	0.0
2025-01-24 12:54:47.748214	319.2	14.0	-78.5	0.0
2025-01-24 12:54:48.872829	319.4	13.9	-78.7	0.0
2025-01-24 12:54:49.994738	319.6	13.8	-77.7	0.0
2025-01-24 12:54:51.119214	319.7	13.7	-78.3	0.0
2025-01-24 12:54:52.240232	319.9	13.7	-78.4	0.0
2025-01-24 12:54:53.364578	320.0	13.6	-78.4	0.0
2025-01-24 12:54:54.488035	320.2	13.5	-77.8	0.0
2025-01-24 12:54:55.610762	320.3	13.4	-78.2	0.0
2025-01-24 12:54:56.732922	320.5	13.3	-78.2	0.0
2025-01-24 12:54:57.855905	320.6	13.2	-78.5	0.0
2025-01-24 12:54:58.980688	320.8	13.1	-77.8	0.0
2025-01-24 12:55:00.102293	320.9	13.1	-76.5	0.0
2025-01-24 12:55:01.225780	321.1	13.0	-75.3	0.0
2025-01-24 12:55:02.350878	321.2	12.9	-76.2	0.0
2025-01-24 12:55:03.473129	321.3	12.8	-78.6	0.0
2025-01-24 12:55:04.595730	321.5	12.7	-78.8	0.0
2025-01-24 12:55:05.719577	321.6	12.6	-78.9	0.0
2025-01-24 12:55:06.843118	321.8	12.6	-78.4	0.0
2025-01-24 12:55:07.966108	321.9	12.5	-78.4	0.0
2025-01-24 12:55:09.087160	322.1	12.4	-78.2	0.0
2025-01-24 12:55:10.211111	322.2	12.3	-78.8	0.0
2025-01-24 12:55:11.333531	322.3	12.2	-78.6	0.0
2025-01-24 12:55:12.454183	322.5	12.1	-78.6	0.0
2025-01-24 12:55:13.575117	322.6	12.1	-78.2	0.0
2025-01-24 12:55:14.696239	322.7	12.0	-78.2	0.0
2025-01-24 12:55:15.818521	322.9	11.9	-78.1	0.0
2025-01-24 12:55:16.940366	323.0	11.8	-78.2	0.0
2025-01-24 12:55:18.063720	323.1	11.7	-78.6	0.0
2025-01-24 12:55:19.186676	323.3	11.7	-77.5	0.0
2025-01-24 12:55:20.311043	323.4	11.6	-75.6	0.0
2025-01-24 12:55:21.431555	323.5	11.5	-75.5	0.0
2025-01-24 12:55:22.553725	323.7	11.4	-76.4	0.0
2025-01-24 12:55:23.675838	323.8	11.3	-78.5	0.0
2025-01-24 12:55:24.797425	323.9	11.3	-78.3	0.0
2025-01-24 12:55:25.920351	324.1	11.2	-78.3	0.0
2025-01-24 12:55:27.045094	324.2	11.1	-77.9	0.0
2025-01-24 12:55:28.166848	324.3	11.0	-78.2	0.0
2025-01-24 12:55:29.289764	324.5	10.9	-78.0	0.0
2025-01-24 12:55:30.413689	324.6	10.8	-78.5	0.0
2025-01-24 12:55:31.536521	324.7	10.8	-78.5	0.0
2025-01-24 12:55:32.658418	324.8	10.7	-78.3	0.0
2025-01-24 12:55:33.780861	325.0	10.6	-78.5	0.0
2025-01-24 12:55:34.903571	325.1	10.5	-78.5	0.0
2025-01-24 12:55:36.025366	325.2	10.5	-78.2	0.0
2025-01-24 12:55:37.148574	325.3	10.4	-77.6	0.0
2025-01-24 12:55:38.269827	325.4	10.3	-78.1	0.0
2025-01-24 12:55:39.394482	325.6	10.2	-76.6	0.0
2025-01-24 12:55:40.516109	325.7	10.1	-75.2	0.0
2025-01-24 12:55:41.637946	325.8	10.1	-74.7	0.0
#Closed at: 2025-01-24 12:46:36.678384