passes_logs/2025/01/24/planumMaritime01/planumMaritime01__20250124_062713_METEOR-M2_3_rec.log

#Pass ID: 20250124_062713_METEOR-M2 3
#Satellite: METEOR-M2 3
#Configuration: METEOR-M2 3
#Start time: 2025-01-24 06:27:18.720261

#LorettStation: 1.0.0 05.05.2024
#Station: planumMaritime01
#Location: 37.49445 lon 55.92918 lat
#TLE: 1 57166U 23091A   25023.82634034  .00000085  00000+0  56339-4 0  9994
#TLE: 2 57166  98.6836  82.1812 0003643 195.3672 164.7397 14.23971493 82020

#Time	Az	El	Level	SNR
2025-01-24 06:27:20.884655	30.5	10.2	-76.5	0.0
2025-01-24 06:27:22.008182	30.6	10.3	-77.3	0.0
2025-01-24 06:27:23.133738	30.7	10.3	-77.0	0.0
2025-01-24 06:27:24.257176	30.8	10.4	-77.0	0.0
2025-01-24 06:27:25.380298	30.9	10.5	-77.3	0.0
2025-01-24 06:27:26.502757	31.0	10.6	-76.6	0.0
2025-01-24 06:27:27.625152	31.1	10.7	-76.6	0.0
2025-01-24 06:27:28.745602	31.2	10.8	-77.0	0.0
2025-01-24 06:27:29.868754	31.3	10.9	-77.3	0.0
2025-01-24 06:27:30.991985	31.4	10.9	-76.9	0.0
2025-01-24 06:27:32.116481	31.5	11.0	-76.8	0.0
2025-01-24 06:27:33.237058	31.6	11.1	-77.3	0.0
2025-01-24 06:27:34.360464	31.8	11.2	-77.5	0.0
2025-01-24 06:27:35.485384	31.9	11.3	-77.6	0.0
2025-01-24 06:27:36.608201	32.0	11.4	-77.2	0.0
2025-01-24 06:27:37.731595	32.1	11.5	-77.8	0.0
2025-01-24 06:27:38.855440	32.2	11.6	-77.3	0.0
2025-01-24 06:27:39.977803	32.3	11.7	-77.6	0.0
2025-01-24 06:27:41.103425	32.4	11.7	-77.2	0.0
2025-01-24 06:27:42.224972	32.5	11.8	-77.5	0.0
2025-01-24 06:27:43.348434	32.6	11.9	-77.8	0.0
2025-01-24 06:27:44.475101	32.7	12.0	-77.3	0.0
2025-01-24 06:27:45.597194	32.9	12.1	-77.6	0.0
2025-01-24 06:27:46.723322	33.0	12.2	-77.4	0.0
2025-01-24 06:27:47.845707	33.1	12.3	-77.7	0.0
2025-01-24 06:27:48.969164	33.2	12.4	-78.0	0.0
2025-01-24 06:27:50.091287	33.3	12.5	-77.2	0.0
2025-01-24 06:27:51.213718	33.4	12.6	-77.8	0.0
2025-01-24 06:27:52.336308	33.6	12.7	-78.0	0.0
2025-01-24 06:27:53.461392	33.7	12.7	-77.3	0.0
2025-01-24 06:27:54.585139	33.8	12.8	-77.6	0.0
2025-01-24 06:27:55.705766	33.9	12.9	-77.3	0.0
2025-01-24 06:27:56.828905	34.0	13.0	-77.3	0.0
2025-01-24 06:27:57.951729	34.2	13.1	-77.3	0.0
2025-01-24 06:27:59.073261	34.3	13.2	-77.3	0.0
2025-01-24 06:28:00.195936	34.4	13.3	-77.6	0.0
2025-01-24 06:28:01.318691	34.5	13.4	-77.3	0.0
2025-01-24 06:28:02.443510	34.7	13.5	-77.6	0.0
2025-01-24 06:28:03.566546	34.8	13.6	-77.2	0.0
2025-01-24 06:28:04.689277	34.9	13.7	-77.6	0.0
2025-01-24 06:28:05.812895	35.0	13.8	-77.7	0.0
2025-01-24 06:28:06.934437	35.2	13.9	-77.4	0.0
2025-01-24 06:28:08.055931	35.3	14.0	-77.5	0.0
2025-01-24 06:28:09.178588	35.4	14.1	-77.4	0.0
2025-01-24 06:28:10.301972	35.6	14.2	-77.5	0.0
2025-01-24 06:28:11.424246	35.7	14.3	-77.4	0.0
2025-01-24 06:28:12.544545	35.8	14.4	-77.6	0.0
2025-01-24 06:28:13.667598	36.0	14.5	-77.0	0.0
2025-01-24 06:28:14.793633	36.1	14.6	-77.7	0.0
2025-01-24 06:28:15.917579	36.2	14.6	-77.6	0.0
2025-01-24 06:28:17.040467	36.4	14.7	-77.7	0.0
2025-01-24 06:28:18.163661	36.5	14.8	-77.5	0.0
2025-01-24 06:28:19.286664	36.6	14.9	-77.8	0.0
2025-01-24 06:28:20.409740	36.8	15.0	-77.5	0.0
2025-01-24 06:28:21.531806	36.9	15.1	-77.5	0.0
2025-01-24 06:28:22.653954	37.0	15.2	-77.4	0.0
2025-01-24 06:28:23.777313	37.2	15.3	-77.7	0.0
2025-01-24 06:28:24.900360	37.3	15.4	-77.7	0.0
2025-01-24 06:28:26.022922	37.5	15.5	-77.9	0.0
2025-01-24 06:28:27.146396	37.6	15.6	-77.6	0.0
2025-01-24 06:28:28.269715	37.8	15.7	-77.8	0.0
2025-01-24 06:28:29.393753	37.9	15.8	-77.9	0.0
2025-01-24 06:28:30.519077	38.1	15.9	-77.3	0.0
2025-01-24 06:28:31.643472	38.2	16.0	-77.3	0.0
2025-01-24 06:28:32.767119	38.3	16.1	-77.9	0.0
2025-01-24 06:28:33.892763	38.5	16.2	-77.6	0.0
2025-01-24 06:28:35.015963	38.6	16.3	-77.8	0.0
2025-01-24 06:28:36.137964	38.8	16.4	-77.9	0.0
2025-01-24 06:28:37.260053	39.0	16.6	-77.4	0.0
2025-01-24 06:28:38.384945	39.1	16.7	-77.9	0.0
2025-01-24 06:28:39.508796	39.3	16.8	-77.7	0.0
2025-01-24 06:28:40.632465	39.4	16.9	-77.6	0.0
2025-01-24 06:28:41.756549	39.6	17.0	-77.3	0.0
2025-01-24 06:28:42.879136	39.7	17.1	-76.9	0.0
2025-01-24 06:28:44.000853	39.9	17.2	-77.4	0.0
2025-01-24 06:28:45.123246	40.0	17.3	-77.5	0.0
2025-01-24 06:28:46.247723	40.2	17.4	-77.7	0.0
2025-01-24 06:28:47.371577	40.4	17.5	-77.4	0.0
2025-01-24 06:28:48.495166	40.5	17.6	-77.6	0.0
2025-01-24 06:28:49.618639	40.7	17.7	-77.2	0.0
2025-01-24 06:28:50.740336	40.9	17.8	-77.4	0.0
2025-01-24 06:28:51.861683	41.0	17.9	-77.7	0.0
2025-01-24 06:28:52.984992	41.2	18.0	-77.7	0.0
2025-01-24 06:28:54.105901	41.4	18.1	-77.7	0.0
2025-01-24 06:28:55.229994	41.5	18.2	-77.4	0.0
2025-01-24 06:28:56.352850	41.7	18.3	-77.1	0.0
2025-01-24 06:28:57.474084	41.9	18.4	-77.5	0.0
2025-01-24 06:28:58.596230	42.1	18.5	-77.5	0.0
2025-01-24 06:28:59.718887	42.2	18.6	-77.4	0.0
2025-01-24 06:29:00.839258	42.4	18.8	-77.7	0.0
2025-01-24 06:29:01.961342	42.6	18.9	-77.5	0.0
2025-01-24 06:29:03.083372	42.8	19.0	-77.9	0.0
2025-01-24 06:29:04.207454	42.9	19.1	-77.9	0.0
2025-01-24 06:29:05.328136	43.1	19.2	-77.5	0.0
2025-01-24 06:29:06.450736	43.3	19.3	-78.0	0.0
2025-01-24 06:29:07.573214	43.5	19.4	-77.8	0.0
2025-01-24 06:29:08.697099	43.7	19.5	-77.6	0.0
2025-01-24 06:29:09.820217	43.9	19.6	-77.5	0.0
2025-01-24 06:29:10.942552	44.0	19.7	-77.2	0.0
2025-01-24 06:29:12.065129	44.2	19.8	-77.7	0.0
2025-01-24 06:29:13.188546	44.4	19.9	-77.6	0.0
2025-01-24 06:29:14.312942	44.6	20.1	-77.6	0.0
2025-01-24 06:29:15.438832	44.8	20.2	-78.3	0.0
2025-01-24 06:29:16.560567	45.0	20.3	-78.2	0.0
2025-01-24 06:29:17.682808	45.2	20.4	-78.0	0.0
2025-01-24 06:29:18.805460	45.4	20.5	-77.5	0.0
2025-01-24 06:29:19.930105	45.6	20.6	-77.6	0.0
2025-01-24 06:29:21.054581	45.8	20.7	-77.9	0.0
2025-01-24 06:29:22.177122	46.0	20.8	-77.8	0.0
2025-01-24 06:29:23.299396	46.2	20.9	-77.4	0.0
2025-01-24 06:29:24.423447	46.4	21.1	-77.3	0.0
2025-01-24 06:29:25.545755	46.6	21.2	-77.9	0.0
2025-01-24 06:29:26.667723	46.8	21.3	-77.7	0.0
2025-01-24 06:29:27.791257	47.0	21.4	-77.5	0.0
2025-01-24 06:29:28.914788	47.2	21.5	-77.8	0.0
2025-01-24 06:29:30.037402	47.4	21.6	-78.4	0.0
2025-01-24 06:29:31.158950	47.6	21.7	-77.9	0.0
2025-01-24 06:29:32.281983	47.9	21.8	-78.0	0.0
2025-01-24 06:29:33.402442	48.1	21.9	-77.7	0.0
2025-01-24 06:29:34.523574	48.3	22.1	-78.0	0.0
2025-01-24 06:29:35.647963	48.5	22.2	-77.4	0.0
2025-01-24 06:29:36.771486	48.7	22.3	-77.5	0.0
2025-01-24 06:29:37.892612	48.9	22.4	-77.6	0.0
2025-01-24 06:29:39.017153	49.2	22.5	-77.9	0.0
2025-01-24 06:29:40.140602	49.4	22.6	-78.0	0.0
2025-01-24 06:29:41.263194	49.6	22.7	-78.0	0.0
2025-01-24 06:29:42.386977	49.8	22.8	-77.9	0.0
2025-01-24 06:29:43.509820	50.1	23.0	-78.0	0.0
2025-01-24 06:29:44.634877	50.3	23.1	-77.5	0.0
2025-01-24 06:29:45.757388	50.5	23.2	-77.8	0.0
2025-01-24 06:29:46.879548	50.8	23.3	-77.8	0.0
2025-01-24 06:29:48.002253	51.0	23.4	-78.0	0.0
2025-01-24 06:29:49.124497	51.3	23.5	-77.8	0.0
2025-01-24 06:29:50.247335	51.5	23.6	-78.1	0.0
2025-01-24 06:29:51.366862	51.7	23.8	-78.0	0.0
2025-01-24 06:29:52.491791	52.0	23.9	-77.7	0.0
2025-01-24 06:29:53.613131	52.2	24.0	-77.3	0.0
2025-01-24 06:29:54.736109	52.5	24.1	-77.8	0.0
2025-01-24 06:29:55.859934	52.7	24.2	-77.7	0.0
2025-01-24 06:29:56.982699	53.0	24.3	-77.9	0.0
2025-01-24 06:29:58.104900	53.2	24.4	-77.9	0.0
2025-01-24 06:29:59.226638	53.5	24.5	-77.7	0.0
2025-01-24 06:30:00.349531	53.7	24.7	-78.3	0.0
2025-01-24 06:30:01.475214	54.0	24.8	-78.2	0.0
2025-01-24 06:30:02.600554	54.2	24.9	-78.1	0.0
2025-01-24 06:30:03.724780	54.5	25.0	-77.9	0.0
2025-01-24 06:30:04.846907	54.8	25.1	-77.8	0.0
2025-01-24 06:30:05.970916	55.0	25.2	-77.5	0.0
2025-01-24 06:30:07.092781	55.3	25.3	-77.4	0.0
2025-01-24 06:30:08.214949	55.6	25.4	-77.9	0.0
2025-01-24 06:30:09.337255	55.8	25.6	-77.9	0.0
2025-01-24 06:30:10.461817	56.1	25.7	-77.4	0.0
2025-01-24 06:30:11.584669	56.4	25.8	-78.1	0.0
2025-01-24 06:30:12.706755	56.7	25.9	-77.7	0.0
2025-01-24 06:30:13.828957	56.9	26.0	-78.0	0.0
2025-01-24 06:30:14.952642	57.2	26.1	-77.8	0.0
2025-01-24 06:30:16.075383	57.5	26.2	-77.6	0.0
2025-01-24 06:30:17.197797	57.8	26.3	-77.7	0.0
2025-01-24 06:30:18.320497	58.1	26.4	-77.7	0.0
2025-01-24 06:30:19.443537	58.4	26.5	-77.3	0.0
2025-01-24 06:30:20.567080	58.6	26.7	-78.1	0.0
2025-01-24 06:30:21.690023	58.9	26.8	-77.9	0.0
2025-01-24 06:30:22.813783	59.2	26.9	-77.8	0.0
2025-01-24 06:30:23.936864	59.5	27.0	-78.0	0.0
2025-01-24 06:30:25.059904	59.8	27.1	-77.9	0.0
2025-01-24 06:30:26.183194	60.1	27.2	-78.2	0.0
2025-01-24 06:30:27.304384	60.4	27.3	-78.0	0.0
2025-01-24 06:30:28.429013	60.7	27.4	-77.9	0.0
2025-01-24 06:30:29.551777	61.0	27.5	-77.5	0.0
2025-01-24 06:30:30.674647	61.3	27.6	-77.9	0.0
2025-01-24 06:30:31.796450	61.6	27.7	-77.9	0.0
2025-01-24 06:30:32.922011	62.0	27.8	-77.7	0.0
2025-01-24 06:30:34.044113	62.3	27.9	-77.3	0.0
2025-01-24 06:30:35.168030	62.6	28.0	-77.4	0.0
2025-01-24 06:30:36.291478	62.9	28.1	-77.5	0.0
2025-01-24 06:30:37.414113	63.2	28.2	-77.7	0.0
2025-01-24 06:30:38.535754	63.5	28.3	-77.7	0.0
2025-01-24 06:30:39.659077	63.9	28.4	-77.4	0.0
2025-01-24 06:30:40.783078	64.2	28.5	-77.6	0.0
2025-01-24 06:30:41.906612	64.5	28.6	-77.6	0.0
2025-01-24 06:30:43.028874	64.9	28.7	-77.8	0.0
2025-01-24 06:30:44.153351	65.2	28.8	-77.2	0.0
2025-01-24 06:30:45.276989	65.5	28.9	-77.6	0.0
2025-01-24 06:30:46.398386	65.9	29.0	-77.7	0.0
2025-01-24 06:30:47.519775	66.2	29.1	-77.7	0.0
2025-01-24 06:30:48.640788	66.5	29.2	-77.9	0.0
2025-01-24 06:30:49.763427	66.9	29.3	-77.6	0.0
2025-01-24 06:30:50.884014	67.2	29.4	-77.7	0.0
2025-01-24 06:30:52.007305	67.6	29.5	-78.1	0.0
2025-01-24 06:30:53.128797	67.9	29.6	-78.3	0.0
2025-01-24 06:30:54.252425	68.3	29.7	-78.5	0.0
2025-01-24 06:30:55.376087	68.6	29.8	-77.5	0.0
2025-01-24 06:30:56.501260	69.0	29.9	-77.8	0.0
2025-01-24 06:30:57.624022	69.3	30.0	-78.5	0.0
2025-01-24 06:30:58.748400	69.7	30.1	-78.2	0.0
2025-01-24 06:30:59.869737	70.0	30.1	-78.1	0.0
2025-01-24 06:31:00.992707	70.4	30.2	-77.3	0.0
2025-01-24 06:31:02.114782	70.8	30.3	-78.0	0.0
2025-01-24 06:31:03.238126	71.1	30.4	-77.2	0.0
2025-01-24 06:31:04.360564	71.5	30.5	-77.6	0.0
2025-01-24 06:31:05.486336	71.9	30.6	-77.9	0.0
2025-01-24 06:31:06.612238	72.2	30.7	-78.0	0.0
2025-01-24 06:31:07.736785	72.6	30.7	-78.2	0.0
2025-01-24 06:31:08.859383	73.0	30.8	-77.9	0.0
2025-01-24 06:31:09.983512	73.4	30.9	-78.1	0.0
2025-01-24 06:31:11.106884	73.7	31.0	-77.7	0.0
2025-01-24 06:31:12.232523	74.1	31.0	-78.0	0.0
2025-01-24 06:31:13.356271	74.5	31.1	-77.3	0.0
2025-01-24 06:31:14.479817	74.9	31.2	-77.7	0.0
2025-01-24 06:31:15.601359	75.3	31.3	-78.1	0.0
2025-01-24 06:31:16.722659	75.7	31.3	-77.8	0.0
2025-01-24 06:31:17.845533	76.0	31.4	-78.3	0.0
2025-01-24 06:31:18.968443	76.4	31.5	-78.3	0.0
2025-01-24 06:31:20.090246	76.8	31.5	-78.2	0.0
2025-01-24 06:31:21.214157	77.2	31.6	-78.5	0.0
2025-01-24 06:31:22.338190	77.6	31.7	-78.4	0.0
2025-01-24 06:31:23.460739	78.0	31.7	-78.3	0.0
2025-01-24 06:31:24.584453	78.4	31.8	-78.3	0.0
2025-01-24 06:31:25.706394	78.8	31.9	-77.9	0.0
2025-01-24 06:31:26.828924	79.2	31.9	-78.1	0.0
2025-01-24 06:31:27.950290	79.6	32.0	-78.4	0.0
2025-01-24 06:31:29.071412	80.0	32.0	-78.2	0.0
2025-01-24 06:31:30.193255	80.4	32.1	-78.2	0.0
2025-01-24 06:31:31.315145	80.8	32.2	-78.2	0.0
2025-01-24 06:31:32.435139	81.2	32.2	-77.8	0.0
2025-01-24 06:31:33.559956	81.7	32.3	-77.7	0.0
2025-01-24 06:31:34.680805	82.1	32.3	-77.9	0.0
2025-01-24 06:31:35.801937	82.5	32.4	-77.7	0.0
2025-01-24 06:31:36.926965	82.9	32.4	-77.8	0.0
2025-01-24 06:31:38.051508	83.3	32.4	-77.8	0.0
2025-01-24 06:31:39.172879	83.7	32.5	-77.4	0.0
2025-01-24 06:31:40.296959	84.1	32.5	-77.1	0.0
2025-01-24 06:31:41.418698	84.6	32.6	-77.7	0.0
2025-01-24 06:31:42.542250	85.0	32.6	-76.9	0.0
2025-01-24 06:31:43.663952	85.4	32.6	-77.8	0.0
2025-01-24 06:31:44.784728	85.8	32.7	-77.6	0.0
2025-01-24 06:31:45.907042	86.2	32.7	-77.8	0.0
2025-01-24 06:31:47.030844	86.7	32.7	-77.4	0.0
2025-01-24 06:31:48.154455	87.1	32.8	-77.8	0.0
2025-01-24 06:31:49.276778	87.5	32.8	-77.8	0.0
2025-01-24 06:31:50.398393	87.9	32.8	-78.1	0.0
2025-01-24 06:31:51.520202	88.4	32.9	-78.1	0.0
2025-01-24 06:31:52.643358	88.8	32.9	-77.6	0.0
2025-01-24 06:31:53.766550	89.2	32.9	-77.9	0.0
2025-01-24 06:31:54.889380	89.6	32.9	-77.3	0.0
2025-01-24 06:31:56.014097	90.1	32.9	-77.5	0.0
2025-01-24 06:31:57.135295	90.5	33.0	-77.7	0.0
2025-01-24 06:31:58.259565	90.9	33.0	-77.9	0.0
2025-01-24 06:31:59.382312	91.4	33.0	-77.5	0.0
2025-01-24 06:32:00.504682	91.8	33.0	-77.7	0.0
2025-01-24 06:32:01.627179	92.2	33.0	-77.8	0.0
2025-01-24 06:32:02.750650	92.6	33.0	-78.4	0.0
2025-01-24 06:32:03.872114	93.1	33.0	-78.0	0.0
2025-01-24 06:32:04.993734	93.5	33.0	-77.9	0.0
2025-01-24 06:32:06.116433	93.9	33.0	-78.2	0.0
2025-01-24 06:32:07.238654	94.4	33.0	-78.3	0.0
2025-01-24 06:32:08.361235	94.8	33.0	-77.9	0.0
2025-01-24 06:32:09.483897	95.2	33.0	-78.1	0.0
2025-01-24 06:32:10.607146	95.7	33.0	-78.3	0.0
2025-01-24 06:32:11.729713	96.1	33.0	-77.5	0.0
2025-01-24 06:32:12.853128	96.5	33.0	-77.6	0.0
2025-01-24 06:32:13.976603	96.9	33.0	-77.8	0.0
2025-01-24 06:32:15.098111	97.4	33.0	-77.7	0.0
2025-01-24 06:32:16.221048	97.8	33.0	-78.1	0.0
2025-01-24 06:32:17.344862	98.2	33.0	-77.7	0.0
2025-01-24 06:32:18.467627	98.7	32.9	-78.1	0.0
2025-01-24 06:32:19.591526	99.1	32.9	-77.9	0.0
2025-01-24 06:32:20.715879	99.5	32.9	-77.9	0.0
2025-01-24 06:32:21.837646	100.0	32.9	-77.6	0.0
2025-01-24 06:32:22.961507	100.4	32.9	-77.9	0.0
2025-01-24 06:32:24.083824	100.8	32.8	-78.1	0.0
2025-01-24 06:32:25.206794	101.2	32.8	-77.9	0.0
2025-01-24 06:32:26.329917	101.7	32.8	-78.1	0.0
2025-01-24 06:32:27.454849	102.1	32.7	-78.0	0.0
2025-01-24 06:32:28.575825	102.5	32.7	-77.5	0.0
2025-01-24 06:32:29.698999	102.9	32.7	-77.8	0.0
2025-01-24 06:32:30.820085	103.3	32.6	-77.9	0.0
2025-01-24 06:32:31.941680	103.8	32.6	-78.4	0.0
2025-01-24 06:32:33.064593	104.2	32.6	-77.4	0.0
2025-01-24 06:32:34.188316	104.6	32.5	-78.2	0.0
2025-01-24 06:32:35.311336	105.0	32.5	-78.3	0.0
2025-01-24 06:32:36.431722	105.4	32.4	-77.2	0.0
2025-01-24 06:32:37.556993	105.9	32.4	-78.0	0.0
2025-01-24 06:32:38.679754	106.3	32.3	-78.0	0.0
2025-01-24 06:32:39.800786	106.7	32.3	-77.8	0.0
2025-01-24 06:32:40.923355	107.1	32.2	-77.7	0.0
2025-01-24 06:32:42.046780	107.5	32.2	-77.6	0.0
2025-01-24 06:32:43.169166	107.9	32.1	-77.9	0.0
2025-01-24 06:32:44.290117	108.3	32.1	-77.8	0.0
2025-01-24 06:32:45.413182	108.7	32.0	-77.9	0.0
2025-01-24 06:32:46.534796	109.1	32.0	-78.3	0.0
2025-01-24 06:32:47.659891	109.5	31.9	-78.2	0.0
2025-01-24 06:32:48.781882	109.9	31.9	-77.2	0.0
2025-01-24 06:32:49.904010	110.3	31.8	-78.5	0.0
2025-01-24 06:32:51.025774	110.7	31.7	-78.4	0.0
2025-01-24 06:32:52.146010	111.1	31.7	-78.2	0.0
2025-01-24 06:32:53.268388	111.5	31.6	-78.7	0.0
2025-01-24 06:32:54.390956	111.9	31.5	-78.3	0.0
2025-01-24 06:32:55.515439	112.3	31.5	-78.0	0.0
2025-01-24 06:32:56.639386	112.7	31.4	-78.2	0.0
2025-01-24 06:32:57.764499	113.1	31.3	-78.1	0.0
2025-01-24 06:32:58.887231	113.5	31.3	-77.6	0.0
2025-01-24 06:33:00.011275	113.9	31.2	-78.1	0.0
2025-01-24 06:33:01.133147	114.3	31.1	-77.7	0.0
2025-01-24 06:33:02.256057	114.6	31.0	-77.8	0.0
2025-01-24 06:33:03.378349	115.0	31.0	-77.8	0.0
2025-01-24 06:33:04.500453	115.4	30.9	-77.2	0.0
2025-01-24 06:33:05.623083	115.8	30.8	-77.8	0.0
2025-01-24 06:33:06.746768	116.2	30.7	-78.2	0.0
2025-01-24 06:33:07.869010	116.5	30.6	-77.9	0.0
2025-01-24 06:33:08.992678	116.9	30.6	-77.7	0.0
2025-01-24 06:33:10.118266	117.3	30.5	-77.7	0.0
2025-01-24 06:33:11.239257	117.6	30.4	-77.3	0.0
2025-01-24 06:33:12.363420	118.0	30.3	-77.5	0.0
2025-01-24 06:33:13.487216	118.4	30.2	-77.7	0.0
2025-01-24 06:33:14.608743	118.7	30.1	-77.6	0.0
2025-01-24 06:33:15.731182	119.1	30.0	-77.6	0.0
2025-01-24 06:33:16.854179	119.5	30.0	-78.1	0.0
2025-01-24 06:33:17.977617	119.8	29.9	-77.7	0.5
2025-01-24 06:33:19.100728	120.2	29.8	-77.5	0.2
2025-01-24 06:33:20.224181	120.5	29.7	-77.7	1.2
2025-01-24 06:33:21.344355	120.9	29.6	-77.8	1.5
2025-01-24 06:33:22.466537	121.2	29.5	-77.6	1.6
2025-01-24 06:33:23.588578	121.6	29.4	-77.1	0.0
2025-01-24 06:33:24.711784	121.9	29.3	-77.7	0.0
2025-01-24 06:33:25.833044	122.3	29.2	-77.8	0.0
2025-01-24 06:33:26.955363	122.6	29.1	-77.1	0.0
2025-01-24 06:33:28.078318	122.9	29.0	-77.1	0.2
2025-01-24 06:33:29.201840	123.3	28.9	-76.8	2.5
2025-01-24 06:33:30.324978	123.6	28.8	-77.3	1.9
2025-01-24 06:33:31.450108	123.9	28.7	-77.1	3.3
2025-01-24 06:33:32.572174	124.3	28.6	-77.5	2.5
2025-01-24 06:33:33.696367	124.6	28.5	-77.6	1.2
2025-01-24 06:33:34.819700	124.9	28.4	-77.5	1.1
2025-01-24 06:33:35.941702	125.3	28.3	-77.1	0.0
2025-01-24 06:33:37.065205	125.6	28.2	-77.4	0.6
2025-01-24 06:33:38.186984	125.9	28.1	-76.8	0.0
2025-01-24 06:33:39.310816	126.2	28.0	-77.3	0.8
2025-01-24 06:33:40.434151	126.5	27.9	-77.0	0.0
2025-01-24 06:33:41.558156	126.9	27.8	-77.2	0.0
2025-01-24 06:33:42.682554	127.2	27.7	-76.9	0.1
2025-01-24 06:33:43.803520	127.5	27.6	-77.5	1.8
2025-01-24 06:33:44.925645	127.8	27.5	-77.7	0.4
2025-01-24 06:33:46.049998	128.1	27.4	-77.5	0.5
2025-01-24 06:33:47.172025	128.4	27.3	-77.5	0.1
2025-01-24 06:33:48.295491	128.7	27.2	-77.1	0.1
2025-01-24 06:33:49.419941	129.0	27.0	-76.8	1.4
2025-01-24 06:33:50.543538	129.3	26.9	-77.2	0.7
2025-01-24 06:33:51.666732	129.6	26.8	-77.4	0.0
2025-01-24 06:33:52.789405	129.9	26.7	-77.2	1.5
2025-01-24 06:33:53.910972	130.2	26.6	-76.6	0.9
2025-01-24 06:33:55.033478	130.5	26.5	-77.4	2.3
2025-01-24 06:33:56.154771	130.8	26.4	-77.4	2.2
2025-01-24 06:33:57.277583	131.0	26.3	-77.0	0.0
2025-01-24 06:33:58.399998	131.3	26.2	-77.4	0.6
2025-01-24 06:33:59.520766	131.6	26.1	-77.6	0.3
2025-01-24 06:34:00.643165	131.9	25.9	-77.5	0.0
2025-01-24 06:34:01.766030	132.2	25.8	-77.4	0.0
2025-01-24 06:34:02.890666	132.5	25.7	-77.6	0.4
2025-01-24 06:34:04.013876	132.7	25.6	-76.9	0.0
2025-01-24 06:34:05.136998	133.0	25.5	-77.9	0.9
2025-01-24 06:34:06.258535	133.3	25.4	-76.4	0.0
2025-01-24 06:34:07.383207	133.5	25.3	-78.2	0.0
2025-01-24 06:34:08.504707	133.8	25.2	-77.8	0.0
2025-01-24 06:34:09.627062	134.1	25.0	-77.6	0.0
2025-01-24 06:34:10.750568	134.3	24.9	-77.6	0.0
2025-01-24 06:34:11.871675	134.6	24.8	-77.4	0.0
2025-01-24 06:34:12.993567	134.9	24.7	-77.6	0.0
2025-01-24 06:34:14.114333	135.1	24.6	-77.4	0.0
2025-01-24 06:34:15.234733	135.4	24.5	-78.0	0.0
2025-01-24 06:34:16.356015	135.6	24.4	-77.6	0.0
2025-01-24 06:34:17.477880	135.9	24.2	-78.1	0.0
2025-01-24 06:34:18.600882	136.1	24.1	-77.9	0.0
2025-01-24 06:34:19.725339	136.4	24.0	-77.9	0.0
2025-01-24 06:34:20.850735	136.6	23.9	-78.2	0.0
2025-01-24 06:34:21.972323	136.9	23.8	-77.7	0.0
2025-01-24 06:34:23.094461	137.1	23.7	-78.1	0.0
2025-01-24 06:34:24.219391	137.4	23.6	-78.2	0.0
2025-01-24 06:34:25.340124	137.6	23.5	-77.4	0.0
2025-01-24 06:34:26.464583	137.8	23.3	-77.6	0.0
2025-01-24 06:34:27.586096	138.1	23.2	-77.9	0.0
2025-01-24 06:34:28.706111	138.3	23.1	-77.4	0.0
2025-01-24 06:34:29.826423	138.5	23.0	-78.5	0.0
2025-01-24 06:34:30.948546	138.8	22.9	-78.3	0.0
2025-01-24 06:34:32.071068	139.0	22.8	-77.6	0.0
2025-01-24 06:34:33.194642	139.2	22.7	-78.0	0.0
2025-01-24 06:34:34.318601	139.5	22.5	-77.6	0.0
2025-01-24 06:34:35.443211	139.7	22.4	-78.3	0.0
2025-01-24 06:34:36.565249	139.9	22.3	-78.2	0.0
2025-01-24 06:34:37.688694	140.1	22.2	-77.8	0.0
2025-01-24 06:34:38.812453	140.4	22.1	-77.8	0.0
2025-01-24 06:34:39.934511	140.6	22.0	-77.4	0.0
2025-01-24 06:34:41.056959	140.8	21.9	-77.1	0.0
2025-01-24 06:34:42.180229	141.0	21.7	-77.4	0.0
2025-01-24 06:34:43.302052	141.2	21.6	-76.9	0.0
2025-01-24 06:34:44.424906	141.4	21.5	-77.2	0.0
2025-01-24 06:34:45.547496	141.6	21.4	-77.4	0.0
2025-01-24 06:34:46.668306	141.9	21.3	-76.8	0.0
2025-01-24 06:34:47.792873	142.1	21.2	-77.0	1.0
2025-01-24 06:34:48.917843	142.3	21.1	-77.0	1.3
2025-01-24 06:34:50.040887	142.5	21.0	-77.4	0.9
2025-01-24 06:34:51.164768	142.7	20.8	-76.9	1.6
2025-01-24 06:34:52.286492	142.9	20.7	-77.0	2.1
2025-01-24 06:34:53.409354	143.1	20.6	-76.9	2.6
2025-01-24 06:34:54.533597	143.3	20.5	-76.9	2.8
2025-01-24 06:34:55.656920	143.5	20.4	-76.8	3.8
2025-01-24 06:34:56.779544	143.7	20.3	-77.0	4.4
2025-01-24 06:34:57.901242	143.9	20.2	-77.0	5.5
2025-01-24 06:34:59.023874	144.1	20.1	-76.8	5.1
2025-01-24 06:35:00.146722	144.3	20.0	-76.5	4.8
2025-01-24 06:35:01.270017	144.5	19.8	-76.0	4.9
2025-01-24 06:35:02.394528	144.6	19.7	-76.5	6.3
2025-01-24 06:35:03.518607	144.8	19.6	-76.9	6.4
2025-01-24 06:35:04.641357	145.0	19.5	-76.8	6.2
2025-01-24 06:35:05.763471	145.2	19.4	-76.8	5.8
2025-01-24 06:35:06.887663	145.4	19.3	-76.5	7.2
2025-01-24 06:35:08.007748	145.6	19.2	-76.3	7.5
2025-01-24 06:35:09.131181	145.8	19.1	-76.1	7.5
2025-01-24 06:35:10.254911	145.9	19.0	-76.3	6.9
2025-01-24 06:35:11.377032	146.1	18.9	-75.9	7.9
2025-01-24 06:35:12.499158	146.3	18.7	-76.2	8.5
2025-01-24 06:35:13.620805	146.5	18.6	-76.4	9.3
2025-01-24 06:35:14.742516	146.6	18.5	-76.3	8.5
2025-01-24 06:35:15.865661	146.8	18.4	-76.0	9.5
2025-01-24 06:35:16.988246	147.0	18.3	-76.3	9.2
2025-01-24 06:35:18.108784	147.2	18.2	-76.2	9.6
2025-01-24 06:35:19.233539	147.3	18.1	-75.9	9.1
2025-01-24 06:35:20.356924	147.5	18.0	-75.7	8.5
2025-01-24 06:35:21.479394	147.7	17.9	-76.2	9.2
2025-01-24 06:35:22.601999	147.8	17.8	-76.0	9.1
2025-01-24 06:35:23.723523	148.0	17.7	-75.9	9.1
2025-01-24 06:35:24.846201	148.2	17.6	-76.0	10.1
2025-01-24 06:35:25.968997	148.3	17.5	-75.9	10.0
2025-01-24 06:35:27.093988	148.5	17.4	-75.8	11.2
2025-01-24 06:35:28.215352	148.7	17.2	-75.5	10.2
2025-01-24 06:35:29.337919	148.8	17.1	-76.0	10.4
2025-01-24 06:35:30.460063	149.0	17.0	-75.3	11.0
2025-01-24 06:35:31.582229	149.1	16.9	-75.4	10.4
2025-01-24 06:35:32.705763	149.3	16.8	-75.3	11.4
2025-01-24 06:35:33.829107	149.5	16.7	-75.3	11.6
2025-01-24 06:35:34.952410	149.6	16.6	-75.1	10.9
2025-01-24 06:35:36.074954	149.8	16.5	-74.9	11.3
2025-01-24 06:35:37.198267	149.9	16.4	-75.2	11.3
2025-01-24 06:35:38.318848	150.1	16.3	-74.9	10.2
2025-01-24 06:35:39.440932	150.2	16.2	-75.1	10.8
2025-01-24 06:35:40.564807	150.4	16.1	-75.4	11.0
2025-01-24 06:35:41.688141	150.5	16.0	-75.1	10.9
2025-01-24 06:35:42.810518	150.7	15.9	-75.5	11.3
2025-01-24 06:35:43.930433	150.8	15.8	-75.0	10.5
2025-01-24 06:35:45.052372	151.0	15.7	-75.4	11.0
2025-01-24 06:35:46.174377	151.1	15.6	-74.9	11.6
2025-01-24 06:35:47.295124	151.3	15.5	-75.3	11.9
2025-01-24 06:35:48.417828	151.4	15.4	-74.9	12.0
2025-01-24 06:35:49.543757	151.5	15.3	-74.8	11.9
2025-01-24 06:35:50.666842	151.7	15.2	-75.1	12.1
2025-01-24 06:35:51.789281	151.8	15.1	-74.7	12.2
2025-01-24 06:35:52.914936	152.0	15.0	-75.0	11.6
2025-01-24 06:35:54.036368	152.1	14.9	-74.9	11.5
2025-01-24 06:35:55.161201	152.2	14.8	-75.1	12.3
2025-01-24 06:35:56.285272	152.4	14.7	-75.0	12.8
2025-01-24 06:35:57.406020	152.5	14.6	-74.7	11.0
2025-01-24 06:35:58.530852	152.7	14.5	-75.3	12.0
2025-01-24 06:35:59.653899	152.8	14.4	-75.0	11.5
2025-01-24 06:36:00.777900	152.9	14.3	-75.4	12.0
2025-01-24 06:36:01.900489	153.1	14.2	-75.3	12.2
2025-01-24 06:36:03.021873	153.2	14.1	-75.2	10.9
2025-01-24 06:36:04.143454	153.3	14.0	-75.0	12.1
2025-01-24 06:36:05.268826	153.4	13.9	-75.1	11.0
2025-01-24 06:36:06.393398	153.6	13.8	-75.2	11.2
2025-01-24 06:36:07.516599	153.7	13.7	-74.8	11.0
2025-01-24 06:36:08.637653	153.8	13.6	-75.2	11.0
2025-01-24 06:36:09.760164	154.0	13.5	-75.0	11.3
2025-01-24 06:36:10.884591	154.1	13.4	-75.1	11.5
2025-01-24 06:36:12.003910	154.2	13.3	-75.1	11.6
2025-01-24 06:36:13.128539	154.3	13.2	-75.0	11.6
2025-01-24 06:36:14.251320	154.5	13.1	-75.5	11.2
2025-01-24 06:36:15.373287	154.6	13.0	-74.7	9.9
2025-01-24 06:36:16.496820	154.7	12.9	-75.3	11.3
2025-01-24 06:36:17.619253	154.8	12.9	-75.2	11.3
2025-01-24 06:36:18.740456	154.9	12.8	-75.1	11.3
2025-01-24 06:36:19.861352	155.1	12.7	-75.6	11.2
2025-01-24 06:36:20.984859	155.2	12.6	-75.4	11.4
2025-01-24 06:36:22.107309	155.3	12.5	-75.2	10.5
2025-01-24 06:36:23.230190	155.4	12.4	-75.2	10.8
2025-01-24 06:36:24.354496	155.5	12.3	-75.5	11.7
2025-01-24 06:36:25.476887	155.7	12.2	-75.6	11.5
2025-01-24 06:36:26.599148	155.8	12.1	-75.2	10.6
2025-01-24 06:36:27.721723	155.9	12.0	-75.3	11.8
2025-01-24 06:36:28.843264	156.0	11.9	-75.6	11.3
2025-01-24 06:36:29.967223	156.1	11.8	-75.5	11.4
2025-01-24 06:36:31.089830	156.2	11.7	-75.4	11.3
2025-01-24 06:36:32.213175	156.3	11.7	-75.6	10.2
2025-01-24 06:36:33.333967	156.5	11.6	-75.1	10.5
2025-01-24 06:36:34.458796	156.6	11.5	-75.8	10.8
2025-01-24 06:36:35.580994	156.7	11.4	-74.9	9.0
2025-01-24 06:36:36.702361	156.8	11.3	-74.8	8.5
2025-01-24 06:36:37.826030	156.9	11.2	-75.4	10.3
2025-01-24 06:36:38.948930	157.0	11.1	-74.9	9.4
2025-01-24 06:36:40.072493	157.1	11.0	-75.0	9.6
2025-01-24 06:36:41.196738	157.2	10.9	-74.9	9.1
2025-01-24 06:36:42.320245	157.3	10.8	-75.6	9.6
2025-01-24 06:36:43.443398	157.4	10.8	-75.7	10.7
2025-01-24 06:36:44.566637	157.5	10.7	-75.4	9.5
2025-01-24 06:36:45.690172	157.6	10.6	-75.9	10.2
2025-01-24 06:36:46.813020	157.7	10.5	-75.8	10.0
2025-01-24 06:36:47.937269	157.8	10.4	-75.3	9.0
2025-01-24 06:36:49.063857	157.9	10.3	-75.0	9.7
2025-01-24 06:36:50.185001	158.1	10.2	-75.8	10.6
2025-01-24 06:36:51.306734	158.2	10.1	-75.3	8.6
2025-01-24 06:36:52.428396	158.3	10.1	-75.6	10.8
#Closed at: 2025-01-24 06:27:13.726599