passes_logs/2025/01/24/planumMaritime01/planumMaritime01__20250124_170453_NOAA_19_rec.log

#Pass ID: 20250124_170453_NOAA 19
#Satellite: NOAA 19
#Configuration: NOAA 19
#Start time: 2025-01-24 17:04:58.456423

#LorettStation: 1.0.0 05.05.2024
#Station: planumMaritime01
#Location: 37.49445 lon 55.92918 lat
#TLE: 1 33591U 09005A   25023.78299149  .00000396  00000+0  23548-3 0  9998
#TLE: 2 33591  99.0182  87.6127 0014154  33.7555 326.4515 14.13267063822782

#Time	Az	El	Level	SNR
2025-01-24 17:05:00.623982	123.5	10.2	-75.8	0.0
2025-01-24 17:05:01.748683	123.5	10.3	-75.2	0.0
2025-01-24 17:05:02.871682	123.4	10.4	-75.3	0.0
2025-01-24 17:05:03.993801	123.3	10.4	-75.6	0.0
2025-01-24 17:05:05.118119	123.2	10.5	-76.0	0.0
2025-01-24 17:05:06.240904	123.1	10.6	-75.7	0.0
2025-01-24 17:05:07.363925	123.0	10.7	-75.2	0.0
2025-01-24 17:05:08.488301	122.9	10.8	-75.6	0.0
2025-01-24 17:05:09.611300	122.9	10.9	-76.5	0.0
2025-01-24 17:05:10.733878	122.8	11.0	-75.4	0.0
2025-01-24 17:05:11.855743	122.7	11.1	-75.9	0.0
2025-01-24 17:05:12.978640	122.6	11.2	-76.0	0.0
2025-01-24 17:05:14.100189	122.5	11.3	-76.2	0.0
2025-01-24 17:05:15.223139	122.4	11.4	-75.5	0.0
2025-01-24 17:05:16.345976	122.3	11.5	-76.4	0.0
2025-01-24 17:05:17.468819	122.2	11.5	-76.5	0.0
2025-01-24 17:05:18.593333	122.1	11.6	-76.2	0.0
2025-01-24 17:05:19.717458	122.1	11.7	-76.5	0.0
2025-01-24 17:05:20.840940	122.0	11.8	-76.7	0.0
2025-01-24 17:05:21.965115	121.9	11.9	-76.5	0.0
2025-01-24 17:05:23.090291	121.8	12.0	-76.3	0.0
2025-01-24 17:05:24.213527	121.7	12.1	-76.2	0.0
2025-01-24 17:05:25.333872	121.6	12.2	-76.4	0.0
2025-01-24 17:05:26.454303	121.5	12.3	-75.2	0.0
2025-01-24 17:05:27.578202	121.4	12.4	-75.1	0.0
2025-01-24 17:05:28.700597	121.3	12.5	-76.2	0.0
2025-01-24 17:05:29.822187	121.2	12.6	-76.2	0.0
2025-01-24 17:05:30.944728	121.1	12.7	-75.7	0.0
2025-01-24 17:05:32.066997	121.0	12.8	-76.3	0.0
2025-01-24 17:05:33.191323	120.9	12.9	-76.2	0.0
2025-01-24 17:05:34.311838	120.8	13.0	-75.7	0.0
2025-01-24 17:05:35.435546	120.7	13.1	-77.1	0.0
2025-01-24 17:05:36.557506	120.6	13.2	-77.1	0.0
2025-01-24 17:05:37.681853	120.5	13.3	-77.2	0.0
2025-01-24 17:05:38.804935	120.4	13.4	-76.9	0.0
2025-01-24 17:05:39.927344	120.3	13.5	-76.5	0.0
2025-01-24 17:05:41.049247	120.2	13.6	-75.8	0.0
2025-01-24 17:05:42.172313	120.1	13.7	-75.9	0.0
2025-01-24 17:05:43.295053	120.0	13.8	-76.0	0.0
2025-01-24 17:05:44.417666	119.9	13.9	-76.1	0.0
2025-01-24 17:05:45.541002	119.8	14.0	-77.1	0.0
2025-01-24 17:05:46.661952	119.6	14.1	-76.6	0.0
2025-01-24 17:05:47.783323	119.5	14.2	-76.7	0.0
2025-01-24 17:05:48.905838	119.4	14.3	-76.8	0.0
2025-01-24 17:05:50.027635	119.3	14.4	-76.4	0.0
2025-01-24 17:05:51.152548	119.2	14.5	-76.8	0.0
2025-01-24 17:05:52.274071	119.1	14.6	-77.4	0.0
2025-01-24 17:05:53.397388	119.0	14.7	-77.0	0.0
2025-01-24 17:05:54.518163	118.9	14.8	-76.6	0.0
2025-01-24 17:05:55.641042	118.8	14.9	-77.0	0.0
2025-01-24 17:05:56.765011	118.6	15.0	-76.6	0.0
2025-01-24 17:05:57.888581	118.5	15.1	-77.1	0.0
2025-01-24 17:05:59.010775	118.4	15.2	-76.7	0.0
2025-01-24 17:06:00.131802	118.3	15.3	-76.8	0.0
2025-01-24 17:06:01.255550	118.2	15.4	-77.2	0.0
2025-01-24 17:06:02.379277	118.0	15.5	-77.0	0.0
2025-01-24 17:06:03.502059	117.9	15.6	-77.2	0.0
2025-01-24 17:06:04.624112	117.8	15.8	-77.6	0.0
2025-01-24 17:06:05.746943	117.7	15.9	-77.2	0.0
2025-01-24 17:06:06.869006	117.6	16.0	-77.5	0.0
2025-01-24 17:06:07.991689	117.4	16.1	-77.5	0.0
2025-01-24 17:06:09.117940	117.3	16.2	-77.2	0.0
2025-01-24 17:06:10.240288	117.2	16.3	-76.3	0.0
2025-01-24 17:06:11.361981	117.1	16.4	-77.3	0.0
2025-01-24 17:06:12.485069	116.9	16.5	-76.2	0.0
2025-01-24 17:06:13.606905	116.8	16.6	-76.8	0.0
2025-01-24 17:06:14.730625	116.7	16.7	-77.0	0.0
2025-01-24 17:06:15.853368	116.5	16.8	-76.7	0.0
2025-01-24 17:06:16.975131	116.4	16.9	-77.0	0.0
2025-01-24 17:06:18.099324	116.3	17.1	-77.6	0.0
2025-01-24 17:06:19.221910	116.1	17.2	-76.7	0.0
2025-01-24 17:06:20.345453	116.0	17.3	-76.9	0.0
2025-01-24 17:06:21.470039	115.9	17.4	-77.2	0.0
2025-01-24 17:06:22.593964	115.7	17.5	-77.1	0.0
2025-01-24 17:06:23.718154	115.6	17.6	-76.7	0.0
2025-01-24 17:06:24.840741	115.5	17.7	-76.8	0.0
2025-01-24 17:06:25.964270	115.3	17.8	-76.8	0.0
2025-01-24 17:06:27.086036	115.2	18.0	-77.2	0.0
2025-01-24 17:06:28.207036	115.0	18.1	-77.0	0.0
2025-01-24 17:06:29.330685	114.9	18.2	-76.4	0.0
2025-01-24 17:06:30.452559	114.8	18.3	-76.7	0.0
2025-01-24 17:06:31.577506	114.6	18.4	-77.2	0.0
2025-01-24 17:06:32.699367	114.5	18.5	-77.7	0.0
2025-01-24 17:06:33.823038	114.3	18.6	-77.4	0.0
2025-01-24 17:06:34.945750	114.2	18.8	-76.8	0.0
2025-01-24 17:06:36.066001	114.0	18.9	-77.2	0.0
2025-01-24 17:06:37.189486	113.9	19.0	-77.8	0.0
2025-01-24 17:06:38.313374	113.7	19.1	-77.2	0.0
2025-01-24 17:06:39.434672	113.6	19.2	-77.6	0.0
2025-01-24 17:06:40.557250	113.4	19.3	-77.4	0.0
2025-01-24 17:06:41.680018	113.3	19.5	-76.9	0.0
2025-01-24 17:06:42.804705	113.1	19.6	-77.0	0.0
2025-01-24 17:06:43.929164	112.9	19.7	-77.4	0.0
2025-01-24 17:06:45.051220	112.8	19.8	-77.7	0.0
2025-01-24 17:06:46.175617	112.6	19.9	-77.4	0.0
2025-01-24 17:06:47.298880	112.5	20.1	-77.4	0.0
2025-01-24 17:06:48.422497	112.3	20.2	-76.9	0.0
2025-01-24 17:06:49.545920	112.1	20.3	-77.4	0.0
2025-01-24 17:06:50.670086	112.0	20.4	-77.1	0.0
2025-01-24 17:06:51.793028	111.8	20.5	-76.9	0.0
2025-01-24 17:06:52.916113	111.6	20.7	-77.6	0.0
2025-01-24 17:06:54.039050	111.5	20.8	-77.2	0.0
2025-01-24 17:06:55.161332	111.3	20.9	-76.6	0.0
2025-01-24 17:06:56.283617	111.1	21.0	-76.8	0.0
2025-01-24 17:06:57.407296	110.9	21.1	-77.3	0.0
2025-01-24 17:06:58.529076	110.8	21.3	-77.3	0.0
2025-01-24 17:06:59.651755	110.6	21.4	-77.6	0.0
2025-01-24 17:07:00.775966	110.4	21.5	-77.3	0.0
2025-01-24 17:07:01.899304	110.2	21.6	-77.6	0.0
2025-01-24 17:07:03.022504	110.1	21.8	-77.5	0.0
2025-01-24 17:07:04.143372	109.9	21.9	-76.2	0.0
2025-01-24 17:07:05.267051	109.7	22.0	-77.4	0.0
2025-01-24 17:07:06.391457	109.5	22.1	-77.9	0.0
2025-01-24 17:07:07.515544	109.3	22.3	-76.6	0.0
2025-01-24 17:07:08.636872	109.1	22.4	-77.2	0.0
2025-01-24 17:07:09.760766	108.9	22.5	-77.5	0.0
2025-01-24 17:07:10.884617	108.8	22.6	-77.0	0.0
2025-01-24 17:07:12.007468	108.6	22.8	-77.4	0.0
2025-01-24 17:07:13.130394	108.4	22.9	-77.1	0.0
2025-01-24 17:07:14.254176	108.2	23.0	-77.6	0.0
2025-01-24 17:07:15.376145	108.0	23.1	-77.5	0.0
2025-01-24 17:07:16.497711	107.8	23.3	-77.4	0.0
2025-01-24 17:07:17.620313	107.6	23.4	-77.3	0.0
2025-01-24 17:07:18.742932	107.4	23.5	-77.5	0.0
2025-01-24 17:07:19.868482	107.2	23.6	-77.2	0.0
2025-01-24 17:07:20.992187	107.0	23.8	-77.6	0.0
2025-01-24 17:07:22.117998	106.8	23.9	-77.5	0.0
2025-01-24 17:07:23.239314	106.5	24.0	-77.7	0.0
2025-01-24 17:07:24.364266	106.3	24.2	-77.6	0.0
2025-01-24 17:07:25.489651	106.1	24.3	-77.6	0.0
2025-01-24 17:07:26.612724	105.9	24.4	-77.1	0.0
2025-01-24 17:07:27.735720	105.7	24.5	-77.4	0.0
2025-01-24 17:07:28.859474	105.5	24.7	-77.3	0.0
2025-01-24 17:07:29.981781	105.3	24.8	-76.9	0.0
2025-01-24 17:07:31.104690	105.0	24.9	-77.1	0.0
2025-01-24 17:07:32.226405	104.8	25.1	-77.2	0.0
2025-01-24 17:07:33.352322	104.6	25.2	-76.9	0.0
2025-01-24 17:07:34.475366	104.4	25.3	-77.6	0.0
2025-01-24 17:07:35.599762	104.1	25.5	-78.0	0.0
2025-01-24 17:07:36.721157	103.9	25.6	-77.1	0.0
2025-01-24 17:07:37.845379	103.7	25.7	-77.2	0.0
2025-01-24 17:07:38.970150	103.4	25.8	-76.1	0.0
2025-01-24 17:07:40.093481	103.2	26.0	-76.8	0.0
2025-01-24 17:07:41.215858	103.0	26.1	-78.0	0.0
2025-01-24 17:07:42.338047	102.7	26.2	-78.0	0.0
2025-01-24 17:07:43.462778	102.5	26.4	-76.3	0.0
2025-01-24 17:07:44.585205	102.2	26.5	-77.5	0.0
2025-01-24 17:07:45.710988	102.0	26.6	-76.7	0.0
2025-01-24 17:07:46.833575	101.7	26.8	-77.1	0.0
2025-01-24 17:07:47.956964	101.5	26.9	-77.3	0.0
2025-01-24 17:07:49.082157	101.2	27.0	-77.2	0.0
2025-01-24 17:07:50.206030	101.0	27.2	-76.9	0.0
2025-01-24 17:07:51.328500	100.7	27.3	-77.3	0.0
2025-01-24 17:07:52.450593	100.5	27.4	-77.2	0.0
2025-01-24 17:07:53.571807	100.2	27.5	-77.5	0.0
2025-01-24 17:07:54.693798	99.9	27.7	-77.3	0.0
2025-01-24 17:07:55.817434	99.7	27.8	-76.4	0.0
2025-01-24 17:07:56.939989	99.4	27.9	-77.4	0.0
2025-01-24 17:07:58.063732	99.1	28.1	-77.5	0.0
2025-01-24 17:07:59.186803	98.9	28.2	-76.8	0.0
2025-01-24 17:08:00.310842	98.6	28.3	-76.8	0.0
2025-01-24 17:08:01.435309	98.3	28.5	-76.4	0.0
2025-01-24 17:08:02.559164	98.0	28.6	-76.5	0.0
2025-01-24 17:08:03.683318	97.7	28.7	-77.4	0.0
2025-01-24 17:08:04.807681	97.5	28.9	-76.9	0.0
2025-01-24 17:08:05.929449	97.2	29.0	-77.3	0.0
2025-01-24 17:08:07.052773	96.9	29.1	-77.8	0.0
2025-01-24 17:08:08.176251	96.6	29.2	-77.2	0.0
2025-01-24 17:08:09.300621	96.3	29.4	-77.7	0.0
2025-01-24 17:08:10.422789	96.0	29.5	-77.2	0.0
2025-01-24 17:08:11.545587	95.7	29.6	-77.5	0.0
2025-01-24 17:08:12.668316	95.4	29.8	-77.6	0.0
2025-01-24 17:08:13.790947	95.1	29.9	-77.5	0.0
2025-01-24 17:08:14.913963	94.8	30.0	-77.8	0.0
2025-01-24 17:08:16.037700	94.5	30.1	-77.3	0.0
2025-01-24 17:08:17.160549	94.2	30.3	-77.7	0.0
2025-01-24 17:08:18.285448	93.9	30.4	-77.0	0.0
2025-01-24 17:08:19.407224	93.6	30.5	-77.7	0.0
2025-01-24 17:08:20.531284	93.2	30.6	-77.3	0.0
2025-01-24 17:08:21.655845	92.9	30.8	-77.7	0.0
2025-01-24 17:08:22.779327	92.6	30.9	-77.3	0.0
2025-01-24 17:08:23.902680	92.3	31.0	-77.4	0.0
2025-01-24 17:08:25.025232	92.0	31.1	-77.5	0.0
2025-01-24 17:08:26.147866	91.6	31.3	-77.9	0.0
2025-01-24 17:08:27.271198	91.3	31.4	-77.4	0.0
2025-01-24 17:08:28.394424	91.0	31.5	-76.9	0.0
2025-01-24 17:08:29.517966	90.6	31.6	-77.6	0.0
2025-01-24 17:08:30.639773	90.3	31.7	-76.7	0.0
2025-01-24 17:08:31.762163	89.9	31.9	-76.6	0.0
2025-01-24 17:08:32.886130	89.6	32.0	-77.0	0.0
2025-01-24 17:08:34.011605	89.3	32.1	-77.7	0.0
2025-01-24 17:08:35.132625	88.9	32.2	-77.7	0.0
2025-01-24 17:08:36.254770	88.6	32.3	-77.7	0.0
2025-01-24 17:08:37.378736	88.2	32.5	-77.3	0.0
2025-01-24 17:08:38.502097	87.8	32.6	-76.8	0.0
2025-01-24 17:08:39.623078	87.5	32.7	-77.5	0.0
2025-01-24 17:08:40.747144	87.1	32.8	-77.5	0.0
2025-01-24 17:08:41.867282	86.8	32.9	-77.2	0.0
2025-01-24 17:08:42.991072	86.4	33.0	-77.2	0.0
2025-01-24 17:08:44.114399	86.0	33.1	-77.1	0.0
2025-01-24 17:08:45.236956	85.7	33.2	-76.4	0.0
2025-01-24 17:08:46.358934	85.3	33.4	-76.4	0.0
2025-01-24 17:08:47.483112	84.9	33.5	-77.3	0.0
2025-01-24 17:08:48.608086	84.5	33.6	-76.8	0.0
2025-01-24 17:08:49.732910	84.1	33.7	-77.7	0.0
2025-01-24 17:08:50.855150	83.8	33.8	-77.4	0.0
2025-01-24 17:08:51.979105	83.4	33.9	-76.7	0.0
2025-01-24 17:08:53.101450	83.0	34.0	-77.5	0.0
2025-01-24 17:08:54.224544	82.6	34.1	-77.5	0.0
2025-01-24 17:08:55.349911	82.2	34.2	-77.8	0.0
2025-01-24 17:08:56.472033	81.8	34.3	-77.5	0.0
2025-01-24 17:08:57.596308	81.4	34.4	-77.0	0.0
2025-01-24 17:08:58.719057	81.0	34.5	-77.1	0.0
2025-01-24 17:08:59.842895	80.6	34.6	-78.0	0.0
2025-01-24 17:09:00.966084	80.2	34.7	-76.1	0.0
2025-01-24 17:09:02.089049	79.8	34.8	-78.0	0.0
2025-01-24 17:09:03.211501	79.4	34.9	-76.9	0.0
2025-01-24 17:09:04.332629	79.0	34.9	-78.3	0.0
2025-01-24 17:09:05.453615	78.5	35.0	-77.9	0.0
2025-01-24 17:09:06.576061	78.1	35.1	-77.6	0.0
2025-01-24 17:09:07.698218	77.7	35.2	-77.6	0.0
2025-01-24 17:09:08.824191	77.3	35.3	-76.8	0.0
2025-01-24 17:09:09.947706	76.9	35.4	-76.8	0.0
2025-01-24 17:09:11.072225	76.4	35.4	-77.0	0.0
2025-01-24 17:09:12.197216	76.0	35.5	-76.7	0.0
2025-01-24 17:09:13.319997	75.6	35.6	-77.8	0.0
2025-01-24 17:09:14.442128	75.1	35.7	-77.7	0.0
2025-01-24 17:09:15.565428	74.7	35.7	-77.8	0.0
2025-01-24 17:09:16.689305	74.3	35.8	-76.7	0.0
2025-01-24 17:09:17.812639	73.8	35.9	-76.4	0.0
2025-01-24 17:09:18.934376	73.4	36.0	-76.2	0.0
2025-01-24 17:09:20.059694	72.9	36.0	-77.2	0.0
2025-01-24 17:09:21.183277	72.5	36.1	-77.1	0.0
2025-01-24 17:09:22.305438	72.1	36.2	-77.3	0.0
2025-01-24 17:09:23.428390	71.6	36.2	-77.5	0.0
2025-01-24 17:09:24.553095	71.2	36.3	-77.8	0.0
2025-01-24 17:09:25.676599	70.7	36.3	-77.6	0.0
2025-01-24 17:09:26.797468	70.3	36.4	-76.5	0.0
2025-01-24 17:09:27.919625	69.8	36.4	-77.8	0.0
2025-01-24 17:09:29.044670	69.4	36.5	-77.7	0.0
2025-01-24 17:09:30.167111	68.9	36.5	-76.9	0.0
2025-01-24 17:09:31.291274	68.4	36.6	-77.4	0.0
2025-01-24 17:09:32.413899	68.0	36.6	-78.1	0.0
2025-01-24 17:09:33.538044	67.5	36.7	-76.8	0.0
2025-01-24 17:09:34.660030	67.1	36.7	-77.1	0.0
2025-01-24 17:09:35.783913	66.6	36.8	-77.9	0.0
2025-01-24 17:09:36.907733	66.1	36.8	-77.6	0.0
2025-01-24 17:09:38.028656	65.7	36.8	-77.1	0.0
2025-01-24 17:09:39.152570	65.2	36.9	-77.6	0.0
2025-01-24 17:09:40.276042	64.7	36.9	-77.8	0.0
2025-01-24 17:09:41.396456	64.3	36.9	-77.8	0.0
2025-01-24 17:09:42.520554	63.8	36.9	-77.5	0.0
2025-01-24 17:09:43.644228	63.3	37.0	-77.0	0.0
2025-01-24 17:09:44.765242	62.9	37.0	-77.1	0.0
2025-01-24 17:09:45.888850	62.4	37.0	-77.9	0.0
2025-01-24 17:09:47.012236	61.9	37.0	-77.1	0.0
2025-01-24 17:09:48.134359	61.5	37.0	-77.1	0.0
2025-01-24 17:09:49.257636	61.0	37.1	-77.8	0.0
2025-01-24 17:09:50.383964	60.5	37.1	-77.0	0.0
2025-01-24 17:09:51.505930	60.1	37.1	-78.1	0.0
2025-01-24 17:09:52.628556	59.6	37.1	-77.3	0.0
2025-01-24 17:09:53.751905	59.1	37.1	-77.8	0.0
2025-01-24 17:09:54.875200	58.6	37.1	-77.7	0.0
2025-01-24 17:09:55.997653	58.2	37.1	-77.6	0.0
2025-01-24 17:09:57.120095	57.7	37.1	-77.4	0.0
2025-01-24 17:09:58.244955	57.2	37.1	-77.9	0.0
2025-01-24 17:09:59.369933	56.8	37.1	-77.5	0.0
2025-01-24 17:10:00.491943	56.3	37.1	-77.7	0.0
2025-01-24 17:10:01.614118	55.8	37.1	-78.0	0.0
2025-01-24 17:10:02.735352	55.3	37.1	-77.7	0.0
2025-01-24 17:10:03.859859	54.9	37.0	-77.8	0.0
2025-01-24 17:10:04.982786	54.4	37.0	-77.6	0.0
2025-01-24 17:10:06.106601	53.9	37.0	-78.0	0.0
2025-01-24 17:10:07.230158	53.5	37.0	-77.9	0.0
2025-01-24 17:10:08.352812	53.0	37.0	-77.5	0.0
2025-01-24 17:10:09.475617	52.5	36.9	-78.3	0.0
2025-01-24 17:10:10.598309	52.1	36.9	-77.8	0.0
2025-01-24 17:10:11.718999	51.6	36.9	-77.7	0.0
2025-01-24 17:10:12.842570	51.1	36.8	-78.3	0.0
2025-01-24 17:10:13.964696	50.7	36.8	-77.6	0.0
2025-01-24 17:10:15.088725	50.2	36.8	-76.7	0.0
2025-01-24 17:10:16.212322	49.7	36.7	-77.5	0.0
2025-01-24 17:10:17.336212	49.3	36.7	-77.7	0.0
2025-01-24 17:10:18.459579	48.8	36.6	-77.8	0.0
2025-01-24 17:10:19.583612	48.4	36.6	-78.1	0.0
2025-01-24 17:10:20.706938	47.9	36.5	-78.0	0.0
2025-01-24 17:10:21.829335	47.5	36.5	-77.7	0.0
2025-01-24 17:10:22.952137	47.0	36.4	-78.1	0.0
2025-01-24 17:10:24.074145	46.5	36.4	-78.2	0.0
2025-01-24 17:10:25.196095	46.1	36.3	-78.2	0.0
2025-01-24 17:10:26.319141	45.7	36.3	-77.7	0.0
2025-01-24 17:10:27.441197	45.2	36.2	-77.3	0.0
2025-01-24 17:10:28.562780	44.8	36.2	-76.9	0.0
2025-01-24 17:10:29.685855	44.3	36.1	-76.8	0.0
2025-01-24 17:10:30.808584	43.9	36.0	-77.9	0.0
2025-01-24 17:10:31.932655	43.4	36.0	-77.5	0.0
2025-01-24 17:10:33.054997	43.0	35.9	-77.6	0.0
2025-01-24 17:10:34.178557	42.6	35.8	-77.6	0.0
2025-01-24 17:10:35.300973	42.1	35.8	-77.2	0.0
2025-01-24 17:10:36.422136	41.7	35.7	-77.6	0.0
2025-01-24 17:10:37.546104	41.3	35.6	-77.5	0.0
2025-01-24 17:10:38.669970	40.8	35.5	-78.1	0.0
2025-01-24 17:10:39.795134	40.4	35.5	-77.8	0.0
2025-01-24 17:10:40.918618	40.0	35.4	-77.1	0.0
2025-01-24 17:10:42.041799	39.6	35.3	-77.8	0.0
2025-01-24 17:10:43.162524	39.1	35.2	-77.3	0.0
2025-01-24 17:10:44.286246	38.7	35.1	-77.3	0.0
2025-01-24 17:10:45.410652	38.3	35.0	-77.5	0.0
2025-01-24 17:10:46.533321	37.9	35.0	-76.7	0.0
2025-01-24 17:10:47.655822	37.5	34.9	-77.5	0.0
2025-01-24 17:10:48.779056	37.1	34.8	-76.9	0.0
2025-01-24 17:10:49.902327	36.7	34.7	-77.4	0.0
2025-01-24 17:10:51.024505	36.2	34.6	-77.3	0.0
2025-01-24 17:10:52.147081	35.8	34.5	-77.4	0.0
2025-01-24 17:10:53.270055	35.4	34.4	-77.0	0.0
2025-01-24 17:10:54.393356	35.0	34.3	-78.1	0.0
2025-01-24 17:10:55.515456	34.7	34.2	-78.1	0.0
2025-01-24 17:10:56.639182	34.3	34.1	-78.0	0.0
2025-01-24 17:10:57.761727	33.9	34.0	-77.8	0.0
2025-01-24 17:10:58.885984	33.5	33.9	-77.6	0.0
2025-01-24 17:11:00.009203	33.1	33.8	-77.2	0.0
2025-01-24 17:11:01.134187	32.7	33.7	-78.3	0.0
2025-01-24 17:11:02.257012	32.3	33.6	-77.8	0.0
2025-01-24 17:11:03.380703	32.0	33.5	-77.6	0.0
2025-01-24 17:11:04.504382	31.6	33.4	-78.0	0.0
2025-01-24 17:11:05.625502	31.2	33.3	-77.4	0.0
2025-01-24 17:11:06.748549	30.8	33.2	-77.3	0.0
2025-01-24 17:11:07.873136	30.5	33.1	-77.5	0.0
2025-01-24 17:11:08.994961	30.1	32.9	-77.4	0.0
2025-01-24 17:11:10.118359	29.7	32.8	-77.2	0.0
2025-01-24 17:11:11.240852	29.4	32.7	-76.8	0.0
2025-01-24 17:11:12.363487	29.0	32.6	-77.9	0.0
2025-01-24 17:11:13.488508	28.7	32.5	-77.1	0.0
2025-01-24 17:11:14.611884	28.3	32.4	-77.8	0.0
2025-01-24 17:11:15.732922	28.0	32.3	-77.3	0.0
2025-01-24 17:11:16.855280	27.6	32.1	-77.8	0.0
2025-01-24 17:11:17.978327	27.3	32.0	-77.8	0.0
2025-01-24 17:11:19.100423	26.9	31.9	-78.0	0.0
2025-01-24 17:11:20.221473	26.6	31.8	-77.7	0.0
2025-01-24 17:11:21.342676	26.2	31.7	-77.3	0.0
2025-01-24 17:11:22.462944	25.9	31.5	-77.4	0.0
2025-01-24 17:11:23.589061	25.6	31.4	-78.0	0.0
2025-01-24 17:11:24.712257	25.2	31.3	-78.2	0.0
2025-01-24 17:11:25.832958	24.9	31.2	-78.2	0.0
2025-01-24 17:11:26.956681	24.6	31.1	-78.0	0.0
2025-01-24 17:11:28.079025	24.3	30.9	-77.4	0.0
2025-01-24 17:11:29.201077	24.0	30.8	-77.6	0.0
2025-01-24 17:11:30.324319	23.6	30.7	-78.1	0.0
2025-01-24 17:11:31.447922	23.3	30.6	-77.7	0.0
2025-01-24 17:11:32.571327	23.0	30.4	-76.6	0.0
2025-01-24 17:11:33.696564	22.7	30.3	-77.4	0.0
2025-01-24 17:11:34.818294	22.4	30.2	-77.3	0.0
2025-01-24 17:11:35.941949	22.1	30.1	-77.1	0.0
2025-01-24 17:11:37.063280	21.8	29.9	-77.8	0.0
2025-01-24 17:11:38.187398	21.5	29.8	-76.6	0.0
2025-01-24 17:11:39.310771	21.2	29.7	-76.1	0.0
2025-01-24 17:11:40.434067	20.9	29.6	-77.1	0.0
2025-01-24 17:11:41.556399	20.6	29.4	-77.5	0.0
2025-01-24 17:11:42.679066	20.3	29.3	-77.5	0.0
2025-01-24 17:11:43.802580	20.0	29.2	-77.0	0.0
2025-01-24 17:11:44.924964	19.7	29.0	-77.7	0.0
2025-01-24 17:11:46.047993	19.4	28.9	-77.6	0.0
2025-01-24 17:11:47.171174	19.2	28.8	-77.3	0.0
2025-01-24 17:11:48.293077	18.9	28.7	-78.4	0.0
2025-01-24 17:11:49.416482	18.6	28.5	-77.8	0.0
2025-01-24 17:11:50.540215	18.3	28.4	-77.9	0.0
2025-01-24 17:11:51.661548	18.1	28.3	-77.9	0.0
2025-01-24 17:11:52.785081	17.8	28.1	-77.5	0.0
2025-01-24 17:11:53.906709	17.5	28.0	-77.2	0.0
2025-01-24 17:11:55.028998	17.2	27.9	-77.9	0.0
2025-01-24 17:11:56.153080	17.0	27.7	-77.5	0.0
2025-01-24 17:11:57.276351	16.7	27.6	-77.6	0.0
2025-01-24 17:11:58.398159	16.5	27.5	-77.2	0.0
2025-01-24 17:11:59.522584	16.2	27.4	-78.0	0.0
2025-01-24 17:12:00.646800	15.9	27.2	-78.2	0.0
2025-01-24 17:12:01.769451	15.7	27.1	-78.4	0.0
2025-01-24 17:12:02.892783	15.4	27.0	-78.3	0.0
2025-01-24 17:12:04.015631	15.2	26.8	-77.7	0.0
2025-01-24 17:12:05.138861	14.9	26.7	-77.5	0.0
2025-01-24 17:12:06.261976	14.7	26.6	-77.7	0.0
2025-01-24 17:12:07.385309	14.5	26.4	-77.9	0.0
2025-01-24 17:12:08.509974	14.2	26.3	-77.2	0.0
2025-01-24 17:12:09.631931	14.0	26.2	-78.1	0.0
2025-01-24 17:12:10.756889	13.7	26.1	-77.8	0.0
2025-01-24 17:12:11.878544	13.5	25.9	-78.2	0.0
2025-01-24 17:12:13.001217	13.3	25.8	-77.7	0.0
2025-01-24 17:12:14.124974	13.0	25.7	-77.4	0.0
2025-01-24 17:12:15.249940	12.8	25.5	-77.9	0.0
2025-01-24 17:12:16.375769	12.6	25.4	-78.0	0.0
2025-01-24 17:12:17.498960	12.4	25.3	-78.2	0.0
2025-01-24 17:12:18.619925	12.1	25.2	-77.9	0.0
2025-01-24 17:12:19.743501	11.9	25.0	-77.9	0.0
2025-01-24 17:12:20.868304	11.7	24.9	-78.1	0.0
2025-01-24 17:12:21.989845	11.5	24.8	-77.4	0.0
2025-01-24 17:12:23.112099	11.3	24.6	-78.0	0.0
2025-01-24 17:12:24.237044	11.0	24.5	-78.3	0.0
2025-01-24 17:12:25.359169	10.8	24.4	-77.7	0.0
2025-01-24 17:12:26.482994	10.6	24.3	-77.9	0.0
2025-01-24 17:12:27.603310	10.4	24.1	-77.5	0.0
2025-01-24 17:12:28.725853	10.2	24.0	-77.1	0.0
2025-01-24 17:12:29.847473	10.0	23.9	-77.6	0.0
2025-01-24 17:12:30.971675	9.8	23.7	-77.9	0.0
2025-01-24 17:12:32.093380	9.6	23.6	-77.3	0.0
2025-01-24 17:12:33.216143	9.4	23.5	-77.1	0.0
2025-01-24 17:12:34.338632	9.2	23.4	-77.0	0.0
2025-01-24 17:12:35.462216	9.0	23.2	-77.4	0.0
2025-01-24 17:12:36.586780	8.8	23.1	-77.7	0.0
2025-01-24 17:12:37.709767	8.6	23.0	-77.4	0.0
2025-01-24 17:12:38.832973	8.4	22.9	-77.4	0.0
2025-01-24 17:12:39.953924	8.2	22.7	-75.7	0.0
2025-01-24 17:12:41.074077	8.0	22.6	-76.7	0.0
2025-01-24 17:12:42.196139	7.8	22.5	-77.2	0.0
2025-01-24 17:12:43.317936	7.6	22.4	-77.2	0.0
2025-01-24 17:12:44.442288	7.5	22.2	-77.7	0.0
2025-01-24 17:12:45.563974	7.3	22.1	-75.8	0.0
2025-01-24 17:12:46.688033	7.1	22.0	-76.3	0.0
2025-01-24 17:12:47.811272	6.9	21.9	-76.0	0.0
2025-01-24 17:12:48.933118	6.7	21.7	-77.5	0.0
2025-01-24 17:12:50.055914	6.6	21.6	-76.2	0.0
2025-01-24 17:12:51.179649	6.4	21.5	-78.2	0.0
2025-01-24 17:12:52.301687	6.2	21.4	-75.0	0.0
2025-01-24 17:12:53.423158	6.0	21.3	-76.9	0.0
2025-01-24 17:12:54.547810	5.9	21.1	-77.3	0.0
2025-01-24 17:12:55.670904	5.7	21.0	-77.7	0.0
2025-01-24 17:12:56.792545	5.5	20.9	-77.6	0.0
2025-01-24 17:12:57.916586	5.4	20.8	-77.8	0.0
2025-01-24 17:12:59.039665	5.2	20.7	-77.5	0.0
2025-01-24 17:13:00.161642	5.0	20.5	-77.4	0.0
2025-01-24 17:13:01.282097	4.9	20.4	-77.3	0.0
2025-01-24 17:13:02.404231	4.7	20.3	-77.8	0.0
2025-01-24 17:13:03.527268	4.5	20.2	-77.6	0.0
2025-01-24 17:13:04.646728	4.4	20.1	-77.7	0.0
2025-01-24 17:13:05.772956	4.2	19.9	-77.5	0.0
2025-01-24 17:13:06.899166	4.1	19.8	-78.1	0.0
2025-01-24 17:13:08.022137	3.9	19.7	-77.7	0.0
2025-01-24 17:13:09.146784	3.7	19.6	-78.1	0.0
2025-01-24 17:13:10.268773	3.6	19.5	-78.4	0.0
2025-01-24 17:13:11.390915	3.4	19.4	-78.0	0.0
2025-01-24 17:13:12.514558	3.3	19.2	-78.2	0.0
2025-01-24 17:13:13.638963	3.1	19.1	-77.6	0.0
2025-01-24 17:13:14.762685	3.0	19.0	-77.8	0.0
2025-01-24 17:13:15.885299	2.8	18.9	-77.7	0.0
2025-01-24 17:13:17.009987	2.7	18.8	-78.1	0.0
2025-01-24 17:13:18.132762	2.5	18.7	-77.4	0.0
2025-01-24 17:13:19.254985	2.4	18.5	-78.0	0.0
2025-01-24 17:13:20.378393	2.2	18.4	-77.9	0.0
2025-01-24 17:13:21.497912	2.1	18.3	-77.5	0.0
2025-01-24 17:13:22.620024	2.0	18.2	-77.8	0.0
2025-01-24 17:13:23.744230	1.8	18.1	-76.8	0.0
2025-01-24 17:13:24.867158	1.7	18.0	-77.5	0.0
2025-01-24 17:13:25.989667	1.5	17.9	-78.0	0.0
2025-01-24 17:13:27.111609	1.4	17.8	-77.5	0.0
2025-01-24 17:13:28.233755	1.3	17.6	-77.4	0.0
2025-01-24 17:13:29.357132	1.1	17.5	-77.4	0.0
2025-01-24 17:13:30.479088	1.0	17.4	-77.6	0.0
2025-01-24 17:13:31.602253	0.9	17.3	-77.2	0.0
2025-01-24 17:13:32.723481	0.7	17.2	-77.9	0.0
2025-01-24 17:13:33.842532	0.6	17.1	-78.1	0.0
2025-01-24 17:13:34.961787	0.5	17.0	-77.6	0.0
2025-01-24 17:13:36.085700	0.3	16.9	-77.8	0.0
2025-01-24 17:13:37.208608	0.2	16.8	-78.1	0.0
2025-01-24 17:13:38.330426	0.1	16.7	-77.8	0.0
2025-01-24 17:13:39.456254	360.0	16.5	-77.8	0.0
2025-01-24 17:13:40.577626	359.8	16.4	-77.5	0.0
2025-01-24 17:13:41.699229	359.7	16.3	-77.9	0.0
2025-01-24 17:13:42.821669	359.6	16.2	-78.1	0.0
2025-01-24 17:13:43.944124	359.5	16.1	-78.2	0.0
2025-01-24 17:13:45.066465	359.3	16.0	-77.9	0.0
2025-01-24 17:13:46.190798	359.2	15.9	-77.9	0.0
2025-01-24 17:13:47.313480	359.1	15.8	-77.7	0.0
2025-01-24 17:13:48.436786	359.0	15.7	-78.2	0.0
2025-01-24 17:13:49.559056	358.9	15.6	-77.8	0.0
2025-01-24 17:13:50.681210	358.7	15.5	-77.9	0.0
2025-01-24 17:13:51.805331	358.6	15.4	-77.7	0.0
2025-01-24 17:13:52.928401	358.5	15.3	-78.1	0.0
2025-01-24 17:13:54.050013	358.4	15.2	-78.1	0.0
2025-01-24 17:13:55.170290	358.3	15.1	-77.7	0.0
2025-01-24 17:13:56.294671	358.2	15.0	-77.9	0.0
2025-01-24 17:13:57.415744	358.1	14.9	-77.4	0.0
2025-01-24 17:13:58.539134	357.9	14.8	-77.7	0.0
2025-01-24 17:13:59.662006	357.8	14.7	-78.1	0.0
2025-01-24 17:14:00.782126	357.7	14.6	-77.2	0.0
2025-01-24 17:14:01.904671	357.6	14.4	-78.0	0.0
2025-01-24 17:14:03.026762	357.5	14.3	-78.1	0.0
2025-01-24 17:14:04.150402	357.4	14.2	-77.6	0.0
2025-01-24 17:14:05.271545	357.3	14.1	-77.7	0.0
2025-01-24 17:14:06.392498	357.2	14.0	-78.0	0.0
2025-01-24 17:14:07.514251	357.1	13.9	-76.9	0.0
2025-01-24 17:14:08.637665	357.0	13.8	-77.4	0.0
2025-01-24 17:14:09.758777	356.9	13.7	-77.7	0.0
2025-01-24 17:14:10.881191	356.8	13.6	-78.0	0.0
2025-01-24 17:14:12.003668	356.7	13.5	-78.2	0.0
2025-01-24 17:14:13.126160	356.6	13.4	-77.6	0.0
2025-01-24 17:14:14.248405	356.5	13.4	-78.0	0.0
2025-01-24 17:14:15.372746	356.4	13.3	-78.1	0.0
2025-01-24 17:14:16.494969	356.3	13.2	-77.7	0.0
2025-01-24 17:14:17.619164	356.2	13.1	-78.2	0.0
2025-01-24 17:14:18.742373	356.1	13.0	-78.0	0.0
2025-01-24 17:14:19.865706	356.0	12.9	-78.0	0.0
2025-01-24 17:14:20.988219	355.9	12.8	-77.5	0.0
2025-01-24 17:14:22.111590	355.8	12.7	-77.9	0.0
2025-01-24 17:14:23.232378	355.7	12.6	-77.6	0.0
2025-01-24 17:14:24.354386	355.6	12.5	-78.0	0.0
2025-01-24 17:14:25.477142	355.5	12.4	-77.8	0.0
2025-01-24 17:14:26.600413	355.4	12.3	-77.8	0.0
2025-01-24 17:14:27.722785	355.3	12.2	-77.7	0.0
2025-01-24 17:14:28.845502	355.2	12.1	-77.2	0.0
2025-01-24 17:14:29.968207	355.1	12.0	-78.0	0.0
2025-01-24 17:14:31.091565	355.0	11.9	-77.6	0.0
2025-01-24 17:14:32.213811	354.9	11.8	-78.5	0.0
2025-01-24 17:14:33.336923	354.8	11.7	-78.0	0.0
2025-01-24 17:14:34.462383	354.8	11.6	-78.4	0.0
2025-01-24 17:14:35.585320	354.7	11.5	-78.1	0.0
2025-01-24 17:14:36.705677	354.6	11.4	-77.7	0.0
2025-01-24 17:14:37.829104	354.5	11.4	-78.6	0.0
2025-01-24 17:14:38.952643	354.4	11.3	-78.6	0.0
2025-01-24 17:14:40.076624	354.3	11.2	-77.9	0.0
2025-01-24 17:14:41.199639	354.2	11.1	-78.6	0.0
2025-01-24 17:14:42.322425	354.1	11.0	-77.2	0.0
2025-01-24 17:14:43.448704	354.1	10.9	-76.9	0.0
2025-01-24 17:14:44.572507	354.0	10.8	-77.3	0.0
2025-01-24 17:14:45.694924	353.9	10.7	-77.5	0.0
2025-01-24 17:14:46.818283	353.8	10.6	-77.7	0.0
2025-01-24 17:14:47.941945	353.7	10.5	-77.9	0.0
2025-01-24 17:14:49.063967	353.6	10.4	-78.0	0.0
2025-01-24 17:14:50.187940	353.6	10.4	-77.9	0.0
2025-01-24 17:14:51.313331	353.5	10.3	-75.8	0.0
2025-01-24 17:14:52.437141	353.4	10.2	-78.0	0.0
2025-01-24 17:14:53.561407	353.3	10.1	-78.2	0.0
#Closed at: 2025-01-24 17:04:53.459335