passes_logs/2025/01/02/X_MFTI_01/X_MFTI_01__20250102_011108_FENGYUN_3D_rec.log

#Pass ID: 20250102_011108_FENGYUN 3D
#Satellite: FENGYUN 3D
#Configuration: FENGYUN 3D
#Start time: 2025-01-02 01:11:03

#Version: 1.5.20200625
#Station: X_MFTI_01
#Location: 37.5186 lon 55.9291 lat
#TLE: 1 43010U 17072A   23362.50642187  .00000183  00000+0  10870-3 0  9994
#TLE: 2 43010  98.8887 311.3857 0002475  98.0400 262.1057 14.19259665317063

#Time	Az	El	Level	Level2	SNR	BER	Gain	Gain2
2025-01-02 01:11:03.90	6.40	68.18	-74.7	-95.7	3.8	8447937	99	40106
2025-01-02 01:11:04.11	6.34	68.27	-74.8	-95.7	3.8	8458019	99	40006
2025-01-02 01:11:04.31	6.28	68.36	-74.8	-95.8	3.8	8458019	99	40024
2025-01-02 01:11:04.52	6.23	68.46	-74.9	-95.8	3.8	8466888	99	39917
2025-01-02 01:11:04.73	6.17	68.55	-74.7	-95.6	3.8	8463798	99	39928
2025-01-02 01:11:04.94	6.10	68.64	-74.8	-95.7	3.8	8463798	99	40012
2025-01-02 01:11:05.15	6.04	68.74	-74.8	-95.6	3.8	8455215	99	39255
2025-01-02 01:11:05.36	5.98	68.83	-74.8	-95.6	3.8	8447078	99	39244
2025-01-02 01:11:05.57	5.92	68.93	-74.8	-95.7	3.8	8455352	99	40135
2025-01-02 01:11:05.77	5.86	69.02	-74.8	-95.7	3.8	8455352	99	40160
2025-01-02 01:11:05.98	5.80	69.11	-74.7	-95.7	3.8	8450283	99	40107
2025-01-02 01:11:06.19	5.73	69.20	-74.8	-95.8	3.8	8448680	99	40082
2025-01-02 01:11:06.40	5.67	69.30	-74.8	-95.8	3.8	8448680	99	40229
2025-01-02 01:11:06.61	5.60	69.39	-74.8	-95.8	3.8	8453601	99	40214
2025-01-02 01:11:06.82	5.53	69.49	-74.8	-95.8	3.8	8463935	99	40084
2025-01-02 01:11:07.03	5.47	69.58	-74.9	-95.9	3.8	8459793	99	40149
2025-01-02 01:11:07.24	5.40	69.68	-74.9	-95.9	3.8	8459793	99	40188
2025-01-02 01:11:07.45	5.33	69.77	-74.9	-95.8	3.8	8459163	99	40199
2025-01-02 01:11:07.66	5.26	69.87	-74.9	-95.9	3.8	8456920	99	40107
2025-01-02 01:11:07.86	5.20	69.96	-74.7	-95.5	3.7	8456920	99	39718
2025-01-02 01:11:08.07	5.13	70.05	-74.8	-95.6	3.7	8464038	99	39613
2025-01-02 01:11:08.28	5.05	70.15	-74.7	-95.6	3.8	8454471	99	39731
2025-01-02 01:11:08.49	4.98	70.24	-74.8	-95.6	3.8	8466762	99	39687
2025-01-02 01:11:08.70	4.91	70.34	-74.8	-95.8	3.8	8466762	99	40270
2025-01-02 01:11:08.91	4.84	70.43	-74.7	-95.6	3.8	8447513	99	40091
2025-01-02 01:11:09.12	4.76	70.53	-74.8	-95.8	3.8	8452697	99	40252
2025-01-02 01:11:09.32	4.69	70.62	-74.8	-95.7	3.7	8452697	99	40237
2025-01-02 01:11:09.53	4.62	70.72	-74.7	-95.7	3.7	8459072	99	40284
2025-01-02 01:11:09.74	4.54	70.81	-74.7	-95.5	3.8	8459381	99	39491
2025-01-02 01:11:09.95	4.46	70.91	-74.5	-95.2	3.8	8452217	99	39015
2025-01-02 01:11:10.16	4.38	71.00	-74.8	-95.7	3.8	8452217	99	39510
2025-01-02 01:11:10.37	4.31	71.10	-74.8	-95.7	3.8	8456817	99	40262
2025-01-02 01:11:10.58	4.23	71.19	-74.8	-95.8	3.8	8454345	99	40286
2025-01-02 01:11:10.78	4.15	71.29	-74.7	-95.7	3.8	8454345	99	40292
2025-01-02 01:11:10.99	4.07	71.38	-74.7	-95.6	3.8	8456027	99	39918
2025-01-02 01:11:11.20	3.98	71.48	-74.7	-95.6	3.8	8458648	99	39881
2025-01-02 01:11:11.41	3.90	71.57	-74.7	-95.7	3.8	8461875	99	40014
2025-01-02 01:11:11.62	3.82	71.67	-74.7	-95.6	3.8	8461875	99	39906
2025-01-02 01:11:11.83	3.73	71.77	-74.8	-95.8	3.8	8458820	99	40366
2025-01-02 01:11:12.04	3.65	71.86	-74.8	-95.8	3.8	8463924	99	40311
2025-01-02 01:11:12.25	3.56	71.96	-74.7	-95.6	3.8	8463924	99	39916
2025-01-02 01:11:12.46	3.47	72.05	-74.8	-95.8	3.8	8467357	99	40327
2025-01-02 01:11:12.66	3.39	72.15	-74.8	-95.7	3.8	8467391	99	40285
2025-01-02 01:11:12.87	3.29	72.24	-74.7	-95.6	3.8	8465927	99	39763
2025-01-02 01:11:13.08	3.20	72.34	-74.7	-95.6	3.8	8465927	99	39664
2025-01-02 01:11:13.29	3.11	72.44	-74.7	-95.6	3.8	8460914	99	39714
2025-01-02 01:11:13.49	3.02	72.53	-74.7	-95.6	3.8	8460433	99	39745
2025-01-02 01:11:13.70	2.93	72.62	-74.8	-95.7	3.8	8460433	99	40164
2025-01-02 01:11:13.91	2.83	72.72	-74.8	-95.8	3.8	8470790	99	40247
2025-01-02 01:11:14.12	2.74	72.82	-74.7	-95.7	3.8	8470630	99	40258
2025-01-02 01:11:14.33	2.64	72.91	-74.7	-95.4	3.8	8465904	99	39054
2025-01-02 01:11:14.54	2.54	73.01	-74.7	-95.4	3.8	8465904	99	39110
2025-01-02 01:11:14.75	2.44	73.11	-74.7	-95.4	3.8	8463249	99	39068
2025-01-02 01:11:14.96	2.34	73.20	-74.7	-95.7	3.8	8459770	99	40166
2025-01-02 01:11:15.16	2.24	73.30	-74.7	-95.7	3.8	8453521	99	40170
2025-01-02 01:11:15.37	2.14	73.39	-74.7	-95.6	3.8	8453521	99	39933
2025-01-02 01:11:15.58	2.03	73.49	-74.8	-95.8	3.8	8456256	99	40191
2025-01-02 01:11:15.79	1.92	73.59	-74.7	-95.7	3.8	8463340	99	40283
2025-01-02 01:11:16.00	1.82	73.68	-74.7	-95.4	3.8	8463340	99	39135
2025-01-02 01:11:16.21	1.71	73.78	-74.7	-95.4	3.8	8471878	99	39156
2025-01-02 01:11:16.42	1.60	73.88	-74.7	-95.6	3.8	8464038	99	40263
2025-01-02 01:11:16.63	1.48	73.97	-74.7	-95.7	3.8	8461154	99	40251
2025-01-02 01:11:16.83	1.38	74.07	-74.8	-95.7	3.8	8461154	99	40152
2025-01-02 01:11:17.04	1.26	74.16	-74.7	-95.7	3.8	8462059	99	40147
2025-01-02 01:11:17.25	1.14	74.26	-74.7	-95.7	3.8	8453475	99	40238
2025-01-02 01:11:17.46	1.03	74.36	-74.8	-95.7	3.8	8453475	99	39801
2025-01-02 01:11:17.67	0.91	74.45	-74.7	-95.6	3.8	8451908	99	39837
2025-01-02 01:11:17.88	0.79	74.55	-74.7	-95.6	3.8	8459690	99	39941
2025-01-02 01:11:18.09	0.66	74.65	-74.8	-95.7	3.8	8459690	99	40168
2025-01-02 01:11:18.29	0.55	74.74	-74.8	-95.8	3.8	8464508	99	40199
2025-01-02 01:11:18.50	0.42	74.84	-74.7	-95.6	3.8	8443954	99	40091
2025-01-02 01:11:18.71	0.29	74.93	-74.8	-95.7	3.7	8457218	99	40173
2025-01-02 01:11:18.92	0.16	75.03	-74.8	-95.7	3.7	8457218	99	39647
2025-01-02 01:11:19.13	0.03	75.13	-74.7	-95.6	3.8	8463924	99	39610
2025-01-02 01:11:19.34	359.90	75.23	-74.7	-95.6	3.8	8457950	99	39671
2025-01-02 01:11:19.55	359.77	75.32	-74.7	-95.7	3.8	8457950	99	40308
2025-01-02 01:11:19.76	359.63	75.42	-74.7	-95.7	3.8	8463443	99	40206
2025-01-02 01:11:19.97	359.49	75.52	-74.8	-95.8	3.8	8455707	99	40159
2025-01-02 01:11:20.17	359.36	75.61	-74.8	-95.7	3.8	8456726	99	40122
2025-01-02 01:11:20.38	359.21	75.71	-74.7	-95.6	3.7	8456726	99	40139
2025-01-02 01:11:20.59	359.07	75.80	-74.7	-95.6	3.8	8466018	99	39654
2025-01-02 01:11:20.80	358.92	75.90	-74.7	-95.6	3.8	8460182	99	39733
2025-01-02 01:11:21.01	358.78	76.00	-74.7	-95.6	3.8	8466556	99	39810
2025-01-02 01:11:21.22	358.63	76.09	-74.5	-95.3	3.8	8466556	99	39736
2025-01-02 01:11:21.43	358.47	76.19	-74.8	-95.8	3.8	8471855	99	40203
2025-01-02 01:11:21.63	358.33	76.28	-74.8	-95.7	3.8	8462173	99	39971
2025-01-02 01:11:21.84	358.17	76.38	-74.8	-95.8	3.7	8462173	99	39978
2025-01-02 01:11:22.05	358.01	76.48	-74.8	-95.6	3.8	8451496	99	39493
2025-01-02 01:11:22.26	357.85	76.57	-74.8	-95.6	3.8	8455181	99	39350
2025-01-02 01:11:22.47	357.68	76.67	-74.8	-95.7	3.8	8459884	99	39719
2025-01-02 01:11:22.67	357.52	76.76	-74.8	-95.7	3.8	8459884	99	40187
2025-01-02 01:11:22.88	357.35	76.86	-74.8	-95.7	3.8	8464118	99	40165
2025-01-02 01:11:23.09	357.18	76.95	-74.8	-95.8	3.8	8467185	99	40167
2025-01-02 01:11:23.30	357.01	77.05	-74.8	-95.6	3.7	8467185	99	39824
2025-01-02 01:11:23.51	356.83	77.15	-74.8	-95.8	3.8	8457881	99	40150
2025-01-02 01:11:23.72	356.65	77.24	-74.8	-95.5	3.8	8461269	99	38760
2025-01-02 01:11:23.93	356.47	77.34	-74.7	-95.4	3.7	8460983	99	38663
2025-01-02 01:11:24.14	356.28	77.44	-74.7	-95.3	3.9	8460983	99	38680
2025-01-02 01:11:24.34	356.10	77.53	-74.7	-95.6	3.9	8452857	99	39593
2025-01-02 01:11:24.55	355.91	77.62	-74.8	-95.8	3.8	8457756	99	40110
2025-01-02 01:11:24.76	355.72	77.72	-74.8	-95.7	3.8	8457756	99	40088
2025-01-02 01:11:24.97	355.52	77.82	-74.8	-95.7	3.8	8460914	99	39905
2025-01-02 01:11:25.18	355.32	77.91	-74.8	-95.5	3.8	8456760	99	38895
2025-01-02 01:11:25.39	355.12	78.01	-74.7	-95.4	3.8	8461807	99	38793
2025-01-02 01:11:25.60	354.91	78.10	-74.7	-95.4	3.8	8461807	99	38868
2025-01-02 01:11:25.80	354.71	78.19	-74.7	-95.6	3.8	8472255	99	39967
2025-01-02 01:11:26.01	354.49	78.29	-74.7	-95.6	3.8	8453601	99	39991
2025-01-02 01:11:26.22	354.27	78.39	-74.7	-95.7	3.8	8453601	99	40119
2025-01-02 01:11:26.43	354.05	78.48	-74.8	-95.7	3.8	8464851	99	40019
2025-01-02 01:11:26.64	353.83	78.58	-74.8	-95.7	3.8	8449047	99	40026
2025-01-02 01:11:26.85	353.60	78.67	-74.8	-95.5	3.8	8454437	99	39198
2025-01-02 01:11:27.06	353.36	78.77	-74.7	-95.5	3.8	8454437	99	39199
2025-01-02 01:11:27.27	353.13	78.86	-74.7	-95.7	3.8	8469177	99	40022
2025-01-02 01:11:27.47	352.90	78.95	-74.8	-95.7	3.8	8455627	99	39984
2025-01-02 01:11:27.68	352.65	79.04	-74.8	-95.7	3.8	8455627	99	40048
2025-01-02 01:11:27.89	352.40	79.14	-74.9	-95.8	3.8	8467998	99	39965
2025-01-02 01:11:28.10	352.15	79.23	-74.7	-95.7	3.8	8449768	99	40031
2025-01-02 01:11:28.31	351.89	79.33	-74.8	-95.6	3.8	8461486	99	39229
2025-01-02 01:11:28.52	351.62	79.42	-74.9	-95.6	3.8	8461486	99	39227
2025-01-02 01:11:28.73	351.35	79.51	-74.7	-95.5	3.8	8465515	99	39290
2025-01-02 01:11:28.93	351.09	79.60	-74.7	-95.7	3.8	8465961	99	40369
2025-01-02 01:11:29.14	350.82	79.70	-74.8	-95.7	3.8	8465961	99	40242
2025-01-02 01:11:29.35	350.53	79.79	-74.8	-95.8	3.8	8455398	99	40316
2025-01-02 01:11:29.56	350.24	79.88	-74.7	-95.6	3.7	8454757	99	40253
2025-01-02 01:11:29.77	349.95	79.98	-74.8	-95.7	3.7	8461132	99	40069
2025-01-02 01:11:29.98	349.65	80.07	-74.7	-95.7	3.8	8461132	99	40103
2025-01-02 01:11:30.19	349.34	80.16	-74.7	-95.7	3.8	8456039	99	40234
2025-01-02 01:11:30.40	349.03	80.25	-74.7	-95.7	3.8	8465354	99	40315
2025-01-02 01:11:30.60	348.73	80.34	-74.7	-95.7	3.8	8466350	99	40346
2025-01-02 01:11:30.81	348.41	80.43	-74.7	-95.7	3.8	8466350	99	40344
2025-01-02 01:11:31.02	348.08	80.52	-74.8	-95.7	3.8	8456851	99	40297
2025-01-02 01:11:31.23	347.74	80.61	-74.8	-95.8	3.7	8459918	99	40300
2025-01-02 01:11:31.44	347.40	80.70	-74.8	-95.7	3.8	8459918	99	39809
2025-01-02 01:11:31.65	347.05	80.79	-74.8	-95.6	3.8	8450466	99	39861
2025-01-02 01:11:31.86	346.69	80.88	-74.8	-95.6	3.8	8463214	99	39870
2025-01-02 01:11:32.06	346.34	80.97	-74.7	-95.7	3.8	8463134	99	40392
2025-01-02 01:11:32.27	345.97	81.06	-74.7	-95.7	3.8	8463134	99	40304
2025-01-02 01:11:32.48	345.59	81.15	-74.7	-95.7	3.8	8460994	99	40319
2025-01-02 01:11:32.69	345.21	81.24	-74.8	-95.8	3.7	8470058	99	40303
2025-01-02 01:11:32.90	344.81	81.32	-74.7	-95.7	3.8	8470058	99	40247
2025-01-02 01:11:33.11	344.41	81.41	-74.8	-95.8	3.8	8466316	99	40412
2025-01-02 01:11:33.32	344.00	81.50	-74.8	-95.8	3.8	8452846	99	40388
2025-01-02 01:11:33.53	343.58	81.59	-74.7	-95.7	3.8	8450672	99	40360
2025-01-02 01:11:33.73	343.17	81.67	-74.7	-95.7	3.8	8450672	99	40391
2025-01-02 01:11:33.94	342.73	81.76	-74.7	-95.7	3.8	8469600	99	40296
2025-01-02 01:11:34.15	342.28	81.84	-74.7	-95.7	3.8	8461692	99	40434
2025-01-02 01:11:34.36	341.83	81.93	-74.8	-95.8	3.8	8461692	99	40337
2025-01-02 01:11:34.57	341.36	82.01	-74.7	-95.2	3.8	8458763	99	38359
2025-01-02 01:11:34.77	340.91	82.09	-74.8	-95.5	3.8	8472736	99	38971
2025-01-02 01:11:34.98	340.42	82.18	-74.7	-95.5	3.8	8472736	99	39065
2025-01-02 01:11:35.19	339.92	82.26	-74.7	-95.7	3.8	8461418	99	40421
2025-01-02 01:11:35.40	339.42	82.34	-74.8	-95.7	3.8	8456577	99	40269
2025-01-02 01:11:35.61	338.90	82.42	-74.8	-95.7	3.8	8455581	99	39920
2025-01-02 01:11:35.82	338.37	82.51	-74.8	-95.7	3.8	8455581	99	40172
2025-01-02 01:11:36.03	337.82	82.59	-74.8	-95.7	3.8	8459220	99	39839
2025-01-02 01:11:36.23	337.30	82.66	-74.8	-95.7	3.8	8459552	99	39863
2025-01-02 01:11:36.44	336.73	82.74	-74.8	-95.7	3.8	8459552	99	39826
2025-01-02 01:11:36.65	336.15	82.82	-74.4	-95.3	3.8	8454380	99	39977
2025-01-02 01:11:36.86	335.56	82.90	-74.7	-95.7	3.8	8466487	99	40400
2025-01-02 01:11:37.07	334.95	82.98	-74.7	-95.7	3.8	8455810	99	40337
2025-01-02 01:11:37.28	334.34	83.05	-74.7	-95.7	3.8	8455810	99	40311
2025-01-02 01:11:37.49	333.70	83.13	-74.7	-95.7	3.8	8460628	99	40339
2025-01-02 01:11:37.70	333.06	83.21	-74.8	-95.6	3.9	8468582	99	39250
2025-01-02 01:11:37.91	332.39	83.28	-74.8	-95.6	3.8	8460903	99	39882
2025-01-02 01:11:38.11	331.75	83.35	-74.7	-95.7	3.8	8460903	99	40400
2025-01-02 01:11:38.32	331.06	83.42	-74.6	-95.6	3.8	8469394	99	40345
2025-01-02 01:11:38.53	330.36	83.49	-74.7	-95.6	3.8	8458637	99	40337
2025-01-02 01:11:38.74	329.63	83.56	-74.7	-95.7	3.8	8458637	99	40305
2025-01-02 01:11:38.95	328.90	83.63	-74.7	-95.7	3.8	8453475	99	40287
2025-01-02 01:11:39.16	328.14	83.70	-74.7	-95.6	3.9	8455993	99	39898
2025-01-02 01:11:39.36	327.41	83.77	-74.9	-95.7	3.8	8465995	99	39759
2025-01-02 01:11:39.57	326.62	83.83	-74.9	-95.7	3.8	8465995	99	39601
2025-01-02 01:11:39.78	325.82	83.90	-74.8	-95.7	3.8	8459312	99	39915
2025-01-02 01:11:39.99	325.00	83.96	-74.8	-95.7	3.8	8455821	99	40130
2025-01-02 01:11:40.20	324.16	84.02	-74.8	-95.7	3.8	8455821	99	40143
2025-01-02 01:11:40.41	323.30	84.09	-74.8	-95.7	3.7	8462837	99	40212
2025-01-02 01:11:40.62	322.43	84.15	-74.8	-95.5	3.8	8455078	99	39152
2025-01-02 01:11:40.82	321.58	84.20	-74.9	-95.6	3.8	8456623	99	39196
2025-01-02 01:11:41.03	320.67	84.26	-74.8	-95.6	3.8	8456623	99	39237
2025-01-02 01:11:41.24	319.74	84.31	-74.8	-95.8	3.8	8453281	99	40199
2025-01-02 01:11:41.45	318.80	84.37	-74.8	-95.8	3.8	8452606	99	40244
2025-01-02 01:11:41.66	317.83	84.42	-74.8	-95.8	3.8	8452606	99	40117
2025-01-02 01:11:41.87	316.85	84.47	-74.7	-95.6	3.7	8457412	99	40138
2025-01-02 01:11:42.08	315.85	84.52	-74.8	-95.7	3.7	8460937	99	40028
2025-01-02 01:11:42.29	314.83	84.57	-74.8	-95.5	3.8	8472347	99	38952
2025-01-02 01:11:42.50	313.80	84.62	-74.8	-95.4	3.8	8472347	99	38875
2025-01-02 01:11:42.71	312.74	84.66	-74.8	-95.5	3.8	8449241	99	38924
2025-01-02 01:11:42.91	311.72	84.70	-74.7	-95.7	3.8	8462368	99	40168
2025-01-02 01:11:43.12	310.64	84.74	-74.7	-95.7	3.8	8462368	99	40212
2025-01-02 01:11:43.33	309.53	84.78	-74.7	-95.7	3.8	8463466	99	40135
2025-01-02 01:11:43.54	308.41	84.82	-74.7	-95.7	3.7	8467849	99	40061
2025-01-02 01:11:43.75	307.27	84.85	-74.8	-95.6	3.8	8463684	99	39258
2025-01-02 01:11:43.96	306.12	84.89	-74.8	-95.6	3.8	8463684	99	39470
2025-01-02 01:11:44.17	304.96	84.92	-74.8	-95.6	3.8	8453899	99	39519
2025-01-02 01:11:44.38	303.78	84.95	-74.7	-95.6	3.8	8464038	99	40053
2025-01-02 01:11:44.58	302.64	84.97	-74.7	-95.7	3.8	8464038	99	40076
2025-01-02 01:11:44.79	301.44	84.99	-74.7	-95.6	3.8	8451942	99	40080
2025-01-02 01:11:45.00	300.22	85.02	-74.7	-95.7	3.7	8466419	99	40099
2025-01-02 01:11:45.21	299.00	85.04	-74.8	-95.7	3.8	8458465	99	40178
2025-01-02 01:11:45.42	297.76	85.05	-74.8	-95.6	3.8	8458465	99	39728
2025-01-02 01:11:45.63	296.52	85.07	-74.8	-95.7	3.8	8446815	99	39713
2025-01-02 01:11:45.84	295.27	85.08	-74.8	-95.7	3.8	8458396	99	39683
2025-01-02 01:11:46.05	294.01	85.09	-74.7	-95.7	3.8	8458396	99	40125
2025-01-02 01:11:46.25	292.81	85.10	-74.7	-95.7	3.8	8459678	99	40174
2025-01-02 01:11:46.46	291.54	85.11	-74.7	-95.7	3.8	8457469	99	40203
2025-01-02 01:11:46.67	290.27	85.11	-74.7	-95.7	3.8	8456874	99	40209
2025-01-02 01:11:46.88	289.00	85.11	-74.8	-95.5	3.8	8456874	99	39283
2025-01-02 01:11:47.08	287.80	85.11	-74.8	-95.6	3.8	8468158	99	39384
2025-01-02 01:11:47.29	286.53	85.11	-74.8	-95.6	3.8	8459449	99	39415
2025-01-02 01:11:47.50	285.26	85.10	-74.8	-95.7	3.8	8459449	99	40195
2025-01-02 01:11:47.71	284.00	85.09	-74.8	-95.8	3.8	8459461	99	40211
2025-01-02 01:11:47.92	282.74	85.08	-74.7	-95.5	3.8	8460319	99	39689
2025-01-02 01:11:48.12	281.55	85.07	-74.7	-95.7	3.8	8450466	99	40316
2025-01-02 01:11:48.33	280.31	85.06	-74.7	-95.7	3.8	8450466	99	40193
2025-01-02 01:11:48.54	279.07	85.04	-74.7	-95.6	3.8	8462837	99	39774
2025-01-02 01:11:48.75	277.84	85.02	-74.8	-95.7	3.8	8462722	99	39745
2025-01-02 01:11:48.96	276.63	85.00	-74.8	-95.7	3.8	8464050	99	39970
2025-01-02 01:11:49.17	275.42	84.97	-74.8	-95.8	3.8	8464050	99	40140
2025-01-02 01:11:49.38	274.23	84.95	-74.7	-95.7	3.8	8470230	99	40328
2025-01-02 01:11:49.58	273.10	84.92	-74.6	-95.6	3.8	8451324	99	40262
2025-01-02 01:11:49.79	271.93	84.89	-74.7	-95.7	3.8	8451324	99	40322
2025-01-02 01:11:50.00	270.78	84.86	-74.7	-95.6	3.8	8460994	99	39781
2025-01-02 01:11:50.21	269.64	84.82	-74.6	-95.6	3.8	8465332	99	40119
2025-01-02 01:11:50.42	268.52	84.78	-74.6	-95.6	3.8	8462837	99	40089
2025-01-02 01:11:50.63	267.42	84.75	-74.7	-95.7	3.8	8462837	99	40315
2025-01-02 01:11:50.84	266.33	84.71	-74.7	-95.7	3.8	8450569	99	40239
2025-01-02 01:11:51.05	265.25	84.66	-74.6	-95.5	3.8	8465938	99	39760
2025-01-02 01:11:51.25	264.25	84.62	-74.7	-95.7	3.7	8465938	99	40232
2025-01-02 01:11:51.46	263.21	84.57	-74.7	-95.5	3.8	8457572	99	39812
2025-01-02 01:11:51.67	262.19	84.53	-74.7	-95.5	3.9	8460502	99	39810
2025-01-02 01:11:51.88	261.19	84.48	-74.7	-95.6	3.8	8464416	99	39759
2025-01-02 01:11:52.09	260.20	84.43	-74.8	-95.7	3.8	8464416	99	40196
2025-01-02 01:11:52.30	259.24	84.37	-74.7	-95.7	3.8	8459335	99	40234
2025-01-02 01:11:52.51	258.29	84.32	-74.8	-95.7	3.8	8451656	99	40231
2025-01-02 01:11:52.71	257.41	84.27	-74.7	-95.7	3.8	8451656	99	40272
2025-01-02 01:11:52.92	256.49	84.21	-74.7	-95.6	3.7	8450191	99	40221
2025-01-02 01:11:53.13	255.60	84.15	-74.7	-95.6	4.0	8466419	99	39846
2025-01-02 01:11:53.34	254.72	84.09	-74.8	-95.7	3.8	8466419	99	39810
2025-01-02 01:11:53.55	253.87	84.03	-74.8	-95.7	3.8	8454048	99	39861
2025-01-02 01:11:53.76	253.03	83.97	-74.7	-95.6	3.8	8455181	99	40199
2025-01-02 01:11:53.96	252.24	83.91	-74.8	-95.8	3.8	8452377	99	40273
2025-01-02 01:11:54.17	251.44	83.84	-74.8	-95.7	3.7	8452377	99	40191
2025-01-02 01:11:54.38	250.65	83.78	-74.6	-95.6	3.7	8464015	99	40190
2025-01-02 01:11:54.59	249.87	83.71	-74.7	-95.3	3.9	8451564	99	38935
2025-01-02 01:11:54.80	249.12	83.64	-74.7	-95.3	3.8	8451564	99	38973
2025-01-02 01:11:55.01	248.38	83.57	-74.7	-95.4	3.8	8460754	99	38981
2025-01-02 01:11:55.21	247.69	83.50	-74.7	-95.7	3.8	8456623	99	40305
2025-01-02 01:11:55.42	246.98	83.43	-74.7	-95.7	3.8	8458843	99	40305
2025-01-02 01:11:55.63	246.29	83.36	-74.7	-95.6	3.8	8458843	99	40248
2025-01-02 01:11:55.84	245.61	83.29	-74.7	-95.7	3.8	8473812	99	40217
2025-01-02 01:11:56.05	244.95	83.21	-74.7	-95.7	3.7	8464931	99	40295
2025-01-02 01:11:56.26	244.30	83.14	-74.7	-95.5	3.8	8463844	99	39755
2025-01-02 01:11:56.47	243.67	83.06	-74.7	-95.5	3.9	8463844	99	39713
2025-01-02 01:11:56.68	243.05	82.98	-74.7	-95.6	3.8	8451885	99	39789
2025-01-02 01:11:56.88	242.47	82.91	-74.7	-95.6	3.8	8456760	99	40098
2025-01-02 01:11:57.09	241.88	82.83	-74.7	-95.7	3.8	8456760	99	40255
2025-01-02 01:11:57.30	241.29	82.75	-74.6	-95.6	3.8	8464954	99	40201
2025-01-02 01:11:57.51	240.73	82.67	-74.7	-95.7	3.8	8459907	99	40224
2025-01-02 01:11:57.72	240.17	82.59	-74.7	-95.5	3.8	8462574	99	39459
2025-01-02 01:11:57.93	239.63	82.51	-74.7	-95.5	3.8	8462574	99	39365
2025-01-02 01:11:58.13	239.12	82.43	-74.7	-95.5	3.8	8478149	99	39459
2025-01-02 01:11:58.34	238.60	82.35	-74.7	-95.7	3.8	8459598	99	40330
2025-01-02 01:11:58.55	238.09	82.27	-74.7	-95.7	3.8	8459598	99	40218
2025-01-02 01:11:58.76	237.59	82.19	-74.7	-95.7	3.8	8456348	99	40301
2025-01-02 01:11:58.97	237.10	82.10	-74.7	-95.7	3.8	8455581	99	40323
2025-01-02 01:11:59.18	236.63	82.02	-74.7	-95.7	3.8	8468215	99	40298
2025-01-02 01:11:59.39	236.16	81.93	-74.7	-95.5	3.8	8468215	99	39380
2025-01-02 01:11:59.60	235.70	81.85	-74.7	-95.5	3.8	8466327	99	39351
2025-01-02 01:11:59.80	235.27	81.77	-74.7	-95.7	3.8	8459220	99	40287
2025-01-02 01:12:00.01	234.83	81.68	-74.2	-94.3	3.8	8459220	99	36383
2025-01-02 01:12:00.22	234.40	81.59	-74.8	-95.7	3.8	8453430	99	40333
2025-01-02 01:12:00.43	233.98	81.51	-74.6	-95.6	3.8	8451141	99	40256
2025-01-02 01:12:00.64	233.57	81.42	-74.8	-95.7	3.8	8448772	99	40177
2025-01-02 01:12:00.85	233.17	81.33	-74.7	-95.7	3.8	8448772	99	40342
2025-01-02 01:12:01.05	232.79	81.25	-74.8	-95.8	3.8	8461853	99	40341
2025-01-02 01:12:01.26	232.40	81.16	-74.7	-95.6	3.8	8454586	99	39780
2025-01-02 01:12:01.47	232.02	81.07	-74.7	-95.7	3.8	8454586	99	40223
2025-01-02 01:12:01.68	231.65	80.98	-74.7	-95.7	3.8	8446792	99	40130
2025-01-02 01:12:01.89	231.29	80.89	-74.8	-95.7	3.8	8464633	99	40191
2025-01-02 01:12:02.10	230.93	80.80	-74.8	-95.7	3.8	8461864	99	40158
2025-01-02 01:12:02.30	230.59	80.71	-74.7	-95.4	3.7	8461864	99	38819
2025-01-02 01:12:02.51	230.25	80.62	-74.7	-95.4	3.8	8474773	99	39107
2025-01-02 01:12:02.72	229.91	80.53	-74.8	-95.5	3.8	8460926	99	39030
2025-01-02 01:12:02.93	229.58	80.44	-74.8	-95.8	3.8	8460926	99	40194
2025-01-02 01:12:03.14	229.26	80.35	-74.8	-95.8	3.8	8457607	99	40158
2025-01-02 01:12:03.35	228.94	80.26	-74.5	-95.4	3.8	8463924	99	39787
2025-01-02 01:12:03.56	228.63	80.16	-74.8	-95.8	3.8	8454391	99	40131
2025-01-02 01:12:03.77	228.32	80.07	-74.8	-95.8	3.7	8454391	99	40043
2025-01-02 01:12:03.98	228.02	79.98	-74.7	-95.6	3.8	8455673	99	39756
2025-01-02 01:12:04.18	227.74	79.89	-74.8	-95.7	3.8	8480529	99	39838
2025-01-02 01:12:04.39	227.45	79.80	-74.8	-95.6	3.8	8480529	99	39461
2025-01-02 01:12:04.60	227.16	79.71	-74.7	-95.7	3.8	8470607	99	40060
2025-01-02 01:12:04.81	226.88	79.61	-74.7	-95.7	3.8	8451633	99	40258
2025-01-02 01:12:05.02	226.61	79.52	-74.8	-95.8	3.8	8449321	99	40254
2025-01-02 01:12:05.23	226.34	79.42	-74.8	-95.7	3.8	8449321	99	40114
2025-01-02 01:12:05.44	226.08	79.33	-74.7	-95.5	3.7	8463294	99	39283
2025-01-02 01:12:05.65	225.82	79.24	-74.7	-95.5	3.8	8453842	99	39514
2025-01-02 01:12:05.86	225.56	79.14	-74.7	-95.5	3.8	8474544	99	39492
2025-01-02 01:12:06.07	225.31	79.05	-74.7	-95.6	3.8	8474544	99	40102
2025-01-02 01:12:06.27	225.08	78.96	-74.7	-95.7	3.8	8455066	99	40247
2025-01-02 01:12:06.48	224.84	78.86	-74.7	-95.7	3.8	8468971	99	40183
2025-01-02 01:12:06.69	224.60	78.77	-74.7	-95.7	3.8	8468971	99	40232
2025-01-02 01:12:06.90	224.36	78.67	-74.7	-95.6	3.7	8463752	99	40139
2025-01-02 01:12:07.11	224.13	78.58	-74.8	-95.5	3.8	8453670	99	39160
2025-01-02 01:12:07.31	223.92	78.49	-74.7	-95.4	3.8	8451850	99	39111
2025-01-02 01:12:07.52	223.70	78.39	-74.7	-95.4	3.8	8451850	99	39088
2025-01-02 01:12:07.73	223.48	78.30	-74.8	-95.7	3.8	8455341	99	40031
2025-01-02 01:12:07.94	223.26	78.20	-74.8	-95.7	3.8	8462310	99	40037
2025-01-02 01:12:08.15	223.05	78.11	-74.8	-95.7	3.8	8462310	99	40043
2025-01-02 01:12:08.36	222.84	78.01	-74.8	-95.7	3.8	8461086	99	39974
2025-01-02 01:12:08.57	222.64	77.91	-74.7	-95.4	3.8	8462047	99	39205
2025-01-02 01:12:08.78	222.44	77.82	-74.7	-95.4	3.8	8447879	99	39206
2025-01-02 01:12:08.98	222.25	77.73	-74.7	-95.4	3.8	8447879	99	39194
2025-01-02 01:12:09.19	222.05	77.63	-74.8	-95.7	3.8	8456840	99	40043
2025-01-02 01:12:09.40	221.86	77.53	-74.8	-95.7	3.8	8456748	99	40019
2025-01-02 01:12:09.61	221.67	77.44	-74.8	-95.7	3.8	8456748	99	40072
2025-01-02 01:12:09.82	221.49	77.34	-74.8	-95.7	3.8	8467151	99	40041
2025-01-02 01:12:10.02	221.31	77.25	-74.8	-95.8	3.8	8456668	99	40241
2025-01-02 01:12:10.23	221.13	77.15	-74.7	-95.5	3.8	8452766	99	39355
2025-01-02 01:12:10.44	220.96	77.06	-74.7	-95.5	3.8	8452766	99	39436
2025-01-02 01:12:10.65	220.78	76.96	-74.6	-95.4	3.8	8463867	99	39412
2025-01-02 01:12:10.86	220.61	76.86	-74.7	-95.6	3.8	8457309	99	40266
2025-01-02 01:12:11.07	220.44	76.77	-74.7	-95.6	3.8	8457309	99	40256
2025-01-02 01:12:11.28	220.27	76.67	-74.8	-95.7	3.8	8461795	99	40269
2025-01-02 01:12:11.49	220.11	76.57	-74.7	-95.6	3.8	8450592	99	40258
2025-01-02 01:12:11.69	219.95	76.48	-74.7	-95.3	3.8	8450592	99	38832
2025-01-02 01:12:11.90	219.79	76.38	-74.7	-95.4	3.8	8463203	99	38881
2025-01-02 01:12:12.11	219.64	76.29	-74.7	-95.3	3.8	8465332	99	38899
2025-01-02 01:12:12.32	219.48	76.19	-74.6	-95.6	3.8	8452148	99	40253
2025-01-02 01:12:12.53	219.33	76.09	-74.6	-95.6	3.8	8452148	99	40385
2025-01-02 01:12:12.73	219.18	76.00	-74.7	-95.7	3.8	8458419	99	40213
2025-01-02 01:12:12.94	219.04	75.90	-74.6	-95.6	3.8	8464038	99	40273
2025-01-02 01:12:13.15	218.89	75.81	-74.6	-95.6	3.8	8464038	99	40184
2025-01-02 01:12:13.36	218.74	75.71	-74.7	-95.6	3.8	8461795	99	39732
2025-01-02 01:12:13.57	218.60	75.61	-74.6	-95.5	3.8	8450534	99	39772
2025-01-02 01:12:13.78	218.46	75.52	-74.7	-95.7	3.8	8450992	99	40291
2025-01-02 01:12:13.98	218.33	75.42	-74.7	-95.7	3.8	8450992	99	40179
2025-01-02 01:12:14.19	218.19	75.33	-74.7	-95.7	3.8	8462837	99	40282
2025-01-02 01:12:14.40	218.06	75.23	-74.7	-95.7	3.8	8461120	99	40291
2025-01-02 01:12:14.61	217.92	75.13	-74.7	-95.5	3.7	8461761	99	39555
2025-01-02 01:12:14.82	217.79	75.03	-74.7	-95.7	3.8	8461761	99	40038
2025-01-02 01:12:15.03	217.66	74.94	-74.7	-95.6	3.8	8454139	99	40096
2025-01-02 01:12:15.24	217.54	74.84	-74.7	-95.6	3.8	8465309	99	40059
2025-01-02 01:12:15.44	217.42	74.75	-74.7	-95.7	3.8	8465309	99	40208
2025-01-02 01:12:15.65	217.29	74.65	-74.8	-95.8	3.8	8456245	99	40210
2025-01-02 01:12:15.86	217.17	74.55	-74.8	-95.8	3.7	8459621	99	40144
2025-01-02 01:12:16.07	217.05	74.46	-74.8	-95.8	3.7	8467895	99	40180
2025-01-02 01:12:16.28	216.93	74.36	-74.8	-95.6	3.8	8467895	99	39406
2025-01-02 01:12:16.49	216.81	74.26	-74.8	-95.6	3.8	8469486	99	39651
2025-01-02 01:12:16.70	216.69	74.16	-74.6	-95.3	3.8	8461463	99	38959
2025-01-02 01:12:16.91	216.58	74.07	-74.7	-95.7	3.8	8463626	99	40190
2025-01-02 01:12:17.11	216.47	73.97	-74.8	-95.8	3.8	8463626	99	40165
2025-01-02 01:12:17.32	216.36	73.88	-74.8	-95.8	3.8	8453704	99	40158
2025-01-02 01:12:17.53	216.25	73.78	-74.8	-95.6	3.7	8462539	99	39141
2025-01-02 01:12:17.74	216.14	73.68	-74.8	-95.7	3.7	8462539	99	40038
2025-01-02 01:12:17.95	216.03	73.59	-74.7	-95.5	3.8	8463718	99	39606
2025-01-02 01:12:18.16	215.92	73.49	-74.7	-95.6	3.8	8456520	99	39587
2025-01-02 01:12:18.37	215.82	73.39	-74.7	-95.5	3.8	8456520	99	39657
2025-01-02 01:12:18.58	215.71	73.30	-74.7	-95.7	3.8	8464118	99	40217
2025-01-02 01:12:18.78	215.62	73.20	-74.8	-95.7	3.8	8461475	99	40352
2025-01-02 01:12:18.99	215.51	73.11	-74.8	-95.8	3.8	8466247	99	40302
2025-01-02 01:12:19.20	215.41	73.01	-74.8	-95.7	3.7	8466247	99	40199
2025-01-02 01:12:19.41	215.31	72.91	-74.7	-95.5	3.8	8453613	99	39233
2025-01-02 01:12:19.62	215.22	72.82	-74.7	-95.5	3.8	8461063	99	39223
2025-01-02 01:12:19.83	215.12	72.72	-74.7	-95.5	3.8	8461063	99	39294
2025-01-02 01:12:20.03	215.03	72.63	-74.7	-95.7	3.8	8457195	99	40268
2025-01-02 01:12:20.24	214.93	72.53	-74.8	-95.7	3.8	8454700	99	40299
2025-01-02 01:12:20.45	214.84	72.43	-74.7	-95.7	3.8	8460124	99	40339
2025-01-02 01:12:20.66	214.75	72.34	-74.8	-95.7	3.8	8460124	99	40089
2025-01-02 01:12:20.87	214.66	72.24	-74.8	-95.8	3.8	8454849	99	40165
2025-01-02 01:12:21.08	214.57	72.14	-74.8	-95.6	3.8	8466865	99	39573
2025-01-02 01:12:21.29	214.48	72.05	-74.7	-95.5	3.8	8466865	99	39503
2025-01-02 01:12:21.50	214.39	71.95	-74.7	-95.5	3.8	8462425	99	39534
2025-01-02 01:12:21.71	214.30	71.85	-74.8	-95.7	3.8	8455432	99	40078
2025-01-02 01:12:21.91	214.22	71.76	-74.8	-95.7	3.8	8450122	99	40218
2025-01-02 01:12:22.12	214.13	71.67	-74.7	-95.7	3.8	8450122	99	40247
2025-01-02 01:12:22.33	214.05	71.57	-74.8	-95.8	3.8	8451919	99	40205
2025-01-02 01:12:22.54	213.96	71.47	-74.7	-95.6	3.8	8451232	99	39534
2025-01-02 01:12:22.75	213.88	71.38	-74.7	-95.5	3.8	8451232	99	39483
2025-01-02 01:12:22.96	213.80	71.28	-74.8	-95.6	3.8	8450099	99	39515
2025-01-02 01:12:23.17	213.72	71.18	-74.8	-95.7	3.8	8451942	99	40251
2025-01-02 01:12:23.37	213.64	71.09	-74.7	-95.7	3.8	8455375	99	40181
2025-01-02 01:12:23.58	213.56	71.00	-74.5	-95.4	3.8	8455375	99	39849
2025-01-02 01:12:23.79	213.49	70.90	-74.7	-95.7	3.8	8458190	99	40369
2025-01-02 01:12:24.00	213.41	70.81	-74.7	-95.7	3.8	8460273	99	40343
2025-01-02 01:12:24.21	213.33	70.71	-74.8	-95.6	3.8	8453498	99	39532
2025-01-02 01:12:24.42	213.26	70.61	-74.7	-95.5	3.8	8453498	99	39548
2025-01-02 01:12:24.63	213.18	70.52	-74.7	-95.7	3.8	8482589	99	40464
2025-01-02 01:12:24.84	213.11	70.42	-74.6	-95.6	3.8	8462196	99	40415

#Closed at: 2025-01-02 01:12:25