passes_logs/2026/01/17/R3.2S-Naryan-Mar/R3.2S-Naryan-Mar__20260117_101024_TY-40_rec.log

#Pass ID: 20260117_101024_TY-40
#Satellite: TY-40
#Configuration: TY-39
#almurnet v.1.7.20240730
#Start time: 2026-01-17 10:14:43

#Version: 2.2.20231116
#Station: R3.2S-Naryan-Mar
#Location: 53.008057 lon 67.646978 lat
#TLE: 1 56846U 23081A   26016.61953149  .00002313  00000-0  10506-3 0  9990
#TLE: 2 56846  97.3892  89.5057 0001765  75.2099 284.9333 15.21769873144958

#Time	Az	El	Level	Level2	SNR	BER	BlckErr	Temp	State	Recorded	gain1	gain2
2026-01-17 10:14:43.94	339.01	16.26	-83.5	-79.0	2.3	0.00e+00	0	47	0	0	60	1048574
2026-01-17 10:14:44.94	338.69	16.29	-83.1	-79.0	2.4	0.00e+00	0	48	104	0	60	1048572
2026-01-17 10:14:45.94	338.37	16.33	-83.5	-79.0	2.3	0.00e+00	0	48	104	0	60	1048571
2026-01-17 10:14:46.95	338.04	16.37	-83.5	-79.0	2.4	0.00e+00	0	48	104	0	60	1048568
2026-01-17 10:14:47.96	337.71	16.40	-83.5	-79.0	2.5	0.00e+00	0	48	104	0	60	1048573
2026-01-17 10:14:48.97	337.38	16.44	-82.8	-79.0	2.7	0.00e+00	0	48	104	0	60	1048571
2026-01-17 10:14:49.97	337.06	16.47	-83.1	-79.0	2.6	0.00e+00	0	48	104	0	60	1048574
2026-01-17 10:14:50.98	336.72	16.51	-83.5	-79.0	2.6	0.00e+00	0	48	104	0	60	1048569
2026-01-17 10:14:51.99	336.39	16.54	-83.5	-79.0	2.4	0.00e+00	0	48	104	0	60	1048571
2026-01-17 10:14:52.99	336.06	16.57	-83.5	-79.0	2.7	0.00e+00	0	48	104	0	60	1048574
2026-01-17 10:14:54.00	335.73	16.60	-83.1	-79.0	2.5	0.00e+00	0	48	104	0	60	1048574
2026-01-17 10:14:55.01	335.40	16.63	-83.1	-79.0	2.5	0.00e+00	0	48	104	0	60	1048574
2026-01-17 10:14:56.02	335.06	16.66	-83.5	-79.0	2.5	0.00e+00	0	48	104	0	60	1048568
2026-01-17 10:14:57.03	334.73	16.69	-83.5	-79.0	2.5	0.00e+00	0	48	104	0	60	1048565
2026-01-17 10:14:58.04	334.39	16.72	-83.5	-79.0	2.4	0.00e+00	0	48	104	0	60	1048570
2026-01-17 10:14:59.04	334.05	16.75	-82.8	-79.0	2.4	0.00e+00	0	48	104	0	60	1048572
2026-01-17 10:15:00.05	333.72	16.77	-83.5	-79.0	2.5	0.00e+00	0	48	104	0	60	1048572
2026-01-17 10:15:01.06	333.38	16.80	-83.5	-79.0	2.5	0.00e+00	0	48	104	0	60	1048574
2026-01-17 10:15:02.07	333.04	16.82	-83.5	-79.0	2.5	0.00e+00	0	48	104	0	60	1048573
2026-01-17 10:15:03.07	332.70	16.85	-83.1	-79.0	2.4	0.00e+00	0	48	104	0	60	1048570
2026-01-17 10:15:04.08	332.36	16.87	-83.1	-79.0	2.3	0.00e+00	0	48	104	0	60	1048574
2026-01-17 10:15:05.09	332.02	16.89	-83.5	-79.0	2.4	0.00e+00	0	48	104	0	60	1048571
2026-01-17 10:15:06.09	331.68	16.91	-83.5	-79.0	2.6	0.00e+00	0	48	104	0	60	1048573
2026-01-17 10:15:07.10	331.34	16.93	-83.1	-79.0	2.4	0.00e+00	0	48	104	0	60	1048574
2026-01-17 10:15:08.10	331.00	16.95	-83.1	-79.0	2.6	0.00e+00	0	48	104	0	60	1048573
2026-01-17 10:15:09.11	330.66	16.97	-82.8	-79.0	2.5	0.00e+00	0	48	104	0	60	1048571
2026-01-17 10:15:10.12	330.31	16.99	-83.5	-79.0	2.3	0.00e+00	0	48	104	0	60	1048571
2026-01-17 10:15:11.12	329.97	17.00	-83.5	-79.0	2.6	0.00e+00	0	48	104	0	60	1048561
2026-01-17 10:15:12.13	329.63	17.02	-83.5	-79.0	2.4	0.00e+00	0	48	104	0	60	1048573
2026-01-17 10:15:13.13	329.29	17.03	-82.8	-79.0	2.4	0.00e+00	0	48	104	0	60	1048573
2026-01-17 10:15:14.14	328.94	17.05	-83.1	-79.0	2.6	0.00e+00	0	48	104	0	60	1048574
2026-01-17 10:15:15.15	328.59	17.06	-83.5	-79.0	2.5	0.00e+00	0	48	104	0	60	1048574
2026-01-17 10:15:16.16	328.25	17.07	-83.5	-79.0	2.5	0.00e+00	0	48	104	0	60	1048575
2026-01-17 10:15:17.17	327.90	17.08	-83.5	-79.0	2.6	0.00e+00	0	48	104	0	60	1048575
2026-01-17 10:15:18.18	327.55	17.09	-82.8	-79.0	2.6	0.00e+00	0	48	104	0	60	1048566
2026-01-17 10:15:19.18	327.21	17.10	-83.1	-79.0	2.5	0.00e+00	0	48	104	0	60	1048573
2026-01-17 10:15:20.19	326.86	17.11	-83.5	-79.0	2.6	0.00e+00	0	48	104	0	60	1048574
2026-01-17 10:15:21.19	326.52	17.12	-83.5	-79.0	2.3	0.00e+00	0	48	104	0	60	1048572
2026-01-17 10:15:22.20	326.17	17.13	-83.1	-79.0	2.5	0.00e+00	0	48	104	0	60	1048575
2026-01-17 10:15:23.21	325.82	17.13	-83.1	-79.0	2.4	0.00e+00	0	48	104	0	60	1048574
2026-01-17 10:15:24.21	325.48	17.14	-83.5	-79.0	2.7	0.00e+00	0	48	104	0	60	1048572
2026-01-17 10:15:25.22	325.13	17.14	-83.5	-79.0	2.3	0.00e+00	0	48	104	0	60	1048575
2026-01-17 10:15:26.23	324.78	17.14	-83.5	-79.0	2.6	0.00e+00	0	48	104	0	60	1048570
2026-01-17 10:15:27.23	324.44	17.14	-83.1	-79.0	2.5	0.00e+00	0	48	104	0	60	1048569
2026-01-17 10:15:28.24	324.09	17.14	-83.1	-79.0	2.5	0.00e+00	0	48	104	0	60	1048573
2026-01-17 10:15:29.24	323.74	17.14	-83.5	-79.0	2.4	0.00e+00	0	48	104	0	60	1048575
2026-01-17 10:15:30.25	323.40	17.14	-83.1	-79.0	2.5	0.00e+00	0	48	104	0	60	1048566
2026-01-17 10:15:31.26	323.05	17.14	-83.5	-79.0	2.4	0.00e+00	0	48	104	0	60	1048565
2026-01-17 10:15:32.26	322.70	17.14	-83.1	-79.0	2.7	0.00e+00	0	48	104	0	60	1048573
2026-01-17 10:15:33.27	322.35	17.13	-83.5	-79.0	2.3	0.00e+00	0	48	104	0	60	1048564
2026-01-17 10:15:34.28	322.01	17.13	-83.5	-79.0	2.3	0.00e+00	0	48	104	0	60	1048574
2026-01-17 10:15:35.28	321.66	17.12	-83.5	-79.0	2.5	0.00e+00	0	48	104	0	60	1048575
2026-01-17 10:15:36.29	321.31	17.12	-83.1	-79.0	2.4	0.00e+00	0	48	104	0	60	1048575
2026-01-17 10:15:37.30	320.97	17.11	-83.1	-79.0	2.8	0.00e+00	0	48	104	0	60	1048569
2026-01-17 10:15:38.30	320.62	17.10	-83.1	-79.0	2.4	0.00e+00	0	48	104	0	60	1048571
2026-01-17 10:15:39.31	320.27	17.09	-83.5	-79.0	2.5	0.00e+00	0	48	104	0	60	1048561
2026-01-17 10:15:40.31	319.93	17.08	-83.5	-79.0	2.6	0.00e+00	0	48	104	0	60	1048573
2026-01-17 10:15:41.32	319.58	17.07	-83.1	-79.0	2.4	0.00e+00	0	48	104	0	60	1048569
2026-01-17 10:15:42.33	319.24	17.06	-82.8	-79.0	2.6	0.00e+00	0	48	104	0	60	1048573
2026-01-17 10:15:43.33	318.90	17.04	-83.5	-79.0	2.4	0.00e+00	0	48	104	0	60	1048575
2026-01-17 10:15:44.34	318.55	17.03	-83.5	-79.0	2.6	0.00e+00	0	48	104	0	60	1048574
2026-01-17 10:15:45.35	318.20	17.01	-83.5	-79.0	2.4	0.00e+00	0	48	104	0	60	1048575
2026-01-17 10:15:46.35	317.86	17.00	-82.8	-79.0	2.5	0.00e+00	0	48	104	0	60	1048573
2026-01-17 10:15:47.36	317.52	16.98	-83.5	-79.0	2.5	0.00e+00	0	48	104	0	60	1048575
2026-01-17 10:15:48.37	317.17	16.96	-83.5	-79.0	2.4	0.00e+00	0	48	104	0	60	1048570
2026-01-17 10:15:49.38	316.83	16.94	-83.5	-79.0	2.5	0.00e+00	0	48	104	0	60	1048572
2026-01-17 10:15:50.38	316.49	16.92	-83.1	-79.0	2.5	0.00e+00	0	48	104	0	60	1048574
2026-01-17 10:15:51.39	316.15	16.90	-83.1	-79.0	2.5	0.00e+00	0	48	104	0	60	1048575
2026-01-17 10:15:52.39	315.81	16.88	-83.1	-79.0	2.5	0.00e+00	0	48	104	0	60	1048575
2026-01-17 10:15:53.40	315.47	16.86	-83.5	-79.0	2.1	0.00e+00	0	48	104	0	60	1048573
2026-01-17 10:15:54.41	315.13	16.84	-83.5	-79.0	2.5	0.00e+00	0	48	104	0	60	1048574
2026-01-17 10:15:55.42	314.79	16.81	-83.5	-79.0	2.2	0.00e+00	0	48	104	0	60	1048575
2026-01-17 10:15:56.43	314.45	16.79	-83.1	-79.0	2.4	0.00e+00	0	48	104	0	60	1048571
2026-01-17 10:15:57.43	314.11	16.76	-83.5	-79.0	2.3	0.00e+00	0	48	104	0	60	1048575
2026-01-17 10:15:58.44	313.78	16.73	-83.5	-79.0	2.4	0.00e+00	0	48	104	0	60	1048574
2026-01-17 10:15:59.44	313.44	16.71	-83.1	-79.0	2.5	0.00e+00	0	48	104	0	60	1048573
2026-01-17 10:16:00.44	313.11	16.68	-83.1	-79.0	2.3	0.00e+00	0	48	104	0	60	1048573
2026-01-17 10:16:01.45	312.77	16.65	-82.8	-79.0	2.7	0.00e+00	0	48	104	0	60	1048569
2026-01-17 10:16:02.46	312.44	16.62	-83.5	-79.0	2.4	0.00e+00	0	48	104	0	60	1048574
2026-01-17 10:16:03.47	312.10	16.59	-83.5	-79.0	2.5	0.00e+00	0	48	104	0	60	1048574
2026-01-17 10:16:04.47	311.77	16.56	-83.5	-79.0	2.4	0.00e+00	0	48	104	0	60	1048575
2026-01-17 10:16:05.48	311.44	16.52	-82.8	-79.0	2.5	0.00e+00	0	48	104	0	60	1048575
2026-01-17 10:16:06.49	311.11	16.49	-83.1	-79.0	2.5	0.00e+00	0	48	104	0	60	1048574
2026-01-17 10:16:07.50	310.78	16.46	-83.5	-79.0	2.4	0.00e+00	0	48	104	0	60	1048575
2026-01-17 10:16:08.50	310.45	16.42	-83.5	-79.0	2.4	0.00e+00	0	48	104	0	60	1048575
2026-01-17 10:16:09.51	310.12	16.39	-83.5	-79.0	2.5	0.00e+00	0	48	104	0	60	1048574
2026-01-17 10:16:10.52	309.79	16.35	-83.1	-79.0	2.4	0.00e+00	0	48	104	0	60	1048573
2026-01-17 10:16:11.53	309.47	16.31	-83.5	-79.0	2.6	0.00e+00	0	48	104	0	60	1048571
2026-01-17 10:16:12.53	309.14	16.28	-83.5	-79.0	2.4	0.00e+00	0	48	104	0	60	1048575
2026-01-17 10:16:13.54	308.82	16.24	-83.5	-79.0	2.6	0.00e+00	0	48	104	0	60	1048567
2026-01-17 10:16:14.55	308.49	16.20	-82.8	-79.0	2.5	0.00e+00	0	48	104	0	60	1048575
2026-01-17 10:16:15.56	308.17	16.16	-83.1	-79.0	2.4	0.00e+00	0	48	104	0	60	1048575
2026-01-17 10:16:16.57	307.85	16.12	-83.5	-79.0	2.5	0.00e+00	0	48	104	0	60	1048572
2026-01-17 10:16:17.58	307.53	16.08	-83.5	-79.0	2.3	0.00e+00	0	48	104	0	60	1048566
2026-01-17 10:16:18.58	307.21	16.03	-83.5	-79.0	2.7	0.00e+00	0	48	104	0	60	1048575
2026-01-17 10:16:19.59	306.89	15.99	-82.8	-79.0	2.4	0.00e+00	0	48	104	0	60	1048575
2026-01-17 10:16:20.59	306.58	15.95	-83.5	-79.0	2.5	0.00e+00	0	48	104	0	60	1048569
2026-01-17 10:16:21.60	306.26	15.90	-83.5	-79.0	2.3	0.00e+00	0	48	104	0	60	1048571
2026-01-17 10:16:22.61	305.94	15.86	-83.5	-79.0	2.5	0.00e+00	0	48	104	0	60	1048574
2026-01-17 10:16:23.61	305.63	15.81	-83.5	-79.0	2.5	0.00e+00	0	48	104	0	60	1048575
2026-01-17 10:16:24.62	305.32	15.77	-83.1	-79.0	2.6	0.00e+00	0	48	104	0	60	1048573
2026-01-17 10:16:25.63	305.01	15.72	-83.5	-79.0	2.6	0.00e+00	0	48	104	0	60	1048574
2026-01-17 10:16:26.64	304.69	15.67	-83.5	-79.0	2.2	0.00e+00	0	48	104	0	60	1048574
2026-01-17 10:16:27.64	304.39	15.62	-83.5	-79.0	2.4	0.00e+00	0	48	104	0	60	1048575
2026-01-17 10:16:28.65	304.08	15.58	-83.5	-79.0	2.4	0.00e+00	0	48	104	0	60	1048570
2026-01-17 10:16:29.66	303.77	15.53	-83.1	-79.0	2.4	0.00e+00	0	48	104	0	60	1048575
2026-01-17 10:16:30.66	303.47	15.48	-83.5	-79.0	2.6	0.00e+00	0	48	104	0	60	1048575
2026-01-17 10:16:31.67	303.16	15.43	-83.5	-79.0	2.4	0.00e+00	0	48	104	0	60	1048571
2026-01-17 10:16:32.68	302.86	15.38	-83.5	-79.0	2.4	0.00e+00	0	48	104	0	60	1048575
2026-01-17 10:16:33.68	302.56	15.32	-83.1	-79.0	2.5	0.00e+00	0	48	104	0	60	1048565
2026-01-17 10:16:34.69	302.26	15.27	-83.1	-79.0	2.4	0.00e+00	0	48	104	0	60	1048574
2026-01-17 10:16:35.70	301.96	15.22	-83.5	-79.0	2.5	0.00e+00	0	48	104	0	60	1048572
2026-01-17 10:16:36.70	301.66	15.17	-83.5	-79.0	2.5	0.00e+00	0	48	104	0	60	1048573
2026-01-17 10:16:37.71	301.36	15.11	-83.5	-79.0	2.4	0.00e+00	0	48	104	0	60	1048575
2026-01-17 10:16:38.72	301.07	15.06	-82.8	-79.0	2.3	0.00e+00	0	48	104	0	60	1048572
2026-01-17 10:16:39.73	300.77	15.00	-82.8	-79.0	2.5	0.00e+00	0	48	104	0	60	1048574
2026-01-17 10:16:40.73	300.48	14.95	-83.1	-79.0	2.4	0.00e+00	0	49	104	0	60	1048562
2026-01-17 10:16:41.74	300.19	14.89	-83.5	-79.0	2.4	0.00e+00	0	48	104	0	60	1048568
2026-01-17 10:16:42.75	299.89	14.84	-83.5	-79.0	2.6	0.00e+00	0	48	104	0	60	1048564
2026-01-17 10:16:43.76	299.60	14.78	-82.8	-79.0	2.3	0.00e+00	0	48	104	0	60	1048568
2026-01-17 10:16:44.77	299.32	14.72	-83.5	-79.0	2.5	0.00e+00	0	48	104	0	60	1048570
2026-01-17 10:16:45.77	299.03	14.67	-83.5	-79.0	2.4	0.00e+00	0	48	104	0	60	1048575
2026-01-17 10:16:46.77	298.75	14.61	-83.1	-79.0	2.5	0.00e+00	0	48	104	0	60	1048573
2026-01-17 10:16:47.77	298.47	14.55	-83.1	-79.0	2.4	0.00e+00	0	48	104	0	60	1048575
2026-01-17 10:16:48.77	298.19	14.49	-83.1	-79.0	2.2	0.00e+00	0	48	104	0	60	1048575
2026-01-17 10:16:49.77	297.91	14.43	-83.5	-79.0	2.4	0.00e+00	0	48	104	0	60	1048572
2026-01-17 10:16:50.78	297.63	14.37	-83.5	-79.0	2.2	0.00e+00	0	49	104	0	60	1048574
2026-01-17 10:16:51.79	297.35	14.31	-83.5	-79.0	2.3	0.00e+00	0	49	104	0	60	1048569
2026-01-17 10:16:52.79	297.07	14.25	-83.1	-79.0	2.3	0.00e+00	0	49	104	0	60	1048575
2026-01-17 10:16:53.80	296.79	14.19	-83.1	-79.0	2.4	0.00e+00	0	48	104	0	60	1048572
2026-01-17 10:16:54.81	296.52	14.13	-83.5	-79.0	2.4	0.00e+00	0	48	104	0	60	1048574
2026-01-17 10:16:55.81	296.25	14.07	-83.5	-79.0	2.2	0.00e+00	0	49	104	0	60	1048569
2026-01-17 10:16:56.82	295.97	14.01	-83.5	-79.0	2.5	0.00e+00	0	49	104	0	60	1048570
2026-01-17 10:16:57.83	295.70	13.94	-83.1	-79.0	2.5	0.00e+00	0	49	104	0	60	1048575
2026-01-17 10:16:58.84	295.43	13.88	-82.8	-79.0	2.4	0.00e+00	0	49	104	0	60	1048573
2026-01-17 10:16:59.84	295.17	13.82	-83.5	-79.0	2.5	0.00e+00	0	49	104	0	60	1048574
2026-01-17 10:17:00.85	294.90	13.76	-83.5	-79.0	2.2	0.00e+00	0	48	104	0	60	1048572
2026-01-17 10:17:01.86	294.63	13.69	-83.5	-79.0	2.7	0.00e+00	0	49	104	0	60	1048574
2026-01-17 10:17:02.87	294.37	13.63	-82.8	-79.0	2.4	0.00e+00	0	49	104	0	60	1048573
2026-01-17 10:17:03.88	294.11	13.56	-83.1	-79.0	2.6	0.00e+00	0	49	104	0	60	1048575
2026-01-17 10:17:04.88	293.85	13.50	-83.5	-79.0	2.3	0.00e+00	0	48	104	0	60	1048575
2026-01-17 10:17:05.89	293.59	13.44	-83.5	-79.0	2.2	0.00e+00	0	49	104	0	60	1048573
2026-01-17 10:17:06.90	293.33	13.37	-83.5	-79.0	2.7	0.00e+00	0	49	104	0	60	1048574
2026-01-17 10:17:07.90	293.07	13.31	-83.1	-79.0	2.2	0.00e+00	0	49	104	0	60	1048573
2026-01-17 10:17:08.91	292.82	13.24	-83.5	-79.0	2.4	0.00e+00	0	49	104	0	60	1048575
2026-01-17 10:17:09.91	292.56	13.17	-83.1	-79.0	2.4	0.00e+00	0	49	104	0	60	1048575
2026-01-17 10:17:10.92	292.31	13.11	-83.5	-79.0	2.4	0.00e+00	0	48	104	0	60	1048572
2026-01-17 10:17:11.92	292.06	13.04	-82.8	-79.0	2.6	0.00e+00	0	48	104	0	60	1048572
2026-01-17 10:17:12.93	291.81	12.98	-83.1	-79.0	2.5	0.00e+00	0	48	104	0	60	1048574
2026-01-17 10:17:13.94	291.56	12.91	-83.5	-79.0	2.5	0.00e+00	0	49	104	0	60	1048571
2026-01-17 10:17:14.95	291.31	12.84	-83.5	-79.0	2.5	0.00e+00	0	49	104	0	60	1048569
2026-01-17 10:17:15.95	291.07	12.78	-83.1	-79.0	2.4	0.00e+00	0	49	104	0	60	1048575
2026-01-17 10:17:16.96	290.82	12.71	-83.1	-79.0	2.4	0.00e+00	0	49	104	0	60	1048569
2026-01-17 10:17:17.97	290.58	12.64	-83.1	-79.0	2.3	0.00e+00	0	48	104	0	60	1048574
2026-01-17 10:17:18.98	290.34	12.57	-83.5	-79.0	2.5	0.00e+00	0	48	104	0	60	1048575
2026-01-17 10:17:19.98	290.10	12.51	-83.5	-79.0	2.4	0.00e+00	0	48	104	0	60	1048570
2026-01-17 10:17:20.99	289.86	12.44	-83.1	-79.0	2.7	0.00e+00	0	48	104	0	60	1048575
2026-01-17 10:17:21.99	289.62	12.37	-82.8	-79.0	2.5	0.00e+00	0	48	104	0	60	1048575
2026-01-17 10:17:23.00	289.38	12.30	-83.5	-79.0	2.3	0.00e+00	0	48	104	0	60	1048572
2026-01-17 10:17:24.01	289.15	12.23	-83.5	-79.0	2.6	0.00e+00	0	49	104	0	60	1048569
2026-01-17 10:17:25.02	288.91	12.16	-83.5	-79.0	2.3	0.00e+00	0	49	104	0	60	1048575
2026-01-17 10:17:26.02	288.68	12.09	-83.5	-79.0	2.5	0.00e+00	0	48	104	0	60	1048574
2026-01-17 10:17:27.03	288.45	12.03	-83.1	-79.0	2.4	0.00e+00	0	48	104	0	60	1048575
2026-01-17 10:17:28.04	288.22	11.96	-83.1	-79.0	2.4	0.00e+00	0	48	104	0	60	1048572
2026-01-17 10:17:29.05	287.99	11.89	-83.5	-79.0	2.4	0.00e+00	0	48	104	0	60	1048572
2026-01-17 10:17:30.06	287.76	11.82	-83.5	-79.0	2.5	0.00e+00	0	49	104	0	60	1048571
2026-01-17 10:17:31.07	287.54	11.75	-83.1	-79.0	2.4	0.00e+00	0	48	104	0	60	1048574
2026-01-17 10:17:32.07	287.31	11.68	-83.5	-79.0	2.5	0.00e+00	0	49	104	0	60	1048568
2026-01-17 10:17:33.08	287.09	11.61	-83.1	-79.0	2.8	0.00e+00	0	48	104	0	60	1048572
2026-01-17 10:17:34.09	286.87	11.54	-83.5	-79.0	2.3	0.00e+00	0	48	104	0	60	1048571
2026-01-17 10:17:35.10	286.65	11.47	-83.5	-79.0	2.6	0.00e+00	0	48	104	0	60	1048571
2026-01-17 10:17:36.11	286.43	11.40	-83.1	-79.0	2.7	0.00e+00	0	49	104	0	60	1048574
2026-01-17 10:17:37.11	286.21	11.33	-83.1	-79.0	2.4	0.00e+00	0	48	104	0	60	1048574
2026-01-17 10:17:38.12	285.99	11.26	-83.5	-79.0	2.5	0.00e+00	0	49	104	0	60	1048570
2026-01-17 10:17:39.12	285.78	11.19	-83.1	-79.0	2.2	0.00e+00	0	49	104	0	60	1048575
2026-01-17 10:17:40.12	285.57	11.12	-83.1	-79.0	2.7	0.00e+00	0	49	104	0	60	1048558
2026-01-17 10:17:41.13	285.35	11.05	-83.1	-79.0	2.5	0.00e+00	0	48	104	0	60	1048573
2026-01-17 10:17:42.14	285.14	10.98	-83.5	-79.0	2.5	0.00e+00	0	48	104	0	60	1048571
2026-01-17 10:17:43.15	284.93	10.91	-83.5	-79.0	2.4	0.00e+00	0	48	104	0	60	1048575
2026-01-17 10:17:44.15	284.72	10.84	-83.5	-79.0	2.7	0.00e+00	0	49	104	0	60	1048574
2026-01-17 10:17:45.16	284.51	10.77	-82.8	-79.0	2.7	0.00e+00	0	48	104	0	60	1048575
2026-01-17 10:17:46.17	284.30	10.70	-83.5	-79.0	2.6	0.00e+00	0	48	104	0	60	1048574
2026-01-17 10:17:47.18	284.10	10.63	-83.5	-79.0	2.3	0.00e+00	0	49	104	0	60	1048575
2026-01-17 10:17:48.19	283.89	10.56	-83.5	-79.0	2.6	0.00e+00	0	49	104	0	60	1048570
2026-01-17 10:17:49.19	283.69	10.48	-83.5	-79.0	2.3	0.00e+00	0	49	104	0	60	1048571
2026-01-17 10:17:50.20	283.49	10.41	-83.1	-79.0	2.6	0.00e+00	0	48	104	0	60	1048575
2026-01-17 10:17:51.21	283.29	10.34	-83.5	-79.0	2.3	0.00e+00	0	48	104	0	60	1048569
2026-01-17 10:17:52.22	283.09	10.27	-83.5	-79.0	2.6	0.00e+00	0	48	104	0	60	1048569
2026-01-17 10:17:53.23	282.89	10.20	-83.5	-79.0	2.5	0.00e+00	0	48	104	0	60	1048573
2026-01-17 10:17:54.23	282.69	10.13	-83.5	-79.0	2.4	0.00e+00	0	49	104	0	60	1048568
2026-01-17 10:17:55.23	282.50	10.06	-83.1	-79.0	2.5	0.00e+00	0	48	104	0	60	1048570
2026-01-17 10:17:56.24	282.30	9.99	-83.5	-79.0	2.2	0.00e+00	0	49	104	0	60	1048575
2026-01-17 10:17:57.25	282.11	9.92	-83.1	-79.0	2.5	0.00e+00	0	49	104	0	60	1048573
2026-01-17 10:17:58.26	281.91	9.85	-83.5	-79.0	2.4	0.00e+00	0	49	104	0	60	1048572
2026-01-17 10:17:59.27	281.72	9.78	-82.8	-79.0	2.5	0.00e+00	0	49	104	0	60	1048575
2026-01-17 10:18:00.27	281.53	9.71	-83.1	-79.0	2.5	0.00e+00	0	49	104	0	60	1048567
2026-01-17 10:18:01.28	281.34	9.64	-83.5	-79.0	2.4	0.00e+00	0	49	104	0	60	1048575
2026-01-17 10:18:02.29	281.15	9.56	-83.5	-79.0	2.8	0.00e+00	0	49	104	0	60	1048569
2026-01-17 10:18:03.30	280.97	9.49	-83.1	-79.0	2.4	0.00e+00	0	49	104	0	60	1048575
2026-01-17 10:18:04.31	280.78	9.42	-83.1	-79.0	2.4	0.00e+00	0	49	104	0	60	1048574
2026-01-17 10:18:05.31	280.60	9.35	-83.5	-79.0	2.6	0.00e+00	0	49	104	0	60	1048575
2026-01-17 10:18:06.32	280.41	9.28	-83.5	-79.0	2.4	0.00e+00	0	49	104	0	60	1048575
2026-01-17 10:18:07.33	280.23	9.21	-83.5	-79.0	2.7	0.00e+00	0	48	104	0	60	1048575
2026-01-17 10:18:08.34	280.05	9.14	-83.5	-79.0	2.4	0.00e+00	0	49	104	0	60	1048571
2026-01-17 10:18:09.34	279.87	9.07	-82.8	-79.0	2.6	0.00e+00	0	49	104	0	60	1048575
2026-01-17 10:18:10.35	279.69	9.00	-83.1	-79.0	2.4	0.00e+00	0	49	104	0	60	1048573
2026-01-17 10:18:11.35	279.51	8.93	-83.5	-79.0	2.5	0.00e+00	0	48	104	0	60	1048573
2026-01-17 10:18:12.35	279.34	8.86	-83.5	-79.0	2.7	0.00e+00	0	48	104	0	60	1048574
2026-01-17 10:18:13.36	279.16	8.79	-83.1	-79.0	2.3	0.00e+00	0	49	104	0	60	1048571
2026-01-17 10:18:14.36	278.99	8.72	-82.8	-79.0	2.6	0.00e+00	0	49	104	0	60	1048575
2026-01-17 10:18:15.36	278.82	8.65	-83.5	-79.0	2.4	0.00e+00	0	49	104	0	60	1048571
2026-01-17 10:18:16.37	278.64	8.58	-83.5	-79.0	2.4	0.00e+00	0	49	104	0	60	1048569
2026-01-17 10:18:17.37	278.47	8.51	-83.5	-79.0	2.5	0.00e+00	0	49	104	0	60	1048573
2026-01-17 10:18:18.38	278.30	8.44	-82.8	-79.0	2.4	0.00e+00	0	49	104	0	60	1048575
2026-01-17 10:18:19.39	278.13	8.37	-83.1	-79.0	2.6	0.00e+00	0	49	104	0	60	1048572
2026-01-17 10:18:20.39	277.96	8.30	-83.5	-79.0	2.2	0.00e+00	0	49	104	0	60	1048570
2026-01-17 10:18:21.40	277.80	8.23	-83.5	-79.0	2.5	0.00e+00	0	49	104	0	60	1048575
2026-01-17 10:18:22.41	277.63	8.16	-83.5	-79.0	2.3	0.00e+00	0	49	104	0	60	1048575
2026-01-17 10:18:23.42	277.46	8.09	-83.1	-79.0	2.5	0.00e+00	0	49	104	0	60	1048574
2026-01-17 10:18:24.43	277.30	8.02	-83.5	-79.0	2.4	0.00e+00	0	48	104	0	60	1048574
2026-01-17 10:18:25.43	277.13	7.95	-83.5	-79.0	2.4	0.00e+00	0	48	104	0	60	1048574
2026-01-17 10:18:26.44	276.97	7.88	-83.5	-79.0	2.5	0.00e+00	0	49	104	0	60	1048570
2026-01-17 10:18:27.44	276.81	7.81	-83.5	-79.0	2.3	0.00e+00	0	49	104	0	60	1048564
2026-01-17 10:18:28.45	276.65	7.74	-82.8	-79.0	2.3	0.00e+00	0	49	104	0	60	1048575
2026-01-17 10:18:29.46	276.49	7.67	-83.5	-79.0	2.5	0.00e+00	0	49	104	0	60	1048573
2026-01-17 10:18:30.46	276.33	7.60	-83.5	-79.0	2.4	0.00e+00	0	49	104	0	60	1048566
2026-01-17 10:18:31.47	276.17	7.53	-83.5	-79.0	2.6	0.00e+00	0	49	104	0	60	1048569
2026-01-17 10:18:32.48	276.02	7.47	-82.8	-79.0	2.4	0.00e+00	0	48	104	0	60	1048574
2026-01-17 10:18:33.48	275.86	7.40	-83.1	-79.0	2.4	0.00e+00	0	49	104	0	60	1048573
2026-01-17 10:18:34.49	275.71	7.33	-83.5	-79.0	2.4	0.00e+00	0	49	104	0	60	1048575
2026-01-17 10:18:35.50	275.55	7.26	-83.5	-79.0	2.3	0.00e+00	0	49	104	0	60	1048570
2026-01-17 10:18:36.51	275.40	7.19	-83.5	-79.0	2.5	0.00e+00	0	49	104	0	60	1048575
2026-01-17 10:18:37.52	275.25	7.12	-82.8	-79.0	2.5	0.00e+00	0	48	104	0	60	1048573
2026-01-17 10:18:38.52	275.10	7.05	-83.1	-79.0	2.5	0.00e+00	0	49	104	0	60	1048568
2026-01-17 10:18:39.53	274.95	6.98	-83.5	-79.0	2.3	0.00e+00	0	49	104	0	60	1048568
2026-01-17 10:18:40.54	274.80	6.92	-83.5	-79.0	2.7	0.00e+00	0	48	104	0	60	1048572
2026-01-17 10:18:41.54	274.65	6.85	-83.5	-79.0	2.4	0.00e+00	0	49	104	0	60	1048567
2026-01-17 10:18:42.55	274.50	6.78	-83.1	-79.0	2.6	0.00e+00	0	49	104	0	60	1048575
2026-01-17 10:18:43.56	274.35	6.71	-83.5	-79.0	2.3	0.00e+00	0	49	104	0	60	1048575
2026-01-17 10:18:44.56	274.21	6.64	-83.5	-79.0	2.5	0.00e+00	0	49	104	0	60	1048570
2026-01-17 10:18:45.56	274.06	6.58	-83.5	-79.0	2.2	0.00e+00	0	49	104	0	60	1048575
2026-01-17 10:18:46.57	273.92	6.51	-83.5	-79.0	2.6	0.00e+00	0	49	104	0	60	1048573
2026-01-17 10:18:47.57	273.78	6.44	-83.1	-79.0	2.5	0.00e+00	0	49	104	0	60	1048575
2026-01-17 10:18:48.57	273.64	6.37	-83.5	-79.0	2.4	0.00e+00	0	49	104	0	60	1048572
2026-01-17 10:18:49.58	273.49	6.31	-83.5	-79.0	2.5	0.00e+00	0	49	104	0	60	1048571
2026-01-17 10:18:50.59	273.35	6.24	-83.5	-79.0	2.3	0.00e+00	0	49	104	0	60	1048573
2026-01-17 10:18:51.59	273.21	6.17	-83.1	-79.0	2.3	0.00e+00	0	49	104	0	60	1048574
2026-01-17 10:18:52.60	273.07	6.10	-83.1	-79.0	2.3	0.00e+00	0	49	104	0	60	1048569
2026-01-17 10:18:53.61	272.94	6.04	-83.5	-79.0	2.4	0.00e+00	0	49	104	0	60	1048574
2026-01-17 10:18:54.61	272.80	5.97	-83.5	-79.0	2.4	0.00e+00	0	49	104	0	60	1048574
2026-01-17 10:18:55.62	272.66	5.90	-83.1	-79.0	2.5	0.00e+00	0	49	104	0	60	1048573
2026-01-17 10:18:56.63	272.53	5.83	-82.8	-79.0	2.6	0.00e+00	0	49	104	0	60	1048566
2026-01-17 10:18:57.64	272.39	5.77	-83.1	-79.0	2.4	0.00e+00	0	49	104	0	60	1048574
2026-01-17 10:18:58.64	272.26	5.70	-83.5	-79.0	2.5	0.00e+00	0	49	104	0	60	1048575
2026-01-17 10:18:59.65	272.12	5.63	-83.5	-79.0	2.5	0.00e+00	0	49	104	0	60	1048575
2026-01-17 10:19:00.65	271.99	5.57	-83.5	-79.0	2.4	0.00e+00	0	49	104	0	60	1048570
2026-01-17 10:19:01.65	271.86	5.50	-82.8	-79.0	2.4	0.00e+00	0	49	104	0	60	1048574
2026-01-17 10:19:02.66	271.73	5.44	-83.5	-79.0	2.5	0.00e+00	0	49	104	0	60	1048573
2026-01-17 10:19:03.67	271.60	5.37	-83.5	-79.0	2.5	0.00e+00	0	49	104	0	60	1048573
2026-01-17 10:19:04.67	271.47	5.30	-83.5	-79.0	2.5	0.00e+00	0	49	104	0	60	1048574
2026-01-17 10:19:05.67	271.34	5.24	-83.5	-79.0	2.5	0.00e+00	0	49	104	0	60	1048575
2026-01-17 10:19:06.68	271.21	5.17	-83.1	-79.0	2.5	0.00e+00	0	48	104	0	60	1048575
2026-01-17 10:19:07.69	271.08	5.11	-83.1	-79.0	2.5	0.00e+00	0	48	104	0	60	1048573
2026-01-17 10:19:08.69	270.96	5.04	-83.5	-79.0	2.3	0.00e+00	0	48	104	0	60	1048574
2026-01-17 10:19:09.70	270.83	4.98	-83.5	-79.0	2.2	0.00e+00	0	48	104	0	60	1048575
2026-01-17 10:19:10.70	270.71	4.91	-83.1	-79.0	2.5	0.00e+00	0	48	104	0	60	1048572
2026-01-17 10:19:11.71	270.58	4.85	-83.1	-79.0	2.2	0.00e+00	0	48	104	0	60	1048575
2026-01-17 10:19:12.72	270.46	4.78	-83.5	-79.0	2.3	0.00e+00	0	49	104	0	60	1048567
2026-01-17 10:19:13.73	270.34	4.71	-83.5	-79.0	2.6	0.00e+00	0	49	104	0	60	1048571
2026-01-17 10:19:14.73	270.21	4.65	-83.5	-79.0	2.3	0.00e+00	0	49	104	0	60	1048573
2026-01-17 10:19:15.74	270.09	4.59	-83.1	-79.0	2.5	0.00e+00	0	49	104	0	60	1048573
2026-01-17 10:19:16.75	269.97	4.52	-83.1	-79.0	2.3	0.00e+00	0	49	104	0	60	1048575
2026-01-17 10:19:17.75	269.85	4.46	-83.5	-79.0	2.7	0.00e+00	0	49	104	0	60	1048574
2026-01-17 10:19:18.76	269.73	4.39	-83.5	-79.0	2.5	0.00e+00	0	49	104	0	60	1048574
2026-01-17 10:19:19.76	269.61	4.33	-83.5	-79.0	2.4	0.00e+00	0	49	104	0	60	1048575
2026-01-17 10:19:20.77	269.50	4.26	-83.1	-79.0	2.6	0.00e+00	0	49	104	0	60	1048575
2026-01-17 10:19:21.77	269.38	4.20	-83.5	-79.0	2.5	0.00e+00	0	49	104	0	60	1048573
2026-01-17 10:19:22.78	269.26	4.13	-83.5	-79.0	2.4	0.00e+00	0	49	104	0	60	1048575
2026-01-17 10:19:23.79	269.15	4.07	-83.5	-79.0	2.5	0.00e+00	0	49	104	0	60	1048573
2026-01-17 10:19:24.79	269.03	4.01	-83.1	-79.0	2.5	0.00e+00	0	49	104	0	60	1048573
2026-01-17 10:19:25.80	268.92	3.94	-82.8	-79.0	2.6	0.00e+00	0	49	104	0	60	1048575
2026-01-17 10:19:26.81	268.80	3.88	-83.5	-79.0	2.4	0.00e+00	0	49	104	0	60	1048575
2026-01-17 10:19:27.82	268.69	3.82	-83.5	-79.0	2.5	0.00e+00	0	49	104	0	60	1048572
2026-01-17 10:19:28.82	268.57	3.75	-83.5	-79.0	2.5	0.00e+00	0	48	104	0	60	1048575
2026-01-17 10:19:29.83	268.46	3.69	-83.1	-79.0	2.7	0.00e+00	0	49	104	0	60	1048575
2026-01-17 10:19:30.83	268.35	3.63	-83.1	-79.0	2.4	0.00e+00	0	49	104	0	60	1048574
2026-01-17 10:19:31.84	268.24	3.56	-83.5	-79.0	2.3	0.00e+00	0	49	104	0	60	1048574
2026-01-17 10:19:32.85	268.13	3.50	-83.5	-79.0	2.6	0.00e+00	0	49	104	0	60	1048575
2026-01-17 10:19:33.86	268.02	3.44	-83.5	-79.0	2.1	0.00e+00	0	49	104	0	60	1048571
2026-01-17 10:19:34.87	267.91	3.37	-82.8	-79.0	2.4	0.00e+00	0	49	104	0	60	1048571
2026-01-17 10:19:35.87	267.80	3.31	-83.5	-79.0	2.5	0.00e+00	0	49	104	0	60	1048575
2026-01-17 10:19:36.87	267.69	3.25	-83.5	-79.0	2.7	0.00e+00	0	49	104	0	60	1048572
2026-01-17 10:19:37.88	267.59	3.19	-83.5	-79.0	2.4	0.00e+00	0	49	104	0	60	1048574
2026-01-17 10:19:38.89	267.48	3.12	-83.5	-79.0	2.5	0.00e+00	0	49	104	0	60	1048573
2026-01-17 10:19:39.90	267.37	3.06	-83.1	-79.0	2.4	0.00e+00	0	49	104	0	60	1048571
2026-01-17 10:19:40.90	267.27	3.00	-83.5	-79.0	2.5	0.00e+00	0	49	104	0	60	1048574
2026-01-17 10:19:41.91	267.16	2.94	-83.5	-79.0	2.7	0.00e+00	0	49	104	0	60	1048566
2026-01-17 10:19:42.91	267.06	2.88	-83.5	-79.0	2.6	0.00e+00	0	49	104	0	60	1048572
2026-01-17 10:19:43.91	266.96	2.82	-83.1	-79.0	2.3	0.00e+00	0	49	104	0	60	1048575
2026-01-17 10:19:44.92	266.85	2.75	-83.1	-79.0	2.4	0.00e+00	0	49	104	0	60	1048571
2026-01-17 10:19:45.93	266.75	2.69	-83.5	-79.0	2.3	0.00e+00	0	49	104	0	60	1048574
2026-01-17 10:19:46.94	266.65	2.63	-83.5	-79.0	2.6	0.00e+00	0	49	104	0	60	1048575
2026-01-17 10:19:47.95	266.55	2.57	-83.5	-79.0	2.3	0.00e+00	0	49	104	0	60	1048573
2026-01-17 10:19:48.95	266.45	2.51	-82.8	-79.0	2.3	0.00e+00	0	49	104	0	60	1048572
2026-01-17 10:19:49.95	266.35	2.45	-83.1	-79.0	2.6	0.00e+00	0	49	104	0	60	1048575
2026-01-17 10:19:50.96	266.25	2.39	-83.5	-79.0	2.4	0.00e+00	0	49	104	0	60	1048573
2026-01-17 10:19:51.96	266.15	2.33	-83.5	-79.0	2.6	0.00e+00	0	49	104	0	60	1048573
2026-01-17 10:19:52.97	266.05	2.26	-83.5	-79.0	2.4	0.00e+00	0	49	104	0	60	1048573
2026-01-17 10:19:53.97	265.95	2.20	-82.8	-79.0	2.7	0.00e+00	0	49	104	0	60	1048575
2026-01-17 10:19:54.98	265.85	2.14	-83.1	-79.0	2.5	0.00e+00	0	49	104	0	60	1048573
2026-01-17 10:19:55.98	265.76	2.08	-83.5	-79.0	2.4	0.00e+00	0	49	104	0	60	1048575
2026-01-17 10:19:56.99	265.66	2.02	-83.5	-79.0	2.5	0.00e+00	0	49	104	0	60	1048565
2026-01-17 10:19:58.00	265.56	1.96	-83.5	-79.0	2.4	0.00e+00	0	49	104	0	60	1048575
2026-01-17 10:19:59.01	265.47	1.90	-83.1	-79.0	2.7	0.00e+00	0	49	104	0	60	1048572
2026-01-17 10:20:00.01	265.37	1.84	-83.5	-79.0	2.1	0.00e+00	0	49	104	0	60	1048567
2026-01-17 10:20:01.02	265.28	1.78	-83.5	-79.0	2.6	0.00e+00	0	49	104	0	60	1048574
2026-01-17 10:20:02.02	265.18	1.72	-83.5	-79.0	2.4	0.00e+00	0	49	104	0	60	1048570
2026-01-17 10:20:03.03	265.09	1.66	-83.1	-79.0	2.4	0.00e+00	0	49	104	0	60	1048574
2026-01-17 10:20:04.03	265.00	1.60	-83.1	-79.0	2.5	0.00e+00	0	49	104	0	60	1048562
2026-01-17 10:20:05.04	264.90	1.54	-83.5	-79.0	2.3	0.00e+00	0	49	104	0	60	1048569
2026-01-17 10:20:06.05	264.81	1.48	-83.5	-79.0	2.4	0.00e+00	0	49	104	0	60	1048575
2026-01-17 10:20:07.05	264.72	1.42	-83.5	-79.0	2.4	0.00e+00	0	49	104	0	60	1048556
2026-01-17 10:20:08.06	264.63	1.37	-82.8	-79.0	2.3	0.00e+00	0	49	104	0	60	1048572
2026-01-17 10:20:09.06	264.54	1.31	-83.1	-79.0	2.4	0.00e+00	0	49	104	0	60	1048575
2026-01-17 10:20:10.07	264.45	1.25	-83.5	-79.0	2.3	0.00e+00	0	49	104	0	60	1048572
2026-01-17 10:20:11.07	264.36	1.19	-83.5	-79.0	2.4	0.00e+00	0	49	104	0	60	1048569
2026-01-17 10:20:12.08	264.27	1.13	-83.1	-79.0	2.2	0.00e+00	0	49	104	0	60	1048575
2026-01-17 10:20:13.08	264.18	1.07	-83.1	-79.0	2.5	0.00e+00	0	49	104	0	60	1048571
2026-01-17 10:20:14.09	264.09	1.01	-83.5	-79.0	2.4	0.00e+00	0	49	104	0	60	1048570
2026-01-17 10:20:15.10	264.00	0.95	-83.5	-79.0	2.4	0.00e+00	0	49	104	0	60	1048567
2026-01-17 10:20:16.11	263.92	0.89	-83.5	-79.0	2.4	0.00e+00	0	49	104	0	60	1048571
2026-01-17 10:20:17.11	263.83	0.84	-83.5	-79.0	2.5	0.00e+00	0	49	104	0	60	1048574
2026-01-17 10:20:18.12	263.74	0.78	-83.1	-79.0	2.5	0.00e+00	0	49	104	0	60	1048574
2026-01-17 10:20:19.13	263.66	0.72	-83.5	-79.0	2.5	0.00e+00	0	49	104	0	60	1048575
2026-01-17 10:20:20.14	263.57	0.66	-83.5	-79.0	2.7	0.00e+00	0	49	104	0	60	1048575
2026-01-17 10:20:21.15	263.49	0.60	-83.5	-79.0	2.5	0.00e+00	0	49	104	0	60	1048572
2026-01-17 10:20:22.16	263.40	0.55	-83.1	-79.0	2.3	0.00e+00	0	49	104	0	60	1048575
2026-01-17 10:20:23.16	263.32	0.49	-83.1	-79.0	2.6	0.00e+00	0	49	104	0	60	1048573
2026-01-17 10:20:24.17	263.23	0.43	-83.5	-79.0	2.4	0.00e+00	0	49	104	0	60	1048568
2026-01-17 10:20:25.18	263.15	0.37	-83.5	-79.0	2.6	0.00e+00	0	49	104	0	60	1048575
2026-01-17 10:20:26.19	263.07	0.32	-83.5	-79.0	2.5	0.00e+00	0	49	104	0	60	1048570
2026-01-17 10:20:27.19	262.98	0.26	-83.1	-79.0	2.5	0.00e+00	0	49	104	0	60	1048574
2026-01-17 10:20:28.20	262.90	0.20	-83.1	-79.0	2.4	0.00e+00	0	49	104	0	60	1048575
2026-01-17 10:20:29.20	262.82	0.14	-83.5	-79.0	2.4	0.00e+00	0	49	104	0	60	1048575
2026-01-17 10:20:30.21	262.74	0.09	-83.1	-79.0	2.4	0.00e+00	0	49	104	0	60	1048574
2026-01-17 10:20:31.22	262.66	0.03	-83.1	-79.0	2.3	0.00e+00	0	49	104	0	60	1048575
2026-01-17 10:20:32.22	262.58	-0.03	-82.8	-79.0	2.3	0.00e+00	0	49	104	0	60	1048575

#Closed at: 2026-01-17 10:20:33
#Recorded file [0 MB]: D:/Data/35015_260117_131443.dat