passes_logs/2026/01/17/R3.2S-Naryan-Mar/R3.2S-Naryan-Mar__20260117_084913_SUOMI_NPP_rec.log

#Pass ID: 20260117_084913_SUOMI NPP
#Satellite: SUOMI NPP
#Configuration: NPP
#almurnet v.1.7.20240730
#Start time: 2026-01-17 08:49:16

#Version: 2.2.20231116
#Station: R3.2S-Naryan-Mar
#Location: 53.008057 lon 67.646978 lat
#TLE: 1 37849U 11061A   26016.23176763  .00000061  00000+0  49926-4 0  9990
#TLE: 2 37849  98.7812 318.2698 0002434  61.5135 298.6286 14.19525545736883

#Time	Az	El	Level	Level2	SNR	BER	BlckErr	Temp	State	Recorded	gain1	gain2
2026-01-17 08:49:16.08	163.91	0.17	-83.5	-79.0	2.5	0.00e+00	0	46	0	0	60	1048574
2026-01-17 08:49:17.08	163.92	0.23	-85.2	-88.6	3.0	1.56e+00	0	47	104	0	60	1048574
2026-01-17 08:49:18.09	163.94	0.29	-85.2	-88.6	3.0	1.56e+00	0	47	104	0	60	1048570
2026-01-17 08:49:19.09	163.95	0.35	-85.2	-88.6	3.2	1.56e+00	0	47	104	0	60	1048574
2026-01-17 08:49:20.10	163.97	0.41	-85.2	-88.6	2.9	1.56e+00	0	47	104	0	60	1048574
2026-01-17 08:49:21.11	163.98	0.47	-85.2	-88.6	2.8	1.56e+00	0	47	104	0	60	1048575
2026-01-17 08:49:22.11	164.00	0.53	-85.2	-88.6	2.9	1.56e+00	0	47	104	0	60	1048572
2026-01-17 08:49:23.12	164.01	0.60	-85.2	-88.6	3.0	1.56e+00	0	47	104	0	60	1048575
2026-01-17 08:49:24.13	164.03	0.66	-85.2	-88.6	3.1	1.55e+00	0	47	104	0	60	1048575
2026-01-17 08:49:25.14	164.04	0.72	-85.2	-88.6	3.1	1.56e+00	0	47	104	0	60	1048575
2026-01-17 08:49:26.14	164.06	0.78	-85.2	-88.6	3.0	1.56e+00	0	47	104	0	60	1048575
2026-01-17 08:49:27.15	164.07	0.84	-85.2	-88.6	2.9	1.55e+00	0	47	104	0	60	1048575
2026-01-17 08:49:28.15	164.09	0.90	-85.2	-88.6	2.9	1.56e+00	0	47	104	0	60	1048575
2026-01-17 08:49:29.16	164.10	0.97	-85.2	-88.6	2.9	1.55e+00	0	47	104	0	60	1048575
2026-01-17 08:49:30.17	164.12	1.03	-85.2	-88.6	3.0	1.55e+00	0	47	104	0	60	1048574
2026-01-17 08:49:31.18	164.13	1.09	-85.2	-88.6	3.1	1.56e+00	0	47	104	0	60	1048574
2026-01-17 08:49:32.19	164.15	1.15	-85.2	-88.6	3.0	1.56e+00	0	47	104	0	60	1048575
2026-01-17 08:49:33.19	164.16	1.21	-85.2	-88.6	2.9	1.55e+00	0	47	104	0	60	1048575
2026-01-17 08:49:34.20	164.18	1.28	-85.2	-88.6	2.9	1.56e+00	0	47	104	0	60	1048571
2026-01-17 08:49:35.20	164.20	1.34	-85.2	-88.6	3.0	1.55e+00	0	47	104	0	60	1048575
2026-01-17 08:49:36.21	164.21	1.40	-85.2	-88.6	3.0	1.56e+00	0	47	104	0	60	1048575
2026-01-17 08:49:37.21	164.23	1.47	-85.2	-88.6	3.2	1.56e+00	0	47	104	0	60	1048575
2026-01-17 08:49:38.22	164.24	1.53	-85.2	-88.6	3.0	1.56e+00	0	47	104	0	60	1048573
2026-01-17 08:49:39.22	164.26	1.59	-85.2	-88.6	3.1	1.56e+00	0	47	104	0	60	1048575
2026-01-17 08:49:40.23	164.28	1.66	-85.2	-88.6	3.0	1.56e+00	0	47	104	0	60	1048574
2026-01-17 08:49:41.24	164.29	1.72	-85.2	-88.6	3.1	1.56e+00	0	47	104	0	60	1048574
2026-01-17 08:49:42.25	164.31	1.78	-85.2	-88.6	3.1	1.56e+00	0	47	104	0	60	1048573
2026-01-17 08:49:43.26	164.32	1.85	-85.2	-88.6	3.1	1.55e+00	0	47	104	0	60	1048574
2026-01-17 08:49:44.27	164.34	1.91	-85.2	-88.6	3.0	1.56e+00	0	47	104	0	60	1048575
2026-01-17 08:49:45.27	164.36	1.98	-85.2	-88.6	3.0	1.56e+00	0	47	104	0	60	1048573
2026-01-17 08:49:46.28	164.37	2.04	-85.2	-88.6	2.9	1.56e+00	0	47	104	0	60	1048575
2026-01-17 08:49:47.29	164.39	2.10	-85.2	-88.6	3.0	1.56e+00	0	47	104	0	60	1048574
2026-01-17 08:49:48.30	164.41	2.17	-85.2	-88.6	3.0	1.56e+00	0	47	104	0	60	1048575
2026-01-17 08:49:49.30	164.42	2.23	-85.2	-88.6	3.2	1.56e+00	0	47	104	0	60	1048574
2026-01-17 08:49:50.30	164.44	2.30	-85.2	-88.6	3.0	1.56e+00	0	47	104	0	60	1048573
2026-01-17 08:49:51.31	164.46	2.36	-85.2	-88.6	3.1	1.56e+00	0	47	104	0	60	1048574
2026-01-17 08:49:52.31	164.47	2.43	-85.2	-88.6	3.1	1.55e+00	0	47	104	0	60	1048575
2026-01-17 08:49:53.32	164.49	2.49	-85.2	-88.6	3.0	1.56e+00	0	47	104	0	60	1048573
2026-01-17 08:49:54.33	164.51	2.56	-85.2	-88.6	2.9	1.55e+00	0	47	104	0	60	1048575
2026-01-17 08:49:55.34	164.52	2.62	-85.2	-88.6	2.9	1.56e+00	0	47	104	0	60	1048574
2026-01-17 08:49:56.34	164.54	2.69	-85.2	-88.6	3.0	1.56e+00	0	47	104	0	60	1048572
2026-01-17 08:49:57.35	164.56	2.76	-85.2	-88.6	2.9	1.56e+00	0	47	104	0	60	1048575
2026-01-17 08:49:58.36	164.57	2.82	-85.2	-88.6	3.0	1.56e+00	0	47	104	0	60	1048575
2026-01-17 08:49:59.36	164.59	2.89	-85.2	-88.6	2.9	1.56e+00	0	47	104	0	60	1048574
2026-01-17 08:50:00.37	164.61	2.95	-85.2	-88.6	3.1	1.56e+00	0	47	104	0	60	1048575
2026-01-17 08:50:01.37	164.63	3.02	-85.2	-88.6	2.9	1.56e+00	0	47	104	0	60	1048575
2026-01-17 08:50:02.38	164.64	3.09	-85.2	-88.6	3.2	1.55e+00	0	47	104	0	60	1048572
2026-01-17 08:50:03.39	164.66	3.15	-85.2	-88.6	3.0	1.56e+00	0	47	104	0	60	1048575
2026-01-17 08:50:04.40	164.68	3.22	-85.2	-88.6	3.0	1.55e+00	0	47	104	0	60	1048575
2026-01-17 08:50:05.40	164.70	3.29	-85.2	-88.6	2.9	1.56e+00	0	47	104	0	60	1048575
2026-01-17 08:50:06.41	164.71	3.36	-85.2	-88.6	3.0	1.56e+00	0	47	104	0	60	1048573
2026-01-17 08:50:07.42	164.73	3.42	-85.2	-88.6	3.0	1.56e+00	0	47	104	0	60	1048575
2026-01-17 08:50:08.42	164.75	3.49	-85.2	-88.6	3.0	1.56e+00	0	47	104	0	60	1048573
2026-01-17 08:50:09.43	164.77	3.56	-85.2	-88.6	3.0	1.56e+00	0	47	104	0	60	1048573
2026-01-17 08:50:10.43	164.78	3.63	-85.2	-88.6	3.1	1.55e+00	0	47	104	0	60	1048575
2026-01-17 08:50:11.44	164.80	3.70	-85.2	-88.6	3.0	1.56e+00	0	47	104	0	60	1048575
2026-01-17 08:50:12.45	164.82	3.76	-85.2	-88.6	3.0	1.55e+00	0	47	104	0	60	1048573
2026-01-17 08:50:13.46	164.84	3.83	-85.2	-88.6	2.8	1.56e+00	0	47	104	0	60	1048574
2026-01-17 08:50:14.47	164.86	3.90	-85.2	-88.6	3.1	1.55e+00	0	47	104	0	60	1048574
2026-01-17 08:50:15.47	164.87	3.97	-83.9	-88.6	3.1	1.56e+00	0	47	104	0	60	1048575
2026-01-17 08:50:16.48	164.89	4.04	-85.2	-88.6	3.1	1.56e+00	0	47	104	0	60	1048575
2026-01-17 08:50:17.49	164.91	4.11	-85.2	-88.6	3.2	1.56e+00	0	47	104	0	60	1048575
2026-01-17 08:50:18.49	164.93	4.18	-85.2	-88.6	3.1	1.55e+00	0	47	104	0	60	1048575
2026-01-17 08:50:19.50	164.95	4.25	-85.2	-88.6	3.0	1.56e+00	0	47	104	0	60	1048574
2026-01-17 08:50:20.51	164.97	4.32	-85.2	-88.6	3.1	1.56e+00	0	47	104	0	60	1048572
2026-01-17 08:50:21.52	164.99	4.39	-85.2	-88.6	3.1	1.56e+00	0	47	104	0	60	1048575
2026-01-17 08:50:22.52	165.00	4.46	-85.2	-88.6	2.8	1.55e+00	0	47	104	0	60	1048575
2026-01-17 08:50:23.53	165.02	4.53	-85.2	-88.6	3.0	1.56e+00	0	47	104	0	60	1048575
2026-01-17 08:50:24.54	165.04	4.60	-85.2	-88.6	2.9	1.56e+00	0	47	104	0	60	1048575
2026-01-17 08:50:25.54	165.06	4.67	-85.2	-88.6	3.0	1.56e+00	0	47	104	0	60	1048574
2026-01-17 08:50:26.55	165.08	4.74	-85.2	-88.6	3.0	1.56e+00	0	47	104	0	60	1048575
2026-01-17 08:50:27.55	165.10	4.81	-85.2	-88.6	3.1	1.56e+00	0	47	104	0	60	1048575
2026-01-17 08:50:28.56	165.12	4.88	-85.2	-88.6	3.1	1.55e+00	0	47	104	0	60	1048575
2026-01-17 08:50:29.57	165.14	4.95	-85.2	-88.6	2.9	1.56e+00	0	47	104	0	60	1048575
2026-01-17 08:50:30.57	165.16	5.02	-85.2	-88.6	3.1	1.56e+00	0	47	104	0	60	1048575
2026-01-17 08:50:31.57	165.18	5.10	-85.2	-88.6	3.1	1.56e+00	0	47	104	0	60	1048574
2026-01-17 08:50:32.58	165.20	5.17	-85.2	-88.6	3.0	1.56e+00	0	47	104	0	60	1048574
2026-01-17 08:50:33.59	165.21	5.24	-85.2	-88.6	3.1	1.56e+00	0	47	104	0	60	1048571
2026-01-17 08:50:34.59	165.23	5.31	-85.2	-88.6	3.0	1.56e+00	0	47	104	0	60	1048575
2026-01-17 08:50:35.60	165.25	5.38	-85.2	-88.6	3.0	1.56e+00	0	47	104	0	60	1048575
2026-01-17 08:50:36.61	165.27	5.46	-85.2	-88.6	3.0	1.56e+00	0	47	104	0	60	1048573
2026-01-17 08:50:37.61	165.29	5.53	-85.2	-88.6	3.0	1.56e+00	0	47	104	0	60	1048574
2026-01-17 08:50:38.62	165.31	5.60	-85.2	-88.6	3.1	1.56e+00	0	47	104	0	60	1048574
2026-01-17 08:50:39.63	165.33	5.68	-85.2	-88.6	3.2	1.56e+00	0	47	104	0	60	1048575
2026-01-17 08:50:40.64	165.35	5.75	-85.2	-88.6	2.9	1.56e+00	0	47	104	0	60	1048575
2026-01-17 08:50:41.65	165.37	5.83	-85.2	-88.6	2.9	1.55e+00	0	47	104	0	60	1048574
2026-01-17 08:50:42.66	165.39	5.90	-85.2	-88.6	2.9	1.55e+00	0	47	104	0	60	1048575
2026-01-17 08:50:43.67	165.42	5.97	-85.2	-88.6	3.0	1.56e+00	0	47	104	0	60	1048572
2026-01-17 08:50:44.67	165.44	6.05	-85.2	-88.6	3.0	1.56e+00	0	47	104	0	60	1048575
2026-01-17 08:50:45.68	165.46	6.12	-85.2	-88.6	3.1	1.55e+00	0	47	104	0	60	1048575
2026-01-17 08:50:46.69	165.48	6.20	-85.2	-88.6	3.1	1.55e+00	0	47	104	0	60	1048575
2026-01-17 08:50:47.69	165.50	6.27	-85.2	-88.6	2.9	1.55e+00	0	47	104	0	60	1048574
2026-01-17 08:50:48.70	165.52	6.35	-85.2	-88.6	3.0	1.56e+00	0	47	104	0	60	1048574
2026-01-17 08:50:49.71	165.54	6.42	-85.2	-88.6	2.9	1.56e+00	0	47	104	0	60	1048571
2026-01-17 08:50:50.72	165.56	6.50	-85.2	-88.6	2.8	1.56e+00	0	47	104	0	60	1048575
2026-01-17 08:50:51.72	165.58	6.57	-85.2	-88.6	3.2	1.55e+00	0	47	104	0	60	1048575
2026-01-17 08:50:52.73	165.60	6.65	-85.2	-88.6	2.8	1.56e+00	0	47	104	0	60	1048574
2026-01-17 08:50:53.73	165.62	6.73	-85.2	-88.6	3.0	1.55e+00	0	47	104	0	60	1048571
2026-01-17 08:50:54.74	165.65	6.80	-85.2	-88.6	3.0	1.55e+00	0	47	104	0	60	1048575
2026-01-17 08:50:55.74	165.67	6.88	-85.2	-88.6	2.9	1.56e+00	0	47	104	0	60	1048574
2026-01-17 08:50:56.75	165.69	6.96	-85.2	-88.6	3.0	1.56e+00	0	47	104	0	60	1048572
2026-01-17 08:50:57.76	165.71	7.03	-85.2	-88.6	3.1	1.56e+00	0	47	104	0	60	1048574
2026-01-17 08:50:58.76	165.73	7.11	-85.2	-88.6	2.9	1.56e+00	0	47	104	0	60	1048574
2026-01-17 08:50:59.76	165.75	7.19	-85.2	-88.6	3.1	1.56e+00	0	47	104	0	60	1048575
2026-01-17 08:51:00.77	165.78	7.27	-85.2	-88.6	2.8	1.56e+00	0	47	104	0	60	1048574
2026-01-17 08:51:01.77	165.80	7.34	-85.2	-88.6	2.9	1.55e+00	0	47	104	0	60	1048575
2026-01-17 08:51:02.78	165.82	7.42	-85.2	-88.6	2.9	1.56e+00	0	47	104	0	60	1048573
2026-01-17 08:51:03.78	165.84	7.50	-85.2	-88.6	2.8	1.56e+00	0	47	104	0	60	1048574
2026-01-17 08:51:04.79	165.86	7.58	-85.2	-88.6	3.0	1.56e+00	0	47	104	0	60	1048575
2026-01-17 08:51:05.80	165.89	7.66	-85.2	-88.6	3.2	1.56e+00	0	47	104	0	60	1048574
2026-01-17 08:51:06.80	165.91	7.74	-85.2	-88.6	3.0	1.56e+00	0	47	104	0	60	1048575
2026-01-17 08:51:07.80	165.93	7.82	-85.2	-88.6	3.0	1.56e+00	0	47	104	0	60	1048575
2026-01-17 08:51:08.81	165.95	7.90	-85.2	-88.6	3.2	1.56e+00	0	47	104	0	60	1048572
2026-01-17 08:51:09.81	165.98	7.98	-85.2	-88.6	3.2	1.55e+00	0	47	104	0	60	1048573
2026-01-17 08:51:10.83	166.00	8.06	-85.2	-88.6	3.0	1.56e+00	0	47	104	0	60	1048574
2026-01-17 08:51:11.83	166.02	8.14	-85.2	-88.6	3.1	1.55e+00	0	47	104	0	60	1048574
2026-01-17 08:51:12.84	166.05	8.22	-85.2	-88.6	3.0	1.55e+00	0	47	104	0	60	1048575
2026-01-17 08:51:13.85	166.07	8.30	-85.2	-88.6	2.9	1.56e+00	0	47	104	0	60	1048575
2026-01-17 08:51:14.86	166.09	8.38	-85.2	-88.6	3.0	1.56e+00	0	47	104	0	60	1048573
2026-01-17 08:51:15.86	166.12	8.47	-85.2	-88.6	2.9	1.56e+00	0	47	104	0	60	1048574
2026-01-17 08:51:16.87	166.14	8.55	-85.2	-88.6	3.2	1.55e+00	0	47	104	0	60	1048574
2026-01-17 08:51:17.88	166.16	8.63	-85.2	-88.6	3.2	1.55e+00	0	47	104	0	60	1048572
2026-01-17 08:51:18.88	166.19	8.71	-85.2	-88.6	3.0	1.56e+00	0	47	104	0	60	1048574
2026-01-17 08:51:19.89	166.21	8.79	-85.2	-88.6	3.0	1.56e+00	0	47	104	0	60	1048574
2026-01-17 08:51:20.90	166.24	8.88	-85.2	-88.6	3.1	1.56e+00	0	47	104	0	60	1048571
2026-01-17 08:51:21.91	166.26	8.96	-85.2	-88.6	3.1	1.56e+00	0	47	104	0	60	1048575
2026-01-17 08:51:22.91	166.28	9.04	-85.2	-88.6	3.0	1.56e+00	0	47	104	0	60	1048573
2026-01-17 08:51:23.92	166.31	9.13	-85.2	-88.6	3.0	1.55e+00	0	47	104	0	60	1048571
2026-01-17 08:51:24.93	166.33	9.21	-85.2	-88.6	2.9	1.55e+00	0	47	104	0	60	1048574
2026-01-17 08:51:25.94	166.36	9.30	-85.2	-88.6	3.1	1.56e+00	0	47	104	0	60	1048574
2026-01-17 08:51:26.95	166.38	9.38	-85.2	-88.6	2.9	1.56e+00	0	47	104	0	60	1048575
2026-01-17 08:51:27.95	166.41	9.47	-85.2	-88.6	2.9	1.55e+00	0	47	104	0	60	1048574
2026-01-17 08:51:28.96	166.43	9.55	-85.2	-88.6	3.1	1.55e+00	0	47	104	0	60	1048574
2026-01-17 08:51:29.96	166.46	9.64	-85.2	-88.6	2.8	1.56e+00	0	47	104	0	60	1048575
2026-01-17 08:51:30.97	166.48	9.72	-85.2	-88.6	3.1	1.56e+00	0	47	104	0	60	1048575
2026-01-17 08:51:31.97	166.51	9.81	-85.2	-88.6	2.9	1.56e+00	0	47	104	0	60	1048570
2026-01-17 08:51:32.98	166.53	9.90	-85.2	-88.6	3.0	1.56e+00	0	47	104	0	60	1048575
2026-01-17 08:51:33.99	166.56	9.98	-85.2	-88.6	3.1	1.56e+00	0	47	104	0	60	1048574
2026-01-17 08:51:35.00	166.59	10.07	-85.2	-88.6	3.0	1.56e+00	0	47	104	0	60	1048574
2026-01-17 08:51:36.00	166.61	10.16	-85.2	-88.6	2.9	1.56e+00	0	47	104	0	60	1048574
2026-01-17 08:51:37.00	166.64	10.24	-85.2	-88.6	3.0	1.56e+00	0	47	104	0	60	1048571
2026-01-17 08:51:38.01	166.66	10.33	-85.2	-88.6	3.2	1.56e+00	0	47	104	0	60	1048575
2026-01-17 08:51:39.02	166.69	10.42	-85.2	-88.6	3.1	1.56e+00	0	47	104	0	60	1048573
2026-01-17 08:51:40.03	166.72	10.51	-85.2	-88.6	3.3	1.56e+00	0	47	104	0	60	1048575
2026-01-17 08:51:41.03	166.74	10.60	-85.2	-88.6	2.9	1.56e+00	0	47	104	0	60	1048575
2026-01-17 08:51:42.04	166.77	10.69	-85.2	-88.6	2.9	1.56e+00	0	47	104	0	60	1048575
2026-01-17 08:51:43.05	166.80	10.78	-85.2	-88.6	3.1	1.56e+00	0	47	104	0	60	1048575
2026-01-17 08:51:44.06	166.83	10.87	-85.2	-88.6	2.8	1.55e+00	0	47	104	0	60	1048572
2026-01-17 08:51:45.06	166.85	10.96	-85.2	-88.6	3.0	1.56e+00	0	47	104	0	60	1048575
2026-01-17 08:51:46.07	166.88	11.05	-85.2	-88.6	3.1	1.56e+00	0	47	104	0	60	1048572
2026-01-17 08:51:47.08	166.91	11.14	-85.2	-88.6	3.1	1.55e+00	0	47	104	0	60	1048575
2026-01-17 08:51:48.09	166.94	11.23	-85.2	-88.6	3.1	1.56e+00	0	47	104	0	60	1048573
2026-01-17 08:51:49.09	166.96	11.32	-85.2	-88.6	3.1	1.56e+00	0	47	104	0	60	1048575
2026-01-17 08:51:50.10	166.99	11.41	-85.2	-88.6	3.0	1.56e+00	0	47	104	0	60	1048573
2026-01-17 08:51:51.10	167.02	11.51	-85.2	-88.6	3.1	1.55e+00	0	47	104	0	60	1048575
2026-01-17 08:51:52.11	167.05	11.60	-85.2	-88.6	3.2	1.56e+00	0	47	104	0	60	1048574
2026-01-17 08:51:53.11	167.08	11.69	-85.2	-88.6	3.0	1.55e+00	0	47	104	0	60	1048574
2026-01-17 08:51:54.11	167.10	11.78	-85.2	-88.6	3.0	1.56e+00	0	47	104	0	60	1048567
2026-01-17 08:51:55.12	167.13	11.88	-85.2	-88.6	3.1	1.56e+00	0	47	104	0	60	1048574
2026-01-17 08:51:56.13	167.16	11.97	-85.2	-88.6	3.1	1.55e+00	0	47	104	0	60	1048575
2026-01-17 08:51:57.13	167.19	12.07	-85.2	-88.6	2.9	1.56e+00	0	47	104	0	60	1048575
2026-01-17 08:51:58.14	167.22	12.16	-85.2	-88.6	3.0	1.56e+00	0	47	104	0	60	1048575
2026-01-17 08:51:59.14	167.25	12.26	-85.2	-88.6	2.9	1.56e+00	0	47	104	0	60	1048574
2026-01-17 08:52:00.15	167.28	12.35	-85.2	-88.6	3.1	1.56e+00	0	47	104	0	60	1048575
2026-01-17 08:52:01.16	167.31	12.45	-85.2	-88.6	3.0	1.55e+00	0	47	104	0	60	1048572
2026-01-17 08:52:02.17	167.34	12.54	-85.2	-88.6	2.9	1.55e+00	0	47	104	0	60	1048574
2026-01-17 08:52:03.18	167.37	12.64	-85.2	-88.6	3.2	1.55e+00	0	47	104	0	60	1048575
2026-01-17 08:52:04.19	167.40	12.74	-85.2	-88.6	2.9	1.56e+00	0	47	104	0	60	1048572
2026-01-17 08:52:05.19	167.43	12.83	-85.2	-88.6	3.1	1.55e+00	0	47	104	0	60	1048575
2026-01-17 08:52:06.20	167.46	12.93	-85.2	-88.6	3.1	1.56e+00	0	47	104	0	60	1048574
2026-01-17 08:52:07.20	167.49	13.03	-85.2	-88.6	3.0	1.56e+00	0	47	104	0	60	1048574
2026-01-17 08:52:08.21	167.52	13.13	-85.2	-88.6	2.9	1.56e+00	0	47	104	0	60	1048575
2026-01-17 08:52:09.21	167.55	13.23	-85.2	-88.6	3.1	1.56e+00	0	47	104	0	60	1048570
2026-01-17 08:52:10.22	167.59	13.33	-85.2	-88.6	3.2	1.55e+00	0	47	104	0	60	1048574
2026-01-17 08:52:11.22	167.62	13.43	-85.2	-88.6	2.9	1.56e+00	0	47	104	0	60	1048575
2026-01-17 08:52:12.23	167.65	13.53	-85.2	-88.6	2.9	1.56e+00	0	47	104	0	60	1048575
2026-01-17 08:52:13.23	167.68	13.63	-85.2	-88.6	3.0	1.55e+00	0	47	104	0	60	1048575
2026-01-17 08:52:14.24	167.71	13.73	-85.2	-88.6	2.7	1.56e+00	0	47	104	0	60	1048575
2026-01-17 08:52:15.25	167.74	13.83	-85.2	-88.6	3.0	1.56e+00	0	47	104	0	60	1048575
2026-01-17 08:52:16.26	167.78	13.93	-85.2	-88.6	3.0	1.55e+00	0	47	104	0	60	1048575
2026-01-17 08:52:17.27	167.81	14.03	-85.2	-88.6	3.0	1.55e+00	0	47	104	0	60	1048575
2026-01-17 08:52:18.27	167.84	14.13	-85.2	-88.6	3.2	1.56e+00	0	47	104	0	60	1048573
2026-01-17 08:52:19.28	167.88	14.24	-85.2	-88.6	3.2	1.55e+00	0	47	104	0	60	1048575
2026-01-17 08:52:20.28	167.91	14.34	-85.2	-88.6	2.9	1.55e+00	0	47	104	0	60	1048573
2026-01-17 08:52:21.29	167.94	14.45	-85.2	-88.6	3.1	1.55e+00	0	47	104	0	60	1048575
2026-01-17 08:52:22.30	167.98	14.55	-85.2	-88.6	3.0	1.56e+00	0	47	104	0	60	1048575
2026-01-17 08:52:23.31	168.01	14.65	-85.2	-88.6	3.0	1.56e+00	0	47	104	0	60	1048575
2026-01-17 08:52:24.31	168.04	14.76	-85.2	-88.6	3.0	1.56e+00	0	47	104	0	60	1048575
2026-01-17 08:52:25.32	168.08	14.87	-85.2	-88.6	3.2	1.56e+00	0	47	104	0	60	1048573
2026-01-17 08:52:26.32	168.11	14.97	-85.2	-88.6	3.1	1.56e+00	0	47	104	0	60	1048575
2026-01-17 08:52:27.33	168.15	15.08	-84.3	-88.6	3.0	1.56e+00	0	47	104	0	60	1048575
2026-01-17 08:52:28.33	168.18	15.18	-85.2	-88.6	3.1	1.56e+00	0	47	104	0	60	1048574
2026-01-17 08:52:29.34	168.22	15.29	-85.2	-88.6	3.0	1.56e+00	0	47	104	0	60	1048575
2026-01-17 08:52:30.35	168.25	15.40	-85.2	-88.6	2.8	1.56e+00	0	47	104	0	60	1048573
2026-01-17 08:52:31.35	168.29	15.51	-85.2	-88.6	3.0	1.56e+00	0	47	104	0	60	1048575
2026-01-17 08:52:32.36	168.33	15.62	-85.2	-88.6	3.0	1.56e+00	0	47	104	0	60	1048575
2026-01-17 08:52:33.37	168.36	15.73	-85.2	-88.6	2.9	1.56e+00	0	47	104	0	60	1048574
2026-01-17 08:52:34.38	168.40	15.84	-85.2	-88.6	3.1	1.56e+00	0	47	104	0	60	1048575
2026-01-17 08:52:35.39	168.44	15.95	-85.2	-88.6	2.9	1.56e+00	0	47	104	0	60	1048574
2026-01-17 08:52:36.39	168.47	16.06	-85.2	-88.6	3.0	1.56e+00	0	47	104	0	60	1048575
2026-01-17 08:52:37.40	168.51	16.17	-85.2	-88.6	3.0	1.56e+00	0	47	104	0	60	1048575
2026-01-17 08:52:38.41	168.55	16.28	-85.2	-88.6	3.0	1.56e+00	0	47	104	0	60	1048575
2026-01-17 08:52:39.41	168.58	16.39	-85.2	-88.6	3.1	1.56e+00	0	47	104	0	60	1048575
2026-01-17 08:52:40.42	168.62	16.51	-85.2	-88.6	3.3	1.56e+00	0	47	104	0	60	1048575
2026-01-17 08:52:41.43	168.66	16.62	-85.2	-88.6	2.9	1.56e+00	0	47	104	0	60	1048574
2026-01-17 08:52:42.43	168.70	16.73	-85.2	-88.6	3.1	1.55e+00	0	47	104	0	60	1048574
2026-01-17 08:52:43.44	168.74	16.85	-85.2	-88.6	3.0	1.56e+00	0	47	104	0	60	1048573
2026-01-17 08:52:44.45	168.78	16.96	-85.2	-88.6	3.0	1.56e+00	0	47	104	0	60	1048575
2026-01-17 08:52:45.46	168.82	17.08	-85.2	-88.6	3.1	1.56e+00	0	47	104	0	60	1048573
2026-01-17 08:52:46.47	168.86	17.20	-85.2	-88.6	3.2	1.55e+00	0	47	104	0	60	1048575
2026-01-17 08:52:47.48	168.90	17.31	-84.3	-88.6	3.1	1.55e+00	0	47	104	0	60	1048574
2026-01-17 08:52:48.48	168.94	17.43	-85.2	-88.6	2.9	1.56e+00	0	47	104	0	60	1048571
2026-01-17 08:52:49.48	168.98	17.55	-85.2	-88.6	3.0	1.55e+00	0	47	104	0	60	1048572
2026-01-17 08:52:50.49	169.02	17.66	-85.2	-88.6	3.0	1.55e+00	0	47	104	0	60	1048575
2026-01-17 08:52:51.50	169.06	17.78	-85.2	-88.6	3.0	1.56e+00	0	47	104	0	60	1048575
2026-01-17 08:52:52.51	169.10	17.90	-84.7	-88.6	3.0	1.56e+00	0	47	104	0	60	1048575
2026-01-17 08:52:53.51	169.14	18.02	-85.2	-88.6	2.9	1.55e+00	0	47	104	0	60	1048575
2026-01-17 08:52:54.52	169.18	18.14	-85.2	-88.6	3.0	1.55e+00	0	47	104	0	60	1048570
2026-01-17 08:52:55.52	169.22	18.26	-85.2	-88.6	3.0	1.56e+00	0	47	104	0	60	1048572
2026-01-17 08:52:56.53	169.27	18.39	-85.2	-88.6	3.1	1.56e+00	0	47	104	0	60	1048575
2026-01-17 08:52:57.53	169.31	18.51	-84.7	-88.6	2.9	1.56e+00	0	47	104	0	60	1048572
2026-01-17 08:52:58.54	169.35	18.63	-85.2	-88.6	3.0	1.56e+00	0	47	104	0	60	1048572
2026-01-17 08:52:59.55	169.40	18.75	-85.2	-88.6	3.2	1.55e+00	0	47	104	0	60	1048574
2026-01-17 08:53:00.55	169.44	18.88	-85.2	-88.6	2.9	1.56e+00	0	47	104	0	60	1048570
2026-01-17 08:53:01.56	169.48	19.00	-85.2	-88.6	3.0	1.56e+00	0	47	104	0	60	1048572
2026-01-17 08:53:02.57	169.53	19.13	-84.7	-88.6	2.9	1.56e+00	0	47	104	0	60	1048573
2026-01-17 08:53:03.58	169.57	19.25	-85.2	-88.6	2.9	1.55e+00	0	47	104	0	60	1048573
2026-01-17 08:53:04.58	169.62	19.38	-85.2	-88.6	2.9	1.56e+00	0	47	104	0	60	1048575
2026-01-17 08:53:05.59	169.66	19.51	-85.2	-88.6	2.8	1.56e+00	0	47	104	0	60	1048572
2026-01-17 08:53:06.60	169.71	19.64	-85.2	-88.6	3.0	1.55e+00	0	47	104	0	60	1048574
2026-01-17 08:53:07.61	169.76	19.76	-85.2	-88.6	3.1	1.56e+00	0	47	104	0	60	1048574
2026-01-17 08:53:08.62	169.80	19.89	-85.2	-88.6	3.1	1.56e+00	0	47	104	0	60	1048572
2026-01-17 08:53:09.62	169.85	20.02	-85.2	-88.6	3.1	1.56e+00	0	47	104	0	60	1048575
2026-01-17 08:53:10.63	169.90	20.15	-85.2	-88.6	2.9	1.56e+00	0	47	104	0	60	1048575
2026-01-17 08:53:11.63	169.94	20.28	-85.2	-88.6	2.8	1.56e+00	0	47	104	0	60	1048575
2026-01-17 08:53:12.63	169.99	20.41	-85.2	-88.6	2.9	1.56e+00	0	47	104	0	60	1048575
2026-01-17 08:53:13.63	170.04	20.55	-85.2	-88.6	3.0	1.56e+00	0	47	104	0	60	1048575
2026-01-17 08:53:14.64	170.09	20.68	-85.2	-88.6	2.9	1.56e+00	0	47	104	0	60	1048575
2026-01-17 08:53:15.64	170.14	20.81	-85.2	-88.6	3.1	1.56e+00	0	47	104	0	60	1048573
2026-01-17 08:53:16.65	170.19	20.95	-85.2	-88.6	3.0	1.56e+00	0	47	104	0	60	1048575
2026-01-17 08:53:17.65	170.24	21.08	-85.2	-88.6	3.0	1.56e+00	0	47	104	0	60	1048574
2026-01-17 08:53:18.65	170.29	21.22	-85.2	-88.6	3.0	1.56e+00	0	47	104	0	60	1048575
2026-01-17 08:53:19.66	170.34	21.35	-85.2	-88.6	3.0	1.56e+00	0	47	104	0	60	1048575
2026-01-17 08:53:20.67	170.39	21.49	-85.2	-88.6	3.2	1.56e+00	0	47	104	0	60	1048575
2026-01-17 08:53:21.67	170.44	21.63	-85.2	-88.6	3.2	1.56e+00	0	47	104	0	60	1048575
2026-01-17 08:53:22.67	170.49	21.77	-84.7	-88.6	3.0	1.56e+00	0	47	104	0	60	1048575
2026-01-17 08:53:23.68	170.54	21.91	-85.2	-88.6	2.8	1.56e+00	0	47	104	0	60	1048575
2026-01-17 08:53:24.69	170.60	22.05	-85.2	-88.6	3.0	1.56e+00	0	47	104	0	60	1048574
2026-01-17 08:53:25.69	170.65	22.19	-85.2	-88.6	3.0	1.55e+00	0	47	104	0	60	1048572
2026-01-17 08:53:26.70	170.70	22.33	-85.2	-88.6	2.8	1.56e+00	0	47	104	0	60	1048575
2026-01-17 08:53:27.71	170.76	22.47	-85.2	-88.6	3.0	1.56e+00	0	47	104	0	60	1048574
2026-01-17 08:53:28.71	170.81	22.61	-85.2	-88.6	3.0	1.56e+00	0	47	104	0	60	1048573
2026-01-17 08:53:29.71	170.87	22.76	-85.2	-88.6	3.1	1.56e+00	0	47	104	0	60	1048575
2026-01-17 08:53:30.72	170.92	22.90	-85.2	-88.6	2.8	1.56e+00	0	47	104	0	60	1048574
2026-01-17 08:53:31.72	170.98	23.05	-85.2	-88.6	3.0	1.56e+00	0	47	104	0	60	1048572
2026-01-17 08:53:32.73	171.03	23.19	-85.2	-88.6	2.9	1.56e+00	0	47	104	0	60	1048574
2026-01-17 08:53:33.73	171.09	23.34	-85.2	-88.6	3.1	1.56e+00	0	47	104	0	60	1048575
2026-01-17 08:53:34.74	171.15	23.49	-85.2	-88.6	2.8	1.56e+00	0	47	104	0	60	1048574
2026-01-17 08:53:35.75	171.21	23.64	-85.2	-88.6	3.1	1.55e+00	0	47	104	0	60	1048575
2026-01-17 08:53:36.75	171.27	23.79	-85.2	-88.6	3.1	1.56e+00	0	47	104	0	60	1048575
2026-01-17 08:53:37.76	171.32	23.94	-84.7	-88.6	3.0	1.56e+00	0	47	104	0	60	1048575
2026-01-17 08:53:38.76	171.38	24.09	-85.2	-88.6	2.8	1.56e+00	0	47	104	0	60	1048574
2026-01-17 08:53:39.76	171.44	24.24	-85.2	-88.6	3.0	1.56e+00	0	47	104	0	60	1048575
2026-01-17 08:53:40.76	171.50	24.39	-85.2	-88.6	2.9	1.55e+00	0	47	104	0	60	1048572
2026-01-17 08:53:41.77	171.57	24.55	-85.2	-88.6	2.8	1.56e+00	0	47	104	0	60	1048574
2026-01-17 08:53:42.77	171.63	24.70	-85.2	-88.6	2.9	1.56e+00	0	47	104	0	60	1048575
2026-01-17 08:53:43.78	171.69	24.86	-85.2	-88.6	2.9	1.55e+00	0	47	104	0	60	1048573
2026-01-17 08:53:44.79	171.75	25.01	-85.2	-88.6	3.0	1.56e+00	0	47	104	0	60	1048572
2026-01-17 08:53:45.79	171.82	25.17	-85.2	-88.6	3.1	1.56e+00	0	47	104	0	60	1048573
2026-01-17 08:53:46.80	171.88	25.33	-85.2	-88.6	3.1	1.56e+00	0	47	104	0	60	1048574
2026-01-17 08:53:47.81	171.95	25.49	-85.2	-88.6	2.9	1.55e+00	0	47	104	0	60	1048574
2026-01-17 08:53:48.82	172.01	25.65	-85.2	-88.6	3.1	1.56e+00	0	47	104	0	60	1048575
2026-01-17 08:53:49.82	172.08	25.81	-85.2	-88.6	2.8	1.55e+00	0	47	104	0	60	1048571
2026-01-17 08:53:50.83	172.14	25.97	-85.2	-88.6	2.9	1.55e+00	0	47	104	0	60	1048575
2026-01-17 08:53:51.84	172.21	26.14	-85.2	-88.6	3.1	1.56e+00	0	47	104	0	60	1048575
2026-01-17 08:53:52.85	172.28	26.30	-85.2	-88.6	3.1	1.56e+00	0	47	104	0	60	1048573
2026-01-17 08:53:53.86	172.35	26.47	-85.2	-88.6	2.8	1.55e+00	0	47	104	0	60	1048573
2026-01-17 08:53:54.86	172.42	26.63	-85.2	-88.6	3.2	1.56e+00	0	47	104	0	60	1048575
2026-01-17 08:53:55.87	172.49	26.80	-85.2	-88.6	2.8	1.56e+00	0	47	104	0	60	1048575
2026-01-17 08:53:56.88	172.56	26.97	-85.2	-88.6	3.1	1.56e+00	0	47	104	0	60	1048572
2026-01-17 08:53:57.89	172.63	27.14	-85.2	-88.6	3.0	1.56e+00	0	47	104	0	60	1048574
2026-01-17 08:53:58.89	172.70	27.31	-85.2	-88.6	3.1	1.56e+00	0	47	104	0	60	1048575
2026-01-17 08:53:59.90	172.78	27.48	-85.2	-88.6	2.9	1.56e+00	0	47	104	0	60	1048575
2026-01-17 08:54:00.90	172.85	27.65	-85.2	-88.6	3.0	1.56e+00	0	47	104	0	60	1048575
2026-01-17 08:54:01.91	172.92	27.82	-85.2	-88.6	2.9	1.56e+00	0	47	104	0	60	1048575
2026-01-17 08:54:02.92	173.00	28.00	-85.2	-88.6	3.2	1.55e+00	0	47	104	0	60	1048572
2026-01-17 08:54:03.93	173.07	28.18	-85.2	-88.6	2.8	1.56e+00	0	47	104	0	60	1048575
2026-01-17 08:54:04.93	173.15	28.35	-85.2	-88.6	3.0	1.55e+00	0	47	104	0	60	1048575
2026-01-17 08:54:05.94	173.23	28.53	-85.2	-88.6	3.1	1.56e+00	0	47	104	0	60	1048566
2026-01-17 08:54:06.95	173.31	28.71	-85.2	-88.6	2.9	1.56e+00	0	47	104	0	60	1048572
2026-01-17 08:54:07.95	173.39	28.89	-85.2	-88.6	2.9	1.56e+00	0	47	104	0	60	1048575
2026-01-17 08:54:08.95	173.47	29.07	-85.2	-88.6	3.0	1.56e+00	0	47	104	0	60	1048575
2026-01-17 08:54:09.96	173.55	29.25	-85.2	-88.6	3.0	1.56e+00	0	47	104	0	60	1048575
2026-01-17 08:54:10.97	173.63	29.43	-85.2	-88.6	3.0	1.56e+00	0	47	104	0	60	1048575
2026-01-17 08:54:11.98	173.71	29.62	-85.2	-88.6	3.1	1.56e+00	0	47	104	0	60	1048575
2026-01-17 08:54:12.98	173.79	29.80	-85.2	-88.6	2.8	1.55e+00	0	47	104	0	60	1048575
2026-01-17 08:54:13.99	173.88	29.99	-85.2	-88.6	2.9	1.55e+00	0	47	104	0	60	1048575
2026-01-17 08:54:15.00	173.96	30.17	-85.2	-88.6	3.0	1.56e+00	0	47	104	0	60	1048569
2026-01-17 08:54:16.01	174.05	30.36	-85.2	-88.6	2.9	1.56e+00	0	47	104	0	60	1048575
2026-01-17 08:54:17.01	174.14	30.55	-85.2	-88.6	3.1	1.56e+00	0	47	104	0	60	1048575
2026-01-17 08:54:18.02	174.23	30.74	-85.2	-88.6	3.0	1.56e+00	0	47	104	0	60	1048571
2026-01-17 08:54:19.03	174.32	30.94	-85.2	-88.6	3.0	1.55e+00	0	47	104	0	60	1048575
2026-01-17 08:54:20.03	174.41	31.13	-85.2	-88.6	3.1	1.56e+00	0	47	104	0	60	1048575
2026-01-17 08:54:21.04	174.50	31.32	-85.2	-88.6	2.8	1.56e+00	0	47	104	0	60	1048574
2026-01-17 08:54:22.04	174.59	31.52	-85.2	-88.6	3.0	1.56e+00	0	47	104	0	60	1048575
2026-01-17 08:54:23.05	174.68	31.72	-85.2	-88.6	3.0	1.56e+00	0	47	104	0	60	1048574
2026-01-17 08:54:24.06	174.78	31.92	-85.2	-88.6	3.1	1.55e+00	0	47	104	0	60	1048574
2026-01-17 08:54:25.07	174.87	32.12	-85.2	-88.6	3.0	1.55e+00	0	47	104	0	60	1048575
2026-01-17 08:54:26.07	174.97	32.32	-83.5	-88.6	3.1	1.56e+00	0	47	104	0	60	1048575
2026-01-17 08:54:27.08	175.07	32.52	-85.2	-88.6	3.0	1.55e+00	0	47	104	0	60	1048575
2026-01-17 08:54:28.08	175.17	32.72	-85.2	-88.6	2.9	1.56e+00	0	47	104	0	60	1048575
2026-01-17 08:54:29.09	175.27	32.93	-85.2	-88.6	3.1	1.55e+00	0	47	104	0	60	1048574
2026-01-17 08:54:30.09	175.37	33.13	-85.2	-88.6	2.9	1.56e+00	0	47	104	0	60	1048575
2026-01-17 08:54:31.10	175.47	33.34	-85.2	-88.6	2.9	1.56e+00	0	47	104	0	60	1048571
2026-01-17 08:54:32.11	175.58	33.55	-85.2	-88.6	3.0	1.55e+00	0	47	104	0	60	1048575
2026-01-17 08:54:33.11	175.68	33.76	-85.2	-88.6	3.1	1.56e+00	0	47	104	0	60	1048573
2026-01-17 08:54:34.12	175.79	33.97	-85.2	-88.6	2.9	1.56e+00	0	47	104	0	60	1048573
2026-01-17 08:54:35.12	175.90	34.18	-85.2	-88.6	3.0	1.55e+00	0	47	104	0	60	1048575
2026-01-17 08:54:36.13	176.01	34.40	-85.2	-88.6	3.0	1.56e+00	0	47	104	0	60	1048574
2026-01-17 08:54:37.14	176.12	34.61	-85.2	-88.6	2.8	1.55e+00	0	47	104	0	60	1048575
2026-01-17 08:54:38.14	176.23	34.83	-85.2	-88.6	3.0	1.56e+00	0	47	104	0	60	1048575
2026-01-17 08:54:39.15	176.34	35.05	-85.2	-88.6	3.0	1.56e+00	0	47	104	0	60	1048575
2026-01-17 08:54:40.15	176.46	35.26	-85.2	-88.6	2.8	1.56e+00	0	47	104	0	60	1048574
2026-01-17 08:54:41.16	176.57	35.49	-85.2	-88.6	3.1	1.56e+00	0	47	104	0	60	1048575
2026-01-17 08:54:42.17	176.69	35.71	-85.2	-88.6	2.9	1.56e+00	0	47	104	0	60	1048575
2026-01-17 08:54:43.18	176.81	35.93	-85.2	-88.6	3.0	1.56e+00	0	47	104	0	60	1048571
2026-01-17 08:54:44.19	176.93	36.16	-85.2	-88.6	3.0	1.56e+00	0	47	104	0	60	1048575
2026-01-17 08:54:45.19	177.06	36.38	-85.2	-88.6	3.1	1.56e+00	0	47	104	0	60	1048572
2026-01-17 08:54:46.20	177.18	36.61	-85.2	-88.6	3.0	1.56e+00	0	47	104	0	60	1048575
2026-01-17 08:54:47.21	177.31	36.84	-85.2	-88.6	2.9	1.56e+00	0	47	104	0	60	1048575
2026-01-17 08:54:48.22	177.44	37.08	-85.2	-88.6	2.9	1.56e+00	0	47	104	0	60	1048575
2026-01-17 08:54:49.22	177.57	37.31	-85.2	-88.6	2.9	1.56e+00	0	47	104	0	60	1048575
2026-01-17 08:54:50.23	177.70	37.54	-85.2	-88.6	3.0	1.56e+00	0	47	104	0	60	1048575
2026-01-17 08:54:51.24	177.83	37.78	-85.2	-88.6	2.9	1.56e+00	0	47	104	0	60	1048573
2026-01-17 08:54:52.24	177.97	38.01	-85.2	-88.6	3.0	1.56e+00	0	47	104	0	60	1048575
2026-01-17 08:54:53.25	178.11	38.25	-85.2	-88.6	3.0	1.56e+00	0	47	104	0	60	1048574
2026-01-17 08:54:54.25	178.24	38.49	-85.2	-88.6	3.0	1.55e+00	0	47	104	0	60	1048573
2026-01-17 08:54:55.26	178.39	38.73	-85.2	-88.6	3.0	1.55e+00	0	47	104	0	60	1048575
2026-01-17 08:54:56.27	178.53	38.98	-85.2	-88.6	3.1	1.55e+00	0	47	104	0	60	1048574
2026-01-17 08:54:57.27	178.67	39.22	-85.2	-88.6	3.1	1.56e+00	0	47	104	0	60	1048575
2026-01-17 08:54:58.28	178.82	39.47	-85.2	-88.6	3.1	1.56e+00	0	47	104	0	60	1048575
2026-01-17 08:54:59.29	178.97	39.72	-85.2	-88.6	3.0	1.56e+00	0	47	104	0	60	1048574
2026-01-17 08:55:00.30	179.13	39.97	-85.2	-88.6	2.7	1.55e+00	0	47	104	0	60	1048574
2026-01-17 08:55:01.30	179.28	40.22	-85.2	-88.6	2.8	1.56e+00	0	47	104	0	60	1048575
2026-01-17 08:55:02.31	179.44	40.47	-85.2	-88.6	2.9	1.56e+00	0	47	104	0	60	1048575
2026-01-17 08:55:03.32	179.60	40.72	-85.2	-88.6	3.1	1.55e+00	0	47	104	0	60	1048575
2026-01-17 08:55:04.33	179.76	40.98	-85.2	-88.6	3.1	1.56e+00	0	47	104	0	60	1048575
2026-01-17 08:55:05.34	179.92	41.24	-85.2	-88.6	2.9	1.55e+00	0	47	104	0	60	1048573
2026-01-17 08:55:06.34	180.09	41.50	-85.2	-88.6	2.9	1.55e+00	0	47	104	0	60	1048572
2026-01-17 08:55:07.35	180.26	41.76	-85.2	-88.6	3.1	1.56e+00	0	47	104	0	60	1048572
2026-01-17 08:55:08.36	180.43	42.02	-85.2	-88.6	3.1	1.56e+00	0	47	104	0	60	1048574
2026-01-17 08:55:09.37	180.61	42.28	-85.2	-88.6	3.0	1.56e+00	0	47	104	0	60	1048574
2026-01-17 08:55:10.37	180.78	42.55	-85.2	-88.6	2.9	1.56e+00	0	47	104	0	60	1048574
2026-01-17 08:55:11.38	180.96	42.81	-85.2	-88.6	2.9	1.56e+00	0	47	104	0	60	1048571
2026-01-17 08:55:12.38	181.15	43.08	-85.2	-88.6	3.1	1.56e+00	0	47	104	0	60	1048575
2026-01-17 08:55:13.39	181.33	43.35	-85.2	-88.6	3.1	1.56e+00	0	47	104	0	60	1048573
2026-01-17 08:55:14.40	181.52	43.62	-85.2	-88.6	3.0	1.55e+00	0	47	104	0	60	1048575
2026-01-17 08:55:15.41	181.72	43.90	-85.2	-88.6	2.8	1.56e+00	0	47	104	0	60	1048575
2026-01-17 08:55:16.42	181.91	44.17	-85.2	-88.6	2.9	1.56e+00	0	47	104	0	60	1048574
2026-01-17 08:55:17.43	182.11	44.45	-85.2	-88.6	3.0	1.56e+00	0	47	104	0	60	1048575
2026-01-17 08:55:18.43	182.32	44.73	-85.2	-88.6	2.9	1.55e+00	0	47	104	0	60	1048575
2026-01-17 08:55:19.43	182.52	45.00	-85.2	-88.6	3.0	1.55e+00	0	47	104	0	60	1048575
2026-01-17 08:55:20.44	182.73	45.29	-85.2	-88.6	3.1	1.56e+00	0	47	104	0	60	1048575
2026-01-17 08:55:21.45	182.95	45.57	-85.2	-88.6	2.9	1.56e+00	0	47	104	0	60	1048573
2026-01-17 08:55:22.46	183.16	45.85	-84.3	-88.6	3.0	1.56e+00	0	47	104	0	60	1048575
2026-01-17 08:55:23.47	183.39	46.14	-85.2	-88.6	3.0	1.56e+00	0	47	104	0	60	1048575
2026-01-17 08:55:24.46	183.61	46.42	-85.2	-88.6	3.1	1.56e+00	0	47	104	0	60	1048575
2026-01-17 08:55:25.47	183.84	46.71	-85.2	-88.6	2.9	1.55e+00	0	47	104	0	60	1048575
2026-01-17 08:55:26.48	184.07	47.00	-85.2	-88.6	2.9	1.56e+00	0	47	104	0	60	1048573
2026-01-17 08:55:27.49	184.31	47.30	-85.2	-88.6	2.9	1.56e+00	0	47	104	0	60	1048575
2026-01-17 08:55:28.49	184.55	47.59	-85.2	-88.6	3.0	1.56e+00	0	47	104	0	60	1048575
2026-01-17 08:55:29.50	184.80	47.88	-85.2	-88.6	3.0	1.55e+00	0	47	104	0	60	1048575
2026-01-17 08:55:30.50	185.05	48.18	-85.2	-88.6	3.0	1.56e+00	0	47	104	0	60	1048575
2026-01-17 08:55:31.51	185.31	48.48	-85.2	-88.6	2.8	1.56e+00	0	47	104	0	60	1048570
2026-01-17 08:55:32.51	185.56	48.77	-85.2	-88.6	3.1	1.55e+00	0	47	104	0	60	1048575
2026-01-17 08:55:33.52	185.83	49.08	-85.2	-88.6	3.0	1.55e+00	0	47	104	0	60	1048572
2026-01-17 08:55:34.53	186.10	49.38	-85.2	-88.6	2.7	1.56e+00	0	47	104	0	60	1048574
2026-01-17 08:55:35.54	186.38	49.68	-85.2	-88.6	3.1	1.56e+00	0	47	104	0	60	1048575
2026-01-17 08:55:36.55	186.66	49.99	-85.2	-88.6	2.9	1.56e+00	0	47	104	0	60	1048574
2026-01-17 08:55:37.55	186.95	50.29	-85.2	-88.6	3.1	1.56e+00	0	47	104	0	60	1048573
2026-01-17 08:55:38.56	187.25	50.60	-85.2	-88.6	3.0	1.56e+00	0	47	104	0	60	1048575
2026-01-17 08:55:39.57	187.55	50.91	-85.2	-88.6	2.8	1.56e+00	0	47	104	0	60	1048575
2026-01-17 08:55:40.57	187.85	51.22	-85.2	-88.6	3.0	1.56e+00	0	47	104	0	60	1048575
2026-01-17 08:55:41.58	188.16	51.53	-85.2	-88.6	3.1	1.55e+00	0	47	104	0	60	1048575
2026-01-17 08:55:42.59	188.48	51.84	-85.2	-88.6	3.0	1.56e+00	0	47	104	0	60	1048575
2026-01-17 08:55:43.59	188.80	52.15	-85.2	-88.6	3.0	1.56e+00	0	47	104	0	60	1048575
2026-01-17 08:55:44.60	189.14	52.47	-85.2	-88.6	3.0	1.56e+00	0	47	104	0	60	1048571
2026-01-17 08:55:45.61	189.48	52.78	-85.2	-88.6	3.1	1.56e+00	0	47	104	0	60	1048574
2026-01-17 08:55:46.62	189.83	53.10	-85.2	-88.6	3.3	1.56e+00	0	47	104	0	60	1048574
2026-01-17 08:55:47.63	190.18	53.42	-85.2	-88.6	3.0	1.56e+00	0	47	104	0	60	1048572
2026-01-17 08:55:48.63	190.54	53.73	-85.2	-88.6	2.9	1.56e+00	0	47	104	0	60	1048575
2026-01-17 08:55:49.64	190.91	54.05	-85.2	-88.6	2.9	1.56e+00	0	47	104	0	60	1048575
2026-01-17 08:55:50.64	191.29	54.37	-85.2	-88.6	2.9	1.56e+00	0	47	104	0	60	1048575
2026-01-17 08:55:51.65	191.67	54.69	-85.2	-88.6	3.0	1.56e+00	0	47	104	0	60	1048574
2026-01-17 08:55:52.66	192.07	55.02	-84.3	-88.6	3.0	1.55e+00	0	47	104	0	60	1048574
2026-01-17 08:55:53.67	192.47	55.34	-85.2	-88.6	3.1	1.56e+00	0	47	104	0	60	1048574
2026-01-17 08:55:54.68	192.89	55.66	-85.2	-88.6	3.0	1.56e+00	0	47	104	0	60	1048574
2026-01-17 08:55:55.68	193.31	55.98	-85.2	-88.6	3.1	1.56e+00	0	47	104	0	60	1048575
2026-01-17 08:55:56.69	193.74	56.31	-85.2	-88.6	3.1	1.56e+00	0	47	104	0	60	1048575
2026-01-17 08:55:57.70	194.19	56.63	-85.2	-88.6	3.1	1.55e+00	0	47	104	0	60	1048575
2026-01-17 08:55:58.71	194.64	56.95	-85.2	-88.6	3.1	1.56e+00	0	47	104	0	60	1048574
2026-01-17 08:55:59.71	195.10	57.28	-85.2	-88.6	2.9	1.56e+00	0	47	104	0	60	1048575
2026-01-17 08:56:00.72	195.58	57.60	-85.2	-88.6	3.1	1.56e+00	0	47	104	0	60	1048572
2026-01-17 08:56:01.73	196.06	57.93	-85.2	-88.6	2.8	1.56e+00	0	47	104	0	60	1048573
2026-01-17 08:56:02.73	196.56	58.25	-85.2	-88.6	3.1	1.56e+00	0	47	104	0	60	1048574
2026-01-17 08:56:03.74	197.07	58.57	-85.2	-88.6	2.9	1.55e+00	0	47	104	0	60	1048574
2026-01-17 08:56:04.75	197.59	58.90	-85.2	-88.6	3.1	1.56e+00	0	47	104	0	60	1048572
2026-01-17 08:56:05.75	198.12	59.22	-85.2	-88.6	2.9	1.55e+00	0	47	104	0	60	1048575
2026-01-17 08:56:06.75	198.67	59.53	-85.2	-88.6	3.0	1.56e+00	0	47	104	0	60	1048575
2026-01-17 08:56:07.76	199.23	59.86	-85.2	-88.6	3.0	1.56e+00	0	47	104	0	60	1048575
2026-01-17 08:56:08.76	199.80	60.17	-85.2	-88.6	2.9	1.56e+00	0	47	104	0	60	1048575
2026-01-17 08:56:09.76	200.39	60.49	-85.2	-88.6	2.8	1.55e+00	0	47	104	0	60	1048575
2026-01-17 08:56:10.77	201.00	60.81	-85.2	-88.6	3.0	1.56e+00	0	47	104	0	60	1048574
2026-01-17 08:56:11.78	201.62	61.13	-85.2	-88.6	2.9	1.56e+00	0	47	104	0	60	1048575
2026-01-17 08:56:12.78	202.25	61.44	-85.2	-88.6	3.3	1.55e+00	0	47	104	0	60	1048575
2026-01-17 08:56:13.79	202.90	61.76	-85.2	-88.6	2.8	1.56e+00	0	47	104	0	60	1048572
2026-01-17 08:56:14.79	203.57	62.07	-85.2	-88.6	2.9	1.56e+00	0	47	104	0	60	1048573
2026-01-17 08:56:15.80	204.25	62.38	-85.2	-88.6	3.1	1.56e+00	0	47	104	0	60	1048575
2026-01-17 08:56:16.80	204.95	62.68	-85.2	-88.6	3.1	1.55e+00	0	47	104	0	60	1048573
2026-01-17 08:56:17.81	205.68	62.99	-85.2	-88.6	3.2	1.55e+00	0	47	104	0	60	1048575
2026-01-17 08:56:18.82	206.42	63.29	-85.2	-88.6	2.9	1.55e+00	0	47	104	0	60	1048575
2026-01-17 08:56:19.81	207.16	63.59	-85.2	-88.6	3.0	1.55e+00	0	47	104	0	60	1048575
2026-01-17 08:56:20.82	207.94	63.89	-85.2	-88.6	3.0	1.56e+00	0	47	104	0	60	1048573
2026-01-17 08:56:21.83	208.74	64.18	-85.2	-88.6	3.1	1.56e+00	0	47	104	0	60	1048575
2026-01-17 08:56:22.84	209.56	64.47	-85.2	-88.6	3.3	1.56e+00	0	47	104	0	60	1048575
2026-01-17 08:56:23.85	210.41	64.76	-85.2	-88.6	3.0	1.55e+00	0	47	104	0	60	1048575
2026-01-17 08:56:24.85	211.26	65.04	-85.2	-88.6	3.0	1.56e+00	0	47	104	0	60	1048574
2026-01-17 08:56:25.86	212.15	65.32	-83.9	-88.6	2.9	1.56e+00	0	47	104	0	60	1048575
2026-01-17 08:56:26.87	213.05	65.60	-85.2	-88.6	3.2	1.56e+00	0	47	104	0	60	1048574
2026-01-17 08:56:27.88	213.98	65.87	-85.2	-88.6	3.1	1.56e+00	0	47	104	0	60	1048575
2026-01-17 08:56:28.88	214.93	66.14	-85.2	-88.6	3.1	1.56e+00	0	47	104	0	60	1048574
2026-01-17 08:56:29.89	215.90	66.40	-85.2	-88.6	2.8	1.56e+00	0	47	104	0	60	1048574
2026-01-17 08:56:30.90	216.90	66.65	-85.2	-88.6	3.0	1.55e+00	0	47	104	0	60	1048575
2026-01-17 08:56:31.91	217.92	66.90	-85.2	-88.6	2.9	1.55e+00	0	47	104	0	60	1048575
2026-01-17 08:56:32.91	218.96	67.14	-85.2	-88.6	3.0	1.55e+00	0	47	104	0	60	1048574
2026-01-17 08:56:33.92	220.03	67.38	-85.2	-88.6	3.2	1.55e+00	0	47	104	0	60	1048575
2026-01-17 08:56:34.93	221.13	67.61	-85.2	-88.6	2.9	1.56e+00	0	47	104	0	60	1048575
2026-01-17 08:56:35.93	222.24	67.83	-85.2	-88.6	2.9	1.56e+00	0	47	104	0	60	1048574
2026-01-17 08:56:36.94	223.38	68.05	-85.2	-88.6	3.0	1.55e+00	0	47	104	0	60	1048575
2026-01-17 08:56:37.94	224.54	68.26	-84.7	-88.6	2.9	1.56e+00	0	47	104	0	60	1048575
2026-01-17 08:56:38.95	225.73	68.46	-85.2	-88.6	3.1	1.56e+00	0	47	104	0	60	1048575
2026-01-17 08:56:39.96	226.95	68.65	-85.2	-88.6	2.8	1.56e+00	0	47	104	0	60	1048575
2026-01-17 08:56:40.96	228.17	68.83	-85.2	-88.6	3.0	1.56e+00	0	47	104	0	60	1048575
2026-01-17 08:56:41.97	229.43	69.01	-85.2	-88.6	3.0	1.55e+00	0	47	104	0	60	1048574
2026-01-17 08:56:42.98	230.72	69.17	-85.2	-88.6	2.9	1.55e+00	0	47	104	0	60	1048571
2026-01-17 08:56:43.99	232.02	69.33	-85.2	-88.6	3.2	1.56e+00	0	47	104	0	60	1048575
2026-01-17 08:56:45.00	233.35	69.47	-85.2	-88.6	3.0	1.56e+00	0	47	104	0	60	1048574
2026-01-17 08:56:46.00	234.68	69.61	-85.2	-88.6	3.1	1.56e+00	0	47	104	0	60	1048574
2026-01-17 08:56:47.01	236.04	69.74	-85.2	-88.6	3.0	1.56e+00	0	47	104	0	60	1048575
2026-01-17 08:56:48.01	237.41	69.85	-85.2	-88.6	3.1	1.56e+00	0	47	104	0	60	1048575
2026-01-17 08:56:49.02	238.81	69.95	-85.2	-88.6	2.8	1.55e+00	0	47	104	0	60	1048574
2026-01-17 08:56:50.03	240.22	70.05	-85.2	-88.6	3.1	1.56e+00	0	47	104	0	60	1048574
2026-01-17 08:56:51.03	241.63	70.13	-85.2	-88.6	3.1	1.56e+00	0	47	104	0	60	1048575
2026-01-17 08:56:52.03	243.06	70.20	-85.2	-88.6	2.9	1.56e+00	0	47	104	0	60	1048574
2026-01-17 08:56:53.04	244.50	70.26	-85.2	-88.6	2.9	1.56e+00	0	47	104	0	60	1048575
2026-01-17 08:56:54.04	245.94	70.31	-85.2	-88.6	3.1	1.56e+00	0	47	104	0	60	1048574
2026-01-17 08:56:55.05	247.41	70.34	-85.2	-88.6	2.9	1.56e+00	0	47	104	0	60	1048574
2026-01-17 08:56:56.06	248.87	70.37	-85.2	-88.6	3.0	1.56e+00	0	47	104	0	60	1048575
2026-01-17 08:56:57.07	250.34	70.38	-85.2	-88.6	2.9	1.56e+00	0	47	104	0	60	1048575
2026-01-17 08:56:58.07	251.80	70.38	-85.2	-88.6	3.1	1.55e+00	0	47	104	0	60	1048574
2026-01-17 08:56:59.08	253.27	70.37	-85.2	-88.6	2.9	1.56e+00	0	47	104	0	60	1048575
2026-01-17 08:57:00.09	254.73	70.34	-85.2	-88.6	3.1	1.55e+00	0	47	104	0	60	1048575
2026-01-17 08:57:01.10	256.20	70.31	-85.2	-88.6	2.9	1.56e+00	0	47	104	0	60	1048573
2026-01-17 08:57:02.11	257.65	70.26	-85.2	-88.6	3.1	1.55e+00	0	47	104	0	60	1048574
2026-01-17 08:57:03.11	259.08	70.20	-85.2	-88.6	3.1	1.56e+00	0	47	104	0	60	1048574
2026-01-17 08:57:04.12	260.52	70.13	-85.2	-88.6	3.0	1.56e+00	0	47	104	0	60	1048575
2026-01-17 08:57:05.13	261.94	70.05	-85.2	-88.6	3.1	1.56e+00	0	47	104	0	60	1048574
2026-01-17 08:57:06.14	263.36	69.96	-85.2	-88.6	2.9	1.56e+00	0	47	104	0	60	1048575
2026-01-17 08:57:07.15	264.75	69.85	-85.2	-88.6	3.1	1.55e+00	0	47	104	0	60	1048573
2026-01-17 08:57:08.15	266.12	69.74	-85.2	-88.6	3.2	1.55e+00	0	47	104	0	60	1048574
2026-01-17 08:57:09.15	267.47	69.61	-85.2	-88.6	3.1	1.56e+00	0	47	104	0	60	1048575
2026-01-17 08:57:10.16	268.81	69.48	-85.2	-88.6	3.0	1.56e+00	0	47	104	0	60	1048575
2026-01-17 08:57:11.17	270.14	69.33	-85.2	-88.6	2.9	1.56e+00	0	47	104	0	60	1048572
2026-01-17 08:57:12.17	271.43	69.17	-85.2	-88.6	3.0	1.56e+00	0	47	104	0	60	1048575
2026-01-17 08:57:13.18	272.71	69.01	-85.2	-88.6	3.2	1.56e+00	0	47	104	0	60	1048574
2026-01-17 08:57:14.19	273.98	68.83	-85.2	-88.6	3.1	1.55e+00	0	47	104	0	60	1048574
2026-01-17 08:57:15.20	275.21	68.65	-85.2	-88.6	3.0	1.56e+00	0	47	104	0	60	1048574
2026-01-17 08:57:16.20	276.42	68.46	-85.2	-88.6	2.8	1.55e+00	0	47	104	0	60	1048572
2026-01-17 08:57:17.21	277.61	68.26	-85.2	-88.6	2.9	1.56e+00	0	47	104	0	60	1048573
2026-01-17 08:57:18.22	278.78	68.05	-85.2	-88.6	3.0	1.55e+00	0	47	104	0	60	1048575
2026-01-17 08:57:19.23	279.92	67.84	-85.2	-88.6	2.9	1.56e+00	0	47	104	0	60	1048574
2026-01-17 08:57:20.23	281.03	67.61	-85.2	-88.6	3.1	1.55e+00	0	47	104	0	60	1048575
2026-01-17 08:57:21.24	282.12	67.38	-85.2	-88.6	3.1	1.55e+00	0	47	104	0	60	1048575
2026-01-17 08:57:22.25	283.19	67.15	-85.2	-88.6	2.8	1.56e+00	0	47	104	0	60	1048575
2026-01-17 08:57:23.26	284.24	66.90	-85.2	-88.6	2.8	1.55e+00	0	47	104	0	60	1048575
2026-01-17 08:57:24.26	285.25	66.66	-85.2	-88.6	3.0	1.55e+00	0	47	104	0	60	1048574
2026-01-17 08:57:25.26	286.24	66.40	-85.2	-88.6	3.2	1.55e+00	0	47	104	0	60	1048575
2026-01-17 08:57:26.27	287.22	66.14	-85.2	-88.6	3.1	1.56e+00	0	47	104	0	60	1048573
2026-01-17 08:57:27.28	288.17	65.88	-85.2	-88.6	3.0	1.55e+00	0	47	104	0	60	1048575
2026-01-17 08:57:28.29	289.10	65.61	-85.2	-88.6	3.1	1.56e+00	0	47	104	0	60	1048575
2026-01-17 08:57:29.30	290.00	65.33	-85.2	-88.6	2.8	1.56e+00	0	47	104	0	60	1048571
2026-01-17 08:57:30.31	290.89	65.05	-85.2	-88.6	3.2	1.55e+00	0	47	104	0	60	1048575
2026-01-17 08:57:31.31	291.74	64.77	-85.2	-88.6	3.0	1.56e+00	0	47	104	0	60	1048575
2026-01-17 08:57:32.32	292.58	64.48	-85.2	-88.6	3.1	1.55e+00	0	47	104	0	60	1048575
2026-01-17 08:57:33.33	293.40	64.19	-85.2	-88.6	3.0	1.56e+00	0	47	104	0	60	1048572
2026-01-17 08:57:34.34	294.20	63.90	-85.2	-88.6	2.9	1.56e+00	0	47	104	0	60	1048575
2026-01-17 08:57:35.34	294.97	63.60	-85.2	-88.6	2.9	1.56e+00	0	47	104	0	60	1048573
2026-01-17 08:57:36.35	295.73	63.30	-85.2	-88.6	3.1	1.56e+00	0	47	104	0	60	1048573
2026-01-17 08:57:37.35	296.47	63.00	-85.2	-88.6	3.2	1.55e+00	0	47	104	0	60	1048574
2026-01-17 08:57:38.36	297.19	62.70	-84.7	-88.6	3.2	1.56e+00	0	47	104	0	60	1048574
2026-01-17 08:57:39.36	297.89	62.39	-85.2	-88.6	2.9	1.56e+00	0	47	104	0	60	1048575
2026-01-17 08:57:40.37	298.57	62.08	-85.2	-88.6	3.0	1.55e+00	0	47	104	0	60	1048575
2026-01-17 08:57:41.37	299.24	61.77	-85.2	-88.6	3.1	1.56e+00	0	47	104	0	60	1048575
2026-01-17 08:57:42.38	299.89	61.46	-85.2	-88.6	3.0	1.56e+00	0	47	104	0	60	1048575
2026-01-17 08:57:43.38	300.52	61.15	-85.2	-88.6	2.7	1.56e+00	0	47	104	0	60	1048575
2026-01-17 08:57:44.39	301.14	60.83	-85.2	-88.6	3.0	1.56e+00	0	47	104	0	60	1048573
2026-01-17 08:57:45.39	301.74	60.51	-85.2	-88.6	3.1	1.56e+00	0	47	104	0	60	1048574
2026-01-17 08:57:46.40	302.33	60.19	-85.2	-88.6	3.0	1.56e+00	0	47	104	0	60	1048575
2026-01-17 08:57:47.41	302.91	59.87	-85.2	-88.6	3.0	1.56e+00	0	47	104	0	60	1048574
2026-01-17 08:57:48.41	303.47	59.56	-85.2	-88.6	3.1	1.55e+00	0	47	104	0	60	1048574
2026-01-17 08:57:49.42	304.02	59.23	-85.2	-88.6	3.0	1.56e+00	0	47	104	0	60	1048575
2026-01-17 08:57:50.43	304.55	58.91	-85.2	-88.6	3.0	1.55e+00	0	47	104	0	60	1048575
2026-01-17 08:57:51.43	305.07	58.59	-85.2	-88.6	3.2	1.56e+00	0	47	104	0	60	1048573
2026-01-17 08:57:52.44	305.58	58.27	-84.7	-88.6	3.0	1.55e+00	0	47	104	0	60	1048575
2026-01-17 08:57:53.45	306.08	57.95	-85.2	-88.6	3.1	1.56e+00	0	47	104	0	60	1048575
2026-01-17 08:57:54.45	306.56	57.62	-85.2	-88.6	3.1	1.56e+00	0	47	104	0	60	1048574
2026-01-17 08:57:55.46	307.04	57.30	-85.2	-88.6	2.9	1.56e+00	0	47	104	0	60	1048575
2026-01-17 08:57:56.47	307.50	56.98	-85.2	-88.6	3.1	1.56e+00	0	47	104	0	60	1048575
2026-01-17 08:57:57.47	307.95	56.66	-85.2	-88.6	2.9	1.56e+00	0	47	104	0	60	1048573
2026-01-17 08:57:58.48	308.40	56.33	-85.2	-88.6	3.0	1.56e+00	0	47	104	0	60	1048573
2026-01-17 08:57:59.48	308.83	56.01	-85.2	-88.6	3.0	1.55e+00	0	47	104	0	60	1048575
2026-01-17 08:58:00.49	309.25	55.69	-85.2	-88.6	3.0	1.56e+00	0	47	104	0	60	1048575
2026-01-17 08:58:01.49	309.66	55.37	-85.2	-88.6	3.0	1.56e+00	0	47	104	0	60	1048575
2026-01-17 08:58:02.50	310.06	55.05	-85.2	-88.6	3.1	1.55e+00	0	47	104	0	60	1048575
2026-01-17 08:58:03.51	310.46	54.73	-85.2	-88.6	3.2	1.56e+00	0	47	104	0	60	1048575
2026-01-17 08:58:04.51	310.84	54.41	-85.2	-88.6	3.1	1.55e+00	0	47	104	0	60	1048575
2026-01-17 08:58:05.52	311.22	54.09	-85.2	-88.6	3.0	1.56e+00	0	47	104	0	60	1048574
2026-01-17 08:58:06.53	311.59	53.77	-85.2	-88.6	3.0	1.56e+00	0	47	104	0	60	1048572
2026-01-17 08:58:07.54	311.96	53.46	-85.2	-88.6	3.1	1.55e+00	0	47	104	0	60	1048574
2026-01-17 08:58:08.54	312.31	53.14	-85.2	-88.6	3.0	1.56e+00	0	47	104	0	60	1048575
2026-01-17 08:58:09.55	312.65	52.83	-85.2	-88.6	2.9	1.56e+00	0	47	104	0	60	1048574
2026-01-17 08:58:10.55	312.99	52.51	-85.2	-88.6	3.2	1.56e+00	0	47	104	0	60	1048575
2026-01-17 08:58:11.55	313.32	52.20	-85.2	-88.6	3.0	1.56e+00	0	47	104	0	60	1048575
2026-01-17 08:58:12.56	313.65	51.89	-85.2	-88.6	3.2	1.56e+00	0	47	104	0	60	1048574
2026-01-17 08:58:13.56	313.96	51.58	-84.7	-88.6	3.1	1.56e+00	0	47	104	0	60	1048575
2026-01-17 08:58:14.57	314.28	51.27	-85.2	-88.6	2.8	1.56e+00	0	47	104	0	60	1048574
2026-01-17 08:58:15.58	314.58	50.96	-85.2	-88.6	2.9	1.56e+00	0	47	104	0	60	1048573
2026-01-17 08:58:16.59	314.88	50.65	-85.2	-88.6	3.0	1.56e+00	0	47	104	0	60	1048575
2026-01-17 08:58:17.59	315.18	50.35	-85.2	-88.6	2.9	1.56e+00	0	47	104	0	60	1048575
2026-01-17 08:58:18.60	315.46	50.04	-85.2	-88.6	3.0	1.56e+00	0	47	104	0	60	1048573
2026-01-17 08:58:19.61	315.75	49.74	-85.2	-88.6	3.0	1.56e+00	0	47	104	0	60	1048574
2026-01-17 08:58:20.62	316.02	49.43	-85.2	-88.6	2.9	1.55e+00	0	47	104	0	60	1048573
2026-01-17 08:58:21.63	316.30	49.13	-85.2	-88.6	3.0	1.56e+00	0	47	104	0	60	1048575
2026-01-17 08:58:22.63	316.56	48.83	-85.2	-88.6	3.2	1.56e+00	0	47	104	0	60	1048575
2026-01-17 08:58:23.64	316.82	48.53	-85.2	-88.6	2.8	1.56e+00	0	47	104	0	60	1048575
2026-01-17 08:58:24.65	317.08	48.24	-85.2	-88.6	2.8	1.55e+00	0	47	104	0	60	1048574
2026-01-17 08:58:25.66	317.33	47.94	-85.2	-88.6	3.0	1.56e+00	0	47	104	0	60	1048575
2026-01-17 08:58:26.66	317.58	47.65	-85.2	-88.6	3.0	1.56e+00	0	47	104	0	60	1048575
2026-01-17 08:58:27.67	317.82	47.36	-85.2	-88.6	3.0	1.56e+00	0	47	104	0	60	1048574
2026-01-17 08:58:28.67	318.06	47.07	-85.2	-88.6	3.0	1.56e+00	0	47	104	0	60	1048566
2026-01-17 08:58:29.68	318.29	46.78	-85.2	-88.6	3.2	1.56e+00	0	47	104	0	60	1048575
2026-01-17 08:58:30.69	318.52	46.49	-85.2	-88.6	2.8	1.56e+00	0	47	104	0	60	1048574
2026-01-17 08:58:31.69	318.75	46.20	-85.2	-88.6	2.8	1.55e+00	0	47	104	0	60	1048572
2026-01-17 08:58:32.69	318.97	45.92	-85.2	-88.6	3.0	1.56e+00	0	47	104	0	60	1048574
2026-01-17 08:58:33.70	319.18	45.64	-85.2	-88.6	3.1	1.56e+00	0	47	104	0	60	1048575
2026-01-17 08:58:34.71	319.40	45.35	-85.2	-88.6	3.1	1.55e+00	0	47	104	0	60	1048575
2026-01-17 08:58:35.71	319.61	45.08	-85.2	-88.6	3.2	1.55e+00	0	47	104	0	60	1048575
2026-01-17 08:58:36.72	319.81	44.80	-85.2	-88.6	3.0	1.56e+00	0	47	104	0	60	1048575
2026-01-17 08:58:37.73	320.02	44.52	-85.2	-88.6	3.0	1.55e+00	0	47	104	0	60	1048574
2026-01-17 08:58:38.73	320.22	44.25	-85.2	-88.6	3.0	1.56e+00	0	47	104	0	60	1048575
2026-01-17 08:58:39.73	320.41	43.97	-85.2	-88.6	3.0	1.56e+00	0	47	104	0	60	1048575
2026-01-17 08:58:40.74	320.60	43.70	-85.2	-88.6	2.9	1.56e+00	0	47	104	0	60	1048575
2026-01-17 08:58:41.75	320.79	43.43	-85.2	-88.6	3.1	1.55e+00	0	47	104	0	60	1048574
2026-01-17 08:58:42.75	320.98	43.16	-85.2	-88.6	3.0	1.56e+00	0	47	104	0	60	1048575
2026-01-17 08:58:43.76	321.16	42.89	-85.2	-88.6	3.0	1.55e+00	0	47	104	0	60	1048575
2026-01-17 08:58:44.76	321.34	42.63	-85.2	-88.6	2.8	1.56e+00	0	47	104	0	60	1048575
2026-01-17 08:58:45.77	321.52	42.36	-85.2	-88.6	3.0	1.56e+00	0	47	104	0	60	1048573
2026-01-17 08:58:46.77	321.70	42.10	-85.2	-88.6	3.1	1.56e+00	0	47	104	0	60	1048575
2026-01-17 08:58:47.78	321.87	41.84	-85.2	-88.6	3.3	1.56e+00	0	47	104	0	60	1048575
2026-01-17 08:58:48.78	322.04	41.58	-85.2	-88.6	2.8	1.56e+00	0	47	104	0	60	1048573
2026-01-17 08:58:49.79	322.21	41.33	-85.2	-88.6	3.1	1.56e+00	0	47	104	0	60	1048574
2026-01-17 08:58:50.79	322.37	41.07	-85.2	-88.6	2.9	1.56e+00	0	47	104	0	60	1048575
2026-01-17 08:58:51.80	322.53	40.81	-85.2	-88.6	3.3	1.55e+00	0	47	104	0	60	1048575
2026-01-17 08:58:52.80	322.69	40.56	-85.2	-88.6	3.0	1.56e+00	0	47	104	0	60	1048574
2026-01-17 08:58:53.81	322.85	40.31	-85.2	-88.6	3.0	1.56e+00	0	47	104	0	60	1048575
2026-01-17 08:58:54.82	323.00	40.06	-85.2	-88.6	2.9	1.55e+00	0	47	104	0	60	1048575
2026-01-17 08:58:55.83	323.16	39.81	-85.2	-88.6	2.9	1.56e+00	0	47	104	0	60	1048574
2026-01-17 08:58:56.84	323.31	39.56	-85.2	-88.6	2.9	1.55e+00	0	47	104	0	60	1048575
2026-01-17 08:58:57.85	323.45	39.32	-85.2	-88.6	2.9	1.56e+00	0	47	104	0	60	1048572
2026-01-17 08:58:58.85	323.60	39.07	-85.2	-88.6	3.1	1.56e+00	0	47	104	0	60	1048574
2026-01-17 08:58:59.85	323.74	38.83	-85.2	-88.6	3.0	1.56e+00	0	47	104	0	60	1048575
2026-01-17 08:59:00.86	323.88	38.59	-85.2	-88.6	3.0	1.55e+00	0	47	104	0	60	1048574
2026-01-17 08:59:01.86	324.02	38.35	-85.2	-88.6	2.9	1.56e+00	0	47	104	0	60	1048572
2026-01-17 08:59:02.87	324.16	38.12	-85.2	-88.6	3.0	1.56e+00	0	47	104	0	60	1048573
2026-01-17 08:59:03.88	324.30	37.88	-85.2	-88.6	3.0	1.56e+00	0	47	104	0	60	1048574
2026-01-17 08:59:04.88	324.43	37.64	-85.2	-88.6	3.0	1.55e+00	0	47	104	0	60	1048575
2026-01-17 08:59:05.88	324.56	37.41	-85.2	-88.6	3.2	1.56e+00	0	47	104	0	60	1048574
2026-01-17 08:59:06.88	324.69	37.18	-85.2	-88.6	3.1	1.55e+00	0	47	104	0	60	1048575
2026-01-17 08:59:07.89	324.82	36.95	-84.3	-88.6	2.9	1.56e+00	0	47	104	0	60	1048575
2026-01-17 08:59:08.90	324.95	36.72	-85.2	-88.6	3.1	1.56e+00	0	47	104	0	60	1048574
2026-01-17 08:59:09.90	325.07	36.50	-85.2	-88.6	3.0	1.56e+00	0	47	104	0	60	1048575
2026-01-17 08:59:10.91	325.19	36.27	-85.2	-88.6	3.1	1.56e+00	0	47	104	0	60	1048575
2026-01-17 08:59:11.91	325.32	36.05	-85.2	-88.6	2.9	1.55e+00	0	47	104	0	60	1048574
2026-01-17 08:59:12.92	325.44	35.82	-85.2	-88.6	3.1	1.56e+00	0	47	104	0	60	1048575
2026-01-17 08:59:13.93	325.56	35.60	-85.2	-88.6	3.1	1.55e+00	0	47	104	0	60	1048570
2026-01-17 08:59:14.94	325.67	35.38	-85.2	-88.6	3.0	1.56e+00	0	47	104	0	60	1048575
2026-01-17 08:59:15.95	325.79	35.16	-85.2	-88.6	3.2	1.56e+00	0	47	104	0	60	1048575
2026-01-17 08:59:16.96	325.90	34.94	-85.2	-88.6	2.9	1.56e+00	0	47	104	0	60	1048573
2026-01-17 08:59:17.96	326.01	34.73	-85.2	-88.6	2.8	1.56e+00	0	47	104	0	60	1048575
2026-01-17 08:59:18.97	326.13	34.51	-85.2	-88.6	3.1	1.55e+00	0	47	104	0	60	1048572
2026-01-17 08:59:19.98	326.24	34.30	-85.2	-88.6	2.9	1.56e+00	0	47	104	0	60	1048574
2026-01-17 08:59:20.99	326.35	34.08	-85.2	-88.6	3.1	1.56e+00	0	47	104	0	60	1048575
2026-01-17 08:59:21.99	326.45	33.87	-84.7	-88.6	3.0	1.56e+00	0	47	104	0	60	1048573
2026-01-17 08:59:23.00	326.56	33.66	-85.2	-88.6	3.0	1.56e+00	0	47	104	0	60	1048575
2026-01-17 08:59:24.00	326.66	33.46	-85.2	-88.6	3.1	1.56e+00	0	47	104	0	60	1048575
2026-01-17 08:59:25.01	326.77	33.25	-85.2	-88.6	3.1	1.55e+00	0	47	104	0	60	1048574
2026-01-17 08:59:26.01	326.87	33.05	-85.2	-88.6	2.9	1.56e+00	0	47	104	0	60	1048572
2026-01-17 08:59:27.02	326.97	32.84	-85.2	-88.6	3.0	1.56e+00	0	47	104	0	60	1048574
2026-01-17 08:59:28.03	327.07	32.64	-85.2	-88.6	3.0	1.56e+00	0	47	104	0	60	1048575
2026-01-17 08:59:29.03	327.17	32.44	-85.2	-88.6	3.0	1.55e+00	0	47	104	0	60	1048575
2026-01-17 08:59:30.03	327.26	32.24	-85.2	-88.6	2.8	1.55e+00	0	47	104	0	60	1048575
2026-01-17 08:59:31.04	327.36	32.04	-85.2	-88.6	3.1	1.56e+00	0	47	104	0	60	1048574
2026-01-17 08:59:32.05	327.45	31.84	-85.2	-88.6	2.9	1.56e+00	0	47	104	0	60	1048574
2026-01-17 08:59:33.06	327.55	31.64	-85.2	-88.6	2.9	1.56e+00	0	47	104	0	60	1048574
2026-01-17 08:59:34.06	327.64	31.45	-85.2	-88.6	3.1	1.55e+00	0	47	104	0	60	1048574
2026-01-17 08:59:35.07	327.73	31.25	-85.2	-88.6	2.8	1.55e+00	0	47	104	0	60	1048575
2026-01-17 08:59:36.08	327.82	31.06	-85.2	-88.6	2.9	1.56e+00	0	47	104	0	60	1048575
2026-01-17 08:59:37.09	327.91	30.87	-85.2	-88.6	3.0	1.55e+00	0	47	104	0	60	1048573
2026-01-17 08:59:38.09	328.00	30.68	-85.2	-88.6	2.9	1.56e+00	0	47	104	0	60	1048575
2026-01-17 08:59:39.10	328.09	30.49	-85.2	-88.6	3.0	1.56e+00	0	47	104	0	60	1048574
2026-01-17 08:59:40.11	328.18	30.30	-85.2	-88.6	3.0	1.56e+00	0	47	104	0	60	1048575
2026-01-17 08:59:41.12	328.26	30.11	-85.2	-88.6	2.9	1.55e+00	0	47	104	0	60	1048575
2026-01-17 08:59:42.13	328.35	29.93	-85.2	-88.6	3.1	1.55e+00	0	47	104	0	60	1048572
2026-01-17 08:59:43.13	328.43	29.74	-85.2	-88.6	2.9	1.55e+00	0	47	104	0	60	1048574
2026-01-17 08:59:44.13	328.51	29.56	-85.2	-88.6	3.2	1.55e+00	0	47	104	0	60	1048575
2026-01-17 08:59:45.14	328.60	29.38	-85.2	-88.6	2.9	1.55e+00	0	47	104	0	60	1048574
2026-01-17 08:59:46.15	328.68	29.19	-85.2	-88.6	3.0	1.55e+00	0	47	104	0	60	1048573
2026-01-17 08:59:47.16	328.76	29.01	-85.2	-88.6	3.1	1.55e+00	0	47	104	0	60	1048570
2026-01-17 08:59:48.17	328.84	28.83	-85.2	-88.6	3.0	1.56e+00	0	47	104	0	60	1048575
2026-01-17 08:59:49.17	328.92	28.66	-85.2	-88.6	3.1	1.56e+00	0	47	104	0	60	1048574
2026-01-17 08:59:50.18	328.99	28.48	-85.2	-88.6	3.0	1.56e+00	0	47	104	0	60	1048574
2026-01-17 08:59:51.18	329.07	28.31	-85.2	-88.6	3.0	1.56e+00	0	47	104	0	60	1048573
2026-01-17 08:59:52.18	329.15	28.13	-85.2	-88.6	3.1	1.55e+00	0	47	104	0	60	1048575
2026-01-17 08:59:53.19	329.22	27.96	-85.2	-88.6	2.9	1.55e+00	0	47	104	0	60	1048575
2026-01-17 08:59:54.19	329.30	27.79	-85.2	-88.6	3.1	1.56e+00	0	47	104	0	60	1048575
2026-01-17 08:59:55.20	329.37	27.61	-85.2	-88.6	2.9	1.56e+00	0	47	104	0	60	1048573
2026-01-17 08:59:56.21	329.44	27.44	-85.2	-88.6	3.0	1.56e+00	0	47	104	0	60	1048568
2026-01-17 08:59:57.22	329.52	27.27	-85.2	-88.6	3.1	1.56e+00	0	47	104	0	60	1048573
2026-01-17 08:59:58.23	329.59	27.10	-85.2	-88.6	3.0	1.55e+00	0	47	104	0	60	1048574
2026-01-17 08:59:59.24	329.66	26.93	-85.2	-88.6	3.2	1.55e+00	0	47	104	0	60	1048574
2026-01-17 09:00:00.24	329.73	26.77	-85.2	-88.6	2.9	1.56e+00	0	47	104	0	60	1048572
2026-01-17 09:00:01.25	329.80	26.60	-85.2	-88.6	2.9	1.56e+00	0	47	104	0	60	1048572
2026-01-17 09:00:02.26	329.87	26.44	-85.2	-88.6	2.7	1.55e+00	0	47	104	0	60	1048573
2026-01-17 09:00:03.27	329.94	26.27	-85.2	-88.6	3.0	1.56e+00	0	47	104	0	60	1048574
2026-01-17 09:00:04.28	330.01	26.11	-85.2	-88.6	3.0	1.56e+00	0	47	104	0	60	1048572
2026-01-17 09:00:05.29	330.07	25.95	-85.2	-88.6	3.1	1.56e+00	0	47	104	0	60	1048574
2026-01-17 09:00:06.29	330.14	25.79	-85.2	-88.6	2.9	1.56e+00	0	47	104	0	60	1048575
2026-01-17 09:00:07.30	330.20	25.63	-85.2	-88.6	3.1	1.55e+00	0	47	104	0	60	1048574
2026-01-17 09:00:08.31	330.27	25.47	-85.2	-88.6	3.1	1.55e+00	0	47	104	0	60	1048574
2026-01-17 09:00:09.31	330.33	25.31	-85.2	-88.6	2.9	1.56e+00	0	47	104	0	60	1048575
2026-01-17 09:00:10.32	330.40	25.15	-85.2	-88.6	2.9	1.56e+00	0	47	104	0	60	1048575
2026-01-17 09:00:11.33	330.46	25.00	-85.2	-88.6	3.1	1.55e+00	0	47	104	0	60	1048571
2026-01-17 09:00:12.33	330.52	24.84	-85.2	-88.6	3.1	1.56e+00	0	47	104	0	60	1048575
2026-01-17 09:00:13.34	330.59	24.69	-85.2	-88.6	3.2	1.56e+00	0	47	104	0	60	1048574
2026-01-17 09:00:14.35	330.65	24.53	-85.2	-88.6	3.0	1.56e+00	0	47	104	0	60	1048575
2026-01-17 09:00:15.35	330.71	24.38	-85.2	-88.6	3.0	1.56e+00	0	47	104	0	60	1048574
2026-01-17 09:00:16.36	330.77	24.23	-85.2	-88.6	3.0	1.56e+00	0	47	104	0	60	1048568
2026-01-17 09:00:17.37	330.83	24.08	-85.2	-88.6	3.0	1.56e+00	0	47	104	0	60	1048575
2026-01-17 09:00:18.38	330.89	23.93	-85.2	-88.6	3.1	1.56e+00	0	47	104	0	60	1048575
2026-01-17 09:00:19.38	330.95	23.78	-85.2	-88.6	2.9	1.56e+00	0	47	104	0	60	1048574
2026-01-17 09:00:20.39	331.01	23.63	-85.2	-88.6	3.1	1.56e+00	0	47	104	0	60	1048570
2026-01-17 09:00:21.39	331.07	23.48	-85.2	-88.6	3.0	1.56e+00	0	47	104	0	60	1048575
2026-01-17 09:00:22.40	331.12	23.33	-85.2	-88.6	2.7	1.55e+00	0	47	104	0	60	1048575
2026-01-17 09:00:23.41	331.18	23.19	-85.2	-88.6	3.0	1.56e+00	0	47	104	0	60	1048574
2026-01-17 09:00:24.42	331.24	23.04	-85.2	-88.6	3.2	1.56e+00	0	47	104	0	60	1048572
2026-01-17 09:00:25.43	331.29	22.90	-85.2	-88.6	3.0	1.56e+00	0	47	104	0	60	1048575
2026-01-17 09:00:26.43	331.35	22.75	-85.2	-88.6	3.0	1.56e+00	0	47	104	0	60	1048575
2026-01-17 09:00:27.44	331.40	22.61	-85.2	-88.6	3.0	1.56e+00	0	47	104	0	60	1048575
2026-01-17 09:00:28.44	331.46	22.47	-85.2	-88.6	3.1	1.56e+00	0	47	104	0	60	1048573
2026-01-17 09:00:29.45	331.51	22.33	-85.2	-88.6	3.0	1.56e+00	0	47	104	0	60	1048575
2026-01-17 09:00:30.45	331.57	22.19	-85.2	-88.6	3.0	1.56e+00	0	47	104	0	60	1048575
2026-01-17 09:00:31.46	331.62	22.05	-85.2	-88.6	3.0	1.56e+00	0	47	104	0	60	1048575
2026-01-17 09:00:32.47	331.67	21.91	-85.2	-88.6	2.9	1.56e+00	0	47	104	0	60	1048575
2026-01-17 09:00:33.47	331.72	21.77	-85.2	-88.6	2.9	1.55e+00	0	47	104	0	60	1048575
2026-01-17 09:00:34.47	331.78	21.63	-85.2	-88.6	3.1	1.55e+00	0	47	104	0	60	1048575
2026-01-17 09:00:35.47	331.83	21.50	-85.2	-88.6	3.1	1.56e+00	0	47	104	0	60	1048575
2026-01-17 09:00:36.48	331.88	21.36	-85.2	-88.6	3.2	1.56e+00	0	47	104	0	60	1048575
2026-01-17 09:00:37.49	331.93	21.23	-85.2	-88.6	3.1	1.56e+00	0	47	104	0	60	1048575
2026-01-17 09:00:38.50	331.98	21.09	-85.2	-88.6	3.1	1.56e+00	0	47	104	0	60	1048572
2026-01-17 09:00:39.51	332.03	20.96	-85.2	-88.6	3.0	1.56e+00	0	47	104	0	60	1048574
2026-01-17 09:00:40.51	332.08	20.82	-85.2	-88.6	3.0	1.56e+00	0	47	104	0	60	1048574
2026-01-17 09:00:41.52	332.13	20.69	-85.2	-88.6	2.9	1.55e+00	0	47	104	0	60	1048575
2026-01-17 09:00:42.52	332.18	20.56	-85.2	-88.6	3.0	1.56e+00	0	47	104	0	60	1048575
2026-01-17 09:00:43.53	332.23	20.43	-85.2	-88.6	2.7	1.56e+00	0	47	104	0	60	1048573
2026-01-17 09:00:44.54	332.27	20.30	-85.2	-88.6	3.0	1.56e+00	0	47	104	0	60	1048575
2026-01-17 09:00:45.55	332.32	20.17	-85.2	-88.6	3.0	1.55e+00	0	47	104	0	60	1048575
2026-01-17 09:00:46.55	332.37	20.04	-85.2	-88.6	3.0	1.56e+00	0	47	104	0	60	1048575
2026-01-17 09:00:47.56	332.42	19.91	-85.2	-88.6	2.9	1.55e+00	0	47	104	0	60	1048575
2026-01-17 09:00:48.57	332.46	19.78	-85.2	-88.6	3.2	1.55e+00	0	47	104	0	60	1048575
2026-01-17 09:00:49.57	332.51	19.65	-85.2	-88.6	3.0	1.55e+00	0	47	104	0	60	1048572
2026-01-17 09:00:50.58	332.55	19.53	-85.2	-88.6	3.2	1.55e+00	0	47	104	0	60	1048574
2026-01-17 09:00:51.59	332.60	19.40	-85.2	-88.6	3.3	1.56e+00	0	47	104	0	60	1048575
2026-01-17 09:00:52.60	332.65	19.27	-85.2	-88.6	2.8	1.56e+00	0	47	104	0	60	1048575
2026-01-17 09:00:53.61	332.69	19.15	-85.2	-88.6	3.1	1.55e+00	0	47	104	0	60	1048574
2026-01-17 09:00:54.61	332.73	19.02	-84.7	-88.6	3.0	1.56e+00	0	47	104	0	60	1048573
2026-01-17 09:00:55.61	332.78	18.90	-85.2	-88.6	3.1	1.56e+00	0	47	104	0	60	1048573
2026-01-17 09:00:56.62	332.82	18.78	-85.2	-88.6	3.0	1.56e+00	0	47	104	0	60	1048574
2026-01-17 09:00:57.63	332.87	18.65	-85.2	-88.6	3.2	1.56e+00	0	47	104	0	60	1048573
2026-01-17 09:00:58.63	332.91	18.53	-85.2	-88.6	3.1	1.56e+00	0	47	104	0	60	1048574
2026-01-17 09:00:59.64	332.95	18.41	-85.2	-88.6	3.0	1.55e+00	0	47	104	0	60	1048575
2026-01-17 09:01:00.64	332.99	18.29	-85.2	-88.6	2.9	1.56e+00	0	47	104	0	60	1048575
2026-01-17 09:01:01.65	333.04	18.17	-85.2	-88.6	3.0	1.56e+00	0	47	104	0	60	1048574
2026-01-17 09:01:02.66	333.08	18.05	-85.2	-88.6	3.1	1.56e+00	0	47	104	0	60	1048574
2026-01-17 09:01:03.67	333.12	17.93	-85.2	-88.6	3.1	1.56e+00	0	47	104	0	60	1048575
2026-01-17 09:01:04.68	333.16	17.81	-85.2	-88.6	3.1	1.55e+00	0	47	104	0	60	1048573
2026-01-17 09:01:05.68	333.20	17.70	-84.7	-88.6	3.1	1.56e+00	0	47	104	0	60	1048574
2026-01-17 09:01:06.69	333.24	17.58	-85.2	-88.6	3.0	1.56e+00	0	47	104	0	60	1048573
2026-01-17 09:01:07.70	333.29	17.46	-85.2	-88.6	3.2	1.56e+00	0	47	104	0	60	1048568
2026-01-17 09:01:08.70	333.33	17.35	-84.7	-88.6	3.0	1.56e+00	0	47	104	0	60	1048575
2026-01-17 09:01:09.71	333.37	17.23	-85.2	-88.6	3.3	1.56e+00	0	47	104	0	60	1048575
2026-01-17 09:01:10.71	333.41	17.12	-85.2	-88.6	3.0	1.56e+00	0	47	104	0	60	1048575
2026-01-17 09:01:11.72	333.44	17.00	-83.5	-88.6	3.1	1.56e+00	0	47	104	0	60	1048575
2026-01-17 09:01:12.73	333.48	16.89	-85.2	-88.6	3.1	1.56e+00	0	47	104	0	60	1048575
2026-01-17 09:01:13.73	333.52	16.77	-85.2	-88.6	3.0	1.56e+00	0	47	104	0	60	1048575
2026-01-17 09:01:14.74	333.56	16.66	-85.2	-88.6	3.1	1.56e+00	0	47	104	0	60	1048575
2026-01-17 09:01:15.75	333.60	16.55	-85.2	-88.6	3.0	1.56e+00	0	47	104	0	60	1048575
2026-01-17 09:01:16.76	333.64	16.43	-85.2	-88.6	2.9	1.56e+00	0	47	104	0	60	1048575
2026-01-17 09:01:17.77	333.68	16.32	-85.2	-88.6	3.0	1.56e+00	0	47	104	0	60	1048574
2026-01-17 09:01:18.77	333.71	16.21	-83.9	-88.6	3.1	1.56e+00	0	47	104	0	60	1048572
