passes_logs/2026/01/17/R3.2S-Naryan-Mar/R3.2S-Naryan-Mar__20260117_161451_TY-42_rec.log

#Pass ID: 20260117_161451_TY-42
#Satellite: TY-42
#Configuration: TY-42
#almurnet v.1.7.20240730
#Start time: 2026-01-17 16:14:53

#Version: 2.2.20231116
#Station: R3.2S-Naryan-Mar
#Location: 53.008057 lon 67.646978 lat
#TLE: 1 64048U 25103A   26017.21478009  .00008006  00000-0  38191-3 0 09999
#TLE: 2 64048 097.4122 092.5907 0001889 091.4381 313.8037 15.19150120 37159

#Time	Az	El	Level	Level2	SNR	BER	BlckErr	Temp	State	Recorded	gain1	gain2
2026-01-17 16:14:53.42	123.44	0.13	-83.5	-79.0	2.3	0.00e+00	0	45	0	0	60	1048573
2026-01-17 16:14:54.43	123.39	0.19	-83.5	-79.0	2.3	0.00e+00	0	47	104	0	60	1048571
2026-01-17 16:14:55.43	123.34	0.25	-83.5	-79.0	2.5	0.00e+00	0	47	104	0	60	1048573
2026-01-17 16:14:56.44	123.29	0.31	-83.5	-79.0	2.4	0.00e+00	0	47	104	0	60	1048575
2026-01-17 16:14:57.44	123.24	0.37	-83.1	-79.0	2.4	0.00e+00	0	47	104	0	60	1048571
2026-01-17 16:14:58.45	123.20	0.44	-83.5	-79.0	2.4	0.00e+00	0	47	104	0	60	1048573
2026-01-17 16:14:59.46	123.15	0.50	-83.5	-79.0	2.4	0.00e+00	0	47	104	0	60	1048575
2026-01-17 16:15:00.47	123.10	0.56	-83.5	-79.0	2.4	0.00e+00	0	47	104	0	60	1048575
2026-01-17 16:15:01.48	123.05	0.63	-83.1	-79.0	2.4	0.00e+00	0	47	104	0	60	1048572
2026-01-17 16:15:02.49	123.00	0.69	-83.1	-79.0	2.4	0.00e+00	0	47	104	0	60	1048569
2026-01-17 16:15:03.49	122.95	0.76	-83.1	-79.0	2.4	0.00e+00	0	47	104	0	60	1048573
2026-01-17 16:15:04.50	122.90	0.82	-83.5	-79.0	2.4	0.00e+00	0	47	104	0	60	1048558
2026-01-17 16:15:05.51	122.85	0.88	-83.5	-79.0	2.4	0.00e+00	0	47	104	0	60	1048575
2026-01-17 16:15:06.52	122.79	0.95	-82.8	-79.0	2.3	0.00e+00	0	47	104	0	60	1048575
2026-01-17 16:15:07.52	122.74	1.01	-82.8	-79.0	2.5	0.00e+00	0	47	104	0	60	1048573
2026-01-17 16:15:08.53	122.69	1.08	-83.5	-79.0	2.4	0.00e+00	0	47	104	0	60	1048575
2026-01-17 16:15:09.54	122.64	1.14	-83.5	-79.0	2.4	0.00e+00	0	47	104	0	60	1048574
2026-01-17 16:15:10.55	122.59	1.21	-83.5	-79.0	2.4	0.00e+00	0	47	104	0	60	1048575
2026-01-17 16:15:11.55	122.54	1.27	-83.1	-79.0	2.5	0.00e+00	0	47	104	0	60	1048575
2026-01-17 16:15:12.56	122.48	1.34	-83.1	-79.0	2.4	0.00e+00	0	47	104	0	60	1048572
2026-01-17 16:15:13.56	122.43	1.40	-83.5	-79.0	2.5	0.00e+00	0	47	104	0	60	1048575
2026-01-17 16:15:14.57	122.38	1.47	-83.5	-79.0	2.5	0.00e+00	0	47	104	0	60	1048575
2026-01-17 16:15:15.58	122.32	1.53	-83.5	-79.0	2.4	0.00e+00	0	47	104	0	60	1048575
2026-01-17 16:15:16.59	122.27	1.60	-83.1	-79.0	2.4	0.00e+00	0	47	104	0	60	1048572
2026-01-17 16:15:17.60	122.21	1.67	-83.5	-79.0	2.4	0.00e+00	0	47	104	0	60	1048575
2026-01-17 16:15:18.60	122.16	1.73	-83.5	-79.0	2.4	0.00e+00	0	47	104	0	60	1048571
2026-01-17 16:15:19.61	122.10	1.80	-83.5	-79.0	2.5	0.00e+00	0	47	104	0	60	1048569
2026-01-17 16:15:20.62	122.05	1.87	-83.1	-79.0	2.4	0.00e+00	0	47	104	0	60	1048571
2026-01-17 16:15:21.62	121.99	1.93	-82.8	-79.0	2.4	0.00e+00	0	47	104	0	60	1048575
2026-01-17 16:15:22.63	121.93	2.00	-83.5	-79.0	2.4	0.00e+00	0	47	104	0	60	1048575
2026-01-17 16:15:23.64	121.88	2.07	-83.5	-79.0	2.5	0.00e+00	0	47	104	0	60	1048574
2026-01-17 16:15:24.65	121.82	2.13	-83.5	-79.0	2.4	0.00e+00	0	47	104	0	60	1048569
2026-01-17 16:15:25.65	121.76	2.20	-83.1	-79.0	2.5	0.00e+00	0	47	104	0	60	1048575
2026-01-17 16:15:26.66	121.71	2.27	-83.1	-79.0	2.3	0.00e+00	0	47	104	0	60	1048572
2026-01-17 16:15:27.67	121.65	2.34	-83.5	-79.0	2.3	0.00e+00	0	47	104	0	60	1048573
2026-01-17 16:15:28.68	121.59	2.41	-83.5	-79.0	2.5	0.00e+00	0	47	104	0	60	1048573
2026-01-17 16:15:29.69	121.53	2.47	-83.1	-79.0	2.5	0.00e+00	0	47	104	0	60	1048574
2026-01-17 16:15:30.69	121.47	2.54	-83.1	-79.0	2.4	0.00e+00	0	47	104	0	60	1048567
2026-01-17 16:15:31.70	121.41	2.61	-83.5	-79.0	2.4	0.00e+00	0	47	104	0	60	1048573
2026-01-17 16:15:32.71	121.35	2.68	-83.1	-79.0	2.4	0.00e+00	0	47	104	0	60	1048571
2026-01-17 16:15:33.71	121.29	2.75	-83.5	-79.0	2.4	0.00e+00	0	47	104	0	60	1048575
2026-01-17 16:15:34.73	121.23	2.82	-83.1	-79.0	2.5	0.00e+00	0	47	104	0	60	1048569
2026-01-17 16:15:35.73	121.17	2.89	-83.1	-79.0	2.3	0.00e+00	0	48	104	0	60	1048575
2026-01-17 16:15:36.74	121.11	2.96	-83.1	-79.0	2.5	0.00e+00	0	47	104	0	60	1048572
2026-01-17 16:15:37.75	121.05	3.03	-83.5	-79.0	2.4	0.00e+00	0	47	104	0	60	1048570
2026-01-17 16:15:38.75	120.99	3.10	-83.1	-79.0	2.4	0.00e+00	0	47	104	0	60	1048552
2026-01-17 16:15:39.76	120.92	3.17	-82.8	-79.0	2.4	0.00e+00	0	48	104	0	60	1048575
2026-01-17 16:15:40.76	120.86	3.24	-83.1	-79.0	2.4	0.00e+00	0	48	104	0	60	1048573
2026-01-17 16:15:41.77	120.80	3.31	-83.5	-79.0	2.4	0.00e+00	0	48	104	0	60	1048575
2026-01-17 16:15:42.78	120.73	3.38	-83.5	-79.0	2.4	0.00e+00	0	48	104	0	60	1048575
2026-01-17 16:15:43.78	120.67	3.45	-83.1	-79.0	2.4	0.00e+00	0	48	104	0	60	1048575
2026-01-17 16:15:44.79	120.61	3.52	-83.1	-79.0	2.5	0.00e+00	0	48	104	0	60	1048570
2026-01-17 16:15:45.80	120.54	3.59	-83.5	-79.0	2.4	0.00e+00	0	47	104	0	60	1048573
2026-01-17 16:15:46.81	120.47	3.67	-83.5	-79.0	2.5	0.00e+00	0	48	104	0	60	1048573
2026-01-17 16:15:47.82	120.41	3.74	-83.5	-79.0	2.6	0.00e+00	0	48	104	0	60	1048573
2026-01-17 16:15:48.82	120.34	3.81	-83.5	-79.0	2.4	0.00e+00	0	48	104	0	60	1048569
2026-01-17 16:15:49.83	120.28	3.88	-82.8	-79.0	2.4	0.00e+00	0	48	104	0	60	1048575
2026-01-17 16:15:50.84	120.21	3.96	-83.5	-79.0	2.5	0.00e+00	0	48	104	0	60	1048573
2026-01-17 16:15:51.85	120.14	4.03	-83.5	-79.0	2.4	0.00e+00	0	48	104	0	60	1048575
2026-01-17 16:15:52.86	120.07	4.10	-83.5	-79.0	2.3	0.00e+00	0	48	104	0	60	1048575
2026-01-17 16:15:53.86	120.00	4.17	-82.8	-79.0	2.4	0.00e+00	0	48	104	0	60	1048569
2026-01-17 16:15:54.87	119.94	4.25	-83.1	-79.0	2.4	0.00e+00	0	48	104	0	60	1048575
2026-01-17 16:15:55.88	119.87	4.32	-83.5	-79.0	2.5	0.00e+00	0	48	104	0	60	1048575
2026-01-17 16:15:56.88	119.80	4.40	-83.5	-79.0	2.4	0.00e+00	0	48	104	0	60	1048555
2026-01-17 16:15:57.89	119.73	4.47	-83.5	-79.0	2.3	0.00e+00	0	48	104	0	60	1048572
2026-01-17 16:15:58.89	119.66	4.54	-83.1	-79.0	2.5	0.00e+00	0	48	104	0	60	1048571
2026-01-17 16:15:59.90	119.58	4.62	-83.5	-79.0	2.4	0.00e+00	0	48	104	0	60	1048574
2026-01-17 16:16:00.91	119.51	4.69	-83.5	-79.0	2.4	0.00e+00	0	48	104	0	60	1048575
2026-01-17 16:16:01.91	119.44	4.77	-83.5	-79.0	2.5	0.00e+00	0	48	104	0	60	1048572
2026-01-17 16:16:02.92	119.37	4.85	-83.1	-79.0	2.5	0.00e+00	0	48	104	0	60	1048564
2026-01-17 16:16:03.93	119.29	4.92	-82.8	-79.0	2.4	0.00e+00	0	48	104	0	60	1048573
2026-01-17 16:16:04.94	119.22	5.00	-83.5	-79.0	2.4	0.00e+00	0	48	104	0	60	1048573
2026-01-17 16:16:05.95	119.15	5.07	-83.5	-79.0	2.5	0.00e+00	0	48	104	0	60	1048573
2026-01-17 16:16:06.95	119.07	5.15	-83.5	-79.0	2.5	0.00e+00	0	48	104	0	60	1048572
2026-01-17 16:16:07.96	119.00	5.23	-83.5	-79.0	2.4	0.00e+00	0	48	104	0	60	1048574
2026-01-17 16:16:08.97	118.92	5.30	-82.8	-79.0	2.4	0.00e+00	0	48	104	0	60	1048575
2026-01-17 16:16:09.97	118.84	5.38	-83.5	-79.0	2.4	0.00e+00	0	48	104	0	60	1048574
2026-01-17 16:16:10.98	118.77	5.46	-83.5	-79.0	2.4	0.00e+00	0	48	104	0	60	1048567
2026-01-17 16:16:11.99	118.69	5.54	-83.5	-79.0	2.4	0.00e+00	0	48	104	0	60	1048574
2026-01-17 16:16:13.00	118.61	5.61	-83.1	-79.0	2.4	0.00e+00	0	48	104	0	60	1048567
2026-01-17 16:16:14.00	118.53	5.69	-83.5	-79.0	2.5	0.00e+00	0	48	104	0	60	1048575
2026-01-17 16:16:15.00	118.46	5.77	-83.5	-79.0	2.3	0.00e+00	0	48	104	0	60	1048570
2026-01-17 16:16:16.01	118.38	5.85	-83.5	-79.0	2.4	0.00e+00	0	48	104	0	60	1048571
2026-01-17 16:16:17.02	118.30	5.93	-83.5	-79.0	2.4	0.00e+00	0	48	104	0	60	1048572
2026-01-17 16:16:18.02	118.22	6.01	-82.8	-79.0	2.3	0.00e+00	0	48	104	0	60	1048574
2026-01-17 16:16:19.03	118.13	6.09	-83.5	-79.0	2.4	0.00e+00	0	48	104	0	60	1048574
2026-01-17 16:16:20.04	118.05	6.17	-83.5	-79.0	2.4	0.00e+00	0	48	104	0	60	1048571
2026-01-17 16:16:21.04	117.97	6.25	-83.5	-79.0	2.4	0.00e+00	0	48	104	0	60	1048574
2026-01-17 16:16:22.05	117.89	6.33	-83.1	-79.0	2.3	0.00e+00	0	48	104	0	60	1048562
2026-01-17 16:16:23.06	117.80	6.41	-82.8	-79.0	2.4	0.00e+00	0	48	104	0	60	1048575
2026-01-17 16:16:24.06	117.72	6.49	-83.5	-79.0	2.5	0.00e+00	0	48	104	0	60	1048573
2026-01-17 16:16:25.07	117.63	6.57	-83.5	-79.0	2.3	0.00e+00	0	48	104	0	60	1048574
2026-01-17 16:16:26.08	117.55	6.65	-83.5	-79.0	2.4	0.00e+00	0	48	104	0	60	1048575
2026-01-17 16:16:27.09	117.46	6.74	-83.1	-79.0	2.4	0.00e+00	0	48	104	0	60	1048573
2026-01-17 16:16:28.09	117.38	6.82	-83.1	-79.0	2.4	0.00e+00	0	48	104	0	60	1048573
2026-01-17 16:16:29.09	117.29	6.90	-83.5	-79.0	2.4	0.00e+00	0	48	104	0	60	1048573
2026-01-17 16:16:30.10	117.20	6.98	-83.5	-79.0	2.4	0.00e+00	0	48	104	0	60	1048575
2026-01-17 16:16:31.10	117.11	7.06	-83.5	-79.0	2.4	0.00e+00	0	48	104	0	60	1048574
2026-01-17 16:16:32.11	117.02	7.15	-83.1	-79.0	2.4	0.00e+00	0	48	104	0	60	1048575
2026-01-17 16:16:33.12	116.93	7.23	-83.5	-79.0	2.4	0.00e+00	0	48	104	0	60	1048569
2026-01-17 16:16:34.13	116.84	7.32	-83.5	-79.0	2.4	0.00e+00	0	48	104	0	60	1048574
2026-01-17 16:16:35.13	116.75	7.40	-83.5	-79.0	2.4	0.00e+00	0	48	104	0	60	1048571
2026-01-17 16:16:36.14	116.66	7.49	-83.1	-79.0	2.4	0.00e+00	0	48	104	0	60	1048572
2026-01-17 16:16:37.15	116.57	7.57	-82.8	-79.0	2.4	0.00e+00	0	48	104	0	60	1048574
2026-01-17 16:16:38.16	116.47	7.66	-83.1	-79.0	2.5	0.00e+00	0	48	104	0	60	1048572
2026-01-17 16:16:39.17	116.38	7.74	-83.5	-79.0	2.4	0.00e+00	0	48	104	0	60	1048575
2026-01-17 16:16:40.17	116.29	7.83	-83.5	-79.0	2.5	0.00e+00	0	48	104	0	60	1048574
2026-01-17 16:16:41.18	116.19	7.91	-83.1	-79.0	2.4	0.00e+00	0	48	104	0	60	1048574
2026-01-17 16:16:42.19	116.09	8.00	-82.8	-79.0	2.4	0.00e+00	0	48	104	0	60	1048573
2026-01-17 16:16:43.20	116.00	8.09	-83.5	-79.0	2.4	0.00e+00	0	48	104	0	60	1048573
2026-01-17 16:16:44.20	115.90	8.17	-83.5	-79.0	2.4	0.00e+00	0	48	104	0	60	1048568
2026-01-17 16:16:45.21	115.80	8.26	-83.5	-79.0	2.4	0.00e+00	0	48	104	0	60	1048574
2026-01-17 16:16:46.21	115.70	8.35	-83.1	-79.0	2.5	0.00e+00	0	48	104	0	60	1048575
2026-01-17 16:16:47.22	115.60	8.44	-83.1	-79.0	2.4	0.00e+00	0	48	104	0	60	1048573
2026-01-17 16:16:48.22	115.50	8.53	-83.5	-79.0	2.2	0.00e+00	0	48	104	0	60	1048573
2026-01-17 16:16:49.22	115.40	8.61	-83.5	-79.0	2.4	0.00e+00	0	48	104	0	60	1048575
2026-01-17 16:16:50.22	115.30	8.70	-83.5	-79.0	2.4	0.00e+00	0	48	104	0	60	1048574
2026-01-17 16:16:51.23	115.20	8.79	-83.1	-79.0	2.4	0.00e+00	0	48	104	0	60	1048574
2026-01-17 16:16:52.24	115.09	8.88	-83.5	-79.0	2.4	0.00e+00	0	48	104	0	60	1048575
2026-01-17 16:16:53.25	114.99	8.97	-83.5	-79.0	2.4	0.00e+00	0	48	104	0	60	1048573
2026-01-17 16:16:54.25	114.88	9.06	-83.5	-79.0	2.3	0.00e+00	0	48	104	0	60	1048569
2026-01-17 16:16:55.26	114.78	9.16	-83.5	-79.0	2.3	0.00e+00	0	48	104	0	60	1048575
2026-01-17 16:16:56.27	114.67	9.25	-83.1	-79.0	2.4	0.00e+00	0	48	104	0	60	1048569
2026-01-17 16:16:57.28	114.56	9.34	-83.5	-79.0	2.5	0.00e+00	0	48	104	0	60	1048574
2026-01-17 16:16:58.29	114.45	9.43	-83.5	-79.0	2.4	0.00e+00	0	48	104	0	60	1048570
2026-01-17 16:16:59.29	114.34	9.52	-83.5	-79.0	2.5	0.00e+00	0	48	104	0	60	1048573
2026-01-17 16:17:00.30	114.23	9.62	-83.1	-79.0	2.4	0.00e+00	0	48	104	0	60	1048573
2026-01-17 16:17:01.31	114.12	9.71	-82.8	-79.0	2.4	0.00e+00	0	48	104	0	60	1048571
2026-01-17 16:17:02.31	114.01	9.80	-83.1	-79.0	2.4	0.00e+00	0	48	104	0	60	1048574
2026-01-17 16:17:03.31	113.90	9.90	-83.5	-79.0	2.4	0.00e+00	0	48	104	0	60	1048574
2026-01-17 16:17:04.32	113.78	9.99	-83.5	-79.0	2.4	0.00e+00	0	48	104	0	60	1048573
2026-01-17 16:17:05.32	113.67	10.09	-82.8	-79.0	2.4	0.00e+00	0	48	104	0	60	1048554
2026-01-17 16:17:06.33	113.55	10.18	-83.1	-79.0	2.4	0.00e+00	0	48	104	0	60	1048575
2026-01-17 16:17:07.34	113.43	10.28	-83.1	-79.0	2.3	0.00e+00	0	48	104	0	60	1048575
2026-01-17 16:17:08.35	113.31	10.37	-83.5	-79.0	2.4	0.00e+00	0	48	104	0	60	1048575
2026-01-17 16:17:09.36	113.20	10.47	-83.5	-79.0	2.4	0.00e+00	0	48	104	0	60	1048574
2026-01-17 16:17:10.36	113.08	10.56	-82.8	-79.0	2.4	0.00e+00	0	48	104	0	60	1048575
2026-01-17 16:17:11.37	112.95	10.66	-83.5	-79.0	2.4	0.00e+00	0	48	104	0	60	1048574
2026-01-17 16:17:12.38	112.83	10.76	-83.5	-79.0	2.5	0.00e+00	0	48	104	0	60	1048574
2026-01-17 16:17:13.39	112.71	10.86	-83.5	-79.0	2.3	0.00e+00	0	48	104	0	60	1048574
2026-01-17 16:17:14.39	112.59	10.96	-83.1	-79.0	2.4	0.00e+00	0	48	104	0	60	1048575
2026-01-17 16:17:15.40	112.46	11.05	-82.8	-79.0	2.5	0.00e+00	0	48	104	0	60	1048571
2026-01-17 16:17:16.41	112.33	11.15	-83.5	-79.0	2.5	0.00e+00	0	48	104	0	60	1048569
2026-01-17 16:17:17.41	112.21	11.25	-83.5	-79.0	2.5	0.00e+00	0	48	104	0	60	1048575
2026-01-17 16:17:18.42	112.08	11.35	-83.5	-79.0	2.4	0.00e+00	0	48	104	0	60	1048571
2026-01-17 16:17:19.42	111.95	11.45	-83.1	-79.0	2.4	0.00e+00	0	48	104	0	60	1048573
2026-01-17 16:17:20.43	111.82	11.55	-82.8	-79.0	2.4	0.00e+00	0	48	104	0	60	1048575
2026-01-17 16:17:21.43	111.69	11.65	-83.5	-79.0	2.3	0.00e+00	0	48	104	0	60	1048573
2026-01-17 16:17:22.43	111.56	11.75	-83.5	-79.0	2.5	0.00e+00	0	48	104	0	60	1048571
2026-01-17 16:17:23.44	111.42	11.86	-83.5	-79.0	2.4	0.00e+00	0	48	104	0	60	1048569
2026-01-17 16:17:24.45	111.29	11.96	-83.1	-79.0	2.4	0.00e+00	0	48	104	0	60	1048567
2026-01-17 16:17:25.45	111.15	12.06	-83.1	-79.0	2.4	0.00e+00	0	48	104	0	60	1048575
2026-01-17 16:17:26.46	111.02	12.17	-83.5	-79.0	2.3	0.00e+00	0	48	104	0	60	1048572
2026-01-17 16:17:27.47	110.88	12.27	-83.5	-79.0	2.4	0.00e+00	0	48	104	0	60	1048575
2026-01-17 16:17:28.47	110.74	12.37	-83.5	-79.0	2.4	0.00e+00	0	48	104	0	60	1048574
2026-01-17 16:17:29.48	110.60	12.48	-83.1	-79.0	2.3	0.00e+00	0	48	104	0	60	1048571
2026-01-17 16:17:30.48	110.46	12.58	-83.1	-79.0	2.4	0.00e+00	0	48	104	0	60	1048571
2026-01-17 16:17:31.49	110.31	12.69	-83.5	-79.0	2.5	0.00e+00	0	48	104	0	60	1048573
2026-01-17 16:17:32.50	110.17	12.79	-83.5	-79.0	2.4	0.00e+00	0	48	104	0	60	1048574
2026-01-17 16:17:33.51	110.02	12.90	-83.1	-79.0	2.4	0.00e+00	0	48	104	0	60	1048575
2026-01-17 16:17:34.52	109.87	13.01	-82.8	-79.0	2.4	0.00e+00	0	48	104	0	60	1048574
2026-01-17 16:17:35.52	109.73	13.11	-83.5	-79.0	2.4	0.00e+00	0	48	104	0	60	1048570
2026-01-17 16:17:36.53	109.58	13.22	-83.5	-79.0	2.6	0.00e+00	0	48	104	0	60	1048567
2026-01-17 16:17:37.54	109.42	13.33	-83.5	-79.0	2.2	0.00e+00	0	48	104	0	60	1048571
2026-01-17 16:17:38.55	109.27	13.44	-82.8	-79.0	2.3	0.00e+00	0	48	104	0	60	1048575
2026-01-17 16:17:39.56	109.12	13.55	-83.1	-79.0	2.4	0.00e+00	0	48	104	0	60	1048561
2026-01-17 16:17:40.56	108.96	13.66	-83.5	-79.0	2.4	0.00e+00	0	48	104	0	60	1048575
2026-01-17 16:17:41.57	108.81	13.77	-83.5	-79.0	2.4	0.00e+00	0	48	104	0	60	1048575
2026-01-17 16:17:42.57	108.65	13.88	-83.5	-79.0	2.4	0.00e+00	0	49	104	0	60	1048573
2026-01-17 16:17:43.57	108.49	13.99	-83.1	-79.0	2.4	0.00e+00	0	48	104	0	60	1048575
2026-01-17 16:17:44.58	108.33	14.10	-83.5	-79.0	2.5	0.00e+00	0	49	104	0	60	1048575
2026-01-17 16:17:45.59	108.17	14.21	-83.5	-79.0	2.5	0.00e+00	0	48	104	0	60	1048573
2026-01-17 16:17:46.60	108.00	14.32	-83.5	-79.0	2.4	0.00e+00	0	48	104	0	60	1048568
2026-01-17 16:17:47.61	107.84	14.44	-83.5	-79.0	2.4	0.00e+00	0	49	104	0	60	1048573
2026-01-17 16:17:48.61	107.67	14.55	-83.1	-79.0	2.4	0.00e+00	0	48	104	0	60	1048575
2026-01-17 16:17:49.62	107.50	14.66	-83.5	-79.0	2.4	0.00e+00	0	48	104	0	60	1048575
2026-01-17 16:17:50.62	107.33	14.78	-83.5	-79.0	2.4	0.00e+00	0	48	104	0	60	1048575
2026-01-17 16:17:51.63	107.16	14.89	-83.5	-79.0	2.4	0.00e+00	0	48	104	0	60	1048570
2026-01-17 16:17:52.63	106.99	15.01	-83.1	-79.0	2.4	0.00e+00	0	48	104	0	60	1048575
2026-01-17 16:17:53.63	106.82	15.12	-82.8	-79.0	2.5	0.00e+00	0	48	104	0	60	1048574
2026-01-17 16:17:54.64	106.64	15.24	-83.5	-79.0	2.3	0.00e+00	0	48	104	0	60	1048575
2026-01-17 16:17:55.65	106.46	15.35	-83.5	-79.0	2.4	0.00e+00	0	48	104	0	60	1048574
2026-01-17 16:17:56.65	106.28	15.47	-83.5	-79.0	2.4	0.00e+00	0	48	104	0	60	1048573
2026-01-17 16:17:57.66	106.10	15.59	-82.8	-79.0	2.5	0.00e+00	0	48	104	0	60	1048565
2026-01-17 16:17:58.67	105.92	15.71	-83.5	-79.0	2.5	0.00e+00	0	48	104	0	60	1048575
2026-01-17 16:17:59.67	105.73	15.82	-83.1	-79.0	2.4	0.00e+00	0	48	104	0	60	1048575
2026-01-17 16:18:00.68	105.55	15.94	-83.5	-79.0	2.4	0.00e+00	0	48	104	0	60	1048575
2026-01-17 16:18:01.69	105.36	16.06	-83.5	-79.0	2.4	0.00e+00	0	48	104	0	60	1048574
2026-01-17 16:18:02.69	105.17	16.18	-82.8	-79.0	2.3	0.00e+00	0	48	104	0	60	1048575
2026-01-17 16:18:03.70	104.98	16.30	-83.5	-79.0	2.4	0.00e+00	0	48	104	0	60	1048572
2026-01-17 16:18:04.71	104.78	16.42	-83.5	-79.0	2.4	0.00e+00	0	48	104	0	60	1048575
2026-01-17 16:18:05.71	104.59	16.54	-83.5	-79.0	2.5	0.00e+00	0	48	104	0	60	1048573
2026-01-17 16:18:06.72	104.39	16.67	-83.5	-79.0	2.4	0.00e+00	0	48	104	0	60	1048568
2026-01-17 16:18:07.73	104.19	16.79	-82.8	-79.0	2.5	0.00e+00	0	48	104	0	60	1048575
2026-01-17 16:18:08.73	103.99	16.91	-83.5	-79.0	2.4	0.00e+00	0	48	104	0	60	1048574
2026-01-17 16:18:09.74	103.79	17.03	-83.5	-79.0	2.4	0.00e+00	0	48	104	0	60	1048573
2026-01-17 16:18:10.74	103.59	17.16	-83.5	-79.0	2.4	0.00e+00	0	48	104	0	60	1048571
2026-01-17 16:18:11.75	103.38	17.28	-83.1	-79.0	2.4	0.00e+00	0	49	104	0	60	1048568
2026-01-17 16:18:12.76	103.17	17.40	-83.1	-79.0	2.4	0.00e+00	0	49	104	0	60	1048571
2026-01-17 16:18:13.76	102.96	17.53	-83.5	-79.0	2.3	0.00e+00	0	48	104	0	60	1048575
2026-01-17 16:18:14.77	102.74	17.65	-83.5	-79.0	2.4	0.00e+00	0	48	104	0	60	1048574
2026-01-17 16:18:15.78	102.53	17.78	-83.5	-79.0	2.5	0.00e+00	0	48	104	0	60	1048572
2026-01-17 16:18:16.78	102.31	17.91	-82.8	-79.0	2.5	0.00e+00	0	48	104	0	60	1048575
2026-01-17 16:18:17.79	102.09	18.03	-83.1	-79.0	2.4	0.00e+00	0	48	104	0	60	1048567
2026-01-17 16:18:18.79	101.87	18.16	-83.5	-79.0	2.4	0.00e+00	0	48	104	0	60	1048560
2026-01-17 16:18:19.80	101.65	18.29	-83.5	-79.0	2.5	0.00e+00	0	48	104	0	60	1048572
2026-01-17 16:18:20.80	101.42	18.41	-83.5	-79.0	2.4	0.00e+00	0	48	104	0	60	1048575
2026-01-17 16:18:21.81	101.20	18.54	-82.8	-79.0	2.4	0.00e+00	0	49	104	0	60	1048575
2026-01-17 16:18:22.81	100.97	18.67	-83.5	-79.0	2.4	0.00e+00	0	48	104	0	60	1048575
2026-01-17 16:18:23.82	100.73	18.80	-83.5	-79.0	2.5	0.00e+00	0	49	104	0	60	1048568
2026-01-17 16:18:24.83	100.50	18.93	-83.5	-79.0	2.3	0.00e+00	0	49	104	0	60	1048570
2026-01-17 16:18:25.83	100.26	19.06	-83.5	-79.0	2.4	0.00e+00	0	49	104	0	60	1048570
2026-01-17 16:18:26.84	100.02	19.19	-83.1	-79.0	2.5	0.00e+00	0	48	104	0	60	1048567
2026-01-17 16:18:27.84	99.78	19.32	-83.5	-79.0	2.4	0.00e+00	0	48	104	0	60	1048569
2026-01-17 16:18:28.85	99.54	19.45	-83.5	-79.0	2.4	0.00e+00	0	48	104	0	60	1048574
2026-01-17 16:18:29.86	99.29	19.58	-83.5	-79.0	2.4	0.00e+00	0	48	104	0	60	1048570
2026-01-17 16:18:30.86	99.04	19.71	-82.8	-79.0	2.5	0.00e+00	0	49	104	0	60	1048572
2026-01-17 16:18:31.86	98.79	19.85	-83.1	-79.0	2.4	0.00e+00	0	49	104	0	60	1048575
2026-01-17 16:18:32.86	98.54	19.98	-83.5	-79.0	2.3	0.00e+00	0	48	104	0	60	1048574
2026-01-17 16:18:33.87	98.28	20.11	-83.5	-79.0	2.4	0.00e+00	0	49	104	0	60	1048574
2026-01-17 16:18:34.88	98.02	20.24	-83.5	-79.0	2.4	0.00e+00	0	49	104	0	60	1048574
2026-01-17 16:18:35.89	97.76	20.38	-82.8	-79.0	2.4	0.00e+00	0	48	104	0	60	1048575
2026-01-17 16:18:36.90	97.49	20.51	-83.5	-79.0	2.4	0.00e+00	0	48	104	0	60	1048575
2026-01-17 16:18:37.91	97.22	20.65	-83.5	-79.0	2.4	0.00e+00	0	49	104	0	60	1048573
2026-01-17 16:18:38.91	96.96	20.78	-83.5	-79.0	2.5	0.00e+00	0	49	104	0	60	1048575
2026-01-17 16:18:39.92	96.68	20.92	-83.5	-79.0	2.4	0.00e+00	0	48	104	0	60	1048575
2026-01-17 16:18:40.93	96.41	21.05	-83.1	-79.0	2.4	0.00e+00	0	48	104	0	60	1048571
2026-01-17 16:18:41.93	96.13	21.19	-83.5	-79.0	2.4	0.00e+00	0	48	104	0	60	1048563
2026-01-17 16:18:42.94	95.85	21.32	-83.5	-79.0	2.4	0.00e+00	0	48	104	0	60	1048570
2026-01-17 16:18:43.95	95.56	21.46	-83.5	-79.0	2.4	0.00e+00	0	49	104	0	60	1048573
2026-01-17 16:18:44.95	95.28	21.59	-83.1	-79.0	2.4	0.00e+00	0	48	104	0	60	1048571
2026-01-17 16:18:45.96	94.99	21.73	-83.1	-79.0	2.3	0.00e+00	0	49	104	0	60	1048573
2026-01-17 16:18:46.96	94.70	21.87	-83.5	-79.0	2.4	0.00e+00	0	48	104	0	60	1048574
2026-01-17 16:18:47.96	94.40	22.00	-83.5	-79.0	2.4	0.00e+00	0	49	104	0	60	1048575
2026-01-17 16:18:48.97	94.11	22.14	-83.5	-79.0	2.4	0.00e+00	0	49	104	0	60	1048572
2026-01-17 16:18:49.97	93.81	22.28	-83.1	-79.0	2.4	0.00e+00	0	49	104	0	60	1048573
2026-01-17 16:18:50.98	93.50	22.41	-83.1	-79.0	2.3	0.00e+00	0	48	104	0	60	1048574
2026-01-17 16:18:51.99	93.19	22.55	-83.5	-79.0	2.4	0.00e+00	0	48	104	0	60	1048573
2026-01-17 16:18:52.99	92.88	22.69	-83.1	-79.0	2.4	0.00e+00	0	49	104	0	60	1048572
2026-01-17 16:18:54.00	92.57	22.82	-83.1	-79.0	2.4	0.00e+00	0	49	104	0	60	1048563
2026-01-17 16:18:55.01	92.25	22.96	-82.8	-79.0	2.4	0.00e+00	0	49	104	0	60	1048575
2026-01-17 16:18:56.01	91.93	23.10	-83.1	-79.0	2.4	0.00e+00	0	49	104	0	60	1048572
2026-01-17 16:18:57.02	91.61	23.24	-83.5	-79.0	2.4	0.00e+00	0	49	104	0	60	1048575
2026-01-17 16:18:58.03	91.28	23.37	-83.5	-79.0	2.4	0.00e+00	0	49	104	0	60	1048573
2026-01-17 16:18:59.04	90.95	23.51	-83.1	-79.0	2.4	0.00e+00	0	49	104	0	60	1048571
2026-01-17 16:19:00.05	90.62	23.65	-82.8	-79.0	2.3	0.00e+00	0	49	104	0	60	1048575
2026-01-17 16:19:01.05	90.29	23.79	-83.1	-79.0	2.6	0.00e+00	0	49	104	0	60	1048565
2026-01-17 16:19:02.06	89.95	23.92	-83.5	-79.0	2.4	0.00e+00	0	49	104	0	60	1048571
2026-01-17 16:19:03.06	89.61	24.06	-83.5	-79.0	2.3	0.00e+00	0	49	104	0	60	1048574
2026-01-17 16:19:04.06	89.26	24.20	-83.1	-79.0	2.4	0.00e+00	0	49	104	0	60	1048574
2026-01-17 16:19:05.07	88.91	24.33	-83.1	-79.0	2.4	0.00e+00	0	49	104	0	60	1048566
2026-01-17 16:19:06.08	88.56	24.47	-83.5	-79.0	2.4	0.00e+00	0	49	104	0	60	1048575
2026-01-17 16:19:07.08	88.20	24.61	-83.5	-79.0	2.3	0.00e+00	0	49	104	0	60	1048572
2026-01-17 16:19:08.08	87.85	24.74	-83.5	-79.0	2.4	0.00e+00	0	49	104	0	60	1048575
2026-01-17 16:19:09.09	87.48	24.88	-83.1	-79.0	2.4	0.00e+00	0	49	104	0	60	1048574
2026-01-17 16:19:10.09	87.12	25.01	-83.1	-79.0	2.4	0.00e+00	0	48	104	0	60	1048570
2026-01-17 16:19:11.10	86.75	25.15	-83.5	-79.0	2.4	0.00e+00	0	49	104	0	60	1048565
2026-01-17 16:19:12.11	86.37	25.28	-83.5	-79.0	2.4	0.00e+00	0	49	104	0	60	1048565
2026-01-17 16:19:13.12	85.99	25.42	-83.1	-79.0	2.4	0.00e+00	0	49	104	0	60	1048567
2026-01-17 16:19:14.13	85.61	25.55	-82.8	-79.0	2.4	0.00e+00	0	49	104	0	60	1048574
2026-01-17 16:19:15.13	85.23	25.68	-83.5	-79.0	2.5	0.00e+00	0	49	104	0	60	1048574
2026-01-17 16:19:16.13	84.85	25.82	-83.1	-79.0	2.4	0.00e+00	0	49	104	0	60	1048572
2026-01-17 16:19:17.14	84.45	25.95	-83.5	-79.0	2.3	0.00e+00	0	49	104	0	60	1048575
2026-01-17 16:19:18.15	84.06	26.08	-83.5	-79.0	2.5	0.00e+00	0	49	104	0	60	1048572
2026-01-17 16:19:19.15	83.66	26.21	-83.5	-79.0	2.4	0.00e+00	0	49	104	0	60	1048573
2026-01-17 16:19:20.16	83.26	26.34	-83.5	-79.0	2.5	0.00e+00	0	49	104	0	60	1048572
2026-01-17 16:19:21.16	82.85	26.47	-83.5	-79.0	2.4	0.00e+00	0	49	104	0	60	1048571
2026-01-17 16:19:22.17	82.44	26.60	-83.5	-79.0	2.4	0.00e+00	0	49	104	0	60	1048574
2026-01-17 16:19:23.17	82.03	26.73	-83.1	-79.0	2.4	0.00e+00	0	49	104	0	60	1048575
2026-01-17 16:19:24.18	81.61	26.86	-83.5	-79.0	2.4	0.00e+00	0	49	104	0	60	1048569
2026-01-17 16:19:25.19	81.19	26.98	-83.5	-79.0	2.4	0.00e+00	0	49	104	0	60	1048574
2026-01-17 16:19:26.20	80.77	27.11	-83.5	-79.0	2.5	0.00e+00	0	49	104	0	60	1048574
2026-01-17 16:19:27.21	80.34	27.24	-83.5	-79.0	2.4	0.00e+00	0	49	104	0	60	1048572
2026-01-17 16:19:28.21	79.91	27.36	-83.1	-79.0	2.5	0.00e+00	0	49	104	0	60	1048571
2026-01-17 16:19:29.22	79.47	27.48	-83.1	-79.0	2.3	0.00e+00	0	49	104	0	60	1048575
2026-01-17 16:19:30.23	79.03	27.60	-83.5	-79.0	2.5	0.00e+00	0	49	104	0	60	1048572
2026-01-17 16:19:31.23	78.59	27.72	-83.5	-79.0	2.4	0.00e+00	0	49	104	0	60	1048572
2026-01-17 16:19:32.24	78.14	27.84	-83.5	-79.0	2.5	0.00e+00	0	49	104	0	60	1048572
2026-01-17 16:19:33.24	77.70	27.96	-82.8	-79.0	2.3	0.00e+00	0	49	104	0	60	1048575
2026-01-17 16:19:34.24	77.25	28.08	-83.5	-79.0	2.4	0.00e+00	0	49	104	0	60	1048571
2026-01-17 16:19:35.25	76.79	28.19	-83.5	-79.0	2.4	0.00e+00	0	49	104	0	60	1048567
2026-01-17 16:19:36.26	76.33	28.31	-83.5	-79.0	2.4	0.00e+00	0	49	104	0	60	1048572
2026-01-17 16:19:37.26	75.86	28.42	-83.1	-79.0	2.4	0.00e+00	0	49	104	0	60	1048574
2026-01-17 16:19:38.26	75.40	28.53	-83.1	-79.0	2.5	0.00e+00	0	49	104	0	60	1048570
2026-01-17 16:19:39.27	74.93	28.64	-83.5	-79.0	2.4	0.00e+00	0	49	104	0	60	1048569
2026-01-17 16:19:40.28	74.45	28.75	-83.1	-79.0	2.3	0.00e+00	0	49	104	0	60	1048573
2026-01-17 16:19:41.29	73.97	28.86	-83.5	-79.0	2.4	0.00e+00	0	49	104	0	60	1048575
2026-01-17 16:19:42.29	73.49	28.97	-83.1	-79.0	2.4	0.00e+00	0	49	104	0	60	1048575
2026-01-17 16:19:43.30	73.00	29.07	-83.5	-79.0	2.5	0.00e+00	0	49	104	0	60	1048573
2026-01-17 16:19:44.31	72.51	29.17	-83.1	-79.0	2.4	0.00e+00	0	49	104	0	60	1048568
2026-01-17 16:19:45.32	72.02	29.27	-83.1	-79.0	2.4	0.00e+00	0	49	104	0	60	1048574
2026-01-17 16:19:46.33	71.52	29.37	-83.5	-79.0	2.3	0.00e+00	0	49	104	0	60	1048573
2026-01-17 16:19:47.33	71.03	29.47	-83.1	-79.0	2.3	0.00e+00	0	49	104	0	60	1048571
2026-01-17 16:19:48.34	70.52	29.56	-83.5	-79.0	2.4	0.00e+00	0	49	104	0	60	1048570
2026-01-17 16:19:49.35	70.02	29.66	-83.5	-79.0	2.4	0.00e+00	0	49	104	0	60	1048574
2026-01-17 16:19:50.35	69.51	29.75	-83.5	-79.0	2.5	0.00e+00	0	49	104	0	60	1048575
2026-01-17 16:19:51.36	69.00	29.84	-82.8	-79.0	2.4	0.00e+00	0	49	104	0	60	1048566
2026-01-17 16:19:52.37	68.48	29.93	-82.8	-79.0	2.5	0.00e+00	0	49	104	0	60	1048574
2026-01-17 16:19:53.37	67.97	30.01	-83.1	-79.0	2.4	0.00e+00	0	49	104	0	60	1048573
2026-01-17 16:19:54.38	67.45	30.09	-83.5	-79.0	2.4	0.00e+00	0	49	104	0	60	1048569
2026-01-17 16:19:55.39	66.92	30.17	-83.5	-79.0	2.4	0.00e+00	0	49	104	0	60	1048572
2026-01-17 16:19:56.39	66.40	30.25	-83.1	-79.0	2.5	0.00e+00	0	49	104	0	60	1048575
2026-01-17 16:19:57.40	65.87	30.33	-83.5	-79.0	2.4	0.00e+00	0	49	104	0	60	1048575
2026-01-17 16:19:58.41	65.34	30.40	-83.5	-79.0	2.4	0.00e+00	0	49	104	0	60	1048568
2026-01-17 16:19:59.42	64.80	30.47	-83.5	-79.0	2.4	0.00e+00	0	49	104	0	60	1048574
2026-01-17 16:20:00.42	64.27	30.54	-83.5	-79.0	2.4	0.00e+00	0	49	104	0	60	1048573
2026-01-17 16:20:01.43	63.73	30.61	-83.1	-79.0	2.5	0.00e+00	0	49	104	0	60	1048570
2026-01-17 16:20:02.44	63.19	30.67	-83.1	-79.0	2.3	0.00e+00	0	49	104	0	60	1048574
2026-01-17 16:20:03.45	62.64	30.73	-83.5	-79.0	2.3	0.00e+00	0	49	104	0	60	1048574
2026-01-17 16:20:04.45	62.10	30.79	-83.5	-79.0	2.4	0.00e+00	0	49	104	0	60	1048575
2026-01-17 16:20:05.46	61.55	30.85	-83.1	-79.0	2.4	0.00e+00	0	49	104	0	60	1048568
2026-01-17 16:20:06.47	61.00	30.90	-82.8	-79.0	2.4	0.00e+00	0	49	104	0	60	1048572
2026-01-17 16:20:07.48	60.44	30.95	-83.5	-79.0	2.3	0.00e+00	0	49	104	0	60	1048575
2026-01-17 16:20:08.48	59.90	31.00	-83.5	-79.0	2.3	0.00e+00	0	49	104	0	60	1048572
2026-01-17 16:20:09.48	59.34	31.04	-83.1	-79.0	2.3	0.00e+00	0	49	104	0	60	1048571
2026-01-17 16:20:10.49	58.79	31.09	-83.1	-79.0	2.4	0.00e+00	0	49	104	0	60	1048572
2026-01-17 16:20:11.49	58.23	31.13	-83.1	-79.0	2.4	0.00e+00	0	49	104	0	60	1048570
2026-01-17 16:20:12.50	57.67	31.16	-83.5	-79.0	2.4	0.00e+00	0	49	104	0	60	1048565
2026-01-17 16:20:13.51	57.11	31.20	-83.5	-79.0	2.4	0.00e+00	0	49	104	0	60	1048573
2026-01-17 16:20:14.51	56.55	31.23	-83.5	-79.0	2.4	0.00e+00	0	49	104	0	60	1048573
2026-01-17 16:20:15.52	55.98	31.26	-82.8	-79.0	2.4	0.00e+00	0	49	104	0	60	1048575
2026-01-17 16:20:16.53	55.42	31.28	-83.1	-79.0	2.4	0.00e+00	0	49	104	0	60	1048570
2026-01-17 16:20:17.53	54.86	31.31	-83.1	-79.0	2.5	0.00e+00	0	49	104	0	60	1048575
2026-01-17 16:20:18.54	54.29	31.33	-83.5	-79.0	2.5	0.00e+00	0	49	104	0	60	1048570
2026-01-17 16:20:19.55	53.72	31.34	-83.5	-79.0	2.3	0.00e+00	0	49	104	0	60	1048574
2026-01-17 16:20:20.56	53.15	31.36	-82.8	-79.0	2.4	0.00e+00	0	49	104	0	60	1048569
2026-01-17 16:20:21.56	52.59	31.37	-83.1	-79.0	2.4	0.00e+00	0	49	104	0	60	1048574
2026-01-17 16:20:22.57	52.02	31.37	-83.5	-79.0	2.4	0.00e+00	0	49	104	0	60	1048564
2026-01-17 16:20:23.58	51.45	31.38	-83.5	-79.0	2.4	0.00e+00	0	49	104	0	60	1048575
2026-01-17 16:20:24.58	50.88	31.38	-83.1	-79.0	2.4	0.00e+00	0	49	104	0	60	1048563
2026-01-17 16:20:25.58	50.32	31.38	-83.1	-79.0	2.4	0.00e+00	0	49	104	0	60	1048575
2026-01-17 16:20:26.59	49.75	31.38	-83.1	-79.0	2.5	0.00e+00	0	49	104	0	60	1048570
2026-01-17 16:20:27.59	49.19	31.37	-83.5	-79.0	2.4	0.00e+00	0	49	104	0	60	1048575
2026-01-17 16:20:28.60	48.62	31.36	-83.5	-79.0	2.4	0.00e+00	0	49	104	0	60	1048574
2026-01-17 16:20:29.61	48.05	31.35	-82.8	-79.0	2.3	0.00e+00	0	49	104	0	60	1048573
2026-01-17 16:20:30.61	47.48	31.33	-83.1	-79.0	2.3	0.00e+00	0	49	104	0	60	1048565
2026-01-17 16:20:31.62	46.92	31.31	-83.1	-79.0	2.5	0.00e+00	0	49	104	0	60	1048573
2026-01-17 16:20:32.63	46.35	31.29	-83.1	-79.0	2.4	0.00e+00	0	49	104	0	60	1048575
2026-01-17 16:20:33.64	45.78	31.26	-83.5	-79.0	2.4	0.00e+00	0	49	104	0	60	1048574
2026-01-17 16:20:34.65	45.22	31.24	-83.1	-79.0	2.3	0.00e+00	0	49	104	0	60	1048572
2026-01-17 16:20:35.65	44.66	31.21	-83.5	-79.0	2.4	0.00e+00	0	49	104	0	60	1048574
2026-01-17 16:20:36.66	44.10	31.17	-83.5	-79.0	2.3	0.00e+00	0	49	104	0	60	1048574
2026-01-17 16:20:37.67	43.54	31.14	-83.5	-79.0	2.4	0.00e+00	0	49	104	0	60	1048570
2026-01-17 16:20:38.68	42.98	31.10	-83.5	-79.0	2.4	0.00e+00	0	49	104	0	60	1048575
2026-01-17 16:20:39.69	42.42	31.06	-83.1	-79.0	2.4	0.00e+00	0	49	104	0	60	1048573
2026-01-17 16:20:40.69	41.87	31.01	-83.5	-79.0	2.3	0.00e+00	0	49	104	0	60	1048573
2026-01-17 16:20:41.70	41.31	30.96	-83.5	-79.0	2.3	0.00e+00	0	49	104	0	60	1048574
2026-01-17 16:20:42.70	40.76	30.91	-83.5	-79.0	2.5	0.00e+00	0	49	104	0	60	1048570
2026-01-17 16:20:43.70	40.22	30.86	-83.1	-79.0	2.4	0.00e+00	0	49	104	0	60	1048575
2026-01-17 16:20:44.71	39.67	30.81	-82.8	-79.0	2.4	0.00e+00	0	49	104	0	60	1048574
2026-01-17 16:20:45.72	39.12	30.75	-83.5	-79.0	2.4	0.00e+00	0	49	104	0	60	1048574
2026-01-17 16:20:46.73	38.58	30.69	-83.5	-79.0	2.4	0.00e+00	0	49	104	0	60	1048574
2026-01-17 16:20:47.73	38.04	30.63	-83.5	-79.0	2.4	0.00e+00	0	49	104	0	60	1048570
2026-01-17 16:20:48.74	37.50	30.56	-82.8	-79.0	2.4	0.00e+00	0	49	104	0	60	1048571
2026-01-17 16:20:49.74	36.97	30.49	-83.1	-79.0	2.4	0.00e+00	0	49	104	0	60	1048574
2026-01-17 16:20:50.75	36.43	30.42	-83.1	-79.0	2.5	0.00e+00	0	49	104	0	60	1048574
2026-01-17 16:20:51.76	35.90	30.35	-83.5	-79.0	2.5	0.00e+00	0	49	104	0	60	1048573
2026-01-17 16:20:52.76	35.37	30.27	-83.5	-79.0	2.4	0.00e+00	0	49	104	0	60	1048573
2026-01-17 16:20:53.77	34.85	30.20	-83.1	-79.0	2.4	0.00e+00	0	49	104	0	60	1048575
2026-01-17 16:20:54.78	34.32	30.12	-83.5	-79.0	2.4	0.00e+00	0	49	104	0	60	1048575
2026-01-17 16:20:55.79	33.80	30.03	-83.5	-79.0	2.4	0.00e+00	0	49	104	0	60	1048574
2026-01-17 16:20:56.79	33.29	29.95	-83.5	-79.0	2.4	0.00e+00	0	49	104	0	60	1048574
2026-01-17 16:20:57.80	32.77	29.86	-83.5	-79.0	2.3	0.00e+00	0	49	104	0	60	1048572
2026-01-17 16:20:58.81	32.26	29.78	-82.8	-79.0	2.4	0.00e+00	0	49	104	0	60	1048570
2026-01-17 16:20:59.81	31.75	29.69	-83.5	-79.0	2.4	0.00e+00	0	49	104	0	60	1048571
2026-01-17 16:21:00.82	31.25	29.59	-83.5	-79.0	2.4	0.00e+00	0	49	104	0	60	1048573
2026-01-17 16:21:01.83	30.74	29.50	-83.5	-79.0	2.4	0.00e+00	0	49	104	0	60	1048568
2026-01-17 16:21:02.84	30.24	29.40	-83.1	-79.0	2.4	0.00e+00	0	49	104	0	60	1048573
2026-01-17 16:21:03.84	29.75	29.30	-83.1	-79.0	2.5	0.00e+00	0	49	104	0	60	1048574
2026-01-17 16:21:04.86	29.25	29.20	-83.5	-79.0	2.4	0.00e+00	0	49	104	0	60	1048575
2026-01-17 16:21:05.86	28.77	29.10	-83.5	-79.0	2.5	0.00e+00	0	49	104	0	60	1048572
2026-01-17 16:21:06.87	28.28	29.00	-83.5	-79.0	2.4	0.00e+00	0	49	104	0	60	1048564
2026-01-17 16:21:07.88	27.80	28.89	-82.8	-79.0	2.3	0.00e+00	0	49	104	0	60	1048575
2026-01-17 16:21:08.88	27.32	28.79	-83.1	-79.0	2.4	0.00e+00	0	49	104	0	60	1048574
2026-01-17 16:21:09.89	26.84	28.68	-83.5	-79.0	2.5	0.00e+00	0	49	104	0	60	1048566
2026-01-17 16:21:10.89	26.38	28.57	-83.5	-79.0	2.4	0.00e+00	0	49	104	0	60	1048571
2026-01-17 16:21:11.90	25.91	28.46	-83.5	-79.0	2.4	0.00e+00	0	49	104	0	60	1048574
2026-01-17 16:21:12.91	25.44	28.35	-82.8	-79.0	2.4	0.00e+00	0	49	104	0	60	1048573
2026-01-17 16:21:13.91	24.98	28.23	-83.1	-79.0	2.3	0.00e+00	0	49	104	0	60	1048564
2026-01-17 16:21:14.92	24.53	28.12	-83.5	-79.0	2.4	0.00e+00	0	49	104	0	60	1048573
2026-01-17 16:21:15.93	24.07	28.00	-83.5	-79.0	2.5	0.00e+00	0	49	104	0	60	1048572
2026-01-17 16:21:16.93	23.62	27.88	-83.5	-79.0	2.4	0.00e+00	0	49	104	0	60	1048571
2026-01-17 16:21:17.94	23.18	27.76	-83.1	-79.0	2.4	0.00e+00	0	49	104	0	60	1048571
2026-01-17 16:21:18.94	22.74	27.64	-83.1	-79.0	2.4	0.00e+00	0	49	104	0	60	1048575
2026-01-17 16:21:19.95	22.30	27.52	-83.1	-79.0	2.4	0.00e+00	0	49	104	0	60	1048573
2026-01-17 16:21:20.96	21.86	27.40	-83.5	-79.0	2.5	0.00e+00	0	49	104	0	60	1048575
2026-01-17 16:21:21.96	21.43	27.28	-83.1	-79.0	2.4	0.00e+00	0	49	104	0	60	1048572
2026-01-17 16:21:22.97	21.00	27.15	-83.1	-79.0	2.4	0.00e+00	0	49	104	0	60	1048575
2026-01-17 16:21:23.98	20.58	27.03	-83.5	-79.0	2.3	0.00e+00	0	49	104	0	60	1048573
2026-01-17 16:21:24.98	20.16	26.90	-83.5	-79.0	2.4	0.00e+00	0	49	104	0	60	1048574
2026-01-17 16:21:25.99	19.74	26.78	-83.5	-79.0	2.4	0.00e+00	0	49	104	0	60	1048575
2026-01-17 16:21:27.00	19.33	26.65	-83.1	-79.0	2.5	0.00e+00	0	49	104	0	60	1048565
2026-01-17 16:21:28.00	18.92	26.52	-83.1	-79.0	2.3	0.00e+00	0	49	104	0	60	1048575
2026-01-17 16:21:28.99	18.52	26.39	-83.5	-79.0	2.4	0.00e+00	0	49	104	0	60	1048569
2026-01-17 16:21:30.00	18.12	26.26	-83.5	-79.0	2.4	0.00e+00	0	49	104	0	60	1048574
2026-01-17 16:21:31.01	17.72	26.13	-83.5	-79.0	2.4	0.00e+00	0	49	104	0	60	1048575
2026-01-17 16:21:32.02	17.32	26.00	-82.8	-79.0	2.5	0.00e+00	0	49	104	0	60	1048575
2026-01-17 16:21:33.02	16.93	25.87	-83.5	-79.0	2.4	0.00e+00	0	49	104	0	60	1048569
2026-01-17 16:21:34.03	16.54	25.74	-83.5	-79.0	2.4	0.00e+00	0	49	104	0	60	1048575
2026-01-17 16:21:35.04	16.16	25.60	-83.5	-79.0	2.4	0.00e+00	0	49	104	0	60	1048575
2026-01-17 16:21:36.05	15.78	25.47	-83.1	-79.0	2.4	0.00e+00	0	49	104	0	60	1048571
2026-01-17 16:21:37.05	15.40	25.34	-83.5	-79.0	2.4	0.00e+00	0	49	104	0	60	1048572
2026-01-17 16:21:38.06	15.03	25.20	-83.5	-79.0	2.4	0.00e+00	0	49	104	0	60	1048574
2026-01-17 16:21:39.07	14.66	25.07	-83.5	-79.0	2.3	0.00e+00	0	49	104	0	60	1048565
2026-01-17 16:21:40.08	14.29	24.93	-83.5	-79.0	2.4	0.00e+00	0	49	104	0	60	1048571
2026-01-17 16:21:41.09	13.93	24.80	-83.1	-79.0	2.5	0.00e+00	0	49	104	0	60	1048547
2026-01-17 16:21:42.09	13.57	24.66	-83.1	-79.0	2.3	0.00e+00	0	49	104	0	60	1048574
2026-01-17 16:21:43.10	13.21	24.52	-83.1	-79.0	2.4	0.00e+00	0	49	104	0	60	1048571
2026-01-17 16:21:44.11	12.86	24.39	-83.5	-79.0	2.4	0.00e+00	0	49	104	0	60	1048574
2026-01-17 16:21:45.11	12.51	24.25	-83.5	-79.0	2.3	0.00e+00	0	49	104	0	60	1048575
2026-01-17 16:21:46.12	12.17	24.12	-82.8	-79.0	2.4	0.00e+00	0	49	104	0	60	1048575
2026-01-17 16:21:47.13	11.82	23.98	-83.1	-79.0	2.4	0.00e+00	0	49	104	0	60	1048573
2026-01-17 16:21:48.14	11.48	23.84	-83.5	-79.0	2.4	0.00e+00	0	49	104	0	60	1048571
2026-01-17 16:21:49.14	11.15	23.71	-83.1	-79.0	2.4	0.00e+00	0	49	104	0	60	1048574
2026-01-17 16:21:50.14	10.82	23.57	-83.5	-79.0	2.3	0.00e+00	0	49	104	0	60	1048570
2026-01-17 16:21:51.15	10.49	23.43	-82.8	-79.0	2.4	0.00e+00	0	49	104	0	60	1048567
2026-01-17 16:21:52.16	10.16	23.30	-83.5	-79.0	2.3	0.00e+00	0	49	104	0	60	1048574
2026-01-17 16:21:53.16	9.84	23.16	-83.5	-79.0	2.5	0.00e+00	0	49	104	0	60	1048573
2026-01-17 16:21:54.16	9.52	23.02	-83.5	-79.0	2.4	0.00e+00	0	49	104	0	60	1048574
2026-01-17 16:21:55.17	9.21	22.89	-83.1	-79.0	2.3	0.00e+00	0	49	104	0	60	1048574
2026-01-17 16:21:56.17	8.90	22.75	-83.1	-79.0	2.4	0.00e+00	0	49	104	0	60	1048573
2026-01-17 16:21:57.18	8.58	22.61	-83.5	-79.0	2.4	0.00e+00	0	49	104	0	60	1048574
2026-01-17 16:21:58.19	8.28	22.48	-83.5	-79.0	2.4	0.00e+00	0	49	104	0	60	1048564
2026-01-17 16:21:59.20	7.97	22.34	-83.5	-79.0	2.4	0.00e+00	0	49	104	0	60	1048575
2026-01-17 16:22:00.20	7.67	22.20	-83.1	-79.0	2.5	0.00e+00	0	49	104	0	60	1048573
2026-01-17 16:22:01.21	7.37	22.07	-82.8	-79.0	2.5	0.00e+00	0	49	104	0	60	1048574
2026-01-17 16:22:02.21	7.08	21.93	-83.5	-79.0	2.4	0.00e+00	0	49	104	0	60	1048574
2026-01-17 16:22:03.22	6.79	21.80	-83.5	-79.0	2.4	0.00e+00	0	49	104	0	60	1048575
2026-01-17 16:22:04.23	6.50	21.66	-83.5	-79.0	2.3	0.00e+00	0	49	104	0	60	1048575
2026-01-17 16:22:05.23	6.21	21.52	-82.8	-79.0	2.4	0.00e+00	0	49	104	0	60	1048569
2026-01-17 16:22:06.24	5.93	21.39	-83.5	-79.0	2.4	0.00e+00	0	49	104	0	60	1048572
2026-01-17 16:22:07.24	5.65	21.25	-83.5	-79.0	2.3	0.00e+00	0	49	104	0	60	1048575
2026-01-17 16:22:08.25	5.37	21.12	-83.5	-79.0	2.4	0.00e+00	0	49	104	0	60	1048569
2026-01-17 16:22:09.25	5.10	20.99	-83.5	-79.0	2.4	0.00e+00	0	49	104	0	60	1048574
2026-01-17 16:22:10.26	4.82	20.85	-83.1	-79.0	2.4	0.00e+00	0	49	104	0	60	1048571
2026-01-17 16:22:11.26	4.56	20.72	-83.5	-79.0	2.4	0.00e+00	0	49	104	0	60	1048573
2026-01-17 16:22:12.27	4.29	20.58	-83.5	-79.0	2.4	0.00e+00	0	49	104	0	60	1048575
2026-01-17 16:22:13.28	4.02	20.45	-83.5	-79.0	2.5	0.00e+00	0	49	104	0	60	1048575
2026-01-17 16:22:14.29	3.76	20.32	-83.1	-79.0	2.4	0.00e+00	0	49	104	0	60	1048573
2026-01-17 16:22:15.29	3.50	20.18	-83.1	-79.0	2.5	0.00e+00	0	49	104	0	60	1048571
2026-01-17 16:22:16.30	3.25	20.05	-83.5	-79.0	2.4	0.00e+00	0	49	104	0	60	1048559
2026-01-17 16:22:17.31	2.99	19.92	-83.5	-79.0	2.4	0.00e+00	0	49	104	0	60	1048575
2026-01-17 16:22:18.32	2.74	19.79	-83.5	-79.0	2.5	0.00e+00	0	49	104	0	60	1048569
2026-01-17 16:22:19.32	2.49	19.66	-82.8	-79.0	2.4	0.00e+00	0	49	104	0	60	1048568
2026-01-17 16:22:20.33	2.24	19.52	-83.1	-79.0	2.4	0.00e+00	0	49	104	0	60	1048570
2026-01-17 16:22:21.33	2.00	19.39	-83.5	-79.0	2.3	0.00e+00	0	49	104	0	60	1048574
2026-01-17 16:22:22.34	1.76	19.26	-83.5	-79.0	2.3	0.00e+00	0	49	104	0	60	1048570
2026-01-17 16:22:23.35	1.52	19.13	-83.5	-79.0	2.4	0.00e+00	0	49	104	0	60	1048571
2026-01-17 16:22:24.35	1.28	19.01	-83.1	-79.0	2.4	0.00e+00	0	49	104	0	60	1048568
2026-01-17 16:22:25.35	1.05	18.88	-83.5	-79.0	2.4	0.00e+00	0	49	104	0	60	1048564
2026-01-17 16:22:26.36	0.82	18.75	-83.5	-79.0	2.4	0.00e+00	0	49	104	0	60	1048567
2026-01-17 16:22:27.37	0.59	18.62	-83.5	-79.0	2.4	0.00e+00	0	49	104	0	60	1048570
2026-01-17 16:22:28.38	0.36	18.49	-83.5	-79.0	2.5	0.00e+00	0	49	104	0	60	1048567
2026-01-17 16:22:29.38	0.14	18.36	-82.8	-79.0	2.4	0.00e+00	0	49	104	0	60	1048574
2026-01-17 16:22:30.38	359.91	18.24	-83.5	-79.0	2.4	0.00e+00	0	49	104	0	60	1048574
2026-01-17 16:22:31.39	359.69	18.11	-83.5	-79.0	2.4	0.00e+00	0	49	104	0	60	1048575
2026-01-17 16:22:32.40	359.47	17.98	-83.5	-79.0	2.4	0.00e+00	0	49	104	0	60	1048575
2026-01-17 16:22:33.41	359.25	17.86	-83.1	-79.0	2.3	0.00e+00	0	49	104	0	60	1048571
2026-01-17 16:22:34.41	359.04	17.73	-83.5	-79.0	2.4	0.00e+00	0	49	104	0	60	1048573
2026-01-17 16:22:35.42	358.83	17.61	-83.5	-79.0	2.4	0.00e+00	0	49	104	0	60	1048574
2026-01-17 16:22:36.42	358.62	17.48	-83.1	-79.0	2.4	0.00e+00	0	49	104	0	60	1048573
2026-01-17 16:22:37.42	358.41	17.36	-83.5	-79.0	2.3	0.00e+00	0	49	104	0	60	1048573
2026-01-17 16:22:38.43	358.20	17.24	-82.8	-79.0	2.4	0.00e+00	0	49	104	0	60	1048567
2026-01-17 16:22:39.43	358.00	17.12	-83.1	-79.0	2.4	0.00e+00	0	49	104	0	60	1048574
2026-01-17 16:22:40.44	357.80	16.99	-83.5	-79.0	2.4	0.00e+00	0	49	104	0	60	1048574
2026-01-17 16:22:41.45	357.60	16.87	-83.5	-79.0	2.4	0.00e+00	0	49	104	0	60	1048569
2026-01-17 16:22:42.46	357.40	16.75	-83.1	-79.0	2.4	0.00e+00	0	49	104	0	60	1048575
2026-01-17 16:22:43.46	357.20	16.63	-82.8	-79.0	2.5	0.00e+00	0	49	104	0	60	1048575
2026-01-17 16:22:44.47	357.00	16.51	-83.5	-79.0	2.3	0.00e+00	0	49	104	0	60	1048569
2026-01-17 16:22:45.48	356.81	16.39	-83.5	-79.0	2.4	0.00e+00	0	49	104	0	60	1048574
2026-01-17 16:22:46.49	356.62	16.27	-83.5	-79.0	2.4	0.00e+00	0	49	104	0	60	1048574
2026-01-17 16:22:47.49	356.43	16.15	-83.5	-79.0	2.3	0.00e+00	0	49	104	0	60	1048575
2026-01-17 16:22:48.49	356.24	16.03	-83.1	-79.0	2.4	0.00e+00	0	49	104	0	60	1048574
2026-01-17 16:22:49.50	356.06	15.91	-83.5	-79.0	2.4	0.00e+00	0	49	104	0	60	1048574
2026-01-17 16:22:50.51	355.87	15.79	-83.5	-79.0	2.5	0.00e+00	0	49	104	0	60	1048574
2026-01-17 16:22:51.52	355.69	15.67	-83.5	-79.0	2.4	0.00e+00	0	49	104	0	60	1048567
2026-01-17 16:22:52.52	355.51	15.56	-83.1	-79.0	2.4	0.00e+00	0	49	104	0	60	1048574
2026-01-17 16:22:53.52	355.33	15.44	-83.1	-79.0	2.5	0.00e+00	0	49	104	0	60	1048569
2026-01-17 16:22:54.53	355.15	15.32	-83.5	-79.0	2.4	0.00e+00	0	49	104	0	60	1048571
2026-01-17 16:22:55.54	354.98	15.21	-83.5	-79.0	2.4	0.00e+00	0	49	104	0	60	1048575
2026-01-17 16:22:56.54	354.80	15.09	-83.1	-79.0	2.4	0.00e+00	0	49	104	0	60	1048574
2026-01-17 16:22:57.55	354.63	14.98	-83.1	-79.0	2.4	0.00e+00	0	49	104	0	60	1048567
2026-01-17 16:22:58.55	354.46	14.87	-83.5	-79.0	2.4	0.00e+00	0	49	104	0	60	1048568
2026-01-17 16:22:59.55	354.29	14.75	-83.5	-79.0	2.3	0.00e+00	0	49	104	0	60	1048575
2026-01-17 16:23:00.56	354.12	14.64	-83.5	-79.0	2.3	0.00e+00	0	49	104	0	60	1048575
2026-01-17 16:23:01.57	353.96	14.53	-83.1	-79.0	2.4	0.00e+00	0	49	104	0	60	1048574
2026-01-17 16:23:02.57	353.79	14.41	-82.8	-79.0	2.4	0.00e+00	0	49	104	0	60	1048567
2026-01-17 16:23:03.58	353.63	14.30	-83.5	-79.0	2.2	0.00e+00	0	49	104	0	60	1048573
2026-01-17 16:23:04.58	353.47	14.19	-83.5	-79.0	2.3	0.00e+00	0	49	104	0	60	1048574
2026-01-17 16:23:05.58	353.31	14.08	-83.1	-79.0	2.4	0.00e+00	0	49	104	0	60	1048573
2026-01-17 16:23:06.59	353.15	13.97	-83.5	-79.0	2.4	0.00e+00	0	49	104	0	60	1048570
2026-01-17 16:23:07.59	352.99	13.86	-83.1	-79.0	2.4	0.00e+00	0	49	104	0	60	1048574
2026-01-17 16:23:08.60	352.84	13.75	-83.5	-79.0	2.3	0.00e+00	0	49	104	0	60	1048570
2026-01-17 16:23:09.60	352.68	13.64	-83.5	-79.0	2.3	0.00e+00	0	49	104	0	60	1048569
2026-01-17 16:23:10.60	352.53	13.53	-83.5	-79.0	2.4	0.00e+00	0	49	104	0	60	1048574
2026-01-17 16:23:11.61	352.38	13.43	-83.1	-79.0	2.4	0.00e+00	0	49	104	0	60	1048573
2026-01-17 16:23:12.62	352.23	13.32	-83.1	-79.0	2.4	0.00e+00	0	49	104	0	60	1048575
2026-01-17 16:23:13.62	352.08	13.21	-83.5	-79.0	2.4	0.00e+00	0	49	104	0	60	1048569
2026-01-17 16:23:14.63	351.93	13.10	-83.5	-79.0	2.3	0.00e+00	0	49	104	0	60	1048575
2026-01-17 16:23:15.64	351.78	13.00	-83.5	-79.0	2.4	0.00e+00	0	49	104	0	60	1048575
2026-01-17 16:23:16.64	351.64	12.89	-82.8	-79.0	2.4	0.00e+00	0	49	104	0	60	1048573
2026-01-17 16:23:17.65	351.49	12.78	-83.1	-79.0	2.3	0.00e+00	0	49	104	0	60	1048575
2026-01-17 16:23:18.65	351.35	12.68	-83.5	-79.0	2.4	0.00e+00	0	49	104	0	60	1048568
2026-01-17 16:23:19.66	351.21	12.58	-83.5	-79.0	2.4	0.00e+00	0	49	104	0	60	1048573
2026-01-17 16:23:20.66	351.07	12.47	-83.5	-79.0	2.4	0.00e+00	0	49	104	0	60	1048569
2026-01-17 16:23:21.67	350.93	12.37	-83.1	-79.0	2.4	0.00e+00	0	49	104	0	60	1048567
2026-01-17 16:23:22.67	350.79	12.26	-83.1	-79.0	2.4	0.00e+00	0	49	104	0	60	1048566
2026-01-17 16:23:23.68	350.66	12.16	-83.1	-79.0	2.4	0.00e+00	0	49	104	0	60	1048575
2026-01-17 16:23:24.69	350.52	12.06	-83.5	-79.0	2.4	0.00e+00	0	49	104	0	60	1048573
2026-01-17 16:23:25.69	350.39	11.96	-83.1	-79.0	2.4	0.00e+00	0	49	104	0	60	1048574
2026-01-17 16:23:26.69	350.25	11.86	-83.1	-79.0	2.5	0.00e+00	0	49	104	0	60	1048570
2026-01-17 16:23:27.70	350.12	11.75	-83.5	-79.0	2.5	0.00e+00	0	49	104	0	60	1048573
2026-01-17 16:23:28.70	349.99	11.65	-83.5	-79.0	2.4	0.00e+00	0	49	104	0	60	1048575
2026-01-17 16:23:29.71	349.86	11.55	-83.5	-79.0	2.3	0.00e+00	0	49	104	0	60	1048575
2026-01-17 16:23:30.71	349.73	11.45	-83.1	-79.0	2.5	0.00e+00	0	49	104	0	60	1048575
2026-01-17 16:23:31.72	349.60	11.35	-83.1	-79.0	2.3	0.00e+00	0	49	104	0	60	1048575
2026-01-17 16:23:32.73	349.48	11.25	-83.1	-79.0	2.5	0.00e+00	0	49	104	0	60	1048574
2026-01-17 16:23:33.73	349.35	11.16	-83.5	-79.0	2.5	0.00e+00	0	49	104	0	60	1048575
2026-01-17 16:23:34.74	349.23	11.06	-83.1	-79.0	2.5	0.00e+00	0	49	104	0	60	1048573
2026-01-17 16:23:35.75	349.10	10.96	-82.8	-79.0	2.3	0.00e+00	0	49	104	0	60	1048574
2026-01-17 16:23:36.76	348.98	10.86	-83.1	-79.0	2.5	0.00e+00	0	49	104	0	60	1048567
2026-01-17 16:23:37.77	348.86	10.76	-83.5	-79.0	2.4	0.00e+00	0	49	104	0	60	1048575
2026-01-17 16:23:38.78	348.74	10.67	-83.5	-79.0	2.4	0.00e+00	0	49	104	0	60	1048570
2026-01-17 16:23:39.78	348.62	10.57	-82.8	-79.0	2.3	0.00e+00	0	49	104	0	60	1048571
2026-01-17 16:23:40.79	348.50	10.47	-83.1	-79.0	2.4	0.00e+00	0	49	104	0	60	1048575
2026-01-17 16:23:41.80	348.38	10.38	-83.5	-79.0	2.4	0.00e+00	0	49	104	0	60	1048575
2026-01-17 16:23:42.80	348.27	10.28	-83.5	-79.0	2.4	0.00e+00	0	49	104	0	60	1048568
2026-01-17 16:23:43.81	348.15	10.19	-83.5	-79.0	2.4	0.00e+00	0	49	104	0	60	1048574
2026-01-17 16:23:44.82	348.03	10.09	-83.1	-79.0	2.4	0.00e+00	0	49	104	0	60	1048573
2026-01-17 16:23:45.82	347.92	10.00	-83.1	-79.0	2.4	0.00e+00	0	49	104	0	60	1048573
2026-01-17 16:23:46.82	347.81	9.91	-83.1	-79.0	2.4	0.00e+00	0	49	104	0	60	1048575
2026-01-17 16:23:47.83	347.70	9.81	-83.5	-79.0	2.4	0.00e+00	0	49	104	0	60	1048574
2026-01-17 16:23:48.83	347.59	9.72	-83.5	-79.0	2.4	0.00e+00	0	49	104	0	60	1048574
2026-01-17 16:23:49.84	347.48	9.63	-83.1	-79.0	2.3	0.00e+00	0	49	104	0	60	1048571
2026-01-17 16:23:50.85	347.37	9.54	-83.5	-79.0	2.4	0.00e+00	0	49	104	0	60	1048575
2026-01-17 16:23:51.85	347.26	9.44	-83.5	-79.0	2.3	0.00e+00	0	49	104	0	60	1048573
2026-01-17 16:23:52.86	347.15	9.35	-83.1	-79.0	2.4	0.00e+00	0	49	104	0	60	1048575
2026-01-17 16:23:53.87	347.04	9.26	-83.5	-79.0	2.4	0.00e+00	0	49	104	0	60	1048573
2026-01-17 16:23:54.88	346.94	9.17	-83.1	-79.0	2.4	0.00e+00	0	49	104	0	60	1048574
2026-01-17 16:23:55.88	346.83	9.08	-83.5	-79.0	2.4	0.00e+00	0	49	104	0	60	1048574
2026-01-17 16:23:56.89	346.73	8.99	-83.5	-79.0	2.3	0.00e+00	0	49	104	0	60	1048573
2026-01-17 16:23:57.89	346.63	8.90	-83.5	-79.0	2.3	0.00e+00	0	49	104	0	60	1048573
2026-01-17 16:23:58.89	346.52	8.81	-82.8	-79.0	2.4	0.00e+00	0	49	104	0	60	1048574
2026-01-17 16:23:59.90	346.42	8.72	-83.1	-79.0	2.5	0.00e+00	0	49	104	0	60	1048575
2026-01-17 16:24:00.90	346.32	8.63	-83.5	-79.0	2.5	0.00e+00	0	49	104	0	60	1048571
2026-01-17 16:24:01.90	346.22	8.55	-83.5	-79.0	2.4	0.00e+00	0	49	104	0	60	1048573
2026-01-17 16:24:02.91	346.12	8.46	-83.5	-79.0	2.4	0.00e+00	0	49	104	0	60	1048573
2026-01-17 16:24:03.91	346.02	8.37	-82.8	-79.0	2.4	0.00e+00	0	49	104	0	60	1048573
2026-01-17 16:24:04.91	345.93	8.28	-83.1	-79.0	2.4	0.00e+00	0	49	104	0	60	1048575
2026-01-17 16:24:05.92	345.83	8.20	-83.5	-79.0	2.4	0.00e+00	0	49	104	0	60	1048574
2026-01-17 16:24:06.93	345.73	8.11	-83.5	-79.0	2.4	0.00e+00	0	49	104	0	60	1048570
2026-01-17 16:24:07.93	345.64	8.02	-83.5	-79.0	2.4	0.00e+00	0	49	104	0	60	1048574
2026-01-17 16:24:08.93	345.54	7.94	-82.8	-79.0	2.5	0.00e+00	0	49	104	0	60	1048571
2026-01-17 16:24:09.94	345.45	7.85	-82.8	-79.0	2.5	0.00e+00	0	49	104	0	60	1048575
2026-01-17 16:24:10.95	345.35	7.77	-83.5	-79.0	2.5	0.00e+00	0	49	104	0	60	1048565
2026-01-17 16:24:11.96	345.26	7.68	-83.5	-79.0	2.3	0.00e+00	0	49	104	0	60	1048575
2026-01-17 16:24:12.96	345.17	7.60	-83.1	-79.0	2.3	0.00e+00	0	49	104	0	60	1048575
2026-01-17 16:24:13.97	345.08	7.51	-83.1	-79.0	2.4	0.00e+00	0	49	104	0	60	1048574
2026-01-17 16:24:14.97	344.99	7.43	-83.5	-79.0	2.4	0.00e+00	0	49	104	0	60	1048574
2026-01-17 16:24:15.98	344.90	7.34	-83.1	-79.0	2.4	0.00e+00	0	49	104	0	60	1048574
2026-01-17 16:24:16.99	344.81	7.26	-83.5	-79.0	2.4	0.00e+00	0	49	104	0	60	1048571
2026-01-17 16:24:17.99	344.72	7.18	-83.5	-79.0	2.4	0.00e+00	0	49	104	0	60	1048574
2026-01-17 16:24:19.00	344.63	7.09	-83.5	-79.0	2.4	0.00e+00	0	49	104	0	60	1048575
2026-01-17 16:24:20.01	344.54	7.01	-83.5	-79.0	2.4	0.00e+00	0	49	104	0	60	1048565
2026-01-17 16:24:21.01	344.46	6.93	-83.5	-79.0	2.4	0.00e+00	0	49	104	0	60	1048571
2026-01-17 16:24:22.02	344.37	6.85	-83.5	-79.0	2.4	0.00e+00	0	49	104	0	60	1048574
2026-01-17 16:24:23.03	344.28	6.76	-83.1	-79.0	2.6	0.00e+00	0	49	104	0	60	1048571
2026-01-17 16:24:24.04	344.20	6.68	-83.5	-79.0	2.4	0.00e+00	0	49	104	0	60	1048574
2026-01-17 16:24:25.04	344.11	6.60	-83.5	-79.0	2.4	0.00e+00	0	49	104	0	60	1048575
2026-01-17 16:24:26.05	344.03	6.52	-83.5	-79.0	2.3	0.00e+00	0	49	104	0	60	1048575
2026-01-17 16:24:27.05	343.95	6.44	-83.5	-79.0	2.4	0.00e+00	0	49	104	0	60	1048575
2026-01-17 16:24:28.06	343.87	6.36	-82.8	-79.0	2.5	0.00e+00	0	49	104	0	60	1048575
2026-01-17 16:24:29.07	343.78	6.28	-83.1	-79.0	2.4	0.00e+00	0	49	104	0	60	1048573
2026-01-17 16:24:30.08	343.70	6.20	-83.5	-79.0	2.4	0.00e+00	0	49	104	0	60	1048565
2026-01-17 16:24:31.08	343.62	6.12	-83.5	-79.0	2.4	0.00e+00	0	49	104	0	60	1048574
2026-01-17 16:24:32.09	343.54	6.04	-83.1	-79.0	2.4	0.00e+00	0	49	104	0	60	1048572
2026-01-17 16:24:33.09	343.46	5.96	-82.8	-79.0	2.4	0.00e+00	0	49	104	0	60	1048571
2026-01-17 16:24:34.09	343.38	5.88	-83.5	-79.0	2.3	0.00e+00	0	49	104	0	60	1048572
2026-01-17 16:24:35.09	343.31	5.81	-83.5	-79.0	2.3	0.00e+00	0	49	104	0	60	1048572
2026-01-17 16:24:36.10	343.23	5.73	-83.5	-79.0	2.4	0.00e+00	0	49	104	0	60	1048575
2026-01-17 16:24:37.11	343.15	5.65	-82.8	-79.0	2.5	0.00e+00	0	49	104	0	60	1048573
2026-01-17 16:24:38.11	343.07	5.57	-83.1	-79.0	2.4	0.00e+00	0	49	104	0	60	1048573
2026-01-17 16:24:39.12	343.00	5.49	-83.5	-79.0	2.5	0.00e+00	0	49	104	0	60	1048572
2026-01-17 16:24:40.13	342.92	5.42	-83.5	-79.0	2.3	0.00e+00	0	49	104	0	60	1048575
2026-01-17 16:24:41.13	342.85	5.34	-83.5	-79.0	2.4	0.00e+00	0	49	104	0	60	1048575
2026-01-17 16:24:42.14	342.77	5.26	-83.1	-79.0	2.4	0.00e+00	0	49	104	0	60	1048572
2026-01-17 16:24:43.15	342.70	5.19	-83.5	-79.0	2.5	0.00e+00	0	49	104	0	60	1048566
2026-01-17 16:24:44.16	342.62	5.11	-83.5	-79.0	2.4	0.00e+00	0	49	104	0	60	1048563
2026-01-17 16:24:45.17	342.55	5.04	-83.5	-79.0	2.4	0.00e+00	0	49	104	0	60	1048561
2026-01-17 16:24:46.17	342.48	4.96	-83.1	-79.0	2.3	0.00e+00	0	49	104	0	60	1048574
2026-01-17 16:24:47.18	342.40	4.88	-83.1	-79.0	2.4	0.00e+00	0	49	104	0	60	1048573
2026-01-17 16:24:48.19	342.33	4.81	-83.1	-79.0	2.4	0.00e+00	0	49	104	0	60	1048574
2026-01-17 16:24:49.19	342.26	4.73	-83.1	-79.0	2.4	0.00e+00	0	49	104	0	60	1048572
2026-01-17 16:24:50.20	342.19	4.66	-83.5	-79.0	2.4	0.00e+00	0	49	104	0	60	1048570
2026-01-17 16:24:51.20	342.12	4.59	-83.1	-79.0	2.3	0.00e+00	0	49	104	0	60	1048573
2026-01-17 16:24:52.21	342.05	4.51	-83.1	-79.0	2.5	0.00e+00	0	49	104	0	60	1048574
2026-01-17 16:24:53.21	341.98	4.44	-83.5	-79.0	2.3	0.00e+00	0	49	104	0	60	1048570
2026-01-17 16:24:54.21	341.91	4.36	-83.5	-79.0	2.5	0.00e+00	0	49	104	0	60	1048573
2026-01-17 16:24:55.22	341.84	4.29	-83.5	-79.0	2.4	0.00e+00	0	49	104	0	60	1048570
2026-01-17 16:24:56.23	341.78	4.22	-82.8	-79.0	2.4	0.00e+00	0	49	104	0	60	1048572
2026-01-17 16:24:57.23	341.71	4.14	-83.1	-79.0	2.3	0.00e+00	0	49	104	0	60	1048572
2026-01-17 16:24:58.24	341.64	4.07	-83.5	-79.0	2.3	0.00e+00	0	49	104	0	60	1048567
2026-01-17 16:24:59.25	341.58	4.00	-83.5	-79.0	2.4	0.00e+00	0	49	104	0	60	1048575
2026-01-17 16:25:00.26	341.51	3.93	-83.5	-79.0	2.5	0.00e+00	0	49	104	0	60	1048575
2026-01-17 16:25:01.26	341.44	3.85	-83.1	-79.0	2.4	0.00e+00	0	49	104	0	60	1048572
2026-01-17 16:25:02.27	341.38	3.78	-83.1	-79.0	2.3	0.00e+00	0	49	104	0	60	1048570
2026-01-17 16:25:03.27	341.31	3.71	-83.5	-79.0	2.4	0.00e+00	0	49	104	0	60	1048570
2026-01-17 16:25:04.27	341.25	3.64	-83.5	-79.0	2.4	0.00e+00	0	49	104	0	60	1048575
2026-01-17 16:25:05.28	341.19	3.57	-83.1	-79.0	2.3	0.00e+00	0	49	104	0	60	1048575
2026-01-17 16:25:06.29	341.12	3.50	-82.8	-79.0	2.4	0.00e+00	0	49	104	0	60	1048571
2026-01-17 16:25:07.29	341.06	3.43	-83.1	-79.0	2.4	0.00e+00	0	49	104	0	60	1048575
2026-01-17 16:25:08.30	341.00	3.36	-83.5	-79.0	2.3	0.00e+00	0	49	104	0	60	1048575
2026-01-17 16:25:09.31	340.93	3.29	-83.1	-79.0	2.4	0.00e+00	0	49	104	0	60	1048575
2026-01-17 16:25:10.31	340.87	3.22	-83.1	-79.0	2.3	0.00e+00	0	49	104	0	60	1048573
2026-01-17 16:25:11.31	340.81	3.15	-83.1	-79.0	2.4	0.00e+00	0	49	104	0	60	1048575
2026-01-17 16:25:12.32	340.75	3.08	-83.5	-79.0	2.5	0.00e+00	0	49	104	0	60	1048567
2026-01-17 16:25:13.33	340.69	3.01	-83.5	-79.0	2.4	0.00e+00	0	49	104	0	60	1048574
2026-01-17 16:25:14.33	340.63	2.94	-83.1	-79.0	2.5	0.00e+00	0	49	104	0	60	1048572
2026-01-17 16:25:15.33	340.57	2.87	-83.1	-79.0	2.5	0.00e+00	0	49	104	0	60	1048573
2026-01-17 16:25:16.34	340.51	2.80	-83.1	-79.0	2.3	0.00e+00	0	49	104	0	60	1048575
2026-01-17 16:25:17.35	340.45	2.73	-83.5	-79.0	2.4	0.00e+00	0	49	104	0	60	1048571
2026-01-17 16:25:18.36	340.39	2.66	-83.5	-79.0	2.4	0.00e+00	0	49	104	0	60	1048574
2026-01-17 16:25:19.36	340.33	2.59	-83.5	-79.0	2.4	0.00e+00	0	49	104	0	60	1048571
2026-01-17 16:25:20.37	340.27	2.53	-83.1	-79.0	2.4	0.00e+00	0	49	104	0	60	1048575
2026-01-17 16:25:21.37	340.22	2.46	-83.5	-79.0	2.4	0.00e+00	0	49	104	0	60	1048575
2026-01-17 16:25:22.38	340.16	2.39	-83.5	-79.0	2.4	0.00e+00	0	49	104	0	60	1048567
2026-01-17 16:25:23.39	340.10	2.32	-83.5	-79.0	2.4	0.00e+00	0	49	104	0	60	1048572
2026-01-17 16:25:24.39	340.05	2.25	-83.1	-79.0	2.3	0.00e+00	0	49	104	0	60	1048568
2026-01-17 16:25:25.39	339.99	2.19	-83.1	-79.0	2.4	0.00e+00	0	49	104	0	60	1048573
2026-01-17 16:25:26.40	339.93	2.12	-83.5	-79.0	2.4	0.00e+00	0	49	104	0	60	1048575
2026-01-17 16:25:27.41	339.88	2.05	-83.5	-79.0	2.4	0.00e+00	0	49	104	0	60	1048574
2026-01-17 16:25:28.41	339.82	1.99	-83.5	-79.0	2.3	0.00e+00	0	49	104	0	60	1048575
2026-01-17 16:25:29.42	339.77	1.92	-83.1	-79.0	2.4	0.00e+00	0	49	104	0	60	1048574
2026-01-17 16:25:30.43	339.71	1.85	-83.1	-79.0	2.5	0.00e+00	0	49	104	0	60	1048571
2026-01-17 16:25:31.43	339.66	1.79	-83.5	-79.0	2.3	0.00e+00	0	49	104	0	60	1048573
2026-01-17 16:25:32.44	339.60	1.72	-83.5	-79.0	2.4	0.00e+00	0	49	104	0	60	1048571
2026-01-17 16:25:33.45	339.55	1.66	-83.5	-79.0	2.4	0.00e+00	0	49	104	0	60	1048575
2026-01-17 16:25:34.46	339.50	1.59	-83.1	-79.0	2.4	0.00e+00	0	49	104	0	60	1048574
2026-01-17 16:25:35.47	339.44	1.52	-83.5	-79.0	2.4	0.00e+00	0	49	104	0	60	1048575
2026-01-17 16:25:36.48	339.39	1.46	-83.5	-79.0	2.4	0.00e+00	0	49	104	0	60	1048569
2026-01-17 16:25:37.48	339.34	1.39	-83.5	-79.0	2.4	0.00e+00	0	49	104	0	60	1048570
2026-01-17 16:25:38.49	339.29	1.33	-83.1	-79.0	2.5	0.00e+00	0	49	104	0	60	1048575
2026-01-17 16:25:39.50	339.23	1.26	-82.8	-79.0	2.3	0.00e+00	0	49	104	0	60	1048574
2026-01-17 16:25:40.50	339.18	1.20	-83.5	-79.0	2.4	0.00e+00	0	49	104	0	60	1048570
2026-01-17 16:25:41.51	339.13	1.13	-83.5	-79.0	2.4	0.00e+00	0	49	104	0	60	1048573
2026-01-17 16:25:42.52	339.08	1.07	-83.5	-79.0	2.5	0.00e+00	0	49	104	0	60	1048571
2026-01-17 16:25:43.53	339.03	1.01	-83.1	-79.0	2.4	0.00e+00	0	49	104	0	60	1048573
2026-01-17 16:25:44.53	338.98	0.94	-83.1	-79.0	2.4	0.00e+00	0	49	104	0	60	1048575
2026-01-17 16:25:45.54	338.93	0.88	-83.5	-79.0	2.4	0.00e+00	0	49	104	0	60	1048572
2026-01-17 16:25:46.55	338.88	0.81	-83.5	-79.0	2.5	0.00e+00	0	49	104	0	60	1048575
2026-01-17 16:25:47.56	338.83	0.75	-83.5	-79.0	2.3	0.00e+00	0	49	104	0	60	1048572
2026-01-17 16:25:48.56	338.78	0.69	-82.8	-79.0	2.3	0.00e+00	0	49	104	0	60	1048573
2026-01-17 16:25:49.57	338.73	0.62	-83.1	-79.0	2.5	0.00e+00	0	49	104	0	60	1048563
2026-01-17 16:25:50.58	338.69	0.56	-83.5	-79.0	2.4	0.00e+00	0	49	104	0	60	1048574
2026-01-17 16:25:51.59	338.64	0.50	-83.5	-79.0	2.4	0.00e+00	0	49	104	0	60	1048575
2026-01-17 16:25:52.59	338.59	0.44	-83.1	-79.0	2.4	0.00e+00	0	49	104	0	60	1048575
2026-01-17 16:25:53.60	338.54	0.37	-83.1	-79.0	2.3	0.00e+00	0	49	104	0	60	1048574
2026-01-17 16:25:54.61	338.49	0.31	-83.1	-79.0	2.4	0.00e+00	0	49	104	0	60	1048575
2026-01-17 16:25:55.62	338.45	0.25	-83.5	-79.0	2.5	0.00e+00	0	49	104	0	60	1048573
2026-01-17 16:25:56.63	338.40	0.19	-83.5	-79.0	2.5	0.00e+00	0	49	104	0	60	1048574
2026-01-17 16:25:57.63	338.35	0.12	-83.5	-79.0	2.5	0.00e+00	0	49	104	0	60	1048573
2026-01-17 16:25:58.64	338.31	0.06	-83.1	-79.0	2.4	0.00e+00	0	49	104	0	60	1048574
2026-01-17 16:25:59.64	338.26	0.00	-83.5	-79.0	2.4	0.00e+00	0	49	104	0	60	1048573
2026-01-17 16:26:00.65	338.22	-0.06	-83.5	-79.0	2.4	0.00e+00	0	49	104	0	60	1048575

#Closed at: 2026-01-17 16:26:01
#Recorded file [0 MB]: D:/Data/35015_260117_191453.dat