passes_logs/2026/01/17/R3.2S-Naryan-Mar/R3.2S-Naryan-Mar__20260117_145437_FENGYUN_3E_rec.log

#Pass ID: 20260117_145437_FENGYUN 3E
#Satellite: FENGYUN 3E
#Configuration: FENGYUN 3E
#almurnet v.1.7.20240730
#Start time: 2026-01-17 14:57:57

#Version: 2.2.20231116
#Station: R3.2S-Naryan-Mar
#Location: 53.008057 lon 67.646978 lat
#TLE: 1 49008U 21062A   26016.55599566  .00000255  00000+0  14071-3 0  9994
#TLE: 2 49008  98.7485  21.6664 0002094 134.5344 225.6004 14.19886148235063

#Time	Az	El	Level	Level2	SNR	BER	BlckErr	Temp	State	Recorded	gain1	gain2
2026-01-17 14:57:57.94	230.10	11.78	-83.5	-79.0	2.4	0.00e+00	0	48	0	0	60	1048573
2026-01-17 14:57:58.94	230.24	11.85	-84.7	-88.6	2.4	8.15e-01	0	49	104	0	60	1048570
2026-01-17 14:57:59.94	230.38	11.91	-84.7	-88.6	2.8	7.68e-01	0	49	104	0	60	1048575
2026-01-17 14:58:00.95	230.52	11.98	-84.7	-88.6	3.5	7.77e-01	0	49	104	0	60	1048574
2026-01-17 14:58:01.96	230.66	12.04	-84.7	-88.6	2.7	7.75e-01	0	49	104	0	60	1048575
2026-01-17 14:58:02.97	230.80	12.11	-84.7	-88.6	3.2	7.78e-01	0	48	104	0	60	1048570
2026-01-17 14:58:03.98	230.94	12.18	-84.7	-88.6	2.8	7.77e-01	0	48	104	0	60	1048575
2026-01-17 14:58:04.98	231.08	12.24	-84.7	-88.6	2.8	7.74e-01	0	49	104	0	60	1048574
2026-01-17 14:58:05.99	231.23	12.31	-84.7	-88.6	3.1	7.77e-01	0	48	104	0	60	1048571
2026-01-17 14:58:07.00	231.37	12.37	-84.7	-88.6	3.5	7.76e-01	0	48	104	0	60	1048572
2026-01-17 14:58:08.01	231.52	12.44	-84.7	-88.6	2.9	7.76e-01	0	49	104	0	60	1048575
2026-01-17 14:58:09.01	231.66	12.50	-84.7	-88.6	3.3	7.77e-01	0	48	104	0	60	1048574
2026-01-17 14:58:10.02	231.81	12.57	-84.7	-88.6	3.1	7.77e-01	0	48	104	0	60	1048568
2026-01-17 14:58:11.03	231.96	12.63	-84.7	-88.6	1.7	7.76e-01	0	48	104	0	60	1048575
2026-01-17 14:58:12.03	232.10	12.70	-84.7	-88.6	2.4	7.74e-01	0	48	104	0	60	1048574
2026-01-17 14:58:13.04	232.25	12.76	-84.7	-88.6	3.0	7.77e-01	0	48	104	0	60	1048574
2026-01-17 14:58:14.05	232.40	12.83	-84.7	-88.6	2.8	7.78e-01	0	49	104	0	60	1048564
2026-01-17 14:58:15.06	232.55	12.90	-84.7	-88.6	2.9	7.77e-01	0	48	104	0	60	1048575
2026-01-17 14:58:16.06	232.70	12.96	-84.7	-88.6	3.1	7.77e-01	0	48	104	0	60	1048574
2026-01-17 14:58:17.07	232.85	13.03	-84.7	-88.6	3.1	7.77e-01	0	49	104	0	60	1048573
2026-01-17 14:58:18.07	233.00	13.09	-84.7	-88.6	3.0	7.77e-01	0	48	104	0	60	1048574
2026-01-17 14:58:19.08	233.15	13.16	-84.7	-88.6	2.9	7.76e-01	0	48	104	0	60	1048571
2026-01-17 14:58:20.09	233.30	13.22	-84.7	-88.6	2.9	7.77e-01	0	48	104	0	60	1048571
2026-01-17 14:58:21.10	233.46	13.29	-84.7	-88.6	2.9	7.77e-01	0	48	104	0	60	1048572
2026-01-17 14:58:22.11	233.61	13.36	-84.7	-88.6	2.8	7.77e-01	0	49	104	0	60	1048566
2026-01-17 14:58:23.11	233.76	13.42	-84.7	-88.6	2.9	7.78e-01	0	48	104	0	60	1048575
2026-01-17 14:58:24.12	233.92	13.49	-84.7	-88.6	3.1	7.78e-01	0	48	104	0	60	1048575
2026-01-17 14:58:25.13	234.07	13.55	-84.7	-88.6	2.5	7.77e-01	0	48	104	0	60	1048568
2026-01-17 14:58:26.13	234.23	13.62	-84.7	-88.6	2.8	7.77e-01	0	48	104	0	60	1048575
2026-01-17 14:58:27.14	234.39	13.68	-84.7	-88.6	2.8	7.76e-01	0	48	104	0	60	1048572
2026-01-17 14:58:28.15	234.55	13.75	-84.7	-88.6	2.7	7.77e-01	0	48	104	0	60	1048573
2026-01-17 14:58:29.15	234.70	13.81	-84.7	-88.6	3.0	7.76e-01	0	48	104	0	60	1048574
2026-01-17 14:58:30.15	234.86	13.88	-84.7	-88.6	3.1	7.76e-01	0	48	104	0	60	1048572
2026-01-17 14:58:31.16	235.02	13.94	-84.7	-88.6	3.6	7.76e-01	0	48	104	0	60	1048575
2026-01-17 14:58:32.17	235.18	14.01	-84.7	-88.6	3.3	7.77e-01	0	48	104	0	60	1048572
2026-01-17 14:58:33.17	235.34	14.07	-84.7	-88.6	3.1	7.75e-01	0	48	104	0	60	1048574
2026-01-17 14:58:34.18	235.50	14.14	-84.7	-88.6	3.0	7.75e-01	0	48	104	0	60	1048571
2026-01-17 14:58:35.19	235.67	14.21	-84.7	-88.6	2.5	7.75e-01	0	48	104	0	60	1048575
2026-01-17 14:58:36.20	235.83	14.27	-84.7	-88.6	3.0	7.78e-01	0	48	104	0	60	1048575
2026-01-17 14:58:37.21	235.99	14.34	-84.7	-88.6	2.9	7.77e-01	0	48	104	0	60	1048571
2026-01-17 14:58:38.21	236.16	14.40	-84.7	-88.6	3.3	7.76e-01	0	48	104	0	60	1048565
2026-01-17 14:58:39.22	236.32	14.47	-84.7	-88.6	3.0	7.77e-01	0	48	104	0	60	1048574
2026-01-17 14:58:40.23	236.49	14.53	-84.7	-88.6	2.9	7.77e-01	0	48	104	0	60	1048572
2026-01-17 14:58:41.24	236.66	14.60	-84.7	-88.6	3.2	7.76e-01	0	48	104	0	60	1048571
2026-01-17 14:58:42.24	236.82	14.66	-84.7	-88.6	2.8	7.78e-01	0	48	104	0	60	1048572
2026-01-17 14:58:43.25	236.99	14.73	-84.7	-88.6	2.9	7.77e-01	0	48	104	0	60	1048569
2026-01-17 14:58:44.25	237.16	14.79	-84.7	-88.6	2.8	7.76e-01	0	48	104	0	60	1048575
2026-01-17 14:58:45.26	237.33	14.86	-84.7	-88.6	3.3	7.76e-01	0	48	104	0	60	1048572
2026-01-17 14:58:46.26	237.50	14.92	-84.7	-88.6	3.1	7.76e-01	0	48	104	0	60	1048573
2026-01-17 14:58:47.26	237.67	14.98	-84.7	-88.6	2.4	7.77e-01	0	48	104	0	60	1048574
2026-01-17 14:58:48.27	237.84	15.05	-84.7	-88.6	3.0	7.77e-01	0	48	104	0	60	1048575
2026-01-17 14:58:49.27	238.01	15.11	-84.7	-88.6	3.5	7.75e-01	0	48	104	0	60	1048575
2026-01-17 14:58:50.28	238.18	15.18	-84.7	-88.6	2.6	7.76e-01	0	48	104	0	60	1048568
2026-01-17 14:58:51.29	238.36	15.24	-84.7	-88.6	3.0	7.77e-01	0	48	104	0	60	1048575
2026-01-17 14:58:52.30	238.53	15.31	-84.7	-88.6	3.0	7.76e-01	0	48	104	0	60	1048573
2026-01-17 14:58:53.31	238.71	15.37	-84.7	-88.6	3.0	7.76e-01	0	48	104	0	60	1048571
2026-01-17 14:58:54.31	238.88	15.43	-84.7	-88.6	3.5	7.76e-01	0	48	104	0	60	1048574
2026-01-17 14:58:55.32	239.06	15.50	-84.7	-88.6	2.8	7.75e-01	0	48	104	0	60	1048575
2026-01-17 14:58:56.33	239.24	15.56	-84.7	-88.6	3.0	7.76e-01	0	48	104	0	60	1048573
2026-01-17 14:58:57.33	239.41	15.63	-84.7	-88.6	3.3	7.76e-01	0	48	104	0	60	1048574
2026-01-17 14:58:58.34	239.59	15.69	-84.7	-88.6	2.9	7.77e-01	0	48	104	0	60	1048571
2026-01-17 14:58:59.35	239.77	15.75	-84.7	-88.6	2.9	7.76e-01	0	48	104	0	60	1048572
2026-01-17 14:59:00.35	239.95	15.82	-84.7	-88.6	2.9	7.76e-01	0	48	104	0	60	1048573
2026-01-17 14:59:01.36	240.13	15.88	-84.7	-88.6	3.0	7.76e-01	0	48	104	0	60	1048569
2026-01-17 14:59:02.37	240.32	15.95	-84.7	-88.6	3.3	7.77e-01	0	48	104	0	60	1048569
2026-01-17 14:59:03.36	240.50	16.01	-84.7	-88.6	3.2	7.77e-01	0	48	104	0	60	1048574
2026-01-17 14:59:04.36	240.68	16.07	-84.7	-88.6	2.5	7.76e-01	0	48	104	0	60	1048567
2026-01-17 14:59:05.37	240.86	16.13	-84.7	-88.6	3.0	7.75e-01	0	48	104	0	60	1048575
2026-01-17 14:59:06.37	241.05	16.20	-84.7	-88.6	2.8	7.77e-01	0	48	104	0	60	1048575
2026-01-17 14:59:07.38	241.23	16.26	-84.7	-88.6	3.0	7.77e-01	0	48	104	0	60	1048575
2026-01-17 14:59:08.38	241.42	16.32	-84.7	-88.6	3.0	7.78e-01	0	48	104	0	60	1048573
2026-01-17 14:59:09.39	241.60	16.38	-84.7	-88.6	3.0	7.77e-01	0	48	104	0	60	1048573
2026-01-17 14:59:10.39	241.79	16.45	-84.7	-88.6	3.0	7.75e-01	0	48	104	0	60	1048575
2026-01-17 14:59:11.40	241.98	16.51	-84.7	-88.6	3.2	7.77e-01	0	48	104	0	60	1048574
2026-01-17 14:59:12.40	242.17	16.57	-84.7	-88.6	2.9	7.77e-01	0	48	104	0	60	1048575
2026-01-17 14:59:13.41	242.36	16.63	-84.7	-88.6	2.5	7.73e-01	0	48	104	0	60	1048573
2026-01-17 14:59:14.42	242.55	16.69	-84.7	-88.6	2.9	7.76e-01	0	48	104	0	60	1048575
2026-01-17 14:59:15.43	242.74	16.76	-84.7	-88.6	2.9	7.77e-01	0	48	104	0	60	1048575
2026-01-17 14:59:16.43	242.93	16.82	-84.7	-88.6	3.0	7.76e-01	0	48	104	0	60	1048575
2026-01-17 14:59:17.44	243.13	16.88	-84.7	-88.6	3.1	7.76e-01	0	48	104	0	60	1048574
2026-01-17 14:59:18.45	243.32	16.94	-84.7	-88.6	2.7	7.77e-01	0	48	104	0	60	1048572
2026-01-17 14:59:19.45	243.51	17.00	-84.7	-88.6	2.7	7.76e-01	0	48	104	0	60	1048568
2026-01-17 14:59:20.46	243.71	17.06	-84.7	-88.6	2.9	7.77e-01	0	48	104	0	60	1048574
2026-01-17 14:59:21.47	243.91	17.12	-84.7	-88.6	2.7	7.77e-01	0	48	104	0	60	1048575
2026-01-17 14:59:22.48	244.11	17.19	-84.7	-88.6	3.0	7.76e-01	0	48	104	0	60	1048575
2026-01-17 14:59:23.49	244.30	17.25	-84.7	-88.6	2.9	7.78e-01	0	48	104	0	60	1048574
2026-01-17 14:59:24.50	244.50	17.31	-84.7	-88.6	3.5	7.75e-01	0	48	104	0	60	1048573
2026-01-17 14:59:25.50	244.70	17.37	-84.7	-88.6	2.9	7.77e-01	0	48	104	0	60	1048571
2026-01-17 14:59:26.51	244.90	17.43	-84.7	-88.6	3.0	7.77e-01	0	48	104	0	60	1048568
2026-01-17 14:59:27.52	245.10	17.49	-84.7	-88.6	3.0	7.76e-01	0	48	104	0	60	1048571
2026-01-17 14:59:28.52	245.30	17.55	-84.7	-88.6	2.8	7.78e-01	0	48	104	0	60	1048575
2026-01-17 14:59:29.53	245.51	17.61	-84.7	-88.6	3.0	7.77e-01	0	48	104	0	60	1048574
2026-01-17 14:59:30.53	245.71	17.66	-84.7	-88.6	2.8	7.77e-01	0	48	104	0	60	1048570
2026-01-17 14:59:31.54	245.91	17.72	-84.7	-88.6	2.7	7.75e-01	0	48	104	0	60	1048571
2026-01-17 14:59:32.55	246.12	17.78	-84.7	-88.6	2.6	7.78e-01	0	48	104	0	60	1048570
2026-01-17 14:59:33.56	246.32	17.84	-84.7	-88.6	3.6	7.77e-01	0	48	104	0	60	1048572
2026-01-17 14:59:34.56	246.53	17.90	-84.7	-88.6	3.2	7.76e-01	0	48	104	0	60	1048572
2026-01-17 14:59:35.56	246.73	17.96	-84.7	-88.6	3.2	7.77e-01	0	48	104	0	60	1048575
2026-01-17 14:59:36.57	246.94	18.01	-84.7	-88.6	3.2	7.77e-01	0	48	104	0	60	1048573
2026-01-17 14:59:37.57	247.15	18.07	-84.7	-88.6	2.7	7.74e-01	0	48	104	0	60	1048575
2026-01-17 14:59:38.58	247.36	18.13	-84.7	-88.6	2.9	7.77e-01	0	48	104	0	60	1048569
2026-01-17 14:59:39.59	247.57	18.19	-84.7	-88.6	3.5	7.78e-01	0	48	104	0	60	1048575
2026-01-17 14:59:40.59	247.78	18.24	-84.7	-88.6	3.4	7.78e-01	0	48	104	0	60	1048574
2026-01-17 14:59:41.60	247.99	18.30	-84.7	-88.6	3.1	7.77e-01	0	48	104	0	60	1048575
2026-01-17 14:59:42.61	248.20	18.36	-84.7	-88.6	3.2	7.75e-01	0	48	104	0	60	1048574
2026-01-17 14:59:43.62	248.42	18.41	-84.7	-88.6	3.1	7.77e-01	0	48	104	0	60	1048575
2026-01-17 14:59:44.63	248.63	18.47	-84.7	-88.6	2.8	7.75e-01	0	48	104	0	60	1048568
2026-01-17 14:59:45.63	248.85	18.52	-84.7	-88.6	3.5	7.76e-01	0	48	104	0	60	1048573
2026-01-17 14:59:46.64	249.06	18.58	-84.7	-88.6	2.9	7.77e-01	0	48	104	0	60	1048575
2026-01-17 14:59:47.65	249.28	18.64	-84.7	-88.6	2.8	7.76e-01	0	48	104	0	60	1048575
2026-01-17 14:59:48.65	249.49	18.69	-84.7	-88.6	3.3	7.77e-01	0	48	104	0	60	1048568
2026-01-17 14:59:49.66	249.71	18.75	-84.7	-88.6	2.8	7.78e-01	0	48	104	0	60	1048575
2026-01-17 14:59:50.67	249.93	18.80	-84.7	-88.6	2.4	7.75e-01	0	48	104	0	60	1048569
2026-01-17 14:59:51.68	250.15	18.85	-84.7	-88.6	3.0	7.77e-01	0	48	104	0	60	1048571
2026-01-17 14:59:52.69	250.37	18.91	-84.7	-88.6	3.0	7.76e-01	0	48	104	0	60	1048573
2026-01-17 14:59:53.69	250.59	18.96	-84.7	-88.6	2.4	7.77e-01	0	48	104	0	60	1048574
2026-01-17 14:59:54.70	250.81	19.01	-84.7	-88.6	2.7	7.76e-01	0	48	104	0	60	1048569
2026-01-17 14:59:55.70	251.03	19.07	-84.7	-88.6	3.2	7.77e-01	0	48	104	0	60	1048566
2026-01-17 14:59:56.71	251.26	19.12	-84.7	-88.6	3.0	7.77e-01	0	48	104	0	60	1048572
2026-01-17 14:59:57.72	251.48	19.17	-84.7	-88.6	3.0	7.76e-01	0	48	104	0	60	1048575
2026-01-17 14:59:58.73	251.71	19.22	-84.7	-88.6	3.0	7.76e-01	0	48	104	0	60	1048574
2026-01-17 14:59:59.74	251.93	19.28	-84.7	-88.6	2.8	7.77e-01	0	48	104	0	60	1048572
2026-01-17 15:00:00.75	252.16	19.33	-84.7	-88.6	3.1	7.77e-01	0	48	104	0	60	1048573
2026-01-17 15:00:01.75	252.38	19.38	-84.7	-88.6	2.9	7.77e-01	0	48	104	0	60	1048574
2026-01-17 15:00:02.76	252.61	19.43	-84.7	-88.6	3.0	7.77e-01	0	48	104	0	60	1048571
2026-01-17 15:00:03.77	252.84	19.48	-84.7	-88.6	3.0	7.78e-01	0	48	104	0	60	1048573
2026-01-17 15:00:04.78	253.07	19.53	-84.7	-88.6	2.4	7.77e-01	0	48	104	0	60	1048574
2026-01-17 15:00:05.79	253.30	19.58	-84.7	-88.6	2.7	7.74e-01	0	48	104	0	60	1048575
2026-01-17 15:00:06.80	253.53	19.63	-84.7	-88.6	2.9	7.75e-01	0	48	104	0	60	1048569
2026-01-17 15:00:07.80	253.76	19.68	-84.7	-88.6	3.1	7.78e-01	0	48	104	0	60	1048575
2026-01-17 15:00:08.80	253.99	19.72	-84.7	-88.6	2.8	7.76e-01	0	48	104	0	60	1048574
2026-01-17 15:00:09.81	254.22	19.77	-84.7	-88.6	2.9	7.78e-01	0	48	104	0	60	1048575
2026-01-17 15:00:10.81	254.46	19.82	-84.7	-88.6	2.9	7.77e-01	0	48	104	0	60	1048570
2026-01-17 15:00:11.82	254.69	19.87	-84.7	-88.6	2.8	7.77e-01	0	48	104	0	60	1048575
2026-01-17 15:00:12.83	254.93	19.92	-84.7	-88.6	2.8	7.77e-01	0	48	104	0	60	1048572
2026-01-17 15:00:13.83	255.16	19.96	-84.7	-88.6	2.8	7.76e-01	0	48	104	0	60	1048570
2026-01-17 15:00:14.84	255.40	20.01	-84.7	-88.6	3.1	7.77e-01	0	48	104	0	60	1048565
2026-01-17 15:00:15.85	255.63	20.05	-84.7	-88.6	2.7	7.75e-01	0	48	104	0	60	1048573
2026-01-17 15:00:16.85	255.87	20.10	-84.7	-88.6	3.0	7.77e-01	0	48	104	0	60	1048574
2026-01-17 15:00:17.86	256.11	20.14	-84.7	-88.6	2.8	7.76e-01	0	48	104	0	60	1048574
2026-01-17 15:00:18.87	256.35	20.19	-84.7	-88.6	3.5	7.76e-01	0	48	104	0	60	1048572
2026-01-17 15:00:19.88	256.59	20.23	-84.7	-88.6	2.9	7.77e-01	0	48	104	0	60	1048572
2026-01-17 15:00:20.89	256.83	20.28	-84.7	-88.6	2.6	7.77e-01	0	48	104	0	60	1048575
2026-01-17 15:00:21.89	257.07	20.32	-84.7	-88.6	3.0	7.75e-01	0	48	104	0	60	1048574
2026-01-17 15:00:22.90	257.31	20.36	-84.7	-88.6	2.6	7.76e-01	0	48	104	0	60	1048575
2026-01-17 15:00:23.90	257.55	20.41	-84.7	-88.6	2.9	7.73e-01	0	48	104	0	60	1048574
2026-01-17 15:00:24.91	257.79	20.45	-84.7	-88.6	3.5	7.77e-01	0	48	104	0	60	1048573
2026-01-17 15:00:25.92	258.04	20.49	-84.7	-88.6	2.9	7.77e-01	0	48	104	0	60	1048575
2026-01-17 15:00:26.92	258.28	20.53	-84.7	-88.6	3.3	7.78e-01	0	48	104	0	60	1048575
2026-01-17 15:00:27.93	258.53	20.57	-84.7	-88.6	2.9	7.77e-01	0	48	104	0	60	1048574
2026-01-17 15:00:28.92	258.77	20.61	-84.7	-88.6	3.1	7.77e-01	0	48	104	0	60	1048574
2026-01-17 15:00:29.93	259.01	20.65	-84.7	-88.6	2.8	7.77e-01	0	48	104	0	60	1048574
2026-01-17 15:00:30.94	259.26	20.69	-84.7	-88.6	3.0	7.77e-01	0	48	104	0	60	1048568
2026-01-17 15:00:31.94	259.51	20.73	-84.7	-88.6	3.1	7.76e-01	0	48	104	0	60	1048573
2026-01-17 15:00:32.95	259.75	20.77	-84.7	-88.6	3.5	7.78e-01	0	48	104	0	60	1048575
2026-01-17 15:00:33.96	260.00	20.81	-84.7	-88.6	3.3	7.76e-01	0	48	104	0	60	1048574
2026-01-17 15:00:34.97	260.25	20.84	-84.7	-88.6	3.3	7.77e-01	0	48	104	0	60	1048574
2026-01-17 15:00:35.98	260.50	20.88	-84.7	-88.6	3.1	7.77e-01	0	48	104	0	60	1048575
2026-01-17 15:00:36.99	260.75	20.92	-84.7	-88.6	3.0	7.77e-01	0	48	104	0	60	1048573
2026-01-17 15:00:38.00	261.00	20.95	-84.7	-88.6	2.7	7.78e-01	0	48	104	0	60	1048573
2026-01-17 15:00:39.01	261.26	20.99	-84.7	-88.6	3.2	7.76e-01	0	48	104	0	60	1048571
2026-01-17 15:00:40.01	261.51	21.02	-84.7	-88.6	3.1	7.76e-01	0	47	104	0	60	1048573
2026-01-17 15:00:41.02	261.76	21.06	-84.7	-88.6	2.9	7.77e-01	0	48	104	0	60	1048564
2026-01-17 15:00:42.03	262.01	21.09	-84.7	-88.6	2.9	7.77e-01	0	48	104	0	60	1048574
2026-01-17 15:00:43.03	262.26	21.13	-84.7	-88.6	3.0	7.77e-01	0	48	104	0	60	1048575
2026-01-17 15:00:44.04	262.52	21.16	-84.7	-88.6	3.2	7.77e-01	0	48	104	0	60	1048571
2026-01-17 15:00:45.05	262.77	21.19	-84.7	-88.6	2.8	7.77e-01	0	48	104	0	60	1048574
2026-01-17 15:00:46.06	263.03	21.22	-84.7	-88.6	2.8	7.75e-01	0	48	104	0	60	1048572
2026-01-17 15:00:47.06	263.28	21.25	-84.7	-88.6	2.8	7.76e-01	0	48	104	0	60	1048575
2026-01-17 15:00:48.07	263.54	21.29	-84.7	-88.6	3.4	7.76e-01	0	47	104	0	60	1048574
2026-01-17 15:00:49.08	263.80	21.32	-84.7	-88.6	2.5	7.75e-01	0	47	104	0	60	1048574
2026-01-17 15:00:50.09	264.05	21.35	-84.7	-88.6	3.6	7.74e-01	0	47	104	0	60	1048564
2026-01-17 15:00:51.09	264.31	21.37	-84.7	-88.6	2.9	7.77e-01	0	48	104	0	60	1048574
2026-01-17 15:00:52.10	264.57	21.40	-84.7	-88.6	2.9	7.77e-01	0	48	104	0	60	1048574
2026-01-17 15:00:53.11	264.83	21.43	-84.7	-88.6	2.8	7.76e-01	0	48	104	0	60	1048575
2026-01-17 15:00:54.12	265.09	21.46	-84.7	-88.6	3.0	7.76e-01	0	48	104	0	60	1048573
2026-01-17 15:00:55.12	265.34	21.49	-84.7	-88.6	3.6	7.77e-01	0	48	104	0	60	1048571
2026-01-17 15:00:56.13	265.60	21.51	-84.7	-88.6	2.9	7.77e-01	0	48	104	0	60	1048575
2026-01-17 15:00:57.13	265.86	21.54	-84.7	-88.6	3.1	7.76e-01	0	48	104	0	60	1048566
2026-01-17 15:00:58.14	266.12	21.56	-84.7	-88.6	2.4	7.76e-01	0	48	104	0	60	1048574
2026-01-17 15:00:59.14	266.38	21.59	-84.7	-88.6	3.1	7.77e-01	0	48	104	0	60	1048570
2026-01-17 15:01:00.15	266.65	21.61	-84.7	-88.6	2.9	7.78e-01	0	47	104	0	60	1048573
2026-01-17 15:01:01.16	266.91	21.64	-84.7	-88.6	3.3	7.76e-01	0	48	104	0	60	1048570
2026-01-17 15:01:02.17	267.17	21.66	-84.7	-88.6	3.1	7.77e-01	0	48	104	0	60	1048575
2026-01-17 15:01:03.17	267.43	21.68	-84.7	-88.6	2.9	7.77e-01	0	47	104	0	60	1048575
2026-01-17 15:01:04.18	267.69	21.70	-84.7	-88.6	2.8	7.78e-01	0	48	104	0	60	1048569
2026-01-17 15:01:05.19	267.96	21.73	-84.7	-88.6	3.0	7.76e-01	0	47	104	0	60	1048574
2026-01-17 15:01:06.20	268.22	21.75	-84.7	-88.6	2.9	7.76e-01	0	47	104	0	60	1048573
2026-01-17 15:01:07.20	268.48	21.77	-84.7	-88.6	2.9	7.77e-01	0	48	104	0	60	1048574
2026-01-17 15:01:08.21	268.75	21.79	-84.7	-88.6	2.8	7.77e-01	0	47	104	0	60	1048575
2026-01-17 15:01:09.22	269.02	21.81	-84.7	-88.6	3.6	7.78e-01	0	48	104	0	60	1048571
2026-01-17 15:01:10.23	269.28	21.82	-84.7	-88.6	3.2	7.76e-01	0	48	104	0	60	1048575
2026-01-17 15:01:11.23	269.54	21.84	-84.7	-88.6	2.9	7.76e-01	0	48	104	0	60	1048575
2026-01-17 15:01:12.24	269.81	21.86	-84.7	-88.6	3.3	7.77e-01	0	48	104	0	60	1048571
2026-01-17 15:01:13.25	270.08	21.88	-84.7	-88.6	2.6	7.77e-01	0	47	104	0	60	1048574
2026-01-17 15:01:14.26	270.34	21.89	-84.7	-88.6	3.0	7.72e-01	0	48	104	0	60	1048575
2026-01-17 15:01:15.27	270.61	21.91	-84.7	-88.6	3.0	7.77e-01	0	48	104	0	60	1048571
2026-01-17 15:01:16.27	270.87	21.92	-84.7	-88.6	2.8	7.77e-01	0	48	104	0	60	1048562
2026-01-17 15:01:17.28	271.14	21.94	-84.7	-88.6	2.9	7.77e-01	0	48	104	0	60	1048574
2026-01-17 15:01:18.29	271.41	21.95	-84.7	-88.6	3.2	7.77e-01	0	47	104	0	60	1048569
2026-01-17 15:01:19.29	271.67	21.96	-84.7	-88.6	3.0	7.77e-01	0	48	104	0	60	1048572
2026-01-17 15:01:20.30	271.94	21.97	-84.7	-88.6	3.0	7.77e-01	0	48	104	0	60	1048571
2026-01-17 15:01:21.31	272.21	21.99	-84.7	-88.6	3.1	7.77e-01	0	47	104	0	60	1048571
2026-01-17 15:01:22.32	272.48	22.00	-84.7	-88.6	3.1	7.76e-01	0	48	104	0	60	1048575
2026-01-17 15:01:23.32	272.75	22.01	-84.7	-88.6	3.0	7.77e-01	0	48	104	0	60	1048571
2026-01-17 15:01:24.33	273.01	22.02	-84.7	-88.6	3.2	7.77e-01	0	48	104	0	60	1048575
2026-01-17 15:01:25.34	273.28	22.03	-84.7	-88.6	3.5	7.75e-01	0	48	104	0	60	1048571
2026-01-17 15:01:26.35	273.55	22.03	-84.7	-88.6	2.9	7.76e-01	0	48	104	0	60	1048574
2026-01-17 15:01:27.35	273.82	22.04	-84.7	-88.6	2.6	7.79e-01	0	48	104	0	60	1048575
2026-01-17 15:01:28.36	274.09	22.05	-84.7	-88.6	2.5	7.76e-01	0	47	104	0	60	1048570
2026-01-17 15:01:29.36	274.36	22.06	-84.7	-88.6	3.1	7.76e-01	0	47	104	0	60	1048572
2026-01-17 15:01:30.36	274.62	22.06	-84.7	-88.6	2.9	7.75e-01	0	48	104	0	60	1048566
2026-01-17 15:01:31.37	274.89	22.07	-84.7	-88.6	2.6	7.78e-01	0	47	104	0	60	1048575
2026-01-17 15:01:32.37	275.16	22.07	-84.7	-88.6	3.4	7.70e-01	0	47	104	0	60	1048574
2026-01-17 15:01:33.38	275.43	22.08	-84.7	-88.6	2.5	7.77e-01	0	48	104	0	60	1048575
2026-01-17 15:01:34.39	275.70	22.08	-84.7	-88.6	2.6	7.77e-01	0	47	104	0	60	1048574
2026-01-17 15:01:35.40	275.97	22.08	-84.7	-88.6	3.0	7.77e-01	0	47	104	0	60	1048575
2026-01-17 15:01:36.41	276.24	22.08	-84.7	-88.6	2.7	7.76e-01	0	47	104	0	60	1048568
2026-01-17 15:01:37.41	276.51	22.09	-84.7	-88.6	3.0	7.77e-01	0	48	104	0	60	1048568
2026-01-17 15:01:38.42	276.78	22.09	-84.7	-88.6	3.2	7.75e-01	0	48	104	0	60	1048570
2026-01-17 15:01:39.43	277.05	22.09	-84.7	-88.6	2.9	7.76e-01	0	48	104	0	60	1048572
2026-01-17 15:01:40.44	277.32	22.09	-84.7	-88.6	3.6	7.77e-01	0	48	104	0	60	1048571
2026-01-17 15:01:41.44	277.58	22.09	-84.7	-88.6	3.1	7.77e-01	0	48	104	0	60	1048574
2026-01-17 15:01:42.45	277.85	22.08	-84.7	-88.6	3.4	7.77e-01	0	48	104	0	60	1048566
2026-01-17 15:01:43.45	278.12	22.08	-84.7	-88.6	2.6	7.75e-01	0	48	104	0	60	1048575
2026-01-17 15:01:44.46	278.39	22.08	-84.7	-88.6	2.7	7.76e-01	0	48	104	0	60	1048574
2026-01-17 15:01:45.47	278.66	22.08	-84.7	-88.6	3.2	7.79e-01	0	47	104	0	60	1048574
2026-01-17 15:01:46.48	278.93	22.07	-84.7	-88.6	2.6	7.76e-01	0	48	104	0	60	1048571
2026-01-17 15:01:47.48	279.20	22.07	-84.7	-88.6	2.6	7.73e-01	0	47	104	0	60	1048574
2026-01-17 15:01:48.49	279.47	22.06	-84.7	-88.6	3.0	7.75e-01	0	47	104	0	60	1048571
2026-01-17 15:01:49.49	279.73	22.05	-84.7	-88.6	3.4	7.77e-01	0	47	104	0	60	1048574
2026-01-17 15:01:50.49	280.00	22.05	-84.7	-88.6	3.3	7.77e-01	0	47	104	0	60	1048574
2026-01-17 15:01:51.49	280.27	22.04	-84.7	-88.6	3.1	7.77e-01	0	47	104	0	60	1048569
2026-01-17 15:01:52.50	280.54	22.03	-84.7	-88.6	3.0	7.77e-01	0	47	104	0	60	1048575
2026-01-17 15:01:53.50	280.80	22.02	-84.7	-88.6	3.0	7.76e-01	0	47	104	0	60	1048571
2026-01-17 15:01:54.51	281.07	22.01	-84.7	-88.6	3.2	7.77e-01	0	47	104	0	60	1048575
2026-01-17 15:01:55.51	281.34	22.00	-84.7	-88.6	3.5	7.78e-01	0	47	104	0	60	1048571
2026-01-17 15:01:56.52	281.60	21.99	-84.7	-88.6	3.2	7.76e-01	0	47	104	0	60	1048573
2026-01-17 15:01:57.52	281.87	21.98	-84.7	-88.6	3.4	7.76e-01	0	47	104	0	60	1048572
2026-01-17 15:01:58.53	282.14	21.97	-84.7	-88.6	3.0	7.76e-01	0	47	104	0	60	1048575
2026-01-17 15:01:59.53	282.40	21.96	-84.7	-88.6	3.2	7.76e-01	0	47	104	0	60	1048575
2026-01-17 15:02:00.54	282.67	21.95	-84.7	-88.6	3.5	7.76e-01	0	47	104	0	60	1048573
2026-01-17 15:02:01.55	282.94	21.93	-84.7	-88.6	3.0	7.77e-01	0	48	104	0	60	1048575
2026-01-17 15:02:02.56	283.21	21.92	-84.7	-88.6	3.3	7.75e-01	0	47	104	0	60	1048575
2026-01-17 15:02:03.56	283.47	21.90	-84.7	-88.6	3.3	7.74e-01	0	47	104	0	60	1048571
2026-01-17 15:02:04.57	283.74	21.89	-84.7	-88.6	3.4	7.77e-01	0	47	104	0	60	1048575
2026-01-17 15:02:05.57	284.00	21.87	-84.7	-88.6	3.0	7.77e-01	0	47	104	0	60	1048575
2026-01-17 15:02:06.57	284.26	21.86	-84.7	-88.6	2.9	7.77e-01	0	47	104	0	60	1048573
2026-01-17 15:02:07.58	284.53	21.84	-84.7	-88.6	2.9	7.77e-01	0	47	104	0	60	1048568
2026-01-17 15:02:08.59	284.80	21.82	-84.7	-88.6	3.0	7.77e-01	0	47	104	0	60	1048574
2026-01-17 15:02:09.59	285.06	21.80	-84.7	-88.6	3.0	7.77e-01	0	47	104	0	60	1048566
2026-01-17 15:02:10.60	285.32	21.78	-84.7	-88.6	3.4	7.76e-01	0	47	104	0	60	1048574
2026-01-17 15:02:11.61	285.59	21.76	-84.7	-88.6	3.1	7.77e-01	0	47	104	0	60	1048574
2026-01-17 15:02:12.61	285.85	21.74	-84.7	-88.6	3.0	7.78e-01	0	47	104	0	60	1048570
2026-01-17 15:02:13.62	286.11	21.72	-84.7	-88.6	3.0	7.77e-01	0	47	104	0	60	1048575
2026-01-17 15:02:14.63	286.38	21.70	-84.7	-88.6	2.5	7.77e-01	0	48	104	0	60	1048575
2026-01-17 15:02:15.63	286.64	21.68	-84.7	-88.6	2.8	7.75e-01	0	47	104	0	60	1048573
2026-01-17 15:02:16.64	286.90	21.66	-84.7	-88.6	3.0	7.76e-01	0	47	104	0	60	1048572
2026-01-17 15:02:17.64	287.16	21.63	-84.7	-88.6	2.9	7.77e-01	0	47	104	0	60	1048572
2026-01-17 15:02:18.65	287.42	21.61	-84.7	-88.6	3.3	7.77e-01	0	47	104	0	60	1048574
2026-01-17 15:02:19.65	287.68	21.59	-84.7	-88.6	3.5	7.78e-01	0	47	104	0	60	1048575
2026-01-17 15:02:20.66	287.94	21.56	-84.7	-88.6	3.1	7.77e-01	0	47	104	0	60	1048574
2026-01-17 15:02:21.67	288.20	21.54	-84.7	-88.6	3.1	7.76e-01	0	47	104	0	60	1048575
2026-01-17 15:02:22.67	288.46	21.51	-84.7	-88.6	3.0	7.76e-01	0	47	104	0	60	1048572
2026-01-17 15:02:23.68	288.72	21.48	-84.7	-88.6	2.9	7.77e-01	0	47	104	0	60	1048573
2026-01-17 15:02:24.68	288.98	21.46	-84.7	-88.6	3.0	7.77e-01	0	47	104	0	60	1048573
2026-01-17 15:02:25.69	289.24	21.43	-84.7	-88.6	3.6	7.76e-01	0	47	104	0	60	1048571
2026-01-17 15:02:26.69	289.49	21.40	-84.7	-88.6	3.2	7.77e-01	0	48	104	0	60	1048575
2026-01-17 15:02:27.70	289.75	21.37	-84.7	-88.6	2.7	7.75e-01	0	47	104	0	60	1048572
2026-01-17 15:02:28.71	290.01	21.34	-84.7	-88.6	3.2	7.76e-01	0	47	104	0	60	1048572
2026-01-17 15:02:29.71	290.26	21.31	-84.7	-88.6	2.9	7.78e-01	0	47	104	0	60	1048572
2026-01-17 15:02:30.72	290.52	21.28	-84.7	-88.6	2.9	7.78e-01	0	47	104	0	60	1048573
2026-01-17 15:02:31.73	290.77	21.25	-84.7	-88.6	3.1	7.74e-01	0	48	104	0	60	1048574
2026-01-17 15:02:32.73	291.03	21.22	-84.7	-88.6	2.5	7.76e-01	0	47	104	0	60	1048571
2026-01-17 15:02:33.74	291.28	21.19	-84.7	-88.6	3.6	7.76e-01	0	47	104	0	60	1048574
2026-01-17 15:02:34.75	291.54	21.16	-84.7	-88.6	3.0	7.78e-01	0	47	104	0	60	1048575
2026-01-17 15:02:35.76	291.79	21.12	-84.7	-88.6	3.0	7.78e-01	0	47	104	0	60	1048565
2026-01-17 15:02:36.77	292.05	21.09	-84.7	-88.6	2.9	7.76e-01	0	47	104	0	60	1048575
2026-01-17 15:02:37.78	292.30	21.06	-84.7	-88.6	3.1	7.77e-01	0	47	104	0	60	1048575
2026-01-17 15:02:38.78	292.55	21.02	-84.7	-88.6	2.9	7.73e-01	0	47	104	0	60	1048575
2026-01-17 15:02:39.79	292.80	20.99	-84.7	-88.6	3.6	7.76e-01	0	47	104	0	60	1048572
2026-01-17 15:02:40.79	293.05	20.95	-84.7	-88.6	3.3	7.77e-01	0	47	104	0	60	1048572
2026-01-17 15:02:41.80	293.30	20.91	-84.7	-88.6	3.3	7.76e-01	0	47	104	0	60	1048574
2026-01-17 15:02:42.81	293.55	20.88	-84.7	-88.6	2.1	7.76e-01	0	47	104	0	60	1048572
2026-01-17 15:02:43.82	293.80	20.84	-84.7	-88.6	2.6	7.76e-01	0	47	104	0	60	1048575
2026-01-17 15:02:44.82	294.05	20.80	-84.7	-88.6	3.1	7.77e-01	0	47	104	0	60	1048567
2026-01-17 15:02:45.83	294.29	20.77	-84.7	-88.6	3.1	7.77e-01	0	47	104	0	60	1048574
2026-01-17 15:02:46.84	294.54	20.73	-84.7	-88.6	2.9	7.78e-01	0	47	104	0	60	1048575
2026-01-17 15:02:47.85	294.79	20.69	-84.7	-88.6	3.6	7.75e-01	0	47	104	0	60	1048573
2026-01-17 15:02:48.85	295.03	20.65	-84.7	-88.6	3.1	7.78e-01	0	47	104	0	60	1048571
2026-01-17 15:02:49.86	295.28	20.61	-84.7	-88.6	3.2	7.76e-01	0	47	104	0	60	1048573
2026-01-17 15:02:50.87	295.52	20.57	-84.7	-88.6	3.2	7.77e-01	0	47	104	0	60	1048572
2026-01-17 15:02:51.87	295.77	20.53	-84.7	-88.6	3.1	7.76e-01	0	47	104	0	60	1048572
2026-01-17 15:02:52.87	296.01	20.49	-84.7	-88.6	3.2	7.77e-01	0	47	104	0	60	1048571
2026-01-17 15:02:53.88	296.25	20.45	-84.7	-88.6	3.1	7.76e-01	0	47	104	0	60	1048574
2026-01-17 15:02:54.89	296.49	20.40	-84.7	-88.6	2.9	7.76e-01	0	47	104	0	60	1048569
2026-01-17 15:02:55.88	296.73	20.36	-84.7	-88.6	3.6	7.78e-01	0	48	104	0	60	1048568
2026-01-17 15:02:56.89	296.97	20.32	-84.7	-88.6	3.5	7.78e-01	0	47	104	0	60	1048571
2026-01-17 15:02:57.89	297.21	20.28	-84.7	-88.6	2.6	7.77e-01	0	47	104	0	60	1048575
2026-01-17 15:02:58.90	297.45	20.23	-84.7	-88.6	2.8	7.72e-01	0	48	104	0	60	1048571
2026-01-17 15:02:59.90	297.69	20.19	-84.7	-88.6	3.0	7.77e-01	0	47	104	0	60	1048575
2026-01-17 15:03:00.92	297.93	20.14	-84.7	-88.6	2.9	7.76e-01	0	47	104	0	60	1048571
2026-01-17 15:03:01.92	298.17	20.10	-84.7	-88.6	2.9	7.77e-01	0	47	104	0	60	1048575
2026-01-17 15:03:02.93	298.40	20.05	-84.7	-88.6	3.6	7.77e-01	0	47	104	0	60	1048575
2026-01-17 15:03:03.93	298.64	20.01	-84.7	-88.6	3.3	7.77e-01	0	48	104	0	60	1048575
2026-01-17 15:03:04.94	298.87	19.96	-84.7	-88.6	2.6	7.77e-01	0	48	104	0	60	1048570
2026-01-17 15:03:05.95	299.11	19.92	-84.7	-88.6	2.9	7.78e-01	0	47	104	0	60	1048575
2026-01-17 15:03:06.95	299.34	19.87	-84.7	-88.6	3.5	7.76e-01	0	47	104	0	60	1048575
2026-01-17 15:03:07.96	299.57	19.82	-84.7	-88.6	3.1	7.77e-01	0	47	104	0	60	1048575
2026-01-17 15:03:08.97	299.81	19.77	-84.7	-88.6	2.4	7.77e-01	0	47	104	0	60	1048572
2026-01-17 15:03:09.97	300.04	19.73	-84.7	-88.6	3.0	7.76e-01	0	47	104	0	60	1048568
2026-01-17 15:03:10.97	300.27	19.68	-84.7	-88.6	3.5	7.77e-01	0	47	104	0	60	1048575
2026-01-17 15:03:11.98	300.50	19.63	-84.7	-88.6	3.0	7.78e-01	0	47	104	0	60	1048572
2026-01-17 15:03:12.99	300.73	19.58	-84.7	-88.6	2.9	7.76e-01	0	47	104	0	60	1048574
2026-01-17 15:03:13.99	300.96	19.53	-84.7	-88.6	3.1	7.77e-01	0	47	104	0	60	1048572
2026-01-17 15:03:15.00	301.18	19.48	-84.7	-88.6	2.8	7.78e-01	0	47	104	0	60	1048568
2026-01-17 15:03:16.01	301.41	19.43	-84.7	-88.6	3.0	7.76e-01	0	47	104	0	60	1048575
2026-01-17 15:03:17.01	301.64	19.38	-84.7	-88.6	3.2	7.77e-01	0	47	104	0	60	1048573
2026-01-17 15:03:18.02	301.86	19.33	-84.7	-88.6	3.0	7.76e-01	0	47	104	0	60	1048575
2026-01-17 15:03:19.03	302.09	19.28	-84.7	-88.6	3.0	7.76e-01	0	47	104	0	60	1048574
2026-01-17 15:03:20.03	302.31	19.23	-84.7	-88.6	3.3	7.77e-01	0	47	104	0	60	1048565
2026-01-17 15:03:21.04	302.54	19.18	-84.7	-88.6	2.9	7.76e-01	0	47	104	0	60	1048566
2026-01-17 15:03:22.05	302.76	19.12	-84.7	-88.6	2.7	7.75e-01	0	47	104	0	60	1048568
2026-01-17 15:03:23.05	302.98	19.07	-84.7	-88.6	3.2	7.74e-01	0	47	104	0	60	1048574
2026-01-17 15:03:24.06	303.20	19.02	-84.7	-88.6	3.0	7.78e-01	0	47	104	0	60	1048569
2026-01-17 15:03:25.06	303.42	18.97	-84.7	-88.6	3.0	7.77e-01	0	47	104	0	60	1048571
2026-01-17 15:03:26.07	303.64	18.91	-84.7	-88.6	2.8	7.79e-01	0	47	104	0	60	1048573
2026-01-17 15:03:27.08	303.86	18.86	-84.7	-88.6	2.6	7.78e-01	0	47	104	0	60	1048574
2026-01-17 15:03:28.08	304.08	18.81	-84.7	-88.6	3.2	7.77e-01	0	47	104	0	60	1048574
2026-01-17 15:03:29.08	304.30	18.75	-84.7	-88.6	3.1	7.78e-01	0	47	104	0	60	1048570
2026-01-17 15:03:30.09	304.52	18.70	-84.7	-88.6	3.1	7.76e-01	0	47	104	0	60	1048567
2026-01-17 15:03:31.09	304.73	18.64	-84.7	-88.6	2.9	7.78e-01	0	47	104	0	60	1048574
2026-01-17 15:03:32.10	304.95	18.59	-84.7	-88.6	3.0	7.76e-01	0	47	104	0	60	1048573
2026-01-17 15:03:33.11	305.16	18.53	-84.7	-88.6	3.4	7.76e-01	0	47	104	0	60	1048568
2026-01-17 15:03:34.12	305.38	18.48	-84.7	-88.6	3.1	7.77e-01	0	47	104	0	60	1048570
2026-01-17 15:03:35.12	305.59	18.42	-84.7	-88.6	2.7	7.78e-01	0	47	104	0	60	1048575
2026-01-17 15:03:36.13	305.80	18.37	-84.7	-88.6	3.5	7.76e-01	0	47	104	0	60	1048574
2026-01-17 15:03:37.13	306.01	18.31	-84.7	-88.6	3.0	7.77e-01	0	47	104	0	60	1048575
2026-01-17 15:03:38.14	306.22	18.25	-84.7	-88.6	2.9	7.77e-01	0	47	104	0	60	1048567
2026-01-17 15:03:39.15	306.43	18.20	-84.7	-88.6	2.5	7.76e-01	0	47	104	0	60	1048574
2026-01-17 15:03:40.15	306.64	18.14	-84.7	-88.6	2.9	7.75e-01	0	47	104	0	60	1048575
2026-01-17 15:03:41.16	306.85	18.08	-84.7	-88.6	3.0	7.77e-01	0	47	104	0	60	1048575
2026-01-17 15:03:42.16	307.06	18.03	-84.7	-88.6	2.5	7.74e-01	0	47	104	0	60	1048574
2026-01-17 15:03:43.16	307.26	17.97	-84.7	-88.6	3.5	7.76e-01	0	47	104	0	60	1048574
2026-01-17 15:03:44.16	307.47	17.91	-84.7	-88.6	2.8	7.77e-01	0	47	104	0	60	1048573
2026-01-17 15:03:45.17	307.67	17.85	-84.7	-88.6	3.0	7.77e-01	0	47	104	0	60	1048570
2026-01-17 15:03:46.18	307.88	17.80	-84.7	-88.6	2.9	7.75e-01	0	47	104	0	60	1048566
2026-01-17 15:03:47.18	308.08	17.74	-84.7	-88.6	3.0	7.77e-01	0	47	104	0	60	1048557
2026-01-17 15:03:48.19	308.29	17.68	-84.7	-88.6	3.0	7.78e-01	0	47	104	0	60	1048575
2026-01-17 15:03:49.20	308.49	17.62	-84.7	-88.6	3.5	7.77e-01	0	47	104	0	60	1048571
2026-01-17 15:03:50.21	308.69	17.56	-84.7	-88.6	3.4	7.76e-01	0	47	104	0	60	1048573
2026-01-17 15:03:51.21	308.89	17.50	-84.7	-88.6	3.2	7.77e-01	0	47	104	0	60	1048575
2026-01-17 15:03:52.22	309.09	17.44	-84.7	-88.6	3.3	7.77e-01	0	47	104	0	60	1048567
2026-01-17 15:03:53.23	309.29	17.38	-84.7	-88.6	3.1	7.78e-01	0	47	104	0	60	1048570
2026-01-17 15:03:54.24	309.49	17.32	-84.7	-88.6	3.1	7.76e-01	0	47	104	0	60	1048575
2026-01-17 15:03:55.25	309.69	17.26	-84.7	-88.6	2.8	7.78e-01	0	47	104	0	60	1048574
2026-01-17 15:03:56.25	309.88	17.20	-84.7	-88.6	3.0	7.77e-01	0	47	104	0	60	1048574
2026-01-17 15:03:57.26	310.08	17.14	-84.7	-88.6	3.5	7.78e-01	0	47	104	0	60	1048575
2026-01-17 15:03:58.26	310.28	17.08	-84.7	-88.6	3.0	7.77e-01	0	47	104	0	60	1048575
2026-01-17 15:03:59.27	310.47	17.02	-84.7	-88.6	3.1	7.76e-01	0	47	104	0	60	1048575
2026-01-17 15:04:00.27	310.66	16.96	-84.7	-88.6	3.3	7.77e-01	0	47	104	0	60	1048570
2026-01-17 15:04:01.28	310.86	16.90	-84.7	-88.6	2.9	7.76e-01	0	47	104	0	60	1048572
2026-01-17 15:04:02.28	311.05	16.84	-84.7	-88.6	3.1	7.76e-01	0	47	104	0	60	1048557
2026-01-17 15:04:03.28	311.24	16.78	-84.7	-88.6	3.0	7.76e-01	0	47	104	0	60	1048572
2026-01-17 15:04:04.29	311.43	16.72	-84.7	-88.6	3.3	7.78e-01	0	47	104	0	60	1048573
2026-01-17 15:04:05.29	311.62	16.66	-84.7	-88.6	2.6	7.78e-01	0	47	104	0	60	1048572
2026-01-17 15:04:06.30	311.81	16.59	-84.7	-88.6	2.4	7.71e-01	0	47	104	0	60	1048575
2026-01-17 15:04:07.31	312.00	16.53	-84.7	-88.6	3.0	7.76e-01	0	47	104	0	60	1048571
2026-01-17 15:04:08.31	312.19	16.47	-84.7	-88.6	3.0	7.78e-01	0	47	104	0	60	1048575
2026-01-17 15:04:09.32	312.37	16.41	-84.7	-88.6	2.6	7.76e-01	0	47	104	0	60	1048575
2026-01-17 15:04:10.32	312.56	16.35	-84.7	-88.6	3.0	7.77e-01	0	47	104	0	60	1048572
2026-01-17 15:04:11.33	312.75	16.28	-84.7	-88.6	3.0	7.76e-01	0	47	104	0	60	1048575
2026-01-17 15:04:12.33	312.93	16.22	-84.7	-88.6	3.5	7.77e-01	0	47	104	0	60	1048575
2026-01-17 15:04:13.34	313.11	16.16	-84.7	-88.6	3.6	7.76e-01	0	47	104	0	60	1048575
2026-01-17 15:04:14.35	313.30	16.10	-84.7	-88.6	2.7	7.75e-01	0	47	104	0	60	1048571
2026-01-17 15:04:15.36	313.48	16.03	-84.7	-88.6	2.8	7.77e-01	0	47	104	0	60	1048574
2026-01-17 15:04:16.37	313.66	15.97	-84.7	-88.6	3.2	7.77e-01	0	47	104	0	60	1048573
2026-01-17 15:04:17.37	313.84	15.91	-84.7	-88.6	3.4	7.76e-01	0	47	104	0	60	1048574
2026-01-17 15:04:18.38	314.02	15.84	-84.7	-88.6	2.9	7.77e-01	0	47	104	0	60	1048573
2026-01-17 15:04:19.39	314.20	15.78	-84.7	-88.6	3.4	7.76e-01	0	47	104	0	60	1048575
2026-01-17 15:04:20.39	314.38	15.72	-84.7	-88.6	3.5	7.77e-01	0	47	104	0	60	1048572
2026-01-17 15:04:21.40	314.56	15.65	-84.7	-88.6	2.7	7.74e-01	0	47	104	0	60	1048575
2026-01-17 15:04:22.41	314.74	15.59	-84.7	-88.6	3.0	7.77e-01	0	47	104	0	60	1048575
2026-01-17 15:04:23.42	314.92	15.53	-84.7	-88.6	3.1	7.78e-01	0	47	104	0	60	1048574
2026-01-17 15:04:24.42	315.09	15.46	-84.7	-88.6	3.2	7.77e-01	0	47	104	0	60	1048574
2026-01-17 15:04:25.43	315.27	15.40	-84.7	-88.6	2.9	7.76e-01	0	47	104	0	60	1048573
2026-01-17 15:04:26.44	315.44	15.34	-84.7	-88.6	3.0	7.77e-01	0	47	104	0	60	1048572
2026-01-17 15:04:27.45	315.62	15.27	-84.7	-88.6	2.5	7.73e-01	0	47	104	0	60	1048567
2026-01-17 15:04:28.45	315.79	15.21	-84.7	-88.6	2.9	7.77e-01	0	48	104	0	60	1048575
2026-01-17 15:04:29.46	315.96	15.14	-84.7	-88.6	3.5	7.77e-01	0	47	104	0	60	1048575
2026-01-17 15:04:30.46	316.13	15.08	-84.7	-88.6	3.1	7.74e-01	0	47	104	0	60	1048567
2026-01-17 15:04:31.47	316.30	15.02	-84.7	-88.6	3.1	7.76e-01	0	47	104	0	60	1048567
2026-01-17 15:04:32.48	316.47	14.95	-84.7	-88.6	3.3	7.76e-01	0	47	104	0	60	1048574
2026-01-17 15:04:33.48	316.64	14.89	-84.7	-88.6	3.1	7.76e-01	0	47	104	0	60	1048575
2026-01-17 15:04:34.49	316.81	14.82	-84.7	-88.6	2.9	7.77e-01	0	47	104	0	60	1048571
2026-01-17 15:04:35.50	316.98	14.76	-84.7	-88.6	2.6	7.76e-01	0	47	104	0	60	1048573
2026-01-17 15:04:36.50	317.15	14.69	-84.7	-88.6	2.9	7.76e-01	0	47	104	0	60	1048574
2026-01-17 15:04:37.51	317.32	14.63	-84.7	-88.6	3.1	7.78e-01	0	47	104	0	60	1048573
2026-01-17 15:04:38.52	317.48	14.56	-84.7	-88.6	3.4	7.74e-01	0	47	104	0	60	1048568
2026-01-17 15:04:39.53	317.65	14.50	-84.7	-88.6	3.1	7.76e-01	0	47	104	0	60	1048574
2026-01-17 15:04:40.53	317.81	14.44	-84.7	-88.6	2.6	7.77e-01	0	47	104	0	60	1048574
2026-01-17 15:04:41.54	317.98	14.37	-84.7	-88.6	3.4	7.76e-01	0	47	104	0	60	1048575
2026-01-17 15:04:42.55	318.14	14.31	-84.7	-88.6	2.9	7.77e-01	0	47	104	0	60	1048575
2026-01-17 15:04:43.55	318.30	14.24	-84.7	-88.6	3.2	7.77e-01	0	47	104	0	60	1048570
2026-01-17 15:04:44.56	318.46	14.18	-84.7	-88.6	2.8	7.77e-01	0	47	104	0	60	1048569
2026-01-17 15:04:45.57	318.62	14.11	-84.7	-88.6	3.0	7.77e-01	0	47	104	0	60	1048566
2026-01-17 15:04:46.58	318.79	14.05	-84.7	-88.6	2.7	7.74e-01	0	47	104	0	60	1048574
2026-01-17 15:04:47.59	318.95	13.98	-84.7	-88.6	3.1	7.76e-01	0	47	104	0	60	1048568
2026-01-17 15:04:48.59	319.10	13.92	-84.7	-88.6	3.1	7.77e-01	0	47	104	0	60	1048573
2026-01-17 15:04:49.60	319.26	13.85	-84.7	-88.6	3.0	7.77e-01	0	47	104	0	60	1048574
2026-01-17 15:04:50.60	319.42	13.79	-84.7	-88.6	3.0	7.77e-01	0	47	104	0	60	1048571
2026-01-17 15:04:51.61	319.58	13.72	-84.7	-88.6	2.9	7.77e-01	0	47	104	0	60	1048575
2026-01-17 15:04:52.61	319.73	13.66	-84.7	-88.6	3.5	7.76e-01	0	47	104	0	60	1048568
2026-01-17 15:04:53.62	319.89	13.59	-84.7	-88.6	3.0	7.76e-01	0	47	104	0	60	1048574
2026-01-17 15:04:54.63	320.05	13.53	-84.7	-88.6	3.0	7.74e-01	0	47	104	0	60	1048571
2026-01-17 15:04:55.63	320.20	13.46	-84.7	-88.6	3.0	7.77e-01	0	47	104	0	60	1048573
2026-01-17 15:04:56.64	320.35	13.40	-84.7	-88.6	2.8	7.77e-01	0	47	104	0	60	1048574
2026-01-17 15:04:57.65	320.51	13.33	-84.7	-88.6	2.9	7.77e-01	0	47	104	0	60	1048575
2026-01-17 15:04:58.65	320.66	13.27	-84.7	-88.6	3.1	7.77e-01	0	47	104	0	60	1048568
2026-01-17 15:04:59.66	320.81	13.20	-84.7	-88.6	3.0	7.77e-01	0	47	104	0	60	1048565
2026-01-17 15:05:00.67	320.96	13.14	-84.7	-88.6	3.3	7.76e-01	0	47	104	0	60	1048566
2026-01-17 15:05:01.67	321.11	13.07	-84.7	-88.6	3.0	7.77e-01	0	47	104	0	60	1048570
2026-01-17 15:05:02.68	321.26	13.01	-84.7	-88.6	3.2	7.77e-01	0	47	104	0	60	1048567
2026-01-17 15:05:03.69	321.41	12.94	-84.7	-88.6	2.8	7.76e-01	0	47	104	0	60	1048572
2026-01-17 15:05:04.70	321.56	12.88	-84.7	-88.6	2.8	7.77e-01	0	47	104	0	60	1048575
2026-01-17 15:05:05.70	321.71	12.81	-84.7	-88.6	3.1	7.77e-01	0	48	104	0	60	1048574
2026-01-17 15:05:06.71	321.86	12.75	-84.7	-88.6	2.8	7.77e-01	0	47	104	0	60	1048573
2026-01-17 15:05:07.72	322.00	12.68	-84.7	-88.6	3.1	7.76e-01	0	47	104	0	60	1048573
2026-01-17 15:05:08.73	322.15	12.62	-84.7	-88.6	3.0	7.77e-01	0	47	104	0	60	1048575
2026-01-17 15:05:09.73	322.29	12.55	-84.7	-88.6	3.5	7.77e-01	0	47	104	0	60	1048567
2026-01-17 15:05:10.74	322.44	12.49	-84.7	-88.6	3.2	7.77e-01	0	47	104	0	60	1048550
2026-01-17 15:05:11.75	322.58	12.42	-84.7	-88.6	3.2	7.77e-01	0	47	104	0	60	1048573
2026-01-17 15:05:12.75	322.73	12.36	-84.7	-88.6	2.6	7.77e-01	0	47	104	0	60	1048573
2026-01-17 15:05:13.76	322.87	12.29	-84.7	-88.6	3.0	7.75e-01	0	47	104	0	60	1048572
2026-01-17 15:05:14.77	323.01	12.23	-84.7	-88.6	3.2	7.78e-01	0	47	104	0	60	1048572
2026-01-17 15:05:15.78	323.16	12.16	-84.7	-88.6	3.0	7.77e-01	0	47	104	0	60	1048573
2026-01-17 15:05:16.79	323.30	12.09	-84.7	-88.6	3.0	7.77e-01	0	47	104	0	60	1048570
2026-01-17 15:05:17.80	323.44	12.03	-84.7	-88.6	3.5	7.77e-01	0	47	104	0	60	1048573
2026-01-17 15:05:18.80	323.58	11.97	-84.7	-88.6	2.9	7.77e-01	0	47	104	0	60	1048573
2026-01-17 15:05:19.81	323.72	11.90	-84.7	-88.6	2.9	7.77e-01	0	47	104	0	60	1048571
2026-01-17 15:05:20.82	323.86	11.83	-84.7	-88.6	3.1	7.77e-01	0	47	104	0	60	1048575
2026-01-17 15:05:21.83	324.00	11.77	-84.7	-88.6	2.5	7.77e-01	0	47	104	0	60	1048574
2026-01-17 15:05:22.84	324.13	11.70	-84.7	-88.6	2.9	7.77e-01	0	47	104	0	60	1048574
2026-01-17 15:05:23.84	324.27	11.64	-84.7	-88.6	3.1	7.76e-01	0	47	104	0	60	1048574
2026-01-17 15:05:24.85	324.41	11.58	-84.7	-88.6	3.0	7.76e-01	0	48	104	0	60	1048575
2026-01-17 15:05:25.86	324.54	11.51	-84.7	-88.6	3.4	7.77e-01	0	48	104	0	60	1048574
2026-01-17 15:05:26.86	324.68	11.45	-84.7	-88.6	3.1	7.77e-01	0	47	104	0	60	1048575
2026-01-17 15:05:27.87	324.81	11.38	-84.7	-88.6	3.1	7.75e-01	0	47	104	0	60	1048575
2026-01-17 15:05:28.88	324.95	11.32	-84.7	-88.6	2.9	7.78e-01	0	48	104	0	60	1048574
2026-01-17 15:05:29.89	325.08	11.25	-84.7	-88.6	2.8	7.77e-01	0	47	104	0	60	1048560
2026-01-17 15:05:30.89	325.21	11.19	-84.7	-88.6	2.9	7.77e-01	0	47	104	0	60	1048571
2026-01-17 15:05:31.90	325.35	11.12	-84.7	-88.6	3.0	7.77e-01	0	48	104	0	60	1048575
2026-01-17 15:05:32.90	325.48	11.06	-84.7	-88.6	3.1	7.76e-01	0	47	104	0	60	1048574
2026-01-17 15:05:33.91	325.61	10.99	-84.7	-88.6	2.7	7.76e-01	0	47	104	0	60	1048573
2026-01-17 15:05:34.92	325.74	10.93	-84.7	-88.6	3.6	7.76e-01	0	48	104	0	60	1048575
2026-01-17 15:05:35.93	325.87	10.87	-84.7	-88.6	2.5	7.76e-01	0	47	104	0	60	1048575
2026-01-17 15:05:36.93	326.00	10.80	-84.7	-88.6	3.1	7.77e-01	0	47	104	0	60	1048574
2026-01-17 15:05:37.94	326.13	10.74	-84.7	-88.6	2.9	7.77e-01	0	47	104	0	60	1048573
2026-01-17 15:05:38.95	326.26	10.67	-84.7	-88.6	2.9	7.78e-01	0	47	104	0	60	1048573
2026-01-17 15:05:39.95	326.39	10.61	-84.7	-88.6	2.9	7.77e-01	0	47	104	0	60	1048573
2026-01-17 15:05:40.96	326.52	10.54	-84.7	-88.6	3.1	7.76e-01	0	47	104	0	60	1048573
2026-01-17 15:05:41.96	326.64	10.48	-84.7	-88.6	3.5	7.77e-01	0	47	104	0	60	1048575
2026-01-17 15:05:42.97	326.77	10.42	-84.7	-88.6	2.7	7.75e-01	0	47	104	0	60	1048575
2026-01-17 15:05:43.97	326.89	10.35	-84.7	-88.6	2.8	7.76e-01	0	47	104	0	60	1048575
2026-01-17 15:05:44.98	327.02	10.29	-84.7	-88.6	2.5	7.76e-01	0	47	104	0	60	1048574
2026-01-17 15:05:45.99	327.15	10.22	-84.7	-88.6	3.1	7.76e-01	0	47	104	0	60	1048575
2026-01-17 15:05:46.99	327.27	10.16	-84.7	-88.6	2.8	7.77e-01	0	47	104	0	60	1048572
2026-01-17 15:05:48.00	327.39	10.10	-84.7	-88.6	2.9	7.77e-01	0	47	104	0	60	1048575
2026-01-17 15:05:49.00	327.52	10.03	-84.7	-88.6	3.0	7.77e-01	0	47	104	0	60	1048570
2026-01-17 15:05:50.01	327.64	9.97	-84.7	-88.6	2.9	7.78e-01	0	47	104	0	60	1048574
2026-01-17 15:05:51.02	327.76	9.91	-84.7	-88.6	3.2	7.77e-01	0	47	104	0	60	1048570
2026-01-17 15:05:52.03	327.88	9.84	-84.7	-88.6	3.0	7.76e-01	0	47	104	0	60	1048567
2026-01-17 15:05:53.04	328.01	9.78	-84.7	-88.6	3.1	7.76e-01	0	47	104	0	60	1048575
2026-01-17 15:05:54.05	328.13	9.71	-84.7	-88.6	3.0	7.76e-01	0	47	104	0	60	1048574
2026-01-17 15:05:55.06	328.25	9.65	-84.7	-88.6	2.4	7.76e-01	0	47	104	0	60	1048574
2026-01-17 15:05:56.06	328.37	9.59	-84.7	-88.6	3.0	7.76e-01	0	47	104	0	60	1048571
2026-01-17 15:05:57.07	328.49	9.52	-84.7	-88.6	3.4	7.77e-01	0	47	104	0	60	1048569
2026-01-17 15:05:58.07	328.60	9.46	-84.7	-88.6	2.9	7.77e-01	0	47	104	0	60	1048570
2026-01-17 15:05:59.08	328.72	9.40	-84.7	-88.6	3.5	7.76e-01	0	48	104	0	60	1048575
2026-01-17 15:06:00.08	328.84	9.34	-84.7	-88.6	2.9	7.77e-01	0	47	104	0	60	1048573
2026-01-17 15:06:01.09	328.96	9.27	-84.7	-88.6	3.1	7.77e-01	0	47	104	0	60	1048575
2026-01-17 15:06:02.09	329.07	9.21	-84.7	-88.6	2.6	7.77e-01	0	47	104	0	60	1048572
2026-01-17 15:06:03.10	329.19	9.15	-84.7	-88.6	2.7	7.77e-01	0	47	104	0	60	1048564
2026-01-17 15:06:04.11	329.31	9.08	-84.7	-88.6	3.2	7.76e-01	0	47	104	0	60	1048571
2026-01-17 15:06:05.12	329.42	9.02	-84.7	-88.6	3.3	7.78e-01	0	47	104	0	60	1048574
2026-01-17 15:06:06.13	329.54	8.96	-84.7	-88.6	3.1	7.76e-01	0	47	104	0	60	1048575
2026-01-17 15:06:07.14	329.65	8.89	-84.7	-88.6	3.1	7.78e-01	0	48	104	0	60	1048574
2026-01-17 15:06:08.14	329.77	8.83	-84.7	-88.6	2.8	7.77e-01	0	47	104	0	60	1048574
2026-01-17 15:06:09.15	329.88	8.77	-84.7	-88.6	3.0	7.77e-01	0	47	104	0	60	1048575
2026-01-17 15:06:10.16	329.99	8.71	-84.7	-88.6	2.7	7.76e-01	0	47	104	0	60	1048574
2026-01-17 15:06:11.17	330.11	8.64	-84.7	-88.6	3.3	7.77e-01	0	47	104	0	60	1048574
2026-01-17 15:06:12.17	330.22	8.58	-84.7	-88.6	3.1	7.76e-01	0	47	104	0	60	1048574
2026-01-17 15:06:13.18	330.33	8.52	-84.7	-88.6	3.1	7.76e-01	0	47	104	0	60	1048573
2026-01-17 15:06:14.18	330.44	8.46	-84.7	-88.6	3.1	7.77e-01	0	47	104	0	60	1048571
2026-01-17 15:06:15.19	330.55	8.40	-84.7	-88.6	2.9	7.77e-01	0	47	104	0	60	1048575
2026-01-17 15:06:16.19	330.66	8.33	-84.7	-88.6	3.3	7.76e-01	0	47	104	0	60	1048575
2026-01-17 15:06:17.20	330.77	8.27	-84.7	-88.6	2.9	7.78e-01	0	48	104	0	60	1048571
2026-01-17 15:06:18.20	330.88	8.21	-84.7	-88.6	3.2	7.76e-01	0	47	104	0	60	1048571
2026-01-17 15:06:19.21	330.99	8.15	-84.7	-88.6	2.8	7.75e-01	0	47	104	0	60	1048575
2026-01-17 15:06:20.22	331.10	8.09	-84.7	-88.6	3.4	7.76e-01	0	47	104	0	60	1048575
2026-01-17 15:06:21.23	331.21	8.02	-84.7	-88.6	3.1	7.77e-01	0	47	104	0	60	1048573
2026-01-17 15:06:22.24	331.32	7.96	-84.7	-88.6	3.0	7.77e-01	0	47	104	0	60	1048575
2026-01-17 15:06:23.25	331.42	7.90	-84.7	-88.6	3.0	7.77e-01	0	47	104	0	60	1048575
2026-01-17 15:06:24.25	331.53	7.84	-84.7	-88.6	3.3	7.76e-01	0	47	104	0	60	1048573
2026-01-17 15:06:25.26	331.64	7.78	-84.7	-88.6	3.3	7.77e-01	0	47	104	0	60	1048572
2026-01-17 15:06:26.27	331.74	7.72	-84.7	-88.6	3.2	7.76e-01	0	47	104	0	60	1048573
2026-01-17 15:06:27.28	331.85	7.65	-84.7	-88.6	3.3	7.77e-01	0	47	104	0	60	1048571
2026-01-17 15:06:28.29	331.95	7.59	-84.7	-88.6	2.7	7.76e-01	0	47	104	0	60	1048573
2026-01-17 15:06:29.29	332.06	7.53	-84.7	-88.6	3.1	7.78e-01	0	47	104	0	60	1048573
2026-01-17 15:06:30.29	332.16	7.47	-84.7	-88.6	2.7	7.76e-01	0	47	104	0	60	1048574
2026-01-17 15:06:31.29	332.26	7.41	-84.7	-88.6	3.1	7.76e-01	0	47	104	0	60	1048575
2026-01-17 15:06:32.30	332.37	7.35	-84.7	-88.6	3.1	7.76e-01	0	47	104	0	60	1048572
2026-01-17 15:06:33.31	332.47	7.29	-84.7	-88.6	3.5	7.76e-01	0	47	104	0	60	1048573
2026-01-17 15:06:34.32	332.58	7.23	-84.7	-88.6	3.1	7.78e-01	0	47	104	0	60	1048573
2026-01-17 15:06:35.32	332.68	7.17	-84.7	-88.6	3.1	7.76e-01	0	47	104	0	60	1048575
2026-01-17 15:06:36.33	332.78	7.10	-84.7	-88.6	3.4	7.76e-01	0	47	104	0	60	1048574
2026-01-17 15:06:37.34	332.88	7.04	-84.7	-88.6	2.8	7.76e-01	0	47	104	0	60	1048573
2026-01-17 15:06:38.35	332.98	6.98	-84.7	-88.6	3.1	7.78e-01	0	47	104	0	60	1048567
2026-01-17 15:06:39.36	333.08	6.92	-84.7	-88.6	2.9	7.76e-01	0	47	104	0	60	1048574
2026-01-17 15:06:40.36	333.18	6.86	-84.7	-88.6	3.2	7.78e-01	0	47	104	0	60	1048575
2026-01-17 15:06:41.37	333.28	6.80	-84.7	-88.6	2.8	7.76e-01	0	47	104	0	60	1048574
2026-01-17 15:06:42.37	333.38	6.74	-84.7	-88.6	3.2	7.77e-01	0	47	104	0	60	1048574
2026-01-17 15:06:43.38	333.48	6.68	-84.7	-88.6	3.2	7.77e-01	0	47	104	0	60	1048574
2026-01-17 15:06:44.39	333.58	6.62	-84.7	-88.6	2.7	7.76e-01	0	47	104	0	60	1048573
2026-01-17 15:06:45.39	333.68	6.56	-84.7	-88.6	3.0	7.76e-01	0	47	104	0	60	1048575
2026-01-17 15:06:46.40	333.78	6.50	-84.7	-88.6	3.1	7.76e-01	0	47	104	0	60	1048574
2026-01-17 15:06:47.40	333.87	6.44	-84.7	-88.6	2.8	7.76e-01	0	47	104	0	60	1048575
2026-01-17 15:06:48.41	333.97	6.38	-84.7	-88.6	3.0	7.78e-01	0	47	104	0	60	1048575
2026-01-17 15:06:49.41	334.07	6.32	-84.7	-88.6	3.3	7.76e-01	0	47	104	0	60	1048568
2026-01-17 15:06:50.42	334.16	6.26	-84.7	-88.6	2.5	7.77e-01	0	47	104	0	60	1048573
2026-01-17 15:06:51.43	334.26	6.20	-84.7	-88.6	3.1	7.76e-01	0	47	104	0	60	1048571
2026-01-17 15:06:52.44	334.36	6.14	-84.7	-88.6	2.4	7.76e-01	0	47	104	0	60	1048573
2026-01-17 15:06:53.44	334.45	6.08	-84.7	-88.6	3.2	7.77e-01	0	47	104	0	60	1048569
2026-01-17 15:06:54.45	334.55	6.02	-84.7	-88.6	2.9	7.78e-01	0	47	104	0	60	1048563
2026-01-17 15:06:55.46	334.64	5.96	-84.7	-88.6	3.0	7.77e-01	0	47	104	0	60	1048574
2026-01-17 15:06:56.47	334.73	5.90	-84.7	-88.6	3.3	7.77e-01	0	47	104	0	60	1048572
2026-01-17 15:06:57.48	334.83	5.84	-84.7	-88.6	3.3	7.76e-01	0	47	104	0	60	1048575
2026-01-17 15:06:58.49	334.92	5.79	-84.7	-88.6	2.6	7.77e-01	0	47	104	0	60	1048573
2026-01-17 15:06:59.49	335.01	5.73	-84.7	-88.6	3.1	7.77e-01	0	47	104	0	60	1048573
2026-01-17 15:07:00.50	335.11	5.67	-84.7	-88.6	2.6	7.77e-01	0	47	104	0	60	1048575
2026-01-17 15:07:01.51	335.20	5.61	-84.7	-88.6	2.9	7.76e-01	0	47	104	0	60	1048571
2026-01-17 15:07:02.51	335.29	5.55	-84.7	-88.6	3.2	7.75e-01	0	47	104	0	60	1048571
2026-01-17 15:07:03.52	335.38	5.49	-84.7	-88.6	2.9	7.77e-01	0	47	104	0	60	1048573
2026-01-17 15:07:04.52	335.47	5.43	-84.7	-88.6	3.1	7.77e-01	0	47	104	0	60	1048568
2026-01-17 15:07:05.53	335.57	5.37	-84.7	-88.6	3.0	7.77e-01	0	47	104	0	60	1048574
2026-01-17 15:07:06.53	335.66	5.32	-84.7	-88.6	2.7	7.77e-01	0	48	104	0	60	1048573
2026-01-17 15:07:07.54	335.75	5.26	-84.7	-88.6	3.0	7.78e-01	0	47	104	0	60	1048570
2026-01-17 15:07:08.55	335.84	5.20	-84.7	-88.6	3.0	7.77e-01	0	47	104	0	60	1048568
2026-01-17 15:07:09.55	335.93	5.14	-84.7	-88.6	3.2	7.76e-01	0	47	104	0	60	1048575
2026-01-17 15:07:10.56	336.02	5.08	-84.7	-88.6	2.9	7.73e-01	0	47	104	0	60	1048571
2026-01-17 15:07:11.57	336.10	5.02	-84.7	-88.6	3.3	7.77e-01	0	47	104	0	60	1048575
2026-01-17 15:07:12.57	336.19	4.97	-84.7	-88.6	2.8	7.77e-01	0	47	104	0	60	1048575
2026-01-17 15:07:13.58	336.28	4.91	-84.7	-88.6	2.8	7.77e-01	0	48	104	0	60	1048568
2026-01-17 15:07:14.59	336.37	4.85	-84.7	-88.6	2.7	7.77e-01	0	47	104	0	60	1048567
2026-01-17 15:07:15.59	336.46	4.79	-84.7	-88.6	3.0	7.77e-01	0	47	104	0	60	1048567
2026-01-17 15:07:16.60	336.54	4.73	-84.7	-88.6	3.0	7.76e-01	0	47	104	0	60	1048573
2026-01-17 15:07:17.61	336.63	4.68	-84.7	-88.6	3.4	7.78e-01	0	47	104	0	60	1048573
2026-01-17 15:07:18.62	336.72	4.62	-84.7	-88.6	3.4	7.77e-01	0	47	104	0	60	1048570
2026-01-17 15:07:19.62	336.80	4.56	-84.7	-88.6	2.5	7.77e-01	0	47	104	0	60	1048575
2026-01-17 15:07:20.63	336.89	4.50	-84.7	-88.6	2.6	7.77e-01	0	47	104	0	60	1048571
2026-01-17 15:07:21.64	336.98	4.45	-84.7	-88.6	2.8	7.75e-01	0	47	104	0	60	1048553
2026-01-17 15:07:22.65	337.06	4.39	-84.7	-88.6	2.8	7.77e-01	0	47	104	0	60	1048574
2026-01-17 15:07:23.65	337.15	4.33	-84.7	-88.6	3.2	7.77e-01	0	47	104	0	60	1048575
2026-01-17 15:07:24.66	337.23	4.27	-84.7	-88.6	3.3	7.77e-01	0	47	104	0	60	1048575
2026-01-17 15:07:25.67	337.32	4.22	-84.7	-88.6	3.5	7.77e-01	0	47	104	0	60	1048575
2026-01-17 15:07:26.68	337.40	4.16	-84.7	-88.6	3.1	7.77e-01	0	47	104	0	60	1048574
2026-01-17 15:07:27.69	337.49	4.10	-84.7	-88.6	3.0	7.78e-01	0	47	104	0	60	1048573
2026-01-17 15:07:28.69	337.57	4.04	-84.7	-88.6	2.6	7.76e-01	0	47	104	0	60	1048575
2026-01-17 15:07:29.70	337.65	3.99	-84.7	-88.6	3.0	7.75e-01	0	47	104	0	60	1048574
2026-01-17 15:07:30.71	337.73	3.93	-84.7	-88.6	3.0	7.77e-01	0	47	104	0	60	1048572
2026-01-17 15:07:31.71	337.82	3.87	-84.7	-88.6	2.8	7.77e-01	0	47	104	0	60	1048574
2026-01-17 15:07:32.72	337.90	3.82	-84.7	-88.6	2.9	7.77e-01	0	47	104	0	60	1048573
2026-01-17 15:07:33.73	337.98	3.76	-84.7	-88.6	2.9	7.76e-01	0	47	104	0	60	1048568
2026-01-17 15:07:34.73	338.06	3.70	-84.7	-88.6	3.2	7.77e-01	0	47	104	0	60	1048574
2026-01-17 15:07:35.74	338.14	3.65	-84.7	-88.6	2.5	7.78e-01	0	47	104	0	60	1048570
2026-01-17 15:07:36.75	338.23	3.59	-84.7	-88.6	3.1	7.77e-01	0	47	104	0	60	1048572
2026-01-17 15:07:37.75	338.31	3.54	-84.7	-88.6	2.9	7.77e-01	0	47	104	0	60	1048568
2026-01-17 15:07:38.76	338.39	3.48	-84.7	-88.6	3.0	7.77e-01	0	47	104	0	60	1048572
2026-01-17 15:07:39.76	338.47	3.42	-84.7	-88.6	2.9	7.77e-01	0	47	104	0	60	1048573
2026-01-17 15:07:40.77	338.55	3.37	-84.7	-88.6	3.2	7.76e-01	0	47	104	0	60	1048570
2026-01-17 15:07:41.77	338.63	3.31	-84.7	-88.6	2.8	7.77e-01	0	47	104	0	60	1048574
2026-01-17 15:07:42.78	338.71	3.26	-84.7	-88.6	3.2	7.77e-01	0	47	104	0	60	1048571
2026-01-17 15:07:43.79	338.79	3.20	-84.7	-88.6	3.2	7.76e-01	0	47	104	0	60	1048572
2026-01-17 15:07:44.79	338.86	3.14	-84.7	-88.6	3.3	7.77e-01	0	47	104	0	60	1048575
2026-01-17 15:07:45.80	338.94	3.09	-84.7	-88.6	3.0	7.77e-01	0	47	104	0	60	1048559
2026-01-17 15:07:46.81	339.02	3.03	-84.7	-88.6	2.7	7.77e-01	0	47	104	0	60	1048570
2026-01-17 15:07:47.82	339.10	2.98	-84.7	-88.6	3.1	7.76e-01	0	47	104	0	60	1048568
2026-01-17 15:07:48.82	339.18	2.92	-84.7	-88.6	3.6	7.77e-01	0	47	104	0	60	1048575
2026-01-17 15:07:49.83	339.25	2.87	-84.7	-88.6	2.6	7.73e-01	0	47	104	0	60	1048565
2026-01-17 15:07:50.84	339.33	2.81	-84.7	-88.6	2.8	7.76e-01	0	47	104	0	60	1048573
2026-01-17 15:07:51.84	339.41	2.76	-84.7	-88.6	3.4	7.78e-01	0	47	104	0	60	1048574
2026-01-17 15:07:52.85	339.49	2.70	-84.7	-88.6	3.1	7.78e-01	0	47	104	0	60	1048575
2026-01-17 15:07:53.85	339.56	2.64	-84.7	-88.6	3.0	7.77e-01	0	47	104	0	60	1048575
2026-01-17 15:07:54.86	339.64	2.59	-84.7	-88.6	3.0	7.76e-01	0	47	104	0	60	1048573
2026-01-17 15:07:55.87	339.71	2.53	-84.7	-88.6	2.9	7.77e-01	0	47	104	0	60	1048575
2026-01-17 15:07:56.88	339.79	2.48	-84.7	-88.6	2.9	7.76e-01	0	47	104	0	60	1048572
2026-01-17 15:07:57.89	339.86	2.42	-84.7	-88.6	2.8	7.76e-01	0	47	104	0	60	1048561
2026-01-17 15:07:58.89	339.94	2.37	-84.7	-88.6	2.9	7.75e-01	0	47	104	0	60	1048569
2026-01-17 15:07:59.90	340.01	2.31	-84.7	-88.6	3.4	7.77e-01	0	47	104	0	60	1048572
2026-01-17 15:08:00.91	340.09	2.26	-84.7	-88.6	3.1	7.78e-01	0	47	104	0	60	1048568
2026-01-17 15:08:01.91	340.16	2.21	-84.7	-88.6	2.5	7.77e-01	0	47	104	0	60	1048575
2026-01-17 15:08:02.92	340.24	2.15	-84.7	-88.6	2.9	7.71e-01	0	47	104	0	60	1048571
2026-01-17 15:08:03.93	340.31	2.10	-84.7	-88.6	2.8	7.75e-01	0	47	104	0	60	1048570
2026-01-17 15:08:04.94	340.39	2.04	-84.7	-88.6	3.1	7.76e-01	0	47	104	0	60	1048574
2026-01-17 15:08:05.95	340.46	1.99	-84.7	-88.6	3.2	7.76e-01	0	47	104	0	60	1048572
2026-01-17 15:08:06.96	340.53	1.93	-84.7	-88.6	2.7	7.76e-01	0	47	104	0	60	1048573
2026-01-17 15:08:07.96	340.60	1.88	-84.7	-88.6	3.6	7.77e-01	0	47	104	0	60	1048568
2026-01-17 15:08:08.97	340.68	1.82	-84.7	-88.6	2.9	7.76e-01	0	47	104	0	60	1048575
2026-01-17 15:08:09.97	340.75	1.77	-84.7	-88.6	3.0	7.77e-01	0	47	104	0	60	1048570
2026-01-17 15:08:10.98	340.82	1.72	-84.7	-88.6	3.5	7.78e-01	0	47	104	0	60	1048572
2026-01-17 15:08:11.99	340.89	1.66	-84.7	-88.6	3.5	7.78e-01	0	47	104	0	60	1048570
2026-01-17 15:08:12.99	340.96	1.61	-84.7	-88.6	2.9	7.76e-01	0	47	104	0	60	1048574
2026-01-17 15:08:13.99	341.04	1.56	-84.7	-88.6	3.3	7.77e-01	0	47	104	0	60	1048573
2026-01-17 15:08:15.00	341.11	1.50	-84.7	-88.6	2.6	7.77e-01	0	47	104	0	60	1048571
2026-01-17 15:08:16.01	341.18	1.45	-84.7	-88.6	3.0	7.78e-01	0	47	104	0	60	1048571
2026-01-17 15:08:17.02	341.25	1.39	-84.7	-88.6	3.3	7.76e-01	0	47	104	0	60	1048575
2026-01-17 15:08:18.03	341.32	1.34	-84.7	-88.6	3.1	7.76e-01	0	47	104	0	60	1048575
2026-01-17 15:08:19.03	341.39	1.29	-84.7	-88.6	3.5	7.76e-01	0	47	104	0	60	1048574
2026-01-17 15:08:20.04	341.46	1.23	-84.7	-88.6	2.9	7.76e-01	0	47	104	0	60	1048575
2026-01-17 15:08:21.05	341.53	1.18	-84.7	-88.6	2.6	7.76e-01	0	47	104	0	60	1048575
2026-01-17 15:08:22.06	341.60	1.13	-84.7	-88.6	2.8	7.77e-01	0	47	104	0	60	1048574
2026-01-17 15:08:23.07	341.67	1.07	-84.7	-88.6	3.1	7.77e-01	0	47	104	0	60	1048574
2026-01-17 15:08:24.07	341.74	1.02	-84.7	-88.6	3.1	7.76e-01	0	47	104	0	60	1048575
2026-01-17 15:08:25.08	341.81	0.97	-84.7	-88.6	2.8	7.75e-01	0	47	104	0	60	1048572
2026-01-17 15:08:26.09	341.87	0.91	-84.7	-88.6	3.1	7.76e-01	0	47	104	0	60	1048565
2026-01-17 15:08:27.09	341.94	0.86	-84.7	-88.6	3.1	7.76e-01	0	47	104	0	60	1048567
2026-01-17 15:08:28.09	342.01	0.81	-84.7	-88.6	3.4	7.75e-01	0	47	104	0	60	1048572
2026-01-17 15:08:29.10	342.08	0.76	-84.7	-88.6	3.0	7.76e-01	0	47	104	0	60	1048570
2026-01-17 15:08:30.10	342.15	0.70	-84.7	-88.6	2.7	7.77e-01	0	47	104	0	60	1048575
2026-01-17 15:08:31.11	342.21	0.65	-84.7	-88.6	2.7	7.76e-01	0	47	104	0	60	1048571
2026-01-17 15:08:32.11	342.28	0.60	-84.7	-88.6	2.5	7.76e-01	0	47	104	0	60	1048572
2026-01-17 15:08:33.12	342.35	0.55	-84.7	-88.6	3.0	7.76e-01	0	47	104	0	60	1048575
2026-01-17 15:08:34.13	342.41	0.49	-84.7	-88.6	3.0	7.77e-01	0	47	104	0	60	1048573
2026-01-17 15:08:35.13	342.48	0.44	-84.7	-88.6	3.3	7.76e-01	0	47	104	0	60	1048574
2026-01-17 15:08:36.14	342.55	0.39	-84.7	-88.6	3.1	7.76e-01	0	47	104	0	60	1048571
2026-01-17 15:08:37.15	342.61	0.34	-84.7	-88.6	3.0	7.77e-01	0	47	104	0	60	1048563
2026-01-17 15:08:38.16	342.68	0.28	-84.7	-88.6	2.4	7.77e-01	0	47	104	0	60	1048572
2026-01-17 15:08:39.16	342.74	0.23	-84.7	-88.6	3.1	7.76e-01	0	47	104	0	60	1048573
2026-01-17 15:08:40.16	342.81	0.18	-84.7	-88.6	3.1	7.78e-01	0	47	104	0	60	1048573
2026-01-17 15:08:41.17	342.87	0.13	-84.7	-88.6	3.2	7.77e-01	0	47	104	0	60	1048574
2026-01-17 15:08:42.18	342.94	0.08	-84.7	-88.6	3.0	7.78e-01	0	47	104	0	60	1048564
2026-01-17 15:08:43.18	343.00	0.03	-84.7	-88.6	2.8	7.77e-01	0	47	104	0	60	1048571
2026-01-17 15:08:44.19	343.07	-0.03	-84.7	-88.6	1.3	7.77e-01	0	47	104	0	60	1048571

#Closed at: 2026-01-17 15:08:45
#Recorded file [0 MB]: D:/Data/35015_260117_175757.dat