passes_logs/2026/01/17/R3.2S-Naryan-Mar/R3.2S-Naryan-Mar__20260117_220348_NOAA_21_JPSS-2_rec.log

#Pass ID: 20260117_220348_NOAA 21 (JPSS-2)
#Satellite: NOAA 21 (JPSS-2)
#Configuration: NOAA-21
#almurnet v.1.7.20240730
#Start time: 2026-01-17 22:03:49

#Version: 2.2.20231116
#Station: R3.2S-Naryan-Mar
#Location: 53.008057 lon 67.646978 lat
#TLE: 1 54234U 22150A   26017.26823908  .00000042  00000+0  40962-4 0  9992
#TLE: 2 54234  98.7501 318.1405 0000613 274.2947  85.8159 14.19535194165131

#Time	Az	El	Level	Level2	SNR	BER	BlckErr	Temp	State	Recorded	gain1	gain2
2026-01-17 22:03:49.37	19.27	0.03	-85.2	-88.6	4.0	7.63e-01	0	46	0	0	60	1048572
2026-01-17 22:03:50.37	19.30	0.09	-85.2	-88.8	2.8	1.56e+00	0	47	104	0	60	1048571
2026-01-17 22:03:51.38	19.34	0.15	-85.2	-88.8	2.8	1.56e+00	0	47	104	0	60	1048575
2026-01-17 22:03:52.39	19.37	0.20	-82.8	-88.8	2.7	1.56e+00	0	47	104	0	60	1048575
2026-01-17 22:03:53.39	19.41	0.26	-85.2	-88.8	2.5	1.56e+00	0	47	104	0	60	1048575
2026-01-17 22:03:54.40	19.44	0.32	-84.7	-88.8	2.9	1.56e+00	0	47	104	0	60	1048573
2026-01-17 22:03:55.40	19.48	0.38	-85.2	-88.8	2.7	1.56e+00	0	47	104	0	60	1048575
2026-01-17 22:03:56.41	19.51	0.44	-84.7	-88.8	2.8	1.56e+00	0	47	104	0	60	1048575
2026-01-17 22:03:57.42	19.55	0.50	-85.2	-88.8	3.0	1.56e+00	0	47	104	0	60	1048575
2026-01-17 22:03:58.42	19.59	0.55	-83.1	-88.8	2.8	1.56e+00	0	47	104	0	60	1048574
2026-01-17 22:03:59.43	19.62	0.61	-85.2	-88.8	2.9	1.56e+00	0	47	104	0	60	1048575
2026-01-17 22:04:00.44	19.66	0.67	-85.2	-88.8	2.9	1.56e+00	0	47	104	0	60	1048575
2026-01-17 22:04:01.45	19.69	0.73	-85.2	-88.8	2.8	1.56e+00	0	47	104	0	60	1048575
2026-01-17 22:04:02.45	19.73	0.79	-85.2	-88.8	2.8	1.56e+00	0	47	104	0	60	1048575
2026-01-17 22:04:03.46	19.77	0.85	-83.5	-88.8	2.7	1.56e+00	0	47	104	0	60	1048575
2026-01-17 22:04:04.47	19.80	0.91	-85.2	-88.8	2.7	1.56e+00	0	47	104	0	60	1048575
2026-01-17 22:04:05.47	19.84	0.97	-85.2	-88.8	2.7	1.56e+00	0	47	104	0	60	1048571
2026-01-17 22:04:06.48	19.87	1.03	-85.2	-88.8	2.7	1.56e+00	0	47	104	0	60	1048571
2026-01-17 22:04:07.49	19.91	1.09	-83.1	-88.8	3.0	1.56e+00	0	47	104	0	60	1048571
2026-01-17 22:04:08.49	19.95	1.15	-83.5	-88.8	2.7	1.56e+00	0	47	104	0	60	1048575
2026-01-17 22:04:09.50	19.99	1.21	-85.2	-88.8	2.8	1.56e+00	0	47	104	0	60	1048574
2026-01-17 22:04:10.51	20.02	1.27	-83.5	-88.8	2.6	1.56e+00	0	47	104	0	60	1048571
2026-01-17 22:04:11.51	20.06	1.33	-83.1	-88.8	2.6	1.56e+00	0	47	104	0	60	1048575
2026-01-17 22:04:12.52	20.10	1.39	-85.2	-88.8	2.7	1.56e+00	0	47	104	0	60	1048574
2026-01-17 22:04:13.52	20.13	1.45	-83.1	-88.8	2.7	1.56e+00	0	47	104	0	60	1048574
2026-01-17 22:04:14.53	20.17	1.51	-85.2	-88.8	2.5	1.56e+00	0	47	104	0	60	1048573
2026-01-17 22:04:15.54	20.21	1.57	-82.8	-88.8	2.8	1.56e+00	0	47	104	0	60	1048575
2026-01-17 22:04:16.55	20.25	1.63	-83.1	-88.8	2.7	1.56e+00	0	47	104	0	60	1048574
2026-01-17 22:04:17.56	20.29	1.69	-82.8	-88.8	2.7	1.56e+00	0	47	104	0	60	1048573
2026-01-17 22:04:18.56	20.32	1.75	-85.2	-88.8	2.6	1.56e+00	0	47	104	0	60	1048575
2026-01-17 22:04:19.56	20.36	1.81	-85.2	-88.8	2.7	1.56e+00	0	47	104	0	60	1048575
2026-01-17 22:04:20.57	20.40	1.87	-85.2	-88.8	2.7	1.56e+00	0	47	104	0	60	1048568
2026-01-17 22:04:21.57	20.44	1.93	-85.2	-88.8	2.9	1.56e+00	0	47	104	0	60	1048575
2026-01-17 22:04:22.58	20.48	2.00	-84.7	-88.8	2.9	1.56e+00	0	47	104	0	60	1048572
2026-01-17 22:04:23.59	20.52	2.06	-82.2	-88.8	2.9	1.56e+00	0	47	104	0	60	1048573
2026-01-17 22:04:24.60	20.56	2.12	-85.2	-88.8	2.8	1.56e+00	0	47	104	0	60	1048574
2026-01-17 22:04:25.60	20.59	2.18	-83.5	-88.8	2.7	1.56e+00	0	47	104	0	60	1048568
2026-01-17 22:04:26.61	20.63	2.24	-85.2	-88.8	2.6	1.56e+00	0	47	104	0	60	1048568
2026-01-17 22:04:27.62	20.67	2.31	-85.2	-88.8	2.8	1.56e+00	0	47	104	0	60	1048574
2026-01-17 22:04:28.62	20.71	2.37	-84.3	-88.8	2.8	1.56e+00	0	47	104	0	60	1048573
2026-01-17 22:04:29.63	20.75	2.43	-82.2	-88.8	2.5	1.56e+00	0	47	104	0	60	1048575
2026-01-17 22:04:30.63	20.79	2.49	-83.1	-88.8	2.7	1.56e+00	0	47	104	0	60	1048574
2026-01-17 22:04:31.64	20.83	2.55	-83.5	-88.8	2.6	1.56e+00	0	47	104	0	60	1048570
2026-01-17 22:04:32.64	20.87	2.62	-85.2	-88.8	2.8	1.56e+00	0	47	104	0	60	1048571
2026-01-17 22:04:33.65	20.91	2.68	-83.5	-88.8	2.7	1.56e+00	0	47	104	0	60	1048575
2026-01-17 22:04:34.66	20.95	2.74	-85.2	-88.8	2.6	1.56e+00	0	47	104	0	60	1048575
2026-01-17 22:04:35.67	20.99	2.81	-85.2	-88.8	2.9	1.56e+00	0	47	104	0	60	1048575
2026-01-17 22:04:36.68	21.03	2.87	-85.2	-88.8	2.9	1.56e+00	0	47	104	0	60	1048570
2026-01-17 22:04:37.69	21.08	2.93	-85.2	-88.8	2.9	1.56e+00	0	47	104	0	60	1048575
2026-01-17 22:04:38.69	21.12	3.00	-85.2	-88.8	2.6	1.56e+00	0	47	104	0	60	1048575
2026-01-17 22:04:39.70	21.16	3.06	-85.2	-88.8	2.6	1.56e+00	0	47	104	0	60	1048575
2026-01-17 22:04:40.71	21.20	3.12	-83.1	-88.8	2.8	1.56e+00	0	47	104	0	60	1048572
2026-01-17 22:04:41.72	21.24	3.19	-85.2	-88.8	2.7	1.56e+00	0	47	104	0	60	1048574
2026-01-17 22:04:42.73	21.28	3.25	-85.2	-88.8	2.6	1.56e+00	0	47	104	0	60	1048575
2026-01-17 22:04:43.73	21.32	3.32	-83.1	-88.8	2.8	1.56e+00	0	47	104	0	60	1048574
2026-01-17 22:04:44.74	21.37	3.38	-85.2	-88.8	2.9	1.56e+00	0	47	104	0	60	1048574
2026-01-17 22:04:45.75	21.41	3.45	-83.1	-88.8	2.7	1.56e+00	0	47	104	0	60	1048574
2026-01-17 22:04:46.76	21.45	3.51	-85.2	-88.8	2.7	1.56e+00	0	47	104	0	60	1048575
2026-01-17 22:04:47.76	21.49	3.58	-85.2	-88.8	2.5	1.56e+00	0	47	104	0	60	1048574
2026-01-17 22:04:48.77	21.54	3.64	-84.7	-88.8	2.8	1.56e+00	0	47	104	0	60	1048575
2026-01-17 22:04:49.77	21.58	3.71	-85.2	-88.8	2.7	1.56e+00	0	47	104	0	60	1048574
2026-01-17 22:04:50.78	21.62	3.77	-85.2	-88.8	2.8	1.56e+00	0	47	104	0	60	1048575
2026-01-17 22:04:51.79	21.66	3.84	-82.8	-88.8	2.8	1.56e+00	0	47	104	0	60	1048575
2026-01-17 22:04:52.79	21.71	3.90	-85.2	-88.8	2.7	1.56e+00	0	47	104	0	60	1048575
2026-01-17 22:04:53.80	21.75	3.97	-83.5	-88.8	2.8	1.56e+00	0	47	104	0	60	1048575
2026-01-17 22:04:54.79	21.79	4.03	-85.2	-88.8	2.8	1.56e+00	0	47	104	0	60	1048569
2026-01-17 22:04:55.80	21.84	4.10	-85.2	-88.8	2.5	1.56e+00	0	47	104	0	60	1048572
2026-01-17 22:04:56.81	21.88	4.16	-85.2	-88.8	2.7	1.56e+00	0	47	104	0	60	1048575
2026-01-17 22:04:57.82	21.93	4.23	-85.2	-88.8	2.6	1.56e+00	0	47	104	0	60	1048575
2026-01-17 22:04:58.83	21.97	4.30	-85.2	-88.8	2.7	1.56e+00	0	47	104	0	60	1048574
2026-01-17 22:04:59.83	22.02	4.36	-85.2	-88.8	2.7	1.56e+00	0	47	104	0	60	1048575
2026-01-17 22:05:00.84	22.06	4.43	-85.2	-88.8	2.8	1.56e+00	0	47	104	0	60	1048572
2026-01-17 22:05:01.85	22.11	4.50	-83.1	-88.8	2.7	1.56e+00	0	47	104	0	60	1048575
2026-01-17 22:05:02.86	22.15	4.57	-83.1	-88.8	2.6	1.56e+00	0	47	104	0	60	1048571
2026-01-17 22:05:03.86	22.20	4.63	-85.2	-88.8	2.7	1.56e+00	0	47	104	0	60	1048575
2026-01-17 22:05:04.87	22.24	4.70	-85.2	-88.8	2.8	1.56e+00	0	47	104	0	60	1048574
2026-01-17 22:05:05.87	22.29	4.77	-85.2	-88.8	2.5	1.56e+00	0	47	104	0	60	1048571
2026-01-17 22:05:06.88	22.33	4.83	-85.2	-88.8	2.7	1.56e+00	0	47	104	0	60	1048575
2026-01-17 22:05:07.88	22.38	4.90	-85.2	-88.8	2.9	1.56e+00	0	47	104	0	60	1048575
2026-01-17 22:05:08.89	22.43	4.97	-84.3	-88.8	2.9	1.56e+00	0	47	104	0	60	1048575
2026-01-17 22:05:09.89	22.47	5.04	-85.2	-88.8	2.6	1.56e+00	0	47	104	0	60	1048575
2026-01-17 22:05:10.90	22.52	5.11	-85.2	-88.8	2.5	1.56e+00	0	47	104	0	60	1048575
2026-01-17 22:05:11.90	22.56	5.17	-85.2	-88.8	2.7	1.56e+00	0	47	104	0	60	1048568
2026-01-17 22:05:12.91	22.61	5.24	-83.9	-88.8	2.7	1.56e+00	0	47	104	0	60	1048572
2026-01-17 22:05:13.92	22.66	5.31	-84.7	-88.8	2.7	1.56e+00	0	47	104	0	60	1048575
2026-01-17 22:05:14.93	22.71	5.38	-85.2	-88.8	2.6	1.56e+00	0	47	104	0	60	1048575
2026-01-17 22:05:15.93	22.75	5.45	-85.2	-88.8	2.7	1.56e+00	0	47	104	0	60	1048574
2026-01-17 22:05:16.94	22.80	5.52	-85.2	-88.8	2.6	1.56e+00	0	47	104	0	60	1048575
2026-01-17 22:05:17.94	22.85	5.59	-85.2	-88.8	2.8	1.56e+00	0	47	104	0	60	1048571
2026-01-17 22:05:18.95	22.90	5.66	-85.2	-88.8	3.0	1.56e+00	0	47	104	0	60	1048573
2026-01-17 22:05:19.96	22.95	5.73	-85.2	-88.8	2.7	1.56e+00	0	47	104	0	60	1048575
2026-01-17 22:05:20.97	23.00	5.80	-85.2	-88.8	2.7	1.56e+00	0	47	104	0	60	1048575
2026-01-17 22:05:21.97	23.04	5.87	-84.7	-88.8	2.9	1.56e+00	0	48	104	0	60	1048573
2026-01-17 22:05:22.98	23.09	5.94	-85.2	-88.8	2.6	1.56e+00	0	47	104	0	60	1048575
2026-01-17 22:05:23.99	23.14	6.01	-84.7	-88.8	2.6	1.56e+00	0	47	104	0	60	1048574
2026-01-17 22:05:24.99	23.19	6.08	-85.2	-88.8	2.7	1.56e+00	0	47	104	0	60	1048574
2026-01-17 22:05:26.00	23.24	6.15	-85.2	-88.8	2.6	1.56e+00	0	47	104	0	60	1048572
2026-01-17 22:05:27.00	23.29	6.22	-85.2	-88.8	2.7	1.56e+00	0	47	104	0	60	1048575
2026-01-17 22:05:28.01	23.34	6.29	-85.2	-88.8	2.7	1.56e+00	0	47	104	0	60	1048574
2026-01-17 22:05:29.01	23.39	6.36	-84.7	-88.8	2.7	1.56e+00	0	47	104	0	60	1048575
2026-01-17 22:05:30.02	23.44	6.43	-85.2	-88.8	2.7	1.56e+00	0	47	104	0	60	1048575
2026-01-17 22:05:31.03	23.49	6.51	-83.1	-88.8	2.5	1.56e+00	0	47	104	0	60	1048573
2026-01-17 22:05:32.03	23.54	6.58	-85.2	-88.8	2.8	1.56e+00	0	47	104	0	60	1048575
2026-01-17 22:05:33.04	23.60	6.65	-84.3	-88.8	2.7	1.56e+00	0	47	104	0	60	1048575
2026-01-17 22:05:34.05	23.65	6.72	-84.7	-88.8	2.9	1.56e+00	0	47	104	0	60	1048574
2026-01-17 22:05:35.06	23.70	6.80	-85.2	-88.8	2.8	1.56e+00	0	47	104	0	60	1048575
2026-01-17 22:05:36.07	23.75	6.87	-85.2	-88.8	2.8	1.56e+00	0	47	104	0	60	1048575
2026-01-17 22:05:37.07	23.80	6.94	-83.1	-88.8	2.6	1.56e+00	0	47	104	0	60	1048575
2026-01-17 22:05:38.08	23.86	7.01	-82.8	-88.8	2.6	1.56e+00	0	47	104	0	60	1048575
2026-01-17 22:05:39.08	23.91	7.09	-85.2	-88.8	2.6	1.56e+00	0	47	104	0	60	1048573
2026-01-17 22:05:40.09	23.96	7.16	-82.5	-88.8	2.6	1.56e+00	0	47	104	0	60	1048570
2026-01-17 22:05:41.09	24.01	7.23	-85.2	-88.8	2.7	1.56e+00	0	47	104	0	60	1048575
2026-01-17 22:05:42.10	24.07	7.31	-85.2	-88.8	2.7	1.56e+00	0	47	104	0	60	1048574
2026-01-17 22:05:43.11	24.12	7.38	-84.7	-88.8	2.7	1.56e+00	0	47	104	0	60	1048574
2026-01-17 22:05:44.11	24.18	7.46	-85.2	-88.8	2.5	1.56e+00	0	47	104	0	60	1048574
2026-01-17 22:05:45.12	24.23	7.53	-85.2	-88.8	2.7	1.56e+00	0	47	104	0	60	1048570
2026-01-17 22:05:46.13	24.28	7.60	-85.2	-88.8	2.5	1.56e+00	0	47	104	0	60	1048574
2026-01-17 22:05:47.13	24.34	7.68	-85.2	-88.8	2.7	1.56e+00	0	47	104	0	60	1048575
2026-01-17 22:05:48.14	24.39	7.75	-85.2	-88.8	2.6	1.56e+00	0	47	104	0	60	1048575
2026-01-17 22:05:49.14	24.45	7.83	-84.7	-88.8	2.7	1.56e+00	0	48	104	0	60	1048575
2026-01-17 22:05:50.15	24.50	7.90	-85.2	-88.8	2.8	1.56e+00	0	48	104	0	60	1048574
2026-01-17 22:05:51.16	24.56	7.98	-83.1	-88.8	2.9	1.56e+00	0	48	104	0	60	1048573
2026-01-17 22:05:52.17	24.62	8.06	-85.2	-88.8	2.7	1.56e+00	0	48	104	0	60	1048575
2026-01-17 22:05:53.17	24.67	8.13	-83.1	-88.8	2.8	1.56e+00	0	47	104	0	60	1048574
2026-01-17 22:05:54.17	24.73	8.21	-84.3	-88.8	2.8	1.56e+00	0	48	104	0	60	1048574
2026-01-17 22:05:55.18	24.79	8.28	-85.2	-88.8	2.7	1.56e+00	0	47	104	0	60	1048574
2026-01-17 22:05:56.19	24.84	8.36	-85.2	-88.8	2.8	1.56e+00	0	47	104	0	60	1048570
2026-01-17 22:05:57.20	24.90	8.44	-84.3	-88.8	2.9	1.56e+00	0	48	104	0	60	1048574
2026-01-17 22:05:58.21	24.96	8.52	-82.5	-88.8	2.7	1.56e+00	0	47	104	0	60	1048575
2026-01-17 22:05:59.21	25.02	8.59	-85.2	-88.8	2.6	1.56e+00	0	47	104	0	60	1048571
2026-01-17 22:06:00.22	25.07	8.67	-85.2	-88.8	2.6	1.56e+00	0	47	104	0	60	1048574
2026-01-17 22:06:01.23	25.13	8.75	-85.2	-88.8	2.7	1.56e+00	0	47	104	0	60	1048573
2026-01-17 22:06:02.24	25.19	8.83	-84.7	-88.8	2.7	1.56e+00	0	47	104	0	60	1048575
2026-01-17 22:06:03.25	25.25	8.90	-84.7	-88.8	2.7	1.56e+00	0	48	104	0	60	1048574
2026-01-17 22:06:04.25	25.31	8.98	-85.2	-88.8	2.7	1.56e+00	0	47	104	0	60	1048573
2026-01-17 22:06:05.26	25.37	9.06	-82.2	-88.8	2.6	1.56e+00	0	48	104	0	60	1048575
2026-01-17 22:06:06.27	25.43	9.14	-85.2	-88.8	2.5	1.56e+00	0	47	104	0	60	1048568
2026-01-17 22:06:07.28	25.49	9.22	-85.2	-88.8	2.8	1.56e+00	0	48	104	0	60	1048575
2026-01-17 22:06:08.28	25.55	9.30	-84.7	-88.8	2.6	1.56e+00	0	48	104	0	60	1048572
2026-01-17 22:06:09.29	25.61	9.38	-85.2	-88.8	2.6	1.56e+00	0	48	104	0	60	1048575
2026-01-17 22:06:10.29	25.67	9.46	-84.7	-88.8	2.6	1.56e+00	0	47	104	0	60	1048574
2026-01-17 22:06:11.30	25.73	9.54	-85.2	-88.8	2.9	1.56e+00	0	47	104	0	60	1048575
2026-01-17 22:06:12.30	25.80	9.62	-85.2	-88.8	2.8	1.56e+00	0	48	104	0	60	1048574
2026-01-17 22:06:13.31	25.86	9.70	-83.5	-88.8	2.6	1.56e+00	0	48	104	0	60	1048575
2026-01-17 22:06:14.31	25.92	9.78	-84.7	-88.8	2.6	1.56e+00	0	48	104	0	60	1048572
2026-01-17 22:06:15.32	25.98	9.86	-85.2	-88.8	3.0	1.56e+00	0	47	104	0	60	1048574
2026-01-17 22:06:16.33	26.05	9.94	-85.2	-88.8	2.7	1.55e+00	0	48	104	0	60	1048571
2026-01-17 22:06:17.33	26.11	10.02	-83.1	-88.8	2.5	1.56e+00	0	47	104	0	60	1048575
2026-01-17 22:06:18.34	26.17	10.10	-82.8	-88.8	2.8	1.56e+00	0	47	104	0	60	1048574
2026-01-17 22:06:19.34	26.24	10.18	-85.2	-88.8	2.6	1.56e+00	0	47	104	0	60	1048573
2026-01-17 22:06:20.35	26.30	10.27	-82.5	-88.8	2.6	1.56e+00	0	48	104	0	60	1048575
2026-01-17 22:06:21.36	26.37	10.35	-85.2	-88.8	2.6	1.56e+00	0	48	104	0	60	1048575
2026-01-17 22:06:22.37	26.43	10.43	-83.1	-88.8	2.9	1.56e+00	0	47	104	0	60	1048575
2026-01-17 22:06:23.37	26.50	10.51	-85.2	-88.8	2.8	1.56e+00	0	47	104	0	60	1048575
2026-01-17 22:06:24.38	26.56	10.60	-85.2	-88.8	2.7	1.56e+00	0	48	104	0	60	1048572
2026-01-17 22:06:25.39	26.63	10.68	-83.1	-88.8	2.6	1.56e+00	0	47	104	0	60	1048568
2026-01-17 22:06:26.40	26.69	10.77	-84.7	-88.8	2.6	1.56e+00	0	47	104	0	60	1048572
2026-01-17 22:06:27.40	26.76	10.85	-85.2	-88.8	2.6	1.56e+00	0	47	104	0	60	1048575
2026-01-17 22:06:28.41	26.83	10.93	-83.5	-88.8	2.7	1.56e+00	0	47	104	0	60	1048575
2026-01-17 22:06:29.41	26.90	11.02	-83.9	-88.8	2.6	1.56e+00	0	47	104	0	60	1048575
2026-01-17 22:06:30.42	26.96	11.10	-83.1	-88.8	2.7	1.56e+00	0	47	104	0	60	1048572
2026-01-17 22:06:31.43	27.03	11.19	-85.2	-88.8	2.8	1.56e+00	0	47	104	0	60	1048574
2026-01-17 22:06:32.43	27.10	11.27	-85.2	-88.8	2.6	1.56e+00	0	48	104	0	60	1048575
2026-01-17 22:06:33.44	27.17	11.36	-85.2	-88.8	2.7	1.56e+00	0	48	104	0	60	1048569
2026-01-17 22:06:34.45	27.24	11.44	-84.7	-88.8	2.8	1.56e+00	0	47	104	0	60	1048572
2026-01-17 22:06:35.46	27.31	11.53	-85.2	-88.8	2.7	1.56e+00	0	47	104	0	60	1048575
2026-01-17 22:06:36.47	27.38	11.62	-85.2	-88.8	2.9	1.56e+00	0	48	104	0	60	1048574
2026-01-17 22:06:37.47	27.45	11.70	-85.2	-88.8	2.6	1.56e+00	0	48	104	0	60	1048575
2026-01-17 22:06:38.48	27.52	11.79	-85.2	-88.8	2.9	1.56e+00	0	48	104	0	60	1048573
2026-01-17 22:06:39.49	27.59	11.88	-85.2	-88.8	2.7	1.56e+00	0	48	104	0	60	1048574
2026-01-17 22:06:40.50	27.66	11.96	-82.8	-88.8	2.5	1.56e+00	0	48	104	0	60	1048572
2026-01-17 22:06:41.50	27.73	12.05	-84.7	-88.8	2.6	1.56e+00	0	48	104	0	60	1048575
2026-01-17 22:06:42.51	27.81	12.14	-84.7	-88.8	2.6	1.56e+00	0	48	104	0	60	1048573
2026-01-17 22:06:43.52	27.88	12.23	-83.5	-88.8	2.6	1.56e+00	0	47	104	0	60	1048571
2026-01-17 22:06:44.53	27.95	12.32	-85.2	-88.8	2.9	1.56e+00	0	47	104	0	60	1048566
2026-01-17 22:06:45.53	28.03	12.40	-82.5	-88.8	2.8	1.56e+00	0	48	104	0	60	1048571
2026-01-17 22:06:46.54	28.10	12.49	-85.2	-88.8	2.6	1.56e+00	0	48	104	0	60	1048574
2026-01-17 22:06:47.55	28.18	12.58	-84.7	-88.8	2.5	1.56e+00	0	47	104	0	60	1048574
2026-01-17 22:06:48.55	28.25	12.67	-83.5	-88.8	2.7	1.56e+00	0	48	104	0	60	1048570
2026-01-17 22:06:49.56	28.33	12.76	-85.2	-88.8	2.7	1.56e+00	0	47	104	0	60	1048566
2026-01-17 22:06:50.56	28.40	12.85	-84.7	-88.8	2.7	1.56e+00	0	48	104	0	60	1048575
2026-01-17 22:06:51.57	28.48	12.94	-83.1	-88.8	2.6	1.56e+00	0	48	104	0	60	1048575
2026-01-17 22:06:52.58	28.55	13.03	-85.2	-88.8	2.8	1.56e+00	0	48	104	0	60	1048575
2026-01-17 22:06:53.58	28.63	13.12	-83.9	-88.8	2.4	1.56e+00	0	47	104	0	60	1048574
2026-01-17 22:06:54.59	28.71	13.21	-84.7	-88.8	2.6	1.56e+00	0	48	104	0	60	1048574
2026-01-17 22:06:55.60	28.79	13.31	-82.2	-88.8	2.5	1.56e+00	0	48	104	0	60	1048575
2026-01-17 22:06:56.61	28.87	13.40	-84.7	-88.8	2.9	1.56e+00	0	48	104	0	60	1048566
2026-01-17 22:06:57.62	28.95	13.49	-85.2	-88.8	2.7	1.56e+00	0	47	104	0	60	1048568
2026-01-17 22:06:58.63	29.03	13.58	-84.7	-88.8	2.5	1.56e+00	0	48	104	0	60	1048573
2026-01-17 22:06:59.63	29.10	13.68	-85.2	-88.8	2.8	1.56e+00	0	47	104	0	60	1048573
2026-01-17 22:07:00.64	29.19	13.77	-84.7	-88.8	2.7	1.56e+00	0	47	104	0	60	1048575
2026-01-17 22:07:01.65	29.27	13.86	-85.2	-88.8	2.8	1.56e+00	0	47	104	0	60	1048574
2026-01-17 22:07:02.65	29.35	13.96	-84.7	-88.8	2.8	1.56e+00	0	47	104	0	60	1048570
2026-01-17 22:07:03.66	29.43	14.05	-83.5	-88.8	2.6	1.56e+00	0	48	104	0	60	1048575
2026-01-17 22:07:04.67	29.51	14.15	-84.7	-88.8	2.8	1.56e+00	0	47	104	0	60	1048569
2026-01-17 22:07:05.68	29.59	14.24	-85.2	-88.8	2.8	1.56e+00	0	48	104	0	60	1048573
2026-01-17 22:07:06.69	29.68	14.34	-85.2	-88.8	2.8	1.56e+00	0	48	104	0	60	1048573
2026-01-17 22:07:07.69	29.76	14.43	-83.5	-88.8	2.7	1.56e+00	0	48	104	0	60	1048572
2026-01-17 22:07:08.70	29.85	14.53	-82.8	-88.8	2.7	1.56e+00	0	47	104	0	60	1048575
2026-01-17 22:07:09.71	29.93	14.62	-84.7	-88.8	2.7	1.56e+00	0	48	104	0	60	1048575
2026-01-17 22:07:10.72	30.02	14.72	-84.7	-88.8	2.9	1.56e+00	0	48	104	0	60	1048571
2026-01-17 22:07:11.73	30.10	14.82	-85.2	-88.8	2.6	1.56e+00	0	47	104	0	60	1048575
2026-01-17 22:07:12.73	30.19	14.91	-85.2	-88.8	2.7	1.56e+00	0	47	104	0	60	1048575
2026-01-17 22:07:13.73	30.27	15.01	-83.5	-88.8	2.7	1.56e+00	0	47	104	0	60	1048575
2026-01-17 22:07:14.74	30.36	15.11	-84.7	-88.8	2.8	1.56e+00	0	47	104	0	60	1048575
2026-01-17 22:07:15.75	30.45	15.21	-85.2	-88.8	2.8	1.56e+00	0	48	104	0	60	1048574
2026-01-17 22:07:16.76	30.54	15.30	-83.5	-88.8	2.8	1.56e+00	0	48	104	0	60	1048572
2026-01-17 22:07:17.76	30.63	15.40	-84.7	-88.8	2.8	1.56e+00	0	48	104	0	60	1048572
2026-01-17 22:07:18.77	30.72	15.50	-84.7	-88.8	2.7	1.56e+00	0	48	104	0	60	1048575
2026-01-17 22:07:19.78	30.81	15.60	-84.7	-88.8	2.6	1.56e+00	0	48	104	0	60	1048575
2026-01-17 22:07:20.77	30.90	15.70	-84.7	-88.8	2.7	1.56e+00	0	47	104	0	60	1048574
2026-01-17 22:07:21.78	30.99	15.80	-83.5	-88.8	2.9	1.56e+00	0	48	104	0	60	1048570
2026-01-17 22:07:22.79	31.08	15.90	-84.7	-88.8	2.6	1.56e+00	0	48	104	0	60	1048573
2026-01-17 22:07:23.79	31.17	16.00	-84.7	-88.8	2.7	1.56e+00	0	47	104	0	60	1048570
2026-01-17 22:07:24.80	31.27	16.10	-85.2	-88.8	2.7	1.56e+00	0	47	104	0	60	1048575
2026-01-17 22:07:25.81	31.36	16.20	-84.7	-88.8	2.8	1.56e+00	0	47	104	0	60	1048573
2026-01-17 22:07:26.81	31.45	16.30	-85.2	-88.8	2.8	1.56e+00	0	48	104	0	60	1048575
2026-01-17 22:07:27.82	31.55	16.41	-84.7	-88.8	2.9	1.56e+00	0	48	104	0	60	1048575
2026-01-17 22:07:28.82	31.64	16.51	-84.3	-88.8	2.8	1.56e+00	0	47	104	0	60	1048575
2026-01-17 22:07:29.83	31.74	16.61	-85.2	-88.8	2.6	1.56e+00	0	48	104	0	60	1048572
2026-01-17 22:07:30.84	31.84	16.72	-85.2	-88.8	2.8	1.56e+00	0	48	104	0	60	1048575
2026-01-17 22:07:31.85	31.94	16.82	-85.2	-88.8	2.7	1.56e+00	0	48	104	0	60	1048575
2026-01-17 22:07:32.85	32.03	16.92	-83.1	-88.8	2.7	1.56e+00	0	48	104	0	60	1048574
2026-01-17 22:07:33.86	32.13	17.03	-84.7	-88.8	2.7	1.56e+00	0	48	104	0	60	1048570
2026-01-17 22:07:34.87	32.23	17.13	-84.7	-88.8	2.5	1.56e+00	0	48	104	0	60	1048575
2026-01-17 22:07:35.88	32.33	17.24	-83.5	-88.8	2.9	1.56e+00	0	48	104	0	60	1048573
2026-01-17 22:07:36.89	32.43	17.34	-84.7	-88.8	2.7	1.56e+00	0	48	104	0	60	1048575
2026-01-17 22:07:37.89	32.53	17.45	-84.7	-88.8	2.7	1.56e+00	0	48	104	0	60	1048568
2026-01-17 22:07:38.90	32.64	17.55	-84.7	-88.8	2.9	1.56e+00	0	48	104	0	60	1048573
2026-01-17 22:07:39.91	32.74	17.66	-84.7	-88.8	2.7	1.56e+00	0	47	104	0	60	1048568
2026-01-17 22:07:40.91	32.84	17.77	-85.2	-88.8	2.6	1.56e+00	0	48	104	0	60	1048573
2026-01-17 22:07:41.92	32.95	17.88	-84.7	-88.8	2.9	1.56e+00	0	47	104	0	60	1048575
2026-01-17 22:07:42.93	33.05	17.98	-85.2	-88.8	2.9	1.56e+00	0	48	104	0	60	1048575
2026-01-17 22:07:43.93	33.16	18.09	-85.2	-88.8	2.8	1.56e+00	0	47	104	0	60	1048575
2026-01-17 22:07:44.93	33.26	18.20	-84.7	-88.8	2.8	1.56e+00	0	48	104	0	60	1048575
2026-01-17 22:07:45.94	33.37	18.31	-85.2	-88.8	2.8	1.56e+00	0	47	104	0	60	1048575
2026-01-17 22:07:46.95	33.48	18.42	-84.7	-88.8	2.8	1.56e+00	0	48	104	0	60	1048575
2026-01-17 22:07:47.96	33.59	18.53	-84.7	-88.8	2.8	1.56e+00	0	48	104	0	60	1048575
2026-01-17 22:07:48.96	33.69	18.64	-84.7	-88.8	2.7	1.56e+00	0	47	104	0	60	1048575
2026-01-17 22:07:49.96	33.80	18.75	-84.7	-88.8	2.7	1.56e+00	0	48	104	0	60	1048572
2026-01-17 22:07:50.97	33.92	18.86	-85.2	-88.8	2.8	1.56e+00	0	47	104	0	60	1048575
2026-01-17 22:07:51.97	34.03	18.97	-84.7	-88.8	2.6	1.56e+00	0	47	104	0	60	1048575
2026-01-17 22:07:52.98	34.14	19.08	-84.7	-88.8	2.6	1.56e+00	0	48	104	0	60	1048574
2026-01-17 22:07:53.98	34.25	19.19	-84.7	-88.8	2.8	1.56e+00	0	48	104	0	60	1048571
2026-01-17 22:07:54.99	34.37	19.30	-84.7	-88.8	2.7	1.56e+00	0	47	104	0	60	1048574
2026-01-17 22:07:55.99	34.48	19.42	-84.7	-88.8	2.7	1.56e+00	0	47	104	0	60	1048572
2026-01-17 22:07:57.00	34.59	19.53	-83.5	-88.8	2.9	1.56e+00	0	48	104	0	60	1048575
2026-01-17 22:07:58.01	34.71	19.64	-84.7	-88.8	2.9	1.56e+00	0	47	104	0	60	1048575
2026-01-17 22:07:59.01	34.83	19.76	-83.1	-88.8	2.8	1.56e+00	0	47	104	0	60	1048572
2026-01-17 22:08:00.02	34.95	19.87	-84.7	-88.8	2.7	1.56e+00	0	48	104	0	60	1048575
2026-01-17 22:08:01.03	35.07	19.99	-84.7	-88.8	2.8	1.56e+00	0	47	104	0	60	1048572
2026-01-17 22:08:02.04	35.19	20.10	-84.7	-88.8	2.8	1.56e+00	0	47	104	0	60	1048574
2026-01-17 22:08:03.05	35.31	20.22	-84.3	-88.8	2.7	1.56e+00	0	47	104	0	60	1048569
2026-01-17 22:08:04.06	35.43	20.34	-84.7	-88.8	2.9	1.56e+00	0	47	104	0	60	1048573
2026-01-17 22:08:05.07	35.55	20.45	-84.7	-88.8	2.7	1.56e+00	0	47	104	0	60	1048575
2026-01-17 22:08:06.08	35.67	20.57	-84.7	-88.8	2.9	1.56e+00	0	47	104	0	60	1048570
2026-01-17 22:08:07.09	35.80	20.69	-83.1	-88.8	2.8	1.56e+00	0	48	104	0	60	1048575
2026-01-17 22:08:08.09	35.92	20.80	-84.7	-88.8	2.7	1.56e+00	0	48	104	0	60	1048575
2026-01-17 22:08:09.09	36.05	20.92	-83.1	-88.8	2.6	1.56e+00	0	48	104	0	60	1048575
2026-01-17 22:08:10.10	36.18	21.04	-85.2	-88.8	2.8	1.56e+00	0	48	104	0	60	1048571
2026-01-17 22:08:11.10	36.30	21.16	-84.3	-88.8	2.7	1.56e+00	0	48	104	0	60	1048572
2026-01-17 22:08:12.11	36.43	21.28	-83.5	-88.8	2.7	1.56e+00	0	48	104	0	60	1048575
2026-01-17 22:08:13.11	36.56	21.40	-84.7	-88.8	2.9	1.56e+00	0	48	104	0	60	1048575
2026-01-17 22:08:14.12	36.69	21.52	-84.3	-88.8	2.8	1.56e+00	0	48	104	0	60	1048572
2026-01-17 22:08:15.13	36.82	21.64	-84.7	-88.8	2.5	1.56e+00	0	48	104	0	60	1048575
2026-01-17 22:08:16.13	36.96	21.76	-84.7	-88.8	2.6	1.56e+00	0	48	104	0	60	1048574
2026-01-17 22:08:17.14	37.09	21.88	-84.7	-88.8	2.7	1.56e+00	0	48	104	0	60	1048575
2026-01-17 22:08:18.14	37.22	22.00	-84.7	-88.8	2.8	1.56e+00	0	48	104	0	60	1048574
2026-01-17 22:08:19.16	37.36	22.13	-84.7	-88.8	2.8	1.56e+00	0	48	104	0	60	1048575
2026-01-17 22:08:20.16	37.50	22.25	-84.7	-88.8	2.8	1.56e+00	0	48	104	0	60	1048561
2026-01-17 22:08:21.16	37.63	22.37	-84.7	-88.8	2.7	1.56e+00	0	47	104	0	60	1048574
2026-01-17 22:08:22.17	37.77	22.50	-84.7	-88.8	2.7	1.56e+00	0	47	104	0	60	1048573
2026-01-17 22:08:23.18	37.91	22.62	-83.1	-88.8	2.7	1.56e+00	0	47	104	0	60	1048574
2026-01-17 22:08:24.18	38.05	22.75	-85.2	-88.8	2.6	1.56e+00	0	48	104	0	60	1048570
2026-01-17 22:08:25.19	38.20	22.87	-84.3	-88.8	2.7	1.56e+00	0	48	104	0	60	1048574
2026-01-17 22:08:26.19	38.34	23.00	-84.7	-88.8	2.7	1.56e+00	0	47	104	0	60	1048569
2026-01-17 22:08:27.20	38.48	23.12	-84.3	-88.8	2.4	1.56e+00	0	48	104	0	60	1048575
2026-01-17 22:08:28.21	38.63	23.25	-84.7	-88.8	2.6	1.56e+00	0	47	104	0	60	1048573
2026-01-17 22:08:29.21	38.78	23.38	-84.7	-88.8	2.9	1.56e+00	0	48	104	0	60	1048574
2026-01-17 22:08:30.22	38.92	23.50	-82.2	-88.8	2.7	1.56e+00	0	48	104	0	60	1048574
2026-01-17 22:08:31.23	39.07	23.63	-84.7	-88.8	2.6	1.56e+00	0	48	104	0	60	1048573
2026-01-17 22:08:32.24	39.23	23.76	-83.1	-88.8	2.8	1.56e+00	0	47	104	0	60	1048572
2026-01-17 22:08:33.25	39.38	23.89	-84.3	-88.8	2.6	1.56e+00	0	48	104	0	60	1048574
2026-01-17 22:08:34.25	39.53	24.02	-84.7	-88.8	2.8	1.56e+00	0	47	104	0	60	1048574
2026-01-17 22:08:35.26	39.68	24.15	-82.5	-88.8	2.4	1.56e+00	0	47	104	0	60	1048574
2026-01-17 22:08:36.27	39.84	24.28	-84.3	-88.8	2.9	1.56e+00	0	48	104	0	60	1048575
2026-01-17 22:08:37.28	40.00	24.41	-85.2	-88.8	2.7	1.56e+00	0	48	104	0	60	1048567
2026-01-17 22:08:38.28	40.15	24.54	-84.7	-88.8	2.7	1.56e+00	0	47	104	0	60	1048573
2026-01-17 22:08:39.29	40.31	24.67	-84.7	-88.8	2.8	1.56e+00	0	47	104	0	60	1048571
2026-01-17 22:08:40.30	40.47	24.80	-82.2	-88.8	2.4	1.56e+00	0	47	104	0	60	1048575
2026-01-17 22:08:41.30	40.63	24.93	-84.7	-88.8	2.8	1.56e+00	0	48	104	0	60	1048575
2026-01-17 22:08:42.31	40.80	25.07	-84.7	-88.8	2.8	1.56e+00	0	47	104	0	60	1048574
2026-01-17 22:08:43.31	40.96	25.20	-84.7	-88.8	2.9	1.56e+00	0	48	104	0	60	1048575
2026-01-17 22:08:44.32	41.12	25.33	-84.7	-88.8	2.8	1.56e+00	0	47	104	0	60	1048575
2026-01-17 22:08:45.33	41.29	25.47	-82.5	-88.8	2.8	1.56e+00	0	48	104	0	60	1048575
2026-01-17 22:08:46.34	41.46	25.60	-84.7	-88.8	2.9	1.56e+00	0	48	104	0	60	1048574
2026-01-17 22:08:47.34	41.63	25.74	-84.7	-88.8	2.5	1.56e+00	0	48	104	0	60	1048574
2026-01-17 22:08:48.35	41.80	25.87	-84.7	-88.8	2.8	1.56e+00	0	47	104	0	60	1048572
2026-01-17 22:08:49.36	41.97	26.01	-84.3	-88.8	2.8	1.56e+00	0	48	104	0	60	1048571
2026-01-17 22:08:50.37	42.15	26.14	-82.8	-88.8	2.7	1.56e+00	0	47	104	0	60	1048574
2026-01-17 22:08:51.37	42.32	26.28	-84.7	-88.8	2.9	1.56e+00	0	47	104	0	60	1048574
2026-01-17 22:08:52.38	42.50	26.42	-84.7	-88.8	2.6	1.56e+00	0	48	104	0	60	1048573
2026-01-17 22:08:53.39	42.68	26.56	-84.7	-88.8	2.7	1.56e+00	0	48	104	0	60	1048575
2026-01-17 22:08:54.39	42.86	26.69	-84.7	-88.8	2.4	1.56e+00	0	48	104	0	60	1048570
2026-01-17 22:08:55.40	43.04	26.83	-84.7	-88.8	2.7	1.56e+00	0	48	104	0	60	1048572
2026-01-17 22:08:56.41	43.22	26.97	-83.1	-88.8	2.7	1.56e+00	0	48	104	0	60	1048574
2026-01-17 22:08:57.41	43.41	27.11	-84.7	-88.8	2.5	1.56e+00	0	47	104	0	60	1048574
2026-01-17 22:08:58.42	43.59	27.25	-84.3	-88.8	2.8	1.56e+00	0	48	104	0	60	1048575
2026-01-17 22:08:59.43	43.78	27.39	-84.7	-88.8	2.8	1.56e+00	0	48	104	0	60	1048574
2026-01-17 22:09:00.43	43.97	27.53	-84.7	-88.8	2.7	1.56e+00	0	48	104	0	60	1048575
2026-01-17 22:09:01.44	44.16	27.67	-85.2	-88.8	2.7	1.56e+00	0	48	104	0	60	1048573
2026-01-17 22:09:02.45	44.35	27.81	-85.2	-88.8	2.6	1.56e+00	0	48	104	0	60	1048573
2026-01-17 22:09:03.45	44.55	27.95	-84.7	-88.8	2.6	1.56e+00	0	48	104	0	60	1048573
2026-01-17 22:09:04.46	44.74	28.09	-84.7	-88.8	2.8	1.56e+00	0	47	104	0	60	1048567
2026-01-17 22:09:05.46	44.94	28.23	-84.7	-88.8	2.6	1.56e+00	0	48	104	0	60	1048575
2026-01-17 22:09:06.47	45.14	28.38	-85.2	-88.8	2.9	1.56e+00	0	47	104	0	60	1048575
2026-01-17 22:09:07.48	45.34	28.52	-84.3	-88.8	2.9	1.56e+00	0	48	104	0	60	1048570
2026-01-17 22:09:08.48	45.54	28.66	-84.7	-88.8	2.6	1.56e+00	0	47	104	0	60	1048571
2026-01-17 22:09:09.49	45.75	28.81	-84.7	-88.8	2.8	1.56e+00	0	47	104	0	60	1048575
2026-01-17 22:09:10.49	45.95	28.95	-84.7	-88.8	2.9	1.56e+00	0	47	104	0	60	1048573
2026-01-17 22:09:11.50	46.16	29.09	-84.7	-88.8	2.8	1.56e+00	0	48	104	0	60	1048572
2026-01-17 22:09:12.51	46.37	29.24	-85.2	-88.8	2.6	1.56e+00	0	47	104	0	60	1048575
2026-01-17 22:09:13.52	46.58	29.38	-84.7	-88.8	2.6	1.56e+00	0	47	104	0	60	1048574
2026-01-17 22:09:14.52	46.80	29.53	-84.7	-88.8	2.8	1.56e+00	0	47	104	0	60	1048575
2026-01-17 22:09:15.52	47.01	29.67	-84.7	-88.8	2.9	1.56e+00	0	47	104	0	60	1048569
2026-01-17 22:09:16.53	47.23	29.82	-84.7	-88.8	2.8	1.56e+00	0	47	104	0	60	1048575
2026-01-17 22:09:17.54	47.45	29.97	-84.7	-88.8	2.6	1.56e+00	0	47	104	0	60	1048570
2026-01-17 22:09:18.55	47.67	30.11	-84.7	-88.8	2.7	1.56e+00	0	47	104	0	60	1048574
2026-01-17 22:09:19.56	47.90	30.26	-84.7	-88.8	2.8	1.56e+00	0	47	104	0	60	1048575
2026-01-17 22:09:20.56	48.12	30.41	-82.2	-88.8	2.7	1.56e+00	0	47	104	0	60	1048575
2026-01-17 22:09:21.57	48.35	30.55	-84.7	-88.8	2.8	1.56e+00	0	47	104	0	60	1048575
2026-01-17 22:09:22.58	48.58	30.70	-83.9	-88.8	2.7	1.56e+00	0	47	104	0	60	1048572
2026-01-17 22:09:23.58	48.81	30.85	-85.2	-88.8	2.6	1.56e+00	0	47	104	0	60	1048575
2026-01-17 22:09:24.59	49.04	31.00	-82.8	-88.8	2.8	1.56e+00	0	47	104	0	60	1048574
2026-01-17 22:09:25.59	49.28	31.15	-85.2	-88.8	2.9	1.56e+00	0	47	104	0	60	1048575
2026-01-17 22:09:26.60	49.51	31.29	-84.7	-88.8	2.8	1.56e+00	0	47	104	0	60	1048572
2026-01-17 22:09:27.61	49.76	31.44	-84.7	-88.8	2.7	1.56e+00	0	47	104	0	60	1048573
2026-01-17 22:09:28.61	50.00	31.59	-83.1	-88.8	2.7	1.56e+00	0	47	104	0	60	1048575
2026-01-17 22:09:29.62	50.24	31.74	-85.2	-88.8	2.6	1.56e+00	0	47	104	0	60	1048570
2026-01-17 22:09:30.63	50.49	31.89	-84.7	-88.8	2.7	1.56e+00	0	48	104	0	60	1048574
2026-01-17 22:09:31.63	50.74	32.04	-85.2	-88.8	2.5	1.56e+00	0	48	104	0	60	1048575
2026-01-17 22:09:32.63	50.98	32.19	-83.5	-88.8	2.7	1.56e+00	0	48	104	0	60	1048574
2026-01-17 22:09:33.64	51.24	32.34	-85.2	-88.8	2.9	1.56e+00	0	48	104	0	60	1048575
2026-01-17 22:09:34.64	51.49	32.49	-84.7	-88.8	2.8	1.56e+00	0	47	104	0	60	1048575
2026-01-17 22:09:35.65	51.75	32.64	-84.7	-88.8	2.8	1.56e+00	0	47	104	0	60	1048575
2026-01-17 22:09:36.65	52.01	32.79	-82.8	-88.8	2.3	1.56e+00	0	47	104	0	60	1048572
2026-01-17 22:09:37.66	52.27	32.94	-84.7	-88.8	2.7	1.56e+00	0	47	104	0	60	1048574
2026-01-17 22:09:38.66	52.54	33.09	-85.2	-88.8	2.6	1.56e+00	0	48	104	0	60	1048575
2026-01-17 22:09:39.66	52.80	33.24	-84.7	-88.8	2.7	1.56e+00	0	48	104	0	60	1048574
2026-01-17 22:09:40.67	53.07	33.39	-82.2	-88.8	2.7	1.56e+00	0	48	104	0	60	1048575
2026-01-17 22:09:41.67	53.34	33.54	-84.7	-88.8	2.7	1.56e+00	0	47	104	0	60	1048575
2026-01-17 22:09:42.68	53.62	33.69	-84.7	-88.8	2.7	1.56e+00	0	47	104	0	60	1048573
2026-01-17 22:09:43.69	53.90	33.84	-84.7	-88.8	2.7	1.56e+00	0	48	104	0	60	1048575
2026-01-17 22:09:44.69	54.18	33.99	-84.7	-88.8	2.6	1.56e+00	0	47	104	0	60	1048573
2026-01-17 22:09:45.70	54.46	34.15	-84.7	-88.8	2.4	1.56e+00	0	47	104	0	60	1048571
2026-01-17 22:09:46.70	54.74	34.30	-84.7	-88.8	3.0	1.56e+00	0	48	104	0	60	1048575
2026-01-17 22:09:47.71	55.03	34.45	-85.2	-88.8	2.8	1.56e+00	0	48	104	0	60	1048573
2026-01-17 22:09:48.71	55.32	34.60	-83.1	-88.8	2.8	1.56e+00	0	48	104	0	60	1048574
2026-01-17 22:09:49.72	55.61	34.75	-85.2	-88.8	2.8	1.56e+00	0	47	104	0	60	1048573
2026-01-17 22:09:50.73	55.91	34.90	-82.5	-88.8	2.7	1.56e+00	0	48	104	0	60	1048573
2026-01-17 22:09:51.73	56.21	35.05	-84.7	-88.8	2.7	1.56e+00	0	47	104	0	60	1048574
2026-01-17 22:09:52.74	56.51	35.20	-85.2	-88.8	2.5	1.56e+00	0	47	104	0	60	1048567
2026-01-17 22:09:53.74	56.81	35.35	-85.2	-88.8	2.7	1.56e+00	0	47	104	0	60	1048575
2026-01-17 22:09:54.75	57.12	35.50	-85.2	-88.8	2.8	1.56e+00	0	48	104	0	60	1048573
2026-01-17 22:09:55.76	57.43	35.65	-85.2	-88.8	2.6	1.56e+00	0	47	104	0	60	1048570
2026-01-17 22:09:56.76	57.74	35.80	-84.7	-88.8	2.9	1.56e+00	0	47	104	0	60	1048573
2026-01-17 22:09:57.77	58.05	35.95	-84.7	-88.8	2.8	1.56e+00	0	47	104	0	60	1048572
2026-01-17 22:09:58.77	58.37	36.10	-85.2	-88.8	2.7	1.56e+00	0	47	104	0	60	1048573
2026-01-17 22:09:59.78	58.69	36.25	-84.7	-88.8	2.6	1.56e+00	0	47	104	0	60	1048575
2026-01-17 22:10:00.79	59.02	36.40	-84.7	-88.8	2.7	1.56e+00	0	47	104	0	60	1048573
2026-01-17 22:10:01.80	59.34	36.54	-85.2	-88.8	2.6	1.56e+00	0	48	104	0	60	1048573
2026-01-17 22:10:02.80	59.67	36.69	-83.1	-88.8	2.8	1.56e+00	0	48	104	0	60	1048574
2026-01-17 22:10:03.80	60.00	36.84	-84.3	-88.8	2.6	1.56e+00	0	48	104	0	60	1048573
2026-01-17 22:10:04.81	60.34	36.99	-84.7	-88.8	2.8	1.56e+00	0	48	104	0	60	1048573
2026-01-17 22:10:05.81	60.67	37.13	-85.2	-88.8	2.6	1.56e+00	0	48	104	0	60	1048575
2026-01-17 22:10:06.82	61.02	37.28	-84.7	-88.8	2.7	1.56e+00	0	48	104	0	60	1048572
2026-01-17 22:10:07.83	61.36	37.42	-83.9	-88.8	2.8	1.56e+00	0	47	104	0	60	1048575
2026-01-17 22:10:08.84	61.71	37.57	-83.9	-88.8	2.6	1.56e+00	0	47	104	0	60	1048575
2026-01-17 22:10:09.85	62.06	37.72	-84.7	-88.8	2.7	1.56e+00	0	48	104	0	60	1048574
2026-01-17 22:10:10.85	62.41	37.86	-84.7	-88.8	2.5	1.56e+00	0	48	104	0	60	1048571
2026-01-17 22:10:11.86	62.77	38.00	-84.7	-88.8	2.6	1.56e+00	0	48	104	0	60	1048575
2026-01-17 22:10:12.87	63.13	38.15	-83.5	-88.8	2.9	1.56e+00	0	47	104	0	60	1048574
2026-01-17 22:10:13.87	63.49	38.29	-85.2	-88.8	2.8	1.56e+00	0	48	104	0	60	1048575
2026-01-17 22:10:14.88	63.86	38.43	-84.7	-88.8	2.8	1.56e+00	0	47	104	0	60	1048573
2026-01-17 22:10:15.89	64.23	38.57	-85.2	-88.8	2.7	1.56e+00	0	47	104	0	60	1048575
2026-01-17 22:10:16.90	64.61	38.71	-83.9	-88.8	2.6	1.56e+00	0	48	104	0	60	1048575
2026-01-17 22:10:17.91	64.98	38.85	-84.7	-88.8	3.0	1.56e+00	0	48	104	0	60	1048571
2026-01-17 22:10:18.92	65.36	38.99	-83.1	-88.8	2.8	1.56e+00	0	48	104	0	60	1048573
2026-01-17 22:10:19.92	65.74	39.13	-85.2	-88.8	2.8	1.56e+00	0	48	104	0	60	1048574
2026-01-17 22:10:20.93	66.13	39.27	-84.7	-88.8	2.7	1.56e+00	0	47	104	0	60	1048574
2026-01-17 22:10:21.94	66.52	39.40	-85.2	-88.8	2.6	1.56e+00	0	47	104	0	60	1048575
2026-01-17 22:10:22.95	66.91	39.54	-83.1	-88.8	2.9	1.56e+00	0	47	104	0	60	1048575
2026-01-17 22:10:23.95	67.30	39.67	-83.9	-88.8	2.8	1.56e+00	0	47	104	0	60	1048575
2026-01-17 22:10:24.96	67.70	39.81	-85.2	-88.8	2.7	1.56e+00	0	47	104	0	60	1048574
2026-01-17 22:10:25.97	68.11	39.94	-85.2	-88.8	2.8	1.56e+00	0	47	104	0	60	1048572
2026-01-17 22:10:26.97	68.51	40.07	-85.2	-88.8	2.8	1.56e+00	0	48	104	0	60	1048572
2026-01-17 22:10:27.98	68.92	40.20	-85.2	-88.8	2.7	1.56e+00	0	48	104	0	60	1048565
2026-01-17 22:10:28.99	69.33	40.33	-84.7	-88.8	2.7	1.56e+00	0	47	104	0	60	1048575
2026-01-17 22:10:30.00	69.75	40.46	-85.2	-88.8	2.8	1.56e+00	0	48	104	0	60	1048570
2026-01-17 22:10:31.00	70.16	40.58	-85.2	-88.8	2.7	1.56e+00	0	47	104	0	60	1048573
2026-01-17 22:10:32.01	70.58	40.71	-84.7	-88.8	2.7	1.56e+00	0	48	104	0	60	1048572
2026-01-17 22:10:33.02	71.01	40.83	-85.2	-88.8	2.8	1.56e+00	0	48	104	0	60	1048574
2026-01-17 22:10:34.03	71.44	40.96	-84.7	-88.8	2.6	1.56e+00	0	48	104	0	60	1048575
2026-01-17 22:10:35.03	71.86	41.08	-85.2	-88.8	2.6	1.56e+00	0	48	104	0	60	1048575
2026-01-17 22:10:36.04	72.30	41.20	-85.2	-88.8	2.8	1.56e+00	0	47	104	0	60	1048573
2026-01-17 22:10:37.05	72.74	41.32	-85.2	-88.8	2.6	1.56e+00	0	47	104	0	60	1048575
2026-01-17 22:10:38.05	73.17	41.43	-83.1	-88.8	2.4	1.56e+00	0	48	104	0	60	1048575
2026-01-17 22:10:39.06	73.62	41.55	-84.7	-88.8	2.7	1.56e+00	0	47	104	0	60	1048572
2026-01-17 22:10:40.06	74.06	41.66	-84.7	-88.8	2.7	1.56e+00	0	47	104	0	60	1048572
2026-01-17 22:10:41.07	74.51	41.78	-85.2	-88.8	2.9	1.56e+00	0	47	104	0	60	1048571
2026-01-17 22:10:42.07	74.96	41.89	-84.7	-88.8	2.8	1.56e+00	0	48	104	0	60	1048573
2026-01-17 22:10:43.08	75.42	42.00	-84.7	-88.8	2.8	1.56e+00	0	48	104	0	60	1048574
2026-01-17 22:10:44.09	75.88	42.10	-83.1	-88.8	2.8	1.56e+00	0	47	104	0	60	1048575
2026-01-17 22:10:45.09	76.34	42.21	-84.7	-88.8	2.8	1.56e+00	0	48	104	0	60	1048570
2026-01-17 22:10:46.10	76.81	42.31	-85.2	-88.8	2.5	1.56e+00	0	48	104	0	60	1048571
2026-01-17 22:10:47.11	77.27	42.42	-85.2	-88.8	2.8	1.56e+00	0	48	104	0	60	1048575
2026-01-17 22:10:48.12	77.75	42.52	-84.7	-88.8	2.6	1.56e+00	0	48	104	0	60	1048575
2026-01-17 22:10:49.13	78.22	42.62	-84.7	-88.8	2.9	1.56e+00	0	48	104	0	60	1048571
2026-01-17 22:10:50.13	78.69	42.71	-83.9	-88.8	2.6	1.56e+00	0	48	104	0	60	1048572
2026-01-17 22:10:51.14	79.18	42.81	-84.3	-88.8	2.9	1.56e+00	0	48	104	0	60	1048573
2026-01-17 22:10:52.15	79.66	42.90	-85.2	-88.8	2.9	1.56e+00	0	48	104	0	60	1048575
2026-01-17 22:10:53.15	80.14	42.99	-85.2	-88.8	2.7	1.56e+00	0	48	104	0	60	1048571
2026-01-17 22:10:54.16	80.63	43.08	-85.2	-88.8	2.7	1.56e+00	0	48	104	0	60	1048572
2026-01-17 22:10:55.16	81.12	43.17	-83.9	-88.8	2.9	1.56e+00	0	48	104	0	60	1048573
2026-01-17 22:10:56.17	81.61	43.25	-85.2	-88.8	2.6	1.56e+00	0	48	104	0	60	1048573
2026-01-17 22:10:57.18	82.11	43.34	-85.2	-88.8	2.8	1.56e+00	0	47	104	0	60	1048573
2026-01-17 22:10:58.18	82.60	43.42	-85.2	-88.8	2.7	1.56e+00	0	47	104	0	60	1048575
2026-01-17 22:10:59.19	83.10	43.49	-83.1	-88.8	2.6	1.56e+00	0	47	104	0	60	1048570
2026-01-17 22:11:00.20	83.61	43.57	-85.2	-88.8	2.6	1.56e+00	0	47	104	0	60	1048574
2026-01-17 22:11:01.20	84.11	43.64	-84.7	-88.8	2.7	1.56e+00	0	47	104	0	60	1048575
2026-01-17 22:11:02.21	84.62	43.72	-83.5	-88.8	2.7	1.56e+00	0	47	104	0	60	1048575
2026-01-17 22:11:03.22	85.13	43.79	-82.8	-88.8	2.8	1.56e+00	0	47	104	0	60	1048574
2026-01-17 22:11:04.22	85.64	43.85	-83.5	-88.8	2.7	1.56e+00	0	48	104	0	60	1048574
2026-01-17 22:11:05.23	86.15	43.92	-85.2	-88.8	2.6	1.56e+00	0	48	104	0	60	1048575
2026-01-17 22:11:06.24	86.67	43.98	-84.7	-88.8	2.7	1.56e+00	0	47	104	0	60	1048575
2026-01-17 22:11:07.24	87.19	44.04	-84.7	-88.8	2.7	1.56e+00	0	48	104	0	60	1048575
2026-01-17 22:11:08.25	87.71	44.10	-85.2	-88.8	2.6	1.56e+00	0	47	104	0	60	1048563
2026-01-17 22:11:09.26	88.23	44.15	-83.5	-88.8	2.7	1.56e+00	0	47	104	0	60	1048575
2026-01-17 22:11:10.27	88.76	44.20	-85.2	-88.8	2.7	1.56e+00	0	47	104	0	60	1048571
2026-01-17 22:11:11.27	89.28	44.25	-85.2	-88.8	2.6	1.56e+00	0	47	104	0	60	1048573
2026-01-17 22:11:12.27	89.80	44.30	-85.2	-88.8	2.7	1.56e+00	0	47	104	0	60	1048569
2026-01-17 22:11:13.28	90.33	44.34	-85.2	-88.8	2.6	1.56e+00	0	47	104	0	60	1048575
2026-01-17 22:11:14.28	90.86	44.39	-85.2	-88.8	2.7	1.56e+00	0	47	104	0	60	1048572
2026-01-17 22:11:15.29	91.39	44.42	-85.2	-88.8	2.7	1.56e+00	0	48	104	0	60	1048572
2026-01-17 22:11:16.30	91.92	44.46	-85.2	-88.8	2.6	1.56e+00	0	47	104	0	60	1048572
2026-01-17 22:11:17.30	92.45	44.50	-85.2	-88.8	2.5	1.56e+00	0	47	104	0	60	1048574
2026-01-17 22:11:18.31	92.99	44.53	-85.2	-88.8	2.7	1.56e+00	0	47	104	0	60	1048574
2026-01-17 22:11:19.32	93.53	44.56	-85.2	-88.8	2.6	1.56e+00	0	47	104	0	60	1048574
2026-01-17 22:11:20.33	94.06	44.58	-85.2	-88.8	2.7	1.56e+00	0	47	104	0	60	1048575
2026-01-17 22:11:21.33	94.60	44.60	-85.2	-88.8	3.0	1.56e+00	0	48	104	0	60	1048575
2026-01-17 22:11:22.34	95.14	44.63	-85.2	-88.8	2.9	1.56e+00	0	48	104	0	60	1048575
2026-01-17 22:11:23.35	95.68	44.64	-83.1	-88.8	2.8	1.56e+00	0	48	104	0	60	1048575
2026-01-17 22:11:24.36	96.22	44.66	-83.1	-88.8	2.7	1.56e+00	0	48	104	0	60	1048570
2026-01-17 22:11:25.37	96.76	44.67	-85.2	-88.8	2.7	1.56e+00	0	48	104	0	60	1048572
2026-01-17 22:11:26.37	97.30	44.68	-85.2	-88.8	2.5	1.56e+00	0	48	104	0	60	1048573
2026-01-17 22:11:27.38	97.84	44.69	-83.1	-88.8	2.7	1.56e+00	0	48	104	0	60	1048573
2026-01-17 22:11:28.39	98.38	44.69	-85.2	-88.8	2.7	1.56e+00	0	48	104	0	60	1048574
2026-01-17 22:11:29.40	98.92	44.69	-83.9	-88.8	2.7	1.56e+00	0	48	104	0	60	1048573
2026-01-17 22:11:30.40	99.46	44.69	-82.2	-88.8	2.7	1.56e+00	0	48	104	0	60	1048571
2026-01-17 22:11:31.41	100.00	44.69	-85.2	-88.8	2.7	1.56e+00	0	48	104	0	60	1048572
2026-01-17 22:11:32.41	100.54	44.68	-83.1	-88.8	2.7	1.56e+00	0	48	104	0	60	1048575
2026-01-17 22:11:33.42	101.08	44.67	-85.2	-88.8	2.7	1.56e+00	0	48	104	0	60	1048575
2026-01-17 22:11:34.42	101.62	44.66	-83.1	-88.8	2.9	1.56e+00	0	48	104	0	60	1048574
2026-01-17 22:11:35.43	102.16	44.64	-82.2	-88.8	2.7	1.56e+00	0	48	104	0	60	1048574
2026-01-17 22:11:36.43	102.69	44.62	-85.2	-88.8	2.7	1.56e+00	0	48	104	0	60	1048575
2026-01-17 22:11:37.44	103.23	44.60	-85.2	-88.8	2.8	1.56e+00	0	48	104	0	60	1048575
2026-01-17 22:11:38.45	103.77	44.58	-83.1	-88.8	2.7	1.56e+00	0	48	104	0	60	1048575
2026-01-17 22:11:39.46	104.31	44.55	-83.1	-88.8	2.9	1.56e+00	0	48	104	0	60	1048572
2026-01-17 22:11:40.46	104.84	44.53	-85.2	-88.8	2.8	1.56e+00	0	47	104	0	60	1048575
2026-01-17 22:11:41.47	105.38	44.49	-85.2	-88.8	2.7	1.56e+00	0	48	104	0	60	1048569
2026-01-17 22:11:42.48	105.91	44.46	-85.2	-88.8	2.7	1.56e+00	0	48	104	0	60	1048568
2026-01-17 22:11:43.48	106.44	44.42	-83.1	-88.8	2.7	1.56e+00	0	48	104	0	60	1048572
2026-01-17 22:11:44.49	106.97	44.38	-82.5	-88.8	2.6	1.56e+00	0	48	104	0	60	1048574
2026-01-17 22:11:45.49	107.50	44.34	-84.7	-88.8	2.7	1.56e+00	0	48	104	0	60	1048573
2026-01-17 22:11:46.49	108.03	44.30	-85.2	-88.8	2.7	1.56e+00	0	48	104	0	60	1048571
2026-01-17 22:11:47.50	108.55	44.25	-85.2	-88.8	2.8	1.56e+00	0	47	104	0	60	1048575
2026-01-17 22:11:48.50	109.08	44.20	-85.2	-88.8	2.9	1.56e+00	0	48	104	0	60	1048575
2026-01-17 22:11:49.51	109.60	44.15	-83.5	-88.8	2.6	1.56e+00	0	47	104	0	60	1048565
2026-01-17 22:11:50.52	110.13	44.09	-85.2	-88.8	2.7	1.56e+00	0	48	104	0	60	1048574
2026-01-17 22:11:51.52	110.64	44.03	-85.2	-88.8	2.6	1.56e+00	0	48	104	0	60	1048575
2026-01-17 22:11:52.53	111.16	43.97	-85.2	-88.8	2.7	1.56e+00	0	48	104	0	60	1048575
2026-01-17 22:11:53.53	111.68	43.91	-84.7	-88.8	2.8	1.56e+00	0	47	104	0	60	1048575
2026-01-17 22:11:54.54	112.19	43.85	-84.7	-88.8	2.7	1.56e+00	0	48	104	0	60	1048575
2026-01-17 22:11:55.55	112.70	43.78	-84.7	-88.8	2.7	1.56e+00	0	47	104	0	60	1048575
2026-01-17 22:11:56.55	113.21	43.71	-83.1	-88.8	2.5	1.56e+00	0	48	104	0	60	1048575
2026-01-17 22:11:57.56	113.72	43.64	-85.2	-88.8	2.6	1.56e+00	0	47	104	0	60	1048572
2026-01-17 22:11:58.57	114.23	43.57	-85.2	-88.8	2.8	1.56e+00	0	47	104	0	60	1048573
2026-01-17 22:11:59.57	114.73	43.49	-85.2	-88.8	2.7	1.56e+00	0	47	104	0	60	1048573
2026-01-17 22:12:00.58	115.23	43.41	-82.2	-88.8	2.7	1.56e+00	0	47	104	0	60	1048575
2026-01-17 22:12:01.58	115.73	43.33	-83.1	-88.8	2.8	1.56e+00	0	47	104	0	60	1048571
2026-01-17 22:12:02.59	116.22	43.25	-85.2	-88.8	2.8	1.56e+00	0	48	104	0	60	1048575
2026-01-17 22:12:03.59	116.71	43.16	-85.2	-88.8	2.7	1.56e+00	0	47	104	0	60	1048575
2026-01-17 22:12:04.60	117.21	43.07	-83.1	-88.8	2.7	1.56e+00	0	48	104	0	60	1048574
2026-01-17 22:12:05.61	117.70	42.98	-82.8	-88.8	2.9	1.56e+00	0	47	104	0	60	1048573
2026-01-17 22:12:06.61	118.18	42.89	-85.2	-88.8	2.6	1.56e+00	0	48	104	0	60	1048575
2026-01-17 22:12:07.62	118.66	42.80	-83.9	-88.8	2.8	1.56e+00	0	48	104	0	60	1048575
2026-01-17 22:12:08.63	119.14	42.70	-83.1	-88.8	2.8	1.56e+00	0	48	104	0	60	1048568
2026-01-17 22:12:09.64	119.62	42.61	-85.2	-88.8	2.9	1.56e+00	0	47	104	0	60	1048572
2026-01-17 22:12:10.65	120.10	42.51	-84.7	-88.8	2.9	1.56e+00	0	48	104	0	60	1048573
2026-01-17 22:12:11.65	120.57	42.41	-85.2	-88.8	2.9	1.56e+00	0	48	104	0	60	1048565
2026-01-17 22:12:12.66	121.04	42.30	-85.2	-88.8	2.8	1.56e+00	0	48	104	0	60	1048575
2026-01-17 22:12:13.67	121.50	42.20	-83.5	-88.8	2.8	1.56e+00	0	47	104	0	60	1048574
2026-01-17 22:12:14.68	121.97	42.09	-83.1	-88.8	2.6	1.56e+00	0	48	104	0	60	1048575
2026-01-17 22:12:15.68	122.42	41.98	-85.2	-88.8	2.8	1.56e+00	0	47	104	0	60	1048575
2026-01-17 22:12:16.69	122.88	41.87	-84.7	-88.8	2.7	1.56e+00	0	47	104	0	60	1048575
2026-01-17 22:12:17.70	123.34	41.76	-85.2	-88.8	2.9	1.56e+00	0	47	104	0	60	1048575
2026-01-17 22:12:18.70	123.78	41.65	-83.1	-88.8	2.8	1.56e+00	0	47	104	0	60	1048574
2026-01-17 22:12:19.70	124.23	41.54	-82.8	-88.8	2.5	1.56e+00	0	47	104	0	60	1048573
2026-01-17 22:12:20.71	124.67	41.42	-85.2	-88.8	2.8	1.56e+00	0	48	104	0	60	1048574
2026-01-17 22:12:21.72	125.11	41.30	-85.2	-88.8	2.7	1.56e+00	0	47	104	0	60	1048575
2026-01-17 22:12:22.72	125.55	41.18	-82.8	-88.8	2.7	1.56e+00	0	47	104	0	60	1048573
2026-01-17 22:12:23.72	125.98	41.06	-85.2	-88.8	2.7	1.55e+00	0	47	104	0	60	1048573
2026-01-17 22:12:24.73	126.41	40.94	-82.8	-88.8	2.8	1.56e+00	0	48	104	0	60	1048572
2026-01-17 22:12:25.73	126.84	40.82	-85.2	-88.8	2.8	1.56e+00	0	47	104	0	60	1048574
2026-01-17 22:12:26.74	127.26	40.69	-84.7	-88.8	2.6	1.56e+00	0	48	104	0	60	1048575
2026-01-17 22:12:27.75	127.69	40.57	-83.5	-88.8	2.5	1.56e+00	0	47	104	0	60	1048575
2026-01-17 22:12:28.76	128.11	40.44	-82.5	-88.8	2.7	1.56e+00	0	47	104	0	60	1048570
2026-01-17 22:12:29.77	128.52	40.31	-82.8	-88.8	2.7	1.56e+00	0	47	104	0	60	1048572
2026-01-17 22:12:30.77	128.93	40.18	-82.5	-88.8	2.6	1.56e+00	0	48	104	0	60	1048574
2026-01-17 22:12:31.78	129.34	40.05	-85.2	-88.8	2.7	1.56e+00	0	47	104	0	60	1048575
2026-01-17 22:12:32.79	129.75	39.92	-85.2	-88.8	2.7	1.56e+00	0	48	104	0	60	1048573
2026-01-17 22:12:33.80	130.15	39.79	-85.2	-88.8	2.9	1.56e+00	0	47	104	0	60	1048573
2026-01-17 22:12:34.81	130.55	39.65	-83.1	-88.8	2.7	1.56e+00	0	47	104	0	60	1048575
2026-01-17 22:12:35.81	130.95	39.52	-85.2	-88.8	2.7	1.56e+00	0	47	104	0	60	1048571
2026-01-17 22:12:36.82	131.34	39.38	-85.2	-88.8	2.7	1.56e+00	0	47	104	0	60	1048574
2026-01-17 22:12:37.83	131.73	39.24	-84.3	-88.8	2.7	1.56e+00	0	47	104	0	60	1048573
2026-01-17 22:12:38.83	132.11	39.11	-85.2	-88.8	2.7	1.56e+00	0	47	104	0	60	1048574
2026-01-17 22:12:39.84	132.50	38.97	-84.7	-88.8	2.7	1.56e+00	0	48	104	0	60	1048575
2026-01-17 22:12:40.85	132.88	38.83	-85.2	-88.8	2.9	1.56e+00	0	47	104	0	60	1048575
2026-01-17 22:12:41.86	133.26	38.69	-85.2	-88.8	2.7	1.56e+00	0	48	104	0	60	1048573
2026-01-17 22:12:42.87	133.63	38.55	-85.2	-88.8	2.7	1.56e+00	0	48	104	0	60	1048575
2026-01-17 22:12:43.87	134.00	38.41	-85.2	-88.8	2.8	1.56e+00	0	47	104	0	60	1048574
2026-01-17 22:12:44.88	134.37	38.26	-85.2	-88.8	2.7	1.56e+00	0	47	104	0	60	1048573
2026-01-17 22:12:45.89	134.73	38.12	-85.2	-88.8	2.9	1.56e+00	0	47	104	0	60	1048568
2026-01-17 22:12:46.90	135.09	37.97	-85.2	-88.8	2.8	1.56e+00	0	47	104	0	60	1048574
2026-01-17 22:12:47.91	135.45	37.83	-85.2	-88.8	2.5	1.56e+00	0	47	104	0	60	1048573
2026-01-17 22:12:48.92	135.81	37.68	-85.2	-88.8	2.9	1.56e+00	0	48	104	0	60	1048574
2026-01-17 22:12:49.92	136.16	37.54	-84.7	-88.8	2.6	1.56e+00	0	47	104	0	60	1048573
2026-01-17 22:12:50.93	136.50	37.39	-85.2	-88.8	2.7	1.56e+00	0	48	104	0	60	1048574
2026-01-17 22:12:51.93	136.85	37.25	-85.2	-88.8	2.8	1.56e+00	0	47	104	0	60	1048573
2026-01-17 22:12:52.94	137.19	37.10	-84.3	-88.8	2.9	1.56e+00	0	47	104	0	60	1048567
2026-01-17 22:12:53.94	137.53	36.95	-85.2	-88.8	2.9	1.56e+00	0	48	104	0	60	1048574
2026-01-17 22:12:54.95	137.86	36.81	-83.1	-88.8	2.8	1.56e+00	0	47	104	0	60	1048570
2026-01-17 22:12:55.96	138.20	36.66	-85.2	-88.8	2.9	1.56e+00	0	47	104	0	60	1048572
2026-01-17 22:12:56.96	138.53	36.51	-85.2	-88.8	2.6	1.56e+00	0	47	104	0	60	1048574
2026-01-17 22:12:57.97	138.85	36.36	-85.2	-88.8	2.9	1.56e+00	0	47	104	0	60	1048572
2026-01-17 22:12:58.97	139.18	36.21	-85.2	-88.8	2.8	1.56e+00	0	48	104	0	60	1048575
2026-01-17 22:12:59.97	139.50	36.06	-85.2	-88.8	2.9	1.56e+00	0	47	104	0	60	1048574
2026-01-17 22:13:00.98	139.82	35.91	-85.2	-88.8	2.7	1.56e+00	0	48	104	0	60	1048574
2026-01-17 22:13:01.99	140.13	35.76	-85.2	-88.8	2.6	1.56e+00	0	48	104	0	60	1048574
2026-01-17 22:13:02.99	140.44	35.61	-85.2	-88.8	2.7	1.56e+00	0	48	104	0	60	1048573
2026-01-17 22:13:04.00	140.75	35.46	-85.2	-88.8	2.8	1.56e+00	0	48	104	0	60	1048574
2026-01-17 22:13:05.01	141.06	35.31	-84.3	-88.8	2.8	1.56e+00	0	48	104	0	60	1048573
2026-01-17 22:13:06.01	141.36	35.16	-85.2	-88.8	2.6	1.56e+00	0	48	104	0	60	1048573
2026-01-17 22:13:07.01	141.66	35.01	-85.2	-88.8	2.8	1.56e+00	0	47	104	0	60	1048574
2026-01-17 22:13:08.02	141.96	34.86	-85.2	-88.8	2.6	1.56e+00	0	48	104	0	60	1048570
2026-01-17 22:13:09.03	142.26	34.71	-85.2	-88.8	3.1	1.56e+00	0	48	104	0	60	1048571
2026-01-17 22:13:10.04	142.56	34.55	-85.2	-88.8	2.5	1.56e+00	0	48	104	0	60	1048570
2026-01-17 22:13:11.04	142.84	34.40	-85.2	-88.8	2.7	1.56e+00	0	48	104	0	60	1048575
2026-01-17 22:13:12.05	143.13	34.25	-85.2	-88.8	3.0	1.56e+00	0	48	104	0	60	1048575
2026-01-17 22:13:13.05	143.42	34.10	-85.2	-88.8	2.8	1.56e+00	0	48	104	0	60	1048572
2026-01-17 22:13:14.06	143.70	33.95	-85.2	-88.8	2.8	1.56e+00	0	48	104	0	60	1048575
2026-01-17 22:13:15.06	143.98	33.80	-85.2	-88.8	2.8	1.56e+00	0	48	104	0	60	1048574
2026-01-17 22:13:16.07	144.26	33.65	-85.2	-88.8	2.7	1.56e+00	0	48	104	0	60	1048571
2026-01-17 22:13:17.08	144.53	33.49	-85.2	-88.8	2.7	1.56e+00	0	47	104	0	60	1048575
2026-01-17 22:13:18.09	144.81	33.34	-85.2	-88.8	2.6	1.56e+00	0	47	104	0	60	1048574
2026-01-17 22:13:19.10	145.08	33.19	-85.2	-88.8	2.7	1.56e+00	0	48	104	0	60	1048574
2026-01-17 22:13:20.11	145.35	33.04	-85.2	-88.8	2.6	1.56e+00	0	47	104	0	60	1048575
2026-01-17 22:13:21.11	145.61	32.89	-85.2	-88.8	2.6	1.56e+00	0	48	104	0	60	1048573
2026-01-17 22:13:22.12	145.88	32.73	-85.2	-88.8	2.8	1.56e+00	0	47	104	0	60	1048575
2026-01-17 22:13:23.12	146.13	32.58	-85.2	-88.8	2.8	1.56e+00	0	48	104	0	60	1048574
2026-01-17 22:13:24.13	146.39	32.43	-85.2	-88.8	2.9	1.56e+00	0	48	104	0	60	1048575
2026-01-17 22:13:25.13	146.65	32.28	-84.7	-88.8	2.8	1.56e+00	0	48	104	0	60	1048574
2026-01-17 22:13:26.13	146.90	32.13	-85.2	-88.8	2.6	1.56e+00	0	48	104	0	60	1048575
2026-01-17 22:13:27.13	147.15	31.98	-85.2	-88.8	2.7	1.56e+00	0	48	104	0	60	1048574
2026-01-17 22:13:28.14	147.40	31.83	-85.2	-88.8	2.7	1.56e+00	0	47	104	0	60	1048575
2026-01-17 22:13:29.14	147.64	31.68	-85.2	-88.8	2.9	1.56e+00	0	48	104	0	60	1048574
2026-01-17 22:13:30.15	147.89	31.53	-85.2	-88.8	2.7	1.56e+00	0	48	104	0	60	1048574
2026-01-17 22:13:31.16	148.13	31.38	-85.2	-88.8	2.6	1.56e+00	0	47	104	0	60	1048574
2026-01-17 22:13:32.17	148.37	31.23	-85.2	-88.8	2.6	1.56e+00	0	47	104	0	60	1048572
2026-01-17 22:13:33.17	148.61	31.08	-85.2	-88.8	2.6	1.56e+00	0	48	104	0	60	1048574
2026-01-17 22:13:34.18	148.85	30.93	-85.2	-88.8	2.7	1.56e+00	0	47	104	0	60	1048573
2026-01-17 22:13:35.19	149.08	30.78	-85.2	-88.8	2.8	1.56e+00	0	48	104	0	60	1048569
2026-01-17 22:13:36.20	149.31	30.64	-85.2	-88.8	2.7	1.56e+00	0	47	104	0	60	1048571
2026-01-17 22:13:37.20	149.54	30.49	-85.2	-88.8	2.7	1.56e+00	0	48	104	0	60	1048575
2026-01-17 22:13:38.21	149.77	30.34	-85.2	-88.8	2.7	1.56e+00	0	48	104	0	60	1048574
2026-01-17 22:13:39.22	150.00	30.19	-85.2	-88.8	2.6	1.56e+00	0	48	104	0	60	1048575
2026-01-17 22:13:40.22	150.22	30.04	-85.2	-88.8	2.8	1.56e+00	0	48	104	0	60	1048573
2026-01-17 22:13:41.23	150.44	29.90	-85.2	-88.8	2.8	1.56e+00	0	48	104	0	60	1048574
2026-01-17 22:13:42.24	150.66	29.75	-85.2	-88.8	2.7	1.56e+00	0	48	104	0	60	1048573
2026-01-17 22:13:43.24	150.88	29.60	-85.2	-88.8	2.8	1.56e+00	0	48	104	0	60	1048572
2026-01-17 22:13:44.25	151.10	29.46	-85.2	-88.8	2.7	1.56e+00	0	47	104	0	60	1048575
2026-01-17 22:13:45.25	151.31	29.31	-85.2	-88.8	2.7	1.56e+00	0	48	104	0	60	1048574
2026-01-17 22:13:46.26	151.52	29.17	-85.2	-88.8	2.6	1.56e+00	0	48	104	0	60	1048573
2026-01-17 22:13:47.26	151.73	29.02	-85.2	-88.8	2.6	1.56e+00	0	47	104	0	60	1048567
2026-01-17 22:13:48.28	151.94	28.87	-85.2	-88.8	2.7	1.56e+00	0	48	104	0	60	1048573
2026-01-17 22:13:49.28	152.15	28.73	-85.2	-88.8	2.7	1.56e+00	0	48	104	0	60	1048575
2026-01-17 22:13:50.29	152.35	28.59	-85.2	-88.8	2.8	1.56e+00	0	47	104	0	60	1048574
2026-01-17 22:13:51.30	152.55	28.44	-85.2	-88.8	2.8	1.56e+00	0	47	104	0	60	1048573
2026-01-17 22:13:52.31	152.76	28.30	-85.2	-88.8	2.7	1.56e+00	0	48	104	0	60	1048573
2026-01-17 22:13:53.31	152.95	28.15	-85.2	-88.8	2.9	1.56e+00	0	47	104	0	60	1048575
2026-01-17 22:13:54.32	153.15	28.01	-85.2	-88.8	2.8	1.56e+00	0	47	104	0	60	1048574
2026-01-17 22:13:55.33	153.35	27.87	-85.2	-88.8	2.7	1.56e+00	0	47	104	0	60	1048574
2026-01-17 22:13:56.33	153.54	27.73	-85.2	-88.8	2.7	1.56e+00	0	48	104	0	60	1048573
2026-01-17 22:13:57.33	153.73	27.59	-85.2	-88.8	2.8	1.56e+00	0	48	104	0	60	1048568
2026-01-17 22:13:58.34	153.92	27.45	-85.2	-88.8	2.8	1.56e+00	0	48	104	0	60	1048574
2026-01-17 22:13:59.35	154.11	27.30	-85.2	-88.8	2.8	1.56e+00	0	48	104	0	60	1048572
2026-01-17 22:14:00.36	154.30	27.16	-85.2	-88.8	2.7	1.56e+00	0	48	104	0	60	1048575
2026-01-17 22:14:01.37	154.49	27.02	-84.7	-88.8	2.7	1.56e+00	0	48	104	0	60	1048571
2026-01-17 22:14:02.37	154.67	26.88	-85.2	-88.8	2.8	1.56e+00	0	48	104	0	60	1048575
2026-01-17 22:14:03.38	154.86	26.74	-85.2	-88.8	2.9	1.56e+00	0	48	104	0	60	1048574
2026-01-17 22:14:04.39	155.04	26.60	-85.2	-88.8	2.6	1.56e+00	0	48	104	0	60	1048570
2026-01-17 22:14:05.40	155.22	26.47	-85.2	-88.8	2.8	1.56e+00	0	47	104	0	60	1048574
2026-01-17 22:14:06.41	155.40	26.33	-85.2	-88.8	2.9	1.56e+00	0	48	104	0	60	1048572
2026-01-17 22:14:07.41	155.57	26.19	-85.2	-88.8	2.7	1.56e+00	0	48	104	0	60	1048572
2026-01-17 22:14:08.42	155.75	26.05	-85.2	-88.8	2.8	1.56e+00	0	48	104	0	60	1048573
2026-01-17 22:14:09.43	155.92	25.92	-85.2	-88.8	2.7	1.56e+00	0	48	104	0	60	1048574
2026-01-17 22:14:10.44	156.10	25.78	-85.2	-88.8	2.9	1.56e+00	0	48	104	0	60	1048573
2026-01-17 22:14:11.44	156.27	25.64	-85.2	-88.8	2.7	1.56e+00	0	48	104	0	60	1048569
2026-01-17 22:14:12.45	156.44	25.51	-85.2	-88.8	2.8	1.56e+00	0	48	104	0	60	1048571
2026-01-17 22:14:13.46	156.61	25.37	-85.2	-88.8	2.6	1.56e+00	0	48	104	0	60	1048574
2026-01-17 22:14:14.46	156.77	25.24	-85.2	-88.8	2.6	1.56e+00	0	48	104	0	60	1048574
2026-01-17 22:14:15.47	156.94	25.10	-85.2	-88.8	2.7	1.56e+00	0	47	104	0	60	1048574
2026-01-17 22:14:16.48	157.10	24.97	-85.2	-88.8	2.6	1.56e+00	0	48	104	0	60	1048571
2026-01-17 22:14:17.49	157.26	24.84	-85.2	-88.8	2.6	1.56e+00	0	47	104	0	60	1048574
2026-01-17 22:14:18.49	157.43	24.70	-85.2	-88.8	2.9	1.56e+00	0	48	104	0	60	1048575
2026-01-17 22:14:19.50	157.59	24.57	-85.2	-88.8	2.8	1.56e+00	0	47	104	0	60	1048573
2026-01-17 22:14:20.51	157.75	24.44	-85.2	-88.8	2.7	1.56e+00	0	48	104	0	60	1048575
2026-01-17 22:14:21.51	157.90	24.31	-85.2	-88.8	2.7	1.56e+00	0	48	104	0	60	1048574
2026-01-17 22:14:22.52	158.06	24.18	-85.2	-88.8	2.8	1.56e+00	0	47	104	0	60	1048572
2026-01-17 22:14:23.53	158.21	24.05	-85.2	-88.8	2.6	1.56e+00	0	48	104	0	60	1048574
2026-01-17 22:14:24.53	158.37	23.92	-85.2	-88.8	2.8	1.56e+00	0	48	104	0	60	1048575
2026-01-17 22:14:25.54	158.52	23.79	-85.2	-88.8	2.5	1.56e+00	0	47	104	0	60	1048567
2026-01-17 22:14:26.55	158.67	23.66	-85.2	-88.8	2.6	1.56e+00	0	48	104	0	60	1048575
2026-01-17 22:14:27.56	158.82	23.53	-85.2	-88.8	2.7	1.56e+00	0	48	104	0	60	1048574
2026-01-17 22:14:28.56	158.97	23.40	-85.2	-88.8	2.8	1.56e+00	0	47	104	0	60	1048569
2026-01-17 22:14:29.57	159.12	23.27	-85.2	-88.8	2.7	1.56e+00	0	48	104	0	60	1048573
2026-01-17 22:14:30.57	159.26	23.15	-85.2	-88.8	2.6	1.56e+00	0	48	104	0	60	1048568
2026-01-17 22:14:31.58	159.41	23.02	-85.2	-88.8	2.8	1.56e+00	0	48	104	0	60	1048574
2026-01-17 22:14:32.59	159.55	22.89	-85.2	-88.8	2.9	1.56e+00	0	48	104	0	60	1048571
2026-01-17 22:14:33.59	159.70	22.77	-85.2	-88.8	2.8	1.56e+00	0	47	104	0	60	1048573
2026-01-17 22:14:34.60	159.84	22.64	-85.2	-88.8	2.8	1.56e+00	0	48	104	0	60	1048573
2026-01-17 22:14:35.61	159.98	22.51	-85.2	-88.8	2.7	1.56e+00	0	48	104	0	60	1048574
2026-01-17 22:14:36.61	160.12	22.39	-85.2	-88.8	2.6	1.56e+00	0	48	104	0	60	1048574
2026-01-17 22:14:37.61	160.26	22.27	-85.2	-88.8	2.9	1.56e+00	0	48	104	0	60	1048569
2026-01-17 22:14:38.62	160.40	22.14	-85.2	-88.8	2.8	1.56e+00	0	48	104	0	60	1048573
2026-01-17 22:14:39.63	160.53	22.02	-85.2	-88.8	2.7	1.56e+00	0	48	104	0	60	1048571
2026-01-17 22:14:40.64	160.67	21.89	-85.2	-88.8	2.6	1.56e+00	0	48	104	0	60	1048574
2026-01-17 22:14:41.64	160.80	21.77	-85.2	-88.8	2.6	1.56e+00	0	48	104	0	60	1048575
2026-01-17 22:14:42.65	160.94	21.65	-85.2	-88.8	2.5	1.56e+00	0	48	104	0	60	1048574
2026-01-17 22:14:43.66	161.07	21.53	-85.2	-88.8	2.7	1.56e+00	0	48	104	0	60	1048574
2026-01-17 22:14:44.67	161.20	21.41	-85.2	-88.8	2.7	1.56e+00	0	47	104	0	60	1048575
2026-01-17 22:14:45.68	161.33	21.28	-85.2	-88.8	2.6	1.56e+00	0	47	104	0	60	1048574
2026-01-17 22:14:46.69	161.46	21.16	-85.2	-88.8	2.9	1.56e+00	0	47	104	0	60	1048571
2026-01-17 22:14:47.69	161.59	21.04	-85.2	-88.8	2.7	1.56e+00	0	47	104	0	60	1048575
2026-01-17 22:14:48.70	161.72	20.92	-85.2	-88.8	2.5	1.56e+00	0	47	104	0	60	1048575
2026-01-17 22:14:49.71	161.85	20.80	-85.2	-88.8	2.4	1.56e+00	0	47	104	0	60	1048575
2026-01-17 22:14:50.71	161.97	20.69	-84.7	-88.8	2.4	1.56e+00	0	48	104	0	60	1048571
2026-01-17 22:14:51.71	162.09	20.57	-85.2	-88.8	2.6	1.56e+00	0	47	104	0	60	1048574
2026-01-17 22:14:52.72	162.22	20.45	-85.2	-88.8	2.8	1.56e+00	0	48	104	0	60	1048566
2026-01-17 22:14:53.72	162.34	20.33	-85.2	-88.8	2.8	1.56e+00	0	47	104	0	60	1048575
2026-01-17 22:14:54.73	162.46	20.22	-85.2	-88.8	2.9	1.56e+00	0	47	104	0	60	1048573
2026-01-17 22:14:55.74	162.58	20.10	-85.2	-88.8	2.6	1.56e+00	0	47	104	0	60	1048573
2026-01-17 22:14:56.75	162.71	19.98	-85.2	-88.8	2.6	1.56e+00	0	47	104	0	60	1048573
2026-01-17 22:14:57.75	162.82	19.87	-85.2	-88.8	2.8	1.56e+00	0	47	104	0	60	1048571
2026-01-17 22:14:58.76	162.94	19.75	-85.2	-88.8	2.9	1.56e+00	0	47	104	0	60	1048575
2026-01-17 22:14:59.76	163.06	19.64	-85.2	-88.8	2.8	1.56e+00	0	48	104	0	60	1048557
2026-01-17 22:15:00.77	163.18	19.52	-85.2	-88.8	2.7	1.56e+00	0	47	104	0	60	1048574
2026-01-17 22:15:01.78	163.29	19.41	-85.2	-88.8	2.8	1.56e+00	0	47	104	0	60	1048568
2026-01-17 22:15:02.79	163.41	19.29	-85.2	-88.8	2.7	1.56e+00	0	47	104	0	60	1048574
2026-01-17 22:15:03.79	163.52	19.18	-85.2	-88.8	2.7	1.56e+00	0	48	104	0	60	1048572
2026-01-17 22:15:04.80	163.64	19.07	-84.7	-88.8	2.8	1.56e+00	0	48	104	0	60	1048575
2026-01-17 22:15:05.81	163.75	18.95	-85.2	-88.8	2.6	1.56e+00	0	47	104	0	60	1048575
2026-01-17 22:15:06.81	163.86	18.84	-85.2	-88.8	2.6	1.56e+00	0	47	104	0	60	1048573
2026-01-17 22:15:07.82	163.97	18.73	-85.2	-88.8	2.5	1.56e+00	0	48	104	0	60	1048575
2026-01-17 22:15:08.82	164.08	18.62	-85.2	-88.8	2.7	1.56e+00	0	48	104	0	60	1048573
2026-01-17 22:15:09.83	164.19	18.51	-85.2	-88.8	2.5	1.56e+00	0	48	104	0	60	1048573
2026-01-17 22:15:10.84	164.30	18.40	-85.2	-88.8	2.9	1.55e+00	0	48	104	0	60	1048569
2026-01-17 22:15:11.84	164.41	18.29	-85.2	-88.8	2.8	1.56e+00	0	47	104	0	60	1048575
2026-01-17 22:15:12.85	164.52	18.18	-85.2	-88.8	2.9	1.56e+00	0	47	104	0	60	1048572
2026-01-17 22:15:13.86	164.62	18.07	-85.2	-88.8	2.8	1.56e+00	0	48	104	0	60	1048570
2026-01-17 22:15:14.87	164.73	17.96	-85.2	-88.8	2.9	1.56e+00	0	48	104	0	60	1048570
2026-01-17 22:15:15.87	164.83	17.85	-85.2	-88.8	2.5	1.56e+00	0	47	104	0	60	1048570
2026-01-17 22:15:16.88	164.94	17.74	-85.2	-88.8	2.8	1.56e+00	0	47	104	0	60	1048574
2026-01-17 22:15:17.89	165.04	17.64	-85.2	-88.8	2.6	1.56e+00	0	47	104	0	60	1048575
2026-01-17 22:15:18.90	165.15	17.53	-85.2	-88.8	2.7	1.56e+00	0	47	104	0	60	1048575
2026-01-17 22:15:19.90	165.25	17.42	-85.2	-88.8	2.6	1.56e+00	0	48	104	0	60	1048569
2026-01-17 22:15:20.91	165.35	17.31	-85.2	-88.8	2.7	1.56e+00	0	47	104	0	60	1048567
2026-01-17 22:15:21.92	165.45	17.21	-85.2	-88.8	2.8	1.56e+00	0	47	104	0	60	1048575
2026-01-17 22:15:22.93	165.55	17.10	-85.2	-88.8	2.7	1.56e+00	0	47	104	0	60	1048575
2026-01-17 22:15:23.93	165.65	17.00	-85.2	-88.8	2.7	1.56e+00	0	48	104	0	60	1048574
2026-01-17 22:15:24.93	165.75	16.89	-85.2	-88.8	2.7	1.56e+00	0	47	104	0	60	1048571
2026-01-17 22:15:25.93	165.85	16.79	-85.2	-88.8	2.7	1.56e+00	0	47	104	0	60	1048575
2026-01-17 22:15:26.94	165.95	16.68	-85.2	-88.8	2.7	1.56e+00	0	48	104	0	60	1048571
2026-01-17 22:15:27.95	166.04	16.58	-84.7	-88.8	2.7	1.56e+00	0	48	104	0	60	1048572
2026-01-17 22:15:28.96	166.14	16.48	-85.2	-88.8	2.7	1.56e+00	0	48	104	0	60	1048575
2026-01-17 22:15:29.97	166.24	16.37	-85.2	-88.8	2.6	1.56e+00	0	47	104	0	60	1048573
2026-01-17 22:15:30.97	166.33	16.27	-85.2	-88.8	2.6	1.56e+00	0	48	104	0	60	1048574
2026-01-17 22:15:31.98	166.43	16.17	-85.2	-88.8	2.7	1.56e+00	0	48	104	0	60	1048575
2026-01-17 22:15:32.99	166.52	16.06	-85.2	-88.8	2.7	1.56e+00	0	47	104	0	60	1048572
2026-01-17 22:15:34.00	166.61	15.96	-85.2	-88.8	2.9	1.56e+00	0	47	104	0	60	1048572
2026-01-17 22:15:35.01	166.71	15.86	-85.2	-88.8	2.7	1.56e+00	0	47	104	0	60	1048574
2026-01-17 22:15:36.01	166.80	15.76	-83.9	-88.8	2.8	1.56e+00	0	47	104	0	60	1048571
2026-01-17 22:15:37.02	166.89	15.66	-85.2	-88.8	2.9	1.56e+00	0	48	104	0	60	1048575
2026-01-17 22:15:38.03	166.98	15.56	-85.2	-88.8	2.8	1.56e+00	0	47	104	0	60	1048574
2026-01-17 22:15:39.03	167.07	15.46	-85.2	-88.8	2.7	1.56e+00	0	48	104	0	60	1048571
2026-01-17 22:15:40.03	167.16	15.36	-85.2	-88.8	2.7	1.56e+00	0	48	104	0	60	1048575
2026-01-17 22:15:41.04	167.25	15.26	-84.3	-88.8	2.9	1.56e+00	0	47	104	0	60	1048575
2026-01-17 22:15:42.04	167.34	15.16	-85.2	-88.8	2.8	1.56e+00	0	48	104	0	60	1048574
2026-01-17 22:15:43.05	167.43	15.06	-85.2	-88.8	2.8	1.56e+00	0	48	104	0	60	1048575
2026-01-17 22:15:44.06	167.51	14.96	-85.2	-88.8	2.8	1.56e+00	0	47	104	0	60	1048575
2026-01-17 22:15:45.07	167.60	14.87	-85.2	-88.8	2.8	1.56e+00	0	48	104	0	60	1048574
2026-01-17 22:15:46.07	167.69	14.77	-85.2	-88.8	2.8	1.56e+00	0	48	104	0	60	1048573
2026-01-17 22:15:47.08	167.77	14.67	-85.2	-88.8	2.7	1.56e+00	0	48	104	0	60	1048573
2026-01-17 22:15:48.09	167.86	14.57	-85.2	-88.8	2.6	1.56e+00	0	47	104	0	60	1048570
2026-01-17 22:15:49.09	167.94	14.48	-85.2	-88.8	2.7	1.56e+00	0	47	104	0	60	1048571
2026-01-17 22:15:50.10	168.03	14.38	-85.2	-88.8	2.6	1.56e+00	0	48	104	0	60	1048574
2026-01-17 22:15:51.11	168.11	14.28	-83.5	-88.8	2.6	1.56e+00	0	47	104	0	60	1048573
2026-01-17 22:15:52.12	168.19	14.19	-85.2	-88.8	2.7	1.56e+00	0	47	104	0	60	1048575
2026-01-17 22:15:53.12	168.28	14.09	-85.2	-88.8	3.0	1.56e+00	0	47	104	0	60	1048575
2026-01-17 22:15:54.13	168.36	14.00	-85.2	-88.8	2.8	1.56e+00	0	47	104	0	60	1048574
2026-01-17 22:15:55.14	168.44	13.90	-85.2	-88.8	2.6	1.56e+00	0	48	104	0	60	1048572
2026-01-17 22:15:56.14	168.52	13.81	-85.2	-88.8	2.5	1.56e+00	0	48	104	0	60	1048572
2026-01-17 22:15:57.15	168.60	13.71	-85.2	-88.8	2.7	1.56e+00	0	48	104	0	60	1048573
