passes_logs/2026/01/17/R3.2S-Naryan-Mar/R3.2S-Naryan-Mar__20260117_142830_TY-39_rec.log

#Pass ID: 20260117_142830_TY-39
#Satellite: TY-39
#Configuration: TY-39
#almurnet v.1.7.20240730
#Start time: 2026-01-17 14:33:46

#Version: 2.2.20231116
#Station: R3.2S-Naryan-Mar
#Location: 53.008057 lon 67.646978 lat
#TLE: 1 51832U 22019J   26016.93397770  .00000681  00000-0  35057-4 0  9992
#TLE: 2 51832  97.3651  83.5773 0009934  46.4665 313.7394 15.19639081214821

#Time	Az	El	Level	Level2	SNR	BER	BlckErr	Temp	State	Recorded	gain1	gain2
2026-01-17 14:33:46.48	27.97	15.79	-83.5	-79.0	2.4	0.00e+00	0	48	0	0	60	1048573
2026-01-17 14:33:47.49	27.64	15.78	-83.1	-79.0	2.4	0.00e+00	0	49	104	0	60	1048573
2026-01-17 14:33:48.49	27.32	15.76	-83.1	-79.0	2.5	0.00e+00	0	49	104	0	60	1048573
2026-01-17 14:33:49.50	26.99	15.75	-83.5	-79.0	2.6	0.00e+00	0	49	104	0	60	1048575
2026-01-17 14:33:50.50	26.67	15.73	-83.5	-79.0	2.4	0.00e+00	0	49	104	0	60	1048574
2026-01-17 14:33:51.51	26.34	15.71	-83.1	-79.0	2.5	0.00e+00	0	49	104	0	60	1048574
2026-01-17 14:33:52.52	26.02	15.69	-82.8	-79.0	2.3	0.00e+00	0	49	104	0	60	1048575
2026-01-17 14:33:53.52	25.70	15.67	-83.1	-79.0	2.4	0.00e+00	0	49	104	0	60	1048572
2026-01-17 14:33:54.53	25.37	15.65	-83.5	-79.0	2.5	0.00e+00	0	49	104	0	60	1048572
2026-01-17 14:33:55.54	25.05	15.63	-83.5	-79.0	2.4	0.00e+00	0	49	104	0	60	1048573
2026-01-17 14:33:56.55	24.73	15.61	-83.5	-79.0	2.5	0.00e+00	0	49	104	0	60	1048570
2026-01-17 14:33:57.56	24.40	15.59	-83.1	-79.0	2.3	0.00e+00	0	49	104	0	60	1048566
2026-01-17 14:33:58.56	24.08	15.56	-83.5	-79.0	2.5	0.00e+00	0	49	104	0	60	1048572
2026-01-17 14:33:59.57	23.76	15.54	-83.5	-79.0	2.3	0.00e+00	0	49	104	0	60	1048575
2026-01-17 14:34:00.56	23.45	15.52	-83.5	-79.0	2.5	0.00e+00	0	49	104	0	60	1048574
2026-01-17 14:34:01.57	23.13	15.49	-83.5	-79.0	2.4	0.00e+00	0	49	104	0	60	1048573
2026-01-17 14:34:02.58	22.81	15.46	-83.5	-79.0	2.3	0.00e+00	0	49	104	0	60	1048575
2026-01-17 14:34:03.58	22.49	15.44	-83.5	-79.0	2.5	0.00e+00	0	49	104	0	60	1048565
2026-01-17 14:34:04.59	22.17	15.41	-83.5	-79.0	2.4	0.00e+00	0	49	104	0	60	1048569
2026-01-17 14:34:05.60	21.86	15.38	-83.5	-79.0	2.3	0.00e+00	0	49	104	0	60	1048574
2026-01-17 14:34:06.61	21.54	15.35	-82.8	-79.0	2.5	0.00e+00	0	49	104	0	60	1048570
2026-01-17 14:34:07.61	21.23	15.32	-83.1	-79.0	2.4	0.00e+00	0	49	104	0	60	1048575
2026-01-17 14:34:08.62	20.91	15.29	-83.5	-79.0	2.4	0.00e+00	0	49	104	0	60	1048572
2026-01-17 14:34:09.62	20.60	15.26	-83.1	-79.0	2.3	0.00e+00	0	49	104	0	60	1048574
2026-01-17 14:34:10.63	20.29	15.23	-83.5	-79.0	2.5	0.00e+00	0	49	104	0	60	1048575
2026-01-17 14:34:11.64	19.97	15.19	-83.1	-79.0	2.3	0.00e+00	0	49	104	0	60	1048570
2026-01-17 14:34:12.65	19.66	15.16	-83.5	-79.0	2.4	0.00e+00	0	49	104	0	60	1048575
2026-01-17 14:34:13.65	19.35	15.13	-83.5	-79.0	2.4	0.00e+00	0	49	104	0	60	1048570
2026-01-17 14:34:14.66	19.04	15.09	-83.5	-79.0	2.5	0.00e+00	0	49	104	0	60	1048571
2026-01-17 14:34:15.67	18.73	15.06	-83.5	-79.0	2.4	0.00e+00	0	49	104	0	60	1048564
2026-01-17 14:34:16.67	18.43	15.02	-83.1	-79.0	2.4	0.00e+00	0	49	104	0	60	1048567
2026-01-17 14:34:17.67	18.12	14.98	-83.5	-79.0	2.3	0.00e+00	0	49	104	0	60	1048575
2026-01-17 14:34:18.67	17.82	14.95	-83.5	-79.0	2.4	0.00e+00	0	49	104	0	60	1048574
2026-01-17 14:34:19.68	17.51	14.91	-83.5	-79.0	2.2	0.00e+00	0	49	104	0	60	1048574
2026-01-17 14:34:20.68	17.21	14.87	-83.5	-79.0	2.7	0.00e+00	0	49	104	0	60	1048572
2026-01-17 14:34:21.69	16.91	14.83	-83.5	-79.0	2.4	0.00e+00	0	49	104	0	60	1048574
2026-01-17 14:34:22.70	16.61	14.79	-83.5	-79.0	2.7	0.00e+00	0	49	104	0	60	1048575
2026-01-17 14:34:23.71	16.30	14.75	-83.5	-79.0	2.3	0.00e+00	0	49	104	0	60	1048575
2026-01-17 14:34:24.71	16.01	14.71	-83.5	-79.0	2.5	0.00e+00	0	49	104	0	60	1048575
2026-01-17 14:34:25.72	15.71	14.67	-83.1	-79.0	2.4	0.00e+00	0	49	104	0	60	1048575
2026-01-17 14:34:26.73	15.41	14.63	-83.1	-79.0	2.4	0.00e+00	0	49	104	0	60	1048560
2026-01-17 14:34:27.73	15.11	14.58	-83.5	-79.0	2.5	0.00e+00	0	49	104	0	60	1048573
2026-01-17 14:34:28.73	14.82	14.54	-83.5	-79.0	2.2	0.00e+00	0	49	104	0	60	1048572
2026-01-17 14:34:29.74	14.52	14.50	-83.1	-79.0	2.6	0.00e+00	0	49	104	0	60	1048570
2026-01-17 14:34:30.75	14.23	14.45	-83.1	-79.0	2.2	0.00e+00	0	49	104	0	60	1048574
2026-01-17 14:34:31.76	13.93	14.41	-83.1	-79.0	2.5	0.00e+00	0	49	104	0	60	1048568
2026-01-17 14:34:32.77	13.64	14.36	-83.5	-79.0	2.3	0.00e+00	0	49	104	0	60	1048574
2026-01-17 14:34:33.77	13.35	14.31	-83.5	-79.0	2.4	0.00e+00	0	49	104	0	60	1048574
2026-01-17 14:34:34.78	13.06	14.27	-83.5	-79.0	2.3	0.00e+00	0	49	104	0	60	1048575
2026-01-17 14:34:35.79	12.77	14.22	-83.1	-79.0	2.3	0.00e+00	0	49	104	0	60	1048572
2026-01-17 14:34:36.80	12.48	14.17	-83.1	-79.0	2.4	0.00e+00	0	49	104	0	60	1048575
2026-01-17 14:34:37.80	12.20	14.13	-83.5	-79.0	2.6	0.00e+00	0	49	104	0	60	1048574
2026-01-17 14:34:38.81	11.91	14.08	-83.1	-79.0	2.3	0.00e+00	0	49	104	0	60	1048575
2026-01-17 14:34:39.81	11.63	14.03	-83.1	-79.0	2.4	0.00e+00	0	49	104	0	60	1048566
2026-01-17 14:34:40.81	11.35	13.98	-82.8	-79.0	2.5	0.00e+00	0	49	104	0	60	1048571
2026-01-17 14:34:41.81	11.07	13.93	-83.5	-79.0	2.5	0.00e+00	0	49	104	0	60	1048574
2026-01-17 14:34:42.82	10.79	13.88	-83.5	-79.0	2.4	0.00e+00	0	49	104	0	60	1048574
2026-01-17 14:34:43.83	10.51	13.83	-83.5	-79.0	2.6	0.00e+00	0	49	104	0	60	1048575
2026-01-17 14:34:44.84	10.23	13.78	-83.1	-79.0	2.4	0.00e+00	0	49	104	0	60	1048572
2026-01-17 14:34:45.85	9.95	13.72	-83.5	-79.0	2.4	0.00e+00	0	49	104	0	60	1048575
2026-01-17 14:34:46.85	9.68	13.67	-83.5	-79.0	2.4	0.00e+00	0	49	104	0	60	1048575
2026-01-17 14:34:47.86	9.40	13.62	-83.5	-79.0	2.5	0.00e+00	0	49	104	0	60	1048573
2026-01-17 14:34:48.87	9.13	13.57	-83.1	-79.0	2.2	0.00e+00	0	49	104	0	60	1048573
2026-01-17 14:34:49.87	8.86	13.51	-82.8	-79.0	2.6	0.00e+00	0	49	104	0	60	1048569
2026-01-17 14:34:50.88	8.59	13.46	-83.5	-79.0	2.3	0.00e+00	0	49	104	0	60	1048573
2026-01-17 14:34:51.88	8.32	13.41	-83.5	-79.0	2.3	0.00e+00	0	49	104	0	60	1048571
2026-01-17 14:34:52.89	8.05	13.35	-83.5	-79.0	2.6	0.00e+00	0	49	104	0	60	1048573
2026-01-17 14:34:53.89	7.78	13.30	-83.1	-79.0	2.3	0.00e+00	0	49	104	0	60	1048559
2026-01-17 14:34:54.90	7.52	13.24	-83.1	-79.0	2.3	0.00e+00	0	49	104	0	60	1048572
2026-01-17 14:34:55.91	7.25	13.18	-83.5	-79.0	2.7	0.00e+00	0	49	104	0	60	1048575
2026-01-17 14:34:56.91	6.99	13.13	-83.5	-79.0	2.4	0.00e+00	0	49	104	0	60	1048575
2026-01-17 14:34:57.92	6.73	13.07	-83.5	-79.0	2.5	0.00e+00	0	49	104	0	60	1048573
2026-01-17 14:34:58.93	6.46	13.02	-83.1	-79.0	2.5	0.00e+00	0	49	104	0	60	1048571
2026-01-17 14:34:59.94	6.20	12.96	-83.5	-79.0	2.4	0.00e+00	0	49	104	0	60	1048573
2026-01-17 14:35:00.95	5.94	12.90	-83.5	-79.0	2.3	0.00e+00	0	49	104	0	60	1048569
2026-01-17 14:35:01.96	5.69	12.84	-83.5	-79.0	2.4	0.00e+00	0	49	104	0	60	1048575
2026-01-17 14:35:02.97	5.43	12.79	-83.5	-79.0	2.4	0.00e+00	0	49	104	0	60	1048575
2026-01-17 14:35:03.97	5.17	12.73	-83.1	-79.0	2.4	0.00e+00	0	49	104	0	60	1048575
2026-01-17 14:35:04.98	4.92	12.67	-83.1	-79.0	2.6	0.00e+00	0	49	104	0	60	1048573
2026-01-17 14:35:05.99	4.67	12.61	-83.5	-79.0	2.3	0.00e+00	0	49	104	0	60	1048572
2026-01-17 14:35:07.00	4.41	12.55	-83.5	-79.0	2.4	0.00e+00	0	49	104	0	60	1048573
2026-01-17 14:35:08.00	4.17	12.49	-83.5	-79.0	2.4	0.00e+00	0	49	104	0	60	1048572
2026-01-17 14:35:09.00	3.92	12.43	-82.8	-79.0	2.4	0.00e+00	0	49	104	0	60	1048575
2026-01-17 14:35:10.00	3.67	12.37	-83.5	-79.0	2.7	0.00e+00	0	49	104	0	60	1048569
2026-01-17 14:35:11.01	3.42	12.31	-83.5	-79.0	2.1	0.00e+00	0	49	104	0	60	1048574
2026-01-17 14:35:12.02	3.18	12.25	-83.5	-79.0	2.4	0.00e+00	0	49	104	0	60	1048572
2026-01-17 14:35:13.03	2.93	12.19	-83.1	-79.0	2.2	0.00e+00	0	49	104	0	60	1048573
2026-01-17 14:35:14.03	2.69	12.13	-83.1	-79.0	2.5	0.00e+00	0	49	104	0	60	1048574
2026-01-17 14:35:15.04	2.45	12.07	-83.5	-79.0	2.4	0.00e+00	0	49	104	0	60	1048575
2026-01-17 14:35:16.05	2.21	12.01	-83.5	-79.0	2.3	0.00e+00	0	49	104	0	60	1048574
2026-01-17 14:35:17.06	1.97	11.95	-83.5	-79.0	2.4	0.00e+00	0	49	104	0	60	1048575
2026-01-17 14:35:18.07	1.73	11.88	-83.1	-79.0	2.3	0.00e+00	0	49	104	0	60	1048571
2026-01-17 14:35:19.08	1.49	11.82	-83.5	-79.0	2.6	0.00e+00	0	49	104	0	60	1048574
2026-01-17 14:35:20.09	1.26	11.76	-83.5	-79.0	2.3	0.00e+00	0	49	104	0	60	1048572
2026-01-17 14:35:21.09	1.02	11.70	-83.5	-79.0	2.5	0.00e+00	0	49	104	0	60	1048574
2026-01-17 14:35:22.10	0.79	11.63	-83.5	-79.0	2.4	0.00e+00	0	49	104	0	60	1048574
2026-01-17 14:35:23.10	0.56	11.57	-83.1	-79.0	2.4	0.00e+00	0	49	104	0	60	1048569
2026-01-17 14:35:24.11	0.33	11.51	-83.5	-79.0	2.3	0.00e+00	0	49	104	0	60	1048574
2026-01-17 14:35:25.11	0.10	11.45	-83.5	-79.0	2.5	0.00e+00	0	49	104	0	60	1048559
2026-01-17 14:35:26.12	359.87	11.38	-83.5	-79.0	2.4	0.00e+00	0	49	104	0	60	1048571
2026-01-17 14:35:27.12	359.65	11.32	-83.1	-79.0	2.4	0.00e+00	0	49	104	0	60	1048572
2026-01-17 14:35:28.13	359.42	11.26	-83.1	-79.0	2.5	0.00e+00	0	49	104	0	60	1048571
2026-01-17 14:35:29.14	359.20	11.19	-83.5	-79.0	2.6	0.00e+00	0	49	104	0	60	1048575
2026-01-17 14:35:30.15	358.97	11.13	-83.5	-79.0	2.3	0.00e+00	0	49	104	0	60	1048574
2026-01-17 14:35:31.15	358.75	11.06	-83.5	-79.0	2.4	0.00e+00	0	49	104	0	60	1048575
2026-01-17 14:35:32.16	358.53	11.00	-83.1	-79.0	2.4	0.00e+00	0	49	104	0	60	1048573
2026-01-17 14:35:33.17	358.31	10.94	-83.1	-79.0	2.3	0.00e+00	0	49	104	0	60	1048571
2026-01-17 14:35:34.18	358.09	10.87	-83.5	-79.0	2.4	0.00e+00	0	49	104	0	60	1048573
2026-01-17 14:35:35.19	357.87	10.81	-83.5	-79.0	2.2	0.00e+00	0	49	104	0	60	1048569
2026-01-17 14:35:36.19	357.66	10.74	-83.5	-79.0	2.3	0.00e+00	0	49	104	0	60	1048574
2026-01-17 14:35:37.20	357.44	10.68	-83.1	-79.0	2.3	0.00e+00	0	49	104	0	60	1048574
2026-01-17 14:35:38.21	357.23	10.61	-82.8	-79.0	2.4	0.00e+00	0	49	104	0	60	1048575
2026-01-17 14:35:39.21	357.02	10.55	-83.1	-79.0	2.4	0.00e+00	0	49	104	0	60	1048575
2026-01-17 14:35:40.21	356.81	10.48	-83.5	-79.0	2.3	0.00e+00	0	49	104	0	60	1048571
2026-01-17 14:35:41.22	356.60	10.42	-83.5	-79.0	2.5	0.00e+00	0	49	104	0	60	1048562
2026-01-17 14:35:42.23	356.39	10.35	-82.8	-79.0	2.2	0.00e+00	0	49	104	0	60	1048572
2026-01-17 14:35:43.23	356.18	10.29	-83.1	-79.0	2.5	0.00e+00	0	49	104	0	60	1048575
2026-01-17 14:35:44.24	355.97	10.22	-83.5	-79.0	2.3	0.00e+00	0	49	104	0	60	1048569
2026-01-17 14:35:45.24	355.77	10.16	-83.5	-79.0	2.7	0.00e+00	0	49	104	0	60	1048568
2026-01-17 14:35:46.25	355.56	10.09	-82.8	-79.0	2.1	0.00e+00	0	49	104	0	60	1048573
2026-01-17 14:35:47.26	355.36	10.02	-83.1	-79.0	2.2	0.00e+00	0	49	104	0	60	1048575
2026-01-17 14:35:48.26	355.16	9.96	-83.5	-79.0	2.4	0.00e+00	0	49	104	0	60	1048575
2026-01-17 14:35:49.27	354.96	9.89	-83.5	-79.0	2.3	0.00e+00	0	49	104	0	60	1048575
2026-01-17 14:35:50.28	354.76	9.83	-83.5	-79.0	2.5	0.00e+00	0	49	104	0	60	1048572
2026-01-17 14:35:51.29	354.56	9.76	-83.1	-79.0	2.5	0.00e+00	0	49	104	0	60	1048573
2026-01-17 14:35:52.30	354.36	9.70	-83.1	-79.0	2.3	0.00e+00	0	49	104	0	60	1048569
2026-01-17 14:35:53.30	354.16	9.63	-83.5	-79.0	2.4	0.00e+00	0	49	104	0	60	1048575
2026-01-17 14:35:54.31	353.97	9.56	-83.5	-79.0	2.4	0.00e+00	0	49	104	0	60	1048574
2026-01-17 14:35:55.31	353.77	9.50	-83.5	-79.0	2.3	0.00e+00	0	49	104	0	60	1048573
2026-01-17 14:35:56.32	353.58	9.43	-83.1	-79.0	2.4	0.00e+00	0	49	104	0	60	1048575
2026-01-17 14:35:57.32	353.39	9.37	-83.5	-79.0	2.4	0.00e+00	0	49	104	0	60	1048574
2026-01-17 14:35:58.33	353.20	9.30	-83.5	-79.0	2.4	0.00e+00	0	49	104	0	60	1048573
2026-01-17 14:35:59.34	353.01	9.23	-83.5	-79.0	2.3	0.00e+00	0	49	104	0	60	1048570
2026-01-17 14:36:00.34	352.82	9.17	-83.1	-79.0	2.4	0.00e+00	0	49	104	0	60	1048570
2026-01-17 14:36:01.35	352.63	9.10	-82.8	-79.0	2.3	0.00e+00	0	49	104	0	60	1048568
2026-01-17 14:36:02.36	352.44	9.04	-83.5	-79.0	2.5	0.00e+00	0	49	104	0	60	1048574
2026-01-17 14:36:03.36	352.26	8.97	-83.5	-79.0	2.4	0.00e+00	0	49	104	0	60	1048574
2026-01-17 14:36:04.37	352.07	8.90	-83.5	-79.0	2.4	0.00e+00	0	49	104	0	60	1048573
2026-01-17 14:36:05.38	351.89	8.84	-83.5	-79.0	2.4	0.00e+00	0	49	104	0	60	1048572
2026-01-17 14:36:06.39	351.71	8.77	-83.1	-79.0	2.3	0.00e+00	0	49	104	0	60	1048569
2026-01-17 14:36:07.39	351.53	8.70	-83.1	-79.0	2.4	0.00e+00	0	49	104	0	60	1048575
2026-01-17 14:36:08.40	351.35	8.64	-83.5	-79.0	2.2	0.00e+00	0	49	104	0	60	1048575
2026-01-17 14:36:09.41	351.17	8.57	-83.5	-79.0	2.4	0.00e+00	0	49	104	0	60	1048574
2026-01-17 14:36:10.42	350.99	8.51	-83.1	-79.0	2.4	0.00e+00	0	49	104	0	60	1048550
2026-01-17 14:36:11.43	350.81	8.44	-83.5	-79.0	2.4	0.00e+00	0	49	104	0	60	1048570
2026-01-17 14:36:12.44	350.63	8.37	-83.5	-79.0	2.4	0.00e+00	0	49	104	0	60	1048575
2026-01-17 14:36:13.45	350.46	8.31	-83.5	-79.0	2.2	0.00e+00	0	49	104	0	60	1048570
2026-01-17 14:36:14.45	350.28	8.24	-83.5	-79.0	2.4	0.00e+00	0	49	104	0	60	1048574
2026-01-17 14:36:15.46	350.11	8.17	-82.8	-79.0	2.3	0.00e+00	0	49	104	0	60	1048567
2026-01-17 14:36:16.47	349.94	8.11	-83.5	-79.0	2.4	0.00e+00	0	49	104	0	60	1048575
2026-01-17 14:36:17.48	349.76	8.04	-83.5	-79.0	2.7	0.00e+00	0	49	104	0	60	1048575
2026-01-17 14:36:18.48	349.59	7.98	-83.5	-79.0	2.4	0.00e+00	0	49	104	0	60	1048574
2026-01-17 14:36:19.49	349.43	7.91	-83.1	-79.0	2.5	0.00e+00	0	49	104	0	60	1048572
2026-01-17 14:36:20.49	349.26	7.84	-83.1	-79.0	2.3	0.00e+00	0	49	104	0	60	1048570
2026-01-17 14:36:21.50	349.09	7.78	-83.5	-79.0	2.3	0.00e+00	0	49	104	0	60	1048571
2026-01-17 14:36:22.51	348.92	7.71	-83.5	-79.0	2.4	0.00e+00	0	49	104	0	60	1048575
2026-01-17 14:36:23.52	348.76	7.65	-83.5	-79.0	2.3	0.00e+00	0	49	104	0	60	1048574
2026-01-17 14:36:24.52	348.59	7.58	-83.1	-79.0	2.4	0.00e+00	0	49	104	0	60	1048574
2026-01-17 14:36:25.53	348.43	7.52	-83.5	-79.0	2.3	0.00e+00	0	49	104	0	60	1048574
2026-01-17 14:36:26.53	348.27	7.45	-83.5	-79.0	2.3	0.00e+00	0	49	104	0	60	1048575
2026-01-17 14:36:27.54	348.11	7.38	-83.5	-79.0	2.4	0.00e+00	0	49	104	0	60	1048575
2026-01-17 14:36:28.55	347.94	7.32	-83.5	-79.0	2.3	0.00e+00	0	49	104	0	60	1048570
2026-01-17 14:36:29.55	347.79	7.25	-83.1	-79.0	2.4	0.00e+00	0	49	104	0	60	1048572
2026-01-17 14:36:30.55	347.63	7.19	-82.8	-79.0	2.3	0.00e+00	0	49	104	0	60	1048570
2026-01-17 14:36:31.56	347.47	7.12	-83.5	-79.0	2.3	0.00e+00	0	49	104	0	60	1048574
2026-01-17 14:36:32.57	347.31	7.06	-83.5	-79.0	2.2	0.00e+00	0	49	104	0	60	1048574
2026-01-17 14:36:33.57	347.16	6.99	-83.5	-79.0	2.3	0.00e+00	0	49	104	0	60	1048571
2026-01-17 14:36:34.58	347.00	6.93	-82.8	-79.0	2.3	0.00e+00	0	49	104	0	60	1048568
2026-01-17 14:36:35.59	346.85	6.86	-83.5	-79.0	2.1	0.00e+00	0	49	104	0	60	1048574
2026-01-17 14:36:36.59	346.69	6.80	-83.5	-79.0	2.5	0.00e+00	0	49	104	0	60	1048574
2026-01-17 14:36:37.60	346.54	6.73	-83.5	-79.0	2.4	0.00e+00	0	49	104	0	60	1048567
2026-01-17 14:36:38.61	346.39	6.66	-82.8	-79.0	2.6	0.00e+00	0	49	104	0	60	1048575
2026-01-17 14:36:39.61	346.24	6.60	-82.8	-79.0	2.6	0.00e+00	0	49	104	0	60	1048575
2026-01-17 14:36:40.62	346.09	6.54	-83.5	-79.0	2.5	0.00e+00	0	49	104	0	60	1048575
2026-01-17 14:36:41.63	345.94	6.47	-83.5	-79.0	2.5	0.00e+00	0	49	104	0	60	1048574
2026-01-17 14:36:42.64	345.79	6.40	-83.1	-79.0	2.3	0.00e+00	0	49	104	0	60	1048575
2026-01-17 14:36:43.64	345.64	6.34	-83.1	-79.0	2.4	0.00e+00	0	49	104	0	60	1048574
2026-01-17 14:36:44.65	345.49	6.28	-83.1	-79.0	2.5	0.00e+00	0	49	104	0	60	1048575
2026-01-17 14:36:45.65	345.35	6.21	-83.5	-79.0	2.5	0.00e+00	0	49	104	0	60	1048573
2026-01-17 14:36:46.66	345.20	6.15	-83.5	-79.0	2.4	0.00e+00	0	49	104	0	60	1048573
2026-01-17 14:36:47.67	345.06	6.08	-83.5	-79.0	2.4	0.00e+00	0	49	104	0	60	1048574
2026-01-17 14:36:48.67	344.92	6.02	-82.8	-79.0	2.5	0.00e+00	0	49	104	0	60	1048572
2026-01-17 14:36:49.68	344.77	5.95	-83.5	-79.0	2.1	0.00e+00	0	49	104	0	60	1048575
2026-01-17 14:36:50.68	344.63	5.89	-83.5	-79.0	2.7	0.00e+00	0	49	104	0	60	1048570
2026-01-17 14:36:51.69	344.49	5.82	-83.5	-79.0	2.7	0.00e+00	0	49	104	0	60	1048575
2026-01-17 14:36:52.69	344.35	5.76	-83.5	-79.0	2.4	0.00e+00	0	49	104	0	60	1048575
2026-01-17 14:36:53.69	344.21	5.70	-83.1	-79.0	2.5	0.00e+00	0	49	104	0	60	1048575
2026-01-17 14:36:54.70	344.08	5.63	-83.5	-79.0	2.3	0.00e+00	0	49	104	0	60	1048564
2026-01-17 14:36:55.71	343.94	5.57	-83.5	-79.0	2.4	0.00e+00	0	49	104	0	60	1048575
2026-01-17 14:36:56.72	343.80	5.50	-83.5	-79.0	2.3	0.00e+00	0	49	104	0	60	1048571
2026-01-17 14:36:57.73	343.66	5.44	-83.1	-79.0	2.3	0.00e+00	0	49	104	0	60	1048575
2026-01-17 14:36:58.73	343.53	5.38	-83.1	-79.0	2.4	0.00e+00	0	49	104	0	60	1048572
2026-01-17 14:36:59.74	343.39	5.31	-83.5	-79.0	2.3	0.00e+00	0	49	104	0	60	1048575
2026-01-17 14:37:00.74	343.26	5.25	-83.5	-79.0	2.3	0.00e+00	0	49	104	0	60	1048574
2026-01-17 14:37:01.75	343.13	5.19	-83.5	-79.0	2.4	0.00e+00	0	49	104	0	60	1048573
2026-01-17 14:37:02.76	342.99	5.12	-83.1	-79.0	2.3	0.00e+00	0	49	104	0	60	1048574
2026-01-17 14:37:03.77	342.86	5.06	-83.5	-79.0	2.5	0.00e+00	0	49	104	0	60	1048574
2026-01-17 14:37:04.77	342.73	5.00	-83.5	-79.0	2.3	0.00e+00	0	49	104	0	60	1048574
2026-01-17 14:37:05.78	342.60	4.93	-83.5	-79.0	2.5	0.00e+00	0	49	104	0	60	1048573
2026-01-17 14:37:06.79	342.47	4.87	-83.5	-79.0	2.3	0.00e+00	0	49	104	0	60	1048572
2026-01-17 14:37:07.79	342.34	4.81	-82.8	-79.0	2.5	0.00e+00	0	49	104	0	60	1048565
2026-01-17 14:37:08.79	342.22	4.75	-83.5	-79.0	2.3	0.00e+00	0	49	104	0	60	1048571
2026-01-17 14:37:09.80	342.09	4.68	-83.5	-79.0	2.2	0.00e+00	0	49	104	0	60	1048572
2026-01-17 14:37:10.81	341.96	4.62	-83.5	-79.0	2.5	0.00e+00	0	49	104	0	60	1048575
2026-01-17 14:37:11.81	341.84	4.56	-83.1	-79.0	2.3	0.00e+00	0	49	104	0	60	1048575
2026-01-17 14:37:12.82	341.71	4.49	-83.1	-79.0	2.4	0.00e+00	0	49	104	0	60	1048570
2026-01-17 14:37:13.83	341.59	4.43	-83.5	-79.0	2.4	0.00e+00	0	49	104	0	60	1048575
2026-01-17 14:37:14.84	341.46	4.37	-83.5	-79.0	2.4	0.00e+00	0	49	104	0	60	1048573
2026-01-17 14:37:15.85	341.34	4.31	-83.5	-79.0	2.2	0.00e+00	0	49	104	0	60	1048571
2026-01-17 14:37:16.86	341.22	4.24	-83.1	-79.0	2.4	0.00e+00	0	49	104	0	60	1048574
2026-01-17 14:37:17.86	341.09	4.18	-83.1	-79.0	2.4	0.00e+00	0	49	104	0	60	1048571
2026-01-17 14:37:18.87	340.97	4.12	-83.1	-79.0	2.4	0.00e+00	0	49	104	0	60	1048575
2026-01-17 14:37:19.87	340.85	4.06	-83.5	-79.0	2.5	0.00e+00	0	49	104	0	60	1048573
2026-01-17 14:37:20.88	340.73	4.00	-83.5	-79.0	2.3	0.00e+00	0	49	104	0	60	1048575
2026-01-17 14:37:21.89	340.61	3.93	-83.1	-79.0	2.8	0.00e+00	0	49	104	0	60	1048574
2026-01-17 14:37:22.89	340.50	3.87	-83.5	-79.0	2.4	0.00e+00	0	49	104	0	60	1048574
2026-01-17 14:37:23.90	340.38	3.81	-83.5	-79.0	2.2	0.00e+00	0	49	104	0	60	1048575
2026-01-17 14:37:24.90	340.26	3.75	-83.5	-79.0	2.5	0.00e+00	0	49	104	0	60	1048575
2026-01-17 14:37:25.91	340.15	3.69	-83.5	-79.0	2.6	0.00e+00	0	49	104	0	60	1048575
2026-01-17 14:37:26.92	340.03	3.63	-82.8	-79.0	2.3	0.00e+00	0	49	104	0	60	1048571
2026-01-17 14:37:27.93	339.91	3.57	-83.5	-79.0	2.3	0.00e+00	0	49	104	0	60	1048575
2026-01-17 14:37:28.93	339.80	3.51	-83.5	-79.0	2.3	0.00e+00	0	49	104	0	60	1048574
2026-01-17 14:37:29.93	339.69	3.44	-83.5	-79.0	2.5	0.00e+00	0	49	104	0	60	1048572
2026-01-17 14:37:30.94	339.57	3.38	-83.1	-79.0	2.3	0.00e+00	0	49	104	0	60	1048574
2026-01-17 14:37:31.95	339.46	3.32	-82.8	-79.0	2.5	0.00e+00	0	49	104	0	60	1048575
2026-01-17 14:37:32.96	339.35	3.26	-83.1	-79.0	2.5	0.00e+00	0	49	104	0	60	1048568
2026-01-17 14:37:33.97	339.24	3.20	-83.5	-79.0	2.2	0.00e+00	0	49	104	0	60	1048574
2026-01-17 14:37:34.97	339.13	3.14	-83.5	-79.0	2.4	0.00e+00	0	49	104	0	60	1048571
2026-01-17 14:37:35.97	339.02	3.08	-83.1	-79.0	2.7	0.00e+00	0	49	104	0	60	1048568
2026-01-17 14:37:36.98	338.91	3.02	-83.5	-79.0	2.2	0.00e+00	0	49	104	0	60	1048571
2026-01-17 14:37:37.99	338.80	2.96	-83.5	-79.0	2.5	0.00e+00	0	48	104	0	60	1048574
2026-01-17 14:37:38.99	338.69	2.90	-83.5	-79.0	2.3	0.00e+00	0	49	104	0	60	1048573
2026-01-17 14:37:40.00	338.58	2.84	-83.1	-79.0	2.4	0.00e+00	0	49	104	0	60	1048571
2026-01-17 14:37:41.00	338.47	2.78	-82.8	-79.0	2.4	0.00e+00	0	48	104	0	60	1048570
2026-01-17 14:37:42.01	338.37	2.72	-83.1	-79.0	2.5	0.00e+00	0	49	104	0	60	1048575
2026-01-17 14:37:43.01	338.26	2.66	-83.5	-79.0	2.2	0.00e+00	0	49	104	0	60	1048568
2026-01-17 14:37:44.02	338.16	2.60	-83.5	-79.0	2.5	0.00e+00	0	49	104	0	60	1048575
2026-01-17 14:37:45.03	338.05	2.54	-83.5	-79.0	2.2	0.00e+00	0	49	104	0	60	1048575
2026-01-17 14:37:46.04	337.95	2.48	-83.1	-79.0	2.5	0.00e+00	0	49	104	0	60	1048574
2026-01-17 14:37:47.05	337.84	2.42	-83.5	-79.0	2.3	0.00e+00	0	49	104	0	60	1048574
2026-01-17 14:37:48.05	337.74	2.36	-83.5	-79.0	2.4	0.00e+00	0	49	104	0	60	1048574
2026-01-17 14:37:49.06	337.64	2.30	-83.5	-79.0	2.4	0.00e+00	0	49	104	0	60	1048575
2026-01-17 14:37:50.07	337.53	2.24	-83.1	-79.0	2.3	0.00e+00	0	49	104	0	60	1048575
2026-01-17 14:37:51.08	337.43	2.18	-82.8	-79.0	2.4	0.00e+00	0	49	104	0	60	1048572
2026-01-17 14:37:52.09	337.33	2.12	-83.5	-79.0	2.3	0.00e+00	0	49	104	0	60	1048574
2026-01-17 14:37:53.09	337.23	2.07	-83.5	-79.0	2.3	0.00e+00	0	49	104	0	60	1048575
2026-01-17 14:37:54.10	337.13	2.01	-83.5	-79.0	2.2	0.00e+00	0	49	104	0	60	1048573
2026-01-17 14:37:55.10	337.03	1.95	-83.1	-79.0	2.5	0.00e+00	0	49	104	0	60	1048574
2026-01-17 14:37:56.11	336.93	1.89	-83.5	-79.0	2.2	0.00e+00	0	49	104	0	60	1048574
2026-01-17 14:37:57.11	336.83	1.83	-83.5	-79.0	2.6	0.00e+00	0	49	104	0	60	1048564
2026-01-17 14:37:58.12	336.73	1.77	-83.5	-79.0	2.3	0.00e+00	0	49	104	0	60	1048573
2026-01-17 14:37:59.13	336.64	1.71	-83.1	-79.0	2.4	0.00e+00	0	49	104	0	60	1048575
2026-01-17 14:38:00.13	336.54	1.66	-83.1	-79.0	2.3	0.00e+00	0	49	104	0	60	1048573
2026-01-17 14:38:01.14	336.44	1.60	-83.5	-79.0	2.2	0.00e+00	0	49	104	0	60	1048571
2026-01-17 14:38:02.15	336.35	1.54	-83.5	-79.0	2.6	0.00e+00	0	49	104	0	60	1048571
2026-01-17 14:38:03.16	336.25	1.48	-83.5	-79.0	2.3	0.00e+00	0	49	104	0	60	1048575
2026-01-17 14:38:04.17	336.16	1.42	-83.1	-79.0	2.5	0.00e+00	0	49	104	0	60	1048575
2026-01-17 14:38:05.18	336.06	1.37	-83.1	-79.0	2.3	0.00e+00	0	49	104	0	60	1048575
2026-01-17 14:38:06.18	335.97	1.31	-83.5	-79.0	2.4	0.00e+00	0	49	104	0	60	1048575
2026-01-17 14:38:07.19	335.87	1.25	-83.5	-79.0	2.2	0.00e+00	0	49	104	0	60	1048575
2026-01-17 14:38:08.19	335.78	1.19	-83.5	-79.0	2.3	0.00e+00	0	49	104	0	60	1048575
2026-01-17 14:38:09.20	335.69	1.14	-83.1	-79.0	2.4	0.00e+00	0	49	104	0	60	1048572
2026-01-17 14:38:10.20	335.60	1.08	-83.1	-79.0	2.4	0.00e+00	0	49	104	0	60	1048574
2026-01-17 14:38:11.21	335.51	1.02	-83.5	-79.0	2.3	0.00e+00	0	49	104	0	60	1048574
2026-01-17 14:38:12.21	335.41	0.96	-83.5	-79.0	2.4	0.00e+00	0	49	104	0	60	1048575
2026-01-17 14:38:13.22	335.32	0.91	-83.5	-79.0	2.4	0.00e+00	0	49	104	0	60	1048572
2026-01-17 14:38:14.23	335.23	0.85	-83.1	-79.0	2.5	0.00e+00	0	49	104	0	60	1048574
2026-01-17 14:38:15.24	335.14	0.79	-83.5	-79.0	2.4	0.00e+00	0	49	104	0	60	1048570
2026-01-17 14:38:16.25	335.05	0.74	-83.5	-79.0	2.5	0.00e+00	0	49	104	0	60	1048572
2026-01-17 14:38:17.25	334.97	0.68	-83.5	-79.0	2.2	0.00e+00	0	49	104	0	60	1048571
2026-01-17 14:38:18.26	334.88	0.62	-83.5	-79.0	2.3	0.00e+00	0	49	104	0	60	1048562
2026-01-17 14:38:19.27	334.79	0.57	-82.8	-79.0	2.5	0.00e+00	0	49	104	0	60	1048574
2026-01-17 14:38:20.27	334.70	0.51	-83.5	-79.0	2.4	0.00e+00	0	49	104	0	60	1048575
2026-01-17 14:38:21.28	334.61	0.45	-83.5	-79.0	2.5	0.00e+00	0	49	104	0	60	1048575
2026-01-17 14:38:22.29	334.53	0.40	-83.1	-79.0	2.4	0.00e+00	0	49	104	0	60	1048569
2026-01-17 14:38:23.30	334.44	0.34	-83.1	-79.0	2.4	0.00e+00	0	49	104	0	60	1048568
2026-01-17 14:38:24.30	334.36	0.28	-83.1	-79.0	2.5	0.00e+00	0	49	104	0	60	1048575
2026-01-17 14:38:25.31	334.27	0.23	-83.5	-79.0	2.3	0.00e+00	0	49	104	0	60	1048574
2026-01-17 14:38:26.32	334.19	0.17	-83.5	-79.0	2.5	0.00e+00	0	49	104	0	60	1048573
2026-01-17 14:38:27.33	334.10	0.12	-83.5	-79.0	2.3	0.00e+00	0	49	104	0	60	1048574
2026-01-17 14:38:28.33	334.02	0.06	-82.8	-79.0	2.5	0.00e+00	0	49	104	0	60	1048575
2026-01-17 14:38:29.33	333.93	0.00	-82.8	-79.0	2.3	0.00e+00	0	49	104	0	60	1048570

#Closed at: 2026-01-17 14:38:30
#Recorded file [0 MB]: D:/Data/35015_260117_173346.dat