passes_logs/2026/01/17/R3.2S-Naryan-Mar/R3.2S-Naryan-Mar__20260117_091001_NOAA_20_JPSS-1_rec.log

#Pass ID: 20260117_091001_NOAA 20 (JPSS-1)
#Satellite: NOAA 20 (JPSS-1)
#Configuration: NOAA 20
#almurnet v.1.7.20240730
#Start time: 2026-01-17 09:10:04

#Version: 2.2.20231116
#Station: R3.2S-Naryan-Mar
#Location: 53.008057 lon 67.646978 lat
#TLE: 1 43013U 17073A   26016.24631778  .00000038  00000+0  39093-4 0  9990
#TLE: 2 43013  98.7637 317.1726 0001455  37.6755 322.4523 14.19536243422915

#Time	Az	El	Level	Level2	SNR	BER	BlckErr	Temp	State	Recorded	gain1	gain2
2026-01-17 09:10:04.60	174.13	0.17	-84.7	-88.6	4.9	1.63e+00	0	46	0	0	60	1048575
2026-01-17 09:10:05.60	174.16	0.23	-85.2	-88.6	2.9	1.56e+00	0	45	104	0	60	1048574
2026-01-17 09:10:06.61	174.19	0.29	-85.2	-88.6	2.9	1.56e+00	0	45	104	0	60	1048572
2026-01-17 09:10:07.61	174.21	0.35	-85.2	-88.6	3.1	1.55e+00	0	45	104	0	60	1048574
2026-01-17 09:10:08.62	174.24	0.41	-85.2	-88.6	2.8	1.55e+00	0	45	104	0	60	1048574
2026-01-17 09:10:09.63	174.27	0.47	-85.2	-88.6	3.0	1.56e+00	0	46	104	0	60	1048573
2026-01-17 09:10:10.64	174.29	0.53	-85.2	-88.6	3.3	1.56e+00	0	46	104	0	60	1048571
2026-01-17 09:10:11.65	174.32	0.59	-85.2	-88.6	3.1	1.55e+00	0	46	104	0	60	1048573
2026-01-17 09:10:12.66	174.35	0.65	-85.2	-88.6	2.9	1.55e+00	0	46	104	0	60	1048574
2026-01-17 09:10:13.67	174.37	0.71	-85.2	-88.6	3.2	1.56e+00	0	46	104	0	60	1048575
2026-01-17 09:10:14.68	174.40	0.77	-85.2	-88.6	3.1	1.56e+00	0	46	104	0	60	1048574
2026-01-17 09:10:15.68	174.43	0.83	-85.2	-88.6	3.2	1.56e+00	0	46	104	0	60	1048575
2026-01-17 09:10:16.69	174.45	0.89	-85.2	-88.6	2.9	1.56e+00	0	46	104	0	60	1048575
2026-01-17 09:10:17.69	174.48	0.95	-85.2	-88.6	2.9	1.56e+00	0	46	104	0	60	1048572
2026-01-17 09:10:18.70	174.51	1.01	-85.2	-88.6	2.9	1.56e+00	0	46	104	0	60	1048573
2026-01-17 09:10:19.71	174.54	1.07	-85.2	-88.6	3.0	1.56e+00	0	46	104	0	60	1048574
2026-01-17 09:10:20.71	174.56	1.14	-85.2	-88.6	3.0	1.55e+00	0	46	104	0	60	1048575
2026-01-17 09:10:21.72	174.59	1.20	-85.2	-88.6	3.1	1.56e+00	0	46	104	0	60	1048575
2026-01-17 09:10:22.73	174.62	1.26	-85.2	-88.6	3.0	1.56e+00	0	46	104	0	60	1048574
2026-01-17 09:10:23.74	174.65	1.32	-85.2	-88.6	3.2	1.56e+00	0	46	104	0	60	1048574
2026-01-17 09:10:24.75	174.67	1.38	-85.2	-88.6	3.0	1.56e+00	0	46	104	0	60	1048575
2026-01-17 09:10:25.75	174.70	1.44	-85.2	-88.6	3.3	1.56e+00	0	46	104	0	60	1048575
2026-01-17 09:10:26.76	174.73	1.51	-85.2	-88.6	2.9	1.55e+00	0	46	104	0	60	1048574
2026-01-17 09:10:27.77	174.76	1.57	-85.2	-88.6	2.9	1.56e+00	0	46	104	0	60	1048569
2026-01-17 09:10:28.77	174.79	1.63	-85.2	-88.6	2.9	1.55e+00	0	46	104	0	60	1048574
2026-01-17 09:10:29.78	174.81	1.69	-85.2	-88.6	2.9	1.56e+00	0	46	104	0	60	1048575
2026-01-17 09:10:30.78	174.84	1.76	-85.2	-88.6	3.0	1.56e+00	0	46	104	0	60	1048575
2026-01-17 09:10:31.79	174.87	1.82	-85.2	-88.6	3.1	1.56e+00	0	46	104	0	60	1048575
2026-01-17 09:10:32.80	174.90	1.88	-85.2	-88.6	3.1	1.56e+00	0	46	104	0	60	1048575
2026-01-17 09:10:33.80	174.93	1.95	-85.2	-88.6	3.2	1.55e+00	0	46	104	0	60	1048575
2026-01-17 09:10:34.81	174.96	2.01	-85.2	-88.6	3.2	1.56e+00	0	46	104	0	60	1048575
2026-01-17 09:10:35.82	174.99	2.07	-85.2	-88.6	3.2	1.56e+00	0	46	104	0	60	1048575
2026-01-17 09:10:36.83	175.02	2.14	-83.5	-88.6	3.0	1.56e+00	0	46	104	0	60	1048575
2026-01-17 09:10:37.83	175.05	2.20	-85.2	-88.6	3.1	1.55e+00	0	46	104	0	60	1048574
2026-01-17 09:10:38.84	175.07	2.26	-85.2	-88.6	2.9	1.56e+00	0	46	104	0	60	1048569
2026-01-17 09:10:39.84	175.10	2.33	-85.2	-88.6	3.1	1.56e+00	0	46	104	0	60	1048571
2026-01-17 09:10:40.85	175.13	2.39	-85.2	-88.6	2.8	1.55e+00	0	46	104	0	60	1048575
2026-01-17 09:10:41.85	175.16	2.46	-84.3	-88.6	2.9	1.56e+00	0	46	104	0	60	1048575
2026-01-17 09:10:42.86	175.19	2.52	-85.2	-88.6	2.7	1.56e+00	0	46	104	0	60	1048575
2026-01-17 09:10:43.87	175.22	2.58	-85.2	-88.6	3.2	1.56e+00	0	46	104	0	60	1048575
2026-01-17 09:10:44.88	175.25	2.65	-85.2	-88.6	3.1	1.56e+00	0	46	104	0	60	1048575
2026-01-17 09:10:45.88	175.28	2.71	-85.2	-88.6	3.0	1.56e+00	0	46	104	0	60	1048573
2026-01-17 09:10:46.89	175.31	2.78	-85.2	-88.6	3.0	1.55e+00	0	46	104	0	60	1048574
2026-01-17 09:10:47.89	175.34	2.84	-85.2	-88.6	2.9	1.56e+00	0	46	104	0	60	1048571
2026-01-17 09:10:48.89	175.37	2.91	-85.2	-88.6	3.0	1.56e+00	0	46	104	0	60	1048571
2026-01-17 09:10:49.90	175.41	2.97	-85.2	-88.6	2.9	1.56e+00	0	46	104	0	60	1048574
2026-01-17 09:10:50.91	175.44	3.04	-85.2	-88.6	3.1	1.56e+00	0	46	104	0	60	1048574
2026-01-17 09:10:51.92	175.47	3.11	-84.3	-88.6	3.1	1.56e+00	0	46	104	0	60	1048575
2026-01-17 09:10:52.92	175.50	3.17	-84.7	-88.6	3.0	1.56e+00	0	46	104	0	60	1048574
2026-01-17 09:10:53.93	175.53	3.24	-85.2	-88.6	3.1	1.55e+00	0	46	104	0	60	1048575
2026-01-17 09:10:54.94	175.56	3.30	-85.2	-88.6	2.9	1.56e+00	0	46	104	0	60	1048574
2026-01-17 09:10:55.95	175.59	3.37	-85.2	-88.6	3.1	1.56e+00	0	46	104	0	60	1048574
2026-01-17 09:10:56.95	175.62	3.44	-85.2	-88.6	3.0	1.55e+00	0	46	104	0	60	1048573
2026-01-17 09:10:57.96	175.66	3.50	-85.2	-88.6	2.9	1.55e+00	0	46	104	0	60	1048574
2026-01-17 09:10:58.96	175.69	3.57	-85.2	-88.6	3.1	1.56e+00	0	46	104	0	60	1048574
2026-01-17 09:10:59.97	175.72	3.64	-85.2	-88.6	2.9	1.56e+00	0	46	104	0	60	1048573
2026-01-17 09:11:00.98	175.75	3.70	-85.2	-88.6	2.8	1.55e+00	0	46	104	0	60	1048575
2026-01-17 09:11:01.99	175.78	3.77	-85.2	-88.6	3.0	1.56e+00	0	46	104	0	60	1048571
2026-01-17 09:11:02.99	175.82	3.84	-85.2	-88.6	3.2	1.56e+00	0	46	104	0	60	1048575
2026-01-17 09:11:04.00	175.85	3.91	-85.2	-88.6	3.1	1.56e+00	0	46	104	0	60	1048574
2026-01-17 09:11:05.01	175.88	3.97	-85.2	-88.6	3.0	1.56e+00	0	46	104	0	60	1048574
2026-01-17 09:11:06.02	175.91	4.04	-85.2	-88.6	3.0	1.56e+00	0	46	104	0	60	1048575
2026-01-17 09:11:07.03	175.95	4.11	-84.7	-88.6	3.2	1.56e+00	0	46	104	0	60	1048575
2026-01-17 09:11:08.03	175.98	4.18	-85.2	-88.6	2.9	1.56e+00	0	46	104	0	60	1048575
2026-01-17 09:11:09.04	176.01	4.25	-85.2	-88.6	3.0	1.56e+00	0	46	104	0	60	1048573
2026-01-17 09:11:10.04	176.05	4.31	-85.2	-88.6	3.1	1.56e+00	0	46	104	0	60	1048575
2026-01-17 09:11:11.05	176.08	4.38	-85.2	-88.6	3.2	1.56e+00	0	46	104	0	60	1048573
2026-01-17 09:11:12.06	176.11	4.45	-85.2	-88.6	3.3	1.56e+00	0	46	104	0	60	1048575
2026-01-17 09:11:13.07	176.15	4.52	-85.2	-88.6	3.0	1.56e+00	0	46	104	0	60	1048574
2026-01-17 09:11:14.07	176.18	4.59	-85.2	-88.6	3.0	1.55e+00	0	46	104	0	60	1048573
2026-01-17 09:11:15.07	176.21	4.66	-85.2	-88.6	3.1	1.56e+00	0	46	104	0	60	1048575
2026-01-17 09:11:16.07	176.25	4.73	-85.2	-88.6	3.0	1.56e+00	0	46	104	0	60	1048575
2026-01-17 09:11:17.08	176.28	4.80	-85.2	-88.6	3.0	1.55e+00	0	46	104	0	60	1048575
2026-01-17 09:11:18.09	176.32	4.87	-85.2	-88.6	2.9	1.55e+00	0	46	104	0	60	1048573
2026-01-17 09:11:19.09	176.35	4.94	-85.2	-88.6	3.2	1.56e+00	0	46	104	0	60	1048575
2026-01-17 09:11:20.10	176.39	5.01	-85.2	-88.6	2.9	1.56e+00	0	46	104	0	60	1048573
2026-01-17 09:11:21.11	176.42	5.08	-85.2	-88.6	3.1	1.56e+00	0	46	104	0	60	1048574
2026-01-17 09:11:22.11	176.46	5.15	-84.3	-88.6	3.1	1.56e+00	0	46	104	0	60	1048575
2026-01-17 09:11:23.12	176.49	5.22	-85.2	-88.6	3.0	1.56e+00	0	46	104	0	60	1048575
2026-01-17 09:11:24.13	176.53	5.29	-85.2	-88.6	3.0	1.55e+00	0	46	104	0	60	1048575
2026-01-17 09:11:25.14	176.56	5.36	-85.2	-88.6	3.1	1.55e+00	0	46	104	0	60	1048575
2026-01-17 09:11:26.15	176.60	5.43	-85.2	-88.6	3.1	1.56e+00	0	46	104	0	60	1048572
2026-01-17 09:11:27.15	176.63	5.50	-84.7	-88.6	2.9	1.56e+00	0	46	104	0	60	1048575
2026-01-17 09:11:28.16	176.67	5.58	-85.2	-88.6	3.0	1.55e+00	0	46	104	0	60	1048574
2026-01-17 09:11:29.16	176.71	5.65	-83.1	-88.6	3.0	1.56e+00	0	46	104	0	60	1048575
2026-01-17 09:11:30.16	176.74	5.72	-85.2	-88.6	3.2	1.56e+00	0	46	104	0	60	1048574
2026-01-17 09:11:31.17	176.78	5.79	-85.2	-88.6	2.9	1.56e+00	0	46	104	0	60	1048574
2026-01-17 09:11:32.18	176.81	5.86	-85.2	-88.6	3.0	1.55e+00	0	46	104	0	60	1048575
2026-01-17 09:11:33.18	176.85	5.94	-85.2	-88.6	3.1	1.55e+00	0	46	104	0	60	1048574
2026-01-17 09:11:34.19	176.89	6.01	-85.2	-88.6	3.1	1.55e+00	0	46	104	0	60	1048574
2026-01-17 09:11:35.19	176.92	6.08	-85.2	-88.6	3.0	1.55e+00	0	46	104	0	60	1048571
2026-01-17 09:11:36.20	176.96	6.16	-85.2	-88.6	3.0	1.56e+00	0	46	104	0	60	1048574
2026-01-17 09:11:37.21	177.00	6.23	-85.2	-88.6	3.0	1.56e+00	0	46	104	0	60	1048574
2026-01-17 09:11:38.21	177.04	6.30	-85.2	-88.6	3.2	1.56e+00	0	46	104	0	60	1048575
2026-01-17 09:11:39.22	177.07	6.38	-85.2	-88.6	2.8	1.56e+00	0	46	104	0	60	1048575
2026-01-17 09:11:40.23	177.11	6.45	-85.2	-88.6	2.8	1.56e+00	0	46	104	0	60	1048574
2026-01-17 09:11:41.23	177.15	6.53	-85.2	-88.6	3.0	1.56e+00	0	46	104	0	60	1048575
2026-01-17 09:11:42.24	177.19	6.60	-85.2	-88.6	3.0	1.55e+00	0	46	104	0	60	1048575
2026-01-17 09:11:43.25	177.23	6.67	-85.2	-88.6	3.0	1.56e+00	0	46	104	0	60	1048574
2026-01-17 09:11:44.26	177.27	6.75	-85.2	-88.6	3.0	1.55e+00	0	46	104	0	60	1048575
2026-01-17 09:11:45.27	177.31	6.83	-85.2	-88.6	3.1	1.56e+00	0	46	104	0	60	1048572
2026-01-17 09:11:46.27	177.34	6.90	-85.2	-88.6	3.1	1.56e+00	0	46	104	0	60	1048575
2026-01-17 09:11:47.28	177.38	6.98	-85.2	-88.6	2.9	1.56e+00	0	46	104	0	60	1048575
2026-01-17 09:11:48.29	177.42	7.05	-85.2	-88.6	2.7	1.55e+00	0	46	104	0	60	1048574
2026-01-17 09:11:49.29	177.46	7.13	-85.2	-88.6	2.9	1.56e+00	0	46	104	0	60	1048573
2026-01-17 09:11:50.29	177.50	7.20	-85.2	-88.6	2.9	1.55e+00	0	47	104	0	60	1048575
2026-01-17 09:11:51.30	177.54	7.28	-85.2	-88.6	2.9	1.55e+00	0	46	104	0	60	1048575
2026-01-17 09:11:52.31	177.58	7.36	-85.2	-88.6	3.1	1.55e+00	0	47	104	0	60	1048570
2026-01-17 09:11:53.31	177.62	7.43	-85.2	-88.6	2.9	1.56e+00	0	46	104	0	60	1048574
2026-01-17 09:11:54.32	177.66	7.51	-85.2	-88.6	3.1	1.55e+00	0	46	104	0	60	1048575
2026-01-17 09:11:55.32	177.70	7.59	-85.2	-88.6	3.0	1.55e+00	0	46	104	0	60	1048574
2026-01-17 09:11:56.33	177.74	7.66	-85.2	-88.6	3.0	1.56e+00	0	46	104	0	60	1048573
2026-01-17 09:11:57.33	177.79	7.74	-85.2	-88.6	3.0	1.56e+00	0	47	104	0	60	1048575
2026-01-17 09:11:58.34	177.83	7.82	-85.2	-88.6	3.1	1.55e+00	0	47	104	0	60	1048574
2026-01-17 09:11:59.34	177.87	7.90	-85.2	-88.6	3.0	1.55e+00	0	46	104	0	60	1048574
2026-01-17 09:12:00.35	177.91	7.98	-85.2	-88.6	3.2	1.56e+00	0	46	104	0	60	1048574
2026-01-17 09:12:01.35	177.95	8.05	-85.2	-88.6	3.1	1.55e+00	0	46	104	0	60	1048575
2026-01-17 09:12:02.36	177.99	8.13	-85.2	-88.6	3.1	1.56e+00	0	46	104	0	60	1048575
2026-01-17 09:12:03.37	178.04	8.21	-85.2	-88.6	2.9	1.56e+00	0	46	104	0	60	1048575
2026-01-17 09:12:04.37	178.08	8.29	-85.2	-88.6	3.1	1.55e+00	0	46	104	0	60	1048574
2026-01-17 09:12:05.38	178.12	8.37	-85.2	-88.6	3.0	1.56e+00	0	46	104	0	60	1048575
2026-01-17 09:12:06.38	178.16	8.45	-85.2	-88.6	3.0	1.56e+00	0	47	104	0	60	1048573
2026-01-17 09:12:07.38	178.21	8.53	-85.2	-88.6	3.0	1.55e+00	0	47	104	0	60	1048570
2026-01-17 09:12:08.39	178.25	8.61	-85.2	-88.6	3.0	1.55e+00	0	47	104	0	60	1048575
2026-01-17 09:12:09.40	178.29	8.69	-85.2	-88.6	3.0	1.56e+00	0	47	104	0	60	1048575
2026-01-17 09:12:10.40	178.34	8.77	-85.2	-88.6	3.1	1.56e+00	0	47	104	0	60	1048575
2026-01-17 09:12:11.40	178.38	8.85	-85.2	-88.6	3.2	1.56e+00	0	47	104	0	60	1048573
2026-01-17 09:12:12.41	178.43	8.93	-85.2	-88.6	2.9	1.56e+00	0	46	104	0	60	1048574
2026-01-17 09:12:13.42	178.47	9.02	-85.2	-88.6	3.0	1.56e+00	0	47	104	0	60	1048575
2026-01-17 09:12:14.42	178.52	9.10	-85.2	-88.6	3.1	1.55e+00	0	46	104	0	60	1048575
2026-01-17 09:12:15.42	178.56	9.18	-85.2	-88.6	3.2	1.55e+00	0	47	104	0	60	1048575
2026-01-17 09:12:16.43	178.61	9.26	-85.2	-88.6	3.0	1.56e+00	0	47	104	0	60	1048575
2026-01-17 09:12:17.44	178.65	9.34	-84.3	-88.6	3.2	1.56e+00	0	47	104	0	60	1048573
2026-01-17 09:12:18.45	178.70	9.43	-85.2	-88.6	3.1	1.56e+00	0	47	104	0	60	1048575
2026-01-17 09:12:19.45	178.74	9.51	-85.2	-88.6	3.2	1.56e+00	0	47	104	0	60	1048575
2026-01-17 09:12:20.45	178.79	9.59	-85.2	-88.6	3.0	1.56e+00	0	47	104	0	60	1048575
2026-01-17 09:12:21.46	178.84	9.68	-85.2	-88.6	3.2	1.56e+00	0	47	104	0	60	1048575
2026-01-17 09:12:22.47	178.88	9.76	-85.2	-88.6	3.0	1.56e+00	0	47	104	0	60	1048573
2026-01-17 09:12:23.47	178.93	9.84	-85.2	-88.6	3.0	1.56e+00	0	47	104	0	60	1048574
2026-01-17 09:12:24.48	178.98	9.93	-85.2	-88.6	3.1	1.55e+00	0	47	104	0	60	1048574
2026-01-17 09:12:25.48	179.02	10.01	-85.2	-88.6	2.9	1.56e+00	0	47	104	0	60	1048574
2026-01-17 09:12:26.49	179.07	10.10	-85.2	-88.6	3.1	1.56e+00	0	47	104	0	60	1048575
2026-01-17 09:12:27.49	179.12	10.18	-85.2	-88.6	3.1	1.56e+00	0	47	104	0	60	1048571
2026-01-17 09:12:28.50	179.17	10.27	-85.2	-88.6	3.2	1.56e+00	0	47	104	0	60	1048574
2026-01-17 09:12:29.50	179.22	10.35	-84.7	-88.6	2.9	1.56e+00	0	47	104	0	60	1048575
2026-01-17 09:12:30.51	179.26	10.44	-85.2	-88.6	3.1	1.55e+00	0	47	104	0	60	1048575
2026-01-17 09:12:31.52	179.31	10.53	-85.2	-88.6	3.0	1.56e+00	0	46	104	0	60	1048575
2026-01-17 09:12:32.53	179.36	10.61	-85.2	-88.6	3.0	1.56e+00	0	46	104	0	60	1048573
2026-01-17 09:12:33.54	179.41	10.70	-85.2	-88.6	3.2	1.55e+00	0	47	104	0	60	1048575
2026-01-17 09:12:34.55	179.46	10.79	-85.2	-88.6	2.9	1.55e+00	0	47	104	0	60	1048575
2026-01-17 09:12:35.56	179.51	10.88	-85.2	-88.6	3.2	1.56e+00	0	47	104	0	60	1048573
2026-01-17 09:12:36.56	179.56	10.96	-85.2	-88.6	2.7	1.56e+00	0	47	104	0	60	1048573
2026-01-17 09:12:37.56	179.61	11.05	-85.2	-88.6	2.9	1.56e+00	0	47	104	0	60	1048574
2026-01-17 09:12:38.57	179.66	11.14	-85.2	-88.6	3.1	1.56e+00	0	46	104	0	60	1048574
2026-01-17 09:12:39.57	179.71	11.23	-85.2	-88.6	3.1	1.56e+00	0	46	104	0	60	1048573
2026-01-17 09:12:40.58	179.77	11.32	-85.2	-88.6	3.0	1.56e+00	0	47	104	0	60	1048574
2026-01-17 09:12:41.59	179.82	11.41	-85.2	-88.6	3.2	1.55e+00	0	47	104	0	60	1048574
2026-01-17 09:12:42.59	179.87	11.49	-84.3	-88.6	3.0	1.55e+00	0	47	104	0	60	1048574
2026-01-17 09:12:43.60	179.92	11.59	-85.2	-88.6	3.1	1.55e+00	0	47	104	0	60	1048575
2026-01-17 09:12:44.61	179.98	11.68	-85.2	-88.6	3.3	1.55e+00	0	46	104	0	60	1048574
2026-01-17 09:12:45.61	180.03	11.77	-85.2	-88.6	2.9	1.56e+00	0	47	104	0	60	1048574
2026-01-17 09:12:46.62	180.08	11.86	-85.2	-88.6	3.0	1.56e+00	0	47	104	0	60	1048575
2026-01-17 09:12:47.62	180.13	11.95	-85.2	-88.6	3.0	1.56e+00	0	47	104	0	60	1048574
2026-01-17 09:12:48.63	180.19	12.04	-85.2	-88.6	3.0	1.56e+00	0	47	104	0	60	1048575
2026-01-17 09:12:49.64	180.24	12.13	-85.2	-88.6	3.0	1.56e+00	0	47	104	0	60	1048575
2026-01-17 09:12:50.65	180.30	12.22	-85.2	-88.6	2.8	1.55e+00	0	47	104	0	60	1048574
2026-01-17 09:12:51.66	180.35	12.32	-85.2	-88.6	3.0	1.56e+00	0	47	104	0	60	1048575
2026-01-17 09:12:52.67	180.41	12.41	-85.2	-88.6	2.9	1.55e+00	0	47	104	0	60	1048575
2026-01-17 09:12:53.67	180.46	12.50	-85.2	-88.6	2.9	1.55e+00	0	47	104	0	60	1048574
2026-01-17 09:12:54.67	180.52	12.60	-85.2	-88.6	2.9	1.56e+00	0	47	104	0	60	1048575
2026-01-17 09:12:55.68	180.57	12.69	-85.2	-88.6	3.3	1.56e+00	0	47	104	0	60	1048575
2026-01-17 09:12:56.68	180.63	12.78	-85.2	-88.6	3.1	1.56e+00	0	47	104	0	60	1048575
2026-01-17 09:12:57.68	180.69	12.88	-85.2	-88.6	2.9	1.56e+00	0	47	104	0	60	1048575
2026-01-17 09:12:58.69	180.74	12.97	-84.3	-88.6	2.8	1.56e+00	0	47	104	0	60	1048571
2026-01-17 09:12:59.69	180.80	13.07	-85.2	-88.6	2.8	1.55e+00	0	47	104	0	60	1048574
2026-01-17 09:13:00.70	180.86	13.16	-85.2	-88.6	2.7	1.56e+00	0	47	104	0	60	1048574
2026-01-17 09:13:01.70	180.92	13.26	-85.2	-88.6	3.1	1.55e+00	0	47	104	0	60	1048575
2026-01-17 09:13:02.71	180.98	13.35	-85.2	-88.6	3.0	1.56e+00	0	47	104	0	60	1048575
2026-01-17 09:13:03.71	181.03	13.45	-85.2	-88.6	3.2	1.55e+00	0	47	104	0	60	1048575
2026-01-17 09:13:04.72	181.09	13.55	-85.2	-88.6	3.3	1.56e+00	0	47	104	0	60	1048575
2026-01-17 09:13:05.72	181.15	13.64	-85.2	-88.6	3.0	1.56e+00	0	47	104	0	60	1048574
2026-01-17 09:13:06.73	181.21	13.74	-85.2	-88.6	3.1	1.55e+00	0	47	104	0	60	1048575
2026-01-17 09:13:07.74	181.27	13.84	-85.2	-88.6	3.1	1.56e+00	0	47	104	0	60	1048575
2026-01-17 09:13:08.75	181.34	13.94	-85.2	-88.6	3.0	1.55e+00	0	47	104	0	60	1048575
2026-01-17 09:13:09.75	181.40	14.04	-85.2	-88.6	3.1	1.56e+00	0	47	104	0	60	1048575
2026-01-17 09:13:10.76	181.46	14.14	-85.2	-88.6	3.2	1.55e+00	0	47	104	0	60	1048573
2026-01-17 09:13:11.76	181.52	14.24	-85.2	-88.6	3.1	1.56e+00	0	47	104	0	60	1048575
2026-01-17 09:13:12.77	181.58	14.34	-85.2	-88.6	3.0	1.56e+00	0	47	104	0	60	1048574
2026-01-17 09:13:13.77	181.64	14.44	-85.2	-88.6	3.0	1.56e+00	0	47	104	0	60	1048575
2026-01-17 09:13:14.78	181.71	14.54	-85.2	-88.6	3.0	1.55e+00	0	47	104	0	60	1048575
2026-01-17 09:13:15.79	181.77	14.64	-85.2	-88.6	2.9	1.56e+00	0	47	104	0	60	1048575
2026-01-17 09:13:16.79	181.83	14.74	-85.2	-88.6	3.0	1.56e+00	0	47	104	0	60	1048574
2026-01-17 09:13:17.80	181.90	14.84	-85.2	-88.6	2.9	1.55e+00	0	47	104	0	60	1048574
2026-01-17 09:13:18.81	181.96	14.94	-85.2	-88.6	3.0	1.56e+00	0	47	104	0	60	1048575
2026-01-17 09:13:19.81	182.03	15.05	-85.2	-88.6	2.9	1.55e+00	0	47	104	0	60	1048575
2026-01-17 09:13:20.82	182.09	15.15	-85.2	-88.6	3.0	1.55e+00	0	47	104	0	60	1048575
2026-01-17 09:13:21.83	182.16	15.25	-85.2	-88.6	3.1	1.56e+00	0	47	104	0	60	1048574
2026-01-17 09:13:22.84	182.23	15.36	-85.2	-88.6	3.1	1.56e+00	0	46	104	0	60	1048574
2026-01-17 09:13:23.85	182.29	15.46	-85.2	-88.6	3.2	1.56e+00	0	47	104	0	60	1048575
2026-01-17 09:13:24.85	182.36	15.57	-85.2	-88.6	2.9	1.56e+00	0	47	104	0	60	1048573
2026-01-17 09:13:25.85	182.43	15.67	-85.2	-88.6	2.9	1.56e+00	0	47	104	0	60	1048575
2026-01-17 09:13:26.86	182.50	15.78	-85.2	-88.6	3.0	1.56e+00	0	47	104	0	60	1048575
2026-01-17 09:13:27.86	182.56	15.88	-85.2	-88.6	3.0	1.56e+00	0	47	104	0	60	1048575
2026-01-17 09:13:28.86	182.63	15.99	-85.2	-88.6	2.7	1.56e+00	0	47	104	0	60	1048573
2026-01-17 09:13:29.87	182.70	16.10	-85.2	-88.6	3.2	1.56e+00	0	47	104	0	60	1048575
2026-01-17 09:13:30.88	182.77	16.20	-85.2	-88.6	3.0	1.56e+00	0	47	104	0	60	1048575
2026-01-17 09:13:31.88	182.84	16.31	-85.2	-88.6	3.2	1.55e+00	0	47	104	0	60	1048575
2026-01-17 09:13:32.88	182.91	16.42	-85.2	-88.6	3.0	1.55e+00	0	47	104	0	60	1048574
2026-01-17 09:13:33.88	182.98	16.53	-85.2	-88.6	2.9	1.56e+00	0	47	104	0	60	1048574
2026-01-17 09:13:34.89	183.06	16.64	-85.2	-88.6	2.9	1.55e+00	0	47	104	0	60	1048575
2026-01-17 09:13:35.90	183.13	16.74	-85.2	-88.6	3.0	1.56e+00	0	47	104	0	60	1048575
2026-01-17 09:13:36.90	183.20	16.85	-85.2	-88.6	3.2	1.56e+00	0	47	104	0	60	1048575
2026-01-17 09:13:37.90	183.28	16.96	-85.2	-88.6	2.9	1.56e+00	0	47	104	0	60	1048575
2026-01-17 09:13:38.90	183.35	17.07	-85.2	-88.6	2.9	1.56e+00	0	47	104	0	60	1048575
2026-01-17 09:13:39.91	183.42	17.19	-85.2	-88.6	3.0	1.56e+00	0	47	104	0	60	1048575
2026-01-17 09:13:40.92	183.50	17.30	-85.2	-88.6	3.0	1.56e+00	0	47	104	0	60	1048575
2026-01-17 09:13:41.92	183.57	17.41	-85.2	-88.6	3.0	1.56e+00	0	47	104	0	60	1048575
2026-01-17 09:13:42.93	183.65	17.52	-85.2	-88.6	3.0	1.56e+00	0	47	104	0	60	1048574
2026-01-17 09:13:43.94	183.73	17.64	-85.2	-88.6	3.0	1.56e+00	0	47	104	0	60	1048575
2026-01-17 09:13:44.95	183.80	17.75	-85.2	-88.6	3.0	1.56e+00	0	47	104	0	60	1048575
2026-01-17 09:13:45.95	183.88	17.86	-85.2	-88.6	3.2	1.56e+00	0	47	104	0	60	1048575
2026-01-17 09:13:46.95	183.96	17.98	-85.2	-88.6	3.0	1.56e+00	0	47	104	0	60	1048575
2026-01-17 09:13:47.96	184.04	18.09	-85.2	-88.6	3.2	1.56e+00	0	47	104	0	60	1048573
2026-01-17 09:13:48.96	184.12	18.21	-85.2	-88.6	2.9	1.56e+00	0	47	104	0	60	1048574
2026-01-17 09:13:49.97	184.20	18.32	-85.2	-88.6	3.0	1.55e+00	0	47	104	0	60	1048574
2026-01-17 09:13:50.98	184.28	18.44	-85.2	-88.6	3.0	1.56e+00	0	47	104	0	60	1048575
2026-01-17 09:13:51.98	184.36	18.56	-85.2	-88.6	3.1	1.56e+00	0	47	104	0	60	1048575
2026-01-17 09:13:52.98	184.44	18.67	-84.7	-88.6	3.1	1.56e+00	0	47	104	0	60	1048574
2026-01-17 09:13:53.99	184.52	18.79	-85.2	-88.6	2.9	1.56e+00	0	47	104	0	60	1048575
2026-01-17 09:13:54.99	184.60	18.91	-85.2	-88.6	3.1	1.56e+00	0	47	104	0	60	1048571
2026-01-17 09:13:56.00	184.69	19.03	-85.2	-88.6	2.7	1.56e+00	0	47	104	0	60	1048575
2026-01-17 09:13:57.01	184.77	19.15	-85.2	-88.6	3.0	1.56e+00	0	47	104	0	60	1048575
2026-01-17 09:13:58.01	184.86	19.27	-85.2	-88.6	2.9	1.56e+00	0	47	104	0	60	1048572
2026-01-17 09:13:59.02	184.94	19.39	-85.2	-88.6	3.0	1.56e+00	0	47	104	0	60	1048573
2026-01-17 09:14:00.02	185.03	19.51	-85.2	-88.6	3.0	1.56e+00	0	47	104	0	60	1048574
2026-01-17 09:14:01.03	185.12	19.63	-85.2	-88.6	2.9	1.56e+00	0	47	104	0	60	1048573
2026-01-17 09:14:02.04	185.20	19.76	-85.2	-88.6	3.0	1.56e+00	0	47	104	0	60	1048575
2026-01-17 09:14:03.04	185.29	19.88	-85.2	-88.6	3.2	1.56e+00	0	47	104	0	60	1048571
2026-01-17 09:14:04.05	185.38	20.00	-85.2	-88.6	2.9	1.56e+00	0	47	104	0	60	1048575
2026-01-17 09:14:05.05	185.47	20.13	-85.2	-88.6	3.0	1.56e+00	0	47	104	0	60	1048574
2026-01-17 09:14:06.06	185.56	20.25	-85.2	-88.6	3.1	1.55e+00	0	47	104	0	60	1048573
2026-01-17 09:14:07.07	185.65	20.38	-85.2	-88.6	2.7	1.56e+00	0	47	104	0	60	1048574
2026-01-17 09:14:08.07	185.74	20.50	-85.2	-88.6	2.9	1.56e+00	0	47	104	0	60	1048575
2026-01-17 09:14:09.08	185.83	20.63	-85.2	-88.6	3.0	1.56e+00	0	47	104	0	60	1048575
2026-01-17 09:14:10.08	185.93	20.75	-85.2	-88.6	2.9	1.56e+00	0	47	104	0	60	1048571
2026-01-17 09:14:11.09	186.02	20.88	-85.2	-88.6	2.8	1.56e+00	0	47	104	0	60	1048575
2026-01-17 09:14:12.10	186.11	21.01	-85.2	-88.6	3.3	1.56e+00	0	47	104	0	60	1048572
2026-01-17 09:14:13.11	186.21	21.14	-85.2	-88.6	2.8	1.56e+00	0	47	104	0	60	1048574
2026-01-17 09:14:14.11	186.31	21.27	-85.2	-88.6	3.0	1.56e+00	0	47	104	0	60	1048575
2026-01-17 09:14:15.12	186.40	21.40	-85.2	-88.6	2.8	1.56e+00	0	47	104	0	60	1048572
2026-01-17 09:14:16.13	186.50	21.53	-85.2	-88.6	3.0	1.55e+00	0	47	104	0	60	1048575
2026-01-17 09:14:17.14	186.60	21.66	-85.2	-88.6	3.1	1.56e+00	0	47	104	0	60	1048573
2026-01-17 09:14:18.14	186.70	21.79	-85.2	-88.6	3.0	1.56e+00	0	47	104	0	60	1048575
2026-01-17 09:14:19.15	186.80	21.92	-85.2	-88.6	3.1	1.55e+00	0	47	104	0	60	1048573
2026-01-17 09:14:20.16	186.90	22.05	-85.2	-88.6	3.0	1.56e+00	0	47	104	0	60	1048575
2026-01-17 09:14:21.16	187.00	22.19	-85.2	-88.6	2.9	1.56e+00	0	47	104	0	60	1048575
2026-01-17 09:14:22.17	187.10	22.32	-85.2	-88.6	2.7	1.56e+00	0	47	104	0	60	1048574
2026-01-17 09:14:23.17	187.20	22.45	-85.2	-88.6	2.9	1.56e+00	0	47	104	0	60	1048572
2026-01-17 09:14:24.18	187.31	22.59	-85.2	-88.6	3.0	1.56e+00	0	47	104	0	60	1048574
2026-01-17 09:14:25.19	187.41	22.73	-85.2	-88.6	3.0	1.56e+00	0	47	104	0	60	1048574
2026-01-17 09:14:26.19	187.52	22.86	-85.2	-88.6	3.2	1.56e+00	0	47	104	0	60	1048574
2026-01-17 09:14:27.20	187.63	23.00	-85.2	-88.6	3.3	1.55e+00	0	47	104	0	60	1048575
2026-01-17 09:14:28.21	187.73	23.14	-85.2	-88.6	3.0	1.55e+00	0	47	104	0	60	1048574
2026-01-17 09:14:29.21	187.84	23.27	-85.2	-88.6	3.1	1.56e+00	0	47	104	0	60	1048575
2026-01-17 09:14:30.22	187.95	23.41	-85.2	-88.6	3.0	1.55e+00	0	47	104	0	60	1048575
2026-01-17 09:14:31.23	188.06	23.55	-85.2	-88.6	3.0	1.56e+00	0	47	104	0	60	1048575
2026-01-17 09:14:32.23	188.17	23.69	-85.2	-88.6	2.9	1.55e+00	0	47	104	0	60	1048575
2026-01-17 09:14:33.24	188.29	23.83	-85.2	-88.6	2.8	1.56e+00	0	47	104	0	60	1048575
2026-01-17 09:14:34.25	188.40	23.98	-85.2	-88.6	3.0	1.56e+00	0	47	104	0	60	1048575
2026-01-17 09:14:35.26	188.51	24.12	-85.2	-88.6	2.9	1.55e+00	0	47	104	0	60	1048570
2026-01-17 09:14:36.26	188.63	24.26	-85.2	-88.6	2.9	1.55e+00	0	47	104	0	60	1048575
2026-01-17 09:14:37.27	188.75	24.41	-85.2	-88.6	3.1	1.56e+00	0	47	104	0	60	1048574
2026-01-17 09:14:38.27	188.86	24.55	-85.2	-88.6	3.1	1.55e+00	0	47	104	0	60	1048575
2026-01-17 09:14:39.28	188.98	24.69	-85.2	-88.6	3.0	1.56e+00	0	47	104	0	60	1048575
2026-01-17 09:14:40.28	189.10	24.84	-85.2	-88.6	3.0	1.56e+00	0	47	104	0	60	1048574
2026-01-17 09:14:41.29	189.22	24.98	-85.2	-88.6	3.0	1.55e+00	0	47	104	0	60	1048574
2026-01-17 09:14:42.30	189.34	25.13	-85.2	-88.6	3.2	1.56e+00	0	47	104	0	60	1048575
2026-01-17 09:14:43.31	189.47	25.28	-85.2	-88.6	2.8	1.56e+00	0	47	104	0	60	1048575
2026-01-17 09:14:44.32	189.59	25.43	-85.2	-88.6	2.9	1.56e+00	0	47	104	0	60	1048575
2026-01-17 09:14:45.33	189.72	25.58	-85.2	-88.6	3.0	1.56e+00	0	47	104	0	60	1048573
2026-01-17 09:14:46.33	189.84	25.73	-85.2	-88.6	2.9	1.55e+00	0	47	104	0	60	1048575
2026-01-17 09:14:47.35	189.97	25.88	-85.2	-88.6	2.9	1.55e+00	0	47	104	0	60	1048573
2026-01-17 09:14:48.35	190.10	26.03	-85.2	-88.6	2.8	1.56e+00	0	47	104	0	60	1048574
2026-01-17 09:14:49.36	190.23	26.18	-85.2	-88.6	2.9	1.56e+00	0	47	104	0	60	1048575
2026-01-17 09:14:50.37	190.36	26.33	-85.2	-88.6	3.2	1.55e+00	0	47	104	0	60	1048575
2026-01-17 09:14:51.37	190.49	26.49	-85.2	-88.6	3.0	1.55e+00	0	47	104	0	60	1048575
2026-01-17 09:14:52.38	190.62	26.64	-85.2	-88.6	3.1	1.56e+00	0	47	104	0	60	1048574
2026-01-17 09:14:53.39	190.76	26.80	-85.2	-88.6	3.1	1.56e+00	0	47	104	0	60	1048574
2026-01-17 09:14:54.39	190.89	26.95	-85.2	-88.6	3.0	1.56e+00	0	47	104	0	60	1048575
2026-01-17 09:14:55.40	191.03	27.11	-85.2	-88.6	3.1	1.56e+00	0	47	104	0	60	1048574
2026-01-17 09:14:56.41	191.17	27.26	-85.2	-88.6	3.0	1.56e+00	0	47	104	0	60	1048575
2026-01-17 09:14:57.42	191.31	27.42	-85.2	-88.6	3.1	1.55e+00	0	47	104	0	60	1048573
2026-01-17 09:14:58.43	191.45	27.58	-85.2	-88.6	2.8	1.56e+00	0	47	104	0	60	1048575
2026-01-17 09:14:59.43	191.59	27.74	-85.2	-88.6	3.0	1.56e+00	0	47	104	0	60	1048573
2026-01-17 09:15:00.44	191.74	27.90	-85.2	-88.6	2.8	1.55e+00	0	47	104	0	60	1048571
2026-01-17 09:15:01.45	191.88	28.06	-85.2	-88.6	2.8	1.56e+00	0	47	104	0	60	1048572
2026-01-17 09:15:02.46	192.03	28.22	-85.2	-88.6	3.0	1.56e+00	0	47	104	0	60	1048575
2026-01-17 09:15:03.46	192.18	28.38	-85.2	-88.6	2.8	1.56e+00	0	47	104	0	60	1048575
2026-01-17 09:15:04.47	192.33	28.55	-85.2	-88.6	2.9	1.56e+00	0	47	104	0	60	1048575
2026-01-17 09:15:05.48	192.48	28.71	-85.2	-88.6	3.2	1.56e+00	0	47	104	0	60	1048575
2026-01-17 09:15:06.48	192.63	28.87	-85.2	-88.6	3.0	1.56e+00	0	47	104	0	60	1048573
2026-01-17 09:15:07.49	192.78	29.04	-85.2	-88.6	2.9	1.55e+00	0	47	104	0	60	1048575
2026-01-17 09:15:08.50	192.94	29.21	-85.2	-88.6	3.0	1.56e+00	0	47	104	0	60	1048575
2026-01-17 09:15:09.50	193.10	29.37	-85.2	-88.6	2.8	1.55e+00	0	47	104	0	60	1048575
2026-01-17 09:15:10.51	193.26	29.54	-85.2	-88.6	3.1	1.56e+00	0	47	104	0	60	1048571
2026-01-17 09:15:11.52	193.42	29.71	-85.2	-88.6	2.9	1.56e+00	0	47	104	0	60	1048575
2026-01-17 09:15:12.53	193.58	29.88	-85.2	-88.6	3.0	1.56e+00	0	47	104	0	60	1048573
2026-01-17 09:15:13.54	193.74	30.05	-85.2	-88.6	2.9	1.56e+00	0	47	104	0	60	1048575
2026-01-17 09:15:14.55	193.91	30.22	-85.2	-88.6	3.2	1.56e+00	0	47	104	0	60	1048573
2026-01-17 09:15:15.55	194.08	30.39	-85.2	-88.6	3.1	1.56e+00	0	47	104	0	60	1048574
2026-01-17 09:15:16.56	194.25	30.56	-85.2	-88.6	2.9	1.56e+00	0	47	104	0	60	1048575
2026-01-17 09:15:17.56	194.41	30.73	-84.7	-88.6	2.9	1.56e+00	0	47	104	0	60	1048575
2026-01-17 09:15:18.57	194.59	30.91	-85.2	-88.6	3.2	1.56e+00	0	47	104	0	60	1048575
2026-01-17 09:15:19.57	194.76	31.08	-85.2	-88.6	3.0	1.55e+00	0	47	104	0	60	1048574
2026-01-17 09:15:20.58	194.94	31.25	-85.2	-88.6	3.1	1.55e+00	0	47	104	0	60	1048572
2026-01-17 09:15:21.58	195.11	31.43	-85.2	-88.6	3.0	1.56e+00	0	47	104	0	60	1048575
2026-01-17 09:15:22.59	195.29	31.60	-85.2	-88.6	3.1	1.56e+00	0	47	104	0	60	1048573
2026-01-17 09:15:23.60	195.48	31.78	-85.2	-88.6	3.0	1.56e+00	0	47	104	0	60	1048575
2026-01-17 09:15:24.61	195.66	31.96	-85.2	-88.6	2.8	1.56e+00	0	47	104	0	60	1048574
2026-01-17 09:15:25.61	195.84	32.14	-85.2	-88.6	3.1	1.56e+00	0	47	104	0	60	1048575
2026-01-17 09:15:26.62	196.03	32.32	-85.2	-88.6	3.0	1.56e+00	0	47	104	0	60	1048575
2026-01-17 09:15:27.62	196.22	32.50	-85.2	-88.6	2.9	1.55e+00	0	47	104	0	60	1048574
2026-01-17 09:15:28.63	196.41	32.68	-85.2	-88.6	3.0	1.56e+00	0	47	104	0	60	1048574
2026-01-17 09:15:29.63	196.61	32.86	-84.7	-88.6	2.9	1.55e+00	0	47	104	0	60	1048575
2026-01-17 09:15:30.63	196.80	33.04	-85.2	-88.6	3.0	1.56e+00	0	47	104	0	60	1048575
2026-01-17 09:15:31.64	197.00	33.22	-85.2	-88.6	3.0	1.56e+00	0	47	104	0	60	1048575
2026-01-17 09:15:32.65	197.20	33.41	-84.7	-88.6	2.9	1.56e+00	0	47	104	0	60	1048575
2026-01-17 09:15:33.65	197.40	33.59	-85.2	-88.6	2.7	1.56e+00	0	47	104	0	60	1048575
2026-01-17 09:15:34.66	197.61	33.78	-85.2	-88.6	3.0	1.56e+00	0	47	104	0	60	1048575
2026-01-17 09:15:35.67	197.81	33.96	-85.2	-88.6	3.0	1.56e+00	0	47	104	0	60	1048575
2026-01-17 09:15:36.67	198.02	34.15	-85.2	-88.6	2.9	1.55e+00	0	47	104	0	60	1048575
2026-01-17 09:15:37.68	198.23	34.34	-85.2	-88.6	2.9	1.55e+00	0	47	104	0	60	1048575
2026-01-17 09:15:38.69	198.45	34.53	-85.2	-88.6	3.2	1.56e+00	0	47	104	0	60	1048575
2026-01-17 09:15:39.70	198.67	34.72	-85.2	-88.6	3.0	1.56e+00	0	47	104	0	60	1048575
2026-01-17 09:15:40.69	198.88	34.90	-85.2	-88.6	3.0	1.56e+00	0	47	104	0	60	1048575
2026-01-17 09:15:41.70	199.10	35.09	-85.2	-88.6	3.0	1.55e+00	0	47	104	0	60	1048575
2026-01-17 09:15:42.70	199.33	35.28	-84.7	-88.6	3.1	1.56e+00	0	47	104	0	60	1048575
2026-01-17 09:15:43.71	199.55	35.48	-85.2	-88.6	3.1	1.56e+00	0	47	104	0	60	1048572
2026-01-17 09:15:44.71	199.78	35.67	-85.2	-88.6	3.1	1.56e+00	0	47	104	0	60	1048574
2026-01-17 09:15:45.72	200.01	35.86	-85.2	-88.6	2.9	1.56e+00	0	47	104	0	60	1048574
2026-01-17 09:15:46.72	200.25	36.05	-85.2	-88.6	3.1	1.56e+00	0	47	104	0	60	1048575
2026-01-17 09:15:47.73	200.48	36.25	-85.2	-88.6	3.0	1.56e+00	0	47	104	0	60	1048574
2026-01-17 09:15:48.73	200.72	36.44	-85.2	-88.6	3.3	1.56e+00	0	47	104	0	60	1048575
2026-01-17 09:15:49.74	200.97	36.64	-85.2	-88.6	3.1	1.56e+00	0	47	104	0	60	1048574
2026-01-17 09:15:50.75	201.21	36.83	-85.2	-88.6	2.9	1.56e+00	0	47	104	0	60	1048575
2026-01-17 09:15:51.75	201.46	37.03	-85.2	-88.6	3.0	1.56e+00	0	47	104	0	60	1048575
2026-01-17 09:15:52.76	201.71	37.23	-84.7	-88.6	3.2	1.56e+00	0	47	104	0	60	1048575
2026-01-17 09:15:53.77	201.97	37.42	-85.2	-88.6	2.9	1.56e+00	0	47	104	0	60	1048575
2026-01-17 09:15:54.78	202.23	37.62	-85.2	-88.6	3.0	1.55e+00	0	47	104	0	60	1048574
2026-01-17 09:15:55.79	202.49	37.82	-85.2	-88.6	3.1	1.55e+00	0	47	104	0	60	1048573
2026-01-17 09:15:56.79	202.75	38.02	-85.2	-88.6	2.9	1.56e+00	0	47	104	0	60	1048573
2026-01-17 09:15:57.80	203.02	38.22	-84.7	-88.6	2.8	1.56e+00	0	47	104	0	60	1048573
2026-01-17 09:15:58.81	203.29	38.42	-85.2	-88.6	3.0	1.56e+00	0	47	104	0	60	1048573
2026-01-17 09:15:59.81	203.56	38.62	-85.2	-88.6	3.0	1.56e+00	0	47	104	0	60	1048572
2026-01-17 09:16:00.82	203.84	38.82	-85.2	-88.6	3.1	1.56e+00	0	47	104	0	60	1048575
2026-01-17 09:16:01.83	204.12	39.03	-85.2	-88.6	2.9	1.56e+00	0	47	104	0	60	1048574
2026-01-17 09:16:02.83	204.40	39.23	-85.2	-88.6	2.9	1.55e+00	0	47	104	0	60	1048574
2026-01-17 09:16:03.84	204.69	39.43	-85.2	-88.6	2.9	1.56e+00	0	47	104	0	60	1048575
2026-01-17 09:16:04.85	204.98	39.63	-85.2	-88.6	2.9	1.55e+00	0	47	104	0	60	1048574
2026-01-17 09:16:05.86	205.28	39.84	-85.2	-88.6	3.0	1.56e+00	0	47	104	0	60	1048572
2026-01-17 09:16:06.86	205.57	40.04	-85.2	-88.6	3.0	1.56e+00	0	47	104	0	60	1048573
2026-01-17 09:16:07.87	205.88	40.25	-85.2	-88.6	3.1	1.55e+00	0	47	104	0	60	1048575
2026-01-17 09:16:08.87	206.18	40.45	-85.2	-88.6	2.9	1.55e+00	0	47	104	0	60	1048574
2026-01-17 09:16:09.88	206.49	40.65	-85.2	-88.6	2.9	1.55e+00	0	47	104	0	60	1048575
2026-01-17 09:16:10.89	206.80	40.86	-85.2	-88.6	3.1	1.56e+00	0	47	104	0	60	1048575
2026-01-17 09:16:11.90	207.12	41.07	-85.2	-88.6	3.1	1.56e+00	0	47	104	0	60	1048575
2026-01-17 09:16:12.90	207.44	41.27	-85.2	-88.6	3.1	1.56e+00	0	47	104	0	60	1048575
2026-01-17 09:16:13.91	207.77	41.48	-85.2	-88.6	3.0	1.55e+00	0	47	104	0	60	1048575
2026-01-17 09:16:14.91	208.10	41.68	-85.2	-88.6	2.7	1.56e+00	0	47	104	0	60	1048575
2026-01-17 09:16:15.92	208.43	41.89	-85.2	-88.6	2.9	1.56e+00	0	47	104	0	60	1048575
2026-01-17 09:16:16.93	208.77	42.09	-85.2	-88.6	2.9	1.56e+00	0	47	104	0	60	1048573
2026-01-17 09:16:17.94	209.11	42.30	-85.2	-88.6	2.8	1.55e+00	0	47	104	0	60	1048574
2026-01-17 09:16:18.95	209.46	42.51	-85.2	-88.6	2.9	1.55e+00	0	47	104	0	60	1048567
2026-01-17 09:16:19.95	209.81	42.71	-85.2	-88.6	2.9	1.56e+00	0	47	104	0	60	1048573
2026-01-17 09:16:20.96	210.16	42.92	-85.2	-88.6	3.1	1.55e+00	0	47	104	0	60	1048575
2026-01-17 09:16:21.97	210.52	43.12	-85.2	-88.6	3.0	1.56e+00	0	47	104	0	60	1048574
2026-01-17 09:16:22.98	210.89	43.33	-85.2	-88.6	3.1	1.56e+00	0	47	104	0	60	1048575
2026-01-17 09:16:23.99	211.26	43.54	-85.2	-88.6	3.0	1.56e+00	0	47	104	0	60	1048575
2026-01-17 09:16:24.99	211.63	43.74	-85.2	-88.6	3.2	1.56e+00	0	47	104	0	60	1048574
2026-01-17 09:16:26.00	212.01	43.94	-85.2	-88.6	3.1	1.56e+00	0	47	104	0	60	1048573
2026-01-17 09:16:27.01	212.39	44.15	-85.2	-88.6	3.1	1.55e+00	0	47	104	0	60	1048575
2026-01-17 09:16:28.02	212.78	44.36	-85.2	-88.6	2.9	1.55e+00	0	47	104	0	60	1048573
2026-01-17 09:16:29.02	213.17	44.56	-85.2	-88.6	2.9	1.55e+00	0	47	104	0	60	1048575
2026-01-17 09:16:30.03	213.57	44.76	-85.2	-88.6	3.0	1.55e+00	0	47	104	0	60	1048575
2026-01-17 09:16:31.03	213.97	44.96	-85.2	-88.6	3.1	1.56e+00	0	47	104	0	60	1048574
2026-01-17 09:16:32.04	214.38	45.17	-85.2	-88.6	3.1	1.56e+00	0	47	104	0	60	1048575
2026-01-17 09:16:33.04	214.79	45.37	-85.2	-88.6	3.1	1.56e+00	0	47	104	0	60	1048572
2026-01-17 09:16:34.05	215.21	45.57	-85.2	-88.6	3.0	1.55e+00	0	47	104	0	60	1048573
2026-01-17 09:16:35.05	215.63	45.77	-85.2	-88.6	3.1	1.55e+00	0	47	104	0	60	1048575
2026-01-17 09:16:36.06	216.06	45.97	-85.2	-88.6	3.1	1.56e+00	0	47	104	0	60	1048575
2026-01-17 09:16:37.07	216.50	46.17	-85.2	-88.6	3.0	1.55e+00	0	47	104	0	60	1048572
2026-01-17 09:16:38.08	216.94	46.37	-85.2	-88.6	3.0	1.56e+00	0	47	104	0	60	1048574
2026-01-17 09:16:39.09	217.39	46.57	-85.2	-88.6	2.9	1.56e+00	0	47	104	0	60	1048575
2026-01-17 09:16:40.09	217.84	46.76	-85.2	-88.6	3.3	1.56e+00	0	47	104	0	60	1048574
2026-01-17 09:16:41.10	218.29	46.96	-85.2	-88.6	3.1	1.56e+00	0	47	104	0	60	1048575
2026-01-17 09:16:42.11	218.76	47.15	-85.2	-88.6	3.1	1.56e+00	0	47	104	0	60	1048575
2026-01-17 09:16:43.12	219.23	47.35	-84.3	-88.6	3.1	1.56e+00	0	47	104	0	60	1048575
2026-01-17 09:16:44.12	219.70	47.54	-85.2	-88.6	2.7	1.56e+00	0	47	104	0	60	1048574
2026-01-17 09:16:45.13	220.18	47.73	-85.2	-88.6	3.0	1.56e+00	0	47	104	0	60	1048572
2026-01-17 09:16:46.14	220.67	47.92	-85.2	-88.6	3.0	1.56e+00	0	47	104	0	60	1048575
2026-01-17 09:16:47.15	221.16	48.11	-85.2	-88.6	3.0	1.55e+00	0	47	104	0	60	1048575
2026-01-17 09:16:48.15	221.65	48.29	-85.2	-88.6	3.0	1.56e+00	0	47	104	0	60	1048574
2026-01-17 09:16:49.15	222.15	48.48	-85.2	-88.6	3.0	1.56e+00	0	47	104	0	60	1048574
2026-01-17 09:16:50.16	222.66	48.66	-85.2	-88.6	3.0	1.56e+00	0	47	104	0	60	1048575
2026-01-17 09:16:51.16	223.17	48.84	-85.2	-88.6	3.0	1.56e+00	0	47	104	0	60	1048572
2026-01-17 09:16:52.17	223.70	49.02	-85.2	-88.6	2.8	1.56e+00	0	47	104	0	60	1048574
2026-01-17 09:16:53.18	224.23	49.20	-85.2	-88.6	2.7	1.56e+00	0	47	104	0	60	1048572
2026-01-17 09:16:54.19	224.76	49.38	-85.2	-88.6	3.1	1.55e+00	0	47	104	0	60	1048574
2026-01-17 09:16:55.19	225.30	49.55	-85.2	-88.6	3.0	1.56e+00	0	47	104	0	60	1048575
2026-01-17 09:16:56.19	225.84	49.73	-85.2	-88.6	3.0	1.56e+00	0	47	104	0	60	1048570
2026-01-17 09:16:57.20	226.39	49.90	-85.2	-88.6	2.9	1.56e+00	0	47	104	0	60	1048573
2026-01-17 09:16:58.21	226.95	50.07	-85.2	-88.6	3.1	1.55e+00	0	47	104	0	60	1048575
2026-01-17 09:16:59.21	227.51	50.23	-85.2	-88.6	3.0	1.56e+00	0	47	104	0	60	1048575
2026-01-17 09:17:00.21	228.08	50.39	-85.2	-88.6	2.9	1.56e+00	0	47	104	0	60	1048574
2026-01-17 09:17:01.22	228.65	50.56	-85.2	-88.6	3.0	1.55e+00	0	47	104	0	60	1048574
2026-01-17 09:17:02.23	229.24	50.72	-85.2	-88.6	3.2	1.56e+00	0	47	104	0	60	1048574
2026-01-17 09:17:03.23	229.82	50.87	-85.2	-88.6	2.8	1.55e+00	0	47	104	0	60	1048575
2026-01-17 09:17:04.24	230.42	51.03	-85.2	-88.6	3.1	1.56e+00	0	46	104	0	60	1048574
2026-01-17 09:17:05.25	231.02	51.18	-85.2	-88.6	3.0	1.56e+00	0	47	104	0	60	1048574
2026-01-17 09:17:06.26	231.63	51.33	-85.2	-88.6	2.9	1.56e+00	0	47	104	0	60	1048574
2026-01-17 09:17:07.27	232.24	51.47	-85.2	-88.6	2.8	1.56e+00	0	47	104	0	60	1048573
2026-01-17 09:17:08.27	232.86	51.62	-85.2	-88.6	3.0	1.55e+00	0	47	104	0	60	1048574
2026-01-17 09:17:09.28	233.48	51.76	-85.2	-88.6	3.1	1.56e+00	0	47	104	0	60	1048575
2026-01-17 09:17:10.28	234.11	51.89	-85.2	-88.6	3.0	1.56e+00	0	47	104	0	60	1048575
2026-01-17 09:17:11.29	234.74	52.02	-85.2	-88.6	2.9	1.55e+00	0	47	104	0	60	1048574
2026-01-17 09:17:12.30	235.39	52.16	-85.2	-88.6	2.9	1.56e+00	0	47	104	0	60	1048575
2026-01-17 09:17:13.31	236.04	52.28	-84.3	-88.6	2.7	1.56e+00	0	47	104	0	60	1048575
2026-01-17 09:17:14.31	236.68	52.41	-85.2	-88.6	2.9	1.55e+00	0	47	104	0	60	1048575
2026-01-17 09:17:15.32	237.34	52.53	-85.2	-88.6	3.2	1.55e+00	0	47	104	0	60	1048574
2026-01-17 09:17:16.33	238.01	52.64	-85.2	-88.6	2.9	1.55e+00	0	47	104	0	60	1048573
2026-01-17 09:17:17.34	238.68	52.76	-85.2	-88.6	3.2	1.56e+00	0	47	104	0	60	1048575
2026-01-17 09:17:18.35	239.35	52.86	-83.5	-88.6	3.0	1.56e+00	0	47	104	0	60	1048575
2026-01-17 09:17:19.35	240.02	52.97	-85.2	-88.6	3.1	1.56e+00	0	47	104	0	60	1048573
2026-01-17 09:17:20.36	240.71	53.07	-85.2	-88.6	3.0	1.55e+00	0	47	104	0	60	1048571
2026-01-17 09:17:21.36	241.39	53.17	-85.2	-88.6	2.9	1.55e+00	0	47	104	0	60	1048575
2026-01-17 09:17:22.37	242.08	53.26	-85.2	-88.6	3.1	1.55e+00	0	47	104	0	60	1048575
2026-01-17 09:17:23.38	242.78	53.35	-84.3	-88.6	2.8	1.56e+00	0	47	104	0	60	1048575
2026-01-17 09:17:24.39	243.48	53.44	-85.2	-88.6	3.0	1.56e+00	0	47	104	0	60	1048575
2026-01-17 09:17:25.39	244.18	53.52	-85.2	-88.6	3.3	1.56e+00	0	47	104	0	60	1048575
2026-01-17 09:17:26.40	244.89	53.60	-85.2	-88.6	3.0	1.55e+00	0	47	104	0	60	1048568
2026-01-17 09:17:27.40	245.60	53.67	-85.2	-88.6	2.9	1.56e+00	0	47	104	0	60	1048573
2026-01-17 09:17:28.41	246.31	53.74	-85.2	-88.6	3.0	1.56e+00	0	47	104	0	60	1048575
2026-01-17 09:17:29.42	247.03	53.80	-85.2	-88.6	3.1	1.56e+00	0	47	104	0	60	1048575
2026-01-17 09:17:30.43	247.76	53.86	-85.2	-88.6	3.1	1.56e+00	0	47	104	0	60	1048573
2026-01-17 09:17:31.43	248.48	53.92	-85.2	-88.6	3.1	1.55e+00	0	47	104	0	60	1048574
2026-01-17 09:17:32.44	249.21	53.97	-85.2	-88.6	3.1	1.56e+00	0	47	104	0	60	1048573
2026-01-17 09:17:33.45	249.94	54.01	-85.2	-88.6	3.0	1.56e+00	0	47	104	0	60	1048574
2026-01-17 09:17:34.46	250.67	54.05	-85.2	-88.6	3.0	1.56e+00	0	47	104	0	60	1048575
2026-01-17 09:17:35.47	251.40	54.09	-85.2	-88.6	2.9	1.55e+00	0	47	104	0	60	1048574
2026-01-17 09:17:36.47	252.13	54.12	-85.2	-88.6	3.1	1.56e+00	0	47	104	0	60	1048572
2026-01-17 09:17:37.48	252.87	54.15	-85.2	-88.6	3.1	1.56e+00	0	47	104	0	60	1048574
2026-01-17 09:17:38.48	253.60	54.17	-85.2	-88.6	3.0	1.56e+00	0	47	104	0	60	1048567
2026-01-17 09:17:39.49	254.35	54.19	-85.2	-88.6	2.9	1.56e+00	0	47	104	0	60	1048573
2026-01-17 09:17:40.50	255.09	54.21	-85.2	-88.6	3.0	1.55e+00	0	47	104	0	60	1048573
2026-01-17 09:17:41.51	255.83	54.22	-85.2	-88.6	3.1	1.56e+00	0	47	104	0	60	1048575
2026-01-17 09:17:42.51	256.56	54.22	-85.2	-88.6	3.0	1.56e+00	0	47	104	0	60	1048569
2026-01-17 09:17:43.52	257.31	54.22	-85.2	-88.6	3.2	1.56e+00	0	47	104	0	60	1048574
2026-01-17 09:17:44.53	258.05	54.21	-85.2	-88.6	3.1	1.55e+00	0	47	104	0	60	1048575
2026-01-17 09:17:45.54	258.79	54.20	-85.2	-88.6	3.0	1.56e+00	0	47	104	0	60	1048575
2026-01-17 09:17:46.54	259.52	54.19	-85.2	-88.6	3.3	1.56e+00	0	47	104	0	60	1048575
2026-01-17 09:17:47.54	260.26	54.17	-85.2	-88.6	3.0	1.56e+00	0	47	104	0	60	1048575
2026-01-17 09:17:48.55	261.00	54.15	-85.2	-88.6	3.0	1.56e+00	0	47	104	0	60	1048574
2026-01-17 09:17:49.55	261.73	54.12	-85.2	-88.6	3.0	1.56e+00	0	47	104	0	60	1048575
2026-01-17 09:17:50.56	262.46	54.08	-85.2	-88.6	3.0	1.56e+00	0	47	104	0	60	1048574
2026-01-17 09:17:51.57	263.20	54.05	-85.2	-88.6	3.1	1.55e+00	0	47	104	0	60	1048575
2026-01-17 09:17:52.58	263.93	54.00	-85.2	-88.6	3.1	1.56e+00	0	47	104	0	60	1048574
2026-01-17 09:17:53.59	264.66	53.96	-85.2	-88.6	3.0	1.56e+00	0	47	104	0	60	1048575
2026-01-17 09:17:54.59	265.38	53.91	-85.2	-88.6	3.2	1.56e+00	0	47	104	0	60	1048575
2026-01-17 09:17:55.60	266.11	53.85	-85.2	-88.6	3.0	1.56e+00	0	47	104	0	60	1048573
2026-01-17 09:17:56.61	266.83	53.79	-85.2	-88.6	2.9	1.56e+00	0	47	104	0	60	1048575
2026-01-17 09:17:57.61	267.54	53.72	-85.2	-88.6	3.0	1.55e+00	0	47	104	0	60	1048573
2026-01-17 09:17:58.62	268.26	53.65	-85.2	-88.6	3.0	1.55e+00	0	47	104	0	60	1048575
2026-01-17 09:17:59.62	268.96	53.58	-85.2	-88.6	3.0	1.56e+00	0	47	104	0	60	1048574
2026-01-17 09:18:00.63	269.67	53.50	-85.2	-88.6	3.1	1.56e+00	0	47	104	0	60	1048574
2026-01-17 09:18:01.63	270.37	53.42	-85.2	-88.6	3.1	1.55e+00	0	47	104	0	60	1048574
2026-01-17 09:18:02.64	271.07	53.34	-85.2	-88.6	3.1	1.55e+00	0	47	104	0	60	1048573
2026-01-17 09:18:03.64	271.76	53.25	-85.2	-88.6	2.9	1.56e+00	0	47	104	0	60	1048574
2026-01-17 09:18:04.65	272.45	53.15	-85.2	-88.6	3.1	1.56e+00	0	47	104	0	60	1048575
2026-01-17 09:18:05.65	273.13	53.06	-85.2	-88.6	2.7	1.55e+00	0	47	104	0	60	1048575
2026-01-17 09:18:06.66	273.81	52.95	-85.2	-88.6	3.0	1.55e+00	0	47	104	0	60	1048575
2026-01-17 09:18:07.67	274.49	52.85	-85.2	-88.6	3.2	1.56e+00	0	47	104	0	60	1048575
2026-01-17 09:18:08.68	275.16	52.74	-85.2	-88.6	3.1	1.56e+00	0	47	104	0	60	1048573
2026-01-17 09:18:09.68	275.82	52.62	-85.2	-88.6	3.2	1.56e+00	0	47	104	0	60	1048573
2026-01-17 09:18:10.69	276.49	52.51	-85.2	-88.6	2.9	1.56e+00	0	47	104	0	60	1048575
2026-01-17 09:18:11.69	277.14	52.39	-85.2	-88.6	2.8	1.56e+00	0	47	104	0	60	1048575
2026-01-17 09:18:12.70	277.79	52.26	-85.2	-88.6	3.1	1.55e+00	0	47	104	0	60	1048575
2026-01-17 09:18:13.71	278.44	52.14	-85.2	-88.6	2.9	1.55e+00	0	47	104	0	60	1048575
2026-01-17 09:18:14.71	279.07	52.01	-85.2	-88.6	3.0	1.56e+00	0	47	104	0	60	1048575
2026-01-17 09:18:15.72	279.71	51.87	-85.2	-88.6	3.1	1.56e+00	0	47	104	0	60	1048575
2026-01-17 09:18:16.73	280.34	51.74	-85.2	-88.6	3.1	1.56e+00	0	47	104	0	60	1048573
2026-01-17 09:18:17.73	280.95	51.60	-85.2	-88.6	3.1	1.56e+00	0	47	104	0	60	1048574
2026-01-17 09:18:18.73	281.57	51.46	-84.7	-88.6	3.0	1.56e+00	0	47	104	0	60	1048575
2026-01-17 09:18:19.74	282.18	51.31	-85.2	-88.6	3.2	1.56e+00	0	47	104	0	60	1048575
2026-01-17 09:18:20.75	282.78	51.16	-85.2	-88.6	2.9	1.55e+00	0	47	104	0	60	1048575
2026-01-17 09:18:21.75	283.38	51.01	-85.2	-88.6	3.0	1.56e+00	0	47	104	0	60	1048575
2026-01-17 09:18:22.76	283.97	50.86	-85.2	-88.6	3.0	1.56e+00	0	47	104	0	60	1048575
2026-01-17 09:18:23.77	284.56	50.70	-85.2	-88.6	3.1	1.56e+00	0	47	104	0	60	1048575
2026-01-17 09:18:24.78	285.14	50.54	-85.2	-88.6	3.0	1.56e+00	0	47	104	0	60	1048575
2026-01-17 09:18:25.79	285.72	50.38	-85.2	-88.6	3.1	1.55e+00	0	47	104	0	60	1048570
2026-01-17 09:18:26.79	286.28	50.21	-85.2	-88.6	3.1	1.56e+00	0	47	104	0	60	1048573
2026-01-17 09:18:27.80	286.85	50.05	-85.2	-88.6	2.8	1.56e+00	0	47	104	0	60	1048574
2026-01-17 09:18:28.79	287.39	49.88	-85.2	-88.6	3.1	1.56e+00	0	47	104	0	60	1048575
2026-01-17 09:18:29.80	287.94	49.71	-85.2	-88.6	3.0	1.56e+00	0	47	104	0	60	1048575
2026-01-17 09:18:30.81	288.49	49.54	-85.2	-88.6	2.9	1.56e+00	0	47	104	0	60	1048575
2026-01-17 09:18:31.81	289.02	49.36	-85.2	-88.6	3.0	1.55e+00	0	47	104	0	60	1048575
2026-01-17 09:18:32.82	289.56	49.19	-85.2	-88.6	3.0	1.56e+00	0	47	104	0	60	1048575
2026-01-17 09:18:33.83	290.08	49.01	-85.2	-88.6	3.0	1.56e+00	0	47	104	0	60	1048575
2026-01-17 09:18:34.83	290.60	48.83	-85.2	-88.6	3.0	1.55e+00	0	47	104	0	60	1048575
2026-01-17 09:18:35.84	291.11	48.65	-85.2	-88.6	3.2	1.56e+00	0	47	104	0	60	1048575
2026-01-17 09:18:36.84	291.62	48.46	-85.2	-88.6	3.0	1.55e+00	0	47	104	0	60	1048575
2026-01-17 09:18:37.85	292.12	48.28	-85.2	-88.6	2.9	1.56e+00	0	47	104	0	60	1048575
2026-01-17 09:18:38.86	292.62	48.09	-85.2	-88.6	3.1	1.56e+00	0	47	104	0	60	1048574
2026-01-17 09:18:39.87	293.11	47.90	-85.2	-88.6	3.0	1.56e+00	0	47	104	0	60	1048574
2026-01-17 09:18:40.88	293.59	47.71	-85.2	-88.6	2.9	1.55e+00	0	47	104	0	60	1048575
2026-01-17 09:18:41.88	294.07	47.52	-85.2	-88.6	3.0	1.56e+00	0	47	104	0	60	1048575
2026-01-17 09:18:42.89	294.54	47.33	-85.2	-88.6	3.1	1.56e+00	0	47	104	0	60	1048574
2026-01-17 09:18:43.90	295.01	47.14	-85.2	-88.6	3.0	1.56e+00	0	47	104	0	60	1048574
2026-01-17 09:18:44.90	295.47	46.95	-85.2	-88.6	3.2	1.56e+00	0	47	104	0	60	1048572
2026-01-17 09:18:45.91	295.92	46.75	-85.2	-88.6	2.9	1.56e+00	0	47	104	0	60	1048573
2026-01-17 09:18:46.91	296.37	46.56	-85.2	-88.6	2.9	1.56e+00	0	47	104	0	60	1048575
2026-01-17 09:18:47.92	296.81	46.36	-85.2	-88.6	2.9	1.55e+00	0	47	104	0	60	1048573
2026-01-17 09:18:48.92	297.25	46.16	-85.2	-88.6	3.1	1.55e+00	0	47	104	0	60	1048575
2026-01-17 09:18:49.93	297.68	45.96	-85.2	-88.6	2.9	1.55e+00	0	47	104	0	60	1048575
2026-01-17 09:18:50.94	298.11	45.76	-85.2	-88.6	3.0	1.56e+00	0	47	104	0	60	1048574
2026-01-17 09:18:51.94	298.53	45.56	-84.7	-88.6	3.2	1.56e+00	0	47	104	0	60	1048575
2026-01-17 09:18:52.95	298.95	45.36	-85.2	-88.6	3.1	1.55e+00	0	47	104	0	60	1048574
2026-01-17 09:18:53.95	299.36	45.16	-85.2	-88.6	3.0	1.55e+00	0	47	104	0	60	1048575
2026-01-17 09:18:54.96	299.77	44.96	-85.2	-88.6	3.3	1.56e+00	0	47	104	0	60	1048575
2026-01-17 09:18:55.97	300.17	44.76	-85.2	-88.6	3.0	1.56e+00	0	47	104	0	60	1048573
2026-01-17 09:18:56.97	300.56	44.56	-85.2	-88.6	3.1	1.56e+00	0	47	104	0	60	1048575
2026-01-17 09:18:57.98	300.96	44.35	-85.2	-88.6	3.0	1.56e+00	0	47	104	0	60	1048574
2026-01-17 09:18:58.99	301.34	44.15	-85.2	-88.6	3.2	1.56e+00	0	47	104	0	60	1048574
2026-01-17 09:18:59.99	301.72	43.95	-85.2	-88.6	3.0	1.56e+00	0	47	104	0	60	1048571
2026-01-17 09:19:00.99	302.10	43.74	-85.2	-88.6	3.1	1.56e+00	0	47	104	0	60	1048574
2026-01-17 09:19:02.00	302.47	43.54	-85.2	-88.6	2.6	1.56e+00	0	47	104	0	60	1048573
2026-01-17 09:19:03.01	302.84	43.33	-85.2	-88.6	3.0	1.55e+00	0	47	104	0	60	1048573
2026-01-17 09:19:04.01	303.20	43.13	-85.2	-88.6	2.9	1.55e+00	0	47	104	0	60	1048575
2026-01-17 09:19:05.02	303.56	42.92	-85.2	-88.6	3.1	1.56e+00	0	47	104	0	60	1048574
2026-01-17 09:19:06.02	303.91	42.72	-85.2	-88.6	3.0	1.56e+00	0	47	104	0	60	1048575
2026-01-17 09:19:07.02	304.26	42.52	-85.2	-88.6	3.2	1.56e+00	0	47	104	0	60	1048574
2026-01-17 09:19:08.02	304.60	42.31	-85.2	-88.6	2.8	1.55e+00	0	47	104	0	60	1048573
2026-01-17 09:19:09.03	304.94	42.11	-85.2	-88.6	3.0	1.56e+00	0	47	104	0	60	1048574
2026-01-17 09:19:10.04	305.28	41.90	-85.2	-88.6	3.0	1.56e+00	0	47	104	0	60	1048573
2026-01-17 09:19:11.04	305.61	41.70	-85.2	-88.6	2.9	1.55e+00	0	47	104	0	60	1048575
2026-01-17 09:19:12.05	305.94	41.49	-85.2	-88.6	3.1	1.55e+00	0	47	104	0	60	1048573
2026-01-17 09:19:13.06	306.26	41.29	-85.2	-88.6	3.0	1.56e+00	0	47	104	0	60	1048570
2026-01-17 09:19:14.07	306.59	41.08	-85.2	-88.6	2.8	1.56e+00	0	47	104	0	60	1048574
2026-01-17 09:19:15.07	306.90	40.88	-85.2	-88.6	3.1	1.56e+00	0	47	104	0	60	1048575
2026-01-17 09:19:16.08	307.21	40.67	-85.2	-88.6	2.8	1.55e+00	0	47	104	0	60	1048575
2026-01-17 09:19:17.09	307.52	40.47	-85.2	-88.6	3.2	1.56e+00	0	47	104	0	60	1048574
2026-01-17 09:19:18.09	307.83	40.27	-85.2	-88.6	3.0	1.56e+00	0	47	104	0	60	1048575
2026-01-17 09:19:19.10	308.13	40.06	-85.2	-88.6	3.0	1.56e+00	0	47	104	0	60	1048572
2026-01-17 09:19:20.11	308.43	39.86	-85.2	-88.6	3.1	1.56e+00	0	47	104	0	60	1048575
2026-01-17 09:19:21.11	308.72	39.66	-85.2	-88.6	3.0	1.55e+00	0	47	104	0	60	1048571
2026-01-17 09:19:22.12	309.01	39.46	-85.2	-88.6	2.8	1.56e+00	0	47	104	0	60	1048575
2026-01-17 09:19:23.12	309.29	39.26	-85.2	-88.6	2.8	1.56e+00	0	47	104	0	60	1048573
2026-01-17 09:19:24.13	309.58	39.06	-85.2	-88.6	3.0	1.56e+00	0	47	104	0	60	1048574
2026-01-17 09:19:25.14	309.86	38.85	-85.2	-88.6	3.1	1.55e+00	0	47	104	0	60	1048574
2026-01-17 09:19:26.15	310.13	38.65	-85.2	-88.6	3.1	1.56e+00	0	47	104	0	60	1048572
2026-01-17 09:19:27.15	310.41	38.45	-85.2	-88.6	2.8	1.56e+00	0	47	104	0	60	1048575
2026-01-17 09:19:28.16	310.68	38.25	-85.2	-88.6	3.0	1.55e+00	0	47	104	0	60	1048573
2026-01-17 09:19:29.17	310.94	38.05	-85.2	-88.6	3.1	1.55e+00	0	47	104	0	60	1048573
2026-01-17 09:19:30.18	311.21	37.86	-85.2	-88.6	3.0	1.56e+00	0	47	104	0	60	1048574
2026-01-17 09:19:31.19	311.47	37.66	-85.2	-88.6	2.9	1.56e+00	0	47	104	0	60	1048575
2026-01-17 09:19:32.19	311.72	37.46	-85.2	-88.6	2.9	1.55e+00	0	47	104	0	60	1048574
2026-01-17 09:19:33.20	311.98	37.26	-85.2	-88.6	2.8	1.56e+00	0	47	104	0	60	1048575
2026-01-17 09:19:34.20	312.23	37.07	-85.2	-88.6	3.0	1.56e+00	0	47	104	0	60	1048572
2026-01-17 09:19:35.21	312.48	36.87	-85.2	-88.6	2.9	1.56e+00	0	47	104	0	60	1048575
2026-01-17 09:19:36.22	312.72	36.68	-85.2	-88.6	2.9	1.56e+00	0	47	104	0	60	1048575
2026-01-17 09:19:37.23	312.97	36.48	-85.2	-88.6	2.9	1.56e+00	0	47	104	0	60	1048575
2026-01-17 09:19:38.23	313.20	36.29	-85.2	-88.6	2.9	1.56e+00	0	47	104	0	60	1048574
2026-01-17 09:19:39.23	313.44	36.10	-85.2	-88.6	2.9	1.55e+00	0	47	104	0	60	1048573
2026-01-17 09:19:40.24	313.67	35.90	-85.2	-88.6	2.9	1.56e+00	0	47	104	0	60	1048575
2026-01-17 09:19:41.25	313.91	35.71	-85.2	-88.6	3.1	1.56e+00	0	47	104	0	60	1048575
2026-01-17 09:19:42.26	314.13	35.52	-85.2	-88.6	2.9	1.56e+00	0	47	104	0	60	1048574
2026-01-17 09:19:43.26	314.36	35.33	-85.2	-88.6	3.1	1.56e+00	0	47	104	0	60	1048574
2026-01-17 09:19:44.27	314.58	35.14	-85.2	-88.6	3.2	1.56e+00	0	47	104	0	60	1048572
2026-01-17 09:19:45.28	314.81	34.95	-85.2	-88.6	3.0	1.56e+00	0	47	104	0	60	1048574
2026-01-17 09:19:46.28	315.02	34.76	-85.2	-88.6	2.9	1.56e+00	0	47	104	0	60	1048575
2026-01-17 09:19:47.29	315.24	34.57	-85.2	-88.6	3.1	1.56e+00	0	47	104	0	60	1048575
2026-01-17 09:19:48.30	315.45	34.39	-85.2	-88.6	2.9	1.56e+00	0	47	104	0	60	1048575
2026-01-17 09:19:49.30	315.66	34.20	-85.2	-88.6	3.0	1.56e+00	0	47	104	0	60	1048574
2026-01-17 09:19:50.31	315.87	34.01	-85.2	-88.6	3.0	1.56e+00	0	47	104	0	60	1048573
2026-01-17 09:19:51.31	316.08	33.83	-85.2	-88.6	3.0	1.55e+00	0	47	104	0	60	1048572
2026-01-17 09:19:52.32	316.28	33.65	-85.2	-88.6	3.2	1.56e+00	0	47	104	0	60	1048572
2026-01-17 09:19:53.33	316.49	33.46	-85.2	-88.6	2.8	1.56e+00	0	47	104	0	60	1048573
2026-01-17 09:19:54.33	316.68	33.28	-85.2	-88.6	3.2	1.56e+00	0	47	104	0	60	1048575
2026-01-17 09:19:55.34	316.88	33.10	-85.2	-88.6	3.0	1.56e+00	0	47	104	0	60	1048574
2026-01-17 09:19:56.35	317.08	32.91	-85.2	-88.6	3.0	1.56e+00	0	47	104	0	60	1048575
2026-01-17 09:19:57.35	317.27	32.73	-85.2	-88.6	2.7	1.56e+00	0	47	104	0	60	1048575
2026-01-17 09:19:58.36	317.46	32.55	-85.2	-88.6	2.9	1.56e+00	0	47	104	0	60	1048575
2026-01-17 09:19:59.37	317.65	32.37	-85.2	-88.6	3.0	1.56e+00	0	47	104	0	60	1048574
2026-01-17 09:20:00.37	317.84	32.20	-85.2	-88.6	3.0	1.56e+00	0	47	104	0	60	1048575
2026-01-17 09:20:01.38	318.02	32.02	-85.2	-88.6	2.8	1.55e+00	0	47	104	0	60	1048575
2026-01-17 09:20:02.38	318.21	31.84	-85.2	-88.6	3.1	1.56e+00	0	47	104	0	60	1048575
2026-01-17 09:20:03.39	318.39	31.67	-85.2	-88.6	3.1	1.56e+00	0	47	104	0	60	1048575
2026-01-17 09:20:04.40	318.57	31.49	-85.2	-88.6	3.1	1.56e+00	0	47	104	0	60	1048574
2026-01-17 09:20:05.40	318.74	31.32	-85.2	-88.6	2.9	1.56e+00	0	47	104	0	60	1048575
2026-01-17 09:20:06.41	318.92	31.14	-85.2	-88.6	3.0	1.56e+00	0	47	104	0	60	1048575
2026-01-17 09:20:07.42	319.09	30.97	-85.2	-88.6	3.1	1.56e+00	0	47	104	0	60	1048574
2026-01-17 09:20:08.42	319.27	30.80	-85.2	-88.6	3.2	1.55e+00	0	47	104	0	60	1048575
2026-01-17 09:20:09.42	319.43	30.63	-85.2	-88.6	3.0	1.56e+00	0	47	104	0	60	1048572
2026-01-17 09:20:10.43	319.60	30.46	-85.2	-88.6	2.7	1.56e+00	0	47	104	0	60	1048574
2026-01-17 09:20:11.44	319.77	30.28	-85.2	-88.6	3.0	1.55e+00	0	47	104	0	60	1048575
2026-01-17 09:20:12.44	319.94	30.12	-85.2	-88.6	2.8	1.56e+00	0	47	104	0	60	1048574
2026-01-17 09:20:13.45	320.10	29.95	-85.2	-88.6	3.0	1.56e+00	0	47	104	0	60	1048575
2026-01-17 09:20:14.46	320.26	29.78	-85.2	-88.6	2.9	1.56e+00	0	47	104	0	60	1048575
2026-01-17 09:20:15.46	320.42	29.61	-85.2	-88.6	3.0	1.55e+00	0	47	104	0	60	1048574
2026-01-17 09:20:16.47	320.58	29.45	-85.2	-88.6	3.0	1.56e+00	0	47	104	0	60	1048575
2026-01-17 09:20:17.48	320.74	29.28	-85.2	-88.6	3.0	1.56e+00	0	47	104	0	60	1048575
2026-01-17 09:20:18.49	320.89	29.11	-85.2	-88.6	2.9	1.56e+00	0	47	104	0	60	1048573
2026-01-17 09:20:19.50	321.05	28.95	-85.2	-88.6	3.0	1.56e+00	0	47	104	0	60	1048575
2026-01-17 09:20:20.50	321.20	28.79	-85.2	-88.6	2.9	1.56e+00	0	47	104	0	60	1048572
2026-01-17 09:20:21.51	321.35	28.62	-85.2	-88.6	3.3	1.56e+00	0	47	104	0	60	1048575
2026-01-17 09:20:22.51	321.50	28.46	-84.3	-88.6	3.0	1.56e+00	0	47	104	0	60	1048574
2026-01-17 09:20:23.52	321.65	28.30	-85.2	-88.6	3.2	1.55e+00	0	47	104	0	60	1048574
2026-01-17 09:20:24.53	321.79	28.14	-85.2	-88.6	3.0	1.56e+00	0	47	104	0	60	1048575
2026-01-17 09:20:25.54	321.94	27.98	-85.2	-88.6	3.1	1.56e+00	0	47	104	0	60	1048575
2026-01-17 09:20:26.54	322.08	27.82	-85.2	-88.6	3.1	1.56e+00	0	47	104	0	60	1048569
2026-01-17 09:20:27.55	322.23	27.66	-85.2	-88.6	3.0	1.55e+00	0	47	104	0	60	1048575
2026-01-17 09:20:28.55	322.37	27.51	-85.2	-88.6	2.8	1.56e+00	0	47	104	0	60	1048574
2026-01-17 09:20:29.56	322.51	27.35	-83.9	-88.6	3.0	1.56e+00	0	47	104	0	60	1048573
2026-01-17 09:20:30.56	322.64	27.19	-85.2	-88.6	3.1	1.56e+00	0	47	104	0	60	1048573
2026-01-17 09:20:31.57	322.78	27.04	-85.2	-88.6	3.0	1.55e+00	0	47	104	0	60	1048575
2026-01-17 09:20:32.58	322.92	26.88	-85.2	-88.6	3.2	1.56e+00	0	47	104	0	60	1048575
2026-01-17 09:20:33.59	323.05	26.73	-85.2	-88.6	3.0	1.56e+00	0	47	104	0	60	1048571
2026-01-17 09:20:34.59	323.18	26.58	-85.2	-88.6	2.9	1.56e+00	0	47	104	0	60	1048575
2026-01-17 09:20:35.60	323.32	26.42	-85.2	-88.6	3.0	1.55e+00	0	47	104	0	60	1048574
2026-01-17 09:20:36.61	323.45	26.27	-85.2	-88.6	3.1	1.55e+00	0	47	104	0	60	1048572
2026-01-17 09:20:37.62	323.58	26.12	-85.2	-88.6	2.9	1.56e+00	0	47	104	0	60	1048575
2026-01-17 09:20:38.62	323.71	25.97	-85.2	-88.6	3.0	1.55e+00	0	47	104	0	60	1048575
2026-01-17 09:20:39.63	323.83	25.82	-85.2	-88.6	3.0	1.56e+00	0	47	104	0	60	1048575
2026-01-17 09:20:40.63	323.96	25.67	-85.2	-88.6	3.1	1.56e+00	0	47	104	0	60	1048575
2026-01-17 09:20:41.64	324.08	25.52	-85.2	-88.6	3.0	1.56e+00	0	47	104	0	60	1048573
2026-01-17 09:20:42.65	324.21	25.38	-85.2	-88.6	3.2	1.56e+00	0	47	104	0	60	1048574
2026-01-17 09:20:43.65	324.33	25.23	-85.2	-88.6	3.0	1.56e+00	0	47	104	0	60	1048574
2026-01-17 09:20:44.66	324.45	25.08	-85.2	-88.6	3.0	1.56e+00	0	47	104	0	60	1048573
2026-01-17 09:20:45.66	324.57	24.94	-85.2	-88.6	3.1	1.56e+00	0	47	104	0	60	1048573
2026-01-17 09:20:46.67	324.69	24.79	-85.2	-88.6	2.9	1.55e+00	0	47	104	0	60	1048575
2026-01-17 09:20:47.68	324.81	24.65	-85.2	-88.6	3.1	1.55e+00	0	47	104	0	60	1048575
2026-01-17 09:20:48.68	324.93	24.51	-85.2	-88.6	3.0	1.55e+00	0	47	104	0	60	1048574
2026-01-17 09:20:49.69	325.04	24.36	-85.2	-88.6	3.1	1.55e+00	0	47	104	0	60	1048573
2026-01-17 09:20:50.69	325.16	24.22	-85.2	-88.6	3.2	1.56e+00	0	47	104	0	60	1048573
2026-01-17 09:20:51.70	325.27	24.08	-85.2	-88.6	3.0	1.56e+00	0	47	104	0	60	1048575
2026-01-17 09:20:52.71	325.39	23.94	-85.2	-88.6	3.0	1.56e+00	0	47	104	0	60	1048574
2026-01-17 09:20:53.72	325.50	23.80	-85.2	-88.6	3.2	1.56e+00	0	47	104	0	60	1048575
2026-01-17 09:20:54.73	325.61	23.66	-85.2	-88.6	2.8	1.56e+00	0	47	104	0	60	1048575
2026-01-17 09:20:55.73	325.72	23.52	-85.2	-88.6	2.9	1.56e+00	0	47	104	0	60	1048575
2026-01-17 09:20:56.74	325.83	23.38	-85.2	-88.6	3.0	1.56e+00	0	47	104	0	60	1048574
2026-01-17 09:20:57.75	325.94	23.24	-85.2	-88.6	2.9	1.55e+00	0	47	104	0	60	1048574
2026-01-17 09:20:58.75	326.05	23.11	-85.2	-88.6	3.2	1.56e+00	0	47	104	0	60	1048574
2026-01-17 09:20:59.76	326.16	22.97	-85.2	-88.6	2.8	1.56e+00	0	47	104	0	60	1048572
2026-01-17 09:21:00.77	326.26	22.83	-85.2	-88.6	2.9	1.56e+00	0	47	104	0	60	1048575
2026-01-17 09:21:01.78	326.37	22.70	-85.2	-88.6	3.1	1.56e+00	0	47	104	0	60	1048575
2026-01-17 09:21:02.79	326.47	22.56	-85.2	-88.6	3.0	1.56e+00	0	47	104	0	60	1048575
2026-01-17 09:21:03.79	326.58	22.43	-85.2	-88.6	2.9	1.56e+00	0	47	104	0	60	1048573
2026-01-17 09:21:04.80	326.68	22.30	-85.2	-88.6	3.2	1.56e+00	0	47	104	0	60	1048573
2026-01-17 09:21:05.81	326.78	22.16	-85.2	-88.6	3.1	1.56e+00	0	47	104	0	60	1048575
2026-01-17 09:21:06.82	326.88	22.03	-85.2	-88.6	2.9	1.55e+00	0	47	104	0	60	1048575
2026-01-17 09:21:07.82	326.98	21.90	-85.2	-88.6	3.1	1.56e+00	0	47	104	0	60	1048575
2026-01-17 09:21:08.82	327.08	21.77	-85.2	-88.6	3.0	1.56e+00	0	47	104	0	60	1048575
2026-01-17 09:21:09.83	327.18	21.64	-85.2	-88.6	3.0	1.55e+00	0	47	104	0	60	1048575
2026-01-17 09:21:10.84	327.28	21.51	-85.2	-88.6	3.0	1.56e+00	0	47	104	0	60	1048575
2026-01-17 09:21:11.85	327.37	21.38	-85.2	-88.6	3.1	1.56e+00	0	47	104	0	60	1048572
2026-01-17 09:21:12.85	327.47	21.25	-85.2	-88.6	3.0	1.56e+00	0	47	104	0	60	1048574
2026-01-17 09:21:13.86	327.57	21.13	-85.2	-88.6	2.9	1.56e+00	0	47	104	0	60	1048572
2026-01-17 09:21:14.87	327.66	21.00	-85.2	-88.6	2.8	1.55e+00	0	47	104	0	60	1048573
2026-01-17 09:21:15.87	327.75	20.87	-85.2	-88.6	3.1	1.55e+00	0	47	104	0	60	1048575
2026-01-17 09:21:16.87	327.85	20.75	-85.2	-88.6	2.8	1.56e+00	0	47	104	0	60	1048575
2026-01-17 09:21:17.88	327.94	20.62	-85.2	-88.6	3.1	1.56e+00	0	47	104	0	60	1048574
2026-01-17 09:21:18.89	328.03	20.49	-85.2	-88.6	3.0	1.56e+00	0	47	104	0	60	1048575
2026-01-17 09:21:19.89	328.12	20.37	-85.2	-88.6	3.1	1.56e+00	0	47	104	0	60	1048574
2026-01-17 09:21:20.90	328.21	20.25	-85.2	-88.6	2.9	1.56e+00	0	47	104	0	60	1048575
2026-01-17 09:21:21.91	328.30	20.12	-85.2	-88.6	3.1	1.56e+00	0	47	104	0	60	1048574
2026-01-17 09:21:22.91	328.39	20.00	-85.2	-88.6	3.0	1.56e+00	0	47	104	0	60	1048575
2026-01-17 09:21:23.92	328.48	19.88	-85.2	-88.6	3.2	1.56e+00	0	47	104	0	60	1048572
2026-01-17 09:21:24.93	328.57	19.76	-85.2	-88.6	2.9	1.55e+00	0	47	104	0	60	1048575
2026-01-17 09:21:25.93	328.65	19.64	-85.2	-88.6	2.9	1.55e+00	0	47	104	0	60	1048574
2026-01-17 09:21:26.94	328.74	19.51	-85.2	-88.6	2.9	1.56e+00	0	47	104	0	60	1048575
2026-01-17 09:21:27.95	328.83	19.39	-85.2	-88.6	3.0	1.56e+00	0	47	104	0	60	1048570
2026-01-17 09:21:28.95	328.91	19.27	-85.2	-88.6	2.8	1.55e+00	0	47	104	0	60	1048574
2026-01-17 09:21:29.96	329.00	19.15	-85.2	-88.6	3.1	1.56e+00	0	47	104	0	60	1048575
2026-01-17 09:21:30.96	329.08	19.04	-85.2	-88.6	2.9	1.56e+00	0	47	104	0	60	1048575
2026-01-17 09:21:31.97	329.16	18.92	-85.2	-88.6	3.2	1.56e+00	0	47	104	0	60	1048575
2026-01-17 09:21:32.97	329.24	18.80	-85.2	-88.6	2.9	1.56e+00	0	47	104	0	60	1048574
2026-01-17 09:21:33.98	329.33	18.68	-85.2	-88.6	2.9	1.55e+00	0	47	104	0	60	1048575
2026-01-17 09:21:34.99	329.41	18.57	-85.2	-88.6	3.0	1.56e+00	0	47	104	0	60	1048575
2026-01-17 09:21:35.99	329.49	18.45	-85.2	-88.6	2.8	1.56e+00	0	47	104	0	60	1048575
2026-01-17 09:21:37.00	329.57	18.34	-85.2	-88.6	2.9	1.56e+00	0	47	104	0	60	1048573
2026-01-17 09:21:38.01	329.65	18.22	-85.2	-88.6	2.9	1.56e+00	0	47	104	0	60	1048575
2026-01-17 09:21:39.02	329.73	18.11	-85.2	-88.6	3.1	1.56e+00	0	47	104	0	60	1048574
2026-01-17 09:21:40.03	329.81	17.99	-85.2	-88.6	3.1	1.56e+00	0	47	104	0	60	1048574
2026-01-17 09:21:41.03	329.89	17.88	-85.2	-88.6	2.9	1.55e+00	0	47	104	0	60	1048575
2026-01-17 09:21:42.04	329.96	17.76	-85.2	-88.6	2.9	1.56e+00	0	47	104	0	60	1048575
2026-01-17 09:21:43.05	330.04	17.65	-85.2	-88.6	3.2	1.55e+00	0	47	104	0	60	1048575
2026-01-17 09:21:44.06	330.12	17.54	-85.2	-88.6	2.9	1.56e+00	0	47	104	0	60	1048575
2026-01-17 09:21:45.07	330.19	17.43	-85.2	-88.6	2.8	1.56e+00	0	47	104	0	60	1048575
2026-01-17 09:21:46.08	330.27	17.31	-85.2	-88.6	3.0	1.56e+00	0	47	104	0	60	1048573
2026-01-17 09:21:47.08	330.34	17.20	-85.2	-88.6	3.0	1.55e+00	0	47	104	0	60	1048575
2026-01-17 09:21:48.09	330.42	17.09	-85.2	-88.6	3.0	1.56e+00	0	47	104	0	60	1048574
2026-01-17 09:21:49.09	330.49	16.98	-85.2	-88.6	2.8	1.56e+00	0	47	104	0	60	1048574
2026-01-17 09:21:50.09	330.56	16.88	-84.7	-88.6	3.1	1.56e+00	0	47	104	0	60	1048575
2026-01-17 09:21:51.09	330.64	16.77	-85.2	-88.6	3.2	1.56e+00	0	47	104	0	60	1048575
2026-01-17 09:21:52.10	330.71	16.66	-85.2	-88.6	2.9	1.56e+00	0	47	104	0	60	1048574
2026-01-17 09:21:53.11	330.78	16.55	-85.2	-88.6	3.0	1.55e+00	0	47	104	0	60	1048575
2026-01-17 09:21:54.11	330.85	16.44	-84.3	-88.6	3.0	1.56e+00	0	47	104	0	60	1048575
2026-01-17 09:21:55.12	330.92	16.34	-85.2	-88.6	3.1	1.56e+00	0	47	104	0	60	1048574
2026-01-17 09:21:56.12	330.99	16.23	-85.2	-88.6	2.9	1.56e+00	0	47	104	0	60	1048574
2026-01-17 09:21:57.13	331.06	16.12	-85.2	-88.6	3.2	1.55e+00	0	47	104	0	60	1048575
2026-01-17 09:21:58.14	331.13	16.02	-85.2	-88.6	3.2	1.55e+00	0	47	104	0	60	1048575
2026-01-17 09:21:59.14	331.20	15.91	-85.2	-88.6	3.0	1.56e+00	0	47	104	0	60	1048574
2026-01-17 09:22:00.15	331.27	15.81	-85.2	-88.6	3.0	1.56e+00	0	47	104	0	60	1048575
2026-01-17 09:22:01.15	331.34	15.70	-85.2	-88.6	2.9	1.56e+00	0	47	104	0	60	1048574
2026-01-17 09:22:02.16	331.41	15.60	-85.2	-88.6	3.1	1.56e+00	0	47	104	0	60	1048575
2026-01-17 09:22:03.17	331.47	15.49	-85.2	-88.6	3.0	1.55e+00	0	47	104	0	60	1048573
2026-01-17 09:22:04.18	331.54	15.39	-85.2	-88.6	3.0	1.56e+00	0	47	104	0	60	1048574
2026-01-17 09:22:05.19	331.61	15.29	-84.7	-88.6	2.9	1.56e+00	0	47	104	0	60	1048575
2026-01-17 09:22:06.19	331.67	15.18	-85.2	-88.6	2.9	1.56e+00	0	47	104	0	60	1048575
