passes_logs/2026/01/17/R3.2S-Naryan-Mar/R3.2S-Naryan-Mar__20260117_174820_TY-42_rec.log

#Pass ID: 20260117_174820_TY-42
#Satellite: TY-42
#Configuration: TY-42
#almurnet v.1.7.20240730
#Start time: 2026-01-17 17:48:21

#Version: 2.2.20231116
#Station: R3.2S-Naryan-Mar
#Location: 53.008057 lon 67.646978 lat
#TLE: 1 64048U 25103A   26017.21478009  .00008006  00000-0  38191-3 0 09999
#TLE: 2 64048 097.4122 092.5907 0001889 091.4381 313.8037 15.19150120 37159

#Time	Az	El	Level	Level2	SNR	BER	BlckErr	Temp	State	Recorded	gain1	gain2
2026-01-17 17:48:21.06	164.76	0.06	-83.1	-79.0	2.3	0.00e+00	0	45	0	0	60	1048573
2026-01-17 17:48:22.06	164.77	0.13	-83.5	-79.0	2.4	0.00e+00	0	47	104	0	60	1048575
2026-01-17 17:48:23.07	164.79	0.19	-83.5	-79.0	2.3	0.00e+00	0	47	104	0	60	1048575
2026-01-17 17:48:24.08	164.80	0.26	-83.1	-79.0	2.5	0.00e+00	0	47	104	0	60	1048556
2026-01-17 17:48:25.08	164.82	0.32	-83.1	-79.0	2.3	0.00e+00	0	47	104	0	60	1048567
2026-01-17 17:48:26.09	164.83	0.39	-83.5	-79.0	2.4	0.00e+00	0	47	104	0	60	1048572
2026-01-17 17:48:27.09	164.85	0.45	-83.5	-79.0	2.4	0.00e+00	0	47	104	0	60	1048573
2026-01-17 17:48:28.10	164.86	0.52	-83.5	-79.0	2.4	0.00e+00	0	47	104	0	60	1048575
2026-01-17 17:48:29.11	164.88	0.58	-82.8	-79.0	2.3	0.00e+00	0	47	104	0	60	1048573
2026-01-17 17:48:30.11	164.89	0.65	-83.1	-79.0	2.3	0.00e+00	0	47	104	0	60	1048569
2026-01-17 17:48:31.12	164.91	0.71	-83.1	-79.0	2.4	0.00e+00	0	47	104	0	60	1048575
2026-01-17 17:48:32.13	164.92	0.78	-83.5	-79.0	2.5	0.00e+00	0	47	104	0	60	1048572
2026-01-17 17:48:33.14	164.94	0.85	-83.1	-79.0	2.4	0.00e+00	0	47	104	0	60	1048573
2026-01-17 17:48:34.15	164.96	0.92	-83.1	-79.0	2.4	0.00e+00	0	47	104	0	60	1048574
2026-01-17 17:48:35.15	164.97	0.98	-83.5	-79.0	2.4	0.00e+00	0	47	104	0	60	1048569
2026-01-17 17:48:36.16	164.99	1.05	-83.5	-79.0	2.4	0.00e+00	0	47	104	0	60	1048572
2026-01-17 17:48:37.17	165.00	1.12	-83.5	-79.0	2.4	0.00e+00	0	47	104	0	60	1048575
2026-01-17 17:48:38.18	165.02	1.18	-83.5	-79.0	2.5	0.00e+00	0	47	104	0	60	1048572
2026-01-17 17:48:39.18	165.03	1.25	-83.1	-79.0	2.4	0.00e+00	0	47	104	0	60	1048575
2026-01-17 17:48:40.19	165.05	1.32	-83.5	-79.0	2.5	0.00e+00	0	47	104	0	60	1048571
2026-01-17 17:48:41.20	165.07	1.39	-83.5	-79.0	2.3	0.00e+00	0	47	104	0	60	1048571
2026-01-17 17:48:42.21	165.08	1.46	-83.5	-79.0	2.5	0.00e+00	0	47	104	0	60	1048574
2026-01-17 17:48:43.21	165.10	1.53	-83.1	-79.0	2.3	0.00e+00	0	47	104	0	60	1048575
2026-01-17 17:48:44.22	165.11	1.59	-83.1	-79.0	2.4	0.00e+00	0	47	104	0	60	1048568
2026-01-17 17:48:45.23	165.13	1.66	-83.5	-79.0	2.4	0.00e+00	0	47	104	0	60	1048573
2026-01-17 17:48:46.24	165.15	1.73	-83.5	-79.0	2.3	0.00e+00	0	47	104	0	60	1048574
2026-01-17 17:48:47.24	165.16	1.80	-83.5	-79.0	2.3	0.00e+00	0	47	104	0	60	1048572
2026-01-17 17:48:48.25	165.18	1.87	-82.8	-79.0	2.4	0.00e+00	0	47	104	0	60	1048563
2026-01-17 17:48:49.26	165.20	1.94	-83.1	-79.0	2.4	0.00e+00	0	47	104	0	60	1048575
2026-01-17 17:48:50.27	165.21	2.01	-83.5	-79.0	2.4	0.00e+00	0	47	104	0	60	1048574
2026-01-17 17:48:51.28	165.23	2.08	-83.5	-79.0	2.5	0.00e+00	0	48	104	0	60	1048574
2026-01-17 17:48:52.28	165.25	2.15	-83.5	-79.0	2.4	0.00e+00	0	47	104	0	60	1048571
2026-01-17 17:48:53.29	165.26	2.22	-82.8	-79.0	2.2	0.00e+00	0	47	104	0	60	1048574
2026-01-17 17:48:54.30	165.28	2.30	-83.5	-79.0	2.3	0.00e+00	0	48	104	0	60	1048575
2026-01-17 17:48:55.31	165.30	2.37	-83.5	-79.0	2.4	0.00e+00	0	48	104	0	60	1048575
2026-01-17 17:48:56.32	165.32	2.44	-83.5	-79.0	2.4	0.00e+00	0	48	104	0	60	1048573
2026-01-17 17:48:57.32	165.33	2.51	-83.5	-79.0	2.3	0.00e+00	0	48	104	0	60	1048575
2026-01-17 17:48:58.33	165.35	2.58	-83.1	-79.0	2.4	0.00e+00	0	48	104	0	60	1048573
2026-01-17 17:48:59.33	165.37	2.65	-83.5	-79.0	2.4	0.00e+00	0	48	104	0	60	1048575
2026-01-17 17:49:00.34	165.39	2.73	-83.1	-79.0	2.4	0.00e+00	0	48	104	0	60	1048573
2026-01-17 17:49:01.34	165.40	2.80	-83.5	-79.0	2.4	0.00e+00	0	48	104	0	60	1048574
2026-01-17 17:49:02.35	165.42	2.87	-83.1	-79.0	2.4	0.00e+00	0	48	104	0	60	1048573
2026-01-17 17:49:03.35	165.44	2.95	-83.5	-79.0	2.3	0.00e+00	0	48	104	0	60	1048575
2026-01-17 17:49:04.35	165.46	3.02	-83.5	-79.0	2.3	0.00e+00	0	48	104	0	60	1048575
2026-01-17 17:49:05.36	165.47	3.09	-83.5	-79.0	2.3	0.00e+00	0	48	104	0	60	1048570
2026-01-17 17:49:06.36	165.49	3.17	-83.5	-79.0	2.4	0.00e+00	0	48	104	0	60	1048575
2026-01-17 17:49:07.37	165.51	3.24	-83.1	-79.0	2.5	0.00e+00	0	48	104	0	60	1048575
2026-01-17 17:49:08.37	165.53	3.31	-83.1	-79.0	2.4	0.00e+00	0	48	104	0	60	1048575
2026-01-17 17:49:09.38	165.55	3.39	-83.5	-79.0	2.4	0.00e+00	0	48	104	0	60	1048574
2026-01-17 17:49:10.39	165.57	3.46	-83.5	-79.0	2.4	0.00e+00	0	48	104	0	60	1048573
2026-01-17 17:49:11.39	165.58	3.54	-83.5	-79.0	2.3	0.00e+00	0	48	104	0	60	1048575
2026-01-17 17:49:12.40	165.60	3.62	-83.1	-79.0	2.3	0.00e+00	0	48	104	0	60	1048574
2026-01-17 17:49:13.41	165.62	3.69	-83.5	-79.0	2.4	0.00e+00	0	48	104	0	60	1048575
2026-01-17 17:49:14.42	165.64	3.77	-83.5	-79.0	2.5	0.00e+00	0	48	104	0	60	1048575
2026-01-17 17:49:15.42	165.66	3.84	-83.5	-79.0	2.4	0.00e+00	0	48	104	0	60	1048573
2026-01-17 17:49:16.43	165.68	3.92	-83.1	-79.0	2.5	0.00e+00	0	48	104	0	60	1048571
2026-01-17 17:49:17.44	165.70	4.00	-83.5	-79.0	2.4	0.00e+00	0	48	104	0	60	1048575
2026-01-17 17:49:18.44	165.72	4.07	-83.1	-79.0	2.5	0.00e+00	0	48	104	0	60	1048575
2026-01-17 17:49:19.44	165.74	4.15	-83.5	-79.0	2.4	0.00e+00	0	48	104	0	60	1048575
2026-01-17 17:49:20.45	165.76	4.23	-83.5	-79.0	2.3	0.00e+00	0	48	104	0	60	1048573
2026-01-17 17:49:21.45	165.77	4.31	-83.1	-79.0	2.4	0.00e+00	0	48	104	0	60	1048573
2026-01-17 17:49:22.46	165.79	4.39	-83.5	-79.0	2.3	0.00e+00	0	48	104	0	60	1048569
2026-01-17 17:49:23.47	165.81	4.47	-83.5	-79.0	2.5	0.00e+00	0	48	104	0	60	1048575
2026-01-17 17:49:24.47	165.83	4.54	-83.5	-79.0	2.4	0.00e+00	0	48	104	0	60	1048574
2026-01-17 17:49:25.48	165.85	4.62	-83.5	-79.0	2.5	0.00e+00	0	48	104	0	60	1048573
2026-01-17 17:49:26.49	165.87	4.70	-83.1	-79.0	2.4	0.00e+00	0	48	104	0	60	1048574
2026-01-17 17:49:27.50	165.89	4.78	-83.5	-79.0	2.4	0.00e+00	0	48	104	0	60	1048570
2026-01-17 17:49:28.50	165.92	4.86	-83.5	-79.0	2.4	0.00e+00	0	48	104	0	60	1048573
2026-01-17 17:49:29.51	165.94	4.94	-83.5	-79.0	2.5	0.00e+00	0	48	104	0	60	1048575
2026-01-17 17:49:30.52	165.96	5.03	-83.1	-79.0	2.5	0.00e+00	0	48	104	0	60	1048566
2026-01-17 17:49:31.52	165.98	5.11	-82.8	-79.0	2.4	0.00e+00	0	48	104	0	60	1048572
2026-01-17 17:49:32.53	166.00	5.19	-83.5	-79.0	2.5	0.00e+00	0	48	104	0	60	1048569
2026-01-17 17:49:33.54	166.02	5.27	-83.5	-79.0	2.4	0.00e+00	0	48	104	0	60	1048574
2026-01-17 17:49:34.54	166.04	5.35	-83.5	-79.0	2.4	0.00e+00	0	48	104	0	60	1048574
2026-01-17 17:49:35.55	166.06	5.44	-83.1	-79.0	2.3	0.00e+00	0	48	104	0	60	1048575
2026-01-17 17:49:36.55	166.08	5.52	-83.1	-79.0	2.4	0.00e+00	0	48	104	0	60	1048574
2026-01-17 17:49:37.55	166.10	5.60	-83.5	-79.0	2.5	0.00e+00	0	48	104	0	60	1048573
2026-01-17 17:49:38.56	166.13	5.68	-83.5	-79.0	2.3	0.00e+00	0	48	104	0	60	1048574
2026-01-17 17:49:39.57	166.15	5.77	-83.5	-79.0	2.4	0.00e+00	0	48	104	0	60	1048574
2026-01-17 17:49:40.57	166.17	5.85	-83.1	-79.0	2.4	0.00e+00	0	48	104	0	60	1048573
2026-01-17 17:49:41.58	166.19	5.94	-83.1	-79.0	2.4	0.00e+00	0	48	104	0	60	1048573
2026-01-17 17:49:42.58	166.21	6.02	-83.5	-79.0	2.4	0.00e+00	0	48	104	0	60	1048575
2026-01-17 17:49:43.59	166.24	6.11	-83.5	-79.0	2.3	0.00e+00	0	48	104	0	60	1048565
2026-01-17 17:49:44.60	166.26	6.19	-83.1	-79.0	2.4	0.00e+00	0	48	104	0	60	1048574
2026-01-17 17:49:45.61	166.28	6.28	-83.1	-79.0	2.4	0.00e+00	0	48	104	0	60	1048574
2026-01-17 17:49:46.62	166.30	6.37	-83.5	-79.0	2.4	0.00e+00	0	48	104	0	60	1048575
2026-01-17 17:49:47.63	166.33	6.46	-83.1	-79.0	2.4	0.00e+00	0	48	104	0	60	1048573
2026-01-17 17:49:48.63	166.35	6.54	-83.5	-79.0	2.4	0.00e+00	0	48	104	0	60	1048575
2026-01-17 17:49:49.64	166.37	6.63	-83.5	-79.0	2.4	0.00e+00	0	48	104	0	60	1048575
2026-01-17 17:49:50.65	166.40	6.72	-83.1	-79.0	2.4	0.00e+00	0	48	104	0	60	1048575
2026-01-17 17:49:51.66	166.42	6.81	-83.5	-79.0	2.4	0.00e+00	0	48	104	0	60	1048575
2026-01-17 17:49:52.66	166.44	6.90	-83.5	-79.0	2.4	0.00e+00	0	48	104	0	60	1048574
2026-01-17 17:49:53.66	166.47	6.98	-83.1	-79.0	2.5	0.00e+00	0	48	104	0	60	1048575
2026-01-17 17:49:54.67	166.49	7.07	-82.8	-79.0	2.5	0.00e+00	0	48	104	0	60	1048574
2026-01-17 17:49:55.68	166.51	7.17	-83.5	-79.0	2.4	0.00e+00	0	48	104	0	60	1048574
2026-01-17 17:49:56.69	166.54	7.26	-83.5	-79.0	2.4	0.00e+00	0	48	104	0	60	1048574
2026-01-17 17:49:57.69	166.56	7.35	-83.5	-79.0	2.4	0.00e+00	0	48	104	0	60	1048574
2026-01-17 17:49:58.70	166.59	7.44	-83.5	-79.0	2.4	0.00e+00	0	48	104	0	60	1048574
2026-01-17 17:49:59.71	166.61	7.53	-82.8	-79.0	2.5	0.00e+00	0	48	104	0	60	1048575
2026-01-17 17:50:00.72	166.64	7.62	-83.1	-79.0	2.4	0.00e+00	0	48	104	0	60	1048570
2026-01-17 17:50:01.73	166.66	7.72	-83.5	-79.0	2.4	0.00e+00	0	48	104	0	60	1048573
2026-01-17 17:50:02.73	166.69	7.81	-83.5	-79.0	2.5	0.00e+00	0	48	104	0	60	1048574
2026-01-17 17:50:03.74	166.71	7.90	-83.1	-79.0	2.4	0.00e+00	0	48	104	0	60	1048575
2026-01-17 17:50:04.75	166.74	8.00	-83.1	-79.0	2.4	0.00e+00	0	48	104	0	60	1048574
2026-01-17 17:50:05.76	166.76	8.09	-83.5	-79.0	2.4	0.00e+00	0	48	104	0	60	1048575
2026-01-17 17:50:06.76	166.79	8.19	-83.5	-79.0	2.4	0.00e+00	0	48	104	0	60	1048575
2026-01-17 17:50:07.77	166.82	8.28	-83.5	-79.0	2.4	0.00e+00	0	48	104	0	60	1048573
2026-01-17 17:50:08.77	166.84	8.38	-83.5	-79.0	2.3	0.00e+00	0	48	104	0	60	1048571
2026-01-17 17:50:09.78	166.87	8.48	-83.1	-79.0	2.2	0.00e+00	0	48	104	0	60	1048575
2026-01-17 17:50:10.79	166.90	8.57	-83.5	-79.0	2.4	0.00e+00	0	48	104	0	60	1048568
2026-01-17 17:50:11.79	166.92	8.67	-83.5	-79.0	2.3	0.00e+00	0	48	104	0	60	1048574
2026-01-17 17:50:12.80	166.95	8.77	-83.5	-79.0	2.4	0.00e+00	0	48	104	0	60	1048570
2026-01-17 17:50:13.81	166.98	8.87	-83.1	-79.0	2.4	0.00e+00	0	48	104	0	60	1048575
2026-01-17 17:50:14.82	167.00	8.97	-83.5	-79.0	2.4	0.00e+00	0	48	104	0	60	1048569
2026-01-17 17:50:15.82	167.03	9.07	-83.5	-79.0	2.3	0.00e+00	0	48	104	0	60	1048572
2026-01-17 17:50:16.83	167.06	9.17	-83.5	-79.0	2.4	0.00e+00	0	48	104	0	60	1048570
2026-01-17 17:50:17.84	167.09	9.27	-83.5	-79.0	2.4	0.00e+00	0	48	104	0	60	1048572
2026-01-17 17:50:18.85	167.12	9.37	-83.1	-79.0	2.4	0.00e+00	0	48	104	0	60	1048574
2026-01-17 17:50:19.85	167.14	9.47	-83.1	-79.0	2.4	0.00e+00	0	48	104	0	60	1048574
2026-01-17 17:50:20.86	167.17	9.57	-83.5	-79.0	2.5	0.00e+00	0	48	104	0	60	1048564
2026-01-17 17:50:21.86	167.20	9.67	-83.5	-79.0	2.3	0.00e+00	0	48	104	0	60	1048575
2026-01-17 17:50:22.87	167.23	9.78	-83.1	-79.0	2.4	0.00e+00	0	48	104	0	60	1048573
2026-01-17 17:50:23.88	167.26	9.88	-83.1	-79.0	2.3	0.00e+00	0	49	104	0	60	1048574
2026-01-17 17:50:24.88	167.29	9.99	-83.5	-79.0	2.4	0.00e+00	0	48	104	0	60	1048575
2026-01-17 17:50:25.89	167.32	10.09	-83.5	-79.0	2.4	0.00e+00	0	48	104	0	60	1048571
2026-01-17 17:50:26.89	167.35	10.20	-83.5	-79.0	2.4	0.00e+00	0	48	104	0	60	1048575
2026-01-17 17:50:27.90	167.38	10.30	-82.8	-79.0	2.4	0.00e+00	0	48	104	0	60	1048571
2026-01-17 17:50:28.91	167.41	10.41	-83.1	-79.0	2.4	0.00e+00	0	49	104	0	60	1048575
2026-01-17 17:50:29.91	167.44	10.52	-83.5	-79.0	2.4	0.00e+00	0	48	104	0	60	1048572
2026-01-17 17:50:30.93	167.47	10.63	-83.5	-79.0	2.4	0.00e+00	0	48	104	0	60	1048573
2026-01-17 17:50:31.93	167.50	10.74	-83.5	-79.0	2.5	0.00e+00	0	49	104	0	60	1048572
2026-01-17 17:50:32.94	167.53	10.85	-83.1	-79.0	2.4	0.00e+00	0	48	104	0	60	1048574
2026-01-17 17:50:33.95	167.57	10.96	-83.1	-79.0	2.4	0.00e+00	0	48	104	0	60	1048575
2026-01-17 17:50:34.96	167.60	11.07	-83.5	-79.0	2.4	0.00e+00	0	48	104	0	60	1048568
2026-01-17 17:50:35.97	167.63	11.18	-83.5	-79.0	2.4	0.00e+00	0	48	104	0	60	1048575
2026-01-17 17:50:36.97	167.66	11.29	-83.1	-79.0	2.3	0.00e+00	0	48	104	0	60	1048572
2026-01-17 17:50:37.98	167.70	11.40	-83.1	-79.0	2.4	0.00e+00	0	48	104	0	60	1048573
2026-01-17 17:50:38.99	167.73	11.52	-83.5	-79.0	2.4	0.00e+00	0	48	104	0	60	1048575
2026-01-17 17:50:39.99	167.76	11.63	-83.5	-79.0	2.4	0.00e+00	0	49	104	0	60	1048573
2026-01-17 17:50:41.00	167.80	11.75	-83.5	-79.0	2.3	0.00e+00	0	49	104	0	60	1048574
2026-01-17 17:50:42.00	167.83	11.86	-83.1	-79.0	2.6	0.00e+00	0	49	104	0	60	1048573
2026-01-17 17:50:43.01	167.86	11.98	-83.1	-79.0	2.3	0.00e+00	0	48	104	0	60	1048572
2026-01-17 17:50:44.01	167.90	12.09	-83.5	-79.0	2.4	0.00e+00	0	48	104	0	60	1048575
2026-01-17 17:50:45.02	167.93	12.21	-83.5	-79.0	2.4	0.00e+00	0	48	104	0	60	1048575
2026-01-17 17:50:46.03	167.97	12.33	-83.5	-79.0	2.4	0.00e+00	0	48	104	0	60	1048570
2026-01-17 17:50:47.04	168.00	12.45	-82.8	-79.0	2.4	0.00e+00	0	48	104	0	60	1048575
2026-01-17 17:50:48.04	168.04	12.57	-83.5	-79.0	2.4	0.00e+00	0	48	104	0	60	1048573
2026-01-17 17:50:49.04	168.07	12.69	-83.5	-79.0	2.5	0.00e+00	0	48	104	0	60	1048572
2026-01-17 17:50:50.05	168.11	12.81	-83.5	-79.0	2.4	0.00e+00	0	49	104	0	60	1048575
2026-01-17 17:50:51.06	168.15	12.93	-83.5	-79.0	2.3	0.00e+00	0	49	104	0	60	1048574
2026-01-17 17:50:52.07	168.18	13.06	-82.8	-79.0	2.4	0.00e+00	0	48	104	0	60	1048574
2026-01-17 17:50:53.07	168.22	13.18	-83.5	-79.0	2.3	0.00e+00	0	49	104	0	60	1048573
2026-01-17 17:50:54.08	168.26	13.30	-83.5	-79.0	2.4	0.00e+00	0	49	104	0	60	1048573
2026-01-17 17:50:55.09	168.30	13.43	-83.5	-79.0	2.4	0.00e+00	0	49	104	0	60	1048575
2026-01-17 17:50:56.09	168.34	13.56	-83.1	-79.0	2.5	0.00e+00	0	49	104	0	60	1048575
2026-01-17 17:50:57.10	168.37	13.68	-82.8	-79.0	2.5	0.00e+00	0	48	104	0	60	1048575
2026-01-17 17:50:58.10	168.41	13.81	-83.1	-79.0	2.5	0.00e+00	0	49	104	0	60	1048570
2026-01-17 17:50:59.11	168.45	13.94	-83.5	-79.0	2.5	0.00e+00	0	48	104	0	60	1048570
2026-01-17 17:51:00.11	168.49	14.07	-83.1	-79.0	2.4	0.00e+00	0	48	104	0	60	1048575
2026-01-17 17:51:01.12	168.53	14.20	-82.8	-79.0	2.5	0.00e+00	0	49	104	0	60	1048563
2026-01-17 17:51:02.13	168.57	14.33	-83.1	-79.0	2.3	0.00e+00	0	49	104	0	60	1048575
2026-01-17 17:51:03.13	168.61	14.46	-83.5	-79.0	2.4	0.00e+00	0	49	104	0	60	1048569
2026-01-17 17:51:04.14	168.65	14.60	-83.5	-79.0	2.4	0.00e+00	0	49	104	0	60	1048573
2026-01-17 17:51:05.15	168.70	14.73	-83.5	-79.0	2.4	0.00e+00	0	49	104	0	60	1048575
2026-01-17 17:51:06.16	168.74	14.87	-82.8	-79.0	2.4	0.00e+00	0	48	104	0	60	1048574
2026-01-17 17:51:07.17	168.78	15.01	-83.5	-79.0	2.4	0.00e+00	0	48	104	0	60	1048572
2026-01-17 17:51:08.17	168.82	15.14	-83.5	-79.0	2.4	0.00e+00	0	48	104	0	60	1048570
2026-01-17 17:51:09.18	168.87	15.28	-83.5	-79.0	2.4	0.00e+00	0	48	104	0	60	1048573
2026-01-17 17:51:10.19	168.91	15.42	-83.5	-79.0	2.4	0.00e+00	0	48	104	0	60	1048574
2026-01-17 17:51:11.19	168.96	15.56	-83.1	-79.0	2.3	0.00e+00	0	49	104	0	60	1048575
2026-01-17 17:51:12.20	169.00	15.70	-83.5	-79.0	2.4	0.00e+00	0	49	104	0	60	1048573
2026-01-17 17:51:13.21	169.05	15.84	-83.5	-79.0	2.4	0.00e+00	0	48	104	0	60	1048570
2026-01-17 17:51:14.21	169.09	15.99	-83.5	-79.0	2.3	0.00e+00	0	48	104	0	60	1048575
2026-01-17 17:51:15.22	169.14	16.13	-83.1	-79.0	2.4	0.00e+00	0	49	104	0	60	1048574
2026-01-17 17:51:16.23	169.18	16.28	-83.1	-79.0	2.4	0.00e+00	0	49	104	0	60	1048564
2026-01-17 17:51:17.24	169.23	16.43	-83.5	-79.0	2.3	0.00e+00	0	49	104	0	60	1048575
2026-01-17 17:51:18.25	169.28	16.57	-83.5	-79.0	2.4	0.00e+00	0	49	104	0	60	1048575
2026-01-17 17:51:19.25	169.33	16.72	-83.5	-79.0	2.5	0.00e+00	0	49	104	0	60	1048574
2026-01-17 17:51:20.26	169.38	16.87	-83.1	-79.0	2.4	0.00e+00	0	48	104	0	60	1048572
2026-01-17 17:51:21.27	169.42	17.02	-83.1	-79.0	2.4	0.00e+00	0	48	104	0	60	1048575
2026-01-17 17:51:22.28	169.47	17.18	-83.5	-79.0	2.4	0.00e+00	0	49	104	0	60	1048573
2026-01-17 17:51:23.29	169.52	17.33	-83.5	-79.0	2.5	0.00e+00	0	49	104	0	60	1048575
2026-01-17 17:51:24.30	169.58	17.49	-83.5	-79.0	2.4	0.00e+00	0	49	104	0	60	1048573
2026-01-17 17:51:25.30	169.63	17.64	-83.1	-79.0	2.4	0.00e+00	0	49	104	0	60	1048571
2026-01-17 17:51:26.31	169.68	17.80	-83.5	-79.0	2.4	0.00e+00	0	49	104	0	60	1048573
2026-01-17 17:51:27.31	169.73	17.96	-83.1	-79.0	2.4	0.00e+00	0	49	104	0	60	1048567
2026-01-17 17:51:28.32	169.78	18.12	-83.5	-79.0	2.5	0.00e+00	0	49	104	0	60	1048573
2026-01-17 17:51:29.32	169.84	18.28	-83.5	-79.0	2.4	0.00e+00	0	49	104	0	60	1048574
2026-01-17 17:51:30.33	169.89	18.44	-83.1	-79.0	2.4	0.00e+00	0	49	104	0	60	1048575
2026-01-17 17:51:31.34	169.95	18.61	-83.5	-79.0	2.4	0.00e+00	0	49	104	0	60	1048575
2026-01-17 17:51:32.35	170.00	18.77	-83.5	-79.0	2.5	0.00e+00	0	49	104	0	60	1048570
2026-01-17 17:51:33.36	170.06	18.94	-83.5	-79.0	2.5	0.00e+00	0	49	104	0	60	1048573
2026-01-17 17:51:34.36	170.12	19.11	-83.1	-79.0	2.4	0.00e+00	0	49	104	0	60	1048572
2026-01-17 17:51:35.37	170.17	19.28	-83.1	-79.0	2.4	0.00e+00	0	49	104	0	60	1048574
2026-01-17 17:51:36.38	170.23	19.45	-83.5	-79.0	2.4	0.00e+00	0	49	104	0	60	1048574
2026-01-17 17:51:37.39	170.29	19.62	-83.5	-79.0	2.5	0.00e+00	0	49	104	0	60	1048575
2026-01-17 17:51:38.39	170.35	19.80	-83.5	-79.0	2.4	0.00e+00	0	49	104	0	60	1048575
2026-01-17 17:51:39.40	170.41	19.97	-83.1	-79.0	2.3	0.00e+00	0	49	104	0	60	1048572
2026-01-17 17:51:40.41	170.47	20.15	-83.1	-79.0	2.4	0.00e+00	0	49	104	0	60	1048574
2026-01-17 17:51:41.41	170.53	20.33	-83.5	-79.0	2.5	0.00e+00	0	49	104	0	60	1048574
2026-01-17 17:51:42.42	170.60	20.51	-83.5	-79.0	2.4	0.00e+00	0	49	104	0	60	1048566
2026-01-17 17:51:43.43	170.66	20.69	-83.5	-79.0	2.4	0.00e+00	0	48	104	0	60	1048574
2026-01-17 17:51:44.44	170.72	20.87	-82.8	-79.0	2.4	0.00e+00	0	49	104	0	60	1048573
2026-01-17 17:51:45.45	170.79	21.06	-83.5	-79.0	2.4	0.00e+00	0	49	104	0	60	1048575
2026-01-17 17:51:46.45	170.85	21.24	-83.5	-79.0	2.5	0.00e+00	0	49	104	0	60	1048563
2026-01-17 17:51:47.46	170.92	21.43	-83.5	-79.0	2.4	0.00e+00	0	49	104	0	60	1048575
2026-01-17 17:51:48.46	170.99	21.62	-83.5	-79.0	2.5	0.00e+00	0	49	104	0	60	1048575
2026-01-17 17:51:49.46	171.06	21.81	-83.1	-79.0	2.3	0.00e+00	0	49	104	0	60	1048575
2026-01-17 17:51:50.46	171.13	22.01	-83.5	-79.0	2.5	0.00e+00	0	49	104	0	60	1048575
2026-01-17 17:51:51.47	171.20	22.20	-83.1	-79.0	2.5	0.00e+00	0	49	104	0	60	1048575
2026-01-17 17:51:52.47	171.27	22.40	-83.5	-79.0	2.5	0.00e+00	0	49	104	0	60	1048569
2026-01-17 17:51:53.47	171.34	22.60	-83.1	-79.0	2.4	0.00e+00	0	49	104	0	60	1048572
2026-01-17 17:51:54.48	171.41	22.80	-83.1	-79.0	2.4	0.00e+00	0	49	104	0	60	1048575
2026-01-17 17:51:55.49	171.49	23.00	-83.5	-79.0	2.4	0.00e+00	0	49	104	0	60	1048575
2026-01-17 17:51:56.49	171.56	23.20	-83.5	-79.0	2.2	0.00e+00	0	49	104	0	60	1048573
2026-01-17 17:51:57.50	171.64	23.41	-83.5	-79.0	2.4	0.00e+00	0	49	104	0	60	1048575
2026-01-17 17:51:58.51	171.72	23.62	-83.1	-79.0	2.4	0.00e+00	0	48	104	0	60	1048573
2026-01-17 17:51:59.52	171.79	23.83	-83.1	-79.0	2.4	0.00e+00	0	49	104	0	60	1048575
2026-01-17 17:52:00.52	171.87	24.05	-83.5	-79.0	2.4	0.00e+00	0	49	104	0	60	1048574
2026-01-17 17:52:01.53	171.95	24.26	-83.5	-79.0	2.4	0.00e+00	0	49	104	0	60	1048573
2026-01-17 17:52:02.53	172.04	24.48	-83.5	-79.0	2.4	0.00e+00	0	49	104	0	60	1048572
2026-01-17 17:52:03.54	172.12	24.70	-82.8	-79.0	2.3	0.00e+00	0	49	104	0	60	1048571
2026-01-17 17:52:04.54	172.20	24.92	-83.5	-79.0	2.3	0.00e+00	0	49	104	0	60	1048564
2026-01-17 17:52:05.55	172.29	25.14	-83.5	-79.0	2.7	0.00e+00	0	49	104	0	60	1048575
2026-01-17 17:52:06.56	172.38	25.37	-83.5	-79.0	2.5	0.00e+00	0	49	104	0	60	1048571
2026-01-17 17:52:07.56	172.46	25.60	-83.5	-79.0	2.4	0.00e+00	0	49	104	0	60	1048575
2026-01-17 17:52:08.57	172.55	25.83	-82.8	-79.0	2.4	0.00e+00	0	49	104	0	60	1048575
2026-01-17 17:52:09.57	172.64	26.06	-83.5	-79.0	2.3	0.00e+00	0	49	104	0	60	1048567
2026-01-17 17:52:10.58	172.74	26.29	-83.5	-79.0	2.4	0.00e+00	0	49	104	0	60	1048575
2026-01-17 17:52:11.58	172.83	26.53	-83.5	-79.0	2.4	0.00e+00	0	49	104	0	60	1048573
2026-01-17 17:52:12.59	172.93	26.77	-83.1	-79.0	2.4	0.00e+00	0	49	104	0	60	1048567
2026-01-17 17:52:13.59	173.02	27.01	-83.5	-79.0	2.4	0.00e+00	0	48	104	0	60	1048575
2026-01-17 17:52:14.60	173.12	27.26	-83.5	-79.0	2.5	0.00e+00	0	49	104	0	60	1048575
2026-01-17 17:52:15.61	173.22	27.51	-83.5	-79.0	2.3	0.00e+00	0	49	104	0	60	1048575
2026-01-17 17:52:16.62	173.32	27.76	-83.5	-79.0	2.4	0.00e+00	0	49	104	0	60	1048572
2026-01-17 17:52:17.62	173.43	28.01	-83.1	-79.0	2.4	0.00e+00	0	49	104	0	60	1048574
2026-01-17 17:52:18.63	173.53	28.27	-83.5	-79.0	2.4	0.00e+00	0	49	104	0	60	1048575
2026-01-17 17:52:19.64	173.64	28.53	-83.5	-79.0	2.3	0.00e+00	0	49	104	0	60	1048572
2026-01-17 17:52:20.64	173.75	28.79	-83.1	-79.0	2.5	0.00e+00	0	49	104	0	60	1048567
2026-01-17 17:52:21.65	173.86	29.05	-83.5	-79.0	2.4	0.00e+00	0	49	104	0	60	1048574
2026-01-17 17:52:22.66	173.97	29.32	-82.8	-79.0	2.4	0.00e+00	0	49	104	0	60	1048574
2026-01-17 17:52:23.67	174.09	29.59	-83.5	-79.0	2.4	0.00e+00	0	49	104	0	60	1048574
2026-01-17 17:52:24.67	174.20	29.86	-83.5	-79.0	2.5	0.00e+00	0	49	104	0	60	1048573
2026-01-17 17:52:25.68	174.32	30.14	-83.1	-79.0	2.4	0.00e+00	0	49	104	0	60	1048575
2026-01-17 17:52:26.68	174.44	30.42	-83.1	-79.0	2.4	0.00e+00	0	49	104	0	60	1048575
2026-01-17 17:52:27.69	174.57	30.70	-83.5	-79.0	2.4	0.00e+00	0	49	104	0	60	1048569
2026-01-17 17:52:28.70	174.69	30.99	-83.5	-79.0	2.4	0.00e+00	0	49	104	0	60	1048575
2026-01-17 17:52:29.71	174.82	31.28	-83.5	-79.0	2.4	0.00e+00	0	49	104	0	60	1048574
2026-01-17 17:52:30.72	174.95	31.57	-83.5	-79.0	2.3	0.00e+00	0	49	104	0	60	1048575
2026-01-17 17:52:31.73	175.08	31.86	-83.1	-79.0	2.4	0.00e+00	0	48	104	0	60	1048575
2026-01-17 17:52:32.73	175.22	32.16	-83.1	-79.0	2.3	0.00e+00	0	49	104	0	60	1048573
2026-01-17 17:52:33.74	175.36	32.46	-83.5	-79.0	2.4	0.00e+00	0	49	104	0	60	1048571
2026-01-17 17:52:34.74	175.50	32.77	-83.5	-79.0	2.4	0.00e+00	0	49	104	0	60	1048574
2026-01-17 17:52:35.75	175.64	33.08	-83.5	-79.0	2.3	0.00e+00	0	48	104	0	60	1048572
2026-01-17 17:52:36.75	175.78	33.39	-83.1	-79.0	2.5	0.00e+00	0	49	104	0	60	1048575
2026-01-17 17:52:37.76	175.93	33.70	-83.1	-79.0	2.4	0.00e+00	0	49	104	0	60	1048572
2026-01-17 17:52:38.77	176.09	34.02	-83.5	-79.0	2.4	0.00e+00	0	49	104	0	60	1048575
2026-01-17 17:52:39.76	176.24	34.34	-83.5	-79.0	2.4	0.00e+00	0	49	104	0	60	1048574
2026-01-17 17:52:40.77	176.40	34.67	-83.5	-79.0	2.2	0.00e+00	0	49	104	0	60	1048575
2026-01-17 17:52:41.78	176.56	35.00	-83.1	-79.0	2.4	0.00e+00	0	49	104	0	60	1048573
2026-01-17 17:52:42.78	176.72	35.33	-83.1	-79.0	2.4	0.00e+00	0	49	104	0	60	1048574
2026-01-17 17:52:43.79	176.89	35.67	-83.5	-79.0	2.4	0.00e+00	0	49	104	0	60	1048574
2026-01-17 17:52:44.80	177.07	36.01	-83.5	-79.0	2.5	0.00e+00	0	49	104	0	60	1048573
2026-01-17 17:52:45.80	177.24	36.36	-83.1	-79.0	2.4	0.00e+00	0	49	104	0	60	1048572
2026-01-17 17:52:46.81	177.42	36.71	-83.5	-79.0	2.4	0.00e+00	0	49	104	0	60	1048574
2026-01-17 17:52:47.82	177.61	37.06	-83.5	-79.0	2.5	0.00e+00	0	49	104	0	60	1048573
2026-01-17 17:52:48.82	177.80	37.42	-83.5	-79.0	2.3	0.00e+00	0	49	104	0	60	1048574
2026-01-17 17:52:49.83	177.99	37.78	-83.1	-79.0	2.4	0.00e+00	0	49	104	0	60	1048571
2026-01-17 17:52:50.83	178.18	38.15	-83.1	-79.0	2.5	0.00e+00	0	49	104	0	60	1048573
2026-01-17 17:52:51.84	178.39	38.52	-82.8	-79.0	2.4	0.00e+00	0	49	104	0	60	1048572
2026-01-17 17:52:52.84	178.59	38.89	-83.5	-79.0	2.4	0.00e+00	0	49	104	0	60	1048571
2026-01-17 17:52:53.84	178.80	39.27	-83.5	-79.0	2.4	0.00e+00	0	49	104	0	60	1048573
2026-01-17 17:52:54.84	179.02	39.65	-83.1	-79.0	2.4	0.00e+00	0	49	104	0	60	1048574
2026-01-17 17:52:55.84	179.24	40.04	-83.1	-79.0	2.4	0.00e+00	0	49	104	0	60	1048574
2026-01-17 17:52:56.84	179.46	40.42	-83.5	-79.0	2.2	0.00e+00	0	49	104	0	60	1048571
2026-01-17 17:52:57.85	179.70	40.82	-83.5	-79.0	2.4	0.00e+00	0	49	104	0	60	1048575
2026-01-17 17:52:58.85	179.94	41.22	-83.5	-79.0	2.5	0.00e+00	0	49	104	0	60	1048571
2026-01-17 17:52:59.86	180.18	41.63	-83.5	-79.0	2.4	0.00e+00	0	49	104	0	60	1048574
2026-01-17 17:53:00.87	180.43	42.04	-83.1	-79.0	2.4	0.00e+00	0	49	104	0	60	1048567
2026-01-17 17:53:01.88	180.69	42.46	-83.5	-79.0	2.4	0.00e+00	0	49	104	0	60	1048574
2026-01-17 17:53:02.88	180.96	42.87	-83.5	-79.0	2.4	0.00e+00	0	49	104	0	60	1048575
2026-01-17 17:53:03.88	181.23	43.29	-83.5	-79.0	2.4	0.00e+00	0	49	104	0	60	1048572
2026-01-17 17:53:04.89	181.51	43.72	-83.1	-79.0	2.4	0.00e+00	0	49	104	0	60	1048574
2026-01-17 17:53:05.89	181.79	44.16	-83.1	-79.0	2.4	0.00e+00	0	49	104	0	60	1048565
2026-01-17 17:53:06.89	182.09	44.59	-83.1	-79.0	2.3	0.00e+00	0	49	104	0	60	1048574
2026-01-17 17:53:07.90	182.39	45.04	-83.5	-79.0	2.4	0.00e+00	0	49	104	0	60	1048575
2026-01-17 17:53:08.90	182.71	45.48	-83.5	-79.0	2.4	0.00e+00	0	49	104	0	60	1048572
2026-01-17 17:53:09.90	183.03	45.93	-82.8	-79.0	2.4	0.00e+00	0	49	104	0	60	1048575
2026-01-17 17:53:10.91	183.36	46.39	-83.5	-79.0	2.4	0.00e+00	0	49	104	0	60	1048566
2026-01-17 17:53:11.92	183.70	46.85	-83.5	-79.0	2.3	0.00e+00	0	49	104	0	60	1048574
2026-01-17 17:53:12.93	184.06	47.32	-83.5	-79.0	2.5	0.00e+00	0	49	104	0	60	1048574
2026-01-17 17:53:13.93	184.42	47.79	-83.1	-79.0	2.4	0.00e+00	0	49	104	0	60	1048574
2026-01-17 17:53:14.94	184.79	48.26	-83.1	-79.0	2.4	0.00e+00	0	49	104	0	60	1048573
2026-01-17 17:53:15.94	185.18	48.74	-83.5	-79.0	2.4	0.00e+00	0	49	104	0	60	1048574
2026-01-17 17:53:16.95	185.58	49.22	-83.5	-79.0	2.5	0.00e+00	0	49	104	0	60	1048574
2026-01-17 17:53:17.96	185.99	49.71	-83.5	-79.0	2.4	0.00e+00	0	49	104	0	60	1048575
2026-01-17 17:53:18.97	186.42	50.21	-83.1	-79.0	2.3	0.00e+00	0	49	104	0	60	1048571
2026-01-17 17:53:19.97	186.86	50.70	-83.1	-79.0	2.4	0.00e+00	0	49	104	0	60	1048575
2026-01-17 17:53:20.98	187.31	51.21	-83.5	-79.0	2.4	0.00e+00	0	49	104	0	60	1048569
2026-01-17 17:53:21.98	187.78	51.71	-83.5	-79.0	2.4	0.00e+00	0	49	104	0	60	1048569
2026-01-17 17:53:22.99	188.27	52.22	-83.5	-79.0	2.4	0.00e+00	0	49	104	0	60	1048575
2026-01-17 17:53:24.00	188.78	52.73	-83.1	-79.0	2.4	0.00e+00	0	49	104	0	60	1048572
2026-01-17 17:53:25.01	189.30	53.25	-83.5	-79.0	2.4	0.00e+00	0	49	104	0	60	1048575
2026-01-17 17:53:26.02	189.85	53.77	-83.5	-79.0	2.4	0.00e+00	0	49	104	0	60	1048572
2026-01-17 17:53:27.02	190.40	54.29	-83.5	-79.0	2.4	0.00e+00	0	49	104	0	60	1048571
2026-01-17 17:53:28.03	190.99	54.82	-83.5	-79.0	2.3	0.00e+00	0	49	104	0	60	1048575
2026-01-17 17:53:29.03	191.59	55.35	-82.8	-79.0	2.4	0.00e+00	0	49	104	0	60	1048569
2026-01-17 17:53:30.03	192.22	55.88	-83.1	-79.0	2.4	0.00e+00	0	49	104	0	60	1048571
2026-01-17 17:53:31.04	192.87	56.41	-83.1	-79.0	2.4	0.00e+00	0	49	104	0	60	1048572
2026-01-17 17:53:32.05	193.56	56.95	-83.5	-79.0	2.3	0.00e+00	0	49	104	0	60	1048571
2026-01-17 17:53:33.06	194.27	57.49	-83.5	-79.0	2.5	0.00e+00	0	49	104	0	60	1048573
2026-01-17 17:53:34.07	195.00	58.03	-82.8	-79.0	2.5	0.00e+00	0	49	104	0	60	1048572
2026-01-17 17:53:35.07	195.77	58.57	-83.5	-79.0	2.4	0.00e+00	0	49	104	0	60	1048575
2026-01-17 17:53:36.08	196.57	59.11	-83.5	-79.0	2.5	0.00e+00	0	49	104	0	60	1048570
2026-01-17 17:53:37.09	197.40	59.65	-83.5	-79.0	2.4	0.00e+00	0	49	104	0	60	1048573
2026-01-17 17:53:38.10	198.28	60.19	-83.5	-79.0	2.4	0.00e+00	0	49	104	0	60	1048566
2026-01-17 17:53:39.10	199.18	60.73	-83.5	-79.0	2.4	0.00e+00	0	49	104	0	60	1048574
2026-01-17 17:53:40.10	200.11	61.26	-83.5	-79.0	2.4	0.00e+00	0	49	104	0	60	1048575
2026-01-17 17:53:41.11	201.11	61.80	-83.5	-79.0	2.4	0.00e+00	0	49	104	0	60	1048562
2026-01-17 17:53:42.11	202.13	62.33	-83.5	-79.0	2.5	0.00e+00	0	49	104	0	60	1048574
2026-01-17 17:53:43.11	203.20	62.85	-82.8	-79.0	2.4	0.00e+00	0	49	104	0	60	1048574
2026-01-17 17:53:44.12	204.33	63.38	-83.5	-79.0	2.3	0.00e+00	0	49	104	0	60	1048575
2026-01-17 17:53:45.13	205.51	63.90	-83.5	-79.0	2.5	0.00e+00	0	49	104	0	60	1048575
2026-01-17 17:53:46.13	206.73	64.41	-83.5	-79.0	2.5	0.00e+00	0	49	104	0	60	1048573
2026-01-17 17:53:47.14	208.02	64.91	-83.5	-79.0	2.3	0.00e+00	0	49	104	0	60	1048572
2026-01-17 17:53:48.15	209.37	65.41	-82.8	-79.0	2.4	0.00e+00	0	49	104	0	60	1048573
2026-01-17 17:53:49.16	210.79	65.90	-83.1	-79.0	2.4	0.00e+00	0	49	104	0	60	1048573
2026-01-17 17:53:50.17	212.26	66.38	-83.5	-79.0	2.4	0.00e+00	0	49	104	0	60	1048572
2026-01-17 17:53:51.18	213.80	66.85	-83.5	-79.0	2.4	0.00e+00	0	49	104	0	60	1048572
2026-01-17 17:53:52.18	215.40	67.30	-83.1	-79.0	2.4	0.00e+00	0	49	104	0	60	1048573
2026-01-17 17:53:53.19	217.08	67.74	-83.1	-79.0	2.4	0.00e+00	0	49	104	0	60	1048574
2026-01-17 17:53:54.20	218.84	68.16	-83.5	-79.0	2.4	0.00e+00	0	49	104	0	60	1048570
2026-01-17 17:53:55.20	220.65	68.57	-83.5	-79.0	2.4	0.00e+00	0	49	104	0	60	1048567
2026-01-17 17:53:56.21	222.55	68.95	-83.5	-79.0	2.4	0.00e+00	0	49	104	0	60	1048574
2026-01-17 17:53:57.22	224.53	69.32	-83.1	-79.0	2.4	0.00e+00	0	49	104	0	60	1048572
2026-01-17 17:53:58.22	226.56	69.66	-83.5	-79.0	2.3	0.00e+00	0	49	104	0	60	1048571
2026-01-17 17:53:59.22	228.67	69.98	-83.5	-79.0	2.5	0.00e+00	0	49	104	0	60	1048571
2026-01-17 17:54:00.23	230.87	70.28	-83.1	-79.0	2.4	0.00e+00	0	49	104	0	60	1048567
2026-01-17 17:54:01.24	233.13	70.55	-83.5	-79.0	2.4	0.00e+00	0	49	104	0	60	1048575
2026-01-17 17:54:02.25	235.46	70.79	-83.1	-79.0	2.4	0.00e+00	0	49	104	0	60	1048570
2026-01-17 17:54:03.25	237.83	71.00	-83.5	-79.0	2.4	0.00e+00	0	49	104	0	60	1048572
2026-01-17 17:54:04.26	240.27	71.18	-83.5	-79.0	2.4	0.00e+00	0	49	104	0	60	1048574
2026-01-17 17:54:05.27	242.76	71.33	-83.5	-79.0	2.4	0.00e+00	0	49	104	0	60	1048570
2026-01-17 17:54:06.28	245.29	71.44	-83.1	-79.0	2.5	0.00e+00	0	49	104	0	60	1048573
2026-01-17 17:54:07.28	247.82	71.52	-83.1	-79.0	2.5	0.00e+00	0	49	104	0	60	1048574
2026-01-17 17:54:08.29	250.39	71.57	-83.5	-79.0	2.4	0.00e+00	0	49	104	0	60	1048573
2026-01-17 17:54:09.30	252.97	71.58	-83.5	-79.0	2.5	0.00e+00	0	49	104	0	60	1048574
2026-01-17 17:54:10.30	255.52	71.56	-83.5	-79.0	2.5	0.00e+00	0	49	104	0	60	1048574
2026-01-17 17:54:11.31	258.09	71.50	-83.1	-79.0	2.4	0.00e+00	0	49	104	0	60	1048572
2026-01-17 17:54:12.32	260.64	71.41	-82.8	-79.0	2.4	0.00e+00	0	49	104	0	60	1048575
2026-01-17 17:54:13.33	263.15	71.28	-83.5	-79.0	2.5	0.00e+00	0	49	104	0	60	1048575
2026-01-17 17:54:14.33	265.60	71.13	-83.5	-79.0	2.4	0.00e+00	0	49	104	0	60	1048575
2026-01-17 17:54:15.34	268.03	70.94	-83.5	-79.0	2.4	0.00e+00	0	49	104	0	60	1048574
2026-01-17 17:54:16.35	270.40	70.71	-82.8	-79.0	2.4	0.00e+00	0	49	104	0	60	1048569
2026-01-17 17:54:17.36	272.71	70.46	-83.1	-79.0	2.4	0.00e+00	0	49	104	0	60	1048557
2026-01-17 17:54:18.37	274.95	70.19	-83.5	-79.0	2.5	0.00e+00	0	49	104	0	60	1048574
2026-01-17 17:54:19.37	277.10	69.88	-83.5	-79.0	2.4	0.00e+00	0	49	104	0	60	1048574
2026-01-17 17:54:20.38	279.20	69.56	-83.5	-79.0	2.4	0.00e+00	0	49	104	0	60	1048572
2026-01-17 17:54:21.39	281.23	69.20	-82.8	-79.0	2.4	0.00e+00	0	49	104	0	60	1048574
2026-01-17 17:54:22.39	283.16	68.83	-83.5	-79.0	2.5	0.00e+00	0	49	104	0	60	1048573
2026-01-17 17:54:23.40	285.04	68.44	-83.5	-79.0	2.4	0.00e+00	0	49	104	0	60	1048572
2026-01-17 17:54:24.41	286.85	68.03	-83.5	-79.0	2.4	0.00e+00	0	49	104	0	60	1048573
2026-01-17 17:54:25.42	288.57	67.60	-83.1	-79.0	2.4	0.00e+00	0	49	104	0	60	1048575
2026-01-17 17:54:26.42	290.22	67.16	-83.1	-79.0	2.4	0.00e+00	0	49	104	0	60	1048573
2026-01-17 17:54:27.43	291.80	66.70	-83.1	-79.0	2.4	0.00e+00	0	49	104	0	60	1048571
2026-01-17 17:54:28.43	293.31	66.23	-83.5	-79.0	2.3	0.00e+00	0	49	104	0	60	1048574
2026-01-17 17:54:29.43	294.75	65.76	-83.1	-79.0	2.4	0.00e+00	0	49	104	0	60	1048573
2026-01-17 17:54:30.44	296.14	65.27	-83.1	-79.0	2.4	0.00e+00	0	49	104	0	60	1048575
2026-01-17 17:54:31.45	297.47	64.76	-83.1	-79.0	2.4	0.00e+00	0	49	104	0	60	1048575
2026-01-17 17:54:32.46	298.74	64.26	-83.5	-79.0	2.4	0.00e+00	0	49	104	0	60	1048570
2026-01-17 17:54:33.46	299.94	63.75	-83.5	-79.0	2.4	0.00e+00	0	49	104	0	60	1048574
2026-01-17 17:54:34.47	301.11	63.23	-83.5	-79.0	2.4	0.00e+00	0	49	104	0	60	1048571
2026-01-17 17:54:35.47	302.21	62.70	-82.8	-79.0	2.5	0.00e+00	0	49	104	0	60	1048574
2026-01-17 17:54:36.48	303.28	62.17	-83.5	-79.0	2.2	0.00e+00	0	49	104	0	60	1048575
2026-01-17 17:54:37.49	304.29	61.64	-83.5	-79.0	2.4	0.00e+00	0	49	104	0	60	1048573
2026-01-17 17:54:38.49	305.26	61.11	-83.5	-79.0	2.3	0.00e+00	0	49	104	0	60	1048575
2026-01-17 17:54:39.50	306.20	60.57	-83.5	-79.0	2.4	0.00e+00	0	49	104	0	60	1048573
2026-01-17 17:54:40.51	307.09	60.03	-83.1	-79.0	2.4	0.00e+00	0	49	104	0	60	1048569
2026-01-17 17:54:41.52	307.95	59.49	-83.1	-79.0	2.4	0.00e+00	0	49	104	0	60	1048575
2026-01-17 17:54:42.52	308.77	58.96	-83.5	-79.0	2.4	0.00e+00	0	49	104	0	60	1048571
2026-01-17 17:54:43.53	309.56	58.42	-83.5	-79.0	2.4	0.00e+00	0	49	104	0	60	1048574
2026-01-17 17:54:44.54	310.32	57.88	-83.1	-79.0	2.4	0.00e+00	0	49	104	0	60	1048572
2026-01-17 17:54:45.55	311.04	57.34	-82.8	-79.0	2.5	0.00e+00	0	49	104	0	60	1048573
2026-01-17 17:54:46.55	311.74	56.80	-83.1	-79.0	2.5	0.00e+00	0	49	104	0	60	1048569
2026-01-17 17:54:47.56	312.41	56.27	-83.5	-79.0	2.5	0.00e+00	0	49	104	0	60	1048575
2026-01-17 17:54:48.56	313.05	55.74	-83.5	-79.0	2.4	0.00e+00	0	49	104	0	60	1048574
2026-01-17 17:54:49.57	313.68	55.21	-83.1	-79.0	2.4	0.00e+00	0	49	104	0	60	1048567
2026-01-17 17:54:50.58	314.28	54.68	-83.1	-79.0	2.4	0.00e+00	0	49	104	0	60	1048564
2026-01-17 17:54:51.58	314.85	54.16	-83.5	-79.0	2.4	0.00e+00	0	49	104	0	60	1048574
2026-01-17 17:54:52.59	315.41	53.64	-83.5	-79.0	2.3	0.00e+00	0	49	104	0	60	1048574
2026-01-17 17:54:53.59	315.94	53.12	-83.5	-79.0	2.4	0.00e+00	0	49	104	0	60	1048571
2026-01-17 17:54:54.60	316.46	52.61	-82.8	-79.0	2.4	0.00e+00	0	49	104	0	60	1048573
2026-01-17 17:54:55.61	316.96	52.10	-83.5	-79.0	2.3	0.00e+00	0	49	104	0	60	1048573
2026-01-17 17:54:56.61	317.44	51.59	-83.5	-79.0	2.4	0.00e+00	0	49	104	0	60	1048575
2026-01-17 17:54:57.62	317.90	51.09	-83.5	-79.0	2.4	0.00e+00	0	49	104	0	60	1048575
2026-01-17 17:54:58.63	318.35	50.59	-83.5	-79.0	2.4	0.00e+00	0	49	104	0	60	1048575
2026-01-17 17:54:59.64	318.79	50.09	-83.1	-79.0	2.5	0.00e+00	0	49	104	0	60	1048569
2026-01-17 17:55:00.65	319.21	49.60	-83.5	-79.0	2.4	0.00e+00	0	49	104	0	60	1048564
2026-01-17 17:55:01.65	319.62	49.12	-83.5	-79.0	2.4	0.00e+00	0	49	104	0	60	1048569
2026-01-17 17:55:02.66	320.02	48.64	-83.5	-79.0	2.4	0.00e+00	0	49	104	0	60	1048574
2026-01-17 17:55:03.67	320.40	48.16	-83.1	-79.0	2.4	0.00e+00	0	49	104	0	60	1048574
2026-01-17 17:55:04.68	320.77	47.68	-83.1	-79.0	2.4	0.00e+00	0	49	104	0	60	1048575
2026-01-17 17:55:05.68	321.13	47.22	-83.5	-79.0	2.4	0.00e+00	0	49	104	0	60	1048570
2026-01-17 17:55:06.69	321.48	46.75	-83.5	-79.0	2.4	0.00e+00	0	49	104	0	60	1048575
2026-01-17 17:55:07.70	321.82	46.29	-83.5	-79.0	2.4	0.00e+00	0	49	104	0	60	1048573
2026-01-17 17:55:08.70	322.14	45.84	-83.1	-79.0	2.3	0.00e+00	0	49	104	0	60	1048575
2026-01-17 17:55:09.71	322.47	45.39	-83.5	-79.0	2.2	0.00e+00	0	49	104	0	60	1048574
2026-01-17 17:55:10.71	322.77	44.95	-83.5	-79.0	2.4	0.00e+00	0	49	104	0	60	1048574
2026-01-17 17:55:11.72	323.08	44.51	-83.5	-79.0	2.4	0.00e+00	0	49	104	0	60	1048575
2026-01-17 17:55:12.72	323.37	44.08	-83.5	-79.0	2.3	0.00e+00	0	49	104	0	60	1048573
2026-01-17 17:55:13.73	323.65	43.64	-82.8	-79.0	2.5	0.00e+00	0	49	104	0	60	1048575
2026-01-17 17:55:14.73	323.93	43.22	-83.5	-79.0	2.5	0.00e+00	0	49	104	0	60	1048572
2026-01-17 17:55:15.74	324.20	42.80	-83.5	-79.0	2.4	0.00e+00	0	49	104	0	60	1048575
2026-01-17 17:55:16.75	324.46	42.38	-83.5	-79.0	2.5	0.00e+00	0	49	104	0	60	1048574
2026-01-17 17:55:17.76	324.72	41.97	-83.5	-79.0	2.4	0.00e+00	0	49	104	0	60	1048575
2026-01-17 17:55:18.76	324.97	41.56	-83.1	-79.0	2.4	0.00e+00	0	49	104	0	60	1048571
2026-01-17 17:55:19.77	325.21	41.16	-83.1	-79.0	2.5	0.00e+00	0	49	104	0	60	1048574
2026-01-17 17:55:20.77	325.45	40.76	-83.5	-79.0	2.4	0.00e+00	0	49	104	0	60	1048575
2026-01-17 17:55:21.77	325.68	40.37	-83.5	-79.0	2.4	0.00e+00	0	49	104	0	60	1048575
2026-01-17 17:55:22.78	325.90	39.98	-83.1	-79.0	2.4	0.00e+00	0	49	104	0	60	1048571
2026-01-17 17:55:23.79	326.12	39.59	-83.1	-79.0	2.4	0.00e+00	0	49	104	0	60	1048567
2026-01-17 17:55:24.79	326.34	39.22	-83.5	-79.0	2.4	0.00e+00	0	49	104	0	60	1048575
2026-01-17 17:55:25.80	326.55	38.84	-83.5	-79.0	2.4	0.00e+00	0	49	104	0	60	1048575
2026-01-17 17:55:26.80	326.75	38.47	-83.5	-79.0	2.3	0.00e+00	0	49	104	0	60	1048572
2026-01-17 17:55:27.81	326.95	38.10	-83.1	-79.0	2.4	0.00e+00	0	49	104	0	60	1048573
2026-01-17 17:55:28.81	327.15	37.74	-83.1	-79.0	2.4	0.00e+00	0	49	104	0	60	1048571
2026-01-17 17:55:29.82	327.34	37.38	-83.5	-79.0	2.4	0.00e+00	0	49	104	0	60	1048570
2026-01-17 17:55:30.83	327.53	37.02	-83.5	-79.0	2.4	0.00e+00	0	49	104	0	60	1048569
2026-01-17 17:55:31.84	327.71	36.67	-83.5	-79.0	2.4	0.00e+00	0	49	104	0	60	1048575
2026-01-17 17:55:32.84	327.89	36.32	-83.1	-79.0	2.4	0.00e+00	0	49	104	0	60	1048574
2026-01-17 17:55:33.85	328.06	35.98	-83.1	-79.0	2.4	0.00e+00	0	49	104	0	60	1048575
2026-01-17 17:55:34.86	328.24	35.64	-83.5	-79.0	2.4	0.00e+00	0	49	104	0	60	1048575
2026-01-17 17:55:35.87	328.40	35.30	-83.5	-79.0	2.4	0.00e+00	0	49	104	0	60	1048575
2026-01-17 17:55:36.88	328.57	34.97	-83.1	-79.0	2.4	0.00e+00	0	49	104	0	60	1048575
2026-01-17 17:55:37.89	328.73	34.64	-83.1	-79.0	2.4	0.00e+00	0	49	104	0	60	1048575
2026-01-17 17:55:38.89	328.89	34.32	-83.5	-79.0	2.3	0.00e+00	0	49	104	0	60	1048575
2026-01-17 17:55:39.90	329.04	33.99	-83.1	-79.0	2.4	0.00e+00	0	49	104	0	60	1048573
2026-01-17 17:55:40.91	329.19	33.68	-83.5	-79.0	2.4	0.00e+00	0	49	104	0	60	1048575
2026-01-17 17:55:41.91	329.34	33.36	-83.1	-79.0	2.4	0.00e+00	0	49	104	0	60	1048573
2026-01-17 17:55:42.92	329.48	33.05	-82.8	-79.0	2.4	0.00e+00	0	49	104	0	60	1048569
2026-01-17 17:55:43.93	329.63	32.75	-83.5	-79.0	2.3	0.00e+00	0	49	104	0	60	1048571
2026-01-17 17:55:44.94	329.77	32.44	-83.5	-79.0	2.4	0.00e+00	0	49	104	0	60	1048571
2026-01-17 17:55:45.95	329.90	32.14	-83.5	-79.0	2.4	0.00e+00	0	49	104	0	60	1048575
2026-01-17 17:55:46.95	330.04	31.85	-82.8	-79.0	2.3	0.00e+00	0	49	104	0	60	1048575
2026-01-17 17:55:47.96	330.17	31.55	-83.5	-79.0	2.5	0.00e+00	0	49	104	0	60	1048574
2026-01-17 17:55:48.97	330.30	31.26	-83.5	-79.0	2.4	0.00e+00	0	49	104	0	60	1048573
2026-01-17 17:55:49.98	330.43	30.98	-83.5	-79.0	2.4	0.00e+00	0	49	104	0	60	1048575
2026-01-17 17:55:50.99	330.55	30.69	-83.5	-79.0	2.5	0.00e+00	0	49	104	0	60	1048574
2026-01-17 17:55:51.99	330.67	30.41	-83.1	-79.0	2.5	0.00e+00	0	49	104	0	60	1048575
2026-01-17 17:55:53.00	330.79	30.14	-83.5	-79.0	2.4	0.00e+00	0	49	104	0	60	1048572
2026-01-17 17:55:54.00	330.91	29.86	-83.5	-79.0	2.5	0.00e+00	0	49	104	0	60	1048574
2026-01-17 17:55:55.01	331.03	29.59	-83.5	-79.0	2.4	0.00e+00	0	49	104	0	60	1048575
2026-01-17 17:55:56.02	331.14	29.32	-83.1	-79.0	2.5	0.00e+00	0	49	104	0	60	1048572
2026-01-17 17:55:57.03	331.26	29.06	-83.1	-79.0	2.5	0.00e+00	0	49	104	0	60	1048575
2026-01-17 17:55:58.03	331.36	28.80	-83.5	-79.0	2.4	0.00e+00	0	49	104	0	60	1048573
2026-01-17 17:55:59.04	331.47	28.53	-83.5	-79.0	2.4	0.00e+00	0	49	104	0	60	1048574
2026-01-17 17:56:00.04	331.58	28.28	-83.5	-79.0	2.4	0.00e+00	0	49	104	0	60	1048573
2026-01-17 17:56:01.05	331.68	28.02	-82.8	-79.0	2.4	0.00e+00	0	49	104	0	60	1048574
2026-01-17 17:56:02.05	331.79	27.77	-83.5	-79.0	2.4	0.00e+00	0	49	104	0	60	1048572
2026-01-17 17:56:03.06	331.89	27.52	-83.5	-79.0	2.3	0.00e+00	0	49	104	0	60	1048569
2026-01-17 17:56:04.07	331.99	27.28	-83.5	-79.0	2.4	0.00e+00	0	49	104	0	60	1048573
2026-01-17 17:56:05.07	332.09	27.04	-83.1	-79.0	2.4	0.00e+00	0	49	104	0	60	1048571
2026-01-17 17:56:06.08	332.18	26.79	-82.8	-79.0	2.4	0.00e+00	0	49	104	0	60	1048566
2026-01-17 17:56:07.09	332.28	26.55	-83.5	-79.0	2.4	0.00e+00	0	49	104	0	60	1048574
2026-01-17 17:56:08.10	332.37	26.32	-83.5	-79.0	2.4	0.00e+00	0	49	104	0	60	1048573
2026-01-17 17:56:09.10	332.46	26.08	-83.1	-79.0	2.3	0.00e+00	0	49	104	0	60	1048575
2026-01-17 17:56:10.11	332.55	25.85	-83.5	-79.0	2.4	0.00e+00	0	49	104	0	60	1048569
2026-01-17 17:56:11.12	332.64	25.62	-83.1	-79.0	2.4	0.00e+00	0	49	104	0	60	1048574
2026-01-17 17:56:12.12	332.73	25.40	-83.5	-79.0	2.4	0.00e+00	0	49	104	0	60	1048566
2026-01-17 17:56:13.13	332.82	25.17	-83.5	-79.0	2.3	0.00e+00	0	49	104	0	60	1048575
2026-01-17 17:56:14.14	332.90	24.95	-83.5	-79.0	2.4	0.00e+00	0	49	104	0	60	1048573
2026-01-17 17:56:15.14	332.99	24.73	-83.1	-79.0	2.4	0.00e+00	0	49	104	0	60	1048574
2026-01-17 17:56:16.15	333.07	24.51	-83.1	-79.0	2.5	0.00e+00	0	49	104	0	60	1048572
2026-01-17 17:56:17.16	333.15	24.30	-83.5	-79.0	2.4	0.00e+00	0	49	104	0	60	1048570
2026-01-17 17:56:18.17	333.23	24.08	-83.5	-79.0	2.4	0.00e+00	0	49	104	0	60	1048575
2026-01-17 17:56:19.17	333.31	23.87	-83.5	-79.0	2.4	0.00e+00	0	49	104	0	60	1048574
2026-01-17 17:56:20.18	333.39	23.66	-83.1	-79.0	2.4	0.00e+00	0	49	104	0	60	1048574
2026-01-17 17:56:21.18	333.47	23.45	-83.5	-79.0	2.3	0.00e+00	0	49	104	0	60	1048573
2026-01-17 17:56:22.19	333.54	23.25	-83.5	-79.0	2.3	0.00e+00	0	49	104	0	60	1048574
2026-01-17 17:56:23.20	333.62	23.04	-83.5	-79.0	2.4	0.00e+00	0	49	104	0	60	1048571
2026-01-17 17:56:24.20	333.69	22.84	-83.5	-79.0	2.5	0.00e+00	0	49	104	0	60	1048575
2026-01-17 17:56:25.21	333.77	22.64	-83.1	-79.0	2.3	0.00e+00	0	49	104	0	60	1048572
2026-01-17 17:56:26.21	333.84	22.45	-83.5	-79.0	2.3	0.00e+00	0	49	104	0	60	1048570
2026-01-17 17:56:27.22	333.91	22.25	-83.1	-79.0	2.4	0.00e+00	0	49	104	0	60	1048573
2026-01-17 17:56:28.22	333.98	22.06	-83.5	-79.0	2.5	0.00e+00	0	49	104	0	60	1048573
2026-01-17 17:56:29.23	334.05	21.86	-83.5	-79.0	2.4	0.00e+00	0	49	104	0	60	1048575
2026-01-17 17:56:30.24	334.12	21.67	-83.1	-79.0	2.4	0.00e+00	0	49	104	0	60	1048572
2026-01-17 17:56:31.24	334.19	21.48	-83.5	-79.0	2.4	0.00e+00	0	49	104	0	60	1048574
2026-01-17 17:56:32.25	334.25	21.30	-83.5	-79.0	2.4	0.00e+00	0	49	104	0	60	1048575
2026-01-17 17:56:33.25	334.32	21.11	-83.1	-79.0	2.4	0.00e+00	0	49	104	0	60	1048574
2026-01-17 17:56:34.26	334.38	20.93	-83.1	-79.0	2.4	0.00e+00	0	49	104	0	60	1048575
2026-01-17 17:56:35.27	334.45	20.74	-83.1	-79.0	2.4	0.00e+00	0	49	104	0	60	1048574
2026-01-17 17:56:36.27	334.51	20.56	-83.5	-79.0	2.4	0.00e+00	0	49	104	0	60	1048574
2026-01-17 17:56:37.28	334.57	20.38	-83.5	-79.0	2.4	0.00e+00	0	49	104	0	60	1048574
2026-01-17 17:56:38.29	334.64	20.21	-83.1	-79.0	2.5	0.00e+00	0	49	104	0	60	1048575
2026-01-17 17:56:39.30	334.70	20.03	-82.8	-79.0	2.3	0.00e+00	0	49	104	0	60	1048573
2026-01-17 17:56:40.31	334.76	19.85	-83.1	-79.0	2.5	0.00e+00	0	49	104	0	60	1048574
2026-01-17 17:56:41.31	334.82	19.68	-83.5	-79.0	2.3	0.00e+00	0	49	104	0	60	1048575
2026-01-17 17:56:42.32	334.88	19.51	-83.5	-79.0	2.4	0.00e+00	0	49	104	0	60	1048568
2026-01-17 17:56:43.33	334.93	19.34	-83.5	-79.0	2.4	0.00e+00	0	49	104	0	60	1048575
2026-01-17 17:56:44.34	334.99	19.17	-83.1	-79.0	2.4	0.00e+00	0	49	104	0	60	1048574
2026-01-17 17:56:45.34	335.05	19.00	-83.5	-79.0	2.5	0.00e+00	0	49	104	0	60	1048574
2026-01-17 17:56:46.35	335.10	18.84	-83.5	-79.0	2.3	0.00e+00	0	49	104	0	60	1048573
2026-01-17 17:56:47.35	335.16	18.68	-83.5	-79.0	2.3	0.00e+00	0	49	104	0	60	1048567
2026-01-17 17:56:48.36	335.21	18.51	-83.1	-79.0	2.4	0.00e+00	0	49	104	0	60	1048574
2026-01-17 17:56:49.37	335.27	18.35	-83.5	-79.0	2.4	0.00e+00	0	49	104	0	60	1048574
2026-01-17 17:56:50.38	335.32	18.19	-83.5	-79.0	2.4	0.00e+00	0	49	104	0	60	1048573
2026-01-17 17:56:51.39	335.38	18.03	-83.5	-79.0	2.4	0.00e+00	0	49	104	0	60	1048575
2026-01-17 17:56:52.39	335.43	17.87	-83.5	-79.0	2.5	0.00e+00	0	49	104	0	60	1048574
2026-01-17 17:56:53.40	335.48	17.71	-83.1	-79.0	2.5	0.00e+00	0	49	104	0	60	1048575
2026-01-17 17:56:54.41	335.53	17.56	-83.5	-79.0	2.4	0.00e+00	0	49	104	0	60	1048575
2026-01-17 17:56:55.41	335.58	17.41	-83.5	-79.0	2.5	0.00e+00	0	49	104	0	60	1048575
2026-01-17 17:56:56.42	335.63	17.25	-83.1	-79.0	2.4	0.00e+00	0	49	104	0	60	1048572
2026-01-17 17:56:57.43	335.68	17.10	-83.5	-79.0	2.3	0.00e+00	0	49	104	0	60	1048571
2026-01-17 17:56:58.44	335.73	16.95	-82.8	-79.0	2.5	0.00e+00	0	49	104	0	60	1048575
2026-01-17 17:56:59.44	335.78	16.80	-83.1	-79.0	2.4	0.00e+00	0	49	104	0	60	1048570
2026-01-17 17:57:00.45	335.83	16.65	-83.5	-79.0	2.4	0.00e+00	0	49	104	0	60	1048573
2026-01-17 17:57:01.45	335.88	16.51	-83.5	-79.0	2.3	0.00e+00	0	49	104	0	60	1048570
2026-01-17 17:57:02.45	335.92	16.36	-83.1	-79.0	2.4	0.00e+00	0	49	104	0	60	1048573
2026-01-17 17:57:03.46	335.97	16.21	-82.8	-79.0	2.3	0.00e+00	0	49	104	0	60	1048575
2026-01-17 17:57:04.47	336.02	16.07	-83.5	-79.0	2.4	0.00e+00	0	49	104	0	60	1048571
2026-01-17 17:57:05.47	336.06	15.93	-83.5	-79.0	2.4	0.00e+00	0	49	104	0	60	1048575
2026-01-17 17:57:06.48	336.11	15.79	-83.1	-79.0	2.3	0.00e+00	0	49	104	0	60	1048575
2026-01-17 17:57:07.48	336.15	15.65	-83.1	-79.0	2.4	0.00e+00	0	49	104	0	60	1048568
2026-01-17 17:57:08.49	336.20	15.51	-83.1	-79.0	2.5	0.00e+00	0	49	104	0	60	1048574
2026-01-17 17:57:09.50	336.24	15.37	-83.5	-79.0	2.4	0.00e+00	0	49	104	0	60	1048575
2026-01-17 17:57:10.51	336.29	15.23	-83.5	-79.0	2.5	0.00e+00	0	49	104	0	60	1048573
2026-01-17 17:57:11.52	336.33	15.09	-83.5	-79.0	2.4	0.00e+00	0	49	104	0	60	1048574
2026-01-17 17:57:12.53	336.37	14.96	-83.1	-79.0	2.4	0.00e+00	0	49	104	0	60	1048571
2026-01-17 17:57:13.53	336.41	14.82	-83.5	-79.0	2.4	0.00e+00	0	49	104	0	60	1048575
2026-01-17 17:57:14.54	336.46	14.69	-83.5	-79.0	2.3	0.00e+00	0	49	104	0	60	1048575
2026-01-17 17:57:15.55	336.50	14.55	-83.5	-79.0	2.4	0.00e+00	0	49	104	0	60	1048573
2026-01-17 17:57:16.56	336.54	14.42	-83.1	-79.0	2.3	0.00e+00	0	49	104	0	60	1048568
2026-01-17 17:57:17.56	336.58	14.29	-83.1	-79.0	2.3	0.00e+00	0	49	104	0	60	1048575
2026-01-17 17:57:18.57	336.62	14.16	-83.5	-79.0	2.4	0.00e+00	0	49	104	0	60	1048574
2026-01-17 17:57:19.57	336.66	14.03	-83.5	-79.0	2.4	0.00e+00	0	49	104	0	60	1048573
2026-01-17 17:57:20.58	336.70	13.90	-83.5	-79.0	2.4	0.00e+00	0	49	104	0	60	1048573
2026-01-17 17:57:21.59	336.74	13.78	-83.5	-79.0	2.4	0.00e+00	0	49	104	0	60	1048574
2026-01-17 17:57:22.60	336.78	13.65	-83.1	-79.0	2.4	0.00e+00	0	49	104	0	60	1048575
2026-01-17 17:57:23.60	336.82	13.53	-83.5	-79.0	2.5	0.00e+00	0	49	104	0	60	1048574
2026-01-17 17:57:24.61	336.85	13.40	-83.5	-79.0	2.4	0.00e+00	0	49	104	0	60	1048575
2026-01-17 17:57:25.61	336.89	13.28	-83.1	-79.0	2.5	0.00e+00	0	49	104	0	60	1048574
2026-01-17 17:57:26.62	336.93	13.15	-83.1	-79.0	2.4	0.00e+00	0	49	104	0	60	1048574
2026-01-17 17:57:27.63	336.97	13.03	-83.5	-79.0	2.4	0.00e+00	0	49	104	0	60	1048575
2026-01-17 17:57:28.64	337.00	12.91	-83.5	-79.0	2.3	0.00e+00	0	49	104	0	60	1048575
2026-01-17 17:57:29.65	337.04	12.79	-83.5	-79.0	2.4	0.00e+00	0	49	104	0	60	1048567
2026-01-17 17:57:30.65	337.08	12.67	-83.5	-79.0	2.5	0.00e+00	0	49	104	0	60	1048570
2026-01-17 17:57:31.66	337.11	12.55	-82.8	-79.0	2.5	0.00e+00	0	49	104	0	60	1048573
2026-01-17 17:57:32.67	337.15	12.43	-83.5	-79.0	2.4	0.00e+00	0	49	104	0	60	1048574
2026-01-17 17:57:33.68	337.18	12.31	-83.5	-79.0	2.3	0.00e+00	0	49	104	0	60	1048570
2026-01-17 17:57:34.69	337.22	12.19	-83.5	-79.0	2.5	0.00e+00	0	49	104	0	60	1048564
2026-01-17 17:57:35.70	337.25	12.08	-83.1	-79.0	2.3	0.00e+00	0	49	104	0	60	1048573
2026-01-17 17:57:36.70	337.29	11.96	-83.1	-79.0	2.3	0.00e+00	0	49	104	0	60	1048574
2026-01-17 17:57:37.71	337.32	11.85	-83.1	-79.0	2.4	0.00e+00	0	49	104	0	60	1048571
2026-01-17 17:57:38.71	337.36	11.73	-83.5	-79.0	2.5	0.00e+00	0	49	104	0	60	1048573
2026-01-17 17:57:39.72	337.39	11.62	-83.5	-79.0	2.3	0.00e+00	0	49	104	0	60	1048575
2026-01-17 17:57:40.72	337.42	11.51	-83.5	-79.0	2.4	0.00e+00	0	49	104	0	60	1048574
2026-01-17 17:57:41.72	337.46	11.39	-83.1	-79.0	2.4	0.00e+00	0	49	104	0	60	1048575
2026-01-17 17:57:42.73	337.49	11.28	-83.5	-79.0	2.4	0.00e+00	0	49	104	0	60	1048575
2026-01-17 17:57:43.73	337.52	11.17	-83.5	-79.0	2.4	0.00e+00	0	49	104	0	60	1048575
2026-01-17 17:57:44.74	337.55	11.06	-83.5	-79.0	2.4	0.00e+00	0	49	104	0	60	1048575
2026-01-17 17:57:45.75	337.59	10.95	-83.1	-79.0	2.4	0.00e+00	0	49	104	0	60	1048574
2026-01-17 17:57:46.75	337.62	10.84	-83.5	-79.0	2.4	0.00e+00	0	49	104	0	60	1048575
2026-01-17 17:57:47.76	337.65	10.73	-83.5	-79.0	2.4	0.00e+00	0	49	104	0	60	1048575
2026-01-17 17:57:48.77	337.68	10.63	-83.5	-79.0	2.4	0.00e+00	0	49	104	0	60	1048573
2026-01-17 17:57:49.78	337.71	10.52	-83.5	-79.0	2.4	0.00e+00	0	49	104	0	60	1048569
2026-01-17 17:57:50.79	337.74	10.41	-83.1	-79.0	2.3	0.00e+00	0	49	104	0	60	1048571
2026-01-17 17:57:51.79	337.77	10.31	-83.5	-79.0	2.3	0.00e+00	0	49	104	0	60	1048575
2026-01-17 17:57:52.80	337.80	10.20	-83.5	-79.0	2.5	0.00e+00	0	49	104	0	60	1048575
2026-01-17 17:57:53.80	337.83	10.10	-83.5	-79.0	2.4	0.00e+00	0	49	104	0	60	1048572
2026-01-17 17:57:54.81	337.86	9.99	-83.5	-79.0	2.4	0.00e+00	0	49	104	0	60	1048572
2026-01-17 17:57:55.82	337.89	9.89	-82.8	-79.0	2.3	0.00e+00	0	49	104	0	60	1048574
2026-01-17 17:57:56.82	337.92	9.79	-83.5	-79.0	2.4	0.00e+00	0	49	104	0	60	1048575
2026-01-17 17:57:57.83	337.95	9.68	-83.5	-79.0	2.5	0.00e+00	0	49	104	0	60	1048575
2026-01-17 17:57:58.83	337.98	9.58	-83.5	-79.0	2.4	0.00e+00	0	49	104	0	60	1048574
2026-01-17 17:57:59.84	338.01	9.48	-83.1	-79.0	2.4	0.00e+00	0	49	104	0	60	1048574
2026-01-17 17:58:00.85	338.04	9.38	-83.1	-79.0	2.4	0.00e+00	0	49	104	0	60	1048571
2026-01-17 17:58:01.86	338.07	9.28	-83.5	-79.0	2.3	0.00e+00	0	49	104	0	60	1048573
2026-01-17 17:58:02.86	338.10	9.18	-83.5	-79.0	2.4	0.00e+00	0	49	104	0	60	1048571
2026-01-17 17:58:03.87	338.12	9.08	-83.5	-79.0	2.4	0.00e+00	0	49	104	0	60	1048575
2026-01-17 17:58:04.88	338.15	8.98	-83.1	-79.0	2.5	0.00e+00	0	49	104	0	60	1048574
2026-01-17 17:58:05.89	338.18	8.88	-83.5	-79.0	2.4	0.00e+00	0	49	104	0	60	1048573
2026-01-17 17:58:06.90	338.21	8.78	-83.1	-79.0	2.4	0.00e+00	0	49	104	0	60	1048575
2026-01-17 17:58:07.90	338.23	8.69	-83.5	-79.0	2.4	0.00e+00	0	49	104	0	60	1048574
2026-01-17 17:58:08.91	338.26	8.59	-83.1	-79.0	2.4	0.00e+00	0	49	104	0	60	1048572
2026-01-17 17:58:09.92	338.29	8.49	-83.1	-79.0	2.3	0.00e+00	0	49	104	0	60	1048574
2026-01-17 17:58:10.92	338.32	8.40	-83.5	-79.0	2.3	0.00e+00	0	49	104	0	60	1048573
2026-01-17 17:58:11.93	338.34	8.30	-83.5	-79.0	2.4	0.00e+00	0	49	104	0	60	1048574
2026-01-17 17:58:12.93	338.37	8.21	-83.5	-79.0	2.4	0.00e+00	0	49	104	0	60	1048574
2026-01-17 17:58:13.94	338.39	8.12	-83.1	-79.0	2.5	0.00e+00	0	49	104	0	60	1048574
2026-01-17 17:58:14.95	338.42	8.02	-83.5	-79.0	2.5	0.00e+00	0	49	104	0	60	1048574
2026-01-17 17:58:15.95	338.45	7.93	-83.5	-79.0	2.5	0.00e+00	0	49	104	0	60	1048566
2026-01-17 17:58:16.96	338.47	7.83	-83.5	-79.0	2.4	0.00e+00	0	49	104	0	60	1048575
2026-01-17 17:58:17.97	338.50	7.74	-83.5	-79.0	2.5	0.00e+00	0	49	104	0	60	1048567
2026-01-17 17:58:18.97	338.52	7.65	-83.1	-79.0	2.4	0.00e+00	0	49	104	0	60	1048571
2026-01-17 17:58:19.98	338.55	7.56	-83.5	-79.0	2.4	0.00e+00	0	49	104	0	60	1048574
2026-01-17 17:58:20.99	338.57	7.47	-83.5	-79.0	2.4	0.00e+00	0	49	104	0	60	1048571
2026-01-17 17:58:21.99	338.60	7.38	-83.5	-79.0	2.5	0.00e+00	0	49	104	0	60	1048574
2026-01-17 17:58:23.00	338.62	7.29	-83.5	-79.0	2.3	0.00e+00	0	49	104	0	60	1048568
2026-01-17 17:58:24.01	338.65	7.20	-83.1	-79.0	2.4	0.00e+00	0	49	104	0	60	1048573
2026-01-17 17:58:25.01	338.67	7.11	-83.5	-79.0	2.4	0.00e+00	0	49	104	0	60	1048570
2026-01-17 17:58:26.02	338.70	7.02	-83.5	-79.0	2.4	0.00e+00	0	49	104	0	60	1048574
2026-01-17 17:58:27.02	338.72	6.93	-83.5	-79.0	2.4	0.00e+00	0	49	104	0	60	1048564
2026-01-17 17:58:28.03	338.74	6.84	-83.1	-79.0	2.4	0.00e+00	0	49	104	0	60	1048570
2026-01-17 17:58:29.03	338.77	6.75	-83.1	-79.0	2.4	0.00e+00	0	49	104	0	60	1048572
2026-01-17 17:58:30.04	338.79	6.67	-83.1	-79.0	2.5	0.00e+00	0	49	104	0	60	1048572
2026-01-17 17:58:31.05	338.82	6.58	-83.5	-79.0	2.4	0.00e+00	0	49	104	0	60	1048572
2026-01-17 17:58:32.06	338.84	6.49	-83.5	-79.0	2.4	0.00e+00	0	49	104	0	60	1048573
2026-01-17 17:58:33.06	338.86	6.41	-82.8	-79.0	2.3	0.00e+00	0	49	104	0	60	1048573
2026-01-17 17:58:34.07	338.88	6.32	-83.1	-79.0	2.4	0.00e+00	0	49	104	0	60	1048575
2026-01-17 17:58:35.07	338.91	6.23	-83.5	-79.0	2.4	0.00e+00	0	49	104	0	60	1048575
2026-01-17 17:58:36.08	338.93	6.15	-83.5	-79.0	2.4	0.00e+00	0	49	104	0	60	1048575
2026-01-17 17:58:37.09	338.95	6.06	-83.5	-79.0	2.5	0.00e+00	0	49	104	0	60	1048574
2026-01-17 17:58:38.09	338.98	5.98	-82.8	-79.0	2.4	0.00e+00	0	49	104	0	60	1048575
2026-01-17 17:58:39.10	339.00	5.90	-83.1	-79.0	2.3	0.00e+00	0	49	104	0	60	1048575
2026-01-17 17:58:40.11	339.02	5.81	-83.5	-79.0	2.4	0.00e+00	0	49	104	0	60	1048571
2026-01-17 17:58:41.11	339.04	5.73	-83.5	-79.0	2.4	0.00e+00	0	49	104	0	60	1048567
2026-01-17 17:58:42.12	339.06	5.65	-83.5	-79.0	2.4	0.00e+00	0	49	104	0	60	1048575
2026-01-17 17:58:43.12	339.09	5.56	-83.1	-79.0	2.4	0.00e+00	0	49	104	0	60	1048572
2026-01-17 17:58:44.13	339.11	5.48	-83.5	-79.0	2.4	0.00e+00	0	49	104	0	60	1048572
2026-01-17 17:58:45.13	339.13	5.40	-83.5	-79.0	2.3	0.00e+00	0	49	104	0	60	1048575
2026-01-17 17:58:46.14	339.15	5.32	-83.5	-79.0	2.5	0.00e+00	0	49	104	0	60	1048575
2026-01-17 17:58:47.15	339.17	5.24	-83.1	-79.0	2.4	0.00e+00	0	49	104	0	60	1048564
2026-01-17 17:58:48.15	339.19	5.15	-83.1	-79.0	2.4	0.00e+00	0	49	104	0	60	1048572
2026-01-17 17:58:49.16	339.22	5.07	-83.5	-79.0	2.4	0.00e+00	0	49	104	0	60	1048570
2026-01-17 17:58:50.16	339.24	4.99	-83.5	-79.0	2.4	0.00e+00	0	49	104	0	60	1048575
2026-01-17 17:58:51.17	339.26	4.91	-83.5	-79.0	2.5	0.00e+00	0	49	104	0	60	1048572
2026-01-17 17:58:52.18	339.28	4.83	-83.1	-79.0	2.4	0.00e+00	0	49	104	0	60	1048572
2026-01-17 17:58:53.18	339.30	4.75	-83.1	-79.0	2.4	0.00e+00	0	49	104	0	60	1048562
2026-01-17 17:58:54.19	339.32	4.68	-83.5	-79.0	2.5	0.00e+00	0	49	104	0	60	1048575
2026-01-17 17:58:55.20	339.34	4.60	-83.5	-79.0	2.5	0.00e+00	0	49	104	0	60	1048574
2026-01-17 17:58:56.21	339.36	4.52	-83.5	-79.0	2.4	0.00e+00	0	49	104	0	60	1048574
2026-01-17 17:58:57.21	339.38	4.44	-83.1	-79.0	2.4	0.00e+00	0	49	104	0	60	1048569
2026-01-17 17:58:58.22	339.40	4.36	-83.5	-79.0	2.4	0.00e+00	0	49	104	0	60	1048570
2026-01-17 17:58:59.23	339.42	4.28	-83.5	-79.0	2.4	0.00e+00	0	49	104	0	60	1048571
2026-01-17 17:59:00.24	339.44	4.21	-83.5	-79.0	2.4	0.00e+00	0	49	104	0	60	1048560
2026-01-17 17:59:01.25	339.46	4.13	-83.5	-79.0	2.3	0.00e+00	0	49	104	0	60	1048573
2026-01-17 17:59:02.25	339.48	4.05	-83.1	-79.0	2.4	0.00e+00	0	49	104	0	60	1048575
2026-01-17 17:59:03.25	339.50	3.98	-83.5	-79.0	2.3	0.00e+00	0	49	104	0	60	1048575
2026-01-17 17:59:04.26	339.52	3.90	-83.5	-79.0	2.4	0.00e+00	0	49	104	0	60	1048565
2026-01-17 17:59:05.26	339.54	3.82	-83.5	-79.0	2.3	0.00e+00	0	49	104	0	60	1048572
2026-01-17 17:59:06.27	339.56	3.75	-83.1	-79.0	2.4	0.00e+00	0	49	104	0	60	1048575
2026-01-17 17:59:07.27	339.58	3.67	-82.8	-79.0	2.4	0.00e+00	0	49	104	0	60	1048575
2026-01-17 17:59:08.27	339.60	3.60	-83.5	-79.0	2.4	0.00e+00	0	49	104	0	60	1048574
2026-01-17 17:59:09.28	339.62	3.52	-83.5	-79.0	2.5	0.00e+00	0	49	104	0	60	1048573
2026-01-17 17:59:10.29	339.64	3.45	-83.5	-79.0	2.4	0.00e+00	0	49	104	0	60	1048575
2026-01-17 17:59:11.29	339.65	3.38	-83.1	-79.0	2.4	0.00e+00	0	49	104	0	60	1048575
2026-01-17 17:59:12.30	339.67	3.30	-83.5	-79.0	2.3	0.00e+00	0	49	104	0	60	1048575
2026-01-17 17:59:13.31	339.69	3.23	-83.5	-79.0	2.3	0.00e+00	0	49	104	0	60	1048575
2026-01-17 17:59:14.32	339.71	3.15	-83.5	-79.0	2.4	0.00e+00	0	49	104	0	60	1048574
2026-01-17 17:59:15.32	339.73	3.08	-83.5	-79.0	2.4	0.00e+00	0	49	104	0	60	1048572
2026-01-17 17:59:16.32	339.75	3.01	-83.1	-79.0	2.4	0.00e+00	0	49	104	0	60	1048575
2026-01-17 17:59:17.33	339.77	2.93	-83.1	-79.0	2.4	0.00e+00	0	49	104	0	60	1048575
2026-01-17 17:59:18.34	339.78	2.86	-83.5	-79.0	2.3	0.00e+00	0	49	104	0	60	1048574
2026-01-17 17:59:19.34	339.80	2.79	-83.5	-79.0	2.4	0.00e+00	0	49	104	0	60	1048573
2026-01-17 17:59:20.35	339.82	2.72	-83.5	-79.0	2.3	0.00e+00	0	49	104	0	60	1048573
2026-01-17 17:59:21.36	339.84	2.65	-83.1	-79.0	2.4	0.00e+00	0	49	104	0	60	1048571
2026-01-17 17:59:22.36	339.86	2.57	-83.5	-79.0	2.4	0.00e+00	0	49	104	0	60	1048574
2026-01-17 17:59:23.37	339.87	2.50	-83.1	-79.0	2.5	0.00e+00	0	49	104	0	60	1048574
2026-01-17 17:59:24.38	339.89	2.43	-83.5	-79.0	2.4	0.00e+00	0	49	104	0	60	1048572
2026-01-17 17:59:25.38	339.91	2.36	-83.1	-79.0	2.4	0.00e+00	0	49	104	0	60	1048571
2026-01-17 17:59:26.39	339.93	2.29	-83.1	-79.0	2.4	0.00e+00	0	49	104	0	60	1048574
2026-01-17 17:59:27.39	339.94	2.22	-83.5	-79.0	2.4	0.00e+00	0	49	104	0	60	1048573
2026-01-17 17:59:28.40	339.96	2.15	-83.5	-79.0	2.4	0.00e+00	0	49	104	0	60	1048568
2026-01-17 17:59:29.41	339.98	2.08	-83.5	-79.0	2.5	0.00e+00	0	49	104	0	60	1048566
2026-01-17 17:59:30.41	340.00	2.01	-83.1	-79.0	2.4	0.00e+00	0	49	104	0	60	1048575
2026-01-17 17:59:31.42	340.01	1.94	-83.1	-79.0	2.5	0.00e+00	0	49	104	0	60	1048574
2026-01-17 17:59:32.42	340.03	1.87	-83.5	-79.0	2.4	0.00e+00	0	49	104	0	60	1048568
2026-01-17 17:59:33.43	340.05	1.80	-83.5	-79.0	2.4	0.00e+00	0	49	104	0	60	1048573
2026-01-17 17:59:34.43	340.07	1.73	-83.5	-79.0	2.4	0.00e+00	0	49	104	0	60	1048574
2026-01-17 17:59:35.44	340.08	1.67	-82.8	-79.0	2.4	0.00e+00	0	49	104	0	60	1048571
2026-01-17 17:59:36.44	340.10	1.60	-83.5	-79.0	2.4	0.00e+00	0	49	104	0	60	1048575
2026-01-17 17:59:37.44	340.12	1.53	-83.5	-79.0	2.3	0.00e+00	0	49	104	0	60	1048575
2026-01-17 17:59:38.45	340.13	1.46	-83.5	-79.0	2.4	0.00e+00	0	49	104	0	60	1048573
2026-01-17 17:59:39.46	340.15	1.39	-83.1	-79.0	2.4	0.00e+00	0	49	104	0	60	1048575
2026-01-17 17:59:40.47	340.17	1.33	-83.1	-79.0	2.4	0.00e+00	0	49	104	0	60	1048571
2026-01-17 17:59:41.47	340.18	1.26	-83.5	-79.0	2.4	0.00e+00	0	49	104	0	60	1048574
2026-01-17 17:59:42.48	340.20	1.19	-83.5	-79.0	2.5	0.00e+00	0	49	104	0	60	1048564
2026-01-17 17:59:43.48	340.22	1.12	-83.5	-79.0	2.3	0.00e+00	0	49	104	0	60	1048573
2026-01-17 17:59:44.49	340.23	1.06	-83.1	-79.0	2.4	0.00e+00	0	49	104	0	60	1048575
2026-01-17 17:59:45.50	340.25	0.99	-83.1	-79.0	2.4	0.00e+00	0	49	104	0	60	1048571
2026-01-17 17:59:46.50	340.26	0.93	-83.5	-79.0	2.3	0.00e+00	0	49	104	0	60	1048570
2026-01-17 17:59:47.50	340.28	0.86	-83.5	-79.0	2.4	0.00e+00	0	49	104	0	60	1048574
2026-01-17 17:59:48.52	340.30	0.79	-83.5	-79.0	2.3	0.00e+00	0	49	104	0	60	1048572
2026-01-17 17:59:49.52	340.31	0.73	-82.8	-79.0	2.4	0.00e+00	0	49	104	0	60	1048575
2026-01-17 17:59:50.53	340.33	0.66	-83.5	-79.0	2.4	0.00e+00	0	49	104	0	60	1048564
2026-01-17 17:59:51.53	340.34	0.60	-83.5	-79.0	2.4	0.00e+00	0	49	104	0	60	1048575
2026-01-17 17:59:52.54	340.36	0.53	-83.1	-79.0	2.4	0.00e+00	0	49	104	0	60	1048569
2026-01-17 17:59:53.54	340.38	0.47	-83.1	-79.0	2.5	0.00e+00	0	49	104	0	60	1048571
2026-01-17 17:59:54.55	340.39	0.40	-83.1	-79.0	2.4	0.00e+00	0	49	104	0	60	1048569
2026-01-17 17:59:55.55	340.41	0.34	-83.5	-79.0	2.4	0.00e+00	0	49	104	0	60	1048574
2026-01-17 17:59:56.56	340.42	0.27	-83.5	-79.0	2.5	0.00e+00	0	49	104	0	60	1048574
2026-01-17 17:59:57.56	340.44	0.21	-83.5	-79.0	2.4	0.00e+00	0	49	104	0	60	1048572
2026-01-17 17:59:58.56	340.45	0.14	-83.5	-79.0	2.4	0.00e+00	0	49	104	0	60	1048574
2026-01-17 17:59:59.57	340.47	0.08	-83.5	-79.0	2.4	0.00e+00	0	49	104	0	60	1048572
2026-01-17 18:00:00.58	340.48	0.02	-83.5	-79.0	2.4	0.00e+00	0	49	104	0	60	1048572
2026-01-17 18:00:01.59	340.50	-0.05	-83.5	-79.0	2.5	0.00e+00	0	49	104	0	60	1048565

#Closed at: 2026-01-17 18:00:01
#Recorded file [0 MB]: D:/Data/35015_260117_204821.dat