passes_logs/2026/01/17/R3.2S-Naryan-Mar/R3.2S-Naryan-Mar__20260117_190429_TY-41_rec.log

#Pass ID: 20260117_190429_TY-41
#Satellite: TY-41
#Configuration: TY-39
#almurnet v.1.7.20240730
#Start time: 2026-01-17 19:04:30

#Version: 2.2.20231116
#Station: R3.2S-Naryan-Mar
#Location: 53.008057 lon 67.646978 lat
#TLE: 1 61231U 24173E   26017.08983796  .00008010  00000-0  38191-3 0 09990
#TLE: 2 61231 097.4122 092.0846 0001831 091.8622 061.7654 15.19167953 72814

#Time	Az	El	Level	Level2	SNR	BER	BlckErr	Temp	State	Recorded	gain1	gain2
2026-01-17 19:04:30.30	201.05	0.02	-83.1	-79.0	2.3	0.00e+00	0	44	0	0	60	1048575
2026-01-17 19:04:31.30	201.13	0.08	-82.8	-79.0	2.7	0.00e+00	0	46	104	0	60	1048574
2026-01-17 19:04:32.31	201.20	0.14	-83.5	-79.0	2.5	0.00e+00	0	46	104	0	60	1048573
2026-01-17 19:04:33.30	201.27	0.20	-83.5	-79.0	2.5	0.00e+00	0	46	104	0	60	1048575
2026-01-17 19:04:34.31	201.34	0.26	-83.5	-79.0	2.4	0.00e+00	0	46	104	0	60	1048568
2026-01-17 19:04:35.32	201.41	0.32	-83.1	-79.0	2.6	0.00e+00	0	46	104	0	60	1048574
2026-01-17 19:04:36.32	201.48	0.38	-83.5	-79.0	2.5	0.00e+00	0	46	104	0	60	1048572
2026-01-17 19:04:37.33	201.56	0.44	-83.5	-79.0	2.5	0.00e+00	0	46	104	0	60	1048575
2026-01-17 19:04:38.34	201.63	0.50	-83.5	-79.0	2.5	0.00e+00	0	46	104	0	60	1048570
2026-01-17 19:04:39.35	201.70	0.56	-83.5	-79.0	2.5	0.00e+00	0	46	104	0	60	1048571
2026-01-17 19:04:40.35	201.78	0.61	-82.8	-79.0	2.4	0.00e+00	0	46	104	0	60	1048574
2026-01-17 19:04:41.36	201.85	0.67	-83.1	-79.0	2.4	0.00e+00	0	46	104	0	60	1048575
2026-01-17 19:04:42.37	201.93	0.74	-83.1	-79.0	2.3	0.00e+00	0	46	104	0	60	1048573
2026-01-17 19:04:43.37	202.00	0.80	-83.5	-79.0	2.6	0.00e+00	0	46	104	0	60	1048570
2026-01-17 19:04:44.38	202.08	0.86	-83.1	-79.0	2.4	0.00e+00	0	46	104	0	60	1048560
2026-01-17 19:04:45.39	202.15	0.92	-83.1	-79.0	2.7	0.00e+00	0	46	104	0	60	1048574
2026-01-17 19:04:46.39	202.23	0.98	-83.5	-79.0	2.5	0.00e+00	0	46	104	0	60	1048574
2026-01-17 19:04:47.40	202.31	1.04	-83.5	-79.0	2.4	0.00e+00	0	46	104	0	60	1048570
2026-01-17 19:04:48.40	202.38	1.10	-83.5	-79.0	2.3	0.00e+00	0	46	104	0	60	1048574
2026-01-17 19:04:49.41	202.46	1.16	-83.5	-79.0	2.4	0.00e+00	0	46	104	0	60	1048561
2026-01-17 19:04:50.42	202.54	1.22	-83.1	-79.0	2.4	0.00e+00	0	47	104	0	60	1048575
2026-01-17 19:04:51.42	202.62	1.28	-83.5	-79.0	2.5	0.00e+00	0	46	104	0	60	1048573
2026-01-17 19:04:52.43	202.70	1.34	-83.5	-79.0	2.4	0.00e+00	0	46	104	0	60	1048575
2026-01-17 19:04:53.43	202.77	1.40	-83.5	-79.0	2.4	0.00e+00	0	46	104	0	60	1048574
2026-01-17 19:04:54.44	202.85	1.47	-82.8	-79.0	2.4	0.00e+00	0	47	104	0	60	1048573
2026-01-17 19:04:55.45	202.93	1.53	-83.1	-79.0	2.6	0.00e+00	0	47	104	0	60	1048569
2026-01-17 19:04:56.46	203.01	1.59	-83.5	-79.0	2.5	0.00e+00	0	47	104	0	60	1048573
2026-01-17 19:04:57.46	203.09	1.65	-83.5	-79.0	2.4	0.00e+00	0	47	104	0	60	1048568
2026-01-17 19:04:58.47	203.18	1.72	-83.5	-79.0	2.5	0.00e+00	0	47	104	0	60	1048575
2026-01-17 19:04:59.48	203.26	1.78	-83.1	-79.0	2.4	0.00e+00	0	47	104	0	60	1048575
2026-01-17 19:05:00.49	203.34	1.84	-83.1	-79.0	2.6	0.00e+00	0	47	104	0	60	1048572
2026-01-17 19:05:01.50	203.42	1.90	-83.5	-79.0	2.4	0.00e+00	0	47	104	0	60	1048573
2026-01-17 19:05:02.50	203.50	1.97	-83.5	-79.0	2.7	0.00e+00	0	47	104	0	60	1048575
2026-01-17 19:05:03.51	203.59	2.03	-83.1	-79.0	2.5	0.00e+00	0	47	104	0	60	1048570
2026-01-17 19:05:04.52	203.67	2.09	-83.1	-79.0	2.4	0.00e+00	0	47	104	0	60	1048574
2026-01-17 19:05:05.52	203.76	2.16	-83.5	-79.0	2.6	0.00e+00	0	47	104	0	60	1048569
2026-01-17 19:05:06.53	203.84	2.22	-83.5	-79.0	2.4	0.00e+00	0	47	104	0	60	1048575
2026-01-17 19:05:07.53	203.92	2.28	-83.5	-79.0	2.6	0.00e+00	0	47	104	0	60	1048573
2026-01-17 19:05:08.53	204.01	2.35	-83.1	-79.0	2.4	0.00e+00	0	47	104	0	60	1048575
2026-01-17 19:05:09.54	204.10	2.41	-83.5	-79.0	2.4	0.00e+00	0	47	104	0	60	1048573
2026-01-17 19:05:10.55	204.18	2.47	-83.5	-79.0	2.5	0.00e+00	0	47	104	0	60	1048575
2026-01-17 19:05:11.56	204.27	2.54	-83.1	-79.0	2.4	0.00e+00	0	47	104	0	60	1048575
2026-01-17 19:05:12.56	204.36	2.60	-83.5	-79.0	2.5	0.00e+00	0	47	104	0	60	1048575
2026-01-17 19:05:13.57	204.44	2.67	-83.1	-79.0	2.4	0.00e+00	0	47	104	0	60	1048574
2026-01-17 19:05:14.57	204.53	2.73	-83.5	-79.0	2.3	0.00e+00	0	47	104	0	60	1048561
2026-01-17 19:05:15.58	204.62	2.80	-83.5	-79.0	2.4	0.00e+00	0	47	104	0	60	1048570
2026-01-17 19:05:16.59	204.71	2.86	-83.5	-79.0	2.2	0.00e+00	0	47	104	0	60	1048574
2026-01-17 19:05:17.60	204.80	2.93	-83.5	-79.0	2.4	0.00e+00	0	47	104	0	60	1048560
2026-01-17 19:05:18.60	204.89	2.99	-82.8	-79.0	2.5	0.00e+00	0	47	104	0	60	1048575
2026-01-17 19:05:19.61	204.98	3.06	-83.5	-79.0	2.5	0.00e+00	0	47	104	0	60	1048575
2026-01-17 19:05:20.62	205.07	3.12	-83.5	-79.0	2.5	0.00e+00	0	47	104	0	60	1048575
2026-01-17 19:05:21.63	205.16	3.19	-83.5	-79.0	2.4	0.00e+00	0	47	104	0	60	1048573
2026-01-17 19:05:22.63	205.25	3.25	-83.5	-79.0	2.5	0.00e+00	0	47	104	0	60	1048575
2026-01-17 19:05:23.64	205.35	3.32	-83.1	-79.0	2.4	0.00e+00	0	47	104	0	60	1048567
2026-01-17 19:05:24.65	205.44	3.39	-83.5	-79.0	2.7	0.00e+00	0	47	104	0	60	1048568
2026-01-17 19:05:25.65	205.53	3.45	-83.5	-79.0	2.4	0.00e+00	0	47	104	0	60	1048573
2026-01-17 19:05:26.66	205.63	3.52	-83.5	-79.0	2.4	0.00e+00	0	47	104	0	60	1048575
2026-01-17 19:05:27.66	205.72	3.58	-83.1	-79.0	2.4	0.00e+00	0	47	104	0	60	1048572
2026-01-17 19:05:28.66	205.81	3.65	-83.1	-79.0	2.4	0.00e+00	0	47	104	0	60	1048573
2026-01-17 19:05:29.67	205.91	3.72	-83.1	-79.0	2.5	0.00e+00	0	47	104	0	60	1048575
2026-01-17 19:05:30.67	206.01	3.78	-83.5	-79.0	2.6	0.00e+00	0	47	104	0	60	1048572
2026-01-17 19:05:31.68	206.10	3.85	-83.5	-79.0	2.5	0.00e+00	0	47	104	0	60	1048574
2026-01-17 19:05:32.69	206.20	3.92	-83.1	-79.0	2.5	0.00e+00	0	47	104	0	60	1048573
2026-01-17 19:05:33.69	206.30	3.99	-83.1	-79.0	2.7	0.00e+00	0	47	104	0	60	1048574
2026-01-17 19:05:34.70	206.40	4.06	-83.5	-79.0	2.2	0.00e+00	0	47	104	0	60	1048574
2026-01-17 19:05:35.71	206.49	4.12	-83.5	-79.0	2.5	0.00e+00	0	47	104	0	60	1048571
2026-01-17 19:05:36.72	206.59	4.19	-83.1	-79.0	2.5	0.00e+00	0	47	104	0	60	1048575
2026-01-17 19:05:37.73	206.69	4.26	-83.1	-79.0	2.4	0.00e+00	0	47	104	0	60	1048570
2026-01-17 19:05:38.73	206.79	4.33	-83.5	-79.0	2.4	0.00e+00	0	47	104	0	60	1048574
2026-01-17 19:05:39.74	206.90	4.40	-83.5	-79.0	2.4	0.00e+00	0	47	104	0	60	1048572
2026-01-17 19:05:40.74	207.00	4.47	-83.5	-79.0	2.5	0.00e+00	0	47	104	0	60	1048575
2026-01-17 19:05:41.75	207.10	4.53	-82.8	-79.0	2.3	0.00e+00	0	47	104	0	60	1048573
2026-01-17 19:05:42.76	207.20	4.60	-83.1	-79.0	2.4	0.00e+00	0	47	104	0	60	1048573
2026-01-17 19:05:43.77	207.31	4.67	-83.5	-79.0	2.4	0.00e+00	0	47	104	0	60	1048570
2026-01-17 19:05:44.77	207.41	4.74	-83.5	-79.0	2.5	0.00e+00	0	47	104	0	60	1048575
2026-01-17 19:05:45.78	207.51	4.81	-83.5	-79.0	2.4	0.00e+00	0	47	104	0	60	1048571
2026-01-17 19:05:46.79	207.62	4.88	-83.1	-79.0	2.5	0.00e+00	0	47	104	0	60	1048575
2026-01-17 19:05:47.80	207.73	4.95	-83.5	-79.0	2.5	0.00e+00	0	48	104	0	60	1048574
2026-01-17 19:05:48.81	207.83	5.02	-83.5	-79.0	2.3	0.00e+00	0	48	104	0	60	1048575
2026-01-17 19:05:49.81	207.94	5.09	-83.5	-79.0	2.4	0.00e+00	0	48	104	0	60	1048567
2026-01-17 19:05:50.82	208.05	5.16	-83.5	-79.0	2.4	0.00e+00	0	48	104	0	60	1048575
2026-01-17 19:05:51.83	208.16	5.23	-83.1	-79.0	2.5	0.00e+00	0	48	104	0	60	1048573
2026-01-17 19:05:52.84	208.26	5.31	-83.5	-79.0	2.5	0.00e+00	0	47	104	0	60	1048570
2026-01-17 19:05:53.85	208.37	5.38	-83.5	-79.0	2.5	0.00e+00	0	48	104	0	60	1048575
2026-01-17 19:05:54.86	208.49	5.45	-83.5	-79.0	2.3	0.00e+00	0	48	104	0	60	1048569
2026-01-17 19:05:55.86	208.60	5.52	-83.5	-79.0	2.6	0.00e+00	0	48	104	0	60	1048572
2026-01-17 19:05:56.87	208.71	5.59	-83.1	-79.0	2.3	0.00e+00	0	48	104	0	60	1048572
2026-01-17 19:05:57.88	208.82	5.66	-83.5	-79.0	2.7	0.00e+00	0	48	104	0	60	1048560
2026-01-17 19:05:58.88	208.93	5.73	-83.5	-79.0	2.4	0.00e+00	0	48	104	0	60	1048573
2026-01-17 19:05:59.89	209.05	5.81	-83.5	-79.0	2.5	0.00e+00	0	48	104	0	60	1048569
2026-01-17 19:06:00.89	209.16	5.88	-82.8	-79.0	2.4	0.00e+00	0	48	104	0	60	1048566
2026-01-17 19:06:01.90	209.27	5.95	-83.5	-79.0	2.3	0.00e+00	0	48	104	0	60	1048575
2026-01-17 19:06:02.91	209.39	6.02	-83.5	-79.0	2.5	0.00e+00	0	47	104	0	60	1048571
2026-01-17 19:06:03.92	209.51	6.10	-83.5	-79.0	2.3	0.00e+00	0	48	104	0	60	1048574
2026-01-17 19:06:04.93	209.62	6.17	-83.5	-79.0	2.4	0.00e+00	0	48	104	0	60	1048567
2026-01-17 19:06:05.93	209.74	6.24	-83.1	-79.0	2.4	0.00e+00	0	48	104	0	60	1048575
2026-01-17 19:06:06.94	209.86	6.32	-83.5	-79.0	2.5	0.00e+00	0	48	104	0	60	1048570
2026-01-17 19:06:07.95	209.98	6.39	-83.5	-79.0	2.3	0.00e+00	0	48	104	0	60	1048572
2026-01-17 19:06:08.95	210.10	6.47	-83.5	-79.0	2.5	0.00e+00	0	48	104	0	60	1048575
2026-01-17 19:06:09.96	210.22	6.54	-83.5	-79.0	2.4	0.00e+00	0	48	104	0	60	1048575
2026-01-17 19:06:10.96	210.34	6.61	-82.8	-79.0	2.5	0.00e+00	0	48	104	0	60	1048575
2026-01-17 19:06:11.97	210.46	6.69	-83.5	-79.0	2.4	0.00e+00	0	48	104	0	60	1048571
2026-01-17 19:06:12.97	210.59	6.76	-83.5	-79.0	2.4	0.00e+00	0	48	104	0	60	1048575
2026-01-17 19:06:13.97	210.71	6.84	-83.5	-79.0	2.4	0.00e+00	0	48	104	0	60	1048567
2026-01-17 19:06:14.98	210.83	6.91	-83.1	-79.0	2.4	0.00e+00	0	48	104	0	60	1048575
2026-01-17 19:06:15.98	210.96	6.99	-83.1	-79.0	2.4	0.00e+00	0	48	104	0	60	1048573
2026-01-17 19:06:16.99	211.08	7.06	-83.5	-79.0	2.4	0.00e+00	0	48	104	0	60	1048572
2026-01-17 19:06:18.00	211.21	7.14	-83.5	-79.0	2.5	0.00e+00	0	48	104	0	60	1048574
2026-01-17 19:06:19.00	211.34	7.21	-83.5	-79.0	2.4	0.00e+00	0	48	104	0	60	1048575
2026-01-17 19:06:20.01	211.47	7.29	-83.5	-79.0	2.4	0.00e+00	0	48	104	0	60	1048574
2026-01-17 19:06:21.02	211.60	7.37	-83.1	-79.0	2.4	0.00e+00	0	48	104	0	60	1048572
2026-01-17 19:06:22.03	211.73	7.44	-83.5	-79.0	2.5	0.00e+00	0	48	104	0	60	1048575
2026-01-17 19:06:23.03	211.86	7.52	-83.5	-79.0	2.3	0.00e+00	0	48	104	0	60	1048573
2026-01-17 19:06:24.04	211.99	7.60	-83.5	-79.0	2.3	0.00e+00	0	48	104	0	60	1048568
2026-01-17 19:06:25.05	212.12	7.67	-83.1	-79.0	2.7	0.00e+00	0	48	104	0	60	1048568
2026-01-17 19:06:26.05	212.25	7.75	-83.5	-79.0	2.2	0.00e+00	0	48	104	0	60	1048569
2026-01-17 19:06:27.06	212.39	7.83	-83.5	-79.0	2.6	0.00e+00	0	48	104	0	60	1048563
2026-01-17 19:06:28.06	212.52	7.90	-83.5	-79.0	2.4	0.00e+00	0	48	104	0	60	1048574
2026-01-17 19:06:29.07	212.66	7.98	-83.5	-79.0	2.3	0.00e+00	0	48	104	0	60	1048575
2026-01-17 19:06:30.07	212.79	8.06	-83.1	-79.0	2.7	0.00e+00	0	48	104	0	60	1048574
2026-01-17 19:06:31.07	212.93	8.14	-83.5	-79.0	2.4	0.00e+00	0	48	104	0	60	1048572
2026-01-17 19:06:32.08	213.07	8.22	-83.5	-79.0	2.5	0.00e+00	0	48	104	0	60	1048570
2026-01-17 19:06:33.08	213.21	8.29	-83.5	-79.0	2.5	0.00e+00	0	48	104	0	60	1048573
2026-01-17 19:06:34.08	213.35	8.37	-82.8	-79.0	2.5	0.00e+00	0	48	104	0	60	1048575
2026-01-17 19:06:35.09	213.49	8.45	-82.8	-79.0	2.4	0.00e+00	0	48	104	0	60	1048574
2026-01-17 19:06:36.10	213.63	8.53	-83.5	-79.0	2.5	0.00e+00	0	48	104	0	60	1048568
2026-01-17 19:06:37.11	213.77	8.61	-83.5	-79.0	2.7	0.00e+00	0	48	104	0	60	1048574
2026-01-17 19:06:38.11	213.92	8.69	-83.5	-79.0	2.5	0.00e+00	0	48	104	0	60	1048571
2026-01-17 19:06:39.12	214.06	8.77	-83.1	-79.0	2.5	0.00e+00	0	48	104	0	60	1048572
2026-01-17 19:06:40.13	214.21	8.85	-83.1	-79.0	2.3	0.00e+00	0	48	104	0	60	1048575
2026-01-17 19:06:41.13	214.35	8.93	-83.5	-79.0	2.4	0.00e+00	0	48	104	0	60	1048569
2026-01-17 19:06:42.14	214.50	9.01	-83.5	-79.0	2.4	0.00e+00	0	48	104	0	60	1048575
2026-01-17 19:06:43.15	214.65	9.09	-83.5	-79.0	2.5	0.00e+00	0	48	104	0	60	1048570
2026-01-17 19:06:44.16	214.80	9.17	-83.1	-79.0	2.5	0.00e+00	0	48	104	0	60	1048566
2026-01-17 19:06:45.16	214.95	9.25	-83.5	-79.0	2.4	0.00e+00	0	48	104	0	60	1048575
2026-01-17 19:06:46.17	215.10	9.34	-83.5	-79.0	2.6	0.00e+00	0	48	104	0	60	1048574
2026-01-17 19:06:47.18	215.26	9.42	-83.5	-79.0	2.4	0.00e+00	0	48	104	0	60	1048572
2026-01-17 19:06:48.19	215.41	9.50	-83.1	-79.0	2.4	0.00e+00	0	48	104	0	60	1048568
2026-01-17 19:06:49.19	215.57	9.58	-83.1	-79.0	2.5	0.00e+00	0	48	104	0	60	1048574
2026-01-17 19:06:50.20	215.72	9.66	-83.5	-79.0	2.4	0.00e+00	0	48	104	0	60	1048574
2026-01-17 19:06:51.20	215.88	9.74	-83.5	-79.0	2.4	0.00e+00	0	48	104	0	60	1048566
2026-01-17 19:06:52.21	216.04	9.83	-83.1	-79.0	2.4	0.00e+00	0	48	104	0	60	1048571
2026-01-17 19:06:53.21	216.19	9.91	-83.1	-79.0	2.5	0.00e+00	0	48	104	0	60	1048571
2026-01-17 19:06:54.22	216.35	9.99	-83.5	-79.0	2.6	0.00e+00	0	48	104	0	60	1048570
2026-01-17 19:06:55.22	216.51	10.07	-83.5	-79.0	2.5	0.00e+00	0	48	104	0	60	1048568
2026-01-17 19:06:56.23	216.68	10.16	-83.5	-79.0	2.5	0.00e+00	0	48	104	0	60	1048574
2026-01-17 19:06:57.24	216.84	10.24	-83.5	-79.0	2.5	0.00e+00	0	48	104	0	60	1048575
2026-01-17 19:06:58.25	217.01	10.33	-83.1	-79.0	2.5	0.00e+00	0	48	104	0	60	1048572
2026-01-17 19:06:59.25	217.17	10.41	-83.5	-79.0	2.3	0.00e+00	0	48	104	0	60	1048561
2026-01-17 19:07:00.26	217.34	10.49	-83.5	-79.0	2.4	0.00e+00	0	48	104	0	60	1048574
2026-01-17 19:07:01.26	217.50	10.58	-83.5	-79.0	2.6	0.00e+00	0	48	104	0	60	1048572
2026-01-17 19:07:02.27	217.67	10.66	-83.5	-79.0	2.5	0.00e+00	0	48	104	0	60	1048570
2026-01-17 19:07:03.28	217.84	10.75	-82.8	-79.0	2.7	0.00e+00	0	48	104	0	60	1048574
2026-01-17 19:07:04.28	218.01	10.83	-83.5	-79.0	2.4	0.00e+00	0	48	104	0	60	1048571
2026-01-17 19:07:05.29	218.19	10.92	-83.5	-79.0	2.6	0.00e+00	0	48	104	0	60	1048572
2026-01-17 19:07:06.30	218.36	11.00	-83.5	-79.0	2.4	0.00e+00	0	48	104	0	60	1048573
2026-01-17 19:07:07.30	218.53	11.09	-83.1	-79.0	2.3	0.00e+00	0	48	104	0	60	1048575
2026-01-17 19:07:08.30	218.71	11.17	-83.1	-79.0	2.4	0.00e+00	0	48	104	0	60	1048574
2026-01-17 19:07:09.31	218.89	11.26	-83.5	-79.0	2.2	0.00e+00	0	48	104	0	60	1048570
2026-01-17 19:07:10.32	219.07	11.34	-83.5	-79.0	2.4	0.00e+00	0	48	104	0	60	1048570
2026-01-17 19:07:11.33	219.25	11.43	-83.5	-79.0	2.4	0.00e+00	0	48	104	0	60	1048567
2026-01-17 19:07:12.33	219.43	11.52	-83.1	-79.0	2.4	0.00e+00	0	48	104	0	60	1048574
2026-01-17 19:07:13.34	219.61	11.60	-83.1	-79.0	2.4	0.00e+00	0	48	104	0	60	1048575
2026-01-17 19:07:14.35	219.79	11.69	-83.5	-79.0	2.3	0.00e+00	0	48	104	0	60	1048566
2026-01-17 19:07:15.35	219.98	11.77	-83.5	-79.0	2.5	0.00e+00	0	48	104	0	60	1048575
2026-01-17 19:07:16.36	220.16	11.86	-83.5	-79.0	2.4	0.00e+00	0	48	104	0	60	1048574
2026-01-17 19:07:17.37	220.35	11.95	-83.1	-79.0	2.5	0.00e+00	0	48	104	0	60	1048572
2026-01-17 19:07:18.37	220.54	12.04	-83.5	-79.0	2.3	0.00e+00	0	48	104	0	60	1048573
2026-01-17 19:07:19.38	220.73	12.12	-83.5	-79.0	2.4	0.00e+00	0	48	104	0	60	1048575
2026-01-17 19:07:20.39	220.92	12.21	-83.5	-79.0	2.4	0.00e+00	0	48	104	0	60	1048573
2026-01-17 19:07:21.39	221.11	12.30	-83.1	-79.0	2.4	0.00e+00	0	48	104	0	60	1048574
2026-01-17 19:07:22.40	221.31	12.39	-83.1	-79.0	2.4	0.00e+00	0	48	104	0	60	1048573
2026-01-17 19:07:23.41	221.50	12.48	-83.5	-79.0	2.5	0.00e+00	0	48	104	0	60	1048574
2026-01-17 19:07:24.41	221.70	12.56	-83.5	-79.0	2.4	0.00e+00	0	48	104	0	60	1048570
2026-01-17 19:07:25.41	221.89	12.65	-83.5	-79.0	2.3	0.00e+00	0	48	104	0	60	1048570
2026-01-17 19:07:26.42	222.09	12.74	-83.1	-79.0	2.4	0.00e+00	0	48	104	0	60	1048574
2026-01-17 19:07:27.43	222.29	12.83	-83.1	-79.0	2.4	0.00e+00	0	48	104	0	60	1048575
2026-01-17 19:07:28.43	222.50	12.92	-83.5	-79.0	2.5	0.00e+00	0	48	104	0	60	1048573
2026-01-17 19:07:29.44	222.70	13.01	-83.5	-79.0	2.4	0.00e+00	0	48	104	0	60	1048573
2026-01-17 19:07:30.45	222.91	13.10	-83.5	-79.0	2.5	0.00e+00	0	48	104	0	60	1048574
2026-01-17 19:07:31.45	223.11	13.18	-83.1	-79.0	2.5	0.00e+00	0	48	104	0	60	1048573
2026-01-17 19:07:32.46	223.32	13.27	-83.5	-79.0	2.5	0.00e+00	0	48	104	0	60	1048572
2026-01-17 19:07:33.46	223.53	13.36	-83.5	-79.0	2.6	0.00e+00	0	48	104	0	60	1048573
2026-01-17 19:07:34.47	223.74	13.45	-83.5	-79.0	2.5	0.00e+00	0	48	104	0	60	1048575
2026-01-17 19:07:35.48	223.95	13.54	-83.5	-79.0	2.7	0.00e+00	0	48	104	0	60	1048573
2026-01-17 19:07:36.49	224.17	13.63	-83.1	-79.0	2.5	0.00e+00	0	48	104	0	60	1048575
2026-01-17 19:07:37.49	224.38	13.72	-83.5	-79.0	2.4	0.00e+00	0	48	104	0	60	1048575
2026-01-17 19:07:38.50	224.60	13.81	-83.5	-79.0	2.5	0.00e+00	0	48	104	0	60	1048575
2026-01-17 19:07:39.50	224.81	13.90	-83.5	-79.0	2.4	0.00e+00	0	48	104	0	60	1048566
2026-01-17 19:07:40.51	225.04	13.99	-83.5	-79.0	2.4	0.00e+00	0	48	104	0	60	1048573
2026-01-17 19:07:41.52	225.26	14.08	-83.1	-79.0	2.4	0.00e+00	0	48	104	0	60	1048575
2026-01-17 19:07:42.52	225.48	14.17	-83.5	-79.0	2.4	0.00e+00	0	48	104	0	60	1048574
2026-01-17 19:07:43.53	225.70	14.26	-83.5	-79.0	2.4	0.00e+00	0	48	104	0	60	1048573
2026-01-17 19:07:44.54	225.93	14.35	-83.5	-79.0	2.5	0.00e+00	0	48	104	0	60	1048575
2026-01-17 19:07:45.55	226.16	14.45	-83.1	-79.0	2.5	0.00e+00	0	48	104	0	60	1048574
2026-01-17 19:07:46.56	226.39	14.54	-83.1	-79.0	2.3	0.00e+00	0	48	104	0	60	1048567
2026-01-17 19:07:47.57	226.62	14.63	-83.5	-79.0	2.4	0.00e+00	0	48	104	0	60	1048574
2026-01-17 19:07:48.58	226.86	14.72	-83.5	-79.0	2.4	0.00e+00	0	48	104	0	60	1048571
2026-01-17 19:07:49.58	227.09	14.81	-83.5	-79.0	2.5	0.00e+00	0	48	104	0	60	1048573
2026-01-17 19:07:50.59	227.33	14.90	-82.8	-79.0	2.5	0.00e+00	0	48	104	0	60	1048575
2026-01-17 19:07:51.59	227.56	14.99	-83.1	-79.0	2.4	0.00e+00	0	48	104	0	60	1048575
2026-01-17 19:07:52.60	227.80	15.08	-83.5	-79.0	2.6	0.00e+00	0	48	104	0	60	1048575
2026-01-17 19:07:53.61	228.04	15.17	-83.5	-79.0	2.4	0.00e+00	0	48	104	0	60	1048574
2026-01-17 19:07:54.61	228.28	15.26	-83.1	-79.0	2.6	0.00e+00	0	48	104	0	60	1048574
2026-01-17 19:07:55.62	228.53	15.35	-82.8	-79.0	2.4	0.00e+00	0	48	104	0	60	1048572
2026-01-17 19:07:56.63	228.78	15.45	-83.5	-79.0	2.3	0.00e+00	0	48	104	0	60	1048572
2026-01-17 19:07:57.64	229.03	15.54	-83.5	-79.0	2.4	0.00e+00	0	48	104	0	60	1048575
2026-01-17 19:07:58.64	229.27	15.63	-83.5	-79.0	2.4	0.00e+00	0	48	104	0	60	1048574
2026-01-17 19:07:59.65	229.53	15.72	-83.1	-79.0	2.5	0.00e+00	0	48	104	0	60	1048575
2026-01-17 19:08:00.66	229.78	15.81	-83.5	-79.0	2.5	0.00e+00	0	48	104	0	60	1048574
2026-01-17 19:08:01.66	230.03	15.90	-83.5	-79.0	2.4	0.00e+00	0	48	104	0	60	1048569
2026-01-17 19:08:02.67	230.29	15.99	-83.1	-79.0	2.5	0.00e+00	0	48	104	0	60	1048574
2026-01-17 19:08:03.68	230.55	16.08	-83.5	-79.0	2.5	0.00e+00	0	48	104	0	60	1048573
2026-01-17 19:08:04.69	230.81	16.17	-83.1	-79.0	2.5	0.00e+00	0	48	104	0	60	1048575
2026-01-17 19:08:05.70	231.07	16.26	-83.1	-79.0	2.3	0.00e+00	0	48	104	0	60	1048567
2026-01-17 19:08:06.71	231.34	16.36	-83.1	-79.0	2.4	0.00e+00	0	48	104	0	60	1048574
2026-01-17 19:08:07.71	231.60	16.45	-83.5	-79.0	2.4	0.00e+00	0	48	104	0	60	1048573
2026-01-17 19:08:08.71	231.87	16.54	-83.1	-79.0	2.4	0.00e+00	0	48	104	0	60	1048569
2026-01-17 19:08:09.72	232.14	16.63	-83.1	-79.0	2.6	0.00e+00	0	48	104	0	60	1048575
2026-01-17 19:08:10.72	232.41	16.72	-83.5	-79.0	2.5	0.00e+00	0	48	104	0	60	1048575
2026-01-17 19:08:11.73	232.68	16.81	-83.5	-79.0	2.4	0.00e+00	0	48	104	0	60	1048575
2026-01-17 19:08:12.73	232.95	16.90	-83.5	-79.0	2.5	0.00e+00	0	48	104	0	60	1048566
2026-01-17 19:08:13.74	233.23	16.99	-83.5	-79.0	2.5	0.00e+00	0	48	104	0	60	1048571
2026-01-17 19:08:14.74	233.51	17.07	-83.1	-79.0	2.5	0.00e+00	0	48	104	0	60	1048571
2026-01-17 19:08:15.75	233.79	17.16	-83.5	-79.0	2.4	0.00e+00	0	48	104	0	60	1048571
2026-01-17 19:08:16.76	234.07	17.25	-83.5	-79.0	2.7	0.00e+00	0	49	104	0	60	1048574
2026-01-17 19:08:17.77	234.36	17.34	-83.5	-79.0	2.4	0.00e+00	0	48	104	0	60	1048572
2026-01-17 19:08:18.77	234.64	17.43	-83.1	-79.0	2.5	0.00e+00	0	48	104	0	60	1048573
2026-01-17 19:08:19.78	234.93	17.52	-82.8	-79.0	2.4	0.00e+00	0	48	104	0	60	1048566
2026-01-17 19:08:20.79	235.22	17.61	-83.5	-79.0	2.6	0.00e+00	0	49	104	0	60	1048575
2026-01-17 19:08:21.80	235.52	17.70	-83.5	-79.0	2.7	0.00e+00	0	49	104	0	60	1048575
2026-01-17 19:08:22.81	235.81	17.79	-83.5	-79.0	2.2	0.00e+00	0	49	104	0	60	1048567
2026-01-17 19:08:23.81	236.11	17.87	-83.1	-79.0	2.8	0.00e+00	0	49	104	0	60	1048572
2026-01-17 19:08:24.82	236.40	17.96	-83.5	-79.0	2.5	0.00e+00	0	48	104	0	60	1048573
2026-01-17 19:08:25.83	236.71	18.05	-83.5	-79.0	2.3	0.00e+00	0	48	104	0	60	1048573
2026-01-17 19:08:26.84	237.01	18.14	-83.5	-79.0	2.5	0.00e+00	0	48	104	0	60	1048574
2026-01-17 19:08:27.84	237.31	18.22	-83.1	-79.0	2.5	0.00e+00	0	48	104	0	60	1048573
2026-01-17 19:08:28.84	237.61	18.31	-83.1	-79.0	2.3	0.00e+00	0	48	104	0	60	1048573
2026-01-17 19:08:29.85	237.92	18.39	-83.5	-79.0	2.3	0.00e+00	0	48	104	0	60	1048573
2026-01-17 19:08:30.85	238.23	18.48	-83.5	-79.0	2.4	0.00e+00	0	48	104	0	60	1048574
2026-01-17 19:08:31.86	238.54	18.56	-83.1	-79.0	2.4	0.00e+00	0	48	104	0	60	1048575
2026-01-17 19:08:32.86	238.85	18.65	-83.5	-79.0	2.4	0.00e+00	0	48	104	0	60	1048574
2026-01-17 19:08:33.87	239.17	18.73	-83.1	-79.0	2.4	0.00e+00	0	48	104	0	60	1048575
2026-01-17 19:08:34.87	239.49	18.82	-83.5	-79.0	2.4	0.00e+00	0	49	104	0	60	1048572
2026-01-17 19:08:35.88	239.81	18.90	-83.5	-79.0	2.5	0.00e+00	0	49	104	0	60	1048572
2026-01-17 19:08:36.89	240.13	18.98	-83.5	-79.0	2.5	0.00e+00	0	48	104	0	60	1048575
2026-01-17 19:08:37.90	240.45	19.07	-83.1	-79.0	2.5	0.00e+00	0	48	104	0	60	1048571
2026-01-17 19:08:38.91	240.78	19.15	-83.5	-79.0	2.4	0.00e+00	0	49	104	0	60	1048575
2026-01-17 19:08:39.91	241.10	19.23	-83.5	-79.0	2.4	0.00e+00	0	49	104	0	60	1048574
2026-01-17 19:08:40.91	241.43	19.31	-83.5	-79.0	2.6	0.00e+00	0	49	104	0	60	1048575
2026-01-17 19:08:41.92	241.76	19.39	-83.5	-79.0	2.4	0.00e+00	0	49	104	0	60	1048575
2026-01-17 19:08:42.93	242.10	19.47	-83.1	-79.0	2.6	0.00e+00	0	49	104	0	60	1048575
2026-01-17 19:08:43.94	242.43	19.55	-83.5	-79.0	2.4	0.00e+00	0	49	104	0	60	1048573
2026-01-17 19:08:44.94	242.77	19.63	-83.5	-79.0	2.2	0.00e+00	0	49	104	0	60	1048573
2026-01-17 19:08:45.95	243.11	19.71	-83.5	-79.0	2.4	0.00e+00	0	49	104	0	60	1048573
2026-01-17 19:08:46.96	243.45	19.79	-83.1	-79.0	2.3	0.00e+00	0	49	104	0	60	1048575
2026-01-17 19:08:47.97	243.79	19.87	-83.1	-79.0	2.4	0.00e+00	0	48	104	0	60	1048574
2026-01-17 19:08:48.97	244.14	19.94	-83.5	-79.0	2.5	0.00e+00	0	49	104	0	60	1048574
2026-01-17 19:08:49.98	244.48	20.02	-83.5	-79.0	2.5	0.00e+00	0	49	104	0	60	1048572
2026-01-17 19:08:50.99	244.83	20.09	-83.5	-79.0	2.5	0.00e+00	0	49	104	0	60	1048569
2026-01-17 19:08:52.00	245.19	20.17	-83.1	-79.0	2.4	0.00e+00	0	49	104	0	60	1048572
2026-01-17 19:08:53.00	245.54	20.24	-83.1	-79.0	2.4	0.00e+00	0	49	104	0	60	1048572
2026-01-17 19:08:54.01	245.89	20.32	-83.5	-79.0	2.4	0.00e+00	0	49	104	0	60	1048569
2026-01-17 19:08:55.02	246.25	20.39	-83.5	-79.0	2.5	0.00e+00	0	49	104	0	60	1048575
2026-01-17 19:08:56.03	246.61	20.46	-83.5	-79.0	2.3	0.00e+00	0	48	104	0	60	1048570
2026-01-17 19:08:57.03	246.97	20.53	-83.1	-79.0	2.3	0.00e+00	0	49	104	0	60	1048569
2026-01-17 19:08:58.04	247.33	20.60	-83.5	-79.0	2.5	0.00e+00	0	48	104	0	60	1048575
2026-01-17 19:08:59.04	247.69	20.67	-83.5	-79.0	2.5	0.00e+00	0	49	104	0	60	1048572
2026-01-17 19:09:00.04	248.05	20.74	-83.5	-79.0	2.4	0.00e+00	0	49	104	0	60	1048573
2026-01-17 19:09:01.05	248.42	20.81	-83.5	-79.0	2.4	0.00e+00	0	49	104	0	60	1048575
2026-01-17 19:09:02.05	248.79	20.87	-83.1	-79.0	2.3	0.00e+00	0	49	104	0	60	1048575
2026-01-17 19:09:03.06	249.16	20.94	-83.1	-79.0	2.4	0.00e+00	0	49	104	0	60	1048574
2026-01-17 19:09:04.06	249.53	21.00	-83.5	-79.0	2.5	0.00e+00	0	48	104	0	60	1048573
2026-01-17 19:09:05.06	249.90	21.07	-83.5	-79.0	2.4	0.00e+00	0	49	104	0	60	1048571
2026-01-17 19:09:06.07	250.28	21.13	-83.1	-79.0	2.4	0.00e+00	0	49	104	0	60	1048569
2026-01-17 19:09:07.07	250.65	21.19	-83.1	-79.0	2.3	0.00e+00	0	48	104	0	60	1048571
2026-01-17 19:09:08.08	251.04	21.26	-83.5	-79.0	2.5	0.00e+00	0	49	104	0	60	1048571
2026-01-17 19:09:09.08	251.41	21.32	-83.5	-79.0	2.4	0.00e+00	0	48	104	0	60	1048574
2026-01-17 19:09:10.09	251.80	21.38	-83.5	-79.0	2.4	0.00e+00	0	49	104	0	60	1048574
2026-01-17 19:09:11.09	252.18	21.43	-83.5	-79.0	2.4	0.00e+00	0	48	104	0	60	1048573
2026-01-17 19:09:12.10	252.57	21.49	-83.1	-79.0	2.6	0.00e+00	0	49	104	0	60	1048575
2026-01-17 19:09:13.10	252.95	21.55	-83.1	-79.0	2.4	0.00e+00	0	49	104	0	60	1048571
2026-01-17 19:09:14.11	253.34	21.60	-83.5	-79.0	2.7	0.00e+00	0	49	104	0	60	1048571
2026-01-17 19:09:15.12	253.73	21.66	-83.5	-79.0	2.5	0.00e+00	0	49	104	0	60	1048575
2026-01-17 19:09:16.13	254.13	21.71	-83.1	-79.0	2.4	0.00e+00	0	49	104	0	60	1048574
2026-01-17 19:09:17.13	254.52	21.76	-83.1	-79.0	2.6	0.00e+00	0	49	104	0	60	1048572
2026-01-17 19:09:18.13	254.91	21.81	-83.5	-79.0	2.3	0.00e+00	0	48	104	0	60	1048575
2026-01-17 19:09:19.14	255.31	21.86	-83.5	-79.0	2.3	0.00e+00	0	49	104	0	60	1048574
2026-01-17 19:09:20.15	255.71	21.91	-83.5	-79.0	2.5	0.00e+00	0	49	104	0	60	1048569
2026-01-17 19:09:21.16	256.11	21.96	-83.1	-79.0	2.5	0.00e+00	0	49	104	0	60	1048572
2026-01-17 19:09:22.16	256.51	22.01	-83.5	-79.0	2.5	0.00e+00	0	49	104	0	60	1048570
2026-01-17 19:09:23.17	256.91	22.05	-83.5	-79.0	2.4	0.00e+00	0	48	104	0	60	1048573
2026-01-17 19:09:24.18	257.31	22.10	-83.5	-79.0	2.4	0.00e+00	0	48	104	0	60	1048573
2026-01-17 19:09:25.19	257.72	22.14	-83.1	-79.0	2.3	0.00e+00	0	49	104	0	60	1048565
2026-01-17 19:09:26.20	258.12	22.18	-82.8	-79.0	2.7	0.00e+00	0	49	104	0	60	1048575
2026-01-17 19:09:27.21	258.53	22.22	-83.5	-79.0	2.3	0.00e+00	0	48	104	0	60	1048570
2026-01-17 19:09:28.21	258.94	22.26	-83.5	-79.0	2.4	0.00e+00	0	49	104	0	60	1048575
2026-01-17 19:09:29.22	259.35	22.30	-83.5	-79.0	2.4	0.00e+00	0	49	104	0	60	1048570
2026-01-17 19:09:30.23	259.76	22.34	-83.1	-79.0	2.5	0.00e+00	0	49	104	0	60	1048572
2026-01-17 19:09:31.23	260.17	22.37	-83.5	-79.0	2.4	0.00e+00	0	49	104	0	60	1048575
2026-01-17 19:09:32.24	260.58	22.40	-83.5	-79.0	2.3	0.00e+00	0	49	104	0	60	1048574
2026-01-17 19:09:33.25	261.00	22.44	-83.5	-79.0	2.5	0.00e+00	0	49	104	0	60	1048573
2026-01-17 19:09:34.25	261.41	22.47	-83.5	-79.0	2.4	0.00e+00	0	49	104	0	60	1048573
2026-01-17 19:09:35.26	261.82	22.50	-82.8	-79.0	2.3	0.00e+00	0	48	104	0	60	1048574
2026-01-17 19:09:36.26	262.24	22.53	-83.5	-79.0	2.5	0.00e+00	0	48	104	0	60	1048569
2026-01-17 19:09:37.27	262.65	22.55	-83.5	-79.0	2.4	0.00e+00	0	49	104	0	60	1048573
2026-01-17 19:09:38.28	263.07	22.58	-83.5	-79.0	2.5	0.00e+00	0	48	104	0	60	1048567
2026-01-17 19:09:39.29	263.49	22.60	-83.5	-79.0	2.3	0.00e+00	0	49	104	0	60	1048575
2026-01-17 19:09:40.29	263.91	22.63	-83.1	-79.0	2.4	0.00e+00	0	48	104	0	60	1048569
2026-01-17 19:09:41.30	264.33	22.65	-83.5	-79.0	2.5	0.00e+00	0	49	104	0	60	1048572
2026-01-17 19:09:42.31	264.75	22.67	-83.5	-79.0	2.4	0.00e+00	0	49	104	0	60	1048575
2026-01-17 19:09:43.31	265.17	22.69	-83.5	-79.0	2.7	0.00e+00	0	49	104	0	60	1048575
2026-01-17 19:09:44.32	265.59	22.70	-83.5	-79.0	2.7	0.00e+00	0	48	104	0	60	1048571
2026-01-17 19:09:45.33	266.01	22.72	-83.1	-79.0	2.4	0.00e+00	0	49	104	0	60	1048575
2026-01-17 19:09:46.34	266.43	22.73	-83.1	-79.0	2.6	0.00e+00	0	49	104	0	60	1048575
2026-01-17 19:09:47.35	266.86	22.75	-83.5	-79.0	2.4	0.00e+00	0	49	104	0	60	1048575
2026-01-17 19:09:48.36	267.28	22.76	-83.5	-79.0	2.8	0.00e+00	0	49	104	0	60	1048570
2026-01-17 19:09:49.36	267.70	22.77	-83.1	-79.0	2.5	0.00e+00	0	49	104	0	60	1048575
2026-01-17 19:09:50.37	268.13	22.78	-83.5	-79.0	2.5	0.00e+00	0	49	104	0	60	1048571
2026-01-17 19:09:51.37	268.55	22.78	-83.5	-79.0	2.6	0.00e+00	0	49	104	0	60	1048575
2026-01-17 19:09:52.38	268.97	22.79	-83.5	-79.0	2.4	0.00e+00	0	48	104	0	60	1048575
2026-01-17 19:09:53.39	269.40	22.79	-83.5	-79.0	2.5	0.00e+00	0	49	104	0	60	1048570
2026-01-17 19:09:54.39	269.82	22.80	-82.8	-79.0	2.5	0.00e+00	0	49	104	0	60	1048575
2026-01-17 19:09:55.40	270.24	22.80	-83.5	-79.0	2.7	0.00e+00	0	49	104	0	60	1048572
2026-01-17 19:09:56.41	270.67	22.80	-83.5	-79.0	2.4	0.00e+00	0	49	104	0	60	1048570
2026-01-17 19:09:57.41	271.09	22.80	-83.5	-79.0	2.5	0.00e+00	0	49	104	0	60	1048562
2026-01-17 19:09:58.42	271.52	22.79	-83.1	-79.0	2.5	0.00e+00	0	49	104	0	60	1048566
2026-01-17 19:09:59.43	271.94	22.79	-83.1	-79.0	2.5	0.00e+00	0	48	104	0	60	1048573
2026-01-17 19:10:00.44	272.37	22.78	-83.5	-79.0	2.7	0.00e+00	0	48	104	0	60	1048574
2026-01-17 19:10:01.45	272.79	22.77	-83.5	-79.0	2.4	0.00e+00	0	49	104	0	60	1048571
2026-01-17 19:10:02.45	273.21	22.77	-83.5	-79.0	2.4	0.00e+00	0	49	104	0	60	1048575
2026-01-17 19:10:03.46	273.63	22.76	-83.1	-79.0	2.5	0.00e+00	0	49	104	0	60	1048575
2026-01-17 19:10:04.47	274.06	22.74	-83.1	-79.0	2.4	0.00e+00	0	48	104	0	60	1048575
2026-01-17 19:10:05.47	274.48	22.73	-83.5	-79.0	2.6	0.00e+00	0	48	104	0	60	1048563
2026-01-17 19:10:06.48	274.90	22.72	-83.5	-79.0	2.3	0.00e+00	0	49	104	0	60	1048574
2026-01-17 19:10:07.49	275.32	22.70	-83.5	-79.0	2.4	0.00e+00	0	49	104	0	60	1048574
2026-01-17 19:10:08.50	275.74	22.68	-83.1	-79.0	2.3	0.00e+00	0	49	104	0	60	1048565
2026-01-17 19:10:09.50	276.16	22.66	-83.5	-79.0	2.4	0.00e+00	0	49	104	0	60	1048575
2026-01-17 19:10:10.51	276.58	22.64	-83.5	-79.0	2.4	0.00e+00	0	49	104	0	60	1048575
2026-01-17 19:10:11.51	277.00	22.62	-83.5	-79.0	2.5	0.00e+00	0	48	104	0	60	1048573
2026-01-17 19:10:12.52	277.42	22.60	-83.5	-79.0	2.5	0.00e+00	0	48	104	0	60	1048575
2026-01-17 19:10:13.53	277.83	22.57	-82.8	-79.0	2.3	0.00e+00	0	49	104	0	60	1048575
2026-01-17 19:10:14.54	278.25	22.55	-83.5	-79.0	2.4	0.00e+00	0	49	104	0	60	1048569
2026-01-17 19:10:15.55	278.67	22.52	-83.5	-79.0	2.4	0.00e+00	0	48	104	0	60	1048558
2026-01-17 19:10:16.56	279.09	22.49	-83.1	-79.0	2.5	0.00e+00	0	48	104	0	60	1048568
2026-01-17 19:10:17.56	279.50	22.46	-83.1	-79.0	2.7	0.00e+00	0	49	104	0	60	1048574
2026-01-17 19:10:18.57	279.91	22.43	-83.1	-79.0	2.5	0.00e+00	0	49	104	0	60	1048568
2026-01-17 19:10:19.57	280.32	22.40	-83.5	-79.0	2.6	0.00e+00	0	49	104	0	60	1048575
2026-01-17 19:10:20.58	280.73	22.36	-83.5	-79.0	2.5	0.00e+00	0	49	104	0	60	1048575
2026-01-17 19:10:21.59	281.14	22.33	-83.5	-79.0	2.5	0.00e+00	0	49	104	0	60	1048569
2026-01-17 19:10:22.59	281.55	22.29	-82.8	-79.0	2.6	0.00e+00	0	49	104	0	60	1048574
2026-01-17 19:10:23.60	281.96	22.25	-83.1	-79.0	2.2	0.00e+00	0	49	104	0	60	1048568
2026-01-17 19:10:24.61	282.37	22.21	-83.5	-79.0	2.7	0.00e+00	0	49	104	0	60	1048569
2026-01-17 19:10:25.61	282.77	22.17	-83.5	-79.0	2.4	0.00e+00	0	49	104	0	60	1048573
2026-01-17 19:10:26.62	283.18	22.13	-83.5	-79.0	2.4	0.00e+00	0	49	104	0	60	1048575
2026-01-17 19:10:27.63	283.58	22.09	-83.1	-79.0	2.4	0.00e+00	0	49	104	0	60	1048569
2026-01-17 19:10:28.63	283.98	22.04	-83.1	-79.0	2.4	0.00e+00	0	49	104	0	60	1048563
2026-01-17 19:10:29.64	284.38	22.00	-83.5	-79.0	2.5	0.00e+00	0	49	104	0	60	1048569
2026-01-17 19:10:30.65	284.78	21.95	-83.5	-79.0	2.4	0.00e+00	0	49	104	0	60	1048574
2026-01-17 19:10:31.65	285.18	21.90	-83.5	-79.0	2.4	0.00e+00	0	49	104	0	60	1048574
2026-01-17 19:10:32.66	285.57	21.85	-83.1	-79.0	2.4	0.00e+00	0	49	104	0	60	1048575
2026-01-17 19:10:33.67	285.97	21.80	-83.5	-79.0	2.4	0.00e+00	0	49	104	0	60	1048569
2026-01-17 19:10:34.68	286.37	21.75	-83.5	-79.0	2.5	0.00e+00	0	49	104	0	60	1048573
2026-01-17 19:10:35.69	286.76	21.70	-83.5	-79.0	2.4	0.00e+00	0	49	104	0	60	1048575
2026-01-17 19:10:36.69	287.15	21.65	-83.1	-79.0	2.4	0.00e+00	0	49	104	0	60	1048566
2026-01-17 19:10:37.69	287.53	21.59	-83.1	-79.0	2.5	0.00e+00	0	49	104	0	60	1048573
2026-01-17 19:10:38.70	287.92	21.54	-83.5	-79.0	2.4	0.00e+00	0	49	104	0	60	1048565
2026-01-17 19:10:39.70	288.31	21.48	-83.5	-79.0	2.4	0.00e+00	0	49	104	0	60	1048573
2026-01-17 19:10:40.71	288.69	21.42	-83.5	-79.0	2.4	0.00e+00	0	49	104	0	60	1048569
2026-01-17 19:10:41.71	289.07	21.36	-83.1	-79.0	2.4	0.00e+00	0	49	104	0	60	1048575
2026-01-17 19:10:42.72	289.45	21.30	-83.5	-79.0	2.6	0.00e+00	0	49	104	0	60	1048572
2026-01-17 19:10:43.72	289.83	21.24	-83.5	-79.0	2.5	0.00e+00	0	49	104	0	60	1048567
2026-01-17 19:10:44.73	290.21	21.18	-83.5	-79.0	2.4	0.00e+00	0	49	104	0	60	1048574
2026-01-17 19:10:45.74	290.59	21.12	-83.5	-79.0	2.5	0.00e+00	0	49	104	0	60	1048573
2026-01-17 19:10:46.74	290.96	21.06	-83.1	-79.0	2.4	0.00e+00	0	49	104	0	60	1048575
2026-01-17 19:10:47.75	291.33	20.99	-83.5	-79.0	2.4	0.00e+00	0	49	104	0	60	1048575
2026-01-17 19:10:48.76	291.71	20.93	-83.5	-79.0	2.3	0.00e+00	0	49	104	0	60	1048575
2026-01-17 19:10:49.77	292.08	20.86	-83.5	-79.0	2.6	0.00e+00	0	49	104	0	60	1048564
2026-01-17 19:10:50.78	292.44	20.79	-83.5	-79.0	2.3	0.00e+00	0	49	104	0	60	1048573
2026-01-17 19:10:51.78	292.81	20.73	-83.5	-79.0	2.4	0.00e+00	0	49	104	0	60	1048574
2026-01-17 19:10:52.79	293.17	20.66	-83.1	-79.0	2.4	0.00e+00	0	49	104	0	60	1048574
2026-01-17 19:10:53.80	293.53	20.59	-83.5	-79.0	2.4	0.00e+00	0	49	104	0	60	1048567
2026-01-17 19:10:54.80	293.89	20.52	-83.5	-79.0	2.4	0.00e+00	0	49	104	0	60	1048574
2026-01-17 19:10:55.81	294.25	20.45	-83.1	-79.0	2.5	0.00e+00	0	49	104	0	60	1048568
2026-01-17 19:10:56.81	294.61	20.38	-83.1	-79.0	2.4	0.00e+00	0	49	104	0	60	1048574
2026-01-17 19:10:57.82	294.96	20.30	-83.5	-79.0	2.4	0.00e+00	0	49	104	0	60	1048575
2026-01-17 19:10:58.82	295.31	20.23	-83.5	-79.0	2.5	0.00e+00	0	49	104	0	60	1048567
2026-01-17 19:10:59.82	295.66	20.16	-83.5	-79.0	2.4	0.00e+00	0	49	104	0	60	1048575
2026-01-17 19:11:00.83	296.01	20.08	-83.1	-79.0	2.4	0.00e+00	0	49	104	0	60	1048575
2026-01-17 19:11:01.84	296.36	20.01	-83.5	-79.0	2.4	0.00e+00	0	49	104	0	60	1048575
2026-01-17 19:11:02.85	296.70	19.93	-83.5	-79.0	2.5	0.00e+00	0	49	104	0	60	1048573
2026-01-17 19:11:03.85	297.04	19.85	-83.5	-79.0	2.4	0.00e+00	0	49	104	0	60	1048574
2026-01-17 19:11:04.86	297.39	19.78	-83.5	-79.0	2.5	0.00e+00	0	49	104	0	60	1048571
2026-01-17 19:11:05.87	297.73	19.70	-83.1	-79.0	2.4	0.00e+00	0	49	104	0	60	1048571
2026-01-17 19:11:06.88	298.06	19.62	-83.5	-79.0	2.4	0.00e+00	0	49	104	0	60	1048573
2026-01-17 19:11:07.89	298.40	19.54	-83.5	-79.0	2.4	0.00e+00	0	49	104	0	60	1048574
2026-01-17 19:11:08.89	298.73	19.46	-83.5	-79.0	2.4	0.00e+00	0	49	104	0	60	1048573
2026-01-17 19:11:09.90	299.06	19.38	-83.1	-79.0	2.4	0.00e+00	0	49	104	0	60	1048569
2026-01-17 19:11:10.91	299.40	19.30	-82.8	-79.0	2.4	0.00e+00	0	49	104	0	60	1048575
2026-01-17 19:11:11.91	299.72	19.22	-83.5	-79.0	2.4	0.00e+00	0	49	104	0	60	1048574
2026-01-17 19:11:12.91	300.04	19.14	-83.5	-79.0	2.4	0.00e+00	0	49	104	0	60	1048575
2026-01-17 19:11:13.92	300.37	19.06	-83.5	-79.0	2.5	0.00e+00	0	49	104	0	60	1048575
2026-01-17 19:11:14.93	300.69	18.98	-82.8	-79.0	2.4	0.00e+00	0	49	104	0	60	1048573
2026-01-17 19:11:15.93	301.01	18.89	-83.1	-79.0	2.4	0.00e+00	0	49	104	0	60	1048570
2026-01-17 19:11:16.94	301.33	18.81	-83.5	-79.0	2.5	0.00e+00	0	49	104	0	60	1048574
2026-01-17 19:11:17.95	301.64	18.73	-83.5	-79.0	2.5	0.00e+00	0	49	104	0	60	1048575
2026-01-17 19:11:18.95	301.95	18.64	-83.5	-79.0	2.5	0.00e+00	0	49	104	0	60	1048574
2026-01-17 19:11:19.96	302.27	18.56	-83.1	-79.0	2.4	0.00e+00	0	49	104	0	60	1048574
2026-01-17 19:11:20.97	302.58	18.47	-83.5	-79.0	2.3	0.00e+00	0	49	104	0	60	1048575
2026-01-17 19:11:21.98	302.89	18.39	-83.1	-79.0	2.3	0.00e+00	0	49	104	0	60	1048574
2026-01-17 19:11:22.99	303.19	18.30	-83.5	-79.0	2.5	0.00e+00	0	49	104	0	60	1048567
2026-01-17 19:11:24.00	303.50	18.22	-83.5	-79.0	2.3	0.00e+00	0	49	104	0	60	1048575
2026-01-17 19:11:25.01	303.80	18.13	-83.1	-79.0	2.4	0.00e+00	0	49	104	0	60	1048574
2026-01-17 19:11:26.02	304.10	18.04	-83.5	-79.0	2.4	0.00e+00	0	49	104	0	60	1048567
2026-01-17 19:11:27.02	304.40	17.96	-83.5	-79.0	2.4	0.00e+00	0	49	104	0	60	1048575
2026-01-17 19:11:28.03	304.69	17.87	-83.5	-79.0	2.4	0.00e+00	0	49	104	0	60	1048570
2026-01-17 19:11:29.03	304.99	17.78	-83.1	-79.0	2.6	0.00e+00	0	49	104	0	60	1048575
2026-01-17 19:11:30.04	305.28	17.70	-82.8	-79.0	2.4	0.00e+00	0	49	104	0	60	1048575
2026-01-17 19:11:31.04	305.57	17.61	-83.5	-79.0	2.7	0.00e+00	0	49	104	0	60	1048573
2026-01-17 19:11:32.05	305.86	17.52	-83.5	-79.0	2.4	0.00e+00	0	49	104	0	60	1048571
2026-01-17 19:11:33.05	306.14	17.43	-83.5	-79.0	2.4	0.00e+00	0	49	104	0	60	1048575
2026-01-17 19:11:34.06	306.43	17.34	-83.1	-79.0	2.4	0.00e+00	0	49	104	0	60	1048570
2026-01-17 19:11:35.06	306.71	17.26	-83.5	-79.0	2.4	0.00e+00	0	49	104	0	60	1048571
2026-01-17 19:11:36.07	306.99	17.17	-83.5	-79.0	2.4	0.00e+00	0	49	104	0	60	1048574
2026-01-17 19:11:37.08	307.27	17.08	-83.5	-79.0	2.4	0.00e+00	0	49	104	0	60	1048575
2026-01-17 19:11:38.09	307.55	16.99	-83.5	-79.0	2.7	0.00e+00	0	49	104	0	60	1048569
2026-01-17 19:11:39.09	307.82	16.90	-83.1	-79.0	2.3	0.00e+00	0	49	104	0	60	1048569
2026-01-17 19:11:40.10	308.09	16.81	-83.1	-79.0	2.7	0.00e+00	0	49	104	0	60	1048561
2026-01-17 19:11:41.11	308.37	16.72	-83.5	-79.0	2.3	0.00e+00	0	49	104	0	60	1048575
2026-01-17 19:11:42.12	308.64	16.63	-83.5	-79.0	2.5	0.00e+00	0	49	104	0	60	1048569
2026-01-17 19:11:43.13	308.91	16.54	-83.5	-79.0	2.4	0.00e+00	0	49	104	0	60	1048575
2026-01-17 19:11:44.13	309.17	16.45	-83.1	-79.0	2.3	0.00e+00	0	49	104	0	60	1048574
2026-01-17 19:11:45.14	309.44	16.36	-83.5	-79.0	2.4	0.00e+00	0	49	104	0	60	1048573
2026-01-17 19:11:46.14	309.70	16.27	-83.5	-79.0	2.5	0.00e+00	0	49	104	0	60	1048572
2026-01-17 19:11:47.15	309.96	16.18	-83.5	-79.0	2.4	0.00e+00	0	49	104	0	60	1048573
2026-01-17 19:11:48.16	310.22	16.09	-83.1	-79.0	2.4	0.00e+00	0	49	104	0	60	1048571
2026-01-17 19:11:49.16	310.47	16.00	-83.5	-79.0	2.5	0.00e+00	0	49	104	0	60	1048562
2026-01-17 19:11:50.17	310.73	15.91	-83.5	-79.0	2.5	0.00e+00	0	49	104	0	60	1048575
2026-01-17 19:11:51.17	310.98	15.82	-83.5	-79.0	2.4	0.00e+00	0	49	104	0	60	1048574
2026-01-17 19:11:52.17	311.23	15.73	-83.5	-79.0	2.5	0.00e+00	0	49	104	0	60	1048572
2026-01-17 19:11:53.18	311.48	15.64	-83.1	-79.0	2.4	0.00e+00	0	49	104	0	60	1048573
2026-01-17 19:11:54.18	311.73	15.55	-83.1	-79.0	2.5	0.00e+00	0	49	104	0	60	1048573
2026-01-17 19:11:55.19	311.97	15.46	-83.5	-79.0	2.3	0.00e+00	0	49	104	0	60	1048575
2026-01-17 19:11:56.20	312.22	15.37	-83.5	-79.0	2.4	0.00e+00	0	49	104	0	60	1048572
2026-01-17 19:11:57.20	312.46	15.28	-83.5	-79.0	2.3	0.00e+00	0	49	104	0	60	1048574
2026-01-17 19:11:58.21	312.70	15.19	-83.1	-79.0	2.5	0.00e+00	0	49	104	0	60	1048573
2026-01-17 19:11:59.22	312.94	15.10	-83.5	-79.0	2.5	0.00e+00	0	49	104	0	60	1048574
2026-01-17 19:12:00.22	313.18	15.01	-83.5	-79.0	2.6	0.00e+00	0	49	104	0	60	1048567
2026-01-17 19:12:01.22	313.41	14.92	-83.5	-79.0	2.2	0.00e+00	0	49	104	0	60	1048572
2026-01-17 19:12:02.23	313.65	14.83	-83.1	-79.0	2.8	0.00e+00	0	49	104	0	60	1048570
2026-01-17 19:12:03.23	313.88	14.74	-83.1	-79.0	2.5	0.00e+00	0	49	104	0	60	1048575
2026-01-17 19:12:04.23	314.11	14.65	-83.5	-79.0	2.7	0.00e+00	0	49	104	0	60	1048571
2026-01-17 19:12:05.24	314.34	14.56	-83.5	-79.0	2.4	0.00e+00	0	49	104	0	60	1048568
2026-01-17 19:12:06.24	314.57	14.47	-83.5	-79.0	2.4	0.00e+00	0	49	104	0	60	1048574
2026-01-17 19:12:07.25	314.79	14.38	-82.8	-79.0	2.3	0.00e+00	0	49	104	0	60	1048574
2026-01-17 19:12:08.26	315.02	14.29	-83.1	-79.0	2.4	0.00e+00	0	49	104	0	60	1048571
2026-01-17 19:12:09.27	315.24	14.20	-83.5	-79.0	2.3	0.00e+00	0	49	104	0	60	1048572
2026-01-17 19:12:10.27	315.46	14.11	-83.5	-79.0	2.4	0.00e+00	0	49	104	0	60	1048575
2026-01-17 19:12:11.28	315.69	14.02	-83.5	-79.0	2.6	0.00e+00	0	49	104	0	60	1048575
2026-01-17 19:12:12.28	315.90	13.93	-83.1	-79.0	2.5	0.00e+00	0	49	104	0	60	1048574
2026-01-17 19:12:13.29	316.12	13.84	-83.5	-79.0	2.5	0.00e+00	0	49	104	0	60	1048573
2026-01-17 19:12:14.30	316.34	13.75	-83.5	-79.0	2.7	0.00e+00	0	49	104	0	60	1048572
2026-01-17 19:12:15.31	316.55	13.66	-83.5	-79.0	2.4	0.00e+00	0	49	104	0	60	1048569
2026-01-17 19:12:16.31	316.76	13.57	-83.1	-79.0	2.6	0.00e+00	0	49	104	0	60	1048564
2026-01-17 19:12:17.32	316.98	13.49	-83.1	-79.0	2.4	0.00e+00	0	49	104	0	60	1048569
2026-01-17 19:12:18.33	317.19	13.40	-83.1	-79.0	2.3	0.00e+00	0	49	104	0	60	1048573
2026-01-17 19:12:19.33	317.39	13.31	-83.5	-79.0	2.4	0.00e+00	0	49	104	0	60	1048573
2026-01-17 19:12:20.34	317.60	13.22	-83.5	-79.0	2.4	0.00e+00	0	49	104	0	60	1048575
2026-01-17 19:12:21.35	317.81	13.13	-83.1	-79.0	2.4	0.00e+00	0	49	104	0	60	1048575
2026-01-17 19:12:22.36	318.01	13.04	-83.1	-79.0	2.5	0.00e+00	0	49	104	0	60	1048574
2026-01-17 19:12:23.37	318.21	12.95	-83.5	-79.0	2.4	0.00e+00	0	49	104	0	60	1048565
2026-01-17 19:12:24.37	318.41	12.87	-83.5	-79.0	2.4	0.00e+00	0	49	104	0	60	1048570
2026-01-17 19:12:25.38	318.61	12.78	-83.5	-79.0	2.4	0.00e+00	0	49	104	0	60	1048575
2026-01-17 19:12:26.39	318.81	12.69	-83.1	-79.0	2.4	0.00e+00	0	49	104	0	60	1048575
2026-01-17 19:12:27.39	319.01	12.60	-83.1	-79.0	2.3	0.00e+00	0	49	104	0	60	1048574
2026-01-17 19:12:28.40	319.20	12.51	-83.5	-79.0	2.6	0.00e+00	0	49	104	0	60	1048575
2026-01-17 19:12:29.40	319.40	12.43	-83.5	-79.0	2.4	0.00e+00	0	49	104	0	60	1048570
2026-01-17 19:12:30.41	319.59	12.34	-83.5	-79.0	2.5	0.00e+00	0	49	104	0	60	1048569
2026-01-17 19:12:31.42	319.78	12.25	-83.1	-79.0	2.5	0.00e+00	0	49	104	0	60	1048575
2026-01-17 19:12:32.43	319.97	12.16	-83.5	-79.0	2.2	0.00e+00	0	49	104	0	60	1048575
2026-01-17 19:12:33.43	320.16	12.08	-83.5	-79.0	2.7	0.00e+00	0	49	104	0	60	1048570
2026-01-17 19:12:34.44	320.35	11.99	-83.5	-79.0	2.3	0.00e+00	0	49	104	0	60	1048569
2026-01-17 19:12:35.45	320.54	11.91	-83.5	-79.0	2.7	0.00e+00	0	49	104	0	60	1048575
2026-01-17 19:12:36.45	320.72	11.82	-83.1	-79.0	2.5	0.00e+00	0	49	104	0	60	1048575
2026-01-17 19:12:37.46	320.90	11.73	-83.5	-79.0	2.4	0.00e+00	0	49	104	0	60	1048571
2026-01-17 19:12:38.47	321.09	11.65	-83.5	-79.0	2.4	0.00e+00	0	49	104	0	60	1048570
2026-01-17 19:12:39.47	321.27	11.56	-83.5	-79.0	2.4	0.00e+00	0	49	104	0	60	1048571
2026-01-17 19:12:40.48	321.45	11.48	-83.1	-79.0	2.3	0.00e+00	0	49	104	0	60	1048574
2026-01-17 19:12:41.48	321.63	11.39	-83.5	-79.0	2.4	0.00e+00	0	49	104	0	60	1048575
2026-01-17 19:12:42.49	321.80	11.31	-83.5	-79.0	2.4	0.00e+00	0	49	104	0	60	1048575
2026-01-17 19:12:43.49	321.98	11.22	-83.5	-79.0	2.8	0.00e+00	0	49	104	0	60	1048575
2026-01-17 19:12:44.50	322.15	11.14	-83.1	-79.0	2.5	0.00e+00	0	49	104	0	60	1048574
2026-01-17 19:12:45.51	322.33	11.05	-83.1	-79.0	2.7	0.00e+00	0	49	104	0	60	1048575
2026-01-17 19:12:46.51	322.50	10.97	-83.5	-79.0	2.3	0.00e+00	0	49	104	0	60	1048571
2026-01-17 19:12:47.52	322.67	10.88	-83.5	-79.0	2.5	0.00e+00	0	49	104	0	60	1048575
2026-01-17 19:12:48.53	322.84	10.80	-83.5	-79.0	2.5	0.00e+00	0	49	104	0	60	1048565
2026-01-17 19:12:49.53	323.01	10.71	-83.1	-79.0	2.4	0.00e+00	0	49	104	0	60	1048574
2026-01-17 19:12:50.54	323.18	10.63	-82.8	-79.0	2.6	0.00e+00	0	49	104	0	60	1048575
2026-01-17 19:12:51.55	323.35	10.55	-83.1	-79.0	2.4	0.00e+00	0	49	104	0	60	1048574
2026-01-17 19:12:52.56	323.51	10.46	-83.5	-79.0	2.4	0.00e+00	0	49	104	0	60	1048570
2026-01-17 19:12:53.55	323.68	10.38	-83.5	-79.0	2.4	0.00e+00	0	49	104	0	60	1048572
2026-01-17 19:12:54.56	323.84	10.30	-83.5	-79.0	2.4	0.00e+00	0	49	104	0	60	1048562
2026-01-17 19:12:55.56	324.00	10.22	-83.1	-79.0	2.7	0.00e+00	0	49	104	0	60	1048573
2026-01-17 19:12:56.56	324.16	10.13	-83.5	-79.0	2.4	0.00e+00	0	49	104	0	60	1048572
2026-01-17 19:12:57.56	324.32	10.05	-83.5	-79.0	2.4	0.00e+00	0	49	104	0	60	1048574
2026-01-17 19:12:58.57	324.48	9.97	-83.5	-79.0	2.4	0.00e+00	0	49	104	0	60	1048574
2026-01-17 19:12:59.58	324.64	9.89	-83.1	-79.0	2.4	0.00e+00	0	49	104	0	60	1048572
2026-01-17 19:13:00.58	324.80	9.81	-83.5	-79.0	2.3	0.00e+00	0	49	104	0	60	1048573
2026-01-17 19:13:01.59	324.95	9.72	-83.5	-79.0	2.4	0.00e+00	0	49	104	0	60	1048570
2026-01-17 19:13:02.59	325.11	9.64	-83.5	-79.0	2.4	0.00e+00	0	49	104	0	60	1048573
2026-01-17 19:13:03.60	325.26	9.56	-83.5	-79.0	2.3	0.00e+00	0	49	104	0	60	1048572
2026-01-17 19:13:04.61	325.42	9.48	-83.1	-79.0	2.6	0.00e+00	0	49	104	0	60	1048575
2026-01-17 19:13:05.61	325.57	9.40	-83.1	-79.0	2.5	0.00e+00	0	49	104	0	60	1048575
2026-01-17 19:13:06.62	325.72	9.32	-83.5	-79.0	2.3	0.00e+00	0	49	104	0	60	1048571
2026-01-17 19:13:07.62	325.87	9.24	-83.5	-79.0	2.6	0.00e+00	0	49	104	0	60	1048568
2026-01-17 19:13:08.63	326.02	9.16	-83.1	-79.0	2.5	0.00e+00	0	49	104	0	60	1048575
2026-01-17 19:13:09.64	326.17	9.08	-83.1	-79.0	2.8	0.00e+00	0	49	104	0	60	1048575
2026-01-17 19:13:10.64	326.31	9.00	-83.5	-79.0	2.4	0.00e+00	0	49	104	0	60	1048573
2026-01-17 19:13:11.65	326.46	8.92	-83.5	-79.0	2.7	0.00e+00	0	49	104	0	60	1048575
2026-01-17 19:13:12.65	326.60	8.84	-83.5	-79.0	2.4	0.00e+00	0	49	104	0	60	1048574
2026-01-17 19:13:13.66	326.75	8.76	-82.8	-79.0	2.4	0.00e+00	0	49	104	0	60	1048574
2026-01-17 19:13:14.66	326.89	8.68	-83.1	-79.0	2.5	0.00e+00	0	49	104	0	60	1048569
2026-01-17 19:13:15.67	327.03	8.60	-83.5	-79.0	2.4	0.00e+00	0	49	104	0	60	1048574
2026-01-17 19:13:16.68	327.18	8.52	-83.5	-79.0	2.5	0.00e+00	0	49	104	0	60	1048575
2026-01-17 19:13:17.69	327.32	8.45	-83.5	-79.0	2.2	0.00e+00	0	49	104	0	60	1048572
2026-01-17 19:13:18.69	327.46	8.37	-83.1	-79.0	2.7	0.00e+00	0	49	104	0	60	1048570
2026-01-17 19:13:19.70	327.60	8.29	-83.5	-79.0	2.4	0.00e+00	0	49	104	0	60	1048573
2026-01-17 19:13:20.70	327.73	8.21	-83.5	-79.0	2.6	0.00e+00	0	49	104	0	60	1048572
2026-01-17 19:13:21.71	327.87	8.13	-83.5	-79.0	2.5	0.00e+00	0	49	104	0	60	1048573
2026-01-17 19:13:22.72	328.01	8.06	-83.5	-79.0	2.4	0.00e+00	0	49	104	0	60	1048567
2026-01-17 19:13:23.72	328.14	7.98	-83.1	-79.0	2.4	0.00e+00	0	49	104	0	60	1048570
2026-01-17 19:13:24.73	328.28	7.90	-83.1	-79.0	2.4	0.00e+00	0	49	104	0	60	1048573
2026-01-17 19:13:25.73	328.41	7.83	-83.5	-79.0	2.4	0.00e+00	0	49	104	0	60	1048574
2026-01-17 19:13:26.74	328.54	7.75	-83.5	-79.0	2.4	0.00e+00	0	48	104	0	60	1048572
2026-01-17 19:13:27.74	328.67	7.67	-83.1	-79.0	2.4	0.00e+00	0	49	104	0	60	1048575
2026-01-17 19:13:28.75	328.81	7.60	-83.1	-79.0	2.5	0.00e+00	0	49	104	0	60	1048575
2026-01-17 19:13:29.75	328.94	7.52	-83.5	-79.0	2.3	0.00e+00	0	49	104	0	60	1048574
2026-01-17 19:13:30.76	329.07	7.44	-83.5	-79.0	2.4	0.00e+00	0	49	104	0	60	1048572
2026-01-17 19:13:31.76	329.19	7.37	-83.5	-79.0	2.5	0.00e+00	0	49	104	0	60	1048574
2026-01-17 19:13:32.77	329.32	7.29	-83.5	-79.0	2.5	0.00e+00	0	48	104	0	60	1048563
2026-01-17 19:13:33.78	329.45	7.22	-83.5	-79.0	2.4	0.00e+00	0	49	104	0	60	1048575
2026-01-17 19:13:34.78	329.57	7.14	-83.5	-79.0	2.4	0.00e+00	0	49	104	0	60	1048575
2026-01-17 19:13:35.79	329.70	7.07	-83.5	-79.0	2.5	0.00e+00	0	49	104	0	60	1048573
2026-01-17 19:13:36.80	329.83	6.99	-83.5	-79.0	2.3	0.00e+00	0	48	104	0	60	1048573
2026-01-17 19:13:37.80	329.95	6.92	-83.1	-79.0	2.4	0.00e+00	0	48	104	0	60	1048574
2026-01-17 19:13:38.80	330.07	6.85	-83.1	-79.0	2.2	0.00e+00	0	48	104	0	60	1048571
2026-01-17 19:13:39.81	330.20	6.77	-83.5	-79.0	2.4	0.00e+00	0	49	104	0	60	1048574
2026-01-17 19:13:40.81	330.32	6.70	-83.5	-79.0	2.8	0.00e+00	0	49	104	0	60	1048573
2026-01-17 19:13:41.82	330.44	6.62	-83.5	-79.0	2.5	0.00e+00	0	49	104	0	60	1048573
2026-01-17 19:13:42.82	330.56	6.55	-82.8	-79.0	2.5	0.00e+00	0	49	104	0	60	1048574
2026-01-17 19:13:43.82	330.68	6.48	-83.5	-79.0	2.5	0.00e+00	0	49	104	0	60	1048569
2026-01-17 19:13:44.82	330.79	6.41	-83.5	-79.0	2.5	0.00e+00	0	49	104	0	60	1048572
2026-01-17 19:13:45.82	330.91	6.33	-83.5	-79.0	2.4	0.00e+00	0	49	104	0	60	1048572
2026-01-17 19:13:46.83	331.03	6.26	-83.1	-79.0	2.4	0.00e+00	0	48	104	0	60	1048567
2026-01-17 19:13:47.83	331.15	6.19	-83.1	-79.0	2.3	0.00e+00	0	48	104	0	60	1048569
2026-01-17 19:13:48.84	331.26	6.12	-83.5	-79.0	2.4	0.00e+00	0	49	104	0	60	1048575
2026-01-17 19:13:49.84	331.38	6.04	-83.5	-79.0	2.8	0.00e+00	0	48	104	0	60	1048571
2026-01-17 19:13:50.85	331.49	5.97	-83.5	-79.0	2.7	0.00e+00	0	49	104	0	60	1048573
2026-01-17 19:13:51.86	331.61	5.90	-83.1	-79.0	2.4	0.00e+00	0	49	104	0	60	1048564
2026-01-17 19:13:52.86	331.72	5.83	-83.5	-79.0	2.6	0.00e+00	0	49	104	0	60	1048575
2026-01-17 19:13:53.87	331.83	5.76	-83.5	-79.0	2.3	0.00e+00	0	49	104	0	60	1048575
2026-01-17 19:13:54.88	331.95	5.68	-83.5	-79.0	2.5	0.00e+00	0	49	104	0	60	1048572
2026-01-17 19:13:55.88	332.06	5.61	-83.5	-79.0	2.4	0.00e+00	0	49	104	0	60	1048573
2026-01-17 19:13:56.88	332.17	5.54	-83.1	-79.0	2.3	0.00e+00	0	49	104	0	60	1048568
2026-01-17 19:13:57.89	332.28	5.47	-83.5	-79.0	2.5	0.00e+00	0	49	104	0	60	1048575
2026-01-17 19:13:58.90	332.39	5.40	-83.5	-79.0	2.5	0.00e+00	0	49	104	0	60	1048571
2026-01-17 19:13:59.91	332.50	5.33	-83.5	-79.0	2.5	0.00e+00	0	49	104	0	60	1048573
2026-01-17 19:14:00.91	332.60	5.26	-83.5	-79.0	2.5	0.00e+00	0	49	104	0	60	1048567
2026-01-17 19:14:01.92	332.71	5.19	-82.8	-79.0	2.5	0.00e+00	0	49	104	0	60	1048571
2026-01-17 19:14:02.92	332.82	5.12	-83.5	-79.0	2.5	0.00e+00	0	49	104	0	60	1048575
2026-01-17 19:14:03.93	332.92	5.05	-83.5	-79.0	2.4	0.00e+00	0	49	104	0	60	1048572
2026-01-17 19:14:04.94	333.03	4.98	-83.5	-79.0	2.3	0.00e+00	0	49	104	0	60	1048572
2026-01-17 19:14:05.95	333.14	4.91	-83.1	-79.0	2.5	0.00e+00	0	49	104	0	60	1048570
2026-01-17 19:14:06.95	333.24	4.84	-82.8	-79.0	2.6	0.00e+00	0	49	104	0	60	1048571
2026-01-17 19:14:07.96	333.34	4.77	-83.5	-79.0	2.4	0.00e+00	0	49	104	0	60	1048560
2026-01-17 19:14:08.97	333.45	4.70	-83.5	-79.0	2.4	0.00e+00	0	49	104	0	60	1048575
2026-01-17 19:14:09.97	333.55	4.64	-83.5	-79.0	2.4	0.00e+00	0	49	104	0	60	1048569
2026-01-17 19:14:10.98	333.65	4.57	-83.1	-79.0	2.4	0.00e+00	0	49	104	0	60	1048574
2026-01-17 19:14:11.98	333.75	4.50	-83.1	-79.0	2.5	0.00e+00	0	49	104	0	60	1048575
2026-01-17 19:14:12.99	333.86	4.43	-83.5	-79.0	2.5	0.00e+00	0	49	104	0	60	1048569
2026-01-17 19:14:13.99	333.96	4.36	-83.5	-79.0	2.4	0.00e+00	0	49	104	0	60	1048568
2026-01-17 19:14:15.00	334.06	4.30	-83.5	-79.0	2.3	0.00e+00	0	49	104	0	60	1048575
2026-01-17 19:14:16.00	334.15	4.23	-83.1	-79.0	2.4	0.00e+00	0	49	104	0	60	1048574
2026-01-17 19:14:17.00	334.25	4.16	-83.5	-79.0	2.4	0.00e+00	0	49	104	0	60	1048569
2026-01-17 19:14:18.01	334.35	4.09	-83.5	-79.0	2.3	0.00e+00	0	49	104	0	60	1048570
2026-01-17 19:14:19.01	334.45	4.03	-83.5	-79.0	2.4	0.00e+00	0	49	104	0	60	1048575
2026-01-17 19:14:20.02	334.55	3.96	-83.1	-79.0	2.5	0.00e+00	0	49	104	0	60	1048569
2026-01-17 19:14:21.03	334.64	3.89	-83.1	-79.0	2.4	0.00e+00	0	49	104	0	60	1048572
2026-01-17 19:14:22.03	334.74	3.83	-83.5	-79.0	2.5	0.00e+00	0	49	104	0	60	1048572
2026-01-17 19:14:23.04	334.83	3.76	-83.5	-79.0	2.3	0.00e+00	0	49	104	0	60	1048572
2026-01-17 19:14:24.05	334.93	3.69	-83.5	-79.0	2.5	0.00e+00	0	49	104	0	60	1048572
2026-01-17 19:14:25.05	335.02	3.63	-83.1	-79.0	2.4	0.00e+00	0	49	104	0	60	1048575
2026-01-17 19:14:26.06	335.12	3.56	-83.1	-79.0	2.6	0.00e+00	0	49	104	0	60	1048571
2026-01-17 19:14:27.07	335.21	3.50	-83.5	-79.0	2.3	0.00e+00	0	49	104	0	60	1048575
2026-01-17 19:14:28.08	335.31	3.43	-83.5	-79.0	2.4	0.00e+00	0	49	104	0	60	1048573
2026-01-17 19:14:29.09	335.40	3.36	-83.5	-79.0	2.4	0.00e+00	0	49	104	0	60	1048575
2026-01-17 19:14:30.09	335.49	3.30	-83.1	-79.0	2.4	0.00e+00	0	49	104	0	60	1048574
2026-01-17 19:14:31.09	335.58	3.23	-83.5	-79.0	2.4	0.00e+00	0	49	104	0	60	1048571
2026-01-17 19:14:32.10	335.67	3.17	-83.5	-79.0	2.6	0.00e+00	0	49	104	0	60	1048571
2026-01-17 19:14:33.10	335.76	3.10	-83.5	-79.0	2.5	0.00e+00	0	49	104	0	60	1048575
2026-01-17 19:14:34.11	335.85	3.04	-83.5	-79.0	2.6	0.00e+00	0	49	104	0	60	1048575
2026-01-17 19:14:35.12	335.94	2.97	-83.1	-79.0	2.3	0.00e+00	0	49	104	0	60	1048575
2026-01-17 19:14:36.12	336.03	2.91	-83.1	-79.0	2.5	0.00e+00	0	49	104	0	60	1048575
2026-01-17 19:14:37.13	336.12	2.85	-83.5	-79.0	2.5	0.00e+00	0	49	104	0	60	1048568
2026-01-17 19:14:38.13	336.21	2.78	-83.5	-79.0	2.4	0.00e+00	0	49	104	0	60	1048575
2026-01-17 19:14:39.14	336.30	2.72	-83.1	-79.0	2.3	0.00e+00	0	49	104	0	60	1048575
2026-01-17 19:14:40.15	336.39	2.65	-82.8	-79.0	2.4	0.00e+00	0	49	104	0	60	1048573
2026-01-17 19:14:41.16	336.47	2.59	-83.5	-79.0	2.4	0.00e+00	0	49	104	0	60	1048575
2026-01-17 19:14:42.16	336.56	2.53	-83.5	-79.0	2.4	0.00e+00	0	49	104	0	60	1048573
2026-01-17 19:14:43.17	336.64	2.46	-83.5	-79.0	2.5	0.00e+00	0	49	104	0	60	1048575
2026-01-17 19:14:44.18	336.73	2.40	-83.1	-79.0	2.6	0.00e+00	0	49	104	0	60	1048574
2026-01-17 19:14:45.19	336.82	2.34	-83.1	-79.0	2.5	0.00e+00	0	49	104	0	60	1048572
2026-01-17 19:14:46.19	336.90	2.27	-83.5	-79.0	2.7	0.00e+00	0	49	104	0	60	1048574
2026-01-17 19:14:47.20	336.98	2.21	-83.5	-79.0	2.4	0.00e+00	0	49	104	0	60	1048567
2026-01-17 19:14:48.21	337.07	2.15	-83.5	-79.0	2.4	0.00e+00	0	49	104	0	60	1048565
2026-01-17 19:14:49.22	337.15	2.08	-82.8	-79.0	2.4	0.00e+00	0	49	104	0	60	1048572
2026-01-17 19:14:50.22	337.23	2.02	-83.5	-79.0	2.6	0.00e+00	0	49	104	0	60	1048573
2026-01-17 19:14:51.23	337.32	1.96	-83.5	-79.0	2.5	0.00e+00	0	49	104	0	60	1048570
2026-01-17 19:14:52.24	337.40	1.90	-83.5	-79.0	2.4	0.00e+00	0	49	104	0	60	1048569
2026-01-17 19:14:53.24	337.48	1.84	-83.5	-79.0	2.4	0.00e+00	0	49	104	0	60	1048575
2026-01-17 19:14:54.25	337.56	1.77	-82.8	-79.0	2.4	0.00e+00	0	49	104	0	60	1048574
2026-01-17 19:14:55.25	337.64	1.71	-83.5	-79.0	2.4	0.00e+00	0	49	104	0	60	1048574
2026-01-17 19:14:56.26	337.72	1.65	-83.5	-79.0	2.5	0.00e+00	0	49	104	0	60	1048574
2026-01-17 19:14:57.26	337.80	1.59	-83.5	-79.0	2.4	0.00e+00	0	49	104	0	60	1048571
2026-01-17 19:14:58.27	337.88	1.53	-83.1	-79.0	2.3	0.00e+00	0	49	104	0	60	1048574
2026-01-17 19:14:59.28	337.96	1.47	-83.1	-79.0	2.4	0.00e+00	0	49	104	0	60	1048571
2026-01-17 19:15:00.28	338.04	1.41	-83.5	-79.0	2.4	0.00e+00	0	49	104	0	60	1048569
2026-01-17 19:15:01.29	338.12	1.34	-83.5	-79.0	2.5	0.00e+00	0	49	104	0	60	1048573
2026-01-17 19:15:02.30	338.20	1.28	-83.5	-79.0	2.4	0.00e+00	0	49	104	0	60	1048575
2026-01-17 19:15:03.30	338.28	1.22	-83.1	-79.0	2.5	0.00e+00	0	49	104	0	60	1048570
2026-01-17 19:15:04.31	338.35	1.16	-83.1	-79.0	2.3	0.00e+00	0	49	104	0	60	1048575
2026-01-17 19:15:05.31	338.43	1.10	-83.5	-79.0	2.4	0.00e+00	0	49	104	0	60	1048573
2026-01-17 19:15:06.32	338.51	1.04	-83.5	-79.0	2.7	0.00e+00	0	49	104	0	60	1048575
2026-01-17 19:15:07.33	338.58	0.98	-83.5	-79.0	2.4	0.00e+00	0	49	104	0	60	1048571
2026-01-17 19:15:08.34	338.66	0.92	-82.8	-79.0	2.5	0.00e+00	0	49	104	0	60	1048575
2026-01-17 19:15:09.34	338.74	0.86	-83.5	-79.0	2.5	0.00e+00	0	49	104	0	60	1048572
2026-01-17 19:15:10.35	338.81	0.80	-83.5	-79.0	2.5	0.00e+00	0	49	104	0	60	1048575
2026-01-17 19:15:11.36	338.89	0.74	-83.5	-79.0	2.4	0.00e+00	0	49	104	0	60	1048575
2026-01-17 19:15:12.36	338.96	0.68	-83.5	-79.0	2.5	0.00e+00	0	49	104	0	60	1048572
2026-01-17 19:15:13.37	339.03	0.62	-83.1	-79.0	2.5	0.00e+00	0	49	104	0	60	1048575
2026-01-17 19:15:14.38	339.11	0.56	-83.5	-79.0	2.5	0.00e+00	0	49	104	0	60	1048574
2026-01-17 19:15:15.39	339.18	0.50	-83.5	-79.0	2.6	0.00e+00	0	49	104	0	60	1048572
2026-01-17 19:15:16.39	339.25	0.45	-83.5	-79.0	2.5	0.00e+00	0	49	104	0	60	1048575
2026-01-17 19:15:17.40	339.33	0.39	-83.1	-79.0	2.6	0.00e+00	0	49	104	0	60	1048572
2026-01-17 19:15:18.41	339.40	0.33	-82.8	-79.0	2.6	0.00e+00	0	49	104	0	60	1048574
2026-01-17 19:15:19.41	339.47	0.27	-83.5	-79.0	2.4	0.00e+00	0	49	104	0	60	1048573
2026-01-17 19:15:20.42	339.54	0.21	-83.5	-79.0	2.4	0.00e+00	0	49	104	0	60	1048573
2026-01-17 19:15:21.43	339.62	0.15	-83.5	-79.0	2.5	0.00e+00	0	49	104	0	60	1048575
2026-01-17 19:15:22.44	339.69	0.09	-82.8	-79.0	2.4	0.00e+00	0	49	104	0	60	1048570
2026-01-17 19:15:23.45	339.76	0.03	-83.1	-79.0	2.5	0.00e+00	0	49	104	0	60	1048573
2026-01-17 19:15:24.45	339.83	-0.02	-83.5	-79.0	2.3	0.00e+00	0	49	104	0	60	1048573
2026-01-17 19:15:25.46	339.90	-0.08	-83.5	-79.0	2.6	0.00e+00	0	49	104	0	60	1048571

#Closed at: 2026-01-17 19:15:25
#Recorded file [0 MB]: D:/Data/35015_260117_220430.dat