passes_logs/2026/01/17/R3.2S-Naryan-Mar/R3.2S-Naryan-Mar__20260117_215129_FENGYUN_3D_rec.log

#Pass ID: 20260117_215129_FENGYUN 3D
#Satellite: FENGYUN 3D
#Configuration: FENGYUN 3D
#almurnet v.1.7.20240730
#Start time: 2026-01-17 21:53:34

#Version: 2.2.20231116
#Station: R3.2S-Naryan-Mar
#Location: 53.008057 lon 67.646978 lat
#TLE: 1 43010U 17072A   26017.25882587  .00000461  00000+0  23963-3 0  9992
#TLE: 2 43010  98.9934 349.1096 0002357 104.0487 256.0951 14.19697152423579

#Time	Az	El	Level	Level2	SNR	BER	BlckErr	Temp	State	Recorded	gain1	gain2
2026-01-17 21:53:34.17	30.40	4.94	-84.3	-88.8	2.3	3.12e+01	0	46	0	0	60	1048574
2026-01-17 21:53:35.17	30.53	4.98	-84.7	-88.6	5.8	3.06e-01	0	47	0	0	60	1048573
2026-01-17 21:53:36.18	30.66	5.02	-85.2	-88.6	6.3	2.79e-01	0	47	0	0	60	1048573
2026-01-17 21:53:37.19	30.79	5.05	-82.8	-88.6	5.5	2.77e-01	0	47	0	0	60	1048574
2026-01-17 21:53:38.19	30.92	5.09	-82.5	-88.6	5.8	2.72e-01	0	47	0	0	60	1048571
2026-01-17 21:53:39.20	31.05	5.13	-82.5	-88.6	6.0	2.75e-01	0	47	0	0	60	1048574
2026-01-17 21:53:40.20	31.18	5.17	-85.2	-88.6	6.1	2.74e-01	0	47	0	0	60	1048575
2026-01-17 21:53:41.21	31.31	5.20	-84.7	-88.6	5.7	2.76e-01	0	47	0	0	60	1048575
2026-01-17 21:53:42.22	31.44	5.24	-82.8	-88.6	5.7	2.77e-01	0	47	0	0	60	1048575
2026-01-17 21:53:43.23	31.58	5.28	-85.2	-88.6	6.0	2.74e-01	0	47	0	0	60	1048571
2026-01-17 21:53:44.24	31.71	5.32	-82.8	-88.6	6.5	2.77e-01	0	47	0	0	60	1048571
2026-01-17 21:53:45.24	31.84	5.35	-84.7	-88.6	5.6	2.74e-01	0	47	0	0	60	1048567
2026-01-17 21:53:46.25	31.97	5.39	-82.8	-88.6	6.1	2.74e-01	0	47	0	0	60	1048575
2026-01-17 21:53:47.25	32.10	5.43	-84.7	-88.6	5.7	2.75e-01	0	47	0	0	60	1048574
2026-01-17 21:53:48.26	32.24	5.46	-82.8	-88.6	6.5	2.76e-01	0	47	0	0	60	1048575
2026-01-17 21:53:49.27	32.37	5.50	-85.2	-88.6	6.1	2.81e-01	0	47	0	0	60	1048575
2026-01-17 21:53:50.28	32.50	5.54	-82.8	-88.6	5.7	2.78e-01	0	47	0	0	60	1048568
2026-01-17 21:53:51.29	32.64	5.57	-85.2	-88.6	6.0	2.78e-01	0	47	0	0	60	1048572
2026-01-17 21:53:52.30	32.77	5.61	-85.2	-88.6	6.2	2.77e-01	0	47	0	0	60	1048573
2026-01-17 21:53:53.30	32.91	5.65	-84.7	-88.6	5.7	2.76e-01	0	47	0	0	60	1048575
2026-01-17 21:53:54.31	33.04	5.68	-83.1	-88.6	6.1	2.76e-01	0	47	0	0	60	1048573
2026-01-17 21:53:55.32	33.18	5.72	-82.8	-88.6	6.2	2.79e-01	0	47	0	0	60	1048574
2026-01-17 21:53:56.33	33.31	5.76	-83.5	-88.6	6.1	2.76e-01	0	47	0	0	60	1048571
2026-01-17 21:53:57.33	33.45	5.79	-85.2	-88.6	5.9	2.76e-01	0	47	0	0	60	1048570
2026-01-17 21:53:58.34	33.59	5.83	-82.8	-88.6	5.7	2.79e-01	0	47	0	0	60	1048574
2026-01-17 21:53:59.34	33.72	5.86	-85.2	-88.6	6.1	2.77e-01	0	47	0	0	60	1048574
2026-01-17 21:54:00.35	33.86	5.90	-85.2	-88.6	6.3	2.81e-01	0	47	0	0	60	1048575
2026-01-17 21:54:01.36	34.00	5.94	-85.2	-88.6	5.4	2.78e-01	0	47	0	0	60	1048573
2026-01-17 21:54:02.37	34.13	5.97	-85.2	-88.6	5.9	2.79e-01	0	47	0	0	60	1048570
2026-01-17 21:54:03.37	34.27	6.01	-82.8	-88.6	5.6	2.74e-01	0	47	0	0	60	1048574
2026-01-17 21:54:04.38	34.41	6.04	-85.2	-88.6	6.2	2.75e-01	0	47	0	0	60	1048572
2026-01-17 21:54:05.39	34.55	6.08	-82.2	-88.6	5.8	2.72e-01	0	47	0	0	60	1048566
2026-01-17 21:54:06.40	34.69	6.11	-84.7	-88.6	6.4	2.72e-01	0	47	0	0	60	1048568
2026-01-17 21:54:07.41	34.83	6.15	-84.7	-88.6	6.1	2.76e-01	0	47	0	0	60	1048572
2026-01-17 21:54:08.41	34.97	6.18	-83.5	-88.6	5.8	2.77e-01	0	47	0	0	60	1048574
2026-01-17 21:54:09.42	35.11	6.22	-82.8	-88.6	5.6	2.73e-01	0	47	0	0	60	1048575
2026-01-17 21:54:10.43	35.25	6.25	-85.2	-88.6	6.0	2.76e-01	0	47	0	0	60	1048573
2026-01-17 21:54:11.44	35.39	6.29	-84.7	-88.6	5.9	2.74e-01	0	47	0	0	60	1048569
2026-01-17 21:54:12.45	35.53	6.32	-85.2	-88.6	6.5	2.73e-01	0	47	0	0	60	1048572
2026-01-17 21:54:13.45	35.67	6.36	-82.8	-88.6	6.1	2.72e-01	0	47	0	0	60	1048572
2026-01-17 21:54:14.46	35.81	6.39	-85.2	-88.6	6.0	2.77e-01	0	47	0	0	60	1048575
2026-01-17 21:54:15.46	35.95	6.43	-84.7	-88.6	5.6	2.78e-01	0	47	0	0	60	1048575
2026-01-17 21:54:16.47	36.09	6.46	-85.2	-88.6	6.4	2.76e-01	0	47	0	0	60	1048570
2026-01-17 21:54:17.47	36.24	6.50	-84.7	-88.6	3.4	7.64e-01	0	47	104	0	60	1048575
2026-01-17 21:54:18.48	36.38	6.53	-85.2	-88.6	3.4	7.62e-01	0	47	104	0	60	1048573
2026-01-17 21:54:19.48	36.52	6.56	-82.8	-88.6	3.3	7.64e-01	0	47	104	0	60	1048574
2026-01-17 21:54:20.49	36.67	6.60	-85.2	-88.6	3.1	7.61e-01	0	47	104	0	60	1048575
2026-01-17 21:54:21.49	36.81	6.63	-83.1	-88.6	3.7	7.63e-01	0	47	104	0	60	1048575
2026-01-17 21:54:22.50	36.95	6.67	-84.7	-88.6	2.7	7.63e-01	0	47	104	0	60	1048568
2026-01-17 21:54:23.51	37.10	6.70	-84.7	-88.6	2.8	7.64e-01	0	47	104	0	60	1048574
2026-01-17 21:54:24.52	37.24	6.73	-85.2	-88.6	2.9	7.63e-01	0	47	104	0	60	1048573
2026-01-17 21:54:25.52	37.39	6.77	-84.7	-88.6	3.0	7.64e-01	0	47	104	0	60	1048573
2026-01-17 21:54:26.53	37.53	6.80	-85.2	-88.6	3.4	7.64e-01	0	47	104	0	60	1048573
2026-01-17 21:54:27.54	37.68	6.83	-84.7	-88.6	3.2	7.64e-01	0	47	104	0	60	1048570
2026-01-17 21:54:28.54	37.82	6.87	-83.1	-88.6	2.8	7.63e-01	0	47	104	0	60	1048575
2026-01-17 21:54:29.55	37.97	6.90	-82.8	-88.6	3.5	7.64e-01	0	47	104	0	60	1048574
2026-01-17 21:54:30.56	38.12	6.93	-85.2	-88.6	3.1	7.62e-01	0	47	104	0	60	1048575
2026-01-17 21:54:31.56	38.26	6.97	-85.2	-88.6	3.1	7.65e-01	0	47	104	0	60	1048575
2026-01-17 21:54:32.56	38.41	7.00	-82.8	-88.6	2.9	7.64e-01	0	47	104	0	60	1048575
2026-01-17 21:54:33.57	38.56	7.03	-82.8	-88.6	3.6	7.63e-01	0	47	104	0	60	1048570
2026-01-17 21:54:34.58	38.71	7.06	-85.2	-88.6	3.6	7.64e-01	0	47	104	0	60	1048567
2026-01-17 21:54:35.59	38.85	7.10	-83.1	-88.6	3.0	7.63e-01	0	47	104	0	60	1048575
2026-01-17 21:54:36.59	39.00	7.13	-85.2	-88.6	3.5	7.64e-01	0	47	104	0	60	1048568
2026-01-17 21:54:37.59	39.15	7.16	-83.1	-88.6	3.2	7.62e-01	0	47	104	0	60	1048572
2026-01-17 21:54:38.60	39.30	7.19	-85.2	-88.6	2.9	7.63e-01	0	47	104	0	60	1048572
2026-01-17 21:54:39.60	39.45	7.22	-85.2	-88.6	3.2	7.64e-01	0	47	104	0	60	1048570
2026-01-17 21:54:40.61	39.60	7.26	-85.2	-88.6	3.0	7.64e-01	0	47	104	0	60	1048574
2026-01-17 21:54:41.62	39.75	7.29	-82.8	-88.6	2.8	7.64e-01	0	47	104	0	60	1048575
2026-01-17 21:54:42.63	39.90	7.32	-83.1	-88.6	3.4	7.63e-01	0	47	104	0	60	1048573
2026-01-17 21:54:43.64	40.05	7.35	-85.2	-88.6	3.7	7.64e-01	0	47	104	0	60	1048575
2026-01-17 21:54:44.65	40.20	7.38	-82.8	-88.6	2.9	7.64e-01	0	47	104	0	60	1048571
2026-01-17 21:54:45.65	40.35	7.41	-85.2	-88.6	3.3	7.63e-01	0	47	104	0	60	1048575
2026-01-17 21:54:46.66	40.50	7.44	-84.7	-88.6	3.7	7.63e-01	0	47	104	0	60	1048574
2026-01-17 21:54:47.66	40.66	7.47	-82.8	-88.6	3.5	7.62e-01	0	47	104	0	60	1048574
2026-01-17 21:54:48.67	40.81	7.51	-83.1	-88.6	2.9	7.63e-01	0	47	104	0	60	1048571
2026-01-17 21:54:49.67	40.96	7.54	-85.2	-88.6	3.1	7.64e-01	0	47	104	0	60	1048571
2026-01-17 21:54:50.68	41.11	7.57	-84.7	-88.6	3.2	7.64e-01	0	47	104	0	60	1048575
2026-01-17 21:54:51.69	41.27	7.60	-83.1	-88.6	2.8	7.63e-01	0	47	104	0	60	1048564
2026-01-17 21:54:52.69	41.42	7.63	-85.2	-88.6	3.1	7.63e-01	0	47	104	0	60	1048575
2026-01-17 21:54:53.69	41.57	7.66	-83.1	-88.6	3.5	7.63e-01	0	47	104	0	60	1048575
2026-01-17 21:54:54.70	41.73	7.69	-82.2	-88.6	3.1	7.63e-01	0	47	104	0	60	1048573
2026-01-17 21:54:55.70	41.88	7.72	-83.1	-88.6	3.1	7.64e-01	0	47	104	0	60	1048575
2026-01-17 21:54:56.71	42.04	7.75	-85.2	-88.6	2.9	7.63e-01	0	47	104	0	60	1048567
2026-01-17 21:54:57.72	42.19	7.78	-85.2	-88.6	3.7	7.63e-01	0	47	104	0	60	1048575
2026-01-17 21:54:58.73	42.35	7.80	-83.1	-88.6	2.7	7.64e-01	0	47	104	0	60	1048573
2026-01-17 21:54:59.73	42.50	7.83	-82.5	-88.6	2.8	7.64e-01	0	47	104	0	60	1048573
2026-01-17 21:55:00.74	42.66	7.86	-84.7	-88.6	2.9	7.62e-01	0	47	104	0	60	1048574
2026-01-17 21:55:01.75	42.82	7.89	-85.2	-88.6	3.3	7.63e-01	0	47	104	0	60	1048573
2026-01-17 21:55:02.76	42.97	7.92	-85.2	-88.6	3.1	7.63e-01	0	47	104	0	60	1048574
2026-01-17 21:55:03.77	43.13	7.95	-85.2	-88.6	3.2	7.61e-01	0	47	104	0	60	1048574
2026-01-17 21:55:04.77	43.29	7.98	-82.8	-88.6	3.7	7.64e-01	0	47	104	0	60	1048575
2026-01-17 21:55:05.77	43.44	8.01	-84.7	-88.6	3.0	7.60e-01	0	47	104	0	60	1048575
2026-01-17 21:55:06.78	43.60	8.03	-85.2	-88.6	3.0	7.63e-01	0	47	104	0	60	1048575
2026-01-17 21:55:07.78	43.76	8.06	-85.2	-88.6	3.1	7.63e-01	0	47	104	0	60	1048570
2026-01-17 21:55:08.78	43.91	8.09	-85.2	-88.6	2.9	7.62e-01	0	47	104	0	60	1048574
2026-01-17 21:55:09.78	44.07	8.12	-83.5	-88.6	3.2	7.63e-01	0	47	104	0	60	1048573
2026-01-17 21:55:10.79	44.23	8.14	-85.2	-88.6	3.6	7.65e-01	0	47	104	0	60	1048575
2026-01-17 21:55:11.80	44.39	8.17	-85.2	-88.6	3.2	7.63e-01	0	47	104	0	60	1048574
2026-01-17 21:55:12.81	44.55	8.20	-83.5	-88.6	3.2	7.64e-01	0	47	104	0	60	1048575
2026-01-17 21:55:13.81	44.71	8.23	-83.1	-88.6	3.0	7.64e-01	0	47	104	0	60	1048575
2026-01-17 21:55:14.82	44.87	8.25	-82.8	-88.6	3.1	7.63e-01	0	47	104	0	60	1048567
2026-01-17 21:55:15.82	45.03	8.28	-85.2	-88.6	3.4	7.63e-01	0	47	104	0	60	1048574
2026-01-17 21:55:16.83	45.19	8.31	-85.2	-88.6	2.8	7.64e-01	0	47	104	0	60	1048574
2026-01-17 21:55:17.84	45.35	8.33	-84.7	-88.6	3.1	7.64e-01	0	47	104	0	60	1048574
2026-01-17 21:55:18.84	45.51	8.36	-85.2	-88.6	3.7	7.62e-01	0	47	104	0	60	1048572
2026-01-17 21:55:19.85	45.67	8.39	-82.5	-88.6	3.3	7.63e-01	0	47	104	0	60	1048575
2026-01-17 21:55:20.85	45.84	8.41	-83.1	-88.6	3.1	7.64e-01	0	47	104	0	60	1048575
2026-01-17 21:55:21.85	46.00	8.44	-85.2	-88.6	3.0	7.64e-01	0	47	104	0	60	1048572
2026-01-17 21:55:22.86	46.16	8.46	-85.2	-88.6	3.6	7.64e-01	0	47	104	0	60	1048564
2026-01-17 21:55:23.87	46.32	8.49	-84.7	-88.6	3.1	7.62e-01	0	47	104	0	60	1048575
2026-01-17 21:55:24.87	46.48	8.51	-82.5	-88.6	3.0	7.64e-01	0	47	104	0	60	1048574
2026-01-17 21:55:25.88	46.65	8.54	-85.2	-88.6	3.0	7.64e-01	0	47	104	0	60	1048575
2026-01-17 21:55:26.89	46.81	8.56	-83.5	-88.6	3.2	7.64e-01	0	47	104	0	60	1048573
2026-01-17 21:55:27.89	46.97	8.59	-83.5	-88.6	3.6	7.64e-01	0	47	104	0	60	1048572
2026-01-17 21:55:28.89	47.14	8.61	-82.8	-88.6	3.6	7.63e-01	0	47	104	0	60	1048572
2026-01-17 21:55:29.90	47.30	8.64	-84.7	-88.6	2.8	7.66e-01	0	47	104	0	60	1048568
2026-01-17 21:55:30.91	47.47	8.66	-85.2	-88.6	3.2	7.62e-01	0	47	104	0	60	1048574
2026-01-17 21:55:31.91	47.63	8.68	-84.7	-88.6	3.7	7.64e-01	0	47	104	0	60	1048575
2026-01-17 21:55:32.92	47.80	8.71	-85.2	-88.6	3.7	7.63e-01	0	47	104	0	60	1048573
2026-01-17 21:55:33.93	47.96	8.73	-84.7	-88.6	3.0	7.63e-01	0	47	104	0	60	1048575
2026-01-17 21:55:34.94	48.13	8.76	-85.2	-88.6	2.9	7.63e-01	0	47	104	0	60	1048575
2026-01-17 21:55:35.95	48.30	8.78	-85.2	-88.6	3.5	7.64e-01	0	47	104	0	60	1048575
2026-01-17 21:55:36.95	48.46	8.80	-83.1	-88.6	3.2	7.63e-01	0	47	104	0	60	1048575
2026-01-17 21:55:37.96	48.63	8.83	-85.2	-88.6	3.0	7.64e-01	0	47	104	0	60	1048574
2026-01-17 21:55:38.97	48.79	8.85	-83.1	-88.6	3.0	7.63e-01	0	47	104	0	60	1048574
2026-01-17 21:55:39.97	48.96	8.87	-82.5	-88.6	3.1	7.64e-01	0	47	104	0	60	1048573
2026-01-17 21:55:40.98	49.13	8.89	-85.2	-88.6	3.2	7.64e-01	0	47	104	0	60	1048575
2026-01-17 21:55:41.99	49.30	8.92	-82.8	-88.6	2.9	7.62e-01	0	47	104	0	60	1048575
2026-01-17 21:55:42.99	49.46	8.94	-83.1	-88.6	3.5	7.65e-01	0	47	104	0	60	1048574
2026-01-17 21:55:44.00	49.63	8.96	-83.1	-88.6	2.9	7.63e-01	0	47	104	0	60	1048575
2026-01-17 21:55:45.00	49.80	8.98	-84.3	-88.6	3.3	7.63e-01	0	47	104	0	60	1048575
2026-01-17 21:55:46.01	49.97	9.00	-82.8	-88.6	3.5	7.63e-01	0	47	104	0	60	1048574
2026-01-17 21:55:47.01	50.13	9.02	-82.8	-88.6	3.7	7.64e-01	0	47	104	0	60	1048574
2026-01-17 21:55:48.02	50.30	9.04	-85.2	-88.6	3.1	7.64e-01	0	47	104	0	60	1048574
2026-01-17 21:55:49.03	50.47	9.06	-82.8	-88.6	3.0	7.59e-01	0	47	104	0	60	1048575
2026-01-17 21:55:50.04	50.64	9.09	-85.2	-88.6	3.7	7.63e-01	0	47	104	0	60	1048575
2026-01-17 21:55:51.05	50.81	9.11	-85.2	-88.6	3.1	7.64e-01	0	47	104	0	60	1048574
2026-01-17 21:55:52.05	50.98	9.13	-83.1	-88.6	3.0	7.63e-01	0	47	104	0	60	1048574
2026-01-17 21:55:53.06	51.15	9.15	-83.5	-88.6	3.0	7.63e-01	0	47	104	0	60	1048575
2026-01-17 21:55:54.07	51.32	9.17	-82.5	-88.6	3.3	7.64e-01	0	47	104	0	60	1048575
2026-01-17 21:55:55.07	51.49	9.19	-82.8	-88.6	2.8	7.63e-01	0	47	104	0	60	1048572
2026-01-17 21:55:56.08	51.66	9.20	-84.7	-88.6	3.0	7.63e-01	0	47	104	0	60	1048566
2026-01-17 21:55:57.08	51.83	9.22	-85.2	-88.6	3.5	7.63e-01	0	47	104	0	60	1048573
2026-01-17 21:55:58.09	52.00	9.24	-83.1	-88.6	3.3	7.64e-01	0	47	104	0	60	1048573
2026-01-17 21:55:59.09	52.17	9.26	-85.2	-88.6	3.3	7.64e-01	0	47	104	0	60	1048575
2026-01-17 21:56:00.10	52.35	9.28	-82.2	-88.6	3.2	7.63e-01	0	47	104	0	60	1048573
2026-01-17 21:56:01.10	52.52	9.30	-85.2	-88.6	2.5	7.65e-01	0	47	104	0	60	1048571
2026-01-17 21:56:02.11	52.69	9.32	-84.7	-88.6	3.3	7.63e-01	0	47	104	0	60	1048575
2026-01-17 21:56:03.11	52.86	9.33	-85.2	-88.6	3.8	7.64e-01	0	47	104	0	60	1048575
2026-01-17 21:56:04.11	53.03	9.35	-84.7	-88.6	3.2	7.64e-01	0	47	104	0	60	1048573
2026-01-17 21:56:05.12	53.20	9.37	-82.5	-88.6	3.3	7.63e-01	0	47	104	0	60	1048574
2026-01-17 21:56:06.12	53.38	9.39	-85.2	-88.6	3.1	7.63e-01	0	47	104	0	60	1048575
2026-01-17 21:56:07.13	53.55	9.40	-84.7	-88.6	3.6	7.64e-01	0	47	104	0	60	1048575
2026-01-17 21:56:08.14	53.72	9.42	-85.2	-88.6	2.8	7.63e-01	0	47	104	0	60	1048573
2026-01-17 21:56:09.14	53.90	9.44	-85.2	-88.6	3.1	7.63e-01	0	47	104	0	60	1048570
2026-01-17 21:56:10.15	54.07	9.45	-82.2	-88.6	3.2	7.64e-01	0	47	104	0	60	1048568
2026-01-17 21:56:11.16	54.24	9.47	-85.2	-88.6	3.3	7.62e-01	0	47	104	0	60	1048571
2026-01-17 21:56:12.17	54.42	9.49	-85.2	-88.6	3.6	7.63e-01	0	47	104	0	60	1048575
2026-01-17 21:56:13.17	54.59	9.50	-85.2	-88.6	3.1	7.64e-01	0	47	104	0	60	1048575
2026-01-17 21:56:14.18	54.77	9.52	-85.2	-88.6	3.1	7.64e-01	0	47	104	0	60	1048574
2026-01-17 21:56:15.19	54.94	9.53	-82.5	-88.6	3.3	7.64e-01	0	47	104	0	60	1048575
2026-01-17 21:56:16.19	55.12	9.55	-85.2	-88.6	3.1	7.64e-01	0	47	104	0	60	1048571
2026-01-17 21:56:17.20	55.29	9.56	-85.2	-88.6	3.3	7.64e-01	0	47	104	0	60	1048575
2026-01-17 21:56:18.20	55.46	9.58	-83.1	-88.6	3.6	7.64e-01	0	47	104	0	60	1048575
2026-01-17 21:56:19.20	55.64	9.59	-85.2	-88.6	2.9	7.64e-01	0	47	104	0	60	1048574
2026-01-17 21:56:20.21	55.81	9.61	-84.7	-88.6	2.8	7.64e-01	0	47	104	0	60	1048568
2026-01-17 21:56:21.21	55.99	9.62	-85.2	-88.6	3.5	7.64e-01	0	47	104	0	60	1048571
2026-01-17 21:56:22.22	56.16	9.63	-82.8	-88.6	3.7	7.61e-01	0	47	104	0	60	1048575
2026-01-17 21:56:23.23	56.34	9.65	-83.1	-88.6	3.1	7.63e-01	0	47	104	0	60	1048572
2026-01-17 21:56:24.24	56.52	9.66	-82.8	-88.6	3.0	7.63e-01	0	47	104	0	60	1048575
2026-01-17 21:56:25.25	56.69	9.68	-85.2	-88.6	3.7	7.64e-01	0	47	104	0	60	1048575
2026-01-17 21:56:26.25	56.87	9.69	-85.2	-88.6	2.7	7.65e-01	0	47	104	0	60	1048575
2026-01-17 21:56:27.26	57.05	9.70	-85.2	-88.6	3.2	7.63e-01	0	47	104	0	60	1048573
2026-01-17 21:56:28.26	57.22	9.71	-85.2	-88.6	3.5	7.62e-01	0	47	104	0	60	1048575
2026-01-17 21:56:29.26	57.40	9.73	-85.2	-88.6	3.7	7.64e-01	0	47	104	0	60	1048564
2026-01-17 21:56:30.27	57.58	9.74	-82.8	-88.6	3.3	7.60e-01	0	47	104	0	60	1048574
2026-01-17 21:56:31.27	57.75	9.75	-85.2	-88.6	3.1	7.62e-01	0	47	104	0	60	1048572
2026-01-17 21:56:32.28	57.93	9.76	-85.2	-88.6	2.8	7.59e-01	0	47	104	0	60	1048574
2026-01-17 21:56:33.28	58.10	9.77	-85.2	-88.6	2.9	7.63e-01	0	47	104	0	60	1048575
2026-01-17 21:56:34.29	58.28	9.78	-85.2	-88.6	2.9	7.64e-01	0	47	104	0	60	1048574
2026-01-17 21:56:35.29	58.46	9.79	-82.0	-88.6	3.5	7.64e-01	0	47	104	0	60	1048569
2026-01-17 21:56:36.30	58.64	9.80	-82.2	-88.6	2.9	7.65e-01	0	47	104	0	60	1048573
2026-01-17 21:56:37.31	58.82	9.81	-82.8	-88.6	3.4	7.62e-01	0	47	104	0	60	1048575
2026-01-17 21:56:38.32	58.99	9.82	-85.2	-88.6	2.9	7.63e-01	0	47	104	0	60	1048574
2026-01-17 21:56:39.32	59.17	9.83	-83.5	-88.6	3.0	7.63e-01	0	47	104	0	60	1048572
2026-01-17 21:56:40.33	59.35	9.84	-82.5	-88.6	3.1	7.64e-01	0	47	104	0	60	1048571
2026-01-17 21:56:41.34	59.53	9.85	-85.2	-88.6	3.2	7.64e-01	0	47	104	0	60	1048568
2026-01-17 21:56:42.35	59.71	9.86	-85.2	-88.6	2.8	7.63e-01	0	47	104	0	60	1048575
2026-01-17 21:56:43.35	59.89	9.87	-85.2	-88.6	3.1	7.62e-01	0	47	104	0	60	1048571
2026-01-17 21:56:44.36	60.06	9.88	-83.1	-88.6	3.1	7.63e-01	0	47	104	0	60	1048575
2026-01-17 21:56:45.36	60.24	9.89	-84.7	-88.6	3.0	7.63e-01	0	47	104	0	60	1048570
2026-01-17 21:56:46.37	60.42	9.90	-85.2	-88.6	3.2	7.63e-01	0	47	104	0	60	1048571
2026-01-17 21:56:47.37	60.60	9.90	-85.2	-88.6	3.6	7.62e-01	0	47	104	0	60	1048575
2026-01-17 21:56:48.38	60.78	9.91	-85.2	-88.6	3.1	7.63e-01	0	47	104	0	60	1048573
2026-01-17 21:56:49.38	60.96	9.92	-85.2	-88.6	2.8	7.62e-01	0	47	104	0	60	1048575
2026-01-17 21:56:50.39	61.14	9.93	-84.7	-88.6	3.1	7.63e-01	0	47	104	0	60	1048575
2026-01-17 21:56:51.40	61.32	9.93	-83.5	-88.6	3.2	7.63e-01	0	47	104	0	60	1048574
2026-01-17 21:56:52.41	61.50	9.94	-84.3	-88.6	3.7	7.63e-01	0	47	104	0	60	1048572
2026-01-17 21:56:53.41	61.68	9.95	-83.1	-88.6	3.4	7.64e-01	0	47	104	0	60	1048574
2026-01-17 21:56:54.42	61.86	9.95	-82.8	-88.6	3.0	7.63e-01	0	47	104	0	60	1048572
2026-01-17 21:56:55.43	62.04	9.96	-84.7	-88.6	3.0	7.63e-01	0	47	104	0	60	1048575
2026-01-17 21:56:56.44	62.22	9.97	-84.7	-88.6	3.3	7.65e-01	0	47	104	0	60	1048575
2026-01-17 21:56:57.45	62.40	9.97	-85.2	-88.6	3.2	7.63e-01	0	47	104	0	60	1048574
2026-01-17 21:56:58.46	62.58	9.98	-85.2	-88.6	3.1	7.64e-01	0	47	104	0	60	1048569
2026-01-17 21:56:59.46	62.76	9.98	-84.7	-88.6	3.0	7.63e-01	0	47	104	0	60	1048575
2026-01-17 21:57:00.47	62.94	9.99	-85.2	-88.6	3.5	7.63e-01	0	47	104	0	60	1048574
2026-01-17 21:57:01.48	63.12	9.99	-85.2	-88.6	3.2	7.63e-01	0	47	104	0	60	1048568
2026-01-17 21:57:02.48	63.30	10.00	-85.2	-88.6	3.2	7.64e-01	0	47	104	0	60	1048574
2026-01-17 21:57:03.48	63.47	10.00	-84.7	-88.6	3.7	7.65e-01	0	47	104	0	60	1048575
2026-01-17 21:57:04.49	63.66	10.00	-85.2	-88.6	3.1	7.62e-01	0	47	104	0	60	1048575
2026-01-17 21:57:05.48	63.83	10.01	-84.3	-88.6	3.1	7.64e-01	0	47	104	0	60	1048575
2026-01-17 21:57:06.49	64.01	10.01	-85.2	-88.6	3.3	7.64e-01	0	47	104	0	60	1048573
2026-01-17 21:57:07.50	64.19	10.01	-85.2	-88.6	3.6	7.62e-01	0	47	104	0	60	1048573
2026-01-17 21:57:08.50	64.37	10.02	-84.7	-88.6	3.1	7.63e-01	0	47	104	0	60	1048575
2026-01-17 21:57:09.51	64.55	10.02	-85.2	-88.6	3.1	7.64e-01	0	47	104	0	60	1048573
2026-01-17 21:57:10.52	64.74	10.02	-85.2	-88.6	3.0	7.63e-01	0	47	104	0	60	1048573
2026-01-17 21:57:11.53	64.92	10.02	-85.2	-88.6	3.3	7.64e-01	0	47	104	0	60	1048575
2026-01-17 21:57:12.54	65.10	10.02	-85.2	-88.6	3.2	7.61e-01	0	47	104	0	60	1048574
2026-01-17 21:57:13.55	65.28	10.03	-84.7	-88.6	3.7	7.64e-01	0	47	104	0	60	1048571
2026-01-17 21:57:14.56	65.46	10.03	-85.2	-88.6	3.0	7.62e-01	0	47	104	0	60	1048570
2026-01-17 21:57:15.57	65.64	10.03	-85.2	-88.6	3.2	7.63e-01	0	47	104	0	60	1048575
2026-01-17 21:57:16.57	65.82	10.03	-85.2	-88.6	3.7	7.64e-01	0	47	104	0	60	1048572
2026-01-17 21:57:17.58	66.00	10.03	-85.2	-88.6	3.0	7.63e-01	0	47	104	0	60	1048574
2026-01-17 21:57:18.59	66.18	10.03	-85.2	-88.6	2.9	7.63e-01	0	47	104	0	60	1048572
2026-01-17 21:57:19.59	66.36	10.03	-83.1	-88.6	3.2	7.64e-01	0	47	104	0	60	1048575
2026-01-17 21:57:20.60	66.54	10.03	-85.2	-88.6	2.4	7.64e-01	0	47	104	0	60	1048569
2026-01-17 21:57:21.61	66.72	10.03	-83.9	-88.6	3.4	7.63e-01	0	47	104	0	60	1048568
2026-01-17 21:57:22.61	66.90	10.03	-83.1	-88.6	2.9	7.64e-01	0	47	104	0	60	1048571
2026-01-17 21:57:23.61	67.08	10.03	-84.7	-88.6	3.7	7.65e-01	0	47	104	0	60	1048570
2026-01-17 21:57:24.62	67.26	10.03	-85.2	-88.6	3.4	7.64e-01	0	47	104	0	60	1048573
2026-01-17 21:57:25.63	67.45	10.03	-84.7	-88.6	3.1	7.64e-01	0	47	104	0	60	1048561
2026-01-17 21:57:26.64	67.63	10.02	-85.2	-88.6	3.2	7.63e-01	0	47	104	0	60	1048574
2026-01-17 21:57:27.65	67.81	10.02	-83.1	-88.6	3.6	7.64e-01	0	47	104	0	60	1048568
2026-01-17 21:57:28.66	67.99	10.02	-83.1	-88.6	3.3	7.62e-01	0	47	104	0	60	1048571
2026-01-17 21:57:29.67	68.17	10.02	-85.2	-88.6	3.1	7.64e-01	0	47	104	0	60	1048574
2026-01-17 21:57:30.67	68.35	10.02	-84.7	-88.6	3.3	7.61e-01	0	47	104	0	60	1048575
2026-01-17 21:57:31.68	68.53	10.01	-85.2	-88.6	3.3	7.63e-01	0	47	104	0	60	1048573
2026-01-17 21:57:32.69	68.71	10.01	-84.7	-88.6	2.8	7.63e-01	0	47	104	0	60	1048573
2026-01-17 21:57:33.69	68.89	10.01	-84.7	-88.6	3.5	7.65e-01	0	47	104	0	60	1048574
2026-01-17 21:57:34.70	69.07	10.00	-83.5	-88.6	3.0	7.63e-01	0	47	104	0	60	1048569
2026-01-17 21:57:35.71	69.25	10.00	-85.2	-88.6	3.1	7.63e-01	0	47	104	0	60	1048575
2026-01-17 21:57:36.72	69.43	9.99	-84.7	-88.6	2.9	7.64e-01	0	47	104	0	60	1048572
2026-01-17 21:57:37.72	69.61	9.99	-84.7	-88.6	2.9	7.62e-01	0	47	104	0	60	1048574
2026-01-17 21:57:38.73	69.79	9.99	-85.2	-88.6	3.1	7.63e-01	0	47	104	0	60	1048573
2026-01-17 21:57:39.74	69.97	9.98	-82.8	-88.6	3.1	7.63e-01	0	47	104	0	60	1048574
2026-01-17 21:57:40.75	70.15	9.98	-85.2	-88.6	3.6	7.64e-01	0	47	104	0	60	1048575
2026-01-17 21:57:41.76	70.33	9.97	-82.5	-88.6	3.4	7.62e-01	0	47	104	0	60	1048575
2026-01-17 21:57:42.76	70.51	9.96	-84.7	-88.6	3.7	7.64e-01	0	47	104	0	60	1048571
2026-01-17 21:57:43.76	70.69	9.96	-83.9	-88.6	3.2	7.63e-01	0	47	104	0	60	1048573
2026-01-17 21:57:44.77	70.87	9.95	-85.2	-88.6	3.4	7.64e-01	0	47	104	0	60	1048575
2026-01-17 21:57:45.78	71.05	9.95	-85.2	-88.6	3.3	7.62e-01	0	47	104	0	60	1048573
2026-01-17 21:57:46.79	71.23	9.94	-85.2	-88.6	3.1	7.63e-01	0	47	104	0	60	1048570
2026-01-17 21:57:47.80	71.41	9.93	-85.2	-88.6	3.4	7.62e-01	0	47	104	0	60	1048570
2026-01-17 21:57:48.80	71.59	9.93	-83.1	-88.6	3.2	7.65e-01	0	47	104	0	60	1048575
2026-01-17 21:57:49.81	71.77	9.92	-82.0	-88.6	3.1	7.63e-01	0	47	104	0	60	1048571
2026-01-17 21:57:50.81	71.95	9.91	-85.2	-88.6	3.4	7.63e-01	0	47	104	0	60	1048574
2026-01-17 21:57:51.82	72.13	9.90	-84.7	-88.6	3.6	7.65e-01	0	47	104	0	60	1048572
2026-01-17 21:57:52.83	72.31	9.90	-85.2	-88.6	3.1	7.63e-01	0	47	104	0	60	1048572
2026-01-17 21:57:53.84	72.49	9.89	-83.5	-88.6	3.5	7.62e-01	0	47	104	0	60	1048575
2026-01-17 21:57:54.85	72.67	9.88	-83.9	-88.6	3.3	7.63e-01	0	47	104	0	60	1048574
2026-01-17 21:57:55.85	72.85	9.87	-85.2	-88.6	3.2	7.64e-01	0	47	104	0	60	1048568
2026-01-17 21:57:56.86	73.02	9.86	-85.2	-88.6	2.9	7.63e-01	0	47	104	0	60	1048575
2026-01-17 21:57:57.87	73.20	9.85	-83.1	-88.6	3.5	7.63e-01	0	47	104	0	60	1048570
2026-01-17 21:57:58.87	73.38	9.84	-82.5	-88.6	3.6	7.63e-01	0	47	104	0	60	1048571
2026-01-17 21:57:59.88	73.56	9.83	-85.2	-88.6	2.7	7.64e-01	0	47	104	0	60	1048567
2026-01-17 21:58:00.89	73.74	9.82	-85.2	-88.6	3.5	7.62e-01	0	47	104	0	60	1048574
2026-01-17 21:58:01.89	73.92	9.81	-85.2	-88.6	3.2	7.63e-01	0	47	104	0	60	1048575
2026-01-17 21:58:02.90	74.09	9.80	-83.1	-88.6	3.1	7.63e-01	0	47	104	0	60	1048575
2026-01-17 21:58:03.91	74.27	9.79	-82.8	-88.6	3.3	7.64e-01	0	47	104	0	60	1048574
2026-01-17 21:58:04.92	74.45	9.78	-82.0	-88.6	3.3	7.64e-01	0	47	104	0	60	1048574
2026-01-17 21:58:05.92	74.63	9.77	-85.2	-88.6	3.2	7.64e-01	0	47	104	0	60	1048571
2026-01-17 21:58:06.93	74.81	9.76	-85.2	-88.6	3.1	7.64e-01	0	47	104	0	60	1048571
2026-01-17 21:58:07.93	74.98	9.75	-83.5	-88.6	3.8	7.64e-01	0	47	104	0	60	1048570
2026-01-17 21:58:08.94	75.16	9.73	-85.2	-88.6	3.3	7.64e-01	0	47	104	0	60	1048574
2026-01-17 21:58:09.94	75.34	9.72	-82.0	-88.6	2.9	7.63e-01	0	47	104	0	60	1048573
2026-01-17 21:58:10.95	75.51	9.71	-84.7	-88.6	3.1	7.64e-01	0	47	104	0	60	1048571
2026-01-17 21:58:11.95	75.69	9.70	-85.2	-88.6	3.5	7.64e-01	0	47	104	0	60	1048572
2026-01-17 21:58:12.96	75.87	9.68	-85.2	-88.6	3.1	7.63e-01	0	47	104	0	60	1048570
2026-01-17 21:58:13.96	76.04	9.67	-85.2	-88.6	3.0	7.61e-01	0	47	104	0	60	1048575
2026-01-17 21:58:14.97	76.22	9.66	-82.2	-88.6	2.8	7.63e-01	0	47	104	0	60	1048574
2026-01-17 21:58:15.97	76.39	9.65	-85.2	-88.6	3.8	7.63e-01	0	47	104	0	60	1048572
2026-01-17 21:58:16.98	76.57	9.63	-85.2	-88.6	3.3	7.63e-01	0	47	104	0	60	1048573
2026-01-17 21:58:17.99	76.75	9.62	-85.2	-88.6	3.6	7.64e-01	0	47	104	0	60	1048575
2026-01-17 21:58:19.00	76.92	9.60	-85.2	-88.6	3.7	7.63e-01	0	47	104	0	60	1048570
2026-01-17 21:58:20.01	77.10	9.59	-82.8	-88.6	3.1	7.64e-01	0	47	104	0	60	1048573
2026-01-17 21:58:21.01	77.27	9.57	-85.2	-88.6	3.2	7.65e-01	0	47	104	0	60	1048575
2026-01-17 21:58:22.02	77.45	9.56	-85.2	-88.6	3.1	7.63e-01	0	47	104	0	60	1048555
2026-01-17 21:58:23.03	77.63	9.54	-83.1	-88.6	3.4	7.63e-01	0	47	104	0	60	1048572
2026-01-17 21:58:24.03	77.80	9.53	-84.7	-88.6	2.9	7.63e-01	0	47	104	0	60	1048571
2026-01-17 21:58:25.03	77.97	9.51	-85.2	-88.6	3.2	7.63e-01	0	47	104	0	60	1048571
2026-01-17 21:58:26.04	78.15	9.50	-85.2	-88.6	3.2	7.63e-01	0	47	104	0	60	1048572
2026-01-17 21:58:27.05	78.32	9.48	-85.2	-88.6	3.5	7.63e-01	0	47	104	0	60	1048572
2026-01-17 21:58:28.06	78.50	9.47	-85.2	-88.6	3.2	7.63e-01	0	47	104	0	60	1048575
2026-01-17 21:58:29.07	78.67	9.45	-83.1	-88.6	2.9	7.63e-01	0	47	104	0	60	1048567
2026-01-17 21:58:30.07	78.85	9.43	-82.2	-88.6	3.5	7.64e-01	0	47	104	0	60	1048575
2026-01-17 21:58:31.08	79.02	9.42	-85.2	-88.6	3.3	7.65e-01	0	47	104	0	60	1048574
2026-01-17 21:58:32.09	79.19	9.40	-85.2	-88.6	3.5	7.61e-01	0	47	104	0	60	1048572
2026-01-17 21:58:33.10	79.37	9.38	-83.1	-88.6	3.4	7.64e-01	0	47	104	0	60	1048573
2026-01-17 21:58:34.11	79.54	9.36	-84.7	-88.6	2.9	7.63e-01	0	47	104	0	60	1048568
2026-01-17 21:58:35.11	79.71	9.35	-82.8	-88.6	3.1	7.65e-01	0	47	104	0	60	1048566
2026-01-17 21:58:36.12	79.89	9.33	-85.2	-88.6	3.1	7.62e-01	0	47	104	0	60	1048574
2026-01-17 21:58:37.13	80.06	9.31	-85.2	-88.6	3.2	7.62e-01	0	47	104	0	60	1048574
2026-01-17 21:58:38.13	80.23	9.29	-83.1	-88.6	3.2	7.63e-01	0	47	104	0	60	1048575
2026-01-17 21:58:39.14	80.40	9.27	-82.8	-88.6	3.3	7.62e-01	0	47	104	0	60	1048575
2026-01-17 21:58:40.14	80.57	9.26	-83.1	-88.6	3.5	7.63e-01	0	47	104	0	60	1048560
2026-01-17 21:58:41.15	80.75	9.24	-85.2	-88.6	3.2	7.63e-01	0	47	104	0	60	1048571
2026-01-17 21:58:42.15	80.92	9.22	-85.2	-88.6	3.4	7.62e-01	0	47	104	0	60	1048561
2026-01-17 21:58:43.16	81.09	9.20	-83.9	-88.6	3.0	7.63e-01	0	47	104	0	60	1048572
2026-01-17 21:58:44.17	81.26	9.18	-83.5	-88.6	3.7	7.62e-01	0	47	104	0	60	1048575
2026-01-17 21:58:45.17	81.43	9.16	-82.5	-88.6	3.2	7.64e-01	0	47	104	0	60	1048575
2026-01-17 21:58:46.18	81.60	9.14	-85.2	-88.6	3.5	7.63e-01	0	47	104	0	60	1048575
2026-01-17 21:58:47.19	81.77	9.12	-85.2	-88.6	3.1	7.64e-01	0	47	104	0	60	1048575
2026-01-17 21:58:48.19	81.94	9.10	-84.7	-88.6	3.4	7.62e-01	0	47	104	0	60	1048575
2026-01-17 21:58:49.20	82.11	9.08	-85.2	-88.6	3.2	7.64e-01	0	47	104	0	60	1048575
2026-01-17 21:58:50.20	82.28	9.06	-82.8	-88.6	3.3	7.64e-01	0	47	104	0	60	1048575
2026-01-17 21:58:51.21	82.45	9.04	-85.2	-88.6	3.0	7.63e-01	0	47	104	0	60	1048575
2026-01-17 21:58:52.22	82.62	9.02	-85.2	-88.6	3.1	7.63e-01	0	47	104	0	60	1048575
2026-01-17 21:58:53.23	82.79	8.99	-85.2	-88.6	3.4	7.65e-01	0	47	104	0	60	1048572
2026-01-17 21:58:54.24	82.96	8.97	-85.2	-88.6	3.8	7.64e-01	0	47	104	0	60	1048574
2026-01-17 21:58:55.24	83.13	8.95	-83.1	-88.6	3.0	7.63e-01	0	47	104	0	60	1048573
2026-01-17 21:58:56.25	83.29	8.93	-85.2	-88.6	3.0	7.64e-01	0	47	104	0	60	1048575
2026-01-17 21:58:57.26	83.46	8.91	-85.2	-88.6	3.1	7.64e-01	0	47	104	0	60	1048573
2026-01-17 21:58:58.26	83.63	8.88	-84.7	-88.6	3.3	7.63e-01	0	47	104	0	60	1048574
2026-01-17 21:58:59.27	83.80	8.86	-82.8	-88.6	3.1	7.64e-01	0	47	104	0	60	1048574
2026-01-17 21:59:00.27	83.96	8.84	-85.2	-88.6	3.0	7.64e-01	0	47	104	0	60	1048575
2026-01-17 21:59:01.28	84.13	8.82	-83.5	-88.6	3.3	7.64e-01	0	47	104	0	60	1048574
2026-01-17 21:59:02.28	84.30	8.79	-85.2	-88.6	3.6	7.63e-01	0	47	104	0	60	1048575
2026-01-17 21:59:03.28	84.46	8.77	-85.2	-88.6	3.3	7.64e-01	0	47	104	0	60	1048575
2026-01-17 21:59:04.28	84.63	8.75	-85.2	-88.6	3.1	7.61e-01	0	47	104	0	60	1048573
2026-01-17 21:59:05.29	84.79	8.72	-85.2	-88.6	3.1	7.62e-01	0	47	104	0	60	1048575
2026-01-17 21:59:06.29	84.96	8.70	-85.2	-88.6	3.0	7.64e-01	0	47	104	0	60	1048574
2026-01-17 21:59:07.29	85.12	8.68	-85.2	-88.6	3.8	7.63e-01	0	47	104	0	60	1048571
2026-01-17 21:59:08.30	85.29	8.65	-84.7	-88.6	3.4	7.62e-01	0	47	104	0	60	1048574
2026-01-17 21:59:09.31	85.45	8.63	-85.2	-88.6	3.3	7.63e-01	0	47	104	0	60	1048572
2026-01-17 21:59:10.32	85.62	8.60	-85.2	-88.6	3.1	7.64e-01	0	47	104	0	60	1048575
2026-01-17 21:59:11.33	85.78	8.58	-85.2	-88.6	3.4	7.64e-01	0	47	104	0	60	1048568
2026-01-17 21:59:12.33	85.95	8.55	-85.2	-88.6	3.2	7.65e-01	0	47	104	0	60	1048570
2026-01-17 21:59:13.34	86.11	8.53	-82.8	-88.6	3.1	7.62e-01	0	47	104	0	60	1048571
2026-01-17 21:59:14.35	86.28	8.50	-85.2	-88.6	3.0	7.63e-01	0	47	104	0	60	1048574
2026-01-17 21:59:15.36	86.44	8.48	-85.2	-88.6	2.9	7.64e-01	0	47	104	0	60	1048568
2026-01-17 21:59:16.37	86.60	8.45	-85.2	-88.6	2.6	7.64e-01	0	47	104	0	60	1048574
2026-01-17 21:59:17.37	86.76	8.43	-85.2	-88.6	3.1	7.64e-01	0	47	104	0	60	1048575
2026-01-17 21:59:18.38	86.93	8.40	-83.1	-88.6	3.3	7.62e-01	0	47	104	0	60	1048573
2026-01-17 21:59:19.39	87.09	8.37	-83.1	-88.6	3.0	7.63e-01	0	47	104	0	60	1048575
2026-01-17 21:59:20.39	87.25	8.35	-83.1	-88.6	3.1	7.63e-01	0	47	104	0	60	1048575
2026-01-17 21:59:21.40	87.41	8.32	-85.2	-88.6	3.2	7.64e-01	0	47	104	0	60	1048575
2026-01-17 21:59:22.40	87.57	8.29	-85.2	-88.6	2.9	7.65e-01	0	47	104	0	60	1048573
2026-01-17 21:59:23.41	87.74	8.27	-83.1	-88.6	3.2	7.64e-01	0	47	104	0	60	1048574
2026-01-17 21:59:24.42	87.90	8.24	-83.5	-88.6	3.4	7.63e-01	0	47	104	0	60	1048574
2026-01-17 21:59:25.43	88.06	8.21	-83.1	-88.6	3.4	7.65e-01	0	47	104	0	60	1048574
2026-01-17 21:59:26.43	88.22	8.19	-85.2	-88.6	2.7	7.62e-01	0	47	104	0	60	1048575
2026-01-17 21:59:27.44	88.38	8.16	-83.9	-88.6	3.0	7.64e-01	0	47	104	0	60	1048573
2026-01-17 21:59:28.45	88.54	8.13	-82.5	-88.6	3.3	7.66e-01	0	47	104	0	60	1048573
2026-01-17 21:59:29.46	88.70	8.10	-85.2	-88.6	3.0	7.62e-01	0	47	104	0	60	1048570
2026-01-17 21:59:30.46	88.86	8.08	-84.7	-88.6	3.1	7.64e-01	0	47	104	0	60	1048574
2026-01-17 21:59:31.46	89.01	8.05	-84.7	-88.6	3.0	7.64e-01	0	47	104	0	60	1048573
2026-01-17 21:59:32.47	89.17	8.02	-82.5	-88.6	2.9	7.63e-01	0	47	104	0	60	1048573
2026-01-17 21:59:33.47	89.33	7.99	-85.2	-88.6	3.5	7.64e-01	0	47	104	0	60	1048575
2026-01-17 21:59:34.48	89.49	7.96	-85.2	-88.6	3.2	7.63e-01	0	47	104	0	60	1048574
2026-01-17 21:59:35.49	89.65	7.93	-83.1	-88.6	3.0	7.64e-01	0	47	104	0	60	1048575
2026-01-17 21:59:36.49	89.80	7.90	-85.2	-88.6	3.2	7.63e-01	0	47	104	0	60	1048574
2026-01-17 21:59:37.50	89.96	7.88	-85.2	-88.6	3.6	7.65e-01	0	47	104	0	60	1048572
2026-01-17 21:59:38.51	90.12	7.85	-83.1	-88.6	3.5	7.64e-01	0	47	104	0	60	1048572
2026-01-17 21:59:39.52	90.27	7.82	-85.2	-88.6	3.0	7.61e-01	0	47	104	0	60	1048574
2026-01-17 21:59:40.53	90.43	7.79	-84.3	-88.6	3.1	7.63e-01	0	47	104	0	60	1048575
2026-01-17 21:59:41.53	90.59	7.76	-85.2	-88.6	3.5	7.62e-01	0	47	104	0	60	1048570
2026-01-17 21:59:42.54	90.74	7.73	-85.2	-88.6	3.0	7.64e-01	0	47	104	0	60	1048572
2026-01-17 21:59:43.55	90.90	7.70	-85.2	-88.6	3.1	7.64e-01	0	47	104	0	60	1048574
2026-01-17 21:59:44.56	91.05	7.67	-85.2	-88.6	3.0	7.64e-01	0	47	104	0	60	1048573
2026-01-17 21:59:45.57	91.21	7.64	-82.5	-88.6	2.9	7.62e-01	0	47	104	0	60	1048570
2026-01-17 21:59:46.57	91.36	7.61	-85.2	-88.6	3.2	7.62e-01	0	47	104	0	60	1048574
2026-01-17 21:59:47.58	91.52	7.58	-85.2	-88.6	2.8	7.63e-01	0	47	104	0	60	1048573
2026-01-17 21:59:48.59	91.67	7.55	-85.2	-88.6	3.1	7.64e-01	0	47	104	0	60	1048575
2026-01-17 21:59:49.59	91.82	7.52	-84.7	-88.6	2.8	7.63e-01	0	47	104	0	60	1048565
2026-01-17 21:59:50.60	91.98	7.49	-83.1	-88.6	3.0	7.64e-01	0	47	104	0	60	1048570
2026-01-17 21:59:51.61	92.13	7.45	-85.2	-88.6	3.5	7.64e-01	0	47	104	0	60	1048575
2026-01-17 21:59:52.61	92.28	7.42	-85.2	-88.6	3.3	7.64e-01	0	47	104	0	60	1048575
2026-01-17 21:59:53.62	92.43	7.39	-85.2	-88.6	3.0	7.64e-01	0	47	104	0	60	1048572
2026-01-17 21:59:54.63	92.58	7.36	-82.2	-88.6	3.6	7.63e-01	0	47	104	0	60	1048575
2026-01-17 21:59:55.64	92.74	7.33	-85.2	-88.6	3.4	7.65e-01	0	47	104	0	60	1048575
2026-01-17 21:59:56.65	92.89	7.30	-85.2	-88.6	2.4	7.63e-01	0	47	104	0	60	1048573
2026-01-17 21:59:57.66	93.04	7.27	-83.5	-88.6	3.1	7.64e-01	0	47	104	0	60	1048575
2026-01-17 21:59:58.66	93.19	7.23	-85.2	-88.6	2.9	7.64e-01	0	47	104	0	60	1048575
2026-01-17 21:59:59.67	93.34	7.20	-84.7	-88.6	3.2	7.64e-01	0	47	104	0	60	1048573
2026-01-17 22:00:00.68	93.49	7.17	-85.2	-88.6	3.2	7.64e-01	0	47	104	0	60	1048575
2026-01-17 22:00:01.69	93.64	7.14	-85.2	-88.6	3.2	7.63e-01	0	47	104	0	60	1048573
2026-01-17 22:00:02.69	93.79	7.10	-83.1	-88.6	3.1	7.64e-01	0	47	104	0	60	1048573
2026-01-17 22:00:03.70	93.94	7.07	-83.1	-88.6	3.3	7.64e-01	0	47	104	0	60	1048574
2026-01-17 22:00:04.70	94.09	7.04	-83.1	-88.6	3.5	7.62e-01	0	47	104	0	60	1048572
2026-01-17 22:00:05.71	94.23	7.01	-83.1	-88.6	3.8	7.63e-01	0	47	104	0	60	1048572
2026-01-17 22:00:06.72	94.38	6.97	-85.2	-88.6	2.9	7.63e-01	0	47	104	0	60	1048574
2026-01-17 22:00:07.72	94.53	6.94	-85.2	-88.6	2.9	7.63e-01	0	47	104	0	60	1048575
2026-01-17 22:00:08.72	94.68	6.91	-85.2	-88.6	3.6	7.63e-01	0	47	104	0	60	1048573
2026-01-17 22:00:09.73	94.82	6.88	-82.8	-88.6	3.2	7.64e-01	0	47	104	0	60	1048575
2026-01-17 22:00:10.74	94.97	6.84	-85.2	-88.6	3.1	7.64e-01	0	47	104	0	60	1048573
2026-01-17 22:00:11.74	95.12	6.81	-85.2	-88.6	3.0	7.64e-01	0	47	104	0	60	1048575
2026-01-17 22:00:12.75	95.26	6.77	-85.2	-88.6	3.6	7.65e-01	0	47	104	0	60	1048555
2026-01-17 22:00:13.76	95.41	6.74	-82.8	-88.6	3.1	7.64e-01	0	47	104	0	60	1048574
2026-01-17 22:00:14.77	95.55	6.71	-85.2	-88.6	3.0	7.63e-01	0	47	104	0	60	1048573
2026-01-17 22:00:15.78	95.70	6.67	-85.2	-88.6	3.4	7.64e-01	0	47	104	0	60	1048574
2026-01-17 22:00:16.78	95.84	6.64	-83.1	-88.6	3.1	7.64e-01	0	47	104	0	60	1048572
2026-01-17 22:00:17.79	95.99	6.61	-84.7	-88.6	3.1	7.63e-01	0	47	104	0	60	1048574
2026-01-17 22:00:18.79	96.13	6.57	-85.2	-88.6	2.5	7.64e-01	0	47	104	0	60	1048573
2026-01-17 22:00:19.80	96.28	6.54	-85.2	-88.6	3.5	7.62e-01	0	47	104	0	60	1048575
2026-01-17 22:00:20.80	96.42	6.50	-84.7	-88.6	3.0	7.64e-01	0	47	104	0	60	1048574
2026-01-17 22:00:21.81	96.56	6.47	-85.2	-88.6	2.9	7.63e-01	0	47	104	0	60	1048575
2026-01-17 22:00:22.81	96.70	6.43	-85.2	-88.6	3.3	7.63e-01	0	47	104	0	60	1048572
2026-01-17 22:00:23.81	96.85	6.40	-85.2	-88.6	3.7	7.64e-01	0	47	104	0	60	1048574
2026-01-17 22:00:24.82	96.99	6.36	-83.9	-88.6	3.1	7.64e-01	0	47	104	0	60	1048575
2026-01-17 22:00:25.82	97.13	6.33	-82.8	-88.6	2.9	7.63e-01	0	47	104	0	60	1048575
2026-01-17 22:00:26.83	97.27	6.29	-85.2	-88.6	3.2	7.63e-01	0	47	104	0	60	1048574
2026-01-17 22:00:27.84	97.41	6.26	-85.2	-88.6	3.1	7.62e-01	0	47	104	0	60	1048575
2026-01-17 22:00:28.85	97.55	6.22	-83.1	-88.6	3.1	7.62e-01	0	47	104	0	60	1048571
2026-01-17 22:00:29.86	97.69	6.19	-83.1	-88.6	3.1	7.63e-01	0	47	104	0	60	1048572
2026-01-17 22:00:30.86	97.83	6.15	-83.1	-88.6	3.0	7.64e-01	0	47	104	0	60	1048574
2026-01-17 22:00:31.87	97.97	6.12	-85.2	-88.6	3.1	7.64e-01	0	47	104	0	60	1048574
2026-01-17 22:00:32.88	98.11	6.08	-85.2	-88.6	3.0	7.62e-01	0	47	104	0	60	1048572
2026-01-17 22:00:33.89	98.25	6.05	-85.2	-88.6	3.4	7.64e-01	0	47	104	0	60	1048575
2026-01-17 22:00:34.89	98.39	6.01	-82.0	-88.6	2.9	7.63e-01	0	47	104	0	60	1048572
2026-01-17 22:00:35.90	98.53	5.97	-83.5	-88.6	3.1	7.60e-01	0	47	104	0	60	1048575
2026-01-17 22:00:36.90	98.67	5.94	-85.2	-88.6	3.8	7.63e-01	0	47	104	0	60	1048575
2026-01-17 22:00:37.91	98.81	5.90	-83.1	-88.6	3.1	7.61e-01	0	47	104	0	60	1048570
2026-01-17 22:00:38.91	98.94	5.87	-83.1	-88.6	2.9	7.63e-01	0	47	104	0	60	1048573
2026-01-17 22:00:39.92	99.08	5.83	-82.5	-88.6	3.4	7.65e-01	0	47	104	0	60	1048575
2026-01-17 22:00:40.92	99.22	5.79	-84.7	-88.6	3.3	7.65e-01	0	47	104	0	60	1048575
2026-01-17 22:00:41.93	99.35	5.76	-85.2	-88.6	3.2	7.64e-01	0	47	104	0	60	1048573
2026-01-17 22:00:42.93	99.49	5.72	-83.9	-88.6	2.9	7.63e-01	0	47	104	0	60	1048575
2026-01-17 22:00:43.94	99.63	5.68	-83.5	-88.6	3.5	7.63e-01	0	47	104	0	60	1048575
2026-01-17 22:00:44.95	99.76	5.65	-85.2	-88.6	2.9	7.62e-01	0	47	104	0	60	1048569
2026-01-17 22:00:45.96	99.90	5.61	-82.8	-88.6	2.9	7.63e-01	0	47	104	0	60	1048575
2026-01-17 22:00:46.96	100.03	5.57	-85.2	-88.6	3.1	7.63e-01	0	47	104	0	60	1048572
2026-01-17 22:00:47.97	100.17	5.54	-85.2	-88.6	3.5	7.63e-01	0	47	104	0	60	1048575
2026-01-17 22:00:48.97	100.30	5.50	-85.2	-88.6	3.4	7.64e-01	0	47	104	0	60	1048575
2026-01-17 22:00:49.98	100.43	5.46	-85.2	-88.6	2.9	7.63e-01	0	47	104	0	60	1048573
2026-01-17 22:00:50.99	100.57	5.43	-85.2	-88.6	3.0	7.64e-01	0	47	104	0	60	1048573
2026-01-17 22:00:52.00	100.70	5.39	-85.2	-88.6	2.9	7.63e-01	0	47	104	0	60	1048573
2026-01-17 22:00:53.01	100.84	5.35	-85.2	-88.6	3.5	7.63e-01	0	47	104	0	60	1048574
2026-01-17 22:00:54.01	100.97	5.31	-85.2	-88.6	3.7	7.65e-01	0	47	104	0	60	1048574
2026-01-17 22:00:55.02	101.10	5.28	-82.5	-88.6	3.5	7.63e-01	0	47	104	0	60	1048574
2026-01-17 22:00:56.02	101.23	5.24	-84.7	-88.6	2.9	7.62e-01	0	47	104	0	60	1048574
2026-01-17 22:00:57.03	101.36	5.20	-85.2	-88.6	3.0	7.62e-01	0	47	104	0	60	1048567
2026-01-17 22:00:58.04	101.49	5.16	-85.2	-88.6	3.6	7.63e-01	0	47	104	0	60	1048571
2026-01-17 22:00:59.05	101.63	5.13	-85.2	-88.6	3.4	7.63e-01	0	47	104	0	60	1048575
2026-01-17 22:01:00.05	101.76	5.09	-85.2	-88.6	2.7	7.63e-01	0	47	104	0	60	1048571
2026-01-17 22:01:01.06	101.89	5.05	-84.7	-88.6	3.2	7.63e-01	0	47	104	0	60	1048573
2026-01-17 22:01:02.07	102.02	5.01	-85.2	-88.6	3.3	7.65e-01	0	47	104	0	60	1048574
2026-01-17 22:01:03.08	102.15	4.97	-85.2	-88.6	3.5	7.63e-01	0	47	104	0	60	1048570
2026-01-17 22:01:04.09	102.28	4.94	-85.2	-88.6	3.5	7.64e-01	0	47	104	0	60	1048574
2026-01-17 22:01:05.09	102.41	4.90	-83.1	-88.6	2.9	7.64e-01	0	47	104	0	60	1048573
2026-01-17 22:01:06.10	102.53	4.86	-84.7	-88.6	3.0	7.64e-01	0	47	104	0	60	1048572
2026-01-17 22:01:07.11	102.66	4.82	-84.7	-88.6	3.1	7.63e-01	0	47	104	0	60	1048575
2026-01-17 22:01:08.12	102.79	4.78	-83.1	-88.6	3.4	7.64e-01	0	47	104	0	60	1048573
2026-01-17 22:01:09.12	102.92	4.75	-83.1	-88.6	3.4	7.64e-01	0	47	104	0	60	1048568
2026-01-17 22:01:10.12	103.05	4.71	-82.5	-88.6	3.1	7.63e-01	0	47	104	0	60	1048575
2026-01-17 22:01:11.13	103.17	4.67	-85.2	-88.6	3.5	7.64e-01	0	47	104	0	60	1048574
2026-01-17 22:01:12.13	103.30	4.63	-85.2	-88.6	3.6	7.64e-01	0	47	104	0	60	1048572
2026-01-17 22:01:13.14	103.43	4.59	-85.2	-88.6	3.0	7.64e-01	0	47	104	0	60	1048574
2026-01-17 22:01:14.15	103.55	4.55	-85.2	-88.6	3.5	7.64e-01	0	47	104	0	60	1048571
2026-01-17 22:01:15.15	103.68	4.51	-85.2	-88.6	2.9	7.63e-01	0	47	104	0	60	1048572
2026-01-17 22:01:16.16	103.80	4.48	-83.1	-88.6	3.0	7.63e-01	0	47	104	0	60	1048571
2026-01-17 22:01:17.17	103.93	4.44	-85.2	-88.6	2.9	7.63e-01	0	47	104	0	60	1048574
2026-01-17 22:01:18.18	104.06	4.40	-83.9	-88.6	3.8	7.65e-01	0	47	104	0	60	1048575
2026-01-17 22:01:19.18	104.18	4.36	-85.2	-88.6	2.9	7.64e-01	0	47	104	0	60	1048575
2026-01-17 22:01:20.19	104.30	4.32	-83.1	-88.6	3.1	7.64e-01	0	47	104	0	60	1048572
2026-01-17 22:01:21.19	104.43	4.28	-85.2	-88.6	3.6	7.64e-01	0	47	104	0	60	1048575
2026-01-17 22:01:22.20	104.55	4.24	-85.2	-88.6	3.1	7.63e-01	0	47	104	0	60	1048575
2026-01-17 22:01:23.20	104.67	4.20	-85.2	-88.6	2.9	7.63e-01	0	47	104	0	60	1048575
2026-01-17 22:01:24.21	104.80	4.16	-85.2	-88.6	3.1	7.65e-01	0	47	104	0	60	1048575
2026-01-17 22:01:25.22	104.92	4.12	-85.2	-88.6	3.0	7.64e-01	0	47	104	0	60	1048575
2026-01-17 22:01:26.22	105.04	4.09	-84.7	-88.6	3.2	7.63e-01	0	47	104	0	60	1048574
2026-01-17 22:01:27.22	105.16	4.05	-84.7	-88.6	2.8	7.63e-01	0	47	104	0	60	1048573
2026-01-17 22:01:28.23	105.29	4.01	-85.2	-88.6	3.1	7.60e-01	0	47	104	0	60	1048575
2026-01-17 22:01:29.23	105.41	3.97	-85.2	-88.6	3.1	7.63e-01	0	47	104	0	60	1048573
2026-01-17 22:01:30.23	105.53	3.93	-85.2	-88.6	2.9	7.64e-01	0	47	104	0	60	1048575
2026-01-17 22:01:31.24	105.65	3.89	-85.2	-88.6	3.1	7.63e-01	0	47	104	0	60	1048572
2026-01-17 22:01:32.25	105.77	3.85	-85.2	-88.6	3.5	7.63e-01	0	47	104	0	60	1048575
2026-01-17 22:01:33.25	105.89	3.81	-83.1	-88.6	3.3	7.64e-01	0	47	104	0	60	1048573
2026-01-17 22:01:34.26	106.01	3.77	-83.1	-88.6	2.9	7.63e-01	0	47	104	0	60	1048573
2026-01-17 22:01:35.27	106.13	3.73	-82.2	-88.6	2.9	7.62e-01	0	47	104	0	60	1048573
2026-01-17 22:01:36.28	106.25	3.69	-85.2	-88.6	3.4	7.63e-01	0	47	104	0	60	1048574
2026-01-17 22:01:37.29	106.37	3.65	-85.2	-88.6	3.0	7.62e-01	0	47	104	0	60	1048570
2026-01-17 22:01:38.30	106.49	3.61	-85.2	-88.6	3.7	7.63e-01	0	47	104	0	60	1048575
2026-01-17 22:01:39.30	106.60	3.57	-84.7	-88.6	3.4	7.63e-01	0	47	104	0	60	1048575
2026-01-17 22:01:40.31	106.72	3.53	-84.7	-88.6	3.1	7.64e-01	0	47	104	0	60	1048566
2026-01-17 22:01:41.32	106.84	3.49	-85.2	-88.6	2.9	7.64e-01	0	47	104	0	60	1048575
2026-01-17 22:01:42.33	106.96	3.45	-85.2	-88.6	3.1	7.63e-01	0	47	104	0	60	1048574
2026-01-17 22:01:43.33	107.07	3.41	-85.2	-88.6	3.4	7.64e-01	0	47	104	0	60	1048573
2026-01-17 22:01:44.34	107.19	3.37	-85.2	-88.6	3.5	7.63e-01	0	47	104	0	60	1048572
2026-01-17 22:01:45.34	107.31	3.33	-83.1	-88.6	3.0	7.63e-01	0	47	104	0	60	1048574
2026-01-17 22:01:46.35	107.42	3.29	-85.2	-88.6	2.9	7.64e-01	0	47	104	0	60	1048574
2026-01-17 22:01:47.35	107.54	3.25	-85.2	-88.6	3.0	7.64e-01	0	47	104	0	60	1048570
2026-01-17 22:01:48.35	107.65	3.21	-82.8	-88.6	3.2	7.63e-01	0	47	104	0	60	1048574
2026-01-17 22:01:49.35	107.77	3.17	-83.1	-88.6	3.2	7.64e-01	0	47	104	0	60	1048567
2026-01-17 22:01:50.36	107.88	3.13	-82.8	-88.6	3.6	7.64e-01	0	47	104	0	60	1048571
2026-01-17 22:01:51.37	108.00	3.09	-85.2	-88.6	3.0	7.63e-01	0	47	104	0	60	1048575
2026-01-17 22:01:52.37	108.11	3.05	-85.2	-88.6	2.9	7.64e-01	0	47	104	0	60	1048574
2026-01-17 22:01:53.38	108.23	3.01	-85.2	-88.6	3.6	7.64e-01	0	47	104	0	60	1048573
2026-01-17 22:01:54.38	108.34	2.97	-83.1	-88.6	3.1	7.63e-01	0	47	104	0	60	1048575
2026-01-17 22:01:55.39	108.45	2.93	-85.2	-88.6	3.1	7.61e-01	0	47	104	0	60	1048573
2026-01-17 22:01:56.40	108.57	2.89	-85.2	-88.6	3.6	7.63e-01	0	47	104	0	60	1048573
2026-01-17 22:01:57.41	108.68	2.85	-85.2	-88.6	3.0	7.63e-01	0	47	104	0	60	1048573
2026-01-17 22:01:58.41	108.79	2.81	-84.7	-88.6	3.4	7.63e-01	0	47	104	0	60	1048573
2026-01-17 22:01:59.42	108.91	2.77	-84.7	-88.6	3.0	7.65e-01	0	47	104	0	60	1048574
2026-01-17 22:02:00.42	109.02	2.73	-85.2	-88.6	3.6	7.64e-01	0	47	104	0	60	1048574
2026-01-17 22:02:01.43	109.13	2.69	-82.8	-88.6	3.4	7.65e-01	0	47	104	0	60	1048575
2026-01-17 22:02:02.43	109.24	2.65	-85.2	-88.6	3.1	7.63e-01	0	47	104	0	60	1048570
2026-01-17 22:02:03.44	109.35	2.60	-84.7	-88.6	3.7	7.63e-01	0	47	104	0	60	1048574
2026-01-17 22:02:04.44	109.46	2.56	-85.2	-88.6	3.6	7.64e-01	0	47	104	0	60	1048568
2026-01-17 22:02:05.45	109.57	2.52	-85.2	-88.6	2.9	7.65e-01	0	47	104	0	60	1048575
2026-01-17 22:02:06.45	109.68	2.48	-85.2	-88.6	3.0	7.64e-01	0	47	104	0	60	1048574
2026-01-17 22:02:07.45	109.79	2.44	-85.2	-88.6	3.4	7.62e-01	0	47	104	0	60	1048575
2026-01-17 22:02:08.46	109.90	2.40	-84.7	-88.6	3.0	7.64e-01	0	47	104	0	60	1048575
2026-01-17 22:02:09.46	110.01	2.36	-84.3	-88.6	3.1	7.64e-01	0	47	104	0	60	1048572
2026-01-17 22:02:10.47	110.12	2.32	-83.1	-88.6	3.1	7.64e-01	0	47	104	0	60	1048575
2026-01-17 22:02:11.47	110.23	2.28	-84.7	-88.6	3.0	7.65e-01	0	47	104	0	60	1048573
2026-01-17 22:02:12.48	110.34	2.24	-85.2	-88.6	3.0	7.61e-01	0	47	104	0	60	1048573
2026-01-17 22:02:13.49	110.45	2.20	-84.7	-88.6	3.7	7.65e-01	0	47	104	0	60	1048575
2026-01-17 22:02:14.50	110.55	2.16	-85.2	-88.6	3.6	7.62e-01	0	47	104	0	60	1048575
2026-01-17 22:02:15.51	110.66	2.12	-85.2	-88.6	3.0	7.64e-01	0	47	104	0	60	1048575
2026-01-17 22:02:16.51	110.77	2.07	-85.2	-88.6	2.9	7.63e-01	0	47	104	0	60	1048573
2026-01-17 22:02:17.52	110.88	2.03	-84.7	-88.6	3.6	7.62e-01	0	47	104	0	60	1048574
2026-01-17 22:02:18.53	110.98	1.99	-82.8	-88.6	3.0	7.64e-01	0	47	104	0	60	1048574
2026-01-17 22:02:19.53	111.09	1.95	-83.1	-88.6	3.0	7.63e-01	0	47	104	0	60	1048574
2026-01-17 22:02:20.54	111.20	1.91	-82.5	-88.6	2.9	7.65e-01	0	47	104	0	60	1048572
2026-01-17 22:02:21.54	111.30	1.87	-85.2	-88.6	3.3	7.64e-01	0	47	104	0	60	1048575
2026-01-17 22:02:22.55	111.41	1.83	-83.1	-88.6	3.6	7.63e-01	0	47	104	0	60	1048575
2026-01-17 22:02:23.56	111.51	1.79	-85.2	-88.6	3.2	7.64e-01	0	47	104	0	60	1048575
2026-01-17 22:02:24.56	111.62	1.75	-82.8	-88.6	3.1	7.63e-01	0	47	104	0	60	1048571
2026-01-17 22:02:25.57	111.72	1.71	-85.2	-88.6	3.7	7.64e-01	0	47	104	0	60	1048573
2026-01-17 22:02:26.58	111.83	1.66	-85.2	-88.6	3.0	7.64e-01	0	47	104	0	60	1048574
2026-01-17 22:02:27.58	111.93	1.62	-85.2	-88.6	3.3	7.64e-01	0	47	104	0	60	1048573
2026-01-17 22:02:28.59	112.04	1.58	-84.7	-88.6	3.0	7.64e-01	0	47	104	0	60	1048574
2026-01-17 22:02:29.59	112.14	1.54	-82.5	-88.6	3.0	7.64e-01	0	47	104	0	60	1048575
2026-01-17 22:02:30.59	112.24	1.50	-83.1	-88.6	3.0	7.63e-01	0	47	104	0	60	1048575
2026-01-17 22:02:31.60	112.34	1.46	-85.2	-88.6	3.2	7.64e-01	0	47	104	0	60	1048575
2026-01-17 22:02:32.61	112.45	1.42	-82.8	-88.6	3.7	7.64e-01	0	47	104	0	60	1048575
2026-01-17 22:02:33.61	112.55	1.38	-85.2	-88.6	3.0	7.64e-01	0	47	104	0	60	1048572
2026-01-17 22:02:34.62	112.65	1.34	-85.2	-88.6	3.5	7.63e-01	0	47	104	0	60	1048568
2026-01-17 22:02:35.62	112.75	1.29	-85.2	-88.6	3.3	7.63e-01	0	47	104	0	60	1048575
2026-01-17 22:02:36.63	112.86	1.25	-84.7	-88.6	2.9	7.64e-01	0	47	104	0	60	1048573
2026-01-17 22:02:37.63	112.96	1.21	-85.2	-88.6	3.0	7.63e-01	0	47	104	0	60	1048575
2026-01-17 22:02:38.64	113.06	1.17	-82.2	-88.6	3.4	7.65e-01	0	47	104	0	60	1048575
2026-01-17 22:02:39.64	113.16	1.13	-83.1	-88.6	3.1	7.64e-01	0	47	104	0	60	1048575
2026-01-17 22:02:40.65	113.26	1.09	-85.2	-88.6	2.9	7.63e-01	0	47	104	0	60	1048573
2026-01-17 22:02:41.66	113.36	1.05	-85.2	-88.6	3.0	7.64e-01	0	47	104	0	60	1048574
2026-01-17 22:02:42.66	113.46	1.01	-82.8	-88.6	3.2	7.64e-01	0	47	104	0	60	1048574
2026-01-17 22:02:43.67	113.56	0.96	-85.2	-88.6	3.8	7.63e-01	0	47	104	0	60	1048575
2026-01-17 22:02:44.68	113.66	0.92	-82.5	-88.6	3.0	7.64e-01	0	47	104	0	60	1048574
2026-01-17 22:02:45.69	113.76	0.88	-83.1	-88.6	3.7	7.65e-01	0	47	104	0	60	1048573
2026-01-17 22:02:46.69	113.86	0.84	-83.1	-88.6	3.2	7.64e-01	0	47	104	0	60	1048572
2026-01-17 22:02:47.70	113.96	0.80	-85.2	-88.6	3.0	7.63e-01	0	47	104	0	60	1048573
2026-01-17 22:02:48.71	114.06	0.76	-82.8	-88.6	3.0	7.65e-01	0	47	104	0	60	1048575
2026-01-17 22:02:49.72	114.16	0.72	-85.2	-88.6	3.6	7.63e-01	0	47	104	0	60	1048575
2026-01-17 22:02:50.72	114.25	0.67	-83.1	-88.6	3.3	7.64e-01	0	47	104	0	60	1048571
2026-01-17 22:02:51.73	114.35	0.63	-85.2	-88.6	3.1	7.64e-01	0	47	104	0	60	1048575
2026-01-17 22:02:52.73	114.45	0.59	-85.2	-88.6	3.3	7.63e-01	0	47	104	0	60	1048570
2026-01-17 22:02:53.74	114.55	0.55	-85.2	-88.6	3.2	7.63e-01	0	47	104	0	60	1048575
2026-01-17 22:02:54.74	114.64	0.51	-83.5	-88.6	3.0	7.63e-01	0	47	104	0	60	1048574
2026-01-17 22:02:55.75	114.74	0.47	-84.7	-88.6	2.9	7.64e-01	0	47	104	0	60	1048573
2026-01-17 22:02:56.75	114.84	0.43	-85.2	-88.6	3.3	7.62e-01	0	47	104	0	60	1048575
2026-01-17 22:02:57.75	114.93	0.38	-85.2	-88.6	3.4	7.62e-01	0	47	104	0	60	1048574
2026-01-17 22:02:58.76	115.03	0.34	-85.2	-88.6	3.6	7.63e-01	0	47	104	0	60	1048572
2026-01-17 22:02:59.76	115.12	0.30	-84.7	-88.6	2.9	7.63e-01	0	47	104	0	60	1048574
2026-01-17 22:03:00.77	115.22	0.26	-85.2	-88.6	3.4	7.64e-01	0	47	104	0	60	1048575
2026-01-17 22:03:01.77	115.32	0.22	-85.2	-88.6	3.0	7.64e-01	0	47	104	0	60	1048572
2026-01-17 22:03:02.78	115.41	0.18	-85.2	-88.6	2.8	7.63e-01	0	47	104	0	60	1048575
2026-01-17 22:03:03.78	115.51	0.14	-85.2	-88.6	3.5	7.64e-01	0	47	104	0	60	1048574
2026-01-17 22:03:04.79	115.60	0.09	-85.2	-88.6	2.8	7.64e-01	0	47	104	0	60	1048575
2026-01-17 22:03:05.79	115.69	0.05	-82.8	-88.6	3.1	7.63e-01	0	47	104	0	60	1048575
2026-01-17 22:03:06.79	115.79	0.01	-85.2	-88.6	3.4	7.65e-01	0	47	104	0	60	1048574
2026-01-17 22:03:07.80	115.88	-0.03	-85.2	-88.6	2.7	7.63e-01	0	47	104	0	60	1048573
2026-01-17 22:03:08.80	115.97	-0.07	-85.2	-88.6	3.0	7.65e-01	0	47	104	0	60	1048573

#Closed at: 2026-01-17 22:03:09
#Recorded file [0 MB]: D:/Data/35015_260118_005334.dat