passes_logs/2026/01/17/R3.2S-Naryan-Mar/R3.2S-Naryan-Mar__20260117_111911_TY-41_rec.log

#Pass ID: 20260117_111911_TY-41
#Satellite: TY-41
#Configuration: TY-39
#almurnet v.1.7.20240730
#Start time: 2026-01-17 11:19:13

#Version: 2.2.20231116
#Station: R3.2S-Naryan-Mar
#Location: 53.008057 lon 67.646978 lat
#TLE: 1 61231U 24173E   26017.08983796  .00008010  00000-0  38191-3 0 09990
#TLE: 2 61231 097.4122 092.0846 0001831 091.8622 061.7654 15.19167953 72814

#Time	Az	El	Level	Level2	SNR	BER	BlckErr	Temp	State	Recorded	gain1	gain2
2026-01-17 11:19:13.77	31.65	0.13	-85.2	-88.6	3.4	1.55e+00	0	44	0	0	60	1048575
2026-01-17 11:19:14.77	31.55	0.18	-83.5	-79.0	2.5	0.00e+00	0	46	104	0	60	1048575
2026-01-17 11:19:15.78	31.45	0.23	-83.1	-79.0	2.2	0.00e+00	0	46	104	0	60	1048569
2026-01-17 11:19:16.79	31.34	0.28	-83.5	-79.0	2.6	0.00e+00	0	46	104	0	60	1048567
2026-01-17 11:19:17.79	31.24	0.33	-83.5	-79.0	2.4	0.00e+00	0	46	104	0	60	1048568
2026-01-17 11:19:18.80	31.14	0.39	-83.5	-79.0	2.6	0.00e+00	0	46	104	0	60	1048569
2026-01-17 11:19:19.81	31.03	0.44	-83.1	-79.0	2.5	0.00e+00	0	46	104	0	60	1048575
2026-01-17 11:19:20.81	30.93	0.49	-83.5	-79.0	2.3	0.00e+00	0	46	104	0	60	1048575
2026-01-17 11:19:21.82	30.83	0.54	-83.5	-79.0	2.4	0.00e+00	0	46	104	0	60	1048573
2026-01-17 11:19:22.83	30.72	0.59	-83.5	-79.0	2.4	0.00e+00	0	46	104	0	60	1048574
2026-01-17 11:19:23.84	30.61	0.65	-83.5	-79.0	2.4	0.00e+00	0	46	104	0	60	1048570
2026-01-17 11:19:24.84	30.51	0.70	-83.1	-79.0	2.4	0.00e+00	0	46	104	0	60	1048570
2026-01-17 11:19:25.85	30.40	0.75	-83.5	-79.0	2.5	0.00e+00	0	46	104	0	60	1048574
2026-01-17 11:19:26.86	30.29	0.80	-83.5	-79.0	2.5	0.00e+00	0	46	104	0	60	1048574
2026-01-17 11:19:27.87	30.19	0.86	-83.1	-79.0	2.5	0.00e+00	0	46	104	0	60	1048575
2026-01-17 11:19:28.88	30.08	0.91	-83.1	-79.0	2.5	0.00e+00	0	46	104	0	60	1048575
2026-01-17 11:19:29.88	29.97	0.96	-83.1	-79.0	2.4	0.00e+00	0	46	104	0	60	1048574
2026-01-17 11:19:30.89	29.86	1.01	-83.5	-79.0	2.4	0.00e+00	0	46	104	0	60	1048574
2026-01-17 11:19:31.90	29.75	1.07	-83.5	-79.0	2.2	0.00e+00	0	46	104	0	60	1048573
2026-01-17 11:19:32.91	29.64	1.12	-83.5	-79.0	2.3	0.00e+00	0	46	104	0	60	1048575
2026-01-17 11:19:33.91	29.53	1.17	-83.1	-79.0	2.4	0.00e+00	0	46	104	0	60	1048573
2026-01-17 11:19:34.92	29.42	1.22	-83.1	-79.0	2.3	0.00e+00	0	46	104	0	60	1048572
2026-01-17 11:19:35.92	29.31	1.28	-83.5	-79.0	2.4	0.00e+00	0	46	104	0	60	1048569
2026-01-17 11:19:36.93	29.20	1.33	-83.5	-79.0	2.3	0.00e+00	0	46	104	0	60	1048575
2026-01-17 11:19:37.93	29.09	1.38	-83.5	-79.0	2.2	0.00e+00	0	46	104	0	60	1048575
2026-01-17 11:19:38.93	28.97	1.43	-82.8	-79.0	2.2	0.00e+00	0	46	104	0	60	1048572
2026-01-17 11:19:39.94	28.86	1.49	-83.5	-79.0	2.4	0.00e+00	0	46	104	0	60	1048574
2026-01-17 11:19:40.95	28.74	1.54	-83.5	-79.0	2.5	0.00e+00	0	47	104	0	60	1048573
2026-01-17 11:19:41.95	28.63	1.59	-83.5	-79.0	2.1	0.00e+00	0	47	104	0	60	1048574
2026-01-17 11:19:42.96	28.51	1.65	-83.5	-79.0	2.7	0.00e+00	0	47	104	0	60	1048574
2026-01-17 11:19:43.97	28.40	1.70	-83.1	-79.0	2.2	0.00e+00	0	46	104	0	60	1048566
2026-01-17 11:19:44.97	28.28	1.75	-83.1	-79.0	2.6	0.00e+00	0	47	104	0	60	1048574
2026-01-17 11:19:45.98	28.17	1.80	-83.5	-79.0	2.4	0.00e+00	0	47	104	0	60	1048566
2026-01-17 11:19:46.99	28.05	1.86	-83.5	-79.0	2.4	0.00e+00	0	47	104	0	60	1048575
2026-01-17 11:19:47.99	27.93	1.91	-83.1	-79.0	2.7	0.00e+00	0	47	104	0	60	1048573
2026-01-17 11:19:49.00	27.81	1.96	-83.1	-79.0	2.2	0.00e+00	0	47	104	0	60	1048574
2026-01-17 11:19:50.01	27.69	2.02	-83.5	-79.0	2.7	0.00e+00	0	47	104	0	60	1048572
2026-01-17 11:19:51.02	27.57	2.07	-83.5	-79.0	2.3	0.00e+00	0	47	104	0	60	1048569
2026-01-17 11:19:52.02	27.45	2.12	-83.5	-79.0	2.3	0.00e+00	0	47	104	0	60	1048572
2026-01-17 11:19:53.03	27.33	2.18	-83.1	-79.0	2.5	0.00e+00	0	47	104	0	60	1048570
2026-01-17 11:19:54.04	27.21	2.23	-83.5	-79.0	2.5	0.00e+00	0	47	104	0	60	1048571
2026-01-17 11:19:55.04	27.09	2.28	-83.5	-79.0	2.4	0.00e+00	0	47	104	0	60	1048575
2026-01-17 11:19:56.04	26.97	2.34	-83.5	-79.0	2.4	0.00e+00	0	47	104	0	60	1048572
2026-01-17 11:19:57.05	26.84	2.39	-83.1	-79.0	2.4	0.00e+00	0	47	104	0	60	1048575
2026-01-17 11:19:58.06	26.72	2.44	-82.8	-79.0	2.5	0.00e+00	0	47	104	0	60	1048565
2026-01-17 11:19:59.06	26.60	2.50	-83.5	-79.0	2.5	0.00e+00	0	47	104	0	60	1048573
2026-01-17 11:20:00.07	26.47	2.55	-83.5	-79.0	2.4	0.00e+00	0	47	104	0	60	1048572
2026-01-17 11:20:01.08	26.34	2.60	-83.5	-79.0	2.4	0.00e+00	0	47	104	0	60	1048575
2026-01-17 11:20:02.08	26.22	2.66	-83.1	-79.0	2.4	0.00e+00	0	47	104	0	60	1048572
2026-01-17 11:20:03.10	26.09	2.71	-82.8	-79.0	2.4	0.00e+00	0	47	104	0	60	1048569
2026-01-17 11:20:04.11	25.96	2.76	-83.5	-79.0	2.2	0.00e+00	0	47	104	0	60	1048575
2026-01-17 11:20:05.11	25.84	2.82	-83.5	-79.0	2.7	0.00e+00	0	47	104	0	60	1048562
2026-01-17 11:20:06.12	25.71	2.87	-83.5	-79.0	2.2	0.00e+00	0	47	104	0	60	1048572
2026-01-17 11:20:07.12	25.58	2.92	-83.1	-79.0	2.7	0.00e+00	0	47	104	0	60	1048575
2026-01-17 11:20:08.13	25.45	2.98	-83.1	-79.0	2.3	0.00e+00	0	47	104	0	60	1048568
2026-01-17 11:20:09.13	25.32	3.03	-83.5	-79.0	2.5	0.00e+00	0	47	104	0	60	1048574
2026-01-17 11:20:10.14	25.19	3.09	-83.5	-79.0	2.5	0.00e+00	0	47	104	0	60	1048575
2026-01-17 11:20:11.15	25.06	3.14	-83.5	-79.0	2.3	0.00e+00	0	47	104	0	60	1048554
2026-01-17 11:20:12.15	24.93	3.19	-83.1	-79.0	2.6	0.00e+00	0	47	104	0	60	1048575
2026-01-17 11:20:13.16	24.79	3.25	-83.5	-79.0	2.4	0.00e+00	0	47	104	0	60	1048575
2026-01-17 11:20:14.17	24.66	3.30	-83.5	-79.0	2.6	0.00e+00	0	47	104	0	60	1048572
2026-01-17 11:20:15.18	24.52	3.36	-83.5	-79.0	2.3	0.00e+00	0	47	104	0	60	1048574
2026-01-17 11:20:16.18	24.39	3.41	-83.5	-79.0	2.4	0.00e+00	0	47	104	0	60	1048575
2026-01-17 11:20:17.19	24.25	3.46	-83.1	-79.0	2.4	0.00e+00	0	47	104	0	60	1048572
2026-01-17 11:20:18.20	24.12	3.52	-83.5	-79.0	2.4	0.00e+00	0	47	104	0	60	1048570
2026-01-17 11:20:19.21	23.98	3.57	-83.5	-79.0	2.3	0.00e+00	0	47	104	0	60	1048573
2026-01-17 11:20:20.22	23.84	3.62	-83.5	-79.0	2.3	0.00e+00	0	47	104	0	60	1048572
2026-01-17 11:20:21.23	23.70	3.68	-83.1	-79.0	2.7	0.00e+00	0	47	104	0	60	1048571
2026-01-17 11:20:22.23	23.57	3.73	-83.1	-79.0	2.4	0.00e+00	0	47	104	0	60	1048569
2026-01-17 11:20:23.24	23.43	3.79	-83.5	-79.0	2.4	0.00e+00	0	47	104	0	60	1048571
2026-01-17 11:20:24.25	23.29	3.84	-83.5	-79.0	2.6	0.00e+00	0	47	104	0	60	1048572
2026-01-17 11:20:25.25	23.15	3.89	-83.5	-79.0	2.4	0.00e+00	0	47	104	0	60	1048574
2026-01-17 11:20:26.26	23.00	3.95	-82.8	-79.0	2.6	0.00e+00	0	47	104	0	60	1048575
2026-01-17 11:20:27.27	22.86	4.00	-83.1	-79.0	2.6	0.00e+00	0	47	104	0	60	1048571
2026-01-17 11:20:28.27	22.72	4.06	-83.5	-79.0	2.4	0.00e+00	0	47	104	0	60	1048575
2026-01-17 11:20:29.28	22.58	4.11	-83.5	-79.0	2.4	0.00e+00	0	47	104	0	60	1048575
2026-01-17 11:20:30.28	22.43	4.16	-83.5	-79.0	2.4	0.00e+00	0	47	104	0	60	1048574
2026-01-17 11:20:31.29	22.29	4.22	-83.1	-79.0	2.4	0.00e+00	0	47	104	0	60	1048575
2026-01-17 11:20:32.30	22.14	4.27	-83.1	-79.0	2.4	0.00e+00	0	47	104	0	60	1048573
2026-01-17 11:20:33.31	22.00	4.33	-83.5	-79.0	2.5	0.00e+00	0	47	104	0	60	1048575
2026-01-17 11:20:34.31	21.85	4.38	-83.5	-79.0	2.5	0.00e+00	0	47	104	0	60	1048572
2026-01-17 11:20:35.31	21.70	4.43	-83.5	-79.0	2.2	0.00e+00	0	47	104	0	60	1048568
2026-01-17 11:20:36.32	21.55	4.49	-83.1	-79.0	2.4	0.00e+00	0	47	104	0	60	1048575
2026-01-17 11:20:37.32	21.41	4.54	-83.5	-79.0	2.2	0.00e+00	0	47	104	0	60	1048575
2026-01-17 11:20:38.33	21.26	4.59	-83.5	-79.0	2.5	0.00e+00	0	47	104	0	60	1048575
2026-01-17 11:20:39.33	21.11	4.65	-83.5	-79.0	2.3	0.00e+00	0	47	104	0	60	1048571
2026-01-17 11:20:40.33	20.96	4.70	-83.1	-79.0	2.3	0.00e+00	0	47	104	0	60	1048568
2026-01-17 11:20:41.34	20.80	4.76	-83.1	-79.0	2.5	0.00e+00	0	47	104	0	60	1048574
2026-01-17 11:20:42.35	20.65	4.81	-83.5	-79.0	2.2	0.00e+00	0	47	104	0	60	1048571
2026-01-17 11:20:43.35	20.50	4.86	-83.5	-79.0	2.6	0.00e+00	0	47	104	0	60	1048573
2026-01-17 11:20:44.36	20.35	4.92	-83.5	-79.0	2.5	0.00e+00	0	47	104	0	60	1048573
2026-01-17 11:20:45.36	20.19	4.97	-82.8	-79.0	2.7	0.00e+00	0	47	104	0	60	1048565
2026-01-17 11:20:46.36	20.04	5.02	-83.1	-79.0	2.4	0.00e+00	0	47	104	0	60	1048574
2026-01-17 11:20:47.37	19.88	5.08	-83.5	-79.0	2.4	0.00e+00	0	47	104	0	60	1048572
2026-01-17 11:20:48.38	19.72	5.13	-83.5	-79.0	2.5	0.00e+00	0	47	104	0	60	1048571
2026-01-17 11:20:49.39	19.56	5.19	-83.5	-79.0	2.5	0.00e+00	0	47	104	0	60	1048574
2026-01-17 11:20:50.39	19.41	5.24	-83.1	-79.0	2.5	0.00e+00	0	48	104	0	60	1048573
2026-01-17 11:20:51.40	19.25	5.29	-83.5	-79.0	2.4	0.00e+00	0	48	104	0	60	1048574
2026-01-17 11:20:52.40	19.09	5.35	-83.5	-79.0	2.6	0.00e+00	0	48	104	0	60	1048574
2026-01-17 11:20:53.40	18.93	5.40	-83.5	-79.0	2.5	0.00e+00	0	47	104	0	60	1048568
2026-01-17 11:20:54.41	18.77	5.45	-83.5	-79.0	2.6	0.00e+00	0	47	104	0	60	1048574
2026-01-17 11:20:55.42	18.61	5.51	-83.1	-79.0	2.8	0.00e+00	0	48	104	0	60	1048572
2026-01-17 11:20:56.43	18.44	5.56	-83.5	-79.0	2.6	0.00e+00	0	48	104	0	60	1048568
2026-01-17 11:20:57.43	18.28	5.61	-83.5	-79.0	2.6	0.00e+00	0	48	104	0	60	1048574
2026-01-17 11:20:58.43	18.12	5.67	-83.5	-79.0	2.5	0.00e+00	0	48	104	0	60	1048571
2026-01-17 11:20:59.44	17.95	5.72	-83.1	-79.0	2.5	0.00e+00	0	48	104	0	60	1048575
2026-01-17 11:21:00.44	17.78	5.77	-83.1	-79.0	2.6	0.00e+00	0	48	104	0	60	1048575
2026-01-17 11:21:01.45	17.62	5.83	-83.5	-79.0	2.4	0.00e+00	0	47	104	0	60	1048573
2026-01-17 11:21:02.46	17.45	5.88	-83.5	-79.0	2.5	0.00e+00	0	47	104	0	60	1048575
2026-01-17 11:21:03.47	17.28	5.93	-83.5	-79.0	2.4	0.00e+00	0	48	104	0	60	1048571
2026-01-17 11:21:04.48	17.11	5.99	-82.8	-79.0	2.4	0.00e+00	0	48	104	0	60	1048571
2026-01-17 11:21:05.48	16.94	6.04	-83.5	-79.0	2.2	0.00e+00	0	48	104	0	60	1048574
2026-01-17 11:21:06.49	16.77	6.09	-83.5	-79.0	2.3	0.00e+00	0	48	104	0	60	1048569
2026-01-17 11:21:07.49	16.60	6.15	-83.5	-79.0	2.5	0.00e+00	0	48	104	0	60	1048574
2026-01-17 11:21:08.50	16.43	6.20	-83.5	-79.0	2.3	0.00e+00	0	47	104	0	60	1048572
2026-01-17 11:21:09.51	16.25	6.25	-83.1	-79.0	2.4	0.00e+00	0	48	104	0	60	1048571
2026-01-17 11:21:10.52	16.08	6.30	-83.5	-79.0	2.2	0.00e+00	0	48	104	0	60	1048575
2026-01-17 11:21:11.53	15.90	6.36	-83.5	-79.0	2.4	0.00e+00	0	48	104	0	60	1048574
2026-01-17 11:21:12.54	15.73	6.41	-83.5	-79.0	2.4	0.00e+00	0	48	104	0	60	1048574
2026-01-17 11:21:13.55	15.55	6.46	-83.5	-79.0	2.4	0.00e+00	0	48	104	0	60	1048572
2026-01-17 11:21:14.55	15.38	6.52	-83.5	-79.0	2.5	0.00e+00	0	48	104	0	60	1048571
2026-01-17 11:21:15.56	15.20	6.57	-83.5	-79.0	2.4	0.00e+00	0	48	104	0	60	1048572
2026-01-17 11:21:16.56	15.02	6.62	-83.5	-79.0	2.6	0.00e+00	0	48	104	0	60	1048575
2026-01-17 11:21:17.57	14.84	6.67	-83.5	-79.0	2.4	0.00e+00	0	48	104	0	60	1048563
2026-01-17 11:21:18.58	14.66	6.72	-83.1	-79.0	2.7	0.00e+00	0	48	104	0	60	1048571
2026-01-17 11:21:19.58	14.48	6.78	-83.1	-79.0	2.4	0.00e+00	0	48	104	0	60	1048562
2026-01-17 11:21:20.59	14.30	6.83	-83.5	-79.0	2.5	0.00e+00	0	48	104	0	60	1048573
2026-01-17 11:21:21.60	14.11	6.88	-83.5	-79.0	2.7	0.00e+00	0	48	104	0	60	1048575
2026-01-17 11:21:22.61	13.93	6.93	-83.5	-79.0	2.5	0.00e+00	0	48	104	0	60	1048567
2026-01-17 11:21:23.61	13.74	6.98	-83.1	-79.0	2.3	0.00e+00	0	48	104	0	60	1048572
2026-01-17 11:21:24.62	13.56	7.04	-83.5	-79.0	2.5	0.00e+00	0	48	104	0	60	1048568
2026-01-17 11:21:25.63	13.37	7.09	-83.5	-79.0	2.4	0.00e+00	0	48	104	0	60	1048575
2026-01-17 11:21:26.64	13.18	7.14	-83.5	-79.0	2.7	0.00e+00	0	48	104	0	60	1048575
2026-01-17 11:21:27.65	13.00	7.19	-83.5	-79.0	2.3	0.00e+00	0	48	104	0	60	1048575
2026-01-17 11:21:28.65	12.81	7.24	-83.1	-79.0	2.5	0.00e+00	0	48	104	0	60	1048575
2026-01-17 11:21:29.66	12.62	7.29	-83.5	-79.0	2.3	0.00e+00	0	48	104	0	60	1048574
2026-01-17 11:21:30.67	12.43	7.34	-83.5	-79.0	2.4	0.00e+00	0	48	104	0	60	1048570
2026-01-17 11:21:31.67	12.24	7.39	-83.5	-79.0	2.6	0.00e+00	0	48	104	0	60	1048573
2026-01-17 11:21:32.68	12.04	7.45	-83.1	-79.0	2.3	0.00e+00	0	48	104	0	60	1048573
2026-01-17 11:21:33.69	11.85	7.50	-82.8	-79.0	2.4	0.00e+00	0	48	104	0	60	1048574
2026-01-17 11:21:34.69	11.66	7.55	-83.5	-79.0	2.5	0.00e+00	0	48	104	0	60	1048574
2026-01-17 11:21:35.70	11.46	7.60	-83.5	-79.0	2.3	0.00e+00	0	48	104	0	60	1048574
2026-01-17 11:21:36.71	11.27	7.65	-83.5	-79.0	2.4	0.00e+00	0	48	104	0	60	1048573
2026-01-17 11:21:37.71	11.07	7.70	-83.1	-79.0	2.6	0.00e+00	0	48	104	0	60	1048575
2026-01-17 11:21:38.72	10.87	7.75	-83.1	-79.0	2.5	0.00e+00	0	48	104	0	60	1048572
2026-01-17 11:21:39.72	10.68	7.80	-83.5	-79.0	2.6	0.00e+00	0	48	104	0	60	1048571
2026-01-17 11:21:40.73	10.48	7.85	-83.5	-79.0	2.4	0.00e+00	0	48	104	0	60	1048575
2026-01-17 11:21:41.74	10.28	7.90	-83.1	-79.0	2.4	0.00e+00	0	48	104	0	60	1048572
2026-01-17 11:21:42.75	10.08	7.95	-83.1	-79.0	2.6	0.00e+00	0	48	104	0	60	1048574
2026-01-17 11:21:43.75	9.88	7.99	-83.1	-79.0	2.4	0.00e+00	0	48	104	0	60	1048570
2026-01-17 11:21:44.76	9.67	8.04	-83.5	-79.0	2.6	0.00e+00	0	48	104	0	60	1048572
2026-01-17 11:21:45.77	9.47	8.09	-83.5	-79.0	2.3	0.00e+00	0	48	104	0	60	1048573
2026-01-17 11:21:46.78	9.26	8.14	-83.5	-79.0	2.5	0.00e+00	0	48	104	0	60	1048572
2026-01-17 11:21:47.78	9.06	8.19	-83.1	-79.0	2.5	0.00e+00	0	48	104	0	60	1048575
2026-01-17 11:21:48.78	8.86	8.24	-83.1	-79.0	2.3	0.00e+00	0	48	104	0	60	1048574
2026-01-17 11:21:49.79	8.65	8.29	-83.5	-79.0	2.4	0.00e+00	0	48	104	0	60	1048575
2026-01-17 11:21:50.79	8.44	8.33	-83.5	-79.0	2.8	0.00e+00	0	48	104	0	60	1048573
2026-01-17 11:21:51.79	8.24	8.38	-83.1	-79.0	2.4	0.00e+00	0	48	104	0	60	1048565
2026-01-17 11:21:52.80	8.03	8.43	-83.1	-79.0	2.5	0.00e+00	0	48	104	0	60	1048575
2026-01-17 11:21:53.80	7.82	8.48	-83.5	-79.0	2.4	0.00e+00	0	48	104	0	60	1048574
2026-01-17 11:21:54.80	7.61	8.52	-83.1	-79.0	2.4	0.00e+00	0	48	104	0	60	1048574
2026-01-17 11:21:55.81	7.40	8.57	-83.5	-79.0	2.5	0.00e+00	0	48	104	0	60	1048574
2026-01-17 11:21:56.81	7.19	8.62	-83.1	-79.0	2.4	0.00e+00	0	48	104	0	60	1048573
2026-01-17 11:21:57.82	6.97	8.66	-83.1	-79.0	2.4	0.00e+00	0	48	104	0	60	1048573
2026-01-17 11:21:58.83	6.76	8.71	-83.5	-79.0	2.5	0.00e+00	0	48	104	0	60	1048567
2026-01-17 11:21:59.84	6.54	8.76	-83.5	-79.0	2.7	0.00e+00	0	48	104	0	60	1048575
2026-01-17 11:22:00.85	6.32	8.80	-83.5	-79.0	2.2	0.00e+00	0	48	104	0	60	1048575
2026-01-17 11:22:01.86	6.11	8.85	-83.1	-79.0	2.5	0.00e+00	0	48	104	0	60	1048573
2026-01-17 11:22:02.87	5.89	8.90	-83.5	-79.0	2.6	0.00e+00	0	48	104	0	60	1048574
2026-01-17 11:22:03.87	5.67	8.94	-83.5	-79.0	2.5	0.00e+00	0	48	104	0	60	1048575
2026-01-17 11:22:04.88	5.45	8.99	-83.5	-79.0	2.5	0.00e+00	0	48	104	0	60	1048575
2026-01-17 11:22:05.89	5.23	9.03	-83.1	-79.0	2.5	0.00e+00	0	48	104	0	60	1048575
2026-01-17 11:22:06.89	5.01	9.08	-83.1	-79.0	2.7	0.00e+00	0	48	104	0	60	1048574
2026-01-17 11:22:07.90	4.79	9.12	-83.5	-79.0	2.4	0.00e+00	0	48	104	0	60	1048575
2026-01-17 11:22:08.90	4.57	9.16	-83.5	-79.0	2.4	0.00e+00	0	48	104	0	60	1048575
2026-01-17 11:22:09.90	4.34	9.21	-83.5	-79.0	2.4	0.00e+00	0	48	104	0	60	1048574
2026-01-17 11:22:10.91	4.12	9.25	-83.1	-79.0	2.4	0.00e+00	0	48	104	0	60	1048574
2026-01-17 11:22:11.92	3.89	9.29	-83.5	-79.0	2.5	0.00e+00	0	48	104	0	60	1048571
2026-01-17 11:22:12.92	3.67	9.34	-83.5	-79.0	2.5	0.00e+00	0	48	104	0	60	1048572
2026-01-17 11:22:13.93	3.44	9.38	-83.5	-79.0	2.4	0.00e+00	0	48	104	0	60	1048575
2026-01-17 11:22:14.94	3.21	9.42	-83.5	-79.0	2.6	0.00e+00	0	48	104	0	60	1048574
2026-01-17 11:22:15.95	2.98	9.47	-83.1	-79.0	2.6	0.00e+00	0	48	104	0	60	1048572
2026-01-17 11:22:16.96	2.75	9.51	-83.5	-79.0	2.1	0.00e+00	0	48	104	0	60	1048561
2026-01-17 11:22:17.96	2.52	9.55	-83.1	-79.0	2.6	0.00e+00	0	48	104	0	60	1048575
2026-01-17 11:22:18.97	2.29	9.59	-83.5	-79.0	2.5	0.00e+00	0	48	104	0	60	1048575
2026-01-17 11:22:19.97	2.06	9.63	-83.1	-79.0	2.4	0.00e+00	0	48	104	0	60	1048574
2026-01-17 11:22:20.97	1.83	9.67	-82.8	-79.0	2.6	0.00e+00	0	48	104	0	60	1048573
2026-01-17 11:22:21.98	1.60	9.71	-83.5	-79.0	2.2	0.00e+00	0	48	104	0	60	1048575
2026-01-17 11:22:22.98	1.36	9.75	-83.5	-79.0	2.6	0.00e+00	0	48	104	0	60	1048572
2026-01-17 11:22:23.99	1.13	9.79	-83.1	-79.0	2.4	0.00e+00	0	48	104	0	60	1048571
2026-01-17 11:22:25.00	0.89	9.83	-83.1	-79.0	2.4	0.00e+00	0	48	104	0	60	1048575
2026-01-17 11:22:26.00	0.66	9.87	-83.5	-79.0	2.5	0.00e+00	0	48	104	0	60	1048575
2026-01-17 11:22:27.00	0.42	9.91	-83.5	-79.0	2.5	0.00e+00	0	48	104	0	60	1048567
2026-01-17 11:22:28.01	0.18	9.95	-83.5	-79.0	2.6	0.00e+00	0	48	104	0	60	1048575
2026-01-17 11:22:29.02	359.94	9.99	-83.5	-79.0	2.5	0.00e+00	0	48	104	0	60	1048572
2026-01-17 11:22:30.02	359.70	10.03	-83.1	-79.0	2.5	0.00e+00	0	48	104	0	60	1048573
2026-01-17 11:22:31.03	359.46	10.07	-83.5	-79.0	2.5	0.00e+00	0	48	104	0	60	1048573
2026-01-17 11:22:32.03	359.22	10.10	-83.5	-79.0	2.4	0.00e+00	0	48	104	0	60	1048575
2026-01-17 11:22:33.04	358.98	10.14	-83.5	-79.0	2.7	0.00e+00	0	48	104	0	60	1048574
2026-01-17 11:22:34.05	358.74	10.18	-83.5	-79.0	2.2	0.00e+00	0	48	104	0	60	1048572
2026-01-17 11:22:35.06	358.49	10.21	-83.1	-79.0	2.6	0.00e+00	0	48	104	0	60	1048575
2026-01-17 11:22:36.07	358.25	10.25	-83.1	-79.0	2.4	0.00e+00	0	48	104	0	60	1048571
2026-01-17 11:22:37.08	358.00	10.29	-83.5	-79.0	2.6	0.00e+00	0	48	104	0	60	1048571
2026-01-17 11:22:38.08	357.76	10.32	-83.5	-79.0	2.4	0.00e+00	0	48	104	0	60	1048574
2026-01-17 11:22:39.08	357.51	10.36	-83.1	-79.0	2.3	0.00e+00	0	48	104	0	60	1048575
2026-01-17 11:22:40.09	357.26	10.39	-83.1	-79.0	2.6	0.00e+00	0	48	104	0	60	1048574
2026-01-17 11:22:41.10	357.01	10.42	-83.5	-79.0	2.3	0.00e+00	0	48	104	0	60	1048575
2026-01-17 11:22:42.10	356.77	10.46	-83.5	-79.0	2.4	0.00e+00	0	48	104	0	60	1048570
2026-01-17 11:22:43.11	356.52	10.49	-83.5	-79.0	2.5	0.00e+00	0	48	104	0	60	1048571
2026-01-17 11:22:44.11	356.27	10.52	-83.1	-79.0	2.4	0.00e+00	0	48	104	0	60	1048573
2026-01-17 11:22:45.12	356.02	10.56	-83.5	-79.0	2.5	0.00e+00	0	48	104	0	60	1048572
2026-01-17 11:22:46.12	355.77	10.59	-83.5	-79.0	2.2	0.00e+00	0	48	104	0	60	1048575
2026-01-17 11:22:47.13	355.51	10.62	-83.1	-79.0	2.6	0.00e+00	0	48	104	0	60	1048574
2026-01-17 11:22:48.14	355.26	10.65	-83.5	-79.0	2.2	0.00e+00	0	48	104	0	60	1048573
2026-01-17 11:22:49.15	355.01	10.68	-83.1	-79.0	2.3	0.00e+00	0	48	104	0	60	1048574
2026-01-17 11:22:50.15	354.75	10.71	-83.5	-79.0	2.6	0.00e+00	0	48	104	0	60	1048575
2026-01-17 11:22:51.16	354.50	10.74	-83.5	-79.0	2.4	0.00e+00	0	48	104	0	60	1048573
2026-01-17 11:22:52.17	354.24	10.77	-83.5	-79.0	2.8	0.00e+00	0	48	104	0	60	1048573
2026-01-17 11:22:53.18	353.98	10.80	-83.5	-79.0	2.4	0.00e+00	0	48	104	0	60	1048573
2026-01-17 11:22:54.18	353.73	10.83	-83.1	-79.0	2.7	0.00e+00	0	48	104	0	60	1048571
2026-01-17 11:22:55.19	353.47	10.86	-83.5	-79.0	2.6	0.00e+00	0	48	104	0	60	1048572
2026-01-17 11:22:56.18	353.22	10.89	-83.5	-79.0	2.5	0.00e+00	0	48	104	0	60	1048568
2026-01-17 11:22:57.19	352.96	10.92	-83.1	-79.0	2.7	0.00e+00	0	48	104	0	60	1048570
2026-01-17 11:22:58.19	352.70	10.94	-83.5	-79.0	2.5	0.00e+00	0	48	104	0	60	1048569
2026-01-17 11:22:59.19	352.44	10.97	-83.5	-79.0	2.5	0.00e+00	0	48	104	0	60	1048574
2026-01-17 11:23:00.20	352.18	11.00	-83.5	-79.0	2.4	0.00e+00	0	48	104	0	60	1048574
2026-01-17 11:23:01.21	351.92	11.02	-83.5	-79.0	2.4	0.00e+00	0	48	104	0	60	1048575
2026-01-17 11:23:02.21	351.66	11.05	-83.5	-79.0	2.5	0.00e+00	0	48	104	0	60	1048573
2026-01-17 11:23:03.22	351.40	11.07	-83.1	-79.0	2.5	0.00e+00	0	48	104	0	60	1048572
2026-01-17 11:23:04.22	351.14	11.10	-83.5	-79.0	2.4	0.00e+00	0	48	104	0	60	1048575
2026-01-17 11:23:05.23	350.87	11.12	-83.5	-79.0	2.5	0.00e+00	0	48	104	0	60	1048569
2026-01-17 11:23:06.24	350.61	11.15	-83.5	-79.0	2.3	0.00e+00	0	48	104	0	60	1048573
2026-01-17 11:23:07.24	350.35	11.17	-83.5	-79.0	2.2	0.00e+00	0	48	104	0	60	1048570
2026-01-17 11:23:08.25	350.08	11.19	-83.1	-79.0	2.3	0.00e+00	0	48	104	0	60	1048569
2026-01-17 11:23:09.26	349.81	11.21	-83.5	-79.0	2.4	0.00e+00	0	48	104	0	60	1048569
2026-01-17 11:23:10.26	349.55	11.23	-83.5	-79.0	2.4	0.00e+00	0	48	104	0	60	1048575
2026-01-17 11:23:11.27	349.28	11.26	-83.5	-79.0	2.5	0.00e+00	0	48	104	0	60	1048566
2026-01-17 11:23:12.28	349.02	11.28	-83.1	-79.0	2.3	0.00e+00	0	48	104	0	60	1048575
2026-01-17 11:23:13.28	348.75	11.30	-83.1	-79.0	2.7	0.00e+00	0	48	104	0	60	1048575
2026-01-17 11:23:14.29	348.48	11.32	-83.5	-79.0	2.7	0.00e+00	0	48	104	0	60	1048573
2026-01-17 11:23:15.29	348.22	11.34	-83.5	-79.0	2.5	0.00e+00	0	48	104	0	60	1048575
2026-01-17 11:23:16.30	347.95	11.35	-83.5	-79.0	2.4	0.00e+00	0	48	104	0	60	1048567
2026-01-17 11:23:17.31	347.68	11.37	-82.8	-79.0	2.3	0.00e+00	0	48	104	0	60	1048575
2026-01-17 11:23:18.31	347.41	11.39	-83.1	-79.0	2.6	0.00e+00	0	48	104	0	60	1048574
2026-01-17 11:23:19.32	347.14	11.41	-83.5	-79.0	2.4	0.00e+00	0	48	104	0	60	1048570
2026-01-17 11:23:20.33	346.87	11.42	-83.5	-79.0	2.4	0.00e+00	0	48	104	0	60	1048574
2026-01-17 11:23:21.33	346.60	11.44	-83.5	-79.0	2.6	0.00e+00	0	48	104	0	60	1048575
2026-01-17 11:23:22.34	346.33	11.46	-83.1	-79.0	2.4	0.00e+00	0	48	104	0	60	1048575
2026-01-17 11:23:23.34	346.06	11.47	-83.5	-79.0	2.6	0.00e+00	0	48	104	0	60	1048570
2026-01-17 11:23:24.35	345.79	11.48	-83.5	-79.0	2.5	0.00e+00	0	48	104	0	60	1048566
2026-01-17 11:23:25.36	345.51	11.50	-83.5	-79.0	2.6	0.00e+00	0	48	104	0	60	1048566
2026-01-17 11:23:26.36	345.24	11.51	-83.5	-79.0	2.3	0.00e+00	0	48	104	0	60	1048575
2026-01-17 11:23:27.36	344.97	11.53	-83.1	-79.0	2.6	0.00e+00	0	48	104	0	60	1048574
2026-01-17 11:23:28.37	344.70	11.54	-83.1	-79.0	2.5	0.00e+00	0	48	104	0	60	1048574
2026-01-17 11:23:29.37	344.43	11.55	-83.5	-79.0	2.1	0.00e+00	0	48	104	0	60	1048566
2026-01-17 11:23:30.38	344.15	11.56	-83.5	-79.0	2.6	0.00e+00	0	48	104	0	60	1048574
2026-01-17 11:23:31.39	343.88	11.57	-83.1	-79.0	2.4	0.00e+00	0	49	104	0	60	1048573
2026-01-17 11:23:32.39	343.61	11.58	-83.1	-79.0	2.5	0.00e+00	0	48	104	0	60	1048574
2026-01-17 11:23:33.40	343.33	11.59	-83.5	-79.0	2.4	0.00e+00	0	48	104	0	60	1048575
2026-01-17 11:23:34.41	343.06	11.60	-83.5	-79.0	2.4	0.00e+00	0	48	104	0	60	1048570
2026-01-17 11:23:35.42	342.78	11.61	-83.5	-79.0	2.5	0.00e+00	0	48	104	0	60	1048575
2026-01-17 11:23:36.42	342.51	11.62	-83.1	-79.0	2.3	0.00e+00	0	48	104	0	60	1048574
2026-01-17 11:23:37.43	342.24	11.63	-83.1	-79.0	2.5	0.00e+00	0	48	104	0	60	1048575
2026-01-17 11:23:38.44	341.96	11.63	-83.5	-79.0	2.3	0.00e+00	0	48	104	0	60	1048574
2026-01-17 11:23:39.45	341.68	11.64	-83.5	-79.0	2.4	0.00e+00	0	48	104	0	60	1048568
2026-01-17 11:23:40.45	341.41	11.65	-83.1	-79.0	2.4	0.00e+00	0	48	104	0	60	1048573
2026-01-17 11:23:41.45	341.14	11.65	-83.1	-79.0	2.3	0.00e+00	0	48	104	0	60	1048561
2026-01-17 11:23:42.46	340.86	11.66	-83.5	-79.0	2.6	0.00e+00	0	48	104	0	60	1048572
2026-01-17 11:23:43.47	340.58	11.66	-83.5	-79.0	2.5	0.00e+00	0	48	104	0	60	1048572
2026-01-17 11:23:44.47	340.31	11.66	-83.5	-79.0	2.4	0.00e+00	0	48	104	0	60	1048573
2026-01-17 11:23:45.48	340.03	11.67	-83.5	-79.0	2.5	0.00e+00	0	48	104	0	60	1048575
2026-01-17 11:23:46.48	339.76	11.67	-83.1	-79.0	2.3	0.00e+00	0	48	104	0	60	1048575
2026-01-17 11:23:47.49	339.48	11.67	-83.5	-79.0	2.6	0.00e+00	0	48	104	0	60	1048572
2026-01-17 11:23:48.49	339.21	11.67	-83.5	-79.0	2.4	0.00e+00	0	48	104	0	60	1048565
2026-01-17 11:23:49.50	338.93	11.67	-83.5	-79.0	2.4	0.00e+00	0	48	104	0	60	1048575
2026-01-17 11:23:50.51	338.66	11.67	-83.1	-79.0	2.5	0.00e+00	0	48	104	0	60	1048575
2026-01-17 11:23:51.52	338.38	11.67	-83.1	-79.0	2.5	0.00e+00	0	48	104	0	60	1048575
2026-01-17 11:23:52.53	338.10	11.67	-83.5	-79.0	2.3	0.00e+00	0	48	104	0	60	1048569
2026-01-17 11:23:53.54	337.83	11.67	-83.5	-79.0	2.4	0.00e+00	0	48	104	0	60	1048574
2026-01-17 11:23:54.55	337.55	11.67	-83.5	-79.0	2.4	0.00e+00	0	48	104	0	60	1048571
2026-01-17 11:23:55.55	337.27	11.67	-83.1	-79.0	2.4	0.00e+00	0	48	104	0	60	1048575
2026-01-17 11:23:56.56	337.00	11.67	-83.5	-79.0	2.6	0.00e+00	0	48	104	0	60	1048574
2026-01-17 11:23:57.57	336.72	11.66	-83.5	-79.0	2.3	0.00e+00	0	48	104	0	60	1048575
2026-01-17 11:23:58.58	336.44	11.66	-83.5	-79.0	2.5	0.00e+00	0	48	104	0	60	1048575
2026-01-17 11:23:59.58	336.17	11.65	-83.5	-79.0	2.4	0.00e+00	0	48	104	0	60	1048571
2026-01-17 11:24:00.59	335.90	11.65	-83.1	-79.0	2.2	0.00e+00	0	48	104	0	60	1048574
2026-01-17 11:24:01.59	335.62	11.64	-83.5	-79.0	2.4	0.00e+00	0	48	104	0	60	1048574
2026-01-17 11:24:02.60	335.35	11.64	-83.5	-79.0	2.4	0.00e+00	0	48	104	0	60	1048575
2026-01-17 11:24:03.61	335.07	11.63	-83.5	-79.0	2.3	0.00e+00	0	48	104	0	60	1048575
2026-01-17 11:24:04.62	334.79	11.62	-83.5	-79.0	2.3	0.00e+00	0	48	104	0	60	1048575
2026-01-17 11:24:05.62	334.52	11.61	-83.5	-79.0	2.3	0.00e+00	0	48	104	0	60	1048574
2026-01-17 11:24:06.62	334.25	11.61	-83.5	-79.0	2.5	0.00e+00	0	48	104	0	60	1048573
2026-01-17 11:24:07.63	333.97	11.60	-83.5	-79.0	2.5	0.00e+00	0	48	104	0	60	1048569
2026-01-17 11:24:08.64	333.70	11.59	-83.5	-79.0	2.3	0.00e+00	0	48	104	0	60	1048570
2026-01-17 11:24:09.64	333.43	11.58	-82.8	-79.0	2.5	0.00e+00	0	49	104	0	60	1048574
2026-01-17 11:24:10.65	333.15	11.57	-83.1	-79.0	2.5	0.00e+00	0	48	104	0	60	1048575
2026-01-17 11:24:11.66	332.88	11.56	-83.5	-79.0	2.4	0.00e+00	0	48	104	0	60	1048571
2026-01-17 11:24:12.66	332.61	11.54	-83.5	-79.0	2.1	0.00e+00	0	48	104	0	60	1048575
2026-01-17 11:24:13.67	332.33	11.53	-83.5	-79.0	2.7	0.00e+00	0	49	104	0	60	1048570
2026-01-17 11:24:14.67	332.06	11.52	-83.1	-79.0	2.3	0.00e+00	0	49	104	0	60	1048572
2026-01-17 11:24:15.68	331.79	11.51	-83.5	-79.0	2.6	0.00e+00	0	49	104	0	60	1048569
2026-01-17 11:24:16.69	331.52	11.49	-83.5	-79.0	2.6	0.00e+00	0	48	104	0	60	1048566
2026-01-17 11:24:17.69	331.25	11.48	-83.5	-79.0	2.3	0.00e+00	0	48	104	0	60	1048575
2026-01-17 11:24:18.70	330.97	11.46	-83.5	-79.0	2.6	0.00e+00	0	48	104	0	60	1048575
2026-01-17 11:24:19.71	330.70	11.45	-83.1	-79.0	2.3	0.00e+00	0	48	104	0	60	1048575
2026-01-17 11:24:20.71	330.43	11.43	-83.5	-79.0	2.3	0.00e+00	0	48	104	0	60	1048575
2026-01-17 11:24:21.72	330.16	11.42	-83.5	-79.0	2.5	0.00e+00	0	49	104	0	60	1048567
2026-01-17 11:24:22.73	329.89	11.40	-83.5	-79.0	2.3	0.00e+00	0	49	104	0	60	1048574
2026-01-17 11:24:23.73	329.62	11.38	-83.1	-79.0	2.5	0.00e+00	0	49	104	0	60	1048572
2026-01-17 11:24:24.74	329.35	11.36	-83.1	-79.0	2.4	0.00e+00	0	49	104	0	60	1048572
2026-01-17 11:24:25.75	329.08	11.35	-83.5	-79.0	2.4	0.00e+00	0	49	104	0	60	1048574
2026-01-17 11:24:26.76	328.81	11.33	-83.5	-79.0	2.4	0.00e+00	0	48	104	0	60	1048574
2026-01-17 11:24:27.77	328.54	11.31	-83.1	-79.0	2.6	0.00e+00	0	48	104	0	60	1048573
2026-01-17 11:24:28.78	328.28	11.29	-83.1	-79.0	2.4	0.00e+00	0	49	104	0	60	1048567
2026-01-17 11:24:29.78	328.01	11.27	-83.1	-79.0	2.4	0.00e+00	0	48	104	0	60	1048574
2026-01-17 11:24:30.79	327.74	11.25	-83.5	-79.0	2.5	0.00e+00	0	49	104	0	60	1048571
2026-01-17 11:24:31.80	327.48	11.22	-83.5	-79.0	2.5	0.00e+00	0	48	104	0	60	1048575
2026-01-17 11:24:32.80	327.21	11.20	-83.5	-79.0	2.5	0.00e+00	0	48	104	0	60	1048572
2026-01-17 11:24:33.81	326.95	11.18	-82.8	-79.0	2.7	0.00e+00	0	48	104	0	60	1048574
2026-01-17 11:24:34.82	326.68	11.16	-83.5	-79.0	2.2	0.00e+00	0	48	104	0	60	1048572
2026-01-17 11:24:35.83	326.42	11.13	-83.5	-79.0	2.5	0.00e+00	0	48	104	0	60	1048575
2026-01-17 11:24:36.83	326.15	11.11	-83.5	-79.0	2.2	0.00e+00	0	48	104	0	60	1048566
2026-01-17 11:24:37.84	325.89	11.09	-83.5	-79.0	2.6	0.00e+00	0	48	104	0	60	1048575
2026-01-17 11:24:38.84	325.63	11.06	-83.1	-79.0	2.3	0.00e+00	0	48	104	0	60	1048571
2026-01-17 11:24:39.85	325.37	11.04	-83.5	-79.0	2.4	0.00e+00	0	48	104	0	60	1048575
2026-01-17 11:24:40.85	325.11	11.01	-83.5	-79.0	2.5	0.00e+00	0	49	104	0	60	1048575
2026-01-17 11:24:41.86	324.84	10.99	-83.5	-79.0	2.5	0.00e+00	0	48	104	0	60	1048575
2026-01-17 11:24:42.87	324.58	10.96	-83.1	-79.0	2.4	0.00e+00	0	49	104	0	60	1048575
2026-01-17 11:24:43.88	324.32	10.93	-83.1	-79.0	2.5	0.00e+00	0	48	104	0	60	1048575
2026-01-17 11:24:44.89	324.06	10.90	-83.1	-79.0	2.6	0.00e+00	0	49	104	0	60	1048574
2026-01-17 11:24:45.89	323.81	10.88	-83.5	-79.0	2.4	0.00e+00	0	48	104	0	60	1048574
2026-01-17 11:24:46.90	323.55	10.85	-83.5	-79.0	2.3	0.00e+00	0	48	104	0	60	1048574
2026-01-17 11:24:47.91	323.29	10.82	-83.1	-79.0	2.7	0.00e+00	0	48	104	0	60	1048575
2026-01-17 11:24:48.92	323.03	10.79	-83.1	-79.0	2.1	0.00e+00	0	48	104	0	60	1048575
2026-01-17 11:24:49.93	322.77	10.76	-83.5	-79.0	2.7	0.00e+00	0	48	104	0	60	1048574
2026-01-17 11:24:50.93	322.52	10.73	-83.5	-79.0	2.3	0.00e+00	0	48	104	0	60	1048575
2026-01-17 11:24:51.94	322.26	10.70	-83.5	-79.0	2.5	0.00e+00	0	48	104	0	60	1048575
2026-01-17 11:24:52.95	322.01	10.67	-82.8	-79.0	2.6	0.00e+00	0	48	104	0	60	1048572
2026-01-17 11:24:53.96	321.75	10.64	-83.5	-79.0	2.5	0.00e+00	0	48	104	0	60	1048574
2026-01-17 11:24:54.96	321.50	10.61	-83.5	-79.0	2.4	0.00e+00	0	48	104	0	60	1048574
2026-01-17 11:24:55.97	321.25	10.57	-83.5	-79.0	2.4	0.00e+00	0	48	104	0	60	1048574
2026-01-17 11:24:56.97	321.00	10.54	-83.1	-79.0	2.4	0.00e+00	0	48	104	0	60	1048573
2026-01-17 11:24:57.98	320.75	10.51	-83.1	-79.0	2.4	0.00e+00	0	49	104	0	60	1048574
2026-01-17 11:24:58.99	320.50	10.47	-83.5	-79.0	2.5	0.00e+00	0	49	104	0	60	1048568
2026-01-17 11:24:59.99	320.25	10.44	-83.5	-79.0	2.4	0.00e+00	0	48	104	0	60	1048574
2026-01-17 11:25:01.00	320.00	10.41	-83.5	-79.0	2.7	0.00e+00	0	48	104	0	60	1048575
2026-01-17 11:25:02.00	319.75	10.37	-83.1	-79.0	2.6	0.00e+00	0	49	104	0	60	1048574
2026-01-17 11:25:03.01	319.51	10.34	-83.5	-79.0	2.4	0.00e+00	0	48	104	0	60	1048571
2026-01-17 11:25:04.02	319.26	10.30	-83.5	-79.0	2.5	0.00e+00	0	48	104	0	60	1048573
2026-01-17 11:25:05.03	319.01	10.27	-83.5	-79.0	2.4	0.00e+00	0	49	104	0	60	1048564
2026-01-17 11:25:06.04	318.77	10.23	-83.5	-79.0	2.6	0.00e+00	0	48	104	0	60	1048574
2026-01-17 11:25:07.04	318.52	10.19	-83.1	-79.0	2.3	0.00e+00	0	49	104	0	60	1048571
2026-01-17 11:25:08.05	318.28	10.16	-83.1	-79.0	2.6	0.00e+00	0	49	104	0	60	1048572
2026-01-17 11:25:09.06	318.04	10.12	-83.5	-79.0	2.2	0.00e+00	0	48	104	0	60	1048575
2026-01-17 11:25:10.07	317.79	10.08	-83.5	-79.0	2.6	0.00e+00	0	48	104	0	60	1048574
2026-01-17 11:25:11.07	317.55	10.05	-83.5	-79.0	2.5	0.00e+00	0	48	104	0	60	1048573
2026-01-17 11:25:12.08	317.31	10.01	-83.1	-79.0	2.4	0.00e+00	0	49	104	0	60	1048574
2026-01-17 11:25:13.09	317.07	9.97	-83.5	-79.0	2.4	0.00e+00	0	48	104	0	60	1048574
2026-01-17 11:25:14.09	316.83	9.93	-83.1	-79.0	2.4	0.00e+00	0	49	104	0	60	1048573
2026-01-17 11:25:15.10	316.59	9.89	-83.5	-79.0	2.4	0.00e+00	0	49	104	0	60	1048570
2026-01-17 11:25:16.11	316.36	9.85	-83.5	-79.0	2.6	0.00e+00	0	49	104	0	60	1048575
2026-01-17 11:25:17.11	316.12	9.81	-82.8	-79.0	2.4	0.00e+00	0	49	104	0	60	1048569
2026-01-17 11:25:18.11	315.89	9.77	-83.5	-79.0	2.4	0.00e+00	0	49	104	0	60	1048574
2026-01-17 11:25:19.12	315.65	9.73	-83.5	-79.0	2.4	0.00e+00	0	49	104	0	60	1048575
2026-01-17 11:25:20.13	315.42	9.69	-83.5	-79.0	2.5	0.00e+00	0	48	104	0	60	1048574
2026-01-17 11:25:21.14	315.18	9.65	-83.1	-79.0	2.5	0.00e+00	0	49	104	0	60	1048574
2026-01-17 11:25:22.15	314.95	9.61	-83.1	-79.0	2.5	0.00e+00	0	48	104	0	60	1048574
2026-01-17 11:25:23.15	314.72	9.57	-83.5	-79.0	2.5	0.00e+00	0	48	104	0	60	1048574
2026-01-17 11:25:24.16	314.49	9.53	-83.5	-79.0	2.6	0.00e+00	0	49	104	0	60	1048574
2026-01-17 11:25:25.16	314.26	9.49	-83.5	-79.0	2.4	0.00e+00	0	49	104	0	60	1048574
2026-01-17 11:25:26.17	314.03	9.44	-82.8	-79.0	2.7	0.00e+00	0	49	104	0	60	1048574
2026-01-17 11:25:27.17	313.80	9.40	-83.1	-79.0	2.4	0.00e+00	0	49	104	0	60	1048568
2026-01-17 11:25:28.18	313.57	9.36	-83.5	-79.0	2.2	0.00e+00	0	48	104	0	60	1048572
2026-01-17 11:25:29.18	313.35	9.31	-83.5	-79.0	2.3	0.00e+00	0	48	104	0	60	1048574
2026-01-17 11:25:30.19	313.12	9.27	-82.8	-79.0	2.5	0.00e+00	0	49	104	0	60	1048571
2026-01-17 11:25:31.19	312.89	9.23	-83.1	-79.0	2.3	0.00e+00	0	49	104	0	60	1048575
2026-01-17 11:25:32.20	312.67	9.18	-83.5	-79.0	2.7	0.00e+00	0	49	104	0	60	1048572
2026-01-17 11:25:33.21	312.45	9.14	-83.5	-79.0	2.5	0.00e+00	0	48	104	0	60	1048574
2026-01-17 11:25:34.22	312.22	9.09	-83.5	-79.0	2.5	0.00e+00	0	49	104	0	60	1048572
2026-01-17 11:25:35.23	312.00	9.05	-83.5	-79.0	2.5	0.00e+00	0	49	104	0	60	1048569
2026-01-17 11:25:36.23	311.78	9.01	-83.5	-79.0	2.3	0.00e+00	0	48	104	0	60	1048575
2026-01-17 11:25:37.24	311.56	8.96	-83.5	-79.0	2.6	0.00e+00	0	48	104	0	60	1048575
2026-01-17 11:25:38.25	311.34	8.91	-83.1	-79.0	2.3	0.00e+00	0	48	104	0	60	1048574
2026-01-17 11:25:39.25	311.12	8.87	-83.5	-79.0	2.5	0.00e+00	0	48	104	0	60	1048575
2026-01-17 11:25:40.25	310.90	8.82	-83.1	-79.0	2.2	0.00e+00	0	48	104	0	60	1048571
2026-01-17 11:25:41.26	310.69	8.78	-83.1	-79.0	2.6	0.00e+00	0	48	104	0	60	1048567
2026-01-17 11:25:42.27	310.47	8.73	-83.5	-79.0	2.6	0.00e+00	0	48	104	0	60	1048575
2026-01-17 11:25:43.28	310.25	8.68	-83.5	-79.0	2.4	0.00e+00	0	48	104	0	60	1048571
2026-01-17 11:25:44.29	310.04	8.64	-83.5	-79.0	2.4	0.00e+00	0	48	104	0	60	1048574
2026-01-17 11:25:45.29	309.83	8.59	-83.1	-79.0	2.4	0.00e+00	0	48	104	0	60	1048569
2026-01-17 11:25:46.30	309.61	8.54	-83.5	-79.0	2.5	0.00e+00	0	49	104	0	60	1048562
2026-01-17 11:25:47.30	309.40	8.50	-83.5	-79.0	2.5	0.00e+00	0	49	104	0	60	1048571
2026-01-17 11:25:48.31	309.19	8.45	-83.5	-79.0	2.3	0.00e+00	0	49	104	0	60	1048562
2026-01-17 11:25:49.32	308.98	8.40	-83.5	-79.0	2.6	0.00e+00	0	49	104	0	60	1048572
2026-01-17 11:25:50.33	308.77	8.35	-83.1	-79.0	2.4	0.00e+00	0	49	104	0	60	1048575
2026-01-17 11:25:51.33	308.56	8.31	-83.5	-79.0	2.7	0.00e+00	0	49	104	0	60	1048572
2026-01-17 11:25:52.35	308.35	8.26	-83.5	-79.0	2.4	0.00e+00	0	48	104	0	60	1048575
2026-01-17 11:25:53.36	308.15	8.21	-83.5	-79.0	2.5	0.00e+00	0	48	104	0	60	1048574
2026-01-17 11:25:54.36	307.94	8.16	-83.1	-79.0	2.5	0.00e+00	0	48	104	0	60	1048574
2026-01-17 11:25:55.37	307.74	8.11	-83.1	-79.0	2.2	0.00e+00	0	48	104	0	60	1048568
2026-01-17 11:25:56.38	307.53	8.06	-83.5	-79.0	2.5	0.00e+00	0	49	104	0	60	1048575
2026-01-17 11:25:57.39	307.33	8.01	-83.5	-79.0	2.4	0.00e+00	0	48	104	0	60	1048574
2026-01-17 11:25:58.39	307.13	7.96	-83.5	-79.0	2.4	0.00e+00	0	49	104	0	60	1048575
2026-01-17 11:25:59.40	306.93	7.91	-83.1	-79.0	2.7	0.00e+00	0	48	104	0	60	1048572
2026-01-17 11:26:00.41	306.72	7.86	-83.5	-79.0	2.4	0.00e+00	0	48	104	0	60	1048572
2026-01-17 11:26:01.41	306.53	7.82	-83.5	-79.0	2.5	0.00e+00	0	48	104	0	60	1048568
2026-01-17 11:26:02.42	306.33	7.77	-83.5	-79.0	2.4	0.00e+00	0	48	104	0	60	1048574
2026-01-17 11:26:03.43	306.13	7.72	-83.1	-79.0	2.4	0.00e+00	0	49	104	0	60	1048572
2026-01-17 11:26:04.43	305.93	7.67	-83.1	-79.0	2.3	0.00e+00	0	48	104	0	60	1048575
2026-01-17 11:26:05.44	305.73	7.62	-83.5	-79.0	2.4	0.00e+00	0	49	104	0	60	1048575
2026-01-17 11:26:06.45	305.54	7.56	-83.5	-79.0	2.4	0.00e+00	0	49	104	0	60	1048574
2026-01-17 11:26:07.45	305.35	7.51	-83.1	-79.0	2.4	0.00e+00	0	48	104	0	60	1048575
2026-01-17 11:26:08.46	305.15	7.46	-83.5	-79.0	2.3	0.00e+00	0	48	104	0	60	1048571
2026-01-17 11:26:09.47	304.96	7.41	-82.8	-79.0	2.3	0.00e+00	0	49	104	0	60	1048574
2026-01-17 11:26:10.48	304.76	7.36	-83.5	-79.0	2.5	0.00e+00	0	49	104	0	60	1048568
2026-01-17 11:26:11.48	304.57	7.31	-83.5	-79.0	2.6	0.00e+00	0	49	104	0	60	1048574
2026-01-17 11:26:12.49	304.38	7.26	-83.5	-79.0	2.2	0.00e+00	0	49	104	0	60	1048570
2026-01-17 11:26:13.50	304.19	7.21	-83.1	-79.0	2.6	0.00e+00	0	48	104	0	60	1048574
2026-01-17 11:26:14.50	304.01	7.16	-83.5	-79.0	2.4	0.00e+00	0	49	104	0	60	1048574
2026-01-17 11:26:15.51	303.82	7.11	-83.5	-79.0	2.4	0.00e+00	0	49	104	0	60	1048571
2026-01-17 11:26:16.51	303.63	7.05	-83.5	-79.0	2.5	0.00e+00	0	49	104	0	60	1048573
2026-01-17 11:26:17.52	303.44	7.00	-83.5	-79.0	2.3	0.00e+00	0	49	104	0	60	1048570
2026-01-17 11:26:18.53	303.26	6.95	-82.8	-79.0	2.4	0.00e+00	0	49	104	0	60	1048572
2026-01-17 11:26:19.54	303.07	6.90	-83.5	-79.0	2.4	0.00e+00	0	49	104	0	60	1048569
2026-01-17 11:26:20.54	302.89	6.85	-83.5	-79.0	2.4	0.00e+00	0	49	104	0	60	1048570
2026-01-17 11:26:21.55	302.71	6.79	-83.5	-79.0	2.4	0.00e+00	0	49	104	0	60	1048575
2026-01-17 11:26:22.55	302.53	6.74	-83.5	-79.0	2.4	0.00e+00	0	48	104	0	60	1048573
2026-01-17 11:26:23.56	302.34	6.69	-83.1	-79.0	2.5	0.00e+00	0	49	104	0	60	1048575
2026-01-17 11:26:24.57	302.16	6.64	-83.1	-79.0	2.5	0.00e+00	0	49	104	0	60	1048571
2026-01-17 11:26:25.58	301.98	6.59	-83.5	-79.0	2.4	0.00e+00	0	48	104	0	60	1048565
2026-01-17 11:26:26.58	301.81	6.53	-83.5	-79.0	2.3	0.00e+00	0	48	104	0	60	1048572
2026-01-17 11:26:27.59	301.63	6.48	-83.1	-79.0	2.7	0.00e+00	0	49	104	0	60	1048574
2026-01-17 11:26:28.60	301.45	6.43	-83.1	-79.0	2.5	0.00e+00	0	48	104	0	60	1048575
2026-01-17 11:26:29.61	301.27	6.37	-83.5	-79.0	2.5	0.00e+00	0	49	104	0	60	1048569
2026-01-17 11:26:30.61	301.10	6.32	-83.5	-79.0	2.7	0.00e+00	0	49	104	0	60	1048574
2026-01-17 11:26:31.61	300.92	6.27	-83.5	-79.0	2.3	0.00e+00	0	48	104	0	60	1048568
2026-01-17 11:26:32.62	300.75	6.22	-83.1	-79.0	2.6	0.00e+00	0	49	104	0	60	1048575
2026-01-17 11:26:33.63	300.58	6.16	-83.5	-79.0	2.4	0.00e+00	0	49	104	0	60	1048573
2026-01-17 11:26:34.63	300.40	6.11	-83.5	-79.0	2.5	0.00e+00	0	49	104	0	60	1048574
2026-01-17 11:26:35.64	300.23	6.06	-83.5	-79.0	2.4	0.00e+00	0	49	104	0	60	1048575
2026-01-17 11:26:36.65	300.06	6.00	-83.1	-79.0	2.6	0.00e+00	0	49	104	0	60	1048575
2026-01-17 11:26:37.65	299.89	5.95	-82.8	-79.0	2.4	0.00e+00	0	49	104	0	60	1048574
2026-01-17 11:26:38.65	299.72	5.90	-83.5	-79.0	2.5	0.00e+00	0	49	104	0	60	1048572
2026-01-17 11:26:39.66	299.56	5.85	-83.5	-79.0	2.5	0.00e+00	0	49	104	0	60	1048574
2026-01-17 11:26:40.67	299.39	5.79	-83.5	-79.0	2.5	0.00e+00	0	49	104	0	60	1048575
2026-01-17 11:26:41.68	299.22	5.74	-83.1	-79.0	2.5	0.00e+00	0	49	104	0	60	1048575
2026-01-17 11:26:42.68	299.05	5.68	-83.1	-79.0	2.4	0.00e+00	0	49	104	0	60	1048568
2026-01-17 11:26:43.69	298.89	5.63	-83.5	-79.0	2.3	0.00e+00	0	49	104	0	60	1048575
2026-01-17 11:26:44.70	298.72	5.58	-83.5	-79.0	2.5	0.00e+00	0	49	104	0	60	1048572
2026-01-17 11:26:45.71	298.56	5.52	-83.5	-79.0	2.2	0.00e+00	0	49	104	0	60	1048572
2026-01-17 11:26:46.71	298.40	5.47	-83.1	-79.0	2.6	0.00e+00	0	49	104	0	60	1048574
2026-01-17 11:26:47.71	298.24	5.42	-83.1	-79.0	2.5	0.00e+00	0	48	104	0	60	1048572
2026-01-17 11:26:48.72	298.07	5.36	-83.5	-79.0	2.4	0.00e+00	0	49	104	0	60	1048568
2026-01-17 11:26:49.73	297.91	5.31	-83.5	-79.0	2.5	0.00e+00	0	49	104	0	60	1048563
2026-01-17 11:26:50.73	297.75	5.26	-83.5	-79.0	2.4	0.00e+00	0	48	104	0	60	1048574
2026-01-17 11:26:51.74	297.59	5.20	-82.8	-79.0	2.6	0.00e+00	0	48	104	0	60	1048567
2026-01-17 11:26:52.75	297.44	5.15	-83.5	-79.0	2.4	0.00e+00	0	49	104	0	60	1048575
2026-01-17 11:26:53.76	297.28	5.09	-83.5	-79.0	2.3	0.00e+00	0	49	104	0	60	1048575
2026-01-17 11:26:54.77	297.12	5.04	-83.5	-79.0	2.5	0.00e+00	0	48	104	0	60	1048573
2026-01-17 11:26:55.77	296.96	4.99	-83.5	-79.0	2.3	0.00e+00	0	48	104	0	60	1048574
2026-01-17 11:26:56.78	296.81	4.93	-83.1	-79.0	2.5	0.00e+00	0	48	104	0	60	1048570
2026-01-17 11:26:57.78	296.65	4.88	-83.5	-79.0	2.4	0.00e+00	0	48	104	0	60	1048574
2026-01-17 11:26:58.79	296.50	4.82	-83.5	-79.0	2.5	0.00e+00	0	49	104	0	60	1048575
2026-01-17 11:26:59.80	296.35	4.77	-83.5	-79.0	2.5	0.00e+00	0	48	104	0	60	1048574
2026-01-17 11:27:00.80	296.19	4.72	-83.1	-79.0	2.5	0.00e+00	0	49	104	0	60	1048575
2026-01-17 11:27:01.81	296.04	4.66	-83.1	-79.0	2.6	0.00e+00	0	49	104	0	60	1048571
2026-01-17 11:27:02.81	295.89	4.61	-83.5	-79.0	2.4	0.00e+00	0	48	104	0	60	1048571
2026-01-17 11:27:03.82	295.74	4.56	-83.5	-79.0	2.6	0.00e+00	0	48	104	0	60	1048573
2026-01-17 11:27:04.83	295.59	4.50	-83.5	-79.0	2.4	0.00e+00	0	48	104	0	60	1048575
2026-01-17 11:27:05.84	295.44	4.45	-82.8	-79.0	2.4	0.00e+00	0	49	104	0	60	1048564
2026-01-17 11:27:06.85	295.29	4.39	-83.5	-79.0	2.5	0.00e+00	0	49	104	0	60	1048572
2026-01-17 11:27:07.85	295.15	4.34	-83.5	-79.0	2.4	0.00e+00	0	49	104	0	60	1048575
2026-01-17 11:27:08.86	295.00	4.28	-83.5	-79.0	2.4	0.00e+00	0	49	104	0	60	1048566
2026-01-17 11:27:09.87	294.85	4.23	-83.5	-79.0	2.5	0.00e+00	0	48	104	0	60	1048575
2026-01-17 11:27:10.88	294.71	4.18	-82.8	-79.0	2.4	0.00e+00	0	49	104	0	60	1048574
2026-01-17 11:27:11.88	294.56	4.12	-83.5	-79.0	2.1	0.00e+00	0	49	104	0	60	1048573
2026-01-17 11:27:12.89	294.42	4.07	-83.5	-79.0	2.3	0.00e+00	0	49	104	0	60	1048575
2026-01-17 11:27:13.89	294.27	4.01	-83.5	-79.0	2.5	0.00e+00	0	49	104	0	60	1048574
2026-01-17 11:27:14.90	294.13	3.96	-83.1	-79.0	2.2	0.00e+00	0	49	104	0	60	1048575
2026-01-17 11:27:15.90	293.99	3.91	-82.8	-79.0	2.4	0.00e+00	0	49	104	0	60	1048575
2026-01-17 11:27:16.91	293.85	3.85	-83.5	-79.0	2.3	0.00e+00	0	49	104	0	60	1048572
2026-01-17 11:27:17.91	293.71	3.80	-83.5	-79.0	2.4	0.00e+00	0	49	104	0	60	1048572
2026-01-17 11:27:18.92	293.57	3.74	-83.5	-79.0	2.5	0.00e+00	0	49	104	0	60	1048569
2026-01-17 11:27:19.92	293.43	3.69	-83.5	-79.0	2.4	0.00e+00	0	49	104	0	60	1048574
2026-01-17 11:27:20.93	293.29	3.64	-83.1	-79.0	2.6	0.00e+00	0	49	104	0	60	1048569
2026-01-17 11:27:21.93	293.15	3.58	-83.5	-79.0	2.3	0.00e+00	0	48	104	0	60	1048575
2026-01-17 11:27:22.94	293.02	3.53	-83.5	-79.0	2.5	0.00e+00	0	48	104	0	60	1048573
2026-01-17 11:27:23.94	292.88	3.48	-83.5	-79.0	2.5	0.00e+00	0	49	104	0	60	1048573
2026-01-17 11:27:24.95	292.74	3.42	-83.1	-79.0	2.3	0.00e+00	0	49	104	0	60	1048575
2026-01-17 11:27:25.95	292.61	3.37	-83.5	-79.0	2.4	0.00e+00	0	48	104	0	60	1048570
2026-01-17 11:27:26.96	292.47	3.31	-83.5	-79.0	2.3	0.00e+00	0	49	104	0	60	1048574
2026-01-17 11:27:27.96	292.34	3.26	-83.5	-79.0	2.4	0.00e+00	0	48	104	0	60	1048575
2026-01-17 11:27:28.97	292.21	3.21	-83.5	-79.0	2.2	0.00e+00	0	49	104	0	60	1048566
2026-01-17 11:27:29.98	292.07	3.15	-82.8	-79.0	2.5	0.00e+00	0	49	104	0	60	1048571
2026-01-17 11:27:30.98	291.94	3.10	-83.5	-79.0	2.5	0.00e+00	0	49	104	0	60	1048575
2026-01-17 11:27:31.99	291.81	3.04	-83.5	-79.0	2.4	0.00e+00	0	49	104	0	60	1048566
2026-01-17 11:27:33.00	291.68	2.99	-83.5	-79.0	2.7	0.00e+00	0	48	104	0	60	1048575
2026-01-17 11:27:34.01	291.55	2.94	-83.1	-79.0	2.4	0.00e+00	0	49	104	0	60	1048570
2026-01-17 11:27:35.01	291.42	2.88	-82.8	-79.0	2.8	0.00e+00	0	49	104	0	60	1048573
2026-01-17 11:27:36.02	291.29	2.83	-83.5	-79.0	2.6	0.00e+00	0	49	104	0	60	1048573
2026-01-17 11:27:37.03	291.16	2.78	-83.5	-79.0	2.7	0.00e+00	0	49	104	0	60	1048574
2026-01-17 11:27:38.03	291.03	2.72	-83.5	-79.0	2.4	0.00e+00	0	48	104	0	60	1048567
2026-01-17 11:27:39.03	290.90	2.67	-83.1	-79.0	2.2	0.00e+00	0	48	104	0	60	1048573
2026-01-17 11:27:40.04	290.78	2.62	-83.1	-79.0	2.5	0.00e+00	0	49	104	0	60	1048575
2026-01-17 11:27:41.04	290.65	2.56	-83.5	-79.0	2.2	0.00e+00	0	49	104	0	60	1048574
2026-01-17 11:27:42.05	290.53	2.51	-83.5	-79.0	2.5	0.00e+00	0	49	104	0	60	1048568
2026-01-17 11:27:43.06	290.40	2.45	-83.5	-79.0	2.4	0.00e+00	0	48	104	0	60	1048568
2026-01-17 11:27:44.06	290.28	2.40	-83.1	-79.0	2.4	0.00e+00	0	49	104	0	60	1048574
2026-01-17 11:27:45.07	290.15	2.35	-83.5	-79.0	2.6	0.00e+00	0	48	104	0	60	1048573
2026-01-17 11:27:46.07	290.03	2.29	-83.5	-79.0	2.4	0.00e+00	0	49	104	0	60	1048575
2026-01-17 11:27:47.08	289.91	2.24	-83.5	-79.0	2.4	0.00e+00	0	49	104	0	60	1048571
2026-01-17 11:27:48.09	289.78	2.19	-83.5	-79.0	2.6	0.00e+00	0	49	104	0	60	1048573
2026-01-17 11:27:49.09	289.66	2.13	-83.1	-79.0	2.0	0.00e+00	0	49	104	0	60	1048572
2026-01-17 11:27:50.10	289.54	2.08	-83.5	-79.0	2.7	0.00e+00	0	48	104	0	60	1048575
2026-01-17 11:27:51.11	289.42	2.03	-83.5	-79.0	2.1	0.00e+00	0	49	104	0	60	1048575
2026-01-17 11:27:52.12	289.30	1.97	-83.5	-79.0	2.6	0.00e+00	0	49	104	0	60	1048572
2026-01-17 11:27:53.13	289.18	1.92	-83.1	-79.0	2.3	0.00e+00	0	49	104	0	60	1048574
2026-01-17 11:27:54.13	289.06	1.87	-83.1	-79.0	2.3	0.00e+00	0	49	104	0	60	1048573
2026-01-17 11:27:55.14	288.95	1.81	-83.5	-79.0	2.5	0.00e+00	0	49	104	0	60	1048575
2026-01-17 11:27:56.15	288.83	1.76	-83.5	-79.0	2.4	0.00e+00	0	49	104	0	60	1048572
2026-01-17 11:27:57.15	288.71	1.71	-83.5	-79.0	2.6	0.00e+00	0	48	104	0	60	1048575
2026-01-17 11:27:58.16	288.59	1.66	-82.8	-79.0	2.4	0.00e+00	0	48	104	0	60	1048575
2026-01-17 11:27:59.17	288.48	1.60	-83.1	-79.0	2.4	0.00e+00	0	49	104	0	60	1048575
2026-01-17 11:28:00.18	288.36	1.55	-83.5	-79.0	2.4	0.00e+00	0	48	104	0	60	1048575
2026-01-17 11:28:01.19	288.25	1.50	-83.5	-79.0	2.4	0.00e+00	0	49	104	0	60	1048572
2026-01-17 11:28:02.20	288.13	1.44	-83.5	-79.0	2.5	0.00e+00	0	49	104	0	60	1048572
2026-01-17 11:28:03.20	288.02	1.39	-83.1	-79.0	2.2	0.00e+00	0	49	104	0	60	1048575
2026-01-17 11:28:04.21	287.91	1.34	-83.1	-79.0	2.7	0.00e+00	0	49	104	0	60	1048575
2026-01-17 11:28:05.22	287.79	1.28	-83.5	-79.0	2.3	0.00e+00	0	49	104	0	60	1048571
2026-01-17 11:28:06.23	287.68	1.23	-83.5	-79.0	2.7	0.00e+00	0	48	104	0	60	1048567
2026-01-17 11:28:07.23	287.57	1.18	-83.5	-79.0	2.4	0.00e+00	0	49	104	0	60	1048574
2026-01-17 11:28:08.24	287.46	1.13	-83.1	-79.0	2.5	0.00e+00	0	48	104	0	60	1048573
2026-01-17 11:28:09.25	287.35	1.07	-83.5	-79.0	2.6	0.00e+00	0	48	104	0	60	1048575
2026-01-17 11:28:10.25	287.24	1.02	-83.5	-79.0	2.4	0.00e+00	0	48	104	0	60	1048575
2026-01-17 11:28:11.26	287.13	0.97	-83.5	-79.0	2.5	0.00e+00	0	48	104	0	60	1048571
2026-01-17 11:28:12.26	287.02	0.92	-83.1	-79.0	2.5	0.00e+00	0	49	104	0	60	1048573
2026-01-17 11:28:13.27	286.91	0.86	-83.1	-79.0	2.4	0.00e+00	0	48	104	0	60	1048575
2026-01-17 11:28:14.27	286.80	0.81	-83.5	-79.0	2.6	0.00e+00	0	48	104	0	60	1048573
2026-01-17 11:28:15.27	286.70	0.76	-83.5	-79.0	2.6	0.00e+00	0	49	104	0	60	1048569
2026-01-17 11:28:16.28	286.59	0.71	-83.1	-79.0	2.3	0.00e+00	0	48	104	0	60	1048575
2026-01-17 11:28:17.29	286.48	0.65	-83.1	-79.0	2.3	0.00e+00	0	48	104	0	60	1048567
2026-01-17 11:28:18.29	286.38	0.60	-83.5	-79.0	2.5	0.00e+00	0	48	104	0	60	1048565
2026-01-17 11:28:19.30	286.27	0.55	-83.5	-79.0	2.4	0.00e+00	0	49	104	0	60	1048574
2026-01-17 11:28:20.31	286.16	0.50	-83.5	-79.0	2.4	0.00e+00	0	48	104	0	60	1048573
2026-01-17 11:28:21.31	286.06	0.45	-83.5	-79.0	2.5	0.00e+00	0	48	104	0	60	1048569
2026-01-17 11:28:22.32	285.95	0.39	-83.1	-79.0	2.6	0.00e+00	0	48	104	0	60	1048568
2026-01-17 11:28:23.33	285.85	0.34	-83.5	-79.0	2.2	0.00e+00	0	49	104	0	60	1048572
2026-01-17 11:28:24.34	285.75	0.29	-83.5	-79.0	2.6	0.00e+00	0	49	104	0	60	1048575
2026-01-17 11:28:25.35	285.64	0.24	-83.5	-79.0	2.4	0.00e+00	0	49	104	0	60	1048568
2026-01-17 11:28:26.35	285.54	0.19	-83.5	-79.0	2.5	0.00e+00	0	49	104	0	60	1048574
2026-01-17 11:28:27.35	285.44	0.13	-83.5	-79.0	2.5	0.00e+00	0	49	104	0	60	1048568
2026-01-17 11:28:28.34	285.34	0.08	-83.1	-79.0	2.3	0.00e+00	0	48	104	0	60	1048573
2026-01-17 11:28:29.35	285.24	0.03	-83.5	-79.0	2.7	0.00e+00	0	48	104	0	60	1048568

#Closed at: 2026-01-17 11:28:30
#Recorded file [0 MB]: D:/Data/35015_260117_141913.dat