passes_logs/2026/01/17/R3.2S-Naryan-Mar/R3.2S-Naryan-Mar__20260117_172941_TY-41_rec.log

#Pass ID: 20260117_172941_TY-41
#Satellite: TY-41
#Configuration: TY-39
#almurnet v.1.7.20240730
#Start time: 2026-01-17 17:29:44

#Version: 2.2.20231116
#Station: R3.2S-Naryan-Mar
#Location: 53.008057 lon 67.646978 lat
#TLE: 1 61231U 24173E   26017.08983796  .00008010  00000-0  38191-3 0 09990
#TLE: 2 61231 097.4122 092.0846 0001831 091.8622 061.7654 15.19167953 72814

#Time	Az	El	Level	Level2	SNR	BER	BlckErr	Temp	State	Recorded	gain1	gain2
2026-01-17 17:29:44.15	157.04	0.18	-83.1	-79.0	2.7	0.00e+00	0	46	0	0	60	1048574
2026-01-17 17:29:45.15	157.05	0.24	-83.5	-79.0	2.4	0.00e+00	0	46	104	0	60	1048574
2026-01-17 17:29:46.16	157.05	0.31	-83.1	-79.0	2.4	0.00e+00	0	46	104	0	60	1048571
2026-01-17 17:29:47.16	157.05	0.37	-83.1	-79.0	2.4	0.00e+00	0	46	104	0	60	1048572
2026-01-17 17:29:48.17	157.05	0.44	-83.5	-79.0	2.2	0.00e+00	0	46	104	0	60	1048568
2026-01-17 17:29:49.17	157.06	0.50	-83.5	-79.0	2.3	0.00e+00	0	46	104	0	60	1048575
2026-01-17 17:29:50.18	157.06	0.57	-83.5	-79.0	2.3	0.00e+00	0	46	104	0	60	1048571
2026-01-17 17:29:51.19	157.06	0.63	-82.8	-79.0	2.5	0.00e+00	0	46	104	0	60	1048574
2026-01-17 17:29:52.20	157.06	0.70	-83.5	-79.0	2.2	0.00e+00	0	46	104	0	60	1048566
2026-01-17 17:29:53.21	157.07	0.77	-83.5	-79.0	2.4	0.00e+00	0	46	104	0	60	1048575
2026-01-17 17:29:54.21	157.07	0.83	-83.5	-79.0	2.5	0.00e+00	0	46	104	0	60	1048572
2026-01-17 17:29:55.22	157.07	0.90	-83.1	-79.0	2.5	0.00e+00	0	46	104	0	60	1048574
2026-01-17 17:29:56.23	157.07	0.97	-83.1	-79.0	2.2	0.00e+00	0	46	104	0	60	1048573
2026-01-17 17:29:57.24	157.08	1.04	-83.5	-79.0	2.4	0.00e+00	0	46	104	0	60	1048574
2026-01-17 17:29:58.25	157.08	1.10	-83.5	-79.0	2.4	0.00e+00	0	46	104	0	60	1048569
2026-01-17 17:29:59.25	157.08	1.17	-83.5	-79.0	2.4	0.00e+00	0	46	104	0	60	1048572
2026-01-17 17:30:00.26	157.08	1.24	-82.8	-79.0	2.2	0.00e+00	0	46	104	0	60	1048573
2026-01-17 17:30:01.27	157.09	1.31	-82.8	-79.0	2.3	0.00e+00	0	46	104	0	60	1048575
2026-01-17 17:30:02.28	157.09	1.38	-83.5	-79.0	2.3	0.00e+00	0	46	104	0	60	1048569
2026-01-17 17:30:03.28	157.09	1.45	-83.5	-79.0	2.4	0.00e+00	0	46	104	0	60	1048566
2026-01-17 17:30:04.29	157.09	1.51	-83.5	-79.0	2.4	0.00e+00	0	46	104	0	60	1048568
2026-01-17 17:30:05.30	157.10	1.58	-83.1	-79.0	2.3	0.00e+00	0	46	104	0	60	1048574
2026-01-17 17:30:06.31	157.10	1.65	-83.5	-79.0	2.5	0.00e+00	0	47	104	0	60	1048575
2026-01-17 17:30:07.31	157.10	1.72	-83.5	-79.0	2.4	0.00e+00	0	46	104	0	60	1048573
2026-01-17 17:30:08.32	157.10	1.79	-83.5	-79.0	2.4	0.00e+00	0	47	104	0	60	1048571
2026-01-17 17:30:09.32	157.11	1.86	-83.1	-79.0	2.3	0.00e+00	0	47	104	0	60	1048571
2026-01-17 17:30:10.33	157.11	1.93	-82.8	-79.0	2.5	0.00e+00	0	47	104	0	60	1048575
2026-01-17 17:30:11.33	157.11	2.00	-83.5	-79.0	2.4	0.00e+00	0	47	104	0	60	1048575
2026-01-17 17:30:12.34	157.11	2.07	-83.5	-79.0	2.4	0.00e+00	0	47	104	0	60	1048567
2026-01-17 17:30:13.35	157.11	2.14	-83.1	-79.0	2.2	0.00e+00	0	47	104	0	60	1048574
2026-01-17 17:30:14.35	157.12	2.21	-83.1	-79.0	2.4	0.00e+00	0	47	104	0	60	1048566
2026-01-17 17:30:15.36	157.12	2.29	-83.1	-79.0	2.4	0.00e+00	0	47	104	0	60	1048571
2026-01-17 17:30:16.37	157.12	2.36	-83.5	-79.0	2.3	0.00e+00	0	47	104	0	60	1048575
2026-01-17 17:30:17.37	157.12	2.43	-83.5	-79.0	2.4	0.00e+00	0	47	104	0	60	1048569
2026-01-17 17:30:18.38	157.13	2.50	-83.5	-79.0	2.4	0.00e+00	0	47	104	0	60	1048572
2026-01-17 17:30:19.38	157.13	2.57	-82.8	-79.0	2.5	0.00e+00	0	47	104	0	60	1048571
2026-01-17 17:30:20.39	157.13	2.65	-83.1	-79.0	2.4	0.00e+00	0	47	104	0	60	1048575
2026-01-17 17:30:21.40	157.13	2.72	-83.5	-79.0	2.4	0.00e+00	0	47	104	0	60	1048571
2026-01-17 17:30:22.41	157.14	2.79	-83.5	-79.0	2.4	0.00e+00	0	47	104	0	60	1048575
2026-01-17 17:30:23.41	157.14	2.87	-83.5	-79.0	2.1	0.00e+00	0	47	104	0	60	1048574
2026-01-17 17:30:24.42	157.14	2.94	-82.8	-79.0	2.4	0.00e+00	0	47	104	0	60	1048573
2026-01-17 17:30:25.43	157.14	3.01	-83.1	-79.0	2.2	0.00e+00	0	47	104	0	60	1048573
2026-01-17 17:30:26.43	157.15	3.09	-83.5	-79.0	2.4	0.00e+00	0	47	104	0	60	1048575
2026-01-17 17:30:27.43	157.15	3.16	-83.5	-79.0	2.2	0.00e+00	0	47	104	0	60	1048575
2026-01-17 17:30:28.44	157.15	3.24	-83.5	-79.0	2.5	0.00e+00	0	47	104	0	60	1048572
2026-01-17 17:30:29.45	157.15	3.31	-83.1	-79.0	2.3	0.00e+00	0	47	104	0	60	1048573
2026-01-17 17:30:30.45	157.15	3.38	-83.5	-79.0	2.4	0.00e+00	0	47	104	0	60	1048573
2026-01-17 17:30:31.46	157.16	3.46	-83.5	-79.0	2.5	0.00e+00	0	47	104	0	60	1048574
2026-01-17 17:30:32.47	157.16	3.54	-83.5	-79.0	2.4	0.00e+00	0	47	104	0	60	1048575
2026-01-17 17:30:33.48	157.16	3.61	-83.1	-79.0	2.4	0.00e+00	0	47	104	0	60	1048574
2026-01-17 17:30:34.49	157.16	3.69	-82.8	-79.0	2.4	0.00e+00	0	47	104	0	60	1048570
2026-01-17 17:30:35.49	157.17	3.76	-83.5	-79.0	2.1	0.00e+00	0	47	104	0	60	1048568
2026-01-17 17:30:36.49	157.17	3.84	-83.5	-79.0	2.5	0.00e+00	0	47	104	0	60	1048569
2026-01-17 17:30:37.50	157.17	3.92	-83.5	-79.0	2.2	0.00e+00	0	47	104	0	60	1048570
2026-01-17 17:30:38.50	157.17	4.00	-82.8	-79.0	2.4	0.00e+00	0	47	104	0	60	1048565
2026-01-17 17:30:39.51	157.18	4.07	-83.1	-79.0	2.3	0.00e+00	0	47	104	0	60	1048574
2026-01-17 17:30:40.52	157.18	4.15	-83.5	-79.0	2.4	0.00e+00	0	47	104	0	60	1048572
2026-01-17 17:30:41.52	157.18	4.23	-83.5	-79.0	2.2	0.00e+00	0	47	104	0	60	1048575
2026-01-17 17:30:42.53	157.18	4.31	-83.1	-79.0	2.4	0.00e+00	0	47	104	0	60	1048575
2026-01-17 17:30:43.53	157.18	4.39	-82.8	-79.0	2.3	0.00e+00	0	47	104	0	60	1048573
2026-01-17 17:30:44.54	157.19	4.47	-83.1	-79.0	2.4	0.00e+00	0	47	104	0	60	1048575
2026-01-17 17:30:45.55	157.19	4.55	-83.5	-79.0	2.4	0.00e+00	0	47	104	0	60	1048558
2026-01-17 17:30:46.55	157.19	4.62	-83.5	-79.0	2.4	0.00e+00	0	47	104	0	60	1048575
2026-01-17 17:30:47.56	157.19	4.70	-83.5	-79.0	2.2	0.00e+00	0	47	104	0	60	1048568
2026-01-17 17:30:48.57	157.19	4.79	-83.1	-79.0	2.3	0.00e+00	0	47	104	0	60	1048569
2026-01-17 17:30:49.58	157.20	4.87	-83.5	-79.0	2.3	0.00e+00	0	47	104	0	60	1048569
2026-01-17 17:30:50.59	157.20	4.95	-83.5	-79.0	2.4	0.00e+00	0	47	104	0	60	1048565
2026-01-17 17:30:51.60	157.20	5.03	-83.5	-79.0	2.2	0.00e+00	0	47	104	0	60	1048574
2026-01-17 17:30:52.60	157.20	5.11	-83.1	-79.0	2.4	0.00e+00	0	47	104	0	60	1048572
2026-01-17 17:30:53.61	157.21	5.19	-83.1	-79.0	2.3	0.00e+00	0	47	104	0	60	1048573
2026-01-17 17:30:54.61	157.21	5.27	-83.5	-79.0	2.4	0.00e+00	0	47	104	0	60	1048564
2026-01-17 17:30:55.62	157.21	5.36	-83.5	-79.0	2.3	0.00e+00	0	47	104	0	60	1048575
2026-01-17 17:30:56.62	157.21	5.44	-83.5	-79.0	2.5	0.00e+00	0	47	104	0	60	1048563
2026-01-17 17:30:57.63	157.21	5.52	-82.8	-79.0	2.3	0.00e+00	0	47	104	0	60	1048573
2026-01-17 17:30:58.64	157.22	5.61	-83.1	-79.0	2.4	0.00e+00	0	47	104	0	60	1048571
2026-01-17 17:30:59.64	157.22	5.69	-83.5	-79.0	2.4	0.00e+00	0	47	104	0	60	1048574
2026-01-17 17:31:00.65	157.22	5.78	-83.5	-79.0	2.4	0.00e+00	0	47	104	0	60	1048571
2026-01-17 17:31:01.66	157.22	5.86	-83.5	-79.0	2.3	0.00e+00	0	47	104	0	60	1048571
2026-01-17 17:31:02.66	157.22	5.95	-83.1	-79.0	2.4	0.00e+00	0	47	104	0	60	1048575
2026-01-17 17:31:03.67	157.23	6.03	-83.5	-79.0	2.3	0.00e+00	0	47	104	0	60	1048574
2026-01-17 17:31:04.68	157.23	6.12	-83.5	-79.0	2.4	0.00e+00	0	47	104	0	60	1048570
2026-01-17 17:31:05.69	157.23	6.20	-83.5	-79.0	2.5	0.00e+00	0	47	104	0	60	1048570
2026-01-17 17:31:06.69	157.23	6.29	-83.5	-79.0	2.3	0.00e+00	0	47	104	0	60	1048573
2026-01-17 17:31:07.70	157.23	6.38	-83.1	-79.0	2.4	0.00e+00	0	47	104	0	60	1048571
2026-01-17 17:31:08.71	157.24	6.47	-83.5	-79.0	2.4	0.00e+00	0	47	104	0	60	1048574
2026-01-17 17:31:09.72	157.24	6.55	-83.5	-79.0	2.4	0.00e+00	0	47	104	0	60	1048572
2026-01-17 17:31:10.72	157.24	6.64	-83.5	-79.0	2.3	0.00e+00	0	47	104	0	60	1048569
2026-01-17 17:31:11.73	157.24	6.73	-82.8	-79.0	2.3	0.00e+00	0	47	104	0	60	1048573
2026-01-17 17:31:12.73	157.24	6.82	-83.5	-79.0	2.2	0.00e+00	0	47	104	0	60	1048567
2026-01-17 17:31:13.74	157.25	6.91	-83.5	-79.0	2.5	0.00e+00	0	47	104	0	60	1048571
2026-01-17 17:31:14.74	157.25	7.00	-83.5	-79.0	2.1	0.00e+00	0	48	104	0	60	1048573
2026-01-17 17:31:15.74	157.25	7.09	-83.5	-79.0	2.4	0.00e+00	0	48	104	0	60	1048574
2026-01-17 17:31:16.75	157.25	7.18	-82.8	-79.0	2.4	0.00e+00	0	48	104	0	60	1048569
2026-01-17 17:31:17.76	157.25	7.27	-83.5	-79.0	2.4	0.00e+00	0	48	104	0	60	1048567
2026-01-17 17:31:18.77	157.25	7.36	-83.5	-79.0	2.4	0.00e+00	0	48	104	0	60	1048568
2026-01-17 17:31:19.77	157.26	7.45	-83.5	-79.0	2.3	0.00e+00	0	48	104	0	60	1048574
2026-01-17 17:31:20.78	157.26	7.55	-83.1	-79.0	2.4	0.00e+00	0	48	104	0	60	1048574
2026-01-17 17:31:21.79	157.26	7.64	-83.1	-79.0	2.4	0.00e+00	0	47	104	0	60	1048574
2026-01-17 17:31:22.79	157.26	7.73	-83.5	-79.0	2.4	0.00e+00	0	48	104	0	60	1048568
2026-01-17 17:31:23.80	157.26	7.83	-83.5	-79.0	2.4	0.00e+00	0	48	104	0	60	1048568
2026-01-17 17:31:24.81	157.27	7.92	-83.5	-79.0	2.1	0.00e+00	0	48	104	0	60	1048574
2026-01-17 17:31:25.82	157.27	8.02	-83.1	-79.0	2.4	0.00e+00	0	48	104	0	60	1048566
2026-01-17 17:31:26.82	157.27	8.11	-83.1	-79.0	2.2	0.00e+00	0	48	104	0	60	1048571
2026-01-17 17:31:27.83	157.27	8.21	-83.5	-79.0	2.3	0.00e+00	0	48	104	0	60	1048574
2026-01-17 17:31:28.83	157.27	8.30	-83.1	-79.0	2.3	0.00e+00	0	48	104	0	60	1048573
2026-01-17 17:31:29.84	157.27	8.40	-83.5	-79.0	2.4	0.00e+00	0	48	104	0	60	1048575
2026-01-17 17:31:30.85	157.28	8.50	-83.1	-79.0	2.4	0.00e+00	0	48	104	0	60	1048571
2026-01-17 17:31:31.85	157.28	8.60	-83.1	-79.0	2.4	0.00e+00	0	48	104	0	60	1048575
2026-01-17 17:31:32.85	157.28	8.69	-83.5	-79.0	2.4	0.00e+00	0	48	104	0	60	1048570
2026-01-17 17:31:33.86	157.28	8.79	-83.5	-79.0	2.4	0.00e+00	0	48	104	0	60	1048569
2026-01-17 17:31:34.87	157.28	8.89	-83.5	-79.0	2.3	0.00e+00	0	48	104	0	60	1048575
2026-01-17 17:31:35.87	157.28	8.99	-83.1	-79.0	2.2	0.00e+00	0	48	104	0	60	1048571
2026-01-17 17:31:36.88	157.29	9.09	-83.5	-79.0	2.1	0.00e+00	0	48	104	0	60	1048575
2026-01-17 17:31:37.89	157.29	9.19	-83.5	-79.0	2.3	0.00e+00	0	48	104	0	60	1048574
2026-01-17 17:31:38.90	157.29	9.29	-83.5	-79.0	2.3	0.00e+00	0	48	104	0	60	1048568
2026-01-17 17:31:39.91	157.29	9.40	-83.5	-79.0	2.4	0.00e+00	0	48	104	0	60	1048565
2026-01-17 17:31:40.91	157.29	9.50	-83.1	-79.0	2.4	0.00e+00	0	48	104	0	60	1048575
2026-01-17 17:31:41.92	157.29	9.60	-83.1	-79.0	2.5	0.00e+00	0	48	104	0	60	1048574
2026-01-17 17:31:42.93	157.29	9.71	-83.5	-79.0	2.1	0.00e+00	0	48	104	0	60	1048573
2026-01-17 17:31:43.94	157.30	9.81	-83.5	-79.0	2.4	0.00e+00	0	48	104	0	60	1048575
2026-01-17 17:31:44.95	157.30	9.92	-82.8	-79.0	2.4	0.00e+00	0	48	104	0	60	1048575
2026-01-17 17:31:45.95	157.30	10.02	-83.5	-79.0	2.4	0.00e+00	0	48	104	0	60	1048575
2026-01-17 17:31:46.95	157.30	10.13	-83.1	-79.0	2.4	0.00e+00	0	48	104	0	60	1048575
2026-01-17 17:31:47.96	157.30	10.23	-83.1	-79.0	2.3	0.00e+00	0	48	104	0	60	1048575
2026-01-17 17:31:48.96	157.30	10.34	-83.5	-79.0	2.1	0.00e+00	0	48	104	0	60	1048572
2026-01-17 17:31:49.96	157.30	10.45	-82.8	-79.0	2.4	0.00e+00	0	48	104	0	60	1048575
2026-01-17 17:31:50.96	157.31	10.55	-83.1	-79.0	2.2	0.00e+00	0	48	104	0	60	1048574
2026-01-17 17:31:51.96	157.31	10.66	-83.5	-79.0	2.4	0.00e+00	0	48	104	0	60	1048572
2026-01-17 17:31:52.97	157.31	10.77	-83.5	-79.0	2.3	0.00e+00	0	48	104	0	60	1048575
2026-01-17 17:31:53.97	157.31	10.88	-83.1	-79.0	2.4	0.00e+00	0	48	104	0	60	1048575
2026-01-17 17:31:54.98	157.31	10.99	-83.1	-79.0	2.4	0.00e+00	0	48	104	0	60	1048574
2026-01-17 17:31:55.98	157.31	11.11	-83.5	-79.0	2.5	0.00e+00	0	48	104	0	60	1048573
2026-01-17 17:31:57.00	157.31	11.22	-83.5	-79.0	2.4	0.00e+00	0	48	104	0	60	1048573
2026-01-17 17:31:58.01	157.31	11.33	-83.5	-79.0	2.4	0.00e+00	0	48	104	0	60	1048571
2026-01-17 17:31:59.01	157.32	11.45	-83.5	-79.0	2.4	0.00e+00	0	48	104	0	60	1048575
2026-01-17 17:32:00.02	157.32	11.56	-83.1	-79.0	2.4	0.00e+00	0	48	104	0	60	1048571
2026-01-17 17:32:01.03	157.32	11.68	-83.5	-79.0	2.4	0.00e+00	0	48	104	0	60	1048574
2026-01-17 17:32:02.03	157.32	11.79	-83.5	-79.0	2.3	0.00e+00	0	48	104	0	60	1048573
2026-01-17 17:32:03.03	157.32	11.91	-83.5	-79.0	2.4	0.00e+00	0	48	104	0	60	1048573
2026-01-17 17:32:04.04	157.32	12.02	-83.1	-79.0	2.2	0.00e+00	0	48	104	0	60	1048573
2026-01-17 17:32:05.05	157.32	12.14	-83.1	-79.0	2.3	0.00e+00	0	48	104	0	60	1048571
2026-01-17 17:32:06.05	157.32	12.26	-83.5	-79.0	2.5	0.00e+00	0	48	104	0	60	1048566
2026-01-17 17:32:07.06	157.32	12.38	-83.5	-79.0	2.4	0.00e+00	0	48	104	0	60	1048575
2026-01-17 17:32:08.07	157.33	12.50	-83.5	-79.0	2.4	0.00e+00	0	48	104	0	60	1048575
2026-01-17 17:32:09.07	157.33	12.62	-83.1	-79.0	2.3	0.00e+00	0	48	104	0	60	1048574
2026-01-17 17:32:10.08	157.33	12.74	-83.5	-79.0	2.3	0.00e+00	0	48	104	0	60	1048573
2026-01-17 17:32:11.08	157.33	12.87	-83.5	-79.0	2.3	0.00e+00	0	48	104	0	60	1048570
2026-01-17 17:32:12.09	157.33	12.99	-83.5	-79.0	2.4	0.00e+00	0	48	104	0	60	1048566
2026-01-17 17:32:13.09	157.33	13.11	-83.1	-79.0	2.4	0.00e+00	0	48	104	0	60	1048572
2026-01-17 17:32:14.10	157.33	13.24	-83.1	-79.0	2.2	0.00e+00	0	48	104	0	60	1048566
2026-01-17 17:32:15.11	157.33	13.37	-83.5	-79.0	2.3	0.00e+00	0	48	104	0	60	1048571
2026-01-17 17:32:16.12	157.33	13.49	-83.1	-79.0	2.2	0.00e+00	0	48	104	0	60	1048575
2026-01-17 17:32:17.12	157.33	13.62	-83.5	-79.0	2.4	0.00e+00	0	48	104	0	60	1048575
2026-01-17 17:32:18.13	157.33	13.75	-83.1	-79.0	2.3	0.00e+00	0	48	104	0	60	1048573
2026-01-17 17:32:19.14	157.33	13.88	-83.1	-79.0	2.4	0.00e+00	0	48	104	0	60	1048573
2026-01-17 17:32:20.14	157.33	14.01	-83.5	-79.0	2.3	0.00e+00	0	48	104	0	60	1048571
2026-01-17 17:32:21.14	157.34	14.14	-83.5	-79.0	2.5	0.00e+00	0	48	104	0	60	1048572
2026-01-17 17:32:22.14	157.34	14.27	-83.5	-79.0	2.3	0.00e+00	0	48	104	0	60	1048566
2026-01-17 17:32:23.15	157.34	14.41	-83.1	-79.0	2.4	0.00e+00	0	48	104	0	60	1048575
2026-01-17 17:32:24.15	157.34	14.54	-83.5	-79.0	2.3	0.00e+00	0	48	104	0	60	1048574
2026-01-17 17:32:25.16	157.34	14.67	-83.5	-79.0	2.5	0.00e+00	0	48	104	0	60	1048574
2026-01-17 17:32:26.16	157.34	14.81	-83.5	-79.0	2.1	0.00e+00	0	48	104	0	60	1048574
2026-01-17 17:32:27.17	157.34	14.95	-83.5	-79.0	2.4	0.00e+00	0	48	104	0	60	1048574
2026-01-17 17:32:28.17	157.34	15.08	-82.8	-79.0	2.1	0.00e+00	0	48	104	0	60	1048569
2026-01-17 17:32:29.18	157.34	15.22	-83.1	-79.0	2.3	0.00e+00	0	48	104	0	60	1048574
2026-01-17 17:32:30.18	157.34	15.36	-83.5	-79.0	2.2	0.00e+00	0	48	104	0	60	1048574
2026-01-17 17:32:31.19	157.34	15.50	-83.5	-79.0	2.4	0.00e+00	0	48	104	0	60	1048575
2026-01-17 17:32:32.20	157.34	15.65	-83.1	-79.0	2.4	0.00e+00	0	48	104	0	60	1048570
2026-01-17 17:32:33.21	157.34	15.79	-82.8	-79.0	2.5	0.00e+00	0	48	104	0	60	1048574
2026-01-17 17:32:34.21	157.34	15.93	-83.1	-79.0	2.3	0.00e+00	0	48	104	0	60	1048573
2026-01-17 17:32:35.22	157.34	16.08	-83.5	-79.0	2.4	0.00e+00	0	48	104	0	60	1048572
2026-01-17 17:32:36.22	157.34	16.23	-83.5	-79.0	2.4	0.00e+00	0	48	104	0	60	1048574
2026-01-17 17:32:37.23	157.34	16.37	-83.5	-79.0	2.4	0.00e+00	0	48	104	0	60	1048569
2026-01-17 17:32:38.23	157.34	16.52	-83.1	-79.0	2.3	0.00e+00	0	48	104	0	60	1048573
2026-01-17 17:32:39.24	157.34	16.67	-83.1	-79.0	2.3	0.00e+00	0	48	104	0	60	1048575
2026-01-17 17:32:40.25	157.34	16.83	-83.5	-79.0	2.4	0.00e+00	0	48	104	0	60	1048573
2026-01-17 17:32:41.24	157.34	16.98	-83.5	-79.0	2.1	0.00e+00	0	48	104	0	60	1048573
2026-01-17 17:32:42.25	157.34	17.13	-82.8	-79.0	2.5	0.00e+00	0	48	104	0	60	1048575
2026-01-17 17:32:43.26	157.34	17.29	-83.1	-79.0	2.3	0.00e+00	0	48	104	0	60	1048569
2026-01-17 17:32:44.27	157.34	17.44	-83.5	-79.0	2.3	0.00e+00	0	48	104	0	60	1048571
2026-01-17 17:32:45.28	157.34	17.60	-83.1	-79.0	2.3	0.00e+00	0	48	104	0	60	1048574
2026-01-17 17:32:46.28	157.34	17.76	-83.5	-79.0	2.4	0.00e+00	0	48	104	0	60	1048575
2026-01-17 17:32:47.29	157.34	17.92	-83.1	-79.0	2.4	0.00e+00	0	48	104	0	60	1048575
2026-01-17 17:32:48.29	157.34	18.08	-83.5	-79.0	2.3	0.00e+00	0	48	104	0	60	1048572
2026-01-17 17:32:49.30	157.34	18.24	-83.5	-79.0	2.3	0.00e+00	0	48	104	0	60	1048571
2026-01-17 17:32:50.31	157.34	18.41	-83.5	-79.0	2.4	0.00e+00	0	48	104	0	60	1048572
2026-01-17 17:32:51.31	157.34	18.57	-83.1	-79.0	2.3	0.00e+00	0	48	104	0	60	1048574
2026-01-17 17:32:52.32	157.34	18.74	-83.1	-79.0	2.4	0.00e+00	0	48	104	0	60	1048571
2026-01-17 17:32:53.32	157.33	18.91	-83.5	-79.0	2.2	0.00e+00	0	48	104	0	60	1048575
2026-01-17 17:32:54.32	157.33	19.08	-83.5	-79.0	2.4	0.00e+00	0	48	104	0	60	1048569
2026-01-17 17:32:55.33	157.33	19.25	-83.5	-79.0	2.3	0.00e+00	0	48	104	0	60	1048572
2026-01-17 17:32:56.34	157.33	19.42	-82.8	-79.0	2.4	0.00e+00	0	48	104	0	60	1048574
2026-01-17 17:32:57.34	157.33	19.59	-83.1	-79.0	2.3	0.00e+00	0	48	104	0	60	1048568
2026-01-17 17:32:58.35	157.33	19.77	-83.5	-79.0	2.5	0.00e+00	0	48	104	0	60	1048575
2026-01-17 17:32:59.35	157.33	19.95	-83.5	-79.0	2.2	0.00e+00	0	48	104	0	60	1048572
2026-01-17 17:33:00.36	157.33	20.13	-83.5	-79.0	2.4	0.00e+00	0	48	104	0	60	1048565
2026-01-17 17:33:01.37	157.33	20.31	-83.1	-79.0	2.3	0.00e+00	0	48	104	0	60	1048574
2026-01-17 17:33:02.37	157.33	20.49	-83.1	-79.0	2.3	0.00e+00	0	48	104	0	60	1048575
2026-01-17 17:33:03.38	157.32	20.67	-83.1	-79.0	2.2	0.00e+00	0	48	104	0	60	1048575
2026-01-17 17:33:04.38	157.32	20.86	-83.5	-79.0	2.4	0.00e+00	0	48	104	0	60	1048575
2026-01-17 17:33:05.39	157.32	21.05	-83.1	-79.0	2.2	0.00e+00	0	48	104	0	60	1048573
2026-01-17 17:33:06.40	157.32	21.24	-83.1	-79.0	2.4	0.00e+00	0	48	104	0	60	1048574
2026-01-17 17:33:07.40	157.32	21.43	-83.5	-79.0	2.3	0.00e+00	0	48	104	0	60	1048573
2026-01-17 17:33:08.41	157.32	21.62	-83.5	-79.0	2.4	0.00e+00	0	48	104	0	60	1048569
2026-01-17 17:33:09.41	157.31	21.81	-83.5	-79.0	2.4	0.00e+00	0	48	104	0	60	1048575
2026-01-17 17:33:10.41	157.31	22.01	-83.1	-79.0	2.4	0.00e+00	0	48	104	0	60	1048573
2026-01-17 17:33:11.42	157.31	22.21	-83.1	-79.0	2.3	0.00e+00	0	48	104	0	60	1048575
2026-01-17 17:33:12.41	157.31	22.40	-83.5	-79.0	2.4	0.00e+00	0	48	104	0	60	1048573
2026-01-17 17:33:13.42	157.31	22.61	-83.5	-79.0	2.4	0.00e+00	0	48	104	0	60	1048572
2026-01-17 17:33:14.42	157.30	22.81	-83.5	-79.0	2.4	0.00e+00	0	48	104	0	60	1048570
2026-01-17 17:33:15.43	157.30	23.02	-82.8	-79.0	2.4	0.00e+00	0	48	104	0	60	1048574
2026-01-17 17:33:16.43	157.30	23.22	-83.1	-79.0	2.3	0.00e+00	0	48	104	0	60	1048574
2026-01-17 17:33:17.44	157.30	23.43	-83.5	-79.0	2.5	0.00e+00	0	48	104	0	60	1048575
2026-01-17 17:33:18.45	157.30	23.65	-83.5	-79.0	2.2	0.00e+00	0	48	104	0	60	1048568
2026-01-17 17:33:19.46	157.29	23.86	-83.5	-79.0	2.2	0.00e+00	0	48	104	0	60	1048575
2026-01-17 17:33:20.46	157.29	24.08	-82.8	-79.0	2.4	0.00e+00	0	48	104	0	60	1048572
2026-01-17 17:33:21.47	157.29	24.30	-83.5	-79.0	2.3	0.00e+00	0	48	104	0	60	1048574
2026-01-17 17:33:22.48	157.28	24.52	-83.5	-79.0	2.4	0.00e+00	0	48	104	0	60	1048572
2026-01-17 17:33:23.48	157.28	24.74	-83.5	-79.0	2.4	0.00e+00	0	48	104	0	60	1048572
2026-01-17 17:33:24.49	157.28	24.97	-83.1	-79.0	2.5	0.00e+00	0	48	104	0	60	1048574
2026-01-17 17:33:25.50	157.27	25.20	-83.1	-79.0	2.4	0.00e+00	0	48	104	0	60	1048574
2026-01-17 17:33:26.50	157.27	25.43	-83.1	-79.0	2.4	0.00e+00	0	48	104	0	60	1048573
2026-01-17 17:33:27.51	157.27	25.66	-83.5	-79.0	2.4	0.00e+00	0	48	104	0	60	1048575
2026-01-17 17:33:28.51	157.26	25.89	-83.5	-79.0	2.4	0.00e+00	0	48	104	0	60	1048573
2026-01-17 17:33:29.52	157.26	26.13	-82.8	-79.0	2.5	0.00e+00	0	48	104	0	60	1048572
2026-01-17 17:33:30.52	157.26	26.37	-82.8	-79.0	2.1	0.00e+00	0	48	104	0	60	1048569
2026-01-17 17:33:31.53	157.25	26.62	-83.5	-79.0	2.4	0.00e+00	0	48	104	0	60	1048575
2026-01-17 17:33:32.53	157.25	26.86	-83.5	-79.0	2.3	0.00e+00	0	48	104	0	60	1048573
2026-01-17 17:33:33.54	157.24	27.11	-83.5	-79.0	2.4	0.00e+00	0	48	104	0	60	1048575
2026-01-17 17:33:34.55	157.24	27.36	-83.1	-79.0	2.2	0.00e+00	0	48	104	0	60	1048572
2026-01-17 17:33:35.56	157.24	27.62	-83.1	-79.0	2.3	0.00e+00	0	48	104	0	60	1048575
2026-01-17 17:33:36.57	157.23	27.88	-83.5	-79.0	2.3	0.00e+00	0	48	104	0	60	1048575
2026-01-17 17:33:37.57	157.23	28.13	-83.5	-79.0	2.4	0.00e+00	0	48	104	0	60	1048575
2026-01-17 17:33:38.58	157.22	28.40	-83.1	-79.0	2.4	0.00e+00	0	48	104	0	60	1048574
2026-01-17 17:33:39.59	157.22	28.66	-82.8	-79.0	2.4	0.00e+00	0	48	104	0	60	1048574
2026-01-17 17:33:40.58	157.21	28.93	-83.5	-79.0	2.0	0.00e+00	0	48	104	0	60	1048574
2026-01-17 17:33:41.59	157.21	29.20	-83.5	-79.0	2.5	0.00e+00	0	48	104	0	60	1048575
2026-01-17 17:33:42.59	157.20	29.48	-83.5	-79.0	2.1	0.00e+00	0	48	104	0	60	1048569
2026-01-17 17:33:43.59	157.19	29.75	-83.1	-79.0	2.4	0.00e+00	0	48	104	0	60	1048571
2026-01-17 17:33:44.60	157.19	30.03	-83.1	-79.0	2.3	0.00e+00	0	48	104	0	60	1048573
2026-01-17 17:33:45.60	157.18	30.32	-83.5	-79.0	2.4	0.00e+00	0	48	104	0	60	1048571
2026-01-17 17:33:46.61	157.18	30.61	-83.5	-79.0	2.3	0.00e+00	0	48	104	0	60	1048564
2026-01-17 17:33:47.61	157.17	30.90	-83.5	-79.0	2.5	0.00e+00	0	48	104	0	60	1048574
2026-01-17 17:33:48.61	157.16	31.19	-83.1	-79.0	2.5	0.00e+00	0	48	104	0	60	1048575
2026-01-17 17:33:49.62	157.16	31.49	-83.1	-79.0	2.4	0.00e+00	0	48	104	0	60	1048573
2026-01-17 17:33:50.63	157.15	31.79	-83.1	-79.0	2.4	0.00e+00	0	48	104	0	60	1048571
2026-01-17 17:33:51.64	157.14	32.10	-83.5	-79.0	2.5	0.00e+00	0	48	104	0	60	1048575
2026-01-17 17:33:52.65	157.13	32.41	-83.5	-79.0	2.3	0.00e+00	0	48	104	0	60	1048570
2026-01-17 17:33:53.65	157.13	32.72	-83.1	-79.0	2.4	0.00e+00	0	48	104	0	60	1048574
2026-01-17 17:33:54.66	157.12	33.04	-83.1	-79.0	2.4	0.00e+00	0	48	104	0	60	1048575
2026-01-17 17:33:55.67	157.11	33.36	-83.1	-79.0	2.4	0.00e+00	0	48	104	0	60	1048570
2026-01-17 17:33:56.68	157.10	33.69	-83.5	-79.0	2.3	0.00e+00	0	48	104	0	60	1048574
2026-01-17 17:33:57.68	157.09	34.02	-83.5	-79.0	2.4	0.00e+00	0	48	104	0	60	1048568
2026-01-17 17:33:58.69	157.08	34.35	-82.8	-79.0	2.3	0.00e+00	0	48	104	0	60	1048573
2026-01-17 17:33:59.69	157.07	34.68	-83.5	-79.0	2.4	0.00e+00	0	48	104	0	60	1048575
2026-01-17 17:34:00.70	157.06	35.03	-83.5	-79.0	2.4	0.00e+00	0	48	104	0	60	1048575
2026-01-17 17:34:01.70	157.05	35.37	-83.5	-79.0	2.3	0.00e+00	0	48	104	0	60	1048575
2026-01-17 17:34:02.71	157.04	35.72	-83.1	-79.0	2.5	0.00e+00	0	48	104	0	60	1048571
2026-01-17 17:34:03.71	157.03	36.08	-83.1	-79.0	2.5	0.00e+00	0	48	104	0	60	1048569
2026-01-17 17:34:04.72	157.02	36.44	-83.5	-79.0	2.3	0.00e+00	0	48	104	0	60	1048574
2026-01-17 17:34:05.73	157.01	36.80	-83.5	-79.0	2.3	0.00e+00	0	48	104	0	60	1048564
2026-01-17 17:34:06.73	157.00	37.17	-83.5	-79.0	2.4	0.00e+00	0	48	104	0	60	1048566
2026-01-17 17:34:07.74	156.99	37.54	-83.1	-79.0	2.2	0.00e+00	0	48	104	0	60	1048575
2026-01-17 17:34:08.75	156.98	37.92	-83.1	-79.0	2.4	0.00e+00	0	48	104	0	60	1048575
2026-01-17 17:34:09.76	156.96	38.31	-83.5	-79.0	2.4	0.00e+00	0	48	104	0	60	1048575
2026-01-17 17:34:10.76	156.95	38.69	-83.5	-79.0	2.2	0.00e+00	0	48	104	0	60	1048566
2026-01-17 17:34:11.77	156.94	39.09	-83.5	-79.0	2.4	0.00e+00	0	48	104	0	60	1048574
2026-01-17 17:34:12.78	156.92	39.49	-83.1	-79.0	2.3	0.00e+00	0	48	104	0	60	1048575
2026-01-17 17:34:13.79	156.91	39.89	-83.5	-79.0	2.4	0.00e+00	0	48	104	0	60	1048575
2026-01-17 17:34:14.79	156.89	40.30	-83.5	-79.0	2.4	0.00e+00	0	48	104	0	60	1048573
2026-01-17 17:34:15.80	156.88	40.72	-83.5	-79.0	2.4	0.00e+00	0	48	104	0	60	1048575
2026-01-17 17:34:16.81	156.86	41.14	-83.5	-79.0	2.4	0.00e+00	0	48	104	0	60	1048574
2026-01-17 17:34:17.81	156.84	41.56	-83.1	-79.0	2.4	0.00e+00	0	48	104	0	60	1048573
2026-01-17 17:34:18.82	156.83	41.99	-83.5	-79.0	2.4	0.00e+00	0	49	104	0	60	1048571
2026-01-17 17:34:19.82	156.81	42.43	-83.5	-79.0	2.1	0.00e+00	0	49	104	0	60	1048572
2026-01-17 17:34:20.82	156.79	42.87	-83.5	-79.0	2.4	0.00e+00	0	48	104	0	60	1048569
2026-01-17 17:34:21.83	156.77	43.32	-83.1	-79.0	2.1	0.00e+00	0	48	104	0	60	1048575
2026-01-17 17:34:22.84	156.75	43.77	-83.1	-79.0	2.4	0.00e+00	0	48	104	0	60	1048574
2026-01-17 17:34:23.85	156.73	44.24	-83.5	-79.0	2.3	0.00e+00	0	49	104	0	60	1048565
2026-01-17 17:34:24.86	156.71	44.70	-83.5	-79.0	2.5	0.00e+00	0	49	104	0	60	1048575
2026-01-17 17:34:25.86	156.69	45.18	-83.1	-79.0	2.5	0.00e+00	0	49	104	0	60	1048574
2026-01-17 17:34:26.86	156.67	45.65	-83.1	-79.0	2.3	0.00e+00	0	49	104	0	60	1048574
2026-01-17 17:34:27.87	156.64	46.14	-83.1	-79.0	2.4	0.00e+00	0	49	104	0	60	1048574
2026-01-17 17:34:28.87	156.62	46.63	-83.5	-79.0	2.4	0.00e+00	0	49	104	0	60	1048575
2026-01-17 17:34:29.88	156.59	47.13	-83.5	-79.0	2.2	0.00e+00	0	48	104	0	60	1048574
2026-01-17 17:34:30.88	156.57	47.63	-83.5	-79.0	2.4	0.00e+00	0	48	104	0	60	1048571
2026-01-17 17:34:31.89	156.54	48.15	-83.1	-79.0	2.1	0.00e+00	0	49	104	0	60	1048573
2026-01-17 17:34:32.89	156.51	48.66	-83.1	-79.0	2.4	0.00e+00	0	49	104	0	60	1048569
2026-01-17 17:34:33.89	156.48	49.18	-83.5	-79.0	2.2	0.00e+00	0	48	104	0	60	1048575
2026-01-17 17:34:34.89	156.45	49.71	-83.5	-79.0	2.4	0.00e+00	0	48	104	0	60	1048575
2026-01-17 17:34:35.90	156.42	50.26	-83.5	-79.0	2.3	0.00e+00	0	48	104	0	60	1048573
2026-01-17 17:34:36.91	156.38	50.80	-83.1	-79.0	2.5	0.00e+00	0	48	104	0	60	1048574
2026-01-17 17:34:37.92	156.35	51.36	-83.5	-79.0	2.3	0.00e+00	0	48	104	0	60	1048575
2026-01-17 17:34:38.93	156.31	51.92	-83.5	-79.0	2.3	0.00e+00	0	48	104	0	60	1048574
2026-01-17 17:34:39.93	156.28	52.49	-83.5	-79.0	2.4	0.00e+00	0	48	104	0	60	1048573
2026-01-17 17:34:40.94	156.24	53.07	-83.1	-79.0	2.4	0.00e+00	0	48	104	0	60	1048572
2026-01-17 17:34:41.95	156.19	53.65	-83.1	-79.0	2.3	0.00e+00	0	48	104	0	60	1048574
2026-01-17 17:34:42.96	156.15	54.25	-83.1	-79.0	2.4	0.00e+00	0	49	104	0	60	1048574
2026-01-17 17:34:43.97	156.11	54.85	-83.5	-79.0	2.4	0.00e+00	0	49	104	0	60	1048574
2026-01-17 17:34:44.97	156.06	55.45	-83.5	-79.0	2.4	0.00e+00	0	49	104	0	60	1048571
2026-01-17 17:34:45.98	156.01	56.06	-83.1	-79.0	2.4	0.00e+00	0	49	104	0	60	1048573
2026-01-17 17:34:46.99	155.96	56.69	-83.5	-79.0	2.4	0.00e+00	0	48	104	0	60	1048575
2026-01-17 17:34:48.00	155.90	57.32	-83.1	-79.0	2.4	0.00e+00	0	48	104	0	60	1048573
2026-01-17 17:34:49.00	155.84	57.95	-83.1	-79.0	2.3	0.00e+00	0	48	104	0	60	1048570
2026-01-17 17:34:50.01	155.78	58.59	-83.5	-79.0	2.3	0.00e+00	0	49	104	0	60	1048574
2026-01-17 17:34:51.02	155.72	59.25	-83.1	-79.0	2.3	0.00e+00	0	49	104	0	60	1048573
2026-01-17 17:34:52.03	155.65	59.91	-83.5	-79.0	2.3	0.00e+00	0	48	104	0	60	1048571
2026-01-17 17:34:53.03	155.58	60.57	-83.5	-79.0	2.4	0.00e+00	0	49	104	0	60	1048571
2026-01-17 17:34:54.04	155.50	61.25	-83.5	-79.0	2.5	0.00e+00	0	48	104	0	60	1048575
2026-01-17 17:34:55.04	155.42	61.92	-83.5	-79.0	2.6	0.00e+00	0	49	104	0	60	1048575
2026-01-17 17:34:56.05	155.34	62.62	-82.8	-79.0	2.3	0.00e+00	0	48	104	0	60	1048567
2026-01-17 17:34:57.06	155.25	63.31	-83.5	-79.0	2.1	0.00e+00	0	48	104	0	60	1048568
2026-01-17 17:34:58.07	155.15	64.02	-83.5	-79.0	2.3	0.00e+00	0	49	104	0	60	1048574
2026-01-17 17:34:59.07	155.05	64.73	-83.5	-79.0	2.3	0.00e+00	0	49	104	0	60	1048574
2026-01-17 17:35:00.08	154.94	65.45	-83.1	-79.0	2.3	0.00e+00	0	49	104	0	60	1048574
2026-01-17 17:35:01.09	154.82	66.17	-83.5	-79.0	2.4	0.00e+00	0	48	104	0	60	1048568
2026-01-17 17:35:02.10	154.70	66.91	-83.5	-79.0	2.3	0.00e+00	0	49	104	0	60	1048574
2026-01-17 17:35:03.10	154.56	67.64	-83.5	-79.0	2.4	0.00e+00	0	49	104	0	60	1048574
2026-01-17 17:35:04.11	154.42	68.39	-83.5	-79.0	2.3	0.00e+00	0	49	104	0	60	1048575
2026-01-17 17:35:05.11	154.26	69.14	-83.1	-79.0	2.5	0.00e+00	0	49	104	0	60	1048570
2026-01-17 17:35:06.12	154.09	69.90	-83.1	-79.0	2.5	0.00e+00	0	49	104	0	60	1048570
2026-01-17 17:35:07.13	153.90	70.67	-83.5	-79.0	2.4	0.00e+00	0	48	104	0	60	1048568
2026-01-17 17:35:08.14	153.70	71.44	-83.5	-79.0	2.4	0.00e+00	0	48	104	0	60	1048571
2026-01-17 17:35:09.14	153.48	72.22	-83.1	-79.0	2.0	0.00e+00	0	48	104	0	60	1048574
2026-01-17 17:35:10.15	153.24	73.00	-83.1	-79.0	2.3	0.00e+00	0	49	104	0	60	1048575
2026-01-17 17:35:11.14	152.97	73.78	-83.5	-79.0	2.1	0.00e+00	0	49	104	0	60	1048574
2026-01-17 17:35:12.15	152.68	74.57	-83.1	-79.0	2.3	0.00e+00	0	48	104	0	60	1048575
2026-01-17 17:35:13.16	152.34	75.38	-83.5	-79.0	2.5	0.00e+00	0	48	104	0	60	1048556
2026-01-17 17:35:14.17	151.97	76.18	-83.1	-79.0	2.4	0.00e+00	0	48	104	0	60	1048575
2026-01-17 17:35:15.18	151.55	76.99	-83.5	-79.0	2.4	0.00e+00	0	49	104	0	60	1048575
2026-01-17 17:35:16.18	151.07	77.80	-83.5	-79.0	2.4	0.00e+00	0	48	104	0	60	1048575
2026-01-17 17:35:17.19	150.52	78.61	-83.5	-79.0	2.4	0.00e+00	0	49	104	0	60	1048569
2026-01-17 17:35:18.20	149.88	79.43	-83.1	-79.0	2.4	0.00e+00	0	49	104	0	60	1048575
2026-01-17 17:35:19.21	149.13	80.26	-82.8	-79.0	2.1	0.00e+00	0	48	104	0	60	1048575
2026-01-17 17:35:20.21	148.25	81.07	-83.1	-79.0	2.4	0.00e+00	0	48	104	0	60	1048570
2026-01-17 17:35:21.22	147.17	81.90	-83.5	-79.0	1.9	0.00e+00	0	48	104	0	60	1048575
2026-01-17 17:35:22.23	145.85	82.72	-83.5	-79.0	2.5	0.00e+00	0	49	104	0	60	1048571
2026-01-17 17:35:23.23	144.20	83.54	-83.5	-79.0	2.3	0.00e+00	0	48	104	0	60	1048566
2026-01-17 17:35:24.24	142.05	84.35	-83.1	-79.0	2.4	0.00e+00	0	49	104	0	60	1048567
2026-01-17 17:35:25.25	139.17	85.16	-83.5	-79.0	2.3	0.00e+00	0	49	104	0	60	1048573
2026-01-17 17:35:26.25	135.19	85.95	-83.5	-79.0	2.4	0.00e+00	0	49	104	0	60	1048574
2026-01-17 17:35:27.26	129.26	86.72	-83.5	-79.0	2.4	0.00e+00	0	49	104	0	60	1048575
2026-01-17 17:35:28.27	119.88	87.43	-83.5	-79.0	2.4	0.00e+00	0	48	104	0	60	1048570
2026-01-17 17:35:29.28	104.20	88.02	-83.1	-79.0	2.4	0.00e+00	0	49	104	0	60	1048572
2026-01-17 17:35:30.28	79.34	88.36	-83.1	-79.0	2.4	0.00e+00	0	49	104	0	60	1048575
2026-01-17 17:35:31.29	49.72	88.30	-83.5	-79.0	2.1	0.00e+00	0	49	104	0	60	1048567
2026-01-17 17:35:32.29	27.64	87.87	-83.5	-79.0	2.5	0.00e+00	0	49	104	0	60	1048574
2026-01-17 17:35:33.30	14.16	87.23	-83.1	-79.0	2.4	0.00e+00	0	49	104	0	60	1048575
2026-01-17 17:35:34.31	6.00	86.50	-83.5	-79.0	2.4	0.00e+00	0	49	104	0	60	1048573
2026-01-17 17:35:35.31	0.77	85.73	-83.5	-79.0	2.2	0.00e+00	0	48	104	0	60	1048574
2026-01-17 17:35:36.33	357.10	84.93	-83.5	-79.0	2.3	0.00e+00	0	48	104	0	60	1048574
2026-01-17 17:35:37.33	354.49	84.12	-83.5	-79.0	2.3	0.00e+00	0	49	104	0	60	1048574
2026-01-17 17:35:38.34	352.50	83.30	-83.1	-79.0	2.4	0.00e+00	0	49	104	0	60	1048571
2026-01-17 17:35:39.35	350.95	82.48	-83.5	-79.0	2.4	0.00e+00	0	48	104	0	60	1048575
2026-01-17 17:35:40.36	349.71	81.66	-83.5	-79.0	2.5	0.00e+00	0	48	104	0	60	1048575
2026-01-17 17:35:41.36	348.70	80.84	-83.5	-79.0	2.4	0.00e+00	0	49	104	0	60	1048574
2026-01-17 17:35:42.37	347.86	80.02	-83.1	-79.0	2.4	0.00e+00	0	49	104	0	60	1048575
2026-01-17 17:35:43.38	347.14	79.20	-83.1	-79.0	2.1	0.00e+00	0	49	104	0	60	1048575
2026-01-17 17:35:44.39	346.53	78.38	-83.5	-79.0	2.4	0.00e+00	0	49	104	0	60	1048571
2026-01-17 17:35:45.39	346.01	77.57	-83.5	-79.0	2.2	0.00e+00	0	49	104	0	60	1048569
2026-01-17 17:35:46.40	345.55	76.76	-83.5	-79.0	2.4	0.00e+00	0	49	104	0	60	1048573
2026-01-17 17:35:47.41	345.14	75.95	-83.1	-79.0	2.4	0.00e+00	0	49	104	0	60	1048573
2026-01-17 17:35:48.41	344.78	75.15	-83.1	-79.0	2.4	0.00e+00	0	49	104	0	60	1048574
2026-01-17 17:35:49.42	344.46	74.35	-83.5	-79.0	2.4	0.00e+00	0	49	104	0	60	1048574
2026-01-17 17:35:50.42	344.18	73.57	-83.5	-79.0	2.5	0.00e+00	0	49	104	0	60	1048571
2026-01-17 17:35:51.43	343.91	72.78	-83.5	-79.0	2.4	0.00e+00	0	49	104	0	60	1048575
2026-01-17 17:35:52.44	343.68	72.00	-83.1	-79.0	2.4	0.00e+00	0	49	104	0	60	1048575
2026-01-17 17:35:53.44	343.46	71.23	-83.5	-79.0	2.4	0.00e+00	0	49	104	0	60	1048573
2026-01-17 17:35:54.45	343.27	70.46	-83.5	-79.0	2.4	0.00e+00	0	49	104	0	60	1048573
2026-01-17 17:35:55.46	343.09	69.69	-83.5	-79.0	2.4	0.00e+00	0	49	104	0	60	1048574
2026-01-17 17:35:56.46	342.92	68.94	-83.5	-79.0	2.3	0.00e+00	0	49	104	0	60	1048575
2026-01-17 17:35:57.47	342.77	68.19	-83.1	-79.0	2.3	0.00e+00	0	49	104	0	60	1048573
2026-01-17 17:35:58.47	342.63	67.45	-83.5	-79.0	2.4	0.00e+00	0	49	104	0	60	1048571
2026-01-17 17:35:59.48	342.49	66.71	-83.5	-79.0	2.1	0.00e+00	0	49	104	0	60	1048574
2026-01-17 17:36:00.49	342.37	65.98	-83.5	-79.0	2.4	0.00e+00	0	49	104	0	60	1048572
2026-01-17 17:36:01.49	342.26	65.26	-83.1	-79.0	2.3	0.00e+00	0	49	104	0	60	1048575
2026-01-17 17:36:02.49	342.15	64.55	-82.8	-79.0	2.4	0.00e+00	0	49	104	0	60	1048572
2026-01-17 17:36:03.50	342.05	63.85	-83.5	-79.0	2.4	0.00e+00	0	49	104	0	60	1048573
2026-01-17 17:36:04.51	341.95	63.14	-83.5	-79.0	2.4	0.00e+00	0	49	104	0	60	1048573
2026-01-17 17:36:05.51	341.87	62.45	-83.5	-79.0	2.3	0.00e+00	0	49	104	0	60	1048571
2026-01-17 17:36:06.52	341.78	61.77	-83.1	-79.0	2.4	0.00e+00	0	49	104	0	60	1048567
2026-01-17 17:36:07.53	341.70	61.09	-83.1	-79.0	2.4	0.00e+00	0	49	104	0	60	1048573
2026-01-17 17:36:08.54	341.63	60.41	-83.5	-79.0	2.3	0.00e+00	0	49	104	0	60	1048570
2026-01-17 17:36:09.55	341.56	59.75	-83.5	-79.0	2.4	0.00e+00	0	49	104	0	60	1048575
2026-01-17 17:36:10.55	341.49	59.10	-83.5	-79.0	2.2	0.00e+00	0	49	104	0	60	1048572
2026-01-17 17:36:11.56	341.43	58.45	-83.1	-79.0	2.2	0.00e+00	0	49	104	0	60	1048575
2026-01-17 17:36:12.57	341.37	57.81	-83.5	-79.0	2.3	0.00e+00	0	49	104	0	60	1048575
2026-01-17 17:36:13.58	341.31	57.17	-83.5	-79.0	2.3	0.00e+00	0	49	104	0	60	1048573
2026-01-17 17:36:14.58	341.26	56.55	-83.5	-79.0	2.4	0.00e+00	0	49	104	0	60	1048575
2026-01-17 17:36:15.59	341.21	55.93	-83.5	-79.0	2.4	0.00e+00	0	49	104	0	60	1048570
2026-01-17 17:36:16.60	341.16	55.32	-83.1	-79.0	2.3	0.00e+00	0	49	104	0	60	1048574
2026-01-17 17:36:17.61	341.11	54.72	-83.1	-79.0	2.5	0.00e+00	0	49	104	0	60	1048573
2026-01-17 17:36:18.61	341.07	54.13	-83.5	-79.0	2.3	0.00e+00	0	49	104	0	60	1048573
2026-01-17 17:36:19.62	341.02	53.54	-83.5	-79.0	2.3	0.00e+00	0	49	104	0	60	1048571
2026-01-17 17:36:20.63	340.98	52.95	-83.1	-79.0	2.2	0.00e+00	0	49	104	0	60	1048575
2026-01-17 17:36:21.64	340.94	52.38	-82.8	-79.0	2.4	0.00e+00	0	49	104	0	60	1048573
2026-01-17 17:36:22.65	340.91	51.81	-83.5	-79.0	1.9	0.00e+00	0	49	104	0	60	1048567
2026-01-17 17:36:23.66	340.87	51.25	-83.5	-79.0	2.3	0.00e+00	0	49	104	0	60	1048572
2026-01-17 17:36:24.66	340.84	50.71	-83.5	-79.0	2.3	0.00e+00	0	49	104	0	60	1048562
2026-01-17 17:36:25.67	340.80	50.16	-83.1	-79.0	2.4	0.00e+00	0	49	104	0	60	1048574
2026-01-17 17:36:26.67	340.77	49.63	-83.1	-79.0	2.4	0.00e+00	0	49	104	0	60	1048574
2026-01-17 17:36:27.68	340.74	49.10	-83.5	-79.0	2.4	0.00e+00	0	49	104	0	60	1048572
2026-01-17 17:36:28.68	340.71	48.58	-83.5	-79.0	2.4	0.00e+00	0	49	104	0	60	1048566
2026-01-17 17:36:29.69	340.68	48.06	-83.5	-79.0	2.4	0.00e+00	0	49	104	0	60	1048573
2026-01-17 17:36:30.70	340.66	47.55	-82.8	-79.0	2.4	0.00e+00	0	49	104	0	60	1048572
2026-01-17 17:36:31.71	340.63	47.04	-83.5	-79.0	2.4	0.00e+00	0	49	104	0	60	1048575
2026-01-17 17:36:32.71	340.61	46.55	-83.5	-79.0	2.1	0.00e+00	0	49	104	0	60	1048575
2026-01-17 17:36:33.72	340.58	46.06	-83.5	-79.0	2.4	0.00e+00	0	49	104	0	60	1048573
2026-01-17 17:36:34.73	340.56	45.58	-83.5	-79.0	2.2	0.00e+00	0	49	104	0	60	1048575
2026-01-17 17:36:35.73	340.54	45.10	-83.1	-79.0	2.4	0.00e+00	0	49	104	0	60	1048571
2026-01-17 17:36:36.74	340.51	44.63	-83.5	-79.0	2.3	0.00e+00	0	49	104	0	60	1048570
2026-01-17 17:36:37.74	340.49	44.17	-83.5	-79.0	2.4	0.00e+00	0	49	104	0	60	1048573
2026-01-17 17:36:38.75	340.47	43.71	-83.5	-79.0	2.4	0.00e+00	0	49	104	0	60	1048568
2026-01-17 17:36:39.75	340.45	43.26	-83.1	-79.0	2.4	0.00e+00	0	49	104	0	60	1048575
2026-01-17 17:36:40.76	340.44	42.81	-83.5	-79.0	2.3	0.00e+00	0	49	104	0	60	1048574
2026-01-17 17:36:41.77	340.42	42.37	-83.5	-79.0	2.4	0.00e+00	0	49	104	0	60	1048572
2026-01-17 17:36:42.78	340.40	41.94	-83.5	-79.0	2.0	0.00e+00	0	49	104	0	60	1048570
2026-01-17 17:36:43.78	340.38	41.51	-83.5	-79.0	2.4	0.00e+00	0	49	104	0	60	1048571
2026-01-17 17:36:44.79	340.37	41.09	-83.1	-79.0	2.1	0.00e+00	0	49	104	0	60	1048570
2026-01-17 17:36:45.80	340.35	40.67	-83.1	-79.0	2.3	0.00e+00	0	49	104	0	60	1048575
2026-01-17 17:36:46.81	340.34	40.26	-83.5	-79.0	2.3	0.00e+00	0	49	104	0	60	1048574
2026-01-17 17:36:47.81	340.32	39.85	-83.5	-79.0	2.4	0.00e+00	0	49	104	0	60	1048575
2026-01-17 17:36:48.82	340.31	39.45	-83.5	-79.0	2.3	0.00e+00	0	49	104	0	60	1048575
2026-01-17 17:36:49.83	340.29	39.05	-82.8	-79.0	2.4	0.00e+00	0	49	104	0	60	1048568
2026-01-17 17:36:50.84	340.28	38.66	-83.5	-79.0	2.2	0.00e+00	0	49	104	0	60	1048572
2026-01-17 17:36:51.85	340.27	38.27	-83.5	-79.0	2.5	0.00e+00	0	49	104	0	60	1048569
2026-01-17 17:36:52.85	340.25	37.89	-83.5	-79.0	2.3	0.00e+00	0	49	104	0	60	1048575
2026-01-17 17:36:53.86	340.24	37.52	-83.1	-79.0	2.4	0.00e+00	0	49	104	0	60	1048572
2026-01-17 17:36:54.87	340.23	37.14	-83.1	-79.0	2.1	0.00e+00	0	49	104	0	60	1048575
2026-01-17 17:36:55.87	340.22	36.78	-83.5	-79.0	2.4	0.00e+00	0	49	104	0	60	1048572
2026-01-17 17:36:56.88	340.21	36.42	-83.5	-79.0	2.3	0.00e+00	0	49	104	0	60	1048574
2026-01-17 17:36:57.89	340.20	36.06	-83.1	-79.0	2.4	0.00e+00	0	49	104	0	60	1048574
2026-01-17 17:36:58.89	340.19	35.71	-82.8	-79.0	2.3	0.00e+00	0	49	104	0	60	1048574
2026-01-17 17:36:59.90	340.18	35.36	-83.1	-79.0	2.4	0.00e+00	0	49	104	0	60	1048555
2026-01-17 17:37:00.90	340.17	35.02	-83.5	-79.0	2.5	0.00e+00	0	49	104	0	60	1048574
2026-01-17 17:37:01.90	340.16	34.68	-83.5	-79.0	2.5	0.00e+00	0	49	104	0	60	1048567
2026-01-17 17:37:02.91	340.15	34.34	-83.5	-79.0	2.3	0.00e+00	0	49	104	0	60	1048568
2026-01-17 17:37:03.92	340.14	34.01	-83.1	-79.0	2.4	0.00e+00	0	49	104	0	60	1048575
2026-01-17 17:37:04.93	340.13	33.68	-83.1	-79.0	2.4	0.00e+00	0	49	104	0	60	1048574
2026-01-17 17:37:05.93	340.12	33.36	-83.5	-79.0	2.4	0.00e+00	0	49	104	0	60	1048574
2026-01-17 17:37:06.94	340.12	33.04	-83.5	-79.0	2.3	0.00e+00	0	49	104	0	60	1048575
2026-01-17 17:37:07.95	340.11	32.73	-83.5	-79.0	2.4	0.00e+00	0	49	104	0	60	1048574
2026-01-17 17:37:08.95	340.10	32.42	-82.8	-79.0	2.7	0.00e+00	0	49	104	0	60	1048575
2026-01-17 17:37:09.95	340.09	32.11	-83.5	-79.0	2.2	0.00e+00	0	49	104	0	60	1048575
2026-01-17 17:37:10.96	340.09	31.81	-83.5	-79.0	2.3	0.00e+00	0	49	104	0	60	1048573
2026-01-17 17:37:11.97	340.08	31.51	-83.5	-79.0	2.4	0.00e+00	0	49	104	0	60	1048571
2026-01-17 17:37:12.97	340.07	31.21	-83.1	-79.0	2.3	0.00e+00	0	49	104	0	60	1048575
2026-01-17 17:37:13.98	340.07	30.92	-83.1	-79.0	2.4	0.00e+00	0	49	104	0	60	1048574
2026-01-17 17:37:14.99	340.06	30.63	-83.5	-79.0	2.3	0.00e+00	0	49	104	0	60	1048575
2026-01-17 17:37:16.00	340.05	30.34	-83.5	-79.0	2.5	0.00e+00	0	49	104	0	60	1048575
2026-01-17 17:37:17.00	340.05	30.06	-83.5	-79.0	2.5	0.00e+00	0	49	104	0	60	1048575
2026-01-17 17:37:18.00	340.04	29.78	-83.1	-79.0	2.4	0.00e+00	0	49	104	0	60	1048575
2026-01-17 17:37:19.01	340.04	29.50	-83.1	-79.0	2.5	0.00e+00	0	49	104	0	60	1048571
2026-01-17 17:37:20.01	340.03	29.23	-83.5	-79.0	2.3	0.00e+00	0	49	104	0	60	1048569
2026-01-17 17:37:21.02	340.03	28.96	-83.5	-79.0	2.4	0.00e+00	0	49	104	0	60	1048575
2026-01-17 17:37:22.03	340.02	28.69	-83.5	-79.0	2.4	0.00e+00	0	49	104	0	60	1048571
2026-01-17 17:37:23.03	340.02	28.43	-83.1	-79.0	2.4	0.00e+00	0	49	104	0	60	1048560
2026-01-17 17:37:24.03	340.01	28.17	-83.5	-79.0	2.4	0.00e+00	0	49	104	0	60	1048575
2026-01-17 17:37:25.04	340.01	27.91	-83.5	-79.0	2.4	0.00e+00	0	49	104	0	60	1048575
2026-01-17 17:37:26.05	340.00	27.65	-83.5	-79.0	2.4	0.00e+00	0	49	104	0	60	1048575
2026-01-17 17:37:27.06	340.00	27.40	-83.5	-79.0	2.3	0.00e+00	0	49	104	0	60	1048575
2026-01-17 17:37:28.07	340.00	27.15	-83.1	-79.0	2.4	0.00e+00	0	49	104	0	60	1048574
2026-01-17 17:37:29.07	339.99	26.90	-83.5	-79.0	2.4	0.00e+00	0	49	104	0	60	1048575
2026-01-17 17:37:30.08	339.99	26.66	-83.5	-79.0	2.5	0.00e+00	0	49	104	0	60	1048569
2026-01-17 17:37:31.09	339.98	26.41	-83.5	-79.0	2.5	0.00e+00	0	49	104	0	60	1048573
2026-01-17 17:37:32.10	339.98	26.17	-83.1	-79.0	2.1	0.00e+00	0	49	104	0	60	1048575
2026-01-17 17:37:33.11	339.98	25.94	-83.1	-79.0	2.4	0.00e+00	0	49	104	0	60	1048565
2026-01-17 17:37:34.11	339.97	25.70	-83.5	-79.0	2.2	0.00e+00	0	49	104	0	60	1048573
2026-01-17 17:37:35.12	339.97	25.47	-83.5	-79.0	2.4	0.00e+00	0	49	104	0	60	1048574
2026-01-17 17:37:36.13	339.97	25.24	-83.5	-79.0	2.2	0.00e+00	0	49	104	0	60	1048568
2026-01-17 17:37:37.13	339.97	25.02	-83.1	-79.0	2.4	0.00e+00	0	49	104	0	60	1048575
2026-01-17 17:37:38.14	339.96	24.79	-83.1	-79.0	2.2	0.00e+00	0	49	104	0	60	1048573
2026-01-17 17:37:39.15	339.96	24.57	-83.1	-79.0	2.4	0.00e+00	0	49	104	0	60	1048572
2026-01-17 17:37:40.15	339.96	24.35	-83.5	-79.0	2.3	0.00e+00	0	49	104	0	60	1048572
2026-01-17 17:37:41.15	339.95	24.13	-83.5	-79.0	2.5	0.00e+00	0	49	104	0	60	1048574
2026-01-17 17:37:42.16	339.95	23.92	-82.8	-79.0	2.3	0.00e+00	0	49	104	0	60	1048575
2026-01-17 17:37:43.17	339.95	23.70	-83.5	-79.0	2.5	0.00e+00	0	49	104	0	60	1048575
2026-01-17 17:37:44.18	339.95	23.49	-83.5	-79.0	2.2	0.00e+00	0	49	104	0	60	1048575
2026-01-17 17:37:45.19	339.95	23.28	-83.5	-79.0	2.3	0.00e+00	0	49	104	0	60	1048574
2026-01-17 17:37:46.20	339.94	23.07	-83.1	-79.0	2.1	0.00e+00	0	49	104	0	60	1048569
2026-01-17 17:37:47.21	339.94	22.87	-82.8	-79.0	2.4	0.00e+00	0	49	104	0	60	1048573
2026-01-17 17:37:48.22	339.94	22.66	-83.5	-79.0	2.2	0.00e+00	0	49	104	0	60	1048574
2026-01-17 17:37:49.22	339.94	22.46	-83.5	-79.0	2.4	0.00e+00	0	49	104	0	60	1048569
2026-01-17 17:37:50.23	339.94	22.26	-83.5	-79.0	2.3	0.00e+00	0	49	104	0	60	1048574
2026-01-17 17:37:51.24	339.93	22.06	-83.1	-79.0	2.4	0.00e+00	0	49	104	0	60	1048570
2026-01-17 17:37:52.25	339.93	21.87	-83.1	-79.0	2.3	0.00e+00	0	49	104	0	60	1048568
2026-01-17 17:37:53.25	339.93	21.68	-83.5	-79.0	2.4	0.00e+00	0	49	104	0	60	1048575
2026-01-17 17:37:54.26	339.93	21.48	-83.5	-79.0	2.0	0.00e+00	0	49	104	0	60	1048571
2026-01-17 17:37:55.27	339.93	21.29	-83.5	-79.0	2.3	0.00e+00	0	49	104	0	60	1048575
2026-01-17 17:37:56.27	339.93	21.11	-82.8	-79.0	2.2	0.00e+00	0	49	104	0	60	1048573
2026-01-17 17:37:57.28	339.93	20.92	-83.1	-79.0	2.4	0.00e+00	0	49	104	0	60	1048575
2026-01-17 17:37:58.29	339.93	20.73	-83.5	-79.0	2.1	0.00e+00	0	49	104	0	60	1048572
2026-01-17 17:37:59.29	339.92	20.55	-83.5	-79.0	2.3	0.00e+00	0	49	104	0	60	1048569
2026-01-17 17:38:00.29	339.92	20.37	-83.5	-79.0	2.3	0.00e+00	0	49	104	0	60	1048572
2026-01-17 17:38:01.30	339.92	20.19	-83.1	-79.0	2.4	0.00e+00	0	49	104	0	60	1048575
2026-01-17 17:38:02.31	339.92	20.01	-83.5	-79.0	2.3	0.00e+00	0	49	104	0	60	1048575
2026-01-17 17:38:03.32	339.92	19.84	-83.5	-79.0	2.5	0.00e+00	0	49	104	0	60	1048575
2026-01-17 17:38:04.33	339.92	19.66	-83.5	-79.0	2.4	0.00e+00	0	49	104	0	60	1048575
2026-01-17 17:38:05.34	339.92	19.49	-83.1	-79.0	2.4	0.00e+00	0	49	104	0	60	1048575
2026-01-17 17:38:06.34	339.92	19.31	-82.8	-79.0	2.4	0.00e+00	0	49	104	0	60	1048575
2026-01-17 17:38:07.35	339.92	19.14	-83.5	-79.0	2.4	0.00e+00	0	49	104	0	60	1048572
2026-01-17 17:38:08.35	339.92	18.98	-83.1	-79.0	2.5	0.00e+00	0	49	104	0	60	1048572
2026-01-17 17:38:09.36	339.92	18.81	-83.5	-79.0	2.4	0.00e+00	0	49	104	0	60	1048573
2026-01-17 17:38:10.37	339.92	18.64	-83.1	-79.0	2.2	0.00e+00	0	49	104	0	60	1048575
2026-01-17 17:38:11.37	339.92	18.48	-83.5	-79.0	2.4	0.00e+00	0	49	104	0	60	1048570
2026-01-17 17:38:12.38	339.92	18.31	-83.5	-79.0	2.3	0.00e+00	0	49	104	0	60	1048574
2026-01-17 17:38:13.39	339.92	18.15	-83.5	-79.0	2.4	0.00e+00	0	49	104	0	60	1048563
2026-01-17 17:38:14.40	339.92	17.99	-83.1	-79.0	2.4	0.00e+00	0	48	104	0	60	1048573
2026-01-17 17:38:15.41	339.92	17.83	-82.8	-79.0	2.3	0.00e+00	0	49	104	0	60	1048574
2026-01-17 17:38:16.41	339.92	17.67	-83.5	-79.0	2.4	0.00e+00	0	49	104	0	60	1048575
2026-01-17 17:38:17.42	339.92	17.52	-83.5	-79.0	2.4	0.00e+00	0	49	104	0	60	1048575
2026-01-17 17:38:18.43	339.92	17.36	-83.5	-79.0	2.4	0.00e+00	0	49	104	0	60	1048572
2026-01-17 17:38:19.43	339.92	17.21	-83.5	-79.0	2.4	0.00e+00	0	49	104	0	60	1048573
2026-01-17 17:38:20.44	339.92	17.05	-82.8	-79.0	2.4	0.00e+00	0	49	104	0	60	1048573
2026-01-17 17:38:21.45	339.92	16.90	-83.5	-79.0	2.0	0.00e+00	0	49	104	0	60	1048572
2026-01-17 17:38:22.46	339.92	16.75	-83.5	-79.0	2.4	0.00e+00	0	49	104	0	60	1048573
2026-01-17 17:38:23.46	339.92	16.60	-83.5	-79.0	2.4	0.00e+00	0	49	104	0	60	1048575
2026-01-17 17:38:24.47	339.92	16.45	-83.1	-79.0	2.1	0.00e+00	0	49	104	0	60	1048574
2026-01-17 17:38:25.48	339.92	16.30	-83.1	-79.0	2.5	0.00e+00	0	49	104	0	60	1048575
2026-01-17 17:38:26.48	339.92	16.16	-83.5	-79.0	2.4	0.00e+00	0	49	104	0	60	1048570
2026-01-17 17:38:27.49	339.92	16.01	-83.5	-79.0	2.4	0.00e+00	0	49	104	0	60	1048575
2026-01-17 17:38:28.49	339.92	15.87	-83.5	-79.0	2.4	0.00e+00	0	49	104	0	60	1048574
2026-01-17 17:38:29.50	339.92	15.73	-82.8	-79.0	2.4	0.00e+00	0	49	104	0	60	1048573
2026-01-17 17:38:30.51	339.92	15.59	-83.1	-79.0	2.4	0.00e+00	0	49	104	0	60	1048575
2026-01-17 17:38:31.51	339.92	15.45	-83.5	-79.0	2.5	0.00e+00	0	49	104	0	60	1048571
2026-01-17 17:38:32.52	339.92	15.31	-83.5	-79.0	2.5	0.00e+00	0	49	104	0	60	1048573
2026-01-17 17:38:33.53	339.92	15.17	-83.5	-79.0	2.1	0.00e+00	0	49	104	0	60	1048575
2026-01-17 17:38:34.54	339.93	15.03	-82.8	-79.0	2.4	0.00e+00	0	49	104	0	60	1048574
2026-01-17 17:38:35.55	339.93	14.89	-83.5	-79.0	2.1	0.00e+00	0	49	104	0	60	1048566
2026-01-17 17:38:36.55	339.93	14.76	-83.5	-79.0	2.4	0.00e+00	0	49	104	0	60	1048571
2026-01-17 17:38:37.56	339.93	14.62	-83.5	-79.0	2.4	0.00e+00	0	49	104	0	60	1048573
2026-01-17 17:38:38.57	339.93	14.49	-83.5	-79.0	2.4	0.00e+00	0	49	104	0	60	1048570
2026-01-17 17:38:39.57	339.93	14.36	-83.5	-79.0	2.5	0.00e+00	0	49	104	0	60	1048570
2026-01-17 17:38:40.58	339.93	14.23	-83.5	-79.0	2.4	0.00e+00	0	49	104	0	60	1048572
2026-01-17 17:38:41.59	339.93	14.09	-83.5	-79.0	2.5	0.00e+00	0	49	104	0	60	1048567
2026-01-17 17:38:42.60	339.93	13.96	-83.5	-79.0	2.4	0.00e+00	0	49	104	0	60	1048575
2026-01-17 17:38:43.61	339.93	13.83	-82.8	-79.0	2.0	0.00e+00	0	49	104	0	60	1048575
2026-01-17 17:38:44.61	339.93	13.71	-82.8	-79.0	2.4	0.00e+00	0	49	104	0	60	1048574
2026-01-17 17:38:45.62	339.94	13.58	-83.5	-79.0	2.1	0.00e+00	0	49	104	0	60	1048571
2026-01-17 17:38:46.63	339.94	13.45	-83.5	-79.0	2.4	0.00e+00	0	49	104	0	60	1048575
2026-01-17 17:38:47.63	339.94	13.33	-83.5	-79.0	2.2	0.00e+00	0	49	104	0	60	1048574
2026-01-17 17:38:48.64	339.94	13.20	-82.8	-79.0	2.4	0.00e+00	0	48	104	0	60	1048567
2026-01-17 17:38:49.64	339.94	13.08	-83.5	-79.0	2.3	0.00e+00	0	49	104	0	60	1048571
2026-01-17 17:38:50.65	339.94	12.96	-83.5	-79.0	2.3	0.00e+00	0	49	104	0	60	1048572
2026-01-17 17:38:51.66	339.94	12.83	-83.5	-79.0	2.4	0.00e+00	0	49	104	0	60	1048575
2026-01-17 17:38:52.67	339.95	12.71	-83.1	-79.0	2.5	0.00e+00	0	49	104	0	60	1048571
2026-01-17 17:38:53.67	339.95	12.59	-82.8	-79.0	2.3	0.00e+00	0	49	104	0	60	1048574
2026-01-17 17:38:54.68	339.95	12.47	-83.5	-79.0	2.3	0.00e+00	0	49	104	0	60	1048575
2026-01-17 17:38:55.68	339.95	12.35	-83.5	-79.0	2.1	0.00e+00	0	49	104	0	60	1048575
2026-01-17 17:38:56.69	339.95	12.24	-83.5	-79.0	2.4	0.00e+00	0	49	104	0	60	1048569
2026-01-17 17:38:57.69	339.95	12.12	-83.1	-79.0	2.0	0.00e+00	0	49	104	0	60	1048574
2026-01-17 17:38:58.70	339.95	12.00	-83.1	-79.0	2.4	0.00e+00	0	49	104	0	60	1048575
2026-01-17 17:38:59.71	339.96	11.88	-83.5	-79.0	2.3	0.00e+00	0	49	104	0	60	1048573
2026-01-17 17:39:00.71	339.96	11.77	-83.5	-79.0	2.4	0.00e+00	0	49	104	0	60	1048575
2026-01-17 17:39:01.71	339.96	11.66	-83.5	-79.0	2.3	0.00e+00	0	49	104	0	60	1048575
2026-01-17 17:39:02.72	339.96	11.54	-83.1	-79.0	2.4	0.00e+00	0	49	104	0	60	1048574
2026-01-17 17:39:03.72	339.96	11.43	-83.1	-79.0	2.3	0.00e+00	0	49	104	0	60	1048574
2026-01-17 17:39:04.73	339.96	11.32	-83.5	-79.0	2.4	0.00e+00	0	49	104	0	60	1048568
2026-01-17 17:39:05.73	339.97	11.21	-83.5	-79.0	2.3	0.00e+00	0	49	104	0	60	1048575
2026-01-17 17:39:06.74	339.97	11.09	-83.1	-79.0	2.4	0.00e+00	0	49	104	0	60	1048574
2026-01-17 17:39:07.75	339.97	10.98	-83.1	-79.0	2.3	0.00e+00	0	49	104	0	60	1048575
2026-01-17 17:39:08.75	339.97	10.87	-83.1	-79.0	2.4	0.00e+00	0	49	104	0	60	1048575
2026-01-17 17:39:09.75	339.97	10.76	-83.5	-79.0	2.4	0.00e+00	0	49	104	0	60	1048570
2026-01-17 17:39:10.76	339.97	10.66	-83.5	-79.0	2.4	0.00e+00	0	49	104	0	60	1048573
2026-01-17 17:39:11.77	339.98	10.55	-83.5	-79.0	2.1	0.00e+00	0	49	104	0	60	1048575
2026-01-17 17:39:12.77	339.98	10.44	-82.8	-79.0	2.4	0.00e+00	0	49	104	0	60	1048574
2026-01-17 17:39:13.78	339.98	10.33	-83.1	-79.0	2.3	0.00e+00	0	49	104	0	60	1048572
2026-01-17 17:39:14.78	339.98	10.23	-83.5	-79.0	2.4	0.00e+00	0	49	104	0	60	1048568
2026-01-17 17:39:15.79	339.98	10.12	-83.5	-79.0	2.4	0.00e+00	0	49	104	0	60	1048575
2026-01-17 17:39:16.79	339.99	10.02	-83.1	-79.0	2.4	0.00e+00	0	49	104	0	60	1048574
2026-01-17 17:39:17.79	339.99	9.91	-83.1	-79.0	2.5	0.00e+00	0	49	104	0	60	1048572
2026-01-17 17:39:18.80	339.99	9.81	-83.5	-79.0	2.3	0.00e+00	0	49	104	0	60	1048574
2026-01-17 17:39:19.80	339.99	9.71	-83.5	-79.0	2.3	0.00e+00	0	49	104	0	60	1048575
2026-01-17 17:39:20.80	339.99	9.61	-83.5	-79.0	2.4	0.00e+00	0	49	104	0	60	1048575
2026-01-17 17:39:21.81	340.00	9.50	-82.8	-79.0	2.3	0.00e+00	0	49	104	0	60	1048571
2026-01-17 17:39:22.81	340.00	9.40	-83.5	-79.0	2.2	0.00e+00	0	49	104	0	60	1048574
2026-01-17 17:39:23.82	340.00	9.30	-83.5	-79.0	2.4	0.00e+00	0	49	104	0	60	1048571
2026-01-17 17:39:24.83	340.00	9.20	-83.5	-79.0	1.9	0.00e+00	0	49	104	0	60	1048575
2026-01-17 17:39:25.83	340.00	9.10	-83.5	-79.0	2.4	0.00e+00	0	49	104	0	60	1048575
2026-01-17 17:39:26.84	340.01	9.00	-83.1	-79.0	2.1	0.00e+00	0	49	104	0	60	1048575
2026-01-17 17:39:27.85	340.01	8.90	-83.5	-79.0	2.3	0.00e+00	0	49	104	0	60	1048574
2026-01-17 17:39:28.85	340.01	8.80	-83.5	-79.0	2.2	0.00e+00	0	49	104	0	60	1048570
2026-01-17 17:39:29.86	340.01	8.71	-83.5	-79.0	2.5	0.00e+00	0	49	104	0	60	1048564
2026-01-17 17:39:30.86	340.01	8.61	-83.1	-79.0	2.4	0.00e+00	0	49	104	0	60	1048563
2026-01-17 17:39:31.87	340.02	8.51	-83.1	-79.0	2.3	0.00e+00	0	49	104	0	60	1048564
2026-01-17 17:39:32.87	340.02	8.42	-83.5	-79.0	2.1	0.00e+00	0	49	104	0	60	1048574
2026-01-17 17:39:33.88	340.02	8.32	-83.5	-79.0	2.4	0.00e+00	0	49	104	0	60	1048570
2026-01-17 17:39:34.88	340.02	8.22	-83.5	-79.0	2.1	0.00e+00	0	49	104	0	60	1048574
2026-01-17 17:39:35.89	340.03	8.13	-83.1	-79.0	2.4	0.00e+00	0	49	104	0	60	1048575
2026-01-17 17:39:36.89	340.03	8.03	-83.1	-79.0	2.1	0.00e+00	0	49	104	0	60	1048573
2026-01-17 17:39:37.90	340.03	7.94	-83.5	-79.0	2.4	0.00e+00	0	49	104	0	60	1048573
2026-01-17 17:39:38.91	340.03	7.85	-83.5	-79.0	2.3	0.00e+00	0	49	104	0	60	1048575
2026-01-17 17:39:39.92	340.03	7.75	-83.5	-79.0	2.4	0.00e+00	0	49	104	0	60	1048574
2026-01-17 17:39:40.92	340.04	7.66	-82.8	-79.0	2.4	0.00e+00	0	49	104	0	60	1048568
2026-01-17 17:39:41.93	340.04	7.57	-83.1	-79.0	2.4	0.00e+00	0	49	104	0	60	1048561
2026-01-17 17:39:42.94	340.04	7.48	-83.5	-79.0	2.3	0.00e+00	0	49	104	0	60	1048569
2026-01-17 17:39:43.95	340.04	7.39	-83.5	-79.0	2.4	0.00e+00	0	49	104	0	60	1048575
2026-01-17 17:39:44.96	340.05	7.29	-83.5	-79.0	2.1	0.00e+00	0	49	104	0	60	1048566
2026-01-17 17:39:45.97	340.05	7.20	-83.1	-79.0	2.4	0.00e+00	0	49	104	0	60	1048573
2026-01-17 17:39:46.97	340.05	7.11	-83.5	-79.0	2.1	0.00e+00	0	49	104	0	60	1048574
2026-01-17 17:39:47.98	340.05	7.02	-83.1	-79.0	2.4	0.00e+00	0	49	104	0	60	1048575
2026-01-17 17:39:48.98	340.06	6.94	-83.5	-79.0	2.2	0.00e+00	0	49	104	0	60	1048574
2026-01-17 17:39:49.99	340.06	6.85	-83.1	-79.0	2.4	0.00e+00	0	49	104	0	60	1048570
2026-01-17 17:39:51.00	340.06	6.76	-83.1	-79.0	2.2	0.00e+00	0	49	104	0	60	1048574
2026-01-17 17:39:52.00	340.06	6.67	-83.5	-79.0	2.4	0.00e+00	0	49	104	0	60	1048571
2026-01-17 17:39:53.01	340.07	6.58	-83.5	-79.0	2.3	0.00e+00	0	49	104	0	60	1048573
2026-01-17 17:39:54.01	340.07	6.50	-83.5	-79.0	2.5	0.00e+00	0	49	104	0	60	1048574
2026-01-17 17:39:55.02	340.07	6.41	-83.1	-79.0	2.4	0.00e+00	0	49	104	0	60	1048574
2026-01-17 17:39:56.03	340.07	6.32	-83.5	-79.0	2.4	0.00e+00	0	49	104	0	60	1048567
2026-01-17 17:39:57.03	340.08	6.24	-83.5	-79.0	2.4	0.00e+00	0	49	104	0	60	1048575
2026-01-17 17:39:58.04	340.08	6.15	-83.5	-79.0	2.4	0.00e+00	0	49	104	0	60	1048574
2026-01-17 17:39:59.05	340.08	6.06	-83.5	-79.0	2.4	0.00e+00	0	49	104	0	60	1048575
2026-01-17 17:40:00.06	340.08	5.98	-82.8	-79.0	2.1	0.00e+00	0	49	104	0	60	1048573
2026-01-17 17:40:01.06	340.09	5.90	-83.5	-79.0	2.3	0.00e+00	0	49	104	0	60	1048575
2026-01-17 17:40:02.07	340.09	5.81	-83.5	-79.0	2.4	0.00e+00	0	49	104	0	60	1048574
2026-01-17 17:40:03.08	340.09	5.73	-83.5	-79.0	2.2	0.00e+00	0	49	104	0	60	1048573
2026-01-17 17:40:04.08	340.10	5.64	-83.1	-79.0	2.4	0.00e+00	0	49	104	0	60	1048574
2026-01-17 17:40:05.09	340.10	5.56	-83.1	-79.0	2.3	0.00e+00	0	49	104	0	60	1048562
2026-01-17 17:40:06.10	340.10	5.48	-83.1	-79.0	2.4	0.00e+00	0	49	104	0	60	1048573
2026-01-17 17:40:07.11	340.10	5.39	-83.5	-79.0	2.4	0.00e+00	0	49	104	0	60	1048575
2026-01-17 17:40:08.11	340.11	5.31	-83.5	-79.0	2.4	0.00e+00	0	49	104	0	60	1048573
2026-01-17 17:40:09.11	340.11	5.23	-83.5	-79.0	2.4	0.00e+00	0	49	104	0	60	1048574
2026-01-17 17:40:10.12	340.11	5.15	-83.5	-79.0	2.4	0.00e+00	0	49	104	0	60	1048574
2026-01-17 17:40:11.12	340.11	5.07	-83.5	-79.0	2.4	0.00e+00	0	49	104	0	60	1048572
2026-01-17 17:40:12.13	340.12	4.99	-83.5	-79.0	2.1	0.00e+00	0	49	104	0	60	1048567
2026-01-17 17:40:13.14	340.12	4.91	-83.5	-79.0	2.4	0.00e+00	0	49	104	0	60	1048573
2026-01-17 17:40:14.15	340.12	4.83	-83.1	-79.0	2.3	0.00e+00	0	49	104	0	60	1048571
2026-01-17 17:40:15.16	340.13	4.75	-83.1	-79.0	2.4	0.00e+00	0	49	104	0	60	1048572
2026-01-17 17:40:16.16	340.13	4.67	-83.5	-79.0	2.4	0.00e+00	0	49	104	0	60	1048573
2026-01-17 17:40:17.17	340.13	4.59	-83.1	-79.0	2.4	0.00e+00	0	49	104	0	60	1048575
2026-01-17 17:40:18.18	340.13	4.51	-83.5	-79.0	2.3	0.00e+00	0	49	104	0	60	1048573
2026-01-17 17:40:19.19	340.14	4.43	-83.1	-79.0	2.4	0.00e+00	0	49	104	0	60	1048570
2026-01-17 17:40:20.20	340.14	4.35	-83.1	-79.0	2.5	0.00e+00	0	49	104	0	60	1048573
2026-01-17 17:40:21.21	340.14	4.27	-83.5	-79.0	2.4	0.00e+00	0	49	104	0	60	1048573
2026-01-17 17:40:22.21	340.15	4.20	-83.5	-79.0	2.4	0.00e+00	0	49	104	0	60	1048575
2026-01-17 17:40:23.22	340.15	4.12	-83.1	-79.0	2.4	0.00e+00	0	49	104	0	60	1048572
2026-01-17 17:40:24.22	340.15	4.04	-83.1	-79.0	2.2	0.00e+00	0	49	104	0	60	1048575
2026-01-17 17:40:25.23	340.15	3.97	-83.5	-79.0	2.5	0.00e+00	0	49	104	0	60	1048575
2026-01-17 17:40:26.23	340.16	3.89	-83.5	-79.0	2.2	0.00e+00	0	49	104	0	60	1048571
2026-01-17 17:40:27.24	340.16	3.81	-83.5	-79.0	2.4	0.00e+00	0	49	104	0	60	1048571
2026-01-17 17:40:28.24	340.16	3.74	-82.8	-79.0	2.2	0.00e+00	0	49	104	0	60	1048574
2026-01-17 17:40:29.25	340.17	3.66	-83.1	-79.0	2.3	0.00e+00	0	49	104	0	60	1048564
2026-01-17 17:40:30.26	340.17	3.59	-83.5	-79.0	2.5	0.00e+00	0	49	104	0	60	1048571
2026-01-17 17:40:31.27	340.17	3.51	-83.5	-79.0	2.3	0.00e+00	0	49	104	0	60	1048575
2026-01-17 17:40:32.28	340.17	3.43	-83.5	-79.0	2.5	0.00e+00	0	49	104	0	60	1048574
2026-01-17 17:40:33.28	340.18	3.36	-83.1	-79.0	2.4	0.00e+00	0	49	104	0	60	1048574
2026-01-17 17:40:34.28	340.18	3.29	-83.5	-79.0	2.2	0.00e+00	0	49	104	0	60	1048574
2026-01-17 17:40:35.29	340.18	3.21	-83.1	-79.0	2.5	0.00e+00	0	49	104	0	60	1048574
2026-01-17 17:40:36.30	340.19	3.14	-83.5	-79.0	2.1	0.00e+00	0	49	104	0	60	1048572
2026-01-17 17:40:37.30	340.19	3.07	-83.1	-79.0	2.4	0.00e+00	0	49	104	0	60	1048575
2026-01-17 17:40:38.31	340.19	2.99	-83.1	-79.0	2.2	0.00e+00	0	49	104	0	60	1048570
2026-01-17 17:40:39.32	340.20	2.92	-83.1	-79.0	2.5	0.00e+00	0	49	104	0	60	1048570
2026-01-17 17:40:40.33	340.20	2.85	-83.5	-79.0	2.3	0.00e+00	0	49	104	0	60	1048570
2026-01-17 17:40:41.33	340.20	2.77	-83.5	-79.0	2.4	0.00e+00	0	49	104	0	60	1048569
2026-01-17 17:40:42.34	340.21	2.70	-83.1	-79.0	2.4	0.00e+00	0	49	104	0	60	1048575
2026-01-17 17:40:43.35	340.21	2.63	-83.1	-79.0	2.4	0.00e+00	0	49	104	0	60	1048572
2026-01-17 17:40:44.36	340.21	2.56	-83.5	-79.0	2.5	0.00e+00	0	49	104	0	60	1048570
2026-01-17 17:40:45.37	340.21	2.48	-83.5	-79.0	2.4	0.00e+00	0	49	104	0	60	1048573
2026-01-17 17:40:46.38	340.22	2.41	-83.5	-79.0	2.0	0.00e+00	0	49	104	0	60	1048574
2026-01-17 17:40:47.38	340.22	2.34	-83.1	-79.0	2.4	0.00e+00	0	49	104	0	60	1048574
2026-01-17 17:40:48.39	340.22	2.27	-83.1	-79.0	2.2	0.00e+00	0	49	104	0	60	1048569
2026-01-17 17:40:49.40	340.23	2.20	-83.5	-79.0	2.4	0.00e+00	0	49	104	0	60	1048571
2026-01-17 17:40:50.41	340.23	2.13	-83.5	-79.0	2.4	0.00e+00	0	49	104	0	60	1048574
2026-01-17 17:40:51.42	340.23	2.06	-83.5	-79.0	2.3	0.00e+00	0	49	104	0	60	1048573
2026-01-17 17:40:52.42	340.24	1.99	-83.1	-79.0	2.3	0.00e+00	0	49	104	0	60	1048574
2026-01-17 17:40:53.43	340.24	1.92	-83.5	-79.0	2.4	0.00e+00	0	49	104	0	60	1048569
2026-01-17 17:40:54.44	340.24	1.85	-83.5	-79.0	2.4	0.00e+00	0	49	104	0	60	1048575
2026-01-17 17:40:55.45	340.25	1.78	-83.5	-79.0	2.4	0.00e+00	0	49	104	0	60	1048571
2026-01-17 17:40:56.45	340.25	1.71	-83.1	-79.0	2.3	0.00e+00	0	49	104	0	60	1048569
2026-01-17 17:40:57.46	340.25	1.64	-83.1	-79.0	2.4	0.00e+00	0	49	104	0	60	1048574
2026-01-17 17:40:58.46	340.26	1.57	-83.5	-79.0	2.2	0.00e+00	0	49	104	0	60	1048574
2026-01-17 17:40:59.47	340.26	1.51	-83.5	-79.0	2.3	0.00e+00	0	49	104	0	60	1048575
2026-01-17 17:41:00.47	340.26	1.44	-83.5	-79.0	2.1	0.00e+00	0	49	104	0	60	1048572
2026-01-17 17:41:01.48	340.26	1.37	-82.8	-79.0	2.4	0.00e+00	0	49	104	0	60	1048575
2026-01-17 17:41:02.49	340.27	1.30	-83.1	-79.0	2.3	0.00e+00	0	49	104	0	60	1048572
2026-01-17 17:41:03.49	340.27	1.23	-83.5	-79.0	2.3	0.00e+00	0	49	104	0	60	1048575
2026-01-17 17:41:04.49	340.27	1.17	-83.1	-79.0	2.2	0.00e+00	0	49	104	0	60	1048573
2026-01-17 17:41:05.50	340.28	1.10	-83.5	-79.0	2.4	0.00e+00	0	49	104	0	60	1048572
2026-01-17 17:41:06.51	340.28	1.03	-83.1	-79.0	2.3	0.00e+00	0	49	104	0	60	1048573
2026-01-17 17:41:07.52	340.28	0.97	-83.5	-79.0	2.4	0.00e+00	0	49	104	0	60	1048574
2026-01-17 17:41:08.52	340.29	0.90	-83.5	-79.0	2.4	0.00e+00	0	49	104	0	60	1048575
2026-01-17 17:41:09.53	340.29	0.83	-83.5	-79.0	2.4	0.00e+00	0	49	104	0	60	1048575
2026-01-17 17:41:10.54	340.29	0.77	-83.5	-79.0	2.5	0.00e+00	0	49	104	0	60	1048574
2026-01-17 17:41:11.55	340.30	0.70	-82.8	-79.0	2.4	0.00e+00	0	49	104	0	60	1048575
2026-01-17 17:41:12.56	340.30	0.63	-83.5	-79.0	2.4	0.00e+00	0	49	104	0	60	1048573
2026-01-17 17:41:13.56	340.30	0.57	-83.5	-79.0	2.4	0.00e+00	0	49	104	0	60	1048575
2026-01-17 17:41:14.57	340.31	0.50	-83.5	-79.0	2.5	0.00e+00	0	49	104	0	60	1048571
2026-01-17 17:41:15.58	340.31	0.44	-83.1	-79.0	2.4	0.00e+00	0	49	104	0	60	1048575
2026-01-17 17:41:16.59	340.31	0.37	-82.8	-79.0	2.5	0.00e+00	0	49	104	0	60	1048572
2026-01-17 17:41:17.59	340.32	0.31	-83.1	-79.0	2.4	0.00e+00	0	49	104	0	60	1048574
2026-01-17 17:41:18.60	340.32	0.24	-83.5	-79.0	2.5	0.00e+00	0	49	104	0	60	1048566
2026-01-17 17:41:19.61	340.32	0.18	-83.5	-79.0	2.5	0.00e+00	0	49	104	0	60	1048575
2026-01-17 17:41:20.61	340.33	0.11	-83.1	-79.0	2.4	0.00e+00	0	49	104	0	60	1048575
2026-01-17 17:41:21.62	340.33	0.05	-83.1	-79.0	2.4	0.00e+00	0	49	104	0	60	1048568
2026-01-17 17:41:22.63	340.33	-0.01	-83.5	-79.0	2.4	0.00e+00	0	49	104	0	60	1048574
2026-01-17 17:41:23.64	340.34	-0.08	-83.5	-79.0	2.0	0.00e+00	0	49	104	0	60	1048574
2026-01-17 17:41:24.65	340.34	-0.14	-83.5	-79.0	2.4	0.00e+00	0	49	104	0	60	1048575

#Closed at: 2026-01-17 17:41:24
#Recorded file [0 MB]: D:/Data/35015_260117_202944.dat