passes_logs/2026/01/17/R3.2S-Naryan-Mar/R3.2S-Naryan-Mar__20260117_063009_FENGYUN_3D_rec.log

#Pass ID: 20260117_063009_FENGYUN 3D
#Satellite: FENGYUN 3D
#Configuration: FENGYUN 3D
#almurnet v.1.7.20240730
#Start time: 2026-01-17 06:30:10

#Version: 2.2.20231116
#Station: R3.2S-Naryan-Mar
#Location: 53.008057 lon 67.646978 lat
#TLE: 1 43010U 17072A   26016.27214855  .00000192  00000+0  11235-3 0  9990
#TLE: 2 43010  98.9932 348.1078 0002365 105.5031 254.6406 14.19695933423435

#Time	Az	El	Level	Level2	SNR	BER	BlckErr	Temp	State	Recorded	gain1	gain2
2026-01-17 06:30:10.49	71.82	0.04	-84.3	-90.0	5.8	0.00e+00	0	43	0	0	60	1048573
2026-01-17 06:30:11.49	71.76	0.10	-85.2	-88.6	6.3	2.79e-01	0	44	0	0	60	1048573
2026-01-17 06:30:12.49	71.70	0.15	-84.7	-88.6	6.0	2.80e-01	0	44	0	0	60	1048568
2026-01-17 06:30:13.49	71.65	0.20	-84.7	-88.6	6.0	2.75e-01	0	45	0	0	60	1048571
2026-01-17 06:30:14.50	71.58	0.26	-84.7	-88.6	5.8	2.78e-01	0	45	0	0	60	1048574
2026-01-17 06:30:15.50	71.52	0.31	-85.2	-88.6	6.0	2.76e-01	0	45	0	0	60	1048575
2026-01-17 06:30:16.51	71.46	0.36	-84.7	-88.6	6.0	2.78e-01	0	45	0	0	60	1048574
2026-01-17 06:30:17.51	71.40	0.42	-85.2	-88.6	6.4	2.79e-01	0	45	0	0	60	1048575
2026-01-17 06:30:18.52	71.34	0.47	-84.7	-88.6	6.1	2.72e-01	0	45	0	0	60	1048574
2026-01-17 06:30:19.52	71.28	0.53	-84.7	-88.6	5.7	2.76e-01	0	45	0	0	60	1048575
2026-01-17 06:30:20.53	71.22	0.58	-84.7	-88.6	6.3	2.77e-01	0	45	0	0	60	1048575
2026-01-17 06:30:21.54	71.16	0.63	-84.7	-88.6	6.0	2.81e-01	0	45	0	0	60	1048572
2026-01-17 06:30:22.55	71.10	0.69	-84.7	-88.6	5.6	2.75e-01	0	45	0	0	60	1048574
2026-01-17 06:30:23.55	71.03	0.74	-84.7	-88.6	5.8	2.80e-01	0	45	0	0	60	1048574
2026-01-17 06:30:24.56	70.97	0.80	-85.2	-88.6	6.2	2.77e-01	0	45	0	0	60	1048571
2026-01-17 06:30:25.56	70.91	0.85	-84.7	-88.6	5.9	2.75e-01	0	45	0	0	60	1048572
2026-01-17 06:30:26.57	70.84	0.91	-85.2	-88.6	6.1	2.73e-01	0	45	0	0	60	1048575
2026-01-17 06:30:27.57	70.78	0.96	-84.7	-88.6	6.4	2.76e-01	0	45	0	0	60	1048573
2026-01-17 06:30:28.58	70.72	1.02	-84.7	-88.6	6.0	2.76e-01	0	45	0	0	60	1048571
2026-01-17 06:30:29.58	70.65	1.07	-84.7	-88.6	5.9	2.79e-01	0	45	0	0	60	1048574
2026-01-17 06:30:30.59	70.59	1.13	-85.2	-88.6	6.2	2.79e-01	0	45	0	0	60	1048574
2026-01-17 06:30:31.60	70.53	1.18	-84.7	-88.6	6.1	2.78e-01	0	45	0	0	60	1048570
2026-01-17 06:30:32.60	70.46	1.24	-84.7	-88.6	6.2	2.75e-01	0	45	0	0	60	1048570
2026-01-17 06:30:33.61	70.40	1.29	-85.2	-88.6	6.1	2.73e-01	0	45	0	0	60	1048574
2026-01-17 06:30:34.62	70.33	1.35	-84.7	-88.6	6.0	2.82e-01	0	45	0	0	60	1048574
2026-01-17 06:30:35.62	70.27	1.40	-84.7	-88.6	6.0	2.79e-01	0	45	0	0	60	1048565
2026-01-17 06:30:36.63	70.20	1.46	-84.7	-88.6	6.2	2.81e-01	0	45	0	0	60	1048574
2026-01-17 06:30:37.63	70.14	1.51	-85.2	-88.6	6.4	2.80e-01	0	45	0	0	60	1048571
2026-01-17 06:30:38.64	70.07	1.57	-84.7	-88.6	6.4	2.79e-01	0	45	0	0	60	1048574
2026-01-17 06:30:39.65	70.00	1.62	-84.7	-88.6	6.0	2.78e-01	0	45	0	0	60	1048575
2026-01-17 06:30:40.66	69.94	1.68	-84.7	-88.6	6.0	2.83e-01	0	45	0	0	60	1048575
2026-01-17 06:30:41.66	69.87	1.73	-84.7	-88.6	5.9	2.82e-01	0	45	0	0	60	1048575
2026-01-17 06:30:42.67	69.80	1.79	-85.2	-88.6	6.1	2.79e-01	0	45	0	0	60	1048574
2026-01-17 06:30:43.68	69.74	1.84	-85.2	-88.6	6.1	2.72e-01	0	45	0	0	60	1048575
2026-01-17 06:30:44.69	69.67	1.90	-84.7	-88.6	6.1	2.78e-01	0	45	0	0	60	1048571
2026-01-17 06:30:45.69	69.60	1.96	-84.7	-88.6	5.7	2.81e-01	0	45	0	0	60	1048571
2026-01-17 06:30:46.69	69.53	2.01	-85.2	-88.6	6.1	2.80e-01	0	45	0	0	60	1048575
2026-01-17 06:30:47.70	69.46	2.07	-85.2	-88.6	6.3	2.79e-01	0	45	0	0	60	1048572
2026-01-17 06:30:48.70	69.40	2.12	-84.7	-88.6	5.9	2.80e-01	0	45	0	0	60	1048570
2026-01-17 06:30:49.71	69.33	2.18	-84.7	-88.6	6.0	2.75e-01	0	45	0	0	60	1048574
2026-01-17 06:30:50.71	69.26	2.24	-84.7	-88.6	6.2	2.78e-01	0	45	0	0	60	1048560
2026-01-17 06:30:51.72	69.19	2.29	-85.2	-88.6	6.3	2.80e-01	0	45	0	0	60	1048575
2026-01-17 06:30:52.73	69.12	2.35	-84.7	-88.6	5.8	2.81e-01	0	45	0	0	60	1048575
2026-01-17 06:30:53.73	69.05	2.41	-83.5	-88.6	5.7	2.79e-01	0	45	0	0	60	1048574
2026-01-17 06:30:54.74	68.98	2.46	-84.7	-88.6	6.2	2.79e-01	0	45	0	0	60	1048572
2026-01-17 06:30:55.75	68.91	2.52	-85.2	-88.6	6.5	2.82e-01	0	45	0	0	60	1048574
2026-01-17 06:30:56.76	68.84	2.58	-85.2	-88.6	6.0	2.83e-01	0	45	0	0	60	1048575
2026-01-17 06:30:57.77	68.76	2.63	-84.7	-88.6	5.7	2.76e-01	0	45	0	0	60	1048575
2026-01-17 06:30:58.77	68.69	2.69	-85.2	-88.6	6.4	2.79e-01	0	45	0	0	60	1048574
2026-01-17 06:30:59.78	68.62	2.75	-84.7	-88.6	5.7	2.82e-01	0	45	0	0	60	1048574
2026-01-17 06:31:00.79	68.55	2.80	-84.7	-88.6	6.3	2.77e-01	0	45	0	0	60	1048574
2026-01-17 06:31:01.79	68.48	2.86	-85.2	-88.6	5.8	2.79e-01	0	45	0	0	60	1048569
2026-01-17 06:31:02.80	68.40	2.92	-85.2	-88.6	6.1	2.82e-01	0	45	0	0	60	1048572
2026-01-17 06:31:03.80	68.33	2.97	-84.7	-88.6	6.0	2.78e-01	0	45	0	0	60	1048572
2026-01-17 06:31:04.81	68.26	3.03	-85.2	-88.6	5.9	2.83e-01	0	45	0	0	60	1048574
2026-01-17 06:31:05.82	68.18	3.09	-84.7	-88.6	6.3	2.79e-01	0	45	0	0	60	1048575
2026-01-17 06:31:06.82	68.11	3.15	-85.2	-88.6	6.1	2.82e-01	0	46	0	0	60	1048575
2026-01-17 06:31:07.83	68.04	3.20	-84.7	-88.6	5.9	2.82e-01	0	46	0	0	60	1048568
2026-01-17 06:31:08.84	67.96	3.26	-83.9	-88.6	6.0	2.76e-01	0	45	0	0	60	1048574
2026-01-17 06:31:09.85	67.89	3.32	-84.7	-88.6	5.8	2.84e-01	0	45	0	0	60	1048572
2026-01-17 06:31:10.85	67.81	3.38	-85.2	-88.6	6.4	2.77e-01	0	46	0	0	60	1048575
2026-01-17 06:31:11.86	67.74	3.43	-84.7	-88.6	6.3	2.76e-01	0	46	0	0	60	1048575
2026-01-17 06:31:12.87	67.66	3.49	-85.2	-88.6	5.8	2.78e-01	0	46	0	0	60	1048570
2026-01-17 06:31:13.87	67.59	3.55	-84.7	-88.6	5.8	2.82e-01	0	46	0	0	60	1048572
2026-01-17 06:31:14.87	67.51	3.61	-85.2	-88.6	6.0	2.79e-01	0	46	0	0	60	1048573
2026-01-17 06:31:15.88	67.43	3.67	-84.7	-88.6	6.3	2.76e-01	0	46	0	0	60	1048574
2026-01-17 06:31:16.89	67.36	3.72	-85.2	-88.6	6.1	2.84e-01	0	46	0	0	60	1048574
2026-01-17 06:31:17.89	67.28	3.78	-84.7	-88.6	5.6	2.77e-01	0	46	0	0	60	1048569
2026-01-17 06:31:18.89	67.20	3.84	-84.7	-88.6	5.5	2.81e-01	0	45	0	0	60	1048566
2026-01-17 06:31:19.90	67.12	3.90	-84.7	-88.6	6.2	2.79e-01	0	46	0	0	60	1048574
2026-01-17 06:31:20.91	67.04	3.96	-84.7	-88.6	5.8	2.79e-01	0	45	0	0	60	1048574
2026-01-17 06:31:21.91	66.97	4.02	-85.2	-88.6	5.9	2.74e-01	0	46	0	0	60	1048572
2026-01-17 06:31:22.92	66.89	4.07	-84.7	-88.6	6.3	2.78e-01	0	45	0	0	60	1048571
2026-01-17 06:31:23.93	66.81	4.13	-85.2	-88.6	6.0	2.75e-01	0	45	0	0	60	1048573
2026-01-17 06:31:24.94	66.73	4.19	-84.7	-88.6	5.6	2.79e-01	0	46	0	0	60	1048575
2026-01-17 06:31:25.95	66.65	4.25	-85.2	-88.6	6.1	2.80e-01	0	46	0	0	60	1048565
2026-01-17 06:31:26.95	66.57	4.31	-84.7	-88.6	6.2	2.75e-01	0	46	0	0	60	1048572
2026-01-17 06:31:27.96	66.49	4.37	-84.7	-88.6	5.8	2.74e-01	0	46	0	0	60	1048572
2026-01-17 06:31:28.97	66.41	4.43	-84.7	-88.6	6.5	2.77e-01	0	46	0	0	60	1048575
2026-01-17 06:31:29.98	66.32	4.49	-85.2	-88.6	5.7	2.77e-01	0	46	0	0	60	1048573
2026-01-17 06:31:30.98	66.24	4.55	-84.7	-88.6	6.1	2.74e-01	0	46	0	0	60	1048574
2026-01-17 06:31:31.99	66.16	4.61	-85.2	-88.6	6.2	2.77e-01	0	46	0	0	60	1048566
2026-01-17 06:31:33.00	66.08	4.66	-84.7	-88.6	6.1	2.79e-01	0	46	0	0	60	1048575
2026-01-17 06:31:34.00	66.00	4.72	-83.9	-88.6	5.8	2.79e-01	0	46	0	0	60	1048575
2026-01-17 06:31:35.01	65.91	4.78	-85.2	-88.6	5.5	2.77e-01	0	46	0	0	60	1048575
2026-01-17 06:31:36.01	65.83	4.84	-84.7	-88.6	5.9	2.79e-01	0	46	0	0	60	1048575
2026-01-17 06:31:37.02	65.75	4.90	-85.2	-88.6	6.2	2.84e-01	0	46	0	0	60	1048573
2026-01-17 06:31:38.03	65.66	4.96	-84.7	-88.6	6.3	2.74e-01	0	46	0	0	60	1048575
2026-01-17 06:31:39.03	65.58	5.02	-84.7	-88.6	6.4	2.75e-01	0	46	0	0	60	1048575
2026-01-17 06:31:40.04	65.49	5.08	-84.7	-88.6	6.1	2.77e-01	0	46	0	0	60	1048573
2026-01-17 06:31:41.05	65.41	5.14	-84.7	-88.6	5.7	2.78e-01	0	46	0	0	60	1048575
2026-01-17 06:31:42.06	65.32	5.20	-84.7	-88.6	6.0	2.77e-01	0	46	0	0	60	1048571
2026-01-17 06:31:43.07	65.24	5.26	-84.7	-88.6	6.1	2.82e-01	0	46	0	0	60	1048574
2026-01-17 06:31:44.08	65.15	5.32	-85.2	-88.6	5.7	2.76e-01	0	46	0	0	60	1048572
2026-01-17 06:31:45.08	65.06	5.38	-85.2	-88.6	5.8	2.79e-01	0	46	0	0	60	1048573
2026-01-17 06:31:46.09	64.98	5.44	-84.7	-88.6	6.0	2.81e-01	0	46	0	0	60	1048575
2026-01-17 06:31:47.10	64.89	5.50	-84.7	-88.6	6.1	2.76e-01	0	46	0	0	60	1048574
2026-01-17 06:31:48.11	64.80	5.56	-84.7	-88.6	5.8	2.76e-01	0	46	0	0	60	1048573
2026-01-17 06:31:49.11	64.71	5.62	-84.3	-88.6	6.0	2.78e-01	0	46	0	0	60	1048575
2026-01-17 06:31:50.12	64.62	5.69	-84.7	-88.6	6.2	2.79e-01	0	46	0	0	60	1048571
2026-01-17 06:31:51.12	64.54	5.75	-85.2	-88.6	6.1	2.80e-01	0	46	0	0	60	1048571
2026-01-17 06:31:52.12	64.45	5.81	-84.7	-88.6	5.7	2.82e-01	0	46	0	0	60	1048575
2026-01-17 06:31:53.13	64.36	5.87	-85.2	-88.6	5.8	2.78e-01	0	46	0	0	60	1048573
2026-01-17 06:31:54.13	64.27	5.93	-85.2	-88.6	6.4	2.81e-01	0	46	0	0	60	1048575
2026-01-17 06:31:55.13	64.18	5.99	-84.7	-88.6	6.2	2.76e-01	0	46	0	0	60	1048574
2026-01-17 06:31:56.14	64.09	6.05	-84.7	-88.6	5.9	2.77e-01	0	46	0	0	60	1048572
2026-01-17 06:31:57.15	64.00	6.11	-84.7	-88.6	5.8	2.80e-01	0	46	0	0	60	1048574
2026-01-17 06:31:58.15	63.90	6.17	-85.2	-88.6	6.1	2.80e-01	0	46	0	0	60	1048573
2026-01-17 06:31:59.15	63.81	6.23	-84.7	-88.6	6.0	2.78e-01	0	46	0	0	60	1048565
2026-01-17 06:32:00.16	63.72	6.29	-85.2	-88.6	5.9	2.79e-01	0	46	0	0	60	1048575
2026-01-17 06:32:01.17	63.63	6.36	-84.7	-88.6	5.9	2.77e-01	0	46	0	0	60	1048574
2026-01-17 06:32:02.18	63.53	6.42	-85.2	-88.6	6.3	2.78e-01	0	46	0	0	60	1048573
2026-01-17 06:32:03.19	63.44	6.48	-84.7	-88.6	6.2	2.81e-01	0	46	0	0	60	1048574
2026-01-17 06:32:04.19	63.35	6.54	-84.3	-88.6	6.0	2.75e-01	0	46	0	0	60	1048574
2026-01-17 06:32:05.20	63.25	6.60	-84.7	-88.6	6.4	2.76e-01	0	46	0	0	60	1048574
2026-01-17 06:32:06.20	63.16	6.66	-84.7	-88.6	6.1	2.81e-01	0	46	0	0	60	1048569
2026-01-17 06:32:07.21	63.06	6.73	-84.7	-88.6	5.9	2.79e-01	0	46	0	0	60	1048573
2026-01-17 06:32:08.21	62.97	6.79	-84.7	-88.6	6.2	2.79e-01	0	46	0	0	60	1048575
2026-01-17 06:32:09.22	62.87	6.85	-84.7	-88.6	5.7	2.81e-01	0	46	0	0	60	1048567
2026-01-17 06:32:10.22	62.77	6.91	-85.2	-88.6	6.0	2.78e-01	0	46	0	0	60	1048574
2026-01-17 06:32:11.23	62.68	6.97	-84.7	-88.6	6.1	2.80e-01	0	46	0	0	60	1048567
2026-01-17 06:32:12.24	62.58	7.04	-85.2	-88.6	5.1	2.79e-01	0	46	0	0	60	1048575
2026-01-17 06:32:13.24	62.48	7.10	-84.7	-88.6	5.9	2.79e-01	0	46	0	0	60	1048574
2026-01-17 06:32:14.25	62.38	7.16	-84.7	-88.6	6.1	2.77e-01	0	46	0	0	60	1048571
2026-01-17 06:32:15.26	62.29	7.22	-84.7	-88.6	6.5	2.80e-01	0	46	0	0	60	1048575
2026-01-17 06:32:16.27	62.19	7.29	-84.7	-88.6	5.9	2.78e-01	0	46	0	0	60	1048568
2026-01-17 06:32:17.27	62.09	7.35	-84.7	-88.6	5.6	2.77e-01	0	46	0	0	60	1048571
2026-01-17 06:32:18.28	61.99	7.41	-85.2	-88.6	5.8	2.82e-01	0	46	0	0	60	1048572
2026-01-17 06:32:19.29	61.89	7.47	-84.7	-88.6	6.2	2.79e-01	0	46	0	0	60	1048573
2026-01-17 06:32:20.30	61.78	7.54	-84.7	-88.6	5.7	2.79e-01	0	46	0	0	60	1048575
2026-01-17 06:32:21.31	61.68	7.60	-85.2	-88.6	6.3	2.76e-01	0	46	0	0	60	1048575
2026-01-17 06:32:22.31	61.58	7.66	-85.2	-88.6	6.4	2.76e-01	0	46	0	0	60	1048569
2026-01-17 06:32:23.32	61.48	7.73	-85.2	-88.6	6.1	2.76e-01	0	46	0	0	60	1048575
2026-01-17 06:32:24.33	61.38	7.79	-84.7	-88.6	5.9	2.81e-01	0	46	0	0	60	1048574
2026-01-17 06:32:25.33	61.27	7.85	-84.7	-88.6	5.9	2.77e-01	0	46	0	0	60	1048575
2026-01-17 06:32:26.34	61.17	7.92	-84.7	-88.6	6.2	2.78e-01	0	46	0	0	60	1048575
2026-01-17 06:32:27.34	61.07	7.98	-84.7	-88.6	6.3	2.77e-01	0	46	0	0	60	1048574
2026-01-17 06:32:28.35	60.96	8.04	-84.7	-88.6	6.2	2.78e-01	0	46	0	0	60	1048574
2026-01-17 06:32:29.35	60.86	8.10	-84.7	-88.6	6.1	2.78e-01	0	46	0	0	60	1048571
2026-01-17 06:32:30.36	60.75	8.17	-84.7	-88.6	6.3	2.76e-01	0	46	0	0	60	1048570
2026-01-17 06:32:31.37	60.64	8.23	-85.2	-88.6	5.9	2.85e-01	0	46	0	0	60	1048571
2026-01-17 06:32:32.37	60.54	8.30	-85.2	-88.6	6.0	2.79e-01	0	46	0	0	60	1048563
2026-01-17 06:32:33.38	60.43	8.36	-84.7	-88.6	6.2	2.79e-01	0	46	0	0	60	1048573
2026-01-17 06:32:34.39	60.32	8.42	-84.7	-88.6	5.7	2.84e-01	0	46	0	0	60	1048574
2026-01-17 06:32:35.39	60.22	8.49	-84.7	-88.6	6.0	2.76e-01	0	46	0	0	60	1048573
2026-01-17 06:32:36.40	60.11	8.55	-84.7	-88.6	6.1	2.75e-01	0	46	0	0	60	1048574
2026-01-17 06:32:37.40	60.00	8.61	-84.7	-88.6	5.9	2.85e-01	0	46	0	0	60	1048575
2026-01-17 06:32:38.41	59.89	8.68	-84.7	-88.6	6.0	2.83e-01	0	46	0	0	60	1048575
2026-01-17 06:32:39.41	59.78	8.74	-84.7	-88.6	5.7	2.81e-01	0	46	0	0	60	1048567
2026-01-17 06:32:40.41	59.67	8.81	-84.7	-88.6	6.4	2.80e-01	0	46	0	0	60	1048573
2026-01-17 06:32:41.42	59.56	8.87	-85.2	-88.6	6.1	2.78e-01	0	46	0	0	60	1048575
2026-01-17 06:32:42.42	59.45	8.93	-85.2	-88.6	5.9	2.79e-01	0	46	0	0	60	1048572
2026-01-17 06:32:43.42	59.34	9.00	-84.7	-88.6	6.2	2.78e-01	0	46	0	0	60	1048572
2026-01-17 06:32:44.43	59.23	9.06	-84.7	-88.6	5.9	2.80e-01	0	46	0	0	60	1048575
2026-01-17 06:32:45.44	59.11	9.13	-84.7	-88.6	6.1	2.82e-01	0	46	0	0	60	1048575
2026-01-17 06:32:46.44	59.00	9.19	-85.2	-88.6	6.0	2.77e-01	0	46	0	0	60	1048573
2026-01-17 06:32:47.45	58.89	9.26	-84.7	-88.6	5.9	2.80e-01	0	46	0	0	60	1048575
2026-01-17 06:32:48.45	58.77	9.32	-84.7	-88.6	6.2	2.80e-01	0	46	0	0	60	1048572
2026-01-17 06:32:49.45	58.66	9.38	-84.7	-88.6	5.9	2.84e-01	0	46	0	0	60	1048573
2026-01-17 06:32:50.47	58.54	9.45	-85.2	-88.6	5.8	2.81e-01	0	46	0	0	60	1048573
2026-01-17 06:32:51.47	58.43	9.51	-85.2	-88.6	6.4	2.78e-01	0	46	0	0	60	1048573
2026-01-17 06:32:52.48	58.31	9.58	-85.2	-88.6	6.2	2.79e-01	0	46	0	0	60	1048572
2026-01-17 06:32:53.48	58.19	9.64	-84.7	-88.6	5.9	2.77e-01	0	46	0	0	60	1048575
2026-01-17 06:32:54.49	58.07	9.71	-84.7	-88.6	6.0	2.77e-01	0	46	0	0	60	1048573
2026-01-17 06:32:55.49	57.96	9.77	-85.2	-88.6	5.7	2.76e-01	0	46	0	0	60	1048571
2026-01-17 06:32:56.50	57.84	9.84	-84.7	-88.6	6.2	2.78e-01	0	46	0	0	60	1048575
2026-01-17 06:32:57.50	57.72	9.90	-85.2	-88.6	6.0	2.79e-01	0	46	0	0	60	1048575
2026-01-17 06:32:58.51	57.60	9.97	-84.7	-88.6	6.3	2.79e-01	0	46	0	0	60	1048575
2026-01-17 06:32:59.52	57.48	10.03	-84.7	-88.6	6.2	2.77e-01	0	46	0	0	60	1048573
2026-01-17 06:33:00.52	57.36	10.10	-85.2	-88.6	5.9	2.79e-01	0	46	0	0	60	1048575
2026-01-17 06:33:01.53	57.24	10.16	-85.2	-88.6	6.1	2.81e-01	0	46	0	0	60	1048569
2026-01-17 06:33:02.54	57.11	10.23	-85.2	-88.6	6.1	2.78e-01	0	46	0	0	60	1048575
2026-01-17 06:33:03.54	56.99	10.29	-84.7	-88.6	5.9	2.79e-01	0	46	0	0	60	1048571
2026-01-17 06:33:04.55	56.87	10.36	-84.7	-88.6	5.7	2.78e-01	0	46	0	0	60	1048574
2026-01-17 06:33:05.55	56.75	10.42	-84.7	-88.6	5.8	2.78e-01	0	46	0	0	60	1048575
2026-01-17 06:33:06.56	56.62	10.49	-84.7	-88.6	6.2	2.83e-01	0	46	0	0	60	1048571
2026-01-17 06:33:07.57	56.50	10.56	-85.2	-88.6	6.0	2.79e-01	0	46	0	0	60	1048572
2026-01-17 06:33:08.58	56.37	10.62	-84.7	-88.6	5.7	2.82e-01	0	46	0	0	60	1048575
2026-01-17 06:33:09.58	56.25	10.69	-84.7	-88.6	6.2	2.77e-01	0	46	0	0	60	1048573
2026-01-17 06:33:10.59	56.12	10.75	-84.7	-88.6	6.0	2.77e-01	0	46	0	0	60	1048575
2026-01-17 06:33:11.60	55.99	10.82	-85.2	-88.6	5.4	2.80e-01	0	46	0	0	60	1048571
2026-01-17 06:33:12.61	55.86	10.88	-84.7	-88.6	5.9	2.81e-01	0	46	0	0	60	1048574
2026-01-17 06:33:13.62	55.73	10.95	-84.7	-88.6	6.4	2.84e-01	0	46	0	0	60	1048573
2026-01-17 06:33:14.62	55.61	11.02	-84.7	-88.6	6.5	2.81e-01	0	46	0	0	60	1048574
2026-01-17 06:33:15.63	55.48	11.08	-84.7	-88.6	6.1	2.80e-01	0	46	0	0	60	1048575
2026-01-17 06:33:16.63	55.35	11.15	-85.2	-88.6	5.3	2.81e-01	0	46	0	0	60	1048574
2026-01-17 06:33:17.63	55.22	11.21	-84.7	-88.6	5.8	2.76e-01	0	46	0	0	60	1048570
2026-01-17 06:33:18.64	55.09	11.28	-85.2	-88.6	6.6	2.82e-01	0	46	0	0	60	1048572
2026-01-17 06:33:19.65	54.95	11.34	-84.7	-88.6	5.7	2.83e-01	0	46	0	0	60	1048575
2026-01-17 06:33:20.65	54.82	11.41	-85.2	-88.6	5.5	2.79e-01	0	46	0	0	60	1048571
2026-01-17 06:33:21.66	54.69	11.48	-84.7	-88.6	5.7	2.81e-01	0	46	0	0	60	1048574
2026-01-17 06:33:22.66	54.56	11.54	-85.2	-88.6	6.3	2.77e-01	0	46	0	0	60	1048574
2026-01-17 06:33:23.67	54.42	11.61	-84.7	-88.6	6.4	2.82e-01	0	46	0	0	60	1048575
2026-01-17 06:33:24.67	54.29	11.67	-84.7	-88.6	5.9	2.80e-01	0	46	0	0	60	1048575
2026-01-17 06:33:25.68	54.15	11.74	-84.7	-88.6	6.2	2.78e-01	0	46	0	0	60	1048574
2026-01-17 06:33:26.69	54.01	11.81	-84.7	-88.6	6.3	2.75e-01	0	46	0	0	60	1048569
2026-01-17 06:33:27.69	53.88	11.87	-84.7	-88.6	6.1	2.78e-01	0	46	0	0	60	1048574
2026-01-17 06:33:28.69	53.74	11.94	-85.2	-88.6	6.1	2.79e-01	0	46	0	0	60	1048575
2026-01-17 06:33:29.69	53.60	12.00	-84.7	-88.6	5.6	2.77e-01	0	46	0	0	60	1048575
2026-01-17 06:33:30.70	53.47	12.07	-84.7	-88.6	6.0	2.77e-01	0	46	0	0	60	1048574
2026-01-17 06:33:31.70	53.33	12.14	-84.7	-88.6	6.3	2.82e-01	0	46	0	0	60	1048574
2026-01-17 06:33:32.70	53.19	12.20	-84.7	-88.6	6.0	2.83e-01	0	46	0	0	60	1048574
2026-01-17 06:33:33.71	53.05	12.27	-84.7	-88.6	6.3	2.79e-01	0	46	0	0	60	1048574
2026-01-17 06:33:34.71	52.91	12.33	-84.7	-88.6	6.2	2.75e-01	0	46	0	0	60	1048570
2026-01-17 06:33:35.72	52.76	12.40	-84.7	-88.6	6.2	2.78e-01	0	46	0	0	60	1048575
2026-01-17 06:33:36.72	52.62	12.47	-84.7	-88.6	5.7	2.76e-01	0	46	0	0	60	1048575
2026-01-17 06:33:37.73	52.48	12.53	-85.2	-88.6	6.0	2.75e-01	0	46	0	0	60	1048573
2026-01-17 06:33:38.73	52.34	12.60	-85.2	-88.6	6.1	2.77e-01	0	46	0	0	60	1048575
2026-01-17 06:33:39.73	52.19	12.66	-84.7	-88.6	6.1	2.76e-01	0	46	0	0	60	1048575
2026-01-17 06:33:40.74	52.05	12.73	-84.7	-88.6	6.1	2.79e-01	0	46	0	0	60	1048574
2026-01-17 06:33:41.75	51.90	12.80	-84.7	-88.6	5.9	2.75e-01	0	46	0	0	60	1048571
2026-01-17 06:33:42.76	51.75	12.86	-84.7	-88.6	6.2	2.78e-01	0	46	0	0	60	1048567
2026-01-17 06:33:43.76	51.61	12.93	-85.2	-88.6	6.1	2.78e-01	0	46	0	0	60	1048560
2026-01-17 06:33:44.77	51.46	12.99	-84.7	-88.6	6.1	2.75e-01	0	46	0	0	60	1048574
2026-01-17 06:33:45.77	51.31	13.06	-84.7	-88.6	5.9	2.78e-01	0	46	0	0	60	1048571
2026-01-17 06:33:46.78	51.16	13.13	-84.7	-88.6	6.1	2.79e-01	0	46	0	0	60	1048570
2026-01-17 06:33:47.78	51.01	13.19	-85.2	-88.6	6.2	2.78e-01	0	46	0	0	60	1048575
2026-01-17 06:33:48.79	50.86	13.26	-85.2	-88.6	6.1	2.77e-01	0	46	0	0	60	1048569
2026-01-17 06:33:49.79	50.71	13.32	-84.7	-88.6	5.7	2.81e-01	0	46	0	0	60	1048569
2026-01-17 06:33:50.80	50.56	13.39	-84.7	-88.6	6.2	2.78e-01	0	46	0	0	60	1048575
2026-01-17 06:33:51.81	50.41	13.46	-84.7	-88.6	6.1	2.79e-01	0	46	0	0	60	1048573
2026-01-17 06:33:52.81	50.25	13.52	-84.7	-88.6	6.0	2.78e-01	0	46	0	0	60	1048575
2026-01-17 06:33:53.82	50.10	13.59	-84.7	-88.6	6.2	2.77e-01	0	46	0	0	60	1048568
2026-01-17 06:33:54.83	49.94	13.65	-85.2	-88.6	5.7	2.77e-01	0	46	0	0	60	1048572
2026-01-17 06:33:55.84	49.79	13.72	-84.7	-88.6	6.0	2.79e-01	0	46	0	0	60	1048573
2026-01-17 06:33:56.84	49.63	13.79	-85.2	-88.6	6.3	2.81e-01	0	46	0	0	60	1048572
2026-01-17 06:33:57.85	49.47	13.85	-84.7	-88.6	5.7	2.76e-01	0	46	0	0	60	1048573
2026-01-17 06:33:58.86	49.32	13.92	-85.2	-88.6	5.9	2.76e-01	0	46	0	0	60	1048572
2026-01-17 06:33:59.87	49.16	13.98	-84.7	-88.6	6.1	2.78e-01	0	46	0	0	60	1048575
2026-01-17 06:34:00.87	49.00	14.05	-84.7	-88.6	5.6	2.80e-01	0	46	0	0	60	1048573
2026-01-17 06:34:01.88	48.84	14.12	-84.7	-88.6	5.7	2.83e-01	0	46	0	0	60	1048573
2026-01-17 06:34:02.89	48.68	14.18	-85.2	-88.6	5.9	2.78e-01	0	46	0	0	60	1048575
2026-01-17 06:34:03.89	48.52	14.25	-84.7	-88.6	6.2	2.79e-01	0	46	0	0	60	1048575
2026-01-17 06:34:04.90	48.36	14.31	-84.7	-88.6	5.6	2.79e-01	0	46	0	0	60	1048574
2026-01-17 06:34:05.91	48.19	14.38	-84.7	-88.6	6.6	2.77e-01	0	46	0	0	60	1048559
2026-01-17 06:34:06.91	48.03	14.44	-85.2	-88.6	6.4	2.79e-01	0	46	0	0	60	1048574
2026-01-17 06:34:07.92	47.87	14.51	-85.2	-88.6	6.4	2.76e-01	0	46	0	0	60	1048572
2026-01-17 06:34:08.93	47.70	14.57	-85.2	-88.6	5.9	2.77e-01	0	46	0	0	60	1048575
2026-01-17 06:34:09.93	47.54	14.64	-84.7	-88.6	5.8	2.73e-01	0	46	0	0	60	1048575
2026-01-17 06:34:10.94	47.37	14.70	-84.7	-88.6	6.3	2.73e-01	0	46	0	0	60	1048575
2026-01-17 06:34:11.94	47.20	14.77	-84.7	-88.6	6.5	2.76e-01	0	46	0	0	60	1048575
2026-01-17 06:34:12.95	47.04	14.83	-84.7	-88.6	6.2	2.77e-01	0	46	0	0	60	1048575
2026-01-17 06:34:13.95	46.87	14.90	-85.2	-88.6	6.1	2.76e-01	0	46	0	0	60	1048570
2026-01-17 06:34:14.96	46.70	14.96	-84.7	-88.6	6.0	2.74e-01	0	46	0	0	60	1048574
2026-01-17 06:34:15.97	46.53	15.03	-85.2	-88.6	6.0	2.79e-01	0	46	0	0	60	1048570
2026-01-17 06:34:16.98	46.36	15.09	-85.2	-88.6	5.8	2.75e-01	0	46	0	0	60	1048575
2026-01-17 06:34:17.99	46.18	15.16	-85.2	-88.6	5.9	2.81e-01	0	46	0	0	60	1048574
2026-01-17 06:34:19.00	46.01	15.22	-84.7	-88.6	6.2	2.73e-01	0	46	0	0	60	1048571
2026-01-17 06:34:20.00	45.84	15.29	-85.2	-88.6	6.0	2.78e-01	0	46	0	0	60	1048575
2026-01-17 06:34:21.00	45.67	15.35	-84.7	-88.6	5.9	2.80e-01	0	46	0	0	60	1048575
2026-01-17 06:34:22.01	45.49	15.42	-85.2	-88.6	6.3	2.78e-01	0	46	0	0	60	1048575
2026-01-17 06:34:23.02	45.32	15.48	-84.7	-88.6	6.4	2.79e-01	0	46	0	0	60	1048571
2026-01-17 06:34:24.02	45.14	15.54	-84.7	-88.6	6.3	2.78e-01	0	46	0	0	60	1048575
2026-01-17 06:34:25.03	44.96	15.61	-85.2	-88.6	5.5	2.79e-01	0	46	0	0	60	1048575
2026-01-17 06:34:26.04	44.79	15.67	-85.2	-88.6	6.4	2.76e-01	0	46	0	0	60	1048575
2026-01-17 06:34:27.05	44.61	15.74	-85.2	-88.6	6.0	2.84e-01	0	46	0	0	60	1048574
2026-01-17 06:34:28.05	44.43	15.80	-84.7	-88.6	6.4	2.73e-01	0	46	0	0	60	1048575
2026-01-17 06:34:29.05	44.25	15.86	-84.7	-88.6	5.8	2.77e-01	0	46	0	0	60	1048572
2026-01-17 06:34:30.06	44.07	15.93	-85.2	-88.6	5.8	2.78e-01	0	46	0	0	60	1048574
2026-01-17 06:34:31.06	43.89	15.99	-84.7	-88.6	6.3	2.80e-01	0	46	0	0	60	1048570
2026-01-17 06:34:32.07	43.71	16.05	-84.7	-88.6	6.4	2.79e-01	0	46	0	0	60	1048571
2026-01-17 06:34:33.07	43.52	16.11	-84.7	-88.6	5.6	2.75e-01	0	46	0	0	60	1048574
2026-01-17 06:34:34.08	43.34	16.18	-84.7	-88.6	6.3	2.78e-01	0	46	0	0	60	1048574
2026-01-17 06:34:35.09	43.15	16.24	-84.7	-88.6	5.7	2.79e-01	0	46	0	0	60	1048575
2026-01-17 06:34:36.10	42.97	16.30	-85.2	-88.6	5.6	2.78e-01	0	46	0	0	60	1048566
2026-01-17 06:34:37.11	42.78	16.37	-85.2	-88.6	6.1	2.78e-01	0	46	0	0	60	1048575
2026-01-17 06:34:38.11	42.60	16.43	-84.7	-88.6	5.9	2.80e-01	0	46	0	0	60	1048575
2026-01-17 06:34:39.12	42.41	16.49	-85.2	-88.6	6.0	2.76e-01	0	46	0	0	60	1048575
2026-01-17 06:34:40.11	42.22	16.55	-84.7	-88.6	5.8	2.76e-01	0	46	0	0	60	1048574
2026-01-17 06:34:41.12	42.03	16.61	-84.7	-88.6	5.9	2.80e-01	0	46	0	0	60	1048574
2026-01-17 06:34:42.13	41.84	16.67	-84.7	-88.6	5.5	2.81e-01	0	46	0	0	60	1048574
2026-01-17 06:34:43.14	41.65	16.74	-84.7	-88.6	6.0	2.79e-01	0	46	0	0	60	1048569
2026-01-17 06:34:44.14	41.46	16.80	-84.7	-88.6	6.4	2.78e-01	0	46	0	0	60	1048575
2026-01-17 06:34:45.15	41.27	16.86	-85.2	-88.6	5.6	2.82e-01	0	46	0	0	60	1048575
2026-01-17 06:34:46.16	41.07	16.92	-85.2	-88.6	5.6	2.82e-01	0	46	0	0	60	1048575
2026-01-17 06:34:47.17	40.88	16.98	-85.2	-88.6	5.7	2.82e-01	0	46	0	0	60	1048575
2026-01-17 06:34:48.18	40.68	17.04	-84.7	-88.6	6.3	2.78e-01	0	46	0	0	60	1048572
2026-01-17 06:34:49.19	40.49	17.10	-84.7	-88.6	5.9	2.80e-01	0	46	0	0	60	1048574
2026-01-17 06:34:50.19	40.29	17.16	-84.7	-88.6	6.1	2.81e-01	0	46	0	0	60	1048571
2026-01-17 06:34:51.20	40.09	17.22	-84.7	-88.6	6.4	2.81e-01	0	46	0	0	60	1048567
2026-01-17 06:34:52.21	39.89	17.28	-85.2	-88.6	6.1	2.79e-01	0	46	0	0	60	1048573
2026-01-17 06:34:53.21	39.70	17.34	-84.7	-88.6	5.8	2.80e-01	0	46	0	0	60	1048569
2026-01-17 06:34:54.22	39.50	17.40	-85.2	-88.6	5.9	2.80e-01	0	46	0	0	60	1048574
2026-01-17 06:34:55.23	39.30	17.46	-85.2	-88.6	6.3	2.79e-01	0	46	0	0	60	1048574
2026-01-17 06:34:56.23	39.10	17.52	-85.2	-88.6	6.4	2.79e-01	0	46	0	0	60	1048571
2026-01-17 06:34:57.24	38.89	17.58	-84.7	-88.6	5.5	2.75e-01	0	46	0	0	60	1048572
2026-01-17 06:34:58.24	38.69	17.63	-84.7	-88.6	5.7	2.82e-01	0	46	0	0	60	1048573
2026-01-17 06:34:59.25	38.49	17.69	-84.7	-88.6	6.1	2.79e-01	0	46	0	0	60	1048572
2026-01-17 06:35:00.26	38.28	17.75	-85.2	-88.6	5.8	2.79e-01	0	46	0	0	60	1048575
2026-01-17 06:35:01.27	38.08	17.81	-84.7	-88.6	6.1	2.78e-01	0	46	0	0	60	1048575
2026-01-17 06:35:02.28	37.87	17.87	-84.7	-88.6	5.9	2.75e-01	0	46	0	0	60	1048574
2026-01-17 06:35:03.28	37.66	17.92	-84.7	-88.6	6.5	2.80e-01	0	46	0	0	60	1048574
2026-01-17 06:35:04.29	37.46	17.98	-85.2	-88.6	6.2	2.81e-01	0	46	0	0	60	1048574
2026-01-17 06:35:05.30	37.25	18.04	-84.7	-88.6	6.3	2.79e-01	0	46	0	0	60	1048573
2026-01-17 06:35:06.31	37.04	18.09	-84.7	-88.6	5.7	2.80e-01	0	46	0	0	60	1048574
2026-01-17 06:35:07.31	36.83	18.15	-84.7	-88.6	6.3	2.77e-01	0	46	0	0	60	1048575
2026-01-17 06:35:08.32	36.62	18.20	-84.7	-88.6	6.3	2.79e-01	0	46	0	0	60	1048574
2026-01-17 06:35:09.32	36.41	18.26	-85.2	-88.6	6.0	2.73e-01	0	46	0	0	60	1048575
2026-01-17 06:35:10.33	36.19	18.31	-84.7	-88.6	5.9	2.75e-01	0	46	0	0	60	1048575
2026-01-17 06:35:11.34	35.98	18.37	-84.7	-88.6	6.2	2.80e-01	0	46	0	0	60	1048572
2026-01-17 06:35:12.35	35.77	18.42	-84.7	-88.6	6.1	2.83e-01	0	46	0	0	60	1048573
2026-01-17 06:35:13.35	35.55	18.48	-85.2	-88.6	5.9	2.76e-01	0	46	0	0	60	1048575
2026-01-17 06:35:14.36	35.34	18.53	-84.7	-88.6	6.5	2.81e-01	0	46	0	0	60	1048574
2026-01-17 06:35:15.37	35.12	18.59	-85.2	-88.6	5.9	2.80e-01	0	46	0	0	60	1048572
2026-01-17 06:35:16.37	34.90	18.64	-84.7	-88.6	6.3	2.78e-01	0	46	0	0	60	1048575
2026-01-17 06:35:17.38	34.69	18.69	-85.2	-88.6	6.6	2.77e-01	0	46	0	0	60	1048575
2026-01-17 06:35:18.39	34.47	18.75	-84.7	-88.6	5.9	2.78e-01	0	46	0	0	60	1048573
2026-01-17 06:35:19.39	34.25	18.80	-85.2	-88.6	6.6	2.81e-01	0	46	0	0	60	1048573
2026-01-17 06:35:20.40	34.03	18.85	-84.7	-88.6	6.2	2.79e-01	0	46	0	0	60	1048574
2026-01-17 06:35:21.40	33.81	18.90	-84.7	-88.6	6.5	2.78e-01	0	46	0	0	60	1048570
2026-01-17 06:35:22.41	33.59	18.95	-85.2	-88.6	6.5	2.78e-01	0	46	0	0	60	1048572
2026-01-17 06:35:23.42	33.36	19.01	-84.7	-88.6	6.0	2.77e-01	0	46	0	0	60	1048573
2026-01-17 06:35:24.43	33.14	19.06	-85.2	-88.6	5.4	2.79e-01	0	46	0	0	60	1048575
2026-01-17 06:35:25.43	32.92	19.11	-84.7	-88.6	5.8	2.84e-01	0	46	0	0	60	1048575
2026-01-17 06:35:26.44	32.69	19.16	-85.2	-88.6	5.8	2.81e-01	0	46	0	0	60	1048573
2026-01-17 06:35:27.45	32.47	19.21	-85.2	-88.6	5.7	2.82e-01	0	46	0	0	60	1048568
2026-01-17 06:35:28.46	32.24	19.26	-85.2	-88.6	5.7	2.78e-01	0	46	0	0	60	1048572
2026-01-17 06:35:29.46	32.02	19.31	-84.7	-88.6	6.1	2.78e-01	0	46	0	0	60	1048571
2026-01-17 06:35:30.47	31.79	19.35	-84.7	-88.6	6.2	2.78e-01	0	46	0	0	60	1048573
2026-01-17 06:35:31.47	31.56	19.40	-84.7	-88.6	6.2	2.80e-01	0	46	0	0	60	1048572
2026-01-17 06:35:32.48	31.33	19.45	-85.2	-88.6	6.1	2.81e-01	0	46	0	0	60	1048575
2026-01-17 06:35:33.49	31.10	19.50	-84.7	-88.6	6.0	2.79e-01	0	46	0	0	60	1048571
2026-01-17 06:35:34.49	30.87	19.54	-85.2	-88.6	6.4	2.85e-01	0	46	0	0	60	1048573
2026-01-17 06:35:35.50	30.64	19.59	-84.7	-88.6	5.4	2.79e-01	0	46	0	0	60	1048572
2026-01-17 06:35:36.51	30.41	19.64	-85.2	-88.6	5.8	2.83e-01	0	46	0	0	60	1048575
2026-01-17 06:35:37.52	30.17	19.68	-84.7	-88.6	5.9	2.75e-01	0	46	0	0	60	1048573
2026-01-17 06:35:38.52	29.94	19.73	-85.2	-88.6	6.0	2.76e-01	0	46	0	0	60	1048574
2026-01-17 06:35:39.53	29.71	19.77	-84.7	-88.6	6.1	2.80e-01	0	46	0	0	60	1048573
2026-01-17 06:35:40.54	29.47	19.82	-84.7	-88.6	5.8	2.79e-01	0	46	0	0	60	1048574
2026-01-17 06:35:41.55	29.24	19.86	-84.7	-88.6	5.5	2.84e-01	0	46	0	0	60	1048570
2026-01-17 06:35:42.55	29.00	19.91	-85.2	-88.6	6.4	2.76e-01	0	46	0	0	60	1048574
2026-01-17 06:35:43.56	28.76	19.95	-85.2	-88.6	6.4	2.80e-01	0	46	0	0	60	1048572
2026-01-17 06:35:44.57	28.53	19.99	-84.7	-88.6	5.7	2.76e-01	0	46	0	0	60	1048569
2026-01-17 06:35:45.58	28.29	20.04	-84.7	-88.6	5.9	2.79e-01	0	46	0	0	60	1048575
2026-01-17 06:35:46.58	28.05	20.08	-84.7	-88.6	6.0	2.79e-01	0	46	0	0	60	1048572
2026-01-17 06:35:47.59	27.81	20.12	-85.2	-88.6	6.2	2.78e-01	0	46	0	0	60	1048574
2026-01-17 06:35:48.60	27.57	20.16	-84.7	-88.6	6.3	2.78e-01	0	46	0	0	60	1048573
2026-01-17 06:35:49.60	27.33	20.20	-84.7	-88.6	6.3	2.79e-01	0	46	0	0	60	1048575
2026-01-17 06:35:50.61	27.09	20.24	-84.7	-88.6	6.1	2.81e-01	0	46	0	0	60	1048572
2026-01-17 06:35:51.62	26.85	20.28	-85.2	-88.6	6.4	2.79e-01	0	46	0	0	60	1048569
2026-01-17 06:35:52.63	26.60	20.32	-85.2	-88.6	5.7	2.76e-01	0	46	0	0	60	1048575
2026-01-17 06:35:53.64	26.36	20.36	-85.2	-88.6	5.7	2.77e-01	0	46	0	0	60	1048575
2026-01-17 06:35:54.64	26.12	20.40	-84.7	-88.6	6.2	2.79e-01	0	46	0	0	60	1048572
2026-01-17 06:35:55.65	25.87	20.44	-85.2	-88.6	6.2	2.75e-01	0	46	0	0	60	1048565
2026-01-17 06:35:56.66	25.63	20.47	-84.7	-88.6	5.4	2.74e-01	0	46	0	0	60	1048563
2026-01-17 06:35:57.66	25.38	20.51	-85.2	-88.6	5.7	2.77e-01	0	46	0	0	60	1048575
2026-01-17 06:35:58.67	25.14	20.55	-84.7	-88.6	6.2	2.75e-01	0	46	0	0	60	1048574
2026-01-17 06:35:59.68	24.89	20.58	-84.7	-88.6	6.2	2.76e-01	0	46	0	0	60	1048575
2026-01-17 06:36:00.69	24.64	20.62	-84.7	-88.6	5.8	2.76e-01	0	46	0	0	60	1048575
2026-01-17 06:36:01.69	24.39	20.65	-85.2	-88.6	6.0	2.78e-01	0	46	0	0	60	1048575
2026-01-17 06:36:02.70	24.14	20.69	-85.2	-88.6	6.1	2.74e-01	0	46	0	0	60	1048574
2026-01-17 06:36:03.71	23.89	20.72	-84.7	-88.6	5.9	2.77e-01	0	46	0	0	60	1048575
2026-01-17 06:36:04.71	23.65	20.75	-84.3	-88.6	5.7	2.77e-01	0	46	0	0	60	1048569
2026-01-17 06:36:05.72	23.40	20.79	-84.7	-88.6	5.8	2.78e-01	0	46	0	0	60	1048572
2026-01-17 06:36:06.73	23.14	20.82	-85.2	-88.6	5.9	2.75e-01	0	46	0	0	60	1048575
2026-01-17 06:36:07.74	22.89	20.85	-84.7	-88.6	6.0	2.79e-01	0	46	0	0	60	1048573
2026-01-17 06:36:08.75	22.64	20.88	-84.7	-88.6	6.0	2.77e-01	0	46	0	0	60	1048575
2026-01-17 06:36:09.75	22.39	20.91	-84.7	-88.6	5.8	2.79e-01	0	46	0	0	60	1048575
2026-01-17 06:36:10.76	22.14	20.94	-85.2	-88.6	6.3	2.74e-01	0	46	0	0	60	1048570
2026-01-17 06:36:11.76	21.88	20.97	-84.7	-88.6	6.2	2.78e-01	0	46	0	0	60	1048573
2026-01-17 06:36:12.77	21.63	21.00	-85.2	-88.6	5.5	2.80e-01	0	46	0	0	60	1048572
2026-01-17 06:36:13.77	21.38	21.03	-84.7	-88.6	6.0	2.78e-01	0	46	0	0	60	1048574
2026-01-17 06:36:14.77	21.13	21.05	-85.2	-88.6	6.4	2.81e-01	0	46	0	0	60	1048575
2026-01-17 06:36:15.78	20.87	21.08	-84.7	-88.6	6.1	2.78e-01	0	46	0	0	60	1048573
2026-01-17 06:36:16.78	20.62	21.11	-84.7	-88.6	5.7	2.80e-01	0	46	0	0	60	1048574
2026-01-17 06:36:17.79	20.36	21.13	-84.7	-88.6	6.1	2.79e-01	0	46	0	0	60	1048574
2026-01-17 06:36:18.80	20.10	21.16	-84.7	-88.6	5.9	2.78e-01	0	46	0	0	60	1048575
2026-01-17 06:36:19.80	19.85	21.18	-85.2	-88.6	6.3	2.75e-01	0	46	0	0	60	1048575
2026-01-17 06:36:20.81	19.59	21.21	-84.7	-88.6	6.2	2.82e-01	0	46	0	0	60	1048575
2026-01-17 06:36:21.81	19.33	21.23	-85.2	-88.6	6.2	2.77e-01	0	46	0	0	60	1048570
2026-01-17 06:36:22.82	19.07	21.25	-84.7	-88.6	6.0	2.77e-01	0	46	0	0	60	1048575
2026-01-17 06:36:23.82	18.82	21.28	-84.7	-88.6	6.1	2.76e-01	0	46	0	0	60	1048574
2026-01-17 06:36:24.83	18.56	21.30	-85.2	-88.6	5.7	2.82e-01	0	46	0	0	60	1048575
2026-01-17 06:36:25.84	18.30	21.32	-85.2	-88.6	6.0	2.79e-01	0	46	0	0	60	1048575
2026-01-17 06:36:26.85	18.04	21.34	-84.7	-88.6	6.0	2.76e-01	0	46	0	0	60	1048575
2026-01-17 06:36:27.86	17.78	21.36	-84.7	-88.6	6.1	2.76e-01	0	46	0	0	60	1048575
2026-01-17 06:36:28.86	17.52	21.38	-84.7	-88.6	5.9	2.80e-01	0	46	0	0	60	1048574
2026-01-17 06:36:29.87	17.26	21.40	-85.2	-88.6	6.3	2.82e-01	0	46	0	0	60	1048574
2026-01-17 06:36:30.88	17.00	21.42	-84.7	-88.6	5.8	2.83e-01	0	46	0	0	60	1048565
2026-01-17 06:36:31.88	16.74	21.43	-85.2	-88.6	6.3	2.77e-01	0	46	0	0	60	1048571
2026-01-17 06:36:32.89	16.48	21.45	-84.7	-88.6	5.9	2.78e-01	0	46	0	0	60	1048570
2026-01-17 06:36:33.89	16.22	21.47	-85.2	-88.6	6.0	2.77e-01	0	46	0	0	60	1048575
2026-01-17 06:36:34.90	15.95	21.48	-84.7	-88.6	5.9	2.77e-01	0	46	0	0	60	1048572
2026-01-17 06:36:35.90	15.69	21.50	-85.2	-88.6	6.0	2.76e-01	0	46	0	0	60	1048570
2026-01-17 06:36:36.91	15.43	21.51	-84.7	-88.6	6.5	2.78e-01	0	46	0	0	60	1048570
2026-01-17 06:36:37.91	15.17	21.53	-84.7	-88.6	6.2	2.78e-01	0	46	0	0	60	1048568
2026-01-17 06:36:38.92	14.90	21.54	-84.7	-88.6	6.1	2.75e-01	0	46	0	0	60	1048568
2026-01-17 06:36:39.93	14.64	21.55	-84.7	-88.6	6.0	2.79e-01	0	46	0	0	60	1048574
2026-01-17 06:36:40.93	14.38	21.56	-85.2	-88.6	5.3	2.80e-01	0	46	0	0	60	1048574
2026-01-17 06:36:41.94	14.12	21.57	-84.7	-88.6	6.4	2.78e-01	0	46	0	0	60	1048570
2026-01-17 06:36:42.95	13.85	21.58	-85.2	-88.6	5.8	2.78e-01	0	46	0	0	60	1048573
2026-01-17 06:36:43.95	13.59	21.59	-84.7	-88.6	6.6	2.81e-01	0	46	0	0	60	1048572
2026-01-17 06:36:44.96	13.32	21.60	-85.2	-88.6	5.6	2.78e-01	0	46	0	0	60	1048575
2026-01-17 06:36:45.97	13.06	21.61	-84.7	-88.6	5.7	2.81e-01	0	46	0	0	60	1048573
2026-01-17 06:36:46.97	12.80	21.62	-84.7	-88.6	5.9	2.77e-01	0	46	0	0	60	1048575
2026-01-17 06:36:47.98	12.53	21.63	-84.7	-88.6	5.8	2.82e-01	0	46	0	0	60	1048573
2026-01-17 06:36:48.98	12.27	21.63	-85.2	-88.6	6.2	2.79e-01	0	46	0	0	60	1048575
2026-01-17 06:36:49.99	12.00	21.64	-84.7	-88.6	6.0	2.78e-01	0	46	0	0	60	1048575
2026-01-17 06:36:50.99	11.74	21.65	-85.2	-88.6	6.1	2.75e-01	0	47	0	0	60	1048574
2026-01-17 06:36:52.00	11.47	21.65	-84.7	-88.6	6.3	2.75e-01	0	46	0	0	60	1048574
2026-01-17 06:36:53.00	11.21	21.65	-85.2	-88.6	6.1	2.74e-01	0	46	0	0	60	1048574
2026-01-17 06:36:54.00	10.95	21.66	-85.2	-88.6	6.3	2.79e-01	0	46	0	0	60	1048574
2026-01-17 06:36:55.01	10.68	21.66	-84.3	-88.6	5.8	2.79e-01	0	46	0	0	60	1048573
2026-01-17 06:36:56.02	10.42	21.66	-84.7	-88.6	5.5	2.80e-01	0	46	0	0	60	1048575
2026-01-17 06:36:57.02	10.15	21.66	-84.7	-88.6	5.8	2.78e-01	0	46	0	0	60	1048570
2026-01-17 06:36:58.02	9.89	21.67	-84.7	-88.6	6.1	2.78e-01	0	46	0	0	60	1048575
2026-01-17 06:36:59.03	9.62	21.67	-85.2	-88.6	6.1	2.81e-01	0	46	0	0	60	1048575
2026-01-17 06:37:00.04	9.36	21.66	-84.7	-88.6	6.2	2.83e-01	0	46	0	0	60	1048570
2026-01-17 06:37:01.04	9.09	21.66	-84.7	-88.6	6.0	2.79e-01	0	46	0	0	60	1048573
2026-01-17 06:37:02.05	8.83	21.66	-84.7	-88.6	6.1	2.81e-01	0	46	0	0	60	1048575
2026-01-17 06:37:03.06	8.56	21.66	-85.2	-88.6	6.3	2.82e-01	0	46	0	0	60	1048575
2026-01-17 06:37:04.07	8.30	21.66	-85.2	-88.6	6.3	2.76e-01	0	46	0	0	60	1048569
2026-01-17 06:37:05.07	8.03	21.65	-84.7	-88.6	6.1	2.84e-01	0	46	0	0	60	1048573
2026-01-17 06:37:06.08	7.77	21.65	-84.7	-88.6	5.8	2.79e-01	0	47	0	0	60	1048574
2026-01-17 06:37:07.09	7.50	21.64	-84.7	-88.6	6.0	2.78e-01	0	46	0	0	60	1048567
2026-01-17 06:37:08.09	7.24	21.64	-85.2	-88.6	5.6	2.82e-01	0	46	0	0	60	1048573
2026-01-17 06:37:09.10	6.97	21.63	-84.7	-88.6	6.3	2.73e-01	0	47	0	0	60	1048574
2026-01-17 06:37:10.11	6.71	21.62	-85.2	-88.6	5.9	2.80e-01	0	47	0	0	60	1048575
2026-01-17 06:37:11.11	6.45	21.62	-84.7	-88.6	6.4	2.82e-01	0	47	0	0	60	1048570
2026-01-17 06:37:12.12	6.18	21.61	-85.2	-88.6	5.6	2.79e-01	0	47	0	0	60	1048575
2026-01-17 06:37:13.13	5.92	21.60	-85.2	-88.6	6.1	2.74e-01	0	47	0	0	60	1048575
2026-01-17 06:37:14.14	5.65	21.59	-84.7	-88.6	6.3	2.78e-01	0	47	0	0	60	1048575
2026-01-17 06:37:15.14	5.39	21.58	-84.7	-88.6	6.3	2.76e-01	0	47	0	0	60	1048572
2026-01-17 06:37:16.15	5.13	21.57	-84.7	-88.6	5.5	2.82e-01	0	47	0	0	60	1048573
2026-01-17 06:37:17.16	4.86	21.56	-84.7	-88.6	5.9	2.82e-01	0	46	0	0	60	1048575
2026-01-17 06:37:18.17	4.60	21.54	-84.7	-88.6	5.8	2.78e-01	0	46	0	0	60	1048568
2026-01-17 06:37:19.18	4.33	21.53	-85.2	-88.6	6.2	2.82e-01	0	47	0	0	60	1048574
2026-01-17 06:37:20.19	4.07	21.52	-84.7	-88.6	6.4	2.79e-01	0	46	0	0	60	1048570
2026-01-17 06:37:21.19	3.81	21.50	-85.2	-88.6	5.5	2.79e-01	0	46	0	0	60	1048574
2026-01-17 06:37:22.20	3.55	21.49	-85.2	-88.6	6.0	2.79e-01	0	47	0	0	60	1048575
2026-01-17 06:37:23.21	3.28	21.47	-85.2	-88.6	5.9	2.79e-01	0	46	0	0	60	1048575
2026-01-17 06:37:24.21	3.02	21.46	-84.7	-88.6	6.2	2.80e-01	0	46	0	0	60	1048568
2026-01-17 06:37:25.22	2.76	21.44	-84.7	-88.6	5.8	2.79e-01	0	46	0	0	60	1048574
2026-01-17 06:37:26.23	2.50	21.42	-84.7	-88.6	6.1	2.79e-01	0	46	0	0	60	1048575
2026-01-17 06:37:27.24	2.24	21.41	-84.7	-88.6	5.8	2.81e-01	0	46	0	0	60	1048574
2026-01-17 06:37:28.24	1.98	21.39	-84.7	-88.6	5.5	2.75e-01	0	46	0	0	60	1048573
2026-01-17 06:37:29.25	1.72	21.37	-85.2	-88.6	5.7	2.80e-01	0	46	0	0	60	1048570
2026-01-17 06:37:30.26	1.46	21.35	-84.7	-88.6	5.9	2.81e-01	0	46	0	0	60	1048574
2026-01-17 06:37:31.27	1.20	21.33	-85.2	-88.6	6.1	2.83e-01	0	46	0	0	60	1048575
2026-01-17 06:37:32.27	0.94	21.31	-84.7	-88.6	6.3	2.80e-01	0	47	0	0	60	1048575
2026-01-17 06:37:33.28	0.68	21.29	-85.2	-88.6	6.0	2.81e-01	0	46	0	0	60	1048575
2026-01-17 06:37:34.29	0.42	21.26	-84.7	-88.6	5.8	2.74e-01	0	46	0	0	60	1048575
2026-01-17 06:37:35.30	0.16	21.24	-84.7	-88.6	6.5	2.77e-01	0	47	0	0	60	1048575
2026-01-17 06:37:36.31	359.90	21.22	-85.2	-88.6	6.0	2.77e-01	0	46	0	0	60	1048572
2026-01-17 06:37:37.31	359.65	21.20	-84.7	-88.6	6.3	2.83e-01	0	46	0	0	60	1048573
2026-01-17 06:37:38.32	359.39	21.17	-85.2	-88.6	6.4	2.79e-01	0	46	0	0	60	1048574
2026-01-17 06:37:39.32	359.14	21.15	-84.7	-88.6	6.0	2.75e-01	0	46	0	0	60	1048575
2026-01-17 06:37:40.33	358.88	21.12	-84.7	-88.6	5.6	2.79e-01	0	46	0	0	60	1048575
2026-01-17 06:37:41.33	358.62	21.09	-85.2	-88.6	5.7	2.82e-01	0	46	0	0	60	1048570
2026-01-17 06:37:42.34	358.37	21.07	-85.2	-88.6	6.1	2.77e-01	0	46	0	0	60	1048572
2026-01-17 06:37:43.34	358.12	21.04	-84.7	-88.6	6.1	2.74e-01	0	47	0	0	60	1048575
2026-01-17 06:37:44.35	357.86	21.01	-85.2	-88.6	6.2	2.78e-01	0	46	0	0	60	1048568
2026-01-17 06:37:45.36	357.61	20.98	-84.7	-88.6	6.4	2.78e-01	0	46	0	0	60	1048574
2026-01-17 06:37:46.36	357.35	20.95	-85.2	-88.6	6.0	2.78e-01	0	46	0	0	60	1048573
2026-01-17 06:37:47.37	357.10	20.92	-84.7	-88.6	6.4	2.80e-01	0	46	0	0	60	1048574
2026-01-17 06:37:48.37	356.85	20.89	-85.2	-88.6	6.2	2.80e-01	0	46	0	0	60	1048575
2026-01-17 06:37:49.38	356.60	20.86	-84.7	-88.6	6.0	2.79e-01	0	46	0	0	60	1048573
2026-01-17 06:37:50.39	356.35	20.83	-84.3	-88.6	6.1	2.78e-01	0	46	0	0	60	1048575
2026-01-17 06:37:51.39	356.10	20.80	-84.7	-88.6	6.6	2.81e-01	0	46	0	0	60	1048574
2026-01-17 06:37:52.40	355.85	20.77	-85.2	-88.6	5.5	2.81e-01	0	46	0	0	60	1048572
2026-01-17 06:37:53.41	355.60	20.74	-84.7	-88.6	6.3	2.82e-01	0	46	0	0	60	1048574
2026-01-17 06:37:54.42	355.35	20.70	-85.2	-88.6	6.3	2.80e-01	0	46	0	0	60	1048574
2026-01-17 06:37:55.42	355.10	20.67	-84.7	-88.6	5.8	2.78e-01	0	46	0	0	60	1048571
2026-01-17 06:37:56.43	354.85	20.63	-84.7	-88.6	5.7	2.80e-01	0	46	0	0	60	1048572
2026-01-17 06:37:57.43	354.60	20.60	-84.7	-88.6	6.3	2.77e-01	0	46	0	0	60	1048574
2026-01-17 06:37:58.44	354.36	20.56	-84.7	-88.6	6.1	2.77e-01	0	46	0	0	60	1048573
2026-01-17 06:37:59.45	354.11	20.53	-85.2	-88.6	6.1	2.79e-01	0	46	0	0	60	1048573
2026-01-17 06:38:00.46	353.86	20.49	-84.7	-88.6	5.4	2.77e-01	0	46	0	0	60	1048575
2026-01-17 06:38:01.47	353.62	20.45	-85.2	-88.6	6.3	2.73e-01	0	46	0	0	60	1048572
2026-01-17 06:38:02.47	353.37	20.42	-84.7	-88.6	6.2	2.78e-01	0	46	0	0	60	1048569
2026-01-17 06:38:03.48	353.13	20.38	-84.7	-88.6	6.4	2.78e-01	0	46	0	0	60	1048574
2026-01-17 06:38:04.49	352.88	20.34	-84.7	-88.6	5.8	2.82e-01	0	46	0	0	60	1048574
2026-01-17 06:38:05.50	352.64	20.30	-84.7	-88.6	6.3	2.80e-01	0	46	0	0	60	1048571
2026-01-17 06:38:06.51	352.40	20.26	-84.7	-88.6	6.3	2.76e-01	0	46	0	0	60	1048574
2026-01-17 06:38:07.51	352.16	20.22	-84.7	-88.6	5.7	2.81e-01	0	47	0	0	60	1048575
2026-01-17 06:38:08.52	351.92	20.18	-84.7	-88.6	5.8	2.81e-01	0	46	0	0	60	1048575
2026-01-17 06:38:09.53	351.68	20.14	-85.2	-88.6	5.9	2.78e-01	0	46	0	0	60	1048574
2026-01-17 06:38:10.53	351.44	20.10	-85.2	-88.6	5.7	2.78e-01	0	46	0	0	60	1048573
2026-01-17 06:38:11.54	351.20	20.06	-85.2	-88.6	5.8	2.73e-01	0	46	0	0	60	1048575
2026-01-17 06:38:12.55	350.96	20.01	-84.7	-88.6	5.5	2.77e-01	0	46	0	0	60	1048575
2026-01-17 06:38:13.55	350.72	19.97	-84.7	-88.6	6.0	2.80e-01	0	47	0	0	60	1048574
2026-01-17 06:38:14.56	350.49	19.93	-85.2	-88.6	6.3	2.78e-01	0	46	0	0	60	1048571
2026-01-17 06:38:15.57	350.25	19.88	-84.7	-88.6	5.6	2.78e-01	0	46	0	0	60	1048575
2026-01-17 06:38:16.58	350.01	19.84	-85.2	-88.6	6.0	2.79e-01	0	46	0	0	60	1048575
2026-01-17 06:38:17.58	349.78	19.80	-84.7	-88.6	5.9	2.80e-01	0	46	0	0	60	1048572
2026-01-17 06:38:18.59	349.54	19.75	-84.7	-88.6	6.3	2.78e-01	0	46	0	0	60	1048572
2026-01-17 06:38:19.60	349.31	19.71	-85.2	-88.6	6.1	2.79e-01	0	46	0	0	60	1048573
2026-01-17 06:38:20.61	349.08	19.66	-85.2	-88.6	5.9	2.76e-01	0	47	0	0	60	1048575
2026-01-17 06:38:21.61	348.85	19.61	-84.7	-88.6	6.2	2.75e-01	0	46	0	0	60	1048568
2026-01-17 06:38:22.62	348.61	19.57	-84.7	-88.6	5.9	2.78e-01	0	46	0	0	60	1048573
2026-01-17 06:38:23.63	348.38	19.52	-84.7	-88.6	5.8	2.81e-01	0	46	0	0	60	1048573
2026-01-17 06:38:24.63	348.15	19.47	-85.2	-88.6	6.1	2.80e-01	0	46	0	0	60	1048573
2026-01-17 06:38:25.64	347.92	19.43	-84.7	-88.6	6.2	2.75e-01	0	47	0	0	60	1048572
2026-01-17 06:38:26.65	347.70	19.38	-84.7	-88.6	6.2	2.78e-01	0	46	0	0	60	1048575
2026-01-17 06:38:27.65	347.47	19.33	-84.7	-88.6	5.7	2.79e-01	0	47	0	0	60	1048574
2026-01-17 06:38:28.66	347.24	19.28	-85.2	-88.6	5.7	2.78e-01	0	46	0	0	60	1048571
2026-01-17 06:38:29.67	347.01	19.23	-85.2	-88.6	6.1	2.75e-01	0	46	0	0	60	1048575
2026-01-17 06:38:30.67	346.79	19.18	-84.7	-88.6	6.1	2.77e-01	0	46	0	0	60	1048568
2026-01-17 06:38:31.67	346.57	19.13	-84.7	-88.6	6.3	2.79e-01	0	46	0	0	60	1048573
2026-01-17 06:38:32.68	346.34	19.08	-84.7	-88.6	5.5	2.81e-01	0	46	0	0	60	1048574
2026-01-17 06:38:33.69	346.12	19.03	-85.2	-88.6	5.9	2.75e-01	0	46	0	0	60	1048569
2026-01-17 06:38:34.69	345.90	18.98	-84.7	-88.6	5.8	2.82e-01	0	46	0	0	60	1048572
2026-01-17 06:38:35.70	345.68	18.93	-84.7	-88.6	6.1	2.78e-01	0	46	0	0	60	1048573
2026-01-17 06:38:36.70	345.46	18.88	-84.7	-88.6	6.2	2.83e-01	0	47	0	0	60	1048566
2026-01-17 06:38:37.71	345.24	18.82	-85.2	-88.6	6.2	2.77e-01	0	46	0	0	60	1048574
2026-01-17 06:38:38.71	345.02	18.77	-85.2	-88.6	6.1	2.78e-01	0	47	0	0	60	1048575
2026-01-17 06:38:39.72	344.80	18.72	-85.2	-88.6	6.1	2.76e-01	0	47	0	0	60	1048574
2026-01-17 06:38:40.73	344.58	18.67	-84.7	-88.6	5.9	2.79e-01	0	47	0	0	60	1048563
2026-01-17 06:38:41.74	344.36	18.61	-85.2	-88.6	5.9	2.76e-01	0	47	0	0	60	1048575
2026-01-17 06:38:42.75	344.14	18.56	-85.2	-88.6	6.2	2.77e-01	0	47	0	0	60	1048569
2026-01-17 06:38:43.75	343.93	18.51	-84.7	-88.6	6.1	2.79e-01	0	46	0	0	60	1048574
2026-01-17 06:38:44.76	343.71	18.45	-84.7	-88.6	6.1	2.79e-01	0	46	0	0	60	1048575
2026-01-17 06:38:45.77	343.50	18.40	-84.7	-88.6	5.8	2.77e-01	0	46	0	0	60	1048575
2026-01-17 06:38:46.78	343.29	18.34	-84.7	-88.6	6.2	2.72e-01	0	46	0	0	60	1048572
2026-01-17 06:38:47.79	343.07	18.29	-84.7	-88.6	6.3	2.78e-01	0	46	0	0	60	1048574
2026-01-17 06:38:48.79	342.86	18.23	-84.7	-88.6	6.2	2.74e-01	0	46	0	0	60	1048574
2026-01-17 06:38:49.80	342.65	18.18	-84.7	-88.6	5.8	2.79e-01	0	47	0	0	60	1048575
2026-01-17 06:38:50.81	342.44	18.12	-84.7	-88.6	5.6	2.79e-01	0	47	0	0	60	1048575
2026-01-17 06:38:51.82	342.23	18.06	-85.2	-88.6	5.9	2.79e-01	0	47	0	0	60	1048571
2026-01-17 06:38:52.82	342.02	18.01	-85.2	-88.6	6.2	2.75e-01	0	47	0	0	60	1048575
2026-01-17 06:38:53.83	341.81	17.95	-83.9	-88.6	5.9	2.79e-01	0	47	0	0	60	1048572
2026-01-17 06:38:54.83	341.61	17.89	-84.7	-88.6	6.4	2.82e-01	0	46	0	0	60	1048574
2026-01-17 06:38:55.84	341.40	17.84	-84.7	-88.6	5.3	2.78e-01	0	47	0	0	60	1048575
2026-01-17 06:38:56.85	341.20	17.78	-85.2	-88.6	5.6	2.79e-01	0	47	0	0	60	1048572
2026-01-17 06:38:57.85	340.99	17.72	-84.7	-88.6	5.3	2.81e-01	0	46	0	0	60	1048566
2026-01-17 06:38:58.86	340.79	17.66	-85.2	-88.6	6.5	2.79e-01	0	46	0	0	60	1048575
2026-01-17 06:38:59.87	340.58	17.60	-84.7	-88.6	6.1	2.82e-01	0	46	0	0	60	1048575
2026-01-17 06:39:00.88	340.38	17.55	-85.2	-88.6	5.9	2.77e-01	0	46	0	0	60	1048575
2026-01-17 06:39:01.89	340.18	17.49	-84.7	-88.6	6.1	2.78e-01	0	46	0	0	60	1048571
2026-01-17 06:39:02.89	339.98	17.43	-84.7	-88.6	6.5	2.74e-01	0	46	0	0	60	1048571
2026-01-17 06:39:03.90	339.78	17.37	-84.7	-88.6	5.4	2.74e-01	0	46	0	0	60	1048571
2026-01-17 06:39:04.90	339.58	17.31	-84.7	-88.6	6.3	2.75e-01	0	46	0	0	60	1048571
2026-01-17 06:39:05.90	339.38	17.25	-84.7	-88.6	6.1	2.80e-01	0	46	0	0	60	1048573
2026-01-17 06:39:06.90	339.19	17.19	-85.2	-88.6	5.9	2.78e-01	0	46	0	0	60	1048573
2026-01-17 06:39:07.91	338.99	17.13	-85.2	-88.6	5.7	2.76e-01	0	46	0	0	60	1048575
2026-01-17 06:39:08.91	338.80	17.07	-84.7	-88.6	6.2	2.78e-01	0	46	0	0	60	1048571
2026-01-17 06:39:09.92	338.60	17.01	-84.7	-88.6	6.2	2.75e-01	0	46	0	0	60	1048575
2026-01-17 06:39:10.93	338.41	16.95	-84.7	-88.6	5.9	2.80e-01	0	46	0	0	60	1048574
2026-01-17 06:39:11.93	338.21	16.89	-85.2	-88.6	5.4	2.80e-01	0	46	0	0	60	1048574
2026-01-17 06:39:12.93	338.02	16.83	-84.7	-88.6	5.9	2.75e-01	0	46	0	0	60	1048575
2026-01-17 06:39:13.94	337.83	16.77	-84.7	-88.6	6.1	2.80e-01	0	47	0	0	60	1048574
2026-01-17 06:39:14.95	337.64	16.71	-84.7	-88.6	5.6	2.77e-01	0	47	0	0	60	1048575
2026-01-17 06:39:15.95	337.45	16.65	-84.7	-88.6	6.0	2.80e-01	0	46	0	0	60	1048575
2026-01-17 06:39:16.96	337.26	16.58	-85.2	-88.6	6.0	2.75e-01	0	46	0	0	60	1048571
2026-01-17 06:39:17.96	337.07	16.52	-85.2	-88.6	6.5	2.75e-01	0	46	0	0	60	1048573
2026-01-17 06:39:18.97	336.88	16.46	-84.7	-88.6	6.4	2.78e-01	0	47	0	0	60	1048575
2026-01-17 06:39:19.98	336.69	16.40	-84.3	-88.6	6.4	2.78e-01	0	46	0	0	60	1048575
2026-01-17 06:39:20.98	336.51	16.34	-84.7	-88.6	5.8	2.75e-01	0	46	0	0	60	1048572
2026-01-17 06:39:21.99	336.32	16.27	-85.2	-88.6	5.9	2.76e-01	0	46	0	0	60	1048571
2026-01-17 06:39:22.99	336.14	16.21	-84.7	-88.6	6.2	2.78e-01	0	46	0	0	60	1048574
2026-01-17 06:39:24.00	335.95	16.15	-84.7	-88.6	6.0	2.70e-01	0	46	0	0	60	1048574
2026-01-17 06:39:25.01	335.77	16.09	-84.7	-88.6	6.4	2.77e-01	0	47	0	0	60	1048574
2026-01-17 06:39:26.01	335.59	16.02	-85.2	-88.6	5.6	2.78e-01	0	46	0	0	60	1048572
2026-01-17 06:39:27.02	335.41	15.96	-84.7	-88.6	6.1	2.81e-01	0	47	0	0	60	1048575
2026-01-17 06:39:28.03	335.23	15.90	-85.2	-88.6	5.7	2.79e-01	0	47	0	0	60	1048574
2026-01-17 06:39:29.04	335.04	15.83	-84.7	-88.6	6.2	2.73e-01	0	47	0	0	60	1048575
2026-01-17 06:39:30.04	334.87	15.77	-84.3	-88.6	6.1	2.79e-01	0	46	0	0	60	1048575
2026-01-17 06:39:31.05	334.69	15.71	-85.2	-88.6	6.4	2.75e-01	0	46	0	0	60	1048573
2026-01-17 06:39:32.05	334.51	15.64	-84.7	-88.6	5.5	2.76e-01	0	46	0	0	60	1048573
2026-01-17 06:39:33.06	334.33	15.58	-84.7	-88.6	5.7	2.78e-01	0	46	0	0	60	1048566
2026-01-17 06:39:34.07	334.16	15.51	-84.7	-88.6	6.3	2.75e-01	0	47	0	0	60	1048572
2026-01-17 06:39:35.08	333.98	15.45	-84.7	-88.6	6.5	2.74e-01	0	47	0	0	60	1048573
2026-01-17 06:39:36.08	333.81	15.39	-85.2	-88.6	5.9	2.73e-01	0	46	0	0	60	1048575
2026-01-17 06:39:37.09	333.63	15.32	-85.2	-88.6	6.0	2.77e-01	0	46	0	0	60	1048575
2026-01-17 06:39:38.09	333.46	15.26	-84.3	-88.6	6.2	2.76e-01	0	47	0	0	60	1048570
2026-01-17 06:39:39.10	333.29	15.19	-85.2	-88.6	6.4	2.78e-01	0	47	0	0	60	1048571
2026-01-17 06:39:40.10	333.12	15.13	-85.2	-88.6	6.0	2.78e-01	0	47	0	0	60	1048571
2026-01-17 06:39:41.11	332.94	15.06	-84.7	-88.6	5.8	2.76e-01	0	47	0	0	60	1048572
2026-01-17 06:39:42.12	332.77	15.00	-84.7	-88.6	6.0	2.77e-01	0	47	0	0	60	1048572
2026-01-17 06:39:43.12	332.60	14.93	-84.3	-88.6	6.1	2.78e-01	0	46	0	0	60	1048573
2026-01-17 06:39:44.13	332.44	14.87	-84.7	-88.6	5.6	2.72e-01	0	47	0	0	60	1048574
2026-01-17 06:39:45.14	332.27	14.80	-83.5	-88.6	5.9	2.75e-01	0	47	0	0	60	1048574
2026-01-17 06:39:46.15	332.10	14.74	-84.7	-88.6	6.6	2.72e-01	0	46	0	0	60	1048575
2026-01-17 06:39:47.16	331.93	14.67	-84.7	-88.6	6.4	2.74e-01	0	46	0	0	60	1048568
2026-01-17 06:39:48.17	331.77	14.61	-84.7	-88.6	5.4	2.78e-01	0	46	0	0	60	1048574
2026-01-17 06:39:49.18	331.60	14.54	-85.2	-88.6	5.9	2.79e-01	0	46	0	0	60	1048573
2026-01-17 06:39:50.18	331.44	14.48	-85.2	-88.6	6.0	2.77e-01	0	47	0	0	60	1048573
2026-01-17 06:39:51.19	331.27	14.41	-84.7	-88.6	5.8	2.74e-01	0	47	0	0	60	1048570
2026-01-17 06:39:52.19	331.11	14.35	-84.7	-88.6	5.8	2.77e-01	0	46	0	0	60	1048575
2026-01-17 06:39:53.20	330.95	14.28	-84.7	-88.6	5.8	2.75e-01	0	46	0	0	60	1048572
2026-01-17 06:39:54.21	330.79	14.22	-84.7	-88.6	5.5	2.78e-01	0	46	0	0	60	1048574
2026-01-17 06:39:55.21	330.63	14.15	-84.7	-88.6	6.1	2.79e-01	0	46	0	0	60	1048574
2026-01-17 06:39:56.22	330.47	14.09	-85.2	-88.6	6.1	2.77e-01	0	46	0	0	60	1048573
2026-01-17 06:39:57.23	330.31	14.02	-83.9	-88.6	6.4	2.77e-01	0	46	0	0	60	1048568
2026-01-17 06:39:58.23	330.15	13.95	-85.2	-88.6	6.1	2.73e-01	0	46	0	0	60	1048575
2026-01-17 06:39:59.24	329.99	13.89	-84.7	-88.6	6.0	2.77e-01	0	46	0	0	60	1048574
2026-01-17 06:40:00.25	329.83	13.82	-85.2	-88.6	5.8	2.76e-01	0	47	0	0	60	1048575
2026-01-17 06:40:01.26	329.68	13.76	-84.7	-88.6	6.3	2.78e-01	0	47	0	0	60	1048574
2026-01-17 06:40:02.27	329.52	13.69	-84.7	-88.6	6.3	2.77e-01	0	47	0	0	60	1048570
2026-01-17 06:40:03.27	329.37	13.62	-84.7	-88.6	6.1	2.80e-01	0	46	0	0	60	1048575
2026-01-17 06:40:04.28	329.21	13.56	-84.7	-88.6	5.8	2.81e-01	0	46	0	0	60	1048575
2026-01-17 06:40:05.29	329.06	13.49	-84.7	-88.6	5.8	2.78e-01	0	47	0	0	60	1048571
2026-01-17 06:40:06.29	328.91	13.43	-84.7	-88.6	6.2	2.80e-01	0	47	0	0	60	1048574
2026-01-17 06:40:07.30	328.75	13.36	-84.7	-88.6	5.8	2.72e-01	0	47	0	0	60	1048575
2026-01-17 06:40:08.31	328.60	13.29	-83.9	-88.6	6.4	2.75e-01	0	46	0	0	60	1048575
2026-01-17 06:40:09.31	328.45	13.23	-85.2	-88.6	6.1	2.79e-01	0	47	0	0	60	1048575
2026-01-17 06:40:10.31	328.30	13.16	-84.3	-88.6	5.7	2.80e-01	0	47	0	0	60	1048575
2026-01-17 06:40:11.32	328.15	13.10	-83.9	-88.6	3.2	7.57e-01	0	46	104	0	60	1048575
2026-01-17 06:40:12.33	328.00	13.03	-84.7	-88.6	3.7	7.62e-01	0	47	104	0	60	1048573
2026-01-17 06:40:13.33	327.86	12.96	-85.2	-88.6	3.7	7.62e-01	0	46	104	0	60	1048575
2026-01-17 06:40:14.34	327.71	12.90	-85.2	-88.6	2.9	7.61e-01	0	46	104	0	60	1048574
2026-01-17 06:40:15.35	327.56	12.83	-83.5	-88.6	2.9	7.63e-01	0	46	104	0	60	1048573
2026-01-17 06:40:16.35	327.42	12.77	-85.2	-88.6	3.3	7.63e-01	0	46	104	0	60	1048575
2026-01-17 06:40:17.36	327.27	12.70	-84.7	-88.6	3.5	7.64e-01	0	46	104	0	60	1048575
2026-01-17 06:40:18.36	327.13	12.63	-84.7	-88.6	3.0	7.63e-01	0	46	104	0	60	1048568
2026-01-17 06:40:19.37	326.98	12.57	-84.3	-88.6	3.1	7.64e-01	0	47	104	0	60	1048574
2026-01-17 06:40:20.37	326.84	12.50	-84.7	-88.6	3.7	7.62e-01	0	46	104	0	60	1048575
2026-01-17 06:40:21.38	326.70	12.44	-83.9	-88.6	3.2	7.65e-01	0	47	104	0	60	1048575
2026-01-17 06:40:22.39	326.55	12.37	-85.2	-88.6	3.4	7.63e-01	0	46	104	0	60	1048575
2026-01-17 06:40:23.40	326.41	12.30	-84.3	-88.6	3.3	7.63e-01	0	46	104	0	60	1048569
2026-01-17 06:40:24.40	326.27	12.24	-84.7	-88.6	2.9	7.63e-01	0	47	104	0	60	1048575
2026-01-17 06:40:25.41	326.13	12.17	-84.7	-88.6	2.8	7.64e-01	0	46	104	0	60	1048572
2026-01-17 06:40:26.42	325.99	12.10	-84.7	-88.6	3.7	7.63e-01	0	47	104	0	60	1048573
2026-01-17 06:40:27.43	325.85	12.04	-85.2	-88.6	3.0	7.63e-01	0	47	104	0	60	1048573
2026-01-17 06:40:28.43	325.71	11.97	-85.2	-88.6	3.1	7.64e-01	0	46	104	0	60	1048575
2026-01-17 06:40:29.43	325.58	11.91	-83.9	-88.6	2.8	7.63e-01	0	47	104	0	60	1048574
2026-01-17 06:40:30.44	325.44	11.84	-84.7	-88.6	3.6	7.63e-01	0	46	104	0	60	1048573
2026-01-17 06:40:31.45	325.30	11.77	-84.3	-88.6	2.7	7.63e-01	0	47	104	0	60	1048575
2026-01-17 06:40:32.45	325.17	11.71	-84.7	-88.6	2.7	7.64e-01	0	47	104	0	60	1048574
2026-01-17 06:40:33.46	325.03	11.64	-84.7	-88.6	3.6	7.63e-01	0	47	104	0	60	1048575
2026-01-17 06:40:34.47	324.90	11.58	-84.3	-88.6	3.4	7.63e-01	0	47	104	0	60	1048575
2026-01-17 06:40:35.47	324.77	11.51	-83.9	-88.6	3.0	7.63e-01	0	47	104	0	60	1048575
2026-01-17 06:40:36.48	324.63	11.44	-85.2	-88.6	2.9	7.64e-01	0	47	104	0	60	1048570
2026-01-17 06:40:37.48	324.50	11.38	-84.7	-88.6	3.2	7.63e-01	0	47	104	0	60	1048573
2026-01-17 06:40:38.49	324.37	11.31	-84.7	-88.6	3.7	7.64e-01	0	47	104	0	60	1048574
2026-01-17 06:40:39.50	324.24	11.25	-84.3	-88.6	2.9	7.63e-01	0	47	104	0	60	1048571
2026-01-17 06:40:40.51	324.10	11.18	-84.7	-88.6	3.5	7.63e-01	0	47	104	0	60	1048565
2026-01-17 06:40:41.51	323.98	11.12	-84.7	-88.6	3.3	7.63e-01	0	46	104	0	60	1048571
2026-01-17 06:40:42.52	323.85	11.05	-84.3	-88.6	3.2	7.63e-01	0	46	104	0	60	1048574
2026-01-17 06:40:43.52	323.72	10.98	-85.2	-88.6	3.5	7.63e-01	0	46	104	0	60	1048575
2026-01-17 06:40:44.53	323.59	10.92	-84.7	-88.6	3.6	7.55e-01	0	46	104	0	60	1048575
2026-01-17 06:40:45.53	323.46	10.85	-84.7	-88.6	2.9	7.63e-01	0	46	104	0	60	1048572
2026-01-17 06:40:46.54	323.33	10.79	-84.7	-88.6	2.9	7.63e-01	0	47	104	0	60	1048575
2026-01-17 06:40:47.55	323.21	10.72	-84.3	-88.6	3.3	7.63e-01	0	47	104	0	60	1048575
2026-01-17 06:40:48.55	323.08	10.66	-83.5	-88.6	3.1	7.64e-01	0	47	104	0	60	1048572
2026-01-17 06:40:49.56	322.96	10.59	-84.7	-88.6	2.8	7.64e-01	0	47	104	0	60	1048575
2026-01-17 06:40:50.57	322.83	10.52	-83.9	-88.6	3.1	7.64e-01	0	47	104	0	60	1048571
2026-01-17 06:40:51.58	322.71	10.46	-84.7	-88.6	3.5	7.62e-01	0	47	104	0	60	1048575
2026-01-17 06:40:52.59	322.58	10.39	-85.2	-88.6	3.6	7.64e-01	0	46	104	0	60	1048570
2026-01-17 06:40:53.59	322.46	10.33	-83.9	-88.6	3.1	7.65e-01	0	46	104	0	60	1048572
2026-01-17 06:40:54.60	322.34	10.26	-84.7	-88.6	3.6	7.63e-01	0	46	104	0	60	1048574
2026-01-17 06:40:55.61	322.21	10.20	-84.3	-88.6	3.1	7.63e-01	0	47	104	0	60	1048575
2026-01-17 06:40:56.62	322.09	10.13	-83.9	-88.6	3.1	7.62e-01	0	47	104	0	60	1048575
2026-01-17 06:40:57.62	321.97	10.07	-84.7	-88.6	3.3	7.63e-01	0	47	104	0	60	1048575
2026-01-17 06:40:58.63	321.85	10.00	-84.7	-88.6	3.3	7.65e-01	0	46	104	0	60	1048571
2026-01-17 06:40:59.64	321.73	9.94	-84.7	-88.6	3.0	7.61e-01	0	46	104	0	60	1048575
2026-01-17 06:41:00.64	321.61	9.87	-84.3	-88.6	3.2	7.63e-01	0	46	104	0	60	1048575
2026-01-17 06:41:01.65	321.49	9.81	-84.7	-88.6	3.7	7.63e-01	0	47	104	0	60	1048575
2026-01-17 06:41:02.66	321.37	9.74	-84.7	-88.6	3.4	7.63e-01	0	47	104	0	60	1048575
2026-01-17 06:41:03.66	321.26	9.68	-84.7	-88.6	3.1	7.64e-01	0	47	104	0	60	1048575
2026-01-17 06:41:04.67	321.14	9.61	-83.5	-88.6	3.0	7.64e-01	0	47	104	0	60	1048574
2026-01-17 06:41:05.68	321.02	9.55	-83.5	-88.6	2.8	7.63e-01	0	47	104	0	60	1048574
2026-01-17 06:41:06.68	320.91	9.48	-84.3	-88.6	2.9	7.63e-01	0	47	104	0	60	1048575
2026-01-17 06:41:07.69	320.79	9.42	-84.7	-88.6	3.0	7.63e-01	0	47	104	0	60	1048575
2026-01-17 06:41:08.69	320.68	9.35	-84.7	-88.6	3.0	7.64e-01	0	47	104	0	60	1048574
2026-01-17 06:41:09.70	320.56	9.29	-84.7	-88.6	3.7	7.64e-01	0	47	104	0	60	1048575
2026-01-17 06:41:10.70	320.45	9.22	-84.7	-88.6	3.0	7.64e-01	0	47	104	0	60	1048572
2026-01-17 06:41:11.71	320.33	9.16	-84.3	-88.6	3.2	7.64e-01	0	47	104	0	60	1048572
2026-01-17 06:41:12.72	320.22	9.10	-83.5	-88.6	3.2	7.61e-01	0	47	104	0	60	1048575
2026-01-17 06:41:13.73	320.11	9.03	-84.7	-88.6	2.9	7.63e-01	0	47	104	0	60	1048575
2026-01-17 06:41:14.74	320.00	8.97	-84.7	-88.6	2.8	7.64e-01	0	47	104	0	60	1048575
2026-01-17 06:41:15.74	319.89	8.90	-84.7	-88.6	2.9	7.64e-01	0	47	104	0	60	1048566
2026-01-17 06:41:16.75	319.77	8.84	-84.7	-88.6	2.8	7.63e-01	0	47	104	0	60	1048572
2026-01-17 06:41:17.76	319.66	8.77	-83.9	-88.6	3.0	7.64e-01	0	47	104	0	60	1048575
2026-01-17 06:41:18.77	319.55	8.71	-83.5	-88.6	3.6	7.63e-01	0	47	104	0	60	1048572
2026-01-17 06:41:19.77	319.44	8.65	-83.9	-88.6	2.9	7.64e-01	0	47	104	0	60	1048558
2026-01-17 06:41:20.78	319.34	8.58	-84.7	-88.6	3.0	7.64e-01	0	47	104	0	60	1048574
2026-01-17 06:41:21.79	319.23	8.52	-85.2	-88.6	3.0	7.63e-01	0	47	104	0	60	1048569
2026-01-17 06:41:22.80	319.12	8.45	-83.9	-88.6	3.3	7.62e-01	0	47	104	0	60	1048572
2026-01-17 06:41:23.81	319.01	8.39	-84.7	-88.6	3.0	7.65e-01	0	47	104	0	60	1048574
2026-01-17 06:41:24.81	318.90	8.33	-85.2	-88.6	3.0	7.63e-01	0	47	104	0	60	1048573
2026-01-17 06:41:25.82	318.80	8.26	-84.7	-88.6	3.0	7.64e-01	0	47	104	0	60	1048574
2026-01-17 06:41:26.83	318.69	8.20	-84.7	-88.6	3.3	7.65e-01	0	47	104	0	60	1048569
2026-01-17 06:41:27.84	318.58	8.14	-84.7	-88.6	2.9	7.61e-01	0	47	104	0	60	1048575
2026-01-17 06:41:28.84	318.48	8.07	-83.5	-88.6	3.4	7.63e-01	0	47	104	0	60	1048571
2026-01-17 06:41:29.85	318.38	8.01	-84.7	-88.6	3.1	7.64e-01	0	47	104	0	60	1048571
2026-01-17 06:41:30.85	318.27	7.95	-85.2	-88.6	3.1	7.63e-01	0	47	104	0	60	1048573
2026-01-17 06:41:31.86	318.17	7.88	-83.5	-88.6	2.9	7.64e-01	0	47	104	0	60	1048572
2026-01-17 06:41:32.86	318.07	7.82	-84.7	-88.6	3.6	7.62e-01	0	47	104	0	60	1048575
2026-01-17 06:41:33.87	317.96	7.76	-84.7	-88.6	3.1	7.64e-01	0	47	104	0	60	1048574
2026-01-17 06:41:34.87	317.86	7.69	-83.5	-88.6	3.2	7.62e-01	0	47	104	0	60	1048573
2026-01-17 06:41:35.88	317.76	7.63	-84.3	-88.6	3.2	7.64e-01	0	47	104	0	60	1048574
2026-01-17 06:41:36.88	317.66	7.57	-83.5	-88.6	3.0	7.64e-01	0	47	104	0	60	1048575
2026-01-17 06:41:37.89	317.56	7.51	-84.7	-88.6	2.9	7.64e-01	0	47	104	0	60	1048573
2026-01-17 06:41:38.89	317.46	7.44	-84.7	-88.6	3.0	7.63e-01	0	47	104	0	60	1048569
2026-01-17 06:41:39.90	317.36	7.38	-83.5	-88.6	3.1	7.64e-01	0	47	104	0	60	1048575
2026-01-17 06:41:40.91	317.26	7.32	-84.3	-88.6	2.9	7.63e-01	0	47	104	0	60	1048574
2026-01-17 06:41:41.92	317.16	7.25	-83.5	-88.6	3.0	7.63e-01	0	47	104	0	60	1048573
2026-01-17 06:41:42.92	317.06	7.19	-84.7	-88.6	3.2	7.63e-01	0	46	104	0	60	1048568
2026-01-17 06:41:43.93	316.96	7.13	-84.7	-88.6	3.4	7.64e-01	0	46	104	0	60	1048574
2026-01-17 06:41:44.94	316.86	7.07	-84.7	-88.6	3.2	7.62e-01	0	46	104	0	60	1048571
2026-01-17 06:41:45.95	316.76	7.00	-84.7	-88.6	3.2	7.63e-01	0	46	104	0	60	1048571
2026-01-17 06:41:46.96	316.67	6.94	-83.9	-88.6	2.9	7.64e-01	0	46	104	0	60	1048573
2026-01-17 06:41:47.97	316.57	6.88	-84.7	-88.6	3.0	7.63e-01	0	47	104	0	60	1048575
2026-01-17 06:41:48.97	316.47	6.82	-84.7	-88.6	3.0	7.63e-01	0	47	104	0	60	1048571
2026-01-17 06:41:49.98	316.38	6.76	-84.7	-88.6	3.8	7.63e-01	0	47	104	0	60	1048569
2026-01-17 06:41:50.98	316.28	6.70	-84.7	-88.6	3.4	7.63e-01	0	47	104	0	60	1048569
2026-01-17 06:41:51.99	316.19	6.63	-84.7	-88.6	2.8	7.63e-01	0	47	104	0	60	1048575
2026-01-17 06:41:53.00	316.09	6.57	-83.5	-88.6	2.9	7.64e-01	0	46	104	0	60	1048575
2026-01-17 06:41:54.00	316.00	6.51	-83.5	-88.6	3.0	7.63e-01	0	47	104	0	60	1048573
2026-01-17 06:41:55.01	315.91	6.45	-84.7	-88.6	2.9	7.63e-01	0	47	104	0	60	1048574
2026-01-17 06:41:56.01	315.81	6.39	-84.7	-88.6	2.8	7.63e-01	0	46	104	0	60	1048573
2026-01-17 06:41:57.02	315.72	6.33	-83.9	-88.6	3.2	7.64e-01	0	47	104	0	60	1048575
2026-01-17 06:41:58.02	315.63	6.26	-84.7	-88.6	3.3	7.64e-01	0	46	104	0	60	1048569
2026-01-17 06:41:59.03	315.54	6.20	-83.9	-88.6	2.9	7.60e-01	0	46	104	0	60	1048574
2026-01-17 06:42:00.04	315.45	6.14	-84.3	-88.6	3.3	7.60e-01	0	47	104	0	60	1048575
2026-01-17 06:42:01.04	315.35	6.08	-84.7	-88.6	3.0	7.63e-01	0	47	104	0	60	1048571
2026-01-17 06:42:02.05	315.26	6.02	-84.7	-88.6	3.2	7.62e-01	0	47	104	0	60	1048574
2026-01-17 06:42:03.06	315.17	5.96	-85.2	-88.6	3.7	7.61e-01	0	47	104	0	60	1048575
2026-01-17 06:42:04.06	315.08	5.90	-84.7	-88.6	3.6	7.63e-01	0	47	104	0	60	1048571
2026-01-17 06:42:05.07	314.99	5.84	-84.3	-88.6	3.1	7.63e-01	0	47	104	0	60	1048572
2026-01-17 06:42:06.08	314.90	5.78	-84.7	-88.6	2.8	7.64e-01	0	47	104	0	60	1048575
2026-01-17 06:42:07.08	314.82	5.72	-84.7	-88.6	3.4	7.64e-01	0	46	104	0	60	1048572
2026-01-17 06:42:08.08	314.73	5.66	-83.9	-88.6	3.7	7.62e-01	0	47	104	0	60	1048565
2026-01-17 06:42:09.09	314.64	5.59	-84.7	-88.6	3.0	7.62e-01	0	47	104	0	60	1048575
2026-01-17 06:42:10.10	314.55	5.53	-84.7	-88.6	2.9	7.62e-01	0	47	104	0	60	1048575
2026-01-17 06:42:11.10	314.46	5.47	-84.7	-88.6	3.0	7.63e-01	0	47	104	0	60	1048567
2026-01-17 06:42:12.11	314.38	5.41	-84.7	-88.6	3.0	7.63e-01	0	47	104	0	60	1048562
2026-01-17 06:42:13.11	314.29	5.35	-85.2	-88.6	3.3	7.63e-01	0	47	104	0	60	1048575
2026-01-17 06:42:14.12	314.20	5.29	-83.5	-88.6	3.5	7.63e-01	0	47	104	0	60	1048575
2026-01-17 06:42:15.13	314.12	5.23	-83.9	-88.6	2.8	7.64e-01	0	47	104	0	60	1048575
2026-01-17 06:42:16.13	314.03	5.17	-84.7	-88.6	3.1	7.62e-01	0	47	104	0	60	1048574
2026-01-17 06:42:17.14	313.95	5.11	-84.7	-88.6	3.8	7.62e-01	0	47	104	0	60	1048575
2026-01-17 06:42:18.15	313.86	5.05	-83.9	-88.6	3.5	7.63e-01	0	47	104	0	60	1048574
2026-01-17 06:42:19.16	313.78	4.99	-84.7	-88.6	3.2	7.64e-01	0	47	104	0	60	1048575
2026-01-17 06:42:20.17	313.69	4.93	-84.7	-88.6	3.0	7.62e-01	0	47	104	0	60	1048571
2026-01-17 06:42:21.17	313.61	4.87	-84.7	-88.6	3.1	7.63e-01	0	47	104	0	60	1048575
2026-01-17 06:42:22.17	313.53	4.81	-83.5	-88.6	3.0	7.62e-01	0	47	104	0	60	1048575
2026-01-17 06:42:23.18	313.45	4.75	-84.7	-88.6	3.4	7.62e-01	0	47	104	0	60	1048569
2026-01-17 06:42:24.19	313.36	4.69	-85.2	-88.6	3.4	7.64e-01	0	47	104	0	60	1048575
2026-01-17 06:42:25.19	313.28	4.64	-84.7	-88.6	3.1	7.63e-01	0	47	104	0	60	1048575
2026-01-17 06:42:26.20	313.20	4.58	-83.9	-88.6	2.7	7.63e-01	0	47	104	0	60	1048571
2026-01-17 06:42:27.20	313.12	4.52	-84.7	-88.6	3.7	7.55e-01	0	47	104	0	60	1048573
2026-01-17 06:42:28.21	313.04	4.46	-83.5	-88.6	3.3	7.63e-01	0	47	104	0	60	1048569
2026-01-17 06:42:29.22	312.95	4.40	-85.2	-88.6	3.0	7.64e-01	0	46	104	0	60	1048568
2026-01-17 06:42:30.23	312.87	4.34	-84.7	-88.6	3.0	7.64e-01	0	46	104	0	60	1048574
2026-01-17 06:42:31.24	312.79	4.28	-84.7	-88.6	3.6	7.63e-01	0	46	104	0	60	1048575
2026-01-17 06:42:32.24	312.71	4.22	-84.3	-88.6	3.8	7.64e-01	0	47	104	0	60	1048575
2026-01-17 06:42:33.25	312.63	4.16	-83.5	-88.6	2.6	7.63e-01	0	47	104	0	60	1048574
2026-01-17 06:42:34.25	312.56	4.11	-83.9	-88.6	3.1	7.65e-01	0	47	104	0	60	1048574
