passes_logs/2026/01/17/R3.2S-Naryan-Mar/R3.2S-Naryan-Mar__20260117_094534_TY-41_rec.log

#Pass ID: 20260117_094534_TY-41
#Satellite: TY-41
#Configuration: TY-39
#almurnet v.1.7.20240730
#Start time: 2026-01-17 09:45:37

#Version: 2.2.20231116
#Station: R3.2S-Naryan-Mar
#Location: 53.008057 lon 67.646978 lat
#TLE: 1 61231U 24173E   26017.08983796  .00008010  00000-0  38191-3 0 09990
#TLE: 2 61231 097.4122 092.0846 0001831 091.8622 061.7654 15.19167953 72814

#Time	Az	El	Level	Level2	SNR	BER	BlckErr	Temp	State	Recorded	gain1	gain2
2026-01-17 09:45:37.62	23.07	0.17	-85.2	-88.6	3.2	1.56e+00	0	44	0	0	60	1048575
2026-01-17 09:45:38.62	23.00	0.22	-83.5	-79.0	2.5	0.00e+00	0	46	104	0	60	1048575
2026-01-17 09:45:39.63	22.94	0.29	-82.8	-79.0	2.4	0.00e+00	0	46	104	0	60	1048575
2026-01-17 09:45:40.63	22.88	0.34	-83.5	-79.0	2.4	0.00e+00	0	46	104	0	60	1048570
2026-01-17 09:45:41.63	22.81	0.40	-83.5	-79.0	2.3	0.00e+00	0	46	104	0	60	1048574
2026-01-17 09:45:42.64	22.75	0.47	-83.5	-79.0	2.4	0.00e+00	0	46	104	0	60	1048575
2026-01-17 09:45:43.65	22.68	0.53	-83.5	-79.0	2.4	0.00e+00	0	46	104	0	60	1048566
2026-01-17 09:45:44.66	22.62	0.59	-83.1	-79.0	2.5	0.00e+00	0	46	104	0	60	1048570
2026-01-17 09:45:45.67	22.55	0.65	-83.5	-79.0	2.5	0.00e+00	0	46	104	0	60	1048573
2026-01-17 09:45:46.67	22.49	0.71	-83.5	-79.0	2.7	0.00e+00	0	46	104	0	60	1048575
2026-01-17 09:45:47.68	22.42	0.77	-83.5	-79.0	2.2	0.00e+00	0	46	104	0	60	1048573
2026-01-17 09:45:48.68	22.35	0.83	-82.8	-79.0	2.4	0.00e+00	0	46	104	0	60	1048572
2026-01-17 09:45:49.69	22.29	0.89	-83.1	-79.0	2.5	0.00e+00	0	46	104	0	60	1048575
2026-01-17 09:45:50.69	22.22	0.95	-83.1	-79.0	2.5	0.00e+00	0	46	104	0	60	1048574
2026-01-17 09:45:51.70	22.15	1.02	-83.5	-79.0	2.4	0.00e+00	0	46	104	0	60	1048571
2026-01-17 09:45:52.71	22.08	1.08	-83.5	-79.0	2.4	0.00e+00	0	46	104	0	60	1048575
2026-01-17 09:45:53.72	22.01	1.14	-83.1	-79.0	2.4	0.00e+00	0	46	104	0	60	1048573
2026-01-17 09:45:54.72	21.94	1.20	-83.1	-79.0	2.5	0.00e+00	0	46	104	0	60	1048575
2026-01-17 09:45:55.73	21.87	1.26	-83.5	-79.0	2.2	0.00e+00	0	46	104	0	60	1048575
2026-01-17 09:45:56.74	21.80	1.33	-83.1	-79.0	2.5	0.00e+00	0	46	104	0	60	1048575
2026-01-17 09:45:57.75	21.73	1.39	-83.5	-79.0	2.4	0.00e+00	0	46	104	0	60	1048574
2026-01-17 09:45:58.75	21.66	1.45	-83.1	-79.0	2.5	0.00e+00	0	46	104	0	60	1048567
2026-01-17 09:45:59.76	21.59	1.51	-83.5	-79.0	2.4	0.00e+00	0	46	104	0	60	1048569
2026-01-17 09:46:00.77	21.52	1.58	-83.5	-79.0	2.5	0.00e+00	0	46	104	0	60	1048574
2026-01-17 09:46:01.77	21.45	1.64	-83.5	-79.0	2.3	0.00e+00	0	46	104	0	60	1048574
2026-01-17 09:46:02.78	21.38	1.70	-83.1	-79.0	2.4	0.00e+00	0	46	104	0	60	1048570
2026-01-17 09:46:03.79	21.30	1.77	-83.1	-79.0	2.4	0.00e+00	0	46	104	0	60	1048575
2026-01-17 09:46:04.79	21.23	1.83	-83.5	-79.0	2.3	0.00e+00	0	46	104	0	60	1048575
2026-01-17 09:46:05.80	21.16	1.89	-83.5	-79.0	2.5	0.00e+00	0	46	104	0	60	1048574
2026-01-17 09:46:06.80	21.08	1.96	-83.5	-79.0	2.4	0.00e+00	0	46	104	0	60	1048575
2026-01-17 09:46:07.80	21.01	2.02	-82.8	-79.0	2.4	0.00e+00	0	47	104	0	60	1048574
2026-01-17 09:46:08.80	20.94	2.08	-83.1	-79.0	2.3	0.00e+00	0	47	104	0	60	1048568
2026-01-17 09:46:09.81	20.86	2.15	-83.5	-79.0	2.5	0.00e+00	0	47	104	0	60	1048572
2026-01-17 09:46:10.82	20.78	2.21	-83.5	-79.0	2.4	0.00e+00	0	47	104	0	60	1048574
2026-01-17 09:46:11.83	20.71	2.28	-83.5	-79.0	2.5	0.00e+00	0	47	104	0	60	1048570
2026-01-17 09:46:12.83	20.63	2.34	-83.1	-79.0	2.5	0.00e+00	0	47	104	0	60	1048574
2026-01-17 09:46:13.84	20.55	2.41	-83.5	-79.0	2.4	0.00e+00	0	47	104	0	60	1048571
2026-01-17 09:46:14.85	20.48	2.47	-83.5	-79.0	2.4	0.00e+00	0	47	104	0	60	1048566
2026-01-17 09:46:15.85	20.40	2.54	-83.5	-79.0	2.3	0.00e+00	0	47	104	0	60	1048569
2026-01-17 09:46:16.85	20.32	2.60	-83.5	-79.0	2.3	0.00e+00	0	47	104	0	60	1048570
2026-01-17 09:46:17.85	20.24	2.67	-83.1	-79.0	2.3	0.00e+00	0	47	104	0	60	1048575
2026-01-17 09:46:18.86	20.16	2.73	-83.5	-79.0	2.5	0.00e+00	0	47	104	0	60	1048573
2026-01-17 09:46:19.86	20.08	2.80	-83.5	-79.0	2.3	0.00e+00	0	47	104	0	60	1048573
2026-01-17 09:46:20.86	20.00	2.86	-83.5	-79.0	2.1	0.00e+00	0	47	104	0	60	1048574
2026-01-17 09:46:21.87	19.92	2.93	-83.1	-79.0	2.6	0.00e+00	0	47	104	0	60	1048573
2026-01-17 09:46:22.88	19.84	2.99	-83.1	-79.0	2.4	0.00e+00	0	47	104	0	60	1048575
2026-01-17 09:46:23.88	19.76	3.06	-83.5	-79.0	2.5	0.00e+00	0	47	104	0	60	1048572
2026-01-17 09:46:24.89	19.68	3.13	-83.5	-79.0	2.3	0.00e+00	0	47	104	0	60	1048571
2026-01-17 09:46:25.89	19.60	3.19	-83.5	-79.0	2.5	0.00e+00	0	47	104	0	60	1048571
2026-01-17 09:46:26.90	19.51	3.26	-82.8	-79.0	2.4	0.00e+00	0	47	104	0	60	1048575
2026-01-17 09:46:27.91	19.43	3.33	-83.1	-79.0	2.5	0.00e+00	0	47	104	0	60	1048575
2026-01-17 09:46:28.91	19.34	3.39	-83.5	-79.0	2.4	0.00e+00	0	47	104	0	60	1048572
2026-01-17 09:46:29.92	19.26	3.46	-82.8	-79.0	2.4	0.00e+00	0	47	104	0	60	1048575
2026-01-17 09:46:30.92	19.17	3.53	-83.5	-79.0	2.3	0.00e+00	0	47	104	0	60	1048571
2026-01-17 09:46:31.93	19.09	3.60	-82.8	-79.0	2.4	0.00e+00	0	47	104	0	60	1048573
2026-01-17 09:46:32.94	19.00	3.66	-83.5	-79.0	2.4	0.00e+00	0	47	104	0	60	1048575
2026-01-17 09:46:33.94	18.91	3.73	-83.5	-79.0	2.5	0.00e+00	0	47	104	0	60	1048575
2026-01-17 09:46:34.95	18.83	3.80	-83.5	-79.0	2.4	0.00e+00	0	47	104	0	60	1048574
2026-01-17 09:46:35.95	18.74	3.87	-83.5	-79.0	2.3	0.00e+00	0	47	104	0	60	1048574
2026-01-17 09:46:36.96	18.65	3.94	-83.1	-79.0	2.4	0.00e+00	0	47	104	0	60	1048574
2026-01-17 09:46:37.97	18.56	4.01	-83.1	-79.0	2.4	0.00e+00	0	47	104	0	60	1048572
2026-01-17 09:46:38.97	18.47	4.07	-83.5	-79.0	2.4	0.00e+00	0	47	104	0	60	1048575
2026-01-17 09:46:39.98	18.38	4.14	-83.5	-79.0	2.4	0.00e+00	0	47	104	0	60	1048574
2026-01-17 09:46:40.99	18.29	4.21	-83.1	-79.0	2.4	0.00e+00	0	47	104	0	60	1048572
2026-01-17 09:46:42.00	18.20	4.28	-83.5	-79.0	2.4	0.00e+00	0	47	104	0	60	1048573
2026-01-17 09:46:43.01	18.11	4.35	-83.5	-79.0	2.5	0.00e+00	0	47	104	0	60	1048573
2026-01-17 09:46:44.02	18.01	4.42	-83.1	-79.0	2.4	0.00e+00	0	47	104	0	60	1048572
2026-01-17 09:46:45.02	17.92	4.49	-83.5	-79.0	2.5	0.00e+00	0	47	104	0	60	1048568
2026-01-17 09:46:46.03	17.83	4.56	-83.1	-79.0	2.4	0.00e+00	0	47	104	0	60	1048575
2026-01-17 09:46:47.04	17.73	4.63	-83.5	-79.0	2.3	0.00e+00	0	47	104	0	60	1048574
2026-01-17 09:46:48.04	17.64	4.70	-83.5	-79.0	2.5	0.00e+00	0	47	104	0	60	1048575
2026-01-17 09:46:49.05	17.54	4.77	-83.5	-79.0	2.3	0.00e+00	0	47	104	0	60	1048575
2026-01-17 09:46:50.05	17.45	4.84	-83.1	-79.0	2.5	0.00e+00	0	47	104	0	60	1048575
2026-01-17 09:46:51.06	17.35	4.91	-83.1	-79.0	2.3	0.00e+00	0	47	104	0	60	1048571
2026-01-17 09:46:52.07	17.25	4.99	-83.5	-79.0	2.4	0.00e+00	0	47	104	0	60	1048571
2026-01-17 09:46:53.08	17.16	5.06	-83.5	-79.0	2.5	0.00e+00	0	47	104	0	60	1048575
2026-01-17 09:46:54.09	17.06	5.13	-83.5	-79.0	2.3	0.00e+00	0	47	104	0	60	1048574
2026-01-17 09:46:55.09	16.96	5.20	-83.5	-79.0	2.4	0.00e+00	0	47	104	0	60	1048574
2026-01-17 09:46:56.10	16.86	5.27	-83.1	-79.0	2.3	0.00e+00	0	47	104	0	60	1048569
2026-01-17 09:46:57.11	16.76	5.35	-83.5	-79.0	2.4	0.00e+00	0	47	104	0	60	1048575
2026-01-17 09:46:58.11	16.66	5.42	-83.5	-79.0	2.3	0.00e+00	0	47	104	0	60	1048573
2026-01-17 09:46:59.12	16.56	5.49	-83.5	-79.0	2.4	0.00e+00	0	47	104	0	60	1048569
2026-01-17 09:47:00.13	16.45	5.56	-83.1	-79.0	2.2	0.00e+00	0	47	104	0	60	1048574
2026-01-17 09:47:01.14	16.35	5.64	-83.1	-79.0	2.4	0.00e+00	0	47	104	0	60	1048571
2026-01-17 09:47:02.15	16.24	5.71	-83.5	-79.0	2.4	0.00e+00	0	47	104	0	60	1048567
2026-01-17 09:47:03.15	16.14	5.78	-83.5	-79.0	2.3	0.00e+00	0	47	104	0	60	1048571
2026-01-17 09:47:04.16	16.04	5.86	-83.5	-79.0	2.4	0.00e+00	0	47	104	0	60	1048573
2026-01-17 09:47:05.17	15.93	5.93	-83.1	-79.0	2.4	0.00e+00	0	47	104	0	60	1048572
2026-01-17 09:47:06.17	15.82	6.00	-83.1	-79.0	2.4	0.00e+00	0	47	104	0	60	1048568
2026-01-17 09:47:07.18	15.72	6.08	-83.5	-79.0	2.4	0.00e+00	0	47	104	0	60	1048574
2026-01-17 09:47:08.19	15.61	6.15	-83.5	-79.0	2.3	0.00e+00	0	47	104	0	60	1048573
2026-01-17 09:47:09.19	15.50	6.23	-83.1	-79.0	2.4	0.00e+00	0	47	104	0	60	1048574
2026-01-17 09:47:10.20	15.39	6.30	-83.1	-79.0	2.4	0.00e+00	0	47	104	0	60	1048574
2026-01-17 09:47:11.21	15.28	6.38	-83.5	-79.0	2.5	0.00e+00	0	47	104	0	60	1048574
2026-01-17 09:47:12.21	15.17	6.45	-83.5	-79.0	2.4	0.00e+00	0	47	104	0	60	1048575
2026-01-17 09:47:13.22	15.06	6.53	-83.5	-79.0	2.5	0.00e+00	0	47	104	0	60	1048573
2026-01-17 09:47:14.23	14.95	6.60	-83.5	-79.0	2.3	0.00e+00	0	47	104	0	60	1048570
2026-01-17 09:47:15.23	14.83	6.68	-83.5	-79.0	2.4	0.00e+00	0	47	104	0	60	1048567
2026-01-17 09:47:16.24	14.72	6.75	-83.5	-79.0	2.3	0.00e+00	0	47	104	0	60	1048575
2026-01-17 09:47:17.25	14.60	6.83	-83.5	-79.0	2.4	0.00e+00	0	48	104	0	60	1048573
2026-01-17 09:47:18.26	14.49	6.91	-83.5	-79.0	2.4	0.00e+00	0	47	104	0	60	1048570
2026-01-17 09:47:19.26	14.37	6.98	-82.8	-79.0	2.6	0.00e+00	0	48	104	0	60	1048569
2026-01-17 09:47:20.27	14.26	7.06	-83.1	-79.0	2.3	0.00e+00	0	47	104	0	60	1048575
2026-01-17 09:47:21.28	14.14	7.14	-83.5	-79.0	2.5	0.00e+00	0	47	104	0	60	1048575
2026-01-17 09:47:22.29	14.02	7.21	-83.5	-79.0	2.3	0.00e+00	0	48	104	0	60	1048575
2026-01-17 09:47:23.30	13.90	7.29	-83.5	-79.0	2.5	0.00e+00	0	47	104	0	60	1048575
2026-01-17 09:47:24.30	13.78	7.37	-82.8	-79.0	2.3	0.00e+00	0	48	104	0	60	1048573
2026-01-17 09:47:25.31	13.66	7.45	-83.5	-79.0	2.4	0.00e+00	0	47	104	0	60	1048575
2026-01-17 09:47:26.31	13.54	7.52	-83.5	-79.0	2.4	0.00e+00	0	47	104	0	60	1048570
2026-01-17 09:47:27.32	13.41	7.60	-83.5	-79.0	2.5	0.00e+00	0	47	104	0	60	1048570
2026-01-17 09:47:28.33	13.29	7.68	-83.5	-79.0	2.4	0.00e+00	0	47	104	0	60	1048571
2026-01-17 09:47:29.33	13.17	7.76	-83.1	-79.0	2.4	0.00e+00	0	48	104	0	60	1048575
2026-01-17 09:47:30.34	13.04	7.84	-83.5	-79.0	2.4	0.00e+00	0	48	104	0	60	1048573
2026-01-17 09:47:31.34	12.92	7.92	-83.5	-79.0	2.5	0.00e+00	0	48	104	0	60	1048575
2026-01-17 09:47:32.35	12.79	7.99	-83.5	-79.0	2.4	0.00e+00	0	47	104	0	60	1048575
2026-01-17 09:47:33.36	12.66	8.07	-83.1	-79.0	2.5	0.00e+00	0	48	104	0	60	1048564
2026-01-17 09:47:34.37	12.53	8.15	-83.1	-79.0	2.4	0.00e+00	0	48	104	0	60	1048573
2026-01-17 09:47:35.37	12.40	8.23	-83.5	-79.0	2.5	0.00e+00	0	48	104	0	60	1048575
2026-01-17 09:47:36.38	12.27	8.31	-83.5	-79.0	2.5	0.00e+00	0	48	104	0	60	1048575
2026-01-17 09:47:37.38	12.14	8.39	-83.5	-79.0	2.5	0.00e+00	0	48	104	0	60	1048573
2026-01-17 09:47:38.39	12.01	8.47	-83.1	-79.0	2.3	0.00e+00	0	48	104	0	60	1048575
2026-01-17 09:47:39.39	11.88	8.55	-83.5	-79.0	2.4	0.00e+00	0	48	104	0	60	1048575
2026-01-17 09:47:40.40	11.74	8.64	-83.5	-79.0	2.5	0.00e+00	0	48	104	0	60	1048574
2026-01-17 09:47:41.41	11.61	8.72	-83.5	-79.0	2.5	0.00e+00	0	48	104	0	60	1048575
2026-01-17 09:47:42.41	11.47	8.80	-83.1	-79.0	2.4	0.00e+00	0	48	104	0	60	1048574
2026-01-17 09:47:43.42	11.33	8.88	-82.8	-79.0	2.5	0.00e+00	0	48	104	0	60	1048572
2026-01-17 09:47:44.43	11.20	8.96	-83.5	-79.0	2.5	0.00e+00	0	48	104	0	60	1048559
2026-01-17 09:47:45.43	11.06	9.04	-83.5	-79.0	2.3	0.00e+00	0	48	104	0	60	1048575
2026-01-17 09:47:46.44	10.92	9.13	-83.5	-79.0	2.3	0.00e+00	0	48	104	0	60	1048575
2026-01-17 09:47:47.45	10.78	9.21	-83.5	-79.0	2.5	0.00e+00	0	48	104	0	60	1048568
2026-01-17 09:47:48.45	10.63	9.29	-83.1	-79.0	2.3	0.00e+00	0	48	104	0	60	1048573
2026-01-17 09:47:49.46	10.49	9.37	-83.5	-79.0	2.4	0.00e+00	0	48	104	0	60	1048568
2026-01-17 09:47:50.47	10.35	9.46	-83.5	-79.0	2.4	0.00e+00	0	48	104	0	60	1048574
2026-01-17 09:47:51.47	10.20	9.54	-83.5	-79.0	2.5	0.00e+00	0	48	104	0	60	1048572
2026-01-17 09:47:52.48	10.06	9.62	-83.1	-79.0	2.4	0.00e+00	0	48	104	0	60	1048570
2026-01-17 09:47:53.49	9.91	9.71	-83.5	-79.0	2.5	0.00e+00	0	48	104	0	60	1048575
2026-01-17 09:47:54.50	9.76	9.79	-83.5	-79.0	2.4	0.00e+00	0	48	104	0	60	1048573
2026-01-17 09:47:55.50	9.61	9.88	-83.5	-79.0	2.4	0.00e+00	0	48	104	0	60	1048573
2026-01-17 09:47:56.51	9.46	9.96	-83.5	-79.0	2.5	0.00e+00	0	48	104	0	60	1048571
2026-01-17 09:47:57.52	9.31	10.05	-83.1	-79.0	2.3	0.00e+00	0	48	104	0	60	1048575
2026-01-17 09:47:58.53	9.15	10.13	-83.5	-79.0	2.4	0.00e+00	0	48	104	0	60	1048569
2026-01-17 09:47:59.54	9.00	10.22	-83.5	-79.0	2.5	0.00e+00	0	48	104	0	60	1048572
2026-01-17 09:48:00.54	8.85	10.30	-83.5	-79.0	2.4	0.00e+00	0	48	104	0	60	1048574
2026-01-17 09:48:01.54	8.69	10.39	-83.5	-79.0	2.3	0.00e+00	0	48	104	0	60	1048570
2026-01-17 09:48:02.55	8.53	10.47	-83.1	-79.0	2.3	0.00e+00	0	48	104	0	60	1048575
2026-01-17 09:48:03.56	8.38	10.56	-83.5	-79.0	2.3	0.00e+00	0	48	104	0	60	1048575
2026-01-17 09:48:04.57	8.22	10.64	-83.5	-79.0	2.3	0.00e+00	0	48	104	0	60	1048574
2026-01-17 09:48:05.58	8.05	10.73	-83.5	-79.0	2.4	0.00e+00	0	48	104	0	60	1048571
2026-01-17 09:48:06.59	7.89	10.82	-83.1	-79.0	2.4	0.00e+00	0	48	104	0	60	1048572
2026-01-17 09:48:07.59	7.73	10.90	-83.1	-79.0	2.4	0.00e+00	0	48	104	0	60	1048574
2026-01-17 09:48:08.60	7.57	10.99	-83.5	-79.0	2.5	0.00e+00	0	48	104	0	60	1048573
2026-01-17 09:48:09.61	7.40	11.08	-83.5	-79.0	2.4	0.00e+00	0	48	104	0	60	1048569
2026-01-17 09:48:10.62	7.23	11.17	-83.5	-79.0	2.5	0.00e+00	0	48	104	0	60	1048575
2026-01-17 09:48:11.63	7.06	11.25	-83.1	-79.0	2.4	0.00e+00	0	48	104	0	60	1048571
2026-01-17 09:48:12.63	6.90	11.34	-83.5	-79.0	2.5	0.00e+00	0	48	104	0	60	1048571
2026-01-17 09:48:13.64	6.73	11.43	-83.5	-79.0	2.4	0.00e+00	0	48	104	0	60	1048573
2026-01-17 09:48:14.65	6.55	11.52	-83.5	-79.0	2.2	0.00e+00	0	48	104	0	60	1048574
2026-01-17 09:48:15.65	6.38	11.61	-83.5	-79.0	2.5	0.00e+00	0	48	104	0	60	1048572
2026-01-17 09:48:16.65	6.21	11.69	-83.1	-79.0	2.2	0.00e+00	0	48	104	0	60	1048575
2026-01-17 09:48:17.66	6.03	11.78	-83.5	-79.0	2.3	0.00e+00	0	48	104	0	60	1048569
2026-01-17 09:48:18.66	5.86	11.87	-83.5	-79.0	2.3	0.00e+00	0	48	104	0	60	1048575
2026-01-17 09:48:19.66	5.68	11.96	-83.5	-79.0	2.4	0.00e+00	0	48	104	0	60	1048574
2026-01-17 09:48:20.67	5.50	12.05	-83.1	-79.0	2.5	0.00e+00	0	48	104	0	60	1048574
2026-01-17 09:48:21.68	5.32	12.14	-83.1	-79.0	2.4	0.00e+00	0	48	104	0	60	1048575
2026-01-17 09:48:22.68	5.14	12.23	-83.5	-79.0	2.4	0.00e+00	0	48	104	0	60	1048574
2026-01-17 09:48:23.69	4.95	12.32	-83.5	-79.0	2.4	0.00e+00	0	48	104	0	60	1048575
2026-01-17 09:48:24.70	4.77	12.41	-83.5	-79.0	2.5	0.00e+00	0	48	104	0	60	1048575
2026-01-17 09:48:25.70	4.58	12.50	-83.5	-79.0	2.3	0.00e+00	0	48	104	0	60	1048569
2026-01-17 09:48:26.70	4.40	12.59	-83.5	-79.0	2.5	0.00e+00	0	48	104	0	60	1048570
2026-01-17 09:48:27.71	4.21	12.68	-83.5	-79.0	2.3	0.00e+00	0	48	104	0	60	1048575
2026-01-17 09:48:28.71	4.02	12.77	-83.5	-79.0	2.5	0.00e+00	0	48	104	0	60	1048574
2026-01-17 09:48:29.72	3.82	12.86	-83.1	-79.0	2.4	0.00e+00	0	48	104	0	60	1048573
2026-01-17 09:48:30.73	3.63	12.95	-83.1	-79.0	2.4	0.00e+00	0	48	104	0	60	1048575
2026-01-17 09:48:31.74	3.44	13.04	-83.5	-79.0	2.4	0.00e+00	0	48	104	0	60	1048575
2026-01-17 09:48:32.74	3.24	13.13	-83.5	-79.0	2.5	0.00e+00	0	48	104	0	60	1048573
2026-01-17 09:48:33.75	3.04	13.23	-83.5	-79.0	2.5	0.00e+00	0	48	104	0	60	1048575
2026-01-17 09:48:34.76	2.84	13.32	-83.5	-79.0	2.5	0.00e+00	0	48	104	0	60	1048575
2026-01-17 09:48:35.76	2.64	13.41	-83.1	-79.0	2.4	0.00e+00	0	48	104	0	60	1048573
2026-01-17 09:48:36.76	2.44	13.50	-83.5	-79.0	2.4	0.00e+00	0	48	104	0	60	1048574
2026-01-17 09:48:37.77	2.24	13.59	-83.5	-79.0	2.4	0.00e+00	0	48	104	0	60	1048575
2026-01-17 09:48:38.78	2.03	13.69	-83.5	-79.0	2.5	0.00e+00	0	48	104	0	60	1048575
2026-01-17 09:48:39.79	1.82	13.78	-83.1	-79.0	2.4	0.00e+00	0	48	104	0	60	1048575
2026-01-17 09:48:40.79	1.62	13.87	-83.1	-79.0	2.4	0.00e+00	0	48	104	0	60	1048573
2026-01-17 09:48:41.80	1.41	13.96	-83.1	-79.0	2.4	0.00e+00	0	48	104	0	60	1048573
2026-01-17 09:48:42.81	1.19	14.06	-83.5	-79.0	2.5	0.00e+00	0	48	104	0	60	1048572
2026-01-17 09:48:43.82	0.98	14.15	-83.5	-79.0	2.4	0.00e+00	0	48	104	0	60	1048575
2026-01-17 09:48:44.82	0.77	14.24	-83.1	-79.0	2.5	0.00e+00	0	48	104	0	60	1048575
2026-01-17 09:48:45.83	0.55	14.34	-83.1	-79.0	2.4	0.00e+00	0	48	104	0	60	1048574
2026-01-17 09:48:46.83	0.33	14.43	-83.5	-79.0	2.5	0.00e+00	0	48	104	0	60	1048571
2026-01-17 09:48:47.84	0.11	14.52	-83.1	-79.0	2.3	0.00e+00	0	48	104	0	60	1048575
2026-01-17 09:48:48.85	359.89	14.62	-83.5	-79.0	2.4	0.00e+00	0	48	104	0	60	1048570
2026-01-17 09:48:49.85	359.67	14.71	-82.8	-79.0	2.1	0.00e+00	0	48	104	0	60	1048573
2026-01-17 09:48:50.86	359.44	14.80	-83.5	-79.0	2.4	0.00e+00	0	48	104	0	60	1048572
2026-01-17 09:48:51.87	359.21	14.90	-83.5	-79.0	2.2	0.00e+00	0	48	104	0	60	1048572
2026-01-17 09:48:52.87	358.99	14.99	-83.5	-79.0	2.4	0.00e+00	0	48	104	0	60	1048573
2026-01-17 09:48:53.88	358.76	15.09	-83.1	-79.0	2.4	0.00e+00	0	48	104	0	60	1048574
2026-01-17 09:48:54.89	358.52	15.18	-83.1	-79.0	2.5	0.00e+00	0	48	104	0	60	1048573
2026-01-17 09:48:55.90	358.29	15.27	-83.5	-79.0	2.4	0.00e+00	0	48	104	0	60	1048569
2026-01-17 09:48:56.91	358.05	15.37	-83.5	-79.0	2.3	0.00e+00	0	48	104	0	60	1048573
2026-01-17 09:48:57.91	357.82	15.46	-83.5	-79.0	2.5	0.00e+00	0	48	104	0	60	1048569
2026-01-17 09:48:58.92	357.58	15.56	-83.5	-79.0	2.4	0.00e+00	0	48	104	0	60	1048575
2026-01-17 09:48:59.92	357.34	15.65	-83.1	-79.0	2.5	0.00e+00	0	48	104	0	60	1048575
2026-01-17 09:49:00.93	357.10	15.74	-83.5	-79.0	2.5	0.00e+00	0	48	104	0	60	1048568
2026-01-17 09:49:01.93	356.85	15.84	-83.5	-79.0	2.5	0.00e+00	0	48	104	0	60	1048575
2026-01-17 09:49:02.94	356.61	15.93	-83.5	-79.0	2.4	0.00e+00	0	48	104	0	60	1048573
2026-01-17 09:49:03.94	356.36	16.03	-83.1	-79.0	2.4	0.00e+00	0	48	104	0	60	1048570
2026-01-17 09:49:04.95	356.11	16.12	-83.5	-79.0	2.4	0.00e+00	0	48	104	0	60	1048573
2026-01-17 09:49:05.95	355.86	16.21	-83.5	-79.0	2.3	0.00e+00	0	48	104	0	60	1048573
2026-01-17 09:49:06.96	355.61	16.31	-83.5	-79.0	2.4	0.00e+00	0	48	104	0	60	1048573
2026-01-17 09:49:07.96	355.35	16.40	-83.5	-79.0	2.4	0.00e+00	0	48	104	0	60	1048574
2026-01-17 09:49:08.96	355.10	16.49	-83.1	-79.0	2.3	0.00e+00	0	48	104	0	60	1048573
2026-01-17 09:49:09.96	354.84	16.59	-83.5	-79.0	2.4	0.00e+00	0	48	104	0	60	1048565
2026-01-17 09:49:10.97	354.58	16.68	-83.1	-79.0	2.4	0.00e+00	0	48	104	0	60	1048573
2026-01-17 09:49:11.98	354.31	16.78	-83.5	-79.0	2.3	0.00e+00	0	48	104	0	60	1048566
2026-01-17 09:49:12.99	354.05	16.87	-83.1	-79.0	2.3	0.00e+00	0	48	104	0	60	1048574
2026-01-17 09:49:14.00	353.78	16.96	-83.1	-79.0	2.4	0.00e+00	0	48	104	0	60	1048575
2026-01-17 09:49:15.00	353.51	17.06	-83.5	-79.0	2.3	0.00e+00	0	48	104	0	60	1048575
2026-01-17 09:49:16.01	353.24	17.15	-83.5	-79.0	2.5	0.00e+00	0	48	104	0	60	1048573
2026-01-17 09:49:17.01	352.97	17.24	-83.5	-79.0	2.3	0.00e+00	0	48	104	0	60	1048572
2026-01-17 09:49:18.02	352.69	17.34	-83.1	-79.0	2.5	0.00e+00	0	48	104	0	60	1048572
2026-01-17 09:49:19.03	352.42	17.43	-83.1	-79.0	2.5	0.00e+00	0	48	104	0	60	1048575
2026-01-17 09:49:20.03	352.14	17.52	-83.5	-79.0	2.5	0.00e+00	0	48	104	0	60	1048571
2026-01-17 09:49:21.04	351.86	17.61	-83.5	-79.0	2.4	0.00e+00	0	48	104	0	60	1048575
2026-01-17 09:49:22.04	351.58	17.71	-83.5	-79.0	2.4	0.00e+00	0	48	104	0	60	1048569
2026-01-17 09:49:23.05	351.29	17.80	-83.1	-79.0	2.3	0.00e+00	0	48	104	0	60	1048572
2026-01-17 09:49:24.05	351.01	17.89	-83.5	-79.0	2.4	0.00e+00	0	48	104	0	60	1048575
2026-01-17 09:49:25.06	350.72	17.98	-83.5	-79.0	2.4	0.00e+00	0	48	104	0	60	1048571
2026-01-17 09:49:26.06	350.43	18.07	-83.5	-79.0	2.5	0.00e+00	0	48	104	0	60	1048575
2026-01-17 09:49:27.07	350.13	18.16	-83.5	-79.0	2.4	0.00e+00	0	48	104	0	60	1048568
2026-01-17 09:49:28.08	349.84	18.26	-83.1	-79.0	2.5	0.00e+00	0	48	104	0	60	1048567
2026-01-17 09:49:29.09	349.54	18.35	-83.5	-79.0	2.3	0.00e+00	0	48	104	0	60	1048575
2026-01-17 09:49:30.10	349.24	18.44	-83.5	-79.0	2.4	0.00e+00	0	48	104	0	60	1048570
2026-01-17 09:49:31.11	348.94	18.53	-83.5	-79.0	2.3	0.00e+00	0	48	104	0	60	1048569
2026-01-17 09:49:32.11	348.64	18.62	-83.1	-79.0	2.4	0.00e+00	0	48	104	0	60	1048574
2026-01-17 09:49:33.12	348.33	18.71	-83.1	-79.0	2.4	0.00e+00	0	48	104	0	60	1048573
2026-01-17 09:49:34.13	348.02	18.80	-83.1	-79.0	2.3	0.00e+00	0	48	104	0	60	1048573
2026-01-17 09:49:35.14	347.71	18.88	-83.5	-79.0	2.4	0.00e+00	0	48	104	0	60	1048574
2026-01-17 09:49:36.14	347.40	18.97	-83.5	-79.0	2.4	0.00e+00	0	48	104	0	60	1048575
2026-01-17 09:49:37.15	347.09	19.06	-82.8	-79.0	2.3	0.00e+00	0	48	104	0	60	1048575
2026-01-17 09:49:38.15	346.77	19.15	-83.5	-79.0	2.4	0.00e+00	0	48	104	0	60	1048567
2026-01-17 09:49:39.15	346.46	19.23	-83.5	-79.0	2.2	0.00e+00	0	48	104	0	60	1048574
2026-01-17 09:49:40.16	346.13	19.32	-83.5	-79.0	2.6	0.00e+00	0	48	104	0	60	1048574
2026-01-17 09:49:41.17	345.81	19.41	-83.5	-79.0	2.5	0.00e+00	0	48	104	0	60	1048575
2026-01-17 09:49:42.17	345.49	19.49	-83.1	-79.0	2.5	0.00e+00	0	48	104	0	60	1048573
2026-01-17 09:49:43.18	345.16	19.58	-83.5	-79.0	2.4	0.00e+00	0	48	104	0	60	1048575
2026-01-17 09:49:44.18	344.83	19.66	-83.5	-79.0	2.4	0.00e+00	0	48	104	0	60	1048572
2026-01-17 09:49:45.19	344.50	19.75	-83.5	-79.0	2.5	0.00e+00	0	48	104	0	60	1048570
2026-01-17 09:49:46.20	344.17	19.83	-83.5	-79.0	2.3	0.00e+00	0	48	104	0	60	1048574
2026-01-17 09:49:47.21	343.83	19.91	-83.1	-79.0	2.4	0.00e+00	0	48	104	0	60	1048574
2026-01-17 09:49:48.22	343.50	20.00	-83.5	-79.0	2.3	0.00e+00	0	48	104	0	60	1048572
2026-01-17 09:49:49.22	343.16	20.08	-83.5	-79.0	2.4	0.00e+00	0	48	104	0	60	1048573
2026-01-17 09:49:50.23	342.82	20.16	-83.5	-79.0	2.4	0.00e+00	0	48	104	0	60	1048572
2026-01-17 09:49:51.24	342.47	20.24	-83.1	-79.0	2.4	0.00e+00	0	48	104	0	60	1048569
2026-01-17 09:49:52.24	342.13	20.32	-83.1	-79.0	2.5	0.00e+00	0	48	104	0	60	1048571
2026-01-17 09:49:53.25	341.78	20.40	-83.5	-79.0	2.4	0.00e+00	0	48	104	0	60	1048572
2026-01-17 09:49:54.25	341.43	20.48	-83.5	-79.0	2.4	0.00e+00	0	48	104	0	60	1048575
2026-01-17 09:49:55.25	341.08	20.56	-83.5	-79.0	2.5	0.00e+00	0	48	104	0	60	1048574
2026-01-17 09:49:56.26	340.73	20.63	-83.1	-79.0	2.4	0.00e+00	0	48	104	0	60	1048570
2026-01-17 09:49:57.27	340.37	20.71	-83.5	-79.0	2.4	0.00e+00	0	48	104	0	60	1048574
2026-01-17 09:49:58.27	340.02	20.78	-83.5	-79.0	2.5	0.00e+00	0	48	104	0	60	1048574
2026-01-17 09:49:59.28	339.66	20.86	-83.5	-79.0	2.5	0.00e+00	0	48	104	0	60	1048572
2026-01-17 09:50:00.29	339.29	20.93	-83.5	-79.0	2.5	0.00e+00	0	48	104	0	60	1048575
2026-01-17 09:50:01.30	338.93	21.01	-83.1	-79.0	2.5	0.00e+00	0	48	104	0	60	1048571
2026-01-17 09:50:02.31	338.56	21.08	-83.5	-79.0	2.4	0.00e+00	0	48	104	0	60	1048573
2026-01-17 09:50:03.31	338.20	21.15	-83.5	-79.0	2.5	0.00e+00	0	48	104	0	60	1048573
2026-01-17 09:50:04.32	337.83	21.22	-83.5	-79.0	2.4	0.00e+00	0	48	104	0	60	1048573
2026-01-17 09:50:05.33	337.45	21.29	-83.5	-79.0	2.5	0.00e+00	0	48	104	0	60	1048572
2026-01-17 09:50:06.33	337.08	21.36	-83.1	-79.0	2.5	0.00e+00	0	48	104	0	60	1048573
2026-01-17 09:50:07.34	336.71	21.43	-83.5	-79.0	2.3	0.00e+00	0	48	104	0	60	1048575
2026-01-17 09:50:08.34	336.33	21.50	-83.5	-79.0	2.3	0.00e+00	0	48	104	0	60	1048573
2026-01-17 09:50:09.35	335.95	21.56	-83.5	-79.0	2.4	0.00e+00	0	48	104	0	60	1048574
2026-01-17 09:50:10.36	335.57	21.63	-83.1	-79.0	2.2	0.00e+00	0	48	104	0	60	1048573
2026-01-17 09:50:11.37	335.19	21.69	-83.1	-79.0	2.4	0.00e+00	0	48	104	0	60	1048575
2026-01-17 09:50:12.37	334.81	21.75	-83.5	-79.0	2.5	0.00e+00	0	48	104	0	60	1048569
2026-01-17 09:50:13.38	334.42	21.82	-83.5	-79.0	2.6	0.00e+00	0	48	104	0	60	1048569
2026-01-17 09:50:14.39	334.03	21.88	-83.5	-79.0	2.2	0.00e+00	0	48	104	0	60	1048570
2026-01-17 09:50:15.39	333.64	21.94	-82.8	-79.0	2.5	0.00e+00	0	48	104	0	60	1048575
2026-01-17 09:50:16.40	333.25	22.00	-83.5	-79.0	2.4	0.00e+00	0	48	104	0	60	1048573
2026-01-17 09:50:17.40	332.86	22.05	-83.5	-79.0	2.5	0.00e+00	0	48	104	0	60	1048572
2026-01-17 09:50:18.41	332.46	22.11	-83.5	-79.0	2.4	0.00e+00	0	48	104	0	60	1048566
2026-01-17 09:50:19.42	332.07	22.17	-83.5	-79.0	2.5	0.00e+00	0	48	104	0	60	1048570
2026-01-17 09:50:20.42	331.67	22.22	-83.1	-79.0	2.5	0.00e+00	0	48	104	0	60	1048564
2026-01-17 09:50:21.43	331.27	22.27	-83.1	-79.0	2.5	0.00e+00	0	48	104	0	60	1048570
2026-01-17 09:50:22.44	330.87	22.32	-83.5	-79.0	2.4	0.00e+00	0	48	104	0	60	1048575
2026-01-17 09:50:23.44	330.47	22.37	-83.5	-79.0	2.5	0.00e+00	0	48	104	0	60	1048572
2026-01-17 09:50:24.44	330.07	22.42	-83.1	-79.0	2.4	0.00e+00	0	48	104	0	60	1048570
2026-01-17 09:50:25.45	329.66	22.47	-82.8	-79.0	2.6	0.00e+00	0	48	104	0	60	1048573
2026-01-17 09:50:26.46	329.25	22.52	-83.5	-79.0	2.4	0.00e+00	0	48	104	0	60	1048566
2026-01-17 09:50:27.46	328.85	22.56	-83.5	-79.0	2.4	0.00e+00	0	48	104	0	60	1048573
2026-01-17 09:50:28.47	328.44	22.61	-83.5	-79.0	2.3	0.00e+00	0	48	104	0	60	1048566
2026-01-17 09:50:29.47	328.03	22.65	-82.8	-79.0	2.5	0.00e+00	0	48	104	0	60	1048575
2026-01-17 09:50:30.48	327.61	22.69	-83.5	-79.0	2.5	0.00e+00	0	48	104	0	60	1048568
2026-01-17 09:50:31.48	327.20	22.73	-83.5	-79.0	2.3	0.00e+00	0	48	104	0	60	1048575
2026-01-17 09:50:32.49	326.79	22.77	-83.5	-79.0	2.4	0.00e+00	0	48	104	0	60	1048575
2026-01-17 09:50:33.50	326.37	22.81	-83.5	-79.0	2.3	0.00e+00	0	49	104	0	60	1048573
2026-01-17 09:50:34.51	325.95	22.84	-83.1	-79.0	2.4	0.00e+00	0	48	104	0	60	1048574
2026-01-17 09:50:35.51	325.54	22.88	-83.5	-79.0	2.4	0.00e+00	0	48	104	0	60	1048575
2026-01-17 09:50:36.52	325.12	22.91	-83.5	-79.0	2.4	0.00e+00	0	48	104	0	60	1048571
2026-01-17 09:50:37.53	324.70	22.94	-83.5	-79.0	2.4	0.00e+00	0	48	104	0	60	1048570
2026-01-17 09:50:38.54	324.28	22.97	-83.5	-79.0	2.4	0.00e+00	0	49	104	0	60	1048575
2026-01-17 09:50:39.55	323.85	23.00	-83.1	-79.0	2.5	0.00e+00	0	48	104	0	60	1048570
2026-01-17 09:50:40.55	323.43	23.03	-83.5	-79.0	2.4	0.00e+00	0	48	104	0	60	1048575
2026-01-17 09:50:41.56	323.01	23.05	-83.5	-79.0	2.5	0.00e+00	0	48	104	0	60	1048575
2026-01-17 09:50:42.57	322.58	23.08	-83.5	-79.0	2.4	0.00e+00	0	48	104	0	60	1048563
2026-01-17 09:50:43.57	322.16	23.10	-83.1	-79.0	2.5	0.00e+00	0	48	104	0	60	1048574
2026-01-17 09:50:44.58	321.73	23.12	-83.1	-79.0	2.2	0.00e+00	0	48	104	0	60	1048574
2026-01-17 09:50:45.58	321.31	23.14	-83.5	-79.0	2.5	0.00e+00	0	48	104	0	60	1048575
2026-01-17 09:50:46.59	320.88	23.16	-83.5	-79.0	2.3	0.00e+00	0	48	104	0	60	1048574
2026-01-17 09:50:47.60	320.45	23.18	-83.5	-79.0	2.2	0.00e+00	0	48	104	0	60	1048574
2026-01-17 09:50:48.61	320.03	23.19	-83.1	-79.0	2.3	0.00e+00	0	48	104	0	60	1048573
2026-01-17 09:50:49.61	319.60	23.20	-83.1	-79.0	2.3	0.00e+00	0	48	104	0	60	1048566
2026-01-17 09:50:50.62	319.17	23.22	-83.5	-79.0	2.4	0.00e+00	0	48	104	0	60	1048575
2026-01-17 09:50:51.63	318.74	23.23	-83.5	-79.0	2.2	0.00e+00	0	48	104	0	60	1048574
2026-01-17 09:50:52.64	318.31	23.24	-83.5	-79.0	2.4	0.00e+00	0	48	104	0	60	1048571
2026-01-17 09:50:53.64	317.88	23.24	-83.1	-79.0	2.4	0.00e+00	0	48	104	0	60	1048574
2026-01-17 09:50:54.65	317.45	23.25	-83.1	-79.0	2.4	0.00e+00	0	48	104	0	60	1048573
2026-01-17 09:50:55.66	317.02	23.25	-83.5	-79.0	2.4	0.00e+00	0	48	104	0	60	1048574
2026-01-17 09:50:56.67	316.59	23.25	-83.5	-79.0	2.4	0.00e+00	0	48	104	0	60	1048573
2026-01-17 09:50:57.67	316.16	23.26	-83.5	-79.0	2.4	0.00e+00	0	48	104	0	60	1048570
2026-01-17 09:50:58.68	315.73	23.25	-83.1	-79.0	2.5	0.00e+00	0	48	104	0	60	1048575
2026-01-17 09:50:59.69	315.30	23.25	-83.5	-79.0	2.4	0.00e+00	0	48	104	0	60	1048574
2026-01-17 09:51:00.69	314.87	23.25	-83.5	-79.0	2.5	0.00e+00	0	48	104	0	60	1048575
2026-01-17 09:51:01.70	314.44	23.24	-83.5	-79.0	2.4	0.00e+00	0	49	104	0	60	1048571
2026-01-17 09:51:02.71	314.01	23.24	-83.1	-79.0	2.4	0.00e+00	0	48	104	0	60	1048573
2026-01-17 09:51:03.71	313.58	23.23	-83.5	-79.0	2.5	0.00e+00	0	48	104	0	60	1048573
2026-01-17 09:51:04.72	313.15	23.22	-83.5	-79.0	2.5	0.00e+00	0	48	104	0	60	1048568
2026-01-17 09:51:05.73	312.72	23.21	-83.5	-79.0	2.6	0.00e+00	0	48	104	0	60	1048565
2026-01-17 09:51:06.74	312.29	23.19	-83.5	-79.0	2.4	0.00e+00	0	48	104	0	60	1048575
2026-01-17 09:51:07.74	311.87	23.18	-83.1	-79.0	2.6	0.00e+00	0	48	104	0	60	1048574
2026-01-17 09:51:08.75	311.44	23.16	-83.1	-79.0	2.4	0.00e+00	0	48	104	0	60	1048572
2026-01-17 09:51:09.76	311.01	23.14	-83.5	-79.0	2.3	0.00e+00	0	48	104	0	60	1048574
2026-01-17 09:51:10.77	310.58	23.12	-83.5	-79.0	2.4	0.00e+00	0	48	104	0	60	1048569
2026-01-17 09:51:11.77	310.16	23.10	-83.5	-79.0	2.3	0.00e+00	0	48	104	0	60	1048575
2026-01-17 09:51:12.78	309.73	23.08	-83.1	-79.0	2.4	0.00e+00	0	48	104	0	60	1048568
2026-01-17 09:51:13.79	309.31	23.06	-83.5	-79.0	2.4	0.00e+00	0	49	104	0	60	1048572
2026-01-17 09:51:14.79	308.89	23.03	-83.5	-79.0	2.5	0.00e+00	0	49	104	0	60	1048572
2026-01-17 09:51:15.80	308.46	23.00	-83.5	-79.0	2.3	0.00e+00	0	48	104	0	60	1048568
2026-01-17 09:51:16.81	308.04	22.98	-83.5	-79.0	2.6	0.00e+00	0	48	104	0	60	1048566
2026-01-17 09:51:17.81	307.62	22.95	-83.1	-79.0	2.2	0.00e+00	0	48	104	0	60	1048572
2026-01-17 09:51:18.82	307.20	22.91	-83.5	-79.0	2.6	0.00e+00	0	48	104	0	60	1048573
2026-01-17 09:51:19.82	306.78	22.88	-83.5	-79.0	2.2	0.00e+00	0	48	104	0	60	1048575
2026-01-17 09:51:20.83	306.36	22.85	-83.5	-79.0	2.5	0.00e+00	0	48	104	0	60	1048573
2026-01-17 09:51:21.84	305.94	22.81	-82.8	-79.0	2.3	0.00e+00	0	48	104	0	60	1048573
2026-01-17 09:51:22.84	305.53	22.78	-83.1	-79.0	2.5	0.00e+00	0	48	104	0	60	1048571
2026-01-17 09:51:23.85	305.11	22.74	-83.5	-79.0	2.5	0.00e+00	0	48	104	0	60	1048572
2026-01-17 09:51:24.85	304.70	22.70	-83.5	-79.0	2.5	0.00e+00	0	48	104	0	60	1048575
2026-01-17 09:51:25.86	304.29	22.66	-83.5	-79.0	2.3	0.00e+00	0	48	104	0	60	1048571
2026-01-17 09:51:26.87	303.88	22.61	-83.1	-79.0	2.5	0.00e+00	0	48	104	0	60	1048572
2026-01-17 09:51:27.88	303.47	22.57	-83.1	-79.0	2.5	0.00e+00	0	48	104	0	60	1048574
2026-01-17 09:51:28.88	303.06	22.52	-83.5	-79.0	2.5	0.00e+00	0	48	104	0	60	1048575
2026-01-17 09:51:29.89	302.65	22.48	-83.5	-79.0	2.4	0.00e+00	0	48	104	0	60	1048575
2026-01-17 09:51:30.90	302.24	22.43	-83.1	-79.0	2.5	0.00e+00	0	48	104	0	60	1048575
2026-01-17 09:51:31.91	301.84	22.38	-82.8	-79.0	2.4	0.00e+00	0	48	104	0	60	1048572
2026-01-17 09:51:32.91	301.44	22.33	-83.5	-79.0	2.5	0.00e+00	0	48	104	0	60	1048572
2026-01-17 09:51:33.92	301.03	22.28	-83.5	-79.0	2.4	0.00e+00	0	49	104	0	60	1048574
2026-01-17 09:51:34.93	300.63	22.23	-83.5	-79.0	2.5	0.00e+00	0	48	104	0	60	1048571
2026-01-17 09:51:35.93	300.24	22.17	-83.1	-79.0	2.4	0.00e+00	0	48	104	0	60	1048573
2026-01-17 09:51:36.94	299.84	22.12	-83.5	-79.0	2.6	0.00e+00	0	48	104	0	60	1048575
2026-01-17 09:51:37.94	299.44	22.06	-83.1	-79.0	2.3	0.00e+00	0	49	104	0	60	1048573
2026-01-17 09:51:38.95	299.05	22.00	-83.5	-79.0	2.5	0.00e+00	0	48	104	0	60	1048570
2026-01-17 09:51:39.95	298.66	21.94	-83.5	-79.0	2.3	0.00e+00	0	48	104	0	60	1048573
2026-01-17 09:51:40.96	298.27	21.88	-83.1	-79.0	2.5	0.00e+00	0	48	104	0	60	1048574
2026-01-17 09:51:41.97	297.88	21.82	-83.1	-79.0	2.5	0.00e+00	0	48	104	0	60	1048573
2026-01-17 09:51:42.98	297.49	21.76	-83.5	-79.0	2.6	0.00e+00	0	48	104	0	60	1048571
2026-01-17 09:51:43.99	297.10	21.70	-83.5	-79.0	2.4	0.00e+00	0	48	104	0	60	1048573
2026-01-17 09:51:44.99	296.72	21.63	-83.5	-79.0	2.4	0.00e+00	0	48	104	0	60	1048568
2026-01-17 09:51:46.00	296.34	21.57	-83.1	-79.0	2.4	0.00e+00	0	48	104	0	60	1048574
2026-01-17 09:51:47.01	295.96	21.50	-83.5	-79.0	2.3	0.00e+00	0	48	104	0	60	1048574
2026-01-17 09:51:48.01	295.58	21.44	-83.5	-79.0	2.3	0.00e+00	0	49	104	0	60	1048573
2026-01-17 09:51:49.02	295.20	21.37	-83.5	-79.0	2.3	0.00e+00	0	48	104	0	60	1048573
2026-01-17 09:51:50.02	294.83	21.30	-83.1	-79.0	2.5	0.00e+00	0	49	104	0	60	1048574
2026-01-17 09:51:51.02	294.46	21.23	-83.1	-79.0	2.3	0.00e+00	0	48	104	0	60	1048572
2026-01-17 09:51:52.03	294.09	21.16	-83.5	-79.0	2.3	0.00e+00	0	49	104	0	60	1048569
2026-01-17 09:51:53.03	293.72	21.09	-83.5	-79.0	2.5	0.00e+00	0	48	104	0	60	1048572
2026-01-17 09:51:54.03	293.36	21.01	-83.5	-79.0	2.7	0.00e+00	0	49	104	0	60	1048570
2026-01-17 09:51:55.04	292.99	20.94	-83.1	-79.0	2.4	0.00e+00	0	49	104	0	60	1048575
2026-01-17 09:51:56.04	292.63	20.87	-83.5	-79.0	2.3	0.00e+00	0	49	104	0	60	1048575
2026-01-17 09:51:57.05	292.27	20.79	-83.5	-79.0	2.5	0.00e+00	0	48	104	0	60	1048574
2026-01-17 09:51:58.06	291.91	20.72	-83.5	-79.0	2.5	0.00e+00	0	48	104	0	60	1048574
2026-01-17 09:51:59.07	291.55	20.64	-83.5	-79.0	2.5	0.00e+00	0	49	104	0	60	1048572
2026-01-17 09:52:00.07	291.20	20.56	-83.1	-79.0	2.5	0.00e+00	0	48	104	0	60	1048569
2026-01-17 09:52:01.08	290.85	20.48	-83.1	-79.0	2.3	0.00e+00	0	48	104	0	60	1048574
2026-01-17 09:52:02.09	290.49	20.41	-83.5	-79.0	2.3	0.00e+00	0	48	104	0	60	1048572
2026-01-17 09:52:03.10	290.15	20.33	-83.5	-79.0	2.4	0.00e+00	0	48	104	0	60	1048574
2026-01-17 09:52:04.11	289.80	20.24	-83.1	-79.0	2.4	0.00e+00	0	48	104	0	60	1048574
2026-01-17 09:52:05.10	289.46	20.17	-83.1	-79.0	2.4	0.00e+00	0	48	104	0	60	1048575
2026-01-17 09:52:06.11	289.12	20.08	-83.5	-79.0	2.4	0.00e+00	0	48	104	0	60	1048571
2026-01-17 09:52:07.11	288.78	20.00	-83.5	-79.0	2.3	0.00e+00	0	48	104	0	60	1048575
2026-01-17 09:52:08.12	288.44	19.92	-83.5	-79.0	2.5	0.00e+00	0	48	104	0	60	1048571
2026-01-17 09:52:09.13	288.10	19.84	-83.5	-79.0	2.1	0.00e+00	0	48	104	0	60	1048575
2026-01-17 09:52:10.13	287.77	19.75	-83.5	-79.0	2.6	0.00e+00	0	49	104	0	60	1048573
2026-01-17 09:52:11.14	287.44	19.67	-83.5	-79.0	2.3	0.00e+00	0	48	104	0	60	1048574
2026-01-17 09:52:12.14	287.11	19.58	-83.5	-79.0	2.4	0.00e+00	0	48	104	0	60	1048574
2026-01-17 09:52:13.15	286.78	19.50	-83.5	-79.0	2.3	0.00e+00	0	48	104	0	60	1048574
2026-01-17 09:52:14.16	286.45	19.41	-83.1	-79.0	2.4	0.00e+00	0	49	104	0	60	1048575
2026-01-17 09:52:15.17	286.13	19.32	-83.5	-79.0	2.3	0.00e+00	0	48	104	0	60	1048572
2026-01-17 09:52:16.17	285.81	19.24	-83.5	-79.0	2.4	0.00e+00	0	48	104	0	60	1048572
2026-01-17 09:52:17.18	285.49	19.15	-83.5	-79.0	2.4	0.00e+00	0	49	104	0	60	1048574
2026-01-17 09:52:18.19	285.17	19.06	-83.5	-79.0	2.5	0.00e+00	0	48	104	0	60	1048575
2026-01-17 09:52:19.20	284.85	18.97	-82.8	-79.0	2.4	0.00e+00	0	49	104	0	60	1048572
2026-01-17 09:52:20.21	284.54	18.89	-83.5	-79.0	2.5	0.00e+00	0	48	104	0	60	1048573
2026-01-17 09:52:21.21	284.23	18.80	-83.5	-79.0	2.3	0.00e+00	0	49	104	0	60	1048575
2026-01-17 09:52:22.22	283.92	18.71	-83.5	-79.0	2.4	0.00e+00	0	48	104	0	60	1048575
2026-01-17 09:52:23.22	283.62	18.62	-83.1	-79.0	2.4	0.00e+00	0	48	104	0	60	1048574
2026-01-17 09:52:24.23	283.31	18.53	-83.1	-79.0	2.5	0.00e+00	0	48	104	0	60	1048575
2026-01-17 09:52:25.23	283.01	18.44	-83.5	-79.0	2.4	0.00e+00	0	48	104	0	60	1048575
2026-01-17 09:52:26.24	282.71	18.35	-83.5	-79.0	2.4	0.00e+00	0	48	104	0	60	1048571
2026-01-17 09:52:27.24	282.41	18.26	-83.5	-79.0	2.2	0.00e+00	0	48	104	0	60	1048574
2026-01-17 09:52:28.25	282.11	18.16	-82.8	-79.0	2.4	0.00e+00	0	49	104	0	60	1048572
2026-01-17 09:52:29.25	281.82	18.07	-83.1	-79.0	2.4	0.00e+00	0	48	104	0	60	1048575
2026-01-17 09:52:30.26	281.53	17.98	-83.1	-79.0	2.5	0.00e+00	0	49	104	0	60	1048572
2026-01-17 09:52:31.26	281.24	17.89	-83.5	-79.0	2.3	0.00e+00	0	48	104	0	60	1048571
2026-01-17 09:52:32.27	280.95	17.80	-83.5	-79.0	2.5	0.00e+00	0	49	104	0	60	1048569
2026-01-17 09:52:33.27	280.67	17.71	-83.1	-79.0	2.3	0.00e+00	0	48	104	0	60	1048572
2026-01-17 09:52:34.27	280.38	17.61	-83.5	-79.0	2.6	0.00e+00	0	49	104	0	60	1048572
2026-01-17 09:52:35.28	280.10	17.52	-83.5	-79.0	2.4	0.00e+00	0	48	104	0	60	1048574
2026-01-17 09:52:36.29	279.82	17.43	-83.5	-79.0	2.4	0.00e+00	0	49	104	0	60	1048572
2026-01-17 09:52:37.29	279.54	17.33	-83.5	-79.0	2.4	0.00e+00	0	48	104	0	60	1048575
2026-01-17 09:52:38.30	279.27	17.24	-83.1	-79.0	2.3	0.00e+00	0	48	104	0	60	1048575
2026-01-17 09:52:39.31	278.99	17.15	-83.5	-79.0	2.5	0.00e+00	0	48	104	0	60	1048575
2026-01-17 09:52:40.31	278.72	17.05	-83.5	-79.0	2.3	0.00e+00	0	49	104	0	60	1048575
2026-01-17 09:52:41.31	278.45	16.96	-83.5	-79.0	2.4	0.00e+00	0	48	104	0	60	1048564
2026-01-17 09:52:42.32	278.18	16.87	-82.8	-79.0	2.5	0.00e+00	0	49	104	0	60	1048573
2026-01-17 09:52:43.33	277.92	16.77	-83.1	-79.0	2.3	0.00e+00	0	48	104	0	60	1048570
2026-01-17 09:52:44.33	277.65	16.68	-83.5	-79.0	2.4	0.00e+00	0	48	104	0	60	1048575
2026-01-17 09:52:45.34	277.39	16.58	-83.5	-79.0	2.4	0.00e+00	0	48	104	0	60	1048571
2026-01-17 09:52:46.35	277.13	16.49	-83.5	-79.0	2.5	0.00e+00	0	48	104	0	60	1048573
2026-01-17 09:52:47.35	276.87	16.40	-83.5	-79.0	2.4	0.00e+00	0	48	104	0	60	1048572
2026-01-17 09:52:48.36	276.61	16.30	-83.1	-79.0	2.4	0.00e+00	0	48	104	0	60	1048575
2026-01-17 09:52:49.37	276.36	16.21	-83.5	-79.0	2.4	0.00e+00	0	49	104	0	60	1048572
2026-01-17 09:52:50.37	276.11	16.11	-83.5	-79.0	2.4	0.00e+00	0	49	104	0	60	1048573
2026-01-17 09:52:51.38	275.86	16.02	-83.5	-79.0	2.5	0.00e+00	0	48	104	0	60	1048572
2026-01-17 09:52:52.38	275.61	15.92	-83.1	-79.0	2.3	0.00e+00	0	49	104	0	60	1048574
2026-01-17 09:52:53.38	275.36	15.83	-83.1	-79.0	2.4	0.00e+00	0	48	104	0	60	1048569
2026-01-17 09:52:54.39	275.12	15.74	-83.1	-79.0	2.3	0.00e+00	0	49	104	0	60	1048574
2026-01-17 09:52:55.39	274.87	15.64	-83.5	-79.0	2.5	0.00e+00	0	49	104	0	60	1048575
2026-01-17 09:52:56.39	274.63	15.55	-83.5	-79.0	2.4	0.00e+00	0	49	104	0	60	1048575
2026-01-17 09:52:57.39	274.40	15.45	-83.1	-79.0	2.4	0.00e+00	0	49	104	0	60	1048575
2026-01-17 09:52:58.40	274.16	15.36	-83.1	-79.0	2.3	0.00e+00	0	48	104	0	60	1048574
2026-01-17 09:52:59.40	273.92	15.27	-83.5	-79.0	2.5	0.00e+00	0	49	104	0	60	1048573
2026-01-17 09:53:00.41	273.69	15.17	-83.5	-79.0	2.4	0.00e+00	0	49	104	0	60	1048575
2026-01-17 09:53:01.41	273.45	15.08	-83.1	-79.0	2.4	0.00e+00	0	49	104	0	60	1048571
2026-01-17 09:53:02.42	273.22	14.98	-83.1	-79.0	2.4	0.00e+00	0	49	104	0	60	1048568
2026-01-17 09:53:03.42	272.99	14.89	-83.5	-79.0	2.3	0.00e+00	0	49	104	0	60	1048571
2026-01-17 09:53:04.43	272.77	14.79	-83.5	-79.0	2.5	0.00e+00	0	48	104	0	60	1048575
2026-01-17 09:53:05.43	272.54	14.70	-83.5	-79.0	2.4	0.00e+00	0	49	104	0	60	1048575
2026-01-17 09:53:06.44	272.32	14.61	-83.1	-79.0	2.3	0.00e+00	0	49	104	0	60	1048574
2026-01-17 09:53:07.45	272.09	14.51	-83.1	-79.0	2.5	0.00e+00	0	48	104	0	60	1048572
2026-01-17 09:53:08.46	271.87	14.42	-83.5	-79.0	2.4	0.00e+00	0	48	104	0	60	1048573
2026-01-17 09:53:09.46	271.65	14.33	-83.5	-79.0	2.5	0.00e+00	0	49	104	0	60	1048575
2026-01-17 09:53:10.47	271.43	14.23	-83.5	-79.0	2.4	0.00e+00	0	49	104	0	60	1048575
2026-01-17 09:53:11.48	271.22	14.14	-82.8	-79.0	2.5	0.00e+00	0	48	104	0	60	1048566
2026-01-17 09:53:12.48	271.00	14.05	-83.5	-79.0	2.4	0.00e+00	0	49	104	0	60	1048575
2026-01-17 09:53:13.49	270.79	13.95	-83.5	-79.0	2.4	0.00e+00	0	49	104	0	60	1048575
2026-01-17 09:53:14.50	270.58	13.86	-83.5	-79.0	2.4	0.00e+00	0	49	104	0	60	1048573
2026-01-17 09:53:15.51	270.37	13.77	-83.5	-79.0	2.4	0.00e+00	0	49	104	0	60	1048575
2026-01-17 09:53:16.51	270.16	13.67	-82.8	-79.0	2.4	0.00e+00	0	49	104	0	60	1048573
2026-01-17 09:53:17.52	269.95	13.58	-83.1	-79.0	2.3	0.00e+00	0	49	104	0	60	1048575
2026-01-17 09:53:18.53	269.75	13.49	-83.5	-79.0	2.4	0.00e+00	0	48	104	0	60	1048573
2026-01-17 09:53:19.53	269.55	13.40	-83.5	-79.0	2.3	0.00e+00	0	48	104	0	60	1048570
2026-01-17 09:53:20.54	269.34	13.30	-83.1	-79.0	2.4	0.00e+00	0	48	104	0	60	1048575
2026-01-17 09:53:21.55	269.14	13.21	-83.1	-79.0	2.4	0.00e+00	0	49	104	0	60	1048572
2026-01-17 09:53:22.55	268.95	13.12	-83.5	-79.0	2.4	0.00e+00	0	49	104	0	60	1048574
2026-01-17 09:53:23.56	268.75	13.03	-83.1	-79.0	2.3	0.00e+00	0	48	104	0	60	1048575
2026-01-17 09:53:24.57	268.55	12.93	-83.5	-79.0	2.5	0.00e+00	0	49	104	0	60	1048575
2026-01-17 09:53:25.58	268.36	12.84	-83.1	-79.0	2.4	0.00e+00	0	48	104	0	60	1048573
2026-01-17 09:53:26.58	268.16	12.75	-83.1	-79.0	2.4	0.00e+00	0	48	104	0	60	1048568
2026-01-17 09:53:27.59	267.97	12.66	-83.5	-79.0	2.3	0.00e+00	0	48	104	0	60	1048571
2026-01-17 09:53:28.59	267.78	12.57	-83.5	-79.0	2.5	0.00e+00	0	49	104	0	60	1048572
2026-01-17 09:53:29.60	267.59	12.48	-83.5	-79.0	2.3	0.00e+00	0	49	104	0	60	1048573
2026-01-17 09:53:30.61	267.41	12.39	-83.1	-79.0	2.5	0.00e+00	0	49	104	0	60	1048575
2026-01-17 09:53:31.61	267.22	12.30	-83.5	-79.0	2.4	0.00e+00	0	49	104	0	60	1048574
2026-01-17 09:53:32.62	267.04	12.21	-83.5	-79.0	2.5	0.00e+00	0	49	104	0	60	1048575
2026-01-17 09:53:33.63	266.85	12.12	-83.5	-79.0	2.5	0.00e+00	0	49	104	0	60	1048573
2026-01-17 09:53:34.63	266.67	12.03	-83.1	-79.0	2.2	0.00e+00	0	49	104	0	60	1048569
2026-01-17 09:53:35.64	266.49	11.94	-83.1	-79.0	2.4	0.00e+00	0	49	104	0	60	1048574
2026-01-17 09:53:36.65	266.31	11.85	-83.5	-79.0	2.4	0.00e+00	0	49	104	0	60	1048572
2026-01-17 09:53:37.65	266.13	11.76	-83.5	-79.0	2.4	0.00e+00	0	49	104	0	60	1048572
2026-01-17 09:53:38.65	265.96	11.67	-83.5	-79.0	2.4	0.00e+00	0	49	104	0	60	1048574
2026-01-17 09:53:39.65	265.78	11.58	-83.1	-79.0	2.5	0.00e+00	0	48	104	0	60	1048575
2026-01-17 09:53:40.66	265.61	11.49	-83.1	-79.0	2.3	0.00e+00	0	49	104	0	60	1048567
2026-01-17 09:53:41.67	265.44	11.40	-83.5	-79.0	2.3	0.00e+00	0	49	104	0	60	1048573
2026-01-17 09:53:42.68	265.27	11.32	-83.5	-79.0	2.4	0.00e+00	0	49	104	0	60	1048573
2026-01-17 09:53:43.68	265.10	11.23	-83.5	-79.0	2.3	0.00e+00	0	48	104	0	60	1048570
2026-01-17 09:53:44.69	264.93	11.14	-83.1	-79.0	2.5	0.00e+00	0	48	104	0	60	1048573
2026-01-17 09:53:45.70	264.76	11.05	-83.1	-79.0	2.3	0.00e+00	0	49	104	0	60	1048569
2026-01-17 09:53:46.70	264.59	10.97	-83.1	-79.0	2.6	0.00e+00	0	48	104	0	60	1048573
2026-01-17 09:53:47.71	264.43	10.88	-83.5	-79.0	2.3	0.00e+00	0	48	104	0	60	1048574
2026-01-17 09:53:48.71	264.26	10.79	-83.5	-79.0	2.5	0.00e+00	0	49	104	0	60	1048575
2026-01-17 09:53:49.72	264.10	10.70	-83.1	-79.0	2.2	0.00e+00	0	48	104	0	60	1048571
2026-01-17 09:53:50.72	263.94	10.62	-83.5	-79.0	2.4	0.00e+00	0	49	104	0	60	1048573
2026-01-17 09:53:51.73	263.78	10.53	-83.5	-79.0	2.4	0.00e+00	0	49	104	0	60	1048575
2026-01-17 09:53:52.74	263.62	10.44	-83.5	-79.0	2.5	0.00e+00	0	49	104	0	60	1048569
2026-01-17 09:53:53.75	263.46	10.36	-83.1	-79.0	2.4	0.00e+00	0	48	104	0	60	1048573
2026-01-17 09:53:54.75	263.31	10.27	-83.1	-79.0	2.6	0.00e+00	0	49	104	0	60	1048574
2026-01-17 09:53:55.76	263.15	10.19	-83.5	-79.0	2.5	0.00e+00	0	49	104	0	60	1048571
2026-01-17 09:53:56.77	262.99	10.10	-83.5	-79.0	2.5	0.00e+00	0	49	104	0	60	1048574
2026-01-17 09:53:57.78	262.84	10.02	-83.5	-79.0	2.4	0.00e+00	0	48	104	0	60	1048574
2026-01-17 09:53:58.79	262.69	9.93	-83.1	-79.0	2.5	0.00e+00	0	49	104	0	60	1048572
2026-01-17 09:53:59.79	262.54	9.85	-83.1	-79.0	2.4	0.00e+00	0	49	104	0	60	1048575
2026-01-17 09:54:00.80	262.39	9.76	-83.5	-79.0	2.4	0.00e+00	0	49	104	0	60	1048572
2026-01-17 09:54:01.81	262.24	9.68	-83.5	-79.0	2.4	0.00e+00	0	49	104	0	60	1048571
2026-01-17 09:54:02.81	262.09	9.59	-83.5	-79.0	2.4	0.00e+00	0	49	104	0	60	1048574
2026-01-17 09:54:03.82	261.94	9.51	-83.1	-79.0	2.4	0.00e+00	0	49	104	0	60	1048567
2026-01-17 09:54:04.83	261.79	9.43	-83.1	-79.0	2.4	0.00e+00	0	49	104	0	60	1048573
2026-01-17 09:54:05.83	261.65	9.34	-83.5	-79.0	2.3	0.00e+00	0	49	104	0	60	1048575
2026-01-17 09:54:06.84	261.51	9.26	-83.5	-79.0	2.5	0.00e+00	0	49	104	0	60	1048575
2026-01-17 09:54:07.85	261.36	9.18	-83.5	-79.0	2.5	0.00e+00	0	49	104	0	60	1048572
2026-01-17 09:54:08.85	261.22	9.09	-83.1	-79.0	2.4	0.00e+00	0	49	104	0	60	1048572
2026-01-17 09:54:09.86	261.08	9.01	-83.5	-79.0	2.5	0.00e+00	0	49	104	0	60	1048574
2026-01-17 09:54:10.86	260.94	8.93	-83.5	-79.0	2.5	0.00e+00	0	49	104	0	60	1048572
2026-01-17 09:54:11.87	260.80	8.85	-83.5	-79.0	2.4	0.00e+00	0	49	104	0	60	1048575
2026-01-17 09:54:12.88	260.66	8.76	-83.1	-79.0	2.4	0.00e+00	0	48	104	0	60	1048572
2026-01-17 09:54:13.89	260.53	8.68	-83.1	-79.0	2.4	0.00e+00	0	49	104	0	60	1048574
2026-01-17 09:54:14.89	260.39	8.60	-83.5	-79.0	2.4	0.00e+00	0	48	104	0	60	1048571
2026-01-17 09:54:15.90	260.26	8.52	-83.5	-79.0	2.3	0.00e+00	0	48	104	0	60	1048575
2026-01-17 09:54:16.91	260.12	8.44	-83.5	-79.0	2.4	0.00e+00	0	48	104	0	60	1048569
2026-01-17 09:54:17.92	259.99	8.36	-83.1	-79.0	2.4	0.00e+00	0	49	104	0	60	1048568
2026-01-17 09:54:18.93	259.85	8.28	-83.1	-79.0	2.4	0.00e+00	0	49	104	0	60	1048570
2026-01-17 09:54:19.93	259.72	8.20	-83.5	-79.0	2.4	0.00e+00	0	49	104	0	60	1048575
2026-01-17 09:54:20.93	259.59	8.12	-83.5	-79.0	2.4	0.00e+00	0	49	104	0	60	1048572
2026-01-17 09:54:21.94	259.46	8.04	-83.5	-79.0	2.4	0.00e+00	0	49	104	0	60	1048571
2026-01-17 09:54:22.95	259.34	7.96	-82.8	-79.0	2.5	0.00e+00	0	49	104	0	60	1048575
2026-01-17 09:54:23.95	259.21	7.88	-83.5	-79.0	2.4	0.00e+00	0	48	104	0	60	1048575
2026-01-17 09:54:24.96	259.08	7.80	-83.5	-79.0	2.4	0.00e+00	0	48	104	0	60	1048572
2026-01-17 09:54:25.97	258.96	7.72	-83.5	-79.0	2.4	0.00e+00	0	49	104	0	60	1048574
2026-01-17 09:54:26.98	258.83	7.64	-83.5	-79.0	2.4	0.00e+00	0	49	104	0	60	1048574
2026-01-17 09:54:27.99	258.70	7.56	-83.5	-79.0	2.5	0.00e+00	0	48	104	0	60	1048575
2026-01-17 09:54:28.99	258.58	7.48	-83.5	-79.0	2.3	0.00e+00	0	48	104	0	60	1048574
2026-01-17 09:54:30.00	258.46	7.41	-83.5	-79.0	2.5	0.00e+00	0	49	104	0	60	1048575
2026-01-17 09:54:31.01	258.34	7.33	-83.5	-79.0	2.4	0.00e+00	0	48	104	0	60	1048573
2026-01-17 09:54:32.02	258.22	7.25	-83.1	-79.0	2.5	0.00e+00	0	48	104	0	60	1048572
2026-01-17 09:54:33.03	258.10	7.17	-83.1	-79.0	2.4	0.00e+00	0	49	104	0	60	1048574
2026-01-17 09:54:34.03	257.98	7.09	-83.5	-79.0	2.3	0.00e+00	0	49	104	0	60	1048571
2026-01-17 09:54:35.04	257.86	7.02	-83.5	-79.0	2.5	0.00e+00	0	49	104	0	60	1048568
2026-01-17 09:54:36.05	257.74	6.94	-83.5	-79.0	2.3	0.00e+00	0	49	104	0	60	1048572
2026-01-17 09:54:37.06	257.62	6.86	-83.1	-79.0	2.5	0.00e+00	0	49	104	0	60	1048573
2026-01-17 09:54:38.06	257.51	6.79	-83.5	-79.0	2.4	0.00e+00	0	48	104	0	60	1048575
2026-01-17 09:54:39.07	257.39	6.71	-83.5	-79.0	2.6	0.00e+00	0	48	104	0	60	1048574
2026-01-17 09:54:40.08	257.28	6.63	-83.5	-79.0	2.3	0.00e+00	0	48	104	0	60	1048564
2026-01-17 09:54:41.08	257.16	6.56	-83.5	-79.0	2.3	0.00e+00	0	49	104	0	60	1048570
2026-01-17 09:54:42.09	257.05	6.48	-82.8	-79.0	2.5	0.00e+00	0	49	104	0	60	1048570
2026-01-17 09:54:43.09	256.94	6.41	-83.5	-79.0	2.4	0.00e+00	0	49	104	0	60	1048573
2026-01-17 09:54:44.10	256.83	6.33	-83.5	-79.0	2.4	0.00e+00	0	49	104	0	60	1048574
2026-01-17 09:54:45.10	256.72	6.26	-83.5	-79.0	2.4	0.00e+00	0	48	104	0	60	1048569
2026-01-17 09:54:46.11	256.61	6.18	-83.1	-79.0	2.4	0.00e+00	0	49	104	0	60	1048572
2026-01-17 09:54:47.12	256.50	6.11	-83.1	-79.0	2.4	0.00e+00	0	49	104	0	60	1048575
2026-01-17 09:54:48.13	256.39	6.03	-83.5	-79.0	2.4	0.00e+00	0	49	104	0	60	1048575
2026-01-17 09:54:49.13	256.28	5.96	-83.5	-79.0	2.4	0.00e+00	0	49	104	0	60	1048574
2026-01-17 09:54:50.14	256.17	5.88	-83.5	-79.0	2.4	0.00e+00	0	49	104	0	60	1048566
2026-01-17 09:54:51.14	256.07	5.81	-83.1	-79.0	2.4	0.00e+00	0	49	104	0	60	1048575
2026-01-17 09:54:52.15	255.96	5.74	-83.1	-79.0	2.5	0.00e+00	0	49	104	0	60	1048574
2026-01-17 09:54:53.15	255.86	5.66	-83.5	-79.0	2.4	0.00e+00	0	49	104	0	60	1048568
2026-01-17 09:54:54.16	255.75	5.59	-83.5	-79.0	2.5	0.00e+00	0	49	104	0	60	1048573
2026-01-17 09:54:55.16	255.65	5.52	-83.5	-79.0	2.5	0.00e+00	0	49	104	0	60	1048572
2026-01-17 09:54:56.17	255.54	5.44	-82.8	-79.0	2.6	0.00e+00	0	49	104	0	60	1048573
2026-01-17 09:54:57.18	255.44	5.37	-83.5	-79.0	2.5	0.00e+00	0	49	104	0	60	1048570
2026-01-17 09:54:58.18	255.34	5.30	-83.5	-79.0	2.5	0.00e+00	0	49	104	0	60	1048572
2026-01-17 09:54:59.19	255.24	5.23	-83.5	-79.0	2.3	0.00e+00	0	49	104	0	60	1048574
2026-01-17 09:55:00.20	255.14	5.15	-83.5	-79.0	2.4	0.00e+00	0	49	104	0	60	1048573
2026-01-17 09:55:01.21	255.04	5.08	-83.1	-79.0	2.5	0.00e+00	0	49	104	0	60	1048575
2026-01-17 09:55:02.22	254.94	5.01	-83.5	-79.0	2.5	0.00e+00	0	49	104	0	60	1048571
2026-01-17 09:55:03.23	254.84	4.94	-83.1	-79.0	2.4	0.00e+00	0	49	104	0	60	1048575
2026-01-17 09:55:04.23	254.74	4.87	-83.5	-79.0	2.4	0.00e+00	0	49	104	0	60	1048571
2026-01-17 09:55:05.24	254.64	4.80	-83.1	-79.0	2.2	0.00e+00	0	49	104	0	60	1048575
2026-01-17 09:55:06.25	254.55	4.72	-83.1	-79.0	2.4	0.00e+00	0	49	104	0	60	1048574
2026-01-17 09:55:07.26	254.45	4.65	-83.5	-79.0	2.3	0.00e+00	0	48	104	0	60	1048574
2026-01-17 09:55:08.26	254.35	4.58	-83.5	-79.0	2.6	0.00e+00	0	49	104	0	60	1048566
2026-01-17 09:55:09.27	254.26	4.51	-83.5	-79.0	2.4	0.00e+00	0	48	104	0	60	1048575
2026-01-17 09:55:10.28	254.16	4.44	-83.1	-79.0	2.4	0.00e+00	0	48	104	0	60	1048575
2026-01-17 09:55:11.28	254.07	4.37	-83.1	-79.0	2.3	0.00e+00	0	49	104	0	60	1048573
2026-01-17 09:55:12.29	253.98	4.30	-83.5	-79.0	2.5	0.00e+00	0	49	104	0	60	1048569
2026-01-17 09:55:13.30	253.88	4.23	-83.5	-79.0	2.4	0.00e+00	0	48	104	0	60	1048575
2026-01-17 09:55:14.30	253.79	4.16	-83.1	-79.0	2.4	0.00e+00	0	49	104	0	60	1048575
2026-01-17 09:55:15.31	253.70	4.09	-82.8	-79.0	2.3	0.00e+00	0	49	104	0	60	1048570
2026-01-17 09:55:16.32	253.61	4.02	-83.5	-79.0	2.4	0.00e+00	0	49	104	0	60	1048573
2026-01-17 09:55:17.33	253.52	3.95	-83.5	-79.0	2.2	0.00e+00	0	49	104	0	60	1048575
2026-01-17 09:55:18.34	253.43	3.89	-83.5	-79.0	2.5	0.00e+00	0	49	104	0	60	1048574
2026-01-17 09:55:19.35	253.34	3.82	-83.5	-79.0	2.4	0.00e+00	0	48	104	0	60	1048575
2026-01-17 09:55:20.36	253.25	3.75	-83.1	-79.0	2.5	0.00e+00	0	49	104	0	60	1048574
2026-01-17 09:55:21.36	253.16	3.68	-83.5	-79.0	2.4	0.00e+00	0	48	104	0	60	1048575
2026-01-17 09:55:22.37	253.08	3.61	-83.5	-79.0	2.5	0.00e+00	0	49	104	0	60	1048573
2026-01-17 09:55:23.38	252.99	3.54	-83.5	-79.0	2.4	0.00e+00	0	49	104	0	60	1048569
2026-01-17 09:55:24.39	252.90	3.48	-83.1	-79.0	2.4	0.00e+00	0	49	104	0	60	1048569
2026-01-17 09:55:25.39	252.82	3.41	-83.5	-79.0	2.3	0.00e+00	0	48	104	0	60	1048574
2026-01-17 09:55:26.39	252.73	3.34	-83.5	-79.0	2.5	0.00e+00	0	49	104	0	60	1048575
2026-01-17 09:55:27.40	252.65	3.27	-83.5	-79.0	2.4	0.00e+00	0	49	104	0	60	1048573
2026-01-17 09:55:28.41	252.56	3.21	-83.5	-79.0	2.4	0.00e+00	0	49	104	0	60	1048574
2026-01-17 09:55:29.41	252.48	3.14	-83.1	-79.0	2.5	0.00e+00	0	49	104	0	60	1048572
2026-01-17 09:55:30.42	252.39	3.07	-83.1	-79.0	2.2	0.00e+00	0	49	104	0	60	1048575
2026-01-17 09:55:31.43	252.31	3.01	-83.5	-79.0	2.4	0.00e+00	0	49	104	0	60	1048575
2026-01-17 09:55:32.44	252.23	2.94	-83.5	-79.0	2.5	0.00e+00	0	49	104	0	60	1048573
2026-01-17 09:55:33.45	252.14	2.87	-83.5	-79.0	2.5	0.00e+00	0	49	104	0	60	1048575
2026-01-17 09:55:34.46	252.06	2.81	-83.1	-79.0	2.5	0.00e+00	0	49	104	0	60	1048573
2026-01-17 09:55:35.47	251.98	2.74	-83.5	-79.0	2.4	0.00e+00	0	49	104	0	60	1048569
2026-01-17 09:55:36.47	251.90	2.67	-83.5	-79.0	2.5	0.00e+00	0	49	104	0	60	1048575
2026-01-17 09:55:37.48	251.82	2.61	-83.5	-79.0	2.4	0.00e+00	0	49	104	0	60	1048566
2026-01-17 09:55:38.49	251.74	2.54	-83.1	-79.0	2.3	0.00e+00	0	49	104	0	60	1048575
2026-01-17 09:55:39.49	251.66	2.48	-82.8	-79.0	2.4	0.00e+00	0	48	104	0	60	1048575
2026-01-17 09:55:40.49	251.58	2.41	-83.5	-79.0	2.5	0.00e+00	0	49	104	0	60	1048571
2026-01-17 09:55:41.50	251.51	2.35	-83.5	-79.0	2.5	0.00e+00	0	49	104	0	60	1048575
2026-01-17 09:55:42.51	251.43	2.28	-83.5	-79.0	2.4	0.00e+00	0	48	104	0	60	1048571
2026-01-17 09:55:43.52	251.35	2.22	-83.1	-79.0	2.3	0.00e+00	0	49	104	0	60	1048575
2026-01-17 09:55:44.52	251.27	2.15	-83.1	-79.0	2.4	0.00e+00	0	49	104	0	60	1048572
2026-01-17 09:55:45.53	251.20	2.09	-83.5	-79.0	2.5	0.00e+00	0	49	104	0	60	1048574
2026-01-17 09:55:46.54	251.12	2.02	-83.5	-79.0	2.6	0.00e+00	0	49	104	0	60	1048574
2026-01-17 09:55:47.55	251.05	1.96	-83.5	-79.0	2.5	0.00e+00	0	49	104	0	60	1048568
2026-01-17 09:55:48.55	250.97	1.90	-83.1	-79.0	2.5	0.00e+00	0	49	104	0	60	1048575
2026-01-17 09:55:49.56	250.90	1.83	-83.5	-79.0	2.5	0.00e+00	0	49	104	0	60	1048572
2026-01-17 09:55:50.57	250.82	1.77	-83.5	-79.0	2.4	0.00e+00	0	49	104	0	60	1048574
2026-01-17 09:55:51.58	250.75	1.70	-83.5	-79.0	2.3	0.00e+00	0	49	104	0	60	1048572
2026-01-17 09:55:52.59	250.67	1.64	-83.1	-79.0	2.3	0.00e+00	0	49	104	0	60	1048574
2026-01-17 09:55:53.60	250.60	1.58	-83.1	-79.0	2.6	0.00e+00	0	48	104	0	60	1048573
2026-01-17 09:55:54.60	250.53	1.51	-83.5	-79.0	2.3	0.00e+00	0	49	104	0	60	1048575
2026-01-17 09:55:55.61	250.46	1.45	-83.5	-79.0	2.4	0.00e+00	0	49	104	0	60	1048573
2026-01-17 09:55:56.61	250.38	1.39	-83.5	-79.0	2.4	0.00e+00	0	49	104	0	60	1048574
2026-01-17 09:55:57.62	250.31	1.33	-83.5	-79.0	2.4	0.00e+00	0	49	104	0	60	1048575
2026-01-17 09:55:58.62	250.24	1.26	-83.1	-79.0	2.3	0.00e+00	0	49	104	0	60	1048574
2026-01-17 09:55:59.63	250.17	1.20	-83.5	-79.0	2.5	0.00e+00	0	49	104	0	60	1048572
2026-01-17 09:56:00.63	250.10	1.14	-83.5	-79.0	2.3	0.00e+00	0	49	104	0	60	1048569
2026-01-17 09:56:01.64	250.03	1.08	-83.5	-79.0	2.4	0.00e+00	0	49	104	0	60	1048573
2026-01-17 09:56:02.65	249.96	1.01	-82.8	-79.0	2.4	0.00e+00	0	49	104	0	60	1048575
2026-01-17 09:56:03.66	249.89	0.95	-83.5	-79.0	2.5	0.00e+00	0	49	104	0	60	1048572
2026-01-17 09:56:04.67	249.82	0.89	-83.5	-79.0	2.4	0.00e+00	0	49	104	0	60	1048572
2026-01-17 09:56:05.68	249.75	0.83	-83.5	-79.0	2.5	0.00e+00	0	49	104	0	60	1048574
2026-01-17 09:56:06.68	249.69	0.77	-83.5	-79.0	2.4	0.00e+00	0	49	104	0	60	1048573
2026-01-17 09:56:07.69	249.62	0.71	-82.8	-79.0	2.4	0.00e+00	0	49	104	0	60	1048575
2026-01-17 09:56:08.69	249.55	0.64	-83.5	-79.0	2.4	0.00e+00	0	49	104	0	60	1048575
2026-01-17 09:56:09.70	249.49	0.58	-83.5	-79.0	2.5	0.00e+00	0	49	104	0	60	1048574
2026-01-17 09:56:10.71	249.42	0.52	-83.5	-79.0	2.4	0.00e+00	0	49	104	0	60	1048575
2026-01-17 09:56:11.71	249.35	0.46	-83.1	-79.0	2.4	0.00e+00	0	49	104	0	60	1048562
2026-01-17 09:56:12.72	249.29	0.40	-83.1	-79.0	2.4	0.00e+00	0	49	104	0	60	1048574
2026-01-17 09:56:13.73	249.22	0.34	-83.5	-79.0	2.5	0.00e+00	0	49	104	0	60	1048574
2026-01-17 09:56:14.73	249.16	0.28	-83.5	-79.0	2.4	0.00e+00	0	49	104	0	60	1048574
2026-01-17 09:56:15.74	249.09	0.22	-83.5	-79.0	2.5	0.00e+00	0	49	104	0	60	1048575
2026-01-17 09:56:16.75	249.03	0.16	-82.8	-79.0	2.4	0.00e+00	0	49	104	0	60	1048574
2026-01-17 09:56:17.75	248.96	0.10	-83.5	-79.0	2.4	0.00e+00	0	49	104	0	60	1048572
2026-01-17 09:56:18.76	248.90	0.04	-83.5	-79.0	2.4	0.00e+00	0	49	104	0	60	1048574
2026-01-17 09:56:19.76	248.84	-0.02	-83.5	-79.0	2.4	0.00e+00	0	49	104	0	60	1048573
2026-01-17 09:56:20.77	248.77	-0.08	-83.5	-79.0	2.2	0.00e+00	0	49	104	0	60	1048572

#Closed at: 2026-01-17 09:56:21
#Recorded file [0 MB]: D:/Data/35015_260117_124537.dat