passes_logs/2026/01/17/R3.2S-Naryan-Mar/R3.2S-Naryan-Mar__20260117_103057_SUOMI_NPP_rec.log

#Pass ID: 20260117_103057_SUOMI NPP
#Satellite: SUOMI NPP
#Configuration: NPP
#almurnet v.1.7.20240730
#Start time: 2026-01-17 10:31:02

#Version: 2.2.20231116
#Station: R3.2S-Naryan-Mar
#Location: 53.008057 lon 67.646978 lat
#TLE: 1 37849U 11061A   26016.23176763  .00000061  00000+0  49926-4 0  9990
#TLE: 2 37849  98.7812 318.2698 0002434  61.5135 298.6286 14.19525545736883

#Time	Az	El	Level	Level2	SNR	BER	BlckErr	Temp	State	Recorded	gain1	gain2
2026-01-17 10:31:02.10	206.48	0.23	-83.1	-79.0	2.4	0.00e+00	0	44	0	0	60	1048575
2026-01-17 10:31:03.11	206.55	0.28	-85.2	-88.6	2.7	1.55e+00	0	45	104	0	60	1048574
2026-01-17 10:31:04.11	206.61	0.33	-85.2	-88.6	2.9	1.56e+00	0	46	104	0	60	1048575
2026-01-17 10:31:05.12	206.67	0.39	-85.2	-88.6	3.1	1.56e+00	0	46	104	0	60	1048575
2026-01-17 10:31:06.13	206.73	0.44	-85.2	-88.6	3.1	1.56e+00	0	46	104	0	60	1048575
2026-01-17 10:31:07.14	206.79	0.50	-85.2	-88.6	2.9	1.55e+00	0	46	104	0	60	1048574
2026-01-17 10:31:08.14	206.85	0.55	-85.2	-88.6	3.0	1.56e+00	0	46	104	0	60	1048574
2026-01-17 10:31:09.14	206.91	0.61	-85.2	-88.6	3.2	1.55e+00	0	46	104	0	60	1048574
2026-01-17 10:31:10.15	206.98	0.66	-85.2	-88.6	3.0	1.55e+00	0	46	104	0	60	1048575
2026-01-17 10:31:11.16	207.04	0.71	-84.3	-88.6	2.8	1.56e+00	0	46	104	0	60	1048574
2026-01-17 10:31:12.17	207.10	0.77	-85.2	-88.6	3.1	1.56e+00	0	46	104	0	60	1048571
2026-01-17 10:31:13.17	207.16	0.82	-85.2	-88.6	2.9	1.56e+00	0	46	104	0	60	1048574
2026-01-17 10:31:14.18	207.23	0.88	-85.2	-88.6	3.1	1.56e+00	0	46	104	0	60	1048575
2026-01-17 10:31:15.19	207.29	0.93	-84.3	-88.6	3.1	1.55e+00	0	46	104	0	60	1048572
2026-01-17 10:31:16.19	207.35	0.99	-84.3	-88.6	2.9	1.56e+00	0	46	104	0	60	1048575
2026-01-17 10:31:17.19	207.42	1.04	-85.2	-88.6	3.1	1.55e+00	0	46	104	0	60	1048575
2026-01-17 10:31:18.20	207.48	1.10	-85.2	-88.6	3.0	1.55e+00	0	46	104	0	60	1048575
2026-01-17 10:31:19.21	207.55	1.15	-85.2	-88.6	2.9	1.56e+00	0	46	104	0	60	1048574
2026-01-17 10:31:20.21	207.61	1.21	-85.2	-88.6	3.1	1.55e+00	0	46	104	0	60	1048575
2026-01-17 10:31:21.22	207.67	1.26	-85.2	-88.6	3.0	1.55e+00	0	46	104	0	60	1048575
2026-01-17 10:31:22.22	207.74	1.32	-85.2	-88.6	3.0	1.56e+00	0	46	104	0	60	1048575
2026-01-17 10:31:23.23	207.80	1.37	-85.2	-88.6	2.9	1.56e+00	0	46	104	0	60	1048575
2026-01-17 10:31:24.24	207.87	1.43	-85.2	-88.6	2.9	1.56e+00	0	46	104	0	60	1048575
2026-01-17 10:31:25.24	207.94	1.49	-85.2	-88.6	2.9	1.56e+00	0	46	104	0	60	1048574
2026-01-17 10:31:26.25	208.00	1.54	-84.7	-88.6	2.7	1.56e+00	0	46	104	0	60	1048575
2026-01-17 10:31:27.26	208.07	1.60	-85.2	-88.6	3.0	1.55e+00	0	46	104	0	60	1048575
2026-01-17 10:31:28.27	208.13	1.65	-85.2	-88.6	2.9	1.56e+00	0	46	104	0	60	1048575
2026-01-17 10:31:29.27	208.20	1.71	-85.2	-88.6	2.9	1.55e+00	0	46	104	0	60	1048575
2026-01-17 10:31:30.28	208.27	1.77	-85.2	-88.6	2.9	1.55e+00	0	46	104	0	60	1048575
2026-01-17 10:31:31.29	208.33	1.82	-85.2	-88.6	3.0	1.56e+00	0	46	104	0	60	1048575
2026-01-17 10:31:32.30	208.40	1.88	-85.2	-88.6	2.9	1.56e+00	0	46	104	0	60	1048574
2026-01-17 10:31:33.31	208.47	1.93	-85.2	-88.6	2.8	1.56e+00	0	46	104	0	60	1048573
2026-01-17 10:31:34.31	208.54	1.99	-85.2	-88.6	3.0	1.56e+00	0	46	104	0	60	1048573
2026-01-17 10:31:35.32	208.60	2.05	-85.2	-88.6	3.0	1.56e+00	0	46	104	0	60	1048575
2026-01-17 10:31:36.33	208.67	2.10	-84.3	-88.6	2.9	1.56e+00	0	46	104	0	60	1048575
2026-01-17 10:31:37.34	208.74	2.16	-85.2	-88.6	3.0	1.56e+00	0	46	104	0	60	1048574
2026-01-17 10:31:38.34	208.81	2.22	-85.2	-88.6	3.1	1.55e+00	0	46	104	0	60	1048575
2026-01-17 10:31:39.35	208.88	2.27	-85.2	-88.6	3.2	1.56e+00	0	46	104	0	60	1048575
2026-01-17 10:31:40.35	208.95	2.33	-85.2	-88.6	3.0	1.56e+00	0	46	104	0	60	1048575
2026-01-17 10:31:41.36	209.02	2.39	-85.2	-88.6	3.2	1.56e+00	0	46	104	0	60	1048573
2026-01-17 10:31:42.37	209.09	2.44	-85.2	-88.6	3.0	1.56e+00	0	46	104	0	60	1048573
2026-01-17 10:31:43.38	209.16	2.50	-83.5	-88.6	3.0	1.56e+00	0	46	104	0	60	1048575
2026-01-17 10:31:44.39	209.23	2.56	-83.9	-88.6	2.9	1.56e+00	0	46	104	0	60	1048575
2026-01-17 10:31:45.40	209.30	2.62	-85.2	-88.6	3.2	1.55e+00	0	46	104	0	60	1048573
2026-01-17 10:31:46.41	209.37	2.67	-85.2	-88.6	3.1	1.55e+00	0	46	104	0	60	1048575
2026-01-17 10:31:47.41	209.44	2.73	-85.2	-88.6	3.1	1.56e+00	0	46	104	0	60	1048575
2026-01-17 10:31:48.42	209.51	2.79	-85.2	-88.6	2.8	1.56e+00	0	46	104	0	60	1048574
2026-01-17 10:31:49.42	209.58	2.85	-85.2	-88.6	3.0	1.56e+00	0	46	104	0	60	1048574
2026-01-17 10:31:50.42	209.65	2.90	-85.2	-88.6	2.9	1.55e+00	0	46	104	0	60	1048574
2026-01-17 10:31:51.42	209.72	2.96	-85.2	-88.6	2.8	1.56e+00	0	46	104	0	60	1048574
2026-01-17 10:31:52.42	209.80	3.02	-85.2	-88.6	3.0	1.56e+00	0	46	104	0	60	1048572
2026-01-17 10:31:53.42	209.87	3.08	-85.2	-88.6	2.9	1.56e+00	0	46	104	0	60	1048571
2026-01-17 10:31:54.43	209.94	3.13	-85.2	-88.6	3.0	1.56e+00	0	46	104	0	60	1048575
2026-01-17 10:31:55.43	210.01	3.19	-85.2	-88.6	3.0	1.55e+00	0	46	104	0	60	1048575
2026-01-17 10:31:56.44	210.09	3.25	-85.2	-88.6	2.9	1.56e+00	0	46	104	0	60	1048573
2026-01-17 10:31:57.45	210.16	3.31	-85.2	-88.6	2.8	1.55e+00	0	46	104	0	60	1048574
2026-01-17 10:31:58.46	210.24	3.37	-85.2	-88.6	3.1	1.56e+00	0	46	104	0	60	1048575
2026-01-17 10:31:59.47	210.31	3.43	-85.2	-88.6	3.0	1.56e+00	0	46	104	0	60	1048575
2026-01-17 10:32:00.48	210.39	3.48	-85.2	-88.6	3.1	1.55e+00	0	46	104	0	60	1048571
2026-01-17 10:32:01.48	210.46	3.54	-85.2	-88.6	2.9	1.55e+00	0	46	104	0	60	1048575
2026-01-17 10:32:02.49	210.53	3.60	-85.2	-88.6	2.9	1.55e+00	0	46	104	0	60	1048572
2026-01-17 10:32:03.49	210.61	3.66	-85.2	-88.6	3.0	1.56e+00	0	46	104	0	60	1048574
2026-01-17 10:32:04.50	210.69	3.72	-85.2	-88.6	3.0	1.56e+00	0	46	104	0	60	1048574
2026-01-17 10:32:05.50	210.76	3.78	-85.2	-88.6	3.2	1.55e+00	0	46	104	0	60	1048575
2026-01-17 10:32:06.51	210.84	3.84	-85.2	-88.6	3.1	1.56e+00	0	46	104	0	60	1048575
2026-01-17 10:32:07.52	210.91	3.90	-85.2	-88.6	3.2	1.55e+00	0	46	104	0	60	1048574
2026-01-17 10:32:08.52	210.99	3.95	-85.2	-88.6	3.0	1.56e+00	0	46	104	0	60	1048575
2026-01-17 10:32:09.53	211.07	4.01	-85.2	-88.6	2.9	1.56e+00	0	46	104	0	60	1048568
2026-01-17 10:32:10.53	211.14	4.07	-85.2	-88.6	3.0	1.56e+00	0	46	104	0	60	1048575
2026-01-17 10:32:11.54	211.22	4.13	-85.2	-88.6	3.0	1.56e+00	0	46	104	0	60	1048574
2026-01-17 10:32:12.55	211.30	4.19	-85.2	-88.6	3.1	1.56e+00	0	46	104	0	60	1048574
2026-01-17 10:32:13.56	211.38	4.25	-85.2	-88.6	2.9	1.55e+00	0	46	104	0	60	1048575
2026-01-17 10:32:14.56	211.46	4.31	-85.2	-88.6	3.0	1.56e+00	0	46	104	0	60	1048574
2026-01-17 10:32:15.56	211.54	4.37	-85.2	-88.6	2.9	1.55e+00	0	46	104	0	60	1048574
2026-01-17 10:32:16.58	211.62	4.43	-85.2	-88.6	3.1	1.56e+00	0	46	104	0	60	1048575
2026-01-17 10:32:17.59	211.70	4.49	-85.2	-88.6	2.9	1.56e+00	0	46	104	0	60	1048575
2026-01-17 10:32:18.59	211.77	4.55	-85.2	-88.6	2.9	1.56e+00	0	46	104	0	60	1048573
2026-01-17 10:32:19.59	211.85	4.61	-85.2	-88.6	3.1	1.55e+00	0	46	104	0	60	1048575
2026-01-17 10:32:20.60	211.93	4.67	-85.2	-88.6	3.1	1.55e+00	0	46	104	0	60	1048575
2026-01-17 10:32:21.60	212.01	4.73	-84.7	-88.6	2.8	1.56e+00	0	46	104	0	60	1048575
2026-01-17 10:32:22.61	212.10	4.79	-85.2	-88.6	3.1	1.56e+00	0	46	104	0	60	1048572
2026-01-17 10:32:23.62	212.18	4.85	-85.2	-88.6	3.0	1.56e+00	0	46	104	0	60	1048575
2026-01-17 10:32:24.62	212.26	4.91	-85.2	-88.6	3.0	1.56e+00	0	46	104	0	60	1048575
2026-01-17 10:32:25.63	212.34	4.97	-85.2	-88.6	2.8	1.56e+00	0	46	104	0	60	1048575
2026-01-17 10:32:26.64	212.42	5.04	-85.2	-88.6	3.0	1.56e+00	0	46	104	0	60	1048572
2026-01-17 10:32:27.65	212.51	5.10	-85.2	-88.6	3.1	1.56e+00	0	46	104	0	60	1048573
2026-01-17 10:32:28.65	212.59	5.16	-85.2	-88.6	3.0	1.56e+00	0	46	104	0	60	1048575
2026-01-17 10:32:29.66	212.67	5.22	-85.2	-88.6	3.1	1.55e+00	0	46	104	0	60	1048574
2026-01-17 10:32:30.67	212.76	5.28	-85.2	-88.6	3.0	1.56e+00	0	46	104	0	60	1048574
2026-01-17 10:32:31.67	212.84	5.34	-85.2	-88.6	3.0	1.55e+00	0	46	104	0	60	1048575
2026-01-17 10:32:32.68	212.92	5.40	-85.2	-88.6	3.1	1.56e+00	0	46	104	0	60	1048575
2026-01-17 10:32:33.69	213.01	5.46	-85.2	-88.6	3.0	1.55e+00	0	46	104	0	60	1048574
2026-01-17 10:32:34.70	213.10	5.53	-85.2	-88.6	3.1	1.56e+00	0	46	104	0	60	1048575
2026-01-17 10:32:35.70	213.18	5.59	-85.2	-88.6	2.9	1.56e+00	0	46	104	0	60	1048574
2026-01-17 10:32:36.71	213.27	5.65	-85.2	-88.6	3.2	1.56e+00	0	46	104	0	60	1048570
2026-01-17 10:32:37.72	213.35	5.71	-85.2	-88.6	3.1	1.56e+00	0	46	104	0	60	1048574
2026-01-17 10:32:38.73	213.44	5.77	-85.2	-88.6	2.9	1.56e+00	0	47	104	0	60	1048574
2026-01-17 10:32:39.73	213.53	5.84	-85.2	-88.6	3.2	1.56e+00	0	46	104	0	60	1048575
2026-01-17 10:32:40.74	213.61	5.90	-85.2	-88.6	2.9	1.56e+00	0	46	104	0	60	1048574
2026-01-17 10:32:41.75	213.70	5.96	-85.2	-88.6	3.0	1.56e+00	0	46	104	0	60	1048575
2026-01-17 10:32:42.75	213.79	6.02	-85.2	-88.6	3.1	1.56e+00	0	46	104	0	60	1048573
2026-01-17 10:32:43.76	213.88	6.09	-85.2	-88.6	3.1	1.56e+00	0	46	104	0	60	1048573
2026-01-17 10:32:44.77	213.96	6.15	-85.2	-88.6	3.2	1.56e+00	0	46	104	0	60	1048574
2026-01-17 10:32:45.77	214.05	6.21	-84.3	-88.6	3.2	1.56e+00	0	46	104	0	60	1048573
2026-01-17 10:32:46.78	214.14	6.27	-85.2	-88.6	3.1	1.56e+00	0	46	104	0	60	1048575
2026-01-17 10:32:47.79	214.23	6.34	-85.2	-88.6	2.9	1.56e+00	0	46	104	0	60	1048575
2026-01-17 10:32:48.79	214.32	6.40	-85.2	-88.6	3.0	1.56e+00	0	46	104	0	60	1048575
2026-01-17 10:32:49.80	214.41	6.46	-85.2	-88.6	2.9	1.55e+00	0	46	104	0	60	1048571
2026-01-17 10:32:50.80	214.50	6.52	-85.2	-88.6	3.1	1.56e+00	0	46	104	0	60	1048571
2026-01-17 10:32:51.81	214.59	6.59	-85.2	-88.6	3.0	1.56e+00	0	46	104	0	60	1048572
2026-01-17 10:32:52.81	214.69	6.65	-85.2	-88.6	2.9	1.56e+00	0	46	104	0	60	1048571
2026-01-17 10:32:53.82	214.78	6.71	-85.2	-88.6	3.2	1.56e+00	0	46	104	0	60	1048572
2026-01-17 10:32:54.82	214.87	6.78	-85.2	-88.6	2.9	1.55e+00	0	46	104	0	60	1048575
2026-01-17 10:32:55.82	214.96	6.84	-85.2	-88.6	3.0	1.56e+00	0	46	104	0	60	1048575
2026-01-17 10:32:56.82	215.05	6.90	-85.2	-88.6	2.9	1.55e+00	0	46	104	0	60	1048575
2026-01-17 10:32:57.82	215.15	6.97	-85.2	-88.6	3.2	1.56e+00	0	46	104	0	60	1048575
2026-01-17 10:32:58.83	215.24	7.03	-85.2	-88.6	3.1	1.56e+00	0	46	104	0	60	1048575
2026-01-17 10:32:59.83	215.33	7.10	-85.2	-88.6	3.1	1.56e+00	0	46	104	0	60	1048575
2026-01-17 10:33:00.83	215.43	7.16	-85.2	-88.6	2.9	1.55e+00	0	46	104	0	60	1048575
2026-01-17 10:33:01.83	215.52	7.22	-85.2	-88.6	2.9	1.56e+00	0	46	104	0	60	1048575
2026-01-17 10:33:02.83	215.62	7.29	-85.2	-88.6	3.0	1.56e+00	0	47	104	0	60	1048570
2026-01-17 10:33:03.84	215.71	7.35	-85.2	-88.6	2.9	1.55e+00	0	46	104	0	60	1048575
2026-01-17 10:33:04.85	215.81	7.42	-85.2	-88.6	3.0	1.56e+00	0	46	104	0	60	1048575
2026-01-17 10:33:05.86	215.91	7.48	-85.2	-88.6	3.0	1.55e+00	0	46	104	0	60	1048572
2026-01-17 10:33:06.87	216.00	7.55	-85.2	-88.6	2.9	1.56e+00	0	46	104	0	60	1048574
2026-01-17 10:33:07.88	216.10	7.61	-85.2	-88.6	3.0	1.55e+00	0	46	104	0	60	1048575
2026-01-17 10:33:08.88	216.20	7.67	-85.2	-88.6	3.2	1.56e+00	0	46	104	0	60	1048568
2026-01-17 10:33:09.89	216.30	7.74	-85.2	-88.6	3.2	1.56e+00	0	46	104	0	60	1048575
2026-01-17 10:33:10.89	216.40	7.80	-85.2	-88.6	2.9	1.56e+00	0	46	104	0	60	1048575
2026-01-17 10:33:11.90	216.49	7.87	-85.2	-88.6	3.1	1.56e+00	0	46	104	0	60	1048575
2026-01-17 10:33:12.91	216.59	7.94	-85.2	-88.6	3.0	1.56e+00	0	46	104	0	60	1048571
2026-01-17 10:33:13.91	216.69	8.00	-85.2	-88.6	3.0	1.56e+00	0	46	104	0	60	1048575
2026-01-17 10:33:14.92	216.79	8.07	-85.2	-88.6	3.0	1.56e+00	0	46	104	0	60	1048575
2026-01-17 10:33:15.92	216.89	8.13	-85.2	-88.6	3.2	1.55e+00	0	46	104	0	60	1048575
2026-01-17 10:33:16.93	217.00	8.20	-85.2	-88.6	3.0	1.56e+00	0	46	104	0	60	1048574
2026-01-17 10:33:17.93	217.10	8.26	-85.2	-88.6	3.0	1.55e+00	0	47	104	0	60	1048574
2026-01-17 10:33:18.94	217.20	8.33	-85.2	-88.6	3.0	1.55e+00	0	46	104	0	60	1048575
2026-01-17 10:33:19.95	217.30	8.39	-85.2	-88.6	3.0	1.56e+00	0	47	104	0	60	1048574
2026-01-17 10:33:20.95	217.40	8.46	-85.2	-88.6	3.0	1.56e+00	0	47	104	0	60	1048572
2026-01-17 10:33:21.95	217.51	8.53	-85.2	-88.6	3.0	1.56e+00	0	47	104	0	60	1048571
2026-01-17 10:33:22.96	217.61	8.59	-85.2	-88.6	3.1	1.55e+00	0	46	104	0	60	1048572
2026-01-17 10:33:23.96	217.72	8.66	-85.2	-88.6	3.1	1.56e+00	0	47	104	0	60	1048575
2026-01-17 10:33:24.97	217.82	8.72	-85.2	-88.6	3.0	1.55e+00	0	47	104	0	60	1048575
2026-01-17 10:33:25.98	217.93	8.79	-84.7	-88.6	3.0	1.56e+00	0	47	104	0	60	1048573
2026-01-17 10:33:26.98	218.03	8.86	-85.2	-88.6	2.9	1.56e+00	0	47	104	0	60	1048575
2026-01-17 10:33:27.99	218.14	8.92	-85.2	-88.6	3.0	1.56e+00	0	47	104	0	60	1048574
2026-01-17 10:33:28.99	218.24	8.99	-85.2	-88.6	3.1	1.56e+00	0	47	104	0	60	1048574
2026-01-17 10:33:29.99	218.35	9.06	-85.2	-88.6	3.0	1.55e+00	0	47	104	0	60	1048573
2026-01-17 10:33:31.00	218.46	9.12	-85.2	-88.6	2.8	1.56e+00	0	46	104	0	60	1048574
2026-01-17 10:33:32.00	218.57	9.19	-85.2	-88.6	2.9	1.55e+00	0	47	104	0	60	1048574
2026-01-17 10:33:33.00	218.67	9.26	-85.2	-88.6	2.9	1.56e+00	0	47	104	0	60	1048575
2026-01-17 10:33:34.01	218.78	9.32	-85.2	-88.6	3.0	1.55e+00	0	46	104	0	60	1048575
2026-01-17 10:33:35.02	218.89	9.39	-85.2	-88.6	3.0	1.55e+00	0	47	104	0	60	1048569
2026-01-17 10:33:36.02	219.00	9.46	-83.5	-88.6	2.9	1.56e+00	0	47	104	0	60	1048573
2026-01-17 10:33:37.03	219.11	9.53	-85.2	-88.6	2.9	1.55e+00	0	47	104	0	60	1048574
2026-01-17 10:33:38.03	219.22	9.59	-85.2	-88.6	2.9	1.55e+00	0	47	104	0	60	1048575
2026-01-17 10:33:39.03	219.33	9.66	-85.2	-88.6	2.9	1.56e+00	0	47	104	0	60	1048575
2026-01-17 10:33:40.04	219.45	9.73	-85.2	-88.6	3.1	1.55e+00	0	47	104	0	60	1048575
2026-01-17 10:33:41.04	219.56	9.80	-85.2	-88.6	3.0	1.56e+00	0	47	104	0	60	1048575
2026-01-17 10:33:42.05	219.67	9.86	-85.2	-88.6	3.0	1.56e+00	0	47	104	0	60	1048573
2026-01-17 10:33:43.05	219.78	9.93	-85.2	-88.6	3.1	1.56e+00	0	47	104	0	60	1048575
2026-01-17 10:33:44.06	219.90	10.00	-85.2	-88.6	3.0	1.56e+00	0	47	104	0	60	1048575
2026-01-17 10:33:45.06	220.01	10.07	-85.2	-88.6	3.0	1.56e+00	0	47	104	0	60	1048573
2026-01-17 10:33:46.07	220.13	10.14	-85.2	-88.6	2.8	1.55e+00	0	47	104	0	60	1048574
2026-01-17 10:33:47.07	220.24	10.21	-85.2	-88.6	3.1	1.55e+00	0	47	104	0	60	1048575
2026-01-17 10:33:48.08	220.36	10.27	-85.2	-88.6	3.1	1.56e+00	0	47	104	0	60	1048574
2026-01-17 10:33:49.09	220.48	10.34	-85.2	-88.6	3.0	1.56e+00	0	47	104	0	60	1048574
2026-01-17 10:33:50.10	220.59	10.41	-85.2	-88.6	3.0	1.56e+00	0	47	104	0	60	1048575
2026-01-17 10:33:51.11	220.71	10.48	-85.2	-88.6	2.9	1.55e+00	0	47	104	0	60	1048574
2026-01-17 10:33:52.11	220.83	10.55	-85.2	-88.6	3.1	1.56e+00	0	47	104	0	60	1048574
2026-01-17 10:33:53.12	220.95	10.62	-85.2	-88.6	3.0	1.55e+00	0	47	104	0	60	1048573
2026-01-17 10:33:54.13	221.07	10.69	-85.2	-88.6	3.1	1.56e+00	0	47	104	0	60	1048574
2026-01-17 10:33:55.13	221.19	10.76	-85.2	-88.6	3.0	1.56e+00	0	47	104	0	60	1048575
2026-01-17 10:33:56.14	221.31	10.83	-85.2	-88.6	2.8	1.55e+00	0	47	104	0	60	1048574
2026-01-17 10:33:57.15	221.43	10.90	-85.2	-88.6	2.9	1.55e+00	0	47	104	0	60	1048575
2026-01-17 10:33:58.16	221.55	10.96	-85.2	-88.6	3.0	1.56e+00	0	47	104	0	60	1048572
2026-01-17 10:33:59.15	221.67	11.03	-85.2	-88.6	3.0	1.55e+00	0	47	104	0	60	1048573
2026-01-17 10:34:00.16	221.79	11.10	-85.2	-88.6	3.1	1.55e+00	0	47	104	0	60	1048573
2026-01-17 10:34:01.17	221.92	11.17	-85.2	-88.6	3.0	1.56e+00	0	47	104	0	60	1048571
2026-01-17 10:34:02.18	222.04	11.24	-85.2	-88.6	2.9	1.55e+00	0	47	104	0	60	1048575
2026-01-17 10:34:03.18	222.16	11.31	-85.2	-88.6	2.9	1.56e+00	0	47	104	0	60	1048575
2026-01-17 10:34:04.19	222.29	11.38	-85.2	-88.6	2.9	1.56e+00	0	47	104	0	60	1048575
2026-01-17 10:34:05.20	222.41	11.45	-85.2	-88.6	3.1	1.55e+00	0	47	104	0	60	1048575
2026-01-17 10:34:06.21	222.54	11.52	-85.2	-88.6	3.0	1.55e+00	0	47	104	0	60	1048575
2026-01-17 10:34:07.21	222.67	11.59	-85.2	-88.6	3.1	1.56e+00	0	47	104	0	60	1048575
2026-01-17 10:34:08.22	222.79	11.66	-85.2	-88.6	3.1	1.56e+00	0	47	104	0	60	1048575
2026-01-17 10:34:09.22	222.92	11.73	-85.2	-88.6	2.8	1.56e+00	0	46	104	0	60	1048574
2026-01-17 10:34:10.23	223.05	11.80	-85.2	-88.6	2.9	1.56e+00	0	47	104	0	60	1048573
2026-01-17 10:34:11.24	223.18	11.87	-85.2	-88.6	2.9	1.56e+00	0	47	104	0	60	1048574
2026-01-17 10:34:12.25	223.31	11.94	-85.2	-88.6	3.1	1.55e+00	0	47	104	0	60	1048575
2026-01-17 10:34:13.25	223.44	12.01	-85.2	-88.6	3.0	1.56e+00	0	47	104	0	60	1048575
2026-01-17 10:34:14.26	223.57	12.09	-85.2	-88.6	3.0	1.56e+00	0	47	104	0	60	1048575
2026-01-17 10:34:15.27	223.70	12.16	-85.2	-88.6	3.0	1.56e+00	0	47	104	0	60	1048575
2026-01-17 10:34:16.27	223.83	12.23	-85.2	-88.6	3.2	1.56e+00	0	47	104	0	60	1048575
2026-01-17 10:34:17.27	223.96	12.30	-85.2	-88.6	2.9	1.56e+00	0	47	104	0	60	1048575
2026-01-17 10:34:18.28	224.10	12.37	-85.2	-88.6	3.0	1.56e+00	0	47	104	0	60	1048575
2026-01-17 10:34:19.28	224.23	12.44	-85.2	-88.6	3.0	1.56e+00	0	47	104	0	60	1048570
2026-01-17 10:34:20.29	224.36	12.51	-85.2	-88.6	3.2	1.55e+00	0	47	104	0	60	1048575
2026-01-17 10:34:21.29	224.50	12.58	-85.2	-88.6	2.7	1.56e+00	0	47	104	0	60	1048575
2026-01-17 10:34:22.30	224.63	12.65	-85.2	-88.6	2.8	1.56e+00	0	47	104	0	60	1048575
2026-01-17 10:34:23.30	224.77	12.72	-85.2	-88.6	3.0	1.55e+00	0	47	104	0	60	1048572
2026-01-17 10:34:24.31	224.91	12.79	-85.2	-88.6	3.1	1.56e+00	0	47	104	0	60	1048575
2026-01-17 10:34:25.32	225.04	12.87	-85.2	-88.6	2.9	1.55e+00	0	47	104	0	60	1048575
2026-01-17 10:34:26.33	225.18	12.94	-85.2	-88.6	3.0	1.56e+00	0	47	104	0	60	1048575
2026-01-17 10:34:27.33	225.32	13.01	-85.2	-88.6	3.1	1.56e+00	0	47	104	0	60	1048574
2026-01-17 10:34:28.34	225.46	13.08	-85.2	-88.6	2.9	1.56e+00	0	47	104	0	60	1048575
2026-01-17 10:34:29.35	225.60	13.15	-85.2	-88.6	3.0	1.56e+00	0	47	104	0	60	1048573
2026-01-17 10:34:30.36	225.74	13.22	-85.2	-88.6	2.9	1.56e+00	0	47	104	0	60	1048570
2026-01-17 10:34:31.36	225.88	13.30	-85.2	-88.6	2.9	1.56e+00	0	47	104	0	60	1048575
2026-01-17 10:34:32.37	226.03	13.37	-85.2	-88.6	3.0	1.56e+00	0	47	104	0	60	1048575
2026-01-17 10:34:33.37	226.17	13.44	-85.2	-88.6	3.0	1.56e+00	0	47	104	0	60	1048575
2026-01-17 10:34:34.38	226.31	13.51	-85.2	-88.6	3.2	1.55e+00	0	47	104	0	60	1048575
2026-01-17 10:34:35.39	226.46	13.58	-85.2	-88.6	2.9	1.55e+00	0	47	104	0	60	1048575
2026-01-17 10:34:36.39	226.60	13.65	-85.2	-88.6	3.0	1.55e+00	0	47	104	0	60	1048575
2026-01-17 10:34:37.40	226.75	13.73	-85.2	-88.6	3.2	1.56e+00	0	47	104	0	60	1048575
2026-01-17 10:34:38.41	226.89	13.80	-85.2	-88.6	3.0	1.56e+00	0	47	104	0	60	1048575
2026-01-17 10:34:39.41	227.04	13.87	-85.2	-88.6	3.0	1.56e+00	0	47	104	0	60	1048575
2026-01-17 10:34:40.42	227.19	13.94	-85.2	-88.6	2.8	1.56e+00	0	47	104	0	60	1048575
2026-01-17 10:34:41.43	227.34	14.02	-85.2	-88.6	2.9	1.56e+00	0	47	104	0	60	1048572
2026-01-17 10:34:42.43	227.48	14.09	-85.2	-88.6	3.1	1.55e+00	0	47	104	0	60	1048575
2026-01-17 10:34:43.44	227.63	14.16	-85.2	-88.6	3.1	1.56e+00	0	47	104	0	60	1048575
2026-01-17 10:34:44.45	227.78	14.23	-85.2	-88.6	3.0	1.56e+00	0	47	104	0	60	1048575
2026-01-17 10:34:45.46	227.94	14.30	-85.2	-88.6	3.1	1.55e+00	0	47	104	0	60	1048575
2026-01-17 10:34:46.46	228.09	14.38	-85.2	-88.6	3.0	1.56e+00	0	47	104	0	60	1048575
2026-01-17 10:34:47.47	228.24	14.45	-85.2	-88.6	3.0	1.55e+00	0	47	104	0	60	1048570
2026-01-17 10:34:48.48	228.39	14.52	-85.2	-88.6	2.9	1.55e+00	0	47	104	0	60	1048573
2026-01-17 10:34:49.48	228.55	14.59	-85.2	-88.6	3.0	1.56e+00	0	47	104	0	60	1048573
2026-01-17 10:34:50.49	228.70	14.67	-85.2	-88.6	2.9	1.56e+00	0	47	104	0	60	1048572
2026-01-17 10:34:51.50	228.86	14.74	-85.2	-88.6	3.0	1.56e+00	0	47	104	0	60	1048574
2026-01-17 10:34:52.50	229.01	14.81	-85.2	-88.6	2.9	1.56e+00	0	47	104	0	60	1048571
2026-01-17 10:34:53.51	229.17	14.88	-85.2	-88.6	3.0	1.56e+00	0	47	104	0	60	1048575
2026-01-17 10:34:54.52	229.33	14.96	-85.2	-88.6	3.0	1.55e+00	0	47	104	0	60	1048574
2026-01-17 10:34:55.53	229.49	15.03	-85.2	-88.6	3.1	1.56e+00	0	47	104	0	60	1048575
2026-01-17 10:34:56.53	229.64	15.10	-85.2	-88.6	2.9	1.56e+00	0	47	104	0	60	1048574
2026-01-17 10:34:57.54	229.80	15.18	-85.2	-88.6	2.9	1.56e+00	0	47	104	0	60	1048572
2026-01-17 10:34:58.55	229.97	15.25	-85.2	-88.6	3.0	1.55e+00	0	47	104	0	60	1048575
2026-01-17 10:34:59.55	230.13	15.32	-85.2	-88.6	3.2	1.56e+00	0	47	104	0	60	1048574
2026-01-17 10:35:00.55	230.29	15.39	-85.2	-88.6	2.9	1.56e+00	0	47	104	0	60	1048575
2026-01-17 10:35:01.56	230.45	15.47	-85.2	-88.6	3.1	1.56e+00	0	47	104	0	60	1048573
2026-01-17 10:35:02.57	230.61	15.54	-85.2	-88.6	3.1	1.56e+00	0	47	104	0	60	1048575
2026-01-17 10:35:03.58	230.78	15.61	-85.2	-88.6	3.0	1.56e+00	0	47	104	0	60	1048574
2026-01-17 10:35:04.59	230.94	15.68	-85.2	-88.6	2.6	1.56e+00	0	47	104	0	60	1048574
2026-01-17 10:35:05.59	231.11	15.76	-85.2	-88.6	3.2	1.56e+00	0	47	104	0	60	1048575
2026-01-17 10:35:06.60	231.28	15.83	-85.2	-88.6	3.1	1.56e+00	0	47	104	0	60	1048575
2026-01-17 10:35:07.61	231.44	15.90	-85.2	-88.6	3.0	1.55e+00	0	47	104	0	60	1048575
2026-01-17 10:35:08.61	231.61	15.97	-85.2	-88.6	2.8	1.56e+00	0	47	104	0	60	1048575
2026-01-17 10:35:09.62	231.78	16.05	-85.2	-88.6	2.8	1.56e+00	0	47	104	0	60	1048574
2026-01-17 10:35:10.63	231.95	16.12	-85.2	-88.6	2.8	1.56e+00	0	47	104	0	60	1048575
2026-01-17 10:35:11.63	232.12	16.19	-85.2	-88.6	3.1	1.55e+00	0	47	104	0	60	1048575
2026-01-17 10:35:12.64	232.29	16.26	-85.2	-88.6	3.1	1.55e+00	0	47	104	0	60	1048575
2026-01-17 10:35:13.65	232.47	16.34	-85.2	-88.6	3.0	1.55e+00	0	47	104	0	60	1048575
2026-01-17 10:35:14.66	232.64	16.41	-85.2	-88.6	3.1	1.56e+00	0	47	104	0	60	1048574
2026-01-17 10:35:15.67	232.81	16.48	-85.2	-88.6	3.2	1.55e+00	0	47	104	0	60	1048571
2026-01-17 10:35:16.68	232.99	16.56	-85.2	-88.6	2.8	1.56e+00	0	47	104	0	60	1048575
2026-01-17 10:35:17.68	233.16	16.63	-85.2	-88.6	3.0	1.56e+00	0	47	104	0	60	1048569
2026-01-17 10:35:18.69	233.34	16.70	-85.2	-88.6	2.8	1.55e+00	0	47	104	0	60	1048574
2026-01-17 10:35:19.69	233.52	16.77	-85.2	-88.6	3.0	1.55e+00	0	47	104	0	60	1048575
2026-01-17 10:35:20.70	233.70	16.84	-85.2	-88.6	3.0	1.56e+00	0	47	104	0	60	1048575
2026-01-17 10:35:21.71	233.88	16.92	-85.2	-88.6	2.7	1.56e+00	0	47	104	0	60	1048573
2026-01-17 10:35:22.71	234.05	16.99	-85.2	-88.6	3.2	1.56e+00	0	47	104	0	60	1048575
2026-01-17 10:35:23.72	234.23	17.06	-85.2	-88.6	2.9	1.56e+00	0	47	104	0	60	1048575
2026-01-17 10:35:24.72	234.41	17.13	-85.2	-88.6	3.0	1.56e+00	0	47	104	0	60	1048574
2026-01-17 10:35:25.73	234.60	17.20	-85.2	-88.6	3.0	1.56e+00	0	47	104	0	60	1048575
2026-01-17 10:35:26.73	234.78	17.28	-85.2	-88.6	3.1	1.56e+00	0	47	104	0	60	1048575
2026-01-17 10:35:27.74	234.96	17.35	-85.2	-88.6	3.1	1.55e+00	0	47	104	0	60	1048572
2026-01-17 10:35:28.74	235.15	17.42	-85.2	-88.6	2.8	1.56e+00	0	47	104	0	60	1048575
2026-01-17 10:35:29.75	235.33	17.49	-85.2	-88.6	3.2	1.55e+00	0	47	104	0	60	1048571
2026-01-17 10:35:30.75	235.52	17.56	-85.2	-88.6	3.0	1.56e+00	0	47	104	0	60	1048569
2026-01-17 10:35:31.76	235.71	17.63	-85.2	-88.6	3.0	1.56e+00	0	47	104	0	60	1048575
2026-01-17 10:35:32.77	235.90	17.71	-85.2	-88.6	2.9	1.56e+00	0	47	104	0	60	1048575
2026-01-17 10:35:33.78	236.09	17.78	-85.2	-88.6	3.0	1.56e+00	0	47	104	0	60	1048574
2026-01-17 10:35:34.78	236.27	17.85	-85.2	-88.6	3.2	1.56e+00	0	47	104	0	60	1048574
2026-01-17 10:35:35.79	236.46	17.92	-85.2	-88.6	3.0	1.56e+00	0	47	104	0	60	1048571
2026-01-17 10:35:36.80	236.66	17.99	-85.2	-88.6	2.9	1.56e+00	0	47	104	0	60	1048575
2026-01-17 10:35:37.81	236.85	18.06	-85.2	-88.6	3.0	1.56e+00	0	47	104	0	60	1048575
2026-01-17 10:35:38.81	237.04	18.13	-85.2	-88.6	2.7	1.56e+00	0	47	104	0	60	1048573
2026-01-17 10:35:39.82	237.24	18.20	-85.2	-88.6	3.2	1.55e+00	0	47	104	0	60	1048575
2026-01-17 10:35:40.83	237.43	18.27	-85.2	-88.6	2.9	1.56e+00	0	47	104	0	60	1048575
2026-01-17 10:35:41.83	237.63	18.34	-85.2	-88.6	3.1	1.56e+00	0	47	104	0	60	1048574
2026-01-17 10:35:42.84	237.83	18.41	-85.2	-88.6	3.0	1.56e+00	0	47	104	0	60	1048575
2026-01-17 10:35:43.84	238.02	18.48	-85.2	-88.6	3.1	1.56e+00	0	47	104	0	60	1048574
2026-01-17 10:35:44.85	238.22	18.55	-85.2	-88.6	3.1	1.56e+00	0	47	104	0	60	1048575
2026-01-17 10:35:45.85	238.42	18.62	-85.2	-88.6	2.9	1.56e+00	0	47	104	0	60	1048575
2026-01-17 10:35:46.86	238.62	18.69	-85.2	-88.6	3.0	1.56e+00	0	47	104	0	60	1048575
2026-01-17 10:35:47.86	238.82	18.76	-85.2	-88.6	2.9	1.56e+00	0	47	104	0	60	1048575
2026-01-17 10:35:48.87	239.02	18.83	-85.2	-88.6	3.0	1.56e+00	0	47	104	0	60	1048574
2026-01-17 10:35:49.88	239.23	18.90	-85.2	-88.6	2.9	1.55e+00	0	47	104	0	60	1048574
2026-01-17 10:35:50.88	239.43	18.97	-85.2	-88.6	3.1	1.56e+00	0	47	104	0	60	1048569
2026-01-17 10:35:51.90	239.64	19.04	-85.2	-88.6	3.0	1.55e+00	0	47	104	0	60	1048575
2026-01-17 10:35:52.90	239.84	19.11	-85.2	-88.6	2.9	1.56e+00	0	47	104	0	60	1048575
2026-01-17 10:35:53.91	240.05	19.18	-85.2	-88.6	3.0	1.56e+00	0	47	104	0	60	1048573
2026-01-17 10:35:54.92	240.26	19.25	-85.2	-88.6	3.0	1.55e+00	0	47	104	0	60	1048575
2026-01-17 10:35:55.92	240.46	19.32	-85.2	-88.6	2.9	1.56e+00	0	47	104	0	60	1048574
2026-01-17 10:35:56.93	240.67	19.38	-85.2	-88.6	3.1	1.55e+00	0	47	104	0	60	1048573
2026-01-17 10:35:57.94	240.89	19.45	-85.2	-88.6	3.2	1.55e+00	0	47	104	0	60	1048574
2026-01-17 10:35:58.94	241.10	19.52	-85.2	-88.6	2.9	1.56e+00	0	47	104	0	60	1048574
2026-01-17 10:35:59.95	241.31	19.59	-85.2	-88.6	3.0	1.56e+00	0	47	104	0	60	1048575
2026-01-17 10:36:00.95	241.52	19.65	-85.2	-88.6	3.0	1.56e+00	0	47	104	0	60	1048575
2026-01-17 10:36:01.96	241.73	19.72	-85.2	-88.6	2.9	1.56e+00	0	47	104	0	60	1048575
2026-01-17 10:36:02.97	241.95	19.79	-84.7	-88.6	3.0	1.56e+00	0	47	104	0	60	1048575
2026-01-17 10:36:03.97	242.16	19.86	-85.2	-88.6	2.8	1.55e+00	0	47	104	0	60	1048572
2026-01-17 10:36:04.98	242.38	19.92	-85.2	-88.6	2.8	1.56e+00	0	47	104	0	60	1048574
2026-01-17 10:36:05.99	242.60	19.99	-85.2	-88.6	3.1	1.56e+00	0	47	104	0	60	1048575
2026-01-17 10:36:06.99	242.82	20.05	-85.2	-88.6	2.9	1.56e+00	0	47	104	0	60	1048571
2026-01-17 10:36:08.00	243.04	20.12	-85.2	-88.6	3.1	1.56e+00	0	47	104	0	60	1048575
2026-01-17 10:36:09.01	243.26	20.19	-85.2	-88.6	3.0	1.56e+00	0	47	104	0	60	1048572
2026-01-17 10:36:10.02	243.48	20.25	-85.2	-88.6	3.0	1.56e+00	0	47	104	0	60	1048571
2026-01-17 10:36:11.03	243.70	20.32	-85.2	-88.6	3.0	1.55e+00	0	47	104	0	60	1048573
2026-01-17 10:36:12.04	243.93	20.38	-85.2	-88.6	3.0	1.55e+00	0	47	104	0	60	1048574
2026-01-17 10:36:13.04	244.15	20.45	-85.2	-88.6	2.7	1.56e+00	0	47	104	0	60	1048575
2026-01-17 10:36:14.05	244.38	20.51	-85.2	-88.6	3.0	1.55e+00	0	47	104	0	60	1048575
2026-01-17 10:36:15.06	244.60	20.58	-85.2	-88.6	3.1	1.55e+00	0	47	104	0	60	1048572
2026-01-17 10:36:16.07	244.83	20.64	-85.2	-88.6	3.0	1.55e+00	0	47	104	0	60	1048575
2026-01-17 10:36:17.07	245.06	20.70	-85.2	-88.6	3.1	1.56e+00	0	47	104	0	60	1048574
2026-01-17 10:36:18.08	245.29	20.77	-85.2	-88.6	3.0	1.55e+00	0	47	104	0	60	1048574
2026-01-17 10:36:19.09	245.52	20.83	-85.2	-88.6	3.0	1.56e+00	0	47	104	0	60	1048574
2026-01-17 10:36:20.09	245.75	20.89	-85.2	-88.6	3.0	1.56e+00	0	47	104	0	60	1048572
2026-01-17 10:36:21.10	245.98	20.95	-85.2	-88.6	3.1	1.55e+00	0	47	104	0	60	1048574
2026-01-17 10:36:22.10	246.21	21.02	-84.7	-88.6	2.9	1.56e+00	0	47	104	0	60	1048574
2026-01-17 10:36:23.11	246.44	21.08	-85.2	-88.6	3.0	1.56e+00	0	47	104	0	60	1048572
2026-01-17 10:36:24.12	246.68	21.14	-85.2	-88.6	3.1	1.55e+00	0	47	104	0	60	1048573
2026-01-17 10:36:25.12	246.91	21.20	-85.2	-88.6	3.0	1.55e+00	0	47	104	0	60	1048575
2026-01-17 10:36:26.13	247.15	21.26	-83.1	-88.6	2.8	1.56e+00	0	47	104	0	60	1048575
2026-01-17 10:36:27.14	247.39	21.32	-85.2	-88.6	3.0	1.56e+00	0	47	104	0	60	1048574
2026-01-17 10:36:28.15	247.62	21.38	-85.2	-88.6	3.0	1.55e+00	0	47	104	0	60	1048574
2026-01-17 10:36:29.16	247.86	21.44	-85.2	-88.6	2.9	1.55e+00	0	47	104	0	60	1048566
2026-01-17 10:36:30.16	248.10	21.50	-85.2	-88.6	3.0	1.55e+00	0	47	104	0	60	1048575
2026-01-17 10:36:31.17	248.34	21.56	-85.2	-88.6	2.9	1.56e+00	0	47	104	0	60	1048569
2026-01-17 10:36:32.18	248.58	21.62	-84.3	-88.6	2.9	1.56e+00	0	47	104	0	60	1048574
2026-01-17 10:36:33.18	248.82	21.68	-85.2	-88.6	2.9	1.56e+00	0	47	104	0	60	1048575
2026-01-17 10:36:34.19	249.07	21.73	-85.2	-88.6	3.1	1.56e+00	0	47	104	0	60	1048571
2026-01-17 10:36:35.20	249.31	21.79	-85.2	-88.6	3.2	1.56e+00	0	47	104	0	60	1048575
2026-01-17 10:36:36.20	249.56	21.85	-84.7	-88.6	3.1	1.56e+00	0	47	104	0	60	1048574
2026-01-17 10:36:37.21	249.80	21.90	-84.7	-88.6	3.1	1.55e+00	0	47	104	0	60	1048575
2026-01-17 10:36:38.21	250.05	21.96	-85.2	-88.6	3.0	1.55e+00	0	47	104	0	60	1048575
2026-01-17 10:36:39.22	250.30	22.02	-85.2	-88.6	2.9	1.55e+00	0	47	104	0	60	1048575
2026-01-17 10:36:40.23	250.55	22.07	-85.2	-88.6	3.1	1.56e+00	0	47	104	0	60	1048571
2026-01-17 10:36:41.23	250.79	22.13	-85.2	-88.6	3.0	1.55e+00	0	47	104	0	60	1048575
2026-01-17 10:36:42.24	251.04	22.18	-84.3	-88.6	3.0	1.55e+00	0	47	104	0	60	1048575
2026-01-17 10:36:43.25	251.30	22.24	-85.2	-88.6	3.1	1.56e+00	0	47	104	0	60	1048575
2026-01-17 10:36:44.26	251.55	22.29	-85.2	-88.6	2.8	1.56e+00	0	47	104	0	60	1048575
2026-01-17 10:36:45.27	251.80	22.34	-85.2	-88.6	2.9	1.55e+00	0	47	104	0	60	1048575
2026-01-17 10:36:46.27	252.05	22.40	-85.2	-88.6	2.8	1.55e+00	0	47	104	0	60	1048574
2026-01-17 10:36:47.28	252.31	22.45	-85.2	-88.6	3.1	1.55e+00	0	47	104	0	60	1048575
2026-01-17 10:36:48.29	252.56	22.50	-85.2	-88.6	3.0	1.55e+00	0	47	104	0	60	1048574
2026-01-17 10:36:49.30	252.82	22.55	-84.3	-88.6	3.0	1.56e+00	0	47	104	0	60	1048575
2026-01-17 10:36:50.30	253.08	22.60	-85.2	-88.6	3.1	1.56e+00	0	47	104	0	60	1048573
2026-01-17 10:36:51.31	253.33	22.65	-85.2	-88.6	2.9	1.55e+00	0	47	104	0	60	1048575
2026-01-17 10:36:52.31	253.59	22.70	-85.2	-88.6	3.1	1.55e+00	0	47	104	0	60	1048575
2026-01-17 10:36:53.32	253.85	22.75	-85.2	-88.6	2.9	1.56e+00	0	47	104	0	60	1048575
2026-01-17 10:36:54.32	254.11	22.80	-85.2	-88.6	2.8	1.55e+00	0	47	104	0	60	1048575
2026-01-17 10:36:55.33	254.37	22.85	-84.7	-88.6	3.0	1.56e+00	0	47	104	0	60	1048574
2026-01-17 10:36:56.33	254.63	22.90	-83.9	-88.6	3.0	1.55e+00	0	47	104	0	60	1048575
2026-01-17 10:36:57.34	254.89	22.94	-84.7	-88.6	2.9	1.56e+00	0	47	104	0	60	1048575
2026-01-17 10:36:58.35	255.16	22.99	-83.5	-88.6	3.1	1.56e+00	0	47	104	0	60	1048575
2026-01-17 10:36:59.36	255.42	23.04	-83.5	-88.6	3.2	1.56e+00	0	47	104	0	60	1048575
2026-01-17 10:37:00.37	255.69	23.08	-85.2	-88.6	2.9	1.56e+00	0	47	104	0	60	1048574
2026-01-17 10:37:01.38	255.95	23.13	-85.2	-88.6	2.9	1.56e+00	0	47	104	0	60	1048575
2026-01-17 10:37:02.38	256.22	23.17	-85.2	-88.6	3.1	1.56e+00	0	47	104	0	60	1048574
2026-01-17 10:37:03.39	256.49	23.22	-85.2	-88.6	3.1	1.56e+00	0	47	104	0	60	1048575
2026-01-17 10:37:04.39	256.75	23.26	-85.2	-88.6	2.9	1.56e+00	0	47	104	0	60	1048571
2026-01-17 10:37:05.40	257.02	23.30	-85.2	-88.6	2.6	1.56e+00	0	47	104	0	60	1048575
2026-01-17 10:37:06.40	257.29	23.35	-85.2	-88.6	3.0	1.55e+00	0	47	104	0	60	1048574
2026-01-17 10:37:07.40	257.56	23.39	-85.2	-88.6	2.9	1.56e+00	0	47	104	0	60	1048571
2026-01-17 10:37:08.41	257.83	23.43	-84.7	-88.6	2.8	1.56e+00	0	47	104	0	60	1048575
2026-01-17 10:37:09.42	258.10	23.47	-85.2	-88.6	2.9	1.56e+00	0	47	104	0	60	1048575
2026-01-17 10:37:10.43	258.37	23.51	-85.2	-88.6	3.1	1.55e+00	0	47	104	0	60	1048574
2026-01-17 10:37:11.43	258.64	23.55	-85.2	-88.6	2.8	1.55e+00	0	47	104	0	60	1048575
2026-01-17 10:37:12.44	258.92	23.59	-85.2	-88.6	3.3	1.55e+00	0	47	104	0	60	1048574
2026-01-17 10:37:13.45	259.19	23.63	-85.2	-88.6	3.0	1.56e+00	0	47	104	0	60	1048575
2026-01-17 10:37:14.46	259.47	23.66	-85.2	-88.6	3.0	1.55e+00	0	47	104	0	60	1048575
2026-01-17 10:37:15.47	259.74	23.70	-85.2	-88.6	3.0	1.56e+00	0	47	104	0	60	1048575
2026-01-17 10:37:16.47	260.02	23.74	-85.2	-88.6	3.1	1.55e+00	0	47	104	0	60	1048574
2026-01-17 10:37:17.48	260.29	23.77	-85.2	-88.6	3.1	1.55e+00	0	47	104	0	60	1048574
2026-01-17 10:37:18.49	260.57	23.81	-85.2	-88.6	3.0	1.56e+00	0	47	104	0	60	1048575
2026-01-17 10:37:19.50	260.85	23.84	-85.2	-88.6	3.0	1.56e+00	0	47	104	0	60	1048575
2026-01-17 10:37:20.51	261.13	23.88	-85.2	-88.6	3.1	1.55e+00	0	47	104	0	60	1048575
2026-01-17 10:37:21.51	261.40	23.91	-83.5	-88.6	3.1	1.55e+00	0	47	104	0	60	1048571
2026-01-17 10:37:22.52	261.68	23.94	-85.2	-88.6	2.9	1.56e+00	0	47	104	0	60	1048575
2026-01-17 10:37:23.53	261.97	23.98	-85.2	-88.6	3.0	1.55e+00	0	47	104	0	60	1048574
2026-01-17 10:37:24.54	262.25	24.01	-85.2	-88.6	3.0	1.56e+00	0	47	104	0	60	1048574
2026-01-17 10:37:25.54	262.53	24.04	-85.2	-88.6	3.0	1.56e+00	0	47	104	0	60	1048575
2026-01-17 10:37:26.55	262.81	24.07	-85.2	-88.6	2.9	1.56e+00	0	47	104	0	60	1048574
2026-01-17 10:37:27.55	263.09	24.10	-85.2	-88.6	2.7	1.56e+00	0	47	104	0	60	1048573
2026-01-17 10:37:28.56	263.37	24.12	-85.2	-88.6	3.2	1.56e+00	0	47	104	0	60	1048575
2026-01-17 10:37:29.57	263.65	24.15	-83.5	-88.6	3.1	1.55e+00	0	47	104	0	60	1048574
2026-01-17 10:37:30.58	263.94	24.18	-85.2	-88.6	2.7	1.56e+00	0	47	104	0	60	1048572
2026-01-17 10:37:31.59	264.22	24.21	-85.2	-88.6	3.0	1.56e+00	0	47	104	0	60	1048571
2026-01-17 10:37:32.59	264.51	24.23	-85.2	-88.6	3.2	1.56e+00	0	47	104	0	60	1048574
2026-01-17 10:37:33.60	264.79	24.26	-85.2	-88.6	2.8	1.56e+00	0	47	104	0	60	1048575
2026-01-17 10:37:34.61	265.08	24.28	-85.2	-88.6	3.0	1.55e+00	0	47	104	0	60	1048575
2026-01-17 10:37:35.62	265.36	24.31	-85.2	-88.6	3.0	1.56e+00	0	47	104	0	60	1048575
2026-01-17 10:37:36.63	265.65	24.33	-85.2	-88.6	3.2	1.55e+00	0	47	104	0	60	1048575
2026-01-17 10:37:37.63	265.94	24.35	-85.2	-88.6	2.9	1.56e+00	0	47	104	0	60	1048574
2026-01-17 10:37:38.64	266.22	24.37	-85.2	-88.6	3.2	1.56e+00	0	47	104	0	60	1048574
2026-01-17 10:37:39.65	266.51	24.39	-85.2	-88.6	3.0	1.55e+00	0	47	104	0	60	1048574
2026-01-17 10:37:40.66	266.80	24.41	-85.2	-88.6	3.2	1.56e+00	0	47	104	0	60	1048575
2026-01-17 10:37:41.67	267.09	24.43	-85.2	-88.6	3.1	1.56e+00	0	47	104	0	60	1048575
2026-01-17 10:37:42.67	267.37	24.45	-85.2	-88.6	3.0	1.56e+00	0	47	104	0	60	1048574
2026-01-17 10:37:43.68	267.66	24.47	-85.2	-88.6	2.9	1.56e+00	0	47	104	0	60	1048574
2026-01-17 10:37:44.69	267.95	24.49	-85.2	-88.6	2.9	1.55e+00	0	47	104	0	60	1048575
2026-01-17 10:37:45.69	268.24	24.50	-85.2	-88.6	2.7	1.56e+00	0	47	104	0	60	1048575
2026-01-17 10:37:46.70	268.53	24.52	-85.2	-88.6	2.9	1.56e+00	0	47	104	0	60	1048572
2026-01-17 10:37:47.71	268.82	24.53	-85.2	-88.6	3.1	1.56e+00	0	47	104	0	60	1048575
2026-01-17 10:37:48.72	269.11	24.55	-85.2	-88.6	3.0	1.56e+00	0	47	104	0	60	1048574
2026-01-17 10:37:49.73	269.40	24.56	-85.2	-88.6	2.9	1.56e+00	0	47	104	0	60	1048575
2026-01-17 10:37:50.73	269.69	24.57	-85.2	-88.6	3.0	1.55e+00	0	47	104	0	60	1048575
2026-01-17 10:37:51.74	269.98	24.59	-85.2	-88.6	2.9	1.55e+00	0	47	104	0	60	1048574
2026-01-17 10:37:52.75	270.28	24.60	-85.2	-88.6	2.9	1.56e+00	0	47	104	0	60	1048575
2026-01-17 10:37:53.76	270.57	24.61	-85.2	-88.6	3.1	1.56e+00	0	47	104	0	60	1048573
2026-01-17 10:37:54.76	270.86	24.62	-85.2	-88.6	3.1	1.55e+00	0	47	104	0	60	1048573
2026-01-17 10:37:55.77	271.15	24.63	-85.2	-88.6	3.2	1.56e+00	0	47	104	0	60	1048573
2026-01-17 10:37:56.77	271.44	24.63	-85.2	-88.6	3.0	1.56e+00	0	47	104	0	60	1048575
2026-01-17 10:37:57.78	271.73	24.64	-85.2	-88.6	2.9	1.56e+00	0	47	104	0	60	1048575
2026-01-17 10:37:58.79	272.02	24.65	-85.2	-88.6	2.9	1.56e+00	0	47	104	0	60	1048574
2026-01-17 10:37:59.79	272.31	24.65	-85.2	-88.6	3.0	1.56e+00	0	47	104	0	60	1048574
2026-01-17 10:38:00.80	272.61	24.66	-85.2	-88.6	3.0	1.56e+00	0	47	104	0	60	1048575
2026-01-17 10:38:01.81	272.90	24.66	-85.2	-88.6	2.8	1.56e+00	0	47	104	0	60	1048574
2026-01-17 10:38:02.81	273.19	24.67	-85.2	-88.6	3.1	1.56e+00	0	47	104	0	60	1048575
2026-01-17 10:38:03.82	273.48	24.67	-85.2	-88.6	3.0	1.56e+00	0	47	104	0	60	1048573
2026-01-17 10:38:04.83	273.78	24.67	-85.2	-88.6	2.9	1.56e+00	0	47	104	0	60	1048575
2026-01-17 10:38:05.84	274.07	24.67	-85.2	-88.6	3.0	1.55e+00	0	47	104	0	60	1048575
2026-01-17 10:38:06.84	274.36	24.67	-85.2	-88.6	3.0	1.56e+00	0	47	104	0	60	1048575
2026-01-17 10:38:07.85	274.65	24.67	-85.2	-88.6	2.9	1.56e+00	0	47	104	0	60	1048575
2026-01-17 10:38:08.85	274.94	24.67	-85.2	-88.6	3.1	1.55e+00	0	47	104	0	60	1048575
2026-01-17 10:38:09.86	275.24	24.67	-85.2	-88.6	3.0	1.55e+00	0	47	104	0	60	1048575
2026-01-17 10:38:10.86	275.53	24.67	-85.2	-88.6	3.1	1.56e+00	0	47	104	0	60	1048574
2026-01-17 10:38:11.87	275.82	24.66	-85.2	-88.6	3.1	1.56e+00	0	47	104	0	60	1048574
2026-01-17 10:38:12.88	276.11	24.66	-85.2	-88.6	3.0	1.56e+00	0	47	104	0	60	1048575
2026-01-17 10:38:13.89	276.40	24.65	-85.2	-88.6	3.0	1.55e+00	0	47	104	0	60	1048575
2026-01-17 10:38:14.89	276.69	24.65	-85.2	-88.6	2.6	1.56e+00	0	47	104	0	60	1048575
2026-01-17 10:38:15.89	276.98	24.64	-85.2	-88.6	2.8	1.56e+00	0	47	104	0	60	1048575
2026-01-17 10:38:16.90	277.28	24.64	-85.2	-88.6	3.0	1.56e+00	0	47	104	0	60	1048572
2026-01-17 10:38:17.91	277.57	24.63	-85.2	-88.6	3.1	1.56e+00	0	47	104	0	60	1048572
2026-01-17 10:38:18.92	277.86	24.62	-85.2	-88.6	3.0	1.56e+00	0	47	104	0	60	1048574
2026-01-17 10:38:19.92	278.15	24.61	-85.2	-88.6	3.0	1.56e+00	0	47	104	0	60	1048574
2026-01-17 10:38:20.93	278.44	24.60	-85.2	-88.6	2.9	1.56e+00	0	47	104	0	60	1048574
2026-01-17 10:38:21.94	278.73	24.59	-85.2	-88.6	3.2	1.56e+00	0	47	104	0	60	1048575
2026-01-17 10:38:22.95	279.02	24.58	-85.2	-88.6	2.9	1.56e+00	0	47	104	0	60	1048574
2026-01-17 10:38:23.95	279.31	24.56	-85.2	-88.6	3.1	1.56e+00	0	47	104	0	60	1048575
2026-01-17 10:38:24.96	279.60	24.55	-85.2	-88.6	2.9	1.56e+00	0	47	104	0	60	1048574
2026-01-17 10:38:25.97	279.89	24.54	-85.2	-88.6	2.7	1.55e+00	0	47	104	0	60	1048575
2026-01-17 10:38:26.98	280.19	24.52	-85.2	-88.6	2.8	1.56e+00	0	47	104	0	60	1048575
2026-01-17 10:38:27.99	280.48	24.51	-85.2	-88.6	3.0	1.56e+00	0	47	104	0	60	1048574
2026-01-17 10:38:28.99	280.76	24.49	-85.2	-88.6	3.0	1.56e+00	0	47	104	0	60	1048574
2026-01-17 10:38:29.99	281.05	24.47	-85.2	-88.6	2.9	1.55e+00	0	47	104	0	60	1048574
2026-01-17 10:38:31.00	281.34	24.46	-85.2	-88.6	3.0	1.56e+00	0	47	104	0	60	1048575
2026-01-17 10:38:32.01	281.63	24.44	-85.2	-88.6	2.8	1.56e+00	0	47	104	0	60	1048572
2026-01-17 10:38:33.01	281.91	24.42	-85.2	-88.6	2.8	1.56e+00	0	47	104	0	60	1048573
2026-01-17 10:38:34.02	282.20	24.40	-85.2	-88.6	3.1	1.56e+00	0	47	104	0	60	1048571
2026-01-17 10:38:35.03	282.49	24.38	-85.2	-88.6	2.9	1.56e+00	0	47	104	0	60	1048575
2026-01-17 10:38:36.04	282.78	24.36	-85.2	-88.6	2.9	1.55e+00	0	47	104	0	60	1048575
2026-01-17 10:38:37.05	283.06	24.33	-85.2	-88.6	3.0	1.56e+00	0	47	104	0	60	1048573
2026-01-17 10:38:38.05	283.35	24.31	-85.2	-88.6	3.0	1.55e+00	0	47	104	0	60	1048574
2026-01-17 10:38:39.06	283.63	24.29	-85.2	-88.6	3.0	1.56e+00	0	47	104	0	60	1048575
2026-01-17 10:38:40.07	283.92	24.26	-85.2	-88.6	2.9	1.56e+00	0	47	104	0	60	1048573
2026-01-17 10:38:41.08	284.20	24.24	-85.2	-88.6	2.9	1.56e+00	0	47	104	0	60	1048574
2026-01-17 10:38:42.08	284.49	24.21	-85.2	-88.6	3.0	1.56e+00	0	47	104	0	60	1048575
2026-01-17 10:38:43.08	284.77	24.19	-85.2	-88.6	3.2	1.55e+00	0	47	104	0	60	1048575
2026-01-17 10:38:44.09	285.05	24.16	-85.2	-88.6	3.0	1.56e+00	0	47	104	0	60	1048573
2026-01-17 10:38:45.09	285.33	24.13	-85.2	-88.6	2.8	1.56e+00	0	47	104	0	60	1048575
2026-01-17 10:38:46.10	285.62	24.10	-85.2	-88.6	2.9	1.56e+00	0	47	104	0	60	1048573
2026-01-17 10:38:47.10	285.89	24.07	-85.2	-88.6	3.2	1.55e+00	0	47	104	0	60	1048575
2026-01-17 10:38:48.11	286.18	24.04	-85.2	-88.6	2.8	1.56e+00	0	47	104	0	60	1048573
2026-01-17 10:38:49.12	286.46	24.01	-85.2	-88.6	2.9	1.55e+00	0	47	104	0	60	1048574
2026-01-17 10:38:50.12	286.74	23.98	-85.2	-88.6	3.1	1.56e+00	0	47	104	0	60	1048571
2026-01-17 10:38:51.13	287.02	23.95	-85.2	-88.6	3.0	1.56e+00	0	47	104	0	60	1048573
2026-01-17 10:38:52.14	287.30	23.92	-85.2	-88.6	3.0	1.56e+00	0	47	104	0	60	1048573
2026-01-17 10:38:53.15	287.58	23.89	-85.2	-88.6	3.1	1.55e+00	0	47	104	0	60	1048574
2026-01-17 10:38:54.15	287.85	23.85	-85.2	-88.6	2.9	1.55e+00	0	47	104	0	60	1048572
2026-01-17 10:38:55.16	288.13	23.82	-85.2	-88.6	2.8	1.56e+00	0	47	104	0	60	1048574
2026-01-17 10:38:56.17	288.41	23.78	-85.2	-88.6	3.2	1.56e+00	0	47	104	0	60	1048573
2026-01-17 10:38:57.18	288.68	23.75	-85.2	-88.6	3.0	1.55e+00	0	47	104	0	60	1048574
2026-01-17 10:38:58.18	288.96	23.71	-85.2	-88.6	2.9	1.56e+00	0	47	104	0	60	1048575
2026-01-17 10:38:59.19	289.23	23.67	-85.2	-88.6	2.9	1.55e+00	0	47	104	0	60	1048575
2026-01-17 10:39:00.19	289.50	23.64	-85.2	-88.6	2.9	1.56e+00	0	47	104	0	60	1048574
2026-01-17 10:39:01.20	289.78	23.60	-85.2	-88.6	2.9	1.56e+00	0	47	104	0	60	1048569
2026-01-17 10:39:02.21	290.05	23.56	-85.2	-88.6	3.0	1.56e+00	0	47	104	0	60	1048574
2026-01-17 10:39:03.22	290.32	23.52	-85.2	-88.6	2.9	1.56e+00	0	47	104	0	60	1048574
2026-01-17 10:39:04.22	290.59	23.48	-85.2	-88.6	2.9	1.56e+00	0	47	104	0	60	1048575
2026-01-17 10:39:05.22	290.86	23.44	-85.2	-88.6	2.9	1.56e+00	0	47	104	0	60	1048570
2026-01-17 10:39:06.23	291.13	23.40	-85.2	-88.6	2.8	1.55e+00	0	47	104	0	60	1048574
2026-01-17 10:39:07.23	291.40	23.36	-85.2	-88.6	3.0	1.56e+00	0	47	104	0	60	1048574
2026-01-17 10:39:08.24	291.67	23.32	-85.2	-88.6	3.0	1.55e+00	0	47	104	0	60	1048572
2026-01-17 10:39:09.24	291.94	23.27	-85.2	-88.6	2.9	1.55e+00	0	47	104	0	60	1048575
2026-01-17 10:39:10.25	292.20	23.23	-85.2	-88.6	3.1	1.56e+00	0	47	104	0	60	1048575
2026-01-17 10:39:11.26	292.47	23.19	-85.2	-88.6	3.0	1.56e+00	0	47	104	0	60	1048575
2026-01-17 10:39:12.27	292.74	23.14	-85.2	-88.6	3.0	1.55e+00	0	47	104	0	60	1048575
2026-01-17 10:39:13.28	293.00	23.10	-85.2	-88.6	2.9	1.56e+00	0	47	104	0	60	1048575
2026-01-17 10:39:14.28	293.27	23.05	-85.2	-88.6	3.0	1.55e+00	0	47	104	0	60	1048575
2026-01-17 10:39:15.29	293.53	23.01	-85.2	-88.6	3.0	1.55e+00	0	47	104	0	60	1048574
2026-01-17 10:39:16.30	293.79	22.96	-85.2	-88.6	2.8	1.55e+00	0	47	104	0	60	1048574
2026-01-17 10:39:17.31	294.06	22.91	-85.2	-88.6	3.0	1.56e+00	0	47	104	0	60	1048575
2026-01-17 10:39:18.31	294.31	22.87	-84.7	-88.6	3.1	1.56e+00	0	47	104	0	60	1048573
2026-01-17 10:39:19.32	294.58	22.82	-85.2	-88.6	3.1	1.55e+00	0	47	104	0	60	1048574
2026-01-17 10:39:20.33	294.84	22.77	-85.2	-88.6	2.9	1.56e+00	0	47	104	0	60	1048570
2026-01-17 10:39:21.33	295.09	22.72	-85.2	-88.6	3.1	1.56e+00	0	47	104	0	60	1048575
2026-01-17 10:39:22.34	295.35	22.67	-85.2	-88.6	2.9	1.55e+00	0	47	104	0	60	1048574
2026-01-17 10:39:23.35	295.61	22.62	-85.2	-88.6	3.1	1.55e+00	0	47	104	0	60	1048575
2026-01-17 10:39:24.35	295.86	22.57	-85.2	-88.6	3.1	1.56e+00	0	47	104	0	60	1048575
2026-01-17 10:39:25.36	296.12	22.52	-85.2	-88.6	3.1	1.56e+00	0	47	104	0	60	1048575
2026-01-17 10:39:26.37	296.38	22.47	-85.2	-88.6	3.0	1.56e+00	0	47	104	0	60	1048575
2026-01-17 10:39:27.37	296.63	22.42	-85.2	-88.6	2.8	1.56e+00	0	47	104	0	60	1048570
2026-01-17 10:39:28.38	296.88	22.36	-85.2	-88.6	3.1	1.56e+00	0	47	104	0	60	1048575
2026-01-17 10:39:29.39	297.13	22.31	-85.2	-88.6	3.0	1.56e+00	0	47	104	0	60	1048574
2026-01-17 10:39:30.39	297.38	22.26	-85.2	-88.6	2.8	1.56e+00	0	47	104	0	60	1048575
2026-01-17 10:39:31.40	297.63	22.20	-85.2	-88.6	3.2	1.55e+00	0	47	104	0	60	1048573
2026-01-17 10:39:32.41	297.88	22.15	-85.2	-88.6	3.1	1.56e+00	0	47	104	0	60	1048574
2026-01-17 10:39:33.42	298.13	22.09	-84.3	-88.6	2.9	1.56e+00	0	47	104	0	60	1048574
2026-01-17 10:39:34.43	298.38	22.04	-85.2	-88.6	2.8	1.56e+00	0	47	104	0	60	1048573
2026-01-17 10:39:35.43	298.63	21.98	-85.2	-88.6	3.2	1.55e+00	0	47	104	0	60	1048575
2026-01-17 10:39:36.43	298.87	21.93	-85.2	-88.6	3.1	1.56e+00	0	47	104	0	60	1048574
2026-01-17 10:39:37.43	299.12	21.87	-85.2	-88.6	3.0	1.55e+00	0	47	104	0	60	1048573
2026-01-17 10:39:38.44	299.36	21.82	-85.2	-88.6	3.1	1.56e+00	0	47	104	0	60	1048575
2026-01-17 10:39:39.45	299.60	21.76	-85.2	-88.6	3.2	1.55e+00	0	47	104	0	60	1048575
2026-01-17 10:39:40.45	299.85	21.70	-85.2	-88.6	3.0	1.56e+00	0	47	104	0	60	1048575
2026-01-17 10:39:41.46	300.09	21.64	-85.2	-88.6	2.9	1.56e+00	0	47	104	0	60	1048575
2026-01-17 10:39:42.47	300.33	21.58	-85.2	-88.6	3.0	1.56e+00	0	47	104	0	60	1048570
2026-01-17 10:39:43.47	300.57	21.53	-85.2	-88.6	2.6	1.55e+00	0	47	104	0	60	1048575
2026-01-17 10:39:44.48	300.81	21.47	-85.2	-88.6	2.9	1.56e+00	0	47	104	0	60	1048574
2026-01-17 10:39:45.49	301.05	21.41	-85.2	-88.6	3.1	1.56e+00	0	47	104	0	60	1048575
2026-01-17 10:39:46.50	301.28	21.35	-85.2	-88.6	3.0	1.56e+00	0	47	104	0	60	1048573
2026-01-17 10:39:47.50	301.52	21.29	-85.2	-88.6	3.0	1.56e+00	0	47	104	0	60	1048572
2026-01-17 10:39:48.51	301.76	21.23	-85.2	-88.6	3.0	1.56e+00	0	47	104	0	60	1048574
2026-01-17 10:39:49.52	301.99	21.17	-85.2	-88.6	2.9	1.56e+00	0	47	104	0	60	1048570
2026-01-17 10:39:50.52	302.22	21.11	-85.2	-88.6	2.9	1.56e+00	0	47	104	0	60	1048571
2026-01-17 10:39:51.52	302.45	21.05	-85.2	-88.6	2.9	1.55e+00	0	47	104	0	60	1048575
2026-01-17 10:39:52.52	302.68	20.99	-85.2	-88.6	2.9	1.56e+00	0	47	104	0	60	1048572
2026-01-17 10:39:53.53	302.92	20.92	-84.7	-88.6	2.8	1.56e+00	0	47	104	0	60	1048575
2026-01-17 10:39:54.53	303.14	20.86	-85.2	-88.6	2.9	1.56e+00	0	47	104	0	60	1048575
2026-01-17 10:39:55.54	303.37	20.80	-85.2	-88.6	2.9	1.56e+00	0	47	104	0	60	1048573
2026-01-17 10:39:56.55	303.60	20.74	-85.2	-88.6	3.0	1.56e+00	0	47	104	0	60	1048575
2026-01-17 10:39:57.55	303.83	20.67	-85.2	-88.6	2.9	1.56e+00	0	47	104	0	60	1048575
2026-01-17 10:39:58.56	304.06	20.61	-84.7	-88.6	3.0	1.56e+00	0	47	104	0	60	1048575
2026-01-17 10:39:59.56	304.28	20.55	-85.2	-88.6	3.0	1.55e+00	0	47	104	0	60	1048575
2026-01-17 10:40:00.57	304.50	20.48	-85.2	-88.6	2.8	1.56e+00	0	47	104	0	60	1048574
2026-01-17 10:40:01.57	304.73	20.42	-85.2	-88.6	3.0	1.56e+00	0	47	104	0	60	1048575
2026-01-17 10:40:02.58	304.95	20.35	-85.2	-88.6	2.8	1.56e+00	0	47	104	0	60	1048574
2026-01-17 10:40:03.59	305.17	20.29	-85.2	-88.6	3.1	1.56e+00	0	47	104	0	60	1048575
2026-01-17 10:40:04.59	305.39	20.22	-85.2	-88.6	3.1	1.56e+00	0	47	104	0	60	1048575
2026-01-17 10:40:05.60	305.61	20.16	-85.2	-88.6	2.9	1.55e+00	0	47	104	0	60	1048575
2026-01-17 10:40:06.60	305.83	20.09	-85.2	-88.6	3.1	1.56e+00	0	47	104	0	60	1048569
2026-01-17 10:40:07.61	306.05	20.03	-85.2	-88.6	2.9	1.56e+00	0	47	104	0	60	1048571
2026-01-17 10:40:08.62	306.27	19.96	-85.2	-88.6	3.0	1.56e+00	0	47	104	0	60	1048571
2026-01-17 10:40:09.62	306.48	19.90	-85.2	-88.6	2.9	1.55e+00	0	47	104	0	60	1048575
2026-01-17 10:40:10.63	306.70	19.83	-85.2	-88.6	2.8	1.56e+00	0	47	104	0	60	1048575
2026-01-17 10:40:11.63	306.91	19.76	-85.2	-88.6	2.9	1.56e+00	0	47	104	0	60	1048575
2026-01-17 10:40:12.64	307.12	19.70	-85.2	-88.6	3.0	1.56e+00	0	47	104	0	60	1048575
2026-01-17 10:40:13.65	307.34	19.63	-84.7	-88.6	3.1	1.55e+00	0	47	104	0	60	1048575
2026-01-17 10:40:14.65	307.55	19.56	-85.2	-88.6	2.8	1.56e+00	0	47	104	0	60	1048575
2026-01-17 10:40:15.65	307.76	19.50	-85.2	-88.6	3.1	1.56e+00	0	47	104	0	60	1048575
2026-01-17 10:40:16.66	307.97	19.43	-85.2	-88.6	3.0	1.56e+00	0	47	104	0	60	1048575
2026-01-17 10:40:17.66	308.18	19.36	-85.2	-88.6	3.0	1.56e+00	0	47	104	0	60	1048574
2026-01-17 10:40:18.67	308.38	19.29	-84.3	-88.6	2.8	1.55e+00	0	47	104	0	60	1048575
2026-01-17 10:40:19.68	308.59	19.23	-85.2	-88.6	3.1	1.55e+00	0	47	104	0	60	1048573
2026-01-17 10:40:20.68	308.80	19.16	-85.2	-88.6	3.1	1.55e+00	0	47	104	0	60	1048575
2026-01-17 10:40:21.69	309.00	19.09	-85.2	-88.6	3.0	1.55e+00	0	47	104	0	60	1048574
2026-01-17 10:40:22.69	309.21	19.02	-85.2	-88.6	2.7	1.56e+00	0	47	104	0	60	1048575
2026-01-17 10:40:23.70	309.41	18.95	-85.2	-88.6	3.0	1.56e+00	0	47	104	0	60	1048575
2026-01-17 10:40:24.71	309.61	18.88	-85.2	-88.6	3.0	1.55e+00	0	47	104	0	60	1048575
2026-01-17 10:40:25.71	309.81	18.81	-85.2	-88.6	3.0	1.56e+00	0	47	104	0	60	1048575
2026-01-17 10:40:26.71	310.01	18.75	-85.2	-88.6	3.1	1.56e+00	0	47	104	0	60	1048572
2026-01-17 10:40:27.72	310.21	18.68	-83.5	-88.6	2.8	1.56e+00	0	47	104	0	60	1048575
2026-01-17 10:40:28.73	310.41	18.61	-85.2	-88.6	2.9	1.56e+00	0	47	104	0	60	1048575
2026-01-17 10:40:29.73	310.61	18.54	-85.2	-88.6	3.1	1.56e+00	0	47	104	0	60	1048575
2026-01-17 10:40:30.74	310.81	18.47	-85.2	-88.6	3.0	1.56e+00	0	47	104	0	60	1048574
2026-01-17 10:40:31.75	311.01	18.40	-85.2	-88.6	2.9	1.55e+00	0	47	104	0	60	1048575
2026-01-17 10:40:32.75	311.20	18.33	-83.5	-88.6	3.0	1.56e+00	0	47	104	0	60	1048575
2026-01-17 10:40:33.76	311.40	18.26	-85.2	-88.6	3.0	1.56e+00	0	47	104	0	60	1048573
2026-01-17 10:40:34.77	311.59	18.19	-85.2	-88.6	2.8	1.56e+00	0	47	104	0	60	1048573
2026-01-17 10:40:35.78	311.78	18.12	-85.2	-88.6	3.0	1.56e+00	0	47	104	0	60	1048575
2026-01-17 10:40:36.79	311.98	18.05	-85.2	-88.6	2.9	1.56e+00	0	47	104	0	60	1048572
2026-01-17 10:40:37.79	312.17	17.98	-85.2	-88.6	2.9	1.55e+00	0	47	104	0	60	1048574
2026-01-17 10:40:38.80	312.36	17.90	-85.2	-88.6	3.0	1.55e+00	0	47	104	0	60	1048572
2026-01-17 10:40:39.80	312.55	17.83	-85.2	-88.6	3.1	1.56e+00	0	47	104	0	60	1048575
2026-01-17 10:40:40.81	312.74	17.76	-85.2	-88.6	3.1	1.56e+00	0	47	104	0	60	1048575
2026-01-17 10:40:41.82	312.92	17.69	-85.2	-88.6	2.7	1.55e+00	0	47	104	0	60	1048575
2026-01-17 10:40:42.83	313.11	17.62	-84.7	-88.6	3.1	1.55e+00	0	47	104	0	60	1048575
2026-01-17 10:40:43.84	313.30	17.55	-84.7	-88.6	2.9	1.56e+00	0	47	104	0	60	1048574
2026-01-17 10:40:44.84	313.48	17.48	-84.7	-88.6	3.0	1.56e+00	0	47	104	0	60	1048575
2026-01-17 10:40:45.85	313.67	17.41	-85.2	-88.6	2.9	1.56e+00	0	47	104	0	60	1048574
2026-01-17 10:40:46.86	313.85	17.34	-85.2	-88.6	2.9	1.55e+00	0	47	104	0	60	1048572
2026-01-17 10:40:47.87	314.03	17.26	-84.7	-88.6	3.1	1.55e+00	0	47	104	0	60	1048574
2026-01-17 10:40:48.87	314.21	17.19	-84.7	-88.6	3.1	1.55e+00	0	47	104	0	60	1048575
2026-01-17 10:40:49.88	314.40	17.12	-85.2	-88.6	3.0	1.56e+00	0	47	104	0	60	1048571
2026-01-17 10:40:50.88	314.58	17.05	-85.2	-88.6	3.0	1.56e+00	0	47	104	0	60	1048575
2026-01-17 10:40:51.89	314.76	16.98	-84.7	-88.6	3.0	1.55e+00	0	47	104	0	60	1048575
2026-01-17 10:40:52.90	314.93	16.91	-84.7	-88.6	3.1	1.56e+00	0	47	104	0	60	1048575
2026-01-17 10:40:53.91	315.11	16.84	-85.2	-88.6	3.0	1.55e+00	0	47	104	0	60	1048575
2026-01-17 10:40:54.92	315.29	16.76	-85.2	-88.6	2.8	1.56e+00	0	47	104	0	60	1048575
2026-01-17 10:40:55.93	315.47	16.69	-85.2	-88.6	3.0	1.56e+00	0	47	104	0	60	1048575
2026-01-17 10:40:56.92	315.64	16.62	-85.2	-88.6	2.9	1.55e+00	0	47	104	0	60	1048575
2026-01-17 10:40:57.92	315.81	16.55	-85.2	-88.6	2.8	1.56e+00	0	47	104	0	60	1048573
2026-01-17 10:40:58.93	315.99	16.48	-85.2	-88.6	3.1	1.56e+00	0	47	104	0	60	1048575
2026-01-17 10:40:59.94	316.16	16.40	-85.2	-88.6	2.9	1.56e+00	0	47	104	0	60	1048574
2026-01-17 10:41:00.95	316.33	16.33	-85.2	-88.6	3.2	1.56e+00	0	47	104	0	60	1048574
2026-01-17 10:41:01.95	316.50	16.26	-85.2	-88.6	3.0	1.56e+00	0	47	104	0	60	1048573
2026-01-17 10:41:02.96	316.67	16.19	-85.2	-88.6	3.1	1.56e+00	0	47	104	0	60	1048573
2026-01-17 10:41:03.97	316.84	16.12	-85.2	-88.6	2.9	1.56e+00	0	47	104	0	60	1048575
2026-01-17 10:41:04.98	317.01	16.04	-85.2	-88.6	3.0	1.56e+00	0	47	104	0	60	1048574
2026-01-17 10:41:05.98	317.18	15.97	-85.2	-88.6	3.0	1.56e+00	0	47	104	0	60	1048573
2026-01-17 10:41:06.99	317.35	15.90	-85.2	-88.6	3.1	1.56e+00	0	47	104	0	60	1048575
2026-01-17 10:41:08.00	317.51	15.83	-85.2	-88.6	2.9	1.55e+00	0	47	104	0	60	1048575
2026-01-17 10:41:09.01	317.68	15.76	-84.7	-88.6	3.0	1.55e+00	0	47	104	0	60	1048575
2026-01-17 10:41:10.02	317.85	15.68	-85.2	-88.6	2.9	1.56e+00	0	47	104	0	60	1048574
2026-01-17 10:41:11.03	318.01	15.61	-85.2	-88.6	3.2	1.56e+00	0	47	104	0	60	1048575
2026-01-17 10:41:12.03	318.17	15.54	-84.3	-88.6	2.8	1.55e+00	0	47	104	0	60	1048575
2026-01-17 10:41:13.04	318.34	15.47	-85.2	-88.6	3.0	1.56e+00	0	47	104	0	60	1048574
2026-01-17 10:41:14.04	318.50	15.40	-85.2	-88.6	3.0	1.56e+00	0	47	104	0	60	1048570
2026-01-17 10:41:15.05	318.66	15.32	-85.2	-88.6	3.2	1.56e+00	0	47	104	0	60	1048574
2026-01-17 10:41:16.06	318.82	15.25	-85.2	-88.6	3.1	1.56e+00	0	47	104	0	60	1048573
2026-01-17 10:41:17.07	318.98	15.18	-85.2	-88.6	2.7	1.56e+00	0	47	104	0	60	1048575
2026-01-17 10:41:18.07	319.14	15.11	-85.2	-88.6	3.0	1.56e+00	0	47	104	0	60	1048575
2026-01-17 10:41:19.08	319.30	15.03	-85.2	-88.6	2.8	1.55e+00	0	47	104	0	60	1048574
2026-01-17 10:41:20.09	319.45	14.96	-85.2	-88.6	2.9	1.56e+00	0	47	104	0	60	1048575
2026-01-17 10:41:21.10	319.61	14.89	-85.2	-88.6	2.9	1.56e+00	0	47	104	0	60	1048575
2026-01-17 10:41:22.10	319.77	14.82	-85.2	-88.6	3.1	1.55e+00	0	47	104	0	60	1048575
2026-01-17 10:41:23.11	319.92	14.75	-85.2	-88.6	3.0	1.55e+00	0	47	104	0	60	1048575
2026-01-17 10:41:24.12	320.08	14.67	-85.2	-88.6	3.1	1.55e+00	0	47	104	0	60	1048572
2026-01-17 10:41:25.13	320.23	14.60	-85.2	-88.6	3.1	1.56e+00	0	47	104	0	60	1048575
2026-01-17 10:41:26.13	320.38	14.53	-85.2	-88.6	2.9	1.55e+00	0	47	104	0	60	1048575
2026-01-17 10:41:27.14	320.54	14.46	-85.2	-88.6	2.9	1.55e+00	0	47	104	0	60	1048570
2026-01-17 10:41:28.15	320.69	14.39	-85.2	-88.6	2.8	1.55e+00	0	47	104	0	60	1048574
2026-01-17 10:41:29.15	320.84	14.32	-83.9	-88.6	3.0	1.56e+00	0	47	104	0	60	1048569
2026-01-17 10:41:30.16	320.99	14.24	-83.9	-88.6	2.8	1.56e+00	0	47	104	0	60	1048573
2026-01-17 10:41:31.17	321.14	14.17	-85.2	-88.6	2.9	1.56e+00	0	47	104	0	60	1048575
2026-01-17 10:41:32.17	321.29	14.10	-83.5	-88.6	3.1	1.56e+00	0	47	104	0	60	1048573
2026-01-17 10:41:33.17	321.43	14.03	-84.3	-88.6	2.8	1.56e+00	0	47	104	0	60	1048574
2026-01-17 10:41:34.18	321.58	13.96	-85.2	-88.6	3.1	1.56e+00	0	47	104	0	60	1048574
2026-01-17 10:41:35.18	321.73	13.89	-85.2	-88.6	2.8	1.55e+00	0	47	104	0	60	1048573
2026-01-17 10:41:36.19	321.87	13.81	-85.2	-88.6	3.2	1.55e+00	0	47	104	0	60	1048574
2026-01-17 10:41:37.20	322.02	13.74	-85.2	-88.6	2.9	1.56e+00	0	47	104	0	60	1048575
2026-01-17 10:41:38.21	322.16	13.67	-85.2	-88.6	2.9	1.55e+00	0	47	104	0	60	1048574
2026-01-17 10:41:39.22	322.31	13.60	-85.2	-88.6	2.9	1.56e+00	0	47	104	0	60	1048575
2026-01-17 10:41:40.23	322.45	13.53	-85.2	-88.6	3.1	1.55e+00	0	47	104	0	60	1048574
2026-01-17 10:41:41.23	322.59	13.46	-85.2	-88.6	3.2	1.56e+00	0	47	104	0	60	1048575
2026-01-17 10:41:42.23	322.74	13.39	-85.2	-88.6	3.0	1.55e+00	0	47	104	0	60	1048573
2026-01-17 10:41:43.24	322.88	13.31	-84.3	-88.6	3.0	1.55e+00	0	47	104	0	60	1048574
2026-01-17 10:41:44.25	323.02	13.24	-85.2	-88.6	2.9	1.56e+00	0	47	104	0	60	1048572
2026-01-17 10:41:45.25	323.16	13.17	-85.2	-88.6	2.9	1.55e+00	0	47	104	0	60	1048575
2026-01-17 10:41:46.26	323.30	13.10	-85.2	-88.6	3.1	1.55e+00	0	47	104	0	60	1048573
2026-01-17 10:41:47.27	323.44	13.03	-85.2	-88.6	3.1	1.55e+00	0	47	104	0	60	1048574
2026-01-17 10:41:48.28	323.58	12.96	-85.2	-88.6	2.9	1.56e+00	0	47	104	0	60	1048573
2026-01-17 10:41:49.28	323.71	12.89	-85.2	-88.6	3.0	1.55e+00	0	47	104	0	60	1048575
2026-01-17 10:41:50.28	323.85	12.82	-85.2	-88.6	2.9	1.56e+00	0	47	104	0	60	1048574
2026-01-17 10:41:51.28	323.98	12.75	-85.2	-88.6	3.0	1.56e+00	0	47	104	0	60	1048575
2026-01-17 10:41:52.29	324.12	12.68	-85.2	-88.6	3.1	1.55e+00	0	47	104	0	60	1048575
2026-01-17 10:41:53.29	324.25	12.61	-85.2	-88.6	3.0	1.55e+00	0	47	104	0	60	1048574
2026-01-17 10:41:54.30	324.39	12.54	-85.2	-88.6	3.0	1.56e+00	0	47	104	0	60	1048575
2026-01-17 10:41:55.31	324.52	12.47	-85.2	-88.6	2.9	1.55e+00	0	47	104	0	60	1048574
2026-01-17 10:41:56.32	324.66	12.39	-85.2	-88.6	3.1	1.56e+00	0	47	104	0	60	1048575
2026-01-17 10:41:57.32	324.79	12.33	-85.2	-88.6	2.9	1.55e+00	0	47	104	0	60	1048575
2026-01-17 10:41:58.33	324.92	12.25	-85.2	-88.6	3.0	1.56e+00	0	47	104	0	60	1048574
2026-01-17 10:41:59.34	325.05	12.18	-85.2	-88.6	3.0	1.56e+00	0	47	104	0	60	1048572
2026-01-17 10:42:00.35	325.18	12.11	-85.2	-88.6	3.0	1.56e+00	0	47	104	0	60	1048575
2026-01-17 10:42:01.35	325.31	12.04	-85.2	-88.6	3.0	1.55e+00	0	47	104	0	60	1048575
2026-01-17 10:42:02.36	325.44	11.97	-85.2	-88.6	3.2	1.55e+00	0	47	104	0	60	1048573
2026-01-17 10:42:03.36	325.57	11.90	-85.2	-88.6	2.9	1.56e+00	0	47	104	0	60	1048572
2026-01-17 10:42:04.37	325.70	11.83	-85.2	-88.6	3.1	1.56e+00	0	47	104	0	60	1048575
2026-01-17 10:42:05.38	325.83	11.76	-85.2	-88.6	2.9	1.56e+00	0	47	104	0	60	1048572
2026-01-17 10:42:06.39	325.95	11.69	-85.2	-88.6	3.1	1.56e+00	0	47	104	0	60	1048575
2026-01-17 10:42:07.39	326.08	11.63	-84.7	-88.6	3.1	1.56e+00	0	47	104	0	60	1048574
2026-01-17 10:42:08.40	326.21	11.56	-85.2	-88.6	3.0	1.56e+00	0	47	104	0	60	1048573
2026-01-17 10:42:09.41	326.33	11.49	-85.2	-88.6	3.0	1.56e+00	0	47	104	0	60	1048575
2026-01-17 10:42:10.42	326.46	11.42	-85.2	-88.6	3.0	1.56e+00	0	47	104	0	60	1048575
2026-01-17 10:42:11.42	326.58	11.35	-85.2	-88.6	3.1	1.56e+00	0	47	104	0	60	1048573
2026-01-17 10:42:12.43	326.70	11.28	-85.2	-88.6	2.9	1.56e+00	0	47	104	0	60	1048571
2026-01-17 10:42:13.43	326.83	11.21	-84.3	-88.6	2.9	1.56e+00	0	47	104	0	60	1048575
2026-01-17 10:42:14.44	326.95	11.14	-85.2	-88.6	3.1	1.56e+00	0	47	104	0	60	1048573
2026-01-17 10:42:15.45	327.07	11.07	-85.2	-88.6	2.9	1.56e+00	0	47	104	0	60	1048575
2026-01-17 10:42:16.46	327.19	11.00	-85.2	-88.6	2.8	1.56e+00	0	47	104	0	60	1048575
2026-01-17 10:42:17.47	327.32	10.93	-85.2	-88.6	3.1	1.55e+00	0	47	104	0	60	1048571
2026-01-17 10:42:18.47	327.44	10.86	-85.2	-88.6	3.1	1.56e+00	0	47	104	0	60	1048574
2026-01-17 10:42:19.48	327.56	10.80	-85.2	-88.6	2.8	1.56e+00	0	47	104	0	60	1048571
2026-01-17 10:42:20.49	327.68	10.73	-85.2	-88.6	3.1	1.56e+00	0	47	104	0	60	1048575
2026-01-17 10:42:21.50	327.79	10.66	-85.2	-88.6	3.0	1.56e+00	0	47	104	0	60	1048569
2026-01-17 10:42:22.50	327.91	10.59	-85.2	-88.6	3.1	1.56e+00	0	47	104	0	60	1048575
2026-01-17 10:42:23.51	328.03	10.52	-85.2	-88.6	2.8	1.55e+00	0	47	104	0	60	1048575
2026-01-17 10:42:24.51	328.15	10.45	-85.2	-88.6	3.1	1.56e+00	0	47	104	0	60	1048574
2026-01-17 10:42:25.52	328.26	10.39	-85.2	-88.6	2.9	1.55e+00	0	47	104	0	60	1048575
2026-01-17 10:42:26.53	328.38	10.32	-85.2	-88.6	3.1	1.55e+00	0	47	104	0	60	1048575
2026-01-17 10:42:27.54	328.50	10.25	-85.2	-88.6	2.9	1.56e+00	0	47	104	0	60	1048570
2026-01-17 10:42:28.55	328.61	10.18	-85.2	-88.6	3.1	1.56e+00	0	47	104	0	60	1048575
2026-01-17 10:42:29.55	328.73	10.11	-85.2	-88.6	2.9	1.56e+00	0	47	104	0	60	1048575
2026-01-17 10:42:30.56	328.84	10.05	-85.2	-88.6	3.0	1.56e+00	0	47	104	0	60	1048575
2026-01-17 10:42:31.57	328.95	9.98	-85.2	-88.6	3.1	1.55e+00	0	47	104	0	60	1048575
2026-01-17 10:42:32.58	329.07	9.91	-85.2	-88.6	3.1	1.55e+00	0	47	104	0	60	1048574
2026-01-17 10:42:33.59	329.18	9.84	-85.2	-88.6	3.1	1.56e+00	0	47	104	0	60	1048571
2026-01-17 10:42:34.60	329.29	9.78	-85.2	-88.6	3.1	1.55e+00	0	47	104	0	60	1048574
2026-01-17 10:42:35.61	329.41	9.71	-85.2	-88.6	3.0	1.56e+00	0	47	104	0	60	1048573
2026-01-17 10:42:36.62	329.52	9.64	-85.2	-88.6	3.2	1.56e+00	0	47	104	0	60	1048574
2026-01-17 10:42:37.62	329.63	9.57	-85.2	-88.6	3.0	1.56e+00	0	47	104	0	60	1048575
2026-01-17 10:42:38.62	329.74	9.51	-85.2	-88.6	2.9	1.56e+00	0	47	104	0	60	1048573
2026-01-17 10:42:39.62	329.84	9.44	-85.2	-88.6	3.0	1.56e+00	0	47	104	0	60	1048575
2026-01-17 10:42:40.63	329.95	9.37	-85.2	-88.6	2.9	1.55e+00	0	47	104	0	60	1048574
2026-01-17 10:42:41.63	330.06	9.31	-85.2	-88.6	3.0	1.56e+00	0	47	104	0	60	1048572
2026-01-17 10:42:42.64	330.17	9.24	-85.2	-88.6	3.0	1.55e+00	0	47	104	0	60	1048575
2026-01-17 10:42:43.65	330.28	9.17	-85.2	-88.6	3.0	1.56e+00	0	47	104	0	60	1048575
2026-01-17 10:42:44.65	330.39	9.11	-85.2	-88.6	3.1	1.56e+00	0	47	104	0	60	1048575
2026-01-17 10:42:45.66	330.49	9.04	-85.2	-88.6	2.9	1.56e+00	0	47	104	0	60	1048575
2026-01-17 10:42:46.66	330.60	8.98	-85.2	-88.6	2.8	1.56e+00	0	47	104	0	60	1048575
2026-01-17 10:42:47.67	330.71	8.91	-84.3	-88.6	2.9	1.56e+00	0	47	104	0	60	1048575
2026-01-17 10:42:48.68	330.81	8.84	-85.2	-88.6	2.9	1.56e+00	0	47	104	0	60	1048575
2026-01-17 10:42:49.69	330.92	8.78	-85.2	-88.6	3.0	1.56e+00	0	47	104	0	60	1048575
2026-01-17 10:42:50.69	331.02	8.71	-85.2	-88.6	3.0	1.56e+00	0	47	104	0	60	1048574
2026-01-17 10:42:51.70	331.12	8.65	-85.2	-88.6	3.2	1.56e+00	0	47	104	0	60	1048575
2026-01-17 10:42:52.71	331.23	8.58	-85.2	-88.6	3.0	1.55e+00	0	47	104	0	60	1048574
2026-01-17 10:42:53.72	331.33	8.52	-85.2	-88.6	2.9	1.56e+00	0	47	104	0	60	1048573
2026-01-17 10:42:54.72	331.43	8.45	-85.2	-88.6	3.0	1.55e+00	0	47	104	0	60	1048569
2026-01-17 10:42:55.72	331.54	8.39	-85.2	-88.6	3.1	1.55e+00	0	47	104	0	60	1048575
2026-01-17 10:42:56.72	331.64	8.32	-85.2	-88.6	2.8	1.56e+00	0	47	104	0	60	1048573
2026-01-17 10:42:57.72	331.74	8.26	-85.2	-88.6	2.8	1.56e+00	0	47	104	0	60	1048575
2026-01-17 10:42:58.72	331.84	8.19	-85.2	-88.6	3.1	1.56e+00	0	47	104	0	60	1048573
2026-01-17 10:42:59.72	331.94	8.13	-85.2	-88.6	2.9	1.55e+00	0	47	104	0	60	1048575
2026-01-17 10:43:00.73	332.04	8.06	-85.2	-88.6	3.2	1.55e+00	0	47	104	0	60	1048567
2026-01-17 10:43:01.73	332.14	8.00	-85.2	-88.6	2.7	1.56e+00	0	47	104	0	60	1048575
2026-01-17 10:43:02.73	332.24	7.93	-85.2	-88.6	3.0	1.56e+00	0	47	104	0	60	1048574
2026-01-17 10:43:03.74	332.34	7.87	-85.2	-88.6	3.0	1.56e+00	0	47	104	0	60	1048575
2026-01-17 10:43:04.75	332.44	7.80	-85.2	-88.6	2.9	1.56e+00	0	47	104	0	60	1048574
