passes_logs/2026/01/17/R3.2S-Naryan-Mar/R3.2S-Naryan-Mar__20260117_225414_NOAA_20_JPSS-1_rec.log

#Pass ID: 20260117_225414_NOAA 20 (JPSS-1)
#Satellite: NOAA 20 (JPSS-1)
#Configuration: NOAA 20
#almurnet v.1.7.20240730
#Start time: 2026-01-17 22:54:15

#Version: 2.2.20231116
#Station: R3.2S-Naryan-Mar
#Location: 53.008057 lon 67.646978 lat
#TLE: 1 43013U 17073A   26017.30359522  .00000067  00000+0  52526-4 0  9990
#TLE: 2 43013  98.7639 318.2187 0001419  36.2087 323.9184 14.19536557423067

#Time	Az	El	Level	Level2	SNR	BER	BlckErr	Temp	State	Recorded	gain1	gain2
2026-01-17 22:54:15.92	21.83	0.08	-85.2	-88.6	3.5	1.56e+00	0	44	0	0	60	1048575
2026-01-17 22:54:16.92	21.84	0.14	-85.2	-88.6	2.9	1.57e+00	0	45	104	0	60	1048575
2026-01-17 22:54:17.93	21.85	0.20	-85.2	-88.6	3.0	1.55e+00	0	45	104	0	60	1048575
2026-01-17 22:54:18.94	21.86	0.26	-84.3	-88.6	2.9	1.56e+00	0	46	104	0	60	1048574
2026-01-17 22:54:19.95	21.88	0.32	-85.2	-88.6	3.0	1.56e+00	0	46	104	0	60	1048575
2026-01-17 22:54:20.96	21.89	0.38	-85.2	-88.6	2.8	1.56e+00	0	46	104	0	60	1048574
2026-01-17 22:54:21.97	21.90	0.44	-84.7	-88.6	3.1	1.56e+00	0	46	104	0	60	1048575
2026-01-17 22:54:22.97	21.92	0.50	-85.2	-88.6	3.0	1.55e+00	0	46	104	0	60	1048573
2026-01-17 22:54:23.98	21.93	0.56	-85.2	-88.6	2.9	1.56e+00	0	46	104	0	60	1048575
2026-01-17 22:54:24.99	21.94	0.62	-84.7	-88.6	3.1	1.55e+00	0	46	104	0	60	1048571
2026-01-17 22:54:26.00	21.95	0.69	-85.2	-88.6	2.9	1.56e+00	0	46	104	0	60	1048575
2026-01-17 22:54:27.01	21.97	0.75	-84.3	-88.6	3.1	1.56e+00	0	46	104	0	60	1048574
2026-01-17 22:54:28.01	21.98	0.81	-85.2	-88.6	2.9	1.56e+00	0	46	104	0	60	1048574
2026-01-17 22:54:29.01	21.99	0.87	-85.2	-88.6	3.1	1.56e+00	0	46	104	0	60	1048575
2026-01-17 22:54:30.01	22.01	0.93	-84.7	-88.6	3.2	1.55e+00	0	46	104	0	60	1048574
2026-01-17 22:54:31.02	22.02	0.99	-85.2	-88.6	2.9	1.56e+00	0	46	104	0	60	1048575
2026-01-17 22:54:32.02	22.03	1.05	-85.2	-88.6	2.9	1.56e+00	0	46	104	0	60	1048575
2026-01-17 22:54:33.03	22.05	1.11	-84.7	-88.6	2.8	1.55e+00	0	46	104	0	60	1048574
2026-01-17 22:54:34.04	22.06	1.18	-85.2	-88.6	3.0	1.56e+00	0	46	104	0	60	1048575
2026-01-17 22:54:35.04	22.07	1.24	-85.2	-88.6	3.2	1.56e+00	0	46	104	0	60	1048574
2026-01-17 22:54:36.05	22.09	1.30	-85.2	-88.6	2.9	1.55e+00	0	46	104	0	60	1048572
2026-01-17 22:54:37.06	22.10	1.36	-85.2	-88.6	3.0	1.56e+00	0	46	104	0	60	1048575
2026-01-17 22:54:38.06	22.11	1.43	-85.2	-88.6	3.1	1.55e+00	0	46	104	0	60	1048575
2026-01-17 22:54:39.07	22.13	1.49	-85.2	-88.6	3.1	1.55e+00	0	46	104	0	60	1048573
2026-01-17 22:54:40.08	22.14	1.55	-85.2	-88.6	2.9	1.56e+00	0	46	104	0	60	1048574
2026-01-17 22:54:41.09	22.15	1.62	-85.2	-88.6	3.0	1.55e+00	0	46	104	0	60	1048574
2026-01-17 22:54:42.09	22.17	1.68	-85.2	-88.6	2.9	1.56e+00	0	46	104	0	60	1048575
2026-01-17 22:54:43.10	22.18	1.74	-85.2	-88.6	3.1	1.56e+00	0	46	104	0	60	1048574
2026-01-17 22:54:44.11	22.19	1.81	-85.2	-88.6	3.1	1.56e+00	0	46	104	0	60	1048572
2026-01-17 22:54:45.12	22.21	1.87	-85.2	-88.6	3.1	1.56e+00	0	46	104	0	60	1048575
2026-01-17 22:54:46.13	22.22	1.93	-85.2	-88.6	3.1	1.56e+00	0	46	104	0	60	1048574
2026-01-17 22:54:47.13	22.23	2.00	-85.2	-88.6	3.1	1.56e+00	0	46	104	0	60	1048575
2026-01-17 22:54:48.14	22.25	2.06	-85.2	-88.6	3.1	1.56e+00	0	46	104	0	60	1048575
2026-01-17 22:54:49.14	22.26	2.12	-84.7	-88.6	2.7	1.56e+00	0	46	104	0	60	1048575
2026-01-17 22:54:50.15	22.28	2.19	-85.2	-88.6	3.2	1.56e+00	0	46	104	0	60	1048574
2026-01-17 22:54:51.15	22.29	2.25	-85.2	-88.6	3.0	1.56e+00	0	46	104	0	60	1048574
2026-01-17 22:54:52.16	22.30	2.32	-85.2	-88.6	3.1	1.56e+00	0	46	104	0	60	1048575
2026-01-17 22:54:53.16	22.32	2.38	-85.2	-88.6	2.8	1.56e+00	0	46	104	0	60	1048574
2026-01-17 22:54:54.17	22.33	2.45	-84.7	-88.6	3.0	1.56e+00	0	46	104	0	60	1048575
2026-01-17 22:54:55.18	22.35	2.51	-85.2	-88.6	3.0	1.56e+00	0	46	104	0	60	1048575
2026-01-17 22:54:56.18	22.36	2.58	-84.7	-88.6	2.7	1.55e+00	0	46	104	0	60	1048575
2026-01-17 22:54:57.19	22.37	2.64	-85.2	-88.6	2.9	1.56e+00	0	46	104	0	60	1048574
2026-01-17 22:54:58.20	22.39	2.71	-85.2	-88.6	2.8	1.56e+00	0	46	104	0	60	1048575
2026-01-17 22:54:59.21	22.40	2.77	-85.2	-88.6	3.1	1.56e+00	0	46	104	0	60	1048575
2026-01-17 22:55:00.21	22.42	2.84	-85.2	-88.6	3.0	1.56e+00	0	46	104	0	60	1048575
2026-01-17 22:55:01.22	22.43	2.90	-85.2	-88.6	3.0	1.55e+00	0	46	104	0	60	1048575
2026-01-17 22:55:02.23	22.45	2.97	-85.2	-88.6	2.9	1.56e+00	0	46	104	0	60	1048573
2026-01-17 22:55:03.23	22.46	3.04	-85.2	-88.6	2.8	1.55e+00	0	46	104	0	60	1048573
2026-01-17 22:55:04.24	22.47	3.10	-85.2	-88.6	3.1	1.56e+00	0	46	104	0	60	1048575
2026-01-17 22:55:05.25	22.49	3.17	-85.2	-88.6	3.0	1.56e+00	0	46	104	0	60	1048575
2026-01-17 22:55:06.25	22.50	3.24	-85.2	-88.6	3.1	1.56e+00	0	46	104	0	60	1048574
2026-01-17 22:55:07.26	22.52	3.30	-85.2	-88.6	3.1	1.56e+00	0	46	104	0	60	1048575
2026-01-17 22:55:08.27	22.53	3.37	-85.2	-88.6	3.0	1.56e+00	0	46	104	0	60	1048575
2026-01-17 22:55:09.27	22.55	3.44	-85.2	-88.6	3.0	1.56e+00	0	46	104	0	60	1048574
2026-01-17 22:55:10.28	22.56	3.50	-85.2	-88.6	3.0	1.55e+00	0	46	104	0	60	1048573
2026-01-17 22:55:11.29	22.58	3.57	-85.2	-88.6	3.1	1.55e+00	0	47	104	0	60	1048567
2026-01-17 22:55:12.29	22.59	3.64	-85.2	-88.6	3.1	1.56e+00	0	46	104	0	60	1048574
2026-01-17 22:55:13.30	22.61	3.71	-85.2	-88.6	3.2	1.55e+00	0	46	104	0	60	1048574
2026-01-17 22:55:14.31	22.62	3.78	-85.2	-88.6	3.0	1.55e+00	0	46	104	0	60	1048575
2026-01-17 22:55:15.32	22.64	3.84	-85.2	-88.6	3.0	1.55e+00	0	46	104	0	60	1048575
2026-01-17 22:55:16.33	22.65	3.91	-85.2	-88.6	2.8	1.56e+00	0	46	104	0	60	1048573
2026-01-17 22:55:17.33	22.67	3.98	-85.2	-88.6	3.2	1.56e+00	0	46	104	0	60	1048574
2026-01-17 22:55:18.33	22.68	4.05	-85.2	-88.6	3.0	1.56e+00	0	46	104	0	60	1048575
2026-01-17 22:55:19.34	22.70	4.12	-85.2	-88.6	3.0	1.55e+00	0	46	104	0	60	1048575
2026-01-17 22:55:20.35	22.71	4.19	-85.2	-88.6	2.8	1.56e+00	0	46	104	0	60	1048572
2026-01-17 22:55:21.35	22.73	4.26	-85.2	-88.6	2.9	1.56e+00	0	46	104	0	60	1048575
2026-01-17 22:55:22.36	22.74	4.33	-85.2	-88.6	3.1	1.56e+00	0	46	104	0	60	1048573
2026-01-17 22:55:23.36	22.76	4.39	-85.2	-88.6	2.7	1.55e+00	0	46	104	0	60	1048574
2026-01-17 22:55:24.36	22.77	4.46	-85.2	-88.6	3.1	1.56e+00	0	46	104	0	60	1048575
2026-01-17 22:55:25.37	22.79	4.53	-85.2	-88.6	2.7	1.56e+00	0	47	104	0	60	1048575
2026-01-17 22:55:26.38	22.80	4.60	-85.2	-88.6	3.0	1.56e+00	0	47	104	0	60	1048575
2026-01-17 22:55:27.38	22.82	4.67	-85.2	-88.6	3.3	1.55e+00	0	47	104	0	60	1048573
2026-01-17 22:55:28.39	22.83	4.74	-85.2	-88.6	2.9	1.56e+00	0	47	104	0	60	1048574
2026-01-17 22:55:29.39	22.85	4.82	-85.2	-88.6	3.0	1.56e+00	0	47	104	0	60	1048573
2026-01-17 22:55:30.40	22.87	4.89	-85.2	-88.6	2.9	1.55e+00	0	47	104	0	60	1048573
2026-01-17 22:55:31.41	22.88	4.96	-85.2	-88.6	3.0	1.56e+00	0	47	104	0	60	1048575
2026-01-17 22:55:32.42	22.90	5.03	-85.2	-88.6	3.1	1.56e+00	0	47	104	0	60	1048575
2026-01-17 22:55:33.43	22.91	5.10	-85.2	-88.6	3.1	1.56e+00	0	47	104	0	60	1048572
2026-01-17 22:55:34.44	22.93	5.17	-85.2	-88.6	3.0	1.56e+00	0	46	104	0	60	1048573
2026-01-17 22:55:35.45	22.95	5.24	-85.2	-88.6	3.0	1.55e+00	0	47	104	0	60	1048573
2026-01-17 22:55:36.45	22.96	5.32	-85.2	-88.6	3.1	1.56e+00	0	47	104	0	60	1048572
2026-01-17 22:55:37.46	22.98	5.39	-85.2	-88.6	3.0	1.55e+00	0	47	104	0	60	1048575
2026-01-17 22:55:38.47	22.99	5.46	-85.2	-88.6	2.9	1.56e+00	0	47	104	0	60	1048574
2026-01-17 22:55:39.47	23.01	5.53	-85.2	-88.6	2.9	1.56e+00	0	47	104	0	60	1048575
2026-01-17 22:55:40.48	23.03	5.61	-85.2	-88.6	3.2	1.56e+00	0	46	104	0	60	1048575
2026-01-17 22:55:41.49	23.04	5.68	-85.2	-88.6	3.2	1.56e+00	0	47	104	0	60	1048575
2026-01-17 22:55:42.50	23.06	5.75	-85.2	-88.6	3.2	1.56e+00	0	46	104	0	60	1048574
2026-01-17 22:55:43.51	23.08	5.83	-85.2	-88.6	3.1	1.56e+00	0	47	104	0	60	1048575
2026-01-17 22:55:44.52	23.09	5.90	-85.2	-88.6	3.0	1.56e+00	0	46	104	0	60	1048575
2026-01-17 22:55:45.52	23.11	5.97	-85.2	-88.6	3.0	1.56e+00	0	47	104	0	60	1048575
2026-01-17 22:55:46.53	23.12	6.05	-85.2	-88.6	3.1	1.56e+00	0	47	104	0	60	1048574
2026-01-17 22:55:47.53	23.14	6.12	-85.2	-88.6	3.0	1.55e+00	0	47	104	0	60	1048570
2026-01-17 22:55:48.54	23.16	6.20	-85.2	-88.6	3.0	1.56e+00	0	47	104	0	60	1048575
2026-01-17 22:55:49.55	23.17	6.27	-85.2	-88.6	3.0	1.55e+00	0	47	104	0	60	1048575
2026-01-17 22:55:50.56	23.19	6.35	-85.2	-88.6	3.0	1.56e+00	0	47	104	0	60	1048572
2026-01-17 22:55:51.57	23.21	6.42	-85.2	-88.6	3.0	1.56e+00	0	47	104	0	60	1048574
2026-01-17 22:55:52.57	23.23	6.50	-85.2	-88.6	3.0	1.56e+00	0	47	104	0	60	1048575
2026-01-17 22:55:53.58	23.24	6.57	-85.2	-88.6	2.9	1.55e+00	0	47	104	0	60	1048575
2026-01-17 22:55:54.59	23.26	6.65	-85.2	-88.6	2.8	1.56e+00	0	47	104	0	60	1048574
2026-01-17 22:55:55.60	23.28	6.72	-85.2	-88.6	2.9	1.56e+00	0	47	104	0	60	1048574
2026-01-17 22:55:56.61	23.29	6.80	-85.2	-88.6	3.1	1.55e+00	0	47	104	0	60	1048575
2026-01-17 22:55:57.61	23.31	6.88	-85.2	-88.6	2.9	1.56e+00	0	47	104	0	60	1048574
2026-01-17 22:55:58.62	23.33	6.95	-85.2	-88.6	3.1	1.56e+00	0	47	104	0	60	1048575
2026-01-17 22:55:59.62	23.35	7.03	-85.2	-88.6	3.0	1.56e+00	0	47	104	0	60	1048575
2026-01-17 22:56:00.63	23.36	7.11	-85.2	-88.6	3.2	1.55e+00	0	47	104	0	60	1048575
2026-01-17 22:56:01.63	23.38	7.18	-85.2	-88.6	3.0	1.56e+00	0	47	104	0	60	1048575
2026-01-17 22:56:02.64	23.40	7.26	-85.2	-88.6	2.7	1.56e+00	0	47	104	0	60	1048575
2026-01-17 22:56:03.64	23.42	7.34	-85.2	-88.6	2.9	1.56e+00	0	47	104	0	60	1048568
2026-01-17 22:56:04.65	23.43	7.42	-85.2	-88.6	3.0	1.56e+00	0	47	104	0	60	1048571
2026-01-17 22:56:05.66	23.45	7.50	-85.2	-88.6	3.0	1.56e+00	0	47	104	0	60	1048574
2026-01-17 22:56:06.67	23.47	7.57	-85.2	-88.6	3.2	1.55e+00	0	47	104	0	60	1048575
2026-01-17 22:56:07.68	23.49	7.65	-85.2	-88.6	2.9	1.56e+00	0	47	104	0	60	1048575
2026-01-17 22:56:08.69	23.51	7.73	-85.2	-88.6	3.1	1.55e+00	0	47	104	0	60	1048575
2026-01-17 22:56:09.69	23.52	7.81	-85.2	-88.6	2.9	1.56e+00	0	47	104	0	60	1048575
2026-01-17 22:56:10.69	23.54	7.89	-85.2	-88.6	3.0	1.56e+00	0	47	104	0	60	1048575
2026-01-17 22:56:11.70	23.56	7.97	-85.2	-88.6	3.0	1.55e+00	0	47	104	0	60	1048573
2026-01-17 22:56:12.70	23.58	8.05	-85.2	-88.6	3.2	1.56e+00	0	47	104	0	60	1048572
2026-01-17 22:56:13.71	23.60	8.13	-85.2	-88.6	3.1	1.55e+00	0	47	104	0	60	1048575
2026-01-17 22:56:14.71	23.62	8.21	-85.2	-88.6	3.0	1.56e+00	0	47	104	0	60	1048575
2026-01-17 22:56:15.72	23.64	8.29	-85.2	-88.6	3.3	1.56e+00	0	47	104	0	60	1048575
2026-01-17 22:56:16.72	23.65	8.37	-85.2	-88.6	3.1	1.56e+00	0	47	104	0	60	1048575
2026-01-17 22:56:17.73	23.67	8.45	-85.2	-88.6	3.0	1.56e+00	0	47	104	0	60	1048572
2026-01-17 22:56:18.73	23.69	8.53	-85.2	-88.6	3.2	1.55e+00	0	47	104	0	60	1048575
2026-01-17 22:56:19.74	23.71	8.62	-85.2	-88.6	2.8	1.56e+00	0	47	104	0	60	1048569
2026-01-17 22:56:20.75	23.73	8.70	-85.2	-88.6	3.2	1.56e+00	0	47	104	0	60	1048575
2026-01-17 22:56:21.76	23.75	8.78	-85.2	-88.6	3.0	1.55e+00	0	47	104	0	60	1048575
2026-01-17 22:56:22.77	23.77	8.86	-85.2	-88.6	3.1	1.56e+00	0	47	104	0	60	1048575
2026-01-17 22:56:23.77	23.79	8.95	-85.2	-88.6	2.9	1.56e+00	0	47	104	0	60	1048571
2026-01-17 22:56:24.78	23.81	9.03	-85.2	-88.6	3.0	1.56e+00	0	47	104	0	60	1048575
2026-01-17 22:56:25.79	23.83	9.11	-85.2	-88.6	3.0	1.56e+00	0	47	104	0	60	1048575
2026-01-17 22:56:26.80	23.85	9.20	-85.2	-88.6	3.3	1.56e+00	0	47	104	0	60	1048575
2026-01-17 22:56:27.81	23.86	9.28	-85.2	-88.6	3.3	1.56e+00	0	47	104	0	60	1048575
2026-01-17 22:56:28.81	23.88	9.36	-85.2	-88.6	3.0	1.56e+00	0	47	104	0	60	1048575
2026-01-17 22:56:29.82	23.90	9.45	-85.2	-88.6	3.0	1.56e+00	0	47	104	0	60	1048573
2026-01-17 22:56:30.82	23.92	9.53	-85.2	-88.6	3.0	1.56e+00	0	47	104	0	60	1048573
2026-01-17 22:56:31.83	23.94	9.62	-85.2	-88.6	3.2	1.56e+00	0	47	104	0	60	1048574
2026-01-17 22:56:32.84	23.96	9.70	-85.2	-88.6	2.9	1.56e+00	0	47	104	0	60	1048575
2026-01-17 22:56:33.85	23.98	9.79	-85.2	-88.6	3.1	1.56e+00	0	47	104	0	60	1048573
2026-01-17 22:56:34.85	24.00	9.88	-85.2	-88.6	3.0	1.55e+00	0	47	104	0	60	1048573
2026-01-17 22:56:35.86	24.02	9.96	-85.2	-88.6	3.1	1.56e+00	0	47	104	0	60	1048572
2026-01-17 22:56:36.87	24.05	10.05	-85.2	-88.6	2.9	1.56e+00	0	47	104	0	60	1048571
2026-01-17 22:56:37.88	24.07	10.14	-85.2	-88.6	2.8	1.55e+00	0	47	104	0	60	1048575
2026-01-17 22:56:38.89	24.09	10.22	-85.2	-88.6	3.0	1.56e+00	0	47	104	0	60	1048574
2026-01-17 22:56:39.90	24.11	10.31	-85.2	-88.6	2.8	1.55e+00	0	47	104	0	60	1048575
2026-01-17 22:56:40.90	24.13	10.40	-84.7	-88.6	2.9	1.56e+00	0	47	104	0	60	1048575
2026-01-17 22:56:41.91	24.15	10.49	-85.2	-88.6	3.1	1.56e+00	0	47	104	0	60	1048574
2026-01-17 22:56:42.92	24.17	10.58	-85.2	-88.6	3.1	1.56e+00	0	47	104	0	60	1048573
2026-01-17 22:56:43.92	24.19	10.66	-85.2	-88.6	3.1	1.56e+00	0	47	104	0	60	1048575
2026-01-17 22:56:44.93	24.21	10.75	-85.2	-88.6	3.2	1.56e+00	0	47	104	0	60	1048575
2026-01-17 22:56:45.93	24.23	10.84	-85.2	-88.6	2.8	1.56e+00	0	47	104	0	60	1048575
2026-01-17 22:56:46.93	24.25	10.93	-85.2	-88.6	3.0	1.56e+00	0	47	104	0	60	1048575
2026-01-17 22:56:47.94	24.28	11.02	-85.2	-88.6	3.0	1.55e+00	0	47	104	0	60	1048575
2026-01-17 22:56:48.95	24.30	11.11	-85.2	-88.6	3.1	1.56e+00	0	47	104	0	60	1048574
2026-01-17 22:56:49.96	24.32	11.20	-85.2	-88.6	3.1	1.56e+00	0	47	104	0	60	1048575
2026-01-17 22:56:50.96	24.34	11.29	-84.7	-88.6	3.1	1.56e+00	0	47	104	0	60	1048575
2026-01-17 22:56:51.97	24.36	11.39	-85.2	-88.6	3.1	1.55e+00	0	47	104	0	60	1048575
2026-01-17 22:56:52.98	24.39	11.48	-85.2	-88.6	3.1	1.56e+00	0	47	104	0	60	1048575
2026-01-17 22:56:53.98	24.41	11.57	-85.2	-88.6	3.1	1.56e+00	0	47	104	0	60	1048574
2026-01-17 22:56:54.99	24.43	11.66	-85.2	-88.6	3.2	1.55e+00	0	47	104	0	60	1048575
2026-01-17 22:56:56.00	24.45	11.75	-85.2	-88.6	3.1	1.56e+00	0	47	104	0	60	1048574
2026-01-17 22:56:57.00	24.47	11.85	-85.2	-88.6	2.9	1.56e+00	0	47	104	0	60	1048575
2026-01-17 22:56:58.01	24.50	11.94	-85.2	-88.6	2.9	1.56e+00	0	47	104	0	60	1048574
2026-01-17 22:56:59.02	24.52	12.03	-85.2	-88.6	3.0	1.56e+00	0	47	104	0	60	1048574
2026-01-17 22:57:00.03	24.54	12.13	-85.2	-88.6	2.9	1.56e+00	0	47	104	0	60	1048570
2026-01-17 22:57:01.04	24.57	12.22	-85.2	-88.6	2.9	1.55e+00	0	47	104	0	60	1048575
2026-01-17 22:57:02.05	24.59	12.32	-85.2	-88.6	3.1	1.55e+00	0	47	104	0	60	1048573
2026-01-17 22:57:03.05	24.61	12.41	-85.2	-88.6	3.2	1.56e+00	0	47	104	0	60	1048572
2026-01-17 22:57:04.06	24.64	12.51	-85.2	-88.6	3.1	1.56e+00	0	47	104	0	60	1048575
2026-01-17 22:57:05.07	24.66	12.61	-85.2	-88.6	3.1	1.56e+00	0	47	104	0	60	1048574
2026-01-17 22:57:06.08	24.68	12.70	-84.7	-88.6	3.0	1.56e+00	0	47	104	0	60	1048575
2026-01-17 22:57:07.08	24.71	12.80	-85.2	-88.6	3.2	1.56e+00	0	47	104	0	60	1048570
2026-01-17 22:57:08.09	24.73	12.90	-85.2	-88.6	3.0	1.56e+00	0	47	104	0	60	1048570
2026-01-17 22:57:09.09	24.75	12.99	-85.2	-88.6	3.1	1.56e+00	0	47	104	0	60	1048575
2026-01-17 22:57:10.09	24.78	13.09	-85.2	-88.6	2.9	1.56e+00	0	47	104	0	60	1048574
2026-01-17 22:57:11.10	24.80	13.19	-85.2	-88.6	3.1	1.55e+00	0	47	104	0	60	1048575
2026-01-17 22:57:12.11	24.83	13.29	-85.2	-88.6	3.1	1.56e+00	0	47	104	0	60	1048575
2026-01-17 22:57:13.11	24.85	13.39	-85.2	-88.6	3.1	1.56e+00	0	47	104	0	60	1048575
2026-01-17 22:57:14.12	24.88	13.49	-85.2	-88.6	3.0	1.56e+00	0	47	104	0	60	1048575
2026-01-17 22:57:15.13	24.90	13.59	-85.2	-88.6	3.0	1.55e+00	0	47	104	0	60	1048575
2026-01-17 22:57:16.13	24.92	13.69	-85.2	-88.6	3.0	1.56e+00	0	47	104	0	60	1048573
2026-01-17 22:57:17.13	24.95	13.79	-85.2	-88.6	3.3	1.56e+00	0	47	104	0	60	1048575
2026-01-17 22:57:18.13	24.97	13.89	-85.2	-88.6	3.1	1.55e+00	0	47	104	0	60	1048575
2026-01-17 22:57:19.13	25.00	13.99	-85.2	-88.6	2.9	1.56e+00	0	47	104	0	60	1048574
2026-01-17 22:57:20.14	25.03	14.09	-85.2	-88.6	3.0	1.56e+00	0	47	104	0	60	1048575
2026-01-17 22:57:21.14	25.05	14.19	-85.2	-88.6	3.2	1.55e+00	0	47	104	0	60	1048575
2026-01-17 22:57:22.15	25.08	14.29	-85.2	-88.6	2.7	1.56e+00	0	47	104	0	60	1048575
2026-01-17 22:57:23.16	25.10	14.40	-85.2	-88.6	3.1	1.56e+00	0	47	104	0	60	1048574
2026-01-17 22:57:24.16	25.13	14.50	-85.2	-88.6	2.9	1.56e+00	0	47	104	0	60	1048574
2026-01-17 22:57:25.16	25.15	14.61	-85.2	-88.6	3.1	1.56e+00	0	47	104	0	60	1048574
2026-01-17 22:57:26.17	25.18	14.71	-85.2	-88.6	3.0	1.56e+00	0	47	104	0	60	1048575
2026-01-17 22:57:27.17	25.21	14.81	-85.2	-88.6	3.2	1.55e+00	0	47	104	0	60	1048572
2026-01-17 22:57:28.18	25.23	14.92	-85.2	-88.6	3.1	1.56e+00	0	47	104	0	60	1048575
2026-01-17 22:57:29.19	25.26	15.03	-84.7	-88.6	3.1	1.55e+00	0	47	104	0	60	1048575
2026-01-17 22:57:30.19	25.29	15.13	-85.2	-88.6	3.1	1.56e+00	0	47	104	0	60	1048572
2026-01-17 22:57:31.20	25.31	15.24	-85.2	-88.6	3.0	1.56e+00	0	47	104	0	60	1048574
2026-01-17 22:57:32.21	25.34	15.35	-85.2	-88.6	3.0	1.56e+00	0	47	104	0	60	1048575
2026-01-17 22:57:33.22	25.37	15.46	-85.2	-88.6	2.8	1.55e+00	0	47	104	0	60	1048575
2026-01-17 22:57:34.23	25.40	15.56	-85.2	-88.6	3.1	1.56e+00	0	47	104	0	60	1048575
2026-01-17 22:57:35.24	25.42	15.67	-85.2	-88.6	3.1	1.56e+00	0	47	104	0	60	1048575
2026-01-17 22:57:36.24	25.45	15.78	-85.2	-88.6	3.2	1.55e+00	0	47	104	0	60	1048573
2026-01-17 22:57:37.25	25.48	15.89	-85.2	-88.6	2.8	1.56e+00	0	47	104	0	60	1048574
2026-01-17 22:57:38.25	25.51	16.00	-85.2	-88.6	3.1	1.56e+00	0	47	104	0	60	1048575
2026-01-17 22:57:39.26	25.54	16.11	-85.2	-88.6	3.0	1.55e+00	0	47	104	0	60	1048574
2026-01-17 22:57:40.27	25.57	16.22	-85.2	-88.6	3.2	1.55e+00	0	47	104	0	60	1048575
2026-01-17 22:57:41.28	25.60	16.34	-85.2	-88.6	3.1	1.56e+00	0	47	104	0	60	1048575
2026-01-17 22:57:42.29	25.62	16.45	-85.2	-88.6	2.8	1.56e+00	0	47	104	0	60	1048575
2026-01-17 22:57:43.29	25.65	16.56	-85.2	-88.6	2.9	1.55e+00	0	47	104	0	60	1048575
2026-01-17 22:57:44.30	25.68	16.67	-85.2	-88.6	2.9	1.56e+00	0	47	104	0	60	1048571
2026-01-17 22:57:45.31	25.71	16.79	-85.2	-88.6	3.0	1.55e+00	0	47	104	0	60	1048575
2026-01-17 22:57:46.32	25.74	16.90	-85.2	-88.6	3.0	1.56e+00	0	47	104	0	60	1048574
2026-01-17 22:57:47.33	25.77	17.02	-85.2	-88.6	3.0	1.56e+00	0	47	104	0	60	1048574
2026-01-17 22:57:48.33	25.80	17.13	-85.2	-88.6	3.1	1.56e+00	0	47	104	0	60	1048572
2026-01-17 22:57:49.33	25.83	17.25	-85.2	-88.6	2.9	1.56e+00	0	47	104	0	60	1048575
2026-01-17 22:57:50.34	25.86	17.37	-84.3	-88.6	3.1	1.56e+00	0	47	104	0	60	1048575
2026-01-17 22:57:51.35	25.89	17.48	-85.2	-88.6	3.2	1.56e+00	0	47	104	0	60	1048574
2026-01-17 22:57:52.35	25.92	17.60	-85.2	-88.6	2.8	1.56e+00	0	47	104	0	60	1048573
2026-01-17 22:57:53.36	25.96	17.72	-85.2	-88.6	3.1	1.56e+00	0	47	104	0	60	1048575
2026-01-17 22:57:54.36	25.99	17.84	-85.2	-88.6	3.1	1.56e+00	0	47	104	0	60	1048575
2026-01-17 22:57:55.37	26.02	17.96	-84.7	-88.6	2.9	1.56e+00	0	47	104	0	60	1048573
2026-01-17 22:57:56.37	26.05	18.07	-85.2	-88.6	3.1	1.56e+00	0	47	104	0	60	1048574
2026-01-17 22:57:57.38	26.08	18.20	-85.2	-88.6	3.1	1.56e+00	0	47	104	0	60	1048575
2026-01-17 22:57:58.39	26.11	18.32	-85.2	-88.6	3.1	1.56e+00	0	47	104	0	60	1048573
2026-01-17 22:57:59.40	26.15	18.44	-84.7	-88.6	3.0	1.55e+00	0	47	104	0	60	1048575
2026-01-17 22:58:00.41	26.18	18.56	-85.2	-88.6	3.0	1.56e+00	0	47	104	0	60	1048575
2026-01-17 22:58:01.42	26.21	18.68	-85.2	-88.6	3.0	1.56e+00	0	47	104	0	60	1048575
2026-01-17 22:58:02.42	26.25	18.81	-85.2	-88.6	2.9	1.55e+00	0	47	104	0	60	1048575
2026-01-17 22:58:03.43	26.28	18.93	-85.2	-88.6	2.8	1.56e+00	0	47	104	0	60	1048573
2026-01-17 22:58:04.44	26.31	19.06	-85.2	-88.6	2.8	1.55e+00	0	47	104	0	60	1048573
2026-01-17 22:58:05.44	26.35	19.18	-85.2	-88.6	2.9	1.56e+00	0	47	104	0	60	1048573
2026-01-17 22:58:06.45	26.38	19.31	-85.2	-88.6	3.0	1.56e+00	0	47	104	0	60	1048574
2026-01-17 22:58:07.46	26.42	19.43	-85.2	-88.6	3.1	1.55e+00	0	47	104	0	60	1048573
2026-01-17 22:58:08.47	26.45	19.56	-85.2	-88.6	3.0	1.56e+00	0	47	104	0	60	1048575
2026-01-17 22:58:09.48	26.49	19.69	-83.5	-88.6	2.9	1.55e+00	0	47	104	0	60	1048574
2026-01-17 22:58:10.48	26.52	19.82	-84.3	-88.6	2.9	1.55e+00	0	47	104	0	60	1048574
2026-01-17 22:58:11.48	26.56	19.95	-85.2	-88.6	3.1	1.55e+00	0	47	104	0	60	1048574
2026-01-17 22:58:12.49	26.59	20.08	-85.2	-88.6	2.9	1.56e+00	0	47	104	0	60	1048575
2026-01-17 22:58:13.50	26.63	20.21	-85.2	-88.6	3.0	1.56e+00	0	47	104	0	60	1048573
2026-01-17 22:58:14.50	26.66	20.34	-84.3	-88.6	2.9	1.56e+00	0	47	104	0	60	1048575
2026-01-17 22:58:15.51	26.70	20.47	-85.2	-88.6	3.1	1.56e+00	0	47	104	0	60	1048574
2026-01-17 22:58:16.52	26.74	20.60	-85.2	-88.6	3.2	1.56e+00	0	47	104	0	60	1048569
2026-01-17 22:58:17.53	26.77	20.74	-85.2	-88.6	2.9	1.55e+00	0	47	104	0	60	1048575
2026-01-17 22:58:18.53	26.81	20.87	-85.2	-88.6	3.1	1.56e+00	0	47	104	0	60	1048575
2026-01-17 22:58:19.54	26.85	21.01	-85.2	-88.6	2.9	1.55e+00	0	47	104	0	60	1048575
2026-01-17 22:58:20.55	26.89	21.14	-85.2	-88.6	3.0	1.55e+00	0	47	104	0	60	1048575
2026-01-17 22:58:21.56	26.92	21.28	-85.2	-88.6	3.0	1.55e+00	0	47	104	0	60	1048575
2026-01-17 22:58:22.57	26.96	21.42	-85.2	-88.6	2.9	1.56e+00	0	47	104	0	60	1048574
2026-01-17 22:58:23.57	27.00	21.55	-85.2	-88.6	3.2	1.56e+00	0	47	104	0	60	1048575
2026-01-17 22:58:24.57	27.04	21.69	-85.2	-88.6	3.2	1.56e+00	0	47	104	0	60	1048575
2026-01-17 22:58:25.58	27.08	21.83	-85.2	-88.6	2.9	1.56e+00	0	47	104	0	60	1048574
2026-01-17 22:58:26.59	27.12	21.97	-85.2	-88.6	2.9	1.56e+00	0	47	104	0	60	1048573
2026-01-17 22:58:27.59	27.16	22.11	-85.2	-88.6	3.2	1.56e+00	0	47	104	0	60	1048574
2026-01-17 22:58:28.60	27.20	22.25	-85.2	-88.6	3.0	1.55e+00	0	47	104	0	60	1048573
2026-01-17 22:58:29.61	27.24	22.39	-85.2	-88.6	3.0	1.55e+00	0	47	104	0	60	1048571
2026-01-17 22:58:30.61	27.28	22.53	-85.2	-88.6	3.0	1.55e+00	0	47	104	0	60	1048575
2026-01-17 22:58:31.62	27.32	22.68	-85.2	-88.6	3.0	1.56e+00	0	47	104	0	60	1048575
2026-01-17 22:58:32.63	27.36	22.82	-85.2	-88.6	3.0	1.56e+00	0	47	104	0	60	1048574
2026-01-17 22:58:33.63	27.41	22.97	-85.2	-88.6	2.9	1.56e+00	0	47	104	0	60	1048575
2026-01-17 22:58:34.65	27.45	23.12	-85.2	-88.6	2.9	1.56e+00	0	47	104	0	60	1048575
2026-01-17 22:58:35.65	27.49	23.26	-85.2	-88.6	3.0	1.56e+00	0	47	104	0	60	1048575
2026-01-17 22:58:36.66	27.54	23.41	-85.2	-88.6	3.0	1.56e+00	0	47	104	0	60	1048575
2026-01-17 22:58:37.67	27.58	23.56	-85.2	-88.6	3.1	1.56e+00	0	47	104	0	60	1048575
2026-01-17 22:58:38.67	27.62	23.71	-85.2	-88.6	2.9	1.55e+00	0	47	104	0	60	1048575
2026-01-17 22:58:39.67	27.67	23.86	-85.2	-88.6	3.0	1.56e+00	0	47	104	0	60	1048575
2026-01-17 22:58:40.68	27.71	24.01	-85.2	-88.6	3.2	1.56e+00	0	47	104	0	60	1048574
2026-01-17 22:58:41.69	27.76	24.16	-85.2	-88.6	3.1	1.56e+00	0	47	104	0	60	1048574
2026-01-17 22:58:42.70	27.80	24.32	-85.2	-88.6	2.8	1.55e+00	0	47	104	0	60	1048571
2026-01-17 22:58:43.70	27.85	24.47	-85.2	-88.6	2.9	1.56e+00	0	47	104	0	60	1048574
2026-01-17 22:58:44.71	27.89	24.62	-85.2	-88.6	3.1	1.56e+00	0	47	104	0	60	1048574
2026-01-17 22:58:45.71	27.94	24.78	-85.2	-88.6	2.9	1.56e+00	0	47	104	0	60	1048574
2026-01-17 22:58:46.71	27.99	24.93	-85.2	-88.6	3.1	1.55e+00	0	47	104	0	60	1048575
2026-01-17 22:58:47.72	28.03	25.09	-85.2	-88.6	3.0	1.56e+00	0	47	104	0	60	1048575
2026-01-17 22:58:48.73	28.08	25.25	-85.2	-88.6	3.0	1.55e+00	0	47	104	0	60	1048575
2026-01-17 22:58:49.73	28.13	25.41	-85.2	-88.6	2.9	1.55e+00	0	47	104	0	60	1048575
2026-01-17 22:58:50.74	28.18	25.57	-85.2	-88.6	2.8	1.56e+00	0	47	104	0	60	1048575
2026-01-17 22:58:51.75	28.23	25.73	-85.2	-88.6	2.9	1.56e+00	0	47	104	0	60	1048575
2026-01-17 22:58:52.76	28.28	25.89	-85.2	-88.6	2.9	1.56e+00	0	47	104	0	60	1048571
2026-01-17 22:58:53.77	28.33	26.06	-85.2	-88.6	3.1	1.56e+00	0	47	104	0	60	1048575
2026-01-17 22:58:54.77	28.38	26.22	-85.2	-88.6	3.1	1.56e+00	0	47	104	0	60	1048572
2026-01-17 22:58:55.78	28.43	26.39	-85.2	-88.6	3.0	1.55e+00	0	47	104	0	60	1048574
2026-01-17 22:58:56.79	28.48	26.55	-85.2	-88.6	3.2	1.56e+00	0	47	104	0	60	1048575
2026-01-17 22:58:57.80	28.53	26.72	-85.2	-88.6	3.2	1.55e+00	0	47	104	0	60	1048574
2026-01-17 22:58:58.80	28.59	26.89	-85.2	-88.6	2.9	1.56e+00	0	47	104	0	60	1048573
2026-01-17 22:58:59.81	28.64	27.06	-85.2	-88.6	3.2	1.56e+00	0	47	104	0	60	1048575
2026-01-17 22:59:00.82	28.69	27.23	-85.2	-88.6	3.2	1.56e+00	0	47	104	0	60	1048573
2026-01-17 22:59:01.82	28.75	27.40	-85.2	-88.6	3.0	1.56e+00	0	47	104	0	60	1048574
2026-01-17 22:59:02.82	28.80	27.57	-85.2	-88.6	3.1	1.56e+00	0	47	104	0	60	1048571
2026-01-17 22:59:03.83	28.86	27.74	-85.2	-88.6	3.1	1.56e+00	0	47	104	0	60	1048573
2026-01-17 22:59:04.83	28.91	27.92	-85.2	-88.6	2.9	1.56e+00	0	47	104	0	60	1048574
2026-01-17 22:59:05.83	28.97	28.09	-85.2	-88.6	3.2	1.56e+00	0	47	104	0	60	1048575
2026-01-17 22:59:06.84	29.03	28.27	-85.2	-88.6	3.2	1.56e+00	0	47	104	0	60	1048575
2026-01-17 22:59:07.85	29.08	28.45	-85.2	-88.6	3.0	1.56e+00	0	47	104	0	60	1048575
2026-01-17 22:59:08.86	29.14	28.63	-85.2	-88.6	3.1	1.56e+00	0	47	104	0	60	1048575
2026-01-17 22:59:09.87	29.20	28.81	-85.2	-88.6	3.0	1.56e+00	0	47	104	0	60	1048574
2026-01-17 22:59:10.88	29.26	28.99	-85.2	-88.6	2.9	1.56e+00	0	47	104	0	60	1048575
2026-01-17 22:59:11.88	29.32	29.17	-85.2	-88.6	2.8	1.56e+00	0	47	104	0	60	1048572
2026-01-17 22:59:12.89	29.38	29.35	-85.2	-88.6	3.0	1.56e+00	0	47	104	0	60	1048575
2026-01-17 22:59:13.90	29.44	29.54	-85.2	-88.6	3.1	1.56e+00	0	47	104	0	60	1048575
2026-01-17 22:59:14.91	29.50	29.72	-85.2	-88.6	3.1	1.56e+00	0	47	104	0	60	1048575
2026-01-17 22:59:15.92	29.57	29.91	-85.2	-88.6	2.9	1.56e+00	0	47	104	0	60	1048571
2026-01-17 22:59:16.93	29.63	30.10	-85.2	-88.6	3.0	1.55e+00	0	47	104	0	60	1048574
2026-01-17 22:59:17.93	29.69	30.29	-85.2	-88.6	2.9	1.56e+00	0	47	104	0	60	1048572
2026-01-17 22:59:18.94	29.76	30.48	-85.2	-88.6	3.2	1.56e+00	0	47	104	0	60	1048573
2026-01-17 22:59:19.95	29.83	30.67	-85.2	-88.6	2.9	1.55e+00	0	47	104	0	60	1048575
2026-01-17 22:59:20.96	29.89	30.87	-85.2	-88.6	2.9	1.56e+00	0	47	104	0	60	1048570
2026-01-17 22:59:21.96	29.96	31.06	-85.2	-88.6	3.0	1.56e+00	0	47	104	0	60	1048575
2026-01-17 22:59:22.97	30.03	31.26	-85.2	-88.6	2.9	1.56e+00	0	47	104	0	60	1048575
2026-01-17 22:59:23.98	30.09	31.45	-85.2	-88.6	3.0	1.55e+00	0	47	104	0	60	1048575
2026-01-17 22:59:24.99	30.16	31.65	-85.2	-88.6	2.9	1.55e+00	0	47	104	0	60	1048575
2026-01-17 22:59:26.00	30.23	31.85	-85.2	-88.6	3.1	1.55e+00	0	47	104	0	60	1048575
2026-01-17 22:59:27.00	30.30	32.05	-85.2	-88.6	3.1	1.56e+00	0	47	104	0	60	1048575
2026-01-17 22:59:28.01	30.38	32.26	-85.2	-88.6	3.0	1.56e+00	0	47	104	0	60	1048574
2026-01-17 22:59:29.02	30.45	32.46	-85.2	-88.6	3.0	1.56e+00	0	47	104	0	60	1048575
2026-01-17 22:59:30.03	30.52	32.66	-85.2	-88.6	2.9	1.56e+00	0	47	104	0	60	1048575
2026-01-17 22:59:31.03	30.60	32.87	-85.2	-88.6	3.1	1.56e+00	0	47	104	0	60	1048574
2026-01-17 22:59:32.04	30.67	33.08	-85.2	-88.6	3.0	1.56e+00	0	47	104	0	60	1048575
2026-01-17 22:59:33.05	30.75	33.29	-85.2	-88.6	3.0	1.56e+00	0	47	104	0	60	1048574
2026-01-17 22:59:34.05	30.82	33.50	-85.2	-88.6	3.0	1.56e+00	0	47	104	0	60	1048572
2026-01-17 22:59:35.05	30.90	33.71	-85.2	-88.6	3.0	1.56e+00	0	47	104	0	60	1048575
2026-01-17 22:59:36.06	30.98	33.92	-85.2	-88.6	3.0	1.56e+00	0	47	104	0	60	1048575
2026-01-17 22:59:37.07	31.06	34.14	-85.2	-88.6	3.1	1.56e+00	0	47	104	0	60	1048575
2026-01-17 22:59:38.08	31.14	34.35	-85.2	-88.6	3.1	1.56e+00	0	47	104	0	60	1048572
2026-01-17 22:59:39.08	31.22	34.57	-85.2	-88.6	3.0	1.56e+00	0	47	104	0	60	1048575
2026-01-17 22:59:40.09	31.31	34.79	-85.2	-88.6	2.9	1.56e+00	0	47	104	0	60	1048574
2026-01-17 22:59:41.09	31.39	35.01	-85.2	-88.6	3.0	1.56e+00	0	47	104	0	60	1048573
2026-01-17 22:59:42.10	31.48	35.23	-85.2	-88.6	3.1	1.56e+00	0	47	104	0	60	1048574
2026-01-17 22:59:43.11	31.56	35.45	-85.2	-88.6	3.0	1.56e+00	0	47	104	0	60	1048575
2026-01-17 22:59:44.11	31.65	35.68	-85.2	-88.6	3.1	1.56e+00	0	47	104	0	60	1048573
2026-01-17 22:59:45.12	31.74	35.91	-85.2	-88.6	3.0	1.55e+00	0	47	104	0	60	1048575
2026-01-17 22:59:46.13	31.83	36.13	-85.2	-88.6	2.9	1.56e+00	0	47	104	0	60	1048571
2026-01-17 22:59:47.13	31.92	36.36	-85.2	-88.6	3.1	1.56e+00	0	47	104	0	60	1048575
2026-01-17 22:59:48.14	32.01	36.59	-85.2	-88.6	3.1	1.56e+00	0	47	104	0	60	1048574
2026-01-17 22:59:49.14	32.10	36.83	-85.2	-88.6	3.0	1.55e+00	0	47	104	0	60	1048572
2026-01-17 22:59:50.15	32.20	37.06	-85.2	-88.6	3.1	1.55e+00	0	47	104	0	60	1048575
2026-01-17 22:59:51.16	32.29	37.30	-85.2	-88.6	3.0	1.55e+00	0	47	104	0	60	1048575
2026-01-17 22:59:52.17	32.39	37.54	-85.2	-88.6	3.1	1.56e+00	0	47	104	0	60	1048574
2026-01-17 22:59:53.18	32.49	37.78	-85.2	-88.6	3.0	1.55e+00	0	47	104	0	60	1048575
2026-01-17 22:59:54.19	32.59	38.02	-85.2	-88.6	2.9	1.56e+00	0	47	104	0	60	1048575
2026-01-17 22:59:55.19	32.69	38.26	-85.2	-88.6	2.9	1.56e+00	0	47	104	0	60	1048575
2026-01-17 22:59:56.20	32.80	38.50	-85.2	-88.6	3.3	1.56e+00	0	47	104	0	60	1048575
2026-01-17 22:59:57.21	32.90	38.75	-85.2	-88.6	3.2	1.56e+00	0	47	104	0	60	1048572
2026-01-17 22:59:58.22	33.01	39.00	-85.2	-88.6	2.9	1.56e+00	0	47	104	0	60	1048575
2026-01-17 22:59:59.22	33.11	39.25	-85.2	-88.6	3.0	1.56e+00	0	47	104	0	60	1048574
2026-01-17 23:00:00.23	33.22	39.50	-85.2	-88.6	3.0	1.55e+00	0	47	104	0	60	1048571
2026-01-17 23:00:01.24	33.33	39.75	-85.2	-88.6	2.7	1.56e+00	0	47	104	0	60	1048575
2026-01-17 23:00:02.25	33.45	40.01	-85.2	-88.6	3.1	1.56e+00	0	47	104	0	60	1048575
2026-01-17 23:00:03.25	33.56	40.26	-85.2	-88.6	2.9	1.56e+00	0	47	104	0	60	1048572
2026-01-17 23:00:04.25	33.68	40.52	-85.2	-88.6	3.0	1.56e+00	0	47	104	0	60	1048575
2026-01-17 23:00:05.26	33.79	40.78	-85.2	-88.6	3.0	1.56e+00	0	47	104	0	60	1048575
2026-01-17 23:00:06.27	33.91	41.04	-85.2	-88.6	2.8	1.56e+00	0	47	104	0	60	1048575
2026-01-17 23:00:07.28	34.04	41.30	-85.2	-88.6	3.0	1.55e+00	0	47	104	0	60	1048574
2026-01-17 23:00:08.29	34.16	41.57	-85.2	-88.6	2.8	1.56e+00	0	47	104	0	60	1048575
2026-01-17 23:00:09.29	34.28	41.84	-85.2	-88.6	2.9	1.56e+00	0	47	104	0	60	1048572
2026-01-17 23:00:10.29	34.41	42.10	-85.2	-88.6	2.9	1.55e+00	0	47	104	0	60	1048574
2026-01-17 23:00:11.30	34.54	42.37	-85.2	-88.6	3.0	1.56e+00	0	47	104	0	60	1048575
2026-01-17 23:00:12.30	34.67	42.64	-85.2	-88.6	3.2	1.56e+00	0	47	104	0	60	1048575
2026-01-17 23:00:13.31	34.81	42.92	-85.2	-88.6	3.2	1.56e+00	0	47	104	0	60	1048575
2026-01-17 23:00:14.32	34.94	43.20	-85.2	-88.6	3.1	1.56e+00	0	47	104	0	60	1048575
2026-01-17 23:00:15.32	35.08	43.47	-85.2	-88.6	3.0	1.56e+00	0	47	104	0	60	1048575
2026-01-17 23:00:16.33	35.22	43.75	-85.2	-88.6	3.0	1.56e+00	0	47	104	0	60	1048575
2026-01-17 23:00:17.34	35.37	44.04	-85.2	-88.6	3.1	1.56e+00	0	47	104	0	60	1048573
2026-01-17 23:00:18.35	35.51	44.32	-85.2	-88.6	3.0	1.55e+00	0	47	104	0	60	1048575
2026-01-17 23:00:19.35	35.66	44.60	-85.2	-88.6	2.9	1.55e+00	0	47	104	0	60	1048575
2026-01-17 23:00:20.36	35.81	44.89	-85.2	-88.6	2.9	1.55e+00	0	47	104	0	60	1048572
2026-01-17 23:00:21.36	35.96	45.18	-85.2	-88.6	3.0	1.56e+00	0	47	104	0	60	1048571
2026-01-17 23:00:22.36	36.12	45.47	-85.2	-88.6	3.0	1.56e+00	0	47	104	0	60	1048574
2026-01-17 23:00:23.37	36.28	45.76	-85.2	-88.6	3.1	1.55e+00	0	47	104	0	60	1048573
2026-01-17 23:00:24.37	36.44	46.05	-85.2	-88.6	3.0	1.55e+00	0	47	104	0	60	1048575
2026-01-17 23:00:25.38	36.60	46.35	-85.2	-88.6	3.1	1.56e+00	0	47	104	0	60	1048574
2026-01-17 23:00:26.39	36.77	46.65	-85.2	-88.6	3.1	1.56e+00	0	47	104	0	60	1048575
2026-01-17 23:00:27.39	36.94	46.95	-85.2	-88.6	2.9	1.56e+00	0	47	104	0	60	1048574
2026-01-17 23:00:28.40	37.12	47.25	-85.2	-88.6	2.8	1.56e+00	0	47	104	0	60	1048575
2026-01-17 23:00:29.41	37.29	47.56	-85.2	-88.6	3.2	1.55e+00	0	47	104	0	60	1048575
2026-01-17 23:00:30.41	37.47	47.86	-85.2	-88.6	2.9	1.56e+00	0	47	104	0	60	1048575
2026-01-17 23:00:31.42	37.66	48.17	-85.2	-88.6	3.1	1.56e+00	0	47	104	0	60	1048575
2026-01-17 23:00:32.43	37.85	48.48	-85.2	-88.6	3.0	1.56e+00	0	47	104	0	60	1048574
2026-01-17 23:00:33.43	38.04	48.79	-85.2	-88.6	2.7	1.56e+00	0	47	104	0	60	1048573
2026-01-17 23:00:34.44	38.24	49.11	-85.2	-88.6	2.9	1.56e+00	0	47	104	0	60	1048575
2026-01-17 23:00:35.45	38.44	49.42	-83.5	-88.6	2.9	1.56e+00	0	47	104	0	60	1048575
2026-01-17 23:00:36.46	38.64	49.74	-85.2	-88.6	3.1	1.56e+00	0	47	104	0	60	1048575
2026-01-17 23:00:37.47	38.85	50.06	-85.2	-88.6	3.0	1.55e+00	0	47	104	0	60	1048575
2026-01-17 23:00:38.47	39.06	50.38	-85.2	-88.6	2.8	1.56e+00	0	47	104	0	60	1048573
2026-01-17 23:00:39.48	39.28	50.71	-85.2	-88.6	3.1	1.55e+00	0	47	104	0	60	1048572
2026-01-17 23:00:40.48	39.50	51.03	-85.2	-88.6	3.2	1.55e+00	0	47	104	0	60	1048575
2026-01-17 23:00:41.49	39.73	51.36	-85.2	-88.6	2.8	1.55e+00	0	47	104	0	60	1048575
2026-01-17 23:00:42.50	39.96	51.69	-85.2	-88.6	3.1	1.56e+00	0	47	104	0	60	1048575
2026-01-17 23:00:43.51	40.20	52.02	-85.2	-88.6	2.9	1.56e+00	0	47	104	0	60	1048575
2026-01-17 23:00:44.51	40.44	52.35	-85.2	-88.6	3.1	1.55e+00	0	47	104	0	60	1048572
2026-01-17 23:00:45.52	40.68	52.68	-85.2	-88.6	3.0	1.56e+00	0	47	104	0	60	1048573
2026-01-17 23:00:46.52	40.93	53.02	-85.2	-88.6	3.1	1.56e+00	0	47	104	0	60	1048572
2026-01-17 23:00:47.53	41.19	53.35	-85.2	-88.6	3.0	1.55e+00	0	47	104	0	60	1048574
2026-01-17 23:00:48.53	41.46	53.69	-85.2	-88.6	3.1	1.56e+00	0	47	104	0	60	1048575
2026-01-17 23:00:49.54	41.73	54.03	-85.2	-88.6	3.0	1.56e+00	0	47	104	0	60	1048573
2026-01-17 23:00:50.55	42.01	54.38	-85.2	-88.6	3.1	1.56e+00	0	47	104	0	60	1048575
2026-01-17 23:00:51.56	42.29	54.72	-85.2	-88.6	3.0	1.55e+00	0	47	104	0	60	1048572
2026-01-17 23:00:52.56	42.58	55.06	-85.2	-88.6	2.9	1.56e+00	0	47	104	0	60	1048575
2026-01-17 23:00:53.57	42.88	55.41	-85.2	-88.6	3.0	1.56e+00	0	47	104	0	60	1048574
2026-01-17 23:00:54.57	43.18	55.76	-85.2	-88.6	3.1	1.55e+00	0	47	104	0	60	1048571
2026-01-17 23:00:55.58	43.49	56.11	-85.2	-88.6	2.9	1.56e+00	0	47	104	0	60	1048575
2026-01-17 23:00:56.58	43.81	56.46	-85.2	-88.6	3.1	1.55e+00	0	47	104	0	60	1048575
2026-01-17 23:00:57.59	44.14	56.81	-85.2	-88.6	3.0	1.56e+00	0	47	104	0	60	1048575
2026-01-17 23:00:58.60	44.48	57.17	-85.2	-88.6	2.9	1.55e+00	0	47	104	0	60	1048575
2026-01-17 23:00:59.60	44.82	57.52	-85.2	-88.6	3.1	1.56e+00	0	47	104	0	60	1048572
2026-01-17 23:01:00.61	45.18	57.88	-85.2	-88.6	3.2	1.55e+00	0	47	104	0	60	1048573
2026-01-17 23:01:01.61	45.54	58.24	-85.2	-88.6	3.1	1.56e+00	0	47	104	0	60	1048575
2026-01-17 23:01:02.62	45.92	58.60	-85.2	-88.6	2.9	1.56e+00	0	47	104	0	60	1048574
2026-01-17 23:01:03.63	46.30	58.96	-85.2	-88.6	3.0	1.55e+00	0	47	104	0	60	1048572
2026-01-17 23:01:04.64	46.70	59.32	-85.2	-88.6	3.0	1.56e+00	0	47	104	0	60	1048575
2026-01-17 23:01:05.65	47.10	59.68	-85.2	-88.6	2.8	1.56e+00	0	47	104	0	60	1048574
2026-01-17 23:01:06.65	47.52	60.04	-85.2	-88.6	2.9	1.55e+00	0	47	104	0	60	1048575
2026-01-17 23:01:07.67	47.95	60.41	-85.2	-88.6	2.9	1.56e+00	0	47	104	0	60	1048572
2026-01-17 23:01:08.67	48.39	60.77	-85.2	-88.6	3.0	1.56e+00	0	47	104	0	60	1048575
2026-01-17 23:01:09.68	48.85	61.14	-85.2	-88.6	3.1	1.56e+00	0	47	104	0	60	1048574
2026-01-17 23:01:10.68	49.31	61.50	-85.2	-88.6	2.9	1.56e+00	0	47	104	0	60	1048570
2026-01-17 23:01:11.69	49.79	61.87	-85.2	-88.6	3.1	1.56e+00	0	47	104	0	60	1048574
2026-01-17 23:01:12.70	50.29	62.23	-85.2	-88.6	3.1	1.56e+00	0	47	104	0	60	1048571
2026-01-17 23:01:13.70	50.80	62.60	-85.2	-88.6	2.9	1.56e+00	0	47	104	0	60	1048574
2026-01-17 23:01:14.71	51.33	62.96	-85.2	-88.6	3.1	1.56e+00	0	47	104	0	60	1048573
2026-01-17 23:01:15.71	51.87	63.33	-85.2	-88.6	3.0	1.56e+00	0	47	104	0	60	1048573
2026-01-17 23:01:16.72	52.43	63.69	-84.3	-88.6	3.0	1.56e+00	0	47	104	0	60	1048575
2026-01-17 23:01:17.73	53.01	64.06	-85.2	-88.6	2.9	1.56e+00	0	47	104	0	60	1048572
2026-01-17 23:01:18.74	53.60	64.43	-85.2	-88.6	3.2	1.56e+00	0	47	104	0	60	1048573
2026-01-17 23:01:19.74	54.21	64.79	-85.2	-88.6	3.0	1.56e+00	0	47	104	0	60	1048575
2026-01-17 23:01:20.75	54.85	65.15	-85.2	-88.6	3.0	1.56e+00	0	47	104	0	60	1048575
2026-01-17 23:01:21.76	55.51	65.52	-85.2	-88.6	3.1	1.56e+00	0	47	104	0	60	1048573
2026-01-17 23:01:22.77	56.19	65.88	-85.2	-88.6	3.0	1.55e+00	0	47	104	0	60	1048575
2026-01-17 23:01:23.78	56.89	66.24	-85.2	-88.6	3.1	1.55e+00	0	47	104	0	60	1048575
2026-01-17 23:01:24.78	57.61	66.59	-85.2	-88.6	2.9	1.56e+00	0	47	104	0	60	1048575
2026-01-17 23:01:25.79	58.36	66.95	-85.2	-88.6	3.1	1.55e+00	0	47	104	0	60	1048574
2026-01-17 23:01:26.80	59.13	67.30	-85.2	-88.6	2.9	1.56e+00	0	47	104	0	60	1048575
2026-01-17 23:01:27.80	59.93	67.65	-85.2	-88.6	2.9	1.55e+00	0	47	104	0	60	1048572
2026-01-17 23:01:28.81	60.76	68.00	-85.2	-88.6	3.2	1.56e+00	0	47	104	0	60	1048575
2026-01-17 23:01:29.81	61.61	68.34	-85.2	-88.6	2.9	1.56e+00	0	47	104	0	60	1048575
2026-01-17 23:01:30.82	62.49	68.69	-85.2	-88.6	3.1	1.56e+00	0	47	104	0	60	1048575
2026-01-17 23:01:31.82	63.40	69.02	-85.2	-88.6	3.1	1.56e+00	0	47	104	0	60	1048575
2026-01-17 23:01:32.83	64.36	69.36	-85.2	-88.6	3.0	1.56e+00	0	47	104	0	60	1048575
2026-01-17 23:01:33.84	65.34	69.69	-85.2	-88.6	3.1	1.56e+00	0	47	104	0	60	1048575
2026-01-17 23:01:34.84	66.35	70.01	-85.2	-88.6	3.0	1.56e+00	0	47	104	0	60	1048575
2026-01-17 23:01:35.85	67.40	70.34	-85.2	-88.6	2.9	1.56e+00	0	47	104	0	60	1048575
2026-01-17 23:01:36.86	68.50	70.65	-84.7	-88.6	3.0	1.56e+00	0	47	104	0	60	1048575
2026-01-17 23:01:37.87	69.63	70.96	-85.2	-88.6	3.1	1.55e+00	0	47	104	0	60	1048575
2026-01-17 23:01:38.87	70.79	71.27	-85.2	-88.6	2.8	1.56e+00	0	47	104	0	60	1048575
2026-01-17 23:01:39.87	71.98	71.56	-84.3	-88.6	3.2	1.55e+00	0	47	104	0	60	1048573
2026-01-17 23:01:40.88	73.23	71.85	-85.2	-88.6	3.0	1.55e+00	0	47	104	0	60	1048573
2026-01-17 23:01:41.89	74.53	72.14	-85.2	-88.6	2.7	1.56e+00	0	47	104	0	60	1048574
2026-01-17 23:01:42.89	75.85	72.41	-85.2	-88.6	3.0	1.55e+00	0	47	104	0	60	1048573
2026-01-17 23:01:43.90	77.23	72.67	-85.2	-88.6	3.0	1.55e+00	0	47	104	0	60	1048574
2026-01-17 23:01:44.91	78.66	72.93	-85.2	-88.6	3.0	1.55e+00	0	47	104	0	60	1048575
2026-01-17 23:01:45.92	80.13	73.18	-85.2	-88.6	3.1	1.56e+00	0	47	104	0	60	1048569
2026-01-17 23:01:46.92	81.63	73.42	-85.2	-88.6	3.0	1.56e+00	0	47	104	0	60	1048574
2026-01-17 23:01:47.93	83.19	73.64	-85.2	-88.6	3.1	1.56e+00	0	47	104	0	60	1048575
2026-01-17 23:01:48.93	84.77	73.86	-85.2	-88.6	2.9	1.56e+00	0	47	104	0	60	1048574
2026-01-17 23:01:49.93	86.41	74.06	-85.2	-88.6	3.0	1.56e+00	0	47	104	0	60	1048575
2026-01-17 23:01:50.93	88.08	74.25	-85.2	-88.6	3.1	1.56e+00	0	47	104	0	60	1048575
2026-01-17 23:01:51.94	89.81	74.42	-85.2	-88.6	2.9	1.56e+00	0	47	104	0	60	1048575
2026-01-17 23:01:52.95	91.58	74.59	-85.2	-88.6	3.1	1.56e+00	0	47	104	0	60	1048575
2026-01-17 23:01:53.95	93.37	74.74	-85.2	-88.6	3.1	1.56e+00	0	47	104	0	60	1048575
2026-01-17 23:01:54.96	95.22	74.87	-85.2	-88.6	3.3	1.56e+00	0	47	104	0	60	1048575
2026-01-17 23:01:55.97	97.10	74.99	-85.2	-88.6	3.0	1.55e+00	0	47	104	0	60	1048574
2026-01-17 23:01:56.98	99.00	75.10	-85.2	-88.6	2.9	1.56e+00	0	47	104	0	60	1048575
2026-01-17 23:01:57.99	100.94	75.19	-85.2	-88.6	2.9	1.56e+00	0	47	104	0	60	1048574
2026-01-17 23:01:58.99	102.87	75.26	-85.2	-88.6	2.8	1.55e+00	0	47	104	0	60	1048575
2026-01-17 23:02:00.00	104.84	75.31	-85.2	-88.6	3.1	1.55e+00	0	47	104	0	60	1048572
2026-01-17 23:02:01.01	106.83	75.35	-85.2	-88.6	3.1	1.56e+00	0	47	104	0	60	1048575
2026-01-17 23:02:02.01	108.80	75.38	-85.2	-88.6	3.0	1.56e+00	0	47	104	0	60	1048572
2026-01-17 23:02:03.02	110.80	75.38	-85.2	-88.6	3.1	1.55e+00	0	47	104	0	60	1048575
2026-01-17 23:02:04.03	112.80	75.37	-85.2	-88.6	3.0	1.56e+00	0	47	104	0	60	1048573
2026-01-17 23:02:05.03	114.77	75.34	-85.2	-88.6	2.8	1.56e+00	0	47	104	0	60	1048574
2026-01-17 23:02:06.04	116.75	75.30	-85.2	-88.6	3.1	1.55e+00	0	47	104	0	60	1048573
2026-01-17 23:02:07.04	118.70	75.23	-85.2	-88.6	2.9	1.56e+00	0	47	104	0	60	1048575
2026-01-17 23:02:08.05	120.65	75.16	-85.2	-88.6	2.8	1.56e+00	0	47	104	0	60	1048575
2026-01-17 23:02:09.06	122.57	75.06	-85.2	-88.6	3.0	1.56e+00	0	47	104	0	60	1048575
2026-01-17 23:02:10.06	124.45	74.95	-84.3	-88.6	3.0	1.55e+00	0	47	104	0	60	1048575
2026-01-17 23:02:11.07	126.32	74.83	-83.5	-88.6	3.0	1.56e+00	0	47	104	0	60	1048574
2026-01-17 23:02:12.07	128.14	74.69	-85.2	-88.6	3.0	1.56e+00	0	47	104	0	60	1048575
2026-01-17 23:02:13.08	129.93	74.53	-85.2	-88.6	3.1	1.56e+00	0	47	104	0	60	1048575
2026-01-17 23:02:14.08	131.67	74.36	-85.2	-88.6	3.0	1.56e+00	0	47	104	0	60	1048575
2026-01-17 23:02:15.09	133.39	74.18	-85.2	-88.6	2.8	1.55e+00	0	47	104	0	60	1048574
2026-01-17 23:02:16.09	135.05	73.99	-85.2	-88.6	3.1	1.56e+00	0	47	104	0	60	1048575
2026-01-17 23:02:17.09	136.67	73.78	-85.2	-88.6	3.2	1.55e+00	0	47	104	0	60	1048574
2026-01-17 23:02:18.10	138.26	73.56	-85.2	-88.6	2.9	1.56e+00	0	47	104	0	60	1048572
2026-01-17 23:02:19.11	139.80	73.33	-85.2	-88.6	2.9	1.56e+00	0	47	104	0	60	1048572
2026-01-17 23:02:20.11	141.29	73.09	-85.2	-88.6	3.0	1.56e+00	0	47	104	0	60	1048575
2026-01-17 23:02:21.11	142.73	72.84	-85.2	-88.6	3.2	1.56e+00	0	47	104	0	60	1048575
2026-01-17 23:02:22.12	144.14	72.58	-85.2	-88.6	3.1	1.56e+00	0	47	104	0	60	1048575
2026-01-17 23:02:23.13	145.51	72.31	-85.2	-88.6	3.1	1.56e+00	0	47	104	0	60	1048575
2026-01-17 23:02:24.13	146.82	72.04	-85.2	-88.6	3.1	1.56e+00	0	47	104	0	60	1048575
2026-01-17 23:02:25.14	148.10	71.75	-85.2	-88.6	3.0	1.55e+00	0	47	104	0	60	1048575
2026-01-17 23:02:26.15	149.33	71.46	-85.2	-88.6	3.2	1.56e+00	0	47	104	0	60	1048575
2026-01-17 23:02:27.16	150.53	71.16	-85.2	-88.6	3.0	1.56e+00	0	47	104	0	60	1048574
2026-01-17 23:02:28.17	151.69	70.85	-85.2	-88.6	3.3	1.56e+00	0	47	104	0	60	1048575
2026-01-17 23:02:29.17	152.79	70.54	-85.2	-88.6	2.8	1.56e+00	0	47	104	0	60	1048574
2026-01-17 23:02:30.18	153.87	70.22	-85.2	-88.6	3.0	1.56e+00	0	47	104	0	60	1048574
2026-01-17 23:02:31.19	154.92	69.90	-85.2	-88.6	3.2	1.56e+00	0	47	104	0	60	1048574
2026-01-17 23:02:32.20	155.92	69.57	-85.2	-88.6	3.1	1.56e+00	0	47	104	0	60	1048575
2026-01-17 23:02:33.21	156.90	69.23	-85.2	-88.6	3.1	1.55e+00	0	47	104	0	60	1048575
2026-01-17 23:02:34.22	157.84	68.89	-85.2	-88.6	2.8	1.56e+00	0	47	104	0	60	1048575
2026-01-17 23:02:35.21	158.73	68.56	-85.2	-88.6	2.9	1.56e+00	0	47	104	0	60	1048575
2026-01-17 23:02:36.22	159.61	68.22	-85.2	-88.6	3.1	1.56e+00	0	47	104	0	60	1048575
2026-01-17 23:02:37.22	160.45	67.87	-85.2	-88.6	2.8	1.56e+00	0	47	104	0	60	1048575
2026-01-17 23:02:38.23	161.27	67.52	-85.2	-88.6	3.2	1.55e+00	0	47	104	0	60	1048573
2026-01-17 23:02:39.23	162.05	67.17	-85.2	-88.6	2.9	1.56e+00	0	47	104	0	60	1048574
2026-01-17 23:02:40.24	162.82	66.81	-85.2	-88.6	3.1	1.56e+00	0	47	104	0	60	1048575
2026-01-17 23:02:41.24	163.55	66.46	-85.2	-88.6	3.1	1.56e+00	0	47	104	0	60	1048574
2026-01-17 23:02:42.25	164.27	66.10	-85.2	-88.6	3.2	1.56e+00	0	47	104	0	60	1048573
2026-01-17 23:02:43.26	164.96	65.74	-85.2	-88.6	3.1	1.56e+00	0	47	104	0	60	1048575
2026-01-17 23:02:44.27	165.64	65.38	-85.2	-88.6	3.0	1.56e+00	0	47	104	0	60	1048575
2026-01-17 23:02:45.27	166.28	65.01	-85.2	-88.6	2.9	1.56e+00	0	47	104	0	60	1048574
2026-01-17 23:02:46.28	166.91	64.65	-85.2	-88.6	3.0	1.56e+00	0	47	104	0	60	1048575
2026-01-17 23:02:47.29	167.52	64.28	-85.2	-88.6	3.0	1.56e+00	0	47	104	0	60	1048573
2026-01-17 23:02:48.30	168.11	63.92	-85.2	-88.6	2.8	1.56e+00	0	47	104	0	60	1048574
2026-01-17 23:02:49.30	168.68	63.55	-85.2	-88.6	2.9	1.55e+00	0	47	104	0	60	1048574
2026-01-17 23:02:50.31	169.23	63.19	-84.3	-88.6	3.1	1.55e+00	0	47	104	0	60	1048575
2026-01-17 23:02:51.31	169.77	62.82	-85.2	-88.6	2.9	1.56e+00	0	47	104	0	60	1048572
2026-01-17 23:02:52.32	170.29	62.45	-85.2	-88.6	2.9	1.56e+00	0	47	104	0	60	1048575
2026-01-17 23:02:53.33	170.80	62.09	-85.2	-88.6	2.9	1.56e+00	0	47	104	0	60	1048575
2026-01-17 23:02:54.33	171.28	61.72	-85.2	-88.6	3.1	1.56e+00	0	47	104	0	60	1048573
2026-01-17 23:02:55.34	171.76	61.36	-84.3	-88.6	3.0	1.55e+00	0	47	104	0	60	1048575
2026-01-17 23:02:56.34	172.22	60.99	-84.3	-88.6	2.7	1.55e+00	0	47	104	0	60	1048569
2026-01-17 23:02:57.35	172.67	60.63	-85.2	-88.6	2.9	1.55e+00	0	47	104	0	60	1048575
2026-01-17 23:02:58.35	173.11	60.26	-85.2	-88.6	3.0	1.56e+00	0	47	104	0	60	1048574
2026-01-17 23:02:59.36	173.53	59.90	-84.7	-88.6	3.1	1.55e+00	0	47	104	0	60	1048575
2026-01-17 23:03:00.36	173.95	59.54	-85.2	-88.6	2.9	1.56e+00	0	47	104	0	60	1048575
2026-01-17 23:03:01.37	174.35	59.17	-85.2	-88.6	2.9	1.56e+00	0	47	104	0	60	1048574
2026-01-17 23:03:02.38	174.74	58.81	-85.2	-88.6	2.7	1.56e+00	0	47	104	0	60	1048574
2026-01-17 23:03:03.39	175.12	58.45	-85.2	-88.6	2.8	1.56e+00	0	47	104	0	60	1048575
2026-01-17 23:03:04.40	175.50	58.09	-85.2	-88.6	3.0	1.56e+00	0	47	104	0	60	1048573
2026-01-17 23:03:05.41	175.86	57.73	-85.2	-88.6	2.8	1.56e+00	0	47	104	0	60	1048572
2026-01-17 23:03:06.41	176.21	57.37	-83.5	-88.6	2.9	1.56e+00	0	47	104	0	60	1048574
2026-01-17 23:03:07.42	176.55	57.02	-85.2	-88.6	3.1	1.56e+00	0	47	104	0	60	1048572
2026-01-17 23:03:08.43	176.89	56.66	-85.2	-88.6	3.0	1.55e+00	0	47	104	0	60	1048573
2026-01-17 23:03:09.44	177.21	56.31	-85.2	-88.6	3.1	1.56e+00	0	47	104	0	60	1048574
2026-01-17 23:03:10.45	177.53	55.95	-85.2	-88.6	3.1	1.56e+00	0	47	104	0	60	1048574
2026-01-17 23:03:11.45	177.84	55.61	-85.2	-88.6	2.9	1.56e+00	0	47	104	0	60	1048575
2026-01-17 23:03:12.46	178.14	55.26	-85.2	-88.6	2.9	1.56e+00	0	47	104	0	60	1048571
2026-01-17 23:03:13.46	178.44	54.91	-85.2	-88.6	3.1	1.56e+00	0	47	104	0	60	1048574
2026-01-17 23:03:14.47	178.72	54.56	-85.2	-88.6	3.1	1.56e+00	0	47	104	0	60	1048574
2026-01-17 23:03:15.48	179.01	54.22	-85.2	-88.6	2.9	1.56e+00	0	47	104	0	60	1048574
2026-01-17 23:03:16.49	179.28	53.87	-85.2	-88.6	3.1	1.56e+00	0	47	104	0	60	1048574
2026-01-17 23:03:17.50	179.55	53.53	-85.2	-88.6	2.9	1.56e+00	0	47	104	0	60	1048575
2026-01-17 23:03:18.51	179.82	53.19	-85.2	-88.6	3.1	1.56e+00	0	47	104	0	60	1048575
2026-01-17 23:03:19.52	180.07	52.85	-85.2	-88.6	3.1	1.55e+00	0	47	104	0	60	1048575
2026-01-17 23:03:20.53	180.32	52.52	-85.2	-88.6	3.1	1.56e+00	0	47	104	0	60	1048575
2026-01-17 23:03:21.53	180.57	52.18	-85.2	-88.6	3.0	1.56e+00	0	47	104	0	60	1048574
2026-01-17 23:03:22.54	180.81	51.85	-85.2	-88.6	3.0	1.56e+00	0	47	104	0	60	1048574
2026-01-17 23:03:23.55	181.04	51.52	-85.2	-88.6	3.0	1.56e+00	0	47	104	0	60	1048574
2026-01-17 23:03:24.55	181.27	51.19	-85.2	-88.6	3.1	1.56e+00	0	47	104	0	60	1048575
2026-01-17 23:03:25.55	181.49	50.87	-85.2	-88.6	2.8	1.56e+00	0	47	104	0	60	1048575
2026-01-17 23:03:26.56	181.71	50.54	-85.2	-88.6	2.8	1.56e+00	0	47	104	0	60	1048573
2026-01-17 23:03:27.56	181.93	50.22	-85.2	-88.6	3.0	1.56e+00	0	47	104	0	60	1048575
2026-01-17 23:03:28.56	182.14	49.90	-85.2	-88.6	3.1	1.56e+00	0	47	104	0	60	1048575
2026-01-17 23:03:29.56	182.34	49.58	-85.2	-88.6	3.1	1.56e+00	0	47	104	0	60	1048573
2026-01-17 23:03:30.57	182.55	49.26	-85.2	-88.6	3.0	1.55e+00	0	47	104	0	60	1048575
2026-01-17 23:03:31.58	182.75	48.95	-85.2	-88.6	2.9	1.56e+00	0	47	104	0	60	1048571
2026-01-17 23:03:32.59	182.94	48.63	-85.2	-88.6	3.1	1.56e+00	0	47	104	0	60	1048574
2026-01-17 23:03:33.60	183.13	48.32	-85.2	-88.6	3.0	1.56e+00	0	47	104	0	60	1048574
2026-01-17 23:03:34.60	183.32	48.01	-85.2	-88.6	2.9	1.56e+00	0	47	104	0	60	1048574
2026-01-17 23:03:35.61	183.50	47.70	-85.2	-88.6	3.0	1.56e+00	0	47	104	0	60	1048575
2026-01-17 23:03:36.62	183.68	47.39	-85.2	-88.6	2.9	1.55e+00	0	47	104	0	60	1048574
2026-01-17 23:03:37.63	183.86	47.09	-85.2	-88.6	3.0	1.56e+00	0	47	104	0	60	1048573
2026-01-17 23:03:38.64	184.03	46.79	-85.2	-88.6	2.9	1.56e+00	0	47	104	0	60	1048574
2026-01-17 23:03:39.64	184.20	46.49	-85.2	-88.6	3.2	1.56e+00	0	47	104	0	60	1048575
2026-01-17 23:03:40.65	184.37	46.19	-85.2	-88.6	2.8	1.56e+00	0	47	104	0	60	1048575
2026-01-17 23:03:41.65	184.53	45.89	-85.2	-88.6	2.9	1.56e+00	0	47	104	0	60	1048575
2026-01-17 23:03:42.66	184.69	45.60	-85.2	-88.6	3.0	1.55e+00	0	47	104	0	60	1048575
2026-01-17 23:03:43.66	184.85	45.31	-85.2	-88.6	3.0	1.56e+00	0	47	104	0	60	1048575
2026-01-17 23:03:44.67	185.00	45.01	-85.2	-88.6	3.0	1.55e+00	0	47	104	0	60	1048574
2026-01-17 23:03:45.67	185.16	44.73	-85.2	-88.6	3.0	1.56e+00	0	47	104	0	60	1048575
2026-01-17 23:03:46.68	185.31	44.44	-85.2	-88.6	3.1	1.56e+00	0	47	104	0	60	1048573
2026-01-17 23:03:47.68	185.45	44.15	-85.2	-88.6	3.0	1.56e+00	0	47	104	0	60	1048573
2026-01-17 23:03:48.69	185.60	43.87	-85.2	-88.6	3.0	1.56e+00	0	47	104	0	60	1048573
2026-01-17 23:03:49.69	185.74	43.59	-85.2	-88.6	3.0	1.56e+00	0	47	104	0	60	1048574
2026-01-17 23:03:50.70	185.88	43.31	-85.2	-88.6	3.0	1.55e+00	0	47	104	0	60	1048574
2026-01-17 23:03:51.71	186.02	43.03	-85.2	-88.6	3.1	1.56e+00	0	47	104	0	60	1048574
2026-01-17 23:03:52.72	186.15	42.75	-85.2	-88.6	2.9	1.55e+00	0	47	104	0	60	1048575
2026-01-17 23:03:53.73	186.28	42.48	-85.2	-88.6	3.1	1.56e+00	0	47	104	0	60	1048575
2026-01-17 23:03:54.73	186.41	42.21	-85.2	-88.6	3.0	1.56e+00	0	47	104	0	60	1048575
2026-01-17 23:03:55.74	186.54	41.94	-85.2	-88.6	3.1	1.55e+00	0	47	104	0	60	1048574
2026-01-17 23:03:56.74	186.67	41.67	-84.7	-88.6	3.0	1.55e+00	0	47	104	0	60	1048574
2026-01-17 23:03:57.74	186.79	41.40	-85.2	-88.6	3.0	1.56e+00	0	47	104	0	60	1048574
2026-01-17 23:03:58.74	186.91	41.14	-85.2	-88.6	3.1	1.55e+00	0	47	104	0	60	1048574
2026-01-17 23:03:59.74	187.03	40.88	-85.2	-88.6	3.0	1.56e+00	0	47	104	0	60	1048575
2026-01-17 23:04:00.75	187.15	40.62	-85.2	-88.6	3.0	1.56e+00	0	47	104	0	60	1048575
2026-01-17 23:04:01.76	187.27	40.36	-85.2	-88.6	2.9	1.56e+00	0	47	104	0	60	1048575
2026-01-17 23:04:02.76	187.39	40.10	-85.2	-88.6	3.1	1.56e+00	0	47	104	0	60	1048575
2026-01-17 23:04:03.76	187.50	39.85	-85.2	-88.6	3.1	1.56e+00	0	47	104	0	60	1048574
2026-01-17 23:04:04.77	187.61	39.59	-85.2	-88.6	2.9	1.56e+00	0	47	104	0	60	1048571
2026-01-17 23:04:05.78	187.72	39.34	-85.2	-88.6	3.0	1.56e+00	0	47	104	0	60	1048575
2026-01-17 23:04:06.78	187.83	39.09	-85.2	-88.6	2.9	1.56e+00	0	47	104	0	60	1048572
2026-01-17 23:04:07.79	187.94	38.84	-85.2	-88.6	2.9	1.55e+00	0	47	104	0	60	1048575
2026-01-17 23:04:08.79	188.04	38.59	-85.2	-88.6	3.2	1.56e+00	0	47	104	0	60	1048574
2026-01-17 23:04:09.80	188.14	38.34	-85.2	-88.6	2.9	1.55e+00	0	47	104	0	60	1048572
2026-01-17 23:04:10.81	188.25	38.10	-85.2	-88.6	3.0	1.56e+00	0	47	104	0	60	1048575
2026-01-17 23:04:11.81	188.35	37.86	-85.2	-88.6	2.9	1.56e+00	0	47	104	0	60	1048575
2026-01-17 23:04:12.82	188.45	37.62	-85.2	-88.6	3.1	1.56e+00	0	47	104	0	60	1048575
2026-01-17 23:04:13.82	188.54	37.38	-85.2	-88.6	3.0	1.56e+00	0	47	104	0	60	1048575
2026-01-17 23:04:14.83	188.64	37.14	-85.2	-88.6	3.0	1.56e+00	0	47	104	0	60	1048574
2026-01-17 23:04:15.84	188.74	36.90	-85.2	-88.6	3.0	1.55e+00	0	47	104	0	60	1048574
2026-01-17 23:04:16.85	188.83	36.67	-85.2	-88.6	3.0	1.56e+00	0	47	104	0	60	1048575
2026-01-17 23:04:17.85	188.92	36.44	-85.2	-88.6	2.7	1.55e+00	0	47	104	0	60	1048575
2026-01-17 23:04:18.86	189.02	36.20	-85.2	-88.6	3.0	1.55e+00	0	47	104	0	60	1048574
2026-01-17 23:04:19.87	189.11	35.97	-85.2	-88.6	2.8	1.56e+00	0	47	104	0	60	1048575
2026-01-17 23:04:20.87	189.19	35.75	-85.2	-88.6	3.1	1.56e+00	0	47	104	0	60	1048573
2026-01-17 23:04:21.88	189.28	35.52	-85.2	-88.6	3.0	1.56e+00	0	47	104	0	60	1048575
2026-01-17 23:04:22.89	189.37	35.29	-85.2	-88.6	2.9	1.56e+00	0	47	104	0	60	1048575
2026-01-17 23:04:23.89	189.45	35.07	-85.2	-88.6	3.0	1.56e+00	0	47	104	0	60	1048575
2026-01-17 23:04:24.89	189.54	34.85	-85.2	-88.6	3.0	1.56e+00	0	47	104	0	60	1048575
2026-01-17 23:04:25.90	189.62	34.63	-85.2	-88.6	3.0	1.56e+00	0	47	104	0	60	1048575
2026-01-17 23:04:26.91	189.70	34.41	-84.7	-88.6	2.9	1.55e+00	0	47	104	0	60	1048573
2026-01-17 23:04:27.92	189.79	34.19	-85.2	-88.6	3.0	1.56e+00	0	47	104	0	60	1048574
2026-01-17 23:04:28.92	189.87	33.98	-85.2	-88.6	3.1	1.56e+00	0	47	104	0	60	1048575
2026-01-17 23:04:29.93	189.95	33.76	-85.2	-88.6	3.1	1.55e+00	0	47	104	0	60	1048575
2026-01-17 23:04:30.94	190.02	33.55	-85.2	-88.6	3.1	1.56e+00	0	47	104	0	60	1048572
2026-01-17 23:04:31.94	190.10	33.34	-85.2	-88.6	3.0	1.56e+00	0	47	104	0	60	1048573
2026-01-17 23:04:32.95	190.18	33.13	-85.2	-88.6	3.2	1.56e+00	0	47	104	0	60	1048575
2026-01-17 23:04:33.96	190.25	32.92	-85.2	-88.6	3.1	1.56e+00	0	47	104	0	60	1048575
2026-01-17 23:04:34.97	190.33	32.71	-85.2	-88.6	3.1	1.56e+00	0	47	104	0	60	1048572
2026-01-17 23:04:35.97	190.40	32.50	-84.3	-88.6	3.2	1.56e+00	0	47	104	0	60	1048573
2026-01-17 23:04:36.98	190.47	32.30	-85.2	-88.6	3.0	1.56e+00	0	47	104	0	60	1048574
2026-01-17 23:04:37.99	190.55	32.09	-85.2	-88.6	3.2	1.55e+00	0	47	104	0	60	1048575
2026-01-17 23:04:38.99	190.62	31.89	-85.2	-88.6	3.0	1.56e+00	0	47	104	0	60	1048574
2026-01-17 23:04:40.00	190.69	31.69	-85.2	-88.6	2.9	1.56e+00	0	47	104	0	60	1048574
2026-01-17 23:04:41.01	190.76	31.49	-85.2	-88.6	3.2	1.56e+00	0	47	104	0	60	1048575
2026-01-17 23:04:42.02	190.83	31.29	-85.2	-88.6	3.1	1.56e+00	0	47	104	0	60	1048575
2026-01-17 23:04:43.03	190.89	31.09	-85.2	-88.6	3.0	1.56e+00	0	47	104	0	60	1048575
2026-01-17 23:04:44.04	190.96	30.90	-85.2	-88.6	3.0	1.55e+00	0	47	104	0	60	1048575
2026-01-17 23:04:45.04	191.03	30.70	-85.2	-88.6	3.0	1.56e+00	0	47	104	0	60	1048573
2026-01-17 23:04:46.04	191.09	30.51	-84.7	-88.6	3.0	1.55e+00	0	47	104	0	60	1048574
2026-01-17 23:04:47.05	191.16	30.32	-85.2	-88.6	3.1	1.56e+00	0	47	104	0	60	1048574
2026-01-17 23:04:48.06	191.22	30.13	-84.7	-88.6	2.9	1.56e+00	0	47	104	0	60	1048574
2026-01-17 23:04:49.06	191.28	29.94	-83.9	-88.6	3.2	1.56e+00	0	47	104	0	60	1048573
2026-01-17 23:04:50.07	191.35	29.75	-85.2	-88.6	3.1	1.56e+00	0	47	104	0	60	1048573
2026-01-17 23:04:51.08	191.41	29.56	-85.2	-88.6	3.1	1.56e+00	0	47	104	0	60	1048575
2026-01-17 23:04:52.08	191.47	29.38	-85.2	-88.6	2.8	1.56e+00	0	47	104	0	60	1048575
2026-01-17 23:04:53.09	191.53	29.19	-85.2	-88.6	3.1	1.56e+00	0	47	104	0	60	1048569
2026-01-17 23:04:54.09	191.59	29.01	-85.2	-88.6	3.0	1.56e+00	0	47	104	0	60	1048572
2026-01-17 23:04:55.10	191.65	28.83	-85.2	-88.6	3.2	1.56e+00	0	47	104	0	60	1048572
2026-01-17 23:04:56.11	191.71	28.65	-85.2	-88.6	3.1	1.56e+00	0	47	104	0	60	1048575
2026-01-17 23:04:57.12	191.77	28.47	-85.2	-88.6	3.1	1.55e+00	0	47	104	0	60	1048574
2026-01-17 23:04:58.13	191.83	28.29	-85.2	-88.6	3.1	1.55e+00	0	47	104	0	60	1048573
2026-01-17 23:04:59.13	191.88	28.11	-85.2	-88.6	2.7	1.55e+00	0	47	104	0	60	1048573
2026-01-17 23:05:00.14	191.94	27.93	-85.2	-88.6	3.1	1.56e+00	0	47	104	0	60	1048574
2026-01-17 23:05:01.15	192.00	27.76	-85.2	-88.6	3.1	1.56e+00	0	47	104	0	60	1048575
2026-01-17 23:05:02.16	192.05	27.58	-85.2	-88.6	3.0	1.55e+00	0	47	104	0	60	1048573
2026-01-17 23:05:03.17	192.11	27.41	-85.2	-88.6	3.1	1.56e+00	0	47	104	0	60	1048575
2026-01-17 23:05:04.17	192.16	27.23	-85.2	-88.6	3.1	1.56e+00	0	47	104	0	60	1048572
2026-01-17 23:05:05.18	192.21	27.06	-85.2	-88.6	2.8	1.55e+00	0	47	104	0	60	1048574
2026-01-17 23:05:06.19	192.27	26.89	-84.7	-88.6	3.1	1.55e+00	0	47	104	0	60	1048573
2026-01-17 23:05:07.19	192.32	26.72	-85.2	-88.6	2.9	1.55e+00	0	47	104	0	60	1048575
2026-01-17 23:05:08.20	192.37	26.56	-85.2	-88.6	3.1	1.56e+00	0	47	104	0	60	1048572
2026-01-17 23:05:09.20	192.42	26.39	-85.2	-88.6	3.1	1.56e+00	0	47	104	0	60	1048572
2026-01-17 23:05:10.21	192.47	26.22	-85.2	-88.6	3.0	1.56e+00	0	47	104	0	60	1048575
2026-01-17 23:05:11.21	192.52	26.06	-85.2	-88.6	3.1	1.56e+00	0	47	104	0	60	1048573
2026-01-17 23:05:12.22	192.57	25.89	-85.2	-88.6	3.0	1.56e+00	0	47	104	0	60	1048575
2026-01-17 23:05:13.22	192.62	25.73	-85.2	-88.6	3.0	1.56e+00	0	47	104	0	60	1048574
2026-01-17 23:05:14.23	192.67	25.57	-85.2	-88.6	2.7	1.56e+00	0	47	104	0	60	1048574
2026-01-17 23:05:15.24	192.72	25.41	-85.2	-88.6	2.9	1.55e+00	0	47	104	0	60	1048573
2026-01-17 23:05:16.25	192.77	25.25	-85.2	-88.6	2.9	1.56e+00	0	47	104	0	60	1048575
2026-01-17 23:05:17.26	192.82	25.09	-85.2	-88.6	3.0	1.56e+00	0	47	104	0	60	1048575
2026-01-17 23:05:18.27	192.87	24.93	-85.2	-88.6	3.1	1.56e+00	0	47	104	0	60	1048574
2026-01-17 23:05:19.27	192.91	24.77	-85.2	-88.6	2.9	1.56e+00	0	47	104	0	60	1048574
2026-01-17 23:05:20.27	192.96	24.62	-85.2	-88.6	3.0	1.56e+00	0	47	104	0	60	1048575
2026-01-17 23:05:21.28	193.01	24.46	-85.2	-88.6	3.1	1.56e+00	0	47	104	0	60	1048574
2026-01-17 23:05:22.29	193.05	24.30	-85.2	-88.6	3.0	1.56e+00	0	47	104	0	60	1048575
2026-01-17 23:05:23.29	193.10	24.15	-85.2	-88.6	2.8	1.56e+00	0	47	104	0	60	1048574
2026-01-17 23:05:24.30	193.14	24.00	-85.2	-88.6	3.2	1.56e+00	0	47	104	0	60	1048575
2026-01-17 23:05:25.31	193.19	23.84	-85.2	-88.6	3.2	1.56e+00	0	47	104	0	60	1048575
2026-01-17 23:05:26.32	193.23	23.69	-85.2	-88.6	3.0	1.56e+00	0	47	104	0	60	1048575
2026-01-17 23:05:27.33	193.27	23.54	-85.2	-88.6	3.0	1.56e+00	0	47	104	0	60	1048573
2026-01-17 23:05:28.33	193.32	23.39	-85.2	-88.6	3.0	1.56e+00	0	47	104	0	60	1048574
2026-01-17 23:05:29.34	193.36	23.24	-85.2	-88.6	2.8	1.56e+00	0	47	104	0	60	1048574
2026-01-17 23:05:30.35	193.40	23.10	-85.2	-88.6	3.0	1.56e+00	0	47	104	0	60	1048572
2026-01-17 23:05:31.36	193.44	22.95	-85.2	-88.6	3.1	1.56e+00	0	47	104	0	60	1048574
2026-01-17 23:05:32.37	193.49	22.80	-85.2	-88.6	3.1	1.55e+00	0	47	104	0	60	1048575
2026-01-17 23:05:33.37	193.53	22.66	-85.2	-88.6	3.0	1.55e+00	0	47	104	0	60	1048575
2026-01-17 23:05:34.38	193.57	22.51	-85.2	-88.6	2.9	1.56e+00	0	47	104	0	60	1048575
2026-01-17 23:05:35.39	193.61	22.37	-85.2	-88.6	2.9	1.55e+00	0	47	104	0	60	1048573
2026-01-17 23:05:36.40	193.65	22.22	-85.2	-88.6	3.2	1.56e+00	0	47	104	0	60	1048575
2026-01-17 23:05:37.40	193.69	22.08	-85.2	-88.6	3.1	1.55e+00	0	47	104	0	60	1048575
2026-01-17 23:05:38.41	193.73	21.94	-85.2	-88.6	3.0	1.56e+00	0	47	104	0	60	1048575
2026-01-17 23:05:39.42	193.77	21.80	-85.2	-88.6	2.9	1.56e+00	0	47	104	0	60	1048573
2026-01-17 23:05:40.43	193.81	21.66	-85.2	-88.6	3.1	1.55e+00	0	47	104	0	60	1048575
2026-01-17 23:05:41.44	193.85	21.52	-85.2	-88.6	3.0	1.56e+00	0	47	104	0	60	1048574
2026-01-17 23:05:42.45	193.89	21.38	-85.2	-88.6	3.0	1.56e+00	0	47	104	0	60	1048575
2026-01-17 23:05:43.45	193.93	21.24	-85.2	-88.6	2.7	1.56e+00	0	47	104	0	60	1048575
2026-01-17 23:05:44.46	193.96	21.11	-85.2	-88.6	3.1	1.56e+00	0	47	104	0	60	1048575
2026-01-17 23:05:45.47	194.00	20.97	-85.2	-88.6	3.1	1.56e+00	0	47	104	0	60	1048575
2026-01-17 23:05:46.48	194.04	20.83	-85.2	-88.6	3.0	1.55e+00	0	47	104	0	60	1048575
2026-01-17 23:05:47.49	194.08	20.70	-85.2	-88.6	3.0	1.56e+00	0	47	104	0	60	1048569
2026-01-17 23:05:48.49	194.11	20.57	-85.2	-88.6	3.1	1.56e+00	0	47	104	0	60	1048575
2026-01-17 23:05:49.49	194.15	20.43	-85.2	-88.6	3.1	1.56e+00	0	47	104	0	60	1048575
2026-01-17 23:05:50.50	194.18	20.30	-85.2	-88.6	3.1	1.55e+00	0	47	104	0	60	1048574
2026-01-17 23:05:51.51	194.22	20.17	-85.2	-88.6	3.0	1.56e+00	0	47	104	0	60	1048575
2026-01-17 23:05:52.52	194.26	20.04	-84.3	-88.6	3.0	1.56e+00	0	47	104	0	60	1048572
2026-01-17 23:05:53.52	194.29	19.91	-85.2	-88.6	2.9	1.56e+00	0	47	104	0	60	1048575
2026-01-17 23:05:54.52	194.33	19.78	-85.2	-88.6	3.1	1.56e+00	0	47	104	0	60	1048575
2026-01-17 23:05:55.53	194.36	19.65	-85.2	-88.6	3.1	1.56e+00	0	47	104	0	60	1048575
2026-01-17 23:05:56.53	194.40	19.52	-85.2	-88.6	2.9	1.56e+00	0	47	104	0	60	1048575
2026-01-17 23:05:57.54	194.43	19.39	-85.2	-88.6	2.8	1.56e+00	0	47	104	0	60	1048575
2026-01-17 23:05:58.55	194.46	19.26	-85.2	-88.6	2.8	1.56e+00	0	47	104	0	60	1048574
2026-01-17 23:05:59.56	194.50	19.14	-85.2	-88.6	2.9	1.56e+00	0	47	104	0	60	1048575
2026-01-17 23:06:00.57	194.53	19.01	-85.2	-88.6	3.0	1.56e+00	0	47	104	0	60	1048575
2026-01-17 23:06:01.57	194.56	18.89	-85.2	-88.6	3.2	1.56e+00	0	47	104	0	60	1048569
2026-01-17 23:06:02.58	194.60	18.76	-85.2	-88.6	3.0	1.56e+00	0	47	104	0	60	1048574
2026-01-17 23:06:03.58	194.63	18.64	-85.2	-88.6	3.2	1.56e+00	0	47	104	0	60	1048575
2026-01-17 23:06:04.58	194.66	18.52	-85.2	-88.6	3.0	1.55e+00	0	47	104	0	60	1048575
2026-01-17 23:06:05.59	194.69	18.39	-85.2	-88.6	2.8	1.56e+00	0	47	104	0	60	1048573
2026-01-17 23:06:06.60	194.73	18.27	-85.2	-88.6	2.9	1.56e+00	0	47	104	0	60	1048575
2026-01-17 23:06:07.61	194.76	18.15	-84.7	-88.6	3.1	1.56e+00	0	47	104	0	60	1048575
2026-01-17 23:06:08.61	194.79	18.03	-85.2	-88.6	3.0	1.56e+00	0	47	104	0	60	1048575
2026-01-17 23:06:09.62	194.82	17.91	-85.2	-88.6	3.1	1.56e+00	0	47	104	0	60	1048575
2026-01-17 23:06:10.62	194.85	17.79	-85.2	-88.6	3.1	1.56e+00	0	47	104	0	60	1048573
2026-01-17 23:06:11.63	194.88	17.67	-85.2	-88.6	3.0	1.56e+00	0	47	104	0	60	1048572
2026-01-17 23:06:12.64	194.92	17.55	-85.2	-88.6	3.1	1.56e+00	0	47	104	0	60	1048574
2026-01-17 23:06:13.64	194.95	17.43	-85.2	-88.6	3.0	1.56e+00	0	47	104	0	60	1048573
2026-01-17 23:06:14.64	194.98	17.31	-85.2	-88.6	3.0	1.56e+00	0	47	104	0	60	1048574
2026-01-17 23:06:15.65	195.01	17.20	-85.2	-88.6	3.0	1.55e+00	0	47	104	0	60	1048574
2026-01-17 23:06:16.66	195.04	17.08	-85.2	-88.6	2.9	1.55e+00	0	47	104	0	60	1048575
2026-01-17 23:06:17.67	195.07	16.96	-85.2	-88.6	3.1	1.55e+00	0	47	104	0	60	1048575
2026-01-17 23:06:18.67	195.10	16.85	-85.2	-88.6	2.9	1.56e+00	0	47	104	0	60	1048573
2026-01-17 23:06:19.68	195.12	16.73	-85.2	-88.6	3.0	1.56e+00	0	47	104	0	60	1048575
2026-01-17 23:06:20.69	195.15	16.62	-85.2	-88.6	3.0	1.56e+00	0	47	104	0	60	1048575
2026-01-17 23:06:21.69	195.18	16.51	-85.2	-88.6	2.7	1.56e+00	0	47	104	0	60	1048575
2026-01-17 23:06:22.70	195.21	16.39	-85.2	-88.6	2.9	1.55e+00	0	47	104	0	60	1048575
2026-01-17 23:06:23.71	195.24	16.28	-85.2	-88.6	2.9	1.55e+00	0	47	104	0	60	1048572
