passes_logs/2026/01/17/R3.2S-Naryan-Mar/R3.2S-Naryan-Mar__20260117_142412_TY-41_rec.log

#Pass ID: 20260117_142412_TY-41
#Satellite: TY-41
#Configuration: TY-39
#almurnet v.1.7.20240730
#Start time: 2026-01-17 14:24:18

#Version: 2.2.20231116
#Station: R3.2S-Naryan-Mar
#Location: 53.008057 lon 67.646978 lat
#TLE: 1 61231U 24173E   26017.08983796  .00008010  00000-0  38191-3 0 09990
#TLE: 2 61231 097.4122 092.0846 0001831 091.8622 061.7654 15.19167953 72814

#Time	Az	El	Level	Level2	SNR	BER	BlckErr	Temp	State	Recorded	gain1	gain2
2026-01-17 14:24:18.11	78.81	0.27	-83.9	-88.8	2.5	6.30e+00	0	44	0	0	60	1048574
2026-01-17 14:24:19.12	78.71	0.32	-83.5	-79.0	2.1	0.00e+00	0	46	104	0	60	1048574
2026-01-17 14:24:20.13	78.61	0.38	-83.1	-79.0	2.3	0.00e+00	0	46	104	0	60	1048570
2026-01-17 14:24:21.13	78.51	0.43	-83.1	-79.0	1.9	0.00e+00	0	46	104	0	60	1048570
2026-01-17 14:24:22.14	78.40	0.48	-83.5	-79.0	2.5	0.00e+00	0	46	104	0	60	1048570
2026-01-17 14:24:23.15	78.30	0.54	-83.5	-79.0	2.1	0.00e+00	0	46	104	0	60	1048571
2026-01-17 14:24:24.16	78.20	0.59	-83.1	-79.0	2.4	0.00e+00	0	46	104	0	60	1048571
2026-01-17 14:24:25.16	78.10	0.64	-82.8	-79.0	2.0	0.00e+00	0	46	104	0	60	1048570
2026-01-17 14:24:26.17	78.00	0.70	-83.1	-79.0	2.5	0.00e+00	0	46	104	0	60	1048575
2026-01-17 14:24:27.18	77.89	0.75	-83.5	-79.0	2.0	0.00e+00	0	46	104	0	60	1048570
2026-01-17 14:24:28.19	77.79	0.80	-83.5	-79.0	2.4	0.00e+00	0	46	104	0	60	1048571
2026-01-17 14:24:29.20	77.68	0.86	-83.1	-79.0	2.0	0.00e+00	0	46	104	0	60	1048570
2026-01-17 14:24:30.21	77.58	0.91	-83.1	-79.0	2.5	0.00e+00	0	46	104	0	60	1048575
2026-01-17 14:24:31.21	77.47	0.96	-83.5	-79.0	2.1	0.00e+00	0	46	104	0	60	1048568
2026-01-17 14:24:32.22	77.37	1.02	-83.5	-79.0	2.4	0.00e+00	0	46	104	0	60	1048572
2026-01-17 14:24:33.22	77.26	1.07	-83.1	-79.0	2.3	0.00e+00	0	46	104	0	60	1048574
2026-01-17 14:24:34.22	77.16	1.13	-83.1	-79.0	2.3	0.00e+00	0	46	104	0	60	1048573
2026-01-17 14:24:35.23	77.05	1.18	-83.5	-79.0	2.1	0.00e+00	0	46	104	0	60	1048575
2026-01-17 14:24:36.24	76.94	1.23	-83.5	-79.0	2.4	0.00e+00	0	46	104	0	60	1048574
2026-01-17 14:24:37.24	76.83	1.29	-83.5	-79.0	2.1	0.00e+00	0	47	104	0	60	1048575
2026-01-17 14:24:38.25	76.72	1.34	-83.5	-79.0	2.2	0.00e+00	0	47	104	0	60	1048574
2026-01-17 14:24:39.25	76.62	1.40	-82.8	-79.0	2.1	0.00e+00	0	47	104	0	60	1048572
2026-01-17 14:24:40.25	76.51	1.45	-83.5	-79.0	2.5	0.00e+00	0	46	104	0	60	1048572
2026-01-17 14:24:41.26	76.40	1.50	-83.5	-79.0	2.0	0.00e+00	0	47	104	0	60	1048574
2026-01-17 14:24:42.27	76.28	1.56	-83.5	-79.0	2.4	0.00e+00	0	47	104	0	60	1048571
2026-01-17 14:24:43.28	76.17	1.61	-83.1	-79.0	2.2	0.00e+00	0	46	104	0	60	1048573
2026-01-17 14:24:44.29	76.06	1.67	-83.1	-79.0	2.3	0.00e+00	0	47	104	0	60	1048568
2026-01-17 14:24:45.30	75.95	1.72	-83.5	-79.0	2.3	0.00e+00	0	47	104	0	60	1048573
2026-01-17 14:24:46.30	75.83	1.78	-83.5	-79.0	2.2	0.00e+00	0	47	104	0	60	1048571
2026-01-17 14:24:47.31	75.72	1.83	-83.5	-79.0	2.5	0.00e+00	0	47	104	0	60	1048572
2026-01-17 14:24:48.32	75.61	1.88	-83.5	-79.0	2.1	0.00e+00	0	47	104	0	60	1048567
2026-01-17 14:24:49.32	75.49	1.94	-83.1	-79.0	2.5	0.00e+00	0	47	104	0	60	1048572
2026-01-17 14:24:50.33	75.38	1.99	-83.5	-79.0	2.5	0.00e+00	0	47	104	0	60	1048574
2026-01-17 14:24:51.34	75.26	2.05	-83.5	-79.0	2.0	0.00e+00	0	47	104	0	60	1048574
2026-01-17 14:24:52.35	75.14	2.10	-83.5	-79.0	2.6	0.00e+00	0	47	104	0	60	1048572
2026-01-17 14:24:53.35	75.03	2.16	-83.1	-79.0	2.2	0.00e+00	0	47	104	0	60	1048571
2026-01-17 14:24:54.35	74.91	2.21	-83.5	-79.0	2.4	0.00e+00	0	47	104	0	60	1048568
2026-01-17 14:24:55.36	74.79	2.27	-83.5	-79.0	2.3	0.00e+00	0	47	104	0	60	1048575
2026-01-17 14:24:56.36	74.67	2.32	-83.5	-79.0	2.1	0.00e+00	0	47	104	0	60	1048570
2026-01-17 14:24:57.37	74.56	2.38	-83.5	-79.0	2.4	0.00e+00	0	47	104	0	60	1048575
2026-01-17 14:24:58.38	74.44	2.43	-83.1	-79.0	2.3	0.00e+00	0	47	104	0	60	1048571
2026-01-17 14:24:59.39	74.31	2.49	-83.5	-79.0	2.5	0.00e+00	0	47	104	0	60	1048573
2026-01-17 14:25:00.39	74.19	2.54	-83.5	-79.0	2.1	0.00e+00	0	47	104	0	60	1048569
2026-01-17 14:25:01.40	74.07	2.60	-83.5	-79.0	2.3	0.00e+00	0	47	104	0	60	1048572
2026-01-17 14:25:02.41	73.95	2.65	-83.1	-79.0	2.2	0.00e+00	0	47	104	0	60	1048569
2026-01-17 14:25:03.42	73.83	2.71	-82.8	-79.0	2.5	0.00e+00	0	47	104	0	60	1048572
2026-01-17 14:25:04.42	73.70	2.76	-83.1	-79.0	2.1	0.00e+00	0	47	104	0	60	1048572
2026-01-17 14:25:05.43	73.58	2.82	-83.5	-79.0	2.3	0.00e+00	0	47	104	0	60	1048569
2026-01-17 14:25:06.44	73.45	2.87	-83.5	-79.0	2.3	0.00e+00	0	47	104	0	60	1048574
2026-01-17 14:25:07.44	73.33	2.93	-83.1	-79.0	2.4	0.00e+00	0	47	104	0	60	1048574
2026-01-17 14:25:08.45	73.20	2.98	-83.1	-79.0	2.2	0.00e+00	0	47	104	0	60	1048572
2026-01-17 14:25:09.46	73.08	3.04	-83.5	-79.0	2.5	0.00e+00	0	47	104	0	60	1048572
2026-01-17 14:25:10.46	72.95	3.09	-83.5	-79.0	2.1	0.00e+00	0	47	104	0	60	1048572
2026-01-17 14:25:11.46	72.82	3.15	-83.5	-79.0	2.5	0.00e+00	0	47	104	0	60	1048575
2026-01-17 14:25:12.47	72.70	3.21	-82.8	-79.0	2.1	0.00e+00	0	47	104	0	60	1048572
2026-01-17 14:25:13.47	72.57	3.26	-83.5	-79.0	2.5	0.00e+00	0	47	104	0	60	1048574
2026-01-17 14:25:14.48	72.44	3.32	-83.5	-79.0	2.1	0.00e+00	0	47	104	0	60	1048574
2026-01-17 14:25:15.49	72.31	3.37	-83.5	-79.0	2.4	0.00e+00	0	47	104	0	60	1048575
2026-01-17 14:25:16.49	72.18	3.43	-83.5	-79.0	2.1	0.00e+00	0	47	104	0	60	1048573
2026-01-17 14:25:17.50	72.05	3.48	-83.1	-79.0	2.5	0.00e+00	0	47	104	0	60	1048575
2026-01-17 14:25:18.51	71.91	3.54	-83.5	-79.0	2.0	0.00e+00	0	47	104	0	60	1048573
2026-01-17 14:25:19.52	71.78	3.60	-83.5	-79.0	2.4	0.00e+00	0	47	104	0	60	1048570
2026-01-17 14:25:20.52	71.65	3.65	-83.5	-79.0	2.2	0.00e+00	0	47	104	0	60	1048571
2026-01-17 14:25:21.53	71.51	3.71	-83.1	-79.0	2.4	0.00e+00	0	47	104	0	60	1048569
2026-01-17 14:25:22.53	71.38	3.76	-82.8	-79.0	2.2	0.00e+00	0	47	104	0	60	1048573
2026-01-17 14:25:23.54	71.24	3.82	-83.5	-79.0	2.6	0.00e+00	0	47	104	0	60	1048574
2026-01-17 14:25:24.55	71.11	3.87	-83.5	-79.0	2.1	0.00e+00	0	47	104	0	60	1048570
2026-01-17 14:25:25.56	70.97	3.93	-83.5	-79.0	2.5	0.00e+00	0	47	104	0	60	1048573
2026-01-17 14:25:26.56	70.83	3.99	-82.8	-79.0	2.0	0.00e+00	0	47	104	0	60	1048574
2026-01-17 14:25:27.57	70.69	4.04	-83.5	-79.0	2.5	0.00e+00	0	47	104	0	60	1048574
2026-01-17 14:25:28.57	70.56	4.10	-83.5	-79.0	2.0	0.00e+00	0	47	104	0	60	1048554
2026-01-17 14:25:29.57	70.42	4.15	-83.5	-79.0	2.6	0.00e+00	0	47	104	0	60	1048572
2026-01-17 14:25:30.58	70.28	4.21	-83.1	-79.0	2.2	0.00e+00	0	47	104	0	60	1048571
2026-01-17 14:25:31.59	70.14	4.27	-83.1	-79.0	2.5	0.00e+00	0	47	104	0	60	1048575
2026-01-17 14:25:32.59	70.00	4.32	-83.5	-79.0	2.2	0.00e+00	0	47	104	0	60	1048572
2026-01-17 14:25:33.59	69.85	4.38	-83.5	-79.0	2.3	0.00e+00	0	47	104	0	60	1048575
2026-01-17 14:25:34.60	69.71	4.43	-83.5	-79.0	2.3	0.00e+00	0	47	104	0	60	1048569
2026-01-17 14:25:35.60	69.57	4.49	-83.5	-79.0	2.4	0.00e+00	0	47	104	0	60	1048573
2026-01-17 14:25:36.61	69.42	4.55	-83.1	-79.0	2.4	0.00e+00	0	47	104	0	60	1048575
2026-01-17 14:25:37.61	69.28	4.60	-83.5	-79.0	1.9	0.00e+00	0	47	104	0	60	1048574
2026-01-17 14:25:38.61	69.13	4.66	-83.5	-79.0	2.4	0.00e+00	0	47	104	0	60	1048559
2026-01-17 14:25:39.61	68.99	4.71	-83.5	-79.0	2.0	0.00e+00	0	47	104	0	60	1048574
2026-01-17 14:25:40.60	68.84	4.77	-83.1	-79.0	2.4	0.00e+00	0	47	104	0	60	1048575
2026-01-17 14:25:41.61	68.70	4.83	-83.1	-79.0	2.1	0.00e+00	0	47	104	0	60	1048572
2026-01-17 14:25:42.61	68.55	4.88	-83.5	-79.0	2.4	0.00e+00	0	47	104	0	60	1048572
2026-01-17 14:25:43.61	68.40	4.94	-83.1	-79.0	2.1	0.00e+00	0	47	104	0	60	1048563
2026-01-17 14:25:44.62	68.25	4.99	-83.1	-79.0	2.6	0.00e+00	0	47	104	0	60	1048570
2026-01-17 14:25:45.63	68.10	5.05	-83.1	-79.0	2.2	0.00e+00	0	48	104	0	60	1048574
2026-01-17 14:25:46.64	67.95	5.11	-83.1	-79.0	2.6	0.00e+00	0	48	104	0	60	1048574
2026-01-17 14:25:47.64	67.79	5.16	-83.5	-79.0	2.2	0.00e+00	0	47	104	0	60	1048571
2026-01-17 14:25:48.65	67.64	5.22	-83.5	-79.0	2.5	0.00e+00	0	47	104	0	60	1048575
2026-01-17 14:25:49.65	67.49	5.27	-83.5	-79.0	2.3	0.00e+00	0	47	104	0	60	1048563
2026-01-17 14:25:50.65	67.33	5.33	-82.8	-79.0	2.7	0.00e+00	0	47	104	0	60	1048575
2026-01-17 14:25:51.66	67.18	5.39	-83.5	-79.0	2.1	0.00e+00	0	48	104	0	60	1048574
2026-01-17 14:25:52.67	67.02	5.44	-83.5	-79.0	2.5	0.00e+00	0	47	104	0	60	1048575
2026-01-17 14:25:53.68	66.86	5.50	-83.5	-79.0	2.1	0.00e+00	0	48	104	0	60	1048572
2026-01-17 14:25:54.69	66.71	5.56	-83.5	-79.0	2.4	0.00e+00	0	48	104	0	60	1048575
2026-01-17 14:25:55.69	66.55	5.61	-83.1	-79.0	2.1	0.00e+00	0	48	104	0	60	1048573
2026-01-17 14:25:56.69	66.39	5.67	-83.5	-79.0	2.5	0.00e+00	0	48	104	0	60	1048570
2026-01-17 14:25:57.69	66.23	5.72	-83.5	-79.0	2.1	0.00e+00	0	47	104	0	60	1048573
2026-01-17 14:25:58.70	66.07	5.78	-83.5	-79.0	2.3	0.00e+00	0	48	104	0	60	1048573
2026-01-17 14:25:59.71	65.91	5.84	-82.8	-79.0	2.2	0.00e+00	0	47	104	0	60	1048567
2026-01-17 14:26:00.72	65.74	5.89	-83.1	-79.0	2.4	0.00e+00	0	48	104	0	60	1048564
2026-01-17 14:26:01.72	65.58	5.95	-83.5	-79.0	2.4	0.00e+00	0	48	104	0	60	1048575
2026-01-17 14:26:02.73	65.42	6.00	-83.5	-79.0	2.5	0.00e+00	0	48	104	0	60	1048573
2026-01-17 14:26:03.74	65.25	6.06	-83.5	-79.0	2.1	0.00e+00	0	48	104	0	60	1048574
2026-01-17 14:26:04.75	65.09	6.12	-83.1	-79.0	2.5	0.00e+00	0	48	104	0	60	1048575
2026-01-17 14:26:05.75	64.92	6.17	-83.5	-79.0	1.9	0.00e+00	0	48	104	0	60	1048572
2026-01-17 14:26:06.76	64.75	6.23	-83.5	-79.0	2.5	0.00e+00	0	48	104	0	60	1048569
2026-01-17 14:26:07.77	64.58	6.28	-83.5	-79.0	2.1	0.00e+00	0	48	104	0	60	1048572
2026-01-17 14:26:08.78	64.42	6.34	-83.5	-79.0	2.4	0.00e+00	0	48	104	0	60	1048575
2026-01-17 14:26:09.79	64.25	6.40	-83.1	-79.0	2.2	0.00e+00	0	48	104	0	60	1048565
2026-01-17 14:26:10.80	64.07	6.45	-83.5	-79.0	2.4	0.00e+00	0	48	104	0	60	1048573
2026-01-17 14:26:11.80	63.90	6.51	-83.5	-79.0	2.2	0.00e+00	0	48	104	0	60	1048568
2026-01-17 14:26:12.81	63.73	6.56	-83.1	-79.0	2.1	0.00e+00	0	48	104	0	60	1048574
2026-01-17 14:26:13.82	63.56	6.62	-83.1	-79.0	2.4	0.00e+00	0	48	104	0	60	1048572
2026-01-17 14:26:14.82	63.38	6.67	-83.1	-79.0	2.2	0.00e+00	0	48	104	0	60	1048574
2026-01-17 14:26:15.83	63.21	6.73	-83.5	-79.0	2.1	0.00e+00	0	48	104	0	60	1048575
2026-01-17 14:26:16.84	63.03	6.79	-83.5	-79.0	2.5	0.00e+00	0	48	104	0	60	1048575
2026-01-17 14:26:17.84	62.86	6.84	-83.5	-79.0	2.0	0.00e+00	0	48	104	0	60	1048573
2026-01-17 14:26:18.84	62.68	6.90	-82.8	-79.0	2.4	0.00e+00	0	48	104	0	60	1048575
2026-01-17 14:26:19.85	62.50	6.95	-83.5	-79.0	2.2	0.00e+00	0	48	104	0	60	1048574
2026-01-17 14:26:20.86	62.32	7.01	-83.5	-79.0	2.5	0.00e+00	0	48	104	0	60	1048574
2026-01-17 14:26:21.86	62.15	7.06	-83.5	-79.0	2.4	0.00e+00	0	48	104	0	60	1048573
2026-01-17 14:26:22.87	61.96	7.12	-83.1	-79.0	2.4	0.00e+00	0	48	104	0	60	1048574
2026-01-17 14:26:23.87	61.78	7.17	-83.1	-79.0	2.2	0.00e+00	0	48	104	0	60	1048575
2026-01-17 14:26:24.88	61.60	7.23	-83.1	-79.0	2.0	0.00e+00	0	48	104	0	60	1048572
2026-01-17 14:26:25.89	61.42	7.28	-83.5	-79.0	2.4	0.00e+00	0	48	104	0	60	1048570
2026-01-17 14:26:26.90	61.23	7.34	-83.5	-79.0	2.1	0.00e+00	0	48	104	0	60	1048575
2026-01-17 14:26:27.91	61.05	7.39	-83.5	-79.0	2.5	0.00e+00	0	48	104	0	60	1048569
2026-01-17 14:26:28.92	60.86	7.45	-82.8	-79.0	2.0	0.00e+00	0	48	104	0	60	1048573
2026-01-17 14:26:29.92	60.67	7.50	-83.5	-79.0	2.4	0.00e+00	0	48	104	0	60	1048575
2026-01-17 14:26:30.93	60.49	7.56	-83.1	-79.0	2.5	0.00e+00	0	48	104	0	60	1048571
2026-01-17 14:26:31.94	60.30	7.61	-83.5	-79.0	2.2	0.00e+00	0	48	104	0	60	1048574
2026-01-17 14:26:32.94	60.11	7.66	-83.1	-79.0	2.4	0.00e+00	0	48	104	0	60	1048568
2026-01-17 14:26:33.95	59.92	7.72	-83.1	-79.0	2.3	0.00e+00	0	48	104	0	60	1048575
2026-01-17 14:26:34.95	59.73	7.77	-83.5	-79.0	2.3	0.00e+00	0	48	104	0	60	1048575
2026-01-17 14:26:35.95	59.54	7.83	-83.5	-79.0	2.3	0.00e+00	0	48	104	0	60	1048568
2026-01-17 14:26:36.96	59.34	7.88	-83.5	-79.0	2.3	0.00e+00	0	48	104	0	60	1048574
2026-01-17 14:26:37.96	59.15	7.93	-83.1	-79.0	2.5	0.00e+00	0	48	104	0	60	1048575
2026-01-17 14:26:38.97	58.96	7.99	-83.5	-79.0	2.1	0.00e+00	0	48	104	0	60	1048575
2026-01-17 14:26:39.98	58.76	8.04	-83.5	-79.0	2.5	0.00e+00	0	48	104	0	60	1048573
2026-01-17 14:26:40.98	58.56	8.09	-83.5	-79.0	2.0	0.00e+00	0	48	104	0	60	1048572
2026-01-17 14:26:41.98	58.37	8.15	-83.5	-79.0	2.5	0.00e+00	0	48	104	0	60	1048575
2026-01-17 14:26:42.99	58.17	8.20	-82.8	-79.0	2.1	0.00e+00	0	48	104	0	60	1048571
2026-01-17 14:26:44.00	57.97	8.25	-83.1	-79.0	2.6	0.00e+00	0	48	104	0	60	1048574
2026-01-17 14:26:45.01	57.77	8.31	-83.5	-79.0	2.0	0.00e+00	0	48	104	0	60	1048574
2026-01-17 14:26:46.01	57.57	8.36	-83.5	-79.0	2.6	0.00e+00	0	48	104	0	60	1048574
2026-01-17 14:26:47.02	57.37	8.41	-83.1	-79.0	2.4	0.00e+00	0	48	104	0	60	1048571
2026-01-17 14:26:48.02	57.16	8.47	-83.1	-79.0	2.4	0.00e+00	0	48	104	0	60	1048575
2026-01-17 14:26:49.03	56.96	8.52	-83.5	-79.0	2.3	0.00e+00	0	48	104	0	60	1048575
2026-01-17 14:26:50.03	56.76	8.57	-83.5	-79.0	2.5	0.00e+00	0	48	104	0	60	1048571
2026-01-17 14:26:51.04	56.55	8.62	-83.5	-79.0	2.1	0.00e+00	0	48	104	0	60	1048561
2026-01-17 14:26:52.04	56.34	8.67	-83.1	-79.0	2.5	0.00e+00	0	48	104	0	60	1048571
2026-01-17 14:26:53.05	56.14	8.73	-83.5	-79.0	2.0	0.00e+00	0	48	104	0	60	1048575
2026-01-17 14:26:54.06	55.93	8.78	-83.1	-79.0	2.5	0.00e+00	0	48	104	0	60	1048575
2026-01-17 14:26:55.07	55.72	8.83	-83.5	-79.0	2.1	0.00e+00	0	48	104	0	60	1048569
2026-01-17 14:26:56.07	55.51	8.88	-83.5	-79.0	2.6	0.00e+00	0	48	104	0	60	1048575
2026-01-17 14:26:57.08	55.30	8.93	-83.1	-79.0	2.1	0.00e+00	0	48	104	0	60	1048575
2026-01-17 14:26:58.09	55.08	8.98	-83.1	-79.0	2.4	0.00e+00	0	48	104	0	60	1048572
2026-01-17 14:26:59.09	54.87	9.03	-83.5	-79.0	2.2	0.00e+00	0	48	104	0	60	1048573
2026-01-17 14:27:00.10	54.66	9.08	-83.5	-79.0	2.5	0.00e+00	0	48	104	0	60	1048575
2026-01-17 14:27:01.11	54.44	9.13	-83.5	-79.0	2.1	0.00e+00	0	48	104	0	60	1048570
2026-01-17 14:27:02.12	54.23	9.18	-83.1	-79.0	2.1	0.00e+00	0	48	104	0	60	1048573
2026-01-17 14:27:03.13	54.01	9.23	-83.5	-79.0	2.1	0.00e+00	0	48	104	0	60	1048563
2026-01-17 14:27:04.13	53.79	9.28	-83.5	-79.0	2.5	0.00e+00	0	48	104	0	60	1048571
2026-01-17 14:27:05.14	53.57	9.33	-83.5	-79.0	2.1	0.00e+00	0	48	104	0	60	1048575
2026-01-17 14:27:06.15	53.35	9.38	-83.1	-79.0	2.4	0.00e+00	0	48	104	0	60	1048575
2026-01-17 14:27:07.16	53.13	9.43	-83.5	-79.0	2.2	0.00e+00	0	48	104	0	60	1048574
2026-01-17 14:27:08.17	52.91	9.48	-83.5	-79.0	2.2	0.00e+00	0	48	104	0	60	1048575
2026-01-17 14:27:09.17	52.69	9.53	-83.5	-79.0	2.1	0.00e+00	0	48	104	0	60	1048574
2026-01-17 14:27:10.18	52.46	9.58	-83.5	-79.0	2.4	0.00e+00	0	48	104	0	60	1048574
2026-01-17 14:27:11.19	52.24	9.63	-83.1	-79.0	2.1	0.00e+00	0	48	104	0	60	1048575
2026-01-17 14:27:12.19	52.02	9.67	-83.5	-79.0	2.3	0.00e+00	0	48	104	0	60	1048567
2026-01-17 14:27:13.20	51.79	9.72	-83.5	-79.0	2.3	0.00e+00	0	48	104	0	60	1048570
2026-01-17 14:27:14.21	51.56	9.77	-83.5	-79.0	2.1	0.00e+00	0	48	104	0	60	1048575
2026-01-17 14:27:15.22	51.33	9.82	-83.5	-79.0	2.5	0.00e+00	0	48	104	0	60	1048574
2026-01-17 14:27:16.23	51.10	9.87	-83.1	-79.0	2.6	0.00e+00	0	48	104	0	60	1048571
2026-01-17 14:27:17.23	50.88	9.91	-83.5	-79.0	2.1	0.00e+00	0	48	104	0	60	1048571
2026-01-17 14:27:18.24	50.65	9.96	-83.5	-79.0	2.5	0.00e+00	0	48	104	0	60	1048575
2026-01-17 14:27:19.25	50.41	10.00	-83.5	-79.0	2.0	0.00e+00	0	48	104	0	60	1048572
2026-01-17 14:27:20.25	50.18	10.05	-83.1	-79.0	2.4	0.00e+00	0	48	104	0	60	1048567
2026-01-17 14:27:21.26	49.95	10.10	-83.1	-79.0	2.2	0.00e+00	0	48	104	0	60	1048574
2026-01-17 14:27:22.27	49.71	10.14	-83.5	-79.0	2.4	0.00e+00	0	48	104	0	60	1048573
2026-01-17 14:27:23.27	49.48	10.19	-83.1	-79.0	2.1	0.00e+00	0	48	104	0	60	1048574
2026-01-17 14:27:24.28	49.24	10.23	-83.5	-79.0	2.4	0.00e+00	0	48	104	0	60	1048575
2026-01-17 14:27:25.29	49.01	10.28	-83.1	-79.0	2.4	0.00e+00	0	48	104	0	60	1048575
2026-01-17 14:27:26.30	48.77	10.32	-83.1	-79.0	2.1	0.00e+00	0	48	104	0	60	1048574
2026-01-17 14:27:27.30	48.53	10.36	-83.5	-79.0	2.6	0.00e+00	0	48	104	0	60	1048571
2026-01-17 14:27:28.31	48.29	10.41	-83.5	-79.0	2.1	0.00e+00	0	48	104	0	60	1048575
2026-01-17 14:27:29.31	48.05	10.45	-83.5	-79.0	2.5	0.00e+00	0	48	104	0	60	1048574
2026-01-17 14:27:30.32	47.81	10.49	-83.1	-79.0	2.1	0.00e+00	0	48	104	0	60	1048571
2026-01-17 14:27:31.33	47.57	10.54	-83.1	-79.0	2.1	0.00e+00	0	48	104	0	60	1048569
2026-01-17 14:27:32.34	47.32	10.58	-83.5	-79.0	2.4	0.00e+00	0	48	104	0	60	1048575
2026-01-17 14:27:33.35	47.08	10.62	-83.5	-79.0	2.1	0.00e+00	0	48	104	0	60	1048569
2026-01-17 14:27:34.35	46.84	10.66	-83.1	-79.0	2.4	0.00e+00	0	48	104	0	60	1048573
2026-01-17 14:27:35.36	46.59	10.70	-82.8	-79.0	2.3	0.00e+00	0	48	104	0	60	1048575
2026-01-17 14:27:36.36	46.35	10.75	-83.5	-79.0	2.2	0.00e+00	0	48	104	0	60	1048574
2026-01-17 14:27:37.37	46.10	10.79	-83.5	-79.0	2.5	0.00e+00	0	48	104	0	60	1048574
2026-01-17 14:27:38.37	45.85	10.83	-83.5	-79.0	2.2	0.00e+00	0	48	104	0	60	1048575
2026-01-17 14:27:39.38	45.60	10.87	-83.5	-79.0	2.5	0.00e+00	0	48	104	0	60	1048574
2026-01-17 14:27:40.38	45.35	10.91	-82.8	-79.0	2.1	0.00e+00	0	48	104	0	60	1048571
2026-01-17 14:27:41.39	45.10	10.95	-83.5	-79.0	2.5	0.00e+00	0	48	104	0	60	1048566
2026-01-17 14:27:42.40	44.85	10.98	-83.5	-79.0	2.1	0.00e+00	0	48	104	0	60	1048572
2026-01-17 14:27:43.41	44.60	11.02	-83.5	-79.0	2.5	0.00e+00	0	48	104	0	60	1048563
2026-01-17 14:27:44.41	44.35	11.06	-82.8	-79.0	2.2	0.00e+00	0	48	104	0	60	1048574
2026-01-17 14:27:45.42	44.09	11.10	-83.5	-79.0	2.4	0.00e+00	0	48	104	0	60	1048574
2026-01-17 14:27:46.43	43.84	11.14	-83.5	-79.0	2.2	0.00e+00	0	48	104	0	60	1048574
2026-01-17 14:27:47.43	43.58	11.17	-83.5	-79.0	2.6	0.00e+00	0	48	104	0	60	1048572
2026-01-17 14:27:48.44	43.33	11.21	-83.5	-79.0	2.2	0.00e+00	0	48	104	0	60	1048575
2026-01-17 14:27:49.44	43.07	11.25	-83.1	-79.0	2.3	0.00e+00	0	48	104	0	60	1048574
2026-01-17 14:27:50.45	42.81	11.28	-83.1	-79.0	2.0	0.00e+00	0	48	104	0	60	1048571
2026-01-17 14:27:51.46	42.56	11.32	-83.5	-79.0	2.5	0.00e+00	0	48	104	0	60	1048572
2026-01-17 14:27:52.46	42.30	11.35	-83.5	-79.0	2.2	0.00e+00	0	48	104	0	60	1048573
2026-01-17 14:27:53.46	42.04	11.39	-83.1	-79.0	2.3	0.00e+00	0	48	104	0	60	1048572
2026-01-17 14:27:54.47	41.78	11.42	-83.1	-79.0	2.0	0.00e+00	0	48	104	0	60	1048573
2026-01-17 14:27:55.47	41.52	11.45	-83.5	-79.0	2.5	0.00e+00	0	48	104	0	60	1048569
2026-01-17 14:27:56.48	41.26	11.49	-83.5	-79.0	2.0	0.00e+00	0	48	104	0	60	1048567
2026-01-17 14:27:57.49	40.99	11.52	-83.5	-79.0	2.6	0.00e+00	0	48	104	0	60	1048573
2026-01-17 14:27:58.50	40.73	11.55	-82.8	-79.0	2.0	0.00e+00	0	48	104	0	60	1048568
2026-01-17 14:27:59.50	40.47	11.58	-83.1	-79.0	2.5	0.00e+00	0	48	104	0	60	1048574
2026-01-17 14:28:00.51	40.20	11.61	-83.5	-79.0	2.2	0.00e+00	0	48	104	0	60	1048571
2026-01-17 14:28:01.52	39.93	11.65	-83.5	-79.0	2.4	0.00e+00	0	48	104	0	60	1048571
2026-01-17 14:28:02.53	39.67	11.68	-83.5	-79.0	2.1	0.00e+00	0	48	104	0	60	1048572
2026-01-17 14:28:03.53	39.40	11.71	-83.1	-79.0	2.3	0.00e+00	0	48	104	0	60	1048574
2026-01-17 14:28:04.53	39.14	11.74	-83.5	-79.0	2.2	0.00e+00	0	48	104	0	60	1048575
2026-01-17 14:28:05.54	38.87	11.76	-83.5	-79.0	2.6	0.00e+00	0	48	104	0	60	1048567
2026-01-17 14:28:06.55	38.60	11.79	-83.5	-79.0	2.0	0.00e+00	0	48	104	0	60	1048575
2026-01-17 14:28:07.56	38.33	11.82	-83.5	-79.0	2.5	0.00e+00	0	48	104	0	60	1048574
2026-01-17 14:28:08.57	38.06	11.85	-83.1	-79.0	2.1	0.00e+00	0	48	104	0	60	1048575
2026-01-17 14:28:09.57	37.79	11.88	-83.5	-79.0	2.3	0.00e+00	0	48	104	0	60	1048575
2026-01-17 14:28:10.57	37.52	11.90	-83.5	-79.0	2.0	0.00e+00	0	48	104	0	60	1048565
2026-01-17 14:28:11.58	37.25	11.93	-83.5	-79.0	2.3	0.00e+00	0	48	104	0	60	1048566
2026-01-17 14:28:12.58	36.98	11.95	-83.1	-79.0	2.3	0.00e+00	0	48	104	0	60	1048570
2026-01-17 14:28:13.59	36.70	11.98	-83.1	-79.0	2.4	0.00e+00	0	48	104	0	60	1048573
2026-01-17 14:28:14.60	36.43	12.00	-83.5	-79.0	2.4	0.00e+00	0	48	104	0	60	1048575
2026-01-17 14:28:15.61	36.15	12.03	-83.5	-79.0	2.1	0.00e+00	0	48	104	0	60	1048574
2026-01-17 14:28:16.61	35.88	12.05	-83.1	-79.0	2.5	0.00e+00	0	48	104	0	60	1048575
2026-01-17 14:28:17.61	35.61	12.07	-82.8	-79.0	2.1	0.00e+00	0	48	104	0	60	1048575
2026-01-17 14:28:18.62	35.33	12.10	-83.1	-79.0	2.4	0.00e+00	0	48	104	0	60	1048570
2026-01-17 14:28:19.63	35.05	12.12	-83.5	-79.0	2.0	0.00e+00	0	48	104	0	60	1048572
2026-01-17 14:28:20.63	34.78	12.14	-83.5	-79.0	2.2	0.00e+00	0	48	104	0	60	1048572
2026-01-17 14:28:21.64	34.50	12.16	-83.5	-79.0	2.3	0.00e+00	0	48	104	0	60	1048571
2026-01-17 14:28:22.65	34.22	12.18	-82.8	-79.0	2.3	0.00e+00	0	48	104	0	60	1048575
2026-01-17 14:28:23.65	33.95	12.20	-83.5	-79.0	2.4	0.00e+00	0	48	104	0	60	1048571
2026-01-17 14:28:24.65	33.67	12.22	-83.5	-79.0	2.2	0.00e+00	0	48	104	0	60	1048565
2026-01-17 14:28:25.66	33.39	12.24	-83.5	-79.0	2.2	0.00e+00	0	48	104	0	60	1048573
2026-01-17 14:28:26.67	33.11	12.26	-83.5	-79.0	2.5	0.00e+00	0	48	104	0	60	1048570
2026-01-17 14:28:27.67	32.83	12.27	-82.8	-79.0	2.3	0.00e+00	0	48	104	0	60	1048575
2026-01-17 14:28:28.68	32.55	12.29	-83.5	-79.0	2.4	0.00e+00	0	48	104	0	60	1048572
2026-01-17 14:28:29.68	32.27	12.31	-83.5	-79.0	2.2	0.00e+00	0	48	104	0	60	1048575
2026-01-17 14:28:30.69	31.99	12.32	-83.5	-79.0	2.5	0.00e+00	0	48	104	0	60	1048575
2026-01-17 14:28:31.70	31.71	12.34	-83.1	-79.0	2.2	0.00e+00	0	48	104	0	60	1048573
2026-01-17 14:28:32.71	31.43	12.35	-83.1	-79.0	2.5	0.00e+00	0	48	104	0	60	1048575
2026-01-17 14:28:33.71	31.15	12.37	-83.5	-79.0	2.1	0.00e+00	0	48	104	0	60	1048571
2026-01-17 14:28:34.72	30.86	12.38	-83.5	-79.0	2.5	0.00e+00	0	48	104	0	60	1048575
2026-01-17 14:28:35.72	30.58	12.40	-83.5	-79.0	2.1	0.00e+00	0	48	104	0	60	1048574
2026-01-17 14:28:36.73	30.30	12.41	-83.1	-79.0	2.6	0.00e+00	0	48	104	0	60	1048575
2026-01-17 14:28:37.74	30.02	12.42	-83.1	-79.0	2.3	0.00e+00	0	48	104	0	60	1048571
2026-01-17 14:28:38.74	29.73	12.43	-83.5	-79.0	2.5	0.00e+00	0	48	104	0	60	1048569
2026-01-17 14:28:39.74	29.45	12.44	-83.5	-79.0	2.0	0.00e+00	0	48	104	0	60	1048574
2026-01-17 14:28:40.75	29.17	12.45	-83.5	-79.0	2.4	0.00e+00	0	48	104	0	60	1048573
2026-01-17 14:28:41.76	28.88	12.46	-83.1	-79.0	2.1	0.00e+00	0	48	104	0	60	1048575
2026-01-17 14:28:42.76	28.60	12.47	-83.1	-79.0	2.5	0.00e+00	0	48	104	0	60	1048573
2026-01-17 14:28:43.77	28.31	12.48	-83.5	-79.0	2.0	0.00e+00	0	48	104	0	60	1048574
2026-01-17 14:28:44.78	28.03	12.49	-83.5	-79.0	2.3	0.00e+00	0	48	104	0	60	1048567
2026-01-17 14:28:45.79	27.74	12.49	-83.1	-79.0	2.1	0.00e+00	0	48	104	0	60	1048575
2026-01-17 14:28:46.79	27.46	12.50	-83.1	-79.0	2.5	0.00e+00	0	48	104	0	60	1048569
2026-01-17 14:28:47.79	27.18	12.51	-83.5	-79.0	2.1	0.00e+00	0	48	104	0	60	1048566
2026-01-17 14:28:48.80	26.89	12.51	-83.5	-79.0	2.3	0.00e+00	0	48	104	0	60	1048574
2026-01-17 14:28:49.81	26.60	12.52	-83.5	-79.0	2.3	0.00e+00	0	48	104	0	60	1048575
2026-01-17 14:28:50.81	26.32	12.52	-83.1	-79.0	2.3	0.00e+00	0	48	104	0	60	1048569
2026-01-17 14:28:51.82	26.03	12.52	-83.1	-79.0	2.2	0.00e+00	0	48	104	0	60	1048557
2026-01-17 14:28:52.83	25.75	12.53	-83.1	-79.0	2.5	0.00e+00	0	48	104	0	60	1048575
2026-01-17 14:28:53.83	25.46	12.53	-83.5	-79.0	2.1	0.00e+00	0	48	104	0	60	1048573
2026-01-17 14:28:54.84	25.18	12.53	-83.5	-79.0	2.5	0.00e+00	0	48	104	0	60	1048572
2026-01-17 14:28:55.85	24.89	12.53	-83.1	-79.0	2.1	0.00e+00	0	48	104	0	60	1048575
2026-01-17 14:28:56.86	24.60	12.53	-83.5	-79.0	2.6	0.00e+00	0	48	104	0	60	1048573
2026-01-17 14:28:57.87	24.32	12.53	-83.5	-79.0	2.1	0.00e+00	0	48	104	0	60	1048575
2026-01-17 14:28:58.87	24.03	12.53	-83.5	-79.0	2.5	0.00e+00	0	48	104	0	60	1048568
2026-01-17 14:28:59.88	23.75	12.53	-83.5	-79.0	1.9	0.00e+00	0	48	104	0	60	1048575
2026-01-17 14:29:00.89	23.46	12.53	-82.8	-79.0	2.5	0.00e+00	0	48	104	0	60	1048573
2026-01-17 14:29:01.90	23.17	12.53	-83.5	-79.0	2.3	0.00e+00	0	48	104	0	60	1048574
2026-01-17 14:29:02.90	22.89	12.52	-83.5	-79.0	2.3	0.00e+00	0	48	104	0	60	1048574
2026-01-17 14:29:03.90	22.61	12.52	-83.1	-79.0	2.4	0.00e+00	0	48	104	0	60	1048574
2026-01-17 14:29:04.90	22.32	12.52	-83.1	-79.0	2.2	0.00e+00	0	48	104	0	60	1048569
2026-01-17 14:29:05.91	22.04	12.51	-83.1	-79.0	2.3	0.00e+00	0	48	104	0	60	1048573
2026-01-17 14:29:06.91	21.75	12.51	-83.5	-79.0	2.3	0.00e+00	0	48	104	0	60	1048575
2026-01-17 14:29:07.91	21.47	12.50	-83.5	-79.0	2.5	0.00e+00	0	48	104	0	60	1048573
2026-01-17 14:29:08.92	21.19	12.49	-83.5	-79.0	2.0	0.00e+00	0	48	104	0	60	1048572
2026-01-17 14:29:09.93	20.90	12.49	-83.1	-79.0	2.3	0.00e+00	0	48	104	0	60	1048573
2026-01-17 14:29:10.93	20.62	12.48	-83.1	-79.0	2.4	0.00e+00	0	48	104	0	60	1048569
2026-01-17 14:29:11.94	20.33	12.47	-83.5	-79.0	2.2	0.00e+00	0	48	104	0	60	1048573
2026-01-17 14:29:12.95	20.05	12.46	-83.5	-79.0	2.4	0.00e+00	0	48	104	0	60	1048575
2026-01-17 14:29:13.96	19.76	12.45	-83.5	-79.0	2.5	0.00e+00	0	48	104	0	60	1048575
2026-01-17 14:29:14.97	19.48	12.44	-83.1	-79.0	2.2	0.00e+00	0	48	104	0	60	1048568
2026-01-17 14:29:15.97	19.20	12.43	-83.1	-79.0	2.5	0.00e+00	0	48	104	0	60	1048575
2026-01-17 14:29:16.97	18.91	12.42	-83.5	-79.0	2.3	0.00e+00	0	48	104	0	60	1048571
2026-01-17 14:29:17.97	18.63	12.41	-83.5	-79.0	2.5	0.00e+00	0	48	104	0	60	1048575
2026-01-17 14:29:18.98	18.35	12.40	-83.5	-79.0	2.2	0.00e+00	0	48	104	0	60	1048568
2026-01-17 14:29:19.99	18.07	12.38	-83.1	-79.0	2.6	0.00e+00	0	48	104	0	60	1048575
2026-01-17 14:29:20.99	17.79	12.37	-83.5	-79.0	2.1	0.00e+00	0	48	104	0	60	1048574
2026-01-17 14:29:22.00	17.50	12.35	-83.5	-79.0	2.5	0.00e+00	0	48	104	0	60	1048574
2026-01-17 14:29:23.01	17.22	12.34	-83.5	-79.0	2.2	0.00e+00	0	48	104	0	60	1048572
2026-01-17 14:29:24.01	16.94	12.32	-83.1	-79.0	2.3	0.00e+00	0	48	104	0	60	1048575
2026-01-17 14:29:25.02	16.66	12.31	-83.1	-79.0	2.2	0.00e+00	0	49	104	0	60	1048568
2026-01-17 14:29:26.02	16.38	12.29	-83.5	-79.0	2.4	0.00e+00	0	48	104	0	60	1048575
2026-01-17 14:29:27.03	16.10	12.28	-83.5	-79.0	2.1	0.00e+00	0	48	104	0	60	1048575
2026-01-17 14:29:28.04	15.82	12.26	-83.5	-79.0	2.4	0.00e+00	0	48	104	0	60	1048571
2026-01-17 14:29:29.05	15.54	12.24	-82.8	-79.0	2.3	0.00e+00	0	48	104	0	60	1048572
2026-01-17 14:29:30.05	15.26	12.22	-83.1	-79.0	2.4	0.00e+00	0	48	104	0	60	1048575
2026-01-17 14:29:31.06	14.99	12.20	-83.5	-79.0	2.2	0.00e+00	0	49	104	0	60	1048567
2026-01-17 14:29:32.07	14.71	12.18	-83.5	-79.0	2.5	0.00e+00	0	48	104	0	60	1048574
2026-01-17 14:29:33.08	14.43	12.16	-83.1	-79.0	2.0	0.00e+00	0	48	104	0	60	1048572
2026-01-17 14:29:34.08	14.15	12.14	-83.1	-79.0	2.5	0.00e+00	0	48	104	0	60	1048575
2026-01-17 14:29:35.09	13.88	12.12	-83.5	-79.0	2.3	0.00e+00	0	48	104	0	60	1048570
2026-01-17 14:29:36.10	13.60	12.10	-83.5	-79.0	2.5	0.00e+00	0	48	104	0	60	1048574
2026-01-17 14:29:37.11	13.32	12.08	-83.5	-79.0	2.3	0.00e+00	0	48	104	0	60	1048568
2026-01-17 14:29:38.12	13.05	12.05	-83.5	-79.0	2.4	0.00e+00	0	48	104	0	60	1048574
2026-01-17 14:29:39.12	12.78	12.03	-83.1	-79.0	2.2	0.00e+00	0	49	104	0	60	1048560
2026-01-17 14:29:40.13	12.50	12.00	-83.5	-79.0	2.4	0.00e+00	0	48	104	0	60	1048575
2026-01-17 14:29:41.13	12.23	11.98	-83.5	-79.0	2.2	0.00e+00	0	49	104	0	60	1048573
2026-01-17 14:29:42.14	11.96	11.96	-83.5	-79.0	2.5	0.00e+00	0	49	104	0	60	1048571
2026-01-17 14:29:43.14	11.69	11.93	-83.1	-79.0	2.1	0.00e+00	0	49	104	0	60	1048574
2026-01-17 14:29:44.15	11.41	11.90	-83.1	-79.0	2.4	0.00e+00	0	48	104	0	60	1048575
2026-01-17 14:29:45.16	11.14	11.88	-83.5	-79.0	2.1	0.00e+00	0	49	104	0	60	1048574
2026-01-17 14:29:46.17	10.87	11.85	-83.5	-79.0	2.5	0.00e+00	0	49	104	0	60	1048573
2026-01-17 14:29:47.17	10.60	11.82	-83.5	-79.0	2.0	0.00e+00	0	49	104	0	60	1048575
2026-01-17 14:29:48.18	10.33	11.79	-83.1	-79.0	2.4	0.00e+00	0	49	104	0	60	1048572
2026-01-17 14:29:49.18	10.07	11.77	-83.1	-79.0	2.2	0.00e+00	0	49	104	0	60	1048574
2026-01-17 14:29:50.19	9.80	11.74	-83.5	-79.0	2.4	0.00e+00	0	49	104	0	60	1048568
2026-01-17 14:29:51.19	9.53	11.71	-83.5	-79.0	2.1	0.00e+00	0	48	104	0	60	1048575
2026-01-17 14:29:52.20	9.27	11.68	-83.5	-79.0	2.2	0.00e+00	0	49	104	0	60	1048574
2026-01-17 14:29:53.20	9.00	11.65	-83.1	-79.0	2.4	0.00e+00	0	49	104	0	60	1048559
2026-01-17 14:29:54.21	8.74	11.62	-83.1	-79.0	2.0	0.00e+00	0	48	104	0	60	1048573
2026-01-17 14:29:55.21	8.47	11.59	-83.5	-79.0	2.3	0.00e+00	0	48	104	0	60	1048575
2026-01-17 14:29:56.22	8.21	11.55	-83.1	-79.0	2.2	0.00e+00	0	48	104	0	60	1048575
2026-01-17 14:29:57.23	7.94	11.52	-83.1	-79.0	2.2	0.00e+00	0	48	104	0	60	1048574
2026-01-17 14:29:58.23	7.68	11.49	-83.1	-79.0	2.4	0.00e+00	0	49	104	0	60	1048572
2026-01-17 14:29:59.24	7.42	11.46	-83.5	-79.0	2.2	0.00e+00	0	48	104	0	60	1048575
2026-01-17 14:30:00.24	7.16	11.42	-83.5	-79.0	2.4	0.00e+00	0	49	104	0	60	1048574
2026-01-17 14:30:01.25	6.90	11.39	-83.5	-79.0	2.2	0.00e+00	0	49	104	0	60	1048568
2026-01-17 14:30:02.26	6.64	11.35	-82.8	-79.0	2.5	0.00e+00	0	48	104	0	60	1048572
2026-01-17 14:30:03.27	6.38	11.32	-83.5	-79.0	2.3	0.00e+00	0	49	104	0	60	1048575
2026-01-17 14:30:04.27	6.13	11.28	-83.5	-79.0	2.1	0.00e+00	0	49	104	0	60	1048571
2026-01-17 14:30:05.28	5.87	11.25	-83.5	-79.0	2.5	0.00e+00	0	48	104	0	60	1048575
2026-01-17 14:30:06.28	5.61	11.21	-83.5	-79.0	2.3	0.00e+00	0	48	104	0	60	1048575
2026-01-17 14:30:07.28	5.36	11.18	-83.1	-79.0	2.4	0.00e+00	0	48	104	0	60	1048574
2026-01-17 14:30:08.29	5.10	11.14	-83.1	-79.0	2.0	0.00e+00	0	48	104	0	60	1048574
2026-01-17 14:30:09.29	4.85	11.10	-83.5	-79.0	2.5	0.00e+00	0	48	104	0	60	1048575
2026-01-17 14:30:10.30	4.60	11.06	-83.5	-79.0	2.1	0.00e+00	0	49	104	0	60	1048570
2026-01-17 14:30:11.30	4.35	11.03	-83.1	-79.0	2.6	0.00e+00	0	48	104	0	60	1048571
2026-01-17 14:30:12.31	4.09	10.99	-82.8	-79.0	2.0	0.00e+00	0	48	104	0	60	1048575
2026-01-17 14:30:13.31	3.84	10.95	-83.5	-79.0	2.5	0.00e+00	0	48	104	0	60	1048571
2026-01-17 14:30:14.32	3.59	10.91	-83.5	-79.0	2.1	0.00e+00	0	48	104	0	60	1048572
2026-01-17 14:30:15.32	3.35	10.87	-83.5	-79.0	2.4	0.00e+00	0	48	104	0	60	1048574
2026-01-17 14:30:16.33	3.10	10.83	-83.5	-79.0	2.2	0.00e+00	0	48	104	0	60	1048573
2026-01-17 14:30:17.33	2.85	10.79	-83.1	-79.0	2.5	0.00e+00	0	49	104	0	60	1048569
2026-01-17 14:30:18.34	2.60	10.75	-83.5	-79.0	2.1	0.00e+00	0	49	104	0	60	1048573
2026-01-17 14:30:19.35	2.36	10.71	-83.5	-79.0	2.4	0.00e+00	0	49	104	0	60	1048571
2026-01-17 14:30:20.35	2.11	10.67	-83.5	-79.0	2.1	0.00e+00	0	48	104	0	60	1048573
2026-01-17 14:30:21.36	1.87	10.63	-83.1	-79.0	2.4	0.00e+00	0	48	104	0	60	1048574
2026-01-17 14:30:22.36	1.63	10.58	-83.1	-79.0	2.1	0.00e+00	0	48	104	0	60	1048571
2026-01-17 14:30:23.37	1.38	10.54	-83.5	-79.0	2.5	0.00e+00	0	48	104	0	60	1048572
2026-01-17 14:30:24.38	1.14	10.50	-83.5	-79.0	2.0	0.00e+00	0	48	104	0	60	1048575
2026-01-17 14:30:25.38	0.90	10.46	-83.5	-79.0	2.7	0.00e+00	0	49	104	0	60	1048575
2026-01-17 14:30:26.39	0.66	10.41	-83.1	-79.0	2.1	0.00e+00	0	49	104	0	60	1048573
2026-01-17 14:30:27.39	0.43	10.37	-83.5	-79.0	2.5	0.00e+00	0	49	104	0	60	1048574
2026-01-17 14:30:28.40	0.19	10.33	-83.5	-79.0	2.2	0.00e+00	0	48	104	0	60	1048571
2026-01-17 14:30:29.41	359.95	10.28	-83.5	-79.0	2.4	0.00e+00	0	49	104	0	60	1048574
2026-01-17 14:30:30.41	359.71	10.24	-83.5	-79.0	2.3	0.00e+00	0	48	104	0	60	1048573
2026-01-17 14:30:31.42	359.48	10.19	-83.1	-79.0	2.3	0.00e+00	0	48	104	0	60	1048572
2026-01-17 14:30:32.43	359.24	10.15	-83.5	-79.0	2.2	0.00e+00	0	49	104	0	60	1048574
2026-01-17 14:30:33.44	359.01	10.10	-83.5	-79.0	2.6	0.00e+00	0	48	104	0	60	1048574
2026-01-17 14:30:34.44	358.78	10.06	-83.5	-79.0	2.1	0.00e+00	0	49	104	0	60	1048572
2026-01-17 14:30:35.46	358.54	10.01	-83.5	-79.0	2.4	0.00e+00	0	48	104	0	60	1048573
2026-01-17 14:30:36.46	358.31	9.96	-83.1	-79.0	2.1	0.00e+00	0	49	104	0	60	1048575
2026-01-17 14:30:37.47	358.08	9.92	-83.1	-79.0	2.3	0.00e+00	0	49	104	0	60	1048571
2026-01-17 14:30:38.48	357.85	9.87	-83.5	-79.0	2.1	0.00e+00	0	49	104	0	60	1048575
2026-01-17 14:30:39.48	357.63	9.82	-83.5	-79.0	2.4	0.00e+00	0	49	104	0	60	1048575
2026-01-17 14:30:40.48	357.40	9.78	-83.1	-79.0	2.2	0.00e+00	0	49	104	0	60	1048575
2026-01-17 14:30:41.49	357.17	9.73	-83.5	-79.0	2.5	0.00e+00	0	49	104	0	60	1048575
2026-01-17 14:30:42.50	356.95	9.68	-83.5	-79.0	2.2	0.00e+00	0	49	104	0	60	1048574
2026-01-17 14:30:43.51	356.72	9.63	-83.5	-79.0	2.1	0.00e+00	0	49	104	0	60	1048571
2026-01-17 14:30:44.51	356.50	9.59	-83.5	-79.0	2.6	0.00e+00	0	49	104	0	60	1048568
2026-01-17 14:30:45.52	356.28	9.54	-82.8	-79.0	2.1	0.00e+00	0	49	104	0	60	1048563
2026-01-17 14:30:46.53	356.05	9.49	-83.5	-79.0	2.1	0.00e+00	0	49	104	0	60	1048565
2026-01-17 14:30:47.54	355.83	9.44	-83.5	-79.0	2.4	0.00e+00	0	49	104	0	60	1048574
2026-01-17 14:30:48.54	355.61	9.39	-83.5	-79.0	2.0	0.00e+00	0	49	104	0	60	1048575
2026-01-17 14:30:49.55	355.39	9.34	-83.5	-79.0	2.6	0.00e+00	0	49	104	0	60	1048575
2026-01-17 14:30:50.56	355.18	9.29	-83.1	-79.0	2.2	0.00e+00	0	49	104	0	60	1048575
2026-01-17 14:30:51.57	354.96	9.24	-83.5	-79.0	2.4	0.00e+00	0	49	104	0	60	1048571
2026-01-17 14:30:52.58	354.74	9.19	-83.5	-79.0	2.3	0.00e+00	0	48	104	0	60	1048574
2026-01-17 14:30:53.58	354.53	9.14	-83.5	-79.0	2.4	0.00e+00	0	49	104	0	60	1048575
2026-01-17 14:30:54.59	354.31	9.09	-83.1	-79.0	2.4	0.00e+00	0	49	104	0	60	1048573
2026-01-17 14:30:55.59	354.10	9.04	-82.8	-79.0	2.2	0.00e+00	0	49	104	0	60	1048574
2026-01-17 14:30:56.60	353.89	8.99	-83.5	-79.0	2.5	0.00e+00	0	49	104	0	60	1048574
2026-01-17 14:30:57.60	353.68	8.94	-83.5	-79.0	2.3	0.00e+00	0	49	104	0	60	1048567
2026-01-17 14:30:58.61	353.47	8.89	-83.5	-79.0	2.6	0.00e+00	0	49	104	0	60	1048575
2026-01-17 14:30:59.62	353.26	8.84	-83.1	-79.0	2.1	0.00e+00	0	48	104	0	60	1048572
2026-01-17 14:31:00.63	353.05	8.79	-83.5	-79.0	2.3	0.00e+00	0	48	104	0	60	1048574
2026-01-17 14:31:01.63	352.84	8.73	-83.5	-79.0	2.2	0.00e+00	0	48	104	0	60	1048574
2026-01-17 14:31:02.64	352.63	8.68	-83.5	-79.0	2.2	0.00e+00	0	48	104	0	60	1048571
2026-01-17 14:31:03.65	352.42	8.63	-83.1	-79.0	2.3	0.00e+00	0	48	104	0	60	1048572
2026-01-17 14:31:04.66	352.22	8.58	-83.1	-79.0	2.2	0.00e+00	0	49	104	0	60	1048574
2026-01-17 14:31:05.67	352.01	8.53	-83.5	-79.0	2.2	0.00e+00	0	49	104	0	60	1048574
2026-01-17 14:31:06.67	351.81	8.47	-83.1	-79.0	2.5	0.00e+00	0	48	104	0	60	1048575
2026-01-17 14:31:07.68	351.61	8.42	-83.5	-79.0	2.1	0.00e+00	0	49	104	0	60	1048569
2026-01-17 14:31:08.68	351.41	8.37	-83.1	-79.0	2.5	0.00e+00	0	49	104	0	60	1048575
2026-01-17 14:31:09.69	351.21	8.32	-83.1	-79.0	2.2	0.00e+00	0	48	104	0	60	1048565
2026-01-17 14:31:10.69	351.01	8.26	-83.5	-79.0	2.6	0.00e+00	0	49	104	0	60	1048566
2026-01-17 14:31:11.70	350.81	8.21	-83.5	-79.0	2.0	0.00e+00	0	49	104	0	60	1048567
2026-01-17 14:31:12.71	350.61	8.16	-83.5	-79.0	2.5	0.00e+00	0	49	104	0	60	1048570
2026-01-17 14:31:13.71	350.42	8.11	-83.1	-79.0	2.2	0.00e+00	0	49	104	0	60	1048574
2026-01-17 14:31:14.72	350.22	8.05	-83.5	-79.0	2.5	0.00e+00	0	49	104	0	60	1048568
2026-01-17 14:31:15.71	350.03	8.00	-83.5	-79.0	2.0	0.00e+00	0	48	104	0	60	1048572
2026-01-17 14:31:16.71	349.83	7.95	-83.5	-79.0	2.5	0.00e+00	0	49	104	0	60	1048575
2026-01-17 14:31:17.72	349.64	7.89	-83.5	-79.0	2.3	0.00e+00	0	49	104	0	60	1048568
2026-01-17 14:31:18.72	349.45	7.84	-82.8	-79.0	2.2	0.00e+00	0	49	104	0	60	1048573
2026-01-17 14:31:19.73	349.26	7.78	-83.5	-79.0	2.0	0.00e+00	0	49	104	0	60	1048563
2026-01-17 14:31:20.74	349.06	7.73	-83.5	-79.0	2.6	0.00e+00	0	48	104	0	60	1048575
2026-01-17 14:31:21.74	348.88	7.68	-83.5	-79.0	2.1	0.00e+00	0	49	104	0	60	1048575
2026-01-17 14:31:22.75	348.69	7.62	-83.5	-79.0	2.5	0.00e+00	0	49	104	0	60	1048569
2026-01-17 14:31:23.76	348.50	7.57	-83.1	-79.0	2.0	0.00e+00	0	48	104	0	60	1048575
2026-01-17 14:31:24.76	348.31	7.51	-83.1	-79.0	2.5	0.00e+00	0	49	104	0	60	1048575
2026-01-17 14:31:25.77	348.13	7.46	-83.5	-79.0	2.1	0.00e+00	0	49	104	0	60	1048575
2026-01-17 14:31:26.77	347.94	7.40	-83.5	-79.0	2.5	0.00e+00	0	49	104	0	60	1048573
2026-01-17 14:31:27.78	347.76	7.35	-83.5	-79.0	2.1	0.00e+00	0	49	104	0	60	1048572
2026-01-17 14:31:28.79	347.57	7.29	-83.1	-79.0	2.4	0.00e+00	0	49	104	0	60	1048574
2026-01-17 14:31:29.80	347.39	7.24	-83.5	-79.0	2.1	0.00e+00	0	49	104	0	60	1048572
2026-01-17 14:31:30.81	347.21	7.18	-83.1	-79.0	2.3	0.00e+00	0	49	104	0	60	1048575
2026-01-17 14:31:31.81	347.03	7.13	-83.5	-79.0	2.0	0.00e+00	0	49	104	0	60	1048575
2026-01-17 14:31:32.82	346.85	7.08	-83.1	-79.0	2.3	0.00e+00	0	49	104	0	60	1048572
2026-01-17 14:31:33.83	346.67	7.02	-83.5	-79.0	2.1	0.00e+00	0	48	104	0	60	1048574
2026-01-17 14:31:34.84	346.49	6.96	-83.5	-79.0	2.5	0.00e+00	0	49	104	0	60	1048573
2026-01-17 14:31:35.85	346.31	6.91	-83.1	-79.0	2.0	0.00e+00	0	49	104	0	60	1048575
2026-01-17 14:31:36.85	346.13	6.85	-83.1	-79.0	2.5	0.00e+00	0	48	104	0	60	1048573
2026-01-17 14:31:37.86	345.96	6.80	-83.1	-79.0	2.0	0.00e+00	0	49	104	0	60	1048575
2026-01-17 14:31:38.86	345.78	6.74	-83.5	-79.0	2.3	0.00e+00	0	49	104	0	60	1048575
2026-01-17 14:31:39.87	345.61	6.69	-83.5	-79.0	2.1	0.00e+00	0	49	104	0	60	1048568
2026-01-17 14:31:40.87	345.44	6.63	-83.5	-79.0	2.3	0.00e+00	0	49	104	0	60	1048570
2026-01-17 14:31:41.88	345.26	6.58	-83.1	-79.0	2.3	0.00e+00	0	49	104	0	60	1048573
2026-01-17 14:31:42.89	345.09	6.52	-83.1	-79.0	2.4	0.00e+00	0	49	104	0	60	1048574
2026-01-17 14:31:43.90	344.92	6.47	-83.5	-79.0	2.7	0.00e+00	0	49	104	0	60	1048575
2026-01-17 14:31:44.89	344.75	6.41	-83.5	-79.0	2.3	0.00e+00	0	49	104	0	60	1048575
2026-01-17 14:31:45.90	344.58	6.35	-83.5	-79.0	2.4	0.00e+00	0	49	104	0	60	1048574
2026-01-17 14:31:46.91	344.41	6.30	-83.5	-79.0	2.1	0.00e+00	0	49	104	0	60	1048575
2026-01-17 14:31:47.92	344.24	6.24	-82.8	-79.0	2.5	0.00e+00	0	49	104	0	60	1048575
2026-01-17 14:31:48.92	344.08	6.19	-83.5	-79.0	2.1	0.00e+00	0	49	104	0	60	1048575
2026-01-17 14:31:49.93	343.91	6.13	-83.5	-79.0	2.0	0.00e+00	0	49	104	0	60	1048573
2026-01-17 14:31:50.93	343.75	6.08	-83.5	-79.0	2.4	0.00e+00	0	49	104	0	60	1048575
2026-01-17 14:31:51.93	343.59	6.02	-82.8	-79.0	2.1	0.00e+00	0	49	104	0	60	1048565
2026-01-17 14:31:52.93	343.42	5.96	-83.1	-79.0	2.3	0.00e+00	0	49	104	0	60	1048570
2026-01-17 14:31:53.94	343.26	5.91	-83.1	-79.0	2.2	0.00e+00	0	49	104	0	60	1048575
2026-01-17 14:31:54.95	343.10	5.85	-83.5	-79.0	2.1	0.00e+00	0	49	104	0	60	1048575
2026-01-17 14:31:55.96	342.94	5.80	-83.1	-79.0	2.6	0.00e+00	0	49	104	0	60	1048575
2026-01-17 14:31:56.97	342.77	5.74	-83.1	-79.0	2.1	0.00e+00	0	49	104	0	60	1048575
2026-01-17 14:31:57.97	342.62	5.68	-83.5	-79.0	2.5	0.00e+00	0	49	104	0	60	1048574
2026-01-17 14:31:58.98	342.46	5.63	-83.5	-79.0	2.1	0.00e+00	0	49	104	0	60	1048575
2026-01-17 14:31:59.99	342.30	5.57	-83.5	-79.0	2.5	0.00e+00	0	49	104	0	60	1048574
2026-01-17 14:32:01.00	342.14	5.52	-83.1	-79.0	2.0	0.00e+00	0	49	104	0	60	1048574
2026-01-17 14:32:02.01	341.98	5.46	-82.8	-79.0	2.6	0.00e+00	0	49	104	0	60	1048575
2026-01-17 14:32:03.01	341.83	5.40	-83.5	-79.0	2.0	0.00e+00	0	49	104	0	60	1048575
2026-01-17 14:32:04.02	341.67	5.35	-83.5	-79.0	2.5	0.00e+00	0	49	104	0	60	1048574
2026-01-17 14:32:05.03	341.52	5.29	-83.5	-79.0	2.1	0.00e+00	0	49	104	0	60	1048575
2026-01-17 14:32:06.03	341.37	5.24	-83.1	-79.0	2.6	0.00e+00	0	49	104	0	60	1048571
2026-01-17 14:32:07.04	341.21	5.18	-83.1	-79.0	2.2	0.00e+00	0	49	104	0	60	1048575
2026-01-17 14:32:08.05	341.06	5.12	-83.5	-79.0	2.6	0.00e+00	0	49	104	0	60	1048574
2026-01-17 14:32:09.06	340.91	5.07	-83.5	-79.0	2.2	0.00e+00	0	49	104	0	60	1048567
2026-01-17 14:32:10.07	340.76	5.01	-83.5	-79.0	2.4	0.00e+00	0	49	104	0	60	1048573
2026-01-17 14:32:11.08	340.61	4.95	-83.1	-79.0	2.0	0.00e+00	0	49	104	0	60	1048573
2026-01-17 14:32:12.08	340.46	4.90	-83.1	-79.0	2.7	0.00e+00	0	49	104	0	60	1048570
2026-01-17 14:32:13.09	340.31	4.84	-83.5	-79.0	2.2	0.00e+00	0	49	104	0	60	1048575
2026-01-17 14:32:14.10	340.16	4.79	-83.5	-79.0	2.4	0.00e+00	0	49	104	0	60	1048567
2026-01-17 14:32:15.11	340.02	4.73	-83.5	-79.0	2.1	0.00e+00	0	49	104	0	60	1048572
2026-01-17 14:32:16.12	339.87	4.67	-83.1	-79.0	2.5	0.00e+00	0	49	104	0	60	1048575
2026-01-17 14:32:17.13	339.72	4.62	-83.5	-79.0	2.2	0.00e+00	0	49	104	0	60	1048574
2026-01-17 14:32:18.13	339.58	4.56	-83.5	-79.0	2.5	0.00e+00	0	49	104	0	60	1048572
2026-01-17 14:32:19.14	339.44	4.51	-83.5	-79.0	2.1	0.00e+00	0	49	104	0	60	1048569
2026-01-17 14:32:20.15	339.29	4.45	-82.8	-79.0	2.4	0.00e+00	0	49	104	0	60	1048575
2026-01-17 14:32:21.16	339.15	4.39	-83.1	-79.0	2.0	0.00e+00	0	49	104	0	60	1048568
2026-01-17 14:32:22.16	339.01	4.34	-83.5	-79.0	2.5	0.00e+00	0	49	104	0	60	1048572
2026-01-17 14:32:23.17	338.87	4.28	-83.1	-79.0	1.9	0.00e+00	0	49	104	0	60	1048572
2026-01-17 14:32:24.17	338.73	4.23	-83.5	-79.0	2.5	0.00e+00	0	49	104	0	60	1048569
2026-01-17 14:32:25.18	338.59	4.17	-83.1	-79.0	2.2	0.00e+00	0	49	104	0	60	1048562
2026-01-17 14:32:26.18	338.45	4.11	-83.1	-79.0	2.5	0.00e+00	0	49	104	0	60	1048573
2026-01-17 14:32:27.19	338.31	4.06	-83.5	-79.0	2.1	0.00e+00	0	49	104	0	60	1048575
2026-01-17 14:32:28.20	338.17	4.00	-83.5	-79.0	2.5	0.00e+00	0	49	104	0	60	1048575
2026-01-17 14:32:29.20	338.04	3.95	-83.1	-79.0	2.1	0.00e+00	0	49	104	0	60	1048572
2026-01-17 14:32:30.21	337.90	3.89	-82.8	-79.0	2.3	0.00e+00	0	49	104	0	60	1048570
2026-01-17 14:32:31.22	337.77	3.83	-83.5	-79.0	2.3	0.00e+00	0	49	104	0	60	1048561
2026-01-17 14:32:32.23	337.63	3.78	-83.5	-79.0	2.5	0.00e+00	0	49	104	0	60	1048573
2026-01-17 14:32:33.24	337.50	3.72	-83.5	-79.0	2.1	0.00e+00	0	49	104	0	60	1048575
2026-01-17 14:32:34.25	337.36	3.67	-83.1	-79.0	2.5	0.00e+00	0	49	104	0	60	1048567
2026-01-17 14:32:35.25	337.23	3.61	-82.8	-79.0	2.1	0.00e+00	0	49	104	0	60	1048573
2026-01-17 14:32:36.26	337.10	3.56	-83.5	-79.0	2.3	0.00e+00	0	49	104	0	60	1048574
2026-01-17 14:32:37.26	336.97	3.50	-83.5	-79.0	2.2	0.00e+00	0	49	104	0	60	1048574
2026-01-17 14:32:38.27	336.83	3.44	-83.5	-79.0	2.4	0.00e+00	0	49	104	0	60	1048575
2026-01-17 14:32:39.27	336.71	3.39	-83.1	-79.0	2.2	0.00e+00	0	49	104	0	60	1048571
2026-01-17 14:32:40.28	336.58	3.33	-83.1	-79.0	2.4	0.00e+00	0	49	104	0	60	1048573
2026-01-17 14:32:41.29	336.45	3.28	-83.5	-79.0	2.3	0.00e+00	0	49	104	0	60	1048575
2026-01-17 14:32:42.29	336.32	3.22	-83.5	-79.0	2.5	0.00e+00	0	49	104	0	60	1048574
2026-01-17 14:32:43.30	336.19	3.17	-83.5	-79.0	2.3	0.00e+00	0	49	104	0	60	1048572
2026-01-17 14:32:44.31	336.06	3.11	-83.1	-79.0	2.3	0.00e+00	0	49	104	0	60	1048575
2026-01-17 14:32:45.32	335.94	3.06	-83.1	-79.0	2.5	0.00e+00	0	49	104	0	60	1048575
2026-01-17 14:32:46.33	335.81	3.00	-83.5	-79.0	2.5	0.00e+00	0	49	104	0	60	1048571
2026-01-17 14:32:47.33	335.69	2.95	-83.5	-79.0	2.1	0.00e+00	0	49	104	0	60	1048575
2026-01-17 14:32:48.34	335.56	2.89	-83.5	-79.0	2.4	0.00e+00	0	49	104	0	60	1048574
2026-01-17 14:32:49.35	335.44	2.83	-83.1	-79.0	1.9	0.00e+00	0	49	104	0	60	1048573
2026-01-17 14:32:50.36	335.31	2.78	-83.5	-79.0	2.5	0.00e+00	0	49	104	0	60	1048573
2026-01-17 14:32:51.37	335.19	2.72	-83.5	-79.0	2.2	0.00e+00	0	49	104	0	60	1048575
2026-01-17 14:32:52.37	335.07	2.67	-83.5	-79.0	2.4	0.00e+00	0	49	104	0	60	1048575
2026-01-17 14:32:53.38	334.95	2.61	-83.1	-79.0	2.3	0.00e+00	0	49	104	0	60	1048575
2026-01-17 14:32:54.38	334.83	2.56	-83.1	-79.0	2.3	0.00e+00	0	49	104	0	60	1048572
2026-01-17 14:32:55.39	334.70	2.50	-83.5	-79.0	2.4	0.00e+00	0	49	104	0	60	1048574
2026-01-17 14:32:56.39	334.59	2.45	-83.5	-79.0	2.4	0.00e+00	0	49	104	0	60	1048575
2026-01-17 14:32:57.40	334.47	2.39	-83.5	-79.0	2.2	0.00e+00	0	49	104	0	60	1048564
2026-01-17 14:32:58.40	334.35	2.34	-82.8	-79.0	2.0	0.00e+00	0	49	104	0	60	1048575
2026-01-17 14:32:59.41	334.23	2.28	-83.1	-79.0	2.3	0.00e+00	0	49	104	0	60	1048573
2026-01-17 14:33:00.41	334.11	2.23	-83.5	-79.0	2.2	0.00e+00	0	49	104	0	60	1048572
2026-01-17 14:33:01.42	334.00	2.18	-83.5	-79.0	2.5	0.00e+00	0	49	104	0	60	1048574
2026-01-17 14:33:02.42	333.88	2.12	-83.5	-79.0	2.1	0.00e+00	0	49	104	0	60	1048575
2026-01-17 14:33:03.42	333.76	2.07	-83.1	-79.0	2.4	0.00e+00	0	49	104	0	60	1048575
2026-01-17 14:33:04.43	333.65	2.01	-83.1	-79.0	2.3	0.00e+00	0	49	104	0	60	1048572
2026-01-17 14:33:05.44	333.53	1.96	-83.5	-79.0	2.2	0.00e+00	0	49	104	0	60	1048575
2026-01-17 14:33:06.45	333.42	1.90	-83.5	-79.0	2.3	0.00e+00	0	49	104	0	60	1048574
2026-01-17 14:33:07.45	333.31	1.85	-83.5	-79.0	2.4	0.00e+00	0	49	104	0	60	1048574
2026-01-17 14:33:08.46	333.19	1.79	-83.1	-79.0	2.1	0.00e+00	0	49	104	0	60	1048574
2026-01-17 14:33:09.47	333.08	1.74	-83.5	-79.0	2.4	0.00e+00	0	49	104	0	60	1048575
2026-01-17 14:33:10.48	332.97	1.69	-83.5	-79.0	2.2	0.00e+00	0	49	104	0	60	1048572
2026-01-17 14:33:11.49	332.86	1.63	-83.5	-79.0	2.5	0.00e+00	0	49	104	0	60	1048569
2026-01-17 14:33:12.49	332.75	1.58	-83.1	-79.0	2.1	0.00e+00	0	49	104	0	60	1048575
2026-01-17 14:33:13.50	332.63	1.52	-83.1	-79.0	2.6	0.00e+00	0	49	104	0	60	1048570
2026-01-17 14:33:14.51	332.52	1.47	-83.5	-79.0	2.0	0.00e+00	0	49	104	0	60	1048574
2026-01-17 14:33:15.51	332.42	1.42	-83.5	-79.0	2.5	0.00e+00	0	49	104	0	60	1048573
2026-01-17 14:33:16.52	332.31	1.36	-83.1	-79.0	2.0	0.00e+00	0	49	104	0	60	1048572
2026-01-17 14:33:17.53	332.20	1.31	-83.1	-79.0	2.5	0.00e+00	0	49	104	0	60	1048575
2026-01-17 14:33:18.53	332.09	1.25	-83.1	-79.0	2.4	0.00e+00	0	49	104	0	60	1048575
2026-01-17 14:33:19.54	331.98	1.20	-83.1	-79.0	2.5	0.00e+00	0	49	104	0	60	1048570
2026-01-17 14:33:20.55	331.88	1.15	-83.5	-79.0	2.2	0.00e+00	0	49	104	0	60	1048569
2026-01-17 14:33:21.55	331.77	1.09	-83.5	-79.0	2.4	0.00e+00	0	49	104	0	60	1048575
2026-01-17 14:33:22.56	331.66	1.04	-82.8	-79.0	2.1	0.00e+00	0	49	104	0	60	1048569
2026-01-17 14:33:23.56	331.56	0.98	-83.1	-79.0	2.5	0.00e+00	0	49	104	0	60	1048574
2026-01-17 14:33:24.56	331.46	0.93	-83.5	-79.0	2.1	0.00e+00	0	49	104	0	60	1048575
2026-01-17 14:33:25.57	331.35	0.88	-83.5	-79.0	2.5	0.00e+00	0	49	104	0	60	1048575
2026-01-17 14:33:26.57	331.25	0.82	-83.1	-79.0	1.9	0.00e+00	0	49	104	0	60	1048574
2026-01-17 14:33:27.57	331.15	0.77	-82.8	-79.0	2.4	0.00e+00	0	49	104	0	60	1048575
2026-01-17 14:33:28.57	331.04	0.72	-83.1	-79.0	2.4	0.00e+00	0	49	104	0	60	1048572
2026-01-17 14:33:29.58	330.94	0.67	-83.5	-79.0	2.4	0.00e+00	0	49	104	0	60	1048574
2026-01-17 14:33:30.59	330.84	0.61	-83.5	-79.0	2.3	0.00e+00	0	49	104	0	60	1048573
2026-01-17 14:33:31.60	330.74	0.56	-83.1	-79.0	2.2	0.00e+00	0	49	104	0	60	1048575
2026-01-17 14:33:32.61	330.64	0.51	-83.1	-79.0	2.1	0.00e+00	0	49	104	0	60	1048572
2026-01-17 14:33:33.61	330.54	0.45	-83.5	-79.0	2.2	0.00e+00	0	49	104	0	60	1048571
2026-01-17 14:33:34.62	330.44	0.40	-83.5	-79.0	2.5	0.00e+00	0	49	104	0	60	1048567
2026-01-17 14:33:35.63	330.34	0.35	-83.5	-79.0	2.6	0.00e+00	0	49	104	0	60	1048574
2026-01-17 14:33:36.63	330.24	0.29	-82.8	-79.0	2.1	0.00e+00	0	49	104	0	60	1048573
2026-01-17 14:33:37.64	330.14	0.24	-83.5	-79.0	2.5	0.00e+00	0	49	104	0	60	1048575
2026-01-17 14:33:38.64	330.04	0.19	-83.5	-79.0	2.1	0.00e+00	0	49	104	0	60	1048565
2026-01-17 14:33:39.65	329.94	0.14	-83.5	-79.0	2.5	0.00e+00	0	49	104	0	60	1048567
2026-01-17 14:33:40.65	329.85	0.08	-83.5	-79.0	2.4	0.00e+00	0	49	104	0	60	1048573
2026-01-17 14:33:41.66	329.75	0.03	-83.1	-79.0	2.5	0.00e+00	0	49	104	0	60	1048568
2026-01-17 14:33:42.66	329.66	-0.02	-83.5	-79.0	2.2	0.00e+00	0	49	104	0	60	1048570

#Closed at: 2026-01-17 14:33:43
#Recorded file [0 MB]: D:/Data/35015_260117_172418.dat