passes_logs/2026/01/17/R3.2S-Naryan-Mar/R3.2S-Naryan-Mar__20260117_080844_FENGYUN_3D_rec.log

#Pass ID: 20260117_080844_FENGYUN 3D
#Satellite: FENGYUN 3D
#Configuration: FENGYUN 3D
#almurnet v.1.7.20240730
#Start time: 2026-01-17 08:08:47

#Version: 2.2.20231116
#Station: R3.2S-Naryan-Mar
#Location: 53.008057 lon 67.646978 lat
#TLE: 1 43010U 17072A   26016.27214855  .00000192  00000+0  11235-3 0  9990
#TLE: 2 43010  98.9932 348.1078 0002365 105.5031 254.6406 14.19695933423435

#Time	Az	El	Level	Level2	SNR	BER	BlckErr	Temp	State	Recorded	gain1	gain2
2026-01-17 08:08:47.92	103.35	0.18	-85.2	-88.6	6.0	3.17e-01	0	45	0	0	60	1048575
2026-01-17 08:08:48.92	103.31	0.23	-84.7	-88.6	5.6	2.82e-01	0	45	0	0	60	1048569
2026-01-17 08:08:49.93	103.27	0.29	-84.7	-88.6	5.9	2.78e-01	0	45	0	0	60	1048574
2026-01-17 08:08:50.94	103.22	0.35	-84.7	-88.6	5.6	2.80e-01	0	45	0	0	60	1048575
2026-01-17 08:08:51.95	103.18	0.41	-84.7	-88.6	5.9	2.82e-01	0	45	0	0	60	1048571
2026-01-17 08:08:52.95	103.14	0.46	-84.7	-88.6	6.3	2.77e-01	0	45	0	0	60	1048574
2026-01-17 08:08:53.95	103.09	0.52	-84.7	-88.6	6.0	2.82e-01	0	46	0	0	60	1048575
2026-01-17 08:08:54.96	103.05	0.58	-84.7	-88.6	5.8	2.81e-01	0	46	0	0	60	1048574
2026-01-17 08:08:55.97	103.00	0.64	-84.7	-88.6	6.1	2.81e-01	0	46	0	0	60	1048575
2026-01-17 08:08:56.98	102.96	0.70	-85.2	-88.6	6.1	2.80e-01	0	45	0	0	60	1048575
2026-01-17 08:08:57.99	102.91	0.75	-84.7	-88.6	6.2	2.81e-01	0	46	0	0	60	1048570
2026-01-17 08:08:58.99	102.87	0.81	-84.7	-88.6	5.4	2.76e-01	0	46	0	0	60	1048573
2026-01-17 08:09:00.00	102.82	0.87	-84.7	-88.6	5.8	2.83e-01	0	46	0	0	60	1048574
2026-01-17 08:09:00.99	102.78	0.93	-84.7	-88.6	6.2	2.83e-01	0	46	0	0	60	1048573
2026-01-17 08:09:02.00	102.73	0.99	-84.3	-88.6	6.0	2.79e-01	0	46	0	0	60	1048569
2026-01-17 08:09:03.01	102.69	1.05	-84.7	-88.6	6.3	2.80e-01	0	46	0	0	60	1048575
2026-01-17 08:09:04.02	102.64	1.11	-84.7	-88.6	6.0	2.82e-01	0	46	0	0	60	1048575
2026-01-17 08:09:05.02	102.60	1.16	-84.7	-88.6	5.7	2.81e-01	0	46	0	0	60	1048575
2026-01-17 08:09:06.03	102.55	1.22	-84.7	-88.6	6.0	2.82e-01	0	46	0	0	60	1048575
2026-01-17 08:09:07.04	102.50	1.28	-84.7	-88.6	5.6	2.82e-01	0	46	0	0	60	1048575
2026-01-17 08:09:08.04	102.46	1.34	-84.7	-88.6	5.7	2.78e-01	0	46	0	0	60	1048575
2026-01-17 08:09:09.05	102.41	1.40	-84.7	-88.6	6.3	2.88e-01	0	46	0	0	60	1048574
2026-01-17 08:09:10.05	102.36	1.46	-84.3	-88.6	5.9	2.78e-01	0	46	0	0	60	1048574
2026-01-17 08:09:11.06	102.32	1.52	-84.7	-88.6	6.1	2.86e-01	0	46	0	0	60	1048575
2026-01-17 08:09:12.07	102.27	1.58	-84.7	-88.6	6.1	2.84e-01	0	46	0	0	60	1048574
2026-01-17 08:09:13.07	102.22	1.64	-85.2	-88.6	6.1	2.83e-01	0	46	0	0	60	1048574
2026-01-17 08:09:14.08	102.17	1.70	-84.7	-88.6	6.0	2.81e-01	0	46	0	0	60	1048574
2026-01-17 08:09:15.09	102.12	1.76	-83.9	-88.6	6.1	2.77e-01	0	46	0	0	60	1048575
2026-01-17 08:09:16.10	102.08	1.82	-84.7	-88.6	5.9	2.72e-01	0	46	0	0	60	1048574
2026-01-17 08:09:17.10	102.03	1.88	-84.7	-88.6	5.6	2.80e-01	0	46	0	0	60	1048575
2026-01-17 08:09:18.10	101.98	1.94	-84.7	-88.6	6.2	2.75e-01	0	46	0	0	60	1048568
2026-01-17 08:09:19.11	101.93	2.00	-84.7	-88.6	6.0	2.75e-01	0	46	0	0	60	1048575
2026-01-17 08:09:20.11	101.88	2.06	-84.7	-88.6	5.4	2.75e-01	0	46	0	0	60	1048575
2026-01-17 08:09:21.12	101.83	2.12	-84.7	-88.6	5.9	2.78e-01	0	46	0	0	60	1048571
2026-01-17 08:09:22.13	101.78	2.18	-84.7	-88.6	6.4	2.77e-01	0	46	0	0	60	1048575
2026-01-17 08:09:23.14	101.73	2.24	-85.2	-88.6	5.8	2.79e-01	0	46	0	0	60	1048572
2026-01-17 08:09:24.15	101.68	2.30	-84.7	-88.6	6.2	2.76e-01	0	46	0	0	60	1048573
2026-01-17 08:09:25.15	101.63	2.36	-84.3	-88.6	6.0	2.76e-01	0	46	0	0	60	1048572
2026-01-17 08:09:26.16	101.58	2.42	-84.7	-88.6	6.4	2.77e-01	0	46	0	0	60	1048574
2026-01-17 08:09:27.17	101.53	2.48	-85.2	-88.6	6.4	2.76e-01	0	46	0	0	60	1048570
2026-01-17 08:09:28.18	101.48	2.55	-84.7	-88.6	6.0	2.75e-01	0	46	0	0	60	1048569
2026-01-17 08:09:29.18	101.43	2.61	-84.7	-88.6	6.1	2.84e-01	0	46	0	0	60	1048575
2026-01-17 08:09:30.19	101.38	2.67	-82.8	-88.6	5.9	2.78e-01	0	46	0	0	60	1048575
2026-01-17 08:09:31.20	101.33	2.73	-85.2	-88.6	6.3	2.85e-01	0	46	0	0	60	1048573
2026-01-17 08:09:32.21	101.28	2.79	-84.7	-88.6	6.0	2.78e-01	0	46	0	0	60	1048574
2026-01-17 08:09:33.22	101.22	2.85	-84.7	-88.6	6.1	2.76e-01	0	46	0	0	60	1048564
2026-01-17 08:09:34.22	101.17	2.92	-84.7	-88.6	6.4	2.76e-01	0	46	0	0	60	1048562
2026-01-17 08:09:35.23	101.12	2.98	-84.7	-88.6	5.9	2.83e-01	0	46	0	0	60	1048564
2026-01-17 08:09:36.24	101.07	3.04	-85.2	-88.6	6.4	2.78e-01	0	46	0	0	60	1048569
2026-01-17 08:09:37.24	101.01	3.10	-84.7	-88.6	6.1	2.80e-01	0	46	0	0	60	1048572
2026-01-17 08:09:38.25	100.96	3.17	-84.7	-88.6	5.4	2.78e-01	0	46	0	0	60	1048575
2026-01-17 08:09:39.25	100.91	3.23	-84.7	-88.6	5.7	2.78e-01	0	46	0	0	60	1048564
2026-01-17 08:09:40.25	100.85	3.29	-84.7	-88.6	6.1	2.82e-01	0	46	0	0	60	1048575
2026-01-17 08:09:41.26	100.80	3.35	-84.7	-88.6	6.1	2.82e-01	0	46	0	0	60	1048575
2026-01-17 08:09:42.27	100.74	3.42	-85.2	-88.6	6.3	2.79e-01	0	46	0	0	60	1048573
2026-01-17 08:09:43.28	100.69	3.48	-84.7	-88.6	6.3	2.81e-01	0	46	0	0	60	1048573
2026-01-17 08:09:44.29	100.64	3.54	-85.2	-88.6	5.8	2.77e-01	0	46	0	0	60	1048564
2026-01-17 08:09:45.30	100.58	3.61	-84.7	-88.6	5.5	2.80e-01	0	46	0	0	60	1048575
2026-01-17 08:09:46.31	100.53	3.67	-84.7	-88.6	6.1	2.80e-01	0	46	0	0	60	1048575
2026-01-17 08:09:47.31	100.47	3.73	-84.7	-88.6	6.2	2.79e-01	0	46	0	0	60	1048574
2026-01-17 08:09:48.32	100.41	3.80	-84.7	-88.6	5.7	2.78e-01	0	46	0	0	60	1048575
2026-01-17 08:09:49.33	100.36	3.86	-84.7	-88.6	6.3	2.82e-01	0	46	0	0	60	1048569
2026-01-17 08:09:50.33	100.30	3.92	-84.7	-88.6	5.4	2.77e-01	0	46	0	0	60	1048575
2026-01-17 08:09:51.34	100.25	3.99	-84.7	-88.6	5.8	2.79e-01	0	46	0	0	60	1048574
2026-01-17 08:09:52.35	100.19	4.05	-84.7	-88.6	6.3	2.79e-01	0	46	0	0	60	1048574
2026-01-17 08:09:53.34	100.13	4.12	-84.7	-88.6	6.3	2.78e-01	0	46	0	0	60	1048572
2026-01-17 08:09:54.35	100.08	4.18	-85.2	-88.6	6.1	2.81e-01	0	46	0	0	60	1048574
2026-01-17 08:09:55.36	100.02	4.25	-84.7	-88.6	6.0	2.84e-01	0	46	0	0	60	1048575
2026-01-17 08:09:56.37	99.96	4.31	-84.7	-88.6	6.0	2.80e-01	0	46	0	0	60	1048575
2026-01-17 08:09:57.37	99.90	4.37	-84.7	-88.6	5.7	2.74e-01	0	46	0	0	60	1048574
2026-01-17 08:09:58.38	99.84	4.44	-84.7	-88.6	5.8	2.82e-01	0	46	0	0	60	1048571
2026-01-17 08:09:59.39	99.79	4.50	-84.7	-88.6	6.2	2.82e-01	0	46	0	0	60	1048574
2026-01-17 08:10:00.39	99.73	4.57	-84.7	-88.6	5.8	2.78e-01	0	46	0	0	60	1048574
2026-01-17 08:10:01.40	99.67	4.63	-84.7	-88.6	6.6	2.81e-01	0	46	0	0	60	1048574
2026-01-17 08:10:02.41	99.61	4.70	-84.7	-88.6	6.1	2.80e-01	0	46	0	0	60	1048573
2026-01-17 08:10:03.42	99.55	4.77	-85.2	-88.6	6.4	2.80e-01	0	46	0	0	60	1048575
2026-01-17 08:10:04.43	99.49	4.83	-84.7	-88.6	5.9	2.77e-01	0	46	0	0	60	1048575
2026-01-17 08:10:05.44	99.43	4.90	-85.2	-88.6	6.1	2.83e-01	0	46	0	0	60	1048567
2026-01-17 08:10:06.44	99.37	4.96	-84.7	-88.6	6.3	2.76e-01	0	46	0	0	60	1048570
2026-01-17 08:10:07.45	99.31	5.03	-84.7	-88.6	6.4	2.80e-01	0	46	0	0	60	1048575
2026-01-17 08:10:08.45	99.25	5.10	-84.7	-88.6	6.0	2.78e-01	0	46	0	0	60	1048570
2026-01-17 08:10:09.46	99.18	5.16	-84.7	-88.6	6.0	2.80e-01	0	46	0	0	60	1048570
2026-01-17 08:10:10.47	99.12	5.23	-84.7	-88.6	6.4	2.80e-01	0	46	0	0	60	1048575
2026-01-17 08:10:11.47	99.06	5.29	-84.7	-88.6	5.6	2.78e-01	0	46	0	0	60	1048575
2026-01-17 08:10:12.48	99.00	5.36	-84.7	-88.6	6.2	2.80e-01	0	46	0	0	60	1048574
2026-01-17 08:10:13.49	98.94	5.43	-85.2	-88.6	6.3	2.74e-01	0	46	0	0	60	1048573
2026-01-17 08:10:14.49	98.87	5.50	-85.2	-88.6	6.2	2.78e-01	0	46	0	0	60	1048573
2026-01-17 08:10:15.50	98.81	5.56	-84.7	-88.6	6.4	2.75e-01	0	46	0	0	60	1048573
2026-01-17 08:10:16.51	98.75	5.63	-84.7	-88.6	6.1	2.80e-01	0	46	0	0	60	1048573
2026-01-17 08:10:17.51	98.68	5.70	-85.2	-88.6	5.9	2.77e-01	0	46	0	0	60	1048573
2026-01-17 08:10:18.52	98.62	5.76	-84.7	-88.6	6.5	2.80e-01	0	46	0	0	60	1048566
2026-01-17 08:10:19.52	98.55	5.83	-84.7	-88.6	6.4	2.80e-01	0	46	0	0	60	1048571
2026-01-17 08:10:20.53	98.49	5.90	-84.7	-88.6	5.3	2.78e-01	0	46	0	0	60	1048568
2026-01-17 08:10:21.54	98.42	5.97	-84.7	-88.6	6.4	2.77e-01	0	46	0	0	60	1048575
2026-01-17 08:10:22.54	98.36	6.04	-85.2	-88.6	6.0	2.79e-01	0	46	0	0	60	1048575
2026-01-17 08:10:23.55	98.29	6.10	-84.7	-88.6	6.2	2.78e-01	0	46	0	0	60	1048575
2026-01-17 08:10:24.55	98.23	6.17	-85.2	-88.6	5.9	2.75e-01	0	46	0	0	60	1048573
2026-01-17 08:10:25.56	98.16	6.24	-84.7	-88.6	5.7	2.72e-01	0	46	0	0	60	1048575
2026-01-17 08:10:26.56	98.10	6.31	-85.2	-88.6	5.8	2.80e-01	0	46	0	0	60	1048575
2026-01-17 08:10:27.57	98.03	6.38	-84.7	-88.6	5.6	2.72e-01	0	46	0	0	60	1048574
2026-01-17 08:10:28.57	97.96	6.45	-84.7	-88.6	6.5	2.82e-01	0	46	0	0	60	1048575
2026-01-17 08:10:29.58	97.89	6.52	-84.7	-88.6	6.5	2.79e-01	0	47	0	0	60	1048575
2026-01-17 08:10:30.58	97.83	6.59	-84.7	-88.6	6.0	2.70e-01	0	46	0	0	60	1048575
2026-01-17 08:10:31.59	97.76	6.65	-84.7	-88.6	5.9	2.76e-01	0	46	0	0	60	1048573
2026-01-17 08:10:32.59	97.69	6.72	-85.2	-88.6	6.1	2.79e-01	0	46	0	0	60	1048574
2026-01-17 08:10:33.60	97.62	6.79	-84.7	-88.6	6.3	2.77e-01	0	46	0	0	60	1048574
2026-01-17 08:10:34.61	97.55	6.86	-84.7	-88.6	6.4	2.78e-01	0	46	0	0	60	1048574
2026-01-17 08:10:35.62	97.48	6.93	-84.7	-88.6	6.0	2.77e-01	0	46	0	0	60	1048575
2026-01-17 08:10:36.63	97.41	7.00	-84.3	-88.6	6.1	2.81e-01	0	46	0	0	60	1048573
2026-01-17 08:10:37.63	97.34	7.07	-85.2	-88.6	5.9	2.76e-01	0	47	0	0	60	1048575
2026-01-17 08:10:38.64	97.27	7.14	-84.7	-88.6	5.9	2.80e-01	0	46	0	0	60	1048575
2026-01-17 08:10:39.65	97.20	7.22	-84.3	-88.6	6.0	2.76e-01	0	46	0	0	60	1048573
2026-01-17 08:10:40.66	97.13	7.29	-84.3	-88.6	5.3	2.78e-01	0	46	0	0	60	1048575
2026-01-17 08:10:41.66	97.05	7.36	-84.7	-88.6	6.3	2.79e-01	0	46	0	0	60	1048575
2026-01-17 08:10:42.67	96.98	7.43	-84.7	-88.6	5.5	2.76e-01	0	46	0	0	60	1048575
2026-01-17 08:10:43.68	96.91	7.50	-84.7	-88.6	5.9	2.79e-01	0	46	0	0	60	1048575
2026-01-17 08:10:44.67	96.84	7.57	-84.3	-88.6	6.2	2.81e-01	0	47	0	0	60	1048572
2026-01-17 08:10:45.68	96.76	7.64	-84.7	-88.6	5.6	2.78e-01	0	46	0	0	60	1048574
2026-01-17 08:10:46.69	96.69	7.71	-84.7	-88.6	6.0	2.76e-01	0	46	0	0	60	1048575
2026-01-17 08:10:47.69	96.62	7.79	-85.2	-88.6	5.5	2.79e-01	0	46	0	0	60	1048574
2026-01-17 08:10:48.70	96.54	7.86	-84.7	-88.6	5.7	2.81e-01	0	46	0	0	60	1048571
2026-01-17 08:10:49.71	96.47	7.93	-84.7	-88.6	6.3	2.81e-01	0	46	0	0	60	1048572
2026-01-17 08:10:50.71	96.39	8.00	-84.7	-88.6	6.0	2.83e-01	0	46	0	0	60	1048575
2026-01-17 08:10:51.72	96.32	8.07	-85.2	-88.6	6.5	2.70e-01	0	47	0	0	60	1048574
2026-01-17 08:10:52.73	96.24	8.15	-84.7	-88.6	5.7	2.80e-01	0	47	0	0	60	1048574
2026-01-17 08:10:53.74	96.16	8.22	-84.7	-88.6	5.9	2.76e-01	0	46	0	0	60	1048574
2026-01-17 08:10:54.75	96.09	8.29	-84.7	-88.6	5.9	2.81e-01	0	46	0	0	60	1048575
2026-01-17 08:10:55.75	96.01	8.37	-84.7	-88.6	5.8	2.82e-01	0	46	0	0	60	1048568
2026-01-17 08:10:56.75	95.93	8.44	-84.7	-88.6	6.1	2.80e-01	0	46	0	0	60	1048575
2026-01-17 08:10:57.76	95.85	8.51	-84.7	-88.6	5.8	2.80e-01	0	46	0	0	60	1048575
2026-01-17 08:10:58.76	95.78	8.59	-84.7	-88.6	6.2	2.78e-01	0	46	0	0	60	1048564
2026-01-17 08:10:59.77	95.70	8.66	-84.7	-88.6	5.9	2.80e-01	0	46	0	0	60	1048570
2026-01-17 08:11:00.77	95.62	8.73	-84.3	-88.6	6.2	2.77e-01	0	46	0	0	60	1048574
2026-01-17 08:11:01.78	95.54	8.81	-84.7	-88.6	6.1	2.77e-01	0	46	0	0	60	1048567
2026-01-17 08:11:02.79	95.46	8.88	-85.2	-88.6	6.1	2.77e-01	0	46	0	0	60	1048570
2026-01-17 08:11:03.79	95.38	8.96	-84.3	-88.6	5.9	2.76e-01	0	46	0	0	60	1048575
2026-01-17 08:11:04.80	95.30	9.03	-84.7	-88.6	6.0	2.74e-01	0	46	0	0	60	1048575
2026-01-17 08:11:05.81	95.21	9.11	-84.7	-88.6	6.2	2.79e-01	0	47	0	0	60	1048573
2026-01-17 08:11:06.81	95.13	9.18	-83.9	-88.6	6.3	2.77e-01	0	47	0	0	60	1048575
2026-01-17 08:11:07.82	95.05	9.26	-84.7	-88.6	5.6	2.80e-01	0	46	0	0	60	1048569
2026-01-17 08:11:08.82	94.97	9.33	-84.7	-88.6	6.1	2.77e-01	0	46	0	0	60	1048571
2026-01-17 08:11:09.83	94.89	9.41	-84.7	-88.6	6.0	2.79e-01	0	47	0	0	60	1048575
2026-01-17 08:11:10.84	94.80	9.48	-84.7	-88.6	5.8	2.78e-01	0	47	0	0	60	1048575
2026-01-17 08:11:11.84	94.72	9.56	-83.5	-88.6	6.0	2.78e-01	0	46	0	0	60	1048575
2026-01-17 08:11:12.84	94.63	9.63	-83.5	-88.6	6.3	2.76e-01	0	47	0	0	60	1048566
2026-01-17 08:11:13.85	94.55	9.71	-84.7	-88.6	6.0	2.81e-01	0	46	0	0	60	1048575
2026-01-17 08:11:14.86	94.46	9.78	-85.2	-88.6	6.0	2.77e-01	0	47	0	0	60	1048566
2026-01-17 08:11:15.86	94.38	9.86	-85.2	-88.6	5.8	2.80e-01	0	47	0	0	60	1048572
2026-01-17 08:11:16.87	94.29	9.94	-84.7	-88.6	5.9	2.77e-01	0	46	0	0	60	1048575
2026-01-17 08:11:17.87	94.21	10.01	-84.7	-88.6	6.0	2.80e-01	0	46	0	0	60	1048573
2026-01-17 08:11:18.88	94.12	10.09	-84.7	-88.6	6.3	2.79e-01	0	47	0	0	60	1048568
2026-01-17 08:11:19.88	94.03	10.17	-84.3	-88.6	5.9	2.81e-01	0	46	0	0	60	1048575
2026-01-17 08:11:20.88	93.94	10.24	-83.9	-88.6	6.2	2.83e-01	0	47	0	0	60	1048575
2026-01-17 08:11:21.89	93.85	10.32	-84.7	-88.6	6.5	2.79e-01	0	46	0	0	60	1048575
2026-01-17 08:11:22.89	93.77	10.40	-84.7	-88.6	6.7	2.84e-01	0	46	0	0	60	1048575
2026-01-17 08:11:23.90	93.68	10.48	-85.2	-88.6	5.9	2.76e-01	0	46	0	0	60	1048571
2026-01-17 08:11:24.91	93.58	10.56	-84.3	-88.6	5.8	2.75e-01	0	46	0	0	60	1048571
2026-01-17 08:11:25.92	93.49	10.63	-83.9	-88.6	5.9	2.81e-01	0	47	0	0	60	1048575
2026-01-17 08:11:26.92	93.40	10.71	-84.7	-88.6	6.0	2.80e-01	0	47	0	0	60	1048575
2026-01-17 08:11:27.93	93.31	10.79	-83.9	-88.6	5.7	2.78e-01	0	47	0	0	60	1048572
2026-01-17 08:11:28.93	93.22	10.87	-84.7	-88.6	6.0	2.77e-01	0	46	0	0	60	1048573
2026-01-17 08:11:29.93	93.13	10.95	-84.7	-88.6	6.2	2.79e-01	0	46	0	0	60	1048574
2026-01-17 08:11:30.93	93.03	11.03	-84.7	-88.6	6.2	2.79e-01	0	47	0	0	60	1048575
2026-01-17 08:11:31.93	92.94	11.10	-84.7	-88.6	5.9	2.81e-01	0	46	0	0	60	1048572
2026-01-17 08:11:32.94	92.85	11.18	-84.7	-88.6	5.9	2.82e-01	0	47	0	0	60	1048573
2026-01-17 08:11:33.94	92.75	11.26	-83.5	-88.6	6.0	2.78e-01	0	46	0	0	60	1048572
2026-01-17 08:11:34.94	92.66	11.34	-84.7	-88.6	5.8	2.81e-01	0	47	0	0	60	1048575
2026-01-17 08:11:35.95	92.56	11.42	-84.7	-88.6	5.6	2.83e-01	0	47	0	0	60	1048575
2026-01-17 08:11:36.96	92.47	11.50	-84.7	-88.6	5.8	2.80e-01	0	47	0	0	60	1048574
2026-01-17 08:11:37.97	92.37	11.58	-84.3	-88.6	6.4	2.81e-01	0	47	0	0	60	1048574
2026-01-17 08:11:38.97	92.27	11.66	-84.7	-88.6	6.4	2.79e-01	0	46	0	0	60	1048575
2026-01-17 08:11:39.97	92.17	11.74	-83.5	-88.6	5.4	2.77e-01	0	46	0	0	60	1048573
2026-01-17 08:11:40.98	92.07	11.82	-84.7	-88.6	6.0	2.80e-01	0	47	0	0	60	1048570
2026-01-17 08:11:41.98	91.98	11.91	-83.5	-88.6	6.2	2.76e-01	0	47	0	0	60	1048571
2026-01-17 08:11:42.99	91.88	11.99	-84.7	-88.6	6.3	2.83e-01	0	47	0	0	60	1048575
2026-01-17 08:11:44.00	91.78	12.07	-83.9	-88.6	5.8	2.80e-01	0	47	0	0	60	1048575
2026-01-17 08:11:45.01	91.67	12.15	-85.2	-88.6	5.9	2.80e-01	0	47	0	0	60	1048565
2026-01-17 08:11:46.02	91.57	12.23	-84.3	-88.6	5.6	2.79e-01	0	47	0	0	60	1048575
2026-01-17 08:11:47.03	91.47	12.31	-84.7	-88.6	6.3	2.82e-01	0	47	0	0	60	1048570
2026-01-17 08:11:48.03	91.37	12.40	-84.7	-88.6	6.2	2.86e-01	0	46	0	0	60	1048575
2026-01-17 08:11:49.03	91.27	12.48	-84.3	-88.6	6.5	2.82e-01	0	47	0	0	60	1048575
2026-01-17 08:11:50.04	91.16	12.56	-83.5	-88.6	6.5	2.85e-01	0	47	0	0	60	1048571
2026-01-17 08:11:51.04	91.06	12.64	-84.7	-88.6	5.6	2.83e-01	0	47	0	0	60	1048567
2026-01-17 08:11:52.04	90.95	12.73	-83.9	-88.6	5.7	2.76e-01	0	47	0	0	60	1048572
2026-01-17 08:11:53.04	90.85	12.81	-85.2	-88.6	6.2	2.81e-01	0	47	0	0	60	1048575
2026-01-17 08:11:54.05	90.74	12.89	-84.7	-88.6	5.9	2.80e-01	0	47	0	0	60	1048572
2026-01-17 08:11:55.05	90.64	12.97	-84.7	-88.6	6.3	2.78e-01	0	47	0	0	60	1048574
2026-01-17 08:11:56.06	90.53	13.06	-84.7	-88.6	6.1	2.81e-01	0	47	0	0	60	1048575
2026-01-17 08:11:57.06	90.42	13.14	-84.7	-88.6	5.5	2.82e-01	0	47	0	0	60	1048574
2026-01-17 08:11:58.07	90.31	13.23	-83.5	-88.6	6.3	2.79e-01	0	47	0	0	60	1048573
2026-01-17 08:11:59.08	90.20	13.31	-84.7	-88.6	6.1	2.79e-01	0	46	0	0	60	1048575
2026-01-17 08:12:00.09	90.09	13.39	-83.9	-88.6	5.8	2.80e-01	0	47	0	0	60	1048573
2026-01-17 08:12:01.10	89.98	13.48	-84.7	-88.6	6.3	2.82e-01	0	47	0	0	60	1048570
2026-01-17 08:12:02.10	89.87	13.56	-84.7	-88.6	6.2	2.80e-01	0	47	0	0	60	1048574
2026-01-17 08:12:03.11	89.76	13.65	-83.5	-88.6	6.3	2.83e-01	0	47	0	0	60	1048575
2026-01-17 08:12:04.12	89.65	13.73	-84.7	-88.6	6.2	2.79e-01	0	47	0	0	60	1048572
2026-01-17 08:12:05.13	89.53	13.82	-83.9	-88.6	6.0	2.80e-01	0	47	0	0	60	1048575
2026-01-17 08:12:06.13	89.42	13.90	-84.7	-88.6	6.1	2.78e-01	0	47	0	0	60	1048573
2026-01-17 08:12:07.14	89.30	13.99	-83.9	-88.6	5.9	2.76e-01	0	47	0	0	60	1048570
2026-01-17 08:12:08.14	89.19	14.08	-83.9	-88.6	5.7	2.78e-01	0	47	0	0	60	1048574
2026-01-17 08:12:09.15	89.07	14.16	-84.7	-88.6	5.7	2.80e-01	0	47	0	0	60	1048573
2026-01-17 08:12:10.15	88.96	14.25	-84.7	-88.6	5.9	2.82e-01	0	47	0	0	60	1048575
2026-01-17 08:12:11.16	88.84	14.33	-83.5	-88.6	6.1	2.81e-01	0	47	0	0	60	1048575
2026-01-17 08:12:12.17	88.72	14.42	-84.7	-88.6	5.7	2.82e-01	0	47	0	0	60	1048575
2026-01-17 08:12:13.17	88.60	14.51	-84.7	-88.6	5.5	2.79e-01	0	47	0	0	60	1048574
2026-01-17 08:12:14.18	88.48	14.59	-84.7	-88.6	5.9	2.83e-01	0	47	0	0	60	1048569
2026-01-17 08:12:15.18	88.36	14.68	-84.7	-88.6	6.0	2.82e-01	0	47	0	0	60	1048574
2026-01-17 08:12:16.19	88.24	14.77	-84.7	-88.6	5.8	2.81e-01	0	47	0	0	60	1048570
2026-01-17 08:12:17.19	88.12	14.86	-84.7	-88.6	5.5	2.78e-01	0	47	0	0	60	1048570
2026-01-17 08:12:18.20	88.00	14.94	-84.3	-88.6	5.8	2.78e-01	0	47	0	0	60	1048572
2026-01-17 08:12:19.21	87.87	15.03	-84.7	-88.6	6.4	2.80e-01	0	47	0	0	60	1048575
2026-01-17 08:12:20.22	87.75	15.12	-84.7	-88.6	6.3	2.79e-01	0	47	0	0	60	1048574
2026-01-17 08:12:21.22	87.63	15.21	-84.7	-88.6	6.1	2.75e-01	0	47	0	0	60	1048563
2026-01-17 08:12:22.22	87.50	15.30	-83.5	-88.6	6.3	2.82e-01	0	47	0	0	60	1048572
2026-01-17 08:12:23.23	87.38	15.38	-84.7	-88.6	5.7	2.81e-01	0	47	0	0	60	1048574
2026-01-17 08:12:24.23	87.25	15.47	-83.9	-88.6	5.8	2.84e-01	0	47	0	0	60	1048575
2026-01-17 08:12:25.24	87.12	15.56	-83.5	-88.6	5.8	2.81e-01	0	47	0	0	60	1048570
2026-01-17 08:12:26.25	86.99	15.65	-84.7	-88.6	6.4	2.79e-01	0	47	0	0	60	1048575
2026-01-17 08:12:27.25	86.86	15.74	-84.7	-88.6	6.1	2.80e-01	0	47	0	0	60	1048575
2026-01-17 08:12:28.26	86.73	15.83	-84.7	-88.6	5.8	2.76e-01	0	47	0	0	60	1048574
2026-01-17 08:12:29.27	86.60	15.92	-83.5	-88.6	6.0	2.80e-01	0	47	0	0	60	1048572
2026-01-17 08:12:30.28	86.47	16.01	-84.7	-88.6	6.0	2.83e-01	0	47	0	0	60	1048574
2026-01-17 08:12:31.28	86.34	16.10	-83.9	-88.6	6.1	2.80e-01	0	47	0	0	60	1048568
2026-01-17 08:12:32.29	86.20	16.19	-83.9	-88.6	5.7	2.83e-01	0	47	0	0	60	1048573
2026-01-17 08:12:33.30	86.07	16.28	-83.5	-88.6	6.0	2.79e-01	0	47	0	0	60	1048575
2026-01-17 08:12:34.31	85.93	16.37	-84.3	-88.6	6.6	2.78e-01	0	47	0	0	60	1048574
2026-01-17 08:12:35.31	85.80	16.46	-83.5	-88.6	6.3	2.82e-01	0	47	0	0	60	1048573
2026-01-17 08:12:36.32	85.66	16.55	-83.5	-88.6	5.8	2.81e-01	0	47	0	0	60	1048572
2026-01-17 08:12:37.33	85.53	16.64	-84.7	-88.6	5.8	2.80e-01	0	47	0	0	60	1048573
2026-01-17 08:12:38.33	85.39	16.73	-84.7	-88.6	6.1	2.82e-01	0	47	0	0	60	1048574
2026-01-17 08:12:39.34	85.25	16.83	-84.7	-88.6	5.8	2.81e-01	0	47	0	0	60	1048575
2026-01-17 08:12:40.35	85.11	16.92	-84.7	-88.6	5.7	2.80e-01	0	46	0	0	60	1048575
2026-01-17 08:12:41.35	84.97	17.01	-84.7	-88.6	5.6	2.78e-01	0	47	0	0	60	1048573
2026-01-17 08:12:42.36	84.83	17.10	-84.7	-88.6	6.4	2.81e-01	0	47	0	0	60	1048575
2026-01-17 08:12:43.37	84.68	17.19	-84.7	-88.6	6.2	2.79e-01	0	47	0	0	60	1048574
2026-01-17 08:12:44.38	84.54	17.29	-84.3	-88.6	5.6	2.78e-01	0	47	0	0	60	1048573
2026-01-17 08:12:45.38	84.40	17.38	-84.7	-88.6	5.9	2.79e-01	0	47	0	0	60	1048573
2026-01-17 08:12:46.39	84.25	17.47	-83.5	-88.6	5.8	2.80e-01	0	47	0	0	60	1048575
2026-01-17 08:12:47.40	84.10	17.56	-84.3	-88.6	6.1	2.81e-01	0	47	0	0	60	1048574
2026-01-17 08:12:48.41	83.96	17.66	-83.5	-88.6	6.1	2.81e-01	0	47	0	0	60	1048575
2026-01-17 08:12:49.42	83.81	17.75	-84.7	-88.6	5.6	2.80e-01	0	47	0	0	60	1048575
2026-01-17 08:12:50.43	83.66	17.84	-83.9	-88.6	6.1	2.76e-01	0	47	0	0	60	1048574
2026-01-17 08:12:51.43	83.51	17.94	-84.7	-88.6	6.1	2.77e-01	0	47	0	0	60	1048573
2026-01-17 08:12:52.44	83.36	18.03	-82.5	-88.6	6.0	2.78e-01	0	47	0	0	60	1048573
2026-01-17 08:12:53.44	83.21	18.12	-84.7	-88.6	6.2	2.78e-01	0	47	0	0	60	1048573
2026-01-17 08:12:54.45	83.05	18.22	-83.5	-88.6	6.5	2.83e-01	0	47	0	0	60	1048571
2026-01-17 08:12:55.45	82.90	18.31	-83.9	-88.6	6.4	2.77e-01	0	47	0	0	60	1048575
2026-01-17 08:12:56.45	82.75	18.40	-84.7	-88.6	5.7	2.78e-01	0	47	0	0	60	1048574
2026-01-17 08:12:57.45	82.59	18.50	-83.5	-88.6	5.8	2.77e-01	0	47	0	0	60	1048572
2026-01-17 08:12:58.46	82.43	18.59	-84.7	-88.6	6.1	2.80e-01	0	47	0	0	60	1048575
2026-01-17 08:12:59.46	82.28	18.68	-83.5	-88.6	6.0	2.84e-01	0	47	0	0	60	1048575
2026-01-17 08:13:00.47	82.12	18.78	-84.7	-88.6	5.9	2.81e-01	0	47	0	0	60	1048572
2026-01-17 08:13:01.47	81.96	18.87	-84.3	-88.6	6.0	2.80e-01	0	47	0	0	60	1048575
2026-01-17 08:13:02.48	81.80	18.97	-84.7	-88.6	6.2	2.80e-01	0	47	0	0	60	1048573
2026-01-17 08:13:03.49	81.64	19.06	-84.7	-88.6	6.1	2.79e-01	0	47	0	0	60	1048575
2026-01-17 08:13:04.49	81.48	19.16	-84.7	-88.6	5.9	2.76e-01	0	47	0	0	60	1048574
2026-01-17 08:13:05.50	81.31	19.25	-83.5	-88.6	6.0	2.77e-01	0	47	0	0	60	1048574
2026-01-17 08:13:06.51	81.15	19.35	-84.3	-88.6	5.7	2.81e-01	0	47	0	0	60	1048574
2026-01-17 08:13:07.52	80.98	19.44	-84.7	-88.6	6.1	2.82e-01	0	47	0	0	60	1048575
2026-01-17 08:13:08.52	80.81	19.54	-84.7	-88.6	5.7	2.77e-01	0	47	0	0	60	1048574
2026-01-17 08:13:09.53	80.64	19.63	-83.9	-88.6	5.6	2.84e-01	0	47	0	0	60	1048570
2026-01-17 08:13:10.53	80.48	19.73	-84.7	-88.6	6.2	2.87e-01	0	47	0	0	60	1048574
2026-01-17 08:13:11.54	80.31	19.83	-84.7	-88.6	6.5	2.77e-01	0	47	0	0	60	1048572
2026-01-17 08:13:12.55	80.13	19.92	-83.5	-88.6	6.0	2.78e-01	0	47	0	0	60	1048569
2026-01-17 08:13:13.56	79.96	20.02	-83.5	-88.6	6.0	2.79e-01	0	47	0	0	60	1048573
2026-01-17 08:13:14.56	79.79	20.11	-84.7	-88.6	5.8	2.82e-01	0	47	0	0	60	1048570
2026-01-17 08:13:15.56	79.62	20.21	-84.7	-88.6	5.7	2.81e-01	0	47	0	0	60	1048574
2026-01-17 08:13:16.57	79.44	20.31	-83.5	-88.6	5.7	2.80e-01	0	47	0	0	60	1048574
2026-01-17 08:13:17.57	79.26	20.40	-84.7	-88.6	6.1	2.79e-01	0	47	0	0	60	1048575
2026-01-17 08:13:18.57	79.09	20.50	-83.5	-88.6	6.1	2.78e-01	0	47	0	0	60	1048571
2026-01-17 08:13:19.58	78.91	20.59	-84.3	-88.6	5.6	2.80e-01	0	47	0	0	60	1048572
2026-01-17 08:13:20.59	78.73	20.69	-84.7	-88.6	6.3	2.82e-01	0	47	0	0	60	1048570
2026-01-17 08:13:21.60	78.55	20.79	-83.5	-88.6	6.2	2.81e-01	0	47	0	0	60	1048572
2026-01-17 08:13:22.60	78.36	20.88	-84.3	-88.6	5.7	2.79e-01	0	47	0	0	60	1048569
2026-01-17 08:13:23.60	78.18	20.98	-83.5	-88.6	6.0	2.79e-01	0	47	0	0	60	1048573
2026-01-17 08:13:24.61	78.00	21.08	-83.9	-88.6	6.4	2.77e-01	0	47	0	0	60	1048569
2026-01-17 08:13:25.62	77.81	21.17	-84.7	-88.6	5.7	2.83e-01	0	47	0	0	60	1048569
2026-01-17 08:13:26.62	77.62	21.27	-84.3	-88.6	5.9	2.81e-01	0	47	0	0	60	1048575
2026-01-17 08:13:27.63	77.44	21.37	-84.3	-88.6	5.9	2.80e-01	0	47	0	0	60	1048572
2026-01-17 08:13:28.63	77.25	21.46	-83.5	-88.6	5.7	2.80e-01	0	47	0	0	60	1048570
2026-01-17 08:13:29.63	77.06	21.56	-84.7	-88.6	6.4	2.80e-01	0	47	0	0	60	1048573
2026-01-17 08:13:30.64	76.87	21.66	-84.3	-88.6	5.6	2.80e-01	0	47	0	0	60	1048568
2026-01-17 08:13:31.65	76.67	21.76	-84.7	-88.6	5.8	2.77e-01	0	47	0	0	60	1048574
2026-01-17 08:13:32.66	76.48	21.85	-84.7	-88.6	6.1	2.76e-01	0	47	0	0	60	1048575
2026-01-17 08:13:33.67	76.28	21.95	-85.2	-88.6	6.4	2.81e-01	0	47	0	0	60	1048557
2026-01-17 08:13:34.67	76.09	22.05	-84.7	-88.6	6.3	2.84e-01	0	47	0	0	60	1048574
2026-01-17 08:13:35.68	75.89	22.14	-84.7	-88.6	6.1	2.83e-01	0	47	0	0	60	1048574
2026-01-17 08:13:36.68	75.69	22.24	-83.5	-88.6	6.1	2.77e-01	0	47	0	0	60	1048575
2026-01-17 08:13:37.69	75.49	22.34	-84.7	-88.6	6.4	2.81e-01	0	47	0	0	60	1048572
2026-01-17 08:13:38.69	75.29	22.43	-83.9	-88.6	6.1	2.79e-01	0	47	0	0	60	1048574
2026-01-17 08:13:39.70	75.08	22.53	-84.7	-88.6	6.3	2.79e-01	0	47	0	0	60	1048568
2026-01-17 08:13:40.70	74.88	22.63	-83.9	-88.6	5.7	2.79e-01	0	47	0	0	60	1048573
2026-01-17 08:13:41.71	74.67	22.73	-84.7	-88.6	5.7	2.79e-01	0	47	0	0	60	1048575
2026-01-17 08:13:42.72	74.47	22.82	-84.7	-88.6	5.6	2.76e-01	0	47	0	0	60	1048574
2026-01-17 08:13:43.73	74.26	22.92	-84.7	-88.6	6.0	2.75e-01	0	47	0	0	60	1048573
2026-01-17 08:13:44.73	74.05	23.02	-84.7	-88.6	5.6	2.78e-01	0	47	0	0	60	1048574
2026-01-17 08:13:45.74	73.84	23.11	-83.5	-88.6	6.1	2.79e-01	0	47	0	0	60	1048572
2026-01-17 08:13:46.75	73.62	23.21	-84.3	-88.6	5.9	2.79e-01	0	47	0	0	60	1048574
2026-01-17 08:13:47.75	73.41	23.31	-83.9	-88.6	6.0	2.80e-01	0	47	0	0	60	1048574
2026-01-17 08:13:48.75	73.20	23.40	-83.9	-88.6	5.9	2.78e-01	0	47	0	0	60	1048575
2026-01-17 08:13:49.76	72.98	23.50	-84.3	-88.6	6.2	2.78e-01	0	47	0	0	60	1048572
2026-01-17 08:13:50.77	72.76	23.60	-83.5	-88.6	6.4	2.77e-01	0	47	0	0	60	1048575
2026-01-17 08:13:51.76	72.55	23.69	-84.7	-88.6	6.2	2.81e-01	0	47	0	0	60	1048569
2026-01-17 08:13:52.77	72.33	23.79	-84.7	-88.6	5.6	2.81e-01	0	47	0	0	60	1048571
2026-01-17 08:13:53.78	72.10	23.88	-83.9	-88.6	5.9	2.77e-01	0	47	0	0	60	1048574
2026-01-17 08:13:54.79	71.88	23.98	-84.3	-88.6	5.9	2.80e-01	0	47	0	0	60	1048575
2026-01-17 08:13:55.80	71.66	24.08	-83.5	-88.6	6.0	2.75e-01	0	47	0	0	60	1048574
2026-01-17 08:13:56.80	71.43	24.17	-83.9	-88.6	5.8	2.77e-01	0	47	0	0	60	1048571
2026-01-17 08:13:57.81	71.20	24.27	-84.7	-88.6	6.2	2.78e-01	0	47	0	0	60	1048569
2026-01-17 08:13:58.81	70.98	24.36	-84.7	-88.6	6.3	2.74e-01	0	47	0	0	60	1048575
2026-01-17 08:13:59.82	70.75	24.46	-84.3	-88.6	6.0	2.76e-01	0	47	0	0	60	1048570
2026-01-17 08:14:00.82	70.52	24.55	-84.7	-88.6	5.9	2.81e-01	0	47	0	0	60	1048569
2026-01-17 08:14:01.83	70.28	24.65	-83.9	-88.6	6.3	2.80e-01	0	47	0	0	60	1048567
2026-01-17 08:14:02.83	70.05	24.74	-84.7	-88.6	6.1	2.77e-01	0	47	0	0	60	1048571
2026-01-17 08:14:03.84	69.81	24.84	-84.7	-88.6	5.8	2.82e-01	0	47	0	0	60	1048571
2026-01-17 08:14:04.85	69.58	24.93	-84.3	-88.6	6.1	2.82e-01	0	47	0	0	60	1048574
2026-01-17 08:14:05.86	69.34	25.03	-84.7	-88.6	6.5	2.78e-01	0	47	0	0	60	1048573
2026-01-17 08:14:06.87	69.09	25.12	-84.7	-88.6	5.8	2.79e-01	0	47	0	0	60	1048573
2026-01-17 08:14:07.87	68.86	25.21	-84.3	-88.6	5.8	2.80e-01	0	47	0	0	60	1048567
2026-01-17 08:14:08.87	68.61	25.31	-83.5	-88.6	5.9	2.78e-01	0	47	0	0	60	1048575
2026-01-17 08:14:09.88	68.37	25.40	-83.9	-88.6	6.1	2.80e-01	0	47	0	0	60	1048570
2026-01-17 08:14:10.89	68.12	25.49	-84.7	-88.6	6.1	2.77e-01	0	47	0	0	60	1048575
2026-01-17 08:14:11.90	67.87	25.59	-83.5	-88.6	5.7	2.77e-01	0	47	0	0	60	1048566
2026-01-17 08:14:12.91	67.62	25.68	-84.3	-88.6	6.0	2.78e-01	0	47	0	0	60	1048571
2026-01-17 08:14:13.92	67.37	25.77	-84.7	-88.6	6.1	2.79e-01	0	47	0	0	60	1048574
2026-01-17 08:14:14.92	67.12	25.86	-83.9	-88.6	5.6	2.81e-01	0	47	0	0	60	1048573
2026-01-17 08:14:15.93	66.87	25.96	-85.2	-88.6	6.3	2.78e-01	0	47	0	0	60	1048571
2026-01-17 08:14:16.94	66.61	26.05	-84.7	-88.6	6.4	2.78e-01	0	47	0	0	60	1048575
2026-01-17 08:14:17.95	66.36	26.14	-83.9	-88.6	5.9	2.80e-01	0	47	0	0	60	1048575
2026-01-17 08:14:18.95	66.10	26.23	-84.3	-88.6	5.9	2.79e-01	0	47	0	0	60	1048567
2026-01-17 08:14:19.96	65.84	26.32	-84.7	-88.6	5.7	2.80e-01	0	47	0	0	60	1048571
2026-01-17 08:14:20.96	65.58	26.41	-84.3	-88.6	6.5	2.82e-01	0	47	0	0	60	1048571
2026-01-17 08:14:21.97	65.32	26.50	-84.7	-88.6	6.0	2.73e-01	0	47	0	0	60	1048571
2026-01-17 08:14:22.98	65.06	26.59	-84.7	-88.6	6.4	2.79e-01	0	47	0	0	60	1048567
2026-01-17 08:14:23.99	64.79	26.68	-84.7	-88.6	5.9	2.76e-01	0	47	0	0	60	1048575
2026-01-17 08:14:24.99	64.52	26.77	-85.2	-88.6	5.4	2.81e-01	0	47	0	0	60	1048575
2026-01-17 08:14:26.00	64.26	26.85	-83.9	-88.6	5.5	2.83e-01	0	47	0	0	60	1048570
2026-01-17 08:14:27.01	63.99	26.94	-84.7	-88.6	6.0	2.81e-01	0	47	0	0	60	1048574
2026-01-17 08:14:28.02	63.71	27.03	-84.7	-88.6	6.5	2.77e-01	0	47	0	0	60	1048575
2026-01-17 08:14:29.03	63.44	27.12	-84.3	-88.6	5.7	2.82e-01	0	47	0	0	60	1048571
2026-01-17 08:14:30.03	63.17	27.20	-84.7	-88.6	6.2	2.84e-01	0	47	0	0	60	1048573
2026-01-17 08:14:31.04	62.89	27.29	-84.7	-88.6	5.8	2.81e-01	0	47	0	0	60	1048574
2026-01-17 08:14:32.05	62.61	27.38	-84.3	-88.6	5.6	2.79e-01	0	47	0	0	60	1048573
2026-01-17 08:14:33.06	62.33	27.46	-84.7	-88.6	6.2	2.81e-01	0	47	0	0	60	1048572
2026-01-17 08:14:34.06	62.06	27.54	-84.7	-88.6	6.2	2.80e-01	0	47	0	0	60	1048573
2026-01-17 08:14:35.07	61.77	27.63	-84.7	-88.6	6.1	2.79e-01	0	47	0	0	60	1048568
2026-01-17 08:14:36.08	61.49	27.71	-84.7	-88.6	5.4	2.79e-01	0	47	0	0	60	1048571
2026-01-17 08:14:37.08	61.21	27.80	-84.7	-88.6	5.9	2.79e-01	0	47	0	0	60	1048574
2026-01-17 08:14:38.09	60.92	27.88	-85.2	-88.6	6.3	2.75e-01	0	47	0	0	60	1048574
2026-01-17 08:14:39.09	60.63	27.96	-84.7	-88.6	6.1	2.83e-01	0	47	0	0	60	1048575
2026-01-17 08:14:40.10	60.34	28.04	-84.7	-88.6	6.0	2.81e-01	0	47	0	0	60	1048570
2026-01-17 08:14:41.10	60.06	28.12	-83.9	-88.6	5.4	2.76e-01	0	47	0	0	60	1048573
2026-01-17 08:14:42.11	59.76	28.20	-83.9	-88.6	6.2	2.79e-01	0	47	0	0	60	1048561
2026-01-17 08:14:43.12	59.47	28.28	-84.7	-88.6	6.1	2.79e-01	0	47	0	0	60	1048575
2026-01-17 08:14:44.13	59.17	28.36	-84.7	-88.6	5.8	2.80e-01	0	47	0	0	60	1048569
2026-01-17 08:14:45.13	58.88	28.44	-84.3	-88.6	6.0	2.78e-01	0	47	0	0	60	1048573
2026-01-17 08:14:46.14	58.58	28.52	-84.3	-88.6	5.9	2.76e-01	0	47	0	0	60	1048573
2026-01-17 08:14:47.14	58.28	28.59	-84.7	-88.6	5.8	2.83e-01	0	47	0	0	60	1048575
2026-01-17 08:14:48.15	57.98	28.67	-84.7	-88.6	5.6	2.87e-01	0	47	0	0	60	1048570
2026-01-17 08:14:49.15	57.68	28.74	-85.2	-88.6	6.1	2.81e-01	0	47	0	0	60	1048575
2026-01-17 08:14:50.15	57.38	28.82	-84.7	-88.6	6.3	2.75e-01	0	47	0	0	60	1048575
2026-01-17 08:14:51.16	57.07	28.89	-84.7	-88.6	6.1	2.80e-01	0	47	0	0	60	1048575
2026-01-17 08:14:52.17	56.77	28.97	-84.7	-88.6	5.8	2.79e-01	0	47	0	0	60	1048575
2026-01-17 08:14:53.17	56.46	29.04	-84.7	-88.6	6.4	2.76e-01	0	47	0	0	60	1048575
2026-01-17 08:14:54.18	56.15	29.11	-84.7	-88.6	6.2	2.78e-01	0	47	0	0	60	1048573
2026-01-17 08:14:55.18	55.84	29.18	-85.2	-88.6	6.0	2.80e-01	0	47	0	0	60	1048575
2026-01-17 08:14:56.19	55.53	29.25	-84.7	-88.6	6.1	2.77e-01	0	47	0	0	60	1048575
2026-01-17 08:14:57.20	55.22	29.32	-84.7	-88.6	6.2	2.83e-01	0	47	0	0	60	1048569
2026-01-17 08:14:58.21	54.90	29.39	-85.2	-88.6	6.0	2.79e-01	0	47	0	0	60	1048574
2026-01-17 08:14:59.21	54.59	29.46	-84.7	-88.6	5.8	2.80e-01	0	47	0	0	60	1048568
2026-01-17 08:15:00.22	54.27	29.53	-84.7	-88.6	5.9	2.75e-01	0	47	0	0	60	1048575
2026-01-17 08:15:01.22	53.95	29.59	-84.7	-88.6	5.9	2.76e-01	0	47	0	0	60	1048575
2026-01-17 08:15:02.23	53.63	29.66	-84.7	-88.6	6.4	2.80e-01	0	47	0	0	60	1048567
2026-01-17 08:15:03.24	53.31	29.72	-83.9	-88.6	5.6	2.79e-01	0	47	0	0	60	1048575
2026-01-17 08:15:04.25	52.99	29.79	-84.7	-88.6	5.7	2.76e-01	0	47	0	0	60	1048570
2026-01-17 08:15:05.26	52.66	29.85	-84.7	-88.6	6.0	2.80e-01	0	47	0	0	60	1048571
2026-01-17 08:15:06.27	52.33	29.91	-84.3	-88.6	6.3	2.74e-01	0	47	0	0	60	1048574
2026-01-17 08:15:07.27	52.01	29.97	-84.7	-88.6	5.6	2.76e-01	0	47	0	0	60	1048575
2026-01-17 08:15:08.27	51.69	30.03	-84.7	-88.6	5.6	2.78e-01	0	47	0	0	60	1048575
2026-01-17 08:15:09.28	51.36	30.09	-84.7	-88.6	6.3	2.77e-01	0	47	0	0	60	1048569
2026-01-17 08:15:10.28	51.03	30.15	-85.2	-88.6	6.1	2.81e-01	0	47	0	0	60	1048574
2026-01-17 08:15:11.29	50.70	30.21	-84.7	-88.6	5.9	2.80e-01	0	47	0	0	60	1048575
2026-01-17 08:15:12.29	50.37	30.27	-84.7	-88.6	5.7	2.79e-01	0	47	0	0	60	1048570
2026-01-17 08:15:13.30	50.03	30.32	-84.7	-88.6	5.9	2.77e-01	0	47	0	0	60	1048571
2026-01-17 08:15:14.31	49.70	30.38	-84.7	-88.6	6.0	2.81e-01	0	47	0	0	60	1048574
2026-01-17 08:15:15.32	49.36	30.43	-84.7	-88.6	6.0	2.76e-01	0	47	0	0	60	1048574
2026-01-17 08:15:16.33	49.02	30.48	-84.7	-88.6	5.5	2.78e-01	0	47	0	0	60	1048575
2026-01-17 08:15:17.33	48.68	30.53	-84.3	-88.6	6.1	2.78e-01	0	47	0	0	60	1048575
2026-01-17 08:15:18.34	48.34	30.58	-85.2	-88.6	6.3	2.76e-01	0	47	0	0	60	1048573
2026-01-17 08:15:19.35	48.00	30.63	-85.2	-88.6	6.0	2.78e-01	0	47	0	0	60	1048575
2026-01-17 08:15:20.35	47.66	30.68	-84.7	-88.6	5.8	2.82e-01	0	47	0	0	60	1048571
2026-01-17 08:15:21.36	47.32	30.73	-84.7	-88.6	5.9	2.77e-01	0	47	0	0	60	1048559
2026-01-17 08:15:22.37	46.98	30.78	-84.7	-88.6	6.6	2.74e-01	0	47	0	0	60	1048572
2026-01-17 08:15:23.38	46.63	30.82	-84.7	-88.6	5.8	2.78e-01	0	47	0	0	60	1048575
2026-01-17 08:15:24.39	46.29	30.86	-84.7	-88.6	5.5	2.79e-01	0	47	0	0	60	1048575
2026-01-17 08:15:25.39	45.94	30.91	-84.7	-88.6	5.6	2.81e-01	0	47	0	0	60	1048567
2026-01-17 08:15:26.39	45.60	30.95	-84.7	-88.6	6.0	2.75e-01	0	47	0	0	60	1048575
2026-01-17 08:15:27.40	45.25	30.99	-85.2	-88.6	6.7	2.79e-01	0	47	0	0	60	1048565
2026-01-17 08:15:28.41	44.90	31.03	-84.7	-88.6	5.7	2.78e-01	0	47	0	0	60	1048569
2026-01-17 08:15:29.41	44.55	31.07	-85.2	-88.6	6.0	2.73e-01	0	47	0	0	60	1048574
2026-01-17 08:15:30.42	44.20	31.10	-84.7	-88.6	6.3	2.79e-01	0	47	0	0	60	1048574
2026-01-17 08:15:31.43	43.85	31.14	-84.7	-88.6	5.8	2.75e-01	0	47	0	0	60	1048574
2026-01-17 08:15:32.43	43.50	31.18	-84.7	-88.6	6.1	2.79e-01	0	47	0	0	60	1048566
2026-01-17 08:15:33.44	43.15	31.21	-84.7	-88.6	6.5	2.84e-01	0	47	0	0	60	1048574
2026-01-17 08:15:34.45	42.79	31.24	-84.7	-88.6	6.5	2.84e-01	0	47	0	0	60	1048575
2026-01-17 08:15:35.46	42.44	31.27	-84.7	-88.6	6.2	2.81e-01	0	47	0	0	60	1048575
2026-01-17 08:15:36.46	42.08	31.30	-84.7	-88.6	6.0	2.80e-01	0	47	0	0	60	1048573
2026-01-17 08:15:37.47	41.73	31.33	-85.2	-88.6	6.4	2.75e-01	0	47	0	0	60	1048570
2026-01-17 08:15:38.47	41.37	31.36	-85.2	-88.6	6.1	2.79e-01	0	47	0	0	60	1048567
2026-01-17 08:15:39.48	41.02	31.39	-84.7	-88.6	6.4	2.80e-01	0	47	0	0	60	1048574
2026-01-17 08:15:40.49	40.66	31.41	-84.7	-88.6	5.8	2.77e-01	0	47	0	0	60	1048575
2026-01-17 08:15:41.49	40.30	31.44	-84.7	-88.6	6.0	2.80e-01	0	47	0	0	60	1048574
2026-01-17 08:15:42.50	39.94	31.46	-84.7	-88.6	6.3	2.82e-01	0	47	0	0	60	1048574
2026-01-17 08:15:43.51	39.58	31.48	-84.7	-88.6	6.0	2.77e-01	0	47	0	0	60	1048575
2026-01-17 08:15:44.52	39.22	31.50	-84.7	-88.6	5.5	2.77e-01	0	47	0	0	60	1048573
2026-01-17 08:15:45.53	38.86	31.52	-84.7	-88.6	5.9	2.78e-01	0	47	0	0	60	1048575
2026-01-17 08:15:46.53	38.51	31.54	-85.2	-88.6	6.1	2.79e-01	0	47	0	0	60	1048575
2026-01-17 08:15:47.54	38.14	31.55	-84.7	-88.6	5.4	2.80e-01	0	47	0	0	60	1048572
2026-01-17 08:15:48.54	37.79	31.57	-84.7	-88.6	6.2	2.81e-01	0	47	0	0	60	1048574
2026-01-17 08:15:49.55	37.42	31.58	-84.7	-88.6	6.1	2.75e-01	0	47	0	0	60	1048571
2026-01-17 08:15:50.56	37.06	31.59	-85.2	-88.6	6.0	2.78e-01	0	47	0	0	60	1048572
2026-01-17 08:15:51.57	36.70	31.61	-84.7	-88.6	6.0	2.76e-01	0	47	0	0	60	1048571
2026-01-17 08:15:52.57	36.34	31.62	-85.2	-88.6	3.3	7.31e-01	0	47	104	0	60	1048570
2026-01-17 08:15:53.58	35.98	31.62	-85.2	-88.6	3.6	7.63e-01	0	47	104	0	60	1048575
2026-01-17 08:15:54.59	35.61	31.63	-85.2	-88.6	3.1	7.62e-01	0	47	104	0	60	1048571
2026-01-17 08:15:55.60	35.25	31.64	-85.2	-88.6	2.9	7.64e-01	0	47	104	0	60	1048574
2026-01-17 08:15:56.61	34.89	31.64	-84.7	-88.6	3.5	7.63e-01	0	47	104	0	60	1048575
2026-01-17 08:15:57.61	34.53	31.65	-85.2	-88.6	2.9	7.64e-01	0	47	104	0	60	1048575
2026-01-17 08:15:58.61	34.17	31.65	-85.2	-88.6	3.0	7.62e-01	0	47	104	0	60	1048571
2026-01-17 08:15:59.61	33.81	31.65	-85.2	-88.6	2.9	7.63e-01	0	47	104	0	60	1048575
2026-01-17 08:16:00.62	33.44	31.65	-84.7	-88.6	3.1	7.63e-01	0	47	104	0	60	1048574
2026-01-17 08:16:01.63	33.08	31.65	-85.2	-88.6	3.6	7.62e-01	0	47	104	0	60	1048573
2026-01-17 08:16:02.63	32.72	31.64	-85.2	-88.6	2.8	7.63e-01	0	47	104	0	60	1048574
2026-01-17 08:16:03.63	32.36	31.64	-85.2	-88.6	3.2	7.63e-01	0	47	104	0	60	1048575
2026-01-17 08:16:04.64	31.99	31.63	-85.2	-88.6	3.1	7.64e-01	0	47	104	0	60	1048575
2026-01-17 08:16:05.64	31.63	31.63	-85.2	-88.6	2.9	7.64e-01	0	47	104	0	60	1048567
2026-01-17 08:16:06.65	31.27	31.62	-85.2	-88.6	3.4	7.64e-01	0	47	104	0	60	1048575
2026-01-17 08:16:07.66	30.91	31.61	-85.2	-88.6	3.5	7.63e-01	0	47	104	0	60	1048567
2026-01-17 08:16:08.67	30.55	31.60	-84.7	-88.6	2.6	7.64e-01	0	47	104	0	60	1048573
2026-01-17 08:16:09.67	30.19	31.59	-85.2	-88.6	3.4	7.62e-01	0	47	104	0	60	1048573
2026-01-17 08:16:10.68	29.82	31.57	-85.2	-88.6	3.3	7.64e-01	0	47	104	0	60	1048574
2026-01-17 08:16:11.69	29.46	31.56	-85.2	-88.6	3.3	7.64e-01	0	47	104	0	60	1048575
2026-01-17 08:16:12.70	29.10	31.54	-85.2	-88.6	3.4	7.64e-01	0	47	104	0	60	1048574
2026-01-17 08:16:13.71	28.74	31.53	-84.7	-88.6	2.7	7.63e-01	0	47	104	0	60	1048574
2026-01-17 08:16:14.71	28.38	31.51	-85.2	-88.6	3.0	7.61e-01	0	47	104	0	60	1048574
2026-01-17 08:16:15.72	28.02	31.49	-85.2	-88.6	2.9	7.61e-01	0	47	104	0	60	1048570
2026-01-17 08:16:16.72	27.67	31.47	-85.2	-88.6	2.7	7.62e-01	0	47	104	0	60	1048574
2026-01-17 08:16:17.73	27.31	31.45	-84.7	-88.6	2.9	7.61e-01	0	47	104	0	60	1048574
2026-01-17 08:16:18.73	26.95	31.42	-85.2	-88.6	3.1	7.63e-01	0	47	104	0	60	1048572
2026-01-17 08:16:19.74	26.59	31.40	-85.2	-88.6	3.1	7.64e-01	0	47	104	0	60	1048565
2026-01-17 08:16:20.75	26.24	31.37	-85.2	-88.6	3.1	7.64e-01	0	47	104	0	60	1048571
2026-01-17 08:16:21.76	25.88	31.34	-84.7	-88.6	3.3	7.60e-01	0	47	104	0	60	1048571
2026-01-17 08:16:22.77	25.52	31.32	-85.2	-88.6	2.7	7.63e-01	0	47	104	0	60	1048575
2026-01-17 08:16:23.77	25.17	31.29	-84.7	-88.6	3.2	7.63e-01	0	47	104	0	60	1048575
2026-01-17 08:16:24.78	24.81	31.26	-85.2	-88.6	3.1	7.62e-01	0	47	104	0	60	1048575
2026-01-17 08:16:25.79	24.46	31.22	-85.2	-88.6	3.2	7.63e-01	0	47	104	0	60	1048575
2026-01-17 08:16:26.79	24.11	31.19	-85.2	-88.6	3.2	7.64e-01	0	47	104	0	60	1048566
2026-01-17 08:16:27.80	23.76	31.16	-84.7	-88.6	3.0	7.64e-01	0	47	104	0	60	1048575
2026-01-17 08:16:28.81	23.40	31.12	-85.2	-88.6	3.0	7.63e-01	0	47	104	0	60	1048571
2026-01-17 08:16:29.81	23.06	31.08	-85.2	-88.6	2.9	7.65e-01	0	47	104	0	60	1048573
2026-01-17 08:16:30.82	22.71	31.05	-85.2	-88.6	3.2	7.63e-01	0	47	104	0	60	1048575
2026-01-17 08:16:31.83	22.36	31.01	-84.7	-88.6	3.1	7.63e-01	0	47	104	0	60	1048571
2026-01-17 08:16:32.83	22.01	30.97	-84.7	-88.6	3.0	7.62e-01	0	47	104	0	60	1048573
2026-01-17 08:16:33.84	21.66	30.93	-85.2	-88.6	3.2	7.62e-01	0	47	104	0	60	1048575
2026-01-17 08:16:34.85	21.31	30.88	-85.2	-88.6	2.9	7.64e-01	0	47	104	0	60	1048573
2026-01-17 08:16:35.85	20.97	30.84	-85.2	-88.6	3.0	7.63e-01	0	47	104	0	60	1048575
2026-01-17 08:16:36.85	20.63	30.80	-85.2	-88.6	3.2	7.63e-01	0	47	104	0	60	1048571
2026-01-17 08:16:37.86	20.29	30.75	-85.2	-88.6	3.4	7.64e-01	0	47	104	0	60	1048574
2026-01-17 08:16:38.87	19.94	30.70	-85.2	-88.6	3.6	7.62e-01	0	47	104	0	60	1048574
2026-01-17 08:16:39.88	19.60	30.66	-85.2	-88.6	3.1	7.63e-01	0	47	104	0	60	1048575
2026-01-17 08:16:40.88	19.26	30.61	-84.7	-88.6	3.1	7.65e-01	0	47	104	0	60	1048571
2026-01-17 08:16:41.89	18.92	30.56	-85.2	-88.6	3.1	7.63e-01	0	47	104	0	60	1048574
2026-01-17 08:16:42.90	18.58	30.51	-85.2	-88.6	3.4	7.63e-01	0	47	104	0	60	1048574
2026-01-17 08:16:43.90	18.25	30.45	-85.2	-88.6	3.0	7.64e-01	0	47	104	0	60	1048574
2026-01-17 08:16:44.91	17.91	30.40	-85.2	-88.6	2.9	7.63e-01	0	47	104	0	60	1048572
2026-01-17 08:16:45.91	17.58	30.35	-84.7	-88.6	3.5	7.64e-01	0	47	104	0	60	1048575
2026-01-17 08:16:46.92	17.24	30.29	-84.7	-88.6	2.8	7.62e-01	0	47	104	0	60	1048575
2026-01-17 08:16:47.92	16.91	30.24	-85.2	-88.6	2.8	7.64e-01	0	47	104	0	60	1048573
2026-01-17 08:16:48.93	16.58	30.18	-85.2	-88.6	3.4	7.64e-01	0	47	104	0	60	1048574
2026-01-17 08:16:49.93	16.25	30.12	-85.2	-88.6	2.9	7.64e-01	0	47	104	0	60	1048575
2026-01-17 08:16:50.94	15.92	30.06	-84.7	-88.6	2.9	7.63e-01	0	47	104	0	60	1048574
2026-01-17 08:16:51.95	15.59	30.00	-85.2	-88.6	3.3	7.63e-01	0	47	104	0	60	1048575
2026-01-17 08:16:52.96	15.27	29.94	-85.2	-88.6	3.4	7.65e-01	0	47	104	0	60	1048571
2026-01-17 08:16:53.96	14.94	29.88	-85.2	-88.6	2.8	7.63e-01	0	47	104	0	60	1048575
2026-01-17 08:16:54.97	14.62	29.82	-84.7	-88.6	3.0	7.63e-01	0	47	104	0	60	1048570
2026-01-17 08:16:55.97	14.30	29.76	-85.2	-88.6	3.1	7.64e-01	0	47	104	0	60	1048573
2026-01-17 08:16:56.98	13.98	29.69	-85.2	-88.6	2.9	7.63e-01	0	47	104	0	60	1048573
2026-01-17 08:16:57.99	13.65	29.63	-85.2	-88.6	3.0	7.64e-01	0	47	104	0	60	1048570
2026-01-17 08:16:59.00	13.33	29.56	-85.2	-88.6	3.2	7.63e-01	0	47	104	0	60	1048573
2026-01-17 08:17:00.01	13.02	29.49	-84.7	-88.6	3.4	7.63e-01	0	47	104	0	60	1048575
2026-01-17 08:17:01.01	12.70	29.43	-85.2	-88.6	3.6	7.64e-01	0	47	104	0	60	1048575
2026-01-17 08:17:02.01	12.39	29.36	-85.2	-88.6	2.9	7.63e-01	0	47	104	0	60	1048573
2026-01-17 08:17:03.02	12.07	29.29	-85.2	-88.6	3.2	7.64e-01	0	47	104	0	60	1048574
2026-01-17 08:17:04.03	11.76	29.22	-85.2	-88.6	3.5	7.62e-01	0	47	104	0	60	1048575
2026-01-17 08:17:05.03	11.45	29.15	-84.7	-88.6	3.1	7.64e-01	0	47	104	0	60	1048575
2026-01-17 08:17:06.04	11.14	29.08	-85.2	-88.6	3.7	7.61e-01	0	47	104	0	60	1048571
2026-01-17 08:17:07.05	10.83	29.00	-83.5	-88.6	3.0	7.63e-01	0	47	104	0	60	1048575
2026-01-17 08:17:08.05	10.53	28.93	-85.2	-88.6	3.0	7.64e-01	0	47	104	0	60	1048574
2026-01-17 08:17:09.05	10.23	28.86	-85.2	-88.6	3.1	7.64e-01	0	47	104	0	60	1048572
2026-01-17 08:17:10.06	9.92	28.78	-85.2	-88.6	3.4	7.62e-01	0	47	104	0	60	1048575
2026-01-17 08:17:11.07	9.62	28.71	-85.2	-88.6	3.0	7.64e-01	0	47	104	0	60	1048574
2026-01-17 08:17:12.07	9.32	28.63	-85.2	-88.6	2.9	7.63e-01	0	47	104	0	60	1048573
2026-01-17 08:17:13.08	9.02	28.55	-85.2	-88.6	3.6	7.62e-01	0	47	104	0	60	1048575
2026-01-17 08:17:14.09	8.72	28.48	-85.2	-88.6	3.4	7.63e-01	0	47	104	0	60	1048571
2026-01-17 08:17:15.09	8.43	28.40	-85.2	-88.6	3.1	7.65e-01	0	47	104	0	60	1048573
2026-01-17 08:17:16.10	8.13	28.32	-85.2	-88.6	3.0	7.61e-01	0	47	104	0	60	1048573
2026-01-17 08:17:17.11	7.84	28.24	-85.2	-88.6	3.0	7.62e-01	0	47	104	0	60	1048570
2026-01-17 08:17:18.11	7.55	28.16	-85.2	-88.6	3.3	7.64e-01	0	47	104	0	60	1048575
2026-01-17 08:17:19.12	7.25	28.08	-84.7	-88.6	2.9	7.63e-01	0	47	104	0	60	1048572
2026-01-17 08:17:20.12	6.97	28.00	-84.7	-88.6	2.8	7.64e-01	0	47	104	0	60	1048573
2026-01-17 08:17:21.13	6.68	27.92	-85.2	-88.6	3.0	7.61e-01	0	47	104	0	60	1048573
2026-01-17 08:17:22.14	6.39	27.84	-85.2	-88.6	3.1	7.64e-01	0	47	104	0	60	1048573
2026-01-17 08:17:23.14	6.11	27.76	-85.2	-88.6	3.5	7.63e-01	0	47	104	0	60	1048574
2026-01-17 08:17:24.15	5.82	27.67	-85.2	-88.6	3.7	7.64e-01	0	47	104	0	60	1048575
2026-01-17 08:17:25.16	5.54	27.59	-85.2	-88.6	3.1	7.63e-01	0	47	104	0	60	1048574
2026-01-17 08:17:26.16	5.26	27.50	-85.2	-88.6	3.0	7.64e-01	0	47	104	0	60	1048575
2026-01-17 08:17:27.16	4.99	27.42	-83.9	-88.6	3.4	7.63e-01	0	47	104	0	60	1048574
2026-01-17 08:17:28.17	4.71	27.33	-84.7	-88.6	3.7	7.63e-01	0	47	104	0	60	1048572
2026-01-17 08:17:29.17	4.43	27.25	-84.7	-88.6	3.0	7.64e-01	0	47	104	0	60	1048574
2026-01-17 08:17:30.17	4.16	27.16	-85.2	-88.6	3.0	7.62e-01	0	47	104	0	60	1048575
2026-01-17 08:17:31.18	3.89	27.08	-85.2	-88.6	3.7	7.64e-01	0	47	104	0	60	1048568
2026-01-17 08:17:32.19	3.62	26.99	-85.2	-88.6	3.7	7.62e-01	0	47	104	0	60	1048574
2026-01-17 08:17:33.20	3.35	26.90	-84.7	-88.6	3.0	7.63e-01	0	47	104	0	60	1048575
2026-01-17 08:17:34.20	3.08	26.82	-85.2	-88.6	2.9	7.63e-01	0	47	104	0	60	1048572
2026-01-17 08:17:35.21	2.81	26.73	-85.2	-88.6	2.8	7.63e-01	0	47	104	0	60	1048575
2026-01-17 08:17:36.22	2.55	26.64	-85.2	-88.6	3.7	7.61e-01	0	47	104	0	60	1048575
2026-01-17 08:17:37.23	2.28	26.55	-85.2	-88.6	3.1	7.62e-01	0	47	104	0	60	1048573
2026-01-17 08:17:38.23	2.02	26.46	-84.7	-88.6	3.4	7.64e-01	0	47	104	0	60	1048573
2026-01-17 08:17:39.24	1.76	26.37	-85.2	-88.6	3.1	7.63e-01	0	47	104	0	60	1048575
2026-01-17 08:17:40.25	1.50	26.28	-85.2	-88.6	3.1	7.64e-01	0	47	104	0	60	1048573
2026-01-17 08:17:41.26	1.24	26.19	-85.2	-88.6	2.8	7.63e-01	0	47	104	0	60	1048575
2026-01-17 08:17:42.26	0.99	26.10	-85.2	-88.6	2.8	7.63e-01	0	47	104	0	60	1048575
2026-01-17 08:17:43.27	0.73	26.01	-84.7	-88.6	3.2	7.63e-01	0	47	104	0	60	1048574
2026-01-17 08:17:44.28	0.48	25.92	-85.2	-88.6	3.0	7.62e-01	0	47	104	0	60	1048570
2026-01-17 08:17:45.28	0.23	25.82	-85.2	-88.6	2.8	7.63e-01	0	47	104	0	60	1048571
2026-01-17 08:17:46.28	359.98	25.73	-85.2	-88.6	2.9	7.60e-01	0	47	104	0	60	1048574
2026-01-17 08:17:47.29	359.73	25.64	-84.7	-88.6	3.0	7.62e-01	0	47	104	0	60	1048575
2026-01-17 08:17:48.30	359.48	25.55	-85.2	-88.6	3.2	7.64e-01	0	47	104	0	60	1048573
2026-01-17 08:17:49.31	359.23	25.46	-85.2	-88.6	3.0	7.64e-01	0	47	104	0	60	1048573
2026-01-17 08:17:50.31	358.99	25.36	-85.2	-88.6	2.9	7.63e-01	0	47	104	0	60	1048575
2026-01-17 08:17:51.32	358.74	25.27	-85.2	-88.6	2.9	7.64e-01	0	47	104	0	60	1048575
2026-01-17 08:17:52.33	358.50	25.18	-85.2	-88.6	3.7	7.64e-01	0	47	104	0	60	1048571
2026-01-17 08:17:53.34	358.26	25.08	-84.7	-88.6	3.1	7.64e-01	0	47	104	0	60	1048574
2026-01-17 08:17:54.34	358.02	24.99	-85.2	-88.6	3.0	7.63e-01	0	47	104	0	60	1048569
2026-01-17 08:17:55.35	357.79	24.89	-85.2	-88.6	3.5	7.63e-01	0	47	104	0	60	1048572
2026-01-17 08:17:56.36	357.55	24.80	-85.2	-88.6	2.7	7.63e-01	0	47	104	0	60	1048572
2026-01-17 08:17:57.36	357.32	24.70	-84.3	-88.6	2.8	7.63e-01	0	47	104	0	60	1048575
2026-01-17 08:17:58.37	357.08	24.61	-85.2	-88.6	3.6	7.65e-01	0	47	104	0	60	1048573
2026-01-17 08:17:59.37	356.85	24.52	-85.2	-88.6	2.8	7.64e-01	0	47	104	0	60	1048574
2026-01-17 08:18:00.38	356.62	24.42	-85.2	-88.6	3.4	7.63e-01	0	47	104	0	60	1048575
2026-01-17 08:18:01.38	356.39	24.33	-85.2	-88.6	3.0	7.63e-01	0	47	104	0	60	1048571
2026-01-17 08:18:02.39	356.17	24.23	-85.2	-88.6	3.6	7.63e-01	0	47	104	0	60	1048573
2026-01-17 08:18:03.40	355.94	24.13	-85.2	-88.6	3.4	7.62e-01	0	47	104	0	60	1048575
2026-01-17 08:18:04.41	355.71	24.04	-85.2	-88.6	2.9	7.63e-01	0	47	104	0	60	1048575
2026-01-17 08:18:05.41	355.49	23.94	-85.2	-88.6	3.0	7.64e-01	0	47	104	0	60	1048572
2026-01-17 08:18:06.42	355.27	23.85	-85.2	-88.6	3.0	7.64e-01	0	47	104	0	60	1048571
2026-01-17 08:18:07.43	355.05	23.75	-84.7	-88.6	3.3	7.63e-01	0	47	104	0	60	1048575
2026-01-17 08:18:08.43	354.83	23.65	-85.2	-88.6	3.7	7.63e-01	0	47	104	0	60	1048567
2026-01-17 08:18:09.44	354.61	23.56	-85.2	-88.6	2.9	7.63e-01	0	47	104	0	60	1048570
2026-01-17 08:18:10.45	354.39	23.46	-85.2	-88.6	2.7	7.63e-01	0	47	104	0	60	1048574
2026-01-17 08:18:11.45	354.18	23.37	-84.7	-88.6	3.0	7.60e-01	0	47	104	0	60	1048574
2026-01-17 08:18:12.45	353.97	23.27	-85.2	-88.6	3.7	7.63e-01	0	47	104	0	60	1048575
2026-01-17 08:18:13.46	353.76	23.17	-84.7	-88.6	3.4	7.63e-01	0	47	104	0	60	1048575
2026-01-17 08:18:14.47	353.54	23.08	-85.2	-88.6	2.8	7.65e-01	0	47	104	0	60	1048570
2026-01-17 08:18:15.47	353.34	22.98	-85.2	-88.6	2.9	7.64e-01	0	47	104	0	60	1048562
2026-01-17 08:18:16.47	353.13	22.88	-84.7	-88.6	3.4	7.63e-01	0	47	104	0	60	1048570
2026-01-17 08:18:17.47	352.92	22.79	-85.2	-88.6	3.3	7.63e-01	0	47	104	0	60	1048573
2026-01-17 08:18:18.48	352.72	22.69	-85.2	-88.6	2.9	7.64e-01	0	47	104	0	60	1048575
2026-01-17 08:18:19.48	352.51	22.59	-85.2	-88.6	3.0	7.63e-01	0	47	104	0	60	1048575
2026-01-17 08:18:20.49	352.31	22.50	-85.2	-88.6	3.5	7.63e-01	0	47	104	0	60	1048575
2026-01-17 08:18:21.50	352.11	22.40	-84.7	-88.6	3.2	7.64e-01	0	47	104	0	60	1048570
2026-01-17 08:18:22.51	351.91	22.30	-85.2	-88.6	3.5	7.63e-01	0	47	104	0	60	1048570
2026-01-17 08:18:23.51	351.71	22.21	-85.2	-88.6	3.6	7.62e-01	0	47	104	0	60	1048573
2026-01-17 08:18:24.52	351.51	22.11	-85.2	-88.6	3.3	7.62e-01	0	47	104	0	60	1048574
2026-01-17 08:18:25.53	351.31	22.01	-84.7	-88.6	2.7	7.63e-01	0	47	104	0	60	1048575
2026-01-17 08:18:26.54	351.11	21.92	-84.7	-88.6	3.3	7.61e-01	0	47	104	0	60	1048575
2026-01-17 08:18:27.54	350.92	21.82	-85.2	-88.6	2.8	7.64e-01	0	47	104	0	60	1048573
2026-01-17 08:18:28.55	350.73	21.72	-85.2	-88.6	3.0	7.60e-01	0	47	104	0	60	1048574
2026-01-17 08:18:29.56	350.54	21.62	-85.2	-88.6	3.0	7.62e-01	0	47	104	0	60	1048574
2026-01-17 08:18:30.56	350.35	21.53	-84.7	-88.6	3.4	7.63e-01	0	47	104	0	60	1048565
2026-01-17 08:18:31.57	350.16	21.43	-85.2	-88.6	3.1	7.63e-01	0	47	104	0	60	1048575
2026-01-17 08:18:32.58	349.97	21.33	-83.1	-88.6	3.4	7.63e-01	0	47	104	0	60	1048575
2026-01-17 08:18:33.58	349.78	21.24	-85.2	-88.6	3.2	7.63e-01	0	47	104	0	60	1048574
2026-01-17 08:18:34.59	349.59	21.14	-85.2	-88.6	3.6	7.62e-01	0	47	104	0	60	1048572
2026-01-17 08:18:35.60	349.41	21.04	-84.7	-88.6	2.9	7.64e-01	0	47	104	0	60	1048575
2026-01-17 08:18:36.61	349.22	20.95	-85.2	-88.6	3.0	7.64e-01	0	47	104	0	60	1048573
2026-01-17 08:18:37.62	349.04	20.85	-85.2	-88.6	3.1	7.64e-01	0	47	104	0	60	1048575
2026-01-17 08:18:38.62	348.86	20.75	-85.2	-88.6	3.0	7.63e-01	0	47	104	0	60	1048575
2026-01-17 08:18:39.63	348.68	20.66	-85.2	-88.6	3.1	7.63e-01	0	47	104	0	60	1048573
2026-01-17 08:18:40.64	348.50	20.56	-85.2	-88.6	2.7	7.63e-01	0	47	104	0	60	1048574
2026-01-17 08:18:41.65	348.32	20.47	-85.2	-88.6	3.0	7.63e-01	0	47	104	0	60	1048573
2026-01-17 08:18:42.66	348.15	20.37	-85.2	-88.6	2.9	7.64e-01	0	47	104	0	60	1048570
2026-01-17 08:18:43.67	347.97	20.27	-85.2	-88.6	3.2	7.63e-01	0	47	104	0	60	1048575
2026-01-17 08:18:44.67	347.80	20.18	-85.2	-88.6	3.1	7.63e-01	0	47	104	0	60	1048569
2026-01-17 08:18:45.68	347.62	20.08	-84.7	-88.6	2.7	7.65e-01	0	47	104	0	60	1048575
2026-01-17 08:18:46.68	347.45	19.99	-85.2	-88.6	3.2	7.63e-01	0	47	104	0	60	1048575
2026-01-17 08:18:47.69	347.28	19.89	-85.2	-88.6	3.0	7.64e-01	0	47	104	0	60	1048567
2026-01-17 08:18:48.69	347.11	19.79	-85.2	-88.6	3.1	7.64e-01	0	47	104	0	60	1048574
2026-01-17 08:18:49.70	346.94	19.70	-85.2	-88.6	3.0	7.62e-01	0	47	104	0	60	1048573
2026-01-17 08:18:50.71	346.77	19.60	-85.2	-88.6	2.8	7.64e-01	0	47	104	0	60	1048572
2026-01-17 08:18:51.71	346.61	19.51	-83.5	-88.6	3.4	7.62e-01	0	47	104	0	60	1048572
2026-01-17 08:18:52.71	346.44	19.41	-85.2	-88.6	2.9	7.64e-01	0	47	104	0	60	1048575
2026-01-17 08:18:53.72	346.28	19.32	-85.2	-88.6	3.3	7.62e-01	0	47	104	0	60	1048574
2026-01-17 08:18:54.73	346.11	19.22	-84.7	-88.6	3.7	7.64e-01	0	47	104	0	60	1048571
2026-01-17 08:18:55.73	345.95	19.13	-84.7	-88.6	3.2	7.64e-01	0	47	104	0	60	1048575
2026-01-17 08:18:56.74	345.79	19.03	-85.2	-88.6	3.4	7.64e-01	0	47	104	0	60	1048574
2026-01-17 08:18:57.75	345.63	18.94	-85.2	-88.6	3.6	7.63e-01	0	47	104	0	60	1048575
2026-01-17 08:18:58.75	345.47	18.84	-84.7	-88.6	3.1	7.63e-01	0	47	104	0	60	1048574
2026-01-17 08:18:59.76	345.31	18.75	-84.7	-88.6	3.1	7.63e-01	0	47	104	0	60	1048575
2026-01-17 08:19:00.77	345.15	18.66	-84.7	-88.6	3.3	7.62e-01	0	47	104	0	60	1048575
2026-01-17 08:19:01.78	344.99	18.56	-85.2	-88.6	3.4	7.63e-01	0	47	104	0	60	1048569
2026-01-17 08:19:02.78	344.84	18.47	-85.2	-88.6	3.4	7.63e-01	0	47	104	0	60	1048574
2026-01-17 08:19:03.78	344.69	18.37	-84.7	-88.6	3.2	7.64e-01	0	47	104	0	60	1048575
2026-01-17 08:19:04.79	344.53	18.28	-85.2	-88.6	3.4	7.63e-01	0	47	104	0	60	1048573
2026-01-17 08:19:05.79	344.38	18.19	-84.7	-88.6	3.2	7.64e-01	0	47	104	0	60	1048570
2026-01-17 08:19:06.79	344.23	18.09	-84.7	-88.6	3.1	7.65e-01	0	47	104	0	60	1048574
2026-01-17 08:19:07.80	344.08	18.00	-82.8	-88.6	3.7	7.63e-01	0	47	104	0	60	1048573
2026-01-17 08:19:08.80	343.93	17.91	-84.7	-88.6	3.2	7.64e-01	0	47	104	0	60	1048575
2026-01-17 08:19:09.80	343.78	17.82	-84.7	-88.6	2.8	7.64e-01	0	47	104	0	60	1048571
2026-01-17 08:19:10.80	343.63	17.72	-85.2	-88.6	3.0	7.64e-01	0	47	104	0	60	1048575
2026-01-17 08:19:11.81	343.49	17.63	-85.2	-88.6	3.5	7.64e-01	0	47	104	0	60	1048575
2026-01-17 08:19:12.81	343.34	17.54	-85.2	-88.6	3.1	7.64e-01	0	47	104	0	60	1048573
2026-01-17 08:19:13.82	343.19	17.45	-85.2	-88.6	3.1	7.63e-01	0	47	104	0	60	1048574
2026-01-17 08:19:14.83	343.05	17.35	-85.2	-88.6	3.0	7.63e-01	0	47	104	0	60	1048574
2026-01-17 08:19:15.84	342.91	17.26	-85.2	-88.6	3.1	7.62e-01	0	47	104	0	60	1048575
2026-01-17 08:19:16.84	342.76	17.17	-84.3	-88.6	2.9	7.62e-01	0	47	104	0	60	1048574
2026-01-17 08:19:17.85	342.62	17.08	-83.1	-88.6	3.2	7.64e-01	0	47	104	0	60	1048575
2026-01-17 08:19:18.85	342.48	16.99	-84.7	-88.6	3.4	7.63e-01	0	47	104	0	60	1048575
2026-01-17 08:19:19.86	342.34	16.90	-85.2	-88.6	2.9	7.63e-01	0	47	104	0	60	1048574
2026-01-17 08:19:20.87	342.20	16.80	-85.2	-88.6	3.0	7.64e-01	0	47	104	0	60	1048574
2026-01-17 08:19:21.87	342.07	16.71	-85.2	-88.6	3.5	7.63e-01	0	47	104	0	60	1048574
2026-01-17 08:19:22.88	341.93	16.62	-84.7	-88.6	3.1	7.63e-01	0	47	104	0	60	1048575
2026-01-17 08:19:23.89	341.79	16.53	-84.7	-88.6	2.9	7.64e-01	0	47	104	0	60	1048571
2026-01-17 08:19:24.90	341.65	16.44	-85.2	-88.6	3.1	7.62e-01	0	47	104	0	60	1048571
2026-01-17 08:19:25.91	341.52	16.35	-85.2	-88.6	3.1	7.64e-01	0	47	104	0	60	1048574
2026-01-17 08:19:26.91	341.39	16.26	-85.2	-88.6	3.2	7.64e-01	0	47	104	0	60	1048575
2026-01-17 08:19:27.92	341.25	16.17	-84.7	-88.6	3.4	7.64e-01	0	47	104	0	60	1048574
2026-01-17 08:19:28.93	341.12	16.08	-84.7	-88.6	3.7	7.64e-01	0	47	104	0	60	1048575
2026-01-17 08:19:29.94	340.99	15.99	-85.2	-88.6	3.1	7.64e-01	0	47	104	0	60	1048575
2026-01-17 08:19:30.94	340.86	15.90	-85.2	-88.6	3.4	7.62e-01	0	47	104	0	60	1048574
2026-01-17 08:19:31.95	340.73	15.81	-85.2	-88.6	3.3	7.64e-01	0	47	104	0	60	1048568
2026-01-17 08:19:32.96	340.60	15.72	-84.7	-88.6	3.6	7.63e-01	0	47	104	0	60	1048574
2026-01-17 08:19:33.96	340.47	15.63	-85.2	-88.6	3.0	7.63e-01	0	47	104	0	60	1048571
2026-01-17 08:19:34.97	340.34	15.54	-85.2	-88.6	3.0	7.63e-01	0	47	104	0	60	1048574
2026-01-17 08:19:35.98	340.21	15.46	-85.2	-88.6	3.2	7.62e-01	0	47	104	0	60	1048574
2026-01-17 08:19:36.98	340.09	15.37	-84.7	-88.6	3.2	7.60e-01	0	47	104	0	60	1048570
2026-01-17 08:19:37.99	339.96	15.28	-85.2	-88.6	3.4	7.63e-01	0	47	104	0	60	1048575
2026-01-17 08:19:39.00	339.84	15.19	-85.2	-88.6	3.4	7.62e-01	0	47	104	0	60	1048574
2026-01-17 08:19:40.01	339.71	15.10	-85.2	-88.6	3.1	7.61e-01	0	47	104	0	60	1048571
2026-01-17 08:19:41.02	339.59	15.01	-85.2	-88.6	3.1	7.63e-01	0	47	104	0	60	1048575
2026-01-17 08:19:42.03	339.47	14.93	-84.7	-88.6	3.2	7.62e-01	0	47	104	0	60	1048575
2026-01-17 08:19:43.03	339.35	14.84	-85.2	-88.6	3.4	7.64e-01	0	47	104	0	60	1048575
2026-01-17 08:19:44.04	339.23	14.75	-84.7	-88.6	3.0	7.63e-01	0	47	104	0	60	1048572
2026-01-17 08:19:45.05	339.11	14.66	-85.2	-88.6	2.8	7.60e-01	0	47	104	0	60	1048570
2026-01-17 08:19:46.05	338.99	14.58	-85.2	-88.6	2.7	7.64e-01	0	47	104	0	60	1048575
2026-01-17 08:19:47.06	338.87	14.49	-84.7	-88.6	2.9	7.63e-01	0	47	104	0	60	1048574
2026-01-17 08:19:48.07	338.75	14.40	-83.5	-88.6	3.2	7.63e-01	0	47	104	0	60	1048571
2026-01-17 08:19:49.08	338.63	14.32	-85.2	-88.6	3.7	7.64e-01	0	47	104	0	60	1048575
2026-01-17 08:19:50.09	338.52	14.23	-85.2	-88.6	3.3	7.62e-01	0	47	104	0	60	1048572
2026-01-17 08:19:51.10	338.40	14.15	-85.2	-88.6	2.9	7.64e-01	0	47	104	0	60	1048568
2026-01-17 08:19:52.10	338.29	14.06	-85.2	-88.6	3.1	7.63e-01	0	47	104	0	60	1048575
2026-01-17 08:19:53.11	338.17	13.97	-85.2	-88.6	3.6	7.63e-01	0	47	104	0	60	1048575
2026-01-17 08:19:54.12	338.06	13.89	-85.2	-88.6	3.3	7.64e-01	0	47	104	0	60	1048571
2026-01-17 08:19:55.12	337.94	13.80	-85.2	-88.6	3.1	7.63e-01	0	47	104	0	60	1048574
2026-01-17 08:19:56.13	337.83	13.72	-84.7	-88.6	3.1	7.63e-01	0	47	104	0	60	1048574
2026-01-17 08:19:57.13	337.72	13.63	-85.2	-88.6	3.1	7.63e-01	0	47	104	0	60	1048568
2026-01-17 08:19:58.14	337.61	13.55	-85.2	-88.6	3.3	7.62e-01	0	47	104	0	60	1048575
2026-01-17 08:19:59.15	337.50	13.46	-85.2	-88.6	3.4	7.62e-01	0	47	104	0	60	1048575
2026-01-17 08:20:00.15	337.39	13.38	-85.2	-88.6	3.1	7.64e-01	0	47	104	0	60	1048575
2026-01-17 08:20:01.16	337.28	13.30	-85.2	-88.6	3.1	7.64e-01	0	47	104	0	60	1048575
2026-01-17 08:20:02.17	337.17	13.21	-85.2	-88.6	3.5	7.64e-01	0	47	104	0	60	1048572
2026-01-17 08:20:03.18	337.06	13.13	-84.3	-88.6	3.4	7.65e-01	0	47	104	0	60	1048575
2026-01-17 08:20:04.19	336.95	13.04	-85.2	-88.6	3.2	7.65e-01	0	47	104	0	60	1048573
2026-01-17 08:20:05.20	336.85	12.96	-85.2	-88.6	2.9	7.63e-01	0	47	104	0	60	1048573
2026-01-17 08:20:06.21	336.74	12.88	-85.2	-88.6	3.2	7.63e-01	0	47	104	0	60	1048575
2026-01-17 08:20:07.21	336.64	12.80	-85.2	-88.6	3.4	7.64e-01	0	47	104	0	60	1048575
2026-01-17 08:20:08.21	336.53	12.71	-85.2	-88.6	3.3	7.64e-01	0	47	104	0	60	1048574
2026-01-17 08:20:09.22	336.43	12.63	-85.2	-88.6	3.1	7.63e-01	0	47	104	0	60	1048569
2026-01-17 08:20:10.23	336.32	12.55	-84.7	-88.6	2.9	7.62e-01	0	47	104	0	60	1048574
2026-01-17 08:20:11.23	336.22	12.47	-85.2	-88.6	3.0	7.63e-01	0	47	104	0	60	1048574
2026-01-17 08:20:12.24	336.12	12.38	-85.2	-88.6	3.3	7.64e-01	0	47	104	0	60	1048575
2026-01-17 08:20:13.25	336.02	12.30	-85.2	-88.6	3.5	7.64e-01	0	47	104	0	60	1048575
2026-01-17 08:20:14.25	335.92	12.22	-85.2	-88.6	3.5	7.62e-01	0	47	104	0	60	1048574
2026-01-17 08:20:15.26	335.82	12.14	-85.2	-88.6	2.8	7.65e-01	0	47	104	0	60	1048573
2026-01-17 08:20:16.27	335.71	12.06	-85.2	-88.6	2.9	7.63e-01	0	47	104	0	60	1048575
2026-01-17 08:20:17.27	335.62	11.98	-85.2	-88.6	3.3	7.63e-01	0	47	104	0	60	1048569
2026-01-17 08:20:18.28	335.52	11.89	-85.2	-88.6	3.4	7.63e-01	0	47	104	0	60	1048571
2026-01-17 08:20:19.28	335.42	11.81	-85.2	-88.6	2.9	7.64e-01	0	47	104	0	60	1048573
2026-01-17 08:20:20.29	335.32	11.73	-84.7	-88.6	3.4	7.63e-01	0	47	104	0	60	1048575
2026-01-17 08:20:21.30	335.22	11.65	-85.2	-88.6	3.1	7.60e-01	0	47	104	0	60	1048568
2026-01-17 08:20:22.31	335.13	11.57	-84.7	-88.6	3.0	7.63e-01	0	47	104	0	60	1048574
2026-01-17 08:20:23.31	335.03	11.49	-85.2	-88.6	3.3	7.63e-01	0	47	104	0	60	1048574
2026-01-17 08:20:24.32	334.93	11.41	-85.2	-88.6	3.5	7.63e-01	0	47	104	0	60	1048573
2026-01-17 08:20:25.32	334.84	11.33	-85.2	-88.6	2.8	7.65e-01	0	47	104	0	60	1048574
2026-01-17 08:20:26.33	334.75	11.25	-85.2	-88.6	3.0	7.63e-01	0	47	104	0	60	1048573
2026-01-17 08:20:27.34	334.65	11.17	-85.2	-88.6	3.3	7.63e-01	0	47	104	0	60	1048574
2026-01-17 08:20:28.34	334.56	11.10	-85.2	-88.6	3.1	7.63e-01	0	47	104	0	60	1048573
2026-01-17 08:20:29.34	334.47	11.02	-84.7	-88.6	3.0	7.63e-01	0	47	104	0	60	1048574
2026-01-17 08:20:30.35	334.37	10.94	-84.7	-88.6	3.7	7.63e-01	0	47	104	0	60	1048570
2026-01-17 08:20:31.35	334.28	10.86	-85.2	-88.6	3.1	7.62e-01	0	47	104	0	60	1048574
2026-01-17 08:20:32.36	334.19	10.78	-85.2	-88.6	3.0	7.63e-01	0	47	104	0	60	1048575
2026-01-17 08:20:33.37	334.10	10.70	-85.2	-88.6	3.4	7.62e-01	0	47	104	0	60	1048575
2026-01-17 08:20:34.38	334.01	10.62	-85.2	-88.6	3.2	7.63e-01	0	47	104	0	60	1048573
2026-01-17 08:20:35.39	333.92	10.55	-85.2	-88.6	3.1	7.64e-01	0	47	104	0	60	1048572
2026-01-17 08:20:36.40	333.83	10.47	-85.2	-88.6	3.2	7.63e-01	0	47	104	0	60	1048571
2026-01-17 08:20:37.40	333.74	10.39	-85.2	-88.6	3.6	7.62e-01	0	47	104	0	60	1048574
2026-01-17 08:20:38.41	333.65	10.31	-85.2	-88.6	2.9	7.64e-01	0	47	104	0	60	1048575
2026-01-17 08:20:39.41	333.56	10.24	-85.2	-88.6	3.0	7.63e-01	0	47	104	0	60	1048574
2026-01-17 08:20:40.41	333.48	10.16	-85.2	-88.6	3.5	7.64e-01	0	47	104	0	60	1048574
2026-01-17 08:20:41.42	333.39	10.08	-85.2	-88.6	2.8	7.63e-01	0	47	104	0	60	1048574
2026-01-17 08:20:42.43	333.30	10.01	-85.2	-88.6	2.7	7.64e-01	0	47	104	0	60	1048575
2026-01-17 08:20:43.44	333.22	9.93	-85.2	-88.6	3.1	7.63e-01	0	47	104	0	60	1048570
2026-01-17 08:20:44.44	333.13	9.85	-85.2	-88.6	3.2	7.60e-01	0	47	104	0	60	1048573
2026-01-17 08:20:45.45	333.05	9.78	-85.2	-88.6	3.2	7.64e-01	0	47	104	0	60	1048574
2026-01-17 08:20:46.46	332.96	9.70	-85.2	-88.6	3.2	7.63e-01	0	47	104	0	60	1048574
2026-01-17 08:20:47.46	332.88	9.63	-85.2	-88.6	3.2	7.63e-01	0	47	104	0	60	1048575
2026-01-17 08:20:48.47	332.79	9.55	-84.7	-88.6	3.6	7.65e-01	0	47	104	0	60	1048573
2026-01-17 08:20:49.47	332.71	9.47	-85.2	-88.6	2.9	7.63e-01	0	47	104	0	60	1048575
2026-01-17 08:20:50.48	332.63	9.40	-85.2	-88.6	3.0	7.63e-01	0	47	104	0	60	1048575
2026-01-17 08:20:51.49	332.54	9.32	-85.2	-88.6	3.4	7.62e-01	0	47	104	0	60	1048573
2026-01-17 08:20:52.49	332.46	9.25	-85.2	-88.6	3.5	7.63e-01	0	47	104	0	60	1048572
2026-01-17 08:20:53.50	332.38	9.17	-84.7	-88.6	3.3	7.64e-01	0	47	104	0	60	1048574
2026-01-17 08:20:54.51	332.30	9.10	-85.2	-88.6	3.7	7.63e-01	0	47	104	0	60	1048575
2026-01-17 08:20:55.52	332.22	9.02	-85.2	-88.6	3.1	7.62e-01	0	47	104	0	60	1048571
2026-01-17 08:20:56.52	332.14	8.95	-85.2	-88.6	2.9	7.64e-01	0	47	104	0	60	1048575
2026-01-17 08:20:57.52	332.06	8.88	-85.2	-88.6	2.9	7.63e-01	0	47	104	0	60	1048574
2026-01-17 08:20:58.53	331.98	8.80	-84.7	-88.6	3.5	7.63e-01	0	47	104	0	60	1048573
2026-01-17 08:20:59.54	331.90	8.73	-85.2	-88.6	3.3	7.62e-01	0	47	104	0	60	1048574
2026-01-17 08:21:00.54	331.82	8.65	-85.2	-88.6	3.3	7.64e-01	0	47	104	0	60	1048574
2026-01-17 08:21:01.55	331.75	8.58	-85.2	-88.6	3.0	7.62e-01	0	47	104	0	60	1048575
2026-01-17 08:21:02.56	331.67	8.51	-85.2	-88.6	2.8	7.62e-01	0	47	104	0	60	1048572
2026-01-17 08:21:03.57	331.59	8.43	-85.2	-88.6	3.1	7.63e-01	0	47	104	0	60	1048575
2026-01-17 08:21:04.57	331.51	8.36	-85.2	-88.6	3.6	7.62e-01	0	47	104	0	60	1048569
2026-01-17 08:21:05.58	331.44	8.29	-85.2	-88.6	3.3	7.64e-01	0	47	104	0	60	1048575
2026-01-17 08:21:06.59	331.36	8.22	-84.7	-88.6	3.0	7.64e-01	0	47	104	0	60	1048573
