passes_logs/2026/01/17/R3.2S-Naryan-Mar/R3.2S-Naryan-Mar__20260117_223333_SUOMI_NPP_rec.log

#Pass ID: 20260117_223333_SUOMI NPP
#Satellite: SUOMI NPP
#Configuration: NPP
#almurnet v.1.7.20240730
#Start time: 2026-01-17 22:33:36

#Version: 2.2.20231116
#Station: R3.2S-Naryan-Mar
#Location: 53.008057 lon 67.646978 lat
#TLE: 1 37849U 11061A   26017.28905266  .00000074  00000+0  55894-4 0  9999
#TLE: 2 37849  98.7814 319.3179 0002408  59.7048 300.4366 14.19525847737038

#Time	Az	El	Level	Level2	SNR	BER	BlckErr	Temp	State	Recorded	gain1	gain2
2026-01-17 22:33:36.37	20.58	0.18	-84.7	-88.6	4.9	1.63e+00	0	46	0	0	60	1048575
2026-01-17 22:33:37.38	20.60	0.24	-85.2	-88.6	2.9	1.55e+00	0	45	104	0	60	1048575
2026-01-17 22:33:38.38	20.62	0.30	-85.2	-88.6	3.1	1.56e+00	0	46	104	0	60	1048575
2026-01-17 22:33:39.39	20.65	0.36	-85.2	-88.6	3.0	1.55e+00	0	46	104	0	60	1048575
2026-01-17 22:33:40.40	20.67	0.42	-85.2	-88.6	3.0	1.55e+00	0	46	104	0	60	1048572
2026-01-17 22:33:41.41	20.70	0.48	-85.2	-88.6	3.0	1.55e+00	0	46	104	0	60	1048574
2026-01-17 22:33:42.41	20.72	0.54	-85.2	-88.6	3.1	1.56e+00	0	46	104	0	60	1048574
2026-01-17 22:33:43.41	20.74	0.60	-85.2	-88.6	3.0	1.56e+00	0	46	104	0	60	1048573
2026-01-17 22:33:44.42	20.77	0.66	-85.2	-88.6	3.3	1.55e+00	0	46	104	0	60	1048575
2026-01-17 22:33:45.43	20.79	0.72	-85.2	-88.6	3.2	1.56e+00	0	46	104	0	60	1048573
2026-01-17 22:33:46.43	20.82	0.78	-85.2	-88.6	2.9	1.56e+00	0	46	104	0	60	1048568
2026-01-17 22:33:47.44	20.84	0.84	-85.2	-88.6	3.1	1.56e+00	0	46	104	0	60	1048573
2026-01-17 22:33:48.45	20.87	0.90	-85.2	-88.6	2.9	1.56e+00	0	46	104	0	60	1048575
2026-01-17 22:33:49.46	20.89	0.96	-85.2	-88.6	3.1	1.56e+00	0	46	104	0	60	1048575
2026-01-17 22:33:50.47	20.92	1.02	-85.2	-88.6	2.9	1.56e+00	0	46	104	0	60	1048575
2026-01-17 22:33:51.48	20.94	1.08	-85.2	-88.6	3.0	1.56e+00	0	46	104	0	60	1048574
2026-01-17 22:33:52.49	20.97	1.15	-85.2	-88.6	3.3	1.56e+00	0	46	104	0	60	1048574
2026-01-17 22:33:53.49	20.99	1.21	-85.2	-88.6	3.0	1.56e+00	0	46	104	0	60	1048574
2026-01-17 22:33:54.50	21.02	1.27	-85.2	-88.6	2.9	1.56e+00	0	46	104	0	60	1048575
2026-01-17 22:33:55.51	21.04	1.33	-85.2	-88.6	2.8	1.56e+00	0	46	104	0	60	1048573
2026-01-17 22:33:56.52	21.07	1.39	-85.2	-88.6	3.0	1.55e+00	0	46	104	0	60	1048575
2026-01-17 22:33:57.52	21.09	1.45	-85.2	-88.6	2.9	1.56e+00	0	46	104	0	60	1048575
2026-01-17 22:33:58.53	21.12	1.52	-85.2	-88.6	3.1	1.55e+00	0	46	104	0	60	1048575
2026-01-17 22:33:59.53	21.15	1.58	-85.2	-88.6	2.9	1.55e+00	0	46	104	0	60	1048572
2026-01-17 22:34:00.54	21.17	1.64	-85.2	-88.6	3.0	1.56e+00	0	46	104	0	60	1048573
2026-01-17 22:34:01.55	21.20	1.70	-85.2	-88.6	3.0	1.56e+00	0	46	104	0	60	1048575
2026-01-17 22:34:02.56	21.22	1.77	-85.2	-88.6	2.8	1.56e+00	0	46	104	0	60	1048575
2026-01-17 22:34:03.57	21.25	1.83	-85.2	-88.6	2.9	1.56e+00	0	46	104	0	60	1048573
2026-01-17 22:34:04.57	21.28	1.89	-85.2	-88.6	3.1	1.56e+00	0	46	104	0	60	1048573
2026-01-17 22:34:05.58	21.30	1.95	-85.2	-88.6	3.1	1.56e+00	0	46	104	0	60	1048575
2026-01-17 22:34:06.58	21.33	2.02	-85.2	-88.6	3.0	1.56e+00	0	46	104	0	60	1048575
2026-01-17 22:34:07.59	21.35	2.08	-85.2	-88.6	3.0	1.55e+00	0	46	104	0	60	1048575
2026-01-17 22:34:08.60	21.38	2.14	-85.2	-88.6	3.0	1.56e+00	0	46	104	0	60	1048575
2026-01-17 22:34:09.61	21.41	2.21	-85.2	-88.6	3.0	1.56e+00	0	46	104	0	60	1048575
2026-01-17 22:34:10.62	21.43	2.27	-85.2	-88.6	3.0	1.56e+00	0	46	104	0	60	1048575
2026-01-17 22:34:11.62	21.46	2.33	-85.2	-88.6	3.1	1.56e+00	0	46	104	0	60	1048575
2026-01-17 22:34:12.63	21.49	2.40	-85.2	-88.6	3.0	1.56e+00	0	46	104	0	60	1048569
2026-01-17 22:34:13.63	21.51	2.46	-85.2	-88.6	3.1	1.55e+00	0	46	104	0	60	1048575
2026-01-17 22:34:14.64	21.54	2.53	-85.2	-88.6	3.0	1.56e+00	0	46	104	0	60	1048574
2026-01-17 22:34:15.64	21.57	2.59	-85.2	-88.6	3.1	1.56e+00	0	46	104	0	60	1048575
2026-01-17 22:34:16.64	21.60	2.65	-85.2	-88.6	3.1	1.55e+00	0	46	104	0	60	1048571
2026-01-17 22:34:17.65	21.62	2.72	-85.2	-88.6	3.0	1.56e+00	0	46	104	0	60	1048575
2026-01-17 22:34:18.66	21.65	2.78	-85.2	-88.6	3.0	1.55e+00	0	46	104	0	60	1048572
2026-01-17 22:34:19.67	21.68	2.85	-85.2	-88.6	3.0	1.56e+00	0	46	104	0	60	1048566
2026-01-17 22:34:20.68	21.71	2.91	-85.2	-88.6	3.1	1.56e+00	0	46	104	0	60	1048575
2026-01-17 22:34:21.68	21.73	2.98	-85.2	-88.6	2.9	1.55e+00	0	46	104	0	60	1048575
2026-01-17 22:34:22.69	21.76	3.04	-85.2	-88.6	3.1	1.55e+00	0	46	104	0	60	1048575
2026-01-17 22:34:23.70	21.79	3.11	-85.2	-88.6	3.0	1.56e+00	0	46	104	0	60	1048575
2026-01-17 22:34:24.71	21.82	3.17	-85.2	-88.6	3.0	1.56e+00	0	46	104	0	60	1048575
2026-01-17 22:34:25.71	21.85	3.24	-85.2	-88.6	3.0	1.55e+00	0	46	104	0	60	1048575
2026-01-17 22:34:26.72	21.87	3.31	-85.2	-88.6	3.1	1.56e+00	0	46	104	0	60	1048571
2026-01-17 22:34:27.73	21.90	3.37	-85.2	-88.6	3.0	1.56e+00	0	46	104	0	60	1048570
2026-01-17 22:34:28.74	21.93	3.44	-82.8	-88.6	3.2	1.56e+00	0	46	104	0	60	1048575
2026-01-17 22:34:29.74	21.96	3.50	-85.2	-88.6	3.0	1.55e+00	0	46	104	0	60	1048574
2026-01-17 22:34:30.75	21.99	3.57	-85.2	-88.6	2.9	1.55e+00	0	46	104	0	60	1048574
2026-01-17 22:34:31.75	22.02	3.64	-85.2	-88.6	3.0	1.55e+00	0	46	104	0	60	1048575
2026-01-17 22:34:32.76	22.05	3.70	-85.2	-88.6	2.8	1.56e+00	0	46	104	0	60	1048574
2026-01-17 22:34:33.77	22.08	3.77	-85.2	-88.6	2.9	1.56e+00	0	46	104	0	60	1048575
2026-01-17 22:34:34.77	22.10	3.84	-85.2	-88.6	3.0	1.55e+00	0	46	104	0	60	1048575
2026-01-17 22:34:35.78	22.13	3.91	-85.2	-88.6	2.8	1.55e+00	0	46	104	0	60	1048574
2026-01-17 22:34:36.79	22.16	3.97	-85.2	-88.6	3.0	1.56e+00	0	46	104	0	60	1048575
2026-01-17 22:34:37.80	22.19	4.04	-85.2	-88.6	3.0	1.55e+00	0	46	104	0	60	1048575
2026-01-17 22:34:38.80	22.22	4.11	-85.2	-88.6	2.8	1.56e+00	0	46	104	0	60	1048575
2026-01-17 22:34:39.81	22.25	4.18	-85.2	-88.6	2.7	1.56e+00	0	46	104	0	60	1048575
2026-01-17 22:34:40.82	22.28	4.25	-85.2	-88.6	3.1	1.56e+00	0	46	104	0	60	1048574
2026-01-17 22:34:41.83	22.31	4.31	-85.2	-88.6	3.1	1.56e+00	0	46	104	0	60	1048575
2026-01-17 22:34:42.84	22.34	4.38	-85.2	-88.6	3.2	1.56e+00	0	47	104	0	60	1048575
2026-01-17 22:34:43.85	22.37	4.45	-85.2	-88.6	3.1	1.56e+00	0	46	104	0	60	1048574
2026-01-17 22:34:44.85	22.40	4.52	-85.2	-88.6	2.9	1.56e+00	0	46	104	0	60	1048575
2026-01-17 22:34:45.86	22.43	4.59	-85.2	-88.6	3.1	1.56e+00	0	46	104	0	60	1048574
2026-01-17 22:34:46.87	22.46	4.66	-85.2	-88.6	3.2	1.56e+00	0	47	104	0	60	1048575
2026-01-17 22:34:47.87	22.49	4.73	-85.2	-88.6	3.1	1.56e+00	0	47	104	0	60	1048573
2026-01-17 22:34:48.88	22.52	4.80	-85.2	-88.6	3.2	1.56e+00	0	46	104	0	60	1048574
2026-01-17 22:34:49.88	22.56	4.87	-85.2	-88.6	3.0	1.55e+00	0	46	104	0	60	1048574
2026-01-17 22:34:50.89	22.59	4.94	-85.2	-88.6	2.9	1.56e+00	0	46	104	0	60	1048575
2026-01-17 22:34:51.90	22.62	5.01	-85.2	-88.6	2.9	1.56e+00	0	46	104	0	60	1048574
2026-01-17 22:34:52.90	22.65	5.08	-85.2	-88.6	2.9	1.56e+00	0	46	104	0	60	1048574
2026-01-17 22:34:53.91	22.68	5.15	-85.2	-88.6	3.0	1.56e+00	0	46	104	0	60	1048574
2026-01-17 22:34:54.92	22.71	5.22	-85.2	-88.6	2.9	1.56e+00	0	46	104	0	60	1048575
2026-01-17 22:34:55.93	22.74	5.29	-85.2	-88.6	3.0	1.56e+00	0	46	104	0	60	1048574
2026-01-17 22:34:56.93	22.78	5.36	-85.2	-88.6	2.9	1.56e+00	0	46	104	0	60	1048575
2026-01-17 22:34:57.94	22.81	5.43	-85.2	-88.6	3.1	1.56e+00	0	46	104	0	60	1048573
2026-01-17 22:34:58.95	22.84	5.50	-85.2	-88.6	3.4	1.56e+00	0	46	104	0	60	1048573
2026-01-17 22:34:59.96	22.87	5.57	-85.2	-88.6	3.0	1.56e+00	0	46	104	0	60	1048575
2026-01-17 22:35:00.97	22.90	5.65	-85.2	-88.6	2.9	1.56e+00	0	46	104	0	60	1048575
2026-01-17 22:35:01.97	22.94	5.72	-84.7	-88.6	3.0	1.56e+00	0	46	104	0	60	1048574
2026-01-17 22:35:02.98	22.97	5.79	-85.2	-88.6	2.7	1.56e+00	0	46	104	0	60	1048575
2026-01-17 22:35:03.99	23.00	5.86	-85.2	-88.6	3.0	1.55e+00	0	46	104	0	60	1048575
2026-01-17 22:35:04.99	23.03	5.93	-85.2	-88.6	3.0	1.55e+00	0	46	104	0	60	1048574
2026-01-17 22:35:06.00	23.07	6.01	-85.2	-88.6	3.1	1.56e+00	0	46	104	0	60	1048575
2026-01-17 22:35:07.01	23.10	6.08	-84.7	-88.6	3.1	1.56e+00	0	46	104	0	60	1048575
2026-01-17 22:35:08.01	23.13	6.15	-85.2	-88.6	3.1	1.56e+00	0	46	104	0	60	1048574
2026-01-17 22:35:09.02	23.17	6.23	-85.2	-88.6	2.8	1.56e+00	0	46	104	0	60	1048575
2026-01-17 22:35:10.03	23.20	6.30	-85.2	-88.6	3.1	1.55e+00	0	47	104	0	60	1048574
2026-01-17 22:35:11.03	23.24	6.37	-85.2	-88.6	2.9	1.56e+00	0	46	104	0	60	1048575
2026-01-17 22:35:12.04	23.27	6.45	-84.7	-88.6	3.2	1.56e+00	0	47	104	0	60	1048575
2026-01-17 22:35:13.05	23.30	6.52	-84.7	-88.6	2.9	1.56e+00	0	47	104	0	60	1048573
2026-01-17 22:35:14.06	23.34	6.60	-85.2	-88.6	3.1	1.56e+00	0	47	104	0	60	1048575
2026-01-17 22:35:15.06	23.37	6.67	-85.2	-88.6	3.0	1.56e+00	0	47	104	0	60	1048574
2026-01-17 22:35:16.07	23.41	6.74	-85.2	-88.6	2.8	1.56e+00	0	47	104	0	60	1048573
2026-01-17 22:35:17.08	23.44	6.82	-85.2	-88.6	2.9	1.56e+00	0	47	104	0	60	1048575
2026-01-17 22:35:18.08	23.48	6.89	-85.2	-88.6	3.1	1.56e+00	0	47	104	0	60	1048575
2026-01-17 22:35:19.09	23.51	6.97	-85.2	-88.6	3.3	1.56e+00	0	46	104	0	60	1048575
2026-01-17 22:35:20.10	23.55	7.05	-85.2	-88.6	3.1	1.56e+00	0	46	104	0	60	1048575
2026-01-17 22:35:21.11	23.58	7.12	-85.2	-88.6	3.1	1.55e+00	0	47	104	0	60	1048575
2026-01-17 22:35:22.12	23.62	7.20	-85.2	-88.6	3.1	1.56e+00	0	47	104	0	60	1048575
2026-01-17 22:35:23.12	23.65	7.27	-85.2	-88.6	2.9	1.55e+00	0	46	104	0	60	1048574
2026-01-17 22:35:24.13	23.69	7.35	-85.2	-88.6	2.9	1.56e+00	0	47	104	0	60	1048574
2026-01-17 22:35:25.14	23.72	7.43	-85.2	-88.6	3.0	1.56e+00	0	46	104	0	60	1048575
2026-01-17 22:35:26.14	23.76	7.50	-85.2	-88.6	3.1	1.56e+00	0	47	104	0	60	1048573
2026-01-17 22:35:27.14	23.80	7.58	-85.2	-88.6	2.8	1.55e+00	0	46	104	0	60	1048574
2026-01-17 22:35:28.15	23.83	7.66	-85.2	-88.6	3.0	1.56e+00	0	47	104	0	60	1048574
2026-01-17 22:35:29.16	23.87	7.74	-84.7	-88.6	3.0	1.56e+00	0	47	104	0	60	1048574
2026-01-17 22:35:30.16	23.91	7.81	-85.2	-88.6	3.1	1.56e+00	0	47	104	0	60	1048571
2026-01-17 22:35:31.17	23.94	7.89	-85.2	-88.6	3.2	1.55e+00	0	47	104	0	60	1048575
2026-01-17 22:35:32.18	23.98	7.97	-85.2	-88.6	3.2	1.56e+00	0	47	104	0	60	1048575
2026-01-17 22:35:33.19	24.02	8.05	-85.2	-88.6	3.0	1.55e+00	0	47	104	0	60	1048575
2026-01-17 22:35:34.19	24.06	8.13	-85.2	-88.6	3.2	1.55e+00	0	47	104	0	60	1048569
2026-01-17 22:35:35.20	24.09	8.21	-85.2	-88.6	3.0	1.56e+00	0	47	104	0	60	1048573
2026-01-17 22:35:36.21	24.13	8.28	-85.2	-88.6	2.8	1.56e+00	0	47	104	0	60	1048575
2026-01-17 22:35:37.21	24.17	8.36	-85.2	-88.6	3.0	1.55e+00	0	47	104	0	60	1048574
2026-01-17 22:35:38.22	24.21	8.44	-85.2	-88.6	3.0	1.56e+00	0	47	104	0	60	1048573
2026-01-17 22:35:39.23	24.25	8.52	-85.2	-88.6	3.0	1.56e+00	0	47	104	0	60	1048572
2026-01-17 22:35:40.24	24.28	8.60	-85.2	-88.6	3.0	1.56e+00	0	47	104	0	60	1048574
2026-01-17 22:35:41.24	24.32	8.68	-85.2	-88.6	3.0	1.56e+00	0	47	104	0	60	1048574
2026-01-17 22:35:42.25	24.36	8.76	-85.2	-88.6	2.9	1.56e+00	0	47	104	0	60	1048575
2026-01-17 22:35:43.25	24.40	8.85	-85.2	-88.6	3.0	1.55e+00	0	47	104	0	60	1048575
2026-01-17 22:35:44.26	24.44	8.93	-85.2	-88.6	3.1	1.56e+00	0	47	104	0	60	1048574
2026-01-17 22:35:45.27	24.48	9.01	-85.2	-88.6	3.1	1.56e+00	0	47	104	0	60	1048575
2026-01-17 22:35:46.27	24.52	9.09	-85.2	-88.6	3.2	1.56e+00	0	47	104	0	60	1048575
2026-01-17 22:35:47.28	24.56	9.17	-85.2	-88.6	3.2	1.56e+00	0	47	104	0	60	1048574
2026-01-17 22:35:48.28	24.60	9.25	-85.2	-88.6	3.1	1.56e+00	0	47	104	0	60	1048574
2026-01-17 22:35:49.29	24.64	9.34	-85.2	-88.6	2.9	1.55e+00	0	47	104	0	60	1048575
2026-01-17 22:35:50.30	24.68	9.42	-85.2	-88.6	3.1	1.56e+00	0	47	104	0	60	1048573
2026-01-17 22:35:51.30	24.72	9.50	-85.2	-88.6	3.1	1.56e+00	0	47	104	0	60	1048572
2026-01-17 22:35:52.31	24.76	9.58	-85.2	-88.6	3.1	1.55e+00	0	47	104	0	60	1048574
2026-01-17 22:35:53.31	24.80	9.67	-85.2	-88.6	2.9	1.56e+00	0	47	104	0	60	1048574
2026-01-17 22:35:54.32	24.84	9.75	-85.2	-88.6	3.2	1.55e+00	0	47	104	0	60	1048572
2026-01-17 22:35:55.33	24.89	9.84	-85.2	-88.6	3.1	1.56e+00	0	47	104	0	60	1048571
2026-01-17 22:35:56.33	24.93	9.92	-85.2	-88.6	3.0	1.56e+00	0	47	104	0	60	1048575
2026-01-17 22:35:57.33	24.97	10.00	-85.2	-88.6	3.0	1.56e+00	0	47	104	0	60	1048575
2026-01-17 22:35:58.34	25.01	10.09	-85.2	-88.6	3.0	1.56e+00	0	47	104	0	60	1048575
2026-01-17 22:35:59.35	25.05	10.17	-85.2	-88.6	3.1	1.55e+00	0	47	104	0	60	1048575
2026-01-17 22:36:00.35	25.10	10.26	-82.8	-88.6	2.8	1.55e+00	0	47	104	0	60	1048572
2026-01-17 22:36:01.36	25.14	10.35	-85.2	-88.6	2.9	1.55e+00	0	47	104	0	60	1048574
2026-01-17 22:36:02.37	25.18	10.43	-85.2	-88.6	3.0	1.56e+00	0	47	104	0	60	1048573
2026-01-17 22:36:03.38	25.23	10.52	-85.2	-88.6	2.9	1.56e+00	0	47	104	0	60	1048575
2026-01-17 22:36:04.38	25.27	10.60	-85.2	-88.6	3.1	1.56e+00	0	47	104	0	60	1048575
2026-01-17 22:36:05.39	25.31	10.69	-85.2	-88.6	3.0	1.55e+00	0	47	104	0	60	1048574
2026-01-17 22:36:06.40	25.36	10.78	-84.3	-88.6	3.0	1.56e+00	0	47	104	0	60	1048571
2026-01-17 22:36:07.41	25.40	10.87	-85.2	-88.6	3.3	1.56e+00	0	47	104	0	60	1048575
2026-01-17 22:36:08.41	25.45	10.95	-85.2	-88.6	3.1	1.56e+00	0	47	104	0	60	1048575
2026-01-17 22:36:09.41	25.49	11.04	-85.2	-88.6	3.0	1.55e+00	0	47	104	0	60	1048573
2026-01-17 22:36:10.42	25.53	11.13	-84.3	-88.6	2.9	1.55e+00	0	47	104	0	60	1048575
2026-01-17 22:36:11.42	25.58	11.22	-85.2	-88.6	2.9	1.55e+00	0	47	104	0	60	1048574
2026-01-17 22:36:12.43	25.63	11.31	-85.2	-88.6	3.0	1.56e+00	0	47	104	0	60	1048575
2026-01-17 22:36:13.44	25.67	11.40	-85.2	-88.6	3.1	1.55e+00	0	47	104	0	60	1048574
2026-01-17 22:36:14.45	25.72	11.49	-85.2	-88.6	3.1	1.56e+00	0	47	104	0	60	1048575
2026-01-17 22:36:15.45	25.76	11.58	-85.2	-88.6	2.7	1.55e+00	0	47	104	0	60	1048575
2026-01-17 22:36:16.45	25.81	11.67	-85.2	-88.6	3.1	1.56e+00	0	47	104	0	60	1048575
2026-01-17 22:36:17.46	25.86	11.76	-85.2	-88.6	3.1	1.56e+00	0	47	104	0	60	1048569
2026-01-17 22:36:18.47	25.90	11.85	-85.2	-88.6	3.0	1.56e+00	0	47	104	0	60	1048573
2026-01-17 22:36:19.48	25.95	11.94	-85.2	-88.6	3.1	1.56e+00	0	47	104	0	60	1048568
2026-01-17 22:36:20.48	26.00	12.03	-85.2	-88.6	2.8	1.55e+00	0	47	104	0	60	1048575
2026-01-17 22:36:21.49	26.05	12.12	-85.2	-88.6	2.8	1.56e+00	0	47	104	0	60	1048574
2026-01-17 22:36:22.50	26.09	12.22	-85.2	-88.6	2.7	1.56e+00	0	47	104	0	60	1048575
2026-01-17 22:36:23.51	26.14	12.31	-85.2	-88.6	2.9	1.56e+00	0	47	104	0	60	1048574
2026-01-17 22:36:24.51	26.19	12.40	-85.2	-88.6	3.0	1.56e+00	0	47	104	0	60	1048575
2026-01-17 22:36:25.52	26.24	12.49	-85.2	-88.6	3.0	1.56e+00	0	47	104	0	60	1048575
2026-01-17 22:36:26.53	26.29	12.59	-85.2	-88.6	2.9	1.56e+00	0	47	104	0	60	1048575
2026-01-17 22:36:27.54	26.34	12.68	-85.2	-88.6	3.0	1.56e+00	0	47	104	0	60	1048574
2026-01-17 22:36:28.55	26.39	12.78	-85.2	-88.6	3.2	1.56e+00	0	47	104	0	60	1048575
2026-01-17 22:36:29.55	26.44	12.87	-85.2	-88.6	3.0	1.56e+00	0	47	104	0	60	1048573
2026-01-17 22:36:30.55	26.49	12.97	-85.2	-88.6	3.1	1.56e+00	0	47	104	0	60	1048575
2026-01-17 22:36:31.56	26.54	13.06	-85.2	-88.6	3.1	1.56e+00	0	47	104	0	60	1048572
2026-01-17 22:36:32.56	26.59	13.16	-85.2	-88.6	3.1	1.56e+00	0	47	104	0	60	1048574
2026-01-17 22:36:33.57	26.64	13.25	-85.2	-88.6	3.0	1.56e+00	0	47	104	0	60	1048572
2026-01-17 22:36:34.58	26.69	13.35	-85.2	-88.6	3.0	1.56e+00	0	47	104	0	60	1048575
2026-01-17 22:36:35.59	26.74	13.45	-85.2	-88.6	3.0	1.56e+00	0	47	104	0	60	1048572
2026-01-17 22:36:36.60	26.80	13.54	-85.2	-88.6	3.0	1.55e+00	0	47	104	0	60	1048574
2026-01-17 22:36:37.60	26.85	13.64	-85.2	-88.6	3.1	1.56e+00	0	47	104	0	60	1048570
2026-01-17 22:36:38.61	26.90	13.74	-85.2	-88.6	3.0	1.56e+00	0	47	104	0	60	1048575
2026-01-17 22:36:39.61	26.95	13.84	-85.2	-88.6	3.1	1.56e+00	0	47	104	0	60	1048573
2026-01-17 22:36:40.62	27.01	13.94	-82.8	-88.6	3.0	1.56e+00	0	47	104	0	60	1048575
2026-01-17 22:36:41.63	27.06	14.03	-85.2	-88.6	3.1	1.55e+00	0	47	104	0	60	1048575
2026-01-17 22:36:42.64	27.12	14.13	-85.2	-88.6	3.0	1.56e+00	0	47	104	0	60	1048574
2026-01-17 22:36:43.64	27.17	14.23	-85.2	-88.6	3.1	1.56e+00	0	47	104	0	60	1048573
2026-01-17 22:36:44.65	27.23	14.33	-85.2	-88.6	3.0	1.55e+00	0	47	104	0	60	1048575
2026-01-17 22:36:45.66	27.28	14.44	-85.2	-88.6	2.9	1.56e+00	0	47	104	0	60	1048574
2026-01-17 22:36:46.66	27.34	14.54	-85.2	-88.6	3.1	1.56e+00	0	47	104	0	60	1048573
2026-01-17 22:36:47.67	27.39	14.64	-85.2	-88.6	3.1	1.56e+00	0	47	104	0	60	1048575
2026-01-17 22:36:48.67	27.45	14.74	-84.7	-88.6	3.2	1.56e+00	0	47	104	0	60	1048575
2026-01-17 22:36:49.67	27.50	14.84	-85.2	-88.6	3.1	1.56e+00	0	47	104	0	60	1048575
2026-01-17 22:36:50.68	27.56	14.94	-85.2	-88.6	3.0	1.56e+00	0	47	104	0	60	1048573
2026-01-17 22:36:51.68	27.62	15.05	-85.2	-88.6	3.1	1.56e+00	0	47	104	0	60	1048575
2026-01-17 22:36:52.69	27.67	15.15	-85.2	-88.6	3.1	1.55e+00	0	47	104	0	60	1048575
2026-01-17 22:36:53.70	27.73	15.25	-85.2	-88.6	2.9	1.56e+00	0	47	104	0	60	1048574
2026-01-17 22:36:54.70	27.79	15.36	-85.2	-88.6	3.1	1.56e+00	0	47	104	0	60	1048575
2026-01-17 22:36:55.71	27.85	15.46	-85.2	-88.6	2.9	1.56e+00	0	47	104	0	60	1048569
2026-01-17 22:36:56.72	27.91	15.57	-85.2	-88.6	2.9	1.55e+00	0	47	104	0	60	1048575
2026-01-17 22:36:57.73	27.97	15.67	-85.2	-88.6	3.3	1.56e+00	0	47	104	0	60	1048575
2026-01-17 22:36:58.73	28.03	15.78	-85.2	-88.6	3.0	1.56e+00	0	47	104	0	60	1048573
2026-01-17 22:36:59.74	28.09	15.89	-85.2	-88.6	2.9	1.56e+00	0	47	104	0	60	1048574
2026-01-17 22:37:00.75	28.15	15.99	-85.2	-88.6	2.9	1.56e+00	0	47	104	0	60	1048575
2026-01-17 22:37:01.75	28.21	16.10	-85.2	-88.6	3.0	1.56e+00	0	47	104	0	60	1048575
2026-01-17 22:37:02.76	28.27	16.21	-85.2	-88.6	3.2	1.56e+00	0	47	104	0	60	1048574
2026-01-17 22:37:03.77	28.33	16.32	-85.2	-88.6	2.9	1.56e+00	0	47	104	0	60	1048575
2026-01-17 22:37:04.77	28.39	16.42	-85.2	-88.6	3.0	1.55e+00	0	47	104	0	60	1048574
2026-01-17 22:37:05.78	28.46	16.53	-85.2	-88.6	3.0	1.56e+00	0	47	104	0	60	1048575
2026-01-17 22:37:06.79	28.52	16.64	-85.2	-88.6	3.1	1.56e+00	0	47	104	0	60	1048574
2026-01-17 22:37:07.79	28.58	16.75	-85.2	-88.6	2.9	1.56e+00	0	47	104	0	60	1048572
2026-01-17 22:37:08.80	28.65	16.86	-85.2	-88.6	3.1	1.55e+00	0	47	104	0	60	1048573
2026-01-17 22:37:09.80	28.71	16.97	-85.2	-88.6	2.7	1.56e+00	0	47	104	0	60	1048575
2026-01-17 22:37:10.81	28.78	17.09	-85.2	-88.6	3.0	1.56e+00	0	47	104	0	60	1048575
2026-01-17 22:37:11.82	28.84	17.20	-84.3	-88.6	3.0	1.56e+00	0	47	104	0	60	1048575
2026-01-17 22:37:12.82	28.91	17.31	-85.2	-88.6	3.2	1.56e+00	0	47	104	0	60	1048569
2026-01-17 22:37:13.84	28.97	17.42	-85.2	-88.6	3.0	1.56e+00	0	47	104	0	60	1048575
2026-01-17 22:37:14.84	29.04	17.54	-85.2	-88.6	2.9	1.56e+00	0	47	104	0	60	1048575
2026-01-17 22:37:15.85	29.11	17.65	-85.2	-88.6	3.2	1.56e+00	0	47	104	0	60	1048575
2026-01-17 22:37:16.86	29.18	17.77	-85.2	-88.6	3.0	1.56e+00	0	47	104	0	60	1048575
2026-01-17 22:37:17.86	29.24	17.88	-85.2	-88.6	2.9	1.56e+00	0	47	104	0	60	1048575
2026-01-17 22:37:18.87	29.31	18.00	-85.2	-88.6	2.8	1.56e+00	0	47	104	0	60	1048575
2026-01-17 22:37:19.88	29.38	18.11	-85.2	-88.6	2.9	1.56e+00	0	47	104	0	60	1048575
2026-01-17 22:37:20.89	29.45	18.23	-85.2	-88.6	3.0	1.56e+00	0	47	104	0	60	1048575
2026-01-17 22:37:21.89	29.52	18.35	-85.2	-88.6	3.2	1.55e+00	0	47	104	0	60	1048573
2026-01-17 22:37:22.90	29.59	18.46	-85.2	-88.6	3.0	1.56e+00	0	47	104	0	60	1048575
2026-01-17 22:37:23.91	29.66	18.58	-85.2	-88.6	3.1	1.56e+00	0	47	104	0	60	1048575
2026-01-17 22:37:24.91	29.73	18.70	-85.2	-88.6	2.8	1.56e+00	0	47	104	0	60	1048573
2026-01-17 22:37:25.92	29.81	18.82	-85.2	-88.6	3.0	1.55e+00	0	47	104	0	60	1048575
2026-01-17 22:37:26.93	29.88	18.94	-85.2	-88.6	3.0	1.56e+00	0	47	104	0	60	1048571
2026-01-17 22:37:27.94	29.95	19.06	-85.2	-88.6	3.1	1.56e+00	0	47	104	0	60	1048575
2026-01-17 22:37:28.95	30.03	19.18	-85.2	-88.6	3.1	1.56e+00	0	47	104	0	60	1048573
2026-01-17 22:37:29.95	30.10	19.30	-85.2	-88.6	3.1	1.55e+00	0	47	104	0	60	1048574
2026-01-17 22:37:30.96	30.18	19.42	-85.2	-88.6	3.2	1.56e+00	0	47	104	0	60	1048575
2026-01-17 22:37:31.97	30.25	19.55	-85.2	-88.6	3.1	1.56e+00	0	47	104	0	60	1048573
2026-01-17 22:37:32.98	30.33	19.67	-85.2	-88.6	3.0	1.56e+00	0	47	104	0	60	1048575
2026-01-17 22:37:33.98	30.40	19.79	-85.2	-88.6	3.1	1.56e+00	0	47	104	0	60	1048574
2026-01-17 22:37:34.98	30.48	19.91	-85.2	-88.6	3.2	1.56e+00	0	47	104	0	60	1048574
2026-01-17 22:37:35.99	30.56	20.04	-85.2	-88.6	2.9	1.56e+00	0	47	104	0	60	1048575
2026-01-17 22:37:37.00	30.64	20.17	-85.2	-88.6	2.9	1.56e+00	0	47	104	0	60	1048575
2026-01-17 22:37:38.00	30.71	20.29	-85.2	-88.6	2.8	1.55e+00	0	47	104	0	60	1048575
2026-01-17 22:37:39.01	30.79	20.42	-85.2	-88.6	2.9	1.56e+00	0	47	104	0	60	1048570
2026-01-17 22:37:40.01	30.87	20.54	-85.2	-88.6	3.1	1.56e+00	0	47	104	0	60	1048575
2026-01-17 22:37:41.02	30.95	20.67	-85.2	-88.6	3.1	1.56e+00	0	47	104	0	60	1048575
2026-01-17 22:37:42.03	31.04	20.80	-85.2	-88.6	3.0	1.56e+00	0	47	104	0	60	1048574
2026-01-17 22:37:43.03	31.12	20.93	-85.2	-88.6	3.1	1.56e+00	0	47	104	0	60	1048573
2026-01-17 22:37:44.04	31.20	21.06	-85.2	-88.6	3.0	1.56e+00	0	47	104	0	60	1048574
2026-01-17 22:37:45.05	31.28	21.19	-85.2	-88.6	3.1	1.55e+00	0	47	104	0	60	1048573
2026-01-17 22:37:46.06	31.37	21.32	-85.2	-88.6	2.9	1.56e+00	0	47	104	0	60	1048575
2026-01-17 22:37:47.07	31.45	21.45	-85.2	-88.6	3.0	1.56e+00	0	47	104	0	60	1048575
2026-01-17 22:37:48.07	31.54	21.58	-85.2	-88.6	2.9	1.56e+00	0	47	104	0	60	1048575
2026-01-17 22:37:49.08	31.62	21.71	-85.2	-88.6	3.0	1.56e+00	0	47	104	0	60	1048571
2026-01-17 22:37:50.09	31.71	21.85	-85.2	-88.6	3.0	1.56e+00	0	47	104	0	60	1048575
2026-01-17 22:37:51.10	31.80	21.98	-85.2	-88.6	3.1	1.56e+00	0	47	104	0	60	1048574
2026-01-17 22:37:52.10	31.89	22.12	-85.2	-88.6	3.0	1.56e+00	0	47	104	0	60	1048571
2026-01-17 22:37:53.11	31.98	22.25	-85.2	-88.6	2.9	1.55e+00	0	47	104	0	60	1048572
2026-01-17 22:37:54.11	32.07	22.39	-85.2	-88.6	3.1	1.56e+00	0	47	104	0	60	1048575
2026-01-17 22:37:55.11	32.16	22.52	-85.2	-88.6	3.1	1.56e+00	0	47	104	0	60	1048574
2026-01-17 22:37:56.12	32.25	22.66	-85.2	-88.6	3.1	1.56e+00	0	47	104	0	60	1048574
2026-01-17 22:37:57.13	32.34	22.80	-85.2	-88.6	3.1	1.55e+00	0	47	104	0	60	1048575
2026-01-17 22:37:58.14	32.43	22.94	-85.2	-88.6	3.0	1.56e+00	0	47	104	0	60	1048574
2026-01-17 22:37:59.14	32.52	23.07	-85.2	-88.6	3.0	1.56e+00	0	47	104	0	60	1048574
2026-01-17 22:38:00.15	32.62	23.21	-85.2	-88.6	3.0	1.56e+00	0	47	104	0	60	1048574
2026-01-17 22:38:01.16	32.71	23.36	-85.2	-88.6	2.8	1.56e+00	0	47	104	0	60	1048575
2026-01-17 22:38:02.17	32.81	23.50	-85.2	-88.6	3.0	1.56e+00	0	47	104	0	60	1048574
2026-01-17 22:38:03.18	32.91	23.64	-85.2	-88.6	3.0	1.55e+00	0	47	104	0	60	1048574
2026-01-17 22:38:04.19	33.01	23.78	-85.2	-88.6	2.9	1.56e+00	0	47	104	0	60	1048575
2026-01-17 22:38:05.19	33.10	23.92	-85.2	-88.6	3.0	1.56e+00	0	47	104	0	60	1048574
2026-01-17 22:38:06.20	33.20	24.07	-85.2	-88.6	3.2	1.56e+00	0	47	104	0	60	1048573
2026-01-17 22:38:07.21	33.30	24.21	-85.2	-88.6	3.1	1.56e+00	0	47	104	0	60	1048575
2026-01-17 22:38:08.21	33.40	24.36	-85.2	-88.6	3.1	1.56e+00	0	47	104	0	60	1048572
2026-01-17 22:38:09.22	33.51	24.51	-85.2	-88.6	3.0	1.56e+00	0	47	104	0	60	1048575
2026-01-17 22:38:10.23	33.61	24.65	-85.2	-88.6	2.9	1.56e+00	0	47	104	0	60	1048573
2026-01-17 22:38:11.23	33.71	24.80	-85.2	-88.6	3.2	1.56e+00	0	47	104	0	60	1048574
2026-01-17 22:38:12.24	33.82	24.95	-85.2	-88.6	3.0	1.55e+00	0	47	104	0	60	1048575
2026-01-17 22:38:13.25	33.92	25.10	-85.2	-88.6	3.0	1.56e+00	0	47	104	0	60	1048574
2026-01-17 22:38:14.26	34.03	25.25	-85.2	-88.6	3.2	1.56e+00	0	47	104	0	60	1048574
2026-01-17 22:38:15.27	34.14	25.40	-85.2	-88.6	2.9	1.55e+00	0	47	104	0	60	1048574
2026-01-17 22:38:16.27	34.25	25.55	-85.2	-88.6	2.9	1.55e+00	0	47	104	0	60	1048575
2026-01-17 22:38:17.28	34.36	25.70	-85.2	-88.6	3.2	1.56e+00	0	47	104	0	60	1048575
2026-01-17 22:38:18.29	34.47	25.86	-85.2	-88.6	3.2	1.56e+00	0	47	104	0	60	1048570
2026-01-17 22:38:19.30	34.58	26.01	-85.2	-88.6	2.9	1.56e+00	0	47	104	0	60	1048571
2026-01-17 22:38:20.31	34.69	26.16	-85.2	-88.6	3.0	1.56e+00	0	47	104	0	60	1048574
2026-01-17 22:38:21.32	34.81	26.32	-85.2	-88.6	3.1	1.56e+00	0	47	104	0	60	1048574
2026-01-17 22:38:22.32	34.92	26.48	-85.2	-88.6	3.1	1.56e+00	0	47	104	0	60	1048574
2026-01-17 22:38:23.32	35.04	26.63	-85.2	-88.6	3.0	1.56e+00	0	47	104	0	60	1048574
2026-01-17 22:38:24.32	35.15	26.79	-85.2	-88.6	2.9	1.55e+00	0	47	104	0	60	1048575
2026-01-17 22:38:25.33	35.27	26.95	-85.2	-88.6	3.0	1.55e+00	0	47	104	0	60	1048567
2026-01-17 22:38:26.33	35.39	27.11	-85.2	-88.6	3.0	1.56e+00	0	47	104	0	60	1048574
2026-01-17 22:38:27.34	35.51	27.27	-85.2	-88.6	2.9	1.56e+00	0	47	104	0	60	1048575
2026-01-17 22:38:28.35	35.63	27.43	-85.2	-88.6	3.0	1.56e+00	0	47	104	0	60	1048575
2026-01-17 22:38:29.35	35.75	27.59	-84.3	-88.6	3.3	1.55e+00	0	47	104	0	60	1048575
2026-01-17 22:38:30.35	35.88	27.75	-85.2	-88.6	3.0	1.55e+00	0	47	104	0	60	1048575
2026-01-17 22:38:31.36	36.00	27.91	-85.2	-88.6	3.0	1.56e+00	0	47	104	0	60	1048573
2026-01-17 22:38:32.37	36.13	28.08	-85.2	-88.6	3.1	1.56e+00	0	47	104	0	60	1048575
2026-01-17 22:38:33.37	36.26	28.24	-85.2	-88.6	3.0	1.55e+00	0	47	104	0	60	1048571
2026-01-17 22:38:34.38	36.39	28.41	-85.2	-88.6	3.3	1.56e+00	0	47	104	0	60	1048570
2026-01-17 22:38:35.39	36.52	28.58	-85.2	-88.6	3.2	1.56e+00	0	47	104	0	60	1048575
2026-01-17 22:38:36.40	36.65	28.74	-85.2	-88.6	3.0	1.56e+00	0	47	104	0	60	1048575
2026-01-17 22:38:37.40	36.78	28.91	-85.2	-88.6	3.1	1.56e+00	0	47	104	0	60	1048575
2026-01-17 22:38:38.41	36.92	29.08	-85.2	-88.6	2.8	1.56e+00	0	47	104	0	60	1048574
2026-01-17 22:38:39.42	37.05	29.25	-85.2	-88.6	3.1	1.56e+00	0	47	104	0	60	1048573
2026-01-17 22:38:40.43	37.19	29.42	-85.2	-88.6	3.0	1.56e+00	0	47	104	0	60	1048575
2026-01-17 22:38:41.44	37.33	29.60	-85.2	-88.6	3.1	1.56e+00	0	47	104	0	60	1048575
2026-01-17 22:38:42.44	37.47	29.77	-85.2	-88.6	2.9	1.56e+00	0	47	104	0	60	1048575
2026-01-17 22:38:43.45	37.61	29.94	-85.2	-88.6	3.1	1.56e+00	0	47	104	0	60	1048575
2026-01-17 22:38:44.46	37.75	30.12	-85.2	-88.6	3.1	1.55e+00	0	47	104	0	60	1048573
2026-01-17 22:38:45.47	37.90	30.29	-85.2	-88.6	3.0	1.56e+00	0	47	104	0	60	1048571
2026-01-17 22:38:46.47	38.04	30.47	-85.2	-88.6	2.7	1.55e+00	0	47	104	0	60	1048575
2026-01-17 22:38:47.48	38.19	30.64	-85.2	-88.6	3.0	1.56e+00	0	47	104	0	60	1048574
2026-01-17 22:38:48.48	38.34	30.82	-85.2	-88.6	2.8	1.56e+00	0	47	104	0	60	1048575
2026-01-17 22:38:49.49	38.49	31.00	-85.2	-88.6	3.0	1.55e+00	0	47	104	0	60	1048572
2026-01-17 22:38:50.50	38.64	31.18	-85.2	-88.6	3.0	1.56e+00	0	47	104	0	60	1048574
2026-01-17 22:38:51.51	38.80	31.36	-85.2	-88.6	3.0	1.56e+00	0	47	104	0	60	1048574
2026-01-17 22:38:52.52	38.95	31.55	-85.2	-88.6	3.0	1.56e+00	0	47	104	0	60	1048571
2026-01-17 22:38:53.53	39.11	31.73	-85.2	-88.6	2.9	1.56e+00	0	47	104	0	60	1048574
2026-01-17 22:38:54.53	39.27	31.91	-85.2	-88.6	3.1	1.56e+00	0	47	104	0	60	1048575
2026-01-17 22:38:55.53	39.43	32.09	-85.2	-88.6	3.1	1.56e+00	0	47	104	0	60	1048574
2026-01-17 22:38:56.54	39.59	32.28	-85.2	-88.6	3.1	1.56e+00	0	47	104	0	60	1048571
2026-01-17 22:38:57.55	39.76	32.47	-85.2	-88.6	2.9	1.55e+00	0	47	104	0	60	1048575
2026-01-17 22:38:58.55	39.92	32.65	-85.2	-88.6	3.1	1.55e+00	0	47	104	0	60	1048575
2026-01-17 22:38:59.56	40.09	32.84	-85.2	-88.6	3.1	1.55e+00	0	47	104	0	60	1048575
2026-01-17 22:39:00.57	40.26	33.03	-85.2	-88.6	3.0	1.56e+00	0	47	104	0	60	1048574
2026-01-17 22:39:01.57	40.43	33.22	-85.2	-88.6	3.0	1.56e+00	0	47	104	0	60	1048575
2026-01-17 22:39:02.57	40.60	33.41	-85.2	-88.6	3.0	1.55e+00	0	47	104	0	60	1048574
2026-01-17 22:39:03.58	40.78	33.60	-85.2	-88.6	3.0	1.56e+00	0	47	104	0	60	1048574
2026-01-17 22:39:04.58	40.96	33.79	-85.2	-88.6	3.0	1.56e+00	0	47	104	0	60	1048572
2026-01-17 22:39:05.59	41.14	33.99	-85.2	-88.6	3.3	1.55e+00	0	47	104	0	60	1048575
2026-01-17 22:39:06.60	41.32	34.18	-85.2	-88.6	3.2	1.56e+00	0	47	104	0	60	1048575
2026-01-17 22:39:07.61	41.51	34.38	-85.2	-88.6	2.8	1.56e+00	0	47	104	0	60	1048575
2026-01-17 22:39:08.61	41.69	34.57	-85.2	-88.6	3.3	1.56e+00	0	47	104	0	60	1048575
2026-01-17 22:39:09.62	41.88	34.77	-85.2	-88.6	3.0	1.56e+00	0	47	104	0	60	1048574
2026-01-17 22:39:10.63	42.07	34.97	-85.2	-88.6	3.2	1.55e+00	0	47	104	0	60	1048575
2026-01-17 22:39:11.63	42.26	35.17	-85.2	-88.6	3.0	1.56e+00	0	47	104	0	60	1048575
2026-01-17 22:39:12.63	42.46	35.37	-84.7	-88.6	3.0	1.56e+00	0	47	104	0	60	1048575
2026-01-17 22:39:13.64	42.66	35.57	-85.2	-88.6	2.8	1.56e+00	0	47	104	0	60	1048575
2026-01-17 22:39:14.65	42.86	35.77	-85.2	-88.6	3.0	1.55e+00	0	47	104	0	60	1048575
2026-01-17 22:39:15.66	43.06	35.97	-85.2	-88.6	3.0	1.56e+00	0	47	104	0	60	1048574
2026-01-17 22:39:16.66	43.26	36.18	-85.2	-88.6	3.0	1.56e+00	0	47	104	0	60	1048570
2026-01-17 22:39:17.67	43.47	36.38	-85.2	-88.6	2.9	1.56e+00	0	47	104	0	60	1048575
2026-01-17 22:39:18.67	43.68	36.58	-85.2	-88.6	3.0	1.56e+00	0	47	104	0	60	1048575
2026-01-17 22:39:19.68	43.89	36.79	-85.2	-88.6	2.8	1.56e+00	0	47	104	0	60	1048575
2026-01-17 22:39:20.69	44.11	37.00	-85.2	-88.6	3.1	1.56e+00	0	47	104	0	60	1048575
2026-01-17 22:39:21.69	44.33	37.21	-85.2	-88.6	3.1	1.56e+00	0	47	104	0	60	1048574
2026-01-17 22:39:22.70	44.55	37.42	-85.2	-88.6	3.1	1.56e+00	0	47	104	0	60	1048574
2026-01-17 22:39:23.71	44.77	37.63	-85.2	-88.6	3.0	1.56e+00	0	47	104	0	60	1048574
2026-01-17 22:39:24.71	45.00	37.84	-85.2	-88.6	3.1	1.56e+00	0	47	104	0	60	1048573
2026-01-17 22:39:25.72	45.23	38.05	-85.2	-88.6	3.0	1.55e+00	0	47	104	0	60	1048575
2026-01-17 22:39:26.73	45.46	38.26	-85.2	-88.6	3.1	1.55e+00	0	47	104	0	60	1048573
2026-01-17 22:39:27.73	45.70	38.47	-85.2	-88.6	3.0	1.56e+00	0	47	104	0	60	1048575
2026-01-17 22:39:28.73	45.93	38.68	-85.2	-88.6	3.0	1.56e+00	0	47	104	0	60	1048574
2026-01-17 22:39:29.74	46.18	38.90	-85.2	-88.6	2.8	1.56e+00	0	47	104	0	60	1048575
2026-01-17 22:39:30.74	46.42	39.11	-85.2	-88.6	3.0	1.55e+00	0	47	104	0	60	1048575
2026-01-17 22:39:31.75	46.67	39.33	-85.2	-88.6	2.9	1.56e+00	0	47	104	0	60	1048575
2026-01-17 22:39:32.76	46.92	39.55	-85.2	-88.6	3.0	1.55e+00	0	47	104	0	60	1048575
2026-01-17 22:39:33.76	47.17	39.77	-85.2	-88.6	3.1	1.56e+00	0	47	104	0	60	1048575
2026-01-17 22:39:34.77	47.43	39.98	-85.2	-88.6	3.0	1.56e+00	0	47	104	0	60	1048575
2026-01-17 22:39:35.78	47.69	40.20	-85.2	-88.6	3.2	1.56e+00	0	47	104	0	60	1048575
2026-01-17 22:39:36.79	47.96	40.43	-84.3	-88.6	2.7	1.56e+00	0	47	104	0	60	1048575
2026-01-17 22:39:37.79	48.23	40.64	-85.2	-88.6	2.9	1.56e+00	0	47	104	0	60	1048574
2026-01-17 22:39:38.80	48.50	40.87	-85.2	-88.6	3.0	1.55e+00	0	47	104	0	60	1048574
2026-01-17 22:39:39.81	48.78	41.09	-85.2	-88.6	2.8	1.56e+00	0	47	104	0	60	1048574
2026-01-17 22:39:40.81	49.05	41.31	-83.1	-88.6	3.1	1.56e+00	0	47	104	0	60	1048575
2026-01-17 22:39:41.82	49.34	41.53	-84.3	-88.6	2.8	1.56e+00	0	47	104	0	60	1048570
2026-01-17 22:39:42.83	49.63	41.76	-85.2	-88.6	3.1	1.55e+00	0	47	104	0	60	1048571
2026-01-17 22:39:43.84	49.92	41.98	-85.2	-88.6	3.2	1.56e+00	0	47	104	0	60	1048575
2026-01-17 22:39:44.85	50.21	42.21	-85.2	-88.6	2.9	1.55e+00	0	47	104	0	60	1048574
2026-01-17 22:39:45.85	50.51	42.43	-85.2	-88.6	3.0	1.55e+00	0	47	104	0	60	1048575
2026-01-17 22:39:46.86	50.82	42.66	-83.5	-88.6	3.0	1.55e+00	0	47	104	0	60	1048575
2026-01-17 22:39:47.87	51.12	42.89	-85.2	-88.6	3.0	1.56e+00	0	47	104	0	60	1048573
2026-01-17 22:39:48.88	51.44	43.12	-85.2	-88.6	2.9	1.56e+00	0	47	104	0	60	1048574
2026-01-17 22:39:49.89	51.76	43.34	-85.2	-88.6	3.0	1.56e+00	0	47	104	0	60	1048565
2026-01-17 22:39:50.89	52.07	43.57	-85.2	-88.6	3.1	1.56e+00	0	47	104	0	60	1048575
2026-01-17 22:39:51.90	52.40	43.80	-84.3	-88.6	3.1	1.56e+00	0	47	104	0	60	1048574
2026-01-17 22:39:52.90	52.73	44.03	-85.2	-88.6	3.2	1.56e+00	0	47	104	0	60	1048575
2026-01-17 22:39:53.91	53.06	44.26	-85.2	-88.6	3.0	1.56e+00	0	47	104	0	60	1048574
2026-01-17 22:39:54.91	53.40	44.48	-85.2	-88.6	3.1	1.56e+00	0	47	104	0	60	1048573
2026-01-17 22:39:55.92	53.75	44.71	-85.2	-88.6	3.1	1.56e+00	0	47	104	0	60	1048575
2026-01-17 22:39:56.93	54.10	44.95	-85.2	-88.6	3.0	1.56e+00	0	47	104	0	60	1048575
2026-01-17 22:39:57.93	54.45	45.17	-85.2	-88.6	3.1	1.56e+00	0	47	104	0	60	1048572
2026-01-17 22:39:58.94	54.81	45.40	-85.2	-88.6	3.0	1.56e+00	0	47	104	0	60	1048575
2026-01-17 22:39:59.95	55.18	45.64	-85.2	-88.6	2.9	1.56e+00	0	47	104	0	60	1048572
2026-01-17 22:40:00.96	55.55	45.87	-85.2	-88.6	3.0	1.56e+00	0	47	104	0	60	1048575
2026-01-17 22:40:01.97	55.92	46.10	-84.3	-88.6	3.2	1.56e+00	0	47	104	0	60	1048575
2026-01-17 22:40:02.97	56.30	46.33	-85.2	-88.6	3.1	1.55e+00	0	47	104	0	60	1048575
2026-01-17 22:40:03.97	56.69	46.55	-85.2	-88.6	2.9	1.56e+00	0	47	104	0	60	1048575
2026-01-17 22:40:04.98	57.08	46.79	-85.2	-88.6	2.9	1.56e+00	0	47	104	0	60	1048575
2026-01-17 22:40:05.99	57.48	47.02	-85.2	-88.6	3.0	1.56e+00	0	47	104	0	60	1048573
2026-01-17 22:40:06.99	57.88	47.24	-84.3	-88.6	2.9	1.56e+00	0	47	104	0	60	1048575
2026-01-17 22:40:08.00	58.29	47.47	-85.2	-88.6	3.1	1.56e+00	0	47	104	0	60	1048575
2026-01-17 22:40:09.01	58.71	47.70	-85.2	-88.6	3.2	1.56e+00	0	47	104	0	60	1048575
2026-01-17 22:40:10.01	59.13	47.93	-85.2	-88.6	3.2	1.56e+00	0	47	104	0	60	1048575
2026-01-17 22:40:11.02	59.55	48.16	-85.2	-88.6	3.0	1.56e+00	0	47	104	0	60	1048574
2026-01-17 22:40:12.03	59.99	48.39	-85.2	-88.6	2.9	1.56e+00	0	47	104	0	60	1048574
2026-01-17 22:40:13.04	60.43	48.62	-85.2	-88.6	2.8	1.55e+00	0	47	104	0	60	1048574
2026-01-17 22:40:14.05	60.88	48.84	-85.2	-88.6	3.1	1.56e+00	0	47	104	0	60	1048574
2026-01-17 22:40:15.05	61.33	49.07	-85.2	-88.6	3.2	1.55e+00	0	47	104	0	60	1048573
2026-01-17 22:40:16.06	61.79	49.29	-85.2	-88.6	3.0	1.55e+00	0	47	104	0	60	1048575
2026-01-17 22:40:17.07	62.26	49.52	-85.2	-88.6	3.1	1.55e+00	0	47	104	0	60	1048574
2026-01-17 22:40:18.08	62.74	49.74	-85.2	-88.6	3.1	1.55e+00	0	47	104	0	60	1048570
2026-01-17 22:40:19.08	63.21	49.96	-85.2	-88.6	3.1	1.56e+00	0	47	104	0	60	1048572
2026-01-17 22:40:20.09	63.70	50.18	-85.2	-88.6	2.9	1.56e+00	0	47	104	0	60	1048574
2026-01-17 22:40:21.10	64.20	50.41	-85.2	-88.6	2.8	1.55e+00	0	47	104	0	60	1048575
2026-01-17 22:40:22.10	64.70	50.62	-85.2	-88.6	3.1	1.55e+00	0	47	104	0	60	1048575
2026-01-17 22:40:23.10	65.20	50.84	-85.2	-88.6	3.0	1.56e+00	0	47	104	0	60	1048575
2026-01-17 22:40:24.11	65.72	51.06	-85.2	-88.6	3.2	1.56e+00	0	47	104	0	60	1048572
2026-01-17 22:40:25.11	66.24	51.27	-85.2	-88.6	3.1	1.56e+00	0	47	104	0	60	1048571
2026-01-17 22:40:26.11	66.77	51.48	-84.3	-88.6	3.1	1.56e+00	0	47	104	0	60	1048575
2026-01-17 22:40:27.11	67.31	51.69	-85.2	-88.6	3.1	1.56e+00	0	47	104	0	60	1048575
2026-01-17 22:40:28.12	67.85	51.90	-85.2	-88.6	3.0	1.56e+00	0	47	104	0	60	1048574
2026-01-17 22:40:29.12	68.40	52.11	-85.2	-88.6	3.2	1.56e+00	0	47	104	0	60	1048575
2026-01-17 22:40:30.13	68.97	52.32	-85.2	-88.6	2.7	1.55e+00	0	47	104	0	60	1048575
2026-01-17 22:40:31.14	69.54	52.52	-85.2	-88.6	3.0	1.56e+00	0	47	104	0	60	1048575
2026-01-17 22:40:32.15	70.12	52.73	-85.2	-88.6	3.0	1.56e+00	0	47	104	0	60	1048574
2026-01-17 22:40:33.16	70.71	52.93	-85.2	-88.6	2.9	1.55e+00	0	47	104	0	60	1048575
2026-01-17 22:40:34.16	71.30	53.12	-85.2	-88.6	3.1	1.56e+00	0	47	104	0	60	1048575
2026-01-17 22:40:35.17	71.90	53.32	-85.2	-88.6	2.9	1.55e+00	0	47	104	0	60	1048575
2026-01-17 22:40:36.18	72.51	53.51	-85.2	-88.6	3.0	1.56e+00	0	47	104	0	60	1048575
2026-01-17 22:40:37.19	73.13	53.71	-85.2	-88.6	3.1	1.55e+00	0	47	104	0	60	1048574
2026-01-17 22:40:38.19	73.75	53.89	-85.2	-88.6	3.1	1.56e+00	0	47	104	0	60	1048575
2026-01-17 22:40:39.20	74.39	54.08	-85.2	-88.6	3.0	1.56e+00	0	47	104	0	60	1048573
2026-01-17 22:40:40.20	75.03	54.26	-85.2	-88.6	3.2	1.56e+00	0	47	104	0	60	1048574
2026-01-17 22:40:41.21	75.68	54.44	-85.2	-88.6	2.9	1.56e+00	0	47	104	0	60	1048575
2026-01-17 22:40:42.21	76.33	54.62	-85.2	-88.6	2.9	1.56e+00	0	47	104	0	60	1048574
2026-01-17 22:40:43.22	77.00	54.79	-85.2	-88.6	3.0	1.56e+00	0	47	104	0	60	1048575
2026-01-17 22:40:44.22	77.67	54.96	-85.2	-88.6	3.1	1.55e+00	0	47	104	0	60	1048573
2026-01-17 22:40:45.23	78.35	55.13	-85.2	-88.6	3.1	1.56e+00	0	47	104	0	60	1048575
2026-01-17 22:40:46.23	79.04	55.29	-85.2	-88.6	3.1	1.56e+00	0	47	104	0	60	1048575
2026-01-17 22:40:47.24	79.74	55.45	-84.7	-88.6	2.8	1.55e+00	0	47	104	0	60	1048575
2026-01-17 22:40:48.24	80.44	55.61	-85.2	-88.6	3.0	1.55e+00	0	47	104	0	60	1048572
2026-01-17 22:40:49.25	81.16	55.76	-85.2	-88.6	2.9	1.55e+00	0	47	104	0	60	1048575
2026-01-17 22:40:50.26	81.88	55.91	-85.2	-88.6	3.1	1.56e+00	0	47	104	0	60	1048575
2026-01-17 22:40:51.27	82.61	56.05	-85.2	-88.6	2.9	1.56e+00	0	47	104	0	60	1048573
2026-01-17 22:40:52.28	83.35	56.19	-85.2	-88.6	2.8	1.56e+00	0	47	104	0	60	1048575
2026-01-17 22:40:53.29	84.10	56.33	-85.2	-88.6	2.9	1.55e+00	0	47	104	0	60	1048575
2026-01-17 22:40:54.29	84.84	56.46	-85.2	-88.6	3.0	1.56e+00	0	47	104	0	60	1048573
2026-01-17 22:40:55.30	85.60	56.59	-85.2	-88.6	3.2	1.56e+00	0	47	104	0	60	1048575
2026-01-17 22:40:56.31	86.37	56.71	-85.2	-88.6	3.0	1.56e+00	0	47	104	0	60	1048575
2026-01-17 22:40:57.32	87.14	56.83	-85.2	-88.6	3.2	1.56e+00	0	47	104	0	60	1048575
2026-01-17 22:40:58.32	87.92	56.94	-85.2	-88.6	3.2	1.55e+00	0	47	104	0	60	1048572
2026-01-17 22:40:59.33	88.70	57.05	-85.2	-88.6	3.1	1.56e+00	0	47	104	0	60	1048572
2026-01-17 22:41:00.33	89.49	57.15	-85.2	-88.6	3.2	1.55e+00	0	47	104	0	60	1048569
2026-01-17 22:41:01.34	90.29	57.25	-85.2	-88.6	2.9	1.56e+00	0	47	104	0	60	1048575
2026-01-17 22:41:02.35	91.09	57.35	-85.2	-88.6	3.0	1.56e+00	0	47	104	0	60	1048574
2026-01-17 22:41:03.36	91.90	57.44	-85.2	-88.6	2.9	1.56e+00	0	47	104	0	60	1048575
2026-01-17 22:41:04.36	92.71	57.52	-85.2	-88.6	3.1	1.55e+00	0	47	104	0	60	1048574
2026-01-17 22:41:05.37	93.53	57.60	-85.2	-88.6	3.0	1.56e+00	0	47	104	0	60	1048575
2026-01-17 22:41:06.38	94.35	57.67	-85.2	-88.6	3.0	1.55e+00	0	47	104	0	60	1048572
2026-01-17 22:41:07.39	95.18	57.74	-85.2	-88.6	2.9	1.56e+00	0	47	104	0	60	1048575
2026-01-17 22:41:08.39	96.01	57.80	-85.2	-88.6	3.2	1.56e+00	0	47	104	0	60	1048575
2026-01-17 22:41:09.40	96.84	57.86	-85.2	-88.6	2.9	1.56e+00	0	47	104	0	60	1048575
2026-01-17 22:41:10.40	97.67	57.91	-85.2	-88.6	3.1	1.56e+00	0	47	104	0	60	1048574
2026-01-17 22:41:11.41	98.52	57.95	-85.2	-88.6	3.1	1.56e+00	0	47	104	0	60	1048574
2026-01-17 22:41:12.41	99.35	57.99	-85.2	-88.6	2.9	1.55e+00	0	47	104	0	60	1048575
2026-01-17 22:41:13.42	100.20	58.02	-85.2	-88.6	3.0	1.56e+00	0	47	104	0	60	1048575
2026-01-17 22:41:14.43	101.05	58.05	-85.2	-88.6	2.9	1.56e+00	0	47	104	0	60	1048574
2026-01-17 22:41:15.44	101.90	58.07	-85.2	-88.6	3.2	1.56e+00	0	47	104	0	60	1048572
2026-01-17 22:41:16.44	102.75	58.09	-85.2	-88.6	3.0	1.56e+00	0	47	104	0	60	1048575
2026-01-17 22:41:17.45	103.60	58.10	-85.2	-88.6	3.1	1.56e+00	0	47	104	0	60	1048575
2026-01-17 22:41:18.45	104.44	58.10	-85.2	-88.6	3.1	1.55e+00	0	47	104	0	60	1048575
2026-01-17 22:41:19.46	105.30	58.10	-85.2	-88.6	3.1	1.55e+00	0	47	104	0	60	1048573
2026-01-17 22:41:20.47	106.15	58.10	-85.2	-88.6	2.8	1.56e+00	0	47	104	0	60	1048575
2026-01-17 22:41:21.48	107.00	58.08	-85.2	-88.6	3.0	1.56e+00	0	47	104	0	60	1048574
2026-01-17 22:41:22.49	107.86	58.06	-85.2	-88.6	3.1	1.55e+00	0	47	104	0	60	1048574
2026-01-17 22:41:23.49	108.70	58.04	-85.2	-88.6	3.0	1.56e+00	0	47	104	0	60	1048573
2026-01-17 22:41:24.50	109.55	58.01	-85.2	-88.6	3.2	1.56e+00	0	47	104	0	60	1048575
2026-01-17 22:41:25.50	110.39	57.97	-85.2	-88.6	3.1	1.56e+00	0	47	104	0	60	1048575
2026-01-17 22:41:26.51	111.23	57.93	-85.2	-88.6	3.1	1.56e+00	0	47	104	0	60	1048574
2026-01-17 22:41:27.51	112.06	57.88	-85.2	-88.6	3.0	1.55e+00	0	47	104	0	60	1048575
2026-01-17 22:41:28.52	112.90	57.83	-85.2	-88.6	2.9	1.56e+00	0	47	104	0	60	1048575
2026-01-17 22:41:29.53	113.74	57.77	-85.2	-88.6	3.2	1.55e+00	0	47	104	0	60	1048574
2026-01-17 22:41:30.53	114.56	57.71	-85.2	-88.6	3.1	1.56e+00	0	47	104	0	60	1048575
2026-01-17 22:41:31.54	115.39	57.64	-85.2	-88.6	3.0	1.56e+00	0	47	104	0	60	1048574
2026-01-17 22:41:32.54	116.20	57.56	-85.2	-88.6	3.0	1.56e+00	0	47	104	0	60	1048573
2026-01-17 22:41:33.54	117.01	57.48	-83.9	-88.6	3.1	1.56e+00	0	47	104	0	60	1048575
2026-01-17 22:41:34.55	117.83	57.40	-85.2	-88.6	2.8	1.56e+00	0	47	104	0	60	1048574
2026-01-17 22:41:35.55	118.63	57.31	-84.3	-88.6	2.9	1.56e+00	0	47	104	0	60	1048575
2026-01-17 22:41:36.56	119.43	57.21	-85.2	-88.6	3.0	1.56e+00	0	47	104	0	60	1048573
2026-01-17 22:41:37.57	120.23	57.11	-85.2	-88.6	2.9	1.55e+00	0	47	104	0	60	1048574
2026-01-17 22:41:38.57	121.01	57.01	-85.2	-88.6	3.0	1.56e+00	0	47	104	0	60	1048575
2026-01-17 22:41:39.58	121.79	56.89	-85.2	-88.6	3.0	1.56e+00	0	47	104	0	60	1048575
2026-01-17 22:41:40.59	122.57	56.78	-85.2	-88.6	2.9	1.56e+00	0	47	104	0	60	1048572
2026-01-17 22:41:41.59	123.34	56.66	-85.2	-88.6	3.1	1.56e+00	0	47	104	0	60	1048575
2026-01-17 22:41:42.60	124.10	56.53	-85.2	-88.6	3.0	1.56e+00	0	47	104	0	60	1048574
2026-01-17 22:41:43.61	124.86	56.40	-85.2	-88.6	3.2	1.56e+00	0	47	104	0	60	1048573
2026-01-17 22:41:44.61	125.60	56.27	-85.2	-88.6	3.0	1.56e+00	0	47	104	0	60	1048575
2026-01-17 22:41:45.62	126.35	56.13	-85.2	-88.6	3.0	1.56e+00	0	47	104	0	60	1048575
2026-01-17 22:41:46.62	127.08	55.99	-84.3	-88.6	2.6	1.56e+00	0	47	104	0	60	1048574
2026-01-17 22:41:47.62	127.80	55.85	-85.2	-88.6	2.9	1.56e+00	0	47	104	0	60	1048575
2026-01-17 22:41:48.63	128.52	55.69	-85.2	-88.6	3.0	1.55e+00	0	47	104	0	60	1048575
2026-01-17 22:41:49.63	129.23	55.54	-85.2	-88.6	2.9	1.56e+00	0	47	104	0	60	1048575
2026-01-17 22:41:50.64	129.93	55.38	-85.2	-88.6	3.1	1.56e+00	0	47	104	0	60	1048574
2026-01-17 22:41:51.64	130.62	55.22	-85.2	-88.6	3.2	1.56e+00	0	47	104	0	60	1048575
2026-01-17 22:41:52.65	131.31	55.06	-85.2	-88.6	3.1	1.56e+00	0	47	104	0	60	1048575
2026-01-17 22:41:53.65	131.99	54.89	-85.2	-88.6	3.2	1.56e+00	0	47	104	0	60	1048573
2026-01-17 22:41:54.66	132.66	54.72	-85.2	-88.6	3.1	1.56e+00	0	47	104	0	60	1048571
2026-01-17 22:41:55.67	133.33	54.54	-85.2	-88.6	3.0	1.56e+00	0	47	104	0	60	1048574
2026-01-17 22:41:56.67	133.98	54.36	-85.2	-88.6	2.8	1.56e+00	0	47	104	0	60	1048575
2026-01-17 22:41:57.68	134.63	54.18	-85.2	-88.6	2.8	1.56e+00	0	47	104	0	60	1048574
2026-01-17 22:41:58.69	135.27	54.00	-85.2	-88.6	3.0	1.56e+00	0	47	104	0	60	1048573
2026-01-17 22:41:59.70	135.90	53.81	-85.2	-88.6	2.9	1.56e+00	0	47	104	0	60	1048573
2026-01-17 22:42:00.70	136.52	53.62	-85.2	-88.6	2.9	1.56e+00	0	47	104	0	60	1048575
2026-01-17 22:42:01.71	137.14	53.43	-85.2	-88.6	3.1	1.56e+00	0	47	104	0	60	1048574
2026-01-17 22:42:02.72	137.75	53.23	-85.2	-88.6	2.9	1.56e+00	0	47	104	0	60	1048575
2026-01-17 22:42:03.72	138.34	53.04	-85.2	-88.6	2.9	1.56e+00	0	47	104	0	60	1048574
2026-01-17 22:42:04.73	138.94	52.84	-85.2	-88.6	2.9	1.56e+00	0	47	104	0	60	1048575
2026-01-17 22:42:05.73	139.52	52.64	-85.2	-88.6	3.2	1.55e+00	0	47	104	0	60	1048575
2026-01-17 22:42:06.74	140.09	52.43	-85.2	-88.6	3.0	1.56e+00	0	47	104	0	60	1048573
2026-01-17 22:42:07.75	140.66	52.22	-85.2	-88.6	3.2	1.56e+00	0	47	104	0	60	1048573
2026-01-17 22:42:08.75	141.22	52.02	-85.2	-88.6	3.0	1.56e+00	0	47	104	0	60	1048575
2026-01-17 22:42:09.76	141.77	51.81	-85.2	-88.6	3.1	1.56e+00	0	47	104	0	60	1048573
2026-01-17 22:42:10.76	142.31	51.60	-85.2	-88.6	3.1	1.56e+00	0	47	104	0	60	1048575
2026-01-17 22:42:11.77	142.85	51.38	-85.2	-88.6	3.0	1.56e+00	0	47	104	0	60	1048574
2026-01-17 22:42:12.78	143.38	51.17	-85.2	-88.6	3.2	1.55e+00	0	47	104	0	60	1048573
2026-01-17 22:42:13.79	143.90	50.95	-85.2	-88.6	2.6	1.56e+00	0	47	104	0	60	1048574
2026-01-17 22:42:14.79	144.41	50.74	-85.2	-88.6	3.1	1.56e+00	0	47	104	0	60	1048574
2026-01-17 22:42:15.79	144.92	50.52	-85.2	-88.6	3.0	1.56e+00	0	47	104	0	60	1048575
2026-01-17 22:42:16.80	145.42	50.30	-85.2	-88.6	3.1	1.55e+00	0	47	104	0	60	1048575
2026-01-17 22:42:17.81	145.91	50.08	-85.2	-88.6	2.9	1.56e+00	0	47	104	0	60	1048572
2026-01-17 22:42:18.81	146.39	49.85	-85.2	-88.6	3.1	1.56e+00	0	47	104	0	60	1048575
2026-01-17 22:42:19.82	146.87	49.63	-85.2	-88.6	3.0	1.56e+00	0	47	104	0	60	1048573
2026-01-17 22:42:20.83	147.35	49.41	-85.2	-88.6	2.9	1.56e+00	0	47	104	0	60	1048574
2026-01-17 22:42:21.84	147.81	49.18	-85.2	-88.6	3.2	1.55e+00	0	47	104	0	60	1048574
2026-01-17 22:42:22.84	148.27	48.95	-85.2	-88.6	3.1	1.56e+00	0	47	104	0	60	1048573
2026-01-17 22:42:23.85	148.72	48.73	-85.2	-88.6	3.0	1.55e+00	0	47	104	0	60	1048574
2026-01-17 22:42:24.86	149.17	48.50	-85.2	-88.6	2.8	1.56e+00	0	47	104	0	60	1048574
2026-01-17 22:42:25.87	149.61	48.27	-85.2	-88.6	3.0	1.55e+00	0	47	104	0	60	1048575
2026-01-17 22:42:26.88	150.04	48.04	-83.5	-88.6	2.9	1.56e+00	0	47	104	0	60	1048575
2026-01-17 22:42:27.88	150.46	47.81	-85.2	-88.6	2.9	1.56e+00	0	47	104	0	60	1048574
2026-01-17 22:42:28.89	150.88	47.58	-85.2	-88.6	3.1	1.55e+00	0	47	104	0	60	1048575
2026-01-17 22:42:29.90	151.30	47.35	-85.2	-88.6	3.0	1.56e+00	0	47	104	0	60	1048575
2026-01-17 22:42:30.91	151.71	47.12	-85.2	-88.6	3.0	1.56e+00	0	47	104	0	60	1048575
2026-01-17 22:42:31.91	152.11	46.89	-85.2	-88.6	3.2	1.56e+00	0	47	104	0	60	1048575
2026-01-17 22:42:32.92	152.50	46.66	-85.2	-88.6	3.0	1.56e+00	0	47	104	0	60	1048575
2026-01-17 22:42:33.92	152.89	46.43	-85.2	-88.6	3.0	1.56e+00	0	47	104	0	60	1048575
2026-01-17 22:42:34.93	153.28	46.20	-85.2	-88.6	2.9	1.55e+00	0	47	104	0	60	1048575
2026-01-17 22:42:35.94	153.66	45.97	-85.2	-88.6	3.2	1.55e+00	0	47	104	0	60	1048575
2026-01-17 22:42:36.94	154.03	45.74	-85.2	-88.6	2.9	1.56e+00	0	47	104	0	60	1048575
2026-01-17 22:42:37.95	154.40	45.51	-85.2	-88.6	3.3	1.56e+00	0	47	104	0	60	1048575
2026-01-17 22:42:38.96	154.76	45.28	-85.2	-88.6	3.0	1.56e+00	0	47	104	0	60	1048575
2026-01-17 22:42:39.96	155.12	45.05	-85.2	-88.6	3.1	1.56e+00	0	47	104	0	60	1048573
2026-01-17 22:42:40.97	155.47	44.82	-85.2	-88.6	2.8	1.56e+00	0	47	104	0	60	1048574
2026-01-17 22:42:41.98	155.82	44.58	-85.2	-88.6	2.9	1.56e+00	0	47	104	0	60	1048575
2026-01-17 22:42:42.99	156.16	44.35	-85.2	-88.6	2.9	1.56e+00	0	47	104	0	60	1048575
2026-01-17 22:42:44.00	156.50	44.12	-85.2	-88.6	3.2	1.56e+00	0	47	104	0	60	1048575
2026-01-17 22:42:45.00	156.83	43.90	-85.2	-88.6	3.0	1.56e+00	0	47	104	0	60	1048574
2026-01-17 22:42:46.01	157.16	43.67	-85.2	-88.6	3.1	1.56e+00	0	47	104	0	60	1048575
2026-01-17 22:42:47.02	157.49	43.44	-84.3	-88.6	3.2	1.55e+00	0	47	104	0	60	1048575
2026-01-17 22:42:48.03	157.81	43.21	-85.2	-88.6	3.1	1.56e+00	0	47	104	0	60	1048574
2026-01-17 22:42:49.03	158.12	42.98	-85.2	-88.6	3.0	1.56e+00	0	47	104	0	60	1048575
2026-01-17 22:42:50.04	158.43	42.75	-85.2	-88.6	3.2	1.56e+00	0	47	104	0	60	1048573
2026-01-17 22:42:51.05	158.74	42.52	-85.2	-88.6	3.1	1.56e+00	0	47	104	0	60	1048573
2026-01-17 22:42:52.05	159.04	42.30	-85.2	-88.6	3.0	1.56e+00	0	47	104	0	60	1048570
2026-01-17 22:42:53.06	159.34	42.07	-85.2	-88.6	3.2	1.56e+00	0	47	104	0	60	1048575
2026-01-17 22:42:54.07	159.63	41.84	-85.2	-88.6	3.1	1.56e+00	0	47	104	0	60	1048575
2026-01-17 22:42:55.07	159.92	41.62	-85.2	-88.6	3.1	1.56e+00	0	47	104	0	60	1048574
2026-01-17 22:42:56.08	160.21	41.40	-85.2	-88.6	2.9	1.56e+00	0	47	104	0	60	1048575
2026-01-17 22:42:57.08	160.49	41.17	-85.2	-88.6	3.1	1.56e+00	0	47	104	0	60	1048573
2026-01-17 22:42:58.08	160.76	40.95	-85.2	-88.6	3.0	1.55e+00	0	47	104	0	60	1048575
2026-01-17 22:42:59.09	161.04	40.73	-85.2	-88.6	3.1	1.56e+00	0	47	104	0	60	1048575
2026-01-17 22:43:00.09	161.31	40.51	-85.2	-88.6	2.7	1.56e+00	0	47	104	0	60	1048575
2026-01-17 22:43:01.09	161.57	40.29	-85.2	-88.6	3.1	1.56e+00	0	47	104	0	60	1048575
2026-01-17 22:43:02.09	161.83	40.07	-85.2	-88.6	3.2	1.55e+00	0	47	104	0	60	1048574
2026-01-17 22:43:03.10	162.10	39.85	-85.2	-88.6	2.8	1.55e+00	0	47	104	0	60	1048573
2026-01-17 22:43:04.11	162.35	39.63	-85.2	-88.6	3.0	1.56e+00	0	47	104	0	60	1048575
2026-01-17 22:43:05.11	162.61	39.41	-85.2	-88.6	2.9	1.56e+00	0	47	104	0	60	1048575
2026-01-17 22:43:06.11	162.85	39.20	-85.2	-88.6	3.2	1.56e+00	0	47	104	0	60	1048575
2026-01-17 22:43:07.11	163.10	38.98	-85.2	-88.6	3.1	1.55e+00	0	47	104	0	60	1048575
2026-01-17 22:43:08.11	163.34	38.77	-85.2	-88.6	3.1	1.56e+00	0	47	104	0	60	1048575
2026-01-17 22:43:09.12	163.58	38.55	-85.2	-88.6	3.0	1.55e+00	0	47	104	0	60	1048574
2026-01-17 22:43:10.13	163.82	38.34	-85.2	-88.6	3.0	1.56e+00	0	47	104	0	60	1048574
2026-01-17 22:43:11.13	164.05	38.12	-85.2	-88.6	2.9	1.56e+00	0	47	104	0	60	1048575
2026-01-17 22:43:12.13	164.28	37.91	-85.2	-88.6	3.1	1.56e+00	0	47	104	0	60	1048575
2026-01-17 22:43:13.12	164.51	37.70	-85.2	-88.6	3.0	1.56e+00	0	47	104	0	60	1048574
2026-01-17 22:43:14.13	164.73	37.49	-85.2	-88.6	3.1	1.56e+00	0	47	104	0	60	1048573
2026-01-17 22:43:15.13	164.96	37.28	-85.2	-88.6	2.9	1.56e+00	0	47	104	0	60	1048573
2026-01-17 22:43:16.14	165.18	37.07	-85.2	-88.6	3.0	1.56e+00	0	47	104	0	60	1048575
2026-01-17 22:43:17.15	165.39	36.86	-85.2	-88.6	3.3	1.56e+00	0	47	104	0	60	1048575
2026-01-17 22:43:18.15	165.61	36.66	-85.2	-88.6	2.8	1.56e+00	0	47	104	0	60	1048575
2026-01-17 22:43:19.15	165.82	36.45	-85.2	-88.6	3.1	1.56e+00	0	47	104	0	60	1048573
2026-01-17 22:43:20.16	166.03	36.25	-85.2	-88.6	2.8	1.55e+00	0	47	104	0	60	1048575
2026-01-17 22:43:21.17	166.24	36.04	-85.2	-88.6	3.0	1.55e+00	0	47	104	0	60	1048575
2026-01-17 22:43:22.17	166.44	35.84	-85.2	-88.6	3.0	1.56e+00	0	47	104	0	60	1048575
2026-01-17 22:43:23.18	166.64	35.63	-85.2	-88.6	2.8	1.56e+00	0	47	104	0	60	1048574
2026-01-17 22:43:24.19	166.84	35.43	-85.2	-88.6	3.1	1.56e+00	0	47	104	0	60	1048569
2026-01-17 22:43:25.19	167.04	35.23	-85.2	-88.6	3.2	1.55e+00	0	47	104	0	60	1048575
2026-01-17 22:43:26.19	167.23	35.03	-85.2	-88.6	3.0	1.56e+00	0	47	104	0	60	1048575
2026-01-17 22:43:27.19	167.42	34.83	-85.2	-88.6	3.3	1.56e+00	0	47	104	0	60	1048571
2026-01-17 22:43:28.19	167.61	34.64	-85.2	-88.6	3.1	1.55e+00	0	47	104	0	60	1048573
2026-01-17 22:43:29.19	167.80	34.44	-85.2	-88.6	2.9	1.56e+00	0	47	104	0	60	1048575
2026-01-17 22:43:30.19	167.98	34.25	-85.2	-88.6	3.2	1.56e+00	0	47	104	0	60	1048575
2026-01-17 22:43:31.20	168.17	34.05	-85.2	-88.6	2.9	1.56e+00	0	47	104	0	60	1048570
2026-01-17 22:43:32.20	168.35	33.86	-85.2	-88.6	2.9	1.56e+00	0	47	104	0	60	1048575
2026-01-17 22:43:33.21	168.53	33.66	-85.2	-88.6	3.2	1.56e+00	0	47	104	0	60	1048575
2026-01-17 22:43:34.21	168.70	33.47	-85.2	-88.6	3.1	1.55e+00	0	47	104	0	60	1048574
2026-01-17 22:43:35.22	168.88	33.28	-85.2	-88.6	2.9	1.55e+00	0	47	104	0	60	1048575
2026-01-17 22:43:36.23	169.05	33.08	-85.2	-88.6	3.0	1.56e+00	0	47	104	0	60	1048574
2026-01-17 22:43:37.23	169.22	32.90	-85.2	-88.6	3.0	1.56e+00	0	47	104	0	60	1048575
2026-01-17 22:43:38.24	169.39	32.71	-85.2	-88.6	3.1	1.55e+00	0	47	104	0	60	1048574
2026-01-17 22:43:39.25	169.56	32.52	-85.2	-88.6	2.9	1.56e+00	0	47	104	0	60	1048575
2026-01-17 22:43:40.26	169.73	32.33	-85.2	-88.6	3.0	1.56e+00	0	47	104	0	60	1048575
2026-01-17 22:43:41.26	169.89	32.14	-85.2	-88.6	3.1	1.56e+00	0	47	104	0	60	1048575
2026-01-17 22:43:42.26	170.05	31.96	-85.2	-88.6	3.0	1.56e+00	0	47	104	0	60	1048575
2026-01-17 22:43:43.27	170.21	31.77	-85.2	-88.6	2.9	1.55e+00	0	47	104	0	60	1048575
2026-01-17 22:43:44.27	170.37	31.59	-85.2	-88.6	3.0	1.56e+00	0	47	104	0	60	1048575
2026-01-17 22:43:45.28	170.52	31.41	-85.2	-88.6	3.0	1.56e+00	0	47	104	0	60	1048574
2026-01-17 22:43:46.28	170.68	31.23	-85.2	-88.6	2.9	1.55e+00	0	47	104	0	60	1048575
2026-01-17 22:43:47.29	170.83	31.05	-85.2	-88.6	3.1	1.55e+00	0	47	104	0	60	1048575
2026-01-17 22:43:48.30	170.98	30.86	-85.2	-88.6	3.0	1.56e+00	0	47	104	0	60	1048571
2026-01-17 22:43:49.30	171.13	30.69	-85.2	-88.6	3.1	1.56e+00	0	47	104	0	60	1048573
2026-01-17 22:43:50.31	171.28	30.51	-85.2	-88.6	2.9	1.56e+00	0	47	104	0	60	1048575
2026-01-17 22:43:51.31	171.43	30.33	-85.2	-88.6	3.1	1.55e+00	0	47	104	0	60	1048575
2026-01-17 22:43:52.32	171.57	30.15	-85.2	-88.6	3.1	1.56e+00	0	47	104	0	60	1048575
2026-01-17 22:43:53.33	171.72	29.98	-85.2	-88.6	3.0	1.56e+00	0	47	104	0	60	1048574
2026-01-17 22:43:54.33	171.86	29.80	-85.2	-88.6	3.1	1.56e+00	0	47	104	0	60	1048574
2026-01-17 22:43:55.34	172.00	29.63	-85.2	-88.6	2.9	1.56e+00	0	47	104	0	60	1048575
2026-01-17 22:43:56.35	172.14	29.46	-85.2	-88.6	3.0	1.56e+00	0	47	104	0	60	1048575
2026-01-17 22:43:57.35	172.28	29.28	-85.2	-88.6	3.2	1.56e+00	0	47	104	0	60	1048575
2026-01-17 22:43:58.35	172.41	29.11	-85.2	-88.6	3.0	1.56e+00	0	47	104	0	60	1048573
2026-01-17 22:43:59.35	172.55	28.95	-85.2	-88.6	3.0	1.56e+00	0	47	104	0	60	1048575
2026-01-17 22:44:00.36	172.68	28.78	-85.2	-88.6	2.9	1.56e+00	0	47	104	0	60	1048569
2026-01-17 22:44:01.36	172.81	28.61	-85.2	-88.6	3.0	1.56e+00	0	47	104	0	60	1048574
2026-01-17 22:44:02.37	172.94	28.44	-85.2	-88.6	3.2	1.55e+00	0	47	104	0	60	1048575
2026-01-17 22:44:03.38	173.07	28.27	-85.2	-88.6	2.8	1.56e+00	0	47	104	0	60	1048574
2026-01-17 22:44:04.38	173.20	28.11	-85.2	-88.6	3.0	1.55e+00	0	47	104	0	60	1048575
2026-01-17 22:44:05.39	173.33	27.94	-85.2	-88.6	3.0	1.56e+00	0	47	104	0	60	1048575
2026-01-17 22:44:06.39	173.45	27.78	-85.2	-88.6	2.9	1.56e+00	0	47	104	0	60	1048575
2026-01-17 22:44:07.40	173.58	27.61	-85.2	-88.6	3.0	1.56e+00	0	47	104	0	60	1048574
2026-01-17 22:44:08.40	173.70	27.45	-85.2	-88.6	3.0	1.56e+00	0	47	104	0	60	1048574
2026-01-17 22:44:09.41	173.82	27.29	-85.2	-88.6	3.1	1.56e+00	0	47	104	0	60	1048575
2026-01-17 22:44:10.42	173.94	27.13	-85.2	-88.6	2.9	1.56e+00	0	47	104	0	60	1048571
2026-01-17 22:44:11.43	174.07	26.97	-85.2	-88.6	2.9	1.56e+00	0	47	104	0	60	1048575
2026-01-17 22:44:12.43	174.18	26.81	-85.2	-88.6	2.9	1.56e+00	0	47	104	0	60	1048575
2026-01-17 22:44:13.44	174.30	26.65	-85.2	-88.6	2.9	1.56e+00	0	47	104	0	60	1048574
2026-01-17 22:44:14.45	174.42	26.49	-85.2	-88.6	3.1	1.56e+00	0	47	104	0	60	1048574
2026-01-17 22:44:15.45	174.53	26.33	-85.2	-88.6	2.9	1.56e+00	0	47	104	0	60	1048574
2026-01-17 22:44:16.46	174.65	26.18	-85.2	-88.6	3.0	1.55e+00	0	47	104	0	60	1048574
2026-01-17 22:44:17.47	174.76	26.02	-85.2	-88.6	3.2	1.55e+00	0	47	104	0	60	1048575
2026-01-17 22:44:18.47	174.87	25.87	-85.2	-88.6	3.0	1.56e+00	0	47	104	0	60	1048575
2026-01-17 22:44:19.48	174.98	25.71	-85.2	-88.6	2.8	1.55e+00	0	47	104	0	60	1048574
2026-01-17 22:44:20.49	175.09	25.56	-85.2	-88.6	3.1	1.56e+00	0	47	104	0	60	1048574
2026-01-17 22:44:21.49	175.20	25.41	-85.2	-88.6	3.0	1.56e+00	0	47	104	0	60	1048575
2026-01-17 22:44:22.50	175.31	25.26	-85.2	-88.6	3.1	1.55e+00	0	47	104	0	60	1048572
2026-01-17 22:44:23.51	175.42	25.10	-85.2	-88.6	3.1	1.56e+00	0	47	104	0	60	1048575
2026-01-17 22:44:24.52	175.52	24.95	-85.2	-88.6	3.0	1.55e+00	0	47	104	0	60	1048575
2026-01-17 22:44:25.53	175.63	24.80	-85.2	-88.6	2.9	1.56e+00	0	47	104	0	60	1048575
2026-01-17 22:44:26.53	175.73	24.66	-85.2	-88.6	3.1	1.55e+00	0	47	104	0	60	1048575
2026-01-17 22:44:27.54	175.84	24.51	-85.2	-88.6	3.0	1.56e+00	0	47	104	0	60	1048574
2026-01-17 22:44:28.55	175.94	24.36	-85.2	-88.6	2.8	1.56e+00	0	47	104	0	60	1048570
2026-01-17 22:44:29.55	176.04	24.22	-85.2	-88.6	2.9	1.56e+00	0	47	104	0	60	1048575
2026-01-17 22:44:30.56	176.14	24.07	-85.2	-88.6	3.1	1.56e+00	0	47	104	0	60	1048571
2026-01-17 22:44:31.57	176.24	23.92	-85.2	-88.6	3.1	1.55e+00	0	47	104	0	60	1048575
2026-01-17 22:44:32.57	176.34	23.78	-85.2	-88.6	3.2	1.55e+00	0	47	104	0	60	1048575
2026-01-17 22:44:33.58	176.44	23.64	-85.2	-88.6	2.9	1.56e+00	0	47	104	0	60	1048575
2026-01-17 22:44:34.59	176.53	23.49	-85.2	-88.6	3.0	1.55e+00	0	47	104	0	60	1048572
2026-01-17 22:44:35.59	176.63	23.35	-85.2	-88.6	3.0	1.56e+00	0	47	104	0	60	1048574
2026-01-17 22:44:36.60	176.73	23.21	-85.2	-88.6	2.8	1.56e+00	0	47	104	0	60	1048575
2026-01-17 22:44:37.60	176.82	23.07	-85.2	-88.6	3.1	1.56e+00	0	47	104	0	60	1048574
2026-01-17 22:44:38.61	176.91	22.93	-85.2	-88.6	3.1	1.56e+00	0	47	104	0	60	1048575
2026-01-17 22:44:39.62	177.01	22.79	-85.2	-88.6	3.0	1.56e+00	0	47	104	0	60	1048575
2026-01-17 22:44:40.62	177.10	22.65	-85.2	-88.6	3.1	1.56e+00	0	47	104	0	60	1048573
2026-01-17 22:44:41.63	177.19	22.51	-85.2	-88.6	2.9	1.55e+00	0	47	104	0	60	1048575
2026-01-17 22:44:42.63	177.28	22.38	-84.3	-88.6	3.1	1.56e+00	0	47	104	0	60	1048575
2026-01-17 22:44:43.64	177.37	22.24	-85.2	-88.6	3.1	1.56e+00	0	47	104	0	60	1048574
2026-01-17 22:44:44.65	177.46	22.10	-85.2	-88.6	2.8	1.56e+00	0	47	104	0	60	1048574
2026-01-17 22:44:45.66	177.55	21.97	-85.2	-88.6	2.9	1.56e+00	0	47	104	0	60	1048573
2026-01-17 22:44:46.66	177.63	21.83	-85.2	-88.6	3.1	1.55e+00	0	47	104	0	60	1048574
2026-01-17 22:44:47.67	177.72	21.70	-85.2	-88.6	3.0	1.56e+00	0	47	104	0	60	1048574
2026-01-17 22:44:48.68	177.81	21.57	-85.2	-88.6	2.8	1.55e+00	0	47	104	0	60	1048568
2026-01-17 22:44:49.68	177.89	21.43	-85.2	-88.6	3.0	1.56e+00	0	47	104	0	60	1048574
2026-01-17 22:44:50.69	177.98	21.30	-85.2	-88.6	2.9	1.56e+00	0	47	104	0	60	1048573
2026-01-17 22:44:51.69	178.06	21.17	-85.2	-88.6	3.0	1.56e+00	0	47	104	0	60	1048575
2026-01-17 22:44:52.70	178.15	21.04	-85.2	-88.6	2.8	1.56e+00	0	47	104	0	60	1048574
2026-01-17 22:44:53.71	178.23	20.91	-85.2	-88.6	3.1	1.56e+00	0	47	104	0	60	1048575
2026-01-17 22:44:54.72	178.31	20.78	-85.2	-88.6	2.9	1.56e+00	0	47	104	0	60	1048575
2026-01-17 22:44:55.73	178.39	20.65	-85.2	-88.6	3.0	1.55e+00	0	47	104	0	60	1048575
2026-01-17 22:44:56.73	178.47	20.52	-85.2	-88.6	3.1	1.55e+00	0	47	104	0	60	1048574
2026-01-17 22:44:57.74	178.55	20.39	-85.2	-88.6	3.2	1.56e+00	0	47	104	0	60	1048575
2026-01-17 22:44:58.75	178.63	20.27	-85.2	-88.6	2.9	1.56e+00	0	47	104	0	60	1048575
2026-01-17 22:44:59.76	178.71	20.14	-85.2	-88.6	3.0	1.56e+00	0	47	104	0	60	1048573
2026-01-17 22:45:00.77	178.79	20.01	-85.2	-88.6	3.1	1.55e+00	0	47	104	0	60	1048570
2026-01-17 22:45:01.77	178.87	19.89	-85.2	-88.6	2.9	1.56e+00	0	47	104	0	60	1048575
2026-01-17 22:45:02.77	178.94	19.76	-85.2	-88.6	2.9	1.56e+00	0	47	104	0	60	1048575
2026-01-17 22:45:03.78	179.02	19.64	-85.2	-88.6	2.9	1.56e+00	0	47	104	0	60	1048575
2026-01-17 22:45:04.78	179.10	19.52	-85.2	-88.6	2.9	1.56e+00	0	47	104	0	60	1048575
2026-01-17 22:45:05.79	179.17	19.39	-85.2	-88.6	3.1	1.56e+00	0	47	104	0	60	1048575
2026-01-17 22:45:06.80	179.25	19.27	-85.2	-88.6	3.0	1.55e+00	0	47	104	0	60	1048570
2026-01-17 22:45:07.81	179.32	19.15	-85.2	-88.6	3.1	1.55e+00	0	47	104	0	60	1048574
2026-01-17 22:45:08.81	179.39	19.03	-85.2	-88.6	3.1	1.56e+00	0	47	104	0	60	1048575
2026-01-17 22:45:09.82	179.47	18.91	-85.2	-88.6	3.0	1.55e+00	0	47	104	0	60	1048574
2026-01-17 22:45:10.82	179.54	18.79	-85.2	-88.6	3.0	1.56e+00	0	47	104	0	60	1048575
2026-01-17 22:45:11.83	179.61	18.67	-85.2	-88.6	2.8	1.55e+00	0	47	104	0	60	1048574
2026-01-17 22:45:12.83	179.68	18.55	-85.2	-88.6	2.9	1.56e+00	0	47	104	0	60	1048571
2026-01-17 22:45:13.84	179.75	18.43	-85.2	-88.6	3.0	1.56e+00	0	47	104	0	60	1048574
2026-01-17 22:45:14.85	179.83	18.31	-85.2	-88.6	3.1	1.56e+00	0	47	104	0	60	1048572
2026-01-17 22:45:15.86	179.90	18.19	-85.2	-88.6	3.2	1.56e+00	0	47	104	0	60	1048575
2026-01-17 22:45:16.87	179.97	18.07	-85.2	-88.6	3.1	1.56e+00	0	47	104	0	60	1048575
2026-01-17 22:45:17.88	180.03	17.96	-85.2	-88.6	3.1	1.56e+00	0	47	104	0	60	1048575
2026-01-17 22:45:18.87	180.10	17.84	-85.2	-88.6	3.0	1.56e+00	0	47	104	0	60	1048575
2026-01-17 22:45:19.87	180.17	17.73	-85.2	-88.6	3.0	1.56e+00	0	47	104	0	60	1048575
2026-01-17 22:45:20.88	180.24	17.61	-85.2	-88.6	3.1	1.56e+00	0	47	104	0	60	1048574
2026-01-17 22:45:21.89	180.30	17.50	-85.2	-88.6	3.1	1.56e+00	0	47	104	0	60	1048572
2026-01-17 22:45:22.89	180.37	17.39	-85.2	-88.6	3.3	1.56e+00	0	47	104	0	60	1048574
2026-01-17 22:45:23.90	180.44	17.27	-85.2	-88.6	3.0	1.56e+00	0	47	104	0	60	1048575
2026-01-17 22:45:24.91	180.50	17.16	-85.2	-88.6	3.0	1.56e+00	0	47	104	0	60	1048574
2026-01-17 22:45:25.91	180.57	17.05	-85.2	-88.6	3.1	1.56e+00	0	47	104	0	60	1048575
2026-01-17 22:45:26.92	180.63	16.93	-83.9	-88.6	3.0	1.56e+00	0	47	104	0	60	1048575
2026-01-17 22:45:27.93	180.70	16.82	-85.2	-88.6	2.9	1.55e+00	0	47	104	0	60	1048570
2026-01-17 22:45:28.93	180.76	16.71	-85.2	-88.6	2.8	1.56e+00	0	47	104	0	60	1048575
2026-01-17 22:45:29.94	180.82	16.60	-85.2	-88.6	2.9	1.56e+00	0	47	104	0	60	1048574
2026-01-17 22:45:30.95	180.89	16.49	-85.2	-88.6	3.0	1.56e+00	0	47	104	0	60	1048574
2026-01-17 22:45:31.96	180.95	16.38	-85.2	-88.6	3.1	1.56e+00	0	47	104	0	60	1048575
2026-01-17 22:45:32.97	181.01	16.27	-85.2	-88.6	3.2	1.56e+00	0	47	104	0	60	1048575
2026-01-17 22:45:33.97	181.07	16.16	-85.2	-88.6	3.0	1.55e+00	0	47	104	0	60	1048574
2026-01-17 22:45:34.98	181.13	16.05	-85.2	-88.6	3.1	1.56e+00	0	47	104	0	60	1048574
2026-01-17 22:45:35.99	181.19	15.94	-85.2	-88.6	3.0	1.55e+00	0	47	104	0	60	1048574
2026-01-17 22:45:37.00	181.25	15.84	-85.2	-88.6	3.2	1.55e+00	0	47	104	0	60	1048573
2026-01-17 22:45:38.00	181.31	15.73	-85.2	-88.6	3.2	1.56e+00	0	47	104	0	60	1048574
2026-01-17 22:45:39.01	181.37	15.62	-85.2	-88.6	2.9	1.55e+00	0	47	104	0	60	1048574
2026-01-17 22:45:40.02	181.43	15.52	-85.2	-88.6	2.9	1.55e+00	0	47	104	0	60	1048575
2026-01-17 22:45:41.03	181.49	15.41	-85.2	-88.6	2.9	1.56e+00	0	47	104	0	60	1048575
2026-01-17 22:45:42.03	181.55	15.31	-85.2	-88.6	2.9	1.56e+00	0	47	104	0	60	1048574
2026-01-17 22:45:43.03	181.61	15.20	-85.2	-88.6	3.1	1.55e+00	0	47	104	0	60	1048573
2026-01-17 22:45:44.04	181.67	15.10	-85.2	-88.6	2.8	1.56e+00	0	47	104	0	60	1048574
