passes_logs/2026/01/17/R3.2S-Naryan-Mar/R3.2S-Naryan-Mar__20260117_105218_NOAA_20_JPSS-1_rec.log

#Pass ID: 20260117_105218_NOAA 20 (JPSS-1)
#Satellite: NOAA 20 (JPSS-1)
#Configuration: NOAA 20
#almurnet v.1.7.20240730
#Start time: 2026-01-17 10:52:20

#Version: 2.2.20231116
#Station: R3.2S-Naryan-Mar
#Location: 53.008057 lon 67.646978 lat
#TLE: 1 43013U 17073A   26016.24631778  .00000038  00000+0  39093-4 0  9990
#TLE: 2 43013  98.7637 317.1726 0001455  37.6755 322.4523 14.19536243422915

#Time	Az	El	Level	Level2	SNR	BER	BlckErr	Temp	State	Recorded	gain1	gain2
2026-01-17 10:52:20.81	217.71	0.11	-85.2	-88.6	3.0	1.56e+00	0	44	0	0	60	1048568
2026-01-17 10:52:21.81	217.78	0.16	-85.2	-88.6	2.9	1.56e+00	0	45	104	0	60	1048575
2026-01-17 10:52:22.81	217.85	0.21	-85.2	-88.6	3.0	1.56e+00	0	45	104	0	60	1048571
2026-01-17 10:52:23.82	217.93	0.26	-85.2	-88.6	3.0	1.56e+00	0	45	104	0	60	1048574
2026-01-17 10:52:24.83	218.00	0.31	-85.2	-88.6	3.1	1.56e+00	0	45	104	0	60	1048575
2026-01-17 10:52:25.83	218.07	0.36	-85.2	-88.6	3.2	1.56e+00	0	46	104	0	60	1048575
2026-01-17 10:52:26.84	218.14	0.41	-85.2	-88.6	3.1	1.55e+00	0	46	104	0	60	1048575
2026-01-17 10:52:27.85	218.22	0.47	-85.2	-88.6	3.0	1.55e+00	0	46	104	0	60	1048575
2026-01-17 10:52:28.86	218.29	0.52	-85.2	-88.6	3.1	1.56e+00	0	46	104	0	60	1048575
2026-01-17 10:52:29.87	218.36	0.57	-85.2	-88.6	2.8	1.56e+00	0	46	104	0	60	1048571
2026-01-17 10:52:30.87	218.44	0.62	-85.2	-88.6	3.0	1.56e+00	0	46	104	0	60	1048574
2026-01-17 10:52:31.88	218.51	0.67	-85.2	-88.6	3.1	1.55e+00	0	46	104	0	60	1048573
2026-01-17 10:52:32.89	218.58	0.72	-85.2	-88.6	2.9	1.56e+00	0	46	104	0	60	1048575
2026-01-17 10:52:33.90	218.66	0.77	-85.2	-88.6	3.1	1.56e+00	0	46	104	0	60	1048572
2026-01-17 10:52:34.91	218.73	0.82	-85.2	-88.6	3.0	1.56e+00	0	46	104	0	60	1048573
2026-01-17 10:52:35.91	218.81	0.88	-85.2	-88.6	3.0	1.56e+00	0	46	104	0	60	1048572
2026-01-17 10:52:36.91	218.88	0.93	-85.2	-88.6	3.0	1.56e+00	0	46	104	0	60	1048574
2026-01-17 10:52:37.92	218.96	0.98	-85.2	-88.6	3.1	1.56e+00	0	46	104	0	60	1048573
2026-01-17 10:52:38.92	219.03	1.03	-85.2	-88.6	3.0	1.55e+00	0	46	104	0	60	1048574
2026-01-17 10:52:39.93	219.11	1.08	-85.2	-88.6	2.9	1.55e+00	0	46	104	0	60	1048575
2026-01-17 10:52:40.94	219.18	1.13	-85.2	-88.6	3.0	1.55e+00	0	46	104	0	60	1048575
2026-01-17 10:52:41.95	219.26	1.19	-85.2	-88.6	3.1	1.56e+00	0	46	104	0	60	1048575
2026-01-17 10:52:42.95	219.34	1.24	-85.2	-88.6	3.0	1.56e+00	0	46	104	0	60	1048572
2026-01-17 10:52:43.96	219.41	1.29	-85.2	-88.6	3.1	1.56e+00	0	46	104	0	60	1048575
2026-01-17 10:52:44.97	219.49	1.34	-85.2	-88.6	3.0	1.55e+00	0	46	104	0	60	1048574
2026-01-17 10:52:45.97	219.57	1.39	-84.7	-88.6	2.9	1.55e+00	0	46	104	0	60	1048575
2026-01-17 10:52:46.98	219.64	1.45	-85.2	-88.6	3.1	1.56e+00	0	46	104	0	60	1048574
2026-01-17 10:52:47.99	219.72	1.50	-85.2	-88.6	3.2	1.56e+00	0	46	104	0	60	1048574
2026-01-17 10:52:49.00	219.80	1.55	-85.2	-88.6	3.3	1.56e+00	0	46	104	0	60	1048574
2026-01-17 10:52:50.00	219.88	1.60	-85.2	-88.6	3.1	1.55e+00	0	46	104	0	60	1048575
2026-01-17 10:52:51.01	219.96	1.65	-85.2	-88.6	3.1	1.56e+00	0	46	104	0	60	1048574
2026-01-17 10:52:52.02	220.03	1.71	-85.2	-88.6	2.9	1.56e+00	0	46	104	0	60	1048572
2026-01-17 10:52:53.01	220.11	1.76	-85.2	-88.6	2.9	1.55e+00	0	46	104	0	60	1048575
2026-01-17 10:52:54.02	220.19	1.81	-85.2	-88.6	2.9	1.56e+00	0	46	104	0	60	1048574
2026-01-17 10:52:55.02	220.27	1.86	-85.2	-88.6	3.0	1.56e+00	0	46	104	0	60	1048575
2026-01-17 10:52:56.03	220.35	1.92	-85.2	-88.6	3.1	1.56e+00	0	46	104	0	60	1048575
2026-01-17 10:52:57.03	220.43	1.97	-85.2	-88.6	2.7	1.55e+00	0	46	104	0	60	1048574
2026-01-17 10:52:58.03	220.51	2.02	-85.2	-88.6	2.8	1.55e+00	0	46	104	0	60	1048574
2026-01-17 10:52:59.04	220.59	2.07	-85.2	-88.6	3.1	1.56e+00	0	46	104	0	60	1048575
2026-01-17 10:53:00.04	220.67	2.13	-85.2	-88.6	3.1	1.56e+00	0	46	104	0	60	1048575
2026-01-17 10:53:01.05	220.75	2.18	-85.2	-88.6	3.0	1.55e+00	0	46	104	0	60	1048573
2026-01-17 10:53:02.05	220.83	2.23	-85.2	-88.6	3.0	1.56e+00	0	46	104	0	60	1048575
2026-01-17 10:53:03.06	220.91	2.28	-85.2	-88.6	3.0	1.55e+00	0	46	104	0	60	1048575
2026-01-17 10:53:04.06	221.00	2.34	-85.2	-88.6	3.1	1.56e+00	0	46	104	0	60	1048575
2026-01-17 10:53:05.07	221.08	2.39	-85.2	-88.6	2.9	1.56e+00	0	46	104	0	60	1048575
2026-01-17 10:53:06.08	221.16	2.44	-85.2	-88.6	3.0	1.56e+00	0	46	104	0	60	1048569
2026-01-17 10:53:07.09	221.24	2.50	-85.2	-88.6	2.8	1.55e+00	0	46	104	0	60	1048573
2026-01-17 10:53:08.10	221.33	2.55	-85.2	-88.6	3.1	1.55e+00	0	46	104	0	60	1048575
2026-01-17 10:53:09.10	221.41	2.60	-85.2	-88.6	2.9	1.56e+00	0	46	104	0	60	1048574
2026-01-17 10:53:10.11	221.49	2.66	-85.2	-88.6	3.1	1.56e+00	0	46	104	0	60	1048575
2026-01-17 10:53:11.12	221.58	2.71	-85.2	-88.6	2.9	1.56e+00	0	46	104	0	60	1048574
2026-01-17 10:53:12.12	221.66	2.76	-85.2	-88.6	2.7	1.56e+00	0	46	104	0	60	1048573
2026-01-17 10:53:13.13	221.75	2.82	-85.2	-88.6	3.0	1.56e+00	0	46	104	0	60	1048572
2026-01-17 10:53:14.14	221.83	2.87	-85.2	-88.6	3.3	1.56e+00	0	46	104	0	60	1048575
2026-01-17 10:53:15.14	221.92	2.92	-85.2	-88.6	2.9	1.56e+00	0	46	104	0	60	1048573
2026-01-17 10:53:16.14	222.00	2.98	-85.2	-88.6	3.1	1.56e+00	0	46	104	0	60	1048569
2026-01-17 10:53:17.15	222.09	3.03	-85.2	-88.6	2.9	1.55e+00	0	46	104	0	60	1048575
2026-01-17 10:53:18.16	222.17	3.08	-85.2	-88.6	3.0	1.56e+00	0	46	104	0	60	1048575
2026-01-17 10:53:19.17	222.26	3.14	-85.2	-88.6	2.9	1.56e+00	0	46	104	0	60	1048575
2026-01-17 10:53:20.17	222.34	3.19	-85.2	-88.6	3.2	1.55e+00	0	46	104	0	60	1048574
2026-01-17 10:53:21.17	222.43	3.25	-85.2	-88.6	3.0	1.56e+00	0	46	104	0	60	1048573
2026-01-17 10:53:22.18	222.52	3.30	-85.2	-88.6	3.1	1.56e+00	0	46	104	0	60	1048575
2026-01-17 10:53:23.19	222.61	3.35	-85.2	-88.6	3.2	1.56e+00	0	46	104	0	60	1048574
2026-01-17 10:53:24.19	222.69	3.41	-85.2	-88.6	3.0	1.56e+00	0	46	104	0	60	1048575
2026-01-17 10:53:25.19	222.78	3.46	-85.2	-88.6	3.0	1.55e+00	0	46	104	0	60	1048572
2026-01-17 10:53:26.20	222.87	3.52	-85.2	-88.6	3.1	1.55e+00	0	46	104	0	60	1048575
2026-01-17 10:53:27.20	222.96	3.57	-85.2	-88.6	2.9	1.56e+00	0	46	104	0	60	1048575
2026-01-17 10:53:28.21	223.05	3.62	-85.2	-88.6	2.9	1.56e+00	0	46	104	0	60	1048575
2026-01-17 10:53:29.21	223.14	3.68	-85.2	-88.6	2.8	1.56e+00	0	46	104	0	60	1048573
2026-01-17 10:53:30.22	223.23	3.73	-85.2	-88.6	3.0	1.56e+00	0	46	104	0	60	1048573
2026-01-17 10:53:31.22	223.31	3.79	-85.2	-88.6	3.2	1.55e+00	0	46	104	0	60	1048575
2026-01-17 10:53:32.22	223.40	3.84	-85.2	-88.6	2.9	1.56e+00	0	46	104	0	60	1048575
2026-01-17 10:53:33.23	223.50	3.90	-85.2	-88.6	2.9	1.56e+00	0	46	104	0	60	1048575
2026-01-17 10:53:34.24	223.59	3.95	-85.2	-88.6	2.9	1.55e+00	0	46	104	0	60	1048575
2026-01-17 10:53:35.25	223.68	4.01	-85.2	-88.6	3.0	1.56e+00	0	46	104	0	60	1048575
2026-01-17 10:53:36.25	223.77	4.06	-85.2	-88.6	3.0	1.55e+00	0	46	104	0	60	1048575
2026-01-17 10:53:37.26	223.86	4.11	-84.3	-88.6	2.9	1.55e+00	0	46	104	0	60	1048575
2026-01-17 10:53:38.26	223.95	4.17	-85.2	-88.6	2.9	1.56e+00	0	46	104	0	60	1048575
2026-01-17 10:53:39.27	224.05	4.22	-85.2	-88.6	3.0	1.56e+00	0	46	104	0	60	1048575
2026-01-17 10:53:40.28	224.14	4.28	-85.2	-88.6	2.9	1.56e+00	0	46	104	0	60	1048575
2026-01-17 10:53:41.28	224.23	4.33	-85.2	-88.6	3.0	1.56e+00	0	46	104	0	60	1048571
2026-01-17 10:53:42.29	224.32	4.39	-85.2	-88.6	3.0	1.56e+00	0	46	104	0	60	1048572
2026-01-17 10:53:43.29	224.42	4.44	-85.2	-88.6	3.1	1.56e+00	0	46	104	0	60	1048571
2026-01-17 10:53:44.30	224.51	4.50	-85.2	-88.6	3.1	1.56e+00	0	46	104	0	60	1048574
2026-01-17 10:53:45.31	224.61	4.55	-85.2	-88.6	3.1	1.56e+00	0	46	104	0	60	1048575
2026-01-17 10:53:46.31	224.70	4.61	-85.2	-88.6	2.9	1.56e+00	0	46	104	0	60	1048574
2026-01-17 10:53:47.31	224.80	4.66	-85.2	-88.6	2.9	1.56e+00	0	46	104	0	60	1048571
2026-01-17 10:53:48.32	224.89	4.72	-85.2	-88.6	2.8	1.56e+00	0	46	104	0	60	1048575
2026-01-17 10:53:49.33	224.99	4.77	-85.2	-88.6	2.9	1.55e+00	0	46	104	0	60	1048571
2026-01-17 10:53:50.32	225.08	4.83	-85.2	-88.6	3.2	1.56e+00	0	46	104	0	60	1048575
2026-01-17 10:53:51.33	225.18	4.88	-85.2	-88.6	2.9	1.56e+00	0	46	104	0	60	1048574
2026-01-17 10:53:52.33	225.28	4.94	-85.2	-88.6	3.1	1.56e+00	0	46	104	0	60	1048575
2026-01-17 10:53:53.34	225.37	5.00	-85.2	-88.6	3.1	1.56e+00	0	46	104	0	60	1048572
2026-01-17 10:53:54.35	225.47	5.05	-85.2	-88.6	3.0	1.56e+00	0	46	104	0	60	1048574
2026-01-17 10:53:55.35	225.57	5.11	-83.5	-88.6	3.1	1.56e+00	0	46	104	0	60	1048572
2026-01-17 10:53:56.36	225.67	5.16	-85.2	-88.6	2.9	1.56e+00	0	46	104	0	60	1048574
2026-01-17 10:53:57.37	225.77	5.22	-84.7	-88.6	3.1	1.56e+00	0	47	104	0	60	1048575
2026-01-17 10:53:58.38	225.87	5.27	-85.2	-88.6	3.0	1.55e+00	0	46	104	0	60	1048575
2026-01-17 10:53:59.39	225.97	5.33	-85.2	-88.6	3.2	1.56e+00	0	46	104	0	60	1048572
2026-01-17 10:54:00.39	226.06	5.39	-85.2	-88.6	2.9	1.56e+00	0	46	104	0	60	1048575
2026-01-17 10:54:01.40	226.17	5.44	-85.2	-88.6	3.2	1.56e+00	0	46	104	0	60	1048565
2026-01-17 10:54:02.41	226.27	5.50	-85.2	-88.6	3.1	1.56e+00	0	46	104	0	60	1048575
2026-01-17 10:54:03.41	226.37	5.55	-85.2	-88.6	2.9	1.56e+00	0	47	104	0	60	1048574
2026-01-17 10:54:04.42	226.47	5.61	-85.2	-88.6	2.9	1.56e+00	0	46	104	0	60	1048575
2026-01-17 10:54:05.42	226.57	5.67	-85.2	-88.6	3.0	1.55e+00	0	47	104	0	60	1048574
2026-01-17 10:54:06.43	226.67	5.72	-85.2	-88.6	3.0	1.56e+00	0	47	104	0	60	1048575
2026-01-17 10:54:07.43	226.77	5.78	-85.2	-88.6	3.1	1.56e+00	0	46	104	0	60	1048573
2026-01-17 10:54:08.44	226.88	5.83	-85.2	-88.6	3.1	1.55e+00	0	46	104	0	60	1048572
2026-01-17 10:54:09.44	226.98	5.89	-85.2	-88.6	3.1	1.56e+00	0	46	104	0	60	1048574
2026-01-17 10:54:10.45	227.08	5.95	-85.2	-88.6	3.1	1.56e+00	0	47	104	0	60	1048574
2026-01-17 10:54:11.46	227.19	6.00	-85.2	-88.6	3.1	1.56e+00	0	46	104	0	60	1048574
2026-01-17 10:54:12.47	227.29	6.06	-85.2	-88.6	3.1	1.56e+00	0	46	104	0	60	1048573
2026-01-17 10:54:13.47	227.40	6.12	-85.2	-88.6	2.9	1.56e+00	0	46	104	0	60	1048572
2026-01-17 10:54:14.48	227.50	6.17	-85.2	-88.6	3.0	1.55e+00	0	46	104	0	60	1048575
2026-01-17 10:54:15.49	227.61	6.23	-85.2	-88.6	2.9	1.56e+00	0	46	104	0	60	1048575
2026-01-17 10:54:16.50	227.71	6.29	-85.2	-88.6	3.2	1.56e+00	0	46	104	0	60	1048575
2026-01-17 10:54:17.51	227.82	6.34	-83.9	-88.6	3.1	1.56e+00	0	47	104	0	60	1048575
2026-01-17 10:54:18.51	227.92	6.40	-85.2	-88.6	3.2	1.55e+00	0	47	104	0	60	1048575
2026-01-17 10:54:19.52	228.03	6.46	-85.2	-88.6	3.2	1.56e+00	0	47	104	0	60	1048575
2026-01-17 10:54:20.53	228.14	6.51	-84.3	-88.6	2.8	1.56e+00	0	47	104	0	60	1048575
2026-01-17 10:54:21.54	228.25	6.57	-85.2	-88.6	3.1	1.55e+00	0	47	104	0	60	1048574
2026-01-17 10:54:22.54	228.36	6.63	-85.2	-88.6	3.0	1.56e+00	0	47	104	0	60	1048575
2026-01-17 10:54:23.54	228.46	6.68	-85.2	-88.6	3.2	1.56e+00	0	47	104	0	60	1048575
2026-01-17 10:54:24.55	228.57	6.74	-85.2	-88.6	3.0	1.56e+00	0	47	104	0	60	1048573
2026-01-17 10:54:25.55	228.68	6.80	-85.2	-88.6	3.0	1.56e+00	0	47	104	0	60	1048575
2026-01-17 10:54:26.56	228.79	6.85	-85.2	-88.6	2.8	1.56e+00	0	47	104	0	60	1048574
2026-01-17 10:54:27.57	228.90	6.91	-84.7	-88.6	3.2	1.56e+00	0	46	104	0	60	1048575
2026-01-17 10:54:28.58	229.01	6.97	-85.2	-88.6	3.1	1.56e+00	0	47	104	0	60	1048574
2026-01-17 10:54:29.58	229.12	7.03	-85.2	-88.6	2.9	1.56e+00	0	46	104	0	60	1048572
2026-01-17 10:54:30.59	229.24	7.08	-85.2	-88.6	3.0	1.55e+00	0	47	104	0	60	1048575
2026-01-17 10:54:31.60	229.35	7.14	-85.2	-88.6	2.9	1.55e+00	0	47	104	0	60	1048575
2026-01-17 10:54:32.61	229.46	7.20	-85.2	-88.6	2.9	1.56e+00	0	47	104	0	60	1048575
2026-01-17 10:54:33.61	229.57	7.26	-85.2	-88.6	3.0	1.55e+00	0	47	104	0	60	1048572
2026-01-17 10:54:34.62	229.69	7.31	-85.2	-88.6	2.9	1.56e+00	0	47	104	0	60	1048575
2026-01-17 10:54:35.63	229.80	7.37	-85.2	-88.6	3.0	1.56e+00	0	47	104	0	60	1048575
2026-01-17 10:54:36.64	229.92	7.43	-85.2	-88.6	3.1	1.55e+00	0	47	104	0	60	1048575
2026-01-17 10:54:37.64	230.03	7.48	-84.7	-88.6	3.0	1.56e+00	0	47	104	0	60	1048575
2026-01-17 10:54:38.65	230.14	7.54	-85.2	-88.6	3.1	1.56e+00	0	47	104	0	60	1048575
2026-01-17 10:54:39.66	230.26	7.60	-85.2	-88.6	3.0	1.56e+00	0	47	104	0	60	1048575
2026-01-17 10:54:40.67	230.38	7.66	-85.2	-88.6	2.8	1.56e+00	0	47	104	0	60	1048570
2026-01-17 10:54:41.67	230.49	7.72	-85.2	-88.6	2.8	1.56e+00	0	46	104	0	60	1048573
2026-01-17 10:54:42.68	230.61	7.77	-85.2	-88.6	3.0	1.56e+00	0	47	104	0	60	1048573
2026-01-17 10:54:43.69	230.73	7.83	-85.2	-88.6	3.0	1.55e+00	0	47	104	0	60	1048573
2026-01-17 10:54:44.69	230.84	7.89	-85.2	-88.6	3.2	1.56e+00	0	47	104	0	60	1048574
2026-01-17 10:54:45.70	230.96	7.95	-85.2	-88.6	2.9	1.56e+00	0	47	104	0	60	1048573
2026-01-17 10:54:46.71	231.08	8.00	-85.2	-88.6	3.0	1.55e+00	0	47	104	0	60	1048574
2026-01-17 10:54:47.71	231.20	8.06	-85.2	-88.6	3.0	1.55e+00	0	47	104	0	60	1048574
2026-01-17 10:54:48.72	231.32	8.12	-85.2	-88.6	3.1	1.56e+00	0	47	104	0	60	1048575
2026-01-17 10:54:49.73	231.44	8.18	-85.2	-88.6	3.0	1.56e+00	0	47	104	0	60	1048575
2026-01-17 10:54:50.73	231.56	8.23	-85.2	-88.6	3.1	1.56e+00	0	47	104	0	60	1048575
2026-01-17 10:54:51.74	231.68	8.29	-85.2	-88.6	2.8	1.56e+00	0	47	104	0	60	1048574
2026-01-17 10:54:52.75	231.80	8.35	-85.2	-88.6	3.1	1.56e+00	0	47	104	0	60	1048575
2026-01-17 10:54:53.75	231.92	8.41	-85.2	-88.6	2.9	1.56e+00	0	46	104	0	60	1048575
2026-01-17 10:54:54.76	232.04	8.47	-85.2	-88.6	2.9	1.55e+00	0	47	104	0	60	1048575
2026-01-17 10:54:55.76	232.17	8.52	-85.2	-88.6	3.2	1.55e+00	0	47	104	0	60	1048575
2026-01-17 10:54:56.77	232.29	8.58	-85.2	-88.6	3.2	1.55e+00	0	47	104	0	60	1048575
2026-01-17 10:54:57.78	232.41	8.64	-85.2	-88.6	3.0	1.56e+00	0	47	104	0	60	1048573
2026-01-17 10:54:58.78	232.54	8.70	-85.2	-88.6	3.1	1.56e+00	0	47	104	0	60	1048574
2026-01-17 10:54:59.79	232.66	8.76	-85.2	-88.6	3.3	1.55e+00	0	47	104	0	60	1048575
2026-01-17 10:55:00.80	232.79	8.81	-85.2	-88.6	2.9	1.56e+00	0	47	104	0	60	1048573
2026-01-17 10:55:01.81	232.91	8.87	-85.2	-88.6	3.0	1.56e+00	0	47	104	0	60	1048575
2026-01-17 10:55:02.81	233.04	8.93	-85.2	-88.6	3.0	1.56e+00	0	47	104	0	60	1048572
2026-01-17 10:55:03.82	233.17	8.99	-85.2	-88.6	3.0	1.56e+00	0	47	104	0	60	1048569
2026-01-17 10:55:04.83	233.29	9.05	-85.2	-88.6	3.0	1.56e+00	0	47	104	0	60	1048575
2026-01-17 10:55:05.84	233.42	9.11	-85.2	-88.6	3.1	1.55e+00	0	47	104	0	60	1048574
2026-01-17 10:55:06.85	233.55	9.16	-85.2	-88.6	2.8	1.56e+00	0	47	104	0	60	1048575
2026-01-17 10:55:07.86	233.68	9.22	-85.2	-88.6	3.0	1.56e+00	0	47	104	0	60	1048575
2026-01-17 10:55:08.86	233.81	9.28	-85.2	-88.6	3.1	1.56e+00	0	47	104	0	60	1048572
2026-01-17 10:55:09.87	233.94	9.34	-85.2	-88.6	3.1	1.56e+00	0	47	104	0	60	1048575
2026-01-17 10:55:10.87	234.06	9.40	-85.2	-88.6	3.1	1.55e+00	0	47	104	0	60	1048572
2026-01-17 10:55:11.88	234.20	9.45	-85.2	-88.6	2.8	1.56e+00	0	47	104	0	60	1048575
2026-01-17 10:55:12.89	234.33	9.51	-85.2	-88.6	2.9	1.56e+00	0	47	104	0	60	1048571
2026-01-17 10:55:13.90	234.46	9.57	-85.2	-88.6	2.9	1.56e+00	0	47	104	0	60	1048575
2026-01-17 10:55:14.91	234.59	9.63	-85.2	-88.6	3.0	1.56e+00	0	47	104	0	60	1048575
2026-01-17 10:55:15.91	234.72	9.69	-85.2	-88.6	3.1	1.56e+00	0	47	104	0	60	1048573
2026-01-17 10:55:16.92	234.86	9.75	-82.8	-88.6	3.0	1.56e+00	0	47	104	0	60	1048575
2026-01-17 10:55:17.93	234.99	9.80	-85.2	-88.6	2.9	1.56e+00	0	47	104	0	60	1048573
2026-01-17 10:55:18.94	235.12	9.86	-85.2	-88.6	3.0	1.55e+00	0	47	104	0	60	1048574
2026-01-17 10:55:19.94	235.26	9.92	-85.2	-88.6	3.2	1.56e+00	0	47	104	0	60	1048575
2026-01-17 10:55:20.95	235.39	9.98	-85.2	-88.6	3.0	1.56e+00	0	47	104	0	60	1048575
2026-01-17 10:55:21.96	235.53	10.04	-85.2	-88.6	3.1	1.56e+00	0	47	104	0	60	1048573
2026-01-17 10:55:22.96	235.66	10.09	-85.2	-88.6	3.0	1.56e+00	0	47	104	0	60	1048574
2026-01-17 10:55:23.96	235.80	10.15	-85.2	-88.6	3.0	1.55e+00	0	47	104	0	60	1048575
2026-01-17 10:55:24.97	235.94	10.21	-85.2	-88.6	3.0	1.56e+00	0	46	104	0	60	1048573
2026-01-17 10:55:25.98	236.07	10.27	-85.2	-88.6	2.9	1.56e+00	0	47	104	0	60	1048575
2026-01-17 10:55:26.98	236.21	10.33	-85.2	-88.6	3.1	1.56e+00	0	47	104	0	60	1048575
2026-01-17 10:55:27.99	236.35	10.39	-85.2	-88.6	3.0	1.56e+00	0	47	104	0	60	1048575
2026-01-17 10:55:29.00	236.49	10.44	-85.2	-88.6	3.1	1.56e+00	0	47	104	0	60	1048575
2026-01-17 10:55:30.00	236.63	10.50	-84.7	-88.6	3.0	1.56e+00	0	47	104	0	60	1048575
2026-01-17 10:55:31.01	236.77	10.56	-85.2	-88.6	3.2	1.56e+00	0	47	104	0	60	1048575
2026-01-17 10:55:32.02	236.91	10.62	-84.3	-88.6	3.1	1.55e+00	0	47	104	0	60	1048572
2026-01-17 10:55:33.03	237.05	10.68	-85.2	-88.6	2.9	1.56e+00	0	46	104	0	60	1048573
2026-01-17 10:55:34.03	237.19	10.73	-85.2	-88.6	2.8	1.56e+00	0	47	104	0	60	1048575
2026-01-17 10:55:35.04	237.34	10.79	-85.2	-88.6	3.0	1.56e+00	0	47	104	0	60	1048574
2026-01-17 10:55:36.05	237.48	10.85	-85.2	-88.6	2.9	1.56e+00	0	47	104	0	60	1048574
2026-01-17 10:55:37.06	237.62	10.91	-85.2	-88.6	3.1	1.55e+00	0	47	104	0	60	1048575
2026-01-17 10:55:38.07	237.77	10.97	-85.2	-88.6	2.9	1.56e+00	0	47	104	0	60	1048571
2026-01-17 10:55:39.07	237.91	11.03	-85.2	-88.6	2.9	1.56e+00	0	47	104	0	60	1048575
2026-01-17 10:55:40.08	238.06	11.08	-85.2	-88.6	2.7	1.55e+00	0	47	104	0	60	1048571
2026-01-17 10:55:41.09	238.20	11.14	-85.2	-88.6	3.1	1.56e+00	0	47	104	0	60	1048575
2026-01-17 10:55:42.10	238.35	11.20	-85.2	-88.6	3.1	1.56e+00	0	47	104	0	60	1048575
2026-01-17 10:55:43.10	238.50	11.26	-85.2	-88.6	2.9	1.56e+00	0	47	104	0	60	1048575
2026-01-17 10:55:44.11	238.64	11.32	-85.2	-88.6	2.8	1.56e+00	0	47	104	0	60	1048575
2026-01-17 10:55:45.11	238.79	11.37	-85.2	-88.6	3.1	1.55e+00	0	47	104	0	60	1048574
2026-01-17 10:55:46.12	238.94	11.43	-84.3	-88.6	2.9	1.56e+00	0	47	104	0	60	1048572
2026-01-17 10:55:47.13	239.09	11.49	-85.2	-88.6	3.1	1.56e+00	0	47	104	0	60	1048575
2026-01-17 10:55:48.14	239.24	11.55	-85.2	-88.6	2.9	1.56e+00	0	47	104	0	60	1048575
2026-01-17 10:55:49.14	239.39	11.60	-85.2	-88.6	2.9	1.56e+00	0	47	104	0	60	1048575
2026-01-17 10:55:50.15	239.54	11.66	-85.2	-88.6	2.9	1.56e+00	0	47	104	0	60	1048575
2026-01-17 10:55:51.15	239.69	11.72	-85.2	-88.6	3.0	1.56e+00	0	47	104	0	60	1048575
2026-01-17 10:55:52.16	239.84	11.78	-85.2	-88.6	3.0	1.56e+00	0	47	104	0	60	1048575
2026-01-17 10:55:53.17	240.00	11.83	-85.2	-88.6	3.0	1.56e+00	0	47	104	0	60	1048572
2026-01-17 10:55:54.18	240.15	11.89	-85.2	-88.6	2.9	1.56e+00	0	47	104	0	60	1048574
2026-01-17 10:55:55.19	240.30	11.95	-85.2	-88.6	2.8	1.56e+00	0	47	104	0	60	1048575
2026-01-17 10:55:56.19	240.46	12.01	-85.2	-88.6	3.0	1.56e+00	0	47	104	0	60	1048575
2026-01-17 10:55:57.20	240.61	12.06	-85.2	-88.6	3.1	1.56e+00	0	47	104	0	60	1048574
2026-01-17 10:55:58.21	240.77	12.12	-85.2	-88.6	2.9	1.55e+00	0	47	104	0	60	1048575
2026-01-17 10:55:59.22	240.92	12.18	-85.2	-88.6	3.0	1.56e+00	0	47	104	0	60	1048574
2026-01-17 10:56:00.23	241.08	12.24	-85.2	-88.6	3.1	1.55e+00	0	47	104	0	60	1048575
2026-01-17 10:56:01.23	241.24	12.29	-85.2	-88.6	3.0	1.56e+00	0	47	104	0	60	1048574
2026-01-17 10:56:02.24	241.40	12.35	-85.2	-88.6	3.2	1.56e+00	0	47	104	0	60	1048569
2026-01-17 10:56:03.25	241.55	12.41	-85.2	-88.6	3.1	1.56e+00	0	47	104	0	60	1048575
2026-01-17 10:56:04.25	241.71	12.46	-85.2	-88.6	3.2	1.56e+00	0	47	104	0	60	1048574
2026-01-17 10:56:05.26	241.87	12.52	-85.2	-88.6	2.7	1.55e+00	0	47	104	0	60	1048574
2026-01-17 10:56:06.27	242.03	12.58	-85.2	-88.6	3.1	1.56e+00	0	47	104	0	60	1048575
2026-01-17 10:56:07.28	242.19	12.64	-84.7	-88.6	3.1	1.55e+00	0	47	104	0	60	1048571
2026-01-17 10:56:08.29	242.36	12.69	-85.2	-88.6	3.2	1.56e+00	0	47	104	0	60	1048575
2026-01-17 10:56:09.30	242.52	12.75	-85.2	-88.6	3.1	1.56e+00	0	47	104	0	60	1048575
2026-01-17 10:56:10.31	242.68	12.81	-85.2	-88.6	3.1	1.56e+00	0	47	104	0	60	1048574
2026-01-17 10:56:11.31	242.84	12.86	-85.2	-88.6	2.8	1.56e+00	0	47	104	0	60	1048575
2026-01-17 10:56:12.32	243.01	12.92	-84.7	-88.6	3.0	1.55e+00	0	47	104	0	60	1048575
2026-01-17 10:56:13.32	243.17	12.97	-85.2	-88.6	3.1	1.56e+00	0	47	104	0	60	1048575
2026-01-17 10:56:14.33	243.34	13.03	-85.2	-88.6	2.9	1.56e+00	0	47	104	0	60	1048575
2026-01-17 10:56:15.34	243.50	13.09	-85.2	-88.6	2.9	1.56e+00	0	47	104	0	60	1048573
2026-01-17 10:56:16.35	243.67	13.14	-85.2	-88.6	3.1	1.55e+00	0	47	104	0	60	1048575
2026-01-17 10:56:17.35	243.83	13.20	-85.2	-88.6	3.1	1.56e+00	0	47	104	0	60	1048573
2026-01-17 10:56:18.35	244.00	13.25	-85.2	-88.6	3.1	1.56e+00	0	47	104	0	60	1048573
2026-01-17 10:56:19.36	244.17	13.31	-85.2	-88.6	3.0	1.56e+00	0	47	104	0	60	1048570
2026-01-17 10:56:20.36	244.34	13.37	-85.2	-88.6	3.1	1.55e+00	0	47	104	0	60	1048571
2026-01-17 10:56:21.37	244.51	13.42	-85.2	-88.6	3.0	1.56e+00	0	47	104	0	60	1048573
2026-01-17 10:56:22.37	244.68	13.48	-85.2	-88.6	3.1	1.56e+00	0	47	104	0	60	1048575
2026-01-17 10:56:23.38	244.85	13.53	-85.2	-88.6	3.1	1.55e+00	0	47	104	0	60	1048572
2026-01-17 10:56:24.38	245.02	13.59	-85.2	-88.6	3.0	1.55e+00	0	47	104	0	60	1048575
2026-01-17 10:56:25.40	245.19	13.64	-85.2	-88.6	3.1	1.56e+00	0	47	104	0	60	1048575
2026-01-17 10:56:26.40	245.36	13.70	-85.2	-88.6	3.0	1.56e+00	0	47	104	0	60	1048571
2026-01-17 10:56:27.41	245.53	13.75	-85.2	-88.6	3.0	1.56e+00	0	47	104	0	60	1048574
2026-01-17 10:56:28.42	245.71	13.81	-85.2	-88.6	2.8	1.56e+00	0	47	104	0	60	1048575
2026-01-17 10:56:29.42	245.88	13.86	-85.2	-88.6	2.9	1.56e+00	0	47	104	0	60	1048575
2026-01-17 10:56:30.43	246.06	13.92	-85.2	-88.6	3.2	1.56e+00	0	47	104	0	60	1048575
2026-01-17 10:56:31.44	246.23	13.97	-85.2	-88.6	3.2	1.56e+00	0	47	104	0	60	1048574
2026-01-17 10:56:32.45	246.41	14.03	-85.2	-88.6	3.2	1.56e+00	0	47	104	0	60	1048568
2026-01-17 10:56:33.45	246.58	14.08	-85.2	-88.6	2.9	1.56e+00	0	47	104	0	60	1048575
2026-01-17 10:56:34.45	246.76	14.13	-85.2	-88.6	3.1	1.55e+00	0	47	104	0	60	1048574
2026-01-17 10:56:35.46	246.94	14.19	-85.2	-88.6	3.2	1.56e+00	0	47	104	0	60	1048574
2026-01-17 10:56:36.47	247.12	14.24	-85.2	-88.6	2.7	1.55e+00	0	47	104	0	60	1048574
2026-01-17 10:56:37.48	247.30	14.30	-85.2	-88.6	3.0	1.56e+00	0	47	104	0	60	1048575
2026-01-17 10:56:38.48	247.48	14.35	-85.2	-88.6	3.2	1.55e+00	0	47	104	0	60	1048574
2026-01-17 10:56:39.49	247.66	14.40	-85.2	-88.6	3.0	1.56e+00	0	47	104	0	60	1048573
2026-01-17 10:56:40.50	247.84	14.46	-85.2	-88.6	2.9	1.55e+00	0	47	104	0	60	1048570
2026-01-17 10:56:41.50	248.02	14.51	-85.2	-88.6	2.9	1.56e+00	0	47	104	0	60	1048571
2026-01-17 10:56:42.51	248.20	14.56	-85.2	-88.6	3.3	1.55e+00	0	47	104	0	60	1048574
2026-01-17 10:56:43.52	248.39	14.61	-85.2	-88.6	3.2	1.56e+00	0	47	104	0	60	1048574
2026-01-17 10:56:44.53	248.57	14.67	-85.2	-88.6	3.0	1.56e+00	0	47	104	0	60	1048575
2026-01-17 10:56:45.54	248.75	14.72	-85.2	-88.6	3.1	1.56e+00	0	47	104	0	60	1048575
2026-01-17 10:56:46.54	248.94	14.77	-85.2	-88.6	3.1	1.56e+00	0	47	104	0	60	1048574
2026-01-17 10:56:47.55	249.12	14.82	-85.2	-88.6	3.3	1.56e+00	0	47	104	0	60	1048575
2026-01-17 10:56:48.55	249.31	14.88	-85.2	-88.6	3.1	1.56e+00	0	47	104	0	60	1048575
2026-01-17 10:56:49.56	249.50	14.93	-85.2	-88.6	3.0	1.55e+00	0	47	104	0	60	1048575
2026-01-17 10:56:50.57	249.68	14.98	-85.2	-88.6	3.1	1.56e+00	0	47	104	0	60	1048574
2026-01-17 10:56:51.57	249.87	15.03	-85.2	-88.6	3.0	1.55e+00	0	47	104	0	60	1048575
2026-01-17 10:56:52.58	250.06	15.08	-85.2	-88.6	3.1	1.55e+00	0	47	104	0	60	1048575
2026-01-17 10:56:53.59	250.25	15.13	-85.2	-88.6	3.0	1.56e+00	0	47	104	0	60	1048575
2026-01-17 10:56:54.59	250.44	15.18	-85.2	-88.6	2.9	1.56e+00	0	47	104	0	60	1048574
2026-01-17 10:56:55.60	250.63	15.23	-85.2	-88.6	3.1	1.56e+00	0	47	104	0	60	1048575
2026-01-17 10:56:56.61	250.82	15.29	-85.2	-88.6	2.9	1.56e+00	0	47	104	0	60	1048574
2026-01-17 10:56:57.61	251.01	15.34	-85.2	-88.6	3.1	1.56e+00	0	47	104	0	60	1048575
2026-01-17 10:56:58.62	251.20	15.39	-85.2	-88.6	3.0	1.56e+00	0	47	104	0	60	1048571
2026-01-17 10:56:59.63	251.40	15.44	-85.2	-88.6	3.2	1.56e+00	0	47	104	0	60	1048575
2026-01-17 10:57:00.64	251.59	15.49	-85.2	-88.6	2.9	1.55e+00	0	47	104	0	60	1048575
2026-01-17 10:57:01.65	251.79	15.54	-85.2	-88.6	3.1	1.56e+00	0	47	104	0	60	1048575
2026-01-17 10:57:02.66	251.98	15.58	-85.2	-88.6	3.1	1.55e+00	0	47	104	0	60	1048573
2026-01-17 10:57:03.66	252.18	15.63	-85.2	-88.6	3.0	1.56e+00	0	47	104	0	60	1048575
2026-01-17 10:57:04.67	252.37	15.68	-85.2	-88.6	3.0	1.55e+00	0	47	104	0	60	1048575
2026-01-17 10:57:05.67	252.57	15.73	-85.2	-88.6	3.0	1.55e+00	0	47	104	0	60	1048575
2026-01-17 10:57:06.68	252.77	15.78	-85.2	-88.6	2.9	1.55e+00	0	47	104	0	60	1048575
2026-01-17 10:57:07.68	252.96	15.83	-85.2	-88.6	3.0	1.56e+00	0	47	104	0	60	1048575
2026-01-17 10:57:08.69	253.16	15.88	-85.2	-88.6	3.0	1.56e+00	0	47	104	0	60	1048574
2026-01-17 10:57:09.69	253.36	15.92	-85.2	-88.6	2.9	1.56e+00	0	47	104	0	60	1048574
2026-01-17 10:57:10.69	253.56	15.97	-85.2	-88.6	3.0	1.56e+00	0	47	104	0	60	1048575
2026-01-17 10:57:11.70	253.76	16.02	-85.2	-88.6	3.0	1.56e+00	0	47	104	0	60	1048575
2026-01-17 10:57:12.71	253.96	16.06	-85.2	-88.6	2.8	1.56e+00	0	47	104	0	60	1048574
2026-01-17 10:57:13.71	254.16	16.11	-85.2	-88.6	3.0	1.56e+00	0	47	104	0	60	1048572
2026-01-17 10:57:14.72	254.36	16.16	-85.2	-88.6	3.1	1.56e+00	0	47	104	0	60	1048574
2026-01-17 10:57:15.73	254.57	16.20	-84.7	-88.6	3.0	1.56e+00	0	47	104	0	60	1048573
2026-01-17 10:57:16.74	254.77	16.25	-85.2	-88.6	3.0	1.56e+00	0	47	104	0	60	1048572
2026-01-17 10:57:17.75	254.98	16.30	-85.2	-88.6	2.8	1.55e+00	0	47	104	0	60	1048572
2026-01-17 10:57:18.75	255.18	16.34	-85.2	-88.6	3.0	1.56e+00	0	47	104	0	60	1048573
2026-01-17 10:57:19.76	255.38	16.39	-85.2	-88.6	3.1	1.55e+00	0	47	104	0	60	1048575
2026-01-17 10:57:20.77	255.59	16.43	-85.2	-88.6	3.1	1.55e+00	0	47	104	0	60	1048575
2026-01-17 10:57:21.77	255.80	16.48	-85.2	-88.6	3.0	1.55e+00	0	47	104	0	60	1048575
2026-01-17 10:57:22.77	256.00	16.52	-82.8	-88.6	3.2	1.55e+00	0	47	104	0	60	1048575
2026-01-17 10:57:23.78	256.21	16.57	-85.2	-88.6	3.1	1.56e+00	0	47	104	0	60	1048575
2026-01-17 10:57:24.79	256.42	16.61	-85.2	-88.6	3.0	1.55e+00	0	47	104	0	60	1048575
2026-01-17 10:57:25.79	256.63	16.65	-85.2	-88.6	2.7	1.55e+00	0	47	104	0	60	1048573
2026-01-17 10:57:26.80	256.84	16.70	-85.2	-88.6	2.9	1.56e+00	0	47	104	0	60	1048572
2026-01-17 10:57:27.81	257.05	16.74	-85.2	-88.6	3.1	1.56e+00	0	47	104	0	60	1048575
2026-01-17 10:57:28.82	257.26	16.78	-85.2	-88.6	3.2	1.55e+00	0	47	104	0	60	1048574
2026-01-17 10:57:29.83	257.47	16.83	-85.2	-88.6	3.0	1.55e+00	0	47	104	0	60	1048574
2026-01-17 10:57:30.83	257.68	16.87	-85.2	-88.6	3.1	1.56e+00	0	47	104	0	60	1048574
2026-01-17 10:57:31.84	257.89	16.91	-85.2	-88.6	3.1	1.56e+00	0	47	104	0	60	1048574
2026-01-17 10:57:32.85	258.11	16.95	-85.2	-88.6	3.0	1.55e+00	0	47	104	0	60	1048574
2026-01-17 10:57:33.86	258.32	16.99	-85.2	-88.6	3.1	1.55e+00	0	47	104	0	60	1048574
2026-01-17 10:57:34.87	258.53	17.03	-85.2	-88.6	3.0	1.56e+00	0	47	104	0	60	1048575
2026-01-17 10:57:35.88	258.75	17.07	-85.2	-88.6	2.9	1.56e+00	0	47	104	0	60	1048572
2026-01-17 10:57:36.88	258.96	17.11	-85.2	-88.6	3.0	1.56e+00	0	47	104	0	60	1048575
2026-01-17 10:57:37.89	259.18	17.16	-85.2	-88.6	3.0	1.56e+00	0	47	104	0	60	1048572
2026-01-17 10:57:38.90	259.40	17.19	-85.2	-88.6	3.0	1.56e+00	0	47	104	0	60	1048575
2026-01-17 10:57:39.90	259.61	17.23	-85.2	-88.6	2.9	1.55e+00	0	47	104	0	60	1048575
2026-01-17 10:57:40.91	259.83	17.27	-85.2	-88.6	2.8	1.56e+00	0	47	104	0	60	1048572
2026-01-17 10:57:41.91	260.05	17.31	-85.2	-88.6	3.1	1.56e+00	0	47	104	0	60	1048574
2026-01-17 10:57:42.92	260.26	17.35	-85.2	-88.6	3.2	1.56e+00	0	47	104	0	60	1048574
2026-01-17 10:57:43.93	260.48	17.39	-85.2	-88.6	2.8	1.56e+00	0	47	104	0	60	1048575
2026-01-17 10:57:44.94	260.70	17.43	-85.2	-88.6	2.9	1.56e+00	0	47	104	0	60	1048575
2026-01-17 10:57:45.95	260.92	17.46	-85.2	-88.6	3.0	1.56e+00	0	47	104	0	60	1048575
2026-01-17 10:57:46.95	261.14	17.50	-85.2	-88.6	3.0	1.55e+00	0	47	104	0	60	1048575
2026-01-17 10:57:47.96	261.37	17.54	-84.7	-88.6	3.1	1.56e+00	0	47	104	0	60	1048575
2026-01-17 10:57:48.97	261.59	17.57	-85.2	-88.6	3.2	1.56e+00	0	47	104	0	60	1048573
2026-01-17 10:57:49.98	261.81	17.61	-85.2	-88.6	2.9	1.56e+00	0	47	104	0	60	1048574
2026-01-17 10:57:50.99	262.03	17.65	-85.2	-88.6	3.0	1.56e+00	0	47	104	0	60	1048575
2026-01-17 10:57:51.99	262.26	17.68	-85.2	-88.6	2.9	1.56e+00	0	47	104	0	60	1048574
2026-01-17 10:57:53.00	262.48	17.72	-85.2	-88.6	3.0	1.56e+00	0	47	104	0	60	1048575
2026-01-17 10:57:54.00	262.70	17.75	-85.2	-88.6	3.0	1.56e+00	0	47	104	0	60	1048575
2026-01-17 10:57:55.01	262.93	17.78	-85.2	-88.6	3.1	1.56e+00	0	47	104	0	60	1048573
2026-01-17 10:57:56.02	263.15	17.82	-85.2	-88.6	3.1	1.55e+00	0	47	104	0	60	1048573
2026-01-17 10:57:57.02	263.38	17.85	-85.2	-88.6	3.0	1.56e+00	0	47	104	0	60	1048571
2026-01-17 10:57:58.03	263.60	17.88	-85.2	-88.6	3.2	1.55e+00	0	47	104	0	60	1048575
2026-01-17 10:57:59.03	263.83	17.92	-85.2	-88.6	2.8	1.56e+00	0	47	104	0	60	1048575
2026-01-17 10:58:00.04	264.06	17.95	-85.2	-88.6	2.8	1.56e+00	0	47	104	0	60	1048575
2026-01-17 10:58:01.05	264.28	17.98	-85.2	-88.6	2.8	1.56e+00	0	47	104	0	60	1048575
2026-01-17 10:58:02.05	264.51	18.01	-85.2	-88.6	2.8	1.56e+00	0	47	104	0	60	1048575
2026-01-17 10:58:03.06	264.74	18.04	-85.2	-88.6	2.9	1.55e+00	0	47	104	0	60	1048575
2026-01-17 10:58:04.06	264.97	18.07	-85.2	-88.6	2.8	1.56e+00	0	47	104	0	60	1048574
2026-01-17 10:58:05.07	265.20	18.10	-85.2	-88.6	3.1	1.55e+00	0	47	104	0	60	1048575
2026-01-17 10:58:06.08	265.43	18.13	-85.2	-88.6	3.0	1.56e+00	0	47	104	0	60	1048570
2026-01-17 10:58:07.09	265.66	18.16	-85.2	-88.6	2.7	1.56e+00	0	47	104	0	60	1048574
2026-01-17 10:58:08.09	265.89	18.19	-84.3	-88.6	2.9	1.56e+00	0	47	104	0	60	1048574
2026-01-17 10:58:09.10	266.12	18.22	-85.2	-88.6	3.0	1.56e+00	0	47	104	0	60	1048575
2026-01-17 10:58:10.11	266.35	18.25	-85.2	-88.6	3.0	1.56e+00	0	47	104	0	60	1048574
2026-01-17 10:58:11.11	266.58	18.28	-85.2	-88.6	3.1	1.56e+00	0	47	104	0	60	1048575
2026-01-17 10:58:12.12	266.81	18.30	-85.2	-88.6	2.8	1.56e+00	0	47	104	0	60	1048575
2026-01-17 10:58:13.13	267.05	18.33	-85.2	-88.6	2.9	1.55e+00	0	47	104	0	60	1048575
2026-01-17 10:58:14.13	267.28	18.36	-85.2	-88.6	3.1	1.56e+00	0	47	104	0	60	1048575
2026-01-17 10:58:15.14	267.51	18.38	-85.2	-88.6	3.1	1.55e+00	0	47	104	0	60	1048575
2026-01-17 10:58:16.14	267.74	18.41	-85.2	-88.6	3.2	1.56e+00	0	47	104	0	60	1048571
2026-01-17 10:58:17.15	267.98	18.43	-85.2	-88.6	3.1	1.56e+00	0	47	104	0	60	1048572
2026-01-17 10:58:18.15	268.21	18.46	-85.2	-88.6	3.0	1.56e+00	0	47	104	0	60	1048575
2026-01-17 10:58:19.16	268.45	18.48	-85.2	-88.6	3.1	1.56e+00	0	47	104	0	60	1048575
2026-01-17 10:58:20.17	268.68	18.51	-85.2	-88.6	3.2	1.55e+00	0	47	104	0	60	1048574
2026-01-17 10:58:21.17	268.92	18.53	-85.2	-88.6	2.9	1.56e+00	0	47	104	0	60	1048574
2026-01-17 10:58:22.18	269.15	18.55	-85.2	-88.6	3.0	1.56e+00	0	47	104	0	60	1048572
2026-01-17 10:58:23.19	269.39	18.58	-85.2	-88.6	3.0	1.55e+00	0	47	104	0	60	1048571
2026-01-17 10:58:24.19	269.62	18.60	-85.2	-88.6	2.9	1.55e+00	0	47	104	0	60	1048572
2026-01-17 10:58:25.20	269.86	18.62	-85.2	-88.6	3.0	1.55e+00	0	47	104	0	60	1048575
2026-01-17 10:58:26.21	270.10	18.64	-85.2	-88.6	3.0	1.56e+00	0	47	104	0	60	1048573
2026-01-17 10:58:27.22	270.34	18.66	-85.2	-88.6	3.0	1.56e+00	0	47	104	0	60	1048574
2026-01-17 10:58:28.22	270.57	18.68	-83.9	-88.6	2.9	1.56e+00	0	47	104	0	60	1048572
2026-01-17 10:58:29.23	270.81	18.70	-85.2	-88.6	3.1	1.55e+00	0	47	104	0	60	1048575
2026-01-17 10:58:30.24	271.05	18.72	-85.2	-88.6	3.0	1.55e+00	0	47	104	0	60	1048574
2026-01-17 10:58:31.25	271.29	18.74	-85.2	-88.6	3.0	1.56e+00	0	47	104	0	60	1048574
2026-01-17 10:58:32.26	271.53	18.76	-85.2	-88.6	3.2	1.56e+00	0	47	104	0	60	1048572
2026-01-17 10:58:33.26	271.77	18.78	-85.2	-88.6	3.0	1.56e+00	0	47	104	0	60	1048575
2026-01-17 10:58:34.27	272.01	18.79	-85.2	-88.6	2.9	1.56e+00	0	47	104	0	60	1048574
2026-01-17 10:58:35.28	272.25	18.81	-84.3	-88.6	2.8	1.56e+00	0	47	104	0	60	1048570
2026-01-17 10:58:36.29	272.49	18.83	-85.2	-88.6	2.8	1.56e+00	0	47	104	0	60	1048574
2026-01-17 10:58:37.29	272.73	18.84	-85.2	-88.6	3.0	1.56e+00	0	47	104	0	60	1048574
2026-01-17 10:58:38.29	272.97	18.86	-84.7	-88.6	3.1	1.56e+00	0	47	104	0	60	1048575
2026-01-17 10:58:39.30	273.21	18.87	-85.2	-88.6	2.9	1.56e+00	0	47	104	0	60	1048572
2026-01-17 10:58:40.31	273.45	18.89	-85.2	-88.6	3.3	1.56e+00	0	47	104	0	60	1048575
2026-01-17 10:58:41.31	273.69	18.90	-85.2	-88.6	2.9	1.56e+00	0	47	104	0	60	1048574
2026-01-17 10:58:42.32	273.93	18.91	-85.2	-88.6	3.1	1.56e+00	0	47	104	0	60	1048573
2026-01-17 10:58:43.33	274.18	18.93	-85.2	-88.6	3.0	1.56e+00	0	47	104	0	60	1048573
2026-01-17 10:58:44.34	274.42	18.94	-85.2	-88.6	3.0	1.56e+00	0	47	104	0	60	1048575
2026-01-17 10:58:45.34	274.66	18.95	-85.2	-88.6	3.2	1.55e+00	0	47	104	0	60	1048575
2026-01-17 10:58:46.35	274.90	18.96	-85.2	-88.6	3.1	1.56e+00	0	47	104	0	60	1048573
2026-01-17 10:58:47.36	275.14	18.98	-85.2	-88.6	2.8	1.56e+00	0	47	104	0	60	1048575
2026-01-17 10:58:48.37	275.39	18.99	-85.2	-88.6	3.0	1.56e+00	0	47	104	0	60	1048575
2026-01-17 10:58:49.38	275.63	19.00	-85.2	-88.6	3.0	1.56e+00	0	47	104	0	60	1048575
2026-01-17 10:58:50.39	275.87	19.01	-85.2	-88.6	2.9	1.56e+00	0	47	104	0	60	1048575
2026-01-17 10:58:51.39	276.12	19.01	-85.2	-88.6	3.0	1.56e+00	0	47	104	0	60	1048575
2026-01-17 10:58:52.40	276.36	19.02	-85.2	-88.6	3.2	1.56e+00	0	47	104	0	60	1048573
2026-01-17 10:58:53.41	276.60	19.03	-84.7	-88.6	3.0	1.56e+00	0	47	104	0	60	1048575
2026-01-17 10:58:54.42	276.85	19.04	-85.2	-88.6	2.9	1.56e+00	0	47	104	0	60	1048573
2026-01-17 10:58:55.42	277.09	19.05	-85.2	-88.6	3.1	1.55e+00	0	47	104	0	60	1048575
2026-01-17 10:58:56.43	277.33	19.05	-85.2	-88.6	2.9	1.56e+00	0	47	104	0	60	1048574
2026-01-17 10:58:57.43	277.58	19.06	-85.2	-88.6	3.1	1.56e+00	0	47	104	0	60	1048575
2026-01-17 10:58:58.44	277.82	19.06	-85.2	-88.6	3.1	1.55e+00	0	47	104	0	60	1048575
2026-01-17 10:58:59.44	278.06	19.07	-85.2	-88.6	3.0	1.56e+00	0	47	104	0	60	1048574
2026-01-17 10:59:00.45	278.31	19.07	-85.2	-88.6	2.9	1.56e+00	0	47	104	0	60	1048575
2026-01-17 10:59:01.45	278.55	19.08	-85.2	-88.6	3.1	1.56e+00	0	47	104	0	60	1048575
2026-01-17 10:59:02.45	278.79	19.08	-85.2	-88.6	3.2	1.56e+00	0	47	104	0	60	1048575
2026-01-17 10:59:03.46	279.04	19.08	-85.2	-88.6	3.0	1.55e+00	0	47	104	0	60	1048574
2026-01-17 10:59:04.46	279.28	19.09	-85.2	-88.6	2.8	1.56e+00	0	47	104	0	60	1048575
2026-01-17 10:59:05.46	279.52	19.09	-85.2	-88.6	3.0	1.56e+00	0	47	104	0	60	1048573
2026-01-17 10:59:06.47	279.77	19.09	-85.2	-88.6	3.0	1.55e+00	0	47	104	0	60	1048575
2026-01-17 10:59:07.47	280.01	19.09	-85.2	-88.6	3.0	1.56e+00	0	47	104	0	60	1048574
2026-01-17 10:59:08.48	280.25	19.09	-85.2	-88.6	3.1	1.56e+00	0	47	104	0	60	1048575
2026-01-17 10:59:09.48	280.49	19.09	-85.2	-88.6	2.9	1.55e+00	0	47	104	0	60	1048575
2026-01-17 10:59:10.49	280.74	19.09	-85.2	-88.6	3.0	1.56e+00	0	47	104	0	60	1048575
2026-01-17 10:59:11.49	280.98	19.09	-85.2	-88.6	3.0	1.55e+00	0	47	104	0	60	1048574
2026-01-17 10:59:12.50	281.23	19.09	-85.2	-88.6	3.0	1.56e+00	0	47	104	0	60	1048575
2026-01-17 10:59:13.51	281.47	19.09	-84.7	-88.6	3.2	1.56e+00	0	47	104	0	60	1048574
2026-01-17 10:59:14.51	281.71	19.09	-85.2	-88.6	3.1	1.56e+00	0	47	104	0	60	1048574
2026-01-17 10:59:15.52	281.96	19.08	-85.2	-88.6	3.2	1.56e+00	0	47	104	0	60	1048575
2026-01-17 10:59:16.53	282.20	19.08	-85.2	-88.6	2.8	1.56e+00	0	47	104	0	60	1048573
2026-01-17 10:59:17.54	282.45	19.07	-85.2	-88.6	3.0	1.56e+00	0	47	104	0	60	1048572
2026-01-17 10:59:18.54	282.69	19.07	-85.2	-88.6	3.1	1.56e+00	0	47	104	0	60	1048575
2026-01-17 10:59:19.55	282.93	19.07	-85.2	-88.6	3.3	1.56e+00	0	47	104	0	60	1048575
2026-01-17 10:59:20.55	283.18	19.06	-85.2	-88.6	3.0	1.55e+00	0	47	104	0	60	1048574
2026-01-17 10:59:21.56	283.42	19.05	-85.2	-88.6	3.0	1.56e+00	0	47	104	0	60	1048574
2026-01-17 10:59:22.57	283.66	19.05	-85.2	-88.6	2.9	1.56e+00	0	47	104	0	60	1048575
2026-01-17 10:59:23.57	283.91	19.04	-85.2	-88.6	3.0	1.56e+00	0	47	104	0	60	1048575
2026-01-17 10:59:24.58	284.15	19.03	-85.2	-88.6	3.0	1.56e+00	0	47	104	0	60	1048575
2026-01-17 10:59:25.58	284.39	19.03	-85.2	-88.6	3.2	1.55e+00	0	47	104	0	60	1048575
2026-01-17 10:59:26.59	284.63	19.02	-85.2	-88.6	2.7	1.56e+00	0	47	104	0	60	1048573
2026-01-17 10:59:27.60	284.88	19.01	-85.2	-88.6	3.3	1.55e+00	0	47	104	0	60	1048575
2026-01-17 10:59:28.60	285.12	19.00	-85.2	-88.6	3.0	1.56e+00	0	47	104	0	60	1048575
2026-01-17 10:59:29.61	285.36	18.99	-85.2	-88.6	3.1	1.56e+00	0	47	104	0	60	1048575
2026-01-17 10:59:30.62	285.61	18.98	-85.2	-88.6	3.0	1.56e+00	0	47	104	0	60	1048574
2026-01-17 10:59:31.63	285.85	18.97	-85.2	-88.6	2.9	1.55e+00	0	47	104	0	60	1048575
2026-01-17 10:59:32.64	286.09	18.95	-85.2	-88.6	2.9	1.56e+00	0	47	104	0	60	1048573
2026-01-17 10:59:33.64	286.33	18.94	-85.2	-88.6	2.9	1.56e+00	0	47	104	0	60	1048575
2026-01-17 10:59:34.65	286.57	18.93	-85.2	-88.6	3.0	1.56e+00	0	47	104	0	60	1048575
2026-01-17 10:59:35.65	286.81	18.92	-85.2	-88.6	3.1	1.55e+00	0	47	104	0	60	1048574
2026-01-17 10:59:36.66	287.06	18.90	-85.2	-88.6	3.0	1.55e+00	0	47	104	0	60	1048575
2026-01-17 10:59:37.66	287.29	18.89	-85.2	-88.6	2.9	1.56e+00	0	47	104	0	60	1048573
2026-01-17 10:59:38.67	287.54	18.88	-85.2	-88.6	2.8	1.56e+00	0	47	104	0	60	1048573
2026-01-17 10:59:39.67	287.77	18.86	-85.2	-88.6	3.0	1.56e+00	0	47	104	0	60	1048575
2026-01-17 10:59:40.68	288.02	18.85	-85.2	-88.6	2.9	1.55e+00	0	47	104	0	60	1048573
2026-01-17 10:59:41.69	288.26	18.83	-85.2	-88.6	2.9	1.56e+00	0	47	104	0	60	1048575
2026-01-17 10:59:42.70	288.50	18.81	-83.9	-88.6	3.1	1.56e+00	0	47	104	0	60	1048575
2026-01-17 10:59:43.71	288.74	18.80	-85.2	-88.6	3.0	1.56e+00	0	47	104	0	60	1048575
2026-01-17 10:59:44.71	288.97	18.78	-85.2	-88.6	2.9	1.56e+00	0	47	104	0	60	1048573
2026-01-17 10:59:45.72	289.21	18.76	-85.2	-88.6	3.0	1.56e+00	0	47	104	0	60	1048575
2026-01-17 10:59:46.73	289.45	18.74	-85.2	-88.6	3.0	1.56e+00	0	47	104	0	60	1048575
2026-01-17 10:59:47.74	289.69	18.72	-85.2	-88.6	3.0	1.56e+00	0	47	104	0	60	1048575
2026-01-17 10:59:48.74	289.93	18.71	-85.2	-88.6	2.9	1.56e+00	0	47	104	0	60	1048575
2026-01-17 10:59:49.75	290.17	18.69	-85.2	-88.6	2.8	1.56e+00	0	47	104	0	60	1048575
2026-01-17 10:59:50.75	290.40	18.67	-85.2	-88.6	2.9	1.56e+00	0	47	104	0	60	1048574
2026-01-17 10:59:51.76	290.64	18.65	-85.2	-88.6	2.9	1.56e+00	0	47	104	0	60	1048573
2026-01-17 10:59:52.76	290.88	18.62	-85.2	-88.6	3.2	1.56e+00	0	47	104	0	60	1048574
2026-01-17 10:59:53.77	291.11	18.60	-85.2	-88.6	2.7	1.56e+00	0	47	104	0	60	1048571
2026-01-17 10:59:54.78	291.35	18.58	-85.2	-88.6	3.1	1.56e+00	0	47	104	0	60	1048575
2026-01-17 10:59:55.78	291.58	18.56	-85.2	-88.6	3.0	1.56e+00	0	47	104	0	60	1048575
2026-01-17 10:59:56.79	291.82	18.54	-85.2	-88.6	3.0	1.56e+00	0	47	104	0	60	1048574
2026-01-17 10:59:57.80	292.06	18.51	-85.2	-88.6	3.0	1.56e+00	0	47	104	0	60	1048574
2026-01-17 10:59:58.80	292.29	18.49	-85.2	-88.6	2.9	1.56e+00	0	47	104	0	60	1048575
2026-01-17 10:59:59.81	292.53	18.46	-85.2	-88.6	3.0	1.56e+00	0	47	104	0	60	1048573
2026-01-17 11:00:00.82	292.76	18.44	-85.2	-88.6	3.1	1.56e+00	0	47	104	0	60	1048575
2026-01-17 11:00:01.83	292.99	18.42	-85.2	-88.6	2.9	1.56e+00	0	47	104	0	60	1048575
2026-01-17 11:00:02.83	293.23	18.39	-84.3	-88.6	3.1	1.56e+00	0	47	104	0	60	1048575
2026-01-17 11:00:03.84	293.46	18.36	-85.2	-88.6	3.2	1.56e+00	0	47	104	0	60	1048575
2026-01-17 11:00:04.85	293.69	18.34	-85.2	-88.6	3.0	1.56e+00	0	47	104	0	60	1048575
2026-01-17 11:00:05.86	293.93	18.31	-85.2	-88.6	3.2	1.56e+00	0	47	104	0	60	1048575
2026-01-17 11:00:06.86	294.16	18.28	-85.2	-88.6	3.1	1.56e+00	0	47	104	0	60	1048574
2026-01-17 11:00:07.87	294.39	18.26	-85.2	-88.6	3.0	1.55e+00	0	47	104	0	60	1048573
2026-01-17 11:00:08.87	294.62	18.23	-85.2	-88.6	2.6	1.56e+00	0	47	104	0	60	1048575
2026-01-17 11:00:09.88	294.85	18.20	-85.2	-88.6	2.8	1.56e+00	0	47	104	0	60	1048575
2026-01-17 11:00:10.88	295.08	18.17	-84.7	-88.6	3.1	1.55e+00	0	47	104	0	60	1048575
2026-01-17 11:00:11.89	295.31	18.14	-85.2	-88.6	3.0	1.56e+00	0	47	104	0	60	1048575
2026-01-17 11:00:12.89	295.53	18.11	-84.3	-88.6	3.1	1.56e+00	0	47	104	0	60	1048575
2026-01-17 11:00:13.90	295.76	18.08	-85.2	-88.6	3.1	1.56e+00	0	47	104	0	60	1048575
2026-01-17 11:00:14.90	295.99	18.05	-85.2	-88.6	3.0	1.55e+00	0	47	104	0	60	1048574
2026-01-17 11:00:15.91	296.22	18.02	-85.2	-88.6	3.0	1.56e+00	0	47	104	0	60	1048575
2026-01-17 11:00:16.91	296.44	17.99	-85.2	-88.6	3.1	1.56e+00	0	47	104	0	60	1048575
2026-01-17 11:00:17.91	296.67	17.96	-85.2	-88.6	3.0	1.55e+00	0	47	104	0	60	1048573
2026-01-17 11:00:18.91	296.89	17.93	-85.2	-88.6	2.9	1.55e+00	0	47	104	0	60	1048575
2026-01-17 11:00:19.92	297.12	17.89	-85.2	-88.6	3.0	1.56e+00	0	47	104	0	60	1048570
2026-01-17 11:00:20.92	297.35	17.86	-85.2	-88.6	3.1	1.55e+00	0	47	104	0	60	1048574
2026-01-17 11:00:21.93	297.57	17.83	-84.7	-88.6	3.1	1.55e+00	0	47	104	0	60	1048573
2026-01-17 11:00:22.93	297.79	17.80	-85.2	-88.6	3.0	1.56e+00	0	47	104	0	60	1048573
2026-01-17 11:00:23.94	298.02	17.76	-85.2	-88.6	3.0	1.56e+00	0	47	104	0	60	1048575
2026-01-17 11:00:24.94	298.24	17.73	-85.2	-88.6	3.2	1.56e+00	0	47	104	0	60	1048575
2026-01-17 11:00:25.95	298.46	17.69	-85.2	-88.6	3.0	1.55e+00	0	47	104	0	60	1048575
2026-01-17 11:00:26.95	298.69	17.66	-85.2	-88.6	2.8	1.55e+00	0	47	104	0	60	1048573
2026-01-17 11:00:27.96	298.91	17.62	-85.2	-88.6	3.1	1.56e+00	0	47	104	0	60	1048574
2026-01-17 11:00:28.96	299.13	17.59	-85.2	-88.6	2.9	1.55e+00	0	47	104	0	60	1048575
2026-01-17 11:00:29.97	299.35	17.55	-85.2	-88.6	2.9	1.55e+00	0	47	104	0	60	1048574
2026-01-17 11:00:30.98	299.57	17.51	-85.2	-88.6	3.0	1.55e+00	0	47	104	0	60	1048575
2026-01-17 11:00:31.98	299.79	17.48	-85.2	-88.6	3.1	1.56e+00	0	47	104	0	60	1048575
2026-01-17 11:00:32.98	300.01	17.44	-85.2	-88.6	3.1	1.55e+00	0	47	104	0	60	1048574
2026-01-17 11:00:33.99	300.23	17.40	-85.2	-88.6	3.0	1.56e+00	0	47	104	0	60	1048574
2026-01-17 11:00:35.00	300.45	17.37	-85.2	-88.6	3.1	1.56e+00	0	47	104	0	60	1048574
2026-01-17 11:00:36.00	300.66	17.33	-85.2	-88.6	3.2	1.56e+00	0	47	104	0	60	1048575
2026-01-17 11:00:37.01	300.88	17.29	-85.2	-88.6	3.1	1.56e+00	0	47	104	0	60	1048574
2026-01-17 11:00:38.02	301.10	17.25	-85.2	-88.6	3.1	1.56e+00	0	47	104	0	60	1048570
2026-01-17 11:00:39.02	301.31	17.21	-85.2	-88.6	3.1	1.56e+00	0	47	104	0	60	1048575
2026-01-17 11:00:40.03	301.53	17.17	-85.2	-88.6	3.2	1.56e+00	0	47	104	0	60	1048575
2026-01-17 11:00:41.04	301.74	17.13	-85.2	-88.6	3.0	1.56e+00	0	47	104	0	60	1048575
2026-01-17 11:00:42.05	301.96	17.09	-85.2	-88.6	3.0	1.56e+00	0	47	104	0	60	1048575
2026-01-17 11:00:43.05	302.17	17.05	-85.2	-88.6	2.9	1.55e+00	0	47	104	0	60	1048575
2026-01-17 11:00:44.06	302.39	17.01	-85.2	-88.6	3.0	1.56e+00	0	47	104	0	60	1048573
2026-01-17 11:00:45.07	302.60	16.97	-85.2	-88.6	2.9	1.56e+00	0	47	104	0	60	1048574
2026-01-17 11:00:46.08	302.81	16.93	-85.2	-88.6	2.8	1.56e+00	0	47	104	0	60	1048573
2026-01-17 11:00:47.09	303.02	16.89	-85.2	-88.6	3.1	1.56e+00	0	47	104	0	60	1048575
2026-01-17 11:00:48.09	303.23	16.85	-85.2	-88.6	3.1	1.56e+00	0	47	104	0	60	1048575
2026-01-17 11:00:49.10	303.45	16.80	-85.2	-88.6	3.0	1.56e+00	0	47	104	0	60	1048574
2026-01-17 11:00:50.11	303.66	16.76	-85.2	-88.6	3.0	1.56e+00	0	47	104	0	60	1048575
2026-01-17 11:00:51.11	303.86	16.72	-85.2	-88.6	3.1	1.56e+00	0	47	104	0	60	1048571
2026-01-17 11:00:52.12	304.07	16.67	-85.2	-88.6	3.0	1.56e+00	0	47	104	0	60	1048575
2026-01-17 11:00:53.13	304.28	16.63	-85.2	-88.6	2.9	1.56e+00	0	47	104	0	60	1048575
2026-01-17 11:00:54.14	304.49	16.59	-85.2	-88.6	3.0	1.56e+00	0	47	104	0	60	1048575
2026-01-17 11:00:55.15	304.70	16.54	-85.2	-88.6	3.0	1.56e+00	0	47	104	0	60	1048575
2026-01-17 11:00:56.15	304.90	16.50	-85.2	-88.6	3.0	1.56e+00	0	47	104	0	60	1048575
2026-01-17 11:00:57.16	305.11	16.45	-85.2	-88.6	3.1	1.56e+00	0	47	104	0	60	1048573
2026-01-17 11:00:58.17	305.32	16.41	-85.2	-88.6	3.1	1.56e+00	0	47	104	0	60	1048575
2026-01-17 11:00:59.18	305.52	16.36	-85.2	-88.6	3.1	1.56e+00	0	47	104	0	60	1048575
2026-01-17 11:01:00.18	305.72	16.32	-85.2	-88.6	3.0	1.56e+00	0	47	104	0	60	1048572
2026-01-17 11:01:01.20	305.93	16.27	-85.2	-88.6	3.0	1.56e+00	0	47	104	0	60	1048575
2026-01-17 11:01:02.20	306.13	16.23	-85.2	-88.6	2.8	1.56e+00	0	47	104	0	60	1048575
2026-01-17 11:01:03.21	306.33	16.18	-84.3	-88.6	2.9	1.55e+00	0	47	104	0	60	1048574
2026-01-17 11:01:04.22	306.54	16.14	-85.2	-88.6	2.8	1.56e+00	0	47	104	0	60	1048571
2026-01-17 11:01:05.23	306.74	16.09	-85.2	-88.6	3.0	1.55e+00	0	47	104	0	60	1048575
2026-01-17 11:01:06.23	306.94	16.04	-85.2	-88.6	3.0	1.56e+00	0	47	104	0	60	1048575
2026-01-17 11:01:07.24	307.14	16.00	-85.2	-88.6	3.2	1.55e+00	0	47	104	0	60	1048575
2026-01-17 11:01:08.25	307.34	15.95	-85.2	-88.6	3.1	1.56e+00	0	47	104	0	60	1048575
2026-01-17 11:01:09.26	307.54	15.90	-85.2	-88.6	2.9	1.56e+00	0	47	104	0	60	1048575
2026-01-17 11:01:10.27	307.73	15.85	-85.2	-88.6	3.0	1.56e+00	0	47	104	0	60	1048573
2026-01-17 11:01:11.28	307.93	15.81	-85.2	-88.6	3.2	1.56e+00	0	47	104	0	60	1048575
2026-01-17 11:01:12.28	308.13	15.76	-85.2	-88.6	3.3	1.56e+00	0	47	104	0	60	1048575
2026-01-17 11:01:13.29	308.32	15.71	-85.2	-88.6	3.0	1.56e+00	0	47	104	0	60	1048575
2026-01-17 11:01:14.30	308.52	15.66	-85.2	-88.6	2.9	1.56e+00	0	47	104	0	60	1048575
2026-01-17 11:01:15.30	308.71	15.61	-85.2	-88.6	3.0	1.56e+00	0	47	104	0	60	1048571
2026-01-17 11:01:16.31	308.91	15.56	-85.2	-88.6	2.9	1.56e+00	0	47	104	0	60	1048575
2026-01-17 11:01:17.32	309.10	15.51	-85.2	-88.6	3.1	1.56e+00	0	47	104	0	60	1048575
2026-01-17 11:01:18.33	309.30	15.46	-85.2	-88.6	3.0	1.55e+00	0	47	104	0	60	1048575
2026-01-17 11:01:19.33	309.49	15.41	-85.2	-88.6	3.0	1.56e+00	0	47	104	0	60	1048575
2026-01-17 11:01:20.34	309.68	15.36	-85.2	-88.6	3.1	1.56e+00	0	47	104	0	60	1048575
2026-01-17 11:01:21.34	309.87	15.32	-85.2	-88.6	3.0	1.55e+00	0	47	104	0	60	1048572
2026-01-17 11:01:22.35	310.06	15.26	-85.2	-88.6	3.0	1.56e+00	0	47	104	0	60	1048573
2026-01-17 11:01:23.36	310.25	15.21	-85.2	-88.6	3.1	1.56e+00	0	47	104	0	60	1048575
2026-01-17 11:01:24.37	310.44	15.16	-85.2	-88.6	2.9	1.56e+00	0	47	104	0	60	1048574
2026-01-17 11:01:25.38	310.63	15.11	-85.2	-88.6	3.0	1.56e+00	0	47	104	0	60	1048574
2026-01-17 11:01:26.39	310.82	15.06	-85.2	-88.6	2.9	1.55e+00	0	47	104	0	60	1048568
2026-01-17 11:01:27.39	311.00	15.01	-85.2	-88.6	3.0	1.56e+00	0	47	104	0	60	1048575
2026-01-17 11:01:28.40	311.19	14.96	-85.2	-88.6	3.1	1.56e+00	0	47	104	0	60	1048574
2026-01-17 11:01:29.41	311.38	14.91	-85.2	-88.6	2.8	1.55e+00	0	47	104	0	60	1048575
2026-01-17 11:01:30.42	311.56	14.86	-85.2	-88.6	3.1	1.56e+00	0	47	104	0	60	1048575
2026-01-17 11:01:31.42	311.75	14.81	-85.2	-88.6	2.9	1.56e+00	0	47	104	0	60	1048568
2026-01-17 11:01:32.43	311.93	14.75	-85.2	-88.6	2.9	1.56e+00	0	47	104	0	60	1048574
2026-01-17 11:01:33.43	312.11	14.70	-85.2	-88.6	3.0	1.56e+00	0	47	104	0	60	1048573
2026-01-17 11:01:34.44	312.30	14.65	-85.2	-88.6	3.1	1.56e+00	0	47	104	0	60	1048571
2026-01-17 11:01:35.44	312.48	14.60	-85.2	-88.6	3.0	1.56e+00	0	47	104	0	60	1048575
2026-01-17 11:01:36.45	312.66	14.54	-85.2	-88.6	2.9	1.56e+00	0	47	104	0	60	1048572
2026-01-17 11:01:37.45	312.84	14.49	-85.2	-88.6	3.0	1.56e+00	0	47	104	0	60	1048573
2026-01-17 11:01:38.46	313.02	14.44	-84.3	-88.6	2.9	1.56e+00	0	47	104	0	60	1048573
2026-01-17 11:01:39.47	313.20	14.39	-85.2	-88.6	2.8	1.56e+00	0	47	104	0	60	1048574
2026-01-17 11:01:40.48	313.38	14.33	-85.2	-88.6	2.9	1.56e+00	0	47	104	0	60	1048575
2026-01-17 11:01:41.49	313.56	14.28	-85.2	-88.6	2.9	1.56e+00	0	47	104	0	60	1048574
2026-01-17 11:01:42.50	313.74	14.23	-85.2	-88.6	3.0	1.55e+00	0	47	104	0	60	1048574
2026-01-17 11:01:43.51	313.92	14.17	-85.2	-88.6	3.1	1.56e+00	0	47	104	0	60	1048573
2026-01-17 11:01:44.52	314.10	14.12	-85.2	-88.6	2.8	1.56e+00	0	47	104	0	60	1048575
2026-01-17 11:01:45.52	314.27	14.07	-85.2	-88.6	3.1	1.56e+00	0	47	104	0	60	1048573
2026-01-17 11:01:46.52	314.44	14.01	-85.2	-88.6	3.1	1.55e+00	0	47	104	0	60	1048575
2026-01-17 11:01:47.53	314.62	13.96	-85.2	-88.6	3.1	1.56e+00	0	47	104	0	60	1048575
2026-01-17 11:01:48.53	314.79	13.90	-85.2	-88.6	3.2	1.56e+00	0	47	104	0	60	1048572
2026-01-17 11:01:49.53	314.97	13.85	-85.2	-88.6	3.0	1.56e+00	0	47	104	0	60	1048575
2026-01-17 11:01:50.54	315.14	13.80	-85.2	-88.6	3.0	1.56e+00	0	47	104	0	60	1048573
2026-01-17 11:01:51.54	315.31	13.74	-85.2	-88.6	3.0	1.56e+00	0	47	104	0	60	1048575
2026-01-17 11:01:52.55	315.48	13.69	-85.2	-88.6	3.1	1.56e+00	0	47	104	0	60	1048575
2026-01-17 11:01:53.55	315.65	13.63	-84.7	-88.6	3.1	1.56e+00	0	47	104	0	60	1048574
2026-01-17 11:01:54.55	315.82	13.58	-85.2	-88.6	3.0	1.56e+00	0	47	104	0	60	1048573
2026-01-17 11:01:55.56	315.99	13.52	-85.2	-88.6	3.0	1.56e+00	0	47	104	0	60	1048571
2026-01-17 11:01:56.57	316.16	13.47	-85.2	-88.6	2.9	1.56e+00	0	47	104	0	60	1048574
2026-01-17 11:01:57.57	316.33	13.41	-85.2	-88.6	3.0	1.56e+00	0	47	104	0	60	1048575
2026-01-17 11:01:58.58	316.50	13.36	-85.2	-88.6	2.9	1.55e+00	0	47	104	0	60	1048575
2026-01-17 11:01:59.59	316.67	13.30	-85.2	-88.6	3.2	1.55e+00	0	47	104	0	60	1048575
2026-01-17 11:02:00.60	316.83	13.25	-85.2	-88.6	3.1	1.56e+00	0	47	104	0	60	1048575
2026-01-17 11:02:01.61	317.00	13.19	-85.2	-88.6	3.1	1.56e+00	0	47	104	0	60	1048575
2026-01-17 11:02:02.61	317.17	13.14	-85.2	-88.6	3.0	1.55e+00	0	47	104	0	60	1048575
2026-01-17 11:02:03.62	317.33	13.08	-85.2	-88.6	2.9	1.56e+00	0	47	104	0	60	1048575
2026-01-17 11:02:04.63	317.50	13.02	-85.2	-88.6	3.0	1.56e+00	0	47	104	0	60	1048573
2026-01-17 11:02:05.63	317.66	12.97	-85.2	-88.6	3.2	1.55e+00	0	47	104	0	60	1048575
2026-01-17 11:02:06.64	317.82	12.91	-85.2	-88.6	2.9	1.55e+00	0	47	104	0	60	1048575
2026-01-17 11:02:07.65	317.99	12.86	-85.2	-88.6	3.1	1.56e+00	0	47	104	0	60	1048575
2026-01-17 11:02:08.65	318.15	12.80	-84.7	-88.6	3.2	1.56e+00	0	47	104	0	60	1048575
2026-01-17 11:02:09.65	318.31	12.74	-85.2	-88.6	3.0	1.56e+00	0	47	104	0	60	1048574
2026-01-17 11:02:10.66	318.47	12.69	-85.2	-88.6	3.0	1.56e+00	0	47	104	0	60	1048575
2026-01-17 11:02:11.67	318.63	12.63	-85.2	-88.6	3.0	1.56e+00	0	47	104	0	60	1048573
2026-01-17 11:02:12.67	318.79	12.58	-85.2	-88.6	3.1	1.55e+00	0	47	104	0	60	1048574
2026-01-17 11:02:13.68	318.95	12.52	-85.2	-88.6	3.0	1.55e+00	0	47	104	0	60	1048575
2026-01-17 11:02:14.69	319.11	12.46	-85.2	-88.6	3.0	1.55e+00	0	47	104	0	60	1048575
2026-01-17 11:02:15.70	319.27	12.41	-85.2	-88.6	3.1	1.56e+00	0	47	104	0	60	1048575
2026-01-17 11:02:16.71	319.42	12.35	-85.2	-88.6	3.0	1.56e+00	0	47	104	0	60	1048573
2026-01-17 11:02:17.72	319.58	12.29	-85.2	-88.6	3.0	1.55e+00	0	47	104	0	60	1048575
2026-01-17 11:02:18.72	319.74	12.24	-85.2	-88.6	2.9	1.56e+00	0	47	104	0	60	1048574
2026-01-17 11:02:19.73	319.89	12.18	-85.2	-88.6	3.2	1.56e+00	0	47	104	0	60	1048574
2026-01-17 11:02:20.74	320.05	12.12	-85.2	-88.6	3.0	1.56e+00	0	47	104	0	60	1048575
2026-01-17 11:02:21.74	320.20	12.07	-85.2	-88.6	3.0	1.56e+00	0	47	104	0	60	1048573
2026-01-17 11:02:22.74	320.35	12.01	-85.2	-88.6	2.8	1.55e+00	0	47	104	0	60	1048573
2026-01-17 11:02:23.75	320.51	11.95	-84.3	-88.6	2.9	1.56e+00	0	47	104	0	60	1048575
2026-01-17 11:02:24.76	320.66	11.89	-85.2	-88.6	3.0	1.56e+00	0	47	104	0	60	1048569
2026-01-17 11:02:25.76	320.81	11.84	-85.2	-88.6	3.2	1.56e+00	0	47	104	0	60	1048575
2026-01-17 11:02:26.77	320.96	11.78	-85.2	-88.6	3.0	1.55e+00	0	47	104	0	60	1048575
2026-01-17 11:02:27.77	321.11	11.72	-85.2	-88.6	3.0	1.56e+00	0	47	104	0	60	1048575
2026-01-17 11:02:28.78	321.26	11.67	-85.2	-88.6	2.9	1.55e+00	0	47	104	0	60	1048575
2026-01-17 11:02:29.79	321.41	11.61	-85.2	-88.6	3.1	1.56e+00	0	47	104	0	60	1048575
2026-01-17 11:02:30.79	321.56	11.55	-85.2	-88.6	3.0	1.55e+00	0	47	104	0	60	1048574
2026-01-17 11:02:31.80	321.71	11.49	-85.2	-88.6	3.3	1.55e+00	0	47	104	0	60	1048574
2026-01-17 11:02:32.81	321.86	11.44	-85.2	-88.6	3.0	1.56e+00	0	47	104	0	60	1048574
2026-01-17 11:02:33.82	322.01	11.38	-85.2	-88.6	3.1	1.56e+00	0	47	104	0	60	1048575
2026-01-17 11:02:34.83	322.16	11.32	-85.2	-88.6	3.0	1.56e+00	0	47	104	0	60	1048574
2026-01-17 11:02:35.83	322.30	11.27	-85.2	-88.6	3.0	1.55e+00	0	47	104	0	60	1048574
2026-01-17 11:02:36.84	322.45	11.21	-85.2	-88.6	3.0	1.56e+00	0	47	104	0	60	1048575
2026-01-17 11:02:37.85	322.59	11.15	-85.2	-88.6	3.0	1.56e+00	0	47	104	0	60	1048575
2026-01-17 11:02:38.85	322.74	11.09	-85.2	-88.6	2.8	1.55e+00	0	47	104	0	60	1048572
2026-01-17 11:02:39.86	322.88	11.03	-85.2	-88.6	3.0	1.55e+00	0	47	104	0	60	1048575
2026-01-17 11:02:40.87	323.03	10.98	-85.2	-88.6	3.0	1.56e+00	0	47	104	0	60	1048573
2026-01-17 11:02:41.87	323.17	10.92	-85.2	-88.6	2.9	1.55e+00	0	47	104	0	60	1048572
2026-01-17 11:02:42.88	323.31	10.86	-85.2	-88.6	3.0	1.56e+00	0	47	104	0	60	1048570
2026-01-17 11:02:43.89	323.45	10.80	-85.2	-88.6	3.1	1.56e+00	0	47	104	0	60	1048574
2026-01-17 11:02:44.90	323.60	10.75	-85.2	-88.6	3.1	1.56e+00	0	47	104	0	60	1048563
2026-01-17 11:02:45.91	323.74	10.69	-85.2	-88.6	2.8	1.55e+00	0	47	104	0	60	1048574
2026-01-17 11:02:46.91	323.88	10.63	-85.2	-88.6	3.2	1.56e+00	0	47	104	0	60	1048574
2026-01-17 11:02:47.92	324.02	10.57	-85.2	-88.6	3.1	1.56e+00	0	47	104	0	60	1048568
2026-01-17 11:02:48.93	324.16	10.52	-85.2	-88.6	3.1	1.55e+00	0	47	104	0	60	1048574
2026-01-17 11:02:49.94	324.30	10.46	-85.2	-88.6	2.8	1.56e+00	0	47	104	0	60	1048574
2026-01-17 11:02:50.94	324.43	10.40	-85.2	-88.6	3.0	1.56e+00	0	47	104	0	60	1048573
2026-01-17 11:02:51.95	324.57	10.34	-85.2	-88.6	3.0	1.55e+00	0	47	104	0	60	1048575
2026-01-17 11:02:52.95	324.71	10.29	-85.2	-88.6	3.0	1.56e+00	0	47	104	0	60	1048575
2026-01-17 11:02:53.95	324.85	10.23	-85.2	-88.6	2.8	1.56e+00	0	47	104	0	60	1048572
2026-01-17 11:02:54.96	324.98	10.17	-85.2	-88.6	3.2	1.56e+00	0	47	104	0	60	1048575
2026-01-17 11:02:55.97	325.12	10.11	-85.2	-88.6	2.9	1.55e+00	0	47	104	0	60	1048572
2026-01-17 11:02:56.97	325.25	10.05	-85.2	-88.6	2.9	1.56e+00	0	47	104	0	60	1048575
2026-01-17 11:02:57.98	325.39	10.00	-85.2	-88.6	3.0	1.56e+00	0	47	104	0	60	1048575
2026-01-17 11:02:58.98	325.52	9.94	-85.2	-88.6	2.9	1.56e+00	0	47	104	0	60	1048575
2026-01-17 11:02:59.98	325.65	9.88	-85.2	-88.6	2.8	1.56e+00	0	47	104	0	60	1048572
2026-01-17 11:03:00.98	325.79	9.82	-85.2	-88.6	2.9	1.56e+00	0	47	104	0	60	1048574
2026-01-17 11:03:01.99	325.92	9.77	-85.2	-88.6	3.2	1.56e+00	0	47	104	0	60	1048574
2026-01-17 11:03:02.99	326.05	9.71	-85.2	-88.6	3.0	1.56e+00	0	47	104	0	60	1048574
2026-01-17 11:03:04.00	326.18	9.65	-85.2	-88.6	2.9	1.56e+00	0	47	104	0	60	1048575
2026-01-17 11:03:05.01	326.31	9.59	-85.2	-88.6	3.1	1.55e+00	0	47	104	0	60	1048572
2026-01-17 11:03:06.02	326.45	9.54	-85.2	-88.6	3.0	1.56e+00	0	47	104	0	60	1048575
2026-01-17 11:03:07.02	326.58	9.48	-85.2	-88.6	3.2	1.55e+00	0	47	104	0	60	1048575
2026-01-17 11:03:08.03	326.71	9.42	-85.2	-88.6	3.1	1.56e+00	0	47	104	0	60	1048573
2026-01-17 11:03:09.04	326.84	9.36	-85.2	-88.6	3.2	1.56e+00	0	47	104	0	60	1048575
2026-01-17 11:03:10.05	326.96	9.31	-85.2	-88.6	2.9	1.56e+00	0	47	104	0	60	1048574
2026-01-17 11:03:11.05	327.09	9.25	-85.2	-88.6	2.9	1.56e+00	0	47	104	0	60	1048575
2026-01-17 11:03:12.06	327.22	9.19	-85.2	-88.6	3.0	1.56e+00	0	47	104	0	60	1048574
2026-01-17 11:03:13.07	327.35	9.13	-85.2	-88.6	3.0	1.56e+00	0	47	104	0	60	1048574
2026-01-17 11:03:14.07	327.47	9.07	-85.2	-88.6	3.0	1.56e+00	0	47	104	0	60	1048575
2026-01-17 11:03:15.08	327.60	9.02	-85.2	-88.6	3.0	1.56e+00	0	47	104	0	60	1048575
2026-01-17 11:03:16.09	327.73	8.96	-85.2	-88.6	3.0	1.55e+00	0	47	104	0	60	1048575
2026-01-17 11:03:17.10	327.85	8.90	-85.2	-88.6	2.8	1.56e+00	0	47	104	0	60	1048575
2026-01-17 11:03:18.11	327.98	8.84	-85.2	-88.6	3.1	1.56e+00	0	47	104	0	60	1048572
2026-01-17 11:03:19.11	328.10	8.79	-85.2	-88.6	3.1	1.55e+00	0	47	104	0	60	1048573
2026-01-17 11:03:20.12	328.23	8.73	-85.2	-88.6	3.3	1.55e+00	0	47	104	0	60	1048572
2026-01-17 11:03:21.13	328.35	8.67	-85.2	-88.6	2.8	1.55e+00	0	47	104	0	60	1048575
2026-01-17 11:03:22.13	328.47	8.61	-85.2	-88.6	3.1	1.56e+00	0	47	104	0	60	1048575
2026-01-17 11:03:23.13	328.59	8.56	-85.2	-88.6	3.2	1.56e+00	0	47	104	0	60	1048575
2026-01-17 11:03:24.14	328.72	8.50	-85.2	-88.6	3.0	1.56e+00	0	47	104	0	60	1048575
2026-01-17 11:03:25.15	328.84	8.44	-85.2	-88.6	3.0	1.56e+00	0	47	104	0	60	1048573
2026-01-17 11:03:26.15	328.96	8.39	-85.2	-88.6	3.1	1.56e+00	0	47	104	0	60	1048575
2026-01-17 11:03:27.15	329.08	8.33	-85.2	-88.6	3.1	1.56e+00	0	47	104	0	60	1048575
2026-01-17 11:03:28.16	329.20	8.27	-85.2	-88.6	3.0	1.56e+00	0	47	104	0	60	1048574
2026-01-17 11:03:29.17	329.32	8.21	-85.2	-88.6	3.1	1.56e+00	0	47	104	0	60	1048572
2026-01-17 11:03:30.17	329.44	8.16	-85.2	-88.6	2.8	1.56e+00	0	47	104	0	60	1048575
2026-01-17 11:03:31.18	329.56	8.10	-85.2	-88.6	3.0	1.55e+00	0	47	104	0	60	1048575
2026-01-17 11:03:32.18	329.68	8.04	-85.2	-88.6	3.0	1.56e+00	0	47	104	0	60	1048574
2026-01-17 11:03:33.19	329.79	7.98	-85.2	-88.6	3.1	1.56e+00	0	47	104	0	60	1048575
2026-01-17 11:03:34.20	329.91	7.93	-84.3	-88.6	3.2	1.56e+00	0	47	104	0	60	1048573
2026-01-17 11:03:35.21	330.03	7.87	-85.2	-88.6	3.1	1.56e+00	0	47	104	0	60	1048575
2026-01-17 11:03:36.21	330.14	7.81	-85.2	-88.6	2.8	1.56e+00	0	47	104	0	60	1048575
2026-01-17 11:03:37.22	330.26	7.76	-85.2	-88.6	3.1	1.55e+00	0	47	104	0	60	1048573
2026-01-17 11:03:38.23	330.38	7.70	-85.2	-88.6	3.0	1.56e+00	0	47	104	0	60	1048575
2026-01-17 11:03:39.23	330.49	7.64	-84.7	-88.6	3.3	1.56e+00	0	47	104	0	60	1048575
2026-01-17 11:03:40.24	330.61	7.58	-85.2	-88.6	3.1	1.56e+00	0	47	104	0	60	1048574
2026-01-17 11:03:41.24	330.72	7.53	-85.2	-88.6	3.0	1.56e+00	0	47	104	0	60	1048574
2026-01-17 11:03:42.25	330.84	7.47	-85.2	-88.6	3.0	1.55e+00	0	47	104	0	60	1048575
2026-01-17 11:03:43.25	330.95	7.41	-85.2	-88.6	3.1	1.55e+00	0	47	104	0	60	1048575
2026-01-17 11:03:44.26	331.06	7.36	-85.2	-88.6	3.1	1.56e+00	0	47	104	0	60	1048575
2026-01-17 11:03:45.27	331.18	7.30	-85.2	-88.6	3.2	1.56e+00	0	47	104	0	60	1048574
2026-01-17 11:03:46.28	331.29	7.24	-85.2	-88.6	3.0	1.55e+00	0	47	104	0	60	1048575
2026-01-17 11:03:47.28	331.40	7.19	-85.2	-88.6	3.0	1.56e+00	0	47	104	0	60	1048575
2026-01-17 11:03:48.29	331.51	7.13	-85.2	-88.6	3.1	1.56e+00	0	47	104	0	60	1048574
2026-01-17 11:03:49.29	331.62	7.07	-85.2	-88.6	3.0	1.56e+00	0	47	104	0	60	1048573
2026-01-17 11:03:50.30	331.73	7.02	-85.2	-88.6	2.9	1.56e+00	0	47	104	0	60	1048575
2026-01-17 11:03:51.31	331.84	6.96	-85.2	-88.6	3.0	1.56e+00	0	47	104	0	60	1048575
2026-01-17 11:03:52.32	331.95	6.90	-85.2	-88.6	3.0	1.55e+00	0	47	104	0	60	1048575
2026-01-17 11:03:53.33	332.06	6.85	-85.2	-88.6	3.0	1.56e+00	0	47	104	0	60	1048573
2026-01-17 11:03:54.33	332.17	6.79	-85.2	-88.6	3.0	1.55e+00	0	47	104	0	60	1048572
2026-01-17 11:03:55.34	332.28	6.73	-85.2	-88.6	2.9	1.56e+00	0	47	104	0	60	1048575
2026-01-17 11:03:56.35	332.39	6.68	-85.2	-88.6	2.9	1.56e+00	0	47	104	0	60	1048575
2026-01-17 11:03:57.35	332.50	6.62	-85.2	-88.6	2.8	1.56e+00	0	47	104	0	60	1048571
2026-01-17 11:03:58.36	332.61	6.57	-83.9	-88.6	3.0	1.56e+00	0	47	104	0	60	1048574
2026-01-17 11:03:59.37	332.71	6.51	-84.7	-88.6	2.8	1.56e+00	0	47	104	0	60	1048575
2026-01-17 11:04:00.37	332.82	6.45	-85.2	-88.6	3.0	1.56e+00	0	47	104	0	60	1048573
2026-01-17 11:04:01.38	332.93	6.40	-85.2	-88.6	2.9	1.56e+00	0	47	104	0	60	1048575
2026-01-17 11:04:02.38	333.03	6.34	-85.2	-88.6	3.0	1.55e+00	0	47	104	0	60	1048573
2026-01-17 11:04:03.39	333.14	6.28	-85.2	-88.6	3.2	1.56e+00	0	47	104	0	60	1048575
2026-01-17 11:04:04.39	333.24	6.23	-85.2	-88.6	3.0	1.55e+00	0	47	104	0	60	1048572
2026-01-17 11:04:05.40	333.35	6.17	-85.2	-88.6	2.9	1.55e+00	0	47	104	0	60	1048574
2026-01-17 11:04:06.40	333.45	6.12	-85.2	-88.6	3.0	1.56e+00	0	47	104	0	60	1048575
2026-01-17 11:04:07.41	333.56	6.06	-85.2	-88.6	3.1	1.56e+00	0	47	104	0	60	1048572
2026-01-17 11:04:08.41	333.66	6.01	-85.2	-88.6	3.0	1.55e+00	0	47	104	0	60	1048573
2026-01-17 11:04:09.42	333.76	5.95	-85.2	-88.6	3.2	1.55e+00	0	47	104	0	60	1048575
2026-01-17 11:04:10.43	333.87	5.89	-85.2	-88.6	3.0	1.56e+00	0	47	104	0	60	1048575
2026-01-17 11:04:11.44	333.97	5.84	-85.2	-88.6	3.0	1.56e+00	0	47	104	0	60	1048575
2026-01-17 11:04:12.45	334.07	5.78	-85.2	-88.6	3.0	1.55e+00	0	47	104	0	60	1048574
2026-01-17 11:04:13.46	334.17	5.73	-84.3	-88.6	3.1	1.55e+00	0	47	104	0	60	1048575
2026-01-17 11:04:14.47	334.27	5.67	-85.2	-88.6	2.9	1.56e+00	0	47	104	0	60	1048575
2026-01-17 11:04:15.47	334.37	5.62	-85.2	-88.6	3.2	1.56e+00	0	47	104	0	60	1048574
2026-01-17 11:04:16.48	334.48	5.56	-85.2	-88.6	2.9	1.56e+00	0	47	104	0	60	1048575
2026-01-17 11:04:17.48	334.58	5.50	-85.2	-88.6	2.9	1.55e+00	0	47	104	0	60	1048575
2026-01-17 11:04:18.49	334.68	5.45	-85.2	-88.6	3.1	1.56e+00	0	47	104	0	60	1048573
2026-01-17 11:04:19.50	334.78	5.39	-84.7	-88.6	3.0	1.56e+00	0	47	104	0	60	1048574
2026-01-17 11:04:20.50	334.87	5.34	-85.2	-88.6	3.0	1.56e+00	0	47	104	0	60	1048573
2026-01-17 11:04:21.51	334.97	5.28	-85.2	-88.6	2.9	1.56e+00	0	47	104	0	60	1048573
2026-01-17 11:04:22.51	335.07	5.23	-85.2	-88.6	2.9	1.56e+00	0	47	104	0	60	1048575
2026-01-17 11:04:23.52	335.17	5.17	-85.2	-88.6	3.2	1.56e+00	0	47	104	0	60	1048572
2026-01-17 11:04:24.53	335.27	5.12	-85.2	-88.6	2.8	1.55e+00	0	47	104	0	60	1048574
