passes_logs/2026/01/17/R3.2S-Naryan-Mar/R3.2S-Naryan-Mar__20260117_191023_TY-39_rec.log

#Pass ID: 20260117_191023_TY-39
#Satellite: TY-39
#Configuration: TY-39
#almurnet v.1.7.20240730
#Start time: 2026-01-17 19:15:28

#Version: 2.2.20231116
#Station: R3.2S-Naryan-Mar
#Location: 53.008057 lon 67.646978 lat
#TLE: 1 51832U 22019J   26016.93397770  .00000681  00000-0  35057-4 0  9992
#TLE: 2 51832  97.3651  83.5773 0009934  46.4665 313.7394 15.19639081214821

#Time	Az	El	Level	Level2	SNR	BER	BlckErr	Temp	State	Recorded	gain1	gain2
2026-01-17 19:15:28.66	282.63	13.45	-83.5	-79.0	2.2	0.00e+00	0	48	0	0	60	1048574
2026-01-17 19:15:29.66	282.93	13.45	-83.5	-79.0	2.4	0.00e+00	0	49	104	0	60	1048574
2026-01-17 19:15:30.66	283.23	13.44	-83.5	-79.0	2.4	0.00e+00	0	49	104	0	60	1048570
2026-01-17 19:15:31.67	283.53	13.43	-83.1	-79.0	2.4	0.00e+00	0	49	104	0	60	1048575
2026-01-17 19:15:32.68	283.83	13.42	-83.5	-79.0	2.5	0.00e+00	0	49	104	0	60	1048575
2026-01-17 19:15:33.69	284.13	13.41	-83.5	-79.0	2.2	0.00e+00	0	49	104	0	60	1048572
2026-01-17 19:15:34.69	284.43	13.40	-83.5	-79.0	2.5	0.00e+00	0	49	104	0	60	1048565
2026-01-17 19:15:35.70	284.73	13.39	-83.5	-79.0	2.5	0.00e+00	0	49	104	0	60	1048573
2026-01-17 19:15:36.71	285.03	13.38	-83.1	-79.0	2.4	0.00e+00	0	49	104	0	60	1048571
2026-01-17 19:15:37.72	285.33	13.37	-83.5	-79.0	2.3	0.00e+00	0	49	104	0	60	1048571
2026-01-17 19:15:38.72	285.62	13.36	-83.5	-79.0	2.3	0.00e+00	0	49	104	0	60	1048573
2026-01-17 19:15:39.72	285.92	13.34	-83.5	-79.0	2.3	0.00e+00	0	49	104	0	60	1048572
2026-01-17 19:15:40.73	286.21	13.33	-83.1	-79.0	2.4	0.00e+00	0	49	104	0	60	1048574
2026-01-17 19:15:41.74	286.51	13.32	-82.8	-79.0	2.4	0.00e+00	0	49	104	0	60	1048569
2026-01-17 19:15:42.74	286.81	13.30	-83.5	-79.0	2.5	0.00e+00	0	49	104	0	60	1048575
2026-01-17 19:15:43.75	287.10	13.28	-83.5	-79.0	2.6	0.00e+00	0	49	104	0	60	1048570
2026-01-17 19:15:44.76	287.40	13.27	-83.5	-79.0	2.4	0.00e+00	0	49	104	0	60	1048574
2026-01-17 19:15:45.76	287.69	13.25	-83.1	-79.0	2.4	0.00e+00	0	49	104	0	60	1048570
2026-01-17 19:15:46.77	287.99	13.23	-83.1	-79.0	2.4	0.00e+00	0	49	104	0	60	1048569
2026-01-17 19:15:47.78	288.28	13.22	-83.5	-79.0	2.4	0.00e+00	0	49	104	0	60	1048574
2026-01-17 19:15:48.79	288.58	13.20	-83.5	-79.0	2.3	0.00e+00	0	49	104	0	60	1048575
2026-01-17 19:15:49.80	288.87	13.18	-83.5	-79.0	2.4	0.00e+00	0	49	104	0	60	1048575
2026-01-17 19:15:50.81	289.17	13.16	-83.1	-79.0	2.4	0.00e+00	0	49	104	0	60	1048570
2026-01-17 19:15:51.81	289.46	13.14	-83.5	-79.0	2.4	0.00e+00	0	48	104	0	60	1048571
2026-01-17 19:15:52.82	289.75	13.12	-83.5	-79.0	2.4	0.00e+00	0	49	104	0	60	1048575
2026-01-17 19:15:53.83	290.04	13.10	-83.5	-79.0	2.4	0.00e+00	0	49	104	0	60	1048570
2026-01-17 19:15:54.83	290.33	13.08	-83.1	-79.0	2.4	0.00e+00	0	49	104	0	60	1048573
2026-01-17 19:15:55.83	290.62	13.05	-83.1	-79.0	2.4	0.00e+00	0	49	104	0	60	1048566
2026-01-17 19:15:56.84	290.91	13.03	-83.5	-79.0	2.5	0.00e+00	0	49	104	0	60	1048574
2026-01-17 19:15:57.84	291.20	13.01	-83.5	-79.0	2.3	0.00e+00	0	49	104	0	60	1048574
2026-01-17 19:15:58.85	291.49	12.98	-83.5	-79.0	2.3	0.00e+00	0	49	104	0	60	1048572
2026-01-17 19:15:59.85	291.78	12.96	-82.8	-79.0	2.4	0.00e+00	0	49	104	0	60	1048571
2026-01-17 19:16:00.86	292.06	12.93	-83.1	-79.0	2.4	0.00e+00	0	49	104	0	60	1048574
2026-01-17 19:16:01.87	292.35	12.91	-83.5	-79.0	2.3	0.00e+00	0	49	104	0	60	1048567
2026-01-17 19:16:02.88	292.64	12.88	-83.5	-79.0	2.4	0.00e+00	0	49	104	0	60	1048575
2026-01-17 19:16:03.88	292.92	12.85	-83.5	-79.0	2.4	0.00e+00	0	49	104	0	60	1048573
2026-01-17 19:16:04.89	293.21	12.83	-83.1	-79.0	2.5	0.00e+00	0	49	104	0	60	1048575
2026-01-17 19:16:05.90	293.50	12.80	-83.1	-79.0	2.4	0.00e+00	0	49	104	0	60	1048573
2026-01-17 19:16:06.91	293.78	12.77	-83.1	-79.0	2.3	0.00e+00	0	49	104	0	60	1048575
2026-01-17 19:16:07.92	294.06	12.74	-83.5	-79.0	2.3	0.00e+00	0	49	104	0	60	1048571
2026-01-17 19:16:08.92	294.35	12.71	-83.5	-79.0	2.3	0.00e+00	0	49	104	0	60	1048575
2026-01-17 19:16:09.92	294.63	12.68	-82.8	-79.0	2.5	0.00e+00	0	49	104	0	60	1048573
2026-01-17 19:16:10.93	294.91	12.65	-83.5	-79.0	2.4	0.00e+00	0	49	104	0	60	1048573
2026-01-17 19:16:11.94	295.19	12.62	-83.5	-79.0	2.6	0.00e+00	0	49	104	0	60	1048572
2026-01-17 19:16:12.95	295.47	12.59	-83.5	-79.0	2.4	0.00e+00	0	49	104	0	60	1048571
2026-01-17 19:16:13.95	295.75	12.56	-83.1	-79.0	2.5	0.00e+00	0	49	104	0	60	1048572
2026-01-17 19:16:14.96	296.03	12.53	-82.8	-79.0	2.3	0.00e+00	0	49	104	0	60	1048574
2026-01-17 19:16:15.96	296.30	12.49	-83.5	-79.0	2.4	0.00e+00	0	49	104	0	60	1048572
2026-01-17 19:16:16.96	296.58	12.46	-83.5	-79.0	2.3	0.00e+00	0	49	104	0	60	1048575
2026-01-17 19:16:17.97	296.85	12.43	-83.5	-79.0	2.5	0.00e+00	0	49	104	0	60	1048570
2026-01-17 19:16:18.98	297.13	12.39	-82.8	-79.0	2.4	0.00e+00	0	49	104	0	60	1048574
2026-01-17 19:16:19.99	297.41	12.36	-83.5	-79.0	2.4	0.00e+00	0	49	104	0	60	1048574
2026-01-17 19:16:21.00	297.68	12.32	-83.5	-79.0	2.4	0.00e+00	0	49	104	0	60	1048574
2026-01-17 19:16:22.01	297.95	12.29	-83.5	-79.0	2.4	0.00e+00	0	49	104	0	60	1048573
2026-01-17 19:16:23.01	298.23	12.25	-83.5	-79.0	2.3	0.00e+00	0	49	104	0	60	1048575
2026-01-17 19:16:24.02	298.50	12.21	-82.8	-79.0	2.4	0.00e+00	0	49	104	0	60	1048575
2026-01-17 19:16:25.03	298.77	12.18	-83.1	-79.0	2.4	0.00e+00	0	49	104	0	60	1048572
2026-01-17 19:16:26.04	299.04	12.14	-83.5	-79.0	2.3	0.00e+00	0	49	104	0	60	1048570
2026-01-17 19:16:27.04	299.31	12.10	-83.5	-79.0	2.5	0.00e+00	0	49	104	0	60	1048573
2026-01-17 19:16:28.05	299.58	12.06	-83.5	-79.0	2.4	0.00e+00	0	49	104	0	60	1048565
2026-01-17 19:16:29.05	299.84	12.03	-83.1	-79.0	2.4	0.00e+00	0	49	104	0	60	1048565
2026-01-17 19:16:30.06	300.11	11.99	-83.1	-79.0	2.4	0.00e+00	0	49	104	0	60	1048575
2026-01-17 19:16:31.06	300.37	11.95	-83.5	-79.0	2.4	0.00e+00	0	49	104	0	60	1048571
2026-01-17 19:16:32.06	300.64	11.91	-83.5	-79.0	2.5	0.00e+00	0	49	104	0	60	1048575
2026-01-17 19:16:33.07	300.90	11.87	-83.1	-79.0	2.4	0.00e+00	0	49	104	0	60	1048566
2026-01-17 19:16:34.08	301.16	11.83	-83.5	-79.0	2.4	0.00e+00	0	49	104	0	60	1048570
2026-01-17 19:16:35.09	301.43	11.79	-83.5	-79.0	2.5	0.00e+00	0	49	104	0	60	1048572
2026-01-17 19:16:36.09	301.69	11.75	-83.5	-79.0	2.4	0.00e+00	0	49	104	0	60	1048575
2026-01-17 19:16:37.10	301.95	11.70	-83.5	-79.0	2.3	0.00e+00	0	49	104	0	60	1048571
2026-01-17 19:16:38.11	302.21	11.66	-83.1	-79.0	2.5	0.00e+00	0	49	104	0	60	1048575
2026-01-17 19:16:39.11	302.47	11.62	-83.1	-79.0	2.3	0.00e+00	0	49	104	0	60	1048575
2026-01-17 19:16:40.12	302.72	11.58	-83.5	-79.0	2.3	0.00e+00	0	49	104	0	60	1048569
2026-01-17 19:16:41.13	302.98	11.53	-83.5	-79.0	2.5	0.00e+00	0	49	104	0	60	1048574
2026-01-17 19:16:42.14	303.24	11.49	-83.5	-79.0	2.4	0.00e+00	0	49	104	0	60	1048574
2026-01-17 19:16:43.15	303.49	11.45	-83.1	-79.0	2.4	0.00e+00	0	49	104	0	60	1048574
2026-01-17 19:16:44.15	303.75	11.40	-83.5	-79.0	2.4	0.00e+00	0	48	104	0	60	1048573
2026-01-17 19:16:45.16	304.00	11.36	-83.5	-79.0	2.4	0.00e+00	0	49	104	0	60	1048575
2026-01-17 19:16:46.17	304.25	11.31	-83.5	-79.0	2.5	0.00e+00	0	49	104	0	60	1048574
2026-01-17 19:16:47.17	304.50	11.27	-83.5	-79.0	2.4	0.00e+00	0	49	104	0	60	1048567
2026-01-17 19:16:48.18	304.76	11.22	-83.1	-79.0	2.3	0.00e+00	0	49	104	0	60	1048574
2026-01-17 19:16:49.18	305.00	11.18	-83.5	-79.0	2.4	0.00e+00	0	49	104	0	60	1048575
2026-01-17 19:16:50.18	305.25	11.13	-83.5	-79.0	2.3	0.00e+00	0	49	104	0	60	1048572
2026-01-17 19:16:51.19	305.50	11.08	-83.5	-79.0	2.3	0.00e+00	0	49	104	0	60	1048572
2026-01-17 19:16:52.20	305.75	11.04	-83.1	-79.0	2.4	0.00e+00	0	49	104	0	60	1048572
2026-01-17 19:16:53.21	305.99	10.99	-83.1	-79.0	2.4	0.00e+00	0	49	104	0	60	1048575
2026-01-17 19:16:54.21	306.24	10.94	-83.5	-79.0	2.4	0.00e+00	0	49	104	0	60	1048575
2026-01-17 19:16:55.22	306.48	10.90	-83.5	-79.0	2.4	0.00e+00	0	49	104	0	60	1048574
2026-01-17 19:16:56.23	306.72	10.85	-83.5	-79.0	2.3	0.00e+00	0	49	104	0	60	1048569
2026-01-17 19:16:57.23	306.96	10.80	-83.1	-79.0	2.4	0.00e+00	0	49	104	0	60	1048568
2026-01-17 19:16:58.24	307.21	10.75	-83.1	-79.0	2.4	0.00e+00	0	49	104	0	60	1048570
2026-01-17 19:16:59.25	307.45	10.70	-83.1	-79.0	2.4	0.00e+00	0	49	104	0	60	1048575
2026-01-17 19:17:00.25	307.68	10.66	-83.5	-79.0	2.4	0.00e+00	0	49	104	0	60	1048572
2026-01-17 19:17:01.26	307.92	10.61	-83.1	-79.0	2.5	0.00e+00	0	49	104	0	60	1048569
2026-01-17 19:17:02.27	308.16	10.56	-82.8	-79.0	2.4	0.00e+00	0	49	104	0	60	1048573
2026-01-17 19:17:03.28	308.40	10.51	-83.5	-79.0	2.4	0.00e+00	0	49	104	0	60	1048575
2026-01-17 19:17:04.29	308.63	10.46	-83.5	-79.0	2.5	0.00e+00	0	49	104	0	60	1048572
2026-01-17 19:17:05.29	308.87	10.41	-83.1	-79.0	2.4	0.00e+00	0	49	104	0	60	1048575
2026-01-17 19:17:06.30	309.10	10.36	-83.1	-79.0	2.5	0.00e+00	0	49	104	0	60	1048561
2026-01-17 19:17:07.31	309.33	10.31	-83.1	-79.0	2.4	0.00e+00	0	49	104	0	60	1048573
2026-01-17 19:17:08.31	309.56	10.26	-83.5	-79.0	2.4	0.00e+00	0	49	104	0	60	1048575
2026-01-17 19:17:09.32	309.79	10.21	-83.5	-79.0	2.3	0.00e+00	0	49	104	0	60	1048574
2026-01-17 19:17:10.33	310.02	10.15	-83.5	-79.0	2.4	0.00e+00	0	49	104	0	60	1048572
2026-01-17 19:17:11.34	310.25	10.10	-83.1	-79.0	2.4	0.00e+00	0	49	104	0	60	1048575
2026-01-17 19:17:12.35	310.48	10.05	-83.1	-79.0	2.4	0.00e+00	0	49	104	0	60	1048573
2026-01-17 19:17:13.36	310.71	10.00	-83.5	-79.0	2.4	0.00e+00	0	48	104	0	60	1048575
2026-01-17 19:17:14.36	310.93	9.95	-83.5	-79.0	2.3	0.00e+00	0	49	104	0	60	1048575
2026-01-17 19:17:15.37	311.16	9.90	-83.5	-79.0	2.4	0.00e+00	0	49	104	0	60	1048572
2026-01-17 19:17:16.38	311.38	9.84	-83.1	-79.0	2.4	0.00e+00	0	49	104	0	60	1048572
2026-01-17 19:17:17.39	311.61	9.79	-83.5	-79.0	2.4	0.00e+00	0	49	104	0	60	1048574
2026-01-17 19:17:18.39	311.83	9.74	-83.5	-79.0	2.3	0.00e+00	0	49	104	0	60	1048574
2026-01-17 19:17:19.40	312.05	9.69	-83.5	-79.0	2.4	0.00e+00	0	49	104	0	60	1048572
2026-01-17 19:17:20.40	312.27	9.63	-83.5	-79.0	2.3	0.00e+00	0	49	104	0	60	1048575
2026-01-17 19:17:21.41	312.49	9.58	-83.1	-79.0	2.4	0.00e+00	0	49	104	0	60	1048575
2026-01-17 19:17:22.41	312.70	9.53	-83.5	-79.0	2.4	0.00e+00	0	49	104	0	60	1048570
2026-01-17 19:17:23.42	312.92	9.47	-83.1	-79.0	2.4	0.00e+00	0	49	104	0	60	1048575
2026-01-17 19:17:24.43	313.14	9.42	-83.5	-79.0	2.5	0.00e+00	0	49	104	0	60	1048575
2026-01-17 19:17:25.44	313.35	9.37	-83.1	-79.0	2.5	0.00e+00	0	49	104	0	60	1048573
2026-01-17 19:17:26.45	313.57	9.31	-83.5	-79.0	2.4	0.00e+00	0	49	104	0	60	1048574
2026-01-17 19:17:27.45	313.78	9.26	-83.5	-79.0	2.4	0.00e+00	0	49	104	0	60	1048574
2026-01-17 19:17:28.46	313.99	9.20	-83.1	-79.0	2.4	0.00e+00	0	49	104	0	60	1048574
2026-01-17 19:17:29.46	314.20	9.15	-83.5	-79.0	2.4	0.00e+00	0	49	104	0	60	1048574
2026-01-17 19:17:30.47	314.41	9.09	-83.1	-79.0	2.4	0.00e+00	0	49	104	0	60	1048574
2026-01-17 19:17:31.48	314.62	9.04	-83.5	-79.0	2.2	0.00e+00	0	49	104	0	60	1048571
2026-01-17 19:17:32.48	314.83	8.99	-83.5	-79.0	2.4	0.00e+00	0	49	104	0	60	1048569
2026-01-17 19:17:33.48	315.03	8.93	-83.5	-79.0	2.4	0.00e+00	0	49	104	0	60	1048575
2026-01-17 19:17:34.48	315.24	8.88	-83.1	-79.0	2.3	0.00e+00	0	49	104	0	60	1048572
2026-01-17 19:17:35.48	315.44	8.82	-83.1	-79.0	2.4	0.00e+00	0	49	104	0	60	1048574
2026-01-17 19:17:36.49	315.65	8.77	-83.5	-79.0	2.4	0.00e+00	0	49	104	0	60	1048572
2026-01-17 19:17:37.49	315.85	8.71	-83.5	-79.0	2.3	0.00e+00	0	49	104	0	60	1048568
2026-01-17 19:17:38.50	316.05	8.66	-83.5	-79.0	2.4	0.00e+00	0	49	104	0	60	1048575
2026-01-17 19:17:39.51	316.26	8.60	-83.5	-79.0	2.4	0.00e+00	0	49	104	0	60	1048574
2026-01-17 19:17:40.51	316.46	8.55	-83.1	-79.0	2.5	0.00e+00	0	49	104	0	60	1048573
2026-01-17 19:17:41.51	316.65	8.49	-83.5	-79.0	2.5	0.00e+00	0	49	104	0	60	1048572
2026-01-17 19:17:42.52	316.85	8.43	-83.5	-79.0	2.4	0.00e+00	0	49	104	0	60	1048575
2026-01-17 19:17:43.53	317.05	8.38	-83.5	-79.0	2.4	0.00e+00	0	49	104	0	60	1048574
2026-01-17 19:17:44.53	317.25	8.32	-83.1	-79.0	2.4	0.00e+00	0	49	104	0	60	1048575
2026-01-17 19:17:45.54	317.45	8.27	-83.5	-79.0	2.4	0.00e+00	0	49	104	0	60	1048571
2026-01-17 19:17:46.55	317.64	8.21	-83.1	-79.0	2.4	0.00e+00	0	49	104	0	60	1048570
2026-01-17 19:17:47.55	317.83	8.16	-83.5	-79.0	2.4	0.00e+00	0	49	104	0	60	1048574
2026-01-17 19:17:48.56	318.03	8.10	-83.5	-79.0	2.4	0.00e+00	0	49	104	0	60	1048572
2026-01-17 19:17:49.57	318.22	8.04	-83.1	-79.0	2.4	0.00e+00	0	49	104	0	60	1048556
2026-01-17 19:17:50.57	318.41	7.99	-83.1	-79.0	2.4	0.00e+00	0	49	104	0	60	1048574
2026-01-17 19:17:51.58	318.60	7.93	-83.5	-79.0	2.4	0.00e+00	0	49	104	0	60	1048571
2026-01-17 19:17:52.59	318.79	7.87	-83.1	-79.0	2.3	0.00e+00	0	49	104	0	60	1048573
2026-01-17 19:17:53.60	318.98	7.82	-83.5	-79.0	2.4	0.00e+00	0	49	104	0	60	1048572
2026-01-17 19:17:54.60	319.17	7.76	-82.8	-79.0	2.4	0.00e+00	0	49	104	0	60	1048571
2026-01-17 19:17:55.61	319.36	7.70	-83.5	-79.0	2.3	0.00e+00	0	49	104	0	60	1048575
2026-01-17 19:17:56.62	319.54	7.65	-83.5	-79.0	2.5	0.00e+00	0	49	104	0	60	1048573
2026-01-17 19:17:57.62	319.73	7.59	-83.5	-79.0	2.4	0.00e+00	0	49	104	0	60	1048575
2026-01-17 19:17:58.63	319.91	7.53	-82.8	-79.0	2.3	0.00e+00	0	49	104	0	60	1048575
2026-01-17 19:17:59.64	320.10	7.48	-83.1	-79.0	2.5	0.00e+00	0	49	104	0	60	1048573
2026-01-17 19:18:00.64	320.28	7.42	-83.5	-79.0	2.4	0.00e+00	0	49	104	0	60	1048573
2026-01-17 19:18:01.65	320.46	7.36	-83.5	-79.0	2.4	0.00e+00	0	49	104	0	60	1048570
2026-01-17 19:18:02.66	320.64	7.31	-83.5	-79.0	2.4	0.00e+00	0	49	104	0	60	1048573
2026-01-17 19:18:03.67	320.82	7.25	-83.1	-79.0	2.3	0.00e+00	0	49	104	0	60	1048574
2026-01-17 19:18:04.68	321.00	7.19	-83.1	-79.0	2.4	0.00e+00	0	49	104	0	60	1048572
2026-01-17 19:18:05.69	321.18	7.13	-83.5	-79.0	2.4	0.00e+00	0	49	104	0	60	1048575
2026-01-17 19:18:06.69	321.36	7.08	-83.5	-79.0	2.4	0.00e+00	0	49	104	0	60	1048574
2026-01-17 19:18:07.70	321.54	7.02	-83.5	-79.0	2.5	0.00e+00	0	49	104	0	60	1048574
2026-01-17 19:18:08.70	321.71	6.96	-83.1	-79.0	2.5	0.00e+00	0	49	104	0	60	1048567
2026-01-17 19:18:09.70	321.89	6.91	-83.1	-79.0	2.3	0.00e+00	0	49	104	0	60	1048573
2026-01-17 19:18:10.71	322.06	6.85	-83.5	-79.0	2.4	0.00e+00	0	49	104	0	60	1048575
2026-01-17 19:18:11.72	322.23	6.79	-83.5	-79.0	2.5	0.00e+00	0	49	104	0	60	1048573
2026-01-17 19:18:12.72	322.41	6.74	-83.1	-79.0	2.3	0.00e+00	0	49	104	0	60	1048574
2026-01-17 19:18:13.73	322.58	6.68	-83.1	-79.0	2.4	0.00e+00	0	49	104	0	60	1048573
2026-01-17 19:18:14.74	322.75	6.62	-83.5	-79.0	2.5	0.00e+00	0	49	104	0	60	1048572
2026-01-17 19:18:15.74	322.92	6.56	-83.5	-79.0	2.4	0.00e+00	0	49	104	0	60	1048575
2026-01-17 19:18:16.75	323.09	6.51	-83.5	-79.0	2.4	0.00e+00	0	49	104	0	60	1048575
2026-01-17 19:18:17.76	323.26	6.45	-83.5	-79.0	2.4	0.00e+00	0	49	104	0	60	1048575
2026-01-17 19:18:18.77	323.43	6.39	-82.8	-79.0	2.4	0.00e+00	0	49	104	0	60	1048575
2026-01-17 19:18:19.78	323.59	6.33	-83.5	-79.0	2.4	0.00e+00	0	49	104	0	60	1048573
2026-01-17 19:18:20.78	323.76	6.28	-83.5	-79.0	2.3	0.00e+00	0	49	104	0	60	1048575
2026-01-17 19:18:21.79	323.92	6.22	-83.1	-79.0	2.5	0.00e+00	0	49	104	0	60	1048575
2026-01-17 19:18:22.79	324.09	6.16	-83.1	-79.0	2.4	0.00e+00	0	49	104	0	60	1048573
2026-01-17 19:18:23.80	324.25	6.11	-83.5	-79.0	2.5	0.00e+00	0	49	104	0	60	1048575
2026-01-17 19:18:24.80	324.41	6.05	-83.5	-79.0	2.4	0.00e+00	0	49	104	0	60	1048573
2026-01-17 19:18:25.81	324.58	5.99	-83.5	-79.0	2.3	0.00e+00	0	49	104	0	60	1048574
2026-01-17 19:18:26.81	324.74	5.93	-83.5	-79.0	2.4	0.00e+00	0	49	104	0	60	1048571
2026-01-17 19:18:27.82	324.90	5.88	-82.8	-79.0	2.4	0.00e+00	0	49	104	0	60	1048570
2026-01-17 19:18:28.82	325.06	5.82	-83.5	-79.0	2.5	0.00e+00	0	49	104	0	60	1048556
2026-01-17 19:18:29.83	325.22	5.76	-83.5	-79.0	2.4	0.00e+00	0	49	104	0	60	1048558
2026-01-17 19:18:30.84	325.37	5.71	-83.5	-79.0	2.6	0.00e+00	0	49	104	0	60	1048570
2026-01-17 19:18:31.84	325.53	5.65	-83.1	-79.0	2.4	0.00e+00	0	49	104	0	60	1048571
2026-01-17 19:18:32.85	325.69	5.59	-82.8	-79.0	2.4	0.00e+00	0	49	104	0	60	1048573
2026-01-17 19:18:33.86	325.84	5.53	-83.5	-79.0	2.4	0.00e+00	0	49	104	0	60	1048572
2026-01-17 19:18:34.86	326.00	5.48	-83.5	-79.0	2.4	0.00e+00	0	49	104	0	60	1048575
2026-01-17 19:18:35.87	326.15	5.42	-83.5	-79.0	2.3	0.00e+00	0	49	104	0	60	1048575
2026-01-17 19:18:36.88	326.31	5.36	-83.1	-79.0	2.4	0.00e+00	0	49	104	0	60	1048570
2026-01-17 19:18:37.89	326.46	5.31	-83.1	-79.0	2.4	0.00e+00	0	49	104	0	60	1048564
2026-01-17 19:18:38.89	326.61	5.25	-83.5	-79.0	2.4	0.00e+00	0	49	104	0	60	1048575
2026-01-17 19:18:39.89	326.76	5.19	-83.5	-79.0	2.4	0.00e+00	0	49	104	0	60	1048574
2026-01-17 19:18:40.90	326.91	5.14	-83.5	-79.0	2.3	0.00e+00	0	49	104	0	60	1048575
2026-01-17 19:18:41.90	327.06	5.08	-83.1	-79.0	2.4	0.00e+00	0	49	104	0	60	1048571
2026-01-17 19:18:42.90	327.21	5.02	-83.5	-79.0	2.3	0.00e+00	0	49	104	0	60	1048572
2026-01-17 19:18:43.91	327.36	4.96	-83.5	-79.0	2.4	0.00e+00	0	49	104	0	60	1048574
2026-01-17 19:18:44.92	327.51	4.91	-83.5	-79.0	2.6	0.00e+00	0	49	104	0	60	1048571
2026-01-17 19:18:45.93	327.66	4.85	-83.5	-79.0	2.4	0.00e+00	0	49	104	0	60	1048562
2026-01-17 19:18:46.94	327.80	4.79	-82.8	-79.0	2.3	0.00e+00	0	49	104	0	60	1048560
2026-01-17 19:18:47.94	327.95	4.74	-83.5	-79.0	2.5	0.00e+00	0	49	104	0	60	1048573
2026-01-17 19:18:48.95	328.10	4.68	-83.5	-79.0	2.4	0.00e+00	0	49	104	0	60	1048574
2026-01-17 19:18:49.96	328.24	4.62	-83.5	-79.0	2.5	0.00e+00	0	49	104	0	60	1048568
2026-01-17 19:18:50.97	328.38	4.57	-83.5	-79.0	2.4	0.00e+00	0	49	104	0	60	1048572
2026-01-17 19:18:51.97	328.53	4.51	-83.1	-79.0	2.4	0.00e+00	0	49	104	0	60	1048575
2026-01-17 19:18:52.98	328.67	4.45	-83.5	-79.0	2.4	0.00e+00	0	49	104	0	60	1048575
2026-01-17 19:18:53.99	328.81	4.40	-83.5	-79.0	2.5	0.00e+00	0	49	104	0	60	1048572
2026-01-17 19:18:55.00	328.95	4.34	-83.5	-79.0	2.3	0.00e+00	0	49	104	0	60	1048575
2026-01-17 19:18:56.01	329.09	4.28	-83.1	-79.0	2.6	0.00e+00	0	49	104	0	60	1048573
2026-01-17 19:18:57.01	329.23	4.23	-83.1	-79.0	2.4	0.00e+00	0	49	104	0	60	1048573
2026-01-17 19:18:58.01	329.37	4.17	-83.5	-79.0	2.5	0.00e+00	0	49	104	0	60	1048575
2026-01-17 19:18:59.02	329.51	4.11	-83.5	-79.0	2.4	0.00e+00	0	49	104	0	60	1048572
2026-01-17 19:19:00.03	329.65	4.06	-83.5	-79.0	2.3	0.00e+00	0	49	104	0	60	1048566
2026-01-17 19:19:01.03	329.79	4.00	-82.8	-79.0	2.4	0.00e+00	0	49	104	0	60	1048562
2026-01-17 19:19:02.04	329.92	3.95	-83.5	-79.0	2.3	0.00e+00	0	49	104	0	60	1048571
2026-01-17 19:19:03.03	330.06	3.89	-83.5	-79.0	2.5	0.00e+00	0	49	104	0	60	1048573
2026-01-17 19:19:04.03	330.19	3.84	-83.5	-79.0	2.4	0.00e+00	0	49	104	0	60	1048575
2026-01-17 19:19:05.03	330.32	3.78	-83.1	-79.0	2.5	0.00e+00	0	49	104	0	60	1048573
2026-01-17 19:19:06.03	330.46	3.72	-83.1	-79.0	2.4	0.00e+00	0	49	104	0	60	1048570
2026-01-17 19:19:07.04	330.59	3.67	-83.5	-79.0	2.3	0.00e+00	0	49	104	0	60	1048574
2026-01-17 19:19:08.04	330.72	3.61	-83.5	-79.0	2.4	0.00e+00	0	49	104	0	60	1048574
2026-01-17 19:19:09.05	330.85	3.56	-83.1	-79.0	2.3	0.00e+00	0	49	104	0	60	1048575
2026-01-17 19:19:10.06	330.99	3.50	-83.1	-79.0	2.3	0.00e+00	0	49	104	0	60	1048566
2026-01-17 19:19:11.07	331.12	3.44	-82.8	-79.0	2.4	0.00e+00	0	49	104	0	60	1048574
2026-01-17 19:19:12.08	331.25	3.39	-83.5	-79.0	2.4	0.00e+00	0	49	104	0	60	1048572
2026-01-17 19:19:13.09	331.38	3.33	-83.5	-79.0	2.4	0.00e+00	0	49	104	0	60	1048575
2026-01-17 19:19:14.09	331.51	3.28	-83.5	-79.0	2.5	0.00e+00	0	49	104	0	60	1048571
2026-01-17 19:19:15.10	331.64	3.22	-82.8	-79.0	2.4	0.00e+00	0	49	104	0	60	1048575
2026-01-17 19:19:16.09	331.76	3.17	-83.1	-79.0	2.3	0.00e+00	0	49	104	0	60	1048574
2026-01-17 19:19:17.10	331.89	3.11	-83.5	-79.0	2.4	0.00e+00	0	49	104	0	60	1048573
2026-01-17 19:19:18.11	332.02	3.05	-83.5	-79.0	2.4	0.00e+00	0	49	104	0	60	1048568
2026-01-17 19:19:19.11	332.14	3.00	-83.5	-79.0	2.4	0.00e+00	0	49	104	0	60	1048563
2026-01-17 19:19:20.12	332.27	2.94	-82.8	-79.0	2.4	0.00e+00	0	49	104	0	60	1048572
2026-01-17 19:19:21.13	332.39	2.89	-83.5	-79.0	2.4	0.00e+00	0	49	104	0	60	1048574
2026-01-17 19:19:22.14	332.52	2.83	-83.5	-79.0	2.3	0.00e+00	0	49	104	0	60	1048574
2026-01-17 19:19:23.14	332.64	2.78	-83.5	-79.0	2.4	0.00e+00	0	49	104	0	60	1048571
2026-01-17 19:19:24.15	332.76	2.72	-83.1	-79.0	2.5	0.00e+00	0	49	104	0	60	1048571
2026-01-17 19:19:25.16	332.89	2.67	-83.1	-79.0	2.4	0.00e+00	0	49	104	0	60	1048570
2026-01-17 19:19:26.17	333.01	2.61	-83.5	-79.0	2.4	0.00e+00	0	49	104	0	60	1048564
2026-01-17 19:19:27.17	333.13	2.56	-83.5	-79.0	2.4	0.00e+00	0	49	104	0	60	1048575
2026-01-17 19:19:28.18	333.25	2.50	-83.5	-79.0	2.4	0.00e+00	0	49	104	0	60	1048574
2026-01-17 19:19:29.19	333.37	2.45	-83.1	-79.0	2.4	0.00e+00	0	49	104	0	60	1048572
2026-01-17 19:19:30.19	333.49	2.39	-83.1	-79.0	2.5	0.00e+00	0	49	104	0	60	1048561
2026-01-17 19:19:31.20	333.61	2.34	-83.5	-79.0	2.5	0.00e+00	0	49	104	0	60	1048568
2026-01-17 19:19:32.20	333.73	2.28	-83.5	-79.0	2.5	0.00e+00	0	49	104	0	60	1048570
2026-01-17 19:19:33.21	333.85	2.23	-83.5	-79.0	2.4	0.00e+00	0	49	104	0	60	1048575
2026-01-17 19:19:34.22	333.97	2.17	-83.1	-79.0	2.4	0.00e+00	0	49	104	0	60	1048570
2026-01-17 19:19:35.23	334.08	2.12	-83.1	-79.0	2.4	0.00e+00	0	49	104	0	60	1048574
2026-01-17 19:19:36.24	334.20	2.07	-83.5	-79.0	2.3	0.00e+00	0	49	104	0	60	1048574
2026-01-17 19:19:37.24	334.32	2.01	-83.5	-79.0	2.5	0.00e+00	0	49	104	0	60	1048573
2026-01-17 19:19:38.24	334.43	1.96	-83.1	-79.0	2.4	0.00e+00	0	49	104	0	60	1048571
2026-01-17 19:19:39.25	334.55	1.90	-82.8	-79.0	2.4	0.00e+00	0	49	104	0	60	1048575
2026-01-17 19:19:40.25	334.66	1.85	-83.5	-79.0	2.4	0.00e+00	0	49	104	0	60	1048574
2026-01-17 19:19:41.26	334.77	1.79	-83.5	-79.0	2.5	0.00e+00	0	49	104	0	60	1048572
2026-01-17 19:19:42.27	334.89	1.74	-83.5	-79.0	2.4	0.00e+00	0	49	104	0	60	1048575
2026-01-17 19:19:43.27	335.00	1.69	-83.1	-79.0	2.5	0.00e+00	0	49	104	0	60	1048570
2026-01-17 19:19:44.28	335.11	1.63	-82.8	-79.0	2.3	0.00e+00	0	49	104	0	60	1048575
2026-01-17 19:19:45.29	335.23	1.58	-83.5	-79.0	2.4	0.00e+00	0	49	104	0	60	1048572
2026-01-17 19:19:46.30	335.34	1.52	-83.5	-79.0	2.4	0.00e+00	0	49	104	0	60	1048560
2026-01-17 19:19:47.30	335.45	1.47	-83.5	-79.0	2.5	0.00e+00	0	49	104	0	60	1048575
2026-01-17 19:19:48.30	335.56	1.42	-83.1	-79.0	2.4	0.00e+00	0	49	104	0	60	1048575
2026-01-17 19:19:49.31	335.67	1.36	-83.1	-79.0	2.4	0.00e+00	0	49	104	0	60	1048575
2026-01-17 19:19:50.32	335.78	1.31	-83.5	-79.0	2.3	0.00e+00	0	49	104	0	60	1048574
2026-01-17 19:19:51.33	335.89	1.26	-83.5	-79.0	2.4	0.00e+00	0	49	104	0	60	1048573
2026-01-17 19:19:52.33	336.00	1.20	-83.5	-79.0	2.4	0.00e+00	0	49	104	0	60	1048569
2026-01-17 19:19:53.34	336.10	1.15	-83.1	-79.0	2.3	0.00e+00	0	49	104	0	60	1048573
2026-01-17 19:19:54.35	336.21	1.10	-83.5	-79.0	2.4	0.00e+00	0	49	104	0	60	1048571
2026-01-17 19:19:55.35	336.32	1.04	-83.5	-79.0	2.4	0.00e+00	0	49	104	0	60	1048572
2026-01-17 19:19:56.36	336.43	0.99	-83.5	-79.0	2.3	0.00e+00	0	49	104	0	60	1048575
2026-01-17 19:19:57.37	336.53	0.94	-83.5	-79.0	2.4	0.00e+00	0	49	104	0	60	1048573
2026-01-17 19:19:58.37	336.64	0.88	-83.1	-79.0	2.4	0.00e+00	0	49	104	0	60	1048574
2026-01-17 19:19:59.38	336.74	0.83	-83.5	-79.0	2.4	0.00e+00	0	49	104	0	60	1048574
2026-01-17 19:20:00.39	336.85	0.78	-83.5	-79.0	2.4	0.00e+00	0	49	104	0	60	1048573
2026-01-17 19:20:01.39	336.95	0.72	-83.5	-79.0	2.4	0.00e+00	0	49	104	0	60	1048574
2026-01-17 19:20:02.40	337.06	0.67	-83.1	-79.0	2.4	0.00e+00	0	49	104	0	60	1048570
2026-01-17 19:20:03.40	337.16	0.62	-83.1	-79.0	2.4	0.00e+00	0	49	104	0	60	1048568
2026-01-17 19:20:04.41	337.26	0.57	-83.5	-79.0	2.4	0.00e+00	0	49	104	0	60	1048570
2026-01-17 19:20:05.42	337.36	0.51	-83.5	-79.0	2.6	0.00e+00	0	49	104	0	60	1048564
2026-01-17 19:20:06.43	337.47	0.46	-83.5	-79.0	2.4	0.00e+00	0	49	104	0	60	1048575
2026-01-17 19:20:07.44	337.57	0.41	-82.8	-79.0	2.4	0.00e+00	0	49	104	0	60	1048572
2026-01-17 19:20:08.44	337.67	0.36	-83.1	-79.0	2.4	0.00e+00	0	49	104	0	60	1048574
2026-01-17 19:20:09.45	337.77	0.30	-83.5	-79.0	2.4	0.00e+00	0	49	104	0	60	1048575
2026-01-17 19:20:10.46	337.87	0.25	-83.5	-79.0	2.4	0.00e+00	0	49	104	0	60	1048574
2026-01-17 19:20:11.47	337.97	0.20	-83.5	-79.0	2.3	0.00e+00	0	49	104	0	60	1048561
2026-01-17 19:20:12.48	338.07	0.15	-83.1	-79.0	2.4	0.00e+00	0	49	104	0	60	1048568
2026-01-17 19:20:13.49	338.17	0.09	-83.1	-79.0	2.4	0.00e+00	0	49	104	0	60	1048573
2026-01-17 19:20:14.49	338.27	0.04	-83.5	-79.0	2.4	0.00e+00	0	49	104	0	60	1048575
2026-01-17 19:20:15.50	338.37	-0.01	-83.5	-79.0	2.4	0.00e+00	0	49	104	0	60	1048575
2026-01-17 19:20:16.51	338.47	-0.06	-83.1	-79.0	2.4	0.00e+00	0	49	104	0	60	1048575
2026-01-17 19:20:17.51	338.56	-0.11	-83.1	-79.0	2.4	0.00e+00	0	49	104	0	60	1048572

#Closed at: 2026-01-17 19:20:18
#Recorded file [0 MB]: D:/Data/35015_260117_221528.dat