passes_logs/2026/01/17/R3.2S-Naryan-Mar/R3.2S-Naryan-Mar__20260117_232038_AQUA_rec.log

#Pass ID: 20260117_232038_AQUA
#Satellite: AQUA
#Configuration: AQUA
#almurnet v.1.7.20240730
#Start time: 2026-01-17 23:20:41

#Version: 2.2.20231116
#Station: R3.2S-Naryan-Mar
#Location: 53.008057 lon 67.646978 lat
#TLE: 1 27424U 02022A   26017.29152041  .00000842  00000+0  17841-3 0  9992
#TLE: 2 27424  98.4085 343.7574 0002011  75.4099  30.6811 14.61825797261228

#Time	Az	El	Level	Level2	SNR	BER	BlckErr	Temp	State	Recorded	gain1	gain2
2026-01-17 23:20:41.40	19.51	0.18	-84.3	-88.8	2.4	3.11e+01	0	46	0	0	60	1048575
2026-01-17 23:20:42.40	19.57	0.23	-84.3	-88.8	2.5	3.11e+01	0	45	104	0	60	1048575
2026-01-17 23:20:43.41	19.62	0.29	-83.9	-88.8	2.6	3.11e+01	0	46	104	0	60	1048575
2026-01-17 23:20:44.42	19.68	0.35	-84.3	-88.8	2.4	3.11e+01	0	46	104	0	60	1048575
2026-01-17 23:20:45.43	19.73	0.41	-84.3	-88.8	2.6	3.11e+01	0	46	104	0	60	1048575
2026-01-17 23:20:46.43	19.78	0.47	-84.3	-88.8	2.6	3.11e+01	0	46	104	0	60	1048575
2026-01-17 23:20:47.44	19.84	0.52	-83.9	-88.8	2.6	3.11e+01	0	46	104	0	60	1048575
2026-01-17 23:20:48.45	19.89	0.58	-83.9	-88.8	2.8	3.11e+01	0	46	104	0	60	1048575
2026-01-17 23:20:49.46	19.95	0.64	-84.3	-88.8	2.8	3.11e+01	0	46	104	0	60	1048575
2026-01-17 23:20:50.47	20.00	0.70	-84.3	-88.8	2.5	3.11e+01	0	46	104	0	60	1048575
2026-01-17 23:20:51.47	20.06	0.76	-84.3	-88.8	2.6	3.11e+01	0	46	104	0	60	1048575
2026-01-17 23:20:52.47	20.12	0.82	-83.9	-88.8	2.4	3.11e+01	0	46	104	0	60	1048575
2026-01-17 23:20:53.48	20.17	0.88	-83.9	-88.8	2.3	3.11e+01	0	46	104	0	60	1048575
2026-01-17 23:20:54.49	20.23	0.93	-83.9	-88.8	2.6	3.11e+01	0	46	104	0	60	1048575
2026-01-17 23:20:55.49	20.28	0.99	-84.3	-88.8	2.7	3.11e+01	0	46	104	0	60	1048575
2026-01-17 23:20:56.50	20.34	1.05	-84.3	-88.8	2.7	3.11e+01	0	46	104	0	60	1048575
2026-01-17 23:20:57.51	20.40	1.11	-83.9	-88.8	2.7	3.11e+01	0	46	104	0	60	1048575
2026-01-17 23:20:58.51	20.45	1.17	-84.3	-88.8	2.6	3.11e+01	0	46	104	0	60	1048575
2026-01-17 23:20:59.51	20.51	1.23	-84.3	-88.8	2.6	3.11e+01	0	46	104	0	60	1048575
2026-01-17 23:21:00.52	20.57	1.29	-84.3	-88.8	2.4	3.11e+01	0	46	104	0	60	1048575
2026-01-17 23:21:01.53	20.63	1.35	-84.3	-88.8	2.6	3.11e+01	0	46	104	0	60	1048575
2026-01-17 23:21:02.54	20.69	1.41	-83.9	-88.8	2.5	3.11e+01	0	46	104	0	60	1048575
2026-01-17 23:21:03.54	20.74	1.47	-84.3	-88.8	2.4	3.11e+01	0	46	104	0	60	1048575
2026-01-17 23:21:04.55	20.80	1.53	-84.3	-88.8	2.5	3.11e+01	0	46	104	0	60	1048575
2026-01-17 23:21:05.56	20.86	1.59	-84.3	-88.8	2.5	3.11e+01	0	46	104	0	60	1048575
2026-01-17 23:21:06.57	20.92	1.65	-83.9	-88.8	2.6	3.11e+01	0	46	104	0	60	1048575
2026-01-17 23:21:07.57	20.98	1.71	-83.9	-88.8	2.4	3.11e+01	0	46	104	0	60	1048575
2026-01-17 23:21:08.58	21.04	1.77	-83.9	-88.8	2.6	3.11e+01	0	46	104	0	60	1048575
2026-01-17 23:21:09.59	21.10	1.83	-84.3	-88.8	2.5	3.11e+01	0	46	104	0	60	1048575
2026-01-17 23:21:10.59	21.16	1.89	-84.3	-88.8	2.5	3.11e+01	0	46	104	0	60	1048575
2026-01-17 23:21:11.60	21.22	1.95	-83.9	-88.8	2.7	3.11e+01	0	46	104	0	60	1048575
2026-01-17 23:21:12.60	21.28	2.01	-83.9	-88.8	2.7	3.11e+01	0	46	104	0	60	1048575
2026-01-17 23:21:13.61	21.34	2.08	-84.3	-88.8	2.4	3.11e+01	0	46	104	0	60	1048575
2026-01-17 23:21:14.61	21.40	2.14	-84.3	-88.8	2.6	3.11e+01	0	46	104	0	60	1048575
2026-01-17 23:21:15.62	21.46	2.20	-84.3	-88.8	2.3	3.11e+01	0	46	104	0	60	1048575
2026-01-17 23:21:16.63	21.52	2.26	-83.9	-88.8	2.5	3.11e+01	0	46	104	0	60	1048575
2026-01-17 23:21:17.63	21.59	2.32	-84.3	-88.8	2.2	3.11e+01	0	46	104	0	60	1048575
2026-01-17 23:21:18.64	21.65	2.38	-84.3	-88.8	2.3	3.11e+01	0	46	104	0	60	1048575
2026-01-17 23:21:19.64	21.71	2.45	-84.3	-88.8	2.4	3.11e+01	0	46	104	0	60	1048575
2026-01-17 23:21:20.65	21.77	2.51	-83.9	-88.8	2.3	3.11e+01	0	46	104	0	60	1048575
2026-01-17 23:21:21.66	21.84	2.57	-83.9	-88.8	2.5	3.11e+01	0	46	104	0	60	1048575
2026-01-17 23:21:22.67	21.90	2.63	-84.3	-88.8	2.7	3.11e+01	0	46	104	0	60	1048575
2026-01-17 23:21:23.68	21.96	2.70	-84.3	-88.8	2.6	3.11e+01	0	46	104	0	60	1048575
2026-01-17 23:21:24.69	22.03	2.76	-84.3	-88.8	2.8	3.11e+01	0	46	104	0	60	1048575
2026-01-17 23:21:25.69	22.09	2.82	-83.9	-88.8	2.3	3.11e+01	0	46	104	0	60	1048575
2026-01-17 23:21:26.70	22.15	2.88	-83.9	-88.8	2.6	3.11e+01	0	46	104	0	60	1048575
2026-01-17 23:21:27.71	22.22	2.95	-84.3	-88.8	2.3	3.11e+01	0	46	104	0	60	1048575
2026-01-17 23:21:28.71	22.28	3.01	-84.3	-88.8	2.4	3.11e+01	0	46	104	0	60	1048575
2026-01-17 23:21:29.71	22.35	3.07	-84.3	-88.8	2.5	3.11e+01	0	46	104	0	60	1048575
2026-01-17 23:21:30.72	22.41	3.14	-83.9	-88.8	2.4	3.11e+01	0	46	104	0	60	1048575
2026-01-17 23:21:31.72	22.48	3.20	-84.3	-88.8	2.4	3.11e+01	0	46	104	0	60	1048575
2026-01-17 23:21:32.73	22.54	3.26	-84.3	-88.8	2.7	3.11e+01	0	46	104	0	60	1048575
2026-01-17 23:21:33.74	22.61	3.33	-84.3	-88.8	2.7	3.11e+01	0	46	104	0	60	1048575
2026-01-17 23:21:34.75	22.68	3.39	-84.3	-88.8	2.8	3.11e+01	0	46	104	0	60	1048575
2026-01-17 23:21:35.75	22.74	3.45	-83.9	-88.8	2.8	3.11e+01	0	46	104	0	60	1048575
2026-01-17 23:21:36.76	22.81	3.52	-84.3	-88.8	2.4	3.11e+01	0	46	104	0	60	1048575
2026-01-17 23:21:37.77	22.88	3.58	-84.3	-88.8	2.5	3.11e+01	0	46	104	0	60	1048575
2026-01-17 23:21:38.77	22.95	3.65	-84.3	-88.8	2.8	3.11e+01	0	46	104	0	60	1048575
2026-01-17 23:21:39.78	23.01	3.71	-83.9	-88.8	2.4	3.11e+01	0	46	104	0	60	1048575
2026-01-17 23:21:40.79	23.08	3.78	-83.9	-88.8	2.7	3.11e+01	0	46	104	0	60	1048575
2026-01-17 23:21:41.80	23.15	3.84	-84.3	-88.8	2.6	3.11e+01	0	46	104	0	60	1048575
2026-01-17 23:21:42.80	23.22	3.91	-84.3	-88.8	2.5	3.11e+01	0	46	104	0	60	1048575
2026-01-17 23:21:43.81	23.29	3.97	-84.3	-88.8	2.8	3.11e+01	0	46	104	0	60	1048575
2026-01-17 23:21:44.81	23.36	4.04	-83.9	-88.8	2.5	3.11e+01	0	46	104	0	60	1048575
2026-01-17 23:21:45.81	23.43	4.10	-83.9	-88.8	2.5	3.11e+01	0	46	104	0	60	1048575
2026-01-17 23:21:46.81	23.50	4.17	-84.3	-88.8	2.6	3.11e+01	0	46	104	0	60	1048575
2026-01-17 23:21:47.82	23.57	4.23	-84.3	-88.8	2.6	3.11e+01	0	46	104	0	60	1048575
2026-01-17 23:21:48.81	23.64	4.30	-84.3	-88.8	2.5	3.11e+01	0	46	104	0	60	1048575
2026-01-17 23:21:49.82	23.71	4.37	-83.9	-88.8	2.6	3.11e+01	0	46	104	0	60	1048575
2026-01-17 23:21:50.83	23.78	4.43	-83.9	-88.8	2.5	3.11e+01	0	46	104	0	60	1048575
2026-01-17 23:21:51.83	23.85	4.50	-84.3	-88.8	2.7	3.11e+01	0	47	104	0	60	1048575
2026-01-17 23:21:52.83	23.92	4.56	-84.3	-88.8	2.4	3.11e+01	0	47	104	0	60	1048575
2026-01-17 23:21:53.83	24.00	4.63	-84.3	-88.8	2.6	3.11e+01	0	47	104	0	60	1048575
2026-01-17 23:21:54.84	24.07	4.70	-83.9	-88.8	2.6	3.11e+01	0	46	104	0	60	1048575
2026-01-17 23:21:55.84	24.14	4.76	-84.3	-88.8	2.4	3.11e+01	0	46	104	0	60	1048575
2026-01-17 23:21:56.85	24.22	4.83	-84.3	-88.8	2.5	3.11e+01	0	47	104	0	60	1048575
2026-01-17 23:21:57.86	24.29	4.90	-84.3	-88.8	2.4	3.11e+01	0	46	104	0	60	1048575
2026-01-17 23:21:58.86	24.36	4.97	-83.9	-88.8	2.4	3.11e+01	0	46	104	0	60	1048575
2026-01-17 23:21:59.87	24.44	5.03	-83.9	-88.8	2.6	3.11e+01	0	46	104	0	60	1048575
2026-01-17 23:22:00.88	24.51	5.10	-84.3	-88.8	2.3	3.11e+01	0	47	104	0	60	1048575
2026-01-17 23:22:01.89	24.59	5.17	-84.3	-88.8	2.4	3.11e+01	0	47	104	0	60	1048575
2026-01-17 23:22:02.89	24.66	5.24	-83.9	-88.8	2.7	3.11e+01	0	47	104	0	60	1048575
2026-01-17 23:22:03.90	24.74	5.31	-83.9	-88.8	2.4	3.11e+01	0	46	104	0	60	1048575
2026-01-17 23:22:04.91	24.82	5.37	-84.3	-88.8	2.5	3.11e+01	0	47	104	0	60	1048575
2026-01-17 23:22:05.92	24.89	5.44	-83.9	-88.8	2.5	3.11e+01	0	47	104	0	60	1048575
2026-01-17 23:22:06.92	24.97	5.51	-83.9	-88.8	2.4	3.11e+01	0	46	104	0	60	1048575
2026-01-17 23:22:07.93	25.05	5.58	-84.3	-88.8	2.5	3.11e+01	0	47	104	0	60	1048575
2026-01-17 23:22:08.93	25.13	5.65	-83.9	-88.8	2.6	3.11e+01	0	47	104	0	60	1048575
2026-01-17 23:22:09.94	25.20	5.72	-84.3	-88.8	2.5	3.11e+01	0	47	104	0	60	1048575
2026-01-17 23:22:10.95	25.28	5.79	-84.3	-88.8	2.7	3.11e+01	0	47	104	0	60	1048575
2026-01-17 23:22:11.96	25.36	5.86	-84.3	-88.8	2.4	3.11e+01	0	47	104	0	60	1048575
2026-01-17 23:22:12.96	25.44	5.93	-84.3	-88.8	2.5	3.11e+01	0	47	104	0	60	1048575
2026-01-17 23:22:13.97	25.52	6.00	-83.9	-88.8	2.6	3.11e+01	0	47	104	0	60	1048575
2026-01-17 23:22:14.98	25.60	6.07	-84.3	-88.8	2.5	3.11e+01	0	47	104	0	60	1048575
2026-01-17 23:22:15.98	25.68	6.14	-84.3	-88.8	2.4	3.11e+01	0	46	104	0	60	1048575
2026-01-17 23:22:16.99	25.76	6.21	-84.3	-88.8	2.3	3.11e+01	0	47	104	0	60	1048575
2026-01-17 23:22:17.99	25.84	6.28	-83.9	-88.8	2.3	3.11e+01	0	47	104	0	60	1048575
2026-01-17 23:22:19.00	25.92	6.35	-83.9	-88.8	2.6	3.11e+01	0	47	104	0	60	1048575
2026-01-17 23:22:20.00	26.01	6.42	-84.3	-88.8	2.3	3.11e+01	0	46	104	0	60	1048575
2026-01-17 23:22:21.01	26.09	6.49	-84.3	-88.8	2.5	3.11e+01	0	47	104	0	60	1048575
2026-01-17 23:22:22.01	26.17	6.56	-84.3	-88.8	2.5	3.11e+01	0	47	104	0	60	1048575
2026-01-17 23:22:23.02	26.26	6.63	-83.9	-88.8	2.5	3.11e+01	0	47	104	0	60	1048575
2026-01-17 23:22:24.03	26.34	6.70	-84.3	-88.8	2.5	3.11e+01	0	47	104	0	60	1048575
2026-01-17 23:22:25.03	26.42	6.78	-84.3	-88.8	2.4	3.11e+01	0	47	104	0	60	1048575
2026-01-17 23:22:26.04	26.51	6.85	-84.3	-88.8	2.7	3.11e+01	0	47	104	0	60	1048575
2026-01-17 23:22:27.05	26.59	6.92	-84.3	-88.8	2.4	3.11e+01	0	47	104	0	60	1048575
2026-01-17 23:22:28.05	26.68	6.99	-83.9	-88.8	2.4	3.11e+01	0	47	104	0	60	1048575
2026-01-17 23:22:29.06	26.76	7.06	-84.3	-88.8	2.4	3.11e+01	0	47	104	0	60	1048575
2026-01-17 23:22:30.07	26.85	7.14	-84.3	-88.8	2.6	3.11e+01	0	47	104	0	60	1048575
2026-01-17 23:22:31.08	26.94	7.21	-84.3	-88.8	2.3	3.11e+01	0	47	104	0	60	1048575
2026-01-17 23:22:32.09	27.03	7.28	-83.9	-88.8	2.5	3.11e+01	0	47	104	0	60	1048575
2026-01-17 23:22:33.09	27.11	7.36	-83.9	-88.8	2.5	3.11e+01	0	47	104	0	60	1048575
2026-01-17 23:22:34.10	27.20	7.43	-84.3	-88.8	2.7	3.11e+01	0	47	104	0	60	1048575
2026-01-17 23:22:35.10	27.29	7.50	-84.3	-88.8	2.7	3.11e+01	0	47	104	0	60	1048575
2026-01-17 23:22:36.11	27.38	7.58	-84.3	-88.8	2.4	3.11e+01	0	46	104	0	60	1048575
2026-01-17 23:22:37.12	27.47	7.65	-83.5	-88.8	2.7	3.11e+01	0	46	104	0	60	1048575
2026-01-17 23:22:38.12	27.56	7.73	-84.3	-88.8	2.7	3.11e+01	0	47	104	0	60	1048575
2026-01-17 23:22:39.12	27.65	7.80	-84.3	-88.8	2.6	3.11e+01	0	47	104	0	60	1048575
2026-01-17 23:22:40.13	27.74	7.87	-84.3	-88.8	2.7	3.11e+01	0	47	104	0	60	1048575
2026-01-17 23:22:41.13	27.83	7.95	-84.3	-88.8	2.8	3.11e+01	0	47	104	0	60	1048575
2026-01-17 23:22:42.14	27.92	8.02	-83.9	-88.8	2.5	3.11e+01	0	47	104	0	60	1048575
2026-01-17 23:22:43.15	28.01	8.10	-84.3	-88.8	2.7	3.11e+01	0	47	104	0	60	1048575
2026-01-17 23:22:44.15	28.11	8.17	-84.3	-88.8	2.5	3.11e+01	0	47	104	0	60	1048575
2026-01-17 23:22:45.15	28.20	8.25	-84.3	-88.8	2.2	3.11e+01	0	47	104	0	60	1048575
2026-01-17 23:22:46.16	28.29	8.32	-84.3	-88.8	2.4	3.11e+01	0	47	104	0	60	1048575
2026-01-17 23:22:47.17	28.39	8.40	-83.9	-88.8	2.4	3.11e+01	0	47	104	0	60	1048575
2026-01-17 23:22:48.17	28.48	8.48	-84.3	-88.8	2.6	3.11e+01	0	47	104	0	60	1048575
2026-01-17 23:22:49.18	28.58	8.55	-84.3	-88.8	2.5	3.11e+01	0	47	104	0	60	1048575
2026-01-17 23:22:50.18	28.67	8.63	-84.3	-88.8	2.7	3.11e+01	0	47	104	0	60	1048575
2026-01-17 23:22:51.19	28.77	8.71	-83.9	-88.8	2.6	3.11e+01	0	47	104	0	60	1048575
2026-01-17 23:22:52.19	28.87	8.78	-83.9	-88.8	2.4	3.11e+01	0	47	104	0	60	1048575
2026-01-17 23:22:53.20	28.97	8.86	-83.9	-88.8	2.5	3.11e+01	0	47	104	0	60	1048575
2026-01-17 23:22:54.21	29.06	8.94	-83.9	-88.8	2.6	3.11e+01	0	47	104	0	60	1048575
2026-01-17 23:22:55.21	29.16	9.01	-84.3	-88.8	2.7	3.11e+01	0	47	104	0	60	1048575
2026-01-17 23:22:56.21	29.26	9.09	-83.5	-88.8	2.5	3.11e+01	0	47	104	0	60	1048575
2026-01-17 23:22:57.22	29.36	9.17	-84.3	-88.8	2.7	3.11e+01	0	47	104	0	60	1048575
2026-01-17 23:22:58.22	29.46	9.25	-83.9	-88.8	2.6	3.11e+01	0	47	104	0	60	1048575
2026-01-17 23:22:59.23	29.56	9.32	-84.3	-88.8	2.6	3.11e+01	0	47	104	0	60	1048575
2026-01-17 23:23:00.23	29.66	9.40	-84.3	-88.8	2.5	3.11e+01	0	47	104	0	60	1048575
2026-01-17 23:23:01.24	29.76	9.48	-83.9	-88.8	2.6	3.11e+01	0	47	104	0	60	1048575
2026-01-17 23:23:02.24	29.87	9.56	-83.9	-88.8	2.6	3.11e+01	0	47	104	0	60	1048575
2026-01-17 23:23:03.25	29.97	9.64	-84.3	-88.8	2.7	3.11e+01	0	47	104	0	60	1048575
2026-01-17 23:23:04.26	30.07	9.72	-84.3	-88.8	2.6	3.11e+01	0	47	104	0	60	1048574
2026-01-17 23:23:05.26	30.18	9.80	-84.3	-88.8	2.6	3.11e+01	0	47	104	0	60	1048574
2026-01-17 23:23:06.27	30.28	9.88	-83.9	-88.8	2.4	3.11e+01	0	47	104	0	60	1048574
2026-01-17 23:23:07.27	30.39	9.96	-84.3	-88.8	2.7	3.11e+01	0	47	104	0	60	1048574
2026-01-17 23:23:08.27	30.49	10.04	-84.3	-88.8	2.5	3.11e+01	0	47	104	0	60	1048574
2026-01-17 23:23:09.28	30.60	10.12	-84.3	-88.8	2.6	3.11e+01	0	47	104	0	60	1048574
2026-01-17 23:23:10.29	30.71	10.20	-83.9	-88.8	2.6	3.11e+01	0	47	104	0	60	1048574
2026-01-17 23:23:11.29	30.81	10.28	-83.9	-88.8	2.4	3.11e+01	0	47	104	0	60	1048574
2026-01-17 23:23:12.30	30.92	10.36	-84.3	-88.8	2.6	3.11e+01	0	46	104	0	60	1048574
2026-01-17 23:23:13.31	31.03	10.44	-84.3	-88.8	2.6	3.11e+01	0	47	104	0	60	1048574
2026-01-17 23:23:14.32	31.14	10.52	-84.3	-88.8	2.7	3.11e+01	0	47	104	0	60	1048574
2026-01-17 23:23:15.32	31.25	10.60	-83.9	-88.8	2.6	3.11e+01	0	47	104	0	60	1048574
2026-01-17 23:23:16.33	31.36	10.69	-83.9	-88.8	2.4	3.11e+01	0	47	104	0	60	1048574
2026-01-17 23:23:17.34	31.47	10.77	-84.3	-88.8	2.9	3.11e+01	0	47	104	0	60	1048574
2026-01-17 23:23:18.35	31.59	10.85	-84.3	-88.8	2.5	3.11e+01	0	47	104	0	60	1048574
2026-01-17 23:23:19.36	31.70	10.93	-83.9	-88.8	2.8	3.11e+01	0	47	104	0	60	1048574
2026-01-17 23:23:20.37	31.81	11.02	-83.9	-88.8	2.4	3.11e+01	0	47	104	0	60	1048574
2026-01-17 23:23:21.37	31.93	11.10	-84.3	-88.8	2.5	3.11e+01	0	47	104	0	60	1048574
2026-01-17 23:23:22.38	32.04	11.18	-83.9	-88.8	2.6	3.11e+01	0	47	104	0	60	1048574
2026-01-17 23:23:23.38	32.16	11.26	-83.9	-88.8	2.6	3.11e+01	0	47	104	0	60	1048574
2026-01-17 23:23:24.39	32.27	11.35	-84.3	-88.8	2.5	3.11e+01	0	47	104	0	60	1048574
2026-01-17 23:23:25.39	32.39	11.43	-83.9	-88.8	2.9	3.11e+01	0	47	104	0	60	1048574
2026-01-17 23:23:26.39	32.51	11.52	-84.3	-88.8	2.6	3.11e+01	0	47	104	0	60	1048574
2026-01-17 23:23:27.40	32.63	11.60	-84.3	-88.8	2.5	3.11e+01	0	47	104	0	60	1048574
2026-01-17 23:23:28.40	32.74	11.68	-84.3	-88.8	2.9	3.11e+01	0	47	104	0	60	1048574
2026-01-17 23:23:29.40	32.86	11.77	-83.9	-88.8	2.7	3.11e+01	0	47	104	0	60	1048574
2026-01-17 23:23:30.41	32.98	11.85	-83.9	-88.8	2.7	3.11e+01	0	47	104	0	60	1048574
2026-01-17 23:23:31.41	33.10	11.94	-84.3	-88.8	2.4	3.11e+01	0	47	104	0	60	1048574
2026-01-17 23:23:32.42	33.23	12.02	-84.3	-88.8	2.3	3.11e+01	0	47	104	0	60	1048574
2026-01-17 23:23:33.43	33.35	12.11	-84.3	-88.8	2.6	3.11e+01	0	47	104	0	60	1048574
2026-01-17 23:23:34.44	33.47	12.20	-83.9	-88.8	2.4	3.11e+01	0	47	104	0	60	1048574
2026-01-17 23:23:35.45	33.60	12.28	-84.3	-88.8	2.4	3.11e+01	0	47	104	0	60	1048574
2026-01-17 23:23:36.45	33.72	12.37	-84.3	-88.8	2.6	3.11e+01	0	47	104	0	60	1048574
2026-01-17 23:23:37.46	33.85	12.45	-84.3	-88.8	2.5	3.11e+01	0	47	104	0	60	1048574
2026-01-17 23:23:38.46	33.97	12.54	-83.9	-88.8	2.6	3.11e+01	0	47	104	0	60	1048574
2026-01-17 23:23:39.47	34.10	12.63	-83.9	-88.8	2.5	3.11e+01	0	47	104	0	60	1048574
2026-01-17 23:23:40.47	34.23	12.71	-84.3	-88.8	2.4	3.11e+01	0	47	104	0	60	1048574
2026-01-17 23:23:41.48	34.36	12.80	-84.3	-88.8	2.7	3.11e+01	0	47	104	0	60	1048574
2026-01-17 23:23:42.48	34.48	12.89	-84.3	-88.8	2.6	3.11e+01	0	47	104	0	60	1048574
2026-01-17 23:23:43.49	34.62	12.98	-83.9	-88.8	2.3	3.11e+01	0	47	104	0	60	1048574
2026-01-17 23:23:44.50	34.75	13.07	-84.3	-88.8	2.6	3.11e+01	0	47	104	0	60	1048574
2026-01-17 23:23:45.51	34.88	13.15	-84.3	-88.8	2.5	3.11e+01	0	47	104	0	60	1048574
2026-01-17 23:23:46.51	35.01	13.24	-84.3	-88.8	2.6	3.11e+01	0	47	104	0	60	1048574
2026-01-17 23:23:47.52	35.15	13.33	-84.3	-88.8	2.4	3.11e+01	0	47	104	0	60	1048574
2026-01-17 23:23:48.53	35.28	13.42	-83.9	-88.8	2.2	3.11e+01	0	47	104	0	60	1048574
2026-01-17 23:23:49.53	35.41	13.51	-84.3	-88.8	2.5	3.11e+01	0	47	104	0	60	1048574
2026-01-17 23:23:50.54	35.55	13.60	-84.3	-88.8	2.7	3.11e+01	0	47	104	0	60	1048574
2026-01-17 23:23:51.54	35.69	13.69	-84.3	-88.8	2.5	3.11e+01	0	47	104	0	60	1048574
2026-01-17 23:23:52.55	35.82	13.78	-84.3	-88.8	2.7	3.11e+01	0	47	104	0	60	1048574
2026-01-17 23:23:53.56	35.96	13.87	-83.9	-88.8	2.7	3.11e+01	0	47	104	0	60	1048574
2026-01-17 23:23:54.56	36.10	13.96	-83.9	-88.8	2.6	3.11e+01	0	47	104	0	60	1048574
2026-01-17 23:23:55.57	36.24	14.05	-84.3	-88.8	2.7	3.11e+01	0	47	104	0	60	1048574
2026-01-17 23:23:56.57	36.38	14.14	-84.3	-88.8	2.3	3.11e+01	0	47	104	0	60	1048574
2026-01-17 23:23:57.58	36.53	14.23	-84.3	-88.8	2.8	3.11e+01	0	47	104	0	60	1048574
2026-01-17 23:23:58.58	36.67	14.32	-83.9	-88.8	2.3	3.11e+01	0	47	104	0	60	1048574
2026-01-17 23:23:59.59	36.81	14.41	-84.3	-88.8	2.7	3.11e+01	0	47	104	0	60	1048574
2026-01-17 23:24:00.59	36.96	14.50	-84.3	-88.8	2.5	3.11e+01	0	47	104	0	60	1048574
2026-01-17 23:24:01.60	37.10	14.60	-84.3	-88.8	2.1	3.11e+01	0	47	104	0	60	1048574
2026-01-17 23:24:02.61	37.25	14.69	-83.9	-88.8	2.7	3.11e+01	0	47	104	0	60	1048574
2026-01-17 23:24:03.62	37.40	14.78	-83.9	-88.8	2.5	3.11e+01	0	47	104	0	60	1048574
2026-01-17 23:24:04.62	37.55	14.87	-83.9	-88.8	2.7	3.11e+01	0	47	104	0	60	1048574
2026-01-17 23:24:05.63	37.70	14.97	-84.3	-88.8	2.3	3.11e+01	0	47	104	0	60	1048574
2026-01-17 23:24:06.64	37.85	15.06	-84.3	-88.8	2.3	3.11e+01	0	47	104	0	60	1048574
2026-01-17 23:24:07.64	38.00	15.15	-83.9	-88.8	2.7	3.11e+01	0	47	104	0	60	1048574
2026-01-17 23:24:08.65	38.15	15.25	-83.9	-88.8	2.4	3.11e+01	0	47	104	0	60	1048574
2026-01-17 23:24:09.66	38.31	15.34	-84.3	-88.8	2.6	3.11e+01	0	47	104	0	60	1048574
2026-01-17 23:24:10.66	38.46	15.43	-84.3	-88.8	2.4	3.11e+01	0	47	104	0	60	1048574
2026-01-17 23:24:11.67	38.61	15.53	-84.3	-88.8	2.4	3.11e+01	0	47	104	0	60	1048574
2026-01-17 23:24:12.68	38.77	15.62	-83.9	-88.8	2.5	3.11e+01	0	47	104	0	60	1048574
2026-01-17 23:24:13.68	38.93	15.72	-84.3	-88.8	2.2	3.11e+01	0	47	104	0	60	1048574
2026-01-17 23:24:14.69	39.09	15.81	-84.3	-88.8	2.3	3.11e+01	0	47	104	0	60	1048574
2026-01-17 23:24:15.69	39.25	15.91	-83.9	-88.8	2.5	3.11e+01	0	47	104	0	60	1048574
2026-01-17 23:24:16.70	39.41	16.00	-83.9	-88.8	2.5	3.11e+01	0	47	104	0	60	1048574
2026-01-17 23:24:17.71	39.57	16.10	-83.9	-88.8	2.5	3.11e+01	0	47	104	0	60	1048574
2026-01-17 23:24:18.71	39.73	16.19	-84.3	-88.8	2.4	3.11e+01	0	47	104	0	60	1048574
2026-01-17 23:24:19.71	39.89	16.29	-84.3	-88.8	2.8	3.11e+01	0	47	104	0	60	1048574
2026-01-17 23:24:20.72	40.06	16.39	-84.3	-88.8	2.7	3.11e+01	0	47	104	0	60	1048574
2026-01-17 23:24:21.73	40.23	16.48	-83.9	-88.8	2.3	3.11e+01	0	47	104	0	60	1048574
2026-01-17 23:24:22.73	40.39	16.58	-83.9	-88.8	2.6	3.11e+01	0	47	104	0	60	1048574
2026-01-17 23:24:23.74	40.56	16.68	-84.3	-88.8	2.7	3.11e+01	0	47	104	0	60	1048574
2026-01-17 23:24:24.74	40.73	16.77	-84.3	-88.8	2.3	3.11e+01	0	47	104	0	60	1048574
2026-01-17 23:24:25.75	40.90	16.87	-84.3	-88.8	2.5	3.11e+01	0	47	104	0	60	1048574
2026-01-17 23:24:26.76	41.07	16.97	-83.9	-88.8	2.3	3.11e+01	0	47	104	0	60	1048574
2026-01-17 23:24:27.77	41.25	17.06	-83.9	-88.8	2.5	3.11e+01	0	47	104	0	60	1048574
2026-01-17 23:24:28.77	41.42	17.16	-84.3	-88.8	2.5	3.11e+01	0	47	104	0	60	1048574
2026-01-17 23:24:29.78	41.60	17.26	-84.3	-88.8	2.4	3.11e+01	0	47	104	0	60	1048574
2026-01-17 23:24:30.79	41.77	17.36	-83.9	-88.8	2.6	3.11e+01	0	47	104	0	60	1048574
2026-01-17 23:24:31.80	41.95	17.46	-83.9	-88.8	2.3	3.11e+01	0	47	104	0	60	1048574
2026-01-17 23:24:32.81	42.13	17.56	-84.3	-88.8	2.6	3.11e+01	0	47	104	0	60	1048574
2026-01-17 23:24:33.81	42.31	17.65	-84.3	-88.8	2.4	3.11e+01	0	47	104	0	60	1048574
2026-01-17 23:24:34.82	42.49	17.75	-84.3	-88.8	2.5	3.11e+01	0	47	104	0	60	1048574
2026-01-17 23:24:35.82	42.67	17.85	-83.9	-88.8	2.7	3.11e+01	0	47	104	0	60	1048574
2026-01-17 23:24:36.83	42.86	17.95	-83.9	-88.8	2.5	3.11e+01	0	47	104	0	60	1048574
2026-01-17 23:24:37.84	43.04	18.05	-84.3	-88.8	2.7	3.11e+01	0	47	104	0	60	1048574
2026-01-17 23:24:38.85	43.23	18.15	-84.3	-88.8	2.4	3.11e+01	0	47	104	0	60	1048574
2026-01-17 23:24:39.85	43.41	18.25	-84.3	-88.8	2.6	3.11e+01	0	47	104	0	60	1048574
2026-01-17 23:24:40.86	43.60	18.35	-83.9	-88.8	2.7	3.11e+01	0	47	104	0	60	1048574
2026-01-17 23:24:41.87	43.79	18.45	-84.3	-88.8	2.5	3.11e+01	0	47	104	0	60	1048574
2026-01-17 23:24:42.88	43.99	18.55	-84.3	-88.8	2.6	3.11e+01	0	47	104	0	60	1048574
2026-01-17 23:24:43.89	44.18	18.65	-84.3	-88.8	2.6	3.11e+01	0	47	104	0	60	1048574
2026-01-17 23:24:44.90	44.37	18.75	-83.9	-88.8	2.5	3.11e+01	0	47	104	0	60	1048574
2026-01-17 23:24:45.90	44.57	18.85	-83.9	-88.8	2.7	3.11e+01	0	47	104	0	60	1048574
2026-01-17 23:24:46.91	44.76	18.95	-84.3	-88.8	2.6	3.11e+01	0	47	104	0	60	1048574
2026-01-17 23:24:47.92	44.96	19.05	-84.3	-88.8	2.6	3.11e+01	0	47	104	0	60	1048574
2026-01-17 23:24:48.92	45.16	19.15	-84.3	-88.8	2.4	3.11e+01	0	47	104	0	60	1048574
2026-01-17 23:24:49.93	45.36	19.26	-83.9	-88.8	2.5	3.11e+01	0	47	104	0	60	1048574
2026-01-17 23:24:50.93	45.56	19.36	-83.9	-88.8	2.5	3.11e+01	0	47	104	0	60	1048574
2026-01-17 23:24:51.94	45.77	19.46	-84.3	-88.8	2.5	3.11e+01	0	47	104	0	60	1048574
2026-01-17 23:24:52.94	45.97	19.56	-83.9	-88.8	2.4	3.11e+01	0	47	104	0	60	1048574
2026-01-17 23:24:53.95	46.18	19.66	-84.3	-88.8	2.5	3.11e+01	0	47	104	0	60	1048574
2026-01-17 23:24:54.96	46.39	19.76	-84.3	-88.8	2.5	3.11e+01	0	47	104	0	60	1048574
2026-01-17 23:24:55.96	46.59	19.86	-83.9	-88.8	2.6	3.11e+01	0	47	104	0	60	1048574
2026-01-17 23:24:56.97	46.80	19.97	-84.3	-88.8	2.3	3.11e+01	0	47	104	0	60	1048574
2026-01-17 23:24:57.98	47.02	20.07	-84.3	-88.8	2.6	3.11e+01	0	47	104	0	60	1048574
2026-01-17 23:24:58.99	47.23	20.17	-84.3	-88.8	2.4	3.11e+01	0	47	104	0	60	1048574
2026-01-17 23:25:00.00	47.45	20.27	-83.9	-88.8	2.6	3.11e+01	0	47	104	0	60	1048574
2026-01-17 23:25:01.00	47.66	20.38	-83.9	-88.8	2.5	3.11e+01	0	47	104	0	60	1048574
2026-01-17 23:25:02.01	47.88	20.48	-84.3	-88.8	2.7	3.11e+01	0	47	104	0	60	1048574
2026-01-17 23:25:03.02	48.10	20.58	-84.3	-88.8	2.6	3.11e+01	0	47	104	0	60	1048574
2026-01-17 23:25:04.03	48.32	20.68	-84.3	-88.8	2.4	3.11e+01	0	47	104	0	60	1048574
2026-01-17 23:25:05.04	48.54	20.79	-83.9	-88.8	2.6	3.11e+01	0	47	104	0	60	1048574
2026-01-17 23:25:06.04	48.77	20.89	-83.9	-88.8	2.7	3.11e+01	0	47	104	0	60	1048574
2026-01-17 23:25:07.05	48.99	20.99	-84.3	-88.8	2.6	3.11e+01	0	47	104	0	60	1048574
2026-01-17 23:25:08.05	49.22	21.09	-84.3	-88.8	2.8	3.11e+01	0	47	104	0	60	1048574
2026-01-17 23:25:09.06	49.45	21.20	-83.9	-88.8	2.7	3.11e+01	0	47	104	0	60	1048574
2026-01-17 23:25:10.07	49.68	21.30	-83.9	-88.8	2.8	3.11e+01	0	47	104	0	60	1048574
2026-01-17 23:25:11.08	49.91	21.40	-84.3	-88.8	2.7	3.11e+01	0	47	104	0	60	1048574
2026-01-17 23:25:12.09	50.15	21.51	-84.3	-88.8	2.6	3.11e+01	0	47	104	0	60	1048574
2026-01-17 23:25:13.09	50.38	21.61	-84.3	-88.8	2.6	3.11e+01	0	47	104	0	60	1048574
2026-01-17 23:25:14.10	50.62	21.71	-83.9	-88.8	2.6	3.11e+01	0	47	104	0	60	1048574
2026-01-17 23:25:15.11	50.85	21.81	-83.9	-88.8	2.4	3.11e+01	0	47	104	0	60	1048574
2026-01-17 23:25:16.11	51.09	21.92	-83.9	-88.8	2.6	3.11e+01	0	47	104	0	60	1048574
2026-01-17 23:25:17.12	51.33	22.02	-84.3	-88.8	2.3	3.11e+01	0	47	104	0	60	1048574
2026-01-17 23:25:18.13	51.58	22.12	-84.3	-88.8	2.5	3.11e+01	0	47	104	0	60	1048574
2026-01-17 23:25:19.13	51.82	22.22	-83.9	-88.8	2.2	3.11e+01	0	47	104	0	60	1048574
2026-01-17 23:25:20.14	52.07	22.33	-84.3	-88.8	2.4	3.11e+01	0	47	104	0	60	1048574
2026-01-17 23:25:21.15	52.32	22.43	-83.9	-88.8	2.4	3.11e+01	0	47	104	0	60	1048574
2026-01-17 23:25:22.16	52.57	22.53	-84.3	-88.8	2.3	3.11e+01	0	47	104	0	60	1048574
2026-01-17 23:25:23.16	52.82	22.63	-84.3	-88.8	2.4	3.11e+01	0	47	104	0	60	1048574
2026-01-17 23:25:24.17	53.07	22.74	-83.9	-88.8	2.5	3.11e+01	0	47	104	0	60	1048574
2026-01-17 23:25:25.17	53.32	22.84	-84.3	-88.8	2.3	3.11e+01	0	47	104	0	60	1048574
2026-01-17 23:25:26.18	53.58	22.94	-84.3	-88.8	2.6	3.11e+01	0	47	104	0	60	1048574
2026-01-17 23:25:27.19	53.84	23.04	-84.3	-88.8	2.6	3.11e+01	0	47	104	0	60	1048574
2026-01-17 23:25:28.19	54.10	23.14	-83.9	-88.8	2.5	3.11e+01	0	47	104	0	60	1048574
2026-01-17 23:25:29.20	54.36	23.25	-83.9	-88.8	2.6	3.11e+01	0	47	104	0	60	1048574
2026-01-17 23:25:30.21	54.63	23.35	-84.3	-88.8	2.5	3.11e+01	0	47	104	0	60	1048574
2026-01-17 23:25:31.21	54.89	23.45	-84.3	-88.8	2.6	3.11e+01	0	47	104	0	60	1048574
2026-01-17 23:25:32.22	55.16	23.55	-84.3	-88.8	2.6	3.11e+01	0	47	104	0	60	1048574
2026-01-17 23:25:33.23	55.43	23.65	-83.9	-88.8	2.4	3.11e+01	0	47	104	0	60	1048574
2026-01-17 23:25:34.23	55.70	23.75	-83.9	-88.8	2.3	3.11e+01	0	47	104	0	60	1048574
2026-01-17 23:25:35.24	55.97	23.85	-84.3	-88.8	2.5	3.11e+01	0	47	104	0	60	1048574
2026-01-17 23:25:36.24	56.24	23.95	-84.3	-88.8	2.4	3.11e+01	0	47	104	0	60	1048574
2026-01-17 23:25:37.25	56.52	24.05	-84.3	-88.8	2.4	3.11e+01	0	47	104	0	60	1048574
2026-01-17 23:25:38.25	56.79	24.15	-83.9	-88.8	2.6	3.11e+01	0	47	104	0	60	1048574
2026-01-17 23:25:39.26	57.07	24.25	-84.3	-88.8	2.4	3.11e+01	0	47	104	0	60	1048574
2026-01-17 23:25:40.27	57.36	24.35	-84.3	-88.8	2.5	3.11e+01	0	47	104	0	60	1048574
2026-01-17 23:25:41.27	57.64	24.45	-84.3	-88.8	2.6	3.11e+01	0	47	104	0	60	1048574
2026-01-17 23:25:42.27	57.92	24.55	-84.3	-88.8	2.7	3.11e+01	0	47	104	0	60	1048574
2026-01-17 23:25:43.28	58.21	24.65	-83.9	-88.8	2.6	3.11e+01	0	47	104	0	60	1048574
2026-01-17 23:25:44.29	58.50	24.74	-84.3	-88.8	2.5	3.11e+01	0	47	104	0	60	1048574
2026-01-17 23:25:45.29	58.79	24.84	-84.3	-88.8	2.5	3.11e+01	0	47	104	0	60	1048574
2026-01-17 23:25:46.30	59.08	24.94	-83.9	-88.8	2.8	3.11e+01	0	47	104	0	60	1048574
2026-01-17 23:25:47.31	59.38	25.04	-83.9	-88.8	2.6	3.11e+01	0	47	104	0	60	1048574
2026-01-17 23:25:48.32	59.67	25.13	-83.9	-88.8	2.4	3.11e+01	0	47	104	0	60	1048574
2026-01-17 23:25:49.33	59.97	25.23	-84.3	-88.8	1.9	3.11e+01	0	47	104	0	60	1048574
2026-01-17 23:25:50.34	60.27	25.33	-83.9	-88.8	2.5	3.11e+01	0	47	104	0	60	1048574
2026-01-17 23:25:51.35	60.58	25.42	-84.3	-88.8	2.4	3.11e+01	0	47	104	0	60	1048574
2026-01-17 23:25:52.35	60.88	25.52	-83.9	-88.8	2.3	3.11e+01	0	47	104	0	60	1048574
2026-01-17 23:25:53.35	61.18	25.61	-84.3	-88.8	2.5	3.11e+01	0	47	104	0	60	1048574
2026-01-17 23:25:54.36	61.49	25.70	-84.3	-88.8	2.5	3.11e+01	0	47	104	0	60	1048574
2026-01-17 23:25:55.37	61.80	25.80	-84.3	-88.8	2.5	3.11e+01	0	47	104	0	60	1048574
2026-01-17 23:25:56.37	62.11	25.89	-84.3	-88.8	2.3	3.11e+01	0	47	104	0	60	1048574
2026-01-17 23:25:57.38	62.42	25.98	-83.9	-88.8	2.6	3.11e+01	0	47	104	0	60	1048574
2026-01-17 23:25:58.39	62.74	26.08	-84.3	-88.8	2.5	3.11e+01	0	47	104	0	60	1048574
2026-01-17 23:25:59.40	63.06	26.17	-84.3	-88.8	2.5	3.11e+01	0	47	104	0	60	1048574
2026-01-17 23:26:00.41	63.38	26.26	-84.3	-88.8	2.7	3.11e+01	0	47	104	0	60	1048574
2026-01-17 23:26:01.41	63.69	26.35	-83.9	-88.8	2.2	3.11e+01	0	47	104	0	60	1048574
2026-01-17 23:26:02.42	64.02	26.44	-84.3	-88.8	2.3	3.11e+01	0	47	104	0	60	1048574
2026-01-17 23:26:03.42	64.34	26.53	-84.3	-88.8	2.5	3.11e+01	0	47	104	0	60	1048574
2026-01-17 23:26:04.43	64.67	26.62	-84.3	-88.8	2.2	3.11e+01	0	47	104	0	60	1048574
2026-01-17 23:26:05.43	64.99	26.70	-84.3	-88.8	2.6	3.11e+01	0	47	104	0	60	1048574
2026-01-17 23:26:06.44	65.32	26.79	-83.9	-88.8	2.4	3.11e+01	0	47	104	0	60	1048574
2026-01-17 23:26:07.45	65.66	26.88	-83.9	-88.8	2.3	3.11e+01	0	47	104	0	60	1048574
2026-01-17 23:26:08.45	65.99	26.96	-84.3	-88.8	2.5	3.11e+01	0	47	104	0	60	1048574
2026-01-17 23:26:09.46	66.32	27.05	-84.3	-88.8	2.4	3.11e+01	0	47	104	0	60	1048574
2026-01-17 23:26:10.46	66.66	27.13	-84.3	-88.8	2.3	3.11e+01	0	47	104	0	60	1048574
2026-01-17 23:26:11.47	67.00	27.22	-83.9	-88.8	2.6	3.11e+01	0	47	104	0	60	1048574
2026-01-17 23:26:12.48	67.34	27.30	-84.3	-88.8	2.4	3.11e+01	0	47	104	0	60	1048574
2026-01-17 23:26:13.48	67.68	27.38	-84.3	-88.8	2.7	3.11e+01	0	47	104	0	60	1048574
2026-01-17 23:26:14.49	68.03	27.46	-84.3	-88.8	2.6	3.11e+01	0	47	104	0	60	1048574
2026-01-17 23:26:15.49	68.37	27.54	-84.3	-88.8	2.7	3.11e+01	0	47	104	0	60	1048574
2026-01-17 23:26:16.50	68.72	27.62	-84.3	-88.8	2.5	3.11e+01	0	47	104	0	60	1048574
2026-01-17 23:26:17.51	69.07	27.70	-84.3	-88.8	2.5	3.11e+01	0	47	104	0	60	1048574
2026-01-17 23:26:18.52	69.42	27.78	-83.9	-88.8	2.7	3.11e+01	0	47	104	0	60	1048574
2026-01-17 23:26:19.52	69.77	27.86	-83.9	-88.8	2.6	3.11e+01	0	47	104	0	60	1048574
2026-01-17 23:26:20.53	70.13	27.93	-83.9	-88.8	2.4	3.11e+01	0	47	104	0	60	1048574
2026-01-17 23:26:21.53	70.48	28.01	-83.9	-88.8	2.7	3.11e+01	0	47	104	0	60	1048574
2026-01-17 23:26:22.54	70.84	28.08	-84.3	-88.8	2.7	3.11e+01	0	47	104	0	60	1048574
2026-01-17 23:26:23.55	71.21	28.16	-84.3	-88.8	2.4	3.11e+01	0	47	104	0	60	1048574
2026-01-17 23:26:24.55	71.57	28.23	-84.3	-88.8	2.7	3.11e+01	0	47	104	0	60	1048574
2026-01-17 23:26:25.56	71.93	28.30	-83.9	-88.8	2.6	3.11e+01	0	47	104	0	60	1048574
2026-01-17 23:26:26.56	72.29	28.37	-84.3	-88.8	2.2	3.11e+01	0	47	104	0	60	1048574
2026-01-17 23:26:27.57	72.66	28.44	-84.3	-88.8	2.3	3.11e+01	0	47	104	0	60	1048574
2026-01-17 23:26:28.58	73.03	28.51	-84.3	-88.8	2.3	3.11e+01	0	47	104	0	60	1048574
2026-01-17 23:26:29.59	73.40	28.58	-83.9	-88.8	2.4	3.11e+01	0	47	104	0	60	1048574
2026-01-17 23:26:30.59	73.77	28.64	-83.9	-88.8	2.3	3.11e+01	0	47	104	0	60	1048574
2026-01-17 23:26:31.60	74.15	28.71	-84.3	-88.8	2.5	3.11e+01	0	47	104	0	60	1048574
2026-01-17 23:26:32.61	74.52	28.77	-84.3	-88.8	2.7	3.11e+01	0	47	104	0	60	1048574
2026-01-17 23:26:33.62	74.90	28.84	-84.3	-88.8	2.7	3.11e+01	0	47	104	0	60	1048574
2026-01-17 23:26:34.62	75.27	28.90	-84.3	-88.8	2.8	3.11e+01	0	47	104	0	60	1048574
2026-01-17 23:26:35.63	75.65	28.96	-83.9	-88.8	2.5	3.11e+01	0	47	104	0	60	1048574
2026-01-17 23:26:36.63	76.03	29.02	-84.3	-88.8	2.6	3.11e+01	0	47	104	0	60	1048574
2026-01-17 23:26:37.63	76.41	29.08	-84.3	-88.8	2.7	3.11e+01	0	47	104	0	60	1048574
2026-01-17 23:26:38.64	76.80	29.13	-84.3	-88.8	2.5	3.11e+01	0	47	104	0	60	1048574
2026-01-17 23:26:39.65	77.18	29.19	-83.9	-88.8	2.8	3.11e+01	0	47	104	0	60	1048574
2026-01-17 23:26:40.66	77.57	29.25	-83.9	-88.8	2.7	3.11e+01	0	47	104	0	60	1048574
2026-01-17 23:26:41.66	77.96	29.30	-83.9	-88.8	2.6	3.11e+01	0	47	104	0	60	1048574
2026-01-17 23:26:42.66	78.34	29.35	-84.3	-88.8	2.7	3.11e+01	0	47	104	0	60	1048574
2026-01-17 23:26:43.67	78.73	29.40	-84.3	-88.8	2.4	3.11e+01	0	47	104	0	60	1048574
2026-01-17 23:26:44.68	79.13	29.45	-83.9	-88.8	2.6	3.11e+01	0	47	104	0	60	1048574
2026-01-17 23:26:45.68	79.52	29.50	-83.9	-88.8	2.8	3.11e+01	0	47	104	0	60	1048574
2026-01-17 23:26:46.69	79.91	29.55	-84.3	-88.8	2.7	3.11e+01	0	47	104	0	60	1048574
2026-01-17 23:26:47.70	80.31	29.59	-84.3	-88.8	2.5	3.11e+01	0	47	104	0	60	1048574
2026-01-17 23:26:48.70	80.70	29.64	-84.3	-88.8	2.7	3.11e+01	0	47	104	0	60	1048574
2026-01-17 23:26:49.71	81.10	29.68	-83.9	-88.8	2.5	3.11e+01	0	47	104	0	60	1048574
2026-01-17 23:26:50.71	81.50	29.72	-84.3	-88.8	2.2	3.11e+01	0	47	104	0	60	1048574
2026-01-17 23:26:51.72	81.90	29.76	-84.3	-88.8	2.5	3.11e+01	0	47	104	0	60	1048575
2026-01-17 23:26:52.73	82.30	29.80	-84.3	-88.8	2.6	3.11e+01	0	47	104	0	60	1048575
2026-01-17 23:26:53.74	82.70	29.84	-83.9	-88.8	2.3	3.11e+01	0	47	104	0	60	1048575
2026-01-17 23:26:54.74	83.10	29.87	-83.9	-88.8	2.7	3.11e+01	0	47	104	0	60	1048575
2026-01-17 23:26:55.75	83.51	29.91	-84.3	-88.8	2.6	3.11e+01	0	47	104	0	60	1048575
2026-01-17 23:26:56.76	83.91	29.94	-84.3	-88.8	2.8	3.11e+01	0	47	104	0	60	1048575
2026-01-17 23:26:57.76	84.31	29.97	-84.3	-88.8	2.5	3.11e+01	0	47	104	0	60	1048575
2026-01-17 23:26:58.77	84.72	30.00	-83.9	-88.8	2.5	3.11e+01	0	47	104	0	60	1048575
2026-01-17 23:26:59.78	85.13	30.03	-84.3	-88.8	2.5	3.11e+01	0	47	104	0	60	1048575
2026-01-17 23:27:00.79	85.54	30.06	-84.3	-88.8	2.4	3.11e+01	0	47	104	0	60	1048575
2026-01-17 23:27:01.79	85.94	30.09	-84.3	-88.8	2.6	3.11e+01	0	47	104	0	60	1048575
2026-01-17 23:27:02.79	86.35	30.11	-84.3	-88.8	2.6	3.11e+01	0	47	104	0	60	1048575
2026-01-17 23:27:03.80	86.76	30.13	-83.9	-88.8	2.4	3.11e+01	0	47	104	0	60	1048575
2026-01-17 23:27:04.81	87.17	30.15	-83.9	-88.8	2.7	3.11e+01	0	47	104	0	60	1048575
2026-01-17 23:27:05.81	87.58	30.17	-84.3	-88.8	2.8	3.11e+01	0	47	104	0	60	1048575
2026-01-17 23:27:06.82	87.99	30.19	-84.3	-88.8	2.8	3.11e+01	0	47	104	0	60	1048575
2026-01-17 23:27:07.83	88.40	30.21	-84.3	-88.8	2.7	3.11e+01	0	47	104	0	60	1048575
2026-01-17 23:27:08.84	88.82	30.22	-83.9	-88.8	2.7	3.11e+01	0	47	104	0	60	1048575
2026-01-17 23:27:09.85	89.23	30.24	-84.3	-88.8	2.8	3.11e+01	0	47	104	0	60	1048575
2026-01-17 23:27:10.85	89.64	30.25	-84.3	-88.8	2.4	3.11e+01	0	47	104	0	60	1048575
2026-01-17 23:27:11.86	90.05	30.26	-84.3	-88.8	2.6	3.11e+01	0	47	104	0	60	1048575
2026-01-17 23:27:12.87	90.47	30.27	-84.3	-88.8	2.4	3.11e+01	0	47	104	0	60	1048575
2026-01-17 23:27:13.88	90.88	30.27	-84.3	-88.8	2.4	3.11e+01	0	47	104	0	60	1048575
2026-01-17 23:27:14.88	91.29	30.28	-84.3	-88.8	2.5	3.11e+01	0	47	104	0	60	1048575
2026-01-17 23:27:15.89	91.71	30.28	-84.3	-88.8	2.7	3.11e+01	0	47	104	0	60	1048575
2026-01-17 23:27:16.90	92.12	30.29	-84.3	-88.8	2.4	3.11e+01	0	47	104	0	60	1048575
2026-01-17 23:27:17.91	92.54	30.29	-83.9	-88.8	2.7	3.11e+01	0	47	104	0	60	1048575
2026-01-17 23:27:18.91	92.95	30.29	-83.9	-88.8	2.6	3.11e+01	0	47	104	0	60	1048575
2026-01-17 23:27:19.92	93.37	30.29	-84.3	-88.8	2.5	3.11e+01	0	47	104	0	60	1048575
2026-01-17 23:27:20.93	93.78	30.28	-84.3	-88.8	2.7	3.11e+01	0	47	104	0	60	1048575
2026-01-17 23:27:21.93	94.19	30.28	-84.3	-88.8	2.6	3.11e+01	0	47	104	0	60	1048575
2026-01-17 23:27:22.94	94.61	30.27	-83.9	-88.8	2.6	3.11e+01	0	47	104	0	60	1048575
2026-01-17 23:27:23.94	95.02	30.26	-83.9	-88.8	2.7	3.11e+01	0	47	104	0	60	1048575
2026-01-17 23:27:24.94	95.43	30.25	-84.3	-88.8	2.5	3.11e+01	0	47	104	0	60	1048575
2026-01-17 23:27:25.95	95.84	30.24	-84.3	-88.8	2.5	3.11e+01	0	47	104	0	60	1048575
2026-01-17 23:27:26.96	96.25	30.23	-83.9	-88.8	2.6	3.11e+01	0	47	104	0	60	1048575
2026-01-17 23:27:27.97	96.67	30.21	-83.9	-88.8	2.5	3.11e+01	0	47	104	0	60	1048575
2026-01-17 23:27:28.97	97.08	30.20	-84.3	-88.8	2.7	3.11e+01	0	47	104	0	60	1048575
2026-01-17 23:27:29.98	97.49	30.18	-84.3	-88.8	2.5	3.11e+01	0	47	104	0	60	1048575
2026-01-17 23:27:30.99	97.90	30.16	-84.3	-88.8	2.4	3.11e+01	0	47	104	0	60	1048575
2026-01-17 23:27:32.00	98.31	30.14	-83.9	-88.8	2.6	3.11e+01	0	47	104	0	60	1048575
2026-01-17 23:27:33.01	98.72	30.11	-83.9	-88.8	2.5	3.11e+01	0	47	104	0	60	1048575
2026-01-17 23:27:34.01	99.13	30.09	-84.3	-88.8	2.7	3.11e+01	0	47	104	0	60	1048575
2026-01-17 23:27:35.02	99.54	30.07	-84.3	-88.8	2.5	3.11e+01	0	47	104	0	60	1048575
2026-01-17 23:27:36.03	99.95	30.04	-84.3	-88.8	2.7	3.11e+01	0	47	104	0	60	1048575
2026-01-17 23:27:37.04	100.36	30.01	-83.9	-88.8	2.7	3.11e+01	0	47	104	0	60	1048575
2026-01-17 23:27:38.05	100.77	29.98	-84.3	-88.8	2.5	3.11e+01	0	47	104	0	60	1048575
2026-01-17 23:27:39.05	101.17	29.95	-84.3	-88.8	2.7	3.11e+01	0	47	104	0	60	1048575
2026-01-17 23:27:40.06	101.57	29.92	-84.3	-88.8	2.6	3.11e+01	0	47	104	0	60	1048575
2026-01-17 23:27:41.06	101.98	29.88	-83.9	-88.8	2.6	3.11e+01	0	47	104	0	60	1048575
2026-01-17 23:27:42.06	102.38	29.85	-83.9	-88.8	2.6	3.11e+01	0	47	104	0	60	1048575
2026-01-17 23:27:43.07	102.78	29.81	-84.3	-88.8	2.6	3.11e+01	0	47	104	0	60	1048575
2026-01-17 23:27:44.08	103.18	29.77	-84.3	-88.8	2.6	3.11e+01	0	47	104	0	60	1048575
2026-01-17 23:27:45.09	103.58	29.73	-84.3	-88.8	2.4	3.11e+01	0	47	104	0	60	1048575
2026-01-17 23:27:46.09	103.98	29.69	-84.3	-88.8	2.7	3.11e+01	0	47	104	0	60	1048575
2026-01-17 23:27:47.10	104.38	29.65	-83.9	-88.8	2.4	3.11e+01	0	47	104	0	60	1048575
2026-01-17 23:27:48.11	104.78	29.60	-84.3	-88.8	2.6	3.11e+01	0	47	104	0	60	1048575
2026-01-17 23:27:49.12	105.18	29.56	-83.9	-88.8	2.5	3.11e+01	0	47	104	0	60	1048575
2026-01-17 23:27:50.13	105.57	29.51	-84.3	-88.8	2.7	3.11e+01	0	47	104	0	60	1048575
2026-01-17 23:27:51.13	105.96	29.46	-83.9	-88.8	2.6	3.11e+01	0	47	104	0	60	1048575
2026-01-17 23:27:52.14	106.36	29.41	-83.9	-88.8	2.6	3.11e+01	0	47	104	0	60	1048575
2026-01-17 23:27:53.14	106.75	29.36	-84.3	-88.8	2.7	3.11e+01	0	47	104	0	60	1048575
2026-01-17 23:27:54.15	107.14	29.31	-84.3	-88.8	2.6	3.11e+01	0	47	104	0	60	1048575
2026-01-17 23:27:55.15	107.52	29.26	-84.3	-88.8	2.5	3.11e+01	0	47	104	0	60	1048575
2026-01-17 23:27:56.16	107.91	29.20	-83.5	-88.8	2.5	3.11e+01	0	47	104	0	60	1048575
2026-01-17 23:27:57.17	108.30	29.14	-84.3	-88.8	2.5	3.11e+01	0	47	104	0	60	1048575
2026-01-17 23:27:58.17	108.68	29.09	-84.3	-88.8	2.7	3.11e+01	0	47	104	0	60	1048575
2026-01-17 23:27:59.17	109.06	29.03	-84.3	-88.8	2.5	3.11e+01	0	47	104	0	60	1048575
2026-01-17 23:28:00.18	109.44	28.97	-83.9	-88.8	2.6	3.11e+01	0	47	104	0	60	1048575
2026-01-17 23:28:01.19	109.83	28.91	-83.9	-88.8	2.6	3.11e+01	0	47	104	0	60	1048575
2026-01-17 23:28:02.20	110.21	28.85	-84.3	-88.8	2.7	3.11e+01	0	47	104	0	60	1048575
2026-01-17 23:28:03.21	110.58	28.78	-84.3	-88.8	2.5	3.11e+01	0	47	104	0	60	1048575
2026-01-17 23:28:04.21	110.96	28.72	-84.3	-88.8	2.3	3.11e+01	0	47	104	0	60	1048575
2026-01-17 23:28:05.22	111.33	28.65	-84.3	-88.8	2.6	3.11e+01	0	47	104	0	60	1048575
2026-01-17 23:28:06.23	111.71	28.59	-83.9	-88.8	2.6	3.11e+01	0	47	104	0	60	1048575
2026-01-17 23:28:07.24	112.08	28.52	-84.3	-88.8	2.5	3.11e+01	0	47	104	0	60	1048575
2026-01-17 23:28:08.25	112.45	28.45	-84.3	-88.8	2.4	3.11e+01	0	47	104	0	60	1048575
2026-01-17 23:28:09.25	112.82	28.38	-84.3	-88.8	2.6	3.11e+01	0	47	104	0	60	1048575
2026-01-17 23:28:10.26	113.18	28.31	-83.9	-88.8	2.6	3.11e+01	0	47	104	0	60	1048575
2026-01-17 23:28:11.26	113.55	28.24	-84.3	-88.8	2.3	3.11e+01	0	47	104	0	60	1048575
2026-01-17 23:28:12.27	113.91	28.17	-84.3	-88.8	2.5	3.11e+01	0	47	104	0	60	1048575
2026-01-17 23:28:13.27	114.27	28.09	-84.3	-88.8	2.2	3.11e+01	0	47	104	0	60	1048575
2026-01-17 23:28:14.28	114.63	28.02	-84.3	-88.8	2.5	3.11e+01	0	47	104	0	60	1048575
2026-01-17 23:28:15.29	114.99	27.94	-83.9	-88.8	2.0	3.11e+01	0	47	104	0	60	1048575
2026-01-17 23:28:16.29	115.34	27.87	-84.3	-88.8	2.3	3.11e+01	0	47	104	0	60	1048575
2026-01-17 23:28:17.30	115.70	27.79	-84.3	-88.8	2.3	3.11e+01	0	47	104	0	60	1048575
2026-01-17 23:28:18.31	116.05	27.71	-84.3	-88.8	2.3	3.11e+01	0	47	104	0	60	1048575
2026-01-17 23:28:19.32	116.41	27.63	-84.3	-88.8	2.6	3.11e+01	0	47	104	0	60	1048575
2026-01-17 23:28:20.32	116.75	27.55	-83.9	-88.8	2.6	3.11e+01	0	47	104	0	60	1048575
2026-01-17 23:28:21.33	117.10	27.47	-84.3	-88.8	2.6	3.11e+01	0	47	104	0	60	1048575
2026-01-17 23:28:22.33	117.44	27.39	-84.3	-88.8	2.7	3.11e+01	0	47	104	0	60	1048575
2026-01-17 23:28:23.34	117.79	27.31	-84.3	-88.8	2.3	3.11e+01	0	47	104	0	60	1048575
2026-01-17 23:28:24.34	118.13	27.22	-83.9	-88.8	2.5	3.11e+01	0	47	104	0	60	1048575
2026-01-17 23:28:25.34	118.47	27.14	-83.9	-88.8	2.5	3.11e+01	0	47	104	0	60	1048575
2026-01-17 23:28:26.35	118.81	27.06	-84.3	-88.8	2.6	3.11e+01	0	47	104	0	60	1048575
2026-01-17 23:28:27.35	119.14	26.97	-84.3	-88.8	2.6	3.11e+01	0	47	104	0	60	1048575
2026-01-17 23:28:28.36	119.48	26.89	-84.3	-88.8	2.5	3.11e+01	0	47	104	0	60	1048575
2026-01-17 23:28:29.37	119.81	26.80	-83.9	-88.8	2.7	3.11e+01	0	47	104	0	60	1048575
2026-01-17 23:28:30.37	120.14	26.71	-84.3	-88.8	2.7	3.11e+01	0	47	104	0	60	1048575
2026-01-17 23:28:31.38	120.47	26.62	-84.3	-88.8	2.6	3.11e+01	0	47	104	0	60	1048575
2026-01-17 23:28:32.39	120.80	26.53	-84.3	-88.8	2.7	3.11e+01	0	47	104	0	60	1048575
2026-01-17 23:28:33.40	121.13	26.44	-84.3	-88.8	2.7	3.11e+01	0	47	104	0	60	1048575
2026-01-17 23:28:34.41	121.45	26.35	-83.9	-88.8	2.6	3.11e+01	0	47	104	0	60	1048575
2026-01-17 23:28:35.42	121.77	26.26	-84.3	-88.8	2.4	3.11e+01	0	47	104	0	60	1048575
2026-01-17 23:28:36.42	122.09	26.17	-84.3	-88.8	2.5	3.11e+01	0	47	104	0	60	1048575
2026-01-17 23:28:37.43	122.41	26.08	-84.3	-88.8	2.1	3.11e+01	0	47	104	0	60	1048575
2026-01-17 23:28:38.44	122.73	25.99	-83.9	-88.8	2.4	3.11e+01	0	47	104	0	60	1048575
2026-01-17 23:28:39.44	123.04	25.89	-83.9	-88.8	2.3	3.11e+01	0	47	104	0	60	1048575
2026-01-17 23:28:40.45	123.35	25.80	-84.3	-88.8	2.5	3.11e+01	0	47	104	0	60	1048575
2026-01-17 23:28:41.46	123.66	25.71	-84.3	-88.8	2.6	3.11e+01	0	47	104	0	60	1048575
2026-01-17 23:28:42.47	123.97	25.61	-84.3	-88.8	2.6	3.11e+01	0	47	104	0	60	1048575
2026-01-17 23:28:43.47	124.28	25.52	-83.9	-88.8	2.6	3.11e+01	0	47	104	0	60	1048575
2026-01-17 23:28:44.48	124.58	25.42	-83.9	-88.8	2.5	3.11e+01	0	47	104	0	60	1048575
2026-01-17 23:28:45.49	124.89	25.33	-84.3	-88.8	2.6	3.11e+01	0	47	104	0	60	1048575
2026-01-17 23:28:46.49	125.19	25.23	-84.3	-88.8	2.4	3.11e+01	0	47	104	0	60	1048575
2026-01-17 23:28:47.50	125.49	25.13	-84.3	-88.8	2.6	3.11e+01	0	47	104	0	60	1048575
2026-01-17 23:28:48.51	125.79	25.04	-83.9	-88.8	2.5	3.11e+01	0	47	104	0	60	1048575
2026-01-17 23:28:49.52	126.08	24.94	-84.3	-88.8	2.8	3.11e+01	0	47	104	0	60	1048575
2026-01-17 23:28:50.53	126.38	24.84	-84.3	-88.8	2.5	3.11e+01	0	47	104	0	60	1048575
2026-01-17 23:28:51.54	126.67	24.74	-84.3	-88.8	2.4	3.11e+01	0	47	104	0	60	1048575
2026-01-17 23:28:52.54	126.96	24.64	-84.3	-88.8	2.7	3.11e+01	0	47	104	0	60	1048575
2026-01-17 23:28:53.55	127.25	24.54	-83.9	-88.8	2.7	3.11e+01	0	47	104	0	60	1048575
2026-01-17 23:28:54.55	127.53	24.45	-84.3	-88.8	2.6	3.11e+01	0	47	104	0	60	1048575
2026-01-17 23:28:55.56	127.82	24.35	-84.3	-88.8	2.5	3.11e+01	0	47	104	0	60	1048575
2026-01-17 23:28:56.57	128.10	24.25	-84.3	-88.8	2.5	3.11e+01	0	47	104	0	60	1048575
2026-01-17 23:28:57.57	128.38	24.15	-83.9	-88.8	2.4	3.11e+01	0	47	104	0	60	1048575
2026-01-17 23:28:58.58	128.66	24.05	-83.9	-88.8	2.5	3.11e+01	0	47	104	0	60	1048575
2026-01-17 23:28:59.58	128.93	23.95	-84.3	-88.8	2.3	3.11e+01	0	47	104	0	60	1048575
2026-01-17 23:29:00.59	129.21	23.84	-84.3	-88.8	2.1	3.11e+01	0	47	104	0	60	1048575
2026-01-17 23:29:01.59	129.48	23.74	-84.3	-88.8	2.5	3.11e+01	0	47	104	0	60	1048575
2026-01-17 23:29:02.60	129.75	23.64	-83.9	-88.8	2.6	3.11e+01	0	47	104	0	60	1048575
2026-01-17 23:29:03.60	130.02	23.54	-83.9	-88.8	2.7	3.11e+01	0	47	104	0	60	1048575
2026-01-17 23:29:04.61	130.29	23.44	-84.3	-88.8	2.7	3.11e+01	0	47	104	0	60	1048575
2026-01-17 23:29:05.61	130.56	23.34	-84.3	-88.8	2.6	3.11e+01	0	47	104	0	60	1048575
2026-01-17 23:29:06.62	130.82	23.24	-84.3	-88.8	2.5	3.11e+01	0	47	104	0	60	1048575
2026-01-17 23:29:07.45	131.04	23.15	-83.9	-88.8	2.7	3.11e+01	0	47	104	0	60	1048575
2026-01-17 23:29:08.59	131.33	23.04	-84.3	-88.8	2.3	3.11e+01	0	47	104	0	60	1048575
2026-01-17 23:29:09.45	131.56	22.95	-84.3	-88.8	2.4	3.11e+01	0	47	104	0	60	1048575
2026-01-17 23:29:10.61	131.85	22.83	-84.3	-88.8	2.6	3.11e+01	0	47	104	0	60	1048575
2026-01-17 23:29:11.47	132.07	22.74	-83.9	-88.8	2.6	3.11e+01	0	47	104	0	60	1048575
2026-01-17 23:29:12.62	132.36	22.63	-83.9	-88.8	2.7	3.11e+01	0	47	104	0	60	1048575
2026-01-17 23:29:13.48	132.58	22.54	-84.3	-88.8	2.5	3.11e+01	0	47	104	0	60	1048575
2026-01-17 23:29:14.63	132.86	22.42	-84.3	-88.8	2.5	3.11e+01	0	47	104	0	60	1048575
2026-01-17 23:29:15.49	133.08	22.33	-84.3	-88.8	2.4	3.11e+01	0	47	104	0	60	1048575
2026-01-17 23:29:16.64	133.36	22.21	-83.9	-88.8	2.7	3.11e+01	0	47	104	0	60	1048575
2026-01-17 23:29:17.51	133.57	22.13	-83.9	-88.8	2.5	3.11e+01	0	47	104	0	60	1048575
2026-01-17 23:29:18.66	133.85	22.01	-84.3	-88.8	2.7	3.11e+01	0	47	104	0	60	1048575
2026-01-17 23:29:19.52	134.06	21.92	-84.3	-88.8	2.4	3.11e+01	0	47	104	0	60	1048575
2026-01-17 23:29:20.67	134.33	21.80	-84.3	-88.8	2.3	3.11e+01	0	47	104	0	60	1048575
2026-01-17 23:29:21.54	134.54	21.71	-83.9	-88.8	2.7	3.11e+01	0	47	104	0	60	1048575
2026-01-17 23:29:22.69	134.81	21.59	-84.3	-88.8	2.5	3.11e+01	0	47	104	0	60	1048575
2026-01-17 23:29:23.55	135.01	21.51	-84.3	-88.8	2.6	3.11e+01	0	47	104	0	60	1048575
2026-01-17 23:29:24.70	135.28	21.39	-84.3	-88.8	2.6	3.11e+01	0	47	104	0	60	1048575
2026-01-17 23:29:25.57	135.48	21.30	-84.3	-88.8	2.7	3.11e+01	0	47	104	0	60	1048575
2026-01-17 23:29:26.72	135.75	21.18	-83.9	-88.8	2.6	3.11e+01	0	47	104	0	60	1048575
2026-01-17 23:29:27.58	135.94	21.09	-84.3	-88.8	2.5	3.11e+01	0	47	104	0	60	1048575
2026-01-17 23:29:28.73	136.20	20.97	-84.3	-88.8	2.5	3.11e+01	0	47	104	0	60	1048575
2026-01-17 23:29:29.59	136.40	20.89	-84.3	-88.8	2.7	3.11e+01	0	47	104	0	60	1048575
2026-01-17 23:29:30.74	136.65	20.77	-83.9	-88.8	2.4	3.11e+01	0	47	104	0	60	1048575
2026-01-17 23:29:31.60	136.85	20.68	-83.9	-88.8	2.7	3.11e+01	0	47	104	0	60	1048575
2026-01-17 23:29:32.75	137.10	20.56	-84.3	-88.8	2.4	3.11e+01	0	47	104	0	60	1048575
2026-01-17 23:29:33.61	137.29	20.47	-84.3	-88.8	2.4	3.11e+01	0	47	104	0	60	1048575
2026-01-17 23:29:34.77	137.54	20.35	-83.9	-88.8	2.5	3.11e+01	0	47	104	0	60	1048575
2026-01-17 23:29:35.63	137.73	20.27	-83.5	-88.8	2.7	3.11e+01	0	47	104	0	60	1048575
2026-01-17 23:29:36.78	137.97	20.15	-84.3	-88.8	2.7	3.11e+01	0	47	104	0	60	1048575
2026-01-17 23:29:37.64	138.15	20.06	-84.3	-88.8	2.5	3.11e+01	0	47	104	0	60	1048575
2026-01-17 23:29:38.79	138.40	19.94	-84.3	-88.8	2.6	3.11e+01	0	47	104	0	60	1048575
2026-01-17 23:29:39.65	138.58	19.86	-83.9	-88.8	2.5	3.11e+01	0	47	104	0	60	1048575
2026-01-17 23:29:40.80	138.82	19.74	-83.9	-88.8	2.3	3.11e+01	0	47	104	0	60	1048575
2026-01-17 23:29:41.67	139.00	19.65	-84.3	-88.8	2.6	3.11e+01	0	47	104	0	60	1048575
2026-01-17 23:29:42.82	139.24	19.53	-84.3	-88.8	2.3	3.11e+01	0	47	104	0	60	1048575
2026-01-17 23:29:43.68	139.41	19.45	-84.3	-88.8	2.7	3.11e+01	0	47	104	0	60	1048575
2026-01-17 23:29:44.83	139.64	19.33	-83.9	-88.8	2.5	3.11e+01	0	47	104	0	60	1048575
2026-01-17 23:29:45.69	139.82	19.24	-83.9	-88.8	2.5	3.11e+01	0	47	104	0	60	1048575
2026-01-17 23:29:46.85	140.05	19.13	-84.3	-88.8	2.6	3.11e+01	0	47	104	0	60	1048575
2026-01-17 23:29:47.71	140.22	19.04	-84.3	-88.8	2.6	3.11e+01	0	47	104	0	60	1048575
2026-01-17 23:29:48.86	140.45	18.92	-84.3	-88.8	2.5	3.11e+01	0	47	104	0	60	1048575
2026-01-17 23:29:49.73	140.62	18.84	-83.9	-88.8	2.6	3.11e+01	0	47	104	0	60	1048575
2026-01-17 23:29:50.88	140.84	18.72	-83.9	-88.8	2.7	3.11e+01	0	47	104	0	60	1048575
2026-01-17 23:29:51.74	141.01	18.63	-84.3	-88.8	2.4	3.11e+01	0	47	104	0	60	1048575
2026-01-17 23:29:52.89	141.23	18.52	-84.3	-88.8	2.4	3.11e+01	0	47	104	0	60	1048575
2026-01-17 23:29:53.75	141.39	18.43	-84.3	-88.8	2.5	3.11e+01	0	47	104	0	60	1048575
2026-01-17 23:29:54.90	141.61	18.32	-83.9	-88.8	2.2	3.11e+01	0	47	104	0	60	1048575
2026-01-17 23:29:55.76	141.77	18.23	-83.9	-88.8	2.7	3.11e+01	0	47	104	0	60	1048575
2026-01-17 23:29:56.92	141.99	18.11	-84.3	-88.8	2.5	3.11e+01	0	47	104	0	60	1048575
2026-01-17 23:29:57.78	142.15	18.03	-84.3	-88.8	2.6	3.11e+01	0	47	104	0	60	1048575
2026-01-17 23:29:58.93	142.36	17.91	-84.3	-88.8	2.3	3.11e+01	0	47	104	0	60	1048575
2026-01-17 23:29:59.80	142.52	17.83	-83.9	-88.8	2.2	3.11e+01	0	47	104	0	60	1048575
2026-01-17 23:30:00.95	142.73	17.71	-84.3	-88.8	2.5	3.11e+01	0	47	104	0	60	1048575
2026-01-17 23:30:01.81	142.89	17.63	-84.3	-88.8	2.7	3.11e+01	0	47	104	0	60	1048575
2026-01-17 23:30:02.96	143.09	17.52	-83.9	-88.8	2.5	3.11e+01	0	47	104	0	60	1048575
2026-01-17 23:30:03.83	143.25	17.43	-83.9	-88.8	2.3	3.11e+01	0	47	104	0	60	1048575
2026-01-17 23:30:04.98	143.45	17.32	-83.9	-88.8	2.5	3.11e+01	0	47	104	0	60	1048575
2026-01-17 23:30:05.84	143.60	17.23	-84.3	-88.8	2.6	3.11e+01	0	47	104	0	60	1048575
2026-01-17 23:30:06.99	143.80	17.12	-84.3	-88.8	2.4	3.11e+01	0	47	104	0	60	1048575
2026-01-17 23:30:07.86	143.96	17.04	-84.3	-88.8	2.9	3.11e+01	0	47	104	0	60	1048575
2026-01-17 23:30:09.01	144.15	16.92	-83.5	-88.8	2.6	3.11e+01	0	47	104	0	60	1048575
2026-01-17 23:30:09.87	144.30	16.84	-83.9	-88.8	2.8	3.11e+01	0	47	104	0	60	1048575
2026-01-17 23:30:11.03	144.50	16.73	-84.3	-88.8	2.3	3.11e+01	0	47	104	0	60	1048575
2026-01-17 23:30:11.89	144.64	16.64	-84.3	-88.8	2.5	3.11e+01	0	47	104	0	60	1048575
2026-01-17 23:30:13.04	144.84	16.53	-84.3	-88.8	2.4	3.11e+01	0	47	104	0	60	1048575
2026-01-17 23:30:13.90	144.98	16.45	-83.9	-88.8	2.3	3.11e+01	0	47	104	0	60	1048575
2026-01-17 23:30:15.05	145.17	16.34	-84.3	-88.8	2.5	3.11e+01	0	47	104	0	60	1048575
2026-01-17 23:30:15.92	145.31	16.25	-83.9	-88.8	2.4	3.11e+01	0	47	104	0	60	1048575
2026-01-17 23:30:17.07	145.50	16.14	-84.3	-88.8	2.6	3.11e+01	0	47	104	0	60	1048575
2026-01-17 23:30:17.93	145.64	16.06	-84.3	-88.8	2.4	3.11e+01	0	47	104	0	60	1048575
2026-01-17 23:30:19.08	145.83	15.95	-83.9	-88.8	2.6	3.11e+01	0	47	104	0	60	1048575
2026-01-17 23:30:19.95	145.97	15.87	-84.3	-88.8	2.4	3.11e+01	0	47	104	0	60	1048575
2026-01-17 23:30:21.10	146.15	15.76	-84.3	-88.8	2.6	3.11e+01	0	47	104	0	60	1048575
2026-01-17 23:30:21.96	146.28	15.68	-84.3	-88.8	2.4	3.11e+01	0	47	104	0	60	1048575
2026-01-17 23:30:23.12	146.47	15.57	-83.9	-88.8	2.2	3.11e+01	0	47	104	0	60	1048575
2026-01-17 23:30:23.98	146.60	15.49	-83.9	-88.8	2.3	3.11e+01	0	47	104	0	60	1048575
2026-01-17 23:30:25.12	146.78	15.38	-84.3	-88.8	2.6	3.11e+01	0	47	104	0	60	1048575
2026-01-17 23:30:25.98	146.91	15.30	-84.3	-88.8	2.7	3.11e+01	0	47	104	0	60	1048575
2026-01-17 23:30:27.13	147.09	15.19	-84.3	-88.8	2.6	3.11e+01	0	47	104	0	60	1048575
2026-01-17 23:30:27.99	147.22	15.11	-83.9	-88.8	2.7	3.11e+01	0	47	104	0	60	1048575
2026-01-17 23:30:29.14	147.39	15.00	-84.3	-88.8	2.6	3.11e+01	0	47	104	0	60	1048575
2026-01-17 23:30:30.00	147.52	14.92	-84.3	-88.8	2.2	3.11e+01	0	47	104	0	60	1048575
2026-01-17 23:30:31.15	147.69	14.82	-84.3	-88.8	2.5	3.11e+01	0	47	104	0	60	1048575
2026-01-17 23:30:32.01	147.82	14.74	-84.3	-88.8	2.5	3.11e+01	0	47	104	0	60	1048575
2026-01-17 23:30:33.16	147.99	14.63	-83.9	-88.8	2.1	3.11e+01	0	47	104	0	60	1048575
2026-01-17 23:30:34.02	148.11	14.55	-83.9	-88.8	2.6	3.11e+01	0	47	104	0	60	1048575
2026-01-17 23:30:35.17	148.28	14.45	-84.3	-88.8	2.5	3.11e+01	0	47	104	0	60	1048575
2026-01-17 23:30:36.04	148.41	14.37	-84.3	-88.8	2.7	3.11e+01	0	47	104	0	60	1048575
2026-01-17 23:30:37.19	148.57	14.26	-83.9	-88.8	2.3	3.11e+01	0	47	104	0	60	1048575
2026-01-17 23:30:38.05	148.69	14.18	-83.9	-88.8	2.4	3.11e+01	0	47	104	0	60	1048575
2026-01-17 23:30:39.20	148.86	14.08	-84.3	-88.8	2.3	3.11e+01	0	47	104	0	60	1048575
2026-01-17 23:30:40.06	148.98	14.00	-84.3	-88.8	2.5	3.11e+01	0	47	104	0	60	1048575
2026-01-17 23:30:41.20	149.14	13.90	-84.3	-88.8	2.5	3.11e+01	0	47	104	0	60	1048575
2026-01-17 23:30:42.07	149.26	13.82	-83.9	-88.8	2.7	3.11e+01	0	47	104	0	60	1048575
2026-01-17 23:30:43.21	149.41	13.72	-83.9	-88.8	2.4	3.11e+01	0	47	104	0	60	1048575
2026-01-17 23:30:44.08	149.53	13.64	-84.3	-88.8	2.6	3.11e+01	0	47	104	0	60	1048575
2026-01-17 23:30:45.23	149.69	13.53	-84.3	-88.8	2.4	3.11e+01	0	47	104	0	60	1048575
2026-01-17 23:30:46.09	149.81	13.46	-84.3	-88.8	2.6	3.11e+01	0	47	104	0	60	1048575
2026-01-17 23:30:47.25	149.96	13.35	-83.9	-88.8	2.5	3.11e+01	0	47	104	0	60	1048575
2026-01-17 23:30:48.11	150.08	13.28	-84.3	-88.8	2.5	3.11e+01	0	47	104	0	60	1048575
2026-01-17 23:30:49.26	150.23	13.17	-84.3	-88.8	2.6	3.11e+01	0	47	104	0	60	1048575
2026-01-17 23:30:50.12	150.34	13.10	-84.3	-88.8	2.6	3.11e+01	0	47	104	0	60	1048575
2026-01-17 23:30:51.27	150.50	13.00	-84.3	-88.8	2.6	3.11e+01	0	47	104	0	60	1048575
2026-01-17 23:30:52.13	150.61	12.92	-83.9	-88.8	2.5	3.11e+01	0	47	104	0	60	1048575
2026-01-17 23:30:53.28	150.76	12.82	-84.3	-88.8	2.5	3.11e+01	0	47	104	0	60	1048575
2026-01-17 23:30:54.14	150.87	12.74	-84.3	-88.8	2.4	3.11e+01	0	47	104	0	60	1048575
2026-01-17 23:30:55.29	151.01	12.64	-84.3	-88.8	2.6	3.11e+01	0	47	104	0	60	1048575
2026-01-17 23:30:56.15	151.12	12.57	-84.3	-88.8	2.6	3.11e+01	0	47	104	0	60	1048575
2026-01-17 23:30:57.30	151.27	12.47	-83.9	-88.8	2.4	3.11e+01	0	47	104	0	60	1048575
2026-01-17 23:30:58.15	151.38	12.40	-84.3	-88.8	2.5	3.11e+01	0	47	104	0	60	1048575
2026-01-17 23:30:59.30	151.52	12.30	-84.3	-88.8	2.5	3.11e+01	0	47	104	0	60	1048575
2026-01-17 23:31:00.16	151.63	12.22	-84.3	-88.8	2.5	3.11e+01	0	47	104	0	60	1048575
2026-01-17 23:31:01.31	151.77	12.12	-83.9	-88.8	2.6	3.11e+01	0	47	104	0	60	1048575
2026-01-17 23:31:02.17	151.87	12.05	-83.9	-88.8	2.3	3.11e+01	0	47	104	0	60	1048575
2026-01-17 23:31:03.32	152.01	11.95	-84.3	-88.8	2.6	3.11e+01	0	47	104	0	60	1048575
2026-01-17 23:31:04.19	152.12	11.88	-84.3	-88.8	2.4	3.11e+01	0	47	104	0	60	1048575
2026-01-17 23:31:05.34	152.26	11.78	-84.3	-88.8	2.6	3.11e+01	0	47	104	0	60	1048575
2026-01-17 23:31:06.20	152.36	11.71	-83.9	-88.8	2.4	3.11e+01	0	47	104	0	60	1048575
2026-01-17 23:31:07.34	152.50	11.61	-84.3	-88.8	2.4	3.11e+01	0	47	104	0	60	1048575
2026-01-17 23:31:08.21	152.60	11.54	-84.3	-88.8	2.6	3.11e+01	0	47	104	0	60	1048575
2026-01-17 23:31:09.36	152.74	11.44	-84.3	-88.8	2.4	3.11e+01	0	47	104	0	60	1048575
2026-01-17 23:31:10.22	152.84	11.37	-84.3	-88.8	2.4	3.11e+01	0	47	104	0	60	1048575
2026-01-17 23:31:11.37	152.97	11.27	-83.9	-88.8	2.4	3.11e+01	0	47	104	0	60	1048575
2026-01-17 23:31:12.23	153.07	11.20	-84.3	-88.8	2.6	3.11e+01	0	47	104	0	60	1048575
2026-01-17 23:31:13.38	153.20	11.10	-84.3	-88.8	2.6	3.11e+01	0	47	104	0	60	1048575
2026-01-17 23:31:14.24	153.30	11.03	-83.9	-88.8	2.7	3.11e+01	0	47	104	0	60	1048575
2026-01-17 23:31:15.39	153.43	10.94	-83.9	-88.8	2.6	3.11e+01	0	47	104	0	60	1048575
2026-01-17 23:31:16.26	153.53	10.86	-84.3	-88.8	2.5	3.11e+01	0	47	104	0	60	1048575
2026-01-17 23:31:17.41	153.66	10.77	-84.3	-88.8	2.6	3.11e+01	0	47	104	0	60	1048575
2026-01-17 23:31:18.27	153.75	10.70	-84.3	-88.8	2.4	3.11e+01	0	47	104	0	60	1048575
2026-01-17 23:31:19.43	153.88	10.60	-84.3	-88.8	2.7	3.11e+01	0	47	104	0	60	1048575
2026-01-17 23:31:20.29	153.98	10.53	-83.9	-88.8	2.6	3.11e+01	0	47	104	0	60	1048575
2026-01-17 23:31:21.44	154.10	10.44	-84.3	-88.8	2.7	3.11e+01	0	47	104	0	60	1048575
2026-01-17 23:31:22.30	154.20	10.37	-84.3	-88.8	2.7	3.11e+01	0	47	104	0	60	1048575
2026-01-17 23:31:23.45	154.32	10.28	-84.3	-88.8	2.3	3.11e+01	0	47	104	0	60	1048575
2026-01-17 23:31:24.32	154.41	10.20	-84.3	-88.8	2.7	3.11e+01	0	47	104	0	60	1048575
2026-01-17 23:31:25.46	154.54	10.11	-83.5	-88.8	2.6	3.11e+01	0	47	104	0	60	1048575
2026-01-17 23:31:26.32	154.63	10.04	-83.9	-88.8	2.6	3.11e+01	0	47	104	0	60	1048575
2026-01-17 23:31:27.47	154.75	9.95	-84.3	-88.8	2.6	3.11e+01	0	47	104	0	60	1048575
2026-01-17 23:31:28.34	154.84	9.88	-84.3	-88.8	2.4	3.11e+01	0	47	104	0	60	1048575
2026-01-17 23:31:29.48	154.96	9.79	-84.3	-88.8	2.7	3.11e+01	0	47	104	0	60	1048575
2026-01-17 23:31:30.35	155.05	9.72	-83.9	-88.8	2.4	3.11e+01	0	47	104	0	60	1048575
2026-01-17 23:31:31.50	155.17	9.63	-84.3	-88.8	2.7	3.11e+01	0	47	104	0	60	1048575
2026-01-17 23:31:32.36	155.26	9.56	-84.3	-88.8	2.4	3.11e+01	0	47	104	0	60	1048575
2026-01-17 23:31:33.51	155.38	9.47	-84.3	-88.8	2.9	3.11e+01	0	47	104	0	60	1048575
2026-01-17 23:31:34.37	155.46	9.40	-83.9	-88.8	2.4	3.11e+01	0	47	104	0	60	1048575
2026-01-17 23:31:35.53	155.58	9.31	-84.3	-88.8	2.4	3.11e+01	0	47	104	0	60	1048575
2026-01-17 23:31:36.39	155.67	9.24	-84.3	-88.8	2.5	3.11e+01	0	47	104	0	60	1048575
2026-01-17 23:31:37.54	155.78	9.15	-84.3	-88.8	2.5	3.11e+01	0	47	104	0	60	1048575
2026-01-17 23:31:38.40	155.87	9.09	-84.3	-88.8	2.5	3.11e+01	0	47	104	0	60	1048575
2026-01-17 23:31:39.55	155.98	9.00	-83.9	-88.8	2.5	3.11e+01	0	47	104	0	60	1048575
2026-01-17 23:31:40.42	156.07	8.93	-83.9	-88.8	2.7	3.11e+01	0	47	104	0	60	1048575
2026-01-17 23:31:41.57	156.18	8.84	-84.3	-88.8	2.6	3.11e+01	0	47	104	0	60	1048575
2026-01-17 23:31:42.43	156.26	8.77	-84.3	-88.8	2.3	3.11e+01	0	47	104	0	60	1048575
2026-01-17 23:31:43.58	156.37	8.69	-83.9	-88.8	2.7	3.11e+01	0	47	104	0	60	1048575
2026-01-17 23:31:44.44	156.46	8.62	-83.9	-88.8	2.8	3.11e+01	0	47	104	0	60	1048575
2026-01-17 23:31:45.58	156.57	8.53	-84.3	-88.8	2.3	3.11e+01	0	47	104	0	60	1048575
2026-01-17 23:31:46.45	156.65	8.47	-84.3	-88.8	2.7	3.11e+01	0	47	104	0	60	1048575
2026-01-17 23:31:47.60	156.76	8.38	-84.3	-88.8	2.6	3.11e+01	0	47	104	0	60	1048575
2026-01-17 23:31:48.46	156.84	8.31	-83.9	-88.8	2.6	3.11e+01	0	47	104	0	60	1048575
2026-01-17 23:31:49.61	156.95	8.23	-84.3	-88.8	2.6	3.11e+01	0	47	104	0	60	1048575
2026-01-17 23:31:50.48	157.03	8.16	-84.3	-88.8	2.8	3.11e+01	0	47	104	0	60	1048575
2026-01-17 23:31:51.63	157.13	8.07	-84.3	-88.8	2.3	3.11e+01	0	47	104	0	60	1048575
2026-01-17 23:31:52.49	157.21	8.01	-84.3	-88.8	2.7	3.11e+01	0	47	104	0	60	1048575
2026-01-17 23:31:53.64	157.32	7.92	-83.9	-88.8	2.4	3.11e+01	0	47	104	0	60	1048575
2026-01-17 23:31:54.50	157.40	7.86	-84.3	-88.8	2.6	3.11e+01	0	47	104	0	60	1048575
2026-01-17 23:31:55.65	157.50	7.77	-83.9	-88.8	2.3	3.11e+01	0	47	104	0	60	1048575
2026-01-17 23:31:56.51	157.58	7.71	-84.3	-88.8	2.6	3.11e+01	0	47	104	0	60	1048575
2026-01-17 23:31:57.66	157.68	7.62	-84.3	-88.8	2.3	3.11e+01	0	47	104	0	60	1048575
2026-01-17 23:31:58.52	157.76	7.56	-83.9	-88.8	2.2	3.11e+01	0	47	104	0	60	1048575
2026-01-17 23:31:59.67	157.86	7.47	-84.3	-88.8	2.6	3.11e+01	0	47	104	0	60	1048575
2026-01-17 23:32:00.53	157.94	7.41	-84.3	-88.8	2.6	3.11e+01	0	47	104	0	60	1048575
2026-01-17 23:32:01.69	158.04	7.33	-84.3	-88.8	2.5	3.11e+01	0	47	104	0	60	1048575
2026-01-17 23:32:02.55	158.11	7.26	-83.9	-88.8	2.6	3.11e+01	0	47	104	0	60	1048575
2026-01-17 23:32:03.70	158.21	7.18	-83.9	-88.8	2.2	3.11e+01	0	47	104	0	60	1048575
2026-01-17 23:32:04.56	158.29	7.12	-84.3	-88.8	2.4	3.11e+01	0	47	104	0	60	1048575
2026-01-17 23:32:05.71	158.39	7.03	-84.3	-88.8	2.6	3.11e+01	0	47	104	0	60	1048575
2026-01-17 23:32:06.57	158.46	6.97	-84.3	-88.8	2.7	3.11e+01	0	47	104	0	60	1048575
2026-01-17 23:32:07.73	158.56	6.89	-84.3	-88.8	2.5	3.11e+01	0	47	104	0	60	1048575
2026-01-17 23:32:08.59	158.63	6.82	-83.5	-88.8	2.5	3.11e+01	0	47	104	0	60	1048575
2026-01-17 23:32:09.74	158.73	6.74	-84.3	-88.8	2.3	3.11e+01	0	47	104	0	60	1048575
2026-01-17 23:32:10.61	158.80	6.68	-84.3	-88.8	2.7	3.11e+01	0	47	104	0	60	1048575
2026-01-17 23:32:11.76	158.90	6.60	-84.3	-88.8	2.6	3.11e+01	0	47	104	0	60	1048575
2026-01-17 23:32:12.62	158.97	6.53	-83.9	-88.8	2.4	3.11e+01	0	47	104	0	60	1048575
2026-01-17 23:32:13.77	159.06	6.45	-84.3	-88.8	2.9	3.11e+01	0	47	104	0	60	1048575
2026-01-17 23:32:14.63	159.13	6.39	-84.3	-88.8	2.3	3.11e+01	0	47	104	0	60	1048575
2026-01-17 23:32:15.78	159.23	6.31	-84.3	-88.8	2.7	3.11e+01	0	47	104	0	60	1048575
2026-01-17 23:32:16.65	159.30	6.25	-84.3	-88.8	2.5	3.11e+01	0	47	104	0	60	1048575
2026-01-17 23:32:17.79	159.39	6.17	-83.9	-88.8	2.7	3.11e+01	0	47	104	0	60	1048575
2026-01-17 23:32:18.65	159.46	6.11	-84.3	-88.8	2.4	3.11e+01	0	47	104	0	60	1048575
2026-01-17 23:32:19.79	159.55	6.03	-84.3	-88.8	2.7	3.11e+01	0	47	104	0	60	1048575
2026-01-17 23:32:20.66	159.62	5.96	-84.3	-88.8	2.6	3.11e+01	0	47	104	0	60	1048575
2026-01-17 23:32:21.81	159.71	5.88	-83.9	-88.8	2.6	3.11e+01	0	47	104	0	60	1048575
2026-01-17 23:32:22.67	159.78	5.82	-83.9	-88.8	2.8	3.11e+01	0	47	104	0	60	1048575
2026-01-17 23:32:23.83	159.87	5.74	-84.3	-88.8	2.6	3.11e+01	0	47	104	0	60	1048575
2026-01-17 23:32:24.69	159.94	5.68	-84.3	-88.8	2.4	3.11e+01	0	47	104	0	60	1048575
2026-01-17 23:32:25.84	160.03	5.60	-84.3	-88.8	2.7	3.11e+01	0	47	104	0	60	1048575
2026-01-17 23:32:26.70	160.09	5.54	-83.9	-88.8	2.4	3.11e+01	0	47	104	0	60	1048575
2026-01-17 23:32:27.85	160.18	5.47	-84.3	-88.8	2.6	3.11e+01	0	47	104	0	60	1048575
2026-01-17 23:32:28.72	160.25	5.41	-84.3	-88.8	2.6	3.11e+01	0	47	104	0	60	1048575
2026-01-17 23:32:29.87	160.34	5.33	-84.3	-88.8	2.7	3.11e+01	0	47	104	0	60	1048575
2026-01-17 23:32:30.73	160.40	5.27	-83.9	-88.8	2.5	3.11e+01	0	47	104	0	60	1048575
2026-01-17 23:32:31.88	160.49	5.19	-83.9	-88.8	2.8	3.11e+01	0	47	104	0	60	1048575
2026-01-17 23:32:32.74	160.55	5.13	-84.3	-88.8	2.5	3.11e+01	0	47	104	0	60	1048575
2026-01-17 23:32:33.89	160.64	5.05	-84.3	-88.8	2.8	3.11e+01	0	47	104	0	60	1048575
2026-01-17 23:32:34.76	160.70	4.99	-84.3	-88.8	2.5	3.11e+01	0	47	104	0	60	1048575
2026-01-17 23:32:35.91	160.79	4.92	-83.9	-88.8	2.5	3.11e+01	0	47	104	0	60	1048575
2026-01-17 23:32:36.77	160.85	4.86	-83.9	-88.8	2.7	3.11e+01	0	47	104	0	60	1048575
2026-01-17 23:32:37.92	160.94	4.78	-84.3	-88.8	2.5	3.11e+01	0	47	104	0	60	1048575
2026-01-17 23:32:38.78	161.00	4.72	-84.3	-88.8	2.7	3.11e+01	0	47	104	0	60	1048574
2026-01-17 23:32:39.93	161.08	4.64	-84.3	-88.8	2.5	3.11e+01	0	47	104	0	60	1048574
2026-01-17 23:32:40.80	161.15	4.59	-83.9	-88.8	2.5	3.11e+01	0	47	104	0	60	1048574
2026-01-17 23:32:41.95	161.23	4.51	-83.9	-88.8	2.5	3.11e+01	0	47	104	0	60	1048574
2026-01-17 23:32:42.81	161.29	4.45	-84.3	-88.8	2.3	3.11e+01	0	47	104	0	60	1048574
2026-01-17 23:32:43.96	161.37	4.38	-84.3	-88.8	2.6	3.11e+01	0	47	104	0	60	1048574
2026-01-17 23:32:44.83	161.43	4.32	-84.3	-88.8	2.5	3.11e+01	0	47	104	0	60	1048574
2026-01-17 23:32:45.98	161.51	4.24	-83.9	-88.8	2.7	3.11e+01	0	47	104	0	60	1048574
2026-01-17 23:32:46.84	161.57	4.19	-83.9	-88.8	2.6	3.11e+01	0	47	104	0	60	1048574
2026-01-17 23:32:48.00	161.66	4.11	-84.3	-88.8	2.4	3.11e+01	0	47	104	0	60	1048574
2026-01-17 23:32:48.86	161.72	4.05	-84.3	-88.8	2.6	3.11e+01	0	47	104	0	60	1048574
2026-01-17 23:32:50.01	161.79	3.98	-83.9	-88.8	2.7	3.11e+01	0	47	104	0	60	1048574
