passes_logs/2026/01/17/R3.2S-Naryan-Mar/R3.2S-Naryan-Mar__20260117_065611_TY-42_rec.log

#Pass ID: 20260117_065611_TY-42
#Satellite: TY-42
#Configuration: TY-42
#almurnet v.1.7.20240730
#Start time: 2026-01-17 06:59:31

#Version: 2.2.20231116
#Station: R3.2S-Naryan-Mar
#Location: 53.008057 lon 67.646978 lat
#TLE: 1 64048U 25103A   26017.16855324  .00008007  00000-0  38191-3 0 09993
#TLE: 2 64048 097.4122 092.5453 0001842 092.3417 060.2488 15.19155566 37145

#Time	Az	El	Level	Level2	SNR	BER	BlckErr	Temp	State	Recorded	gain1	gain2
2026-01-17 06:59:31.84	38.87	17.26	-83.9	-88.8	2.8	6.28e+00	0	46	0	0	60	1048575
2026-01-17 06:59:32.84	39.06	17.38	-83.5	-79.0	2.4	0.00e+00	0	47	104	0	60	1048563
2026-01-17 06:59:33.85	39.26	17.51	-83.1	-79.0	2.3	0.00e+00	0	47	104	0	60	1048575
2026-01-17 06:59:34.85	39.45	17.64	-82.8	-79.0	2.3	0.00e+00	0	47	104	0	60	1048572
2026-01-17 06:59:35.86	39.65	17.77	-83.5	-79.0	2.2	0.00e+00	0	47	104	0	60	1048574
2026-01-17 06:59:36.87	39.85	17.90	-83.1	-79.0	2.4	0.00e+00	0	47	104	0	60	1048564
2026-01-17 06:59:37.88	40.06	18.03	-83.5	-79.0	2.0	0.00e+00	0	47	104	0	60	1048575
2026-01-17 06:59:38.88	40.26	18.16	-83.1	-79.0	2.3	0.00e+00	0	47	104	0	60	1048570
2026-01-17 06:59:39.89	40.47	18.30	-83.1	-79.0	2.1	0.00e+00	0	47	104	0	60	1048575
2026-01-17 06:59:40.90	40.68	18.43	-83.5	-79.0	2.4	0.00e+00	0	47	104	0	60	1048572
2026-01-17 06:59:41.91	40.89	18.56	-83.5	-79.0	2.1	0.00e+00	0	47	104	0	60	1048568
2026-01-17 06:59:42.91	41.10	18.70	-83.5	-79.0	2.4	0.00e+00	0	47	104	0	60	1048572
2026-01-17 06:59:43.92	41.31	18.83	-83.1	-79.0	2.2	0.00e+00	0	47	104	0	60	1048574
2026-01-17 06:59:44.93	41.53	18.97	-83.5	-79.0	2.4	0.00e+00	0	47	104	0	60	1048574
2026-01-17 06:59:45.94	41.75	19.10	-83.1	-79.0	2.4	0.00e+00	0	47	104	0	60	1048574
2026-01-17 06:59:46.95	41.97	19.24	-83.5	-79.0	2.4	0.00e+00	0	47	104	0	60	1048572
2026-01-17 06:59:47.96	42.20	19.38	-83.1	-79.0	2.0	0.00e+00	0	47	104	0	60	1048555
2026-01-17 06:59:48.96	42.42	19.51	-82.8	-79.0	2.5	0.00e+00	0	47	104	0	60	1048575
2026-01-17 06:59:49.97	42.65	19.65	-83.1	-79.0	2.1	0.00e+00	0	47	104	0	60	1048575
2026-01-17 06:59:50.97	42.88	19.79	-83.5	-79.0	2.4	0.00e+00	0	47	104	0	60	1048575
2026-01-17 06:59:51.98	43.11	19.93	-83.1	-79.0	2.1	0.00e+00	0	47	104	0	60	1048574
2026-01-17 06:59:52.99	43.35	20.07	-82.8	-79.0	2.3	0.00e+00	0	47	104	0	60	1048574
2026-01-17 06:59:54.00	43.59	20.21	-83.1	-79.0	2.2	0.00e+00	0	47	104	0	60	1048571
2026-01-17 06:59:55.00	43.82	20.35	-83.5	-79.0	2.3	0.00e+00	0	47	104	0	60	1048574
2026-01-17 06:59:56.01	44.07	20.49	-83.5	-79.0	2.1	0.00e+00	0	47	104	0	60	1048571
2026-01-17 06:59:57.02	44.31	20.64	-83.5	-79.0	2.5	0.00e+00	0	47	104	0	60	1048572
2026-01-17 06:59:58.03	44.56	20.78	-83.1	-79.0	2.3	0.00e+00	0	47	104	0	60	1048574
2026-01-17 06:59:59.03	44.81	20.92	-83.5	-79.0	2.1	0.00e+00	0	47	104	0	60	1048563
2026-01-17 07:00:00.04	45.06	21.06	-83.5	-79.0	2.3	0.00e+00	0	47	104	0	60	1048575
2026-01-17 07:00:01.05	45.32	21.21	-83.5	-79.0	2.5	0.00e+00	0	47	104	0	60	1048575
2026-01-17 07:00:02.06	45.58	21.35	-83.5	-79.0	2.2	0.00e+00	0	47	104	0	60	1048575
2026-01-17 07:00:03.06	45.84	21.50	-83.1	-79.0	2.3	0.00e+00	0	47	104	0	60	1048573
2026-01-17 07:00:04.07	46.10	21.64	-83.1	-79.0	2.1	0.00e+00	0	48	104	0	60	1048574
2026-01-17 07:00:05.08	46.37	21.79	-83.5	-79.0	2.4	0.00e+00	0	47	104	0	60	1048572
2026-01-17 07:00:06.09	46.64	21.94	-83.5	-79.0	2.5	0.00e+00	0	47	104	0	60	1048573
2026-01-17 07:00:07.09	46.91	22.08	-83.1	-79.0	2.3	0.00e+00	0	47	104	0	60	1048565
2026-01-17 07:00:08.10	47.18	22.23	-83.1	-79.0	2.3	0.00e+00	0	48	104	0	60	1048572
2026-01-17 07:00:09.10	47.46	22.38	-83.5	-79.0	2.4	0.00e+00	0	48	104	0	60	1048574
2026-01-17 07:00:10.11	47.74	22.53	-83.5	-79.0	2.3	0.00e+00	0	47	104	0	60	1048572
2026-01-17 07:00:11.11	48.02	22.67	-83.5	-79.0	2.3	0.00e+00	0	47	104	0	60	1048569
2026-01-17 07:00:12.12	48.31	22.82	-83.1	-79.0	2.4	0.00e+00	0	48	104	0	60	1048575
2026-01-17 07:00:13.12	48.60	22.97	-83.1	-79.0	2.1	0.00e+00	0	47	104	0	60	1048570
2026-01-17 07:00:14.13	48.89	23.12	-83.5	-79.0	2.4	0.00e+00	0	48	104	0	60	1048573
2026-01-17 07:00:15.13	49.18	23.27	-83.1	-79.0	2.1	0.00e+00	0	47	104	0	60	1048575
2026-01-17 07:00:16.14	49.48	23.42	-83.5	-79.0	2.3	0.00e+00	0	48	104	0	60	1048575
2026-01-17 07:00:17.14	49.78	23.57	-83.1	-79.0	2.4	0.00e+00	0	47	104	0	60	1048573
2026-01-17 07:00:18.15	50.09	23.72	-83.5	-79.0	2.2	0.00e+00	0	48	104	0	60	1048575
2026-01-17 07:00:19.16	50.40	23.88	-83.5	-79.0	2.3	0.00e+00	0	47	104	0	60	1048573
2026-01-17 07:00:20.17	50.71	24.03	-83.5	-79.0	2.3	0.00e+00	0	48	104	0	60	1048568
2026-01-17 07:00:21.18	51.03	24.18	-83.1	-79.0	2.3	0.00e+00	0	48	104	0	60	1048570
2026-01-17 07:00:22.19	51.35	24.34	-82.8	-79.0	2.3	0.00e+00	0	48	104	0	60	1048573
2026-01-17 07:00:23.19	51.67	24.49	-83.5	-79.0	2.2	0.00e+00	0	48	104	0	60	1048566
2026-01-17 07:00:24.20	51.99	24.64	-83.5	-79.0	2.4	0.00e+00	0	48	104	0	60	1048573
2026-01-17 07:00:25.20	52.32	24.79	-83.5	-79.0	2.1	0.00e+00	0	47	104	0	60	1048572
2026-01-17 07:00:26.20	52.65	24.94	-83.1	-79.0	2.3	0.00e+00	0	48	104	0	60	1048574
2026-01-17 07:00:27.21	52.98	25.10	-83.1	-79.0	2.1	0.00e+00	0	48	104	0	60	1048574
2026-01-17 07:00:28.22	53.33	25.25	-83.5	-79.0	2.3	0.00e+00	0	48	104	0	60	1048574
2026-01-17 07:00:29.21	53.66	25.40	-83.5	-79.0	2.1	0.00e+00	0	48	104	0	60	1048575
2026-01-17 07:00:30.22	54.01	25.56	-83.5	-79.0	2.4	0.00e+00	0	48	104	0	60	1048569
2026-01-17 07:00:31.23	54.36	25.71	-82.8	-79.0	2.2	0.00e+00	0	48	104	0	60	1048574
2026-01-17 07:00:32.23	54.71	25.87	-83.5	-79.0	2.4	0.00e+00	0	48	104	0	60	1048565
2026-01-17 07:00:33.24	55.07	26.02	-83.5	-79.0	2.1	0.00e+00	0	48	104	0	60	1048575
2026-01-17 07:00:34.25	55.43	26.17	-83.5	-79.0	2.6	0.00e+00	0	48	104	0	60	1048573
2026-01-17 07:00:35.25	55.80	26.33	-83.1	-79.0	2.3	0.00e+00	0	48	104	0	60	1048574
2026-01-17 07:00:36.25	56.16	26.48	-83.1	-79.0	2.2	0.00e+00	0	48	104	0	60	1048574
2026-01-17 07:00:37.26	56.54	26.63	-83.5	-79.0	2.5	0.00e+00	0	48	104	0	60	1048574
2026-01-17 07:00:38.27	56.92	26.79	-83.5	-79.0	2.4	0.00e+00	0	48	104	0	60	1048575
2026-01-17 07:00:39.27	57.30	26.94	-83.5	-79.0	2.1	0.00e+00	0	48	104	0	60	1048569
2026-01-17 07:00:40.28	57.68	27.09	-83.5	-79.0	2.4	0.00e+00	0	48	104	0	60	1048573
2026-01-17 07:00:41.29	58.07	27.25	-83.1	-79.0	2.2	0.00e+00	0	48	104	0	60	1048572
2026-01-17 07:00:42.30	58.47	27.40	-83.5	-79.0	2.4	0.00e+00	0	48	104	0	60	1048575
2026-01-17 07:00:43.30	58.86	27.55	-83.5	-79.0	2.0	0.00e+00	0	48	104	0	60	1048573
2026-01-17 07:00:44.30	59.26	27.70	-83.1	-79.0	2.4	0.00e+00	0	48	104	0	60	1048572
2026-01-17 07:00:45.30	59.66	27.85	-82.8	-79.0	2.3	0.00e+00	0	48	104	0	60	1048571
2026-01-17 07:00:46.31	60.07	28.00	-83.1	-79.0	2.4	0.00e+00	0	48	104	0	60	1048568
2026-01-17 07:00:47.32	60.49	28.16	-83.5	-79.0	2.4	0.00e+00	0	48	104	0	60	1048573
2026-01-17 07:00:48.33	60.91	28.31	-83.5	-79.0	2.5	0.00e+00	0	48	104	0	60	1048563
2026-01-17 07:00:49.34	61.33	28.46	-83.5	-79.0	2.3	0.00e+00	0	48	104	0	60	1048572
2026-01-17 07:00:50.35	61.76	28.61	-83.1	-79.0	2.3	0.00e+00	0	48	104	0	60	1048575
2026-01-17 07:00:51.35	62.19	28.75	-83.1	-79.0	2.0	0.00e+00	0	48	104	0	60	1048566
2026-01-17 07:00:52.35	62.62	28.90	-83.5	-79.0	2.3	0.00e+00	0	48	104	0	60	1048572
2026-01-17 07:00:53.36	63.06	29.05	-83.5	-79.0	2.0	0.00e+00	0	48	104	0	60	1048571
2026-01-17 07:00:54.37	63.51	29.19	-83.5	-79.0	2.4	0.00e+00	0	48	104	0	60	1048561
2026-01-17 07:00:55.38	63.95	29.34	-82.8	-79.0	2.2	0.00e+00	0	48	104	0	60	1048575
2026-01-17 07:00:56.39	64.41	29.48	-83.5	-79.0	2.5	0.00e+00	0	48	104	0	60	1048557
2026-01-17 07:00:57.39	64.86	29.63	-83.5	-79.0	2.1	0.00e+00	0	48	104	0	60	1048566
2026-01-17 07:00:58.40	65.33	29.77	-83.5	-79.0	2.4	0.00e+00	0	48	104	0	60	1048571
2026-01-17 07:00:59.41	65.79	29.91	-83.1	-79.0	2.3	0.00e+00	0	48	104	0	60	1048573
2026-01-17 07:01:00.42	66.26	30.05	-83.1	-79.0	2.1	0.00e+00	0	48	104	0	60	1048574
2026-01-17 07:01:01.43	66.74	30.19	-83.5	-79.0	2.3	0.00e+00	0	48	104	0	60	1048575
2026-01-17 07:01:02.43	67.22	30.33	-83.5	-79.0	2.1	0.00e+00	0	48	104	0	60	1048573
2026-01-17 07:01:03.44	67.70	30.46	-83.5	-79.0	2.3	0.00e+00	0	48	104	0	60	1048569
2026-01-17 07:01:04.44	68.18	30.60	-83.1	-79.0	2.0	0.00e+00	0	48	104	0	60	1048572
2026-01-17 07:01:05.45	68.68	30.73	-83.1	-79.0	2.2	0.00e+00	0	48	104	0	60	1048573
2026-01-17 07:01:06.46	69.18	30.87	-83.5	-79.0	2.4	0.00e+00	0	48	104	0	60	1048573
2026-01-17 07:01:07.47	69.68	31.00	-83.5	-79.0	2.2	0.00e+00	0	48	104	0	60	1048572
2026-01-17 07:01:08.48	70.18	31.13	-83.5	-79.0	2.5	0.00e+00	0	48	104	0	60	1048575
2026-01-17 07:01:09.48	70.69	31.25	-83.1	-79.0	2.3	0.00e+00	0	48	104	0	60	1048567
2026-01-17 07:01:10.49	71.20	31.38	-83.5	-79.0	2.4	0.00e+00	0	48	104	0	60	1048572
2026-01-17 07:01:11.50	71.72	31.50	-83.5	-79.0	2.4	0.00e+00	0	48	104	0	60	1048575
2026-01-17 07:01:12.51	72.25	31.63	-83.5	-79.0	2.3	0.00e+00	0	48	104	0	60	1048571
2026-01-17 07:01:13.51	72.77	31.75	-83.5	-79.0	2.5	0.00e+00	0	48	104	0	60	1048575
2026-01-17 07:01:14.52	73.30	31.87	-83.1	-79.0	2.0	0.00e+00	0	48	104	0	60	1048573
2026-01-17 07:01:15.52	73.83	31.98	-83.5	-79.0	2.3	0.00e+00	0	48	104	0	60	1048574
2026-01-17 07:01:16.53	74.37	32.10	-83.5	-79.0	2.1	0.00e+00	0	48	104	0	60	1048566
2026-01-17 07:01:17.53	74.91	32.21	-83.5	-79.0	2.4	0.00e+00	0	48	104	0	60	1048575
2026-01-17 07:01:18.54	75.46	32.32	-83.1	-79.0	2.0	0.00e+00	0	48	104	0	60	1048572
2026-01-17 07:01:19.54	76.01	32.43	-83.1	-79.0	2.5	0.00e+00	0	48	104	0	60	1048575
2026-01-17 07:01:20.55	76.56	32.53	-83.5	-79.0	2.5	0.00e+00	0	48	104	0	60	1048571
2026-01-17 07:01:21.56	77.12	32.64	-83.5	-79.0	2.3	0.00e+00	0	48	104	0	60	1048575
2026-01-17 07:01:22.57	77.69	32.74	-83.5	-79.0	2.3	0.00e+00	0	48	104	0	60	1048572
2026-01-17 07:01:23.57	78.25	32.83	-82.8	-79.0	2.4	0.00e+00	0	48	104	0	60	1048572
2026-01-17 07:01:24.58	78.82	32.93	-83.1	-79.0	2.2	0.00e+00	0	48	104	0	60	1048575
2026-01-17 07:01:25.58	79.39	33.02	-83.5	-79.0	2.3	0.00e+00	0	48	104	0	60	1048571
2026-01-17 07:01:26.59	79.97	33.11	-83.1	-79.0	2.2	0.00e+00	0	48	104	0	60	1048570
2026-01-17 07:01:27.60	80.55	33.20	-83.5	-79.0	2.4	0.00e+00	0	48	104	0	60	1048571
2026-01-17 07:01:28.61	81.13	33.29	-82.8	-79.0	2.2	0.00e+00	0	48	104	0	60	1048575
2026-01-17 07:01:29.62	81.72	33.37	-83.5	-79.0	2.4	0.00e+00	0	48	104	0	60	1048575
2026-01-17 07:01:30.62	82.30	33.45	-83.5	-79.0	2.1	0.00e+00	0	48	104	0	60	1048570
2026-01-17 07:01:31.63	82.90	33.53	-83.5	-79.0	2.4	0.00e+00	0	48	104	0	60	1048572
2026-01-17 07:01:32.63	83.49	33.60	-83.1	-79.0	2.2	0.00e+00	0	48	104	0	60	1048575
2026-01-17 07:01:33.64	84.09	33.67	-83.1	-79.0	2.3	0.00e+00	0	48	104	0	60	1048572
2026-01-17 07:01:34.64	84.69	33.74	-83.1	-79.0	2.3	0.00e+00	0	48	104	0	60	1048572
2026-01-17 07:01:35.65	85.29	33.80	-83.5	-79.0	2.4	0.00e+00	0	48	104	0	60	1048574
2026-01-17 07:01:36.65	85.89	33.86	-83.1	-79.0	1.9	0.00e+00	0	48	104	0	60	1048575
2026-01-17 07:01:37.66	86.50	33.92	-83.1	-79.0	2.4	0.00e+00	0	48	104	0	60	1048570
2026-01-17 07:01:38.67	87.11	33.97	-83.1	-79.0	2.0	0.00e+00	0	48	104	0	60	1048571
2026-01-17 07:01:39.68	87.73	34.02	-83.5	-79.0	2.4	0.00e+00	0	48	104	0	60	1048568
2026-01-17 07:01:40.68	88.34	34.07	-83.5	-79.0	2.0	0.00e+00	0	48	104	0	60	1048575
2026-01-17 07:01:41.69	88.96	34.12	-83.5	-79.0	2.4	0.00e+00	0	48	104	0	60	1048575
2026-01-17 07:01:42.70	89.58	34.16	-82.8	-79.0	2.1	0.00e+00	0	48	104	0	60	1048569
2026-01-17 07:01:43.70	90.19	34.20	-82.8	-79.0	2.4	0.00e+00	0	48	104	0	60	1048566
2026-01-17 07:01:44.71	90.82	34.23	-83.5	-79.0	2.4	0.00e+00	0	48	104	0	60	1048575
2026-01-17 07:01:45.71	91.43	34.26	-83.5	-79.0	2.4	0.00e+00	0	48	104	0	60	1048575
2026-01-17 07:01:46.72	92.06	34.29	-83.1	-79.0	2.3	0.00e+00	0	48	104	0	60	1048574
2026-01-17 07:01:47.72	92.68	34.31	-83.1	-79.0	2.4	0.00e+00	0	48	104	0	60	1048571
2026-01-17 07:01:48.73	93.31	34.33	-83.5	-79.0	2.3	0.00e+00	0	48	104	0	60	1048575
2026-01-17 07:01:49.74	93.93	34.35	-83.5	-79.0	2.2	0.00e+00	0	48	104	0	60	1048574
2026-01-17 07:01:50.73	94.55	34.36	-83.5	-79.0	2.2	0.00e+00	0	48	104	0	60	1048575
2026-01-17 07:01:51.73	95.17	34.37	-83.5	-79.0	2.2	0.00e+00	0	48	104	0	60	1048575
2026-01-17 07:01:52.74	95.80	34.38	-83.1	-79.0	2.4	0.00e+00	0	48	104	0	60	1048572
2026-01-17 07:01:53.74	96.43	34.38	-83.5	-79.0	2.0	0.00e+00	0	48	104	0	60	1048574
2026-01-17 07:01:54.74	97.05	34.38	-83.5	-79.0	2.4	0.00e+00	0	48	104	0	60	1048574
2026-01-17 07:01:55.75	97.68	34.37	-83.5	-79.0	2.0	0.00e+00	0	48	104	0	60	1048573
2026-01-17 07:01:56.75	98.30	34.36	-83.1	-79.0	2.4	0.00e+00	0	48	104	0	60	1048572
2026-01-17 07:01:57.75	98.93	34.35	-83.5	-79.0	2.4	0.00e+00	0	48	104	0	60	1048569
2026-01-17 07:01:58.76	99.56	34.34	-83.5	-79.0	2.4	0.00e+00	0	48	104	0	60	1048574
2026-01-17 07:01:59.77	100.18	34.32	-83.5	-79.0	2.5	0.00e+00	0	48	104	0	60	1048574
2026-01-17 07:02:00.78	100.81	34.29	-83.5	-79.0	2.4	0.00e+00	0	48	104	0	60	1048570
2026-01-17 07:02:01.79	101.44	34.27	-83.1	-79.0	2.3	0.00e+00	0	48	104	0	60	1048574
2026-01-17 07:02:02.79	102.06	34.24	-83.5	-79.0	2.4	0.00e+00	0	48	104	0	60	1048575
2026-01-17 07:02:03.80	102.68	34.20	-83.5	-79.0	2.1	0.00e+00	0	48	104	0	60	1048570
2026-01-17 07:02:04.81	103.30	34.17	-83.5	-79.0	2.4	0.00e+00	0	48	104	0	60	1048573
2026-01-17 07:02:05.81	103.92	34.13	-83.1	-79.0	2.3	0.00e+00	0	48	104	0	60	1048574
2026-01-17 07:02:06.82	104.54	34.08	-82.8	-79.0	2.4	0.00e+00	0	48	104	0	60	1048571
2026-01-17 07:02:07.83	105.15	34.04	-83.1	-79.0	2.3	0.00e+00	0	48	104	0	60	1048572
2026-01-17 07:02:08.84	105.77	33.99	-83.5	-79.0	2.4	0.00e+00	0	48	104	0	60	1048572
2026-01-17 07:02:09.84	106.38	33.93	-83.5	-79.0	2.3	0.00e+00	0	48	104	0	60	1048573
2026-01-17 07:02:10.85	106.99	33.88	-83.1	-79.0	2.4	0.00e+00	0	48	104	0	60	1048572
2026-01-17 07:02:11.86	107.60	33.81	-83.5	-79.0	2.1	0.00e+00	0	48	104	0	60	1048573
2026-01-17 07:02:12.87	108.20	33.75	-83.1	-79.0	2.3	0.00e+00	0	48	104	0	60	1048575
2026-01-17 07:02:13.87	108.80	33.68	-83.5	-79.0	2.0	0.00e+00	0	48	104	0	60	1048573
2026-01-17 07:02:14.88	109.40	33.61	-83.5	-79.0	2.3	0.00e+00	0	48	104	0	60	1048572
2026-01-17 07:02:15.89	110.00	33.54	-83.1	-79.0	2.1	0.00e+00	0	48	104	0	60	1048575
2026-01-17 07:02:16.90	110.60	33.47	-83.5	-79.0	2.5	0.00e+00	0	48	104	0	60	1048566
2026-01-17 07:02:17.91	111.19	33.39	-83.5	-79.0	2.4	0.00e+00	0	48	104	0	60	1048575
2026-01-17 07:02:18.91	111.77	33.31	-83.5	-79.0	2.4	0.00e+00	0	48	104	0	60	1048573
2026-01-17 07:02:19.92	112.36	33.22	-83.5	-79.0	2.1	0.00e+00	0	48	104	0	60	1048570
2026-01-17 07:02:20.93	112.94	33.13	-83.1	-79.0	2.4	0.00e+00	0	48	104	0	60	1048567
2026-01-17 07:02:21.94	113.52	33.04	-83.1	-79.0	2.3	0.00e+00	0	48	104	0	60	1048573
2026-01-17 07:02:22.95	114.10	32.95	-83.5	-79.0	2.3	0.00e+00	0	48	104	0	60	1048572
2026-01-17 07:02:23.95	114.67	32.85	-83.5	-79.0	2.1	0.00e+00	0	48	104	0	60	1048573
2026-01-17 07:02:24.96	115.24	32.76	-83.5	-79.0	2.4	0.00e+00	0	48	104	0	60	1048575
2026-01-17 07:02:25.97	115.80	32.65	-82.8	-79.0	2.1	0.00e+00	0	48	104	0	60	1048569
2026-01-17 07:02:26.97	116.36	32.55	-83.5	-79.0	2.4	0.00e+00	0	48	104	0	60	1048573
2026-01-17 07:02:27.98	116.92	32.45	-83.5	-79.0	2.0	0.00e+00	0	48	104	0	60	1048573
2026-01-17 07:02:28.99	117.47	32.34	-83.5	-79.0	2.5	0.00e+00	0	48	104	0	60	1048573
2026-01-17 07:02:29.99	118.02	32.23	-83.1	-79.0	2.1	0.00e+00	0	48	104	0	60	1048567
2026-01-17 07:02:31.00	118.56	32.12	-83.1	-79.0	2.4	0.00e+00	0	48	104	0	60	1048575
2026-01-17 07:02:32.01	119.10	32.00	-83.5	-79.0	2.1	0.00e+00	0	48	104	0	60	1048574
2026-01-17 07:02:33.02	119.64	31.88	-83.5	-79.0	2.4	0.00e+00	0	48	104	0	60	1048570
2026-01-17 07:02:34.03	120.18	31.77	-83.5	-79.0	2.1	0.00e+00	0	48	104	0	60	1048574
2026-01-17 07:02:35.03	120.70	31.65	-83.1	-79.0	2.5	0.00e+00	0	48	104	0	60	1048573
2026-01-17 07:02:36.04	121.23	31.52	-83.1	-79.0	2.2	0.00e+00	0	48	104	0	60	1048568
2026-01-17 07:02:37.05	121.75	31.40	-83.5	-79.0	2.3	0.00e+00	0	48	104	0	60	1048571
2026-01-17 07:02:38.06	122.27	31.27	-83.5	-79.0	2.0	0.00e+00	0	48	104	0	60	1048574
2026-01-17 07:02:39.07	122.78	31.14	-83.1	-79.0	2.5	0.00e+00	0	48	104	0	60	1048574
2026-01-17 07:02:40.07	123.28	31.01	-82.8	-79.0	2.1	0.00e+00	0	48	104	0	60	1048575
2026-01-17 07:02:41.08	123.79	30.88	-83.5	-79.0	2.3	0.00e+00	0	48	104	0	60	1048573
2026-01-17 07:02:42.09	124.29	30.75	-83.1	-79.0	2.1	0.00e+00	0	48	104	0	60	1048575
2026-01-17 07:02:43.09	124.78	30.62	-83.5	-79.0	2.5	0.00e+00	0	48	104	0	60	1048572
2026-01-17 07:02:44.10	125.27	30.48	-82.8	-79.0	2.0	0.00e+00	0	48	104	0	60	1048571
2026-01-17 07:02:45.11	125.76	30.34	-83.1	-79.0	2.3	0.00e+00	0	48	104	0	60	1048575
2026-01-17 07:02:46.11	126.24	30.21	-83.5	-79.0	2.4	0.00e+00	0	48	104	0	60	1048568
2026-01-17 07:02:47.12	126.71	30.07	-83.5	-79.0	2.4	0.00e+00	0	48	104	0	60	1048575
2026-01-17 07:02:48.13	127.19	29.93	-83.5	-79.0	2.3	0.00e+00	0	48	104	0	60	1048566
2026-01-17 07:02:49.13	127.65	29.79	-83.1	-79.0	2.3	0.00e+00	0	48	104	0	60	1048562
2026-01-17 07:02:50.14	128.12	29.64	-83.5	-79.0	2.3	0.00e+00	0	48	104	0	60	1048571
2026-01-17 07:02:51.15	128.58	29.50	-83.5	-79.0	2.0	0.00e+00	0	48	104	0	60	1048575
2026-01-17 07:02:52.15	129.03	29.35	-83.5	-79.0	2.2	0.00e+00	0	48	104	0	60	1048571
2026-01-17 07:02:53.15	129.48	29.21	-83.5	-79.0	2.5	0.00e+00	0	48	104	0	60	1048574
2026-01-17 07:02:54.16	129.92	29.06	-83.1	-79.0	2.1	0.00e+00	0	48	104	0	60	1048574
2026-01-17 07:02:55.17	130.37	28.91	-83.5	-79.0	2.4	0.00e+00	0	48	104	0	60	1048574
2026-01-17 07:02:56.17	130.80	28.77	-83.5	-79.0	2.2	0.00e+00	0	48	104	0	60	1048572
2026-01-17 07:02:57.17	131.23	28.62	-83.5	-79.0	2.4	0.00e+00	0	48	104	0	60	1048573
2026-01-17 07:02:58.17	131.66	28.47	-83.1	-79.0	2.4	0.00e+00	0	48	104	0	60	1048571
2026-01-17 07:02:59.18	132.08	28.32	-82.8	-79.0	2.4	0.00e+00	0	48	104	0	60	1048575
2026-01-17 07:03:00.18	132.50	28.17	-83.5	-79.0	2.3	0.00e+00	0	48	104	0	60	1048575
2026-01-17 07:03:01.19	132.92	28.02	-83.5	-79.0	2.2	0.00e+00	0	48	104	0	60	1048573
2026-01-17 07:03:02.20	133.33	27.87	-83.5	-79.0	2.2	0.00e+00	0	48	104	0	60	1048574
2026-01-17 07:03:03.21	133.74	27.71	-83.1	-79.0	2.3	0.00e+00	0	48	104	0	60	1048572
2026-01-17 07:03:04.22	134.15	27.56	-83.1	-79.0	2.4	0.00e+00	0	48	104	0	60	1048574
2026-01-17 07:03:05.22	134.54	27.41	-83.1	-79.0	1.9	0.00e+00	0	48	104	0	60	1048570
2026-01-17 07:03:06.23	134.94	27.25	-83.5	-79.0	2.4	0.00e+00	0	48	104	0	60	1048573
2026-01-17 07:03:07.23	135.33	27.10	-83.5	-79.0	2.4	0.00e+00	0	48	104	0	60	1048572
2026-01-17 07:03:08.24	135.72	26.95	-82.8	-79.0	2.3	0.00e+00	0	48	104	0	60	1048574
2026-01-17 07:03:09.24	136.10	26.79	-83.1	-79.0	1.9	0.00e+00	0	48	104	0	60	1048574
2026-01-17 07:03:10.25	136.48	26.64	-83.5	-79.0	2.3	0.00e+00	0	48	104	0	60	1048574
2026-01-17 07:03:11.24	136.85	26.49	-83.5	-79.0	2.2	0.00e+00	0	48	104	0	60	1048571
2026-01-17 07:03:12.25	137.22	26.33	-83.5	-79.0	2.2	0.00e+00	0	48	104	0	60	1048572
2026-01-17 07:03:13.26	137.59	26.18	-83.1	-79.0	2.2	0.00e+00	0	48	104	0	60	1048571
2026-01-17 07:03:14.27	137.95	26.02	-83.5	-79.0	2.4	0.00e+00	0	48	104	0	60	1048575
2026-01-17 07:03:15.27	138.31	25.87	-83.5	-79.0	2.1	0.00e+00	0	49	104	0	60	1048570
2026-01-17 07:03:16.28	138.67	25.71	-83.5	-79.0	2.4	0.00e+00	0	48	104	0	60	1048573
2026-01-17 07:03:17.28	139.02	25.56	-82.8	-79.0	2.1	0.00e+00	0	48	104	0	60	1048573
2026-01-17 07:03:18.28	139.36	25.41	-83.1	-79.0	2.4	0.00e+00	0	48	104	0	60	1048575
2026-01-17 07:03:19.29	139.71	25.25	-83.1	-79.0	2.3	0.00e+00	0	48	104	0	60	1048575
2026-01-17 07:03:20.29	140.05	25.10	-83.5	-79.0	2.4	0.00e+00	0	48	104	0	60	1048575
2026-01-17 07:03:21.30	140.39	24.94	-83.5	-79.0	2.0	0.00e+00	0	48	104	0	60	1048575
2026-01-17 07:03:22.31	140.72	24.79	-83.5	-79.0	2.4	0.00e+00	0	48	104	0	60	1048567
2026-01-17 07:03:23.31	141.05	24.63	-83.1	-79.0	2.2	0.00e+00	0	48	104	0	60	1048573
2026-01-17 07:03:24.31	141.38	24.48	-83.5	-79.0	2.4	0.00e+00	0	48	104	0	60	1048575
2026-01-17 07:03:25.31	141.70	24.33	-83.5	-79.0	2.2	0.00e+00	0	48	104	0	60	1048572
2026-01-17 07:03:26.31	142.02	24.18	-83.5	-79.0	2.4	0.00e+00	0	48	104	0	60	1048570
2026-01-17 07:03:27.32	142.33	24.02	-82.8	-79.0	2.3	0.00e+00	0	48	104	0	60	1048568
2026-01-17 07:03:28.33	142.65	23.87	-83.1	-79.0	2.2	0.00e+00	0	48	104	0	60	1048572
2026-01-17 07:03:29.33	142.96	23.72	-83.1	-79.0	2.2	0.00e+00	0	48	104	0	60	1048574
2026-01-17 07:03:30.34	143.27	23.56	-83.5	-79.0	2.1	0.00e+00	0	48	104	0	60	1048571
2026-01-17 07:03:31.34	143.57	23.41	-83.5	-79.0	2.3	0.00e+00	0	49	104	0	60	1048568
2026-01-17 07:03:32.35	143.87	23.26	-83.1	-79.0	2.3	0.00e+00	0	48	104	0	60	1048575
2026-01-17 07:03:33.35	144.16	23.11	-83.5	-79.0	2.2	0.00e+00	0	48	104	0	60	1048575
2026-01-17 07:03:34.36	144.46	22.96	-83.5	-79.0	2.5	0.00e+00	0	48	104	0	60	1048573
2026-01-17 07:03:35.36	144.75	22.81	-83.5	-79.0	2.3	0.00e+00	0	48	104	0	60	1048574
2026-01-17 07:03:36.36	145.03	22.66	-83.1	-79.0	2.4	0.00e+00	0	48	104	0	60	1048573
2026-01-17 07:03:37.37	145.32	22.51	-83.1	-79.0	2.3	0.00e+00	0	48	104	0	60	1048575
2026-01-17 07:03:38.37	145.60	22.36	-83.5	-79.0	2.4	0.00e+00	0	48	104	0	60	1048572
2026-01-17 07:03:39.37	145.88	22.21	-83.5	-79.0	2.3	0.00e+00	0	48	104	0	60	1048567
2026-01-17 07:03:40.38	146.15	22.07	-83.5	-79.0	2.3	0.00e+00	0	48	104	0	60	1048575
2026-01-17 07:03:41.39	146.43	21.92	-83.1	-79.0	2.3	0.00e+00	0	48	104	0	60	1048574
2026-01-17 07:03:42.39	146.70	21.77	-83.1	-79.0	2.1	0.00e+00	0	48	104	0	60	1048570
2026-01-17 07:03:43.40	146.97	21.62	-83.5	-79.0	2.4	0.00e+00	0	48	104	0	60	1048574
2026-01-17 07:03:44.41	147.23	21.48	-83.5	-79.0	2.0	0.00e+00	0	48	104	0	60	1048572
2026-01-17 07:03:45.41	147.49	21.33	-83.5	-79.0	2.4	0.00e+00	0	48	104	0	60	1048575
2026-01-17 07:03:46.42	147.75	21.19	-83.1	-79.0	2.0	0.00e+00	0	48	104	0	60	1048570
2026-01-17 07:03:47.42	148.01	21.04	-83.1	-79.0	2.4	0.00e+00	0	48	104	0	60	1048568
2026-01-17 07:03:48.43	148.26	20.90	-83.5	-79.0	2.1	0.00e+00	0	48	104	0	60	1048574
2026-01-17 07:03:49.43	148.51	20.75	-83.5	-79.0	2.5	0.00e+00	0	48	104	0	60	1048571
2026-01-17 07:03:50.44	148.76	20.61	-83.5	-79.0	2.2	0.00e+00	0	48	104	0	60	1048574
2026-01-17 07:03:51.45	149.01	20.47	-82.8	-79.0	2.3	0.00e+00	0	48	104	0	60	1048570
2026-01-17 07:03:52.46	149.25	20.32	-83.5	-79.0	2.0	0.00e+00	0	48	104	0	60	1048574
2026-01-17 07:03:53.46	149.49	20.18	-83.5	-79.0	2.3	0.00e+00	0	48	104	0	60	1048574
2026-01-17 07:03:54.47	149.73	20.04	-83.5	-79.0	2.2	0.00e+00	0	49	104	0	60	1048575
2026-01-17 07:03:55.48	149.97	19.90	-83.1	-79.0	2.4	0.00e+00	0	48	104	0	60	1048575
2026-01-17 07:03:56.48	150.20	19.76	-83.1	-79.0	2.1	0.00e+00	0	48	104	0	60	1048575
2026-01-17 07:03:57.49	150.43	19.62	-83.5	-79.0	2.4	0.00e+00	0	48	104	0	60	1048572
2026-01-17 07:03:58.50	150.66	19.48	-83.1	-79.0	2.1	0.00e+00	0	49	104	0	60	1048575
2026-01-17 07:03:59.51	150.89	19.34	-83.5	-79.0	2.4	0.00e+00	0	48	104	0	60	1048575
2026-01-17 07:04:00.51	151.11	19.21	-83.1	-79.0	2.1	0.00e+00	0	49	104	0	60	1048568
2026-01-17 07:04:01.52	151.34	19.07	-83.1	-79.0	2.4	0.00e+00	0	48	104	0	60	1048573
2026-01-17 07:04:02.53	151.56	18.93	-83.5	-79.0	2.1	0.00e+00	0	48	104	0	60	1048574
2026-01-17 07:04:03.54	151.78	18.79	-83.5	-79.0	2.4	0.00e+00	0	48	104	0	60	1048574
2026-01-17 07:04:04.54	151.99	18.66	-83.5	-79.0	2.2	0.00e+00	0	48	104	0	60	1048572
2026-01-17 07:04:05.55	152.20	18.52	-82.8	-79.0	2.5	0.00e+00	0	48	104	0	60	1048572
2026-01-17 07:04:06.55	152.41	18.39	-83.5	-79.0	2.0	0.00e+00	0	48	104	0	60	1048574
2026-01-17 07:04:07.56	152.62	18.26	-83.5	-79.0	2.3	0.00e+00	0	48	104	0	60	1048575
2026-01-17 07:04:08.57	152.83	18.12	-83.5	-79.0	2.0	0.00e+00	0	48	104	0	60	1048575
2026-01-17 07:04:09.58	153.04	17.99	-83.1	-79.0	2.3	0.00e+00	0	48	104	0	60	1048568
2026-01-17 07:04:10.59	153.24	17.86	-83.1	-79.0	2.1	0.00e+00	0	48	104	0	60	1048570
2026-01-17 07:04:11.59	153.44	17.73	-83.5	-79.0	2.4	0.00e+00	0	48	104	0	60	1048571
2026-01-17 07:04:12.60	153.64	17.60	-83.5	-79.0	2.1	0.00e+00	0	49	104	0	60	1048573
2026-01-17 07:04:13.61	153.84	17.47	-83.5	-79.0	2.3	0.00e+00	0	48	104	0	60	1048562
2026-01-17 07:04:14.62	154.04	17.34	-83.1	-79.0	2.1	0.00e+00	0	48	104	0	60	1048573
2026-01-17 07:04:15.63	154.23	17.21	-83.1	-79.0	2.4	0.00e+00	0	48	104	0	60	1048575
2026-01-17 07:04:16.63	154.42	17.08	-83.5	-79.0	2.4	0.00e+00	0	48	104	0	60	1048575
2026-01-17 07:04:17.64	154.61	16.95	-83.5	-79.0	2.1	0.00e+00	0	48	104	0	60	1048571
2026-01-17 07:04:18.64	154.80	16.82	-83.5	-79.0	2.4	0.00e+00	0	48	104	0	60	1048575
2026-01-17 07:04:19.64	154.98	16.70	-83.1	-79.0	2.1	0.00e+00	0	48	104	0	60	1048572
2026-01-17 07:04:20.65	155.17	16.57	-83.1	-79.0	2.3	0.00e+00	0	49	104	0	60	1048571
2026-01-17 07:04:21.65	155.35	16.45	-83.5	-79.0	2.4	0.00e+00	0	48	104	0	60	1048570
2026-01-17 07:04:22.66	155.53	16.32	-83.5	-79.0	2.2	0.00e+00	0	49	104	0	60	1048563
2026-01-17 07:04:23.67	155.71	16.20	-83.5	-79.0	2.3	0.00e+00	0	49	104	0	60	1048574
2026-01-17 07:04:24.67	155.89	16.07	-83.1	-79.0	2.2	0.00e+00	0	48	104	0	60	1048572
2026-01-17 07:04:25.68	156.07	15.95	-83.1	-79.0	2.5	0.00e+00	0	48	104	0	60	1048572
2026-01-17 07:04:26.69	156.24	15.83	-83.5	-79.0	2.2	0.00e+00	0	48	104	0	60	1048572
2026-01-17 07:04:27.70	156.41	15.70	-83.1	-79.0	2.4	0.00e+00	0	48	104	0	60	1048575
2026-01-17 07:04:28.70	156.58	15.58	-83.1	-79.0	2.5	0.00e+00	0	48	104	0	60	1048574
2026-01-17 07:04:29.71	156.75	15.46	-83.1	-79.0	2.1	0.00e+00	0	49	104	0	60	1048575
2026-01-17 07:04:30.71	156.92	15.34	-83.5	-79.0	2.5	0.00e+00	0	48	104	0	60	1048570
2026-01-17 07:04:31.72	157.09	15.22	-83.5	-79.0	2.0	0.00e+00	0	48	104	0	60	1048568
2026-01-17 07:04:32.73	157.25	15.10	-83.5	-79.0	2.2	0.00e+00	0	48	104	0	60	1048575
2026-01-17 07:04:33.74	157.42	14.98	-83.1	-79.0	2.1	0.00e+00	0	48	104	0	60	1048568
2026-01-17 07:04:34.74	157.58	14.87	-83.1	-79.0	2.4	0.00e+00	0	48	104	0	60	1048562
2026-01-17 07:04:35.75	157.74	14.75	-83.5	-79.0	2.1	0.00e+00	0	48	104	0	60	1048575
2026-01-17 07:04:36.75	157.90	14.63	-83.1	-79.0	2.4	0.00e+00	0	48	104	0	60	1048573
2026-01-17 07:04:37.75	158.05	14.52	-83.5	-79.0	2.4	0.00e+00	0	48	104	0	60	1048565
2026-01-17 07:04:38.76	158.21	14.40	-83.1	-79.0	2.2	0.00e+00	0	48	104	0	60	1048572
2026-01-17 07:04:39.76	158.36	14.28	-83.5	-79.0	2.3	0.00e+00	0	49	104	0	60	1048575
2026-01-17 07:04:40.77	158.52	14.17	-83.5	-79.0	2.3	0.00e+00	0	48	104	0	60	1048573
2026-01-17 07:04:41.78	158.67	14.06	-83.5	-79.0	2.2	0.00e+00	0	49	104	0	60	1048564
2026-01-17 07:04:42.79	158.82	13.94	-83.5	-79.0	2.4	0.00e+00	0	48	104	0	60	1048575
2026-01-17 07:04:43.79	158.97	13.83	-83.1	-79.0	2.0	0.00e+00	0	48	104	0	60	1048575
2026-01-17 07:04:44.80	159.12	13.72	-83.1	-79.0	2.3	0.00e+00	0	49	104	0	60	1048571
2026-01-17 07:04:45.81	159.27	13.60	-83.1	-79.0	2.0	0.00e+00	0	49	104	0	60	1048572
2026-01-17 07:04:46.82	159.41	13.49	-83.5	-79.0	2.4	0.00e+00	0	49	104	0	60	1048574
2026-01-17 07:04:47.83	159.56	13.38	-83.1	-79.0	2.1	0.00e+00	0	49	104	0	60	1048575
2026-01-17 07:04:48.83	159.70	13.27	-83.1	-79.0	2.4	0.00e+00	0	49	104	0	60	1048570
2026-01-17 07:04:49.84	159.84	13.16	-83.5	-79.0	2.2	0.00e+00	0	48	104	0	60	1048574
2026-01-17 07:04:50.84	159.98	13.05	-83.1	-79.0	2.5	0.00e+00	0	48	104	0	60	1048570
2026-01-17 07:04:51.85	160.12	12.94	-83.5	-79.0	2.3	0.00e+00	0	48	104	0	60	1048573
2026-01-17 07:04:52.85	160.26	12.83	-83.1	-79.0	2.4	0.00e+00	0	48	104	0	60	1048571
2026-01-17 07:04:53.86	160.40	12.72	-83.5	-79.0	2.1	0.00e+00	0	48	104	0	60	1048574
2026-01-17 07:04:54.87	160.53	12.62	-83.5	-79.0	2.5	0.00e+00	0	48	104	0	60	1048575
2026-01-17 07:04:55.87	160.67	12.51	-83.5	-79.0	2.1	0.00e+00	0	49	104	0	60	1048572
2026-01-17 07:04:56.87	160.80	12.40	-83.1	-79.0	2.4	0.00e+00	0	49	104	0	60	1048574
2026-01-17 07:04:57.88	160.93	12.30	-82.8	-79.0	2.1	0.00e+00	0	48	104	0	60	1048568
2026-01-17 07:04:58.89	161.07	12.19	-83.1	-79.0	2.5	0.00e+00	0	49	104	0	60	1048575
2026-01-17 07:04:59.90	161.20	12.09	-83.5	-79.0	2.1	0.00e+00	0	49	104	0	60	1048573
2026-01-17 07:05:00.90	161.33	11.98	-83.5	-79.0	2.4	0.00e+00	0	49	104	0	60	1048552
2026-01-17 07:05:01.91	161.45	11.88	-83.5	-79.0	2.3	0.00e+00	0	49	104	0	60	1048573
2026-01-17 07:05:02.92	161.58	11.77	-83.1	-79.0	2.4	0.00e+00	0	49	104	0	60	1048575
2026-01-17 07:05:03.93	161.71	11.67	-83.5	-79.0	2.6	0.00e+00	0	49	104	0	60	1048575
2026-01-17 07:05:04.94	161.83	11.57	-83.5	-79.0	2.5	0.00e+00	0	48	104	0	60	1048572
2026-01-17 07:05:05.95	161.96	11.46	-83.5	-79.0	2.2	0.00e+00	0	48	104	0	60	1048575
2026-01-17 07:05:06.95	162.08	11.36	-83.1	-79.0	2.4	0.00e+00	0	49	104	0	60	1048568
2026-01-17 07:05:07.96	162.20	11.26	-83.1	-79.0	2.1	0.00e+00	0	49	104	0	60	1048574
2026-01-17 07:05:08.97	162.32	11.16	-83.5	-79.0	2.4	0.00e+00	0	49	104	0	60	1048571
2026-01-17 07:05:09.97	162.44	11.06	-83.5	-79.0	2.0	0.00e+00	0	49	104	0	60	1048575
2026-01-17 07:05:10.98	162.56	10.96	-83.5	-79.0	2.4	0.00e+00	0	48	104	0	60	1048574
2026-01-17 07:05:11.99	162.68	10.86	-82.8	-79.0	2.2	0.00e+00	0	48	104	0	60	1048574
2026-01-17 07:05:13.00	162.80	10.76	-83.5	-79.0	2.3	0.00e+00	0	48	104	0	60	1048570
2026-01-17 07:05:14.00	162.92	10.66	-83.5	-79.0	2.2	0.00e+00	0	49	104	0	60	1048574
2026-01-17 07:05:15.01	163.03	10.56	-83.1	-79.0	2.4	0.00e+00	0	49	104	0	60	1048575
2026-01-17 07:05:16.02	163.15	10.46	-83.5	-79.0	2.3	0.00e+00	0	49	104	0	60	1048573
2026-01-17 07:05:17.02	163.26	10.37	-83.1	-79.0	2.3	0.00e+00	0	48	104	0	60	1048571
2026-01-17 07:05:18.03	163.37	10.27	-83.5	-79.0	2.2	0.00e+00	0	48	104	0	60	1048575
2026-01-17 07:05:19.04	163.49	10.17	-83.5	-79.0	2.1	0.00e+00	0	48	104	0	60	1048573
2026-01-17 07:05:20.05	163.60	10.08	-83.5	-79.0	2.4	0.00e+00	0	49	104	0	60	1048573
2026-01-17 07:05:21.05	163.71	9.98	-83.1	-79.0	2.6	0.00e+00	0	49	104	0	60	1048574
2026-01-17 07:05:22.06	163.82	9.89	-83.1	-79.0	2.2	0.00e+00	0	49	104	0	60	1048572
2026-01-17 07:05:23.07	163.92	9.79	-83.5	-79.0	2.4	0.00e+00	0	48	104	0	60	1048572
2026-01-17 07:05:24.07	164.03	9.70	-83.5	-79.0	2.2	0.00e+00	0	49	104	0	60	1048573
2026-01-17 07:05:25.08	164.14	9.60	-83.5	-79.0	2.4	0.00e+00	0	49	104	0	60	1048575
2026-01-17 07:05:26.09	164.25	9.51	-83.1	-79.0	2.4	0.00e+00	0	49	104	0	60	1048568
2026-01-17 07:05:27.09	164.35	9.41	-83.5	-79.0	2.4	0.00e+00	0	49	104	0	60	1048575
2026-01-17 07:05:28.10	164.45	9.32	-83.5	-79.0	2.3	0.00e+00	0	49	104	0	60	1048575
2026-01-17 07:05:29.11	164.56	9.23	-83.5	-79.0	2.4	0.00e+00	0	49	104	0	60	1048575
2026-01-17 07:05:30.12	164.66	9.14	-83.5	-79.0	2.4	0.00e+00	0	49	104	0	60	1048574
2026-01-17 07:05:31.12	164.76	9.04	-82.8	-79.0	2.2	0.00e+00	0	48	104	0	60	1048571
2026-01-17 07:05:32.12	164.86	8.95	-83.5	-79.0	2.5	0.00e+00	0	48	104	0	60	1048575
2026-01-17 07:05:33.13	164.97	8.86	-83.5	-79.0	2.3	0.00e+00	0	48	104	0	60	1048574
2026-01-17 07:05:34.13	165.07	8.77	-83.5	-79.0	2.3	0.00e+00	0	48	104	0	60	1048574
2026-01-17 07:05:35.15	165.17	8.68	-83.5	-79.0	2.3	0.00e+00	0	48	104	0	60	1048572
2026-01-17 07:05:36.16	165.26	8.59	-83.1	-79.0	2.2	0.00e+00	0	49	104	0	60	1048569
2026-01-17 07:05:37.16	165.36	8.50	-83.5	-79.0	2.4	0.00e+00	0	49	104	0	60	1048575
2026-01-17 07:05:38.17	165.46	8.41	-83.5	-79.0	2.2	0.00e+00	0	48	104	0	60	1048575
2026-01-17 07:05:39.18	165.56	8.32	-83.5	-79.0	2.4	0.00e+00	0	49	104	0	60	1048575
2026-01-17 07:05:40.19	165.65	8.23	-83.1	-79.0	2.2	0.00e+00	0	48	104	0	60	1048573
2026-01-17 07:05:41.19	165.75	8.15	-83.5	-79.0	2.3	0.00e+00	0	49	104	0	60	1048570
2026-01-17 07:05:42.19	165.84	8.06	-83.5	-79.0	2.3	0.00e+00	0	49	104	0	60	1048575
2026-01-17 07:05:43.20	165.93	7.97	-83.5	-79.0	2.2	0.00e+00	0	49	104	0	60	1048571
2026-01-17 07:05:44.21	166.03	7.88	-83.1	-79.0	2.4	0.00e+00	0	48	104	0	60	1048571
2026-01-17 07:05:45.21	166.12	7.80	-82.8	-79.0	2.0	0.00e+00	0	49	104	0	60	1048572
2026-01-17 07:05:46.22	166.21	7.71	-83.5	-79.0	2.4	0.00e+00	0	49	104	0	60	1048566
2026-01-17 07:05:47.22	166.30	7.63	-83.5	-79.0	2.0	0.00e+00	0	48	104	0	60	1048571
2026-01-17 07:05:48.23	166.39	7.54	-83.5	-79.0	2.4	0.00e+00	0	49	104	0	60	1048574
2026-01-17 07:05:49.23	166.48	7.45	-83.5	-79.0	2.3	0.00e+00	0	49	104	0	60	1048574
2026-01-17 07:05:50.24	166.57	7.37	-82.8	-79.0	2.4	0.00e+00	0	49	104	0	60	1048573
2026-01-17 07:05:51.25	166.66	7.28	-83.5	-79.0	2.4	0.00e+00	0	49	104	0	60	1048564
2026-01-17 07:05:52.26	166.75	7.20	-83.5	-79.0	2.3	0.00e+00	0	48	104	0	60	1048573
2026-01-17 07:05:53.27	166.84	7.11	-83.5	-79.0	2.1	0.00e+00	0	48	104	0	60	1048574
2026-01-17 07:05:54.27	166.92	7.03	-83.1	-79.0	2.4	0.00e+00	0	49	104	0	60	1048569
2026-01-17 07:05:55.28	167.01	6.95	-83.1	-79.0	1.9	0.00e+00	0	48	104	0	60	1048575
2026-01-17 07:05:56.29	167.09	6.86	-83.1	-79.0	2.4	0.00e+00	0	49	104	0	60	1048572
2026-01-17 07:05:57.30	167.18	6.78	-83.5	-79.0	2.0	0.00e+00	0	48	104	0	60	1048574
2026-01-17 07:05:58.31	167.26	6.70	-83.5	-79.0	2.4	0.00e+00	0	49	104	0	60	1048575
2026-01-17 07:05:59.31	167.35	6.62	-83.1	-79.0	2.1	0.00e+00	0	49	104	0	60	1048575
2026-01-17 07:06:00.32	167.43	6.53	-83.1	-79.0	2.4	0.00e+00	0	49	104	0	60	1048573
2026-01-17 07:06:01.32	167.51	6.45	-83.5	-79.0	2.2	0.00e+00	0	48	104	0	60	1048575
2026-01-17 07:06:02.33	167.60	6.37	-83.5	-79.0	2.4	0.00e+00	0	48	104	0	60	1048574
2026-01-17 07:06:03.34	167.68	6.29	-83.5	-79.0	2.2	0.00e+00	0	48	104	0	60	1048575
2026-01-17 07:06:04.35	167.76	6.21	-82.8	-79.0	2.4	0.00e+00	0	49	104	0	60	1048575
2026-01-17 07:06:05.35	167.84	6.13	-83.1	-79.0	2.1	0.00e+00	0	48	104	0	60	1048571
2026-01-17 07:06:06.35	167.92	6.05	-83.5	-79.0	2.4	0.00e+00	0	48	104	0	60	1048574
2026-01-17 07:06:07.36	168.00	5.97	-83.5	-79.0	1.9	0.00e+00	0	49	104	0	60	1048575
2026-01-17 07:06:08.37	168.08	5.89	-83.1	-79.0	2.4	0.00e+00	0	48	104	0	60	1048575
2026-01-17 07:06:09.38	168.16	5.81	-82.8	-79.0	2.1	0.00e+00	0	48	104	0	60	1048574
2026-01-17 07:06:10.38	168.23	5.73	-83.1	-79.0	2.4	0.00e+00	0	49	104	0	60	1048568
2026-01-17 07:06:11.39	168.31	5.65	-83.5	-79.0	1.9	0.00e+00	0	49	104	0	60	1048574
2026-01-17 07:06:12.40	168.39	5.57	-83.5	-79.0	2.4	0.00e+00	0	49	104	0	60	1048572
2026-01-17 07:06:13.41	168.47	5.50	-83.1	-79.0	2.0	0.00e+00	0	48	104	0	60	1048567
2026-01-17 07:06:14.42	168.54	5.42	-83.1	-79.0	2.4	0.00e+00	0	49	104	0	60	1048573
2026-01-17 07:06:15.42	168.62	5.34	-83.5	-79.0	2.2	0.00e+00	0	49	104	0	60	1048569
2026-01-17 07:06:16.42	168.69	5.26	-83.5	-79.0	2.2	0.00e+00	0	48	104	0	60	1048575
2026-01-17 07:06:17.43	168.77	5.19	-83.5	-79.0	2.3	0.00e+00	0	49	104	0	60	1048575
2026-01-17 07:06:18.43	168.84	5.11	-82.8	-79.0	2.5	0.00e+00	0	48	104	0	60	1048568
2026-01-17 07:06:19.44	168.92	5.03	-83.1	-79.0	2.3	0.00e+00	0	49	104	0	60	1048575
2026-01-17 07:06:20.45	168.99	4.96	-83.5	-79.0	2.4	0.00e+00	0	49	104	0	60	1048571
2026-01-17 07:06:21.46	169.06	4.88	-83.5	-79.0	2.1	0.00e+00	0	49	104	0	60	1048566
2026-01-17 07:06:22.47	169.13	4.80	-83.5	-79.0	2.5	0.00e+00	0	48	104	0	60	1048573
2026-01-17 07:06:23.47	169.21	4.73	-83.1	-79.0	2.3	0.00e+00	0	48	104	0	60	1048575
2026-01-17 07:06:24.48	169.28	4.65	-83.5	-79.0	2.4	0.00e+00	0	49	104	0	60	1048570
2026-01-17 07:06:25.49	169.35	4.58	-83.1	-79.0	2.1	0.00e+00	0	49	104	0	60	1048564
2026-01-17 07:06:26.49	169.42	4.50	-83.5	-79.0	2.4	0.00e+00	0	49	104	0	60	1048575
2026-01-17 07:06:27.50	169.49	4.43	-83.1	-79.0	2.3	0.00e+00	0	48	104	0	60	1048574
2026-01-17 07:06:28.51	169.56	4.35	-83.1	-79.0	2.5	0.00e+00	0	48	104	0	60	1048573
2026-01-17 07:06:29.52	169.63	4.28	-83.5	-79.0	2.4	0.00e+00	0	49	104	0	60	1048575
2026-01-17 07:06:30.53	169.70	4.21	-83.5	-79.0	2.3	0.00e+00	0	48	104	0	60	1048574
2026-01-17 07:06:31.53	169.77	4.13	-83.5	-79.0	2.3	0.00e+00	0	48	104	0	60	1048575
2026-01-17 07:06:32.54	169.83	4.06	-83.1	-79.0	2.2	0.00e+00	0	49	104	0	60	1048573
2026-01-17 07:06:33.55	169.90	3.99	-83.1	-79.0	2.0	0.00e+00	0	49	104	0	60	1048571
2026-01-17 07:06:34.55	169.97	3.91	-83.5	-79.0	2.4	0.00e+00	0	48	104	0	60	1048566
2026-01-17 07:06:35.56	170.04	3.84	-83.5	-79.0	2.2	0.00e+00	0	48	104	0	60	1048574
2026-01-17 07:06:36.56	170.10	3.77	-83.5	-79.0	2.4	0.00e+00	0	49	104	0	60	1048571
2026-01-17 07:06:37.57	170.17	3.70	-82.8	-79.0	2.1	0.00e+00	0	48	104	0	60	1048571
2026-01-17 07:06:38.58	170.23	3.62	-83.5	-79.0	2.4	0.00e+00	0	49	104	0	60	1048572
2026-01-17 07:06:39.58	170.30	3.55	-83.5	-79.0	2.2	0.00e+00	0	49	104	0	60	1048573
2026-01-17 07:06:40.59	170.36	3.48	-83.5	-79.0	2.4	0.00e+00	0	48	104	0	60	1048575
2026-01-17 07:06:41.60	170.43	3.41	-83.5	-79.0	2.3	0.00e+00	0	48	104	0	60	1048571
2026-01-17 07:06:42.61	170.49	3.34	-83.1	-79.0	2.2	0.00e+00	0	49	104	0	60	1048570
2026-01-17 07:06:43.61	170.56	3.27	-83.5	-79.0	2.4	0.00e+00	0	49	104	0	60	1048572
2026-01-17 07:06:44.63	170.62	3.20	-83.5	-79.0	2.2	0.00e+00	0	49	104	0	60	1048574
2026-01-17 07:06:45.63	170.68	3.13	-83.5	-79.0	2.3	0.00e+00	0	49	104	0	60	1048573
2026-01-17 07:06:46.64	170.75	3.06	-83.1	-79.0	2.1	0.00e+00	0	48	104	0	60	1048572
2026-01-17 07:06:47.65	170.81	2.99	-82.8	-79.0	2.5	0.00e+00	0	48	104	0	60	1048573
2026-01-17 07:06:48.65	170.87	2.92	-83.1	-79.0	2.4	0.00e+00	0	48	104	0	60	1048575
2026-01-17 07:06:49.66	170.93	2.85	-83.1	-79.0	2.3	0.00e+00	0	49	104	0	60	1048568
2026-01-17 07:06:50.67	170.99	2.78	-83.5	-79.0	2.5	0.00e+00	0	49	104	0	60	1048574
2026-01-17 07:06:51.67	171.05	2.71	-83.1	-79.0	2.4	0.00e+00	0	48	104	0	60	1048573
2026-01-17 07:06:52.68	171.12	2.64	-83.1	-79.0	2.2	0.00e+00	0	48	104	0	60	1048574
2026-01-17 07:06:53.69	171.18	2.57	-83.5	-79.0	2.3	0.00e+00	0	48	104	0	60	1048571
2026-01-17 07:06:54.69	171.24	2.50	-83.5	-79.0	2.2	0.00e+00	0	48	104	0	60	1048574
2026-01-17 07:06:55.70	171.30	2.43	-83.5	-79.0	2.4	0.00e+00	0	48	104	0	60	1048569
2026-01-17 07:06:56.70	171.35	2.37	-83.1	-79.0	2.0	0.00e+00	0	49	104	0	60	1048575
2026-01-17 07:06:57.71	171.41	2.30	-83.1	-79.0	2.3	0.00e+00	0	49	104	0	60	1048575
2026-01-17 07:06:58.72	171.47	2.23	-83.5	-79.0	2.0	0.00e+00	0	49	104	0	60	1048574
2026-01-17 07:06:59.72	171.53	2.16	-83.5	-79.0	2.3	0.00e+00	0	49	104	0	60	1048574
2026-01-17 07:07:00.73	171.59	2.09	-83.5	-79.0	2.0	0.00e+00	0	49	104	0	60	1048561
2026-01-17 07:07:01.74	171.65	2.03	-83.1	-79.0	2.4	0.00e+00	0	48	104	0	60	1048573
2026-01-17 07:07:02.75	171.70	1.96	-83.5	-79.0	2.2	0.00e+00	0	48	104	0	60	1048573
2026-01-17 07:07:03.75	171.76	1.89	-83.5	-79.0	2.2	0.00e+00	0	49	104	0	60	1048570
2026-01-17 07:07:04.75	171.82	1.83	-83.5	-79.0	2.1	0.00e+00	0	49	104	0	60	1048574
2026-01-17 07:07:05.76	171.87	1.76	-82.8	-79.0	2.3	0.00e+00	0	49	104	0	60	1048574
2026-01-17 07:07:06.76	171.93	1.69	-83.1	-79.0	2.2	0.00e+00	0	49	104	0	60	1048573
2026-01-17 07:07:07.77	171.99	1.63	-83.1	-79.0	2.4	0.00e+00	0	48	104	0	60	1048573
2026-01-17 07:07:08.78	172.04	1.56	-83.5	-79.0	2.1	0.00e+00	0	48	104	0	60	1048570
2026-01-17 07:07:09.79	172.10	1.50	-83.5	-79.0	2.4	0.00e+00	0	48	104	0	60	1048572
2026-01-17 07:07:10.79	172.15	1.43	-83.1	-79.0	2.2	0.00e+00	0	49	104	0	60	1048573
2026-01-17 07:07:11.80	172.21	1.37	-83.1	-79.0	2.4	0.00e+00	0	49	104	0	60	1048575
2026-01-17 07:07:12.80	172.26	1.30	-83.5	-79.0	2.2	0.00e+00	0	48	104	0	60	1048575
2026-01-17 07:07:13.81	172.31	1.24	-83.5	-79.0	2.4	0.00e+00	0	48	104	0	60	1048568
2026-01-17 07:07:14.82	172.37	1.17	-83.5	-79.0	2.2	0.00e+00	0	48	104	0	60	1048575
2026-01-17 07:07:15.83	172.42	1.11	-83.1	-79.0	2.4	0.00e+00	0	48	104	0	60	1048572
2026-01-17 07:07:16.83	172.48	1.04	-83.5	-79.0	2.3	0.00e+00	0	48	104	0	60	1048570
2026-01-17 07:07:17.84	172.53	0.98	-83.5	-79.0	2.4	0.00e+00	0	48	104	0	60	1048572
2026-01-17 07:07:18.84	172.58	0.91	-83.5	-79.0	2.3	0.00e+00	0	48	104	0	60	1048572
2026-01-17 07:07:19.85	172.63	0.85	-83.1	-79.0	2.4	0.00e+00	0	49	104	0	60	1048572
2026-01-17 07:07:20.85	172.69	0.79	-83.1	-79.0	2.0	0.00e+00	0	49	104	0	60	1048573
2026-01-17 07:07:21.86	172.74	0.72	-83.5	-79.0	2.4	0.00e+00	0	49	104	0	60	1048573
2026-01-17 07:07:22.87	172.79	0.66	-83.5	-79.0	2.1	0.00e+00	0	49	104	0	60	1048571
2026-01-17 07:07:23.87	172.84	0.59	-83.5	-79.0	2.3	0.00e+00	0	49	104	0	60	1048575
2026-01-17 07:07:24.88	172.89	0.53	-82.8	-79.0	1.9	0.00e+00	0	49	104	0	60	1048575
2026-01-17 07:07:25.89	172.94	0.47	-83.1	-79.0	2.3	0.00e+00	0	49	104	0	60	1048570
2026-01-17 07:07:26.89	172.99	0.41	-83.5	-79.0	2.4	0.00e+00	0	48	104	0	60	1048575
2026-01-17 07:07:27.90	173.04	0.34	-83.5	-79.0	2.2	0.00e+00	0	48	104	0	60	1048575
2026-01-17 07:07:28.90	173.09	0.28	-83.5	-79.0	2.3	0.00e+00	0	48	104	0	60	1048573
2026-01-17 07:07:29.91	173.14	0.22	-83.1	-79.0	2.3	0.00e+00	0	48	104	0	60	1048569
2026-01-17 07:07:30.92	173.19	0.16	-83.5	-79.0	2.3	0.00e+00	0	48	104	0	60	1048568
2026-01-17 07:07:31.93	173.24	0.09	-83.5	-79.0	2.2	0.00e+00	0	48	104	0	60	1048575
2026-01-17 07:07:32.94	173.29	0.03	-83.5	-79.0	2.3	0.00e+00	0	48	104	0	60	1048570

#Closed at: 2026-01-17 07:07:33
#Recorded file [0 MB]: D:/Data/35015_260117_095931.dat