passes_logs/2026/01/17/R3.2S-Naryan-Mar/R3.2S-Naryan-Mar__20260117_072941_NOAA_20_JPSS-1_rec.log

#Pass ID: 20260117_072941_NOAA 20 (JPSS-1)
#Satellite: NOAA 20 (JPSS-1)
#Configuration: NOAA 20
#almurnet v.1.7.20240730
#Start time: 2026-01-17 07:29:41

#Version: 2.2.20231116
#Station: R3.2S-Naryan-Mar
#Location: 53.008057 lon 67.646978 lat
#TLE: 1 43013U 17073A   26016.24631778  .00000038  00000+0  39093-4 0  9990
#TLE: 2 43013  98.7637 317.1726 0001455  37.6755 322.4523 14.19536243422915

#Time	Az	El	Level	Level2	SNR	BER	BlckErr	Temp	State	Recorded	gain1	gain2
2026-01-17 07:29:41.59	134.37	0.02	-85.2	-88.6	4.8	1.55e+00	0	44	0	0	60	1048575
2026-01-17 07:29:42.59	134.35	0.08	-85.2	-88.6	3.0	1.56e+00	0	45	104	0	60	1048575
2026-01-17 07:29:43.60	134.34	0.14	-85.2	-88.6	2.9	1.56e+00	0	45	104	0	60	1048573
2026-01-17 07:29:44.61	134.32	0.20	-85.2	-88.6	3.2	1.56e+00	0	45	104	0	60	1048574
2026-01-17 07:29:45.62	134.30	0.26	-85.2	-88.6	3.1	1.56e+00	0	45	104	0	60	1048572
2026-01-17 07:29:46.62	134.29	0.32	-85.2	-88.6	2.8	1.56e+00	0	45	104	0	60	1048575
2026-01-17 07:29:47.63	134.27	0.38	-85.2	-88.6	3.1	1.55e+00	0	45	104	0	60	1048575
2026-01-17 07:29:48.64	134.25	0.44	-85.2	-88.6	3.1	1.56e+00	0	45	104	0	60	1048575
2026-01-17 07:29:49.65	134.24	0.50	-85.2	-88.6	3.1	1.56e+00	0	45	104	0	60	1048574
2026-01-17 07:29:50.65	134.22	0.56	-85.2	-88.6	3.0	1.56e+00	0	46	104	0	60	1048575
2026-01-17 07:29:51.66	134.20	0.62	-85.2	-88.6	3.0	1.56e+00	0	46	104	0	60	1048574
2026-01-17 07:29:52.67	134.19	0.69	-84.7	-88.6	3.0	1.55e+00	0	46	104	0	60	1048575
2026-01-17 07:29:53.68	134.17	0.75	-84.3	-88.6	3.0	1.56e+00	0	46	104	0	60	1048575
2026-01-17 07:29:54.69	134.15	0.81	-85.2	-88.6	3.1	1.56e+00	0	46	104	0	60	1048574
2026-01-17 07:29:55.69	134.13	0.87	-85.2	-88.6	3.0	1.55e+00	0	46	104	0	60	1048575
2026-01-17 07:29:56.70	134.12	0.93	-85.2	-88.6	3.2	1.56e+00	0	46	104	0	60	1048575
2026-01-17 07:29:57.70	134.10	0.99	-85.2	-88.6	3.2	1.56e+00	0	46	104	0	60	1048575
2026-01-17 07:29:58.71	134.08	1.06	-85.2	-88.6	3.1	1.55e+00	0	46	104	0	60	1048573
2026-01-17 07:29:59.72	134.06	1.12	-85.2	-88.6	3.0	1.55e+00	0	46	104	0	60	1048575
2026-01-17 07:30:00.72	134.05	1.18	-85.2	-88.6	3.0	1.55e+00	0	46	104	0	60	1048575
2026-01-17 07:30:01.72	134.03	1.24	-85.2	-88.6	3.1	1.55e+00	0	46	104	0	60	1048575
2026-01-17 07:30:02.73	134.01	1.30	-85.2	-88.6	3.0	1.56e+00	0	46	104	0	60	1048573
2026-01-17 07:30:03.73	133.99	1.37	-85.2	-88.6	2.9	1.55e+00	0	46	104	0	60	1048575
2026-01-17 07:30:04.74	133.97	1.43	-85.2	-88.6	3.2	1.56e+00	0	46	104	0	60	1048575
2026-01-17 07:30:05.75	133.96	1.49	-85.2	-88.6	3.0	1.55e+00	0	46	104	0	60	1048574
2026-01-17 07:30:06.76	133.94	1.56	-85.2	-88.6	2.8	1.56e+00	0	46	104	0	60	1048572
2026-01-17 07:30:07.77	133.92	1.62	-85.2	-88.6	3.1	1.56e+00	0	46	104	0	60	1048574
2026-01-17 07:30:08.77	133.90	1.68	-85.2	-88.6	2.9	1.56e+00	0	46	104	0	60	1048574
2026-01-17 07:30:09.78	133.88	1.75	-85.2	-88.6	2.8	1.55e+00	0	46	104	0	60	1048575
2026-01-17 07:30:10.78	133.86	1.81	-85.2	-88.6	3.0	1.55e+00	0	46	104	0	60	1048575
2026-01-17 07:30:11.79	133.85	1.87	-85.2	-88.6	3.0	1.56e+00	0	46	104	0	60	1048575
2026-01-17 07:30:12.79	133.83	1.94	-85.2	-88.6	2.7	1.56e+00	0	46	104	0	60	1048571
2026-01-17 07:30:13.80	133.81	2.00	-85.2	-88.6	3.0	1.56e+00	0	46	104	0	60	1048574
2026-01-17 07:30:14.80	133.79	2.06	-85.2	-88.6	3.1	1.56e+00	0	46	104	0	60	1048573
2026-01-17 07:30:15.81	133.77	2.13	-85.2	-88.6	3.0	1.56e+00	0	46	104	0	60	1048573
2026-01-17 07:30:16.81	133.75	2.19	-85.2	-88.6	2.7	1.56e+00	0	46	104	0	60	1048573
2026-01-17 07:30:17.82	133.73	2.26	-85.2	-88.6	3.0	1.56e+00	0	46	104	0	60	1048575
2026-01-17 07:30:18.83	133.71	2.32	-85.2	-88.6	3.1	1.55e+00	0	46	104	0	60	1048575
2026-01-17 07:30:19.84	133.69	2.39	-85.2	-88.6	3.1	1.56e+00	0	46	104	0	60	1048575
2026-01-17 07:30:20.85	133.67	2.45	-85.2	-88.6	3.3	1.56e+00	0	46	104	0	60	1048573
2026-01-17 07:30:21.85	133.65	2.52	-85.2	-88.6	3.2	1.56e+00	0	46	104	0	60	1048575
2026-01-17 07:30:22.86	133.63	2.58	-85.2	-88.6	3.1	1.56e+00	0	46	104	0	60	1048573
2026-01-17 07:30:23.87	133.61	2.65	-85.2	-88.6	3.2	1.55e+00	0	46	104	0	60	1048574
2026-01-17 07:30:24.88	133.59	2.71	-85.2	-88.6	3.1	1.56e+00	0	46	104	0	60	1048572
2026-01-17 07:30:25.89	133.57	2.78	-85.2	-88.6	3.0	1.56e+00	0	46	104	0	60	1048575
2026-01-17 07:30:26.90	133.55	2.85	-85.2	-88.6	2.9	1.56e+00	0	46	104	0	60	1048575
2026-01-17 07:30:27.91	133.53	2.91	-85.2	-88.6	3.0	1.56e+00	0	46	104	0	60	1048575
2026-01-17 07:30:28.91	133.51	2.98	-83.9	-88.6	3.0	1.56e+00	0	46	104	0	60	1048573
2026-01-17 07:30:29.91	133.49	3.04	-85.2	-88.6	2.9	1.56e+00	0	46	104	0	60	1048574
2026-01-17 07:30:30.91	133.47	3.11	-85.2	-88.6	2.9	1.56e+00	0	46	104	0	60	1048575
2026-01-17 07:30:31.91	133.45	3.18	-85.2	-88.6	2.9	1.56e+00	0	46	104	0	60	1048569
2026-01-17 07:30:32.92	133.43	3.24	-85.2	-88.6	3.0	1.56e+00	0	46	104	0	60	1048574
2026-01-17 07:30:33.92	133.41	3.31	-85.2	-88.6	2.9	1.56e+00	0	46	104	0	60	1048574
2026-01-17 07:30:34.93	133.39	3.38	-85.2	-88.6	2.9	1.55e+00	0	46	104	0	60	1048575
2026-01-17 07:30:35.93	133.37	3.44	-85.2	-88.6	3.0	1.56e+00	0	46	104	0	60	1048575
2026-01-17 07:30:36.93	133.35	3.51	-85.2	-88.6	2.9	1.55e+00	0	46	104	0	60	1048575
2026-01-17 07:30:37.94	133.32	3.58	-85.2	-88.6	2.9	1.55e+00	0	46	104	0	60	1048569
2026-01-17 07:30:38.95	133.30	3.65	-85.2	-88.6	3.1	1.56e+00	0	46	104	0	60	1048574
2026-01-17 07:30:39.95	133.28	3.71	-85.2	-88.6	3.1	1.56e+00	0	46	104	0	60	1048575
2026-01-17 07:30:40.96	133.26	3.78	-85.2	-88.6	2.9	1.56e+00	0	46	104	0	60	1048575
2026-01-17 07:30:41.96	133.24	3.85	-85.2	-88.6	3.1	1.56e+00	0	46	104	0	60	1048571
2026-01-17 07:30:42.97	133.22	3.92	-85.2	-88.6	3.1	1.56e+00	0	46	104	0	60	1048575
2026-01-17 07:30:43.98	133.19	3.99	-85.2	-88.6	2.8	1.56e+00	0	46	104	0	60	1048575
2026-01-17 07:30:44.98	133.17	4.06	-85.2	-88.6	3.0	1.55e+00	0	46	104	0	60	1048574
2026-01-17 07:30:45.98	133.15	4.12	-85.2	-88.6	3.1	1.56e+00	0	46	104	0	60	1048575
2026-01-17 07:30:46.99	133.13	4.19	-85.2	-88.6	2.8	1.56e+00	0	46	104	0	60	1048573
2026-01-17 07:30:48.00	133.10	4.26	-85.2	-88.6	2.9	1.55e+00	0	46	104	0	60	1048574
2026-01-17 07:30:49.00	133.08	4.33	-85.2	-88.6	3.0	1.56e+00	0	46	104	0	60	1048575
2026-01-17 07:30:50.01	133.06	4.40	-85.2	-88.6	3.1	1.56e+00	0	46	104	0	60	1048574
2026-01-17 07:30:51.02	133.04	4.47	-85.2	-88.6	3.0	1.56e+00	0	46	104	0	60	1048575
2026-01-17 07:30:52.03	133.01	4.54	-85.2	-88.6	2.8	1.56e+00	0	46	104	0	60	1048575
2026-01-17 07:30:53.03	132.99	4.61	-85.2	-88.6	2.9	1.56e+00	0	46	104	0	60	1048575
2026-01-17 07:30:54.04	132.97	4.68	-85.2	-88.6	3.2	1.56e+00	0	46	104	0	60	1048574
2026-01-17 07:30:55.04	132.94	4.75	-85.2	-88.6	3.0	1.56e+00	0	46	104	0	60	1048575
2026-01-17 07:30:56.05	132.92	4.82	-85.2	-88.6	3.1	1.56e+00	0	46	104	0	60	1048575
2026-01-17 07:30:57.06	132.89	4.90	-85.2	-88.6	3.2	1.56e+00	0	46	104	0	60	1048573
2026-01-17 07:30:58.07	132.87	4.97	-83.9	-88.6	3.1	1.56e+00	0	46	104	0	60	1048574
2026-01-17 07:30:59.07	132.85	5.04	-85.2	-88.6	2.8	1.56e+00	0	46	104	0	60	1048575
2026-01-17 07:31:00.07	132.82	5.11	-85.2	-88.6	2.9	1.56e+00	0	46	104	0	60	1048572
2026-01-17 07:31:01.07	132.80	5.18	-85.2	-88.6	2.9	1.56e+00	0	46	104	0	60	1048574
2026-01-17 07:31:02.08	132.77	5.25	-85.2	-88.6	3.0	1.55e+00	0	46	104	0	60	1048574
2026-01-17 07:31:03.09	132.75	5.32	-85.2	-88.6	3.1	1.56e+00	0	46	104	0	60	1048575
2026-01-17 07:31:04.08	132.73	5.39	-85.2	-88.6	3.0	1.56e+00	0	46	104	0	60	1048575
2026-01-17 07:31:05.09	132.70	5.47	-85.2	-88.6	3.0	1.56e+00	0	46	104	0	60	1048573
2026-01-17 07:31:06.10	132.68	5.54	-85.2	-88.6	3.1	1.55e+00	0	46	104	0	60	1048571
2026-01-17 07:31:07.09	132.65	5.61	-85.2	-88.6	2.9	1.56e+00	0	46	104	0	60	1048575
2026-01-17 07:31:08.10	132.63	5.68	-85.2	-88.6	2.7	1.56e+00	0	46	104	0	60	1048573
2026-01-17 07:31:09.11	132.60	5.76	-85.2	-88.6	3.2	1.56e+00	0	46	104	0	60	1048575
2026-01-17 07:31:10.11	132.58	5.83	-85.2	-88.6	3.2	1.55e+00	0	46	104	0	60	1048575
2026-01-17 07:31:11.12	132.55	5.90	-85.2	-88.6	3.0	1.55e+00	0	46	104	0	60	1048575
2026-01-17 07:31:12.13	132.52	5.98	-85.2	-88.6	3.0	1.56e+00	0	46	104	0	60	1048574
2026-01-17 07:31:13.14	132.50	6.05	-85.2	-88.6	2.9	1.56e+00	0	46	104	0	60	1048572
2026-01-17 07:31:14.15	132.47	6.13	-85.2	-88.6	3.1	1.55e+00	0	46	104	0	60	1048572
2026-01-17 07:31:15.15	132.45	6.20	-85.2	-88.6	3.1	1.56e+00	0	46	104	0	60	1048575
2026-01-17 07:31:16.16	132.42	6.28	-85.2	-88.6	3.0	1.55e+00	0	46	104	0	60	1048571
2026-01-17 07:31:17.16	132.39	6.35	-85.2	-88.6	3.0	1.56e+00	0	46	104	0	60	1048574
2026-01-17 07:31:18.17	132.37	6.43	-85.2	-88.6	2.9	1.56e+00	0	46	104	0	60	1048575
2026-01-17 07:31:19.18	132.34	6.50	-85.2	-88.6	2.9	1.55e+00	0	46	104	0	60	1048575
2026-01-17 07:31:20.19	132.31	6.58	-85.2	-88.6	3.2	1.56e+00	0	46	104	0	60	1048575
2026-01-17 07:31:21.19	132.29	6.65	-85.2	-88.6	3.1	1.56e+00	0	46	104	0	60	1048574
2026-01-17 07:31:22.20	132.26	6.73	-85.2	-88.6	2.9	1.56e+00	0	46	104	0	60	1048574
2026-01-17 07:31:23.21	132.23	6.80	-85.2	-88.6	3.0	1.55e+00	0	46	104	0	60	1048575
2026-01-17 07:31:24.21	132.20	6.88	-85.2	-88.6	3.0	1.56e+00	0	47	104	0	60	1048575
2026-01-17 07:31:25.22	132.17	6.96	-85.2	-88.6	3.0	1.56e+00	0	46	104	0	60	1048573
2026-01-17 07:31:26.23	132.15	7.03	-85.2	-88.6	3.2	1.56e+00	0	47	104	0	60	1048574
2026-01-17 07:31:27.24	132.12	7.11	-85.2	-88.6	2.9	1.56e+00	0	46	104	0	60	1048575
2026-01-17 07:31:28.24	132.09	7.19	-85.2	-88.6	3.0	1.56e+00	0	46	104	0	60	1048573
2026-01-17 07:31:29.25	132.06	7.27	-85.2	-88.6	3.1	1.56e+00	0	46	104	0	60	1048575
2026-01-17 07:31:30.25	132.03	7.34	-85.2	-88.6	2.9	1.55e+00	0	46	104	0	60	1048575
2026-01-17 07:31:31.26	132.00	7.42	-85.2	-88.6	2.9	1.56e+00	0	47	104	0	60	1048573
2026-01-17 07:31:32.26	131.98	7.50	-85.2	-88.6	3.1	1.56e+00	0	46	104	0	60	1048575
2026-01-17 07:31:33.27	131.95	7.58	-85.2	-88.6	3.1	1.56e+00	0	46	104	0	60	1048574
2026-01-17 07:31:34.28	131.92	7.66	-85.2	-88.6	3.1	1.56e+00	0	47	104	0	60	1048572
2026-01-17 07:31:35.28	131.89	7.73	-85.2	-88.6	2.9	1.55e+00	0	46	104	0	60	1048575
2026-01-17 07:31:36.29	131.86	7.81	-85.2	-88.6	3.1	1.55e+00	0	46	104	0	60	1048575
2026-01-17 07:31:37.29	131.83	7.89	-84.7	-88.6	3.0	1.56e+00	0	46	104	0	60	1048575
2026-01-17 07:31:38.30	131.80	7.97	-85.2	-88.6	3.0	1.56e+00	0	46	104	0	60	1048573
2026-01-17 07:31:39.31	131.77	8.05	-85.2	-88.6	3.0	1.56e+00	0	47	104	0	60	1048575
2026-01-17 07:31:40.32	131.74	8.13	-85.2	-88.6	2.9	1.56e+00	0	47	104	0	60	1048573
2026-01-17 07:31:41.33	131.71	8.21	-85.2	-88.6	3.0	1.56e+00	0	46	104	0	60	1048575
2026-01-17 07:31:42.33	131.68	8.29	-85.2	-88.6	3.0	1.55e+00	0	47	104	0	60	1048575
2026-01-17 07:31:43.34	131.65	8.37	-85.2	-88.6	3.1	1.56e+00	0	47	104	0	60	1048574
2026-01-17 07:31:44.35	131.61	8.45	-85.2	-88.6	3.0	1.55e+00	0	47	104	0	60	1048573
2026-01-17 07:31:45.36	131.58	8.54	-85.2	-88.6	3.0	1.56e+00	0	46	104	0	60	1048573
2026-01-17 07:31:46.36	131.55	8.62	-85.2	-88.6	3.0	1.55e+00	0	46	104	0	60	1048575
2026-01-17 07:31:47.37	131.52	8.70	-85.2	-88.6	2.7	1.56e+00	0	46	104	0	60	1048575
2026-01-17 07:31:48.38	131.49	8.78	-85.2	-88.6	3.1	1.56e+00	0	47	104	0	60	1048574
2026-01-17 07:31:49.38	131.46	8.86	-85.2	-88.6	3.2	1.56e+00	0	46	104	0	60	1048572
2026-01-17 07:31:50.38	131.42	8.94	-85.2	-88.6	3.0	1.55e+00	0	46	104	0	60	1048572
2026-01-17 07:31:51.39	131.39	9.03	-85.2	-88.6	3.2	1.56e+00	0	46	104	0	60	1048571
2026-01-17 07:31:52.39	131.36	9.11	-85.2	-88.6	3.1	1.56e+00	0	47	104	0	60	1048572
2026-01-17 07:31:53.40	131.33	9.19	-85.2	-88.6	3.0	1.56e+00	0	47	104	0	60	1048573
2026-01-17 07:31:54.40	131.29	9.28	-85.2	-88.6	3.1	1.56e+00	0	47	104	0	60	1048575
2026-01-17 07:31:55.41	131.26	9.36	-85.2	-88.6	2.9	1.56e+00	0	47	104	0	60	1048575
2026-01-17 07:31:56.41	131.23	9.44	-85.2	-88.6	3.0	1.56e+00	0	47	104	0	60	1048575
2026-01-17 07:31:57.42	131.19	9.53	-85.2	-88.6	2.9	1.56e+00	0	46	104	0	60	1048573
2026-01-17 07:31:58.42	131.16	9.61	-85.2	-88.6	3.1	1.56e+00	0	46	104	0	60	1048574
2026-01-17 07:31:59.43	131.12	9.70	-85.2	-88.6	2.8	1.55e+00	0	46	104	0	60	1048570
2026-01-17 07:32:00.44	131.09	9.78	-85.2	-88.6	3.1	1.56e+00	0	46	104	0	60	1048575
2026-01-17 07:32:01.45	131.06	9.87	-85.2	-88.6	2.8	1.56e+00	0	47	104	0	60	1048575
2026-01-17 07:32:02.46	131.02	9.96	-85.2	-88.6	3.0	1.56e+00	0	47	104	0	60	1048573
2026-01-17 07:32:03.47	130.99	10.04	-85.2	-88.6	3.0	1.56e+00	0	47	104	0	60	1048575
2026-01-17 07:32:04.47	130.95	10.13	-85.2	-88.6	3.2	1.56e+00	0	47	104	0	60	1048575
2026-01-17 07:32:05.48	130.91	10.22	-84.7	-88.6	3.0	1.56e+00	0	47	104	0	60	1048574
2026-01-17 07:32:06.49	130.88	10.30	-85.2	-88.6	2.9	1.56e+00	0	47	104	0	60	1048574
2026-01-17 07:32:07.49	130.84	10.39	-85.2	-88.6	2.9	1.56e+00	0	46	104	0	60	1048575
2026-01-17 07:32:08.49	130.81	10.48	-85.2	-88.6	3.0	1.56e+00	0	46	104	0	60	1048571
2026-01-17 07:32:09.50	130.77	10.56	-85.2	-88.6	3.1	1.56e+00	0	47	104	0	60	1048572
2026-01-17 07:32:10.50	130.73	10.65	-85.2	-88.6	2.8	1.55e+00	0	47	104	0	60	1048575
2026-01-17 07:32:11.51	130.70	10.74	-85.2	-88.6	3.1	1.56e+00	0	47	104	0	60	1048575
2026-01-17 07:32:12.51	130.66	10.83	-85.2	-88.6	2.9	1.56e+00	0	47	104	0	60	1048575
2026-01-17 07:32:13.52	130.62	10.92	-85.2	-88.6	3.0	1.56e+00	0	47	104	0	60	1048574
2026-01-17 07:32:14.53	130.58	11.01	-85.2	-88.6	2.9	1.56e+00	0	47	104	0	60	1048574
2026-01-17 07:32:15.54	130.55	11.10	-85.2	-88.6	3.1	1.56e+00	0	47	104	0	60	1048575
2026-01-17 07:32:16.55	130.51	11.19	-85.2	-88.6	3.1	1.56e+00	0	47	104	0	60	1048574
2026-01-17 07:32:17.55	130.47	11.28	-85.2	-88.6	3.1	1.56e+00	0	46	104	0	60	1048569
2026-01-17 07:32:18.56	130.43	11.37	-85.2	-88.6	3.1	1.56e+00	0	47	104	0	60	1048574
2026-01-17 07:32:19.56	130.39	11.46	-85.2	-88.6	3.0	1.55e+00	0	47	104	0	60	1048575
2026-01-17 07:32:20.56	130.35	11.55	-85.2	-88.6	2.8	1.56e+00	0	47	104	0	60	1048573
2026-01-17 07:32:21.57	130.31	11.64	-85.2	-88.6	2.9	1.55e+00	0	46	104	0	60	1048575
2026-01-17 07:32:22.58	130.27	11.73	-85.2	-88.6	3.1	1.56e+00	0	47	104	0	60	1048575
2026-01-17 07:32:23.58	130.23	11.83	-85.2	-88.6	3.0	1.56e+00	0	47	104	0	60	1048574
2026-01-17 07:32:24.58	130.19	11.92	-85.2	-88.6	3.0	1.56e+00	0	47	104	0	60	1048574
2026-01-17 07:32:25.59	130.15	12.01	-85.2	-88.6	3.0	1.55e+00	0	47	104	0	60	1048575
2026-01-17 07:32:26.60	130.11	12.10	-85.2	-88.6	2.9	1.56e+00	0	47	104	0	60	1048575
2026-01-17 07:32:27.60	130.07	12.20	-85.2	-88.6	2.9	1.56e+00	0	47	104	0	60	1048573
2026-01-17 07:32:28.61	130.03	12.29	-85.2	-88.6	3.0	1.55e+00	0	47	104	0	60	1048575
2026-01-17 07:32:29.61	129.99	12.39	-85.2	-88.6	2.8	1.55e+00	0	47	104	0	60	1048575
2026-01-17 07:32:30.62	129.95	12.48	-85.2	-88.6	3.0	1.56e+00	0	47	104	0	60	1048575
2026-01-17 07:32:31.63	129.90	12.58	-85.2	-88.6	2.9	1.56e+00	0	47	104	0	60	1048573
2026-01-17 07:32:32.64	129.86	12.67	-85.2	-88.6	3.3	1.56e+00	0	47	104	0	60	1048575
2026-01-17 07:32:33.65	129.82	12.77	-85.2	-88.6	3.0	1.56e+00	0	47	104	0	60	1048573
2026-01-17 07:32:34.65	129.78	12.86	-85.2	-88.6	3.0	1.56e+00	0	47	104	0	60	1048573
2026-01-17 07:32:35.66	129.73	12.96	-85.2	-88.6	3.1	1.56e+00	0	47	104	0	60	1048575
2026-01-17 07:32:36.67	129.69	13.06	-85.2	-88.6	2.9	1.56e+00	0	47	104	0	60	1048575
2026-01-17 07:32:37.67	129.65	13.15	-85.2	-88.6	3.0	1.55e+00	0	47	104	0	60	1048574
2026-01-17 07:32:38.68	129.60	13.25	-85.2	-88.6	3.1	1.56e+00	0	47	104	0	60	1048575
2026-01-17 07:32:39.69	129.56	13.35	-85.2	-88.6	3.1	1.56e+00	0	47	104	0	60	1048574
2026-01-17 07:32:40.70	129.51	13.45	-85.2	-88.6	3.1	1.55e+00	0	47	104	0	60	1048575
2026-01-17 07:32:41.71	129.47	13.55	-85.2	-88.6	2.8	1.56e+00	0	47	104	0	60	1048575
2026-01-17 07:32:42.71	129.42	13.65	-85.2	-88.6	3.1	1.56e+00	0	46	104	0	60	1048574
2026-01-17 07:32:43.72	129.37	13.75	-85.2	-88.6	3.0	1.55e+00	0	47	104	0	60	1048571
2026-01-17 07:32:44.73	129.33	13.85	-85.2	-88.6	3.0	1.55e+00	0	47	104	0	60	1048575
2026-01-17 07:32:45.74	129.28	13.95	-85.2	-88.6	3.1	1.55e+00	0	47	104	0	60	1048575
2026-01-17 07:32:46.75	129.23	14.05	-85.2	-88.6	3.0	1.56e+00	0	47	104	0	60	1048575
2026-01-17 07:32:47.75	129.19	14.15	-85.2	-88.6	3.0	1.55e+00	0	47	104	0	60	1048575
2026-01-17 07:32:48.76	129.14	14.25	-85.2	-88.6	3.1	1.56e+00	0	47	104	0	60	1048575
2026-01-17 07:32:49.77	129.09	14.35	-85.2	-88.6	3.0	1.56e+00	0	47	104	0	60	1048574
2026-01-17 07:32:50.78	129.04	14.45	-85.2	-88.6	3.0	1.55e+00	0	47	104	0	60	1048575
2026-01-17 07:32:51.79	128.99	14.56	-85.2	-88.6	2.9	1.55e+00	0	46	104	0	60	1048574
2026-01-17 07:32:52.79	128.94	14.66	-85.2	-88.6	3.0	1.56e+00	0	47	104	0	60	1048573
2026-01-17 07:32:53.80	128.89	14.76	-85.2	-88.6	2.8	1.55e+00	0	47	104	0	60	1048575
2026-01-17 07:32:54.81	128.84	14.87	-85.2	-88.6	2.9	1.56e+00	0	47	104	0	60	1048575
2026-01-17 07:32:55.81	128.79	14.97	-85.2	-88.6	3.2	1.56e+00	0	47	104	0	60	1048574
2026-01-17 07:32:56.81	128.74	15.08	-85.2	-88.6	3.0	1.56e+00	0	47	104	0	60	1048574
2026-01-17 07:32:57.82	128.69	15.18	-85.2	-88.6	3.2	1.56e+00	0	47	104	0	60	1048575
2026-01-17 07:32:58.82	128.64	15.29	-85.2	-88.6	3.1	1.56e+00	0	47	104	0	60	1048571
2026-01-17 07:32:59.83	128.59	15.39	-85.2	-88.6	2.9	1.56e+00	0	47	104	0	60	1048575
2026-01-17 07:33:00.83	128.54	15.50	-85.2	-88.6	2.9	1.56e+00	0	47	104	0	60	1048568
2026-01-17 07:33:01.84	128.49	15.61	-85.2	-88.6	3.0	1.56e+00	0	47	104	0	60	1048575
2026-01-17 07:33:02.85	128.43	15.71	-85.2	-88.6	3.0	1.55e+00	0	47	104	0	60	1048575
2026-01-17 07:33:03.85	128.38	15.82	-85.2	-88.6	3.1	1.56e+00	0	47	104	0	60	1048575
2026-01-17 07:33:04.86	128.33	15.93	-85.2	-88.6	3.0	1.56e+00	0	47	104	0	60	1048575
2026-01-17 07:33:05.87	128.27	16.04	-85.2	-88.6	3.0	1.56e+00	0	47	104	0	60	1048574
2026-01-17 07:33:06.88	128.22	16.15	-85.2	-88.6	3.0	1.56e+00	0	47	104	0	60	1048572
2026-01-17 07:33:07.89	128.16	16.26	-85.2	-88.6	2.9	1.56e+00	0	47	104	0	60	1048575
2026-01-17 07:33:08.89	128.11	16.37	-85.2	-88.6	2.9	1.55e+00	0	47	104	0	60	1048575
2026-01-17 07:33:09.89	128.05	16.48	-85.2	-88.6	3.0	1.56e+00	0	47	104	0	60	1048575
2026-01-17 07:33:10.90	128.00	16.59	-85.2	-88.6	2.8	1.56e+00	0	47	104	0	60	1048575
2026-01-17 07:33:11.90	127.94	16.70	-85.2	-88.6	3.0	1.56e+00	0	47	104	0	60	1048574
2026-01-17 07:33:12.91	127.88	16.81	-85.2	-88.6	3.2	1.55e+00	0	47	104	0	60	1048574
2026-01-17 07:33:13.92	127.82	16.92	-85.2	-88.6	2.9	1.55e+00	0	47	104	0	60	1048573
2026-01-17 07:33:14.92	127.77	17.04	-85.2	-88.6	2.9	1.56e+00	0	47	104	0	60	1048574
2026-01-17 07:33:15.93	127.71	17.15	-85.2	-88.6	2.7	1.56e+00	0	47	104	0	60	1048574
2026-01-17 07:33:16.94	127.65	17.26	-85.2	-88.6	2.9	1.56e+00	0	47	104	0	60	1048575
2026-01-17 07:33:17.94	127.59	17.38	-85.2	-88.6	3.1	1.56e+00	0	47	104	0	60	1048574
2026-01-17 07:33:18.95	127.53	17.49	-85.2	-88.6	3.0	1.55e+00	0	47	104	0	60	1048575
2026-01-17 07:33:19.95	127.47	17.61	-85.2	-88.6	3.0	1.55e+00	0	47	104	0	60	1048572
2026-01-17 07:33:20.96	127.41	17.72	-85.2	-88.6	3.0	1.56e+00	0	47	104	0	60	1048575
2026-01-17 07:33:21.96	127.35	17.84	-85.2	-88.6	3.1	1.56e+00	0	47	104	0	60	1048575
2026-01-17 07:33:22.97	127.28	17.96	-85.2	-88.6	3.0	1.56e+00	0	47	104	0	60	1048575
2026-01-17 07:33:23.97	127.22	18.07	-85.2	-88.6	3.0	1.56e+00	0	47	104	0	60	1048575
2026-01-17 07:33:24.98	127.16	18.19	-85.2	-88.6	2.9	1.56e+00	0	47	104	0	60	1048575
2026-01-17 07:33:25.98	127.10	18.31	-85.2	-88.6	3.0	1.55e+00	0	47	104	0	60	1048575
2026-01-17 07:33:26.99	127.03	18.43	-85.2	-88.6	2.9	1.56e+00	0	47	104	0	60	1048575
2026-01-17 07:33:27.99	126.97	18.55	-85.2	-88.6	2.9	1.56e+00	0	47	104	0	60	1048572
2026-01-17 07:33:29.00	126.90	18.67	-85.2	-88.6	3.1	1.55e+00	0	47	104	0	60	1048575
2026-01-17 07:33:30.00	126.84	18.79	-85.2	-88.6	2.9	1.56e+00	0	47	104	0	60	1048574
2026-01-17 07:33:31.01	126.77	18.91	-85.2	-88.6	3.1	1.56e+00	0	47	104	0	60	1048574
2026-01-17 07:33:32.01	126.71	19.03	-85.2	-88.6	3.0	1.56e+00	0	47	104	0	60	1048574
2026-01-17 07:33:33.02	126.64	19.16	-85.2	-88.6	2.9	1.56e+00	0	47	104	0	60	1048575
2026-01-17 07:33:34.03	126.57	19.28	-85.2	-88.6	3.1	1.55e+00	0	47	104	0	60	1048575
2026-01-17 07:33:35.03	126.50	19.40	-84.7	-88.6	3.0	1.55e+00	0	47	104	0	60	1048575
2026-01-17 07:33:36.03	126.43	19.52	-84.7	-88.6	3.0	1.56e+00	0	47	104	0	60	1048575
2026-01-17 07:33:37.04	126.36	19.65	-85.2	-88.6	2.8	1.56e+00	0	47	104	0	60	1048573
2026-01-17 07:33:38.04	126.30	19.77	-85.2	-88.6	3.0	1.56e+00	0	47	104	0	60	1048573
2026-01-17 07:33:39.05	126.22	19.90	-85.2	-88.6	2.9	1.56e+00	0	47	104	0	60	1048575
2026-01-17 07:33:40.05	126.15	20.03	-85.2	-88.6	3.0	1.56e+00	0	47	104	0	60	1048575
2026-01-17 07:33:41.06	126.08	20.15	-85.2	-88.6	3.1	1.56e+00	0	47	104	0	60	1048575
2026-01-17 07:33:42.07	126.01	20.28	-85.2	-88.6	3.2	1.56e+00	0	47	104	0	60	1048574
2026-01-17 07:33:43.08	125.94	20.41	-85.2	-88.6	3.0	1.56e+00	0	47	104	0	60	1048574
2026-01-17 07:33:44.08	125.86	20.54	-85.2	-88.6	3.1	1.56e+00	0	47	104	0	60	1048573
2026-01-17 07:33:45.09	125.79	20.67	-85.2	-88.6	3.0	1.55e+00	0	47	104	0	60	1048575
2026-01-17 07:33:46.09	125.71	20.80	-85.2	-88.6	3.1	1.56e+00	0	47	104	0	60	1048574
2026-01-17 07:33:47.10	125.64	20.93	-85.2	-88.6	3.1	1.56e+00	0	47	104	0	60	1048573
2026-01-17 07:33:48.11	125.56	21.06	-85.2	-88.6	3.0	1.56e+00	0	47	104	0	60	1048575
2026-01-17 07:33:49.11	125.48	21.19	-85.2	-88.6	3.0	1.56e+00	0	47	104	0	60	1048575
2026-01-17 07:33:50.11	125.41	21.32	-85.2	-88.6	2.9	1.56e+00	0	47	104	0	60	1048571
2026-01-17 07:33:51.12	125.33	21.46	-85.2	-88.6	2.8	1.56e+00	0	47	104	0	60	1048575
2026-01-17 07:33:52.13	125.25	21.59	-85.2	-88.6	2.9	1.55e+00	0	47	104	0	60	1048574
2026-01-17 07:33:53.14	125.17	21.73	-85.2	-88.6	3.0	1.56e+00	0	47	104	0	60	1048575
2026-01-17 07:33:54.14	125.09	21.86	-85.2	-88.6	3.0	1.56e+00	0	47	104	0	60	1048575
2026-01-17 07:33:55.14	125.01	22.00	-85.2	-88.6	2.9	1.56e+00	0	47	104	0	60	1048575
2026-01-17 07:33:56.15	124.92	22.13	-85.2	-88.6	3.1	1.55e+00	0	47	104	0	60	1048575
2026-01-17 07:33:57.15	124.84	22.27	-85.2	-88.6	3.0	1.56e+00	0	47	104	0	60	1048573
2026-01-17 07:33:58.16	124.76	22.41	-85.2	-88.6	2.9	1.56e+00	0	47	104	0	60	1048575
2026-01-17 07:33:59.17	124.67	22.55	-85.2	-88.6	2.9	1.56e+00	0	47	104	0	60	1048575
2026-01-17 07:34:00.18	124.59	22.69	-85.2	-88.6	3.0	1.56e+00	0	47	104	0	60	1048575
2026-01-17 07:34:01.19	124.50	22.83	-85.2	-88.6	3.0	1.56e+00	0	47	104	0	60	1048575
2026-01-17 07:34:02.19	124.42	22.96	-85.2	-88.6	3.0	1.56e+00	0	47	104	0	60	1048574
2026-01-17 07:34:03.20	124.33	23.11	-85.2	-88.6	3.0	1.56e+00	0	47	104	0	60	1048574
2026-01-17 07:34:04.20	124.24	23.25	-85.2	-88.6	3.0	1.55e+00	0	47	104	0	60	1048575
2026-01-17 07:34:05.21	124.15	23.39	-85.2	-88.6	2.9	1.55e+00	0	47	104	0	60	1048575
2026-01-17 07:34:06.21	124.06	23.53	-85.2	-88.6	2.9	1.56e+00	0	47	104	0	60	1048571
2026-01-17 07:34:07.22	123.97	23.68	-85.2	-88.6	2.9	1.56e+00	0	47	104	0	60	1048574
2026-01-17 07:34:08.23	123.88	23.82	-85.2	-88.6	2.8	1.56e+00	0	47	104	0	60	1048575
2026-01-17 07:34:09.23	123.79	23.97	-85.2	-88.6	3.1	1.56e+00	0	47	104	0	60	1048575
2026-01-17 07:34:10.24	123.69	24.11	-85.2	-88.6	3.1	1.56e+00	0	47	104	0	60	1048573
2026-01-17 07:34:11.25	123.60	24.26	-85.2	-88.6	3.1	1.55e+00	0	47	104	0	60	1048575
2026-01-17 07:34:12.26	123.50	24.41	-85.2	-88.6	3.1	1.55e+00	0	47	104	0	60	1048575
2026-01-17 07:34:13.27	123.40	24.56	-85.2	-88.6	2.9	1.56e+00	0	47	104	0	60	1048574
2026-01-17 07:34:14.28	123.31	24.71	-85.2	-88.6	3.0	1.56e+00	0	47	104	0	60	1048573
2026-01-17 07:34:15.28	123.21	24.86	-85.2	-88.6	3.0	1.55e+00	0	47	104	0	60	1048573
2026-01-17 07:34:16.29	123.11	25.01	-85.2	-88.6	3.0	1.56e+00	0	47	104	0	60	1048575
2026-01-17 07:34:17.30	123.01	25.16	-85.2	-88.6	3.0	1.56e+00	0	47	104	0	60	1048575
2026-01-17 07:34:18.30	122.91	25.31	-85.2	-88.6	2.9	1.55e+00	0	47	104	0	60	1048575
2026-01-17 07:34:19.31	122.81	25.47	-84.7	-88.6	3.0	1.55e+00	0	47	104	0	60	1048572
2026-01-17 07:34:20.32	122.70	25.62	-85.2	-88.6	3.0	1.55e+00	0	47	104	0	60	1048575
2026-01-17 07:34:21.32	122.60	25.77	-85.2	-88.6	3.1	1.56e+00	0	47	104	0	60	1048573
2026-01-17 07:34:22.33	122.49	25.93	-85.2	-88.6	3.1	1.56e+00	0	47	104	0	60	1048575
2026-01-17 07:34:23.33	122.39	26.08	-85.2	-88.6	2.9	1.56e+00	0	47	104	0	60	1048575
2026-01-17 07:34:24.34	122.28	26.24	-83.5	-88.6	2.8	1.56e+00	0	47	104	0	60	1048575
2026-01-17 07:34:25.35	122.17	26.40	-85.2	-88.6	2.9	1.56e+00	0	47	104	0	60	1048575
2026-01-17 07:34:26.36	122.06	26.56	-85.2	-88.6	3.0	1.56e+00	0	47	104	0	60	1048573
2026-01-17 07:34:27.37	121.95	26.72	-85.2	-88.6	3.0	1.56e+00	0	47	104	0	60	1048574
2026-01-17 07:34:28.37	121.84	26.88	-85.2	-88.6	3.1	1.55e+00	0	47	104	0	60	1048574
2026-01-17 07:34:29.38	121.72	27.04	-84.3	-88.6	2.8	1.56e+00	0	47	104	0	60	1048574
2026-01-17 07:34:30.39	121.61	27.20	-85.2	-88.6	3.0	1.55e+00	0	47	104	0	60	1048575
2026-01-17 07:34:31.40	121.49	27.37	-85.2	-88.6	3.0	1.55e+00	0	47	104	0	60	1048574
2026-01-17 07:34:32.41	121.38	27.53	-84.7	-88.6	2.9	1.56e+00	0	47	104	0	60	1048575
2026-01-17 07:34:33.41	121.26	27.69	-83.5	-88.6	3.1	1.56e+00	0	47	104	0	60	1048572
2026-01-17 07:34:34.42	121.14	27.86	-84.3	-88.6	2.9	1.55e+00	0	47	104	0	60	1048574
2026-01-17 07:34:35.43	121.02	28.03	-85.2	-88.6	2.9	1.56e+00	0	47	104	0	60	1048575
2026-01-17 07:34:36.43	120.90	28.19	-85.2	-88.6	3.1	1.55e+00	0	47	104	0	60	1048573
2026-01-17 07:34:37.44	120.77	28.36	-85.2	-88.6	2.9	1.56e+00	0	47	104	0	60	1048574
2026-01-17 07:34:38.45	120.65	28.53	-85.2	-88.6	3.0	1.55e+00	0	47	104	0	60	1048575
2026-01-17 07:34:39.45	120.52	28.70	-84.3	-88.6	3.0	1.56e+00	0	47	104	0	60	1048572
2026-01-17 07:34:40.45	120.40	28.87	-85.2	-88.6	3.0	1.56e+00	0	47	104	0	60	1048575
2026-01-17 07:34:41.46	120.27	29.04	-85.2	-88.6	3.1	1.56e+00	0	47	104	0	60	1048574
2026-01-17 07:34:42.47	120.14	29.21	-85.2	-88.6	3.0	1.55e+00	0	47	104	0	60	1048572
2026-01-17 07:34:43.47	120.01	29.38	-85.2	-88.6	3.1	1.56e+00	0	47	104	0	60	1048575
2026-01-17 07:34:44.48	119.87	29.56	-85.2	-88.6	3.0	1.56e+00	0	47	104	0	60	1048575
2026-01-17 07:34:45.49	119.74	29.73	-85.2	-88.6	3.0	1.56e+00	0	47	104	0	60	1048574
2026-01-17 07:34:46.50	119.60	29.91	-85.2	-88.6	3.1	1.56e+00	0	47	104	0	60	1048574
2026-01-17 07:34:47.50	119.47	30.09	-85.2	-88.6	3.1	1.56e+00	0	47	104	0	60	1048574
2026-01-17 07:34:48.51	119.33	30.26	-85.2	-88.6	3.2	1.56e+00	0	47	104	0	60	1048575
2026-01-17 07:34:49.51	119.19	30.44	-85.2	-88.6	2.9	1.56e+00	0	47	104	0	60	1048575
2026-01-17 07:34:50.52	119.05	30.62	-85.2	-88.6	3.0	1.56e+00	0	47	104	0	60	1048574
2026-01-17 07:34:51.52	118.90	30.80	-85.2	-88.6	3.0	1.56e+00	0	47	104	0	60	1048575
2026-01-17 07:34:52.52	118.76	30.98	-85.2	-88.6	3.0	1.56e+00	0	47	104	0	60	1048572
2026-01-17 07:34:53.53	118.61	31.16	-85.2	-88.6	3.0	1.55e+00	0	47	104	0	60	1048574
2026-01-17 07:34:54.54	118.46	31.35	-85.2	-88.6	3.0	1.56e+00	0	47	104	0	60	1048574
2026-01-17 07:34:55.55	118.31	31.53	-85.2	-88.6	2.9	1.56e+00	0	47	104	0	60	1048575
2026-01-17 07:34:56.55	118.16	31.71	-85.2	-88.6	2.9	1.56e+00	0	47	104	0	60	1048573
2026-01-17 07:34:57.56	118.01	31.90	-85.2	-88.6	3.0	1.56e+00	0	47	104	0	60	1048574
2026-01-17 07:34:58.56	117.85	32.09	-85.2	-88.6	2.8	1.56e+00	0	47	104	0	60	1048575
2026-01-17 07:34:59.57	117.69	32.27	-84.3	-88.6	3.0	1.56e+00	0	47	104	0	60	1048575
2026-01-17 07:35:00.58	117.53	32.46	-85.2	-88.6	2.9	1.56e+00	0	47	104	0	60	1048575
2026-01-17 07:35:01.59	117.37	32.65	-85.2	-88.6	3.0	1.56e+00	0	47	104	0	60	1048573
2026-01-17 07:35:02.60	117.21	32.85	-85.2	-88.6	3.0	1.55e+00	0	47	104	0	60	1048575
2026-01-17 07:35:03.60	117.04	33.04	-85.2	-88.6	3.1	1.56e+00	0	47	104	0	60	1048573
2026-01-17 07:35:04.61	116.88	33.23	-85.2	-88.6	2.9	1.56e+00	0	47	104	0	60	1048575
2026-01-17 07:35:05.62	116.71	33.42	-85.2	-88.6	3.0	1.56e+00	0	47	104	0	60	1048574
2026-01-17 07:35:06.62	116.54	33.62	-85.2	-88.6	3.1	1.56e+00	0	47	104	0	60	1048573
2026-01-17 07:35:07.62	116.36	33.81	-85.2	-88.6	3.0	1.56e+00	0	47	104	0	60	1048574
2026-01-17 07:35:08.63	116.19	34.01	-85.2	-88.6	2.7	1.56e+00	0	47	104	0	60	1048575
2026-01-17 07:35:09.64	116.01	34.20	-84.3	-88.6	3.1	1.55e+00	0	47	104	0	60	1048575
2026-01-17 07:35:10.65	115.83	34.40	-85.2	-88.6	3.0	1.55e+00	0	47	104	0	60	1048571
2026-01-17 07:35:11.66	115.65	34.60	-85.2	-88.6	3.1	1.56e+00	0	47	104	0	60	1048575
2026-01-17 07:35:12.67	115.46	34.80	-85.2	-88.6	3.0	1.56e+00	0	47	104	0	60	1048574
2026-01-17 07:35:13.67	115.28	35.00	-85.2	-88.6	2.8	1.56e+00	0	47	104	0	60	1048574
2026-01-17 07:35:14.68	115.09	35.20	-85.2	-88.6	3.1	1.55e+00	0	47	104	0	60	1048575
2026-01-17 07:35:15.69	114.89	35.41	-85.2	-88.6	2.9	1.55e+00	0	47	104	0	60	1048575
2026-01-17 07:35:16.70	114.70	35.61	-85.2	-88.6	3.0	1.56e+00	0	47	104	0	60	1048572
2026-01-17 07:35:17.70	114.50	35.81	-85.2	-88.6	2.8	1.56e+00	0	47	104	0	60	1048574
2026-01-17 07:35:18.71	114.30	36.02	-85.2	-88.6	2.7	1.56e+00	0	47	104	0	60	1048575
2026-01-17 07:35:19.71	114.10	36.22	-85.2	-88.6	2.9	1.55e+00	0	47	104	0	60	1048575
2026-01-17 07:35:20.72	113.90	36.43	-85.2	-88.6	3.2	1.55e+00	0	47	104	0	60	1048574
2026-01-17 07:35:21.73	113.69	36.64	-85.2	-88.6	2.9	1.56e+00	0	47	104	0	60	1048573
2026-01-17 07:35:22.74	113.48	36.85	-85.2	-88.6	2.9	1.55e+00	0	47	104	0	60	1048574
2026-01-17 07:35:23.75	113.27	37.06	-85.2	-88.6	3.0	1.55e+00	0	47	104	0	60	1048575
2026-01-17 07:35:24.75	113.06	37.27	-85.2	-88.6	2.9	1.56e+00	0	47	104	0	60	1048574
2026-01-17 07:35:25.76	112.84	37.48	-83.9	-88.6	2.8	1.56e+00	0	47	104	0	60	1048575
2026-01-17 07:35:26.77	112.62	37.70	-85.2	-88.6	2.8	1.56e+00	0	47	104	0	60	1048574
2026-01-17 07:35:27.77	112.39	37.91	-85.2	-88.6	2.8	1.56e+00	0	47	104	0	60	1048574
2026-01-17 07:35:28.78	112.17	38.12	-85.2	-88.6	2.7	1.55e+00	0	47	104	0	60	1048575
2026-01-17 07:35:29.78	111.94	38.34	-85.2	-88.6	2.9	1.56e+00	0	47	104	0	60	1048573
2026-01-17 07:35:30.79	111.70	38.55	-85.2	-88.6	2.9	1.56e+00	0	47	104	0	60	1048575
2026-01-17 07:35:31.80	111.47	38.77	-85.2	-88.6	3.0	1.56e+00	0	47	104	0	60	1048571
2026-01-17 07:35:32.81	111.23	38.99	-85.2	-88.6	3.0	1.56e+00	0	47	104	0	60	1048575
2026-01-17 07:35:33.81	110.99	39.20	-85.2	-88.6	3.0	1.56e+00	0	47	104	0	60	1048575
2026-01-17 07:35:34.82	110.74	39.42	-85.2	-88.6	3.0	1.56e+00	0	47	104	0	60	1048573
2026-01-17 07:35:35.83	110.49	39.64	-85.2	-88.6	3.0	1.56e+00	0	47	104	0	60	1048569
2026-01-17 07:35:36.84	110.24	39.87	-85.2	-88.6	2.8	1.55e+00	0	47	104	0	60	1048575
2026-01-17 07:35:37.84	109.98	40.09	-85.2	-88.6	2.9	1.56e+00	0	47	104	0	60	1048572
2026-01-17 07:35:38.85	109.72	40.31	-85.2	-88.6	3.2	1.56e+00	0	47	104	0	60	1048575
2026-01-17 07:35:39.85	109.46	40.53	-85.2	-88.6	2.9	1.56e+00	0	47	104	0	60	1048575
2026-01-17 07:35:40.86	109.19	40.75	-85.2	-88.6	3.0	1.55e+00	0	47	104	0	60	1048574
2026-01-17 07:35:41.86	108.93	40.98	-85.2	-88.6	2.8	1.56e+00	0	47	104	0	60	1048574
2026-01-17 07:35:42.87	108.65	41.20	-85.2	-88.6	3.1	1.56e+00	0	47	104	0	60	1048574
2026-01-17 07:35:43.87	108.37	41.42	-85.2	-88.6	3.0	1.56e+00	0	47	104	0	60	1048575
2026-01-17 07:35:44.88	108.09	41.65	-85.2	-88.6	2.8	1.55e+00	0	47	104	0	60	1048575
2026-01-17 07:35:45.89	107.80	41.88	-85.2	-88.6	3.1	1.56e+00	0	47	104	0	60	1048575
2026-01-17 07:35:46.90	107.51	42.11	-85.2	-88.6	3.0	1.55e+00	0	47	104	0	60	1048575
2026-01-17 07:35:47.91	107.22	42.33	-85.2	-88.6	3.2	1.56e+00	0	47	104	0	60	1048575
2026-01-17 07:35:48.91	106.92	42.56	-85.2	-88.6	3.1	1.55e+00	0	47	104	0	60	1048574
2026-01-17 07:35:49.92	106.62	42.79	-85.2	-88.6	3.0	1.56e+00	0	47	104	0	60	1048573
2026-01-17 07:35:50.93	106.31	43.02	-85.2	-88.6	2.9	1.56e+00	0	47	104	0	60	1048575
2026-01-17 07:35:51.94	106.00	43.25	-85.2	-88.6	2.9	1.56e+00	0	47	104	0	60	1048574
2026-01-17 07:35:52.95	105.68	43.48	-85.2	-88.6	2.9	1.55e+00	0	47	104	0	60	1048574
2026-01-17 07:35:53.95	105.36	43.71	-85.2	-88.6	3.0	1.56e+00	0	47	104	0	60	1048572
2026-01-17 07:35:54.96	105.03	43.94	-85.2	-88.6	3.1	1.56e+00	0	47	104	0	60	1048574
2026-01-17 07:35:55.97	104.70	44.17	-85.2	-88.6	3.0	1.56e+00	0	47	104	0	60	1048574
2026-01-17 07:35:56.98	104.36	44.40	-85.2	-88.6	3.1	1.56e+00	0	47	104	0	60	1048574
2026-01-17 07:35:57.99	104.02	44.64	-85.2	-88.6	3.0	1.56e+00	0	47	104	0	60	1048575
2026-01-17 07:35:58.99	103.68	44.87	-85.2	-88.6	3.0	1.55e+00	0	47	104	0	60	1048574
2026-01-17 07:35:59.99	103.33	45.10	-85.2	-88.6	3.0	1.55e+00	0	47	104	0	60	1048575
2026-01-17 07:36:01.00	102.98	45.33	-85.2	-88.6	3.1	1.56e+00	0	47	104	0	60	1048575
2026-01-17 07:36:01.99	102.62	45.56	-85.2	-88.6	3.0	1.56e+00	0	47	104	0	60	1048575
2026-01-17 07:36:03.00	102.25	45.79	-85.2	-88.6	2.9	1.56e+00	0	47	104	0	60	1048575
2026-01-17 07:36:04.01	101.88	46.02	-85.2	-88.6	3.2	1.56e+00	0	47	104	0	60	1048575
2026-01-17 07:36:05.02	101.50	46.26	-85.2	-88.6	3.0	1.55e+00	0	47	104	0	60	1048575
2026-01-17 07:36:06.03	101.12	46.49	-85.2	-88.6	3.1	1.55e+00	0	47	104	0	60	1048573
2026-01-17 07:36:07.03	100.73	46.72	-85.2	-88.6	2.9	1.56e+00	0	47	104	0	60	1048575
2026-01-17 07:36:08.04	100.34	46.95	-85.2	-88.6	2.9	1.55e+00	0	47	104	0	60	1048574
2026-01-17 07:36:09.05	99.94	47.18	-85.2	-88.6	3.0	1.56e+00	0	47	104	0	60	1048575
2026-01-17 07:36:10.06	99.53	47.42	-85.2	-88.6	3.1	1.56e+00	0	47	104	0	60	1048575
2026-01-17 07:36:11.07	99.11	47.65	-85.2	-88.6	3.1	1.56e+00	0	47	104	0	60	1048575
2026-01-17 07:36:12.08	98.69	47.88	-85.2	-88.6	3.0	1.56e+00	0	47	104	0	60	1048570
2026-01-17 07:36:13.08	98.27	48.11	-85.2	-88.6	3.1	1.56e+00	0	47	104	0	60	1048574
2026-01-17 07:36:14.09	97.84	48.34	-85.2	-88.6	3.0	1.55e+00	0	47	104	0	60	1048575
2026-01-17 07:36:15.10	97.40	48.57	-85.2	-88.6	3.2	1.56e+00	0	47	104	0	60	1048575
2026-01-17 07:36:16.11	96.95	48.80	-85.2	-88.6	3.1	1.56e+00	0	47	104	0	60	1048572
2026-01-17 07:36:17.11	96.51	49.02	-84.7	-88.6	2.9	1.56e+00	0	47	104	0	60	1048571
2026-01-17 07:36:18.11	96.05	49.25	-85.2	-88.6	3.0	1.56e+00	0	47	104	0	60	1048575
2026-01-17 07:36:19.12	95.58	49.47	-85.2	-88.6	2.9	1.56e+00	0	47	104	0	60	1048574
2026-01-17 07:36:20.12	95.12	49.70	-85.2	-88.6	3.1	1.56e+00	0	47	104	0	60	1048575
2026-01-17 07:36:21.13	94.64	49.92	-85.2	-88.6	2.8	1.56e+00	0	47	104	0	60	1048575
2026-01-17 07:36:22.14	94.15	50.14	-85.2	-88.6	3.0	1.55e+00	0	47	104	0	60	1048575
2026-01-17 07:36:23.15	93.65	50.37	-85.2	-88.6	2.9	1.55e+00	0	47	104	0	60	1048575
2026-01-17 07:36:24.15	93.16	50.58	-85.2	-88.6	2.9	1.55e+00	0	47	104	0	60	1048575
2026-01-17 07:36:25.16	92.65	50.80	-85.2	-88.6	3.2	1.56e+00	0	47	104	0	60	1048575
2026-01-17 07:36:26.17	92.13	51.02	-85.2	-88.6	3.2	1.55e+00	0	47	104	0	60	1048575
2026-01-17 07:36:27.18	91.61	51.24	-85.2	-88.6	2.7	1.56e+00	0	47	104	0	60	1048575
2026-01-17 07:36:28.19	91.08	51.45	-85.2	-88.6	3.1	1.56e+00	0	47	104	0	60	1048574
2026-01-17 07:36:29.19	90.54	51.67	-85.2	-88.6	2.9	1.56e+00	0	47	104	0	60	1048575
2026-01-17 07:36:30.20	89.99	51.88	-85.2	-88.6	3.1	1.56e+00	0	47	104	0	60	1048574
2026-01-17 07:36:31.20	89.44	52.09	-85.2	-88.6	3.1	1.56e+00	0	47	104	0	60	1048575
2026-01-17 07:36:32.21	88.88	52.29	-85.2	-88.6	3.0	1.56e+00	0	47	104	0	60	1048575
2026-01-17 07:36:33.22	88.31	52.50	-85.2	-88.6	2.9	1.56e+00	0	47	104	0	60	1048573
2026-01-17 07:36:34.23	87.73	52.70	-85.2	-88.6	3.3	1.56e+00	0	47	104	0	60	1048575
2026-01-17 07:36:35.23	87.15	52.90	-85.2	-88.6	2.9	1.56e+00	0	47	104	0	60	1048573
2026-01-17 07:36:36.24	86.56	53.10	-85.2	-88.6	2.9	1.55e+00	0	47	104	0	60	1048574
2026-01-17 07:36:37.25	85.95	53.30	-85.2	-88.6	3.0	1.56e+00	0	47	104	0	60	1048575
2026-01-17 07:36:38.25	85.35	53.49	-85.2	-88.6	3.0	1.56e+00	0	47	104	0	60	1048575
2026-01-17 07:36:39.26	84.73	53.68	-85.2	-88.6	3.1	1.56e+00	0	47	104	0	60	1048575
2026-01-17 07:36:40.27	84.10	53.87	-85.2	-88.6	3.1	1.56e+00	0	47	104	0	60	1048569
2026-01-17 07:36:41.27	83.47	54.06	-85.2	-88.6	3.1	1.55e+00	0	47	104	0	60	1048572
2026-01-17 07:36:42.28	82.83	54.24	-85.2	-88.6	2.9	1.56e+00	0	47	104	0	60	1048572
2026-01-17 07:36:43.28	82.18	54.42	-85.2	-88.6	3.0	1.56e+00	0	47	104	0	60	1048574
2026-01-17 07:36:44.29	81.52	54.59	-85.2	-88.6	3.1	1.56e+00	0	47	104	0	60	1048575
2026-01-17 07:36:45.30	80.85	54.77	-85.2	-88.6	2.9	1.56e+00	0	47	104	0	60	1048575
2026-01-17 07:36:46.31	80.17	54.94	-85.2	-88.6	3.1	1.55e+00	0	47	104	0	60	1048575
2026-01-17 07:36:47.31	79.50	55.10	-85.2	-88.6	3.0	1.56e+00	0	47	104	0	60	1048574
2026-01-17 07:36:48.32	78.80	55.27	-85.2	-88.6	3.1	1.56e+00	0	47	104	0	60	1048572
2026-01-17 07:36:49.32	78.11	55.42	-85.2	-88.6	3.0	1.56e+00	0	47	104	0	60	1048573
2026-01-17 07:36:50.33	77.40	55.58	-85.2	-88.6	3.0	1.56e+00	0	47	104	0	60	1048575
2026-01-17 07:36:51.34	76.68	55.73	-85.2	-88.6	3.1	1.56e+00	0	47	104	0	60	1048574
2026-01-17 07:36:52.34	75.97	55.88	-85.2	-88.6	3.1	1.56e+00	0	47	104	0	60	1048575
2026-01-17 07:36:53.34	75.24	56.02	-85.2	-88.6	2.7	1.56e+00	0	47	104	0	60	1048573
2026-01-17 07:36:54.35	74.50	56.16	-85.2	-88.6	3.1	1.56e+00	0	47	104	0	60	1048574
2026-01-17 07:36:55.36	73.76	56.29	-85.2	-88.6	3.1	1.56e+00	0	47	104	0	60	1048574
2026-01-17 07:36:56.37	73.00	56.43	-85.2	-88.6	3.0	1.56e+00	0	47	104	0	60	1048575
2026-01-17 07:36:57.38	72.24	56.55	-85.2	-88.6	2.8	1.56e+00	0	47	104	0	60	1048575
2026-01-17 07:36:58.39	71.48	56.67	-85.2	-88.6	3.2	1.56e+00	0	47	104	0	60	1048570
2026-01-17 07:36:59.39	70.71	56.79	-85.2	-88.6	2.9	1.56e+00	0	47	104	0	60	1048575
2026-01-17 07:37:00.40	69.93	56.90	-85.2	-88.6	3.0	1.55e+00	0	47	104	0	60	1048575
2026-01-17 07:37:01.41	69.14	57.01	-85.2	-88.6	2.8	1.56e+00	0	47	104	0	60	1048574
2026-01-17 07:37:02.41	68.36	57.11	-85.2	-88.6	3.1	1.55e+00	0	47	104	0	60	1048575
2026-01-17 07:37:03.42	67.56	57.20	-85.2	-88.6	2.8	1.56e+00	0	47	104	0	60	1048575
2026-01-17 07:37:04.43	66.75	57.30	-85.2	-88.6	3.1	1.56e+00	0	47	104	0	60	1048575
2026-01-17 07:37:05.43	65.95	57.38	-85.2	-88.6	2.9	1.56e+00	0	47	104	0	60	1048572
2026-01-17 07:37:06.44	65.14	57.46	-85.2	-88.6	2.9	1.56e+00	0	47	104	0	60	1048574
2026-01-17 07:37:07.45	64.32	57.54	-85.2	-88.6	2.8	1.56e+00	0	47	104	0	60	1048574
2026-01-17 07:37:08.45	63.51	57.61	-83.9	-88.6	3.1	1.56e+00	0	47	104	0	60	1048573
2026-01-17 07:37:09.46	62.68	57.67	-85.2	-88.6	2.9	1.56e+00	0	47	104	0	60	1048575
2026-01-17 07:37:10.47	61.85	57.73	-85.2	-88.6	2.8	1.56e+00	0	47	104	0	60	1048573
2026-01-17 07:37:11.47	61.02	57.78	-85.2	-88.6	3.0	1.56e+00	0	47	104	0	60	1048574
2026-01-17 07:37:12.48	60.18	57.83	-85.2	-88.6	3.1	1.56e+00	0	47	104	0	60	1048575
2026-01-17 07:37:13.49	59.34	57.87	-85.2	-88.6	2.8	1.55e+00	0	47	104	0	60	1048575
2026-01-17 07:37:14.49	58.51	57.91	-85.2	-88.6	3.1	1.55e+00	0	47	104	0	60	1048575
2026-01-17 07:37:15.50	57.66	57.94	-84.7	-88.6	3.2	1.56e+00	0	47	104	0	60	1048574
2026-01-17 07:37:16.51	56.82	57.96	-85.2	-88.6	3.0	1.55e+00	0	47	104	0	60	1048575
2026-01-17 07:37:17.52	55.97	57.98	-85.2	-88.6	3.0	1.55e+00	0	47	104	0	60	1048575
2026-01-17 07:37:18.52	55.13	57.99	-85.2	-88.6	2.9	1.55e+00	0	47	104	0	60	1048572
2026-01-17 07:37:19.53	54.28	58.00	-85.2	-88.6	3.0	1.56e+00	0	47	104	0	60	1048575
2026-01-17 07:37:20.53	53.44	58.00	-85.2	-88.6	3.0	1.56e+00	0	47	104	0	60	1048575
2026-01-17 07:37:21.54	52.59	57.99	-85.2	-88.6	3.1	1.56e+00	0	47	104	0	60	1048575
2026-01-17 07:37:22.55	51.74	57.98	-84.7	-88.6	2.9	1.56e+00	0	47	104	0	60	1048575
2026-01-17 07:37:23.55	50.90	57.96	-85.2	-88.6	2.9	1.56e+00	0	47	104	0	60	1048575
2026-01-17 07:37:24.56	50.05	57.94	-85.2	-88.6	3.0	1.55e+00	0	47	104	0	60	1048574
2026-01-17 07:37:25.56	49.22	57.91	-85.2	-88.6	2.8	1.56e+00	0	47	104	0	60	1048573
2026-01-17 07:37:26.56	48.38	57.88	-85.2	-88.6	2.8	1.56e+00	0	47	104	0	60	1048575
2026-01-17 07:37:27.57	47.54	57.84	-85.2	-88.6	2.9	1.55e+00	0	47	104	0	60	1048575
2026-01-17 07:37:28.58	46.70	57.79	-85.2	-88.6	3.1	1.56e+00	0	47	104	0	60	1048575
2026-01-17 07:37:29.59	45.87	57.74	-85.2	-88.6	2.7	1.55e+00	0	47	104	0	60	1048573
2026-01-17 07:37:30.59	45.05	57.68	-85.2	-88.6	2.9	1.55e+00	0	47	104	0	60	1048575
2026-01-17 07:37:31.60	44.22	57.62	-85.2	-88.6	3.1	1.55e+00	0	47	104	0	60	1048574
2026-01-17 07:37:32.61	43.40	57.55	-85.2	-88.6	3.2	1.55e+00	0	47	104	0	60	1048575
2026-01-17 07:37:33.61	42.58	57.47	-85.2	-88.6	2.9	1.56e+00	0	47	104	0	60	1048575
2026-01-17 07:37:34.62	41.77	57.39	-85.2	-88.6	2.8	1.56e+00	0	47	104	0	60	1048572
2026-01-17 07:37:35.63	40.96	57.31	-85.2	-88.6	3.1	1.56e+00	0	47	104	0	60	1048575
2026-01-17 07:37:36.63	40.16	57.22	-85.2	-88.6	2.9	1.55e+00	0	47	104	0	60	1048574
2026-01-17 07:37:37.63	39.37	57.12	-85.2	-88.6	2.9	1.56e+00	0	47	104	0	60	1048575
2026-01-17 07:37:38.64	38.58	57.02	-85.2	-88.6	2.9	1.56e+00	0	47	104	0	60	1048570
2026-01-17 07:37:39.64	37.80	56.92	-85.2	-88.6	3.2	1.56e+00	0	47	104	0	60	1048572
2026-01-17 07:37:40.65	37.02	56.81	-85.2	-88.6	2.9	1.56e+00	0	47	104	0	60	1048575
2026-01-17 07:37:41.65	36.25	56.69	-85.2	-88.6	3.0	1.56e+00	0	47	104	0	60	1048575
2026-01-17 07:37:42.65	35.49	56.57	-85.2	-88.6	3.0	1.55e+00	0	47	104	0	60	1048574
2026-01-17 07:37:43.66	34.73	56.45	-85.2	-88.6	3.0	1.55e+00	0	47	104	0	60	1048575
2026-01-17 07:37:44.66	33.98	56.32	-85.2	-88.6	3.0	1.56e+00	0	47	104	0	60	1048575
2026-01-17 07:37:45.67	33.24	56.19	-85.2	-88.6	2.9	1.56e+00	0	47	104	0	60	1048575
2026-01-17 07:37:46.67	32.51	56.05	-85.2	-88.6	2.8	1.56e+00	0	47	104	0	60	1048574
2026-01-17 07:37:47.68	31.77	55.91	-85.2	-88.6	2.9	1.55e+00	0	47	104	0	60	1048575
2026-01-17 07:37:48.69	31.05	55.76	-85.2	-88.6	3.0	1.55e+00	0	47	104	0	60	1048572
2026-01-17 07:37:49.70	30.33	55.61	-85.2	-88.6	3.1	1.56e+00	0	47	104	0	60	1048575
2026-01-17 07:37:50.71	29.62	55.46	-85.2	-88.6	3.1	1.56e+00	0	47	104	0	60	1048574
2026-01-17 07:37:51.71	28.93	55.30	-85.2	-88.6	3.0	1.56e+00	0	47	104	0	60	1048573
2026-01-17 07:37:52.72	28.23	55.14	-85.2	-88.6	2.8	1.55e+00	0	47	104	0	60	1048573
2026-01-17 07:37:53.73	27.55	54.97	-85.2	-88.6	3.0	1.55e+00	0	47	104	0	60	1048571
2026-01-17 07:37:54.73	26.88	54.80	-83.9	-88.6	3.1	1.56e+00	0	47	104	0	60	1048575
2026-01-17 07:37:55.74	26.21	54.63	-85.2	-88.6	2.9	1.56e+00	0	47	104	0	60	1048575
2026-01-17 07:37:56.75	25.55	54.45	-85.2	-88.6	3.0	1.56e+00	0	47	104	0	60	1048574
2026-01-17 07:37:57.75	24.90	54.28	-85.2	-88.6	3.0	1.56e+00	0	47	104	0	60	1048573
2026-01-17 07:37:58.76	24.26	54.10	-85.2	-88.6	2.8	1.55e+00	0	47	104	0	60	1048574
2026-01-17 07:37:59.77	23.62	53.91	-85.2	-88.6	3.0	1.56e+00	0	47	104	0	60	1048575
2026-01-17 07:38:00.78	22.99	53.72	-84.3	-88.6	2.8	1.56e+00	0	47	104	0	60	1048574
2026-01-17 07:38:01.79	22.37	53.53	-85.2	-88.6	3.1	1.56e+00	0	47	104	0	60	1048574
2026-01-17 07:38:02.79	21.77	53.34	-85.2	-88.6	3.0	1.56e+00	0	47	104	0	60	1048575
2026-01-17 07:38:03.80	21.16	53.14	-85.2	-88.6	2.8	1.55e+00	0	47	104	0	60	1048575
2026-01-17 07:38:04.81	20.57	52.95	-85.2	-88.6	2.9	1.56e+00	0	47	104	0	60	1048575
2026-01-17 07:38:05.82	19.98	52.74	-85.2	-88.6	3.0	1.56e+00	0	47	104	0	60	1048573
2026-01-17 07:38:06.83	19.40	52.54	-85.2	-88.6	3.1	1.56e+00	0	47	104	0	60	1048575
2026-01-17 07:38:07.83	18.83	52.34	-85.2	-88.6	2.8	1.56e+00	0	47	104	0	60	1048575
2026-01-17 07:38:08.84	18.27	52.13	-85.2	-88.6	3.0	1.56e+00	0	47	104	0	60	1048575
2026-01-17 07:38:09.85	17.71	51.92	-85.2	-88.6	2.9	1.55e+00	0	47	104	0	60	1048573
2026-01-17 07:38:10.86	17.17	51.71	-85.2	-88.6	3.0	1.56e+00	0	47	104	0	60	1048575
2026-01-17 07:38:11.86	16.63	51.50	-85.2	-88.6	3.1	1.56e+00	0	47	104	0	60	1048573
2026-01-17 07:38:12.87	16.10	51.29	-85.2	-88.6	3.1	1.56e+00	0	47	104	0	60	1048574
2026-01-17 07:38:13.88	15.58	51.07	-85.2	-88.6	3.1	1.56e+00	0	47	104	0	60	1048574
2026-01-17 07:38:14.88	15.06	50.85	-84.3	-88.6	3.0	1.56e+00	0	47	104	0	60	1048575
2026-01-17 07:38:15.89	14.55	50.64	-85.2	-88.6	3.0	1.56e+00	0	47	104	0	60	1048575
2026-01-17 07:38:16.90	14.05	50.42	-85.2	-88.6	3.1	1.56e+00	0	47	104	0	60	1048571
2026-01-17 07:38:17.90	13.56	50.20	-85.2	-88.6	3.1	1.56e+00	0	47	104	0	60	1048575
2026-01-17 07:38:18.91	13.07	49.97	-85.2	-88.6	2.8	1.55e+00	0	47	104	0	60	1048573
2026-01-17 07:38:19.92	12.59	49.75	-85.2	-88.6	3.1	1.55e+00	0	47	104	0	60	1048575
2026-01-17 07:38:20.93	12.12	49.53	-85.2	-88.6	2.9	1.56e+00	0	47	104	0	60	1048575
2026-01-17 07:38:21.94	11.65	49.30	-85.2	-88.6	2.9	1.56e+00	0	47	104	0	60	1048573
2026-01-17 07:38:22.95	11.19	49.07	-85.2	-88.6	2.8	1.56e+00	0	47	104	0	60	1048573
2026-01-17 07:38:23.95	10.75	48.85	-85.2	-88.6	3.0	1.55e+00	0	47	104	0	60	1048575
2026-01-17 07:38:24.96	10.30	48.62	-85.2	-88.6	2.8	1.55e+00	0	47	104	0	60	1048575
2026-01-17 07:38:25.97	9.86	48.39	-85.2	-88.6	2.8	1.55e+00	0	47	104	0	60	1048575
2026-01-17 07:38:26.97	9.43	48.16	-85.2	-88.6	3.0	1.55e+00	0	47	104	0	60	1048574
2026-01-17 07:38:27.98	9.01	47.93	-85.2	-88.6	3.0	1.55e+00	0	47	104	0	60	1048575
2026-01-17 07:38:28.99	8.58	47.70	-85.2	-88.6	2.9	1.56e+00	0	47	104	0	60	1048575
2026-01-17 07:38:29.99	8.17	47.48	-85.2	-88.6	2.9	1.55e+00	0	47	104	0	60	1048575
2026-01-17 07:38:31.00	7.77	47.24	-85.2	-88.6	3.0	1.55e+00	0	47	104	0	60	1048574
2026-01-17 07:38:32.01	7.37	47.01	-85.2	-88.6	3.1	1.55e+00	0	47	104	0	60	1048575
2026-01-17 07:38:33.02	6.97	46.78	-85.2	-88.6	3.0	1.56e+00	0	47	104	0	60	1048575
2026-01-17 07:38:34.02	6.58	46.55	-85.2	-88.6	3.0	1.56e+00	0	47	104	0	60	1048571
2026-01-17 07:38:35.03	6.20	46.32	-85.2	-88.6	3.0	1.56e+00	0	47	104	0	60	1048572
2026-01-17 07:38:36.04	5.82	46.09	-84.3	-88.6	3.2	1.56e+00	0	47	104	0	60	1048575
2026-01-17 07:38:37.04	5.45	45.86	-85.2	-88.6	2.9	1.56e+00	0	47	104	0	60	1048573
2026-01-17 07:38:38.05	5.08	45.63	-85.2	-88.6	3.1	1.56e+00	0	47	104	0	60	1048573
2026-01-17 07:38:39.06	4.72	45.39	-85.2	-88.6	3.0	1.55e+00	0	47	104	0	60	1048574
2026-01-17 07:38:40.06	4.37	45.16	-85.2	-88.6	3.0	1.56e+00	0	47	104	0	60	1048571
2026-01-17 07:38:41.07	4.02	44.93	-85.2	-88.6	3.0	1.55e+00	0	47	104	0	60	1048573
2026-01-17 07:38:42.08	3.67	44.70	-85.2	-88.6	2.8	1.56e+00	0	47	104	0	60	1048573
2026-01-17 07:38:43.09	3.33	44.47	-85.2	-88.6	2.9	1.56e+00	0	47	104	0	60	1048572
2026-01-17 07:38:44.09	2.99	44.24	-85.2	-88.6	3.1	1.56e+00	0	47	104	0	60	1048575
2026-01-17 07:38:45.10	2.66	44.01	-85.2	-88.6	2.8	1.56e+00	0	47	104	0	60	1048575
2026-01-17 07:38:46.11	2.34	43.78	-85.2	-88.6	2.8	1.56e+00	0	47	104	0	60	1048569
2026-01-17 07:38:47.12	2.01	43.55	-85.2	-88.6	2.9	1.56e+00	0	47	104	0	60	1048575
2026-01-17 07:38:48.13	1.70	43.32	-85.2	-88.6	3.0	1.55e+00	0	47	104	0	60	1048574
2026-01-17 07:38:49.14	1.38	43.09	-85.2	-88.6	3.1	1.56e+00	0	47	104	0	60	1048573
2026-01-17 07:38:50.14	1.08	42.86	-85.2	-88.6	2.9	1.56e+00	0	47	104	0	60	1048575
2026-01-17 07:38:51.15	0.77	42.63	-85.2	-88.6	3.1	1.56e+00	0	47	104	0	60	1048572
2026-01-17 07:38:52.15	0.48	42.41	-85.2	-88.6	2.9	1.55e+00	0	47	104	0	60	1048575
2026-01-17 07:38:53.16	0.18	42.18	-85.2	-88.6	3.0	1.56e+00	0	47	104	0	60	1048572
2026-01-17 07:38:54.17	359.89	41.95	-85.2	-88.6	3.0	1.56e+00	0	47	104	0	60	1048575
2026-01-17 07:38:55.18	359.60	41.73	-84.3	-88.6	3.0	1.55e+00	0	47	104	0	60	1048575
2026-01-17 07:38:56.19	359.32	41.50	-85.2	-88.6	2.9	1.56e+00	0	47	104	0	60	1048573
2026-01-17 07:38:57.19	359.04	41.28	-85.2	-88.6	2.9	1.56e+00	0	47	104	0	60	1048573
2026-01-17 07:38:58.20	358.77	41.05	-85.2	-88.6	2.9	1.55e+00	0	47	104	0	60	1048575
2026-01-17 07:38:59.21	358.50	40.83	-85.2	-88.6	3.1	1.56e+00	0	47	104	0	60	1048575
2026-01-17 07:39:00.22	358.23	40.60	-84.3	-88.6	2.9	1.55e+00	0	47	104	0	60	1048575
2026-01-17 07:39:01.23	357.97	40.38	-85.2	-88.6	3.0	1.56e+00	0	47	104	0	60	1048573
2026-01-17 07:39:02.23	357.71	40.16	-85.2	-88.6	3.0	1.56e+00	0	47	104	0	60	1048574
2026-01-17 07:39:03.23	357.45	39.94	-85.2	-88.6	2.9	1.56e+00	0	47	104	0	60	1048575
2026-01-17 07:39:04.24	357.20	39.72	-85.2	-88.6	2.9	1.56e+00	0	47	104	0	60	1048574
2026-01-17 07:39:05.25	356.95	39.50	-85.2	-88.6	3.0	1.56e+00	0	47	104	0	60	1048574
2026-01-17 07:39:06.25	356.71	39.28	-85.2	-88.6	2.8	1.55e+00	0	47	104	0	60	1048574
2026-01-17 07:39:07.25	356.47	39.07	-85.2	-88.6	2.8	1.56e+00	0	47	104	0	60	1048575
2026-01-17 07:39:08.26	356.23	38.85	-85.2	-88.6	3.0	1.56e+00	0	47	104	0	60	1048575
2026-01-17 07:39:09.27	355.99	38.63	-85.2	-88.6	3.0	1.56e+00	0	47	104	0	60	1048571
2026-01-17 07:39:10.27	355.76	38.42	-85.2	-88.6	3.2	1.55e+00	0	47	104	0	60	1048575
2026-01-17 07:39:11.27	355.53	38.21	-85.2	-88.6	2.7	1.56e+00	0	47	104	0	60	1048574
2026-01-17 07:39:12.28	355.30	37.99	-85.2	-88.6	2.9	1.56e+00	0	47	104	0	60	1048574
2026-01-17 07:39:13.29	355.08	37.78	-85.2	-88.6	3.0	1.56e+00	0	47	104	0	60	1048575
2026-01-17 07:39:14.29	354.86	37.57	-85.2	-88.6	3.1	1.56e+00	0	47	104	0	60	1048573
2026-01-17 07:39:15.30	354.64	37.36	-84.3	-88.6	3.0	1.55e+00	0	47	104	0	60	1048575
2026-01-17 07:39:16.31	354.43	37.15	-85.2	-88.6	3.0	1.56e+00	0	47	104	0	60	1048575
2026-01-17 07:39:17.31	354.22	36.94	-85.2	-88.6	3.3	1.55e+00	0	47	104	0	60	1048574
2026-01-17 07:39:18.32	354.01	36.73	-85.2	-88.6	3.0	1.55e+00	0	47	104	0	60	1048565
2026-01-17 07:39:19.32	353.80	36.52	-85.2	-88.6	2.8	1.56e+00	0	47	104	0	60	1048574
2026-01-17 07:39:20.33	353.60	36.32	-85.2	-88.6	2.9	1.56e+00	0	47	104	0	60	1048574
2026-01-17 07:39:21.34	353.39	36.11	-85.2	-88.6	2.8	1.56e+00	0	47	104	0	60	1048575
2026-01-17 07:39:22.35	353.19	35.90	-85.2	-88.6	3.0	1.55e+00	0	47	104	0	60	1048575
2026-01-17 07:39:23.35	353.00	35.70	-85.2	-88.6	2.9	1.56e+00	0	47	104	0	60	1048575
2026-01-17 07:39:24.35	352.81	35.50	-85.2	-88.6	3.0	1.56e+00	0	47	104	0	60	1048575
2026-01-17 07:39:25.36	352.61	35.30	-84.3	-88.6	2.9	1.56e+00	0	47	104	0	60	1048575
2026-01-17 07:39:26.36	352.43	35.10	-85.2	-88.6	2.9	1.55e+00	0	47	104	0	60	1048575
2026-01-17 07:39:27.37	352.24	34.90	-85.2	-88.6	3.0	1.56e+00	0	47	104	0	60	1048575
2026-01-17 07:39:28.38	352.05	34.70	-85.2	-88.6	3.1	1.56e+00	0	47	104	0	60	1048575
2026-01-17 07:39:29.39	351.87	34.50	-85.2	-88.6	3.0	1.56e+00	0	47	104	0	60	1048575
2026-01-17 07:39:30.39	351.69	34.30	-85.2	-88.6	3.0	1.56e+00	0	47	104	0	60	1048575
2026-01-17 07:39:31.40	351.51	34.11	-85.2	-88.6	3.0	1.56e+00	0	47	104	0	60	1048575
2026-01-17 07:39:32.41	351.34	33.91	-85.2	-88.6	3.0	1.56e+00	0	47	104	0	60	1048574
2026-01-17 07:39:33.42	351.16	33.71	-84.7	-88.6	2.8	1.56e+00	0	47	104	0	60	1048574
2026-01-17 07:39:34.43	350.99	33.52	-85.2	-88.6	2.7	1.56e+00	0	47	104	0	60	1048575
2026-01-17 07:39:35.43	350.82	33.33	-85.2	-88.6	2.9	1.56e+00	0	47	104	0	60	1048575
2026-01-17 07:39:36.44	350.66	33.14	-85.2	-88.6	3.1	1.55e+00	0	47	104	0	60	1048574
2026-01-17 07:39:37.45	350.49	32.94	-85.2	-88.6	3.0	1.56e+00	0	47	104	0	60	1048574
2026-01-17 07:39:38.45	350.33	32.76	-85.2	-88.6	2.9	1.55e+00	0	47	104	0	60	1048575
2026-01-17 07:39:39.46	350.17	32.57	-85.2	-88.6	2.9	1.56e+00	0	47	104	0	60	1048575
2026-01-17 07:39:40.46	350.01	32.38	-85.2	-88.6	3.0	1.56e+00	0	47	104	0	60	1048575
2026-01-17 07:39:41.47	349.85	32.19	-85.2	-88.6	3.1	1.56e+00	0	47	104	0	60	1048575
2026-01-17 07:39:42.48	349.69	32.00	-85.2	-88.6	2.9	1.56e+00	0	47	104	0	60	1048575
2026-01-17 07:39:43.49	349.54	31.82	-85.2	-88.6	2.9	1.56e+00	0	47	104	0	60	1048574
2026-01-17 07:39:44.49	349.39	31.63	-85.2	-88.6	2.9	1.56e+00	0	47	104	0	60	1048574
2026-01-17 07:39:45.50	349.24	31.45	-85.2	-88.6	3.0	1.56e+00	0	47	104	0	60	1048574
2026-01-17 07:39:46.51	349.09	31.27	-85.2	-88.6	3.2	1.55e+00	0	47	104	0	60	1048574
2026-01-17 07:39:47.51	348.94	31.09	-85.2	-88.6	2.9	1.56e+00	0	47	104	0	60	1048574
2026-01-17 07:39:48.51	348.80	30.91	-85.2	-88.6	3.0	1.56e+00	0	47	104	0	60	1048573
2026-01-17 07:39:49.52	348.66	30.73	-85.2	-88.6	2.7	1.55e+00	0	47	104	0	60	1048575
2026-01-17 07:39:50.53	348.51	30.55	-85.2	-88.6	3.1	1.55e+00	0	47	104	0	60	1048574
2026-01-17 07:39:51.54	348.37	30.37	-85.2	-88.6	2.9	1.56e+00	0	47	104	0	60	1048575
2026-01-17 07:39:52.55	348.23	30.19	-85.2	-88.6	2.9	1.55e+00	0	47	104	0	60	1048574
2026-01-17 07:39:53.55	348.10	30.02	-85.2	-88.6	3.0	1.55e+00	0	47	104	0	60	1048575
2026-01-17 07:39:54.56	347.96	29.84	-85.2	-88.6	2.9	1.56e+00	0	47	104	0	60	1048572
2026-01-17 07:39:55.56	347.83	29.67	-85.2	-88.6	3.1	1.56e+00	0	47	104	0	60	1048575
2026-01-17 07:39:56.57	347.69	29.49	-85.2	-88.6	2.9	1.56e+00	0	47	104	0	60	1048575
2026-01-17 07:39:57.57	347.56	29.32	-85.2	-88.6	3.3	1.56e+00	0	47	104	0	60	1048575
2026-01-17 07:39:58.58	347.43	29.15	-85.2	-88.6	2.9	1.56e+00	0	47	104	0	60	1048575
2026-01-17 07:39:59.59	347.31	28.98	-85.2	-88.6	3.0	1.56e+00	0	47	104	0	60	1048573
2026-01-17 07:40:00.59	347.18	28.81	-85.2	-88.6	2.9	1.56e+00	0	47	104	0	60	1048568
2026-01-17 07:40:01.60	347.05	28.64	-85.2	-88.6	2.9	1.56e+00	0	47	104	0	60	1048574
2026-01-17 07:40:02.61	346.93	28.47	-85.2	-88.6	3.1	1.55e+00	0	47	104	0	60	1048575
2026-01-17 07:40:03.62	346.81	28.30	-85.2	-88.6	2.9	1.55e+00	0	47	104	0	60	1048575
2026-01-17 07:40:04.63	346.68	28.13	-85.2	-88.6	3.0	1.56e+00	0	47	104	0	60	1048571
2026-01-17 07:40:05.64	346.56	27.97	-85.2	-88.6	3.2	1.56e+00	0	47	104	0	60	1048575
2026-01-17 07:40:06.64	346.44	27.80	-85.2	-88.6	2.9	1.56e+00	0	47	104	0	60	1048574
2026-01-17 07:40:07.65	346.33	27.64	-85.2	-88.6	2.8	1.56e+00	0	47	104	0	60	1048575
2026-01-17 07:40:08.66	346.21	27.48	-85.2	-88.6	3.1	1.56e+00	0	47	104	0	60	1048574
2026-01-17 07:40:09.66	346.09	27.31	-85.2	-88.6	3.1	1.56e+00	0	47	104	0	60	1048575
2026-01-17 07:40:10.67	345.98	27.15	-85.2	-88.6	3.1	1.55e+00	0	47	104	0	60	1048575
2026-01-17 07:40:11.67	345.87	26.99	-85.2	-88.6	3.0	1.55e+00	0	47	104	0	60	1048572
2026-01-17 07:40:12.68	345.76	26.83	-85.2	-88.6	3.1	1.56e+00	0	47	104	0	60	1048574
2026-01-17 07:40:13.68	345.65	26.67	-85.2	-88.6	3.1	1.56e+00	0	47	104	0	60	1048575
2026-01-17 07:40:14.69	345.54	26.51	-85.2	-88.6	3.1	1.55e+00	0	47	104	0	60	1048575
2026-01-17 07:40:15.70	345.43	26.36	-85.2	-88.6	3.0	1.56e+00	0	47	104	0	60	1048575
2026-01-17 07:40:16.71	345.32	26.20	-85.2	-88.6	3.1	1.56e+00	0	47	104	0	60	1048575
2026-01-17 07:40:17.71	345.21	26.04	-85.2	-88.6	3.0	1.56e+00	0	47	104	0	60	1048572
2026-01-17 07:40:18.72	345.11	25.89	-85.2	-88.6	3.0	1.56e+00	0	47	104	0	60	1048574
2026-01-17 07:40:19.72	345.01	25.74	-85.2	-88.6	3.2	1.56e+00	0	47	104	0	60	1048574
2026-01-17 07:40:20.73	344.90	25.58	-85.2	-88.6	2.9	1.56e+00	0	47	104	0	60	1048572
2026-01-17 07:40:21.74	344.80	25.43	-85.2	-88.6	2.9	1.55e+00	0	47	104	0	60	1048575
2026-01-17 07:40:22.74	344.70	25.28	-85.2	-88.6	2.9	1.56e+00	0	47	104	0	60	1048575
2026-01-17 07:40:23.75	344.60	25.13	-85.2	-88.6	3.1	1.55e+00	0	47	104	0	60	1048573
2026-01-17 07:40:24.76	344.50	24.97	-85.2	-88.6	3.1	1.55e+00	0	47	104	0	60	1048575
2026-01-17 07:40:25.76	344.40	24.83	-85.2	-88.6	2.8	1.55e+00	0	47	104	0	60	1048574
2026-01-17 07:40:26.77	344.31	24.68	-85.2	-88.6	2.9	1.56e+00	0	47	104	0	60	1048574
2026-01-17 07:40:27.78	344.21	24.53	-85.2	-88.6	2.9	1.56e+00	0	47	104	0	60	1048575
2026-01-17 07:40:28.78	344.11	24.38	-85.2	-88.6	2.8	1.56e+00	0	47	104	0	60	1048574
2026-01-17 07:40:29.78	344.02	24.24	-85.2	-88.6	2.9	1.56e+00	0	47	104	0	60	1048575
2026-01-17 07:40:30.79	343.93	24.09	-85.2	-88.6	2.8	1.56e+00	0	47	104	0	60	1048575
2026-01-17 07:40:31.79	343.84	23.95	-85.2	-88.6	3.1	1.55e+00	0	47	104	0	60	1048575
2026-01-17 07:40:32.80	343.74	23.80	-85.2	-88.6	3.0	1.56e+00	0	47	104	0	60	1048575
2026-01-17 07:40:33.81	343.65	23.66	-85.2	-88.6	2.9	1.56e+00	0	47	104	0	60	1048575
2026-01-17 07:40:34.82	343.56	23.51	-85.2	-88.6	2.7	1.56e+00	0	47	104	0	60	1048575
2026-01-17 07:40:35.83	343.47	23.37	-85.2	-88.6	3.0	1.56e+00	0	47	104	0	60	1048574
2026-01-17 07:40:36.83	343.39	23.23	-85.2	-88.6	3.0	1.56e+00	0	47	104	0	60	1048575
2026-01-17 07:40:37.84	343.30	23.09	-85.2	-88.6	2.9	1.55e+00	0	47	104	0	60	1048575
2026-01-17 07:40:38.85	343.21	22.95	-85.2	-88.6	3.0	1.56e+00	0	47	104	0	60	1048574
2026-01-17 07:40:39.86	343.13	22.81	-85.2	-88.6	3.1	1.56e+00	0	47	104	0	60	1048575
2026-01-17 07:40:40.86	343.04	22.67	-85.2	-88.6	2.9	1.56e+00	0	47	104	0	60	1048570
2026-01-17 07:40:41.87	342.96	22.53	-85.2	-88.6	2.9	1.55e+00	0	47	104	0	60	1048575
2026-01-17 07:40:42.88	342.87	22.39	-85.2	-88.6	3.0	1.56e+00	0	47	104	0	60	1048574
2026-01-17 07:40:43.89	342.79	22.25	-85.2	-88.6	3.0	1.56e+00	0	47	104	0	60	1048574
2026-01-17 07:40:44.89	342.71	22.12	-85.2	-88.6	3.0	1.56e+00	0	47	104	0	60	1048572
2026-01-17 07:40:45.90	342.63	21.98	-85.2	-88.6	3.0	1.56e+00	0	47	104	0	60	1048572
2026-01-17 07:40:46.90	342.55	21.85	-85.2	-88.6	3.1	1.56e+00	0	47	104	0	60	1048575
2026-01-17 07:40:47.91	342.47	21.71	-85.2	-88.6	3.0	1.56e+00	0	47	104	0	60	1048574
2026-01-17 07:40:48.92	342.39	21.58	-85.2	-88.6	2.8	1.56e+00	0	47	104	0	60	1048572
2026-01-17 07:40:49.92	342.31	21.45	-85.2	-88.6	3.0	1.56e+00	0	47	104	0	60	1048574
2026-01-17 07:40:50.93	342.23	21.32	-85.2	-88.6	3.1	1.56e+00	0	47	104	0	60	1048575
2026-01-17 07:40:51.94	342.16	21.18	-85.2	-88.6	3.0	1.56e+00	0	47	104	0	60	1048573
2026-01-17 07:40:52.95	342.08	21.05	-85.2	-88.6	2.8	1.56e+00	0	47	104	0	60	1048574
2026-01-17 07:40:53.95	342.01	20.92	-85.2	-88.6	3.1	1.55e+00	0	47	104	0	60	1048575
2026-01-17 07:40:54.96	341.93	20.79	-85.2	-88.6	2.9	1.55e+00	0	47	104	0	60	1048574
2026-01-17 07:40:55.97	341.86	20.66	-85.2	-88.6	3.0	1.56e+00	0	47	104	0	60	1048574
2026-01-17 07:40:56.97	341.78	20.53	-85.2	-88.6	3.1	1.56e+00	0	47	104	0	60	1048571
2026-01-17 07:40:57.98	341.71	20.41	-85.2	-88.6	2.8	1.55e+00	0	47	104	0	60	1048575
2026-01-17 07:40:58.99	341.64	20.28	-85.2	-88.6	2.9	1.56e+00	0	47	104	0	60	1048573
2026-01-17 07:40:59.99	341.57	20.15	-85.2	-88.6	2.9	1.55e+00	0	47	104	0	60	1048572
2026-01-17 07:41:01.00	341.49	20.03	-85.2	-88.6	3.1	1.56e+00	0	47	104	0	60	1048574
2026-01-17 07:41:02.01	341.42	19.90	-85.2	-88.6	3.1	1.56e+00	0	47	104	0	60	1048575
2026-01-17 07:41:03.02	341.35	19.77	-85.2	-88.6	2.9	1.56e+00	0	47	104	0	60	1048574
2026-01-17 07:41:04.03	341.29	19.65	-85.2	-88.6	3.1	1.55e+00	0	47	104	0	60	1048575
2026-01-17 07:41:05.03	341.22	19.53	-85.2	-88.6	3.0	1.56e+00	0	47	104	0	60	1048575
2026-01-17 07:41:06.04	341.15	19.40	-85.2	-88.6	2.6	1.56e+00	0	47	104	0	60	1048574
2026-01-17 07:41:07.05	341.08	19.28	-85.2	-88.6	2.8	1.56e+00	0	47	104	0	60	1048575
2026-01-17 07:41:08.06	341.01	19.16	-85.2	-88.6	2.8	1.56e+00	0	47	104	0	60	1048575
2026-01-17 07:41:09.07	340.95	19.03	-85.2	-88.6	3.0	1.55e+00	0	47	104	0	60	1048572
2026-01-17 07:41:10.07	340.88	18.91	-85.2	-88.6	3.0	1.56e+00	0	47	104	0	60	1048575
2026-01-17 07:41:11.08	340.82	18.79	-85.2	-88.6	2.9	1.56e+00	0	47	104	0	60	1048575
2026-01-17 07:41:12.09	340.75	18.67	-85.2	-88.6	2.9	1.56e+00	0	47	104	0	60	1048575
2026-01-17 07:41:13.10	340.69	18.55	-85.2	-88.6	3.1	1.56e+00	0	47	104	0	60	1048571
2026-01-17 07:41:14.10	340.63	18.43	-85.2	-88.6	3.2	1.56e+00	0	47	104	0	60	1048575
2026-01-17 07:41:15.11	340.56	18.32	-85.2	-88.6	2.8	1.56e+00	0	47	104	0	60	1048575
2026-01-17 07:41:16.12	340.50	18.20	-85.2	-88.6	2.9	1.56e+00	0	47	104	0	60	1048575
2026-01-17 07:41:17.13	340.44	18.08	-85.2	-88.6	2.7	1.56e+00	0	47	104	0	60	1048575
2026-01-17 07:41:18.13	340.38	17.96	-85.2	-88.6	2.7	1.56e+00	0	47	104	0	60	1048574
2026-01-17 07:41:19.12	340.32	17.85	-85.2	-88.6	3.1	1.56e+00	0	47	104	0	60	1048574
2026-01-17 07:41:20.13	340.26	17.73	-85.2	-88.6	2.9	1.56e+00	0	47	104	0	60	1048575
2026-01-17 07:41:21.14	340.20	17.62	-85.2	-88.6	3.0	1.55e+00	0	47	104	0	60	1048574
2026-01-17 07:41:22.15	340.14	17.50	-85.2	-88.6	2.8	1.55e+00	0	47	104	0	60	1048575
2026-01-17 07:41:23.15	340.08	17.39	-85.2	-88.6	3.1	1.56e+00	0	47	104	0	60	1048575
2026-01-17 07:41:24.16	340.02	17.28	-85.2	-88.6	3.1	1.56e+00	0	47	104	0	60	1048574
2026-01-17 07:41:25.16	339.96	17.16	-85.2	-88.6	3.0	1.56e+00	0	47	104	0	60	1048573
2026-01-17 07:41:26.17	339.90	17.05	-85.2	-88.6	3.1	1.56e+00	0	47	104	0	60	1048575
2026-01-17 07:41:27.18	339.85	16.94	-85.2	-88.6	3.1	1.56e+00	0	47	104	0	60	1048574
2026-01-17 07:41:28.19	339.79	16.82	-85.2	-88.6	2.8	1.56e+00	0	47	104	0	60	1048575
2026-01-17 07:41:29.19	339.73	16.71	-85.2	-88.6	3.0	1.56e+00	0	47	104	0	60	1048574
2026-01-17 07:41:30.20	339.68	16.60	-85.2	-88.6	3.0	1.56e+00	0	47	104	0	60	1048574
2026-01-17 07:41:31.21	339.62	16.49	-85.2	-88.6	2.8	1.56e+00	0	47	104	0	60	1048575
2026-01-17 07:41:32.22	339.57	16.38	-85.2	-88.6	3.1	1.55e+00	0	47	104	0	60	1048575
2026-01-17 07:41:33.22	339.51	16.27	-85.2	-88.6	3.0	1.55e+00	0	47	104	0	60	1048572
2026-01-17 07:41:34.23	339.46	16.16	-85.2	-88.6	2.9	1.56e+00	0	47	104	0	60	1048575
2026-01-17 07:41:35.24	339.40	16.05	-85.2	-88.6	2.9	1.56e+00	0	47	104	0	60	1048571
2026-01-17 07:41:36.24	339.35	15.95	-85.2	-88.6	3.0	1.56e+00	0	47	104	0	60	1048575
2026-01-17 07:41:37.25	339.30	15.84	-85.2	-88.6	3.0	1.56e+00	0	47	104	0	60	1048574
2026-01-17 07:41:38.26	339.25	15.73	-85.2	-88.6	2.9	1.56e+00	0	47	104	0	60	1048575
2026-01-17 07:41:39.26	339.19	15.63	-85.2	-88.6	3.1	1.55e+00	0	47	104	0	60	1048575
2026-01-17 07:41:40.27	339.14	15.52	-85.2	-88.6	3.1	1.56e+00	0	47	104	0	60	1048574
2026-01-17 07:41:41.28	339.09	15.41	-85.2	-88.6	3.0	1.56e+00	0	47	104	0	60	1048572
2026-01-17 07:41:42.28	339.04	15.31	-85.2	-88.6	2.8	1.56e+00	0	47	104	0	60	1048575
2026-01-17 07:41:43.29	338.99	15.20	-85.2	-88.6	3.0	1.55e+00	0	47	104	0	60	1048575
2026-01-17 07:41:44.30	338.94	15.10	-85.2	-88.6	3.0	1.56e+00	0	47	104	0	60	1048572
2026-01-17 07:41:45.31	338.89	14.99	-85.2	-88.6	3.0	1.56e+00	0	47	104	0	60	1048574
2026-01-17 07:41:46.32	338.84	14.89	-85.2	-88.6	3.0	1.56e+00	0	47	104	0	60	1048570
