passes_logs/2026/01/17/R3.2S-Naryan-Mar/R3.2S-Naryan-Mar__20260117_211340_NOAA_20_JPSS-1_rec.log

#Pass ID: 20260117_211340_NOAA 20 (JPSS-1)
#Satellite: NOAA 20 (JPSS-1)
#Configuration: NOAA 20
#almurnet v.1.7.20240730
#Start time: 2026-01-17 21:13:43

#Version: 2.2.20231116
#Station: R3.2S-Naryan-Mar
#Location: 53.008057 lon 67.646978 lat
#TLE: 1 43013U 17073A   26017.30359522  .00000067  00000+0  52526-4 0  9990
#TLE: 2 43013  98.7639 318.2187 0001419  36.2087 323.9184 14.19536557423067

#Time	Az	El	Level	Level2	SNR	BER	BlckErr	Temp	State	Recorded	gain1	gain2
2026-01-17 21:13:43.14	17.59	0.12	-85.2	-88.6	4.6	1.63e+00	0	46	0	0	60	1048572
2026-01-17 21:13:44.14	17.65	0.18	-85.2	-88.6	3.0	1.56e+00	0	46	104	0	60	1048574
2026-01-17 21:13:45.15	17.70	0.23	-85.2	-88.6	2.9	1.56e+00	0	46	104	0	60	1048574
2026-01-17 21:13:46.15	17.76	0.29	-85.2	-88.6	3.0	1.55e+00	0	46	104	0	60	1048575
2026-01-17 21:13:47.15	17.82	0.34	-85.2	-88.6	3.0	1.55e+00	0	46	104	0	60	1048567
2026-01-17 21:13:48.16	17.88	0.39	-85.2	-88.6	2.8	1.56e+00	0	46	104	0	60	1048574
2026-01-17 21:13:49.17	17.94	0.45	-85.2	-88.6	3.1	1.56e+00	0	46	104	0	60	1048575
2026-01-17 21:13:50.18	18.00	0.50	-85.2	-88.6	2.8	1.55e+00	0	46	104	0	60	1048575
2026-01-17 21:13:51.18	18.05	0.56	-85.2	-88.6	2.8	1.56e+00	0	46	104	0	60	1048575
2026-01-17 21:13:52.19	18.11	0.61	-85.2	-88.6	3.1	1.56e+00	0	46	104	0	60	1048575
2026-01-17 21:13:53.20	18.17	0.67	-85.2	-88.6	3.2	1.56e+00	0	46	104	0	60	1048575
2026-01-17 21:13:54.20	18.23	0.72	-85.2	-88.6	3.1	1.56e+00	0	46	104	0	60	1048575
2026-01-17 21:13:55.21	18.29	0.78	-85.2	-88.6	3.2	1.56e+00	0	46	104	0	60	1048575
2026-01-17 21:13:56.22	18.35	0.83	-85.2	-88.6	3.1	1.56e+00	0	46	104	0	60	1048575
2026-01-17 21:13:57.23	18.41	0.89	-85.2	-88.6	2.8	1.56e+00	0	46	104	0	60	1048574
2026-01-17 21:13:58.24	18.47	0.94	-85.2	-88.6	3.1	1.55e+00	0	46	104	0	60	1048571
2026-01-17 21:13:59.23	18.53	1.00	-85.2	-88.6	3.0	1.56e+00	0	46	104	0	60	1048574
2026-01-17 21:14:00.24	18.59	1.05	-85.2	-88.6	3.0	1.56e+00	0	46	104	0	60	1048575
2026-01-17 21:14:01.25	18.65	1.11	-85.2	-88.6	2.9	1.55e+00	0	46	104	0	60	1048574
2026-01-17 21:14:02.26	18.71	1.16	-85.2	-88.6	3.1	1.55e+00	0	46	104	0	60	1048575
2026-01-17 21:14:03.27	18.77	1.22	-85.2	-88.6	2.9	1.56e+00	0	46	104	0	60	1048575
2026-01-17 21:14:04.27	18.84	1.27	-85.2	-88.6	3.0	1.55e+00	0	46	104	0	60	1048575
2026-01-17 21:14:05.28	18.90	1.33	-85.2	-88.6	3.2	1.56e+00	0	46	104	0	60	1048575
2026-01-17 21:14:06.29	18.96	1.39	-85.2	-88.6	3.1	1.56e+00	0	46	104	0	60	1048575
2026-01-17 21:14:07.29	19.02	1.44	-85.2	-88.6	3.2	1.56e+00	0	46	104	0	60	1048573
2026-01-17 21:14:08.30	19.08	1.50	-85.2	-88.6	2.9	1.56e+00	0	46	104	0	60	1048571
2026-01-17 21:14:09.31	19.15	1.55	-85.2	-88.6	3.1	1.56e+00	0	46	104	0	60	1048574
2026-01-17 21:14:10.31	19.21	1.61	-85.2	-88.6	3.3	1.56e+00	0	46	104	0	60	1048575
2026-01-17 21:14:11.32	19.27	1.67	-85.2	-88.6	3.0	1.56e+00	0	46	104	0	60	1048575
2026-01-17 21:14:12.33	19.33	1.72	-85.2	-88.6	3.0	1.56e+00	0	46	104	0	60	1048575
2026-01-17 21:14:13.34	19.40	1.78	-85.2	-88.6	3.0	1.55e+00	0	46	104	0	60	1048574
2026-01-17 21:14:14.35	19.46	1.83	-85.2	-88.6	3.0	1.55e+00	0	46	104	0	60	1048575
2026-01-17 21:14:15.35	19.53	1.89	-85.2	-88.6	3.1	1.55e+00	0	46	104	0	60	1048575
2026-01-17 21:14:16.36	19.59	1.95	-85.2	-88.6	2.9	1.55e+00	0	46	104	0	60	1048575
2026-01-17 21:14:17.37	19.65	2.00	-85.2	-88.6	2.8	1.56e+00	0	46	104	0	60	1048575
2026-01-17 21:14:18.38	19.72	2.06	-85.2	-88.6	3.1	1.56e+00	0	46	104	0	60	1048575
2026-01-17 21:14:19.38	19.78	2.12	-85.2	-88.6	2.7	1.56e+00	0	46	104	0	60	1048570
2026-01-17 21:14:20.39	19.85	2.17	-85.2	-88.6	3.2	1.56e+00	0	46	104	0	60	1048575
2026-01-17 21:14:21.39	19.91	2.23	-85.2	-88.6	3.0	1.56e+00	0	46	104	0	60	1048575
2026-01-17 21:14:22.40	19.98	2.29	-85.2	-88.6	3.0	1.56e+00	0	46	104	0	60	1048574
2026-01-17 21:14:23.41	20.04	2.35	-85.2	-88.6	2.8	1.56e+00	0	46	104	0	60	1048574
2026-01-17 21:14:24.42	20.11	2.40	-85.2	-88.6	2.9	1.55e+00	0	46	104	0	60	1048575
2026-01-17 21:14:25.43	20.18	2.46	-85.2	-88.6	3.0	1.56e+00	0	46	104	0	60	1048575
2026-01-17 21:14:26.43	20.24	2.52	-85.2	-88.6	3.0	1.56e+00	0	46	104	0	60	1048575
2026-01-17 21:14:27.44	20.31	2.58	-85.2	-88.6	3.1	1.56e+00	0	46	104	0	60	1048574
2026-01-17 21:14:28.45	20.38	2.63	-85.2	-88.6	3.2	1.56e+00	0	46	104	0	60	1048575
2026-01-17 21:14:29.45	20.44	2.69	-85.2	-88.6	2.8	1.56e+00	0	46	104	0	60	1048575
2026-01-17 21:14:30.45	20.51	2.75	-85.2	-88.6	3.1	1.56e+00	0	46	104	0	60	1048574
2026-01-17 21:14:31.46	20.58	2.81	-85.2	-88.6	2.9	1.55e+00	0	46	104	0	60	1048575
2026-01-17 21:14:32.47	20.64	2.86	-85.2	-88.6	3.0	1.56e+00	0	46	104	0	60	1048575
2026-01-17 21:14:33.48	20.71	2.92	-85.2	-88.6	2.9	1.56e+00	0	46	104	0	60	1048575
2026-01-17 21:14:34.48	20.78	2.98	-85.2	-88.6	3.1	1.55e+00	0	46	104	0	60	1048575
2026-01-17 21:14:35.49	20.85	3.04	-85.2	-88.6	3.0	1.56e+00	0	46	104	0	60	1048575
2026-01-17 21:14:36.49	20.92	3.10	-85.2	-88.6	3.0	1.56e+00	0	46	104	0	60	1048574
2026-01-17 21:14:37.50	20.99	3.16	-85.2	-88.6	3.0	1.55e+00	0	46	104	0	60	1048575
2026-01-17 21:14:38.50	21.06	3.21	-85.2	-88.6	2.8	1.55e+00	0	46	104	0	60	1048575
2026-01-17 21:14:39.51	21.13	3.27	-85.2	-88.6	2.9	1.55e+00	0	46	104	0	60	1048574
2026-01-17 21:14:40.51	21.19	3.33	-85.2	-88.6	3.1	1.56e+00	0	46	104	0	60	1048574
2026-01-17 21:14:41.52	21.27	3.39	-85.2	-88.6	3.1	1.55e+00	0	46	104	0	60	1048575
2026-01-17 21:14:42.53	21.34	3.45	-85.2	-88.6	3.1	1.56e+00	0	46	104	0	60	1048574
2026-01-17 21:14:43.54	21.41	3.51	-85.2	-88.6	2.8	1.56e+00	0	46	104	0	60	1048575
2026-01-17 21:14:44.55	21.48	3.57	-85.2	-88.6	3.0	1.56e+00	0	46	104	0	60	1048571
2026-01-17 21:14:45.56	21.55	3.63	-85.2	-88.6	2.8	1.55e+00	0	46	104	0	60	1048573
2026-01-17 21:14:46.56	21.62	3.69	-85.2	-88.6	2.9	1.56e+00	0	47	104	0	60	1048575
2026-01-17 21:14:47.57	21.69	3.75	-85.2	-88.6	2.9	1.55e+00	0	47	104	0	60	1048575
2026-01-17 21:14:48.58	21.76	3.80	-85.2	-88.6	3.2	1.56e+00	0	47	104	0	60	1048571
2026-01-17 21:14:49.58	21.84	3.86	-85.2	-88.6	3.0	1.55e+00	0	47	104	0	60	1048575
2026-01-17 21:14:50.59	21.91	3.92	-85.2	-88.6	2.8	1.56e+00	0	47	104	0	60	1048573
2026-01-17 21:14:51.59	21.98	3.98	-85.2	-88.6	2.8	1.56e+00	0	47	104	0	60	1048575
2026-01-17 21:14:52.59	22.05	4.04	-85.2	-88.6	2.9	1.56e+00	0	46	104	0	60	1048575
2026-01-17 21:14:53.60	22.13	4.10	-85.2	-88.6	3.0	1.56e+00	0	47	104	0	60	1048575
2026-01-17 21:14:54.61	22.20	4.16	-85.2	-88.6	3.1	1.56e+00	0	47	104	0	60	1048573
2026-01-17 21:14:55.62	22.27	4.22	-85.2	-88.6	3.0	1.55e+00	0	47	104	0	60	1048575
2026-01-17 21:14:56.63	22.35	4.28	-85.2	-88.6	3.1	1.56e+00	0	47	104	0	60	1048575
2026-01-17 21:14:57.63	22.42	4.34	-85.2	-88.6	3.0	1.56e+00	0	47	104	0	60	1048575
2026-01-17 21:14:58.64	22.50	4.40	-85.2	-88.6	3.0	1.55e+00	0	47	104	0	60	1048575
2026-01-17 21:14:59.64	22.57	4.46	-85.2	-88.6	3.1	1.56e+00	0	47	104	0	60	1048575
2026-01-17 21:15:00.65	22.65	4.53	-85.2	-88.6	3.1	1.56e+00	0	47	104	0	60	1048575
2026-01-17 21:15:01.65	22.72	4.59	-85.2	-88.6	3.2	1.56e+00	0	47	104	0	60	1048575
2026-01-17 21:15:02.66	22.80	4.65	-85.2	-88.6	3.0	1.55e+00	0	47	104	0	60	1048573
2026-01-17 21:15:03.67	22.87	4.71	-85.2	-88.6	2.9	1.56e+00	0	47	104	0	60	1048570
2026-01-17 21:15:04.68	22.95	4.77	-85.2	-88.6	3.2	1.55e+00	0	47	104	0	60	1048573
2026-01-17 21:15:05.68	23.03	4.83	-85.2	-88.6	2.9	1.56e+00	0	47	104	0	60	1048574
2026-01-17 21:15:06.69	23.10	4.89	-85.2	-88.6	3.1	1.56e+00	0	47	104	0	60	1048575
2026-01-17 21:15:07.69	23.18	4.95	-85.2	-88.6	3.1	1.56e+00	0	47	104	0	60	1048575
2026-01-17 21:15:08.70	23.26	5.01	-85.2	-88.6	2.9	1.56e+00	0	47	104	0	60	1048575
2026-01-17 21:15:09.70	23.34	5.07	-85.2	-88.6	3.0	1.56e+00	0	46	104	0	60	1048573
2026-01-17 21:15:10.71	23.42	5.14	-85.2	-88.6	3.0	1.56e+00	0	46	104	0	60	1048575
2026-01-17 21:15:11.72	23.49	5.20	-85.2	-88.6	3.1	1.56e+00	0	46	104	0	60	1048573
2026-01-17 21:15:12.73	23.57	5.26	-85.2	-88.6	3.0	1.55e+00	0	47	104	0	60	1048574
2026-01-17 21:15:13.73	23.65	5.32	-85.2	-88.6	2.8	1.56e+00	0	47	104	0	60	1048575
2026-01-17 21:15:14.74	23.73	5.38	-85.2	-88.6	3.1	1.55e+00	0	47	104	0	60	1048569
2026-01-17 21:15:15.75	23.81	5.45	-85.2	-88.6	3.0	1.56e+00	0	47	104	0	60	1048573
2026-01-17 21:15:16.76	23.89	5.51	-85.2	-88.6	3.0	1.56e+00	0	47	104	0	60	1048571
2026-01-17 21:15:17.77	23.97	5.57	-85.2	-88.6	3.2	1.56e+00	0	47	104	0	60	1048573
2026-01-17 21:15:18.77	24.05	5.63	-85.2	-88.6	3.1	1.56e+00	0	47	104	0	60	1048575
2026-01-17 21:15:19.78	24.13	5.70	-85.2	-88.6	3.0	1.56e+00	0	47	104	0	60	1048570
2026-01-17 21:15:20.79	24.22	5.76	-85.2	-88.6	2.9	1.56e+00	0	47	104	0	60	1048575
2026-01-17 21:15:21.80	24.30	5.82	-85.2	-88.6	2.8	1.56e+00	0	47	104	0	60	1048575
2026-01-17 21:15:22.80	24.38	5.88	-85.2	-88.6	3.2	1.56e+00	0	47	104	0	60	1048573
2026-01-17 21:15:23.81	24.46	5.95	-85.2	-88.6	3.2	1.55e+00	0	47	104	0	60	1048570
2026-01-17 21:15:24.82	24.55	6.01	-85.2	-88.6	3.1	1.55e+00	0	47	104	0	60	1048574
2026-01-17 21:15:25.83	24.63	6.07	-85.2	-88.6	2.9	1.56e+00	0	47	104	0	60	1048575
2026-01-17 21:15:26.83	24.71	6.14	-85.2	-88.6	3.1	1.56e+00	0	47	104	0	60	1048575
2026-01-17 21:15:27.84	24.80	6.20	-85.2	-88.6	3.2	1.56e+00	0	47	104	0	60	1048572
2026-01-17 21:15:28.85	24.88	6.27	-85.2	-88.6	3.1	1.56e+00	0	47	104	0	60	1048575
2026-01-17 21:15:29.85	24.96	6.33	-84.7	-88.6	3.2	1.55e+00	0	47	104	0	60	1048575
2026-01-17 21:15:30.86	25.05	6.39	-85.2	-88.6	3.2	1.55e+00	0	47	104	0	60	1048574
2026-01-17 21:15:31.87	25.13	6.46	-85.2	-88.6	2.9	1.56e+00	0	47	104	0	60	1048575
2026-01-17 21:15:32.88	25.22	6.52	-85.2	-88.6	3.0	1.56e+00	0	47	104	0	60	1048574
2026-01-17 21:15:33.88	25.31	6.58	-85.2	-88.6	3.1	1.56e+00	0	47	104	0	60	1048574
2026-01-17 21:15:34.89	25.39	6.65	-85.2	-88.6	3.0	1.55e+00	0	47	104	0	60	1048575
2026-01-17 21:15:35.90	25.48	6.71	-85.2	-88.6	3.0	1.56e+00	0	47	104	0	60	1048575
2026-01-17 21:15:36.90	25.57	6.78	-85.2	-88.6	3.1	1.56e+00	0	47	104	0	60	1048571
2026-01-17 21:15:37.90	25.65	6.84	-85.2	-88.6	2.9	1.55e+00	0	47	104	0	60	1048575
2026-01-17 21:15:38.90	25.74	6.91	-85.2	-88.6	3.3	1.56e+00	0	47	104	0	60	1048573
2026-01-17 21:15:39.90	25.83	6.97	-85.2	-88.6	3.0	1.56e+00	0	47	104	0	60	1048574
2026-01-17 21:15:40.91	25.92	7.03	-85.2	-88.6	3.0	1.56e+00	0	47	104	0	60	1048575
2026-01-17 21:15:41.92	26.00	7.10	-85.2	-88.6	2.9	1.56e+00	0	47	104	0	60	1048574
2026-01-17 21:15:42.92	26.09	7.16	-85.2	-88.6	2.8	1.56e+00	0	47	104	0	60	1048575
2026-01-17 21:15:43.92	26.18	7.23	-85.2	-88.6	3.0	1.56e+00	0	47	104	0	60	1048574
2026-01-17 21:15:44.93	26.27	7.29	-85.2	-88.6	3.2	1.56e+00	0	47	104	0	60	1048571
2026-01-17 21:15:45.94	26.36	7.36	-85.2	-88.6	2.9	1.56e+00	0	47	104	0	60	1048575
2026-01-17 21:15:46.94	26.45	7.42	-85.2	-88.6	3.2	1.55e+00	0	47	104	0	60	1048575
2026-01-17 21:15:47.94	26.54	7.49	-85.2	-88.6	2.9	1.56e+00	0	47	104	0	60	1048572
2026-01-17 21:15:48.95	26.64	7.56	-85.2	-88.6	3.1	1.56e+00	0	47	104	0	60	1048575
2026-01-17 21:15:49.96	26.73	7.62	-85.2	-88.6	2.9	1.56e+00	0	47	104	0	60	1048575
2026-01-17 21:15:50.97	26.82	7.69	-85.2	-88.6	3.1	1.56e+00	0	47	104	0	60	1048573
2026-01-17 21:15:51.97	26.91	7.75	-85.2	-88.6	3.0	1.56e+00	0	47	104	0	60	1048575
2026-01-17 21:15:52.98	27.01	7.82	-85.2	-88.6	2.9	1.56e+00	0	47	104	0	60	1048574
2026-01-17 21:15:53.98	27.10	7.89	-85.2	-88.6	2.9	1.56e+00	0	47	104	0	60	1048575
2026-01-17 21:15:54.99	27.19	7.95	-85.2	-88.6	2.9	1.56e+00	0	47	104	0	60	1048574
2026-01-17 21:15:55.99	27.29	8.02	-85.2	-88.6	2.9	1.55e+00	0	47	104	0	60	1048575
2026-01-17 21:15:56.99	27.38	8.08	-85.2	-88.6	2.9	1.55e+00	0	47	104	0	60	1048572
2026-01-17 21:15:58.00	27.48	8.15	-85.2	-88.6	3.2	1.56e+00	0	47	104	0	60	1048574
2026-01-17 21:15:59.01	27.57	8.22	-85.2	-88.6	3.1	1.56e+00	0	47	104	0	60	1048575
2026-01-17 21:16:00.01	27.67	8.29	-85.2	-88.6	3.2	1.56e+00	0	47	104	0	60	1048573
2026-01-17 21:16:01.01	27.76	8.35	-85.2	-88.6	3.1	1.55e+00	0	47	104	0	60	1048575
2026-01-17 21:16:02.02	27.86	8.42	-85.2	-88.6	3.0	1.56e+00	0	47	104	0	60	1048575
2026-01-17 21:16:03.03	27.96	8.49	-85.2	-88.6	3.0	1.55e+00	0	47	104	0	60	1048575
2026-01-17 21:16:04.04	28.05	8.55	-85.2	-88.6	3.1	1.56e+00	0	47	104	0	60	1048573
2026-01-17 21:16:05.05	28.15	8.62	-85.2	-88.6	3.0	1.55e+00	0	47	104	0	60	1048572
2026-01-17 21:16:06.05	28.25	8.69	-85.2	-88.6	3.1	1.56e+00	0	47	104	0	60	1048575
2026-01-17 21:16:07.06	28.35	8.76	-85.2	-88.6	3.0	1.56e+00	0	47	104	0	60	1048575
2026-01-17 21:16:08.07	28.45	8.82	-85.2	-88.6	3.0	1.56e+00	0	47	104	0	60	1048573
2026-01-17 21:16:09.07	28.55	8.89	-85.2	-88.6	3.1	1.55e+00	0	47	104	0	60	1048575
2026-01-17 21:16:10.07	28.65	8.96	-85.2	-88.6	3.0	1.56e+00	0	47	104	0	60	1048575
2026-01-17 21:16:11.08	28.75	9.03	-85.2	-88.6	3.1	1.56e+00	0	47	104	0	60	1048575
2026-01-17 21:16:12.08	28.85	9.10	-85.2	-88.6	3.2	1.55e+00	0	47	104	0	60	1048574
2026-01-17 21:16:13.09	28.95	9.16	-85.2	-88.6	3.1	1.55e+00	0	47	104	0	60	1048575
2026-01-17 21:16:14.09	29.05	9.23	-85.2	-88.6	3.1	1.56e+00	0	47	104	0	60	1048574
2026-01-17 21:16:15.09	29.15	9.30	-85.2	-88.6	3.0	1.56e+00	0	47	104	0	60	1048575
2026-01-17 21:16:16.09	29.26	9.37	-85.2	-88.6	3.1	1.56e+00	0	47	104	0	60	1048575
2026-01-17 21:16:17.10	29.36	9.44	-85.2	-88.6	3.0	1.56e+00	0	47	104	0	60	1048575
2026-01-17 21:16:18.11	29.46	9.51	-85.2	-88.6	2.9	1.55e+00	0	47	104	0	60	1048574
2026-01-17 21:16:19.12	29.57	9.58	-85.2	-88.6	2.9	1.56e+00	0	47	104	0	60	1048574
2026-01-17 21:16:20.13	29.67	9.65	-85.2	-88.6	2.8	1.56e+00	0	47	104	0	60	1048572
2026-01-17 21:16:21.13	29.78	9.72	-85.2	-88.6	3.1	1.55e+00	0	47	104	0	60	1048575
2026-01-17 21:16:22.14	29.88	9.78	-85.2	-88.6	2.9	1.55e+00	0	47	104	0	60	1048573
2026-01-17 21:16:23.15	29.99	9.85	-85.2	-88.6	2.9	1.56e+00	0	47	104	0	60	1048575
2026-01-17 21:16:24.16	30.10	9.92	-85.2	-88.6	2.9	1.55e+00	0	47	104	0	60	1048575
2026-01-17 21:16:25.17	30.21	9.99	-85.2	-88.6	2.9	1.55e+00	0	47	104	0	60	1048575
2026-01-17 21:16:26.17	30.31	10.06	-85.2	-88.6	3.0	1.55e+00	0	47	104	0	60	1048570
2026-01-17 21:16:27.18	30.42	10.13	-85.2	-88.6	3.1	1.56e+00	0	47	104	0	60	1048575
2026-01-17 21:16:28.19	30.53	10.20	-85.2	-88.6	3.0	1.56e+00	0	47	104	0	60	1048575
2026-01-17 21:16:29.19	30.64	10.27	-85.2	-88.6	3.0	1.56e+00	0	47	104	0	60	1048574
2026-01-17 21:16:30.19	30.75	10.34	-85.2	-88.6	3.0	1.56e+00	0	47	104	0	60	1048574
2026-01-17 21:16:31.20	30.86	10.41	-85.2	-88.6	3.0	1.55e+00	0	47	104	0	60	1048575
2026-01-17 21:16:32.21	30.97	10.49	-85.2	-88.6	3.0	1.55e+00	0	47	104	0	60	1048575
2026-01-17 21:16:33.22	31.08	10.56	-85.2	-88.6	3.2	1.56e+00	0	47	104	0	60	1048575
2026-01-17 21:16:34.23	31.19	10.63	-85.2	-88.6	3.0	1.56e+00	0	47	104	0	60	1048575
2026-01-17 21:16:35.23	31.30	10.70	-85.2	-88.6	2.8	1.56e+00	0	47	104	0	60	1048575
2026-01-17 21:16:36.24	31.42	10.77	-85.2	-88.6	3.0	1.56e+00	0	47	104	0	60	1048573
2026-01-17 21:16:37.25	31.53	10.84	-85.2	-88.6	3.0	1.56e+00	0	47	104	0	60	1048575
2026-01-17 21:16:38.26	31.64	10.91	-85.2	-88.6	3.0	1.56e+00	0	47	104	0	60	1048575
2026-01-17 21:16:39.26	31.76	10.98	-85.2	-88.6	3.2	1.55e+00	0	47	104	0	60	1048575
2026-01-17 21:16:40.27	31.87	11.05	-85.2	-88.6	3.2	1.55e+00	0	47	104	0	60	1048570
2026-01-17 21:16:41.28	31.99	11.13	-85.2	-88.6	3.0	1.56e+00	0	47	104	0	60	1048575
2026-01-17 21:16:42.28	32.10	11.20	-85.2	-88.6	3.0	1.56e+00	0	47	104	0	60	1048575
2026-01-17 21:16:43.29	32.22	11.27	-85.2	-88.6	2.9	1.56e+00	0	47	104	0	60	1048575
2026-01-17 21:16:44.29	32.34	11.34	-85.2	-88.6	3.0	1.56e+00	0	47	104	0	60	1048573
2026-01-17 21:16:45.30	32.45	11.41	-84.3	-88.6	3.2	1.56e+00	0	47	104	0	60	1048574
2026-01-17 21:16:46.31	32.57	11.48	-85.2	-88.6	3.2	1.55e+00	0	47	104	0	60	1048575
2026-01-17 21:16:47.31	32.69	11.56	-85.2	-88.6	2.9	1.55e+00	0	47	104	0	60	1048575
2026-01-17 21:16:48.32	32.81	11.63	-85.2	-88.6	2.8	1.55e+00	0	47	104	0	60	1048575
2026-01-17 21:16:49.33	32.93	11.70	-85.2	-88.6	3.1	1.56e+00	0	47	104	0	60	1048575
2026-01-17 21:16:50.33	33.05	11.77	-85.2	-88.6	2.9	1.56e+00	0	47	104	0	60	1048575
2026-01-17 21:16:51.34	33.17	11.85	-85.2	-88.6	3.1	1.56e+00	0	47	104	0	60	1048571
2026-01-17 21:16:52.35	33.29	11.92	-85.2	-88.6	3.1	1.56e+00	0	47	104	0	60	1048575
2026-01-17 21:16:53.36	33.42	11.99	-85.2	-88.6	2.8	1.56e+00	0	47	104	0	60	1048575
2026-01-17 21:16:54.36	33.54	12.06	-85.2	-88.6	3.2	1.56e+00	0	47	104	0	60	1048572
2026-01-17 21:16:55.37	33.66	12.14	-85.2	-88.6	2.7	1.55e+00	0	47	104	0	60	1048572
2026-01-17 21:16:56.38	33.79	12.21	-85.2	-88.6	2.9	1.56e+00	0	47	104	0	60	1048575
2026-01-17 21:16:57.39	33.91	12.28	-85.2	-88.6	3.0	1.56e+00	0	47	104	0	60	1048574
2026-01-17 21:16:58.40	34.04	12.36	-85.2	-88.6	3.2	1.56e+00	0	47	104	0	60	1048573
2026-01-17 21:16:59.40	34.16	12.43	-85.2	-88.6	2.9	1.56e+00	0	47	104	0	60	1048575
2026-01-17 21:17:00.40	34.29	12.50	-85.2	-88.6	2.7	1.56e+00	0	47	104	0	60	1048574
2026-01-17 21:17:01.41	34.41	12.58	-85.2	-88.6	2.9	1.55e+00	0	47	104	0	60	1048575
2026-01-17 21:17:02.41	34.54	12.65	-85.2	-88.6	3.0	1.55e+00	0	47	104	0	60	1048574
2026-01-17 21:17:03.41	34.67	12.72	-85.2	-88.6	2.9	1.56e+00	0	47	104	0	60	1048575
2026-01-17 21:17:04.42	34.80	12.80	-85.2	-88.6	3.0	1.56e+00	0	47	104	0	60	1048575
2026-01-17 21:17:05.43	34.93	12.87	-85.2	-88.6	2.9	1.56e+00	0	47	104	0	60	1048575
2026-01-17 21:17:06.43	35.05	12.95	-85.2	-88.6	3.1	1.56e+00	0	47	104	0	60	1048575
2026-01-17 21:17:07.44	35.19	13.02	-85.2	-88.6	3.2	1.55e+00	0	47	104	0	60	1048575
2026-01-17 21:17:08.45	35.32	13.10	-85.2	-88.6	2.9	1.55e+00	0	47	104	0	60	1048575
2026-01-17 21:17:09.45	35.45	13.17	-85.2	-88.6	3.0	1.56e+00	0	47	104	0	60	1048575
2026-01-17 21:17:10.46	35.58	13.24	-85.2	-88.6	3.0	1.55e+00	0	47	104	0	60	1048575
2026-01-17 21:17:11.47	35.71	13.32	-85.2	-88.6	3.1	1.56e+00	0	47	104	0	60	1048575
2026-01-17 21:17:12.47	35.85	13.39	-85.2	-88.6	3.0	1.56e+00	0	47	104	0	60	1048575
2026-01-17 21:17:13.48	35.98	13.47	-85.2	-88.6	2.9	1.56e+00	0	47	104	0	60	1048575
2026-01-17 21:17:14.49	36.12	13.54	-85.2	-88.6	3.0	1.55e+00	0	47	104	0	60	1048575
2026-01-17 21:17:15.49	36.25	13.62	-85.2	-88.6	3.0	1.56e+00	0	47	104	0	60	1048575
2026-01-17 21:17:16.50	36.39	13.69	-85.2	-88.6	3.0	1.56e+00	0	47	104	0	60	1048575
2026-01-17 21:17:17.51	36.53	13.77	-85.2	-88.6	2.9	1.56e+00	0	47	104	0	60	1048573
2026-01-17 21:17:18.52	36.66	13.84	-85.2	-88.6	2.9	1.56e+00	0	47	104	0	60	1048574
2026-01-17 21:17:19.53	36.80	13.92	-85.2	-88.6	3.0	1.55e+00	0	47	104	0	60	1048572
2026-01-17 21:17:20.53	36.94	13.99	-85.2	-88.6	3.1	1.56e+00	0	47	104	0	60	1048574
2026-01-17 21:17:21.54	37.08	14.07	-85.2	-88.6	2.9	1.56e+00	0	47	104	0	60	1048575
2026-01-17 21:17:22.55	37.22	14.15	-85.2	-88.6	3.0	1.55e+00	0	47	104	0	60	1048574
2026-01-17 21:17:23.56	37.36	14.22	-85.2	-88.6	3.0	1.56e+00	0	47	104	0	60	1048574
2026-01-17 21:17:24.57	37.51	14.30	-85.2	-88.6	2.8	1.56e+00	0	47	104	0	60	1048575
2026-01-17 21:17:25.57	37.65	14.37	-84.7	-88.6	3.0	1.56e+00	0	47	104	0	60	1048575
2026-01-17 21:17:26.58	37.79	14.45	-85.2	-88.6	3.0	1.55e+00	0	47	104	0	60	1048575
2026-01-17 21:17:27.59	37.94	14.52	-85.2	-88.6	2.8	1.56e+00	0	47	104	0	60	1048575
2026-01-17 21:17:28.60	38.08	14.60	-85.2	-88.6	2.9	1.56e+00	0	47	104	0	60	1048575
2026-01-17 21:17:29.60	38.23	14.68	-85.2	-88.6	3.1	1.56e+00	0	47	104	0	60	1048575
2026-01-17 21:17:30.61	38.37	14.75	-84.7	-88.6	2.8	1.55e+00	0	47	104	0	60	1048572
2026-01-17 21:17:31.61	38.52	14.83	-85.2	-88.6	2.9	1.56e+00	0	47	104	0	60	1048572
2026-01-17 21:17:32.62	38.67	14.91	-85.2	-88.6	3.0	1.56e+00	0	47	104	0	60	1048575
2026-01-17 21:17:33.63	38.81	14.98	-85.2	-88.6	3.1	1.56e+00	0	47	104	0	60	1048572
2026-01-17 21:17:34.64	38.96	15.06	-85.2	-88.6	3.1	1.56e+00	0	47	104	0	60	1048574
2026-01-17 21:17:35.65	39.11	15.14	-85.2	-88.6	3.1	1.56e+00	0	47	104	0	60	1048575
2026-01-17 21:17:36.65	39.26	15.21	-85.2	-88.6	3.0	1.56e+00	0	47	104	0	60	1048574
2026-01-17 21:17:37.65	39.41	15.29	-85.2	-88.6	3.0	1.56e+00	0	47	104	0	60	1048574
2026-01-17 21:17:38.66	39.57	15.36	-85.2	-88.6	3.0	1.56e+00	0	47	104	0	60	1048575
2026-01-17 21:17:39.66	39.72	15.44	-85.2	-88.6	3.1	1.55e+00	0	47	104	0	60	1048574
2026-01-17 21:17:40.67	39.87	15.52	-84.7	-88.6	2.9	1.56e+00	0	47	104	0	60	1048574
2026-01-17 21:17:41.68	40.03	15.59	-85.2	-88.6	2.9	1.56e+00	0	47	104	0	60	1048575
2026-01-17 21:17:42.69	40.18	15.67	-85.2	-88.6	3.0	1.56e+00	0	47	104	0	60	1048575
2026-01-17 21:17:43.69	40.34	15.75	-85.2	-88.6	3.1	1.56e+00	0	47	104	0	60	1048575
2026-01-17 21:17:44.70	40.49	15.83	-85.2	-88.6	3.1	1.56e+00	0	47	104	0	60	1048574
2026-01-17 21:17:45.71	40.65	15.90	-85.2	-88.6	2.9	1.55e+00	0	47	104	0	60	1048575
2026-01-17 21:17:46.72	40.81	15.98	-85.2	-88.6	2.9	1.56e+00	0	47	104	0	60	1048574
2026-01-17 21:17:47.73	40.97	16.06	-85.2	-88.6	3.0	1.56e+00	0	47	104	0	60	1048574
2026-01-17 21:17:48.73	41.13	16.13	-85.2	-88.6	3.0	1.56e+00	0	47	104	0	60	1048574
2026-01-17 21:17:49.74	41.29	16.21	-85.2	-88.6	3.1	1.55e+00	0	47	104	0	60	1048575
2026-01-17 21:17:50.75	41.45	16.29	-85.2	-88.6	3.2	1.56e+00	0	47	104	0	60	1048575
2026-01-17 21:17:51.75	41.61	16.37	-85.2	-88.6	2.9	1.55e+00	0	47	104	0	60	1048569
2026-01-17 21:17:52.76	41.78	16.44	-85.2	-88.6	3.1	1.56e+00	0	47	104	0	60	1048575
2026-01-17 21:17:53.77	41.94	16.52	-85.2	-88.6	2.9	1.56e+00	0	47	104	0	60	1048571
2026-01-17 21:17:54.77	42.10	16.60	-85.2	-88.6	3.1	1.56e+00	0	47	104	0	60	1048575
2026-01-17 21:17:55.78	42.27	16.67	-85.2	-88.6	3.3	1.56e+00	0	47	104	0	60	1048574
2026-01-17 21:17:56.79	42.44	16.75	-85.2	-88.6	3.0	1.55e+00	0	47	104	0	60	1048575
2026-01-17 21:17:57.79	42.60	16.83	-85.2	-88.6	2.9	1.56e+00	0	47	104	0	60	1048575
2026-01-17 21:17:58.80	42.77	16.91	-85.2	-88.6	3.1	1.56e+00	0	47	104	0	60	1048572
2026-01-17 21:17:59.80	42.94	16.98	-85.2	-88.6	2.7	1.56e+00	0	47	104	0	60	1048573
2026-01-17 21:18:00.81	43.11	17.06	-85.2	-88.6	3.1	1.56e+00	0	47	104	0	60	1048574
2026-01-17 21:18:01.82	43.28	17.14	-85.2	-88.6	3.1	1.56e+00	0	47	104	0	60	1048575
2026-01-17 21:18:02.83	43.45	17.22	-85.2	-88.6	3.0	1.55e+00	0	47	104	0	60	1048574
2026-01-17 21:18:03.84	43.62	17.29	-85.2	-88.6	3.0	1.56e+00	0	47	104	0	60	1048575
2026-01-17 21:18:04.84	43.80	17.37	-85.2	-88.6	2.9	1.56e+00	0	47	104	0	60	1048574
2026-01-17 21:18:05.85	43.97	17.45	-84.7	-88.6	2.9	1.56e+00	0	47	104	0	60	1048575
2026-01-17 21:18:06.86	44.14	17.53	-85.2	-88.6	3.0	1.55e+00	0	47	104	0	60	1048575
2026-01-17 21:18:07.86	44.32	17.60	-85.2	-88.6	2.9	1.56e+00	0	47	104	0	60	1048575
2026-01-17 21:18:08.86	44.49	17.68	-85.2	-88.6	2.8	1.56e+00	0	47	104	0	60	1048574
2026-01-17 21:18:09.87	44.67	17.76	-85.2	-88.6	3.0	1.55e+00	0	47	104	0	60	1048575
2026-01-17 21:18:10.87	44.85	17.84	-85.2	-88.6	3.0	1.56e+00	0	47	104	0	60	1048573
2026-01-17 21:18:11.88	45.03	17.91	-85.2	-88.6	3.0	1.56e+00	0	47	104	0	60	1048575
2026-01-17 21:18:12.89	45.21	17.99	-85.2	-88.6	3.0	1.56e+00	0	47	104	0	60	1048570
2026-01-17 21:18:13.89	45.39	18.07	-85.2	-88.6	3.2	1.56e+00	0	47	104	0	60	1048572
2026-01-17 21:18:14.90	45.57	18.15	-85.2	-88.6	3.0	1.55e+00	0	47	104	0	60	1048575
2026-01-17 21:18:15.91	45.75	18.22	-85.2	-88.6	3.0	1.55e+00	0	47	104	0	60	1048575
2026-01-17 21:18:16.92	45.94	18.30	-85.2	-88.6	3.1	1.56e+00	0	47	104	0	60	1048574
2026-01-17 21:18:17.93	46.12	18.38	-85.2	-88.6	2.9	1.56e+00	0	47	104	0	60	1048575
2026-01-17 21:18:18.93	46.31	18.45	-85.2	-88.6	3.1	1.56e+00	0	47	104	0	60	1048574
2026-01-17 21:18:19.94	46.50	18.53	-85.2	-88.6	2.8	1.55e+00	0	47	104	0	60	1048575
2026-01-17 21:18:20.95	46.68	18.61	-85.2	-88.6	3.1	1.55e+00	0	47	104	0	60	1048575
2026-01-17 21:18:21.96	46.87	18.69	-85.2	-88.6	3.0	1.56e+00	0	47	104	0	60	1048574
2026-01-17 21:18:22.97	47.06	18.76	-85.2	-88.6	2.9	1.55e+00	0	47	104	0	60	1048574
2026-01-17 21:18:23.97	47.25	18.84	-85.2	-88.6	3.0	1.56e+00	0	47	104	0	60	1048573
2026-01-17 21:18:24.98	47.44	18.92	-85.2	-88.6	3.1	1.56e+00	0	47	104	0	60	1048575
2026-01-17 21:18:25.99	47.63	18.99	-85.2	-88.6	3.0	1.55e+00	0	47	104	0	60	1048575
2026-01-17 21:18:26.99	47.83	19.07	-85.2	-88.6	3.0	1.56e+00	0	47	104	0	60	1048575
2026-01-17 21:18:28.00	48.02	19.15	-85.2	-88.6	3.0	1.55e+00	0	47	104	0	60	1048575
2026-01-17 21:18:29.00	48.21	19.22	-85.2	-88.6	3.1	1.56e+00	0	47	104	0	60	1048572
2026-01-17 21:18:30.01	48.41	19.30	-85.2	-88.6	3.0	1.56e+00	0	47	104	0	60	1048575
2026-01-17 21:18:31.01	48.61	19.38	-85.2	-88.6	3.0	1.56e+00	0	47	104	0	60	1048575
2026-01-17 21:18:32.02	48.80	19.45	-85.2	-88.6	2.9	1.56e+00	0	47	104	0	60	1048574
2026-01-17 21:18:33.03	49.00	19.53	-85.2	-88.6	3.0	1.56e+00	0	47	104	0	60	1048573
2026-01-17 21:18:34.03	49.20	19.60	-85.2	-88.6	3.0	1.56e+00	0	47	104	0	60	1048575
2026-01-17 21:18:35.04	49.40	19.68	-84.3	-88.6	3.1	1.55e+00	0	47	104	0	60	1048575
2026-01-17 21:18:36.05	49.60	19.76	-85.2	-88.6	3.0	1.56e+00	0	47	104	0	60	1048574
2026-01-17 21:18:37.06	49.81	19.83	-85.2	-88.6	3.0	1.56e+00	0	47	104	0	60	1048574
2026-01-17 21:18:38.06	50.01	19.91	-85.2	-88.6	3.0	1.55e+00	0	47	104	0	60	1048575
2026-01-17 21:18:39.07	50.22	19.98	-85.2	-88.6	3.1	1.56e+00	0	47	104	0	60	1048575
2026-01-17 21:18:40.08	50.42	20.06	-85.2	-88.6	2.9	1.55e+00	0	47	104	0	60	1048573
2026-01-17 21:18:41.09	50.63	20.13	-85.2	-88.6	3.0	1.56e+00	0	47	104	0	60	1048575
2026-01-17 21:18:42.09	50.83	20.21	-85.2	-88.6	3.0	1.56e+00	0	47	104	0	60	1048573
2026-01-17 21:18:43.10	51.04	20.28	-85.2	-88.6	3.0	1.56e+00	0	47	104	0	60	1048575
2026-01-17 21:18:44.11	51.25	20.36	-85.2	-88.6	3.2	1.56e+00	0	47	104	0	60	1048574
2026-01-17 21:18:45.12	51.46	20.43	-85.2	-88.6	3.2	1.56e+00	0	47	104	0	60	1048573
2026-01-17 21:18:46.12	51.67	20.51	-85.2	-88.6	3.1	1.56e+00	0	47	104	0	60	1048574
2026-01-17 21:18:47.13	51.89	20.58	-85.2	-88.6	3.1	1.56e+00	0	47	104	0	60	1048575
2026-01-17 21:18:48.14	52.10	20.66	-85.2	-88.6	3.1	1.56e+00	0	47	104	0	60	1048574
2026-01-17 21:18:49.15	52.32	20.73	-85.2	-88.6	3.1	1.55e+00	0	47	104	0	60	1048573
2026-01-17 21:18:50.15	52.53	20.80	-85.2	-88.6	2.8	1.56e+00	0	47	104	0	60	1048575
2026-01-17 21:18:51.16	52.75	20.88	-85.2	-88.6	3.0	1.56e+00	0	47	104	0	60	1048575
2026-01-17 21:18:52.17	52.97	20.95	-85.2	-88.6	3.0	1.56e+00	0	47	104	0	60	1048575
2026-01-17 21:18:53.17	53.18	21.02	-85.2	-88.6	3.0	1.55e+00	0	47	104	0	60	1048574
2026-01-17 21:18:54.18	53.40	21.10	-85.2	-88.6	3.0	1.56e+00	0	47	104	0	60	1048574
2026-01-17 21:18:55.19	53.62	21.17	-85.2	-88.6	2.9	1.55e+00	0	47	104	0	60	1048575
2026-01-17 21:18:56.19	53.84	21.24	-85.2	-88.6	3.0	1.56e+00	0	47	104	0	60	1048575
2026-01-17 21:18:57.20	54.07	21.32	-85.2	-88.6	3.0	1.56e+00	0	47	104	0	60	1048574
2026-01-17 21:18:58.20	54.29	21.39	-85.2	-88.6	3.0	1.56e+00	0	47	104	0	60	1048574
2026-01-17 21:18:59.20	54.51	21.46	-85.2	-88.6	3.0	1.56e+00	0	47	104	0	60	1048575
2026-01-17 21:19:00.20	54.74	21.53	-85.2	-88.6	2.9	1.56e+00	0	47	104	0	60	1048573
2026-01-17 21:19:01.20	54.96	21.60	-85.2	-88.6	2.9	1.56e+00	0	47	104	0	60	1048574
2026-01-17 21:19:02.19	55.19	21.67	-85.2	-88.6	3.0	1.56e+00	0	47	104	0	60	1048575
2026-01-17 21:19:03.20	55.41	21.74	-85.2	-88.6	3.1	1.56e+00	0	47	104	0	60	1048575
2026-01-17 21:19:04.20	55.64	21.81	-85.2	-88.6	3.1	1.56e+00	0	47	104	0	60	1048574
2026-01-17 21:19:05.21	55.87	21.88	-85.2	-88.6	2.9	1.55e+00	0	47	104	0	60	1048574
2026-01-17 21:19:06.22	56.11	21.95	-85.2	-88.6	2.9	1.55e+00	0	47	104	0	60	1048574
2026-01-17 21:19:07.23	56.34	22.02	-85.2	-88.6	3.2	1.56e+00	0	47	104	0	60	1048575
2026-01-17 21:19:08.23	56.57	22.09	-85.2	-88.6	2.9	1.56e+00	0	47	104	0	60	1048575
2026-01-17 21:19:09.24	56.81	22.16	-85.2	-88.6	3.3	1.56e+00	0	47	104	0	60	1048575
2026-01-17 21:19:10.24	57.04	22.23	-85.2	-88.6	3.0	1.55e+00	0	47	104	0	60	1048575
2026-01-17 21:19:11.25	57.28	22.30	-85.2	-88.6	3.1	1.56e+00	0	47	104	0	60	1048574
2026-01-17 21:19:12.25	57.52	22.37	-85.2	-88.6	3.0	1.56e+00	0	47	104	0	60	1048572
2026-01-17 21:19:13.25	57.75	22.44	-85.2	-88.6	3.0	1.56e+00	0	47	104	0	60	1048573
2026-01-17 21:19:14.26	57.99	22.50	-85.2	-88.6	2.9	1.56e+00	0	47	104	0	60	1048575
2026-01-17 21:19:15.26	58.23	22.57	-85.2	-88.6	3.1	1.56e+00	0	47	104	0	60	1048575
2026-01-17 21:19:16.27	58.48	22.64	-85.2	-88.6	3.1	1.56e+00	0	47	104	0	60	1048575
2026-01-17 21:19:17.28	58.72	22.70	-85.2	-88.6	3.1	1.56e+00	0	47	104	0	60	1048574
2026-01-17 21:19:18.29	58.96	22.77	-85.2	-88.6	2.9	1.56e+00	0	47	104	0	60	1048573
2026-01-17 21:19:19.29	59.21	22.84	-85.2	-88.6	2.8	1.55e+00	0	47	104	0	60	1048575
2026-01-17 21:19:20.30	59.45	22.90	-85.2	-88.6	3.0	1.56e+00	0	47	104	0	60	1048573
2026-01-17 21:19:21.30	59.70	22.97	-85.2	-88.6	3.0	1.56e+00	0	47	104	0	60	1048572
2026-01-17 21:19:22.31	59.95	23.03	-85.2	-88.6	3.1	1.56e+00	0	47	104	0	60	1048574
2026-01-17 21:19:23.32	60.20	23.10	-85.2	-88.6	3.0	1.56e+00	0	47	104	0	60	1048574
2026-01-17 21:19:24.32	60.45	23.16	-85.2	-88.6	3.0	1.55e+00	0	47	104	0	60	1048575
2026-01-17 21:19:25.33	60.70	23.23	-85.2	-88.6	2.9	1.56e+00	0	47	104	0	60	1048574
2026-01-17 21:19:26.34	60.95	23.29	-85.2	-88.6	3.0	1.56e+00	0	47	104	0	60	1048575
2026-01-17 21:19:27.35	61.21	23.35	-85.2	-88.6	3.2	1.56e+00	0	47	104	0	60	1048574
2026-01-17 21:19:28.36	61.46	23.42	-85.2	-88.6	2.9	1.56e+00	0	47	104	0	60	1048575
2026-01-17 21:19:29.36	61.71	23.48	-85.2	-88.6	3.0	1.56e+00	0	47	104	0	60	1048575
2026-01-17 21:19:30.36	61.97	23.54	-85.2	-88.6	3.1	1.56e+00	0	47	104	0	60	1048574
2026-01-17 21:19:31.36	62.22	23.60	-85.2	-88.6	2.9	1.56e+00	0	47	104	0	60	1048575
2026-01-17 21:19:32.37	62.48	23.66	-85.2	-88.6	3.1	1.56e+00	0	47	104	0	60	1048574
2026-01-17 21:19:33.38	62.74	23.72	-85.2	-88.6	3.0	1.56e+00	0	47	104	0	60	1048575
2026-01-17 21:19:34.39	63.00	23.78	-85.2	-88.6	2.9	1.55e+00	0	47	104	0	60	1048575
2026-01-17 21:19:35.40	63.27	23.84	-85.2	-88.6	3.0	1.56e+00	0	47	104	0	60	1048575
2026-01-17 21:19:36.40	63.53	23.90	-85.2	-88.6	2.8	1.56e+00	0	47	104	0	60	1048574
2026-01-17 21:19:37.41	63.79	23.96	-85.2	-88.6	3.0	1.56e+00	0	47	104	0	60	1048575
2026-01-17 21:19:38.42	64.05	24.02	-85.2	-88.6	3.0	1.56e+00	0	47	104	0	60	1048575
2026-01-17 21:19:39.43	64.32	24.07	-85.2	-88.6	3.0	1.56e+00	0	47	104	0	60	1048575
2026-01-17 21:19:40.44	64.59	24.13	-85.2	-88.6	2.8	1.55e+00	0	47	104	0	60	1048575
2026-01-17 21:19:41.44	64.85	24.19	-85.2	-88.6	3.1	1.56e+00	0	47	104	0	60	1048575
2026-01-17 21:19:42.45	65.12	24.24	-85.2	-88.6	2.7	1.56e+00	0	47	104	0	60	1048575
2026-01-17 21:19:43.46	65.39	24.30	-85.2	-88.6	3.1	1.56e+00	0	47	104	0	60	1048573
2026-01-17 21:19:44.46	65.66	24.35	-85.2	-88.6	2.9	1.56e+00	0	47	104	0	60	1048575
2026-01-17 21:19:45.47	65.93	24.41	-85.2	-88.6	3.2	1.56e+00	0	47	104	0	60	1048574
2026-01-17 21:19:46.48	66.20	24.46	-85.2	-88.6	2.9	1.55e+00	0	47	104	0	60	1048575
2026-01-17 21:19:47.49	66.47	24.52	-85.2	-88.6	3.1	1.56e+00	0	47	104	0	60	1048575
2026-01-17 21:19:48.49	66.75	24.57	-85.2	-88.6	3.1	1.55e+00	0	47	104	0	60	1048573
2026-01-17 21:19:49.50	67.02	24.62	-85.2	-88.6	3.0	1.56e+00	0	47	104	0	60	1048573
2026-01-17 21:19:50.51	67.30	24.67	-85.2	-88.6	3.1	1.56e+00	0	47	104	0	60	1048575
2026-01-17 21:19:51.52	67.57	24.72	-85.2	-88.6	3.1	1.55e+00	0	47	104	0	60	1048575
2026-01-17 21:19:52.52	67.85	24.77	-85.2	-88.6	2.8	1.56e+00	0	47	104	0	60	1048575
2026-01-17 21:19:53.53	68.13	24.82	-85.2	-88.6	3.1	1.56e+00	0	47	104	0	60	1048574
2026-01-17 21:19:54.53	68.40	24.87	-85.2	-88.6	3.1	1.55e+00	0	47	104	0	60	1048575
2026-01-17 21:19:55.54	68.68	24.92	-85.2	-88.6	3.1	1.56e+00	0	47	104	0	60	1048575
2026-01-17 21:19:56.55	68.96	24.97	-85.2	-88.6	3.0	1.55e+00	0	47	104	0	60	1048575
2026-01-17 21:19:57.56	69.25	25.02	-85.2	-88.6	3.0	1.56e+00	0	47	104	0	60	1048575
2026-01-17 21:19:58.56	69.53	25.06	-85.2	-88.6	2.9	1.55e+00	0	47	104	0	60	1048573
2026-01-17 21:19:59.56	69.81	25.11	-85.2	-88.6	2.9	1.55e+00	0	47	104	0	60	1048571
2026-01-17 21:20:00.57	70.09	25.16	-85.2	-88.6	2.8	1.56e+00	0	47	104	0	60	1048575
2026-01-17 21:20:01.58	70.38	25.20	-85.2	-88.6	3.1	1.56e+00	0	47	104	0	60	1048573
2026-01-17 21:20:02.59	70.66	25.25	-85.2	-88.6	3.1	1.55e+00	0	47	104	0	60	1048574
2026-01-17 21:20:03.60	70.95	25.29	-85.2	-88.6	3.0	1.56e+00	0	47	104	0	60	1048575
2026-01-17 21:20:04.60	71.23	25.33	-85.2	-88.6	2.8	1.56e+00	0	47	104	0	60	1048575
2026-01-17 21:20:05.61	71.52	25.37	-85.2	-88.6	3.0	1.56e+00	0	47	104	0	60	1048575
2026-01-17 21:20:06.62	71.81	25.42	-84.7	-88.6	3.1	1.56e+00	0	47	104	0	60	1048574
2026-01-17 21:20:07.62	72.10	25.46	-85.2	-88.6	3.3	1.56e+00	0	47	104	0	60	1048574
2026-01-17 21:20:08.62	72.39	25.50	-85.2	-88.6	3.1	1.55e+00	0	47	104	0	60	1048575
2026-01-17 21:20:09.63	72.68	25.54	-85.2	-88.6	3.2	1.55e+00	0	47	104	0	60	1048575
2026-01-17 21:20:10.63	72.97	25.57	-85.2	-88.6	2.9	1.56e+00	0	47	104	0	60	1048575
2026-01-17 21:20:11.64	73.26	25.61	-85.2	-88.6	2.9	1.55e+00	0	47	104	0	60	1048575
2026-01-17 21:20:12.65	73.55	25.65	-85.2	-88.6	3.0	1.56e+00	0	47	104	0	60	1048572
2026-01-17 21:20:13.66	73.85	25.69	-85.2	-88.6	3.0	1.56e+00	0	47	104	0	60	1048574
2026-01-17 21:20:14.66	74.14	25.72	-85.2	-88.6	3.0	1.56e+00	0	47	104	0	60	1048574
2026-01-17 21:20:15.67	74.43	25.76	-85.2	-88.6	2.8	1.55e+00	0	47	104	0	60	1048573
2026-01-17 21:20:16.67	74.73	25.79	-85.2	-88.6	3.2	1.56e+00	0	47	104	0	60	1048574
2026-01-17 21:20:17.68	75.02	25.83	-85.2	-88.6	3.1	1.56e+00	0	47	104	0	60	1048574
2026-01-17 21:20:18.69	75.32	25.86	-85.2	-88.6	3.0	1.56e+00	0	47	104	0	60	1048572
2026-01-17 21:20:19.69	75.62	25.89	-85.2	-88.6	3.0	1.55e+00	0	47	104	0	60	1048574
2026-01-17 21:20:20.70	75.91	25.92	-85.2	-88.6	2.9	1.56e+00	0	47	104	0	60	1048572
2026-01-17 21:20:21.71	76.21	25.95	-85.2	-88.6	2.9	1.56e+00	0	47	104	0	60	1048575
2026-01-17 21:20:22.72	76.51	25.98	-85.2	-88.6	3.1	1.56e+00	0	47	104	0	60	1048574
2026-01-17 21:20:23.72	76.81	26.01	-85.2	-88.6	3.0	1.56e+00	0	47	104	0	60	1048575
2026-01-17 21:20:24.73	77.11	26.04	-85.2	-88.6	2.7	1.56e+00	0	47	104	0	60	1048575
2026-01-17 21:20:25.73	77.41	26.07	-85.2	-88.6	3.0	1.56e+00	0	47	104	0	60	1048570
2026-01-17 21:20:26.74	77.71	26.09	-85.2	-88.6	2.9	1.56e+00	0	47	104	0	60	1048571
2026-01-17 21:20:27.74	78.01	26.12	-85.2	-88.6	3.0	1.55e+00	0	47	104	0	60	1048572
2026-01-17 21:20:28.75	78.31	26.14	-85.2	-88.6	2.8	1.55e+00	0	47	104	0	60	1048575
2026-01-17 21:20:29.75	78.61	26.17	-85.2	-88.6	2.9	1.55e+00	0	47	104	0	60	1048575
2026-01-17 21:20:30.76	78.92	26.19	-85.2	-88.6	3.2	1.56e+00	0	47	104	0	60	1048574
2026-01-17 21:20:31.76	79.22	26.21	-85.2	-88.6	3.1	1.56e+00	0	47	104	0	60	1048575
2026-01-17 21:20:32.77	79.52	26.24	-85.2	-88.6	3.2	1.56e+00	0	47	104	0	60	1048574
2026-01-17 21:20:33.78	79.83	26.26	-85.2	-88.6	3.1	1.56e+00	0	47	104	0	60	1048575
2026-01-17 21:20:34.79	80.13	26.28	-85.2	-88.6	3.2	1.56e+00	0	47	104	0	60	1048575
2026-01-17 21:20:35.80	80.44	26.30	-85.2	-88.6	3.2	1.55e+00	0	47	104	0	60	1048573
2026-01-17 21:20:36.80	80.74	26.32	-85.2	-88.6	3.0	1.56e+00	0	47	104	0	60	1048575
2026-01-17 21:20:37.81	81.05	26.33	-85.2	-88.6	2.9	1.55e+00	0	47	104	0	60	1048575
2026-01-17 21:20:38.81	81.35	26.35	-85.2	-88.6	2.9	1.56e+00	0	47	104	0	60	1048574
2026-01-17 21:20:39.81	81.66	26.37	-85.2	-88.6	3.0	1.56e+00	0	47	104	0	60	1048575
2026-01-17 21:20:40.82	81.96	26.38	-85.2	-88.6	3.1	1.56e+00	0	47	104	0	60	1048573
2026-01-17 21:20:41.83	82.27	26.40	-85.2	-88.6	3.0	1.55e+00	0	47	104	0	60	1048575
2026-01-17 21:20:42.83	82.58	26.41	-85.2	-88.6	2.9	1.55e+00	0	47	104	0	60	1048573
2026-01-17 21:20:43.84	82.88	26.42	-85.2	-88.6	3.0	1.56e+00	0	47	104	0	60	1048575
2026-01-17 21:20:44.85	83.19	26.43	-85.2	-88.6	3.0	1.55e+00	0	47	104	0	60	1048573
2026-01-17 21:20:45.85	83.50	26.44	-85.2	-88.6	2.9	1.55e+00	0	47	104	0	60	1048575
2026-01-17 21:20:46.86	83.81	26.45	-85.2	-88.6	2.9	1.55e+00	0	47	104	0	60	1048575
2026-01-17 21:20:47.87	84.12	26.46	-85.2	-88.6	3.0	1.55e+00	0	47	104	0	60	1048575
2026-01-17 21:20:48.87	84.42	26.47	-85.2	-88.6	2.9	1.56e+00	0	47	104	0	60	1048574
2026-01-17 21:20:49.88	84.73	26.48	-85.2	-88.6	3.2	1.55e+00	0	47	104	0	60	1048573
2026-01-17 21:20:50.89	85.04	26.49	-85.2	-88.6	2.9	1.55e+00	0	47	104	0	60	1048575
2026-01-17 21:20:51.90	85.35	26.49	-85.2	-88.6	3.1	1.56e+00	0	47	104	0	60	1048573
2026-01-17 21:20:52.90	85.66	26.50	-85.2	-88.6	3.0	1.56e+00	0	47	104	0	60	1048575
2026-01-17 21:20:53.91	85.97	26.50	-85.2	-88.6	2.9	1.56e+00	0	47	104	0	60	1048574
2026-01-17 21:20:54.92	86.28	26.50	-85.2	-88.6	3.1	1.55e+00	0	47	104	0	60	1048574
2026-01-17 21:20:55.93	86.59	26.50	-85.2	-88.6	3.0	1.56e+00	0	47	104	0	60	1048575
2026-01-17 21:20:56.94	86.90	26.51	-85.2	-88.6	3.1	1.56e+00	0	47	104	0	60	1048575
2026-01-17 21:20:57.94	87.20	26.51	-85.2	-88.6	2.9	1.55e+00	0	47	104	0	60	1048575
2026-01-17 21:20:58.95	87.51	26.51	-85.2	-88.6	3.0	1.56e+00	0	47	104	0	60	1048572
2026-01-17 21:20:59.95	87.82	26.50	-85.2	-88.6	2.8	1.56e+00	0	47	104	0	60	1048575
2026-01-17 21:21:00.96	88.13	26.50	-85.2	-88.6	3.2	1.56e+00	0	47	104	0	60	1048575
2026-01-17 21:21:01.97	88.44	26.50	-85.2	-88.6	3.1	1.56e+00	0	47	104	0	60	1048574
2026-01-17 21:21:02.97	88.75	26.50	-85.2	-88.6	3.1	1.56e+00	0	47	104	0	60	1048575
2026-01-17 21:21:03.98	89.06	26.49	-85.2	-88.6	3.1	1.56e+00	0	47	104	0	60	1048572
2026-01-17 21:21:04.99	89.37	26.49	-85.2	-88.6	2.9	1.55e+00	0	47	104	0	60	1048575
2026-01-17 21:21:06.00	89.68	26.48	-85.2	-88.6	3.1	1.56e+00	0	47	104	0	60	1048573
2026-01-17 21:21:07.01	89.99	26.47	-85.2	-88.6	2.8	1.55e+00	0	47	104	0	60	1048575
2026-01-17 21:21:08.01	90.29	26.46	-85.2	-88.6	2.9	1.56e+00	0	47	104	0	60	1048575
2026-01-17 21:21:09.02	90.60	26.45	-85.2	-88.6	2.8	1.56e+00	0	47	104	0	60	1048572
2026-01-17 21:21:10.03	90.91	26.44	-85.2	-88.6	3.0	1.55e+00	0	47	104	0	60	1048575
2026-01-17 21:21:11.03	91.22	26.43	-85.2	-88.6	2.8	1.55e+00	0	47	104	0	60	1048574
2026-01-17 21:21:12.04	91.52	26.42	-85.2	-88.6	3.2	1.56e+00	0	47	104	0	60	1048575
2026-01-17 21:21:13.04	91.83	26.41	-85.2	-88.6	3.1	1.56e+00	0	47	104	0	60	1048575
2026-01-17 21:21:14.05	92.14	26.40	-85.2	-88.6	3.1	1.56e+00	0	47	104	0	60	1048573
2026-01-17 21:21:15.05	92.44	26.38	-85.2	-88.6	3.1	1.56e+00	0	47	104	0	60	1048575
2026-01-17 21:21:16.06	92.75	26.37	-85.2	-88.6	3.2	1.56e+00	0	47	104	0	60	1048575
2026-01-17 21:21:17.07	93.06	26.35	-85.2	-88.6	3.0	1.55e+00	0	47	104	0	60	1048575
2026-01-17 21:21:18.07	93.36	26.33	-85.2	-88.6	2.8	1.56e+00	0	47	104	0	60	1048574
2026-01-17 21:21:19.08	93.67	26.32	-85.2	-88.6	3.2	1.56e+00	0	47	104	0	60	1048575
2026-01-17 21:21:20.09	93.97	26.30	-85.2	-88.6	3.1	1.56e+00	0	47	104	0	60	1048575
2026-01-17 21:21:21.09	94.28	26.28	-85.2	-88.6	2.9	1.56e+00	0	47	104	0	60	1048573
2026-01-17 21:21:22.10	94.58	26.26	-85.2	-88.6	3.0	1.56e+00	0	47	104	0	60	1048575
2026-01-17 21:21:23.11	94.89	26.24	-85.2	-88.6	3.1	1.56e+00	0	47	104	0	60	1048575
2026-01-17 21:21:24.12	95.19	26.21	-85.2	-88.6	3.2	1.56e+00	0	47	104	0	60	1048574
2026-01-17 21:21:25.13	95.50	26.19	-85.2	-88.6	2.9	1.56e+00	0	47	104	0	60	1048573
2026-01-17 21:21:26.13	95.80	26.17	-85.2	-88.6	3.1	1.56e+00	0	47	104	0	60	1048575
2026-01-17 21:21:27.14	96.10	26.14	-85.2	-88.6	3.1	1.56e+00	0	47	104	0	60	1048575
2026-01-17 21:21:28.14	96.40	26.12	-85.2	-88.6	3.1	1.55e+00	0	47	104	0	60	1048575
2026-01-17 21:21:29.14	96.70	26.09	-85.2	-88.6	3.0	1.56e+00	0	47	104	0	60	1048575
2026-01-17 21:21:30.14	97.00	26.07	-85.2	-88.6	3.1	1.55e+00	0	47	104	0	60	1048574
2026-01-17 21:21:31.15	97.30	26.04	-85.2	-88.6	3.0	1.56e+00	0	47	104	0	60	1048574
2026-01-17 21:21:32.15	97.60	26.01	-85.2	-88.6	3.2	1.56e+00	0	47	104	0	60	1048574
2026-01-17 21:21:33.16	97.90	25.98	-85.2	-88.6	3.0	1.56e+00	0	47	104	0	60	1048575
2026-01-17 21:21:34.17	98.20	25.95	-85.2	-88.6	2.9	1.56e+00	0	47	104	0	60	1048570
2026-01-17 21:21:35.18	98.50	25.92	-85.2	-88.6	3.0	1.56e+00	0	47	104	0	60	1048575
2026-01-17 21:21:36.19	98.80	25.89	-84.3	-88.6	2.9	1.56e+00	0	47	104	0	60	1048569
2026-01-17 21:21:37.19	99.09	25.86	-85.2	-88.6	2.9	1.56e+00	0	47	104	0	60	1048575
2026-01-17 21:21:38.20	99.39	25.82	-85.2	-88.6	3.2	1.56e+00	0	47	104	0	60	1048575
2026-01-17 21:21:39.21	99.69	25.79	-85.2	-88.6	3.1	1.56e+00	0	47	104	0	60	1048575
2026-01-17 21:21:40.22	99.99	25.76	-85.2	-88.6	3.0	1.56e+00	0	47	104	0	60	1048575
2026-01-17 21:21:41.23	100.28	25.72	-85.2	-88.6	2.8	1.56e+00	0	47	104	0	60	1048574
2026-01-17 21:21:42.24	100.58	25.68	-85.2	-88.6	3.1	1.56e+00	0	47	104	0	60	1048575
2026-01-17 21:21:43.24	100.87	25.65	-85.2	-88.6	3.1	1.55e+00	0	47	104	0	60	1048574
2026-01-17 21:21:44.25	101.16	25.61	-85.2	-88.6	3.0	1.56e+00	0	47	104	0	60	1048575
2026-01-17 21:21:45.25	101.45	25.57	-85.2	-88.6	3.1	1.55e+00	0	47	104	0	60	1048573
2026-01-17 21:21:46.26	101.74	25.53	-85.2	-88.6	3.0	1.56e+00	0	47	104	0	60	1048575
2026-01-17 21:21:47.27	102.04	25.49	-85.2	-88.6	3.0	1.56e+00	0	47	104	0	60	1048575
2026-01-17 21:21:48.27	102.32	25.45	-85.2	-88.6	3.1	1.56e+00	0	47	104	0	60	1048575
2026-01-17 21:21:49.27	102.61	25.41	-85.2	-88.6	3.0	1.56e+00	0	47	104	0	60	1048573
2026-01-17 21:21:50.28	102.90	25.37	-85.2	-88.6	2.8	1.56e+00	0	47	104	0	60	1048574
2026-01-17 21:21:51.28	103.19	25.33	-85.2	-88.6	3.2	1.56e+00	0	47	104	0	60	1048573
2026-01-17 21:21:52.28	103.47	25.29	-85.2	-88.6	3.0	1.56e+00	0	47	104	0	60	1048574
2026-01-17 21:21:53.28	103.76	25.24	-85.2	-88.6	3.2	1.55e+00	0	47	104	0	60	1048575
2026-01-17 21:21:54.29	104.04	25.20	-85.2	-88.6	3.2	1.56e+00	0	47	104	0	60	1048573
2026-01-17 21:21:55.30	104.33	25.15	-85.2	-88.6	2.9	1.56e+00	0	47	104	0	60	1048574
2026-01-17 21:21:56.31	104.61	25.11	-85.2	-88.6	2.9	1.56e+00	0	47	104	0	60	1048573
2026-01-17 21:21:57.31	104.90	25.06	-85.2	-88.6	2.8	1.56e+00	0	47	104	0	60	1048574
2026-01-17 21:21:58.32	105.18	25.01	-85.2	-88.6	2.8	1.55e+00	0	47	104	0	60	1048575
2026-01-17 21:21:59.32	105.46	24.97	-85.2	-88.6	3.2	1.56e+00	0	47	104	0	60	1048574
2026-01-17 21:22:00.32	105.74	24.92	-85.2	-88.6	3.1	1.56e+00	0	47	104	0	60	1048572
2026-01-17 21:22:01.33	106.02	24.87	-85.2	-88.6	2.9	1.55e+00	0	47	104	0	60	1048575
2026-01-17 21:22:02.34	106.30	24.82	-85.2	-88.6	2.9	1.56e+00	0	47	104	0	60	1048573
2026-01-17 21:22:03.34	106.58	24.77	-85.2	-88.6	3.2	1.56e+00	0	47	104	0	60	1048574
2026-01-17 21:22:04.35	106.85	24.72	-85.2	-88.6	3.0	1.56e+00	0	47	104	0	60	1048575
2026-01-17 21:22:05.36	107.13	24.67	-85.2	-88.6	3.3	1.56e+00	0	47	104	0	60	1048574
2026-01-17 21:22:06.37	107.41	24.62	-84.7	-88.6	3.1	1.56e+00	0	47	104	0	60	1048575
2026-01-17 21:22:07.37	107.68	24.56	-85.2	-88.6	2.9	1.56e+00	0	47	104	0	60	1048575
2026-01-17 21:22:08.38	107.96	24.51	-85.2	-88.6	2.9	1.56e+00	0	47	104	0	60	1048575
2026-01-17 21:22:09.39	108.23	24.46	-85.2	-88.6	3.1	1.55e+00	0	47	104	0	60	1048575
2026-01-17 21:22:10.40	108.50	24.40	-85.2	-88.6	3.0	1.56e+00	0	47	104	0	60	1048575
2026-01-17 21:22:11.41	108.77	24.35	-84.7	-88.6	2.8	1.56e+00	0	47	104	0	60	1048572
2026-01-17 21:22:12.41	109.04	24.29	-85.2	-88.6	2.8	1.55e+00	0	47	104	0	60	1048575
2026-01-17 21:22:13.42	109.31	24.24	-85.2	-88.6	3.2	1.56e+00	0	47	104	0	60	1048575
2026-01-17 21:22:14.43	109.58	24.18	-85.2	-88.6	3.2	1.56e+00	0	47	104	0	60	1048569
2026-01-17 21:22:15.44	109.85	24.12	-85.2	-88.6	2.9	1.55e+00	0	47	104	0	60	1048575
2026-01-17 21:22:16.44	110.12	24.07	-84.7	-88.6	2.9	1.56e+00	0	47	104	0	60	1048574
2026-01-17 21:22:17.45	110.38	24.01	-85.2	-88.6	3.0	1.56e+00	0	47	104	0	60	1048574
2026-01-17 21:22:18.45	110.64	23.95	-85.2	-88.6	3.1	1.55e+00	0	47	104	0	60	1048573
2026-01-17 21:22:19.46	110.91	23.89	-85.2	-88.6	2.9	1.56e+00	0	47	104	0	60	1048573
2026-01-17 21:22:20.46	111.17	23.83	-85.2	-88.6	2.8	1.56e+00	0	47	104	0	60	1048573
2026-01-17 21:22:21.47	111.43	23.77	-84.7	-88.6	3.0	1.56e+00	0	47	104	0	60	1048574
2026-01-17 21:22:22.47	111.69	23.71	-85.2	-88.6	2.9	1.56e+00	0	47	104	0	60	1048575
2026-01-17 21:22:23.48	111.95	23.65	-85.2	-88.6	3.0	1.56e+00	0	47	104	0	60	1048574
2026-01-17 21:22:24.49	112.21	23.59	-85.2	-88.6	3.0	1.56e+00	0	47	104	0	60	1048568
2026-01-17 21:22:25.49	112.47	23.53	-85.2	-88.6	2.9	1.56e+00	0	47	104	0	60	1048575
2026-01-17 21:22:26.50	112.73	23.47	-85.2	-88.6	2.9	1.56e+00	0	47	104	0	60	1048575
2026-01-17 21:22:27.50	112.98	23.41	-85.2	-88.6	3.1	1.56e+00	0	47	104	0	60	1048573
2026-01-17 21:22:28.51	113.23	23.34	-85.2	-88.6	3.1	1.56e+00	0	47	104	0	60	1048575
2026-01-17 21:22:29.52	113.49	23.28	-85.2	-88.6	3.1	1.55e+00	0	47	104	0	60	1048566
2026-01-17 21:22:30.51	113.74	23.22	-85.2	-88.6	3.0	1.56e+00	0	47	104	0	60	1048572
2026-01-17 21:22:31.52	113.99	23.15	-84.7	-88.6	2.8	1.56e+00	0	47	104	0	60	1048574
2026-01-17 21:22:32.53	114.24	23.09	-85.2	-88.6	3.1	1.56e+00	0	47	104	0	60	1048572
2026-01-17 21:22:33.53	114.49	23.02	-85.2	-88.6	2.8	1.56e+00	0	47	104	0	60	1048575
2026-01-17 21:22:34.53	114.74	22.96	-85.2	-88.6	3.1	1.56e+00	0	47	104	0	60	1048574
2026-01-17 21:22:35.54	114.99	22.89	-85.2	-88.6	3.2	1.55e+00	0	47	104	0	60	1048574
2026-01-17 21:22:36.54	115.23	22.83	-84.7	-88.6	3.0	1.56e+00	0	47	104	0	60	1048575
2026-01-17 21:22:37.55	115.48	22.76	-85.2	-88.6	3.1	1.56e+00	0	47	104	0	60	1048575
2026-01-17 21:22:38.55	115.72	22.69	-85.2	-88.6	2.9	1.56e+00	0	47	104	0	60	1048575
2026-01-17 21:22:39.56	115.96	22.63	-85.2	-88.6	3.0	1.56e+00	0	47	104	0	60	1048575
2026-01-17 21:22:40.56	116.21	22.56	-85.2	-88.6	2.9	1.56e+00	0	47	104	0	60	1048571
2026-01-17 21:22:41.57	116.45	22.49	-85.2	-88.6	3.0	1.55e+00	0	47	104	0	60	1048575
2026-01-17 21:22:42.58	116.69	22.42	-85.2	-88.6	3.1	1.56e+00	0	47	104	0	60	1048575
2026-01-17 21:22:43.59	116.93	22.35	-85.2	-88.6	3.0	1.56e+00	0	47	104	0	60	1048575
2026-01-17 21:22:44.60	117.17	22.29	-85.2	-88.6	2.9	1.56e+00	0	47	104	0	60	1048574
2026-01-17 21:22:45.61	117.41	22.22	-85.2	-88.6	3.3	1.56e+00	0	47	104	0	60	1048575
2026-01-17 21:22:46.61	117.64	22.15	-85.2	-88.6	2.9	1.56e+00	0	47	104	0	60	1048573
2026-01-17 21:22:47.62	117.88	22.08	-85.2	-88.6	3.0	1.56e+00	0	47	104	0	60	1048574
2026-01-17 21:22:48.63	118.11	22.01	-85.2	-88.6	3.0	1.56e+00	0	47	104	0	60	1048574
2026-01-17 21:22:49.64	118.35	21.94	-85.2	-88.6	3.0	1.56e+00	0	47	104	0	60	1048575
2026-01-17 21:22:50.64	118.58	21.87	-85.2	-88.6	3.0	1.56e+00	0	47	104	0	60	1048575
2026-01-17 21:22:51.65	118.81	21.79	-85.2	-88.6	2.9	1.56e+00	0	47	104	0	60	1048572
2026-01-17 21:22:52.66	119.04	21.72	-85.2	-88.6	2.9	1.55e+00	0	47	104	0	60	1048575
2026-01-17 21:22:53.67	119.27	21.65	-85.2	-88.6	2.9	1.56e+00	0	47	104	0	60	1048573
2026-01-17 21:22:54.67	119.50	21.58	-85.2	-88.6	3.1	1.56e+00	0	47	104	0	60	1048575
2026-01-17 21:22:55.68	119.73	21.51	-85.2	-88.6	3.0	1.56e+00	0	47	104	0	60	1048574
2026-01-17 21:22:56.68	119.95	21.44	-84.7	-88.6	3.1	1.56e+00	0	47	104	0	60	1048575
2026-01-17 21:22:57.68	120.18	21.37	-85.2	-88.6	2.8	1.56e+00	0	47	104	0	60	1048574
2026-01-17 21:22:58.69	120.40	21.29	-85.2	-88.6	3.0	1.56e+00	0	47	104	0	60	1048574
2026-01-17 21:22:59.69	120.62	21.22	-85.2	-88.6	2.9	1.56e+00	0	47	104	0	60	1048568
2026-01-17 21:23:00.70	120.84	21.15	-85.2	-88.6	3.0	1.55e+00	0	47	104	0	60	1048575
2026-01-17 21:23:01.71	121.07	21.07	-84.7	-88.6	2.9	1.56e+00	0	47	104	0	60	1048574
2026-01-17 21:23:02.71	121.28	21.00	-85.2	-88.6	3.1	1.56e+00	0	47	104	0	60	1048575
2026-01-17 21:23:03.72	121.50	20.93	-85.2	-88.6	2.9	1.56e+00	0	47	104	0	60	1048575
2026-01-17 21:23:04.73	121.72	20.85	-85.2	-88.6	2.8	1.56e+00	0	47	104	0	60	1048574
2026-01-17 21:23:05.74	121.94	20.78	-85.2	-88.6	3.1	1.56e+00	0	47	104	0	60	1048575
2026-01-17 21:23:06.74	122.16	20.70	-85.2	-88.6	2.8	1.56e+00	0	47	104	0	60	1048575
2026-01-17 21:23:07.75	122.37	20.63	-85.2	-88.6	3.0	1.56e+00	0	47	104	0	60	1048573
2026-01-17 21:23:08.75	122.58	20.56	-85.2	-88.6	3.1	1.56e+00	0	47	104	0	60	1048575
2026-01-17 21:23:09.76	122.80	20.48	-85.2	-88.6	3.1	1.56e+00	0	47	104	0	60	1048573
2026-01-17 21:23:10.76	123.01	20.41	-85.2	-88.6	3.0	1.56e+00	0	47	104	0	60	1048575
2026-01-17 21:23:11.76	123.22	20.33	-84.7	-88.6	2.9	1.56e+00	0	47	104	0	60	1048575
2026-01-17 21:23:12.77	123.43	20.26	-85.2	-88.6	3.0	1.56e+00	0	47	104	0	60	1048571
2026-01-17 21:23:13.77	123.64	20.18	-85.2	-88.6	3.0	1.56e+00	0	47	104	0	60	1048574
2026-01-17 21:23:14.78	123.84	20.11	-85.2	-88.6	3.0	1.56e+00	0	47	104	0	60	1048575
2026-01-17 21:23:15.79	124.05	20.03	-85.2	-88.6	3.0	1.55e+00	0	47	104	0	60	1048574
2026-01-17 21:23:16.80	124.26	19.95	-85.2	-88.6	2.8	1.56e+00	0	47	104	0	60	1048573
2026-01-17 21:23:17.81	124.46	19.88	-85.2	-88.6	3.1	1.56e+00	0	47	104	0	60	1048573
2026-01-17 21:23:18.81	124.67	19.80	-85.2	-88.6	3.0	1.55e+00	0	47	104	0	60	1048574
2026-01-17 21:23:19.82	124.87	19.72	-85.2	-88.6	3.1	1.56e+00	0	47	104	0	60	1048572
2026-01-17 21:23:20.83	125.07	19.65	-85.2	-88.6	2.7	1.56e+00	0	47	104	0	60	1048572
2026-01-17 21:23:21.84	125.28	19.57	-85.2	-88.6	3.0	1.56e+00	0	47	104	0	60	1048572
2026-01-17 21:23:22.85	125.48	19.49	-85.2	-88.6	2.9	1.56e+00	0	47	104	0	60	1048574
2026-01-17 21:23:23.85	125.67	19.42	-85.2	-88.6	3.1	1.55e+00	0	47	104	0	60	1048575
2026-01-17 21:23:24.85	125.87	19.34	-85.2	-88.6	3.0	1.56e+00	0	47	104	0	60	1048574
2026-01-17 21:23:25.86	126.07	19.27	-85.2	-88.6	3.0	1.56e+00	0	47	104	0	60	1048575
2026-01-17 21:23:26.86	126.26	19.19	-85.2	-88.6	3.1	1.56e+00	0	47	104	0	60	1048572
2026-01-17 21:23:27.87	126.46	19.11	-85.2	-88.6	2.9	1.56e+00	0	47	104	0	60	1048575
2026-01-17 21:23:28.87	126.65	19.04	-85.2	-88.6	3.1	1.56e+00	0	47	104	0	60	1048574
2026-01-17 21:23:29.87	126.84	18.96	-84.3	-88.6	3.3	1.56e+00	0	47	104	0	60	1048575
2026-01-17 21:23:30.88	127.04	18.88	-85.2	-88.6	2.9	1.56e+00	0	47	104	0	60	1048574
2026-01-17 21:23:31.89	127.23	18.80	-85.2	-88.6	3.2	1.55e+00	0	47	104	0	60	1048573
2026-01-17 21:23:32.90	127.42	18.73	-85.2	-88.6	2.9	1.56e+00	0	47	104	0	60	1048573
2026-01-17 21:23:33.91	127.61	18.65	-85.2	-88.6	3.2	1.56e+00	0	47	104	0	60	1048574
2026-01-17 21:23:34.92	127.80	18.57	-85.2	-88.6	3.1	1.56e+00	0	47	104	0	60	1048575
2026-01-17 21:23:35.92	127.99	18.49	-85.2	-88.6	3.0	1.56e+00	0	47	104	0	60	1048575
2026-01-17 21:23:36.93	128.17	18.42	-85.2	-88.6	3.1	1.56e+00	0	47	104	0	60	1048575
2026-01-17 21:23:37.94	128.36	18.34	-85.2	-88.6	3.2	1.55e+00	0	47	104	0	60	1048575
2026-01-17 21:23:38.95	128.55	18.26	-85.2	-88.6	3.0	1.56e+00	0	47	104	0	60	1048572
2026-01-17 21:23:39.95	128.73	18.18	-85.2	-88.6	2.9	1.56e+00	0	47	104	0	60	1048572
2026-01-17 21:23:40.96	128.91	18.10	-85.2	-88.6	2.9	1.56e+00	0	47	104	0	60	1048575
2026-01-17 21:23:41.96	129.09	18.03	-85.2	-88.6	3.0	1.56e+00	0	47	104	0	60	1048573
2026-01-17 21:23:42.97	129.28	17.95	-85.2	-88.6	2.8	1.56e+00	0	47	104	0	60	1048575
2026-01-17 21:23:43.97	129.46	17.87	-85.2	-88.6	3.0	1.55e+00	0	47	104	0	60	1048575
2026-01-17 21:23:44.98	129.64	17.79	-85.2	-88.6	2.9	1.56e+00	0	47	104	0	60	1048573
2026-01-17 21:23:45.98	129.81	17.72	-85.2	-88.6	2.9	1.56e+00	0	47	104	0	60	1048574
2026-01-17 21:23:46.98	129.99	17.64	-85.2	-88.6	3.0	1.56e+00	0	47	104	0	60	1048575
2026-01-17 21:23:47.99	130.17	17.56	-85.2	-88.6	3.1	1.56e+00	0	47	104	0	60	1048575
2026-01-17 21:23:48.99	130.34	17.48	-85.2	-88.6	2.9	1.56e+00	0	47	104	0	60	1048575
2026-01-17 21:23:50.00	130.52	17.40	-85.2	-88.6	3.1	1.56e+00	0	47	104	0	60	1048575
2026-01-17 21:23:51.01	130.69	17.33	-85.2	-88.6	2.9	1.56e+00	0	47	104	0	60	1048575
2026-01-17 21:23:52.02	130.87	17.25	-85.2	-88.6	2.7	1.56e+00	0	47	104	0	60	1048575
2026-01-17 21:23:53.03	131.04	17.17	-85.2	-88.6	2.9	1.56e+00	0	47	104	0	60	1048575
2026-01-17 21:23:54.03	131.21	17.09	-85.2	-88.6	2.9	1.56e+00	0	47	104	0	60	1048574
2026-01-17 21:23:55.05	131.38	17.01	-85.2	-88.6	3.0	1.56e+00	0	47	104	0	60	1048575
2026-01-17 21:23:56.05	131.55	16.94	-85.2	-88.6	3.0	1.56e+00	0	47	104	0	60	1048573
2026-01-17 21:23:57.06	131.72	16.86	-85.2	-88.6	3.0	1.56e+00	0	47	104	0	60	1048574
2026-01-17 21:23:58.07	131.89	16.78	-85.2	-88.6	2.9	1.55e+00	0	47	104	0	60	1048574
2026-01-17 21:23:59.08	132.06	16.70	-85.2	-88.6	3.0	1.56e+00	0	47	104	0	60	1048575
2026-01-17 21:24:00.08	132.22	16.62	-85.2	-88.6	3.2	1.56e+00	0	47	104	0	60	1048574
2026-01-17 21:24:01.09	132.39	16.55	-85.2	-88.6	3.0	1.56e+00	0	47	104	0	60	1048574
2026-01-17 21:24:02.10	132.55	16.47	-85.2	-88.6	2.9	1.55e+00	0	47	104	0	60	1048574
2026-01-17 21:24:03.11	132.72	16.39	-85.2	-88.6	3.0	1.56e+00	0	47	104	0	60	1048575
2026-01-17 21:24:04.11	132.88	16.31	-85.2	-88.6	3.1	1.56e+00	0	47	104	0	60	1048575
2026-01-17 21:24:05.12	133.04	16.23	-85.2	-88.6	3.2	1.56e+00	0	47	104	0	60	1048575
2026-01-17 21:24:06.12	133.21	16.16	-85.2	-88.6	3.0	1.55e+00	0	47	104	0	60	1048574
2026-01-17 21:24:07.13	133.37	16.08	-85.2	-88.6	2.9	1.55e+00	0	47	104	0	60	1048574
2026-01-17 21:24:08.13	133.53	16.00	-85.2	-88.6	3.2	1.55e+00	0	47	104	0	60	1048575
2026-01-17 21:24:09.14	133.69	15.92	-85.2	-88.6	3.2	1.56e+00	0	47	104	0	60	1048573
2026-01-17 21:24:10.14	133.84	15.85	-85.2	-88.6	3.1	1.55e+00	0	47	104	0	60	1048574
2026-01-17 21:24:11.15	134.00	15.77	-85.2	-88.6	3.0	1.55e+00	0	47	104	0	60	1048573
2026-01-17 21:24:12.16	134.16	15.69	-85.2	-88.6	3.0	1.56e+00	0	47	104	0	60	1048574
2026-01-17 21:24:13.16	134.31	15.62	-85.2	-88.6	2.9	1.55e+00	0	47	104	0	60	1048573
2026-01-17 21:24:14.17	134.47	15.54	-85.2	-88.6	2.9	1.56e+00	0	47	104	0	60	1048575
2026-01-17 21:24:15.17	134.62	15.46	-85.2	-88.6	3.1	1.56e+00	0	47	104	0	60	1048575
2026-01-17 21:24:16.18	134.78	15.38	-85.2	-88.6	2.8	1.56e+00	0	47	104	0	60	1048573
2026-01-17 21:24:17.19	134.93	15.31	-85.2	-88.6	3.0	1.56e+00	0	47	104	0	60	1048575
2026-01-17 21:24:18.19	135.08	15.23	-85.2	-88.6	3.0	1.56e+00	0	47	104	0	60	1048575
2026-01-17 21:24:19.20	135.23	15.15	-85.2	-88.6	3.0	1.55e+00	0	47	104	0	60	1048575
2026-01-17 21:24:20.20	135.38	15.08	-85.2	-88.6	3.0	1.56e+00	0	47	104	0	60	1048574
2026-01-17 21:24:21.21	135.53	15.00	-85.2	-88.6	2.9	1.56e+00	0	47	104	0	60	1048573
2026-01-17 21:24:22.22	135.68	14.92	-85.2	-88.6	3.0	1.56e+00	0	47	104	0	60	1048573
2026-01-17 21:24:23.22	135.83	14.84	-84.3	-88.6	3.0	1.56e+00	0	47	104	0	60	1048574
2026-01-17 21:24:24.23	135.98	14.77	-85.2	-88.6	2.9	1.56e+00	0	47	104	0	60	1048574
2026-01-17 21:24:25.24	136.13	14.69	-85.2	-88.6	2.9	1.56e+00	0	47	104	0	60	1048575
2026-01-17 21:24:26.25	136.27	14.61	-85.2	-88.6	3.1	1.56e+00	0	47	104	0	60	1048574
2026-01-17 21:24:27.25	136.42	14.54	-85.2	-88.6	3.0	1.55e+00	0	47	104	0	60	1048572
2026-01-17 21:24:28.26	136.56	14.46	-85.2	-88.6	2.9	1.56e+00	0	47	104	0	60	1048575
2026-01-17 21:24:29.27	136.71	14.38	-85.2	-88.6	3.0	1.56e+00	0	47	104	0	60	1048575
2026-01-17 21:24:30.27	136.85	14.31	-85.2	-88.6	3.0	1.55e+00	0	47	104	0	60	1048575
2026-01-17 21:24:31.27	136.99	14.23	-85.2	-88.6	3.0	1.56e+00	0	47	104	0	60	1048570
2026-01-17 21:24:32.28	137.13	14.16	-85.2	-88.6	3.0	1.56e+00	0	47	104	0	60	1048574
2026-01-17 21:24:33.29	137.28	14.08	-85.2	-88.6	3.0	1.56e+00	0	47	104	0	60	1048575
2026-01-17 21:24:34.29	137.41	14.00	-85.2	-88.6	3.1	1.56e+00	0	47	104	0	60	1048574
2026-01-17 21:24:35.30	137.56	13.93	-85.2	-88.6	3.1	1.56e+00	0	47	104	0	60	1048575
2026-01-17 21:24:36.31	137.69	13.85	-85.2	-88.6	3.0	1.55e+00	0	47	104	0	60	1048575
2026-01-17 21:24:37.32	137.83	13.78	-85.2	-88.6	3.1	1.56e+00	0	47	104	0	60	1048575
2026-01-17 21:24:38.32	137.97	13.70	-85.2	-88.6	2.7	1.56e+00	0	47	104	0	60	1048575
2026-01-17 21:24:39.33	138.11	13.62	-85.2	-88.6	3.1	1.56e+00	0	47	104	0	60	1048573
2026-01-17 21:24:40.34	138.25	13.55	-85.2	-88.6	2.8	1.56e+00	0	47	104	0	60	1048575
2026-01-17 21:24:41.34	138.38	13.47	-85.2	-88.6	2.9	1.56e+00	0	47	104	0	60	1048575
2026-01-17 21:24:42.35	138.52	13.40	-85.2	-88.6	2.8	1.56e+00	0	47	104	0	60	1048574
2026-01-17 21:24:43.36	138.65	13.32	-85.2	-88.6	3.1	1.56e+00	0	47	104	0	60	1048574
2026-01-17 21:24:44.37	138.78	13.25	-85.2	-88.6	3.0	1.56e+00	0	47	104	0	60	1048575
2026-01-17 21:24:45.37	138.92	13.17	-85.2	-88.6	3.0	1.55e+00	0	47	104	0	60	1048575
2026-01-17 21:24:46.38	139.05	13.10	-85.2	-88.6	3.0	1.56e+00	0	47	104	0	60	1048573
2026-01-17 21:24:47.39	139.18	13.02	-85.2	-88.6	3.0	1.56e+00	0	47	104	0	60	1048574
2026-01-17 21:24:48.40	139.31	12.95	-85.2	-88.6	3.1	1.56e+00	0	47	104	0	60	1048575
2026-01-17 21:24:49.40	139.44	12.87	-85.2	-88.6	3.0	1.56e+00	0	47	104	0	60	1048575
2026-01-17 21:24:50.41	139.57	12.80	-85.2	-88.6	2.9	1.56e+00	0	47	104	0	60	1048575
2026-01-17 21:24:51.42	139.70	12.72	-85.2	-88.6	2.9	1.56e+00	0	47	104	0	60	1048575
2026-01-17 21:24:52.42	139.83	12.65	-85.2	-88.6	3.0	1.56e+00	0	47	104	0	60	1048575
2026-01-17 21:24:53.43	139.96	12.58	-85.2	-88.6	3.1	1.56e+00	0	47	104	0	60	1048574
2026-01-17 21:24:54.43	140.09	12.50	-85.2	-88.6	3.1	1.56e+00	0	47	104	0	60	1048575
2026-01-17 21:24:55.44	140.21	12.43	-85.2	-88.6	2.9	1.56e+00	0	47	104	0	60	1048575
2026-01-17 21:24:56.44	140.34	12.35	-85.2	-88.6	3.0	1.55e+00	0	47	104	0	60	1048575
2026-01-17 21:24:57.45	140.47	12.28	-85.2	-88.6	3.0	1.56e+00	0	47	104	0	60	1048573
2026-01-17 21:24:58.46	140.59	12.21	-85.2	-88.6	3.0	1.55e+00	0	47	104	0	60	1048574
2026-01-17 21:24:59.46	140.71	12.13	-85.2	-88.6	3.0	1.56e+00	0	47	104	0	60	1048571
2026-01-17 21:25:00.47	140.84	12.06	-85.2	-88.6	3.0	1.56e+00	0	47	104	0	60	1048570
2026-01-17 21:25:01.47	140.96	11.99	-85.2	-88.6	2.8	1.55e+00	0	47	104	0	60	1048575
2026-01-17 21:25:02.48	141.08	11.91	-85.2	-88.6	3.2	1.55e+00	0	47	104	0	60	1048569
2026-01-17 21:25:03.49	141.21	11.84	-85.2	-88.6	2.8	1.56e+00	0	47	104	0	60	1048575
2026-01-17 21:25:04.49	141.33	11.77	-85.2	-88.6	3.0	1.56e+00	0	47	104	0	60	1048575
2026-01-17 21:25:05.49	141.45	11.69	-85.2	-88.6	2.8	1.56e+00	0	47	104	0	60	1048574
2026-01-17 21:25:06.50	141.57	11.62	-85.2	-88.6	2.8	1.56e+00	0	47	104	0	60	1048572
2026-01-17 21:25:07.51	141.69	11.55	-85.2	-88.6	2.9	1.56e+00	0	47	104	0	60	1048573
2026-01-17 21:25:08.51	141.81	11.47	-85.2	-88.6	2.9	1.56e+00	0	47	104	0	60	1048575
2026-01-17 21:25:09.52	141.93	11.40	-85.2	-88.6	3.0	1.55e+00	0	47	104	0	60	1048572
2026-01-17 21:25:10.52	142.04	11.33	-85.2	-88.6	2.9	1.56e+00	0	47	104	0	60	1048575
2026-01-17 21:25:11.53	142.16	11.26	-85.2	-88.6	3.1	1.55e+00	0	47	104	0	60	1048575
2026-01-17 21:25:12.54	142.28	11.18	-85.2	-88.6	3.1	1.56e+00	0	47	104	0	60	1048574
2026-01-17 21:25:13.55	142.39	11.11	-85.2	-88.6	3.0	1.56e+00	0	47	104	0	60	1048572
2026-01-17 21:25:14.56	142.51	11.04	-85.2	-88.6	3.0	1.56e+00	0	47	104	0	60	1048572
2026-01-17 21:25:15.57	142.63	10.97	-85.2	-88.6	2.9	1.56e+00	0	47	104	0	60	1048568
2026-01-17 21:25:16.58	142.74	10.89	-85.2	-88.6	3.0	1.55e+00	0	47	104	0	60	1048575
2026-01-17 21:25:17.58	142.85	10.82	-85.2	-88.6	2.8	1.55e+00	0	47	104	0	60	1048575
2026-01-17 21:25:18.59	142.97	10.75	-85.2	-88.6	2.9	1.55e+00	0	47	104	0	60	1048575
2026-01-17 21:25:19.60	143.08	10.68	-85.2	-88.6	3.2	1.56e+00	0	47	104	0	60	1048575
2026-01-17 21:25:20.60	143.19	10.61	-85.2	-88.6	3.2	1.55e+00	0	47	104	0	60	1048575
2026-01-17 21:25:21.61	143.31	10.54	-85.2	-88.6	3.0	1.56e+00	0	47	104	0	60	1048573
2026-01-17 21:25:22.61	143.42	10.47	-85.2	-88.6	3.1	1.56e+00	0	47	104	0	60	1048574
2026-01-17 21:25:23.61	143.53	10.40	-85.2	-88.6	3.0	1.56e+00	0	47	104	0	60	1048573
2026-01-17 21:25:24.62	143.64	10.32	-85.2	-88.6	3.1	1.56e+00	0	47	104	0	60	1048572
2026-01-17 21:25:25.63	143.75	10.25	-85.2	-88.6	3.2	1.56e+00	0	47	104	0	60	1048573
2026-01-17 21:25:26.63	143.86	10.18	-84.7	-88.6	2.9	1.56e+00	0	47	104	0	60	1048575
2026-01-17 21:25:27.64	143.97	10.11	-83.9	-88.6	3.0	1.56e+00	0	47	104	0	60	1048574
2026-01-17 21:25:28.64	144.07	10.04	-84.7	-88.6	3.1	1.56e+00	0	47	104	0	60	1048572
2026-01-17 21:25:29.65	144.18	9.97	-85.2	-88.6	3.0	1.56e+00	0	47	104	0	60	1048575
2026-01-17 21:25:30.65	144.29	9.90	-85.2	-88.6	2.9	1.56e+00	0	47	104	0	60	1048574
2026-01-17 21:25:31.66	144.40	9.83	-85.2	-88.6	3.1	1.56e+00	0	47	104	0	60	1048575
2026-01-17 21:25:32.67	144.50	9.76	-85.2	-88.6	3.0	1.56e+00	0	47	104	0	60	1048575
2026-01-17 21:25:33.68	144.61	9.69	-85.2	-88.6	3.1	1.56e+00	0	47	104	0	60	1048575
2026-01-17 21:25:34.69	144.72	9.62	-85.2	-88.6	3.2	1.56e+00	0	47	104	0	60	1048573
2026-01-17 21:25:35.69	144.82	9.55	-85.2	-88.6	3.0	1.56e+00	0	47	104	0	60	1048574
2026-01-17 21:25:36.70	144.93	9.48	-85.2	-88.6	3.1	1.56e+00	0	47	104	0	60	1048575
2026-01-17 21:25:37.71	145.03	9.41	-85.2	-88.6	3.0	1.56e+00	0	47	104	0	60	1048575
2026-01-17 21:25:38.72	145.13	9.34	-85.2	-88.6	3.2	1.56e+00	0	47	104	0	60	1048574
2026-01-17 21:25:39.73	145.24	9.27	-85.2	-88.6	3.1	1.56e+00	0	47	104	0	60	1048575
2026-01-17 21:25:40.73	145.34	9.20	-85.2	-88.6	2.9	1.56e+00	0	47	104	0	60	1048575
2026-01-17 21:25:41.74	145.44	9.13	-85.2	-88.6	3.1	1.56e+00	0	47	104	0	60	1048574
2026-01-17 21:25:42.75	145.54	9.07	-85.2	-88.6	3.0	1.56e+00	0	47	104	0	60	1048575
2026-01-17 21:25:43.76	145.65	9.00	-85.2	-88.6	3.0	1.56e+00	0	47	104	0	60	1048575
2026-01-17 21:25:44.76	145.75	8.93	-85.2	-88.6	3.0	1.55e+00	0	47	104	0	60	1048575
2026-01-17 21:25:45.77	145.85	8.86	-85.2	-88.6	2.9	1.56e+00	0	47	104	0	60	1048575
2026-01-17 21:25:46.77	145.95	8.79	-85.2	-88.6	3.0	1.56e+00	0	47	104	0	60	1048575
2026-01-17 21:25:47.78	146.05	8.72	-85.2	-88.6	2.9	1.56e+00	0	47	104	0	60	1048575
2026-01-17 21:25:48.79	146.14	8.65	-85.2	-88.6	3.3	1.55e+00	0	47	104	0	60	1048575
2026-01-17 21:25:49.80	146.24	8.59	-85.2	-88.6	2.9	1.56e+00	0	47	104	0	60	1048575
2026-01-17 21:25:50.81	146.34	8.52	-85.2	-88.6	3.2	1.56e+00	0	47	104	0	60	1048574
2026-01-17 21:25:51.82	146.44	8.45	-85.2	-88.6	3.1	1.56e+00	0	47	104	0	60	1048575
