passes_logs/2026/01/17/R3.2S-Naryan-Mar/R3.2S-Naryan-Mar__20260117_131023_TY-42_rec.log

#Pass ID: 20260117_131023_TY-42
#Satellite: TY-42
#Configuration: TY-42
#almurnet v.1.7.20240730
#Start time: 2026-01-17 13:10:25

#Version: 2.2.20231116
#Station: R3.2S-Naryan-Mar
#Location: 53.008057 lon 67.646978 lat
#TLE: 1 64048U 25103A   26017.21478009  .00008006  00000-0  38191-3 0 09999
#TLE: 2 64048 097.4122 092.5907 0001889 091.4381 313.8037 15.19150120 37159

#Time	Az	El	Level	Level2	SNR	BER	BlckErr	Temp	State	Recorded	gain1	gain2
2026-01-17 13:10:25.51	54.19	0.10	-83.1	-79.0	2.5	0.00e+00	0	44	0	0	60	1048574
2026-01-17 13:10:26.52	54.08	0.15	-83.5	-79.0	2.1	0.00e+00	0	46	104	0	60	1048572
2026-01-17 13:10:27.53	53.97	0.19	-83.1	-79.0	2.5	0.00e+00	0	46	104	0	60	1048572
2026-01-17 13:10:28.53	53.86	0.24	-83.5	-79.0	2.4	0.00e+00	0	46	104	0	60	1048573
2026-01-17 13:10:29.53	53.74	0.29	-83.5	-79.0	2.3	0.00e+00	0	46	104	0	60	1048574
2026-01-17 13:10:30.54	53.63	0.34	-83.5	-79.0	2.4	0.00e+00	0	46	104	0	60	1048574
2026-01-17 13:10:31.55	53.51	0.39	-83.5	-79.0	2.4	0.00e+00	0	46	104	0	60	1048575
2026-01-17 13:10:32.56	53.40	0.44	-83.1	-79.0	2.3	0.00e+00	0	46	104	0	60	1048572
2026-01-17 13:10:33.56	53.28	0.48	-83.5	-79.0	2.3	0.00e+00	0	46	104	0	60	1048569
2026-01-17 13:10:34.57	53.16	0.53	-83.5	-79.0	2.4	0.00e+00	0	46	104	0	60	1048568
2026-01-17 13:10:35.58	53.05	0.58	-83.5	-79.0	2.5	0.00e+00	0	46	104	0	60	1048575
2026-01-17 13:10:36.59	52.93	0.63	-83.1	-79.0	2.0	0.00e+00	0	46	104	0	60	1048571
2026-01-17 13:10:37.60	52.81	0.68	-83.1	-79.0	2.5	0.00e+00	0	46	104	0	60	1048560
2026-01-17 13:10:38.60	52.69	0.73	-83.5	-79.0	2.0	0.00e+00	0	46	104	0	60	1048573
2026-01-17 13:10:39.61	52.57	0.77	-83.5	-79.0	2.5	0.00e+00	0	46	104	0	60	1048567
2026-01-17 13:10:40.62	52.45	0.82	-83.5	-79.0	2.0	0.00e+00	0	46	104	0	60	1048575
2026-01-17 13:10:41.62	52.34	0.87	-83.1	-79.0	2.5	0.00e+00	0	46	104	0	60	1048575
2026-01-17 13:10:42.62	52.22	0.92	-83.1	-79.0	2.3	0.00e+00	0	46	104	0	60	1048571
2026-01-17 13:10:43.63	52.09	0.97	-83.5	-79.0	2.5	0.00e+00	0	46	104	0	60	1048574
2026-01-17 13:10:44.63	51.97	1.02	-83.5	-79.0	2.0	0.00e+00	0	47	104	0	60	1048575
2026-01-17 13:10:45.63	51.85	1.06	-83.5	-79.0	2.5	0.00e+00	0	47	104	0	60	1048569
2026-01-17 13:10:46.64	51.73	1.11	-82.8	-79.0	2.1	0.00e+00	0	46	104	0	60	1048574
2026-01-17 13:10:47.64	51.61	1.16	-83.1	-79.0	2.5	0.00e+00	0	46	104	0	60	1048570
2026-01-17 13:10:48.65	51.48	1.21	-83.5	-79.0	2.0	0.00e+00	0	46	104	0	60	1048574
2026-01-17 13:10:49.66	51.36	1.26	-83.5	-79.0	2.5	0.00e+00	0	46	104	0	60	1048571
2026-01-17 13:10:50.67	51.23	1.31	-83.1	-79.0	2.0	0.00e+00	0	47	104	0	60	1048571
2026-01-17 13:10:51.68	51.11	1.35	-82.8	-79.0	2.5	0.00e+00	0	47	104	0	60	1048571
2026-01-17 13:10:52.69	50.98	1.40	-83.5	-79.0	2.0	0.00e+00	0	47	104	0	60	1048566
2026-01-17 13:10:53.70	50.86	1.45	-83.5	-79.0	2.4	0.00e+00	0	47	104	0	60	1048575
2026-01-17 13:10:54.70	50.73	1.50	-83.5	-79.0	2.4	0.00e+00	0	47	104	0	60	1048574
2026-01-17 13:10:55.70	50.60	1.55	-83.5	-79.0	2.3	0.00e+00	0	47	104	0	60	1048575
2026-01-17 13:10:56.71	50.47	1.60	-83.1	-79.0	2.3	0.00e+00	0	47	104	0	60	1048573
2026-01-17 13:10:57.71	50.35	1.65	-83.5	-79.0	2.3	0.00e+00	0	47	104	0	60	1048573
2026-01-17 13:10:58.72	50.22	1.69	-83.5	-79.0	2.6	0.00e+00	0	47	104	0	60	1048574
2026-01-17 13:10:59.73	50.09	1.74	-83.5	-79.0	2.3	0.00e+00	0	47	104	0	60	1048575
2026-01-17 13:11:00.73	49.96	1.79	-83.1	-79.0	2.1	0.00e+00	0	47	104	0	60	1048575
2026-01-17 13:11:01.74	49.83	1.84	-83.5	-79.0	2.4	0.00e+00	0	47	104	0	60	1048575
2026-01-17 13:11:02.74	49.70	1.89	-83.5	-79.0	2.1	0.00e+00	0	47	104	0	60	1048573
2026-01-17 13:11:03.75	49.57	1.94	-83.5	-79.0	2.6	0.00e+00	0	47	104	0	60	1048573
2026-01-17 13:11:04.76	49.43	1.98	-83.5	-79.0	2.5	0.00e+00	0	47	104	0	60	1048575
2026-01-17 13:11:05.76	49.30	2.03	-83.1	-79.0	2.4	0.00e+00	0	47	104	0	60	1048575
2026-01-17 13:11:06.77	49.17	2.08	-83.5	-79.0	2.4	0.00e+00	0	47	104	0	60	1048575
2026-01-17 13:11:07.77	49.03	2.13	-83.5	-79.0	2.6	0.00e+00	0	47	104	0	60	1048574
2026-01-17 13:11:08.78	48.90	2.18	-83.5	-79.0	2.5	0.00e+00	0	47	104	0	60	1048571
2026-01-17 13:11:09.79	48.76	2.23	-83.1	-79.0	2.5	0.00e+00	0	47	104	0	60	1048572
2026-01-17 13:11:10.80	48.63	2.27	-82.8	-79.0	2.4	0.00e+00	0	47	104	0	60	1048572
2026-01-17 13:11:11.81	48.49	2.32	-83.1	-79.0	2.0	0.00e+00	0	47	104	0	60	1048571
2026-01-17 13:11:12.81	48.35	2.37	-83.5	-79.0	2.4	0.00e+00	0	47	104	0	60	1048571
2026-01-17 13:11:13.82	48.22	2.42	-83.5	-79.0	2.0	0.00e+00	0	47	104	0	60	1048573
2026-01-17 13:11:14.82	48.08	2.47	-83.5	-79.0	2.4	0.00e+00	0	47	104	0	60	1048574
2026-01-17 13:11:15.83	47.94	2.52	-83.1	-79.0	2.3	0.00e+00	0	47	104	0	60	1048575
2026-01-17 13:11:16.84	47.80	2.56	-83.5	-79.0	2.5	0.00e+00	0	47	104	0	60	1048571
2026-01-17 13:11:17.84	47.66	2.61	-83.5	-79.0	2.3	0.00e+00	0	47	104	0	60	1048575
2026-01-17 13:11:18.84	47.52	2.66	-83.5	-79.0	2.5	0.00e+00	0	47	104	0	60	1048568
2026-01-17 13:11:19.85	47.38	2.71	-83.1	-79.0	2.3	0.00e+00	0	47	104	0	60	1048568
2026-01-17 13:11:20.86	47.24	2.76	-83.5	-79.0	2.4	0.00e+00	0	47	104	0	60	1048573
2026-01-17 13:11:21.87	47.10	2.81	-83.5	-79.0	2.3	0.00e+00	0	47	104	0	60	1048574
2026-01-17 13:11:22.87	46.95	2.85	-83.5	-79.0	2.5	0.00e+00	0	47	104	0	60	1048575
2026-01-17 13:11:23.88	46.81	2.90	-83.5	-79.0	2.2	0.00e+00	0	47	104	0	60	1048563
2026-01-17 13:11:24.89	46.67	2.95	-83.1	-79.0	2.4	0.00e+00	0	47	104	0	60	1048574
2026-01-17 13:11:25.90	46.52	3.00	-83.5	-79.0	2.1	0.00e+00	0	47	104	0	60	1048571
2026-01-17 13:11:26.90	46.38	3.04	-83.5	-79.0	2.5	0.00e+00	0	47	104	0	60	1048573
2026-01-17 13:11:27.91	46.23	3.09	-83.5	-79.0	2.1	0.00e+00	0	47	104	0	60	1048575
2026-01-17 13:11:28.92	46.08	3.14	-83.1	-79.0	2.5	0.00e+00	0	47	104	0	60	1048562
2026-01-17 13:11:29.93	45.93	3.19	-83.1	-79.0	2.3	0.00e+00	0	47	104	0	60	1048571
2026-01-17 13:11:30.93	45.79	3.24	-83.1	-79.0	2.3	0.00e+00	0	47	104	0	60	1048573
2026-01-17 13:11:31.94	45.64	3.28	-83.5	-79.0	2.6	0.00e+00	0	47	104	0	60	1048573
2026-01-17 13:11:32.94	45.49	3.33	-83.5	-79.0	2.4	0.00e+00	0	47	104	0	60	1048574
2026-01-17 13:11:33.95	45.34	3.38	-83.1	-79.0	2.1	0.00e+00	0	47	104	0	60	1048570
2026-01-17 13:11:34.96	45.19	3.43	-83.5	-79.0	2.4	0.00e+00	0	47	104	0	60	1048568
2026-01-17 13:11:35.97	45.04	3.48	-83.5	-79.0	2.1	0.00e+00	0	47	104	0	60	1048573
2026-01-17 13:11:36.97	44.89	3.52	-83.5	-79.0	2.5	0.00e+00	0	47	104	0	60	1048572
2026-01-17 13:11:37.98	44.74	3.57	-83.5	-79.0	2.1	0.00e+00	0	47	104	0	60	1048575
2026-01-17 13:11:38.99	44.58	3.62	-83.1	-79.0	2.3	0.00e+00	0	47	104	0	60	1048575
2026-01-17 13:11:40.00	44.43	3.67	-83.1	-79.0	2.1	0.00e+00	0	47	104	0	60	1048575
2026-01-17 13:11:41.01	44.27	3.71	-83.5	-79.0	2.6	0.00e+00	0	47	104	0	60	1048575
2026-01-17 13:11:42.01	44.12	3.76	-83.5	-79.0	2.1	0.00e+00	0	47	104	0	60	1048572
2026-01-17 13:11:43.02	43.96	3.81	-83.5	-79.0	2.5	0.00e+00	0	47	104	0	60	1048573
2026-01-17 13:11:44.03	43.81	3.85	-83.1	-79.0	2.3	0.00e+00	0	47	104	0	60	1048570
2026-01-17 13:11:45.04	43.65	3.90	-83.5	-79.0	2.4	0.00e+00	0	47	104	0	60	1048574
2026-01-17 13:11:46.05	43.49	3.95	-83.5	-79.0	2.2	0.00e+00	0	47	104	0	60	1048575
2026-01-17 13:11:47.05	43.34	4.00	-83.5	-79.0	2.5	0.00e+00	0	48	104	0	60	1048572
2026-01-17 13:11:48.05	43.18	4.04	-83.1	-79.0	2.2	0.00e+00	0	48	104	0	60	1048572
2026-01-17 13:11:49.06	43.02	4.09	-82.8	-79.0	2.5	0.00e+00	0	48	104	0	60	1048573
2026-01-17 13:11:50.06	42.86	4.14	-83.5	-79.0	2.1	0.00e+00	0	48	104	0	60	1048573
2026-01-17 13:11:51.06	42.70	4.18	-83.5	-79.0	2.5	0.00e+00	0	48	104	0	60	1048567
2026-01-17 13:11:52.06	42.54	4.23	-83.5	-79.0	2.1	0.00e+00	0	48	104	0	60	1048575
2026-01-17 13:11:53.07	42.38	4.28	-83.1	-79.0	2.4	0.00e+00	0	47	104	0	60	1048574
2026-01-17 13:11:54.08	42.21	4.32	-83.1	-79.0	2.4	0.00e+00	0	48	104	0	60	1048575
2026-01-17 13:11:55.08	42.05	4.37	-83.5	-79.0	2.5	0.00e+00	0	47	104	0	60	1048575
2026-01-17 13:11:56.09	41.89	4.42	-83.5	-79.0	2.4	0.00e+00	0	47	104	0	60	1048572
2026-01-17 13:11:57.10	41.72	4.46	-83.5	-79.0	2.4	0.00e+00	0	47	104	0	60	1048573
2026-01-17 13:11:58.11	41.56	4.51	-83.1	-79.0	2.4	0.00e+00	0	48	104	0	60	1048575
2026-01-17 13:11:59.12	41.39	4.56	-83.1	-79.0	2.1	0.00e+00	0	48	104	0	60	1048560
2026-01-17 13:12:00.13	41.22	4.60	-83.5	-79.0	2.2	0.00e+00	0	48	104	0	60	1048574
2026-01-17 13:12:01.12	41.06	4.65	-83.5	-79.0	2.2	0.00e+00	0	48	104	0	60	1048575
2026-01-17 13:12:02.13	40.89	4.69	-83.1	-79.0	2.0	0.00e+00	0	48	104	0	60	1048575
2026-01-17 13:12:03.13	40.72	4.74	-83.1	-79.0	2.6	0.00e+00	0	48	104	0	60	1048574
2026-01-17 13:12:04.14	40.55	4.78	-83.5	-79.0	2.3	0.00e+00	0	48	104	0	60	1048575
2026-01-17 13:12:05.15	40.38	4.83	-83.5	-79.0	2.5	0.00e+00	0	48	104	0	60	1048569
2026-01-17 13:12:06.16	40.21	4.88	-83.5	-79.0	2.5	0.00e+00	0	48	104	0	60	1048570
2026-01-17 13:12:07.16	40.04	4.92	-82.8	-79.0	2.5	0.00e+00	0	48	104	0	60	1048574
2026-01-17 13:12:08.17	39.87	4.97	-83.1	-79.0	2.4	0.00e+00	0	48	104	0	60	1048573
2026-01-17 13:12:09.18	39.70	5.01	-83.5	-79.0	2.4	0.00e+00	0	48	104	0	60	1048574
2026-01-17 13:12:10.19	39.52	5.06	-83.5	-79.0	2.4	0.00e+00	0	48	104	0	60	1048575
2026-01-17 13:12:11.19	39.35	5.10	-83.5	-79.0	2.5	0.00e+00	0	48	104	0	60	1048569
2026-01-17 13:12:12.20	39.17	5.15	-83.1	-79.0	2.4	0.00e+00	0	48	104	0	60	1048572
2026-01-17 13:12:13.21	39.00	5.19	-83.5	-79.0	2.2	0.00e+00	0	48	104	0	60	1048574
2026-01-17 13:12:14.21	38.82	5.24	-83.5	-79.0	2.4	0.00e+00	0	48	104	0	60	1048574
2026-01-17 13:12:15.22	38.64	5.28	-83.5	-79.0	2.0	0.00e+00	0	48	104	0	60	1048575
2026-01-17 13:12:16.23	38.47	5.33	-83.1	-79.0	2.5	0.00e+00	0	48	104	0	60	1048571
2026-01-17 13:12:17.23	38.29	5.37	-83.1	-79.0	2.5	0.00e+00	0	48	104	0	60	1048571
2026-01-17 13:12:18.24	38.11	5.41	-83.5	-79.0	2.4	0.00e+00	0	48	104	0	60	1048575
2026-01-17 13:12:19.25	37.93	5.46	-83.5	-79.0	2.6	0.00e+00	0	48	104	0	60	1048574
2026-01-17 13:12:20.26	37.75	5.50	-83.5	-79.0	2.4	0.00e+00	0	48	104	0	60	1048572
2026-01-17 13:12:21.26	37.57	5.55	-83.1	-79.0	2.3	0.00e+00	0	48	104	0	60	1048573
2026-01-17 13:12:22.26	37.39	5.59	-83.1	-79.0	2.5	0.00e+00	0	48	104	0	60	1048575
2026-01-17 13:12:23.27	37.21	5.63	-83.5	-79.0	2.3	0.00e+00	0	48	104	0	60	1048574
2026-01-17 13:12:24.27	37.02	5.68	-83.5	-79.0	2.4	0.00e+00	0	48	104	0	60	1048567
2026-01-17 13:12:25.28	36.84	5.72	-83.5	-79.0	2.0	0.00e+00	0	48	104	0	60	1048573
2026-01-17 13:12:26.29	36.65	5.76	-82.8	-79.0	2.4	0.00e+00	0	48	104	0	60	1048573
2026-01-17 13:12:27.30	36.47	5.81	-83.1	-79.0	2.1	0.00e+00	0	48	104	0	60	1048573
2026-01-17 13:12:28.30	36.28	5.85	-83.5	-79.0	2.5	0.00e+00	0	48	104	0	60	1048573
2026-01-17 13:12:29.31	36.10	5.89	-83.5	-79.0	2.1	0.00e+00	0	48	104	0	60	1048574
2026-01-17 13:12:30.32	35.91	5.94	-83.5	-79.0	2.5	0.00e+00	0	48	104	0	60	1048565
2026-01-17 13:12:31.33	35.72	5.98	-83.1	-79.0	2.5	0.00e+00	0	48	104	0	60	1048575
2026-01-17 13:12:32.34	35.53	6.02	-83.5	-79.0	2.3	0.00e+00	0	48	104	0	60	1048575
2026-01-17 13:12:33.35	35.34	6.06	-83.5	-79.0	2.5	0.00e+00	0	48	104	0	60	1048574
2026-01-17 13:12:34.35	35.15	6.11	-83.5	-79.0	2.4	0.00e+00	0	48	104	0	60	1048575
2026-01-17 13:12:35.36	34.96	6.15	-83.5	-79.0	2.1	0.00e+00	0	48	104	0	60	1048567
2026-01-17 13:12:36.37	34.77	6.19	-83.1	-79.0	2.5	0.00e+00	0	48	104	0	60	1048571
2026-01-17 13:12:37.37	34.58	6.23	-83.5	-79.0	2.1	0.00e+00	0	48	104	0	60	1048574
2026-01-17 13:12:38.38	34.38	6.27	-83.5	-79.0	2.6	0.00e+00	0	48	104	0	60	1048574
2026-01-17 13:12:39.38	34.19	6.31	-83.1	-79.0	2.0	0.00e+00	0	48	104	0	60	1048574
2026-01-17 13:12:40.39	34.00	6.36	-83.1	-79.0	2.6	0.00e+00	0	48	104	0	60	1048575
2026-01-17 13:12:41.40	33.80	6.40	-83.1	-79.0	2.1	0.00e+00	0	48	104	0	60	1048575
2026-01-17 13:12:42.41	33.61	6.44	-83.5	-79.0	2.4	0.00e+00	0	48	104	0	60	1048569
2026-01-17 13:12:43.41	33.41	6.48	-83.5	-79.0	2.4	0.00e+00	0	48	104	0	60	1048571
2026-01-17 13:12:44.42	33.21	6.52	-83.5	-79.0	2.3	0.00e+00	0	48	104	0	60	1048575
2026-01-17 13:12:45.43	33.02	6.56	-82.8	-79.0	2.4	0.00e+00	0	48	104	0	60	1048574
2026-01-17 13:12:46.44	32.82	6.60	-83.5	-79.0	2.4	0.00e+00	0	48	104	0	60	1048573
2026-01-17 13:12:47.44	32.62	6.64	-83.5	-79.0	2.0	0.00e+00	0	48	104	0	60	1048569
2026-01-17 13:12:48.45	32.42	6.68	-83.5	-79.0	2.5	0.00e+00	0	48	104	0	60	1048573
2026-01-17 13:12:49.47	32.21	6.72	-83.5	-79.0	2.1	0.00e+00	0	48	104	0	60	1048575
2026-01-17 13:12:50.47	32.02	6.76	-83.1	-79.0	2.6	0.00e+00	0	48	104	0	60	1048575
2026-01-17 13:12:51.48	31.81	6.80	-83.1	-79.0	2.0	0.00e+00	0	48	104	0	60	1048574
2026-01-17 13:12:52.47	31.61	6.83	-83.5	-79.0	2.6	0.00e+00	0	48	104	0	60	1048570
2026-01-17 13:12:53.48	31.41	6.87	-83.5	-79.0	2.1	0.00e+00	0	48	104	0	60	1048573
2026-01-17 13:12:54.49	31.21	6.91	-83.5	-79.0	2.5	0.00e+00	0	48	104	0	60	1048569
2026-01-17 13:12:55.49	31.00	6.95	-83.1	-79.0	2.5	0.00e+00	0	48	104	0	60	1048568
2026-01-17 13:12:56.50	30.80	6.99	-83.5	-79.0	2.5	0.00e+00	0	48	104	0	60	1048571
2026-01-17 13:12:57.50	30.59	7.03	-83.5	-79.0	2.4	0.00e+00	0	48	104	0	60	1048574
2026-01-17 13:12:58.51	30.38	7.06	-83.5	-79.0	2.4	0.00e+00	0	48	104	0	60	1048575
2026-01-17 13:12:59.51	30.18	7.10	-83.1	-79.0	2.3	0.00e+00	0	48	104	0	60	1048572
2026-01-17 13:13:00.52	29.97	7.14	-83.1	-79.0	2.4	0.00e+00	0	48	104	0	60	1048573
2026-01-17 13:13:01.53	29.76	7.18	-83.5	-79.0	2.1	0.00e+00	0	48	104	0	60	1048575
2026-01-17 13:13:02.53	29.55	7.21	-83.5	-79.0	2.5	0.00e+00	0	48	104	0	60	1048573
2026-01-17 13:13:03.53	29.34	7.25	-83.5	-79.0	2.0	0.00e+00	0	48	104	0	60	1048574
2026-01-17 13:13:04.54	29.13	7.28	-83.1	-79.0	2.5	0.00e+00	0	48	104	0	60	1048575
2026-01-17 13:13:05.54	28.92	7.32	-83.5	-79.0	2.4	0.00e+00	0	48	104	0	60	1048573
2026-01-17 13:13:06.55	28.71	7.36	-83.5	-79.0	2.5	0.00e+00	0	48	104	0	60	1048573
2026-01-17 13:13:07.56	28.50	7.39	-83.5	-79.0	2.4	0.00e+00	0	48	104	0	60	1048575
2026-01-17 13:13:08.56	28.29	7.43	-83.1	-79.0	2.2	0.00e+00	0	48	104	0	60	1048575
2026-01-17 13:13:09.56	28.07	7.46	-83.1	-79.0	2.4	0.00e+00	0	48	104	0	60	1048575
2026-01-17 13:13:10.57	27.86	7.50	-83.5	-79.0	2.4	0.00e+00	0	48	104	0	60	1048571
2026-01-17 13:13:11.58	27.64	7.53	-83.5	-79.0	2.5	0.00e+00	0	48	104	0	60	1048565
2026-01-17 13:13:12.59	27.43	7.56	-83.5	-79.0	2.2	0.00e+00	0	48	104	0	60	1048575
2026-01-17 13:13:13.59	27.21	7.60	-83.5	-79.0	2.5	0.00e+00	0	48	104	0	60	1048570
2026-01-17 13:13:14.60	26.99	7.63	-83.1	-79.0	2.1	0.00e+00	0	48	104	0	60	1048575
2026-01-17 13:13:15.61	26.78	7.67	-83.5	-79.0	2.5	0.00e+00	0	48	104	0	60	1048571
2026-01-17 13:13:16.61	26.56	7.70	-83.5	-79.0	2.1	0.00e+00	0	48	104	0	60	1048574
2026-01-17 13:13:17.62	26.34	7.73	-83.5	-79.0	2.6	0.00e+00	0	48	104	0	60	1048571
2026-01-17 13:13:18.63	26.12	7.76	-83.1	-79.0	2.4	0.00e+00	0	48	104	0	60	1048573
2026-01-17 13:13:19.64	25.90	7.80	-83.1	-79.0	2.3	0.00e+00	0	48	104	0	60	1048573
2026-01-17 13:13:20.64	25.68	7.83	-83.5	-79.0	2.3	0.00e+00	0	48	104	0	60	1048575
2026-01-17 13:13:21.64	25.46	7.86	-83.5	-79.0	2.5	0.00e+00	0	48	104	0	60	1048574
2026-01-17 13:13:22.65	25.24	7.89	-83.5	-79.0	2.3	0.00e+00	0	48	104	0	60	1048573
2026-01-17 13:13:23.66	25.01	7.92	-83.1	-79.0	2.5	0.00e+00	0	48	104	0	60	1048564
2026-01-17 13:13:24.66	24.79	7.95	-83.1	-79.0	2.2	0.00e+00	0	48	104	0	60	1048573
2026-01-17 13:13:25.66	24.57	7.98	-83.5	-79.0	2.5	0.00e+00	0	48	104	0	60	1048557
2026-01-17 13:13:26.67	24.34	8.01	-83.5	-79.0	2.1	0.00e+00	0	48	104	0	60	1048574
2026-01-17 13:13:27.67	24.12	8.04	-83.5	-79.0	2.6	0.00e+00	0	48	104	0	60	1048573
2026-01-17 13:13:28.68	23.89	8.07	-83.1	-79.0	2.2	0.00e+00	0	48	104	0	60	1048570
2026-01-17 13:13:29.68	23.67	8.10	-83.5	-79.0	2.5	0.00e+00	0	48	104	0	60	1048575
2026-01-17 13:13:30.69	23.44	8.13	-83.5	-79.0	1.9	0.00e+00	0	48	104	0	60	1048568
2026-01-17 13:13:31.69	23.22	8.16	-83.1	-79.0	2.5	0.00e+00	0	48	104	0	60	1048573
2026-01-17 13:13:32.69	22.99	8.19	-83.1	-79.0	2.5	0.00e+00	0	48	104	0	60	1048575
2026-01-17 13:13:33.70	22.76	8.22	-83.1	-79.0	2.5	0.00e+00	0	48	104	0	60	1048574
2026-01-17 13:13:34.71	22.53	8.25	-83.1	-79.0	2.3	0.00e+00	0	48	104	0	60	1048572
2026-01-17 13:13:35.72	22.30	8.27	-83.5	-79.0	2.5	0.00e+00	0	48	104	0	60	1048571
2026-01-17 13:13:36.73	22.07	8.30	-83.5	-79.0	2.4	0.00e+00	0	48	104	0	60	1048571
2026-01-17 13:13:37.73	21.84	8.33	-82.8	-79.0	2.5	0.00e+00	0	49	104	0	60	1048573
2026-01-17 13:13:38.73	21.61	8.35	-82.8	-79.0	2.1	0.00e+00	0	48	104	0	60	1048572
2026-01-17 13:13:39.74	21.38	8.38	-83.5	-79.0	2.5	0.00e+00	0	48	104	0	60	1048558
2026-01-17 13:13:40.74	21.15	8.41	-83.5	-79.0	2.2	0.00e+00	0	48	104	0	60	1048573
2026-01-17 13:13:41.75	20.92	8.43	-83.5	-79.0	2.6	0.00e+00	0	48	104	0	60	1048572
2026-01-17 13:13:42.75	20.69	8.46	-82.8	-79.0	2.0	0.00e+00	0	48	104	0	60	1048573
2026-01-17 13:13:43.76	20.45	8.48	-83.5	-79.0	2.5	0.00e+00	0	48	104	0	60	1048564
2026-01-17 13:13:44.77	20.22	8.51	-83.5	-79.0	2.4	0.00e+00	0	48	104	0	60	1048574
2026-01-17 13:13:45.77	19.99	8.53	-82.8	-79.0	2.3	0.00e+00	0	48	104	0	60	1048567
2026-01-17 13:13:46.78	19.75	8.55	-83.5	-79.0	2.4	0.00e+00	0	48	104	0	60	1048574
2026-01-17 13:13:47.79	19.51	8.58	-82.8	-79.0	2.3	0.00e+00	0	49	104	0	60	1048575
2026-01-17 13:13:48.79	19.28	8.60	-83.5	-79.0	2.6	0.00e+00	0	48	104	0	60	1048575
2026-01-17 13:13:49.80	19.04	8.62	-83.5	-79.0	2.2	0.00e+00	0	49	104	0	60	1048560
2026-01-17 13:13:50.80	18.81	8.64	-83.5	-79.0	2.4	0.00e+00	0	48	104	0	60	1048565
2026-01-17 13:13:51.81	18.57	8.67	-83.5	-79.0	2.1	0.00e+00	0	48	104	0	60	1048575
2026-01-17 13:13:52.82	18.33	8.69	-83.1	-79.0	2.5	0.00e+00	0	49	104	0	60	1048574
2026-01-17 13:13:53.83	18.09	8.71	-83.5	-79.0	2.2	0.00e+00	0	48	104	0	60	1048570
2026-01-17 13:13:54.83	17.85	8.73	-83.5	-79.0	2.4	0.00e+00	0	48	104	0	60	1048575
2026-01-17 13:13:55.84	17.62	8.75	-83.5	-79.0	2.5	0.00e+00	0	48	104	0	60	1048564
2026-01-17 13:13:56.85	17.38	8.77	-83.1	-79.0	2.4	0.00e+00	0	48	104	0	60	1048575
2026-01-17 13:13:57.86	17.13	8.79	-83.1	-79.0	2.5	0.00e+00	0	48	104	0	60	1048574
2026-01-17 13:13:58.86	16.90	8.81	-83.5	-79.0	2.4	0.00e+00	0	48	104	0	60	1048569
2026-01-17 13:13:59.87	16.65	8.83	-83.5	-79.0	2.2	0.00e+00	0	48	104	0	60	1048575
2026-01-17 13:14:00.88	16.41	8.85	-83.1	-79.0	2.4	0.00e+00	0	48	104	0	60	1048575
2026-01-17 13:14:01.89	16.17	8.86	-82.8	-79.0	2.4	0.00e+00	0	48	104	0	60	1048570
2026-01-17 13:14:02.89	15.93	8.88	-83.5	-79.0	2.5	0.00e+00	0	48	104	0	60	1048575
2026-01-17 13:14:03.90	15.69	8.90	-83.5	-79.0	2.3	0.00e+00	0	48	104	0	60	1048572
2026-01-17 13:14:04.91	15.45	8.92	-83.5	-79.0	2.4	0.00e+00	0	48	104	0	60	1048570
2026-01-17 13:14:05.92	15.20	8.93	-83.5	-79.0	2.0	0.00e+00	0	48	104	0	60	1048574
2026-01-17 13:14:06.93	14.96	8.95	-83.1	-79.0	2.5	0.00e+00	0	48	104	0	60	1048575
2026-01-17 13:14:07.93	14.72	8.96	-83.5	-79.0	2.4	0.00e+00	0	48	104	0	60	1048572
2026-01-17 13:14:08.94	14.47	8.98	-83.5	-79.0	2.3	0.00e+00	0	48	104	0	60	1048568
2026-01-17 13:14:09.94	14.23	9.00	-83.5	-79.0	2.3	0.00e+00	0	48	104	0	60	1048567
2026-01-17 13:14:10.95	13.98	9.01	-83.1	-79.0	2.5	0.00e+00	0	48	104	0	60	1048573
2026-01-17 13:14:11.96	13.74	9.02	-83.1	-79.0	2.2	0.00e+00	0	48	104	0	60	1048572
2026-01-17 13:14:12.96	13.50	9.04	-83.5	-79.0	2.4	0.00e+00	0	49	104	0	60	1048573
2026-01-17 13:14:13.97	13.25	9.05	-83.5	-79.0	2.0	0.00e+00	0	48	104	0	60	1048564
2026-01-17 13:14:14.98	13.00	9.06	-83.5	-79.0	2.6	0.00e+00	0	48	104	0	60	1048571
2026-01-17 13:14:15.98	12.76	9.08	-83.1	-79.0	2.0	0.00e+00	0	48	104	0	60	1048575
2026-01-17 13:14:16.99	12.51	9.09	-83.5	-79.0	2.6	0.00e+00	0	48	104	0	60	1048574
2026-01-17 13:14:17.99	12.27	9.10	-83.5	-79.0	2.1	0.00e+00	0	48	104	0	60	1048575
2026-01-17 13:14:19.00	12.02	9.11	-83.5	-79.0	2.5	0.00e+00	0	48	104	0	60	1048569
2026-01-17 13:14:20.01	11.77	9.12	-83.5	-79.0	2.1	0.00e+00	0	48	104	0	60	1048574
2026-01-17 13:14:21.02	11.53	9.13	-83.1	-79.0	2.4	0.00e+00	0	48	104	0	60	1048574
2026-01-17 13:14:22.02	11.28	9.14	-83.1	-79.0	2.3	0.00e+00	0	48	104	0	60	1048574
2026-01-17 13:14:23.03	11.03	9.15	-83.5	-79.0	2.3	0.00e+00	0	49	104	0	60	1048573
2026-01-17 13:14:24.03	10.79	9.16	-83.5	-79.0	2.3	0.00e+00	0	48	104	0	60	1048575
2026-01-17 13:14:25.04	10.54	9.17	-83.5	-79.0	2.4	0.00e+00	0	49	104	0	60	1048572
2026-01-17 13:14:26.05	10.29	9.18	-83.1	-79.0	2.3	0.00e+00	0	49	104	0	60	1048573
2026-01-17 13:14:27.06	10.04	9.18	-83.5	-79.0	2.4	0.00e+00	0	49	104	0	60	1048575
2026-01-17 13:14:28.07	9.79	9.19	-83.5	-79.0	2.1	0.00e+00	0	48	104	0	60	1048575
2026-01-17 13:14:29.07	9.54	9.20	-83.5	-79.0	2.6	0.00e+00	0	48	104	0	60	1048573
2026-01-17 13:14:30.08	9.30	9.21	-83.1	-79.0	2.1	0.00e+00	0	49	104	0	60	1048569
2026-01-17 13:14:31.09	9.05	9.21	-83.5	-79.0	2.6	0.00e+00	0	49	104	0	60	1048570
2026-01-17 13:14:32.10	8.80	9.22	-83.5	-79.0	2.0	0.00e+00	0	49	104	0	60	1048570
2026-01-17 13:14:33.11	8.55	9.22	-83.5	-79.0	2.5	0.00e+00	0	49	104	0	60	1048575
2026-01-17 13:14:34.11	8.30	9.23	-83.5	-79.0	2.4	0.00e+00	0	49	104	0	60	1048571
2026-01-17 13:14:35.12	8.05	9.23	-83.1	-79.0	2.4	0.00e+00	0	49	104	0	60	1048575
2026-01-17 13:14:36.13	7.80	9.24	-83.5	-79.0	2.0	0.00e+00	0	49	104	0	60	1048568
2026-01-17 13:14:37.13	7.55	9.24	-83.5	-79.0	2.4	0.00e+00	0	49	104	0	60	1048573
2026-01-17 13:14:38.14	7.30	9.24	-83.5	-79.0	2.1	0.00e+00	0	48	104	0	60	1048573
2026-01-17 13:14:39.13	7.06	9.24	-83.5	-79.0	2.6	0.00e+00	0	49	104	0	60	1048574
2026-01-17 13:14:40.14	6.81	9.25	-83.1	-79.0	2.1	0.00e+00	0	49	104	0	60	1048575
2026-01-17 13:14:41.15	6.56	9.25	-83.5	-79.0	2.5	0.00e+00	0	48	104	0	60	1048568
2026-01-17 13:14:42.16	6.31	9.25	-83.5	-79.0	2.1	0.00e+00	0	49	104	0	60	1048574
2026-01-17 13:14:43.16	6.06	9.25	-83.5	-79.0	2.4	0.00e+00	0	48	104	0	60	1048568
2026-01-17 13:14:44.17	5.81	9.25	-83.5	-79.0	2.4	0.00e+00	0	48	104	0	60	1048572
2026-01-17 13:14:45.18	5.56	9.25	-83.1	-79.0	2.4	0.00e+00	0	49	104	0	60	1048575
2026-01-17 13:14:46.19	5.31	9.25	-83.5	-79.0	2.5	0.00e+00	0	48	104	0	60	1048574
2026-01-17 13:14:47.20	5.06	9.25	-83.5	-79.0	2.3	0.00e+00	0	49	104	0	60	1048575
2026-01-17 13:14:48.20	4.81	9.25	-83.5	-79.0	2.3	0.00e+00	0	48	104	0	60	1048575
2026-01-17 13:14:49.21	4.56	9.25	-83.1	-79.0	2.3	0.00e+00	0	48	104	0	60	1048574
2026-01-17 13:14:50.21	4.31	9.24	-83.5	-79.0	2.5	0.00e+00	0	48	104	0	60	1048572
2026-01-17 13:14:51.22	4.06	9.24	-83.5	-79.0	2.2	0.00e+00	0	48	104	0	60	1048575
2026-01-17 13:14:52.22	3.81	9.24	-83.5	-79.0	2.5	0.00e+00	0	48	104	0	60	1048575
2026-01-17 13:14:53.23	3.56	9.23	-83.5	-79.0	2.6	0.00e+00	0	48	104	0	60	1048575
2026-01-17 13:14:54.24	3.31	9.23	-83.1	-79.0	1.9	0.00e+00	0	48	104	0	60	1048575
2026-01-17 13:14:55.25	3.06	9.23	-83.5	-79.0	2.5	0.00e+00	0	49	104	0	60	1048574
2026-01-17 13:14:56.25	2.82	9.22	-83.5	-79.0	2.4	0.00e+00	0	48	104	0	60	1048575
2026-01-17 13:14:57.26	2.57	9.22	-83.5	-79.0	2.4	0.00e+00	0	48	104	0	60	1048574
2026-01-17 13:14:58.27	2.32	9.21	-83.1	-79.0	2.5	0.00e+00	0	48	104	0	60	1048570
2026-01-17 13:14:59.28	2.07	9.20	-83.1	-79.0	2.4	0.00e+00	0	48	104	0	60	1048569
2026-01-17 13:15:00.28	1.82	9.20	-83.1	-79.0	2.5	0.00e+00	0	49	104	0	60	1048574
2026-01-17 13:15:01.29	1.57	9.19	-83.5	-79.0	2.2	0.00e+00	0	49	104	0	60	1048571
2026-01-17 13:15:02.30	1.32	9.18	-83.5	-79.0	2.5	0.00e+00	0	49	104	0	60	1048558
2026-01-17 13:15:03.31	1.07	9.17	-83.1	-79.0	2.2	0.00e+00	0	49	104	0	60	1048570
2026-01-17 13:15:04.32	0.83	9.17	-83.1	-79.0	2.4	0.00e+00	0	48	104	0	60	1048575
2026-01-17 13:15:05.32	0.58	9.16	-83.5	-79.0	2.2	0.00e+00	0	49	104	0	60	1048575
2026-01-17 13:15:06.33	0.33	9.15	-83.1	-79.0	2.5	0.00e+00	0	48	104	0	60	1048575
2026-01-17 13:15:07.34	0.08	9.14	-83.5	-79.0	2.5	0.00e+00	0	48	104	0	60	1048575
2026-01-17 13:15:08.34	359.84	9.13	-82.8	-79.0	2.4	0.00e+00	0	48	104	0	60	1048575
2026-01-17 13:15:09.35	359.59	9.12	-83.1	-79.0	2.4	0.00e+00	0	49	104	0	60	1048574
2026-01-17 13:15:10.36	359.34	9.11	-83.5	-79.0	2.4	0.00e+00	0	48	104	0	60	1048571
2026-01-17 13:15:11.37	359.10	9.09	-83.5	-79.0	2.3	0.00e+00	0	49	104	0	60	1048575
2026-01-17 13:15:12.37	358.85	9.08	-83.1	-79.0	2.5	0.00e+00	0	48	104	0	60	1048568
2026-01-17 13:15:13.38	358.61	9.07	-83.1	-79.0	2.2	0.00e+00	0	48	104	0	60	1048575
2026-01-17 13:15:14.39	358.36	9.06	-83.5	-79.0	2.4	0.00e+00	0	49	104	0	60	1048571
2026-01-17 13:15:15.40	358.11	9.05	-83.5	-79.0	2.1	0.00e+00	0	49	104	0	60	1048574
2026-01-17 13:15:16.41	357.87	9.03	-83.5	-79.0	2.6	0.00e+00	0	49	104	0	60	1048566
2026-01-17 13:15:17.42	357.62	9.02	-83.1	-79.0	2.0	0.00e+00	0	48	104	0	60	1048572
2026-01-17 13:15:18.42	357.38	9.00	-83.1	-79.0	2.4	0.00e+00	0	49	104	0	60	1048567
2026-01-17 13:15:19.43	357.13	8.99	-83.5	-79.0	2.5	0.00e+00	0	49	104	0	60	1048572
2026-01-17 13:15:20.44	356.89	8.97	-83.5	-79.0	2.5	0.00e+00	0	48	104	0	60	1048575
2026-01-17 13:15:21.44	356.65	8.96	-83.5	-79.0	2.5	0.00e+00	0	48	104	0	60	1048573
2026-01-17 13:15:22.45	356.40	8.94	-83.1	-79.0	2.4	0.00e+00	0	49	104	0	60	1048565
2026-01-17 13:15:23.46	356.16	8.93	-83.5	-79.0	2.3	0.00e+00	0	49	104	0	60	1048574
2026-01-17 13:15:24.46	355.92	8.91	-83.5	-79.0	2.5	0.00e+00	0	49	104	0	60	1048574
2026-01-17 13:15:25.46	355.68	8.89	-83.5	-79.0	2.2	0.00e+00	0	49	104	0	60	1048575
2026-01-17 13:15:26.47	355.44	8.88	-83.5	-79.0	2.5	0.00e+00	0	49	104	0	60	1048572
2026-01-17 13:15:27.47	355.20	8.86	-83.1	-79.0	2.2	0.00e+00	0	48	104	0	60	1048575
2026-01-17 13:15:28.48	354.95	8.84	-83.5	-79.0	2.4	0.00e+00	0	49	104	0	60	1048575
2026-01-17 13:15:29.48	354.72	8.82	-83.1	-79.0	2.0	0.00e+00	0	49	104	0	60	1048573
2026-01-17 13:15:30.49	354.47	8.80	-83.5	-79.0	2.5	0.00e+00	0	48	104	0	60	1048574
2026-01-17 13:15:31.50	354.23	8.78	-83.1	-79.0	2.0	0.00e+00	0	49	104	0	60	1048571
2026-01-17 13:15:32.51	353.99	8.76	-83.1	-79.0	2.6	0.00e+00	0	49	104	0	60	1048573
2026-01-17 13:15:33.51	353.76	8.74	-83.5	-79.0	2.4	0.00e+00	0	49	104	0	60	1048574
2026-01-17 13:15:34.52	353.52	8.72	-83.5	-79.0	2.6	0.00e+00	0	49	104	0	60	1048573
2026-01-17 13:15:35.53	353.28	8.70	-83.1	-79.0	2.4	0.00e+00	0	48	104	0	60	1048574
2026-01-17 13:15:36.53	353.04	8.68	-83.5	-79.0	2.4	0.00e+00	0	48	104	0	60	1048572
2026-01-17 13:15:37.54	352.80	8.66	-83.1	-79.0	2.3	0.00e+00	0	49	104	0	60	1048573
2026-01-17 13:15:38.55	352.56	8.64	-83.1	-79.0	2.5	0.00e+00	0	49	104	0	60	1048572
2026-01-17 13:15:39.55	352.33	8.61	-83.5	-79.0	2.0	0.00e+00	0	49	104	0	60	1048574
2026-01-17 13:15:40.55	352.10	8.59	-83.5	-79.0	2.6	0.00e+00	0	48	104	0	60	1048570
2026-01-17 13:15:41.56	351.86	8.57	-83.1	-79.0	2.1	0.00e+00	0	48	104	0	60	1048574
2026-01-17 13:15:42.57	351.62	8.54	-83.5	-79.0	2.5	0.00e+00	0	49	104	0	60	1048574
2026-01-17 13:15:43.57	351.39	8.52	-83.5	-79.0	2.0	0.00e+00	0	48	104	0	60	1048574
2026-01-17 13:15:44.57	351.16	8.50	-83.5	-79.0	2.5	0.00e+00	0	48	104	0	60	1048572
2026-01-17 13:15:45.58	350.92	8.47	-83.5	-79.0	2.4	0.00e+00	0	48	104	0	60	1048575
2026-01-17 13:15:46.59	350.69	8.45	-83.1	-79.0	2.3	0.00e+00	0	48	104	0	60	1048575
2026-01-17 13:15:47.59	350.46	8.42	-83.5	-79.0	2.6	0.00e+00	0	48	104	0	60	1048570
2026-01-17 13:15:48.60	350.23	8.40	-83.5	-79.0	2.3	0.00e+00	0	49	104	0	60	1048575
2026-01-17 13:15:49.61	349.99	8.37	-83.5	-79.0	2.4	0.00e+00	0	49	104	0	60	1048571
2026-01-17 13:15:50.62	349.76	8.34	-83.1	-79.0	2.5	0.00e+00	0	49	104	0	60	1048573
2026-01-17 13:15:51.62	349.53	8.32	-83.1	-79.0	2.4	0.00e+00	0	49	104	0	60	1048573
2026-01-17 13:15:52.63	349.30	8.29	-83.5	-79.0	2.4	0.00e+00	0	49	104	0	60	1048571
2026-01-17 13:15:53.63	349.07	8.26	-83.5	-79.0	2.0	0.00e+00	0	49	104	0	60	1048572
2026-01-17 13:15:54.64	348.84	8.24	-83.5	-79.0	2.5	0.00e+00	0	49	104	0	60	1048571
2026-01-17 13:15:55.65	348.61	8.21	-83.1	-79.0	2.1	0.00e+00	0	49	104	0	60	1048573
2026-01-17 13:15:56.65	348.39	8.18	-83.1	-79.0	2.4	0.00e+00	0	49	104	0	60	1048575
2026-01-17 13:15:57.66	348.16	8.15	-83.5	-79.0	2.4	0.00e+00	0	49	104	0	60	1048569
2026-01-17 13:15:58.67	347.93	8.12	-83.1	-79.0	2.3	0.00e+00	0	49	104	0	60	1048573
2026-01-17 13:15:59.67	347.71	8.09	-83.5	-79.0	2.4	0.00e+00	0	49	104	0	60	1048574
2026-01-17 13:16:00.68	347.48	8.06	-83.1	-79.0	2.2	0.00e+00	0	49	104	0	60	1048569
2026-01-17 13:16:01.69	347.25	8.03	-83.5	-79.0	2.3	0.00e+00	0	48	104	0	60	1048573
2026-01-17 13:16:02.70	347.03	8.00	-83.5	-79.0	2.2	0.00e+00	0	49	104	0	60	1048569
2026-01-17 13:16:03.70	346.81	7.97	-83.5	-79.0	2.4	0.00e+00	0	49	104	0	60	1048573
2026-01-17 13:16:04.71	346.58	7.94	-83.5	-79.0	2.2	0.00e+00	0	49	104	0	60	1048571
2026-01-17 13:16:05.72	346.36	7.91	-83.1	-79.0	2.5	0.00e+00	0	49	104	0	60	1048575
2026-01-17 13:16:06.73	346.14	7.88	-83.5	-79.0	2.0	0.00e+00	0	49	104	0	60	1048573
2026-01-17 13:16:07.73	345.92	7.85	-83.5	-79.0	2.5	0.00e+00	0	49	104	0	60	1048571
2026-01-17 13:16:08.74	345.69	7.82	-83.5	-79.0	2.4	0.00e+00	0	48	104	0	60	1048567
2026-01-17 13:16:09.75	345.47	7.78	-83.1	-79.0	2.3	0.00e+00	0	49	104	0	60	1048575
2026-01-17 13:16:10.76	345.25	7.75	-83.1	-79.0	2.3	0.00e+00	0	49	104	0	60	1048568
2026-01-17 13:16:11.76	345.04	7.72	-83.5	-79.0	2.5	0.00e+00	0	49	104	0	60	1048570
2026-01-17 13:16:12.77	344.82	7.69	-83.5	-79.0	2.3	0.00e+00	0	49	104	0	60	1048572
2026-01-17 13:16:13.78	344.60	7.65	-83.5	-79.0	2.5	0.00e+00	0	49	104	0	60	1048575
2026-01-17 13:16:14.79	344.38	7.62	-83.1	-79.0	2.2	0.00e+00	0	49	104	0	60	1048574
2026-01-17 13:16:15.79	344.16	7.59	-83.1	-79.0	2.4	0.00e+00	0	49	104	0	60	1048574
2026-01-17 13:16:16.80	343.95	7.55	-83.5	-79.0	2.2	0.00e+00	0	49	104	0	60	1048572
2026-01-17 13:16:17.81	343.73	7.52	-83.5	-79.0	2.5	0.00e+00	0	49	104	0	60	1048573
2026-01-17 13:16:18.81	343.52	7.48	-83.5	-79.0	1.9	0.00e+00	0	49	104	0	60	1048575
2026-01-17 13:16:19.82	343.30	7.45	-83.1	-79.0	2.5	0.00e+00	0	49	104	0	60	1048567
2026-01-17 13:16:20.83	343.09	7.41	-83.5	-79.0	2.4	0.00e+00	0	49	104	0	60	1048575
2026-01-17 13:16:21.84	342.88	7.38	-83.5	-79.0	2.4	0.00e+00	0	49	104	0	60	1048570
2026-01-17 13:16:22.85	342.66	7.34	-83.5	-79.0	2.3	0.00e+00	0	49	104	0	60	1048574
2026-01-17 13:16:23.85	342.45	7.31	-83.1	-79.0	2.5	0.00e+00	0	49	104	0	60	1048571
2026-01-17 13:16:24.86	342.24	7.27	-83.1	-79.0	2.4	0.00e+00	0	49	104	0	60	1048570
2026-01-17 13:16:25.87	342.03	7.23	-83.5	-79.0	2.5	0.00e+00	0	49	104	0	60	1048575
2026-01-17 13:16:26.88	341.82	7.20	-83.5	-79.0	2.2	0.00e+00	0	49	104	0	60	1048572
2026-01-17 13:16:27.89	341.61	7.16	-83.5	-79.0	2.5	0.00e+00	0	49	104	0	60	1048574
2026-01-17 13:16:28.89	341.40	7.12	-83.1	-79.0	2.2	0.00e+00	0	49	104	0	60	1048568
2026-01-17 13:16:29.90	341.20	7.09	-83.1	-79.0	2.5	0.00e+00	0	49	104	0	60	1048574
2026-01-17 13:16:30.91	340.99	7.05	-83.5	-79.0	2.1	0.00e+00	0	49	104	0	60	1048575
2026-01-17 13:16:31.91	340.78	7.01	-83.5	-79.0	2.5	0.00e+00	0	49	104	0	60	1048573
2026-01-17 13:16:32.92	340.58	6.97	-83.5	-79.0	2.0	0.00e+00	0	49	104	0	60	1048562
2026-01-17 13:16:33.93	340.37	6.93	-83.1	-79.0	2.3	0.00e+00	0	49	104	0	60	1048575
2026-01-17 13:16:34.93	340.17	6.90	-83.5	-79.0	2.5	0.00e+00	0	49	104	0	60	1048573
2026-01-17 13:16:35.94	339.97	6.86	-83.5	-79.0	2.4	0.00e+00	0	48	104	0	60	1048575
2026-01-17 13:16:36.95	339.76	6.82	-83.5	-79.0	2.3	0.00e+00	0	49	104	0	60	1048575
2026-01-17 13:16:37.95	339.56	6.78	-83.5	-79.0	2.5	0.00e+00	0	49	104	0	60	1048574
2026-01-17 13:16:38.96	339.36	6.74	-82.8	-79.0	2.3	0.00e+00	0	49	104	0	60	1048575
2026-01-17 13:16:39.96	339.16	6.70	-83.1	-79.0	2.5	0.00e+00	0	49	104	0	60	1048575
2026-01-17 13:16:40.97	338.96	6.66	-83.5	-79.0	2.1	0.00e+00	0	49	104	0	60	1048572
2026-01-17 13:16:41.98	338.76	6.62	-83.5	-79.0	2.4	0.00e+00	0	49	104	0	60	1048574
2026-01-17 13:16:42.98	338.56	6.58	-83.1	-79.0	2.1	0.00e+00	0	49	104	0	60	1048571
2026-01-17 13:16:43.99	338.36	6.54	-83.1	-79.0	2.7	0.00e+00	0	49	104	0	60	1048570
2026-01-17 13:16:45.00	338.17	6.50	-83.5	-79.0	2.0	0.00e+00	0	48	104	0	60	1048567
2026-01-17 13:16:46.01	337.97	6.46	-83.5	-79.0	2.4	0.00e+00	0	49	104	0	60	1048570
2026-01-17 13:16:47.02	337.77	6.42	-83.5	-79.0	2.5	0.00e+00	0	49	104	0	60	1048560
2026-01-17 13:16:48.02	337.58	6.38	-83.1	-79.0	2.4	0.00e+00	0	48	104	0	60	1048570
2026-01-17 13:16:49.03	337.38	6.34	-83.1	-79.0	2.2	0.00e+00	0	49	104	0	60	1048574
2026-01-17 13:16:50.04	337.19	6.30	-83.5	-79.0	2.5	0.00e+00	0	49	104	0	60	1048562
2026-01-17 13:16:51.05	337.00	6.26	-83.5	-79.0	2.2	0.00e+00	0	49	104	0	60	1048575
2026-01-17 13:16:52.05	336.80	6.21	-83.5	-79.0	2.5	0.00e+00	0	49	104	0	60	1048574
2026-01-17 13:16:53.06	336.61	6.17	-83.1	-79.0	2.0	0.00e+00	0	49	104	0	60	1048572
2026-01-17 13:16:54.07	336.42	6.13	-83.5	-79.0	2.6	0.00e+00	0	49	104	0	60	1048574
2026-01-17 13:16:55.08	336.23	6.09	-83.5	-79.0	2.1	0.00e+00	0	49	104	0	60	1048573
2026-01-17 13:16:56.08	336.04	6.05	-83.5	-79.0	2.5	0.00e+00	0	49	104	0	60	1048574
2026-01-17 13:16:57.09	335.85	6.00	-83.5	-79.0	2.5	0.00e+00	0	49	104	0	60	1048575
2026-01-17 13:16:58.10	335.66	5.96	-82.8	-79.0	2.4	0.00e+00	0	49	104	0	60	1048572
2026-01-17 13:16:59.11	335.47	5.92	-83.5	-79.0	2.4	0.00e+00	0	49	104	0	60	1048575
2026-01-17 13:17:00.12	335.29	5.88	-83.5	-79.0	2.5	0.00e+00	0	49	104	0	60	1048574
2026-01-17 13:17:01.13	335.10	5.83	-83.5	-79.0	2.1	0.00e+00	0	49	104	0	60	1048567
2026-01-17 13:17:02.13	334.92	5.79	-83.1	-79.0	2.5	0.00e+00	0	49	104	0	60	1048575
2026-01-17 13:17:03.14	334.73	5.75	-83.1	-79.0	2.1	0.00e+00	0	49	104	0	60	1048575
2026-01-17 13:17:04.14	334.55	5.70	-83.5	-79.0	2.6	0.00e+00	0	49	104	0	60	1048573
2026-01-17 13:17:05.15	334.36	5.66	-83.5	-79.0	2.1	0.00e+00	0	49	104	0	60	1048564
2026-01-17 13:17:06.16	334.18	5.62	-83.5	-79.0	2.5	0.00e+00	0	49	104	0	60	1048568
2026-01-17 13:17:07.17	334.00	5.57	-83.1	-79.0	1.9	0.00e+00	0	49	104	0	60	1048572
2026-01-17 13:17:08.17	333.82	5.53	-83.1	-79.0	2.5	0.00e+00	0	49	104	0	60	1048574
2026-01-17 13:17:09.18	333.64	5.48	-83.5	-79.0	2.4	0.00e+00	0	49	104	0	60	1048573
2026-01-17 13:17:10.19	333.46	5.44	-83.5	-79.0	2.5	0.00e+00	0	49	104	0	60	1048575
2026-01-17 13:17:11.19	333.28	5.40	-83.1	-79.0	2.4	0.00e+00	0	49	104	0	60	1048570
2026-01-17 13:17:12.20	333.10	5.35	-83.1	-79.0	2.4	0.00e+00	0	49	104	0	60	1048573
2026-01-17 13:17:13.21	332.92	5.31	-83.5	-79.0	2.5	0.00e+00	0	49	104	0	60	1048559
2026-01-17 13:17:14.21	332.75	5.26	-83.5	-79.0	2.5	0.00e+00	0	49	104	0	60	1048573
2026-01-17 13:17:15.22	332.57	5.22	-83.5	-79.0	2.4	0.00e+00	0	48	104	0	60	1048575
2026-01-17 13:17:16.23	332.39	5.17	-83.5	-79.0	2.5	0.00e+00	0	49	104	0	60	1048572
2026-01-17 13:17:17.24	332.22	5.13	-83.1	-79.0	2.1	0.00e+00	0	49	104	0	60	1048572
2026-01-17 13:17:18.25	332.04	5.08	-83.5	-79.0	2.6	0.00e+00	0	49	104	0	60	1048574
2026-01-17 13:17:19.25	331.87	5.04	-83.5	-79.0	2.4	0.00e+00	0	49	104	0	60	1048574
2026-01-17 13:17:20.26	331.70	4.99	-83.5	-79.0	2.5	0.00e+00	0	49	104	0	60	1048575
2026-01-17 13:17:21.27	331.52	4.95	-83.1	-79.0	2.4	0.00e+00	0	49	104	0	60	1048575
2026-01-17 13:17:22.27	331.35	4.90	-83.1	-79.0	2.5	0.00e+00	0	49	104	0	60	1048574
2026-01-17 13:17:23.27	331.18	4.86	-83.5	-79.0	2.5	0.00e+00	0	49	104	0	60	1048570
2026-01-17 13:17:24.28	331.01	4.81	-83.5	-79.0	2.3	0.00e+00	0	49	104	0	60	1048574
2026-01-17 13:17:25.29	330.84	4.77	-83.5	-79.0	2.5	0.00e+00	0	49	104	0	60	1048569
2026-01-17 13:17:26.29	330.67	4.72	-83.1	-79.0	2.1	0.00e+00	0	49	104	0	60	1048575
2026-01-17 13:17:27.30	330.51	4.67	-83.1	-79.0	2.4	0.00e+00	0	49	104	0	60	1048554
2026-01-17 13:17:28.31	330.34	4.63	-83.5	-79.0	2.1	0.00e+00	0	48	104	0	60	1048575
2026-01-17 13:17:29.32	330.17	4.58	-83.5	-79.0	2.6	0.00e+00	0	49	104	0	60	1048567
2026-01-17 13:17:30.33	330.00	4.53	-83.5	-79.0	2.5	0.00e+00	0	49	104	0	60	1048573
2026-01-17 13:17:31.33	329.84	4.49	-83.1	-79.0	2.4	0.00e+00	0	49	104	0	60	1048574
2026-01-17 13:17:32.34	329.67	4.44	-83.5	-79.0	2.5	0.00e+00	0	48	104	0	60	1048574
2026-01-17 13:17:33.35	329.51	4.40	-83.5	-79.0	2.3	0.00e+00	0	48	104	0	60	1048574
2026-01-17 13:17:34.36	329.34	4.35	-83.5	-79.0	2.5	0.00e+00	0	49	104	0	60	1048573
2026-01-17 13:17:35.37	329.18	4.30	-83.1	-79.0	2.4	0.00e+00	0	49	104	0	60	1048573
2026-01-17 13:17:36.37	329.02	4.26	-83.1	-79.0	2.4	0.00e+00	0	49	104	0	60	1048575
2026-01-17 13:17:37.38	328.86	4.21	-83.5	-79.0	2.4	0.00e+00	0	49	104	0	60	1048567
2026-01-17 13:17:38.39	328.70	4.16	-83.1	-79.0	2.3	0.00e+00	0	49	104	0	60	1048574
2026-01-17 13:17:39.39	328.54	4.12	-83.5	-79.0	2.5	0.00e+00	0	49	104	0	60	1048569
2026-01-17 13:17:40.39	328.38	4.07	-83.1	-79.0	2.2	0.00e+00	0	49	104	0	60	1048575
2026-01-17 13:17:41.40	328.22	4.02	-83.5	-79.0	2.5	0.00e+00	0	49	104	0	60	1048575
2026-01-17 13:17:42.41	328.06	3.98	-83.5	-79.0	2.1	0.00e+00	0	49	104	0	60	1048574
2026-01-17 13:17:43.41	327.91	3.93	-83.5	-79.0	2.5	0.00e+00	0	49	104	0	60	1048573
2026-01-17 13:17:44.42	327.75	3.88	-83.5	-79.0	2.0	0.00e+00	0	49	104	0	60	1048575
2026-01-17 13:17:45.43	327.59	3.83	-83.1	-79.0	2.5	0.00e+00	0	49	104	0	60	1048567
2026-01-17 13:17:46.43	327.44	3.79	-83.5	-79.0	2.3	0.00e+00	0	49	104	0	60	1048575
2026-01-17 13:17:47.44	327.28	3.74	-83.5	-79.0	2.4	0.00e+00	0	49	104	0	60	1048575
2026-01-17 13:17:48.45	327.13	3.69	-83.5	-79.0	2.0	0.00e+00	0	49	104	0	60	1048568
2026-01-17 13:17:49.45	326.97	3.65	-83.5	-79.0	2.5	0.00e+00	0	49	104	0	60	1048564
2026-01-17 13:17:50.46	326.82	3.60	-83.1	-79.0	2.1	0.00e+00	0	49	104	0	60	1048575
2026-01-17 13:17:51.47	326.67	3.55	-83.5	-79.0	2.5	0.00e+00	0	49	104	0	60	1048566
2026-01-17 13:17:52.47	326.52	3.50	-83.5	-79.0	2.1	0.00e+00	0	49	104	0	60	1048574
2026-01-17 13:17:53.47	326.37	3.46	-83.5	-79.0	2.6	0.00e+00	0	49	104	0	60	1048574
2026-01-17 13:17:54.48	326.22	3.41	-83.1	-79.0	2.0	0.00e+00	0	49	104	0	60	1048574
2026-01-17 13:17:55.49	326.07	3.36	-83.5	-79.0	2.4	0.00e+00	0	49	104	0	60	1048572
2026-01-17 13:17:56.50	325.92	3.31	-83.5	-79.0	2.1	0.00e+00	0	49	104	0	60	1048574
2026-01-17 13:17:57.50	325.77	3.26	-83.5	-79.0	2.4	0.00e+00	0	49	104	0	60	1048572
2026-01-17 13:17:58.51	325.62	3.22	-83.5	-79.0	2.5	0.00e+00	0	49	104	0	60	1048575
2026-01-17 13:17:59.52	325.47	3.17	-82.8	-79.0	2.3	0.00e+00	0	49	104	0	60	1048575
2026-01-17 13:18:00.53	325.32	3.12	-83.1	-79.0	2.3	0.00e+00	0	49	104	0	60	1048565
2026-01-17 13:18:01.53	325.18	3.07	-83.5	-79.0	2.3	0.00e+00	0	49	104	0	60	1048575
2026-01-17 13:18:02.54	325.03	3.03	-83.5	-79.0	2.2	0.00e+00	0	49	104	0	60	1048575
2026-01-17 13:18:03.55	324.89	2.98	-83.5	-79.0	2.5	0.00e+00	0	49	104	0	60	1048575
2026-01-17 13:18:04.56	324.74	2.93	-82.8	-79.0	2.0	0.00e+00	0	49	104	0	60	1048575
2026-01-17 13:18:05.57	324.60	2.88	-83.5	-79.0	2.4	0.00e+00	0	49	104	0	60	1048571
2026-01-17 13:18:06.57	324.46	2.83	-83.5	-79.0	2.0	0.00e+00	0	49	104	0	60	1048573
2026-01-17 13:18:07.58	324.31	2.78	-83.5	-79.0	2.5	0.00e+00	0	49	104	0	60	1048575
2026-01-17 13:18:08.59	324.17	2.74	-83.1	-79.0	2.5	0.00e+00	0	49	104	0	60	1048569
2026-01-17 13:18:09.59	324.03	2.69	-83.1	-79.0	2.6	0.00e+00	0	49	104	0	60	1048566
2026-01-17 13:18:10.60	323.89	2.64	-83.5	-79.0	2.3	0.00e+00	0	49	104	0	60	1048569
2026-01-17 13:18:11.60	323.75	2.59	-83.5	-79.0	2.6	0.00e+00	0	49	104	0	60	1048575
2026-01-17 13:18:12.61	323.61	2.54	-83.5	-79.0	2.3	0.00e+00	0	49	104	0	60	1048575
2026-01-17 13:18:13.61	323.47	2.50	-83.1	-79.0	2.4	0.00e+00	0	49	104	0	60	1048575
2026-01-17 13:18:14.62	323.34	2.45	-83.5	-79.0	2.4	0.00e+00	0	49	104	0	60	1048575
2026-01-17 13:18:15.62	323.20	2.40	-83.5	-79.0	2.3	0.00e+00	0	49	104	0	60	1048575
2026-01-17 13:18:16.63	323.06	2.35	-83.5	-79.0	2.2	0.00e+00	0	49	104	0	60	1048574
2026-01-17 13:18:17.64	322.92	2.30	-83.5	-79.0	2.5	0.00e+00	0	49	104	0	60	1048573
2026-01-17 13:18:18.65	322.79	2.25	-83.1	-79.0	2.2	0.00e+00	0	49	104	0	60	1048575
2026-01-17 13:18:19.65	322.65	2.21	-83.1	-79.0	2.5	0.00e+00	0	49	104	0	60	1048571
2026-01-17 13:18:20.66	322.52	2.16	-83.5	-79.0	2.5	0.00e+00	0	48	104	0	60	1048570
2026-01-17 13:18:21.67	322.38	2.11	-83.5	-79.0	2.4	0.00e+00	0	49	104	0	60	1048573
2026-01-17 13:18:22.68	322.25	2.06	-83.1	-79.0	2.4	0.00e+00	0	49	104	0	60	1048568
2026-01-17 13:18:23.69	322.12	2.01	-83.1	-79.0	2.4	0.00e+00	0	49	104	0	60	1048572
2026-01-17 13:18:24.69	321.98	1.96	-83.5	-79.0	2.5	0.00e+00	0	49	104	0	60	1048575
2026-01-17 13:18:25.70	321.85	1.92	-83.1	-79.0	2.4	0.00e+00	0	48	104	0	60	1048572
2026-01-17 13:18:26.71	321.72	1.87	-83.5	-79.0	2.6	0.00e+00	0	49	104	0	60	1048575
2026-01-17 13:18:27.72	321.59	1.82	-83.5	-79.0	2.2	0.00e+00	0	49	104	0	60	1048573
2026-01-17 13:18:28.72	321.46	1.77	-83.1	-79.0	2.6	0.00e+00	0	49	104	0	60	1048569
2026-01-17 13:18:29.73	321.33	1.72	-83.5	-79.0	2.4	0.00e+00	0	49	104	0	60	1048572
2026-01-17 13:18:30.73	321.20	1.67	-83.5	-79.0	2.4	0.00e+00	0	49	104	0	60	1048567
2026-01-17 13:18:31.74	321.07	1.63	-83.1	-79.0	2.4	0.00e+00	0	49	104	0	60	1048574
2026-01-17 13:18:32.75	320.94	1.58	-82.8	-79.0	2.4	0.00e+00	0	49	104	0	60	1048571
2026-01-17 13:18:33.76	320.82	1.53	-83.5	-79.0	2.5	0.00e+00	0	49	104	0	60	1048565
2026-01-17 13:18:34.76	320.69	1.48	-83.5	-79.0	2.4	0.00e+00	0	49	104	0	60	1048572
2026-01-17 13:18:35.77	320.56	1.43	-83.5	-79.0	2.4	0.00e+00	0	49	104	0	60	1048573
2026-01-17 13:18:36.78	320.44	1.38	-83.5	-79.0	2.5	0.00e+00	0	49	104	0	60	1048575
2026-01-17 13:18:37.79	320.31	1.33	-82.8	-79.0	2.1	0.00e+00	0	48	104	0	60	1048571
2026-01-17 13:18:38.80	320.19	1.29	-83.5	-79.0	2.5	0.00e+00	0	49	104	0	60	1048570
2026-01-17 13:18:39.81	320.06	1.24	-83.1	-79.0	2.1	0.00e+00	0	49	104	0	60	1048572
2026-01-17 13:18:40.81	319.94	1.19	-83.5	-79.0	2.4	0.00e+00	0	49	104	0	60	1048573
2026-01-17 13:18:41.82	319.81	1.14	-83.1	-79.0	2.1	0.00e+00	0	49	104	0	60	1048575
2026-01-17 13:18:42.83	319.69	1.09	-83.1	-79.0	2.4	0.00e+00	0	49	104	0	60	1048567
2026-01-17 13:18:43.84	319.57	1.04	-83.1	-79.0	2.3	0.00e+00	0	49	104	0	60	1048575
2026-01-17 13:18:44.84	319.45	0.99	-83.5	-79.0	2.4	0.00e+00	0	48	104	0	60	1048570
2026-01-17 13:18:45.85	319.33	0.95	-83.5	-79.0	2.5	0.00e+00	0	48	104	0	60	1048574
2026-01-17 13:18:46.85	319.21	0.90	-83.1	-79.0	2.4	0.00e+00	0	48	104	0	60	1048575
2026-01-17 13:18:47.86	319.09	0.85	-83.5	-79.0	2.2	0.00e+00	0	49	104	0	60	1048575
2026-01-17 13:18:48.86	318.97	0.80	-83.5	-79.0	2.4	0.00e+00	0	49	104	0	60	1048574
2026-01-17 13:18:49.87	318.85	0.75	-83.5	-79.0	2.2	0.00e+00	0	49	104	0	60	1048572
2026-01-17 13:18:50.87	318.73	0.70	-83.5	-79.0	2.4	0.00e+00	0	49	104	0	60	1048571
2026-01-17 13:18:51.88	318.61	0.66	-83.1	-79.0	2.3	0.00e+00	0	49	104	0	60	1048570
2026-01-17 13:18:52.89	318.49	0.61	-83.5	-79.0	2.4	0.00e+00	0	49	104	0	60	1048573
2026-01-17 13:18:53.89	318.38	0.56	-83.5	-79.0	2.0	0.00e+00	0	49	104	0	60	1048573
2026-01-17 13:18:54.90	318.26	0.51	-83.5	-79.0	2.5	0.00e+00	0	49	104	0	60	1048572
2026-01-17 13:18:55.91	318.14	0.46	-83.5	-79.0	2.0	0.00e+00	0	49	104	0	60	1048574
2026-01-17 13:18:56.92	318.03	0.41	-83.1	-79.0	2.4	0.00e+00	0	49	104	0	60	1048575
2026-01-17 13:18:57.92	317.91	0.37	-83.1	-79.0	2.4	0.00e+00	0	49	104	0	60	1048575
2026-01-17 13:18:58.92	317.80	0.32	-83.5	-79.0	2.4	0.00e+00	0	49	104	0	60	1048575
2026-01-17 13:18:59.93	317.69	0.27	-83.5	-79.0	2.2	0.00e+00	0	49	104	0	60	1048575
2026-01-17 13:19:00.94	317.57	0.22	-83.5	-79.0	2.4	0.00e+00	0	49	104	0	60	1048574
2026-01-17 13:19:01.95	317.46	0.17	-83.1	-79.0	2.2	0.00e+00	0	49	104	0	60	1048574
2026-01-17 13:19:02.95	317.35	0.13	-83.5	-79.0	2.3	0.00e+00	0	49	104	0	60	1048573
2026-01-17 13:19:03.96	317.23	0.08	-83.5	-79.0	2.0	0.00e+00	0	49	104	0	60	1048574
2026-01-17 13:19:04.95	317.12	0.03	-83.5	-79.0	2.4	0.00e+00	0	49	104	0	60	1048574

#Closed at: 2026-01-17 13:19:05
#Recorded file [0 MB]: D:/Data/35015_260117_161025.dat