passes_logs/2026/01/17/R3.2S-Naryan-Mar/R3.2S-Naryan-Mar__20260117_205258_SUOMI_NPP_rec.log

#Pass ID: 20260117_205258_SUOMI NPP
#Satellite: SUOMI NPP
#Configuration: NPP
#almurnet v.1.7.20240730
#Start time: 2026-01-17 20:53:00

#Version: 2.2.20231116
#Station: R3.2S-Naryan-Mar
#Location: 53.008057 lon 67.646978 lat
#TLE: 1 37849U 11061A   26017.28905266  .00000074  00000+0  55894-4 0  9999
#TLE: 2 37849  98.7814 319.3179 0002408  59.7048 300.4366 14.19525847737038

#Time	Az	El	Level	Level2	SNR	BER	BlckErr	Temp	State	Recorded	gain1	gain2
2026-01-17 20:53:00.63	17.00	0.11	-85.2	-88.8	3.5	1.56e+00	0	44	0	0	60	1048575
2026-01-17 20:53:01.63	17.07	0.16	-85.2	-88.6	3.1	1.58e+00	0	45	104	0	60	1048575
2026-01-17 20:53:02.64	17.13	0.21	-85.2	-88.6	3.1	1.56e+00	0	45	104	0	60	1048575
2026-01-17 20:53:03.65	17.20	0.26	-85.2	-88.6	3.1	1.56e+00	0	45	104	0	60	1048574
2026-01-17 20:53:04.65	17.27	0.31	-85.2	-88.6	3.0	1.56e+00	0	45	104	0	60	1048575
2026-01-17 20:53:05.66	17.34	0.36	-85.2	-88.6	3.0	1.56e+00	0	46	104	0	60	1048575
2026-01-17 20:53:06.66	17.41	0.41	-85.2	-88.6	3.1	1.55e+00	0	46	104	0	60	1048572
2026-01-17 20:53:07.66	17.48	0.46	-85.2	-88.6	3.2	1.56e+00	0	46	104	0	60	1048574
2026-01-17 20:53:08.66	17.55	0.51	-85.2	-88.6	3.1	1.56e+00	0	46	104	0	60	1048574
2026-01-17 20:53:09.67	17.62	0.57	-85.2	-88.6	3.3	1.56e+00	0	46	104	0	60	1048574
2026-01-17 20:53:10.67	17.69	0.62	-85.2	-88.6	3.2	1.56e+00	0	46	104	0	60	1048569
2026-01-17 20:53:11.67	17.76	0.67	-85.2	-88.6	2.9	1.56e+00	0	46	104	0	60	1048574
2026-01-17 20:53:12.68	17.83	0.72	-85.2	-88.6	2.9	1.56e+00	0	46	104	0	60	1048575
2026-01-17 20:53:13.69	17.90	0.77	-85.2	-88.6	3.2	1.56e+00	0	46	104	0	60	1048575
2026-01-17 20:53:14.69	17.97	0.82	-85.2	-88.6	3.1	1.56e+00	0	46	104	0	60	1048575
2026-01-17 20:53:15.70	18.04	0.88	-85.2	-88.6	3.0	1.56e+00	0	46	104	0	60	1048575
2026-01-17 20:53:16.71	18.12	0.93	-85.2	-88.6	2.7	1.56e+00	0	46	104	0	60	1048574
2026-01-17 20:53:17.72	18.19	0.98	-85.2	-88.6	3.0	1.56e+00	0	46	104	0	60	1048575
2026-01-17 20:53:18.73	18.26	1.03	-85.2	-88.6	3.3	1.55e+00	0	46	104	0	60	1048575
2026-01-17 20:53:19.73	18.33	1.08	-85.2	-88.6	3.1	1.56e+00	0	46	104	0	60	1048575
2026-01-17 20:53:20.74	18.41	1.14	-85.2	-88.6	2.7	1.56e+00	0	46	104	0	60	1048575
2026-01-17 20:53:21.75	18.48	1.19	-85.2	-88.6	3.0	1.56e+00	0	46	104	0	60	1048574
2026-01-17 20:53:22.76	18.55	1.24	-85.2	-88.6	3.0	1.55e+00	0	46	104	0	60	1048575
2026-01-17 20:53:23.76	18.63	1.29	-85.2	-88.6	2.9	1.56e+00	0	46	104	0	60	1048575
2026-01-17 20:53:24.76	18.70	1.35	-85.2	-88.6	3.2	1.55e+00	0	46	104	0	60	1048575
2026-01-17 20:53:25.77	18.77	1.40	-85.2	-88.6	3.2	1.56e+00	0	46	104	0	60	1048572
2026-01-17 20:53:26.77	18.85	1.45	-85.2	-88.6	3.0	1.56e+00	0	46	104	0	60	1048575
2026-01-17 20:53:27.78	18.92	1.50	-85.2	-88.6	3.1	1.56e+00	0	46	104	0	60	1048575
2026-01-17 20:53:28.78	19.00	1.56	-85.2	-88.6	3.1	1.56e+00	0	46	104	0	60	1048574
2026-01-17 20:53:29.78	19.07	1.61	-85.2	-88.6	2.9	1.56e+00	0	46	104	0	60	1048575
2026-01-17 20:53:30.79	19.15	1.66	-85.2	-88.6	2.9	1.55e+00	0	46	104	0	60	1048575
2026-01-17 20:53:31.80	19.22	1.71	-85.2	-88.6	3.1	1.56e+00	0	46	104	0	60	1048575
2026-01-17 20:53:32.81	19.30	1.77	-85.2	-88.6	3.0	1.56e+00	0	46	104	0	60	1048575
2026-01-17 20:53:33.81	19.37	1.82	-85.2	-88.6	3.0	1.56e+00	0	46	104	0	60	1048575
2026-01-17 20:53:34.82	19.45	1.87	-85.2	-88.6	3.0	1.56e+00	0	46	104	0	60	1048573
2026-01-17 20:53:35.83	19.53	1.93	-85.2	-88.6	2.7	1.56e+00	0	46	104	0	60	1048575
2026-01-17 20:53:36.84	19.60	1.98	-85.2	-88.6	3.1	1.56e+00	0	46	104	0	60	1048571
2026-01-17 20:53:37.85	19.68	2.03	-85.2	-88.6	2.9	1.56e+00	0	46	104	0	60	1048575
2026-01-17 20:53:38.85	19.76	2.08	-85.2	-88.6	3.1	1.55e+00	0	46	104	0	60	1048573
2026-01-17 20:53:39.85	19.83	2.14	-85.2	-88.6	3.1	1.55e+00	0	46	104	0	60	1048574
2026-01-17 20:53:40.85	19.91	2.19	-85.2	-88.6	3.0	1.56e+00	0	46	104	0	60	1048574
2026-01-17 20:53:41.86	19.99	2.24	-85.2	-88.6	3.0	1.55e+00	0	46	104	0	60	1048573
2026-01-17 20:53:42.86	20.07	2.30	-85.2	-88.6	2.8	1.55e+00	0	46	104	0	60	1048575
2026-01-17 20:53:43.86	20.15	2.35	-85.2	-88.6	3.0	1.55e+00	0	46	104	0	60	1048574
2026-01-17 20:53:44.87	20.22	2.40	-85.2	-88.6	2.9	1.56e+00	0	46	104	0	60	1048575
2026-01-17 20:53:45.87	20.30	2.46	-85.2	-88.6	3.1	1.56e+00	0	46	104	0	60	1048575
2026-01-17 20:53:46.88	20.38	2.51	-85.2	-88.6	3.0	1.56e+00	0	46	104	0	60	1048575
2026-01-17 20:53:47.88	20.46	2.57	-85.2	-88.6	2.9	1.56e+00	0	46	104	0	60	1048574
2026-01-17 20:53:48.89	20.54	2.62	-85.2	-88.6	3.0	1.56e+00	0	46	104	0	60	1048574
2026-01-17 20:53:49.90	20.62	2.67	-85.2	-88.6	3.2	1.56e+00	0	46	104	0	60	1048575
2026-01-17 20:53:50.91	20.70	2.73	-85.2	-88.6	3.0	1.55e+00	0	46	104	0	60	1048575
2026-01-17 20:53:51.91	20.78	2.78	-85.2	-88.6	3.1	1.56e+00	0	46	104	0	60	1048574
2026-01-17 20:53:52.92	20.86	2.84	-85.2	-88.6	3.1	1.56e+00	0	46	104	0	60	1048575
2026-01-17 20:53:53.93	20.95	2.89	-85.2	-88.6	3.0	1.56e+00	0	46	104	0	60	1048573
2026-01-17 20:53:54.93	21.03	2.94	-85.2	-88.6	2.8	1.56e+00	0	46	104	0	60	1048575
2026-01-17 20:53:55.94	21.11	3.00	-85.2	-88.6	3.2	1.56e+00	0	46	104	0	60	1048574
2026-01-17 20:53:56.95	21.19	3.05	-85.2	-88.6	3.0	1.55e+00	0	46	104	0	60	1048574
2026-01-17 20:53:57.95	21.27	3.11	-85.2	-88.6	3.0	1.56e+00	0	46	104	0	60	1048574
2026-01-17 20:53:58.96	21.36	3.16	-85.2	-88.6	3.0	1.56e+00	0	46	104	0	60	1048574
2026-01-17 20:53:59.96	21.44	3.22	-85.2	-88.6	3.1	1.56e+00	0	46	104	0	60	1048575
2026-01-17 20:54:00.97	21.52	3.27	-85.2	-88.6	3.0	1.55e+00	0	46	104	0	60	1048575
2026-01-17 20:54:01.98	21.60	3.32	-85.2	-88.6	3.1	1.55e+00	0	46	104	0	60	1048575
2026-01-17 20:54:02.99	21.69	3.38	-84.7	-88.6	2.9	1.56e+00	0	46	104	0	60	1048573
2026-01-17 20:54:03.99	21.77	3.43	-85.2	-88.6	3.0	1.55e+00	0	46	104	0	60	1048575
2026-01-17 20:54:05.00	21.86	3.49	-85.2	-88.6	2.9	1.56e+00	0	46	104	0	60	1048575
2026-01-17 20:54:06.01	21.94	3.54	-85.2	-88.6	3.1	1.56e+00	0	46	104	0	60	1048574
2026-01-17 20:54:07.02	22.03	3.60	-85.2	-88.6	2.9	1.56e+00	0	46	104	0	60	1048574
2026-01-17 20:54:08.03	22.11	3.65	-85.2	-88.6	2.8	1.56e+00	0	46	104	0	60	1048573
2026-01-17 20:54:09.03	22.20	3.71	-85.2	-88.6	3.0	1.56e+00	0	46	104	0	60	1048575
2026-01-17 20:54:10.04	22.28	3.76	-85.2	-88.6	3.1	1.56e+00	0	46	104	0	60	1048572
2026-01-17 20:54:11.05	22.37	3.82	-85.2	-88.6	3.1	1.56e+00	0	46	104	0	60	1048573
2026-01-17 20:54:12.05	22.46	3.87	-85.2	-88.6	3.1	1.56e+00	0	46	104	0	60	1048575
2026-01-17 20:54:13.06	22.54	3.93	-85.2	-88.6	3.0	1.55e+00	0	46	104	0	60	1048575
2026-01-17 20:54:14.07	22.63	3.99	-84.3	-88.6	3.1	1.56e+00	0	46	104	0	60	1048574
2026-01-17 20:54:15.07	22.72	4.04	-85.2	-88.6	3.1	1.55e+00	0	46	104	0	60	1048574
2026-01-17 20:54:16.08	22.81	4.10	-85.2	-88.6	2.9	1.56e+00	0	46	104	0	60	1048575
2026-01-17 20:54:17.08	22.89	4.15	-85.2	-88.6	3.0	1.55e+00	0	46	104	0	60	1048575
2026-01-17 20:54:18.09	22.98	4.21	-85.2	-88.6	3.1	1.56e+00	0	46	104	0	60	1048575
2026-01-17 20:54:19.10	23.07	4.26	-85.2	-88.6	2.8	1.56e+00	0	46	104	0	60	1048575
2026-01-17 20:54:20.10	23.16	4.32	-85.2	-88.6	3.0	1.56e+00	0	46	104	0	60	1048575
2026-01-17 20:54:21.11	23.25	4.37	-85.2	-88.6	3.0	1.56e+00	0	46	104	0	60	1048575
2026-01-17 20:54:22.12	23.34	4.43	-85.2	-88.6	3.0	1.56e+00	0	46	104	0	60	1048575
2026-01-17 20:54:23.13	23.43	4.49	-85.2	-88.6	3.0	1.56e+00	0	46	104	0	60	1048575
2026-01-17 20:54:24.13	23.52	4.54	-85.2	-88.6	3.1	1.56e+00	0	46	104	0	60	1048575
2026-01-17 20:54:25.14	23.61	4.60	-85.2	-88.6	3.0	1.56e+00	0	46	104	0	60	1048575
2026-01-17 20:54:26.15	23.70	4.65	-85.2	-88.6	2.7	1.55e+00	0	46	104	0	60	1048575
2026-01-17 20:54:27.16	23.79	4.71	-85.2	-88.6	3.0	1.56e+00	0	46	104	0	60	1048575
2026-01-17 20:54:28.17	23.88	4.77	-85.2	-88.6	3.2	1.55e+00	0	46	104	0	60	1048572
2026-01-17 20:54:29.17	23.98	4.82	-85.2	-88.6	3.1	1.55e+00	0	46	104	0	60	1048575
2026-01-17 20:54:30.17	24.07	4.88	-85.2	-88.6	3.2	1.55e+00	0	46	104	0	60	1048574
2026-01-17 20:54:31.17	24.16	4.94	-85.2	-88.6	2.9	1.56e+00	0	46	104	0	60	1048575
2026-01-17 20:54:32.18	24.25	4.99	-85.2	-88.6	2.9	1.55e+00	0	46	104	0	60	1048574
2026-01-17 20:54:33.18	24.35	5.05	-85.2	-88.6	3.0	1.56e+00	0	46	104	0	60	1048575
2026-01-17 20:54:34.19	24.44	5.11	-85.2	-88.6	3.2	1.56e+00	0	46	104	0	60	1048574
2026-01-17 20:54:35.20	24.53	5.16	-85.2	-88.6	3.3	1.56e+00	0	46	104	0	60	1048575
2026-01-17 20:54:36.21	24.63	5.22	-85.2	-88.6	2.8	1.56e+00	0	47	104	0	60	1048574
2026-01-17 20:54:37.21	24.72	5.28	-85.2	-88.6	3.0	1.56e+00	0	47	104	0	60	1048570
2026-01-17 20:54:38.22	24.82	5.33	-85.2	-88.6	3.1	1.56e+00	0	47	104	0	60	1048573
2026-01-17 20:54:39.23	24.91	5.39	-85.2	-88.6	3.0	1.56e+00	0	46	104	0	60	1048575
2026-01-17 20:54:40.23	25.01	5.45	-85.2	-88.6	3.1	1.55e+00	0	46	104	0	60	1048571
2026-01-17 20:54:41.24	25.10	5.50	-85.2	-88.6	3.1	1.56e+00	0	47	104	0	60	1048575
2026-01-17 20:54:42.25	25.20	5.56	-85.2	-88.6	3.3	1.56e+00	0	46	104	0	60	1048574
2026-01-17 20:54:43.26	25.30	5.62	-85.2	-88.6	2.9	1.56e+00	0	46	104	0	60	1048575
2026-01-17 20:54:44.26	25.40	5.67	-85.2	-88.6	3.0	1.56e+00	0	47	104	0	60	1048575
2026-01-17 20:54:45.27	25.49	5.73	-85.2	-88.6	3.0	1.56e+00	0	47	104	0	60	1048574
2026-01-17 20:54:46.28	25.59	5.79	-85.2	-88.6	3.1	1.56e+00	0	46	104	0	60	1048575
2026-01-17 20:54:47.29	25.69	5.85	-85.2	-88.6	2.7	1.56e+00	0	47	104	0	60	1048573
2026-01-17 20:54:48.29	25.79	5.90	-85.2	-88.6	3.1	1.56e+00	0	46	104	0	60	1048574
2026-01-17 20:54:49.30	25.89	5.96	-85.2	-88.6	3.1	1.56e+00	0	47	104	0	60	1048574
2026-01-17 20:54:50.31	25.99	6.02	-85.2	-88.6	2.9	1.56e+00	0	46	104	0	60	1048575
2026-01-17 20:54:51.31	26.09	6.08	-85.2	-88.6	2.9	1.56e+00	0	47	104	0	60	1048575
2026-01-17 20:54:52.32	26.19	6.13	-85.2	-88.6	3.2	1.56e+00	0	47	104	0	60	1048575
2026-01-17 20:54:53.33	26.29	6.19	-85.2	-88.6	2.9	1.56e+00	0	47	104	0	60	1048575
2026-01-17 20:54:54.33	26.39	6.25	-85.2	-88.6	3.1	1.56e+00	0	46	104	0	60	1048575
2026-01-17 20:54:55.34	26.49	6.31	-85.2	-88.6	3.1	1.56e+00	0	46	104	0	60	1048575
2026-01-17 20:54:56.35	26.59	6.37	-85.2	-88.6	2.9	1.56e+00	0	47	104	0	60	1048574
2026-01-17 20:54:57.36	26.69	6.42	-85.2	-88.6	3.1	1.56e+00	0	47	104	0	60	1048575
2026-01-17 20:54:58.36	26.79	6.48	-85.2	-88.6	3.2	1.56e+00	0	47	104	0	60	1048575
2026-01-17 20:54:59.36	26.90	6.54	-85.2	-88.6	2.8	1.56e+00	0	46	104	0	60	1048575
2026-01-17 20:55:00.37	27.00	6.60	-85.2	-88.6	3.0	1.56e+00	0	47	104	0	60	1048575
2026-01-17 20:55:01.38	27.10	6.66	-85.2	-88.6	3.1	1.56e+00	0	47	104	0	60	1048575
2026-01-17 20:55:02.38	27.21	6.71	-85.2	-88.6	2.9	1.56e+00	0	47	104	0	60	1048575
2026-01-17 20:55:03.38	27.31	6.77	-85.2	-88.6	2.9	1.56e+00	0	47	104	0	60	1048573
2026-01-17 20:55:04.39	27.42	6.83	-85.2	-88.6	2.9	1.56e+00	0	47	104	0	60	1048575
2026-01-17 20:55:05.39	27.52	6.89	-85.2	-88.6	3.0	1.56e+00	0	47	104	0	60	1048575
2026-01-17 20:55:06.40	27.63	6.95	-85.2	-88.6	2.9	1.56e+00	0	47	104	0	60	1048575
2026-01-17 20:55:07.40	27.73	7.01	-85.2	-88.6	2.8	1.56e+00	0	47	104	0	60	1048573
2026-01-17 20:55:08.40	27.84	7.06	-85.2	-88.6	3.2	1.55e+00	0	47	104	0	60	1048574
2026-01-17 20:55:09.41	27.94	7.12	-85.2	-88.6	3.0	1.56e+00	0	47	104	0	60	1048575
2026-01-17 20:55:10.41	28.05	7.18	-85.2	-88.6	2.9	1.56e+00	0	47	104	0	60	1048574
2026-01-17 20:55:11.41	28.16	7.24	-85.2	-88.6	2.9	1.56e+00	0	47	104	0	60	1048574
2026-01-17 20:55:12.42	28.27	7.30	-85.2	-88.6	3.1	1.55e+00	0	47	104	0	60	1048574
2026-01-17 20:55:13.43	28.37	7.36	-85.2	-88.6	3.0	1.55e+00	0	47	104	0	60	1048567
2026-01-17 20:55:14.44	28.48	7.42	-85.2	-88.6	3.1	1.55e+00	0	47	104	0	60	1048573
2026-01-17 20:55:15.45	28.59	7.47	-85.2	-88.6	2.9	1.56e+00	0	47	104	0	60	1048575
2026-01-17 20:55:16.45	28.70	7.53	-85.2	-88.6	3.1	1.55e+00	0	47	104	0	60	1048575
2026-01-17 20:55:17.46	28.81	7.59	-85.2	-88.6	3.2	1.56e+00	0	47	104	0	60	1048575
2026-01-17 20:55:18.47	28.92	7.65	-85.2	-88.6	2.9	1.56e+00	0	47	104	0	60	1048575
2026-01-17 20:55:19.48	29.04	7.71	-85.2	-88.6	2.9	1.56e+00	0	47	104	0	60	1048574
2026-01-17 20:55:20.49	29.15	7.77	-85.2	-88.6	2.9	1.56e+00	0	47	104	0	60	1048575
2026-01-17 20:55:21.49	29.26	7.83	-85.2	-88.6	2.7	1.56e+00	0	47	104	0	60	1048575
2026-01-17 20:55:22.50	29.37	7.89	-85.2	-88.6	3.0	1.55e+00	0	47	104	0	60	1048573
2026-01-17 20:55:23.51	29.48	7.95	-85.2	-88.6	3.1	1.56e+00	0	47	104	0	60	1048574
2026-01-17 20:55:24.51	29.60	8.01	-85.2	-88.6	2.9	1.56e+00	0	47	104	0	60	1048575
2026-01-17 20:55:25.52	29.71	8.07	-85.2	-88.6	3.2	1.56e+00	0	47	104	0	60	1048573
2026-01-17 20:55:26.53	29.82	8.13	-85.2	-88.6	3.0	1.56e+00	0	47	104	0	60	1048572
2026-01-17 20:55:27.53	29.94	8.19	-85.2	-88.6	2.8	1.56e+00	0	47	104	0	60	1048574
2026-01-17 20:55:28.54	30.05	8.25	-85.2	-88.6	3.1	1.56e+00	0	47	104	0	60	1048569
2026-01-17 20:55:29.54	30.17	8.30	-85.2	-88.6	2.9	1.56e+00	0	47	104	0	60	1048575
2026-01-17 20:55:30.55	30.28	8.36	-85.2	-88.6	3.0	1.56e+00	0	47	104	0	60	1048574
2026-01-17 20:55:31.55	30.40	8.42	-85.2	-88.6	3.0	1.56e+00	0	47	104	0	60	1048575
2026-01-17 20:55:32.56	30.52	8.48	-85.2	-88.6	3.1	1.56e+00	0	47	104	0	60	1048574
2026-01-17 20:55:33.56	30.63	8.54	-85.2	-88.6	3.2	1.56e+00	0	47	104	0	60	1048574
2026-01-17 20:55:34.57	30.75	8.60	-85.2	-88.6	2.9	1.56e+00	0	47	104	0	60	1048575
2026-01-17 20:55:35.57	30.87	8.66	-85.2	-88.6	3.0	1.56e+00	0	47	104	0	60	1048574
2026-01-17 20:55:36.57	30.99	8.72	-85.2	-88.6	3.0	1.56e+00	0	47	104	0	60	1048575
2026-01-17 20:55:37.58	31.11	8.78	-85.2	-88.6	2.9	1.55e+00	0	47	104	0	60	1048575
2026-01-17 20:55:38.58	31.22	8.84	-85.2	-88.6	2.9	1.56e+00	0	47	104	0	60	1048574
2026-01-17 20:55:39.58	31.34	8.90	-85.2	-88.6	3.0	1.56e+00	0	47	104	0	60	1048574
2026-01-17 20:55:40.59	31.46	8.96	-85.2	-88.6	3.2	1.56e+00	0	47	104	0	60	1048575
2026-01-17 20:55:41.60	31.59	9.02	-85.2	-88.6	3.0	1.56e+00	0	47	104	0	60	1048575
2026-01-17 20:55:42.61	31.71	9.08	-85.2	-88.6	3.2	1.56e+00	0	47	104	0	60	1048574
2026-01-17 20:55:43.61	31.83	9.14	-85.2	-88.6	3.0	1.55e+00	0	47	104	0	60	1048575
2026-01-17 20:55:44.62	31.95	9.20	-85.2	-88.6	3.1	1.55e+00	0	47	104	0	60	1048575
2026-01-17 20:55:45.63	32.07	9.26	-85.2	-88.6	3.0	1.55e+00	0	47	104	0	60	1048575
2026-01-17 20:55:46.64	32.20	9.32	-85.2	-88.6	3.0	1.56e+00	0	47	104	0	60	1048573
2026-01-17 20:55:47.65	32.32	9.38	-83.1	-88.6	3.2	1.55e+00	0	47	104	0	60	1048573
2026-01-17 20:55:48.65	32.45	9.44	-85.2	-88.6	2.9	1.56e+00	0	47	104	0	60	1048575
2026-01-17 20:55:49.66	32.57	9.50	-85.2	-88.6	2.8	1.56e+00	0	47	104	0	60	1048574
2026-01-17 20:55:50.67	32.70	9.57	-85.2	-88.6	2.9	1.56e+00	0	47	104	0	60	1048575
2026-01-17 20:55:51.68	32.82	9.63	-85.2	-88.6	2.9	1.55e+00	0	47	104	0	60	1048574
2026-01-17 20:55:52.68	32.95	9.69	-84.7	-88.6	3.1	1.56e+00	0	47	104	0	60	1048575
2026-01-17 20:55:53.69	33.08	9.75	-85.2	-88.6	3.2	1.56e+00	0	47	104	0	60	1048574
2026-01-17 20:55:54.69	33.20	9.81	-85.2	-88.6	3.0	1.56e+00	0	47	104	0	60	1048575
2026-01-17 20:55:55.70	33.33	9.87	-85.2	-88.6	3.2	1.56e+00	0	47	104	0	60	1048575
2026-01-17 20:55:56.71	33.46	9.93	-85.2	-88.6	3.0	1.56e+00	0	47	104	0	60	1048575
2026-01-17 20:55:57.71	33.59	9.99	-85.2	-88.6	3.0	1.56e+00	0	47	104	0	60	1048575
2026-01-17 20:55:58.72	33.72	10.05	-85.2	-88.6	3.2	1.56e+00	0	47	104	0	60	1048571
2026-01-17 20:55:59.72	33.85	10.11	-85.2	-88.6	3.0	1.56e+00	0	47	104	0	60	1048574
2026-01-17 20:56:00.73	33.98	10.17	-85.2	-88.6	3.2	1.56e+00	0	47	104	0	60	1048574
2026-01-17 20:56:01.74	34.11	10.23	-85.2	-88.6	3.1	1.55e+00	0	47	104	0	60	1048574
2026-01-17 20:56:02.75	34.24	10.29	-85.2	-88.6	3.1	1.56e+00	0	47	104	0	60	1048574
2026-01-17 20:56:03.76	34.37	10.35	-85.2	-88.6	3.1	1.56e+00	0	47	104	0	60	1048575
2026-01-17 20:56:04.77	34.50	10.41	-85.2	-88.6	3.0	1.56e+00	0	47	104	0	60	1048575
2026-01-17 20:56:05.77	34.64	10.47	-85.2	-88.6	3.1	1.56e+00	0	47	104	0	60	1048575
2026-01-17 20:56:06.78	34.77	10.54	-85.2	-88.6	3.0	1.56e+00	0	47	104	0	60	1048575
2026-01-17 20:56:07.79	34.91	10.60	-84.7	-88.6	3.1	1.55e+00	0	47	104	0	60	1048575
2026-01-17 20:56:08.80	35.04	10.66	-85.2	-88.6	2.8	1.56e+00	0	47	104	0	60	1048575
2026-01-17 20:56:09.80	35.17	10.72	-85.2	-88.6	3.0	1.56e+00	0	47	104	0	60	1048574
2026-01-17 20:56:10.81	35.31	10.78	-85.2	-88.6	3.1	1.55e+00	0	47	104	0	60	1048573
2026-01-17 20:56:11.81	35.45	10.84	-85.2	-88.6	3.0	1.56e+00	0	47	104	0	60	1048574
2026-01-17 20:56:12.82	35.58	10.90	-85.2	-88.6	3.1	1.55e+00	0	47	104	0	60	1048575
2026-01-17 20:56:13.82	35.72	10.96	-85.2	-88.6	3.0	1.56e+00	0	47	104	0	60	1048575
2026-01-17 20:56:14.83	35.86	11.02	-85.2	-88.6	3.0	1.56e+00	0	47	104	0	60	1048575
2026-01-17 20:56:15.84	36.00	11.08	-85.2	-88.6	2.9	1.56e+00	0	47	104	0	60	1048575
2026-01-17 20:56:16.84	36.14	11.14	-83.9	-88.6	3.0	1.56e+00	0	47	104	0	60	1048575
2026-01-17 20:56:17.85	36.28	11.20	-85.2	-88.6	2.9	1.56e+00	0	47	104	0	60	1048574
2026-01-17 20:56:18.86	36.42	11.27	-85.2	-88.6	3.1	1.56e+00	0	47	104	0	60	1048575
2026-01-17 20:56:19.86	36.56	11.33	-85.2	-88.6	3.0	1.56e+00	0	47	104	0	60	1048575
2026-01-17 20:56:20.86	36.70	11.39	-85.2	-88.6	3.0	1.56e+00	0	47	104	0	60	1048572
2026-01-17 20:56:21.87	36.84	11.45	-84.3	-88.6	2.9	1.56e+00	0	47	104	0	60	1048575
2026-01-17 20:56:22.88	36.98	11.51	-84.3	-88.6	3.0	1.56e+00	0	47	104	0	60	1048575
2026-01-17 20:56:23.89	37.12	11.57	-85.2	-88.6	2.9	1.56e+00	0	47	104	0	60	1048575
2026-01-17 20:56:24.89	37.27	11.63	-85.2	-88.6	3.0	1.56e+00	0	47	104	0	60	1048575
2026-01-17 20:56:25.90	37.41	11.69	-85.2	-88.6	2.9	1.56e+00	0	47	104	0	60	1048575
2026-01-17 20:56:26.90	37.55	11.75	-85.2	-88.6	3.0	1.56e+00	0	47	104	0	60	1048574
2026-01-17 20:56:27.91	37.70	11.81	-85.2	-88.6	2.9	1.56e+00	0	47	104	0	60	1048575
2026-01-17 20:56:28.91	37.85	11.87	-85.2	-88.6	3.0	1.56e+00	0	47	104	0	60	1048573
2026-01-17 20:56:29.92	37.99	11.93	-85.2	-88.6	3.2	1.56e+00	0	47	104	0	60	1048571
2026-01-17 20:56:30.93	38.14	12.00	-85.2	-88.6	3.0	1.55e+00	0	47	104	0	60	1048574
2026-01-17 20:56:31.93	38.29	12.06	-85.2	-88.6	2.9	1.55e+00	0	47	104	0	60	1048569
2026-01-17 20:56:32.94	38.44	12.12	-84.3	-88.6	3.0	1.56e+00	0	47	104	0	60	1048575
2026-01-17 20:56:33.95	38.58	12.18	-85.2	-88.6	3.1	1.56e+00	0	47	104	0	60	1048575
2026-01-17 20:56:34.95	38.73	12.24	-85.2	-88.6	2.9	1.56e+00	0	47	104	0	60	1048575
2026-01-17 20:56:35.96	38.88	12.30	-85.2	-88.6	3.1	1.56e+00	0	47	104	0	60	1048575
2026-01-17 20:56:36.96	39.03	12.36	-85.2	-88.6	2.9	1.56e+00	0	47	104	0	60	1048575
2026-01-17 20:56:37.97	39.18	12.42	-84.3	-88.6	3.0	1.56e+00	0	47	104	0	60	1048569
2026-01-17 20:56:38.97	39.34	12.48	-85.2	-88.6	3.2	1.56e+00	0	47	104	0	60	1048575
2026-01-17 20:56:39.98	39.49	12.54	-85.2	-88.6	2.7	1.56e+00	0	47	104	0	60	1048575
2026-01-17 20:56:40.99	39.64	12.60	-85.2	-88.6	3.1	1.56e+00	0	47	104	0	60	1048572
2026-01-17 20:56:42.00	39.80	12.66	-85.2	-88.6	3.1	1.55e+00	0	47	104	0	60	1048575
2026-01-17 20:56:43.00	39.95	12.72	-82.8	-88.6	3.2	1.56e+00	0	47	104	0	60	1048573
2026-01-17 20:56:44.01	40.10	12.78	-85.2	-88.6	2.9	1.56e+00	0	47	104	0	60	1048575
2026-01-17 20:56:45.01	40.26	12.84	-85.2	-88.6	3.1	1.55e+00	0	47	104	0	60	1048575
2026-01-17 20:56:46.02	40.41	12.91	-85.2	-88.6	3.3	1.56e+00	0	47	104	0	60	1048575
2026-01-17 20:56:47.03	40.57	12.97	-85.2	-88.6	3.0	1.56e+00	0	47	104	0	60	1048573
2026-01-17 20:56:48.03	40.73	13.03	-83.5	-88.6	3.1	1.56e+00	0	47	104	0	60	1048575
2026-01-17 20:56:49.04	40.89	13.09	-85.2	-88.6	3.0	1.56e+00	0	47	104	0	60	1048573
2026-01-17 20:56:50.05	41.05	13.15	-85.2	-88.6	3.0	1.55e+00	0	47	104	0	60	1048574
2026-01-17 20:56:51.05	41.20	13.21	-84.7	-88.6	3.0	1.56e+00	0	47	104	0	60	1048574
2026-01-17 20:56:52.05	41.36	13.27	-84.3	-88.6	3.1	1.56e+00	0	47	104	0	60	1048573
2026-01-17 20:56:53.06	41.52	13.33	-85.2	-88.6	3.2	1.56e+00	0	47	104	0	60	1048575
2026-01-17 20:56:54.07	41.69	13.39	-85.2	-88.6	3.2	1.56e+00	0	47	104	0	60	1048575
2026-01-17 20:56:55.08	41.85	13.45	-85.2	-88.6	2.9	1.55e+00	0	47	104	0	60	1048573
2026-01-17 20:56:56.09	42.01	13.51	-85.2	-88.6	3.0	1.56e+00	0	47	104	0	60	1048573
2026-01-17 20:56:57.09	42.17	13.57	-84.3	-88.6	2.9	1.55e+00	0	47	104	0	60	1048573
2026-01-17 20:56:58.10	42.34	13.63	-85.2	-88.6	2.8	1.56e+00	0	47	104	0	60	1048575
2026-01-17 20:56:59.11	42.50	13.69	-85.2	-88.6	3.0	1.56e+00	0	47	104	0	60	1048575
2026-01-17 20:57:00.11	42.66	13.75	-85.2	-88.6	2.9	1.56e+00	0	47	104	0	60	1048575
2026-01-17 20:57:01.12	42.83	13.81	-85.2	-88.6	3.0	1.56e+00	0	47	104	0	60	1048575
2026-01-17 20:57:02.13	43.00	13.87	-85.2	-88.6	3.2	1.56e+00	0	47	104	0	60	1048575
2026-01-17 20:57:03.14	43.16	13.93	-84.7	-88.6	2.9	1.56e+00	0	47	104	0	60	1048573
2026-01-17 20:57:04.14	43.33	13.98	-85.2	-88.6	3.0	1.56e+00	0	47	104	0	60	1048574
2026-01-17 20:57:05.15	43.50	14.04	-85.2	-88.6	3.1	1.56e+00	0	47	104	0	60	1048574
2026-01-17 20:57:06.16	43.67	14.10	-85.2	-88.6	3.0	1.55e+00	0	47	104	0	60	1048575
2026-01-17 20:57:07.17	43.84	14.16	-85.2	-88.6	3.0	1.56e+00	0	47	104	0	60	1048572
2026-01-17 20:57:08.18	44.01	14.22	-84.7	-88.6	3.1	1.56e+00	0	47	104	0	60	1048575
2026-01-17 20:57:09.18	44.18	14.28	-85.2	-88.6	3.1	1.56e+00	0	47	104	0	60	1048574
2026-01-17 20:57:10.19	44.35	14.34	-85.2	-88.6	3.2	1.56e+00	0	47	104	0	60	1048574
2026-01-17 20:57:11.19	44.52	14.40	-85.2	-88.6	2.9	1.55e+00	0	47	104	0	60	1048575
2026-01-17 20:57:12.19	44.69	14.46	-84.3	-88.6	2.8	1.56e+00	0	47	104	0	60	1048575
2026-01-17 20:57:13.21	44.87	14.52	-85.2	-88.6	3.3	1.56e+00	0	47	104	0	60	1048574
2026-01-17 20:57:14.21	45.04	14.57	-85.2	-88.6	3.1	1.55e+00	0	47	104	0	60	1048574
2026-01-17 20:57:15.22	45.22	14.63	-85.2	-88.6	2.9	1.56e+00	0	47	104	0	60	1048575
2026-01-17 20:57:16.23	45.39	14.69	-85.2	-88.6	3.1	1.56e+00	0	47	104	0	60	1048575
2026-01-17 20:57:17.23	45.57	14.75	-85.2	-88.6	3.2	1.56e+00	0	47	104	0	60	1048575
2026-01-17 20:57:18.24	45.75	14.81	-85.2	-88.6	3.1	1.56e+00	0	47	104	0	60	1048575
2026-01-17 20:57:19.25	45.92	14.87	-85.2	-88.6	2.9	1.56e+00	0	47	104	0	60	1048575
2026-01-17 20:57:20.26	46.10	14.92	-85.2	-88.6	3.1	1.55e+00	0	47	104	0	60	1048575
2026-01-17 20:57:21.26	46.28	14.98	-85.2	-88.6	3.2	1.56e+00	0	47	104	0	60	1048575
2026-01-17 20:57:22.26	46.46	15.04	-85.2	-88.6	3.1	1.56e+00	0	47	104	0	60	1048574
2026-01-17 20:57:23.27	46.64	15.10	-85.2	-88.6	3.1	1.56e+00	0	47	104	0	60	1048575
2026-01-17 20:57:24.27	46.82	15.15	-85.2	-88.6	3.0	1.56e+00	0	47	104	0	60	1048570
2026-01-17 20:57:25.28	47.00	15.21	-85.2	-88.6	3.2	1.55e+00	0	47	104	0	60	1048575
2026-01-17 20:57:26.29	47.18	15.27	-85.2	-88.6	3.2	1.56e+00	0	47	104	0	60	1048573
2026-01-17 20:57:27.30	47.37	15.33	-85.2	-88.6	2.9	1.55e+00	0	47	104	0	60	1048575
2026-01-17 20:57:28.30	47.55	15.38	-85.2	-88.6	3.2	1.55e+00	0	47	104	0	60	1048575
2026-01-17 20:57:29.31	47.73	15.44	-85.2	-88.6	2.9	1.56e+00	0	47	104	0	60	1048575
2026-01-17 20:57:30.31	47.92	15.49	-85.2	-88.6	2.7	1.56e+00	0	47	104	0	60	1048574
2026-01-17 20:57:31.33	48.11	15.55	-85.2	-88.6	3.2	1.56e+00	0	47	104	0	60	1048574
2026-01-17 20:57:32.33	48.29	15.61	-85.2	-88.6	2.7	1.56e+00	0	47	104	0	60	1048572
2026-01-17 20:57:33.34	48.48	15.66	-85.2	-88.6	3.1	1.56e+00	0	47	104	0	60	1048573
2026-01-17 20:57:34.35	48.67	15.72	-85.2	-88.6	3.0	1.56e+00	0	47	104	0	60	1048575
2026-01-17 20:57:35.35	48.85	15.78	-85.2	-88.6	3.1	1.55e+00	0	47	104	0	60	1048573
2026-01-17 20:57:36.36	49.04	15.83	-85.2	-88.6	3.1	1.56e+00	0	47	104	0	60	1048571
2026-01-17 20:57:37.37	49.23	15.89	-85.2	-88.6	3.0	1.56e+00	0	47	104	0	60	1048571
2026-01-17 20:57:38.37	49.42	15.94	-85.2	-88.6	2.9	1.56e+00	0	47	104	0	60	1048572
2026-01-17 20:57:39.38	49.61	16.00	-85.2	-88.6	2.9	1.56e+00	0	47	104	0	60	1048574
2026-01-17 20:57:40.39	49.81	16.05	-85.2	-88.6	3.1	1.55e+00	0	47	104	0	60	1048573
2026-01-17 20:57:41.39	50.00	16.11	-85.2	-88.6	2.9	1.55e+00	0	47	104	0	60	1048575
2026-01-17 20:57:42.40	50.19	16.16	-85.2	-88.6	3.0	1.56e+00	0	47	104	0	60	1048575
2026-01-17 20:57:43.41	50.39	16.22	-85.2	-88.6	3.0	1.56e+00	0	47	104	0	60	1048574
2026-01-17 20:57:44.41	50.58	16.27	-85.2	-88.6	3.0	1.56e+00	0	47	104	0	60	1048574
2026-01-17 20:57:45.42	50.77	16.33	-85.2	-88.6	3.2	1.56e+00	0	47	104	0	60	1048574
2026-01-17 20:57:46.43	50.97	16.38	-85.2	-88.6	2.8	1.55e+00	0	47	104	0	60	1048575
2026-01-17 20:57:47.44	51.17	16.43	-85.2	-88.6	3.0	1.55e+00	0	47	104	0	60	1048574
2026-01-17 20:57:48.45	51.37	16.49	-85.2	-88.6	3.0	1.56e+00	0	47	104	0	60	1048575
2026-01-17 20:57:49.45	51.56	16.54	-85.2	-88.6	2.8	1.56e+00	0	47	104	0	60	1048571
2026-01-17 20:57:50.46	51.76	16.59	-85.2	-88.6	3.0	1.56e+00	0	47	104	0	60	1048574
2026-01-17 20:57:51.47	51.96	16.65	-85.2	-88.6	2.9	1.56e+00	0	47	104	0	60	1048575
2026-01-17 20:57:52.47	52.16	16.70	-85.2	-88.6	3.0	1.56e+00	0	47	104	0	60	1048573
2026-01-17 20:57:53.48	52.36	16.75	-85.2	-88.6	3.1	1.56e+00	0	47	104	0	60	1048573
2026-01-17 20:57:54.49	52.56	16.80	-85.2	-88.6	3.1	1.56e+00	0	47	104	0	60	1048575
2026-01-17 20:57:55.49	52.76	16.85	-85.2	-88.6	3.2	1.55e+00	0	47	104	0	60	1048575
2026-01-17 20:57:56.50	52.97	16.91	-85.2	-88.6	3.0	1.56e+00	0	47	104	0	60	1048573
2026-01-17 20:57:57.51	53.17	16.96	-85.2	-88.6	3.0	1.56e+00	0	47	104	0	60	1048571
2026-01-17 20:57:58.51	53.37	17.01	-85.2	-88.6	3.1	1.56e+00	0	47	104	0	60	1048575
2026-01-17 20:57:59.52	53.58	17.06	-85.2	-88.6	3.0	1.56e+00	0	47	104	0	60	1048573
2026-01-17 20:58:00.52	53.78	17.11	-85.2	-88.6	3.1	1.55e+00	0	47	104	0	60	1048574
2026-01-17 20:58:01.53	53.99	17.16	-85.2	-88.6	3.1	1.56e+00	0	47	104	0	60	1048575
2026-01-17 20:58:02.54	54.20	17.21	-85.2	-88.6	3.0	1.56e+00	0	47	104	0	60	1048575
2026-01-17 20:58:03.55	54.41	17.26	-85.2	-88.6	3.0	1.55e+00	0	47	104	0	60	1048575
2026-01-17 20:58:04.56	54.61	17.31	-85.2	-88.6	3.1	1.55e+00	0	47	104	0	60	1048575
2026-01-17 20:58:05.57	54.82	17.36	-85.2	-88.6	3.3	1.56e+00	0	47	104	0	60	1048574
2026-01-17 20:58:06.57	55.03	17.41	-85.2	-88.6	3.3	1.56e+00	0	47	104	0	60	1048574
2026-01-17 20:58:07.58	55.24	17.46	-85.2	-88.6	3.1	1.56e+00	0	47	104	0	60	1048575
2026-01-17 20:58:08.58	55.45	17.51	-85.2	-88.6	2.7	1.55e+00	0	47	104	0	60	1048575
2026-01-17 20:58:09.59	55.66	17.56	-85.2	-88.6	3.0	1.56e+00	0	47	104	0	60	1048575
2026-01-17 20:58:10.59	55.87	17.61	-85.2	-88.6	2.9	1.56e+00	0	47	104	0	60	1048575
2026-01-17 20:58:11.60	56.09	17.65	-85.2	-88.6	3.1	1.56e+00	0	47	104	0	60	1048573
2026-01-17 20:58:12.61	56.30	17.70	-85.2	-88.6	3.1	1.56e+00	0	47	104	0	60	1048573
2026-01-17 20:58:13.62	56.52	17.75	-85.2	-88.6	3.1	1.56e+00	0	47	104	0	60	1048573
2026-01-17 20:58:14.62	56.73	17.80	-85.2	-88.6	3.1	1.55e+00	0	47	104	0	60	1048573
2026-01-17 20:58:15.63	56.95	17.84	-85.2	-88.6	3.1	1.56e+00	0	47	104	0	60	1048570
2026-01-17 20:58:16.64	57.16	17.89	-85.2	-88.6	2.9	1.56e+00	0	47	104	0	60	1048573
2026-01-17 20:58:17.65	57.38	17.94	-85.2	-88.6	3.0	1.56e+00	0	47	104	0	60	1048572
2026-01-17 20:58:18.66	57.60	17.98	-85.2	-88.6	2.8	1.56e+00	0	47	104	0	60	1048574
2026-01-17 20:58:19.67	57.82	18.03	-85.2	-88.6	3.0	1.56e+00	0	47	104	0	60	1048574
2026-01-17 20:58:20.67	58.03	18.07	-85.2	-88.6	3.1	1.56e+00	0	47	104	0	60	1048574
2026-01-17 20:58:21.68	58.25	18.12	-85.2	-88.6	3.0	1.56e+00	0	47	104	0	60	1048574
2026-01-17 20:58:22.68	58.47	18.16	-85.2	-88.6	3.1	1.55e+00	0	47	104	0	60	1048575
2026-01-17 20:58:23.69	58.69	18.21	-85.2	-88.6	3.0	1.56e+00	0	47	104	0	60	1048575
2026-01-17 20:58:24.70	58.92	18.25	-85.2	-88.6	2.9	1.56e+00	0	47	104	0	60	1048575
2026-01-17 20:58:25.70	59.14	18.29	-85.2	-88.6	2.8	1.56e+00	0	47	104	0	60	1048574
2026-01-17 20:58:26.71	59.36	18.34	-85.2	-88.6	3.1	1.56e+00	0	47	104	0	60	1048571
2026-01-17 20:58:27.71	59.58	18.38	-85.2	-88.6	3.1	1.56e+00	0	47	104	0	60	1048575
2026-01-17 20:58:28.72	59.80	18.42	-85.2	-88.6	3.2	1.55e+00	0	47	104	0	60	1048575
2026-01-17 20:58:29.72	60.03	18.46	-85.2	-88.6	3.1	1.56e+00	0	47	104	0	60	1048575
2026-01-17 20:58:30.73	60.25	18.51	-85.2	-88.6	3.1	1.56e+00	0	47	104	0	60	1048573
2026-01-17 20:58:31.74	60.48	18.55	-85.2	-88.6	3.2	1.56e+00	0	47	104	0	60	1048573
2026-01-17 20:58:32.75	60.71	18.59	-85.2	-88.6	3.3	1.56e+00	0	47	104	0	60	1048573
2026-01-17 20:58:33.75	60.93	18.63	-85.2	-88.6	2.9	1.56e+00	0	47	104	0	60	1048575
2026-01-17 20:58:34.76	61.16	18.67	-85.2	-88.6	3.0	1.56e+00	0	47	104	0	60	1048575
2026-01-17 20:58:35.77	61.39	18.71	-85.2	-88.6	2.9	1.56e+00	0	47	104	0	60	1048574
2026-01-17 20:58:36.78	61.62	18.75	-85.2	-88.6	3.2	1.55e+00	0	47	104	0	60	1048572
2026-01-17 20:58:37.79	61.85	18.79	-85.2	-88.6	3.0	1.56e+00	0	47	104	0	60	1048574
2026-01-17 20:58:38.80	62.08	18.83	-85.2	-88.6	3.2	1.56e+00	0	47	104	0	60	1048575
2026-01-17 20:58:39.80	62.30	18.87	-85.2	-88.6	3.0	1.56e+00	0	47	104	0	60	1048572
2026-01-17 20:58:40.81	62.54	18.91	-85.2	-88.6	2.8	1.56e+00	0	47	104	0	60	1048574
2026-01-17 20:58:41.81	62.77	18.94	-85.2	-88.6	3.1	1.56e+00	0	47	104	0	60	1048574
2026-01-17 20:58:42.81	63.00	18.98	-85.2	-88.6	3.0	1.56e+00	0	47	104	0	60	1048573
2026-01-17 20:58:43.82	63.23	19.02	-85.2	-88.6	3.1	1.56e+00	0	47	104	0	60	1048573
2026-01-17 20:58:44.83	63.46	19.05	-85.2	-88.6	2.9	1.55e+00	0	47	104	0	60	1048575
2026-01-17 20:58:45.84	63.70	19.09	-85.2	-88.6	2.9	1.55e+00	0	47	104	0	60	1048572
2026-01-17 20:58:46.85	63.93	19.13	-85.2	-88.6	2.9	1.56e+00	0	47	104	0	60	1048575
2026-01-17 20:58:47.85	64.17	19.16	-85.2	-88.6	3.1	1.56e+00	0	47	104	0	60	1048575
2026-01-17 20:58:48.86	64.40	19.20	-85.2	-88.6	3.1	1.56e+00	0	47	104	0	60	1048575
2026-01-17 20:58:49.86	64.64	19.23	-85.2	-88.6	2.9	1.55e+00	0	47	104	0	60	1048573
2026-01-17 20:58:50.87	64.87	19.27	-85.2	-88.6	3.2	1.56e+00	0	47	104	0	60	1048572
2026-01-17 20:58:51.87	65.11	19.30	-85.2	-88.6	3.1	1.56e+00	0	47	104	0	60	1048575
2026-01-17 20:58:52.88	65.35	19.33	-85.2	-88.6	2.9	1.55e+00	0	47	104	0	60	1048575
2026-01-17 20:58:53.89	65.58	19.37	-84.7	-88.6	3.0	1.56e+00	0	47	104	0	60	1048574
2026-01-17 20:58:54.90	65.82	19.40	-85.2	-88.6	3.1	1.56e+00	0	47	104	0	60	1048574
2026-01-17 20:58:55.90	66.06	19.43	-85.2	-88.6	2.9	1.56e+00	0	47	104	0	60	1048575
2026-01-17 20:58:56.91	66.30	19.46	-85.2	-88.6	3.1	1.56e+00	0	47	104	0	60	1048572
2026-01-17 20:58:57.92	66.54	19.49	-85.2	-88.6	3.0	1.56e+00	0	47	104	0	60	1048575
2026-01-17 20:58:58.92	66.78	19.52	-85.2	-88.6	2.9	1.56e+00	0	47	104	0	60	1048574
2026-01-17 20:58:59.93	67.02	19.55	-85.2	-88.6	3.2	1.56e+00	0	47	104	0	60	1048575
2026-01-17 20:59:00.93	67.26	19.58	-85.2	-88.6	3.2	1.56e+00	0	47	104	0	60	1048574
2026-01-17 20:59:01.94	67.50	19.61	-85.2	-88.6	3.1	1.55e+00	0	47	104	0	60	1048575
2026-01-17 20:59:02.95	67.74	19.64	-85.2	-88.6	3.1	1.56e+00	0	47	104	0	60	1048574
2026-01-17 20:59:03.95	67.99	19.67	-85.2	-88.6	2.8	1.55e+00	0	47	104	0	60	1048573
2026-01-17 20:59:04.96	68.23	19.70	-85.2	-88.6	2.9	1.55e+00	0	47	104	0	60	1048575
2026-01-17 20:59:05.97	68.47	19.72	-85.2	-88.6	3.0	1.56e+00	0	47	104	0	60	1048575
2026-01-17 20:59:06.97	68.71	19.75	-85.2	-88.6	3.1	1.56e+00	0	47	104	0	60	1048575
2026-01-17 20:59:07.98	68.96	19.78	-85.2	-88.6	3.0	1.56e+00	0	47	104	0	60	1048574
2026-01-17 20:59:08.98	69.20	19.80	-85.2	-88.6	2.9	1.56e+00	0	47	104	0	60	1048575
2026-01-17 20:59:09.99	69.45	19.83	-85.2	-88.6	3.1	1.55e+00	0	47	104	0	60	1048575
2026-01-17 20:59:11.00	69.69	19.85	-85.2	-88.6	2.9	1.56e+00	0	47	104	0	60	1048573
2026-01-17 20:59:12.01	69.94	19.88	-85.2	-88.6	2.9	1.56e+00	0	47	104	0	60	1048574
2026-01-17 20:59:13.01	70.19	19.90	-85.2	-88.6	3.0	1.56e+00	0	47	104	0	60	1048575
2026-01-17 20:59:14.02	70.43	19.92	-85.2	-88.6	3.1	1.56e+00	0	47	104	0	60	1048575
2026-01-17 20:59:15.03	70.68	19.95	-85.2	-88.6	3.0	1.56e+00	0	47	104	0	60	1048573
2026-01-17 20:59:16.04	70.93	19.97	-85.2	-88.6	3.1	1.56e+00	0	47	104	0	60	1048575
2026-01-17 20:59:17.04	71.17	19.99	-85.2	-88.6	3.1	1.56e+00	0	47	104	0	60	1048575
2026-01-17 20:59:18.05	71.42	20.01	-85.2	-88.6	3.1	1.55e+00	0	47	104	0	60	1048571
2026-01-17 20:59:19.06	71.67	20.03	-85.2	-88.6	3.3	1.56e+00	0	47	104	0	60	1048574
2026-01-17 20:59:20.06	71.92	20.05	-85.2	-88.6	3.1	1.55e+00	0	47	104	0	60	1048573
2026-01-17 20:59:21.06	72.17	20.07	-85.2	-88.6	3.1	1.56e+00	0	47	104	0	60	1048575
2026-01-17 20:59:22.07	72.42	20.09	-85.2	-88.6	2.9	1.56e+00	0	47	104	0	60	1048574
2026-01-17 20:59:23.08	72.67	20.11	-85.2	-88.6	2.9	1.56e+00	0	47	104	0	60	1048575
2026-01-17 20:59:24.09	72.92	20.13	-85.2	-88.6	2.9	1.56e+00	0	47	104	0	60	1048574
2026-01-17 20:59:25.10	73.17	20.15	-85.2	-88.6	3.0	1.56e+00	0	47	104	0	60	1048575
2026-01-17 20:59:26.11	73.42	20.17	-85.2	-88.6	3.1	1.56e+00	0	47	104	0	60	1048573
2026-01-17 20:59:27.11	73.67	20.18	-85.2	-88.6	3.1	1.55e+00	0	47	104	0	60	1048575
2026-01-17 20:59:28.12	73.92	20.20	-85.2	-88.6	3.0	1.56e+00	0	47	104	0	60	1048571
2026-01-17 20:59:29.12	74.17	20.21	-85.2	-88.6	3.1	1.56e+00	0	47	104	0	60	1048575
2026-01-17 20:59:30.13	74.42	20.23	-85.2	-88.6	2.9	1.55e+00	0	47	104	0	60	1048575
2026-01-17 20:59:31.14	74.67	20.24	-85.2	-88.6	3.0	1.56e+00	0	47	104	0	60	1048575
2026-01-17 20:59:32.15	74.93	20.26	-85.2	-88.6	3.1	1.56e+00	0	47	104	0	60	1048575
2026-01-17 20:59:33.16	75.18	20.27	-85.2	-88.6	2.9	1.56e+00	0	47	104	0	60	1048575
2026-01-17 20:59:34.17	75.43	20.28	-85.2	-88.6	3.2	1.56e+00	0	47	104	0	60	1048575
2026-01-17 20:59:35.17	75.68	20.30	-85.2	-88.6	3.1	1.56e+00	0	47	104	0	60	1048574
2026-01-17 20:59:36.18	75.94	20.31	-85.2	-88.6	2.9	1.56e+00	0	47	104	0	60	1048574
2026-01-17 20:59:37.19	76.19	20.32	-85.2	-88.6	3.2	1.56e+00	0	47	104	0	60	1048575
2026-01-17 20:59:38.19	76.44	20.33	-85.2	-88.6	3.1	1.55e+00	0	47	104	0	60	1048575
2026-01-17 20:59:39.20	76.70	20.34	-85.2	-88.6	3.0	1.56e+00	0	47	104	0	60	1048575
2026-01-17 20:59:40.20	76.95	20.35	-85.2	-88.6	3.1	1.56e+00	0	47	104	0	60	1048574
2026-01-17 20:59:41.21	77.20	20.36	-85.2	-88.6	3.1	1.56e+00	0	47	104	0	60	1048573
2026-01-17 20:59:42.21	77.46	20.37	-85.2	-88.6	3.3	1.55e+00	0	47	104	0	60	1048574
2026-01-17 20:59:43.22	77.71	20.38	-85.2	-88.6	2.8	1.56e+00	0	47	104	0	60	1048575
2026-01-17 20:59:44.23	77.97	20.38	-85.2	-88.6	3.1	1.55e+00	0	47	104	0	60	1048575
2026-01-17 20:59:45.24	78.22	20.39	-85.2	-88.6	2.9	1.56e+00	0	47	104	0	60	1048574
2026-01-17 20:59:46.25	78.48	20.40	-85.2	-88.6	2.9	1.56e+00	0	47	104	0	60	1048573
2026-01-17 20:59:47.25	78.73	20.40	-85.2	-88.6	3.0	1.56e+00	0	47	104	0	60	1048575
2026-01-17 20:59:48.26	78.98	20.41	-85.2	-88.6	2.7	1.56e+00	0	47	104	0	60	1048575
2026-01-17 20:59:49.27	79.24	20.41	-85.2	-88.6	3.1	1.56e+00	0	47	104	0	60	1048567
2026-01-17 20:59:50.28	79.49	20.42	-85.2	-88.6	2.8	1.56e+00	0	47	104	0	60	1048574
2026-01-17 20:59:51.29	79.75	20.42	-85.2	-88.6	3.2	1.55e+00	0	47	104	0	60	1048575
2026-01-17 20:59:52.29	80.00	20.42	-85.2	-88.6	3.2	1.55e+00	0	47	104	0	60	1048575
2026-01-17 20:59:53.30	80.26	20.43	-85.2	-88.6	3.0	1.56e+00	0	47	104	0	60	1048572
2026-01-17 20:59:54.31	80.51	20.43	-85.2	-88.6	3.0	1.56e+00	0	47	104	0	60	1048574
2026-01-17 20:59:55.31	80.77	20.43	-85.2	-88.6	3.0	1.55e+00	0	47	104	0	60	1048575
2026-01-17 20:59:56.32	81.02	20.43	-85.2	-88.6	3.0	1.56e+00	0	47	104	0	60	1048575
2026-01-17 20:59:57.33	81.28	20.43	-85.2	-88.6	3.1	1.56e+00	0	47	104	0	60	1048574
2026-01-17 20:59:58.34	81.53	20.43	-85.2	-88.6	3.0	1.56e+00	0	47	104	0	60	1048573
2026-01-17 20:59:59.35	81.79	20.43	-85.2	-88.6	3.1	1.55e+00	0	47	104	0	60	1048575
2026-01-17 21:00:00.36	82.05	20.43	-85.2	-88.6	3.0	1.55e+00	0	47	104	0	60	1048575
2026-01-17 21:00:01.37	82.30	20.43	-85.2	-88.6	3.0	1.55e+00	0	47	104	0	60	1048572
2026-01-17 21:00:02.37	82.55	20.42	-85.2	-88.6	3.1	1.55e+00	0	47	104	0	60	1048575
2026-01-17 21:00:03.37	82.81	20.42	-85.2	-88.6	3.0	1.56e+00	0	47	104	0	60	1048573
2026-01-17 21:00:04.38	83.06	20.42	-85.2	-88.6	3.0	1.56e+00	0	47	104	0	60	1048575
2026-01-17 21:00:05.38	83.32	20.41	-85.2	-88.6	3.2	1.55e+00	0	47	104	0	60	1048570
2026-01-17 21:00:06.39	83.57	20.41	-85.2	-88.6	3.0	1.56e+00	0	47	104	0	60	1048575
2026-01-17 21:00:07.40	83.83	20.40	-85.2	-88.6	3.1	1.56e+00	0	47	104	0	60	1048575
2026-01-17 21:00:08.40	84.08	20.40	-85.2	-88.6	3.2	1.56e+00	0	47	104	0	60	1048574
2026-01-17 21:00:09.41	84.34	20.39	-85.2	-88.6	3.1	1.56e+00	0	47	104	0	60	1048575
2026-01-17 21:00:10.41	84.59	20.38	-85.2	-88.6	3.1	1.56e+00	0	47	104	0	60	1048571
2026-01-17 21:00:11.42	84.84	20.37	-85.2	-88.6	3.2	1.56e+00	0	47	104	0	60	1048571
2026-01-17 21:00:12.43	85.10	20.37	-85.2	-88.6	2.9	1.56e+00	0	47	104	0	60	1048574
2026-01-17 21:00:13.44	85.35	20.36	-85.2	-88.6	3.0	1.56e+00	0	47	104	0	60	1048572
2026-01-17 21:00:14.44	85.60	20.35	-85.2	-88.6	2.9	1.56e+00	0	47	104	0	60	1048574
2026-01-17 21:00:15.45	85.86	20.34	-85.2	-88.6	3.0	1.55e+00	0	47	104	0	60	1048575
2026-01-17 21:00:16.46	86.11	20.33	-85.2	-88.6	3.0	1.56e+00	0	47	104	0	60	1048574
2026-01-17 21:00:17.47	86.37	20.32	-85.2	-88.6	3.1	1.56e+00	0	47	104	0	60	1048573
2026-01-17 21:00:18.48	86.62	20.30	-85.2	-88.6	3.1	1.55e+00	0	47	104	0	60	1048575
2026-01-17 21:00:19.48	86.87	20.29	-85.2	-88.6	3.0	1.55e+00	0	47	104	0	60	1048574
2026-01-17 21:00:20.48	87.12	20.28	-85.2	-88.6	2.7	1.56e+00	0	47	104	0	60	1048573
2026-01-17 21:00:21.49	87.38	20.27	-85.2	-88.6	3.0	1.55e+00	0	47	104	0	60	1048575
2026-01-17 21:00:22.49	87.63	20.25	-85.2	-88.6	3.2	1.56e+00	0	47	104	0	60	1048575
2026-01-17 21:00:23.50	87.88	20.24	-85.2	-88.6	3.0	1.56e+00	0	47	104	0	60	1048575
2026-01-17 21:00:24.51	88.13	20.22	-85.2	-88.6	3.0	1.55e+00	0	47	104	0	60	1048573
2026-01-17 21:00:25.52	88.39	20.21	-85.2	-88.6	3.1	1.56e+00	0	47	104	0	60	1048575
2026-01-17 21:00:26.52	88.63	20.19	-85.2	-88.6	2.9	1.56e+00	0	47	104	0	60	1048574
2026-01-17 21:00:27.53	88.89	20.18	-85.2	-88.6	3.2	1.55e+00	0	47	104	0	60	1048574
2026-01-17 21:00:28.54	89.14	20.16	-85.2	-88.6	2.9	1.56e+00	0	47	104	0	60	1048573
2026-01-17 21:00:29.54	89.39	20.14	-85.2	-88.6	2.8	1.55e+00	0	47	104	0	60	1048573
2026-01-17 21:00:30.55	89.64	20.12	-85.2	-88.6	3.0	1.56e+00	0	47	104	0	60	1048572
2026-01-17 21:00:31.56	89.89	20.11	-85.2	-88.6	3.0	1.56e+00	0	47	104	0	60	1048574
2026-01-17 21:00:32.57	90.14	20.09	-85.2	-88.6	3.1	1.56e+00	0	47	104	0	60	1048575
2026-01-17 21:00:33.57	90.39	20.07	-85.2	-88.6	2.9	1.55e+00	0	47	104	0	60	1048575
2026-01-17 21:00:34.58	90.64	20.05	-84.7	-88.6	3.0	1.56e+00	0	47	104	0	60	1048574
2026-01-17 21:00:35.59	90.89	20.03	-85.2	-88.6	3.0	1.56e+00	0	47	104	0	60	1048575
2026-01-17 21:00:36.59	91.13	20.01	-85.2	-88.6	3.1	1.56e+00	0	47	104	0	60	1048573
2026-01-17 21:00:37.60	91.38	19.98	-85.2	-88.6	3.1	1.55e+00	0	47	104	0	60	1048575
2026-01-17 21:00:38.61	91.63	19.96	-85.2	-88.6	3.0	1.56e+00	0	47	104	0	60	1048574
2026-01-17 21:00:39.62	91.88	19.94	-84.7	-88.6	3.0	1.55e+00	0	47	104	0	60	1048574
2026-01-17 21:00:40.62	92.13	19.92	-85.2	-88.6	3.1	1.56e+00	0	47	104	0	60	1048575
2026-01-17 21:00:41.62	92.37	19.89	-85.2	-88.6	2.9	1.55e+00	0	47	104	0	60	1048575
2026-01-17 21:00:42.62	92.62	19.87	-85.2	-88.6	3.2	1.56e+00	0	47	104	0	60	1048575
2026-01-17 21:00:43.63	92.86	19.84	-85.2	-88.6	3.1	1.56e+00	0	47	104	0	60	1048572
2026-01-17 21:00:44.63	93.11	19.82	-85.2	-88.6	3.1	1.55e+00	0	47	104	0	60	1048574
2026-01-17 21:00:45.64	93.35	19.79	-85.2	-88.6	3.0	1.55e+00	0	47	104	0	60	1048574
2026-01-17 21:00:46.65	93.60	19.77	-85.2	-88.6	2.9	1.55e+00	0	47	104	0	60	1048572
2026-01-17 21:00:47.66	93.84	19.74	-85.2	-88.6	3.1	1.56e+00	0	47	104	0	60	1048574
2026-01-17 21:00:48.66	94.09	19.71	-85.2	-88.6	3.1	1.56e+00	0	47	104	0	60	1048572
2026-01-17 21:00:49.67	94.33	19.69	-84.7	-88.6	2.9	1.56e+00	0	47	104	0	60	1048575
2026-01-17 21:00:50.68	94.57	19.66	-85.2	-88.6	3.1	1.55e+00	0	47	104	0	60	1048574
2026-01-17 21:00:51.69	94.82	19.63	-85.2	-88.6	3.1	1.55e+00	0	47	104	0	60	1048573
2026-01-17 21:00:52.70	95.06	19.60	-85.2	-88.6	3.0	1.56e+00	0	47	104	0	60	1048573
2026-01-17 21:00:53.70	95.30	19.57	-85.2	-88.6	3.1	1.56e+00	0	47	104	0	60	1048575
2026-01-17 21:00:54.71	95.54	19.54	-84.7	-88.6	3.0	1.55e+00	0	47	104	0	60	1048575
2026-01-17 21:00:55.72	95.78	19.51	-85.2	-88.6	2.9	1.56e+00	0	47	104	0	60	1048575
2026-01-17 21:00:56.72	96.02	19.48	-85.2	-88.6	3.0	1.56e+00	0	47	104	0	60	1048573
2026-01-17 21:00:57.73	96.26	19.45	-85.2	-88.6	3.1	1.55e+00	0	47	104	0	60	1048575
2026-01-17 21:00:58.74	96.50	19.42	-85.2	-88.6	3.2	1.56e+00	0	47	104	0	60	1048572
2026-01-17 21:00:59.74	96.74	19.39	-84.7	-88.6	3.2	1.56e+00	0	47	104	0	60	1048575
2026-01-17 21:01:00.75	96.98	19.35	-85.2	-88.6	3.1	1.56e+00	0	47	104	0	60	1048575
2026-01-17 21:01:01.76	97.22	19.32	-85.2	-88.6	3.1	1.56e+00	0	47	104	0	60	1048573
2026-01-17 21:01:02.76	97.46	19.29	-85.2	-88.6	2.9	1.56e+00	0	47	104	0	60	1048575
2026-01-17 21:01:03.77	97.69	19.25	-84.3	-88.6	3.1	1.56e+00	0	47	104	0	60	1048573
2026-01-17 21:01:04.77	97.93	19.22	-85.2	-88.6	2.8	1.56e+00	0	47	104	0	60	1048575
2026-01-17 21:01:05.78	98.16	19.18	-85.2	-88.6	2.9	1.56e+00	0	47	104	0	60	1048575
2026-01-17 21:01:06.79	98.40	19.15	-85.2	-88.6	2.8	1.56e+00	0	47	104	0	60	1048574
2026-01-17 21:01:07.79	98.63	19.11	-85.2	-88.6	3.0	1.56e+00	0	47	104	0	60	1048575
2026-01-17 21:01:08.80	98.87	19.08	-85.2	-88.6	2.8	1.56e+00	0	47	104	0	60	1048575
2026-01-17 21:01:09.81	99.10	19.04	-84.7	-88.6	2.8	1.56e+00	0	47	104	0	60	1048572
2026-01-17 21:01:10.81	99.34	19.00	-85.2	-88.6	2.9	1.55e+00	0	47	104	0	60	1048575
2026-01-17 21:01:11.82	99.57	18.97	-85.2	-88.6	3.0	1.56e+00	0	47	104	0	60	1048575
2026-01-17 21:01:12.82	99.80	18.93	-85.2	-88.6	3.0	1.56e+00	0	47	104	0	60	1048574
2026-01-17 21:01:13.83	100.03	18.89	-85.2	-88.6	3.0	1.56e+00	0	47	104	0	60	1048573
2026-01-17 21:01:14.83	100.26	18.85	-84.7	-88.6	3.1	1.56e+00	0	47	104	0	60	1048575
2026-01-17 21:01:15.84	100.49	18.81	-85.2	-88.6	3.1	1.56e+00	0	47	104	0	60	1048575
2026-01-17 21:01:16.85	100.72	18.77	-85.2	-88.6	3.0	1.56e+00	0	47	104	0	60	1048575
2026-01-17 21:01:17.85	100.95	18.74	-85.2	-88.6	3.2	1.56e+00	0	47	104	0	60	1048574
2026-01-17 21:01:18.85	101.18	18.70	-85.2	-88.6	2.9	1.56e+00	0	47	104	0	60	1048572
2026-01-17 21:01:19.86	101.41	18.66	-85.2	-88.6	3.1	1.56e+00	0	47	104	0	60	1048574
2026-01-17 21:01:20.87	101.64	18.61	-85.2	-88.6	2.9	1.55e+00	0	47	104	0	60	1048572
2026-01-17 21:01:21.88	101.86	18.57	-85.2	-88.6	3.1	1.56e+00	0	47	104	0	60	1048575
2026-01-17 21:01:22.89	102.09	18.53	-85.2	-88.6	3.1	1.56e+00	0	47	104	0	60	1048575
2026-01-17 21:01:23.89	102.32	18.49	-85.2	-88.6	2.7	1.56e+00	0	47	104	0	60	1048574
2026-01-17 21:01:24.90	102.54	18.45	-85.2	-88.6	3.1	1.55e+00	0	47	104	0	60	1048575
2026-01-17 21:01:25.91	102.77	18.40	-85.2	-88.6	3.0	1.55e+00	0	47	104	0	60	1048575
2026-01-17 21:01:26.92	102.99	18.36	-85.2	-88.6	3.1	1.56e+00	0	47	104	0	60	1048575
2026-01-17 21:01:27.93	103.22	18.32	-85.2	-88.6	3.0	1.56e+00	0	47	104	0	60	1048575
2026-01-17 21:01:28.93	103.44	18.28	-82.2	-88.6	3.0	1.55e+00	0	47	104	0	60	1048574
2026-01-17 21:01:29.94	103.66	18.23	-85.2	-88.6	3.2	1.56e+00	0	47	104	0	60	1048574
2026-01-17 21:01:30.94	103.88	18.19	-85.2	-88.6	3.2	1.56e+00	0	47	104	0	60	1048574
2026-01-17 21:01:31.95	104.10	18.14	-85.2	-88.6	3.0	1.56e+00	0	47	104	0	60	1048574
2026-01-17 21:01:32.95	104.32	18.10	-85.2	-88.6	2.9	1.56e+00	0	47	104	0	60	1048574
2026-01-17 21:01:33.96	104.54	18.05	-85.2	-88.6	3.0	1.56e+00	0	47	104	0	60	1048573
2026-01-17 21:01:34.96	104.76	18.01	-85.2	-88.6	2.9	1.56e+00	0	47	104	0	60	1048575
2026-01-17 21:01:35.97	104.98	17.96	-85.2	-88.6	3.1	1.55e+00	0	47	104	0	60	1048574
2026-01-17 21:01:36.98	105.20	17.91	-84.7	-88.6	2.9	1.56e+00	0	47	104	0	60	1048575
2026-01-17 21:01:37.98	105.41	17.87	-85.2	-88.6	3.0	1.56e+00	0	47	104	0	60	1048575
2026-01-17 21:01:38.99	105.63	17.82	-85.2	-88.6	2.9	1.56e+00	0	47	104	0	60	1048575
2026-01-17 21:01:39.99	105.84	17.77	-85.2	-88.6	3.0	1.55e+00	0	47	104	0	60	1048575
2026-01-17 21:01:41.00	106.06	17.73	-85.2	-88.6	3.0	1.55e+00	0	47	104	0	60	1048575
2026-01-17 21:01:42.01	106.27	17.68	-85.2	-88.6	3.1	1.56e+00	0	47	104	0	60	1048575
2026-01-17 21:01:43.01	106.49	17.63	-85.2	-88.6	3.0	1.56e+00	0	47	104	0	60	1048575
2026-01-17 21:01:44.02	106.70	17.58	-85.2	-88.6	2.9	1.56e+00	0	47	104	0	60	1048575
2026-01-17 21:01:45.03	106.91	17.53	-85.2	-88.6	3.0	1.56e+00	0	47	104	0	60	1048575
2026-01-17 21:01:46.03	107.12	17.49	-85.2	-88.6	3.0	1.56e+00	0	47	104	0	60	1048572
2026-01-17 21:01:47.03	107.33	17.44	-85.2	-88.6	3.0	1.56e+00	0	47	104	0	60	1048575
2026-01-17 21:01:48.03	107.54	17.39	-85.2	-88.6	3.1	1.56e+00	0	47	104	0	60	1048575
2026-01-17 21:01:49.04	107.75	17.34	-85.2	-88.6	2.9	1.56e+00	0	47	104	0	60	1048575
2026-01-17 21:01:50.04	107.96	17.29	-85.2	-88.6	3.0	1.56e+00	0	47	104	0	60	1048575
2026-01-17 21:01:51.04	108.17	17.24	-85.2	-88.6	3.1	1.56e+00	0	47	104	0	60	1048575
2026-01-17 21:01:52.05	108.38	17.19	-85.2	-88.6	2.9	1.56e+00	0	47	104	0	60	1048573
2026-01-17 21:01:53.06	108.58	17.14	-85.2	-88.6	3.0	1.55e+00	0	47	104	0	60	1048574
2026-01-17 21:01:54.06	108.79	17.09	-85.2	-88.6	2.9	1.56e+00	0	47	104	0	60	1048575
2026-01-17 21:01:55.07	109.00	17.04	-85.2	-88.6	3.1	1.56e+00	0	47	104	0	60	1048572
2026-01-17 21:01:56.07	109.20	16.98	-85.2	-88.6	3.1	1.56e+00	0	47	104	0	60	1048575
2026-01-17 21:01:57.08	109.41	16.93	-85.2	-88.6	3.1	1.55e+00	0	47	104	0	60	1048572
2026-01-17 21:01:58.09	109.61	16.88	-85.2	-88.6	2.8	1.56e+00	0	47	104	0	60	1048574
2026-01-17 21:01:59.09	109.81	16.83	-85.2	-88.6	2.9	1.56e+00	0	47	104	0	60	1048573
2026-01-17 21:02:00.10	110.01	16.78	-85.2	-88.6	3.1	1.56e+00	0	47	104	0	60	1048574
2026-01-17 21:02:01.10	110.21	16.72	-85.2	-88.6	3.1	1.56e+00	0	47	104	0	60	1048575
2026-01-17 21:02:02.11	110.42	16.67	-85.2	-88.6	2.9	1.55e+00	0	47	104	0	60	1048575
2026-01-17 21:02:03.11	110.62	16.62	-85.2	-88.6	3.1	1.55e+00	0	47	104	0	60	1048575
2026-01-17 21:02:04.12	110.82	16.56	-85.2	-88.6	3.1	1.56e+00	0	47	104	0	60	1048571
2026-01-17 21:02:05.12	111.01	16.51	-85.2	-88.6	3.0	1.55e+00	0	47	104	0	60	1048575
2026-01-17 21:02:06.12	111.21	16.46	-85.2	-88.6	2.8	1.56e+00	0	47	104	0	60	1048575
2026-01-17 21:02:07.13	111.41	16.40	-85.2	-88.6	3.2	1.56e+00	0	47	104	0	60	1048572
2026-01-17 21:02:08.13	111.60	16.35	-85.2	-88.6	3.0	1.56e+00	0	47	104	0	60	1048575
2026-01-17 21:02:09.14	111.80	16.30	-85.2	-88.6	2.9	1.55e+00	0	47	104	0	60	1048574
2026-01-17 21:02:10.15	112.00	16.24	-85.2	-88.6	3.2	1.56e+00	0	47	104	0	60	1048575
2026-01-17 21:02:11.15	112.19	16.19	-85.2	-88.6	2.8	1.56e+00	0	47	104	0	60	1048575
2026-01-17 21:02:12.16	112.39	16.13	-85.2	-88.6	2.9	1.56e+00	0	47	104	0	60	1048574
2026-01-17 21:02:13.17	112.58	16.08	-85.2	-88.6	3.0	1.55e+00	0	47	104	0	60	1048575
2026-01-17 21:02:14.17	112.77	16.02	-85.2	-88.6	3.2	1.55e+00	0	47	104	0	60	1048574
2026-01-17 21:02:15.18	112.96	15.97	-85.2	-88.6	3.1	1.56e+00	0	47	104	0	60	1048575
2026-01-17 21:02:16.19	113.16	15.91	-85.2	-88.6	3.0	1.56e+00	0	47	104	0	60	1048575
2026-01-17 21:02:17.19	113.35	15.86	-85.2	-88.6	2.9	1.56e+00	0	47	104	0	60	1048575
2026-01-17 21:02:18.19	113.53	15.80	-85.2	-88.6	3.0	1.56e+00	0	47	104	0	60	1048575
2026-01-17 21:02:19.19	113.72	15.74	-85.2	-88.6	3.0	1.55e+00	0	47	104	0	60	1048575
2026-01-17 21:02:20.20	113.91	15.69	-85.2	-88.6	3.2	1.56e+00	0	47	104	0	60	1048573
2026-01-17 21:02:21.20	114.10	15.63	-85.2	-88.6	3.0	1.55e+00	0	47	104	0	60	1048574
2026-01-17 21:02:22.20	114.28	15.58	-85.2	-88.6	3.0	1.56e+00	0	47	104	0	60	1048574
2026-01-17 21:02:23.21	114.47	15.52	-85.2	-88.6	3.0	1.56e+00	0	47	104	0	60	1048574
2026-01-17 21:02:24.21	114.66	15.46	-85.2	-88.6	3.1	1.56e+00	0	47	104	0	60	1048575
2026-01-17 21:02:25.22	114.84	15.41	-85.2	-88.6	2.9	1.56e+00	0	47	104	0	60	1048575
2026-01-17 21:02:26.22	115.03	15.35	-85.2	-88.6	3.0	1.56e+00	0	47	104	0	60	1048575
2026-01-17 21:02:27.22	115.21	15.29	-85.2	-88.6	3.0	1.56e+00	0	47	104	0	60	1048575
2026-01-17 21:02:28.23	115.39	15.23	-85.2	-88.6	3.3	1.55e+00	0	47	104	0	60	1048575
2026-01-17 21:02:29.24	115.58	15.18	-85.2	-88.6	3.2	1.55e+00	0	47	104	0	60	1048575
2026-01-17 21:02:30.24	115.76	15.12	-85.2	-88.6	3.1	1.56e+00	0	47	104	0	60	1048574
2026-01-17 21:02:31.25	115.94	15.06	-85.2	-88.6	2.7	1.56e+00	0	47	104	0	60	1048569
2026-01-17 21:02:32.26	116.12	15.00	-85.2	-88.6	3.0	1.56e+00	0	47	104	0	60	1048573
2026-01-17 21:02:33.26	116.30	14.95	-85.2	-88.6	2.9	1.56e+00	0	47	104	0	60	1048575
2026-01-17 21:02:34.27	116.48	14.89	-85.2	-88.6	2.9	1.56e+00	0	47	104	0	60	1048575
2026-01-17 21:02:35.28	116.66	14.83	-85.2	-88.6	3.0	1.56e+00	0	47	104	0	60	1048575
2026-01-17 21:02:36.29	116.84	14.77	-85.2	-88.6	3.3	1.56e+00	0	47	104	0	60	1048575
2026-01-17 21:02:37.29	117.01	14.71	-85.2	-88.6	2.9	1.56e+00	0	47	104	0	60	1048574
2026-01-17 21:02:38.30	117.19	14.65	-85.2	-88.6	2.9	1.56e+00	0	47	104	0	60	1048574
2026-01-17 21:02:39.31	117.36	14.59	-85.2	-88.6	2.9	1.56e+00	0	47	104	0	60	1048573
2026-01-17 21:02:40.32	117.54	14.53	-85.2	-88.6	3.1	1.55e+00	0	47	104	0	60	1048575
2026-01-17 21:02:41.33	117.72	14.48	-85.2	-88.6	3.0	1.55e+00	0	47	104	0	60	1048575
2026-01-17 21:02:42.33	117.89	14.42	-85.2	-88.6	3.0	1.56e+00	0	47	104	0	60	1048575
2026-01-17 21:02:43.34	118.06	14.36	-85.2	-88.6	3.0	1.56e+00	0	47	104	0	60	1048575
2026-01-17 21:02:44.35	118.23	14.30	-85.2	-88.6	3.1	1.56e+00	0	47	104	0	60	1048574
2026-01-17 21:02:45.36	118.41	14.24	-85.2	-88.6	3.0	1.56e+00	0	47	104	0	60	1048574
2026-01-17 21:02:46.37	118.58	14.18	-85.2	-88.6	2.9	1.56e+00	0	47	104	0	60	1048575
2026-01-17 21:02:47.37	118.75	14.12	-85.2	-88.6	3.2	1.56e+00	0	47	104	0	60	1048574
2026-01-17 21:02:48.38	118.92	14.06	-85.2	-88.6	2.9	1.56e+00	0	47	104	0	60	1048574
2026-01-17 21:02:49.39	119.09	14.00	-85.2	-88.6	3.0	1.55e+00	0	47	104	0	60	1048574
2026-01-17 21:02:50.40	119.26	13.94	-85.2	-88.6	3.1	1.56e+00	0	47	104	0	60	1048575
2026-01-17 21:02:51.40	119.42	13.88	-85.2	-88.6	3.1	1.55e+00	0	47	104	0	60	1048575
2026-01-17 21:02:52.41	119.59	13.82	-85.2	-88.6	2.9	1.55e+00	0	47	104	0	60	1048575
2026-01-17 21:02:53.41	119.76	13.76	-85.2	-88.6	2.8	1.55e+00	0	47	104	0	60	1048575
2026-01-17 21:02:54.42	119.92	13.70	-85.2	-88.6	3.0	1.56e+00	0	47	104	0	60	1048574
2026-01-17 21:02:55.42	120.09	13.64	-85.2	-88.6	2.8	1.56e+00	0	47	104	0	60	1048575
2026-01-17 21:02:56.43	120.25	13.58	-85.2	-88.6	3.0	1.56e+00	0	47	104	0	60	1048569
2026-01-17 21:02:57.43	120.41	13.52	-85.2	-88.6	3.0	1.56e+00	0	47	104	0	60	1048575
2026-01-17 21:02:58.44	120.58	13.46	-85.2	-88.6	2.9	1.56e+00	0	47	104	0	60	1048575
2026-01-17 21:02:59.44	120.74	13.40	-85.2	-88.6	2.9	1.56e+00	0	47	104	0	60	1048575
2026-01-17 21:03:00.44	120.90	13.34	-85.2	-88.6	3.0	1.55e+00	0	47	104	0	60	1048574
2026-01-17 21:03:01.45	121.06	13.28	-85.2	-88.6	2.9	1.56e+00	0	47	104	0	60	1048574
2026-01-17 21:03:02.46	121.22	13.22	-85.2	-88.6	3.1	1.55e+00	0	47	104	0	60	1048575
2026-01-17 21:03:03.46	121.38	13.16	-85.2	-88.6	3.2	1.56e+00	0	47	104	0	60	1048575
2026-01-17 21:03:04.47	121.54	13.10	-85.2	-88.6	3.0	1.56e+00	0	47	104	0	60	1048574
2026-01-17 21:03:05.48	121.70	13.04	-85.2	-88.6	2.9	1.56e+00	0	47	104	0	60	1048575
2026-01-17 21:03:06.48	121.86	12.98	-85.2	-88.6	2.9	1.56e+00	0	47	104	0	60	1048575
2026-01-17 21:03:07.49	122.02	12.92	-85.2	-88.6	3.0	1.56e+00	0	47	104	0	60	1048567
2026-01-17 21:03:08.48	122.17	12.86	-85.2	-88.6	2.9	1.56e+00	0	47	104	0	60	1048574
2026-01-17 21:03:09.49	122.33	12.79	-85.2	-88.6	3.1	1.56e+00	0	47	104	0	60	1048575
2026-01-17 21:03:10.49	122.48	12.73	-85.2	-88.6	2.9	1.56e+00	0	47	104	0	60	1048574
2026-01-17 21:03:11.49	122.64	12.67	-85.2	-88.6	3.1	1.55e+00	0	47	104	0	60	1048573
2026-01-17 21:03:12.50	122.79	12.61	-85.2	-88.6	3.1	1.56e+00	0	47	104	0	60	1048575
2026-01-17 21:03:13.51	122.95	12.55	-85.2	-88.6	3.2	1.56e+00	0	47	104	0	60	1048575
2026-01-17 21:03:14.51	123.10	12.49	-85.2	-88.6	3.2	1.56e+00	0	47	104	0	60	1048572
2026-01-17 21:03:15.52	123.25	12.43	-85.2	-88.6	2.9	1.56e+00	0	47	104	0	60	1048575
2026-01-17 21:03:16.53	123.40	12.37	-85.2	-88.6	3.1	1.56e+00	0	47	104	0	60	1048575
2026-01-17 21:03:17.54	123.56	12.31	-85.2	-88.6	2.9	1.56e+00	0	47	104	0	60	1048575
2026-01-17 21:03:18.54	123.71	12.25	-85.2	-88.6	3.0	1.55e+00	0	47	104	0	60	1048568
2026-01-17 21:03:19.55	123.86	12.18	-85.2	-88.6	3.1	1.55e+00	0	47	104	0	60	1048574
2026-01-17 21:03:20.55	124.01	12.12	-85.2	-88.6	3.0	1.56e+00	0	47	104	0	60	1048572
2026-01-17 21:03:21.56	124.15	12.06	-85.2	-88.6	3.1	1.55e+00	0	47	104	0	60	1048575
2026-01-17 21:03:22.57	124.30	12.00	-85.2	-88.6	2.9	1.56e+00	0	47	104	0	60	1048572
2026-01-17 21:03:23.57	124.45	11.94	-85.2	-88.6	3.1	1.56e+00	0	47	104	0	60	1048575
2026-01-17 21:03:24.57	124.60	11.88	-85.2	-88.6	2.8	1.56e+00	0	47	104	0	60	1048571
2026-01-17 21:03:25.58	124.74	11.82	-85.2	-88.6	3.2	1.56e+00	0	47	104	0	60	1048574
2026-01-17 21:03:26.58	124.89	11.76	-85.2	-88.6	3.0	1.55e+00	0	47	104	0	60	1048574
2026-01-17 21:03:27.59	125.03	11.69	-85.2	-88.6	3.0	1.56e+00	0	47	104	0	60	1048573
2026-01-17 21:03:28.60	125.18	11.63	-85.2	-88.6	2.9	1.55e+00	0	47	104	0	60	1048575
2026-01-17 21:03:29.60	125.32	11.57	-85.2	-88.6	3.0	1.55e+00	0	47	104	0	60	1048575
2026-01-17 21:03:30.61	125.47	11.51	-85.2	-88.6	3.1	1.56e+00	0	47	104	0	60	1048575
2026-01-17 21:03:31.62	125.61	11.45	-85.2	-88.6	3.1	1.56e+00	0	47	104	0	60	1048571
2026-01-17 21:03:32.63	125.75	11.39	-85.2	-88.6	3.1	1.56e+00	0	47	104	0	60	1048573
2026-01-17 21:03:33.63	125.89	11.33	-85.2	-88.6	3.2	1.55e+00	0	47	104	0	60	1048574
2026-01-17 21:03:34.64	126.04	11.27	-85.2	-88.6	3.1	1.55e+00	0	47	104	0	60	1048574
2026-01-17 21:03:35.65	126.18	11.20	-85.2	-88.6	3.1	1.56e+00	0	47	104	0	60	1048574
2026-01-17 21:03:36.66	126.32	11.14	-85.2	-88.6	3.1	1.55e+00	0	47	104	0	60	1048575
2026-01-17 21:03:37.67	126.46	11.08	-85.2	-88.6	3.3	1.55e+00	0	47	104	0	60	1048575
2026-01-17 21:03:38.68	126.60	11.02	-85.2	-88.6	3.0	1.56e+00	0	47	104	0	60	1048575
2026-01-17 21:03:39.68	126.74	10.96	-85.2	-88.6	3.3	1.56e+00	0	47	104	0	60	1048574
2026-01-17 21:03:40.69	126.87	10.90	-85.2	-88.6	3.1	1.55e+00	0	47	104	0	60	1048575
2026-01-17 21:03:41.69	127.01	10.84	-85.2	-88.6	3.0	1.56e+00	0	47	104	0	60	1048575
2026-01-17 21:03:42.69	127.15	10.77	-85.2	-88.6	3.2	1.56e+00	0	47	104	0	60	1048575
2026-01-17 21:03:43.69	127.28	10.71	-85.2	-88.6	2.9	1.55e+00	0	47	104	0	60	1048575
2026-01-17 21:03:44.69	127.42	10.65	-85.2	-88.6	2.9	1.56e+00	0	47	104	0	60	1048575
2026-01-17 21:03:45.69	127.55	10.59	-85.2	-88.6	3.1	1.56e+00	0	47	104	0	60	1048574
2026-01-17 21:03:46.70	127.69	10.53	-85.2	-88.6	3.0	1.56e+00	0	47	104	0	60	1048575
2026-01-17 21:03:47.70	127.82	10.47	-85.2	-88.6	3.1	1.56e+00	0	47	104	0	60	1048574
2026-01-17 21:03:48.70	127.95	10.41	-85.2	-88.6	3.0	1.56e+00	0	47	104	0	60	1048573
2026-01-17 21:03:49.71	128.09	10.35	-85.2	-88.6	2.9	1.55e+00	0	47	104	0	60	1048575
2026-01-17 21:03:50.72	128.22	10.29	-85.2	-88.6	3.2	1.55e+00	0	47	104	0	60	1048575
2026-01-17 21:03:51.73	128.35	10.22	-85.2	-88.6	3.0	1.56e+00	0	47	104	0	60	1048571
2026-01-17 21:03:52.73	128.48	10.16	-85.2	-88.6	3.2	1.56e+00	0	47	104	0	60	1048574
2026-01-17 21:03:53.74	128.61	10.10	-85.2	-88.6	2.9	1.55e+00	0	47	104	0	60	1048574
2026-01-17 21:03:54.75	128.74	10.04	-85.2	-88.6	2.9	1.56e+00	0	47	104	0	60	1048575
2026-01-17 21:03:55.75	128.87	9.98	-85.2	-88.6	3.2	1.56e+00	0	47	104	0	60	1048575
2026-01-17 21:03:56.76	129.00	9.92	-85.2	-88.6	2.8	1.55e+00	0	47	104	0	60	1048573
2026-01-17 21:03:57.77	129.13	9.86	-85.2	-88.6	3.0	1.55e+00	0	47	104	0	60	1048575
2026-01-17 21:03:58.77	129.26	9.80	-85.2	-88.6	3.1	1.56e+00	0	47	104	0	60	1048575
2026-01-17 21:03:59.78	129.39	9.74	-85.2	-88.6	3.0	1.56e+00	0	47	104	0	60	1048572
2026-01-17 21:04:00.79	129.52	9.68	-85.2	-88.6	3.1	1.56e+00	0	47	104	0	60	1048575
2026-01-17 21:04:01.79	129.64	9.61	-85.2	-88.6	3.1	1.55e+00	0	47	104	0	60	1048574
2026-01-17 21:04:02.79	129.77	9.55	-85.2	-88.6	3.3	1.56e+00	0	47	104	0	60	1048574
2026-01-17 21:04:03.80	129.89	9.49	-85.2	-88.6	3.1	1.56e+00	0	47	104	0	60	1048573
2026-01-17 21:04:04.81	130.02	9.43	-85.2	-88.6	2.9	1.56e+00	0	47	104	0	60	1048574
2026-01-17 21:04:05.81	130.14	9.37	-85.2	-88.6	2.9	1.56e+00	0	47	104	0	60	1048575
2026-01-17 21:04:06.82	130.27	9.31	-85.2	-88.6	3.0	1.55e+00	0	47	104	0	60	1048572
2026-01-17 21:04:07.82	130.39	9.25	-85.2	-88.6	2.8	1.56e+00	0	47	104	0	60	1048575
2026-01-17 21:04:08.83	130.52	9.19	-85.2	-88.6	3.1	1.56e+00	0	47	104	0	60	1048574
2026-01-17 21:04:09.84	130.64	9.13	-85.2	-88.6	3.0	1.56e+00	0	47	104	0	60	1048574
2026-01-17 21:04:10.85	130.76	9.07	-85.2	-88.6	3.0	1.55e+00	0	47	104	0	60	1048573
2026-01-17 21:04:11.85	130.88	9.01	-85.2	-88.6	2.9	1.56e+00	0	47	104	0	60	1048573
2026-01-17 21:04:12.86	131.00	8.95	-85.2	-88.6	2.8	1.56e+00	0	47	104	0	60	1048574
2026-01-17 21:04:13.87	131.13	8.89	-85.2	-88.6	3.0	1.56e+00	0	47	104	0	60	1048575
2026-01-17 21:04:14.87	131.25	8.83	-85.2	-88.6	3.0	1.55e+00	0	47	104	0	60	1048574
2026-01-17 21:04:15.88	131.37	8.77	-85.2	-88.6	2.9	1.55e+00	0	47	104	0	60	1048574
2026-01-17 21:04:16.89	131.49	8.70	-85.2	-88.6	3.2	1.56e+00	0	47	104	0	60	1048575
2026-01-17 21:04:17.90	131.60	8.64	-85.2	-88.6	3.2	1.56e+00	0	47	104	0	60	1048574
2026-01-17 21:04:18.91	131.72	8.58	-85.2	-88.6	2.8	1.56e+00	0	47	104	0	60	1048575
2026-01-17 21:04:19.90	131.84	8.52	-85.2	-88.6	3.1	1.56e+00	0	47	104	0	60	1048572
2026-01-17 21:04:20.91	131.96	8.46	-85.2	-88.6	3.1	1.55e+00	0	47	104	0	60	1048575
2026-01-17 21:04:21.92	132.07	8.40	-85.2	-88.6	3.3	1.56e+00	0	47	104	0	60	1048574
2026-01-17 21:04:22.93	132.19	8.34	-85.2	-88.6	3.1	1.56e+00	0	47	104	0	60	1048574
2026-01-17 21:04:23.94	132.31	8.28	-85.2	-88.6	3.1	1.56e+00	0	47	104	0	60	1048573
2026-01-17 21:04:24.95	132.42	8.22	-85.2	-88.6	2.9	1.56e+00	0	47	104	0	60	1048575
2026-01-17 21:04:25.95	132.54	8.16	-85.2	-88.6	3.1	1.56e+00	0	47	104	0	60	1048573
2026-01-17 21:04:26.96	132.65	8.10	-85.2	-88.6	3.1	1.55e+00	0	47	104	0	60	1048575
2026-01-17 21:04:27.97	132.77	8.04	-85.2	-88.6	3.0	1.56e+00	0	47	104	0	60	1048575
2026-01-17 21:04:28.97	132.88	7.98	-85.2	-88.6	2.9	1.56e+00	0	47	104	0	60	1048573
2026-01-17 21:04:29.98	133.00	7.92	-85.2	-88.6	3.2	1.55e+00	0	47	104	0	60	1048572
2026-01-17 21:04:30.99	133.11	7.86	-85.2	-88.6	3.3	1.55e+00	0	47	104	0	60	1048574
2026-01-17 21:04:32.00	133.22	7.80	-85.2	-88.6	3.0	1.55e+00	0	47	104	0	60	1048575
2026-01-17 21:04:33.00	133.33	7.74	-85.2	-88.6	3.1	1.56e+00	0	47	104	0	60	1048575
2026-01-17 21:04:34.01	133.45	7.68	-85.2	-88.6	2.8	1.56e+00	0	47	104	0	60	1048572
2026-01-17 21:04:35.01	133.56	7.62	-85.2	-88.6	2.9	1.55e+00	0	47	104	0	60	1048575
2026-01-17 21:04:36.01	133.67	7.57	-85.2	-88.6	2.9	1.56e+00	0	47	104	0	60	1048573
2026-01-17 21:04:37.02	133.78	7.51	-85.2	-88.6	2.9	1.56e+00	0	47	104	0	60	1048575
2026-01-17 21:04:38.03	133.89	7.45	-85.2	-88.6	3.1	1.56e+00	0	47	104	0	60	1048575
2026-01-17 21:04:39.04	134.00	7.39	-85.2	-88.6	3.1	1.56e+00	0	47	104	0	60	1048575
2026-01-17 21:04:40.04	134.11	7.33	-85.2	-88.6	3.0	1.55e+00	0	47	104	0	60	1048574
2026-01-17 21:04:41.05	134.21	7.27	-85.2	-88.6	3.2	1.56e+00	0	47	104	0	60	1048575
2026-01-17 21:04:42.06	134.32	7.21	-85.2	-88.6	3.0	1.55e+00	0	47	104	0	60	1048572
2026-01-17 21:04:43.07	134.43	7.15	-85.2	-88.6	2.9	1.56e+00	0	47	104	0	60	1048575
2026-01-17 21:04:44.07	134.54	7.09	-85.2	-88.6	3.0	1.56e+00	0	47	104	0	60	1048574
2026-01-17 21:04:45.08	134.65	7.03	-85.2	-88.6	2.8	1.56e+00	0	47	104	0	60	1048573
2026-01-17 21:04:46.08	134.75	6.97	-85.2	-88.6	2.9	1.56e+00	0	47	104	0	60	1048573
2026-01-17 21:04:47.09	134.86	6.91	-85.2	-88.6	3.1	1.56e+00	0	47	104	0	60	1048575
2026-01-17 21:04:48.09	134.96	6.85	-85.2	-88.6	3.1	1.55e+00	0	47	104	0	60	1048572
2026-01-17 21:04:49.10	135.07	6.80	-85.2	-88.6	3.1	1.55e+00	0	47	104	0	60	1048575
2026-01-17 21:04:50.11	135.17	6.74	-85.2	-88.6	3.0	1.56e+00	0	47	104	0	60	1048575
2026-01-17 21:04:51.12	135.28	6.68	-85.2	-88.6	2.9	1.56e+00	0	47	104	0	60	1048575
2026-01-17 21:04:52.13	135.38	6.62	-85.2	-88.6	3.1	1.56e+00	0	47	104	0	60	1048574
2026-01-17 21:04:53.13	135.49	6.56	-85.2	-88.6	3.0	1.56e+00	0	47	104	0	60	1048573
2026-01-17 21:04:54.14	135.59	6.50	-85.2	-88.6	3.0	1.56e+00	0	47	104	0	60	1048575
2026-01-17 21:04:55.14	135.69	6.44	-85.2	-88.6	3.1	1.56e+00	0	47	104	0	60	1048575
2026-01-17 21:04:56.15	135.80	6.38	-85.2	-88.6	3.0	1.56e+00	0	47	104	0	60	1048575
2026-01-17 21:04:57.16	135.90	6.33	-85.2	-88.6	3.0	1.56e+00	0	47	104	0	60	1048573
2026-01-17 21:04:58.16	136.00	6.27	-85.2	-88.6	2.8	1.56e+00	0	47	104	0	60	1048572
2026-01-17 21:04:59.17	136.10	6.21	-85.2	-88.6	3.2	1.55e+00	0	47	104	0	60	1048574
2026-01-17 21:05:00.17	136.20	6.15	-85.2	-88.6	3.0	1.56e+00	0	47	104	0	60	1048575
2026-01-17 21:05:01.18	136.30	6.09	-85.2	-88.6	2.9	1.56e+00	0	47	104	0	60	1048572
2026-01-17 21:05:02.19	136.40	6.04	-85.2	-88.6	3.1	1.56e+00	0	47	104	0	60	1048575
2026-01-17 21:05:03.20	136.50	5.98	-85.2	-88.6	3.1	1.56e+00	0	47	104	0	60	1048575
2026-01-17 21:05:04.20	136.60	5.92	-85.2	-88.6	3.2	1.56e+00	0	47	104	0	60	1048572
2026-01-17 21:05:05.21	136.70	5.86	-85.2	-88.6	3.1	1.56e+00	0	47	104	0	60	1048574
2026-01-17 21:05:06.22	136.80	5.80	-85.2	-88.6	3.0	1.56e+00	0	47	104	0	60	1048575
2026-01-17 21:05:07.22	136.90	5.75	-85.2	-88.6	2.8	1.56e+00	0	47	104	0	60	1048575
2026-01-17 21:05:08.23	137.00	5.69	-85.2	-88.6	2.8	1.56e+00	0	47	104	0	60	1048575
2026-01-17 21:05:09.23	137.09	5.63	-85.2	-88.6	3.0	1.55e+00	0	47	104	0	60	1048574
2026-01-17 21:05:10.24	137.19	5.57	-85.2	-88.6	2.9	1.56e+00	0	47	104	0	60	1048567
