passes_logs/2026/01/17/R3.2S-Naryan-Mar/R3.2S-Naryan-Mar__20260117_162019_TY-40_rec.log

#Pass ID: 20260117_162019_TY-40
#Satellite: TY-40
#Configuration: TY-39
#almurnet v.1.7.20240730
#Start time: 2026-01-17 16:26:03

#Version: 2.2.20231116
#Station: R3.2S-Naryan-Mar
#Location: 53.008057 lon 67.646978 lat
#TLE: 1 56846U 23081A   26016.94830663  .00002646  00000-0  11971-3 0  9997
#TLE: 2 56846  97.3895  89.8290 0001781  76.6008 283.5426 15.21771932145000

#Time	Az	El	Level	Level2	SNR	BER	BlckErr	Temp	State	Recorded	gain1	gain2
2026-01-17 16:26:03.74	48.09	36.86	-83.1	-79.0	2.4	0.00e+00	0	48	0	0	60	1048575
2026-01-17 16:26:04.75	47.40	36.81	-83.5	-79.0	2.5	0.00e+00	0	49	104	0	60	1048574
2026-01-17 16:26:05.75	46.73	36.76	-83.5	-79.0	2.5	0.00e+00	0	49	104	0	60	1048575
2026-01-17 16:26:06.76	46.04	36.71	-82.8	-79.0	2.3	0.00e+00	0	49	104	0	60	1048575
2026-01-17 16:26:07.77	45.36	36.66	-83.5	-79.0	2.4	0.00e+00	0	49	104	0	60	1048569
2026-01-17 16:26:08.77	44.69	36.60	-83.5	-79.0	2.4	0.00e+00	0	49	104	0	60	1048574
2026-01-17 16:26:09.78	44.02	36.53	-83.5	-79.0	2.4	0.00e+00	0	49	104	0	60	1048566
2026-01-17 16:26:10.79	43.35	36.46	-83.1	-79.0	2.4	0.00e+00	0	49	104	0	60	1048571
2026-01-17 16:26:11.79	42.69	36.39	-83.5	-79.0	2.4	0.00e+00	0	49	104	0	60	1048570
2026-01-17 16:26:12.80	42.02	36.31	-83.5	-79.0	2.5	0.00e+00	0	49	104	0	60	1048572
2026-01-17 16:26:13.81	41.36	36.23	-83.5	-79.0	2.4	0.00e+00	0	49	104	0	60	1048574
2026-01-17 16:26:14.82	40.70	36.15	-83.5	-79.0	2.4	0.00e+00	0	49	104	0	60	1048569
2026-01-17 16:26:15.82	40.05	36.06	-82.8	-79.0	2.5	0.00e+00	0	49	104	0	60	1048575
2026-01-17 16:26:16.82	39.41	35.97	-83.1	-79.0	2.5	0.00e+00	0	49	104	0	60	1048575
2026-01-17 16:26:17.83	38.76	35.87	-83.5	-79.0	2.4	0.00e+00	0	49	104	0	60	1048573
2026-01-17 16:26:18.83	38.13	35.77	-83.5	-79.0	2.3	0.00e+00	0	49	104	0	60	1048575
2026-01-17 16:26:19.84	37.49	35.67	-83.1	-79.0	2.5	0.00e+00	0	49	104	0	60	1048574
2026-01-17 16:26:20.85	36.85	35.56	-83.1	-79.0	2.4	0.00e+00	0	49	104	0	60	1048573
2026-01-17 16:26:21.86	36.22	35.45	-83.5	-79.0	2.4	0.00e+00	0	49	104	0	60	1048575
2026-01-17 16:26:22.86	35.61	35.34	-83.5	-79.0	2.4	0.00e+00	0	49	104	0	60	1048574
2026-01-17 16:26:23.87	34.99	35.23	-83.5	-79.0	2.4	0.00e+00	0	49	104	0	60	1048575
2026-01-17 16:26:24.88	34.37	35.11	-83.5	-79.0	2.4	0.00e+00	0	49	104	0	60	1048575
2026-01-17 16:26:25.89	33.76	34.98	-83.1	-79.0	2.3	0.00e+00	0	49	104	0	60	1048572
2026-01-17 16:26:26.89	33.16	34.86	-83.1	-79.0	2.4	0.00e+00	0	49	104	0	60	1048574
2026-01-17 16:26:27.89	32.57	34.73	-83.5	-79.0	2.4	0.00e+00	0	49	104	0	60	1048574
2026-01-17 16:26:28.90	31.97	34.60	-83.5	-79.0	2.4	0.00e+00	0	49	104	0	60	1048570
2026-01-17 16:26:29.90	31.39	34.47	-83.1	-79.0	2.5	0.00e+00	0	49	104	0	60	1048566
2026-01-17 16:26:30.91	30.80	34.34	-82.8	-79.0	2.4	0.00e+00	0	49	104	0	60	1048563
2026-01-17 16:26:31.92	30.22	34.20	-83.5	-79.0	2.4	0.00e+00	0	49	104	0	60	1048574
2026-01-17 16:26:32.92	29.65	34.06	-83.5	-79.0	2.4	0.00e+00	0	49	104	0	60	1048575
2026-01-17 16:26:33.93	29.08	33.92	-83.5	-79.0	2.4	0.00e+00	0	49	104	0	60	1048571
2026-01-17 16:26:34.94	28.52	33.77	-82.8	-79.0	2.5	0.00e+00	0	49	104	0	60	1048572
2026-01-17 16:26:35.95	27.96	33.62	-83.5	-79.0	2.4	0.00e+00	0	49	104	0	60	1048552
2026-01-17 16:26:36.95	27.41	33.48	-83.5	-79.0	2.5	0.00e+00	0	49	104	0	60	1048566
2026-01-17 16:26:37.96	26.86	33.32	-83.5	-79.0	2.4	0.00e+00	0	49	104	0	60	1048568
2026-01-17 16:26:38.96	26.33	33.17	-83.1	-79.0	2.4	0.00e+00	0	49	104	0	60	1048573
2026-01-17 16:26:39.97	25.79	33.02	-82.8	-79.0	2.4	0.00e+00	0	49	104	0	60	1048568
2026-01-17 16:26:40.98	25.26	32.86	-83.5	-79.0	2.4	0.00e+00	0	49	104	0	60	1048575
2026-01-17 16:26:41.99	24.73	32.70	-83.5	-79.0	2.3	0.00e+00	0	49	104	0	60	1048575
2026-01-17 16:26:42.99	24.22	32.55	-83.5	-79.0	2.4	0.00e+00	0	49	104	0	60	1048574
2026-01-17 16:26:44.00	23.70	32.38	-83.1	-79.0	2.3	0.00e+00	0	49	104	0	60	1048570
2026-01-17 16:26:45.01	23.19	32.22	-83.1	-79.0	2.4	0.00e+00	0	49	104	0	60	1048575
2026-01-17 16:26:46.02	22.69	32.06	-83.5	-79.0	2.4	0.00e+00	0	49	104	0	60	1048575
2026-01-17 16:26:47.03	22.19	31.89	-83.5	-79.0	2.4	0.00e+00	0	49	104	0	60	1048564
2026-01-17 16:26:48.03	21.70	31.73	-83.5	-79.0	2.4	0.00e+00	0	49	104	0	60	1048569
2026-01-17 16:26:49.03	21.22	31.56	-83.1	-79.0	2.4	0.00e+00	0	49	104	0	60	1048568
2026-01-17 16:26:50.04	20.74	31.39	-83.5	-79.0	2.4	0.00e+00	0	49	104	0	60	1048573
2026-01-17 16:26:51.05	20.26	31.22	-83.1	-79.0	2.4	0.00e+00	0	49	104	0	60	1048572
2026-01-17 16:26:52.05	19.80	31.06	-83.5	-79.0	2.4	0.00e+00	0	49	104	0	60	1048575
2026-01-17 16:26:53.06	19.33	30.88	-83.5	-79.0	2.4	0.00e+00	0	49	104	0	60	1048569
2026-01-17 16:26:54.07	18.87	30.71	-83.1	-79.0	2.3	0.00e+00	0	49	104	0	60	1048575
2026-01-17 16:26:55.08	18.42	30.54	-83.5	-79.0	2.5	0.00e+00	0	49	104	0	60	1048570
2026-01-17 16:26:56.09	17.97	30.37	-83.5	-79.0	2.4	0.00e+00	0	49	104	0	60	1048575
2026-01-17 16:26:57.10	17.52	30.19	-83.1	-79.0	2.4	0.00e+00	0	49	104	0	60	1048573
2026-01-17 16:26:58.10	17.09	30.02	-83.5	-79.0	2.4	0.00e+00	0	49	104	0	60	1048572
2026-01-17 16:26:59.11	16.65	29.84	-83.1	-79.0	2.4	0.00e+00	0	49	104	0	60	1048575
2026-01-17 16:27:00.12	16.22	29.67	-83.5	-79.0	2.4	0.00e+00	0	49	104	0	60	1048573
2026-01-17 16:27:01.12	15.80	29.50	-83.5	-79.0	2.4	0.00e+00	0	49	104	0	60	1048573
2026-01-17 16:27:02.13	15.38	29.32	-83.5	-79.0	2.4	0.00e+00	0	49	104	0	60	1048562
2026-01-17 16:27:03.13	14.97	29.14	-83.1	-79.0	2.3	0.00e+00	0	49	104	0	60	1048572
2026-01-17 16:27:04.14	14.56	28.97	-83.1	-79.0	2.3	0.00e+00	0	49	104	0	60	1048572
2026-01-17 16:27:05.15	14.16	28.79	-83.5	-79.0	2.4	0.00e+00	0	49	104	0	60	1048569
2026-01-17 16:27:06.15	13.77	28.62	-83.5	-79.0	2.3	0.00e+00	0	49	104	0	60	1048573
2026-01-17 16:27:07.16	13.37	28.44	-83.5	-79.0	2.5	0.00e+00	0	49	104	0	60	1048573
2026-01-17 16:27:08.17	12.98	28.26	-83.1	-79.0	2.3	0.00e+00	0	49	104	0	60	1048563
2026-01-17 16:27:09.18	12.60	28.09	-83.1	-79.0	2.5	0.00e+00	0	49	104	0	60	1048573
2026-01-17 16:27:10.19	12.22	27.91	-83.5	-79.0	2.3	0.00e+00	0	49	104	0	60	1048573
2026-01-17 16:27:11.19	11.84	27.73	-83.5	-79.0	2.4	0.00e+00	0	49	104	0	60	1048573
2026-01-17 16:27:12.20	11.47	27.56	-83.5	-79.0	2.4	0.00e+00	0	49	104	0	60	1048574
2026-01-17 16:27:13.21	11.10	27.38	-83.1	-79.0	2.4	0.00e+00	0	49	104	0	60	1048574
2026-01-17 16:27:14.22	10.74	27.20	-83.5	-79.0	2.4	0.00e+00	0	49	104	0	60	1048572
2026-01-17 16:27:15.23	10.38	27.03	-83.5	-79.0	2.4	0.00e+00	0	49	104	0	60	1048573
2026-01-17 16:27:16.23	10.03	26.85	-83.5	-79.0	2.4	0.00e+00	0	49	104	0	60	1048575
2026-01-17 16:27:17.24	9.69	26.68	-83.1	-79.0	2.5	0.00e+00	0	49	104	0	60	1048575
2026-01-17 16:27:18.25	9.34	26.50	-82.8	-79.0	2.3	0.00e+00	0	49	104	0	60	1048573
2026-01-17 16:27:19.26	9.00	26.33	-83.5	-79.0	2.4	0.00e+00	0	49	104	0	60	1048573
2026-01-17 16:27:20.27	8.66	26.15	-83.5	-79.0	2.5	0.00e+00	0	49	104	0	60	1048572
2026-01-17 16:27:21.28	8.33	25.98	-83.5	-79.0	2.4	0.00e+00	0	49	104	0	60	1048575
2026-01-17 16:27:22.29	8.00	25.81	-83.1	-79.0	2.4	0.00e+00	0	49	104	0	60	1048566
2026-01-17 16:27:23.29	7.68	25.63	-83.1	-79.0	2.4	0.00e+00	0	49	104	0	60	1048572
2026-01-17 16:27:24.30	7.36	25.46	-83.5	-79.0	2.3	0.00e+00	0	49	104	0	60	1048569
2026-01-17 16:27:25.30	7.05	25.29	-83.5	-79.0	2.3	0.00e+00	0	49	104	0	60	1048570
2026-01-17 16:27:26.31	6.73	25.12	-83.1	-79.0	2.5	0.00e+00	0	49	104	0	60	1048571
2026-01-17 16:27:27.32	6.42	24.95	-83.1	-79.0	2.4	0.00e+00	0	49	104	0	60	1048575
2026-01-17 16:27:28.33	6.12	24.78	-83.5	-79.0	2.5	0.00e+00	0	49	104	0	60	1048572
2026-01-17 16:27:29.34	5.82	24.61	-83.5	-79.0	2.4	0.00e+00	0	49	104	0	60	1048573
2026-01-17 16:27:30.34	5.52	24.44	-83.5	-79.0	2.4	0.00e+00	0	49	104	0	60	1048575
2026-01-17 16:27:31.35	5.23	24.27	-83.1	-79.0	2.4	0.00e+00	0	49	104	0	60	1048572
2026-01-17 16:27:32.36	4.94	24.10	-83.1	-79.0	2.4	0.00e+00	0	49	104	0	60	1048568
2026-01-17 16:27:33.37	4.65	23.93	-83.5	-79.0	2.4	0.00e+00	0	49	104	0	60	1048573
2026-01-17 16:27:34.37	4.37	23.77	-83.5	-79.0	2.4	0.00e+00	0	49	104	0	60	1048574
2026-01-17 16:27:35.38	4.09	23.60	-83.5	-79.0	2.3	0.00e+00	0	49	104	0	60	1048574
2026-01-17 16:27:36.38	3.81	23.44	-83.1	-79.0	2.5	0.00e+00	0	49	104	0	60	1048573
2026-01-17 16:27:37.39	3.54	23.27	-83.1	-79.0	2.4	0.00e+00	0	49	104	0	60	1048574
2026-01-17 16:27:38.40	3.27	23.11	-83.5	-79.0	2.4	0.00e+00	0	49	104	0	60	1048573
2026-01-17 16:27:39.41	3.00	22.94	-83.5	-79.0	2.5	0.00e+00	0	49	104	0	60	1048574
2026-01-17 16:27:40.41	2.74	22.78	-83.5	-79.0	2.4	0.00e+00	0	49	104	0	60	1048573
2026-01-17 16:27:41.42	2.48	22.62	-82.8	-79.0	2.5	0.00e+00	0	49	104	0	60	1048575
2026-01-17 16:27:42.43	2.22	22.46	-83.5	-79.0	2.4	0.00e+00	0	49	104	0	60	1048573
2026-01-17 16:27:43.44	1.97	22.29	-83.5	-79.0	2.4	0.00e+00	0	49	104	0	60	1048568
2026-01-17 16:27:44.45	1.71	22.13	-83.5	-79.0	2.4	0.00e+00	0	49	104	0	60	1048570
2026-01-17 16:27:45.45	1.47	21.98	-83.5	-79.0	2.4	0.00e+00	0	49	104	0	60	1048571
2026-01-17 16:27:46.46	1.22	21.82	-83.1	-79.0	2.3	0.00e+00	0	49	104	0	60	1048572
2026-01-17 16:27:47.47	0.98	21.66	-83.5	-79.0	2.4	0.00e+00	0	49	104	0	60	1048572
2026-01-17 16:27:48.48	0.74	21.50	-83.5	-79.0	2.4	0.00e+00	0	49	104	0	60	1048575
2026-01-17 16:27:49.48	0.50	21.34	-83.5	-79.0	2.4	0.00e+00	0	49	104	0	60	1048574
2026-01-17 16:27:50.49	0.27	21.19	-83.1	-79.0	2.4	0.00e+00	0	49	104	0	60	1048575
2026-01-17 16:27:51.50	0.03	21.03	-83.1	-79.0	2.4	0.00e+00	0	49	104	0	60	1048571
2026-01-17 16:27:52.50	359.81	20.88	-83.5	-79.0	2.4	0.00e+00	0	49	104	0	60	1048573
2026-01-17 16:27:53.51	359.58	20.73	-83.5	-79.0	2.4	0.00e+00	0	49	104	0	60	1048574
2026-01-17 16:27:54.52	359.36	20.57	-83.5	-79.0	2.4	0.00e+00	0	49	104	0	60	1048568
2026-01-17 16:27:55.53	359.13	20.42	-82.8	-79.0	2.3	0.00e+00	0	49	104	0	60	1048575
2026-01-17 16:27:56.53	358.92	20.27	-83.1	-79.0	2.5	0.00e+00	0	49	104	0	60	1048574
2026-01-17 16:27:57.54	358.70	20.12	-83.5	-79.0	2.4	0.00e+00	0	49	104	0	60	1048575
2026-01-17 16:27:58.55	358.49	19.97	-83.5	-79.0	2.3	0.00e+00	0	49	104	0	60	1048567
2026-01-17 16:27:59.55	358.28	19.82	-83.5	-79.0	2.5	0.00e+00	0	49	104	0	60	1048573
2026-01-17 16:28:00.56	358.07	19.67	-82.8	-79.0	2.3	0.00e+00	0	49	104	0	60	1048570
2026-01-17 16:28:01.57	357.86	19.52	-83.5	-79.0	2.4	0.00e+00	0	49	104	0	60	1048569
2026-01-17 16:28:02.57	357.66	19.38	-83.5	-79.0	2.4	0.00e+00	0	49	104	0	60	1048572
2026-01-17 16:28:03.58	357.45	19.23	-83.5	-79.0	2.4	0.00e+00	0	49	104	0	60	1048575
2026-01-17 16:28:04.59	357.25	19.09	-83.5	-79.0	2.4	0.00e+00	0	49	104	0	60	1048572
2026-01-17 16:28:05.60	357.06	18.94	-83.1	-79.0	2.4	0.00e+00	0	49	104	0	60	1048573
2026-01-17 16:28:06.60	356.86	18.80	-83.1	-79.0	2.4	0.00e+00	0	49	104	0	60	1048575
2026-01-17 16:28:07.61	356.67	18.66	-83.1	-79.0	2.4	0.00e+00	0	49	104	0	60	1048575
2026-01-17 16:28:08.62	356.48	18.51	-83.5	-79.0	2.3	0.00e+00	0	49	104	0	60	1048574
2026-01-17 16:28:09.62	356.29	18.37	-83.1	-79.0	2.5	0.00e+00	0	49	104	0	60	1048574
2026-01-17 16:28:10.63	356.10	18.23	-82.8	-79.0	2.4	0.00e+00	0	49	104	0	60	1048575
2026-01-17 16:28:11.63	355.92	18.09	-83.5	-79.0	2.4	0.00e+00	0	49	104	0	60	1048574
2026-01-17 16:28:12.64	355.73	17.95	-83.5	-79.0	2.4	0.00e+00	0	49	104	0	60	1048568
2026-01-17 16:28:13.65	355.55	17.81	-83.5	-79.0	2.5	0.00e+00	0	49	104	0	60	1048569
2026-01-17 16:28:14.66	355.37	17.68	-82.8	-79.0	2.4	0.00e+00	0	49	104	0	60	1048570
2026-01-17 16:28:15.66	355.20	17.54	-83.1	-79.0	2.4	0.00e+00	0	49	104	0	60	1048570
2026-01-17 16:28:16.67	355.02	17.40	-83.5	-79.0	2.5	0.00e+00	0	49	104	0	60	1048574
2026-01-17 16:28:17.68	354.85	17.27	-83.5	-79.0	2.4	0.00e+00	0	49	104	0	60	1048573
2026-01-17 16:28:18.68	354.68	17.13	-83.5	-79.0	2.4	0.00e+00	0	49	104	0	60	1048570
2026-01-17 16:28:19.69	354.51	17.00	-83.1	-79.0	2.3	0.00e+00	0	49	104	0	60	1048572
2026-01-17 16:28:20.70	354.34	16.87	-83.5	-79.0	2.5	0.00e+00	0	49	104	0	60	1048575
2026-01-17 16:28:21.71	354.17	16.73	-83.5	-79.0	2.4	0.00e+00	0	49	104	0	60	1048573
2026-01-17 16:28:22.72	354.01	16.60	-83.5	-79.0	2.4	0.00e+00	0	49	104	0	60	1048571
2026-01-17 16:28:23.73	353.84	16.47	-83.5	-79.0	2.4	0.00e+00	0	49	104	0	60	1048575
2026-01-17 16:28:24.73	353.68	16.34	-82.8	-79.0	2.4	0.00e+00	0	49	104	0	60	1048568
2026-01-17 16:28:25.73	353.53	16.21	-83.5	-79.0	2.4	0.00e+00	0	49	104	0	60	1048573
2026-01-17 16:28:26.74	353.37	16.08	-83.1	-79.0	2.4	0.00e+00	0	49	104	0	60	1048569
2026-01-17 16:28:27.75	353.21	15.95	-83.5	-79.0	2.4	0.00e+00	0	49	104	0	60	1048571
2026-01-17 16:28:28.76	353.06	15.82	-82.8	-79.0	2.4	0.00e+00	0	49	104	0	60	1048574
2026-01-17 16:28:29.76	352.90	15.70	-83.1	-79.0	2.4	0.00e+00	0	49	104	0	60	1048575
2026-01-17 16:28:30.77	352.75	15.57	-83.5	-79.0	2.4	0.00e+00	0	49	104	0	60	1048575
2026-01-17 16:28:31.78	352.60	15.44	-83.5	-79.0	2.4	0.00e+00	0	49	104	0	60	1048575
2026-01-17 16:28:32.78	352.46	15.32	-83.5	-79.0	2.5	0.00e+00	0	49	104	0	60	1048575
2026-01-17 16:28:33.79	352.31	15.19	-82.8	-79.0	2.5	0.00e+00	0	49	104	0	60	1048574
2026-01-17 16:28:34.80	352.16	15.07	-83.5	-79.0	2.4	0.00e+00	0	49	104	0	60	1048572
2026-01-17 16:28:35.81	352.02	14.95	-83.5	-79.0	2.3	0.00e+00	0	49	104	0	60	1048574
2026-01-17 16:28:36.81	351.88	14.82	-83.1	-79.0	2.4	0.00e+00	0	49	104	0	60	1048570
2026-01-17 16:28:37.82	351.74	14.70	-83.5	-79.0	2.4	0.00e+00	0	49	104	0	60	1048575
2026-01-17 16:28:38.83	351.60	14.58	-82.8	-79.0	2.4	0.00e+00	0	49	104	0	60	1048574
2026-01-17 16:28:39.84	351.46	14.46	-83.5	-79.0	2.4	0.00e+00	0	49	104	0	60	1048575
2026-01-17 16:28:40.85	351.32	14.34	-83.5	-79.0	2.4	0.00e+00	0	49	104	0	60	1048567
2026-01-17 16:28:41.85	351.18	14.22	-83.5	-79.0	2.3	0.00e+00	0	49	104	0	60	1048575
2026-01-17 16:28:42.86	351.05	14.10	-83.1	-79.0	2.4	0.00e+00	0	49	104	0	60	1048571
2026-01-17 16:28:43.87	350.92	13.98	-83.1	-79.0	2.3	0.00e+00	0	49	104	0	60	1048573
2026-01-17 16:28:44.88	350.78	13.87	-83.5	-79.0	2.4	0.00e+00	0	49	104	0	60	1048572
2026-01-17 16:28:45.89	350.65	13.75	-83.5	-79.0	2.4	0.00e+00	0	49	104	0	60	1048575
2026-01-17 16:28:46.89	350.53	13.63	-83.5	-79.0	2.4	0.00e+00	0	49	104	0	60	1048567
2026-01-17 16:28:47.89	350.40	13.52	-82.8	-79.0	2.3	0.00e+00	0	49	104	0	60	1048572
2026-01-17 16:28:48.90	350.27	13.40	-83.5	-79.0	2.4	0.00e+00	0	49	104	0	60	1048572
2026-01-17 16:28:49.91	350.15	13.29	-83.5	-79.0	2.5	0.00e+00	0	49	104	0	60	1048563
2026-01-17 16:28:50.92	350.02	13.17	-83.5	-79.0	2.4	0.00e+00	0	49	104	0	60	1048572
2026-01-17 16:28:51.93	349.90	13.06	-83.5	-79.0	2.4	0.00e+00	0	49	104	0	60	1048575
2026-01-17 16:28:52.94	349.78	12.95	-82.8	-79.0	2.4	0.00e+00	0	49	104	0	60	1048573
2026-01-17 16:28:53.94	349.66	12.84	-83.5	-79.0	2.5	0.00e+00	0	49	104	0	60	1048573
2026-01-17 16:28:54.95	349.54	12.72	-83.1	-79.0	2.4	0.00e+00	0	49	104	0	60	1048575
2026-01-17 16:28:55.96	349.42	12.61	-83.5	-79.0	2.4	0.00e+00	0	49	104	0	60	1048575
2026-01-17 16:28:56.96	349.30	12.50	-83.5	-79.0	2.4	0.00e+00	0	49	104	0	60	1048575
2026-01-17 16:28:57.97	349.18	12.39	-83.1	-79.0	2.4	0.00e+00	0	49	104	0	60	1048575
2026-01-17 16:28:58.97	349.07	12.28	-83.5	-79.0	2.4	0.00e+00	0	49	104	0	60	1048574
2026-01-17 16:28:59.98	348.96	12.17	-83.5	-79.0	2.4	0.00e+00	0	49	104	0	60	1048575
2026-01-17 16:29:00.99	348.84	12.07	-83.5	-79.0	2.3	0.00e+00	0	49	104	0	60	1048573
2026-01-17 16:29:02.00	348.73	11.96	-83.1	-79.0	2.4	0.00e+00	0	49	104	0	60	1048574
2026-01-17 16:29:02.99	348.62	11.85	-83.1	-79.0	2.3	0.00e+00	0	49	104	0	60	1048570
2026-01-17 16:29:04.00	348.51	11.74	-83.5	-79.0	2.3	0.00e+00	0	49	104	0	60	1048574
2026-01-17 16:29:05.00	348.40	11.64	-83.5	-79.0	2.3	0.00e+00	0	49	104	0	60	1048575
2026-01-17 16:29:06.01	348.29	11.53	-83.1	-79.0	2.4	0.00e+00	0	49	104	0	60	1048575
2026-01-17 16:29:07.01	348.19	11.43	-83.1	-79.0	2.3	0.00e+00	0	49	104	0	60	1048569
2026-01-17 16:29:08.02	348.08	11.32	-83.1	-79.0	2.3	0.00e+00	0	49	104	0	60	1048574
2026-01-17 16:29:09.03	347.98	11.22	-83.5	-79.0	2.4	0.00e+00	0	49	104	0	60	1048572
2026-01-17 16:29:10.03	347.87	11.12	-83.5	-79.0	2.4	0.00e+00	0	49	104	0	60	1048571
2026-01-17 16:29:11.04	347.77	11.01	-83.5	-79.0	2.4	0.00e+00	0	49	104	0	60	1048575
2026-01-17 16:29:12.05	347.67	10.91	-83.1	-79.0	2.3	0.00e+00	0	49	104	0	60	1048572
2026-01-17 16:29:13.06	347.56	10.81	-83.1	-79.0	2.3	0.00e+00	0	49	104	0	60	1048575
2026-01-17 16:29:14.07	347.46	10.71	-83.5	-79.0	2.4	0.00e+00	0	49	104	0	60	1048575
2026-01-17 16:29:15.07	347.36	10.60	-83.5	-79.0	2.4	0.00e+00	0	49	104	0	60	1048574
2026-01-17 16:29:16.08	347.26	10.50	-83.5	-79.0	2.5	0.00e+00	0	49	104	0	60	1048565
2026-01-17 16:29:17.09	347.17	10.40	-83.1	-79.0	2.4	0.00e+00	0	49	104	0	60	1048575
2026-01-17 16:29:18.09	347.07	10.30	-83.5	-79.0	2.4	0.00e+00	0	49	104	0	60	1048575
2026-01-17 16:29:19.09	346.97	10.21	-83.5	-79.0	2.5	0.00e+00	0	49	104	0	60	1048573
2026-01-17 16:29:20.10	346.88	10.11	-83.5	-79.0	2.4	0.00e+00	0	49	104	0	60	1048573
2026-01-17 16:29:21.10	346.78	10.01	-83.1	-79.0	2.5	0.00e+00	0	49	104	0	60	1048575
2026-01-17 16:29:22.11	346.69	9.91	-83.1	-79.0	2.6	0.00e+00	0	49	104	0	60	1048563
2026-01-17 16:29:23.12	346.60	9.81	-83.5	-79.0	2.4	0.00e+00	0	49	104	0	60	1048572
2026-01-17 16:29:24.13	346.50	9.72	-83.1	-79.0	2.4	0.00e+00	0	49	104	0	60	1048572
2026-01-17 16:29:25.13	346.41	9.62	-83.5	-79.0	2.4	0.00e+00	0	49	104	0	60	1048575
2026-01-17 16:29:26.14	346.32	9.52	-83.1	-79.0	2.5	0.00e+00	0	49	104	0	60	1048575
2026-01-17 16:29:27.14	346.23	9.43	-83.5	-79.0	2.4	0.00e+00	0	49	104	0	60	1048574
2026-01-17 16:29:28.15	346.14	9.33	-83.5	-79.0	2.4	0.00e+00	0	49	104	0	60	1048575
2026-01-17 16:29:29.15	346.06	9.24	-83.5	-79.0	2.4	0.00e+00	0	49	104	0	60	1048572
2026-01-17 16:29:30.16	345.97	9.14	-83.1	-79.0	2.5	0.00e+00	0	49	104	0	60	1048575
2026-01-17 16:29:31.17	345.88	9.05	-83.1	-79.0	2.5	0.00e+00	0	49	104	0	60	1048575
2026-01-17 16:29:32.17	345.80	8.96	-83.5	-79.0	2.5	0.00e+00	0	49	104	0	60	1048574
2026-01-17 16:29:33.18	345.71	8.86	-83.5	-79.0	2.5	0.00e+00	0	49	104	0	60	1048569
2026-01-17 16:29:34.19	345.62	8.77	-83.5	-79.0	2.4	0.00e+00	0	49	104	0	60	1048572
2026-01-17 16:29:35.20	345.54	8.68	-83.5	-79.0	2.4	0.00e+00	0	49	104	0	60	1048572
2026-01-17 16:29:36.20	345.46	8.59	-83.1	-79.0	2.5	0.00e+00	0	49	104	0	60	1048566
2026-01-17 16:29:37.21	345.37	8.49	-83.5	-79.0	2.4	0.00e+00	0	49	104	0	60	1048575
2026-01-17 16:29:38.21	345.29	8.40	-83.5	-79.0	2.3	0.00e+00	0	49	104	0	60	1048574
2026-01-17 16:29:39.22	345.21	8.31	-83.5	-79.0	2.5	0.00e+00	0	49	104	0	60	1048573
2026-01-17 16:29:40.23	345.13	8.22	-83.1	-79.0	2.3	0.00e+00	0	49	104	0	60	1048573
2026-01-17 16:29:41.24	345.05	8.13	-82.8	-79.0	2.4	0.00e+00	0	49	104	0	60	1048575
2026-01-17 16:29:42.25	344.97	8.04	-83.5	-79.0	2.5	0.00e+00	0	49	104	0	60	1048569
2026-01-17 16:29:43.25	344.89	7.95	-83.5	-79.0	2.4	0.00e+00	0	49	104	0	60	1048571
2026-01-17 16:29:44.26	344.81	7.86	-83.5	-79.0	2.4	0.00e+00	0	49	104	0	60	1048570
2026-01-17 16:29:45.27	344.74	7.77	-83.1	-79.0	2.3	0.00e+00	0	49	104	0	60	1048574
2026-01-17 16:29:46.28	344.66	7.69	-83.1	-79.0	2.4	0.00e+00	0	49	104	0	60	1048573
2026-01-17 16:29:47.29	344.58	7.60	-83.5	-79.0	2.4	0.00e+00	0	49	104	0	60	1048574
2026-01-17 16:29:48.29	344.51	7.51	-83.5	-79.0	2.4	0.00e+00	0	49	104	0	60	1048569
2026-01-17 16:29:49.30	344.43	7.42	-83.5	-79.0	2.4	0.00e+00	0	49	104	0	60	1048572
2026-01-17 16:29:50.30	344.36	7.34	-83.1	-79.0	2.5	0.00e+00	0	49	104	0	60	1048575
2026-01-17 16:29:51.30	344.28	7.25	-83.5	-79.0	2.4	0.00e+00	0	49	104	0	60	1048573
2026-01-17 16:29:52.31	344.21	7.16	-83.5	-79.0	2.4	0.00e+00	0	49	104	0	60	1048574
2026-01-17 16:29:53.31	344.14	7.08	-83.1	-79.0	2.4	0.00e+00	0	49	104	0	60	1048575
2026-01-17 16:29:54.32	344.06	6.99	-83.1	-79.0	2.5	0.00e+00	0	49	104	0	60	1048573
2026-01-17 16:29:55.32	343.99	6.91	-83.1	-79.0	2.3	0.00e+00	0	49	104	0	60	1048575
2026-01-17 16:29:56.33	343.92	6.82	-83.5	-79.0	2.3	0.00e+00	0	49	104	0	60	1048573
2026-01-17 16:29:57.33	343.85	6.74	-83.5	-79.0	2.4	0.00e+00	0	49	104	0	60	1048569
2026-01-17 16:29:58.34	343.78	6.66	-83.5	-79.0	2.4	0.00e+00	0	49	104	0	60	1048575
2026-01-17 16:29:59.34	343.71	6.57	-82.8	-79.0	2.4	0.00e+00	0	49	104	0	60	1048566
2026-01-17 16:30:00.35	343.64	6.49	-83.5	-79.0	2.4	0.00e+00	0	49	104	0	60	1048573
2026-01-17 16:30:01.36	343.57	6.41	-83.5	-79.0	2.4	0.00e+00	0	49	104	0	60	1048566
2026-01-17 16:30:02.37	343.51	6.32	-83.5	-79.0	2.4	0.00e+00	0	49	104	0	60	1048575
2026-01-17 16:30:03.37	343.44	6.24	-83.1	-79.0	2.4	0.00e+00	0	49	104	0	60	1048570
2026-01-17 16:30:04.38	343.37	6.16	-83.1	-79.0	2.4	0.00e+00	0	49	104	0	60	1048569
2026-01-17 16:30:05.39	343.31	6.08	-83.1	-79.0	2.4	0.00e+00	0	49	104	0	60	1048573
2026-01-17 16:30:06.40	343.24	6.00	-83.5	-79.0	2.3	0.00e+00	0	49	104	0	60	1048568
2026-01-17 16:30:07.40	343.17	5.92	-83.5	-79.0	2.5	0.00e+00	0	49	104	0	60	1048574
2026-01-17 16:30:08.41	343.11	5.83	-83.5	-79.0	2.4	0.00e+00	0	49	104	0	60	1048573
2026-01-17 16:30:09.42	343.04	5.75	-83.1	-79.0	2.4	0.00e+00	0	49	104	0	60	1048572
2026-01-17 16:30:10.42	342.98	5.67	-83.5	-79.0	2.4	0.00e+00	0	49	104	0	60	1048573
2026-01-17 16:30:11.43	342.92	5.59	-83.5	-79.0	2.4	0.00e+00	0	49	104	0	60	1048569
2026-01-17 16:30:12.44	342.85	5.51	-83.5	-79.0	2.4	0.00e+00	0	49	104	0	60	1048575
2026-01-17 16:30:13.45	342.79	5.43	-83.1	-79.0	2.4	0.00e+00	0	49	104	0	60	1048570
2026-01-17 16:30:14.45	342.73	5.36	-83.5	-79.0	2.5	0.00e+00	0	49	104	0	60	1048574
2026-01-17 16:30:15.46	342.67	5.28	-83.5	-79.0	2.5	0.00e+00	0	49	104	0	60	1048574
2026-01-17 16:30:16.47	342.61	5.20	-83.5	-79.0	2.4	0.00e+00	0	49	104	0	60	1048572
2026-01-17 16:30:17.48	342.54	5.12	-83.5	-79.0	2.4	0.00e+00	0	49	104	0	60	1048575
2026-01-17 16:30:18.48	342.48	5.04	-83.1	-79.0	2.4	0.00e+00	0	49	104	0	60	1048572
2026-01-17 16:30:19.49	342.42	4.96	-83.5	-79.0	2.4	0.00e+00	0	49	104	0	60	1048573
2026-01-17 16:30:20.50	342.36	4.89	-83.5	-79.0	2.3	0.00e+00	0	49	104	0	60	1048568
2026-01-17 16:30:21.50	342.31	4.81	-83.5	-79.0	2.3	0.00e+00	0	49	104	0	60	1048574
2026-01-17 16:30:22.50	342.25	4.73	-83.5	-79.0	2.4	0.00e+00	0	49	104	0	60	1048574
2026-01-17 16:30:23.50	342.19	4.66	-83.1	-79.0	2.4	0.00e+00	0	49	104	0	60	1048570
2026-01-17 16:30:24.51	342.13	4.58	-83.5	-79.0	2.3	0.00e+00	0	49	104	0	60	1048572
2026-01-17 16:30:25.52	342.07	4.50	-83.5	-79.0	2.4	0.00e+00	0	49	104	0	60	1048569
2026-01-17 16:30:26.52	342.02	4.43	-83.5	-79.0	2.4	0.00e+00	0	49	104	0	60	1048573
2026-01-17 16:30:27.53	341.96	4.35	-82.8	-79.0	2.4	0.00e+00	0	49	104	0	60	1048575
2026-01-17 16:30:28.53	341.90	4.28	-83.1	-79.0	2.5	0.00e+00	0	49	104	0	60	1048572
2026-01-17 16:30:29.54	341.85	4.20	-83.5	-79.0	2.3	0.00e+00	0	49	104	0	60	1048574
2026-01-17 16:30:30.54	341.79	4.13	-83.5	-79.0	2.4	0.00e+00	0	49	104	0	60	1048575
2026-01-17 16:30:31.55	341.74	4.05	-83.5	-79.0	2.4	0.00e+00	0	49	104	0	60	1048575
2026-01-17 16:30:32.56	341.68	3.98	-83.1	-79.0	2.3	0.00e+00	0	49	104	0	60	1048566
2026-01-17 16:30:33.57	341.63	3.91	-83.5	-79.0	2.4	0.00e+00	0	49	104	0	60	1048575
2026-01-17 16:30:34.58	341.57	3.83	-83.1	-79.0	2.3	0.00e+00	0	49	104	0	60	1048574
2026-01-17 16:30:35.58	341.52	3.76	-83.5	-79.0	2.5	0.00e+00	0	49	104	0	60	1048572
2026-01-17 16:30:36.59	341.47	3.69	-83.5	-79.0	2.4	0.00e+00	0	49	104	0	60	1048565
2026-01-17 16:30:37.59	341.42	3.61	-83.1	-79.0	2.4	0.00e+00	0	49	104	0	60	1048572
2026-01-17 16:30:38.60	341.36	3.54	-83.5	-79.0	2.3	0.00e+00	0	49	104	0	60	1048575
2026-01-17 16:30:39.60	341.31	3.47	-83.5	-79.0	2.3	0.00e+00	0	49	104	0	60	1048575
2026-01-17 16:30:40.61	341.26	3.39	-83.5	-79.0	2.4	0.00e+00	0	49	104	0	60	1048575
2026-01-17 16:30:41.61	341.21	3.32	-83.1	-79.0	2.5	0.00e+00	0	49	104	0	60	1048573
2026-01-17 16:30:42.61	341.16	3.25	-82.8	-79.0	2.4	0.00e+00	0	49	104	0	60	1048567
2026-01-17 16:30:43.62	341.11	3.18	-83.5	-79.0	2.3	0.00e+00	0	49	104	0	60	1048575
2026-01-17 16:30:44.62	341.06	3.11	-83.5	-79.0	2.4	0.00e+00	0	49	104	0	60	1048575
2026-01-17 16:30:45.63	341.01	3.04	-83.5	-79.0	2.5	0.00e+00	0	49	104	0	60	1048573
2026-01-17 16:30:46.64	340.96	2.97	-83.1	-79.0	2.4	0.00e+00	0	49	104	0	60	1048573
2026-01-17 16:30:47.64	340.91	2.90	-83.1	-79.0	2.3	0.00e+00	0	49	104	0	60	1048574
2026-01-17 16:30:48.65	340.86	2.83	-83.5	-79.0	2.4	0.00e+00	0	49	104	0	60	1048567
2026-01-17 16:30:49.66	340.81	2.75	-83.5	-79.0	2.4	0.00e+00	0	49	104	0	60	1048574
2026-01-17 16:30:50.67	340.76	2.68	-83.5	-79.0	2.4	0.00e+00	0	49	104	0	60	1048573
2026-01-17 16:30:51.68	340.71	2.61	-83.1	-79.0	2.4	0.00e+00	0	49	104	0	60	1048571
2026-01-17 16:30:52.69	340.66	2.54	-83.1	-79.0	2.4	0.00e+00	0	49	104	0	60	1048574
2026-01-17 16:30:53.69	340.62	2.48	-83.5	-79.0	2.4	0.00e+00	0	49	104	0	60	1048569
2026-01-17 16:30:54.70	340.57	2.41	-83.5	-79.0	2.5	0.00e+00	0	49	104	0	60	1048575
2026-01-17 16:30:55.71	340.52	2.34	-83.5	-79.0	2.5	0.00e+00	0	49	104	0	60	1048573
2026-01-17 16:30:56.72	340.48	2.27	-83.1	-79.0	2.4	0.00e+00	0	49	104	0	60	1048568
2026-01-17 16:30:57.72	340.43	2.20	-83.1	-79.0	2.4	0.00e+00	0	49	104	0	60	1048574
2026-01-17 16:30:58.72	340.38	2.13	-83.5	-79.0	2.4	0.00e+00	0	49	104	0	60	1048572
2026-01-17 16:30:59.73	340.34	2.06	-83.5	-79.0	2.3	0.00e+00	0	49	104	0	60	1048572
2026-01-17 16:31:00.74	340.29	2.00	-83.1	-79.0	2.4	0.00e+00	0	49	104	0	60	1048574
2026-01-17 16:31:01.74	340.25	1.93	-83.1	-79.0	2.5	0.00e+00	0	49	104	0	60	1048574
2026-01-17 16:31:02.75	340.20	1.86	-83.5	-79.0	2.4	0.00e+00	0	49	104	0	60	1048570
2026-01-17 16:31:03.76	340.16	1.79	-83.1	-79.0	2.5	0.00e+00	0	49	104	0	60	1048572
2026-01-17 16:31:04.77	340.11	1.72	-83.5	-79.0	2.4	0.00e+00	0	49	104	0	60	1048571
2026-01-17 16:31:05.78	340.07	1.66	-83.1	-79.0	2.3	0.00e+00	0	49	104	0	60	1048568
2026-01-17 16:31:06.78	340.03	1.59	-83.1	-79.0	2.5	0.00e+00	0	49	104	0	60	1048569
2026-01-17 16:31:07.79	339.98	1.52	-83.5	-79.0	2.4	0.00e+00	0	49	104	0	60	1048575
2026-01-17 16:31:08.80	339.94	1.46	-83.5	-79.0	2.4	0.00e+00	0	49	104	0	60	1048573
2026-01-17 16:31:09.80	339.90	1.39	-83.5	-79.0	2.5	0.00e+00	0	49	104	0	60	1048566
2026-01-17 16:31:10.81	339.85	1.33	-83.1	-79.0	2.4	0.00e+00	0	49	104	0	60	1048574
2026-01-17 16:31:11.82	339.81	1.26	-83.5	-79.0	2.4	0.00e+00	0	49	104	0	60	1048574
2026-01-17 16:31:12.82	339.77	1.19	-83.5	-79.0	2.4	0.00e+00	0	49	104	0	60	1048574
2026-01-17 16:31:13.83	339.73	1.13	-83.5	-79.0	2.4	0.00e+00	0	49	104	0	60	1048573
2026-01-17 16:31:14.84	339.69	1.06	-83.5	-79.0	2.5	0.00e+00	0	49	104	0	60	1048574
2026-01-17 16:31:15.84	339.65	1.00	-82.8	-79.0	2.5	0.00e+00	0	49	104	0	60	1048555
2026-01-17 16:31:16.85	339.60	0.93	-83.1	-79.0	2.4	0.00e+00	0	49	104	0	60	1048572
2026-01-17 16:31:17.85	339.56	0.87	-83.5	-79.0	2.2	0.00e+00	0	49	104	0	60	1048574
2026-01-17 16:31:18.86	339.52	0.80	-83.5	-79.0	2.4	0.00e+00	0	49	104	0	60	1048575
2026-01-17 16:31:19.87	339.48	0.74	-83.5	-79.0	2.4	0.00e+00	0	49	104	0	60	1048575
2026-01-17 16:31:20.88	339.44	0.67	-83.1	-79.0	2.5	0.00e+00	0	49	104	0	60	1048575
2026-01-17 16:31:21.88	339.40	0.61	-83.5	-79.0	2.4	0.00e+00	0	49	104	0	60	1048563
2026-01-17 16:31:22.89	339.36	0.55	-83.5	-79.0	2.4	0.00e+00	0	49	104	0	60	1048572
2026-01-17 16:31:23.90	339.32	0.48	-83.5	-79.0	2.4	0.00e+00	0	49	104	0	60	1048574
2026-01-17 16:31:24.90	339.28	0.42	-83.1	-79.0	2.4	0.00e+00	0	49	104	0	60	1048574
2026-01-17 16:31:25.91	339.25	0.35	-82.8	-79.0	2.4	0.00e+00	0	49	104	0	60	1048575
2026-01-17 16:31:26.92	339.21	0.29	-83.5	-79.0	2.3	0.00e+00	0	49	104	0	60	1048574
2026-01-17 16:31:27.92	339.17	0.23	-83.5	-79.0	2.4	0.00e+00	0	49	104	0	60	1048575
2026-01-17 16:31:28.93	339.13	0.16	-83.5	-79.0	2.4	0.00e+00	0	49	104	0	60	1048575
2026-01-17 16:31:29.93	339.09	0.10	-82.8	-79.0	2.5	0.00e+00	0	49	104	0	60	1048575
2026-01-17 16:31:30.94	339.06	0.04	-83.5	-79.0	2.4	0.00e+00	0	49	104	0	60	1048573
2026-01-17 16:31:31.95	339.02	-0.02	-83.5	-79.0	2.4	0.00e+00	0	49	104	0	60	1048575

#Closed at: 2026-01-17 16:31:32
#Recorded file [0 MB]: D:/Data/35015_260117_192603.dat