passes_logs/2026/01/17/R3.2S-Naryan-Mar/R3.2S-Naryan-Mar__20260117_144229_TY-42_rec.log

#Pass ID: 20260117_144229_TY-42
#Satellite: TY-42
#Configuration: TY-42
#almurnet v.1.7.20240730
#Start time: 2026-01-17 14:42:30

#Version: 2.2.20231116
#Station: R3.2S-Naryan-Mar
#Location: 53.008057 lon 67.646978 lat
#TLE: 1 64048U 25103A   26017.21478009  .00008006  00000-0  38191-3 0 09999
#TLE: 2 64048 097.4122 092.5907 0001889 091.4381 313.8037 15.19150120 37159

#Time	Az	El	Level	Level2	SNR	BER	BlckErr	Temp	State	Recorded	gain1	gain2
2026-01-17 14:42:30.92	85.48	0.09	-83.5	-79.0	2.3	0.00e+00	0	45	0	0	60	1048570
2026-01-17 14:42:31.92	85.39	0.14	-83.1	-79.0	2.5	0.00e+00	0	46	104	0	60	1048573
2026-01-17 14:42:32.93	85.30	0.20	-82.8	-79.0	2.3	0.00e+00	0	46	104	0	60	1048575
2026-01-17 14:42:33.93	85.21	0.25	-83.5	-79.0	2.4	0.00e+00	0	46	104	0	60	1048568
2026-01-17 14:42:34.94	85.11	0.31	-83.5	-79.0	2.4	0.00e+00	0	46	104	0	60	1048570
2026-01-17 14:42:35.94	85.02	0.36	-83.5	-79.0	2.3	0.00e+00	0	46	104	0	60	1048575
2026-01-17 14:42:36.95	84.92	0.42	-82.8	-79.0	2.4	0.00e+00	0	46	104	0	60	1048575
2026-01-17 14:42:37.95	84.83	0.47	-83.1	-79.0	2.3	0.00e+00	0	46	104	0	60	1048562
2026-01-17 14:42:38.96	84.73	0.53	-83.5	-79.0	2.5	0.00e+00	0	46	104	0	60	1048574
2026-01-17 14:42:39.96	84.64	0.58	-83.5	-79.0	2.2	0.00e+00	0	46	104	0	60	1048570
2026-01-17 14:42:40.96	84.54	0.63	-83.5	-79.0	2.6	0.00e+00	0	46	104	0	60	1048575
2026-01-17 14:42:41.97	84.45	0.69	-82.8	-79.0	2.3	0.00e+00	0	47	104	0	60	1048574
2026-01-17 14:42:42.97	84.35	0.74	-83.5	-79.0	2.6	0.00e+00	0	47	104	0	60	1048570
2026-01-17 14:42:43.98	84.25	0.80	-83.5	-79.0	2.4	0.00e+00	0	47	104	0	60	1048575
2026-01-17 14:42:44.98	84.15	0.85	-83.5	-79.0	2.3	0.00e+00	0	47	104	0	60	1048574
2026-01-17 14:42:45.99	84.06	0.91	-83.5	-79.0	2.4	0.00e+00	0	47	104	0	60	1048574
2026-01-17 14:42:47.00	83.96	0.97	-83.1	-79.0	2.3	0.00e+00	0	47	104	0	60	1048569
2026-01-17 14:42:48.01	83.86	1.02	-83.5	-79.0	2.3	0.00e+00	0	47	104	0	60	1048573
2026-01-17 14:42:49.01	83.76	1.08	-83.5	-79.0	2.4	0.00e+00	0	47	104	0	60	1048575
2026-01-17 14:42:50.02	83.66	1.13	-83.5	-79.0	2.5	0.00e+00	0	47	104	0	60	1048575
2026-01-17 14:42:51.02	83.55	1.19	-83.1	-79.0	2.4	0.00e+00	0	47	104	0	60	1048575
2026-01-17 14:42:52.03	83.45	1.24	-82.8	-79.0	2.4	0.00e+00	0	47	104	0	60	1048571
2026-01-17 14:42:53.03	83.35	1.30	-83.5	-79.0	2.4	0.00e+00	0	47	104	0	60	1048573
2026-01-17 14:42:54.04	83.25	1.35	-83.5	-79.0	2.3	0.00e+00	0	47	104	0	60	1048574
2026-01-17 14:42:55.04	83.15	1.41	-83.5	-79.0	2.6	0.00e+00	0	47	104	0	60	1048573
2026-01-17 14:42:56.05	83.04	1.47	-82.8	-79.0	2.4	0.00e+00	0	47	104	0	60	1048569
2026-01-17 14:42:57.05	82.94	1.52	-83.5	-79.0	2.5	0.00e+00	0	47	104	0	60	1048570
2026-01-17 14:42:58.06	82.83	1.58	-83.5	-79.0	2.5	0.00e+00	0	47	104	0	60	1048575
2026-01-17 14:42:59.06	82.73	1.63	-83.5	-79.0	2.3	0.00e+00	0	47	104	0	60	1048573
2026-01-17 14:43:00.07	82.62	1.69	-83.1	-79.0	2.4	0.00e+00	0	47	104	0	60	1048574
2026-01-17 14:43:01.08	82.52	1.75	-83.1	-79.0	2.5	0.00e+00	0	47	104	0	60	1048570
2026-01-17 14:43:02.08	82.41	1.80	-83.5	-79.0	2.7	0.00e+00	0	47	104	0	60	1048570
2026-01-17 14:43:03.08	82.30	1.86	-83.5	-79.0	2.3	0.00e+00	0	47	104	0	60	1048573
2026-01-17 14:43:04.09	82.20	1.92	-83.5	-79.0	2.5	0.00e+00	0	47	104	0	60	1048575
2026-01-17 14:43:05.10	82.09	1.97	-83.5	-79.0	2.5	0.00e+00	0	47	104	0	60	1048567
2026-01-17 14:43:06.11	81.98	2.03	-83.1	-79.0	2.4	0.00e+00	0	47	104	0	60	1048574
2026-01-17 14:43:07.11	81.87	2.09	-83.1	-79.0	2.4	0.00e+00	0	47	104	0	60	1048575
2026-01-17 14:43:08.12	81.76	2.14	-83.5	-79.0	2.2	0.00e+00	0	47	104	0	60	1048575
2026-01-17 14:43:09.13	81.65	2.20	-83.5	-79.0	2.3	0.00e+00	0	47	104	0	60	1048574
2026-01-17 14:43:10.13	81.54	2.26	-83.1	-79.0	2.5	0.00e+00	0	47	104	0	60	1048572
2026-01-17 14:43:11.14	81.42	2.31	-83.1	-79.0	2.5	0.00e+00	0	47	104	0	60	1048574
2026-01-17 14:43:12.15	81.31	2.37	-83.5	-79.0	2.3	0.00e+00	0	47	104	0	60	1048573
2026-01-17 14:43:13.15	81.20	2.43	-83.5	-79.0	2.3	0.00e+00	0	47	104	0	60	1048567
2026-01-17 14:43:14.16	81.09	2.48	-83.5	-79.0	2.4	0.00e+00	0	47	104	0	60	1048574
2026-01-17 14:43:15.16	80.97	2.54	-82.8	-79.0	2.5	0.00e+00	0	47	104	0	60	1048575
2026-01-17 14:43:16.16	80.86	2.60	-83.1	-79.0	2.4	0.00e+00	0	47	104	0	60	1048575
2026-01-17 14:43:17.17	80.74	2.66	-83.5	-79.0	2.3	0.00e+00	0	47	104	0	60	1048573
2026-01-17 14:43:18.18	80.63	2.71	-83.5	-79.0	2.6	0.00e+00	0	47	104	0	60	1048572
2026-01-17 14:43:19.19	80.51	2.77	-83.5	-79.0	2.4	0.00e+00	0	47	104	0	60	1048568
2026-01-17 14:43:20.19	80.39	2.83	-83.1	-79.0	2.5	0.00e+00	0	47	104	0	60	1048573
2026-01-17 14:43:21.20	80.28	2.89	-83.5	-79.0	2.4	0.00e+00	0	47	104	0	60	1048575
2026-01-17 14:43:22.21	80.16	2.94	-83.5	-79.0	2.3	0.00e+00	0	47	104	0	60	1048569
2026-01-17 14:43:23.21	80.04	3.00	-83.1	-79.0	2.5	0.00e+00	0	47	104	0	60	1048575
2026-01-17 14:43:24.22	79.92	3.06	-83.1	-79.0	2.3	0.00e+00	0	47	104	0	60	1048571
2026-01-17 14:43:25.22	79.80	3.12	-82.8	-79.0	2.7	0.00e+00	0	47	104	0	60	1048567
2026-01-17 14:43:26.23	79.68	3.17	-83.5	-79.0	2.1	0.00e+00	0	47	104	0	60	1048571
2026-01-17 14:43:27.23	79.56	3.23	-83.5	-79.0	2.5	0.00e+00	0	47	104	0	60	1048573
2026-01-17 14:43:28.23	79.44	3.29	-83.5	-79.0	2.3	0.00e+00	0	47	104	0	60	1048574
2026-01-17 14:43:29.24	79.32	3.35	-82.8	-79.0	2.7	0.00e+00	0	48	104	0	60	1048575
2026-01-17 14:43:30.24	79.19	3.41	-83.1	-79.0	2.3	0.00e+00	0	47	104	0	60	1048574
2026-01-17 14:43:31.24	79.07	3.46	-83.5	-79.0	2.7	0.00e+00	0	47	104	0	60	1048574
2026-01-17 14:43:32.25	78.95	3.52	-83.5	-79.0	2.3	0.00e+00	0	47	104	0	60	1048567
2026-01-17 14:43:33.25	78.82	3.58	-83.5	-79.0	2.5	0.00e+00	0	47	104	0	60	1048575
2026-01-17 14:43:34.26	78.70	3.64	-83.1	-79.0	2.3	0.00e+00	0	47	104	0	60	1048569
2026-01-17 14:43:35.27	78.57	3.70	-83.1	-79.0	2.3	0.00e+00	0	47	104	0	60	1048572
2026-01-17 14:43:36.27	78.44	3.76	-83.5	-79.0	2.4	0.00e+00	0	47	104	0	60	1048573
2026-01-17 14:43:37.28	78.32	3.81	-83.5	-79.0	2.5	0.00e+00	0	47	104	0	60	1048570
2026-01-17 14:43:38.29	78.19	3.87	-83.5	-79.0	2.5	0.00e+00	0	47	104	0	60	1048575
2026-01-17 14:43:39.29	78.06	3.93	-82.8	-79.0	2.2	0.00e+00	0	47	104	0	60	1048572
2026-01-17 14:43:40.30	77.93	3.99	-83.5	-79.0	2.4	0.00e+00	0	47	104	0	60	1048575
2026-01-17 14:43:41.31	77.80	4.05	-83.5	-79.0	2.2	0.00e+00	0	47	104	0	60	1048575
2026-01-17 14:43:42.31	77.67	4.11	-83.5	-79.0	2.3	0.00e+00	0	47	104	0	60	1048574
2026-01-17 14:43:43.31	77.54	4.17	-83.1	-79.0	2.6	0.00e+00	0	47	104	0	60	1048575
2026-01-17 14:43:44.32	77.40	4.23	-82.8	-79.0	2.3	0.00e+00	0	47	104	0	60	1048571
2026-01-17 14:43:45.32	77.27	4.28	-83.5	-79.0	2.6	0.00e+00	0	47	104	0	60	1048574
2026-01-17 14:43:46.32	77.14	4.34	-83.5	-79.0	2.1	0.00e+00	0	48	104	0	60	1048565
2026-01-17 14:43:47.32	77.01	4.40	-83.5	-79.0	2.4	0.00e+00	0	48	104	0	60	1048572
2026-01-17 14:43:48.33	76.87	4.46	-82.8	-79.0	2.4	0.00e+00	0	47	104	0	60	1048563
2026-01-17 14:43:49.33	76.74	4.52	-83.1	-79.0	2.4	0.00e+00	0	47	104	0	60	1048566
2026-01-17 14:43:50.34	76.60	4.58	-83.5	-79.0	2.2	0.00e+00	0	47	104	0	60	1048572
2026-01-17 14:43:51.35	76.46	4.64	-83.5	-79.0	2.4	0.00e+00	0	48	104	0	60	1048573
2026-01-17 14:43:52.35	76.32	4.70	-83.5	-79.0	2.4	0.00e+00	0	48	104	0	60	1048574
2026-01-17 14:43:53.36	76.19	4.76	-82.8	-79.0	2.5	0.00e+00	0	48	104	0	60	1048575
2026-01-17 14:43:54.36	76.05	4.82	-83.5	-79.0	2.5	0.00e+00	0	48	104	0	60	1048572
2026-01-17 14:43:55.37	75.91	4.88	-83.5	-79.0	2.4	0.00e+00	0	47	104	0	60	1048575
2026-01-17 14:43:56.38	75.77	4.94	-83.5	-79.0	2.5	0.00e+00	0	48	104	0	60	1048575
2026-01-17 14:43:57.38	75.62	4.99	-83.5	-79.0	2.3	0.00e+00	0	48	104	0	60	1048575
2026-01-17 14:43:58.39	75.48	5.05	-83.1	-79.0	2.5	0.00e+00	0	48	104	0	60	1048571
2026-01-17 14:43:59.40	75.34	5.11	-83.5	-79.0	2.4	0.00e+00	0	48	104	0	60	1048571
2026-01-17 14:44:00.40	75.20	5.17	-83.5	-79.0	2.2	0.00e+00	0	48	104	0	60	1048572
2026-01-17 14:44:01.41	75.05	5.23	-83.5	-79.0	2.4	0.00e+00	0	48	104	0	60	1048570
2026-01-17 14:44:02.41	74.91	5.29	-83.1	-79.0	2.3	0.00e+00	0	48	104	0	60	1048575
2026-01-17 14:44:03.42	74.76	5.35	-83.1	-79.0	2.5	0.00e+00	0	48	104	0	60	1048574
2026-01-17 14:44:04.43	74.61	5.41	-83.5	-79.0	2.5	0.00e+00	0	48	104	0	60	1048572
2026-01-17 14:44:05.43	74.47	5.47	-83.5	-79.0	2.4	0.00e+00	0	48	104	0	60	1048575
2026-01-17 14:44:06.44	74.32	5.53	-83.5	-79.0	2.4	0.00e+00	0	48	104	0	60	1048575
2026-01-17 14:44:07.44	74.17	5.59	-82.8	-79.0	2.3	0.00e+00	0	48	104	0	60	1048574
2026-01-17 14:44:08.45	74.02	5.65	-83.1	-79.0	2.3	0.00e+00	0	48	104	0	60	1048574
2026-01-17 14:44:09.46	73.87	5.71	-83.5	-79.0	2.4	0.00e+00	0	48	104	0	60	1048575
2026-01-17 14:44:10.46	73.72	5.77	-83.5	-79.0	2.4	0.00e+00	0	48	104	0	60	1048574
2026-01-17 14:44:11.48	73.56	5.83	-83.5	-79.0	2.5	0.00e+00	0	48	104	0	60	1048573
2026-01-17 14:44:12.49	73.41	5.89	-83.1	-79.0	2.3	0.00e+00	0	48	104	0	60	1048575
2026-01-17 14:44:13.49	73.26	5.95	-83.5	-79.0	2.4	0.00e+00	0	48	104	0	60	1048572
2026-01-17 14:44:14.50	73.10	6.01	-83.5	-79.0	2.3	0.00e+00	0	48	104	0	60	1048573
2026-01-17 14:44:15.51	72.94	6.07	-83.5	-79.0	2.5	0.00e+00	0	48	104	0	60	1048567
2026-01-17 14:44:16.51	72.79	6.13	-83.1	-79.0	2.2	0.00e+00	0	48	104	0	60	1048568
2026-01-17 14:44:17.52	72.63	6.19	-83.1	-79.0	2.3	0.00e+00	0	48	104	0	60	1048574
2026-01-17 14:44:18.52	72.47	6.25	-83.5	-79.0	2.5	0.00e+00	0	48	104	0	60	1048575
2026-01-17 14:44:19.52	72.32	6.31	-83.5	-79.0	2.3	0.00e+00	0	48	104	0	60	1048570
2026-01-17 14:44:20.53	72.16	6.37	-83.5	-79.0	2.7	0.00e+00	0	48	104	0	60	1048575
2026-01-17 14:44:21.53	72.00	6.43	-83.1	-79.0	2.3	0.00e+00	0	48	104	0	60	1048565
2026-01-17 14:44:22.54	71.84	6.49	-83.1	-79.0	2.4	0.00e+00	0	48	104	0	60	1048575
2026-01-17 14:44:23.55	71.67	6.55	-83.5	-79.0	2.6	0.00e+00	0	48	104	0	60	1048573
2026-01-17 14:44:24.56	71.51	6.61	-83.5	-79.0	2.2	0.00e+00	0	48	104	0	60	1048572
2026-01-17 14:44:25.57	71.34	6.67	-83.5	-79.0	2.5	0.00e+00	0	48	104	0	60	1048573
2026-01-17 14:44:26.57	71.18	6.73	-83.1	-79.0	2.4	0.00e+00	0	48	104	0	60	1048575
2026-01-17 14:44:27.58	71.01	6.79	-83.1	-79.0	2.5	0.00e+00	0	48	104	0	60	1048568
2026-01-17 14:44:28.59	70.85	6.85	-83.5	-79.0	2.1	0.00e+00	0	48	104	0	60	1048574
2026-01-17 14:44:29.60	70.68	6.91	-83.5	-79.0	2.5	0.00e+00	0	48	104	0	60	1048574
2026-01-17 14:44:30.60	70.51	6.97	-83.1	-79.0	2.3	0.00e+00	0	48	104	0	60	1048575
2026-01-17 14:44:31.61	70.34	7.03	-83.1	-79.0	2.3	0.00e+00	0	48	104	0	60	1048575
2026-01-17 14:44:32.62	70.17	7.09	-83.5	-79.0	2.4	0.00e+00	0	48	104	0	60	1048575
2026-01-17 14:44:33.63	70.00	7.15	-83.5	-79.0	2.4	0.00e+00	0	48	104	0	60	1048575
2026-01-17 14:44:34.63	69.83	7.21	-83.5	-79.0	2.3	0.00e+00	0	48	104	0	60	1048568
2026-01-17 14:44:35.64	69.66	7.27	-83.5	-79.0	2.4	0.00e+00	0	48	104	0	60	1048574
2026-01-17 14:44:36.65	69.48	7.34	-83.1	-79.0	2.3	0.00e+00	0	48	104	0	60	1048574
2026-01-17 14:44:37.65	69.31	7.39	-83.5	-79.0	2.2	0.00e+00	0	48	104	0	60	1048574
2026-01-17 14:44:38.65	69.14	7.45	-83.5	-79.0	2.4	0.00e+00	0	48	104	0	60	1048573
2026-01-17 14:44:39.66	68.96	7.51	-83.5	-79.0	2.7	0.00e+00	0	48	104	0	60	1048575
2026-01-17 14:44:40.66	68.78	7.57	-83.1	-79.0	2.3	0.00e+00	0	48	104	0	60	1048569
2026-01-17 14:44:41.67	68.60	7.63	-83.5	-79.0	2.3	0.00e+00	0	48	104	0	60	1048575
2026-01-17 14:44:42.68	68.42	7.69	-83.1	-79.0	2.4	0.00e+00	0	48	104	0	60	1048573
2026-01-17 14:44:43.69	68.24	7.75	-83.5	-79.0	2.3	0.00e+00	0	48	104	0	60	1048574
2026-01-17 14:44:44.69	68.06	7.81	-83.5	-79.0	2.5	0.00e+00	0	48	104	0	60	1048569
2026-01-17 14:44:45.70	67.88	7.87	-82.8	-79.0	2.3	0.00e+00	0	48	104	0	60	1048573
2026-01-17 14:44:46.71	67.70	7.93	-83.1	-79.0	2.5	0.00e+00	0	48	104	0	60	1048575
2026-01-17 14:44:47.72	67.51	7.99	-83.5	-79.0	2.3	0.00e+00	0	48	104	0	60	1048568
2026-01-17 14:44:48.72	67.33	8.05	-83.5	-79.0	2.4	0.00e+00	0	48	104	0	60	1048575
2026-01-17 14:44:49.73	67.14	8.11	-83.5	-79.0	2.4	0.00e+00	0	48	104	0	60	1048572
2026-01-17 14:44:50.74	66.96	8.17	-83.1	-79.0	2.3	0.00e+00	0	48	104	0	60	1048575
2026-01-17 14:44:51.74	66.77	8.23	-83.1	-79.0	2.5	0.00e+00	0	48	104	0	60	1048574
2026-01-17 14:44:52.75	66.58	8.29	-83.5	-79.0	2.5	0.00e+00	0	48	104	0	60	1048571
2026-01-17 14:44:53.75	66.39	8.35	-83.5	-79.0	2.6	0.00e+00	0	48	104	0	60	1048568
2026-01-17 14:44:54.76	66.20	8.41	-83.1	-79.0	2.4	0.00e+00	0	48	104	0	60	1048574
2026-01-17 14:44:55.77	66.01	8.47	-83.1	-79.0	2.4	0.00e+00	0	48	104	0	60	1048573
2026-01-17 14:44:56.77	65.82	8.53	-83.5	-79.0	2.6	0.00e+00	0	48	104	0	60	1048575
2026-01-17 14:44:57.78	65.62	8.59	-83.5	-79.0	2.3	0.00e+00	0	48	104	0	60	1048572
2026-01-17 14:44:58.79	65.43	8.65	-83.5	-79.0	2.5	0.00e+00	0	48	104	0	60	1048568
2026-01-17 14:44:59.80	65.23	8.70	-83.1	-79.0	2.5	0.00e+00	0	48	104	0	60	1048572
2026-01-17 14:45:00.80	65.04	8.76	-83.5	-79.0	2.5	0.00e+00	0	48	104	0	60	1048574
2026-01-17 14:45:01.82	64.84	8.82	-83.5	-79.0	2.5	0.00e+00	0	48	104	0	60	1048571
2026-01-17 14:45:02.82	64.64	8.88	-83.5	-79.0	2.3	0.00e+00	0	48	104	0	60	1048571
2026-01-17 14:45:03.83	64.44	8.94	-83.1	-79.0	2.3	0.00e+00	0	48	104	0	60	1048571
2026-01-17 14:45:04.84	64.24	9.00	-83.1	-79.0	2.5	0.00e+00	0	48	104	0	60	1048574
2026-01-17 14:45:05.85	64.04	9.06	-83.5	-79.0	2.3	0.00e+00	0	48	104	0	60	1048575
2026-01-17 14:45:06.85	63.84	9.11	-83.5	-79.0	2.5	0.00e+00	0	48	104	0	60	1048575
2026-01-17 14:45:07.86	63.63	9.17	-83.5	-79.0	2.4	0.00e+00	0	48	104	0	60	1048574
2026-01-17 14:45:08.87	63.43	9.23	-83.1	-79.0	2.5	0.00e+00	0	48	104	0	60	1048572
2026-01-17 14:45:09.87	63.23	9.29	-83.1	-79.0	2.3	0.00e+00	0	48	104	0	60	1048570
2026-01-17 14:45:10.87	63.02	9.34	-83.5	-79.0	2.6	0.00e+00	0	48	104	0	60	1048573
2026-01-17 14:45:11.88	62.81	9.40	-83.5	-79.0	2.6	0.00e+00	0	48	104	0	60	1048573
2026-01-17 14:45:12.89	62.60	9.46	-83.5	-79.0	2.2	0.00e+00	0	48	104	0	60	1048573
2026-01-17 14:45:13.90	62.39	9.52	-83.1	-79.0	2.4	0.00e+00	0	48	104	0	60	1048573
2026-01-17 14:45:14.90	62.18	9.57	-83.1	-79.0	2.4	0.00e+00	0	48	104	0	60	1048574
2026-01-17 14:45:15.92	61.97	9.63	-83.5	-79.0	2.5	0.00e+00	0	48	104	0	60	1048560
2026-01-17 14:45:16.92	61.76	9.69	-83.5	-79.0	2.3	0.00e+00	0	48	104	0	60	1048571
2026-01-17 14:45:17.93	61.55	9.75	-83.5	-79.0	2.4	0.00e+00	0	48	104	0	60	1048575
2026-01-17 14:45:18.94	61.33	9.80	-83.1	-79.0	2.5	0.00e+00	0	48	104	0	60	1048572
2026-01-17 14:45:19.95	61.11	9.86	-83.5	-79.0	2.4	0.00e+00	0	48	104	0	60	1048555
2026-01-17 14:45:20.95	60.90	9.91	-83.5	-79.0	2.5	0.00e+00	0	48	104	0	60	1048566
2026-01-17 14:45:21.96	60.68	9.97	-83.5	-79.0	2.3	0.00e+00	0	48	104	0	60	1048573
2026-01-17 14:45:22.97	60.46	10.03	-83.5	-79.0	2.4	0.00e+00	0	48	104	0	60	1048575
2026-01-17 14:45:23.97	60.24	10.08	-83.1	-79.0	2.5	0.00e+00	0	48	104	0	60	1048575
2026-01-17 14:45:24.98	60.02	10.14	-83.5	-79.0	2.4	0.00e+00	0	48	104	0	60	1048572
2026-01-17 14:45:25.99	59.80	10.19	-83.5	-79.0	2.6	0.00e+00	0	48	104	0	60	1048573
2026-01-17 14:45:27.00	59.58	10.25	-83.1	-79.0	2.3	0.00e+00	0	48	104	0	60	1048575
2026-01-17 14:45:28.01	59.35	10.30	-83.1	-79.0	2.5	0.00e+00	0	48	104	0	60	1048573
2026-01-17 14:45:29.01	59.13	10.36	-83.1	-79.0	2.4	0.00e+00	0	48	104	0	60	1048571
2026-01-17 14:45:30.02	58.90	10.41	-83.1	-79.0	2.3	0.00e+00	0	48	104	0	60	1048575
2026-01-17 14:45:31.02	58.68	10.47	-83.5	-79.0	2.5	0.00e+00	0	48	104	0	60	1048573
2026-01-17 14:45:32.03	58.45	10.52	-83.5	-79.0	2.4	0.00e+00	0	48	104	0	60	1048574
2026-01-17 14:45:33.04	58.22	10.58	-82.8	-79.0	2.5	0.00e+00	0	48	104	0	60	1048574
2026-01-17 14:45:34.05	57.99	10.63	-83.1	-79.0	2.3	0.00e+00	0	48	104	0	60	1048573
2026-01-17 14:45:35.05	57.76	10.68	-83.5	-79.0	2.4	0.00e+00	0	48	104	0	60	1048571
2026-01-17 14:45:36.06	57.53	10.74	-83.5	-79.0	2.4	0.00e+00	0	48	104	0	60	1048573
2026-01-17 14:45:37.07	57.29	10.79	-83.5	-79.0	2.2	0.00e+00	0	48	104	0	60	1048573
2026-01-17 14:45:38.08	57.06	10.84	-83.1	-79.0	2.6	0.00e+00	0	48	104	0	60	1048568
2026-01-17 14:45:39.07	56.83	10.89	-83.5	-79.0	2.3	0.00e+00	0	48	104	0	60	1048574
2026-01-17 14:45:40.08	56.59	10.95	-83.5	-79.0	2.6	0.00e+00	0	48	104	0	60	1048575
2026-01-17 14:45:41.09	56.35	11.00	-83.5	-79.0	2.4	0.00e+00	0	48	104	0	60	1048575
2026-01-17 14:45:42.09	56.11	11.05	-83.1	-79.0	2.4	0.00e+00	0	48	104	0	60	1048571
2026-01-17 14:45:43.10	55.87	11.10	-83.1	-79.0	2.5	0.00e+00	0	48	104	0	60	1048569
2026-01-17 14:45:44.11	55.63	11.15	-83.5	-79.0	2.4	0.00e+00	0	48	104	0	60	1048567
2026-01-17 14:45:45.12	55.39	11.20	-83.5	-79.0	2.4	0.00e+00	0	48	104	0	60	1048573
2026-01-17 14:45:46.13	55.15	11.25	-83.5	-79.0	2.4	0.00e+00	0	48	104	0	60	1048572
2026-01-17 14:45:47.13	54.91	11.30	-83.1	-79.0	2.7	0.00e+00	0	48	104	0	60	1048572
2026-01-17 14:45:48.14	54.66	11.35	-83.1	-79.0	2.6	0.00e+00	0	48	104	0	60	1048573
2026-01-17 14:45:49.15	54.42	11.40	-83.5	-79.0	2.6	0.00e+00	0	48	104	0	60	1048575
2026-01-17 14:45:50.15	54.17	11.45	-83.1	-79.0	2.4	0.00e+00	0	48	104	0	60	1048563
2026-01-17 14:45:51.16	53.92	11.50	-83.5	-79.0	2.5	0.00e+00	0	48	104	0	60	1048575
2026-01-17 14:45:52.17	53.67	11.55	-83.1	-79.0	2.7	0.00e+00	0	48	104	0	60	1048570
2026-01-17 14:45:53.17	53.43	11.60	-83.5	-79.0	2.3	0.00e+00	0	48	104	0	60	1048574
2026-01-17 14:45:54.18	53.18	11.65	-83.5	-79.0	2.6	0.00e+00	0	48	104	0	60	1048575
2026-01-17 14:45:55.19	52.92	11.70	-83.5	-79.0	2.3	0.00e+00	0	48	104	0	60	1048573
2026-01-17 14:45:56.19	52.67	11.74	-83.1	-79.0	2.4	0.00e+00	0	48	104	0	60	1048574
2026-01-17 14:45:57.20	52.42	11.79	-83.1	-79.0	2.6	0.00e+00	0	48	104	0	60	1048574
2026-01-17 14:45:58.20	52.17	11.84	-83.5	-79.0	2.2	0.00e+00	0	48	104	0	60	1048575
2026-01-17 14:45:59.20	51.91	11.88	-83.5	-79.0	2.5	0.00e+00	0	48	104	0	60	1048572
2026-01-17 14:46:00.21	51.66	11.93	-83.5	-79.0	2.4	0.00e+00	0	48	104	0	60	1048574
2026-01-17 14:46:01.22	51.40	11.98	-83.1	-79.0	2.5	0.00e+00	0	48	104	0	60	1048575
2026-01-17 14:46:02.23	51.14	12.02	-83.1	-79.0	2.4	0.00e+00	0	48	104	0	60	1048572
2026-01-17 14:46:03.23	50.88	12.07	-83.5	-79.0	2.3	0.00e+00	0	48	104	0	60	1048573
2026-01-17 14:46:04.24	50.62	12.11	-83.5	-79.0	2.5	0.00e+00	0	48	104	0	60	1048571
2026-01-17 14:46:05.25	50.36	12.15	-83.5	-79.0	2.4	0.00e+00	0	48	104	0	60	1048572
2026-01-17 14:46:06.26	50.10	12.20	-82.8	-79.0	2.3	0.00e+00	0	48	104	0	60	1048571
2026-01-17 14:46:07.26	49.83	12.24	-83.1	-79.0	2.3	0.00e+00	0	48	104	0	60	1048573
2026-01-17 14:46:08.26	49.57	12.28	-83.5	-79.0	2.2	0.00e+00	0	48	104	0	60	1048575
2026-01-17 14:46:09.27	49.31	12.33	-83.5	-79.0	2.4	0.00e+00	0	48	104	0	60	1048575
2026-01-17 14:46:10.28	49.04	12.37	-83.5	-79.0	2.3	0.00e+00	0	48	104	0	60	1048575
2026-01-17 14:46:11.29	48.77	12.41	-83.1	-79.0	2.3	0.00e+00	0	48	104	0	60	1048573
2026-01-17 14:46:12.29	48.51	12.45	-83.5	-79.0	2.4	0.00e+00	0	48	104	0	60	1048567
2026-01-17 14:46:13.30	48.24	12.49	-83.5	-79.0	2.3	0.00e+00	0	48	104	0	60	1048573
2026-01-17 14:46:14.31	47.97	12.53	-83.1	-79.0	2.4	0.00e+00	0	48	104	0	60	1048573
2026-01-17 14:46:15.31	47.70	12.57	-83.5	-79.0	2.4	0.00e+00	0	48	104	0	60	1048574
2026-01-17 14:46:16.32	47.43	12.61	-82.8	-79.0	2.5	0.00e+00	0	48	104	0	60	1048574
2026-01-17 14:46:17.32	47.16	12.65	-83.5	-79.0	2.7	0.00e+00	0	48	104	0	60	1048572
2026-01-17 14:46:18.33	46.88	12.69	-83.5	-79.0	2.6	0.00e+00	0	48	104	0	60	1048572
2026-01-17 14:46:19.33	46.61	12.73	-83.5	-79.0	2.7	0.00e+00	0	48	104	0	60	1048574
2026-01-17 14:46:20.34	46.34	12.76	-83.5	-79.0	2.6	0.00e+00	0	48	104	0	60	1048566
2026-01-17 14:46:21.35	46.06	12.80	-83.1	-79.0	2.5	0.00e+00	0	49	104	0	60	1048572
2026-01-17 14:46:22.35	45.79	12.84	-83.5	-79.0	2.4	0.00e+00	0	48	104	0	60	1048572
2026-01-17 14:46:23.36	45.51	12.87	-83.5	-79.0	2.4	0.00e+00	0	48	104	0	60	1048569
2026-01-17 14:46:24.36	45.23	12.91	-83.5	-79.0	2.5	0.00e+00	0	48	104	0	60	1048574
2026-01-17 14:46:25.37	44.95	12.95	-82.8	-79.0	2.4	0.00e+00	0	48	104	0	60	1048574
2026-01-17 14:46:26.38	44.67	12.98	-83.1	-79.0	2.4	0.00e+00	0	48	104	0	60	1048573
2026-01-17 14:46:27.39	44.39	13.01	-83.5	-79.0	2.6	0.00e+00	0	48	104	0	60	1048571
2026-01-17 14:46:28.39	44.11	13.05	-83.5	-79.0	2.4	0.00e+00	0	48	104	0	60	1048575
2026-01-17 14:46:29.39	43.83	13.08	-83.5	-79.0	2.3	0.00e+00	0	48	104	0	60	1048569
2026-01-17 14:46:30.40	43.55	13.11	-83.1	-79.0	2.5	0.00e+00	0	48	104	0	60	1048573
2026-01-17 14:46:31.40	43.27	13.14	-83.5	-79.0	2.2	0.00e+00	0	48	104	0	60	1048575
2026-01-17 14:46:32.41	42.98	13.18	-83.5	-79.0	2.4	0.00e+00	0	48	104	0	60	1048573
2026-01-17 14:46:33.41	42.70	13.21	-83.5	-79.0	2.5	0.00e+00	0	48	104	0	60	1048575
2026-01-17 14:46:34.42	42.41	13.24	-83.5	-79.0	2.7	0.00e+00	0	48	104	0	60	1048570
2026-01-17 14:46:35.43	42.13	13.27	-83.1	-79.0	2.6	0.00e+00	0	48	104	0	60	1048568
2026-01-17 14:46:36.44	41.84	13.30	-83.5	-79.0	2.7	0.00e+00	0	48	104	0	60	1048574
2026-01-17 14:46:37.45	41.55	13.32	-83.5	-79.0	2.5	0.00e+00	0	48	104	0	60	1048574
2026-01-17 14:46:38.45	41.26	13.35	-83.5	-79.0	2.4	0.00e+00	0	48	104	0	60	1048572
2026-01-17 14:46:39.46	40.97	13.38	-83.1	-79.0	2.6	0.00e+00	0	48	104	0	60	1048575
2026-01-17 14:46:40.47	40.68	13.41	-83.1	-79.0	2.5	0.00e+00	0	48	104	0	60	1048564
2026-01-17 14:46:41.48	40.39	13.43	-83.5	-79.0	2.7	0.00e+00	0	49	104	0	60	1048575
2026-01-17 14:46:42.48	40.11	13.46	-83.1	-79.0	2.3	0.00e+00	0	48	104	0	60	1048575
2026-01-17 14:46:43.49	39.81	13.48	-83.5	-79.0	2.7	0.00e+00	0	48	104	0	60	1048574
2026-01-17 14:46:44.50	39.52	13.51	-83.1	-79.0	2.3	0.00e+00	0	48	104	0	60	1048574
2026-01-17 14:46:45.51	39.23	13.53	-83.5	-79.0	2.4	0.00e+00	0	48	104	0	60	1048573
2026-01-17 14:46:46.50	38.94	13.55	-83.5	-79.0	2.4	0.00e+00	0	48	104	0	60	1048573
2026-01-17 14:46:47.51	38.65	13.58	-83.5	-79.0	2.2	0.00e+00	0	48	104	0	60	1048574
2026-01-17 14:46:48.52	38.35	13.60	-83.5	-79.0	2.5	0.00e+00	0	48	104	0	60	1048575
2026-01-17 14:46:49.53	38.06	13.62	-82.8	-79.0	2.7	0.00e+00	0	48	104	0	60	1048575
2026-01-17 14:46:50.54	37.76	13.64	-83.5	-79.0	2.5	0.00e+00	0	48	104	0	60	1048560
2026-01-17 14:46:51.55	37.46	13.66	-83.5	-79.0	2.4	0.00e+00	0	48	104	0	60	1048573
2026-01-17 14:46:52.55	37.17	13.68	-83.5	-79.0	2.3	0.00e+00	0	48	104	0	60	1048571
2026-01-17 14:46:53.56	36.87	13.70	-83.1	-79.0	2.4	0.00e+00	0	48	104	0	60	1048575
2026-01-17 14:46:54.57	36.57	13.72	-82.8	-79.0	2.5	0.00e+00	0	49	104	0	60	1048574
2026-01-17 14:46:55.58	36.28	13.74	-83.1	-79.0	2.2	0.00e+00	0	48	104	0	60	1048571
2026-01-17 14:46:56.58	35.98	13.75	-83.5	-79.0	2.3	0.00e+00	0	49	104	0	60	1048575
2026-01-17 14:46:57.59	35.68	13.77	-83.5	-79.0	2.4	0.00e+00	0	48	104	0	60	1048572
2026-01-17 14:46:58.60	35.38	13.79	-83.1	-79.0	2.3	0.00e+00	0	48	104	0	60	1048573
2026-01-17 14:46:59.61	35.08	13.80	-83.1	-79.0	2.5	0.00e+00	0	49	104	0	60	1048571
2026-01-17 14:47:00.62	34.78	13.81	-83.5	-79.0	2.3	0.00e+00	0	49	104	0	60	1048573
2026-01-17 14:47:01.62	34.48	13.83	-83.5	-79.0	2.6	0.00e+00	0	49	104	0	60	1048575
2026-01-17 14:47:02.63	34.18	13.84	-83.5	-79.0	2.3	0.00e+00	0	49	104	0	60	1048572
2026-01-17 14:47:03.64	33.88	13.85	-83.1	-79.0	2.7	0.00e+00	0	49	104	0	60	1048574
2026-01-17 14:47:04.64	33.58	13.87	-83.5	-79.0	2.2	0.00e+00	0	49	104	0	60	1048570
2026-01-17 14:47:05.65	33.28	13.88	-83.5	-79.0	2.6	0.00e+00	0	49	104	0	60	1048571
2026-01-17 14:47:06.65	32.98	13.89	-83.5	-79.0	2.6	0.00e+00	0	49	104	0	60	1048573
2026-01-17 14:47:07.66	32.68	13.90	-83.5	-79.0	2.4	0.00e+00	0	49	104	0	60	1048573
2026-01-17 14:47:08.67	32.38	13.91	-83.1	-79.0	2.3	0.00e+00	0	48	104	0	60	1048571
2026-01-17 14:47:09.68	32.08	13.91	-83.5	-79.0	2.5	0.00e+00	0	49	104	0	60	1048573
2026-01-17 14:47:10.68	31.78	13.92	-83.5	-79.0	2.5	0.00e+00	0	48	104	0	60	1048570
2026-01-17 14:47:11.69	31.48	13.93	-83.5	-79.0	2.5	0.00e+00	0	49	104	0	60	1048573
2026-01-17 14:47:12.70	31.17	13.93	-83.1	-79.0	2.5	0.00e+00	0	49	104	0	60	1048575
2026-01-17 14:47:13.71	30.87	13.94	-83.1	-79.0	2.4	0.00e+00	0	49	104	0	60	1048571
2026-01-17 14:47:14.72	30.57	13.94	-83.5	-79.0	2.4	0.00e+00	0	49	104	0	60	1048570
2026-01-17 14:47:15.73	30.26	13.95	-83.5	-79.0	2.5	0.00e+00	0	49	104	0	60	1048575
2026-01-17 14:47:16.73	29.96	13.95	-83.5	-79.0	2.4	0.00e+00	0	49	104	0	60	1048574
2026-01-17 14:47:17.74	29.66	13.96	-82.8	-79.0	2.5	0.00e+00	0	48	104	0	60	1048574
2026-01-17 14:47:18.75	29.35	13.96	-83.1	-79.0	2.5	0.00e+00	0	48	104	0	60	1048575
2026-01-17 14:47:19.75	29.05	13.96	-83.5	-79.0	2.4	0.00e+00	0	49	104	0	60	1048572
2026-01-17 14:47:20.76	28.75	13.96	-83.5	-79.0	2.5	0.00e+00	0	49	104	0	60	1048573
2026-01-17 14:47:21.77	28.45	13.96	-83.5	-79.0	2.4	0.00e+00	0	49	104	0	60	1048574
2026-01-17 14:47:22.77	28.15	13.96	-82.8	-79.0	2.3	0.00e+00	0	49	104	0	60	1048574
2026-01-17 14:47:23.78	27.84	13.96	-83.5	-79.0	2.4	0.00e+00	0	49	104	0	60	1048568
2026-01-17 14:47:24.78	27.54	13.96	-83.5	-79.0	2.5	0.00e+00	0	49	104	0	60	1048570
2026-01-17 14:47:25.79	27.24	13.95	-83.5	-79.0	2.6	0.00e+00	0	49	104	0	60	1048573
2026-01-17 14:47:26.79	26.94	13.95	-83.5	-79.0	2.4	0.00e+00	0	49	104	0	60	1048574
2026-01-17 14:47:27.80	26.64	13.95	-83.1	-79.0	2.4	0.00e+00	0	49	104	0	60	1048571
2026-01-17 14:47:28.81	26.33	13.94	-83.5	-79.0	2.4	0.00e+00	0	49	104	0	60	1048574
2026-01-17 14:47:29.81	26.03	13.94	-83.5	-79.0	2.4	0.00e+00	0	48	104	0	60	1048574
2026-01-17 14:47:30.82	25.73	13.93	-83.5	-79.0	2.2	0.00e+00	0	48	104	0	60	1048567
2026-01-17 14:47:31.83	25.43	13.92	-83.1	-79.0	2.5	0.00e+00	0	48	104	0	60	1048574
2026-01-17 14:47:32.84	25.12	13.91	-83.1	-79.0	2.5	0.00e+00	0	49	104	0	60	1048575
2026-01-17 14:47:33.85	24.82	13.91	-83.5	-79.0	2.2	0.00e+00	0	48	104	0	60	1048575
2026-01-17 14:47:34.85	24.52	13.90	-83.5	-79.0	2.6	0.00e+00	0	49	104	0	60	1048574
2026-01-17 14:47:35.86	24.22	13.89	-83.5	-79.0	2.2	0.00e+00	0	49	104	0	60	1048574
2026-01-17 14:47:36.87	23.92	13.88	-83.1	-79.0	2.5	0.00e+00	0	49	104	0	60	1048573
2026-01-17 14:47:37.88	23.62	13.87	-83.5	-79.0	2.3	0.00e+00	0	49	104	0	60	1048567
2026-01-17 14:47:38.89	23.32	13.86	-83.5	-79.0	2.4	0.00e+00	0	49	104	0	60	1048572
2026-01-17 14:47:39.89	23.02	13.84	-83.5	-79.0	2.4	0.00e+00	0	49	104	0	60	1048573
2026-01-17 14:47:40.90	22.72	13.83	-83.5	-79.0	2.4	0.00e+00	0	49	104	0	60	1048569
2026-01-17 14:47:41.90	22.42	13.82	-82.8	-79.0	2.4	0.00e+00	0	49	104	0	60	1048572
2026-01-17 14:47:42.91	22.12	13.80	-83.5	-79.0	2.4	0.00e+00	0	48	104	0	60	1048572
2026-01-17 14:47:43.92	21.82	13.79	-83.5	-79.0	2.5	0.00e+00	0	49	104	0	60	1048572
2026-01-17 14:47:44.93	21.52	13.77	-83.5	-79.0	2.2	0.00e+00	0	49	104	0	60	1048571
2026-01-17 14:47:45.93	21.23	13.76	-83.1	-79.0	2.3	0.00e+00	0	49	104	0	60	1048572
2026-01-17 14:47:46.94	20.93	13.74	-83.1	-79.0	2.3	0.00e+00	0	49	104	0	60	1048575
2026-01-17 14:47:47.95	20.63	13.72	-83.5	-79.0	2.3	0.00e+00	0	49	104	0	60	1048570
2026-01-17 14:47:48.96	20.33	13.70	-83.5	-79.0	2.4	0.00e+00	0	49	104	0	60	1048574
2026-01-17 14:47:49.97	20.03	13.69	-83.5	-79.0	2.4	0.00e+00	0	48	104	0	60	1048560
2026-01-17 14:47:50.97	19.74	13.67	-83.1	-79.0	2.4	0.00e+00	0	48	104	0	60	1048575
2026-01-17 14:47:51.98	19.44	13.65	-83.5	-79.0	2.4	0.00e+00	0	48	104	0	60	1048556
2026-01-17 14:47:52.99	19.15	13.62	-83.1	-79.0	2.3	0.00e+00	0	49	104	0	60	1048573
2026-01-17 14:47:53.99	18.86	13.60	-83.5	-79.0	2.3	0.00e+00	0	48	104	0	60	1048574
2026-01-17 14:47:54.99	18.57	13.58	-83.1	-79.0	2.3	0.00e+00	0	49	104	0	60	1048571
2026-01-17 14:47:56.00	18.27	13.56	-83.1	-79.0	2.4	0.00e+00	0	49	104	0	60	1048570
2026-01-17 14:47:57.01	17.98	13.54	-83.5	-79.0	2.4	0.00e+00	0	49	104	0	60	1048573
2026-01-17 14:47:58.02	17.68	13.51	-83.5	-79.0	2.7	0.00e+00	0	49	104	0	60	1048575
2026-01-17 14:47:59.02	17.39	13.49	-83.5	-79.0	2.4	0.00e+00	0	49	104	0	60	1048575
2026-01-17 14:48:00.03	17.10	13.46	-83.5	-79.0	2.5	0.00e+00	0	49	104	0	60	1048575
2026-01-17 14:48:01.04	16.81	13.44	-83.1	-79.0	2.5	0.00e+00	0	49	104	0	60	1048571
2026-01-17 14:48:02.05	16.52	13.41	-83.5	-79.0	2.5	0.00e+00	0	49	104	0	60	1048572
2026-01-17 14:48:03.05	16.23	13.38	-83.5	-79.0	2.5	0.00e+00	0	48	104	0	60	1048575
2026-01-17 14:48:04.06	15.94	13.36	-83.5	-79.0	2.5	0.00e+00	0	49	104	0	60	1048568
2026-01-17 14:48:05.07	15.66	13.33	-83.1	-79.0	2.3	0.00e+00	0	49	104	0	60	1048575
2026-01-17 14:48:06.08	15.37	13.30	-82.8	-79.0	2.5	0.00e+00	0	49	104	0	60	1048575
2026-01-17 14:48:07.08	15.08	13.27	-83.5	-79.0	2.1	0.00e+00	0	49	104	0	60	1048574
2026-01-17 14:48:08.09	14.80	13.24	-83.5	-79.0	2.4	0.00e+00	0	48	104	0	60	1048572
2026-01-17 14:48:09.09	14.51	13.21	-83.5	-79.0	2.3	0.00e+00	0	49	104	0	60	1048575
2026-01-17 14:48:10.10	14.23	13.18	-83.1	-79.0	2.4	0.00e+00	0	49	104	0	60	1048573
2026-01-17 14:48:11.11	13.94	13.15	-83.1	-79.0	2.4	0.00e+00	0	49	104	0	60	1048574
2026-01-17 14:48:12.11	13.66	13.12	-83.5	-79.0	2.3	0.00e+00	0	49	104	0	60	1048569
2026-01-17 14:48:13.12	13.38	13.09	-83.5	-79.0	2.6	0.00e+00	0	49	104	0	60	1048564
2026-01-17 14:48:14.12	13.10	13.05	-83.5	-79.0	2.2	0.00e+00	0	49	104	0	60	1048575
2026-01-17 14:48:15.13	12.82	13.02	-83.1	-79.0	2.7	0.00e+00	0	49	104	0	60	1048574
2026-01-17 14:48:16.13	12.54	12.99	-83.1	-79.0	2.4	0.00e+00	0	49	104	0	60	1048574
2026-01-17 14:48:17.14	12.26	12.95	-83.5	-79.0	2.2	0.00e+00	0	48	104	0	60	1048563
2026-01-17 14:48:18.15	11.98	12.92	-83.5	-79.0	2.3	0.00e+00	0	49	104	0	60	1048572
2026-01-17 14:48:19.16	11.70	12.88	-82.8	-79.0	2.3	0.00e+00	0	49	104	0	60	1048573
2026-01-17 14:48:20.17	11.43	12.85	-83.1	-79.0	2.3	0.00e+00	0	49	104	0	60	1048574
2026-01-17 14:48:21.17	11.15	12.81	-83.5	-79.0	2.5	0.00e+00	0	49	104	0	60	1048573
2026-01-17 14:48:22.18	10.88	12.77	-83.1	-79.0	2.3	0.00e+00	0	49	104	0	60	1048575
2026-01-17 14:48:23.19	10.60	12.73	-83.5	-79.0	2.5	0.00e+00	0	49	104	0	60	1048575
2026-01-17 14:48:24.19	10.33	12.70	-83.1	-79.0	2.4	0.00e+00	0	49	104	0	60	1048575
2026-01-17 14:48:25.20	10.06	12.66	-83.5	-79.0	2.4	0.00e+00	0	49	104	0	60	1048573
2026-01-17 14:48:26.21	9.78	12.62	-83.5	-79.0	2.3	0.00e+00	0	49	104	0	60	1048571
2026-01-17 14:48:27.21	9.52	12.58	-83.5	-79.0	2.4	0.00e+00	0	49	104	0	60	1048565
2026-01-17 14:48:28.22	9.24	12.54	-83.5	-79.0	2.4	0.00e+00	0	49	104	0	60	1048572
2026-01-17 14:48:29.23	8.97	12.50	-82.8	-79.0	2.4	0.00e+00	0	49	104	0	60	1048575
2026-01-17 14:48:30.23	8.71	12.46	-83.1	-79.0	2.7	0.00e+00	0	48	104	0	60	1048575
2026-01-17 14:48:31.24	8.44	12.42	-83.5	-79.0	2.3	0.00e+00	0	49	104	0	60	1048575
2026-01-17 14:48:32.24	8.18	12.38	-83.5	-79.0	2.4	0.00e+00	0	49	104	0	60	1048575
2026-01-17 14:48:33.25	7.91	12.34	-83.5	-79.0	2.3	0.00e+00	0	48	104	0	60	1048575
2026-01-17 14:48:34.26	7.64	12.29	-83.1	-79.0	2.4	0.00e+00	0	49	104	0	60	1048572
2026-01-17 14:48:35.27	7.38	12.25	-83.5	-79.0	2.4	0.00e+00	0	49	104	0	60	1048574
2026-01-17 14:48:36.28	7.12	12.21	-83.5	-79.0	2.3	0.00e+00	0	49	104	0	60	1048569
2026-01-17 14:48:37.29	6.85	12.16	-83.5	-79.0	2.5	0.00e+00	0	49	104	0	60	1048575
2026-01-17 14:48:38.29	6.60	12.12	-83.5	-79.0	2.3	0.00e+00	0	49	104	0	60	1048574
2026-01-17 14:48:39.30	6.34	12.08	-83.1	-79.0	2.1	0.00e+00	0	49	104	0	60	1048575
2026-01-17 14:48:40.31	6.08	12.03	-83.1	-79.0	2.4	0.00e+00	0	49	104	0	60	1048574
2026-01-17 14:48:41.32	5.82	11.98	-83.5	-79.0	2.2	0.00e+00	0	49	104	0	60	1048573
2026-01-17 14:48:42.33	5.56	11.94	-83.5	-79.0	2.5	0.00e+00	0	49	104	0	60	1048574
2026-01-17 14:48:43.33	5.31	11.89	-83.1	-79.0	2.4	0.00e+00	0	49	104	0	60	1048569
2026-01-17 14:48:44.34	5.05	11.85	-83.1	-79.0	2.3	0.00e+00	0	49	104	0	60	1048573
2026-01-17 14:48:45.34	4.80	11.80	-83.5	-79.0	2.5	0.00e+00	0	49	104	0	60	1048575
2026-01-17 14:48:46.35	4.54	11.75	-83.5	-79.0	2.5	0.00e+00	0	49	104	0	60	1048574
2026-01-17 14:48:47.36	4.29	11.71	-83.5	-79.0	2.6	0.00e+00	0	49	104	0	60	1048574
2026-01-17 14:48:48.37	4.04	11.66	-83.1	-79.0	2.6	0.00e+00	0	49	104	0	60	1048575
2026-01-17 14:48:49.38	3.79	11.61	-83.5	-79.0	2.4	0.00e+00	0	49	104	0	60	1048567
2026-01-17 14:48:50.39	3.54	11.56	-83.5	-79.0	2.4	0.00e+00	0	49	104	0	60	1048574
2026-01-17 14:48:51.40	3.29	11.51	-83.5	-79.0	2.4	0.00e+00	0	49	104	0	60	1048570
2026-01-17 14:48:52.40	3.05	11.46	-83.1	-79.0	2.5	0.00e+00	0	49	104	0	60	1048573
2026-01-17 14:48:53.41	2.80	11.42	-82.8	-79.0	2.4	0.00e+00	0	49	104	0	60	1048575
2026-01-17 14:48:54.42	2.55	11.37	-83.5	-79.0	2.5	0.00e+00	0	49	104	0	60	1048572
2026-01-17 14:48:55.43	2.31	11.32	-83.5	-79.0	2.2	0.00e+00	0	49	104	0	60	1048573
2026-01-17 14:48:56.44	2.06	11.27	-83.5	-79.0	2.4	0.00e+00	0	49	104	0	60	1048574
2026-01-17 14:48:57.44	1.82	11.21	-83.1	-79.0	2.5	0.00e+00	0	49	104	0	60	1048572
2026-01-17 14:48:58.45	1.58	11.16	-83.1	-79.0	2.3	0.00e+00	0	49	104	0	60	1048575
2026-01-17 14:48:59.45	1.34	11.11	-83.5	-79.0	2.4	0.00e+00	0	49	104	0	60	1048573
2026-01-17 14:49:00.46	1.11	11.06	-83.5	-79.0	2.3	0.00e+00	0	49	104	0	60	1048574
2026-01-17 14:49:01.47	0.87	11.01	-83.5	-79.0	2.5	0.00e+00	0	49	104	0	60	1048575
2026-01-17 14:49:02.48	0.63	10.96	-83.1	-79.0	2.1	0.00e+00	0	49	104	0	60	1048572
2026-01-17 14:49:03.48	0.40	10.91	-83.1	-79.0	2.4	0.00e+00	0	49	104	0	60	1048575
2026-01-17 14:49:04.48	0.16	10.85	-83.5	-79.0	2.4	0.00e+00	0	49	104	0	60	1048573
2026-01-17 14:49:05.49	359.93	10.80	-83.5	-79.0	2.4	0.00e+00	0	49	104	0	60	1048575
2026-01-17 14:49:06.49	359.70	10.75	-83.1	-79.0	2.3	0.00e+00	0	49	104	0	60	1048569
2026-01-17 14:49:07.49	359.47	10.70	-83.1	-79.0	2.2	0.00e+00	0	49	104	0	60	1048571
2026-01-17 14:49:08.50	359.24	10.64	-83.5	-79.0	2.5	0.00e+00	0	49	104	0	60	1048574
2026-01-17 14:49:09.50	359.01	10.59	-83.1	-79.0	2.3	0.00e+00	0	49	104	0	60	1048575
2026-01-17 14:49:10.51	358.78	10.54	-83.5	-79.0	2.5	0.00e+00	0	49	104	0	60	1048564
2026-01-17 14:49:11.51	358.55	10.48	-83.5	-79.0	2.5	0.00e+00	0	49	104	0	60	1048574
2026-01-17 14:49:12.52	358.33	10.43	-83.1	-79.0	2.4	0.00e+00	0	49	104	0	60	1048566
2026-01-17 14:49:13.53	358.10	10.37	-83.5	-79.0	2.4	0.00e+00	0	49	104	0	60	1048573
2026-01-17 14:49:14.53	357.88	10.32	-83.5	-79.0	2.4	0.00e+00	0	49	104	0	60	1048575
2026-01-17 14:49:15.54	357.65	10.26	-83.5	-79.0	2.3	0.00e+00	0	49	104	0	60	1048575
2026-01-17 14:49:16.55	357.43	10.21	-82.8	-79.0	2.5	0.00e+00	0	49	104	0	60	1048574
2026-01-17 14:49:17.55	357.21	10.15	-83.5	-79.0	2.3	0.00e+00	0	49	104	0	60	1048564
2026-01-17 14:49:18.56	356.99	10.10	-83.5	-79.0	2.4	0.00e+00	0	49	104	0	60	1048567
2026-01-17 14:49:19.56	356.77	10.04	-83.5	-79.0	2.3	0.00e+00	0	49	104	0	60	1048574
2026-01-17 14:49:20.57	356.55	9.99	-83.5	-79.0	2.7	0.00e+00	0	49	104	0	60	1048573
2026-01-17 14:49:21.57	356.34	9.93	-82.8	-79.0	2.3	0.00e+00	0	49	104	0	60	1048574
2026-01-17 14:49:22.58	356.12	9.88	-83.5	-79.0	2.5	0.00e+00	0	49	104	0	60	1048575
2026-01-17 14:49:23.59	355.91	9.82	-83.5	-79.0	2.5	0.00e+00	0	49	104	0	60	1048572
2026-01-17 14:49:24.60	355.69	9.76	-83.5	-79.0	2.3	0.00e+00	0	49	104	0	60	1048574
2026-01-17 14:49:25.61	355.48	9.71	-83.1	-79.0	2.4	0.00e+00	0	49	104	0	60	1048575
2026-01-17 14:49:26.61	355.27	9.65	-83.1	-79.0	2.3	0.00e+00	0	49	104	0	60	1048571
2026-01-17 14:49:27.62	355.06	9.59	-83.5	-79.0	2.3	0.00e+00	0	49	104	0	60	1048575
2026-01-17 14:49:28.63	354.84	9.54	-83.5	-79.0	2.5	0.00e+00	0	49	104	0	60	1048575
2026-01-17 14:49:29.64	354.63	9.48	-83.5	-79.0	2.3	0.00e+00	0	49	104	0	60	1048574
2026-01-17 14:49:30.65	354.43	9.42	-83.5	-79.0	2.7	0.00e+00	0	49	104	0	60	1048568
2026-01-17 14:49:31.65	354.22	9.36	-83.1	-79.0	2.3	0.00e+00	0	49	104	0	60	1048574
2026-01-17 14:49:32.66	354.01	9.31	-83.5	-79.0	2.6	0.00e+00	0	49	104	0	60	1048575
2026-01-17 14:49:33.67	353.81	9.25	-83.5	-79.0	2.3	0.00e+00	0	49	104	0	60	1048565
2026-01-17 14:49:34.68	353.60	9.19	-83.5	-79.0	2.3	0.00e+00	0	49	104	0	60	1048573
2026-01-17 14:49:35.68	353.40	9.13	-83.1	-79.0	2.5	0.00e+00	0	49	104	0	60	1048574
2026-01-17 14:49:36.69	353.20	9.07	-83.1	-79.0	2.4	0.00e+00	0	49	104	0	60	1048574
2026-01-17 14:49:37.70	353.00	9.02	-83.5	-79.0	2.6	0.00e+00	0	49	104	0	60	1048572
2026-01-17 14:49:38.71	352.80	8.96	-83.5	-79.0	2.3	0.00e+00	0	49	104	0	60	1048572
2026-01-17 14:49:39.72	352.60	8.90	-83.1	-79.0	2.3	0.00e+00	0	49	104	0	60	1048575
2026-01-17 14:49:40.72	352.40	8.84	-83.1	-79.0	2.4	0.00e+00	0	49	104	0	60	1048575
2026-01-17 14:49:41.73	352.21	8.78	-83.1	-79.0	2.4	0.00e+00	0	49	104	0	60	1048575
2026-01-17 14:49:42.74	352.01	8.72	-83.5	-79.0	2.4	0.00e+00	0	49	104	0	60	1048574
2026-01-17 14:49:43.75	351.81	8.66	-83.5	-79.0	2.4	0.00e+00	0	49	104	0	60	1048575
2026-01-17 14:49:44.76	351.62	8.61	-83.1	-79.0	2.5	0.00e+00	0	49	104	0	60	1048574
2026-01-17 14:49:45.77	351.43	8.55	-83.1	-79.0	2.4	0.00e+00	0	49	104	0	60	1048572
2026-01-17 14:49:46.77	351.24	8.49	-83.5	-79.0	2.3	0.00e+00	0	49	104	0	60	1048572
2026-01-17 14:49:47.78	351.04	8.43	-83.5	-79.0	2.4	0.00e+00	0	49	104	0	60	1048573
2026-01-17 14:49:48.79	350.85	8.37	-83.5	-79.0	2.3	0.00e+00	0	49	104	0	60	1048574
2026-01-17 14:49:49.79	350.67	8.31	-83.1	-79.0	2.4	0.00e+00	0	49	104	0	60	1048572
2026-01-17 14:49:50.79	350.48	8.25	-83.1	-79.0	2.3	0.00e+00	0	49	104	0	60	1048573
2026-01-17 14:49:51.79	350.29	8.19	-83.5	-79.0	2.4	0.00e+00	0	49	104	0	60	1048575
2026-01-17 14:49:52.80	350.11	8.13	-83.5	-79.0	2.4	0.00e+00	0	49	104	0	60	1048573
2026-01-17 14:49:53.80	349.92	8.07	-83.5	-79.0	2.3	0.00e+00	0	49	104	0	60	1048574
2026-01-17 14:49:54.81	349.74	8.02	-83.1	-79.0	2.4	0.00e+00	0	49	104	0	60	1048567
2026-01-17 14:49:55.81	349.56	7.96	-83.5	-79.0	2.4	0.00e+00	0	49	104	0	60	1048572
2026-01-17 14:49:56.82	349.37	7.90	-83.5	-79.0	2.3	0.00e+00	0	49	104	0	60	1048574
2026-01-17 14:49:57.83	349.19	7.84	-83.5	-79.0	2.6	0.00e+00	0	49	104	0	60	1048574
2026-01-17 14:49:58.83	349.01	7.78	-83.5	-79.0	2.3	0.00e+00	0	49	104	0	60	1048571
2026-01-17 14:49:59.84	348.83	7.72	-83.1	-79.0	2.5	0.00e+00	0	49	104	0	60	1048575
2026-01-17 14:50:00.85	348.65	7.66	-83.5	-79.0	2.5	0.00e+00	0	49	104	0	60	1048571
2026-01-17 14:50:01.86	348.47	7.60	-83.5	-79.0	2.4	0.00e+00	0	49	104	0	60	1048574
2026-01-17 14:50:02.87	348.30	7.54	-83.5	-79.0	2.3	0.00e+00	0	49	104	0	60	1048574
2026-01-17 14:50:03.88	348.12	7.48	-83.1	-79.0	2.7	0.00e+00	0	49	104	0	60	1048575
2026-01-17 14:50:04.89	347.94	7.42	-83.1	-79.0	2.3	0.00e+00	0	49	104	0	60	1048575
2026-01-17 14:50:05.89	347.77	7.36	-83.5	-79.0	2.4	0.00e+00	0	49	104	0	60	1048574
2026-01-17 14:50:06.90	347.60	7.30	-83.5	-79.0	2.4	0.00e+00	0	49	104	0	60	1048575
2026-01-17 14:50:07.91	347.43	7.24	-83.5	-79.0	2.2	0.00e+00	0	49	104	0	60	1048574
2026-01-17 14:50:08.91	347.26	7.18	-82.8	-79.0	2.4	0.00e+00	0	49	104	0	60	1048575
2026-01-17 14:50:09.92	347.08	7.12	-83.1	-79.0	2.3	0.00e+00	0	49	104	0	60	1048571
2026-01-17 14:50:10.92	346.92	7.06	-83.5	-79.0	2.6	0.00e+00	0	49	104	0	60	1048572
2026-01-17 14:50:11.93	346.75	7.00	-83.5	-79.0	2.5	0.00e+00	0	49	104	0	60	1048573
2026-01-17 14:50:12.93	346.58	6.94	-83.5	-79.0	2.6	0.00e+00	0	49	104	0	60	1048573
2026-01-17 14:50:13.94	346.41	6.88	-83.1	-79.0	2.3	0.00e+00	0	49	104	0	60	1048574
2026-01-17 14:50:14.95	346.25	6.82	-83.5	-79.0	2.5	0.00e+00	0	49	104	0	60	1048573
2026-01-17 14:50:15.95	346.08	6.76	-83.5	-79.0	2.5	0.00e+00	0	49	104	0	60	1048562
2026-01-17 14:50:16.96	345.92	6.70	-83.5	-79.0	2.4	0.00e+00	0	49	104	0	60	1048569
2026-01-17 14:50:17.97	345.75	6.64	-83.5	-79.0	2.6	0.00e+00	0	49	104	0	60	1048574
2026-01-17 14:50:18.97	345.59	6.58	-83.1	-79.0	2.3	0.00e+00	0	49	104	0	60	1048575
2026-01-17 14:50:19.98	345.43	6.52	-83.1	-79.0	2.7	0.00e+00	0	49	104	0	60	1048575
2026-01-17 14:50:20.98	345.27	6.46	-83.5	-79.0	2.4	0.00e+00	0	49	104	0	60	1048574
2026-01-17 14:50:21.99	345.11	6.40	-83.5	-79.0	2.6	0.00e+00	0	49	104	0	60	1048566
2026-01-17 14:50:22.99	344.95	6.34	-83.1	-79.0	2.5	0.00e+00	0	49	104	0	60	1048571
2026-01-17 14:50:24.00	344.79	6.28	-83.1	-79.0	2.5	0.00e+00	0	49	104	0	60	1048575
2026-01-17 14:50:25.00	344.64	6.22	-83.5	-79.0	2.4	0.00e+00	0	49	104	0	60	1048575
2026-01-17 14:50:26.01	344.48	6.16	-83.5	-79.0	2.3	0.00e+00	0	49	104	0	60	1048571
2026-01-17 14:50:27.02	344.32	6.10	-83.5	-79.0	2.4	0.00e+00	0	49	104	0	60	1048572
2026-01-17 14:50:28.02	344.17	6.04	-83.1	-79.0	2.4	0.00e+00	0	49	104	0	60	1048574
2026-01-17 14:50:29.03	344.01	5.98	-83.1	-79.0	2.4	0.00e+00	0	49	104	0	60	1048575
2026-01-17 14:50:30.03	343.86	5.92	-83.5	-79.0	2.4	0.00e+00	0	49	104	0	60	1048571
2026-01-17 14:50:31.03	343.71	5.86	-83.5	-79.0	2.4	0.00e+00	0	49	104	0	60	1048575
2026-01-17 14:50:32.04	343.56	5.80	-83.5	-79.0	2.5	0.00e+00	0	49	104	0	60	1048574
2026-01-17 14:50:33.05	343.41	5.74	-83.1	-79.0	2.5	0.00e+00	0	49	104	0	60	1048572
2026-01-17 14:50:34.05	343.26	5.68	-83.5	-79.0	2.4	0.00e+00	0	49	104	0	60	1048575
2026-01-17 14:50:35.06	343.11	5.62	-83.5	-79.0	2.3	0.00e+00	0	49	104	0	60	1048567
2026-01-17 14:50:36.07	342.96	5.56	-83.5	-79.0	2.3	0.00e+00	0	49	104	0	60	1048573
2026-01-17 14:50:37.08	342.81	5.50	-83.1	-79.0	2.4	0.00e+00	0	49	104	0	60	1048574
2026-01-17 14:50:38.08	342.66	5.44	-82.8	-79.0	2.4	0.00e+00	0	49	104	0	60	1048568
2026-01-17 14:50:39.09	342.52	5.38	-83.5	-79.0	2.3	0.00e+00	0	49	104	0	60	1048574
2026-01-17 14:50:40.09	342.37	5.32	-83.5	-79.0	2.4	0.00e+00	0	49	104	0	60	1048573
2026-01-17 14:50:41.09	342.23	5.26	-83.5	-79.0	2.3	0.00e+00	0	49	104	0	60	1048573
2026-01-17 14:50:42.09	342.08	5.20	-83.1	-79.0	2.4	0.00e+00	0	49	104	0	60	1048573
2026-01-17 14:50:43.10	341.94	5.15	-83.1	-79.0	2.5	0.00e+00	0	49	104	0	60	1048571
2026-01-17 14:50:44.11	341.80	5.09	-83.5	-79.0	2.3	0.00e+00	0	49	104	0	60	1048573
2026-01-17 14:50:45.11	341.66	5.03	-83.5	-79.0	2.4	0.00e+00	0	49	104	0	60	1048573
2026-01-17 14:50:46.12	341.51	4.97	-83.5	-79.0	2.5	0.00e+00	0	49	104	0	60	1048574
2026-01-17 14:50:47.13	341.37	4.91	-83.1	-79.0	2.2	0.00e+00	0	49	104	0	60	1048574
2026-01-17 14:50:48.13	341.24	4.85	-83.5	-79.0	2.5	0.00e+00	0	49	104	0	60	1048573
2026-01-17 14:50:49.14	341.10	4.79	-83.5	-79.0	2.5	0.00e+00	0	49	104	0	60	1048575
2026-01-17 14:50:50.14	340.96	4.73	-83.5	-79.0	2.3	0.00e+00	0	49	104	0	60	1048570
2026-01-17 14:50:51.15	340.82	4.67	-83.5	-79.0	2.4	0.00e+00	0	49	104	0	60	1048571
2026-01-17 14:50:52.16	340.68	4.61	-83.1	-79.0	2.2	0.00e+00	0	49	104	0	60	1048575
2026-01-17 14:50:53.17	340.55	4.55	-83.1	-79.0	2.7	0.00e+00	0	49	104	0	60	1048575
2026-01-17 14:50:54.17	340.41	4.49	-83.5	-79.0	2.3	0.00e+00	0	49	104	0	60	1048574
2026-01-17 14:50:55.18	340.28	4.43	-83.5	-79.0	2.5	0.00e+00	0	49	104	0	60	1048575
2026-01-17 14:50:56.19	340.14	4.38	-83.1	-79.0	2.5	0.00e+00	0	49	104	0	60	1048575
2026-01-17 14:50:57.20	340.01	4.32	-83.1	-79.0	2.4	0.00e+00	0	49	104	0	60	1048571
2026-01-17 14:50:58.21	339.88	4.26	-83.5	-79.0	2.5	0.00e+00	0	49	104	0	60	1048571
2026-01-17 14:50:59.22	339.74	4.20	-83.5	-79.0	2.2	0.00e+00	0	49	104	0	60	1048563
2026-01-17 14:51:00.22	339.61	4.14	-83.5	-79.0	2.4	0.00e+00	0	49	104	0	60	1048571
2026-01-17 14:51:01.23	339.48	4.08	-82.8	-79.0	2.5	0.00e+00	0	49	104	0	60	1048573
2026-01-17 14:51:02.24	339.35	4.02	-83.5	-79.0	2.6	0.00e+00	0	49	104	0	60	1048574
2026-01-17 14:51:03.24	339.23	3.96	-83.5	-79.0	2.5	0.00e+00	0	49	104	0	60	1048574
2026-01-17 14:51:04.25	339.10	3.90	-83.5	-79.0	2.4	0.00e+00	0	49	104	0	60	1048571
2026-01-17 14:51:05.25	338.97	3.85	-83.5	-79.0	2.3	0.00e+00	0	49	104	0	60	1048570
2026-01-17 14:51:06.26	338.84	3.79	-83.1	-79.0	2.4	0.00e+00	0	49	104	0	60	1048572
2026-01-17 14:51:07.27	338.71	3.73	-83.1	-79.0	2.3	0.00e+00	0	49	104	0	60	1048575
2026-01-17 14:51:08.27	338.59	3.67	-83.5	-79.0	2.4	0.00e+00	0	49	104	0	60	1048566
2026-01-17 14:51:09.28	338.46	3.61	-83.5	-79.0	2.3	0.00e+00	0	49	104	0	60	1048575
2026-01-17 14:51:10.29	338.34	3.55	-83.5	-79.0	2.3	0.00e+00	0	49	104	0	60	1048572
2026-01-17 14:51:11.29	338.22	3.50	-83.1	-79.0	2.4	0.00e+00	0	49	104	0	60	1048575
2026-01-17 14:51:12.29	338.09	3.44	-83.5	-79.0	2.3	0.00e+00	0	49	104	0	60	1048572
2026-01-17 14:51:13.30	337.97	3.38	-83.1	-79.0	2.5	0.00e+00	0	49	104	0	60	1048571
2026-01-17 14:51:14.31	337.85	3.32	-83.5	-79.0	2.3	0.00e+00	0	49	104	0	60	1048575
2026-01-17 14:51:15.31	337.73	3.27	-83.1	-79.0	2.4	0.00e+00	0	49	104	0	60	1048570
2026-01-17 14:51:16.32	337.61	3.21	-83.1	-79.0	2.2	0.00e+00	0	49	104	0	60	1048573
2026-01-17 14:51:17.33	337.49	3.15	-83.5	-79.0	2.7	0.00e+00	0	49	104	0	60	1048575
2026-01-17 14:51:18.34	337.37	3.09	-83.5	-79.0	2.3	0.00e+00	0	49	104	0	60	1048569
2026-01-17 14:51:19.34	337.25	3.03	-83.1	-79.0	2.5	0.00e+00	0	49	104	0	60	1048572
2026-01-17 14:51:20.35	337.13	2.98	-83.1	-79.0	2.6	0.00e+00	0	49	104	0	60	1048575
2026-01-17 14:51:21.36	337.01	2.92	-83.1	-79.0	2.3	0.00e+00	0	49	104	0	60	1048574
2026-01-17 14:51:22.37	336.89	2.86	-83.5	-79.0	2.5	0.00e+00	0	49	104	0	60	1048574
2026-01-17 14:51:23.37	336.78	2.80	-83.5	-79.0	2.2	0.00e+00	0	49	104	0	60	1048571
2026-01-17 14:51:24.38	336.66	2.75	-83.5	-79.0	2.3	0.00e+00	0	49	104	0	60	1048574
2026-01-17 14:51:25.38	336.55	2.69	-83.1	-79.0	2.4	0.00e+00	0	49	104	0	60	1048570
2026-01-17 14:51:26.39	336.43	2.63	-83.1	-79.0	2.3	0.00e+00	0	49	104	0	60	1048568
2026-01-17 14:51:27.40	336.32	2.57	-83.5	-79.0	2.5	0.00e+00	0	49	104	0	60	1048575
2026-01-17 14:51:28.40	336.21	2.52	-83.5	-79.0	2.3	0.00e+00	0	49	104	0	60	1048573
2026-01-17 14:51:29.40	336.09	2.46	-83.5	-79.0	2.4	0.00e+00	0	49	104	0	60	1048565
2026-01-17 14:51:30.41	335.98	2.40	-82.8	-79.0	2.3	0.00e+00	0	49	104	0	60	1048573
2026-01-17 14:51:31.41	335.87	2.35	-83.1	-79.0	2.3	0.00e+00	0	49	104	0	60	1048575
2026-01-17 14:51:32.42	335.76	2.29	-83.5	-79.0	2.6	0.00e+00	0	49	104	0	60	1048572
2026-01-17 14:51:33.43	335.65	2.23	-83.5	-79.0	2.3	0.00e+00	0	49	104	0	60	1048572
2026-01-17 14:51:34.44	335.54	2.18	-82.8	-79.0	2.4	0.00e+00	0	49	104	0	60	1048565
2026-01-17 14:51:35.44	335.43	2.12	-83.1	-79.0	2.2	0.00e+00	0	49	104	0	60	1048573
2026-01-17 14:51:36.45	335.32	2.06	-83.5	-79.0	2.3	0.00e+00	0	49	104	0	60	1048563
2026-01-17 14:51:37.46	335.21	2.01	-83.5	-79.0	2.5	0.00e+00	0	49	104	0	60	1048572
2026-01-17 14:51:38.47	335.10	1.95	-83.5	-79.0	2.4	0.00e+00	0	49	104	0	60	1048574
2026-01-17 14:51:39.48	334.99	1.89	-83.1	-79.0	2.6	0.00e+00	0	49	104	0	60	1048571
2026-01-17 14:51:40.48	334.89	1.84	-83.1	-79.0	2.3	0.00e+00	0	49	104	0	60	1048575
2026-01-17 14:51:41.49	334.78	1.78	-83.5	-79.0	2.4	0.00e+00	0	49	104	0	60	1048574
2026-01-17 14:51:42.50	334.68	1.72	-83.1	-79.0	2.3	0.00e+00	0	49	104	0	60	1048569
2026-01-17 14:51:43.51	334.57	1.67	-83.5	-79.0	2.3	0.00e+00	0	49	104	0	60	1048575
2026-01-17 14:51:44.52	334.46	1.61	-82.8	-79.0	2.5	0.00e+00	0	49	104	0	60	1048571
2026-01-17 14:51:45.52	334.36	1.56	-83.5	-79.0	2.4	0.00e+00	0	49	104	0	60	1048574
2026-01-17 14:51:46.53	334.26	1.50	-83.5	-79.0	2.6	0.00e+00	0	49	104	0	60	1048572
2026-01-17 14:51:47.53	334.15	1.44	-83.5	-79.0	2.2	0.00e+00	0	49	104	0	60	1048574
2026-01-17 14:51:48.54	334.05	1.39	-83.1	-79.0	2.3	0.00e+00	0	49	104	0	60	1048575
2026-01-17 14:51:49.54	333.95	1.33	-83.5	-79.0	2.5	0.00e+00	0	49	104	0	60	1048573
2026-01-17 14:51:50.54	333.85	1.28	-83.5	-79.0	2.3	0.00e+00	0	49	104	0	60	1048573
2026-01-17 14:51:51.54	333.75	1.22	-83.5	-79.0	2.7	0.00e+00	0	49	104	0	60	1048575
2026-01-17 14:51:52.55	333.65	1.17	-83.5	-79.0	2.5	0.00e+00	0	49	104	0	60	1048573
2026-01-17 14:51:53.56	333.55	1.11	-83.1	-79.0	2.7	0.00e+00	0	49	104	0	60	1048571
2026-01-17 14:51:54.56	333.45	1.06	-83.1	-79.0	2.5	0.00e+00	0	49	104	0	60	1048566
2026-01-17 14:51:55.57	333.35	1.00	-83.5	-79.0	2.5	0.00e+00	0	49	104	0	60	1048575
2026-01-17 14:51:56.58	333.25	0.95	-83.5	-79.0	2.5	0.00e+00	0	49	104	0	60	1048575
2026-01-17 14:51:57.59	333.15	0.89	-83.5	-79.0	2.2	0.00e+00	0	49	104	0	60	1048575
2026-01-17 14:51:58.60	333.05	0.83	-83.1	-79.0	2.7	0.00e+00	0	49	104	0	60	1048573
2026-01-17 14:51:59.60	332.96	0.78	-83.5	-79.0	2.1	0.00e+00	0	49	104	0	60	1048573
2026-01-17 14:52:00.61	332.86	0.72	-83.1	-79.0	2.5	0.00e+00	0	49	104	0	60	1048575
2026-01-17 14:52:01.62	332.76	0.67	-83.5	-79.0	2.3	0.00e+00	0	49	104	0	60	1048574
2026-01-17 14:52:02.63	332.67	0.61	-83.5	-79.0	2.4	0.00e+00	0	49	104	0	60	1048574
2026-01-17 14:52:03.63	332.57	0.56	-83.1	-79.0	2.5	0.00e+00	0	49	104	0	60	1048572
2026-01-17 14:52:04.64	332.48	0.51	-83.5	-79.0	2.3	0.00e+00	0	49	104	0	60	1048568
2026-01-17 14:52:05.65	332.38	0.45	-83.5	-79.0	2.6	0.00e+00	0	49	104	0	60	1048571
2026-01-17 14:52:06.65	332.29	0.40	-83.5	-79.0	2.6	0.00e+00	0	49	104	0	60	1048570
2026-01-17 14:52:07.66	332.20	0.34	-83.1	-79.0	2.0	0.00e+00	0	49	104	0	60	1048574
2026-01-17 14:52:08.67	332.10	0.29	-83.1	-79.0	2.4	0.00e+00	0	49	104	0	60	1048570
2026-01-17 14:52:09.68	332.01	0.23	-83.5	-79.0	2.4	0.00e+00	0	49	104	0	60	1048570
2026-01-17 14:52:10.69	331.92	0.18	-83.5	-79.0	2.5	0.00e+00	0	49	104	0	60	1048573
2026-01-17 14:52:11.69	331.83	0.12	-83.1	-79.0	2.4	0.00e+00	0	49	104	0	60	1048574
2026-01-17 14:52:12.70	331.73	0.07	-83.1	-79.0	2.3	0.00e+00	0	49	104	0	60	1048565
2026-01-17 14:52:13.70	331.64	0.02	-83.5	-79.0	2.4	0.00e+00	0	49	104	0	60	1048575

#Closed at: 2026-01-17 14:52:14
#Recorded file [0 MB]: D:/Data/35015_260117_174230.dat