passes_logs/2026/01/17/R3.2S-Naryan-Mar/R3.2S-Naryan-Mar__20260117_192329_TY-42_rec.log

#Pass ID: 20260117_192329_TY-42
#Satellite: TY-42
#Configuration: TY-42
#almurnet v.1.7.20240730
#Start time: 2026-01-17 19:23:30

#Version: 2.2.20231116
#Station: R3.2S-Naryan-Mar
#Location: 53.008057 lon 67.646978 lat
#TLE: 1 64048U 25103A   26017.21478009  .00008006  00000-0  38191-3 0 09999
#TLE: 2 64048 097.4122 092.5907 0001889 091.4381 313.8037 15.19150120 37159

#Time	Az	El	Level	Level2	SNR	BER	BlckErr	Temp	State	Recorded	gain1	gain2
2026-01-17 19:23:30.94	209.72	0.09	-83.1	-79.0	2.3	0.00e+00	0	45	0	0	60	1048574
2026-01-17 19:23:31.94	209.80	0.15	-83.5	-79.0	2.4	0.00e+00	0	46	104	0	60	1048569
2026-01-17 19:23:32.95	209.88	0.20	-83.5	-79.0	2.5	0.00e+00	0	46	104	0	60	1048570
2026-01-17 19:23:33.96	209.97	0.26	-83.1	-79.0	2.4	0.00e+00	0	46	104	0	60	1048575
2026-01-17 19:23:34.97	210.05	0.32	-83.5	-79.0	2.3	0.00e+00	0	46	104	0	60	1048575
2026-01-17 19:23:35.97	210.14	0.37	-83.5	-79.0	2.4	0.00e+00	0	46	104	0	60	1048574
2026-01-17 19:23:36.98	210.22	0.43	-83.5	-79.0	2.4	0.00e+00	0	47	104	0	60	1048575
2026-01-17 19:23:37.99	210.31	0.49	-83.5	-79.0	2.3	0.00e+00	0	46	104	0	60	1048573
2026-01-17 19:23:39.00	210.40	0.55	-82.8	-79.0	2.4	0.00e+00	0	47	104	0	60	1048575
2026-01-17 19:23:40.00	210.48	0.60	-83.1	-79.0	2.4	0.00e+00	0	47	104	0	60	1048572
2026-01-17 19:23:41.01	210.57	0.66	-83.5	-79.0	2.4	0.00e+00	0	47	104	0	60	1048574
2026-01-17 19:23:42.01	210.66	0.72	-83.5	-79.0	2.4	0.00e+00	0	47	104	0	60	1048572
2026-01-17 19:23:43.02	210.75	0.78	-83.1	-79.0	2.4	0.00e+00	0	47	104	0	60	1048572
2026-01-17 19:23:44.02	210.84	0.83	-83.1	-79.0	2.4	0.00e+00	0	47	104	0	60	1048570
2026-01-17 19:23:45.03	210.93	0.89	-83.5	-79.0	2.4	0.00e+00	0	47	104	0	60	1048571
2026-01-17 19:23:46.04	211.02	0.95	-83.5	-79.0	2.5	0.00e+00	0	47	104	0	60	1048574
2026-01-17 19:23:47.04	211.10	1.01	-83.5	-79.0	2.4	0.00e+00	0	47	104	0	60	1048571
2026-01-17 19:23:48.04	211.19	1.06	-83.1	-79.0	2.4	0.00e+00	0	47	104	0	60	1048573
2026-01-17 19:23:49.05	211.29	1.12	-83.5	-79.0	2.5	0.00e+00	0	47	104	0	60	1048572
2026-01-17 19:23:50.06	211.38	1.18	-83.5	-79.0	2.4	0.00e+00	0	47	104	0	60	1048573
2026-01-17 19:23:51.07	211.47	1.24	-83.5	-79.0	2.4	0.00e+00	0	47	104	0	60	1048575
2026-01-17 19:23:52.07	211.56	1.30	-83.5	-79.0	2.4	0.00e+00	0	47	104	0	60	1048574
2026-01-17 19:23:53.08	211.65	1.36	-83.1	-79.0	2.4	0.00e+00	0	47	104	0	60	1048567
2026-01-17 19:23:54.09	211.75	1.42	-83.5	-79.0	2.5	0.00e+00	0	47	104	0	60	1048574
2026-01-17 19:23:55.09	211.84	1.47	-83.5	-79.0	2.5	0.00e+00	0	47	104	0	60	1048574
2026-01-17 19:23:56.10	211.93	1.53	-83.5	-79.0	2.4	0.00e+00	0	47	104	0	60	1048573
2026-01-17 19:23:57.11	212.03	1.59	-83.1	-79.0	2.4	0.00e+00	0	47	104	0	60	1048566
2026-01-17 19:23:58.11	212.12	1.65	-82.8	-79.0	2.4	0.00e+00	0	47	104	0	60	1048575
2026-01-17 19:23:59.12	212.22	1.71	-83.1	-79.0	2.4	0.00e+00	0	47	104	0	60	1048575
2026-01-17 19:24:00.12	212.31	1.77	-83.5	-79.0	2.3	0.00e+00	0	47	104	0	60	1048564
2026-01-17 19:24:01.13	212.41	1.83	-83.5	-79.0	2.5	0.00e+00	0	47	104	0	60	1048570
2026-01-17 19:24:02.14	212.51	1.89	-83.5	-79.0	2.4	0.00e+00	0	47	104	0	60	1048572
2026-01-17 19:24:03.15	212.60	1.95	-83.1	-79.0	2.4	0.00e+00	0	47	104	0	60	1048575
2026-01-17 19:24:04.15	212.70	2.01	-83.5	-79.0	2.4	0.00e+00	0	47	104	0	60	1048573
2026-01-17 19:24:05.16	212.80	2.07	-83.5	-79.0	2.5	0.00e+00	0	47	104	0	60	1048570
2026-01-17 19:24:06.17	212.90	2.13	-83.5	-79.0	2.5	0.00e+00	0	47	104	0	60	1048571
2026-01-17 19:24:07.17	213.00	2.19	-83.1	-79.0	2.3	0.00e+00	0	47	104	0	60	1048575
2026-01-17 19:24:08.18	213.10	2.25	-83.5	-79.0	2.4	0.00e+00	0	47	104	0	60	1048571
2026-01-17 19:24:09.18	213.20	2.31	-83.5	-79.0	2.4	0.00e+00	0	47	104	0	60	1048575
2026-01-17 19:24:10.19	213.30	2.37	-83.5	-79.0	2.4	0.00e+00	0	47	104	0	60	1048564
2026-01-17 19:24:11.20	213.40	2.43	-83.5	-79.0	2.5	0.00e+00	0	47	104	0	60	1048573
2026-01-17 19:24:12.21	213.50	2.49	-83.1	-79.0	2.3	0.00e+00	0	47	104	0	60	1048575
2026-01-17 19:24:13.21	213.60	2.55	-83.5	-79.0	2.4	0.00e+00	0	47	104	0	60	1048573
2026-01-17 19:24:14.22	213.71	2.61	-83.5	-79.0	2.5	0.00e+00	0	47	104	0	60	1048573
2026-01-17 19:24:15.23	213.81	2.67	-83.5	-79.0	2.4	0.00e+00	0	47	104	0	60	1048571
2026-01-17 19:24:16.23	213.91	2.73	-83.1	-79.0	2.4	0.00e+00	0	47	104	0	60	1048574
2026-01-17 19:24:17.24	214.02	2.80	-82.8	-79.0	2.4	0.00e+00	0	47	104	0	60	1048571
2026-01-17 19:24:18.24	214.12	2.86	-83.5	-79.0	2.5	0.00e+00	0	47	104	0	60	1048575
2026-01-17 19:24:19.25	214.23	2.92	-83.5	-79.0	2.3	0.00e+00	0	47	104	0	60	1048572
2026-01-17 19:24:20.25	214.33	2.98	-83.5	-79.0	2.5	0.00e+00	0	47	104	0	60	1048573
2026-01-17 19:24:21.26	214.44	3.04	-83.1	-79.0	2.3	0.00e+00	0	47	104	0	60	1048570
2026-01-17 19:24:22.27	214.55	3.10	-83.1	-79.0	2.4	0.00e+00	0	47	104	0	60	1048573
2026-01-17 19:24:23.27	214.65	3.16	-83.5	-79.0	2.3	0.00e+00	0	47	104	0	60	1048572
2026-01-17 19:24:24.28	214.76	3.23	-83.5	-79.0	2.4	0.00e+00	0	48	104	0	60	1048573
2026-01-17 19:24:25.29	214.87	3.29	-83.5	-79.0	2.4	0.00e+00	0	48	104	0	60	1048573
2026-01-17 19:24:26.30	214.98	3.35	-83.1	-79.0	2.4	0.00e+00	0	48	104	0	60	1048575
2026-01-17 19:24:27.31	215.09	3.41	-83.1	-79.0	2.4	0.00e+00	0	48	104	0	60	1048574
2026-01-17 19:24:28.32	215.20	3.48	-83.5	-79.0	2.3	0.00e+00	0	48	104	0	60	1048575
2026-01-17 19:24:29.32	215.31	3.54	-83.5	-79.0	2.5	0.00e+00	0	48	104	0	60	1048574
2026-01-17 19:24:30.33	215.42	3.60	-83.5	-79.0	2.4	0.00e+00	0	47	104	0	60	1048571
2026-01-17 19:24:31.33	215.53	3.66	-83.1	-79.0	2.4	0.00e+00	0	48	104	0	60	1048565
2026-01-17 19:24:32.33	215.64	3.73	-83.5	-79.0	2.3	0.00e+00	0	47	104	0	60	1048566
2026-01-17 19:24:33.34	215.76	3.79	-83.5	-79.0	2.4	0.00e+00	0	48	104	0	60	1048573
2026-01-17 19:24:34.35	215.87	3.85	-83.5	-79.0	2.4	0.00e+00	0	48	104	0	60	1048573
2026-01-17 19:24:35.36	215.99	3.92	-83.1	-79.0	2.3	0.00e+00	0	48	104	0	60	1048570
2026-01-17 19:24:36.36	216.10	3.98	-83.1	-79.0	2.4	0.00e+00	0	48	104	0	60	1048571
2026-01-17 19:24:37.37	216.22	4.04	-83.5	-79.0	2.5	0.00e+00	0	48	104	0	60	1048574
2026-01-17 19:24:38.38	216.33	4.11	-83.5	-79.0	2.2	0.00e+00	0	48	104	0	60	1048573
2026-01-17 19:24:39.38	216.45	4.17	-83.5	-79.0	2.3	0.00e+00	0	48	104	0	60	1048575
2026-01-17 19:24:40.39	216.57	4.23	-83.1	-79.0	2.5	0.00e+00	0	48	104	0	60	1048571
2026-01-17 19:24:41.39	216.68	4.30	-83.5	-79.0	2.5	0.00e+00	0	48	104	0	60	1048567
2026-01-17 19:24:42.40	216.80	4.36	-83.5	-79.0	2.4	0.00e+00	0	48	104	0	60	1048575
2026-01-17 19:24:43.41	216.92	4.43	-83.5	-79.0	2.4	0.00e+00	0	48	104	0	60	1048572
2026-01-17 19:24:44.42	217.04	4.49	-83.5	-79.0	2.5	0.00e+00	0	48	104	0	60	1048575
2026-01-17 19:24:45.43	217.16	4.56	-83.1	-79.0	2.4	0.00e+00	0	48	104	0	60	1048574
2026-01-17 19:24:46.43	217.29	4.62	-83.5	-79.0	2.4	0.00e+00	0	48	104	0	60	1048575
2026-01-17 19:24:47.44	217.41	4.69	-83.5	-79.0	2.3	0.00e+00	0	48	104	0	60	1048575
2026-01-17 19:24:48.44	217.53	4.75	-83.5	-79.0	2.4	0.00e+00	0	48	104	0	60	1048573
2026-01-17 19:24:49.45	217.65	4.81	-83.1	-79.0	2.4	0.00e+00	0	48	104	0	60	1048573
2026-01-17 19:24:50.45	217.78	4.88	-83.1	-79.0	2.4	0.00e+00	0	48	104	0	60	1048575
2026-01-17 19:24:51.46	217.90	4.94	-83.5	-79.0	2.4	0.00e+00	0	48	104	0	60	1048567
2026-01-17 19:24:52.47	218.03	5.01	-83.5	-79.0	2.4	0.00e+00	0	48	104	0	60	1048572
2026-01-17 19:24:53.48	218.15	5.08	-83.5	-79.0	2.3	0.00e+00	0	48	104	0	60	1048567
2026-01-17 19:24:54.48	218.28	5.14	-82.8	-79.0	2.4	0.00e+00	0	48	104	0	60	1048574
2026-01-17 19:24:55.49	218.41	5.21	-83.5	-79.0	2.4	0.00e+00	0	48	104	0	60	1048574
2026-01-17 19:24:56.50	218.53	5.27	-83.5	-79.0	2.5	0.00e+00	0	48	104	0	60	1048575
2026-01-17 19:24:57.50	218.66	5.34	-83.5	-79.0	2.4	0.00e+00	0	48	104	0	60	1048573
2026-01-17 19:24:58.51	218.79	5.40	-83.5	-79.0	2.4	0.00e+00	0	48	104	0	60	1048575
2026-01-17 19:24:59.51	218.92	5.47	-83.1	-79.0	2.5	0.00e+00	0	48	104	0	60	1048575
2026-01-17 19:25:00.52	219.05	5.54	-83.1	-79.0	2.5	0.00e+00	0	48	104	0	60	1048575
2026-01-17 19:25:01.52	219.18	5.60	-83.5	-79.0	2.4	0.00e+00	0	48	104	0	60	1048572
2026-01-17 19:25:02.53	219.32	5.67	-83.5	-79.0	2.4	0.00e+00	0	48	104	0	60	1048574
2026-01-17 19:25:03.54	219.45	5.74	-83.5	-79.0	2.4	0.00e+00	0	48	104	0	60	1048569
2026-01-17 19:25:04.54	219.58	5.80	-82.8	-79.0	2.4	0.00e+00	0	48	104	0	60	1048573
2026-01-17 19:25:05.55	219.72	5.87	-83.5	-79.0	2.4	0.00e+00	0	48	104	0	60	1048573
2026-01-17 19:25:06.56	219.85	5.94	-83.5	-79.0	2.4	0.00e+00	0	48	104	0	60	1048571
2026-01-17 19:25:07.56	219.99	6.00	-83.5	-79.0	2.5	0.00e+00	0	48	104	0	60	1048568
2026-01-17 19:25:08.57	220.13	6.07	-83.1	-79.0	2.4	0.00e+00	0	48	104	0	60	1048575
2026-01-17 19:25:09.57	220.26	6.14	-82.8	-79.0	2.5	0.00e+00	0	48	104	0	60	1048573
2026-01-17 19:25:10.58	220.40	6.20	-83.5	-79.0	2.4	0.00e+00	0	48	104	0	60	1048569
2026-01-17 19:25:11.58	220.54	6.27	-83.5	-79.0	2.5	0.00e+00	0	48	104	0	60	1048575
2026-01-17 19:25:12.59	220.68	6.34	-83.5	-79.0	2.5	0.00e+00	0	48	104	0	60	1048573
2026-01-17 19:25:13.60	220.82	6.41	-83.1	-79.0	2.3	0.00e+00	0	48	104	0	60	1048572
2026-01-17 19:25:14.61	220.96	6.48	-83.1	-79.0	2.3	0.00e+00	0	48	104	0	60	1048571
2026-01-17 19:25:15.61	221.10	6.54	-83.5	-79.0	2.3	0.00e+00	0	48	104	0	60	1048574
2026-01-17 19:25:16.62	221.25	6.61	-83.5	-79.0	2.3	0.00e+00	0	48	104	0	60	1048572
2026-01-17 19:25:17.63	221.39	6.68	-83.5	-79.0	2.5	0.00e+00	0	48	104	0	60	1048575
2026-01-17 19:25:18.64	221.54	6.75	-83.1	-79.0	2.4	0.00e+00	0	48	104	0	60	1048573
2026-01-17 19:25:19.65	221.68	6.82	-83.5	-79.0	2.5	0.00e+00	0	48	104	0	60	1048573
2026-01-17 19:25:20.65	221.83	6.88	-83.5	-79.0	2.5	0.00e+00	0	48	104	0	60	1048570
2026-01-17 19:25:21.65	221.97	6.95	-83.5	-79.0	2.5	0.00e+00	0	48	104	0	60	1048569
2026-01-17 19:25:22.66	222.12	7.02	-83.5	-79.0	2.4	0.00e+00	0	48	104	0	60	1048573
2026-01-17 19:25:23.67	222.27	7.09	-82.8	-79.0	2.4	0.00e+00	0	48	104	0	60	1048575
2026-01-17 19:25:24.67	222.42	7.16	-83.5	-79.0	2.4	0.00e+00	0	48	104	0	60	1048575
2026-01-17 19:25:25.68	222.57	7.23	-83.5	-79.0	2.4	0.00e+00	0	48	104	0	60	1048569
2026-01-17 19:25:26.69	222.72	7.30	-83.1	-79.0	2.4	0.00e+00	0	48	104	0	60	1048572
2026-01-17 19:25:27.69	222.87	7.37	-83.1	-79.0	2.3	0.00e+00	0	48	104	0	60	1048575
2026-01-17 19:25:28.69	223.03	7.43	-83.1	-79.0	2.4	0.00e+00	0	48	104	0	60	1048570
2026-01-17 19:25:29.70	223.18	7.50	-83.5	-79.0	2.3	0.00e+00	0	48	104	0	60	1048575
2026-01-17 19:25:30.71	223.34	7.57	-83.5	-79.0	2.4	0.00e+00	0	48	104	0	60	1048568
2026-01-17 19:25:31.71	223.49	7.64	-83.5	-79.0	2.4	0.00e+00	0	48	104	0	60	1048570
2026-01-17 19:25:32.72	223.65	7.71	-82.8	-79.0	2.4	0.00e+00	0	48	104	0	60	1048571
2026-01-17 19:25:33.73	223.81	7.78	-83.1	-79.0	2.4	0.00e+00	0	48	104	0	60	1048574
2026-01-17 19:25:34.74	223.97	7.85	-83.5	-79.0	2.3	0.00e+00	0	48	104	0	60	1048574
2026-01-17 19:25:35.75	224.13	7.92	-83.5	-79.0	2.4	0.00e+00	0	48	104	0	60	1048575
2026-01-17 19:25:36.75	224.28	7.99	-83.5	-79.0	2.4	0.00e+00	0	48	104	0	60	1048575
2026-01-17 19:25:37.75	224.44	8.06	-83.1	-79.0	2.4	0.00e+00	0	48	104	0	60	1048575
2026-01-17 19:25:38.76	224.61	8.13	-83.5	-79.0	2.3	0.00e+00	0	48	104	0	60	1048570
2026-01-17 19:25:39.77	224.77	8.20	-83.5	-79.0	2.5	0.00e+00	0	48	104	0	60	1048574
2026-01-17 19:25:40.78	224.94	8.27	-83.5	-79.0	2.4	0.00e+00	0	48	104	0	60	1048574
2026-01-17 19:25:41.78	225.10	8.34	-83.5	-79.0	2.4	0.00e+00	0	48	104	0	60	1048575
2026-01-17 19:25:42.79	225.27	8.42	-83.1	-79.0	2.4	0.00e+00	0	48	104	0	60	1048573
2026-01-17 19:25:43.79	225.43	8.49	-83.5	-79.0	2.4	0.00e+00	0	48	104	0	60	1048575
2026-01-17 19:25:44.80	225.60	8.56	-83.5	-79.0	2.4	0.00e+00	0	48	104	0	60	1048572
2026-01-17 19:25:45.80	225.77	8.63	-83.5	-79.0	2.5	0.00e+00	0	48	104	0	60	1048573
2026-01-17 19:25:46.81	225.94	8.70	-83.1	-79.0	2.4	0.00e+00	0	48	104	0	60	1048571
2026-01-17 19:25:47.81	226.11	8.77	-83.1	-79.0	2.4	0.00e+00	0	48	104	0	60	1048575
2026-01-17 19:25:48.82	226.28	8.84	-83.5	-79.0	2.5	0.00e+00	0	48	104	0	60	1048575
2026-01-17 19:25:49.83	226.45	8.91	-83.5	-79.0	2.4	0.00e+00	0	48	104	0	60	1048575
2026-01-17 19:25:50.84	226.63	8.98	-83.5	-79.0	2.5	0.00e+00	0	48	104	0	60	1048569
2026-01-17 19:25:51.85	226.80	9.06	-83.1	-79.0	2.5	0.00e+00	0	48	104	0	60	1048575
2026-01-17 19:25:52.85	226.98	9.13	-83.1	-79.0	2.4	0.00e+00	0	48	104	0	60	1048574
2026-01-17 19:25:53.85	227.15	9.20	-83.5	-79.0	2.5	0.00e+00	0	48	104	0	60	1048572
2026-01-17 19:25:54.86	227.33	9.27	-83.5	-79.0	2.3	0.00e+00	0	48	104	0	60	1048573
2026-01-17 19:25:55.87	227.51	9.34	-83.1	-79.0	2.5	0.00e+00	0	48	104	0	60	1048574
2026-01-17 19:25:56.87	227.69	9.41	-83.1	-79.0	2.4	0.00e+00	0	49	104	0	60	1048575
2026-01-17 19:25:57.88	227.87	9.48	-83.5	-79.0	2.3	0.00e+00	0	48	104	0	60	1048572
2026-01-17 19:25:58.88	228.05	9.55	-83.5	-79.0	2.4	0.00e+00	0	48	104	0	60	1048575
2026-01-17 19:25:59.89	228.24	9.63	-83.5	-79.0	2.4	0.00e+00	0	48	104	0	60	1048574
2026-01-17 19:26:00.89	228.42	9.70	-83.5	-79.0	2.4	0.00e+00	0	48	104	0	60	1048570
2026-01-17 19:26:01.89	228.61	9.77	-83.1	-79.0	2.4	0.00e+00	0	48	104	0	60	1048575
2026-01-17 19:26:02.90	228.79	9.84	-83.5	-79.0	2.4	0.00e+00	0	48	104	0	60	1048557
2026-01-17 19:26:03.91	228.98	9.91	-83.5	-79.0	2.4	0.00e+00	0	48	104	0	60	1048573
2026-01-17 19:26:04.91	229.17	9.99	-83.5	-79.0	2.3	0.00e+00	0	48	104	0	60	1048575
2026-01-17 19:26:05.92	229.36	10.06	-83.1	-79.0	2.4	0.00e+00	0	49	104	0	60	1048572
2026-01-17 19:26:06.93	229.55	10.13	-83.1	-79.0	2.4	0.00e+00	0	48	104	0	60	1048571
2026-01-17 19:26:07.94	229.74	10.20	-83.5	-79.0	2.4	0.00e+00	0	48	104	0	60	1048575
2026-01-17 19:26:08.94	229.93	10.27	-83.5	-79.0	2.4	0.00e+00	0	48	104	0	60	1048575
2026-01-17 19:26:09.95	230.13	10.35	-83.5	-79.0	2.5	0.00e+00	0	48	104	0	60	1048575
2026-01-17 19:26:10.95	230.32	10.42	-83.1	-79.0	2.5	0.00e+00	0	48	104	0	60	1048572
2026-01-17 19:26:11.95	230.52	10.49	-83.5	-79.0	2.4	0.00e+00	0	49	104	0	60	1048574
2026-01-17 19:26:12.96	230.72	10.56	-83.1	-79.0	2.5	0.00e+00	0	49	104	0	60	1048575
2026-01-17 19:26:13.96	230.91	10.64	-83.5	-79.0	2.4	0.00e+00	0	49	104	0	60	1048566
2026-01-17 19:26:14.96	231.11	10.71	-83.5	-79.0	2.4	0.00e+00	0	48	104	0	60	1048569
2026-01-17 19:26:15.97	231.32	10.78	-83.1	-79.0	2.4	0.00e+00	0	49	104	0	60	1048575
2026-01-17 19:26:16.97	231.52	10.85	-83.5	-79.0	2.5	0.00e+00	0	49	104	0	60	1048572
2026-01-17 19:26:17.98	231.72	10.92	-83.5	-79.0	2.4	0.00e+00	0	48	104	0	60	1048574
2026-01-17 19:26:18.99	231.93	11.00	-83.1	-79.0	2.5	0.00e+00	0	49	104	0	60	1048567
2026-01-17 19:26:19.99	232.13	11.07	-83.1	-79.0	2.4	0.00e+00	0	49	104	0	60	1048574
2026-01-17 19:26:21.00	232.34	11.14	-83.1	-79.0	2.3	0.00e+00	0	49	104	0	60	1048575
2026-01-17 19:26:22.01	232.55	11.21	-83.5	-79.0	2.3	0.00e+00	0	48	104	0	60	1048575
2026-01-17 19:26:23.01	232.76	11.29	-83.5	-79.0	2.4	0.00e+00	0	49	104	0	60	1048575
2026-01-17 19:26:24.02	232.97	11.36	-83.5	-79.0	2.4	0.00e+00	0	49	104	0	60	1048575
2026-01-17 19:26:25.03	233.18	11.43	-83.1	-79.0	2.4	0.00e+00	0	49	104	0	60	1048572
2026-01-17 19:26:26.04	233.39	11.50	-83.5	-79.0	2.3	0.00e+00	0	48	104	0	60	1048575
2026-01-17 19:26:27.05	233.61	11.58	-83.5	-79.0	2.3	0.00e+00	0	48	104	0	60	1048574
2026-01-17 19:26:28.05	233.82	11.65	-83.5	-79.0	2.4	0.00e+00	0	48	104	0	60	1048569
2026-01-17 19:26:29.06	234.04	11.72	-83.1	-79.0	2.4	0.00e+00	0	48	104	0	60	1048575
2026-01-17 19:26:30.07	234.26	11.79	-82.8	-79.0	2.4	0.00e+00	0	48	104	0	60	1048571
2026-01-17 19:26:31.07	234.48	11.86	-83.1	-79.0	2.4	0.00e+00	0	48	104	0	60	1048575
2026-01-17 19:26:32.08	234.70	11.94	-83.5	-79.0	2.4	0.00e+00	0	49	104	0	60	1048575
2026-01-17 19:26:33.09	234.92	12.01	-83.5	-79.0	2.4	0.00e+00	0	49	104	0	60	1048564
2026-01-17 19:26:34.09	235.14	12.08	-82.8	-79.0	2.3	0.00e+00	0	49	104	0	60	1048574
2026-01-17 19:26:35.10	235.37	12.15	-83.1	-79.0	2.4	0.00e+00	0	49	104	0	60	1048571
2026-01-17 19:26:36.11	235.60	12.22	-83.5	-79.0	2.4	0.00e+00	0	48	104	0	60	1048572
2026-01-17 19:26:37.11	235.82	12.29	-83.5	-79.0	2.4	0.00e+00	0	49	104	0	60	1048569
2026-01-17 19:26:38.12	236.05	12.37	-83.5	-79.0	2.5	0.00e+00	0	48	104	0	60	1048573
2026-01-17 19:26:39.13	236.28	12.44	-83.5	-79.0	2.4	0.00e+00	0	49	104	0	60	1048573
2026-01-17 19:26:40.13	236.51	12.51	-83.5	-79.0	2.4	0.00e+00	0	49	104	0	60	1048573
2026-01-17 19:26:41.14	236.74	12.58	-83.5	-79.0	2.4	0.00e+00	0	49	104	0	60	1048570
2026-01-17 19:26:42.15	236.98	12.65	-83.5	-79.0	2.3	0.00e+00	0	49	104	0	60	1048574
2026-01-17 19:26:43.16	237.21	12.72	-83.5	-79.0	2.4	0.00e+00	0	49	104	0	60	1048570
2026-01-17 19:26:44.17	237.45	12.79	-83.1	-79.0	2.4	0.00e+00	0	49	104	0	60	1048575
2026-01-17 19:26:45.17	237.69	12.87	-83.1	-79.0	2.4	0.00e+00	0	49	104	0	60	1048575
2026-01-17 19:26:46.17	237.93	12.94	-83.5	-79.0	2.4	0.00e+00	0	49	104	0	60	1048573
2026-01-17 19:26:47.18	238.17	13.01	-83.5	-79.0	2.4	0.00e+00	0	49	104	0	60	1048574
2026-01-17 19:26:48.18	238.41	13.08	-83.5	-79.0	2.4	0.00e+00	0	49	104	0	60	1048573
2026-01-17 19:26:49.19	238.65	13.15	-82.8	-79.0	2.4	0.00e+00	0	49	104	0	60	1048573
2026-01-17 19:26:50.20	238.90	13.22	-83.5	-79.0	2.3	0.00e+00	0	49	104	0	60	1048575
2026-01-17 19:26:51.21	239.14	13.29	-83.5	-79.0	2.4	0.00e+00	0	49	104	0	60	1048567
2026-01-17 19:26:52.21	239.39	13.36	-83.5	-79.0	2.4	0.00e+00	0	49	104	0	60	1048575
2026-01-17 19:26:53.21	239.63	13.43	-83.5	-79.0	2.4	0.00e+00	0	49	104	0	60	1048567
2026-01-17 19:26:54.22	239.88	13.50	-82.8	-79.0	2.5	0.00e+00	0	49	104	0	60	1048574
2026-01-17 19:26:55.23	240.14	13.57	-83.1	-79.0	2.4	0.00e+00	0	49	104	0	60	1048574
2026-01-17 19:26:56.23	240.39	13.63	-83.5	-79.0	2.4	0.00e+00	0	49	104	0	60	1048572
2026-01-17 19:26:57.24	240.64	13.70	-83.5	-79.0	2.4	0.00e+00	0	49	104	0	60	1048572
2026-01-17 19:26:58.25	240.90	13.77	-82.8	-79.0	2.4	0.00e+00	0	49	104	0	60	1048571
2026-01-17 19:26:59.26	241.16	13.84	-83.5	-79.0	2.4	0.00e+00	0	49	104	0	60	1048574
2026-01-17 19:27:00.27	241.41	13.91	-83.1	-79.0	2.4	0.00e+00	0	49	104	0	60	1048565
2026-01-17 19:27:01.28	241.68	13.98	-83.5	-79.0	2.4	0.00e+00	0	49	104	0	60	1048574
2026-01-17 19:27:02.27	241.93	14.04	-83.5	-79.0	2.4	0.00e+00	0	49	104	0	60	1048574
2026-01-17 19:27:03.28	242.19	14.11	-83.1	-79.0	2.4	0.00e+00	0	49	104	0	60	1048573
2026-01-17 19:27:04.28	242.46	14.18	-83.5	-79.0	2.5	0.00e+00	0	49	104	0	60	1048575
2026-01-17 19:27:05.29	242.72	14.25	-83.5	-79.0	2.4	0.00e+00	0	49	104	0	60	1048573
2026-01-17 19:27:06.30	242.99	14.31	-83.5	-79.0	2.4	0.00e+00	0	49	104	0	60	1048574
2026-01-17 19:27:07.30	243.26	14.38	-83.1	-79.0	2.5	0.00e+00	0	49	104	0	60	1048572
2026-01-17 19:27:08.31	243.53	14.45	-83.1	-79.0	2.4	0.00e+00	0	49	104	0	60	1048565
2026-01-17 19:27:09.32	243.80	14.51	-83.5	-79.0	2.4	0.00e+00	0	49	104	0	60	1048574
2026-01-17 19:27:10.33	244.07	14.58	-83.5	-79.0	2.4	0.00e+00	0	49	104	0	60	1048571
2026-01-17 19:27:11.33	244.34	14.64	-83.5	-79.0	2.4	0.00e+00	0	49	104	0	60	1048573
2026-01-17 19:27:12.34	244.62	14.71	-83.1	-79.0	2.4	0.00e+00	0	49	104	0	60	1048575
2026-01-17 19:27:13.35	244.89	14.77	-83.1	-79.0	2.4	0.00e+00	0	49	104	0	60	1048575
2026-01-17 19:27:14.36	245.17	14.84	-83.5	-79.0	2.5	0.00e+00	0	49	104	0	60	1048574
2026-01-17 19:27:15.36	245.45	14.90	-83.5	-79.0	2.4	0.00e+00	0	49	104	0	60	1048575
2026-01-17 19:27:16.37	245.73	14.96	-83.5	-79.0	2.4	0.00e+00	0	49	104	0	60	1048571
2026-01-17 19:27:17.38	246.01	15.03	-83.1	-79.0	2.4	0.00e+00	0	49	104	0	60	1048574
2026-01-17 19:27:18.38	246.29	15.09	-83.5	-79.0	2.4	0.00e+00	0	49	104	0	60	1048573
2026-01-17 19:27:19.38	246.58	15.15	-83.5	-79.0	2.3	0.00e+00	0	49	104	0	60	1048574
2026-01-17 19:27:20.39	246.86	15.22	-83.5	-79.0	2.5	0.00e+00	0	49	104	0	60	1048575
2026-01-17 19:27:21.40	247.15	15.28	-83.5	-79.0	2.4	0.00e+00	0	49	104	0	60	1048573
2026-01-17 19:27:22.40	247.44	15.34	-83.1	-79.0	2.4	0.00e+00	0	49	104	0	60	1048564
2026-01-17 19:27:23.40	247.72	15.40	-83.1	-79.0	2.3	0.00e+00	0	49	104	0	60	1048573
2026-01-17 19:27:24.41	248.02	15.46	-83.5	-79.0	2.5	0.00e+00	0	49	104	0	60	1048570
2026-01-17 19:27:25.41	248.31	15.52	-83.5	-79.0	2.4	0.00e+00	0	49	104	0	60	1048569
2026-01-17 19:27:26.42	248.60	15.58	-82.8	-79.0	2.4	0.00e+00	0	49	104	0	60	1048573
2026-01-17 19:27:27.43	248.90	15.64	-83.1	-79.0	2.4	0.00e+00	0	49	104	0	60	1048575
2026-01-17 19:27:28.43	249.19	15.70	-83.5	-79.0	2.4	0.00e+00	0	49	104	0	60	1048575
2026-01-17 19:27:29.43	249.49	15.76	-83.5	-79.0	2.4	0.00e+00	0	49	104	0	60	1048572
2026-01-17 19:27:30.44	249.79	15.81	-83.5	-79.0	2.4	0.00e+00	0	49	104	0	60	1048575
2026-01-17 19:27:31.45	250.09	15.87	-83.1	-79.0	2.4	0.00e+00	0	49	104	0	60	1048570
2026-01-17 19:27:32.45	250.39	15.93	-83.1	-79.0	2.5	0.00e+00	0	49	104	0	60	1048575
2026-01-17 19:27:33.46	250.69	15.98	-83.5	-79.0	2.4	0.00e+00	0	49	104	0	60	1048573
2026-01-17 19:27:34.47	251.00	16.04	-83.5	-79.0	2.4	0.00e+00	0	49	104	0	60	1048569
2026-01-17 19:27:35.47	251.30	16.10	-83.5	-79.0	2.4	0.00e+00	0	49	104	0	60	1048575
2026-01-17 19:27:36.48	251.61	16.15	-83.1	-79.0	2.4	0.00e+00	0	49	104	0	60	1048575
2026-01-17 19:27:37.49	251.92	16.20	-83.5	-79.0	2.5	0.00e+00	0	49	104	0	60	1048571
2026-01-17 19:27:38.49	252.23	16.26	-83.5	-79.0	2.4	0.00e+00	0	49	104	0	60	1048567
2026-01-17 19:27:39.50	252.54	16.31	-83.5	-79.0	2.4	0.00e+00	0	49	104	0	60	1048575
2026-01-17 19:27:40.50	252.85	16.36	-83.5	-79.0	2.4	0.00e+00	0	49	104	0	60	1048575
2026-01-17 19:27:41.50	253.16	16.42	-82.8	-79.0	2.3	0.00e+00	0	49	104	0	60	1048559
2026-01-17 19:27:42.51	253.48	16.47	-83.1	-79.0	2.4	0.00e+00	0	49	104	0	60	1048574
2026-01-17 19:27:43.51	253.79	16.52	-83.5	-79.0	2.4	0.00e+00	0	49	104	0	60	1048575
2026-01-17 19:27:44.52	254.11	16.57	-83.5	-79.0	2.4	0.00e+00	0	49	104	0	60	1048573
2026-01-17 19:27:45.52	254.42	16.62	-83.1	-79.0	2.5	0.00e+00	0	49	104	0	60	1048572
2026-01-17 19:27:46.53	254.74	16.67	-83.1	-79.0	2.3	0.00e+00	0	49	104	0	60	1048574
2026-01-17 19:27:47.54	255.06	16.72	-83.5	-79.0	2.4	0.00e+00	0	49	104	0	60	1048574
2026-01-17 19:27:48.55	255.39	16.76	-83.5	-79.0	2.3	0.00e+00	0	49	104	0	60	1048574
2026-01-17 19:27:49.56	255.71	16.81	-83.5	-79.0	2.4	0.00e+00	0	49	104	0	60	1048566
2026-01-17 19:27:50.56	256.03	16.86	-83.1	-79.0	2.4	0.00e+00	0	49	104	0	60	1048572
2026-01-17 19:27:51.57	256.36	16.90	-83.5	-79.0	2.4	0.00e+00	0	49	104	0	60	1048574
2026-01-17 19:27:52.58	256.69	16.95	-83.1	-79.0	2.4	0.00e+00	0	49	104	0	60	1048574
2026-01-17 19:27:53.58	257.01	16.99	-83.5	-79.0	2.5	0.00e+00	0	48	104	0	60	1048574
2026-01-17 19:27:54.59	257.34	17.04	-83.5	-79.0	2.5	0.00e+00	0	49	104	0	60	1048574
2026-01-17 19:27:55.60	257.67	17.08	-82.8	-79.0	2.5	0.00e+00	0	49	104	0	60	1048575
2026-01-17 19:27:56.60	258.00	17.12	-83.5	-79.0	2.3	0.00e+00	0	49	104	0	60	1048575
2026-01-17 19:27:57.60	258.33	17.16	-83.5	-79.0	2.5	0.00e+00	0	49	104	0	60	1048575
2026-01-17 19:27:58.61	258.66	17.20	-83.5	-79.0	2.3	0.00e+00	0	49	104	0	60	1048571
2026-01-17 19:27:59.62	259.00	17.24	-83.5	-79.0	2.4	0.00e+00	0	49	104	0	60	1048571
2026-01-17 19:28:00.63	259.33	17.28	-83.1	-79.0	2.3	0.00e+00	0	49	104	0	60	1048572
2026-01-17 19:28:01.64	259.67	17.32	-83.5	-79.0	2.4	0.00e+00	0	49	104	0	60	1048572
2026-01-17 19:28:02.64	260.00	17.36	-83.5	-79.0	2.5	0.00e+00	0	49	104	0	60	1048569
2026-01-17 19:28:03.65	260.34	17.40	-83.5	-79.0	2.4	0.00e+00	0	49	104	0	60	1048575
2026-01-17 19:28:04.65	260.68	17.43	-83.1	-79.0	2.4	0.00e+00	0	49	104	0	60	1048575
2026-01-17 19:28:05.66	261.02	17.47	-83.1	-79.0	2.5	0.00e+00	0	49	104	0	60	1048572
2026-01-17 19:28:06.67	261.36	17.50	-83.5	-79.0	2.4	0.00e+00	0	49	104	0	60	1048571
2026-01-17 19:28:07.68	261.70	17.53	-83.5	-79.0	2.4	0.00e+00	0	49	104	0	60	1048566
2026-01-17 19:28:08.68	262.04	17.57	-83.5	-79.0	2.4	0.00e+00	0	49	104	0	60	1048570
2026-01-17 19:28:09.69	262.38	17.60	-83.1	-79.0	2.4	0.00e+00	0	49	104	0	60	1048572
2026-01-17 19:28:10.69	262.73	17.63	-83.5	-79.0	2.4	0.00e+00	0	49	104	0	60	1048570
2026-01-17 19:28:11.70	263.07	17.66	-83.5	-79.0	2.4	0.00e+00	0	48	104	0	60	1048569
2026-01-17 19:28:12.70	263.41	17.69	-83.5	-79.0	2.6	0.00e+00	0	49	104	0	60	1048575
2026-01-17 19:28:13.71	263.76	17.72	-83.5	-79.0	2.4	0.00e+00	0	49	104	0	60	1048574
2026-01-17 19:28:14.72	264.11	17.75	-82.8	-79.0	2.4	0.00e+00	0	49	104	0	60	1048573
2026-01-17 19:28:15.73	264.46	17.77	-83.5	-79.0	2.4	0.00e+00	0	49	104	0	60	1048575
2026-01-17 19:28:16.73	264.80	17.80	-83.5	-79.0	2.4	0.00e+00	0	49	104	0	60	1048572
2026-01-17 19:28:17.74	265.15	17.83	-83.5	-79.0	2.4	0.00e+00	0	49	104	0	60	1048575
2026-01-17 19:28:18.75	265.50	17.85	-83.1	-79.0	2.4	0.00e+00	0	49	104	0	60	1048574
2026-01-17 19:28:19.76	265.85	17.87	-83.1	-79.0	2.3	0.00e+00	0	49	104	0	60	1048571
2026-01-17 19:28:20.77	266.20	17.90	-83.5	-79.0	2.4	0.00e+00	0	49	104	0	60	1048568
2026-01-17 19:28:21.77	266.55	17.92	-83.5	-79.0	2.4	0.00e+00	0	49	104	0	60	1048575
2026-01-17 19:28:22.78	266.91	17.94	-83.5	-79.0	2.4	0.00e+00	0	49	104	0	60	1048572
2026-01-17 19:28:23.79	267.26	17.96	-82.8	-79.0	2.5	0.00e+00	0	49	104	0	60	1048575
2026-01-17 19:28:24.80	267.61	17.98	-83.1	-79.0	2.4	0.00e+00	0	49	104	0	60	1048574
2026-01-17 19:28:25.81	267.97	17.99	-83.5	-79.0	2.4	0.00e+00	0	49	104	0	60	1048573
2026-01-17 19:28:26.81	268.32	18.01	-83.5	-79.0	2.4	0.00e+00	0	49	104	0	60	1048575
2026-01-17 19:28:27.82	268.67	18.03	-83.5	-79.0	2.4	0.00e+00	0	49	104	0	60	1048572
2026-01-17 19:28:28.82	269.02	18.04	-83.1	-79.0	2.4	0.00e+00	0	49	104	0	60	1048573
2026-01-17 19:28:29.82	269.38	18.06	-83.1	-79.0	2.4	0.00e+00	0	49	104	0	60	1048570
2026-01-17 19:28:30.83	269.73	18.07	-83.5	-79.0	2.4	0.00e+00	0	49	104	0	60	1048572
2026-01-17 19:28:31.84	270.09	18.08	-83.5	-79.0	2.3	0.00e+00	0	49	104	0	60	1048569
2026-01-17 19:28:32.84	270.44	18.09	-83.5	-79.0	2.4	0.00e+00	0	49	104	0	60	1048572
2026-01-17 19:28:33.85	270.80	18.10	-83.1	-79.0	2.4	0.00e+00	0	49	104	0	60	1048574
2026-01-17 19:28:34.86	271.16	18.11	-83.5	-79.0	2.4	0.00e+00	0	49	104	0	60	1048569
2026-01-17 19:28:35.87	271.51	18.12	-83.5	-79.0	2.4	0.00e+00	0	49	104	0	60	1048570
2026-01-17 19:28:36.88	271.87	18.13	-83.5	-79.0	2.4	0.00e+00	0	49	104	0	60	1048575
2026-01-17 19:28:37.89	272.23	18.13	-83.1	-79.0	2.4	0.00e+00	0	49	104	0	60	1048569
2026-01-17 19:28:38.89	272.58	18.14	-83.1	-79.0	2.4	0.00e+00	0	49	104	0	60	1048575
2026-01-17 19:28:39.90	272.94	18.14	-83.1	-79.0	2.4	0.00e+00	0	49	104	0	60	1048575
2026-01-17 19:28:40.91	273.30	18.15	-83.5	-79.0	2.5	0.00e+00	0	49	104	0	60	1048575
2026-01-17 19:28:41.92	273.66	18.15	-83.5	-79.0	2.5	0.00e+00	0	49	104	0	60	1048570
2026-01-17 19:28:42.92	274.01	18.15	-83.1	-79.0	2.5	0.00e+00	0	49	104	0	60	1048575
2026-01-17 19:28:43.92	274.37	18.15	-83.1	-79.0	2.3	0.00e+00	0	49	104	0	60	1048575
2026-01-17 19:28:44.93	274.73	18.15	-83.5	-79.0	2.4	0.00e+00	0	49	104	0	60	1048573
2026-01-17 19:28:45.94	275.08	18.15	-83.5	-79.0	2.4	0.00e+00	0	49	104	0	60	1048564
2026-01-17 19:28:46.94	275.44	18.15	-83.5	-79.0	2.3	0.00e+00	0	49	104	0	60	1048572
2026-01-17 19:28:47.95	275.80	18.15	-83.1	-79.0	2.3	0.00e+00	0	49	104	0	60	1048573
2026-01-17 19:28:48.96	276.16	18.14	-83.5	-79.0	2.4	0.00e+00	0	49	104	0	60	1048574
2026-01-17 19:28:49.97	276.51	18.14	-83.5	-79.0	2.3	0.00e+00	0	49	104	0	60	1048570
2026-01-17 19:28:50.97	276.87	18.13	-83.5	-79.0	2.4	0.00e+00	0	49	104	0	60	1048573
2026-01-17 19:28:51.98	277.22	18.12	-83.5	-79.0	2.3	0.00e+00	0	49	104	0	60	1048575
2026-01-17 19:28:52.99	277.58	18.12	-83.1	-79.0	2.4	0.00e+00	0	49	104	0	60	1048571
2026-01-17 19:28:54.00	277.94	18.11	-83.5	-79.0	2.4	0.00e+00	0	49	104	0	60	1048574
2026-01-17 19:28:55.01	278.30	18.10	-83.5	-79.0	2.4	0.00e+00	0	49	104	0	60	1048575
2026-01-17 19:28:56.01	278.65	18.09	-83.5	-79.0	2.3	0.00e+00	0	49	104	0	60	1048572
2026-01-17 19:28:57.02	279.01	18.07	-83.1	-79.0	2.5	0.00e+00	0	49	104	0	60	1048571
2026-01-17 19:28:58.02	279.36	18.06	-83.1	-79.0	2.3	0.00e+00	0	49	104	0	60	1048559
2026-01-17 19:28:59.03	279.71	18.05	-83.5	-79.0	2.4	0.00e+00	0	49	104	0	60	1048571
2026-01-17 19:29:00.03	280.06	18.03	-83.5	-79.0	2.4	0.00e+00	0	49	104	0	60	1048574
2026-01-17 19:29:01.03	280.42	18.02	-83.5	-79.0	2.4	0.00e+00	0	49	104	0	60	1048573
2026-01-17 19:29:02.03	280.77	18.00	-83.1	-79.0	2.4	0.00e+00	0	49	104	0	60	1048566
2026-01-17 19:29:03.03	281.12	17.98	-83.5	-79.0	2.4	0.00e+00	0	49	104	0	60	1048574
2026-01-17 19:29:04.03	281.47	17.96	-83.5	-79.0	2.4	0.00e+00	0	49	104	0	60	1048573
2026-01-17 19:29:05.04	281.82	17.94	-83.5	-79.0	2.4	0.00e+00	0	49	104	0	60	1048575
2026-01-17 19:29:06.04	282.17	17.92	-83.5	-79.0	2.3	0.00e+00	0	49	104	0	60	1048574
2026-01-17 19:29:07.04	282.52	17.90	-83.1	-79.0	2.3	0.00e+00	0	49	104	0	60	1048575
2026-01-17 19:29:08.05	282.87	17.88	-83.5	-79.0	2.4	0.00e+00	0	49	104	0	60	1048574
2026-01-17 19:29:09.06	283.22	17.86	-83.5	-79.0	2.4	0.00e+00	0	49	104	0	60	1048574
2026-01-17 19:29:10.07	283.57	17.83	-83.5	-79.0	2.4	0.00e+00	0	49	104	0	60	1048575
2026-01-17 19:29:11.08	283.92	17.81	-83.1	-79.0	2.4	0.00e+00	0	49	104	0	60	1048564
2026-01-17 19:29:12.08	284.26	17.78	-83.1	-79.0	2.4	0.00e+00	0	49	104	0	60	1048575
2026-01-17 19:29:13.09	284.61	17.76	-83.5	-79.0	2.4	0.00e+00	0	49	104	0	60	1048571
2026-01-17 19:29:14.09	284.95	17.73	-83.5	-79.0	2.3	0.00e+00	0	49	104	0	60	1048575
2026-01-17 19:29:15.10	285.30	17.70	-83.5	-79.0	2.4	0.00e+00	0	49	104	0	60	1048574
2026-01-17 19:29:16.11	285.65	17.67	-83.1	-79.0	2.4	0.00e+00	0	49	104	0	60	1048568
2026-01-17 19:29:17.11	285.99	17.64	-83.5	-79.0	2.3	0.00e+00	0	49	104	0	60	1048574
2026-01-17 19:29:18.12	286.33	17.61	-83.5	-79.0	2.5	0.00e+00	0	49	104	0	60	1048574
2026-01-17 19:29:19.13	286.67	17.58	-83.5	-79.0	2.4	0.00e+00	0	49	104	0	60	1048575
2026-01-17 19:29:20.13	287.01	17.55	-83.5	-79.0	2.4	0.00e+00	0	49	104	0	60	1048572
2026-01-17 19:29:21.14	287.36	17.51	-82.8	-79.0	2.5	0.00e+00	0	49	104	0	60	1048570
2026-01-17 19:29:22.14	287.69	17.48	-83.5	-79.0	2.4	0.00e+00	0	49	104	0	60	1048574
2026-01-17 19:29:23.15	288.03	17.45	-83.5	-79.0	2.3	0.00e+00	0	49	104	0	60	1048570
2026-01-17 19:29:24.16	288.37	17.41	-83.5	-79.0	2.5	0.00e+00	0	49	104	0	60	1048570
2026-01-17 19:29:25.17	288.71	17.37	-83.5	-79.0	2.3	0.00e+00	0	49	104	0	60	1048575
2026-01-17 19:29:26.18	289.05	17.34	-82.8	-79.0	2.4	0.00e+00	0	49	104	0	60	1048572
2026-01-17 19:29:27.19	289.38	17.30	-83.5	-79.0	2.4	0.00e+00	0	49	104	0	60	1048573
2026-01-17 19:29:28.20	289.72	17.26	-83.5	-79.0	2.4	0.00e+00	0	49	104	0	60	1048574
2026-01-17 19:29:29.20	290.05	17.22	-83.5	-79.0	2.4	0.00e+00	0	49	104	0	60	1048574
2026-01-17 19:29:30.21	290.38	17.18	-83.5	-79.0	2.4	0.00e+00	0	49	104	0	60	1048571
2026-01-17 19:29:31.21	290.71	17.14	-83.5	-79.0	2.3	0.00e+00	0	49	104	0	60	1048575
2026-01-17 19:29:32.22	291.04	17.10	-83.5	-79.0	2.4	0.00e+00	0	49	104	0	60	1048572
2026-01-17 19:29:33.22	291.37	17.05	-83.1	-79.0	2.4	0.00e+00	0	49	104	0	60	1048575
2026-01-17 19:29:34.23	291.70	17.01	-83.5	-79.0	2.4	0.00e+00	0	49	104	0	60	1048573
2026-01-17 19:29:35.23	292.02	16.97	-83.1	-79.0	2.4	0.00e+00	0	49	104	0	60	1048575
2026-01-17 19:29:36.23	292.34	16.92	-83.1	-79.0	2.4	0.00e+00	0	49	104	0	60	1048572
2026-01-17 19:29:37.24	292.67	16.88	-83.5	-79.0	2.5	0.00e+00	0	49	104	0	60	1048574
2026-01-17 19:29:38.25	292.99	16.83	-83.5	-79.0	2.3	0.00e+00	0	49	104	0	60	1048562
2026-01-17 19:29:39.26	293.32	16.78	-83.1	-79.0	2.4	0.00e+00	0	49	104	0	60	1048570
2026-01-17 19:29:40.27	293.64	16.74	-82.8	-79.0	2.4	0.00e+00	0	49	104	0	60	1048573
2026-01-17 19:29:41.27	293.96	16.69	-83.5	-79.0	2.4	0.00e+00	0	49	104	0	60	1048571
2026-01-17 19:29:42.28	294.28	16.64	-83.5	-79.0	2.4	0.00e+00	0	49	104	0	60	1048567
2026-01-17 19:29:43.28	294.59	16.59	-83.5	-79.0	2.4	0.00e+00	0	49	104	0	60	1048575
2026-01-17 19:29:44.29	294.91	16.54	-83.5	-79.0	2.4	0.00e+00	0	49	104	0	60	1048572
2026-01-17 19:29:45.30	295.22	16.49	-82.8	-79.0	2.4	0.00e+00	0	49	104	0	60	1048570
2026-01-17 19:29:46.31	295.54	16.44	-83.5	-79.0	2.4	0.00e+00	0	49	104	0	60	1048574
2026-01-17 19:29:47.32	295.85	16.39	-83.5	-79.0	2.4	0.00e+00	0	49	104	0	60	1048569
2026-01-17 19:29:48.33	296.16	16.34	-83.5	-79.0	2.5	0.00e+00	0	49	104	0	60	1048575
2026-01-17 19:29:49.33	296.47	16.28	-83.1	-79.0	2.4	0.00e+00	0	49	104	0	60	1048572
2026-01-17 19:29:50.34	296.78	16.23	-83.5	-79.0	2.4	0.00e+00	0	49	104	0	60	1048575
2026-01-17 19:29:51.35	297.09	16.18	-83.5	-79.0	2.5	0.00e+00	0	49	104	0	60	1048568
2026-01-17 19:29:52.36	297.40	16.12	-83.5	-79.0	2.4	0.00e+00	0	49	104	0	60	1048575
2026-01-17 19:29:53.37	297.70	16.07	-83.5	-79.0	2.4	0.00e+00	0	49	104	0	60	1048571
2026-01-17 19:29:54.37	298.01	16.01	-82.8	-79.0	2.5	0.00e+00	0	49	104	0	60	1048574
2026-01-17 19:29:55.38	298.31	15.95	-83.1	-79.0	2.4	0.00e+00	0	49	104	0	60	1048574
2026-01-17 19:29:56.38	298.61	15.90	-83.5	-79.0	2.3	0.00e+00	0	49	104	0	60	1048573
2026-01-17 19:29:57.39	298.91	15.84	-83.5	-79.0	2.5	0.00e+00	0	49	104	0	60	1048574
2026-01-17 19:29:58.40	299.21	15.78	-83.1	-79.0	2.4	0.00e+00	0	49	104	0	60	1048573
2026-01-17 19:29:59.41	299.51	15.73	-82.8	-79.0	2.4	0.00e+00	0	49	104	0	60	1048573
2026-01-17 19:30:00.41	299.80	15.67	-83.5	-79.0	2.3	0.00e+00	0	49	104	0	60	1048570
2026-01-17 19:30:01.42	300.10	15.61	-83.5	-79.0	2.3	0.00e+00	0	49	104	0	60	1048573
2026-01-17 19:30:02.43	300.39	15.55	-83.1	-79.0	2.4	0.00e+00	0	49	104	0	60	1048574
2026-01-17 19:30:03.44	300.68	15.49	-83.5	-79.0	2.4	0.00e+00	0	49	104	0	60	1048566
2026-01-17 19:30:04.44	300.97	15.43	-83.1	-79.0	2.4	0.00e+00	0	49	104	0	60	1048575
2026-01-17 19:30:05.45	301.26	15.37	-83.5	-79.0	2.4	0.00e+00	0	49	104	0	60	1048573
2026-01-17 19:30:06.46	301.55	15.31	-83.5	-79.0	2.4	0.00e+00	0	49	104	0	60	1048575
2026-01-17 19:30:07.46	301.83	15.25	-83.5	-79.0	2.5	0.00e+00	0	49	104	0	60	1048574
2026-01-17 19:30:08.47	302.12	15.19	-82.8	-79.0	2.4	0.00e+00	0	49	104	0	60	1048575
2026-01-17 19:30:09.48	302.40	15.12	-83.1	-79.0	2.3	0.00e+00	0	49	104	0	60	1048572
2026-01-17 19:30:10.47	302.68	15.06	-83.5	-79.0	2.5	0.00e+00	0	49	104	0	60	1048574
2026-01-17 19:30:11.47	302.96	15.00	-83.5	-79.0	2.4	0.00e+00	0	49	104	0	60	1048561
2026-01-17 19:30:12.48	303.24	14.94	-83.5	-79.0	2.4	0.00e+00	0	49	104	0	60	1048575
2026-01-17 19:30:13.48	303.52	14.87	-83.1	-79.0	2.4	0.00e+00	0	49	104	0	60	1048573
2026-01-17 19:30:14.49	303.79	14.81	-83.5	-79.0	2.4	0.00e+00	0	49	104	0	60	1048568
2026-01-17 19:30:15.50	304.07	14.74	-83.5	-79.0	2.4	0.00e+00	0	49	104	0	60	1048575
2026-01-17 19:30:16.51	304.34	14.68	-83.5	-79.0	2.4	0.00e+00	0	49	104	0	60	1048575
2026-01-17 19:30:17.52	304.62	14.61	-83.1	-79.0	2.4	0.00e+00	0	49	104	0	60	1048575
2026-01-17 19:30:18.53	304.89	14.55	-83.1	-79.0	2.4	0.00e+00	0	49	104	0	60	1048575
2026-01-17 19:30:19.53	305.16	14.48	-83.5	-79.0	2.4	0.00e+00	0	49	104	0	60	1048574
2026-01-17 19:30:20.53	305.42	14.42	-83.5	-79.0	2.4	0.00e+00	0	49	104	0	60	1048573
2026-01-17 19:30:21.54	305.69	14.35	-83.5	-79.0	2.4	0.00e+00	0	49	104	0	60	1048572
2026-01-17 19:30:22.54	305.96	14.29	-83.5	-79.0	2.4	0.00e+00	0	49	104	0	60	1048571
2026-01-17 19:30:23.55	306.22	14.22	-83.1	-79.0	2.4	0.00e+00	0	49	104	0	60	1048570
2026-01-17 19:30:24.55	306.48	14.15	-83.5	-79.0	2.4	0.00e+00	0	49	104	0	60	1048564
2026-01-17 19:30:25.56	306.74	14.09	-83.5	-79.0	2.4	0.00e+00	0	49	104	0	60	1048575
2026-01-17 19:30:26.57	307.00	14.02	-83.5	-79.0	2.4	0.00e+00	0	49	104	0	60	1048575
2026-01-17 19:30:27.57	307.26	13.95	-83.1	-79.0	2.2	0.00e+00	0	49	104	0	60	1048571
2026-01-17 19:30:28.58	307.52	13.88	-83.5	-79.0	2.4	0.00e+00	0	49	104	0	60	1048568
2026-01-17 19:30:29.58	307.77	13.82	-83.5	-79.0	2.4	0.00e+00	0	49	104	0	60	1048574
2026-01-17 19:30:30.59	308.03	13.75	-83.5	-79.0	2.4	0.00e+00	0	49	104	0	60	1048575
2026-01-17 19:30:31.60	308.28	13.68	-83.1	-79.0	2.4	0.00e+00	0	49	104	0	60	1048573
2026-01-17 19:30:32.61	308.54	13.61	-83.1	-79.0	2.3	0.00e+00	0	49	104	0	60	1048575
2026-01-17 19:30:33.62	308.79	13.54	-83.1	-79.0	2.4	0.00e+00	0	49	104	0	60	1048569
2026-01-17 19:30:34.63	309.04	13.47	-83.5	-79.0	2.4	0.00e+00	0	49	104	0	60	1048574
2026-01-17 19:30:35.63	309.28	13.40	-83.5	-79.0	2.4	0.00e+00	0	49	104	0	60	1048571
2026-01-17 19:30:36.64	309.53	13.34	-83.5	-79.0	2.4	0.00e+00	0	49	104	0	60	1048575
2026-01-17 19:30:37.64	309.77	13.27	-83.1	-79.0	2.4	0.00e+00	0	49	104	0	60	1048575
2026-01-17 19:30:38.64	310.02	13.20	-83.5	-79.0	2.4	0.00e+00	0	49	104	0	60	1048571
2026-01-17 19:30:39.65	310.26	13.13	-83.5	-79.0	2.5	0.00e+00	0	49	104	0	60	1048575
2026-01-17 19:30:40.66	310.50	13.06	-83.5	-79.0	2.4	0.00e+00	0	49	104	0	60	1048573
2026-01-17 19:30:41.66	310.74	12.99	-83.1	-79.0	2.4	0.00e+00	0	49	104	0	60	1048572
2026-01-17 19:30:42.67	310.98	12.92	-83.1	-79.0	2.4	0.00e+00	0	49	104	0	60	1048574
2026-01-17 19:30:43.68	311.22	12.85	-83.1	-79.0	2.4	0.00e+00	0	49	104	0	60	1048575
2026-01-17 19:30:44.68	311.45	12.78	-83.5	-79.0	2.3	0.00e+00	0	49	104	0	60	1048571
2026-01-17 19:30:45.69	311.69	12.71	-83.5	-79.0	2.4	0.00e+00	0	49	104	0	60	1048563
2026-01-17 19:30:46.70	311.92	12.63	-83.1	-79.0	2.3	0.00e+00	0	49	104	0	60	1048570
2026-01-17 19:30:47.71	312.15	12.56	-83.5	-79.0	2.4	0.00e+00	0	49	104	0	60	1048575
2026-01-17 19:30:48.71	312.38	12.49	-83.5	-79.0	2.4	0.00e+00	0	49	104	0	60	1048574
2026-01-17 19:30:49.72	312.61	12.42	-83.5	-79.0	2.3	0.00e+00	0	49	104	0	60	1048574
2026-01-17 19:30:50.73	312.84	12.35	-83.5	-79.0	2.4	0.00e+00	0	49	104	0	60	1048575
2026-01-17 19:30:51.74	313.07	12.28	-83.1	-79.0	2.4	0.00e+00	0	49	104	0	60	1048574
2026-01-17 19:30:52.75	313.29	12.21	-83.5	-79.0	2.3	0.00e+00	0	49	104	0	60	1048574
2026-01-17 19:30:53.76	313.52	12.14	-83.5	-79.0	2.4	0.00e+00	0	49	104	0	60	1048575
2026-01-17 19:30:54.76	313.74	12.07	-83.5	-79.0	2.4	0.00e+00	0	49	104	0	60	1048575
2026-01-17 19:30:55.77	313.96	11.99	-83.1	-79.0	2.4	0.00e+00	0	49	104	0	60	1048571
2026-01-17 19:30:56.77	314.18	11.92	-83.1	-79.0	2.4	0.00e+00	0	49	104	0	60	1048574
2026-01-17 19:30:57.78	314.40	11.85	-83.5	-79.0	2.4	0.00e+00	0	49	104	0	60	1048572
2026-01-17 19:30:58.78	314.62	11.78	-83.5	-79.0	2.5	0.00e+00	0	49	104	0	60	1048568
2026-01-17 19:30:59.79	314.83	11.71	-83.5	-79.0	2.4	0.00e+00	0	49	104	0	60	1048571
2026-01-17 19:31:00.80	315.05	11.64	-83.1	-79.0	2.4	0.00e+00	0	49	104	0	60	1048575
2026-01-17 19:31:01.80	315.26	11.57	-83.5	-79.0	2.4	0.00e+00	0	49	104	0	60	1048572
2026-01-17 19:31:02.81	315.47	11.49	-83.5	-79.0	2.5	0.00e+00	0	49	104	0	60	1048574
2026-01-17 19:31:03.81	315.68	11.42	-83.5	-79.0	2.4	0.00e+00	0	49	104	0	60	1048569
2026-01-17 19:31:04.82	315.90	11.35	-83.5	-79.0	2.4	0.00e+00	0	49	104	0	60	1048570
2026-01-17 19:31:05.82	316.10	11.28	-83.1	-79.0	2.5	0.00e+00	0	49	104	0	60	1048571
2026-01-17 19:31:06.83	316.31	11.21	-83.1	-79.0	2.4	0.00e+00	0	49	104	0	60	1048575
2026-01-17 19:31:07.84	316.52	11.14	-83.5	-79.0	2.5	0.00e+00	0	49	104	0	60	1048575
2026-01-17 19:31:08.84	316.72	11.06	-83.5	-79.0	2.3	0.00e+00	0	49	104	0	60	1048573
2026-01-17 19:31:09.85	316.93	10.99	-83.5	-79.0	2.4	0.00e+00	0	49	104	0	60	1048571
2026-01-17 19:31:10.85	317.13	10.92	-83.1	-79.0	2.4	0.00e+00	0	49	104	0	60	1048573
2026-01-17 19:31:11.86	317.33	10.85	-83.5	-79.0	2.4	0.00e+00	0	49	104	0	60	1048575
2026-01-17 19:31:12.87	317.53	10.78	-83.1	-79.0	2.4	0.00e+00	0	49	104	0	60	1048573
2026-01-17 19:31:13.87	317.73	10.71	-83.5	-79.0	2.4	0.00e+00	0	49	104	0	60	1048574
2026-01-17 19:31:14.88	317.93	10.63	-83.1	-79.0	2.4	0.00e+00	0	49	104	0	60	1048575
2026-01-17 19:31:15.89	318.13	10.56	-83.1	-79.0	2.5	0.00e+00	0	49	104	0	60	1048574
2026-01-17 19:31:16.89	318.32	10.49	-83.5	-79.0	2.5	0.00e+00	0	49	104	0	60	1048570
2026-01-17 19:31:17.90	318.52	10.42	-83.5	-79.0	2.3	0.00e+00	0	49	104	0	60	1048574
2026-01-17 19:31:18.90	318.71	10.35	-83.5	-79.0	2.3	0.00e+00	0	49	104	0	60	1048571
2026-01-17 19:31:19.91	318.90	10.28	-83.1	-79.0	2.4	0.00e+00	0	49	104	0	60	1048575
2026-01-17 19:31:20.92	319.10	10.20	-83.5	-79.0	2.4	0.00e+00	0	49	104	0	60	1048574
2026-01-17 19:31:21.93	319.29	10.13	-83.5	-79.0	2.4	0.00e+00	0	49	104	0	60	1048567
2026-01-17 19:31:22.93	319.48	10.06	-83.5	-79.0	2.4	0.00e+00	0	49	104	0	60	1048575
2026-01-17 19:31:23.94	319.66	9.99	-83.5	-79.0	2.4	0.00e+00	0	49	104	0	60	1048562
2026-01-17 19:31:24.95	319.85	9.92	-82.8	-79.0	2.4	0.00e+00	0	49	104	0	60	1048569
2026-01-17 19:31:25.96	320.04	9.85	-83.5	-79.0	2.4	0.00e+00	0	49	104	0	60	1048574
2026-01-17 19:31:26.97	320.22	9.77	-83.5	-79.0	2.4	0.00e+00	0	49	104	0	60	1048574
2026-01-17 19:31:27.97	320.41	9.70	-83.5	-79.0	2.3	0.00e+00	0	49	104	0	60	1048574
2026-01-17 19:31:28.97	320.59	9.63	-83.1	-79.0	2.4	0.00e+00	0	49	104	0	60	1048575
2026-01-17 19:31:29.98	320.77	9.56	-83.1	-79.0	2.4	0.00e+00	0	49	104	0	60	1048573
2026-01-17 19:31:30.99	320.95	9.49	-83.1	-79.0	2.3	0.00e+00	0	49	104	0	60	1048573
2026-01-17 19:31:31.99	321.13	9.42	-83.5	-79.0	2.4	0.00e+00	0	49	104	0	60	1048575
2026-01-17 19:31:33.00	321.31	9.35	-83.5	-79.0	2.5	0.00e+00	0	49	104	0	60	1048569
2026-01-17 19:31:34.01	321.49	9.28	-83.5	-79.0	2.5	0.00e+00	0	49	104	0	60	1048574
2026-01-17 19:31:35.01	321.66	9.21	-83.1	-79.0	2.3	0.00e+00	0	49	104	0	60	1048571
2026-01-17 19:31:36.02	321.84	9.13	-83.5	-79.0	2.4	0.00e+00	0	49	104	0	60	1048570
2026-01-17 19:31:37.03	322.02	9.06	-83.5	-79.0	2.4	0.00e+00	0	49	104	0	60	1048573
2026-01-17 19:31:38.03	322.19	8.99	-83.5	-79.0	2.4	0.00e+00	0	49	104	0	60	1048571
2026-01-17 19:31:39.04	322.36	8.92	-83.1	-79.0	2.4	0.00e+00	0	49	104	0	60	1048569
2026-01-17 19:31:40.05	322.53	8.85	-83.1	-79.0	2.4	0.00e+00	0	49	104	0	60	1048575
2026-01-17 19:31:41.06	322.70	8.78	-83.5	-79.0	2.3	0.00e+00	0	49	104	0	60	1048572
2026-01-17 19:31:42.06	322.87	8.71	-83.1	-79.0	2.3	0.00e+00	0	49	104	0	60	1048572
2026-01-17 19:31:43.07	323.04	8.64	-83.5	-79.0	2.4	0.00e+00	0	49	104	0	60	1048575
2026-01-17 19:31:44.08	323.21	8.57	-83.1	-79.0	2.4	0.00e+00	0	49	104	0	60	1048574
2026-01-17 19:31:45.08	323.38	8.50	-83.5	-79.0	2.4	0.00e+00	0	49	104	0	60	1048573
2026-01-17 19:31:46.09	323.54	8.43	-83.5	-79.0	2.3	0.00e+00	0	49	104	0	60	1048572
2026-01-17 19:31:47.10	323.71	8.36	-83.5	-79.0	2.3	0.00e+00	0	49	104	0	60	1048572
2026-01-17 19:31:48.10	323.87	8.29	-83.1	-79.0	2.5	0.00e+00	0	49	104	0	60	1048571
2026-01-17 19:31:49.10	324.03	8.22	-83.1	-79.0	2.4	0.00e+00	0	49	104	0	60	1048575
2026-01-17 19:31:50.11	324.19	8.15	-83.5	-79.0	2.4	0.00e+00	0	49	104	0	60	1048575
2026-01-17 19:31:51.11	324.35	8.08	-83.5	-79.0	2.5	0.00e+00	0	49	104	0	60	1048575
2026-01-17 19:31:52.12	324.51	8.01	-83.5	-79.0	2.3	0.00e+00	0	49	104	0	60	1048572
2026-01-17 19:31:53.12	324.67	7.94	-83.1	-79.0	2.5	0.00e+00	0	49	104	0	60	1048575
2026-01-17 19:31:54.13	324.83	7.87	-83.1	-79.0	2.4	0.00e+00	0	49	104	0	60	1048573
2026-01-17 19:31:55.13	324.99	7.80	-83.5	-79.0	2.2	0.00e+00	0	49	104	0	60	1048575
2026-01-17 19:31:56.14	325.14	7.73	-83.5	-79.0	2.4	0.00e+00	0	49	104	0	60	1048575
2026-01-17 19:31:57.15	325.30	7.67	-83.5	-79.0	2.4	0.00e+00	0	49	104	0	60	1048572
2026-01-17 19:31:58.16	325.46	7.60	-83.1	-79.0	2.5	0.00e+00	0	49	104	0	60	1048572
2026-01-17 19:31:59.17	325.61	7.53	-83.5	-79.0	2.4	0.00e+00	0	49	104	0	60	1048573
2026-01-17 19:32:00.17	325.76	7.46	-83.1	-79.0	2.4	0.00e+00	0	49	104	0	60	1048574
2026-01-17 19:32:01.18	325.91	7.39	-83.5	-79.0	2.5	0.00e+00	0	49	104	0	60	1048570
2026-01-17 19:32:02.19	326.07	7.32	-83.5	-79.0	2.4	0.00e+00	0	49	104	0	60	1048571
2026-01-17 19:32:03.19	326.22	7.25	-83.1	-79.0	2.4	0.00e+00	0	49	104	0	60	1048572
2026-01-17 19:32:04.20	326.37	7.18	-83.5	-79.0	2.4	0.00e+00	0	49	104	0	60	1048573
2026-01-17 19:32:05.20	326.51	7.12	-83.5	-79.0	2.5	0.00e+00	0	49	104	0	60	1048563
2026-01-17 19:32:06.21	326.66	7.05	-83.5	-79.0	2.4	0.00e+00	0	49	104	0	60	1048574
2026-01-17 19:32:07.22	326.81	6.98	-83.1	-79.0	2.4	0.00e+00	0	49	104	0	60	1048569
2026-01-17 19:32:08.22	326.95	6.91	-83.1	-79.0	2.4	0.00e+00	0	49	104	0	60	1048574
2026-01-17 19:32:09.23	327.10	6.84	-83.5	-79.0	2.5	0.00e+00	0	49	104	0	60	1048573
2026-01-17 19:32:10.24	327.25	6.78	-83.5	-79.0	2.4	0.00e+00	0	49	104	0	60	1048574
2026-01-17 19:32:11.24	327.39	6.71	-83.5	-79.0	2.4	0.00e+00	0	49	104	0	60	1048575
2026-01-17 19:32:12.25	327.53	6.64	-83.1	-79.0	2.5	0.00e+00	0	49	104	0	60	1048563
2026-01-17 19:32:13.26	327.67	6.57	-83.5	-79.0	2.4	0.00e+00	0	49	104	0	60	1048575
2026-01-17 19:32:14.26	327.81	6.51	-83.5	-79.0	2.4	0.00e+00	0	49	104	0	60	1048568
2026-01-17 19:32:15.27	327.96	6.44	-83.5	-79.0	2.4	0.00e+00	0	49	104	0	60	1048574
2026-01-17 19:32:16.28	328.10	6.37	-83.5	-79.0	2.3	0.00e+00	0	49	104	0	60	1048574
2026-01-17 19:32:17.28	328.23	6.31	-83.1	-79.0	2.3	0.00e+00	0	49	104	0	60	1048571
2026-01-17 19:32:18.29	328.37	6.24	-83.5	-79.0	2.4	0.00e+00	0	49	104	0	60	1048575
2026-01-17 19:32:19.29	328.51	6.17	-83.5	-79.0	2.4	0.00e+00	0	49	104	0	60	1048575
2026-01-17 19:32:20.30	328.65	6.10	-83.5	-79.0	2.5	0.00e+00	0	49	104	0	60	1048572
2026-01-17 19:32:21.31	328.78	6.04	-83.5	-79.0	2.5	0.00e+00	0	49	104	0	60	1048574
2026-01-17 19:32:22.32	328.92	5.97	-82.8	-79.0	2.4	0.00e+00	0	49	104	0	60	1048571
2026-01-17 19:32:23.33	329.05	5.90	-83.1	-79.0	2.4	0.00e+00	0	49	104	0	60	1048574
2026-01-17 19:32:24.33	329.19	5.84	-83.5	-79.0	2.3	0.00e+00	0	49	104	0	60	1048564
2026-01-17 19:32:25.34	329.32	5.77	-83.5	-79.0	2.4	0.00e+00	0	49	104	0	60	1048575
2026-01-17 19:32:26.35	329.45	5.71	-83.1	-79.0	2.4	0.00e+00	0	49	104	0	60	1048574
2026-01-17 19:32:27.36	329.58	5.64	-82.8	-79.0	2.4	0.00e+00	0	49	104	0	60	1048566
2026-01-17 19:32:28.36	329.71	5.58	-83.5	-79.0	2.3	0.00e+00	0	49	104	0	60	1048572
2026-01-17 19:32:29.37	329.84	5.51	-83.5	-79.0	2.5	0.00e+00	0	49	104	0	60	1048573
2026-01-17 19:32:30.38	329.97	5.44	-83.5	-79.0	2.4	0.00e+00	0	49	104	0	60	1048574
2026-01-17 19:32:31.38	330.10	5.38	-83.1	-79.0	2.4	0.00e+00	0	49	104	0	60	1048575
2026-01-17 19:32:32.39	330.23	5.31	-83.1	-79.0	2.4	0.00e+00	0	49	104	0	60	1048575
2026-01-17 19:32:33.39	330.36	5.25	-83.5	-79.0	2.4	0.00e+00	0	49	104	0	60	1048575
2026-01-17 19:32:34.40	330.48	5.18	-83.5	-79.0	2.4	0.00e+00	0	49	104	0	60	1048575
2026-01-17 19:32:35.40	330.61	5.12	-83.5	-79.0	2.3	0.00e+00	0	49	104	0	60	1048575
2026-01-17 19:32:36.41	330.73	5.05	-83.1	-79.0	2.4	0.00e+00	0	49	104	0	60	1048573
2026-01-17 19:32:37.42	330.86	4.99	-83.5	-79.0	2.4	0.00e+00	0	49	104	0	60	1048570
2026-01-17 19:32:38.42	330.98	4.92	-83.5	-79.0	2.4	0.00e+00	0	49	104	0	60	1048575
2026-01-17 19:32:39.43	331.11	4.86	-83.5	-79.0	2.4	0.00e+00	0	49	104	0	60	1048575
2026-01-17 19:32:40.43	331.23	4.80	-83.1	-79.0	2.3	0.00e+00	0	49	104	0	60	1048574
2026-01-17 19:32:41.44	331.35	4.73	-83.1	-79.0	2.5	0.00e+00	0	49	104	0	60	1048567
2026-01-17 19:32:42.45	331.47	4.67	-83.5	-79.0	2.4	0.00e+00	0	49	104	0	60	1048575
2026-01-17 19:32:43.45	331.59	4.60	-83.5	-79.0	2.4	0.00e+00	0	49	104	0	60	1048574
2026-01-17 19:32:44.46	331.71	4.54	-83.5	-79.0	2.4	0.00e+00	0	49	104	0	60	1048574
2026-01-17 19:32:45.47	331.83	4.48	-83.1	-79.0	2.4	0.00e+00	0	49	104	0	60	1048575
2026-01-17 19:32:46.48	331.95	4.41	-83.1	-79.0	2.4	0.00e+00	0	49	104	0	60	1048572
2026-01-17 19:32:47.49	332.07	4.35	-83.5	-79.0	2.4	0.00e+00	0	49	104	0	60	1048571
2026-01-17 19:32:48.50	332.19	4.28	-83.5	-79.0	2.4	0.00e+00	0	49	104	0	60	1048565
2026-01-17 19:32:49.50	332.30	4.22	-83.5	-79.0	2.4	0.00e+00	0	49	104	0	60	1048572
2026-01-17 19:32:50.51	332.42	4.16	-82.8	-79.0	2.4	0.00e+00	0	49	104	0	60	1048566
2026-01-17 19:32:51.52	332.54	4.09	-83.5	-79.0	2.3	0.00e+00	0	49	104	0	60	1048569
2026-01-17 19:32:52.52	332.65	4.03	-83.5	-79.0	2.3	0.00e+00	0	49	104	0	60	1048574
2026-01-17 19:32:53.52	332.77	3.97	-83.5	-79.0	2.2	0.00e+00	0	49	104	0	60	1048574
2026-01-17 19:32:54.53	332.88	3.91	-83.5	-79.0	2.4	0.00e+00	0	49	104	0	60	1048575
2026-01-17 19:32:55.54	332.99	3.84	-83.1	-79.0	2.4	0.00e+00	0	49	104	0	60	1048573
2026-01-17 19:32:56.54	333.11	3.78	-83.5	-79.0	2.5	0.00e+00	0	49	104	0	60	1048572
2026-01-17 19:32:57.55	333.22	3.72	-83.5	-79.0	2.4	0.00e+00	0	49	104	0	60	1048574
2026-01-17 19:32:58.55	333.33	3.66	-83.5	-79.0	2.4	0.00e+00	0	49	104	0	60	1048575
2026-01-17 19:32:59.56	333.44	3.59	-83.1	-79.0	2.3	0.00e+00	0	49	104	0	60	1048570
2026-01-17 19:33:00.56	333.55	3.53	-83.1	-79.0	2.4	0.00e+00	0	49	104	0	60	1048572
2026-01-17 19:33:01.57	333.66	3.47	-83.5	-79.0	2.5	0.00e+00	0	49	104	0	60	1048575
2026-01-17 19:33:02.58	333.77	3.41	-83.5	-79.0	2.4	0.00e+00	0	49	104	0	60	1048574
2026-01-17 19:33:03.58	333.88	3.35	-83.5	-79.0	2.4	0.00e+00	0	49	104	0	60	1048574
2026-01-17 19:33:04.59	333.99	3.29	-83.1	-79.0	2.4	0.00e+00	0	49	104	0	60	1048571
2026-01-17 19:33:05.59	334.09	3.22	-83.1	-79.0	2.4	0.00e+00	0	49	104	0	60	1048575
2026-01-17 19:33:06.60	334.20	3.16	-83.5	-79.0	2.4	0.00e+00	0	49	104	0	60	1048568
2026-01-17 19:33:07.60	334.31	3.10	-83.5	-79.0	2.4	0.00e+00	0	49	104	0	60	1048575
2026-01-17 19:33:08.61	334.41	3.04	-83.1	-79.0	2.3	0.00e+00	0	49	104	0	60	1048571
2026-01-17 19:33:09.61	334.52	2.98	-82.8	-79.0	2.4	0.00e+00	0	49	104	0	60	1048570
2026-01-17 19:33:10.61	334.62	2.92	-83.5	-79.0	2.3	0.00e+00	0	49	104	0	60	1048575
2026-01-17 19:33:11.62	334.73	2.86	-83.5	-79.0	2.4	0.00e+00	0	49	104	0	60	1048575
2026-01-17 19:33:12.62	334.83	2.80	-83.5	-79.0	2.4	0.00e+00	0	49	104	0	60	1048573
2026-01-17 19:33:13.63	334.93	2.74	-83.5	-79.0	2.4	0.00e+00	0	49	104	0	60	1048575
2026-01-17 19:33:14.64	335.04	2.68	-83.5	-79.0	2.3	0.00e+00	0	49	104	0	60	1048575
2026-01-17 19:33:15.64	335.14	2.62	-83.5	-79.0	2.4	0.00e+00	0	49	104	0	60	1048568
2026-01-17 19:33:16.65	335.24	2.56	-83.1	-79.0	2.4	0.00e+00	0	49	104	0	60	1048572
2026-01-17 19:33:17.66	335.34	2.50	-83.5	-79.0	2.4	0.00e+00	0	49	104	0	60	1048573
2026-01-17 19:33:18.67	335.44	2.44	-83.1	-79.0	2.4	0.00e+00	0	49	104	0	60	1048573
2026-01-17 19:33:19.67	335.54	2.38	-82.8	-79.0	2.3	0.00e+00	0	49	104	0	60	1048575
2026-01-17 19:33:20.68	335.64	2.32	-83.5	-79.0	2.4	0.00e+00	0	49	104	0	60	1048575
2026-01-17 19:33:21.69	335.74	2.26	-83.5	-79.0	2.4	0.00e+00	0	49	104	0	60	1048575
2026-01-17 19:33:22.70	335.84	2.20	-83.1	-79.0	2.3	0.00e+00	0	49	104	0	60	1048564
2026-01-17 19:33:23.71	335.94	2.14	-83.1	-79.0	2.4	0.00e+00	0	49	104	0	60	1048575
2026-01-17 19:33:24.71	336.04	2.08	-83.1	-79.0	2.4	0.00e+00	0	49	104	0	60	1048575
2026-01-17 19:33:25.72	336.14	2.02	-83.5	-79.0	2.4	0.00e+00	0	49	104	0	60	1048574
2026-01-17 19:33:26.72	336.23	1.96	-83.5	-79.0	2.3	0.00e+00	0	49	104	0	60	1048574
2026-01-17 19:33:27.73	336.33	1.90	-83.5	-79.0	2.4	0.00e+00	0	49	104	0	60	1048568
2026-01-17 19:33:28.73	336.43	1.84	-83.1	-79.0	2.4	0.00e+00	0	49	104	0	60	1048575
2026-01-17 19:33:29.73	336.52	1.78	-83.5	-79.0	2.3	0.00e+00	0	49	104	0	60	1048575
2026-01-17 19:33:30.74	336.62	1.72	-83.5	-79.0	2.3	0.00e+00	0	49	104	0	60	1048573
2026-01-17 19:33:31.75	336.71	1.66	-83.5	-79.0	2.4	0.00e+00	0	49	104	0	60	1048574
2026-01-17 19:33:32.75	336.80	1.61	-83.5	-79.0	2.5	0.00e+00	0	49	104	0	60	1048575
2026-01-17 19:33:33.76	336.90	1.55	-83.1	-79.0	2.3	0.00e+00	0	49	104	0	60	1048574
2026-01-17 19:33:34.77	336.99	1.49	-83.5	-79.0	2.4	0.00e+00	0	49	104	0	60	1048570
2026-01-17 19:33:35.78	337.09	1.43	-83.5	-79.0	2.4	0.00e+00	0	49	104	0	60	1048566
2026-01-17 19:33:36.79	337.18	1.37	-83.5	-79.0	2.4	0.00e+00	0	49	104	0	60	1048575
2026-01-17 19:33:37.79	337.27	1.31	-83.1	-79.0	2.3	0.00e+00	0	49	104	0	60	1048570
2026-01-17 19:33:38.80	337.36	1.26	-83.5	-79.0	2.4	0.00e+00	0	49	104	0	60	1048571
2026-01-17 19:33:39.81	337.45	1.20	-83.1	-79.0	2.4	0.00e+00	0	49	104	0	60	1048569
2026-01-17 19:33:40.81	337.54	1.14	-83.5	-79.0	2.4	0.00e+00	0	49	104	0	60	1048572
2026-01-17 19:33:41.82	337.63	1.08	-83.5	-79.0	2.3	0.00e+00	0	49	104	0	60	1048573
2026-01-17 19:33:42.83	337.72	1.03	-83.1	-79.0	2.3	0.00e+00	0	49	104	0	60	1048566
2026-01-17 19:33:43.83	337.81	0.97	-83.5	-79.0	2.4	0.00e+00	0	49	104	0	60	1048569
2026-01-17 19:33:44.83	337.90	0.91	-83.5	-79.0	2.4	0.00e+00	0	49	104	0	60	1048568
2026-01-17 19:33:45.84	337.99	0.85	-83.5	-79.0	2.4	0.00e+00	0	49	104	0	60	1048574
2026-01-17 19:33:46.84	338.08	0.80	-83.5	-79.0	2.5	0.00e+00	0	49	104	0	60	1048570
2026-01-17 19:33:47.84	338.17	0.74	-83.1	-79.0	2.2	0.00e+00	0	49	104	0	60	1048567
2026-01-17 19:33:48.85	338.25	0.68	-83.5	-79.0	2.4	0.00e+00	0	49	104	0	60	1048575
2026-01-17 19:33:49.86	338.34	0.63	-83.5	-79.0	2.4	0.00e+00	0	49	104	0	60	1048575
2026-01-17 19:33:50.86	338.43	0.57	-83.5	-79.0	2.4	0.00e+00	0	49	104	0	60	1048575
2026-01-17 19:33:51.87	338.51	0.51	-83.1	-79.0	2.4	0.00e+00	0	49	104	0	60	1048575
2026-01-17 19:33:52.87	338.60	0.46	-83.5	-79.0	2.4	0.00e+00	0	49	104	0	60	1048569
2026-01-17 19:33:53.88	338.68	0.40	-83.5	-79.0	2.3	0.00e+00	0	49	104	0	60	1048570
2026-01-17 19:33:54.89	338.77	0.34	-83.5	-79.0	2.4	0.00e+00	0	49	104	0	60	1048564
2026-01-17 19:33:55.89	338.85	0.29	-83.5	-79.0	2.4	0.00e+00	0	49	104	0	60	1048570
2026-01-17 19:33:56.90	338.94	0.23	-83.1	-79.0	2.4	0.00e+00	0	49	104	0	60	1048572
2026-01-17 19:33:57.91	339.02	0.18	-83.1	-79.0	2.4	0.00e+00	0	49	104	0	60	1048574
2026-01-17 19:33:58.92	339.11	0.12	-83.5	-79.0	2.4	0.00e+00	0	49	104	0	60	1048572
2026-01-17 19:33:59.93	339.19	0.06	-83.5	-79.0	2.4	0.00e+00	0	49	104	0	60	1048573
2026-01-17 19:34:00.93	339.27	0.01	-83.5	-79.0	2.4	0.00e+00	0	49	104	0	60	1048574
2026-01-17 19:34:01.94	339.36	-0.05	-82.8	-79.0	2.4	0.00e+00	0	49	104	0	60	1048575

#Closed at: 2026-01-17 19:34:02
#Recorded file [0 MB]: D:/Data/35015_260117_222330.dat