passes_logs/2026/01/17/R3.2S-Naryan-Mar/R3.2S-Naryan-Mar__20260117_234417_NOAA_21_JPSS-2_rec.log

#Pass ID: 20260117_234417_NOAA 21 (JPSS-2)
#Satellite: NOAA 21 (JPSS-2)
#Configuration: NOAA-21
#almurnet v.1.7.20240730
#Start time: 2026-01-17 23:46:48

#Version: 2.2.20231116
#Station: R3.2S-Naryan-Mar
#Location: 53.008057 lon 67.646978 lat
#TLE: 1 54234U 22150A   26017.26823908  .00000042  00000+0  40962-4 0  9992
#TLE: 2 54234  98.7501 318.1405 0000613 274.2947  85.8159 14.19535194165131

#Time	Az	El	Level	Level2	SNR	BER	BlckErr	Temp	State	Recorded	gain1	gain2
2026-01-17 23:46:48.96	23.03	10.84	-84.7	-88.6	3.7	7.64e-01	0	47	0	0	60	1048575
2026-01-17 23:46:49.96	23.01	10.93	-85.2	-88.8	2.8	1.56e+00	0	47	104	0	60	1048575
2026-01-17 23:46:50.97	22.98	11.02	-85.2	-88.8	2.7	1.56e+00	0	47	104	0	60	1048571
2026-01-17 23:46:51.97	22.96	11.11	-85.2	-88.8	2.7	1.56e+00	0	47	104	0	60	1048574
2026-01-17 23:46:52.98	22.94	11.20	-85.2	-88.8	2.8	1.56e+00	0	47	104	0	60	1048575
2026-01-17 23:46:53.99	22.92	11.29	-85.2	-88.8	2.7	1.56e+00	0	48	104	0	60	1048570
2026-01-17 23:46:55.00	22.90	11.38	-85.2	-88.8	2.5	1.56e+00	0	47	104	0	60	1048574
2026-01-17 23:46:56.01	22.87	11.47	-85.2	-88.8	2.7	1.56e+00	0	47	104	0	60	1048575
2026-01-17 23:46:57.02	22.85	11.57	-85.2	-88.8	2.8	1.56e+00	0	47	104	0	60	1048574
2026-01-17 23:46:58.02	22.83	11.66	-85.2	-88.8	2.6	1.56e+00	0	47	104	0	60	1048575
2026-01-17 23:46:59.02	22.80	11.75	-85.2	-88.8	2.7	1.56e+00	0	47	104	0	60	1048575
2026-01-17 23:47:00.02	22.78	11.84	-85.2	-88.8	2.7	1.56e+00	0	47	104	0	60	1048574
2026-01-17 23:47:01.03	22.76	11.94	-85.2	-88.8	2.9	1.56e+00	0	47	104	0	60	1048573
2026-01-17 23:47:02.04	22.73	12.03	-85.2	-88.8	2.6	1.56e+00	0	47	104	0	60	1048575
2026-01-17 23:47:03.04	22.71	12.12	-85.2	-88.8	2.6	1.56e+00	0	47	104	0	60	1048573
2026-01-17 23:47:04.05	22.68	12.22	-85.2	-88.8	2.7	1.56e+00	0	47	104	0	60	1048573
2026-01-17 23:47:05.06	22.66	12.31	-84.7	-88.8	2.8	1.56e+00	0	47	104	0	60	1048572
2026-01-17 23:47:06.07	22.63	12.41	-85.2	-88.8	2.8	1.56e+00	0	47	104	0	60	1048575
2026-01-17 23:47:07.08	22.61	12.50	-85.2	-88.8	2.6	1.56e+00	0	47	104	0	60	1048575
2026-01-17 23:47:08.09	22.58	12.60	-85.2	-88.8	2.8	1.56e+00	0	48	104	0	60	1048575
2026-01-17 23:47:09.09	22.56	12.70	-85.2	-88.8	2.8	1.56e+00	0	47	104	0	60	1048572
2026-01-17 23:47:10.09	22.53	12.79	-85.2	-88.8	2.7	1.56e+00	0	48	104	0	60	1048574
2026-01-17 23:47:11.10	22.51	12.89	-85.2	-88.8	2.9	1.56e+00	0	47	104	0	60	1048574
2026-01-17 23:47:12.10	22.48	12.99	-85.2	-88.8	2.9	1.56e+00	0	47	104	0	60	1048575
2026-01-17 23:47:13.11	22.46	13.08	-85.2	-88.8	2.7	1.56e+00	0	47	104	0	60	1048574
2026-01-17 23:47:14.12	22.43	13.18	-85.2	-88.8	3.0	1.56e+00	0	47	104	0	60	1048575
2026-01-17 23:47:15.13	22.40	13.28	-85.2	-88.8	2.9	1.56e+00	0	48	104	0	60	1048575
2026-01-17 23:47:16.13	22.38	13.38	-85.2	-88.8	2.8	1.56e+00	0	47	104	0	60	1048574
2026-01-17 23:47:17.14	22.35	13.48	-85.2	-88.8	2.7	1.56e+00	0	47	104	0	60	1048570
2026-01-17 23:47:18.14	22.32	13.58	-85.2	-88.8	2.6	1.56e+00	0	47	104	0	60	1048572
2026-01-17 23:47:19.15	22.30	13.68	-85.2	-88.8	2.7	1.56e+00	0	48	104	0	60	1048574
2026-01-17 23:47:20.15	22.27	13.78	-85.2	-88.8	2.8	1.56e+00	0	48	104	0	60	1048575
2026-01-17 23:47:21.16	22.24	13.88	-85.2	-88.8	2.7	1.56e+00	0	47	104	0	60	1048570
2026-01-17 23:47:22.16	22.21	13.98	-85.2	-88.8	2.6	1.56e+00	0	47	104	0	60	1048575
2026-01-17 23:47:23.17	22.18	14.08	-85.2	-88.8	2.9	1.56e+00	0	47	104	0	60	1048575
2026-01-17 23:47:24.17	22.16	14.18	-85.2	-88.8	2.6	1.56e+00	0	47	104	0	60	1048573
2026-01-17 23:47:25.18	22.13	14.29	-85.2	-88.8	2.5	1.56e+00	0	48	104	0	60	1048575
2026-01-17 23:47:26.19	22.10	14.39	-85.2	-88.8	2.6	1.56e+00	0	47	104	0	60	1048575
2026-01-17 23:47:27.20	22.07	14.49	-85.2	-88.8	2.6	1.56e+00	0	47	104	0	60	1048575
2026-01-17 23:47:28.21	22.04	14.60	-85.2	-88.8	2.5	1.56e+00	0	47	104	0	60	1048575
2026-01-17 23:47:29.21	22.01	14.70	-85.2	-88.8	2.7	1.56e+00	0	48	104	0	60	1048574
2026-01-17 23:47:30.22	21.98	14.81	-85.2	-88.8	2.6	1.56e+00	0	47	104	0	60	1048575
2026-01-17 23:47:31.23	21.95	14.91	-85.2	-88.8	2.7	1.56e+00	0	47	104	0	60	1048572
2026-01-17 23:47:32.24	21.92	15.02	-85.2	-88.8	2.7	1.56e+00	0	48	104	0	60	1048573
2026-01-17 23:47:33.24	21.89	15.12	-85.2	-88.8	2.4	1.56e+00	0	47	104	0	60	1048570
2026-01-17 23:47:34.25	21.86	15.23	-85.2	-88.8	2.8	1.56e+00	0	47	104	0	60	1048575
2026-01-17 23:47:35.26	21.83	15.34	-85.2	-88.8	2.7	1.56e+00	0	47	104	0	60	1048573
2026-01-17 23:47:36.26	21.80	15.44	-85.2	-88.8	2.6	1.56e+00	0	47	104	0	60	1048571
2026-01-17 23:47:37.27	21.77	15.55	-85.2	-88.8	2.4	1.56e+00	0	48	104	0	60	1048571
2026-01-17 23:47:38.28	21.73	15.66	-85.2	-88.8	2.6	1.56e+00	0	47	104	0	60	1048574
2026-01-17 23:47:39.29	21.70	15.77	-85.2	-88.8	2.6	1.56e+00	0	47	104	0	60	1048572
2026-01-17 23:47:40.30	21.67	15.88	-85.2	-88.8	2.9	1.56e+00	0	47	104	0	60	1048575
2026-01-17 23:47:41.30	21.64	15.99	-85.2	-88.8	2.8	1.56e+00	0	47	104	0	60	1048571
2026-01-17 23:47:42.30	21.61	16.10	-85.2	-88.8	2.7	1.56e+00	0	47	104	0	60	1048575
2026-01-17 23:47:43.31	21.57	16.21	-84.7	-88.8	2.5	1.56e+00	0	47	104	0	60	1048574
2026-01-17 23:47:44.32	21.54	16.32	-85.2	-88.8	2.6	1.56e+00	0	48	104	0	60	1048575
2026-01-17 23:47:45.33	21.51	16.43	-85.2	-88.8	2.7	1.56e+00	0	47	104	0	60	1048574
2026-01-17 23:47:46.34	21.47	16.54	-85.2	-88.8	2.7	1.56e+00	0	47	104	0	60	1048575
2026-01-17 23:47:47.35	21.44	16.66	-85.2	-88.8	2.9	1.56e+00	0	48	104	0	60	1048575
2026-01-17 23:47:48.35	21.40	16.77	-85.2	-88.8	2.6	1.56e+00	0	47	104	0	60	1048575
2026-01-17 23:47:49.36	21.37	16.88	-85.2	-88.8	2.7	1.56e+00	0	47	104	0	60	1048574
2026-01-17 23:47:50.36	21.33	17.00	-85.2	-88.8	2.6	1.56e+00	0	47	104	0	60	1048575
2026-01-17 23:47:51.37	21.30	17.11	-85.2	-88.8	2.7	1.56e+00	0	48	104	0	60	1048574
2026-01-17 23:47:52.38	21.26	17.23	-85.2	-88.8	2.9	1.56e+00	0	48	104	0	60	1048575
2026-01-17 23:47:53.39	21.23	17.35	-85.2	-88.8	2.6	1.56e+00	0	48	104	0	60	1048571
2026-01-17 23:47:54.40	21.19	17.46	-85.2	-88.8	2.9	1.56e+00	0	48	104	0	60	1048574
2026-01-17 23:47:55.40	21.15	17.58	-85.2	-88.8	2.9	1.56e+00	0	48	104	0	60	1048564
2026-01-17 23:47:56.41	21.12	17.70	-85.2	-88.8	2.6	1.56e+00	0	47	104	0	60	1048574
2026-01-17 23:47:57.42	21.08	17.81	-85.2	-88.8	2.5	1.56e+00	0	48	104	0	60	1048573
2026-01-17 23:47:58.43	21.04	17.93	-85.2	-88.8	2.5	1.56e+00	0	48	104	0	60	1048575
2026-01-17 23:47:59.44	21.00	18.05	-85.2	-88.8	2.4	1.56e+00	0	48	104	0	60	1048575
2026-01-17 23:48:00.44	20.97	18.17	-85.2	-88.8	2.7	1.56e+00	0	48	104	0	60	1048572
2026-01-17 23:48:01.45	20.93	18.29	-85.2	-88.8	2.8	1.56e+00	0	48	104	0	60	1048573
2026-01-17 23:48:02.46	20.89	18.41	-85.2	-88.8	2.6	1.56e+00	0	47	104	0	60	1048575
2026-01-17 23:48:03.46	20.85	18.54	-85.2	-88.8	2.7	1.56e+00	0	47	104	0	60	1048573
2026-01-17 23:48:04.47	20.81	18.66	-85.2	-88.8	2.6	1.56e+00	0	48	104	0	60	1048573
2026-01-17 23:48:05.47	20.77	18.78	-85.2	-88.8	2.8	1.56e+00	0	48	104	0	60	1048575
2026-01-17 23:48:06.48	20.73	18.90	-85.2	-88.8	2.8	1.56e+00	0	48	104	0	60	1048574
2026-01-17 23:48:07.48	20.69	19.03	-85.2	-88.8	2.7	1.56e+00	0	47	104	0	60	1048574
2026-01-17 23:48:08.49	20.65	19.15	-85.2	-88.8	2.8	1.56e+00	0	48	104	0	60	1048575
2026-01-17 23:48:09.49	20.61	19.28	-85.2	-88.8	2.8	1.56e+00	0	48	104	0	60	1048573
2026-01-17 23:48:10.50	20.57	19.40	-85.2	-88.8	2.8	1.56e+00	0	47	104	0	60	1048574
2026-01-17 23:48:11.51	20.52	19.53	-85.2	-88.8	2.7	1.56e+00	0	47	104	0	60	1048575
2026-01-17 23:48:12.52	20.48	19.66	-85.2	-88.8	2.5	1.56e+00	0	48	104	0	60	1048575
2026-01-17 23:48:13.52	20.44	19.78	-85.2	-88.8	2.8	1.56e+00	0	47	104	0	60	1048574
2026-01-17 23:48:14.53	20.39	19.91	-85.2	-88.8	2.7	1.56e+00	0	47	104	0	60	1048569
2026-01-17 23:48:15.54	20.35	20.04	-85.2	-88.8	2.8	1.56e+00	0	48	104	0	60	1048573
2026-01-17 23:48:16.55	20.31	20.17	-85.2	-88.8	2.9	1.56e+00	0	48	104	0	60	1048573
2026-01-17 23:48:17.55	20.26	20.30	-85.2	-88.8	2.6	1.56e+00	0	47	104	0	60	1048575
2026-01-17 23:48:18.56	20.22	20.43	-85.2	-88.8	2.8	1.56e+00	0	47	104	0	60	1048572
2026-01-17 23:48:19.57	20.17	20.56	-85.2	-88.8	2.6	1.56e+00	0	47	104	0	60	1048575
2026-01-17 23:48:20.58	20.13	20.70	-85.2	-88.8	2.8	1.56e+00	0	47	104	0	60	1048575
2026-01-17 23:48:21.59	20.08	20.83	-85.2	-88.8	2.8	1.56e+00	0	47	104	0	60	1048574
2026-01-17 23:48:22.60	20.03	20.96	-85.2	-88.8	2.7	1.56e+00	0	48	104	0	60	1048569
2026-01-17 23:48:23.60	19.99	21.10	-85.2	-88.8	2.8	1.56e+00	0	47	104	0	60	1048575
2026-01-17 23:48:24.61	19.94	21.23	-85.2	-88.8	2.7	1.56e+00	0	47	104	0	60	1048575
2026-01-17 23:48:25.62	19.89	21.37	-85.2	-88.8	2.8	1.56e+00	0	47	104	0	60	1048575
2026-01-17 23:48:26.62	19.84	21.50	-85.2	-88.8	2.7	1.56e+00	0	47	104	0	60	1048575
2026-01-17 23:48:27.63	19.79	21.64	-85.2	-88.8	2.6	1.56e+00	0	47	104	0	60	1048572
2026-01-17 23:48:28.64	19.74	21.78	-85.2	-88.8	2.8	1.56e+00	0	47	104	0	60	1048574
2026-01-17 23:48:29.64	19.69	21.92	-85.2	-88.8	2.6	1.56e+00	0	47	104	0	60	1048563
2026-01-17 23:48:30.65	19.64	22.06	-85.2	-88.8	2.8	1.56e+00	0	48	104	0	60	1048575
2026-01-17 23:48:31.65	19.59	22.19	-85.2	-88.8	2.7	1.56e+00	0	47	104	0	60	1048569
2026-01-17 23:48:32.66	19.54	22.34	-84.7	-88.8	2.6	1.56e+00	0	48	104	0	60	1048571
2026-01-17 23:48:33.67	19.49	22.48	-85.2	-88.8	2.7	1.56e+00	0	48	104	0	60	1048571
2026-01-17 23:48:34.68	19.44	22.62	-85.2	-88.8	2.8	1.56e+00	0	48	104	0	60	1048574
2026-01-17 23:48:35.68	19.39	22.76	-85.2	-88.8	2.7	1.56e+00	0	48	104	0	60	1048575
2026-01-17 23:48:36.69	19.33	22.91	-85.2	-88.8	2.6	1.56e+00	0	47	104	0	60	1048575
2026-01-17 23:48:37.70	19.28	23.05	-85.2	-88.8	2.6	1.56e+00	0	48	104	0	60	1048573
2026-01-17 23:48:38.71	19.22	23.20	-85.2	-88.8	2.7	1.56e+00	0	47	104	0	60	1048575
2026-01-17 23:48:39.71	19.17	23.34	-85.2	-88.8	2.9	1.56e+00	0	47	104	0	60	1048574
2026-01-17 23:48:40.72	19.11	23.49	-85.2	-88.8	2.8	1.56e+00	0	47	104	0	60	1048574
2026-01-17 23:48:41.72	19.06	23.64	-85.2	-88.8	2.6	1.56e+00	0	47	104	0	60	1048575
2026-01-17 23:48:42.72	19.00	23.78	-85.2	-88.8	2.9	1.56e+00	0	48	104	0	60	1048575
2026-01-17 23:48:43.73	18.94	23.93	-85.2	-88.8	2.8	1.56e+00	0	48	104	0	60	1048573
2026-01-17 23:48:44.74	18.89	24.09	-85.2	-88.8	2.6	1.56e+00	0	48	104	0	60	1048575
2026-01-17 23:48:45.75	18.83	24.24	-85.2	-88.8	2.8	1.56e+00	0	48	104	0	60	1048574
2026-01-17 23:48:46.75	18.77	24.39	-85.2	-88.8	2.5	1.56e+00	0	48	104	0	60	1048575
2026-01-17 23:48:47.76	18.71	24.54	-85.2	-88.8	2.6	1.56e+00	0	47	104	0	60	1048574
2026-01-17 23:48:48.76	18.65	24.69	-85.2	-88.8	2.6	1.56e+00	0	47	104	0	60	1048572
2026-01-17 23:48:49.77	18.59	24.85	-85.2	-88.8	2.9	1.56e+00	0	48	104	0	60	1048575
2026-01-17 23:48:50.78	18.53	25.00	-85.2	-88.8	2.8	1.55e+00	0	48	104	0	60	1048574
2026-01-17 23:48:51.78	18.47	25.16	-85.2	-88.8	2.7	1.56e+00	0	48	104	0	60	1048575
2026-01-17 23:48:52.79	18.40	25.32	-85.2	-88.8	2.6	1.56e+00	0	48	104	0	60	1048574
2026-01-17 23:48:53.80	18.34	25.48	-85.2	-88.8	2.9	1.56e+00	0	47	104	0	60	1048574
2026-01-17 23:48:54.81	18.27	25.63	-85.2	-88.8	2.6	1.56e+00	0	47	104	0	60	1048575
2026-01-17 23:48:55.81	18.21	25.79	-85.2	-88.8	2.6	1.56e+00	0	48	104	0	60	1048575
2026-01-17 23:48:56.82	18.14	25.95	-85.2	-88.8	2.7	1.56e+00	0	48	104	0	60	1048574
2026-01-17 23:48:57.83	18.08	26.12	-85.2	-88.8	2.9	1.56e+00	0	48	104	0	60	1048573
2026-01-17 23:48:58.84	18.01	26.28	-85.2	-88.8	2.6	1.56e+00	0	48	104	0	60	1048575
2026-01-17 23:48:59.84	17.94	26.44	-85.2	-88.8	2.6	1.56e+00	0	47	104	0	60	1048568
2026-01-17 23:49:00.85	17.88	26.61	-84.3	-88.8	2.9	1.56e+00	0	47	104	0	60	1048572
2026-01-17 23:49:01.85	17.81	26.77	-85.2	-88.8	2.6	1.56e+00	0	48	104	0	60	1048572
2026-01-17 23:49:02.86	17.74	26.94	-85.2	-88.8	2.4	1.56e+00	0	48	104	0	60	1048574
2026-01-17 23:49:03.86	17.67	27.10	-84.3	-88.8	2.6	1.56e+00	0	47	104	0	60	1048574
2026-01-17 23:49:04.86	17.60	27.27	-85.2	-88.8	2.7	1.56e+00	0	47	104	0	60	1048574
2026-01-17 23:49:05.87	17.52	27.44	-85.2	-88.8	3.0	1.56e+00	0	47	104	0	60	1048575
2026-01-17 23:49:06.88	17.45	27.61	-85.2	-88.8	2.8	1.56e+00	0	47	104	0	60	1048574
2026-01-17 23:49:07.89	17.38	27.78	-85.2	-88.8	2.6	1.56e+00	0	48	104	0	60	1048574
2026-01-17 23:49:08.89	17.30	27.96	-85.2	-88.8	2.6	1.56e+00	0	48	104	0	60	1048575
2026-01-17 23:49:09.90	17.23	28.13	-85.2	-88.8	2.8	1.56e+00	0	47	104	0	60	1048575
2026-01-17 23:49:10.91	17.15	28.31	-85.2	-88.8	2.8	1.56e+00	0	47	104	0	60	1048575
2026-01-17 23:49:11.91	17.07	28.48	-85.2	-88.8	2.7	1.56e+00	0	48	104	0	60	1048571
2026-01-17 23:49:12.92	16.99	28.66	-85.2	-88.8	2.6	1.56e+00	0	47	104	0	60	1048574
2026-01-17 23:49:13.92	16.91	28.83	-85.2	-88.8	2.7	1.56e+00	0	47	104	0	60	1048573
2026-01-17 23:49:14.93	16.83	29.01	-85.2	-88.8	2.5	1.56e+00	0	47	104	0	60	1048573
2026-01-17 23:49:15.94	16.75	29.19	-85.2	-88.8	3.0	1.56e+00	0	47	104	0	60	1048575
2026-01-17 23:49:16.94	16.67	29.37	-85.2	-88.8	3.0	1.56e+00	0	47	104	0	60	1048575
2026-01-17 23:49:17.95	16.59	29.55	-85.2	-88.8	2.7	1.56e+00	0	47	104	0	60	1048573
2026-01-17 23:49:18.96	16.50	29.74	-85.2	-88.8	2.6	1.56e+00	0	48	104	0	60	1048567
2026-01-17 23:49:19.97	16.42	29.92	-85.2	-88.8	2.7	1.56e+00	0	48	104	0	60	1048573
2026-01-17 23:49:20.98	16.33	30.11	-85.2	-88.8	2.5	1.56e+00	0	48	104	0	60	1048575
2026-01-17 23:49:21.98	16.25	30.29	-85.2	-88.8	2.8	1.56e+00	0	47	104	0	60	1048575
2026-01-17 23:49:22.99	16.16	30.48	-85.2	-88.8	2.6	1.56e+00	0	47	104	0	60	1048575
2026-01-17 23:49:24.00	16.07	30.67	-85.2	-88.8	2.6	1.56e+00	0	47	104	0	60	1048574
2026-01-17 23:49:25.00	15.98	30.86	-85.2	-88.8	2.6	1.56e+00	0	47	104	0	60	1048575
2026-01-17 23:49:26.02	15.89	31.05	-85.2	-88.8	2.7	1.56e+00	0	47	104	0	60	1048574
2026-01-17 23:49:27.02	15.79	31.24	-85.2	-88.8	2.7	1.56e+00	0	48	104	0	60	1048575
2026-01-17 23:49:28.03	15.70	31.44	-85.2	-88.8	2.8	1.56e+00	0	48	104	0	60	1048575
2026-01-17 23:49:29.04	15.61	31.63	-85.2	-88.8	2.6	1.56e+00	0	48	104	0	60	1048574
2026-01-17 23:49:30.04	15.51	31.83	-85.2	-88.8	2.7	1.56e+00	0	48	104	0	60	1048575
2026-01-17 23:49:31.05	15.41	32.02	-85.2	-88.8	2.7	1.56e+00	0	48	104	0	60	1048574
2026-01-17 23:49:32.05	15.31	32.22	-85.2	-88.8	2.8	1.56e+00	0	48	104	0	60	1048567
2026-01-17 23:49:33.06	15.21	32.42	-83.9	-88.8	2.6	1.56e+00	0	48	104	0	60	1048575
2026-01-17 23:49:34.07	15.11	32.62	-85.2	-88.8	2.7	1.56e+00	0	48	104	0	60	1048574
2026-01-17 23:49:35.07	15.01	32.82	-85.2	-88.8	2.7	1.56e+00	0	47	104	0	60	1048572
2026-01-17 23:49:36.08	14.91	33.03	-85.2	-88.8	2.7	1.56e+00	0	48	104	0	60	1048574
2026-01-17 23:49:37.09	14.80	33.23	-85.2	-88.8	2.6	1.56e+00	0	48	104	0	60	1048570
2026-01-17 23:49:38.10	14.70	33.44	-85.2	-88.8	2.8	1.56e+00	0	48	104	0	60	1048575
2026-01-17 23:49:39.11	14.59	33.65	-84.7	-88.8	2.7	1.56e+00	0	48	104	0	60	1048575
2026-01-17 23:49:40.12	14.48	33.86	-85.2	-88.8	2.6	1.56e+00	0	48	104	0	60	1048575
2026-01-17 23:49:41.12	14.37	34.06	-85.2	-88.8	2.8	1.56e+00	0	48	104	0	60	1048575
2026-01-17 23:49:42.13	14.26	34.27	-84.7	-88.8	2.8	1.56e+00	0	48	104	0	60	1048575
2026-01-17 23:49:43.14	14.14	34.49	-85.2	-88.8	2.6	1.56e+00	0	47	104	0	60	1048575
2026-01-17 23:49:44.15	14.03	34.70	-85.2	-88.8	2.6	1.56e+00	0	47	104	0	60	1048575
2026-01-17 23:49:45.16	13.91	34.92	-85.2	-88.8	2.7	1.56e+00	0	48	104	0	60	1048575
2026-01-17 23:49:46.16	13.79	35.13	-85.2	-88.8	2.6	1.56e+00	0	47	104	0	60	1048575
2026-01-17 23:49:47.16	13.67	35.35	-85.2	-88.8	2.7	1.56e+00	0	47	104	0	60	1048575
2026-01-17 23:49:48.17	13.55	35.57	-85.2	-88.8	2.8	1.56e+00	0	47	104	0	60	1048572
2026-01-17 23:49:49.18	13.43	35.79	-85.2	-88.8	3.0	1.56e+00	0	48	104	0	60	1048575
2026-01-17 23:49:50.18	13.30	36.01	-85.2	-88.8	2.5	1.56e+00	0	48	104	0	60	1048575
2026-01-17 23:49:51.19	13.17	36.23	-85.2	-88.8	2.7	1.56e+00	0	48	104	0	60	1048575
2026-01-17 23:49:52.19	13.05	36.45	-85.2	-88.8	2.8	1.56e+00	0	48	104	0	60	1048571
2026-01-17 23:49:53.20	12.92	36.68	-85.2	-88.8	2.8	1.56e+00	0	48	104	0	60	1048575
2026-01-17 23:49:54.21	12.78	36.91	-85.2	-88.8	2.7	1.56e+00	0	48	104	0	60	1048564
2026-01-17 23:49:55.22	12.65	37.14	-85.2	-88.8	2.7	1.56e+00	0	48	104	0	60	1048569
2026-01-17 23:49:56.23	12.51	37.37	-85.2	-88.8	2.6	1.56e+00	0	48	104	0	60	1048573
2026-01-17 23:49:57.23	12.37	37.60	-85.2	-88.8	2.7	1.56e+00	0	48	104	0	60	1048573
2026-01-17 23:49:58.24	12.23	37.83	-85.2	-88.8	2.7	1.56e+00	0	48	104	0	60	1048575
2026-01-17 23:49:59.25	12.09	38.07	-85.2	-88.8	2.8	1.56e+00	0	48	104	0	60	1048573
2026-01-17 23:50:00.26	11.95	38.30	-85.2	-88.8	2.8	1.56e+00	0	48	104	0	60	1048570
2026-01-17 23:50:01.26	11.80	38.54	-85.2	-88.8	2.8	1.56e+00	0	48	104	0	60	1048572
2026-01-17 23:50:02.27	11.65	38.78	-85.2	-88.8	2.7	1.56e+00	0	48	104	0	60	1048575
2026-01-17 23:50:03.27	11.50	39.02	-84.7	-88.8	2.9	1.56e+00	0	48	104	0	60	1048575
2026-01-17 23:50:04.27	11.35	39.26	-85.2	-88.8	2.8	1.56e+00	0	48	104	0	60	1048574
2026-01-17 23:50:05.28	11.19	39.50	-85.2	-88.8	2.9	1.56e+00	0	48	104	0	60	1048569
2026-01-17 23:50:06.28	11.04	39.74	-85.2	-88.8	2.8	1.56e+00	0	48	104	0	60	1048573
2026-01-17 23:50:07.29	10.87	39.99	-85.2	-88.8	2.7	1.56e+00	0	48	104	0	60	1048572
2026-01-17 23:50:08.29	10.71	40.23	-85.2	-88.8	2.7	1.56e+00	0	47	104	0	60	1048574
2026-01-17 23:50:09.29	10.55	40.48	-85.2	-88.8	2.6	1.56e+00	0	48	104	0	60	1048573
2026-01-17 23:50:10.30	10.38	40.73	-85.2	-88.8	2.7	1.56e+00	0	48	104	0	60	1048570
2026-01-17 23:50:11.31	10.21	40.98	-85.2	-88.8	2.5	1.56e+00	0	47	104	0	60	1048573
2026-01-17 23:50:12.31	10.03	41.23	-85.2	-88.8	2.7	1.56e+00	0	47	104	0	60	1048575
2026-01-17 23:50:13.32	9.86	41.49	-85.2	-88.8	2.5	1.56e+00	0	48	104	0	60	1048575
2026-01-17 23:50:14.32	9.68	41.74	-85.2	-88.8	2.6	1.56e+00	0	48	104	0	60	1048570
2026-01-17 23:50:15.33	9.50	42.00	-85.2	-88.8	2.8	1.56e+00	0	48	104	0	60	1048574
2026-01-17 23:50:16.34	9.31	42.26	-85.2	-88.8	2.5	1.56e+00	0	48	104	0	60	1048574
2026-01-17 23:50:17.34	9.12	42.52	-85.2	-88.8	2.5	1.56e+00	0	47	104	0	60	1048575
2026-01-17 23:50:18.35	8.93	42.78	-85.2	-88.8	2.8	1.56e+00	0	48	104	0	60	1048574
2026-01-17 23:50:19.35	8.74	43.04	-85.2	-88.8	2.6	1.56e+00	0	48	104	0	60	1048573
2026-01-17 23:50:20.36	8.54	43.31	-85.2	-88.8	2.7	1.56e+00	0	47	104	0	60	1048574
2026-01-17 23:50:21.36	8.34	43.57	-85.2	-88.8	2.6	1.56e+00	0	48	104	0	60	1048573
2026-01-17 23:50:22.37	8.13	43.84	-85.2	-88.8	2.7	1.56e+00	0	47	104	0	60	1048575
2026-01-17 23:50:23.38	7.92	44.11	-85.2	-88.8	2.8	1.56e+00	0	48	104	0	60	1048572
2026-01-17 23:50:24.38	7.71	44.38	-85.2	-88.8	2.7	1.56e+00	0	48	104	0	60	1048575
2026-01-17 23:50:25.39	7.50	44.65	-85.2	-88.8	2.8	1.56e+00	0	48	104	0	60	1048575
2026-01-17 23:50:26.40	7.28	44.93	-85.2	-88.8	2.6	1.56e+00	0	48	104	0	60	1048573
2026-01-17 23:50:27.40	7.06	45.20	-85.2	-88.8	2.6	1.56e+00	0	48	104	0	60	1048575
2026-01-17 23:50:28.41	6.83	45.48	-85.2	-88.8	2.6	1.56e+00	0	48	104	0	60	1048573
2026-01-17 23:50:29.42	6.60	45.76	-85.2	-88.8	2.7	1.56e+00	0	48	104	0	60	1048574
2026-01-17 23:50:30.42	6.36	46.03	-85.2	-88.8	2.7	1.56e+00	0	48	104	0	60	1048570
2026-01-17 23:50:31.43	6.12	46.31	-85.2	-88.8	2.7	1.56e+00	0	48	104	0	60	1048574
2026-01-17 23:50:32.43	5.88	46.59	-85.2	-88.8	2.5	1.56e+00	0	47	104	0	60	1048575
2026-01-17 23:50:33.44	5.63	46.88	-85.2	-88.8	2.5	1.56e+00	0	48	104	0	60	1048568
2026-01-17 23:50:34.45	5.37	47.16	-85.2	-88.8	2.7	1.56e+00	0	48	104	0	60	1048573
2026-01-17 23:50:35.45	5.12	47.45	-85.2	-88.8	2.6	1.56e+00	0	48	104	0	60	1048573
2026-01-17 23:50:36.46	4.85	47.73	-85.2	-88.8	2.6	1.56e+00	0	48	104	0	60	1048573
2026-01-17 23:50:37.47	4.59	48.02	-85.2	-88.8	2.6	1.56e+00	0	48	104	0	60	1048575
2026-01-17 23:50:38.47	4.31	48.31	-83.5	-88.8	2.8	1.56e+00	0	48	104	0	60	1048574
2026-01-17 23:50:39.47	4.04	48.60	-85.2	-88.8	2.6	1.56e+00	0	48	104	0	60	1048573
2026-01-17 23:50:40.48	3.75	48.89	-85.2	-88.8	2.6	1.56e+00	0	48	104	0	60	1048575
2026-01-17 23:50:41.48	3.47	49.18	-85.2	-88.8	2.9	1.56e+00	0	48	104	0	60	1048574
2026-01-17 23:50:42.49	3.17	49.48	-83.5	-88.8	2.6	1.56e+00	0	47	104	0	60	1048573
2026-01-17 23:50:43.50	2.87	49.77	-85.2	-88.8	3.1	1.56e+00	0	48	104	0	60	1048575
2026-01-17 23:50:44.51	2.56	50.07	-85.2	-88.8	2.7	1.56e+00	0	48	104	0	60	1048575
2026-01-17 23:50:45.51	2.25	50.37	-85.2	-88.8	2.6	1.56e+00	0	48	104	0	60	1048573
2026-01-17 23:50:46.52	1.93	50.66	-85.2	-88.8	2.7	1.56e+00	0	48	104	0	60	1048571
2026-01-17 23:50:47.53	1.60	50.96	-85.2	-88.8	2.7	1.56e+00	0	48	104	0	60	1048575
2026-01-17 23:50:48.53	1.27	51.26	-85.2	-88.8	2.9	1.56e+00	0	48	104	0	60	1048571
2026-01-17 23:50:49.54	0.93	51.56	-85.2	-88.8	2.4	1.56e+00	0	48	104	0	60	1048575
2026-01-17 23:50:50.54	0.59	51.86	-85.2	-88.8	2.7	1.56e+00	0	48	104	0	60	1048574
2026-01-17 23:50:51.55	0.24	52.17	-85.2	-88.8	2.7	1.56e+00	0	48	104	0	60	1048568
2026-01-17 23:50:52.56	359.88	52.47	-85.2	-88.8	2.6	1.56e+00	0	48	104	0	60	1048573
2026-01-17 23:50:53.57	359.51	52.78	-85.2	-88.8	2.6	1.56e+00	0	48	104	0	60	1048574
2026-01-17 23:50:54.56	359.14	53.08	-85.2	-88.8	2.7	1.56e+00	0	48	104	0	60	1048571
2026-01-17 23:50:55.56	358.76	53.38	-85.2	-88.8	2.8	1.56e+00	0	48	104	0	60	1048564
2026-01-17 23:50:56.57	358.36	53.69	-85.2	-88.8	2.5	1.56e+00	0	48	104	0	60	1048575
2026-01-17 23:50:57.57	357.96	53.99	-85.2	-88.8	2.8	1.56e+00	0	48	104	0	60	1048573
2026-01-17 23:50:58.58	357.55	54.30	-84.7	-88.8	2.7	1.56e+00	0	47	104	0	60	1048573
2026-01-17 23:50:59.58	357.14	54.60	-85.2	-88.8	2.6	1.56e+00	0	48	104	0	60	1048574
2026-01-17 23:51:00.59	356.71	54.91	-85.2	-88.8	2.6	1.56e+00	0	48	104	0	60	1048574
2026-01-17 23:51:01.59	356.28	55.21	-85.2	-88.8	2.5	1.56e+00	0	48	104	0	60	1048575
2026-01-17 23:51:02.59	355.83	55.52	-85.2	-88.8	2.7	1.56e+00	0	48	104	0	60	1048573
2026-01-17 23:51:03.60	355.38	55.83	-85.2	-88.8	2.8	1.56e+00	0	48	104	0	60	1048575
2026-01-17 23:51:04.60	354.91	56.13	-85.2	-88.8	2.9	1.56e+00	0	47	104	0	60	1048575
2026-01-17 23:51:05.61	354.44	56.44	-85.2	-88.8	2.5	1.56e+00	0	48	104	0	60	1048572
2026-01-17 23:51:06.62	353.95	56.75	-85.2	-88.8	2.6	1.56e+00	0	48	104	0	60	1048575
2026-01-17 23:51:07.63	353.45	57.05	-85.2	-88.8	2.7	1.56e+00	0	48	104	0	60	1048572
2026-01-17 23:51:08.62	352.95	57.36	-84.7	-88.8	2.4	1.56e+00	0	48	104	0	60	1048571
2026-01-17 23:51:09.63	352.42	57.66	-85.2	-88.8	2.7	1.56e+00	0	48	104	0	60	1048575
2026-01-17 23:51:10.63	351.89	57.96	-85.2	-88.8	3.0	1.56e+00	0	48	104	0	60	1048575
2026-01-17 23:51:11.64	351.35	58.27	-85.2	-88.8	2.5	1.56e+00	0	48	104	0	60	1048575
2026-01-17 23:51:12.64	350.79	58.57	-84.7	-88.8	2.7	1.56e+00	0	48	104	0	60	1048575
2026-01-17 23:51:13.65	350.22	58.87	-84.3	-88.8	2.7	1.56e+00	0	48	104	0	60	1048575
2026-01-17 23:51:14.65	349.64	59.17	-85.2	-88.8	2.6	1.56e+00	0	48	104	0	60	1048574
2026-01-17 23:51:15.65	349.05	59.47	-85.2	-88.8	2.5	1.56e+00	0	48	104	0	60	1048574
2026-01-17 23:51:16.66	348.43	59.77	-85.2	-88.8	2.8	1.56e+00	0	48	104	0	60	1048569
2026-01-17 23:51:17.66	347.81	60.06	-84.3	-88.8	2.7	1.56e+00	0	47	104	0	60	1048575
2026-01-17 23:51:18.67	347.17	60.35	-85.2	-88.8	2.8	1.56e+00	0	48	104	0	60	1048574
2026-01-17 23:51:19.67	346.52	60.64	-85.2	-88.8	2.8	1.56e+00	0	48	104	0	60	1048573
2026-01-17 23:51:20.68	345.84	60.94	-85.2	-88.8	2.8	1.56e+00	0	48	104	0	60	1048574
2026-01-17 23:51:21.68	345.16	61.22	-85.2	-88.8	2.7	1.56e+00	0	48	104	0	60	1048573
2026-01-17 23:51:22.69	344.46	61.51	-84.7	-88.8	2.7	1.56e+00	0	48	104	0	60	1048575
2026-01-17 23:51:23.70	343.74	61.79	-85.2	-88.8	2.8	1.56e+00	0	48	104	0	60	1048575
2026-01-17 23:51:24.71	343.00	62.07	-85.2	-88.8	2.8	1.56e+00	0	48	104	0	60	1048570
2026-01-17 23:51:25.71	342.25	62.35	-85.2	-88.8	2.9	1.56e+00	0	48	104	0	60	1048574
2026-01-17 23:51:26.72	341.48	62.62	-85.2	-88.8	2.8	1.56e+00	0	48	104	0	60	1048571
2026-01-17 23:51:27.72	340.70	62.89	-85.2	-88.8	2.8	1.56e+00	0	48	104	0	60	1048575
2026-01-17 23:51:28.72	339.90	63.16	-85.2	-88.8	2.7	1.56e+00	0	48	104	0	60	1048574
2026-01-17 23:51:29.73	339.07	63.42	-85.2	-88.8	2.7	1.56e+00	0	48	104	0	60	1048574
2026-01-17 23:51:30.73	338.23	63.68	-85.2	-88.8	2.7	1.56e+00	0	48	104	0	60	1048575
2026-01-17 23:51:31.73	337.38	63.93	-85.2	-88.8	2.6	1.56e+00	0	48	104	0	60	1048575
2026-01-17 23:51:32.74	336.50	64.18	-85.2	-88.8	2.8	1.56e+00	0	48	104	0	60	1048575
2026-01-17 23:51:33.74	335.60	64.42	-85.2	-88.8	2.6	1.56e+00	0	47	104	0	60	1048575
2026-01-17 23:51:34.75	334.68	64.67	-85.2	-88.8	2.4	1.56e+00	0	48	104	0	60	1048574
2026-01-17 23:51:35.76	333.74	64.90	-85.2	-88.8	2.8	1.56e+00	0	47	104	0	60	1048574
2026-01-17 23:51:36.77	332.78	65.13	-85.2	-88.8	2.7	1.56e+00	0	48	104	0	60	1048575
2026-01-17 23:51:37.77	331.81	65.35	-84.7	-88.8	2.7	1.56e+00	0	48	104	0	60	1048574
2026-01-17 23:51:38.77	330.82	65.57	-85.2	-88.8	2.7	1.56e+00	0	48	104	0	60	1048575
2026-01-17 23:51:39.78	329.80	65.78	-85.2	-88.8	2.4	1.56e+00	0	48	104	0	60	1048572
2026-01-17 23:51:40.79	328.76	65.99	-85.2	-88.8	2.7	1.56e+00	0	47	104	0	60	1048575
2026-01-17 23:51:41.79	327.71	66.19	-85.2	-88.8	2.7	1.56e+00	0	47	104	0	60	1048573
2026-01-17 23:51:42.80	326.63	66.38	-85.2	-88.8	2.7	1.56e+00	0	48	104	0	60	1048575
2026-01-17 23:51:43.81	325.54	66.56	-85.2	-88.8	2.6	1.56e+00	0	48	104	0	60	1048573
2026-01-17 23:51:44.81	324.43	66.74	-85.2	-88.8	2.6	1.56e+00	0	48	104	0	60	1048573
2026-01-17 23:51:45.82	323.30	66.91	-84.7	-88.8	2.8	1.56e+00	0	48	104	0	60	1048575
2026-01-17 23:51:46.82	322.16	67.07	-85.2	-88.8	2.6	1.56e+00	0	48	104	0	60	1048575
2026-01-17 23:51:47.82	321.00	67.22	-84.7	-88.8	2.5	1.56e+00	0	48	104	0	60	1048575
2026-01-17 23:51:48.83	319.81	67.36	-84.7	-88.8	2.5	1.56e+00	0	48	104	0	60	1048575
2026-01-17 23:51:49.83	318.62	67.50	-85.2	-88.8	2.9	1.56e+00	0	48	104	0	60	1048575
2026-01-17 23:51:50.84	317.40	67.62	-83.9	-88.8	2.7	1.56e+00	0	48	104	0	60	1048573
2026-01-17 23:51:51.84	316.18	67.74	-85.2	-88.8	2.6	1.56e+00	0	48	104	0	60	1048569
2026-01-17 23:51:52.85	314.94	67.85	-85.2	-88.8	2.6	1.56e+00	0	48	104	0	60	1048574
2026-01-17 23:51:53.85	313.69	67.94	-85.2	-88.8	2.5	1.56e+00	0	48	104	0	60	1048571
2026-01-17 23:51:54.86	312.42	68.03	-85.2	-88.8	2.8	1.56e+00	0	47	104	0	60	1048573
2026-01-17 23:51:55.87	311.14	68.11	-85.2	-88.8	2.8	1.56e+00	0	48	104	0	60	1048575
2026-01-17 23:51:56.87	309.86	68.18	-85.2	-88.8	2.9	1.56e+00	0	48	104	0	60	1048573
2026-01-17 23:51:57.87	308.58	68.24	-85.2	-88.8	2.8	1.56e+00	0	48	104	0	60	1048570
2026-01-17 23:51:58.88	307.27	68.28	-85.2	-88.8	2.8	1.56e+00	0	48	104	0	60	1048574
2026-01-17 23:51:59.89	305.96	68.32	-85.2	-88.8	2.8	1.56e+00	0	48	104	0	60	1048574
2026-01-17 23:52:00.89	304.66	68.35	-85.2	-88.8	2.7	1.56e+00	0	48	104	0	60	1048575
2026-01-17 23:52:01.90	303.34	68.37	-85.2	-88.8	2.7	1.56e+00	0	48	104	0	60	1048572
2026-01-17 23:52:02.91	302.02	68.37	-85.2	-88.8	2.7	1.56e+00	0	48	104	0	60	1048575
2026-01-17 23:52:03.92	300.70	68.37	-85.2	-88.8	2.6	1.56e+00	0	48	104	0	60	1048572
2026-01-17 23:52:04.92	299.40	68.35	-85.2	-88.8	2.7	1.56e+00	0	48	104	0	60	1048573
2026-01-17 23:52:05.92	298.09	68.33	-84.7	-88.8	2.7	1.56e+00	0	48	104	0	60	1048572
2026-01-17 23:52:06.93	296.78	68.29	-85.2	-88.8	2.6	1.56e+00	0	48	104	0	60	1048575
2026-01-17 23:52:07.94	295.48	68.24	-85.2	-88.8	2.8	1.56e+00	0	48	104	0	60	1048575
2026-01-17 23:52:08.95	294.18	68.18	-85.2	-88.8	2.8	1.56e+00	0	48	104	0	60	1048575
2026-01-17 23:52:09.95	292.90	68.12	-85.2	-88.8	2.6	1.56e+00	0	48	104	0	60	1048575
2026-01-17 23:52:10.96	291.62	68.04	-85.2	-88.8	2.7	1.56e+00	0	48	104	0	60	1048572
2026-01-17 23:52:11.97	290.34	67.95	-85.2	-88.8	2.8	1.56e+00	0	47	104	0	60	1048575
2026-01-17 23:52:12.98	289.08	67.85	-85.2	-88.8	2.6	1.56e+00	0	48	104	0	60	1048573
2026-01-17 23:52:13.98	287.85	67.75	-85.2	-88.8	2.7	1.56e+00	0	48	104	0	60	1048573
2026-01-17 23:52:14.99	286.61	67.63	-85.2	-88.8	2.7	1.56e+00	0	48	104	0	60	1048573
2026-01-17 23:52:16.00	285.40	67.51	-85.2	-88.8	2.6	1.56e+00	0	48	104	0	60	1048574
2026-01-17 23:52:17.01	284.19	67.37	-85.2	-88.8	2.7	1.56e+00	0	48	104	0	60	1048575
2026-01-17 23:52:18.01	283.01	67.23	-85.2	-88.8	2.8	1.56e+00	0	48	104	0	60	1048575
2026-01-17 23:52:19.02	281.84	67.08	-85.2	-88.8	2.6	1.56e+00	0	48	104	0	60	1048573
2026-01-17 23:52:20.03	280.69	66.91	-84.3	-88.8	2.6	1.56e+00	0	48	104	0	60	1048573
2026-01-17 23:52:21.03	279.56	66.75	-85.2	-88.8	2.9	1.56e+00	0	47	104	0	60	1048568
2026-01-17 23:52:22.04	278.45	66.57	-85.2	-88.8	2.5	1.56e+00	0	48	104	0	60	1048574
2026-01-17 23:52:23.04	277.36	66.39	-85.2	-88.8	2.5	1.56e+00	0	47	104	0	60	1048572
2026-01-17 23:52:24.05	276.28	66.20	-85.2	-88.8	2.8	1.56e+00	0	48	104	0	60	1048573
2026-01-17 23:52:25.06	275.22	66.00	-85.2	-88.8	2.7	1.56e+00	0	48	104	0	60	1048573
2026-01-17 23:52:26.06	274.19	65.79	-85.2	-88.8	2.8	1.56e+00	0	48	104	0	60	1048571
2026-01-17 23:52:27.07	273.16	65.58	-85.2	-88.8	2.8	1.56e+00	0	48	104	0	60	1048575
2026-01-17 23:52:28.08	272.16	65.36	-85.2	-88.8	2.6	1.56e+00	0	48	104	0	60	1048574
2026-01-17 23:52:29.08	271.19	65.14	-85.2	-88.8	2.7	1.56e+00	0	48	104	0	60	1048574
2026-01-17 23:52:30.09	270.23	64.91	-85.2	-88.8	2.7	1.56e+00	0	48	104	0	60	1048573
2026-01-17 23:52:31.10	269.28	64.67	-85.2	-88.8	2.7	1.56e+00	0	48	104	0	60	1048574
2026-01-17 23:52:32.11	268.36	64.43	-85.2	-88.8	2.7	1.56e+00	0	47	104	0	60	1048575
2026-01-17 23:52:33.11	267.47	64.19	-85.2	-88.8	2.7	1.56e+00	0	48	104	0	60	1048573
2026-01-17 23:52:34.11	266.59	63.94	-84.7	-88.8	2.5	1.56e+00	0	48	104	0	60	1048575
2026-01-17 23:52:35.11	265.73	63.69	-85.2	-88.8	3.0	1.56e+00	0	48	104	0	60	1048572
2026-01-17 23:52:36.12	264.89	63.43	-85.2	-88.8	2.9	1.56e+00	0	48	104	0	60	1048575
2026-01-17 23:52:37.13	264.06	63.16	-85.2	-88.8	2.7	1.56e+00	0	48	104	0	60	1048574
2026-01-17 23:52:38.13	263.26	62.90	-85.2	-88.8	2.6	1.56e+00	0	48	104	0	60	1048574
2026-01-17 23:52:39.14	262.46	62.63	-85.2	-88.8	2.9	1.56e+00	0	48	104	0	60	1048573
2026-01-17 23:52:40.15	261.69	62.35	-85.2	-88.8	2.9	1.56e+00	0	48	104	0	60	1048575
2026-01-17 23:52:41.16	260.93	62.07	-85.2	-88.8	2.9	1.56e+00	0	48	104	0	60	1048574
2026-01-17 23:52:42.17	260.20	61.79	-85.2	-88.8	2.6	1.56e+00	0	48	104	0	60	1048575
2026-01-17 23:52:43.17	259.48	61.51	-85.2	-88.8	2.8	1.56e+00	0	48	104	0	60	1048572
2026-01-17 23:52:44.18	258.77	61.22	-85.2	-88.8	2.9	1.56e+00	0	48	104	0	60	1048575
2026-01-17 23:52:45.19	258.08	60.93	-85.2	-88.8	2.6	1.56e+00	0	48	104	0	60	1048573
2026-01-17 23:52:46.20	257.41	60.64	-85.2	-88.8	2.7	1.56e+00	0	47	104	0	60	1048569
2026-01-17 23:52:47.21	256.75	60.35	-85.2	-88.8	2.9	1.56e+00	0	48	104	0	60	1048575
2026-01-17 23:52:48.21	256.11	60.06	-85.2	-88.8	2.8	1.56e+00	0	48	104	0	60	1048574
2026-01-17 23:52:49.22	255.49	59.76	-85.2	-88.8	2.7	1.56e+00	0	48	104	0	60	1048574
2026-01-17 23:52:50.23	254.87	59.46	-85.2	-88.8	2.8	1.56e+00	0	48	104	0	60	1048575
2026-01-17 23:52:51.24	254.27	59.16	-85.2	-88.8	2.9	1.56e+00	0	48	104	0	60	1048571
2026-01-17 23:52:52.24	253.69	58.86	-85.2	-88.8	2.8	1.56e+00	0	48	104	0	60	1048572
2026-01-17 23:52:53.25	253.12	58.56	-85.2	-88.8	2.5	1.56e+00	0	48	104	0	60	1048574
2026-01-17 23:52:54.26	252.55	58.25	-84.7	-88.8	2.8	1.56e+00	0	48	104	0	60	1048575
2026-01-17 23:52:55.27	252.01	57.95	-85.2	-88.8	2.7	1.56e+00	0	48	104	0	60	1048575
2026-01-17 23:52:56.27	251.48	57.64	-85.2	-88.8	2.7	1.56e+00	0	48	104	0	60	1048575
2026-01-17 23:52:57.28	250.95	57.34	-85.2	-88.8	2.8	1.56e+00	0	48	104	0	60	1048575
2026-01-17 23:52:58.28	250.45	57.03	-84.7	-88.8	2.7	1.56e+00	0	47	104	0	60	1048574
2026-01-17 23:52:59.29	249.95	56.73	-85.2	-88.8	2.8	1.56e+00	0	48	104	0	60	1048574
2026-01-17 23:53:00.29	249.46	56.42	-85.2	-88.8	2.6	1.56e+00	0	48	104	0	60	1048574
2026-01-17 23:53:01.30	248.98	56.11	-85.2	-88.8	2.6	1.56e+00	0	48	104	0	60	1048575
2026-01-17 23:53:02.31	248.51	55.80	-85.2	-88.8	2.7	1.56e+00	0	48	104	0	60	1048575
2026-01-17 23:53:03.31	248.06	55.50	-84.7	-88.8	2.6	1.56e+00	0	48	104	0	60	1048574
2026-01-17 23:53:04.32	247.61	55.19	-85.2	-88.8	2.7	1.56e+00	0	48	104	0	60	1048574
2026-01-17 23:53:05.33	247.18	54.88	-85.2	-88.8	2.7	1.56e+00	0	48	104	0	60	1048572
2026-01-17 23:53:06.33	246.75	54.57	-85.2	-88.8	2.7	1.56e+00	0	48	104	0	60	1048574
2026-01-17 23:53:07.34	246.33	54.27	-85.2	-88.8	2.6	1.56e+00	0	48	104	0	60	1048573
2026-01-17 23:53:08.34	245.92	53.96	-85.2	-88.8	2.5	1.56e+00	0	47	104	0	60	1048574
2026-01-17 23:53:09.35	245.52	53.65	-85.2	-88.8	2.7	1.56e+00	0	48	104	0	60	1048571
2026-01-17 23:53:10.35	245.13	53.35	-85.2	-88.8	2.7	1.56e+00	0	48	104	0	60	1048575
2026-01-17 23:53:11.36	244.75	53.04	-85.2	-88.8	2.8	1.56e+00	0	48	104	0	60	1048573
2026-01-17 23:53:12.36	244.37	52.74	-85.2	-88.8	2.7	1.56e+00	0	48	104	0	60	1048575
2026-01-17 23:53:13.37	244.01	52.43	-84.3	-88.8	2.9	1.56e+00	0	47	104	0	60	1048575
2026-01-17 23:53:14.38	243.64	52.13	-85.2	-88.8	2.8	1.56e+00	0	48	104	0	60	1048574
2026-01-17 23:53:15.38	243.29	51.83	-85.2	-88.8	2.8	1.56e+00	0	48	104	0	60	1048574
2026-01-17 23:53:16.39	242.95	51.52	-85.2	-88.8	2.8	1.56e+00	0	48	104	0	60	1048575
2026-01-17 23:53:17.40	242.61	51.22	-85.2	-88.8	2.8	1.56e+00	0	48	104	0	60	1048575
2026-01-17 23:53:18.40	242.28	50.92	-85.2	-88.8	2.6	1.56e+00	0	48	104	0	60	1048573
2026-01-17 23:53:19.41	241.95	50.62	-85.2	-88.8	2.7	1.56e+00	0	48	104	0	60	1048572
2026-01-17 23:53:20.41	241.63	50.32	-85.2	-88.8	2.8	1.56e+00	0	48	104	0	60	1048574
2026-01-17 23:53:21.42	241.32	50.03	-85.2	-88.8	2.7	1.56e+00	0	48	104	0	60	1048573
2026-01-17 23:53:22.43	241.01	49.73	-85.2	-88.8	2.7	1.56e+00	0	48	104	0	60	1048573
2026-01-17 23:53:23.44	240.71	49.43	-85.2	-88.8	2.8	1.56e+00	0	48	104	0	60	1048574
2026-01-17 23:53:24.44	240.41	49.14	-85.2	-88.8	2.8	1.56e+00	0	48	104	0	60	1048573
2026-01-17 23:53:25.45	240.12	48.84	-85.2	-88.8	2.7	1.56e+00	0	48	104	0	60	1048573
2026-01-17 23:53:26.45	239.84	48.55	-85.2	-88.8	2.6	1.56e+00	0	48	104	0	60	1048572
2026-01-17 23:53:27.45	239.57	48.26	-85.2	-88.8	2.9	1.56e+00	0	47	104	0	60	1048571
2026-01-17 23:53:28.45	239.29	47.98	-85.2	-88.8	2.8	1.56e+00	0	48	104	0	60	1048572
2026-01-17 23:53:29.45	239.03	47.69	-85.2	-88.8	2.6	1.56e+00	0	48	104	0	60	1048574
2026-01-17 23:53:30.45	238.77	47.40	-85.2	-88.8	2.6	1.56e+00	0	48	104	0	60	1048571
2026-01-17 23:53:31.45	238.51	47.12	-85.2	-88.8	3.0	1.56e+00	0	48	104	0	60	1048574
2026-01-17 23:53:32.46	238.25	46.83	-85.2	-88.8	2.8	1.56e+00	0	48	104	0	60	1048574
2026-01-17 23:53:33.46	238.01	46.55	-85.2	-88.8	2.7	1.56e+00	0	48	104	0	60	1048573
2026-01-17 23:53:34.47	237.76	46.27	-85.2	-88.8	2.7	1.56e+00	0	48	104	0	60	1048570
2026-01-17 23:53:35.48	237.52	45.99	-85.2	-88.8	2.5	1.56e+00	0	48	104	0	60	1048575
2026-01-17 23:53:36.49	237.28	45.71	-85.2	-88.8	2.6	1.56e+00	0	48	104	0	60	1048572
2026-01-17 23:53:37.49	237.05	45.43	-85.2	-88.8	2.6	1.56e+00	0	48	104	0	60	1048572
2026-01-17 23:53:38.50	236.83	45.15	-85.2	-88.8	2.6	1.56e+00	0	48	104	0	60	1048572
2026-01-17 23:53:39.50	236.60	44.88	-85.2	-88.8	2.9	1.56e+00	0	48	104	0	60	1048574
2026-01-17 23:53:40.51	236.38	44.60	-85.2	-88.8	2.5	1.56e+00	0	48	104	0	60	1048574
2026-01-17 23:53:41.51	236.17	44.33	-85.2	-88.8	2.8	1.56e+00	0	48	104	0	60	1048574
2026-01-17 23:53:42.52	235.96	44.06	-85.2	-88.8	2.6	1.56e+00	0	48	104	0	60	1048572
2026-01-17 23:53:43.52	235.75	43.79	-85.2	-88.8	2.5	1.56e+00	0	48	104	0	60	1048572
2026-01-17 23:53:44.52	235.54	43.53	-85.2	-88.8	2.7	1.56e+00	0	48	104	0	60	1048574
2026-01-17 23:53:45.53	235.34	43.26	-85.2	-88.8	2.5	1.56e+00	0	48	104	0	60	1048575
2026-01-17 23:53:46.54	235.14	42.99	-85.2	-88.8	2.8	1.56e+00	0	48	104	0	60	1048575
2026-01-17 23:53:47.55	234.95	42.73	-85.2	-88.8	2.7	1.56e+00	0	48	104	0	60	1048575
2026-01-17 23:53:48.55	234.76	42.47	-85.2	-88.8	2.7	1.56e+00	0	48	104	0	60	1048572
2026-01-17 23:53:49.55	234.57	42.21	-85.2	-88.8	2.7	1.56e+00	0	48	104	0	60	1048574
2026-01-17 23:53:50.56	234.38	41.95	-85.2	-88.8	2.8	1.56e+00	0	48	104	0	60	1048575
2026-01-17 23:53:51.57	234.20	41.69	-85.2	-88.8	2.8	1.56e+00	0	48	104	0	60	1048575
2026-01-17 23:53:52.58	234.02	41.43	-85.2	-88.8	2.8	1.56e+00	0	48	104	0	60	1048575
2026-01-17 23:53:53.58	233.84	41.18	-85.2	-88.8	2.8	1.56e+00	0	48	104	0	60	1048574
2026-01-17 23:53:54.59	233.67	40.92	-85.2	-88.8	2.9	1.56e+00	0	48	104	0	60	1048575
2026-01-17 23:53:55.60	233.50	40.67	-85.2	-88.8	2.7	1.56e+00	0	48	104	0	60	1048570
2026-01-17 23:53:56.60	233.33	40.42	-85.2	-88.8	2.8	1.56e+00	0	48	104	0	60	1048573
2026-01-17 23:53:57.60	233.16	40.17	-85.2	-88.8	2.8	1.56e+00	0	48	104	0	60	1048575
2026-01-17 23:53:58.61	233.00	39.92	-85.2	-88.8	2.8	1.56e+00	0	47	104	0	60	1048572
2026-01-17 23:53:59.62	232.84	39.68	-85.2	-88.8	2.7	1.56e+00	0	47	104	0	60	1048575
2026-01-17 23:54:00.62	232.68	39.43	-85.2	-88.8	2.7	1.56e+00	0	48	104	0	60	1048573
2026-01-17 23:54:01.63	232.52	39.19	-85.2	-88.8	2.6	1.56e+00	0	47	104	0	60	1048573
2026-01-17 23:54:02.63	232.37	38.95	-85.2	-88.8	2.8	1.56e+00	0	48	104	0	60	1048575
2026-01-17 23:54:03.64	232.22	38.71	-85.2	-88.8	2.7	1.56e+00	0	47	104	0	60	1048575
2026-01-17 23:54:04.65	232.07	38.47	-85.2	-88.8	2.7	1.56e+00	0	48	104	0	60	1048571
2026-01-17 23:54:05.66	231.92	38.23	-85.2	-88.8	2.6	1.56e+00	0	48	104	0	60	1048574
2026-01-17 23:54:06.66	231.78	37.99	-85.2	-88.8	2.7	1.56e+00	0	48	104	0	60	1048574
2026-01-17 23:54:07.67	231.64	37.76	-85.2	-88.8	2.5	1.56e+00	0	47	104	0	60	1048575
2026-01-17 23:54:08.68	231.50	37.52	-85.2	-88.8	2.7	1.56e+00	0	48	104	0	60	1048574
2026-01-17 23:54:09.68	231.36	37.29	-85.2	-88.8	2.6	1.56e+00	0	48	104	0	60	1048575
2026-01-17 23:54:10.69	231.22	37.06	-85.2	-88.8	2.8	1.56e+00	0	47	104	0	60	1048575
2026-01-17 23:54:11.70	231.09	36.83	-85.2	-88.8	2.9	1.56e+00	0	48	104	0	60	1048574
2026-01-17 23:54:12.70	230.95	36.61	-85.2	-88.8	2.8	1.56e+00	0	48	104	0	60	1048572
2026-01-17 23:54:13.71	230.82	36.38	-85.2	-88.8	2.5	1.56e+00	0	48	104	0	60	1048569
2026-01-17 23:54:14.72	230.69	36.15	-85.2	-88.8	2.7	1.56e+00	0	48	104	0	60	1048568
2026-01-17 23:54:15.72	230.57	35.93	-85.2	-88.8	2.7	1.56e+00	0	48	104	0	60	1048573
2026-01-17 23:54:16.73	230.44	35.71	-85.2	-88.8	2.8	1.56e+00	0	48	104	0	60	1048572
2026-01-17 23:54:17.74	230.32	35.49	-82.8	-88.8	2.7	1.56e+00	0	48	104	0	60	1048574
2026-01-17 23:54:18.74	230.20	35.27	-83.5	-88.8	2.8	1.56e+00	0	48	104	0	60	1048566
2026-01-17 23:54:19.75	230.07	35.05	-85.2	-88.8	2.7	1.56e+00	0	48	104	0	60	1048572
2026-01-17 23:54:20.76	229.96	34.83	-85.2	-88.8	2.7	1.56e+00	0	48	104	0	60	1048572
2026-01-17 23:54:21.77	229.84	34.62	-85.2	-88.8	2.7	1.56e+00	0	48	104	0	60	1048575
2026-01-17 23:54:22.77	229.72	34.41	-85.2	-88.8	2.7	1.56e+00	0	48	104	0	60	1048575
2026-01-17 23:54:23.78	229.61	34.19	-85.2	-88.8	2.8	1.56e+00	0	48	104	0	60	1048574
2026-01-17 23:54:24.78	229.50	33.98	-85.2	-88.8	2.8	1.56e+00	0	48	104	0	60	1048573
2026-01-17 23:54:25.79	229.39	33.77	-85.2	-88.8	2.7	1.56e+00	0	48	104	0	60	1048575
2026-01-17 23:54:26.80	229.28	33.56	-85.2	-88.8	2.6	1.56e+00	0	48	104	0	60	1048571
2026-01-17 23:54:27.81	229.17	33.35	-85.2	-88.8	2.8	1.56e+00	0	48	104	0	60	1048574
2026-01-17 23:54:28.81	229.06	33.15	-85.2	-88.8	2.8	1.56e+00	0	48	104	0	60	1048575
2026-01-17 23:54:29.82	228.96	32.94	-85.2	-88.8	3.0	1.56e+00	0	48	104	0	60	1048563
2026-01-17 23:54:30.83	228.85	32.74	-85.2	-88.8	2.6	1.56e+00	0	48	104	0	60	1048575
2026-01-17 23:54:31.83	228.75	32.54	-85.2	-88.8	2.6	1.56e+00	0	48	104	0	60	1048574
2026-01-17 23:54:32.84	228.65	32.34	-85.2	-88.8	2.6	1.56e+00	0	48	104	0	60	1048575
2026-01-17 23:54:33.84	228.55	32.14	-85.2	-88.8	2.7	1.56e+00	0	48	104	0	60	1048575
2026-01-17 23:54:34.85	228.45	31.94	-85.2	-88.8	2.7	1.56e+00	0	48	104	0	60	1048574
2026-01-17 23:54:35.85	228.35	31.74	-84.3	-88.8	2.9	1.56e+00	0	48	104	0	60	1048574
2026-01-17 23:54:36.85	228.26	31.55	-85.2	-88.8	2.7	1.56e+00	0	48	104	0	60	1048573
2026-01-17 23:54:37.86	228.16	31.35	-85.2	-88.8	2.6	1.56e+00	0	48	104	0	60	1048574
2026-01-17 23:54:38.87	228.07	31.16	-85.2	-88.8	2.7	1.56e+00	0	48	104	0	60	1048566
2026-01-17 23:54:39.88	227.97	30.96	-85.2	-88.8	2.6	1.56e+00	0	48	104	0	60	1048575
2026-01-17 23:54:40.89	227.88	30.77	-85.2	-88.8	2.7	1.56e+00	0	48	104	0	60	1048574
2026-01-17 23:54:41.89	227.79	30.58	-85.2	-88.8	2.5	1.56e+00	0	48	104	0	60	1048572
2026-01-17 23:54:42.90	227.70	30.39	-85.2	-88.8	2.6	1.56e+00	0	48	104	0	60	1048575
2026-01-17 23:54:43.91	227.61	30.20	-85.2	-88.8	2.8	1.56e+00	0	48	104	0	60	1048575
2026-01-17 23:54:44.92	227.53	30.02	-85.2	-88.8	2.7	1.56e+00	0	47	104	0	60	1048575
2026-01-17 23:54:45.92	227.44	29.83	-85.2	-88.8	2.7	1.56e+00	0	47	104	0	60	1048574
2026-01-17 23:54:46.93	227.36	29.65	-85.2	-88.8	2.9	1.56e+00	0	48	104	0	60	1048571
2026-01-17 23:54:47.94	227.27	29.46	-85.2	-88.8	2.8	1.56e+00	0	48	104	0	60	1048571
2026-01-17 23:54:48.94	227.19	29.28	-85.2	-88.8	2.8	1.56e+00	0	48	104	0	60	1048574
2026-01-17 23:54:49.94	227.11	29.10	-85.2	-88.8	2.6	1.56e+00	0	48	104	0	60	1048573
2026-01-17 23:54:50.95	227.02	28.92	-85.2	-88.8	2.8	1.56e+00	0	48	104	0	60	1048574
2026-01-17 23:54:51.96	226.94	28.74	-85.2	-88.8	2.6	1.56e+00	0	47	104	0	60	1048575
2026-01-17 23:54:52.97	226.86	28.56	-85.2	-88.8	2.8	1.56e+00	0	48	104	0	60	1048573
2026-01-17 23:54:53.97	226.79	28.39	-85.2	-88.8	2.5	1.56e+00	0	48	104	0	60	1048574
2026-01-17 23:54:54.98	226.71	28.21	-85.2	-88.8	2.7	1.56e+00	0	48	104	0	60	1048574
2026-01-17 23:54:55.99	226.63	28.04	-85.2	-88.8	2.6	1.56e+00	0	48	104	0	60	1048574
2026-01-17 23:54:57.00	226.55	27.86	-85.2	-88.8	2.6	1.56e+00	0	48	104	0	60	1048575
2026-01-17 23:54:58.00	226.48	27.69	-85.2	-88.8	2.7	1.56e+00	0	48	104	0	60	1048575
2026-01-17 23:54:59.02	226.40	27.52	-85.2	-88.8	2.6	1.56e+00	0	48	104	0	60	1048575
2026-01-17 23:55:00.02	226.33	27.35	-85.2	-88.8	2.8	1.56e+00	0	48	104	0	60	1048575
2026-01-17 23:55:01.03	226.26	27.18	-85.2	-88.8	2.9	1.56e+00	0	48	104	0	60	1048575
2026-01-17 23:55:02.04	226.19	27.01	-85.2	-88.8	2.7	1.56e+00	0	48	104	0	60	1048574
2026-01-17 23:55:03.04	226.12	26.84	-85.2	-88.8	2.7	1.56e+00	0	48	104	0	60	1048575
2026-01-17 23:55:04.05	226.05	26.67	-84.7	-88.8	2.7	1.56e+00	0	48	104	0	60	1048575
2026-01-17 23:55:05.06	225.98	26.51	-85.2	-88.8	2.7	1.56e+00	0	48	104	0	60	1048575
2026-01-17 23:55:06.06	225.91	26.34	-85.2	-88.8	2.8	1.56e+00	0	48	104	0	60	1048575
2026-01-17 23:55:07.07	225.84	26.18	-85.2	-88.8	2.9	1.56e+00	0	48	104	0	60	1048572
2026-01-17 23:55:08.07	225.77	26.02	-85.2	-88.8	2.6	1.56e+00	0	48	104	0	60	1048575
2026-01-17 23:55:09.07	225.71	25.85	-85.2	-88.8	2.6	1.56e+00	0	48	104	0	60	1048573
2026-01-17 23:55:10.08	225.64	25.69	-85.2	-88.8	2.7	1.56e+00	0	48	104	0	60	1048575
2026-01-17 23:55:11.09	225.57	25.53	-85.2	-88.8	2.6	1.56e+00	0	48	104	0	60	1048573
2026-01-17 23:55:12.10	225.51	25.37	-85.2	-88.8	2.8	1.56e+00	0	48	104	0	60	1048574
2026-01-17 23:55:13.11	225.45	25.21	-85.2	-88.8	2.5	1.56e+00	0	48	104	0	60	1048575
2026-01-17 23:55:14.11	225.38	25.06	-85.2	-88.8	2.5	1.56e+00	0	48	104	0	60	1048575
2026-01-17 23:55:15.12	225.32	24.90	-84.7	-88.8	2.5	1.56e+00	0	48	104	0	60	1048575
2026-01-17 23:55:16.13	225.26	24.74	-85.2	-88.8	2.8	1.56e+00	0	48	104	0	60	1048575
2026-01-17 23:55:17.14	225.20	24.59	-85.2	-88.8	2.5	1.56e+00	0	48	104	0	60	1048575
2026-01-17 23:55:18.14	225.14	24.44	-85.2	-88.8	2.7	1.56e+00	0	47	104	0	60	1048573
2026-01-17 23:55:19.15	225.08	24.28	-85.2	-88.8	2.9	1.56e+00	0	48	104	0	60	1048572
2026-01-17 23:55:20.15	225.02	24.13	-85.2	-88.8	2.6	1.56e+00	0	48	104	0	60	1048573
2026-01-17 23:55:21.16	224.96	23.98	-85.2	-88.8	2.5	1.56e+00	0	48	104	0	60	1048572
2026-01-17 23:55:22.16	224.90	23.83	-85.2	-88.8	2.8	1.56e+00	0	48	104	0	60	1048574
2026-01-17 23:55:23.17	224.84	23.68	-85.2	-88.8	2.7	1.56e+00	0	48	104	0	60	1048575
2026-01-17 23:55:24.18	224.79	23.53	-85.2	-88.8	2.9	1.56e+00	0	47	104	0	60	1048573
2026-01-17 23:55:25.17	224.73	23.38	-85.2	-88.8	2.8	1.56e+00	0	47	104	0	60	1048572
2026-01-17 23:55:26.18	224.67	23.24	-85.2	-88.8	2.9	1.56e+00	0	47	104	0	60	1048575
2026-01-17 23:55:27.19	224.62	23.09	-85.2	-88.8	2.7	1.56e+00	0	47	104	0	60	1048574
2026-01-17 23:55:28.19	224.56	22.94	-85.2	-88.8	2.6	1.56e+00	0	48	104	0	60	1048575
2026-01-17 23:55:29.20	224.51	22.80	-85.2	-88.8	2.7	1.56e+00	0	48	104	0	60	1048573
2026-01-17 23:55:30.20	224.46	22.66	-85.2	-88.8	2.8	1.56e+00	0	48	104	0	60	1048571
2026-01-17 23:55:31.21	224.40	22.51	-85.2	-88.8	2.7	1.56e+00	0	48	104	0	60	1048573
2026-01-17 23:55:32.22	224.35	22.37	-85.2	-88.8	2.8	1.56e+00	0	48	104	0	60	1048575
2026-01-17 23:55:33.23	224.30	22.23	-85.2	-88.8	2.7	1.56e+00	0	48	104	0	60	1048575
2026-01-17 23:55:34.24	224.25	22.09	-85.2	-88.8	2.5	1.56e+00	0	48	104	0	60	1048575
2026-01-17 23:55:35.25	224.20	21.94	-85.2	-88.8	2.7	1.56e+00	0	48	104	0	60	1048575
2026-01-17 23:55:36.25	224.14	21.81	-85.2	-88.8	2.9	1.56e+00	0	48	104	0	60	1048575
2026-01-17 23:55:37.26	224.09	21.67	-85.2	-88.8	2.8	1.56e+00	0	48	104	0	60	1048574
2026-01-17 23:55:38.27	224.04	21.53	-85.2	-88.8	2.6	1.56e+00	0	48	104	0	60	1048575
2026-01-17 23:55:39.27	224.00	21.39	-85.2	-88.8	2.7	1.56e+00	0	48	104	0	60	1048570
2026-01-17 23:55:40.28	223.95	21.25	-85.2	-88.8	2.8	1.56e+00	0	48	104	0	60	1048572
2026-01-17 23:55:41.28	223.90	21.12	-85.2	-88.8	2.6	1.56e+00	0	48	104	0	60	1048575
2026-01-17 23:55:42.29	223.85	20.98	-85.2	-88.8	2.7	1.56e+00	0	48	104	0	60	1048573
2026-01-17 23:55:43.30	223.80	20.85	-84.7	-88.8	2.5	1.56e+00	0	47	104	0	60	1048575
2026-01-17 23:55:44.30	223.76	20.72	-85.2	-88.8	2.7	1.56e+00	0	48	104	0	60	1048573
2026-01-17 23:55:45.30	223.71	20.58	-85.2	-88.8	2.8	1.56e+00	0	47	104	0	60	1048574
2026-01-17 23:55:46.31	223.66	20.45	-85.2	-88.8	2.6	1.56e+00	0	48	104	0	60	1048568
2026-01-17 23:55:47.32	223.62	20.32	-85.2	-88.8	2.8	1.56e+00	0	48	104	0	60	1048575
2026-01-17 23:55:48.33	223.57	20.19	-84.3	-88.8	2.6	1.56e+00	0	48	104	0	60	1048575
2026-01-17 23:55:49.33	223.53	20.06	-85.2	-88.8	2.6	1.56e+00	0	47	104	0	60	1048572
2026-01-17 23:55:50.34	223.48	19.93	-85.2	-88.8	2.8	1.56e+00	0	47	104	0	60	1048574
2026-01-17 23:55:51.35	223.44	19.80	-85.2	-88.8	2.5	1.56e+00	0	47	104	0	60	1048573
2026-01-17 23:55:52.36	223.40	19.67	-85.2	-88.8	2.7	1.56e+00	0	47	104	0	60	1048574
2026-01-17 23:55:53.36	223.35	19.54	-84.3	-88.8	2.6	1.56e+00	0	48	104	0	60	1048575
2026-01-17 23:55:54.37	223.31	19.41	-84.7	-88.8	2.8	1.56e+00	0	48	104	0	60	1048574
2026-01-17 23:55:55.37	223.27	19.29	-85.2	-88.8	2.7	1.56e+00	0	47	104	0	60	1048575
2026-01-17 23:55:56.38	223.22	19.16	-85.2	-88.8	2.7	1.56e+00	0	48	104	0	60	1048567
2026-01-17 23:55:57.38	223.18	19.04	-85.2	-88.8	2.7	1.56e+00	0	48	104	0	60	1048575
2026-01-17 23:55:58.39	223.14	18.91	-85.2	-88.8	2.6	1.56e+00	0	48	104	0	60	1048573
2026-01-17 23:55:59.39	223.10	18.79	-85.2	-88.8	2.7	1.56e+00	0	48	104	0	60	1048575
2026-01-17 23:56:00.40	223.06	18.66	-85.2	-88.8	2.7	1.56e+00	0	48	104	0	60	1048573
2026-01-17 23:56:01.41	223.02	18.54	-85.2	-88.8	2.7	1.56e+00	0	48	104	0	60	1048575
2026-01-17 23:56:02.42	222.98	18.42	-85.2	-88.8	2.9	1.56e+00	0	47	104	0	60	1048575
2026-01-17 23:56:03.43	222.94	18.30	-85.2	-88.8	2.6	1.56e+00	0	47	104	0	60	1048572
2026-01-17 23:56:04.43	222.90	18.18	-82.8	-88.8	2.8	1.56e+00	0	48	104	0	60	1048575
2026-01-17 23:56:05.44	222.86	18.06	-85.2	-88.8	2.6	1.56e+00	0	48	104	0	60	1048575
2026-01-17 23:56:06.44	222.82	17.94	-85.2	-88.8	2.6	1.56e+00	0	48	104	0	60	1048574
2026-01-17 23:56:07.45	222.78	17.82	-85.2	-88.8	2.6	1.56e+00	0	47	104	0	60	1048575
2026-01-17 23:56:08.45	222.75	17.70	-85.2	-88.8	2.8	1.56e+00	0	48	104	0	60	1048574
2026-01-17 23:56:09.46	222.71	17.58	-84.3	-88.8	2.7	1.56e+00	0	47	104	0	60	1048575
2026-01-17 23:56:10.47	222.67	17.46	-85.2	-88.8	2.7	1.56e+00	0	47	104	0	60	1048574
2026-01-17 23:56:11.48	222.63	17.34	-85.2	-88.8	2.6	1.56e+00	0	47	104	0	60	1048573
2026-01-17 23:56:12.48	222.60	17.23	-85.2	-88.8	2.9	1.56e+00	0	48	104	0	60	1048575
2026-01-17 23:56:13.49	222.56	17.11	-85.2	-88.8	2.6	1.56e+00	0	48	104	0	60	1048574
2026-01-17 23:56:14.50	222.53	17.00	-85.2	-88.8	2.6	1.56e+00	0	48	104	0	60	1048575
2026-01-17 23:56:15.51	222.49	16.88	-85.2	-88.8	2.6	1.56e+00	0	48	104	0	60	1048571
2026-01-17 23:56:16.52	222.45	16.76	-85.2	-88.8	2.8	1.56e+00	0	48	104	0	60	1048573
2026-01-17 23:56:17.53	222.42	16.65	-85.2	-88.8	2.5	1.56e+00	0	48	104	0	60	1048572
2026-01-17 23:56:18.53	222.38	16.54	-85.2	-88.8	2.6	1.56e+00	0	48	104	0	60	1048574
2026-01-17 23:56:19.54	222.35	16.42	-83.9	-88.8	2.7	1.56e+00	0	47	104	0	60	1048573
2026-01-17 23:56:20.55	222.31	16.31	-85.2	-88.8	2.6	1.56e+00	0	48	104	0	60	1048575
2026-01-17 23:56:21.55	222.28	16.20	-85.2	-88.8	2.8	1.56e+00	0	48	104	0	60	1048575
2026-01-17 23:56:22.57	222.25	16.09	-85.2	-88.8	2.6	1.56e+00	0	47	104	0	60	1048572
2026-01-17 23:56:23.57	222.21	15.98	-84.3	-88.8	2.8	1.56e+00	0	47	104	0	60	1048575
2026-01-17 23:56:24.58	222.18	15.87	-85.2	-88.8	2.9	1.56e+00	0	48	104	0	60	1048575
2026-01-17 23:56:25.58	222.15	15.76	-85.2	-88.8	2.7	1.56e+00	0	48	104	0	60	1048574
2026-01-17 23:56:26.59	222.11	15.65	-85.2	-88.8	2.8	1.56e+00	0	48	104	0	60	1048569
2026-01-17 23:56:27.59	222.08	15.54	-85.2	-88.8	2.7	1.56e+00	0	48	104	0	60	1048575
2026-01-17 23:56:28.60	222.05	15.43	-85.2	-88.8	2.7	1.56e+00	0	48	104	0	60	1048575
2026-01-17 23:56:29.61	222.02	15.32	-84.3	-88.8	2.7	1.56e+00	0	48	104	0	60	1048573
2026-01-17 23:56:30.61	221.99	15.21	-85.2	-88.8	2.6	1.56e+00	0	48	104	0	60	1048574
2026-01-17 23:56:31.62	221.95	15.11	-85.2	-88.8	2.7	1.56e+00	0	48	104	0	60	1048574
2026-01-17 23:56:32.63	221.92	15.00	-85.2	-88.8	2.8	1.56e+00	0	48	104	0	60	1048573
2026-01-17 23:56:33.63	221.89	14.89	-85.2	-88.8	2.7	1.56e+00	0	48	104	0	60	1048575
2026-01-17 23:56:34.64	221.86	14.79	-85.2	-88.8	2.8	1.56e+00	0	48	104	0	60	1048573
2026-01-17 23:56:35.65	221.83	14.68	-85.2	-88.8	2.7	1.56e+00	0	48	104	0	60	1048575
2026-01-17 23:56:36.65	221.80	14.58	-85.2	-88.8	2.6	1.56e+00	0	47	104	0	60	1048574
2026-01-17 23:56:37.66	221.77	14.47	-84.7	-88.8	2.4	1.56e+00	0	48	104	0	60	1048574
2026-01-17 23:56:38.67	221.74	14.37	-85.2	-88.8	2.8	1.56e+00	0	48	104	0	60	1048571
2026-01-17 23:56:39.68	221.71	14.26	-85.2	-88.8	2.6	1.56e+00	0	48	104	0	60	1048568
2026-01-17 23:56:40.69	221.68	14.16	-85.2	-88.8	2.9	1.56e+00	0	48	104	0	60	1048574
2026-01-17 23:56:41.69	221.65	14.06	-85.2	-88.8	2.7	1.56e+00	0	48	104	0	60	1048575
2026-01-17 23:56:42.70	221.62	13.96	-85.2	-88.8	2.7	1.56e+00	0	48	104	0	60	1048575
2026-01-17 23:56:43.71	221.60	13.85	-85.2	-88.8	2.6	1.56e+00	0	48	104	0	60	1048571
2026-01-17 23:56:44.72	221.57	13.75	-85.2	-88.8	2.7	1.56e+00	0	48	104	0	60	1048575
2026-01-17 23:56:45.72	221.54	13.65	-85.2	-88.8	2.9	1.56e+00	0	48	104	0	60	1048575
2026-01-17 23:56:46.73	221.51	13.55	-84.3	-88.8	2.6	1.56e+00	0	48	104	0	60	1048575
2026-01-17 23:56:47.73	221.48	13.45	-85.2	-88.8	2.6	1.56e+00	0	48	104	0	60	1048575
2026-01-17 23:56:48.73	221.46	13.35	-84.7	-88.8	2.6	1.56e+00	0	48	104	0	60	1048575
2026-01-17 23:56:49.74	221.43	13.25	-85.2	-88.8	2.8	1.56e+00	0	48	104	0	60	1048575
2026-01-17 23:56:50.74	221.40	13.15	-85.2	-88.8	2.7	1.56e+00	0	48	104	0	60	1048575
2026-01-17 23:56:51.75	221.37	13.06	-85.2	-88.8	2.7	1.56e+00	0	48	104	0	60	1048575
2026-01-17 23:56:52.76	221.35	12.96	-84.3	-88.8	2.7	1.56e+00	0	48	104	0	60	1048574
2026-01-17 23:56:53.77	221.32	12.86	-85.2	-88.8	2.8	1.56e+00	0	48	104	0	60	1048574
2026-01-17 23:56:54.77	221.29	12.76	-83.9	-88.8	2.8	1.56e+00	0	48	104	0	60	1048573
2026-01-17 23:56:55.78	221.27	12.66	-85.2	-88.8	2.6	1.56e+00	0	48	104	0	60	1048572
2026-01-17 23:56:56.78	221.24	12.57	-85.2	-88.8	2.9	1.56e+00	0	48	104	0	60	1048567
2026-01-17 23:56:57.79	221.22	12.47	-85.2	-88.8	2.7	1.56e+00	0	48	104	0	60	1048575
2026-01-17 23:56:58.79	221.19	12.38	-85.2	-88.8	2.8	1.56e+00	0	48	104	0	60	1048574
2026-01-17 23:56:59.80	221.17	12.28	-85.2	-88.8	2.8	1.56e+00	0	48	104	0	60	1048571
2026-01-17 23:57:00.80	221.14	12.19	-84.7	-88.8	2.7	1.56e+00	0	48	104	0	60	1048574
2026-01-17 23:57:01.81	221.12	12.09	-85.2	-88.8	2.7	1.56e+00	0	48	104	0	60	1048572
2026-01-17 23:57:02.81	221.09	12.00	-85.2	-88.8	2.6	1.56e+00	0	48	104	0	60	1048575
2026-01-17 23:57:03.82	221.07	11.90	-85.2	-88.8	2.7	1.56e+00	0	48	104	0	60	1048569
2026-01-17 23:57:04.82	221.04	11.81	-84.3	-88.8	2.8	1.56e+00	0	48	104	0	60	1048568
2026-01-17 23:57:05.83	221.02	11.71	-85.2	-88.8	2.6	1.56e+00	0	48	104	0	60	1048575
2026-01-17 23:57:06.84	220.99	11.62	-85.2	-88.8	2.8	1.56e+00	0	48	104	0	60	1048571
2026-01-17 23:57:07.84	220.97	11.53	-85.2	-88.8	2.6	1.56e+00	0	48	104	0	60	1048568
2026-01-17 23:57:08.85	220.94	11.44	-85.2	-88.8	2.6	1.56e+00	0	48	104	0	60	1048572
2026-01-17 23:57:09.86	220.92	11.34	-85.2	-88.8	2.6	1.56e+00	0	48	104	0	60	1048575
2026-01-17 23:57:10.87	220.90	11.25	-85.2	-88.8	2.5	1.56e+00	0	48	104	0	60	1048569
2026-01-17 23:57:11.88	220.87	11.16	-85.2	-88.8	2.7	1.56e+00	0	48	104	0	60	1048571
2026-01-17 23:57:12.89	220.85	11.07	-85.2	-88.8	2.9	1.56e+00	0	48	104	0	60	1048574
2026-01-17 23:57:13.90	220.83	10.98	-83.5	-88.8	2.8	1.56e+00	0	48	104	0	60	1048574
2026-01-17 23:57:14.90	220.81	10.89	-85.2	-88.8	2.5	1.56e+00	0	48	104	0	60	1048574
2026-01-17 23:57:15.91	220.78	10.80	-85.2	-88.8	2.8	1.56e+00	0	48	104	0	60	1048574
2026-01-17 23:57:16.91	220.76	10.71	-85.2	-88.8	2.7	1.56e+00	0	48	104	0	60	1048573
2026-01-17 23:57:17.92	220.74	10.62	-84.7	-88.8	2.6	1.56e+00	0	48	104	0	60	1048574
2026-01-17 23:57:18.92	220.72	10.53	-84.7	-88.8	2.7	1.56e+00	0	48	104	0	60	1048574
2026-01-17 23:57:19.93	220.69	10.44	-84.3	-88.8	2.8	1.56e+00	0	48	104	0	60	1048575
2026-01-17 23:57:20.93	220.67	10.35	-85.2	-88.8	2.9	1.56e+00	0	48	104	0	60	1048574
2026-01-17 23:57:21.94	220.65	10.26	-85.2	-88.8	2.6	1.56e+00	0	48	104	0	60	1048574
2026-01-17 23:57:22.95	220.63	10.18	-85.2	-88.8	2.6	1.56e+00	0	48	104	0	60	1048573
2026-01-17 23:57:23.96	220.61	10.09	-85.2	-88.8	2.6	1.56e+00	0	48	104	0	60	1048567
2026-01-17 23:57:24.96	220.59	10.00	-85.2	-88.8	2.9	1.56e+00	0	47	104	0	60	1048574
2026-01-17 23:57:25.97	220.56	9.91	-85.2	-88.8	2.9	1.56e+00	0	47	104	0	60	1048574
2026-01-17 23:57:26.98	220.54	9.83	-85.2	-88.8	2.7	1.56e+00	0	48	104	0	60	1048574
2026-01-17 23:57:27.99	220.52	9.74	-85.2	-88.8	2.8	1.56e+00	0	48	104	0	60	1048571
2026-01-17 23:57:29.00	220.50	9.65	-84.3	-88.8	2.9	1.56e+00	0	48	104	0	60	1048564
2026-01-17 23:57:30.01	220.48	9.57	-85.2	-88.8	2.7	1.56e+00	0	48	104	0	60	1048575
2026-01-17 23:57:31.01	220.46	9.48	-85.2	-88.8	2.9	1.56e+00	0	48	104	0	60	1048575
2026-01-17 23:57:32.02	220.44	9.40	-85.2	-88.8	2.6	1.56e+00	0	48	104	0	60	1048571
2026-01-17 23:57:33.02	220.42	9.31	-85.2	-88.8	2.9	1.56e+00	0	48	104	0	60	1048574
2026-01-17 23:57:34.03	220.40	9.23	-85.2	-88.8	2.8	1.56e+00	0	48	104	0	60	1048574
2026-01-17 23:57:35.03	220.38	9.15	-84.3	-88.8	2.8	1.56e+00	0	48	104	0	60	1048574
2026-01-17 23:57:36.04	220.36	9.06	-85.2	-88.8	2.7	1.56e+00	0	48	104	0	60	1048573
2026-01-17 23:57:37.05	220.34	8.98	-85.2	-88.8	2.6	1.56e+00	0	48	104	0	60	1048573
2026-01-17 23:57:38.05	220.32	8.89	-85.2	-88.8	2.6	1.56e+00	0	48	104	0	60	1048575
2026-01-17 23:57:39.05	220.30	8.81	-84.7	-88.8	2.7	1.56e+00	0	48	104	0	60	1048574
2026-01-17 23:57:40.06	220.28	8.73	-85.2	-88.8	2.8	1.56e+00	0	47	104	0	60	1048575
2026-01-17 23:57:41.07	220.26	8.65	-84.7	-88.8	2.6	1.56e+00	0	48	104	0	60	1048575
2026-01-17 23:57:42.07	220.24	8.56	-85.2	-88.8	2.6	1.56e+00	0	48	104	0	60	1048575
2026-01-17 23:57:43.08	220.23	8.48	-84.3	-88.8	2.7	1.56e+00	0	47	104	0	60	1048573
2026-01-17 23:57:44.08	220.21	8.40	-84.3	-88.8	2.8	1.56e+00	0	48	104	0	60	1048571
2026-01-17 23:57:45.09	220.19	8.32	-85.2	-88.8	2.7	1.56e+00	0	47	104	0	60	1048573
2026-01-17 23:57:46.10	220.17	8.24	-84.7	-88.8	2.6	1.56e+00	0	47	104	0	60	1048573
2026-01-17 23:57:47.10	220.15	8.16	-85.2	-88.8	2.5	1.56e+00	0	48	104	0	60	1048574
2026-01-17 23:57:48.11	220.13	8.07	-85.2	-88.8	2.9	1.56e+00	0	48	104	0	60	1048569
2026-01-17 23:57:49.11	220.12	7.99	-85.2	-88.8	2.7	1.56e+00	0	48	104	0	60	1048575
2026-01-17 23:57:50.12	220.10	7.91	-85.2	-88.8	2.9	1.56e+00	0	47	104	0	60	1048574
2026-01-17 23:57:51.12	220.08	7.83	-85.2	-88.8	2.7	1.56e+00	0	48	104	0	60	1048573
2026-01-17 23:57:52.13	220.06	7.75	-85.2	-88.8	2.6	1.56e+00	0	48	104	0	60	1048570
2026-01-17 23:57:53.14	220.04	7.67	-84.7	-88.8	2.7	1.56e+00	0	48	104	0	60	1048575
2026-01-17 23:57:54.14	220.03	7.59	-85.2	-88.8	2.8	1.56e+00	0	48	104	0	60	1048574
2026-01-17 23:57:55.15	220.01	7.52	-84.7	-88.8	2.8	1.56e+00	0	48	104	0	60	1048574
2026-01-17 23:57:56.15	219.99	7.44	-85.2	-88.8	2.7	1.56e+00	0	48	104	0	60	1048574
2026-01-17 23:57:57.15	219.97	7.36	-85.2	-88.8	2.7	1.56e+00	0	48	104	0	60	1048575
2026-01-17 23:57:58.16	219.96	7.28	-85.2	-88.8	2.7	1.56e+00	0	48	104	0	60	1048575
2026-01-17 23:57:59.17	219.94	7.20	-84.7	-88.8	2.5	1.56e+00	0	48	104	0	60	1048571
2026-01-17 23:58:00.17	219.92	7.12	-85.2	-88.8	2.9	1.56e+00	0	47	104	0	60	1048575
2026-01-17 23:58:01.18	219.91	7.05	-85.2	-88.8	2.5	1.56e+00	0	48	104	0	60	1048574
2026-01-17 23:58:02.19	219.89	6.97	-84.7	-88.8	2.8	1.56e+00	0	47	104	0	60	1048574
2026-01-17 23:58:03.19	219.87	6.89	-85.2	-88.8	2.6	1.56e+00	0	47	104	0	60	1048574
2026-01-17 23:58:04.20	219.86	6.81	-85.2	-88.8	2.4	1.56e+00	0	47	104	0	60	1048575
2026-01-17 23:58:05.21	219.84	6.74	-84.7	-88.8	2.8	1.56e+00	0	48	104	0	60	1048573
2026-01-17 23:58:06.22	219.82	6.66	-84.3	-88.8	2.7	1.56e+00	0	48	104	0	60	1048575
2026-01-17 23:58:07.22	219.81	6.59	-84.7	-88.8	2.6	1.56e+00	0	47	104	0	60	1048575
2026-01-17 23:58:08.23	219.79	6.51	-84.3	-88.8	2.8	1.56e+00	0	47	104	0	60	1048573
2026-01-17 23:58:09.22	219.78	6.43	-85.2	-88.8	2.4	1.56e+00	0	47	104	0	60	1048575
2026-01-17 23:58:10.23	219.76	6.36	-84.7	-88.8	2.6	1.56e+00	0	47	104	0	60	1048572
2026-01-17 23:58:11.24	219.74	6.28	-85.2	-88.8	2.6	1.56e+00	0	47	104	0	60	1048571
2026-01-17 23:58:12.23	219.73	6.21	-84.7	-88.8	2.7	1.56e+00	0	48	104	0	60	1048575
2026-01-17 23:58:13.24	219.71	6.13	-85.2	-88.8	2.7	1.56e+00	0	48	104	0	60	1048575
2026-01-17 23:58:14.24	219.70	6.06	-84.7	-88.8	2.7	1.56e+00	0	48	104	0	60	1048572
2026-01-17 23:58:15.25	219.68	5.98	-84.3	-88.8	2.7	1.56e+00	0	48	104	0	60	1048573
2026-01-17 23:58:16.25	219.67	5.91	-84.3	-88.8	2.5	1.56e+00	0	48	104	0	60	1048574
2026-01-17 23:58:17.26	219.65	5.84	-84.7	-88.8	2.8	1.56e+00	0	48	104	0	60	1048574
2026-01-17 23:58:18.26	219.64	5.76	-85.2	-88.8	2.7	1.56e+00	0	47	104	0	60	1048571
2026-01-17 23:58:19.27	219.62	5.69	-85.2	-88.8	2.6	1.56e+00	0	47	104	0	60	1048568
2026-01-17 23:58:20.28	219.61	5.61	-84.3	-88.8	2.8	1.56e+00	0	47	104	0	60	1048574
2026-01-17 23:58:21.29	219.59	5.54	-85.2	-88.8	2.7	1.56e+00	0	47	104	0	60	1048575
2026-01-17 23:58:22.30	219.58	5.47	-85.2	-88.8	2.7	1.56e+00	0	47	104	0	60	1048571
2026-01-17 23:58:23.31	219.56	5.39	-85.2	-88.8	2.6	1.56e+00	0	47	104	0	60	1048573
2026-01-17 23:58:24.31	219.55	5.32	-85.2	-88.8	2.6	1.56e+00	0	48	104	0	60	1048575
2026-01-17 23:58:25.31	219.53	5.25	-85.2	-88.8	2.8	1.56e+00	0	48	104	0	60	1048575
2026-01-17 23:58:26.32	219.52	5.18	-85.2	-88.8	2.6	1.56e+00	0	48	104	0	60	1048573
2026-01-17 23:58:27.33	219.51	5.10	-85.2	-88.8	2.6	1.56e+00	0	48	104	0	60	1048575
2026-01-17 23:58:28.34	219.49	5.03	-84.7	-88.8	2.6	1.56e+00	0	48	104	0	60	1048569
2026-01-17 23:58:29.35	219.48	4.96	-84.3	-88.8	2.7	1.56e+00	0	48	104	0	60	1048575
2026-01-17 23:58:30.35	219.46	4.89	-85.2	-88.8	2.7	1.56e+00	0	48	104	0	60	1048575
2026-01-17 23:58:31.36	219.45	4.82	-84.7	-88.8	2.6	1.56e+00	0	48	104	0	60	1048575
2026-01-17 23:58:32.37	219.44	4.75	-83.9	-88.8	2.5	1.56e+00	0	48	104	0	60	1048574
2026-01-17 23:58:33.38	219.42	4.68	-85.2	-88.8	2.6	1.56e+00	0	48	104	0	60	1048575
2026-01-17 23:58:34.39	219.41	4.60	-84.3	-88.8	2.7	1.56e+00	0	48	104	0	60	1048574
2026-01-17 23:58:35.40	219.39	4.53	-84.7	-88.8	2.9	1.56e+00	0	48	104	0	60	1048575
2026-01-17 23:58:36.41	219.38	4.46	-84.7	-88.8	2.7	1.56e+00	0	48	104	0	60	1048574
2026-01-17 23:58:37.41	219.37	4.39	-84.7	-88.8	2.7	1.56e+00	0	47	104	0	60	1048573
2026-01-17 23:58:38.41	219.35	4.32	-85.2	-88.8	2.6	1.56e+00	0	48	104	0	60	1048574
2026-01-17 23:58:39.42	219.34	4.25	-84.7	-88.8	2.6	1.56e+00	0	47	104	0	60	1048575
2026-01-17 23:58:40.43	219.33	4.18	-83.1	-88.8	2.5	1.56e+00	0	48	104	0	60	1048571
2026-01-17 23:58:41.44	219.31	4.11	-85.2	-88.8	2.7	1.56e+00	0	48	104	0	60	1048573
2026-01-17 23:58:42.44	219.30	4.04	-84.3	-88.8	2.9	1.56e+00	0	48	104	0	60	1048568
2026-01-17 23:58:43.45	219.29	3.97	-83.9	-88.8	2.8	1.56e+00	0	48	104	0	60	1048564
2026-01-17 23:58:44.45	219.27	3.91	-85.2	-88.8	2.8	1.56e+00	0	48	104	0	60	1048575
2026-01-17 23:58:45.46	219.26	3.84	-85.2	-88.8	2.8	1.56e+00	0	48	104	0	60	1048568
2026-01-17 23:58:46.47	219.25	3.77	-85.2	-88.8	2.6	1.56e+00	0	48	104	0	60	1048574
2026-01-17 23:58:47.47	219.24	3.70	-85.2	-88.8	2.8	1.56e+00	0	48	104	0	60	1048575
2026-01-17 23:58:48.48	219.22	3.63	-85.2	-88.8	2.7	1.56e+00	0	48	104	0	60	1048575
2026-01-17 23:58:49.48	219.21	3.56	-85.2	-88.8	2.6	1.56e+00	0	48	104	0	60	1048574
2026-01-17 23:58:50.49	219.20	3.50	-84.3	-88.8	2.4	1.56e+00	0	47	104	0	60	1048575
2026-01-17 23:58:51.50	219.19	3.43	-85.2	-88.8	2.6	1.56e+00	0	48	104	0	60	1048575
2026-01-17 23:58:52.51	219.17	3.36	-84.7	-88.8	2.6	1.56e+00	0	48	104	0	60	1048574
2026-01-17 23:58:53.52	219.16	3.29	-83.5	-88.8	2.5	1.56e+00	0	48	104	0	60	1048574
