passes_logs/2026/01/17/R3.2S-Naryan-Mar/R3.2S-Naryan-Mar__20260117_081929_NOAA_21_JPSS-2_rec.log

#Pass ID: 20260117_081929_NOAA 21 (JPSS-2)
#Satellite: NOAA 21 (JPSS-2)
#Configuration: NOAA-21
#almurnet v.1.7.20240730
#Start time: 2026-01-17 08:28:41

#Version: 2.2.20231116
#Station: R3.2S-Naryan-Mar
#Location: 53.008057 lon 67.646978 lat
#TLE: 1 54234U 22150A   26016.21096038  .00000027  00000+0  33607-4 0  9993
#TLE: 2 54234  98.7500 317.0960 0000625 282.3388  77.7718 14.19534911164985

#Time	Az	El	Level	Level2	SNR	BER	BlckErr	Temp	State	Recorded	gain1	gain2
2026-01-17 08:28:41.87	334.79	51.10	-84.7	-88.6	3.5	7.76e-01	0	47	0	0	60	1048574
2026-01-17 08:28:42.87	334.80	50.76	-85.2	-88.8	2.7	1.56e+00	0	47	104	0	60	1048575
2026-01-17 08:28:43.87	334.82	50.42	-85.2	-88.8	2.8	1.56e+00	0	47	104	0	60	1048571
2026-01-17 08:28:44.88	334.83	50.08	-85.2	-88.8	2.7	1.56e+00	0	47	104	0	60	1048575
2026-01-17 08:28:45.88	334.84	49.74	-85.2	-88.8	2.7	1.56e+00	0	47	104	0	60	1048575
2026-01-17 08:28:46.89	334.86	49.41	-82.8	-88.8	2.7	1.56e+00	0	47	104	0	60	1048571
2026-01-17 08:28:47.89	334.87	49.08	-85.2	-88.8	2.9	1.56e+00	0	47	104	0	60	1048575
2026-01-17 08:28:48.90	334.88	48.74	-85.2	-88.8	2.9	1.56e+00	0	47	104	0	60	1048570
2026-01-17 08:28:49.91	334.90	48.42	-85.2	-88.8	2.8	1.56e+00	0	47	104	0	60	1048574
2026-01-17 08:28:50.91	334.91	48.09	-85.2	-88.8	3.1	1.56e+00	0	47	104	0	60	1048572
2026-01-17 08:28:51.92	334.92	47.77	-84.3	-88.8	2.8	1.56e+00	0	47	104	0	60	1048575
2026-01-17 08:28:52.93	334.93	47.45	-85.2	-88.8	2.7	1.56e+00	0	47	104	0	60	1048573
2026-01-17 08:28:53.94	334.95	47.13	-85.2	-88.8	2.9	1.56e+00	0	47	104	0	60	1048573
2026-01-17 08:28:54.95	334.96	46.81	-85.2	-88.8	2.7	1.56e+00	0	47	104	0	60	1048575
2026-01-17 08:28:55.95	334.97	46.50	-85.2	-88.8	2.7	1.56e+00	0	47	104	0	60	1048575
2026-01-17 08:28:56.96	334.98	46.19	-85.2	-88.8	2.6	1.56e+00	0	47	104	0	60	1048574
2026-01-17 08:28:57.97	334.99	45.88	-84.3	-88.8	2.8	1.56e+00	0	47	104	0	60	1048572
2026-01-17 08:28:58.97	335.00	45.58	-85.2	-88.8	2.7	1.56e+00	0	47	104	0	60	1048575
2026-01-17 08:28:59.98	335.02	45.27	-85.2	-88.8	2.8	1.56e+00	0	47	104	0	60	1048575
2026-01-17 08:29:00.98	335.03	44.97	-85.2	-88.8	2.5	1.56e+00	0	47	104	0	60	1048574
2026-01-17 08:29:01.99	335.04	44.67	-85.2	-88.8	2.8	1.56e+00	0	47	104	0	60	1048575
2026-01-17 08:29:02.99	335.05	44.38	-85.2	-88.8	2.6	1.56e+00	0	47	104	0	60	1048571
2026-01-17 08:29:03.99	335.06	44.08	-85.2	-88.8	2.9	1.56e+00	0	47	104	0	60	1048573
2026-01-17 08:29:05.00	335.07	43.79	-85.2	-88.8	2.8	1.56e+00	0	47	104	0	60	1048574
2026-01-17 08:29:06.00	335.08	43.50	-85.2	-88.8	2.9	1.56e+00	0	47	104	0	60	1048574
2026-01-17 08:29:07.00	335.09	43.22	-85.2	-88.8	2.7	1.56e+00	0	47	104	0	60	1048574
2026-01-17 08:29:08.00	335.10	42.93	-85.2	-88.8	2.5	1.56e+00	0	47	104	0	60	1048575
2026-01-17 08:29:09.00	335.11	42.65	-85.2	-88.8	2.7	1.56e+00	0	47	104	0	60	1048575
2026-01-17 08:29:10.01	335.12	42.37	-85.2	-88.8	2.6	1.56e+00	0	47	104	0	60	1048571
2026-01-17 08:29:11.02	335.13	42.09	-85.2	-88.8	2.6	1.56e+00	0	47	104	0	60	1048574
2026-01-17 08:29:12.03	335.14	41.81	-85.2	-88.8	2.7	1.56e+00	0	47	104	0	60	1048573
2026-01-17 08:29:13.03	335.15	41.54	-85.2	-88.8	2.7	1.56e+00	0	47	104	0	60	1048572
2026-01-17 08:29:14.04	335.16	41.26	-85.2	-88.8	2.6	1.56e+00	0	47	104	0	60	1048575
2026-01-17 08:29:15.05	335.17	40.99	-83.9	-88.8	2.5	1.56e+00	0	47	104	0	60	1048573
2026-01-17 08:29:16.06	335.18	40.72	-85.2	-88.8	2.5	1.56e+00	0	47	104	0	60	1048571
2026-01-17 08:29:17.06	335.19	40.45	-85.2	-88.8	2.8	1.56e+00	0	47	104	0	60	1048575
2026-01-17 08:29:18.07	335.20	40.19	-84.3	-88.8	2.7	1.56e+00	0	47	104	0	60	1048575
2026-01-17 08:29:19.07	335.21	39.93	-85.2	-88.8	2.7	1.56e+00	0	47	104	0	60	1048575
2026-01-17 08:29:20.08	335.22	39.66	-85.2	-88.8	2.7	1.56e+00	0	47	104	0	60	1048575
2026-01-17 08:29:21.09	335.22	39.40	-85.2	-88.8	3.0	1.56e+00	0	47	104	0	60	1048571
2026-01-17 08:29:22.09	335.23	39.15	-85.2	-88.8	2.6	1.56e+00	0	47	104	0	60	1048575
2026-01-17 08:29:23.10	335.24	38.89	-84.7	-88.8	2.5	1.56e+00	0	47	104	0	60	1048571
2026-01-17 08:29:24.11	335.25	38.64	-85.2	-88.8	2.5	1.56e+00	0	47	104	0	60	1048574
2026-01-17 08:29:25.11	335.26	38.39	-85.2	-88.8	2.6	1.56e+00	0	47	104	0	60	1048575
2026-01-17 08:29:26.12	335.27	38.14	-85.2	-88.8	2.6	1.56e+00	0	47	104	0	60	1048574
2026-01-17 08:29:27.13	335.28	37.89	-84.3	-88.8	2.8	1.56e+00	0	47	104	0	60	1048575
2026-01-17 08:29:28.14	335.29	37.64	-85.2	-88.8	2.6	1.56e+00	0	47	104	0	60	1048572
2026-01-17 08:29:29.14	335.29	37.40	-85.2	-88.8	2.7	1.56e+00	0	47	104	0	60	1048574
2026-01-17 08:29:30.15	335.30	37.16	-85.2	-88.8	2.9	1.56e+00	0	47	104	0	60	1048575
2026-01-17 08:29:31.15	335.31	36.92	-85.2	-88.8	2.6	1.56e+00	0	47	104	0	60	1048574
2026-01-17 08:29:32.16	335.32	36.68	-85.2	-88.8	2.7	1.56e+00	0	47	104	0	60	1048575
2026-01-17 08:29:33.17	335.33	36.44	-85.2	-88.8	2.7	1.56e+00	0	47	104	0	60	1048572
2026-01-17 08:29:34.17	335.34	36.20	-85.2	-88.8	2.8	1.56e+00	0	47	104	0	60	1048572
2026-01-17 08:29:35.18	335.34	35.97	-85.2	-88.8	2.7	1.56e+00	0	47	104	0	60	1048573
2026-01-17 08:29:36.18	335.35	35.74	-85.2	-88.8	2.8	1.56e+00	0	47	104	0	60	1048575
2026-01-17 08:29:37.19	335.36	35.51	-85.2	-88.8	2.8	1.56e+00	0	47	104	0	60	1048574
2026-01-17 08:29:38.19	335.37	35.28	-85.2	-88.8	2.6	1.56e+00	0	47	104	0	60	1048575
2026-01-17 08:29:39.20	335.38	35.05	-85.2	-88.8	2.5	1.56e+00	0	47	104	0	60	1048575
2026-01-17 08:29:40.21	335.38	34.83	-85.2	-88.8	2.7	1.56e+00	0	47	104	0	60	1048574
2026-01-17 08:29:41.21	335.39	34.60	-85.2	-88.8	2.7	1.56e+00	0	47	104	0	60	1048575
2026-01-17 08:29:42.22	335.40	34.38	-85.2	-88.8	2.6	1.56e+00	0	47	104	0	60	1048575
2026-01-17 08:29:43.23	335.41	34.16	-85.2	-88.8	2.6	1.56e+00	0	47	104	0	60	1048571
2026-01-17 08:29:44.24	335.41	33.94	-85.2	-88.8	2.7	1.56e+00	0	47	104	0	60	1048570
2026-01-17 08:29:45.24	335.42	33.72	-85.2	-88.8	2.8	1.56e+00	0	47	104	0	60	1048570
2026-01-17 08:29:46.25	335.43	33.51	-85.2	-88.8	2.7	1.56e+00	0	47	104	0	60	1048575
2026-01-17 08:29:47.26	335.44	33.29	-85.2	-88.8	2.8	1.56e+00	0	47	104	0	60	1048575
2026-01-17 08:29:48.26	335.44	33.08	-85.2	-88.8	2.7	1.56e+00	0	47	104	0	60	1048575
2026-01-17 08:29:49.27	335.45	32.87	-85.2	-88.8	2.8	1.56e+00	0	47	104	0	60	1048572
2026-01-17 08:29:50.27	335.46	32.66	-85.2	-88.8	2.7	1.56e+00	0	47	104	0	60	1048572
2026-01-17 08:29:51.28	335.47	32.45	-85.2	-88.8	2.7	1.56e+00	0	47	104	0	60	1048574
2026-01-17 08:29:52.28	335.47	32.24	-85.2	-88.8	2.8	1.56e+00	0	47	104	0	60	1048574
2026-01-17 08:29:53.29	335.48	32.04	-85.2	-88.8	2.7	1.56e+00	0	47	104	0	60	1048575
2026-01-17 08:29:54.30	335.49	31.83	-85.2	-88.8	2.8	1.56e+00	0	47	104	0	60	1048573
2026-01-17 08:29:55.31	335.49	31.63	-85.2	-88.8	2.8	1.56e+00	0	47	104	0	60	1048575
2026-01-17 08:29:56.31	335.50	31.43	-85.2	-88.8	2.6	1.56e+00	0	47	104	0	60	1048574
2026-01-17 08:29:57.32	335.51	31.23	-85.2	-88.8	2.8	1.56e+00	0	47	104	0	60	1048575
2026-01-17 08:29:58.33	335.52	31.03	-85.2	-88.8	2.6	1.56e+00	0	47	104	0	60	1048571
2026-01-17 08:29:59.33	335.52	30.83	-85.2	-88.8	2.7	1.56e+00	0	47	104	0	60	1048574
2026-01-17 08:30:00.34	335.53	30.63	-85.2	-88.8	2.7	1.56e+00	0	47	104	0	60	1048575
2026-01-17 08:30:01.35	335.54	30.44	-85.2	-88.8	2.7	1.56e+00	0	47	104	0	60	1048575
2026-01-17 08:30:02.35	335.54	30.25	-85.2	-88.8	2.7	1.56e+00	0	47	104	0	60	1048575
2026-01-17 08:30:03.35	335.55	30.06	-85.2	-88.8	2.8	1.56e+00	0	47	104	0	60	1048569
2026-01-17 08:30:04.36	335.56	29.86	-85.2	-88.8	2.7	1.56e+00	0	47	104	0	60	1048575
2026-01-17 08:30:05.37	335.56	29.67	-85.2	-88.8	2.6	1.56e+00	0	47	104	0	60	1048573
2026-01-17 08:30:06.37	335.57	29.49	-85.2	-88.8	2.8	1.56e+00	0	47	104	0	60	1048575
2026-01-17 08:30:07.38	335.58	29.30	-84.3	-88.8	2.8	1.56e+00	0	47	104	0	60	1048570
2026-01-17 08:30:08.38	335.58	29.11	-85.2	-88.8	2.7	1.56e+00	0	47	104	0	60	1048570
2026-01-17 08:30:09.39	335.59	28.93	-85.2	-88.8	2.7	1.56e+00	0	47	104	0	60	1048574
2026-01-17 08:30:10.39	335.60	28.75	-85.2	-88.8	2.6	1.56e+00	0	47	104	0	60	1048575
2026-01-17 08:30:11.40	335.60	28.56	-85.2	-88.8	2.8	1.56e+00	0	47	104	0	60	1048575
2026-01-17 08:30:12.41	335.61	28.38	-85.2	-88.8	2.5	1.56e+00	0	47	104	0	60	1048575
2026-01-17 08:30:13.42	335.62	28.20	-85.2	-88.8	2.5	1.56e+00	0	47	104	0	60	1048574
2026-01-17 08:30:14.43	335.62	28.02	-85.2	-88.8	2.6	1.56e+00	0	47	104	0	60	1048574
2026-01-17 08:30:15.43	335.63	27.85	-85.2	-88.8	2.6	1.56e+00	0	47	104	0	60	1048574
2026-01-17 08:30:16.44	335.64	27.67	-85.2	-88.8	2.6	1.56e+00	0	47	104	0	60	1048574
2026-01-17 08:30:17.45	335.64	27.49	-85.2	-88.8	2.5	1.56e+00	0	47	104	0	60	1048575
2026-01-17 08:30:18.46	335.65	27.32	-85.2	-88.8	2.7	1.56e+00	0	47	104	0	60	1048574
2026-01-17 08:30:19.46	335.66	27.15	-85.2	-88.8	2.9	1.56e+00	0	47	104	0	60	1048575
2026-01-17 08:30:20.47	335.66	26.97	-85.2	-88.8	2.8	1.56e+00	0	47	104	0	60	1048574
2026-01-17 08:30:21.48	335.67	26.80	-85.2	-88.8	2.5	1.56e+00	0	47	104	0	60	1048574
2026-01-17 08:30:22.49	335.68	26.63	-85.2	-88.8	2.8	1.56e+00	0	47	104	0	60	1048574
2026-01-17 08:30:23.49	335.68	26.46	-85.2	-88.8	2.8	1.56e+00	0	47	104	0	60	1048572
2026-01-17 08:30:24.50	335.69	26.30	-85.2	-88.8	2.7	1.56e+00	0	47	104	0	60	1048574
2026-01-17 08:30:25.51	335.70	26.13	-85.2	-88.8	2.7	1.56e+00	0	47	104	0	60	1048568
2026-01-17 08:30:26.51	335.70	25.96	-85.2	-88.8	2.8	1.56e+00	0	47	104	0	60	1048574
2026-01-17 08:30:27.52	335.71	25.80	-85.2	-88.8	3.0	1.56e+00	0	47	104	0	60	1048575
2026-01-17 08:30:28.52	335.71	25.64	-85.2	-88.8	2.6	1.56e+00	0	47	104	0	60	1048575
2026-01-17 08:30:29.53	335.72	25.47	-85.2	-88.8	2.7	1.56e+00	0	47	104	0	60	1048572
2026-01-17 08:30:30.53	335.73	25.31	-85.2	-88.8	2.6	1.56e+00	0	47	104	0	60	1048572
2026-01-17 08:30:31.54	335.73	25.15	-85.2	-88.8	2.8	1.56e+00	0	47	104	0	60	1048575
2026-01-17 08:30:32.55	335.74	24.99	-85.2	-88.8	2.7	1.56e+00	0	47	104	0	60	1048574
2026-01-17 08:30:33.55	335.74	24.83	-85.2	-88.8	2.8	1.56e+00	0	47	104	0	60	1048575
2026-01-17 08:30:34.56	335.75	24.68	-85.2	-88.8	2.9	1.56e+00	0	47	104	0	60	1048574
2026-01-17 08:30:35.57	335.76	24.52	-85.2	-88.8	2.6	1.56e+00	0	47	104	0	60	1048575
2026-01-17 08:30:36.58	335.76	24.36	-85.2	-88.8	2.7	1.56e+00	0	47	104	0	60	1048575
2026-01-17 08:30:37.58	335.77	24.21	-85.2	-88.8	2.8	1.56e+00	0	47	104	0	60	1048571
2026-01-17 08:30:38.59	335.77	24.05	-85.2	-88.8	2.7	1.56e+00	0	47	104	0	60	1048574
2026-01-17 08:30:39.60	335.78	23.90	-85.2	-88.8	2.8	1.56e+00	0	47	104	0	60	1048575
2026-01-17 08:30:40.60	335.79	23.75	-85.2	-88.8	2.7	1.56e+00	0	47	104	0	60	1048575
2026-01-17 08:30:41.61	335.79	23.60	-85.2	-88.8	2.8	1.56e+00	0	47	104	0	60	1048575
2026-01-17 08:30:42.61	335.80	23.45	-85.2	-88.8	2.7	1.56e+00	0	47	104	0	60	1048574
2026-01-17 08:30:43.62	335.80	23.30	-85.2	-88.8	2.5	1.56e+00	0	47	104	0	60	1048575
2026-01-17 08:30:44.63	335.81	23.15	-85.2	-88.8	2.6	1.56e+00	0	47	104	0	60	1048568
2026-01-17 08:30:45.64	335.82	23.00	-85.2	-88.8	2.9	1.56e+00	0	47	104	0	60	1048575
2026-01-17 08:30:46.65	335.82	22.85	-85.2	-88.8	2.7	1.56e+00	0	47	104	0	60	1048575
2026-01-17 08:30:47.65	335.83	22.71	-85.2	-88.8	2.7	1.56e+00	0	47	104	0	60	1048574
2026-01-17 08:30:48.65	335.83	22.56	-85.2	-88.8	2.5	1.56e+00	0	47	104	0	60	1048573
2026-01-17 08:30:49.66	335.84	22.42	-85.2	-88.8	2.9	1.56e+00	0	47	104	0	60	1048575
2026-01-17 08:30:50.67	335.85	22.27	-85.2	-88.8	2.9	1.56e+00	0	47	104	0	60	1048573
2026-01-17 08:30:51.67	335.85	22.13	-85.2	-88.8	2.7	1.56e+00	0	47	104	0	60	1048571
2026-01-17 08:30:52.68	335.86	21.99	-85.2	-88.8	2.7	1.56e+00	0	47	104	0	60	1048572
2026-01-17 08:30:53.69	335.86	21.85	-85.2	-88.8	2.6	1.56e+00	0	47	104	0	60	1048575
2026-01-17 08:30:54.70	335.87	21.71	-85.2	-88.8	2.8	1.56e+00	0	47	104	0	60	1048572
2026-01-17 08:30:55.71	335.87	21.57	-85.2	-88.8	2.4	1.56e+00	0	47	104	0	60	1048574
2026-01-17 08:30:56.71	335.88	21.43	-85.2	-88.8	2.8	1.56e+00	0	47	104	0	60	1048575
2026-01-17 08:30:57.72	335.89	21.29	-85.2	-88.8	2.8	1.56e+00	0	47	104	0	60	1048575
2026-01-17 08:30:58.73	335.89	21.15	-84.7	-88.8	2.8	1.56e+00	0	47	104	0	60	1048575
2026-01-17 08:30:59.73	335.90	21.01	-85.2	-88.8	2.8	1.56e+00	0	47	104	0	60	1048574
2026-01-17 08:31:00.73	335.90	20.88	-85.2	-88.8	2.7	1.56e+00	0	47	104	0	60	1048571
2026-01-17 08:31:01.73	335.91	20.75	-85.2	-88.8	2.6	1.56e+00	0	47	104	0	60	1048575
2026-01-17 08:31:02.73	335.91	20.61	-85.2	-88.8	2.8	1.56e+00	0	47	104	0	60	1048575
2026-01-17 08:31:03.74	335.92	20.48	-85.2	-88.8	2.7	1.56e+00	0	47	104	0	60	1048574
2026-01-17 08:31:04.75	335.93	20.34	-85.2	-88.8	2.7	1.56e+00	0	47	104	0	60	1048573
2026-01-17 08:31:05.75	335.93	20.21	-85.2	-88.8	2.7	1.56e+00	0	47	104	0	60	1048575
2026-01-17 08:31:06.76	335.94	20.08	-85.2	-88.8	2.7	1.56e+00	0	47	104	0	60	1048572
2026-01-17 08:31:07.77	335.94	19.95	-85.2	-88.8	2.7	1.56e+00	0	48	104	0	60	1048575
2026-01-17 08:31:08.77	335.95	19.82	-85.2	-88.8	2.9	1.56e+00	0	47	104	0	60	1048574
2026-01-17 08:31:09.78	335.95	19.69	-85.2	-88.8	2.7	1.56e+00	0	47	104	0	60	1048575
2026-01-17 08:31:10.79	335.96	19.56	-85.2	-88.8	2.7	1.56e+00	0	47	104	0	60	1048575
2026-01-17 08:31:11.79	335.97	19.43	-85.2	-88.8	2.5	1.56e+00	0	47	104	0	60	1048571
2026-01-17 08:31:12.80	335.97	19.30	-85.2	-88.8	2.6	1.56e+00	0	47	104	0	60	1048574
2026-01-17 08:31:13.81	335.98	19.18	-85.2	-88.8	2.5	1.56e+00	0	47	104	0	60	1048575
2026-01-17 08:31:14.81	335.98	19.05	-85.2	-88.8	2.8	1.56e+00	0	47	104	0	60	1048574
2026-01-17 08:31:15.82	335.99	18.93	-85.2	-88.8	2.7	1.56e+00	0	47	104	0	60	1048573
2026-01-17 08:31:16.83	335.99	18.80	-85.2	-88.8	2.7	1.56e+00	0	47	104	0	60	1048575
2026-01-17 08:31:17.83	336.00	18.68	-85.2	-88.8	2.6	1.56e+00	0	47	104	0	60	1048562
2026-01-17 08:31:18.84	336.00	18.55	-85.2	-88.8	2.7	1.56e+00	0	47	104	0	60	1048573
2026-01-17 08:31:19.83	336.01	18.43	-85.2	-88.8	2.7	1.56e+00	0	47	104	0	60	1048574
2026-01-17 08:31:20.84	336.01	18.31	-85.2	-88.8	2.7	1.56e+00	0	47	104	0	60	1048575
2026-01-17 08:31:21.85	336.02	18.19	-84.7	-88.8	2.7	1.56e+00	0	47	104	0	60	1048575
2026-01-17 08:31:22.86	336.03	18.06	-85.2	-88.8	2.7	1.56e+00	0	47	104	0	60	1048569
2026-01-17 08:31:23.87	336.03	17.94	-85.2	-88.8	2.9	1.56e+00	0	47	104	0	60	1048575
2026-01-17 08:31:24.87	336.04	17.82	-85.2	-88.8	2.7	1.56e+00	0	47	104	0	60	1048575
2026-01-17 08:31:25.88	336.04	17.70	-84.3	-88.8	2.9	1.56e+00	0	47	104	0	60	1048574
2026-01-17 08:31:26.89	336.05	17.58	-85.2	-88.8	2.7	1.56e+00	0	47	104	0	60	1048573
2026-01-17 08:31:27.90	336.05	17.46	-84.3	-88.8	2.8	1.56e+00	0	47	104	0	60	1048569
2026-01-17 08:31:28.90	336.06	17.35	-85.2	-88.8	2.9	1.56e+00	0	47	104	0	60	1048571
2026-01-17 08:31:29.91	336.06	17.23	-85.2	-88.8	2.6	1.56e+00	0	47	104	0	60	1048575
2026-01-17 08:31:30.92	336.07	17.11	-85.2	-88.8	2.7	1.56e+00	0	47	104	0	60	1048575
2026-01-17 08:31:31.92	336.07	17.00	-85.2	-88.8	2.4	1.56e+00	0	47	104	0	60	1048574
2026-01-17 08:31:32.93	336.08	16.88	-85.2	-88.8	2.6	1.56e+00	0	47	104	0	60	1048572
2026-01-17 08:31:33.93	336.08	16.77	-85.2	-88.8	2.5	1.56e+00	0	47	104	0	60	1048574
2026-01-17 08:31:34.94	336.09	16.65	-85.2	-88.8	2.6	1.56e+00	0	47	104	0	60	1048574
2026-01-17 08:31:35.94	336.10	16.54	-85.2	-88.8	2.7	1.56e+00	0	47	104	0	60	1048575
2026-01-17 08:31:36.95	336.10	16.42	-85.2	-88.8	2.7	1.56e+00	0	47	104	0	60	1048575
2026-01-17 08:31:37.95	336.11	16.31	-85.2	-88.8	2.6	1.56e+00	0	47	104	0	60	1048574
2026-01-17 08:31:38.96	336.11	16.20	-85.2	-88.8	2.9	1.56e+00	0	47	104	0	60	1048575
2026-01-17 08:31:39.97	336.12	16.09	-85.2	-88.8	2.6	1.56e+00	0	47	104	0	60	1048575
2026-01-17 08:31:40.97	336.12	15.98	-85.2	-88.8	2.6	1.56e+00	0	47	104	0	60	1048573
2026-01-17 08:31:41.98	336.13	15.87	-85.2	-88.8	2.8	1.56e+00	0	47	104	0	60	1048574
2026-01-17 08:31:42.99	336.13	15.75	-84.7	-88.8	2.7	1.56e+00	0	47	104	0	60	1048575
2026-01-17 08:31:43.99	336.14	15.65	-84.3	-88.8	2.9	1.56e+00	0	47	104	0	60	1048575
2026-01-17 08:31:44.99	336.14	15.54	-85.2	-88.8	2.7	1.56e+00	0	47	104	0	60	1048575
2026-01-17 08:31:46.00	336.15	15.43	-85.2	-88.8	2.7	1.56e+00	0	47	104	0	60	1048573
2026-01-17 08:31:47.00	336.15	15.32	-85.2	-88.8	2.5	1.56e+00	0	47	104	0	60	1048573
2026-01-17 08:31:48.01	336.16	15.21	-85.2	-88.8	2.9	1.56e+00	0	47	104	0	60	1048574
2026-01-17 08:31:49.01	336.16	15.10	-85.2	-88.8	2.8	1.56e+00	0	47	104	0	60	1048574
2026-01-17 08:31:50.01	336.17	15.00	-85.2	-88.8	2.8	1.56e+00	0	47	104	0	60	1048575
2026-01-17 08:31:51.01	336.17	14.89	-85.2	-88.8	2.7	1.56e+00	0	47	104	0	60	1048572
2026-01-17 08:31:52.01	336.18	14.79	-85.2	-88.8	2.8	1.56e+00	0	47	104	0	60	1048574
2026-01-17 08:31:53.02	336.19	14.68	-85.2	-88.8	2.6	1.56e+00	0	47	104	0	60	1048574
2026-01-17 08:31:54.03	336.19	14.58	-85.2	-88.8	2.7	1.56e+00	0	47	104	0	60	1048574
2026-01-17 08:31:55.03	336.20	14.47	-85.2	-88.8	2.6	1.56e+00	0	47	104	0	60	1048573
2026-01-17 08:31:56.04	336.20	14.37	-85.2	-88.8	2.7	1.56e+00	0	47	104	0	60	1048575
2026-01-17 08:31:57.05	336.21	14.26	-85.2	-88.8	2.7	1.56e+00	0	47	104	0	60	1048575
2026-01-17 08:31:58.05	336.21	14.16	-85.2	-88.8	2.8	1.56e+00	0	47	104	0	60	1048573
2026-01-17 08:31:59.06	336.22	14.06	-85.2	-88.8	2.7	1.56e+00	0	47	104	0	60	1048573
2026-01-17 08:32:00.07	336.22	13.95	-85.2	-88.8	2.8	1.56e+00	0	47	104	0	60	1048572
2026-01-17 08:32:01.08	336.23	13.85	-85.2	-88.8	2.5	1.56e+00	0	47	104	0	60	1048570
2026-01-17 08:32:02.08	336.23	13.75	-85.2	-88.8	2.7	1.56e+00	0	47	104	0	60	1048572
2026-01-17 08:32:03.09	336.24	13.65	-85.2	-88.8	2.7	1.56e+00	0	47	104	0	60	1048575
2026-01-17 08:32:04.10	336.24	13.55	-85.2	-88.8	2.7	1.56e+00	0	47	104	0	60	1048575
2026-01-17 08:32:05.11	336.25	13.45	-85.2	-88.8	2.8	1.56e+00	0	47	104	0	60	1048574
2026-01-17 08:32:06.11	336.25	13.35	-85.2	-88.8	2.6	1.56e+00	0	47	104	0	60	1048575
2026-01-17 08:32:07.12	336.26	13.25	-85.2	-88.8	2.7	1.56e+00	0	47	104	0	60	1048575
2026-01-17 08:32:08.13	336.26	13.15	-85.2	-88.8	2.8	1.56e+00	0	47	104	0	60	1048571
2026-01-17 08:32:09.13	336.27	13.05	-85.2	-88.8	2.7	1.56e+00	0	47	104	0	60	1048575
2026-01-17 08:32:10.14	336.27	12.95	-85.2	-88.8	2.8	1.56e+00	0	47	104	0	60	1048570
2026-01-17 08:32:11.15	336.28	12.85	-85.2	-88.8	2.7	1.56e+00	0	47	104	0	60	1048573
2026-01-17 08:32:12.15	336.28	12.76	-85.2	-88.8	2.7	1.56e+00	0	47	104	0	60	1048575
2026-01-17 08:32:13.16	336.29	12.66	-85.2	-88.8	2.7	1.56e+00	0	47	104	0	60	1048573
2026-01-17 08:32:14.17	336.29	12.56	-82.8	-88.8	2.7	1.56e+00	0	47	104	0	60	1048573
2026-01-17 08:32:15.18	336.30	12.47	-85.2	-88.8	2.8	1.56e+00	0	47	104	0	60	1048575
2026-01-17 08:32:16.18	336.30	12.37	-85.2	-88.8	2.8	1.56e+00	0	47	104	0	60	1048574
2026-01-17 08:32:17.19	336.31	12.27	-85.2	-88.8	2.7	1.56e+00	0	47	104	0	60	1048575
2026-01-17 08:32:18.20	336.31	12.18	-85.2	-88.8	3.0	1.56e+00	0	47	104	0	60	1048567
2026-01-17 08:32:19.21	336.32	12.08	-85.2	-88.8	2.6	1.56e+00	0	47	104	0	60	1048575
2026-01-17 08:32:20.21	336.32	11.99	-85.2	-88.8	2.7	1.56e+00	0	47	104	0	60	1048574
2026-01-17 08:32:21.22	336.33	11.89	-85.2	-88.8	2.8	1.56e+00	0	47	104	0	60	1048569
2026-01-17 08:32:22.22	336.33	11.80	-85.2	-88.8	2.8	1.56e+00	0	47	104	0	60	1048574
2026-01-17 08:32:23.23	336.34	11.71	-85.2	-88.8	2.7	1.56e+00	0	47	104	0	60	1048575
2026-01-17 08:32:24.23	336.34	11.62	-85.2	-88.8	2.6	1.56e+00	0	47	104	0	60	1048575
2026-01-17 08:32:25.24	336.35	11.52	-85.2	-88.8	2.7	1.56e+00	0	47	104	0	60	1048573
2026-01-17 08:32:26.25	336.35	11.43	-85.2	-88.8	2.5	1.56e+00	0	47	104	0	60	1048572
2026-01-17 08:32:27.26	336.36	11.34	-85.2	-88.8	2.7	1.56e+00	0	47	104	0	60	1048575
2026-01-17 08:32:28.27	336.36	11.24	-85.2	-88.8	2.8	1.56e+00	0	47	104	0	60	1048575
2026-01-17 08:32:29.27	336.37	11.15	-84.7	-88.8	2.8	1.56e+00	0	47	104	0	60	1048575
2026-01-17 08:32:30.28	336.37	11.06	-85.2	-88.8	2.8	1.56e+00	0	47	104	0	60	1048575
2026-01-17 08:32:31.28	336.38	10.97	-85.2	-88.8	2.8	1.56e+00	0	47	104	0	60	1048574
2026-01-17 08:32:32.29	336.38	10.88	-85.2	-88.8	2.7	1.56e+00	0	47	104	0	60	1048574
2026-01-17 08:32:33.29	336.39	10.79	-85.2	-88.8	2.8	1.56e+00	0	47	104	0	60	1048575
2026-01-17 08:32:34.30	336.39	10.70	-85.2	-88.8	2.7	1.56e+00	0	47	104	0	60	1048574
2026-01-17 08:32:35.31	336.40	10.61	-85.2	-88.8	2.7	1.56e+00	0	47	104	0	60	1048575
2026-01-17 08:32:36.32	336.40	10.52	-85.2	-88.8	2.8	1.56e+00	0	47	104	0	60	1048571
2026-01-17 08:32:37.33	336.41	10.43	-85.2	-88.8	2.8	1.56e+00	0	47	104	0	60	1048575
2026-01-17 08:32:38.33	336.41	10.35	-85.2	-88.8	2.9	1.56e+00	0	47	104	0	60	1048573
2026-01-17 08:32:39.33	336.42	10.26	-85.2	-88.8	2.7	1.56e+00	0	47	104	0	60	1048572
2026-01-17 08:32:40.33	336.42	10.17	-85.2	-88.8	2.6	1.56e+00	0	47	104	0	60	1048575
2026-01-17 08:32:41.34	336.43	10.08	-85.2	-88.8	2.6	1.56e+00	0	47	104	0	60	1048575
2026-01-17 08:32:42.35	336.43	10.00	-85.2	-88.8	2.9	1.56e+00	0	47	104	0	60	1048573
2026-01-17 08:32:43.35	336.44	9.91	-85.2	-88.8	2.7	1.56e+00	0	47	104	0	60	1048574
2026-01-17 08:32:44.36	336.44	9.82	-84.7	-88.8	2.6	1.56e+00	0	47	104	0	60	1048574
2026-01-17 08:32:45.37	336.45	9.74	-85.2	-88.8	2.7	1.56e+00	0	47	104	0	60	1048573
2026-01-17 08:32:46.38	336.45	9.65	-84.3	-88.8	2.7	1.56e+00	0	47	104	0	60	1048573
2026-01-17 08:32:47.39	336.46	9.57	-85.2	-88.8	2.7	1.56e+00	0	47	104	0	60	1048574
2026-01-17 08:32:48.39	336.46	9.48	-85.2	-88.8	2.7	1.56e+00	0	47	104	0	60	1048575
2026-01-17 08:32:49.40	336.47	9.40	-85.2	-88.8	2.8	1.56e+00	0	47	104	0	60	1048575
2026-01-17 08:32:50.40	336.47	9.31	-85.2	-88.8	2.9	1.56e+00	0	47	104	0	60	1048574
2026-01-17 08:32:51.41	336.48	9.23	-85.2	-88.8	2.7	1.56e+00	0	47	104	0	60	1048572
2026-01-17 08:32:52.42	336.48	9.14	-85.2	-88.8	2.7	1.56e+00	0	47	104	0	60	1048570
2026-01-17 08:32:53.43	336.49	9.06	-84.3	-88.8	2.9	1.56e+00	0	47	104	0	60	1048575
2026-01-17 08:32:54.43	336.49	8.97	-85.2	-88.8	2.7	1.56e+00	0	47	104	0	60	1048575
2026-01-17 08:32:55.44	336.50	8.89	-85.2	-88.8	2.6	1.56e+00	0	47	104	0	60	1048572
2026-01-17 08:32:56.43	336.50	8.81	-85.2	-88.8	2.7	1.56e+00	0	47	104	0	60	1048575
2026-01-17 08:32:57.44	336.51	8.73	-85.2	-88.8	2.7	1.56e+00	0	47	104	0	60	1048574
2026-01-17 08:32:58.45	336.51	8.64	-85.2	-88.8	2.6	1.56e+00	0	47	104	0	60	1048572
2026-01-17 08:32:59.45	336.52	8.56	-85.2	-88.8	2.7	1.56e+00	0	47	104	0	60	1048575
2026-01-17 08:33:00.46	336.52	8.48	-85.2	-88.8	2.8	1.56e+00	0	47	104	0	60	1048575
2026-01-17 08:33:01.47	336.53	8.40	-85.2	-88.8	2.6	1.56e+00	0	47	104	0	60	1048574
2026-01-17 08:33:02.48	336.53	8.32	-85.2	-88.8	2.8	1.56e+00	0	47	104	0	60	1048574
2026-01-17 08:33:03.49	336.54	8.23	-85.2	-88.8	2.7	1.56e+00	0	47	104	0	60	1048571
2026-01-17 08:33:04.49	336.54	8.15	-85.2	-88.8	2.6	1.56e+00	0	47	104	0	60	1048575
2026-01-17 08:33:05.50	336.55	8.07	-85.2	-88.8	2.7	1.56e+00	0	47	104	0	60	1048574
2026-01-17 08:33:06.51	336.55	7.99	-85.2	-88.8	2.7	1.56e+00	0	47	104	0	60	1048574
2026-01-17 08:33:07.52	336.56	7.91	-85.2	-88.8	2.6	1.56e+00	0	47	104	0	60	1048572
2026-01-17 08:33:08.52	336.56	7.83	-85.2	-88.8	2.8	1.56e+00	0	47	104	0	60	1048572
2026-01-17 08:33:09.52	336.57	7.75	-85.2	-88.8	2.7	1.56e+00	0	47	104	0	60	1048574
2026-01-17 08:33:10.53	336.57	7.67	-85.2	-88.8	2.7	1.56e+00	0	47	104	0	60	1048570
2026-01-17 08:33:11.53	336.58	7.59	-85.2	-88.8	2.7	1.56e+00	0	47	104	0	60	1048575
2026-01-17 08:33:12.53	336.58	7.52	-85.2	-88.8	2.8	1.56e+00	0	47	104	0	60	1048567
2026-01-17 08:33:13.54	336.59	7.44	-84.7	-88.8	2.6	1.56e+00	0	47	104	0	60	1048575
2026-01-17 08:33:14.54	336.59	7.36	-85.2	-88.8	2.6	1.56e+00	0	47	104	0	60	1048575
2026-01-17 08:33:15.54	336.60	7.28	-85.2	-88.8	2.6	1.56e+00	0	47	104	0	60	1048565
2026-01-17 08:33:16.55	336.60	7.20	-85.2	-88.8	2.9	1.56e+00	0	47	104	0	60	1048573
2026-01-17 08:33:17.55	336.61	7.13	-85.2	-88.8	2.7	1.56e+00	0	47	104	0	60	1048573
2026-01-17 08:33:18.55	336.61	7.05	-85.2	-88.8	2.6	1.56e+00	0	47	104	0	60	1048571
2026-01-17 08:33:19.56	336.62	6.97	-84.7	-88.8	2.9	1.56e+00	0	47	104	0	60	1048568
2026-01-17 08:33:20.56	336.62	6.90	-85.2	-88.8	2.9	1.56e+00	0	47	104	0	60	1048572
2026-01-17 08:33:21.57	336.63	6.82	-85.2	-88.8	2.6	1.56e+00	0	47	104	0	60	1048575
2026-01-17 08:33:22.57	336.63	6.74	-85.2	-88.8	2.8	1.56e+00	0	47	104	0	60	1048573
2026-01-17 08:33:23.58	336.64	6.67	-85.2	-88.8	2.7	1.56e+00	0	47	104	0	60	1048574
2026-01-17 08:33:24.59	336.64	6.59	-85.2	-88.8	2.8	1.56e+00	0	47	104	0	60	1048574
2026-01-17 08:33:25.60	336.65	6.51	-85.2	-88.8	2.7	1.56e+00	0	47	104	0	60	1048575
2026-01-17 08:33:26.61	336.65	6.44	-85.2	-88.8	2.6	1.56e+00	0	47	104	0	60	1048575
2026-01-17 08:33:27.61	336.66	6.36	-85.2	-88.8	2.7	1.56e+00	0	47	104	0	60	1048575
2026-01-17 08:33:28.61	336.66	6.29	-83.5	-88.8	2.6	1.56e+00	0	47	104	0	60	1048575
2026-01-17 08:33:29.61	336.67	6.21	-85.2	-88.8	2.7	1.56e+00	0	47	104	0	60	1048575
2026-01-17 08:33:30.62	336.67	6.14	-85.2	-88.8	2.5	1.56e+00	0	47	104	0	60	1048573
2026-01-17 08:33:31.62	336.67	6.06	-85.2	-88.8	2.5	1.56e+00	0	47	104	0	60	1048572
2026-01-17 08:33:32.63	336.68	5.99	-85.2	-88.8	2.7	1.56e+00	0	47	104	0	60	1048570
2026-01-17 08:33:33.63	336.68	5.92	-85.2	-88.8	2.8	1.56e+00	0	47	104	0	60	1048572
2026-01-17 08:33:34.64	336.69	5.84	-85.2	-88.8	2.6	1.56e+00	0	47	104	0	60	1048573
2026-01-17 08:33:35.64	336.69	5.77	-85.2	-88.8	2.6	1.56e+00	0	47	104	0	60	1048573
2026-01-17 08:33:36.65	336.70	5.69	-85.2	-88.8	2.7	1.56e+00	0	47	104	0	60	1048574
2026-01-17 08:33:37.65	336.70	5.62	-85.2	-88.8	2.8	1.56e+00	0	47	104	0	60	1048575
2026-01-17 08:33:38.66	336.71	5.55	-85.2	-88.8	2.7	1.56e+00	0	47	104	0	60	1048567
2026-01-17 08:33:39.66	336.71	5.48	-85.2	-88.8	2.9	1.56e+00	0	47	104	0	60	1048571
2026-01-17 08:33:40.67	336.72	5.40	-85.2	-88.8	2.6	1.56e+00	0	47	104	0	60	1048575
2026-01-17 08:33:41.68	336.72	5.33	-85.2	-88.8	2.8	1.56e+00	0	47	104	0	60	1048574
2026-01-17 08:33:42.68	336.73	5.26	-84.3	-88.8	2.8	1.56e+00	0	47	104	0	60	1048573
2026-01-17 08:33:43.68	336.73	5.19	-84.3	-88.8	2.7	1.56e+00	0	47	104	0	60	1048574
2026-01-17 08:33:44.69	336.74	5.11	-85.2	-88.8	2.6	1.56e+00	0	47	104	0	60	1048575
2026-01-17 08:33:45.70	336.74	5.04	-85.2	-88.8	2.8	1.56e+00	0	47	104	0	60	1048575
2026-01-17 08:33:46.71	336.75	4.97	-85.2	-88.8	2.9	1.56e+00	0	47	104	0	60	1048575
2026-01-17 08:33:47.71	336.75	4.90	-85.2	-88.8	2.9	1.56e+00	0	47	104	0	60	1048575
2026-01-17 08:33:48.71	336.76	4.83	-85.2	-88.8	2.5	1.56e+00	0	47	104	0	60	1048573
2026-01-17 08:33:49.72	336.76	4.76	-85.2	-88.8	2.9	1.56e+00	0	47	104	0	60	1048575
2026-01-17 08:33:50.73	336.77	4.69	-85.2	-88.8	2.8	1.56e+00	0	47	104	0	60	1048574
2026-01-17 08:33:51.73	336.77	4.62	-85.2	-88.8	2.8	1.56e+00	0	47	104	0	60	1048574
2026-01-17 08:33:52.74	336.78	4.55	-84.3	-88.8	2.5	1.56e+00	0	47	104	0	60	1048572
2026-01-17 08:33:53.75	336.78	4.48	-84.3	-88.8	2.8	1.56e+00	0	47	104	0	60	1048575
2026-01-17 08:33:54.76	336.79	4.40	-85.2	-88.8	2.7	1.56e+00	0	47	104	0	60	1048575
2026-01-17 08:33:55.76	336.79	4.34	-85.2	-88.8	2.8	1.56e+00	0	47	104	0	60	1048572
2026-01-17 08:33:56.77	336.80	4.27	-85.2	-88.8	2.8	1.56e+00	0	47	104	0	60	1048573
2026-01-17 08:33:57.78	336.80	4.20	-85.2	-88.8	2.7	1.56e+00	0	47	104	0	60	1048575
2026-01-17 08:33:58.79	336.81	4.13	-85.2	-88.8	2.7	1.56e+00	0	47	104	0	60	1048572
2026-01-17 08:33:59.79	336.81	4.06	-85.2	-88.8	2.7	1.56e+00	0	47	104	0	60	1048573
2026-01-17 08:34:00.80	336.81	3.99	-85.2	-88.8	2.8	1.56e+00	0	47	104	0	60	1048569
2026-01-17 08:34:01.81	336.82	3.92	-85.2	-88.8	2.6	1.56e+00	0	47	104	0	60	1048575
2026-01-17 08:34:02.82	336.82	3.85	-84.3	-88.8	2.7	1.56e+00	0	47	104	0	60	1048575
2026-01-17 08:34:03.83	336.83	3.78	-85.2	-88.8	2.7	1.56e+00	0	47	104	0	60	1048573
2026-01-17 08:34:04.83	336.83	3.71	-85.2	-88.8	2.7	1.56e+00	0	47	104	0	60	1048575
2026-01-17 08:34:05.84	336.84	3.65	-85.2	-88.8	2.7	1.56e+00	0	47	104	0	60	1048573
2026-01-17 08:34:06.85	336.84	3.58	-85.2	-88.8	2.6	1.56e+00	0	47	104	0	60	1048574
2026-01-17 08:34:07.85	336.85	3.51	-85.2	-88.8	2.6	1.56e+00	0	47	104	0	60	1048574
2026-01-17 08:34:08.86	336.85	3.44	-83.5	-88.8	2.5	1.56e+00	0	47	104	0	60	1048572
2026-01-17 08:34:09.87	336.86	3.37	-85.2	-88.8	2.7	1.56e+00	0	47	104	0	60	1048574
2026-01-17 08:34:10.87	336.86	3.31	-85.2	-88.8	2.7	1.56e+00	0	47	104	0	60	1048575
2026-01-17 08:34:11.88	336.87	3.24	-85.2	-88.8	2.6	1.56e+00	0	47	104	0	60	1048572
2026-01-17 08:34:12.89	336.87	3.17	-85.2	-88.8	2.8	1.56e+00	0	47	104	0	60	1048574
2026-01-17 08:34:13.90	336.88	3.11	-84.7	-88.8	2.4	1.56e+00	0	47	104	0	60	1048575
2026-01-17 08:34:14.90	336.88	3.04	-85.2	-88.8	2.5	1.56e+00	0	47	104	0	60	1048575
2026-01-17 08:34:15.91	336.89	2.97	-85.2	-88.8	2.8	1.56e+00	0	47	104	0	60	1048575
2026-01-17 08:34:16.91	336.89	2.91	-85.2	-88.8	2.6	1.56e+00	0	47	104	0	60	1048575
2026-01-17 08:34:17.92	336.90	2.84	-85.2	-88.8	2.8	1.56e+00	0	47	104	0	60	1048570
2026-01-17 08:34:18.93	336.90	2.77	-85.2	-88.8	2.7	1.56e+00	0	47	104	0	60	1048573
2026-01-17 08:34:19.93	336.91	2.71	-85.2	-88.8	2.8	1.56e+00	0	47	104	0	60	1048574
2026-01-17 08:34:20.94	336.91	2.64	-85.2	-88.8	2.6	1.56e+00	0	47	104	0	60	1048574
2026-01-17 08:34:21.95	336.92	2.58	-83.9	-88.8	2.6	1.56e+00	0	47	104	0	60	1048574
2026-01-17 08:34:22.96	336.92	2.51	-83.9	-88.8	2.7	1.56e+00	0	47	104	0	60	1048574
2026-01-17 08:34:23.96	336.93	2.45	-85.2	-88.8	2.6	1.56e+00	0	47	104	0	60	1048563
2026-01-17 08:34:24.97	336.93	2.38	-85.2	-88.8	2.5	1.56e+00	0	47	104	0	60	1048575
2026-01-17 08:34:25.97	336.93	2.32	-85.2	-88.8	2.6	1.56e+00	0	47	104	0	60	1048575
2026-01-17 08:34:26.98	336.94	2.25	-85.2	-88.8	2.7	1.56e+00	0	47	104	0	60	1048573
2026-01-17 08:34:27.99	336.94	2.19	-85.2	-88.8	2.6	1.56e+00	0	47	104	0	60	1048573
2026-01-17 08:34:28.99	336.95	2.12	-84.7	-88.8	2.8	1.56e+00	0	47	104	0	60	1048572
2026-01-17 08:34:30.00	336.95	2.06	-85.2	-88.8	2.5	1.56e+00	0	47	104	0	60	1048571
2026-01-17 08:34:31.01	336.96	1.99	-85.2	-88.8	2.7	1.56e+00	0	47	104	0	60	1048575
2026-01-17 08:34:32.02	336.96	1.93	-85.2	-88.8	2.6	1.56e+00	0	47	104	0	60	1048575
2026-01-17 08:34:33.02	336.97	1.87	-85.2	-88.8	2.8	1.56e+00	0	47	104	0	60	1048574
2026-01-17 08:34:34.03	336.97	1.80	-84.3	-88.8	2.7	1.56e+00	0	47	104	0	60	1048575
2026-01-17 08:34:35.04	336.98	1.74	-85.2	-88.8	2.8	1.56e+00	0	47	104	0	60	1048569
2026-01-17 08:34:36.04	336.98	1.68	-85.2	-88.8	2.7	1.56e+00	0	47	104	0	60	1048575
2026-01-17 08:34:37.05	336.99	1.61	-85.2	-88.8	2.3	1.56e+00	0	47	104	0	60	1048575
2026-01-17 08:34:38.06	336.99	1.55	-85.2	-88.8	2.6	1.56e+00	0	47	104	0	60	1048575
2026-01-17 08:34:39.07	337.00	1.49	-85.2	-88.8	2.7	1.56e+00	0	47	104	0	60	1048575
2026-01-17 08:34:40.07	337.00	1.42	-85.2	-88.8	2.7	1.56e+00	0	47	104	0	60	1048571
2026-01-17 08:34:41.08	337.01	1.36	-85.2	-88.8	2.8	1.56e+00	0	47	104	0	60	1048574
2026-01-17 08:34:42.09	337.01	1.30	-84.7	-88.8	2.7	1.56e+00	0	47	104	0	60	1048574
2026-01-17 08:34:43.10	337.02	1.23	-85.2	-88.8	2.6	1.56e+00	0	47	104	0	60	1048575
2026-01-17 08:34:44.11	337.02	1.17	-85.2	-88.8	2.7	1.56e+00	0	47	104	0	60	1048573
2026-01-17 08:34:45.11	337.03	1.11	-85.2	-88.8	2.9	1.56e+00	0	47	104	0	60	1048572
2026-01-17 08:34:46.12	337.03	1.05	-85.2	-88.8	2.6	1.56e+00	0	47	104	0	60	1048574
2026-01-17 08:34:47.13	337.04	0.99	-85.2	-88.8	2.5	1.56e+00	0	47	104	0	60	1048575
2026-01-17 08:34:48.14	337.04	0.92	-85.2	-88.8	2.8	1.56e+00	0	47	104	0	60	1048575
2026-01-17 08:34:49.14	337.04	0.86	-85.2	-88.8	2.9	1.56e+00	0	47	104	0	60	1048575
2026-01-17 08:34:50.15	337.05	0.80	-85.2	-88.8	2.7	1.56e+00	0	47	104	0	60	1048570
2026-01-17 08:34:51.16	337.05	0.74	-85.2	-88.8	2.6	1.56e+00	0	47	104	0	60	1048573
2026-01-17 08:34:52.16	337.06	0.68	-85.2	-88.8	2.8	1.56e+00	0	47	104	0	60	1048575
2026-01-17 08:34:53.17	337.06	0.62	-85.2	-88.8	2.7	1.56e+00	0	47	104	0	60	1048569
2026-01-17 08:34:54.17	337.07	0.56	-85.2	-88.8	2.6	1.56e+00	0	47	104	0	60	1048572
2026-01-17 08:34:55.18	337.07	0.49	-85.2	-88.8	2.7	1.56e+00	0	47	104	0	60	1048572
2026-01-17 08:34:56.18	337.08	0.43	-85.2	-88.8	2.7	1.56e+00	0	47	104	0	60	1048574
2026-01-17 08:34:57.19	337.08	0.37	-85.2	-88.8	2.8	1.56e+00	0	47	104	0	60	1048573
2026-01-17 08:34:58.19	337.09	0.31	-85.2	-88.8	2.7	1.56e+00	0	47	104	0	60	1048574
2026-01-17 08:34:59.20	337.09	0.25	-85.2	-88.8	2.7	1.56e+00	0	47	104	0	60	1048575
2026-01-17 08:35:00.20	337.10	0.19	-85.2	-88.8	2.6	1.56e+00	0	47	104	0	60	1048572
2026-01-17 08:35:01.21	337.10	0.13	-85.2	-88.8	2.5	1.56e+00	0	47	104	0	60	1048573
2026-01-17 08:35:02.22	337.11	0.07	-85.2	-88.8	2.9	1.56e+00	0	47	104	0	60	1048573
2026-01-17 08:35:03.23	337.11	0.01	-85.2	-88.8	2.6	1.56e+00	0	47	104	0	60	1048571
2026-01-17 08:35:04.23	337.12	-0.05	-85.2	-88.8	2.6	1.56e+00	0	47	104	0	60	1048572

#Closed at: 2026-01-17 08:35:04
#Recorded file [0 MB]: D:/Data/35015_260117_112841.dat