passes_logs/2026/01/17/R3.2S-Naryan-Mar/R3.2S-Naryan-Mar__20260117_083014_TY-42_rec.log

#Pass ID: 20260117_083014_TY-42
#Satellite: TY-42
#Configuration: TY-42
#almurnet v.1.7.20240730
#Start time: 2026-01-17 08:35:10

#Version: 2.2.20231116
#Station: R3.2S-Naryan-Mar
#Location: 53.008057 lon 67.646978 lat
#TLE: 1 64048U 25103A   26017.16855324  .00008007  00000-0  38191-3 0 09993
#TLE: 2 64048 097.4122 092.5453 0001842 092.3417 060.2488 15.19155566 37145

#Time	Az	El	Level	Level2	SNR	BER	BlckErr	Temp	State	Recorded	gain1	gain2
2026-01-17 08:35:10.43	349.06	44.01	-85.2	-88.8	3.1	1.56e+00	0	47	0	0	60	1048575
2026-01-17 08:35:11.44	348.52	44.37	-83.5	-79.0	2.5	0.00e+00	0	47	104	0	60	1048568
2026-01-17 08:35:12.45	347.96	44.73	-83.5	-79.0	2.5	0.00e+00	0	47	104	0	60	1048571
2026-01-17 08:35:13.45	347.40	45.09	-83.1	-79.0	2.5	0.00e+00	0	47	104	0	60	1048571
2026-01-17 08:35:14.46	346.81	45.45	-83.1	-79.0	2.5	0.00e+00	0	47	104	0	60	1048574
2026-01-17 08:35:15.47	346.22	45.81	-83.5	-79.0	2.4	0.00e+00	0	47	104	0	60	1048575
2026-01-17 08:35:16.48	345.60	46.17	-83.5	-79.0	2.4	0.00e+00	0	47	104	0	60	1048569
2026-01-17 08:35:17.49	344.98	46.53	-83.1	-79.0	2.5	0.00e+00	0	47	104	0	60	1048573
2026-01-17 08:35:18.49	344.34	46.89	-83.1	-79.0	2.4	0.00e+00	0	47	104	0	60	1048575
2026-01-17 08:35:19.50	343.68	47.25	-83.5	-79.0	2.4	0.00e+00	0	47	104	0	60	1048573
2026-01-17 08:35:20.51	343.01	47.61	-83.5	-79.0	2.5	0.00e+00	0	47	104	0	60	1048574
2026-01-17 08:35:21.51	342.33	47.97	-83.5	-79.0	2.4	0.00e+00	0	47	104	0	60	1048571
2026-01-17 08:35:22.52	341.62	48.33	-83.1	-79.0	2.4	0.00e+00	0	47	104	0	60	1048575
2026-01-17 08:35:23.53	340.90	48.68	-83.5	-79.0	2.4	0.00e+00	0	47	104	0	60	1048574
2026-01-17 08:35:24.53	340.17	49.03	-83.5	-79.0	2.5	0.00e+00	0	47	104	0	60	1048575
2026-01-17 08:35:25.53	339.41	49.38	-83.5	-79.0	2.4	0.00e+00	0	47	104	0	60	1048571
2026-01-17 08:35:26.54	338.64	49.73	-83.1	-79.0	2.4	0.00e+00	0	47	104	0	60	1048572
2026-01-17 08:35:27.55	337.84	50.08	-82.8	-79.0	2.4	0.00e+00	0	47	104	0	60	1048573
2026-01-17 08:35:28.55	337.04	50.42	-83.5	-79.0	2.4	0.00e+00	0	47	104	0	60	1048575
2026-01-17 08:35:29.56	336.20	50.77	-83.5	-79.0	2.4	0.00e+00	0	48	104	0	60	1048573
2026-01-17 08:35:30.56	335.36	51.10	-83.5	-79.0	2.4	0.00e+00	0	48	104	0	60	1048575
2026-01-17 08:35:31.57	334.49	51.44	-83.1	-79.0	2.5	0.00e+00	0	48	104	0	60	1048575
2026-01-17 08:35:32.57	333.60	51.76	-82.8	-79.0	2.4	0.00e+00	0	48	104	0	60	1048575
2026-01-17 08:35:33.58	332.69	52.09	-83.1	-79.0	2.3	0.00e+00	0	48	104	0	60	1048574
2026-01-17 08:35:34.59	331.76	52.41	-83.5	-79.0	2.4	0.00e+00	0	48	104	0	60	1048571
2026-01-17 08:35:35.59	330.81	52.72	-83.5	-79.0	2.5	0.00e+00	0	48	104	0	60	1048575
2026-01-17 08:35:36.60	329.84	53.03	-83.1	-79.0	2.4	0.00e+00	0	48	104	0	60	1048574
2026-01-17 08:35:37.61	328.84	53.33	-83.1	-79.0	2.4	0.00e+00	0	48	104	0	60	1048560
2026-01-17 08:35:38.61	327.83	53.62	-83.5	-79.0	2.4	0.00e+00	0	48	104	0	60	1048575
2026-01-17 08:35:39.62	326.79	53.91	-83.5	-79.0	2.3	0.00e+00	0	48	104	0	60	1048573
2026-01-17 08:35:40.62	325.74	54.19	-83.5	-79.0	2.4	0.00e+00	0	48	104	0	60	1048570
2026-01-17 08:35:41.63	324.66	54.46	-83.1	-79.0	2.4	0.00e+00	0	48	104	0	60	1048573
2026-01-17 08:35:42.64	323.56	54.72	-83.5	-79.0	2.4	0.00e+00	0	48	104	0	60	1048573
2026-01-17 08:35:43.64	322.45	54.97	-83.5	-79.0	2.5	0.00e+00	0	48	104	0	60	1048574
2026-01-17 08:35:44.65	321.31	55.22	-83.5	-79.0	2.4	0.00e+00	0	47	104	0	60	1048575
2026-01-17 08:35:45.66	320.15	55.45	-83.5	-79.0	2.4	0.00e+00	0	48	104	0	60	1048566
2026-01-17 08:35:46.67	318.97	55.67	-83.1	-79.0	2.5	0.00e+00	0	48	104	0	60	1048575
2026-01-17 08:35:47.67	317.78	55.89	-83.1	-79.0	2.4	0.00e+00	0	48	104	0	60	1048569
2026-01-17 08:35:48.67	316.57	56.08	-83.5	-79.0	2.4	0.00e+00	0	48	104	0	60	1048574
2026-01-17 08:35:49.68	315.34	56.27	-83.5	-79.0	2.3	0.00e+00	0	48	104	0	60	1048567
2026-01-17 08:35:50.69	314.08	56.45	-83.1	-79.0	2.4	0.00e+00	0	48	104	0	60	1048575
2026-01-17 08:35:51.70	312.81	56.62	-83.1	-79.0	2.4	0.00e+00	0	48	104	0	60	1048569
2026-01-17 08:35:52.70	311.54	56.77	-83.5	-79.0	2.4	0.00e+00	0	48	104	0	60	1048574
2026-01-17 08:35:53.71	310.25	56.90	-83.5	-79.0	2.4	0.00e+00	0	48	104	0	60	1048575
2026-01-17 08:35:54.72	308.94	57.03	-83.5	-79.0	2.4	0.00e+00	0	48	104	0	60	1048571
2026-01-17 08:35:55.73	307.61	57.14	-82.8	-79.0	2.4	0.00e+00	0	48	104	0	60	1048572
2026-01-17 08:35:56.74	306.28	57.24	-83.1	-79.0	2.4	0.00e+00	0	48	104	0	60	1048573
2026-01-17 08:35:57.74	304.96	57.32	-83.5	-79.0	2.4	0.00e+00	0	48	104	0	60	1048566
2026-01-17 08:35:58.75	303.61	57.38	-83.5	-79.0	2.3	0.00e+00	0	48	104	0	60	1048575
2026-01-17 08:35:59.76	302.25	57.44	-83.5	-79.0	2.4	0.00e+00	0	48	104	0	60	1048572
2026-01-17 08:36:00.76	300.91	57.47	-83.1	-79.0	2.3	0.00e+00	0	48	104	0	60	1048561
2026-01-17 08:36:01.77	299.55	57.50	-83.1	-79.0	2.4	0.00e+00	0	48	104	0	60	1048570
2026-01-17 08:36:02.77	298.20	57.50	-83.5	-79.0	2.5	0.00e+00	0	48	104	0	60	1048568
2026-01-17 08:36:03.78	296.83	57.49	-83.5	-79.0	2.5	0.00e+00	0	48	104	0	60	1048573
2026-01-17 08:36:04.78	295.48	57.47	-83.5	-79.0	2.3	0.00e+00	0	48	104	0	60	1048574
2026-01-17 08:36:05.79	294.12	57.43	-83.1	-79.0	2.4	0.00e+00	0	48	104	0	60	1048575
2026-01-17 08:36:06.79	292.78	57.38	-83.5	-79.0	2.3	0.00e+00	0	48	104	0	60	1048575
2026-01-17 08:36:07.80	291.43	57.31	-83.5	-79.0	2.3	0.00e+00	0	48	104	0	60	1048571
2026-01-17 08:36:08.81	290.09	57.23	-83.5	-79.0	2.4	0.00e+00	0	48	104	0	60	1048575
2026-01-17 08:36:09.82	288.76	57.13	-83.1	-79.0	2.4	0.00e+00	0	48	104	0	60	1048573
2026-01-17 08:36:10.83	287.44	57.02	-83.5	-79.0	2.4	0.00e+00	0	48	104	0	60	1048575
2026-01-17 08:36:11.83	286.14	56.90	-83.5	-79.0	2.3	0.00e+00	0	48	104	0	60	1048574
2026-01-17 08:36:12.84	284.85	56.76	-83.5	-79.0	2.5	0.00e+00	0	48	104	0	60	1048571
2026-01-17 08:36:13.85	283.56	56.61	-83.5	-79.0	2.5	0.00e+00	0	48	104	0	60	1048575
2026-01-17 08:36:14.85	282.31	56.44	-83.1	-79.0	2.4	0.00e+00	0	48	104	0	60	1048575
2026-01-17 08:36:15.86	281.05	56.26	-83.1	-79.0	2.4	0.00e+00	0	48	104	0	60	1048569
2026-01-17 08:36:16.87	279.82	56.07	-83.5	-79.0	2.4	0.00e+00	0	48	104	0	60	1048569
2026-01-17 08:36:17.88	278.60	55.87	-83.5	-79.0	2.4	0.00e+00	0	48	104	0	60	1048569
2026-01-17 08:36:18.88	277.41	55.66	-83.5	-79.0	2.5	0.00e+00	0	48	104	0	60	1048570
2026-01-17 08:36:19.89	276.23	55.44	-83.1	-79.0	2.4	0.00e+00	0	48	104	0	60	1048573
2026-01-17 08:36:20.89	275.08	55.20	-83.5	-79.0	2.4	0.00e+00	0	48	104	0	60	1048575
2026-01-17 08:36:21.90	273.93	54.96	-83.5	-79.0	2.4	0.00e+00	0	48	104	0	60	1048574
2026-01-17 08:36:22.91	272.81	54.70	-83.5	-79.0	2.5	0.00e+00	0	48	104	0	60	1048572
2026-01-17 08:36:23.92	271.71	54.44	-83.5	-79.0	2.3	0.00e+00	0	48	104	0	60	1048575
2026-01-17 08:36:24.93	270.63	54.17	-83.1	-79.0	2.3	0.00e+00	0	48	104	0	60	1048574
2026-01-17 08:36:25.93	269.58	53.89	-83.5	-79.0	2.4	0.00e+00	0	48	104	0	60	1048574
2026-01-17 08:36:26.95	268.53	53.60	-83.5	-79.0	2.4	0.00e+00	0	48	104	0	60	1048573
2026-01-17 08:36:27.95	267.52	53.30	-83.5	-79.0	2.5	0.00e+00	0	48	104	0	60	1048566
2026-01-17 08:36:28.96	266.53	53.00	-83.1	-79.0	2.3	0.00e+00	0	48	104	0	60	1048568
2026-01-17 08:36:29.96	265.56	52.69	-83.1	-79.0	2.5	0.00e+00	0	48	104	0	60	1048575
2026-01-17 08:36:30.97	264.61	52.38	-83.1	-79.0	2.4	0.00e+00	0	48	104	0	60	1048573
2026-01-17 08:36:31.97	263.68	52.06	-83.5	-79.0	2.4	0.00e+00	0	48	104	0	60	1048573
2026-01-17 08:36:32.98	262.77	51.73	-83.5	-79.0	2.4	0.00e+00	0	48	104	0	60	1048572
2026-01-17 08:36:33.98	261.89	51.41	-83.1	-79.0	2.3	0.00e+00	0	48	104	0	60	1048574
2026-01-17 08:36:34.99	261.01	51.07	-83.1	-79.0	2.4	0.00e+00	0	48	104	0	60	1048575
2026-01-17 08:36:36.00	260.16	50.73	-83.5	-79.0	2.4	0.00e+00	0	48	104	0	60	1048570
2026-01-17 08:36:37.01	259.33	50.39	-83.5	-79.0	2.5	0.00e+00	0	48	104	0	60	1048569
2026-01-17 08:36:38.02	258.51	50.04	-83.5	-79.0	2.3	0.00e+00	0	48	104	0	60	1048569
2026-01-17 08:36:39.02	257.73	49.70	-83.1	-79.0	2.4	0.00e+00	0	48	104	0	60	1048574
2026-01-17 08:36:40.03	256.95	49.34	-83.5	-79.0	2.3	0.00e+00	0	48	104	0	60	1048574
2026-01-17 08:36:41.04	256.19	48.99	-83.5	-79.0	2.4	0.00e+00	0	48	104	0	60	1048573
2026-01-17 08:36:42.05	255.45	48.63	-83.5	-79.0	2.4	0.00e+00	0	48	104	0	60	1048569
2026-01-17 08:36:43.05	254.73	48.28	-83.1	-79.0	2.5	0.00e+00	0	48	104	0	60	1048571
2026-01-17 08:36:44.06	254.03	47.92	-83.1	-79.0	2.5	0.00e+00	0	48	104	0	60	1048563
2026-01-17 08:36:45.07	253.34	47.56	-83.5	-79.0	2.5	0.00e+00	0	48	104	0	60	1048561
2026-01-17 08:36:46.08	252.66	47.20	-83.5	-79.0	2.5	0.00e+00	0	48	104	0	60	1048575
2026-01-17 08:36:47.08	252.01	46.84	-83.5	-79.0	2.4	0.00e+00	0	48	104	0	60	1048567
2026-01-17 08:36:48.09	251.37	46.48	-83.1	-79.0	2.4	0.00e+00	0	48	104	0	60	1048568
2026-01-17 08:36:49.10	250.75	46.11	-83.1	-79.0	2.3	0.00e+00	0	48	104	0	60	1048567
2026-01-17 08:36:50.10	250.14	45.75	-83.5	-79.0	2.4	0.00e+00	0	48	104	0	60	1048573
2026-01-17 08:36:51.11	249.54	45.39	-83.5	-79.0	2.4	0.00e+00	0	48	104	0	60	1048575
2026-01-17 08:36:52.12	248.96	45.03	-83.5	-79.0	2.4	0.00e+00	0	48	104	0	60	1048575
2026-01-17 08:36:53.12	248.39	44.67	-83.1	-79.0	2.5	0.00e+00	0	48	104	0	60	1048575
2026-01-17 08:36:54.13	247.84	44.31	-83.5	-79.0	2.6	0.00e+00	0	48	104	0	60	1048569
2026-01-17 08:36:55.14	247.29	43.95	-83.5	-79.0	2.4	0.00e+00	0	48	104	0	60	1048575
2026-01-17 08:36:56.15	246.76	43.59	-83.5	-79.0	2.4	0.00e+00	0	48	104	0	60	1048569
2026-01-17 08:36:57.15	246.25	43.24	-83.5	-79.0	2.4	0.00e+00	0	48	104	0	60	1048570
2026-01-17 08:36:58.16	245.74	42.88	-83.5	-79.0	2.4	0.00e+00	0	48	104	0	60	1048568
2026-01-17 08:36:59.17	245.24	42.52	-83.5	-79.0	2.4	0.00e+00	0	48	104	0	60	1048574
2026-01-17 08:37:00.18	244.76	42.17	-83.5	-79.0	2.4	0.00e+00	0	48	104	0	60	1048571
2026-01-17 08:37:01.18	244.29	41.82	-83.5	-79.0	2.4	0.00e+00	0	48	104	0	60	1048575
2026-01-17 08:37:02.19	243.83	41.47	-83.1	-79.0	2.4	0.00e+00	0	48	104	0	60	1048571
2026-01-17 08:37:03.20	243.38	41.12	-82.8	-79.0	2.3	0.00e+00	0	48	104	0	60	1048575
2026-01-17 08:37:04.20	242.94	40.78	-83.5	-79.0	2.4	0.00e+00	0	48	104	0	60	1048575
2026-01-17 08:37:05.21	242.51	40.43	-83.5	-79.0	2.4	0.00e+00	0	48	104	0	60	1048575
2026-01-17 08:37:06.21	242.09	40.09	-83.5	-79.0	2.4	0.00e+00	0	48	104	0	60	1048567
2026-01-17 08:37:07.22	241.67	39.75	-83.1	-79.0	2.4	0.00e+00	0	48	104	0	60	1048573
2026-01-17 08:37:08.22	241.27	39.41	-83.5	-79.0	2.5	0.00e+00	0	48	104	0	60	1048575
2026-01-17 08:37:09.22	240.88	39.08	-83.5	-79.0	2.3	0.00e+00	0	48	104	0	60	1048573
2026-01-17 08:37:10.23	240.49	38.75	-83.5	-79.0	2.4	0.00e+00	0	48	104	0	60	1048572
2026-01-17 08:37:11.24	240.11	38.41	-83.1	-79.0	2.5	0.00e+00	0	48	104	0	60	1048575
2026-01-17 08:37:12.25	239.74	38.08	-82.8	-79.0	2.3	0.00e+00	0	48	104	0	60	1048575
2026-01-17 08:37:13.26	239.38	37.76	-83.1	-79.0	2.4	0.00e+00	0	48	104	0	60	1048575
2026-01-17 08:37:14.27	239.02	37.43	-83.5	-79.0	2.5	0.00e+00	0	48	104	0	60	1048575
2026-01-17 08:37:15.27	238.68	37.11	-83.5	-79.0	2.4	0.00e+00	0	48	104	0	60	1048570
2026-01-17 08:37:16.28	238.34	36.79	-83.5	-79.0	2.5	0.00e+00	0	48	104	0	60	1048571
2026-01-17 08:37:17.29	238.00	36.47	-83.1	-79.0	2.5	0.00e+00	0	48	104	0	60	1048573
2026-01-17 08:37:18.30	237.67	36.16	-83.5	-79.0	2.4	0.00e+00	0	48	104	0	60	1048575
2026-01-17 08:37:19.30	237.36	35.85	-83.5	-79.0	2.3	0.00e+00	0	48	104	0	60	1048565
2026-01-17 08:37:20.30	237.05	35.54	-83.5	-79.0	2.3	0.00e+00	0	48	104	0	60	1048575
2026-01-17 08:37:21.31	236.74	35.23	-83.1	-79.0	2.4	0.00e+00	0	48	104	0	60	1048572
2026-01-17 08:37:22.31	236.44	34.93	-82.8	-79.0	2.4	0.00e+00	0	48	104	0	60	1048572
2026-01-17 08:37:23.32	236.14	34.63	-83.5	-79.0	2.4	0.00e+00	0	48	104	0	60	1048569
2026-01-17 08:37:24.33	235.85	34.33	-83.1	-79.0	2.3	0.00e+00	0	48	104	0	60	1048572
2026-01-17 08:37:25.33	235.57	34.03	-83.5	-79.0	2.5	0.00e+00	0	48	104	0	60	1048571
2026-01-17 08:37:26.34	235.29	33.74	-82.8	-79.0	2.4	0.00e+00	0	48	104	0	60	1048574
2026-01-17 08:37:27.34	235.02	33.45	-83.5	-79.0	2.5	0.00e+00	0	48	104	0	60	1048572
2026-01-17 08:37:28.35	234.75	33.16	-83.5	-79.0	2.5	0.00e+00	0	48	104	0	60	1048575
2026-01-17 08:37:29.35	234.49	32.87	-83.5	-79.0	2.3	0.00e+00	0	48	104	0	60	1048573
2026-01-17 08:37:30.36	234.23	32.59	-83.5	-79.0	2.5	0.00e+00	0	48	104	0	60	1048574
2026-01-17 08:37:31.37	233.98	32.31	-83.1	-79.0	2.4	0.00e+00	0	48	104	0	60	1048571
2026-01-17 08:37:32.37	233.73	32.03	-83.5	-79.0	2.4	0.00e+00	0	48	104	0	60	1048571
2026-01-17 08:37:33.38	233.49	31.75	-83.5	-79.0	2.5	0.00e+00	0	48	104	0	60	1048575
2026-01-17 08:37:34.39	233.25	31.48	-83.5	-79.0	2.4	0.00e+00	0	48	104	0	60	1048575
2026-01-17 08:37:35.40	233.01	31.20	-83.5	-79.0	2.4	0.00e+00	0	48	104	0	60	1048571
2026-01-17 08:37:36.40	232.78	30.93	-83.1	-79.0	2.3	0.00e+00	0	48	104	0	60	1048572
2026-01-17 08:37:37.41	232.56	30.67	-83.5	-79.0	2.4	0.00e+00	0	48	104	0	60	1048575
2026-01-17 08:37:38.41	232.34	30.40	-83.5	-79.0	2.5	0.00e+00	0	48	104	0	60	1048573
2026-01-17 08:37:39.42	232.12	30.14	-83.5	-79.0	2.5	0.00e+00	0	48	104	0	60	1048575
2026-01-17 08:37:40.42	231.90	29.88	-83.1	-79.0	2.4	0.00e+00	0	48	104	0	60	1048573
2026-01-17 08:37:41.42	231.69	29.63	-83.5	-79.0	2.5	0.00e+00	0	48	104	0	60	1048572
2026-01-17 08:37:42.43	231.49	29.37	-83.5	-79.0	2.5	0.00e+00	0	48	104	0	60	1048574
2026-01-17 08:37:43.43	231.28	29.12	-83.5	-79.0	2.4	0.00e+00	0	48	104	0	60	1048574
2026-01-17 08:37:44.44	231.08	28.87	-83.5	-79.0	2.4	0.00e+00	0	48	104	0	60	1048553
2026-01-17 08:37:45.44	230.89	28.62	-83.1	-79.0	2.5	0.00e+00	0	48	104	0	60	1048570
2026-01-17 08:37:46.45	230.69	28.37	-83.1	-79.0	2.5	0.00e+00	0	48	104	0	60	1048571
2026-01-17 08:37:47.46	230.50	28.13	-83.5	-79.0	2.5	0.00e+00	0	48	104	0	60	1048575
2026-01-17 08:37:48.46	230.32	27.89	-83.5	-79.0	2.5	0.00e+00	0	48	104	0	60	1048573
2026-01-17 08:37:49.47	230.13	27.65	-83.5	-79.0	2.4	0.00e+00	0	48	104	0	60	1048574
2026-01-17 08:37:50.48	229.95	27.41	-83.1	-79.0	2.4	0.00e+00	0	48	104	0	60	1048572
2026-01-17 08:37:51.49	229.77	27.18	-83.5	-79.0	2.4	0.00e+00	0	48	104	0	60	1048571
2026-01-17 08:37:52.50	229.59	26.94	-83.5	-79.0	2.4	0.00e+00	0	48	104	0	60	1048575
2026-01-17 08:37:53.50	229.42	26.71	-83.1	-79.0	2.3	0.00e+00	0	48	104	0	60	1048570
2026-01-17 08:37:54.51	229.25	26.48	-83.1	-79.0	2.4	0.00e+00	0	48	104	0	60	1048570
2026-01-17 08:37:55.51	229.09	26.26	-83.1	-79.0	2.4	0.00e+00	0	48	104	0	60	1048571
2026-01-17 08:37:56.52	228.92	26.03	-83.5	-79.0	2.4	0.00e+00	0	48	104	0	60	1048575
2026-01-17 08:37:57.53	228.76	25.81	-83.5	-79.0	2.3	0.00e+00	0	48	104	0	60	1048574
2026-01-17 08:37:58.54	228.60	25.59	-83.5	-79.0	2.4	0.00e+00	0	48	104	0	60	1048572
2026-01-17 08:37:59.55	228.44	25.37	-83.1	-79.0	2.4	0.00e+00	0	48	104	0	60	1048574
2026-01-17 08:38:00.55	228.29	25.15	-83.1	-79.0	2.3	0.00e+00	0	48	104	0	60	1048570
2026-01-17 08:38:01.55	228.14	24.94	-83.5	-79.0	2.4	0.00e+00	0	48	104	0	60	1048574
2026-01-17 08:38:02.56	227.99	24.72	-83.5	-79.0	2.4	0.00e+00	0	49	104	0	60	1048560
2026-01-17 08:38:03.56	227.84	24.51	-83.5	-79.0	2.3	0.00e+00	0	48	104	0	60	1048572
2026-01-17 08:38:04.57	227.70	24.30	-83.1	-79.0	2.3	0.00e+00	0	48	104	0	60	1048575
2026-01-17 08:38:05.58	227.55	24.10	-83.5	-79.0	2.4	0.00e+00	0	48	104	0	60	1048562
2026-01-17 08:38:06.58	227.41	23.89	-83.5	-79.0	2.5	0.00e+00	0	49	104	0	60	1048575
2026-01-17 08:38:07.58	227.27	23.69	-83.5	-79.0	2.4	0.00e+00	0	49	104	0	60	1048567
2026-01-17 08:38:08.59	227.14	23.49	-83.1	-79.0	2.4	0.00e+00	0	48	104	0	60	1048574
2026-01-17 08:38:09.59	227.00	23.29	-82.8	-79.0	2.3	0.00e+00	0	48	104	0	60	1048572
2026-01-17 08:38:10.60	226.87	23.09	-83.5	-79.0	2.4	0.00e+00	0	48	104	0	60	1048573
2026-01-17 08:38:11.61	226.74	22.89	-83.5	-79.0	2.4	0.00e+00	0	48	104	0	60	1048573
2026-01-17 08:38:12.61	226.61	22.70	-83.5	-79.0	2.4	0.00e+00	0	48	104	0	60	1048575
2026-01-17 08:38:13.62	226.48	22.50	-83.5	-79.0	2.4	0.00e+00	0	48	104	0	60	1048574
2026-01-17 08:38:14.63	226.36	22.31	-83.1	-79.0	2.4	0.00e+00	0	49	104	0	60	1048574
2026-01-17 08:38:15.64	226.23	22.12	-83.5	-79.0	2.4	0.00e+00	0	48	104	0	60	1048572
2026-01-17 08:38:16.64	226.11	21.93	-83.1	-79.0	2.4	0.00e+00	0	48	104	0	60	1048574
2026-01-17 08:38:17.64	225.99	21.75	-83.5	-79.0	2.4	0.00e+00	0	48	104	0	60	1048573
2026-01-17 08:38:18.65	225.87	21.56	-83.1	-79.0	2.4	0.00e+00	0	48	104	0	60	1048572
2026-01-17 08:38:19.65	225.76	21.38	-83.5	-79.0	2.4	0.00e+00	0	48	104	0	60	1048571
2026-01-17 08:38:20.66	225.64	21.19	-83.5	-79.0	2.5	0.00e+00	0	48	104	0	60	1048573
2026-01-17 08:38:21.66	225.53	21.01	-83.5	-79.0	2.4	0.00e+00	0	48	104	0	60	1048575
2026-01-17 08:38:22.67	225.42	20.83	-83.1	-79.0	2.5	0.00e+00	0	48	104	0	60	1048574
2026-01-17 08:38:23.67	225.31	20.66	-83.1	-79.0	2.3	0.00e+00	0	48	104	0	60	1048568
2026-01-17 08:38:24.68	225.20	20.48	-83.5	-79.0	2.5	0.00e+00	0	49	104	0	60	1048575
2026-01-17 08:38:25.69	225.09	20.31	-83.5	-79.0	2.4	0.00e+00	0	48	104	0	60	1048570
2026-01-17 08:38:26.70	224.98	20.13	-83.5	-79.0	2.4	0.00e+00	0	48	104	0	60	1048573
2026-01-17 08:38:27.70	224.88	19.96	-83.5	-79.0	2.4	0.00e+00	0	48	104	0	60	1048574
2026-01-17 08:38:28.71	224.77	19.79	-83.1	-79.0	2.4	0.00e+00	0	49	104	0	60	1048573
2026-01-17 08:38:29.71	224.67	19.62	-83.5	-79.0	2.5	0.00e+00	0	48	104	0	60	1048572
2026-01-17 08:38:30.71	224.57	19.45	-83.5	-79.0	2.5	0.00e+00	0	49	104	0	60	1048574
2026-01-17 08:38:31.71	224.47	19.29	-83.5	-79.0	2.4	0.00e+00	0	49	104	0	60	1048575
2026-01-17 08:38:32.72	224.37	19.12	-83.1	-79.0	2.4	0.00e+00	0	48	104	0	60	1048575
2026-01-17 08:38:33.72	224.28	18.96	-83.5	-79.0	2.3	0.00e+00	0	48	104	0	60	1048575
2026-01-17 08:38:34.73	224.18	18.79	-83.5	-79.0	2.4	0.00e+00	0	48	104	0	60	1048573
2026-01-17 08:38:35.73	224.09	18.63	-83.5	-79.0	2.3	0.00e+00	0	48	104	0	60	1048571
2026-01-17 08:38:36.74	223.99	18.47	-83.5	-79.0	2.4	0.00e+00	0	48	104	0	60	1048573
2026-01-17 08:38:37.75	223.90	18.31	-82.8	-79.0	2.3	0.00e+00	0	48	104	0	60	1048572
2026-01-17 08:38:38.75	223.81	18.16	-83.5	-79.0	2.4	0.00e+00	0	48	104	0	60	1048571
2026-01-17 08:38:39.75	223.72	18.00	-83.5	-79.0	2.3	0.00e+00	0	48	104	0	60	1048575
2026-01-17 08:38:40.76	223.63	17.84	-83.5	-79.0	2.4	0.00e+00	0	48	104	0	60	1048571
2026-01-17 08:38:41.77	223.54	17.69	-83.5	-79.0	2.5	0.00e+00	0	48	104	0	60	1048572
2026-01-17 08:38:42.78	223.45	17.54	-83.1	-79.0	2.4	0.00e+00	0	48	104	0	60	1048574
2026-01-17 08:38:43.79	223.37	17.38	-83.5	-79.0	2.5	0.00e+00	0	48	104	0	60	1048573
2026-01-17 08:38:44.79	223.28	17.23	-83.5	-79.0	2.4	0.00e+00	0	48	104	0	60	1048574
2026-01-17 08:38:45.80	223.20	17.08	-83.5	-79.0	2.4	0.00e+00	0	48	104	0	60	1048575
2026-01-17 08:38:46.80	223.12	16.93	-83.1	-79.0	2.4	0.00e+00	0	48	104	0	60	1048575
2026-01-17 08:38:47.81	223.03	16.79	-83.1	-79.0	2.5	0.00e+00	0	48	104	0	60	1048574
2026-01-17 08:38:48.82	222.95	16.64	-83.5	-79.0	2.4	0.00e+00	0	48	104	0	60	1048575
2026-01-17 08:38:49.82	222.87	16.49	-83.5	-79.0	2.4	0.00e+00	0	48	104	0	60	1048574
2026-01-17 08:38:50.83	222.79	16.35	-83.5	-79.0	2.4	0.00e+00	0	48	104	0	60	1048574
2026-01-17 08:38:51.84	222.72	16.21	-83.1	-79.0	2.3	0.00e+00	0	48	104	0	60	1048572
2026-01-17 08:38:52.85	222.64	16.06	-83.5	-79.0	2.3	0.00e+00	0	48	104	0	60	1048565
2026-01-17 08:38:53.85	222.56	15.92	-83.5	-79.0	2.5	0.00e+00	0	48	104	0	60	1048574
2026-01-17 08:38:54.86	222.49	15.78	-83.5	-79.0	2.4	0.00e+00	0	48	104	0	60	1048573
2026-01-17 08:38:55.87	222.41	15.64	-83.5	-79.0	2.5	0.00e+00	0	48	104	0	60	1048555
2026-01-17 08:38:56.87	222.34	15.50	-83.1	-79.0	2.4	0.00e+00	0	48	104	0	60	1048568
2026-01-17 08:38:57.88	222.27	15.37	-83.1	-79.0	2.4	0.00e+00	0	48	104	0	60	1048569
2026-01-17 08:38:58.89	222.19	15.23	-83.5	-79.0	2.4	0.00e+00	0	48	104	0	60	1048568
2026-01-17 08:38:59.90	222.12	15.09	-83.5	-79.0	2.4	0.00e+00	0	48	104	0	60	1048574
2026-01-17 08:39:00.90	222.05	14.96	-83.1	-79.0	2.4	0.00e+00	0	48	104	0	60	1048574
2026-01-17 08:39:01.91	221.98	14.83	-83.1	-79.0	2.5	0.00e+00	0	48	104	0	60	1048572
2026-01-17 08:39:02.92	221.91	14.69	-83.5	-79.0	2.5	0.00e+00	0	48	104	0	60	1048574
2026-01-17 08:39:03.92	221.84	14.56	-83.5	-79.0	2.4	0.00e+00	0	48	104	0	60	1048575
2026-01-17 08:39:04.93	221.78	14.43	-83.5	-79.0	2.4	0.00e+00	0	48	104	0	60	1048572
2026-01-17 08:39:05.93	221.71	14.30	-83.1	-79.0	2.4	0.00e+00	0	48	104	0	60	1048567
2026-01-17 08:39:06.93	221.64	14.17	-83.1	-79.0	2.3	0.00e+00	0	48	104	0	60	1048568
2026-01-17 08:39:07.93	221.58	14.04	-83.5	-79.0	2.2	0.00e+00	0	48	104	0	60	1048575
2026-01-17 08:39:08.93	221.52	13.92	-83.5	-79.0	2.4	0.00e+00	0	48	104	0	60	1048573
2026-01-17 08:39:09.94	221.45	13.79	-83.1	-79.0	2.4	0.00e+00	0	48	104	0	60	1048573
2026-01-17 08:39:10.95	221.39	13.66	-83.1	-79.0	2.5	0.00e+00	0	48	104	0	60	1048574
2026-01-17 08:39:11.95	221.33	13.54	-83.5	-79.0	2.4	0.00e+00	0	48	104	0	60	1048573
2026-01-17 08:39:12.96	221.26	13.41	-83.5	-79.0	2.4	0.00e+00	0	48	104	0	60	1048575
2026-01-17 08:39:13.97	221.20	13.29	-83.5	-79.0	2.3	0.00e+00	0	48	104	0	60	1048572
2026-01-17 08:39:14.98	221.14	13.17	-83.5	-79.0	2.4	0.00e+00	0	48	104	0	60	1048571
2026-01-17 08:39:15.99	221.08	13.04	-82.8	-79.0	2.4	0.00e+00	0	48	104	0	60	1048575
2026-01-17 08:39:16.99	221.02	12.92	-83.5	-79.0	2.3	0.00e+00	0	48	104	0	60	1048575
2026-01-17 08:39:18.00	220.96	12.80	-83.5	-79.0	2.5	0.00e+00	0	48	104	0	60	1048574
2026-01-17 08:39:19.01	220.90	12.68	-83.5	-79.0	2.4	0.00e+00	0	48	104	0	60	1048563
2026-01-17 08:39:20.01	220.85	12.56	-83.1	-79.0	2.4	0.00e+00	0	48	104	0	60	1048574
2026-01-17 08:39:21.02	220.79	12.45	-83.1	-79.0	2.3	0.00e+00	0	48	104	0	60	1048575
2026-01-17 08:39:22.03	220.73	12.33	-83.5	-79.0	2.4	0.00e+00	0	48	104	0	60	1048570
2026-01-17 08:39:23.03	220.68	12.21	-83.5	-79.0	2.3	0.00e+00	0	48	104	0	60	1048572
2026-01-17 08:39:24.04	220.62	12.09	-83.5	-79.0	2.6	0.00e+00	0	48	104	0	60	1048568
2026-01-17 08:39:25.05	220.57	11.98	-83.1	-79.0	2.4	0.00e+00	0	48	104	0	60	1048569
2026-01-17 08:39:26.06	220.51	11.86	-83.1	-79.0	2.4	0.00e+00	0	48	104	0	60	1048573
2026-01-17 08:39:27.07	220.46	11.75	-83.5	-79.0	2.6	0.00e+00	0	49	104	0	60	1048573
2026-01-17 08:39:28.07	220.41	11.64	-83.5	-79.0	2.4	0.00e+00	0	49	104	0	60	1048574
2026-01-17 08:39:29.08	220.35	11.52	-83.5	-79.0	2.4	0.00e+00	0	49	104	0	60	1048572
2026-01-17 08:39:30.09	220.30	11.41	-83.1	-79.0	2.4	0.00e+00	0	49	104	0	60	1048572
2026-01-17 08:39:31.10	220.25	11.30	-83.5	-79.0	2.5	0.00e+00	0	49	104	0	60	1048569
2026-01-17 08:39:32.11	220.20	11.19	-83.5	-79.0	2.4	0.00e+00	0	48	104	0	60	1048563
2026-01-17 08:39:33.12	220.15	11.08	-83.5	-79.0	2.4	0.00e+00	0	49	104	0	60	1048575
2026-01-17 08:39:34.12	220.10	10.97	-83.5	-79.0	2.3	0.00e+00	0	48	104	0	60	1048568
2026-01-17 08:39:35.13	220.05	10.86	-83.1	-79.0	2.5	0.00e+00	0	49	104	0	60	1048575
2026-01-17 08:39:36.13	220.00	10.75	-83.5	-79.0	2.5	0.00e+00	0	48	104	0	60	1048570
2026-01-17 08:39:37.14	219.95	10.64	-83.5	-79.0	2.6	0.00e+00	0	48	104	0	60	1048570
2026-01-17 08:39:38.14	219.90	10.54	-83.5	-79.0	2.4	0.00e+00	0	48	104	0	60	1048574
2026-01-17 08:39:39.15	219.85	10.43	-83.1	-79.0	2.4	0.00e+00	0	48	104	0	60	1048574
2026-01-17 08:39:40.16	219.81	10.32	-83.1	-79.0	2.4	0.00e+00	0	49	104	0	60	1048572
2026-01-17 08:39:41.17	219.76	10.22	-83.5	-79.0	2.4	0.00e+00	0	48	104	0	60	1048572
2026-01-17 08:39:42.17	219.71	10.11	-83.5	-79.0	2.4	0.00e+00	0	48	104	0	60	1048574
2026-01-17 08:39:43.18	219.67	10.01	-83.5	-79.0	2.4	0.00e+00	0	48	104	0	60	1048572
2026-01-17 08:39:44.19	219.62	9.91	-83.1	-79.0	2.4	0.00e+00	0	48	104	0	60	1048572
2026-01-17 08:39:45.20	219.58	9.80	-83.1	-79.0	2.4	0.00e+00	0	48	104	0	60	1048569
2026-01-17 08:39:46.20	219.53	9.70	-83.5	-79.0	2.4	0.00e+00	0	48	104	0	60	1048570
2026-01-17 08:39:47.21	219.49	9.60	-83.5	-79.0	2.4	0.00e+00	0	48	104	0	60	1048574
2026-01-17 08:39:48.22	219.44	9.50	-83.5	-79.0	2.4	0.00e+00	0	49	104	0	60	1048571
2026-01-17 08:39:49.23	219.40	9.39	-83.1	-79.0	2.4	0.00e+00	0	48	104	0	60	1048567
2026-01-17 08:39:50.23	219.36	9.29	-83.5	-79.0	2.4	0.00e+00	0	48	104	0	60	1048571
2026-01-17 08:39:51.24	219.31	9.19	-83.5	-79.0	2.4	0.00e+00	0	49	104	0	60	1048572
2026-01-17 08:39:52.24	219.27	9.10	-83.5	-79.0	2.4	0.00e+00	0	48	104	0	60	1048574
2026-01-17 08:39:53.24	219.23	9.00	-83.5	-79.0	2.4	0.00e+00	0	48	104	0	60	1048575
2026-01-17 08:39:54.25	219.19	8.90	-82.8	-79.0	2.4	0.00e+00	0	49	104	0	60	1048573
2026-01-17 08:39:55.26	219.15	8.80	-83.5	-79.0	2.5	0.00e+00	0	49	104	0	60	1048572
2026-01-17 08:39:56.27	219.11	8.70	-83.5	-79.0	2.3	0.00e+00	0	48	104	0	60	1048574
2026-01-17 08:39:57.27	219.06	8.61	-83.5	-79.0	2.4	0.00e+00	0	49	104	0	60	1048568
2026-01-17 08:39:58.28	219.02	8.51	-83.1	-79.0	2.4	0.00e+00	0	49	104	0	60	1048574
2026-01-17 08:39:59.29	218.98	8.41	-83.1	-79.0	2.5	0.00e+00	0	48	104	0	60	1048564
2026-01-17 08:40:00.29	218.95	8.32	-83.5	-79.0	2.4	0.00e+00	0	49	104	0	60	1048568
2026-01-17 08:40:01.30	218.91	8.22	-83.5	-79.0	2.5	0.00e+00	0	49	104	0	60	1048573
2026-01-17 08:40:02.31	218.87	8.13	-83.5	-79.0	2.5	0.00e+00	0	49	104	0	60	1048572
2026-01-17 08:40:03.31	218.83	8.03	-83.1	-79.0	2.3	0.00e+00	0	49	104	0	60	1048574
2026-01-17 08:40:04.32	218.79	7.94	-83.5	-79.0	2.4	0.00e+00	0	49	104	0	60	1048570
2026-01-17 08:40:05.33	218.75	7.85	-83.5	-79.0	2.4	0.00e+00	0	48	104	0	60	1048572
2026-01-17 08:40:06.33	218.72	7.76	-83.5	-79.0	2.4	0.00e+00	0	49	104	0	60	1048573
2026-01-17 08:40:07.34	218.68	7.66	-83.5	-79.0	2.4	0.00e+00	0	49	104	0	60	1048575
2026-01-17 08:40:08.34	218.64	7.57	-82.8	-79.0	2.4	0.00e+00	0	49	104	0	60	1048574
2026-01-17 08:40:09.35	218.61	7.48	-83.5	-79.0	2.4	0.00e+00	0	49	104	0	60	1048573
2026-01-17 08:40:10.36	218.57	7.39	-83.5	-79.0	2.3	0.00e+00	0	49	104	0	60	1048569
2026-01-17 08:40:11.37	218.53	7.30	-83.5	-79.0	2.4	0.00e+00	0	48	104	0	60	1048574
2026-01-17 08:40:12.37	218.50	7.21	-83.1	-79.0	2.3	0.00e+00	0	48	104	0	60	1048567
2026-01-17 08:40:13.38	218.46	7.12	-83.1	-79.0	2.4	0.00e+00	0	48	104	0	60	1048575
2026-01-17 08:40:14.39	218.43	7.03	-83.1	-79.0	2.2	0.00e+00	0	48	104	0	60	1048569
2026-01-17 08:40:15.39	218.39	6.94	-83.5	-79.0	2.4	0.00e+00	0	48	104	0	60	1048575
2026-01-17 08:40:16.40	218.36	6.85	-83.5	-79.0	2.4	0.00e+00	0	48	104	0	60	1048574
2026-01-17 08:40:17.41	218.32	6.76	-83.1	-79.0	2.4	0.00e+00	0	49	104	0	60	1048573
2026-01-17 08:40:18.41	218.29	6.67	-83.1	-79.0	2.5	0.00e+00	0	49	104	0	60	1048575
2026-01-17 08:40:19.42	218.26	6.59	-83.5	-79.0	2.4	0.00e+00	0	48	104	0	60	1048572
2026-01-17 08:40:20.43	218.22	6.50	-83.5	-79.0	2.4	0.00e+00	0	49	104	0	60	1048575
2026-01-17 08:40:21.44	218.19	6.41	-83.5	-79.0	2.5	0.00e+00	0	48	104	0	60	1048575
2026-01-17 08:40:22.45	218.16	6.33	-82.8	-79.0	2.5	0.00e+00	0	48	104	0	60	1048575
2026-01-17 08:40:23.45	218.12	6.24	-83.5	-79.0	2.4	0.00e+00	0	48	104	0	60	1048573
2026-01-17 08:40:24.46	218.09	6.16	-83.5	-79.0	2.3	0.00e+00	0	48	104	0	60	1048571
2026-01-17 08:40:25.46	218.06	6.07	-83.5	-79.0	2.4	0.00e+00	0	48	104	0	60	1048575
2026-01-17 08:40:26.47	218.03	5.99	-83.5	-79.0	2.4	0.00e+00	0	49	104	0	60	1048575
2026-01-17 08:40:27.48	218.00	5.90	-83.1	-79.0	2.4	0.00e+00	0	48	104	0	60	1048565
2026-01-17 08:40:28.48	217.97	5.82	-83.5	-79.0	2.4	0.00e+00	0	48	104	0	60	1048575
2026-01-17 08:40:29.49	217.93	5.73	-83.5	-79.0	2.3	0.00e+00	0	48	104	0	60	1048575
2026-01-17 08:40:30.49	217.90	5.65	-83.5	-79.0	2.5	0.00e+00	0	48	104	0	60	1048571
2026-01-17 08:40:31.50	217.87	5.57	-83.1	-79.0	2.3	0.00e+00	0	49	104	0	60	1048570
2026-01-17 08:40:32.51	217.84	5.48	-83.5	-79.0	2.4	0.00e+00	0	48	104	0	60	1048575
2026-01-17 08:40:33.52	217.81	5.40	-83.5	-79.0	2.4	0.00e+00	0	48	104	0	60	1048575
2026-01-17 08:40:34.52	217.78	5.32	-83.5	-79.0	2.4	0.00e+00	0	48	104	0	60	1048574
2026-01-17 08:40:35.53	217.75	5.24	-83.5	-79.0	2.4	0.00e+00	0	48	104	0	60	1048571
2026-01-17 08:40:36.54	217.72	5.16	-83.1	-79.0	2.4	0.00e+00	0	49	104	0	60	1048574
2026-01-17 08:40:37.55	217.69	5.07	-83.1	-79.0	2.5	0.00e+00	0	48	104	0	60	1048573
2026-01-17 08:40:38.55	217.67	4.99	-83.5	-79.0	2.4	0.00e+00	0	48	104	0	60	1048573
2026-01-17 08:40:39.56	217.64	4.91	-83.5	-79.0	2.4	0.00e+00	0	49	104	0	60	1048572
2026-01-17 08:40:40.56	217.61	4.83	-83.5	-79.0	2.3	0.00e+00	0	49	104	0	60	1048573
2026-01-17 08:40:41.57	217.58	4.75	-83.1	-79.0	2.3	0.00e+00	0	49	104	0	60	1048574
2026-01-17 08:40:42.58	217.55	4.67	-83.5	-79.0	2.4	0.00e+00	0	48	104	0	60	1048574
2026-01-17 08:40:43.59	217.52	4.59	-83.5	-79.0	2.4	0.00e+00	0	48	104	0	60	1048570
2026-01-17 08:40:44.59	217.50	4.52	-83.5	-79.0	2.4	0.00e+00	0	49	104	0	60	1048573
2026-01-17 08:40:45.60	217.47	4.44	-83.5	-79.0	2.4	0.00e+00	0	49	104	0	60	1048573
2026-01-17 08:40:46.61	217.44	4.36	-83.1	-79.0	2.4	0.00e+00	0	49	104	0	60	1048570
2026-01-17 08:40:47.62	217.42	4.28	-83.5	-79.0	2.3	0.00e+00	0	48	104	0	60	1048571
2026-01-17 08:40:48.62	217.39	4.20	-83.5	-79.0	2.4	0.00e+00	0	49	104	0	60	1048568
2026-01-17 08:40:49.63	217.36	4.13	-83.5	-79.0	2.5	0.00e+00	0	49	104	0	60	1048563
2026-01-17 08:40:50.64	217.34	4.05	-83.1	-79.0	2.4	0.00e+00	0	48	104	0	60	1048575
2026-01-17 08:40:51.64	217.31	3.97	-83.1	-79.0	2.4	0.00e+00	0	48	104	0	60	1048575
2026-01-17 08:40:52.65	217.28	3.90	-83.5	-79.0	2.5	0.00e+00	0	49	104	0	60	1048575
2026-01-17 08:40:53.66	217.26	3.82	-83.5	-79.0	2.4	0.00e+00	0	49	104	0	60	1048574
2026-01-17 08:40:54.67	217.23	3.74	-83.5	-79.0	2.5	0.00e+00	0	48	104	0	60	1048573
2026-01-17 08:40:55.68	217.21	3.67	-83.1	-79.0	2.4	0.00e+00	0	48	104	0	60	1048574
2026-01-17 08:40:56.68	217.18	3.59	-83.1	-79.0	2.4	0.00e+00	0	49	104	0	60	1048572
2026-01-17 08:40:57.69	217.16	3.52	-83.5	-79.0	2.4	0.00e+00	0	49	104	0	60	1048571
2026-01-17 08:40:58.70	217.13	3.44	-83.5	-79.0	2.5	0.00e+00	0	49	104	0	60	1048574
2026-01-17 08:40:59.71	217.11	3.37	-83.1	-79.0	2.4	0.00e+00	0	48	104	0	60	1048573
2026-01-17 08:41:00.71	217.08	3.29	-83.1	-79.0	2.5	0.00e+00	0	48	104	0	60	1048569
2026-01-17 08:41:01.72	217.06	3.22	-83.5	-79.0	2.4	0.00e+00	0	49	104	0	60	1048575
2026-01-17 08:41:02.73	217.03	3.14	-83.5	-79.0	2.4	0.00e+00	0	48	104	0	60	1048575
2026-01-17 08:41:03.74	217.01	3.07	-83.5	-79.0	2.4	0.00e+00	0	48	104	0	60	1048574
2026-01-17 08:41:04.75	216.99	3.00	-83.5	-79.0	2.4	0.00e+00	0	49	104	0	60	1048575
2026-01-17 08:41:05.75	216.96	2.92	-83.5	-79.0	2.3	0.00e+00	0	49	104	0	60	1048574
2026-01-17 08:41:06.75	216.94	2.85	-83.5	-79.0	2.5	0.00e+00	0	48	104	0	60	1048573
2026-01-17 08:41:07.76	216.92	2.78	-83.5	-79.0	2.4	0.00e+00	0	49	104	0	60	1048564
2026-01-17 08:41:08.77	216.89	2.71	-83.5	-79.0	2.4	0.00e+00	0	49	104	0	60	1048571
2026-01-17 08:41:09.78	216.87	2.63	-83.1	-79.0	2.4	0.00e+00	0	49	104	0	60	1048571
2026-01-17 08:41:10.79	216.85	2.56	-83.1	-79.0	2.5	0.00e+00	0	49	104	0	60	1048575
2026-01-17 08:41:11.79	216.82	2.49	-83.5	-79.0	2.4	0.00e+00	0	48	104	0	60	1048569
2026-01-17 08:41:12.80	216.80	2.42	-83.5	-79.0	2.4	0.00e+00	0	48	104	0	60	1048567
2026-01-17 08:41:13.81	216.78	2.35	-83.1	-79.0	2.2	0.00e+00	0	49	104	0	60	1048572
2026-01-17 08:41:14.81	216.76	2.28	-83.1	-79.0	2.4	0.00e+00	0	49	104	0	60	1048574
2026-01-17 08:41:15.82	216.74	2.20	-83.5	-79.0	2.4	0.00e+00	0	49	104	0	60	1048571
2026-01-17 08:41:16.83	216.71	2.13	-83.5	-79.0	2.4	0.00e+00	0	48	104	0	60	1048575
2026-01-17 08:41:17.84	216.69	2.06	-83.5	-79.0	2.4	0.00e+00	0	49	104	0	60	1048570
2026-01-17 08:41:18.84	216.67	1.99	-83.5	-79.0	2.4	0.00e+00	0	49	104	0	60	1048575
2026-01-17 08:41:19.84	216.65	1.92	-83.1	-79.0	2.5	0.00e+00	0	49	104	0	60	1048573
2026-01-17 08:41:20.85	216.63	1.85	-83.5	-79.0	2.4	0.00e+00	0	49	104	0	60	1048574
2026-01-17 08:41:21.85	216.61	1.79	-83.5	-79.0	2.3	0.00e+00	0	49	104	0	60	1048575
2026-01-17 08:41:22.85	216.59	1.72	-83.5	-79.0	2.4	0.00e+00	0	49	104	0	60	1048575
2026-01-17 08:41:23.85	216.57	1.65	-83.1	-79.0	2.4	0.00e+00	0	49	104	0	60	1048575
2026-01-17 08:41:24.86	216.54	1.58	-83.1	-79.0	2.5	0.00e+00	0	48	104	0	60	1048574
2026-01-17 08:41:25.87	216.52	1.51	-83.5	-79.0	2.4	0.00e+00	0	49	104	0	60	1048573
2026-01-17 08:41:26.87	216.50	1.44	-83.5	-79.0	2.4	0.00e+00	0	49	104	0	60	1048574
2026-01-17 08:41:27.88	216.48	1.37	-83.5	-79.0	2.5	0.00e+00	0	49	104	0	60	1048574
2026-01-17 08:41:28.89	216.46	1.31	-82.8	-79.0	2.4	0.00e+00	0	49	104	0	60	1048571
2026-01-17 08:41:29.89	216.44	1.24	-83.5	-79.0	2.5	0.00e+00	0	49	104	0	60	1048572
2026-01-17 08:41:30.90	216.42	1.17	-83.5	-79.0	2.4	0.00e+00	0	49	104	0	60	1048568
2026-01-17 08:41:31.91	216.40	1.10	-83.5	-79.0	2.4	0.00e+00	0	49	104	0	60	1048566
2026-01-17 08:41:32.91	216.38	1.04	-83.1	-79.0	2.4	0.00e+00	0	49	104	0	60	1048575
2026-01-17 08:41:33.92	216.36	0.97	-83.1	-79.0	2.5	0.00e+00	0	49	104	0	60	1048574
2026-01-17 08:41:34.91	216.35	0.90	-83.5	-79.0	2.4	0.00e+00	0	49	104	0	60	1048560
2026-01-17 08:41:35.92	216.33	0.84	-83.5	-79.0	2.5	0.00e+00	0	49	104	0	60	1048575
2026-01-17 08:41:36.93	216.31	0.77	-83.5	-79.0	2.3	0.00e+00	0	49	104	0	60	1048571
2026-01-17 08:41:37.93	216.29	0.70	-83.5	-79.0	2.4	0.00e+00	0	49	104	0	60	1048574
2026-01-17 08:41:38.94	216.27	0.64	-83.1	-79.0	2.4	0.00e+00	0	49	104	0	60	1048575
2026-01-17 08:41:39.94	216.25	0.57	-83.5	-79.0	2.4	0.00e+00	0	49	104	0	60	1048575
2026-01-17 08:41:40.95	216.23	0.51	-83.5	-79.0	2.4	0.00e+00	0	49	104	0	60	1048569
2026-01-17 08:41:41.95	216.21	0.44	-83.5	-79.0	2.5	0.00e+00	0	49	104	0	60	1048575
2026-01-17 08:41:42.96	216.20	0.38	-83.1	-79.0	2.4	0.00e+00	0	49	104	0	60	1048572
2026-01-17 08:41:43.97	216.18	0.31	-83.1	-79.0	2.4	0.00e+00	0	49	104	0	60	1048575
2026-01-17 08:41:44.98	216.16	0.25	-83.5	-79.0	2.4	0.00e+00	0	49	104	0	60	1048573
2026-01-17 08:41:45.99	216.14	0.18	-83.5	-79.0	2.4	0.00e+00	0	49	104	0	60	1048574
2026-01-17 08:41:46.99	216.12	0.12	-83.5	-79.0	2.3	0.00e+00	0	49	104	0	60	1048575
2026-01-17 08:41:48.00	216.11	0.05	-83.1	-79.0	2.4	0.00e+00	0	49	104	0	60	1048574
2026-01-17 08:41:49.00	216.09	-0.01	-83.1	-79.0	2.4	0.00e+00	0	48	104	0	60	1048572
2026-01-17 08:41:50.00	216.07	-0.08	-83.5	-79.0	2.4	0.00e+00	0	49	104	0	60	1048575
2026-01-17 08:41:51.01	216.05	-0.14	-83.5	-79.0	2.3	0.00e+00	0	49	104	0	60	1048572

#Closed at: 2026-01-17 08:41:51
#Recorded file [0 MB]: D:/Data/35015_260117_113510.dat