passes_logs/2026/01/17/R3.2S-Naryan-Mar/R3.2S-Naryan-Mar__20260117_155627_TY-41_rec.log

#Pass ID: 20260117_155627_TY-41
#Satellite: TY-41
#Configuration: TY-39
#almurnet v.1.7.20240730
#Start time: 2026-01-17 15:56:31

#Version: 2.2.20231116
#Station: R3.2S-Naryan-Mar
#Location: 53.008057 lon 67.646978 lat
#TLE: 1 61231U 24173E   26017.08983796  .00008010  00000-0  38191-3 0 09990
#TLE: 2 61231 097.4122 092.0846 0001831 091.8622 061.7654 15.19167953 72814

#Time	Az	El	Level	Level2	SNR	BER	BlckErr	Temp	State	Recorded	gain1	gain2
2026-01-17 15:56:31.90	116.11	0.25	-84.7	-88.6	2.9	7.77e-01	0	44	0	0	60	1048575
2026-01-17 15:56:32.90	116.05	0.32	-82.8	-79.0	2.6	0.00e+00	0	46	104	0	60	1048573
2026-01-17 15:56:33.91	115.99	0.38	-83.5	-79.0	2.4	0.00e+00	0	46	104	0	60	1048575
2026-01-17 15:56:34.92	115.93	0.44	-83.1	-79.0	2.5	0.00e+00	0	46	104	0	60	1048575
2026-01-17 15:56:35.93	115.87	0.50	-83.5	-79.0	2.4	0.00e+00	0	46	104	0	60	1048575
2026-01-17 15:56:36.93	115.81	0.56	-83.1	-79.0	2.4	0.00e+00	0	46	104	0	60	1048575
2026-01-17 15:56:37.94	115.75	0.62	-83.1	-79.0	2.4	0.00e+00	0	46	104	0	60	1048572
2026-01-17 15:56:38.95	115.69	0.69	-83.5	-79.0	2.4	0.00e+00	0	46	104	0	60	1048568
2026-01-17 15:56:39.96	115.63	0.75	-83.5	-79.0	2.5	0.00e+00	0	46	104	0	60	1048574
2026-01-17 15:56:40.97	115.57	0.81	-83.5	-79.0	2.5	0.00e+00	0	46	104	0	60	1048575
2026-01-17 15:56:41.97	115.51	0.87	-83.1	-79.0	2.5	0.00e+00	0	46	104	0	60	1048568
2026-01-17 15:56:42.98	115.45	0.94	-83.1	-79.0	2.5	0.00e+00	0	46	104	0	60	1048567
2026-01-17 15:56:43.99	115.39	1.00	-83.5	-79.0	2.4	0.00e+00	0	46	104	0	60	1048572
2026-01-17 15:56:45.00	115.32	1.06	-83.5	-79.0	2.4	0.00e+00	0	46	104	0	60	1048573
2026-01-17 15:56:46.00	115.26	1.13	-83.5	-79.0	2.4	0.00e+00	0	46	104	0	60	1048575
2026-01-17 15:56:47.01	115.20	1.19	-82.8	-79.0	2.4	0.00e+00	0	46	104	0	60	1048575
2026-01-17 15:56:48.01	115.14	1.25	-83.1	-79.0	2.4	0.00e+00	0	46	104	0	60	1048575
2026-01-17 15:56:49.02	115.07	1.32	-83.5	-79.0	2.5	0.00e+00	0	46	104	0	60	1048572
2026-01-17 15:56:50.02	115.01	1.38	-83.5	-79.0	2.4	0.00e+00	0	46	104	0	60	1048573
2026-01-17 15:56:51.03	114.94	1.45	-83.5	-79.0	2.5	0.00e+00	0	46	104	0	60	1048575
2026-01-17 15:56:52.04	114.88	1.51	-83.1	-79.0	2.4	0.00e+00	0	46	104	0	60	1048575
2026-01-17 15:56:53.05	114.81	1.57	-83.1	-79.0	2.4	0.00e+00	0	47	104	0	60	1048574
2026-01-17 15:56:54.05	114.75	1.64	-83.5	-79.0	2.5	0.00e+00	0	46	104	0	60	1048572
2026-01-17 15:56:55.06	114.68	1.70	-83.5	-79.0	2.7	0.00e+00	0	47	104	0	60	1048573
2026-01-17 15:56:56.07	114.62	1.77	-83.1	-79.0	2.4	0.00e+00	0	46	104	0	60	1048571
2026-01-17 15:56:57.08	114.55	1.83	-82.8	-79.0	2.5	0.00e+00	0	47	104	0	60	1048572
2026-01-17 15:56:58.09	114.48	1.90	-83.5	-79.0	2.5	0.00e+00	0	47	104	0	60	1048566
2026-01-17 15:56:59.09	114.42	1.96	-83.5	-79.0	2.4	0.00e+00	0	47	104	0	60	1048575
2026-01-17 15:57:00.10	114.35	2.03	-83.5	-79.0	2.6	0.00e+00	0	47	104	0	60	1048574
2026-01-17 15:57:01.11	114.28	2.10	-82.8	-79.0	2.4	0.00e+00	0	47	104	0	60	1048570
2026-01-17 15:57:02.11	114.21	2.16	-83.1	-79.0	2.3	0.00e+00	0	47	104	0	60	1048575
2026-01-17 15:57:03.12	114.14	2.23	-83.5	-79.0	2.4	0.00e+00	0	47	104	0	60	1048574
2026-01-17 15:57:04.13	114.07	2.29	-83.1	-79.0	2.4	0.00e+00	0	47	104	0	60	1048572
2026-01-17 15:57:05.14	114.00	2.36	-83.5	-79.0	2.4	0.00e+00	0	47	104	0	60	1048572
2026-01-17 15:57:06.14	113.93	2.43	-82.8	-79.0	2.4	0.00e+00	0	47	104	0	60	1048574
2026-01-17 15:57:07.15	113.86	2.49	-83.5	-79.0	2.4	0.00e+00	0	47	104	0	60	1048573
2026-01-17 15:57:08.16	113.79	2.56	-83.5	-79.0	2.5	0.00e+00	0	47	104	0	60	1048575
2026-01-17 15:57:09.17	113.72	2.63	-83.5	-79.0	2.4	0.00e+00	0	47	104	0	60	1048575
2026-01-17 15:57:10.17	113.65	2.69	-83.1	-79.0	2.3	0.00e+00	0	47	104	0	60	1048574
2026-01-17 15:57:11.18	113.58	2.76	-83.1	-79.0	2.4	0.00e+00	0	47	104	0	60	1048571
2026-01-17 15:57:12.19	113.50	2.83	-83.5	-79.0	2.4	0.00e+00	0	47	104	0	60	1048568
2026-01-17 15:57:13.19	113.43	2.90	-83.5	-79.0	2.3	0.00e+00	0	47	104	0	60	1048573
2026-01-17 15:57:14.20	113.36	2.96	-83.5	-79.0	2.3	0.00e+00	0	47	104	0	60	1048574
2026-01-17 15:57:15.21	113.28	3.03	-83.1	-79.0	2.4	0.00e+00	0	47	104	0	60	1048570
2026-01-17 15:57:16.22	113.21	3.10	-83.1	-79.0	2.4	0.00e+00	0	47	104	0	60	1048574
2026-01-17 15:57:17.23	113.13	3.17	-83.5	-79.0	2.6	0.00e+00	0	47	104	0	60	1048574
2026-01-17 15:57:18.23	113.06	3.24	-83.5	-79.0	2.4	0.00e+00	0	47	104	0	60	1048565
2026-01-17 15:57:19.24	112.98	3.31	-83.5	-79.0	2.8	0.00e+00	0	47	104	0	60	1048575
2026-01-17 15:57:20.25	112.90	3.38	-83.1	-79.0	2.4	0.00e+00	0	47	104	0	60	1048572
2026-01-17 15:57:21.25	112.83	3.45	-83.1	-79.0	2.3	0.00e+00	0	47	104	0	60	1048569
2026-01-17 15:57:22.26	112.75	3.51	-83.1	-79.0	2.6	0.00e+00	0	47	104	0	60	1048572
2026-01-17 15:57:23.27	112.67	3.58	-83.5	-79.0	2.4	0.00e+00	0	47	104	0	60	1048573
2026-01-17 15:57:24.27	112.59	3.65	-83.5	-79.0	2.4	0.00e+00	0	47	104	0	60	1048575
2026-01-17 15:57:25.27	112.51	3.72	-83.1	-79.0	2.4	0.00e+00	0	47	104	0	60	1048569
2026-01-17 15:57:26.28	112.44	3.79	-83.5	-79.0	2.5	0.00e+00	0	47	104	0	60	1048575
2026-01-17 15:57:27.29	112.36	3.86	-83.5	-79.0	2.4	0.00e+00	0	47	104	0	60	1048570
2026-01-17 15:57:28.29	112.28	3.93	-83.5	-79.0	2.4	0.00e+00	0	47	104	0	60	1048573
2026-01-17 15:57:29.30	112.19	4.01	-83.1	-79.0	2.6	0.00e+00	0	47	104	0	60	1048569
2026-01-17 15:57:30.31	112.11	4.08	-83.1	-79.0	2.2	0.00e+00	0	47	104	0	60	1048569
2026-01-17 15:57:31.32	112.03	4.15	-83.5	-79.0	2.5	0.00e+00	0	47	104	0	60	1048575
2026-01-17 15:57:32.33	111.95	4.22	-83.5	-79.0	2.4	0.00e+00	0	47	104	0	60	1048574
2026-01-17 15:57:33.33	111.87	4.29	-83.5	-79.0	2.4	0.00e+00	0	47	104	0	60	1048574
2026-01-17 15:57:34.34	111.78	4.36	-82.8	-79.0	2.6	0.00e+00	0	47	104	0	60	1048575
2026-01-17 15:57:35.34	111.70	4.43	-83.5	-79.0	2.4	0.00e+00	0	47	104	0	60	1048572
2026-01-17 15:57:36.35	111.61	4.51	-83.5	-79.0	2.3	0.00e+00	0	47	104	0	60	1048572
2026-01-17 15:57:37.35	111.53	4.58	-83.5	-79.0	2.4	0.00e+00	0	47	104	0	60	1048574
2026-01-17 15:57:38.36	111.44	4.65	-83.5	-79.0	2.4	0.00e+00	0	47	104	0	60	1048575
2026-01-17 15:57:39.36	111.36	4.72	-82.8	-79.0	2.4	0.00e+00	0	47	104	0	60	1048573
2026-01-17 15:57:40.37	111.27	4.80	-83.5	-79.0	2.5	0.00e+00	0	47	104	0	60	1048570
2026-01-17 15:57:41.37	111.18	4.87	-83.5	-79.0	2.4	0.00e+00	0	47	104	0	60	1048575
2026-01-17 15:57:42.37	111.10	4.94	-83.5	-79.0	2.5	0.00e+00	0	47	104	0	60	1048568
2026-01-17 15:57:43.38	111.01	5.02	-83.5	-79.0	2.4	0.00e+00	0	47	104	0	60	1048573
2026-01-17 15:57:44.38	110.92	5.09	-83.1	-79.0	2.4	0.00e+00	0	47	104	0	60	1048574
2026-01-17 15:57:45.39	110.83	5.16	-83.1	-79.0	2.4	0.00e+00	0	47	104	0	60	1048575
2026-01-17 15:57:46.40	110.74	5.24	-83.5	-79.0	2.4	0.00e+00	0	47	104	0	60	1048568
2026-01-17 15:57:47.40	110.65	5.31	-83.5	-79.0	2.4	0.00e+00	0	47	104	0	60	1048569
2026-01-17 15:57:48.41	110.56	5.39	-83.1	-79.0	2.5	0.00e+00	0	47	104	0	60	1048565
2026-01-17 15:57:49.42	110.46	5.46	-83.1	-79.0	2.3	0.00e+00	0	47	104	0	60	1048573
2026-01-17 15:57:50.42	110.37	5.54	-83.5	-79.0	2.5	0.00e+00	0	47	104	0	60	1048574
2026-01-17 15:57:51.43	110.28	5.61	-83.1	-79.0	2.5	0.00e+00	0	47	104	0	60	1048569
2026-01-17 15:57:52.44	110.18	5.69	-83.5	-79.0	2.4	0.00e+00	0	47	104	0	60	1048573
2026-01-17 15:57:53.44	110.09	5.76	-83.1	-79.0	2.6	0.00e+00	0	47	104	0	60	1048564
2026-01-17 15:57:54.44	109.99	5.84	-83.1	-79.0	2.2	0.00e+00	0	47	104	0	60	1048567
2026-01-17 15:57:55.45	109.90	5.92	-83.5	-79.0	2.5	0.00e+00	0	47	104	0	60	1048574
2026-01-17 15:57:56.45	109.80	5.99	-83.5	-79.0	2.3	0.00e+00	0	47	104	0	60	1048575
2026-01-17 15:57:57.46	109.71	6.07	-83.5	-79.0	2.4	0.00e+00	0	47	104	0	60	1048574
2026-01-17 15:57:58.47	109.61	6.15	-83.1	-79.0	2.3	0.00e+00	0	47	104	0	60	1048573
2026-01-17 15:57:59.47	109.51	6.22	-83.5	-79.0	2.3	0.00e+00	0	48	104	0	60	1048575
2026-01-17 15:58:00.48	109.41	6.30	-83.5	-79.0	2.4	0.00e+00	0	48	104	0	60	1048571
2026-01-17 15:58:01.49	109.31	6.38	-83.5	-79.0	2.5	0.00e+00	0	47	104	0	60	1048574
2026-01-17 15:58:02.50	109.21	6.46	-83.1	-79.0	2.4	0.00e+00	0	48	104	0	60	1048572
2026-01-17 15:58:03.50	109.11	6.53	-83.1	-79.0	2.4	0.00e+00	0	47	104	0	60	1048574
2026-01-17 15:58:04.51	109.01	6.61	-83.5	-79.0	2.4	0.00e+00	0	47	104	0	60	1048575
2026-01-17 15:58:05.51	108.90	6.69	-83.5	-79.0	2.4	0.00e+00	0	48	104	0	60	1048574
2026-01-17 15:58:06.52	108.80	6.77	-83.5	-79.0	2.4	0.00e+00	0	48	104	0	60	1048572
2026-01-17 15:58:07.52	108.70	6.85	-83.1	-79.0	2.4	0.00e+00	0	48	104	0	60	1048575
2026-01-17 15:58:08.53	108.59	6.93	-83.1	-79.0	2.4	0.00e+00	0	47	104	0	60	1048574
2026-01-17 15:58:09.53	108.49	7.01	-83.5	-79.0	2.4	0.00e+00	0	48	104	0	60	1048575
2026-01-17 15:58:10.53	108.38	7.09	-83.5	-79.0	2.6	0.00e+00	0	48	104	0	60	1048572
2026-01-17 15:58:11.53	108.27	7.17	-83.5	-79.0	2.4	0.00e+00	0	48	104	0	60	1048573
2026-01-17 15:58:12.53	108.17	7.25	-83.1	-79.0	2.4	0.00e+00	0	47	104	0	60	1048575
2026-01-17 15:58:13.54	108.06	7.33	-83.5	-79.0	2.4	0.00e+00	0	48	104	0	60	1048575
2026-01-17 15:58:14.54	107.95	7.41	-83.5	-79.0	2.4	0.00e+00	0	48	104	0	60	1048568
2026-01-17 15:58:15.55	107.84	7.49	-83.5	-79.0	2.5	0.00e+00	0	48	104	0	60	1048574
2026-01-17 15:58:16.56	107.73	7.57	-83.1	-79.0	2.4	0.00e+00	0	48	104	0	60	1048568
2026-01-17 15:58:17.57	107.62	7.65	-83.1	-79.0	2.6	0.00e+00	0	48	104	0	60	1048570
2026-01-17 15:58:18.58	107.50	7.73	-83.5	-79.0	2.4	0.00e+00	0	48	104	0	60	1048574
2026-01-17 15:58:19.58	107.39	7.82	-83.5	-79.0	2.4	0.00e+00	0	48	104	0	60	1048570
2026-01-17 15:58:20.59	107.28	7.90	-83.5	-79.0	2.3	0.00e+00	0	48	104	0	60	1048574
2026-01-17 15:58:21.60	107.16	7.98	-83.5	-79.0	2.5	0.00e+00	0	48	104	0	60	1048574
2026-01-17 15:58:22.61	107.05	8.07	-83.1	-79.0	2.5	0.00e+00	0	48	104	0	60	1048573
2026-01-17 15:58:23.61	106.93	8.15	-83.5	-79.0	2.4	0.00e+00	0	48	104	0	60	1048568
2026-01-17 15:58:24.62	106.81	8.23	-83.5	-79.0	2.5	0.00e+00	0	48	104	0	60	1048575
2026-01-17 15:58:25.63	106.69	8.32	-83.5	-79.0	2.5	0.00e+00	0	48	104	0	60	1048575
2026-01-17 15:58:26.63	106.57	8.40	-83.1	-79.0	2.5	0.00e+00	0	48	104	0	60	1048575
2026-01-17 15:58:27.64	106.45	8.48	-83.1	-79.0	2.6	0.00e+00	0	48	104	0	60	1048572
2026-01-17 15:58:28.65	106.33	8.57	-83.5	-79.0	2.5	0.00e+00	0	48	104	0	60	1048572
2026-01-17 15:58:29.65	106.21	8.65	-83.5	-79.0	2.5	0.00e+00	0	48	104	0	60	1048566
2026-01-17 15:58:30.66	106.09	8.74	-83.5	-79.0	2.5	0.00e+00	0	48	104	0	60	1048564
2026-01-17 15:58:31.67	105.96	8.82	-82.8	-79.0	2.5	0.00e+00	0	48	104	0	60	1048574
2026-01-17 15:58:32.68	105.84	8.91	-83.5	-79.0	2.4	0.00e+00	0	48	104	0	60	1048575
2026-01-17 15:58:33.69	105.71	9.00	-83.5	-79.0	2.5	0.00e+00	0	48	104	0	60	1048573
2026-01-17 15:58:34.70	105.59	9.08	-83.5	-79.0	2.4	0.00e+00	0	48	104	0	60	1048575
2026-01-17 15:58:35.70	105.46	9.17	-83.1	-79.0	2.5	0.00e+00	0	48	104	0	60	1048575
2026-01-17 15:58:36.71	105.33	9.26	-83.1	-79.0	2.5	0.00e+00	0	48	104	0	60	1048575
2026-01-17 15:58:37.72	105.20	9.34	-83.5	-79.0	2.6	0.00e+00	0	48	104	0	60	1048574
2026-01-17 15:58:38.72	105.07	9.43	-83.5	-79.0	2.4	0.00e+00	0	48	104	0	60	1048575
2026-01-17 15:58:39.73	104.94	9.52	-83.5	-79.0	2.5	0.00e+00	0	48	104	0	60	1048575
2026-01-17 15:58:40.74	104.81	9.61	-83.5	-79.0	2.5	0.00e+00	0	48	104	0	60	1048571
2026-01-17 15:58:41.74	104.68	9.69	-83.1	-79.0	2.4	0.00e+00	0	48	104	0	60	1048572
2026-01-17 15:58:42.75	104.54	9.78	-83.5	-79.0	2.4	0.00e+00	0	48	104	0	60	1048573
2026-01-17 15:58:43.76	104.41	9.87	-83.5	-79.0	2.1	0.00e+00	0	48	104	0	60	1048567
2026-01-17 15:58:44.77	104.27	9.96	-83.5	-79.0	2.6	0.00e+00	0	48	104	0	60	1048571
2026-01-17 15:58:45.77	104.13	10.05	-83.1	-79.0	2.3	0.00e+00	0	48	104	0	60	1048569
2026-01-17 15:58:46.78	103.99	10.14	-83.5	-79.0	2.5	0.00e+00	0	48	104	0	60	1048572
2026-01-17 15:58:47.79	103.85	10.23	-83.5	-79.0	2.4	0.00e+00	0	48	104	0	60	1048559
2026-01-17 15:58:48.79	103.71	10.32	-83.5	-79.0	2.4	0.00e+00	0	48	104	0	60	1048572
2026-01-17 15:58:49.80	103.57	10.41	-83.1	-79.0	2.3	0.00e+00	0	48	104	0	60	1048575
2026-01-17 15:58:50.81	103.43	10.50	-83.1	-79.0	2.4	0.00e+00	0	48	104	0	60	1048562
2026-01-17 15:58:51.82	103.28	10.59	-83.1	-79.0	2.5	0.00e+00	0	48	104	0	60	1048570
2026-01-17 15:58:52.83	103.14	10.69	-83.5	-79.0	2.3	0.00e+00	0	48	104	0	60	1048575
2026-01-17 15:58:53.84	102.99	10.78	-83.5	-79.0	2.4	0.00e+00	0	48	104	0	60	1048574
2026-01-17 15:58:54.84	102.85	10.87	-83.5	-79.0	2.4	0.00e+00	0	48	104	0	60	1048565
2026-01-17 15:58:55.85	102.70	10.96	-83.1	-79.0	2.4	0.00e+00	0	48	104	0	60	1048574
2026-01-17 15:58:56.85	102.55	11.05	-83.1	-79.0	2.5	0.00e+00	0	48	104	0	60	1048574
2026-01-17 15:58:57.86	102.40	11.15	-83.5	-79.0	2.6	0.00e+00	0	48	104	0	60	1048575
2026-01-17 15:58:58.86	102.25	11.24	-83.5	-79.0	2.5	0.00e+00	0	48	104	0	60	1048574
2026-01-17 15:58:59.87	102.09	11.33	-83.1	-79.0	2.6	0.00e+00	0	48	104	0	60	1048553
2026-01-17 15:59:00.87	101.94	11.43	-83.1	-79.0	2.5	0.00e+00	0	48	104	0	60	1048574
2026-01-17 15:59:01.88	101.79	11.52	-83.5	-79.0	2.4	0.00e+00	0	48	104	0	60	1048574
2026-01-17 15:59:02.88	101.63	11.61	-83.5	-79.0	2.3	0.00e+00	0	48	104	0	60	1048557
2026-01-17 15:59:03.89	101.47	11.71	-83.5	-79.0	2.4	0.00e+00	0	48	104	0	60	1048568
2026-01-17 15:59:04.90	101.31	11.80	-82.8	-79.0	2.4	0.00e+00	0	48	104	0	60	1048570
2026-01-17 15:59:05.90	101.15	11.90	-83.5	-79.0	2.5	0.00e+00	0	48	104	0	60	1048573
2026-01-17 15:59:06.91	100.99	12.00	-83.5	-79.0	2.4	0.00e+00	0	48	104	0	60	1048569
2026-01-17 15:59:07.92	100.83	12.09	-83.5	-79.0	2.3	0.00e+00	0	48	104	0	60	1048572
2026-01-17 15:59:08.93	100.66	12.19	-83.1	-79.0	2.7	0.00e+00	0	48	104	0	60	1048575
2026-01-17 15:59:09.93	100.50	12.28	-83.1	-79.0	2.1	0.00e+00	0	48	104	0	60	1048575
2026-01-17 15:59:10.94	100.33	12.38	-83.5	-79.0	2.5	0.00e+00	0	48	104	0	60	1048570
2026-01-17 15:59:11.95	100.16	12.48	-83.5	-79.0	2.2	0.00e+00	0	48	104	0	60	1048575
2026-01-17 15:59:12.96	99.99	12.58	-83.5	-79.0	2.5	0.00e+00	0	48	104	0	60	1048575
2026-01-17 15:59:13.96	99.82	12.67	-82.8	-79.0	2.3	0.00e+00	0	48	104	0	60	1048569
2026-01-17 15:59:14.97	99.65	12.77	-83.1	-79.0	2.4	0.00e+00	0	48	104	0	60	1048574
2026-01-17 15:59:15.97	99.48	12.87	-83.5	-79.0	2.3	0.00e+00	0	48	104	0	60	1048571
2026-01-17 15:59:16.98	99.30	12.97	-83.5	-79.0	2.5	0.00e+00	0	48	104	0	60	1048573
2026-01-17 15:59:17.98	99.12	13.07	-83.5	-79.0	2.4	0.00e+00	0	48	104	0	60	1048573
2026-01-17 15:59:18.99	98.95	13.16	-83.1	-79.0	2.7	0.00e+00	0	48	104	0	60	1048568
2026-01-17 15:59:20.00	98.77	13.26	-83.1	-79.0	2.5	0.00e+00	0	48	104	0	60	1048575
2026-01-17 15:59:21.01	98.58	13.36	-83.5	-79.0	2.5	0.00e+00	0	48	104	0	60	1048574
2026-01-17 15:59:22.01	98.40	13.46	-83.5	-79.0	2.3	0.00e+00	0	48	104	0	60	1048573
2026-01-17 15:59:23.02	98.22	13.56	-83.5	-79.0	2.5	0.00e+00	0	48	104	0	60	1048574
2026-01-17 15:59:24.03	98.03	13.67	-83.1	-79.0	2.3	0.00e+00	0	48	104	0	60	1048573
2026-01-17 15:59:25.04	97.84	13.77	-83.1	-79.0	2.4	0.00e+00	0	48	104	0	60	1048575
2026-01-17 15:59:26.05	97.65	13.87	-83.5	-79.0	2.3	0.00e+00	0	48	104	0	60	1048574
2026-01-17 15:59:27.05	97.47	13.97	-83.5	-79.0	2.4	0.00e+00	0	48	104	0	60	1048573
2026-01-17 15:59:28.06	97.27	14.07	-83.1	-79.0	2.4	0.00e+00	0	48	104	0	60	1048572
2026-01-17 15:59:29.07	97.08	14.17	-83.1	-79.0	2.4	0.00e+00	0	48	104	0	60	1048571
2026-01-17 15:59:30.07	96.89	14.27	-83.5	-79.0	2.4	0.00e+00	0	48	104	0	60	1048573
2026-01-17 15:59:31.08	96.69	14.38	-83.5	-79.0	2.4	0.00e+00	0	48	104	0	60	1048574
2026-01-17 15:59:32.08	96.49	14.48	-83.5	-79.0	2.4	0.00e+00	0	48	104	0	60	1048575
2026-01-17 15:59:33.09	96.29	14.58	-83.1	-79.0	2.5	0.00e+00	0	48	104	0	60	1048573
2026-01-17 15:59:34.10	96.09	14.69	-83.1	-79.0	2.4	0.00e+00	0	48	104	0	60	1048569
2026-01-17 15:59:35.11	95.89	14.79	-83.5	-79.0	2.4	0.00e+00	0	48	104	0	60	1048575
2026-01-17 15:59:36.11	95.68	14.89	-83.5	-79.0	2.4	0.00e+00	0	48	104	0	60	1048568
2026-01-17 15:59:37.12	95.48	15.00	-83.5	-79.0	2.3	0.00e+00	0	48	104	0	60	1048572
2026-01-17 15:59:38.13	95.27	15.10	-83.1	-79.0	2.5	0.00e+00	0	48	104	0	60	1048572
2026-01-17 15:59:39.13	95.06	15.20	-83.5	-79.0	2.4	0.00e+00	0	48	104	0	60	1048574
2026-01-17 15:59:40.13	94.85	15.31	-83.5	-79.0	2.4	0.00e+00	0	48	104	0	60	1048574
2026-01-17 15:59:41.14	94.63	15.41	-83.5	-79.0	2.4	0.00e+00	0	48	104	0	60	1048575
2026-01-17 15:59:42.15	94.42	15.52	-83.5	-79.0	2.3	0.00e+00	0	48	104	0	60	1048572
2026-01-17 15:59:43.16	94.20	15.62	-82.8	-79.0	2.5	0.00e+00	0	48	104	0	60	1048573
2026-01-17 15:59:44.16	93.98	15.73	-83.5	-79.0	2.3	0.00e+00	0	48	104	0	60	1048573
2026-01-17 15:59:45.17	93.76	15.84	-83.5	-79.0	2.8	0.00e+00	0	48	104	0	60	1048574
2026-01-17 15:59:46.18	93.54	15.94	-83.5	-79.0	2.4	0.00e+00	0	48	104	0	60	1048575
2026-01-17 15:59:47.18	93.31	16.05	-83.1	-79.0	2.7	0.00e+00	0	48	104	0	60	1048575
2026-01-17 15:59:48.19	93.09	16.15	-83.1	-79.0	2.5	0.00e+00	0	48	104	0	60	1048572
2026-01-17 15:59:49.20	92.86	16.26	-83.5	-79.0	2.4	0.00e+00	0	48	104	0	60	1048575
2026-01-17 15:59:50.20	92.63	16.37	-83.5	-79.0	2.5	0.00e+00	0	48	104	0	60	1048575
2026-01-17 15:59:51.21	92.40	16.47	-83.5	-79.0	2.5	0.00e+00	0	48	104	0	60	1048575
2026-01-17 15:59:52.22	92.16	16.58	-83.1	-79.0	2.3	0.00e+00	0	48	104	0	60	1048574
2026-01-17 15:59:53.23	91.93	16.69	-83.1	-79.0	2.5	0.00e+00	0	48	104	0	60	1048570
2026-01-17 15:59:54.23	91.69	16.80	-83.1	-79.0	2.4	0.00e+00	0	48	104	0	60	1048570
2026-01-17 15:59:55.24	91.45	16.90	-83.5	-79.0	2.5	0.00e+00	0	48	104	0	60	1048575
2026-01-17 15:59:56.25	91.21	17.01	-83.5	-79.0	2.4	0.00e+00	0	48	104	0	60	1048574
2026-01-17 15:59:57.25	90.96	17.12	-83.1	-79.0	2.6	0.00e+00	0	48	104	0	60	1048571
2026-01-17 15:59:58.26	90.72	17.23	-83.1	-79.0	2.4	0.00e+00	0	48	104	0	60	1048575
2026-01-17 15:59:59.27	90.47	17.34	-83.5	-79.0	2.4	0.00e+00	0	48	104	0	60	1048567
2026-01-17 16:00:00.28	90.22	17.44	-83.5	-79.0	2.4	0.00e+00	0	48	104	0	60	1048572
2026-01-17 16:00:01.29	89.96	17.55	-83.5	-79.0	2.4	0.00e+00	0	48	104	0	60	1048575
2026-01-17 16:00:02.30	89.71	17.66	-83.1	-79.0	2.4	0.00e+00	0	48	104	0	60	1048573
2026-01-17 16:00:03.30	89.45	17.77	-83.5	-79.0	2.4	0.00e+00	0	48	104	0	60	1048575
2026-01-17 16:00:04.31	89.19	17.88	-83.5	-79.0	2.4	0.00e+00	0	48	104	0	60	1048574
2026-01-17 16:00:05.32	88.93	17.99	-83.5	-79.0	2.6	0.00e+00	0	48	104	0	60	1048575
2026-01-17 16:00:06.32	88.67	18.10	-83.1	-79.0	2.4	0.00e+00	0	48	104	0	60	1048556
2026-01-17 16:00:07.33	88.40	18.20	-83.1	-79.0	2.6	0.00e+00	0	48	104	0	60	1048571
2026-01-17 16:00:08.34	88.13	18.31	-83.5	-79.0	2.4	0.00e+00	0	48	104	0	60	1048575
2026-01-17 16:00:09.35	87.86	18.42	-83.5	-79.0	2.5	0.00e+00	0	48	104	0	60	1048574
2026-01-17 16:00:10.35	87.59	18.53	-83.5	-79.0	2.3	0.00e+00	0	48	104	0	60	1048571
2026-01-17 16:00:11.36	87.32	18.64	-82.8	-79.0	2.4	0.00e+00	0	48	104	0	60	1048574
2026-01-17 16:00:12.36	87.04	18.75	-83.1	-79.0	2.4	0.00e+00	0	48	104	0	60	1048574
2026-01-17 16:00:13.36	86.77	18.86	-83.5	-79.0	2.5	0.00e+00	0	48	104	0	60	1048571
2026-01-17 16:00:14.37	86.48	18.97	-83.5	-79.0	2.5	0.00e+00	0	48	104	0	60	1048573
2026-01-17 16:00:15.38	86.20	19.07	-83.5	-79.0	2.5	0.00e+00	0	48	104	0	60	1048575
2026-01-17 16:00:16.38	85.92	19.18	-83.1	-79.0	2.4	0.00e+00	0	48	104	0	60	1048574
2026-01-17 16:00:17.39	85.63	19.29	-83.5	-79.0	2.4	0.00e+00	0	48	104	0	60	1048566
2026-01-17 16:00:18.40	85.34	19.40	-83.5	-79.0	2.7	0.00e+00	0	48	104	0	60	1048574
2026-01-17 16:00:19.41	85.04	19.51	-83.5	-79.0	2.4	0.00e+00	0	48	104	0	60	1048569
2026-01-17 16:00:20.42	84.74	19.62	-83.1	-79.0	2.4	0.00e+00	0	48	104	0	60	1048574
2026-01-17 16:00:21.43	84.45	19.73	-83.1	-79.0	2.4	0.00e+00	0	49	104	0	60	1048575
2026-01-17 16:00:22.43	84.15	19.83	-83.5	-79.0	2.4	0.00e+00	0	48	104	0	60	1048575
2026-01-17 16:00:23.44	83.84	19.94	-83.5	-79.0	2.3	0.00e+00	0	48	104	0	60	1048571
2026-01-17 16:00:24.44	83.54	20.05	-83.5	-79.0	2.5	0.00e+00	0	48	104	0	60	1048575
2026-01-17 16:00:25.44	83.24	20.16	-83.1	-79.0	2.5	0.00e+00	0	49	104	0	60	1048574
2026-01-17 16:00:26.45	82.92	20.26	-83.1	-79.0	2.3	0.00e+00	0	48	104	0	60	1048574
2026-01-17 16:00:27.46	82.61	20.37	-83.5	-79.0	2.5	0.00e+00	0	48	104	0	60	1048575
2026-01-17 16:00:28.46	82.30	20.48	-83.5	-79.0	2.4	0.00e+00	0	48	104	0	60	1048574
2026-01-17 16:00:29.47	81.98	20.58	-83.5	-79.0	2.4	0.00e+00	0	49	104	0	60	1048575
2026-01-17 16:00:30.47	81.66	20.69	-83.1	-79.0	2.5	0.00e+00	0	49	104	0	60	1048574
2026-01-17 16:00:31.48	81.34	20.80	-83.5	-79.0	2.4	0.00e+00	0	49	104	0	60	1048568
2026-01-17 16:00:32.49	81.01	20.90	-83.5	-79.0	2.5	0.00e+00	0	49	104	0	60	1048575
2026-01-17 16:00:33.49	80.69	21.01	-83.5	-79.0	2.5	0.00e+00	0	48	104	0	60	1048573
2026-01-17 16:00:34.50	80.35	21.11	-83.5	-79.0	2.2	0.00e+00	0	48	104	0	60	1048566
2026-01-17 16:00:35.51	80.02	21.22	-82.8	-79.0	2.4	0.00e+00	0	49	104	0	60	1048571
2026-01-17 16:00:36.52	79.68	21.32	-83.5	-79.0	2.5	0.00e+00	0	48	104	0	60	1048574
2026-01-17 16:00:37.52	79.35	21.42	-83.5	-79.0	2.4	0.00e+00	0	48	104	0	60	1048571
2026-01-17 16:00:38.53	79.01	21.53	-83.5	-79.0	2.7	0.00e+00	0	48	104	0	60	1048571
2026-01-17 16:00:39.53	78.67	21.63	-83.1	-79.0	2.3	0.00e+00	0	48	104	0	60	1048570
2026-01-17 16:00:40.53	78.32	21.73	-83.1	-79.0	2.6	0.00e+00	0	48	104	0	60	1048572
2026-01-17 16:00:41.54	77.97	21.83	-83.1	-79.0	2.5	0.00e+00	0	49	104	0	60	1048572
2026-01-17 16:00:42.55	77.62	21.94	-83.5	-79.0	2.5	0.00e+00	0	48	104	0	60	1048572
2026-01-17 16:00:43.55	77.27	22.04	-83.5	-79.0	2.4	0.00e+00	0	48	104	0	60	1048572
2026-01-17 16:00:44.56	76.91	22.14	-82.8	-79.0	2.5	0.00e+00	0	48	104	0	60	1048573
2026-01-17 16:00:45.57	76.55	22.24	-83.1	-79.0	2.4	0.00e+00	0	49	104	0	60	1048574
2026-01-17 16:00:46.58	76.19	22.34	-83.5	-79.0	2.3	0.00e+00	0	49	104	0	60	1048575
2026-01-17 16:00:47.59	75.83	22.44	-83.5	-79.0	2.7	0.00e+00	0	48	104	0	60	1048566
2026-01-17 16:00:48.59	75.46	22.53	-83.5	-79.0	2.1	0.00e+00	0	48	104	0	60	1048569
2026-01-17 16:00:49.59	75.10	22.63	-83.1	-79.0	2.5	0.00e+00	0	48	104	0	60	1048575
2026-01-17 16:00:50.60	74.72	22.73	-83.5	-79.0	2.4	0.00e+00	0	48	104	0	60	1048573
2026-01-17 16:00:51.61	74.35	22.82	-83.5	-79.0	2.4	0.00e+00	0	48	104	0	60	1048571
2026-01-17 16:00:52.62	73.97	22.92	-83.5	-79.0	2.5	0.00e+00	0	48	104	0	60	1048572
2026-01-17 16:00:53.62	73.59	23.01	-83.1	-79.0	2.4	0.00e+00	0	48	104	0	60	1048555
2026-01-17 16:00:54.62	73.21	23.10	-83.1	-79.0	2.4	0.00e+00	0	48	104	0	60	1048575
2026-01-17 16:00:55.62	72.83	23.19	-83.5	-79.0	2.4	0.00e+00	0	49	104	0	60	1048572
2026-01-17 16:00:56.63	72.44	23.29	-83.5	-79.0	2.4	0.00e+00	0	48	104	0	60	1048567
2026-01-17 16:00:57.64	72.05	23.38	-83.5	-79.0	2.4	0.00e+00	0	48	104	0	60	1048575
2026-01-17 16:00:58.65	71.66	23.47	-83.1	-79.0	2.4	0.00e+00	0	48	104	0	60	1048567
2026-01-17 16:00:59.65	71.27	23.56	-83.5	-79.0	2.4	0.00e+00	0	49	104	0	60	1048575
2026-01-17 16:01:00.65	70.87	23.64	-83.5	-79.0	2.3	0.00e+00	0	49	104	0	60	1048575
2026-01-17 16:01:01.66	70.47	23.73	-83.5	-79.0	2.4	0.00e+00	0	49	104	0	60	1048570
2026-01-17 16:01:02.66	70.07	23.82	-83.5	-79.0	2.4	0.00e+00	0	49	104	0	60	1048575
2026-01-17 16:01:03.67	69.67	23.90	-83.1	-79.0	2.4	0.00e+00	0	49	104	0	60	1048573
2026-01-17 16:01:04.68	69.26	23.98	-83.1	-79.0	2.4	0.00e+00	0	48	104	0	60	1048574
2026-01-17 16:01:05.69	68.85	24.07	-83.5	-79.0	2.3	0.00e+00	0	48	104	0	60	1048575
2026-01-17 16:01:06.69	68.44	24.15	-83.5	-79.0	2.3	0.00e+00	0	49	104	0	60	1048559
2026-01-17 16:01:07.70	68.03	24.23	-83.5	-79.0	2.3	0.00e+00	0	49	104	0	60	1048569
2026-01-17 16:01:08.71	67.61	24.31	-83.1	-79.0	2.3	0.00e+00	0	49	104	0	60	1048569
2026-01-17 16:01:09.72	67.19	24.39	-83.5	-79.0	2.6	0.00e+00	0	49	104	0	60	1048573
2026-01-17 16:01:10.72	66.77	24.46	-83.5	-79.0	2.3	0.00e+00	0	49	104	0	60	1048574
2026-01-17 16:01:11.73	66.35	24.54	-83.5	-79.0	2.6	0.00e+00	0	48	104	0	60	1048575
2026-01-17 16:01:12.74	65.92	24.61	-83.5	-79.0	2.5	0.00e+00	0	49	104	0	60	1048573
2026-01-17 16:01:13.75	65.49	24.68	-83.1	-79.0	2.5	0.00e+00	0	48	104	0	60	1048575
2026-01-17 16:01:14.75	65.06	24.76	-83.5	-79.0	2.4	0.00e+00	0	49	104	0	60	1048572
2026-01-17 16:01:15.76	64.63	24.83	-83.5	-79.0	2.5	0.00e+00	0	49	104	0	60	1048575
2026-01-17 16:01:16.76	64.20	24.89	-83.5	-79.0	2.4	0.00e+00	0	49	104	0	60	1048572
2026-01-17 16:01:17.77	63.76	24.96	-83.1	-79.0	2.3	0.00e+00	0	48	104	0	60	1048572
2026-01-17 16:01:18.77	63.33	25.03	-83.5	-79.0	2.3	0.00e+00	0	49	104	0	60	1048575
2026-01-17 16:01:19.78	62.89	25.09	-83.5	-79.0	2.4	0.00e+00	0	49	104	0	60	1048569
2026-01-17 16:01:20.79	62.44	25.15	-83.5	-79.0	2.3	0.00e+00	0	49	104	0	60	1048574
2026-01-17 16:01:21.80	62.00	25.21	-83.5	-79.0	2.6	0.00e+00	0	49	104	0	60	1048575
2026-01-17 16:01:22.81	61.55	25.27	-83.1	-79.0	2.4	0.00e+00	0	49	104	0	60	1048575
2026-01-17 16:01:23.81	61.10	25.33	-83.1	-79.0	2.3	0.00e+00	0	49	104	0	60	1048571
2026-01-17 16:01:24.82	60.65	25.39	-83.5	-79.0	2.5	0.00e+00	0	48	104	0	60	1048563
2026-01-17 16:01:25.83	60.20	25.44	-83.5	-79.0	2.4	0.00e+00	0	48	104	0	60	1048572
2026-01-17 16:01:26.84	59.75	25.50	-83.1	-79.0	2.4	0.00e+00	0	48	104	0	60	1048575
2026-01-17 16:01:27.84	59.30	25.55	-83.1	-79.0	2.5	0.00e+00	0	48	104	0	60	1048572
2026-01-17 16:01:28.84	58.84	25.60	-83.5	-79.0	2.4	0.00e+00	0	49	104	0	60	1048574
2026-01-17 16:01:29.85	58.38	25.65	-83.5	-79.0	2.5	0.00e+00	0	48	104	0	60	1048573
2026-01-17 16:01:30.85	57.93	25.69	-83.5	-79.0	2.5	0.00e+00	0	48	104	0	60	1048574
2026-01-17 16:01:31.86	57.46	25.74	-83.5	-79.0	2.5	0.00e+00	0	48	104	0	60	1048573
2026-01-17 16:01:32.87	57.00	25.78	-83.1	-79.0	2.4	0.00e+00	0	48	104	0	60	1048575
2026-01-17 16:01:33.88	56.54	25.82	-83.5	-79.0	2.5	0.00e+00	0	48	104	0	60	1048575
2026-01-17 16:01:34.88	56.07	25.86	-83.1	-79.0	2.4	0.00e+00	0	48	104	0	60	1048572
2026-01-17 16:01:35.88	55.61	25.90	-83.5	-79.0	2.4	0.00e+00	0	48	104	0	60	1048572
2026-01-17 16:01:36.89	55.14	25.93	-83.1	-79.0	2.4	0.00e+00	0	48	104	0	60	1048569
2026-01-17 16:01:37.89	54.68	25.96	-82.8	-79.0	2.3	0.00e+00	0	48	104	0	60	1048573
2026-01-17 16:01:38.90	54.21	26.00	-83.5	-79.0	2.4	0.00e+00	0	49	104	0	60	1048574
2026-01-17 16:01:39.91	53.74	26.03	-83.5	-79.0	2.4	0.00e+00	0	49	104	0	60	1048566
2026-01-17 16:01:40.91	53.27	26.05	-83.1	-79.0	2.4	0.00e+00	0	49	104	0	60	1048574
2026-01-17 16:01:41.93	52.79	26.08	-83.1	-79.0	2.5	0.00e+00	0	49	104	0	60	1048574
2026-01-17 16:01:42.93	52.32	26.10	-83.1	-79.0	2.4	0.00e+00	0	49	104	0	60	1048573
2026-01-17 16:01:43.94	51.84	26.13	-83.5	-79.0	2.6	0.00e+00	0	49	104	0	60	1048574
2026-01-17 16:01:44.95	51.37	26.15	-83.5	-79.0	2.4	0.00e+00	0	49	104	0	60	1048574
2026-01-17 16:01:45.95	50.90	26.16	-83.5	-79.0	2.4	0.00e+00	0	48	104	0	60	1048565
2026-01-17 16:01:46.96	50.42	26.18	-83.1	-79.0	2.5	0.00e+00	0	48	104	0	60	1048570
2026-01-17 16:01:47.97	49.94	26.19	-83.5	-79.0	2.4	0.00e+00	0	48	104	0	60	1048573
2026-01-17 16:01:48.97	49.47	26.21	-83.5	-79.0	2.5	0.00e+00	0	48	104	0	60	1048571
2026-01-17 16:01:49.98	48.99	26.22	-83.5	-79.0	2.5	0.00e+00	0	48	104	0	60	1048563
2026-01-17 16:01:50.98	48.52	26.22	-83.5	-79.0	2.5	0.00e+00	0	49	104	0	60	1048574
2026-01-17 16:01:51.99	48.04	26.23	-83.1	-79.0	2.4	0.00e+00	0	49	104	0	60	1048574
2026-01-17 16:01:52.99	47.56	26.24	-83.5	-79.0	2.5	0.00e+00	0	48	104	0	60	1048573
2026-01-17 16:01:54.00	47.09	26.24	-83.5	-79.0	2.5	0.00e+00	0	49	104	0	60	1048572
2026-01-17 16:01:55.00	46.61	26.24	-83.5	-79.0	2.5	0.00e+00	0	49	104	0	60	1048574
2026-01-17 16:01:56.01	46.13	26.24	-83.1	-79.0	2.4	0.00e+00	0	49	104	0	60	1048571
2026-01-17 16:01:57.02	45.65	26.23	-83.5	-79.0	2.5	0.00e+00	0	49	104	0	60	1048563
2026-01-17 16:01:58.02	45.18	26.23	-83.5	-79.0	2.3	0.00e+00	0	49	104	0	60	1048566
2026-01-17 16:01:59.03	44.70	26.22	-83.5	-79.0	2.3	0.00e+00	0	49	104	0	60	1048575
2026-01-17 16:02:00.03	44.23	26.21	-83.5	-79.0	2.6	0.00e+00	0	49	104	0	60	1048569
2026-01-17 16:02:01.03	43.75	26.20	-83.1	-79.0	2.4	0.00e+00	0	49	104	0	60	1048574
2026-01-17 16:02:02.04	43.28	26.18	-83.5	-79.0	2.5	0.00e+00	0	49	104	0	60	1048575
2026-01-17 16:02:03.05	42.80	26.17	-83.5	-79.0	2.5	0.00e+00	0	48	104	0	60	1048574
2026-01-17 16:02:04.05	42.33	26.15	-83.1	-79.0	2.3	0.00e+00	0	48	104	0	60	1048575
2026-01-17 16:02:05.06	41.85	26.13	-83.5	-79.0	2.4	0.00e+00	0	49	104	0	60	1048569
2026-01-17 16:02:06.06	41.38	26.11	-82.8	-79.0	2.4	0.00e+00	0	49	104	0	60	1048565
2026-01-17 16:02:07.07	40.91	26.08	-83.5	-79.0	2.4	0.00e+00	0	48	104	0	60	1048571
2026-01-17 16:02:08.08	40.43	26.06	-83.5	-79.0	2.5	0.00e+00	0	49	104	0	60	1048567
2026-01-17 16:02:09.09	39.96	26.03	-83.5	-79.0	2.4	0.00e+00	0	48	104	0	60	1048569
2026-01-17 16:02:10.09	39.50	26.00	-83.1	-79.0	2.5	0.00e+00	0	49	104	0	60	1048572
2026-01-17 16:02:11.10	39.02	25.97	-83.1	-79.0	2.6	0.00e+00	0	48	104	0	60	1048575
2026-01-17 16:02:12.11	38.56	25.94	-83.5	-79.0	2.4	0.00e+00	0	49	104	0	60	1048572
2026-01-17 16:02:13.11	38.09	25.90	-83.5	-79.0	2.4	0.00e+00	0	49	104	0	60	1048575
2026-01-17 16:02:14.12	37.62	25.86	-83.5	-79.0	2.4	0.00e+00	0	49	104	0	60	1048574
2026-01-17 16:02:15.13	37.16	25.83	-83.1	-79.0	2.6	0.00e+00	0	49	104	0	60	1048575
2026-01-17 16:02:16.14	36.69	25.78	-83.5	-79.0	2.4	0.00e+00	0	49	104	0	60	1048566
2026-01-17 16:02:17.15	36.23	25.74	-83.5	-79.0	2.5	0.00e+00	0	49	104	0	60	1048570
2026-01-17 16:02:18.16	35.77	25.70	-83.5	-79.0	2.5	0.00e+00	0	48	104	0	60	1048574
2026-01-17 16:02:19.17	35.31	25.65	-83.1	-79.0	2.4	0.00e+00	0	49	104	0	60	1048572
2026-01-17 16:02:20.17	34.85	25.60	-83.1	-79.0	2.4	0.00e+00	0	49	104	0	60	1048572
2026-01-17 16:02:21.18	34.40	25.56	-83.5	-79.0	2.4	0.00e+00	0	49	104	0	60	1048570
2026-01-17 16:02:22.19	33.94	25.50	-83.5	-79.0	2.5	0.00e+00	0	49	104	0	60	1048574
2026-01-17 16:02:23.19	33.49	25.45	-83.5	-79.0	2.7	0.00e+00	0	49	104	0	60	1048573
2026-01-17 16:02:24.20	33.04	25.40	-83.1	-79.0	2.3	0.00e+00	0	49	104	0	60	1048575
2026-01-17 16:02:25.20	32.59	25.34	-83.1	-79.0	2.5	0.00e+00	0	48	104	0	60	1048569
2026-01-17 16:02:26.21	32.15	25.28	-83.5	-79.0	2.4	0.00e+00	0	49	104	0	60	1048575
2026-01-17 16:02:27.22	31.70	25.22	-83.5	-79.0	2.3	0.00e+00	0	49	104	0	60	1048575
2026-01-17 16:02:28.22	31.26	25.16	-83.5	-79.0	2.2	0.00e+00	0	49	104	0	60	1048575
2026-01-17 16:02:29.23	30.82	25.10	-83.1	-79.0	2.5	0.00e+00	0	49	104	0	60	1048566
2026-01-17 16:02:30.24	30.37	25.04	-83.5	-79.0	2.5	0.00e+00	0	49	104	0	60	1048572
2026-01-17 16:02:31.24	29.94	24.97	-83.5	-79.0	2.3	0.00e+00	0	49	104	0	60	1048570
2026-01-17 16:02:32.25	29.50	24.91	-83.5	-79.0	2.4	0.00e+00	0	49	104	0	60	1048571
2026-01-17 16:02:33.26	29.07	24.84	-83.1	-79.0	2.5	0.00e+00	0	49	104	0	60	1048572
2026-01-17 16:02:34.27	28.63	24.77	-83.1	-79.0	2.4	0.00e+00	0	49	104	0	60	1048569
2026-01-17 16:02:35.28	28.20	24.70	-83.1	-79.0	2.7	0.00e+00	0	49	104	0	60	1048572
2026-01-17 16:02:36.28	27.78	24.62	-83.1	-79.0	2.5	0.00e+00	0	49	104	0	60	1048575
2026-01-17 16:02:37.29	27.35	24.55	-83.5	-79.0	2.5	0.00e+00	0	49	104	0	60	1048571
2026-01-17 16:02:38.29	26.93	24.48	-83.1	-79.0	2.3	0.00e+00	0	49	104	0	60	1048573
2026-01-17 16:02:39.29	26.52	24.40	-83.1	-79.0	2.5	0.00e+00	0	49	104	0	60	1048575
2026-01-17 16:02:40.30	26.10	24.32	-83.5	-79.0	2.4	0.00e+00	0	49	104	0	60	1048569
2026-01-17 16:02:41.30	25.68	24.24	-83.5	-79.0	2.4	0.00e+00	0	48	104	0	60	1048575
2026-01-17 16:02:42.31	25.27	24.16	-83.5	-79.0	2.4	0.00e+00	0	49	104	0	60	1048574
2026-01-17 16:02:43.32	24.86	24.08	-83.1	-79.0	2.4	0.00e+00	0	49	104	0	60	1048575
2026-01-17 16:02:44.33	24.45	24.00	-83.5	-79.0	2.4	0.00e+00	0	49	104	0	60	1048575
2026-01-17 16:02:45.33	24.04	23.92	-83.1	-79.0	2.5	0.00e+00	0	49	104	0	60	1048574
2026-01-17 16:02:46.34	23.64	23.83	-83.5	-79.0	2.4	0.00e+00	0	49	104	0	60	1048572
2026-01-17 16:02:47.35	23.24	23.75	-83.5	-79.0	2.6	0.00e+00	0	49	104	0	60	1048573
2026-01-17 16:02:48.36	22.84	23.66	-83.1	-79.0	2.3	0.00e+00	0	49	104	0	60	1048575
2026-01-17 16:02:49.37	22.44	23.57	-83.1	-79.0	2.4	0.00e+00	0	49	104	0	60	1048575
2026-01-17 16:02:50.37	22.05	23.48	-83.5	-79.0	2.4	0.00e+00	0	49	104	0	60	1048574
2026-01-17 16:02:51.38	21.66	23.39	-83.5	-79.0	2.4	0.00e+00	0	49	104	0	60	1048569
2026-01-17 16:02:52.38	21.27	23.31	-83.5	-79.0	2.4	0.00e+00	0	49	104	0	60	1048570
2026-01-17 16:02:53.39	20.88	23.21	-83.1	-79.0	2.4	0.00e+00	0	49	104	0	60	1048574
2026-01-17 16:02:54.40	20.50	23.12	-83.5	-79.0	2.4	0.00e+00	0	49	104	0	60	1048575
2026-01-17 16:02:55.40	20.12	23.03	-83.5	-79.0	2.3	0.00e+00	0	49	104	0	60	1048556
2026-01-17 16:02:56.41	19.74	22.94	-83.5	-79.0	2.5	0.00e+00	0	49	104	0	60	1048575
2026-01-17 16:02:57.41	19.37	22.84	-83.1	-79.0	2.4	0.00e+00	0	49	104	0	60	1048574
2026-01-17 16:02:58.41	18.99	22.75	-83.1	-79.0	2.6	0.00e+00	0	49	104	0	60	1048569
2026-01-17 16:02:59.41	18.63	22.65	-83.5	-79.0	2.5	0.00e+00	0	49	104	0	60	1048575
2026-01-17 16:03:00.41	18.26	22.56	-83.5	-79.0	2.5	0.00e+00	0	49	104	0	60	1048575
2026-01-17 16:03:01.42	17.89	22.46	-83.5	-79.0	2.8	0.00e+00	0	49	104	0	60	1048572
2026-01-17 16:03:02.43	17.53	22.36	-83.1	-79.0	2.6	0.00e+00	0	49	104	0	60	1048574
2026-01-17 16:03:03.43	17.17	22.26	-83.1	-79.0	2.2	0.00e+00	0	49	104	0	60	1048569
2026-01-17 16:03:04.44	16.81	22.16	-83.5	-79.0	2.6	0.00e+00	0	49	104	0	60	1048571
2026-01-17 16:03:05.44	16.46	22.06	-83.5	-79.0	2.3	0.00e+00	0	49	104	0	60	1048574
2026-01-17 16:03:06.45	16.11	21.96	-83.5	-79.0	2.6	0.00e+00	0	49	104	0	60	1048573
2026-01-17 16:03:07.45	15.76	21.86	-83.1	-79.0	2.4	0.00e+00	0	49	104	0	60	1048575
2026-01-17 16:03:08.46	15.41	21.76	-83.5	-79.0	2.7	0.00e+00	0	49	104	0	60	1048573
2026-01-17 16:03:09.46	15.07	21.66	-83.5	-79.0	2.5	0.00e+00	0	49	104	0	60	1048574
2026-01-17 16:03:10.47	14.72	21.56	-83.5	-79.0	2.5	0.00e+00	0	49	104	0	60	1048574
2026-01-17 16:03:11.47	14.39	21.45	-83.5	-79.0	2.5	0.00e+00	0	49	104	0	60	1048575
2026-01-17 16:03:12.48	14.05	21.35	-82.8	-79.0	2.3	0.00e+00	0	49	104	0	60	1048574
2026-01-17 16:03:13.49	13.71	21.25	-83.5	-79.0	2.3	0.00e+00	0	49	104	0	60	1048575
2026-01-17 16:03:14.49	13.38	21.14	-83.5	-79.0	2.3	0.00e+00	0	49	104	0	60	1048575
2026-01-17 16:03:15.50	13.05	21.04	-83.5	-79.0	2.4	0.00e+00	0	49	104	0	60	1048572
2026-01-17 16:03:16.51	12.72	20.93	-83.1	-79.0	2.4	0.00e+00	0	49	104	0	60	1048575
2026-01-17 16:03:17.51	12.40	20.83	-83.1	-79.0	2.4	0.00e+00	0	49	104	0	60	1048575
2026-01-17 16:03:18.52	12.08	20.72	-83.5	-79.0	2.4	0.00e+00	0	49	104	0	60	1048572
2026-01-17 16:03:19.53	11.76	20.62	-83.5	-79.0	2.4	0.00e+00	0	49	104	0	60	1048571
2026-01-17 16:03:20.54	11.44	20.51	-83.5	-79.0	2.4	0.00e+00	0	49	104	0	60	1048570
2026-01-17 16:03:21.55	11.12	20.40	-83.1	-79.0	2.5	0.00e+00	0	49	104	0	60	1048575
2026-01-17 16:03:22.56	10.81	20.30	-83.5	-79.0	2.5	0.00e+00	0	49	104	0	60	1048565
2026-01-17 16:03:23.56	10.50	20.19	-83.5	-79.0	2.4	0.00e+00	0	49	104	0	60	1048573
2026-01-17 16:03:24.56	10.20	20.08	-83.5	-79.0	2.3	0.00e+00	0	49	104	0	60	1048575
2026-01-17 16:03:25.57	9.89	19.98	-83.5	-79.0	2.4	0.00e+00	0	49	104	0	60	1048573
2026-01-17 16:03:26.58	9.59	19.87	-82.8	-79.0	2.4	0.00e+00	0	49	104	0	60	1048571
2026-01-17 16:03:27.58	9.29	19.76	-83.5	-79.0	2.5	0.00e+00	0	49	104	0	60	1048574
2026-01-17 16:03:28.59	9.00	19.65	-83.5	-79.0	2.4	0.00e+00	0	49	104	0	60	1048574
2026-01-17 16:03:29.59	8.70	19.55	-83.5	-79.0	2.4	0.00e+00	0	49	104	0	60	1048566
2026-01-17 16:03:30.60	8.41	19.44	-83.5	-79.0	2.5	0.00e+00	0	49	104	0	60	1048566
2026-01-17 16:03:31.60	8.12	19.33	-83.1	-79.0	2.4	0.00e+00	0	49	104	0	60	1048573
2026-01-17 16:03:32.61	7.83	19.22	-83.5	-79.0	2.3	0.00e+00	0	49	104	0	60	1048574
2026-01-17 16:03:33.62	7.55	19.11	-83.5	-79.0	2.4	0.00e+00	0	49	104	0	60	1048574
2026-01-17 16:03:34.63	7.26	19.00	-83.5	-79.0	2.5	0.00e+00	0	49	104	0	60	1048574
2026-01-17 16:03:35.63	6.98	18.90	-82.8	-79.0	2.6	0.00e+00	0	49	104	0	60	1048575
2026-01-17 16:03:36.64	6.70	18.79	-82.8	-79.0	2.4	0.00e+00	0	49	104	0	60	1048574
2026-01-17 16:03:37.64	6.43	18.68	-83.5	-79.0	2.5	0.00e+00	0	49	104	0	60	1048575
2026-01-17 16:03:38.65	6.16	18.57	-83.5	-79.0	2.2	0.00e+00	0	49	104	0	60	1048571
2026-01-17 16:03:39.65	5.89	18.46	-83.5	-79.0	2.7	0.00e+00	0	49	104	0	60	1048575
2026-01-17 16:03:40.66	5.62	18.36	-83.1	-79.0	2.3	0.00e+00	0	49	104	0	60	1048574
2026-01-17 16:03:41.66	5.35	18.25	-83.5	-79.0	2.4	0.00e+00	0	49	104	0	60	1048575
2026-01-17 16:03:42.66	5.09	18.14	-83.5	-79.0	2.3	0.00e+00	0	49	104	0	60	1048575
2026-01-17 16:03:43.66	4.83	18.03	-83.5	-79.0	2.4	0.00e+00	0	49	104	0	60	1048572
2026-01-17 16:03:44.66	4.57	17.93	-83.5	-79.0	2.3	0.00e+00	0	49	104	0	60	1048570
2026-01-17 16:03:45.67	4.31	17.82	-83.1	-79.0	2.4	0.00e+00	0	49	104	0	60	1048574
2026-01-17 16:03:46.68	4.05	17.71	-83.5	-79.0	2.4	0.00e+00	0	49	104	0	60	1048573
2026-01-17 16:03:47.69	3.80	17.60	-83.5	-79.0	2.4	0.00e+00	0	49	104	0	60	1048571
2026-01-17 16:03:48.69	3.55	17.49	-83.5	-79.0	2.4	0.00e+00	0	49	104	0	60	1048572
2026-01-17 16:03:49.70	3.30	17.38	-83.1	-79.0	2.4	0.00e+00	0	49	104	0	60	1048572
2026-01-17 16:03:50.71	3.05	17.28	-83.1	-79.0	2.4	0.00e+00	0	49	104	0	60	1048575
2026-01-17 16:03:51.71	2.81	17.17	-83.5	-79.0	2.7	0.00e+00	0	49	104	0	60	1048574
2026-01-17 16:03:52.72	2.56	17.06	-83.5	-79.0	2.4	0.00e+00	0	49	104	0	60	1048570
2026-01-17 16:03:53.73	2.32	16.95	-83.5	-79.0	2.4	0.00e+00	0	49	104	0	60	1048575
2026-01-17 16:03:54.73	2.08	16.85	-83.1	-79.0	2.3	0.00e+00	0	49	104	0	60	1048574
2026-01-17 16:03:55.74	1.84	16.74	-83.1	-79.0	2.5	0.00e+00	0	49	104	0	60	1048573
2026-01-17 16:03:56.75	1.61	16.63	-83.5	-79.0	2.4	0.00e+00	0	49	104	0	60	1048572
2026-01-17 16:03:57.75	1.37	16.53	-83.5	-79.0	2.4	0.00e+00	0	49	104	0	60	1048572
2026-01-17 16:03:58.75	1.14	16.42	-83.5	-79.0	2.4	0.00e+00	0	49	104	0	60	1048575
2026-01-17 16:03:59.76	0.91	16.31	-83.1	-79.0	2.3	0.00e+00	0	49	104	0	60	1048571
2026-01-17 16:04:00.77	0.69	16.21	-83.5	-79.0	2.4	0.00e+00	0	49	104	0	60	1048570
2026-01-17 16:04:01.77	0.46	16.10	-83.5	-79.0	2.5	0.00e+00	0	49	104	0	60	1048566
2026-01-17 16:04:02.78	0.24	16.00	-83.5	-79.0	2.4	0.00e+00	0	49	104	0	60	1048572
2026-01-17 16:04:03.79	0.01	15.89	-83.5	-79.0	2.4	0.00e+00	0	49	104	0	60	1048575
2026-01-17 16:04:04.80	359.79	15.79	-82.8	-79.0	2.4	0.00e+00	0	49	104	0	60	1048571
2026-01-17 16:04:05.80	359.58	15.68	-83.5	-79.0	2.4	0.00e+00	0	49	104	0	60	1048573
2026-01-17 16:04:06.81	359.36	15.58	-83.5	-79.0	2.4	0.00e+00	0	49	104	0	60	1048570
2026-01-17 16:04:07.82	359.14	15.47	-83.5	-79.0	2.5	0.00e+00	0	49	104	0	60	1048573
2026-01-17 16:04:08.83	358.93	15.37	-83.1	-79.0	2.4	0.00e+00	0	49	104	0	60	1048571
2026-01-17 16:04:09.84	358.72	15.26	-83.1	-79.0	2.5	0.00e+00	0	49	104	0	60	1048575
2026-01-17 16:04:10.84	358.51	15.16	-83.5	-79.0	2.5	0.00e+00	0	49	104	0	60	1048573
2026-01-17 16:04:11.85	358.30	15.05	-83.5	-79.0	2.4	0.00e+00	0	49	104	0	60	1048573
2026-01-17 16:04:12.86	358.09	14.95	-83.5	-79.0	2.4	0.00e+00	0	49	104	0	60	1048575
2026-01-17 16:04:13.87	357.89	14.85	-83.1	-79.0	2.6	0.00e+00	0	49	104	0	60	1048574
2026-01-17 16:04:14.88	357.69	14.74	-83.1	-79.0	2.5	0.00e+00	0	49	104	0	60	1048575
2026-01-17 16:04:15.88	357.49	14.64	-83.5	-79.0	2.7	0.00e+00	0	49	104	0	60	1048574
2026-01-17 16:04:16.89	357.29	14.54	-83.5	-79.0	2.5	0.00e+00	0	49	104	0	60	1048568
2026-01-17 16:04:17.89	357.09	14.44	-83.5	-79.0	2.5	0.00e+00	0	49	104	0	60	1048575
2026-01-17 16:04:18.90	356.89	14.33	-82.8	-79.0	2.6	0.00e+00	0	49	104	0	60	1048574
2026-01-17 16:04:19.91	356.70	14.23	-83.1	-79.0	2.3	0.00e+00	0	49	104	0	60	1048572
2026-01-17 16:04:20.91	356.51	14.13	-83.5	-79.0	2.4	0.00e+00	0	49	104	0	60	1048559
2026-01-17 16:04:21.92	356.32	14.03	-83.5	-79.0	2.4	0.00e+00	0	49	104	0	60	1048574
2026-01-17 16:04:22.92	356.13	13.93	-83.5	-79.0	2.4	0.00e+00	0	49	104	0	60	1048573
2026-01-17 16:04:23.93	355.94	13.83	-83.1	-79.0	2.4	0.00e+00	0	48	104	0	60	1048574
2026-01-17 16:04:24.93	355.75	13.73	-83.1	-79.0	2.3	0.00e+00	0	49	104	0	60	1048575
2026-01-17 16:04:25.93	355.57	13.63	-83.5	-79.0	2.5	0.00e+00	0	49	104	0	60	1048574
2026-01-17 16:04:26.94	355.39	13.53	-83.5	-79.0	2.4	0.00e+00	0	49	104	0	60	1048573
2026-01-17 16:04:27.94	355.21	13.43	-83.1	-79.0	2.4	0.00e+00	0	49	104	0	60	1048569
2026-01-17 16:04:28.95	355.02	13.33	-83.1	-79.0	2.5	0.00e+00	0	49	104	0	60	1048575
2026-01-17 16:04:29.95	354.85	13.23	-83.5	-79.0	2.4	0.00e+00	0	49	104	0	60	1048573
2026-01-17 16:04:30.96	354.67	13.13	-83.5	-79.0	2.4	0.00e+00	0	49	104	0	60	1048574
2026-01-17 16:04:31.96	354.49	13.03	-83.5	-79.0	2.4	0.00e+00	0	49	104	0	60	1048575
2026-01-17 16:04:32.97	354.32	12.94	-83.1	-79.0	2.4	0.00e+00	0	49	104	0	60	1048573
2026-01-17 16:04:33.97	354.15	12.84	-83.1	-79.0	2.3	0.00e+00	0	49	104	0	60	1048574
2026-01-17 16:04:34.98	353.97	12.74	-83.5	-79.0	2.4	0.00e+00	0	49	104	0	60	1048575
2026-01-17 16:04:35.98	353.80	12.64	-83.5	-79.0	2.4	0.00e+00	0	49	104	0	60	1048574
2026-01-17 16:04:36.99	353.64	12.55	-83.5	-79.0	2.5	0.00e+00	0	49	104	0	60	1048575
2026-01-17 16:04:37.99	353.47	12.45	-82.8	-79.0	2.4	0.00e+00	0	49	104	0	60	1048575
2026-01-17 16:04:39.00	353.30	12.35	-83.5	-79.0	2.4	0.00e+00	0	49	104	0	60	1048575
2026-01-17 16:04:40.00	353.14	12.26	-83.5	-79.0	2.4	0.00e+00	0	49	104	0	60	1048575
2026-01-17 16:04:41.01	352.97	12.16	-83.5	-79.0	2.4	0.00e+00	0	49	104	0	60	1048574
2026-01-17 16:04:42.01	352.81	12.07	-83.5	-79.0	2.4	0.00e+00	0	49	104	0	60	1048575
2026-01-17 16:04:43.01	352.65	11.97	-83.1	-79.0	2.8	0.00e+00	0	49	104	0	60	1048573
2026-01-17 16:04:44.02	352.49	11.88	-83.5	-79.0	2.4	0.00e+00	0	49	104	0	60	1048573
2026-01-17 16:04:45.03	352.33	11.78	-83.5	-79.0	2.7	0.00e+00	0	49	104	0	60	1048571
2026-01-17 16:04:46.04	352.17	11.69	-83.5	-79.0	2.4	0.00e+00	0	49	104	0	60	1048574
2026-01-17 16:04:47.05	352.02	11.59	-83.1	-79.0	2.8	0.00e+00	0	49	104	0	60	1048572
2026-01-17 16:04:48.05	351.86	11.50	-83.1	-79.0	2.4	0.00e+00	0	49	104	0	60	1048571
2026-01-17 16:04:49.06	351.71	11.41	-83.5	-79.0	2.5	0.00e+00	0	49	104	0	60	1048574
2026-01-17 16:04:50.06	351.56	11.31	-83.5	-79.0	2.6	0.00e+00	0	49	104	0	60	1048573
2026-01-17 16:04:51.07	351.41	11.22	-83.5	-79.0	2.5	0.00e+00	0	49	104	0	60	1048574
2026-01-17 16:04:52.07	351.26	11.13	-83.1	-79.0	2.4	0.00e+00	0	49	104	0	60	1048573
2026-01-17 16:04:53.08	351.11	11.04	-83.1	-79.0	2.7	0.00e+00	0	49	104	0	60	1048569
2026-01-17 16:04:54.08	350.96	10.94	-83.5	-79.0	2.4	0.00e+00	0	49	104	0	60	1048572
2026-01-17 16:04:55.08	350.81	10.85	-83.5	-79.0	2.4	0.00e+00	0	49	104	0	60	1048569
2026-01-17 16:04:56.08	350.67	10.76	-83.5	-79.0	2.4	0.00e+00	0	49	104	0	60	1048567
2026-01-17 16:04:57.08	350.53	10.67	-83.1	-79.0	2.5	0.00e+00	0	49	104	0	60	1048575
2026-01-17 16:04:58.09	350.38	10.58	-83.5	-79.0	2.5	0.00e+00	0	49	104	0	60	1048574
2026-01-17 16:04:59.09	350.24	10.49	-83.5	-79.0	2.4	0.00e+00	0	49	104	0	60	1048574
2026-01-17 16:05:00.10	350.10	10.40	-83.1	-79.0	2.4	0.00e+00	0	49	104	0	60	1048574
2026-01-17 16:05:01.11	349.96	10.31	-83.5	-79.0	2.4	0.00e+00	0	49	104	0	60	1048573
2026-01-17 16:05:02.12	349.82	10.22	-83.1	-79.0	2.4	0.00e+00	0	49	104	0	60	1048567
2026-01-17 16:05:03.13	349.68	10.13	-83.5	-79.0	2.5	0.00e+00	0	49	104	0	60	1048575
2026-01-17 16:05:04.13	349.55	10.04	-83.5	-79.0	2.4	0.00e+00	0	49	104	0	60	1048573
2026-01-17 16:05:05.14	349.41	9.95	-83.5	-79.0	2.5	0.00e+00	0	49	104	0	60	1048574
2026-01-17 16:05:06.14	349.28	9.86	-82.8	-79.0	2.3	0.00e+00	0	49	104	0	60	1048571
2026-01-17 16:05:07.15	349.14	9.78	-83.1	-79.0	2.4	0.00e+00	0	49	104	0	60	1048567
2026-01-17 16:05:08.16	349.01	9.69	-83.5	-79.0	2.4	0.00e+00	0	49	104	0	60	1048574
2026-01-17 16:05:09.17	348.88	9.60	-83.5	-79.0	2.5	0.00e+00	0	49	104	0	60	1048571
2026-01-17 16:05:10.17	348.75	9.51	-83.5	-79.0	2.6	0.00e+00	0	49	104	0	60	1048573
2026-01-17 16:05:11.18	348.62	9.42	-83.1	-79.0	2.4	0.00e+00	0	49	104	0	60	1048573
2026-01-17 16:05:12.19	348.49	9.34	-83.1	-79.0	2.5	0.00e+00	0	49	104	0	60	1048567
2026-01-17 16:05:13.19	348.36	9.25	-83.5	-79.0	2.4	0.00e+00	0	49	104	0	60	1048568
2026-01-17 16:05:14.20	348.23	9.16	-83.5	-79.0	2.6	0.00e+00	0	49	104	0	60	1048575
2026-01-17 16:05:15.21	348.11	9.08	-83.1	-79.0	2.4	0.00e+00	0	49	104	0	60	1048572
2026-01-17 16:05:16.22	347.98	8.99	-83.1	-79.0	2.5	0.00e+00	0	49	104	0	60	1048572
2026-01-17 16:05:17.22	347.86	8.91	-83.1	-79.0	2.4	0.00e+00	0	49	104	0	60	1048564
2026-01-17 16:05:18.23	347.73	8.82	-83.5	-79.0	2.4	0.00e+00	0	49	104	0	60	1048575
2026-01-17 16:05:19.24	347.61	8.74	-83.5	-79.0	2.4	0.00e+00	0	49	104	0	60	1048572
2026-01-17 16:05:20.25	347.49	8.65	-83.1	-79.0	2.4	0.00e+00	0	49	104	0	60	1048566
2026-01-17 16:05:21.25	347.37	8.57	-83.1	-79.0	2.5	0.00e+00	0	49	104	0	60	1048569
2026-01-17 16:05:22.26	347.25	8.48	-83.5	-79.0	2.4	0.00e+00	0	49	104	0	60	1048564
2026-01-17 16:05:23.27	347.13	8.40	-83.5	-79.0	2.4	0.00e+00	0	49	104	0	60	1048570
2026-01-17 16:05:24.28	347.01	8.32	-83.5	-79.0	2.4	0.00e+00	0	49	104	0	60	1048575
2026-01-17 16:05:25.28	346.90	8.23	-83.1	-79.0	2.5	0.00e+00	0	49	104	0	60	1048571
2026-01-17 16:05:26.29	346.78	8.15	-83.1	-79.0	2.5	0.00e+00	0	49	104	0	60	1048574
2026-01-17 16:05:27.30	346.66	8.07	-83.5	-79.0	2.3	0.00e+00	0	49	104	0	60	1048574
2026-01-17 16:05:28.31	346.55	7.98	-83.5	-79.0	2.4	0.00e+00	0	49	104	0	60	1048572
2026-01-17 16:05:29.31	346.44	7.90	-83.5	-79.0	2.5	0.00e+00	0	49	104	0	60	1048575
2026-01-17 16:05:30.32	346.32	7.82	-83.1	-79.0	2.4	0.00e+00	0	49	104	0	60	1048574
2026-01-17 16:05:31.33	346.21	7.74	-83.5	-79.0	2.5	0.00e+00	0	49	104	0	60	1048565
2026-01-17 16:05:32.34	346.10	7.66	-83.5	-79.0	2.3	0.00e+00	0	49	104	0	60	1048572
2026-01-17 16:05:33.35	345.99	7.57	-83.5	-79.0	2.4	0.00e+00	0	49	104	0	60	1048564
2026-01-17 16:05:34.35	345.88	7.49	-83.5	-79.0	2.8	0.00e+00	0	49	104	0	60	1048575
2026-01-17 16:05:35.36	345.77	7.41	-83.1	-79.0	2.4	0.00e+00	0	49	104	0	60	1048575
2026-01-17 16:05:36.37	345.66	7.33	-83.5	-79.0	2.9	0.00e+00	0	49	104	0	60	1048573
2026-01-17 16:05:37.37	345.56	7.25	-83.5	-79.0	2.5	0.00e+00	0	49	104	0	60	1048568
2026-01-17 16:05:38.38	345.45	7.17	-83.5	-79.0	2.7	0.00e+00	0	49	104	0	60	1048575
2026-01-17 16:05:39.38	345.34	7.09	-83.1	-79.0	2.4	0.00e+00	0	49	104	0	60	1048573
2026-01-17 16:05:40.39	345.24	7.01	-83.5	-79.0	2.4	0.00e+00	0	49	104	0	60	1048574
2026-01-17 16:05:41.39	345.13	6.93	-83.1	-79.0	2.6	0.00e+00	0	49	104	0	60	1048574
2026-01-17 16:05:42.40	345.03	6.86	-83.5	-79.0	2.1	0.00e+00	0	49	104	0	60	1048575
2026-01-17 16:05:43.40	344.93	6.78	-83.5	-79.0	2.6	0.00e+00	0	49	104	0	60	1048574
2026-01-17 16:05:44.41	344.83	6.70	-82.8	-79.0	2.5	0.00e+00	0	49	104	0	60	1048575
2026-01-17 16:05:45.42	344.72	6.62	-83.5	-79.0	2.4	0.00e+00	0	49	104	0	60	1048560
2026-01-17 16:05:46.43	344.62	6.54	-83.5	-79.0	2.3	0.00e+00	0	49	104	0	60	1048573
2026-01-17 16:05:47.43	344.52	6.46	-83.5	-79.0	2.4	0.00e+00	0	49	104	0	60	1048575
2026-01-17 16:05:48.44	344.42	6.39	-83.1	-79.0	2.5	0.00e+00	0	49	104	0	60	1048571
2026-01-17 16:05:49.45	344.32	6.31	-83.1	-79.0	2.4	0.00e+00	0	49	104	0	60	1048572
2026-01-17 16:05:50.46	344.23	6.23	-83.1	-79.0	2.4	0.00e+00	0	49	104	0	60	1048571
2026-01-17 16:05:51.47	344.13	6.15	-83.5	-79.0	2.4	0.00e+00	0	49	104	0	60	1048573
2026-01-17 16:05:52.48	344.03	6.08	-83.5	-79.0	2.4	0.00e+00	0	49	104	0	60	1048574
2026-01-17 16:05:53.49	343.94	6.00	-83.5	-79.0	2.4	0.00e+00	0	49	104	0	60	1048573
2026-01-17 16:05:54.49	343.84	5.93	-83.1	-79.0	2.4	0.00e+00	0	49	104	0	60	1048575
2026-01-17 16:05:55.50	343.75	5.85	-83.5	-79.0	2.5	0.00e+00	0	49	104	0	60	1048575
2026-01-17 16:05:56.51	343.65	5.77	-83.1	-79.0	2.6	0.00e+00	0	49	104	0	60	1048574
2026-01-17 16:05:57.52	343.56	5.70	-83.5	-79.0	2.4	0.00e+00	0	49	104	0	60	1048569
2026-01-17 16:05:58.52	343.47	5.62	-83.1	-79.0	2.6	0.00e+00	0	49	104	0	60	1048575
2026-01-17 16:05:59.53	343.37	5.55	-83.1	-79.0	2.5	0.00e+00	0	49	104	0	60	1048575
2026-01-17 16:06:00.54	343.28	5.47	-83.5	-79.0	2.5	0.00e+00	0	49	104	0	60	1048574
2026-01-17 16:06:01.53	343.19	5.40	-83.5	-79.0	2.4	0.00e+00	0	49	104	0	60	1048575
2026-01-17 16:06:02.54	343.10	5.33	-83.5	-79.0	2.5	0.00e+00	0	49	104	0	60	1048575
2026-01-17 16:06:03.55	343.01	5.25	-83.1	-79.0	2.3	0.00e+00	0	49	104	0	60	1048575
2026-01-17 16:06:04.56	342.92	5.18	-83.1	-79.0	2.2	0.00e+00	0	49	104	0	60	1048573
2026-01-17 16:06:05.56	342.83	5.10	-83.5	-79.0	2.5	0.00e+00	0	49	104	0	60	1048573
2026-01-17 16:06:06.57	342.75	5.03	-83.5	-79.0	2.3	0.00e+00	0	49	104	0	60	1048571
2026-01-17 16:06:07.58	342.66	4.96	-83.1	-79.0	2.6	0.00e+00	0	49	104	0	60	1048571
2026-01-17 16:06:08.59	342.57	4.88	-83.1	-79.0	2.5	0.00e+00	0	49	104	0	60	1048574
2026-01-17 16:06:09.59	342.48	4.81	-83.5	-79.0	2.5	0.00e+00	0	49	104	0	60	1048575
2026-01-17 16:06:10.60	342.40	4.74	-83.1	-79.0	2.4	0.00e+00	0	49	104	0	60	1048575
2026-01-17 16:06:11.61	342.31	4.67	-83.5	-79.0	2.4	0.00e+00	0	49	104	0	60	1048568
2026-01-17 16:06:12.62	342.23	4.59	-83.1	-79.0	2.5	0.00e+00	0	49	104	0	60	1048573
2026-01-17 16:06:13.62	342.14	4.52	-83.5	-79.0	2.4	0.00e+00	0	49	104	0	60	1048575
2026-01-17 16:06:14.62	342.06	4.45	-83.5	-79.0	2.5	0.00e+00	0	49	104	0	60	1048575
2026-01-17 16:06:15.63	341.98	4.38	-83.5	-79.0	2.4	0.00e+00	0	49	104	0	60	1048574
2026-01-17 16:06:16.64	341.90	4.31	-83.1	-79.0	2.4	0.00e+00	0	49	104	0	60	1048575
2026-01-17 16:06:17.64	341.81	4.24	-83.1	-79.0	2.4	0.00e+00	0	49	104	0	60	1048575
2026-01-17 16:06:18.65	341.73	4.16	-83.5	-79.0	2.4	0.00e+00	0	49	104	0	60	1048575
2026-01-17 16:06:19.66	341.65	4.09	-83.5	-79.0	2.4	0.00e+00	0	49	104	0	60	1048575
2026-01-17 16:06:20.67	341.57	4.02	-83.5	-79.0	2.4	0.00e+00	0	49	104	0	60	1048574
2026-01-17 16:06:21.67	341.49	3.95	-83.5	-79.0	2.3	0.00e+00	0	49	104	0	60	1048568
2026-01-17 16:06:22.68	341.41	3.88	-83.1	-79.0	2.5	0.00e+00	0	49	104	0	60	1048575
2026-01-17 16:06:23.69	341.33	3.81	-83.1	-79.0	2.4	0.00e+00	0	49	104	0	60	1048568
2026-01-17 16:06:24.70	341.25	3.74	-83.5	-79.0	2.5	0.00e+00	0	49	104	0	60	1048573
2026-01-17 16:06:25.71	341.18	3.67	-83.5	-79.0	2.4	0.00e+00	0	49	104	0	60	1048571
2026-01-17 16:06:26.71	341.10	3.60	-83.5	-79.0	2.5	0.00e+00	0	49	104	0	60	1048575
2026-01-17 16:06:27.72	341.02	3.53	-83.1	-79.0	2.6	0.00e+00	0	49	104	0	60	1048575
2026-01-17 16:06:28.72	340.95	3.47	-83.5	-79.0	2.3	0.00e+00	0	49	104	0	60	1048571
2026-01-17 16:06:29.73	340.87	3.40	-83.5	-79.0	2.5	0.00e+00	0	49	104	0	60	1048575
2026-01-17 16:06:30.73	340.80	3.33	-83.5	-79.0	2.2	0.00e+00	0	49	104	0	60	1048570
2026-01-17 16:06:31.74	340.72	3.26	-83.1	-79.0	2.4	0.00e+00	0	49	104	0	60	1048573
2026-01-17 16:06:32.74	340.65	3.19	-83.5	-79.0	2.5	0.00e+00	0	49	104	0	60	1048573
2026-01-17 16:06:33.75	340.57	3.12	-83.5	-79.0	2.4	0.00e+00	0	49	104	0	60	1048574
2026-01-17 16:06:34.75	340.50	3.06	-83.5	-79.0	2.3	0.00e+00	0	49	104	0	60	1048572
2026-01-17 16:06:35.76	340.43	2.99	-83.5	-79.0	2.4	0.00e+00	0	49	104	0	60	1048572
2026-01-17 16:06:36.77	340.35	2.92	-83.1	-79.0	2.5	0.00e+00	0	49	104	0	60	1048573
2026-01-17 16:06:37.78	340.28	2.85	-83.5	-79.0	2.4	0.00e+00	0	49	104	0	60	1048569
2026-01-17 16:06:38.79	340.21	2.78	-83.5	-79.0	2.4	0.00e+00	0	49	104	0	60	1048568
2026-01-17 16:06:39.79	340.14	2.72	-83.1	-79.0	2.6	0.00e+00	0	49	104	0	60	1048575
2026-01-17 16:06:40.79	340.07	2.65	-83.5	-79.0	2.5	0.00e+00	0	49	104	0	60	1048566
2026-01-17 16:06:41.80	340.00	2.58	-83.1	-79.0	2.9	0.00e+00	0	49	104	0	60	1048571
2026-01-17 16:06:42.81	339.93	2.52	-83.5	-79.0	2.4	0.00e+00	0	49	104	0	60	1048572
2026-01-17 16:06:43.82	339.86	2.45	-83.5	-79.0	2.3	0.00e+00	0	49	104	0	60	1048574
2026-01-17 16:06:44.82	339.79	2.39	-83.5	-79.0	2.4	0.00e+00	0	49	104	0	60	1048563
2026-01-17 16:06:45.83	339.72	2.32	-82.8	-79.0	2.4	0.00e+00	0	49	104	0	60	1048574
2026-01-17 16:06:46.83	339.65	2.25	-83.1	-79.0	2.5	0.00e+00	0	49	104	0	60	1048574
2026-01-17 16:06:47.84	339.58	2.19	-83.5	-79.0	2.5	0.00e+00	0	49	104	0	60	1048570
2026-01-17 16:06:48.84	339.52	2.12	-83.5	-79.0	2.5	0.00e+00	0	49	104	0	60	1048575
2026-01-17 16:06:49.85	339.45	2.06	-83.5	-79.0	2.4	0.00e+00	0	49	104	0	60	1048557
2026-01-17 16:06:50.85	339.38	1.99	-83.1	-79.0	2.4	0.00e+00	0	49	104	0	60	1048573
2026-01-17 16:06:51.86	339.32	1.93	-83.5	-79.0	2.4	0.00e+00	0	49	104	0	60	1048573
2026-01-17 16:06:52.87	339.25	1.86	-83.5	-79.0	2.4	0.00e+00	0	49	104	0	60	1048571
2026-01-17 16:06:53.88	339.18	1.80	-83.5	-79.0	2.5	0.00e+00	0	49	104	0	60	1048574
2026-01-17 16:06:54.89	339.12	1.73	-83.5	-79.0	2.6	0.00e+00	0	49	104	0	60	1048573
2026-01-17 16:06:55.89	339.05	1.67	-83.1	-79.0	2.5	0.00e+00	0	49	104	0	60	1048571
2026-01-17 16:06:56.90	338.99	1.60	-83.5	-79.0	2.5	0.00e+00	0	49	104	0	60	1048569
2026-01-17 16:06:57.91	338.92	1.54	-83.1	-79.0	2.2	0.00e+00	0	49	104	0	60	1048569
2026-01-17 16:06:58.92	338.86	1.48	-83.5	-79.0	2.5	0.00e+00	0	49	104	0	60	1048575
2026-01-17 16:06:59.93	338.80	1.41	-83.1	-79.0	2.5	0.00e+00	0	49	104	0	60	1048572
2026-01-17 16:07:00.93	338.73	1.35	-83.1	-79.0	2.4	0.00e+00	0	49	104	0	60	1048575
2026-01-17 16:07:01.94	338.67	1.28	-83.5	-79.0	2.3	0.00e+00	0	49	104	0	60	1048574
2026-01-17 16:07:02.94	338.61	1.22	-83.5	-79.0	2.4	0.00e+00	0	49	104	0	60	1048575
2026-01-17 16:07:03.95	338.55	1.16	-83.5	-79.0	2.6	0.00e+00	0	49	104	0	60	1048573
2026-01-17 16:07:04.96	338.49	1.10	-83.1	-79.0	2.4	0.00e+00	0	49	104	0	60	1048573
2026-01-17 16:07:05.96	338.43	1.03	-83.1	-79.0	2.7	0.00e+00	0	49	104	0	60	1048574
2026-01-17 16:07:06.97	338.36	0.97	-83.5	-79.0	2.4	0.00e+00	0	49	104	0	60	1048573
2026-01-17 16:07:07.98	338.30	0.91	-83.5	-79.0	2.5	0.00e+00	0	49	104	0	60	1048575
2026-01-17 16:07:08.98	338.24	0.84	-83.5	-79.0	2.4	0.00e+00	0	49	104	0	60	1048575
2026-01-17 16:07:09.99	338.18	0.78	-82.8	-79.0	2.5	0.00e+00	0	49	104	0	60	1048556
2026-01-17 16:07:10.99	338.13	0.72	-83.5	-79.0	2.6	0.00e+00	0	49	104	0	60	1048573
2026-01-17 16:07:12.00	338.07	0.66	-83.5	-79.0	2.4	0.00e+00	0	49	104	0	60	1048572
2026-01-17 16:07:13.01	338.01	0.60	-83.5	-79.0	2.7	0.00e+00	0	49	104	0	60	1048574
2026-01-17 16:07:14.01	337.95	0.53	-83.5	-79.0	2.3	0.00e+00	0	48	104	0	60	1048566
2026-01-17 16:07:15.02	337.89	0.47	-83.1	-79.0	2.4	0.00e+00	0	49	104	0	60	1048573
2026-01-17 16:07:16.03	337.83	0.41	-83.5	-79.0	2.5	0.00e+00	0	49	104	0	60	1048575
2026-01-17 16:07:17.03	337.78	0.35	-83.5	-79.0	2.3	0.00e+00	0	49	104	0	60	1048568
2026-01-17 16:07:18.04	337.72	0.29	-83.5	-79.0	2.5	0.00e+00	0	49	104	0	60	1048574
2026-01-17 16:07:19.05	337.66	0.23	-83.1	-79.0	2.4	0.00e+00	0	49	104	0	60	1048569
2026-01-17 16:07:20.05	337.61	0.17	-83.1	-79.0	2.6	0.00e+00	0	49	104	0	60	1048571
2026-01-17 16:07:21.06	337.55	0.11	-83.5	-79.0	2.4	0.00e+00	0	49	104	0	60	1048575
2026-01-17 16:07:22.07	337.49	0.05	-83.5	-79.0	2.4	0.00e+00	0	49	104	0	60	1048573
2026-01-17 16:07:23.07	337.44	-0.01	-83.5	-79.0	2.4	0.00e+00	0	49	104	0	60	1048574
2026-01-17 16:07:24.08	337.38	-0.07	-82.8	-79.0	2.4	0.00e+00	0	49	104	0	60	1048573

#Closed at: 2026-01-17 16:07:24
#Recorded file [0 MB]: D:/Data/35015_260117_185631.dat