passes_logs/2026/01/17/R3.2S-Naryan-Mar/R3.2S-Naryan-Mar__20260117_214305_AQUA_rec.log

#Pass ID: 20260117_214305_AQUA
#Satellite: AQUA
#Configuration: AQUA
#almurnet v.1.7.20240730
#Start time: 2026-01-17 21:43:06

#Version: 2.2.20231116
#Station: R3.2S-Naryan-Mar
#Location: 53.008057 lon 67.646978 lat
#TLE: 1 27424U 02022A   26017.29152041  .00000842  00000+0  17841-3 0  9992
#TLE: 2 27424  98.4085 343.7574 0002011  75.4099  30.6811 14.61825797261228

#Time	Az	El	Level	Level2	SNR	BER	BlckErr	Temp	State	Recorded	gain1	gain2
2026-01-17 21:43:06.01	19.87	0.01	-85.2	-88.6	4.9	1.56e+00	0	45	0	0	60	1048574
2026-01-17 21:43:07.02	19.97	0.05	-83.9	-88.8	2.5	3.12e+01	0	46	104	0	60	1048575
2026-01-17 21:43:08.02	20.07	0.10	-83.9	-88.8	2.6	3.12e+01	0	46	104	0	60	1048575
2026-01-17 21:43:09.02	20.18	0.14	-84.3	-88.8	2.5	3.12e+01	0	46	104	0	60	1048575
2026-01-17 21:43:10.03	20.28	0.18	-84.3	-88.8	2.8	3.12e+01	0	46	104	0	60	1048575
2026-01-17 21:43:11.03	20.38	0.22	-84.3	-88.8	2.4	3.12e+01	0	46	104	0	60	1048575
2026-01-17 21:43:12.03	20.49	0.27	-83.9	-88.8	2.7	3.12e+01	0	46	104	0	60	1048575
2026-01-17 21:43:13.04	20.59	0.31	-83.9	-88.8	2.6	3.12e+01	0	46	104	0	60	1048575
2026-01-17 21:43:14.04	20.70	0.35	-83.9	-88.8	2.5	3.12e+01	0	46	104	0	60	1048575
2026-01-17 21:43:15.05	20.80	0.39	-84.3	-88.8	2.5	3.12e+01	0	46	104	0	60	1048575
2026-01-17 21:43:16.05	20.91	0.44	-84.3	-88.8	2.6	3.12e+01	0	46	104	0	60	1048575
2026-01-17 21:43:17.06	21.01	0.48	-83.9	-88.8	2.5	3.12e+01	0	46	104	0	60	1048575
2026-01-17 21:43:18.07	21.12	0.52	-83.9	-88.8	2.6	3.12e+01	0	46	104	0	60	1048575
2026-01-17 21:43:19.08	21.23	0.56	-84.3	-88.8	2.5	3.12e+01	0	46	104	0	60	1048575
2026-01-17 21:43:20.09	21.34	0.61	-84.3	-88.8	2.7	3.12e+01	0	46	104	0	60	1048575
2026-01-17 21:43:21.09	21.44	0.65	-84.3	-88.8	2.5	3.12e+01	0	46	104	0	60	1048575
2026-01-17 21:43:22.10	21.55	0.69	-83.9	-88.8	2.5	3.12e+01	0	46	104	0	60	1048575
2026-01-17 21:43:23.11	21.66	0.74	-84.3	-88.8	2.5	3.12e+01	0	46	104	0	60	1048575
2026-01-17 21:43:24.11	21.77	0.78	-84.3	-88.8	2.6	3.12e+01	0	46	104	0	60	1048575
2026-01-17 21:43:25.11	21.87	0.82	-84.3	-88.8	2.6	3.12e+01	0	46	104	0	60	1048575
2026-01-17 21:43:26.12	21.98	0.86	-83.9	-88.8	2.7	3.12e+01	0	46	104	0	60	1048575
2026-01-17 21:43:27.12	22.09	0.91	-83.9	-88.8	2.3	3.12e+01	0	46	104	0	60	1048575
2026-01-17 21:43:28.12	22.20	0.95	-84.3	-88.8	2.6	3.12e+01	0	46	104	0	60	1048575
2026-01-17 21:43:29.13	22.31	0.99	-84.3	-88.8	2.5	3.12e+01	0	46	104	0	60	1048575
2026-01-17 21:43:30.13	22.42	1.03	-84.3	-88.8	2.3	3.12e+01	0	46	104	0	60	1048575
2026-01-17 21:43:31.14	22.53	1.08	-83.5	-88.8	2.7	3.12e+01	0	46	104	0	60	1048575
2026-01-17 21:43:32.15	22.64	1.12	-84.3	-88.8	2.4	3.12e+01	0	46	104	0	60	1048575
2026-01-17 21:43:33.16	22.75	1.16	-84.3	-88.8	2.8	3.12e+01	0	46	104	0	60	1048575
2026-01-17 21:43:34.17	22.87	1.20	-84.3	-88.8	2.5	3.12e+01	0	46	104	0	60	1048575
2026-01-17 21:43:35.17	22.98	1.25	-84.3	-88.8	2.8	3.12e+01	0	46	104	0	60	1048575
2026-01-17 21:43:36.18	23.09	1.29	-83.9	-88.8	2.6	3.12e+01	0	46	104	0	60	1048575
2026-01-17 21:43:37.19	23.20	1.33	-84.3	-88.8	2.5	3.12e+01	0	46	104	0	60	1048575
2026-01-17 21:43:38.20	23.32	1.38	-84.3	-88.8	2.6	3.12e+01	0	46	104	0	60	1048575
2026-01-17 21:43:39.21	23.43	1.42	-84.3	-88.8	2.5	3.12e+01	0	46	104	0	60	1048575
2026-01-17 21:43:40.21	23.54	1.46	-84.3	-88.8	2.6	3.12e+01	0	46	104	0	60	1048575
2026-01-17 21:43:41.22	23.66	1.50	-83.9	-88.8	2.5	3.12e+01	0	46	104	0	60	1048575
2026-01-17 21:43:42.22	23.77	1.55	-84.3	-88.8	2.7	3.12e+01	0	46	104	0	60	1048575
2026-01-17 21:43:43.23	23.89	1.59	-84.3	-88.8	2.5	3.12e+01	0	46	104	0	60	1048575
2026-01-17 21:43:44.23	24.00	1.63	-84.3	-88.8	2.5	3.12e+01	0	46	104	0	60	1048575
2026-01-17 21:43:45.24	24.12	1.67	-83.9	-88.8	2.6	3.12e+01	0	46	104	0	60	1048575
2026-01-17 21:43:46.24	24.23	1.71	-83.9	-88.8	2.7	3.12e+01	0	46	104	0	60	1048575
2026-01-17 21:43:47.25	24.35	1.76	-84.3	-88.8	2.7	3.12e+01	0	46	104	0	60	1048575
2026-01-17 21:43:48.26	24.46	1.80	-84.3	-88.8	2.7	3.12e+01	0	46	104	0	60	1048575
2026-01-17 21:43:49.27	24.58	1.84	-84.3	-88.8	2.6	3.12e+01	0	46	104	0	60	1048575
2026-01-17 21:43:50.27	24.70	1.88	-83.5	-88.8	2.5	3.12e+01	0	46	104	0	60	1048575
2026-01-17 21:43:51.28	24.82	1.93	-83.9	-88.8	2.4	3.12e+01	0	46	104	0	60	1048575
2026-01-17 21:43:52.29	24.93	1.97	-84.3	-88.8	2.5	3.12e+01	0	46	104	0	60	1048575
2026-01-17 21:43:53.29	25.05	2.01	-84.3	-88.8	2.6	3.12e+01	0	46	104	0	60	1048575
2026-01-17 21:43:54.30	25.17	2.05	-84.3	-88.8	2.6	3.12e+01	0	46	104	0	60	1048575
2026-01-17 21:43:55.31	25.29	2.10	-83.9	-88.8	2.6	3.12e+01	0	46	104	0	60	1048575
2026-01-17 21:43:56.32	25.41	2.14	-84.3	-88.8	2.7	3.12e+01	0	46	104	0	60	1048575
2026-01-17 21:43:57.32	25.53	2.18	-84.3	-88.8	2.6	3.12e+01	0	46	104	0	60	1048575
2026-01-17 21:43:58.33	25.65	2.22	-84.3	-88.8	2.5	3.12e+01	0	46	104	0	60	1048575
2026-01-17 21:43:59.34	25.77	2.27	-83.9	-88.8	2.7	3.12e+01	0	46	104	0	60	1048575
2026-01-17 21:44:00.35	25.89	2.31	-83.9	-88.8	2.7	3.12e+01	0	46	104	0	60	1048575
2026-01-17 21:44:01.35	26.01	2.35	-84.3	-88.8	2.6	3.12e+01	0	46	104	0	60	1048575
2026-01-17 21:44:02.36	26.13	2.39	-84.3	-88.8	2.5	3.12e+01	0	46	104	0	60	1048575
2026-01-17 21:44:03.37	26.25	2.43	-84.3	-88.8	2.7	3.12e+01	0	46	104	0	60	1048575
2026-01-17 21:44:04.37	26.37	2.48	-83.9	-88.8	2.3	3.12e+01	0	46	104	0	60	1048575
2026-01-17 21:44:05.38	26.50	2.52	-83.9	-88.8	2.6	3.12e+01	0	46	104	0	60	1048575
2026-01-17 21:44:06.39	26.62	2.56	-84.3	-88.8	2.4	3.12e+01	0	46	104	0	60	1048575
2026-01-17 21:44:07.40	26.74	2.60	-84.3	-88.8	2.6	3.12e+01	0	46	104	0	60	1048575
2026-01-17 21:44:08.41	26.87	2.64	-84.3	-88.8	2.6	3.12e+01	0	46	104	0	60	1048575
2026-01-17 21:44:09.41	26.99	2.69	-83.9	-88.8	2.6	3.12e+01	0	46	104	0	60	1048575
2026-01-17 21:44:10.42	27.12	2.73	-84.3	-88.8	2.7	3.12e+01	0	46	104	0	60	1048575
2026-01-17 21:44:11.43	27.24	2.77	-84.3	-88.8	2.5	3.12e+01	0	46	104	0	60	1048575
2026-01-17 21:44:12.44	27.37	2.81	-84.3	-88.8	2.5	3.12e+01	0	46	104	0	60	1048575
2026-01-17 21:44:13.44	27.49	2.85	-83.9	-88.8	2.5	3.12e+01	0	46	104	0	60	1048575
2026-01-17 21:44:14.45	27.62	2.90	-83.5	-88.8	2.5	3.12e+01	0	46	104	0	60	1048575
2026-01-17 21:44:15.45	27.74	2.94	-84.3	-88.8	2.5	3.12e+01	0	47	104	0	60	1048575
2026-01-17 21:44:16.46	27.87	2.98	-84.3	-88.8	2.6	3.12e+01	0	46	104	0	60	1048575
2026-01-17 21:44:17.47	28.00	3.02	-84.3	-88.8	2.5	3.12e+01	0	46	104	0	60	1048575
2026-01-17 21:44:18.48	28.12	3.06	-84.3	-88.8	2.6	3.12e+01	0	46	104	0	60	1048575
2026-01-17 21:44:19.48	28.25	3.10	-83.9	-88.8	2.6	3.12e+01	0	46	104	0	60	1048575
2026-01-17 21:44:20.49	28.38	3.15	-84.3	-88.8	2.6	3.12e+01	0	46	104	0	60	1048575
2026-01-17 21:44:21.49	28.51	3.19	-84.3	-88.8	2.6	3.12e+01	0	46	104	0	60	1048575
2026-01-17 21:44:22.50	28.64	3.23	-84.3	-88.8	2.5	3.12e+01	0	47	104	0	60	1048575
2026-01-17 21:44:23.51	28.77	3.27	-83.9	-88.8	2.6	3.12e+01	0	46	104	0	60	1048575
2026-01-17 21:44:24.52	28.90	3.31	-83.9	-88.8	2.5	3.12e+01	0	46	104	0	60	1048575
2026-01-17 21:44:25.53	29.03	3.35	-84.3	-88.8	2.5	3.12e+01	0	47	104	0	60	1048575
2026-01-17 21:44:26.54	29.16	3.39	-84.3	-88.8	2.4	3.12e+01	0	47	104	0	60	1048575
2026-01-17 21:44:27.54	29.29	3.44	-84.3	-88.8	2.5	3.12e+01	0	47	104	0	60	1048575
2026-01-17 21:44:28.55	29.42	3.48	-83.9	-88.8	2.5	3.12e+01	0	47	104	0	60	1048575
2026-01-17 21:44:29.56	29.55	3.52	-84.3	-88.8	2.6	3.12e+01	0	47	104	0	60	1048575
2026-01-17 21:44:30.57	29.68	3.56	-84.3	-88.8	2.5	3.12e+01	0	46	104	0	60	1048575
2026-01-17 21:44:31.57	29.82	3.60	-84.3	-88.8	2.4	3.12e+01	0	47	104	0	60	1048575
2026-01-17 21:44:32.57	29.95	3.64	-84.3	-88.8	2.7	3.12e+01	0	47	104	0	60	1048575
2026-01-17 21:44:33.58	30.08	3.68	-83.9	-88.8	2.7	3.12e+01	0	47	104	0	60	1048575
2026-01-17 21:44:34.59	30.21	3.72	-84.3	-88.8	2.6	3.12e+01	0	47	104	0	60	1048575
2026-01-17 21:44:35.59	30.35	3.76	-84.3	-88.8	2.6	3.12e+01	0	47	104	0	60	1048575
2026-01-17 21:44:36.60	30.48	3.81	-83.9	-88.8	2.8	3.12e+01	0	47	104	0	60	1048575
2026-01-17 21:44:37.60	30.62	3.85	-83.9	-88.8	2.6	3.12e+01	0	47	104	0	60	1048575
2026-01-17 21:44:38.61	30.75	3.89	-84.3	-88.8	2.4	3.12e+01	0	47	104	0	60	1048575
2026-01-17 21:44:39.62	30.89	3.93	-84.3	-88.8	2.6	3.12e+01	0	47	104	0	60	1048575
2026-01-17 21:44:40.63	31.02	3.97	-84.3	-88.8	2.7	3.12e+01	0	47	104	0	60	1048575
2026-01-17 21:44:41.63	31.16	4.01	-83.9	-88.8	2.6	3.12e+01	0	47	104	0	60	1048575
2026-01-17 21:44:42.64	31.30	4.05	-83.9	-88.8	2.5	3.12e+01	0	47	104	0	60	1048575
2026-01-17 21:44:43.65	31.43	4.09	-84.3	-88.8	2.7	3.12e+01	0	47	104	0	60	1048575
2026-01-17 21:44:44.66	31.57	4.13	-84.3	-88.8	2.6	3.12e+01	0	47	104	0	60	1048575
2026-01-17 21:44:45.66	31.71	4.17	-84.3	-88.8	2.6	3.12e+01	0	47	104	0	60	1048575
2026-01-17 21:44:46.67	31.85	4.21	-83.9	-88.8	2.5	3.12e+01	0	47	104	0	60	1048575
2026-01-17 21:44:47.67	31.99	4.25	-83.5	-88.8	2.5	3.12e+01	0	47	104	0	60	1048575
2026-01-17 21:44:48.68	32.12	4.29	-84.3	-88.8	2.4	3.12e+01	0	47	104	0	60	1048575
2026-01-17 21:44:49.68	32.26	4.33	-84.3	-88.8	2.5	3.12e+01	0	47	104	0	60	1048575
2026-01-17 21:44:50.69	32.40	4.37	-84.3	-88.8	2.5	3.12e+01	0	47	104	0	60	1048575
2026-01-17 21:44:51.70	32.54	4.41	-84.3	-88.8	2.5	3.12e+01	0	47	104	0	60	1048575
2026-01-17 21:44:52.71	32.69	4.45	-84.3	-88.8	2.5	3.12e+01	0	47	104	0	60	1048575
2026-01-17 21:44:53.71	32.83	4.49	-84.3	-88.8	2.5	3.12e+01	0	47	104	0	60	1048575
2026-01-17 21:44:54.72	32.97	4.53	-84.3	-88.8	2.5	3.12e+01	0	46	104	0	60	1048575
2026-01-17 21:44:55.73	33.11	4.57	-84.3	-88.8	2.7	3.12e+01	0	46	104	0	60	1048575
2026-01-17 21:44:56.73	33.25	4.61	-83.9	-88.8	2.6	3.12e+01	0	47	104	0	60	1048575
2026-01-17 21:44:57.74	33.39	4.65	-83.9	-88.8	2.8	3.12e+01	0	47	104	0	60	1048575
2026-01-17 21:44:58.75	33.54	4.69	-84.3	-88.8	2.6	3.12e+01	0	47	104	0	60	1048575
2026-01-17 21:44:59.76	33.68	4.73	-84.3	-88.8	2.7	3.12e+01	0	47	104	0	60	1048575
2026-01-17 21:45:00.76	33.83	4.77	-84.3	-88.8	2.5	3.12e+01	0	47	104	0	60	1048575
2026-01-17 21:45:01.77	33.97	4.81	-83.9	-88.8	2.7	3.12e+01	0	47	104	0	60	1048575
2026-01-17 21:45:02.78	34.12	4.85	-83.9	-88.8	2.6	3.12e+01	0	47	104	0	60	1048575
2026-01-17 21:45:03.78	34.26	4.89	-84.3	-88.8	2.5	3.12e+01	0	47	104	0	60	1048575
2026-01-17 21:45:04.79	34.41	4.93	-84.3	-88.8	2.4	3.12e+01	0	47	104	0	60	1048575
2026-01-17 21:45:05.80	34.55	4.96	-83.9	-88.8	2.5	3.12e+01	0	47	104	0	60	1048575
2026-01-17 21:45:06.81	34.70	5.00	-83.9	-88.8	2.6	3.12e+01	0	47	104	0	60	1048575
2026-01-17 21:45:07.81	34.84	5.04	-84.3	-88.8	2.6	3.12e+01	0	47	104	0	60	1048575
2026-01-17 21:45:08.82	34.99	5.08	-84.3	-88.8	2.6	3.12e+01	0	47	104	0	60	1048575
2026-01-17 21:45:09.83	35.14	5.12	-84.3	-88.8	2.4	3.12e+01	0	47	104	0	60	1048575
2026-01-17 21:45:10.84	35.29	5.16	-83.5	-88.8	2.5	3.12e+01	0	47	104	0	60	1048575
2026-01-17 21:45:11.84	35.44	5.20	-84.3	-88.8	2.6	3.12e+01	0	47	104	0	60	1048575
2026-01-17 21:45:12.85	35.59	5.23	-84.3	-88.8	2.5	3.12e+01	0	47	104	0	60	1048575
2026-01-17 21:45:13.85	35.73	5.27	-84.3	-88.8	2.6	3.12e+01	0	47	104	0	60	1048575
2026-01-17 21:45:14.86	35.88	5.31	-84.3	-88.8	2.7	3.12e+01	0	47	104	0	60	1048575
2026-01-17 21:45:15.87	36.03	5.35	-83.9	-88.8	2.6	3.12e+01	0	47	104	0	60	1048575
2026-01-17 21:45:16.88	36.19	5.39	-83.9	-88.8	2.7	3.12e+01	0	47	104	0	60	1048575
2026-01-17 21:45:17.89	36.34	5.43	-84.3	-88.8	2.6	3.12e+01	0	47	104	0	60	1048575
2026-01-17 21:45:18.89	36.49	5.46	-84.3	-88.8	2.6	3.12e+01	0	47	104	0	60	1048575
2026-01-17 21:45:19.90	36.64	5.50	-84.3	-88.8	2.5	3.12e+01	0	47	104	0	60	1048575
2026-01-17 21:45:20.91	36.79	5.54	-83.9	-88.8	2.6	3.12e+01	0	47	104	0	60	1048575
2026-01-17 21:45:21.91	36.94	5.58	-83.9	-88.8	2.7	3.12e+01	0	47	104	0	60	1048575
2026-01-17 21:45:22.92	37.10	5.61	-84.3	-88.8	2.5	3.12e+01	0	47	104	0	60	1048575
2026-01-17 21:45:23.92	37.25	5.65	-84.3	-88.8	2.7	3.12e+01	0	47	104	0	60	1048575
2026-01-17 21:45:24.93	37.40	5.69	-84.3	-88.8	2.6	3.12e+01	0	47	104	0	60	1048575
2026-01-17 21:45:25.94	37.56	5.73	-83.9	-88.8	2.8	3.12e+01	0	47	104	0	60	1048575
2026-01-17 21:45:26.94	37.71	5.76	-84.3	-88.8	2.8	3.12e+01	0	47	104	0	60	1048575
2026-01-17 21:45:27.95	37.87	5.80	-84.3	-88.8	2.7	3.12e+01	0	47	104	0	60	1048575
2026-01-17 21:45:28.95	38.02	5.84	-84.3	-88.8	2.7	3.12e+01	0	47	104	0	60	1048575
2026-01-17 21:45:29.96	38.18	5.87	-83.9	-88.8	2.8	3.12e+01	0	47	104	0	60	1048575
2026-01-17 21:45:30.96	38.33	5.91	-83.9	-88.8	2.7	3.12e+01	0	47	104	0	60	1048575
2026-01-17 21:45:31.96	38.49	5.95	-84.3	-88.8	2.6	3.12e+01	0	47	104	0	60	1048575
2026-01-17 21:45:32.97	38.65	5.98	-84.3	-88.8	2.6	3.12e+01	0	47	104	0	60	1048575
2026-01-17 21:45:33.97	38.80	6.02	-84.3	-88.8	2.7	3.12e+01	0	47	104	0	60	1048575
2026-01-17 21:45:34.98	38.96	6.05	-83.5	-88.8	2.5	3.12e+01	0	47	104	0	60	1048575
2026-01-17 21:45:35.99	39.12	6.09	-84.3	-88.8	2.7	3.12e+01	0	47	104	0	60	1048575
2026-01-17 21:45:36.99	39.28	6.13	-84.3	-88.8	2.5	3.12e+01	0	47	104	0	60	1048575
2026-01-17 21:45:38.00	39.44	6.16	-84.3	-88.8	2.6	3.12e+01	0	47	104	0	60	1048575
2026-01-17 21:45:39.01	39.60	6.20	-84.3	-88.8	2.5	3.12e+01	0	47	104	0	60	1048575
2026-01-17 21:45:40.01	39.76	6.23	-83.9	-88.8	2.6	3.12e+01	0	47	104	0	60	1048575
2026-01-17 21:45:41.02	39.92	6.27	-84.3	-88.8	2.7	3.12e+01	0	47	104	0	60	1048575
2026-01-17 21:45:42.03	40.08	6.30	-84.3	-88.8	2.4	3.12e+01	0	47	104	0	60	1048575
2026-01-17 21:45:43.03	40.24	6.34	-84.3	-88.8	2.6	3.12e+01	0	47	104	0	60	1048575
2026-01-17 21:45:44.04	40.40	6.37	-83.9	-88.8	2.5	3.12e+01	0	47	104	0	60	1048575
2026-01-17 21:45:45.04	40.56	6.41	-83.9	-88.8	2.5	3.12e+01	0	47	104	0	60	1048575
2026-01-17 21:45:46.05	40.73	6.44	-84.3	-88.8	2.6	3.12e+01	0	47	104	0	60	1048575
2026-01-17 21:45:47.06	40.89	6.48	-84.3	-88.8	2.4	3.12e+01	0	47	104	0	60	1048575
2026-01-17 21:45:48.07	41.06	6.51	-84.3	-88.8	2.4	3.12e+01	0	47	104	0	60	1048575
2026-01-17 21:45:49.08	41.22	6.55	-83.9	-88.8	2.6	3.12e+01	0	47	104	0	60	1048575
2026-01-17 21:45:50.09	41.38	6.58	-83.9	-88.8	2.7	3.12e+01	0	47	104	0	60	1048575
2026-01-17 21:45:51.09	41.55	6.62	-84.3	-88.8	2.4	3.12e+01	0	47	104	0	60	1048575
2026-01-17 21:45:52.10	41.71	6.65	-83.9	-88.8	2.7	3.12e+01	0	47	104	0	60	1048575
2026-01-17 21:45:53.10	41.88	6.68	-84.3	-88.8	2.6	3.12e+01	0	47	104	0	60	1048575
2026-01-17 21:45:54.10	42.04	6.72	-83.9	-88.8	2.8	3.12e+01	0	47	104	0	60	1048575
2026-01-17 21:45:55.11	42.21	6.75	-84.3	-88.8	2.6	3.12e+01	0	47	104	0	60	1048575
2026-01-17 21:45:56.12	42.38	6.79	-84.3	-88.8	2.5	3.12e+01	0	47	104	0	60	1048575
2026-01-17 21:45:57.13	42.54	6.82	-84.3	-88.8	2.7	3.12e+01	0	47	104	0	60	1048575
2026-01-17 21:45:58.13	42.71	6.85	-84.3	-88.8	2.6	3.12e+01	0	47	104	0	60	1048574
2026-01-17 21:45:59.13	42.88	6.88	-83.9	-88.8	2.6	3.12e+01	0	47	104	0	60	1048574
2026-01-17 21:46:00.14	43.05	6.92	-83.9	-88.8	2.5	3.12e+01	0	47	104	0	60	1048574
2026-01-17 21:46:01.14	43.21	6.95	-84.3	-88.8	2.8	3.12e+01	0	47	104	0	60	1048574
2026-01-17 21:46:02.15	43.38	6.98	-84.3	-88.8	2.6	3.12e+01	0	47	104	0	60	1048574
2026-01-17 21:46:03.16	43.55	7.02	-83.9	-88.8	2.8	3.12e+01	0	47	104	0	60	1048574
2026-01-17 21:46:04.17	43.72	7.05	-83.5	-88.8	2.6	3.12e+01	0	47	104	0	60	1048574
2026-01-17 21:46:05.17	43.89	7.08	-84.3	-88.8	2.7	3.12e+01	0	47	104	0	60	1048574
2026-01-17 21:46:06.18	44.06	7.11	-84.3	-88.8	2.6	3.12e+01	0	47	104	0	60	1048574
2026-01-17 21:46:07.19	44.24	7.14	-84.3	-88.8	2.7	3.12e+01	0	47	104	0	60	1048574
2026-01-17 21:46:08.20	44.41	7.18	-83.9	-88.8	2.4	3.12e+01	0	47	104	0	60	1048574
2026-01-17 21:46:09.20	44.58	7.21	-84.3	-88.8	2.6	3.12e+01	0	47	104	0	60	1048574
2026-01-17 21:46:10.22	44.75	7.24	-84.3	-88.8	2.8	3.12e+01	0	47	104	0	60	1048574
2026-01-17 21:46:11.22	44.92	7.27	-84.3	-88.8	2.7	3.12e+01	0	47	104	0	60	1048574
2026-01-17 21:46:12.23	45.10	7.30	-84.3	-88.8	2.6	3.12e+01	0	47	104	0	60	1048574
2026-01-17 21:46:13.24	45.27	7.33	-83.9	-88.8	2.4	3.12e+01	0	47	104	0	60	1048574
2026-01-17 21:46:14.25	45.45	7.36	-84.3	-88.8	2.5	3.12e+01	0	47	104	0	60	1048574
2026-01-17 21:46:15.25	45.62	7.39	-84.3	-88.8	2.5	3.12e+01	0	47	104	0	60	1048574
2026-01-17 21:46:16.26	45.79	7.42	-84.3	-88.8	2.7	3.12e+01	0	47	104	0	60	1048574
2026-01-17 21:46:17.26	45.97	7.45	-83.9	-88.8	2.5	3.12e+01	0	47	104	0	60	1048574
2026-01-17 21:46:18.27	46.14	7.48	-83.5	-88.8	2.5	3.12e+01	0	47	104	0	60	1048574
2026-01-17 21:46:19.27	46.32	7.51	-84.3	-88.8	2.7	3.12e+01	0	47	104	0	60	1048574
2026-01-17 21:46:20.28	46.49	7.54	-84.3	-88.8	2.7	3.12e+01	0	47	104	0	60	1048574
2026-01-17 21:46:21.29	46.67	7.57	-84.3	-88.8	2.6	3.12e+01	0	47	104	0	60	1048574
2026-01-17 21:46:22.30	46.85	7.60	-83.9	-88.8	2.6	3.12e+01	0	47	104	0	60	1048574
2026-01-17 21:46:23.31	47.03	7.63	-83.9	-88.8	2.5	3.12e+01	0	47	104	0	60	1048574
2026-01-17 21:46:24.32	47.21	7.66	-84.3	-88.8	2.6	3.12e+01	0	47	104	0	60	1048574
2026-01-17 21:46:25.33	47.38	7.69	-84.3	-88.8	2.6	3.12e+01	0	47	104	0	60	1048574
2026-01-17 21:46:26.33	47.56	7.72	-84.3	-88.8	2.7	3.12e+01	0	47	104	0	60	1048574
2026-01-17 21:46:27.34	47.74	7.75	-83.9	-88.8	2.8	3.12e+01	0	47	104	0	60	1048574
2026-01-17 21:46:28.35	47.92	7.77	-84.3	-88.8	2.7	3.12e+01	0	47	104	0	60	1048574
2026-01-17 21:46:29.36	48.10	7.80	-84.3	-88.8	2.6	3.12e+01	0	47	104	0	60	1048574
2026-01-17 21:46:30.36	48.28	7.83	-84.3	-88.8	2.6	3.12e+01	0	47	104	0	60	1048574
2026-01-17 21:46:31.37	48.46	7.86	-84.3	-88.8	2.6	3.12e+01	0	47	104	0	60	1048574
2026-01-17 21:46:32.38	48.64	7.88	-83.9	-88.8	2.8	3.12e+01	0	47	104	0	60	1048574
2026-01-17 21:46:33.39	48.82	7.91	-83.9	-88.8	2.7	3.12e+01	0	47	104	0	60	1048574
2026-01-17 21:46:34.39	49.00	7.94	-84.3	-88.8	2.6	3.12e+01	0	47	104	0	60	1048574
2026-01-17 21:46:35.40	49.18	7.97	-84.3	-88.8	2.6	3.12e+01	0	47	104	0	60	1048574
2026-01-17 21:46:36.41	49.37	7.99	-83.9	-88.8	2.6	3.12e+01	0	47	104	0	60	1048574
2026-01-17 21:46:37.42	49.55	8.02	-83.9	-88.8	2.5	3.12e+01	0	47	104	0	60	1048574
2026-01-17 21:46:38.43	49.73	8.04	-84.3	-88.8	2.6	3.12e+01	0	47	104	0	60	1048574
2026-01-17 21:46:39.44	49.92	8.07	-84.3	-88.8	2.5	3.12e+01	0	47	104	0	60	1048574
2026-01-17 21:46:40.45	50.10	8.10	-84.3	-88.8	2.7	3.12e+01	0	47	104	0	60	1048574
2026-01-17 21:46:41.45	50.28	8.12	-83.9	-88.8	2.6	3.12e+01	0	47	104	0	60	1048574
2026-01-17 21:46:42.46	50.47	8.15	-83.9	-88.8	2.5	3.12e+01	0	47	104	0	60	1048574
2026-01-17 21:46:43.47	50.65	8.17	-84.3	-88.8	2.8	3.12e+01	0	47	104	0	60	1048574
2026-01-17 21:46:44.48	50.84	8.20	-84.3	-88.8	2.3	3.12e+01	0	47	104	0	60	1048574
2026-01-17 21:46:45.49	51.02	8.22	-84.3	-88.8	2.5	3.12e+01	0	47	104	0	60	1048574
2026-01-17 21:46:46.49	51.21	8.25	-83.9	-88.8	2.5	3.12e+01	0	47	104	0	60	1048574
2026-01-17 21:46:47.50	51.39	8.27	-84.3	-88.8	2.6	3.12e+01	0	47	104	0	60	1048574
2026-01-17 21:46:48.51	51.58	8.29	-84.3	-88.8	2.7	3.12e+01	0	47	104	0	60	1048574
2026-01-17 21:46:49.51	51.77	8.32	-84.3	-88.8	2.6	3.12e+01	0	47	104	0	60	1048574
2026-01-17 21:46:50.51	51.95	8.34	-84.3	-88.8	2.5	3.12e+01	0	47	104	0	60	1048574
2026-01-17 21:46:51.52	52.14	8.37	-83.5	-88.8	2.7	3.12e+01	0	47	104	0	60	1048574
2026-01-17 21:46:52.53	52.33	8.39	-84.3	-88.8	2.6	3.12e+01	0	47	104	0	60	1048574
2026-01-17 21:46:53.53	52.51	8.41	-84.3	-88.8	2.5	3.12e+01	0	47	104	0	60	1048574
2026-01-17 21:46:54.54	52.70	8.43	-84.3	-88.8	2.7	3.12e+01	0	47	104	0	60	1048574
2026-01-17 21:46:55.55	52.89	8.46	-83.9	-88.8	2.5	3.12e+01	0	47	104	0	60	1048574
2026-01-17 21:46:56.56	53.08	8.48	-83.9	-88.8	2.7	3.12e+01	0	47	104	0	60	1048574
2026-01-17 21:46:57.57	53.27	8.50	-84.3	-88.8	2.7	3.12e+01	0	47	104	0	60	1048574
2026-01-17 21:46:58.57	53.46	8.52	-84.3	-88.8	2.5	3.12e+01	0	47	104	0	60	1048574
2026-01-17 21:46:59.58	53.65	8.54	-84.3	-88.8	2.6	3.12e+01	0	47	104	0	60	1048574
2026-01-17 21:47:00.58	53.84	8.57	-83.9	-88.8	2.6	3.12e+01	0	47	104	0	60	1048574
2026-01-17 21:47:01.59	54.03	8.59	-84.3	-88.8	2.7	3.12e+01	0	47	104	0	60	1048574
2026-01-17 21:47:02.59	54.22	8.61	-84.3	-88.8	2.7	3.12e+01	0	47	104	0	60	1048574
2026-01-17 21:47:03.60	54.41	8.63	-84.3	-88.8	2.7	3.12e+01	0	47	104	0	60	1048574
2026-01-17 21:47:04.60	54.60	8.65	-83.9	-88.8	2.7	3.12e+01	0	47	104	0	60	1048574
2026-01-17 21:47:05.61	54.79	8.67	-83.9	-88.8	2.5	3.12e+01	0	47	104	0	60	1048574
2026-01-17 21:47:06.62	54.98	8.69	-84.3	-88.8	2.5	3.12e+01	0	47	104	0	60	1048574
2026-01-17 21:47:07.63	55.17	8.71	-84.3	-88.8	2.6	3.12e+01	0	47	104	0	60	1048574
2026-01-17 21:47:08.63	55.36	8.73	-84.3	-88.8	2.5	3.12e+01	0	47	104	0	60	1048574
2026-01-17 21:47:09.64	55.56	8.75	-83.9	-88.8	2.7	3.12e+01	0	47	104	0	60	1048574
2026-01-17 21:47:10.65	55.75	8.77	-84.3	-88.8	2.6	3.12e+01	0	47	104	0	60	1048574
2026-01-17 21:47:11.66	55.94	8.78	-84.3	-88.8	2.5	3.12e+01	0	47	104	0	60	1048574
2026-01-17 21:47:12.66	56.13	8.80	-84.3	-88.8	2.5	3.12e+01	0	47	104	0	60	1048574
2026-01-17 21:47:13.67	56.33	8.82	-84.3	-88.8	2.6	3.12e+01	0	47	104	0	60	1048574
2026-01-17 21:47:14.68	56.52	8.84	-83.9	-88.8	2.6	3.12e+01	0	47	104	0	60	1048574
2026-01-17 21:47:15.69	56.72	8.86	-83.9	-88.8	2.5	3.12e+01	0	47	104	0	60	1048574
2026-01-17 21:47:16.69	56.91	8.87	-83.9	-88.8	2.3	3.12e+01	0	47	104	0	60	1048574
2026-01-17 21:47:17.70	57.10	8.89	-84.3	-88.8	2.6	3.12e+01	0	47	104	0	60	1048574
2026-01-17 21:47:18.71	57.30	8.91	-84.3	-88.8	2.6	3.12e+01	0	47	104	0	60	1048574
2026-01-17 21:47:19.71	57.49	8.92	-83.9	-88.8	2.6	3.12e+01	0	47	104	0	60	1048574
2026-01-17 21:47:20.72	57.69	8.94	-84.3	-88.8	2.7	3.12e+01	0	47	104	0	60	1048574
2026-01-17 21:47:21.73	57.89	8.96	-84.3	-88.8	2.5	3.12e+01	0	47	104	0	60	1048574
2026-01-17 21:47:22.73	58.08	8.97	-84.3	-88.8	2.6	3.12e+01	0	47	104	0	60	1048574
2026-01-17 21:47:23.73	58.27	8.99	-84.3	-88.8	2.6	3.12e+01	0	47	104	0	60	1048574
2026-01-17 21:47:24.74	58.47	9.00	-83.9	-88.8	2.7	3.12e+01	0	47	104	0	60	1048574
2026-01-17 21:47:25.75	58.67	9.02	-84.3	-88.8	2.6	3.12e+01	0	47	104	0	60	1048574
2026-01-17 21:47:26.76	58.86	9.03	-83.9	-88.8	2.6	3.12e+01	0	47	104	0	60	1048574
2026-01-17 21:47:27.76	59.06	9.05	-84.3	-88.8	2.5	3.12e+01	0	47	104	0	60	1048574
2026-01-17 21:47:28.77	59.26	9.06	-83.9	-88.8	2.4	3.12e+01	0	47	104	0	60	1048574
2026-01-17 21:47:29.78	59.45	9.08	-83.9	-88.8	2.5	3.12e+01	0	47	104	0	60	1048574
2026-01-17 21:47:30.79	59.65	9.09	-84.3	-88.8	2.5	3.12e+01	0	47	104	0	60	1048574
2026-01-17 21:47:31.80	59.85	9.10	-84.3	-88.8	2.6	3.12e+01	0	47	104	0	60	1048574
2026-01-17 21:47:32.80	60.05	9.12	-84.3	-88.8	2.5	3.12e+01	0	47	104	0	60	1048574
2026-01-17 21:47:33.81	60.25	9.13	-83.9	-88.8	2.5	3.12e+01	0	47	104	0	60	1048574
2026-01-17 21:47:34.82	60.44	9.14	-84.3	-88.8	2.6	3.12e+01	0	47	104	0	60	1048574
2026-01-17 21:47:35.82	60.64	9.15	-84.3	-88.8	2.7	3.12e+01	0	47	104	0	60	1048574
2026-01-17 21:47:36.83	60.84	9.17	-84.3	-88.8	2.6	3.12e+01	0	47	104	0	60	1048574
2026-01-17 21:47:37.84	61.04	9.18	-83.9	-88.8	2.6	3.12e+01	0	47	104	0	60	1048574
2026-01-17 21:47:38.84	61.24	9.19	-83.9	-88.8	2.4	3.12e+01	0	47	104	0	60	1048574
2026-01-17 21:47:39.85	61.44	9.20	-84.3	-88.8	2.5	3.12e+01	0	47	104	0	60	1048574
2026-01-17 21:47:40.85	61.63	9.21	-84.3	-88.8	2.4	3.12e+01	0	47	104	0	60	1048574
2026-01-17 21:47:41.86	61.83	9.22	-84.3	-88.8	2.6	3.12e+01	0	47	104	0	60	1048574
2026-01-17 21:47:42.87	62.03	9.23	-84.3	-88.8	2.5	3.12e+01	0	47	104	0	60	1048574
2026-01-17 21:47:43.87	62.23	9.24	-83.9	-88.8	2.6	3.12e+01	0	47	104	0	60	1048574
2026-01-17 21:47:44.88	62.43	9.25	-83.9	-88.8	2.6	3.12e+01	0	47	104	0	60	1048574
2026-01-17 21:47:45.89	62.63	9.26	-84.3	-88.8	2.6	3.12e+01	0	47	104	0	60	1048574
2026-01-17 21:47:46.90	62.83	9.27	-84.3	-88.8	2.5	3.12e+01	0	47	104	0	60	1048574
2026-01-17 21:47:47.91	63.03	9.28	-83.9	-88.8	2.5	3.12e+01	0	47	104	0	60	1048574
2026-01-17 21:47:48.91	63.23	9.29	-84.3	-88.8	2.6	3.12e+01	0	47	104	0	60	1048574
2026-01-17 21:47:49.92	63.43	9.30	-83.9	-88.8	2.6	3.12e+01	0	47	104	0	60	1048574
2026-01-17 21:47:50.93	63.63	9.31	-84.3	-88.8	2.7	3.12e+01	0	47	104	0	60	1048574
2026-01-17 21:47:51.94	63.84	9.31	-84.3	-88.8	2.5	3.12e+01	0	47	104	0	60	1048574
2026-01-17 21:47:52.94	64.04	9.32	-83.9	-88.8	2.7	3.12e+01	0	47	104	0	60	1048574
2026-01-17 21:47:53.95	64.24	9.33	-83.9	-88.8	2.6	3.12e+01	0	47	104	0	60	1048574
2026-01-17 21:47:54.95	64.44	9.34	-84.3	-88.8	2.6	3.12e+01	0	47	104	0	60	1048574
2026-01-17 21:47:55.96	64.64	9.34	-84.3	-88.8	2.6	3.12e+01	0	47	104	0	60	1048574
2026-01-17 21:47:56.96	64.84	9.35	-83.9	-88.8	2.7	3.12e+01	0	47	104	0	60	1048574
2026-01-17 21:47:57.97	65.04	9.35	-83.9	-88.8	2.4	3.12e+01	0	47	104	0	60	1048574
2026-01-17 21:47:58.98	65.24	9.36	-84.3	-88.8	2.7	3.12e+01	0	47	104	0	60	1048574
2026-01-17 21:47:59.99	65.44	9.37	-84.3	-88.8	2.4	3.12e+01	0	47	104	0	60	1048574
2026-01-17 21:48:01.00	65.65	9.37	-84.3	-88.8	2.5	3.12e+01	0	47	104	0	60	1048574
2026-01-17 21:48:02.01	65.85	9.38	-83.9	-88.8	2.6	3.12e+01	0	47	104	0	60	1048574
2026-01-17 21:48:03.01	66.05	9.38	-83.9	-88.8	2.5	3.12e+01	0	47	104	0	60	1048574
2026-01-17 21:48:04.02	66.25	9.39	-84.3	-88.8	2.7	3.12e+01	0	47	104	0	60	1048574
2026-01-17 21:48:05.03	66.45	9.39	-84.3	-88.8	2.4	3.12e+01	0	47	104	0	60	1048574
2026-01-17 21:48:06.03	66.65	9.39	-84.3	-88.8	2.6	3.12e+01	0	47	104	0	60	1048574
2026-01-17 21:48:07.04	66.86	9.40	-83.9	-88.8	2.5	3.12e+01	0	47	104	0	60	1048574
2026-01-17 21:48:08.05	67.06	9.40	-84.3	-88.8	2.5	3.12e+01	0	47	104	0	60	1048574
2026-01-17 21:48:09.05	67.26	9.40	-84.3	-88.8	2.7	3.12e+01	0	47	104	0	60	1048574
2026-01-17 21:48:10.06	67.46	9.41	-84.3	-88.8	2.7	3.12e+01	0	47	104	0	60	1048574
2026-01-17 21:48:11.07	67.66	9.41	-84.3	-88.8	2.5	3.12e+01	0	47	104	0	60	1048574
2026-01-17 21:48:12.07	67.87	9.41	-83.9	-88.8	2.5	3.12e+01	0	47	104	0	60	1048574
2026-01-17 21:48:13.08	68.07	9.41	-84.3	-88.8	2.6	3.12e+01	0	47	104	0	60	1048574
2026-01-17 21:48:14.08	68.27	9.41	-84.3	-88.8	2.4	3.12e+01	0	47	104	0	60	1048574
2026-01-17 21:48:15.09	68.47	9.41	-84.3	-88.8	2.7	3.12e+01	0	47	104	0	60	1048574
2026-01-17 21:48:16.10	68.67	9.41	-83.9	-88.8	2.5	3.12e+01	0	47	104	0	60	1048574
2026-01-17 21:48:17.11	68.88	9.42	-83.9	-88.8	2.6	3.12e+01	0	47	104	0	60	1048574
2026-01-17 21:48:18.11	69.08	9.42	-84.3	-88.8	2.6	3.12e+01	0	47	104	0	60	1048574
2026-01-17 21:48:19.12	69.28	9.42	-83.9	-88.8	2.6	3.12e+01	0	47	104	0	60	1048574
2026-01-17 21:48:20.13	69.48	9.42	-84.3	-88.8	2.7	3.12e+01	0	47	104	0	60	1048574
2026-01-17 21:48:21.14	69.69	9.41	-83.9	-88.8	2.7	3.12e+01	0	47	104	0	60	1048574
2026-01-17 21:48:22.14	69.89	9.41	-84.3	-88.8	2.4	3.12e+01	0	47	104	0	60	1048574
2026-01-17 21:48:23.15	70.09	9.41	-84.3	-88.8	2.7	3.12e+01	0	47	104	0	60	1048574
2026-01-17 21:48:24.15	70.29	9.41	-84.3	-88.8	2.6	3.12e+01	0	47	104	0	60	1048574
2026-01-17 21:48:25.16	70.49	9.41	-84.3	-88.8	2.5	3.12e+01	0	47	104	0	60	1048574
2026-01-17 21:48:26.16	70.69	9.41	-83.9	-88.8	2.6	3.12e+01	0	47	104	0	60	1048574
2026-01-17 21:48:27.17	70.90	9.40	-84.3	-88.8	2.4	3.12e+01	0	47	104	0	60	1048574
2026-01-17 21:48:28.18	71.10	9.40	-83.9	-88.8	2.5	3.12e+01	0	47	104	0	60	1048574
2026-01-17 21:48:29.18	71.30	9.40	-84.3	-88.8	2.6	3.12e+01	0	47	104	0	60	1048574
2026-01-17 21:48:30.19	71.50	9.40	-84.3	-88.8	2.6	3.12e+01	0	47	104	0	60	1048574
2026-01-17 21:48:31.20	71.71	9.39	-83.9	-88.8	2.7	3.12e+01	0	47	104	0	60	1048574
2026-01-17 21:48:32.20	71.91	9.39	-84.3	-88.8	2.4	3.12e+01	0	47	104	0	60	1048574
2026-01-17 21:48:33.21	72.11	9.38	-84.3	-88.8	2.5	3.12e+01	0	47	104	0	60	1048574
2026-01-17 21:48:34.22	72.31	9.38	-84.3	-88.8	2.6	3.12e+01	0	47	104	0	60	1048574
2026-01-17 21:48:35.22	72.51	9.38	-83.9	-88.8	2.7	3.12e+01	0	47	104	0	60	1048574
2026-01-17 21:48:36.23	72.71	9.37	-83.9	-88.8	2.7	3.12e+01	0	47	104	0	60	1048574
2026-01-17 21:48:37.24	72.92	9.36	-84.3	-88.8	2.6	3.12e+01	0	47	104	0	60	1048574
2026-01-17 21:48:38.25	73.12	9.36	-84.3	-88.8	2.7	3.12e+01	0	47	104	0	60	1048574
2026-01-17 21:48:39.25	73.32	9.35	-84.3	-88.8	2.7	3.12e+01	0	47	104	0	60	1048574
2026-01-17 21:48:40.26	73.52	9.35	-83.9	-88.8	2.7	3.12e+01	0	47	104	0	60	1048574
2026-01-17 21:48:41.27	73.72	9.34	-84.3	-88.8	2.8	3.12e+01	0	47	104	0	60	1048574
2026-01-17 21:48:42.27	73.92	9.33	-84.3	-88.8	2.7	3.12e+01	0	47	104	0	60	1048574
2026-01-17 21:48:43.28	74.12	9.33	-84.3	-88.8	2.8	3.12e+01	0	47	104	0	60	1048574
2026-01-17 21:48:44.28	74.32	9.32	-84.3	-88.8	2.6	3.12e+01	0	47	104	0	60	1048574
2026-01-17 21:48:45.29	74.53	9.31	-83.5	-88.8	2.8	3.12e+01	0	47	104	0	60	1048574
2026-01-17 21:48:46.30	74.73	9.30	-84.3	-88.8	2.5	3.12e+01	0	47	104	0	60	1048574
2026-01-17 21:48:47.31	74.93	9.30	-84.3	-88.8	2.6	3.12e+01	0	47	104	0	60	1048574
2026-01-17 21:48:48.31	75.13	9.29	-84.3	-88.8	2.8	3.12e+01	0	47	104	0	60	1048574
2026-01-17 21:48:49.32	75.33	9.28	-83.9	-88.8	2.6	3.12e+01	0	47	104	0	60	1048574
2026-01-17 21:48:50.32	75.53	9.27	-83.9	-88.8	2.5	3.12e+01	0	47	104	0	60	1048574
2026-01-17 21:48:51.33	75.73	9.26	-84.3	-88.8	2.6	3.12e+01	0	47	104	0	60	1048574
2026-01-17 21:48:52.34	75.93	9.25	-84.3	-88.8	2.7	3.12e+01	0	47	104	0	60	1048574
2026-01-17 21:48:53.35	76.13	9.24	-84.3	-88.8	2.6	3.12e+01	0	47	104	0	60	1048574
2026-01-17 21:48:54.35	76.33	9.23	-83.9	-88.8	2.7	3.12e+01	0	47	104	0	60	1048574
2026-01-17 21:48:55.36	76.53	9.22	-83.9	-88.8	2.6	3.12e+01	0	47	104	0	60	1048574
2026-01-17 21:48:56.37	76.73	9.21	-84.3	-88.8	2.6	3.12e+01	0	47	104	0	60	1048574
2026-01-17 21:48:57.37	76.93	9.20	-84.3	-88.8	2.6	3.12e+01	0	47	104	0	60	1048574
2026-01-17 21:48:58.38	77.13	9.19	-84.3	-88.8	2.5	3.12e+01	0	47	104	0	60	1048574
2026-01-17 21:48:59.39	77.32	9.17	-83.9	-88.8	2.5	3.12e+01	0	47	104	0	60	1048574
2026-01-17 21:49:00.40	77.52	9.16	-83.9	-88.8	2.6	3.12e+01	0	47	104	0	60	1048574
2026-01-17 21:49:01.41	77.72	9.15	-84.3	-88.8	2.5	3.12e+01	0	47	104	0	60	1048574
2026-01-17 21:49:02.41	77.92	9.14	-84.3	-88.8	2.7	3.12e+01	0	47	104	0	60	1048574
2026-01-17 21:49:03.41	78.12	9.13	-84.3	-88.8	2.6	3.12e+01	0	47	104	0	60	1048574
2026-01-17 21:49:04.41	78.31	9.11	-83.5	-88.8	2.6	3.12e+01	0	47	104	0	60	1048574
2026-01-17 21:49:05.42	78.51	9.10	-84.3	-88.8	2.6	3.12e+01	0	47	104	0	60	1048574
2026-01-17 21:49:06.43	78.71	9.09	-84.3	-88.8	2.6	3.12e+01	0	47	104	0	60	1048574
2026-01-17 21:49:07.44	78.91	9.07	-84.3	-88.8	2.7	3.12e+01	0	47	104	0	60	1048574
2026-01-17 21:49:08.44	79.11	9.06	-83.9	-88.8	2.7	3.12e+01	0	47	104	0	60	1048574
2026-01-17 21:49:09.44	79.30	9.04	-83.9	-88.8	2.7	3.12e+01	0	47	104	0	60	1048574
2026-01-17 21:49:10.44	79.50	9.03	-84.3	-88.8	2.7	3.12e+01	0	47	104	0	60	1048574
2026-01-17 21:49:11.45	79.69	9.01	-84.3	-88.8	2.6	3.12e+01	0	47	104	0	60	1048574
2026-01-17 21:49:12.46	79.89	9.00	-84.3	-88.8	2.6	3.12e+01	0	47	104	0	60	1048574
2026-01-17 21:49:13.46	80.09	8.98	-83.9	-88.8	2.6	3.12e+01	0	47	104	0	60	1048574
2026-01-17 21:49:14.47	80.28	8.97	-83.9	-88.8	2.4	3.12e+01	0	47	104	0	60	1048574
2026-01-17 21:49:15.47	80.48	8.95	-84.3	-88.8	2.8	3.12e+01	0	47	104	0	60	1048574
2026-01-17 21:49:16.47	80.67	8.94	-84.3	-88.8	2.5	3.12e+01	0	47	104	0	60	1048574
2026-01-17 21:49:17.48	80.87	8.92	-84.3	-88.8	2.6	3.12e+01	0	47	104	0	60	1048574
2026-01-17 21:49:18.48	81.06	8.90	-83.5	-88.8	2.5	3.12e+01	0	47	104	0	60	1048574
2026-01-17 21:49:19.48	81.26	8.89	-84.3	-88.8	2.6	3.12e+01	0	47	104	0	60	1048574
2026-01-17 21:49:20.49	81.45	8.87	-84.3	-88.8	2.6	3.12e+01	0	47	104	0	60	1048574
2026-01-17 21:49:21.49	81.64	8.85	-84.3	-88.8	2.8	3.12e+01	0	47	104	0	60	1048574
2026-01-17 21:49:22.50	81.84	8.83	-84.3	-88.8	2.7	3.12e+01	0	47	104	0	60	1048574
2026-01-17 21:49:23.50	82.03	8.82	-83.9	-88.8	2.7	3.12e+01	0	47	104	0	60	1048574
2026-01-17 21:49:24.51	82.23	8.80	-84.3	-88.8	2.6	3.12e+01	0	47	104	0	60	1048574
2026-01-17 21:49:25.52	82.42	8.78	-84.3	-88.8	2.5	3.12e+01	0	47	104	0	60	1048574
2026-01-17 21:49:26.53	82.61	8.76	-84.3	-88.8	2.6	3.12e+01	0	47	104	0	60	1048574
2026-01-17 21:49:27.54	82.81	8.74	-83.9	-88.8	2.6	3.12e+01	0	47	104	0	60	1048574
2026-01-17 21:49:28.55	83.00	8.72	-83.9	-88.8	2.5	3.12e+01	0	47	104	0	60	1048574
2026-01-17 21:49:29.55	83.19	8.70	-84.3	-88.8	2.4	3.12e+01	0	47	104	0	60	1048574
2026-01-17 21:49:30.56	83.38	8.68	-84.3	-88.8	2.5	3.12e+01	0	47	104	0	60	1048574
2026-01-17 21:49:31.56	83.58	8.66	-84.3	-88.8	2.4	3.12e+01	0	47	104	0	60	1048575
2026-01-17 21:49:32.56	83.77	8.64	-83.9	-88.8	2.6	3.12e+01	0	47	104	0	60	1048575
2026-01-17 21:49:33.57	83.96	8.62	-83.9	-88.8	2.5	3.12e+01	0	47	104	0	60	1048575
2026-01-17 21:49:34.57	84.15	8.60	-84.3	-88.8	2.6	3.12e+01	0	47	104	0	60	1048575
2026-01-17 21:49:35.58	84.34	8.58	-84.3	-88.8	2.4	3.12e+01	0	47	104	0	60	1048575
2026-01-17 21:49:36.59	84.53	8.56	-84.3	-88.8	2.5	3.12e+01	0	47	104	0	60	1048575
2026-01-17 21:49:37.60	84.72	8.54	-83.9	-88.8	2.4	3.12e+01	0	47	104	0	60	1048575
2026-01-17 21:49:38.60	84.91	8.52	-83.9	-88.8	2.5	3.12e+01	0	47	104	0	60	1048575
2026-01-17 21:49:39.61	85.10	8.49	-84.3	-88.8	2.4	3.12e+01	0	47	104	0	60	1048575
2026-01-17 21:49:40.61	85.29	8.47	-84.3	-88.8	2.4	3.12e+01	0	47	104	0	60	1048575
2026-01-17 21:49:41.62	85.48	8.45	-83.9	-88.8	2.5	3.12e+01	0	47	104	0	60	1048575
2026-01-17 21:49:42.63	85.67	8.43	-83.9	-88.8	2.5	3.12e+01	0	47	104	0	60	1048575
2026-01-17 21:49:43.63	85.85	8.40	-84.3	-88.8	2.6	3.12e+01	0	47	104	0	60	1048575
2026-01-17 21:49:44.64	86.04	8.38	-84.3	-88.8	2.6	3.12e+01	0	47	104	0	60	1048575
2026-01-17 21:49:45.64	86.23	8.36	-84.3	-88.8	2.6	3.12e+01	0	47	104	0	60	1048575
2026-01-17 21:49:46.65	86.42	8.33	-83.9	-88.8	2.5	3.12e+01	0	47	104	0	60	1048575
2026-01-17 21:49:47.65	86.60	8.31	-83.9	-88.8	2.7	3.12e+01	0	47	104	0	60	1048575
2026-01-17 21:49:48.66	86.79	8.29	-84.3	-88.8	2.7	3.12e+01	0	47	104	0	60	1048575
2026-01-17 21:49:49.66	86.98	8.26	-84.3	-88.8	2.6	3.12e+01	0	47	104	0	60	1048575
2026-01-17 21:49:50.66	87.16	8.24	-84.3	-88.8	2.6	3.12e+01	0	47	104	0	60	1048575
2026-01-17 21:49:51.67	87.35	8.21	-83.9	-88.8	2.6	3.12e+01	0	47	104	0	60	1048575
2026-01-17 21:49:52.68	87.53	8.19	-83.9	-88.8	2.8	3.12e+01	0	47	104	0	60	1048575
2026-01-17 21:49:53.69	87.72	8.16	-84.3	-88.8	2.7	3.12e+01	0	47	104	0	60	1048575
2026-01-17 21:49:54.69	87.90	8.14	-84.3	-88.8	2.7	3.12e+01	0	47	104	0	60	1048575
2026-01-17 21:49:55.70	88.09	8.11	-84.3	-88.8	2.5	3.12e+01	0	47	104	0	60	1048575
2026-01-17 21:49:56.71	88.27	8.09	-83.9	-88.8	2.5	3.12e+01	0	47	104	0	60	1048575
2026-01-17 21:49:57.72	88.46	8.06	-84.3	-88.8	2.6	3.12e+01	0	47	104	0	60	1048575
2026-01-17 21:49:58.72	88.64	8.03	-84.3	-88.8	2.3	3.12e+01	0	47	104	0	60	1048575
2026-01-17 21:49:59.73	88.82	8.01	-84.3	-88.8	2.5	3.12e+01	0	47	104	0	60	1048575
2026-01-17 21:50:00.74	89.01	7.98	-83.9	-88.8	2.5	3.12e+01	0	47	104	0	60	1048575
2026-01-17 21:50:01.75	89.19	7.95	-83.9	-88.8	2.5	3.12e+01	0	47	104	0	60	1048575
2026-01-17 21:50:02.75	89.37	7.93	-84.3	-88.8	2.5	3.12e+01	0	47	104	0	60	1048575
2026-01-17 21:50:03.76	89.55	7.90	-84.3	-88.8	2.5	3.12e+01	0	47	104	0	60	1048575
2026-01-17 21:50:04.76	89.73	7.87	-84.3	-88.8	2.7	3.12e+01	0	47	104	0	60	1048575
2026-01-17 21:50:05.77	89.91	7.85	-83.9	-88.8	2.5	3.12e+01	0	47	104	0	60	1048575
2026-01-17 21:50:06.78	90.10	7.82	-83.9	-88.8	2.6	3.12e+01	0	47	104	0	60	1048575
2026-01-17 21:50:07.79	90.28	7.79	-84.3	-88.8	2.5	3.12e+01	0	47	104	0	60	1048575
2026-01-17 21:50:08.79	90.45	7.76	-84.3	-88.8	2.4	3.12e+01	0	47	104	0	60	1048575
2026-01-17 21:50:09.79	90.63	7.73	-84.3	-88.8	2.6	3.12e+01	0	47	104	0	60	1048575
2026-01-17 21:50:10.80	90.81	7.70	-83.9	-88.8	2.5	3.12e+01	0	47	104	0	60	1048575
2026-01-17 21:50:11.81	90.99	7.68	-84.3	-88.8	2.6	3.12e+01	0	47	104	0	60	1048575
2026-01-17 21:50:12.82	91.17	7.65	-84.3	-88.8	2.6	3.12e+01	0	47	104	0	60	1048575
2026-01-17 21:50:13.83	91.35	7.62	-84.3	-88.8	2.6	3.12e+01	0	47	104	0	60	1048575
2026-01-17 21:50:14.83	91.53	7.59	-84.3	-88.8	2.5	3.12e+01	0	47	104	0	60	1048575
2026-01-17 21:50:15.84	91.70	7.56	-83.9	-88.8	2.2	3.12e+01	0	47	104	0	60	1048575
2026-01-17 21:50:16.85	91.88	7.53	-84.3	-88.8	2.6	3.12e+01	0	47	104	0	60	1048575
2026-01-17 21:50:17.85	92.06	7.50	-84.3	-88.8	2.7	3.12e+01	0	47	104	0	60	1048575
2026-01-17 21:50:18.86	92.23	7.47	-84.3	-88.8	2.5	3.12e+01	0	47	104	0	60	1048575
2026-01-17 21:50:19.87	92.41	7.44	-83.9	-88.8	2.4	3.12e+01	0	47	104	0	60	1048575
2026-01-17 21:50:20.88	92.59	7.41	-83.9	-88.8	2.5	3.12e+01	0	47	104	0	60	1048575
2026-01-17 21:50:21.89	92.76	7.38	-84.3	-88.8	2.5	3.12e+01	0	47	104	0	60	1048575
2026-01-17 21:50:22.89	92.94	7.35	-84.3	-88.8	2.6	3.12e+01	0	47	104	0	60	1048575
2026-01-17 21:50:23.89	93.11	7.32	-84.3	-88.8	2.5	3.12e+01	0	47	104	0	60	1048575
2026-01-17 21:50:24.89	93.28	7.29	-83.9	-88.8	2.7	3.12e+01	0	47	104	0	60	1048575
2026-01-17 21:50:25.90	93.46	7.26	-83.9	-88.8	2.4	3.12e+01	0	47	104	0	60	1048575
2026-01-17 21:50:26.91	93.63	7.22	-84.3	-88.8	2.6	3.12e+01	0	47	104	0	60	1048575
2026-01-17 21:50:27.92	93.80	7.19	-84.3	-88.8	2.6	3.12e+01	0	47	104	0	60	1048575
2026-01-17 21:50:28.92	93.97	7.16	-84.3	-88.8	2.7	3.12e+01	0	47	104	0	60	1048575
2026-01-17 21:50:29.93	94.15	7.13	-83.9	-88.8	2.3	3.12e+01	0	47	104	0	60	1048575
2026-01-17 21:50:30.93	94.32	7.10	-84.3	-88.8	2.5	3.12e+01	0	47	104	0	60	1048575
2026-01-17 21:50:31.94	94.49	7.06	-84.3	-88.8	2.7	3.12e+01	0	47	104	0	60	1048575
2026-01-17 21:50:32.95	94.66	7.03	-84.3	-88.8	2.5	3.12e+01	0	47	104	0	60	1048575
2026-01-17 21:50:33.96	94.83	7.00	-84.3	-88.8	2.6	3.12e+01	0	47	104	0	60	1048575
2026-01-17 21:50:34.96	95.00	6.97	-83.9	-88.8	2.6	3.12e+01	0	47	104	0	60	1048575
2026-01-17 21:50:35.97	95.17	6.93	-84.3	-88.8	2.7	3.12e+01	0	47	104	0	60	1048575
2026-01-17 21:50:36.97	95.34	6.90	-84.3	-88.8	2.6	3.12e+01	0	47	104	0	60	1048575
2026-01-17 21:50:37.98	95.51	6.87	-84.3	-88.8	2.5	3.12e+01	0	47	104	0	60	1048575
2026-01-17 21:50:38.98	95.68	6.83	-83.9	-88.8	2.8	3.12e+01	0	47	104	0	60	1048575
2026-01-17 21:50:39.99	95.84	6.80	-83.9	-88.8	2.4	3.12e+01	0	47	104	0	60	1048575
2026-01-17 21:50:40.99	96.01	6.77	-84.3	-88.8	2.5	3.12e+01	0	47	104	0	60	1048575
2026-01-17 21:50:42.00	96.18	6.73	-84.3	-88.8	2.5	3.12e+01	0	47	104	0	60	1048575
2026-01-17 21:50:43.00	96.34	6.70	-84.3	-88.8	2.4	3.12e+01	0	47	104	0	60	1048575
2026-01-17 21:50:44.01	96.51	6.67	-83.5	-88.8	2.7	3.12e+01	0	47	104	0	60	1048575
2026-01-17 21:50:45.01	96.68	6.63	-83.9	-88.8	2.5	3.12e+01	0	47	104	0	60	1048575
2026-01-17 21:50:46.02	96.84	6.60	-84.3	-88.8	2.8	3.12e+01	0	47	104	0	60	1048575
2026-01-17 21:50:47.03	97.01	6.56	-84.3	-88.8	2.6	3.12e+01	0	47	104	0	60	1048575
2026-01-17 21:50:48.04	97.17	6.53	-83.9	-88.8	2.5	3.12e+01	0	47	104	0	60	1048575
2026-01-17 21:50:49.05	97.34	6.49	-83.9	-88.8	2.6	3.12e+01	0	47	104	0	60	1048575
2026-01-17 21:50:50.05	97.50	6.46	-84.3	-88.8	2.6	3.12e+01	0	47	104	0	60	1048575
2026-01-17 21:50:51.06	97.66	6.42	-84.3	-88.8	2.6	3.12e+01	0	47	104	0	60	1048575
2026-01-17 21:50:52.07	97.83	6.39	-84.3	-88.8	2.5	3.12e+01	0	47	104	0	60	1048575
2026-01-17 21:50:53.08	97.99	6.35	-84.3	-88.8	2.5	3.12e+01	0	47	104	0	60	1048575
2026-01-17 21:50:54.08	98.15	6.32	-83.9	-88.8	2.6	3.12e+01	0	47	104	0	60	1048575
2026-01-17 21:50:55.08	98.31	6.28	-84.3	-88.8	2.5	3.12e+01	0	47	104	0	60	1048575
2026-01-17 21:50:56.08	98.47	6.25	-84.3	-88.8	2.6	3.12e+01	0	47	104	0	60	1048575
2026-01-17 21:50:57.09	98.63	6.21	-84.3	-88.8	2.6	3.12e+01	0	47	104	0	60	1048575
2026-01-17 21:50:58.10	98.80	6.18	-83.9	-88.8	2.6	3.12e+01	0	47	104	0	60	1048575
2026-01-17 21:50:59.11	98.96	6.14	-84.3	-88.8	2.6	3.12e+01	0	47	104	0	60	1048575
2026-01-17 21:51:00.11	99.11	6.10	-84.3	-88.8	2.6	3.12e+01	0	47	104	0	60	1048575
2026-01-17 21:51:01.12	99.27	6.07	-84.3	-88.8	2.6	3.12e+01	0	47	104	0	60	1048575
2026-01-17 21:51:02.13	99.43	6.03	-84.3	-88.8	2.5	3.12e+01	0	47	104	0	60	1048575
2026-01-17 21:51:03.14	99.59	5.99	-83.9	-88.8	2.5	3.12e+01	0	47	104	0	60	1048575
2026-01-17 21:51:04.15	99.75	5.96	-84.3	-88.8	2.6	3.12e+01	0	47	104	0	60	1048575
2026-01-17 21:51:05.16	99.91	5.92	-84.3	-88.8	2.7	3.12e+01	0	47	104	0	60	1048575
2026-01-17 21:51:06.16	100.07	5.88	-84.3	-88.8	2.7	3.12e+01	0	47	104	0	60	1048575
2026-01-17 21:51:07.17	100.22	5.85	-84.3	-88.8	2.5	3.12e+01	0	47	104	0	60	1048575
2026-01-17 21:51:08.18	100.38	5.81	-83.9	-88.8	2.6	3.12e+01	0	47	104	0	60	1048575
2026-01-17 21:51:09.18	100.54	5.77	-84.3	-88.8	2.6	3.12e+01	0	47	104	0	60	1048575
2026-01-17 21:51:10.18	100.69	5.74	-83.9	-88.8	2.6	3.12e+01	0	47	104	0	60	1048575
2026-01-17 21:51:11.19	100.85	5.70	-84.3	-88.8	2.4	3.12e+01	0	47	104	0	60	1048575
2026-01-17 21:51:12.20	101.00	5.66	-84.3	-88.8	2.5	3.12e+01	0	47	104	0	60	1048575
2026-01-17 21:51:13.20	101.15	5.62	-83.9	-88.8	2.7	3.12e+01	0	47	104	0	60	1048575
2026-01-17 21:51:14.21	101.31	5.59	-84.3	-88.8	2.5	3.12e+01	0	47	104	0	60	1048575
2026-01-17 21:51:15.22	101.46	5.55	-84.3	-88.8	2.7	3.12e+01	0	47	104	0	60	1048575
2026-01-17 21:51:16.22	101.61	5.51	-84.3	-88.8	2.7	3.12e+01	0	47	104	0	60	1048575
2026-01-17 21:51:17.23	101.77	5.47	-83.9	-88.8	2.6	3.12e+01	0	47	104	0	60	1048575
2026-01-17 21:51:18.24	101.92	5.43	-83.9	-88.8	2.7	3.12e+01	0	47	104	0	60	1048575
2026-01-17 21:51:19.25	102.07	5.40	-83.9	-88.8	2.4	3.12e+01	0	47	104	0	60	1048575
2026-01-17 21:51:20.25	102.22	5.36	-84.3	-88.8	2.5	3.12e+01	0	47	104	0	60	1048575
2026-01-17 21:51:21.26	102.38	5.32	-83.9	-88.8	2.6	3.12e+01	0	47	104	0	60	1048575
2026-01-17 21:51:22.27	102.53	5.28	-83.9	-88.8	2.7	3.12e+01	0	47	104	0	60	1048575
2026-01-17 21:51:23.28	102.68	5.24	-84.3	-88.8	2.5	3.12e+01	0	47	104	0	60	1048575
2026-01-17 21:51:24.28	102.83	5.20	-84.3	-88.8	2.6	3.12e+01	0	47	104	0	60	1048575
2026-01-17 21:51:25.29	102.98	5.17	-84.3	-88.8	2.7	3.12e+01	0	47	104	0	60	1048575
2026-01-17 21:51:26.29	103.12	5.13	-83.9	-88.8	2.6	3.12e+01	0	47	104	0	60	1048575
2026-01-17 21:51:27.30	103.27	5.09	-83.9	-88.8	2.5	3.12e+01	0	47	104	0	60	1048575
2026-01-17 21:51:28.31	103.42	5.05	-84.3	-88.8	2.7	3.12e+01	0	47	104	0	60	1048575
2026-01-17 21:51:29.32	103.57	5.01	-83.9	-88.8	2.4	3.12e+01	0	47	104	0	60	1048575
2026-01-17 21:51:30.32	103.72	4.97	-84.3	-88.8	2.6	3.12e+01	0	47	104	0	60	1048575
2026-01-17 21:51:31.33	103.86	4.93	-83.9	-88.8	2.5	3.12e+01	0	47	104	0	60	1048575
2026-01-17 21:51:32.33	104.01	4.89	-83.9	-88.8	2.3	3.12e+01	0	47	104	0	60	1048575
2026-01-17 21:51:33.34	104.15	4.85	-84.3	-88.8	2.4	3.12e+01	0	47	104	0	60	1048575
2026-01-17 21:51:34.35	104.30	4.81	-84.3	-88.8	2.5	3.12e+01	0	47	104	0	60	1048575
2026-01-17 21:51:35.36	104.45	4.77	-84.3	-88.8	2.5	3.12e+01	0	47	104	0	60	1048575
2026-01-17 21:51:36.37	104.59	4.73	-83.9	-88.8	2.7	3.12e+01	0	47	104	0	60	1048575
2026-01-17 21:51:37.37	104.73	4.69	-84.3	-88.8	2.5	3.12e+01	0	47	104	0	60	1048575
2026-01-17 21:51:38.38	104.88	4.65	-84.3	-88.8	2.6	3.12e+01	0	47	104	0	60	1048575
2026-01-17 21:51:39.39	105.02	4.61	-84.3	-88.8	2.6	3.12e+01	0	47	104	0	60	1048575
2026-01-17 21:51:40.40	105.17	4.57	-83.9	-88.8	2.5	3.12e+01	0	47	104	0	60	1048575
2026-01-17 21:51:41.41	105.31	4.53	-83.9	-88.8	2.5	3.12e+01	0	47	104	0	60	1048575
2026-01-17 21:51:42.41	105.45	4.49	-83.9	-88.8	2.5	3.12e+01	0	47	104	0	60	1048575
2026-01-17 21:51:43.42	105.59	4.45	-84.3	-88.8	2.6	3.12e+01	0	47	104	0	60	1048575
2026-01-17 21:51:44.42	105.73	4.41	-84.3	-88.8	2.5	3.12e+01	0	47	104	0	60	1048575
2026-01-17 21:51:45.42	105.87	4.37	-83.9	-88.8	2.6	3.12e+01	0	47	104	0	60	1048575
2026-01-17 21:51:46.42	106.01	4.33	-83.9	-88.8	2.6	3.12e+01	0	47	104	0	60	1048575
2026-01-17 21:51:47.43	106.15	4.29	-84.3	-88.8	2.4	3.12e+01	0	47	104	0	60	1048575
2026-01-17 21:51:48.43	106.29	4.25	-84.3	-88.8	2.4	3.12e+01	0	47	104	0	60	1048575
2026-01-17 21:51:49.44	106.43	4.21	-84.3	-88.8	2.6	3.12e+01	0	47	104	0	60	1048575
2026-01-17 21:51:50.44	106.57	4.17	-83.9	-88.8	2.6	3.12e+01	0	47	104	0	60	1048575
2026-01-17 21:51:51.45	106.71	4.13	-83.9	-88.8	2.6	3.12e+01	0	47	104	0	60	1048575
2026-01-17 21:51:52.46	106.85	4.09	-84.3	-88.8	2.8	3.12e+01	0	47	104	0	60	1048575
2026-01-17 21:51:53.46	106.99	4.05	-84.3	-88.8	2.5	3.12e+01	0	47	104	0	60	1048575
2026-01-17 21:51:54.47	107.12	4.01	-84.3	-88.8	2.6	3.12e+01	0	47	104	0	60	1048575
2026-01-17 21:51:55.48	107.26	3.97	-83.9	-88.8	2.6	3.12e+01	0	47	104	0	60	1048575
2026-01-17 21:51:56.49	107.40	3.93	-84.3	-88.8	2.5	3.12e+01	0	47	104	0	60	1048575
2026-01-17 21:51:57.49	107.53	3.89	-84.3	-88.8	2.6	3.12e+01	0	47	104	0	60	1048575
2026-01-17 21:51:58.50	107.67	3.85	-84.3	-88.8	2.7	3.12e+01	0	47	104	0	60	1048575
2026-01-17 21:51:59.51	107.81	3.80	-83.9	-88.8	2.7	3.12e+01	0	47	104	0	60	1048575
2026-01-17 21:52:00.52	107.94	3.76	-83.9	-88.8	2.6	3.12e+01	0	47	104	0	60	1048575
2026-01-17 21:52:01.52	108.08	3.72	-84.3	-88.8	2.5	3.12e+01	0	47	104	0	60	1048575
2026-01-17 21:52:02.53	108.21	3.68	-84.3	-88.8	2.4	3.12e+01	0	47	104	0	60	1048575
2026-01-17 21:52:03.54	108.34	3.64	-84.3	-88.8	2.8	3.12e+01	0	47	104	0	60	1048575
2026-01-17 21:52:04.55	108.48	3.60	-84.3	-88.8	2.7	3.12e+01	0	47	104	0	60	1048575
2026-01-17 21:52:05.56	108.61	3.56	-84.3	-88.8	2.6	3.12e+01	0	47	104	0	60	1048575
2026-01-17 21:52:06.56	108.74	3.51	-84.3	-88.8	2.4	3.12e+01	0	47	104	0	60	1048575
2026-01-17 21:52:07.57	108.88	3.47	-84.3	-88.8	2.7	3.12e+01	0	47	104	0	60	1048575
2026-01-17 21:52:08.58	109.01	3.43	-84.3	-88.8	2.5	3.12e+01	0	47	104	0	60	1048575
2026-01-17 21:52:09.59	109.14	3.39	-83.9	-88.8	2.7	3.12e+01	0	47	104	0	60	1048575
2026-01-17 21:52:10.60	109.27	3.35	-84.3	-88.8	2.6	3.12e+01	0	47	104	0	60	1048575
2026-01-17 21:52:11.60	109.40	3.31	-84.3	-88.8	2.8	3.12e+01	0	47	104	0	60	1048575
2026-01-17 21:52:12.62	109.53	3.26	-84.3	-88.8	2.7	3.12e+01	0	47	104	0	60	1048575
2026-01-17 21:52:13.62	109.66	3.22	-84.3	-88.8	2.8	3.12e+01	0	47	104	0	60	1048575
2026-01-17 21:52:14.63	109.79	3.18	-83.9	-88.8	2.5	3.12e+01	0	47	104	0	60	1048575
2026-01-17 21:52:15.63	109.92	3.14	-84.3	-88.8	2.4	3.12e+01	0	47	104	0	60	1048575
2026-01-17 21:52:16.64	110.05	3.10	-83.9	-88.8	2.6	3.12e+01	0	47	104	0	60	1048575
2026-01-17 21:52:17.64	110.18	3.06	-84.3	-88.8	2.5	3.12e+01	0	47	104	0	60	1048575
2026-01-17 21:52:18.65	110.31	3.01	-83.9	-88.8	2.6	3.12e+01	0	47	104	0	60	1048575
2026-01-17 21:52:19.66	110.43	2.97	-83.5	-88.8	2.5	3.12e+01	0	47	104	0	60	1048575
2026-01-17 21:52:20.66	110.56	2.93	-84.3	-88.8	2.4	3.12e+01	0	47	104	0	60	1048575
2026-01-17 21:52:21.67	110.69	2.89	-84.3	-88.8	2.5	3.12e+01	0	47	104	0	60	1048575
2026-01-17 21:52:22.68	110.81	2.84	-84.3	-88.8	2.6	3.12e+01	0	47	104	0	60	1048575
2026-01-17 21:52:23.68	110.94	2.80	-83.5	-88.8	2.5	3.12e+01	0	47	104	0	60	1048575
2026-01-17 21:52:24.68	111.06	2.76	-83.9	-88.8	2.6	3.12e+01	0	47	104	0	60	1048575
2026-01-17 21:52:25.69	111.19	2.72	-84.3	-88.8	2.6	3.12e+01	0	47	104	0	60	1048575
2026-01-17 21:52:26.70	111.32	2.68	-84.3	-88.8	2.5	3.12e+01	0	47	104	0	60	1048575
2026-01-17 21:52:27.71	111.44	2.63	-84.3	-88.8	2.5	3.12e+01	0	47	104	0	60	1048575
2026-01-17 21:52:28.72	111.57	2.59	-83.9	-88.8	2.6	3.12e+01	0	47	104	0	60	1048575
2026-01-17 21:52:29.73	111.69	2.55	-83.9	-88.8	2.5	3.12e+01	0	47	104	0	60	1048575
2026-01-17 21:52:30.73	111.81	2.51	-84.3	-88.8	2.7	3.12e+01	0	47	104	0	60	1048575
2026-01-17 21:52:31.74	111.94	2.46	-84.3	-88.8	2.6	3.12e+01	0	47	104	0	60	1048575
2026-01-17 21:52:32.75	112.06	2.42	-83.9	-88.8	2.5	3.12e+01	0	47	104	0	60	1048575
2026-01-17 21:52:33.75	112.18	2.38	-83.9	-88.8	2.5	3.12e+01	0	47	104	0	60	1048575
2026-01-17 21:52:34.76	112.30	2.34	-83.9	-88.8	2.6	3.12e+01	0	47	104	0	60	1048575
2026-01-17 21:52:35.77	112.42	2.29	-84.3	-88.8	2.7	3.12e+01	0	47	104	0	60	1048575
2026-01-17 21:52:36.78	112.55	2.25	-84.3	-88.8	2.5	3.12e+01	0	47	104	0	60	1048575
2026-01-17 21:52:37.78	112.67	2.21	-83.9	-88.8	2.8	3.12e+01	0	47	104	0	60	1048575
2026-01-17 21:52:38.79	112.79	2.17	-83.9	-88.8	2.6	3.12e+01	0	47	104	0	60	1048575
2026-01-17 21:52:39.80	112.91	2.12	-84.3	-88.8	2.7	3.12e+01	0	47	104	0	60	1048575
2026-01-17 21:52:40.81	113.03	2.08	-84.3	-88.8	2.6	3.12e+01	0	47	104	0	60	1048575
2026-01-17 21:52:41.81	113.15	2.04	-84.3	-88.8	2.5	3.12e+01	0	47	104	0	60	1048575
2026-01-17 21:52:42.82	113.27	2.00	-83.9	-88.8	2.5	3.12e+01	0	47	104	0	60	1048575
2026-01-17 21:52:43.82	113.38	1.95	-83.9	-88.8	2.6	3.12e+01	0	47	104	0	60	1048575
2026-01-17 21:52:44.83	113.50	1.91	-84.3	-88.8	2.5	3.12e+01	0	47	104	0	60	1048575
2026-01-17 21:52:45.84	113.62	1.87	-84.3	-88.8	2.6	3.12e+01	0	47	104	0	60	1048575
2026-01-17 21:52:46.85	113.74	1.82	-84.3	-88.8	2.5	3.12e+01	0	47	104	0	60	1048575
2026-01-17 21:52:47.85	113.85	1.78	-83.9	-88.8	2.7	3.12e+01	0	47	104	0	60	1048575
2026-01-17 21:52:48.86	113.97	1.74	-84.3	-88.8	2.6	3.12e+01	0	47	104	0	60	1048575
2026-01-17 21:52:49.87	114.09	1.70	-84.3	-88.8	2.5	3.12e+01	0	47	104	0	60	1048575
2026-01-17 21:52:50.86	114.20	1.65	-84.3	-88.8	2.5	3.12e+01	0	47	104	0	60	1048575
2026-01-17 21:52:51.87	114.32	1.61	-84.3	-88.8	2.6	3.12e+01	0	47	104	0	60	1048575
2026-01-17 21:52:52.88	114.44	1.57	-83.9	-88.8	2.4	3.12e+01	0	47	104	0	60	1048575
2026-01-17 21:52:53.89	114.55	1.53	-84.3	-88.8	2.7	3.12e+01	0	47	104	0	60	1048575
2026-01-17 21:52:54.89	114.66	1.48	-84.3	-88.8	2.5	3.12e+01	0	47	104	0	60	1048575
2026-01-17 21:52:55.90	114.78	1.44	-84.3	-88.8	2.8	3.12e+01	0	47	104	0	60	1048575
2026-01-17 21:52:56.90	114.89	1.40	-83.9	-88.8	2.5	3.12e+01	0	47	104	0	60	1048575
2026-01-17 21:52:57.90	115.01	1.35	-83.9	-88.8	2.7	3.12e+01	0	47	104	0	60	1048575
2026-01-17 21:52:58.90	115.12	1.31	-84.3	-88.8	2.4	3.12e+01	0	47	104	0	60	1048575
2026-01-17 21:52:59.91	115.23	1.27	-84.3	-88.8	2.5	3.12e+01	0	47	104	0	60	1048575
2026-01-17 21:53:00.91	115.34	1.23	-84.3	-88.8	2.5	3.12e+01	0	47	104	0	60	1048575
2026-01-17 21:53:01.92	115.46	1.18	-83.9	-88.8	2.6	3.12e+01	0	47	104	0	60	1048575
2026-01-17 21:53:02.93	115.57	1.14	-84.3	-88.8	2.6	3.12e+01	0	47	104	0	60	1048575
2026-01-17 21:53:03.93	115.68	1.10	-84.3	-88.8	2.6	3.12e+01	0	47	104	0	60	1048575
2026-01-17 21:53:04.93	115.79	1.05	-84.3	-88.8	2.7	3.12e+01	0	47	104	0	60	1048575
2026-01-17 21:53:05.93	115.90	1.01	-84.3	-88.8	2.7	3.12e+01	0	47	104	0	60	1048575
2026-01-17 21:53:06.93	116.01	0.97	-83.9	-88.8	2.5	3.12e+01	0	47	104	0	60	1048575
2026-01-17 21:53:07.94	116.12	0.93	-84.3	-88.8	2.6	3.12e+01	0	47	104	0	60	1048575
2026-01-17 21:53:08.94	116.23	0.88	-84.3	-88.8	2.4	3.12e+01	0	47	104	0	60	1048575
2026-01-17 21:53:09.95	116.34	0.84	-84.3	-88.8	2.6	3.12e+01	0	47	104	0	60	1048575
2026-01-17 21:53:10.95	116.45	0.80	-84.3	-88.8	2.6	3.12e+01	0	47	104	0	60	1048575
2026-01-17 21:53:11.95	116.56	0.75	-83.9	-88.8	2.7	3.12e+01	0	47	104	0	60	1048575
2026-01-17 21:53:12.96	116.67	0.71	-84.3	-88.8	2.7	3.12e+01	0	47	104	0	60	1048575
2026-01-17 21:53:13.97	116.78	0.67	-84.3	-88.8	2.5	3.12e+01	0	47	104	0	60	1048575
2026-01-17 21:53:14.97	116.88	0.62	-84.3	-88.8	2.7	3.12e+01	0	47	104	0	60	1048575
2026-01-17 21:53:15.98	116.99	0.58	-83.9	-88.8	2.3	3.12e+01	0	47	104	0	60	1048575
2026-01-17 21:53:16.98	117.10	0.54	-83.9	-88.8	2.6	3.12e+01	0	47	104	0	60	1048575
2026-01-17 21:53:17.99	117.20	0.50	-84.3	-88.8	2.4	3.12e+01	0	47	104	0	60	1048575
2026-01-17 21:53:18.99	117.31	0.45	-84.3	-88.8	2.6	3.12e+01	0	47	104	0	60	1048575
2026-01-17 21:53:20.00	117.42	0.41	-84.3	-88.8	2.5	3.12e+01	0	47	104	0	60	1048575
2026-01-17 21:53:21.01	117.52	0.37	-83.9	-88.8	2.6	3.12e+01	0	47	104	0	60	1048575
2026-01-17 21:53:22.02	117.63	0.32	-83.9	-88.8	2.8	3.12e+01	0	47	104	0	60	1048575
2026-01-17 21:53:23.02	117.73	0.28	-84.3	-88.8	2.6	3.12e+01	0	47	104	0	60	1048575
2026-01-17 21:53:24.03	117.84	0.24	-84.3	-88.8	2.5	3.12e+01	0	47	104	0	60	1048575
2026-01-17 21:53:25.03	117.94	0.19	-84.3	-88.8	2.5	3.12e+01	0	47	104	0	60	1048575
2026-01-17 21:53:26.04	118.05	0.15	-83.9	-88.8	2.6	3.12e+01	0	47	104	0	60	1048575
2026-01-17 21:53:27.04	118.15	0.11	-84.3	-88.8	2.4	3.12e+01	0	47	104	0	60	1048575
2026-01-17 21:53:28.05	118.26	0.06	-84.3	-88.8	2.4	3.12e+01	0	47	104	0	60	1048575
2026-01-17 21:53:29.05	118.36	0.02	-84.3	-88.8	2.5	3.12e+01	0	47	104	0	60	1048575
2026-01-17 21:53:30.06	118.46	-0.02	-83.9	-88.8	2.6	3.12e+01	0	47	104	0	60	1048575
2026-01-17 21:53:31.06	118.57	-0.06	-83.9	-88.8	2.6	3.12e+01	0	47	104	0	60	1048574

#Closed at: 2026-01-17 21:53:31
#Recorded file [0 MB]: D:/Data/35015_260118_004305.dat