passes_logs/2026/01/17/R3.2S-Naryan-Mar/R3.2S-Naryan-Mar__20260117_202313_NOAA_21_JPSS-2_rec.log

#Pass ID: 20260117_202313_NOAA 21 (JPSS-2)
#Satellite: NOAA 21 (JPSS-2)
#Configuration: NOAA-21
#almurnet v.1.7.20240730
#Start time: 2026-01-17 20:23:16

#Version: 2.2.20231116
#Station: R3.2S-Naryan-Mar
#Location: 53.008057 lon 67.646978 lat
#TLE: 1 54234U 22150A   26016.56338662  .00000024  00000+0  32257-4 0  9990
#TLE: 2 54234  98.7500 317.4442 0000622 279.9774  80.1332 14.19534942165033

#Time	Az	El	Level	Level2	SNR	BER	BlckErr	Temp	State	Recorded	gain1	gain2
2026-01-17 20:23:16.74	16.49	0.14	-83.5	-79.0	2.4	0.00e+00	0	45	0	0	60	1048572
2026-01-17 20:23:17.75	16.57	0.19	-85.2	-88.8	2.5	1.56e+00	0	46	104	0	60	1048575
2026-01-17 20:23:18.76	16.65	0.24	-85.2	-88.8	2.7	1.56e+00	0	46	104	0	60	1048573
2026-01-17 20:23:19.77	16.73	0.28	-85.2	-88.8	2.8	1.56e+00	0	46	104	0	60	1048567
2026-01-17 20:23:20.77	16.81	0.33	-85.2	-88.8	2.8	1.56e+00	0	46	104	0	60	1048575
2026-01-17 20:23:21.78	16.89	0.38	-85.2	-88.8	2.7	1.56e+00	0	46	104	0	60	1048575
2026-01-17 20:23:22.79	16.97	0.43	-85.2	-88.8	2.6	1.56e+00	0	46	104	0	60	1048575
2026-01-17 20:23:23.80	17.05	0.48	-85.2	-88.8	2.5	1.56e+00	0	46	104	0	60	1048574
2026-01-17 20:23:24.80	17.13	0.52	-84.7	-88.8	2.6	1.56e+00	0	46	104	0	60	1048574
2026-01-17 20:23:25.81	17.21	0.57	-85.2	-88.8	2.7	1.56e+00	0	46	104	0	60	1048574
2026-01-17 20:23:26.81	17.29	0.62	-85.2	-88.8	2.9	1.56e+00	0	46	104	0	60	1048575
2026-01-17 20:23:27.81	17.37	0.67	-85.2	-88.8	2.6	1.56e+00	0	46	104	0	60	1048574
2026-01-17 20:23:28.81	17.45	0.71	-85.2	-88.8	2.6	1.56e+00	0	46	104	0	60	1048573
2026-01-17 20:23:29.82	17.53	0.76	-85.2	-88.8	2.6	1.56e+00	0	46	104	0	60	1048575
2026-01-17 20:23:30.83	17.62	0.81	-85.2	-88.8	2.7	1.56e+00	0	46	104	0	60	1048572
2026-01-17 20:23:31.84	17.70	0.86	-85.2	-88.8	2.5	1.56e+00	0	46	104	0	60	1048571
2026-01-17 20:23:32.85	17.78	0.91	-85.2	-88.8	2.8	1.56e+00	0	46	104	0	60	1048575
2026-01-17 20:23:33.85	17.86	0.96	-85.2	-88.8	2.6	1.56e+00	0	46	104	0	60	1048569
2026-01-17 20:23:34.86	17.95	1.00	-85.2	-88.8	2.9	1.56e+00	0	46	104	0	60	1048574
2026-01-17 20:23:35.87	18.03	1.05	-85.2	-88.8	2.9	1.56e+00	0	46	104	0	60	1048575
2026-01-17 20:23:36.88	18.11	1.10	-85.2	-88.8	2.6	1.56e+00	0	46	104	0	60	1048572
2026-01-17 20:23:37.89	18.20	1.15	-85.2	-88.8	2.7	1.56e+00	0	46	104	0	60	1048575
2026-01-17 20:23:38.89	18.28	1.20	-83.5	-88.8	2.7	1.56e+00	0	46	104	0	60	1048573
2026-01-17 20:23:39.90	18.37	1.25	-85.2	-88.8	2.5	1.56e+00	0	46	104	0	60	1048575
2026-01-17 20:23:40.91	18.45	1.29	-85.2	-88.8	2.9	1.56e+00	0	46	104	0	60	1048572
2026-01-17 20:23:41.91	18.53	1.34	-85.2	-88.8	2.8	1.56e+00	0	46	104	0	60	1048574
2026-01-17 20:23:42.91	18.62	1.39	-85.2	-88.8	2.5	1.56e+00	0	46	104	0	60	1048571
2026-01-17 20:23:43.91	18.70	1.44	-85.2	-88.8	2.6	1.56e+00	0	46	104	0	60	1048575
2026-01-17 20:23:44.92	18.79	1.49	-85.2	-88.8	2.8	1.56e+00	0	46	104	0	60	1048575
2026-01-17 20:23:45.92	18.88	1.54	-85.2	-88.8	2.8	1.56e+00	0	46	104	0	60	1048575
2026-01-17 20:23:46.93	18.96	1.58	-85.2	-88.8	2.8	1.56e+00	0	46	104	0	60	1048573
2026-01-17 20:23:47.93	19.05	1.63	-84.7	-88.8	3.0	1.56e+00	0	46	104	0	60	1048573
2026-01-17 20:23:48.94	19.13	1.68	-85.2	-88.8	2.7	1.56e+00	0	47	104	0	60	1048574
2026-01-17 20:23:49.95	19.22	1.73	-85.2	-88.8	2.7	1.56e+00	0	46	104	0	60	1048571
2026-01-17 20:23:50.96	19.31	1.78	-85.2	-88.8	2.7	1.56e+00	0	46	104	0	60	1048575
2026-01-17 20:23:51.96	19.40	1.83	-85.2	-88.8	2.8	1.56e+00	0	46	104	0	60	1048575
2026-01-17 20:23:52.97	19.48	1.88	-85.2	-88.8	2.8	1.56e+00	0	46	104	0	60	1048572
2026-01-17 20:23:53.98	19.57	1.93	-85.2	-88.8	2.8	1.56e+00	0	46	104	0	60	1048573
2026-01-17 20:23:54.98	19.66	1.97	-85.2	-88.8	2.7	1.56e+00	0	46	104	0	60	1048574
2026-01-17 20:23:55.99	19.75	2.02	-85.2	-88.8	2.8	1.56e+00	0	47	104	0	60	1048574
2026-01-17 20:23:57.00	19.84	2.07	-85.2	-88.8	2.8	1.56e+00	0	47	104	0	60	1048572
2026-01-17 20:23:58.01	19.93	2.12	-84.7	-88.8	2.8	1.56e+00	0	47	104	0	60	1048575
2026-01-17 20:23:59.01	20.02	2.17	-85.2	-88.8	2.6	1.56e+00	0	47	104	0	60	1048575
2026-01-17 20:24:00.02	20.11	2.22	-85.2	-88.8	2.8	1.56e+00	0	47	104	0	60	1048575
2026-01-17 20:24:01.03	20.20	2.27	-85.2	-88.8	2.7	1.56e+00	0	47	104	0	60	1048575
2026-01-17 20:24:02.03	20.29	2.32	-85.2	-88.8	2.6	1.56e+00	0	47	104	0	60	1048574
2026-01-17 20:24:03.04	20.38	2.37	-85.2	-88.8	2.8	1.56e+00	0	47	104	0	60	1048574
2026-01-17 20:24:04.04	20.47	2.42	-85.2	-88.8	2.8	1.56e+00	0	47	104	0	60	1048574
2026-01-17 20:24:05.05	20.56	2.46	-85.2	-88.8	2.6	1.56e+00	0	47	104	0	60	1048575
2026-01-17 20:24:06.06	20.65	2.51	-85.2	-88.8	2.8	1.56e+00	0	47	104	0	60	1048575
2026-01-17 20:24:07.06	20.74	2.56	-85.2	-88.8	2.8	1.56e+00	0	47	104	0	60	1048571
2026-01-17 20:24:08.07	20.83	2.61	-85.2	-88.8	2.8	1.56e+00	0	47	104	0	60	1048575
2026-01-17 20:24:09.08	20.93	2.66	-84.7	-88.8	2.7	1.56e+00	0	47	104	0	60	1048570
2026-01-17 20:24:10.09	21.02	2.71	-85.2	-88.8	2.6	1.56e+00	0	47	104	0	60	1048575
2026-01-17 20:24:11.09	21.11	2.76	-85.2	-88.8	2.7	1.56e+00	0	47	104	0	60	1048571
2026-01-17 20:24:12.10	21.20	2.81	-85.2	-88.8	2.8	1.56e+00	0	47	104	0	60	1048575
2026-01-17 20:24:13.11	21.30	2.86	-85.2	-88.8	2.6	1.56e+00	0	47	104	0	60	1048570
2026-01-17 20:24:14.12	21.39	2.91	-85.2	-88.8	2.8	1.56e+00	0	47	104	0	60	1048572
2026-01-17 20:24:15.13	21.49	2.96	-85.2	-88.8	2.6	1.56e+00	0	47	104	0	60	1048575
2026-01-17 20:24:16.13	21.58	3.01	-85.2	-88.8	2.6	1.56e+00	0	47	104	0	60	1048574
2026-01-17 20:24:17.14	21.68	3.06	-85.2	-88.8	2.7	1.56e+00	0	47	104	0	60	1048575
2026-01-17 20:24:18.14	21.77	3.11	-85.2	-88.8	2.7	1.56e+00	0	47	104	0	60	1048569
2026-01-17 20:24:19.14	21.86	3.16	-85.2	-88.8	2.9	1.56e+00	0	47	104	0	60	1048573
2026-01-17 20:24:20.15	21.96	3.21	-85.2	-88.8	2.7	1.56e+00	0	47	104	0	60	1048564
2026-01-17 20:24:21.16	22.06	3.26	-84.7	-88.8	2.7	1.56e+00	0	47	104	0	60	1048573
2026-01-17 20:24:22.17	22.15	3.31	-85.2	-88.8	2.6	1.56e+00	0	47	104	0	60	1048573
2026-01-17 20:24:23.17	22.25	3.35	-85.2	-88.8	2.8	1.56e+00	0	47	104	0	60	1048575
2026-01-17 20:24:24.18	22.35	3.40	-85.2	-88.8	2.8	1.56e+00	0	47	104	0	60	1048572
2026-01-17 20:24:25.18	22.44	3.45	-85.2	-88.8	2.8	1.56e+00	0	47	104	0	60	1048574
2026-01-17 20:24:26.19	22.54	3.50	-84.7	-88.8	2.5	1.56e+00	0	47	104	0	60	1048574
2026-01-17 20:24:27.19	22.64	3.55	-85.2	-88.8	2.7	1.56e+00	0	47	104	0	60	1048566
2026-01-17 20:24:28.20	22.73	3.60	-85.2	-88.8	2.5	1.56e+00	0	47	104	0	60	1048574
2026-01-17 20:24:29.20	22.83	3.65	-85.2	-88.8	2.8	1.56e+00	0	47	104	0	60	1048574
2026-01-17 20:24:30.21	22.93	3.70	-85.2	-88.8	2.8	1.56e+00	0	47	104	0	60	1048573
2026-01-17 20:24:31.21	23.03	3.75	-84.3	-88.8	2.8	1.56e+00	0	47	104	0	60	1048575
2026-01-17 20:24:32.22	23.13	3.80	-85.2	-88.8	2.7	1.56e+00	0	47	104	0	60	1048571
2026-01-17 20:24:33.22	23.23	3.85	-85.2	-88.8	2.6	1.56e+00	0	47	104	0	60	1048574
2026-01-17 20:24:34.23	23.33	3.90	-85.2	-88.8	2.6	1.56e+00	0	47	104	0	60	1048574
2026-01-17 20:24:35.24	23.43	3.95	-85.2	-88.8	2.9	1.56e+00	0	47	104	0	60	1048575
2026-01-17 20:24:36.24	23.53	4.00	-84.3	-88.8	2.7	1.56e+00	0	47	104	0	60	1048574
2026-01-17 20:24:37.25	23.63	4.05	-85.2	-88.8	2.7	1.56e+00	0	47	104	0	60	1048575
2026-01-17 20:24:38.26	23.73	4.10	-85.2	-88.8	2.8	1.56e+00	0	47	104	0	60	1048574
2026-01-17 20:24:39.27	23.83	4.15	-85.2	-88.8	2.7	1.56e+00	0	47	104	0	60	1048575
2026-01-17 20:24:40.27	23.93	4.20	-85.2	-88.8	2.8	1.56e+00	0	47	104	0	60	1048574
2026-01-17 20:24:41.28	24.04	4.25	-85.2	-88.8	2.6	1.56e+00	0	47	104	0	60	1048575
2026-01-17 20:24:42.29	24.14	4.30	-85.2	-88.8	2.8	1.56e+00	0	47	104	0	60	1048575
2026-01-17 20:24:43.29	24.24	4.35	-85.2	-88.8	2.8	1.56e+00	0	47	104	0	60	1048575
2026-01-17 20:24:44.30	24.35	4.40	-85.2	-88.8	2.7	1.56e+00	0	47	104	0	60	1048575
2026-01-17 20:24:45.31	24.45	4.45	-85.2	-88.8	2.6	1.56e+00	0	47	104	0	60	1048574
2026-01-17 20:24:46.31	24.55	4.50	-85.2	-88.8	2.5	1.56e+00	0	47	104	0	60	1048575
2026-01-17 20:24:47.32	24.66	4.55	-85.2	-88.8	2.7	1.56e+00	0	47	104	0	60	1048573
2026-01-17 20:24:48.32	24.76	4.60	-85.2	-88.8	2.9	1.56e+00	0	47	104	0	60	1048575
2026-01-17 20:24:49.33	24.87	4.65	-85.2	-88.8	2.7	1.56e+00	0	47	104	0	60	1048575
2026-01-17 20:24:50.33	24.97	4.70	-85.2	-88.8	2.6	1.56e+00	0	47	104	0	60	1048574
2026-01-17 20:24:51.34	25.08	4.76	-85.2	-88.8	2.6	1.56e+00	0	47	104	0	60	1048574
2026-01-17 20:24:52.35	25.18	4.81	-85.2	-88.8	2.7	1.56e+00	0	47	104	0	60	1048574
2026-01-17 20:24:53.35	25.29	4.86	-85.2	-88.8	2.7	1.56e+00	0	47	104	0	60	1048572
2026-01-17 20:24:54.36	25.40	4.91	-85.2	-88.8	2.7	1.56e+00	0	47	104	0	60	1048569
2026-01-17 20:24:55.37	25.50	4.96	-85.2	-88.8	2.6	1.56e+00	0	47	104	0	60	1048574
2026-01-17 20:24:56.37	25.61	5.01	-85.2	-88.8	2.7	1.56e+00	0	47	104	0	60	1048575
2026-01-17 20:24:57.38	25.72	5.06	-85.2	-88.8	2.7	1.56e+00	0	47	104	0	60	1048575
2026-01-17 20:24:58.39	25.83	5.11	-82.0	-88.8	2.6	1.56e+00	0	47	104	0	60	1048573
2026-01-17 20:24:59.39	25.93	5.16	-85.2	-88.8	2.7	1.56e+00	0	47	104	0	60	1048572
2026-01-17 20:25:00.40	26.04	5.21	-85.2	-88.8	2.7	1.56e+00	0	47	104	0	60	1048573
2026-01-17 20:25:01.41	26.15	5.26	-85.2	-88.8	2.4	1.56e+00	0	47	104	0	60	1048575
2026-01-17 20:25:02.41	26.26	5.31	-85.2	-88.8	2.6	1.56e+00	0	47	104	0	60	1048574
2026-01-17 20:25:03.42	26.37	5.36	-85.2	-88.8	2.7	1.56e+00	0	47	104	0	60	1048573
2026-01-17 20:25:04.43	26.48	5.41	-85.2	-88.8	2.7	1.56e+00	0	47	104	0	60	1048574
2026-01-17 20:25:05.43	26.59	5.46	-85.2	-88.8	2.6	1.56e+00	0	47	104	0	60	1048567
2026-01-17 20:25:06.43	26.70	5.51	-85.2	-88.8	2.9	1.56e+00	0	47	104	0	60	1048570
2026-01-17 20:25:07.44	26.81	5.56	-85.2	-88.8	3.0	1.56e+00	0	47	104	0	60	1048572
2026-01-17 20:25:08.44	26.92	5.61	-85.2	-88.8	2.8	1.56e+00	0	47	104	0	60	1048574
2026-01-17 20:25:09.45	27.04	5.66	-85.2	-88.8	2.8	1.56e+00	0	47	104	0	60	1048575
2026-01-17 20:25:10.46	27.15	5.71	-84.3	-88.8	2.7	1.56e+00	0	47	104	0	60	1048575
2026-01-17 20:25:11.47	27.26	5.76	-85.2	-88.8	2.8	1.56e+00	0	47	104	0	60	1048567
2026-01-17 20:25:12.47	27.37	5.82	-85.2	-88.8	3.0	1.56e+00	0	47	104	0	60	1048575
2026-01-17 20:25:13.48	27.49	5.87	-85.2	-88.8	2.8	1.56e+00	0	47	104	0	60	1048573
2026-01-17 20:25:14.49	27.60	5.92	-85.2	-88.8	2.8	1.56e+00	0	47	104	0	60	1048572
2026-01-17 20:25:15.50	27.72	5.97	-85.2	-88.8	2.7	1.56e+00	0	47	104	0	60	1048575
2026-01-17 20:25:16.50	27.83	6.02	-85.2	-88.8	2.7	1.56e+00	0	47	104	0	60	1048574
2026-01-17 20:25:17.51	27.95	6.07	-85.2	-88.8	2.9	1.56e+00	0	47	104	0	60	1048573
2026-01-17 20:25:18.52	28.06	6.12	-85.2	-88.8	2.6	1.56e+00	0	47	104	0	60	1048573
2026-01-17 20:25:19.52	28.18	6.17	-85.2	-88.8	2.7	1.56e+00	0	47	104	0	60	1048575
2026-01-17 20:25:20.53	28.29	6.22	-85.2	-88.8	2.7	1.56e+00	0	47	104	0	60	1048572
2026-01-17 20:25:21.53	28.41	6.27	-85.2	-88.8	2.6	1.56e+00	0	47	104	0	60	1048570
2026-01-17 20:25:22.54	28.53	6.32	-85.2	-88.8	2.7	1.56e+00	0	47	104	0	60	1048574
2026-01-17 20:25:23.54	28.64	6.37	-85.2	-88.8	2.8	1.56e+00	0	47	104	0	60	1048574
2026-01-17 20:25:24.54	28.76	6.42	-85.2	-88.8	3.0	1.56e+00	0	47	104	0	60	1048570
2026-01-17 20:25:25.55	28.88	6.47	-85.2	-88.8	2.6	1.56e+00	0	47	104	0	60	1048574
2026-01-17 20:25:26.56	29.00	6.52	-85.2	-88.8	2.5	1.56e+00	0	47	104	0	60	1048575
2026-01-17 20:25:27.56	29.12	6.57	-85.2	-88.8	2.7	1.56e+00	0	47	104	0	60	1048575
2026-01-17 20:25:28.56	29.23	6.62	-85.2	-88.8	2.8	1.56e+00	0	47	104	0	60	1048575
2026-01-17 20:25:29.57	29.35	6.68	-85.2	-88.8	2.8	1.56e+00	0	47	104	0	60	1048570
2026-01-17 20:25:30.58	29.47	6.73	-84.3	-88.8	2.8	1.56e+00	0	47	104	0	60	1048574
2026-01-17 20:25:31.58	29.59	6.78	-85.2	-88.8	2.8	1.56e+00	0	47	104	0	60	1048572
2026-01-17 20:25:32.59	29.72	6.83	-85.2	-88.8	2.8	1.56e+00	0	47	104	0	60	1048575
2026-01-17 20:25:33.60	29.84	6.88	-85.2	-88.8	2.7	1.56e+00	0	47	104	0	60	1048574
2026-01-17 20:25:34.61	29.96	6.93	-85.2	-88.8	2.7	1.56e+00	0	47	104	0	60	1048574
2026-01-17 20:25:35.62	30.08	6.98	-85.2	-88.8	2.7	1.56e+00	0	47	104	0	60	1048575
2026-01-17 20:25:36.62	30.20	7.03	-85.2	-88.8	2.8	1.56e+00	0	47	104	0	60	1048575
2026-01-17 20:25:37.63	30.33	7.08	-85.2	-88.8	2.6	1.56e+00	0	47	104	0	60	1048573
2026-01-17 20:25:38.63	30.45	7.13	-85.2	-88.8	2.5	1.56e+00	0	47	104	0	60	1048573
2026-01-17 20:25:39.64	30.57	7.18	-85.2	-88.8	2.6	1.56e+00	0	47	104	0	60	1048575
2026-01-17 20:25:40.65	30.70	7.23	-83.1	-88.8	2.8	1.56e+00	0	47	104	0	60	1048575
2026-01-17 20:25:41.65	30.82	7.28	-85.2	-88.8	2.8	1.56e+00	0	47	104	0	60	1048575
2026-01-17 20:25:42.66	30.95	7.33	-85.2	-88.8	2.8	1.56e+00	0	47	104	0	60	1048572
2026-01-17 20:25:43.66	31.07	7.38	-85.2	-88.8	2.9	1.56e+00	0	47	104	0	60	1048572
2026-01-17 20:25:44.67	31.20	7.43	-83.5	-88.8	2.8	1.56e+00	0	47	104	0	60	1048570
2026-01-17 20:25:45.68	31.32	7.48	-85.2	-88.8	2.8	1.56e+00	0	47	104	0	60	1048574
2026-01-17 20:25:46.68	31.45	7.53	-84.7	-88.8	2.7	1.56e+00	0	47	104	0	60	1048572
2026-01-17 20:25:47.69	31.58	7.59	-85.2	-88.8	2.8	1.56e+00	0	47	104	0	60	1048573
2026-01-17 20:25:48.69	31.70	7.64	-85.2	-88.8	2.8	1.56e+00	0	47	104	0	60	1048574
2026-01-17 20:25:49.70	31.83	7.69	-85.2	-88.8	2.7	1.56e+00	0	47	104	0	60	1048571
2026-01-17 20:25:50.71	31.96	7.74	-85.2	-88.8	2.8	1.56e+00	0	47	104	0	60	1048575
2026-01-17 20:25:51.72	32.09	7.79	-85.2	-88.8	2.6	1.56e+00	0	47	104	0	60	1048574
2026-01-17 20:25:52.73	32.22	7.84	-85.2	-88.8	2.9	1.56e+00	0	47	104	0	60	1048575
2026-01-17 20:25:53.73	32.35	7.89	-85.2	-88.8	2.7	1.56e+00	0	47	104	0	60	1048575
2026-01-17 20:25:54.74	32.48	7.94	-85.2	-88.8	2.6	1.56e+00	0	47	104	0	60	1048573
2026-01-17 20:25:55.75	32.61	7.99	-85.2	-88.8	2.6	1.56e+00	0	47	104	0	60	1048568
2026-01-17 20:25:56.75	32.74	8.04	-85.2	-88.8	2.6	1.56e+00	0	47	104	0	60	1048573
2026-01-17 20:25:57.76	32.87	8.09	-85.2	-88.8	2.6	1.56e+00	0	47	104	0	60	1048573
2026-01-17 20:25:58.77	33.00	8.14	-85.2	-88.8	2.7	1.56e+00	0	47	104	0	60	1048571
2026-01-17 20:25:59.77	33.14	8.19	-85.2	-88.8	2.8	1.56e+00	0	47	104	0	60	1048572
2026-01-17 20:26:00.78	33.27	8.24	-85.2	-88.8	2.6	1.56e+00	0	47	104	0	60	1048575
2026-01-17 20:26:01.79	33.40	8.29	-85.2	-88.8	2.5	1.56e+00	0	47	104	0	60	1048575
2026-01-17 20:26:02.80	33.54	8.34	-85.2	-88.8	2.7	1.56e+00	0	47	104	0	60	1048575
2026-01-17 20:26:03.81	33.67	8.39	-85.2	-88.8	2.6	1.56e+00	0	47	104	0	60	1048574
2026-01-17 20:26:04.81	33.80	8.44	-85.2	-88.8	2.9	1.56e+00	0	47	104	0	60	1048575
2026-01-17 20:26:05.82	33.94	8.49	-84.3	-88.8	2.6	1.56e+00	0	47	104	0	60	1048575
2026-01-17 20:26:06.83	34.07	8.54	-85.2	-88.8	2.8	1.56e+00	0	47	104	0	60	1048574
2026-01-17 20:26:07.84	34.21	8.59	-85.2	-88.8	2.6	1.56e+00	0	47	104	0	60	1048574
2026-01-17 20:26:08.85	34.35	8.64	-85.2	-88.8	2.5	1.56e+00	0	47	104	0	60	1048575
2026-01-17 20:26:09.85	34.48	8.69	-85.2	-88.8	3.0	1.56e+00	0	47	104	0	60	1048575
2026-01-17 20:26:10.86	34.62	8.74	-85.2	-88.8	2.9	1.56e+00	0	47	104	0	60	1048570
2026-01-17 20:26:11.86	34.76	8.79	-85.2	-88.8	2.8	1.56e+00	0	47	104	0	60	1048574
2026-01-17 20:26:12.87	34.90	8.84	-85.2	-88.8	2.7	1.56e+00	0	47	104	0	60	1048575
2026-01-17 20:26:13.88	35.04	8.89	-85.2	-88.8	2.7	1.56e+00	0	47	104	0	60	1048573
2026-01-17 20:26:14.88	35.17	8.94	-85.2	-88.8	2.7	1.56e+00	0	47	104	0	60	1048573
2026-01-17 20:26:15.89	35.31	8.99	-85.2	-88.8	2.8	1.56e+00	0	47	104	0	60	1048575
2026-01-17 20:26:16.90	35.45	9.04	-85.2	-88.8	2.8	1.56e+00	0	47	104	0	60	1048560
2026-01-17 20:26:17.91	35.59	9.09	-85.2	-88.8	2.6	1.56e+00	0	47	104	0	60	1048575
2026-01-17 20:26:18.92	35.74	9.14	-85.2	-88.8	2.8	1.56e+00	0	47	104	0	60	1048575
2026-01-17 20:26:19.92	35.88	9.19	-84.3	-88.8	2.8	1.56e+00	0	47	104	0	60	1048575
2026-01-17 20:26:20.93	36.02	9.24	-84.3	-88.8	2.6	1.56e+00	0	47	104	0	60	1048573
2026-01-17 20:26:21.94	36.16	9.29	-85.2	-88.8	2.8	1.56e+00	0	47	104	0	60	1048572
2026-01-17 20:26:22.95	36.30	9.34	-85.2	-88.8	2.7	1.56e+00	0	47	104	0	60	1048572
2026-01-17 20:26:23.96	36.45	9.38	-85.2	-88.8	2.7	1.56e+00	0	47	104	0	60	1048574
2026-01-17 20:26:24.97	36.59	9.43	-85.2	-88.8	2.7	1.56e+00	0	47	104	0	60	1048573
2026-01-17 20:26:25.98	36.74	9.48	-85.2	-88.8	2.6	1.56e+00	0	47	104	0	60	1048571
2026-01-17 20:26:26.98	36.88	9.53	-85.2	-88.8	2.7	1.56e+00	0	47	104	0	60	1048575
2026-01-17 20:26:27.99	37.02	9.58	-85.2	-88.8	2.8	1.56e+00	0	47	104	0	60	1048575
2026-01-17 20:26:28.99	37.17	9.63	-85.2	-88.8	2.6	1.56e+00	0	47	104	0	60	1048573
2026-01-17 20:26:29.99	37.31	9.68	-85.2	-88.8	2.5	1.56e+00	0	47	104	0	60	1048574
2026-01-17 20:26:31.00	37.46	9.73	-85.2	-88.8	2.6	1.56e+00	0	47	104	0	60	1048573
2026-01-17 20:26:32.00	37.61	9.78	-85.2	-88.8	2.8	1.56e+00	0	47	104	0	60	1048573
2026-01-17 20:26:33.01	37.75	9.82	-85.2	-88.8	2.6	1.56e+00	0	47	104	0	60	1048569
2026-01-17 20:26:34.01	37.90	9.87	-85.2	-88.8	2.8	1.56e+00	0	47	104	0	60	1048575
2026-01-17 20:26:35.01	38.05	9.92	-85.2	-88.8	2.6	1.56e+00	0	47	104	0	60	1048574
2026-01-17 20:26:36.02	38.20	9.97	-85.2	-88.8	2.6	1.56e+00	0	47	104	0	60	1048574
2026-01-17 20:26:37.03	38.35	10.02	-85.2	-88.8	2.6	1.56e+00	0	47	104	0	60	1048571
2026-01-17 20:26:38.04	38.50	10.07	-85.2	-88.8	2.8	1.56e+00	0	47	104	0	60	1048572
2026-01-17 20:26:39.05	38.65	10.11	-85.2	-88.8	2.8	1.56e+00	0	47	104	0	60	1048574
2026-01-17 20:26:40.05	38.80	10.16	-85.2	-88.8	2.5	1.56e+00	0	47	104	0	60	1048575
2026-01-17 20:26:41.06	38.95	10.21	-85.2	-88.8	2.7	1.56e+00	0	47	104	0	60	1048575
2026-01-17 20:26:42.07	39.10	10.26	-85.2	-88.8	2.9	1.56e+00	0	47	104	0	60	1048571
2026-01-17 20:26:43.08	39.25	10.31	-85.2	-88.8	2.9	1.56e+00	0	47	104	0	60	1048575
2026-01-17 20:26:44.08	39.41	10.35	-85.2	-88.8	2.8	1.56e+00	0	47	104	0	60	1048572
2026-01-17 20:26:45.09	39.56	10.40	-84.7	-88.8	2.7	1.56e+00	0	47	104	0	60	1048573
2026-01-17 20:26:46.09	39.71	10.45	-85.2	-88.8	2.8	1.56e+00	0	47	104	0	60	1048572
2026-01-17 20:26:47.10	39.87	10.50	-85.2	-88.8	2.6	1.56e+00	0	47	104	0	60	1048570
2026-01-17 20:26:48.10	40.02	10.54	-85.2	-88.8	2.7	1.56e+00	0	47	104	0	60	1048575
2026-01-17 20:26:49.11	40.17	10.59	-85.2	-88.8	2.9	1.56e+00	0	47	104	0	60	1048573
2026-01-17 20:26:50.11	40.33	10.64	-85.2	-88.8	2.7	1.56e+00	0	47	104	0	60	1048571
2026-01-17 20:26:51.12	40.49	10.69	-85.2	-88.8	2.8	1.56e+00	0	47	104	0	60	1048573
2026-01-17 20:26:52.12	40.64	10.73	-85.2	-88.8	2.5	1.56e+00	0	47	104	0	60	1048574
2026-01-17 20:26:53.13	40.80	10.78	-85.2	-88.8	2.6	1.56e+00	0	47	104	0	60	1048573
2026-01-17 20:26:54.14	40.96	10.83	-85.2	-88.8	2.8	1.56e+00	0	47	104	0	60	1048575
2026-01-17 20:26:55.15	41.11	10.87	-85.2	-88.8	2.7	1.56e+00	0	47	104	0	60	1048574
2026-01-17 20:26:56.16	41.27	10.92	-85.2	-88.8	2.5	1.56e+00	0	47	104	0	60	1048572
2026-01-17 20:26:57.17	41.43	10.97	-85.2	-88.8	2.5	1.56e+00	0	47	104	0	60	1048570
2026-01-17 20:26:58.17	41.59	11.01	-85.2	-88.8	2.7	1.56e+00	0	47	104	0	60	1048574
2026-01-17 20:26:59.18	41.75	11.06	-85.2	-88.8	2.8	1.56e+00	0	47	104	0	60	1048575
2026-01-17 20:27:00.19	41.91	11.11	-85.2	-88.8	2.7	1.56e+00	0	47	104	0	60	1048569
2026-01-17 20:27:01.19	42.07	11.15	-85.2	-88.8	2.5	1.56e+00	0	47	104	0	60	1048575
2026-01-17 20:27:02.19	42.23	11.20	-85.2	-88.8	2.8	1.56e+00	0	47	104	0	60	1048574
2026-01-17 20:27:03.20	42.39	11.25	-85.2	-88.8	2.7	1.56e+00	0	47	104	0	60	1048574
2026-01-17 20:27:04.20	42.56	11.29	-85.2	-88.8	2.7	1.56e+00	0	47	104	0	60	1048575
2026-01-17 20:27:05.21	42.72	11.34	-85.2	-88.8	2.6	1.56e+00	0	47	104	0	60	1048575
2026-01-17 20:27:06.22	42.88	11.38	-85.2	-88.8	2.7	1.56e+00	0	47	104	0	60	1048574
2026-01-17 20:27:07.22	43.05	11.43	-85.2	-88.8	2.7	1.56e+00	0	47	104	0	60	1048573
2026-01-17 20:27:08.23	43.21	11.47	-85.2	-88.8	2.8	1.56e+00	0	47	104	0	60	1048575
2026-01-17 20:27:09.23	43.37	11.52	-85.2	-88.8	2.4	1.56e+00	0	47	104	0	60	1048575
2026-01-17 20:27:10.24	43.54	11.56	-85.2	-88.8	2.7	1.56e+00	0	47	104	0	60	1048575
2026-01-17 20:27:11.24	43.70	11.61	-85.2	-88.8	2.8	1.56e+00	0	47	104	0	60	1048573
2026-01-17 20:27:12.25	43.87	11.65	-85.2	-88.8	2.8	1.56e+00	0	47	104	0	60	1048573
2026-01-17 20:27:13.26	44.04	11.70	-85.2	-88.8	2.8	1.56e+00	0	47	104	0	60	1048573
2026-01-17 20:27:14.27	44.21	11.74	-85.2	-88.8	2.6	1.56e+00	0	47	104	0	60	1048575
2026-01-17 20:27:15.28	44.37	11.79	-85.2	-88.8	2.9	1.56e+00	0	47	104	0	60	1048574
2026-01-17 20:27:16.29	44.54	11.83	-85.2	-88.8	2.6	1.56e+00	0	47	104	0	60	1048575
2026-01-17 20:27:17.29	44.71	11.88	-85.2	-88.8	2.6	1.56e+00	0	47	104	0	60	1048574
2026-01-17 20:27:18.30	44.88	11.92	-85.2	-88.8	2.9	1.56e+00	0	47	104	0	60	1048575
2026-01-17 20:27:19.31	45.05	11.96	-85.2	-88.8	2.7	1.56e+00	0	47	104	0	60	1048575
2026-01-17 20:27:20.31	45.22	12.01	-85.2	-88.8	2.9	1.56e+00	0	47	104	0	60	1048575
2026-01-17 20:27:21.32	45.39	12.05	-85.2	-88.8	2.9	1.56e+00	0	47	104	0	60	1048575
2026-01-17 20:27:22.33	45.56	12.10	-84.7	-88.8	2.7	1.56e+00	0	47	104	0	60	1048575
2026-01-17 20:27:23.33	45.73	12.14	-85.2	-88.8	2.7	1.56e+00	0	47	104	0	60	1048573
2026-01-17 20:27:24.34	45.91	12.18	-85.2	-88.8	2.8	1.56e+00	0	47	104	0	60	1048575
2026-01-17 20:27:25.35	46.08	12.22	-85.2	-88.8	2.7	1.56e+00	0	47	104	0	60	1048574
2026-01-17 20:27:26.36	46.25	12.27	-85.2	-88.8	2.8	1.56e+00	0	47	104	0	60	1048573
2026-01-17 20:27:27.36	46.43	12.31	-85.2	-88.8	2.8	1.56e+00	0	47	104	0	60	1048573
2026-01-17 20:27:28.37	46.60	12.35	-85.2	-88.8	2.7	1.56e+00	0	47	104	0	60	1048574
2026-01-17 20:27:29.37	46.77	12.39	-85.2	-88.8	2.7	1.56e+00	0	47	104	0	60	1048573
2026-01-17 20:27:30.38	46.95	12.44	-85.2	-88.8	2.6	1.56e+00	0	47	104	0	60	1048575
2026-01-17 20:27:31.39	47.13	12.48	-85.2	-88.8	2.8	1.56e+00	0	47	104	0	60	1048574
2026-01-17 20:27:32.40	47.30	12.52	-85.2	-88.8	2.7	1.56e+00	0	47	104	0	60	1048571
2026-01-17 20:27:33.40	47.48	12.56	-85.2	-88.8	2.6	1.56e+00	0	47	104	0	60	1048574
2026-01-17 20:27:34.40	47.65	12.60	-85.2	-88.8	2.6	1.56e+00	0	47	104	0	60	1048575
2026-01-17 20:27:35.41	47.83	12.65	-85.2	-88.8	2.7	1.56e+00	0	47	104	0	60	1048573
2026-01-17 20:27:36.42	48.01	12.69	-85.2	-88.8	2.6	1.56e+00	0	47	104	0	60	1048573
2026-01-17 20:27:37.42	48.19	12.73	-85.2	-88.8	2.7	1.56e+00	0	47	104	0	60	1048570
2026-01-17 20:27:38.43	48.37	12.77	-85.2	-88.8	2.7	1.56e+00	0	47	104	0	60	1048575
2026-01-17 20:27:39.43	48.55	12.81	-85.2	-88.8	2.7	1.56e+00	0	47	104	0	60	1048575
2026-01-17 20:27:40.44	48.73	12.85	-85.2	-88.8	2.8	1.56e+00	0	47	104	0	60	1048574
2026-01-17 20:27:41.44	48.90	12.89	-85.2	-88.8	2.6	1.56e+00	0	47	104	0	60	1048575
2026-01-17 20:27:42.45	49.09	12.93	-85.2	-88.8	2.6	1.56e+00	0	47	104	0	60	1048574
2026-01-17 20:27:43.46	49.27	12.97	-85.2	-88.8	2.8	1.56e+00	0	47	104	0	60	1048572
2026-01-17 20:27:44.47	49.45	13.01	-85.2	-88.8	2.6	1.56e+00	0	47	104	0	60	1048573
2026-01-17 20:27:45.47	49.63	13.05	-85.2	-88.8	2.9	1.56e+00	0	47	104	0	60	1048574
2026-01-17 20:27:46.48	49.82	13.09	-85.2	-88.8	2.7	1.56e+00	0	47	104	0	60	1048575
2026-01-17 20:27:47.49	50.00	13.13	-85.2	-88.8	2.7	1.56e+00	0	47	104	0	60	1048574
2026-01-17 20:27:48.50	50.18	13.17	-85.2	-88.8	2.7	1.56e+00	0	47	104	0	60	1048575
2026-01-17 20:27:49.51	50.37	13.20	-85.2	-88.8	2.7	1.56e+00	0	47	104	0	60	1048574
2026-01-17 20:27:50.51	50.55	13.24	-85.2	-88.8	2.9	1.56e+00	0	47	104	0	60	1048575
2026-01-17 20:27:51.52	50.74	13.28	-85.2	-88.8	2.8	1.56e+00	0	47	104	0	60	1048575
2026-01-17 20:27:52.53	50.92	13.32	-85.2	-88.8	2.9	1.56e+00	0	47	104	0	60	1048570
2026-01-17 20:27:53.53	51.11	13.36	-85.2	-88.8	2.7	1.56e+00	0	47	104	0	60	1048575
2026-01-17 20:27:54.54	51.30	13.39	-85.2	-88.8	2.6	1.56e+00	0	47	104	0	60	1048575
2026-01-17 20:27:55.55	51.48	13.43	-85.2	-88.8	2.6	1.56e+00	0	47	104	0	60	1048575
2026-01-17 20:27:56.55	51.67	13.47	-85.2	-88.8	2.8	1.56e+00	0	47	104	0	60	1048575
2026-01-17 20:27:57.55	51.86	13.51	-85.2	-88.8	2.6	1.56e+00	0	47	104	0	60	1048575
2026-01-17 20:27:58.55	52.04	13.54	-85.2	-88.8	2.7	1.56e+00	0	47	104	0	60	1048574
2026-01-17 20:27:59.56	52.23	13.58	-85.2	-88.8	2.8	1.56e+00	0	47	104	0	60	1048575
2026-01-17 20:28:00.57	52.42	13.62	-85.2	-88.8	3.0	1.56e+00	0	47	104	0	60	1048574
2026-01-17 20:28:01.57	52.61	13.65	-84.7	-88.8	2.7	1.56e+00	0	47	104	0	60	1048571
2026-01-17 20:28:02.58	52.80	13.69	-85.2	-88.8	2.9	1.56e+00	0	47	104	0	60	1048575
2026-01-17 20:28:03.59	52.99	13.72	-85.2	-88.8	2.7	1.56e+00	0	47	104	0	60	1048570
2026-01-17 20:28:04.60	53.18	13.76	-85.2	-88.8	2.9	1.56e+00	0	47	104	0	60	1048571
2026-01-17 20:28:05.60	53.37	13.79	-85.2	-88.8	2.7	1.56e+00	0	47	104	0	60	1048575
2026-01-17 20:28:06.61	53.57	13.83	-85.2	-88.8	2.7	1.56e+00	0	47	104	0	60	1048575
2026-01-17 20:28:07.61	53.76	13.86	-85.2	-88.8	2.6	1.56e+00	0	47	104	0	60	1048572
2026-01-17 20:28:08.61	53.95	13.90	-85.2	-88.8	2.6	1.56e+00	0	47	104	0	60	1048572
2026-01-17 20:28:09.62	54.14	13.93	-85.2	-88.8	2.6	1.56e+00	0	47	104	0	60	1048575
2026-01-17 20:28:10.63	54.34	13.97	-85.2	-88.8	2.8	1.56e+00	0	47	104	0	60	1048575
2026-01-17 20:28:11.63	54.53	14.00	-85.2	-88.8	2.8	1.56e+00	0	47	104	0	60	1048573
2026-01-17 20:28:12.63	54.72	14.03	-85.2	-88.8	2.8	1.56e+00	0	47	104	0	60	1048574
2026-01-17 20:28:13.63	54.92	14.06	-85.2	-88.8	2.5	1.56e+00	0	47	104	0	60	1048575
2026-01-17 20:28:14.63	55.11	14.10	-85.2	-88.8	2.7	1.56e+00	0	47	104	0	60	1048569
2026-01-17 20:28:15.64	55.31	14.13	-85.2	-88.8	2.8	1.56e+00	0	47	104	0	60	1048573
2026-01-17 20:28:16.65	55.51	14.16	-85.2	-88.8	2.4	1.56e+00	0	47	104	0	60	1048575
2026-01-17 20:28:17.65	55.70	14.19	-85.2	-88.8	2.9	1.56e+00	0	47	104	0	60	1048574
2026-01-17 20:28:18.66	55.90	14.23	-85.2	-88.8	2.6	1.56e+00	0	47	104	0	60	1048573
2026-01-17 20:28:19.67	56.10	14.26	-85.2	-88.8	2.7	1.56e+00	0	47	104	0	60	1048575
2026-01-17 20:28:20.68	56.30	14.29	-85.2	-88.8	2.6	1.56e+00	0	47	104	0	60	1048575
2026-01-17 20:28:21.69	56.49	14.32	-85.2	-88.8	2.9	1.56e+00	0	47	104	0	60	1048571
2026-01-17 20:28:22.69	56.69	14.35	-85.2	-88.8	2.7	1.56e+00	0	47	104	0	60	1048574
2026-01-17 20:28:23.70	56.89	14.38	-85.2	-88.8	2.7	1.56e+00	0	47	104	0	60	1048575
2026-01-17 20:28:24.70	57.09	14.41	-85.2	-88.8	2.5	1.56e+00	0	47	104	0	60	1048575
2026-01-17 20:28:25.71	57.29	14.44	-85.2	-88.8	2.7	1.56e+00	0	47	104	0	60	1048575
2026-01-17 20:28:26.72	57.49	14.47	-84.7	-88.8	2.6	1.56e+00	0	47	104	0	60	1048575
2026-01-17 20:28:27.72	57.69	14.50	-85.2	-88.8	2.9	1.56e+00	0	47	104	0	60	1048575
2026-01-17 20:28:28.72	57.89	14.53	-85.2	-88.8	2.8	1.56e+00	0	47	104	0	60	1048574
2026-01-17 20:28:29.72	58.09	14.56	-85.2	-88.8	2.6	1.56e+00	0	47	104	0	60	1048575
2026-01-17 20:28:30.72	58.29	14.59	-85.2	-88.8	2.8	1.56e+00	0	47	104	0	60	1048574
2026-01-17 20:28:31.73	58.49	14.61	-85.2	-88.8	2.8	1.56e+00	0	47	104	0	60	1048574
2026-01-17 20:28:32.74	58.70	14.64	-85.2	-88.8	2.7	1.56e+00	0	47	104	0	60	1048574
2026-01-17 20:28:33.74	58.90	14.67	-85.2	-88.8	2.7	1.56e+00	0	47	104	0	60	1048575
2026-01-17 20:28:34.75	59.10	14.70	-85.2	-88.8	2.6	1.56e+00	0	47	104	0	60	1048573
2026-01-17 20:28:35.75	59.30	14.72	-85.2	-88.8	2.6	1.56e+00	0	47	104	0	60	1048572
2026-01-17 20:28:36.76	59.51	14.75	-85.2	-88.8	2.9	1.56e+00	0	47	104	0	60	1048571
2026-01-17 20:28:37.77	59.71	14.78	-85.2	-88.8	2.7	1.56e+00	0	47	104	0	60	1048572
2026-01-17 20:28:38.78	59.92	14.80	-85.2	-88.8	2.5	1.56e+00	0	47	104	0	60	1048575
2026-01-17 20:28:39.78	60.12	14.83	-85.2	-88.8	2.7	1.56e+00	0	47	104	0	60	1048575
2026-01-17 20:28:40.79	60.33	14.85	-85.2	-88.8	2.6	1.56e+00	0	47	104	0	60	1048575
2026-01-17 20:28:41.79	60.53	14.88	-85.2	-88.8	2.9	1.56e+00	0	47	104	0	60	1048570
2026-01-17 20:28:42.80	60.74	14.90	-84.7	-88.8	2.6	1.56e+00	0	47	104	0	60	1048575
2026-01-17 20:28:43.80	60.95	14.93	-85.2	-88.8	2.5	1.56e+00	0	47	104	0	60	1048575
2026-01-17 20:28:44.81	61.15	14.95	-85.2	-88.8	2.6	1.56e+00	0	47	104	0	60	1048574
2026-01-17 20:28:45.81	61.36	14.97	-85.2	-88.8	2.7	1.56e+00	0	47	104	0	60	1048574
2026-01-17 20:28:46.82	61.57	15.00	-85.2	-88.8	2.7	1.56e+00	0	47	104	0	60	1048575
2026-01-17 20:28:47.83	61.78	15.02	-85.2	-88.8	2.5	1.56e+00	0	47	104	0	60	1048571
2026-01-17 20:28:48.83	61.98	15.04	-85.2	-88.8	2.6	1.56e+00	0	47	104	0	60	1048575
2026-01-17 20:28:49.84	62.19	15.07	-85.2	-88.8	2.6	1.56e+00	0	47	104	0	60	1048575
2026-01-17 20:28:50.85	62.40	15.09	-85.2	-88.8	2.8	1.56e+00	0	47	104	0	60	1048568
2026-01-17 20:28:51.86	62.61	15.11	-84.7	-88.8	2.7	1.56e+00	0	47	104	0	60	1048575
2026-01-17 20:28:52.87	62.82	15.13	-85.2	-88.8	2.6	1.56e+00	0	47	104	0	60	1048574
2026-01-17 20:28:53.88	63.03	15.15	-85.2	-88.8	2.7	1.56e+00	0	47	104	0	60	1048574
2026-01-17 20:28:54.89	63.24	15.17	-85.2	-88.8	2.9	1.56e+00	0	47	104	0	60	1048571
2026-01-17 20:28:55.89	63.45	15.19	-85.2	-88.8	2.5	1.56e+00	0	47	104	0	60	1048572
2026-01-17 20:28:56.90	63.66	15.21	-85.2	-88.8	2.8	1.56e+00	0	47	104	0	60	1048574
2026-01-17 20:28:57.90	63.87	15.23	-85.2	-88.8	2.7	1.56e+00	0	47	104	0	60	1048574
2026-01-17 20:28:58.91	64.08	15.25	-85.2	-88.8	2.6	1.56e+00	0	47	104	0	60	1048575
2026-01-17 20:28:59.92	64.29	15.27	-84.3	-88.8	2.8	1.56e+00	0	47	104	0	60	1048575
2026-01-17 20:29:00.92	64.50	15.29	-85.2	-88.8	2.6	1.56e+00	0	47	104	0	60	1048573
2026-01-17 20:29:01.93	64.72	15.31	-85.2	-88.8	2.7	1.56e+00	0	47	104	0	60	1048575
2026-01-17 20:29:02.93	64.93	15.33	-85.2	-88.8	2.7	1.56e+00	0	47	104	0	60	1048572
2026-01-17 20:29:03.93	65.14	15.35	-85.2	-88.8	2.9	1.56e+00	0	47	104	0	60	1048572
2026-01-17 20:29:04.94	65.35	15.36	-85.2	-88.8	2.8	1.56e+00	0	47	104	0	60	1048573
2026-01-17 20:29:05.95	65.56	15.38	-85.2	-88.8	2.7	1.56e+00	0	47	104	0	60	1048565
2026-01-17 20:29:06.96	65.78	15.40	-84.7	-88.8	2.9	1.56e+00	0	47	104	0	60	1048575
2026-01-17 20:29:07.96	65.99	15.41	-85.2	-88.8	2.7	1.56e+00	0	47	104	0	60	1048573
2026-01-17 20:29:08.97	66.20	15.43	-85.2	-88.8	2.7	1.56e+00	0	47	104	0	60	1048570
2026-01-17 20:29:09.98	66.42	15.44	-85.2	-88.8	2.7	1.56e+00	0	47	104	0	60	1048566
2026-01-17 20:29:10.98	66.63	15.46	-85.2	-88.8	2.5	1.56e+00	0	47	104	0	60	1048572
2026-01-17 20:29:11.99	66.85	15.47	-85.2	-88.8	2.8	1.56e+00	0	47	104	0	60	1048573
2026-01-17 20:29:13.00	67.06	15.49	-85.2	-88.8	2.6	1.56e+00	0	47	104	0	60	1048572
2026-01-17 20:29:14.01	67.28	15.50	-85.2	-88.8	2.8	1.56e+00	0	47	104	0	60	1048573
2026-01-17 20:29:15.01	67.49	15.52	-85.2	-88.8	2.6	1.56e+00	0	47	104	0	60	1048573
2026-01-17 20:29:16.02	67.71	15.53	-85.2	-88.8	2.7	1.56e+00	0	47	104	0	60	1048575
2026-01-17 20:29:17.02	67.92	15.54	-85.2	-88.8	2.8	1.56e+00	0	47	104	0	60	1048575
2026-01-17 20:29:18.03	68.14	15.55	-85.2	-88.8	2.9	1.56e+00	0	47	104	0	60	1048575
2026-01-17 20:29:19.03	68.35	15.57	-85.2	-88.8	2.9	1.56e+00	0	47	104	0	60	1048574
2026-01-17 20:29:20.04	68.57	15.58	-85.2	-88.8	2.6	1.56e+00	0	47	104	0	60	1048575
2026-01-17 20:29:21.05	68.78	15.59	-84.7	-88.8	2.7	1.56e+00	0	47	104	0	60	1048574
2026-01-17 20:29:22.06	69.00	15.60	-83.5	-88.8	2.4	1.56e+00	0	47	104	0	60	1048574
2026-01-17 20:29:23.07	69.22	15.61	-85.2	-88.8	2.7	1.56e+00	0	47	104	0	60	1048574
2026-01-17 20:29:24.08	69.43	15.62	-85.2	-88.8	2.6	1.56e+00	0	47	104	0	60	1048575
2026-01-17 20:29:25.09	69.65	15.63	-85.2	-88.8	2.8	1.56e+00	0	47	104	0	60	1048575
2026-01-17 20:29:26.09	69.86	15.64	-85.2	-88.8	2.8	1.56e+00	0	47	104	0	60	1048573
2026-01-17 20:29:27.10	70.08	15.65	-85.2	-88.8	2.7	1.56e+00	0	47	104	0	60	1048573
2026-01-17 20:29:28.11	70.30	15.66	-85.2	-88.8	2.7	1.56e+00	0	47	104	0	60	1048572
2026-01-17 20:29:29.11	70.52	15.67	-85.2	-88.8	2.6	1.56e+00	0	47	104	0	60	1048571
2026-01-17 20:29:30.11	70.73	15.68	-85.2	-88.8	2.9	1.56e+00	0	47	104	0	60	1048571
2026-01-17 20:29:31.12	70.95	15.68	-85.2	-88.8	2.7	1.56e+00	0	47	104	0	60	1048574
2026-01-17 20:29:32.12	71.16	15.69	-85.2	-88.8	2.7	1.56e+00	0	47	104	0	60	1048574
2026-01-17 20:29:33.13	71.38	15.70	-85.2	-88.8	2.5	1.56e+00	0	47	104	0	60	1048574
2026-01-17 20:29:34.14	71.60	15.70	-85.2	-88.8	2.6	1.56e+00	0	47	104	0	60	1048570
2026-01-17 20:29:35.14	71.82	15.71	-85.2	-88.8	2.8	1.56e+00	0	47	104	0	60	1048573
2026-01-17 20:29:36.15	72.04	15.72	-85.2	-88.8	2.7	1.56e+00	0	47	104	0	60	1048575
2026-01-17 20:29:37.16	72.25	15.72	-85.2	-88.8	2.7	1.56e+00	0	47	104	0	60	1048575
2026-01-17 20:29:38.17	72.47	15.73	-85.2	-88.8	2.7	1.56e+00	0	47	104	0	60	1048572
2026-01-17 20:29:39.17	72.69	15.73	-85.2	-88.8	2.7	1.56e+00	0	48	104	0	60	1048575
2026-01-17 20:29:40.18	72.91	15.74	-85.2	-88.8	2.9	1.56e+00	0	47	104	0	60	1048575
2026-01-17 20:29:41.19	73.13	15.74	-85.2	-88.8	2.8	1.56e+00	0	47	104	0	60	1048575
2026-01-17 20:29:42.19	73.34	15.74	-85.2	-88.8	2.7	1.56e+00	0	47	104	0	60	1048574
2026-01-17 20:29:43.20	73.56	15.75	-85.2	-88.8	2.7	1.56e+00	0	47	104	0	60	1048575
2026-01-17 20:29:44.21	73.78	15.75	-85.2	-88.8	2.9	1.56e+00	0	47	104	0	60	1048575
2026-01-17 20:29:45.22	74.00	15.75	-85.2	-88.8	2.7	1.56e+00	0	47	104	0	60	1048574
2026-01-17 20:29:46.22	74.22	15.75	-85.2	-88.8	2.6	1.56e+00	0	47	104	0	60	1048573
2026-01-17 20:29:47.23	74.44	15.75	-85.2	-88.8	2.9	1.56e+00	0	47	104	0	60	1048575
2026-01-17 20:29:48.24	74.65	15.75	-85.2	-88.8	2.9	1.56e+00	0	47	104	0	60	1048575
2026-01-17 20:29:49.24	74.87	15.76	-85.2	-88.8	2.6	1.56e+00	0	47	104	0	60	1048575
2026-01-17 20:29:50.25	75.09	15.76	-85.2	-88.8	2.7	1.56e+00	0	47	104	0	60	1048575
2026-01-17 20:29:51.25	75.31	15.76	-85.2	-88.8	2.6	1.56e+00	0	47	104	0	60	1048575
2026-01-17 20:29:52.26	75.53	15.76	-84.7	-88.8	2.7	1.56e+00	0	47	104	0	60	1048575
2026-01-17 20:29:53.27	75.75	15.75	-85.2	-88.8	2.8	1.56e+00	0	47	104	0	60	1048575
2026-01-17 20:29:54.27	75.96	15.75	-85.2	-88.8	2.8	1.56e+00	0	47	104	0	60	1048573
2026-01-17 20:29:55.28	76.18	15.75	-85.2	-88.8	2.7	1.56e+00	0	47	104	0	60	1048574
2026-01-17 20:29:56.29	76.40	15.75	-83.5	-88.8	2.6	1.56e+00	0	47	104	0	60	1048574
2026-01-17 20:29:57.30	76.62	15.75	-85.2	-88.8	2.8	1.56e+00	0	47	104	0	60	1048575
2026-01-17 20:29:58.31	76.84	15.74	-85.2	-88.8	2.5	1.56e+00	0	47	104	0	60	1048575
2026-01-17 20:29:59.31	77.06	15.74	-85.2	-88.8	2.8	1.56e+00	0	47	104	0	60	1048574
2026-01-17 20:30:00.32	77.27	15.74	-85.2	-88.8	2.9	1.56e+00	0	47	104	0	60	1048575
2026-01-17 20:30:01.33	77.49	15.73	-85.2	-88.8	2.6	1.56e+00	0	47	104	0	60	1048575
2026-01-17 20:30:02.34	77.71	15.73	-85.2	-88.8	2.8	1.56e+00	0	47	104	0	60	1048575
2026-01-17 20:30:03.34	77.93	15.72	-85.2	-88.8	2.5	1.56e+00	0	47	104	0	60	1048563
2026-01-17 20:30:04.35	78.15	15.72	-85.2	-88.8	2.7	1.56e+00	0	47	104	0	60	1048567
2026-01-17 20:30:05.35	78.36	15.71	-85.2	-88.8	3.0	1.56e+00	0	47	104	0	60	1048574
2026-01-17 20:30:06.36	78.58	15.71	-85.2	-88.8	2.7	1.56e+00	0	47	104	0	60	1048574
2026-01-17 20:30:07.36	78.80	15.70	-85.2	-88.8	2.5	1.56e+00	0	47	104	0	60	1048574
2026-01-17 20:30:08.37	79.02	15.69	-85.2	-88.8	2.6	1.56e+00	0	47	104	0	60	1048575
2026-01-17 20:30:09.37	79.23	15.69	-85.2	-88.8	2.6	1.56e+00	0	47	104	0	60	1048575
2026-01-17 20:30:10.37	79.45	15.68	-85.2	-88.8	2.6	1.56e+00	0	47	104	0	60	1048575
2026-01-17 20:30:11.38	79.67	15.67	-84.3	-88.8	2.8	1.56e+00	0	47	104	0	60	1048575
2026-01-17 20:30:12.38	79.88	15.66	-85.2	-88.8	2.7	1.56e+00	0	47	104	0	60	1048575
2026-01-17 20:30:13.39	80.10	15.66	-85.2	-88.8	2.7	1.56e+00	0	47	104	0	60	1048572
2026-01-17 20:30:14.40	80.32	15.65	-85.2	-88.8	2.7	1.56e+00	0	47	104	0	60	1048575
2026-01-17 20:30:15.41	80.54	15.64	-85.2	-88.8	2.8	1.56e+00	0	47	104	0	60	1048575
2026-01-17 20:30:16.42	80.75	15.63	-85.2	-88.8	2.6	1.56e+00	0	47	104	0	60	1048574
2026-01-17 20:30:17.43	80.97	15.62	-85.2	-88.8	2.6	1.56e+00	0	47	104	0	60	1048575
2026-01-17 20:30:18.43	81.18	15.61	-85.2	-88.8	2.8	1.56e+00	0	47	104	0	60	1048575
2026-01-17 20:30:19.44	81.40	15.60	-85.2	-88.8	2.7	1.56e+00	0	47	104	0	60	1048575
2026-01-17 20:30:20.44	81.62	15.58	-85.2	-88.8	2.9	1.56e+00	0	47	104	0	60	1048575
2026-01-17 20:30:21.45	81.83	15.57	-85.2	-88.8	2.7	1.56e+00	0	48	104	0	60	1048574
2026-01-17 20:30:22.46	82.05	15.56	-85.2	-88.8	2.8	1.56e+00	0	47	104	0	60	1048573
2026-01-17 20:30:23.47	82.27	15.55	-84.7	-88.8	2.9	1.56e+00	0	47	104	0	60	1048575
2026-01-17 20:30:24.47	82.48	15.54	-85.2	-88.8	2.8	1.56e+00	0	47	104	0	60	1048575
2026-01-17 20:30:25.48	82.70	15.52	-85.2	-88.8	2.8	1.56e+00	0	47	104	0	60	1048575
2026-01-17 20:30:26.49	82.91	15.51	-85.2	-88.8	2.8	1.56e+00	0	47	104	0	60	1048566
2026-01-17 20:30:27.50	83.13	15.49	-85.2	-88.8	2.8	1.56e+00	0	47	104	0	60	1048575
2026-01-17 20:30:28.50	83.34	15.48	-85.2	-88.8	2.7	1.56e+00	0	47	104	0	60	1048566
2026-01-17 20:30:29.50	83.55	15.47	-85.2	-88.8	2.6	1.56e+00	0	47	104	0	60	1048575
2026-01-17 20:30:30.51	83.77	15.45	-85.2	-88.8	2.8	1.56e+00	0	47	104	0	60	1048572
2026-01-17 20:30:31.51	83.98	15.44	-85.2	-88.8	2.6	1.56e+00	0	47	104	0	60	1048575
2026-01-17 20:30:32.52	84.20	15.42	-85.2	-88.8	2.6	1.56e+00	0	47	104	0	60	1048573
2026-01-17 20:30:33.53	84.41	15.40	-85.2	-88.8	2.7	1.56e+00	0	47	104	0	60	1048575
2026-01-17 20:30:34.54	84.62	15.39	-85.2	-88.8	2.8	1.56e+00	0	47	104	0	60	1048574
2026-01-17 20:30:35.55	84.84	15.37	-85.2	-88.8	2.6	1.56e+00	0	47	104	0	60	1048570
2026-01-17 20:30:36.55	85.05	15.35	-85.2	-88.8	2.6	1.56e+00	0	47	104	0	60	1048572
2026-01-17 20:30:37.56	85.26	15.34	-85.2	-88.8	2.8	1.56e+00	0	47	104	0	60	1048572
2026-01-17 20:30:38.57	85.48	15.32	-85.2	-88.8	2.5	1.56e+00	0	47	104	0	60	1048575
2026-01-17 20:30:39.57	85.69	15.30	-85.2	-88.8	2.9	1.56e+00	0	47	104	0	60	1048574
2026-01-17 20:30:40.58	85.90	15.28	-85.2	-88.8	2.6	1.56e+00	0	47	104	0	60	1048575
2026-01-17 20:30:41.59	86.11	15.26	-85.2	-88.8	2.7	1.56e+00	0	47	104	0	60	1048574
2026-01-17 20:30:42.60	86.33	15.24	-85.2	-88.8	2.8	1.56e+00	0	47	104	0	60	1048561
2026-01-17 20:30:43.61	86.54	15.22	-85.2	-88.8	2.7	1.56e+00	0	47	104	0	60	1048575
2026-01-17 20:30:44.61	86.75	15.20	-83.5	-88.8	2.6	1.56e+00	0	47	104	0	60	1048575
2026-01-17 20:30:45.62	86.96	15.18	-85.2	-88.8	2.8	1.56e+00	0	47	104	0	60	1048574
2026-01-17 20:30:46.63	87.17	15.16	-85.2	-88.8	2.6	1.56e+00	0	47	104	0	60	1048572
2026-01-17 20:30:47.64	87.38	15.14	-85.2	-88.8	2.8	1.56e+00	0	47	104	0	60	1048575
2026-01-17 20:30:48.65	87.59	15.12	-85.2	-88.8	2.6	1.56e+00	0	47	104	0	60	1048575
2026-01-17 20:30:49.65	87.80	15.10	-85.2	-88.8	2.6	1.56e+00	0	47	104	0	60	1048569
2026-01-17 20:30:50.66	88.01	15.08	-85.2	-88.8	2.5	1.56e+00	0	47	104	0	60	1048575
2026-01-17 20:30:51.67	88.22	15.05	-85.2	-88.8	2.7	1.56e+00	0	47	104	0	60	1048574
2026-01-17 20:30:52.68	88.43	15.03	-85.2	-88.8	2.7	1.56e+00	0	47	104	0	60	1048575
2026-01-17 20:30:53.68	88.63	15.01	-85.2	-88.8	2.6	1.56e+00	0	47	104	0	60	1048570
2026-01-17 20:30:54.69	88.84	14.98	-85.2	-88.8	2.7	1.56e+00	0	47	104	0	60	1048573
2026-01-17 20:30:55.69	89.05	14.96	-84.3	-88.8	2.6	1.56e+00	0	47	104	0	60	1048574
2026-01-17 20:30:56.70	89.26	14.94	-82.8	-88.8	2.6	1.56e+00	0	47	104	0	60	1048573
2026-01-17 20:30:57.71	89.47	14.91	-83.9	-88.8	2.7	1.56e+00	0	47	104	0	60	1048573
2026-01-17 20:30:58.71	89.67	14.89	-83.9	-88.8	2.7	1.56e+00	0	47	104	0	60	1048574
2026-01-17 20:30:59.72	89.88	14.86	-84.7	-88.8	2.8	1.56e+00	0	47	104	0	60	1048575
2026-01-17 20:31:00.73	90.08	14.84	-84.7	-88.8	2.6	1.56e+00	0	47	104	0	60	1048575
2026-01-17 20:31:01.73	90.29	14.81	-82.8	-88.8	2.8	1.56e+00	0	47	104	0	60	1048575
2026-01-17 20:31:02.74	90.50	14.79	-85.2	-88.8	2.6	1.56e+00	0	47	104	0	60	1048575
2026-01-17 20:31:03.75	90.70	14.76	-85.2	-88.8	2.8	1.56e+00	0	47	104	0	60	1048575
2026-01-17 20:31:04.75	90.90	14.73	-85.2	-88.8	2.7	1.56e+00	0	47	104	0	60	1048573
2026-01-17 20:31:05.76	91.11	14.71	-85.2	-88.8	2.7	1.56e+00	0	47	104	0	60	1048575
2026-01-17 20:31:06.77	91.31	14.68	-83.5	-88.8	2.6	1.56e+00	0	47	104	0	60	1048570
2026-01-17 20:31:07.77	91.52	14.65	-85.2	-88.8	2.8	1.56e+00	0	47	104	0	60	1048575
2026-01-17 20:31:08.78	91.72	14.62	-85.2	-88.8	2.6	1.56e+00	0	47	104	0	60	1048575
2026-01-17 20:31:09.79	91.92	14.60	-85.2	-88.8	2.6	1.56e+00	0	47	104	0	60	1048574
2026-01-17 20:31:10.79	92.13	14.57	-84.7	-88.8	2.7	1.56e+00	0	47	104	0	60	1048570
2026-01-17 20:31:11.80	92.33	14.54	-85.2	-88.8	2.7	1.56e+00	0	47	104	0	60	1048575
2026-01-17 20:31:12.80	92.53	14.51	-85.2	-88.8	2.9	1.56e+00	0	47	104	0	60	1048573
2026-01-17 20:31:13.81	92.73	14.48	-85.2	-88.8	2.7	1.56e+00	0	47	104	0	60	1048575
2026-01-17 20:31:14.81	92.93	14.45	-85.2	-88.8	2.5	1.56e+00	0	47	104	0	60	1048574
2026-01-17 20:31:15.82	93.13	14.42	-85.2	-88.8	2.7	1.56e+00	0	47	104	0	60	1048573
2026-01-17 20:31:16.82	93.33	14.39	-85.2	-88.8	2.7	1.56e+00	0	47	104	0	60	1048572
2026-01-17 20:31:17.83	93.53	14.36	-85.2	-88.8	2.7	1.56e+00	0	47	104	0	60	1048573
2026-01-17 20:31:18.84	93.73	14.33	-85.2	-88.8	2.6	1.56e+00	0	47	104	0	60	1048575
2026-01-17 20:31:19.84	93.93	14.30	-85.2	-88.8	2.9	1.56e+00	0	48	104	0	60	1048573
2026-01-17 20:31:20.85	94.13	14.27	-84.7	-88.8	2.5	1.56e+00	0	47	104	0	60	1048575
2026-01-17 20:31:21.86	94.33	14.24	-85.2	-88.8	2.7	1.56e+00	0	47	104	0	60	1048569
2026-01-17 20:31:22.86	94.52	14.20	-85.2	-88.8	2.6	1.56e+00	0	47	104	0	60	1048574
2026-01-17 20:31:23.87	94.72	14.17	-85.2	-88.8	2.7	1.56e+00	0	47	104	0	60	1048575
2026-01-17 20:31:24.88	94.92	14.14	-85.2	-88.8	2.7	1.56e+00	0	47	104	0	60	1048573
2026-01-17 20:31:25.88	95.11	14.11	-83.5	-88.8	2.8	1.56e+00	0	47	104	0	60	1048575
2026-01-17 20:31:26.89	95.31	14.07	-85.2	-88.8	2.9	1.56e+00	0	47	104	0	60	1048573
2026-01-17 20:31:27.90	95.51	14.04	-85.2	-88.8	2.7	1.56e+00	0	48	104	0	60	1048571
2026-01-17 20:31:28.90	95.70	14.01	-85.2	-88.8	2.8	1.56e+00	0	47	104	0	60	1048575
2026-01-17 20:31:29.91	95.90	13.97	-85.2	-88.8	2.9	1.56e+00	0	47	104	0	60	1048574
2026-01-17 20:31:30.92	96.09	13.94	-84.7	-88.8	2.7	1.56e+00	0	47	104	0	60	1048572
2026-01-17 20:31:31.92	96.29	13.91	-83.9	-88.8	2.8	1.56e+00	0	47	104	0	60	1048575
2026-01-17 20:31:32.93	96.48	13.87	-85.2	-88.8	2.5	1.56e+00	0	47	104	0	60	1048575
2026-01-17 20:31:33.94	96.67	13.84	-85.2	-88.8	2.4	1.56e+00	0	47	104	0	60	1048574
2026-01-17 20:31:34.94	96.87	13.80	-85.2	-88.8	2.7	1.56e+00	0	47	104	0	60	1048574
2026-01-17 20:31:35.95	97.06	13.77	-85.2	-88.8	2.7	1.56e+00	0	48	104	0	60	1048573
2026-01-17 20:31:36.96	97.25	13.73	-85.2	-88.8	2.8	1.56e+00	0	47	104	0	60	1048575
2026-01-17 20:31:37.97	97.44	13.69	-85.2	-88.8	2.8	1.56e+00	0	47	104	0	60	1048575
2026-01-17 20:31:38.97	97.63	13.66	-85.2	-88.8	2.6	1.56e+00	0	47	104	0	60	1048575
2026-01-17 20:31:39.98	97.82	13.62	-85.2	-88.8	2.7	1.56e+00	0	47	104	0	60	1048570
2026-01-17 20:31:40.99	98.01	13.59	-85.2	-88.8	2.7	1.56e+00	0	47	104	0	60	1048574
2026-01-17 20:31:41.99	98.20	13.55	-85.2	-88.8	2.9	1.56e+00	0	47	104	0	60	1048574
2026-01-17 20:31:43.00	98.39	13.51	-85.2	-88.8	2.7	1.56e+00	0	47	104	0	60	1048575
2026-01-17 20:31:44.01	98.58	13.48	-85.2	-88.8	2.9	1.56e+00	0	47	104	0	60	1048567
2026-01-17 20:31:45.02	98.77	13.44	-85.2	-88.8	2.8	1.56e+00	0	47	104	0	60	1048574
2026-01-17 20:31:46.02	98.96	13.40	-85.2	-88.8	2.8	1.56e+00	0	47	104	0	60	1048574
2026-01-17 20:31:47.02	99.14	13.36	-85.2	-88.8	2.7	1.56e+00	0	47	104	0	60	1048571
2026-01-17 20:31:48.03	99.33	13.33	-85.2	-88.8	2.7	1.56e+00	0	47	104	0	60	1048575
2026-01-17 20:31:49.03	99.52	13.29	-85.2	-88.8	2.7	1.56e+00	0	47	104	0	60	1048571
2026-01-17 20:31:50.03	99.70	13.25	-85.2	-88.8	2.7	1.56e+00	0	47	104	0	60	1048575
2026-01-17 20:31:51.04	99.89	13.21	-85.2	-88.8	2.7	1.56e+00	0	47	104	0	60	1048574
2026-01-17 20:31:52.04	100.07	13.17	-85.2	-88.8	2.9	1.56e+00	0	47	104	0	60	1048575
2026-01-17 20:31:53.05	100.26	13.13	-85.2	-88.8	2.6	1.56e+00	0	47	104	0	60	1048575
2026-01-17 20:31:54.06	100.44	13.09	-85.2	-88.8	2.8	1.56e+00	0	47	104	0	60	1048569
2026-01-17 20:31:55.07	100.63	13.05	-85.2	-88.8	2.6	1.56e+00	0	47	104	0	60	1048575
2026-01-17 20:31:56.07	100.81	13.01	-85.2	-88.8	2.7	1.56e+00	0	47	104	0	60	1048573
2026-01-17 20:31:57.08	100.99	12.97	-85.2	-88.8	2.6	1.56e+00	0	47	104	0	60	1048573
2026-01-17 20:31:58.09	101.17	12.93	-85.2	-88.8	2.8	1.56e+00	0	47	104	0	60	1048573
2026-01-17 20:31:59.09	101.35	12.89	-85.2	-88.8	2.8	1.56e+00	0	47	104	0	60	1048573
2026-01-17 20:32:00.10	101.54	12.85	-85.2	-88.8	2.6	1.56e+00	0	47	104	0	60	1048570
2026-01-17 20:32:01.09	101.71	12.81	-85.2	-88.8	2.6	1.56e+00	0	47	104	0	60	1048575
2026-01-17 20:32:02.10	101.89	12.77	-85.2	-88.8	2.8	1.56e+00	0	47	104	0	60	1048575
2026-01-17 20:32:03.11	102.07	12.73	-85.2	-88.8	2.7	1.56e+00	0	47	104	0	60	1048574
2026-01-17 20:32:04.11	102.25	12.69	-85.2	-88.8	2.8	1.56e+00	0	47	104	0	60	1048573
2026-01-17 20:32:05.12	102.43	12.65	-85.2	-88.8	2.9	1.56e+00	0	48	104	0	60	1048574
2026-01-17 20:32:06.13	102.61	12.61	-85.2	-88.8	2.8	1.56e+00	0	47	104	0	60	1048574
2026-01-17 20:32:07.14	102.79	12.57	-84.7	-88.8	2.4	1.56e+00	0	48	104	0	60	1048575
2026-01-17 20:32:08.14	102.97	12.52	-85.2	-88.8	2.8	1.56e+00	0	47	104	0	60	1048572
2026-01-17 20:32:09.15	103.14	12.48	-85.2	-88.8	2.7	1.56e+00	0	47	104	0	60	1048575
2026-01-17 20:32:10.16	103.32	12.44	-85.2	-88.8	2.7	1.56e+00	0	47	104	0	60	1048575
2026-01-17 20:32:11.17	103.50	12.40	-85.2	-88.8	2.8	1.56e+00	0	47	104	0	60	1048573
2026-01-17 20:32:12.17	103.67	12.35	-85.2	-88.8	2.7	1.56e+00	0	47	104	0	60	1048571
2026-01-17 20:32:13.18	103.85	12.31	-85.2	-88.8	2.8	1.56e+00	0	47	104	0	60	1048575
2026-01-17 20:32:14.19	104.02	12.27	-85.2	-88.8	2.8	1.56e+00	0	47	104	0	60	1048570
2026-01-17 20:32:15.20	104.20	12.23	-85.2	-88.8	2.7	1.56e+00	0	47	104	0	60	1048571
2026-01-17 20:32:16.21	104.37	12.18	-85.2	-88.8	2.5	1.56e+00	0	47	104	0	60	1048574
2026-01-17 20:32:17.21	104.54	12.14	-85.2	-88.8	2.6	1.56e+00	0	48	104	0	60	1048573
2026-01-17 20:32:18.21	104.71	12.10	-85.2	-88.8	2.8	1.56e+00	0	47	104	0	60	1048574
2026-01-17 20:32:19.22	104.89	12.05	-85.2	-88.8	2.5	1.56e+00	0	47	104	0	60	1048575
2026-01-17 20:32:20.23	105.06	12.01	-85.2	-88.8	2.6	1.56e+00	0	47	104	0	60	1048574
2026-01-17 20:32:21.24	105.23	11.96	-85.2	-88.8	2.9	1.56e+00	0	47	104	0	60	1048575
2026-01-17 20:32:22.24	105.40	11.92	-85.2	-88.8	2.8	1.56e+00	0	48	104	0	60	1048575
2026-01-17 20:32:23.25	105.57	11.88	-85.2	-88.8	2.7	1.56e+00	0	48	104	0	60	1048573
2026-01-17 20:32:24.26	105.74	11.83	-85.2	-88.8	2.9	1.56e+00	0	47	104	0	60	1048574
2026-01-17 20:32:25.27	105.91	11.79	-85.2	-88.8	2.8	1.56e+00	0	47	104	0	60	1048569
2026-01-17 20:32:26.28	106.08	11.74	-83.9	-88.8	2.5	1.56e+00	0	47	104	0	60	1048574
2026-01-17 20:32:27.29	106.25	11.70	-85.2	-88.8	2.9	1.56e+00	0	47	104	0	60	1048575
2026-01-17 20:32:28.29	106.41	11.65	-85.2	-88.8	2.8	1.56e+00	0	48	104	0	60	1048572
2026-01-17 20:32:29.29	106.58	11.61	-85.2	-88.8	2.9	1.56e+00	0	47	104	0	60	1048575
2026-01-17 20:32:30.30	106.75	11.56	-85.2	-88.8	2.8	1.56e+00	0	47	104	0	60	1048574
2026-01-17 20:32:31.31	106.91	11.52	-85.2	-88.8	2.6	1.56e+00	0	47	104	0	60	1048575
2026-01-17 20:32:32.31	107.08	11.47	-85.2	-88.8	2.7	1.56e+00	0	47	104	0	60	1048574
2026-01-17 20:32:33.32	107.24	11.42	-85.2	-88.8	2.8	1.56e+00	0	47	104	0	60	1048572
2026-01-17 20:32:34.33	107.41	11.38	-85.2	-88.8	2.7	1.56e+00	0	47	104	0	60	1048574
2026-01-17 20:32:35.33	107.57	11.33	-85.2	-88.8	2.8	1.56e+00	0	47	104	0	60	1048573
2026-01-17 20:32:36.34	107.74	11.29	-85.2	-88.8	2.6	1.56e+00	0	47	104	0	60	1048570
2026-01-17 20:32:37.35	107.90	11.24	-85.2	-88.8	2.5	1.56e+00	0	47	104	0	60	1048575
2026-01-17 20:32:38.35	108.06	11.19	-85.2	-88.8	2.7	1.56e+00	0	47	104	0	60	1048575
2026-01-17 20:32:39.36	108.22	11.15	-85.2	-88.8	2.8	1.56e+00	0	47	104	0	60	1048575
2026-01-17 20:32:40.37	108.39	11.10	-85.2	-88.8	3.0	1.56e+00	0	47	104	0	60	1048574
2026-01-17 20:32:41.38	108.55	11.05	-85.2	-88.8	2.7	1.56e+00	0	47	104	0	60	1048571
2026-01-17 20:32:42.39	108.71	11.01	-85.2	-88.8	2.5	1.56e+00	0	47	104	0	60	1048574
2026-01-17 20:32:43.39	108.87	10.96	-85.2	-88.8	2.7	1.56e+00	0	47	104	0	60	1048568
2026-01-17 20:32:44.40	109.03	10.91	-85.2	-88.8	2.9	1.56e+00	0	47	104	0	60	1048574
2026-01-17 20:32:45.41	109.19	10.87	-85.2	-88.8	2.8	1.56e+00	0	47	104	0	60	1048574
2026-01-17 20:32:46.41	109.35	10.82	-85.2	-88.8	2.6	1.56e+00	0	47	104	0	60	1048569
2026-01-17 20:32:47.42	109.50	10.77	-85.2	-88.8	2.8	1.56e+00	0	47	104	0	60	1048573
2026-01-17 20:32:48.43	109.66	10.72	-85.2	-88.8	2.8	1.56e+00	0	47	104	0	60	1048574
2026-01-17 20:32:49.43	109.82	10.68	-85.2	-88.8	2.8	1.56e+00	0	47	104	0	60	1048571
2026-01-17 20:32:50.44	109.98	10.63	-85.2	-88.8	2.7	1.56e+00	0	47	104	0	60	1048575
2026-01-17 20:32:51.45	110.13	10.58	-85.2	-88.8	2.6	1.56e+00	0	47	104	0	60	1048574
2026-01-17 20:32:52.44	110.29	10.54	-85.2	-88.8	2.8	1.56e+00	0	47	104	0	60	1048575
2026-01-17 20:32:53.45	110.44	10.49	-85.2	-88.8	2.6	1.56e+00	0	47	104	0	60	1048575
2026-01-17 20:32:54.46	110.60	10.44	-85.2	-88.8	2.7	1.56e+00	0	47	104	0	60	1048575
2026-01-17 20:32:55.47	110.75	10.39	-85.2	-88.8	2.9	1.56e+00	0	47	104	0	60	1048574
2026-01-17 20:32:56.47	110.90	10.34	-85.2	-88.8	2.7	1.56e+00	0	47	104	0	60	1048572
2026-01-17 20:32:57.47	111.06	10.30	-85.2	-88.8	2.7	1.56e+00	0	47	104	0	60	1048571
2026-01-17 20:32:58.48	111.21	10.25	-85.2	-88.8	2.5	1.56e+00	0	47	104	0	60	1048575
2026-01-17 20:32:59.48	111.36	10.20	-85.2	-88.8	2.8	1.56e+00	0	47	104	0	60	1048575
2026-01-17 20:33:00.49	111.51	10.15	-84.7	-88.8	2.7	1.56e+00	0	47	104	0	60	1048572
2026-01-17 20:33:01.49	111.66	10.10	-85.2	-88.8	2.9	1.56e+00	0	48	104	0	60	1048575
2026-01-17 20:33:02.49	111.81	10.05	-85.2	-88.8	2.7	1.56e+00	0	47	104	0	60	1048573
2026-01-17 20:33:03.50	111.96	10.00	-85.2	-88.8	2.7	1.56e+00	0	47	104	0	60	1048573
2026-01-17 20:33:04.50	112.11	9.96	-85.2	-88.8	2.8	1.56e+00	0	47	104	0	60	1048575
2026-01-17 20:33:05.51	112.26	9.91	-85.2	-88.8	2.7	1.56e+00	0	47	104	0	60	1048572
2026-01-17 20:33:06.51	112.41	9.86	-85.2	-88.8	2.8	1.56e+00	0	47	104	0	60	1048573
2026-01-17 20:33:07.51	112.56	9.81	-84.7	-88.8	2.8	1.56e+00	0	47	104	0	60	1048573
2026-01-17 20:33:08.51	112.71	9.76	-85.2	-88.8	2.8	1.56e+00	0	47	104	0	60	1048571
2026-01-17 20:33:09.52	112.85	9.71	-85.2	-88.8	2.8	1.56e+00	0	47	104	0	60	1048567
2026-01-17 20:33:10.52	113.00	9.66	-85.2	-88.8	2.7	1.56e+00	0	47	104	0	60	1048574
2026-01-17 20:33:11.52	113.15	9.61	-85.2	-88.8	2.6	1.56e+00	0	47	104	0	60	1048574
2026-01-17 20:33:12.52	113.29	9.57	-84.7	-88.8	2.5	1.56e+00	0	47	104	0	60	1048562
2026-01-17 20:33:13.53	113.44	9.52	-85.2	-88.8	2.8	1.56e+00	0	47	104	0	60	1048575
2026-01-17 20:33:14.53	113.58	9.47	-85.2	-88.8	2.7	1.56e+00	0	47	104	0	60	1048575
2026-01-17 20:33:15.54	113.73	9.42	-85.2	-88.8	2.7	1.56e+00	0	47	104	0	60	1048575
2026-01-17 20:33:16.55	113.87	9.37	-85.2	-88.8	2.8	1.56e+00	0	47	104	0	60	1048574
2026-01-17 20:33:17.55	114.01	9.32	-85.2	-88.8	2.7	1.56e+00	0	48	104	0	60	1048573
2026-01-17 20:33:18.56	114.16	9.27	-85.2	-88.8	2.7	1.56e+00	0	47	104	0	60	1048573
2026-01-17 20:33:19.57	114.30	9.22	-85.2	-88.8	2.6	1.56e+00	0	48	104	0	60	1048575
2026-01-17 20:33:20.58	114.44	9.17	-85.2	-88.8	2.8	1.56e+00	0	48	104	0	60	1048575
2026-01-17 20:33:21.59	114.59	9.12	-85.2	-88.8	2.8	1.56e+00	0	48	104	0	60	1048571
2026-01-17 20:33:22.59	114.73	9.07	-85.2	-88.8	2.7	1.56e+00	0	48	104	0	60	1048574
2026-01-17 20:33:23.60	114.87	9.02	-85.2	-88.8	2.7	1.56e+00	0	47	104	0	60	1048570
2026-01-17 20:33:24.60	115.01	8.97	-85.2	-88.8	2.5	1.56e+00	0	47	104	0	60	1048575
2026-01-17 20:33:25.61	115.15	8.92	-85.2	-88.8	2.5	1.56e+00	0	47	104	0	60	1048572
2026-01-17 20:33:26.61	115.29	8.87	-85.2	-88.8	2.6	1.56e+00	0	47	104	0	60	1048575
2026-01-17 20:33:27.62	115.43	8.82	-85.2	-88.8	2.8	1.56e+00	0	47	104	0	60	1048573
2026-01-17 20:33:28.62	115.56	8.77	-85.2	-88.8	2.5	1.56e+00	0	48	104	0	60	1048574
2026-01-17 20:33:29.63	115.70	8.72	-85.2	-88.8	2.6	1.56e+00	0	48	104	0	60	1048575
2026-01-17 20:33:30.63	115.84	8.67	-85.2	-88.8	2.6	1.56e+00	0	47	104	0	60	1048574
2026-01-17 20:33:31.64	115.98	8.62	-85.2	-88.8	2.7	1.56e+00	0	47	104	0	60	1048571
2026-01-17 20:33:32.65	116.11	8.57	-85.2	-88.8	2.7	1.56e+00	0	48	104	0	60	1048574
2026-01-17 20:33:33.65	116.25	8.52	-85.2	-88.8	2.9	1.56e+00	0	47	104	0	60	1048573
2026-01-17 20:33:34.66	116.39	8.47	-85.2	-88.8	2.6	1.56e+00	0	47	104	0	60	1048575
2026-01-17 20:33:35.67	116.52	8.42	-85.2	-88.8	2.5	1.56e+00	0	47	104	0	60	1048572
2026-01-17 20:33:36.68	116.66	8.37	-85.2	-88.8	2.6	1.56e+00	0	47	104	0	60	1048575
2026-01-17 20:33:37.69	116.79	8.32	-85.2	-88.8	2.8	1.56e+00	0	47	104	0	60	1048575
2026-01-17 20:33:38.70	116.93	8.26	-85.2	-88.8	2.4	1.56e+00	0	48	104	0	60	1048567
2026-01-17 20:33:39.70	117.06	8.21	-85.2	-88.8	2.6	1.56e+00	0	48	104	0	60	1048575
2026-01-17 20:33:40.71	117.19	8.16	-85.2	-88.8	2.7	1.56e+00	0	48	104	0	60	1048575
2026-01-17 20:33:41.72	117.33	8.11	-85.2	-88.8	2.6	1.56e+00	0	47	104	0	60	1048574
2026-01-17 20:33:42.72	117.46	8.06	-85.2	-88.8	2.7	1.56e+00	0	47	104	0	60	1048568
2026-01-17 20:33:43.72	117.59	8.01	-85.2	-88.8	2.7	1.56e+00	0	47	104	0	60	1048575
2026-01-17 20:33:44.72	117.72	7.96	-85.2	-88.8	2.7	1.56e+00	0	47	104	0	60	1048575
2026-01-17 20:33:45.73	117.85	7.91	-85.2	-88.8	2.6	1.56e+00	0	47	104	0	60	1048570
2026-01-17 20:33:46.73	117.98	7.86	-85.2	-88.8	2.9	1.56e+00	0	47	104	0	60	1048575
2026-01-17 20:33:47.74	118.11	7.81	-85.2	-88.8	2.5	1.56e+00	0	47	104	0	60	1048572
2026-01-17 20:33:48.74	118.24	7.76	-85.2	-88.8	2.7	1.56e+00	0	47	104	0	60	1048575
2026-01-17 20:33:49.75	118.37	7.71	-85.2	-88.8	2.7	1.56e+00	0	47	104	0	60	1048575
2026-01-17 20:33:50.76	118.50	7.66	-85.2	-88.8	2.7	1.56e+00	0	47	104	0	60	1048575
2026-01-17 20:33:51.77	118.63	7.61	-85.2	-88.8	2.9	1.56e+00	0	47	104	0	60	1048575
2026-01-17 20:33:52.77	118.75	7.56	-85.2	-88.8	2.7	1.56e+00	0	47	104	0	60	1048573
2026-01-17 20:33:53.78	118.88	7.50	-85.2	-88.8	2.5	1.56e+00	0	47	104	0	60	1048574
2026-01-17 20:33:54.79	119.01	7.45	-85.2	-88.8	2.6	1.56e+00	0	47	104	0	60	1048575
2026-01-17 20:33:55.80	119.14	7.40	-85.2	-88.8	3.0	1.56e+00	0	47	104	0	60	1048574
2026-01-17 20:33:56.80	119.26	7.35	-85.2	-88.8	2.8	1.56e+00	0	47	104	0	60	1048575
2026-01-17 20:33:57.81	119.39	7.30	-85.2	-88.8	2.7	1.56e+00	0	47	104	0	60	1048574
2026-01-17 20:33:58.81	119.51	7.25	-85.2	-88.8	2.7	1.56e+00	0	47	104	0	60	1048574
2026-01-17 20:33:59.81	119.64	7.20	-85.2	-88.8	2.8	1.56e+00	0	47	104	0	60	1048571
2026-01-17 20:34:00.81	119.76	7.15	-85.2	-88.8	2.6	1.56e+00	0	47	104	0	60	1048573
2026-01-17 20:34:01.82	119.89	7.10	-85.2	-88.8	2.6	1.56e+00	0	47	104	0	60	1048575
2026-01-17 20:34:02.82	120.01	7.05	-85.2	-88.8	2.7	1.56e+00	0	47	104	0	60	1048575
2026-01-17 20:34:03.83	120.13	7.00	-85.2	-88.8	2.8	1.56e+00	0	47	104	0	60	1048569
2026-01-17 20:34:04.83	120.25	6.94	-85.2	-88.8	2.7	1.56e+00	0	47	104	0	60	1048574
2026-01-17 20:34:05.84	120.38	6.89	-85.2	-88.8	2.7	1.56e+00	0	48	104	0	60	1048575
2026-01-17 20:34:06.85	120.50	6.84	-85.2	-88.8	2.6	1.56e+00	0	47	104	0	60	1048574
2026-01-17 20:34:07.86	120.62	6.79	-85.2	-88.8	2.7	1.56e+00	0	47	104	0	60	1048574
2026-01-17 20:34:08.86	120.74	6.74	-85.2	-88.8	3.0	1.56e+00	0	47	104	0	60	1048575
2026-01-17 20:34:09.87	120.86	6.69	-85.2	-88.8	2.7	1.56e+00	0	47	104	0	60	1048574
2026-01-17 20:34:10.88	120.99	6.64	-85.2	-88.8	3.0	1.56e+00	0	48	104	0	60	1048575
2026-01-17 20:34:11.89	121.11	6.59	-85.2	-88.8	2.7	1.56e+00	0	48	104	0	60	1048568
2026-01-17 20:34:12.89	121.22	6.54	-85.2	-88.8	2.7	1.56e+00	0	48	104	0	60	1048575
2026-01-17 20:34:13.90	121.34	6.48	-85.2	-88.8	2.7	1.56e+00	0	47	104	0	60	1048568
2026-01-17 20:34:14.90	121.46	6.43	-85.2	-88.8	2.8	1.56e+00	0	47	104	0	60	1048575
2026-01-17 20:34:15.90	121.58	6.38	-85.2	-88.8	2.7	1.56e+00	0	47	104	0	60	1048571
2026-01-17 20:34:16.91	121.70	6.33	-85.2	-88.8	2.7	1.56e+00	0	47	104	0	60	1048573
2026-01-17 20:34:17.92	121.82	6.28	-85.2	-88.8	2.8	1.56e+00	0	47	104	0	60	1048575
2026-01-17 20:34:18.92	121.93	6.23	-83.9	-88.8	2.7	1.56e+00	0	47	104	0	60	1048575
2026-01-17 20:34:19.93	122.05	6.18	-85.2	-88.8	2.9	1.56e+00	0	48	104	0	60	1048575
2026-01-17 20:34:20.94	122.17	6.13	-85.2	-88.8	2.8	1.56e+00	0	47	104	0	60	1048575
2026-01-17 20:34:21.94	122.28	6.08	-85.2	-88.8	2.4	1.56e+00	0	48	104	0	60	1048575
2026-01-17 20:34:22.95	122.40	6.03	-85.2	-88.8	2.7	1.56e+00	0	47	104	0	60	1048570
2026-01-17 20:34:23.96	122.51	5.97	-85.2	-88.8	2.7	1.56e+00	0	47	104	0	60	1048575
2026-01-17 20:34:24.97	122.63	5.92	-85.2	-88.8	2.7	1.56e+00	0	47	104	0	60	1048575
2026-01-17 20:34:25.98	122.74	5.87	-85.2	-88.8	2.6	1.56e+00	0	48	104	0	60	1048575
2026-01-17 20:34:26.99	122.86	5.82	-85.2	-88.8	2.8	1.56e+00	0	47	104	0	60	1048575
2026-01-17 20:34:28.00	122.97	5.77	-85.2	-88.8	2.6	1.56e+00	0	48	104	0	60	1048574
2026-01-17 20:34:29.00	123.09	5.72	-85.2	-88.8	2.4	1.56e+00	0	48	104	0	60	1048575
2026-01-17 20:34:30.01	123.20	5.67	-85.2	-88.8	2.7	1.56e+00	0	47	104	0	60	1048575
2026-01-17 20:34:31.01	123.31	5.62	-85.2	-88.8	2.8	1.56e+00	0	48	104	0	60	1048574
2026-01-17 20:34:32.01	123.42	5.57	-84.7	-88.8	2.7	1.56e+00	0	47	104	0	60	1048574
2026-01-17 20:34:33.02	123.54	5.51	-85.2	-88.8	2.5	1.55e+00	0	48	104	0	60	1048573
2026-01-17 20:34:34.03	123.65	5.46	-85.2	-88.8	2.8	1.56e+00	0	47	104	0	60	1048575
2026-01-17 20:34:35.04	123.76	5.41	-85.2	-88.8	2.7	1.56e+00	0	47	104	0	60	1048574
2026-01-17 20:34:36.04	123.87	5.36	-85.2	-88.8	2.5	1.56e+00	0	47	104	0	60	1048574
2026-01-17 20:34:37.05	123.98	5.31	-85.2	-88.8	2.9	1.56e+00	0	47	104	0	60	1048573
2026-01-17 20:34:38.06	124.09	5.26	-85.2	-88.8	2.4	1.56e+00	0	47	104	0	60	1048571
2026-01-17 20:34:39.07	124.20	5.21	-85.2	-88.8	2.7	1.56e+00	0	47	104	0	60	1048575
2026-01-17 20:34:40.07	124.31	5.16	-84.7	-88.8	2.6	1.56e+00	0	47	104	0	60	1048571
2026-01-17 20:34:41.08	124.42	5.11	-85.2	-88.8	2.8	1.56e+00	0	47	104	0	60	1048574
2026-01-17 20:34:42.09	124.53	5.06	-85.2	-88.8	2.7	1.56e+00	0	47	104	0	60	1048573
2026-01-17 20:34:43.10	124.64	5.00	-85.2	-88.8	2.5	1.56e+00	0	47	104	0	60	1048575
2026-01-17 20:34:44.11	124.74	4.95	-85.2	-88.8	2.5	1.56e+00	0	47	104	0	60	1048569
2026-01-17 20:34:45.12	124.85	4.90	-85.2	-88.8	2.6	1.56e+00	0	47	104	0	60	1048573
2026-01-17 20:34:46.13	124.96	4.85	-85.2	-88.8	2.7	1.56e+00	0	48	104	0	60	1048575
2026-01-17 20:34:47.13	125.07	4.80	-85.2	-88.8	2.7	1.56e+00	0	47	104	0	60	1048573
2026-01-17 20:34:48.14	125.17	4.75	-85.2	-88.8	2.7	1.56e+00	0	47	104	0	60	1048574
2026-01-17 20:34:49.14	125.28	4.70	-85.2	-88.8	3.0	1.56e+00	0	47	104	0	60	1048574
2026-01-17 20:34:50.15	125.38	4.65	-85.2	-88.8	2.8	1.56e+00	0	47	104	0	60	1048565
2026-01-17 20:34:51.15	125.49	4.60	-85.2	-88.8	2.8	1.56e+00	0	47	104	0	60	1048575
2026-01-17 20:34:52.16	125.59	4.55	-85.2	-88.8	2.8	1.56e+00	0	47	104	0	60	1048575
2026-01-17 20:34:53.16	125.70	4.50	-85.2	-88.8	2.9	1.56e+00	0	48	104	0	60	1048574
2026-01-17 20:34:54.16	125.80	4.45	-85.2	-88.8	2.7	1.56e+00	0	47	104	0	60	1048575
2026-01-17 20:34:55.17	125.91	4.40	-85.2	-88.8	2.7	1.56e+00	0	47	104	0	60	1048573
2026-01-17 20:34:56.18	126.01	4.34	-85.2	-88.8	2.7	1.56e+00	0	48	104	0	60	1048575
2026-01-17 20:34:57.18	126.11	4.29	-85.2	-88.8	2.7	1.56e+00	0	47	104	0	60	1048575
2026-01-17 20:34:58.18	126.21	4.24	-85.2	-88.8	2.6	1.56e+00	0	47	104	0	60	1048569
2026-01-17 20:34:59.19	126.32	4.19	-85.2	-88.8	2.7	1.56e+00	0	48	104	0	60	1048568
2026-01-17 20:35:00.19	126.42	4.14	-85.2	-88.8	2.9	1.56e+00	0	47	104	0	60	1048572
2026-01-17 20:35:01.20	126.52	4.09	-85.2	-88.8	2.6	1.56e+00	0	47	104	0	60	1048575
2026-01-17 20:35:02.20	126.62	4.04	-85.2	-88.8	2.9	1.56e+00	0	47	104	0	60	1048575
2026-01-17 20:35:03.21	126.72	3.99	-85.2	-88.8	2.8	1.56e+00	0	47	104	0	60	1048571
2026-01-17 20:35:04.20	126.82	3.94	-85.2	-88.8	2.7	1.56e+00	0	47	104	0	60	1048575
2026-01-17 20:35:05.21	126.92	3.89	-85.2	-88.8	2.7	1.56e+00	0	47	104	0	60	1048574
2026-01-17 20:35:06.21	127.02	3.84	-85.2	-88.8	2.8	1.56e+00	0	47	104	0	60	1048575
2026-01-17 20:35:07.22	127.12	3.79	-85.2	-88.8	2.8	1.56e+00	0	47	104	0	60	1048574
2026-01-17 20:35:08.22	127.22	3.74	-85.2	-88.8	2.7	1.56e+00	0	47	104	0	60	1048575
2026-01-17 20:35:09.23	127.32	3.69	-85.2	-88.8	2.8	1.56e+00	0	47	104	0	60	1048575
2026-01-17 20:35:10.24	127.42	3.64	-85.2	-88.8	2.7	1.56e+00	0	47	104	0	60	1048574
2026-01-17 20:35:11.24	127.52	3.59	-85.2	-88.8	2.8	1.56e+00	0	47	104	0	60	1048574
2026-01-17 20:35:12.25	127.62	3.54	-85.2	-88.8	2.6	1.56e+00	0	47	104	0	60	1048575
2026-01-17 20:35:13.25	127.72	3.49	-85.2	-88.8	2.7	1.56e+00	0	47	104	0	60	1048575
2026-01-17 20:35:14.26	127.82	3.44	-85.2	-88.8	2.6	1.56e+00	0	47	104	0	60	1048575
2026-01-17 20:35:15.27	127.91	3.39	-85.2	-88.8	2.8	1.56e+00	0	47	104	0	60	1048575
2026-01-17 20:35:16.28	128.01	3.34	-85.2	-88.8	2.6	1.56e+00	0	47	104	0	60	1048575
2026-01-17 20:35:17.29	128.11	3.29	-85.2	-88.8	2.7	1.56e+00	0	47	104	0	60	1048573
2026-01-17 20:35:18.29	128.20	3.24	-84.7	-88.8	2.8	1.56e+00	0	47	104	0	60	1048573
2026-01-17 20:35:19.29	128.30	3.19	-85.2	-88.8	2.5	1.56e+00	0	47	104	0	60	1048574
2026-01-17 20:35:20.30	128.39	3.14	-85.2	-88.8	2.7	1.56e+00	0	47	104	0	60	1048569
2026-01-17 20:35:21.30	128.49	3.09	-85.2	-88.8	2.7	1.56e+00	0	47	104	0	60	1048572
2026-01-17 20:35:22.31	128.59	3.04	-85.2	-88.8	2.6	1.56e+00	0	47	104	0	60	1048574
2026-01-17 20:35:23.31	128.68	2.99	-85.2	-88.8	2.7	1.56e+00	0	47	104	0	60	1048573
2026-01-17 20:35:24.31	128.77	2.94	-85.2	-88.8	2.8	1.56e+00	0	47	104	0	60	1048574
2026-01-17 20:35:25.31	128.87	2.89	-85.2	-88.8	2.7	1.56e+00	0	47	104	0	60	1048575
2026-01-17 20:35:26.31	128.96	2.84	-85.2	-88.8	2.7	1.56e+00	0	47	104	0	60	1048573
2026-01-17 20:35:27.31	129.05	2.79	-84.3	-88.8	2.7	1.56e+00	0	47	104	0	60	1048574
