passes_logs/2026/01/17/R3.2S-Naryan-Mar/R3.2S-Naryan-Mar__20260117_070916_SUOMI_NPP_rec.log

#Pass ID: 20260117_070916_SUOMI NPP
#Satellite: SUOMI NPP
#Configuration: NPP
#almurnet v.1.7.20240730
#Start time: 2026-01-17 07:14:20

#Version: 2.2.20231116
#Station: R3.2S-Naryan-Mar
#Location: 53.008057 lon 67.646978 lat
#TLE: 1 37849U 11061A   26016.23176763  .00000061  00000+0  49926-4 0  9990
#TLE: 2 37849  98.7812 318.2698 0002434  61.5135 298.6286 14.19525545736883

#Time	Az	El	Level	Level2	SNR	BER	BlckErr	Temp	State	Recorded	gain1	gain2
2026-01-17 07:14:20.10	104.13	27.90	-83.5	-79.0	2.4	0.00e+00	0	48	0	0	60	1048570
2026-01-17 07:14:21.10	103.96	28.05	-85.2	-88.6	3.2	1.56e+00	0	48	104	0	60	1048574
2026-01-17 07:14:22.10	103.78	28.20	-85.2	-88.6	3.2	1.56e+00	0	48	104	0	60	1048573
2026-01-17 07:14:23.11	103.60	28.35	-85.2	-88.6	3.3	1.56e+00	0	48	104	0	60	1048570
2026-01-17 07:14:24.11	103.42	28.50	-85.2	-88.6	3.0	1.56e+00	0	48	104	0	60	1048573
2026-01-17 07:14:25.12	103.23	28.65	-85.2	-88.6	3.1	1.56e+00	0	48	104	0	60	1048575
2026-01-17 07:14:26.13	103.04	28.81	-85.2	-88.6	2.9	1.55e+00	0	48	104	0	60	1048574
2026-01-17 07:14:27.14	102.85	28.96	-85.2	-88.6	3.1	1.56e+00	0	48	104	0	60	1048573
2026-01-17 07:14:28.15	102.66	29.11	-85.2	-88.6	2.8	1.56e+00	0	48	104	0	60	1048573
2026-01-17 07:14:29.15	102.47	29.26	-83.9	-88.6	3.0	1.56e+00	0	48	104	0	60	1048575
2026-01-17 07:14:30.16	102.28	29.42	-85.2	-88.6	2.9	1.56e+00	0	48	104	0	60	1048575
2026-01-17 07:14:31.17	102.08	29.57	-85.2	-88.6	2.9	1.55e+00	0	48	104	0	60	1048574
2026-01-17 07:14:32.18	101.88	29.73	-85.2	-88.6	2.9	1.56e+00	0	48	104	0	60	1048574
2026-01-17 07:14:33.19	101.68	29.89	-85.2	-88.6	3.1	1.55e+00	0	48	104	0	60	1048574
2026-01-17 07:14:34.19	101.48	30.04	-85.2	-88.6	2.8	1.56e+00	0	48	104	0	60	1048574
2026-01-17 07:14:35.20	101.28	30.20	-85.2	-88.6	3.0	1.55e+00	0	48	104	0	60	1048574
2026-01-17 07:14:36.20	101.07	30.35	-85.2	-88.6	3.0	1.56e+00	0	48	104	0	60	1048575
2026-01-17 07:14:37.21	100.86	30.51	-85.2	-88.6	2.8	1.55e+00	0	48	104	0	60	1048575
2026-01-17 07:14:38.22	100.65	30.67	-85.2	-88.6	2.9	1.56e+00	0	48	104	0	60	1048575
2026-01-17 07:14:39.22	100.44	30.83	-85.2	-88.6	2.9	1.56e+00	0	48	104	0	60	1048573
2026-01-17 07:14:40.23	100.23	30.99	-85.2	-88.6	3.0	1.56e+00	0	48	104	0	60	1048575
2026-01-17 07:14:41.23	100.01	31.14	-85.2	-88.6	2.8	1.56e+00	0	48	104	0	60	1048574
2026-01-17 07:14:42.24	99.79	31.30	-85.2	-88.6	3.0	1.56e+00	0	48	104	0	60	1048573
2026-01-17 07:14:43.25	99.57	31.46	-85.2	-88.6	3.1	1.55e+00	0	48	104	0	60	1048573
2026-01-17 07:14:44.25	99.35	31.62	-85.2	-88.6	3.1	1.56e+00	0	48	104	0	60	1048573
2026-01-17 07:14:45.26	99.13	31.78	-85.2	-88.6	3.2	1.55e+00	0	48	104	0	60	1048575
2026-01-17 07:14:46.27	98.90	31.95	-85.2	-88.6	3.3	1.56e+00	0	48	104	0	60	1048574
2026-01-17 07:14:47.28	98.67	32.11	-85.2	-88.6	3.0	1.56e+00	0	48	104	0	60	1048574
2026-01-17 07:14:48.29	98.44	32.27	-85.2	-88.6	3.1	1.56e+00	0	48	104	0	60	1048575
2026-01-17 07:14:49.29	98.20	32.43	-85.2	-88.6	2.9	1.56e+00	0	48	104	0	60	1048575
2026-01-17 07:14:50.30	97.97	32.59	-85.2	-88.6	3.1	1.55e+00	0	48	104	0	60	1048572
2026-01-17 07:14:51.30	97.73	32.75	-85.2	-88.6	2.9	1.56e+00	0	48	104	0	60	1048574
2026-01-17 07:14:52.31	97.49	32.92	-85.2	-88.6	3.0	1.56e+00	0	48	104	0	60	1048575
2026-01-17 07:14:53.32	97.24	33.08	-85.2	-88.6	3.0	1.56e+00	0	48	104	0	60	1048575
2026-01-17 07:14:54.33	96.99	33.25	-85.2	-88.6	3.1	1.56e+00	0	48	104	0	60	1048573
2026-01-17 07:14:55.33	96.75	33.41	-85.2	-88.6	3.1	1.55e+00	0	48	104	0	60	1048575
2026-01-17 07:14:56.34	96.49	33.57	-85.2	-88.6	3.1	1.56e+00	0	48	104	0	60	1048574
2026-01-17 07:14:57.35	96.24	33.74	-85.2	-88.6	3.2	1.56e+00	0	48	104	0	60	1048574
2026-01-17 07:14:58.36	95.98	33.90	-85.2	-88.6	3.0	1.56e+00	0	48	104	0	60	1048574
2026-01-17 07:14:59.36	95.72	34.07	-85.2	-88.6	2.9	1.55e+00	0	48	104	0	60	1048574
2026-01-17 07:15:00.37	95.46	34.23	-85.2	-88.6	3.1	1.56e+00	0	48	104	0	60	1048575
2026-01-17 07:15:01.38	95.20	34.40	-85.2	-88.6	3.2	1.55e+00	0	48	104	0	60	1048575
2026-01-17 07:15:02.38	94.93	34.56	-85.2	-88.6	3.2	1.56e+00	0	48	104	0	60	1048571
2026-01-17 07:15:03.39	94.66	34.73	-85.2	-88.6	2.8	1.56e+00	0	48	104	0	60	1048573
2026-01-17 07:15:04.40	94.39	34.89	-85.2	-88.6	3.1	1.56e+00	0	48	104	0	60	1048574
2026-01-17 07:15:05.41	94.11	35.06	-85.2	-88.6	3.3	1.56e+00	0	48	104	0	60	1048574
2026-01-17 07:15:06.41	93.83	35.22	-85.2	-88.6	2.9	1.56e+00	0	47	104	0	60	1048574
2026-01-17 07:15:07.42	93.55	35.39	-85.2	-88.6	3.1	1.56e+00	0	47	104	0	60	1048575
2026-01-17 07:15:08.42	93.27	35.55	-85.2	-88.6	3.2	1.56e+00	0	47	104	0	60	1048569
2026-01-17 07:15:09.43	92.98	35.72	-85.2	-88.6	3.1	1.56e+00	0	47	104	0	60	1048575
2026-01-17 07:15:10.43	92.69	35.89	-85.2	-88.6	3.2	1.56e+00	0	47	104	0	60	1048575
2026-01-17 07:15:11.44	92.40	36.05	-85.2	-88.6	3.0	1.56e+00	0	47	104	0	60	1048575
2026-01-17 07:15:12.44	92.11	36.22	-85.2	-88.6	3.1	1.55e+00	0	47	104	0	60	1048570
2026-01-17 07:15:13.45	91.81	36.38	-84.7	-88.6	3.0	1.56e+00	0	48	104	0	60	1048575
2026-01-17 07:15:14.45	91.50	36.55	-85.2	-88.6	3.0	1.55e+00	0	47	104	0	60	1048575
2026-01-17 07:15:15.46	91.20	36.71	-85.2	-88.6	2.9	1.56e+00	0	48	104	0	60	1048572
2026-01-17 07:15:16.47	90.89	36.88	-85.2	-88.6	3.2	1.56e+00	0	48	104	0	60	1048574
2026-01-17 07:15:17.47	90.58	37.04	-85.2	-88.6	3.0	1.56e+00	0	48	104	0	60	1048575
2026-01-17 07:15:18.48	90.26	37.21	-85.2	-88.6	2.8	1.56e+00	0	48	104	0	60	1048575
2026-01-17 07:15:19.49	89.95	37.38	-85.2	-88.6	3.0	1.56e+00	0	47	104	0	60	1048575
2026-01-17 07:15:20.50	89.62	37.54	-85.2	-88.6	2.9	1.55e+00	0	48	104	0	60	1048575
2026-01-17 07:15:21.50	89.30	37.70	-85.2	-88.6	3.0	1.55e+00	0	48	104	0	60	1048574
2026-01-17 07:15:22.51	88.97	37.87	-85.2	-88.6	3.1	1.56e+00	0	48	104	0	60	1048573
2026-01-17 07:15:23.52	88.64	38.03	-85.2	-88.6	3.1	1.56e+00	0	48	104	0	60	1048573
2026-01-17 07:15:24.53	88.30	38.20	-85.2	-88.6	3.0	1.55e+00	0	48	104	0	60	1048575
2026-01-17 07:15:25.54	87.96	38.36	-85.2	-88.6	3.0	1.56e+00	0	48	104	0	60	1048575
2026-01-17 07:15:26.55	87.62	38.53	-85.2	-88.6	3.0	1.55e+00	0	48	104	0	60	1048572
2026-01-17 07:15:27.55	87.28	38.69	-85.2	-88.6	3.0	1.56e+00	0	47	104	0	60	1048574
2026-01-17 07:15:28.56	86.93	38.85	-85.2	-88.6	3.1	1.56e+00	0	48	104	0	60	1048575
2026-01-17 07:15:29.56	86.58	39.01	-85.2	-88.6	3.1	1.56e+00	0	48	104	0	60	1048575
2026-01-17 07:15:30.57	86.22	39.17	-85.2	-88.6	3.0	1.56e+00	0	48	104	0	60	1048571
2026-01-17 07:15:31.58	85.86	39.33	-85.2	-88.6	2.9	1.56e+00	0	47	104	0	60	1048571
2026-01-17 07:15:32.58	85.50	39.49	-85.2	-88.6	3.0	1.55e+00	0	47	104	0	60	1048575
2026-01-17 07:15:33.60	85.13	39.66	-85.2	-88.6	3.1	1.56e+00	0	48	104	0	60	1048575
2026-01-17 07:15:34.60	84.77	39.81	-85.2	-88.6	3.0	1.55e+00	0	48	104	0	60	1048574
2026-01-17 07:15:35.61	84.39	39.97	-85.2	-88.6	2.9	1.56e+00	0	47	104	0	60	1048575
2026-01-17 07:15:36.62	84.01	40.13	-85.2	-88.6	2.9	1.56e+00	0	47	104	0	60	1048573
2026-01-17 07:15:37.63	83.63	40.29	-85.2	-88.6	3.1	1.56e+00	0	48	104	0	60	1048575
2026-01-17 07:15:38.63	83.25	40.44	-85.2	-88.6	3.0	1.56e+00	0	47	104	0	60	1048575
2026-01-17 07:15:39.64	82.86	40.60	-85.2	-88.6	3.1	1.56e+00	0	47	104	0	60	1048575
2026-01-17 07:15:40.65	82.47	40.75	-85.2	-88.6	2.9	1.56e+00	0	47	104	0	60	1048575
2026-01-17 07:15:41.65	82.07	40.91	-85.2	-88.6	2.8	1.56e+00	0	47	104	0	60	1048575
2026-01-17 07:15:42.66	81.67	41.06	-85.2	-88.6	2.9	1.56e+00	0	47	104	0	60	1048575
2026-01-17 07:15:43.66	81.27	41.21	-85.2	-88.6	3.0	1.55e+00	0	47	104	0	60	1048574
2026-01-17 07:15:44.67	80.86	41.36	-85.2	-88.6	3.1	1.55e+00	0	48	104	0	60	1048575
2026-01-17 07:15:45.67	80.45	41.51	-85.2	-88.6	3.1	1.56e+00	0	48	104	0	60	1048573
2026-01-17 07:15:46.68	80.04	41.66	-85.2	-88.6	3.0	1.56e+00	0	47	104	0	60	1048575
2026-01-17 07:15:47.69	79.62	41.81	-85.2	-88.6	3.0	1.56e+00	0	47	104	0	60	1048574
2026-01-17 07:15:48.69	79.20	41.95	-85.2	-88.6	3.0	1.56e+00	0	48	104	0	60	1048575
2026-01-17 07:15:49.70	78.77	42.10	-85.2	-88.6	3.0	1.56e+00	0	47	104	0	60	1048575
2026-01-17 07:15:50.71	78.34	42.24	-85.2	-88.6	3.2	1.56e+00	0	47	104	0	60	1048575
2026-01-17 07:15:51.71	77.91	42.39	-85.2	-88.6	3.0	1.56e+00	0	47	104	0	60	1048574
2026-01-17 07:15:52.72	77.47	42.53	-85.2	-88.6	3.0	1.56e+00	0	47	104	0	60	1048574
2026-01-17 07:15:53.73	77.03	42.67	-84.7	-88.6	3.1	1.56e+00	0	47	104	0	60	1048575
2026-01-17 07:15:54.73	76.58	42.81	-85.2	-88.6	3.1	1.56e+00	0	47	104	0	60	1048574
2026-01-17 07:15:55.74	76.13	42.94	-85.2	-88.6	3.1	1.56e+00	0	47	104	0	60	1048575
2026-01-17 07:15:56.75	75.68	43.08	-85.2	-88.6	3.1	1.56e+00	0	47	104	0	60	1048571
2026-01-17 07:15:57.75	75.22	43.21	-85.2	-88.6	2.9	1.56e+00	0	47	104	0	60	1048575
2026-01-17 07:15:58.75	74.77	43.34	-84.7	-88.6	2.9	1.56e+00	0	47	104	0	60	1048571
2026-01-17 07:15:59.76	74.30	43.47	-85.2	-88.6	2.9	1.55e+00	0	47	104	0	60	1048570
2026-01-17 07:16:00.77	73.83	43.60	-85.2	-88.6	3.2	1.56e+00	0	47	104	0	60	1048572
2026-01-17 07:16:01.77	73.36	43.73	-85.2	-88.6	3.3	1.56e+00	0	47	104	0	60	1048574
2026-01-17 07:16:02.78	72.88	43.86	-85.2	-88.6	3.0	1.56e+00	0	47	104	0	60	1048574
2026-01-17 07:16:03.79	72.40	43.98	-84.7	-88.6	2.9	1.56e+00	0	47	104	0	60	1048575
2026-01-17 07:16:04.79	71.92	44.10	-85.2	-88.6	3.0	1.56e+00	0	47	104	0	60	1048575
2026-01-17 07:16:05.80	71.43	44.22	-85.2	-88.6	2.9	1.55e+00	0	47	104	0	60	1048575
2026-01-17 07:16:06.81	70.94	44.34	-85.2	-88.6	3.1	1.56e+00	0	47	104	0	60	1048575
2026-01-17 07:16:07.82	70.44	44.46	-85.2	-88.6	2.8	1.56e+00	0	47	104	0	60	1048575
2026-01-17 07:16:08.83	69.94	44.57	-85.2	-88.6	2.9	1.56e+00	0	47	104	0	60	1048575
2026-01-17 07:16:09.83	69.45	44.68	-85.2	-88.6	2.9	1.56e+00	0	47	104	0	60	1048573
2026-01-17 07:16:10.84	68.94	44.79	-85.2	-88.6	3.1	1.56e+00	0	47	104	0	60	1048575
2026-01-17 07:16:11.84	68.43	44.90	-85.2	-88.6	3.2	1.56e+00	0	47	104	0	60	1048575
2026-01-17 07:16:12.85	67.92	45.00	-85.2	-88.6	3.1	1.55e+00	0	47	104	0	60	1048575
2026-01-17 07:16:13.86	67.40	45.11	-85.2	-88.6	3.0	1.56e+00	0	47	104	0	60	1048575
2026-01-17 07:16:14.86	66.89	45.20	-85.2	-88.6	3.0	1.56e+00	0	47	104	0	60	1048573
2026-01-17 07:16:15.86	66.37	45.30	-85.2	-88.6	3.0	1.56e+00	0	47	104	0	60	1048571
2026-01-17 07:16:16.87	65.84	45.40	-85.2	-88.6	3.1	1.55e+00	0	47	104	0	60	1048575
2026-01-17 07:16:17.88	65.31	45.49	-85.2	-88.6	3.0	1.56e+00	0	47	104	0	60	1048574
2026-01-17 07:16:18.88	64.78	45.58	-84.7	-88.6	3.0	1.56e+00	0	47	104	0	60	1048573
2026-01-17 07:16:19.89	64.25	45.67	-85.2	-88.6	3.0	1.55e+00	0	47	104	0	60	1048574
2026-01-17 07:16:20.89	63.71	45.75	-85.2	-88.6	3.2	1.56e+00	0	47	104	0	60	1048575
2026-01-17 07:16:21.90	63.17	45.84	-85.2	-88.6	3.0	1.56e+00	0	47	104	0	60	1048574
2026-01-17 07:16:22.90	62.63	45.92	-85.2	-88.6	3.2	1.55e+00	0	47	104	0	60	1048575
2026-01-17 07:16:23.91	62.09	46.00	-85.2	-88.6	2.9	1.56e+00	0	47	104	0	60	1048575
2026-01-17 07:16:24.92	61.54	46.07	-85.2	-88.6	3.0	1.56e+00	0	47	104	0	60	1048575
2026-01-17 07:16:25.93	60.98	46.14	-85.2	-88.6	3.0	1.56e+00	0	47	104	0	60	1048574
2026-01-17 07:16:26.93	60.43	46.21	-85.2	-88.6	2.9	1.56e+00	0	47	104	0	60	1048575
2026-01-17 07:16:27.94	59.88	46.28	-85.2	-88.6	3.0	1.56e+00	0	47	104	0	60	1048575
2026-01-17 07:16:28.95	59.32	46.34	-85.2	-88.6	2.9	1.56e+00	0	47	104	0	60	1048575
2026-01-17 07:16:29.96	58.75	46.40	-85.2	-88.6	3.2	1.55e+00	0	47	104	0	60	1048574
2026-01-17 07:16:30.96	58.19	46.46	-85.2	-88.6	2.9	1.56e+00	0	47	104	0	60	1048569
2026-01-17 07:16:31.97	57.63	46.51	-85.2	-88.6	3.1	1.55e+00	0	47	104	0	60	1048573
2026-01-17 07:16:32.97	57.07	46.56	-85.2	-88.6	3.1	1.56e+00	0	47	104	0	60	1048575
2026-01-17 07:16:33.98	56.50	46.61	-85.2	-88.6	2.9	1.55e+00	0	47	104	0	60	1048575
2026-01-17 07:16:34.98	55.93	46.66	-85.2	-88.6	3.0	1.55e+00	0	47	104	0	60	1048575
2026-01-17 07:16:35.99	55.36	46.70	-85.2	-88.6	3.3	1.55e+00	0	47	104	0	60	1048574
2026-01-17 07:16:36.99	54.79	46.74	-85.2	-88.6	3.1	1.56e+00	0	47	104	0	60	1048574
2026-01-17 07:16:38.00	54.21	46.78	-85.2	-88.6	2.9	1.56e+00	0	47	104	0	60	1048575
2026-01-17 07:16:39.01	53.63	46.81	-85.2	-88.6	3.0	1.56e+00	0	47	104	0	60	1048573
2026-01-17 07:16:40.02	53.06	46.84	-85.2	-88.6	3.1	1.56e+00	0	47	104	0	60	1048573
2026-01-17 07:16:41.03	52.48	46.87	-85.2	-88.6	2.9	1.56e+00	0	47	104	0	60	1048575
2026-01-17 07:16:42.03	51.90	46.89	-85.2	-88.6	3.1	1.55e+00	0	47	104	0	60	1048574
2026-01-17 07:16:43.04	51.32	46.91	-85.2	-88.6	2.9	1.56e+00	0	47	104	0	60	1048574
2026-01-17 07:16:44.05	50.74	46.93	-85.2	-88.6	3.1	1.56e+00	0	47	104	0	60	1048574
2026-01-17 07:16:45.06	50.16	46.94	-85.2	-88.6	2.7	1.56e+00	0	47	104	0	60	1048575
2026-01-17 07:16:46.06	49.58	46.95	-85.2	-88.6	2.9	1.55e+00	0	47	104	0	60	1048571
2026-01-17 07:16:47.07	49.00	46.96	-85.2	-88.6	3.0	1.56e+00	0	47	104	0	60	1048575
2026-01-17 07:16:48.08	48.41	46.96	-85.2	-88.6	3.1	1.55e+00	0	47	104	0	60	1048573
2026-01-17 07:16:49.09	47.83	46.96	-85.2	-88.6	3.1	1.56e+00	0	47	104	0	60	1048573
2026-01-17 07:16:50.09	47.25	46.96	-85.2	-88.6	3.1	1.56e+00	0	47	104	0	60	1048575
2026-01-17 07:16:51.10	46.67	46.95	-85.2	-88.6	3.2	1.56e+00	0	47	104	0	60	1048573
2026-01-17 07:16:52.10	46.09	46.95	-85.2	-88.6	3.1	1.55e+00	0	47	104	0	60	1048574
2026-01-17 07:16:53.11	45.51	46.93	-85.2	-88.6	2.9	1.56e+00	0	47	104	0	60	1048575
2026-01-17 07:16:54.11	44.93	46.92	-85.2	-88.6	3.2	1.56e+00	0	47	104	0	60	1048575
2026-01-17 07:16:55.12	44.35	46.90	-85.2	-88.6	3.2	1.56e+00	0	47	104	0	60	1048574
2026-01-17 07:16:56.13	43.77	46.88	-85.2	-88.6	3.0	1.56e+00	0	47	104	0	60	1048574
2026-01-17 07:16:57.14	43.19	46.85	-85.2	-88.6	3.1	1.56e+00	0	47	104	0	60	1048575
2026-01-17 07:16:58.14	42.62	46.82	-85.2	-88.6	2.9	1.56e+00	0	47	104	0	60	1048575
2026-01-17 07:16:59.15	42.04	46.79	-85.2	-88.6	2.8	1.56e+00	0	47	104	0	60	1048575
2026-01-17 07:17:00.15	41.47	46.76	-85.2	-88.6	3.1	1.56e+00	0	47	104	0	60	1048574
2026-01-17 07:17:01.16	40.89	46.72	-85.2	-88.6	3.2	1.55e+00	0	47	104	0	60	1048575
2026-01-17 07:17:02.17	40.32	46.68	-85.2	-88.6	3.1	1.55e+00	0	47	104	0	60	1048573
2026-01-17 07:17:03.17	39.75	46.64	-85.2	-88.6	2.8	1.55e+00	0	47	104	0	60	1048572
2026-01-17 07:17:04.18	39.18	46.59	-85.2	-88.6	2.9	1.56e+00	0	47	104	0	60	1048573
2026-01-17 07:17:05.19	38.61	46.54	-85.2	-88.6	3.3	1.56e+00	0	47	104	0	60	1048575
2026-01-17 07:17:06.19	38.05	46.49	-85.2	-88.6	3.0	1.56e+00	0	47	104	0	60	1048574
2026-01-17 07:17:07.20	37.49	46.43	-85.2	-88.6	2.9	1.56e+00	0	47	104	0	60	1048575
2026-01-17 07:17:08.20	36.93	46.37	-85.2	-88.6	3.0	1.56e+00	0	47	104	0	60	1048575
2026-01-17 07:17:09.21	36.37	46.31	-85.2	-88.6	2.9	1.55e+00	0	47	104	0	60	1048575
2026-01-17 07:17:10.21	35.81	46.25	-85.2	-88.6	2.9	1.56e+00	0	47	104	0	60	1048575
2026-01-17 07:17:11.22	35.26	46.18	-85.2	-88.6	3.1	1.56e+00	0	47	104	0	60	1048575
2026-01-17 07:17:12.22	34.71	46.11	-85.2	-88.6	3.0	1.55e+00	0	47	104	0	60	1048575
2026-01-17 07:17:13.23	34.16	46.04	-85.2	-88.6	2.6	1.55e+00	0	47	104	0	60	1048575
2026-01-17 07:17:14.24	33.61	45.96	-85.2	-88.6	2.9	1.55e+00	0	47	104	0	60	1048573
2026-01-17 07:17:15.24	33.07	45.88	-85.2	-88.6	3.0	1.55e+00	0	47	104	0	60	1048575
2026-01-17 07:17:16.25	32.53	45.80	-85.2	-88.6	3.0	1.56e+00	0	47	104	0	60	1048574
2026-01-17 07:17:17.25	31.99	45.72	-85.2	-88.6	3.1	1.55e+00	0	47	104	0	60	1048575
2026-01-17 07:17:18.26	31.46	45.63	-85.2	-88.6	3.0	1.56e+00	0	47	104	0	60	1048573
2026-01-17 07:17:19.27	30.92	45.54	-85.2	-88.6	3.1	1.56e+00	0	47	104	0	60	1048575
2026-01-17 07:17:20.27	30.40	45.45	-85.2	-88.6	3.1	1.56e+00	0	47	104	0	60	1048574
2026-01-17 07:17:21.28	29.87	45.36	-85.2	-88.6	2.9	1.56e+00	0	47	104	0	60	1048572
2026-01-17 07:17:22.29	29.34	45.26	-85.2	-88.6	3.0	1.56e+00	0	47	104	0	60	1048575
2026-01-17 07:17:23.29	28.83	45.16	-85.2	-88.6	2.8	1.56e+00	0	47	104	0	60	1048573
2026-01-17 07:17:24.30	28.31	45.06	-85.2	-88.6	3.0	1.56e+00	0	47	104	0	60	1048575
2026-01-17 07:17:25.31	27.79	44.95	-85.2	-88.6	3.1	1.56e+00	0	47	104	0	60	1048575
2026-01-17 07:17:26.31	27.29	44.85	-85.2	-88.6	3.1	1.56e+00	0	47	104	0	60	1048574
2026-01-17 07:17:27.32	26.78	44.74	-85.2	-88.6	3.0	1.56e+00	0	47	104	0	60	1048571
2026-01-17 07:17:28.33	26.28	44.63	-85.2	-88.6	3.0	1.56e+00	0	47	104	0	60	1048572
2026-01-17 07:17:29.34	25.77	44.52	-85.2	-88.6	3.0	1.56e+00	0	47	104	0	60	1048573
2026-01-17 07:17:30.35	25.28	44.40	-85.2	-88.6	3.2	1.56e+00	0	47	104	0	60	1048574
2026-01-17 07:17:31.35	24.79	44.29	-85.2	-88.6	3.0	1.56e+00	0	47	104	0	60	1048574
2026-01-17 07:17:32.35	24.30	44.17	-85.2	-88.6	2.9	1.56e+00	0	47	104	0	60	1048572
2026-01-17 07:17:33.36	23.82	44.05	-85.2	-88.6	2.8	1.56e+00	0	47	104	0	60	1048575
2026-01-17 07:17:34.37	23.33	43.93	-85.2	-88.6	3.0	1.56e+00	0	47	104	0	60	1048575
2026-01-17 07:17:35.37	22.86	43.80	-85.2	-88.6	3.1	1.55e+00	0	47	104	0	60	1048574
2026-01-17 07:17:36.38	22.39	43.68	-85.2	-88.6	3.1	1.56e+00	0	47	104	0	60	1048575
2026-01-17 07:17:37.39	21.91	43.55	-85.2	-88.6	3.1	1.56e+00	0	47	104	0	60	1048575
2026-01-17 07:17:38.39	21.45	43.42	-85.2	-88.6	3.1	1.56e+00	0	47	104	0	60	1048575
2026-01-17 07:17:39.40	20.99	43.29	-85.2	-88.6	3.2	1.55e+00	0	47	104	0	60	1048574
2026-01-17 07:17:40.41	20.53	43.15	-85.2	-88.6	2.9	1.56e+00	0	47	104	0	60	1048575
2026-01-17 07:17:41.42	20.07	43.02	-85.2	-88.6	3.1	1.56e+00	0	47	104	0	60	1048575
2026-01-17 07:17:42.43	19.62	42.88	-85.2	-88.6	3.1	1.56e+00	0	47	104	0	60	1048574
2026-01-17 07:17:43.43	19.18	42.75	-85.2	-88.6	2.9	1.56e+00	0	47	104	0	60	1048575
2026-01-17 07:17:44.44	18.73	42.61	-85.2	-88.6	3.1	1.56e+00	0	47	104	0	60	1048575
2026-01-17 07:17:45.45	18.29	42.47	-85.2	-88.6	3.0	1.56e+00	0	47	104	0	60	1048574
2026-01-17 07:17:46.46	17.85	42.32	-85.2	-88.6	3.0	1.55e+00	0	47	104	0	60	1048574
2026-01-17 07:17:47.46	17.43	42.18	-85.2	-88.6	3.0	1.55e+00	0	47	104	0	60	1048575
2026-01-17 07:17:48.47	17.00	42.04	-85.2	-88.6	2.9	1.56e+00	0	47	104	0	60	1048575
2026-01-17 07:17:49.48	16.57	41.89	-85.2	-88.6	3.2	1.56e+00	0	47	104	0	60	1048575
2026-01-17 07:17:50.48	16.15	41.75	-85.2	-88.6	3.0	1.56e+00	0	47	104	0	60	1048575
2026-01-17 07:17:51.49	15.74	41.60	-85.2	-88.6	3.0	1.56e+00	0	47	104	0	60	1048575
2026-01-17 07:17:52.50	15.32	41.45	-85.2	-88.6	3.0	1.56e+00	0	47	104	0	60	1048570
2026-01-17 07:17:53.51	14.91	41.30	-85.2	-88.6	3.1	1.56e+00	0	47	104	0	60	1048573
2026-01-17 07:17:54.51	14.51	41.15	-85.2	-88.6	2.9	1.56e+00	0	47	104	0	60	1048574
2026-01-17 07:17:55.52	14.11	41.00	-85.2	-88.6	2.9	1.56e+00	0	47	104	0	60	1048573
2026-01-17 07:17:56.53	13.71	40.84	-85.2	-88.6	2.7	1.56e+00	0	47	104	0	60	1048572
2026-01-17 07:17:57.54	13.32	40.69	-85.2	-88.6	3.0	1.56e+00	0	47	104	0	60	1048574
2026-01-17 07:17:58.55	12.93	40.53	-85.2	-88.6	3.0	1.55e+00	0	47	104	0	60	1048573
2026-01-17 07:17:59.55	12.54	40.38	-85.2	-88.6	3.1	1.56e+00	0	47	104	0	60	1048574
2026-01-17 07:18:00.56	12.16	40.22	-85.2	-88.6	3.0	1.56e+00	0	47	104	0	60	1048575
2026-01-17 07:18:01.57	11.78	40.06	-85.2	-88.6	3.1	1.55e+00	0	47	104	0	60	1048574
2026-01-17 07:18:02.57	11.41	39.91	-85.2	-88.6	3.0	1.56e+00	0	47	104	0	60	1048575
2026-01-17 07:18:03.58	11.04	39.75	-85.2	-88.6	2.9	1.56e+00	0	47	104	0	60	1048574
2026-01-17 07:18:04.59	10.67	39.59	-85.2	-88.6	3.1	1.56e+00	0	47	104	0	60	1048574
2026-01-17 07:18:05.60	10.30	39.43	-85.2	-88.6	2.9	1.56e+00	0	47	104	0	60	1048574
2026-01-17 07:18:06.61	9.94	39.27	-85.2	-88.6	3.3	1.56e+00	0	47	104	0	60	1048574
2026-01-17 07:18:07.61	9.59	39.11	-85.2	-88.6	2.8	1.56e+00	0	47	104	0	60	1048575
2026-01-17 07:18:08.62	9.24	38.95	-85.2	-88.6	3.1	1.55e+00	0	47	104	0	60	1048574
2026-01-17 07:18:09.62	8.89	38.79	-85.2	-88.6	3.0	1.55e+00	0	47	104	0	60	1048575
2026-01-17 07:18:10.63	8.54	38.62	-85.2	-88.6	3.0	1.55e+00	0	47	104	0	60	1048575
2026-01-17 07:18:11.64	8.20	38.46	-85.2	-88.6	3.0	1.56e+00	0	47	104	0	60	1048574
2026-01-17 07:18:12.65	7.86	38.30	-85.2	-88.6	3.0	1.56e+00	0	47	104	0	60	1048574
2026-01-17 07:18:13.66	7.52	38.13	-85.2	-88.6	3.0	1.55e+00	0	47	104	0	60	1048575
2026-01-17 07:18:14.66	7.19	37.97	-85.2	-88.6	3.0	1.56e+00	0	47	104	0	60	1048567
2026-01-17 07:18:15.67	6.86	37.81	-85.2	-88.6	2.9	1.55e+00	0	47	104	0	60	1048571
2026-01-17 07:18:16.67	6.54	37.65	-85.2	-88.6	3.0	1.55e+00	0	47	104	0	60	1048573
2026-01-17 07:18:17.67	6.22	37.48	-85.2	-88.6	2.9	1.56e+00	0	47	104	0	60	1048575
2026-01-17 07:18:18.68	5.90	37.32	-85.2	-88.6	2.9	1.56e+00	0	47	104	0	60	1048575
2026-01-17 07:18:19.69	5.58	37.15	-85.2	-88.6	3.0	1.56e+00	0	47	104	0	60	1048575
2026-01-17 07:18:20.69	5.27	36.99	-85.2	-88.6	3.1	1.56e+00	0	47	104	0	60	1048574
2026-01-17 07:18:21.70	4.96	36.82	-85.2	-88.6	3.2	1.55e+00	0	47	104	0	60	1048574
2026-01-17 07:18:22.71	4.65	36.66	-85.2	-88.6	3.1	1.55e+00	0	47	104	0	60	1048575
2026-01-17 07:18:23.71	4.35	36.49	-85.2	-88.6	3.1	1.56e+00	0	47	104	0	60	1048575
2026-01-17 07:18:24.72	4.05	36.33	-85.2	-88.6	2.8	1.55e+00	0	47	104	0	60	1048574
2026-01-17 07:18:25.73	3.75	36.16	-85.2	-88.6	3.1	1.56e+00	0	47	104	0	60	1048575
2026-01-17 07:18:26.74	3.46	36.00	-85.2	-88.6	3.1	1.56e+00	0	47	104	0	60	1048575
2026-01-17 07:18:27.74	3.17	35.83	-85.2	-88.6	3.1	1.56e+00	0	47	104	0	60	1048575
2026-01-17 07:18:28.75	2.88	35.67	-85.2	-88.6	3.1	1.56e+00	0	47	104	0	60	1048574
2026-01-17 07:18:29.75	2.60	35.50	-85.2	-88.6	3.1	1.56e+00	0	47	104	0	60	1048575
2026-01-17 07:18:30.76	2.32	35.34	-85.2	-88.6	3.0	1.56e+00	0	47	104	0	60	1048575
2026-01-17 07:18:31.77	2.04	35.17	-85.2	-88.6	3.0	1.56e+00	0	47	104	0	60	1048574
2026-01-17 07:18:32.77	1.76	35.01	-85.2	-88.6	3.1	1.56e+00	0	47	104	0	60	1048575
2026-01-17 07:18:33.78	1.49	34.84	-85.2	-88.6	3.0	1.56e+00	0	47	104	0	60	1048569
2026-01-17 07:18:34.79	1.21	34.67	-85.2	-88.6	3.1	1.56e+00	0	47	104	0	60	1048574
2026-01-17 07:18:35.80	0.95	34.51	-85.2	-88.6	3.1	1.56e+00	0	47	104	0	60	1048575
2026-01-17 07:18:36.80	0.68	34.35	-85.2	-88.6	3.2	1.56e+00	0	47	104	0	60	1048575
2026-01-17 07:18:37.81	0.42	34.18	-85.2	-88.6	3.1	1.55e+00	0	47	104	0	60	1048574
2026-01-17 07:18:38.82	0.16	34.02	-85.2	-88.6	3.0	1.56e+00	0	47	104	0	60	1048575
2026-01-17 07:18:39.83	359.90	33.85	-85.2	-88.6	3.1	1.55e+00	0	47	104	0	60	1048575
2026-01-17 07:18:40.84	359.64	33.69	-85.2	-88.6	3.2	1.56e+00	0	47	104	0	60	1048572
2026-01-17 07:18:41.84	359.39	33.53	-85.2	-88.6	3.0	1.56e+00	0	47	104	0	60	1048574
2026-01-17 07:18:42.85	359.14	33.36	-85.2	-88.6	2.8	1.56e+00	0	47	104	0	60	1048574
2026-01-17 07:18:43.86	358.90	33.20	-85.2	-88.6	2.8	1.56e+00	0	47	104	0	60	1048569
2026-01-17 07:18:44.87	358.65	33.03	-85.2	-88.6	3.1	1.55e+00	0	47	104	0	60	1048574
2026-01-17 07:18:45.88	358.41	32.87	-85.2	-88.6	3.1	1.56e+00	0	47	104	0	60	1048575
2026-01-17 07:18:46.88	358.17	32.71	-85.2	-88.6	2.9	1.55e+00	0	47	104	0	60	1048573
2026-01-17 07:18:47.89	357.93	32.55	-85.2	-88.6	3.0	1.55e+00	0	47	104	0	60	1048571
2026-01-17 07:18:48.90	357.70	32.39	-85.2	-88.6	3.0	1.56e+00	0	47	104	0	60	1048572
2026-01-17 07:18:49.90	357.47	32.23	-85.2	-88.6	2.9	1.56e+00	0	47	104	0	60	1048575
2026-01-17 07:18:50.91	357.24	32.06	-85.2	-88.6	2.9	1.56e+00	0	47	104	0	60	1048575
2026-01-17 07:18:51.91	357.01	31.90	-85.2	-88.6	2.9	1.56e+00	0	47	104	0	60	1048575
2026-01-17 07:18:52.91	356.79	31.75	-85.2	-88.6	2.9	1.56e+00	0	47	104	0	60	1048575
2026-01-17 07:18:53.92	356.56	31.59	-85.2	-88.6	3.1	1.56e+00	0	47	104	0	60	1048575
2026-01-17 07:18:54.93	356.34	31.43	-85.2	-88.6	3.0	1.56e+00	0	47	104	0	60	1048574
2026-01-17 07:18:55.94	356.12	31.27	-85.2	-88.6	3.0	1.56e+00	0	47	104	0	60	1048572
2026-01-17 07:18:56.95	355.90	31.11	-85.2	-88.6	3.3	1.56e+00	0	47	104	0	60	1048575
2026-01-17 07:18:57.95	355.69	30.95	-85.2	-88.6	3.1	1.56e+00	0	47	104	0	60	1048575
2026-01-17 07:18:58.96	355.48	30.79	-85.2	-88.6	3.0	1.56e+00	0	47	104	0	60	1048573
2026-01-17 07:18:59.97	355.27	30.63	-85.2	-88.6	3.2	1.56e+00	0	47	104	0	60	1048572
2026-01-17 07:19:00.98	355.06	30.48	-85.2	-88.6	3.0	1.55e+00	0	47	104	0	60	1048574
2026-01-17 07:19:01.99	354.85	30.32	-85.2	-88.6	2.9	1.56e+00	0	47	104	0	60	1048575
2026-01-17 07:19:02.99	354.65	30.16	-85.2	-88.6	2.9	1.56e+00	0	47	104	0	60	1048575
2026-01-17 07:19:04.00	354.44	30.01	-85.2	-88.6	3.1	1.56e+00	0	47	104	0	60	1048575
2026-01-17 07:19:05.01	354.24	29.85	-85.2	-88.6	2.8	1.56e+00	0	47	104	0	60	1048575
2026-01-17 07:19:06.01	354.05	29.70	-85.2	-88.6	3.1	1.56e+00	0	47	104	0	60	1048575
2026-01-17 07:19:07.02	353.85	29.54	-85.2	-88.6	3.0	1.55e+00	0	47	104	0	60	1048573
2026-01-17 07:19:08.02	353.66	29.39	-85.2	-88.6	3.0	1.56e+00	0	47	104	0	60	1048575
2026-01-17 07:19:09.03	353.46	29.24	-85.2	-88.6	3.1	1.56e+00	0	47	104	0	60	1048574
2026-01-17 07:19:10.04	353.27	29.08	-85.2	-88.6	2.9	1.56e+00	0	47	104	0	60	1048575
2026-01-17 07:19:11.04	353.08	28.93	-85.2	-88.6	3.1	1.56e+00	0	47	104	0	60	1048574
2026-01-17 07:19:12.05	352.90	28.78	-85.2	-88.6	3.0	1.55e+00	0	47	104	0	60	1048574
2026-01-17 07:19:13.05	352.71	28.63	-85.2	-88.6	3.1	1.55e+00	0	47	104	0	60	1048575
2026-01-17 07:19:14.06	352.53	28.48	-85.2	-88.6	2.9	1.56e+00	0	47	104	0	60	1048575
2026-01-17 07:19:15.07	352.35	28.33	-85.2	-88.6	3.0	1.56e+00	0	47	104	0	60	1048575
2026-01-17 07:19:16.07	352.17	28.18	-85.2	-88.6	3.2	1.56e+00	0	47	104	0	60	1048575
2026-01-17 07:19:17.08	351.99	28.03	-85.2	-88.6	3.2	1.56e+00	0	47	104	0	60	1048574
2026-01-17 07:19:18.08	351.81	27.88	-85.2	-88.6	3.1	1.55e+00	0	47	104	0	60	1048575
2026-01-17 07:19:19.09	351.64	27.73	-85.2	-88.6	3.0	1.56e+00	0	47	104	0	60	1048573
2026-01-17 07:19:20.10	351.46	27.58	-85.2	-88.6	2.9	1.56e+00	0	47	104	0	60	1048574
2026-01-17 07:19:21.11	351.29	27.43	-85.2	-88.6	2.9	1.56e+00	0	47	104	0	60	1048570
2026-01-17 07:19:22.11	351.12	27.29	-85.2	-88.6	3.2	1.56e+00	0	47	104	0	60	1048574
2026-01-17 07:19:23.12	350.95	27.14	-85.2	-88.6	3.1	1.55e+00	0	47	104	0	60	1048575
2026-01-17 07:19:24.13	350.79	26.99	-85.2	-88.6	3.0	1.56e+00	0	47	104	0	60	1048575
2026-01-17 07:19:25.14	350.62	26.85	-85.2	-88.6	3.1	1.55e+00	0	47	104	0	60	1048575
2026-01-17 07:19:26.15	350.46	26.70	-85.2	-88.6	2.8	1.56e+00	0	47	104	0	60	1048574
2026-01-17 07:19:27.15	350.29	26.56	-85.2	-88.6	3.0	1.56e+00	0	47	104	0	60	1048575
2026-01-17 07:19:28.16	350.13	26.41	-85.2	-88.6	3.0	1.55e+00	0	47	104	0	60	1048575
2026-01-17 07:19:29.17	349.97	26.27	-85.2	-88.6	3.0	1.56e+00	0	47	104	0	60	1048575
2026-01-17 07:19:30.17	349.82	26.13	-85.2	-88.6	3.0	1.55e+00	0	47	104	0	60	1048574
2026-01-17 07:19:31.18	349.66	25.98	-85.2	-88.6	2.9	1.55e+00	0	47	104	0	60	1048573
2026-01-17 07:19:32.19	349.50	25.84	-85.2	-88.6	2.9	1.56e+00	0	47	104	0	60	1048575
2026-01-17 07:19:33.19	349.35	25.70	-83.1	-88.6	3.0	1.56e+00	0	47	104	0	60	1048574
2026-01-17 07:19:34.20	349.20	25.56	-85.2	-88.6	3.1	1.56e+00	0	47	104	0	60	1048575
2026-01-17 07:19:35.20	349.05	25.42	-85.2	-88.6	2.9	1.56e+00	0	47	104	0	60	1048571
2026-01-17 07:19:36.21	348.90	25.28	-85.2	-88.6	3.0	1.56e+00	0	47	104	0	60	1048571
2026-01-17 07:19:37.22	348.75	25.14	-85.2	-88.6	3.1	1.55e+00	0	47	104	0	60	1048575
2026-01-17 07:19:38.21	348.61	25.00	-85.2	-88.6	3.1	1.56e+00	0	47	104	0	60	1048575
2026-01-17 07:19:39.22	348.46	24.87	-83.9	-88.6	3.1	1.55e+00	0	47	104	0	60	1048574
2026-01-17 07:19:40.22	348.32	24.73	-85.2	-88.6	2.9	1.56e+00	0	47	104	0	60	1048575
2026-01-17 07:19:41.23	348.17	24.59	-85.2	-88.6	3.0	1.56e+00	0	47	104	0	60	1048575
2026-01-17 07:19:42.24	348.03	24.45	-85.2	-88.6	3.0	1.56e+00	0	47	104	0	60	1048573
2026-01-17 07:19:43.25	347.89	24.32	-85.2	-88.6	3.0	1.56e+00	0	47	104	0	60	1048573
2026-01-17 07:19:44.25	347.75	24.18	-85.2	-88.6	2.8	1.56e+00	0	47	104	0	60	1048575
2026-01-17 07:19:45.26	347.62	24.05	-85.2	-88.6	3.1	1.55e+00	0	47	104	0	60	1048574
2026-01-17 07:19:46.27	347.48	23.91	-85.2	-88.6	2.9	1.56e+00	0	47	104	0	60	1048575
2026-01-17 07:19:47.28	347.34	23.78	-85.2	-88.6	3.0	1.56e+00	0	47	104	0	60	1048575
2026-01-17 07:19:48.28	347.21	23.64	-85.2	-88.6	2.9	1.56e+00	0	47	104	0	60	1048575
2026-01-17 07:19:49.29	347.08	23.51	-82.8	-88.6	3.0	1.56e+00	0	47	104	0	60	1048575
2026-01-17 07:19:50.29	346.94	23.38	-85.2	-88.6	3.1	1.55e+00	0	47	104	0	60	1048575
2026-01-17 07:19:51.30	346.81	23.25	-85.2	-88.6	3.0	1.56e+00	0	47	104	0	60	1048575
2026-01-17 07:19:52.30	346.68	23.12	-85.2	-88.6	2.9	1.56e+00	0	47	104	0	60	1048575
2026-01-17 07:19:53.31	346.55	22.98	-85.2	-88.6	2.9	1.56e+00	0	47	104	0	60	1048575
2026-01-17 07:19:54.31	346.43	22.85	-84.7	-88.6	3.3	1.56e+00	0	47	104	0	60	1048575
2026-01-17 07:19:55.32	346.30	22.72	-85.2	-88.6	3.1	1.56e+00	0	47	104	0	60	1048574
2026-01-17 07:19:56.33	346.18	22.59	-85.2	-88.6	3.1	1.56e+00	0	47	104	0	60	1048572
2026-01-17 07:19:57.34	346.05	22.46	-85.2	-88.6	3.2	1.56e+00	0	47	104	0	60	1048573
2026-01-17 07:19:58.34	345.93	22.34	-85.2	-88.6	3.0	1.56e+00	0	47	104	0	60	1048575
2026-01-17 07:19:59.35	345.81	22.21	-84.7	-88.6	3.1	1.56e+00	0	47	104	0	60	1048574
2026-01-17 07:20:00.36	345.68	22.08	-85.2	-88.6	3.1	1.56e+00	0	47	104	0	60	1048575
2026-01-17 07:20:01.37	345.56	21.95	-85.2	-88.6	3.2	1.56e+00	0	47	104	0	60	1048573
2026-01-17 07:20:02.37	345.45	21.83	-85.2	-88.6	2.9	1.56e+00	0	47	104	0	60	1048575
2026-01-17 07:20:03.38	345.33	21.70	-85.2	-88.6	2.9	1.56e+00	0	47	104	0	60	1048574
2026-01-17 07:20:04.39	345.21	21.57	-85.2	-88.6	2.9	1.55e+00	0	47	104	0	60	1048574
2026-01-17 07:20:05.40	345.09	21.45	-85.2	-88.6	3.1	1.55e+00	0	47	104	0	60	1048575
2026-01-17 07:20:06.41	344.98	21.32	-85.2	-88.6	3.1	1.55e+00	0	47	104	0	60	1048569
2026-01-17 07:20:07.41	344.86	21.20	-85.2	-88.6	2.9	1.56e+00	0	47	104	0	60	1048574
2026-01-17 07:20:08.42	344.75	21.08	-85.2	-88.6	3.0	1.55e+00	0	47	104	0	60	1048575
2026-01-17 07:20:09.43	344.64	20.95	-85.2	-88.6	3.2	1.56e+00	0	47	104	0	60	1048575
2026-01-17 07:20:10.43	344.53	20.83	-85.2	-88.6	2.9	1.56e+00	0	47	104	0	60	1048573
2026-01-17 07:20:11.43	344.42	20.71	-85.2	-88.6	3.0	1.56e+00	0	47	104	0	60	1048572
2026-01-17 07:20:12.44	344.31	20.59	-85.2	-88.6	3.3	1.56e+00	0	47	104	0	60	1048573
2026-01-17 07:20:13.45	344.20	20.47	-85.2	-88.6	3.2	1.55e+00	0	47	104	0	60	1048575
2026-01-17 07:20:14.45	344.09	20.35	-85.2	-88.6	3.1	1.56e+00	0	47	104	0	60	1048575
2026-01-17 07:20:15.46	343.98	20.23	-85.2	-88.6	3.2	1.56e+00	0	47	104	0	60	1048572
2026-01-17 07:20:16.47	343.88	20.10	-85.2	-88.6	3.1	1.55e+00	0	47	104	0	60	1048575
2026-01-17 07:20:17.47	343.77	19.99	-85.2	-88.6	3.0	1.55e+00	0	47	104	0	60	1048572
2026-01-17 07:20:18.47	343.67	19.87	-85.2	-88.6	3.2	1.56e+00	0	47	104	0	60	1048575
2026-01-17 07:20:19.48	343.57	19.75	-85.2	-88.6	3.0	1.56e+00	0	47	104	0	60	1048574
2026-01-17 07:20:20.49	343.46	19.63	-85.2	-88.6	3.0	1.56e+00	0	47	104	0	60	1048574
2026-01-17 07:20:21.50	343.36	19.51	-85.2	-88.6	3.1	1.56e+00	0	47	104	0	60	1048575
2026-01-17 07:20:22.51	343.26	19.40	-85.2	-88.6	2.9	1.56e+00	0	47	104	0	60	1048575
2026-01-17 07:20:23.51	343.16	19.28	-85.2	-88.6	3.1	1.56e+00	0	47	104	0	60	1048575
2026-01-17 07:20:24.52	343.06	19.16	-85.2	-88.6	3.2	1.56e+00	0	47	104	0	60	1048572
2026-01-17 07:20:25.52	342.96	19.05	-85.2	-88.6	3.2	1.56e+00	0	47	104	0	60	1048573
2026-01-17 07:20:26.53	342.86	18.93	-85.2	-88.6	3.1	1.56e+00	0	47	104	0	60	1048575
2026-01-17 07:20:27.54	342.76	18.82	-85.2	-88.6	3.3	1.56e+00	0	47	104	0	60	1048575
2026-01-17 07:20:28.54	342.67	18.70	-85.2	-88.6	3.2	1.55e+00	0	47	104	0	60	1048573
2026-01-17 07:20:29.54	342.57	18.59	-85.2	-88.6	3.1	1.56e+00	0	47	104	0	60	1048575
2026-01-17 07:20:30.55	342.48	18.48	-85.2	-88.6	3.0	1.55e+00	0	47	104	0	60	1048575
2026-01-17 07:20:31.56	342.38	18.36	-85.2	-88.6	3.2	1.55e+00	0	47	104	0	60	1048573
2026-01-17 07:20:32.56	342.29	18.25	-85.2	-88.6	3.0	1.55e+00	0	47	104	0	60	1048575
2026-01-17 07:20:33.57	342.20	18.14	-85.2	-88.6	3.0	1.56e+00	0	47	104	0	60	1048573
2026-01-17 07:20:34.58	342.11	18.03	-84.7	-88.6	3.0	1.55e+00	0	47	104	0	60	1048575
2026-01-17 07:20:35.58	342.01	17.92	-85.2	-88.6	3.2	1.55e+00	0	47	104	0	60	1048570
2026-01-17 07:20:36.59	341.92	17.81	-85.2	-88.6	3.2	1.55e+00	0	47	104	0	60	1048574
2026-01-17 07:20:37.60	341.83	17.69	-85.2	-88.6	2.9	1.56e+00	0	47	104	0	60	1048574
2026-01-17 07:20:38.60	341.74	17.59	-85.2	-88.6	3.0	1.56e+00	0	47	104	0	60	1048574
2026-01-17 07:20:39.61	341.66	17.48	-84.7	-88.6	3.0	1.55e+00	0	47	104	0	60	1048575
2026-01-17 07:20:40.62	341.57	17.37	-85.2	-88.6	3.1	1.56e+00	0	47	104	0	60	1048572
2026-01-17 07:20:41.62	341.48	17.26	-85.2	-88.6	3.1	1.56e+00	0	47	104	0	60	1048572
2026-01-17 07:20:42.63	341.39	17.15	-85.2	-88.6	3.0	1.56e+00	0	47	104	0	60	1048572
2026-01-17 07:20:43.63	341.31	17.04	-85.2	-88.6	3.1	1.56e+00	0	47	104	0	60	1048574
2026-01-17 07:20:44.64	341.22	16.93	-84.7	-88.6	2.9	1.56e+00	0	47	104	0	60	1048574
2026-01-17 07:20:45.65	341.14	16.83	-85.2	-88.6	2.9	1.56e+00	0	47	104	0	60	1048574
2026-01-17 07:20:46.65	341.05	16.72	-85.2	-88.6	3.0	1.56e+00	0	47	104	0	60	1048575
2026-01-17 07:20:47.65	340.97	16.61	-85.2	-88.6	2.9	1.56e+00	0	47	104	0	60	1048574
2026-01-17 07:20:48.66	340.89	16.51	-85.2	-88.6	2.8	1.56e+00	0	47	104	0	60	1048575
2026-01-17 07:20:49.67	340.81	16.40	-84.7	-88.6	2.9	1.56e+00	0	47	104	0	60	1048574
2026-01-17 07:20:50.68	340.72	16.30	-85.2	-88.6	3.1	1.55e+00	0	47	104	0	60	1048575
2026-01-17 07:20:51.68	340.64	16.19	-85.2	-88.6	3.1	1.56e+00	0	47	104	0	60	1048575
2026-01-17 07:20:52.69	340.56	16.09	-85.2	-88.6	3.0	1.56e+00	0	47	104	0	60	1048575
2026-01-17 07:20:53.70	340.48	15.98	-85.2	-88.6	3.1	1.55e+00	0	47	104	0	60	1048574
2026-01-17 07:20:54.71	340.40	15.88	-85.2	-88.6	3.2	1.56e+00	0	47	104	0	60	1048575
2026-01-17 07:20:55.72	340.32	15.78	-85.2	-88.6	2.9	1.56e+00	0	47	104	0	60	1048573
2026-01-17 07:20:56.72	340.25	15.67	-85.2	-88.6	3.0	1.56e+00	0	47	104	0	60	1048574
2026-01-17 07:20:57.73	340.17	15.57	-85.2	-88.6	2.9	1.55e+00	0	47	104	0	60	1048575
2026-01-17 07:20:58.74	340.09	15.47	-85.2	-88.6	2.9	1.56e+00	0	47	104	0	60	1048573
2026-01-17 07:20:59.74	340.01	15.37	-85.2	-88.6	3.1	1.56e+00	0	47	104	0	60	1048574
2026-01-17 07:21:00.74	339.94	15.27	-85.2	-88.6	3.2	1.56e+00	0	47	104	0	60	1048571
2026-01-17 07:21:01.75	339.86	15.16	-85.2	-88.6	3.2	1.56e+00	0	47	104	0	60	1048573
2026-01-17 07:21:02.75	339.79	15.06	-85.2	-88.6	2.9	1.55e+00	0	47	104	0	60	1048572
2026-01-17 07:21:03.76	339.71	14.96	-85.2	-88.6	3.0	1.56e+00	0	47	104	0	60	1048575
2026-01-17 07:21:04.77	339.64	14.86	-85.2	-88.6	3.0	1.56e+00	0	47	104	0	60	1048574
2026-01-17 07:21:05.78	339.57	14.76	-85.2	-88.6	3.1	1.56e+00	0	47	104	0	60	1048574
2026-01-17 07:21:06.79	339.49	14.66	-85.2	-88.6	3.0	1.56e+00	0	47	104	0	60	1048575
2026-01-17 07:21:07.79	339.42	14.57	-85.2	-88.6	3.0	1.56e+00	0	47	104	0	60	1048573
2026-01-17 07:21:08.80	339.35	14.47	-85.2	-88.6	3.1	1.56e+00	0	47	104	0	60	1048575
2026-01-17 07:21:09.80	339.28	14.37	-85.2	-88.6	3.0	1.56e+00	0	47	104	0	60	1048574
2026-01-17 07:21:10.81	339.21	14.27	-85.2	-88.6	2.9	1.56e+00	0	47	104	0	60	1048575
2026-01-17 07:21:11.82	339.14	14.17	-85.2	-88.6	3.1	1.55e+00	0	47	104	0	60	1048572
2026-01-17 07:21:12.82	339.07	14.08	-85.2	-88.6	2.9	1.56e+00	0	47	104	0	60	1048575
2026-01-17 07:21:13.83	339.00	13.98	-85.2	-88.6	3.1	1.55e+00	0	47	104	0	60	1048575
2026-01-17 07:21:14.84	338.93	13.88	-85.2	-88.6	3.1	1.56e+00	0	47	104	0	60	1048574
2026-01-17 07:21:15.85	338.86	13.79	-85.2	-88.6	2.9	1.56e+00	0	47	104	0	60	1048575
2026-01-17 07:21:16.86	338.79	13.69	-85.2	-88.6	2.7	1.55e+00	0	47	104	0	60	1048575
2026-01-17 07:21:17.86	338.72	13.60	-85.2	-88.6	3.2	1.56e+00	0	47	104	0	60	1048575
2026-01-17 07:21:18.86	338.66	13.50	-85.2	-88.6	3.0	1.56e+00	0	47	104	0	60	1048575
2026-01-17 07:21:19.87	338.59	13.41	-85.2	-88.6	3.0	1.55e+00	0	47	104	0	60	1048575
2026-01-17 07:21:20.88	338.52	13.31	-85.2	-88.6	3.0	1.56e+00	0	47	104	0	60	1048575
2026-01-17 07:21:21.89	338.46	13.22	-85.2	-88.6	2.8	1.56e+00	0	47	104	0	60	1048573
2026-01-17 07:21:22.90	338.39	13.12	-85.2	-88.6	3.0	1.55e+00	0	47	104	0	60	1048575
2026-01-17 07:21:23.90	338.33	13.03	-85.2	-88.6	3.0	1.56e+00	0	47	104	0	60	1048575
2026-01-17 07:21:24.91	338.26	12.94	-85.2	-88.6	2.9	1.56e+00	0	47	104	0	60	1048575
2026-01-17 07:21:25.92	338.20	12.84	-85.2	-88.6	3.1	1.55e+00	0	47	104	0	60	1048574
2026-01-17 07:21:26.93	338.14	12.75	-85.2	-88.6	3.2	1.56e+00	0	47	104	0	60	1048575
2026-01-17 07:21:27.94	338.07	12.66	-85.2	-88.6	2.8	1.56e+00	0	47	104	0	60	1048575
2026-01-17 07:21:28.95	338.01	12.57	-85.2	-88.6	2.9	1.55e+00	0	47	104	0	60	1048574
2026-01-17 07:21:29.95	337.95	12.48	-85.2	-88.6	2.8	1.56e+00	0	47	104	0	60	1048573
2026-01-17 07:21:30.96	337.89	12.38	-85.2	-88.6	3.1	1.56e+00	0	47	104	0	60	1048575
2026-01-17 07:21:31.97	337.82	12.29	-85.2	-88.6	3.1	1.56e+00	0	47	104	0	60	1048575
2026-01-17 07:21:32.97	337.76	12.20	-84.3	-88.6	3.1	1.56e+00	0	47	104	0	60	1048575
2026-01-17 07:21:33.98	337.70	12.11	-85.2	-88.6	2.9	1.55e+00	0	47	104	0	60	1048575
2026-01-17 07:21:34.98	337.64	12.02	-85.2	-88.6	3.2	1.56e+00	0	47	104	0	60	1048575
2026-01-17 07:21:35.99	337.58	11.93	-85.2	-88.6	2.6	1.56e+00	0	47	104	0	60	1048574
2026-01-17 07:21:37.00	337.52	11.84	-85.2	-88.6	3.0	1.55e+00	0	47	104	0	60	1048575
2026-01-17 07:21:38.01	337.46	11.75	-85.2	-88.6	3.0	1.55e+00	0	47	104	0	60	1048574
2026-01-17 07:21:39.02	337.41	11.66	-85.2	-88.6	3.0	1.56e+00	0	47	104	0	60	1048574
2026-01-17 07:21:40.03	337.35	11.58	-85.2	-88.6	3.0	1.56e+00	0	47	104	0	60	1048575
2026-01-17 07:21:41.04	337.29	11.49	-85.2	-88.6	2.8	1.56e+00	0	47	104	0	60	1048575
2026-01-17 07:21:42.04	337.23	11.40	-85.2	-88.6	3.1	1.56e+00	0	47	104	0	60	1048575
2026-01-17 07:21:43.05	337.17	11.31	-85.2	-88.6	3.0	1.56e+00	0	47	104	0	60	1048569
2026-01-17 07:21:44.06	337.12	11.22	-85.2	-88.6	3.2	1.55e+00	0	47	104	0	60	1048574
2026-01-17 07:21:45.07	337.06	11.14	-85.2	-88.6	3.0	1.56e+00	0	47	104	0	60	1048572
2026-01-17 07:21:46.08	337.00	11.05	-85.2	-88.6	3.1	1.55e+00	0	47	104	0	60	1048573
2026-01-17 07:21:47.08	336.95	10.96	-85.2	-88.6	3.0	1.55e+00	0	47	104	0	60	1048575
2026-01-17 07:21:48.09	336.89	10.88	-85.2	-88.6	3.2	1.56e+00	0	47	104	0	60	1048575
2026-01-17 07:21:49.09	336.84	10.79	-85.2	-88.6	3.0	1.56e+00	0	47	104	0	60	1048574
2026-01-17 07:21:50.10	336.78	10.70	-85.2	-88.6	3.2	1.55e+00	0	47	104	0	60	1048575
2026-01-17 07:21:51.10	336.73	10.62	-85.2	-88.6	3.1	1.55e+00	0	47	104	0	60	1048575
2026-01-17 07:21:52.10	336.68	10.53	-85.2	-88.6	2.9	1.56e+00	0	47	104	0	60	1048566
2026-01-17 07:21:53.10	336.62	10.45	-85.2	-88.6	3.0	1.56e+00	0	47	104	0	60	1048574
2026-01-17 07:21:54.10	336.57	10.37	-85.2	-88.6	3.2	1.56e+00	0	47	104	0	60	1048572
2026-01-17 07:21:55.11	336.52	10.28	-85.2	-88.6	3.0	1.56e+00	0	47	104	0	60	1048573
2026-01-17 07:21:56.11	336.46	10.20	-85.2	-88.6	2.9	1.55e+00	0	47	104	0	60	1048574
2026-01-17 07:21:57.12	336.41	10.11	-85.2	-88.6	2.9	1.56e+00	0	47	104	0	60	1048575
2026-01-17 07:21:58.12	336.36	10.03	-85.2	-88.6	3.0	1.56e+00	0	47	104	0	60	1048575
2026-01-17 07:21:59.13	336.31	9.95	-85.2	-88.6	3.0	1.56e+00	0	47	104	0	60	1048574
2026-01-17 07:22:00.14	336.26	9.86	-85.2	-88.6	3.1	1.56e+00	0	47	104	0	60	1048574
2026-01-17 07:22:01.14	336.20	9.78	-85.2	-88.6	3.0	1.56e+00	0	47	104	0	60	1048575
2026-01-17 07:22:02.15	336.15	9.70	-85.2	-88.6	3.0	1.55e+00	0	47	104	0	60	1048574
2026-01-17 07:22:03.16	336.10	9.62	-85.2	-88.6	3.2	1.56e+00	0	47	104	0	60	1048575
2026-01-17 07:22:04.16	336.05	9.53	-85.2	-88.6	3.0	1.55e+00	0	47	104	0	60	1048574
2026-01-17 07:22:05.17	336.00	9.45	-85.2	-88.6	2.9	1.56e+00	0	47	104	0	60	1048574
2026-01-17 07:22:06.17	335.95	9.37	-85.2	-88.6	3.0	1.56e+00	0	47	104	0	60	1048574
2026-01-17 07:22:07.18	335.90	9.29	-85.2	-88.6	3.0	1.56e+00	0	47	104	0	60	1048575
2026-01-17 07:22:08.19	335.85	9.21	-85.2	-88.6	2.9	1.56e+00	0	47	104	0	60	1048575
2026-01-17 07:22:09.19	335.81	9.13	-85.2	-88.6	3.1	1.55e+00	0	47	104	0	60	1048575
2026-01-17 07:22:10.20	335.76	9.05	-85.2	-88.6	3.1	1.56e+00	0	47	104	0	60	1048575
2026-01-17 07:22:11.21	335.71	8.97	-85.2	-88.6	3.1	1.56e+00	0	47	104	0	60	1048573
2026-01-17 07:22:12.22	335.66	8.88	-85.2	-88.6	3.0	1.56e+00	0	47	104	0	60	1048575
2026-01-17 07:22:13.23	335.61	8.80	-85.2	-88.6	3.1	1.56e+00	0	47	104	0	60	1048575
2026-01-17 07:22:14.23	335.57	8.73	-85.2	-88.6	3.2	1.56e+00	0	47	104	0	60	1048575
2026-01-17 07:22:15.24	335.52	8.65	-85.2	-88.6	3.0	1.56e+00	0	47	104	0	60	1048575
2026-01-17 07:22:16.24	335.47	8.57	-85.2	-88.6	3.0	1.56e+00	0	47	104	0	60	1048574
2026-01-17 07:22:17.25	335.43	8.49	-85.2	-88.6	2.9	1.56e+00	0	47	104	0	60	1048575
2026-01-17 07:22:18.26	335.38	8.41	-85.2	-88.6	3.0	1.56e+00	0	47	104	0	60	1048574
2026-01-17 07:22:19.27	335.33	8.33	-85.2	-88.6	3.1	1.56e+00	0	47	104	0	60	1048575
2026-01-17 07:22:20.27	335.29	8.25	-85.2	-88.6	2.9	1.55e+00	0	47	104	0	60	1048575
2026-01-17 07:22:21.28	335.24	8.17	-85.2	-88.6	3.0	1.56e+00	0	47	104	0	60	1048573
2026-01-17 07:22:22.28	335.20	8.10	-85.2	-88.6	3.1	1.56e+00	0	47	104	0	60	1048575
2026-01-17 07:22:23.29	335.15	8.02	-85.2	-88.6	3.0	1.56e+00	0	47	104	0	60	1048575
2026-01-17 07:22:24.30	335.11	7.94	-85.2	-88.6	3.1	1.56e+00	0	47	104	0	60	1048573
2026-01-17 07:22:25.31	335.06	7.86	-85.2	-88.6	2.9	1.56e+00	0	47	104	0	60	1048575
2026-01-17 07:22:26.31	335.02	7.79	-85.2	-88.6	3.0	1.56e+00	0	47	104	0	60	1048575
2026-01-17 07:22:27.32	334.98	7.71	-85.2	-88.6	2.9	1.56e+00	0	47	104	0	60	1048575
2026-01-17 07:22:28.33	334.93	7.63	-85.2	-88.6	2.9	1.55e+00	0	47	104	0	60	1048573
2026-01-17 07:22:29.34	334.89	7.56	-85.2	-88.6	3.0	1.55e+00	0	47	104	0	60	1048575
2026-01-17 07:22:30.35	334.85	7.48	-85.2	-88.6	3.1	1.56e+00	0	47	104	0	60	1048575
2026-01-17 07:22:31.35	334.80	7.40	-85.2	-88.6	2.9	1.56e+00	0	47	104	0	60	1048574
2026-01-17 07:22:32.36	334.76	7.33	-85.2	-88.6	3.0	1.56e+00	0	47	104	0	60	1048575
2026-01-17 07:22:33.36	334.72	7.25	-85.2	-88.6	3.0	1.56e+00	0	47	104	0	60	1048574
2026-01-17 07:22:34.37	334.68	7.18	-85.2	-88.6	3.0	1.56e+00	0	47	104	0	60	1048575
2026-01-17 07:22:35.38	334.63	7.10	-85.2	-88.6	2.9	1.56e+00	0	47	104	0	60	1048574
2026-01-17 07:22:36.39	334.59	7.03	-85.2	-88.6	2.9	1.56e+00	0	47	104	0	60	1048574
2026-01-17 07:22:37.39	334.55	6.95	-85.2	-88.6	2.9	1.56e+00	0	47	104	0	60	1048575
2026-01-17 07:22:38.40	334.51	6.88	-85.2	-88.6	3.0	1.55e+00	0	47	104	0	60	1048575
2026-01-17 07:22:39.40	334.47	6.80	-85.2	-88.6	3.1	1.56e+00	0	47	104	0	60	1048571
2026-01-17 07:22:40.41	334.43	6.73	-85.2	-88.6	3.0	1.56e+00	0	47	104	0	60	1048575
2026-01-17 07:22:41.42	334.39	6.65	-85.2	-88.6	2.8	1.56e+00	0	47	104	0	60	1048575
2026-01-17 07:22:42.42	334.35	6.58	-85.2	-88.6	2.7	1.56e+00	0	47	104	0	60	1048575
2026-01-17 07:22:43.43	334.31	6.51	-85.2	-88.6	3.2	1.56e+00	0	47	104	0	60	1048574
2026-01-17 07:22:44.43	334.27	6.43	-85.2	-88.6	3.0	1.56e+00	0	47	104	0	60	1048575
2026-01-17 07:22:45.44	334.23	6.36	-85.2	-88.6	3.0	1.55e+00	0	47	104	0	60	1048574
2026-01-17 07:22:46.45	334.19	6.29	-85.2	-88.6	3.2	1.56e+00	0	47	104	0	60	1048573
2026-01-17 07:22:47.45	334.15	6.22	-85.2	-88.6	3.1	1.56e+00	0	47	104	0	60	1048575
2026-01-17 07:22:48.46	334.11	6.14	-85.2	-88.6	2.8	1.55e+00	0	47	104	0	60	1048575
2026-01-17 07:22:49.47	334.07	6.07	-85.2	-88.6	3.1	1.55e+00	0	47	104	0	60	1048573
2026-01-17 07:22:50.48	334.03	6.00	-85.2	-88.6	2.9	1.55e+00	0	47	104	0	60	1048574
2026-01-17 07:22:51.49	334.00	5.93	-85.2	-88.6	3.0	1.56e+00	0	47	104	0	60	1048572
2026-01-17 07:22:52.49	333.96	5.85	-85.2	-88.6	3.2	1.56e+00	0	47	104	0	60	1048575
2026-01-17 07:22:53.49	333.92	5.78	-85.2	-88.6	3.0	1.56e+00	0	47	104	0	60	1048575
2026-01-17 07:22:54.50	333.88	5.71	-84.3	-88.6	3.0	1.56e+00	0	47	104	0	60	1048575
2026-01-17 07:22:55.50	333.85	5.64	-85.2	-88.6	3.0	1.55e+00	0	47	104	0	60	1048573
2026-01-17 07:22:56.50	333.81	5.57	-85.2	-88.6	3.0	1.56e+00	0	47	104	0	60	1048574
2026-01-17 07:22:57.51	333.77	5.50	-85.2	-88.6	3.0	1.56e+00	0	47	104	0	60	1048573
2026-01-17 07:22:58.51	333.73	5.43	-85.2	-88.6	2.9	1.56e+00	0	47	104	0	60	1048574
2026-01-17 07:22:59.52	333.70	5.36	-85.2	-88.6	3.0	1.56e+00	0	47	104	0	60	1048573
2026-01-17 07:23:00.52	333.66	5.29	-85.2	-88.6	2.7	1.56e+00	0	47	104	0	60	1048575
2026-01-17 07:23:01.53	333.62	5.22	-85.2	-88.6	3.1	1.56e+00	0	47	104	0	60	1048574
2026-01-17 07:23:02.54	333.59	5.15	-85.2	-88.6	3.0	1.55e+00	0	47	104	0	60	1048575
2026-01-17 07:23:03.55	333.55	5.08	-85.2	-88.6	2.9	1.56e+00	0	47	104	0	60	1048571
2026-01-17 07:23:04.55	333.52	5.01	-85.2	-88.6	2.9	1.56e+00	0	47	104	0	60	1048575
2026-01-17 07:23:05.56	333.48	4.94	-85.2	-88.6	3.0	1.56e+00	0	47	104	0	60	1048575
2026-01-17 07:23:06.57	333.45	4.87	-85.2	-88.6	2.9	1.55e+00	0	47	104	0	60	1048574
2026-01-17 07:23:07.58	333.41	4.80	-85.2	-88.6	3.0	1.56e+00	0	47	104	0	60	1048575
2026-01-17 07:23:08.59	333.38	4.73	-85.2	-88.6	3.3	1.56e+00	0	47	104	0	60	1048575
2026-01-17 07:23:09.59	333.34	4.66	-85.2	-88.6	3.0	1.56e+00	0	47	104	0	60	1048575
2026-01-17 07:23:10.59	333.31	4.59	-85.2	-88.6	3.2	1.56e+00	0	47	104	0	60	1048573
2026-01-17 07:23:11.60	333.27	4.52	-85.2	-88.6	3.0	1.56e+00	0	47	104	0	60	1048575
2026-01-17 07:23:12.61	333.24	4.45	-85.2	-88.6	3.0	1.56e+00	0	47	104	0	60	1048575
2026-01-17 07:23:13.62	333.20	4.39	-85.2	-88.6	2.9	1.55e+00	0	47	104	0	60	1048575
2026-01-17 07:23:14.62	333.17	4.32	-85.2	-88.6	3.1	1.56e+00	0	47	104	0	60	1048575
2026-01-17 07:23:15.63	333.14	4.25	-85.2	-88.6	3.1	1.56e+00	0	47	104	0	60	1048574
2026-01-17 07:23:16.63	333.10	4.18	-85.2	-88.6	3.1	1.56e+00	0	47	104	0	60	1048573
2026-01-17 07:23:17.63	333.07	4.12	-85.2	-88.6	3.1	1.55e+00	0	47	104	0	60	1048575
2026-01-17 07:23:18.64	333.04	4.05	-85.2	-88.6	3.2	1.56e+00	0	47	104	0	60	1048575
2026-01-17 07:23:19.64	333.00	3.98	-85.2	-88.6	3.1	1.56e+00	0	47	104	0	60	1048574
2026-01-17 07:23:20.65	332.97	3.91	-85.2	-88.6	3.1	1.56e+00	0	47	104	0	60	1048575
2026-01-17 07:23:21.65	332.94	3.85	-85.2	-88.6	3.0	1.56e+00	0	47	104	0	60	1048574
2026-01-17 07:23:22.65	332.91	3.78	-85.2	-88.6	3.0	1.55e+00	0	47	104	0	60	1048575
2026-01-17 07:23:23.66	332.87	3.71	-85.2	-88.6	3.0	1.56e+00	0	47	104	0	60	1048575
2026-01-17 07:23:24.67	332.84	3.65	-85.2	-88.6	2.9	1.56e+00	0	47	104	0	60	1048574
2026-01-17 07:23:25.67	332.81	3.58	-85.2	-88.6	2.9	1.56e+00	0	47	104	0	60	1048575
2026-01-17 07:23:26.68	332.78	3.52	-85.2	-88.6	3.0	1.56e+00	0	47	104	0	60	1048574
2026-01-17 07:23:27.68	332.75	3.45	-85.2	-88.6	3.1	1.56e+00	0	47	104	0	60	1048574
2026-01-17 07:23:28.68	332.72	3.38	-85.2	-88.6	3.0	1.56e+00	0	47	104	0	60	1048568
2026-01-17 07:23:29.68	332.68	3.32	-85.2	-88.6	2.9	1.56e+00	0	47	104	0	60	1048575
2026-01-17 07:23:30.68	332.65	3.25	-85.2	-88.6	2.9	1.56e+00	0	47	104	0	60	1048575
2026-01-17 07:23:31.69	332.62	3.19	-85.2	-88.6	3.2	1.55e+00	0	47	104	0	60	1048575
2026-01-17 07:23:32.69	332.59	3.12	-85.2	-88.6	3.2	1.56e+00	0	47	104	0	60	1048575
2026-01-17 07:23:33.69	332.56	3.06	-85.2	-88.6	3.0	1.55e+00	0	47	104	0	60	1048575
2026-01-17 07:23:34.70	332.53	2.99	-85.2	-88.6	3.1	1.55e+00	0	47	104	0	60	1048575
2026-01-17 07:23:35.70	332.50	2.93	-85.2	-88.6	3.2	1.56e+00	0	47	104	0	60	1048575
2026-01-17 07:23:36.71	332.47	2.86	-85.2	-88.6	3.0	1.56e+00	0	47	104	0	60	1048574
2026-01-17 07:23:37.71	332.44	2.80	-85.2	-88.6	3.0	1.55e+00	0	47	104	0	60	1048575
2026-01-17 07:23:38.71	332.41	2.74	-85.2	-88.6	2.8	1.56e+00	0	47	104	0	60	1048575
2026-01-17 07:23:39.72	332.38	2.67	-85.2	-88.6	3.0	1.56e+00	0	47	104	0	60	1048575
2026-01-17 07:23:40.73	332.35	2.61	-85.2	-88.6	3.0	1.55e+00	0	47	104	0	60	1048574
2026-01-17 07:23:41.73	332.32	2.54	-85.2	-88.6	2.9	1.56e+00	0	47	104	0	60	1048575
2026-01-17 07:23:42.74	332.29	2.48	-85.2	-88.6	3.1	1.56e+00	0	47	104	0	60	1048573
2026-01-17 07:23:43.75	332.26	2.41	-85.2	-88.6	2.9	1.56e+00	0	47	104	0	60	1048575
2026-01-17 07:23:44.75	332.23	2.35	-85.2	-88.6	3.1	1.56e+00	0	47	104	0	60	1048575
2026-01-17 07:23:45.75	332.20	2.29	-85.2	-88.6	2.9	1.55e+00	0	47	104	0	60	1048575
2026-01-17 07:23:46.76	332.18	2.22	-85.2	-88.6	3.0	1.55e+00	0	47	104	0	60	1048575
2026-01-17 07:23:47.77	332.15	2.16	-85.2	-88.6	3.0	1.56e+00	0	47	104	0	60	1048575
2026-01-17 07:23:48.77	332.12	2.10	-85.2	-88.6	3.0	1.56e+00	0	47	104	0	60	1048575
2026-01-17 07:23:49.78	332.09	2.04	-85.2	-88.6	3.1	1.55e+00	0	47	104	0	60	1048574
2026-01-17 07:23:50.79	332.06	1.97	-85.2	-88.6	3.0	1.56e+00	0	47	104	0	60	1048575
2026-01-17 07:23:51.79	332.03	1.91	-85.2	-88.6	3.0	1.56e+00	0	47	104	0	60	1048575
2026-01-17 07:23:52.80	332.01	1.85	-85.2	-88.6	2.9	1.56e+00	0	47	104	0	60	1048574
2026-01-17 07:23:53.80	331.98	1.79	-85.2	-88.6	3.0	1.56e+00	0	47	104	0	60	1048575
2026-01-17 07:23:54.81	331.95	1.72	-85.2	-88.6	3.0	1.56e+00	0	47	104	0	60	1048574
2026-01-17 07:23:55.82	331.92	1.66	-85.2	-88.6	2.9	1.56e+00	0	47	104	0	60	1048574
2026-01-17 07:23:56.82	331.90	1.60	-85.2	-88.6	2.8	1.56e+00	0	47	104	0	60	1048573
2026-01-17 07:23:57.83	331.87	1.54	-85.2	-88.6	3.0	1.56e+00	0	47	104	0	60	1048575
2026-01-17 07:23:58.83	331.84	1.47	-85.2	-88.6	3.2	1.56e+00	0	47	104	0	60	1048574
2026-01-17 07:23:59.84	331.81	1.41	-84.3	-88.6	3.0	1.56e+00	0	47	104	0	60	1048575
2026-01-17 07:24:00.85	331.79	1.35	-85.2	-88.6	3.1	1.55e+00	0	47	104	0	60	1048575
2026-01-17 07:24:01.85	331.76	1.29	-85.2	-88.6	2.9	1.56e+00	0	47	104	0	60	1048574
2026-01-17 07:24:02.86	331.73	1.23	-85.2	-88.6	3.1	1.56e+00	0	47	104	0	60	1048575
2026-01-17 07:24:03.87	331.71	1.17	-85.2	-88.6	3.0	1.55e+00	0	47	104	0	60	1048575
2026-01-17 07:24:04.87	331.68	1.11	-85.2	-88.6	3.0	1.56e+00	0	47	104	0	60	1048575
2026-01-17 07:24:05.88	331.65	1.05	-85.2	-88.6	3.1	1.56e+00	0	47	104	0	60	1048573
2026-01-17 07:24:06.88	331.63	0.98	-85.2	-88.6	2.9	1.56e+00	0	47	104	0	60	1048574
2026-01-17 07:24:07.89	331.60	0.92	-82.8	-88.6	3.0	1.56e+00	0	47	104	0	60	1048575
2026-01-17 07:24:08.89	331.58	0.86	-82.8	-88.6	3.1	1.56e+00	0	47	104	0	60	1048575
2026-01-17 07:24:09.90	331.55	0.80	-85.2	-88.6	3.2	1.56e+00	0	47	104	0	60	1048574
2026-01-17 07:24:10.91	331.52	0.74	-85.2	-88.6	2.9	1.56e+00	0	47	104	0	60	1048575
2026-01-17 07:24:11.91	331.50	0.68	-85.2	-88.6	3.0	1.56e+00	0	47	104	0	60	1048575
2026-01-17 07:24:12.92	331.47	0.62	-85.2	-88.6	3.1	1.56e+00	0	47	104	0	60	1048575
2026-01-17 07:24:13.93	331.45	0.56	-85.2	-88.6	3.1	1.56e+00	0	47	104	0	60	1048575
2026-01-17 07:24:14.93	331.42	0.50	-85.2	-88.6	3.0	1.56e+00	0	47	104	0	60	1048574
2026-01-17 07:24:15.94	331.40	0.44	-85.2	-88.6	3.1	1.56e+00	0	47	104	0	60	1048575
2026-01-17 07:24:16.94	331.37	0.38	-85.2	-88.6	2.8	1.56e+00	0	47	104	0	60	1048575
2026-01-17 07:24:17.95	331.35	0.32	-85.2	-88.6	3.2	1.56e+00	0	47	104	0	60	1048575
2026-01-17 07:24:18.95	331.32	0.26	-85.2	-88.6	3.1	1.56e+00	0	47	104	0	60	1048574
2026-01-17 07:24:19.96	331.30	0.20	-85.2	-88.6	3.3	1.56e+00	0	47	104	0	60	1048575
2026-01-17 07:24:20.96	331.28	0.15	-85.2	-88.6	3.1	1.56e+00	0	47	104	0	60	1048575
2026-01-17 07:24:21.97	331.25	0.09	-85.2	-88.6	2.9	1.55e+00	0	47	104	0	60	1048573
2026-01-17 07:24:22.98	331.23	0.03	-85.2	-88.6	3.1	1.56e+00	0	47	104	0	60	1048575
2026-01-17 07:24:23.98	331.20	-0.03	-85.2	-88.6	2.8	1.55e+00	0	47	104	0	60	1048572
2026-01-17 07:24:24.99	331.18	-0.09	-85.2	-88.6	3.0	1.56e+00	0	47	104	0	60	1048571

#Closed at: 2026-01-17 07:24:25
#Recorded file [0 MB]: D:/Data/35015_260117_101420.dat