passes_logs/2026/01/17/R3.2S-Naryan-Mar/R3.2S-Naryan-Mar__20260117_125203_TY-41_rec.log

#Pass ID: 20260117_125203_TY-41
#Satellite: TY-41
#Configuration: TY-39
#almurnet v.1.7.20240730
#Start time: 2026-01-17 12:52:07

#Version: 2.2.20231116
#Station: R3.2S-Naryan-Mar
#Location: 53.008057 lon 67.646978 lat
#TLE: 1 61231U 24173E   26017.08983796  .00008010  00000-0  38191-3 0 09990
#TLE: 2 61231 097.4122 092.0846 0001831 091.8622 061.7654 15.19167953 72814

#Time	Az	El	Level	Level2	SNR	BER	BlckErr	Temp	State	Recorded	gain1	gain2
2026-01-17 12:52:07.33	49.47	0.17	-85.2	-88.8	3.1	1.56e+00	0	44	0	0	60	1048572
2026-01-17 12:52:08.33	49.35	0.22	-83.1	-79.0	2.2	0.00e+00	0	46	104	0	60	1048575
2026-01-17 12:52:09.33	49.24	0.27	-83.1	-79.0	2.6	0.00e+00	0	46	104	0	60	1048575
2026-01-17 12:52:10.34	49.13	0.31	-83.5	-79.0	2.5	0.00e+00	0	46	104	0	60	1048568
2026-01-17 12:52:11.35	49.01	0.36	-83.5	-79.0	2.3	0.00e+00	0	46	104	0	60	1048575
2026-01-17 12:52:12.36	48.89	0.41	-83.5	-79.0	2.3	0.00e+00	0	46	104	0	60	1048573
2026-01-17 12:52:13.37	48.78	0.46	-82.8	-79.0	2.5	0.00e+00	0	46	104	0	60	1048575
2026-01-17 12:52:14.37	48.66	0.51	-83.1	-79.0	2.3	0.00e+00	0	46	104	0	60	1048573
2026-01-17 12:52:15.38	48.54	0.55	-83.5	-79.0	2.5	0.00e+00	0	46	104	0	60	1048574
2026-01-17 12:52:16.39	48.42	0.60	-83.5	-79.0	2.3	0.00e+00	0	46	104	0	60	1048574
2026-01-17 12:52:17.40	48.31	0.65	-83.5	-79.0	2.4	0.00e+00	0	46	104	0	60	1048569
2026-01-17 12:52:18.40	48.19	0.70	-83.1	-79.0	2.2	0.00e+00	0	46	104	0	60	1048575
2026-01-17 12:52:19.41	48.07	0.75	-83.5	-79.0	2.3	0.00e+00	0	46	104	0	60	1048575
2026-01-17 12:52:20.42	47.95	0.80	-83.5	-79.0	2.4	0.00e+00	0	46	104	0	60	1048573
2026-01-17 12:52:21.43	47.83	0.84	-83.5	-79.0	2.2	0.00e+00	0	46	104	0	60	1048575
2026-01-17 12:52:22.43	47.71	0.89	-83.5	-79.0	2.4	0.00e+00	0	46	104	0	60	1048571
2026-01-17 12:52:23.43	47.59	0.94	-83.1	-79.0	2.5	0.00e+00	0	46	104	0	60	1048571
2026-01-17 12:52:24.44	47.46	0.99	-83.5	-79.0	2.6	0.00e+00	0	46	104	0	60	1048574
2026-01-17 12:52:25.45	47.34	1.04	-83.5	-79.0	2.3	0.00e+00	0	46	104	0	60	1048570
2026-01-17 12:52:26.46	47.22	1.08	-83.5	-79.0	2.5	0.00e+00	0	46	104	0	60	1048574
2026-01-17 12:52:27.47	47.09	1.13	-82.8	-79.0	2.5	0.00e+00	0	46	104	0	60	1048575
2026-01-17 12:52:28.47	46.97	1.18	-83.1	-79.0	2.4	0.00e+00	0	46	104	0	60	1048574
2026-01-17 12:52:29.47	46.85	1.23	-83.5	-79.0	2.5	0.00e+00	0	46	104	0	60	1048575
2026-01-17 12:52:30.48	46.72	1.28	-83.5	-79.0	2.4	0.00e+00	0	46	104	0	60	1048573
2026-01-17 12:52:31.49	46.59	1.32	-83.5	-79.0	2.3	0.00e+00	0	46	104	0	60	1048573
2026-01-17 12:52:32.49	46.47	1.37	-83.1	-79.0	2.3	0.00e+00	0	46	104	0	60	1048574
2026-01-17 12:52:33.50	46.34	1.42	-83.1	-79.0	2.3	0.00e+00	0	46	104	0	60	1048574
2026-01-17 12:52:34.50	46.22	1.47	-83.5	-79.0	2.2	0.00e+00	0	46	104	0	60	1048574
2026-01-17 12:52:35.51	46.09	1.52	-83.5	-79.0	2.4	0.00e+00	0	46	104	0	60	1048566
2026-01-17 12:52:36.52	45.96	1.57	-83.5	-79.0	2.4	0.00e+00	0	47	104	0	60	1048574
2026-01-17 12:52:37.53	45.83	1.61	-83.1	-79.0	2.4	0.00e+00	0	47	104	0	60	1048574
2026-01-17 12:52:38.53	45.70	1.66	-83.5	-79.0	2.4	0.00e+00	0	47	104	0	60	1048569
2026-01-17 12:52:39.54	45.57	1.71	-83.5	-79.0	2.3	0.00e+00	0	47	104	0	60	1048572
2026-01-17 12:52:40.55	45.44	1.76	-83.5	-79.0	2.4	0.00e+00	0	47	104	0	60	1048574
2026-01-17 12:52:41.56	45.31	1.81	-83.5	-79.0	2.6	0.00e+00	0	47	104	0	60	1048572
2026-01-17 12:52:42.56	45.18	1.85	-83.5	-79.0	2.7	0.00e+00	0	47	104	0	60	1048574
2026-01-17 12:52:43.57	45.04	1.90	-83.5	-79.0	2.4	0.00e+00	0	47	104	0	60	1048575
2026-01-17 12:52:44.58	44.91	1.95	-83.5	-79.0	2.4	0.00e+00	0	47	104	0	60	1048571
2026-01-17 12:52:45.59	44.78	2.00	-83.5	-79.0	2.3	0.00e+00	0	47	104	0	60	1048575
2026-01-17 12:52:46.60	44.64	2.05	-83.1	-79.0	2.5	0.00e+00	0	47	104	0	60	1048572
2026-01-17 12:52:47.61	44.51	2.09	-83.1	-79.0	2.3	0.00e+00	0	47	104	0	60	1048574
2026-01-17 12:52:48.61	44.37	2.14	-83.5	-79.0	2.5	0.00e+00	0	47	104	0	60	1048573
2026-01-17 12:52:49.62	44.24	2.19	-83.5	-79.0	2.5	0.00e+00	0	47	104	0	60	1048575
2026-01-17 12:52:50.63	44.10	2.24	-83.5	-79.0	2.3	0.00e+00	0	47	104	0	60	1048573
2026-01-17 12:52:51.64	43.96	2.29	-83.1	-79.0	2.5	0.00e+00	0	47	104	0	60	1048573
2026-01-17 12:52:52.64	43.83	2.33	-83.1	-79.0	2.1	0.00e+00	0	47	104	0	60	1048575
2026-01-17 12:52:53.64	43.69	2.38	-83.5	-79.0	2.3	0.00e+00	0	47	104	0	60	1048572
2026-01-17 12:52:54.65	43.55	2.43	-83.5	-79.0	2.4	0.00e+00	0	47	104	0	60	1048575
2026-01-17 12:52:55.65	43.41	2.48	-83.5	-79.0	2.4	0.00e+00	0	47	104	0	60	1048574
2026-01-17 12:52:56.65	43.27	2.52	-82.8	-79.0	2.6	0.00e+00	0	47	104	0	60	1048575
2026-01-17 12:52:57.66	43.13	2.57	-83.5	-79.0	2.3	0.00e+00	0	47	104	0	60	1048574
2026-01-17 12:52:58.65	43.00	2.62	-83.5	-79.0	2.5	0.00e+00	0	47	104	0	60	1048568
2026-01-17 12:52:59.66	42.85	2.67	-83.5	-79.0	2.4	0.00e+00	0	47	104	0	60	1048574
2026-01-17 12:53:00.66	42.71	2.72	-83.1	-79.0	2.2	0.00e+00	0	47	104	0	60	1048575
2026-01-17 12:53:01.67	42.57	2.76	-83.1	-79.0	2.3	0.00e+00	0	47	104	0	60	1048573
2026-01-17 12:53:02.67	42.43	2.81	-83.5	-79.0	2.3	0.00e+00	0	47	104	0	60	1048574
2026-01-17 12:53:03.67	42.28	2.86	-83.5	-79.0	2.3	0.00e+00	0	47	104	0	60	1048574
2026-01-17 12:53:04.68	42.14	2.91	-83.5	-79.0	2.4	0.00e+00	0	47	104	0	60	1048568
2026-01-17 12:53:05.69	41.99	2.95	-83.1	-79.0	2.3	0.00e+00	0	47	104	0	60	1048575
2026-01-17 12:53:06.70	41.85	3.00	-83.1	-79.0	2.4	0.00e+00	0	47	104	0	60	1048571
2026-01-17 12:53:07.71	41.70	3.05	-83.5	-79.0	2.3	0.00e+00	0	47	104	0	60	1048571
2026-01-17 12:53:08.71	41.55	3.10	-83.5	-79.0	2.3	0.00e+00	0	47	104	0	60	1048575
2026-01-17 12:53:09.72	41.41	3.14	-83.5	-79.0	2.5	0.00e+00	0	47	104	0	60	1048575
2026-01-17 12:53:10.72	41.26	3.19	-83.1	-79.0	2.3	0.00e+00	0	47	104	0	60	1048575
2026-01-17 12:53:11.73	41.11	3.24	-83.5	-79.0	2.5	0.00e+00	0	47	104	0	60	1048575
2026-01-17 12:53:12.73	40.96	3.28	-83.5	-79.0	2.5	0.00e+00	0	47	104	0	60	1048571
2026-01-17 12:53:13.74	40.81	3.33	-83.5	-79.0	2.2	0.00e+00	0	47	104	0	60	1048575
2026-01-17 12:53:14.75	40.66	3.38	-83.5	-79.0	2.4	0.00e+00	0	47	104	0	60	1048568
2026-01-17 12:53:15.75	40.51	3.43	-83.1	-79.0	2.5	0.00e+00	0	47	104	0	60	1048573
2026-01-17 12:53:16.76	40.36	3.47	-83.5	-79.0	2.6	0.00e+00	0	47	104	0	60	1048571
2026-01-17 12:53:17.77	40.20	3.52	-83.5	-79.0	2.4	0.00e+00	0	47	104	0	60	1048574
2026-01-17 12:53:18.78	40.05	3.57	-83.5	-79.0	2.4	0.00e+00	0	47	104	0	60	1048569
2026-01-17 12:53:19.79	39.90	3.61	-83.1	-79.0	2.4	0.00e+00	0	47	104	0	60	1048559
2026-01-17 12:53:20.79	39.74	3.66	-82.8	-79.0	2.5	0.00e+00	0	47	104	0	60	1048568
2026-01-17 12:53:21.80	39.59	3.71	-83.5	-79.0	2.4	0.00e+00	0	47	104	0	60	1048572
2026-01-17 12:53:22.80	39.43	3.75	-83.5	-79.0	2.5	0.00e+00	0	47	104	0	60	1048571
2026-01-17 12:53:23.81	39.28	3.80	-83.5	-79.0	2.4	0.00e+00	0	47	104	0	60	1048575
2026-01-17 12:53:24.82	39.12	3.85	-83.1	-79.0	2.4	0.00e+00	0	47	104	0	60	1048573
2026-01-17 12:53:25.82	38.96	3.89	-83.1	-79.0	2.3	0.00e+00	0	47	104	0	60	1048572
2026-01-17 12:53:26.83	38.80	3.94	-83.1	-79.0	2.4	0.00e+00	0	47	104	0	60	1048564
2026-01-17 12:53:27.84	38.64	3.99	-83.5	-79.0	2.5	0.00e+00	0	47	104	0	60	1048573
2026-01-17 12:53:28.84	38.49	4.03	-83.5	-79.0	2.2	0.00e+00	0	47	104	0	60	1048567
2026-01-17 12:53:29.84	38.33	4.08	-83.1	-79.0	2.5	0.00e+00	0	47	104	0	60	1048575
2026-01-17 12:53:30.85	38.16	4.13	-83.5	-79.0	2.4	0.00e+00	0	47	104	0	60	1048570
2026-01-17 12:53:31.86	38.00	4.17	-83.5	-79.0	2.4	0.00e+00	0	47	104	0	60	1048574
2026-01-17 12:53:32.86	37.84	4.22	-83.5	-79.0	2.2	0.00e+00	0	47	104	0	60	1048575
2026-01-17 12:53:33.87	37.68	4.27	-83.5	-79.0	2.3	0.00e+00	0	47	104	0	60	1048566
2026-01-17 12:53:34.88	37.51	4.31	-82.8	-79.0	2.3	0.00e+00	0	47	104	0	60	1048574
2026-01-17 12:53:35.89	37.35	4.36	-83.5	-79.0	2.4	0.00e+00	0	47	104	0	60	1048575
2026-01-17 12:53:36.89	37.19	4.40	-83.5	-79.0	2.3	0.00e+00	0	47	104	0	60	1048566
2026-01-17 12:53:37.90	37.02	4.45	-83.5	-79.0	2.4	0.00e+00	0	47	104	0	60	1048574
2026-01-17 12:53:38.90	36.85	4.49	-83.5	-79.0	2.3	0.00e+00	0	47	104	0	60	1048574
2026-01-17 12:53:39.91	36.69	4.54	-83.1	-79.0	2.4	0.00e+00	0	47	104	0	60	1048574
2026-01-17 12:53:40.91	36.52	4.59	-83.5	-79.0	2.3	0.00e+00	0	47	104	0	60	1048572
2026-01-17 12:53:41.92	36.35	4.63	-83.5	-79.0	2.3	0.00e+00	0	47	104	0	60	1048574
2026-01-17 12:53:42.93	36.18	4.68	-83.5	-79.0	2.5	0.00e+00	0	47	104	0	60	1048571
2026-01-17 12:53:43.93	36.01	4.72	-82.8	-79.0	2.1	0.00e+00	0	47	104	0	60	1048575
2026-01-17 12:53:44.93	35.85	4.77	-82.8	-79.0	2.4	0.00e+00	0	47	104	0	60	1048574
2026-01-17 12:53:45.94	35.67	4.81	-83.5	-79.0	2.3	0.00e+00	0	47	104	0	60	1048574
2026-01-17 12:53:46.95	35.50	4.86	-83.5	-79.0	2.5	0.00e+00	0	47	104	0	60	1048575
2026-01-17 12:53:47.95	35.33	4.90	-83.5	-79.0	2.3	0.00e+00	0	48	104	0	60	1048573
2026-01-17 12:53:48.96	35.16	4.95	-83.1	-79.0	2.4	0.00e+00	0	47	104	0	60	1048574
2026-01-17 12:53:49.97	34.98	4.99	-83.1	-79.0	2.7	0.00e+00	0	47	104	0	60	1048571
2026-01-17 12:53:50.97	34.81	5.03	-83.5	-79.0	2.4	0.00e+00	0	48	104	0	60	1048569
2026-01-17 12:53:51.97	34.64	5.08	-83.5	-79.0	2.5	0.00e+00	0	47	104	0	60	1048574
2026-01-17 12:53:52.98	34.46	5.12	-83.5	-79.0	2.2	0.00e+00	0	47	104	0	60	1048574
2026-01-17 12:53:53.99	34.28	5.17	-83.1	-79.0	2.3	0.00e+00	0	47	104	0	60	1048575
2026-01-17 12:53:55.00	34.11	5.21	-83.5	-79.0	2.3	0.00e+00	0	47	104	0	60	1048572
2026-01-17 12:53:56.01	33.93	5.26	-83.5	-79.0	2.4	0.00e+00	0	48	104	0	60	1048567
2026-01-17 12:53:57.01	33.75	5.30	-83.5	-79.0	2.4	0.00e+00	0	47	104	0	60	1048572
2026-01-17 12:53:58.02	33.57	5.34	-83.1	-79.0	2.3	0.00e+00	0	48	104	0	60	1048564
2026-01-17 12:53:59.02	33.39	5.39	-83.1	-79.0	2.4	0.00e+00	0	48	104	0	60	1048575
2026-01-17 12:54:00.03	33.21	5.43	-83.5	-79.0	2.3	0.00e+00	0	48	104	0	60	1048562
2026-01-17 12:54:01.04	33.03	5.47	-83.5	-79.0	2.4	0.00e+00	0	48	104	0	60	1048573
2026-01-17 12:54:02.05	32.85	5.52	-83.5	-79.0	2.3	0.00e+00	0	48	104	0	60	1048567
2026-01-17 12:54:03.06	32.66	5.56	-83.1	-79.0	2.3	0.00e+00	0	48	104	0	60	1048569
2026-01-17 12:54:04.07	32.48	5.60	-83.5	-79.0	2.3	0.00e+00	0	48	104	0	60	1048571
2026-01-17 12:54:05.07	32.30	5.65	-83.5	-79.0	2.3	0.00e+00	0	48	104	0	60	1048571
2026-01-17 12:54:06.08	32.11	5.69	-83.5	-79.0	2.4	0.00e+00	0	48	104	0	60	1048575
2026-01-17 12:54:07.09	31.93	5.73	-83.1	-79.0	2.6	0.00e+00	0	47	104	0	60	1048567
2026-01-17 12:54:08.10	31.74	5.77	-83.1	-79.0	2.4	0.00e+00	0	48	104	0	60	1048574
2026-01-17 12:54:09.11	31.55	5.82	-83.5	-79.0	2.4	0.00e+00	0	48	104	0	60	1048572
2026-01-17 12:54:10.11	31.37	5.86	-83.5	-79.0	2.4	0.00e+00	0	48	104	0	60	1048569
2026-01-17 12:54:11.12	31.18	5.90	-83.5	-79.0	2.2	0.00e+00	0	48	104	0	60	1048575
2026-01-17 12:54:12.13	30.99	5.94	-83.5	-79.0	2.5	0.00e+00	0	48	104	0	60	1048574
2026-01-17 12:54:13.14	30.80	5.98	-83.1	-79.0	2.3	0.00e+00	0	48	104	0	60	1048571
2026-01-17 12:54:14.15	30.61	6.03	-83.5	-79.0	2.5	0.00e+00	0	48	104	0	60	1048575
2026-01-17 12:54:15.15	30.42	6.07	-83.5	-79.0	2.2	0.00e+00	0	48	104	0	60	1048575
2026-01-17 12:54:16.16	30.23	6.11	-83.5	-79.0	2.5	0.00e+00	0	48	104	0	60	1048575
2026-01-17 12:54:17.17	30.04	6.15	-83.1	-79.0	2.3	0.00e+00	0	48	104	0	60	1048568
2026-01-17 12:54:18.17	29.84	6.19	-83.1	-79.0	2.4	0.00e+00	0	48	104	0	60	1048564
2026-01-17 12:54:19.18	29.65	6.23	-83.1	-79.0	2.3	0.00e+00	0	48	104	0	60	1048575
2026-01-17 12:54:20.18	29.46	6.27	-83.5	-79.0	2.2	0.00e+00	0	48	104	0	60	1048574
2026-01-17 12:54:21.19	29.26	6.31	-83.5	-79.0	2.3	0.00e+00	0	48	104	0	60	1048575
2026-01-17 12:54:22.19	29.07	6.35	-83.1	-79.0	2.4	0.00e+00	0	48	104	0	60	1048572
2026-01-17 12:54:23.19	28.87	6.39	-83.1	-79.0	2.4	0.00e+00	0	48	104	0	60	1048575
2026-01-17 12:54:24.20	28.68	6.43	-83.5	-79.0	2.2	0.00e+00	0	48	104	0	60	1048562
2026-01-17 12:54:25.21	28.48	6.47	-83.5	-79.0	2.4	0.00e+00	0	48	104	0	60	1048571
2026-01-17 12:54:26.21	28.28	6.51	-83.5	-79.0	2.4	0.00e+00	0	48	104	0	60	1048574
2026-01-17 12:54:27.22	28.08	6.55	-83.1	-79.0	2.4	0.00e+00	0	48	104	0	60	1048574
2026-01-17 12:54:28.23	27.88	6.59	-83.5	-79.0	2.5	0.00e+00	0	48	104	0	60	1048575
2026-01-17 12:54:29.23	27.68	6.63	-83.5	-79.0	2.2	0.00e+00	0	48	104	0	60	1048569
2026-01-17 12:54:30.24	27.48	6.66	-83.5	-79.0	2.4	0.00e+00	0	48	104	0	60	1048575
2026-01-17 12:54:31.25	27.28	6.70	-83.1	-79.0	2.3	0.00e+00	0	48	104	0	60	1048572
2026-01-17 12:54:32.26	27.07	6.74	-82.8	-79.0	2.6	0.00e+00	0	48	104	0	60	1048574
2026-01-17 12:54:33.26	26.87	6.78	-83.5	-79.0	2.3	0.00e+00	0	48	104	0	60	1048563
2026-01-17 12:54:34.27	26.67	6.82	-83.5	-79.0	2.5	0.00e+00	0	48	104	0	60	1048575
2026-01-17 12:54:35.27	26.47	6.85	-83.5	-79.0	2.3	0.00e+00	0	48	104	0	60	1048569
2026-01-17 12:54:36.27	26.26	6.89	-83.1	-79.0	2.5	0.00e+00	0	48	104	0	60	1048575
2026-01-17 12:54:37.28	26.06	6.93	-83.5	-79.0	2.5	0.00e+00	0	48	104	0	60	1048565
2026-01-17 12:54:38.29	25.85	6.97	-83.5	-79.0	2.6	0.00e+00	0	48	104	0	60	1048573
2026-01-17 12:54:39.29	25.64	7.00	-83.5	-79.0	2.4	0.00e+00	0	48	104	0	60	1048571
2026-01-17 12:54:40.30	25.44	7.04	-83.5	-79.0	2.2	0.00e+00	0	48	104	0	60	1048572
2026-01-17 12:54:41.31	25.23	7.08	-82.8	-79.0	2.5	0.00e+00	0	48	104	0	60	1048572
2026-01-17 12:54:42.31	25.02	7.11	-83.5	-79.0	2.2	0.00e+00	0	48	104	0	60	1048571
2026-01-17 12:54:43.32	24.81	7.15	-83.5	-79.0	2.5	0.00e+00	0	48	104	0	60	1048571
2026-01-17 12:54:44.32	24.60	7.18	-83.5	-79.0	2.3	0.00e+00	0	48	104	0	60	1048573
2026-01-17 12:54:45.33	24.39	7.22	-83.1	-79.0	2.4	0.00e+00	0	48	104	0	60	1048572
2026-01-17 12:54:46.34	24.18	7.25	-82.8	-79.0	2.3	0.00e+00	0	48	104	0	60	1048573
2026-01-17 12:54:47.35	23.96	7.29	-83.5	-79.0	2.5	0.00e+00	0	48	104	0	60	1048575
2026-01-17 12:54:48.36	23.75	7.32	-83.5	-79.0	2.3	0.00e+00	0	48	104	0	60	1048575
2026-01-17 12:54:49.36	23.54	7.36	-83.5	-79.0	2.5	0.00e+00	0	48	104	0	60	1048569
2026-01-17 12:54:50.37	23.32	7.39	-83.1	-79.0	2.5	0.00e+00	0	48	104	0	60	1048573
2026-01-17 12:54:51.38	23.11	7.42	-83.1	-79.0	2.3	0.00e+00	0	48	104	0	60	1048573
2026-01-17 12:54:52.38	22.90	7.46	-83.5	-79.0	2.6	0.00e+00	0	48	104	0	60	1048567
2026-01-17 12:54:53.38	22.68	7.49	-83.5	-79.0	2.4	0.00e+00	0	48	104	0	60	1048569
2026-01-17 12:54:54.39	22.46	7.52	-83.5	-79.0	2.6	0.00e+00	0	48	104	0	60	1048574
2026-01-17 12:54:55.39	22.25	7.56	-82.8	-79.0	2.5	0.00e+00	0	48	104	0	60	1048572
2026-01-17 12:54:56.39	22.03	7.59	-83.1	-79.0	2.4	0.00e+00	0	48	104	0	60	1048574
2026-01-17 12:54:57.40	21.81	7.62	-83.5	-79.0	2.3	0.00e+00	0	48	104	0	60	1048574
2026-01-17 12:54:58.41	21.59	7.65	-83.5	-79.0	2.3	0.00e+00	0	48	104	0	60	1048574
2026-01-17 12:54:59.41	21.38	7.68	-83.5	-79.0	2.5	0.00e+00	0	48	104	0	60	1048575
2026-01-17 12:55:00.42	21.15	7.72	-82.8	-79.0	2.3	0.00e+00	0	48	104	0	60	1048572
2026-01-17 12:55:01.43	20.93	7.75	-83.5	-79.0	2.4	0.00e+00	0	48	104	0	60	1048572
2026-01-17 12:55:02.44	20.71	7.78	-83.5	-79.0	2.3	0.00e+00	0	48	104	0	60	1048572
2026-01-17 12:55:03.45	20.49	7.81	-83.5	-79.0	2.5	0.00e+00	0	48	104	0	60	1048574
2026-01-17 12:55:04.45	20.27	7.84	-83.1	-79.0	2.3	0.00e+00	0	48	104	0	60	1048568
2026-01-17 12:55:05.46	20.04	7.87	-83.1	-79.0	2.4	0.00e+00	0	48	104	0	60	1048571
2026-01-17 12:55:06.46	19.82	7.90	-83.5	-79.0	2.3	0.00e+00	0	48	104	0	60	1048572
2026-01-17 12:55:07.47	19.60	7.93	-83.5	-79.0	2.5	0.00e+00	0	48	104	0	60	1048569
2026-01-17 12:55:08.48	19.37	7.96	-83.5	-79.0	2.4	0.00e+00	0	48	104	0	60	1048570
2026-01-17 12:55:09.48	19.15	7.99	-83.1	-79.0	2.2	0.00e+00	0	48	104	0	60	1048573
2026-01-17 12:55:10.48	18.92	8.01	-83.5	-79.0	2.4	0.00e+00	0	48	104	0	60	1048572
2026-01-17 12:55:11.49	18.70	8.04	-83.5	-79.0	2.3	0.00e+00	0	48	104	0	60	1048575
2026-01-17 12:55:12.49	18.47	8.07	-83.5	-79.0	2.4	0.00e+00	0	48	104	0	60	1048570
2026-01-17 12:55:13.50	18.24	8.10	-83.5	-79.0	2.5	0.00e+00	0	48	104	0	60	1048573
2026-01-17 12:55:14.51	18.01	8.12	-83.1	-79.0	2.6	0.00e+00	0	48	104	0	60	1048575
2026-01-17 12:55:15.52	17.79	8.15	-83.5	-79.0	2.5	0.00e+00	0	48	104	0	60	1048575
2026-01-17 12:55:16.52	17.56	8.18	-83.5	-79.0	2.4	0.00e+00	0	48	104	0	60	1048573
2026-01-17 12:55:17.53	17.33	8.20	-83.5	-79.0	2.5	0.00e+00	0	48	104	0	60	1048571
2026-01-17 12:55:18.54	17.10	8.23	-83.1	-79.0	2.3	0.00e+00	0	48	104	0	60	1048574
2026-01-17 12:55:19.55	16.87	8.25	-83.1	-79.0	2.3	0.00e+00	0	48	104	0	60	1048574
2026-01-17 12:55:20.56	16.63	8.28	-83.5	-79.0	2.4	0.00e+00	0	48	104	0	60	1048574
2026-01-17 12:55:21.57	16.40	8.30	-83.5	-79.0	2.3	0.00e+00	0	48	104	0	60	1048575
2026-01-17 12:55:22.57	16.17	8.33	-83.5	-79.0	2.4	0.00e+00	0	48	104	0	60	1048575
2026-01-17 12:55:23.58	15.94	8.35	-83.5	-79.0	2.4	0.00e+00	0	48	104	0	60	1048567
2026-01-17 12:55:24.59	15.70	8.38	-83.1	-79.0	2.3	0.00e+00	0	48	104	0	60	1048574
2026-01-17 12:55:25.59	15.47	8.40	-83.5	-79.0	2.4	0.00e+00	0	48	104	0	60	1048573
2026-01-17 12:55:26.60	15.24	8.42	-83.5	-79.0	2.3	0.00e+00	0	48	104	0	60	1048574
2026-01-17 12:55:27.61	15.00	8.45	-83.5	-79.0	2.4	0.00e+00	0	48	104	0	60	1048572
2026-01-17 12:55:28.61	14.77	8.47	-83.1	-79.0	2.6	0.00e+00	0	48	104	0	60	1048573
2026-01-17 12:55:29.61	14.54	8.49	-83.1	-79.0	2.4	0.00e+00	0	48	104	0	60	1048572
2026-01-17 12:55:30.62	14.30	8.51	-83.5	-79.0	2.1	0.00e+00	0	48	104	0	60	1048573
2026-01-17 12:55:31.63	14.06	8.53	-83.5	-79.0	2.4	0.00e+00	0	48	104	0	60	1048575
2026-01-17 12:55:32.63	13.83	8.55	-83.5	-79.0	2.5	0.00e+00	0	48	104	0	60	1048572
2026-01-17 12:55:33.64	13.59	8.57	-83.1	-79.0	2.4	0.00e+00	0	48	104	0	60	1048575
2026-01-17 12:55:34.64	13.35	8.59	-83.5	-79.0	2.3	0.00e+00	0	48	104	0	60	1048575
2026-01-17 12:55:35.65	13.11	8.61	-83.5	-79.0	2.2	0.00e+00	0	48	104	0	60	1048575
2026-01-17 12:55:36.66	12.88	8.63	-83.5	-79.0	2.5	0.00e+00	0	48	104	0	60	1048573
2026-01-17 12:55:37.66	12.64	8.65	-83.1	-79.0	2.2	0.00e+00	0	48	104	0	60	1048575
2026-01-17 12:55:38.67	12.40	8.67	-82.8	-79.0	2.5	0.00e+00	0	48	104	0	60	1048571
2026-01-17 12:55:39.68	12.16	8.69	-83.5	-79.0	2.4	0.00e+00	0	48	104	0	60	1048572
2026-01-17 12:55:40.68	11.92	8.71	-83.5	-79.0	2.3	0.00e+00	0	48	104	0	60	1048570
2026-01-17 12:55:41.69	11.68	8.72	-83.1	-79.0	2.4	0.00e+00	0	48	104	0	60	1048574
2026-01-17 12:55:42.69	11.44	8.74	-83.1	-79.0	2.4	0.00e+00	0	48	104	0	60	1048575
2026-01-17 12:55:43.70	11.20	8.76	-83.1	-79.0	2.3	0.00e+00	0	48	104	0	60	1048572
2026-01-17 12:55:44.71	10.96	8.77	-83.5	-79.0	2.4	0.00e+00	0	48	104	0	60	1048571
2026-01-17 12:55:45.72	10.72	8.79	-83.5	-79.0	2.5	0.00e+00	0	48	104	0	60	1048572
2026-01-17 12:55:46.73	10.47	8.81	-83.5	-79.0	2.7	0.00e+00	0	48	104	0	60	1048569
2026-01-17 12:55:47.73	10.23	8.82	-83.1	-79.0	2.3	0.00e+00	0	48	104	0	60	1048571
2026-01-17 12:55:48.73	9.99	8.84	-83.5	-79.0	2.5	0.00e+00	0	48	104	0	60	1048574
2026-01-17 12:55:49.74	9.75	8.85	-83.5	-79.0	2.3	0.00e+00	0	48	104	0	60	1048575
2026-01-17 12:55:50.75	9.50	8.86	-83.5	-79.0	2.3	0.00e+00	0	48	104	0	60	1048574
2026-01-17 12:55:51.76	9.26	8.88	-83.5	-79.0	2.5	0.00e+00	0	48	104	0	60	1048572
2026-01-17 12:55:52.77	9.02	8.89	-83.1	-79.0	2.4	0.00e+00	0	48	104	0	60	1048575
2026-01-17 12:55:53.78	8.77	8.90	-83.5	-79.0	2.4	0.00e+00	0	48	104	0	60	1048575
2026-01-17 12:55:54.78	8.53	8.91	-83.5	-79.0	2.3	0.00e+00	0	48	104	0	60	1048575
2026-01-17 12:55:55.79	8.28	8.93	-83.5	-79.0	2.4	0.00e+00	0	48	104	0	60	1048575
2026-01-17 12:55:56.79	8.04	8.94	-83.5	-79.0	2.4	0.00e+00	0	48	104	0	60	1048574
2026-01-17 12:55:57.80	7.80	8.95	-83.1	-79.0	2.4	0.00e+00	0	48	104	0	60	1048574
2026-01-17 12:55:58.81	7.55	8.96	-83.5	-79.0	2.4	0.00e+00	0	48	104	0	60	1048575
2026-01-17 12:55:59.81	7.31	8.97	-83.5	-79.0	2.3	0.00e+00	0	48	104	0	60	1048574
2026-01-17 12:56:00.82	7.06	8.98	-83.5	-79.0	2.4	0.00e+00	0	48	104	0	60	1048573
2026-01-17 12:56:01.83	6.81	8.99	-82.8	-79.0	2.3	0.00e+00	0	48	104	0	60	1048572
2026-01-17 12:56:02.84	6.57	9.00	-83.5	-79.0	2.4	0.00e+00	0	48	104	0	60	1048574
2026-01-17 12:56:03.85	6.32	9.01	-83.5	-79.0	2.3	0.00e+00	0	48	104	0	60	1048572
2026-01-17 12:56:04.86	6.07	9.01	-83.5	-79.0	2.4	0.00e+00	0	48	104	0	60	1048575
2026-01-17 12:56:05.86	5.83	9.02	-83.5	-79.0	2.5	0.00e+00	0	48	104	0	60	1048575
2026-01-17 12:56:06.87	5.58	9.03	-83.1	-79.0	2.2	0.00e+00	0	48	104	0	60	1048575
2026-01-17 12:56:07.88	5.33	9.04	-83.5	-79.0	2.4	0.00e+00	0	48	104	0	60	1048575
2026-01-17 12:56:08.89	5.09	9.04	-83.5	-79.0	2.5	0.00e+00	0	48	104	0	60	1048572
2026-01-17 12:56:09.89	4.84	9.05	-83.5	-79.0	2.3	0.00e+00	0	48	104	0	60	1048571
2026-01-17 12:56:10.90	4.59	9.05	-83.1	-79.0	2.5	0.00e+00	0	48	104	0	60	1048575
2026-01-17 12:56:11.91	4.34	9.06	-83.1	-79.0	2.3	0.00e+00	0	48	104	0	60	1048575
2026-01-17 12:56:12.91	4.10	9.06	-83.5	-79.0	2.6	0.00e+00	0	48	104	0	60	1048573
2026-01-17 12:56:13.92	3.85	9.07	-83.5	-79.0	2.3	0.00e+00	0	48	104	0	60	1048574
2026-01-17 12:56:14.93	3.60	9.07	-83.5	-79.0	2.5	0.00e+00	0	48	104	0	60	1048573
2026-01-17 12:56:15.93	3.36	9.08	-83.1	-79.0	2.3	0.00e+00	0	48	104	0	60	1048574
2026-01-17 12:56:16.94	3.11	9.08	-83.1	-79.0	2.3	0.00e+00	0	48	104	0	60	1048575
2026-01-17 12:56:17.95	2.86	9.08	-83.5	-79.0	2.5	0.00e+00	0	48	104	0	60	1048570
2026-01-17 12:56:18.96	2.61	9.08	-83.5	-79.0	2.6	0.00e+00	0	48	104	0	60	1048573
2026-01-17 12:56:19.97	2.36	9.08	-83.5	-79.0	2.3	0.00e+00	0	48	104	0	60	1048574
2026-01-17 12:56:20.97	2.12	9.09	-83.1	-79.0	2.4	0.00e+00	0	48	104	0	60	1048575
2026-01-17 12:56:21.98	1.87	9.09	-83.5	-79.0	2.4	0.00e+00	0	48	104	0	60	1048571
2026-01-17 12:56:22.99	1.62	9.09	-83.5	-79.0	2.4	0.00e+00	0	48	104	0	60	1048575
2026-01-17 12:56:24.00	1.37	9.09	-83.5	-79.0	2.4	0.00e+00	0	48	104	0	60	1048573
2026-01-17 12:56:25.01	1.12	9.09	-83.5	-79.0	2.4	0.00e+00	0	48	104	0	60	1048575
2026-01-17 12:56:26.01	0.88	9.09	-83.1	-79.0	2.3	0.00e+00	0	48	104	0	60	1048573
2026-01-17 12:56:27.02	0.63	9.08	-83.5	-79.0	2.4	0.00e+00	0	48	104	0	60	1048574
2026-01-17 12:56:28.03	0.38	9.08	-83.5	-79.0	2.4	0.00e+00	0	48	104	0	60	1048570
2026-01-17 12:56:29.03	0.13	9.08	-83.5	-79.0	2.4	0.00e+00	0	48	104	0	60	1048571
2026-01-17 12:56:30.04	359.88	9.08	-83.5	-79.0	2.5	0.00e+00	0	48	104	0	60	1048573
2026-01-17 12:56:31.04	359.64	9.07	-83.1	-79.0	2.3	0.00e+00	0	48	104	0	60	1048570
2026-01-17 12:56:32.05	359.39	9.07	-83.5	-79.0	2.2	0.00e+00	0	48	104	0	60	1048571
2026-01-17 12:56:33.05	359.15	9.07	-83.5	-79.0	2.3	0.00e+00	0	48	104	0	60	1048575
2026-01-17 12:56:34.06	358.90	9.06	-83.1	-79.0	2.4	0.00e+00	0	48	104	0	60	1048575
2026-01-17 12:56:35.07	358.65	9.06	-82.8	-79.0	2.6	0.00e+00	0	48	104	0	60	1048575
2026-01-17 12:56:36.07	358.40	9.05	-83.5	-79.0	2.7	0.00e+00	0	49	104	0	60	1048572
2026-01-17 12:56:37.08	358.16	9.05	-83.5	-79.0	2.6	0.00e+00	0	49	104	0	60	1048572
2026-01-17 12:56:38.09	357.91	9.04	-83.5	-79.0	2.1	0.00e+00	0	48	104	0	60	1048575
2026-01-17 12:56:39.09	357.66	9.03	-83.5	-79.0	2.5	0.00e+00	0	48	104	0	60	1048575
2026-01-17 12:56:40.10	357.42	9.03	-82.8	-79.0	2.5	0.00e+00	0	48	104	0	60	1048575
2026-01-17 12:56:41.11	357.17	9.02	-83.5	-79.0	2.5	0.00e+00	0	48	104	0	60	1048572
2026-01-17 12:56:42.11	356.92	9.01	-83.5	-79.0	2.4	0.00e+00	0	48	104	0	60	1048575
2026-01-17 12:56:43.12	356.68	9.00	-83.5	-79.0	2.3	0.00e+00	0	48	104	0	60	1048572
2026-01-17 12:56:44.13	356.43	9.00	-83.5	-79.0	2.5	0.00e+00	0	48	104	0	60	1048574
2026-01-17 12:56:45.13	356.19	8.99	-83.1	-79.0	2.3	0.00e+00	0	48	104	0	60	1048574
2026-01-17 12:56:46.13	355.94	8.98	-83.5	-79.0	2.4	0.00e+00	0	48	104	0	60	1048571
2026-01-17 12:56:47.14	355.70	8.97	-83.5	-79.0	2.4	0.00e+00	0	48	104	0	60	1048568
2026-01-17 12:56:48.14	355.45	8.96	-83.5	-79.0	2.3	0.00e+00	0	49	104	0	60	1048575
2026-01-17 12:56:49.15	355.21	8.95	-83.1	-79.0	2.3	0.00e+00	0	49	104	0	60	1048569
2026-01-17 12:56:50.15	354.96	8.93	-83.1	-79.0	2.4	0.00e+00	0	48	104	0	60	1048572
2026-01-17 12:56:51.16	354.72	8.92	-83.5	-79.0	2.4	0.00e+00	0	48	104	0	60	1048575
2026-01-17 12:56:52.16	354.48	8.91	-83.5	-79.0	2.3	0.00e+00	0	49	104	0	60	1048574
2026-01-17 12:56:53.17	354.23	8.90	-83.5	-79.0	2.2	0.00e+00	0	48	104	0	60	1048575
2026-01-17 12:56:54.17	353.99	8.89	-83.1	-79.0	2.5	0.00e+00	0	48	104	0	60	1048573
2026-01-17 12:56:55.18	353.74	8.87	-83.5	-79.0	2.4	0.00e+00	0	48	104	0	60	1048575
2026-01-17 12:56:56.19	353.50	8.86	-83.5	-79.0	2.2	0.00e+00	0	48	104	0	60	1048567
2026-01-17 12:56:57.19	353.26	8.85	-83.5	-79.0	2.4	0.00e+00	0	48	104	0	60	1048575
2026-01-17 12:56:58.20	353.02	8.83	-83.5	-79.0	2.3	0.00e+00	0	48	104	0	60	1048568
2026-01-17 12:56:59.21	352.77	8.82	-83.1	-79.0	2.4	0.00e+00	0	48	104	0	60	1048575
2026-01-17 12:57:00.21	352.53	8.80	-83.5	-79.0	2.4	0.00e+00	0	48	104	0	60	1048575
2026-01-17 12:57:01.22	352.29	8.79	-83.5	-79.0	2.4	0.00e+00	0	49	104	0	60	1048574
2026-01-17 12:57:02.23	352.05	8.77	-83.5	-79.0	2.3	0.00e+00	0	48	104	0	60	1048575
2026-01-17 12:57:03.24	351.81	8.75	-83.5	-79.0	2.3	0.00e+00	0	48	104	0	60	1048575
2026-01-17 12:57:04.25	351.56	8.74	-83.5	-79.0	2.4	0.00e+00	0	49	104	0	60	1048573
2026-01-17 12:57:05.25	351.33	8.72	-83.5	-79.0	2.3	0.00e+00	0	48	104	0	60	1048575
2026-01-17 12:57:06.26	351.09	8.70	-83.5	-79.0	2.5	0.00e+00	0	48	104	0	60	1048575
2026-01-17 12:57:07.27	350.84	8.68	-83.5	-79.0	2.3	0.00e+00	0	48	104	0	60	1048571
2026-01-17 12:57:08.27	350.61	8.67	-83.1	-79.0	2.3	0.00e+00	0	48	104	0	60	1048574
2026-01-17 12:57:09.28	350.37	8.65	-83.1	-79.0	2.6	0.00e+00	0	48	104	0	60	1048575
2026-01-17 12:57:10.29	350.13	8.63	-83.5	-79.0	2.6	0.00e+00	0	48	104	0	60	1048575
2026-01-17 12:57:11.30	349.89	8.61	-83.5	-79.0	2.3	0.00e+00	0	48	104	0	60	1048574
2026-01-17 12:57:12.31	349.65	8.59	-83.5	-79.0	2.3	0.00e+00	0	48	104	0	60	1048570
2026-01-17 12:57:13.31	349.42	8.57	-83.1	-79.0	2.3	0.00e+00	0	48	104	0	60	1048574
2026-01-17 12:57:14.32	349.18	8.55	-83.1	-79.0	2.3	0.00e+00	0	48	104	0	60	1048575
2026-01-17 12:57:15.33	348.94	8.53	-83.5	-79.0	2.3	0.00e+00	0	48	104	0	60	1048575
2026-01-17 12:57:16.34	348.70	8.50	-83.5	-79.0	2.3	0.00e+00	0	49	104	0	60	1048570
2026-01-17 12:57:17.35	348.47	8.48	-83.5	-79.0	2.3	0.00e+00	0	48	104	0	60	1048574
2026-01-17 12:57:18.35	348.23	8.46	-83.1	-79.0	2.3	0.00e+00	0	49	104	0	60	1048574
2026-01-17 12:57:19.36	348.00	8.44	-83.5	-79.0	2.4	0.00e+00	0	48	104	0	60	1048570
2026-01-17 12:57:20.36	347.77	8.42	-83.5	-79.0	2.3	0.00e+00	0	48	104	0	60	1048566
2026-01-17 12:57:21.37	347.53	8.39	-83.5	-79.0	2.4	0.00e+00	0	49	104	0	60	1048575
2026-01-17 12:57:22.37	347.30	8.37	-83.1	-79.0	2.3	0.00e+00	0	48	104	0	60	1048571
2026-01-17 12:57:23.38	347.07	8.35	-83.1	-79.0	2.5	0.00e+00	0	49	104	0	60	1048575
2026-01-17 12:57:24.39	346.83	8.32	-83.5	-79.0	2.3	0.00e+00	0	48	104	0	60	1048572
2026-01-17 12:57:25.40	346.60	8.30	-83.5	-79.0	2.4	0.00e+00	0	48	104	0	60	1048575
2026-01-17 12:57:26.41	346.37	8.27	-83.5	-79.0	2.1	0.00e+00	0	48	104	0	60	1048556
2026-01-17 12:57:27.41	346.14	8.25	-83.1	-79.0	2.4	0.00e+00	0	48	104	0	60	1048574
2026-01-17 12:57:28.42	345.91	8.22	-83.5	-79.0	2.3	0.00e+00	0	49	104	0	60	1048575
2026-01-17 12:57:29.42	345.68	8.20	-83.5	-79.0	2.3	0.00e+00	0	48	104	0	60	1048574
2026-01-17 12:57:30.43	345.45	8.17	-83.5	-79.0	2.3	0.00e+00	0	49	104	0	60	1048568
2026-01-17 12:57:31.43	345.22	8.14	-83.5	-79.0	2.3	0.00e+00	0	49	104	0	60	1048570
2026-01-17 12:57:32.45	344.99	8.12	-83.1	-79.0	2.5	0.00e+00	0	49	104	0	60	1048574
2026-01-17 12:57:33.45	344.76	8.09	-83.5	-79.0	2.3	0.00e+00	0	48	104	0	60	1048575
2026-01-17 12:57:34.46	344.54	8.06	-83.5	-79.0	2.4	0.00e+00	0	48	104	0	60	1048569
2026-01-17 12:57:35.47	344.31	8.03	-83.5	-79.0	2.3	0.00e+00	0	48	104	0	60	1048566
2026-01-17 12:57:36.47	344.08	8.00	-83.5	-79.0	2.3	0.00e+00	0	48	104	0	60	1048575
2026-01-17 12:57:37.48	343.86	7.98	-83.1	-79.0	2.4	0.00e+00	0	49	104	0	60	1048575
2026-01-17 12:57:38.48	343.63	7.95	-83.1	-79.0	2.2	0.00e+00	0	48	104	0	60	1048574
2026-01-17 12:57:39.49	343.41	7.92	-83.5	-79.0	2.5	0.00e+00	0	48	104	0	60	1048572
2026-01-17 12:57:40.49	343.19	7.89	-83.5	-79.0	2.4	0.00e+00	0	49	104	0	60	1048561
2026-01-17 12:57:41.50	342.96	7.86	-83.1	-79.0	2.6	0.00e+00	0	49	104	0	60	1048571
2026-01-17 12:57:42.51	342.74	7.83	-82.8	-79.0	2.2	0.00e+00	0	49	104	0	60	1048573
2026-01-17 12:57:43.52	342.52	7.80	-83.5	-79.0	2.5	0.00e+00	0	49	104	0	60	1048570
2026-01-17 12:57:44.52	342.30	7.77	-83.5	-79.0	2.5	0.00e+00	0	49	104	0	60	1048572
2026-01-17 12:57:45.52	342.08	7.74	-83.5	-79.0	2.3	0.00e+00	0	48	104	0	60	1048575
2026-01-17 12:57:46.53	341.86	7.71	-83.1	-79.0	2.5	0.00e+00	0	49	104	0	60	1048573
2026-01-17 12:57:47.54	341.64	7.68	-83.1	-79.0	2.4	0.00e+00	0	49	104	0	60	1048574
2026-01-17 12:57:48.55	341.42	7.64	-83.5	-79.0	2.4	0.00e+00	0	48	104	0	60	1048575
2026-01-17 12:57:49.56	341.20	7.61	-83.5	-79.0	2.5	0.00e+00	0	48	104	0	60	1048575
2026-01-17 12:57:50.57	340.98	7.58	-83.5	-79.0	2.3	0.00e+00	0	49	104	0	60	1048564
2026-01-17 12:57:51.57	340.76	7.55	-83.1	-79.0	2.4	0.00e+00	0	49	104	0	60	1048575
2026-01-17 12:57:52.58	340.54	7.51	-83.1	-79.0	2.3	0.00e+00	0	48	104	0	60	1048574
2026-01-17 12:57:53.58	340.33	7.48	-83.5	-79.0	2.4	0.00e+00	0	49	104	0	60	1048574
2026-01-17 12:57:54.59	340.11	7.45	-83.5	-79.0	2.3	0.00e+00	0	49	104	0	60	1048571
2026-01-17 12:57:55.60	339.90	7.41	-83.1	-79.0	2.7	0.00e+00	0	49	104	0	60	1048575
2026-01-17 12:57:56.61	339.68	7.38	-83.1	-79.0	2.3	0.00e+00	0	48	104	0	60	1048571
2026-01-17 12:57:57.61	339.47	7.35	-83.5	-79.0	2.6	0.00e+00	0	49	104	0	60	1048571
2026-01-17 12:57:58.62	339.26	7.31	-83.5	-79.0	2.3	0.00e+00	0	49	104	0	60	1048573
2026-01-17 12:57:59.62	339.04	7.28	-83.5	-79.0	2.5	0.00e+00	0	49	104	0	60	1048573
2026-01-17 12:58:00.63	338.83	7.24	-83.1	-79.0	2.4	0.00e+00	0	49	104	0	60	1048575
2026-01-17 12:58:01.64	338.62	7.21	-83.5	-79.0	2.2	0.00e+00	0	49	104	0	60	1048564
2026-01-17 12:58:02.65	338.41	7.17	-83.5	-79.0	2.2	0.00e+00	0	49	104	0	60	1048575
2026-01-17 12:58:03.65	338.20	7.14	-83.5	-79.0	2.5	0.00e+00	0	49	104	0	60	1048569
2026-01-17 12:58:04.66	337.99	7.10	-83.5	-79.0	2.4	0.00e+00	0	48	104	0	60	1048572
2026-01-17 12:58:05.67	337.78	7.06	-83.1	-79.0	2.4	0.00e+00	0	49	104	0	60	1048574
2026-01-17 12:58:06.68	337.57	7.03	-83.5	-79.0	2.5	0.00e+00	0	48	104	0	60	1048575
2026-01-17 12:58:07.69	337.36	6.99	-83.5	-79.0	2.2	0.00e+00	0	48	104	0	60	1048568
2026-01-17 12:58:08.69	337.16	6.95	-83.5	-79.0	2.5	0.00e+00	0	49	104	0	60	1048574
2026-01-17 12:58:09.70	336.95	6.92	-83.5	-79.0	2.3	0.00e+00	0	49	104	0	60	1048575
2026-01-17 12:58:10.70	336.75	6.88	-82.8	-79.0	2.4	0.00e+00	0	49	104	0	60	1048573
2026-01-17 12:58:11.71	336.54	6.84	-83.5	-79.0	2.3	0.00e+00	0	49	104	0	60	1048575
2026-01-17 12:58:12.72	336.34	6.80	-83.5	-79.0	2.4	0.00e+00	0	49	104	0	60	1048573
2026-01-17 12:58:13.72	336.14	6.77	-83.5	-79.0	2.5	0.00e+00	0	49	104	0	60	1048571
2026-01-17 12:58:14.73	335.93	6.73	-83.5	-79.0	2.3	0.00e+00	0	48	104	0	60	1048572
2026-01-17 12:58:15.74	335.73	6.69	-83.5	-79.0	2.4	0.00e+00	0	49	104	0	60	1048574
2026-01-17 12:58:16.74	335.53	6.65	-83.5	-79.0	2.5	0.00e+00	0	49	104	0	60	1048573
2026-01-17 12:58:17.75	335.33	6.61	-83.5	-79.0	2.4	0.00e+00	0	49	104	0	60	1048572
2026-01-17 12:58:18.75	335.13	6.57	-83.5	-79.0	2.4	0.00e+00	0	48	104	0	60	1048575
2026-01-17 12:58:19.76	334.93	6.54	-83.1	-79.0	2.4	0.00e+00	0	49	104	0	60	1048574
2026-01-17 12:58:20.77	334.73	6.50	-83.1	-79.0	2.3	0.00e+00	0	49	104	0	60	1048567
2026-01-17 12:58:21.78	334.53	6.46	-83.5	-79.0	2.5	0.00e+00	0	49	104	0	60	1048568
2026-01-17 12:58:22.79	334.34	6.42	-83.5	-79.0	2.3	0.00e+00	0	49	104	0	60	1048575
2026-01-17 12:58:23.80	334.14	6.38	-83.5	-79.0	2.4	0.00e+00	0	49	104	0	60	1048570
2026-01-17 12:58:24.80	333.94	6.34	-83.1	-79.0	2.3	0.00e+00	0	49	104	0	60	1048574
2026-01-17 12:58:25.81	333.75	6.30	-83.5	-79.0	2.3	0.00e+00	0	49	104	0	60	1048575
2026-01-17 12:58:26.82	333.55	6.26	-83.5	-79.0	2.3	0.00e+00	0	49	104	0	60	1048575
2026-01-17 12:58:27.82	333.36	6.22	-83.5	-79.0	2.3	0.00e+00	0	49	104	0	60	1048575
2026-01-17 12:58:28.83	333.17	6.18	-83.1	-79.0	2.5	0.00e+00	0	49	104	0	60	1048575
2026-01-17 12:58:29.84	332.97	6.13	-82.8	-79.0	2.3	0.00e+00	0	49	104	0	60	1048571
2026-01-17 12:58:30.84	332.78	6.09	-83.5	-79.0	2.4	0.00e+00	0	49	104	0	60	1048575
2026-01-17 12:58:31.85	332.59	6.05	-83.5	-79.0	2.6	0.00e+00	0	49	104	0	60	1048575
2026-01-17 12:58:32.85	332.40	6.01	-83.5	-79.0	2.4	0.00e+00	0	48	104	0	60	1048573
2026-01-17 12:58:33.86	332.21	5.97	-83.1	-79.0	2.4	0.00e+00	0	49	104	0	60	1048563
2026-01-17 12:58:34.87	332.02	5.93	-83.1	-79.0	2.3	0.00e+00	0	49	104	0	60	1048564
2026-01-17 12:58:35.88	331.83	5.89	-83.5	-79.0	2.5	0.00e+00	0	49	104	0	60	1048574
2026-01-17 12:58:36.89	331.64	5.84	-83.5	-79.0	2.3	0.00e+00	0	49	104	0	60	1048570
2026-01-17 12:58:37.89	331.46	5.80	-83.5	-79.0	2.3	0.00e+00	0	49	104	0	60	1048575
2026-01-17 12:58:38.90	331.27	5.76	-83.1	-79.0	2.5	0.00e+00	0	49	104	0	60	1048568
2026-01-17 12:58:39.90	331.09	5.72	-83.1	-79.0	2.5	0.00e+00	0	49	104	0	60	1048575
2026-01-17 12:58:40.91	330.90	5.67	-83.5	-79.0	2.5	0.00e+00	0	49	104	0	60	1048571
2026-01-17 12:58:41.91	330.72	5.63	-83.5	-79.0	2.4	0.00e+00	0	49	104	0	60	1048572
2026-01-17 12:58:42.92	330.53	5.59	-83.5	-79.0	2.3	0.00e+00	0	49	104	0	60	1048571
2026-01-17 12:58:43.92	330.35	5.55	-83.1	-79.0	2.5	0.00e+00	0	49	104	0	60	1048574
2026-01-17 12:58:44.92	330.17	5.50	-83.5	-79.0	2.3	0.00e+00	0	49	104	0	60	1048573
2026-01-17 12:58:45.93	329.99	5.46	-83.5	-79.0	2.3	0.00e+00	0	49	104	0	60	1048572
2026-01-17 12:58:46.94	329.81	5.42	-83.5	-79.0	2.4	0.00e+00	0	49	104	0	60	1048570
2026-01-17 12:58:47.95	329.63	5.37	-83.5	-79.0	2.4	0.00e+00	0	49	104	0	60	1048572
2026-01-17 12:58:48.95	329.45	5.33	-83.1	-79.0	2.6	0.00e+00	0	49	104	0	60	1048573
2026-01-17 12:58:49.96	329.27	5.29	-83.1	-79.0	2.4	0.00e+00	0	49	104	0	60	1048573
2026-01-17 12:58:50.97	329.09	5.24	-83.5	-79.0	2.7	0.00e+00	0	49	104	0	60	1048575
2026-01-17 12:58:51.97	328.92	5.20	-83.5	-79.0	2.2	0.00e+00	0	49	104	0	60	1048568
2026-01-17 12:58:52.98	328.74	5.15	-83.1	-79.0	2.4	0.00e+00	0	49	104	0	60	1048574
2026-01-17 12:58:53.99	328.56	5.11	-83.5	-79.0	2.3	0.00e+00	0	49	104	0	60	1048571
2026-01-17 12:58:55.00	328.39	5.06	-83.5	-79.0	2.4	0.00e+00	0	49	104	0	60	1048559
2026-01-17 12:58:56.01	328.21	5.02	-83.5	-79.0	2.4	0.00e+00	0	48	104	0	60	1048571
2026-01-17 12:58:57.01	328.04	4.98	-83.5	-79.0	2.2	0.00e+00	0	49	104	0	60	1048570
2026-01-17 12:58:58.01	327.87	4.93	-83.1	-79.0	2.5	0.00e+00	0	49	104	0	60	1048572
2026-01-17 12:58:59.02	327.69	4.89	-83.5	-79.0	2.3	0.00e+00	0	49	104	0	60	1048568
2026-01-17 12:59:00.03	327.52	4.84	-83.5	-79.0	2.2	0.00e+00	0	49	104	0	60	1048567
2026-01-17 12:59:01.03	327.35	4.80	-83.1	-79.0	2.3	0.00e+00	0	48	104	0	60	1048574
2026-01-17 12:59:02.04	327.18	4.75	-83.5	-79.0	2.3	0.00e+00	0	48	104	0	60	1048573
2026-01-17 12:59:03.04	327.01	4.71	-83.1	-79.0	2.5	0.00e+00	0	48	104	0	60	1048575
2026-01-17 12:59:04.04	326.84	4.66	-83.1	-79.0	2.3	0.00e+00	0	48	104	0	60	1048563
2026-01-17 12:59:05.05	326.67	4.62	-83.5	-79.0	2.5	0.00e+00	0	48	104	0	60	1048575
2026-01-17 12:59:06.05	326.51	4.57	-83.5	-79.0	2.2	0.00e+00	0	48	104	0	60	1048568
2026-01-17 12:59:07.06	326.34	4.53	-83.1	-79.0	2.4	0.00e+00	0	48	104	0	60	1048575
2026-01-17 12:59:08.06	326.17	4.48	-83.1	-79.0	2.4	0.00e+00	0	49	104	0	60	1048575
2026-01-17 12:59:09.06	326.01	4.43	-83.5	-79.0	2.4	0.00e+00	0	49	104	0	60	1048570
2026-01-17 12:59:10.07	325.84	4.39	-83.5	-79.0	2.3	0.00e+00	0	49	104	0	60	1048575
2026-01-17 12:59:11.07	325.68	4.34	-83.5	-79.0	2.4	0.00e+00	0	49	104	0	60	1048564
2026-01-17 12:59:12.08	325.51	4.30	-83.1	-79.0	2.3	0.00e+00	0	48	104	0	60	1048573
2026-01-17 12:59:13.09	325.35	4.25	-83.5	-79.0	2.4	0.00e+00	0	48	104	0	60	1048572
2026-01-17 12:59:14.10	325.19	4.20	-83.5	-79.0	2.3	0.00e+00	0	48	104	0	60	1048572
2026-01-17 12:59:15.10	325.03	4.16	-83.5	-79.0	2.4	0.00e+00	0	49	104	0	60	1048566
2026-01-17 12:59:16.11	324.86	4.11	-83.5	-79.0	2.4	0.00e+00	0	48	104	0	60	1048574
2026-01-17 12:59:17.11	324.71	4.07	-83.1	-79.0	2.3	0.00e+00	0	48	104	0	60	1048574
2026-01-17 12:59:18.11	324.55	4.02	-83.1	-79.0	2.3	0.00e+00	0	48	104	0	60	1048572
2026-01-17 12:59:19.12	324.39	3.97	-83.5	-79.0	2.3	0.00e+00	0	48	104	0	60	1048572
2026-01-17 12:59:20.13	324.23	3.93	-83.5	-79.0	2.4	0.00e+00	0	49	104	0	60	1048570
2026-01-17 12:59:21.13	324.07	3.88	-83.5	-79.0	2.3	0.00e+00	0	49	104	0	60	1048573
2026-01-17 12:59:22.14	323.91	3.83	-83.1	-79.0	2.3	0.00e+00	0	48	104	0	60	1048573
2026-01-17 12:59:23.15	323.76	3.79	-83.5	-79.0	2.4	0.00e+00	0	48	104	0	60	1048573
2026-01-17 12:59:24.15	323.60	3.74	-83.5	-79.0	2.4	0.00e+00	0	48	104	0	60	1048574
2026-01-17 12:59:25.16	323.44	3.69	-83.5	-79.0	2.4	0.00e+00	0	49	104	0	60	1048573
2026-01-17 12:59:26.17	323.29	3.65	-83.1	-79.0	2.4	0.00e+00	0	48	104	0	60	1048574
2026-01-17 12:59:27.18	323.13	3.60	-83.1	-79.0	2.4	0.00e+00	0	48	104	0	60	1048575
2026-01-17 12:59:28.19	322.98	3.55	-83.5	-79.0	2.2	0.00e+00	0	49	104	0	60	1048574
2026-01-17 12:59:29.20	322.83	3.51	-83.5	-79.0	2.5	0.00e+00	0	49	104	0	60	1048574
2026-01-17 12:59:30.21	322.67	3.46	-83.1	-79.0	2.3	0.00e+00	0	49	104	0	60	1048570
2026-01-17 12:59:31.21	322.52	3.41	-83.1	-79.0	2.3	0.00e+00	0	49	104	0	60	1048572
2026-01-17 12:59:32.22	322.37	3.36	-83.5	-79.0	2.5	0.00e+00	0	49	104	0	60	1048557
2026-01-17 12:59:33.22	322.22	3.32	-83.5	-79.0	2.3	0.00e+00	0	48	104	0	60	1048575
2026-01-17 12:59:34.22	322.07	3.27	-83.5	-79.0	2.5	0.00e+00	0	49	104	0	60	1048574
2026-01-17 12:59:35.23	321.92	3.22	-83.5	-79.0	2.2	0.00e+00	0	49	104	0	60	1048572
2026-01-17 12:59:36.24	321.77	3.18	-83.1	-79.0	2.3	0.00e+00	0	49	104	0	60	1048575
2026-01-17 12:59:37.25	321.63	3.13	-83.5	-79.0	2.5	0.00e+00	0	49	104	0	60	1048569
2026-01-17 12:59:38.25	321.48	3.08	-83.5	-79.0	2.5	0.00e+00	0	49	104	0	60	1048560
2026-01-17 12:59:39.26	321.33	3.03	-83.5	-79.0	2.6	0.00e+00	0	49	104	0	60	1048573
2026-01-17 12:59:40.27	321.19	2.99	-83.1	-79.0	2.2	0.00e+00	0	49	104	0	60	1048573
2026-01-17 12:59:41.28	321.04	2.94	-83.1	-79.0	2.3	0.00e+00	0	48	104	0	60	1048572
2026-01-17 12:59:42.28	320.90	2.89	-83.5	-79.0	2.3	0.00e+00	0	49	104	0	60	1048574
2026-01-17 12:59:43.29	320.75	2.84	-83.5	-79.0	2.4	0.00e+00	0	48	104	0	60	1048575
2026-01-17 12:59:44.30	320.61	2.80	-83.5	-79.0	2.4	0.00e+00	0	49	104	0	60	1048570
2026-01-17 12:59:45.31	320.46	2.75	-83.5	-79.0	2.4	0.00e+00	0	49	104	0	60	1048571
2026-01-17 12:59:46.32	320.32	2.70	-83.1	-79.0	2.4	0.00e+00	0	49	104	0	60	1048574
2026-01-17 12:59:47.33	320.18	2.65	-83.5	-79.0	2.3	0.00e+00	0	49	104	0	60	1048573
2026-01-17 12:59:48.34	320.04	2.60	-83.5	-79.0	2.3	0.00e+00	0	49	104	0	60	1048574
2026-01-17 12:59:49.35	319.90	2.56	-83.5	-79.0	2.7	0.00e+00	0	49	104	0	60	1048572
2026-01-17 12:59:50.35	319.76	2.51	-82.8	-79.0	2.3	0.00e+00	0	49	104	0	60	1048573
2026-01-17 12:59:51.36	319.62	2.46	-83.5	-79.0	2.5	0.00e+00	0	49	104	0	60	1048570
2026-01-17 12:59:52.36	319.48	2.41	-83.5	-79.0	2.3	0.00e+00	0	48	104	0	60	1048573
2026-01-17 12:59:53.37	319.34	2.36	-83.5	-79.0	2.4	0.00e+00	0	48	104	0	60	1048573
2026-01-17 12:59:54.37	319.20	2.32	-83.5	-79.0	2.4	0.00e+00	0	49	104	0	60	1048573
2026-01-17 12:59:55.38	319.07	2.27	-82.8	-79.0	2.5	0.00e+00	0	49	104	0	60	1048573
2026-01-17 12:59:56.39	318.93	2.22	-83.5	-79.0	2.4	0.00e+00	0	48	104	0	60	1048571
2026-01-17 12:59:57.39	318.79	2.17	-83.5	-79.0	2.3	0.00e+00	0	49	104	0	60	1048569
2026-01-17 12:59:58.40	318.66	2.13	-83.5	-79.0	2.4	0.00e+00	0	49	104	0	60	1048575
2026-01-17 12:59:59.41	318.52	2.08	-83.1	-79.0	2.4	0.00e+00	0	48	104	0	60	1048570
2026-01-17 13:00:00.42	318.39	2.03	-82.8	-79.0	2.5	0.00e+00	0	49	104	0	60	1048575
2026-01-17 13:00:01.42	318.26	1.98	-83.5	-79.0	2.3	0.00e+00	0	49	104	0	60	1048575
2026-01-17 13:00:02.43	318.12	1.93	-83.5	-79.0	2.4	0.00e+00	0	49	104	0	60	1048570
2026-01-17 13:00:03.43	317.99	1.89	-83.5	-79.0	2.4	0.00e+00	0	49	104	0	60	1048574
2026-01-17 13:00:04.44	317.86	1.84	-83.1	-79.0	2.4	0.00e+00	0	49	104	0	60	1048568
2026-01-17 13:00:05.44	317.73	1.79	-83.1	-79.0	2.4	0.00e+00	0	48	104	0	60	1048571
2026-01-17 13:00:06.45	317.60	1.74	-83.5	-79.0	2.4	0.00e+00	0	49	104	0	60	1048574
2026-01-17 13:00:07.45	317.47	1.69	-83.5	-79.0	2.4	0.00e+00	0	49	104	0	60	1048575
2026-01-17 13:00:08.46	317.34	1.65	-83.5	-79.0	2.4	0.00e+00	0	49	104	0	60	1048574
2026-01-17 13:00:09.46	317.21	1.60	-83.1	-79.0	2.3	0.00e+00	0	49	104	0	60	1048573
2026-01-17 13:00:10.47	317.08	1.55	-83.5	-79.0	2.4	0.00e+00	0	49	104	0	60	1048575
2026-01-17 13:00:11.47	316.95	1.50	-83.5	-79.0	2.2	0.00e+00	0	49	104	0	60	1048572
2026-01-17 13:00:12.48	316.82	1.45	-83.5	-79.0	2.5	0.00e+00	0	49	104	0	60	1048571
2026-01-17 13:00:13.49	316.70	1.41	-83.1	-79.0	2.5	0.00e+00	0	49	104	0	60	1048574
2026-01-17 13:00:14.50	316.57	1.36	-82.8	-79.0	2.3	0.00e+00	0	49	104	0	60	1048574
2026-01-17 13:00:15.50	316.44	1.31	-83.5	-79.0	2.4	0.00e+00	0	49	104	0	60	1048575
2026-01-17 13:00:16.51	316.32	1.26	-83.5	-79.0	2.4	0.00e+00	0	49	104	0	60	1048566
2026-01-17 13:00:17.52	316.19	1.21	-83.5	-79.0	2.2	0.00e+00	0	49	104	0	60	1048574
2026-01-17 13:00:18.53	316.07	1.16	-83.1	-79.0	2.4	0.00e+00	0	49	104	0	60	1048574
2026-01-17 13:00:19.53	315.95	1.12	-83.1	-79.0	2.4	0.00e+00	0	49	104	0	60	1048575
2026-01-17 13:00:20.54	315.82	1.07	-83.5	-79.0	2.4	0.00e+00	0	48	104	0	60	1048571
2026-01-17 13:00:21.54	315.70	1.02	-83.5	-79.0	2.2	0.00e+00	0	48	104	0	60	1048575
2026-01-17 13:00:22.55	315.58	0.97	-83.5	-79.0	2.5	0.00e+00	0	49	104	0	60	1048575
2026-01-17 13:00:23.55	315.46	0.92	-83.1	-79.0	2.3	0.00e+00	0	49	104	0	60	1048573
2026-01-17 13:00:24.56	315.33	0.88	-83.5	-79.0	2.4	0.00e+00	0	49	104	0	60	1048575
2026-01-17 13:00:25.57	315.21	0.83	-83.5	-79.0	2.3	0.00e+00	0	49	104	0	60	1048572
2026-01-17 13:00:26.57	315.09	0.78	-83.5	-79.0	2.2	0.00e+00	0	49	104	0	60	1048575
2026-01-17 13:00:27.58	314.97	0.73	-83.5	-79.0	2.4	0.00e+00	0	49	104	0	60	1048571
2026-01-17 13:00:28.59	314.85	0.68	-82.8	-79.0	2.4	0.00e+00	0	49	104	0	60	1048574
2026-01-17 13:00:29.59	314.74	0.64	-83.5	-79.0	2.5	0.00e+00	0	49	104	0	60	1048569
2026-01-17 13:00:30.60	314.62	0.59	-83.5	-79.0	2.2	0.00e+00	0	49	104	0	60	1048575
2026-01-17 13:00:31.60	314.50	0.54	-83.5	-79.0	2.5	0.00e+00	0	48	104	0	60	1048574
2026-01-17 13:00:32.61	314.38	0.49	-83.1	-79.0	2.3	0.00e+00	0	48	104	0	60	1048572
2026-01-17 13:00:33.62	314.27	0.44	-83.1	-79.0	2.3	0.00e+00	0	49	104	0	60	1048568
2026-01-17 13:00:34.63	314.15	0.40	-83.5	-79.0	2.6	0.00e+00	0	48	104	0	60	1048575
2026-01-17 13:00:35.64	314.03	0.35	-83.5	-79.0	2.5	0.00e+00	0	49	104	0	60	1048573
2026-01-17 13:00:36.65	313.92	0.30	-83.5	-79.0	2.3	0.00e+00	0	48	104	0	60	1048575
2026-01-17 13:00:37.65	313.80	0.25	-83.1	-79.0	2.4	0.00e+00	0	49	104	0	60	1048571
2026-01-17 13:00:38.66	313.69	0.20	-83.1	-79.0	2.3	0.00e+00	0	49	104	0	60	1048574
2026-01-17 13:00:39.66	313.58	0.16	-83.5	-79.0	2.5	0.00e+00	0	49	104	0	60	1048571
2026-01-17 13:00:40.67	313.46	0.11	-83.5	-79.0	2.4	0.00e+00	0	49	104	0	60	1048575
2026-01-17 13:00:41.68	313.35	0.06	-83.5	-79.0	2.4	0.00e+00	0	49	104	0	60	1048570
2026-01-17 13:00:42.68	313.24	0.01	-83.1	-79.0	2.4	0.00e+00	0	49	104	0	60	1048571
2026-01-17 13:00:43.69	313.12	-0.04	-83.5	-79.0	2.3	0.00e+00	0	48	104	0	60	1048573

#Closed at: 2026-01-17 13:00:44
#Recorded file [0 MB]: D:/Data/35015_260117_155207.dat