passes_logs/2026/01/17/R3.2S-Naryan-Mar/R3.2S-Naryan-Mar__20260117_094755_FENGYUN_3D_rec.log

#Pass ID: 20260117_094755_FENGYUN 3D
#Satellite: FENGYUN 3D
#Configuration: FENGYUN 3D
#almurnet v.1.7.20240730
#Start time: 2026-01-17 09:56:27

#Version: 2.2.20231116
#Station: R3.2S-Naryan-Mar
#Location: 53.008057 lon 67.646978 lat
#TLE: 1 43010U 17072A   26016.27214855  .00000192  00000+0  11235-3 0  9990
#TLE: 2 43010  98.9932 348.1078 0002365 105.5031 254.6406 14.19695933423435

#Time	Az	El	Level	Level2	SNR	BER	BlckErr	Temp	State	Recorded	gain1	gain2
2026-01-17 09:56:27.11	9.28	58.25	-83.5	-79.0	2.5	0.00e+00	0	48	0	0	60	1048571
2026-01-17 09:56:28.11	8.72	57.96	-85.2	-88.6	5.8	3.80e-01	0	48	0	0	60	1048574
2026-01-17 09:56:29.12	8.16	57.66	-84.7	-88.6	5.9	2.33e-01	0	48	0	0	60	1048572
2026-01-17 09:56:30.12	7.63	57.36	-84.7	-88.6	5.7	2.76e-01	0	48	0	0	60	1048574
2026-01-17 09:56:31.12	7.10	57.06	-84.7	-88.6	5.8	2.76e-01	0	48	0	0	60	1048575
2026-01-17 09:56:32.13	6.58	56.76	-84.7	-88.6	6.5	2.79e-01	0	48	0	0	60	1048575
2026-01-17 09:56:33.14	6.08	56.46	-84.7	-88.6	6.1	2.76e-01	0	48	0	0	60	1048573
2026-01-17 09:56:34.14	5.59	56.16	-85.2	-88.6	5.8	2.76e-01	0	48	0	0	60	1048575
2026-01-17 09:56:35.15	5.10	55.85	-84.7	-88.6	5.9	2.78e-01	0	48	0	0	60	1048567
2026-01-17 09:56:36.15	4.63	55.55	-84.7	-88.6	6.4	2.79e-01	0	48	0	0	60	1048575
2026-01-17 09:56:37.16	4.16	55.25	-84.7	-88.6	5.9	2.74e-01	0	48	0	0	60	1048573
2026-01-17 09:56:38.16	3.71	54.95	-84.7	-88.6	5.9	2.77e-01	0	48	0	0	60	1048572
2026-01-17 09:56:39.17	3.27	54.64	-84.7	-88.6	5.8	2.76e-01	0	48	0	0	60	1048574
2026-01-17 09:56:40.18	2.83	54.34	-84.7	-88.6	5.8	2.76e-01	0	48	0	0	60	1048572
2026-01-17 09:56:41.18	2.41	54.04	-84.7	-88.6	6.0	2.74e-01	0	48	0	0	60	1048573
2026-01-17 09:56:42.19	1.99	53.74	-84.7	-88.6	6.1	2.72e-01	0	48	0	0	60	1048573
2026-01-17 09:56:43.20	1.58	53.43	-85.2	-88.6	5.7	2.72e-01	0	48	0	0	60	1048575
2026-01-17 09:56:44.21	1.18	53.13	-84.7	-88.6	5.8	2.72e-01	0	48	0	0	60	1048575
2026-01-17 09:56:45.21	0.80	52.83	-85.2	-88.6	6.4	2.74e-01	0	48	0	0	60	1048571
2026-01-17 09:56:46.22	0.41	52.53	-84.7	-88.6	6.2	2.76e-01	0	48	0	0	60	1048569
2026-01-17 09:56:47.23	0.04	52.23	-85.2	-88.6	6.1	2.77e-01	0	48	0	0	60	1048570
2026-01-17 09:56:48.23	359.67	51.93	-84.7	-88.6	5.7	2.75e-01	0	48	0	0	60	1048571
2026-01-17 09:56:49.24	359.31	51.63	-84.7	-88.6	5.8	2.76e-01	0	48	0	0	60	1048567
2026-01-17 09:56:50.25	358.95	51.33	-84.7	-88.6	6.1	2.77e-01	0	48	0	0	60	1048572
2026-01-17 09:56:51.25	358.61	51.03	-84.7	-88.6	6.2	2.76e-01	0	48	0	0	60	1048572
2026-01-17 09:56:52.26	358.27	50.73	-85.2	-88.6	6.0	2.76e-01	0	48	0	0	60	1048575
2026-01-17 09:56:53.26	357.94	50.44	-85.2	-88.6	6.3	2.76e-01	0	48	0	0	60	1048570
2026-01-17 09:56:54.27	357.61	50.14	-84.7	-88.6	6.0	2.77e-01	0	48	0	0	60	1048575
2026-01-17 09:56:55.28	357.29	49.85	-84.7	-88.6	6.2	2.73e-01	0	48	0	0	60	1048573
2026-01-17 09:56:56.28	356.98	49.56	-85.2	-88.6	6.2	2.74e-01	0	48	0	0	60	1048568
2026-01-17 09:56:57.29	356.67	49.26	-84.7	-88.6	6.1	2.77e-01	0	48	0	0	60	1048575
2026-01-17 09:56:58.29	356.38	48.98	-84.7	-88.6	5.7	2.69e-01	0	48	0	0	60	1048574
2026-01-17 09:56:59.30	356.08	48.68	-84.7	-88.6	6.0	2.74e-01	0	48	0	0	60	1048575
2026-01-17 09:57:00.31	355.79	48.39	-84.7	-88.6	6.1	2.75e-01	0	48	0	0	60	1048575
2026-01-17 09:57:01.32	355.50	48.10	-85.2	-88.6	6.3	2.79e-01	0	48	0	0	60	1048575
2026-01-17 09:57:02.33	355.22	47.82	-85.2	-88.6	6.3	2.72e-01	0	48	0	0	60	1048575
2026-01-17 09:57:03.34	354.95	47.53	-85.2	-88.6	6.0	2.79e-01	0	48	0	0	60	1048572
2026-01-17 09:57:04.34	354.68	47.25	-84.7	-88.6	5.8	2.75e-01	0	48	0	0	60	1048575
2026-01-17 09:57:05.34	354.42	46.97	-84.7	-88.6	6.0	2.73e-01	0	48	0	0	60	1048575
2026-01-17 09:57:06.35	354.16	46.68	-84.7	-88.6	5.5	2.77e-01	0	48	0	0	60	1048575
2026-01-17 09:57:07.35	353.90	46.40	-85.2	-88.6	6.1	2.73e-01	0	48	0	0	60	1048575
2026-01-17 09:57:08.36	353.65	46.12	-84.7	-88.6	6.3	2.79e-01	0	48	0	0	60	1048575
2026-01-17 09:57:09.37	353.41	45.85	-84.7	-88.6	6.1	2.74e-01	0	48	0	0	60	1048572
2026-01-17 09:57:10.38	353.16	45.57	-84.7	-88.6	5.7	2.73e-01	0	48	0	0	60	1048574
2026-01-17 09:57:11.39	352.93	45.29	-85.2	-88.6	6.3	2.73e-01	0	48	0	0	60	1048569
2026-01-17 09:57:12.40	352.69	45.02	-84.7	-88.6	6.3	2.73e-01	0	48	0	0	60	1048570
2026-01-17 09:57:13.40	352.47	44.74	-84.7	-88.6	6.3	2.71e-01	0	48	0	0	60	1048575
2026-01-17 09:57:14.41	352.24	44.47	-84.7	-88.6	5.9	2.76e-01	0	48	0	0	60	1048575
2026-01-17 09:57:15.42	352.02	44.20	-85.2	-88.6	6.5	2.74e-01	0	48	0	0	60	1048569
2026-01-17 09:57:16.42	351.80	43.93	-85.2	-88.6	5.9	2.79e-01	0	48	0	0	60	1048573
2026-01-17 09:57:17.43	351.59	43.67	-84.7	-88.6	5.7	2.72e-01	0	48	0	0	60	1048575
2026-01-17 09:57:18.44	351.38	43.40	-85.2	-88.6	5.9	2.77e-01	0	48	0	0	60	1048574
2026-01-17 09:57:19.44	351.17	43.14	-84.7	-88.6	6.5	2.74e-01	0	48	0	0	60	1048574
2026-01-17 09:57:20.45	350.97	42.87	-84.7	-88.6	6.3	2.72e-01	0	48	0	0	60	1048573
2026-01-17 09:57:21.46	350.77	42.61	-84.7	-88.6	6.4	2.72e-01	0	48	0	0	60	1048575
2026-01-17 09:57:22.47	350.57	42.35	-85.2	-88.6	6.1	2.77e-01	0	48	0	0	60	1048573
2026-01-17 09:57:23.47	350.38	42.09	-84.7	-88.6	6.0	2.68e-01	0	48	0	0	60	1048574
2026-01-17 09:57:24.48	350.19	41.83	-84.7	-88.6	6.3	2.77e-01	0	48	0	0	60	1048571
2026-01-17 09:57:25.49	350.00	41.58	-85.2	-88.6	6.2	2.76e-01	0	48	0	0	60	1048575
2026-01-17 09:57:26.50	349.82	41.32	-85.2	-88.6	5.6	2.74e-01	0	48	0	0	60	1048569
2026-01-17 09:57:27.50	349.64	41.07	-84.7	-88.6	6.1	2.73e-01	0	48	0	0	60	1048574
2026-01-17 09:57:28.51	349.46	40.82	-84.7	-88.6	6.3	2.74e-01	0	48	0	0	60	1048573
2026-01-17 09:57:29.52	349.28	40.57	-84.7	-88.6	5.7	2.72e-01	0	48	0	0	60	1048573
2026-01-17 09:57:30.53	349.11	40.32	-85.2	-88.6	5.5	2.70e-01	0	48	0	0	60	1048575
2026-01-17 09:57:31.53	348.94	40.07	-84.7	-88.6	6.4	2.72e-01	0	48	0	0	60	1048575
2026-01-17 09:57:32.54	348.77	39.83	-84.7	-88.6	6.4	2.77e-01	0	48	0	0	60	1048571
2026-01-17 09:57:33.55	348.61	39.58	-84.7	-88.6	6.1	2.73e-01	0	48	0	0	60	1048573
2026-01-17 09:57:34.56	348.44	39.34	-83.9	-88.6	5.6	2.69e-01	0	48	0	0	60	1048575
2026-01-17 09:57:35.57	348.28	39.10	-84.7	-88.6	5.9	2.76e-01	0	48	0	0	60	1048572
2026-01-17 09:57:36.57	348.13	38.86	-84.7	-88.6	5.9	2.80e-01	0	48	0	0	60	1048575
2026-01-17 09:57:37.58	347.97	38.62	-84.7	-88.6	6.0	2.78e-01	0	48	0	0	60	1048574
2026-01-17 09:57:38.58	347.82	38.38	-85.2	-88.6	5.9	2.74e-01	0	48	0	0	60	1048575
2026-01-17 09:57:39.58	347.67	38.15	-85.2	-88.6	6.0	2.75e-01	0	48	0	0	60	1048572
2026-01-17 09:57:40.59	347.52	37.91	-84.7	-88.6	6.3	2.82e-01	0	48	0	0	60	1048574
2026-01-17 09:57:41.59	347.37	37.68	-84.7	-88.6	5.7	2.79e-01	0	48	0	0	60	1048575
2026-01-17 09:57:42.59	347.23	37.45	-84.7	-88.6	5.9	2.74e-01	0	48	0	0	60	1048573
2026-01-17 09:57:43.60	347.09	37.22	-84.7	-88.6	6.3	2.76e-01	0	48	0	0	60	1048575
2026-01-17 09:57:44.61	346.95	36.99	-84.3	-88.6	6.4	2.76e-01	0	48	0	0	60	1048575
2026-01-17 09:57:45.61	346.81	36.76	-85.2	-88.6	6.3	2.72e-01	0	48	0	0	60	1048575
2026-01-17 09:57:46.62	346.67	36.54	-84.7	-88.6	6.1	2.76e-01	0	48	0	0	60	1048575
2026-01-17 09:57:47.62	346.54	36.31	-84.7	-88.6	6.2	2.77e-01	0	47	0	0	60	1048570
2026-01-17 09:57:48.63	346.41	36.09	-84.7	-88.6	6.4	2.78e-01	0	48	0	0	60	1048575
2026-01-17 09:57:49.63	346.28	35.87	-84.3	-88.6	6.0	2.73e-01	0	48	0	0	60	1048574
2026-01-17 09:57:50.64	346.15	35.65	-84.7	-88.6	6.0	2.76e-01	0	48	0	0	60	1048572
2026-01-17 09:57:51.65	346.02	35.43	-84.7	-88.6	6.1	2.78e-01	0	48	0	0	60	1048575
2026-01-17 09:57:52.65	345.90	35.21	-84.7	-88.6	6.3	2.77e-01	0	48	0	0	60	1048574
2026-01-17 09:57:53.66	345.78	34.99	-85.2	-88.6	5.6	2.79e-01	0	48	0	0	60	1048575
2026-01-17 09:57:54.66	345.65	34.78	-85.2	-88.6	6.1	2.78e-01	0	47	0	0	60	1048572
2026-01-17 09:57:55.67	345.53	34.57	-85.2	-88.6	6.2	2.74e-01	0	47	0	0	60	1048573
2026-01-17 09:57:56.68	345.41	34.35	-84.7	-88.6	6.2	2.77e-01	0	47	0	0	60	1048575
2026-01-17 09:57:57.68	345.30	34.14	-84.7	-88.6	6.2	2.76e-01	0	47	0	0	60	1048575
2026-01-17 09:57:58.69	345.18	33.93	-84.7	-88.6	5.9	2.77e-01	0	47	0	0	60	1048575
2026-01-17 09:57:59.70	345.07	33.72	-84.7	-88.6	5.9	2.74e-01	0	48	0	0	60	1048572
2026-01-17 09:58:00.71	344.96	33.52	-85.2	-88.6	6.4	2.75e-01	0	48	0	0	60	1048572
2026-01-17 09:58:01.71	344.85	33.31	-84.7	-88.6	6.1	2.77e-01	0	47	0	0	60	1048569
2026-01-17 09:58:02.72	344.74	33.10	-84.7	-88.6	5.9	2.76e-01	0	48	0	0	60	1048572
2026-01-17 09:58:03.73	344.63	32.90	-84.7	-88.6	5.9	2.74e-01	0	47	0	0	60	1048573
2026-01-17 09:58:04.74	344.52	32.70	-85.2	-88.6	6.3	2.78e-01	0	47	0	0	60	1048572
2026-01-17 09:58:05.74	344.42	32.50	-84.7	-88.6	6.1	2.76e-01	0	47	0	0	60	1048575
2026-01-17 09:58:06.75	344.31	32.30	-85.2	-88.6	6.0	2.79e-01	0	47	0	0	60	1048574
2026-01-17 09:58:07.75	344.21	32.10	-84.7	-88.6	5.9	2.76e-01	0	47	0	0	60	1048575
2026-01-17 09:58:08.76	344.11	31.90	-85.2	-88.6	6.2	2.80e-01	0	47	0	0	60	1048575
2026-01-17 09:58:09.77	344.01	31.71	-84.7	-88.6	5.9	2.74e-01	0	47	0	0	60	1048573
2026-01-17 09:58:10.77	343.91	31.51	-84.7	-88.6	5.9	2.75e-01	0	47	0	0	60	1048573
2026-01-17 09:58:11.78	343.81	31.32	-84.7	-88.6	6.2	2.76e-01	0	47	0	0	60	1048572
2026-01-17 09:58:12.78	343.72	31.13	-84.7	-88.6	6.4	2.79e-01	0	47	0	0	60	1048574
2026-01-17 09:58:13.79	343.62	30.93	-85.2	-88.6	6.4	2.76e-01	0	47	0	0	60	1048574
2026-01-17 09:58:14.80	343.53	30.74	-85.2	-88.6	6.4	2.78e-01	0	48	0	0	60	1048573
2026-01-17 09:58:15.80	343.43	30.55	-84.7	-88.6	6.0	2.76e-01	0	47	0	0	60	1048574
2026-01-17 09:58:16.80	343.34	30.37	-84.7	-88.6	6.5	2.78e-01	0	48	0	0	60	1048573
2026-01-17 09:58:17.81	343.25	30.18	-85.2	-88.6	6.0	2.77e-01	0	47	0	0	60	1048570
2026-01-17 09:58:18.82	343.16	29.99	-84.7	-88.6	6.0	2.75e-01	0	48	0	0	60	1048575
2026-01-17 09:58:19.82	343.07	29.81	-85.2	-88.6	6.0	2.75e-01	0	47	0	0	60	1048573
2026-01-17 09:58:20.83	342.99	29.63	-84.7	-88.6	5.7	2.77e-01	0	47	0	0	60	1048575
2026-01-17 09:58:21.84	342.90	29.44	-84.7	-88.6	5.8	2.77e-01	0	48	0	0	60	1048572
2026-01-17 09:58:22.85	342.81	29.26	-84.7	-88.6	5.9	2.79e-01	0	47	0	0	60	1048575
2026-01-17 09:58:23.85	342.73	29.08	-85.2	-88.6	6.5	2.77e-01	0	48	0	0	60	1048574
2026-01-17 09:58:24.86	342.65	28.90	-84.7	-88.6	6.0	2.73e-01	0	48	0	0	60	1048575
2026-01-17 09:58:25.87	342.56	28.72	-84.7	-88.6	5.9	2.75e-01	0	47	0	0	60	1048575
2026-01-17 09:58:26.88	342.48	28.55	-84.7	-88.6	6.4	2.73e-01	0	47	0	0	60	1048575
2026-01-17 09:58:27.88	342.40	28.37	-85.2	-88.6	6.2	2.79e-01	0	48	0	0	60	1048575
2026-01-17 09:58:28.88	342.32	28.20	-84.7	-88.6	5.8	2.79e-01	0	47	0	0	60	1048574
2026-01-17 09:58:29.89	342.24	28.02	-84.7	-88.6	6.2	2.75e-01	0	47	0	0	60	1048568
2026-01-17 09:58:30.90	342.17	27.85	-84.7	-88.6	6.1	2.70e-01	0	47	0	0	60	1048572
2026-01-17 09:58:31.90	342.09	27.68	-84.7	-88.6	5.5	2.75e-01	0	48	0	0	60	1048575
2026-01-17 09:58:32.91	342.01	27.51	-84.7	-88.6	6.1	2.75e-01	0	47	0	0	60	1048575
2026-01-17 09:58:33.92	341.94	27.34	-84.7	-88.6	5.8	2.76e-01	0	47	0	0	60	1048575
2026-01-17 09:58:34.92	341.86	27.17	-84.7	-88.6	6.2	2.73e-01	0	47	0	0	60	1048574
2026-01-17 09:58:35.93	341.79	27.00	-85.2	-88.6	6.2	2.72e-01	0	48	0	0	60	1048573
2026-01-17 09:58:36.94	341.72	26.83	-85.2	-88.6	5.6	2.77e-01	0	48	0	0	60	1048572
2026-01-17 09:58:37.95	341.64	26.67	-84.7	-88.6	6.0	2.79e-01	0	47	0	0	60	1048574
2026-01-17 09:58:38.95	341.57	26.50	-84.7	-88.6	6.2	2.71e-01	0	47	0	0	60	1048572
2026-01-17 09:58:39.96	341.50	26.34	-84.7	-88.6	5.8	2.77e-01	0	47	0	0	60	1048573
2026-01-17 09:58:40.97	341.43	26.17	-84.7	-88.6	6.1	2.73e-01	0	47	0	0	60	1048575
2026-01-17 09:58:41.98	341.36	26.01	-84.7	-88.6	6.1	2.74e-01	0	47	0	0	60	1048573
2026-01-17 09:58:42.99	341.29	25.85	-85.2	-88.6	6.3	2.80e-01	0	47	0	0	60	1048571
2026-01-17 09:58:43.99	341.23	25.69	-85.2	-88.6	6.3	2.77e-01	0	47	0	0	60	1048575
2026-01-17 09:58:45.00	341.16	25.53	-84.7	-88.6	6.3	2.76e-01	0	47	0	0	60	1048574
2026-01-17 09:58:46.01	341.09	25.37	-84.7	-88.6	5.6	2.80e-01	0	47	0	0	60	1048570
2026-01-17 09:58:47.01	341.03	25.22	-85.2	-88.6	5.9	2.72e-01	0	47	0	0	60	1048575
2026-01-17 09:58:48.02	340.96	25.06	-84.7	-88.6	6.0	2.73e-01	0	47	0	0	60	1048562
2026-01-17 09:58:49.03	340.90	24.90	-84.7	-88.6	5.9	2.70e-01	0	47	0	0	60	1048571
2026-01-17 09:58:50.03	340.84	24.75	-84.7	-88.6	6.0	2.76e-01	0	47	0	0	60	1048575
2026-01-17 09:58:51.03	340.77	24.59	-84.7	-88.6	6.3	2.75e-01	0	47	0	0	60	1048573
2026-01-17 09:58:52.04	340.71	24.44	-85.2	-88.6	6.1	2.78e-01	0	47	0	0	60	1048568
2026-01-17 09:58:53.05	340.65	24.29	-84.7	-88.6	5.6	2.78e-01	0	47	0	0	60	1048575
2026-01-17 09:58:54.06	340.59	24.14	-84.7	-88.6	6.1	2.73e-01	0	47	0	0	60	1048570
2026-01-17 09:58:55.07	340.53	23.99	-84.7	-88.6	6.2	2.77e-01	0	47	0	0	60	1048569
2026-01-17 09:58:56.07	340.47	23.84	-85.2	-88.6	6.2	2.77e-01	0	47	0	0	60	1048574
2026-01-17 09:58:57.08	340.41	23.69	-85.2	-88.6	6.4	2.79e-01	0	47	0	0	60	1048573
2026-01-17 09:58:58.09	340.35	23.54	-84.7	-88.6	5.6	2.76e-01	0	47	0	0	60	1048573
2026-01-17 09:58:59.09	340.30	23.39	-84.7	-88.6	5.9	2.75e-01	0	47	0	0	60	1048574
2026-01-17 09:59:00.10	340.24	23.24	-84.7	-88.6	6.2	2.76e-01	0	47	0	0	60	1048572
2026-01-17 09:59:01.11	340.18	23.10	-84.7	-88.6	6.2	2.75e-01	0	47	0	0	60	1048574
2026-01-17 09:59:02.11	340.13	22.95	-85.2	-88.6	6.2	2.72e-01	0	47	0	0	60	1048575
2026-01-17 09:59:03.12	340.07	22.81	-84.7	-88.6	6.0	2.77e-01	0	47	0	0	60	1048573
2026-01-17 09:59:04.13	340.01	22.67	-84.7	-88.6	6.1	2.75e-01	0	47	0	0	60	1048572
2026-01-17 09:59:05.13	339.96	22.52	-84.7	-88.6	6.4	2.79e-01	0	47	0	0	60	1048575
2026-01-17 09:59:06.13	339.91	22.38	-85.2	-88.6	6.3	2.80e-01	0	47	0	0	60	1048574
2026-01-17 09:59:07.13	339.85	22.24	-85.2	-88.6	6.0	2.73e-01	0	47	0	0	60	1048574
2026-01-17 09:59:08.14	339.80	22.10	-84.7	-88.6	6.3	2.77e-01	0	47	0	0	60	1048573
2026-01-17 09:59:09.15	339.75	21.96	-84.7	-88.6	5.5	2.78e-01	0	47	0	0	60	1048575
2026-01-17 09:59:10.15	339.70	21.82	-84.7	-88.6	5.6	2.75e-01	0	47	0	0	60	1048572
2026-01-17 09:59:11.15	339.65	21.69	-85.2	-88.6	6.4	2.72e-01	0	47	0	0	60	1048574
2026-01-17 09:59:12.16	339.59	21.55	-84.7	-88.6	6.1	2.78e-01	0	47	0	0	60	1048573
2026-01-17 09:59:13.17	339.54	21.41	-84.7	-88.6	6.1	2.76e-01	0	47	0	0	60	1048574
2026-01-17 09:59:14.18	339.49	21.28	-85.2	-88.6	6.0	2.75e-01	0	47	0	0	60	1048563
2026-01-17 09:59:15.19	339.44	21.14	-84.7	-88.6	5.9	2.77e-01	0	47	0	0	60	1048572
2026-01-17 09:59:16.19	339.40	21.01	-84.7	-88.6	5.7	2.79e-01	0	47	0	0	60	1048573
2026-01-17 09:59:17.20	339.35	20.87	-84.7	-88.6	5.6	2.72e-01	0	47	0	0	60	1048575
2026-01-17 09:59:18.21	339.30	20.74	-84.7	-88.6	5.7	2.74e-01	0	47	0	0	60	1048572
2026-01-17 09:59:19.21	339.25	20.61	-85.2	-88.6	6.3	2.76e-01	0	47	0	0	60	1048575
2026-01-17 09:59:20.21	339.20	20.48	-84.7	-88.6	6.0	2.75e-01	0	47	0	0	60	1048575
2026-01-17 09:59:21.21	339.16	20.34	-84.7	-88.6	6.3	2.79e-01	0	47	0	0	60	1048573
2026-01-17 09:59:22.22	339.11	20.21	-84.7	-88.6	6.1	2.77e-01	0	47	0	0	60	1048570
2026-01-17 09:59:23.23	339.07	20.08	-85.2	-88.6	6.3	2.79e-01	0	47	0	0	60	1048575
2026-01-17 09:59:24.24	339.02	19.95	-84.7	-88.6	6.5	2.78e-01	0	47	0	0	60	1048575
2026-01-17 09:59:25.24	338.98	19.83	-84.7	-88.6	5.7	2.72e-01	0	47	0	0	60	1048571
2026-01-17 09:59:26.25	338.93	19.70	-84.7	-88.6	5.7	2.75e-01	0	47	0	0	60	1048572
2026-01-17 09:59:27.25	338.89	19.57	-84.7	-88.6	6.3	2.73e-01	0	47	0	0	60	1048575
2026-01-17 09:59:28.25	338.84	19.45	-84.7	-88.6	6.3	2.77e-01	0	47	0	0	60	1048574
2026-01-17 09:59:29.26	338.80	19.32	-84.7	-88.6	6.4	2.73e-01	0	47	0	0	60	1048575
2026-01-17 09:59:30.27	338.76	19.19	-84.7	-88.6	5.8	2.79e-01	0	47	0	0	60	1048575
2026-01-17 09:59:31.28	338.71	19.07	-85.2	-88.6	6.2	2.78e-01	0	47	0	0	60	1048573
2026-01-17 09:59:32.29	338.67	18.94	-84.7	-88.6	6.2	2.83e-01	0	47	0	0	60	1048574
2026-01-17 09:59:33.29	338.63	18.82	-84.7	-88.6	6.4	2.76e-01	0	47	0	0	60	1048575
2026-01-17 09:59:34.30	338.59	18.70	-84.7	-88.6	6.1	2.77e-01	0	47	0	0	60	1048569
2026-01-17 09:59:35.31	338.55	18.57	-84.7	-88.6	6.0	2.73e-01	0	47	0	0	60	1048566
2026-01-17 09:59:36.31	338.51	18.45	-84.7	-88.6	6.5	2.75e-01	0	47	0	0	60	1048574
2026-01-17 09:59:37.32	338.46	18.33	-84.7	-88.6	5.9	2.78e-01	0	47	0	0	60	1048568
2026-01-17 09:59:38.32	338.43	18.21	-84.7	-88.6	6.4	2.78e-01	0	47	0	0	60	1048573
2026-01-17 09:59:39.33	338.39	18.09	-84.7	-88.6	6.0	2.77e-01	0	47	0	0	60	1048573
2026-01-17 09:59:40.33	338.35	17.97	-84.7	-88.6	5.8	2.81e-01	0	47	0	0	60	1048572
2026-01-17 09:59:41.34	338.31	17.85	-84.7	-88.6	6.0	2.79e-01	0	47	0	0	60	1048575
2026-01-17 09:59:42.35	338.27	17.73	-85.2	-88.6	5.7	2.82e-01	0	47	0	0	60	1048574
2026-01-17 09:59:43.36	338.23	17.62	-85.2	-88.6	6.1	2.81e-01	0	47	0	0	60	1048575
2026-01-17 09:59:44.36	338.19	17.50	-85.2	-88.6	6.1	2.78e-01	0	47	0	0	60	1048572
2026-01-17 09:59:45.37	338.15	17.38	-84.7	-88.6	5.9	2.76e-01	0	47	0	0	60	1048571
2026-01-17 09:59:46.38	338.12	17.27	-84.7	-88.6	6.1	2.80e-01	0	47	0	0	60	1048570
2026-01-17 09:59:47.38	338.08	17.15	-84.7	-88.6	6.4	2.78e-01	0	47	0	0	60	1048573
2026-01-17 09:59:48.39	338.04	17.03	-83.5	-88.6	5.8	2.76e-01	0	47	0	0	60	1048571
2026-01-17 09:59:49.39	338.01	16.92	-85.2	-88.6	6.0	2.75e-01	0	47	0	0	60	1048575
2026-01-17 09:59:50.39	337.97	16.81	-84.7	-88.6	5.8	2.78e-01	0	47	0	0	60	1048573
2026-01-17 09:59:51.39	337.93	16.69	-84.7	-88.6	6.0	2.75e-01	0	47	0	0	60	1048575
2026-01-17 09:59:52.40	337.90	16.58	-85.2	-88.6	6.0	2.75e-01	0	47	0	0	60	1048575
2026-01-17 09:59:53.41	337.86	16.47	-85.2	-88.6	6.1	2.79e-01	0	47	0	0	60	1048573
2026-01-17 09:59:54.41	337.83	16.36	-85.2	-88.6	5.8	2.76e-01	0	47	0	0	60	1048571
2026-01-17 09:59:55.42	337.79	16.24	-84.7	-88.6	6.4	2.75e-01	0	47	0	0	60	1048573
2026-01-17 09:59:56.43	337.76	16.13	-84.7	-88.6	6.0	2.74e-01	0	47	0	0	60	1048572
2026-01-17 09:59:57.44	337.72	16.02	-84.7	-88.6	5.9	2.74e-01	0	47	0	0	60	1048571
2026-01-17 09:59:58.44	337.69	15.91	-84.7	-88.6	5.9	2.71e-01	0	47	0	0	60	1048575
2026-01-17 09:59:59.45	337.66	15.80	-85.2	-88.6	5.8	2.77e-01	0	47	0	0	60	1048572
2026-01-17 10:00:00.45	337.62	15.69	-84.7	-88.6	6.1	2.74e-01	0	47	0	0	60	1048574
2026-01-17 10:00:01.46	337.59	15.59	-84.7	-88.6	5.7	2.71e-01	0	47	0	0	60	1048575
2026-01-17 10:00:02.47	337.56	15.48	-84.7	-88.6	6.0	2.76e-01	0	47	0	0	60	1048575
2026-01-17 10:00:03.48	337.53	15.37	-85.2	-88.6	6.6	2.73e-01	0	47	0	0	60	1048575
2026-01-17 10:00:04.48	337.49	15.26	-84.7	-88.6	5.8	2.76e-01	0	47	0	0	60	1048574
2026-01-17 10:00:05.49	337.46	15.16	-84.7	-88.6	6.1	2.73e-01	0	47	0	0	60	1048574
2026-01-17 10:00:06.50	337.43	15.05	-84.7	-88.6	5.7	2.76e-01	0	47	0	0	60	1048575
2026-01-17 10:00:07.50	337.40	14.94	-84.7	-88.6	6.3	2.78e-01	0	47	0	0	60	1048574
2026-01-17 10:00:08.51	337.37	14.84	-84.7	-88.6	6.3	2.77e-01	0	47	0	0	60	1048572
2026-01-17 10:00:09.52	337.34	14.73	-84.7	-88.6	5.9	2.76e-01	0	47	0	0	60	1048573
2026-01-17 10:00:10.53	337.31	14.63	-84.7	-88.6	6.0	2.76e-01	0	47	0	0	60	1048570
2026-01-17 10:00:11.53	337.28	14.52	-84.7	-88.6	6.4	2.73e-01	0	47	0	0	60	1048575
2026-01-17 10:00:12.54	337.24	14.42	-85.2	-88.6	6.1	2.78e-01	0	47	0	0	60	1048575
2026-01-17 10:00:13.55	337.21	14.32	-84.7	-88.6	6.1	2.76e-01	0	47	0	0	60	1048575
2026-01-17 10:00:14.56	337.18	14.21	-84.7	-88.6	5.9	2.79e-01	0	47	0	0	60	1048573
2026-01-17 10:00:15.56	337.16	14.11	-84.7	-88.6	6.3	2.75e-01	0	47	0	0	60	1048574
2026-01-17 10:00:16.57	337.13	14.01	-84.7	-88.6	6.3	2.78e-01	0	47	0	0	60	1048575
2026-01-17 10:00:17.58	337.10	13.91	-84.7	-88.6	5.9	2.76e-01	0	47	0	0	60	1048575
2026-01-17 10:00:18.59	337.07	13.81	-84.7	-88.6	5.9	2.78e-01	0	47	0	0	60	1048575
2026-01-17 10:00:19.59	337.04	13.71	-84.7	-88.6	6.2	2.75e-01	0	47	0	0	60	1048575
2026-01-17 10:00:20.60	337.01	13.61	-84.7	-88.6	6.5	2.77e-01	0	47	0	0	60	1048571
2026-01-17 10:00:21.61	336.98	13.51	-84.7	-88.6	6.1	2.77e-01	0	47	0	0	60	1048574
2026-01-17 10:00:22.62	336.95	13.41	-84.7	-88.6	5.8	2.76e-01	0	47	0	0	60	1048575
2026-01-17 10:00:23.63	336.93	13.31	-85.2	-88.6	6.1	2.77e-01	0	47	0	0	60	1048572
2026-01-17 10:00:24.63	336.90	13.21	-84.7	-88.6	5.7	2.78e-01	0	47	0	0	60	1048573
2026-01-17 10:00:25.63	336.87	13.11	-84.7	-88.6	6.0	2.80e-01	0	47	0	0	60	1048571
2026-01-17 10:00:26.64	336.85	13.01	-84.7	-88.6	6.0	2.81e-01	0	47	0	0	60	1048574
2026-01-17 10:00:27.65	336.82	12.91	-84.7	-88.6	6.4	2.78e-01	0	47	0	0	60	1048571
2026-01-17 10:00:28.65	336.79	12.82	-84.7	-88.6	6.5	2.75e-01	0	47	0	0	60	1048573
2026-01-17 10:00:29.65	336.77	12.72	-84.7	-88.6	5.8	2.76e-01	0	47	0	0	60	1048575
2026-01-17 10:00:30.66	336.74	12.62	-84.7	-88.6	6.0	2.73e-01	0	47	0	0	60	1048573
2026-01-17 10:00:31.67	336.71	12.53	-84.7	-88.6	6.2	2.76e-01	0	47	0	0	60	1048570
2026-01-17 10:00:32.68	336.69	12.43	-84.7	-88.6	6.1	2.77e-01	0	47	0	0	60	1048575
2026-01-17 10:00:33.68	336.66	12.34	-84.7	-88.6	5.9	2.74e-01	0	47	0	0	60	1048574
2026-01-17 10:00:34.69	336.64	12.24	-84.7	-88.6	6.0	2.77e-01	0	47	0	0	60	1048573
2026-01-17 10:00:35.70	336.61	12.15	-85.2	-88.6	6.1	2.79e-01	0	47	0	0	60	1048573
2026-01-17 10:00:36.71	336.58	12.05	-84.7	-88.6	5.9	2.77e-01	0	47	0	0	60	1048573
2026-01-17 10:00:37.72	336.56	11.96	-84.7	-88.6	6.3	2.79e-01	0	47	0	0	60	1048575
2026-01-17 10:00:38.72	336.54	11.87	-84.7	-88.6	5.4	2.78e-01	0	47	0	0	60	1048574
2026-01-17 10:00:39.73	336.51	11.77	-84.7	-88.6	6.1	2.80e-01	0	47	0	0	60	1048575
2026-01-17 10:00:40.74	336.49	11.68	-85.2	-88.6	6.3	2.77e-01	0	47	0	0	60	1048574
2026-01-17 10:00:41.74	336.46	11.59	-85.2	-88.6	6.4	2.80e-01	0	47	0	0	60	1048574
2026-01-17 10:00:42.74	336.44	11.50	-85.2	-88.6	6.4	2.78e-01	0	47	0	0	60	1048575
2026-01-17 10:00:43.75	336.41	11.40	-84.7	-88.6	6.3	2.82e-01	0	47	0	0	60	1048575
2026-01-17 10:00:44.76	336.39	11.31	-84.7	-88.6	6.2	2.78e-01	0	47	0	0	60	1048574
2026-01-17 10:00:45.76	336.37	11.22	-84.7	-88.6	5.5	2.80e-01	0	47	0	0	60	1048571
2026-01-17 10:00:46.77	336.34	11.13	-84.7	-88.6	6.4	2.76e-01	0	47	0	0	60	1048566
2026-01-17 10:00:47.78	336.32	11.04	-84.7	-88.6	6.0	2.77e-01	0	47	0	0	60	1048570
2026-01-17 10:00:48.79	336.30	10.95	-84.7	-88.6	6.0	2.73e-01	0	47	0	0	60	1048574
2026-01-17 10:00:49.79	336.27	10.86	-84.7	-88.6	5.9	2.82e-01	0	47	0	0	60	1048575
2026-01-17 10:00:50.80	336.25	10.77	-84.7	-88.6	6.4	2.77e-01	0	47	0	0	60	1048575
2026-01-17 10:00:51.81	336.23	10.68	-85.2	-88.6	6.4	2.78e-01	0	47	0	0	60	1048572
2026-01-17 10:00:52.82	336.21	10.59	-84.7	-88.6	6.5	2.75e-01	0	47	0	0	60	1048575
2026-01-17 10:00:53.83	336.18	10.50	-84.7	-88.6	6.3	2.74e-01	0	47	0	0	60	1048574
2026-01-17 10:00:54.84	336.16	10.41	-85.2	-88.6	5.9	2.77e-01	0	47	0	0	60	1048568
2026-01-17 10:00:55.84	336.14	10.33	-84.7	-88.6	6.5	2.75e-01	0	47	0	0	60	1048575
2026-01-17 10:00:56.85	336.12	10.24	-84.7	-88.6	5.8	2.76e-01	0	47	0	0	60	1048574
2026-01-17 10:00:57.86	336.10	10.15	-84.7	-88.6	5.9	2.72e-01	0	47	0	0	60	1048575
2026-01-17 10:00:58.86	336.08	10.07	-85.2	-88.6	6.4	2.75e-01	0	47	0	0	60	1048570
2026-01-17 10:00:59.87	336.05	9.98	-85.2	-88.6	6.4	2.73e-01	0	47	0	0	60	1048569
2026-01-17 10:01:00.87	336.03	9.89	-84.7	-88.6	6.2	2.76e-01	0	47	0	0	60	1048574
2026-01-17 10:01:01.88	336.01	9.81	-84.7	-88.6	5.8	2.76e-01	0	47	0	0	60	1048573
2026-01-17 10:01:02.88	335.99	9.72	-84.7	-88.6	6.1	2.76e-01	0	47	0	0	60	1048569
2026-01-17 10:01:03.89	335.97	9.64	-84.7	-88.6	6.1	2.76e-01	0	47	0	0	60	1048574
2026-01-17 10:01:04.90	335.95	9.55	-84.7	-88.6	5.7	2.78e-01	0	47	0	0	60	1048571
2026-01-17 10:01:05.91	335.93	9.46	-84.7	-88.6	5.8	2.80e-01	0	47	0	0	60	1048570
2026-01-17 10:01:06.91	335.91	9.38	-84.7	-88.6	6.1	2.81e-01	0	47	0	0	60	1048573
2026-01-17 10:01:07.92	335.89	9.30	-84.7	-88.6	6.2	2.80e-01	0	47	0	0	60	1048574
2026-01-17 10:01:08.93	335.87	9.21	-84.7	-88.6	5.7	2.77e-01	0	47	0	0	60	1048575
2026-01-17 10:01:09.94	335.85	9.13	-85.2	-88.6	5.8	2.72e-01	0	47	0	0	60	1048575
2026-01-17 10:01:10.95	335.83	9.04	-85.2	-88.6	6.4	2.75e-01	0	47	0	0	60	1048574
2026-01-17 10:01:11.96	335.81	8.96	-84.7	-88.6	6.5	2.70e-01	0	47	0	0	60	1048574
2026-01-17 10:01:12.96	335.79	8.88	-84.7	-88.6	5.7	2.78e-01	0	47	0	0	60	1048574
2026-01-17 10:01:13.97	335.77	8.79	-84.7	-88.6	5.6	2.75e-01	0	47	0	0	60	1048574
2026-01-17 10:01:14.98	335.75	8.71	-84.7	-88.6	6.2	2.77e-01	0	47	0	0	60	1048571
2026-01-17 10:01:15.99	335.73	8.63	-84.7	-88.6	6.4	2.72e-01	0	47	0	0	60	1048575
2026-01-17 10:01:16.99	335.71	8.55	-84.7	-88.6	5.9	2.73e-01	0	47	0	0	60	1048571
2026-01-17 10:01:18.00	335.70	8.47	-85.2	-88.6	6.2	2.78e-01	0	47	0	0	60	1048575
2026-01-17 10:01:19.01	335.68	8.38	-84.7	-88.6	6.4	2.75e-01	0	47	0	0	60	1048564
2026-01-17 10:01:20.01	335.66	8.30	-85.2	-88.6	5.9	2.68e-01	0	47	0	0	60	1048570
2026-01-17 10:01:21.01	335.64	8.22	-84.7	-88.6	6.2	2.74e-01	0	47	0	0	60	1048573
2026-01-17 10:01:22.02	335.62	8.14	-84.7	-88.6	6.0	2.73e-01	0	47	0	0	60	1048572
2026-01-17 10:01:23.03	335.60	8.06	-85.2	-88.6	5.9	2.78e-01	0	47	0	0	60	1048574
2026-01-17 10:01:24.04	335.59	7.98	-84.7	-88.6	6.2	2.77e-01	0	47	0	0	60	1048572
2026-01-17 10:01:25.05	335.57	7.90	-84.7	-88.6	6.1	2.74e-01	0	47	0	0	60	1048574
2026-01-17 10:01:26.05	335.55	7.82	-84.7	-88.6	6.0	2.77e-01	0	47	0	0	60	1048575
2026-01-17 10:01:27.06	335.53	7.74	-84.7	-88.6	6.1	2.74e-01	0	47	0	0	60	1048573
2026-01-17 10:01:28.07	335.52	7.66	-84.7	-88.6	6.3	2.75e-01	0	47	0	0	60	1048574
2026-01-17 10:01:29.08	335.50	7.58	-85.2	-88.6	5.7	2.76e-01	0	47	0	0	60	1048575
2026-01-17 10:01:30.09	335.48	7.51	-84.7	-88.6	6.0	2.74e-01	0	47	0	0	60	1048574
2026-01-17 10:01:31.09	335.46	7.43	-84.7	-88.6	6.1	2.77e-01	0	47	0	0	60	1048574
2026-01-17 10:01:32.10	335.45	7.35	-84.7	-88.6	6.0	2.73e-01	0	47	0	0	60	1048575
2026-01-17 10:01:33.11	335.43	7.27	-85.2	-88.6	6.0	2.78e-01	0	47	0	0	60	1048575
2026-01-17 10:01:34.12	335.41	7.19	-84.7	-88.6	5.6	2.77e-01	0	47	0	0	60	1048575
2026-01-17 10:01:35.13	335.40	7.12	-84.7	-88.6	6.2	2.74e-01	0	47	0	0	60	1048572
2026-01-17 10:01:36.14	335.38	7.04	-84.7	-88.6	6.4	2.75e-01	0	47	0	0	60	1048575
2026-01-17 10:01:37.15	335.36	6.96	-84.7	-88.6	6.6	2.76e-01	0	47	0	0	60	1048575
2026-01-17 10:01:38.15	335.35	6.88	-85.2	-88.6	6.0	2.72e-01	0	47	0	0	60	1048571
2026-01-17 10:01:39.16	335.33	6.81	-84.7	-88.6	5.9	2.80e-01	0	47	0	0	60	1048574
2026-01-17 10:01:40.17	335.31	6.73	-84.7	-88.6	6.0	2.81e-01	0	47	0	0	60	1048573
2026-01-17 10:01:41.18	335.30	6.65	-84.7	-88.6	6.1	2.76e-01	0	47	0	0	60	1048575
2026-01-17 10:01:42.19	335.28	6.58	-85.2	-88.6	6.3	2.78e-01	0	47	0	0	60	1048575
2026-01-17 10:01:43.20	335.27	6.50	-84.7	-88.6	6.1	2.75e-01	0	47	0	0	60	1048571
2026-01-17 10:01:44.20	335.25	6.43	-84.7	-88.6	6.2	2.77e-01	0	47	0	0	60	1048573
2026-01-17 10:01:45.21	335.23	6.35	-84.7	-88.6	5.9	2.78e-01	0	47	0	0	60	1048575
2026-01-17 10:01:46.22	335.22	6.28	-84.7	-88.6	5.9	2.73e-01	0	47	0	0	60	1048574
2026-01-17 10:01:47.23	335.20	6.20	-84.7	-88.6	5.6	2.80e-01	0	47	0	0	60	1048573
2026-01-17 10:01:48.23	335.19	6.13	-85.2	-88.6	5.6	2.81e-01	0	47	0	0	60	1048575
2026-01-17 10:01:49.24	335.17	6.05	-84.7	-88.6	6.2	2.77e-01	0	47	0	0	60	1048569
2026-01-17 10:01:50.24	335.16	5.98	-84.7	-88.6	6.4	2.78e-01	0	47	0	0	60	1048575
2026-01-17 10:01:51.24	335.14	5.91	-84.7	-88.6	5.5	2.77e-01	0	47	0	0	60	1048575
2026-01-17 10:01:52.25	335.13	5.83	-84.7	-88.6	6.0	2.76e-01	0	47	0	0	60	1048575
2026-01-17 10:01:53.26	335.11	5.76	-84.7	-88.6	6.0	2.78e-01	0	47	0	0	60	1048573
2026-01-17 10:01:54.27	335.10	5.68	-84.7	-88.6	5.7	2.77e-01	0	47	0	0	60	1048573
2026-01-17 10:01:55.27	335.08	5.61	-84.7	-88.6	5.8	2.75e-01	0	47	0	0	60	1048573
2026-01-17 10:01:56.28	335.07	5.54	-84.7	-88.6	5.8	2.76e-01	0	47	0	0	60	1048574
2026-01-17 10:01:57.28	335.05	5.47	-84.7	-88.6	6.2	2.79e-01	0	47	0	0	60	1048575
2026-01-17 10:01:58.28	335.04	5.39	-85.2	-88.6	6.3	2.79e-01	0	47	0	0	60	1048563
2026-01-17 10:01:59.29	335.03	5.32	-85.2	-88.6	6.5	2.79e-01	0	47	0	0	60	1048574
2026-01-17 10:02:00.30	335.01	5.25	-85.2	-88.6	6.4	2.80e-01	0	47	0	0	60	1048575
2026-01-17 10:02:01.31	335.00	5.18	-84.7	-88.6	6.4	2.79e-01	0	47	0	0	60	1048574
2026-01-17 10:02:02.32	334.98	5.11	-84.7	-88.6	6.5	2.77e-01	0	47	0	0	60	1048575
2026-01-17 10:02:03.32	334.97	5.03	-85.2	-88.6	6.1	2.77e-01	0	47	0	0	60	1048574
2026-01-17 10:02:04.33	334.96	4.96	-84.7	-88.6	5.7	2.78e-01	0	47	0	0	60	1048571
2026-01-17 10:02:05.34	334.94	4.89	-85.2	-88.6	6.2	2.74e-01	0	47	0	0	60	1048575
2026-01-17 10:02:06.35	334.93	4.82	-84.7	-88.6	5.8	2.76e-01	0	47	0	0	60	1048570
2026-01-17 10:02:07.35	334.91	4.75	-84.7	-88.6	6.0	2.77e-01	0	47	0	0	60	1048574
2026-01-17 10:02:08.36	334.90	4.68	-85.2	-88.6	5.6	2.73e-01	0	47	0	0	60	1048571
2026-01-17 10:02:09.37	334.89	4.61	-84.7	-88.6	5.8	2.77e-01	0	47	0	0	60	1048575
2026-01-17 10:02:10.38	334.87	4.54	-83.9	-88.6	6.2	2.74e-01	0	47	0	0	60	1048569
2026-01-17 10:02:11.38	334.86	4.47	-84.7	-88.6	6.2	2.80e-01	0	47	0	0	60	1048575
2026-01-17 10:02:12.38	334.85	4.40	-84.7	-88.6	5.4	2.78e-01	0	47	0	0	60	1048571
2026-01-17 10:02:13.39	334.84	4.33	-84.7	-88.6	5.6	2.79e-01	0	47	0	0	60	1048574
2026-01-17 10:02:14.40	334.82	4.26	-84.7	-88.6	6.1	2.79e-01	0	47	0	0	60	1048575
2026-01-17 10:02:15.41	334.81	4.19	-85.2	-88.6	5.8	2.76e-01	0	47	0	0	60	1048567
2026-01-17 10:02:16.41	334.80	4.12	-84.7	-88.6	6.3	2.78e-01	0	47	0	0	60	1048574
2026-01-17 10:02:17.42	334.78	4.05	-84.7	-88.6	5.8	2.75e-01	0	47	0	0	60	1048575
2026-01-17 10:02:18.43	334.77	3.98	-84.7	-88.6	5.9	2.78e-01	0	47	0	0	60	1048573
2026-01-17 10:02:19.43	334.76	3.91	-84.7	-88.6	6.0	2.74e-01	0	47	0	0	60	1048575
2026-01-17 10:02:20.43	334.75	3.85	-84.7	-88.6	5.8	2.73e-01	0	47	0	0	60	1048573
2026-01-17 10:02:21.44	334.73	3.78	-84.7	-88.6	6.5	2.72e-01	0	47	0	0	60	1048575
2026-01-17 10:02:22.45	334.72	3.71	-84.7	-88.6	6.4	2.76e-01	0	47	0	0	60	1048572
2026-01-17 10:02:23.45	334.71	3.64	-84.7	-88.6	6.4	2.78e-01	0	47	0	0	60	1048575
2026-01-17 10:02:24.46	334.70	3.57	-84.3	-88.6	5.8	2.73e-01	0	47	0	0	60	1048573
2026-01-17 10:02:25.47	334.69	3.51	-83.5	-88.6	5.3	2.80e-01	0	47	0	0	60	1048573
2026-01-17 10:02:26.47	334.67	3.44	-85.2	-88.6	6.2	2.81e-01	0	47	0	0	60	1048575
2026-01-17 10:02:27.48	334.66	3.37	-84.7	-88.6	6.5	2.74e-01	0	47	0	0	60	1048575
2026-01-17 10:02:28.48	334.65	3.30	-84.7	-88.6	5.8	2.76e-01	0	47	0	0	60	1048572
2026-01-17 10:02:29.49	334.64	3.24	-84.7	-88.6	6.4	2.80e-01	0	47	0	0	60	1048572
2026-01-17 10:02:30.50	334.63	3.17	-85.2	-88.6	6.1	2.80e-01	0	47	0	0	60	1048575
2026-01-17 10:02:31.51	334.61	3.10	-84.7	-88.6	5.8	2.78e-01	0	47	0	0	60	1048570
2026-01-17 10:02:32.51	334.60	3.04	-84.7	-88.6	5.9	2.80e-01	0	47	0	0	60	1048574
2026-01-17 10:02:33.52	334.59	2.97	-84.7	-88.6	5.6	2.75e-01	0	47	0	0	60	1048573
2026-01-17 10:02:34.53	334.58	2.90	-84.7	-88.6	6.0	2.79e-01	0	47	0	0	60	1048575
2026-01-17 10:02:35.53	334.57	2.84	-84.7	-88.6	6.1	2.77e-01	0	47	0	0	60	1048574
2026-01-17 10:02:36.54	334.56	2.77	-85.2	-88.6	3.0	7.64e-01	0	47	104	0	60	1048573
2026-01-17 10:02:37.55	334.55	2.71	-84.7	-88.6	3.8	7.62e-01	0	47	104	0	60	1048574
2026-01-17 10:02:38.55	334.53	2.64	-85.2	-88.6	3.4	7.64e-01	0	47	104	0	60	1048572
2026-01-17 10:02:39.55	334.52	2.58	-85.2	-88.6	2.8	7.64e-01	0	47	104	0	60	1048571
2026-01-17 10:02:40.56	334.51	2.51	-83.5	-88.6	3.0	7.63e-01	0	47	104	0	60	1048574
2026-01-17 10:02:41.56	334.50	2.45	-85.2	-88.6	3.7	7.62e-01	0	47	104	0	60	1048575
2026-01-17 10:02:42.57	334.49	2.38	-84.7	-88.6	2.9	7.64e-01	0	47	104	0	60	1048570
2026-01-17 10:02:43.58	334.48	2.32	-85.2	-88.6	2.9	7.63e-01	0	47	104	0	60	1048575
2026-01-17 10:02:44.59	334.47	2.25	-85.2	-88.6	3.2	7.64e-01	0	47	104	0	60	1048571
2026-01-17 10:02:45.60	334.46	2.19	-85.2	-88.6	3.1	7.65e-01	0	47	104	0	60	1048566
2026-01-17 10:02:46.60	334.45	2.12	-85.2	-88.6	3.0	7.62e-01	0	47	104	0	60	1048575
2026-01-17 10:02:47.61	334.44	2.06	-84.7	-88.6	3.4	7.63e-01	0	47	104	0	60	1048573
2026-01-17 10:02:48.62	334.43	1.99	-85.2	-88.6	3.4	7.63e-01	0	47	104	0	60	1048575
2026-01-17 10:02:49.62	334.42	1.93	-85.2	-88.6	3.4	7.63e-01	0	47	104	0	60	1048564
2026-01-17 10:02:50.63	334.41	1.87	-84.3	-88.6	3.0	7.64e-01	0	47	104	0	60	1048573
2026-01-17 10:02:51.64	334.40	1.80	-85.2	-88.6	3.7	7.63e-01	0	47	104	0	60	1048575
2026-01-17 10:02:52.65	334.39	1.74	-84.7	-88.6	2.9	7.62e-01	0	47	104	0	60	1048573
2026-01-17 10:02:53.65	334.38	1.67	-85.2	-88.6	3.1	7.63e-01	0	47	104	0	60	1048572
2026-01-17 10:02:54.65	334.37	1.61	-85.2	-88.6	3.3	7.62e-01	0	47	104	0	60	1048571
2026-01-17 10:02:55.66	334.36	1.55	-85.2	-88.6	3.5	7.63e-01	0	47	104	0	60	1048575
2026-01-17 10:02:56.66	334.35	1.49	-84.7	-88.6	2.8	7.63e-01	0	47	104	0	60	1048570
2026-01-17 10:02:57.67	334.34	1.42	-85.2	-88.6	3.0	7.65e-01	0	47	104	0	60	1048572
2026-01-17 10:02:58.67	334.33	1.36	-85.2	-88.6	3.4	7.63e-01	0	47	104	0	60	1048573
2026-01-17 10:02:59.68	334.32	1.30	-84.7	-88.6	3.1	7.63e-01	0	47	104	0	60	1048574
2026-01-17 10:03:00.68	334.31	1.24	-85.2	-88.6	3.4	7.63e-01	0	47	104	0	60	1048573
2026-01-17 10:03:01.69	334.30	1.17	-84.7	-88.6	3.1	7.62e-01	0	47	104	0	60	1048575
2026-01-17 10:03:02.69	334.29	1.11	-85.2	-88.6	3.0	7.63e-01	0	47	104	0	60	1048571
2026-01-17 10:03:03.70	334.28	1.05	-85.2	-88.6	2.7	7.62e-01	0	47	104	0	60	1048572
2026-01-17 10:03:04.70	334.27	0.99	-85.2	-88.6	3.0	7.64e-01	0	47	104	0	60	1048572
2026-01-17 10:03:05.71	334.26	0.92	-84.7	-88.6	3.1	7.63e-01	0	47	104	0	60	1048572
2026-01-17 10:03:06.71	334.25	0.86	-85.2	-88.6	3.6	7.60e-01	0	47	104	0	60	1048574
2026-01-17 10:03:07.72	334.24	0.80	-85.2	-88.6	3.3	7.64e-01	0	47	104	0	60	1048573
2026-01-17 10:03:08.72	334.23	0.74	-85.2	-88.6	3.6	7.63e-01	0	47	104	0	60	1048575
2026-01-17 10:03:09.73	334.22	0.68	-85.2	-88.6	2.6	7.64e-01	0	47	104	0	60	1048575
2026-01-17 10:03:10.73	334.21	0.62	-84.7	-88.6	3.0	7.64e-01	0	47	104	0	60	1048575
2026-01-17 10:03:11.74	334.20	0.56	-85.2	-88.6	3.3	7.63e-01	0	47	104	0	60	1048574
2026-01-17 10:03:12.75	334.19	0.50	-85.2	-88.6	3.3	7.63e-01	0	47	104	0	60	1048572
2026-01-17 10:03:13.75	334.19	0.44	-85.2	-88.6	3.0	7.62e-01	0	47	104	0	60	1048572
2026-01-17 10:03:14.76	334.18	0.37	-85.2	-88.6	2.9	7.64e-01	0	47	104	0	60	1048570
2026-01-17 10:03:15.76	334.17	0.31	-84.7	-88.6	3.4	7.64e-01	0	47	104	0	60	1048575
2026-01-17 10:03:16.77	334.16	0.25	-85.2	-88.6	3.3	7.61e-01	0	47	104	0	60	1048575
2026-01-17 10:03:17.77	334.15	0.19	-85.2	-88.6	3.0	7.63e-01	0	47	104	0	60	1048575
2026-01-17 10:03:18.78	334.14	0.13	-85.2	-88.6	3.2	7.63e-01	0	47	104	0	60	1048574
2026-01-17 10:03:19.79	334.13	0.07	-85.2	-88.6	3.1	7.64e-01	0	47	104	0	60	1048570
2026-01-17 10:03:20.79	334.12	0.01	-84.7	-88.6	3.4	7.64e-01	0	47	104	0	60	1048573
2026-01-17 10:03:21.80	334.12	-0.05	-85.2	-88.6	3.1	7.63e-01	0	47	104	0	60	1048574
2026-01-17 10:03:22.80	334.11	-0.11	-85.2	-88.6	2.9	7.63e-01	0	47	104	0	60	1048575

#Closed at: 2026-01-17 10:03:23
#Recorded file [0 MB]: D:/Data/35015_260117_125627.dat