passes_logs/2026/01/17/R3.2S-Naryan-Mar/R3.2S-Naryan-Mar__20260117_233159_FENGYUN_3D_rec.log

#Pass ID: 20260117_233159_FENGYUN 3D
#Satellite: FENGYUN 3D
#Configuration: FENGYUN 3D
#almurnet v.1.7.20240730
#Start time: 2026-01-17 23:33:58

#Version: 2.2.20231116
#Station: R3.2S-Naryan-Mar
#Location: 53.008057 lon 67.646978 lat
#TLE: 1 43010U 17072A   26017.25882587  .00000461  00000+0  23963-3 0  9992
#TLE: 2 43010  98.9934 349.1096 0002357 104.0487 256.0951 14.19697152423579

#Time	Az	El	Level	Level2	SNR	BER	BlckErr	Temp	State	Recorded	gain1	gain2
2026-01-17 23:33:58.17	26.06	7.16	-84.3	-88.8	2.0	3.11e+01	0	47	0	0	60	1048574
2026-01-17 23:33:59.16	26.14	7.23	-85.2	-88.6	6.0	2.90e-01	0	47	0	0	60	1048574
2026-01-17 23:34:00.17	26.22	7.29	-85.2	-88.6	6.3	2.77e-01	0	47	0	0	60	1048574
2026-01-17 23:34:01.17	26.30	7.36	-84.7	-88.6	5.9	2.80e-01	0	47	0	0	60	1048575
2026-01-17 23:34:02.18	26.38	7.43	-85.2	-88.6	5.6	2.77e-01	0	47	0	0	60	1048573
2026-01-17 23:34:03.19	26.47	7.50	-84.7	-88.6	6.4	2.76e-01	0	47	0	0	60	1048572
2026-01-17 23:34:04.20	26.55	7.57	-84.7	-88.6	5.7	2.83e-01	0	47	0	0	60	1048572
2026-01-17 23:34:05.20	26.63	7.64	-84.7	-88.6	5.8	2.82e-01	0	47	0	0	60	1048574
2026-01-17 23:34:06.21	26.72	7.70	-84.7	-88.6	6.7	2.82e-01	0	47	0	0	60	1048571
2026-01-17 23:34:07.22	26.80	7.77	-84.7	-88.6	6.4	2.76e-01	0	47	0	0	60	1048574
2026-01-17 23:34:08.22	26.88	7.84	-85.2	-88.6	5.3	2.80e-01	0	47	0	0	60	1048573
2026-01-17 23:34:09.23	26.97	7.91	-84.7	-88.6	6.3	2.77e-01	0	47	0	0	60	1048574
2026-01-17 23:34:10.24	27.05	7.98	-84.7	-88.6	5.7	2.78e-01	0	47	0	0	60	1048574
2026-01-17 23:34:11.25	27.14	8.05	-84.7	-88.6	6.2	2.79e-01	0	47	0	0	60	1048567
2026-01-17 23:34:12.26	27.22	8.12	-85.2	-88.6	6.0	2.77e-01	0	47	0	0	60	1048574
2026-01-17 23:34:13.26	27.31	8.19	-84.7	-88.6	6.2	2.78e-01	0	47	0	0	60	1048562
2026-01-17 23:34:14.26	27.40	8.26	-84.7	-88.6	6.1	2.80e-01	0	47	0	0	60	1048574
2026-01-17 23:34:15.27	27.48	8.33	-84.7	-88.6	6.4	2.83e-01	0	47	0	0	60	1048571
2026-01-17 23:34:16.27	27.57	8.40	-85.2	-88.6	6.1	2.78e-01	0	47	0	0	60	1048574
2026-01-17 23:34:17.28	27.66	8.47	-84.7	-88.6	6.3	2.82e-01	0	47	0	0	60	1048574
2026-01-17 23:34:18.29	27.75	8.54	-85.2	-88.6	6.4	2.79e-01	0	47	0	0	60	1048572
2026-01-17 23:34:19.30	27.84	8.61	-84.7	-88.6	5.5	2.84e-01	0	47	0	0	60	1048575
2026-01-17 23:34:20.30	27.92	8.68	-84.7	-88.6	5.3	2.78e-01	0	47	0	0	60	1048571
2026-01-17 23:34:21.31	28.01	8.75	-85.2	-88.6	6.4	2.77e-01	0	47	0	0	60	1048574
2026-01-17 23:34:22.32	28.10	8.82	-85.2	-88.6	6.4	2.78e-01	0	47	0	0	60	1048568
2026-01-17 23:34:23.32	28.19	8.89	-85.2	-88.6	5.6	2.77e-01	0	47	0	0	60	1048574
2026-01-17 23:34:24.33	28.28	8.96	-85.2	-88.6	5.6	2.79e-01	0	47	0	0	60	1048575
2026-01-17 23:34:25.34	28.38	9.04	-84.7	-88.6	6.0	2.81e-01	0	47	0	0	60	1048570
2026-01-17 23:34:26.35	28.47	9.11	-84.7	-88.6	5.5	2.77e-01	0	47	0	0	60	1048572
2026-01-17 23:34:27.36	28.56	9.18	-85.2	-88.6	6.0	2.75e-01	0	47	0	0	60	1048574
2026-01-17 23:34:28.36	28.65	9.25	-84.7	-88.6	5.6	2.82e-01	0	47	0	0	60	1048571
2026-01-17 23:34:29.36	28.74	9.32	-84.7	-88.6	5.4	2.78e-01	0	47	0	0	60	1048575
2026-01-17 23:34:30.37	28.84	9.39	-84.7	-88.6	6.1	2.78e-01	0	47	0	0	60	1048575
2026-01-17 23:34:31.37	28.93	9.47	-85.2	-88.6	6.2	2.78e-01	0	47	0	0	60	1048572
2026-01-17 23:34:32.38	29.02	9.54	-84.7	-88.6	6.5	2.79e-01	0	47	0	0	60	1048572
2026-01-17 23:34:33.39	29.12	9.61	-84.7	-88.6	6.0	2.76e-01	0	47	0	0	60	1048574
2026-01-17 23:34:34.39	29.21	9.68	-85.2	-88.6	6.2	2.75e-01	0	47	0	0	60	1048575
2026-01-17 23:34:35.40	29.31	9.76	-84.7	-88.6	5.4	2.79e-01	0	47	0	0	60	1048568
2026-01-17 23:34:36.40	29.40	9.83	-85.2	-88.6	5.7	2.73e-01	0	47	0	0	60	1048572
2026-01-17 23:34:37.41	29.50	9.90	-84.7	-88.6	5.9	2.77e-01	0	47	0	0	60	1048570
2026-01-17 23:34:38.42	29.60	9.98	-85.2	-88.6	6.1	2.78e-01	0	47	0	0	60	1048575
2026-01-17 23:34:39.43	29.70	10.05	-84.7	-88.6	6.3	2.78e-01	0	47	0	0	60	1048575
2026-01-17 23:34:40.43	29.79	10.12	-85.2	-88.6	6.2	2.74e-01	0	47	0	0	60	1048574
2026-01-17 23:34:41.44	29.89	10.20	-84.7	-88.6	5.7	2.82e-01	0	47	0	0	60	1048572
2026-01-17 23:34:42.45	29.99	10.27	-84.7	-88.6	6.2	2.78e-01	0	47	0	0	60	1048574
2026-01-17 23:34:43.46	30.09	10.35	-84.7	-88.6	6.1	2.78e-01	0	47	0	0	60	1048575
2026-01-17 23:34:44.47	30.19	10.42	-85.2	-88.6	5.7	2.76e-01	0	47	0	0	60	1048575
2026-01-17 23:34:45.47	30.29	10.49	-85.2	-88.6	6.0	2.78e-01	0	47	0	0	60	1048575
2026-01-17 23:34:46.48	30.39	10.57	-85.2	-88.6	6.1	2.83e-01	0	47	0	0	60	1048575
2026-01-17 23:34:47.48	30.49	10.64	-85.2	-88.6	6.5	2.77e-01	0	47	0	0	60	1048570
2026-01-17 23:34:48.48	30.59	10.72	-84.7	-88.6	6.2	2.78e-01	0	47	0	0	60	1048574
2026-01-17 23:34:49.49	30.69	10.79	-85.2	-88.6	5.7	2.78e-01	0	47	0	0	60	1048575
2026-01-17 23:34:50.50	30.80	10.87	-84.7	-88.6	6.1	2.80e-01	0	47	0	0	60	1048575
2026-01-17 23:34:51.51	30.90	10.94	-84.7	-88.6	6.1	2.82e-01	0	47	0	0	60	1048573
2026-01-17 23:34:52.52	31.00	11.02	-84.7	-88.6	5.8	2.83e-01	0	47	0	0	60	1048573
2026-01-17 23:34:53.52	31.11	11.09	-85.2	-88.6	5.7	2.77e-01	0	47	0	0	60	1048573
2026-01-17 23:34:54.52	31.21	11.17	-84.7	-88.6	6.3	2.81e-01	0	47	0	0	60	1048571
2026-01-17 23:34:55.53	31.32	11.25	-85.2	-88.6	6.0	2.81e-01	0	47	0	0	60	1048575
2026-01-17 23:34:56.54	31.42	11.32	-84.7	-88.6	5.7	2.81e-01	0	47	0	0	60	1048575
2026-01-17 23:34:57.55	31.53	11.40	-85.2	-88.6	5.8	2.79e-01	0	47	0	0	60	1048570
2026-01-17 23:34:58.55	31.63	11.47	-85.2	-88.6	6.0	2.77e-01	0	47	0	0	60	1048571
2026-01-17 23:34:59.56	31.74	11.55	-85.2	-88.6	5.9	2.80e-01	0	47	0	0	60	1048573
2026-01-17 23:35:00.57	31.85	11.63	-84.7	-88.6	6.0	2.78e-01	0	47	0	0	60	1048570
2026-01-17 23:35:01.57	31.96	11.70	-84.7	-88.6	5.8	2.79e-01	0	47	0	0	60	1048573
2026-01-17 23:35:02.58	32.07	11.78	-84.7	-88.6	6.4	2.82e-01	0	47	0	0	60	1048573
2026-01-17 23:35:03.59	32.18	11.86	-84.7	-88.6	5.6	2.78e-01	0	47	0	0	60	1048567
2026-01-17 23:35:04.60	32.29	11.94	-84.7	-88.6	6.3	2.74e-01	0	47	0	0	60	1048573
2026-01-17 23:35:05.61	32.40	12.01	-84.7	-88.6	6.3	2.78e-01	0	47	0	0	60	1048573
2026-01-17 23:35:06.61	32.51	12.09	-85.2	-88.6	5.9	2.76e-01	0	47	0	0	60	1048569
2026-01-17 23:35:07.62	32.62	12.17	-85.2	-88.6	6.0	2.80e-01	0	47	0	0	60	1048575
2026-01-17 23:35:08.62	32.73	12.25	-85.2	-88.6	5.7	2.81e-01	0	47	0	0	60	1048572
2026-01-17 23:35:09.62	32.84	12.32	-84.7	-88.6	6.2	2.83e-01	0	47	0	0	60	1048573
2026-01-17 23:35:10.63	32.96	12.40	-84.7	-88.6	5.8	2.79e-01	0	47	0	0	60	1048573
2026-01-17 23:35:11.64	33.07	12.48	-84.7	-88.6	6.0	2.79e-01	0	47	0	0	60	1048574
2026-01-17 23:35:12.65	33.18	12.56	-85.2	-88.6	5.4	2.78e-01	0	47	0	0	60	1048567
2026-01-17 23:35:13.65	33.30	12.64	-84.7	-88.6	5.9	2.77e-01	0	47	0	0	60	1048575
2026-01-17 23:35:14.66	33.41	12.72	-85.2	-88.6	6.1	2.80e-01	0	47	0	0	60	1048575
2026-01-17 23:35:15.66	33.53	12.79	-84.7	-88.6	5.9	2.77e-01	0	47	0	0	60	1048575
2026-01-17 23:35:16.67	33.65	12.87	-85.2	-88.6	3.7	3.56e-01	0	47	104	0	60	1048573
2026-01-17 23:35:17.67	33.76	12.95	-85.2	-88.6	3.2	7.62e-01	0	47	104	0	60	1048575
2026-01-17 23:35:18.68	33.88	13.03	-85.2	-88.6	3.6	7.63e-01	0	47	104	0	60	1048575
2026-01-17 23:35:19.68	34.00	13.11	-85.2	-88.6	3.1	7.64e-01	0	47	104	0	60	1048574
2026-01-17 23:35:20.69	34.12	13.19	-85.2	-88.6	3.0	7.64e-01	0	47	104	0	60	1048575
2026-01-17 23:35:21.70	34.24	13.27	-85.2	-88.6	3.7	7.64e-01	0	47	104	0	60	1048572
2026-01-17 23:35:22.70	34.36	13.35	-85.2	-88.6	3.1	7.63e-01	0	47	104	0	60	1048575
2026-01-17 23:35:23.71	34.48	13.43	-85.2	-88.6	3.1	7.64e-01	0	47	104	0	60	1048567
2026-01-17 23:35:24.71	34.60	13.51	-84.7	-88.6	3.6	7.63e-01	0	47	104	0	60	1048568
2026-01-17 23:35:25.72	34.72	13.59	-84.7	-88.6	2.9	7.63e-01	0	47	104	0	60	1048574
2026-01-17 23:35:26.72	34.85	13.67	-85.2	-88.6	3.1	7.63e-01	0	47	104	0	60	1048571
2026-01-17 23:35:27.73	34.97	13.75	-85.2	-88.6	3.1	7.63e-01	0	47	104	0	60	1048575
2026-01-17 23:35:28.73	35.09	13.83	-85.2	-88.6	3.3	7.64e-01	0	47	104	0	60	1048572
2026-01-17 23:35:29.74	35.22	13.91	-85.2	-88.6	3.1	7.63e-01	0	47	104	0	60	1048572
2026-01-17 23:35:30.75	35.35	14.00	-85.2	-88.6	2.9	7.60e-01	0	47	104	0	60	1048575
2026-01-17 23:35:31.75	35.47	14.08	-84.7	-88.6	3.6	7.64e-01	0	47	104	0	60	1048567
2026-01-17 23:35:32.76	35.60	14.16	-85.2	-88.6	3.0	7.64e-01	0	47	104	0	60	1048573
2026-01-17 23:35:33.77	35.73	14.24	-85.2	-88.6	2.6	7.63e-01	0	47	104	0	60	1048573
2026-01-17 23:35:34.78	35.85	14.32	-85.2	-88.6	3.2	7.62e-01	0	47	104	0	60	1048571
2026-01-17 23:35:35.78	35.98	14.40	-85.2	-88.6	3.0	7.65e-01	0	47	104	0	60	1048574
2026-01-17 23:35:36.79	36.11	14.49	-85.2	-88.6	3.1	7.63e-01	0	47	104	0	60	1048575
2026-01-17 23:35:37.80	36.24	14.57	-85.2	-88.6	2.9	7.63e-01	0	47	104	0	60	1048575
2026-01-17 23:35:38.81	36.38	14.65	-85.2	-88.6	3.3	7.63e-01	0	47	104	0	60	1048568
2026-01-17 23:35:39.81	36.51	14.73	-85.2	-88.6	3.2	7.63e-01	0	47	104	0	60	1048575
2026-01-17 23:35:40.82	36.64	14.82	-85.2	-88.6	3.1	7.64e-01	0	47	104	0	60	1048571
2026-01-17 23:35:41.83	36.77	14.90	-85.2	-88.6	3.4	7.63e-01	0	47	104	0	60	1048575
2026-01-17 23:35:42.83	36.91	14.98	-85.2	-88.6	3.7	7.63e-01	0	47	104	0	60	1048573
2026-01-17 23:35:43.84	37.04	15.06	-85.2	-88.6	2.9	7.64e-01	0	47	104	0	60	1048571
2026-01-17 23:35:44.85	37.18	15.15	-85.2	-88.6	3.2	7.63e-01	0	47	104	0	60	1048573
2026-01-17 23:35:45.85	37.31	15.23	-85.2	-88.6	3.7	7.63e-01	0	47	104	0	60	1048574
2026-01-17 23:35:46.86	37.45	15.31	-85.2	-88.6	3.5	7.64e-01	0	47	104	0	60	1048572
2026-01-17 23:35:47.87	37.59	15.40	-85.2	-88.6	3.0	7.63e-01	0	47	104	0	60	1048574
2026-01-17 23:35:48.88	37.73	15.48	-85.2	-88.6	3.1	7.64e-01	0	47	104	0	60	1048571
2026-01-17 23:35:49.88	37.86	15.57	-85.2	-88.6	3.3	7.64e-01	0	47	104	0	60	1048574
2026-01-17 23:35:50.89	38.00	15.65	-84.3	-88.6	2.9	7.63e-01	0	47	104	0	60	1048574
2026-01-17 23:35:51.90	38.14	15.74	-84.7	-88.6	3.7	7.63e-01	0	47	104	0	60	1048575
2026-01-17 23:35:52.91	38.29	15.82	-85.2	-88.6	3.4	7.63e-01	0	47	104	0	60	1048572
2026-01-17 23:35:53.91	38.43	15.90	-84.7	-88.6	3.0	7.63e-01	0	47	104	0	60	1048575
2026-01-17 23:35:54.92	38.57	15.99	-85.2	-88.6	2.9	7.61e-01	0	47	104	0	60	1048573
2026-01-17 23:35:55.92	38.71	16.07	-85.2	-88.6	2.7	7.62e-01	0	47	104	0	60	1048574
2026-01-17 23:35:56.93	38.86	16.16	-85.2	-88.6	3.6	7.65e-01	0	47	104	0	60	1048573
2026-01-17 23:35:57.93	39.00	16.24	-83.5	-88.6	2.8	7.63e-01	0	47	104	0	60	1048573
2026-01-17 23:35:58.94	39.15	16.33	-85.2	-88.6	3.0	7.64e-01	0	47	104	0	60	1048575
2026-01-17 23:35:59.95	39.30	16.41	-85.2	-88.6	3.3	7.63e-01	0	47	104	0	60	1048575
2026-01-17 23:36:00.96	39.44	16.50	-84.7	-88.6	3.2	7.62e-01	0	47	104	0	60	1048574
2026-01-17 23:36:01.96	39.59	16.58	-84.7	-88.6	3.1	7.65e-01	0	47	104	0	60	1048571
2026-01-17 23:36:02.97	39.74	16.67	-85.2	-88.6	3.2	7.63e-01	0	47	104	0	60	1048575
2026-01-17 23:36:03.98	39.89	16.76	-85.2	-88.6	3.4	7.65e-01	0	47	104	0	60	1048575
2026-01-17 23:36:04.99	40.04	16.84	-85.2	-88.6	3.2	7.63e-01	0	47	104	0	60	1048573
2026-01-17 23:36:05.99	40.19	16.93	-85.2	-88.6	3.5	7.63e-01	0	47	104	0	60	1048575
2026-01-17 23:36:07.00	40.35	17.01	-85.2	-88.6	3.0	7.63e-01	0	47	104	0	60	1048574
2026-01-17 23:36:08.00	40.50	17.10	-84.7	-88.6	2.9	7.64e-01	0	47	104	0	60	1048575
2026-01-17 23:36:09.00	40.65	17.19	-85.2	-88.6	2.9	7.63e-01	0	47	104	0	60	1048574
2026-01-17 23:36:10.01	40.81	17.27	-85.2	-88.6	3.0	7.63e-01	0	47	104	0	60	1048575
2026-01-17 23:36:11.02	40.97	17.36	-85.2	-88.6	3.1	7.64e-01	0	47	104	0	60	1048575
2026-01-17 23:36:12.02	41.12	17.44	-85.2	-88.6	3.2	7.63e-01	0	47	104	0	60	1048574
2026-01-17 23:36:13.03	41.28	17.53	-84.7	-88.6	3.5	7.63e-01	0	47	104	0	60	1048572
2026-01-17 23:36:14.03	41.44	17.62	-85.2	-88.6	2.9	7.63e-01	0	47	104	0	60	1048575
2026-01-17 23:36:15.04	41.60	17.71	-85.2	-88.6	2.9	7.62e-01	0	47	104	0	60	1048575
2026-01-17 23:36:16.04	41.76	17.79	-83.5	-88.6	3.1	7.63e-01	0	47	104	0	60	1048572
2026-01-17 23:36:17.05	41.92	17.88	-84.7	-88.6	2.9	7.65e-01	0	47	104	0	60	1048575
2026-01-17 23:36:18.06	42.08	17.97	-85.2	-88.6	3.3	7.64e-01	0	47	104	0	60	1048574
2026-01-17 23:36:19.07	42.24	18.05	-85.2	-88.6	3.0	7.64e-01	0	47	104	0	60	1048574
2026-01-17 23:36:20.08	42.41	18.14	-85.2	-88.6	3.0	7.63e-01	0	47	104	0	60	1048574
2026-01-17 23:36:21.08	42.57	18.23	-84.3	-88.6	2.5	7.63e-01	0	47	104	0	60	1048575
2026-01-17 23:36:22.09	42.74	18.32	-85.2	-88.6	3.2	7.64e-01	0	47	104	0	60	1048570
2026-01-17 23:36:23.10	42.91	18.41	-84.7	-88.6	3.2	7.63e-01	0	47	104	0	60	1048575
2026-01-17 23:36:24.11	43.07	18.49	-85.2	-88.6	2.9	7.64e-01	0	47	104	0	60	1048568
2026-01-17 23:36:25.12	43.24	18.58	-85.2	-88.6	3.0	7.64e-01	0	47	104	0	60	1048572
2026-01-17 23:36:26.12	43.41	18.67	-85.2	-88.6	3.1	7.63e-01	0	47	104	0	60	1048574
2026-01-17 23:36:27.13	43.58	18.76	-84.7	-88.6	3.6	7.63e-01	0	47	104	0	60	1048574
2026-01-17 23:36:28.14	43.76	18.85	-85.2	-88.6	3.3	7.63e-01	0	47	104	0	60	1048575
2026-01-17 23:36:29.14	43.93	18.93	-84.3	-88.6	3.2	7.64e-01	0	47	104	0	60	1048569
2026-01-17 23:36:30.15	44.10	19.02	-85.2	-88.6	2.8	7.63e-01	0	47	104	0	60	1048573
2026-01-17 23:36:31.16	44.28	19.11	-85.2	-88.6	3.1	7.63e-01	0	47	104	0	60	1048571
2026-01-17 23:36:32.17	44.45	19.20	-84.7	-88.6	3.7	7.62e-01	0	47	104	0	60	1048569
2026-01-17 23:36:33.17	44.63	19.29	-85.2	-88.6	3.1	7.62e-01	0	47	104	0	60	1048574
2026-01-17 23:36:34.18	44.81	19.38	-85.2	-88.6	2.8	7.62e-01	0	47	104	0	60	1048575
2026-01-17 23:36:35.19	44.98	19.46	-85.2	-88.6	3.0	7.65e-01	0	47	104	0	60	1048569
2026-01-17 23:36:36.20	45.16	19.55	-84.3	-88.6	3.0	7.64e-01	0	47	104	0	60	1048572
2026-01-17 23:36:37.21	45.35	19.64	-85.2	-88.6	3.3	7.63e-01	0	47	104	0	60	1048569
2026-01-17 23:36:38.21	45.53	19.73	-85.2	-88.6	3.2	7.62e-01	0	47	104	0	60	1048571
2026-01-17 23:36:39.22	45.71	19.82	-85.2	-88.6	3.0	7.63e-01	0	47	104	0	60	1048575
2026-01-17 23:36:40.23	45.89	19.91	-85.2	-88.6	2.9	7.63e-01	0	47	104	0	60	1048567
2026-01-17 23:36:41.24	46.08	20.00	-85.2	-88.6	3.6	7.63e-01	0	47	104	0	60	1048574
2026-01-17 23:36:42.24	46.26	20.09	-85.2	-88.6	3.3	7.62e-01	0	47	104	0	60	1048575
2026-01-17 23:36:43.25	46.45	20.17	-84.7	-88.6	3.1	7.63e-01	0	47	104	0	60	1048575
2026-01-17 23:36:44.25	46.64	20.26	-85.2	-88.6	2.9	7.63e-01	0	47	104	0	60	1048573
2026-01-17 23:36:45.26	46.83	20.35	-85.2	-88.6	2.9	7.65e-01	0	47	104	0	60	1048574
2026-01-17 23:36:46.27	47.02	20.44	-84.3	-88.6	3.0	7.64e-01	0	47	104	0	60	1048575
2026-01-17 23:36:47.27	47.21	20.53	-85.2	-88.6	3.1	7.62e-01	0	47	104	0	60	1048575
2026-01-17 23:36:48.28	47.40	20.62	-85.2	-88.6	3.2	7.63e-01	0	47	104	0	60	1048573
2026-01-17 23:36:49.29	47.59	20.71	-85.2	-88.6	2.9	7.62e-01	0	47	104	0	60	1048574
2026-01-17 23:36:50.30	47.79	20.80	-85.2	-88.6	2.8	7.62e-01	0	47	104	0	60	1048575
2026-01-17 23:36:51.30	47.98	20.88	-85.2	-88.6	3.7	7.63e-01	0	47	104	0	60	1048566
2026-01-17 23:36:52.31	48.18	20.97	-85.2	-88.6	3.4	7.63e-01	0	47	104	0	60	1048574
2026-01-17 23:36:53.32	48.38	21.06	-85.2	-88.6	3.1	7.63e-01	0	47	104	0	60	1048574
2026-01-17 23:36:54.32	48.57	21.15	-85.2	-88.6	3.2	7.63e-01	0	47	104	0	60	1048574
2026-01-17 23:36:55.33	48.77	21.24	-84.3	-88.6	3.2	7.63e-01	0	47	104	0	60	1048570
2026-01-17 23:36:56.34	48.98	21.33	-84.3	-88.6	3.6	7.63e-01	0	47	104	0	60	1048564
2026-01-17 23:36:57.35	49.18	21.42	-85.2	-88.6	2.9	7.63e-01	0	47	104	0	60	1048575
2026-01-17 23:36:58.35	49.38	21.51	-85.2	-88.6	3.6	7.62e-01	0	47	104	0	60	1048575
2026-01-17 23:36:59.36	49.59	21.60	-85.2	-88.6	2.8	7.64e-01	0	47	104	0	60	1048574
2026-01-17 23:37:00.36	49.79	21.68	-84.7	-88.6	3.3	7.63e-01	0	47	104	0	60	1048573
2026-01-17 23:37:01.36	49.99	21.77	-84.7	-88.6	3.3	7.64e-01	0	47	104	0	60	1048575
2026-01-17 23:37:02.37	50.20	21.86	-85.2	-88.6	3.2	7.63e-01	0	47	104	0	60	1048571
2026-01-17 23:37:03.38	50.41	21.95	-85.2	-88.6	3.1	7.62e-01	0	47	104	0	60	1048574
2026-01-17 23:37:04.39	50.62	22.04	-85.2	-88.6	3.1	7.59e-01	0	47	104	0	60	1048570
2026-01-17 23:37:05.40	50.84	22.13	-84.7	-88.6	3.2	7.64e-01	0	47	104	0	60	1048573
2026-01-17 23:37:06.40	51.05	22.21	-85.2	-88.6	3.5	7.64e-01	0	47	104	0	60	1048573
2026-01-17 23:37:07.41	51.26	22.30	-85.2	-88.6	3.4	7.63e-01	0	47	104	0	60	1048575
2026-01-17 23:37:08.41	51.47	22.39	-85.2	-88.6	3.7	7.63e-01	0	47	104	0	60	1048574
2026-01-17 23:37:09.42	51.69	22.48	-85.2	-88.6	3.5	7.64e-01	0	47	104	0	60	1048572
2026-01-17 23:37:10.42	51.91	22.56	-84.7	-88.6	3.0	7.64e-01	0	47	104	0	60	1048571
2026-01-17 23:37:11.43	52.13	22.65	-85.2	-88.6	3.2	7.63e-01	0	47	104	0	60	1048574
2026-01-17 23:37:12.44	52.35	22.74	-85.2	-88.6	3.3	7.63e-01	0	47	104	0	60	1048575
2026-01-17 23:37:13.44	52.56	22.83	-85.2	-88.6	3.5	7.64e-01	0	47	104	0	60	1048567
2026-01-17 23:37:14.45	52.79	22.91	-84.7	-88.6	2.9	7.62e-01	0	47	104	0	60	1048573
2026-01-17 23:37:15.46	53.01	23.00	-85.2	-88.6	3.0	7.63e-01	0	47	104	0	60	1048572
2026-01-17 23:37:16.46	53.23	23.09	-85.2	-88.6	3.7	7.63e-01	0	47	104	0	60	1048574
2026-01-17 23:37:17.47	53.46	23.18	-85.2	-88.6	3.4	7.64e-01	0	47	104	0	60	1048574
2026-01-17 23:37:18.48	53.69	23.26	-85.2	-88.6	3.0	7.63e-01	0	47	104	0	60	1048575
2026-01-17 23:37:19.48	53.91	23.35	-84.7	-88.6	3.2	7.61e-01	0	47	104	0	60	1048575
2026-01-17 23:37:20.49	54.15	23.43	-85.2	-88.6	3.0	7.63e-01	0	47	104	0	60	1048569
2026-01-17 23:37:21.49	54.37	23.52	-85.2	-88.6	3.4	7.61e-01	0	47	104	0	60	1048567
2026-01-17 23:37:22.50	54.61	23.61	-85.2	-88.6	3.5	7.64e-01	0	47	104	0	60	1048575
2026-01-17 23:37:23.51	54.84	23.69	-85.2	-88.6	3.1	7.62e-01	0	47	104	0	60	1048574
2026-01-17 23:37:24.52	55.08	23.78	-85.2	-88.6	2.9	7.62e-01	0	47	104	0	60	1048571
2026-01-17 23:37:25.52	55.31	23.86	-85.2	-88.6	3.3	7.62e-01	0	47	104	0	60	1048574
2026-01-17 23:37:26.53	55.55	23.95	-85.2	-88.6	3.7	7.63e-01	0	47	104	0	60	1048575
2026-01-17 23:37:27.53	55.78	24.03	-85.2	-88.6	3.0	7.63e-01	0	47	104	0	60	1048575
2026-01-17 23:37:28.54	56.02	24.12	-85.2	-88.6	3.0	7.64e-01	0	47	104	0	60	1048574
2026-01-17 23:37:29.54	56.26	24.20	-85.2	-88.6	3.1	7.63e-01	0	47	104	0	60	1048574
2026-01-17 23:37:30.55	56.51	24.29	-85.2	-88.6	3.7	7.63e-01	0	47	104	0	60	1048575
2026-01-17 23:37:31.56	56.75	24.37	-84.7	-88.6	3.2	7.63e-01	0	47	104	0	60	1048573
2026-01-17 23:37:32.56	56.99	24.45	-85.2	-88.6	3.1	7.63e-01	0	47	104	0	60	1048572
2026-01-17 23:37:33.57	57.24	24.54	-85.2	-88.6	3.5	7.63e-01	0	47	104	0	60	1048573
2026-01-17 23:37:34.58	57.49	24.62	-85.2	-88.6	3.0	7.63e-01	0	47	104	0	60	1048555
2026-01-17 23:37:35.58	57.73	24.70	-85.2	-88.6	3.5	7.63e-01	0	47	104	0	60	1048565
2026-01-17 23:37:36.58	57.98	24.79	-85.2	-88.6	3.4	7.62e-01	0	47	104	0	60	1048572
2026-01-17 23:37:37.59	58.23	24.87	-85.2	-88.6	3.1	7.63e-01	0	47	104	0	60	1048573
2026-01-17 23:37:38.59	58.48	24.95	-84.7	-88.6	2.9	7.62e-01	0	47	104	0	60	1048575
2026-01-17 23:37:39.60	58.74	25.03	-85.2	-88.6	3.0	7.63e-01	0	47	104	0	60	1048575
2026-01-17 23:37:40.60	58.99	25.11	-85.2	-88.6	3.5	7.63e-01	0	47	104	0	60	1048568
2026-01-17 23:37:41.60	59.24	25.19	-85.2	-88.6	3.4	7.62e-01	0	47	104	0	60	1048571
2026-01-17 23:37:42.61	59.50	25.27	-85.2	-88.6	3.5	7.63e-01	0	47	104	0	60	1048573
2026-01-17 23:37:43.61	59.76	25.35	-85.2	-88.6	3.7	7.64e-01	0	47	104	0	60	1048574
2026-01-17 23:37:44.62	60.02	25.43	-85.2	-88.6	3.1	7.62e-01	0	47	104	0	60	1048575
2026-01-17 23:37:45.63	60.28	25.51	-85.2	-88.6	2.9	7.63e-01	0	47	104	0	60	1048573
2026-01-17 23:37:46.63	60.54	25.59	-84.7	-88.6	3.2	7.64e-01	0	47	104	0	60	1048568
2026-01-17 23:37:47.64	60.81	25.67	-85.2	-88.6	3.2	7.62e-01	0	47	104	0	60	1048575
2026-01-17 23:37:48.65	61.07	25.75	-85.2	-88.6	3.0	7.62e-01	0	47	104	0	60	1048574
2026-01-17 23:37:49.65	61.34	25.83	-85.2	-88.6	2.7	7.64e-01	0	47	104	0	60	1048574
2026-01-17 23:37:50.65	61.60	25.91	-85.2	-88.6	3.6	7.63e-01	0	47	104	0	60	1048575
2026-01-17 23:37:51.66	61.87	25.98	-85.2	-88.6	3.7	7.62e-01	0	47	104	0	60	1048575
2026-01-17 23:37:52.67	62.14	26.06	-85.2	-88.6	3.0	7.63e-01	0	47	104	0	60	1048572
2026-01-17 23:37:53.67	62.41	26.14	-85.2	-88.6	3.0	7.62e-01	0	47	104	0	60	1048553
2026-01-17 23:37:54.67	62.69	26.21	-85.2	-88.6	2.9	7.63e-01	0	47	104	0	60	1048572
2026-01-17 23:37:55.68	62.96	26.29	-85.2	-88.6	3.7	7.62e-01	0	47	104	0	60	1048574
2026-01-17 23:37:56.68	63.23	26.36	-85.2	-88.6	3.1	7.63e-01	0	47	104	0	60	1048573
2026-01-17 23:37:57.68	63.51	26.43	-85.2	-88.6	3.3	7.63e-01	0	47	104	0	60	1048573
2026-01-17 23:37:58.69	63.79	26.51	-85.2	-88.6	3.1	7.63e-01	0	47	104	0	60	1048572
2026-01-17 23:37:59.69	64.06	26.58	-85.2	-88.6	3.2	7.63e-01	0	47	104	0	60	1048572
2026-01-17 23:38:00.70	64.35	26.66	-85.2	-88.6	3.6	7.65e-01	0	47	104	0	60	1048572
2026-01-17 23:38:01.71	64.63	26.73	-85.2	-88.6	3.3	7.64e-01	0	47	104	0	60	1048573
2026-01-17 23:38:02.72	64.91	26.80	-84.7	-88.6	2.9	7.64e-01	0	47	104	0	60	1048575
2026-01-17 23:38:03.73	65.20	26.87	-85.2	-88.6	2.9	7.61e-01	0	47	104	0	60	1048575
2026-01-17 23:38:04.73	65.48	26.94	-85.2	-88.6	3.5	7.63e-01	0	47	104	0	60	1048572
2026-01-17 23:38:05.74	65.77	27.01	-85.2	-88.6	2.8	7.63e-01	0	47	104	0	60	1048573
2026-01-17 23:38:06.75	66.06	27.08	-85.2	-88.6	2.8	7.64e-01	0	47	104	0	60	1048573
2026-01-17 23:38:07.76	66.35	27.15	-85.2	-88.6	2.8	7.62e-01	0	47	104	0	60	1048570
2026-01-17 23:38:08.76	66.64	27.22	-85.2	-88.6	3.7	7.62e-01	0	47	104	0	60	1048575
2026-01-17 23:38:09.76	66.93	27.29	-85.2	-88.6	3.1	7.62e-01	0	47	104	0	60	1048574
2026-01-17 23:38:10.77	67.22	27.35	-85.2	-88.6	2.9	7.60e-01	0	47	104	0	60	1048572
2026-01-17 23:38:11.78	67.51	27.42	-84.7	-88.6	3.6	7.61e-01	0	47	104	0	60	1048573
2026-01-17 23:38:12.78	67.81	27.49	-84.7	-88.6	3.2	7.62e-01	0	47	104	0	60	1048575
2026-01-17 23:38:13.79	68.10	27.55	-85.2	-88.6	3.1	7.63e-01	0	47	104	0	60	1048573
2026-01-17 23:38:14.80	68.40	27.62	-85.2	-88.6	3.0	7.63e-01	0	47	104	0	60	1048575
2026-01-17 23:38:15.81	68.70	27.68	-85.2	-88.6	3.5	7.64e-01	0	47	104	0	60	1048563
2026-01-17 23:38:16.82	69.00	27.74	-84.7	-88.6	3.0	7.62e-01	0	47	104	0	60	1048574
2026-01-17 23:38:17.82	69.30	27.81	-85.2	-88.6	3.1	7.63e-01	0	47	104	0	60	1048571
2026-01-17 23:38:18.83	69.61	27.87	-85.2	-88.6	3.7	7.61e-01	0	47	104	0	60	1048570
2026-01-17 23:38:19.84	69.91	27.93	-85.2	-88.6	3.5	7.62e-01	0	47	104	0	60	1048574
2026-01-17 23:38:20.85	70.22	27.99	-85.2	-88.6	2.8	7.63e-01	0	47	104	0	60	1048574
2026-01-17 23:38:21.85	70.52	28.05	-85.2	-88.6	3.1	7.64e-01	0	47	104	0	60	1048572
2026-01-17 23:38:22.86	70.83	28.11	-85.2	-88.6	3.5	7.64e-01	0	47	104	0	60	1048575
2026-01-17 23:38:23.86	71.13	28.17	-85.2	-88.6	3.0	7.63e-01	0	47	104	0	60	1048573
2026-01-17 23:38:24.87	71.44	28.23	-85.2	-88.6	3.1	7.63e-01	0	47	104	0	60	1048573
2026-01-17 23:38:25.87	71.75	28.28	-85.2	-88.6	3.6	7.64e-01	0	47	104	0	60	1048575
2026-01-17 23:38:26.88	72.06	28.34	-83.5	-88.6	3.7	7.63e-01	0	47	104	0	60	1048571
2026-01-17 23:38:27.88	72.37	28.39	-85.2	-88.6	3.7	7.63e-01	0	47	104	0	60	1048570
2026-01-17 23:38:28.89	72.69	28.45	-85.2	-88.6	2.6	7.63e-01	0	47	104	0	60	1048575
2026-01-17 23:38:29.89	73.00	28.50	-85.2	-88.6	2.9	7.63e-01	0	47	104	0	60	1048575
2026-01-17 23:38:30.90	73.32	28.55	-84.7	-88.6	3.1	7.63e-01	0	47	104	0	60	1048574
2026-01-17 23:38:31.91	73.64	28.61	-85.2	-88.6	3.0	7.63e-01	0	47	104	0	60	1048571
2026-01-17 23:38:32.92	73.95	28.66	-85.2	-88.6	3.2	7.64e-01	0	47	104	0	60	1048574
2026-01-17 23:38:33.92	74.27	28.71	-85.2	-88.6	2.8	7.63e-01	0	47	104	0	60	1048574
2026-01-17 23:38:34.94	74.59	28.76	-85.2	-88.6	3.0	7.64e-01	0	47	104	0	60	1048575
2026-01-17 23:38:35.94	74.91	28.81	-85.2	-88.6	3.6	7.63e-01	0	47	104	0	60	1048572
2026-01-17 23:38:36.95	75.23	28.85	-85.2	-88.6	3.6	7.64e-01	0	47	104	0	60	1048575
2026-01-17 23:38:37.95	75.55	28.90	-85.2	-88.6	3.0	7.63e-01	0	47	104	0	60	1048575
2026-01-17 23:38:38.96	75.88	28.95	-85.2	-88.6	3.1	7.64e-01	0	47	104	0	60	1048573
2026-01-17 23:38:39.96	76.20	28.99	-85.2	-88.6	3.3	7.63e-01	0	47	104	0	60	1048575
2026-01-17 23:38:40.97	76.53	29.04	-85.2	-88.6	3.0	7.64e-01	0	47	104	0	60	1048574
2026-01-17 23:38:41.98	76.85	29.08	-85.2	-88.6	3.2	7.64e-01	0	47	104	0	60	1048574
2026-01-17 23:38:42.99	77.18	29.12	-85.2	-88.6	3.2	7.64e-01	0	47	104	0	60	1048567
2026-01-17 23:38:43.99	77.51	29.16	-85.2	-88.6	3.0	7.63e-01	0	47	104	0	60	1048571
2026-01-17 23:38:45.00	77.84	29.20	-84.7	-88.6	2.8	7.63e-01	0	47	104	0	60	1048575
2026-01-17 23:38:46.01	78.17	29.24	-85.2	-88.6	3.6	7.64e-01	0	47	104	0	60	1048574
2026-01-17 23:38:47.01	78.49	29.28	-85.2	-88.6	3.4	7.63e-01	0	47	104	0	60	1048571
2026-01-17 23:38:48.02	78.83	29.32	-85.2	-88.6	3.0	7.63e-01	0	47	104	0	60	1048574
2026-01-17 23:38:49.02	79.16	29.36	-85.2	-88.6	3.0	7.62e-01	0	47	104	0	60	1048572
2026-01-17 23:38:50.03	79.49	29.39	-84.7	-88.6	3.9	7.63e-01	0	47	104	0	60	1048574
2026-01-17 23:38:51.03	79.82	29.43	-85.2	-88.6	2.8	7.63e-01	0	47	104	0	60	1048573
2026-01-17 23:38:52.04	80.16	29.46	-85.2	-88.6	2.9	7.63e-01	0	47	104	0	60	1048575
2026-01-17 23:38:53.05	80.49	29.49	-85.2	-88.6	3.4	7.64e-01	0	47	104	0	60	1048574
2026-01-17 23:38:54.06	80.83	29.52	-85.2	-88.6	3.0	7.63e-01	0	47	104	0	60	1048570
2026-01-17 23:38:55.06	81.16	29.55	-84.7	-88.6	3.1	7.64e-01	0	47	104	0	60	1048556
2026-01-17 23:38:56.07	81.50	29.58	-85.2	-88.6	3.1	7.63e-01	0	47	104	0	60	1048572
2026-01-17 23:38:57.07	81.83	29.61	-85.2	-88.6	2.8	7.64e-01	0	47	104	0	60	1048570
2026-01-17 23:38:58.08	82.17	29.64	-85.2	-88.6	3.4	7.63e-01	0	47	104	0	60	1048575
2026-01-17 23:38:59.08	82.51	29.67	-84.7	-88.6	3.3	7.62e-01	0	47	104	0	60	1048573
2026-01-17 23:39:00.09	82.85	29.69	-84.7	-88.6	3.4	7.63e-01	0	47	104	0	60	1048575
2026-01-17 23:39:01.09	83.18	29.72	-85.2	-88.6	2.9	7.62e-01	0	47	104	0	60	1048569
2026-01-17 23:39:02.10	83.52	29.74	-84.3	-88.6	3.1	7.63e-01	0	47	104	0	60	1048575
2026-01-17 23:39:03.10	83.86	29.76	-85.2	-88.6	2.9	7.62e-01	0	47	104	0	60	1048573
2026-01-17 23:39:04.11	84.20	29.78	-85.2	-88.6	3.2	7.62e-01	0	47	104	0	60	1048575
2026-01-17 23:39:05.11	84.54	29.80	-85.2	-88.6	2.9	7.62e-01	0	47	104	0	60	1048572
2026-01-17 23:39:06.12	84.89	29.82	-85.2	-88.6	3.0	7.63e-01	0	47	104	0	60	1048570
2026-01-17 23:39:07.13	85.23	29.84	-85.2	-88.6	3.5	7.63e-01	0	47	104	0	60	1048571
2026-01-17 23:39:08.13	85.57	29.86	-85.2	-88.6	3.6	7.64e-01	0	47	104	0	60	1048574
2026-01-17 23:39:09.14	85.91	29.87	-85.2	-88.6	3.0	7.63e-01	0	47	104	0	60	1048575
2026-01-17 23:39:10.15	86.26	29.89	-85.2	-88.6	3.2	7.63e-01	0	47	104	0	60	1048575
2026-01-17 23:39:11.16	86.60	29.90	-84.7	-88.6	3.1	7.64e-01	0	47	104	0	60	1048574
2026-01-17 23:39:12.16	86.94	29.91	-85.2	-88.6	3.4	7.64e-01	0	47	104	0	60	1048575
2026-01-17 23:39:13.17	87.29	29.93	-85.2	-88.6	3.0	7.62e-01	0	47	104	0	60	1048567
2026-01-17 23:39:14.18	87.63	29.94	-84.7	-88.6	3.0	7.63e-01	0	47	104	0	60	1048572
2026-01-17 23:39:15.18	87.97	29.95	-85.2	-88.6	3.2	7.64e-01	0	47	104	0	60	1048575
2026-01-17 23:39:16.19	88.32	29.95	-85.2	-88.6	3.4	7.64e-01	0	47	104	0	60	1048570
2026-01-17 23:39:17.20	88.67	29.96	-83.5	-88.6	3.6	7.63e-01	0	47	104	0	60	1048575
2026-01-17 23:39:18.21	89.01	29.97	-84.7	-88.6	3.7	7.62e-01	0	47	104	0	60	1048573
2026-01-17 23:39:19.21	89.35	29.97	-85.2	-88.6	3.1	7.64e-01	0	47	104	0	60	1048574
2026-01-17 23:39:20.22	89.70	29.98	-85.2	-88.6	3.4	7.63e-01	0	47	104	0	60	1048575
2026-01-17 23:39:21.23	90.05	29.98	-85.2	-88.6	3.1	7.63e-01	0	47	104	0	60	1048567
2026-01-17 23:39:22.23	90.39	29.98	-85.2	-88.6	3.0	7.63e-01	0	47	104	0	60	1048572
2026-01-17 23:39:23.24	90.73	29.98	-85.2	-88.6	3.0	7.64e-01	0	47	104	0	60	1048575
2026-01-17 23:39:24.25	91.08	29.98	-85.2	-88.6	3.1	7.63e-01	0	47	104	0	60	1048573
2026-01-17 23:39:25.26	91.43	29.98	-85.2	-88.6	3.6	7.62e-01	0	47	104	0	60	1048573
2026-01-17 23:39:26.27	91.77	29.97	-85.2	-88.6	2.7	7.64e-01	0	47	104	0	60	1048573
2026-01-17 23:39:27.28	92.12	29.97	-85.2	-88.6	3.0	7.63e-01	0	47	104	0	60	1048575
2026-01-17 23:39:28.28	92.46	29.96	-84.7	-88.6	3.0	7.64e-01	0	47	104	0	60	1048575
2026-01-17 23:39:29.28	92.80	29.96	-85.2	-88.6	3.5	7.59e-01	0	47	104	0	60	1048573
2026-01-17 23:39:30.29	93.15	29.95	-85.2	-88.6	2.8	7.64e-01	0	47	104	0	60	1048573
2026-01-17 23:39:31.29	93.49	29.94	-85.2	-88.6	3.0	7.63e-01	0	47	104	0	60	1048572
2026-01-17 23:39:32.30	93.84	29.93	-84.7	-88.6	3.2	7.62e-01	0	47	104	0	60	1048575
2026-01-17 23:39:33.31	94.18	29.92	-84.7	-88.6	3.0	7.64e-01	0	47	104	0	60	1048572
2026-01-17 23:39:34.32	94.53	29.91	-85.2	-88.6	3.3	7.64e-01	0	47	104	0	60	1048575
2026-01-17 23:39:35.32	94.87	29.90	-85.2	-88.6	3.7	7.63e-01	0	47	104	0	60	1048572
2026-01-17 23:39:36.33	95.21	29.88	-85.2	-88.6	3.1	7.64e-01	0	47	104	0	60	1048571
2026-01-17 23:39:37.34	95.56	29.87	-85.2	-88.6	3.1	7.64e-01	0	47	104	0	60	1048575
2026-01-17 23:39:38.35	95.90	29.85	-85.2	-88.6	3.5	7.63e-01	0	47	104	0	60	1048575
2026-01-17 23:39:39.36	96.25	29.83	-84.7	-88.6	3.0	7.62e-01	0	47	104	0	60	1048573
2026-01-17 23:39:40.36	96.58	29.82	-85.2	-88.6	2.6	7.63e-01	0	47	104	0	60	1048573
2026-01-17 23:39:41.37	96.93	29.80	-85.2	-88.6	3.6	7.63e-01	0	47	104	0	60	1048574
2026-01-17 23:39:42.38	97.27	29.78	-85.2	-88.6	3.4	7.64e-01	0	47	104	0	60	1048574
2026-01-17 23:39:43.39	97.61	29.75	-85.2	-88.6	3.0	7.63e-01	0	47	104	0	60	1048569
2026-01-17 23:39:44.40	97.95	29.73	-85.2	-88.6	3.5	7.63e-01	0	47	104	0	60	1048575
2026-01-17 23:39:45.40	98.29	29.71	-85.2	-88.6	3.5	7.64e-01	0	47	104	0	60	1048572
2026-01-17 23:39:46.41	98.63	29.68	-85.2	-88.6	3.5	7.64e-01	0	47	104	0	60	1048573
2026-01-17 23:39:47.41	98.97	29.66	-85.2	-88.6	3.3	7.63e-01	0	47	104	0	60	1048570
2026-01-17 23:39:48.42	99.31	29.63	-85.2	-88.6	3.3	7.64e-01	0	47	104	0	60	1048574
2026-01-17 23:39:49.43	99.65	29.60	-85.2	-88.6	2.8	7.63e-01	0	47	104	0	60	1048570
2026-01-17 23:39:50.44	99.98	29.57	-85.2	-88.6	2.6	7.62e-01	0	47	104	0	60	1048571
2026-01-17 23:39:51.44	100.32	29.54	-85.2	-88.6	3.4	7.63e-01	0	47	104	0	60	1048565
2026-01-17 23:39:52.45	100.66	29.51	-85.2	-88.6	3.7	7.63e-01	0	47	104	0	60	1048575
2026-01-17 23:39:53.46	100.99	29.48	-84.7	-88.6	3.2	7.64e-01	0	47	104	0	60	1048575
2026-01-17 23:39:54.46	101.32	29.45	-85.2	-88.6	3.1	7.64e-01	0	47	104	0	60	1048571
2026-01-17 23:39:55.47	101.66	29.41	-85.2	-88.6	3.6	7.63e-01	0	47	104	0	60	1048572
2026-01-17 23:39:56.48	101.99	29.38	-85.2	-88.6	3.6	7.64e-01	0	47	104	0	60	1048573
2026-01-17 23:39:57.49	102.33	29.34	-84.3	-88.6	3.4	7.64e-01	0	47	104	0	60	1048573
2026-01-17 23:39:58.49	102.66	29.30	-84.7	-88.6	3.2	7.63e-01	0	47	104	0	60	1048571
2026-01-17 23:39:59.50	102.99	29.27	-85.2	-88.6	3.3	7.63e-01	0	47	104	0	60	1048567
2026-01-17 23:40:00.51	103.32	29.23	-85.2	-88.6	3.2	7.64e-01	0	47	104	0	60	1048572
2026-01-17 23:40:01.52	103.65	29.19	-85.2	-88.6	3.2	7.64e-01	0	47	104	0	60	1048572
2026-01-17 23:40:02.52	103.98	29.15	-85.2	-88.6	2.8	7.65e-01	0	47	104	0	60	1048574
2026-01-17 23:40:03.52	104.30	29.10	-85.2	-88.6	2.9	7.62e-01	0	47	104	0	60	1048567
2026-01-17 23:40:04.52	104.63	29.06	-85.2	-88.6	3.1	7.64e-01	0	47	104	0	60	1048574
2026-01-17 23:40:05.53	104.95	29.02	-85.2	-88.6	3.2	7.63e-01	0	47	104	0	60	1048575
2026-01-17 23:40:06.54	105.28	28.97	-84.7	-88.6	3.7	7.62e-01	0	47	104	0	60	1048570
2026-01-17 23:40:07.55	105.61	28.93	-85.2	-88.6	3.1	7.63e-01	0	47	104	0	60	1048575
2026-01-17 23:40:08.55	105.93	28.88	-83.9	-88.6	3.1	7.63e-01	0	47	104	0	60	1048574
2026-01-17 23:40:09.55	106.25	28.83	-85.2	-88.6	3.1	7.64e-01	0	47	104	0	60	1048573
2026-01-17 23:40:10.56	106.57	28.79	-84.7	-88.6	3.7	7.63e-01	0	47	104	0	60	1048574
2026-01-17 23:40:11.57	106.89	28.74	-84.7	-88.6	2.9	7.64e-01	0	47	104	0	60	1048575
2026-01-17 23:40:12.57	107.21	28.69	-84.7	-88.6	3.3	7.63e-01	0	47	104	0	60	1048575
2026-01-17 23:40:13.58	107.53	28.64	-85.2	-88.6	3.3	7.64e-01	0	47	104	0	60	1048574
2026-01-17 23:40:14.59	107.85	28.58	-84.7	-88.6	3.1	7.64e-01	0	47	104	0	60	1048571
2026-01-17 23:40:15.60	108.17	28.53	-84.7	-88.6	3.3	7.63e-01	0	47	104	0	60	1048574
2026-01-17 23:40:16.61	108.48	28.48	-85.2	-88.6	3.2	7.62e-01	0	47	104	0	60	1048575
2026-01-17 23:40:17.61	108.80	28.42	-85.2	-88.6	3.1	7.62e-01	0	47	104	0	60	1048574
2026-01-17 23:40:18.61	109.11	28.37	-85.2	-88.6	3.1	7.60e-01	0	47	104	0	60	1048574
2026-01-17 23:40:19.62	109.42	28.31	-85.2	-88.6	2.9	7.63e-01	0	47	104	0	60	1048574
2026-01-17 23:40:20.62	109.73	28.26	-84.7	-88.6	3.0	7.61e-01	0	47	104	0	60	1048574
2026-01-17 23:40:21.63	110.04	28.20	-85.2	-88.6	2.8	7.62e-01	0	47	104	0	60	1048574
2026-01-17 23:40:22.64	110.35	28.14	-84.7	-88.6	3.1	7.63e-01	0	47	104	0	60	1048574
2026-01-17 23:40:23.64	110.66	28.08	-85.2	-88.6	3.7	7.63e-01	0	47	104	0	60	1048571
2026-01-17 23:40:24.65	110.97	28.02	-85.2	-88.6	3.3	7.64e-01	0	47	104	0	60	1048573
2026-01-17 23:40:25.66	111.27	27.96	-85.2	-88.6	3.2	7.64e-01	0	47	104	0	60	1048575
2026-01-17 23:40:26.67	111.58	27.90	-85.2	-88.6	3.3	7.64e-01	0	47	104	0	60	1048575
2026-01-17 23:40:27.67	111.88	27.84	-85.2	-88.6	3.4	7.62e-01	0	47	104	0	60	1048574
2026-01-17 23:40:28.67	112.18	27.78	-85.2	-88.6	2.7	7.64e-01	0	47	104	0	60	1048575
2026-01-17 23:40:29.68	112.48	27.72	-84.7	-88.6	2.8	7.63e-01	0	47	104	0	60	1048571
2026-01-17 23:40:30.69	112.79	27.65	-84.7	-88.6	3.1	7.61e-01	0	47	104	0	60	1048567
2026-01-17 23:40:31.69	113.08	27.59	-85.2	-88.6	3.2	7.64e-01	0	47	104	0	60	1048571
2026-01-17 23:40:32.70	113.38	27.52	-85.2	-88.6	2.8	7.63e-01	0	47	104	0	60	1048575
2026-01-17 23:40:33.71	113.68	27.46	-85.2	-88.6	3.4	7.63e-01	0	47	104	0	60	1048574
2026-01-17 23:40:34.72	113.98	27.39	-84.7	-88.6	2.9	7.63e-01	0	47	104	0	60	1048575
2026-01-17 23:40:35.73	114.27	27.32	-85.2	-88.6	2.9	7.64e-01	0	47	104	0	60	1048574
2026-01-17 23:40:36.73	114.56	27.25	-85.2	-88.6	3.6	7.60e-01	0	47	104	0	60	1048575
2026-01-17 23:40:37.74	114.86	27.19	-85.2	-88.6	3.0	7.64e-01	0	47	104	0	60	1048568
2026-01-17 23:40:38.74	115.14	27.12	-85.2	-88.6	3.0	7.64e-01	0	47	104	0	60	1048571
2026-01-17 23:40:39.75	115.43	27.05	-85.2	-88.6	2.9	7.63e-01	0	47	104	0	60	1048572
2026-01-17 23:40:40.75	115.72	26.98	-85.2	-88.6	3.0	7.63e-01	0	47	104	0	60	1048574
2026-01-17 23:40:41.76	116.01	26.91	-85.2	-88.6	3.6	7.64e-01	0	47	104	0	60	1048565
2026-01-17 23:40:42.76	116.29	26.84	-85.2	-88.6	2.9	7.63e-01	0	47	104	0	60	1048575
2026-01-17 23:40:43.77	116.58	26.76	-85.2	-88.6	2.8	7.63e-01	0	47	104	0	60	1048573
2026-01-17 23:40:44.78	116.86	26.69	-85.2	-88.6	3.4	7.63e-01	0	47	104	0	60	1048575
2026-01-17 23:40:45.79	117.15	26.62	-84.7	-88.6	3.1	7.63e-01	0	47	104	0	60	1048575
2026-01-17 23:40:46.80	117.43	26.54	-84.7	-88.6	3.7	7.62e-01	0	47	104	0	60	1048570
2026-01-17 23:40:47.81	117.71	26.47	-84.7	-88.6	3.1	7.64e-01	0	47	104	0	60	1048575
2026-01-17 23:40:48.81	117.98	26.40	-85.2	-88.6	3.2	7.61e-01	0	47	104	0	60	1048574
2026-01-17 23:40:49.82	118.26	26.32	-85.2	-88.6	3.3	7.63e-01	0	47	104	0	60	1048572
2026-01-17 23:40:50.83	118.54	26.25	-85.2	-88.6	3.0	7.63e-01	0	47	104	0	60	1048573
2026-01-17 23:40:51.84	118.81	26.17	-85.2	-88.6	3.5	7.62e-01	0	47	104	0	60	1048574
2026-01-17 23:40:52.84	119.08	26.09	-84.7	-88.6	3.1	7.61e-01	0	47	104	0	60	1048571
2026-01-17 23:40:53.85	119.36	26.02	-84.7	-88.6	3.0	7.60e-01	0	47	104	0	60	1048574
2026-01-17 23:40:54.85	119.63	25.94	-85.2	-88.6	3.2	7.63e-01	0	47	104	0	60	1048569
2026-01-17 23:40:55.86	119.90	25.86	-85.2	-88.6	3.1	7.64e-01	0	47	104	0	60	1048574
2026-01-17 23:40:56.86	120.16	25.78	-85.2	-88.6	3.0	7.63e-01	0	47	104	0	60	1048571
2026-01-17 23:40:57.87	120.43	25.70	-85.2	-88.6	3.4	7.63e-01	0	47	104	0	60	1048571
2026-01-17 23:40:58.88	120.70	25.63	-85.2	-88.6	3.7	7.64e-01	0	47	104	0	60	1048568
2026-01-17 23:40:59.88	120.96	25.55	-85.2	-88.6	2.9	7.62e-01	0	47	104	0	60	1048575
2026-01-17 23:41:00.89	121.22	25.47	-85.2	-88.6	3.1	7.63e-01	0	47	104	0	60	1048572
2026-01-17 23:41:01.89	121.48	25.39	-84.7	-88.6	3.6	7.62e-01	0	47	104	0	60	1048575
2026-01-17 23:41:02.90	121.74	25.31	-84.7	-88.6	3.1	7.63e-01	0	47	104	0	60	1048574
2026-01-17 23:41:03.91	122.00	25.22	-84.7	-88.6	3.1	7.63e-01	0	47	104	0	60	1048575
2026-01-17 23:41:04.92	122.26	25.14	-85.2	-88.6	2.8	7.65e-01	0	47	104	0	60	1048574
2026-01-17 23:41:05.92	122.51	25.06	-85.2	-88.6	3.2	7.64e-01	0	47	104	0	60	1048567
2026-01-17 23:41:06.93	122.77	24.98	-85.2	-88.6	3.3	7.61e-01	0	47	104	0	60	1048572
2026-01-17 23:41:07.94	123.02	24.90	-85.2	-88.6	3.6	7.62e-01	0	47	104	0	60	1048574
2026-01-17 23:41:08.94	123.28	24.82	-85.2	-88.6	3.8	7.62e-01	0	47	104	0	60	1048575
2026-01-17 23:41:09.95	123.53	24.73	-85.2	-88.6	3.0	7.63e-01	0	47	104	0	60	1048575
2026-01-17 23:41:10.95	123.78	24.65	-85.2	-88.6	3.2	7.58e-01	0	47	104	0	60	1048568
2026-01-17 23:41:11.96	124.02	24.57	-85.2	-88.6	3.5	7.63e-01	0	47	104	0	60	1048575
2026-01-17 23:41:12.96	124.27	24.48	-85.2	-88.6	3.6	7.62e-01	0	47	104	0	60	1048571
2026-01-17 23:41:13.97	124.52	24.40	-85.2	-88.6	2.9	7.64e-01	0	47	104	0	60	1048574
2026-01-17 23:41:14.98	124.76	24.31	-85.2	-88.6	3.1	7.62e-01	0	47	104	0	60	1048574
2026-01-17 23:41:15.99	125.01	24.23	-85.2	-88.6	3.2	7.63e-01	0	47	104	0	60	1048574
2026-01-17 23:41:17.00	125.25	24.14	-84.3	-88.6	3.5	7.63e-01	0	47	104	0	60	1048574
2026-01-17 23:41:18.00	125.49	24.06	-85.2	-88.6	3.1	7.63e-01	0	47	104	0	60	1048570
2026-01-17 23:41:19.01	125.73	23.97	-85.2	-88.6	3.0	7.63e-01	0	47	104	0	60	1048567
2026-01-17 23:41:20.02	125.97	23.89	-85.2	-88.6	3.0	7.63e-01	0	47	104	0	60	1048575
2026-01-17 23:41:21.03	126.21	23.80	-85.2	-88.6	3.0	7.63e-01	0	47	104	0	60	1048571
2026-01-17 23:41:22.04	126.44	23.72	-84.3	-88.6	3.6	7.64e-01	0	47	104	0	60	1048574
2026-01-17 23:41:23.05	126.68	23.63	-85.2	-88.6	3.6	7.62e-01	0	47	104	0	60	1048571
2026-01-17 23:41:24.05	126.91	23.54	-85.2	-88.6	2.8	7.63e-01	0	47	104	0	60	1048574
2026-01-17 23:41:25.06	127.14	23.46	-85.2	-88.6	3.2	7.63e-01	0	47	104	0	60	1048575
2026-01-17 23:41:26.06	127.37	23.37	-85.2	-88.6	3.1	7.61e-01	0	47	104	0	60	1048570
2026-01-17 23:41:27.07	127.60	23.28	-85.2	-88.6	3.1	7.64e-01	0	47	104	0	60	1048569
2026-01-17 23:41:28.07	127.83	23.20	-84.7	-88.6	3.0	7.62e-01	0	47	104	0	60	1048570
2026-01-17 23:41:29.08	128.06	23.11	-85.2	-88.6	3.1	7.62e-01	0	47	104	0	60	1048572
2026-01-17 23:41:30.08	128.28	23.02	-85.2	-88.6	2.9	7.63e-01	0	47	104	0	60	1048574
2026-01-17 23:41:31.08	128.50	22.93	-84.7	-88.6	3.0	7.63e-01	0	47	104	0	60	1048575
2026-01-17 23:41:32.09	128.73	22.85	-83.9	-88.6	3.2	7.63e-01	0	47	104	0	60	1048571
2026-01-17 23:41:33.09	128.95	22.76	-85.2	-88.6	2.9	7.63e-01	0	47	104	0	60	1048572
2026-01-17 23:41:34.10	129.17	22.67	-85.2	-88.6	3.2	7.64e-01	0	47	104	0	60	1048569
2026-01-17 23:41:35.11	129.39	22.58	-85.2	-88.6	3.0	7.64e-01	0	47	104	0	60	1048573
2026-01-17 23:41:36.12	129.61	22.49	-85.2	-88.6	3.7	7.65e-01	0	47	104	0	60	1048573
2026-01-17 23:41:37.13	129.83	22.41	-85.2	-88.6	3.6	7.62e-01	0	47	104	0	60	1048573
2026-01-17 23:41:38.13	130.04	22.32	-85.2	-88.6	3.0	7.63e-01	0	47	104	0	60	1048569
2026-01-17 23:41:39.14	130.26	22.23	-85.2	-88.6	3.0	7.64e-01	0	47	104	0	60	1048574
2026-01-17 23:41:40.15	130.47	22.14	-85.2	-88.6	3.3	7.64e-01	0	47	104	0	60	1048575
2026-01-17 23:41:41.16	130.68	22.05	-83.5	-88.6	3.2	7.62e-01	0	47	104	0	60	1048573
2026-01-17 23:41:42.16	130.89	21.96	-83.5	-88.6	3.4	7.63e-01	0	47	104	0	60	1048574
2026-01-17 23:41:43.16	131.10	21.87	-85.2	-88.6	3.1	7.63e-01	0	47	104	0	60	1048575
2026-01-17 23:41:44.17	131.31	21.79	-85.2	-88.6	2.8	7.64e-01	0	47	104	0	60	1048575
2026-01-17 23:41:45.18	131.52	21.70	-85.2	-88.6	3.2	7.63e-01	0	47	104	0	60	1048574
2026-01-17 23:41:46.19	131.73	21.61	-85.2	-88.6	3.5	7.63e-01	0	47	104	0	60	1048575
2026-01-17 23:41:47.19	131.93	21.52	-85.2	-88.6	3.1	7.62e-01	0	47	104	0	60	1048575
2026-01-17 23:41:48.20	132.14	21.43	-85.2	-88.6	2.9	7.62e-01	0	47	104	0	60	1048570
2026-01-17 23:41:49.20	132.34	21.34	-85.2	-88.6	3.3	7.63e-01	0	47	104	0	60	1048574
2026-01-17 23:41:50.20	132.54	21.25	-85.2	-88.6	3.3	7.63e-01	0	47	104	0	60	1048570
2026-01-17 23:41:51.20	132.74	21.16	-85.2	-88.6	2.8	7.63e-01	0	47	104	0	60	1048573
2026-01-17 23:41:52.21	132.94	21.07	-85.2	-88.6	3.3	7.62e-01	0	47	104	0	60	1048573
2026-01-17 23:41:53.21	133.14	20.98	-85.2	-88.6	3.7	7.62e-01	0	47	104	0	60	1048571
2026-01-17 23:41:54.22	133.34	20.89	-85.2	-88.6	3.3	7.63e-01	0	47	104	0	60	1048574
2026-01-17 23:41:55.22	133.53	20.81	-85.2	-88.6	3.1	7.64e-01	0	47	104	0	60	1048574
2026-01-17 23:41:56.23	133.73	20.72	-85.2	-88.6	3.5	7.62e-01	0	47	104	0	60	1048572
2026-01-17 23:41:57.24	133.92	20.63	-84.7	-88.6	3.4	7.64e-01	0	47	104	0	60	1048573
2026-01-17 23:41:58.24	134.11	20.54	-85.2	-88.6	3.1	7.63e-01	0	47	104	0	60	1048573
2026-01-17 23:41:59.24	134.30	20.45	-85.2	-88.6	3.0	7.64e-01	0	47	104	0	60	1048573
2026-01-17 23:42:00.25	134.50	20.36	-84.7	-88.6	3.2	7.64e-01	0	47	104	0	60	1048575
2026-01-17 23:42:01.25	134.69	20.27	-85.2	-88.6	3.0	7.61e-01	0	47	104	0	60	1048560
2026-01-17 23:42:02.26	134.87	20.18	-85.2	-88.6	3.2	7.64e-01	0	47	104	0	60	1048573
2026-01-17 23:42:03.27	135.06	20.09	-85.2	-88.6	3.0	7.59e-01	0	47	104	0	60	1048574
2026-01-17 23:42:04.27	135.25	20.00	-85.2	-88.6	3.2	7.63e-01	0	47	104	0	60	1048575
2026-01-17 23:42:05.28	135.43	19.91	-85.2	-88.6	2.9	7.62e-01	0	47	104	0	60	1048573
2026-01-17 23:42:06.29	135.62	19.82	-84.3	-88.6	3.3	7.62e-01	0	47	104	0	60	1048575
2026-01-17 23:42:07.30	135.80	19.73	-84.3	-88.6	3.8	7.63e-01	0	47	104	0	60	1048574
2026-01-17 23:42:08.30	135.99	19.64	-85.2	-88.6	2.9	7.63e-01	0	47	104	0	60	1048575
2026-01-17 23:42:09.31	136.17	19.55	-85.2	-88.6	3.0	7.62e-01	0	47	104	0	60	1048573
2026-01-17 23:42:10.32	136.35	19.47	-85.2	-88.6	3.1	7.63e-01	0	47	104	0	60	1048575
2026-01-17 23:42:11.33	136.53	19.38	-85.2	-88.6	3.5	7.64e-01	0	47	104	0	60	1048575
2026-01-17 23:42:12.34	136.71	19.29	-84.7	-88.6	3.3	7.64e-01	0	47	104	0	60	1048569
2026-01-17 23:42:13.34	136.88	19.20	-84.7	-88.6	2.9	7.64e-01	0	47	104	0	60	1048572
2026-01-17 23:42:14.35	137.06	19.11	-85.2	-88.6	2.9	7.63e-01	0	47	104	0	60	1048569
2026-01-17 23:42:15.35	137.24	19.02	-85.2	-88.6	3.0	7.63e-01	0	47	104	0	60	1048572
2026-01-17 23:42:16.36	137.41	18.93	-83.5	-88.6	3.3	7.61e-01	0	47	104	0	60	1048566
2026-01-17 23:42:17.36	137.58	18.84	-83.5	-88.6	3.6	7.61e-01	0	47	104	0	60	1048575
2026-01-17 23:42:18.37	137.76	18.75	-85.2	-88.6	3.6	7.62e-01	0	47	104	0	60	1048575
2026-01-17 23:42:19.38	137.93	18.66	-85.2	-88.6	3.3	7.63e-01	0	47	104	0	60	1048575
2026-01-17 23:42:20.38	138.10	18.58	-85.2	-88.6	3.0	7.63e-01	0	47	104	0	60	1048575
2026-01-17 23:42:21.38	138.27	18.49	-85.2	-88.6	3.2	7.64e-01	0	47	104	0	60	1048575
2026-01-17 23:42:22.39	138.44	18.40	-85.2	-88.6	3.0	7.63e-01	0	47	104	0	60	1048574
2026-01-17 23:42:23.40	138.60	18.31	-84.7	-88.6	3.4	7.63e-01	0	47	104	0	60	1048571
2026-01-17 23:42:24.40	138.77	18.22	-85.2	-88.6	2.9	7.63e-01	0	47	104	0	60	1048573
2026-01-17 23:42:25.41	138.94	18.14	-85.2	-88.6	2.9	7.64e-01	0	47	104	0	60	1048574
2026-01-17 23:42:26.42	139.10	18.05	-85.2	-88.6	3.0	7.62e-01	0	47	104	0	60	1048568
2026-01-17 23:42:27.42	139.26	17.96	-85.2	-88.6	3.5	7.64e-01	0	47	104	0	60	1048573
2026-01-17 23:42:28.42	139.43	17.87	-85.2	-88.6	3.6	7.63e-01	0	47	104	0	60	1048574
2026-01-17 23:42:29.43	139.59	17.78	-85.2	-88.6	3.3	7.62e-01	0	47	104	0	60	1048575
2026-01-17 23:42:30.44	139.75	17.70	-84.7	-88.6	3.1	7.62e-01	0	47	104	0	60	1048574
2026-01-17 23:42:31.44	139.91	17.61	-85.2	-88.6	3.2	7.62e-01	0	47	104	0	60	1048572
2026-01-17 23:42:32.45	140.07	17.52	-85.2	-88.6	3.1	7.62e-01	0	47	104	0	60	1048575
2026-01-17 23:42:33.46	140.23	17.43	-84.7	-88.6	3.0	7.63e-01	0	47	104	0	60	1048573
2026-01-17 23:42:34.46	140.39	17.35	-85.2	-88.6	3.0	7.62e-01	0	47	104	0	60	1048573
2026-01-17 23:42:35.47	140.54	17.26	-85.2	-88.6	3.3	7.63e-01	0	47	104	0	60	1048573
2026-01-17 23:42:36.48	140.70	17.17	-85.2	-88.6	3.3	7.64e-01	0	47	104	0	60	1048574
2026-01-17 23:42:37.48	140.85	17.09	-85.2	-88.6	3.3	7.64e-01	0	47	104	0	60	1048573
2026-01-17 23:42:38.49	141.01	17.00	-85.2	-88.6	3.5	7.62e-01	0	47	104	0	60	1048574
2026-01-17 23:42:39.50	141.16	16.91	-85.2	-88.6	3.0	7.64e-01	0	47	104	0	60	1048574
2026-01-17 23:42:40.50	141.31	16.83	-85.2	-88.6	3.0	7.62e-01	0	47	104	0	60	1048575
2026-01-17 23:42:41.51	141.47	16.74	-85.2	-88.6	3.1	7.63e-01	0	47	104	0	60	1048575
2026-01-17 23:42:42.52	141.62	16.65	-84.7	-88.6	2.9	7.63e-01	0	47	104	0	60	1048575
2026-01-17 23:42:43.53	141.77	16.57	-85.2	-88.6	2.8	7.63e-01	0	47	104	0	60	1048574
2026-01-17 23:42:44.54	141.92	16.48	-85.2	-88.6	3.0	7.63e-01	0	47	104	0	60	1048573
2026-01-17 23:42:45.54	142.06	16.39	-85.2	-88.6	3.4	7.63e-01	0	47	104	0	60	1048573
2026-01-17 23:42:46.55	142.21	16.31	-85.2	-88.6	3.5	7.63e-01	0	47	104	0	60	1048570
2026-01-17 23:42:47.56	142.36	16.22	-84.7	-88.6	3.2	7.63e-01	0	47	104	0	60	1048575
2026-01-17 23:42:48.56	142.50	16.14	-85.2	-88.6	2.9	7.62e-01	0	47	104	0	60	1048569
2026-01-17 23:42:49.57	142.65	16.05	-85.2	-88.6	3.5	7.62e-01	0	47	104	0	60	1048573
2026-01-17 23:42:50.58	142.79	15.96	-85.2	-88.6	3.2	7.63e-01	0	47	104	0	60	1048574
2026-01-17 23:42:51.58	142.94	15.88	-85.2	-88.6	3.1	7.63e-01	0	47	104	0	60	1048575
2026-01-17 23:42:52.59	143.08	15.79	-84.7	-88.6	3.2	7.63e-01	0	47	104	0	60	1048575
2026-01-17 23:42:53.60	143.22	15.71	-85.2	-88.6	3.2	7.64e-01	0	47	104	0	60	1048573
2026-01-17 23:42:54.60	143.36	15.63	-85.2	-88.6	2.8	7.63e-01	0	47	104	0	60	1048575
2026-01-17 23:42:55.60	143.50	15.54	-85.2	-88.6	2.9	7.63e-01	0	47	104	0	60	1048575
2026-01-17 23:42:56.61	143.64	15.46	-85.2	-88.6	3.5	7.62e-01	0	47	104	0	60	1048574
2026-01-17 23:42:57.62	143.78	15.37	-84.7	-88.6	3.3	7.63e-01	0	47	104	0	60	1048574
2026-01-17 23:42:58.62	143.92	15.29	-85.2	-88.6	3.0	7.63e-01	0	47	104	0	60	1048574
2026-01-17 23:42:59.63	144.06	15.20	-85.2	-88.6	3.1	7.64e-01	0	47	104	0	60	1048567
2026-01-17 23:43:00.63	144.19	15.12	-85.2	-88.6	3.5	7.63e-01	0	47	104	0	60	1048574
2026-01-17 23:43:01.64	144.33	15.04	-85.2	-88.6	3.2	7.63e-01	0	47	104	0	60	1048574
2026-01-17 23:43:02.65	144.46	14.95	-85.2	-88.6	3.6	7.61e-01	0	47	104	0	60	1048569
2026-01-17 23:43:03.65	144.60	14.87	-85.2	-88.6	3.5	7.62e-01	0	47	104	0	60	1048570
2026-01-17 23:43:04.66	144.73	14.78	-85.2	-88.6	2.9	7.63e-01	0	47	104	0	60	1048572
2026-01-17 23:43:05.66	144.86	14.70	-85.2	-88.6	3.0	7.62e-01	0	47	104	0	60	1048567
2026-01-17 23:43:06.66	144.99	14.62	-84.3	-88.6	2.8	7.63e-01	0	47	104	0	60	1048575
2026-01-17 23:43:07.66	145.13	14.54	-85.2	-88.6	3.6	7.63e-01	0	47	104	0	60	1048575
2026-01-17 23:43:08.66	145.26	14.45	-85.2	-88.6	2.9	7.63e-01	0	47	104	0	60	1048574
2026-01-17 23:43:09.67	145.39	14.37	-85.2	-88.6	2.8	7.62e-01	0	47	104	0	60	1048575
2026-01-17 23:43:10.67	145.51	14.29	-85.2	-88.6	3.6	7.64e-01	0	47	104	0	60	1048575
2026-01-17 23:43:11.68	145.64	14.21	-85.2	-88.6	3.2	7.63e-01	0	47	104	0	60	1048575
2026-01-17 23:43:12.68	145.77	14.13	-85.2	-88.6	3.2	7.63e-01	0	47	104	0	60	1048572
2026-01-17 23:43:13.68	145.90	14.04	-85.2	-88.6	3.1	7.63e-01	0	47	104	0	60	1048570
2026-01-17 23:43:14.69	146.02	13.96	-85.2	-88.6	2.9	7.64e-01	0	47	104	0	60	1048574
2026-01-17 23:43:15.69	146.15	13.88	-85.2	-88.6	3.0	7.62e-01	0	47	104	0	60	1048575
2026-01-17 23:43:16.70	146.28	13.80	-84.7	-88.6	2.9	7.64e-01	0	47	104	0	60	1048569
2026-01-17 23:43:17.71	146.40	13.72	-85.2	-88.6	3.5	7.63e-01	0	47	104	0	60	1048573
2026-01-17 23:43:18.71	146.52	13.64	-85.2	-88.6	3.2	7.63e-01	0	47	104	0	60	1048573
2026-01-17 23:43:19.72	146.65	13.55	-85.2	-88.6	2.9	7.62e-01	0	47	104	0	60	1048575
2026-01-17 23:43:20.73	146.77	13.47	-85.2	-88.6	3.6	7.64e-01	0	47	104	0	60	1048575
2026-01-17 23:43:21.73	146.89	13.39	-84.7	-88.6	3.3	7.63e-01	0	47	104	0	60	1048570
2026-01-17 23:43:22.74	147.01	13.31	-85.2	-88.6	3.1	7.62e-01	0	47	104	0	60	1048575
2026-01-17 23:43:23.75	147.13	13.23	-85.2	-88.6	3.4	7.63e-01	0	47	104	0	60	1048571
2026-01-17 23:43:24.75	147.25	13.15	-85.2	-88.6	3.1	7.64e-01	0	48	104	0	60	1048575
2026-01-17 23:43:25.75	147.37	13.07	-84.7	-88.6	3.3	7.63e-01	0	47	104	0	60	1048575
2026-01-17 23:43:26.76	147.49	12.99	-85.2	-88.6	3.1	7.63e-01	0	47	104	0	60	1048572
2026-01-17 23:43:27.76	147.61	12.91	-84.3	-88.6	2.9	7.62e-01	0	47	104	0	60	1048575
2026-01-17 23:43:28.76	147.73	12.83	-85.2	-88.6	3.6	7.62e-01	0	47	104	0	60	1048575
2026-01-17 23:43:29.77	147.84	12.75	-85.2	-88.6	3.1	7.63e-01	0	47	104	0	60	1048574
2026-01-17 23:43:30.77	147.96	12.67	-85.2	-88.6	2.8	7.62e-01	0	47	104	0	60	1048575
2026-01-17 23:43:31.78	148.08	12.59	-85.2	-88.6	3.5	7.62e-01	0	47	104	0	60	1048575
2026-01-17 23:43:32.79	148.19	12.51	-85.2	-88.6	2.9	7.63e-01	0	47	104	0	60	1048571
2026-01-17 23:43:33.80	148.31	12.43	-85.2	-88.6	3.0	7.63e-01	0	47	104	0	60	1048574
2026-01-17 23:43:34.81	148.42	12.35	-85.2	-88.6	3.2	7.64e-01	0	47	104	0	60	1048572
2026-01-17 23:43:35.81	148.53	12.28	-85.2	-88.6	3.1	7.64e-01	0	47	104	0	60	1048575
2026-01-17 23:43:36.82	148.65	12.20	-85.2	-88.6	3.0	7.62e-01	0	47	104	0	60	1048575
2026-01-17 23:43:37.83	148.76	12.12	-85.2	-88.6	3.2	7.63e-01	0	47	104	0	60	1048573
2026-01-17 23:43:38.83	148.87	12.04	-85.2	-88.6	3.0	7.63e-01	0	47	104	0	60	1048571
2026-01-17 23:43:39.84	148.98	11.96	-85.2	-88.6	3.1	7.63e-01	0	47	104	0	60	1048573
2026-01-17 23:43:40.84	149.09	11.89	-84.7	-88.6	3.1	7.64e-01	0	47	104	0	60	1048575
2026-01-17 23:43:41.85	149.20	11.81	-85.2	-88.6	3.5	7.64e-01	0	47	104	0	60	1048572
2026-01-17 23:43:42.86	149.31	11.73	-85.2	-88.6	3.4	7.64e-01	0	47	104	0	60	1048575
2026-01-17 23:43:43.86	149.42	11.65	-85.2	-88.6	3.0	7.63e-01	0	47	104	0	60	1048574
2026-01-17 23:43:44.86	149.53	11.58	-84.7	-88.6	3.0	7.65e-01	0	47	104	0	60	1048571
2026-01-17 23:43:45.86	149.64	11.50	-85.2	-88.6	3.6	7.63e-01	0	47	104	0	60	1048575
2026-01-17 23:43:46.87	149.74	11.42	-85.2	-88.6	3.7	7.63e-01	0	47	104	0	60	1048574
2026-01-17 23:43:47.88	149.85	11.34	-85.2	-88.6	3.0	7.63e-01	0	47	104	0	60	1048574
2026-01-17 23:43:48.89	149.96	11.27	-85.2	-88.6	3.6	7.63e-01	0	47	104	0	60	1048573
2026-01-17 23:43:49.90	150.06	11.19	-84.7	-88.6	3.0	7.62e-01	0	47	104	0	60	1048570
2026-01-17 23:43:50.90	150.17	11.11	-85.2	-88.6	3.0	7.63e-01	0	47	104	0	60	1048575
2026-01-17 23:43:51.91	150.27	11.04	-85.2	-88.6	2.8	7.63e-01	0	47	104	0	60	1048575
2026-01-17 23:43:52.92	150.38	10.96	-85.2	-88.6	3.5	7.64e-01	0	47	104	0	60	1048574
2026-01-17 23:43:53.93	150.48	10.89	-85.2	-88.6	3.0	7.63e-01	0	47	104	0	60	1048571
2026-01-17 23:43:54.94	150.59	10.81	-84.7	-88.6	2.9	7.64e-01	0	47	104	0	60	1048575
2026-01-17 23:43:55.94	150.69	10.73	-85.2	-88.6	3.7	7.64e-01	0	47	104	0	60	1048575
2026-01-17 23:43:56.95	150.79	10.66	-85.2	-88.6	3.3	7.63e-01	0	47	104	0	60	1048575
2026-01-17 23:43:57.96	150.89	10.58	-84.3	-88.6	3.2	7.61e-01	0	47	104	0	60	1048575
2026-01-17 23:43:58.96	150.99	10.51	-84.7	-88.6	3.2	7.64e-01	0	47	104	0	60	1048569
2026-01-17 23:43:59.96	151.09	10.43	-85.2	-88.6	3.1	7.62e-01	0	47	104	0	60	1048575
2026-01-17 23:44:00.97	151.19	10.36	-85.2	-88.6	3.2	7.61e-01	0	47	104	0	60	1048573
2026-01-17 23:44:01.97	151.29	10.28	-85.2	-88.6	2.9	7.63e-01	0	47	104	0	60	1048573
2026-01-17 23:44:02.98	151.39	10.21	-85.2	-88.6	2.9	7.63e-01	0	47	104	0	60	1048574
2026-01-17 23:44:03.99	151.49	10.13	-84.7	-88.6	3.1	7.64e-01	0	47	104	0	60	1048573
2026-01-17 23:44:05.00	151.59	10.06	-85.2	-88.6	2.9	7.63e-01	0	47	104	0	60	1048575
2026-01-17 23:44:06.00	151.69	9.99	-85.2	-88.6	3.5	7.64e-01	0	47	104	0	60	1048570
2026-01-17 23:44:07.01	151.78	9.91	-85.2	-88.6	3.0	7.64e-01	0	47	104	0	60	1048575
2026-01-17 23:44:08.02	151.88	9.84	-85.2	-88.6	2.8	7.64e-01	0	47	104	0	60	1048575
2026-01-17 23:44:09.03	151.98	9.76	-85.2	-88.6	3.1	7.63e-01	0	47	104	0	60	1048575
2026-01-17 23:44:10.03	152.07	9.69	-85.2	-88.6	3.3	7.63e-01	0	47	104	0	60	1048573
2026-01-17 23:44:11.04	152.17	9.62	-85.2	-88.6	3.0	7.63e-01	0	47	104	0	60	1048574
2026-01-17 23:44:12.05	152.26	9.54	-85.2	-88.6	3.0	7.62e-01	0	47	104	0	60	1048574
2026-01-17 23:44:13.05	152.36	9.47	-85.2	-88.6	3.2	7.64e-01	0	47	104	0	60	1048566
2026-01-17 23:44:14.05	152.45	9.40	-85.2	-88.6	3.6	7.63e-01	0	47	104	0	60	1048570
2026-01-17 23:44:15.06	152.54	9.33	-85.2	-88.6	3.0	7.65e-01	0	47	104	0	60	1048572
2026-01-17 23:44:16.06	152.64	9.25	-85.2	-88.6	3.1	7.62e-01	0	47	104	0	60	1048575
2026-01-17 23:44:17.06	152.73	9.18	-85.2	-88.6	3.1	7.64e-01	0	47	104	0	60	1048574
2026-01-17 23:44:18.06	152.82	9.11	-85.2	-88.6	3.5	7.62e-01	0	47	104	0	60	1048573
2026-01-17 23:44:19.07	152.91	9.04	-85.2	-88.6	2.8	7.62e-01	0	47	104	0	60	1048569
2026-01-17 23:44:20.08	153.00	8.97	-85.2	-88.6	3.2	7.64e-01	0	47	104	0	60	1048575
2026-01-17 23:44:21.08	153.09	8.89	-85.2	-88.6	3.3	7.63e-01	0	47	104	0	60	1048569
2026-01-17 23:44:22.09	153.19	8.82	-85.2	-88.6	3.3	7.62e-01	0	47	104	0	60	1048575
2026-01-17 23:44:23.09	153.27	8.75	-84.7	-88.6	3.1	7.65e-01	0	47	104	0	60	1048575
2026-01-17 23:44:24.10	153.36	8.68	-85.2	-88.6	3.1	7.64e-01	0	47	104	0	60	1048574
2026-01-17 23:44:25.11	153.45	8.61	-85.2	-88.6	2.9	7.63e-01	0	47	104	0	60	1048574
2026-01-17 23:44:26.11	153.54	8.54	-85.2	-88.6	3.0	7.63e-01	0	47	104	0	60	1048575
2026-01-17 23:44:27.12	153.63	8.47	-85.2	-88.6	3.2	7.64e-01	0	47	104	0	60	1048573
2026-01-17 23:44:28.13	153.72	8.39	-85.2	-88.6	3.5	7.63e-01	0	47	104	0	60	1048574
2026-01-17 23:44:29.13	153.81	8.32	-85.2	-88.6	2.9	7.62e-01	0	47	104	0	60	1048575
2026-01-17 23:44:30.14	153.89	8.25	-85.2	-88.6	3.1	7.64e-01	0	47	104	0	60	1048568
2026-01-17 23:44:31.14	153.98	8.18	-85.2	-88.6	3.2	7.63e-01	0	47	104	0	60	1048573
2026-01-17 23:44:32.15	154.07	8.11	-85.2	-88.6	3.6	7.63e-01	0	47	104	0	60	1048575
2026-01-17 23:44:33.15	154.15	8.04	-85.2	-88.6	3.0	7.63e-01	0	47	104	0	60	1048572
2026-01-17 23:44:34.15	154.24	7.97	-85.2	-88.6	3.0	7.63e-01	0	47	104	0	60	1048573
2026-01-17 23:44:35.16	154.32	7.90	-85.2	-88.6	3.4	7.63e-01	0	47	104	0	60	1048574
2026-01-17 23:44:36.16	154.41	7.83	-85.2	-88.6	3.2	7.63e-01	0	47	104	0	60	1048575
2026-01-17 23:44:37.17	154.49	7.76	-85.2	-88.6	2.9	7.62e-01	0	47	104	0	60	1048575
2026-01-17 23:44:38.18	154.58	7.69	-85.2	-88.6	2.8	7.63e-01	0	47	104	0	60	1048575
2026-01-17 23:44:39.18	154.66	7.63	-85.2	-88.6	3.2	7.64e-01	0	47	104	0	60	1048573
2026-01-17 23:44:40.19	154.74	7.56	-85.2	-88.6	3.1	7.65e-01	0	47	104	0	60	1048573
2026-01-17 23:44:41.19	154.83	7.49	-85.2	-88.6	3.1	7.65e-01	0	47	104	0	60	1048574
2026-01-17 23:44:42.20	154.91	7.42	-84.7	-88.6	3.0	7.64e-01	0	47	104	0	60	1048571
2026-01-17 23:44:43.21	154.99	7.35	-85.2	-88.6	2.9	7.64e-01	0	47	104	0	60	1048575
2026-01-17 23:44:44.22	155.07	7.28	-85.2	-88.6	3.4	7.64e-01	0	47	104	0	60	1048575
2026-01-17 23:44:45.22	155.15	7.21	-85.2	-88.6	3.3	7.64e-01	0	47	104	0	60	1048574
2026-01-17 23:44:46.23	155.24	7.14	-85.2	-88.6	2.9	7.63e-01	0	47	104	0	60	1048575
2026-01-17 23:44:47.23	155.32	7.08	-85.2	-88.6	2.9	7.62e-01	0	47	104	0	60	1048574
2026-01-17 23:44:48.24	155.40	7.01	-85.2	-88.6	2.6	7.61e-01	0	47	104	0	60	1048575
2026-01-17 23:44:49.24	155.48	6.94	-84.7	-88.6	3.1	7.64e-01	0	47	104	0	60	1048575
2026-01-17 23:44:50.25	155.56	6.87	-85.2	-88.6	3.2	7.63e-01	0	47	104	0	60	1048566
2026-01-17 23:44:51.25	155.64	6.81	-84.7	-88.6	2.9	7.63e-01	0	47	104	0	60	1048574
2026-01-17 23:44:52.26	155.71	6.74	-85.2	-88.6	3.3	7.63e-01	0	47	104	0	60	1048575
2026-01-17 23:44:53.27	155.79	6.67	-85.2	-88.6	3.0	7.63e-01	0	47	104	0	60	1048574
2026-01-17 23:44:54.28	155.87	6.60	-85.2	-88.6	3.3	7.62e-01	0	47	104	0	60	1048575
2026-01-17 23:44:55.29	155.95	6.53	-85.2	-88.6	2.8	7.63e-01	0	47	104	0	60	1048575
2026-01-17 23:44:56.29	156.03	6.47	-85.2	-88.6	3.0	7.63e-01	0	47	104	0	60	1048566
2026-01-17 23:44:57.30	156.10	6.40	-85.2	-88.6	3.4	7.63e-01	0	47	104	0	60	1048574
2026-01-17 23:44:58.31	156.18	6.33	-85.2	-88.6	3.8	7.62e-01	0	47	104	0	60	1048570
2026-01-17 23:44:59.32	156.26	6.27	-84.7	-88.6	2.9	7.61e-01	0	47	104	0	60	1048573
2026-01-17 23:45:00.33	156.34	6.20	-85.2	-88.6	2.9	7.63e-01	0	47	104	0	60	1048572
2026-01-17 23:45:01.33	156.41	6.13	-84.7	-88.6	3.7	7.61e-01	0	47	104	0	60	1048568
2026-01-17 23:45:02.34	156.49	6.07	-85.2	-88.6	2.8	7.63e-01	0	47	104	0	60	1048574
2026-01-17 23:45:03.34	156.56	6.00	-85.2	-88.6	3.1	7.61e-01	0	47	104	0	60	1048573
2026-01-17 23:45:04.35	156.64	5.94	-85.2	-88.6	2.9	7.63e-01	0	47	104	0	60	1048575
2026-01-17 23:45:05.36	156.71	5.87	-85.2	-88.6	3.1	7.63e-01	0	47	104	0	60	1048575
2026-01-17 23:45:06.36	156.79	5.81	-85.2	-88.6	3.1	7.63e-01	0	47	104	0	60	1048572
2026-01-17 23:45:07.37	156.86	5.74	-85.2	-88.6	3.0	7.63e-01	0	47	104	0	60	1048573
2026-01-17 23:45:08.38	156.93	5.67	-85.2	-88.6	3.8	7.62e-01	0	47	104	0	60	1048575
2026-01-17 23:45:09.39	157.01	5.61	-85.2	-88.6	2.9	7.63e-01	0	47	104	0	60	1048566
2026-01-17 23:45:10.40	157.08	5.54	-85.2	-88.6	3.0	7.63e-01	0	47	104	0	60	1048571
2026-01-17 23:45:11.40	157.15	5.48	-85.2	-88.6	3.3	7.63e-01	0	47	104	0	60	1048567
2026-01-17 23:45:12.41	157.23	5.41	-85.2	-88.6	3.2	7.62e-01	0	47	104	0	60	1048575
2026-01-17 23:45:13.42	157.30	5.35	-85.2	-88.6	3.5	7.63e-01	0	47	104	0	60	1048572
2026-01-17 23:45:14.42	157.37	5.28	-85.2	-88.6	3.6	7.63e-01	0	47	104	0	60	1048575
2026-01-17 23:45:15.43	157.44	5.22	-85.2	-88.6	3.5	7.63e-01	0	47	104	0	60	1048575
2026-01-17 23:45:16.44	157.51	5.15	-85.2	-88.6	2.8	7.62e-01	0	47	104	0	60	1048573
2026-01-17 23:45:17.45	157.58	5.09	-85.2	-88.6	2.8	7.64e-01	0	47	104	0	60	1048575
2026-01-17 23:45:18.45	157.65	5.03	-85.2	-88.6	2.7	7.64e-01	0	47	104	0	60	1048575
2026-01-17 23:45:19.45	157.72	4.96	-85.2	-88.6	3.7	7.63e-01	0	47	104	0	60	1048573
2026-01-17 23:45:20.46	157.79	4.90	-84.7	-88.6	2.9	7.62e-01	0	47	104	0	60	1048574
2026-01-17 23:45:21.47	157.86	4.83	-85.2	-88.6	3.2	7.63e-01	0	47	104	0	60	1048575
2026-01-17 23:45:22.47	157.93	4.77	-85.2	-88.6	3.4	7.63e-01	0	47	104	0	60	1048575
2026-01-17 23:45:23.48	158.00	4.71	-85.2	-88.6	3.3	7.62e-01	0	47	104	0	60	1048572
2026-01-17 23:45:24.49	158.07	4.64	-85.2	-88.6	3.5	7.64e-01	0	47	104	0	60	1048572
2026-01-17 23:45:25.49	158.14	4.58	-84.7	-88.6	3.3	7.63e-01	0	47	104	0	60	1048573
2026-01-17 23:45:26.49	158.21	4.52	-85.2	-88.6	2.9	7.63e-01	0	47	104	0	60	1048573
2026-01-17 23:45:27.50	158.28	4.45	-85.2	-88.6	2.8	7.62e-01	0	47	104	0	60	1048574
2026-01-17 23:45:28.51	158.35	4.39	-85.2	-88.6	3.4	7.63e-01	0	47	104	0	60	1048568
2026-01-17 23:45:29.51	158.41	4.33	-84.7	-88.6	3.4	7.62e-01	0	47	104	0	60	1048568
2026-01-17 23:45:30.52	158.48	4.26	-85.2	-88.6	3.1	7.63e-01	0	47	104	0	60	1048571
2026-01-17 23:45:31.52	158.55	4.20	-85.2	-88.6	2.9	7.63e-01	0	47	104	0	60	1048575
2026-01-17 23:45:32.53	158.61	4.14	-85.2	-88.6	3.5	7.64e-01	0	47	104	0	60	1048575
2026-01-17 23:45:33.54	158.68	4.08	-85.2	-88.6	2.8	7.62e-01	0	47	104	0	60	1048572
2026-01-17 23:45:34.54	158.75	4.02	-85.2	-88.6	2.9	7.63e-01	0	47	104	0	60	1048572
2026-01-17 23:45:35.55	158.81	3.95	-85.2	-88.6	3.1	7.62e-01	0	47	104	0	60	1048574
2026-01-17 23:45:36.56	158.88	3.89	-85.2	-88.6	3.2	7.62e-01	0	47	104	0	60	1048565
2026-01-17 23:45:37.57	158.94	3.83	-85.2	-88.6	3.5	7.63e-01	0	47	104	0	60	1048575
2026-01-17 23:45:38.57	159.01	3.77	-85.2	-88.6	3.1	7.63e-01	0	47	104	0	60	1048574
2026-01-17 23:45:39.58	159.07	3.70	-84.7	-88.6	3.0	7.62e-01	0	47	104	0	60	1048575
2026-01-17 23:45:40.58	159.14	3.64	-85.2	-88.6	3.0	7.61e-01	0	47	104	0	60	1048573
2026-01-17 23:45:41.59	159.20	3.58	-85.2	-88.6	2.9	7.59e-01	0	47	104	0	60	1048575
2026-01-17 23:45:42.60	159.27	3.52	-85.2	-88.6	3.0	7.64e-01	0	47	104	0	60	1048573
2026-01-17 23:45:43.60	159.33	3.46	-85.2	-88.6	3.0	7.63e-01	0	47	104	0	60	1048570
2026-01-17 23:45:44.61	159.39	3.40	-85.2	-88.6	3.0	7.64e-01	0	47	104	0	60	1048574
2026-01-17 23:45:45.62	159.46	3.34	-85.2	-88.6	3.3	7.63e-01	0	47	104	0	60	1048575
2026-01-17 23:45:46.62	159.52	3.28	-85.2	-88.6	3.4	7.63e-01	0	47	104	0	60	1048574
2026-01-17 23:45:47.63	159.58	3.21	-85.2	-88.6	3.1	7.64e-01	0	47	104	0	60	1048575
2026-01-17 23:45:48.64	159.65	3.15	-85.2	-88.6	3.7	7.63e-01	0	47	104	0	60	1048569
2026-01-17 23:45:49.65	159.71	3.09	-84.7	-88.6	3.1	7.63e-01	0	47	104	0	60	1048574
2026-01-17 23:45:50.66	159.77	3.03	-85.2	-88.6	3.2	7.62e-01	0	47	104	0	60	1048572
2026-01-17 23:45:51.66	159.83	2.97	-85.2	-88.6	3.2	7.63e-01	0	47	104	0	60	1048575
2026-01-17 23:45:52.67	159.89	2.91	-85.2	-88.6	3.6	7.62e-01	0	47	104	0	60	1048573
2026-01-17 23:45:53.68	159.96	2.85	-84.3	-88.6	3.7	7.63e-01	0	47	104	0	60	1048572
2026-01-17 23:45:54.68	160.02	2.79	-85.2	-88.6	3.2	7.63e-01	0	47	104	0	60	1048575
2026-01-17 23:45:55.69	160.08	2.73	-84.7	-88.6	2.9	7.62e-01	0	47	104	0	60	1048574
2026-01-17 23:45:56.70	160.14	2.67	-85.2	-88.6	2.8	7.63e-01	0	47	104	0	60	1048570
2026-01-17 23:45:57.71	160.20	2.61	-85.2	-88.6	2.7	7.63e-01	0	47	104	0	60	1048575
2026-01-17 23:45:58.71	160.26	2.55	-85.2	-88.6	3.5	7.63e-01	0	47	104	0	60	1048573
2026-01-17 23:45:59.71	160.32	2.49	-85.2	-88.6	3.7	7.62e-01	0	47	104	0	60	1048575
2026-01-17 23:46:00.72	160.38	2.43	-85.2	-88.6	2.6	7.62e-01	0	47	104	0	60	1048572
2026-01-17 23:46:01.73	160.44	2.37	-85.2	-88.6	2.9	7.62e-01	0	47	104	0	60	1048575
2026-01-17 23:46:02.73	160.50	2.31	-84.7	-88.6	3.4	7.63e-01	0	47	104	0	60	1048575
2026-01-17 23:46:03.74	160.56	2.25	-85.2	-88.6	3.4	7.64e-01	0	47	104	0	60	1048574
2026-01-17 23:46:04.75	160.62	2.20	-85.2	-88.6	3.1	7.63e-01	0	47	104	0	60	1048573
2026-01-17 23:46:05.76	160.68	2.14	-85.2	-88.6	3.0	7.63e-01	0	47	104	0	60	1048574
2026-01-17 23:46:06.77	160.73	2.08	-84.7	-88.6	2.8	7.63e-01	0	47	104	0	60	1048573
