passes_logs/2026/01/17/R3.2S-Naryan-Mar/R3.2S-Naryan-Mar__20260117_112830_FENGYUN_3D_rec.log

#Pass ID: 20260117_112830_FENGYUN 3D
#Satellite: FENGYUN 3D
#Configuration: FENGYUN 3D
#almurnet v.1.7.20240730
#Start time: 2026-01-17 11:32:52

#Version: 2.2.20231116
#Station: R3.2S-Naryan-Mar
#Location: 53.008057 lon 67.646978 lat
#TLE: 1 43010U 17072A   26016.27214855  .00000192  00000+0  11235-3 0  9990
#TLE: 2 43010  98.9932 348.1078 0002365 105.5031 254.6406 14.19695933423435

#Time	Az	El	Level	Level2	SNR	BER	BlckErr	Temp	State	Recorded	gain1	gain2
2026-01-17 11:32:52.06	197.26	21.45	-83.5	-79.0	2.4	0.00e+00	0	48	0	0	60	1048573
2026-01-17 11:32:53.07	197.39	21.57	-84.7	-88.6	4.9	3.85e-01	0	48	0	0	60	1048574
2026-01-17 11:32:54.07	197.52	21.69	-84.7	-88.6	5.7	3.07e-01	0	48	0	0	60	1048573
2026-01-17 11:32:55.08	197.65	21.81	-84.7	-88.6	6.1	2.80e-01	0	48	0	0	60	1048574
2026-01-17 11:32:56.08	197.79	21.94	-84.7	-88.6	6.2	2.78e-01	0	48	0	0	60	1048570
2026-01-17 11:32:57.08	197.92	22.06	-84.7	-88.6	6.2	2.81e-01	0	48	0	0	60	1048574
2026-01-17 11:32:58.08	198.05	22.19	-84.7	-88.6	6.4	2.80e-01	0	48	0	0	60	1048574
2026-01-17 11:32:59.09	198.19	22.31	-84.7	-88.6	6.1	2.79e-01	0	48	0	0	60	1048572
2026-01-17 11:33:00.09	198.32	22.44	-84.7	-88.6	6.3	2.81e-01	0	48	0	0	60	1048571
2026-01-17 11:33:01.09	198.46	22.56	-84.7	-88.6	5.7	2.78e-01	0	48	0	0	60	1048575
2026-01-17 11:33:02.10	198.60	22.69	-84.7	-88.6	5.6	2.80e-01	0	48	0	0	60	1048574
2026-01-17 11:33:03.10	198.74	22.81	-84.7	-88.6	6.1	2.83e-01	0	48	0	0	60	1048567
2026-01-17 11:33:04.11	198.88	22.94	-84.7	-88.6	6.2	2.79e-01	0	48	0	0	60	1048575
2026-01-17 11:33:05.12	199.02	23.07	-84.3	-88.6	5.6	2.80e-01	0	48	0	0	60	1048574
2026-01-17 11:33:06.13	199.17	23.20	-84.7	-88.6	5.7	2.78e-01	0	48	0	0	60	1048575
2026-01-17 11:33:07.13	199.31	23.33	-85.2	-88.6	6.2	2.82e-01	0	48	0	0	60	1048575
2026-01-17 11:33:08.14	199.46	23.46	-84.7	-88.6	6.1	2.80e-01	0	48	0	0	60	1048567
2026-01-17 11:33:09.14	199.60	23.59	-85.2	-88.6	6.3	2.75e-01	0	48	0	0	60	1048575
2026-01-17 11:33:10.15	199.75	23.72	-84.7	-88.6	5.7	2.82e-01	0	48	0	0	60	1048574
2026-01-17 11:33:11.15	199.90	23.85	-85.2	-88.6	5.5	2.79e-01	0	48	0	0	60	1048575
2026-01-17 11:33:12.16	200.05	23.98	-84.7	-88.6	6.6	2.72e-01	0	48	0	0	60	1048570
2026-01-17 11:33:13.16	200.20	24.11	-84.7	-88.6	5.9	2.79e-01	0	48	0	0	60	1048574
2026-01-17 11:33:14.17	200.36	24.24	-84.7	-88.6	6.0	2.81e-01	0	48	0	0	60	1048571
2026-01-17 11:33:15.18	200.51	24.37	-84.7	-88.6	6.1	2.78e-01	0	48	0	0	60	1048575
2026-01-17 11:33:16.18	200.67	24.51	-85.2	-88.6	6.3	2.81e-01	0	48	0	0	60	1048575
2026-01-17 11:33:17.19	200.82	24.64	-84.7	-88.6	5.9	2.75e-01	0	48	0	0	60	1048575
2026-01-17 11:33:18.20	200.98	24.77	-85.2	-88.6	5.6	2.76e-01	0	48	0	0	60	1048575
2026-01-17 11:33:19.21	201.14	24.91	-84.7	-88.6	6.3	2.78e-01	0	48	0	0	60	1048571
2026-01-17 11:33:20.21	201.30	25.04	-84.7	-88.6	6.4	2.76e-01	0	48	0	0	60	1048575
2026-01-17 11:33:21.22	201.47	25.18	-84.7	-88.6	5.9	2.76e-01	0	48	0	0	60	1048575
2026-01-17 11:33:22.22	201.63	25.31	-84.7	-88.6	5.8	2.78e-01	0	48	0	0	60	1048574
2026-01-17 11:33:23.23	201.79	25.45	-84.7	-88.6	6.2	2.78e-01	0	48	0	0	60	1048569
2026-01-17 11:33:24.24	201.96	25.59	-84.7	-88.6	6.3	2.79e-01	0	48	0	0	60	1048575
2026-01-17 11:33:25.24	202.13	25.72	-84.7	-88.6	6.3	2.74e-01	0	48	0	0	60	1048573
2026-01-17 11:33:26.25	202.30	25.86	-85.2	-88.6	5.9	2.81e-01	0	48	0	0	60	1048575
2026-01-17 11:33:27.25	202.47	26.00	-84.7	-88.6	5.8	2.80e-01	0	48	0	0	60	1048572
2026-01-17 11:33:28.26	202.64	26.14	-85.2	-88.6	6.3	2.80e-01	0	48	0	0	60	1048573
2026-01-17 11:33:29.26	202.81	26.28	-84.7	-88.6	6.1	2.75e-01	0	48	0	0	60	1048574
2026-01-17 11:33:30.27	202.99	26.42	-85.2	-88.6	5.9	2.81e-01	0	48	0	0	60	1048574
2026-01-17 11:33:31.27	203.16	26.56	-84.7	-88.6	5.6	2.77e-01	0	48	0	0	60	1048570
2026-01-17 11:33:32.28	203.34	26.70	-84.7	-88.6	6.3	2.80e-01	0	48	0	0	60	1048572
2026-01-17 11:33:33.29	203.52	26.84	-84.7	-88.6	5.9	2.79e-01	0	48	0	0	60	1048573
2026-01-17 11:33:34.29	203.70	26.98	-84.7	-88.6	6.0	2.80e-01	0	48	0	0	60	1048575
2026-01-17 11:33:35.30	203.88	27.12	-85.2	-88.6	6.1	2.80e-01	0	48	0	0	60	1048568
2026-01-17 11:33:36.31	204.07	27.26	-84.7	-88.6	6.2	2.80e-01	0	48	0	0	60	1048574
2026-01-17 11:33:37.32	204.25	27.40	-84.7	-88.6	5.7	2.77e-01	0	48	0	0	60	1048570
2026-01-17 11:33:38.33	204.44	27.55	-84.7	-88.6	6.1	2.76e-01	0	48	0	0	60	1048575
2026-01-17 11:33:39.33	204.63	27.69	-85.2	-88.6	6.3	2.83e-01	0	48	0	0	60	1048572
2026-01-17 11:33:40.34	204.82	27.83	-84.7	-88.6	6.2	2.84e-01	0	48	0	0	60	1048575
2026-01-17 11:33:41.34	205.01	27.98	-84.7	-88.6	6.2	2.80e-01	0	48	0	0	60	1048573
2026-01-17 11:33:42.35	205.21	28.12	-84.7	-88.6	5.5	2.78e-01	0	48	0	0	60	1048573
2026-01-17 11:33:43.35	205.40	28.27	-85.2	-88.6	5.5	2.82e-01	0	48	0	0	60	1048575
2026-01-17 11:33:44.36	205.60	28.41	-84.7	-88.6	6.4	2.75e-01	0	48	0	0	60	1048570
2026-01-17 11:33:45.37	205.80	28.56	-84.7	-88.6	5.9	2.79e-01	0	48	0	0	60	1048575
2026-01-17 11:33:46.37	206.00	28.70	-84.7	-88.6	5.9	2.81e-01	0	47	0	0	60	1048575
2026-01-17 11:33:47.38	206.20	28.85	-84.7	-88.6	5.6	2.83e-01	0	48	0	0	60	1048575
2026-01-17 11:33:48.38	206.41	29.00	-84.7	-88.6	5.9	2.77e-01	0	48	0	0	60	1048573
2026-01-17 11:33:49.39	206.61	29.15	-84.7	-88.6	6.0	2.77e-01	0	48	0	0	60	1048575
2026-01-17 11:33:50.40	206.82	29.29	-84.7	-88.6	6.1	2.80e-01	0	48	0	0	60	1048575
2026-01-17 11:33:51.40	207.03	29.44	-84.7	-88.6	5.7	2.80e-01	0	48	0	0	60	1048573
2026-01-17 11:33:52.41	207.24	29.59	-84.7	-88.6	5.9	2.74e-01	0	48	0	0	60	1048575
2026-01-17 11:33:53.41	207.46	29.74	-84.7	-88.6	5.6	2.82e-01	0	47	0	0	60	1048574
2026-01-17 11:33:54.42	207.67	29.89	-84.7	-88.6	6.0	2.83e-01	0	47	0	0	60	1048575
2026-01-17 11:33:55.43	207.89	30.04	-84.7	-88.6	6.3	2.85e-01	0	48	0	0	60	1048574
2026-01-17 11:33:56.44	208.11	30.19	-84.7	-88.6	6.2	2.79e-01	0	48	0	0	60	1048565
2026-01-17 11:33:57.45	208.33	30.34	-85.2	-88.6	6.1	2.82e-01	0	47	0	0	60	1048571
2026-01-17 11:33:58.45	208.56	30.49	-84.7	-88.6	5.4	2.77e-01	0	48	0	0	60	1048575
2026-01-17 11:33:59.46	208.78	30.64	-84.7	-88.6	6.5	2.80e-01	0	48	0	0	60	1048575
2026-01-17 11:34:00.46	209.01	30.79	-84.7	-88.6	6.1	2.80e-01	0	47	0	0	60	1048573
2026-01-17 11:34:01.47	209.24	30.94	-84.7	-88.6	5.6	2.81e-01	0	48	0	0	60	1048574
2026-01-17 11:34:02.47	209.47	31.09	-85.2	-88.6	6.0	2.80e-01	0	48	0	0	60	1048572
2026-01-17 11:34:03.48	209.71	31.24	-84.7	-88.6	5.8	2.76e-01	0	48	0	0	60	1048575
2026-01-17 11:34:04.48	209.94	31.40	-84.7	-88.6	5.8	2.78e-01	0	48	0	0	60	1048569
2026-01-17 11:34:05.49	210.18	31.55	-84.7	-88.6	6.0	2.80e-01	0	48	0	0	60	1048575
2026-01-17 11:34:06.49	210.42	31.70	-85.2	-88.6	6.0	2.78e-01	0	48	0	0	60	1048575
2026-01-17 11:34:07.50	210.67	31.85	-84.7	-88.6	6.2	2.80e-01	0	47	0	0	60	1048574
2026-01-17 11:34:08.51	210.91	32.01	-85.2	-88.6	6.3	2.78e-01	0	47	0	0	60	1048574
2026-01-17 11:34:09.52	211.16	32.16	-84.7	-88.6	6.0	2.79e-01	0	48	0	0	60	1048571
2026-01-17 11:34:10.52	211.41	32.31	-84.7	-88.6	5.9	2.77e-01	0	48	0	0	60	1048572
2026-01-17 11:34:11.53	211.66	32.47	-84.7	-88.6	6.3	2.79e-01	0	47	0	0	60	1048575
2026-01-17 11:34:12.53	211.91	32.62	-84.7	-88.6	6.2	2.83e-01	0	47	0	0	60	1048573
2026-01-17 11:34:13.54	212.17	32.78	-85.2	-88.6	5.8	2.83e-01	0	47	0	0	60	1048574
2026-01-17 11:34:14.55	212.43	32.93	-84.7	-88.6	5.8	2.79e-01	0	47	0	0	60	1048575
2026-01-17 11:34:15.56	212.70	33.09	-85.2	-88.6	6.4	2.83e-01	0	47	0	0	60	1048571
2026-01-17 11:34:16.57	212.96	33.24	-84.7	-88.6	6.4	2.77e-01	0	47	0	0	60	1048570
2026-01-17 11:34:17.57	213.23	33.40	-85.2	-88.6	5.8	2.80e-01	0	47	0	0	60	1048573
2026-01-17 11:34:18.58	213.50	33.55	-84.7	-88.6	6.3	2.79e-01	0	47	0	0	60	1048571
2026-01-17 11:34:19.59	213.77	33.71	-84.7	-88.6	6.1	2.78e-01	0	47	0	0	60	1048573
2026-01-17 11:34:20.59	214.04	33.86	-84.7	-88.6	6.2	2.79e-01	0	47	0	0	60	1048575
2026-01-17 11:34:21.59	214.32	34.02	-84.7	-88.6	6.1	2.78e-01	0	47	0	0	60	1048575
2026-01-17 11:34:22.59	214.60	34.17	-84.7	-88.6	5.9	2.79e-01	0	47	0	0	60	1048574
2026-01-17 11:34:23.60	214.88	34.33	-85.2	-88.6	6.2	2.83e-01	0	47	0	0	60	1048575
2026-01-17 11:34:24.61	215.16	34.48	-84.7	-88.6	6.2	2.78e-01	0	47	0	0	60	1048571
2026-01-17 11:34:25.61	215.45	34.64	-84.7	-88.6	5.8	2.77e-01	0	47	0	0	60	1048572
2026-01-17 11:34:26.62	215.74	34.79	-84.7	-88.6	5.9	2.79e-01	0	47	0	0	60	1048575
2026-01-17 11:34:27.63	216.03	34.95	-85.2	-88.6	6.0	2.80e-01	0	47	0	0	60	1048569
2026-01-17 11:34:28.63	216.33	35.10	-84.7	-88.6	6.4	2.82e-01	0	47	0	0	60	1048575
2026-01-17 11:34:29.64	216.63	35.26	-84.7	-88.6	6.2	2.79e-01	0	47	0	0	60	1048575
2026-01-17 11:34:30.65	216.93	35.41	-84.7	-88.6	6.0	2.79e-01	0	47	0	0	60	1048574
2026-01-17 11:34:31.66	217.24	35.57	-85.2	-88.6	5.8	2.83e-01	0	47	0	0	60	1048562
2026-01-17 11:34:32.66	217.54	35.72	-84.7	-88.6	6.4	2.84e-01	0	47	0	0	60	1048574
2026-01-17 11:34:33.67	217.85	35.88	-84.7	-88.6	5.9	2.82e-01	0	47	0	0	60	1048575
2026-01-17 11:34:34.68	218.17	36.03	-84.7	-88.6	6.1	2.81e-01	0	47	0	0	60	1048574
2026-01-17 11:34:35.69	218.48	36.19	-84.7	-88.6	6.0	2.81e-01	0	47	0	0	60	1048570
2026-01-17 11:34:36.69	218.80	36.34	-85.2	-88.6	6.2	2.78e-01	0	48	0	0	60	1048570
2026-01-17 11:34:37.70	219.12	36.49	-84.7	-88.6	5.7	2.79e-01	0	47	0	0	60	1048574
2026-01-17 11:34:38.71	219.45	36.65	-84.7	-88.6	6.3	2.79e-01	0	48	0	0	60	1048572
2026-01-17 11:34:39.72	219.78	36.80	-84.7	-88.6	6.1	2.81e-01	0	47	0	0	60	1048575
2026-01-17 11:34:40.73	220.11	36.95	-84.7	-88.6	6.2	2.78e-01	0	47	0	0	60	1048573
2026-01-17 11:34:41.73	220.44	37.10	-84.7	-88.6	6.3	2.84e-01	0	47	0	0	60	1048573
2026-01-17 11:34:42.74	220.78	37.26	-84.7	-88.6	6.0	2.80e-01	0	47	0	0	60	1048575
2026-01-17 11:34:43.75	221.12	37.41	-84.7	-88.6	6.2	2.77e-01	0	47	0	0	60	1048573
2026-01-17 11:34:44.76	221.46	37.56	-84.7	-88.6	6.3	2.81e-01	0	47	0	0	60	1048575
2026-01-17 11:34:45.77	221.81	37.71	-84.7	-88.6	5.9	2.78e-01	0	47	0	0	60	1048574
2026-01-17 11:34:46.77	222.16	37.86	-84.7	-88.6	6.0	2.76e-01	0	47	0	0	60	1048575
2026-01-17 11:34:47.78	222.51	38.01	-84.7	-88.6	5.6	2.81e-01	0	47	0	0	60	1048572
2026-01-17 11:34:48.79	222.87	38.16	-85.2	-88.6	5.6	2.78e-01	0	47	0	0	60	1048570
2026-01-17 11:34:49.79	223.22	38.31	-84.7	-88.6	6.1	2.79e-01	0	47	0	0	60	1048574
2026-01-17 11:34:50.80	223.59	38.46	-84.7	-88.6	6.2	2.79e-01	0	47	0	0	60	1048575
2026-01-17 11:34:51.81	223.95	38.61	-84.7	-88.6	5.9	2.79e-01	0	47	0	0	60	1048564
2026-01-17 11:34:52.81	224.32	38.75	-84.7	-88.6	5.7	2.82e-01	0	47	0	0	60	1048571
2026-01-17 11:34:53.82	224.69	38.90	-84.7	-88.6	6.3	2.79e-01	0	47	0	0	60	1048573
2026-01-17 11:34:54.83	225.07	39.04	-85.2	-88.6	5.9	2.83e-01	0	47	0	0	60	1048575
2026-01-17 11:34:55.84	225.45	39.19	-85.2	-88.6	5.9	2.83e-01	0	47	0	0	60	1048566
2026-01-17 11:34:56.84	225.83	39.33	-84.7	-88.6	5.9	2.75e-01	0	47	0	0	60	1048575
2026-01-17 11:34:57.85	226.21	39.48	-84.7	-88.6	6.3	2.80e-01	0	47	0	0	60	1048573
2026-01-17 11:34:58.86	226.60	39.62	-84.7	-88.6	6.3	2.79e-01	0	47	0	0	60	1048575
2026-01-17 11:34:59.87	227.00	39.76	-85.2	-88.6	6.2	2.82e-01	0	47	0	0	60	1048570
2026-01-17 11:35:00.88	227.39	39.90	-84.7	-88.6	5.6	2.83e-01	0	47	0	0	60	1048575
2026-01-17 11:35:01.89	227.79	40.04	-84.7	-88.6	6.2	2.78e-01	0	47	0	0	60	1048573
2026-01-17 11:35:02.90	228.20	40.18	-84.7	-88.6	6.6	2.81e-01	0	47	0	0	60	1048574
2026-01-17 11:35:03.90	228.60	40.32	-84.7	-88.6	6.1	2.79e-01	0	47	0	0	60	1048575
2026-01-17 11:35:04.91	229.01	40.45	-84.7	-88.6	5.7	2.79e-01	0	47	0	0	60	1048574
2026-01-17 11:35:05.92	229.42	40.59	-85.2	-88.6	6.3	2.81e-01	0	47	0	0	60	1048573
2026-01-17 11:35:06.93	229.84	40.72	-84.7	-88.6	6.3	2.79e-01	0	47	0	0	60	1048574
2026-01-17 11:35:07.93	230.26	40.86	-84.7	-88.6	5.6	2.80e-01	0	47	0	0	60	1048573
2026-01-17 11:35:08.93	230.68	40.99	-84.7	-88.6	6.1	2.75e-01	0	47	0	0	60	1048574
2026-01-17 11:35:09.94	231.10	41.12	-84.7	-88.6	5.8	2.79e-01	0	47	0	0	60	1048572
2026-01-17 11:35:10.95	231.54	41.25	-84.7	-88.6	6.5	2.81e-01	0	47	0	0	60	1048574
2026-01-17 11:35:11.95	231.96	41.37	-84.7	-88.6	6.4	2.81e-01	0	47	0	0	60	1048575
2026-01-17 11:35:12.96	232.40	41.50	-85.2	-88.6	6.4	2.79e-01	0	47	0	0	60	1048569
2026-01-17 11:35:13.97	232.84	41.63	-84.7	-88.6	5.7	2.75e-01	0	47	0	0	60	1048575
2026-01-17 11:35:14.98	233.29	41.75	-85.2	-88.6	6.1	2.82e-01	0	47	0	0	60	1048573
2026-01-17 11:35:15.99	233.73	41.87	-84.7	-88.6	5.9	2.78e-01	0	47	0	0	60	1048575
2026-01-17 11:35:17.00	234.19	41.99	-84.7	-88.6	5.9	2.79e-01	0	47	0	0	60	1048563
2026-01-17 11:35:18.01	234.64	42.11	-84.7	-88.6	6.1	2.79e-01	0	47	0	0	60	1048575
2026-01-17 11:35:19.01	235.09	42.23	-85.2	-88.6	6.2	2.84e-01	0	47	0	0	60	1048574
2026-01-17 11:35:20.02	235.55	42.35	-84.7	-88.6	6.0	2.79e-01	0	47	0	0	60	1048573
2026-01-17 11:35:21.03	236.02	42.46	-84.7	-88.6	6.2	2.80e-01	0	47	0	0	60	1048573
2026-01-17 11:35:22.03	236.48	42.57	-84.7	-88.6	6.1	2.82e-01	0	47	0	0	60	1048575
2026-01-17 11:35:23.04	236.95	42.69	-85.2	-88.6	5.9	2.78e-01	0	47	0	0	60	1048574
2026-01-17 11:35:24.05	237.42	42.79	-84.7	-88.6	5.9	2.78e-01	0	47	0	0	60	1048575
2026-01-17 11:35:25.06	237.90	42.90	-85.2	-88.6	6.0	2.81e-01	0	47	0	0	60	1048575
2026-01-17 11:35:26.06	238.38	43.01	-84.3	-88.6	5.6	2.76e-01	0	47	0	0	60	1048575
2026-01-17 11:35:27.07	238.86	43.11	-84.7	-88.6	5.9	2.81e-01	0	47	0	0	60	1048572
2026-01-17 11:35:28.08	239.34	43.21	-84.7	-88.6	6.3	2.76e-01	0	47	0	0	60	1048573
2026-01-17 11:35:29.08	239.83	43.31	-84.7	-88.6	5.9	2.78e-01	0	47	0	0	60	1048575
2026-01-17 11:35:30.08	240.32	43.41	-85.2	-88.6	6.1	2.84e-01	0	47	0	0	60	1048574
2026-01-17 11:35:31.09	240.81	43.50	-84.7	-88.6	5.8	2.82e-01	0	47	0	0	60	1048566
2026-01-17 11:35:32.10	241.31	43.60	-84.7	-88.6	5.7	2.84e-01	0	47	0	0	60	1048575
2026-01-17 11:35:33.11	241.81	43.69	-84.7	-88.6	6.2	2.78e-01	0	47	0	0	60	1048575
2026-01-17 11:35:34.12	242.31	43.78	-85.2	-88.6	6.4	2.82e-01	0	47	0	0	60	1048575
2026-01-17 11:35:35.13	242.82	43.87	-84.7	-88.6	5.9	2.77e-01	0	47	0	0	60	1048570
2026-01-17 11:35:36.13	243.32	43.95	-84.7	-88.6	5.7	2.78e-01	0	47	0	0	60	1048572
2026-01-17 11:35:37.14	243.83	44.03	-84.7	-88.6	5.9	2.80e-01	0	47	0	0	60	1048574
2026-01-17 11:35:38.15	244.35	44.11	-85.2	-88.6	6.3	2.79e-01	0	47	0	0	60	1048570
2026-01-17 11:35:39.15	244.86	44.19	-84.7	-88.6	6.1	2.82e-01	0	47	0	0	60	1048569
2026-01-17 11:35:40.16	245.38	44.26	-84.7	-88.6	6.1	2.79e-01	0	47	0	0	60	1048570
2026-01-17 11:35:41.16	245.89	44.34	-84.7	-88.6	6.1	2.83e-01	0	47	0	0	60	1048575
2026-01-17 11:35:42.17	246.42	44.41	-85.2	-88.6	5.5	2.77e-01	0	47	0	0	60	1048575
2026-01-17 11:35:43.18	246.94	44.48	-84.7	-88.6	5.9	2.80e-01	0	47	0	0	60	1048572
2026-01-17 11:35:44.18	247.47	44.54	-84.7	-88.6	5.6	2.78e-01	0	47	0	0	60	1048575
2026-01-17 11:35:45.18	247.99	44.60	-84.7	-88.6	6.1	2.76e-01	0	47	0	0	60	1048571
2026-01-17 11:35:46.19	248.52	44.66	-85.2	-88.6	6.4	2.79e-01	0	47	0	0	60	1048575
2026-01-17 11:35:47.20	249.06	44.72	-85.2	-88.6	5.9	2.76e-01	0	47	0	0	60	1048574
2026-01-17 11:35:48.21	249.59	44.78	-84.7	-88.6	5.9	2.78e-01	0	47	0	0	60	1048573
2026-01-17 11:35:49.21	250.13	44.83	-84.7	-88.6	6.3	2.75e-01	0	47	0	0	60	1048567
2026-01-17 11:35:50.22	250.67	44.88	-84.7	-88.6	6.1	2.79e-01	0	47	0	0	60	1048574
2026-01-17 11:35:51.23	251.21	44.93	-85.2	-88.6	5.8	2.76e-01	0	47	0	0	60	1048567
2026-01-17 11:35:52.24	251.75	44.97	-84.7	-88.6	5.8	2.75e-01	0	47	0	0	60	1048570
2026-01-17 11:35:53.25	252.29	45.01	-85.2	-88.6	6.1	2.77e-01	0	47	0	0	60	1048575
2026-01-17 11:35:54.26	252.84	45.05	-84.7	-88.6	5.6	2.79e-01	0	47	0	0	60	1048575
2026-01-17 11:35:55.27	253.39	45.09	-85.2	-88.6	5.9	2.80e-01	0	47	0	0	60	1048575
2026-01-17 11:35:56.27	253.93	45.12	-84.7	-88.6	6.1	2.78e-01	0	47	0	0	60	1048574
2026-01-17 11:35:57.28	254.48	45.15	-84.7	-88.6	6.3	2.78e-01	0	47	0	0	60	1048572
2026-01-17 11:35:58.29	255.03	45.18	-84.7	-88.6	6.3	2.76e-01	0	47	0	0	60	1048569
2026-01-17 11:35:59.29	255.57	45.21	-84.7	-88.6	5.7	2.81e-01	0	47	0	0	60	1048573
2026-01-17 11:36:00.30	256.13	45.23	-84.7	-88.6	5.8	2.78e-01	0	47	0	0	60	1048574
2026-01-17 11:36:01.31	256.68	45.25	-85.2	-88.6	6.3	2.80e-01	0	47	0	0	60	1048573
2026-01-17 11:36:02.32	257.23	45.26	-85.2	-88.6	6.1	2.76e-01	0	47	0	0	60	1048571
2026-01-17 11:36:03.33	257.79	45.28	-84.7	-88.6	6.2	2.80e-01	0	47	0	0	60	1048573
2026-01-17 11:36:04.33	258.33	45.29	-84.7	-88.6	5.9	2.77e-01	0	47	0	0	60	1048573
2026-01-17 11:36:05.34	258.89	45.30	-84.7	-88.6	5.9	2.83e-01	0	47	0	0	60	1048575
2026-01-17 11:36:06.35	259.44	45.30	-85.2	-88.6	6.1	2.78e-01	0	47	0	0	60	1048575
2026-01-17 11:36:07.36	260.00	45.30	-84.7	-88.6	6.2	2.75e-01	0	47	0	0	60	1048575
2026-01-17 11:36:08.36	260.55	45.30	-85.2	-88.6	6.2	2.77e-01	0	47	0	0	60	1048575
2026-01-17 11:36:09.37	261.10	45.30	-82.8	-88.6	6.0	2.83e-01	0	47	0	0	60	1048575
2026-01-17 11:36:10.37	261.65	45.29	-84.3	-88.6	5.9	2.78e-01	0	47	0	0	60	1048575
2026-01-17 11:36:11.38	262.20	45.28	-85.2	-88.6	6.0	2.81e-01	0	47	0	0	60	1048570
2026-01-17 11:36:12.39	262.76	45.27	-84.7	-88.6	6.2	2.79e-01	0	47	0	0	60	1048575
2026-01-17 11:36:13.39	263.31	45.26	-84.7	-88.6	5.9	2.81e-01	0	47	0	0	60	1048572
2026-01-17 11:36:14.40	263.86	45.24	-85.2	-88.6	6.3	2.82e-01	0	47	0	0	60	1048571
2026-01-17 11:36:15.41	264.41	45.22	-84.7	-88.6	5.9	2.84e-01	0	47	0	0	60	1048574
2026-01-17 11:36:16.41	264.96	45.19	-85.2	-88.6	5.6	2.79e-01	0	47	0	0	60	1048575
2026-01-17 11:36:17.42	265.51	45.17	-84.7	-88.6	6.1	2.77e-01	0	47	0	0	60	1048571
2026-01-17 11:36:18.42	266.05	45.14	-84.7	-88.6	6.2	2.79e-01	0	47	0	0	60	1048575
2026-01-17 11:36:19.43	266.60	45.11	-84.7	-88.6	6.1	2.76e-01	0	47	0	0	60	1048574
2026-01-17 11:36:20.43	267.14	45.07	-84.3	-88.6	5.9	2.77e-01	0	47	0	0	60	1048573
2026-01-17 11:36:21.43	267.68	45.03	-84.7	-88.6	6.1	2.74e-01	0	47	0	0	60	1048573
2026-01-17 11:36:22.44	268.23	44.99	-85.2	-88.6	6.3	2.79e-01	0	47	0	0	60	1048572
2026-01-17 11:36:23.45	268.77	44.95	-84.7	-88.6	6.2	2.85e-01	0	47	0	0	60	1048573
2026-01-17 11:36:24.46	269.31	44.90	-84.7	-88.6	6.0	2.82e-01	0	47	0	0	60	1048575
2026-01-17 11:36:25.46	269.85	44.86	-84.7	-88.6	5.8	2.78e-01	0	47	0	0	60	1048575
2026-01-17 11:36:26.47	270.38	44.80	-84.7	-88.6	6.2	2.77e-01	0	47	0	0	60	1048574
2026-01-17 11:36:27.48	270.92	44.75	-84.7	-88.6	5.9	2.77e-01	0	47	0	0	60	1048571
2026-01-17 11:36:28.48	271.45	44.69	-84.7	-88.6	5.9	2.78e-01	0	47	0	0	60	1048574
2026-01-17 11:36:29.48	271.98	44.64	-85.2	-88.6	6.6	2.79e-01	0	47	0	0	60	1048574
2026-01-17 11:36:30.49	272.51	44.57	-84.7	-88.6	6.4	2.80e-01	0	47	0	0	60	1048575
2026-01-17 11:36:31.49	273.03	44.51	-84.7	-88.6	5.8	2.85e-01	0	47	0	0	60	1048574
2026-01-17 11:36:32.50	273.56	44.44	-84.7	-88.6	5.7	2.78e-01	0	47	0	0	60	1048573
2026-01-17 11:36:33.51	274.08	44.37	-85.2	-88.6	6.3	2.77e-01	0	47	0	0	60	1048573
2026-01-17 11:36:34.51	274.60	44.30	-84.7	-88.6	5.8	2.77e-01	0	47	0	0	60	1048574
2026-01-17 11:36:35.52	275.12	44.23	-84.7	-88.6	6.0	2.78e-01	0	47	0	0	60	1048575
2026-01-17 11:36:36.53	275.64	44.15	-84.7	-88.6	6.0	2.87e-01	0	47	0	0	60	1048571
2026-01-17 11:36:37.54	276.15	44.07	-84.7	-88.6	5.9	2.80e-01	0	47	0	0	60	1048566
2026-01-17 11:36:38.55	276.66	43.99	-85.2	-88.6	6.5	2.76e-01	0	47	0	0	60	1048572
2026-01-17 11:36:39.55	277.17	43.91	-84.3	-88.6	6.3	2.79e-01	0	47	0	0	60	1048571
2026-01-17 11:36:40.56	277.67	43.82	-85.2	-88.6	5.7	2.81e-01	0	47	0	0	60	1048573
2026-01-17 11:36:41.56	278.17	43.74	-84.7	-88.6	5.9	2.80e-01	0	47	0	0	60	1048575
2026-01-17 11:36:42.57	278.68	43.65	-84.7	-88.6	6.0	2.80e-01	0	47	0	0	60	1048575
2026-01-17 11:36:43.58	279.17	43.55	-84.7	-88.6	6.2	2.77e-01	0	47	0	0	60	1048574
2026-01-17 11:36:44.59	279.67	43.46	-84.7	-88.6	6.1	2.76e-01	0	47	0	0	60	1048575
2026-01-17 11:36:45.60	280.16	43.36	-84.7	-88.6	5.6	2.77e-01	0	47	0	0	60	1048569
2026-01-17 11:36:46.61	280.65	43.27	-84.7	-88.6	6.2	2.77e-01	0	47	0	0	60	1048574
2026-01-17 11:36:47.61	281.13	43.17	-84.7	-88.6	6.4	2.76e-01	0	47	0	0	60	1048573
2026-01-17 11:36:48.62	281.62	43.06	-85.2	-88.6	5.6	2.80e-01	0	47	0	0	60	1048572
2026-01-17 11:36:49.63	282.10	42.96	-84.7	-88.6	6.0	2.78e-01	0	47	0	0	60	1048575
2026-01-17 11:36:50.63	282.57	42.85	-85.2	-88.6	6.2	2.82e-01	0	47	0	0	60	1048575
2026-01-17 11:36:51.63	283.04	42.75	-84.7	-88.6	6.1	2.77e-01	0	47	0	0	60	1048575
2026-01-17 11:36:52.64	283.51	42.64	-85.2	-88.6	5.9	2.79e-01	0	47	0	0	60	1048571
2026-01-17 11:36:53.64	283.98	42.53	-84.7	-88.6	6.4	2.77e-01	0	47	0	0	60	1048568
2026-01-17 11:36:54.65	284.44	42.41	-85.2	-88.6	6.3	2.75e-01	0	47	0	0	60	1048574
2026-01-17 11:36:55.66	284.90	42.30	-84.7	-88.6	5.9	2.82e-01	0	47	0	0	60	1048575
2026-01-17 11:36:56.67	285.36	42.18	-84.7	-88.6	5.4	2.81e-01	0	47	0	0	60	1048574
2026-01-17 11:36:57.68	285.82	42.06	-85.2	-88.6	6.1	2.81e-01	0	47	0	0	60	1048565
2026-01-17 11:36:58.68	286.26	41.94	-84.7	-88.6	6.0	2.80e-01	0	47	0	0	60	1048572
2026-01-17 11:36:59.69	286.71	41.82	-84.7	-88.6	5.5	2.85e-01	0	47	0	0	60	1048571
2026-01-17 11:37:00.70	287.16	41.70	-84.7	-88.6	6.4	2.83e-01	0	47	0	0	60	1048575
2026-01-17 11:37:01.70	287.59	41.58	-84.7	-88.6	6.2	2.81e-01	0	47	0	0	60	1048561
2026-01-17 11:37:02.71	288.03	41.45	-85.2	-88.6	2.8	7.54e-01	0	47	104	0	60	1048575
2026-01-17 11:37:03.72	288.47	41.32	-85.2	-88.6	3.0	7.64e-01	0	47	104	0	60	1048575
2026-01-17 11:37:04.71	288.89	41.20	-85.2	-88.6	3.2	7.62e-01	0	47	104	0	60	1048575
2026-01-17 11:37:05.72	289.32	41.07	-85.2	-88.6	3.2	7.63e-01	0	47	104	0	60	1048574
2026-01-17 11:37:06.73	289.74	40.94	-85.2	-88.6	2.7	7.64e-01	0	47	104	0	60	1048575
2026-01-17 11:37:07.73	290.16	40.80	-85.2	-88.6	3.5	7.62e-01	0	47	104	0	60	1048574
2026-01-17 11:37:08.74	290.58	40.67	-85.2	-88.6	3.3	7.64e-01	0	47	104	0	60	1048572
2026-01-17 11:37:09.75	290.99	40.54	-85.2	-88.6	3.2	7.64e-01	0	47	104	0	60	1048567
2026-01-17 11:37:10.76	291.40	40.40	-84.3	-88.6	2.9	7.64e-01	0	47	104	0	60	1048575
2026-01-17 11:37:11.77	291.81	40.26	-85.2	-88.6	2.8	7.63e-01	0	47	104	0	60	1048575
2026-01-17 11:37:12.77	292.21	40.13	-85.2	-88.6	3.2	7.64e-01	0	47	104	0	60	1048575
2026-01-17 11:37:13.78	292.61	39.99	-85.2	-88.6	2.8	7.64e-01	0	47	104	0	60	1048575
2026-01-17 11:37:14.79	293.01	39.85	-85.2	-88.6	3.1	7.62e-01	0	47	104	0	60	1048570
2026-01-17 11:37:15.80	293.40	39.71	-85.2	-88.6	3.3	7.63e-01	0	47	104	0	60	1048569
2026-01-17 11:37:16.81	293.80	39.57	-85.2	-88.6	2.9	7.63e-01	0	47	104	0	60	1048572
2026-01-17 11:37:17.81	294.18	39.42	-85.2	-88.6	2.9	7.62e-01	0	47	104	0	60	1048567
2026-01-17 11:37:18.82	294.56	39.28	-85.2	-88.6	2.7	7.62e-01	0	47	104	0	60	1048575
2026-01-17 11:37:19.83	294.94	39.14	-84.7	-88.6	3.0	7.63e-01	0	47	104	0	60	1048573
2026-01-17 11:37:20.84	295.32	38.99	-84.7	-88.6	2.9	7.64e-01	0	47	104	0	60	1048575
2026-01-17 11:37:21.84	295.69	38.85	-85.2	-88.6	3.4	7.63e-01	0	47	104	0	60	1048575
2026-01-17 11:37:22.84	296.06	38.70	-85.2	-88.6	3.5	7.63e-01	0	47	104	0	60	1048570
2026-01-17 11:37:23.85	296.43	38.56	-85.2	-88.6	3.0	7.64e-01	0	47	104	0	60	1048568
2026-01-17 11:37:24.86	296.79	38.41	-84.7	-88.6	3.1	7.63e-01	0	47	104	0	60	1048574
2026-01-17 11:37:25.86	297.15	38.26	-85.2	-88.6	3.1	7.62e-01	0	47	104	0	60	1048572
2026-01-17 11:37:26.87	297.51	38.11	-85.2	-88.6	3.6	7.63e-01	0	47	104	0	60	1048575
2026-01-17 11:37:27.88	297.86	37.96	-85.2	-88.6	3.4	7.64e-01	0	47	104	0	60	1048570
2026-01-17 11:37:28.88	298.21	37.81	-85.2	-88.6	3.4	7.62e-01	0	47	104	0	60	1048575
2026-01-17 11:37:29.89	298.56	37.66	-84.7	-88.6	3.0	7.62e-01	0	47	104	0	60	1048575
2026-01-17 11:37:30.89	298.90	37.52	-85.2	-88.6	3.1	7.64e-01	0	47	104	0	60	1048573
2026-01-17 11:37:31.90	299.24	37.36	-85.2	-88.6	3.6	7.62e-01	0	47	104	0	60	1048574
2026-01-17 11:37:32.91	299.58	37.21	-85.2	-88.6	3.6	7.62e-01	0	47	104	0	60	1048574
2026-01-17 11:37:33.92	299.92	37.06	-84.7	-88.6	3.2	7.63e-01	0	47	104	0	60	1048575
2026-01-17 11:37:34.93	300.25	36.91	-85.2	-88.6	2.9	7.63e-01	0	47	104	0	60	1048575
2026-01-17 11:37:35.93	300.58	36.76	-85.2	-88.6	2.8	7.63e-01	0	47	104	0	60	1048575
2026-01-17 11:37:36.94	300.90	36.60	-85.2	-88.6	3.7	7.64e-01	0	47	104	0	60	1048572
2026-01-17 11:37:37.95	301.23	36.45	-85.2	-88.6	2.9	7.64e-01	0	47	104	0	60	1048575
2026-01-17 11:37:38.95	301.54	36.30	-84.7	-88.6	2.6	7.64e-01	0	47	104	0	60	1048575
2026-01-17 11:37:39.96	301.86	36.14	-85.2	-88.6	3.5	7.63e-01	0	47	104	0	60	1048575
2026-01-17 11:37:40.97	302.18	35.99	-85.2	-88.6	3.4	7.62e-01	0	47	104	0	60	1048573
2026-01-17 11:37:41.98	302.49	35.84	-85.2	-88.6	3.6	7.62e-01	0	47	104	0	60	1048575
2026-01-17 11:37:42.99	302.80	35.68	-85.2	-88.6	2.9	7.62e-01	0	47	104	0	60	1048575
2026-01-17 11:37:43.99	303.10	35.53	-84.7	-88.6	3.0	7.63e-01	0	47	104	0	60	1048575
2026-01-17 11:37:45.00	303.40	35.37	-85.2	-88.6	2.9	7.63e-01	0	47	104	0	60	1048575
2026-01-17 11:37:46.01	303.70	35.22	-85.2	-88.6	3.6	7.64e-01	0	47	104	0	60	1048574
2026-01-17 11:37:47.01	304.00	35.06	-85.2	-88.6	3.6	7.63e-01	0	47	104	0	60	1048574
2026-01-17 11:37:48.02	304.29	34.91	-85.2	-88.6	3.0	7.63e-01	0	47	104	0	60	1048575
2026-01-17 11:37:49.03	304.59	34.75	-85.2	-88.6	3.0	7.62e-01	0	47	104	0	60	1048575
2026-01-17 11:37:50.03	304.87	34.60	-85.2	-88.6	3.4	7.64e-01	0	47	104	0	60	1048574
2026-01-17 11:37:51.04	305.16	34.45	-85.2	-88.6	3.6	7.63e-01	0	47	104	0	60	1048569
2026-01-17 11:37:52.05	305.44	34.29	-85.2	-88.6	3.1	7.64e-01	0	47	104	0	60	1048574
2026-01-17 11:37:53.05	305.72	34.14	-84.7	-88.6	2.9	7.64e-01	0	47	104	0	60	1048572
2026-01-17 11:37:54.06	306.00	33.98	-84.7	-88.6	3.1	7.63e-01	0	47	104	0	60	1048575
2026-01-17 11:37:55.07	306.28	33.83	-85.2	-88.6	2.8	7.64e-01	0	47	104	0	60	1048574
2026-01-17 11:37:56.08	306.55	33.67	-85.2	-88.6	3.7	7.63e-01	0	47	104	0	60	1048570
2026-01-17 11:37:57.09	306.82	33.52	-85.2	-88.6	3.7	7.64e-01	0	47	104	0	60	1048575
2026-01-17 11:37:58.09	307.09	33.36	-85.2	-88.6	3.0	7.64e-01	0	47	104	0	60	1048573
2026-01-17 11:37:59.10	307.35	33.21	-85.2	-88.6	3.1	7.64e-01	0	47	104	0	60	1048572
2026-01-17 11:38:00.11	307.62	33.06	-84.7	-88.6	3.5	7.64e-01	0	47	104	0	60	1048575
2026-01-17 11:38:01.12	307.88	32.90	-85.2	-88.6	3.2	7.63e-01	0	47	104	0	60	1048575
2026-01-17 11:38:02.13	308.14	32.75	-85.2	-88.6	3.0	7.64e-01	0	47	104	0	60	1048575
2026-01-17 11:38:03.13	308.39	32.59	-84.7	-88.6	2.9	7.62e-01	0	47	104	0	60	1048575
2026-01-17 11:38:04.14	308.65	32.44	-84.7	-88.6	3.5	7.64e-01	0	47	104	0	60	1048574
2026-01-17 11:38:05.15	308.90	32.29	-85.2	-88.6	2.9	7.62e-01	0	47	104	0	60	1048571
2026-01-17 11:38:06.16	309.15	32.13	-85.2	-88.6	3.3	7.64e-01	0	47	104	0	60	1048575
2026-01-17 11:38:07.17	309.39	31.98	-85.2	-88.6	3.7	7.63e-01	0	47	104	0	60	1048574
2026-01-17 11:38:08.18	309.64	31.83	-84.7	-88.6	3.1	7.62e-01	0	47	104	0	60	1048575
2026-01-17 11:38:09.19	309.88	31.68	-85.2	-88.6	3.1	7.62e-01	0	47	104	0	60	1048574
2026-01-17 11:38:10.19	310.12	31.52	-85.2	-88.6	3.4	7.63e-01	0	47	104	0	60	1048573
2026-01-17 11:38:11.20	310.36	31.37	-84.7	-88.6	3.1	7.64e-01	0	47	104	0	60	1048575
2026-01-17 11:38:12.20	310.59	31.22	-84.7	-88.6	3.3	7.63e-01	0	47	104	0	60	1048572
2026-01-17 11:38:13.21	310.83	31.07	-84.7	-88.6	2.8	7.64e-01	0	47	104	0	60	1048572
2026-01-17 11:38:14.21	311.06	30.92	-84.7	-88.6	3.3	7.63e-01	0	47	104	0	60	1048573
2026-01-17 11:38:15.22	311.28	30.77	-85.2	-88.6	3.2	7.62e-01	0	47	104	0	60	1048574
2026-01-17 11:38:16.23	311.51	30.62	-84.7	-88.6	3.6	7.63e-01	0	47	104	0	60	1048575
2026-01-17 11:38:17.24	311.74	30.47	-84.7	-88.6	3.3	7.64e-01	0	47	104	0	60	1048575
2026-01-17 11:38:18.25	311.96	30.32	-85.2	-88.6	3.1	7.62e-01	0	47	104	0	60	1048574
2026-01-17 11:38:19.25	312.18	30.17	-85.2	-88.6	2.9	7.63e-01	0	47	104	0	60	1048575
2026-01-17 11:38:20.26	312.40	30.02	-85.2	-88.6	3.6	7.63e-01	0	47	104	0	60	1048575
2026-01-17 11:38:21.27	312.62	29.87	-85.2	-88.6	3.1	7.64e-01	0	47	104	0	60	1048575
2026-01-17 11:38:22.27	312.83	29.72	-84.7	-88.6	2.9	7.63e-01	0	47	104	0	60	1048574
2026-01-17 11:38:23.28	313.04	29.57	-85.2	-88.6	3.5	7.64e-01	0	47	104	0	60	1048575
2026-01-17 11:38:24.28	313.25	29.43	-85.2	-88.6	3.1	7.64e-01	0	47	104	0	60	1048574
2026-01-17 11:38:25.29	313.46	29.28	-85.2	-88.6	3.0	7.63e-01	0	47	104	0	60	1048573
2026-01-17 11:38:26.30	313.67	29.13	-85.2	-88.6	3.1	7.64e-01	0	47	104	0	60	1048573
2026-01-17 11:38:27.31	313.88	28.99	-85.2	-88.6	3.3	7.63e-01	0	47	104	0	60	1048569
2026-01-17 11:38:28.32	314.08	28.84	-85.2	-88.6	3.1	7.63e-01	0	47	104	0	60	1048573
2026-01-17 11:38:29.32	314.28	28.69	-85.2	-88.6	3.0	7.64e-01	0	47	104	0	60	1048575
2026-01-17 11:38:30.33	314.48	28.55	-85.2	-88.6	3.6	7.63e-01	0	47	104	0	60	1048567
2026-01-17 11:38:31.34	314.68	28.40	-84.7	-88.6	3.5	7.63e-01	0	47	104	0	60	1048574
2026-01-17 11:38:32.35	314.88	28.26	-85.2	-88.6	3.0	7.63e-01	0	47	104	0	60	1048575
2026-01-17 11:38:33.36	315.07	28.11	-85.2	-88.6	3.0	7.64e-01	0	47	104	0	60	1048574
2026-01-17 11:38:34.36	315.27	27.97	-85.2	-88.6	3.0	7.63e-01	0	47	104	0	60	1048575
2026-01-17 11:38:35.37	315.46	27.83	-85.2	-88.6	3.4	7.62e-01	0	47	104	0	60	1048573
2026-01-17 11:38:36.38	315.65	27.68	-84.7	-88.6	3.1	7.62e-01	0	47	104	0	60	1048575
2026-01-17 11:38:37.39	315.84	27.54	-85.2	-88.6	3.5	7.63e-01	0	47	104	0	60	1048575
2026-01-17 11:38:38.40	316.02	27.40	-85.2	-88.6	3.0	7.63e-01	0	47	104	0	60	1048574
2026-01-17 11:38:39.40	316.21	27.26	-85.2	-88.6	3.0	7.64e-01	0	47	104	0	60	1048574
2026-01-17 11:38:40.41	316.39	27.12	-85.2	-88.6	3.6	7.63e-01	0	47	104	0	60	1048575
2026-01-17 11:38:41.42	316.57	26.98	-85.2	-88.6	3.4	7.63e-01	0	47	104	0	60	1048575
2026-01-17 11:38:42.43	316.75	26.83	-85.2	-88.6	3.0	7.63e-01	0	47	104	0	60	1048574
2026-01-17 11:38:43.43	316.93	26.70	-85.2	-88.6	2.7	7.62e-01	0	47	104	0	60	1048574
2026-01-17 11:38:44.44	317.11	26.56	-85.2	-88.6	3.4	7.63e-01	0	47	104	0	60	1048570
2026-01-17 11:38:45.45	317.29	26.42	-85.2	-88.6	3.3	7.63e-01	0	47	104	0	60	1048571
2026-01-17 11:38:46.45	317.46	26.28	-85.2	-88.6	3.4	7.64e-01	0	47	104	0	60	1048575
2026-01-17 11:38:47.46	317.63	26.14	-85.2	-88.6	3.6	7.63e-01	0	47	104	0	60	1048574
2026-01-17 11:38:48.47	317.80	26.00	-85.2	-88.6	3.5	7.65e-01	0	47	104	0	60	1048573
2026-01-17 11:38:49.47	317.97	25.87	-85.2	-88.6	3.2	7.63e-01	0	47	104	0	60	1048574
2026-01-17 11:38:50.48	318.14	25.73	-84.7	-88.6	3.6	7.63e-01	0	47	104	0	60	1048572
2026-01-17 11:38:51.49	318.31	25.59	-85.2	-88.6	2.7	7.63e-01	0	47	104	0	60	1048575
2026-01-17 11:38:52.49	318.47	25.46	-85.2	-88.6	3.0	7.61e-01	0	47	104	0	60	1048575
2026-01-17 11:38:53.50	318.64	25.32	-85.2	-88.6	3.0	7.61e-01	0	47	104	0	60	1048575
2026-01-17 11:38:54.51	318.80	25.19	-85.2	-88.6	3.4	7.63e-01	0	47	104	0	60	1048574
2026-01-17 11:38:55.52	318.96	25.05	-85.2	-88.6	2.8	7.63e-01	0	47	104	0	60	1048574
2026-01-17 11:38:56.53	319.12	24.92	-85.2	-88.6	3.4	7.63e-01	0	47	104	0	60	1048572
2026-01-17 11:38:57.54	319.28	24.78	-85.2	-88.6	3.5	7.64e-01	0	47	104	0	60	1048575
2026-01-17 11:38:58.54	319.44	24.65	-85.2	-88.6	3.4	7.64e-01	0	47	104	0	60	1048575
2026-01-17 11:38:59.55	319.60	24.52	-84.7	-88.6	2.8	7.62e-01	0	47	104	0	60	1048575
2026-01-17 11:39:00.56	319.75	24.38	-85.2	-88.6	3.0	7.64e-01	0	47	104	0	60	1048575
2026-01-17 11:39:01.56	319.90	24.25	-85.2	-88.6	3.2	7.64e-01	0	47	104	0	60	1048573
2026-01-17 11:39:02.57	320.06	24.12	-85.2	-88.6	3.6	7.64e-01	0	47	104	0	60	1048575
2026-01-17 11:39:03.57	320.21	23.99	-85.2	-88.6	3.1	7.63e-01	0	47	104	0	60	1048574
2026-01-17 11:39:04.57	320.36	23.86	-85.2	-88.6	3.1	7.62e-01	0	47	104	0	60	1048573
2026-01-17 11:39:05.57	320.50	23.73	-84.7	-88.6	3.1	7.63e-01	0	47	104	0	60	1048574
2026-01-17 11:39:06.58	320.65	23.60	-85.2	-88.6	3.3	7.64e-01	0	47	104	0	60	1048570
2026-01-17 11:39:07.58	320.80	23.48	-85.2	-88.6	3.5	7.63e-01	0	47	104	0	60	1048569
2026-01-17 11:39:08.59	320.94	23.35	-85.2	-88.6	3.5	7.64e-01	0	47	104	0	60	1048572
2026-01-17 11:39:09.59	321.09	23.22	-84.7	-88.6	2.8	7.61e-01	0	47	104	0	60	1048575
2026-01-17 11:39:10.60	321.23	23.09	-85.2	-88.6	3.2	7.62e-01	0	47	104	0	60	1048570
2026-01-17 11:39:11.60	321.37	22.97	-85.2	-88.6	3.7	7.61e-01	0	47	104	0	60	1048572
2026-01-17 11:39:12.61	321.51	22.84	-85.2	-88.6	3.4	7.63e-01	0	47	104	0	60	1048572
2026-01-17 11:39:13.62	321.65	22.71	-84.7	-88.6	2.9	7.62e-01	0	47	104	0	60	1048575
2026-01-17 11:39:14.63	321.79	22.59	-85.2	-88.6	3.1	7.64e-01	0	47	104	0	60	1048571
2026-01-17 11:39:15.64	321.93	22.46	-85.2	-88.6	3.7	7.64e-01	0	47	104	0	60	1048574
2026-01-17 11:39:16.64	322.06	22.34	-85.2	-88.6	3.4	7.62e-01	0	47	104	0	60	1048573
2026-01-17 11:39:17.65	322.20	22.21	-85.2	-88.6	3.0	7.63e-01	0	47	104	0	60	1048574
2026-01-17 11:39:18.66	322.34	22.09	-85.2	-88.6	3.0	7.64e-01	0	47	104	0	60	1048573
2026-01-17 11:39:19.66	322.47	21.96	-85.2	-88.6	2.9	7.62e-01	0	47	104	0	60	1048569
2026-01-17 11:39:20.67	322.60	21.84	-85.2	-88.6	3.5	7.63e-01	0	47	104	0	60	1048571
2026-01-17 11:39:21.68	322.73	21.72	-85.2	-88.6	3.6	7.63e-01	0	47	104	0	60	1048569
2026-01-17 11:39:22.69	322.86	21.59	-85.2	-88.6	3.1	7.63e-01	0	47	104	0	60	1048573
2026-01-17 11:39:23.69	322.99	21.47	-84.7	-88.6	3.1	7.63e-01	0	47	104	0	60	1048575
2026-01-17 11:39:24.70	323.12	21.35	-85.2	-88.6	3.0	7.62e-01	0	47	104	0	60	1048573
2026-01-17 11:39:25.71	323.25	21.23	-85.2	-88.6	3.1	7.62e-01	0	47	104	0	60	1048572
2026-01-17 11:39:26.72	323.38	21.11	-85.2	-88.6	2.8	7.63e-01	0	47	104	0	60	1048573
2026-01-17 11:39:27.72	323.50	20.99	-85.2	-88.6	2.8	7.63e-01	0	47	104	0	60	1048575
2026-01-17 11:39:28.73	323.62	20.87	-84.7	-88.6	3.8	7.63e-01	0	47	104	0	60	1048575
2026-01-17 11:39:29.74	323.75	20.75	-84.7	-88.6	3.4	7.63e-01	0	47	104	0	60	1048572
2026-01-17 11:39:30.74	323.87	20.63	-85.2	-88.6	2.9	7.61e-01	0	47	104	0	60	1048573
2026-01-17 11:39:31.75	323.99	20.52	-84.3	-88.6	2.9	7.64e-01	0	47	104	0	60	1048574
2026-01-17 11:39:32.76	324.11	20.40	-85.2	-88.6	3.7	7.64e-01	0	47	104	0	60	1048574
2026-01-17 11:39:33.76	324.23	20.28	-84.7	-88.6	3.1	7.64e-01	0	47	104	0	60	1048574
2026-01-17 11:39:34.76	324.35	20.16	-85.2	-88.6	3.1	7.63e-01	0	47	104	0	60	1048572
2026-01-17 11:39:35.77	324.47	20.05	-85.2	-88.6	3.1	7.63e-01	0	47	104	0	60	1048574
2026-01-17 11:39:36.77	324.59	19.93	-85.2	-88.6	3.2	7.64e-01	0	47	104	0	60	1048575
2026-01-17 11:39:37.78	324.70	19.82	-84.7	-88.6	3.1	7.63e-01	0	47	104	0	60	1048575
2026-01-17 11:39:38.79	324.82	19.70	-84.7	-88.6	3.2	7.63e-01	0	47	104	0	60	1048573
2026-01-17 11:39:39.80	324.94	19.59	-85.2	-88.6	3.1	7.62e-01	0	47	104	0	60	1048567
2026-01-17 11:39:40.81	325.05	19.47	-85.2	-88.6	3.1	7.62e-01	0	47	104	0	60	1048575
2026-01-17 11:39:41.81	325.16	19.36	-85.2	-88.6	3.4	7.63e-01	0	47	104	0	60	1048571
2026-01-17 11:39:42.82	325.28	19.24	-84.7	-88.6	3.7	7.64e-01	0	47	104	0	60	1048574
2026-01-17 11:39:43.83	325.39	19.13	-85.2	-88.6	3.0	7.63e-01	0	47	104	0	60	1048574
2026-01-17 11:39:44.84	325.50	19.02	-85.2	-88.6	3.0	7.62e-01	0	47	104	0	60	1048573
2026-01-17 11:39:45.85	325.61	18.91	-85.2	-88.6	2.7	7.62e-01	0	47	104	0	60	1048573
2026-01-17 11:39:46.86	325.72	18.79	-84.7	-88.6	3.5	7.64e-01	0	47	104	0	60	1048572
2026-01-17 11:39:47.86	325.83	18.68	-85.2	-88.6	2.8	7.63e-01	0	47	104	0	60	1048570
2026-01-17 11:39:48.87	325.93	18.57	-85.2	-88.6	3.1	7.63e-01	0	47	104	0	60	1048572
2026-01-17 11:39:49.88	326.04	18.46	-85.2	-88.6	3.0	7.62e-01	0	47	104	0	60	1048572
2026-01-17 11:39:50.88	326.15	18.35	-85.2	-88.6	2.9	7.63e-01	0	47	104	0	60	1048572
2026-01-17 11:39:51.89	326.25	18.24	-85.2	-88.6	3.4	7.62e-01	0	47	104	0	60	1048572
2026-01-17 11:39:52.89	326.36	18.13	-85.2	-88.6	3.4	7.64e-01	0	47	104	0	60	1048574
2026-01-17 11:39:53.90	326.46	18.02	-85.2	-88.6	3.1	7.63e-01	0	47	104	0	60	1048573
2026-01-17 11:39:54.91	326.57	17.91	-85.2	-88.6	3.0	7.63e-01	0	47	104	0	60	1048575
2026-01-17 11:39:55.92	326.67	17.81	-85.2	-88.6	3.5	7.62e-01	0	47	104	0	60	1048575
2026-01-17 11:39:56.93	326.77	17.70	-84.7	-88.6	3.5	7.63e-01	0	47	104	0	60	1048564
2026-01-17 11:39:57.93	326.87	17.59	-84.7	-88.6	3.1	7.63e-01	0	47	104	0	60	1048574
2026-01-17 11:39:58.94	326.97	17.48	-85.2	-88.6	3.0	7.65e-01	0	47	104	0	60	1048573
2026-01-17 11:39:59.95	327.07	17.38	-85.2	-88.6	3.0	7.64e-01	0	47	104	0	60	1048575
2026-01-17 11:40:00.96	327.17	17.27	-85.2	-88.6	3.7	7.62e-01	0	47	104	0	60	1048574
2026-01-17 11:40:01.96	327.27	17.16	-85.2	-88.6	3.5	7.63e-01	0	47	104	0	60	1048570
2026-01-17 11:40:02.97	327.37	17.06	-85.2	-88.6	3.5	7.62e-01	0	47	104	0	60	1048575
2026-01-17 11:40:03.98	327.47	16.95	-85.2	-88.6	3.1	7.61e-01	0	47	104	0	60	1048574
2026-01-17 11:40:04.99	327.56	16.85	-85.2	-88.6	3.0	7.63e-01	0	47	104	0	60	1048573
2026-01-17 11:40:05.99	327.66	16.74	-85.2	-88.6	3.4	7.62e-01	0	47	104	0	60	1048572
2026-01-17 11:40:07.00	327.76	16.64	-84.7	-88.6	3.0	7.63e-01	0	47	104	0	60	1048573
2026-01-17 11:40:08.00	327.85	16.54	-85.2	-88.6	3.0	7.64e-01	0	47	104	0	60	1048575
2026-01-17 11:40:09.01	327.94	16.43	-85.2	-88.6	3.1	7.62e-01	0	47	104	0	60	1048575
2026-01-17 11:40:10.02	328.04	16.33	-85.2	-88.6	3.4	7.63e-01	0	47	104	0	60	1048574
2026-01-17 11:40:11.02	328.13	16.23	-85.2	-88.6	3.3	7.65e-01	0	47	104	0	60	1048575
2026-01-17 11:40:12.03	328.22	16.13	-85.2	-88.6	3.2	7.64e-01	0	47	104	0	60	1048572
2026-01-17 11:40:13.03	328.31	16.02	-85.2	-88.6	3.4	7.63e-01	0	47	104	0	60	1048574
2026-01-17 11:40:14.04	328.41	15.92	-85.2	-88.6	3.5	7.65e-01	0	47	104	0	60	1048572
2026-01-17 11:40:15.05	328.50	15.82	-82.8	-88.6	3.3	7.63e-01	0	47	104	0	60	1048575
2026-01-17 11:40:16.05	328.59	15.72	-84.3	-88.6	3.1	7.63e-01	0	47	104	0	60	1048574
2026-01-17 11:40:17.06	328.68	15.62	-85.2	-88.6	3.0	7.62e-01	0	47	104	0	60	1048574
2026-01-17 11:40:18.07	328.77	15.52	-85.2	-88.6	3.6	7.63e-01	0	47	104	0	60	1048574
2026-01-17 11:40:19.08	328.85	15.42	-85.2	-88.6	3.4	7.63e-01	0	47	104	0	60	1048575
2026-01-17 11:40:20.09	328.94	15.32	-85.2	-88.6	3.2	7.61e-01	0	47	104	0	60	1048572
2026-01-17 11:40:21.09	329.03	15.22	-84.3	-88.6	3.1	7.63e-01	0	47	104	0	60	1048572
2026-01-17 11:40:22.10	329.12	15.12	-85.2	-88.6	3.0	7.63e-01	0	47	104	0	60	1048575
2026-01-17 11:40:23.11	329.20	15.03	-85.2	-88.6	3.3	7.63e-01	0	47	104	0	60	1048572
2026-01-17 11:40:24.11	329.29	14.93	-85.2	-88.6	3.7	7.63e-01	0	47	104	0	60	1048575
2026-01-17 11:40:25.12	329.37	14.83	-85.2	-88.6	3.4	7.63e-01	0	47	104	0	60	1048572
2026-01-17 11:40:26.12	329.46	14.73	-84.3	-88.6	2.9	7.64e-01	0	47	104	0	60	1048574
2026-01-17 11:40:27.12	329.54	14.64	-85.2	-88.6	2.9	7.65e-01	0	47	104	0	60	1048572
2026-01-17 11:40:28.13	329.62	14.54	-85.2	-88.6	3.6	7.64e-01	0	47	104	0	60	1048575
2026-01-17 11:40:29.13	329.71	14.44	-85.2	-88.6	3.2	7.64e-01	0	47	104	0	60	1048575
2026-01-17 11:40:30.14	329.79	14.35	-85.2	-88.6	2.8	7.63e-01	0	47	104	0	60	1048572
2026-01-17 11:40:31.15	329.87	14.25	-85.2	-88.6	3.5	7.63e-01	0	47	104	0	60	1048574
2026-01-17 11:40:32.16	329.95	14.16	-85.2	-88.6	3.5	7.64e-01	0	47	104	0	60	1048574
2026-01-17 11:40:33.17	330.03	14.06	-85.2	-88.6	3.0	7.64e-01	0	47	104	0	60	1048575
2026-01-17 11:40:34.17	330.11	13.97	-85.2	-88.6	3.0	7.63e-01	0	47	104	0	60	1048569
2026-01-17 11:40:35.18	330.20	13.87	-82.8	-88.6	2.9	7.62e-01	0	47	104	0	60	1048573
2026-01-17 11:40:36.19	330.27	13.78	-85.2	-88.6	3.1	7.63e-01	0	47	104	0	60	1048572
2026-01-17 11:40:37.20	330.35	13.69	-84.7	-88.6	3.4	7.63e-01	0	47	104	0	60	1048575
2026-01-17 11:40:38.21	330.43	13.59	-85.2	-88.6	3.6	7.64e-01	0	47	104	0	60	1048573
2026-01-17 11:40:39.21	330.51	13.50	-85.2	-88.6	2.9	7.64e-01	0	47	104	0	60	1048574
2026-01-17 11:40:40.22	330.59	13.41	-84.7	-88.6	3.1	7.63e-01	0	47	104	0	60	1048575
2026-01-17 11:40:41.23	330.67	13.31	-84.3	-88.6	3.5	7.63e-01	0	47	104	0	60	1048568
2026-01-17 11:40:42.23	330.74	13.22	-85.2	-88.6	2.9	7.62e-01	0	47	104	0	60	1048575
2026-01-17 11:40:43.23	330.82	13.13	-85.2	-88.6	2.8	7.64e-01	0	47	104	0	60	1048573
2026-01-17 11:40:44.23	330.89	13.04	-85.2	-88.6	3.0	7.63e-01	0	47	104	0	60	1048568
2026-01-17 11:40:45.23	330.97	12.95	-85.2	-88.6	3.1	7.64e-01	0	47	104	0	60	1048575
2026-01-17 11:40:46.24	331.04	12.86	-85.2	-88.6	2.8	7.64e-01	0	47	104	0	60	1048575
2026-01-17 11:40:47.24	331.12	12.77	-85.2	-88.6	2.9	7.63e-01	0	47	104	0	60	1048573
2026-01-17 11:40:48.25	331.19	12.68	-85.2	-88.6	3.0	7.63e-01	0	47	104	0	60	1048574
2026-01-17 11:40:49.25	331.27	12.59	-84.7	-88.6	3.4	7.62e-01	0	47	104	0	60	1048575
2026-01-17 11:40:50.26	331.34	12.50	-84.7	-88.6	2.9	7.63e-01	0	47	104	0	60	1048570
2026-01-17 11:40:51.26	331.41	12.41	-83.9	-88.6	2.9	7.64e-01	0	47	104	0	60	1048573
2026-01-17 11:40:52.27	331.49	12.32	-85.2	-88.6	3.6	7.62e-01	0	47	104	0	60	1048572
2026-01-17 11:40:53.27	331.56	12.23	-85.2	-88.6	3.1	7.63e-01	0	47	104	0	60	1048574
2026-01-17 11:40:54.27	331.63	12.14	-84.7	-88.6	3.1	7.64e-01	0	47	104	0	60	1048575
2026-01-17 11:40:55.28	331.70	12.05	-85.2	-88.6	3.2	7.63e-01	0	47	104	0	60	1048575
2026-01-17 11:40:56.29	331.77	11.97	-85.2	-88.6	2.5	7.63e-01	0	47	104	0	60	1048575
2026-01-17 11:40:57.30	331.84	11.88	-85.2	-88.6	2.8	7.62e-01	0	47	104	0	60	1048573
2026-01-17 11:40:58.30	331.91	11.79	-85.2	-88.6	3.0	7.64e-01	0	47	104	0	60	1048568
2026-01-17 11:40:59.31	331.98	11.70	-84.7	-88.6	3.4	7.63e-01	0	47	104	0	60	1048575
2026-01-17 11:41:00.31	332.05	11.62	-85.2	-88.6	3.0	7.62e-01	0	47	104	0	60	1048573
2026-01-17 11:41:01.31	332.12	11.53	-85.2	-88.6	3.0	7.63e-01	0	47	104	0	60	1048573
2026-01-17 11:41:02.32	332.19	11.45	-85.2	-88.6	3.1	7.62e-01	0	47	104	0	60	1048570
2026-01-17 11:41:03.33	332.26	11.36	-85.2	-88.6	3.5	7.62e-01	0	47	104	0	60	1048575
2026-01-17 11:41:04.34	332.32	11.27	-84.7	-88.6	3.0	7.63e-01	0	47	104	0	60	1048569
2026-01-17 11:41:05.34	332.39	11.19	-85.2	-88.6	3.0	7.63e-01	0	47	104	0	60	1048574
2026-01-17 11:41:06.35	332.46	11.10	-85.2	-88.6	3.4	7.62e-01	0	47	104	0	60	1048575
2026-01-17 11:41:07.35	332.52	11.02	-85.2	-88.6	2.8	7.64e-01	0	47	104	0	60	1048575
2026-01-17 11:41:08.36	332.59	10.93	-84.7	-88.6	3.0	7.63e-01	0	47	104	0	60	1048575
2026-01-17 11:41:09.36	332.66	10.85	-84.7	-88.6	3.0	7.64e-01	0	47	104	0	60	1048568
2026-01-17 11:41:10.37	332.72	10.76	-84.7	-88.6	3.4	7.63e-01	0	47	104	0	60	1048575
2026-01-17 11:41:11.38	332.79	10.68	-85.2	-88.6	3.2	7.62e-01	0	47	104	0	60	1048575
2026-01-17 11:41:12.38	332.85	10.60	-85.2	-88.6	3.5	7.61e-01	0	47	104	0	60	1048561
2026-01-17 11:41:13.39	332.92	10.51	-84.7	-88.6	3.2	7.62e-01	0	47	104	0	60	1048571
2026-01-17 11:41:14.39	332.98	10.43	-85.2	-88.6	2.9	7.63e-01	0	47	104	0	60	1048572
2026-01-17 11:41:15.39	333.05	10.35	-85.2	-88.6	3.0	7.64e-01	0	47	104	0	60	1048575
2026-01-17 11:41:16.40	333.11	10.27	-85.2	-88.6	3.3	7.63e-01	0	47	104	0	60	1048573
2026-01-17 11:41:17.40	333.17	10.18	-85.2	-88.6	3.2	7.63e-01	0	47	104	0	60	1048574
2026-01-17 11:41:18.41	333.24	10.10	-84.7	-88.6	3.0	7.64e-01	0	47	104	0	60	1048575
2026-01-17 11:41:19.41	333.30	10.02	-85.2	-88.6	3.7	7.62e-01	0	47	104	0	60	1048574
2026-01-17 11:41:20.42	333.36	9.94	-85.2	-88.6	2.9	7.63e-01	0	47	104	0	60	1048575
2026-01-17 11:41:21.43	333.42	9.86	-85.2	-88.6	3.2	7.64e-01	0	47	104	0	60	1048575
2026-01-17 11:41:22.44	333.48	9.77	-84.7	-88.6	3.0	7.62e-01	0	47	104	0	60	1048575
2026-01-17 11:41:23.44	333.55	9.69	-85.2	-88.6	3.2	7.63e-01	0	47	104	0	60	1048570
2026-01-17 11:41:24.45	333.61	9.61	-85.2	-88.6	3.1	7.63e-01	0	47	104	0	60	1048573
2026-01-17 11:41:25.46	333.67	9.53	-84.7	-88.6	2.9	7.63e-01	0	47	104	0	60	1048574
2026-01-17 11:41:26.47	333.73	9.45	-85.2	-88.6	2.6	7.65e-01	0	47	104	0	60	1048574
2026-01-17 11:41:27.48	333.79	9.37	-84.7	-88.6	3.4	7.63e-01	0	47	104	0	60	1048571
2026-01-17 11:41:28.48	333.85	9.29	-85.2	-88.6	3.4	7.62e-01	0	47	104	0	60	1048569
2026-01-17 11:41:29.49	333.91	9.21	-85.2	-88.6	3.3	7.63e-01	0	47	104	0	60	1048575
2026-01-17 11:41:30.50	333.97	9.13	-85.2	-88.6	3.2	7.61e-01	0	47	104	0	60	1048573
2026-01-17 11:41:31.50	334.03	9.05	-84.7	-88.6	3.2	7.63e-01	0	47	104	0	60	1048568
2026-01-17 11:41:32.51	334.09	8.97	-84.7	-88.6	3.4	7.64e-01	0	47	104	0	60	1048575
2026-01-17 11:41:33.52	334.14	8.90	-85.2	-88.6	3.2	7.65e-01	0	47	104	0	60	1048575
2026-01-17 11:41:34.52	334.20	8.82	-85.2	-88.6	3.0	7.63e-01	0	47	104	0	60	1048575
2026-01-17 11:41:35.53	334.26	8.74	-85.2	-88.6	2.9	7.64e-01	0	47	104	0	60	1048574
2026-01-17 11:41:36.54	334.32	8.66	-84.7	-88.6	3.0	7.63e-01	0	47	104	0	60	1048574
2026-01-17 11:41:37.54	334.37	8.58	-84.7	-88.6	3.4	7.63e-01	0	47	104	0	60	1048575
2026-01-17 11:41:38.55	334.43	8.51	-85.2	-88.6	2.6	7.63e-01	0	47	104	0	60	1048575
2026-01-17 11:41:39.56	334.49	8.43	-85.2	-88.6	3.1	7.63e-01	0	47	104	0	60	1048574
2026-01-17 11:41:40.57	334.54	8.35	-85.2	-88.6	2.9	7.62e-01	0	47	104	0	60	1048570
2026-01-17 11:41:41.57	334.60	8.27	-85.2	-88.6	3.8	7.62e-01	0	47	104	0	60	1048574
2026-01-17 11:41:42.58	334.66	8.20	-85.2	-88.6	3.6	7.64e-01	0	47	104	0	60	1048568
2026-01-17 11:41:43.59	334.71	8.12	-85.2	-88.6	3.6	7.62e-01	0	47	104	0	60	1048572
2026-01-17 11:41:44.60	334.77	8.04	-85.2	-88.6	3.0	7.63e-01	0	47	104	0	60	1048575
2026-01-17 11:41:45.61	334.82	7.97	-85.2	-88.6	3.0	7.62e-01	0	47	104	0	60	1048573
2026-01-17 11:41:46.61	334.88	7.89	-84.7	-88.6	3.6	7.63e-01	0	47	104	0	60	1048568
2026-01-17 11:41:47.62	334.93	7.82	-85.2	-88.6	3.7	7.64e-01	0	47	104	0	60	1048570
2026-01-17 11:41:48.62	334.99	7.74	-85.2	-88.6	3.6	7.62e-01	0	47	104	0	60	1048573
2026-01-17 11:41:49.63	335.04	7.67	-85.2	-88.6	2.8	7.63e-01	0	47	104	0	60	1048566
2026-01-17 11:41:50.63	335.09	7.59	-85.2	-88.6	3.4	7.62e-01	0	47	104	0	60	1048575
2026-01-17 11:41:51.63	335.15	7.52	-85.2	-88.6	3.1	7.63e-01	0	47	104	0	60	1048575
2026-01-17 11:41:52.63	335.20	7.44	-85.2	-88.6	2.9	7.63e-01	0	47	104	0	60	1048574
2026-01-17 11:41:53.64	335.25	7.37	-85.2	-88.6	3.5	7.63e-01	0	47	104	0	60	1048572
2026-01-17 11:41:54.64	335.31	7.30	-85.2	-88.6	3.3	7.64e-01	0	47	104	0	60	1048570
2026-01-17 11:41:55.65	335.36	7.22	-85.2	-88.6	3.2	7.63e-01	0	47	104	0	60	1048572
2026-01-17 11:41:56.65	335.41	7.15	-85.2	-88.6	3.0	7.63e-01	0	47	104	0	60	1048574
2026-01-17 11:41:57.66	335.46	7.07	-85.2	-88.6	3.1	7.62e-01	0	47	104	0	60	1048571
2026-01-17 11:41:58.67	335.51	7.00	-85.2	-88.6	3.7	7.63e-01	0	47	104	0	60	1048573
2026-01-17 11:41:59.68	335.57	6.93	-85.2	-88.6	2.6	7.60e-01	0	47	104	0	60	1048575
2026-01-17 11:42:00.68	335.62	6.85	-84.7	-88.6	3.4	7.64e-01	0	47	104	0	60	1048571
2026-01-17 11:42:01.69	335.67	6.78	-85.2	-88.6	3.7	7.63e-01	0	47	104	0	60	1048570
2026-01-17 11:42:02.69	335.72	6.71	-85.2	-88.6	2.9	7.63e-01	0	47	104	0	60	1048575
2026-01-17 11:42:03.69	335.77	6.64	-85.2	-88.6	3.1	7.62e-01	0	47	104	0	60	1048575
2026-01-17 11:42:04.70	335.82	6.56	-85.2	-88.6	3.0	7.62e-01	0	47	104	0	60	1048575
2026-01-17 11:42:05.71	335.87	6.49	-84.7	-88.6	2.7	7.62e-01	0	47	104	0	60	1048573
2026-01-17 11:42:06.72	335.92	6.42	-85.2	-88.6	3.1	7.62e-01	0	47	104	0	60	1048567
2026-01-17 11:42:07.72	335.97	6.35	-85.2	-88.6	3.1	7.64e-01	0	47	104	0	60	1048575
2026-01-17 11:42:08.73	336.02	6.28	-85.2	-88.6	3.7	7.63e-01	0	47	104	0	60	1048567
2026-01-17 11:42:09.73	336.07	6.21	-85.2	-88.6	3.0	7.62e-01	0	47	104	0	60	1048571
2026-01-17 11:42:10.74	336.12	6.13	-85.2	-88.6	2.9	7.62e-01	0	47	104	0	60	1048573
2026-01-17 11:42:11.75	336.17	6.06	-85.2	-88.6	3.0	7.62e-01	0	47	104	0	60	1048571
2026-01-17 11:42:12.76	336.22	5.99	-85.2	-88.6	3.5	7.63e-01	0	47	104	0	60	1048573
2026-01-17 11:42:13.77	336.26	5.92	-85.2	-88.6	3.1	7.63e-01	0	47	104	0	60	1048572
2026-01-17 11:42:14.77	336.31	5.85	-84.7	-88.6	3.0	7.64e-01	0	47	104	0	60	1048570
2026-01-17 11:42:15.78	336.36	5.78	-85.2	-88.6	3.1	7.63e-01	0	47	104	0	60	1048573
2026-01-17 11:42:16.79	336.41	5.71	-84.7	-88.6	2.9	7.63e-01	0	47	104	0	60	1048567
2026-01-17 11:42:17.80	336.46	5.64	-84.7	-88.6	3.3	7.64e-01	0	47	104	0	60	1048575
2026-01-17 11:42:18.80	336.50	5.57	-85.2	-88.6	2.6	7.62e-01	0	47	104	0	60	1048575
2026-01-17 11:42:19.81	336.55	5.50	-85.2	-88.6	3.1	7.63e-01	0	47	104	0	60	1048575
2026-01-17 11:42:20.82	336.60	5.43	-85.2	-88.6	3.1	7.63e-01	0	47	104	0	60	1048574
2026-01-17 11:42:21.83	336.65	5.36	-85.2	-88.6	3.2	7.63e-01	0	47	104	0	60	1048571
2026-01-17 11:42:22.83	336.69	5.29	-85.2	-88.6	3.6	7.63e-01	0	47	104	0	60	1048573
2026-01-17 11:42:23.83	336.74	5.22	-85.2	-88.6	2.9	7.64e-01	0	47	104	0	60	1048575
2026-01-17 11:42:24.84	336.78	5.16	-85.2	-88.6	2.9	7.64e-01	0	47	104	0	60	1048575
2026-01-17 11:42:25.85	336.83	5.09	-85.2	-88.6	3.8	7.65e-01	0	47	104	0	60	1048575
2026-01-17 11:42:26.86	336.88	5.02	-85.2	-88.6	3.0	7.63e-01	0	47	104	0	60	1048573
2026-01-17 11:42:27.86	336.92	4.95	-85.2	-88.6	3.0	7.65e-01	0	47	104	0	60	1048574
2026-01-17 11:42:28.86	336.97	4.88	-85.2	-88.6	3.8	7.64e-01	0	47	104	0	60	1048573
2026-01-17 11:42:29.87	337.01	4.81	-85.2	-88.6	3.0	7.62e-01	0	47	104	0	60	1048573
2026-01-17 11:42:30.87	337.06	4.75	-85.2	-88.6	2.8	7.62e-01	0	47	104	0	60	1048573
2026-01-17 11:42:31.88	337.10	4.68	-85.2	-88.6	3.5	7.63e-01	0	47	104	0	60	1048568
2026-01-17 11:42:32.89	337.15	4.61	-85.2	-88.6	2.9	7.64e-01	0	47	104	0	60	1048575
2026-01-17 11:42:33.90	337.19	4.54	-84.7	-88.6	3.0	7.63e-01	0	47	104	0	60	1048568
2026-01-17 11:42:34.91	337.24	4.48	-84.7	-88.6	3.1	7.62e-01	0	47	104	0	60	1048568
2026-01-17 11:42:35.92	337.28	4.41	-85.2	-88.6	2.8	7.63e-01	0	47	104	0	60	1048575
2026-01-17 11:42:36.92	337.32	4.34	-84.7	-88.6	3.0	7.63e-01	0	47	104	0	60	1048574
2026-01-17 11:42:37.93	337.37	4.28	-85.2	-88.6	3.0	7.63e-01	0	47	104	0	60	1048573
2026-01-17 11:42:38.94	337.41	4.21	-85.2	-88.6	3.5	7.64e-01	0	47	104	0	60	1048568
2026-01-17 11:42:39.94	337.46	4.14	-85.2	-88.6	2.9	7.63e-01	0	47	104	0	60	1048574
2026-01-17 11:42:40.95	337.50	4.08	-84.7	-88.6	2.9	7.64e-01	0	47	104	0	60	1048565
2026-01-17 11:42:41.96	337.54	4.01	-85.2	-88.6	2.8	7.63e-01	0	47	104	0	60	1048572
2026-01-17 11:42:42.97	337.59	3.94	-85.2	-88.6	3.2	7.63e-01	0	47	104	0	60	1048566
2026-01-17 11:42:43.97	337.63	3.88	-85.2	-88.6	2.8	7.63e-01	0	47	104	0	60	1048573
2026-01-17 11:42:44.98	337.67	3.81	-85.2	-88.6	3.3	7.62e-01	0	47	104	0	60	1048572
2026-01-17 11:42:45.99	337.71	3.75	-85.2	-88.6	3.2	7.63e-01	0	47	104	0	60	1048575
2026-01-17 11:42:46.99	337.75	3.68	-85.2	-88.6	2.8	7.64e-01	0	47	104	0	60	1048575
2026-01-17 11:42:48.00	337.80	3.62	-85.2	-88.6	3.2	7.62e-01	0	47	104	0	60	1048574
2026-01-17 11:42:49.00	337.84	3.55	-84.7	-88.6	3.5	7.64e-01	0	47	104	0	60	1048572
2026-01-17 11:42:50.01	337.88	3.49	-85.2	-88.6	3.4	7.63e-01	0	47	104	0	60	1048574
2026-01-17 11:42:51.02	337.92	3.42	-85.2	-88.6	3.1	7.63e-01	0	47	104	0	60	1048574
2026-01-17 11:42:52.02	337.96	3.36	-85.2	-88.6	3.0	7.62e-01	0	47	104	0	60	1048574
2026-01-17 11:42:53.03	338.01	3.29	-84.7	-88.6	3.5	7.62e-01	0	47	104	0	60	1048575
2026-01-17 11:42:54.03	338.05	3.23	-85.2	-88.6	2.6	7.61e-01	0	47	104	0	60	1048574
2026-01-17 11:42:55.04	338.09	3.16	-85.2	-88.6	2.9	7.62e-01	0	47	104	0	60	1048570
2026-01-17 11:42:56.04	338.13	3.10	-85.2	-88.6	3.1	7.64e-01	0	47	104	0	60	1048572
2026-01-17 11:42:57.05	338.17	3.04	-84.7	-88.6	2.7	7.63e-01	0	47	104	0	60	1048574
2026-01-17 11:42:58.05	338.21	2.97	-84.7	-88.6	2.9	7.63e-01	0	47	104	0	60	1048571
2026-01-17 11:42:59.05	338.25	2.91	-85.2	-88.6	3.3	7.63e-01	0	47	104	0	60	1048575
2026-01-17 11:43:00.05	338.29	2.85	-85.2	-88.6	3.7	7.64e-01	0	47	104	0	60	1048573
2026-01-17 11:43:01.06	338.33	2.78	-85.2	-88.6	3.4	7.63e-01	0	47	104	0	60	1048572
2026-01-17 11:43:02.07	338.37	2.72	-85.2	-88.6	3.0	7.64e-01	0	47	104	0	60	1048574
2026-01-17 11:43:03.07	338.41	2.66	-85.2	-88.6	3.7	7.63e-01	0	47	104	0	60	1048574
2026-01-17 11:43:04.07	338.45	2.59	-85.2	-88.6	3.1	7.64e-01	0	47	104	0	60	1048575
2026-01-17 11:43:05.08	338.49	2.53	-85.2	-88.6	2.9	7.63e-01	0	47	104	0	60	1048572
2026-01-17 11:43:06.08	338.53	2.47	-85.2	-88.6	3.5	7.62e-01	0	47	104	0	60	1048572
2026-01-17 11:43:07.09	338.57	2.41	-85.2	-88.6	2.6	7.63e-01	0	47	104	0	60	1048572
2026-01-17 11:43:08.10	338.60	2.34	-85.2	-88.6	2.8	7.63e-01	0	47	104	0	60	1048570
2026-01-17 11:43:09.10	338.64	2.28	-85.2	-88.6	3.5	7.65e-01	0	47	104	0	60	1048574
2026-01-17 11:43:10.11	338.68	2.22	-85.2	-88.6	3.5	7.62e-01	0	47	104	0	60	1048574
2026-01-17 11:43:11.11	338.72	2.16	-85.2	-88.6	2.9	7.64e-01	0	47	104	0	60	1048573
2026-01-17 11:43:12.12	338.76	2.10	-84.7	-88.6	3.0	7.63e-01	0	47	104	0	60	1048574
2026-01-17 11:43:13.12	338.80	2.03	-85.2	-88.6	3.9	7.63e-01	0	47	104	0	60	1048573
2026-01-17 11:43:14.13	338.84	1.97	-85.2	-88.6	3.6	7.62e-01	0	47	104	0	60	1048574
2026-01-17 11:43:15.14	338.87	1.91	-85.2	-88.6	3.4	7.63e-01	0	47	104	0	60	1048571
2026-01-17 11:43:16.14	338.91	1.85	-85.2	-88.6	3.0	7.62e-01	0	47	104	0	60	1048569
2026-01-17 11:43:17.15	338.95	1.79	-84.7	-88.6	3.4	7.64e-01	0	47	104	0	60	1048574
2026-01-17 11:43:18.16	338.99	1.73	-85.2	-88.6	3.4	7.65e-01	0	47	104	0	60	1048574
2026-01-17 11:43:19.16	339.02	1.67	-85.2	-88.6	3.4	7.63e-01	0	47	104	0	60	1048575
2026-01-17 11:43:20.17	339.06	1.60	-85.2	-88.6	3.1	7.64e-01	0	47	104	0	60	1048574
2026-01-17 11:43:21.18	339.10	1.54	-85.2	-88.6	3.4	7.62e-01	0	47	104	0	60	1048574
2026-01-17 11:43:22.18	339.14	1.48	-85.2	-88.6	3.1	7.62e-01	0	47	104	0	60	1048574
2026-01-17 11:43:23.19	339.17	1.42	-84.7	-88.6	3.0	7.58e-01	0	47	104	0	60	1048575
2026-01-17 11:43:24.19	339.21	1.36	-85.2	-88.6	3.5	7.64e-01	0	47	104	0	60	1048569
2026-01-17 11:43:25.19	339.25	1.30	-85.2	-88.6	3.1	7.63e-01	0	47	104	0	60	1048573
2026-01-17 11:43:26.20	339.28	1.24	-84.7	-88.6	3.0	7.59e-01	0	47	104	0	60	1048573
2026-01-17 11:43:27.20	339.32	1.18	-84.7	-88.6	3.0	7.62e-01	0	47	104	0	60	1048572
2026-01-17 11:43:28.21	339.36	1.12	-85.2	-88.6	3.2	7.64e-01	0	47	104	0	60	1048573
2026-01-17 11:43:29.22	339.39	1.06	-85.2	-88.6	3.0	7.63e-01	0	47	104	0	60	1048571
2026-01-17 11:43:30.22	339.43	1.00	-85.2	-88.6	3.5	7.63e-01	0	47	104	0	60	1048570
2026-01-17 11:43:31.23	339.46	0.94	-85.2	-88.6	3.5	7.64e-01	0	47	104	0	60	1048574
2026-01-17 11:43:32.23	339.50	0.88	-85.2	-88.6	2.8	7.63e-01	0	47	104	0	60	1048574
2026-01-17 11:43:33.24	339.53	0.82	-85.2	-88.6	3.4	7.65e-01	0	47	104	0	60	1048575
2026-01-17 11:43:34.25	339.57	0.76	-85.2	-88.6	3.0	7.62e-01	0	47	104	0	60	1048574
2026-01-17 11:43:35.25	339.61	0.71	-85.2	-88.6	3.6	7.63e-01	0	47	104	0	60	1048569
2026-01-17 11:43:36.26	339.64	0.65	-85.2	-88.6	3.4	7.63e-01	0	47	104	0	60	1048569
2026-01-17 11:43:37.27	339.68	0.59	-85.2	-88.6	2.9	7.62e-01	0	47	104	0	60	1048572
2026-01-17 11:43:38.28	339.71	0.53	-85.2	-88.6	3.3	7.63e-01	0	47	104	0	60	1048568
2026-01-17 11:43:39.28	339.75	0.47	-85.2	-88.6	3.1	7.63e-01	0	47	104	0	60	1048575
2026-01-17 11:43:40.29	339.78	0.41	-85.2	-88.6	3.7	7.64e-01	0	47	104	0	60	1048572
2026-01-17 11:43:41.30	339.82	0.35	-85.2	-88.6	3.6	7.64e-01	0	47	104	0	60	1048573
2026-01-17 11:43:42.31	339.85	0.29	-85.2	-88.6	3.2	7.65e-01	0	47	104	0	60	1048571
2026-01-17 11:43:43.31	339.88	0.23	-85.2	-88.6	2.8	7.64e-01	0	47	104	0	60	1048574
2026-01-17 11:43:44.32	339.92	0.18	-85.2	-88.6	3.3	7.63e-01	0	47	104	0	60	1048575
2026-01-17 11:43:45.33	339.95	0.12	-84.7	-88.6	3.5	7.64e-01	0	47	104	0	60	1048575
2026-01-17 11:43:46.33	339.99	0.06	-85.2	-88.6	2.8	7.63e-01	0	47	104	0	60	1048574
2026-01-17 11:43:47.34	340.02	0.00	-85.2	-88.6	2.9	7.63e-01	0	47	104	0	60	1048575
2026-01-17 11:43:48.35	340.06	-0.06	-85.2	-88.6	3.6	7.62e-01	0	47	104	0	60	1048571

#Closed at: 2026-01-17 11:43:48
#Recorded file [0 MB]: D:/Data/35015_260117_143252.dat