passes_logs/2026/01/27/R2M6_AANII_01/R2M6_AANII_01__20260127_014716_FENGYUN_3D_rec.log

#Pass ID: 20260127_014716_FENGYUN 3D
#Satellite: FENGYUN 3D
#Configuration: FENGYUN 3D
#almurnet v.1.7.20240730
#Start time: 2026-01-27 01:47:17

#Version: 2.2.20231116
#Station: R2M6_AANII_01
#Location: 30.233357 lon 59.946436 lat
#TLE: 1 43010U 17072A   26026.49129444  .00000151  00000+0  93391-4 0  9993
#TLE: 2 43010  98.9962 358.4866 0002525  88.1664 271.9801 14.19700337424889

#Time	Az	El	Level	Level2	SNR	BER	BlckErr	Temp	State	Recorded	gain1	gain2
2026-01-27 01:47:17.58	22.54	7.06	-28.5	-31.4	5.6	7.78e-01	0	41	0	0	16	5074
2026-01-27 01:47:18.58	22.58	7.14	-28.9	-31.6	5.5	7.83e-01	0	41	104	0	18	4893
2026-01-27 01:47:19.58	22.62	7.21	-28.8	-31.9	10.8	1.71e-03	0	41	0	0	17	5111
2026-01-27 01:47:20.59	22.67	7.29	-28.8	-31.7	11.0	3.19e-03	0	42	0	5242880	17	5037
2026-01-27 01:47:21.59	22.71	7.36	-28.8	-31.7	11.0	2.00e-03	0	42	0	11534336	17	5038
2026-01-27 01:47:22.59	22.75	7.44	-28.9	-32.0	10.7	3.43e-03	0	41	0	16777216	17	5174
2026-01-27 01:47:23.59	22.79	7.52	-29.3	-32.5	10.2	5.22e-03	0	41	0	22020096	18	5214
2026-01-27 01:47:24.59	22.83	7.59	-29.4	-32.8	9.9	6.89e-03	0	42	0	28311552	18	5352
2026-01-27 01:47:25.60	22.88	7.67	-29.4	-32.9	9.9	6.91e-03	0	42	0	33554432	18	5366
2026-01-27 01:47:26.60	22.92	7.74	-29.5	-32.5	9.8	9.43e-03	0	42	0	38797312	19	5116
2026-01-27 01:47:27.61	22.96	7.82	-29.0	-31.9	10.5	3.83e-03	0	42	0	45088768	18	5011
2026-01-27 01:47:28.61	23.01	7.90	-28.6	-31.3	11.2	1.22e-03	0	42	0	50331648	17	4913
2026-01-27 01:47:29.61	23.05	7.98	-28.4	-31.2	11.6	1.74e-03	0	42	0	55574528	16	4978
2026-01-27 01:47:30.61	23.09	8.05	-28.2	-30.6	12.0	6.87e-04	0	42	0	61865984	16	4778
2026-01-27 01:47:31.62	23.14	8.13	-28.0	-30.1	12.3	1.54e-04	0	42	0	67108864	16	4616
2026-01-27 01:47:32.62	23.18	8.21	-27.7	-30.1	12.5	1.20e-03	0	42	0	73400320	15	4719
2026-01-27 01:47:33.63	23.23	8.29	-27.7	-30.1	12.5	6.86e-05	0	42	0	78643200	15	4719
2026-01-27 01:47:34.64	23.27	8.37	-28.2	-30.6	12.0	1.12e-03	0	42	0	84934656	16	4765
2026-01-27 01:47:35.64	23.31	8.44	-28.0	-30.3	12.2	1.91e-04	0	42	0	90177536	16	4658
2026-01-27 01:47:36.64	23.36	8.52	-27.6	-29.1	13.0	4.46e-05	0	42	0	95420416	16	4317
2026-01-27 01:47:37.64	23.40	8.60	-27.0	-28.4	13.6	2.20e-06	0	42	0	101711872	15	4210
2026-01-27 01:47:38.65	23.45	8.68	-26.6	-28.0	14.1	1.10e-06	0	42	0	106954752	14	4207
2026-01-27 01:47:39.65	23.50	8.76	-26.3	-27.8	14.5	1.10e-06	0	42	0	112197632	13	4272
2026-01-27 01:47:40.65	23.54	8.84	-26.4	-27.9	14.4	0.00e+00	0	42	0	118489088	13	4282
2026-01-27 01:47:41.65	23.59	8.92	-26.3	-27.7	14.5	3.86e-04	0	42	0	123731968	13	4234
2026-01-27 01:47:42.66	23.63	9.00	-26.3	-28.2	14.5	0.00e+00	0	42	0	128974848	12	4490
2026-01-27 01:47:43.66	23.68	9.08	-26.3	-28.2	14.5	2.20e-06	0	42	0	135266304	12	4493
2026-01-27 01:47:44.67	23.73	9.16	-26.3	-28.2	14.5	0.00e+00	0	42	0	140509184	12	4495
2026-01-27 01:47:45.67	23.77	9.24	-26.3	-28.2	14.6	0.00e+00	0	42	0	146800640	12	4475
2026-01-27 01:47:46.67	23.82	9.32	-26.3	-28.2	14.6	2.83e-04	0	42	0	152043520	12	4482
2026-01-27 01:47:47.67	23.87	9.41	-26.5	-28.6	14.3	0.00e+00	0	42	0	157286400	12	4614
2026-01-27 01:47:48.67	23.92	9.49	-26.4	-28.0	14.4	1.10e-06	0	42	0	163577856	13	4327
2026-01-27 01:47:49.68	23.96	9.57	-26.2	-28.0	14.7	0.00e+00	0	42	0	168820736	12	4425
2026-01-27 01:47:50.69	24.01	9.65	-26.0	-27.5	15.0	0.00e+00	0	42	0	175112192	12	4278
2026-01-27 01:47:51.70	24.06	9.74	-25.9	-27.3	15.1	0.00e+00	0	42	0	180355072	12	4228
2026-01-27 01:47:52.70	24.11	9.82	-25.9	-27.4	15.1	0.00e+00	0	42	0	185597952	12	4257
2026-01-27 01:47:53.70	24.16	9.90	-25.9	-27.2	15.2	0.00e+00	0	42	0	191889408	12	4205
2026-01-27 01:47:54.71	24.21	9.99	-26.0	-27.4	15.1	0.00e+00	0	43	0	197132288	12	4265
2026-01-27 01:47:55.71	24.26	10.07	-25.9	-27.3	15.2	0.00e+00	0	42	0	202375168	12	4225
2026-01-27 01:47:56.71	24.31	10.15	-25.7	-26.9	15.4	0.00e+00	0	42	0	208666624	12	4122
2026-01-27 01:47:57.71	24.36	10.24	-25.6	-27.1	15.5	0.00e+00	0	42	0	213909504	11	4293
2026-01-27 01:47:58.71	24.41	10.32	-25.7	-27.3	15.5	0.00e+00	0	43	0	220200960	11	4330
2026-01-27 01:47:59.71	24.46	10.40	-25.6	-27.1	15.6	0.00e+00	0	42	0	225443840	11	4297
2026-01-27 01:48:00.71	24.51	10.49	-25.6	-27.1	15.6	0.00e+00	0	42	0	230686720	11	4292
2026-01-27 01:48:01.71	24.56	10.57	-25.7	-27.4	15.4	0.00e+00	0	43	0	236978176	11	4363
2026-01-27 01:48:02.71	24.61	10.66	-25.6	-27.2	15.6	0.00e+00	0	43	0	242221056	11	4306
2026-01-27 01:48:03.72	24.66	10.75	-25.6	-27.1	15.6	0.00e+00	0	43	0	247463936	11	4270
2026-01-27 01:48:04.71	24.71	10.83	-25.6	-27.1	15.7	0.00e+00	0	42	0	253755392	11	4270
2026-01-27 01:48:05.71	24.77	10.92	-25.6	-27.0	15.7	0.00e+00	0	43	0	258998272	11	4266
2026-01-27 01:48:06.72	24.82	11.00	-25.5	-26.9	15.7	0.00e+00	0	43	0	264241152	11	4231
2026-01-27 01:48:07.73	24.87	11.09	-25.5	-27.0	15.7	0.00e+00	0	43	0	270532608	11	4241
2026-01-27 01:48:08.73	24.92	11.18	-25.5	-26.9	15.8	0.00e+00	0	42	0	275775488	11	4229
2026-01-27 01:48:09.74	24.98	11.27	-25.5	-26.8	15.8	0.00e+00	0	43	0	282066944	11	4203
2026-01-27 01:48:10.74	25.03	11.35	-25.4	-27.2	15.9	0.00e+00	0	43	0	287309824	10	4426
2026-01-27 01:48:11.74	25.09	11.44	-25.4	-27.2	15.9	0.00e+00	0	43	0	293601280	10	4408
2026-01-27 01:48:12.74	25.14	11.53	-25.4	-27.1	15.9	0.00e+00	0	43	0	298844160	10	4405
2026-01-27 01:48:13.74	25.19	11.62	-25.5	-27.0	15.8	0.00e+00	0	43	0	304087040	11	4241
2026-01-27 01:48:14.75	25.25	11.71	-25.7	-27.3	14.0	0.00e+00	0	43	0	310378496	11	4337
2026-01-27 01:48:15.75	25.30	11.80	-25.6	-27.1	15.4	0.00e+00	0	43	0	315621376	11	4285
2026-01-27 01:48:16.75	25.36	11.89	-25.4	-26.6	15.9	0.00e+00	0	43	0	320864256	11	4155
2026-01-27 01:48:17.75	25.41	11.98	-25.3	-26.9	16.0	0.00e+00	0	43	0	327155712	10	4340
2026-01-27 01:48:18.75	25.47	12.07	-25.3	-27.0	16.0	0.00e+00	0	43	0	332398592	10	4354
2026-01-27 01:48:19.75	25.53	12.16	-25.3	-27.0	16.0	0.00e+00	0	43	0	337641472	10	4368
2026-01-27 01:48:20.76	25.58	12.25	-25.3	-27.0	16.0	3.52e-04	0	43	0	343932928	10	4357
2026-01-27 01:48:21.76	25.64	12.34	-25.3	-26.9	16.1	0.00e+00	0	43	0	349175808	10	4322
2026-01-27 01:48:22.77	25.70	12.43	-25.2	-26.8	16.1	0.00e+00	0	43	0	355467264	10	4316
2026-01-27 01:48:23.77	25.76	12.52	-25.3	-26.9	16.1	0.00e+00	0	43	0	360710144	10	4340
2026-01-27 01:48:24.78	25.81	12.62	-25.3	-26.9	16.1	0.00e+00	0	43	0	365953024	10	4326
2026-01-27 01:48:25.78	25.87	12.71	-25.3	-27.0	16.0	0.00e+00	0	43	0	372244480	10	4366
2026-01-27 01:48:26.78	25.93	12.80	-25.3	-26.9	16.1	0.00e+00	0	43	0	377487360	10	4323
2026-01-27 01:48:27.78	25.99	12.89	-25.2	-26.7	16.2	6.43e-04	0	43	0	382730240	10	4283
2026-01-27 01:48:28.78	26.05	12.99	-25.2	-26.7	16.2	0.00e+00	0	43	0	389021696	10	4284
2026-01-27 01:48:29.78	26.11	13.08	-25.3	-26.9	16.1	6.90e-04	0	43	0	394264576	10	4348
2026-01-27 01:48:30.78	26.17	13.17	-25.2	-26.8	16.2	2.40e-05	0	43	0	400556032	10	4309
2026-01-27 01:48:31.79	26.23	13.27	-25.2	-26.8	16.2	0.00e+00	0	43	0	405798912	10	4300
2026-01-27 01:48:32.79	26.29	13.36	-25.2	-26.7	16.2	6.73e-04	0	43	0	411041792	10	4275
2026-01-27 01:48:33.79	26.35	13.46	-25.3	-26.8	16.2	0.00e+00	0	43	0	417333248	10	4324
2026-01-27 01:48:34.79	26.41	13.55	-25.5	-27.3	16.0	0.00e+00	0	43	0	422576128	10	4443
2026-01-27 01:48:35.80	26.47	13.65	-25.3	-27.0	16.1	0.00e+00	0	43	0	428867584	10	4372
2026-01-27 01:48:36.81	26.54	13.75	-25.2	-26.7	16.2	7.20e-04	0	43	0	434110464	10	4297
2026-01-27 01:48:37.81	26.60	13.84	-25.2	-26.7	16.3	0.00e+00	0	43	0	439353344	10	4292
2026-01-27 01:48:38.82	26.66	13.94	-25.2	-26.6	16.3	7.49e-04	0	43	0	445644800	10	4264
2026-01-27 01:48:39.82	26.73	14.04	-25.1	-26.5	16.4	7.64e-04	0	43	0	450887680	10	4218
2026-01-27 01:48:40.83	26.79	14.14	-25.1	-26.6	16.4	0.00e+00	0	43	0	456130560	10	4249
2026-01-27 01:48:41.83	26.85	14.23	-25.1	-26.4	16.4	7.17e-04	0	43	0	462422016	10	4208
2026-01-27 01:48:42.83	26.92	14.33	-25.0	-26.3	16.5	7.45e-04	0	43	0	467664896	10	4189
2026-01-27 01:48:43.83	26.98	14.43	-25.1	-26.6	16.3	0.00e+00	0	43	0	473956352	10	4262
2026-01-27 01:48:44.83	27.05	14.53	-25.1	-26.4	16.4	7.26e-04	0	43	0	479199232	10	4213
2026-01-27 01:48:45.84	27.11	14.63	-25.0	-26.3	16.5	7.27e-04	0	43	0	484442112	10	4167
2026-01-27 01:48:46.84	27.18	14.73	-25.0	-26.3	16.5	0.00e+00	0	43	0	490733568	10	4179
2026-01-27 01:48:47.84	27.25	14.83	-24.9	-26.6	16.6	0.00e+00	0	43	0	495976448	9	4382
2026-01-27 01:48:48.85	27.31	14.93	-24.9	-26.6	16.6	5.80e-04	0	43	0	502267904	9	4382
2026-01-27 01:48:49.85	27.38	15.03	-24.9	-26.7	16.6	0.00e+00	0	43	0	507510784	9	4393
2026-01-27 01:48:50.85	27.45	15.13	-24.9	-26.6	16.6	4.57e-04	0	43	0	512753664	9	4370
2026-01-27 01:48:51.86	27.52	15.24	-24.9	-26.6	16.6	4.24e-04	0	43	0	519045120	9	4365
2026-01-27 01:48:52.86	27.59	15.34	-24.9	-26.6	16.6	1.60e-04	0	43	0	524288000	9	4364
2026-01-27 01:48:53.86	27.65	15.44	-24.8	-26.4	16.8	4.05e-04	0	43	0	529530880	9	4308
2026-01-27 01:48:54.87	27.72	15.54	-24.7	-26.2	16.8	1.67e-04	0	43	0	535822336	9	4273
2026-01-27 01:48:55.87	27.79	15.65	-24.8	-26.4	16.7	0.00e+00	0	43	0	541065216	9	4320
2026-01-27 01:48:56.88	27.87	15.75	-24.7	-26.0	16.9	0.00e+00	0	43	0	547356672	9	4219
2026-01-27 01:48:57.89	27.94	15.86	-24.5	-25.7	17.1	3.23e-04	0	43	0	552599552	9	4141
2026-01-27 01:48:58.89	28.01	15.96	-24.5	-25.7	17.2	9.61e-05	0	43	0	557842432	9	4120
2026-01-27 01:48:59.89	28.08	16.07	-24.5	-25.7	17.2	0.00e+00	0	43	0	564133888	9	4121
2026-01-27 01:49:00.89	28.15	16.17	-24.3	-25.3	17.4	5.57e-04	0	43	0	569376768	9	4027
2026-01-27 01:49:01.90	28.23	16.28	-24.4	-25.4	17.3	1.64e-04	0	43	0	575668224	9	4049
2026-01-27 01:49:02.90	28.30	16.38	-24.2	-25.5	17.5	6.24e-04	0	43	0	580911104	8	4184
2026-01-27 01:49:03.91	28.37	16.49	-24.3	-25.7	17.4	1.77e-04	0	43	0	586153984	8	4245
2026-01-27 01:49:04.91	28.45	16.60	-24.1	-25.3	17.6	2.08e-04	0	43	0	592445440	8	4147
2026-01-27 01:49:05.92	28.52	16.71	-24.1	-25.3	17.7	0.00e+00	0	43	0	597688320	8	4138
2026-01-27 01:49:06.92	28.60	16.81	-24.1	-25.3	17.6	2.60e-04	0	43	0	602931200	8	4146
2026-01-27 01:49:07.93	28.67	16.92	-24.1	-25.4	17.6	0.00e+00	0	43	0	609222656	8	4158
2026-01-27 01:49:08.93	28.75	17.03	-24.3	-25.7	17.5	0.00e+00	0	43	0	614465536	8	4233
2026-01-27 01:49:09.93	28.83	17.14	-24.1	-25.4	17.6	0.00e+00	0	43	0	620756992	8	4162
2026-01-27 01:49:10.94	28.91	17.25	-24.1	-25.3	17.7	3.10e-04	0	43	0	625999872	8	4141
2026-01-27 01:49:11.94	28.98	17.36	-24.2	-25.5	17.6	0.00e+00	0	43	0	631242752	8	4184
2026-01-27 01:49:12.94	29.06	17.47	-24.1	-25.4	17.6	3.38e-04	0	43	0	637534208	8	4169
2026-01-27 01:49:13.95	29.14	17.58	-24.1	-25.4	17.6	3.23e-04	0	43	0	642777088	8	4174
2026-01-27 01:49:14.95	29.22	17.70	-24.1	-25.3	17.7	0.00e+00	0	43	0	649068544	8	4136
2026-01-27 01:49:15.96	29.30	17.81	-24.0	-25.2	17.8	3.63e-04	0	43	0	654311424	8	4105
2026-01-27 01:49:16.97	29.38	17.92	-24.1	-25.3	17.7	0.00e+00	0	43	0	659554304	8	4141
2026-01-27 01:49:17.97	29.46	18.03	-24.2	-25.6	17.5	0.00e+00	0	43	0	665845760	8	4224
2026-01-27 01:49:18.97	29.54	18.15	-24.0	-25.2	17.8	3.27e-04	0	43	0	671088640	8	4105
2026-01-27 01:49:19.98	29.63	18.26	-23.9	-24.9	17.9	3.04e-04	0	43	0	676331520	8	4030
2026-01-27 01:49:20.97	29.71	18.38	-23.9	-24.8	17.9	0.00e+00	0	43	0	682622976	8	4024
2026-01-27 01:49:21.98	29.79	18.49	-23.8	-25.3	18.0	2.54e-04	0	43	0	687865856	7	4242
2026-01-27 01:49:22.99	29.88	18.61	-24.0	-25.5	17.8	2.37e-04	0	43	0	694157312	7	4313
2026-01-27 01:49:23.99	29.96	18.72	-23.9	-25.3	17.9	0.00e+00	0	44	0	699400192	7	4257
2026-01-27 01:49:24.99	30.05	18.84	-23.9	-25.3	17.9	1.90e-04	0	43	0	704643072	7	4263
2026-01-27 01:49:25.99	30.13	18.96	-24.1	-25.3	17.7	0.00e+00	0	43	0	710934528	8	4128
2026-01-27 01:49:26.99	30.22	19.07	-24.3	-25.8	17.5	0.00e+00	0	43	0	716177408	8	4263
2026-01-27 01:49:27.99	30.31	19.19	-24.0	-25.1	17.8	7.78e-05	0	43	0	722468864	8	4097
2026-01-27 01:49:29.00	30.40	19.31	-24.0	-25.2	17.8	0.00e+00	0	43	0	727711744	8	4103
2026-01-27 01:49:30.00	30.49	19.43	-24.2	-25.4	17.7	0.00e+00	0	43	0	732954624	8	4171
2026-01-27 01:49:31.00	30.57	19.55	-23.9	-24.9	17.9	0.00e+00	0	43	0	739246080	8	4043
2026-01-27 01:49:32.00	30.66	19.67	-23.8	-24.7	18.1	1.66e-04	0	43	0	744488960	8	3997
2026-01-27 01:49:33.01	30.76	19.79	-23.8	-24.7	18.0	0.00e+00	0	43	0	749731840	8	3995
2026-01-27 01:49:34.02	30.85	19.91	-23.8	-24.6	18.1	2.09e-04	0	44	0	756023296	8	3967
2026-01-27 01:49:35.02	30.94	20.03	-23.6	-24.3	18.3	2.20e-04	0	43	0	761266176	8	3882
2026-01-27 01:49:36.03	31.03	20.16	-23.6	-24.7	18.3	0.00e+00	0	44	0	766509056	7	4085
2026-01-27 01:49:37.03	31.13	20.28	-23.6	-24.7	18.3	2.79e-04	0	43	0	772800512	7	4105
2026-01-27 01:49:38.03	31.22	20.40	-23.6	-24.7	18.3	0.00e+00	0	44	0	778043392	7	4089
2026-01-27 01:49:39.03	31.31	20.52	-23.6	-24.8	18.2	0.00e+00	0	43	0	784334848	7	4131
2026-01-27 01:49:40.02	31.41	20.65	-23.5	-24.7	18.3	0.00e+00	0	44	0	789577728	7	4089
2026-01-27 01:49:41.02	31.51	20.77	-23.6	-24.7	18.3	0.00e+00	0	44	0	794820608	7	4108
2026-01-27 01:49:42.02	31.60	20.90	-23.7	-24.9	18.2	0.00e+00	0	43	0	801112064	7	4141
2026-01-27 01:49:43.03	31.70	21.02	-23.6	-24.7	18.3	0.00e+00	0	44	0	806354944	7	4089
2026-01-27 01:49:44.04	31.80	21.15	-23.6	-24.8	18.3	0.00e+00	0	43	0	812646400	7	4117
2026-01-27 01:49:45.04	31.90	21.28	-23.5	-24.5	18.4	0.00e+00	0	43	0	817889280	7	4058
2026-01-27 01:49:46.04	32.00	21.40	-23.5	-24.5	18.4	3.09e-04	0	44	0	823132160	7	4058
2026-01-27 01:49:47.04	32.10	21.53	-23.4	-24.3	18.5	0.00e+00	0	44	0	829423616	7	3995
2026-01-27 01:49:48.05	32.20	21.66	-23.5	-24.5	18.4	0.00e+00	0	44	0	834666496	7	4054
2026-01-27 01:49:49.05	32.30	21.79	-23.3	-24.1	18.7	0.00e+00	0	43	0	840957952	7	3941
2026-01-27 01:49:50.05	32.41	21.92	-23.2	-23.9	18.7	0.00e+00	0	44	0	846200832	7	3906
2026-01-27 01:49:51.06	32.51	22.05	-23.3	-24.0	18.7	0.00e+00	0	44	0	851443712	7	3931
2026-01-27 01:49:52.06	32.62	22.18	-23.2	-23.8	18.8	0.00e+00	0	43	0	857735168	7	3879
2026-01-27 01:49:53.06	32.72	22.31	-23.3	-24.0	18.7	0.00e+00	0	44	0	862978048	7	3930
2026-01-27 01:49:54.06	32.83	22.44	-23.2	-23.8	18.8	0.00e+00	0	43	0	868220928	7	3890
2026-01-27 01:49:55.06	32.94	22.58	-23.3	-24.6	18.7	0.00e+00	0	43	0	874512384	6	4182
2026-01-27 01:49:56.07	33.05	22.71	-23.2	-24.4	17.4	0.00e+00	0	43	0	879755264	6	4136
2026-01-27 01:49:57.07	33.16	22.84	-23.2	-24.4	18.1	0.00e+00	0	43	0	884998144	6	4130
2026-01-27 01:49:58.07	33.27	22.98	-23.1	-24.2	18.9	0.00e+00	0	44	0	891289600	6	4088
2026-01-27 01:49:59.07	33.38	23.11	-23.2	-24.3	18.8	0.00e+00	0	44	0	896532480	6	4120
2026-01-27 01:50:00.07	33.49	23.25	-23.3	-24.5	18.7	0.00e+00	0	44	0	902823936	6	4171
2026-01-27 01:50:01.08	33.60	23.39	-23.2	-24.4	18.8	0.00e+00	0	44	0	908066816	6	4134
2026-01-27 01:50:02.09	33.72	23.52	-23.2	-24.5	18.8	1.83e-04	0	44	0	914358272	6	4163
2026-01-27 01:50:03.09	33.83	23.66	-23.0	-24.1	19.0	0.00e+00	0	44	0	919601152	6	4055
2026-01-27 01:50:04.09	33.95	23.80	-23.0	-24.1	19.0	0.00e+00	0	44	0	924844032	6	4051
2026-01-27 01:50:05.09	34.07	23.94	-23.2	-24.3	18.8	1.64e-04	0	44	0	931135488	6	4119
2026-01-27 01:50:06.10	34.18	24.08	-23.1	-24.2	18.9	0.00e+00	0	44	0	936378368	6	4081
2026-01-27 01:50:07.11	34.30	24.22	-23.2	-24.4	18.8	0.00e+00	0	44	0	941621248	6	4125
2026-01-27 01:50:08.11	34.42	24.36	-23.4	-24.8	18.6	0.00e+00	0	44	0	947912704	6	4243
2026-01-27 01:50:09.11	34.54	24.50	-23.1	-24.2	18.9	1.56e-04	0	43	0	953155584	6	4084
2026-01-27 01:50:10.11	34.67	24.64	-22.9	-23.8	19.1	0.00e+00	0	44	0	958398464	6	3996
2026-01-27 01:50:11.12	34.79	24.79	-22.9	-23.7	19.2	0.00e+00	0	44	0	964689920	6	3971
2026-01-27 01:50:12.12	34.91	24.93	-22.9	-23.8	19.2	7.89e-05	0	44	0	969932800	6	3976
2026-01-27 01:50:13.12	35.04	25.07	-22.9	-23.8	19.2	0.00e+00	0	44	0	976224256	6	3976
2026-01-27 01:50:14.13	35.17	25.22	-23.0	-23.9	19.1	6.86e-05	0	44	0	981467136	6	4019
2026-01-27 01:50:15.13	35.30	25.36	-22.9	-23.7	19.2	0.00e+00	0	44	0	986710016	6	3964
2026-01-27 01:50:16.14	35.42	25.51	-22.8	-23.6	19.2	0.00e+00	0	44	0	993001472	6	3938
2026-01-27 01:50:17.14	35.55	25.66	-22.9	-23.7	19.2	1.44e-04	0	44	0	998244352	6	3961
2026-01-27 01:50:18.14	35.69	25.80	-22.8	-23.5	19.3	1.83e-04	0	44	0	1004535808	6	3922
2026-01-27 01:50:19.15	35.82	25.95	-22.8	-23.5	19.3	0.00e+00	0	44	0	1009778688	6	3908
2026-01-27 01:50:20.16	35.95	26.10	-22.8	-23.5	19.3	2.10e-04	0	44	0	1015021568	6	3909
2026-01-27 01:50:21.16	36.09	26.25	-22.7	-23.2	19.4	1.69e-04	0	44	0	1021313024	6	3857
2026-01-27 01:50:22.16	36.22	26.40	-22.7	-23.4	19.3	0.00e+00	0	44	0	1026555904	6	3904
2026-01-27 01:50:23.16	36.36	26.55	-23.0	-23.9	19.1	1.98e-04	0	44	0	1031798784	6	4011
2026-01-27 01:50:24.17	36.50	26.70	-22.8	-23.7	19.3	2.10e-04	0	44	0	1038090240	6	3951
2026-01-27 01:50:25.17	36.64	26.86	-23.1	-24.1	19.0	0.00e+00	0	44	0	1043333120	6	4068
2026-01-27 01:50:26.18	36.78	27.01	-22.9	-23.8	19.2	1.80e-04	0	44	0	1049624576	6	3984
2026-01-27 01:50:27.18	36.92	27.16	-23.1	-24.1	19.0	0.00e+00	0	44	0	1054867456	6	4060
2026-01-27 01:50:28.18	37.07	27.32	-22.8	-23.6	19.3	0.00e+00	0	44	0	1061158912	6	3927
2026-01-27 01:50:29.19	37.21	27.47	-22.8	-23.5	19.3	0.00e+00	0	44	0	1066401792	6	3909
2026-01-27 01:50:30.20	37.36	27.63	-22.8	-23.6	19.3	1.28e-04	0	44	0	1071644672	6	3934
2026-01-27 01:50:31.19	37.51	27.78	-22.8	-23.6	19.3	0.00e+00	0	44	0	1077936128	6	3934
2026-01-27 01:50:32.20	37.66	27.94	-22.8	-23.5	19.4	7.55e-05	0	44	0	1083179008	6	3909
2026-01-27 01:50:33.20	37.81	28.10	-22.8	-23.5	19.4	1.05e-04	0	44	0	1088421888	6	3908
2026-01-27 01:50:34.20	37.96	28.26	-22.6	-23.1	19.5	0.00e+00	0	44	0	1094713344	6	3818
2026-01-27 01:50:35.21	38.12	28.42	-22.5	-22.9	19.7	1.01e-04	0	44	0	1099956224	6	3764
2026-01-27 01:50:36.21	38.27	28.57	-22.5	-22.8	19.7	0.00e+00	0	44	0	1105199104	6	3762
2026-01-27 01:50:37.21	38.43	28.73	-22.6	-23.1	19.5	0.00e+00	0	44	0	1111490560	6	3820
2026-01-27 01:50:38.22	38.59	28.90	-22.6	-23.2	19.6	1.37e-04	0	44	0	1116733440	6	3835
2026-01-27 01:50:39.23	38.75	29.06	-22.6	-23.2	19.5	0.00e+00	0	44	0	1123024896	6	3847
2026-01-27 01:50:40.23	38.91	29.22	-22.6	-23.1	19.5	0.00e+00	0	44	0	1128267776	6	3828
2026-01-27 01:50:41.23	39.07	29.38	-22.7	-23.3	19.5	0.00e+00	0	44	0	1134559232	6	3861
2026-01-27 01:50:42.24	39.24	29.55	-22.7	-23.5	19.4	8.46e-05	0	44	0	1139802112	6	3908
2026-01-27 01:50:43.24	39.40	29.71	-22.7	-23.2	19.5	0.00e+00	0	44	0	1145044992	6	3853
2026-01-27 01:50:44.24	39.57	29.88	-22.6	-23.2	19.5	0.00e+00	0	44	0	1151336448	6	3853
2026-01-27 01:50:45.25	39.74	30.05	-22.7	-23.3	19.5	0.00e+00	0	44	0	1156579328	6	3859
2026-01-27 01:50:46.25	39.91	30.21	-22.7	-23.4	19.4	0.00e+00	0	44	0	1161822208	6	3899
2026-01-27 01:50:47.26	40.09	30.38	-22.7	-23.4	19.5	0.00e+00	0	44	0	1168113664	6	3886
2026-01-27 01:50:48.26	40.26	30.55	-22.5	-23.0	19.6	0.00e+00	0	44	0	1173356544	6	3793
2026-01-27 01:50:49.26	40.44	30.72	-22.6	-23.1	19.6	0.00e+00	0	44	0	1178599424	6	3815
2026-01-27 01:50:50.26	40.61	30.89	-22.6	-23.2	19.5	0.00e+00	0	44	0	1184890880	6	3847
2026-01-27 01:50:51.26	40.79	31.06	-22.6	-23.0	19.6	0.00e+00	0	44	0	1190133760	6	3808
2026-01-27 01:50:52.27	40.98	31.23	-22.6	-23.1	19.6	1.48e-05	0	44	0	1196425216	6	3822
2026-01-27 01:50:53.27	41.16	31.40	-22.6	-23.2	19.6	0.00e+00	0	44	0	1201668096	6	3853
2026-01-27 01:50:54.27	41.35	31.57	-22.6	-23.2	19.6	9.10e-06	0	44	0	1206910976	6	3847
2026-01-27 01:50:55.28	41.54	31.75	-22.8	-23.6	19.4	0.00e+00	0	44	0	1213202432	6	3942
2026-01-27 01:50:56.28	41.73	31.92	-22.6	-23.2	19.6	0.00e+00	0	44	0	1218445312	6	3843
2026-01-27 01:50:57.29	41.92	32.09	-22.5	-22.9	19.7	1.27e-04	0	44	0	1224736768	6	3781
2026-01-27 01:50:58.28	42.11	32.27	-22.5	-22.8	19.7	0.00e+00	0	44	0	1229979648	6	3762
2026-01-27 01:50:59.29	42.31	32.44	-22.5	-22.9	19.7	0.00e+00	0	44	0	1235222528	6	3780
2026-01-27 01:51:00.29	42.51	32.62	-22.4	-22.8	19.8	0.00e+00	0	44	0	1241513984	6	3746
2026-01-27 01:51:01.30	42.71	32.80	-22.5	-22.9	19.8	0.00e+00	0	44	0	1246756864	6	3765
2026-01-27 01:51:02.30	42.91	32.98	-22.6	-23.1	19.7	0.00e+00	0	44	0	1251999744	6	3809
2026-01-27 01:51:03.31	43.11	33.16	-22.6	-23.2	19.6	2.86e-05	0	44	0	1258291200	6	3839
2026-01-27 01:51:04.31	43.32	33.33	-22.5	-22.8	19.8	5.26e-05	0	44	0	1263534080	6	3759
2026-01-27 01:51:05.31	43.53	33.51	-22.5	-22.8	19.8	0.00e+00	0	44	0	1269825536	6	3760
2026-01-27 01:51:06.32	43.74	33.70	-22.6	-23.1	19.7	1.56e-04	0	44	0	1275068416	6	3814
2026-01-27 01:51:07.32	43.96	33.88	-22.7	-23.4	19.5	0.00e+00	0	44	0	1280311296	6	3885
2026-01-27 01:51:08.32	44.17	34.06	-22.8	-23.6	19.4	0.00e+00	0	44	0	1286602752	6	3933
2026-01-27 01:51:09.32	44.39	34.24	-22.7	-23.4	19.5	1.33e-04	0	44	0	1291845632	6	3892
2026-01-27 01:51:10.33	44.61	34.42	-22.8	-23.5	19.5	1.19e-04	0	44	0	1298137088	6	3902
2026-01-27 01:51:11.34	44.84	34.61	-22.7	-23.4	19.5	0.00e+00	0	44	0	1303379968	6	3874
2026-01-27 01:51:12.34	45.06	34.79	-22.4	-22.7	19.9	6.80e-06	0	44	0	1308622848	6	3720
2026-01-27 01:51:13.35	45.29	34.98	-22.2	-22.7	20.1	0.00e+00	0	44	0	1314914304	5	3840
2026-01-27 01:51:14.35	45.52	35.16	-22.1	-22.7	20.1	0.00e+00	0	44	0	1320157184	5	3826
2026-01-27 01:51:15.35	45.75	35.35	-22.1	-22.6	20.1	0.00e+00	0	44	0	1325400064	5	3816
2026-01-27 01:51:16.36	45.99	35.54	-22.2	-22.8	20.1	0.00e+00	0	44	0	1331691520	5	3858
2026-01-27 01:51:17.36	46.23	35.72	-22.1	-22.7	20.2	0.00e+00	0	44	0	1336934400	5	3830
2026-01-27 01:51:18.37	46.47	35.91	-22.3	-22.9	20.0	0.00e+00	0	44	0	1343225856	5	3882
2026-01-27 01:51:19.37	46.72	36.10	-22.1	-22.6	20.1	0.00e+00	0	44	0	1348468736	5	3817
2026-01-27 01:51:20.37	46.96	36.29	-22.1	-22.6	20.2	0.00e+00	0	44	0	1353711616	5	3807
2026-01-27 01:51:21.37	47.21	36.48	-22.1	-22.5	20.2	0.00e+00	0	44	0	1360003072	5	3784
2026-01-27 01:51:22.38	47.47	36.67	-22.0	-22.4	20.3	0.00e+00	0	44	0	1365245952	5	3769
2026-01-27 01:51:23.38	47.72	36.86	-22.1	-22.6	20.2	0.00e+00	0	44	0	1371537408	5	3808
2026-01-27 01:51:24.38	47.98	37.05	-22.2	-22.9	20.0	4.23e-05	0	44	0	1376780288	5	3876
2026-01-27 01:51:25.39	48.24	37.24	-22.3	-22.9	20.0	0.00e+00	0	44	0	1382023168	5	3885
2026-01-27 01:51:26.39	48.51	37.43	-22.3	-23.1	19.9	0.00e+00	0	44	0	1388314624	5	3934
2026-01-27 01:51:27.39	48.77	37.63	-22.3	-23.1	19.9	1.83e-05	0	44	0	1393557504	5	3929
2026-01-27 01:51:28.40	49.05	37.82	-22.1	-22.5	20.2	0.00e+00	0	44	0	1398800384	5	3784
2026-01-27 01:51:29.41	49.32	38.02	-22.0	-22.3	20.3	0.00e+00	0	44	0	1405091840	5	3752
2026-01-27 01:51:30.41	49.60	38.21	-22.0	-22.4	20.3	0.00e+00	0	44	0	1410334720	5	3760
2026-01-27 01:51:31.41	49.88	38.40	-22.0	-22.3	20.3	0.00e+00	0	44	0	1416626176	5	3752
2026-01-27 01:51:32.42	50.16	38.60	-22.0	-22.3	20.4	0.00e+00	0	44	0	1421869056	5	3740
2026-01-27 01:51:33.43	50.45	38.79	-22.0	-22.3	20.4	0.00e+00	0	44	0	1427111936	5	3738
2026-01-27 01:51:34.43	50.74	38.99	-22.0	-22.4	20.3	0.00e+00	0	44	0	1433403392	5	3769
2026-01-27 01:51:35.44	51.04	39.18	-22.1	-22.5	20.2	0.00e+00	0	44	0	1438646272	5	3788
2026-01-27 01:51:36.44	51.34	39.38	-22.2	-22.7	20.2	1.54e-04	0	44	0	1444937728	5	3836
2026-01-27 01:51:37.45	51.64	39.58	-22.1	-22.6	20.2	0.00e+00	0	44	0	1450180608	5	3823
2026-01-27 01:51:38.45	51.94	39.77	-22.1	-22.7	20.2	0.00e+00	0	44	0	1455423488	5	3831
2026-01-27 01:51:39.45	52.25	39.97	-22.2	-22.8	20.1	0.00e+00	0	44	0	1461714944	5	3871
2026-01-27 01:51:40.46	52.57	40.17	-22.2	-22.9	20.1	0.00e+00	0	44	0	1466957824	5	3880
2026-01-27 01:51:41.47	52.88	40.36	-22.1	-22.6	20.2	0.00e+00	0	44	0	1472200704	5	3812
2026-01-27 01:51:42.47	53.20	40.56	-22.1	-22.6	20.2	0.00e+00	0	44	0	1478492160	5	3812
2026-01-27 01:51:43.47	53.53	40.76	-22.2	-22.9	20.1	0.00e+00	0	44	0	1483735040	5	3869
2026-01-27 01:51:44.48	53.86	40.95	-22.3	-23.0	20.0	0.00e+00	0	44	0	1490026496	5	3898
2026-01-27 01:51:45.48	54.19	41.15	-22.4	-23.2	20.0	0.00e+00	0	44	0	1495269376	5	3939
2026-01-27 01:51:46.49	54.52	41.35	-22.3	-23.1	20.0	0.00e+00	0	44	0	1501560832	5	3925
2026-01-27 01:51:47.49	54.86	41.55	-22.4	-23.3	19.9	0.00e+00	0	44	0	1506803712	5	3963
2026-01-27 01:51:48.49	55.21	41.74	-22.3	-23.1	20.0	0.00e+00	0	44	0	1512046592	5	3917
2026-01-27 01:51:49.49	55.55	41.94	-22.1	-22.6	20.3	0.00e+00	0	44	0	1518338048	5	3804
2026-01-27 01:51:50.49	55.90	42.14	-22.1	-22.6	20.3	0.00e+00	0	44	0	1523580928	5	3799
2026-01-27 01:51:51.49	56.26	42.33	-22.2	-22.8	20.2	0.00e+00	0	44	0	1528823808	5	3859
2026-01-27 01:51:52.49	56.62	42.53	-22.3	-23.0	20.1	0.00e+00	0	44	0	1535115264	5	3904
2026-01-27 01:51:53.49	56.98	42.72	-22.3	-23.0	20.0	0.00e+00	0	44	0	1540358144	5	3912
2026-01-27 01:51:54.49	57.35	42.92	-22.4	-23.2	20.0	0.00e+00	0	44	0	1545601024	5	3939
2026-01-27 01:51:55.49	57.72	43.11	-22.3	-22.9	20.1	0.00e+00	0	44	0	1551892480	5	3886
2026-01-27 01:51:56.50	58.11	43.31	-22.2	-22.9	20.2	0.00e+00	0	44	0	1557135360	5	3866
2026-01-27 01:51:57.50	58.49	43.50	-22.3	-22.9	20.1	0.00e+00	0	44	0	1563426816	5	3880
2026-01-27 01:51:58.51	58.88	43.70	-22.2	-22.9	20.2	0.00e+00	0	44	0	1568669696	5	3869
2026-01-27 01:51:59.51	59.27	43.89	-22.3	-23.0	20.1	0.00e+00	0	44	0	1573912576	5	3900
2026-01-27 01:52:00.52	59.67	44.09	-22.3	-23.1	20.0	0.00e+00	0	44	0	1580204032	5	3915
2026-01-27 01:52:01.52	60.07	44.28	-22.4	-23.2	20.0	0.00e+00	0	44	0	1585446912	5	3937
2026-01-27 01:52:02.52	60.48	44.47	-22.3	-22.9	20.2	0.00e+00	0	44	0	1590689792	5	3866
2026-01-27 01:52:03.52	60.89	44.67	-22.4	-23.2	20.0	0.00e+00	0	44	0	1596981248	5	3935
2026-01-27 01:52:04.52	61.30	44.86	-22.6	-23.7	19.8	0.00e+00	0	44	0	1602224128	5	4065
2026-01-27 01:52:05.52	61.72	45.05	-22.8	-24.0	19.6	0.00e+00	0	44	0	1607467008	5	4142
2026-01-27 01:52:06.53	62.15	45.24	-22.8	-24.1	19.6	0.00e+00	0	44	0	1613758464	5	4162
2026-01-27 01:52:07.53	62.58	45.43	-22.6	-23.7	19.8	0.00e+00	0	44	0	1619001344	5	4066
2026-01-27 01:52:08.54	63.02	45.61	-22.6	-23.6	19.8	0.00e+00	0	44	0	1625292800	5	4052
2026-01-27 01:52:09.54	63.46	45.80	-22.7	-23.7	19.7	0.00e+00	0	44	0	1630535680	5	4074
2026-01-27 01:52:10.54	63.91	45.99	-22.8	-24.0	19.6	0.00e+00	0	44	0	1636827136	5	4144
2026-01-27 01:52:11.54	64.36	46.17	-23.0	-24.0	19.4	0.00e+00	0	44	0	1642070016	6	4032
2026-01-27 01:52:12.54	64.82	46.35	-23.1	-24.2	19.3	0.00e+00	0	44	0	1647312896	6	4069
2026-01-27 01:52:13.54	65.28	46.54	-23.2	-24.4	19.2	0.00e+00	0	44	0	1653604352	6	4134
2026-01-27 01:52:14.54	65.75	46.72	-23.1	-24.2	19.3	0.00e+00	0	44	0	1658847232	6	4076
2026-01-27 01:52:15.55	66.22	46.90	-22.7	-23.3	19.7	0.00e+00	0	44	0	1664090112	6	3874
2026-01-27 01:52:16.56	66.71	47.08	-22.6	-23.0	19.9	0.00e+00	0	44	0	1670381568	6	3804
2026-01-27 01:52:17.56	67.19	47.26	-22.5	-22.9	20.0	0.00e+00	0	44	0	1675624448	6	3767
2026-01-27 01:52:18.56	67.68	47.43	-22.6	-23.1	19.9	0.00e+00	0	44	0	1680867328	6	3815
2026-01-27 01:52:19.56	68.17	47.61	-22.5	-22.9	20.0	0.00e+00	0	44	0	1687158784	6	3763
2026-01-27 01:52:20.56	68.67	47.78	-22.4	-22.6	20.1	0.00e+00	0	44	0	1692401664	6	3695
2026-01-27 01:52:21.56	69.18	47.95	-22.5	-22.8	20.0	0.00e+00	0	44	0	1698693120	6	3749
2026-01-27 01:52:22.56	69.69	48.12	-22.6	-23.2	19.8	0.00e+00	0	44	0	1703936000	6	3828
2026-01-27 01:52:23.56	70.21	48.29	-22.6	-23.1	19.9	0.00e+00	0	44	0	1709178880	6	3806
2026-01-27 01:52:24.57	70.73	48.45	-22.2	-22.9	20.2	0.00e+00	0	44	0	1715470336	5	3862
2026-01-27 01:52:25.57	71.26	48.62	-22.2	-22.8	20.1	0.00e+00	0	44	0	1720713216	5	3852
2026-01-27 01:52:26.56	71.79	48.78	-22.4	-23.2	19.9	0.00e+00	0	44	0	1725956096	5	3958
2026-01-27 01:52:27.57	72.33	48.94	-22.6	-23.8	19.6	0.00e+00	0	44	0	1732247552	5	4094
2026-01-27 01:52:28.58	72.88	49.10	-22.6	-23.6	19.7	0.00e+00	0	44	0	1737490432	5	4057
2026-01-27 01:52:29.58	73.43	49.25	-22.2	-22.8	20.1	0.00e+00	0	44	0	1743781888	5	3864
2026-01-27 01:52:30.58	73.99	49.41	-22.2	-22.9	20.1	0.00e+00	0	44	0	1749024768	5	3879
2026-01-27 01:52:31.59	74.56	49.56	-22.3	-23.1	19.9	0.00e+00	0	44	0	1755316224	5	3945
2026-01-27 01:52:32.59	75.12	49.71	-22.5	-23.4	19.8	0.00e+00	0	44	0	1760559104	5	4002
2026-01-27 01:52:33.59	75.70	49.85	-22.6	-23.7	19.7	8.00e-06	0	44	0	1765801984	5	4062
2026-01-27 01:52:34.60	76.28	50.00	-22.8	-24.0	19.5	0.00e+00	0	44	0	1772093440	5	4158
2026-01-27 01:52:35.60	76.86	50.14	-23.0	-24.1	19.2	0.00e+00	0	44	0	1777336320	6	4081
2026-01-27 01:52:36.61	77.46	50.28	-22.9	-23.8	19.4	0.00e+00	0	44	0	1782579200	6	3992
2026-01-27 01:52:37.61	78.05	50.41	-22.5	-22.9	19.8	0.00e+00	0	44	0	1788870656	6	3772
2026-01-27 01:52:38.62	78.65	50.55	-22.5	-22.9	19.8	0.00e+00	0	44	0	1794113536	6	3774
2026-01-27 01:52:39.62	79.26	50.68	-22.8	-23.5	19.5	0.00e+00	0	44	0	1799356416	6	3922
2026-01-27 01:52:40.63	79.87	50.80	-22.8	-23.6	19.5	0.00e+00	0	44	0	1805647872	6	3948
2026-01-27 01:52:41.63	80.49	50.93	-22.7	-23.4	19.6	0.00e+00	0	44	0	1810890752	6	3891
2026-01-27 01:52:42.63	81.11	51.05	-22.8	-23.6	19.5	8.00e-06	0	44	0	1817182208	6	3951
2026-01-27 01:52:43.63	81.73	51.16	-22.9	-23.8	19.4	0.00e+00	0	44	0	1822425088	6	3995
2026-01-27 01:52:44.63	82.36	51.28	-22.6	-23.2	19.7	0.00e+00	0	44	0	1827667968	6	3845
2026-01-27 01:52:45.64	83.00	51.39	-22.4	-22.7	20.0	0.00e+00	0	44	0	1833959424	6	3733
2026-01-27 01:52:46.64	83.64	51.50	-22.7	-23.3	19.6	0.00e+00	0	44	0	1839202304	6	3883
2026-01-27 01:52:47.64	84.28	51.60	-22.9	-23.9	19.4	3.77e-05	0	44	0	1845493760	6	4009
2026-01-27 01:52:48.64	84.93	51.70	-22.9	-23.7	19.4	0.00e+00	0	44	0	1850736640	6	3980
2026-01-27 01:52:49.65	85.59	51.80	-22.9	-23.8	19.4	0.00e+00	0	44	0	1855979520	6	3986
2026-01-27 01:52:50.65	86.24	51.89	-22.8	-23.6	19.5	2.28e-05	0	44	0	1862270976	6	3936
2026-01-27 01:52:51.66	86.91	51.98	-22.8	-23.6	19.5	2.63e-05	0	44	0	1867513856	6	3944
2026-01-27 01:52:52.66	87.57	52.07	-22.9	-23.9	19.4	0.00e+00	0	44	0	1872756736	6	4022
2026-01-27 01:52:53.66	88.24	52.15	-22.9	-23.9	19.4	1.71e-05	0	44	0	1879048192	6	4019
2026-01-27 01:52:54.67	88.92	52.23	-22.9	-23.8	19.4	0.00e+00	0	44	0	1884291072	6	4004
2026-01-27 01:52:55.67	89.59	52.30	-22.9	-23.7	19.5	0.00e+00	0	44	0	1890582528	6	3974
2026-01-27 01:52:56.68	90.28	52.37	-22.9	-23.7	19.4	0.00e+00	0	44	0	1895825408	6	3976
2026-01-27 01:52:57.68	90.96	52.44	-22.9	-23.8	19.4	1.60e-05	0	44	0	1902116864	6	3989
2026-01-27 01:52:58.69	91.65	52.50	-22.7	-23.3	19.7	0.00e+00	0	44	0	1907359744	6	3879
2026-01-27 01:52:59.69	92.34	52.56	-22.7	-23.4	19.6	1.56e-04	0	44	0	1912602624	6	3891
2026-01-27 01:53:00.70	93.03	52.61	-22.9	-23.9	19.4	2.13e-04	0	44	0	1918894080	6	4023
2026-01-27 01:53:01.70	93.73	52.66	-23.1	-24.2	19.2	0.00e+00	0	44	0	1924136960	6	4090
2026-01-27 01:53:02.70	94.42	52.71	-22.9	-23.8	19.4	0.00e+00	0	44	0	1929379840	6	3995
2026-01-27 01:53:03.70	95.12	52.75	-23.2	-24.5	19.1	0.00e+00	0	44	0	1935671296	6	4158
2026-01-27 01:53:04.71	95.82	52.79	-23.5	-24.6	18.7	0.00e+00	0	44	0	1940914176	7	4089
2026-01-27 01:53:05.71	96.52	52.82	-23.2	-24.0	19.0	3.08e-05	0	44	0	1946157056	7	3946
2026-01-27 01:53:06.72	97.23	52.85	-22.7	-23.4	19.6	4.69e-05	0	44	0	1952448512	6	3885
2026-01-27 01:53:07.73	97.94	52.87	-22.8	-23.7	19.5	0.00e+00	0	44	0	1957691392	6	3958
2026-01-27 01:53:08.73	98.64	52.89	-23.1	-24.3	19.2	0.00e+00	0	44	0	1963982848	6	4109
2026-01-27 01:53:09.74	99.35	52.91	-23.2	-24.5	19.1	0.00e+00	0	44	0	1969225728	6	4167
2026-01-27 01:53:10.74	100.06	52.92	-23.1	-24.2	19.2	0.00e+00	0	44	0	1975517184	6	4100
2026-01-27 01:53:11.73	100.76	52.93	-23.2	-24.3	19.2	0.00e+00	0	44	0	1980760064	6	4116
2026-01-27 01:53:12.74	101.47	52.93	-23.1	-24.3	19.2	0.00e+00	0	44	0	1986002944	6	4110
2026-01-27 01:53:13.74	102.18	52.93	-23.2	-24.4	19.1	4.50e-06	0	44	0	1992294400	6	4144
2026-01-27 01:53:14.74	102.88	52.92	-23.2	-24.4	19.1	0.00e+00	0	44	0	1997537280	6	4156
2026-01-27 01:53:15.75	103.60	52.91	-22.9	-23.9	19.4	0.00e+00	0	44	0	2002780160	6	4020
2026-01-27 01:53:16.75	104.30	52.89	-22.9	-23.8	19.4	0.00e+00	0	44	0	2009071616	6	3994
2026-01-27 01:53:17.76	105.01	52.87	-23.0	-24.0	19.4	1.32e-04	0	44	0	2014314496	6	4045
2026-01-27 01:53:18.77	105.72	52.85	-23.3	-24.6	19.1	0.00e+00	0	44	0	2019557376	6	4190
2026-01-27 01:53:19.76	106.41	52.82	-23.2	-24.3	19.2	0.00e+00	0	44	0	2025848832	6	4126
2026-01-27 01:53:20.77	107.12	52.79	-22.8	-23.7	19.5	0.00e+00	0	44	0	2031091712	6	3953
2026-01-27 01:53:21.77	107.82	52.75	-23.0	-24.1	19.3	0.00e+00	0	44	0	2037383168	6	4059
2026-01-27 01:53:22.78	108.52	52.71	-23.5	-25.1	18.8	0.00e+00	0	44	0	2042626048	6	4322
2026-01-27 01:53:23.79	109.23	52.66	-23.3	-24.1	19.0	0.00e+00	0	44	0	2048917504	7	3957
2026-01-27 01:53:24.80	109.92	52.61	-22.6	-23.1	19.8	0.00e+00	0	44	0	2054160384	6	3818
2026-01-27 01:53:25.80	110.61	52.56	-22.5	-23.0	19.8	0.00e+00	0	44	0	2059403264	6	3806
2026-01-27 01:53:26.81	111.31	52.50	-23.0	-24.0	19.4	0.00e+00	0	44	0	2065694720	6	4029
2026-01-27 01:53:27.81	111.99	52.44	-23.1	-24.2	19.3	0.00e+00	0	44	0	2070937600	6	4081
2026-01-27 01:53:28.82	112.68	52.37	-23.4	-24.8	18.9	1.10e-06	0	44	0	2076180480	6	4242
2026-01-27 01:53:29.83	113.37	52.30	-23.6	-24.8	18.7	0.00e+00	0	44	0	2082471936	7	4138
2026-01-27 01:53:30.83	114.04	52.23	-23.5	-24.6	18.8	0.00e+00	0	44	0	2087714816	7	4068
2026-01-27 01:53:31.83	114.71	52.15	-23.4	-24.4	18.9	0.00e+00	0	44	0	2094006272	7	4032
2026-01-27 01:53:32.84	115.39	52.07	-23.6	-24.7	18.8	0.00e+00	0	44	0	2099249152	7	4098
2026-01-27 01:53:33.85	116.06	51.98	-23.4	-24.4	18.9	0.00e+00	0	44	0	2104492032	7	4023
2026-01-27 01:53:34.85	116.72	51.89	-23.2	-23.9	19.2	0.00e+00	0	44	0	2110783488	7	3903
2026-01-27 01:53:35.86	117.38	51.79	-23.1	-23.8	19.2	0.00e+00	0	44	0	2116026368	7	3882
2026-01-27 01:53:36.86	118.04	51.70	-23.2	-23.9	19.2	0.00e+00	0	44	0	2122317824	7	3915
2026-01-27 01:53:37.86	118.68	51.60	-23.1	-23.7	19.3	0.00e+00	0	44	0	2127560704	7	3856
2026-01-27 01:53:38.86	119.33	51.49	-23.4	-24.4	18.9	0.00e+00	0	44	0	2132803584	7	4028
2026-01-27 01:53:39.87	119.97	51.38	-23.3	-24.0	19.1	0.00e+00	0	44	0	2139095040	7	3940
2026-01-27 01:53:40.87	120.61	51.27	-23.0	-23.5	19.4	0.00e+00	0	44	0	2144337920	7	3816
2026-01-27 01:53:41.87	121.24	51.16	-22.8	-23.0	19.6	0.00e+00	0	44	0	2149580800	7	3713
2026-01-27 01:53:42.88	121.87	51.04	-22.7	-23.3	19.7	0.00e+00	0	44	0	2155872256	6	3873
2026-01-27 01:53:43.88	122.49	50.92	-22.8	-23.5	19.6	0.00e+00	0	44	0	2161115136	6	3916
2026-01-27 01:53:44.88	123.10	50.80	-23.2	-24.4	19.2	0.00e+00	0	44	0	2167406592	6	4136
2026-01-27 01:53:45.89	123.72	50.67	-23.1	-24.2	19.2	0.00e+00	0	44	0	2172649472	6	4106
2026-01-27 01:53:46.89	124.33	50.54	-22.8	-23.5	19.6	0.00e+00	0	44	0	2177892352	6	3929
2026-01-27 01:53:47.89	124.92	50.41	-22.7	-23.3	19.7	0.00e+00	0	44	0	2184183808	6	3865
2026-01-27 01:53:48.90	125.53	50.27	-23.0	-24.1	19.3	0.00e+00	0	44	0	2189426688	6	4063
2026-01-27 01:53:49.90	126.11	50.13	-22.9	-23.9	19.4	0.00e+00	0	44	0	2195718144	6	4012
2026-01-27 01:53:50.90	126.70	49.99	-22.7	-23.3	19.7	0.00e+00	0	44	0	2200961024	6	3882
2026-01-27 01:53:51.90	127.28	49.85	-22.7	-23.3	19.7	0.00e+00	0	44	0	2206203904	6	3879
2026-01-27 01:53:52.90	127.85	49.70	-23.0	-24.0	19.4	0.00e+00	0	44	0	2212495360	6	4037
2026-01-27 01:53:53.90	128.42	49.55	-22.9	-23.8	19.5	0.00e+00	0	44	0	2217738240	6	3986
2026-01-27 01:53:54.91	128.98	49.40	-22.6	-23.2	19.7	0.00e+00	0	44	0	2222981120	6	3847
2026-01-27 01:53:55.91	129.54	49.24	-22.4	-22.8	19.9	0.00e+00	0	44	0	2229272576	6	3753
2026-01-27 01:53:56.92	130.10	49.09	-22.6	-23.1	19.8	0.00e+00	0	44	0	2234515456	6	3833
2026-01-27 01:53:57.91	130.64	48.93	-22.7	-23.4	19.7	0.00e+00	0	44	0	2239758336	6	3897
2026-01-27 01:53:58.92	131.18	48.77	-22.9	-23.8	19.4	0.00e+00	0	44	0	2246049792	6	3996
2026-01-27 01:53:59.93	131.72	48.60	-22.5	-22.9	19.9	0.00e+00	0	44	0	2251292672	6	3792
2026-01-27 01:54:00.93	132.25	48.44	-22.3	-22.9	20.0	0.00e+00	0	44	0	2257584128	5	3897
2026-01-27 01:54:01.93	132.77	48.27	-22.5	-23.5	19.8	0.00e+00	0	44	0	2262827008	5	4033
2026-01-27 01:54:02.93	133.29	48.11	-22.8	-24.1	19.5	0.00e+00	0	44	0	2268069888	5	4179
2026-01-27 01:54:03.93	133.80	47.94	-23.1	-24.3	19.2	0.00e+00	0	44	0	2274361344	6	4116
2026-01-27 01:54:04.94	134.31	47.76	-22.8	-23.5	19.5	0.00e+00	0	44	0	2279604224	6	3921
2026-01-27 01:54:05.94	134.82	47.59	-22.4	-22.8	19.9	0.00e+00	0	44	0	2285895680	6	3750
2026-01-27 01:54:06.95	135.32	47.41	-22.5	-22.9	19.9	0.00e+00	0	44	0	2291138560	6	3769
2026-01-27 01:54:07.95	135.81	47.24	-22.6	-23.2	19.7	0.00e+00	0	44	0	2296381440	6	3847
2026-01-27 01:54:08.95	136.29	47.06	-22.8	-23.6	19.5	0.00e+00	0	44	0	2302672896	6	3959
2026-01-27 01:54:09.96	136.77	46.88	-22.6	-23.3	19.6	0.00e+00	0	44	0	2307915776	6	3873
2026-01-27 01:54:10.96	137.25	46.70	-22.4	-22.9	19.9	0.00e+00	0	44	0	2313158656	6	3779
2026-01-27 01:54:11.97	137.72	46.51	-22.5	-23.0	19.8	0.00e+00	0	44	0	2319450112	6	3797
2026-01-27 01:54:12.97	138.18	46.33	-22.5	-23.0	19.8	0.00e+00	0	44	0	2324692992	6	3809
2026-01-27 01:54:13.98	138.64	46.15	-22.7	-23.5	19.6	0.00e+00	0	44	0	2330984448	6	3914
2026-01-27 01:54:14.99	139.10	45.96	-23.0	-24.0	19.2	0.00e+00	0	44	0	2336227328	6	4061
2026-01-27 01:54:16.00	139.55	45.77	-23.0	-24.1	19.2	0.00e+00	0	44	0	2342518784	6	4069
2026-01-27 01:54:17.00	139.99	45.58	-22.9	-23.9	19.3	0.00e+00	0	44	0	2347761664	6	4031
2026-01-27 01:54:18.01	140.43	45.39	-22.9	-23.8	19.3	0.00e+00	0	44	0	2353004544	6	3998
2026-01-27 01:54:19.01	140.86	45.20	-23.0	-24.1	19.2	0.00e+00	0	44	0	2359296000	6	4063
2026-01-27 01:54:20.02	141.29	45.01	-22.8	-23.5	19.5	0.00e+00	0	44	0	2364538880	6	3920
2026-01-27 01:54:21.02	141.72	44.82	-22.7	-23.3	19.6	0.00e+00	0	44	0	2369781760	6	3884
2026-01-27 01:54:22.03	142.14	44.63	-22.7	-23.4	19.5	0.00e+00	0	44	0	2376073216	6	3918
2026-01-27 01:54:23.03	142.55	44.43	-22.7	-23.5	19.5	0.00e+00	0	44	0	2381316096	6	3934
2026-01-27 01:54:24.03	142.95	44.24	-22.8	-23.5	19.4	0.00e+00	0	44	0	2387607552	6	3937
2026-01-27 01:54:25.04	143.36	44.05	-22.5	-23.0	19.7	0.00e+00	0	44	0	2392850432	6	3807
2026-01-27 01:54:26.05	143.76	43.85	-22.4	-22.8	19.8	0.00e+00	0	44	0	2398093312	6	3763
2026-01-27 01:54:27.05	144.15	43.66	-22.5	-23.0	19.7	0.00e+00	0	44	0	2404384768	6	3803
2026-01-27 01:54:28.06	144.54	43.46	-22.4	-22.8	19.8	0.00e+00	0	44	0	2409627648	6	3769
2026-01-27 01:54:29.06	144.92	43.26	-22.6	-23.2	19.6	0.00e+00	0	44	0	2415919104	6	3868
2026-01-27 01:54:30.07	145.30	43.07	-22.7	-23.5	19.5	0.00e+00	0	44	0	2421161984	6	3933
2026-01-27 01:54:31.08	145.68	42.87	-22.7	-23.4	19.5	0.00e+00	0	44	0	2426404864	6	3908
2026-01-27 01:54:32.08	146.05	42.67	-22.6	-23.2	19.6	0.00e+00	0	44	0	2432696320	6	3860
2026-01-27 01:54:33.08	146.41	42.47	-22.7	-23.3	19.5	0.00e+00	0	44	0	2437939200	6	3882
2026-01-27 01:54:34.08	146.77	42.28	-22.8	-23.7	19.3	0.00e+00	0	44	0	2444230656	6	3958
2026-01-27 01:54:35.09	147.13	42.08	-22.4	-22.9	19.7	0.00e+00	0	44	0	2449473536	6	3778
2026-01-27 01:54:36.09	147.49	41.88	-22.2	-22.8	20.0	0.00e+00	0	44	0	2454716416	5	3878
2026-01-27 01:54:37.09	147.83	41.68	-22.1	-22.6	20.1	0.00e+00	0	44	0	2461007872	5	3836
2026-01-27 01:54:38.09	148.18	41.49	-22.1	-22.7	20.0	0.00e+00	0	44	0	2466250752	5	3856
2026-01-27 01:54:39.10	148.52	41.29	-22.1	-22.7	20.0	0.00e+00	0	44	0	2471493632	5	3843
2026-01-27 01:54:40.10	148.85	41.09	-22.1	-22.6	20.1	0.00e+00	0	44	0	2477785088	5	3821
2026-01-27 01:54:41.10	149.18	40.89	-22.1	-22.6	20.1	0.00e+00	0	44	0	2483027968	5	3813
2026-01-27 01:54:42.10	149.51	40.70	-22.3	-23.0	19.9	0.00e+00	0	44	0	2489319424	5	3909
2026-01-27 01:54:43.10	149.83	40.50	-22.4	-23.2	19.7	0.00e+00	0	44	0	2494562304	5	3974
2026-01-27 01:54:44.11	150.16	40.30	-22.6	-23.7	19.5	0.00e+00	0	44	0	2499805184	5	4098
2026-01-27 01:54:45.11	150.47	40.10	-22.5	-23.6	19.6	0.00e+00	0	44	0	2506096640	5	4059
2026-01-27 01:54:46.12	150.78	39.90	-22.5	-23.5	19.6	0.00e+00	0	44	0	2511339520	5	4049
2026-01-27 01:54:47.13	151.10	39.70	-22.3	-23.1	19.8	0.00e+00	0	44	0	2516582400	5	3942
2026-01-27 01:54:48.13	151.40	39.51	-22.2	-23.0	19.9	0.00e+00	0	44	0	2522873856	5	3910
2026-01-27 01:54:49.13	151.70	39.31	-22.2	-23.0	19.9	0.00e+00	0	44	0	2528116736	5	3906
2026-01-27 01:54:50.14	152.00	39.11	-22.0	-22.4	20.1	0.00e+00	0	44	0	2534408192	5	3788
2026-01-27 01:54:51.14	152.29	38.92	-21.9	-22.3	20.3	0.00e+00	0	44	0	2539651072	5	3747
2026-01-27 01:54:52.14	152.58	38.72	-22.0	-22.4	20.2	0.00e+00	0	44	0	2544893952	5	3772
2026-01-27 01:54:53.15	152.87	38.53	-22.2	-22.9	19.9	0.00e+00	0	44	0	2551185408	5	3897
2026-01-27 01:54:54.15	153.16	38.33	-22.5	-23.5	19.6	0.00e+00	0	44	0	2556428288	5	4034
2026-01-27 01:54:55.15	153.44	38.14	-22.5	-23.5	19.6	0.00e+00	0	44	0	2562719744	5	4050
2026-01-27 01:54:56.15	153.71	37.94	-22.8	-24.1	19.3	0.00e+00	0	44	0	2567962624	5	4201
2026-01-27 01:54:57.15	153.99	37.75	-22.8	-24.1	19.3	0.00e+00	0	44	0	2573205504	5	4192
2026-01-27 01:54:58.16	154.26	37.55	-22.9	-24.3	19.2	0.00e+00	0	44	0	2579496960	5	4242
2026-01-27 01:54:59.15	154.52	37.36	-22.8	-24.0	19.4	0.00e+00	0	44	0	2584739840	5	4172
2026-01-27 01:55:00.15	154.79	37.17	-23.0	-23.9	19.2	0.00e+00	0	44	0	2589982720	6	4034
2026-01-27 01:55:01.16	155.05	36.98	-22.5	-23.0	19.6	0.00e+00	0	44	0	2596274176	6	3807
2026-01-27 01:55:02.17	155.31	36.78	-22.3	-22.6	19.9	0.00e+00	0	44	0	2601517056	6	3714
2026-01-27 01:55:03.17	155.57	36.59	-22.2	-22.9	19.9	0.00e+00	0	44	0	2606759936	5	3894
2026-01-27 01:55:04.18	155.82	36.40	-22.3	-23.2	19.8	0.00e+00	0	44	0	2613051392	5	3959
2026-01-27 01:55:05.18	156.07	36.21	-22.3	-23.0	19.9	0.00e+00	0	44	0	2618294272	5	3922
2026-01-27 01:55:06.18	156.32	36.02	-22.2	-22.8	20.0	0.00e+00	0	44	0	2624585728	5	3874
2026-01-27 01:55:07.19	156.56	35.83	-22.1	-22.7	20.0	0.00e+00	0	44	0	2629828608	5	3857
2026-01-27 01:55:08.18	156.80	35.65	-22.1	-22.6	20.0	0.00e+00	0	44	0	2636120064	5	3833
2026-01-27 01:55:09.19	157.04	35.46	-21.9	-22.2	20.2	3.40e-06	0	44	0	2641362944	5	3742
2026-01-27 01:55:10.19	157.28	35.27	-21.9	-22.3	20.2	0.00e+00	0	44	0	2646605824	5	3764
2026-01-27 01:55:11.19	157.51	35.08	-22.1	-22.6	20.0	0.00e+00	0	44	0	2652897280	5	3830
2026-01-27 01:55:12.20	157.74	34.89	-22.0	-22.5	20.1	0.00e+00	0	44	0	2658140160	5	3816
2026-01-27 01:55:13.20	157.97	34.71	-22.2	-22.8	19.9	0.00e+00	0	44	0	2663383040	5	3881
2026-01-27 01:55:14.19	158.19	34.53	-22.1	-22.7	20.0	0.00e+00	0	44	0	2669674496	5	3862
2026-01-27 01:55:15.19	158.42	34.34	-22.2	-22.9	19.9	0.00e+00	0	44	0	2674917376	5	3908
2026-01-27 01:55:16.19	158.64	34.16	-22.3	-23.0	19.8	0.00e+00	0	44	0	2680160256	5	3927
2026-01-27 01:55:17.20	158.86	33.97	-22.3	-23.1	19.8	0.00e+00	0	44	0	2686451712	5	3956
2026-01-27 01:55:18.20	159.07	33.79	-22.3	-23.0	19.8	2.20e-06	0	44	0	2691694592	5	3918
2026-01-27 01:55:19.21	159.29	33.61	-22.3	-23.0	19.8	5.60e-05	0	44	0	2697986048	5	3932
2026-01-27 01:55:20.21	159.50	33.43	-22.2	-22.8	19.9	0.00e+00	0	44	0	2703228928	5	3875
2026-01-27 01:55:21.21	159.71	33.25	-22.2	-22.8	19.9	1.03e-04	0	44	0	2708471808	5	3866
2026-01-27 01:55:22.22	159.91	33.07	-22.2	-22.9	19.8	0.00e+00	0	44	0	2714763264	5	3904
2026-01-27 01:55:23.23	160.12	32.89	-22.2	-22.8	19.9	0.00e+00	0	44	0	2720006144	5	3869
2026-01-27 01:55:24.23	160.32	32.71	-22.2	-22.9	19.8	1.51e-04	0	44	0	2725249024	5	3895
2026-01-27 01:55:25.23	160.52	32.53	-22.3	-23.1	19.8	0.00e+00	0	44	0	2731540480	5	3935
2026-01-27 01:55:26.24	160.72	32.35	-22.4	-23.2	19.7	0.00e+00	0	44	0	2736783360	5	3979
2026-01-27 01:55:27.24	160.92	32.17	-22.4	-23.2	19.7	0.00e+00	0	44	0	2743074816	5	3979
2026-01-27 01:55:28.24	161.11	32.00	-22.4	-23.4	19.6	1.58e-04	0	44	0	2748317696	5	4011
2026-01-27 01:55:29.25	161.30	31.82	-22.6	-23.6	19.5	0.00e+00	0	44	0	2753560576	5	4074
2026-01-27 01:55:30.25	161.49	31.65	-22.5	-23.6	19.5	1.15e-04	0	44	0	2759852032	5	4072
2026-01-27 01:55:31.25	161.68	31.48	-22.7	-23.9	19.3	0.00e+00	0	44	0	2765094912	5	4153
2026-01-27 01:55:32.26	161.87	31.30	-22.7	-24.0	19.3	0.00e+00	0	44	0	2771386368	5	4178
2026-01-27 01:55:33.26	162.05	31.13	-22.9	-24.3	19.1	1.28e-04	0	44	0	2776629248	5	4257
2026-01-27 01:55:34.26	162.23	30.96	-22.8	-24.1	19.2	0.00e+00	0	44	0	2781872128	5	4185
2026-01-27 01:55:35.27	162.41	30.79	-22.7	-23.8	19.4	0.00e+00	0	44	0	2788163584	5	4131
2026-01-27 01:55:36.27	162.59	30.62	-22.6	-23.8	19.4	0.00e+00	0	44	0	2793406464	5	4108
2026-01-27 01:55:37.27	162.77	30.45	-22.5	-23.5	19.5	0.00e+00	0	44	0	2798649344	5	4030
2026-01-27 01:55:38.28	162.94	30.28	-22.5	-23.6	19.5	0.00e+00	0	44	0	2804940800	5	4059
2026-01-27 01:55:39.29	163.12	30.11	-22.7	-24.0	19.3	0.00e+00	0	44	0	2810183680	5	4156
2026-01-27 01:55:40.29	163.29	29.94	-22.8	-24.1	19.3	0.00e+00	0	44	0	2816475136	5	4180
2026-01-27 01:55:41.30	163.46	29.77	-22.7	-23.8	19.4	0.00e+00	0	44	0	2821718016	5	4117
2026-01-27 01:55:42.31	163.63	29.60	-22.7	-24.0	19.3	0.00e+00	0	44	0	2826960896	5	4157
2026-01-27 01:55:43.31	163.79	29.44	-22.8	-24.1	19.2	0.00e+00	0	44	0	2833252352	5	4201
2026-01-27 01:55:44.31	163.96	29.27	-22.9	-24.3	19.1	0.00e+00	0	44	0	2838495232	5	4250
2026-01-27 01:55:45.32	164.12	29.11	-23.0	-24.1	19.0	0.00e+00	0	44	0	2844786688	6	4076
2026-01-27 01:55:46.33	164.28	28.95	-23.2	-24.4	18.8	0.00e+00	0	44	0	2850029568	6	4159
2026-01-27 01:55:47.33	164.44	28.78	-23.3	-24.7	18.7	0.00e+00	0	44	0	2856321024	6	4240
2026-01-27 01:55:48.34	164.60	28.62	-23.0	-24.0	19.0	0.00e+00	0	44	0	2861563904	6	4066
2026-01-27 01:55:49.34	164.76	28.46	-22.7	-23.5	19.3	0.00e+00	0	44	0	2866806784	6	3943
2026-01-27 01:55:50.34	164.91	28.30	-22.6	-23.2	19.4	0.00e+00	0	44	0	2873098240	6	3869
2026-01-27 01:55:51.35	165.07	28.14	-22.5	-23.6	19.5	1.10e-06	0	44	0	2878341120	5	4066
2026-01-27 01:55:52.35	165.22	27.98	-22.5	-23.6	19.4	0.00e+00	0	44	0	2883584000	5	4064
2026-01-27 01:55:53.35	165.37	27.82	-22.5	-23.6	19.5	0.00e+00	0	44	0	2889875456	5	4063
2026-01-27 01:55:54.36	165.52	27.66	-22.5	-23.4	19.5	0.00e+00	0	44	0	2895118336	5	4022
2026-01-27 01:55:55.36	165.67	27.51	-22.5	-23.5	19.5	0.00e+00	0	44	0	2900361216	5	4049
2026-01-27 01:55:56.37	165.81	27.35	-22.6	-23.6	19.4	0.00e+00	0	44	0	2906652672	5	4070
2026-01-27 01:55:57.37	165.96	27.19	-22.5	-23.5	19.5	0.00e+00	0	44	0	2911895552	5	4041
2026-01-27 01:55:58.37	166.10	27.04	-22.5	-23.5	19.5	0.00e+00	0	44	0	2918187008	5	4049
2026-01-27 01:55:59.38	166.24	26.89	-22.5	-23.6	19.4	0.00e+00	0	44	0	2923429888	5	4058
2026-01-27 01:56:00.38	166.39	26.73	-22.5	-23.6	19.4	0.00e+00	0	44	0	2929721344	5	4072
2026-01-27 01:56:01.39	166.53	26.58	-22.5	-23.6	19.4	0.00e+00	0	44	0	2934964224	5	4074
2026-01-27 01:56:02.39	166.66	26.43	-22.6	-23.7	19.4	0.00e+00	0	44	0	2940207104	5	4090
2026-01-27 01:56:03.40	166.80	26.27	-22.6	-23.8	19.3	0.00e+00	0	44	0	2946498560	5	4109
2026-01-27 01:56:04.41	166.94	26.12	-22.6	-23.7	19.3	0.00e+00	0	44	0	2951741440	5	4104
2026-01-27 01:56:05.41	167.07	25.97	-22.7	-24.0	19.2	0.00e+00	0	44	0	2956984320	5	4156
2026-01-27 01:56:06.41	167.21	25.82	-22.8	-24.1	19.2	0.00e+00	0	44	0	2963275776	5	4188
2026-01-27 01:56:07.42	167.34	25.67	-22.7	-24.0	19.2	0.00e+00	0	44	0	2968518656	5	4166
2026-01-27 01:56:08.42	167.47	25.53	-22.7	-24.0	19.2	0.00e+00	0	44	0	2973761536	5	4163
2026-01-27 01:56:09.43	167.60	25.38	-22.8	-24.2	19.1	0.00e+00	0	44	0	2980052992	5	4221
2026-01-27 01:56:10.43	167.73	25.23	-22.9	-24.3	19.1	0.00e+00	0	44	0	2985295872	5	4239
2026-01-27 01:56:11.43	167.85	25.09	-22.8	-24.2	19.1	0.00e+00	0	44	0	2991587328	5	4214
2026-01-27 01:56:12.43	167.98	24.94	-22.9	-24.3	19.1	0.00e+00	0	44	0	2996830208	5	4228
2026-01-27 01:56:13.44	168.11	24.80	-23.0	-24.5	19.0	0.00e+00	0	44	0	3003121664	5	4286
2026-01-27 01:56:14.44	168.23	24.65	-23.3	-24.6	18.7	0.00e+00	0	44	0	3008364544	6	4203
2026-01-27 01:56:15.45	168.35	24.51	-23.3	-24.8	18.6	0.00e+00	0	44	0	3013607424	6	4244
2026-01-27 01:56:16.45	168.48	24.37	-23.1	-24.4	18.8	0.00e+00	0	44	0	3019898880	6	4141
2026-01-27 01:56:17.45	168.60	24.22	-23.0	-24.1	18.9	0.00e+00	0	44	0	3025141760	6	4084
2026-01-27 01:56:18.45	168.72	24.08	-22.6	-23.7	18.9	0.00e+00	0	44	0	3030384640	6	4074
2026-01-27 01:56:19.46	168.84	23.94	-23.0	-24.1	18.9	0.00e+00	0	44	0	3036676096	6	4078
2026-01-27 01:56:20.46	168.95	23.80	-23.1	-24.2	18.4	0.00e+00	0	44	0	3041918976	6	4103
2026-01-27 01:56:21.47	169.07	23.66	-23.1	-24.3	18.8	0.00e+00	0	44	0	3048210432	6	4121
2026-01-27 01:56:22.47	169.19	23.52	-23.0	-24.1	18.9	0.00e+00	0	44	0	3053453312	6	4086
2026-01-27 01:56:23.47	169.30	23.39	-23.0	-24.2	18.9	0.00e+00	0	44	0	3058696192	6	4089
2026-01-27 01:56:24.47	169.41	23.25	-23.1	-24.2	18.9	0.00e+00	0	44	0	3064987648	6	4089
2026-01-27 01:56:25.48	169.53	23.11	-23.0	-24.1	18.9	0.00e+00	0	44	0	3070230528	6	4073
2026-01-27 01:56:26.49	169.64	22.97	-23.1	-24.2	18.8	0.00e+00	0	44	0	3076521984	6	4110
2026-01-27 01:56:27.49	169.75	22.84	-23.2	-24.4	18.7	2.87e-04	0	44	0	3081764864	6	4160
2026-01-27 01:56:28.50	169.86	22.70	-23.2	-24.5	18.7	0.00e+00	0	44	0	3087007744	6	4173
2026-01-27 01:56:29.50	169.97	22.57	-23.2	-24.6	18.6	2.82e-04	0	44	0	3093299200	6	4193
2026-01-27 01:56:30.51	170.08	22.43	-23.3	-24.6	18.6	0.00e+00	0	44	0	3098542080	6	4211
2026-01-27 01:56:31.51	170.19	22.30	-23.3	-24.7	18.6	0.00e+00	0	44	0	3103784960	6	4228
2026-01-27 01:56:32.52	170.29	22.17	-23.3	-24.8	18.5	2.24e-04	0	44	0	3110076416	6	4251
2026-01-27 01:56:33.51	170.40	22.04	-23.5	-25.1	18.4	0.00e+00	0	44	0	3115319296	6	4334
2026-01-27 01:56:34.52	170.50	21.90	-23.6	-24.8	18.3	0.00e+00	0	44	0	3121610752	7	4137
2026-01-27 01:56:35.52	170.61	21.77	-23.4	-24.5	18.4	0.00e+00	0	44	0	3126853632	7	4061
2026-01-27 01:56:36.53	170.71	21.64	-23.4	-24.5	18.4	2.38e-04	0	44	0	3132096512	7	4062
2026-01-27 01:56:37.53	170.81	21.51	-23.5	-24.6	18.3	0.00e+00	0	44	0	3138387968	7	4088
2026-01-27 01:56:38.54	170.91	21.38	-23.5	-24.7	18.3	3.13e-04	0	44	0	3143630848	7	4121
2026-01-27 01:56:39.55	171.01	21.25	-23.5	-24.7	18.3	3.08e-04	0	44	0	3149922304	7	4116
2026-01-27 01:56:40.55	171.11	21.12	-23.6	-24.8	18.2	0.00e+00	0	44	0	3155165184	7	4153
2026-01-27 01:56:41.55	171.21	21.00	-23.6	-24.9	18.2	2.93e-04	0	44	0	3160408064	7	4160
2026-01-27 01:56:42.56	171.31	20.87	-23.6	-25.0	18.2	3.01e-04	0	44	0	3166699520	7	4187
2026-01-27 01:56:43.57	171.41	20.74	-23.6	-24.9	18.2	0.00e+00	0	44	0	3171942400	7	4173
2026-01-27 01:56:44.57	171.51	20.62	-23.6	-24.8	18.2	3.08e-04	0	44	0	3177185280	7	4148
2026-01-27 01:56:45.58	171.60	20.49	-23.7	-25.0	18.1	2.57e-04	0	44	0	3183476736	7	4185
2026-01-27 01:56:46.58	171.70	20.37	-23.6	-24.9	18.2	0.00e+00	0	44	0	3188719616	7	4178
2026-01-27 01:56:47.58	171.79	20.24	-23.6	-24.9	18.2	2.39e-04	0	44	0	3195011072	7	4166
2026-01-27 01:56:48.57	171.88	20.12	-23.6	-24.8	18.2	2.63e-04	0	44	0	3200253952	7	4153
2026-01-27 01:56:49.58	171.98	20.00	-23.5	-24.6	18.3	0.00e+00	0	44	0	3205496832	7	4102
2026-01-27 01:56:50.58	172.07	19.87	-23.5	-24.7	18.3	2.29e-04	0	44	0	3211788288	7	4107
2026-01-27 01:56:51.58	172.16	19.75	-23.5	-24.7	18.2	1.96e-04	0	44	0	3217031168	7	4114
2026-01-27 01:56:52.59	172.25	19.63	-23.5	-24.7	18.3	0.00e+00	0	44	0	3223322624	7	4103
2026-01-27 01:56:53.60	172.34	19.51	-23.6	-24.8	18.3	2.25e-04	0	44	0	3228565504	7	4126
2026-01-27 01:56:54.60	172.43	19.39	-23.6	-24.8	18.2	0.00e+00	0	44	0	3233808384	7	4148
2026-01-27 01:56:55.61	172.52	19.27	-23.6	-24.9	18.1	0.00e+00	0	44	0	3240099840	7	4167
2026-01-27 01:56:56.61	172.61	19.15	-23.6	-24.9	18.2	0.00e+00	0	44	0	3245342720	7	4154
2026-01-27 01:56:57.61	172.70	19.03	-23.7	-25.0	18.1	1.99e-04	0	44	0	3250585600	7	4190
2026-01-27 01:56:58.62	172.78	18.91	-23.8	-25.1	18.0	0.00e+00	0	44	0	3256877056	7	4228
2026-01-27 01:56:59.62	172.87	18.79	-23.8	-25.2	18.0	0.00e+00	0	44	0	3262119936	7	4239
2026-01-27 01:57:00.62	172.95	18.68	-23.8	-25.3	17.9	2.83e-04	0	44	0	3268411392	7	4279
2026-01-27 01:57:01.63	173.04	18.56	-23.9	-25.4	17.9	0.00e+00	0	44	0	3273654272	7	4303
2026-01-27 01:57:02.63	173.12	18.44	-23.9	-25.5	17.8	2.92e-04	0	44	0	3279945728	7	4325
2026-01-27 01:57:03.64	173.21	18.33	-24.0	-25.7	17.8	0.00e+00	0	44	0	3285188608	7	4361
2026-01-27 01:57:04.64	173.29	18.21	-24.1	-25.3	17.7	0.00e+00	0	44	0	3290431488	8	4150
2026-01-27 01:57:05.64	173.37	18.10	-24.2	-25.6	17.5	5.70e-06	0	44	0	3296722944	8	4232
2026-01-27 01:57:06.65	173.46	17.98	-24.2	-25.6	17.5	0.00e+00	0	44	0	3301965824	8	4236
2026-01-27 01:57:07.65	173.54	17.87	-24.2	-25.6	17.6	0.00e+00	0	44	0	3307208704	8	4228
2026-01-27 01:57:08.65	173.62	17.75	-24.3	-25.8	17.4	0.00e+00	0	44	0	3313500160	8	4291
2026-01-27 01:57:09.66	173.70	17.64	-24.3	-25.8	17.4	2.69e-04	0	44	0	3318743040	8	4283
2026-01-27 01:57:10.67	173.78	17.53	-24.3	-25.8	17.4	0.00e+00	0	44	0	3323985920	8	4292
2026-01-27 01:57:11.67	173.86	17.42	-24.3	-25.9	17.4	0.00e+00	0	44	0	3330277376	8	4309
2026-01-27 01:57:12.67	173.93	17.30	-24.4	-26.0	17.3	0.00e+00	0	44	0	3335520256	8	4334
2026-01-27 01:57:13.67	174.01	17.19	-24.4	-26.1	17.3	0.00e+00	0	44	0	3341811712	8	4372
2026-01-27 01:57:14.68	174.09	17.08	-24.5	-25.7	17.2	8.00e-06	0	44	0	3347054592	9	4152
2026-01-27 01:57:15.69	174.17	16.97	-24.4	-25.7	17.2	0.00e+00	0	44	0	3353346048	9	4144
2026-01-27 01:57:16.69	174.24	16.86	-24.5	-25.8	17.2	0.00e+00	0	44	0	3358588928	9	4174
2026-01-27 01:57:17.70	174.32	16.75	-24.6	-26.0	17.0	1.14e-05	0	44	0	3363831808	9	4221
2026-01-27 01:57:18.70	174.39	16.64	-24.6	-26.0	17.0	0.00e+00	0	44	0	3370123264	9	4240
2026-01-27 01:57:19.71	174.47	16.53	-24.6	-26.1	17.0	0.00e+00	0	44	0	3375366144	9	4249
2026-01-27 01:57:20.71	174.54	16.43	-24.7	-26.2	16.9	1.48e-05	0	44	0	3380609024	9	4283
2026-01-27 01:57:21.71	174.62	16.32	-24.7	-26.3	16.9	0.00e+00	0	44	0	3386900480	9	4300
2026-01-27 01:57:22.71	174.69	16.21	-24.9	-26.6	16.7	0.00e+00	0	44	0	3392143360	9	4376
2026-01-27 01:57:23.71	174.76	16.10	-24.9	-26.7	16.6	6.80e-06	0	44	0	3397386240	9	4406
2026-01-27 01:57:24.72	174.84	16.00	-24.9	-26.7	16.6	0.00e+00	0	44	0	3403677696	9	4433
2026-01-27 01:57:25.72	174.91	15.89	-25.1	-26.7	16.4	0.00e+00	0	44	0	3408920576	10	4294
2026-01-27 01:57:26.73	174.98	15.79	-25.3	-26.9	16.3	1.48e-05	0	44	0	3415212032	10	4361
2026-01-27 01:57:27.73	175.05	15.68	-25.2	-26.9	16.3	0.00e+00	0	44	0	3420454912	10	4357
2026-01-27 01:57:28.73	175.12	15.58	-25.2	-26.7	16.3	0.00e+00	0	44	0	3426746368	10	4312
2026-01-27 01:57:29.74	175.19	15.47	-25.1	-26.7	16.4	1.48e-05	0	44	0	3431989248	10	4299
2026-01-27 01:57:30.74	175.26	15.37	-25.1	-26.7	16.4	0.00e+00	0	44	0	3437232128	10	4301
2026-01-27 01:57:31.74	175.33	15.27	-25.2	-26.8	16.3	0.00e+00	0	44	0	3443523584	10	4333
2026-01-27 01:57:32.75	175.40	15.16	-25.3	-27.1	16.1	0.00e+00	0	44	0	3448766464	10	4419
2026-01-27 01:57:33.75	175.46	15.06	-25.2	-26.9	16.2	0.00e+00	0	44	0	3454009344	10	4364
2026-01-27 01:57:34.75	175.53	14.96	-25.1	-26.7	16.4	0.00e+00	0	44	0	3460300800	10	4292
2026-01-27 01:57:35.75	175.60	14.86	-25.0	-26.5	16.5	0.00e+00	0	44	0	3465543680	10	4241
2026-01-27 01:57:36.76	175.67	14.75	-25.1	-26.5	16.4	0.00e+00	0	44	0	3470786560	10	4250
2026-01-27 01:57:37.76	175.73	14.65	-25.0	-26.4	16.5	0.00e+00	0	44	0	3477078016	10	4229
2026-01-27 01:57:38.77	175.80	14.55	-25.1	-26.7	16.3	2.05e-05	0	44	0	3482320896	10	4293
2026-01-27 01:57:39.77	175.86	14.45	-25.1	-26.5	16.4	0.00e+00	0	44	0	3488612352	10	4242
2026-01-27 01:57:40.77	175.93	14.35	-24.9	-26.2	16.6	0.00e+00	0	44	0	3493855232	10	4169
2026-01-27 01:57:41.78	175.99	14.25	-24.9	-26.2	16.6	0.00e+00	0	44	0	3499098112	10	4179
2026-01-27 01:57:42.78	176.06	14.15	-25.0	-26.3	16.5	0.00e+00	0	44	0	3505389568	10	4206
2026-01-27 01:57:43.77	176.12	14.06	-25.0	-26.4	16.4	0.00e+00	0	44	0	3510632448	10	4230
2026-01-27 01:57:44.78	176.18	13.96	-25.1	-26.7	16.3	0.00e+00	0	44	0	3515875328	10	4289
2026-01-27 01:57:45.78	176.25	13.86	-25.1	-26.6	16.3	0.00e+00	0	44	0	3522166784	10	4285
2026-01-27 01:57:46.78	176.31	13.76	-25.2	-26.9	16.2	0.00e+00	0	44	0	3527409664	10	4343
2026-01-27 01:57:47.78	176.37	13.66	-25.2	-26.9	16.2	0.00e+00	0	44	0	3533701120	10	4349
2026-01-27 01:57:48.79	176.43	13.57	-25.3	-26.9	16.2	0.00e+00	0	44	0	3538944000	10	4367
2026-01-27 01:57:49.79	176.49	13.47	-25.3	-26.9	16.1	0.00e+00	0	44	0	3544186880	10	4365
2026-01-27 01:57:50.79	176.56	13.37	-25.2	-26.8	16.2	0.00e+00	0	44	0	3550478336	10	4335
2026-01-27 01:57:51.80	176.62	13.28	-25.2	-26.8	16.2	0.00e+00	0	44	0	3555721216	10	4335
2026-01-27 01:57:52.81	176.68	13.18	-25.3	-27.0	16.1	0.00e+00	0	44	0	3562012672	10	4392
2026-01-27 01:57:53.81	176.74	13.09	-25.3	-27.1	16.0	0.00e+00	0	44	0	3567255552	10	4411
2026-01-27 01:57:54.81	176.80	12.99	-25.3	-27.1	16.0	0.00e+00	0	44	0	3572498432	10	4426
2026-01-27 01:57:55.81	176.86	12.90	-25.2	-27.0	15.8	0.00e+00	0	44	0	3578789888	10	4418
2026-01-27 01:57:56.81	176.91	12.80	-25.4	-27.3	14.6	0.00e+00	0	44	0	3584032768	10	4480
2026-01-27 01:57:57.81	176.97	12.71	-25.4	-27.3	15.9	0.00e+00	0	44	0	3589275648	10	4487
2026-01-27 01:57:58.81	177.03	12.62	-25.5	-27.0	15.7	0.00e+00	0	44	0	3595567104	11	4277
2026-01-27 01:57:59.81	177.09	12.52	-25.7	-27.3	15.6	2.44e-04	0	44	0	3600809984	11	4366
2026-01-27 01:58:00.81	177.15	12.43	-25.6	-27.3	15.6	0.00e+00	0	44	0	3606052864	11	4342
2026-01-27 01:58:01.81	177.20	12.34	-25.6	-27.1	15.7	0.00e+00	0	44	0	3612344320	11	4295
2026-01-27 01:58:02.82	177.26	12.25	-25.5	-27.1	15.7	0.00e+00	0	44	0	3617587200	11	4294
2026-01-27 01:58:03.82	177.32	12.16	-25.7	-27.4	15.6	0.00e+00	0	44	0	3623878656	11	4370
2026-01-27 01:58:04.82	177.37	12.06	-25.8	-27.6	15.4	0.00e+00	0	44	0	3629121536	11	4444
2026-01-27 01:58:05.83	177.43	11.97	-25.8	-27.6	15.4	0.00e+00	0	44	0	3634364416	11	4429
2026-01-27 01:58:06.83	177.48	11.88	-25.9	-27.9	15.3	0.00e+00	0	44	0	3640655872	11	4507
2026-01-27 01:58:07.83	177.54	11.79	-25.8	-27.8	15.3	0.00e+00	0	44	0	3645898752	11	4483
2026-01-27 01:58:08.84	177.59	11.70	-25.9	-27.7	15.3	3.74e-04	0	44	0	3652190208	11	4475
2026-01-27 01:58:09.85	177.65	11.61	-25.9	-27.8	15.3	0.00e+00	0	44	0	3657433088	11	4494
2026-01-27 01:58:10.86	177.70	11.52	-25.9	-27.5	15.1	3.79e-04	0	44	0	3662675968	12	4286
2026-01-27 01:58:11.86	177.76	11.43	-26.2	-28.1	14.8	4.91e-04	0	44	0	3668967424	12	4469
2026-01-27 01:58:12.86	177.81	11.34	-26.1	-27.7	14.9	0.00e+00	0	44	0	3674210304	12	4367
2026-01-27 01:58:13.86	177.86	11.25	-25.9	-27.4	15.1	4.70e-04	0	44	0	3679453184	12	4271
2026-01-27 01:58:14.87	177.92	11.16	-25.8	-27.6	15.4	0.00e+00	0	44	0	3685744640	11	4436
2026-01-27 01:58:15.87	177.97	11.08	-25.9	-27.8	15.2	0.00e+00	0	44	0	3690987520	11	4504
2026-01-27 01:58:16.88	178.02	10.99	-26.0	-28.0	15.1	4.24e-04	0	44	0	3697278976	11	4563
2026-01-27 01:58:17.88	178.07	10.90	-26.0	-28.0	15.1	4.55e-04	0	44	0	3702521856	11	4551
2026-01-27 01:58:18.88	178.13	10.81	-26.0	-27.5	15.1	0.00e+00	0	44	0	3708813312	12	4301
2026-01-27 01:58:19.88	178.18	10.73	-26.1	-27.9	14.8	4.66e-04	0	44	0	3714056192	12	4415
2026-01-27 01:58:20.89	178.23	10.64	-26.1	-27.8	14.9	4.44e-04	0	44	0	3719299072	12	4390
2026-01-27 01:58:21.89	178.28	10.55	-26.0	-27.5	15.0	0.00e+00	0	44	0	3725590528	12	4314
2026-01-27 01:58:22.89	178.33	10.47	-26.0	-27.7	14.9	5.65e-04	0	44	0	3730833408	12	4347
2026-01-27 01:58:23.90	178.38	10.38	-26.0	-27.5	15.0	6.03e-04	0	44	0	3736076288	12	4306
2026-01-27 01:58:24.90	178.43	10.30	-26.2	-28.1	14.7	0.00e+00	0	44	0	3742367744	12	4465
2026-01-27 01:58:25.90	178.48	10.21	-26.1	-27.9	14.8	6.42e-04	0	44	0	3747610624	12	4408
2026-01-27 01:58:26.90	178.53	10.13	-26.2	-28.2	14.7	5.56e-04	0	44	0	3752853504	12	4491
2026-01-27 01:58:27.91	178.58	10.04	-26.1	-27.9	14.8	0.00e+00	0	44	0	3759144960	12	4410
2026-01-27 01:58:28.91	178.63	9.96	-25.9	-27.5	15.0	5.26e-04	0	44	0	3764387840	12	4301
2026-01-27 01:58:29.92	178.68	9.87	-26.0	-28.1	15.1	5.39e-04	0	44	0	3770679296	11	4566
2026-01-27 01:58:30.91	178.73	9.79	-26.0	-27.6	14.9	0.00e+00	0	44	0	3775922176	12	4322
2026-01-27 01:58:31.92	178.78	9.71	-26.1	-27.8	14.9	5.89e-04	0	44	0	3781165056	12	4377
2026-01-27 01:58:32.92	178.82	9.62	-26.0	-27.6	14.9	4.43e-04	0	44	0	3787456512	12	4343
2026-01-27 01:58:33.93	178.87	9.54	-26.1	-27.8	14.8	0.00e+00	0	44	0	3792699392	12	4386
2026-01-27 01:58:34.93	178.92	9.46	-26.0	-27.6	14.9	4.02e-04	0	44	0	3798990848	12	4342
2026-01-27 01:58:35.93	178.97	9.37	-26.1	-27.8	14.8	0.00e+00	0	44	0	3804233728	12	4378
2026-01-27 01:58:36.93	179.01	9.29	-26.1	-27.8	14.8	0.00e+00	0	44	0	3809476608	12	4398
2026-01-27 01:58:37.94	179.06	9.21	-26.2	-28.0	14.7	1.83e-05	0	44	0	3815768064	12	4460
2026-01-27 01:58:38.94	179.11	9.13	-26.1	-27.8	14.8	1.10e-06	0	44	0	3821010944	12	4387
2026-01-27 01:58:39.94	179.15	9.05	-26.0	-27.6	14.9	0.00e+00	0	44	0	3826253824	12	4324
2026-01-27 01:58:40.94	179.20	8.97	-26.1	-27.8	14.8	2.17e-05	0	44	0	3832545280	12	4399
2026-01-27 01:58:41.94	179.24	8.88	-26.0	-27.7	14.8	3.72e-04	0	44	0	3837788160	12	4352
2026-01-27 01:58:42.94	179.29	8.80	-26.1	-27.9	14.7	0.00e+00	0	44	0	3844079616	12	4426
2026-01-27 01:58:43.94	179.33	8.72	-26.0	-27.7	14.8	3.86e-04	0	44	0	3849322496	12	4364
2026-01-27 01:58:44.95	179.38	8.64	-26.1	-27.8	14.8	0.00e+00	0	44	0	3854565376	12	4385
2026-01-27 01:58:45.95	179.42	8.56	-26.0	-27.6	14.8	0.00e+00	0	44	0	3860856832	12	4335
2026-01-27 01:58:46.95	179.47	8.48	-26.2	-28.1	14.6	3.96e-04	0	44	0	3866099712	12	4472
2026-01-27 01:58:47.95	179.51	8.40	-26.1	-27.8	14.8	0.00e+00	0	44	0	3871342592	12	4377
