passes_logs/2026/01/27/R2M6_AANII_01/R2M6_AANII_01__20260127_222200_NOAA_21_JPSS-2_rec.log

#Pass ID: 20260127_222200_NOAA 21 (JPSS-2)
#Satellite: NOAA 21 (JPSS-2)
#Configuration: NOAA 21
#almurnet v.1.7.20240730
#Start time: 2026-01-27 22:22:01

#Version: 2.2.20231116
#Station: R2M6_AANII_01
#Location: 30.233357 lon 59.946436 lat
#TLE: 1 54234U 22150A   26027.41809747  .00000179  00000+0  10565-3 0  9991
#TLE: 2 54234  98.7510 328.1683 0000854 205.0798 155.0336 14.19540145166571

#Time	Az	El	Level	Level2	SNR	BER	BlckErr	Temp	State	Recorded	gain1	gain2
2026-01-27 22:22:01.25	34.59	7.04	-31.4	-37.2	4.5	1.41e+00	0	41	0	0	22	7033
2026-01-27 22:22:02.26	34.70	7.10	-32.1	-39.2	4.2	1.45e+00	0	41	104	0	24	8119
2026-01-27 22:22:03.26	34.82	7.15	-32.0	-38.0	6.0	3.44e-01	0	41	0	0	24	7190
2026-01-27 22:22:04.26	34.93	7.20	-32.1	-38.1	6.0	3.65e-01	0	41	0	3145728	24	7213
2026-01-27 22:22:05.27	35.05	7.26	-32.0	-37.6	6.3	2.71e-01	0	41	0	6291456	24	6900
2026-01-27 22:22:06.28	35.17	7.31	-31.8	-36.8	6.8	1.88e-01	0	41	0	9437184	24	6413
2026-01-27 22:22:07.28	35.28	7.37	-31.6	-36.1	7.4	1.41e-01	0	41	0	12582912	24	6029
2026-01-27 22:22:08.28	35.40	7.42	-31.4	-35.9	7.8	8.75e-02	0	41	0	15728640	23	6010
2026-01-27 22:22:09.28	35.52	7.48	-31.2	-35.3	8.3	5.84e-02	0	41	0	18874368	23	5732
2026-01-27 22:22:10.29	35.64	7.53	-31.2	-35.1	8.4	4.70e-02	0	41	0	22020096	23	5668
2026-01-27 22:22:11.29	35.76	7.59	-31.1	-34.7	8.7	3.51e-02	0	41	0	24117248	23	5479
2026-01-27 22:22:12.30	35.88	7.64	-31.0	-34.4	9.0	2.93e-02	0	41	0	27262976	23	5332
2026-01-27 22:22:13.30	36.00	7.70	-30.9	-34.1	9.2	2.22e-02	0	41	0	30408704	23	5210
2026-01-27 22:22:14.31	36.12	7.75	-30.9	-34.5	9.3	1.90e-02	0	41	0	34603008	22	5460
2026-01-27 22:22:15.31	36.24	7.81	-30.7	-34.1	9.6	1.76e-02	0	41	0	37748736	22	5288
2026-01-27 22:22:16.32	36.36	7.86	-30.4	-33.0	10.3	6.15e-03	0	41	0	40894464	22	4860
2026-01-27 22:22:17.32	36.48	7.92	-29.9	-32.2	11.2	1.67e-03	0	41	0	44040192	21	4696
2026-01-27 22:22:18.33	36.60	7.97	-29.5	-31.7	11.8	5.29e-04	0	41	0	47185920	20	4619
2026-01-27 22:22:19.33	36.72	8.02	-29.3	-31.7	12.3	2.49e-04	0	41	0	49283072	19	4714
2026-01-27 22:22:20.33	36.84	8.08	-29.1	-31.0	12.7	9.84e-05	0	41	0	52428800	19	4492
2026-01-27 22:22:21.34	36.97	8.13	-29.0	-30.8	12.9	5.18e-05	0	41	0	55574528	19	4416
2026-01-27 22:22:22.34	37.09	8.19	-28.9	-30.6	13.0	3.81e-05	0	41	0	58720256	19	4352
2026-01-27 22:22:23.34	37.21	8.24	-28.9	-30.6	13.0	4.65e-05	0	41	0	61865984	19	4356
2026-01-27 22:22:24.35	37.34	8.30	-29.0	-30.7	12.9	4.19e-05	0	42	0	65011712	19	4381
2026-01-27 22:22:25.36	37.46	8.35	-29.0	-30.7	12.9	3.96e-05	0	41	0	69206016	19	4391
2026-01-27 22:22:26.36	37.59	8.41	-29.0	-30.7	12.9	3.66e-05	0	41	0	71303168	19	4396
2026-01-27 22:22:27.37	37.72	8.46	-29.0	-30.8	12.9	5.26e-05	0	41	0	74448896	19	4422
2026-01-27 22:22:28.37	37.84	8.52	-29.0	-30.8	12.9	5.26e-05	0	41	0	77594624	19	4429
2026-01-27 22:22:29.37	37.97	8.57	-29.0	-30.8	12.9	4.73e-05	0	42	0	80740352	19	4431
2026-01-27 22:22:30.37	38.09	8.63	-29.1	-31.0	12.8	7.32e-05	0	41	0	83886080	19	4479
2026-01-27 22:22:31.37	38.22	8.68	-29.1	-31.1	12.7	8.62e-05	0	42	0	87031808	19	4500
2026-01-27 22:22:32.38	38.35	8.74	-28.9	-30.5	13.1	3.89e-05	0	41	0	90177536	19	4318
2026-01-27 22:22:33.38	38.48	8.79	-28.8	-30.8	13.3	1.98e-05	0	41	0	93323264	18	4507
2026-01-27 22:22:34.39	38.61	8.85	-28.8	-30.7	13.3	1.67e-05	0	42	0	96468992	18	4496
2026-01-27 22:22:35.40	38.74	8.90	-28.7	-30.6	13.3	1.22e-05	0	41	0	99614720	18	4470
2026-01-27 22:22:36.41	38.87	8.96	-28.7	-30.6	13.3	1.75e-05	0	41	0	102760448	18	4451
2026-01-27 22:22:37.41	39.00	9.01	-28.8	-30.7	13.3	2.05e-05	0	42	0	105906176	18	4478
2026-01-27 22:22:38.41	39.13	9.07	-28.8	-30.8	13.2	2.05e-05	0	42	0	109051904	18	4526
2026-01-27 22:22:39.42	39.26	9.12	-28.9	-31.0	13.1	1.83e-05	0	42	0	112197632	18	4598
2026-01-27 22:22:40.42	39.39	9.18	-28.9	-31.1	13.0	2.67e-05	0	42	0	115343360	18	4631
2026-01-27 22:22:41.42	39.52	9.23	-29.0	-31.2	13.0	3.28e-05	0	42	0	118489088	18	4631
2026-01-27 22:22:42.42	39.66	9.29	-28.9	-31.1	13.0	3.43e-05	0	42	0	121634816	18	4610
2026-01-27 22:22:43.42	39.79	9.34	-29.0	-31.1	13.1	3.43e-05	0	42	0	124780544	18	4615
2026-01-27 22:22:44.43	39.92	9.40	-28.9	-30.9	13.2	2.82e-05	0	42	0	127926272	18	4542
2026-01-27 22:22:45.43	40.06	9.45	-28.9	-30.9	13.2	2.51e-05	0	42	0	131072000	18	4550
2026-01-27 22:22:46.43	40.19	9.51	-29.0	-31.3	12.9	3.96e-05	0	42	0	134217728	18	4680
2026-01-27 22:22:47.44	40.33	9.56	-29.0	-31.3	13.0	6.63e-05	0	42	0	137363456	18	4664
2026-01-27 22:22:48.44	40.46	9.61	-28.9	-30.9	13.2	2.89e-05	0	42	0	140509184	18	4554
2026-01-27 22:22:49.45	40.60	9.67	-28.9	-31.0	13.1	2.44e-05	0	42	0	143654912	18	4584
2026-01-27 22:22:50.45	40.73	9.72	-28.9	-31.0	13.1	2.97e-05	0	42	0	146800640	18	4586
2026-01-27 22:22:51.45	40.87	9.78	-28.9	-30.9	13.2	2.05e-05	0	42	0	149946368	18	4559
2026-01-27 22:22:52.46	41.01	9.83	-28.9	-31.0	13.1	3.73e-05	0	42	0	153092096	18	4594
2026-01-27 22:22:53.46	41.15	9.89	-28.9	-31.0	13.2	2.21e-05	0	42	0	156237824	18	4590
2026-01-27 22:22:54.47	41.29	9.94	-29.1	-31.4	12.9	3.58e-05	0	42	0	159383552	18	4715
2026-01-27 22:22:55.48	41.43	10.00	-29.0	-31.3	13.0	4.57e-05	0	42	0	162529280	18	4684
2026-01-27 22:22:56.48	41.57	10.05	-28.7	-30.6	13.4	1.75e-05	0	42	0	165675008	18	4467
2026-01-27 22:22:57.48	41.71	10.11	-28.6	-30.3	13.6	2.74e-04	0	42	0	168820736	18	4373
2026-01-27 22:22:58.48	41.85	10.16	-28.6	-30.1	13.7	2.20e-04	0	42	0	171966464	18	4325
2026-01-27 22:22:59.49	41.99	10.22	-28.5	-30.1	13.7	6.10e-06	0	42	0	175112192	18	4299
2026-01-27 22:23:00.49	42.13	10.27	-28.4	-29.8	13.9	4.50e-06	0	42	0	178257920	18	4232
2026-01-27 22:23:01.49	42.27	10.32	-28.4	-29.8	13.9	4.50e-06	0	42	0	181403648	18	4215
2026-01-27 22:23:02.50	42.41	10.38	-28.4	-29.7	14.0	3.00e-06	0	42	0	184549376	18	4186
2026-01-27 22:23:03.50	42.56	10.43	-28.3	-29.6	14.0	4.50e-06	0	42	0	187695104	18	4156
2026-01-27 22:23:04.50	42.70	10.49	-28.4	-29.7	14.0	2.20e-06	0	42	0	190840832	18	4193
2026-01-27 22:23:05.50	42.84	10.54	-28.4	-29.7	14.0	5.30e-06	0	42	0	193986560	18	4194
2026-01-27 22:23:06.50	42.99	10.60	-28.5	-30.0	13.8	3.00e-06	0	42	0	197132288	18	4265
2026-01-27 22:23:07.51	43.13	10.65	-28.5	-30.1	13.7	1.60e-05	0	42	0	200278016	18	4296
2026-01-27 22:23:08.51	43.28	10.70	-28.6	-30.2	13.7	6.80e-06	0	42	0	203423744	18	4324
2026-01-27 22:23:09.52	43.43	10.76	-28.7	-30.6	13.5	8.54e-05	0	42	0	206569472	18	4446
2026-01-27 22:23:10.53	43.57	10.81	-28.6	-30.3	13.6	6.10e-05	0	42	0	209715200	18	4360
2026-01-27 22:23:11.53	43.72	10.87	-28.5	-30.0	13.8	7.60e-06	0	42	0	212860928	18	4280
2026-01-27 22:23:12.54	43.87	10.92	-28.5	-30.0	13.8	8.54e-05	0	42	0	216006656	18	4265
2026-01-27 22:23:13.54	44.02	10.97	-28.5	-30.0	13.8	5.79e-05	0	42	0	219152384	18	4267
2026-01-27 22:23:14.54	44.16	11.03	-28.4	-29.8	13.9	3.00e-06	0	42	0	222298112	18	4223
2026-01-27 22:23:15.55	44.32	11.08	-28.4	-29.7	14.0	1.16e-04	0	42	0	225443840	18	4189
2026-01-27 22:23:16.55	44.46	11.14	-28.4	-29.8	14.0	3.80e-06	0	42	0	228589568	18	4206
2026-01-27 22:23:17.56	44.62	11.19	-28.4	-29.8	14.0	3.80e-06	0	42	0	231735296	18	4209
2026-01-27 22:23:18.56	44.77	11.24	-28.5	-30.0	13.8	1.14e-04	0	42	0	234881024	18	4283
2026-01-27 22:23:19.57	44.92	11.30	-28.5	-30.0	13.9	1.49e-04	0	42	0	238026752	18	4272
2026-01-27 22:23:20.57	45.07	11.35	-28.5	-29.9	13.9	6.10e-06	0	42	0	241172480	18	4254
2026-01-27 22:23:21.56	45.22	11.40	-28.4	-29.8	14.0	4.50e-06	0	42	0	244318208	18	4218
2026-01-27 22:23:22.57	45.38	11.46	-28.4	-29.7	14.0	3.00e-06	0	42	0	247463936	18	4183
2026-01-27 22:23:23.57	45.53	11.51	-28.3	-29.5	14.2	1.50e-06	0	42	0	250609664	18	4135
2026-01-27 22:23:24.57	45.68	11.56	-28.2	-29.9	14.2	1.07e-04	0	42	0	253755392	17	4336
2026-01-27 22:23:25.57	45.84	11.62	-28.2	-29.7	14.3	7.00e-07	0	42	0	256901120	17	4277
2026-01-27 22:23:26.58	45.99	11.67	-28.2	-29.8	14.3	7.00e-07	0	42	0	260046848	17	4302
2026-01-27 22:23:27.58	46.15	11.72	-28.2	-29.8	14.3	0.00e+00	0	42	0	263192576	17	4302
2026-01-27 22:23:28.58	46.30	11.78	-28.3	-29.9	14.2	2.20e-06	0	42	0	266338304	17	4355
2026-01-27 22:23:29.59	46.46	11.83	-28.3	-29.9	14.2	7.00e-07	0	42	0	269484032	17	4337
2026-01-27 22:23:30.60	46.62	11.88	-28.2	-29.8	14.3	1.50e-06	0	42	0	272629760	17	4317
2026-01-27 22:23:31.59	46.78	11.93	-28.2	-29.7	14.4	7.00e-07	0	42	0	275775488	17	4280
2026-01-27 22:23:32.59	46.93	11.99	-28.2	-29.7	14.3	7.00e-07	0	42	0	278921216	17	4276
2026-01-27 22:23:33.60	47.09	12.04	-28.3	-29.9	14.3	0.00e+00	0	43	0	282066944	17	4334
2026-01-27 22:23:34.60	47.25	12.09	-28.3	-29.9	14.2	3.43e-05	0	42	0	285212672	17	4351
2026-01-27 22:23:35.61	47.41	12.14	-28.3	-29.9	14.2	7.00e-07	0	42	0	288358400	17	4357
2026-01-27 22:23:36.61	47.58	12.20	-28.2	-29.7	14.4	0.00e+00	0	43	0	291504128	17	4302
2026-01-27 22:23:37.61	47.74	12.25	-28.2	-29.7	14.4	7.00e-07	0	43	0	294649856	17	4274
2026-01-27 22:23:38.62	47.90	12.30	-28.1	-29.5	14.5	0.00e+00	0	42	0	297795584	17	4240
2026-01-27 22:23:39.62	48.06	12.35	-28.1	-29.5	14.5	0.00e+00	0	42	0	300941312	17	4226
2026-01-27 22:23:40.62	48.22	12.41	-28.3	-29.9	14.3	7.00e-07	0	43	0	304087040	17	4346
2026-01-27 22:23:41.62	48.39	12.46	-28.4	-30.1	14.1	1.50e-06	0	43	0	307232768	17	4410
2026-01-27 22:23:42.62	48.55	12.51	-28.4	-30.7	14.1	3.00e-06	0	43	0	310378496	16	4687
2026-01-27 22:23:43.63	48.72	12.56	-28.4	-30.7	14.1	1.50e-06	0	43	0	313524224	16	4703
2026-01-27 22:23:44.64	48.88	12.61	-28.4	-30.8	14.0	5.30e-06	0	42	0	316669952	16	4733
2026-01-27 22:23:45.64	49.05	12.66	-28.5	-30.9	14.0	3.80e-06	0	42	0	319815680	16	4748
2026-01-27 22:23:46.64	49.21	12.72	-28.5	-30.4	14.0	7.00e-07	0	43	0	322961408	17	4483
2026-01-27 22:23:47.64	49.38	12.77	-28.6	-30.7	13.8	4.50e-06	0	43	0	326107136	17	4581
2026-01-27 22:23:48.64	49.55	12.82	-28.6	-30.6	13.8	4.50e-06	0	43	0	329252864	17	4558
2026-01-27 22:23:49.64	49.71	12.87	-28.6	-30.6	13.9	1.50e-06	0	43	0	332398592	17	4556
2026-01-27 22:23:50.64	49.88	12.92	-28.6	-30.7	13.8	6.10e-06	0	42	0	335544320	17	4591
2026-01-27 22:23:51.65	50.05	12.97	-28.4	-30.2	14.1	2.20e-06	0	43	0	338690048	17	4412
2026-01-27 22:23:52.65	50.22	13.02	-28.3	-30.0	14.2	3.00e-06	0	43	0	341835776	17	4377
2026-01-27 22:23:53.65	50.39	13.07	-28.4	-30.2	14.1	3.00e-06	0	43	0	344981504	17	4423
2026-01-27 22:23:54.65	50.56	13.12	-28.4	-30.3	14.1	2.20e-06	0	43	0	348127232	17	4446
2026-01-27 22:23:55.66	50.73	13.17	-28.4	-30.7	14.1	7.00e-07	0	42	0	351272960	16	4696
2026-01-27 22:23:56.65	50.90	13.22	-28.5	-30.5	13.9	3.00e-06	0	43	0	354418688	17	4511
2026-01-27 22:23:57.66	51.08	13.27	-28.7	-31.0	13.7	5.30e-06	0	43	0	357564416	17	4676
2026-01-27 22:23:58.67	51.25	13.32	-28.8	-31.0	13.6	5.30e-06	0	42	0	360710144	17	4685
2026-01-27 22:23:59.67	51.43	13.37	-28.6	-30.8	13.8	3.80e-06	0	43	0	363855872	17	4617
2026-01-27 22:24:00.67	51.60	13.42	-28.6	-30.7	13.8	3.00e-06	0	43	0	367001600	17	4593
2026-01-27 22:24:01.68	51.78	13.47	-28.6	-30.6	13.9	5.30e-06	0	43	0	370147328	17	4563
2026-01-27 22:24:02.68	51.95	13.52	-28.5	-30.6	13.9	3.00e-06	0	42	0	372244480	17	4539
2026-01-27 22:24:03.69	52.13	13.57	-28.5	-30.4	14.1	4.50e-06	0	43	0	375390208	17	4480
2026-01-27 22:24:04.68	52.30	13.62	-28.4	-30.1	14.2	1.50e-06	0	43	0	378535936	17	4397
2026-01-27 22:24:05.69	52.48	13.67	-28.3	-30.0	14.3	7.00e-07	0	43	0	381681664	17	4368
2026-01-27 22:24:06.70	52.66	13.72	-28.3	-30.0	14.3	2.20e-06	0	43	0	384827392	17	4357
2026-01-27 22:24:07.71	52.84	13.77	-28.3	-30.4	14.3	7.00e-07	0	43	0	389021696	16	4583
2026-01-27 22:24:08.71	53.02	13.81	-28.2	-30.2	14.5	1.50e-06	0	42	0	392167424	16	4539
2026-01-27 22:24:09.72	53.20	13.86	-28.4	-30.7	14.1	3.00e-06	0	43	0	395313152	16	4694
2026-01-27 22:24:10.72	53.38	13.91	-28.3	-30.4	14.3	7.00e-07	0	43	0	397410304	16	4608
2026-01-27 22:24:11.73	53.56	13.96	-28.4	-30.6	14.2	1.50e-06	0	43	0	400556032	16	4665
2026-01-27 22:24:12.73	53.74	14.01	-28.5	-30.4	14.0	1.50e-06	0	43	0	403701760	17	4483
2026-01-27 22:24:13.74	53.92	14.05	-28.6	-30.6	14.0	4.50e-06	0	43	0	406847488	17	4546
2026-01-27 22:24:14.74	54.10	14.10	-28.6	-30.6	13.9	3.80e-06	0	43	0	409993216	17	4546
2026-01-27 22:24:15.74	54.29	14.15	-28.7	-30.9	13.8	2.20e-06	0	43	0	413138944	17	4651
2026-01-27 22:24:16.75	54.47	14.20	-28.5	-30.5	14.0	4.50e-06	0	43	0	416284672	17	4528
2026-01-27 22:24:17.76	54.66	14.24	-28.4	-30.1	14.2	2.20e-06	0	43	0	419430400	17	4397
2026-01-27 22:24:18.76	54.84	14.29	-28.3	-29.9	14.4	7.00e-07	0	43	0	422576128	17	4351
2026-01-27 22:24:19.76	55.03	14.34	-28.2	-30.2	14.5	0.00e+00	0	43	0	425721856	16	4529
2026-01-27 22:24:20.77	55.21	14.38	-28.1	-30.1	14.4	0.00e+00	0	43	0	428867584	16	4504
2026-01-27 22:24:21.77	55.40	14.43	-28.3	-30.4	13.8	1.50e-06	0	43	0	432013312	16	4594
2026-01-27 22:24:22.78	55.59	14.48	-28.4	-30.8	14.1	7.00e-07	0	43	0	435159040	16	4703
2026-01-27 22:24:23.78	55.77	14.52	-28.5	-30.3	13.9	3.00e-06	0	43	0	438304768	17	4455
2026-01-27 22:24:24.78	55.96	14.57	-28.5	-30.3	14.2	0.00e+00	0	43	0	441450496	17	4463
2026-01-27 22:24:25.78	56.15	14.61	-28.5	-30.4	14.1	3.80e-06	0	43	0	444596224	17	4487
2026-01-27 22:24:26.79	56.34	14.66	-28.6	-30.6	13.9	2.91e-04	0	43	0	447741952	17	4549
2026-01-27 22:24:27.79	56.53	14.70	-28.6	-30.6	13.9	4.50e-06	0	43	0	450887680	17	4538
2026-01-27 22:24:28.80	56.72	14.75	-28.5	-30.4	14.0	3.00e-06	0	43	0	454033408	17	4478
2026-01-27 22:24:29.80	56.91	14.79	-28.4	-30.1	14.2	3.00e-06	0	43	0	457179136	17	4399
2026-01-27 22:24:30.81	57.10	14.84	-28.4	-30.7	14.2	0.00e+00	0	43	0	460324864	16	4675
2026-01-27 22:24:31.81	57.29	14.88	-28.3	-30.4	14.4	0.00e+00	0	43	0	463470592	16	4588
2026-01-27 22:24:32.82	57.49	14.93	-28.3	-30.3	14.4	1.58e-03	0	43	0	466616320	16	4577
2026-01-27 22:24:33.83	57.68	14.97	-28.4	-30.6	14.2	7.00e-07	0	43	0	469762048	16	4666
2026-01-27 22:24:34.83	57.88	15.01	-28.2	-30.2	14.5	1.50e-06	0	43	0	472907776	16	4542
2026-01-27 22:24:35.84	58.07	15.06	-28.2	-30.1	14.6	7.00e-07	0	43	0	476053504	16	4509
2026-01-27 22:24:36.84	58.27	15.10	-28.3	-30.5	14.4	1.11e-03	0	43	0	479199232	16	4605
2026-01-27 22:24:37.85	58.46	15.14	-28.3	-30.3	14.4	7.00e-07	0	43	0	482344960	16	4571
2026-01-27 22:24:38.85	58.66	15.19	-28.2	-30.2	14.5	1.02e-03	0	43	0	485490688	16	4528
2026-01-27 22:24:39.86	58.85	15.23	-28.3	-30.4	14.4	8.96e-04	0	43	0	488636416	16	4590
2026-01-27 22:24:40.87	59.05	15.27	-28.3	-30.4	14.4	1.50e-06	0	43	0	491782144	16	4593
2026-01-27 22:24:41.87	59.25	15.31	-28.4	-30.7	14.2	7.62e-04	0	43	0	494927872	16	4677
2026-01-27 22:24:42.87	59.45	15.35	-28.3	-30.5	14.4	6.66e-04	0	43	0	498073600	16	4607
2026-01-27 22:24:43.87	59.65	15.40	-28.1	-30.1	14.6	7.00e-07	0	43	0	501219328	16	4491
2026-01-27 22:24:44.87	59.84	15.44	-28.1	-29.9	14.7	3.71e-04	0	43	0	504365056	16	4450
2026-01-27 22:24:45.87	60.04	15.48	-28.2	-30.2	14.6	3.49e-04	0	43	0	507510784	16	4517
2026-01-27 22:24:46.87	60.24	15.52	-28.0	-29.7	14.8	7.00e-07	0	43	0	510656512	16	4384
2026-01-27 22:24:47.87	60.44	15.56	-27.9	-29.4	15.0	2.10e-04	0	43	0	513802240	16	4296
2026-01-27 22:24:48.88	60.64	15.60	-27.9	-29.4	15.0	1.08e-04	0	43	0	516947968	16	4294
2026-01-27 22:24:49.89	60.85	15.64	-27.8	-29.1	15.2	0.00e+00	0	43	0	520093696	16	4221
2026-01-27 22:24:50.89	61.05	15.68	-27.7	-29.1	15.2	1.57e-04	0	43	0	523239424	16	4208
2026-01-27 22:24:51.89	61.25	15.72	-27.9	-29.5	15.0	2.69e-04	0	43	0	526385152	16	4340
2026-01-27 22:24:52.89	61.45	15.76	-27.9	-29.5	15.0	0.00e+00	0	43	0	529530880	16	4315
2026-01-27 22:24:53.90	61.66	15.79	-28.0	-29.8	14.8	3.83e-04	0	43	0	532676608	16	4405
2026-01-27 22:24:54.90	61.86	15.83	-28.1	-30.0	14.8	3.27e-04	0	43	0	535822336	16	4469
2026-01-27 22:24:55.90	62.07	15.87	-28.0	-29.8	14.8	0.00e+00	0	43	0	538968064	16	4418
2026-01-27 22:24:56.90	62.27	15.91	-28.1	-30.0	14.7	4.98e-04	0	43	0	542113792	16	4454
2026-01-27 22:24:57.90	62.48	15.95	-28.0	-29.7	14.8	3.26e-04	0	43	0	545259520	16	4392
2026-01-27 22:24:58.91	62.69	15.98	-28.0	-29.6	14.9	0.00e+00	0	43	0	548405248	16	4357
2026-01-27 22:24:59.91	62.89	16.02	-28.0	-29.7	14.9	7.34e-04	0	43	0	551550976	16	4371
2026-01-27 22:25:00.91	63.10	16.06	-27.7	-29.6	15.1	0.00e+00	0	43	0	554696704	15	4473
2026-01-27 22:25:01.92	63.31	16.09	-27.7	-29.5	15.1	7.00e-07	0	43	0	557842432	15	4440
2026-01-27 22:25:02.92	63.52	16.13	-27.8	-29.8	15.0	1.39e-03	0	43	0	560988160	15	4525
2026-01-27 22:25:03.91	63.72	16.17	-27.6	-29.4	15.1	1.43e-03	0	43	0	564133888	15	4419
2026-01-27 22:25:04.92	63.93	16.20	-27.6	-29.3	15.2	0.00e+00	0	43	0	567279616	15	4390
2026-01-27 22:25:05.93	64.14	16.24	-27.6	-29.3	15.2	0.00e+00	0	43	0	570425344	15	4380
2026-01-27 22:25:06.93	64.35	16.27	-27.5	-29.1	15.3	0.00e+00	0	43	0	573571072	15	4342
2026-01-27 22:25:07.94	64.57	16.31	-27.5	-29.2	15.3	0.00e+00	0	43	0	576716800	15	4344
2026-01-27 22:25:08.95	64.78	16.34	-27.6	-29.3	15.2	3.93e-04	0	43	0	579862528	15	4371
2026-01-27 22:25:09.95	64.99	16.37	-27.8	-29.9	14.9	8.31e-05	0	43	0	583008256	15	4545
2026-01-27 22:25:10.95	65.20	16.41	-27.7	-29.5	15.1	0.00e+00	0	43	0	586153984	15	4454
2026-01-27 22:25:11.96	65.42	16.44	-27.6	-29.4	15.1	0.00e+00	0	43	0	589299712	15	4421
2026-01-27 22:25:12.95	65.63	16.47	-27.6	-29.3	15.2	0.00e+00	0	43	0	592445440	15	4402
2026-01-27 22:25:13.95	65.84	16.51	-27.6	-29.3	15.2	0.00e+00	0	43	0	595591168	15	4393
2026-01-27 22:25:14.96	66.05	16.54	-27.6	-29.3	15.2	0.00e+00	0	43	0	598736896	15	4386
2026-01-27 22:25:15.96	66.27	16.57	-27.7	-29.5	15.1	7.00e-07	0	43	0	601882624	15	4429
2026-01-27 22:25:16.97	66.48	16.60	-27.5	-29.2	15.3	0.00e+00	0	43	0	605028352	15	4344
2026-01-27 22:25:17.97	66.70	16.63	-27.5	-29.1	15.4	0.00e+00	0	43	0	608174080	15	4324
2026-01-27 22:25:18.97	66.91	16.67	-27.4	-28.9	15.5	0.00e+00	0	43	0	611319808	15	4274
2026-01-27 22:25:19.97	67.13	16.70	-27.5	-29.2	15.3	0.00e+00	0	43	0	614465536	15	4353
2026-01-27 22:25:20.97	67.35	16.73	-27.4	-29.4	15.4	0.00e+00	0	43	0	617611264	14	4539
2026-01-27 22:25:21.98	67.57	16.76	-27.4	-29.4	15.4	0.00e+00	0	43	0	620756992	14	4536
2026-01-27 22:25:22.99	67.78	16.79	-27.5	-29.6	15.3	0.00e+00	0	43	0	623902720	14	4575
2026-01-27 22:25:24.00	68.00	16.82	-27.6	-29.4	15.1	0.00e+00	0	43	0	627048448	15	4411
2026-01-27 22:25:25.00	68.22	16.84	-27.9	-30.0	14.8	0.00e+00	0	43	0	630194176	15	4589
2026-01-27 22:25:26.00	68.44	16.87	-27.7	-29.6	15.0	0.00e+00	0	43	0	633339904	15	4462
2026-01-27 22:25:27.00	68.66	16.90	-27.6	-29.3	15.3	0.00e+00	0	43	0	636485632	15	4374
2026-01-27 22:25:28.01	68.88	16.93	-27.6	-29.3	15.2	0.00e+00	0	43	0	639631360	15	4397
2026-01-27 22:25:29.01	69.10	16.96	-27.7	-29.5	15.1	0.00e+00	0	43	0	642777088	15	4434
2026-01-27 22:25:30.01	69.32	16.98	-27.5	-29.2	15.2	0.00e+00	0	43	0	645922816	15	4361
2026-01-27 22:25:31.01	69.54	17.01	-27.4	-28.9	15.4	0.00e+00	0	43	0	649068544	15	4275
2026-01-27 22:25:32.02	69.76	17.04	-27.5	-29.0	15.3	0.00e+00	0	43	0	652214272	15	4308
2026-01-27 22:25:33.02	69.98	17.06	-27.5	-29.2	15.2	0.00e+00	0	43	0	655360000	15	4361
2026-01-27 22:25:34.01	70.20	17.09	-27.5	-29.1	15.3	0.00e+00	0	43	0	658505728	15	4326
2026-01-27 22:25:35.02	70.43	17.11	-27.5	-29.0	15.3	0.00e+00	0	43	0	661651456	15	4304
2026-01-27 22:25:36.02	70.65	17.14	-27.4	-28.8	15.4	0.00e+00	0	43	0	664797184	15	4252
2026-01-27 22:25:37.03	70.87	17.16	-27.4	-28.9	15.4	0.00e+00	0	43	0	667942912	15	4284
2026-01-27 22:25:38.03	71.09	17.18	-27.5	-29.0	15.4	0.00e+00	0	43	0	671088640	15	4310
2026-01-27 22:25:39.04	71.32	17.21	-27.3	-28.6	15.6	0.00e+00	0	43	0	674234368	15	4207
2026-01-27 22:25:40.05	71.55	17.23	-27.3	-28.7	15.5	0.00e+00	0	43	0	677380096	15	4217
2026-01-27 22:25:41.05	71.77	17.25	-27.6	-29.2	15.2	0.00e+00	0	43	0	680525824	15	4374
2026-01-27 22:25:42.06	72.00	17.28	-27.6	-29.4	15.2	0.00e+00	0	43	0	683671552	15	4405
2026-01-27 22:25:43.05	72.22	17.30	-27.6	-29.3	15.2	0.00e+00	0	43	0	686817280	15	4399
2026-01-27 22:25:44.06	72.44	17.32	-27.7	-29.5	15.0	0.00e+00	0	43	0	689963008	15	4459
2026-01-27 22:25:45.05	72.67	17.34	-27.8	-29.7	15.0	0.00e+00	0	43	0	693108736	15	4495
2026-01-27 22:25:46.06	72.90	17.36	-27.7	-29.5	15.1	7.00e-07	0	43	0	696254464	15	4455
2026-01-27 22:25:47.06	73.12	17.38	-27.7	-29.5	15.1	0.00e+00	0	43	0	699400192	15	4459
2026-01-27 22:25:48.06	73.35	17.40	-27.7	-29.6	14.9	7.00e-07	0	43	0	702545920	15	4480
2026-01-27 22:25:49.07	73.58	17.42	-27.8	-29.8	14.9	0.00e+00	0	43	0	705691648	15	4541
2026-01-27 22:25:50.08	73.80	17.44	-27.7	-29.6	15.0	0.00e+00	0	43	0	708837376	15	4486
2026-01-27 22:25:51.08	74.03	17.46	-27.8	-29.8	14.9	7.00e-07	0	43	0	711983104	15	4535
2026-01-27 22:25:52.09	74.26	17.48	-28.0	-30.2	14.6	0.00e+00	0	43	0	715128832	15	4649
2026-01-27 22:25:53.09	74.49	17.50	-27.8	-29.9	14.8	0.00e+00	0	43	0	718274560	15	4561
2026-01-27 22:25:54.09	74.72	17.51	-27.8	-29.9	14.8	7.00e-07	0	43	0	720371712	15	4557
2026-01-27 22:25:55.09	74.94	17.53	-27.8	-29.9	14.8	0.00e+00	0	43	0	723517440	15	4559
2026-01-27 22:25:56.10	75.17	17.55	-28.0	-30.2	14.7	7.00e-07	0	43	0	726663168	15	4634
2026-01-27 22:25:57.11	75.40	17.56	-27.7	-29.5	15.1	7.00e-07	0	43	0	730857472	15	4448
2026-01-27 22:25:58.11	75.63	17.58	-27.8	-29.8	14.9	0.00e+00	0	43	0	734003200	15	4546
2026-01-27 22:25:59.12	75.86	17.59	-27.6	-29.4	15.1	0.00e+00	0	43	0	737148928	15	4406
2026-01-27 22:26:00.13	76.10	17.61	-27.5	-29.2	15.2	0.00e+00	0	43	0	740294656	15	4361
2026-01-27 22:26:01.13	76.33	17.62	-27.5	-29.2	15.3	0.00e+00	0	43	0	743440384	15	4355
2026-01-27 22:26:02.14	76.56	17.64	-27.6	-29.4	15.1	0.00e+00	0	43	0	745537536	15	4431
2026-01-27 22:26:03.14	76.79	17.65	-27.6	-29.2	15.2	0.00e+00	0	43	0	748683264	15	4375
2026-01-27 22:26:04.14	77.02	17.66	-27.5	-29.1	15.3	0.00e+00	0	43	0	751828992	15	4323
2026-01-27 22:26:05.14	77.25	17.68	-27.4	-29.0	15.4	0.00e+00	0	43	0	754974720	15	4294
2026-01-27 22:26:06.15	77.48	17.69	-27.5	-29.1	15.3	0.00e+00	0	43	0	758120448	15	4341
2026-01-27 22:26:07.15	77.71	17.70	-27.4	-29.0	15.4	0.00e+00	0	43	0	761266176	15	4297
2026-01-27 22:26:08.15	77.94	17.71	-27.5	-29.1	15.3	0.00e+00	0	43	0	764411904	15	4327
2026-01-27 22:26:09.15	78.17	17.72	-27.5	-29.1	15.2	0.00e+00	0	43	0	767557632	15	4339
2026-01-27 22:26:10.15	78.40	17.73	-27.5	-29.2	15.2	3.80e-06	0	43	0	770703360	15	4360
2026-01-27 22:26:11.15	78.63	17.74	-27.6	-29.4	15.1	7.00e-07	0	43	0	773849088	15	4430
2026-01-27 22:26:12.15	78.87	17.75	-27.5	-29.0	15.3	0.00e+00	0	43	0	776994816	15	4311
2026-01-27 22:26:13.16	79.10	17.76	-27.4	-28.8	15.4	0.00e+00	0	43	0	780140544	15	4262
2026-01-27 22:26:14.16	79.33	17.77	-27.4	-28.8	15.4	0.00e+00	0	43	0	783286272	15	4248
2026-01-27 22:26:15.17	79.56	17.78	-27.4	-29.0	15.3	0.00e+00	0	43	0	786432000	15	4292
2026-01-27 22:26:16.17	79.80	17.79	-27.4	-28.9	15.4	2.20e-06	0	43	0	789577728	15	4271
2026-01-27 22:26:17.17	80.03	17.79	-27.5	-29.1	15.2	2.14e-04	0	43	0	792723456	15	4337
2026-01-27 22:26:18.17	80.26	17.80	-27.3	-28.8	15.5	2.54e-04	0	43	0	795869184	15	4247
2026-01-27 22:26:19.18	80.50	17.81	-27.3	-28.7	15.5	1.50e-06	0	43	0	799014912	15	4213
2026-01-27 22:26:20.18	80.73	17.81	-27.3	-28.7	15.5	0.00e+00	0	43	0	802160640	15	4223
2026-01-27 22:26:21.18	80.96	17.82	-27.4	-28.9	15.4	0.00e+00	0	43	0	805306368	15	4284
2026-01-27 22:26:22.18	81.19	17.82	-27.4	-28.8	15.4	0.00e+00	0	43	0	808452096	15	4261
2026-01-27 22:26:23.19	81.43	17.83	-27.4	-28.8	15.4	7.09e-05	0	43	0	811597824	15	4262
2026-01-27 22:26:24.19	81.66	17.83	-27.4	-28.9	15.4	0.00e+00	0	43	0	814743552	15	4277
2026-01-27 22:26:25.19	81.89	17.84	-27.3	-28.7	15.4	1.50e-06	0	43	0	817889280	15	4237
2026-01-27 22:26:26.20	82.13	17.84	-27.4	-29.0	15.3	0.00e+00	0	43	0	821035008	15	4300
2026-01-27 22:26:27.20	82.36	17.84	-27.4	-28.8	15.4	2.21e-05	0	43	0	824180736	15	4263
2026-01-27 22:26:28.20	82.59	17.84	-27.4	-29.0	15.3	0.00e+00	0	43	0	827326464	15	4294
2026-01-27 22:26:29.20	82.83	17.85	-27.4	-29.0	15.3	0.00e+00	0	43	0	830472192	15	4299
2026-01-27 22:26:30.21	83.06	17.85	-27.5	-29.0	15.3	0.00e+00	0	43	0	833617920	15	4320
2026-01-27 22:26:31.21	83.29	17.85	-27.5	-29.0	15.3	0.00e+00	0	43	0	836763648	15	4318
2026-01-27 22:26:32.22	83.53	17.85	-27.5	-29.2	15.2	7.60e-06	0	43	0	839909376	15	4369
2026-01-27 22:26:33.22	83.76	17.85	-27.5	-29.1	15.2	3.00e-06	0	43	0	843055104	15	4341
2026-01-27 22:26:34.23	84.00	17.85	-27.5	-29.1	15.2	0.00e+00	0	43	0	846200832	15	4339
2026-01-27 22:26:35.23	84.23	17.85	-27.4	-28.9	15.4	7.00e-07	0	43	0	849346560	15	4276
2026-01-27 22:26:36.23	84.46	17.84	-27.5	-29.0	15.3	0.00e+00	0	43	0	852492288	15	4315
2026-01-27 22:26:37.24	84.70	17.84	-27.6	-29.3	15.1	0.00e+00	0	43	0	855638016	15	4402
2026-01-27 22:26:38.25	84.93	17.84	-27.5	-29.2	15.2	1.52e-05	0	43	0	858783744	15	4351
2026-01-27 22:26:39.25	85.17	17.84	-27.7	-29.5	15.0	9.10e-06	0	43	0	861929472	15	4453
2026-01-27 22:26:40.26	85.40	17.83	-27.6	-29.3	15.1	0.00e+00	0	43	0	865075200	15	4395
2026-01-27 22:26:41.25	85.63	17.83	-27.7	-29.5	15.0	0.00e+00	0	43	0	868220928	15	4459
2026-01-27 22:26:42.26	85.87	17.83	-27.5	-29.1	15.2	7.00e-07	0	43	0	871366656	15	4349
2026-01-27 22:26:43.27	86.10	17.82	-27.4	-29.0	15.3	0.00e+00	0	43	0	874512384	15	4295
2026-01-27 22:26:44.27	86.34	17.82	-27.4	-28.8	15.4	0.00e+00	0	43	0	877658112	15	4251
2026-01-27 22:26:45.28	86.57	17.81	-27.4	-28.8	15.4	0.00e+00	0	43	0	880803840	15	4241
2026-01-27 22:26:46.28	86.80	17.81	-27.4	-28.9	15.4	0.00e+00	0	43	0	883949568	15	4271
2026-01-27 22:26:47.28	87.04	17.80	-27.5	-29.2	15.1	0.00e+00	0	43	0	887095296	15	4378
2026-01-27 22:26:48.29	87.27	17.79	-27.6	-29.4	15.0	1.75e-05	0	43	0	890241024	15	4425
2026-01-27 22:26:49.29	87.50	17.78	-27.6	-29.4	15.1	0.00e+00	0	43	0	893386752	15	4429
2026-01-27 22:26:50.30	87.74	17.78	-27.5	-29.1	15.2	1.14e-05	0	43	0	896532480	15	4353
2026-01-27 22:26:51.29	87.97	17.77	-27.5	-29.1	15.2	0.00e+00	0	43	0	899678208	15	4326
2026-01-27 22:26:52.30	88.20	17.76	-27.3	-28.6	15.5	0.00e+00	0	43	0	902823936	15	4207
2026-01-27 22:26:53.29	88.43	17.75	-27.3	-28.6	15.5	7.85e-05	0	43	0	905969664	15	4202
2026-01-27 22:26:54.30	88.66	17.74	-27.4	-29.0	15.3	5.34e-05	0	43	0	909115392	15	4302
2026-01-27 22:26:55.31	88.90	17.73	-27.5	-29.2	15.1	0.00e+00	0	43	0	912261120	15	4368
2026-01-27 22:26:56.31	89.13	17.72	-27.7	-29.6	14.9	7.00e-07	0	43	0	915406848	15	4491
2026-01-27 22:26:57.31	89.36	17.71	-27.7	-29.5	14.9	0.00e+00	0	43	0	918552576	15	4465
2026-01-27 22:26:58.31	89.59	17.70	-27.7	-29.6	14.9	0.00e+00	0	43	0	921698304	15	4497
2026-01-27 22:26:59.32	89.82	17.69	-27.7	-29.5	15.0	0.00e+00	0	43	0	924844032	15	4465
2026-01-27 22:27:00.32	90.06	17.67	-27.6	-29.4	15.0	1.14e-05	0	43	0	927989760	15	4426
2026-01-27 22:27:01.33	90.29	17.66	-27.6	-29.3	15.1	0.00e+00	0	43	0	931135488	15	4388
2026-01-27 22:27:02.33	90.52	17.65	-27.6	-29.5	15.0	0.00e+00	0	43	0	934281216	15	4443
2026-01-27 22:27:03.33	90.75	17.63	-27.7	-29.7	14.8	0.00e+00	0	43	0	937426944	15	4505
2026-01-27 22:27:04.34	90.98	17.62	-27.5	-29.1	15.2	0.00e+00	0	43	0	940572672	15	4346
2026-01-27 22:27:05.35	91.21	17.61	-27.7	-29.5	14.9	0.00e+00	0	43	0	943718400	15	4456
2026-01-27 22:27:06.35	91.44	17.59	-27.8	-29.8	14.8	7.00e-07	0	43	0	946864128	15	4536
2026-01-27 22:27:07.36	91.67	17.58	-27.5	-29.1	15.2	0.00e+00	0	43	0	950009856	15	4340
2026-01-27 22:27:08.36	91.90	17.56	-27.4	-28.9	15.3	0.00e+00	0	43	0	953155584	15	4275
2026-01-27 22:27:09.37	92.13	17.54	-27.3	-28.7	15.4	0.00e+00	0	43	0	956301312	15	4235
2026-01-27 22:27:10.37	92.36	17.53	-27.4	-28.8	15.3	0.00e+00	0	43	0	959447040	15	4262
2026-01-27 22:27:11.37	92.59	17.51	-27.6	-29.3	15.0	0.00e+00	0	43	0	962592768	15	4400
2026-01-27 22:27:12.38	92.82	17.49	-27.6	-29.5	14.9	0.00e+00	0	43	0	965738496	15	4451
2026-01-27 22:27:13.38	93.05	17.47	-27.4	-28.9	15.3	0.00e+00	0	43	0	968884224	15	4278
2026-01-27 22:27:14.38	93.28	17.46	-27.2	-28.5	15.5	0.00e+00	0	43	0	972029952	15	4166
2026-01-27 22:27:15.39	93.51	17.44	-27.1	-28.3	15.6	0.00e+00	0	43	0	975175680	15	4118
2026-01-27 22:27:16.39	93.73	17.42	-27.1	-28.2	15.7	0.00e+00	0	43	0	978321408	15	4098
2026-01-27 22:27:17.40	93.96	17.40	-27.1	-28.2	15.7	0.00e+00	0	43	0	981467136	15	4091
2026-01-27 22:27:18.40	94.19	17.38	-27.2	-28.5	15.5	0.00e+00	0	43	0	984612864	15	4182
2026-01-27 22:27:19.41	94.42	17.36	-27.3	-28.6	15.4	0.00e+00	0	43	0	987758592	15	4202
2026-01-27 22:27:20.42	94.64	17.34	-27.4	-28.9	15.3	0.00e+00	0	43	0	990904320	15	4271
2026-01-27 22:27:21.42	94.87	17.31	-27.4	-28.9	15.3	0.00e+00	0	43	0	994050048	15	4275
2026-01-27 22:27:22.43	95.10	17.29	-27.4	-28.9	15.3	0.00e+00	0	43	0	997195776	15	4277
2026-01-27 22:27:23.43	95.32	17.27	-27.5	-29.1	15.1	0.00e+00	0	43	0	1000341504	15	4346
2026-01-27 22:27:24.43	95.55	17.25	-27.5	-29.2	15.1	0.00e+00	0	43	0	1003487232	15	4358
2026-01-27 22:27:25.43	95.77	17.23	-27.5	-29.3	15.0	0.00e+00	0	43	0	1006632960	15	4383
2026-01-27 22:27:26.45	96.00	17.20	-27.6	-29.4	14.9	0.00e+00	0	43	0	1009778688	15	4431
2026-01-27 22:27:27.45	96.22	17.18	-27.5	-29.0	15.2	0.00e+00	0	43	0	1012924416	15	4324
2026-01-27 22:27:28.45	96.45	17.15	-27.3	-28.8	15.3	0.00e+00	0	43	0	1016070144	15	4247
2026-01-27 22:27:29.45	96.67	17.13	-27.3	-28.7	15.4	0.00e+00	0	43	0	1019215872	15	4219
2026-01-27 22:27:30.45	96.89	17.10	-27.3	-28.6	15.5	7.00e-07	0	43	0	1022361600	15	4194
2026-01-27 22:27:31.45	97.11	17.08	-27.2	-28.3	15.6	0.00e+00	0	43	0	1025507328	15	4126
2026-01-27 22:27:32.46	97.34	17.05	-27.1	-28.3	15.6	0.00e+00	0	43	0	1028653056	15	4128
2026-01-27 22:27:33.45	97.56	17.03	-27.1	-28.3	15.6	0.00e+00	0	43	0	1031798784	15	4133
2026-01-27 22:27:34.46	97.78	17.00	-27.1	-28.2	15.6	0.00e+00	0	43	0	1034944512	15	4106
2026-01-27 22:27:35.46	98.00	16.97	-27.2	-28.4	15.5	0.00e+00	0	43	0	1038090240	15	4139
2026-01-27 22:27:36.47	98.22	16.95	-27.1	-28.3	15.6	0.00e+00	0	43	0	1041235968	15	4128
2026-01-27 22:27:37.47	98.44	16.92	-27.3	-28.6	15.4	0.00e+00	0	43	0	1044381696	15	4204
2026-01-27 22:27:38.48	98.67	16.89	-27.3	-28.6	15.4	0.00e+00	0	43	0	1047527424	15	4205
2026-01-27 22:27:39.48	98.88	16.86	-27.2	-28.5	15.5	0.00e+00	0	43	0	1050673152	15	4165
2026-01-27 22:27:40.48	99.10	16.83	-27.2	-28.6	15.4	0.00e+00	0	43	0	1053818880	15	4190
2026-01-27 22:27:41.49	99.32	16.81	-27.2	-28.6	15.4	0.00e+00	0	43	0	1056964608	15	4189
2026-01-27 22:27:42.49	99.54	16.78	-27.3	-28.7	15.4	0.00e+00	0	43	0	1060110336	15	4226
2026-01-27 22:27:43.50	99.76	16.75	-27.2	-28.6	15.4	0.00e+00	0	43	0	1063256064	15	4189
2026-01-27 22:27:44.50	99.98	16.72	-27.4	-28.9	15.2	0.00e+00	0	43	0	1066401792	15	4276
2026-01-27 22:27:45.49	100.19	16.69	-27.4	-29.0	15.2	7.00e-07	0	43	0	1068498944	15	4313
2026-01-27 22:27:46.49	100.41	16.66	-27.3	-28.8	15.3	0.00e+00	0	43	0	1071644672	15	4255
2026-01-27 22:27:47.49	100.63	16.62	-27.4	-28.9	15.2	0.00e+00	0	43	0	1074790400	15	4281
2026-01-27 22:27:48.50	100.84	16.59	-27.5	-29.1	15.1	0.00e+00	0	43	0	1077936128	15	4343
2026-01-27 22:27:49.50	101.06	16.56	-27.5	-29.0	15.1	0.00e+00	0	43	0	1081081856	15	4324
2026-01-27 22:27:50.50	101.27	16.53	-27.4	-28.9	15.2	0.00e+00	0	43	0	1084227584	15	4296
2026-01-27 22:27:51.51	101.49	16.50	-27.4	-28.8	15.2	0.00e+00	0	43	0	1088421888	15	4272
2026-01-27 22:27:52.51	101.70	16.46	-27.3	-28.6	15.4	0.00e+00	0	43	0	1091567616	15	4209
2026-01-27 22:27:53.52	101.92	16.43	-27.2	-28.6	15.4	0.00e+00	0	43	0	1093664768	15	4199
2026-01-27 22:27:54.53	102.13	16.40	-27.2	-29.1	15.4	0.00e+00	0	43	0	1096810496	14	4457
2026-01-27 22:27:55.54	102.35	16.36	-27.2	-29.0	15.4	0.00e+00	0	43	0	1099956224	14	4436
2026-01-27 22:27:56.54	102.56	16.33	-27.4	-29.4	14.7	0.00e+00	0	43	0	1103101952	14	4542
2026-01-27 22:27:57.54	102.77	16.29	-27.4	-29.0	15.2	0.00e+00	0	43	0	1106247680	15	4314
2026-01-27 22:27:58.54	102.98	16.26	-27.3	-28.7	15.2	7.00e-07	0	43	0	1109393408	15	4229
2026-01-27 22:27:59.55	103.19	16.22	-27.3	-28.6	15.4	0.00e+00	0	43	0	1112539136	15	4205
2026-01-27 22:28:00.55	103.40	16.19	-27.3	-28.6	15.4	0.00e+00	0	43	0	1115684864	15	4212
2026-01-27 22:28:01.55	103.61	16.15	-27.3	-28.6	15.4	0.00e+00	0	43	0	1118830592	15	4203
2026-01-27 22:28:02.55	103.82	16.12	-27.3	-28.7	15.3	3.07e-04	0	43	0	1121976320	15	4224
2026-01-27 22:28:03.55	104.03	16.08	-27.3	-28.6	15.4	0.00e+00	0	43	0	1125122048	15	4210
2026-01-27 22:28:04.55	104.24	16.04	-27.1	-28.2	15.6	0.00e+00	0	43	0	1128267776	15	4100
2026-01-27 22:28:05.55	104.45	16.01	-27.1	-28.7	15.6	0.00e+00	0	43	0	1131413504	14	4346
2026-01-27 22:28:06.56	104.65	15.97	-27.1	-28.8	15.5	0.00e+00	0	43	0	1134559232	14	4374
2026-01-27 22:28:07.55	104.86	15.93	-27.2	-29.1	15.4	2.59e-04	0	43	0	1137704960	14	4445
2026-01-27 22:28:08.57	105.07	15.89	-27.3	-29.2	15.3	3.55e-04	0	43	0	1140850688	14	4485
2026-01-27 22:28:09.57	105.27	15.85	-27.4	-29.4	15.2	0.00e+00	0	43	0	1143996416	14	4531
2026-01-27 22:28:10.58	105.48	15.82	-27.4	-29.5	15.1	0.00e+00	0	43	0	1147142144	14	4569
2026-01-27 22:28:11.58	105.69	15.78	-27.4	-29.5	15.1	0.00e+00	0	43	0	1150287872	14	4572
2026-01-27 22:28:12.58	105.89	15.74	-27.5	-29.7	15.1	0.00e+00	0	43	0	1153433600	14	4620
2026-01-27 22:28:13.58	106.09	15.70	-27.7	-29.7	14.8	5.66e-04	0	43	0	1156579328	15	4516
2026-01-27 22:28:14.59	106.30	15.66	-27.7	-29.7	14.7	6.02e-04	0	43	0	1159725056	15	4533
2026-01-27 22:28:15.59	106.50	15.62	-27.7	-29.6	14.8	0.00e+00	0	43	0	1162870784	15	4500
2026-01-27 22:28:16.59	106.70	15.58	-27.7	-29.7	14.7	8.20e-04	0	43	0	1166016512	15	4531
2026-01-27 22:28:17.60	106.91	15.54	-27.6	-29.5	14.8	7.54e-04	0	43	0	1169162240	15	4462
2026-01-27 22:28:18.60	107.11	15.50	-27.5	-29.2	15.0	7.00e-07	0	43	0	1172307968	15	4372
2026-01-27 22:28:19.60	107.31	15.46	-27.5	-29.2	15.0	2.97e-04	0	43	0	1175453696	15	4366
2026-01-27 22:28:20.60	107.51	15.42	-27.5	-29.2	15.0	0.00e+00	0	43	0	1178599424	15	4382
2026-01-27 22:28:21.61	107.71	15.37	-27.6	-29.3	14.9	0.00e+00	0	43	0	1181745152	15	4409
2026-01-27 22:28:22.61	107.91	15.33	-27.5	-29.3	15.0	9.07e-05	0	43	0	1184890880	15	4396
2026-01-27 22:28:23.61	108.10	15.29	-27.6	-29.5	14.8	6.25e-05	0	43	0	1188036608	15	4467
2026-01-27 22:28:24.62	108.30	15.25	-27.7	-29.7	14.7	7.00e-07	0	43	0	1191182336	15	4511
2026-01-27 22:28:25.62	108.50	15.20	-27.8	-29.9	14.6	6.56e-05	0	43	0	1194328064	15	4575
2026-01-27 22:28:26.62	108.70	15.16	-27.8	-30.0	14.5	7.00e-07	0	43	0	1197473792	15	4594
2026-01-27 22:28:27.63	108.90	15.12	-27.8	-30.0	14.5	1.50e-06	0	43	0	1200619520	15	4607
2026-01-27 22:28:28.64	109.09	15.08	-27.7	-29.7	14.7	1.21e-04	0	43	0	1203765248	15	4530
2026-01-27 22:28:29.65	109.29	15.03	-27.7	-29.7	14.7	1.47e-04	0	43	0	1206910976	15	4529
2026-01-27 22:28:30.65	109.48	14.99	-27.7	-29.6	14.7	0.00e+00	0	43	0	1210056704	15	4502
2026-01-27 22:28:31.66	109.68	14.94	-27.7	-29.5	14.8	0.00e+00	0	43	0	1213202432	15	4476
2026-01-27 22:28:32.66	109.87	14.90	-27.8	-29.9	14.6	7.00e-07	0	43	0	1216348160	15	4573
2026-01-27 22:28:33.67	110.07	14.86	-27.7	-29.5	14.7	0.00e+00	0	43	0	1219493888	15	4470
2026-01-27 22:28:34.67	110.26	14.81	-27.6	-29.3	14.9	2.25e-04	0	43	0	1222639616	15	4412
2026-01-27 22:28:35.68	110.45	14.77	-27.6	-29.5	14.8	2.61e-04	0	43	0	1225785344	15	4451
2026-01-27 22:28:36.68	110.64	14.72	-27.7	-29.7	14.6	0.00e+00	0	43	0	1228931072	15	4530
2026-01-27 22:28:37.68	110.83	14.68	-27.8	-29.9	14.5	0.00e+00	0	43	0	1232076800	15	4584
2026-01-27 22:28:38.69	111.03	14.63	-27.8	-29.9	14.5	3.49e-04	0	43	0	1235222528	15	4590
2026-01-27 22:28:39.70	111.22	14.58	-27.9	-30.2	14.4	0.00e+00	0	43	0	1238368256	15	4660
2026-01-27 22:28:40.70	111.41	14.54	-28.2	-30.4	14.1	7.00e-07	0	43	0	1241513984	16	4602
2026-01-27 22:28:41.71	111.60	14.49	-28.2	-30.2	14.2	9.90e-06	0	43	0	1244659712	16	4565
2026-01-27 22:28:42.71	111.78	14.45	-28.0	-29.9	14.4	7.00e-07	0	43	0	1247805440	16	4457
2026-01-27 22:28:43.72	111.97	14.40	-28.0	-29.9	14.4	8.30e-06	0	43	0	1250951168	16	4453
2026-01-27 22:28:44.73	112.16	14.35	-28.1	-30.0	14.4	9.10e-06	0	43	0	1254096896	16	4481
2026-01-27 22:28:45.74	112.35	14.30	-28.0	-29.8	14.4	1.50e-06	0	43	0	1257242624	16	4448
2026-01-27 22:28:46.74	112.53	14.26	-28.0	-30.3	14.3	1.50e-06	0	43	0	1260388352	15	4704
2026-01-27 22:28:47.75	112.72	14.21	-28.0	-29.9	14.4	1.50e-06	0	43	0	1263534080	16	4461
2026-01-27 22:28:48.74	112.90	14.16	-28.0	-29.7	14.4	7.00e-07	0	43	0	1266679808	16	4418
2026-01-27 22:28:49.75	113.09	14.12	-28.0	-29.8	14.5	0.00e+00	0	43	0	1269825536	16	4422
2026-01-27 22:28:50.74	113.27	14.07	-28.0	-29.8	14.4	7.00e-07	0	43	0	1272971264	16	4439
2026-01-27 22:28:51.74	113.45	14.02	-28.0	-29.8	14.4	1.50e-06	0	43	0	1276116992	16	4449
2026-01-27 22:28:52.75	113.64	13.97	-28.1	-30.1	14.2	7.00e-07	0	43	0	1279262720	16	4535
2026-01-27 22:28:53.75	113.82	13.92	-28.0	-29.9	14.3	7.00e-07	0	43	0	1282408448	16	4469
2026-01-27 22:28:54.76	114.00	13.87	-28.1	-30.0	14.3	1.50e-06	0	43	0	1285554176	16	4494
2026-01-27 22:28:55.77	114.18	13.83	-28.2	-30.2	14.2	7.00e-07	0	43	0	1288699904	16	4556
2026-01-27 22:28:56.76	114.36	13.78	-28.1	-30.2	14.2	2.20e-06	0	43	0	1291845632	16	4542
2026-01-27 22:28:57.77	114.54	13.73	-28.2	-30.3	14.1	0.00e+00	0	43	0	1294991360	16	4580
2026-01-27 22:28:58.77	114.72	13.68	-28.2	-30.3	14.1	2.20e-06	0	43	0	1298137088	16	4592
2026-01-27 22:28:59.78	114.90	13.63	-28.2	-30.2	14.1	1.50e-06	0	43	0	1301282816	16	4561
2026-01-27 22:29:00.78	115.08	13.58	-28.3	-30.5	13.9	7.00e-07	0	43	0	1304428544	16	4658
2026-01-27 22:29:01.79	115.25	13.53	-28.2	-30.3	14.1	3.80e-06	0	43	0	1307574272	16	4579
2026-01-27 22:29:02.80	115.43	13.48	-28.0	-29.9	14.3	2.20e-06	0	43	0	1310720000	16	4466
2026-01-27 22:29:03.81	115.61	13.43	-28.0	-29.9	14.3	7.00e-07	0	43	0	1313865728	16	4459
2026-01-27 22:29:04.81	115.78	13.38	-28.1	-30.0	14.2	0.00e+00	0	43	0	1317011456	16	4508
2026-01-27 22:29:05.81	115.96	13.33	-27.9	-30.2	14.3	0.00e+00	0	43	0	1320157184	15	4687
2026-01-27 22:29:06.81	116.13	13.28	-27.9	-30.1	14.3	7.00e-07	0	43	0	1323302912	15	4644
2026-01-27 22:29:07.81	116.31	13.23	-27.8	-29.9	14.4	9.10e-06	0	43	0	1326448640	15	4598
2026-01-27 22:29:08.81	116.48	13.18	-27.8	-30.0	14.4	7.00e-07	0	43	0	1329594368	15	4612
2026-01-27 22:29:09.82	116.65	13.13	-27.8	-29.9	14.4	0.00e+00	0	43	0	1332740096	15	4589
2026-01-27 22:29:10.82	116.82	13.08	-27.8	-30.0	14.4	7.00e-07	0	43	0	1335885824	15	4606
2026-01-27 22:29:11.82	117.00	13.03	-27.9	-30.1	14.2	1.50e-06	0	43	0	1339031552	15	4665
2026-01-27 22:29:12.83	117.17	12.98	-28.0	-30.3	14.1	1.50e-06	0	43	0	1342177280	15	4699
2026-01-27 22:29:13.83	117.34	12.92	-28.0	-30.3	14.2	4.50e-06	0	43	0	1345323008	15	4711
2026-01-27 22:29:14.84	117.51	12.87	-28.0	-30.3	14.1	3.80e-06	0	43	0	1348468736	15	4722
2026-01-27 22:29:15.84	117.68	12.82	-28.2	-30.3	14.0	1.50e-06	0	43	0	1351614464	16	4601
2026-01-27 22:29:16.85	117.85	12.77	-28.3	-30.6	13.8	6.80e-06	0	43	0	1354760192	16	4691
2026-01-27 22:29:17.85	118.01	12.72	-28.2	-30.4	14.0	3.80e-06	0	43	0	1357905920	16	4612
2026-01-27 22:29:18.86	118.18	12.67	-28.2	-30.3	14.1	1.50e-06	0	43	0	1361051648	16	4574
2026-01-27 22:29:19.85	118.35	12.61	-28.3	-30.6	13.9	3.00e-06	0	43	0	1364197376	16	4670
2026-01-27 22:29:20.85	118.51	12.56	-28.2	-30.3	14.1	7.00e-07	0	43	0	1367343104	16	4571
2026-01-27 22:29:21.85	118.68	12.51	-28.0	-29.9	14.2	0.00e+00	0	43	0	1370488832	16	4458
2026-01-27 22:29:22.86	118.85	12.46	-28.0	-29.8	14.3	1.06e-05	0	43	0	1373634560	16	4444
2026-01-27 22:29:23.86	119.01	12.41	-28.1	-30.1	14.1	7.00e-07	0	43	0	1376780288	16	4523
2026-01-27 22:29:24.86	119.17	12.35	-28.0	-29.9	14.2	7.00e-07	0	43	0	1379926016	16	4483
2026-01-27 22:29:25.87	119.34	12.30	-28.1	-30.1	14.1	2.20e-06	0	43	0	1383071744	16	4527
2026-01-27 22:29:26.87	119.50	12.25	-28.1	-30.0	14.2	3.00e-06	0	43	0	1386217472	16	4502
2026-01-27 22:29:27.87	119.66	12.20	-27.9	-29.6	14.4	0.00e+00	0	43	0	1389363200	16	4378
2026-01-27 22:29:28.87	119.82	12.14	-27.9	-29.7	14.3	7.00e-07	0	43	0	1392508928	16	4424
2026-01-27 22:29:29.88	119.99	12.09	-28.0	-29.8	14.3	0.00e+00	0	43	0	1395654656	16	4451
2026-01-27 22:29:30.88	120.15	12.04	-28.0	-30.0	14.2	2.20e-06	0	43	0	1398800384	16	4506
2026-01-27 22:29:31.89	120.31	11.98	-28.2	-30.5	13.9	9.10e-06	0	43	0	1401946112	16	4649
2026-01-27 22:29:32.89	120.47	11.93	-28.2	-30.3	14.0	3.80e-06	0	43	0	1405091840	16	4598
2026-01-27 22:29:33.89	120.63	11.88	-28.1	-30.2	14.0	1.50e-06	0	43	0	1408237568	16	4575
2026-01-27 22:29:34.91	120.79	11.82	-28.1	-30.1	13.9	3.00e-06	0	43	0	1411383296	16	4552
2026-01-27 22:29:35.91	120.94	11.77	-28.2	-30.3	14.0	2.20e-06	0	43	0	1414529024	16	4601
2026-01-27 22:29:36.92	121.10	11.72	-28.4	-30.8	13.3	4.50e-06	0	43	0	1417674752	16	4737
2026-01-27 22:29:37.92	121.26	11.66	-28.3	-30.7	13.7	9.10e-06	0	43	0	1420820480	16	4709
2026-01-27 22:29:38.92	121.41	11.61	-28.4	-30.8	13.6	6.10e-06	0	43	0	1423966208	16	4743
2026-01-27 22:29:39.92	121.57	11.56	-28.4	-30.9	13.6	2.20e-06	0	43	0	1427111936	16	4782
2026-01-27 22:29:40.92	121.72	11.50	-28.5	-30.6	13.4	6.80e-06	0	43	0	1430257664	17	4581
2026-01-27 22:29:41.92	121.88	11.45	-28.7	-31.0	13.2	2.28e-05	0	43	0	1433403392	17	4718
2026-01-27 22:29:42.93	122.03	11.39	-28.5	-30.5	13.5	1.14e-05	0	43	0	1436549120	17	4558
2026-01-27 22:29:43.94	122.19	11.34	-28.7	-31.1	13.1	1.67e-05	0	43	0	1438646272	17	4744
2026-01-27 22:29:44.94	122.34	11.29	-28.6	-30.8	13.3	2.44e-05	0	43	0	1441792000	17	4645
2026-01-27 22:29:45.95	122.50	11.23	-28.4	-30.4	13.5	6.80e-06	0	43	0	1444937728	17	4516
2026-01-27 22:29:46.96	122.65	11.18	-28.3	-30.1	13.7	5.30e-06	0	43	0	1449132032	17	4431
2026-01-27 22:29:47.96	122.80	11.12	-28.4	-30.3	13.6	1.22e-05	0	43	0	1452277760	17	4501
2026-01-27 22:29:48.96	122.95	11.07	-28.3	-30.0	13.8	6.10e-06	0	43	0	1455423488	17	4394
2026-01-27 22:29:49.96	123.10	11.02	-28.3	-30.1	13.7	9.90e-06	0	43	0	1458569216	17	4440
2026-01-27 22:29:50.97	123.25	10.96	-28.3	-30.1	13.7	8.30e-06	0	43	0	1461714944	17	4445
2026-01-27 22:29:51.98	123.40	10.91	-28.5	-30.5	13.4	8.30e-06	0	43	0	1463812096	17	4565
2026-01-27 22:29:52.98	123.55	10.85	-28.3	-30.2	13.6	9.10e-06	0	43	0	1466957824	17	4457
2026-01-27 22:29:53.99	123.70	10.80	-28.6	-30.9	13.2	1.90e-05	0	43	0	1470103552	17	4683
2026-01-27 22:29:54.99	123.84	10.74	-28.4	-30.4	13.5	4.34e-05	0	43	0	1473249280	17	4536
2026-01-27 22:29:55.99	123.99	10.69	-28.3	-30.2	13.6	9.10e-06	0	43	0	1476395008	17	4463
2026-01-27 22:29:57.00	124.14	10.63	-28.2	-30.0	13.8	3.00e-06	0	43	0	1479540736	17	4385
2026-01-27 22:29:58.00	124.28	10.58	-28.3	-30.0	13.7	3.96e-05	0	43	0	1482686464	17	4394
2026-01-27 22:29:59.01	124.43	10.52	-28.3	-30.1	13.7	4.04e-05	0	43	0	1485832192	17	4435
2026-01-27 22:30:00.02	124.58	10.47	-28.4	-30.4	13.5	1.52e-05	0	43	0	1488977920	17	4530
2026-01-27 22:30:01.02	124.72	10.41	-28.3	-30.1	13.6	3.80e-06	0	43	0	1492123648	17	4431
2026-01-27 22:30:02.02	124.86	10.36	-28.3	-30.2	13.6	5.30e-06	0	43	0	1495269376	17	4456
2026-01-27 22:30:03.02	125.01	10.30	-28.4	-30.4	13.5	9.10e-06	0	43	0	1498415104	17	4528
2026-01-27 22:30:04.02	125.15	10.25	-28.4	-30.5	13.4	5.79e-05	0	43	0	1501560832	17	4559
2026-01-27 22:30:05.02	125.29	10.19	-28.5	-30.8	13.2	8.92e-05	0	43	0	1504706560	17	4644
2026-01-27 22:30:06.02	125.43	10.14	-28.5	-30.7	13.2	1.98e-05	0	43	0	1507852288	17	4643
2026-01-27 22:30:07.04	125.58	10.08	-28.6	-30.8	13.2	2.82e-05	0	43	0	1510998016	17	4669
2026-01-27 22:30:08.04	125.72	10.03	-28.5	-30.7	13.2	2.36e-05	0	43	0	1514143744	17	4630
2026-01-27 22:30:09.03	125.86	9.97	-28.5	-30.7	13.3	2.51e-05	0	43	0	1517289472	17	4622
2026-01-27 22:30:10.04	126.00	9.92	-28.6	-30.8	13.2	8.46e-05	0	43	0	1520435200	17	4660
2026-01-27 22:30:11.04	126.14	9.86	-28.7	-31.1	13.0	1.98e-04	0	43	0	1523580928	17	4749
2026-01-27 22:30:12.05	126.28	9.81	-28.7	-31.2	12.9	5.56e-05	0	43	0	1526726656	17	4795
2026-01-27 22:30:13.04	126.41	9.75	-28.8	-31.4	12.8	7.18e-04	0	43	0	1529872384	17	4873
2026-01-27 22:30:14.05	126.55	9.70	-28.8	-31.5	12.8	1.09e-03	0	43	0	1533018112	17	4874
2026-01-27 22:30:15.05	126.69	9.64	-28.8	-31.4	12.8	5.64e-05	0	43	0	1536163840	17	4855
2026-01-27 22:30:16.06	126.83	9.59	-28.9	-31.6	12.6	1.39e-04	0	43	0	1539309568	17	4936
2026-01-27 22:30:17.06	126.96	9.53	-28.7	-31.2	12.9	7.40e-05	0	43	0	1542455296	17	4792
2026-01-27 22:30:18.06	127.10	9.48	-28.7	-31.0	13.0	3.96e-05	0	43	0	1545601024	17	4738
2026-01-27 22:30:19.07	127.23	9.42	-28.7	-31.1	12.9	1.51e-03	0	43	0	1548746752	17	4770
2026-01-27 22:30:20.07	127.37	9.37	-28.6	-31.0	13.0	9.41e-04	0	43	0	1551892480	17	4711
2026-01-27 22:30:21.06	127.50	9.31	-28.6	-31.0	13.0	3.73e-05	0	43	0	1555038208	17	4715
2026-01-27 22:30:22.07	127.63	9.26	-28.8	-31.5	12.7	7.78e-05	0	43	0	1558183936	17	4900
2026-01-27 22:30:23.08	127.77	9.20	-28.7	-31.0	12.9	6.02e-05	0	43	0	1561329664	17	4738
2026-01-27 22:30:24.08	127.90	9.14	-28.8	-31.3	12.8	5.11e-05	0	43	0	1564475392	17	4826
2026-01-27 22:30:25.08	128.03	9.09	-28.7	-31.2	12.8	7.27e-04	0	43	0	1567621120	17	4811
2026-01-27 22:30:26.09	128.17	9.03	-28.6	-30.9	13.0	4.73e-05	0	43	0	1570766848	17	4706
2026-01-27 22:30:27.10	128.30	8.98	-28.6	-31.0	12.9	4.19e-05	0	43	0	1573912576	17	4724
2026-01-27 22:30:28.11	128.43	8.92	-28.8	-31.5	12.6	6.48e-05	0	43	0	1577058304	17	4882
2026-01-27 22:30:29.11	128.56	8.87	-28.8	-31.4	12.6	9.46e-05	0	43	0	1580204032	17	4869
2026-01-27 22:30:30.11	128.69	8.81	-28.9	-31.6	12.5	1.11e-04	0	43	0	1583349760	17	4946
2026-01-27 22:30:31.12	128.82	8.76	-29.1	-31.8	12.1	2.30e-04	0	43	0	1586495488	18	4879
2026-01-27 22:30:32.12	128.95	8.70	-29.0	-31.4	12.3	1.88e-04	0	43	0	1589641216	18	4762
2026-01-27 22:30:33.12	129.08	8.65	-28.8	-31.1	12.5	1.48e-04	0	43	0	1592786944	18	4656
2026-01-27 22:30:34.12	129.20	8.59	-29.0	-31.4	12.3	1.38e-04	0	43	0	1595932672	18	4773
2026-01-27 22:30:35.12	129.33	8.53	-29.1	-31.8	12.0	3.11e-04	0	43	0	1599078400	18	4916
2026-01-27 22:30:36.13	129.46	8.48	-29.1	-31.7	12.1	2.89e-04	0	43	0	1602224128	18	4889
2026-01-27 22:30:37.13	129.59	8.42	-29.2	-32.1	11.9	3.73e-04	0	43	0	1605369856	18	5010
2026-01-27 22:30:38.14	129.71	8.37	-29.0	-31.6	12.2	2.51e-04	0	43	0	1608515584	18	4827
2026-01-27 22:30:39.15	129.84	8.31	-28.8	-31.1	12.5	1.61e-04	0	43	0	1611661312	18	4671
2026-01-27 22:30:40.15	129.96	8.26	-28.8	-31.0	12.5	1.07e-04	0	43	0	1614807040	18	4648
2026-01-27 22:30:41.16	130.09	8.20	-28.7	-30.9	12.6	1.11e-04	0	43	0	1617952768	18	4611
2026-01-27 22:30:42.16	130.21	8.15	-28.8	-31.1	12.4	1.20e-04	0	43	0	1621098496	18	4684
2026-01-27 22:30:43.17	130.34	8.09	-28.7	-30.9	12.6	1.19e-04	0	43	0	1624244224	18	4608
2026-01-27 22:30:44.16	130.46	8.04	-28.7	-30.7	12.6	8.69e-05	0	43	0	1627389952	18	4570
2026-01-27 22:30:45.16	130.58	7.98	-28.8	-31.0	12.4	1.34e-04	0	43	0	1630535680	18	4652
2026-01-27 22:30:46.16	130.71	7.92	-28.8	-30.9	12.5	1.19e-04	0	43	0	1633681408	18	4625
2026-01-27 22:30:47.17	130.83	7.87	-28.8	-31.1	12.4	1.62e-04	0	43	0	1636827136	18	4680
2026-01-27 22:30:48.17	130.95	7.81	-28.8	-31.1	12.4	1.91e-04	0	43	0	1639972864	18	4683
2026-01-27 22:30:49.17	131.07	7.76	-28.9	-31.2	12.3	1.56e-04	0	43	0	1643118592	18	4695
2026-01-27 22:30:50.18	131.19	7.70	-28.9	-31.4	12.2	2.04e-04	0	43	0	1646264320	18	4761
2026-01-27 22:30:51.17	131.31	7.65	-28.9	-31.2	12.3	1.94e-04	0	43	0	1649410048	18	4714
2026-01-27 22:30:52.18	131.43	7.59	-28.9	-31.4	12.1	2.68e-04	0	43	0	1652555776	18	4786
2026-01-27 22:30:53.19	131.55	7.54	-29.1	-31.8	11.9	3.72e-04	0	43	0	1655701504	18	4919
2026-01-27 22:30:54.19	131.67	7.48	-28.9	-31.4	12.1	2.67e-04	0	43	0	1658847232	18	4784
2026-01-27 22:30:55.20	131.79	7.43	-29.0	-31.6	12.0	3.23e-04	0	43	0	1661992960	18	4851
2026-01-27 22:30:56.20	131.91	7.37	-28.9	-31.9	12.1	2.55e-04	0	43	0	1665138688	17	5068
2026-01-27 22:30:57.20	132.03	7.32	-28.9	-31.9	12.0	2.78e-04	0	43	0	1668284416	17	5103
2026-01-27 22:30:58.21	132.14	7.26	-29.0	-31.8	11.8	3.65e-04	0	43	0	1671430144	18	4921
2026-01-27 22:30:59.21	132.26	7.21	-29.0	-31.6	11.9	3.40e-04	0	43	0	1674575872	18	4867
2026-01-27 22:31:00.21	132.38	7.15	-29.2	-32.2	11.5	5.38e-04	0	43	0	1677721600	18	5081
2026-01-27 22:31:01.22	132.49	7.10	-30.9	-36.0	8.3	2.35e-03	0	43	0	1680867328	21	6458
2026-01-27 22:31:02.22	132.61	7.04	-33.3	-45.4	3.8	1.49e+00	0	43	104	1680867328	26	14489
2026-01-27 22:31:03.23	132.72	6.98	-33.7	-45.7	3.8	1.49e+00	0	43	104	1680867328	27	14401
2026-01-27 22:31:04.23	132.84	6.93	-33.9	-45.8	3.8	1.49e+00	0	43	104	1680867328	28	14052
2026-01-27 22:31:05.23	132.95	6.88	-34.2	-46.3	3.8	1.49e+00	0	43	104	1680867328	28	14471

#Closed at: 2026-01-27 22:31:05
#Recorded file [1680 MB]: D:/data/31010_260128_012203.dat