passes_logs/2026/01/27/R2M6_AANII_01/R2M6_AANII_01__20260127_132044_FENGYUN_3D_rec.log

#Pass ID: 20260127_132044_FENGYUN 3D
#Satellite: FENGYUN 3D
#Configuration: FENGYUN 3D
#almurnet v.1.7.20240730
#Start time: 2026-01-27 13:20:44

#Version: 2.2.20231116
#Station: R2M6_AANII_01
#Location: 30.233357 lon 59.946436 lat
#TLE: 1 43010U 17072A   26026.91415486  .00000072  00000+0  55983-4 0  9991
#TLE: 2 43010  98.9962 358.9161 0002508  89.0320 271.1142 14.19700283424949

#Time	Az	El	Level	Level2	SNR	BER	BlckErr	Temp	State	Recorded	gain1	gain2
2026-01-27 13:20:44.22	190.47	6.98	-28.2	-30.5	5.7	7.69e-01	0	41	0	0	16	4702
2026-01-27 13:20:45.22	190.53	7.06	-30.0	-33.2	5.3	7.87e-01	0	41	104	0	20	5219
2026-01-27 13:20:46.22	190.59	7.13	-29.9	-32.9	9.7	1.60e-02	0	41	0	0	20	5108
2026-01-27 13:20:47.23	190.65	7.20	-29.7	-32.3	10.2	7.35e-03	0	41	0	5242880	20	4874
2026-01-27 13:20:48.23	190.71	7.28	-29.8	-32.7	10.0	1.27e-02	0	41	0	11534336	20	5010
2026-01-27 13:20:49.24	190.77	7.35	-29.4	-31.7	10.6	6.00e-03	0	41	0	16777216	20	4651
2026-01-27 13:20:50.24	190.83	7.42	-29.1	-31.2	11.3	2.00e-03	0	41	0	22020096	19	4602
2026-01-27 13:20:51.24	190.89	7.50	-28.6	-30.5	12.1	4.65e-04	0	41	0	28311552	18	4471
2026-01-27 13:20:52.25	190.95	7.57	-28.2	-30.1	12.7	1.81e-04	0	41	0	33554432	17	4448
2026-01-27 13:20:53.25	191.01	7.64	-27.8	-29.1	13.3	2.86e-05	0	41	0	38797312	17	4166
2026-01-27 13:20:54.26	191.08	7.72	-27.5	-28.9	13.7	4.69e-05	0	41	0	45088768	16	4216
2026-01-27 13:20:55.26	191.14	7.79	-27.3	-28.4	14.0	1.02e-05	0	41	0	50331648	16	4088
2026-01-27 13:20:56.26	191.20	7.87	-27.3	-28.5	14.0	9.10e-06	0	42	0	55574528	16	4095
2026-01-27 13:20:57.27	191.26	7.94	-27.0	-28.2	14.3	2.05e-05	0	42	0	61865984	15	4139
2026-01-27 13:20:58.27	191.33	8.02	-27.0	-28.2	14.3	6.80e-06	0	42	0	67108864	15	4131
2026-01-27 13:20:59.28	191.39	8.09	-27.0	-28.2	14.2	4.50e-06	0	41	0	73400320	15	4149
2026-01-27 13:21:00.28	191.46	8.17	-27.2	-28.8	14.0	2.20e-06	0	41	0	78643200	15	4296
2026-01-27 13:21:01.29	191.52	8.25	-27.3	-28.9	13.9	1.02e-05	0	41	0	84934656	15	4319
2026-01-27 13:21:02.29	191.58	8.32	-26.9	-28.0	14.4	5.70e-06	0	41	0	90177536	15	4094
2026-01-27 13:21:03.29	191.65	8.40	-26.9	-28.0	14.4	1.10e-06	0	42	0	95420416	15	4084
2026-01-27 13:21:04.29	191.71	8.47	-26.7	-28.1	14.6	2.20e-06	0	42	0	101711872	14	4223
2026-01-27 13:21:05.29	191.78	8.55	-26.7	-28.1	14.7	1.10e-06	0	42	0	106954752	14	4213
2026-01-27 13:21:06.30	191.85	8.63	-26.7	-28.0	14.7	2.20e-06	0	42	0	112197632	14	4185
2026-01-27 13:21:07.31	191.91	8.70	-26.7	-28.1	14.7	0.00e+00	0	42	0	118489088	14	4203
2026-01-27 13:21:08.31	191.98	8.78	-26.7	-28.1	14.6	0.00e+00	0	42	0	123731968	14	4216
2026-01-27 13:21:09.31	192.04	8.86	-26.8	-28.3	14.6	0.00e+00	0	42	0	128974848	14	4257
2026-01-27 13:21:10.30	192.11	8.93	-26.6	-27.8	14.9	1.10e-06	0	42	0	135266304	14	4131
2026-01-27 13:21:11.31	192.18	9.01	-26.4	-27.3	15.1	1.10e-06	0	42	0	140509184	14	4017
2026-01-27 13:21:12.32	192.25	9.09	-26.4	-27.4	15.1	0.00e+00	0	42	0	146800640	14	4026
2026-01-27 13:21:13.32	192.31	9.17	-26.6	-27.7	14.9	0.00e+00	0	42	0	152043520	14	4116
2026-01-27 13:21:14.33	192.38	9.25	-26.6	-27.7	14.9	0.00e+00	0	42	0	158334976	14	4109
2026-01-27 13:21:15.33	192.45	9.33	-26.4	-27.4	15.1	0.00e+00	0	42	0	163577856	14	4019
2026-01-27 13:21:16.34	192.52	9.40	-26.4	-27.3	15.2	0.00e+00	0	42	0	168820736	14	3991
2026-01-27 13:21:17.35	192.59	9.48	-26.4	-27.8	15.2	0.00e+00	0	42	0	175112192	13	4231
2026-01-27 13:21:18.35	192.66	9.56	-26.3	-27.6	15.3	0.00e+00	0	42	0	180355072	13	4182
2026-01-27 13:21:19.35	192.73	9.64	-26.3	-27.5	15.3	0.00e+00	0	42	0	185597952	13	4167
2026-01-27 13:21:20.36	192.80	9.72	-26.3	-27.6	15.3	0.00e+00	0	42	0	191889408	13	4198
2026-01-27 13:21:21.36	192.87	9.80	-26.3	-27.6	15.3	0.00e+00	0	42	0	197132288	13	4176
2026-01-27 13:21:22.37	192.94	9.88	-26.3	-27.6	15.3	0.00e+00	0	42	0	203423744	13	4185
2026-01-27 13:21:23.37	193.02	9.96	-26.5	-28.1	15.0	0.00e+00	0	42	0	208666624	13	4310
2026-01-27 13:21:24.37	193.09	10.04	-26.5	-28.1	15.0	0.00e+00	0	42	0	213909504	13	4312
2026-01-27 13:21:25.37	193.16	10.12	-26.3	-27.6	15.3	0.00e+00	0	42	0	220200960	13	4184
2026-01-27 13:21:26.37	193.23	10.20	-26.3	-27.5	15.4	0.00e+00	0	42	0	225443840	13	4158
2026-01-27 13:21:27.37	193.31	10.28	-26.4	-27.8	15.2	0.00e+00	0	42	0	230686720	13	4246
2026-01-27 13:21:28.37	193.38	10.37	-26.3	-27.5	15.3	0.00e+00	0	42	0	236978176	13	4165
2026-01-27 13:21:29.38	193.45	10.45	-26.4	-27.8	15.2	0.00e+00	0	42	0	242221056	13	4224
2026-01-27 13:21:30.38	193.53	10.53	-26.3	-27.7	15.3	0.00e+00	0	42	0	248512512	13	4199
2026-01-27 13:21:31.39	193.60	10.61	-26.3	-27.7	15.3	0.00e+00	0	42	0	253755392	13	4204
2026-01-27 13:21:32.39	193.68	10.69	-26.4	-27.8	15.2	0.00e+00	0	42	0	258998272	13	4228
2026-01-27 13:21:33.39	193.75	10.78	-26.4	-27.8	15.2	0.00e+00	0	42	0	265289728	13	4243
2026-01-27 13:21:34.40	193.83	10.86	-26.3	-27.7	15.3	0.00e+00	0	42	0	270532608	13	4203
2026-01-27 13:21:35.41	193.91	10.94	-26.4	-27.8	15.2	0.00e+00	0	42	0	275775488	13	4233
2026-01-27 13:21:36.40	193.98	11.03	-26.4	-27.9	15.2	0.00e+00	0	42	0	282066944	13	4256
2026-01-27 13:21:37.41	194.06	11.11	-26.5	-28.0	15.1	1.10e-06	0	42	0	287309824	13	4300
2026-01-27 13:21:38.41	194.14	11.19	-26.3	-27.6	15.4	9.10e-06	0	42	0	293601280	13	4174
2026-01-27 13:21:39.41	194.22	11.28	-26.3	-27.6	15.4	0.00e+00	0	42	0	298844160	13	4171
2026-01-27 13:21:40.41	194.29	11.36	-26.4	-27.8	15.3	0.00e+00	0	42	0	304087040	13	4227
2026-01-27 13:21:41.42	194.37	11.45	-26.2	-27.5	15.4	9.10e-06	0	42	0	310378496	13	4156
2026-01-27 13:21:42.42	194.45	11.53	-26.4	-27.8	15.3	0.00e+00	0	42	0	315621376	13	4230
2026-01-27 13:21:43.43	194.53	11.62	-26.3	-27.6	15.4	0.00e+00	0	42	0	321912832	13	4197
2026-01-27 13:21:44.43	194.61	11.70	-26.2	-27.4	15.5	0.00e+00	0	42	0	327155712	13	4133
2026-01-27 13:21:45.44	194.69	11.79	-26.3	-27.6	15.4	0.00e+00	0	42	0	332398592	13	4179
2026-01-27 13:21:46.44	194.78	11.87	-26.3	-27.6	15.4	0.00e+00	0	42	0	338690048	13	4173
2026-01-27 13:21:47.44	194.86	11.96	-26.2	-27.4	15.5	1.37e-05	0	42	0	343932928	13	4127
2026-01-27 13:21:48.44	194.94	12.04	-26.1	-27.3	15.6	0.00e+00	0	42	0	349175808	13	4095
2026-01-27 13:21:49.44	195.02	12.13	-26.1	-27.2	15.6	0.00e+00	0	43	0	355467264	13	4090
2026-01-27 13:21:50.44	195.10	12.22	-26.1	-27.2	15.6	1.25e-05	0	42	0	360710144	13	4088
2026-01-27 13:21:51.45	195.19	12.30	-26.0	-27.0	15.7	0.00e+00	0	42	0	367001600	13	4040
2026-01-27 13:21:52.45	195.27	12.39	-26.2	-27.5	15.5	1.10e-06	0	42	0	372244480	13	4145
2026-01-27 13:21:53.45	195.36	12.48	-26.2	-27.4	15.5	1.25e-05	0	42	0	377487360	13	4131
2026-01-27 13:21:54.46	195.44	12.57	-26.0	-27.0	15.8	0.00e+00	0	42	0	383778816	13	4020
2026-01-27 13:21:55.46	195.53	12.65	-25.9	-26.8	15.9	0.00e+00	0	43	0	389021696	13	3984
2026-01-27 13:21:56.47	195.61	12.74	-25.9	-26.7	15.9	0.00e+00	0	42	0	394264576	13	3956
2026-01-27 13:21:57.47	195.70	12.83	-25.8	-26.5	16.1	0.00e+00	0	42	0	400556032	13	3898
2026-01-27 13:21:58.48	195.79	12.92	-25.8	-26.5	16.1	0.00e+00	0	43	0	405798912	13	3908
2026-01-27 13:21:59.48	195.87	13.01	-25.8	-27.1	16.0	0.00e+00	0	42	0	412090368	12	4162
2026-01-27 13:22:00.48	195.96	13.10	-25.8	-27.0	16.1	0.00e+00	0	43	0	417333248	12	4119
2026-01-27 13:22:01.49	196.05	13.19	-25.8	-27.0	16.0	0.00e+00	0	42	0	422576128	12	4142
2026-01-27 13:22:02.48	196.14	13.28	-25.8	-27.0	16.1	6.80e-06	0	42	0	428867584	12	4133
2026-01-27 13:22:03.49	196.23	13.37	-25.7	-26.8	16.2	0.00e+00	0	43	0	434110464	12	4089
2026-01-27 13:22:04.49	196.32	13.46	-25.7	-26.9	16.2	0.00e+00	0	42	0	440401920	12	4097
2026-01-27 13:22:05.49	196.41	13.55	-25.7	-26.9	16.1	0.00e+00	0	42	0	445644800	12	4103
2026-01-27 13:22:06.50	196.50	13.64	-25.7	-26.8	16.2	0.00e+00	0	43	0	450887680	12	4077
2026-01-27 13:22:07.50	196.59	13.73	-25.8	-26.9	16.1	0.00e+00	0	42	0	457179136	12	4112
2026-01-27 13:22:08.51	196.68	13.82	-25.7	-26.8	16.2	0.00e+00	0	42	0	462422016	12	4090
2026-01-27 13:22:09.51	196.78	13.92	-25.7	-26.9	16.2	0.00e+00	0	43	0	467664896	12	4096
2026-01-27 13:22:10.51	196.87	14.01	-25.7	-26.7	16.3	0.00e+00	0	43	0	473956352	12	4063
2026-01-27 13:22:11.52	196.96	14.10	-25.6	-26.5	16.4	0.00e+00	0	43	0	479199232	12	4003
2026-01-27 13:22:12.52	197.06	14.19	-25.6	-26.5	16.4	0.00e+00	0	43	0	484442112	12	3998
2026-01-27 13:22:13.52	197.15	14.29	-25.6	-26.6	16.4	0.00e+00	0	43	0	490733568	12	4026
2026-01-27 13:22:14.52	197.25	14.38	-25.5	-26.3	16.5	0.00e+00	0	43	0	495976448	12	3955
2026-01-27 13:22:15.52	197.34	14.47	-25.6	-26.5	16.4	0.00e+00	0	43	0	502267904	12	4011
2026-01-27 13:22:16.53	197.44	14.57	-25.6	-26.4	16.4	0.00e+00	0	43	0	507510784	12	3992
2026-01-27 13:22:17.53	197.54	14.66	-25.5	-26.4	16.5	0.00e+00	0	43	0	513802240	12	3976
2026-01-27 13:22:18.53	197.63	14.75	-25.5	-26.3	16.5	0.00e+00	0	43	0	519045120	12	3960
2026-01-27 13:22:19.53	197.73	14.85	-25.5	-26.3	16.5	0.00e+00	0	43	0	524288000	12	3954
2026-01-27 13:22:20.53	197.83	14.94	-25.5	-26.2	16.6	0.00e+00	0	43	0	530579456	12	3936
2026-01-27 13:22:21.54	197.93	15.04	-25.5	-26.2	16.5	0.00e+00	0	43	0	535822336	12	3936
2026-01-27 13:22:22.54	198.03	15.14	-25.5	-26.3	16.5	0.00e+00	0	43	0	541065216	12	3953
2026-01-27 13:22:23.54	198.13	15.23	-25.5	-26.4	16.5	0.00e+00	0	43	0	547356672	12	3974
2026-01-27 13:22:24.54	198.23	15.33	-25.3	-25.9	16.8	0.00e+00	0	43	0	552599552	12	3859
2026-01-27 13:22:25.55	198.34	15.42	-25.3	-26.5	16.8	0.00e+00	0	43	0	557842432	11	4101
2026-01-27 13:22:26.55	198.44	15.52	-25.3	-26.4	16.7	0.00e+00	0	43	0	564133888	11	4081
2026-01-27 13:22:27.56	198.54	15.62	-25.2	-26.2	16.9	0.00e+00	0	43	0	569376768	11	4035
2026-01-27 13:22:28.56	198.65	15.72	-25.2	-26.1	17.0	0.00e+00	0	43	0	575668224	11	4008
2026-01-27 13:22:29.57	198.75	15.81	-25.1	-25.8	17.1	0.00e+00	0	43	0	580911104	11	3938
2026-01-27 13:22:30.57	198.86	15.91	-25.0	-25.7	17.2	0.00e+00	0	43	0	586153984	11	3915
2026-01-27 13:22:31.57	198.96	16.01	-25.0	-25.7	17.2	0.00e+00	0	43	0	592445440	11	3908
2026-01-27 13:22:32.58	199.07	16.11	-25.1	-25.9	17.1	0.00e+00	0	43	0	597688320	11	3956
2026-01-27 13:22:33.58	199.18	16.21	-25.1	-26.0	17.1	0.00e+00	0	43	0	603979776	11	3973
2026-01-27 13:22:34.58	199.29	16.31	-25.2	-26.2	16.9	1.48e-05	0	43	0	609222656	11	4026
2026-01-27 13:22:35.59	199.39	16.41	-25.2	-26.1	17.0	0.00e+00	0	43	0	614465536	11	3999
2026-01-27 13:22:36.59	199.50	16.51	-25.1	-26.0	17.0	0.00e+00	0	43	0	620756992	11	3993
2026-01-27 13:22:37.59	199.61	16.61	-25.1	-25.9	17.1	0.00e+00	0	43	0	625999872	11	3960
2026-01-27 13:22:38.60	199.73	16.71	-25.0	-25.7	17.2	0.00e+00	0	43	0	631242752	11	3915
2026-01-27 13:22:39.60	199.84	16.81	-25.0	-25.7	17.2	0.00e+00	0	43	0	637534208	11	3904
2026-01-27 13:22:40.61	199.95	16.91	-24.9	-25.6	17.3	0.00e+00	0	43	0	642777088	11	3886
2026-01-27 13:22:41.61	200.06	17.01	-25.0	-25.6	17.3	0.00e+00	0	43	0	649068544	11	3890
2026-01-27 13:22:42.61	200.18	17.11	-24.9	-25.6	17.3	0.00e+00	0	43	0	654311424	11	3881
2026-01-27 13:22:43.62	200.29	17.21	-24.8	-25.4	17.4	0.00e+00	0	43	0	659554304	11	3827
2026-01-27 13:22:44.62	200.41	17.32	-24.8	-25.7	17.5	0.00e+00	0	43	0	665845760	10	4026
2026-01-27 13:22:45.62	200.52	17.42	-24.8	-25.7	17.5	0.00e+00	0	43	0	671088640	10	4020
2026-01-27 13:22:46.63	200.64	17.52	-24.7	-25.7	17.5	1.10e-06	0	43	0	677380096	10	4006
2026-01-27 13:22:47.63	200.76	17.63	-24.8	-25.8	17.4	0.00e+00	0	43	0	682622976	10	4050
2026-01-27 13:22:48.63	200.87	17.73	-24.9	-26.0	17.4	0.00e+00	0	43	0	687865856	10	4081
2026-01-27 13:22:49.64	200.99	17.83	-25.0	-26.2	17.3	1.10e-06	0	43	0	694157312	10	4141
2026-01-27 13:22:50.64	201.11	17.94	-24.9	-26.1	17.3	0.00e+00	0	43	0	699400192	10	4104
2026-01-27 13:22:51.65	201.24	18.04	-24.8	-25.7	17.5	0.00e+00	0	43	0	704643072	10	4021
2026-01-27 13:22:52.65	201.36	18.15	-24.7	-25.6	17.6	0.00e+00	0	43	0	710934528	10	3979
2026-01-27 13:22:53.66	201.48	18.25	-24.8	-25.8	17.5	0.00e+00	0	43	0	716177408	10	4037
2026-01-27 13:22:54.66	201.60	18.36	-24.7	-25.6	17.6	0.00e+00	0	43	0	722468864	10	3982
2026-01-27 13:22:55.67	201.73	18.47	-24.8	-25.9	17.5	1.10e-06	0	43	0	727711744	10	4047
2026-01-27 13:22:56.67	201.85	18.57	-24.7	-25.7	17.6	0.00e+00	0	43	0	734003200	10	3998
2026-01-27 13:22:57.68	201.98	18.68	-24.5	-25.1	17.9	0.00e+00	0	43	0	739246080	10	3868
2026-01-27 13:22:58.69	202.11	18.79	-24.3	-24.7	18.0	4.50e-06	0	43	0	744488960	10	3781
2026-01-27 13:22:59.70	202.24	18.90	-24.3	-25.2	18.1	0.00e+00	0	43	0	750780416	9	3989
2026-01-27 13:23:00.70	202.36	19.00	-24.3	-25.3	18.0	0.00e+00	0	43	0	756023296	9	4010
2026-01-27 13:23:01.70	202.49	19.11	-24.4	-25.4	18.0	0.00e+00	0	43	0	761266176	9	4053
2026-01-27 13:23:02.71	202.62	19.22	-24.4	-25.5	17.9	0.00e+00	0	43	0	767557632	9	4085
2026-01-27 13:23:03.71	202.75	19.33	-24.5	-25.6	17.9	0.00e+00	0	43	0	772800512	9	4101
2026-01-27 13:23:04.71	202.89	19.44	-24.5	-25.8	17.8	0.00e+00	0	43	0	778043392	9	4147
2026-01-27 13:23:05.72	203.02	19.55	-24.5	-25.8	17.8	0.00e+00	0	43	0	784334848	9	4140
2026-01-27 13:23:06.72	203.15	19.66	-24.6	-25.9	17.7	0.00e+00	0	43	0	789577728	9	4187
2026-01-27 13:23:07.72	203.29	19.77	-24.6	-25.9	17.7	0.00e+00	0	43	0	795869184	9	4173
2026-01-27 13:23:08.72	203.42	19.88	-24.6	-25.8	17.8	0.00e+00	0	43	0	801112064	9	4146
2026-01-27 13:23:09.73	203.56	19.99	-24.5	-25.6	17.9	0.00e+00	0	43	0	807403520	9	4108
2026-01-27 13:23:10.73	203.70	20.10	-24.4	-25.5	17.9	0.00e+00	0	43	0	812646400	9	4078
2026-01-27 13:23:11.74	203.84	20.21	-24.5	-25.7	17.9	0.00e+00	0	43	0	817889280	9	4122
2026-01-27 13:23:12.74	203.98	20.32	-24.4	-25.4	18.0	0.00e+00	0	43	0	824180736	9	4061
2026-01-27 13:23:13.74	204.12	20.43	-24.3	-25.2	18.1	0.00e+00	0	43	0	829423616	9	4001
2026-01-27 13:23:14.74	204.26	20.54	-24.3	-25.3	18.1	0.00e+00	0	43	0	834666496	9	4015
2026-01-27 13:23:15.74	204.40	20.66	-24.3	-25.1	18.2	0.00e+00	0	43	0	840957952	9	3988
2026-01-27 13:23:16.75	204.54	20.77	-24.4	-25.3	18.1	0.00e+00	0	43	0	846200832	9	4035
2026-01-27 13:23:17.75	204.69	20.88	-24.2	-25.1	18.2	0.00e+00	0	43	0	851443712	9	3975
2026-01-27 13:23:18.75	204.83	21.00	-24.0	-24.6	18.4	0.00e+00	0	43	0	857735168	9	3855
2026-01-27 13:23:19.76	204.98	21.11	-24.0	-24.6	18.5	0.00e+00	0	43	0	862978048	9	3843
2026-01-27 13:23:20.76	205.13	21.23	-24.1	-24.7	18.4	0.00e+00	0	43	0	869269504	9	3886
2026-01-27 13:23:21.76	205.28	21.34	-24.1	-24.8	18.3	0.00e+00	0	43	0	874512384	9	3897
2026-01-27 13:23:22.77	205.43	21.46	-24.1	-24.9	18.3	0.00e+00	0	43	0	880803840	9	3918
2026-01-27 13:23:23.78	205.58	21.57	-24.2	-25.0	18.3	0.00e+00	0	43	0	886046720	9	3956
2026-01-27 13:23:24.79	205.73	21.69	-24.3	-25.3	18.1	0.00e+00	0	43	0	891289600	9	4024
2026-01-27 13:23:25.79	205.88	21.80	-24.3	-25.3	18.1	0.00e+00	0	43	0	897581056	9	4031
2026-01-27 13:23:26.80	206.04	21.92	-24.4	-25.4	18.1	0.00e+00	0	43	0	902823936	9	4039
2026-01-27 13:23:27.80	206.19	22.04	-24.4	-25.5	18.0	0.00e+00	0	43	0	908066816	9	4075
2026-01-27 13:23:28.80	206.35	22.15	-24.3	-25.3	18.1	0.00e+00	0	43	0	914358272	9	4016
2026-01-27 13:23:29.80	206.51	22.27	-24.2	-25.0	18.3	0.00e+00	0	43	0	919601152	9	3958
2026-01-27 13:23:30.81	206.67	22.39	-24.2	-25.0	18.3	0.00e+00	0	43	0	925892608	9	3949
2026-01-27 13:23:31.81	206.83	22.51	-24.3	-25.2	18.2	0.00e+00	0	43	0	931135488	9	3985
2026-01-27 13:23:32.81	206.99	22.62	-24.1	-24.8	18.4	0.00e+00	0	43	0	936378368	9	3899
2026-01-27 13:23:33.81	207.15	22.74	-23.9	-24.4	18.6	0.00e+00	0	43	0	942669824	9	3803
2026-01-27 13:23:34.80	207.31	22.86	-23.8	-24.2	18.7	0.00e+00	0	43	0	947912704	9	3770
2026-01-27 13:23:35.81	207.48	22.98	-23.9	-24.4	18.6	0.00e+00	0	43	0	953155584	9	3799
2026-01-27 13:23:36.81	207.64	23.10	-23.8	-24.2	18.7	0.00e+00	0	43	0	959447040	9	3758
2026-01-27 13:23:37.81	207.81	23.22	-23.8	-24.6	18.7	0.00e+00	0	43	0	964689920	8	3965
2026-01-27 13:23:38.82	207.98	23.34	-23.7	-24.4	18.9	0.00e+00	0	43	0	969932800	8	3906
2026-01-27 13:23:39.82	208.15	23.46	-23.7	-24.5	18.8	2.20e-06	0	43	0	976224256	8	3935
2026-01-27 13:23:40.82	208.32	23.58	-23.6	-24.2	19.0	0.00e+00	0	43	0	981467136	8	3869
2026-01-27 13:23:41.82	208.49	23.70	-23.5	-24.1	19.0	0.00e+00	0	43	0	987758592	8	3849
2026-01-27 13:23:42.83	208.66	23.82	-23.6	-24.2	19.0	6.80e-06	0	43	0	993001472	8	3868
2026-01-27 13:23:43.84	208.84	23.95	-23.6	-24.3	18.9	0.00e+00	0	43	0	999292928	8	3887
2026-01-27 13:23:44.84	209.02	24.07	-23.6	-24.2	19.0	0.00e+00	0	43	0	1004535808	8	3874
2026-01-27 13:23:45.85	209.20	24.19	-23.6	-24.3	18.9	0.00e+00	0	43	0	1009778688	8	3886
2026-01-27 13:23:46.86	209.38	24.31	-23.8	-24.6	18.8	0.00e+00	0	43	0	1016070144	8	3948
2026-01-27 13:23:47.87	209.56	24.44	-23.6	-24.3	18.9	0.00e+00	0	43	0	1021313024	8	3893
2026-01-27 13:23:48.88	209.74	24.56	-23.7	-24.4	19.0	2.20e-06	0	43	0	1027604480	8	3902
2026-01-27 13:23:49.88	209.92	24.68	-23.9	-24.7	18.9	0.00e+00	0	43	0	1032847360	8	3966
2026-01-27 13:23:50.89	210.11	24.81	-23.9	-24.9	18.8	0.00e+00	0	43	0	1038090240	8	4015
2026-01-27 13:23:51.89	210.29	24.93	-23.8	-24.6	18.9	3.40e-06	0	43	0	1044381696	8	3948
2026-01-27 13:23:52.89	210.48	25.06	-23.8	-24.6	18.9	0.00e+00	0	43	0	1049624576	8	3939
2026-01-27 13:23:53.89	210.67	25.18	-23.8	-24.5	19.0	0.00e+00	0	43	0	1054867456	8	3930
2026-01-27 13:23:54.89	210.86	25.30	-24.1	-25.1	18.7	0.00e+00	0	43	0	1061158912	8	4071
2026-01-27 13:23:55.90	211.05	25.43	-23.8	-24.5	19.0	0.00e+00	0	43	0	1066401792	8	3925
2026-01-27 13:23:56.89	211.24	25.55	-23.8	-24.7	18.9	0.00e+00	0	43	0	1072693248	8	3962
2026-01-27 13:23:57.90	211.44	25.68	-24.2	-25.3	18.6	0.00e+00	0	43	0	1077936128	8	4121
2026-01-27 13:23:58.90	211.63	25.81	-23.9	-24.7	18.9	0.00e+00	0	43	0	1083179008	8	3973
2026-01-27 13:23:59.90	211.83	25.93	-23.7	-24.3	19.1	0.00e+00	0	43	0	1089470464	8	3873
2026-01-27 13:24:00.90	212.03	26.06	-23.6	-24.1	19.2	0.00e+00	0	43	0	1094713344	8	3832
2026-01-27 13:24:01.91	212.23	26.18	-23.6	-24.2	19.2	0.00e+00	0	43	0	1099956224	8	3843
2026-01-27 13:24:02.91	212.43	26.31	-23.6	-24.2	19.2	0.00e+00	0	43	0	1106247680	8	3845
2026-01-27 13:24:03.92	212.64	26.44	-24.0	-25.0	18.8	0.00e+00	0	43	0	1111490560	8	4034
2026-01-27 13:24:04.92	212.85	26.57	-23.7	-24.4	19.1	0.00e+00	0	43	0	1117782016	8	3907
2026-01-27 13:24:05.92	213.05	26.69	-23.5	-24.0	19.3	0.00e+00	0	43	0	1123024896	8	3812
2026-01-27 13:24:06.93	213.26	26.82	-23.4	-23.7	19.5	0.00e+00	0	43	0	1128267776	8	3743
2026-01-27 13:24:07.93	213.47	26.95	-23.3	-23.6	19.5	0.00e+00	0	43	0	1134559232	8	3714
2026-01-27 13:24:08.93	213.68	27.08	-23.3	-23.6	19.5	0.00e+00	0	43	0	1139802112	8	3721
2026-01-27 13:24:09.93	213.90	27.20	-23.1	-23.6	19.7	0.00e+00	0	43	0	1146093568	7	3823
2026-01-27 13:24:10.94	214.11	27.33	-23.0	-23.4	19.8	0.00e+00	0	43	0	1151336448	7	3775
2026-01-27 13:24:11.94	214.33	27.46	-23.1	-23.6	19.7	0.00e+00	0	43	0	1156579328	7	3819
2026-01-27 13:24:12.94	214.55	27.59	-23.0	-23.4	19.9	0.00e+00	0	43	0	1162870784	7	3763
2026-01-27 13:24:13.94	214.77	27.72	-23.1	-23.6	19.8	0.00e+00	0	43	0	1168113664	7	3811
2026-01-27 13:24:14.94	214.99	27.85	-23.1	-23.6	19.8	0.00e+00	0	43	0	1173356544	7	3815
2026-01-27 13:24:15.95	215.22	27.98	-23.1	-23.6	19.8	0.00e+00	0	43	0	1179648000	7	3808
2026-01-27 13:24:16.95	215.44	28.10	-23.1	-23.7	19.7	0.00e+00	0	43	0	1184890880	7	3840
2026-01-27 13:24:17.95	215.67	28.23	-23.1	-23.7	19.7	0.00e+00	0	43	0	1190133760	7	3843
2026-01-27 13:24:18.95	215.90	28.36	-23.2	-23.8	19.7	0.00e+00	0	43	0	1196425216	7	3857
2026-01-27 13:24:19.96	216.13	28.49	-23.3	-23.9	19.6	0.00e+00	0	43	0	1201668096	7	3897
2026-01-27 13:24:20.96	216.36	28.62	-23.1	-23.6	19.8	0.00e+00	0	43	0	1207959552	7	3811
2026-01-27 13:24:21.97	216.60	28.75	-23.0	-23.4	19.9	0.00e+00	0	43	0	1213202432	7	3775
2026-01-27 13:24:22.97	216.84	28.88	-23.1	-23.7	19.7	0.00e+00	0	43	0	1219493888	7	3838
2026-01-27 13:24:23.98	217.08	29.01	-23.0	-23.5	19.8	0.00e+00	0	43	0	1224736768	7	3789
2026-01-27 13:24:24.98	217.32	29.14	-23.1	-23.7	19.8	0.00e+00	0	43	0	1229979648	7	3831
2026-01-27 13:24:25.98	217.56	29.27	-22.9	-23.3	19.9	0.00e+00	0	43	0	1236271104	7	3743
2026-01-27 13:24:26.99	217.80	29.40	-22.9	-23.1	20.0	0.00e+00	0	43	0	1241513984	7	3713
2026-01-27 13:24:27.99	218.05	29.53	-22.9	-23.3	20.0	0.00e+00	0	43	0	1246756864	7	3746
2026-01-27 13:24:28.99	218.30	29.66	-23.1	-23.7	19.8	0.00e+00	0	43	0	1253048320	7	3836
2026-01-27 13:24:30.00	218.55	29.80	-23.0	-23.4	19.9	0.00e+00	0	43	0	1258291200	7	3776
2026-01-27 13:24:31.01	218.80	29.93	-23.1	-23.7	19.8	0.00e+00	0	43	0	1263534080	7	3828
2026-01-27 13:24:32.01	219.06	30.06	-23.1	-23.7	19.8	0.00e+00	0	43	0	1269825536	7	3834
2026-01-27 13:24:33.01	219.31	30.19	-23.1	-23.7	19.7	0.00e+00	0	43	0	1275068416	7	3848
2026-01-27 13:24:34.02	219.57	30.32	-23.2	-23.9	19.6	0.00e+00	0	43	0	1281359872	7	3895
2026-01-27 13:24:35.02	219.83	30.45	-23.0	-23.5	19.9	0.00e+00	0	43	0	1286602752	7	3788
2026-01-27 13:24:36.03	220.10	30.58	-23.0	-23.4	19.9	0.00e+00	0	43	0	1292894208	7	3764
2026-01-27 13:24:37.04	220.37	30.71	-23.0	-23.4	19.9	0.00e+00	0	43	0	1298137088	7	3778
2026-01-27 13:24:38.04	220.63	30.84	-22.9	-23.3	20.0	0.00e+00	0	43	0	1303379968	7	3740
2026-01-27 13:24:39.05	220.90	30.97	-23.0	-23.5	19.9	0.00e+00	0	43	0	1309671424	7	3786
2026-01-27 13:24:40.06	221.18	31.10	-23.0	-23.4	20.0	0.00e+00	0	43	0	1314914304	7	3764
2026-01-27 13:24:41.06	221.45	31.23	-23.1	-23.5	19.9	0.00e+00	0	43	0	1320157184	7	3800
2026-01-27 13:24:42.06	221.72	31.36	-22.9	-23.2	20.0	0.00e+00	0	43	0	1326448640	7	3737
2026-01-27 13:24:43.06	222.00	31.49	-23.0	-23.4	19.9	0.00e+00	0	43	0	1331691520	7	3771
2026-01-27 13:24:44.07	222.28	31.62	-22.9	-23.3	20.0	0.00e+00	0	43	0	1337982976	7	3742
2026-01-27 13:24:45.07	222.56	31.75	-23.1	-23.6	19.8	0.00e+00	0	43	0	1343225856	7	3819
2026-01-27 13:24:46.07	222.85	31.87	-22.8	-23.0	20.1	0.00e+00	0	43	0	1348468736	7	3678
2026-01-27 13:24:47.07	223.13	32.00	-22.7	-23.3	20.3	0.00e+00	0	43	0	1354760192	6	3844
2026-01-27 13:24:48.07	223.42	32.13	-22.8	-23.6	20.1	1.10e-06	0	43	0	1360003072	6	3920
2026-01-27 13:24:49.07	223.71	32.26	-22.8	-23.4	20.2	0.00e+00	0	43	0	1366294528	6	3889
2026-01-27 13:24:50.07	224.00	32.39	-22.9	-23.7	20.0	0.00e+00	0	43	0	1371537408	6	3958
2026-01-27 13:24:51.08	224.30	32.51	-23.0	-23.9	19.9	0.00e+00	0	43	0	1376780288	6	4003
2026-01-27 13:24:52.09	224.60	32.64	-23.0	-24.0	19.9	0.00e+00	0	43	0	1383071744	6	4017
2026-01-27 13:24:53.09	224.90	32.77	-22.9	-23.7	20.1	0.00e+00	0	43	0	1388314624	6	3936
2026-01-27 13:24:54.10	225.20	32.90	-22.8	-23.5	20.1	0.00e+00	0	43	0	1393557504	6	3909
2026-01-27 13:24:55.10	225.50	33.02	-22.9	-23.7	20.1	0.00e+00	0	43	0	1399848960	6	3934
2026-01-27 13:24:56.10	225.81	33.15	-22.6	-23.0	20.4	0.00e+00	0	43	0	1405091840	6	3789
2026-01-27 13:24:57.11	226.12	33.28	-22.6	-23.0	20.4	0.00e+00	0	43	0	1410334720	6	3793
2026-01-27 13:24:58.11	226.43	33.40	-22.7	-23.3	20.2	0.00e+00	0	43	0	1416626176	6	3858
2026-01-27 13:24:59.11	226.75	33.52	-22.7	-23.3	20.2	0.00e+00	0	43	0	1421869056	6	3860
2026-01-27 13:25:00.12	227.06	33.65	-22.9	-23.8	20.1	0.00e+00	0	43	0	1428160512	6	3966
2026-01-27 13:25:01.12	227.38	33.77	-22.9	-23.8	20.0	0.00e+00	0	43	0	1433403392	6	3961
2026-01-27 13:25:02.12	227.70	33.90	-23.1	-24.0	19.9	0.00e+00	0	43	0	1439694848	6	4027
2026-01-27 13:25:03.13	228.03	34.02	-23.1	-24.1	19.9	0.00e+00	0	43	0	1444937728	6	4042
2026-01-27 13:25:04.13	228.35	34.14	-23.2	-24.2	19.8	0.00e+00	0	43	0	1450180608	6	4079
2026-01-27 13:25:05.13	228.68	34.26	-23.0	-23.8	20.0	0.00e+00	0	43	0	1456472064	6	3978
2026-01-27 13:25:06.14	229.01	34.39	-22.9	-23.6	20.1	0.00e+00	0	43	0	1461714944	6	3926
2026-01-27 13:25:07.14	229.35	34.51	-22.8	-23.6	20.2	0.00e+00	0	43	0	1466957824	6	3918
2026-01-27 13:25:08.14	229.68	34.63	-22.7	-23.3	20.2	0.00e+00	0	43	0	1473249280	6	3858
2026-01-27 13:25:09.15	230.02	34.75	-22.7	-23.3	20.3	0.00e+00	0	43	0	1478492160	6	3843
2026-01-27 13:25:10.15	230.36	34.87	-22.8	-23.4	20.2	0.00e+00	0	43	0	1483735040	6	3870
2026-01-27 13:25:11.15	230.70	34.98	-22.8	-23.5	20.2	0.00e+00	0	43	0	1490026496	6	3897
2026-01-27 13:25:12.16	231.05	35.10	-22.9	-23.6	20.1	0.00e+00	0	43	0	1495269376	6	3927
2026-01-27 13:25:13.15	231.39	35.22	-22.8	-23.4	20.2	0.00e+00	0	43	0	1501560832	6	3886
2026-01-27 13:25:14.16	231.75	35.33	-22.7	-23.3	20.3	0.00e+00	0	43	0	1506803712	6	3857
2026-01-27 13:25:15.16	232.10	35.45	-22.7	-23.2	20.3	0.00e+00	0	43	0	1512046592	6	3836
2026-01-27 13:25:16.16	232.45	35.56	-22.5	-22.9	20.5	0.00e+00	0	43	0	1518338048	6	3767
2026-01-27 13:25:17.17	232.81	35.68	-22.6	-23.0	20.4	0.00e+00	0	43	0	1523580928	6	3792
2026-01-27 13:25:18.17	233.17	35.79	-22.6	-23.1	20.4	0.00e+00	0	43	0	1529872384	6	3806
2026-01-27 13:25:19.18	233.54	35.90	-22.7	-23.3	20.3	0.00e+00	0	43	0	1535115264	6	3851
2026-01-27 13:25:20.19	233.90	36.01	-22.8	-23.5	20.2	0.00e+00	0	43	0	1540358144	6	3900
2026-01-27 13:25:21.19	234.27	36.12	-22.9	-23.7	20.1	0.00e+00	0	43	0	1546649600	6	3938
2026-01-27 13:25:22.20	234.64	36.23	-22.7	-23.4	20.3	0.00e+00	0	43	0	1551892480	6	3866
2026-01-27 13:25:23.20	235.01	36.34	-22.5	-23.0	20.5	0.00e+00	0	43	0	1557135360	6	3771
2026-01-27 13:25:24.20	235.39	36.45	-22.6	-23.1	20.4	0.00e+00	0	43	0	1563426816	6	3816
2026-01-27 13:25:25.20	235.76	36.56	-22.8	-23.5	20.2	0.00e+00	0	43	0	1568669696	6	3899
2026-01-27 13:25:26.20	236.14	36.66	-22.7	-23.2	20.4	0.00e+00	0	43	0	1574961152	6	3837
2026-01-27 13:25:27.21	236.53	36.77	-22.6	-23.1	20.4	0.00e+00	0	43	0	1580204032	6	3816
2026-01-27 13:25:28.21	236.91	36.87	-22.6	-23.1	20.4	0.00e+00	0	43	0	1585446912	6	3803
2026-01-27 13:25:29.21	237.29	36.97	-22.6	-23.0	20.5	0.00e+00	0	43	0	1591738368	6	3784
2026-01-27 13:25:30.21	237.68	37.07	-22.6	-23.1	20.4	0.00e+00	0	43	0	1596981248	6	3803
2026-01-27 13:25:31.22	238.08	37.17	-22.4	-22.7	20.6	0.00e+00	0	43	0	1603272704	6	3722
2026-01-27 13:25:32.23	238.47	37.27	-22.6	-23.1	20.4	0.00e+00	0	43	0	1608515584	6	3817
2026-01-27 13:25:33.23	238.87	37.37	-22.7	-23.4	20.3	0.00e+00	0	43	0	1613758464	6	3866
2026-01-27 13:25:34.24	239.27	37.46	-22.6	-23.0	20.5	0.00e+00	0	43	0	1620049920	6	3775
2026-01-27 13:25:35.24	239.67	37.56	-22.5	-22.9	20.6	0.00e+00	0	43	0	1625292800	6	3748
2026-01-27 13:25:36.25	240.07	37.65	-22.6	-23.0	20.5	0.00e+00	0	43	0	1630535680	6	3785
2026-01-27 13:25:37.25	240.48	37.75	-22.5	-22.9	20.5	0.00e+00	0	43	0	1636827136	6	3763
2026-01-27 13:25:38.26	240.89	37.84	-22.5	-22.8	20.6	0.00e+00	0	43	0	1642070016	6	3743
2026-01-27 13:25:39.27	241.30	37.93	-22.5	-22.9	20.5	0.00e+00	0	43	0	1648361472	6	3753
2026-01-27 13:25:40.27	241.71	38.02	-22.4	-22.6	20.7	0.00e+00	0	43	0	1653604352	6	3696
2026-01-27 13:25:41.28	242.13	38.10	-22.4	-22.7	20.6	1.10e-06	0	43	0	1659895808	6	3716
2026-01-27 13:25:42.28	242.55	38.19	-22.5	-22.9	20.6	0.00e+00	0	43	0	1665138688	6	3755
2026-01-27 13:25:43.29	242.97	38.27	-22.4	-22.7	20.6	0.00e+00	0	43	0	1670381568	6	3709
2026-01-27 13:25:44.29	243.39	38.35	-22.4	-22.6	20.7	1.10e-06	0	43	0	1676673024	6	3686
2026-01-27 13:25:45.29	243.81	38.44	-22.5	-22.8	20.6	0.00e+00	0	43	0	1681915904	6	3736
2026-01-27 13:25:46.30	244.24	38.52	-22.4	-22.7	20.7	0.00e+00	0	43	0	1687158784	6	3708
2026-01-27 13:25:47.30	244.66	38.59	-22.6	-23.0	20.5	0.00e+00	0	43	0	1693450240	6	3785
2026-01-27 13:25:48.30	245.09	38.67	-22.6	-23.1	20.5	0.00e+00	0	43	0	1698693120	6	3804
2026-01-27 13:25:49.29	245.51	38.74	-22.7	-23.3	20.3	0.00e+00	0	43	0	1703936000	6	3861
2026-01-27 13:25:50.30	245.95	38.82	-22.7	-23.2	20.4	1.10e-06	0	43	0	1710227456	6	3837
2026-01-27 13:25:51.31	246.39	38.89	-22.8	-23.5	20.3	0.00e+00	0	43	0	1715470336	6	3888
2026-01-27 13:25:52.31	246.82	38.96	-23.0	-23.9	20.1	0.00e+00	0	43	0	1721761792	6	3987
2026-01-27 13:25:53.32	247.26	39.03	-23.0	-23.9	20.1	0.00e+00	0	43	0	1727004672	6	3994
2026-01-27 13:25:54.32	247.70	39.09	-23.1	-24.0	20.0	0.00e+00	0	43	0	1733296128	6	4018
2026-01-27 13:25:55.32	248.14	39.16	-22.8	-23.4	20.3	0.00e+00	0	43	0	1738539008	6	3882
2026-01-27 13:25:56.32	248.58	39.22	-23.0	-23.8	20.1	1.10e-06	0	43	0	1743781888	6	3964
2026-01-27 13:25:57.33	249.03	39.28	-22.8	-23.5	20.3	0.00e+00	0	43	0	1750073344	6	3896
2026-01-27 13:25:58.32	249.47	39.34	-22.8	-23.4	20.3	0.00e+00	0	43	0	1755316224	6	3873
2026-01-27 13:25:59.33	249.92	39.40	-22.8	-23.5	20.2	0.00e+00	0	43	0	1760559104	6	3913
2026-01-27 13:26:00.34	250.38	39.45	-22.8	-23.4	20.3	0.00e+00	0	43	0	1766850560	6	3874
2026-01-27 13:26:01.34	250.83	39.50	-22.8	-23.4	20.3	0.00e+00	0	43	0	1772093440	6	3882
2026-01-27 13:26:02.35	251.28	39.56	-22.9	-23.6	20.2	0.00e+00	0	43	0	1777336320	6	3923
2026-01-27 13:26:03.35	251.74	39.61	-22.7	-23.3	20.4	0.00e+00	0	43	0	1783627776	6	3855
2026-01-27 13:26:04.35	252.19	39.65	-22.8	-23.5	20.3	0.00e+00	0	43	0	1788870656	6	3910
2026-01-27 13:26:05.35	252.65	39.70	-22.9	-23.7	20.2	0.00e+00	0	43	0	1795162112	6	3943
2026-01-27 13:26:06.34	253.10	39.74	-22.6	-23.1	20.5	0.00e+00	0	43	0	1800404992	6	3797
2026-01-27 13:26:07.35	253.56	39.78	-22.6	-23.0	20.5	0.00e+00	0	43	0	1805647872	6	3788
2026-01-27 13:26:08.35	254.02	39.82	-22.8	-23.5	20.3	0.00e+00	0	43	0	1811939328	6	3888
2026-01-27 13:26:09.35	254.48	39.86	-22.9	-23.7	20.2	0.00e+00	0	43	0	1817182208	6	3934
2026-01-27 13:26:10.35	254.94	39.90	-22.9	-23.7	20.1	0.00e+00	0	43	0	1822425088	6	3950
2026-01-27 13:26:11.35	255.40	39.93	-22.5	-22.8	20.6	0.00e+00	0	43	0	1828716544	6	3729
2026-01-27 13:26:12.34	255.86	39.96	-22.3	-22.5	20.8	0.00e+00	0	43	0	1833959424	6	3669
2026-01-27 13:26:13.34	256.32	39.99	-22.4	-22.7	20.7	0.00e+00	0	43	0	1839202304	6	3720
2026-01-27 13:26:14.34	256.79	40.02	-22.6	-23.1	20.5	0.00e+00	0	43	0	1845493760	6	3807
2026-01-27 13:26:15.34	257.25	40.05	-22.8	-23.4	20.3	0.00e+00	0	43	0	1850736640	6	3876
2026-01-27 13:26:16.34	257.72	40.07	-22.9	-23.7	20.2	0.00e+00	0	43	0	1857028096	6	3947
2026-01-27 13:26:17.35	258.19	40.09	-22.7	-23.3	20.4	0.00e+00	0	43	0	1862270976	6	3847
2026-01-27 13:26:18.34	258.65	40.11	-22.6	-23.0	20.5	0.00e+00	0	43	0	1867513856	6	3786
2026-01-27 13:26:19.35	259.13	40.13	-22.7	-23.2	20.4	0.00e+00	0	43	0	1873805312	6	3826
2026-01-27 13:26:20.35	259.59	40.14	-22.7	-23.4	20.3	0.00e+00	0	43	0	1879048192	6	3863
2026-01-27 13:26:21.36	260.07	40.16	-22.6	-23.1	20.5	0.00e+00	0	43	0	1884291072	6	3808
2026-01-27 13:26:22.36	260.54	40.17	-22.7	-23.2	20.4	0.00e+00	0	43	0	1890582528	6	3834
2026-01-27 13:26:23.36	261.01	40.18	-22.7	-23.3	20.4	0.00e+00	0	43	0	1895825408	6	3853
2026-01-27 13:26:24.36	261.48	40.19	-22.8	-23.5	20.3	0.00e+00	0	43	0	1902116864	6	3908
2026-01-27 13:26:25.37	261.95	40.19	-22.6	-23.1	20.5	0.00e+00	0	43	0	1907359744	6	3806
2026-01-27 13:26:26.37	262.42	40.19	-22.5	-22.9	20.6	0.00e+00	0	43	0	1913651200	6	3755
2026-01-27 13:26:27.38	262.89	40.19	-22.6	-23.0	20.5	0.00e+00	0	43	0	1918894080	6	3789
2026-01-27 13:26:28.38	263.36	40.19	-22.7	-23.3	20.4	0.00e+00	0	43	0	1924136960	6	3861
2026-01-27 13:26:29.39	263.84	40.19	-22.8	-23.6	20.3	0.00e+00	0	43	0	1930428416	6	3913
2026-01-27 13:26:30.39	264.31	40.18	-22.6	-23.1	20.5	0.00e+00	0	43	0	1935671296	6	3793
2026-01-27 13:26:31.39	264.78	40.17	-22.5	-22.9	20.6	0.00e+00	0	43	0	1940914176	6	3758
2026-01-27 13:26:32.39	265.24	40.16	-22.5	-23.0	20.6	0.00e+00	0	43	0	1947205632	6	3771
2026-01-27 13:26:33.40	265.72	40.15	-22.6	-23.0	20.5	0.00e+00	0	43	0	1952448512	6	3790
2026-01-27 13:26:34.40	266.19	40.14	-22.6	-23.1	20.5	0.00e+00	0	43	0	1957691392	6	3799
2026-01-27 13:26:35.40	266.65	40.12	-22.7	-23.3	20.4	0.00e+00	0	43	0	1963982848	6	3853
2026-01-27 13:26:36.40	267.12	40.10	-22.7	-23.4	20.4	0.00e+00	0	43	0	1969225728	6	3870
2026-01-27 13:26:37.41	267.59	40.08	-22.6	-23.1	20.5	0.00e+00	0	43	0	1975517184	6	3800
2026-01-27 13:26:38.41	268.06	40.06	-22.7	-23.3	20.4	0.00e+00	0	43	0	1980760064	6	3857
2026-01-27 13:26:39.42	268.53	40.03	-22.9	-23.6	20.2	1.10e-06	0	43	0	1987051520	6	3924
2026-01-27 13:26:40.41	268.99	40.01	-22.8	-23.5	20.3	0.00e+00	0	43	0	1992294400	6	3890
2026-01-27 13:26:41.42	269.46	39.98	-22.8	-23.4	20.3	0.00e+00	0	43	0	1997537280	6	3870
2026-01-27 13:26:42.43	269.92	39.95	-22.7	-23.2	20.4	0.00e+00	0	43	0	2003828736	6	3841
2026-01-27 13:26:43.43	270.39	39.91	-22.6	-23.0	20.6	0.00e+00	0	43	0	2009071616	6	3775
2026-01-27 13:26:44.43	270.85	39.88	-22.6	-23.0	20.6	0.00e+00	0	43	0	2014314496	6	3776
2026-01-27 13:26:45.43	271.31	39.84	-22.6	-22.9	20.6	0.00e+00	0	43	0	2020605952	6	3768
2026-01-27 13:26:46.43	271.77	39.80	-22.7	-23.2	20.5	0.00e+00	0	43	0	2025848832	6	3831
2026-01-27 13:26:47.42	272.22	39.76	-22.7	-23.3	20.4	0.00e+00	0	43	0	2031091712	6	3858
2026-01-27 13:26:48.42	272.68	39.72	-22.7	-23.2	20.4	0.00e+00	0	43	0	2037383168	6	3829
2026-01-27 13:26:49.42	273.13	39.67	-22.7	-23.4	20.4	0.00e+00	0	43	0	2042626048	6	3869
2026-01-27 13:26:50.43	273.59	39.63	-22.8	-23.5	20.3	0.00e+00	0	43	0	2048917504	6	3904
2026-01-27 13:26:51.44	274.05	39.58	-22.8	-23.5	20.3	0.00e+00	0	43	0	2054160384	6	3887
2026-01-27 13:26:52.44	274.50	39.53	-22.7	-23.3	20.4	1.10e-06	0	43	0	2059403264	6	3850
2026-01-27 13:26:53.43	274.94	39.47	-22.8	-23.6	20.3	0.00e+00	0	43	0	2065694720	6	3908
2026-01-27 13:26:54.44	275.40	39.42	-22.8	-23.5	20.3	0.00e+00	0	43	0	2070937600	6	3906
2026-01-27 13:26:55.45	275.85	39.36	-22.5	-22.9	20.6	0.00e+00	0	43	0	2076180480	6	3762
2026-01-27 13:26:56.45	276.29	39.30	-22.4	-22.7	20.7	0.00e+00	0	43	0	2082471936	6	3707
2026-01-27 13:26:57.46	276.74	39.24	-22.5	-22.9	20.6	0.00e+00	0	43	0	2087714816	6	3768
2026-01-27 13:26:58.45	277.18	39.18	-22.7	-23.2	20.5	0.00e+00	0	43	0	2092957696	6	3829
2026-01-27 13:26:59.46	277.62	39.12	-22.7	-23.2	20.5	0.00e+00	0	43	0	2099249152	6	3838
2026-01-27 13:27:00.47	278.07	39.05	-22.7	-23.2	20.5	0.00e+00	0	43	0	2104492032	6	3825
2026-01-27 13:27:01.47	278.50	38.99	-22.7	-23.4	20.4	0.00e+00	0	43	0	2110783488	6	3866
2026-01-27 13:27:02.47	278.94	38.92	-22.7	-23.2	20.5	0.00e+00	0	43	0	2116026368	6	3825
2026-01-27 13:27:03.48	279.38	38.85	-22.5	-22.8	20.7	0.00e+00	0	43	0	2122317824	6	3735
2026-01-27 13:27:04.49	279.81	38.77	-22.6	-23.0	20.6	0.00e+00	0	43	0	2127560704	6	3775
2026-01-27 13:27:05.48	280.24	38.70	-22.7	-23.3	20.4	0.00e+00	0	43	0	2132803584	6	3849
2026-01-27 13:27:06.49	280.67	38.63	-22.7	-23.3	20.4	0.00e+00	0	43	0	2139095040	6	3845
2026-01-27 13:27:07.49	281.10	38.55	-22.5	-22.8	20.7	0.00e+00	0	43	0	2144337920	6	3725
2026-01-27 13:27:08.50	281.52	38.47	-22.5	-22.8	20.7	0.00e+00	0	43	0	2149580800	6	3723
2026-01-27 13:27:09.50	281.94	38.39	-22.6	-23.0	20.6	0.00e+00	0	43	0	2155872256	6	3784
2026-01-27 13:27:10.51	282.37	38.31	-22.8	-23.4	20.4	0.00e+00	0	43	0	2161115136	6	3873
2026-01-27 13:27:11.51	282.79	38.23	-22.9	-23.7	20.3	0.00e+00	0	43	0	2166358016	6	3937
2026-01-27 13:27:12.51	283.20	38.14	-22.8	-23.5	20.3	0.00e+00	0	43	0	2172649472	6	3895
2026-01-27 13:27:13.52	283.62	38.06	-22.8	-23.6	20.3	0.00e+00	0	43	0	2177892352	6	3916
2026-01-27 13:27:14.52	284.03	37.97	-22.6	-23.1	20.6	0.00e+00	0	43	0	2184183808	6	3792
2026-01-27 13:27:15.53	284.44	37.88	-22.3	-22.4	20.9	0.00e+00	0	43	0	2189426688	6	3641
2026-01-27 13:27:16.53	284.85	37.79	-22.4	-22.5	20.8	0.00e+00	0	43	0	2195718144	6	3675
2026-01-27 13:27:17.54	285.26	37.70	-22.5	-22.9	20.6	0.00e+00	0	43	0	2200961024	6	3765
2026-01-27 13:27:18.54	285.66	37.60	-22.7	-23.4	20.4	0.00e+00	0	43	0	2206203904	6	3866
2026-01-27 13:27:19.54	286.06	37.51	-22.8	-23.4	20.3	0.00e+00	0	43	0	2212495360	6	3885
2026-01-27 13:27:20.54	286.45	37.42	-22.7	-23.3	20.4	0.00e+00	0	43	0	2217738240	6	3847
2026-01-27 13:27:21.54	286.85	37.32	-22.8	-23.4	20.4	0.00e+00	0	43	0	2222981120	6	3870
2026-01-27 13:27:22.55	287.25	37.22	-22.8	-23.6	20.3	0.00e+00	0	43	0	2229272576	6	3912
2026-01-27 13:27:23.55	287.64	37.12	-22.9	-23.8	20.2	0.00e+00	0	43	0	2234515456	6	3960
2026-01-27 13:27:24.55	288.02	37.02	-22.9	-23.8	20.2	0.00e+00	0	43	0	2239758336	6	3966
2026-01-27 13:27:25.56	288.41	36.92	-22.9	-23.7	20.2	0.00e+00	0	43	0	2246049792	6	3945
2026-01-27 13:27:26.56	288.80	36.82	-22.9	-23.7	20.2	0.00e+00	0	43	0	2251292672	6	3945
2026-01-27 13:27:27.56	289.18	36.72	-22.9	-23.7	20.2	0.00e+00	0	43	0	2257584128	6	3932
2026-01-27 13:27:28.56	289.56	36.61	-22.8	-23.5	20.3	0.00e+00	0	43	0	2262827008	6	3894
2026-01-27 13:27:29.57	289.94	36.51	-22.8	-23.5	20.3	0.00e+00	0	43	0	2268069888	6	3900
2026-01-27 13:27:30.57	290.31	36.40	-22.8	-23.5	20.3	0.00e+00	0	43	0	2274361344	6	3887
2026-01-27 13:27:31.57	290.68	36.29	-22.7	-23.3	20.4	0.00e+00	0	43	0	2279604224	6	3857
2026-01-27 13:27:32.57	291.05	36.18	-22.8	-23.5	20.3	0.00e+00	0	43	0	2285895680	6	3898
2026-01-27 13:27:33.58	291.42	36.07	-22.9	-23.8	20.2	0.00e+00	0	43	0	2291138560	6	3959
2026-01-27 13:27:34.59	291.79	35.96	-23.0	-24.0	20.1	0.00e+00	0	43	0	2296381440	6	4006
2026-01-27 13:27:35.59	292.15	35.85	-23.0	-23.9	20.1	0.00e+00	0	43	0	2302672896	6	3999
2026-01-27 13:27:36.59	292.51	35.74	-23.0	-23.8	20.2	0.00e+00	0	43	0	2307915776	6	3971
2026-01-27 13:27:37.60	292.87	35.63	-23.0	-24.0	20.1	0.00e+00	0	43	0	2313158656	6	4007
2026-01-27 13:27:38.59	293.22	35.52	-22.9	-23.7	20.2	0.00e+00	0	43	0	2319450112	6	3947
2026-01-27 13:27:39.60	293.57	35.40	-22.8	-23.5	20.3	0.00e+00	0	43	0	2324692992	6	3902
2026-01-27 13:27:40.60	293.92	35.29	-22.9	-23.7	20.2	0.00e+00	0	43	0	2330984448	6	3954
2026-01-27 13:27:41.60	294.27	35.17	-23.1	-24.1	20.1	0.00e+00	0	43	0	2336227328	6	4030
2026-01-27 13:27:42.61	294.62	35.05	-23.1	-24.1	20.0	0.00e+00	0	43	0	2341470208	6	4054
2026-01-27 13:27:43.61	294.96	34.94	-23.1	-24.1	20.1	0.00e+00	0	43	0	2347761664	6	4038
2026-01-27 13:27:44.62	295.30	34.82	-23.1	-24.1	20.0	0.00e+00	0	43	0	2353004544	6	4050
2026-01-27 13:27:45.62	295.64	34.70	-23.3	-24.5	19.8	0.00e+00	0	43	0	2359296000	6	4140
2026-01-27 13:27:46.63	295.98	34.58	-23.2	-24.4	19.9	0.00e+00	0	43	0	2364538880	6	4113
2026-01-27 13:27:47.63	296.31	34.46	-23.1	-24.1	20.0	0.00e+00	0	43	0	2369781760	6	4050
2026-01-27 13:27:48.63	296.64	34.34	-23.2	-24.3	20.0	0.00e+00	0	43	0	2376073216	6	4088
2026-01-27 13:27:49.64	296.97	34.22	-23.3	-24.5	19.9	0.00e+00	0	43	0	2381316096	6	4131
2026-01-27 13:27:50.64	297.30	34.10	-23.3	-24.5	19.8	0.00e+00	0	43	0	2386558976	6	4140
2026-01-27 13:27:51.65	297.62	33.97	-23.3	-24.6	19.8	0.00e+00	0	43	0	2392850432	6	4159
2026-01-27 13:27:52.65	297.94	33.85	-23.3	-24.4	19.9	0.00e+00	0	43	0	2398093312	6	4121
2026-01-27 13:27:53.64	298.26	33.73	-23.2	-24.3	19.9	0.00e+00	0	43	0	2404384768	6	4085
2026-01-27 13:27:54.65	298.58	33.60	-23.3	-24.4	19.9	0.00e+00	0	43	0	2409627648	6	4115
2026-01-27 13:27:55.65	298.89	33.48	-23.3	-24.5	19.8	0.00e+00	0	43	0	2414870528	6	4146
2026-01-27 13:27:56.66	299.20	33.36	-23.4	-24.7	19.7	0.00e+00	0	43	0	2421161984	6	4193
2026-01-27 13:27:57.67	299.51	33.23	-23.4	-24.8	19.7	0.00e+00	0	43	0	2426404864	6	4211
2026-01-27 13:27:58.68	299.82	33.10	-23.6	-24.6	19.5	0.00e+00	0	43	0	2432696320	7	4047
2026-01-27 13:27:59.68	300.13	32.98	-23.9	-25.4	19.2	0.00e+00	0	43	0	2437939200	7	4235
2026-01-27 13:28:00.68	300.43	32.85	-23.8	-24.6	19.3	0.00e+00	0	43	0	2443182080	8	3946
2026-01-27 13:28:01.68	300.73	32.73	-23.5	-23.8	19.7	0.00e+00	0	43	0	2449473536	8	3760
2026-01-27 13:28:02.68	301.03	32.60	-23.2	-23.7	20.0	0.00e+00	0	43	0	2454716416	7	3844
2026-01-27 13:28:03.68	301.32	32.48	-23.2	-23.8	19.9	0.00e+00	0	43	0	2459959296	7	3853
2026-01-27 13:28:04.69	301.62	32.35	-23.4	-24.1	19.8	0.00e+00	0	43	0	2466250752	7	3931
2026-01-27 13:28:05.69	301.91	32.22	-23.4	-24.2	19.7	0.00e+00	0	43	0	2471493632	7	3960
2026-01-27 13:28:06.69	302.19	32.09	-23.5	-24.5	19.6	0.00e+00	0	43	0	2477785088	7	4026
2026-01-27 13:28:07.70	302.48	31.96	-23.5	-24.5	19.6	0.00e+00	0	43	0	2483027968	7	4021
2026-01-27 13:28:08.70	302.77	31.84	-23.5	-24.5	19.6	0.00e+00	0	43	0	2488270848	7	4014
2026-01-27 13:28:09.71	303.05	31.71	-23.5	-24.5	19.6	0.00e+00	0	43	0	2494562304	7	4025
2026-01-27 13:28:10.70	303.33	31.58	-23.5	-24.5	19.6	0.00e+00	0	43	0	2499805184	7	4023
2026-01-27 13:28:11.70	303.60	31.45	-23.8	-25.0	19.3	0.00e+00	0	43	0	2505048064	7	4147
2026-01-27 13:28:12.71	303.88	31.32	-23.7	-25.0	19.3	0.00e+00	0	43	0	2511339520	7	4137
2026-01-27 13:28:13.72	304.16	31.19	-23.6	-24.6	19.5	0.00e+00	0	43	0	2516582400	7	4055
2026-01-27 13:28:14.73	304.43	31.06	-23.4	-24.3	19.7	0.00e+00	0	43	0	2522873856	7	3971
2026-01-27 13:28:15.73	304.70	30.93	-23.4	-24.1	19.8	0.00e+00	0	43	0	2528116736	7	3933
2026-01-27 13:28:16.73	304.96	30.81	-23.4	-24.2	19.7	0.00e+00	0	43	0	2533359616	7	3947
2026-01-27 13:28:17.74	305.23	30.68	-23.3	-24.0	19.8	0.00e+00	0	43	0	2539651072	7	3893
2026-01-27 13:28:18.74	305.49	30.55	-23.3	-24.0	19.8	0.00e+00	0	43	0	2544893952	7	3895
2026-01-27 13:28:19.75	305.75	30.42	-23.4	-24.2	19.7	0.00e+00	0	43	0	2551185408	7	3955
2026-01-27 13:28:20.75	306.01	30.29	-23.5	-24.4	19.6	0.00e+00	0	43	0	2556428288	7	4003
2026-01-27 13:28:21.75	306.27	30.16	-23.5	-24.5	19.5	0.00e+00	0	43	0	2561671168	7	4036
2026-01-27 13:28:22.76	306.53	30.03	-23.6	-24.6	19.5	0.00e+00	0	43	0	2567962624	7	4051
2026-01-27 13:28:23.76	306.78	29.90	-23.5	-24.5	19.5	0.00e+00	0	43	0	2573205504	7	4035
2026-01-27 13:28:24.76	307.03	29.77	-23.4	-24.3	19.6	0.00e+00	0	43	0	2578448384	7	3977
2026-01-27 13:28:25.76	307.27	29.64	-23.5	-24.3	19.6	0.00e+00	0	43	0	2584739840	7	3975
2026-01-27 13:28:26.77	307.52	29.51	-23.5	-24.4	19.6	0.00e+00	0	43	0	2589982720	7	3994
2026-01-27 13:28:27.77	307.77	29.38	-23.6	-24.7	19.4	0.00e+00	0	43	0	2595225600	7	4084
2026-01-27 13:28:28.78	308.01	29.25	-23.8	-25.0	19.3	0.00e+00	0	43	0	2601517056	7	4152
2026-01-27 13:28:29.78	308.25	29.12	-23.9	-25.3	19.1	0.00e+00	0	43	0	2606759936	7	4230
2026-01-27 13:28:30.78	308.49	28.99	-24.0	-25.4	19.1	0.00e+00	0	43	0	2613051392	7	4260
2026-01-27 13:28:31.79	308.73	28.86	-23.9	-25.2	19.2	0.00e+00	0	43	0	2618294272	7	4208
2026-01-27 13:28:32.79	308.96	28.74	-23.8	-25.0	19.2	0.00e+00	0	43	0	2624585728	7	4163
2026-01-27 13:28:33.80	309.20	28.61	-23.8	-25.1	19.2	0.00e+00	0	43	0	2629828608	7	4180
2026-01-27 13:28:34.80	309.43	28.48	-23.7	-24.8	19.4	0.00e+00	0	43	0	2635071488	7	4104
2026-01-27 13:28:35.80	309.66	28.35	-23.6	-24.6	19.5	0.00e+00	0	43	0	2641362944	7	4053
2026-01-27 13:28:36.80	309.89	28.22	-23.6	-24.7	19.4	0.00e+00	0	43	0	2646605824	7	4068
2026-01-27 13:28:37.80	310.11	28.09	-23.6	-24.6	19.4	0.00e+00	0	43	0	2651848704	7	4058
2026-01-27 13:28:38.80	310.34	27.96	-23.8	-25.0	19.3	0.00e+00	0	43	0	2658140160	7	4152
2026-01-27 13:28:39.81	310.56	27.84	-23.7	-24.8	19.4	0.00e+00	0	43	0	2663383040	7	4097
2026-01-27 13:28:40.82	310.78	27.71	-23.5	-24.5	19.5	0.00e+00	0	43	0	2668625920	7	4018
2026-01-27 13:28:41.82	311.00	27.58	-23.5	-24.4	19.6	0.00e+00	0	43	0	2674917376	7	3994
2026-01-27 13:28:42.83	311.22	27.45	-23.4	-24.3	19.6	0.00e+00	0	43	0	2680160256	7	3976
2026-01-27 13:28:43.84	311.44	27.32	-23.5	-24.4	19.6	0.00e+00	0	43	0	2686451712	7	4007
2026-01-27 13:28:44.84	311.65	27.19	-23.4	-24.3	19.6	0.00e+00	0	43	0	2691694592	7	3967
2026-01-27 13:28:45.84	311.86	27.07	-23.4	-24.3	19.6	0.00e+00	0	43	0	2697986048	7	3985
2026-01-27 13:28:46.85	312.08	26.94	-23.4	-24.2	19.6	0.00e+00	0	43	0	2703228928	7	3952
2026-01-27 13:28:47.85	312.28	26.81	-23.4	-24.2	19.6	0.00e+00	0	43	0	2708471808	7	3965
2026-01-27 13:28:48.86	312.49	26.69	-23.5	-24.5	19.5	0.00e+00	0	43	0	2714763264	7	4033
2026-01-27 13:28:49.86	312.70	26.56	-23.5	-24.5	19.5	0.00e+00	0	43	0	2720006144	7	4033
2026-01-27 13:28:50.86	312.90	26.43	-23.6	-24.6	19.5	0.00e+00	0	43	0	2725249024	7	4046
2026-01-27 13:28:51.87	313.11	26.31	-23.7	-24.8	19.3	0.00e+00	0	43	0	2731540480	7	4108
2026-01-27 13:28:52.87	313.31	26.18	-23.6	-24.7	19.4	0.00e+00	0	43	0	2736783360	7	4083
2026-01-27 13:28:53.88	313.51	26.06	-23.7	-24.8	19.3	0.00e+00	0	43	0	2743074816	7	4104
2026-01-27 13:28:54.88	313.71	25.93	-23.9	-25.3	19.1	0.00e+00	0	43	0	2748317696	7	4217
2026-01-27 13:28:55.89	313.90	25.80	-23.7	-24.8	19.3	0.00e+00	0	43	0	2753560576	7	4098
2026-01-27 13:28:56.89	314.10	25.68	-23.5	-24.5	19.5	0.00e+00	0	43	0	2759852032	7	4030
2026-01-27 13:28:57.90	314.29	25.55	-23.6	-24.6	19.4	0.00e+00	0	43	0	2765094912	7	4054
2026-01-27 13:28:58.90	314.49	25.43	-23.7	-24.8	19.3	0.00e+00	0	43	0	2771386368	7	4113
2026-01-27 13:28:59.90	314.68	25.31	-23.8	-25.2	19.1	0.00e+00	0	43	0	2776629248	7	4193
2026-01-27 13:29:00.91	314.87	25.18	-23.9	-25.3	19.1	0.00e+00	0	43	0	2781872128	7	4217
2026-01-27 13:29:01.91	315.05	25.06	-24.0	-25.4	19.0	0.00e+00	0	43	0	2788163584	7	4267
2026-01-27 13:29:02.91	315.24	24.94	-24.0	-25.1	19.0	0.00e+00	0	43	0	2793406464	8	4053
2026-01-27 13:29:03.92	315.42	24.81	-24.0	-25.1	18.9	0.00e+00	0	43	0	2798649344	8	4060
2026-01-27 13:29:04.91	315.61	24.69	-24.0	-25.0	19.0	0.00e+00	0	43	0	2804940800	8	4029
2026-01-27 13:29:05.91	315.79	24.57	-24.0	-25.1	18.9	0.00e+00	0	43	0	2810183680	8	4054
2026-01-27 13:29:06.92	315.97	24.45	-23.9	-24.8	19.1	0.00e+00	0	43	0	2816475136	8	3980
2026-01-27 13:29:07.93	316.15	24.32	-23.9	-24.8	19.1	0.00e+00	0	43	0	2821718016	8	3978
2026-01-27 13:29:08.93	316.33	24.20	-23.9	-24.7	19.1	0.00e+00	0	43	0	2826960896	8	3967
2026-01-27 13:29:09.94	316.51	24.08	-24.0	-25.0	19.0	0.00e+00	0	43	0	2833252352	8	4031
2026-01-27 13:29:10.94	316.68	23.96	-23.9	-24.8	19.1	0.00e+00	0	43	0	2838495232	8	3990
2026-01-27 13:29:11.95	316.86	23.84	-23.9	-24.8	19.1	0.00e+00	0	43	0	2844786688	8	3986
2026-01-27 13:29:12.96	317.03	23.72	-24.0	-24.9	19.0	0.00e+00	0	43	0	2850029568	8	4021
2026-01-27 13:29:13.96	317.20	23.60	-24.1	-25.2	18.9	0.00e+00	0	43	0	2855272448	8	4076
2026-01-27 13:29:14.97	317.37	23.48	-24.1	-25.2	18.9	0.00e+00	0	43	0	2861563904	8	4085
2026-01-27 13:29:15.97	317.54	23.36	-24.2	-25.4	18.8	0.00e+00	0	43	0	2866806784	8	4128
2026-01-27 13:29:16.96	317.71	23.24	-24.1	-25.3	18.8	0.00e+00	0	43	0	2872049664	8	4110
2026-01-27 13:29:17.96	317.87	23.12	-24.2	-25.4	18.7	0.00e+00	0	43	0	2878341120	8	4144
2026-01-27 13:29:18.97	318.04	23.00	-24.2	-25.4	18.8	0.00e+00	0	43	0	2883584000	8	4125
2026-01-27 13:29:19.98	318.20	22.88	-24.3	-25.7	18.6	0.00e+00	0	43	0	2889875456	8	4200
2026-01-27 13:29:20.99	318.37	22.76	-24.2	-25.3	18.8	0.00e+00	0	43	0	2895118336	8	4111
2026-01-27 13:29:21.99	318.53	22.65	-24.1	-25.2	18.8	0.00e+00	0	43	0	2900361216	8	4086
2026-01-27 13:29:22.99	318.69	22.53	-24.1	-25.2	18.9	0.00e+00	0	43	0	2906652672	8	4080
2026-01-27 13:29:24.00	318.85	22.41	-24.2	-25.4	18.7	0.00e+00	0	43	0	2911895552	8	4141
2026-01-27 13:29:25.01	319.01	22.29	-24.2	-25.3	18.8	0.00e+00	0	43	0	2918187008	8	4093
2026-01-27 13:29:26.01	319.16	22.18	-24.3	-25.5	18.7	0.00e+00	0	43	0	2923429888	8	4165
2026-01-27 13:29:27.02	319.32	22.06	-24.3	-25.6	18.6	0.00e+00	0	43	0	2928672768	8	4192
2026-01-27 13:29:28.02	319.48	21.95	-24.5	-26.0	18.4	0.00e+00	0	43	0	2934964224	8	4288
2026-01-27 13:29:29.02	319.63	21.83	-24.5	-25.6	18.4	0.00e+00	0	43	0	2940207104	9	4071
2026-01-27 13:29:30.02	319.78	21.72	-24.7	-25.9	18.2	0.00e+00	0	43	0	2945449984	9	4141
2026-01-27 13:29:31.03	319.93	21.60	-24.7	-26.0	18.1	0.00e+00	0	43	0	2951741440	9	4189
2026-01-27 13:29:32.03	320.08	21.49	-24.9	-26.5	17.9	0.00e+00	0	43	0	2956984320	9	4296
2026-01-27 13:29:33.04	320.23	21.37	-24.8	-26.1	18.1	0.00e+00	0	43	0	2963275776	9	4212
2026-01-27 13:29:34.04	320.38	21.26	-24.7	-26.1	18.1	0.00e+00	0	43	0	2968518656	9	4193
2026-01-27 13:29:35.05	320.53	21.15	-24.8	-26.2	18.1	0.00e+00	0	43	0	2973761536	9	4218
2026-01-27 13:29:36.05	320.67	21.03	-24.7	-25.9	18.2	0.00e+00	0	43	0	2980052992	9	4152
2026-01-27 13:29:37.06	320.82	20.92	-24.7	-25.9	18.2	0.00e+00	0	43	0	2985295872	9	4158
2026-01-27 13:29:38.07	320.96	20.81	-24.9	-26.3	18.0	0.00e+00	0	43	0	2991587328	9	4257
2026-01-27 13:29:39.07	321.11	20.69	-25.0	-26.5	17.8	0.00e+00	0	43	0	2996830208	9	4303
2026-01-27 13:29:40.07	321.25	20.58	-25.0	-26.5	17.9	0.00e+00	0	43	0	3003121664	9	4302
2026-01-27 13:29:41.07	321.39	20.47	-25.1	-26.4	17.7	0.00e+00	0	43	0	3008364544	10	4148
2026-01-27 13:29:42.08	321.53	20.36	-25.3	-26.8	17.5	0.00e+00	0	43	0	3013607424	10	4265
2026-01-27 13:29:43.08	321.67	20.25	-25.3	-26.7	17.5	0.00e+00	0	43	0	3019898880	10	4243
2026-01-27 13:29:44.09	321.81	20.14	-25.3	-26.7	17.5	0.00e+00	0	43	0	3025141760	10	4248
2026-01-27 13:29:45.09	321.94	20.03	-25.6	-26.8	17.2	0.00e+00	0	43	0	3030384640	11	4168
2026-01-27 13:29:46.10	322.08	19.92	-25.4	-26.5	17.4	0.00e+00	0	43	0	3036676096	11	4075
2026-01-27 13:29:47.11	322.22	19.81	-25.3	-26.2	17.5	0.00e+00	0	43	0	3041918976	11	4009
2026-01-27 13:29:48.11	322.35	19.70	-25.2	-26.1	17.6	0.00e+00	0	43	0	3047161856	11	3980
2026-01-27 13:29:49.12	322.49	19.59	-25.3	-26.2	17.5	0.00e+00	0	43	0	3053453312	11	4006
2026-01-27 13:29:50.12	322.62	19.48	-25.2	-25.9	17.6	0.00e+00	0	43	0	3058696192	11	3942
2026-01-27 13:29:51.13	322.75	19.37	-25.2	-26.0	17.6	0.00e+00	0	43	0	3064987648	11	3945
2026-01-27 13:29:52.13	322.88	19.27	-25.1	-25.8	17.7	0.00e+00	0	43	0	3070230528	11	3902
2026-01-27 13:29:53.14	323.01	19.16	-25.1	-25.9	17.7	0.00e+00	0	43	0	3076521984	11	3923
2026-01-27 13:29:54.15	323.14	19.05	-25.1	-25.8	17.7	0.00e+00	0	43	0	3081764864	11	3912
2026-01-27 13:29:55.15	323.27	18.94	-25.2	-26.0	17.6	0.00e+00	0	43	0	3087007744	11	3959
2026-01-27 13:29:56.16	323.40	18.84	-25.2	-25.9	17.6	0.00e+00	0	43	0	3093299200	11	3933
2026-01-27 13:29:57.16	323.52	18.73	-25.2	-26.1	17.5	0.00e+00	0	43	0	3098542080	11	3973
2026-01-27 13:29:58.16	323.65	18.62	-25.2	-26.1	17.6	0.00e+00	0	43	0	3103784960	11	3967
2026-01-27 13:29:59.16	323.77	18.52	-25.2	-26.1	17.5	0.00e+00	0	43	0	3110076416	11	3970
2026-01-27 13:30:00.17	323.90	18.41	-25.2	-26.0	17.6	0.00e+00	0	43	0	3115319296	11	3964
2026-01-27 13:30:01.17	324.02	18.31	-25.3	-26.2	17.5	0.00e+00	0	43	0	3121610752	11	3995
2026-01-27 13:30:02.17	324.14	18.20	-25.2	-26.1	17.5	0.00e+00	0	43	0	3126853632	11	3970
2026-01-27 13:30:03.17	324.26	18.10	-25.2	-26.1	17.5	0.00e+00	0	43	0	3133145088	11	3984
2026-01-27 13:30:04.17	324.38	18.00	-25.2	-26.0	17.5	0.00e+00	0	43	0	3138387968	11	3959
2026-01-27 13:30:05.16	324.50	17.89	-25.3	-26.2	17.5	0.00e+00	0	43	0	3143630848	11	4003
2026-01-27 13:30:06.17	324.62	17.79	-25.2	-26.1	17.5	0.00e+00	0	43	0	3148873728	11	3983
2026-01-27 13:30:07.16	324.74	17.69	-25.4	-26.4	17.4	0.00e+00	0	43	0	3155165184	11	4054
2026-01-27 13:30:08.17	324.85	17.59	-25.5	-26.7	17.2	0.00e+00	0	43	0	3160408064	11	4140
2026-01-27 13:30:09.17	324.97	17.48	-25.4	-26.4	17.3	0.00e+00	0	43	0	3166699520	11	4069
2026-01-27 13:30:10.17	325.09	17.38	-25.4	-26.5	17.3	0.00e+00	0	43	0	3171942400	11	4077
2026-01-27 13:30:11.18	325.20	17.28	-25.5	-26.6	17.2	0.00e+00	0	43	0	3177185280	11	4108
2026-01-27 13:30:12.19	325.32	17.18	-25.5	-26.7	17.1	0.00e+00	0	43	0	3183476736	11	4134
2026-01-27 13:30:13.19	325.43	17.08	-25.5	-26.7	17.2	0.00e+00	0	43	0	3188719616	11	4126
2026-01-27 13:30:14.19	325.54	16.98	-25.6	-27.0	17.0	0.00e+00	0	43	0	3195011072	11	4200
2026-01-27 13:30:15.19	325.66	16.88	-25.6	-26.9	17.1	0.00e+00	0	43	0	3200253952	11	4173
2026-01-27 13:30:16.20	325.77	16.78	-25.7	-27.0	17.0	0.00e+00	0	43	0	3205496832	11	4221
2026-01-27 13:30:17.21	325.88	16.68	-25.6	-26.9	17.0	0.00e+00	0	43	0	3211788288	11	4177
2026-01-27 13:30:18.21	325.99	16.58	-25.7	-27.2	16.8	0.00e+00	0	43	0	3217031168	11	4262
2026-01-27 13:30:19.21	326.10	16.48	-25.6	-26.9	17.0	0.00e+00	0	43	0	3222274048	11	4183
2026-01-27 13:30:20.21	326.21	16.38	-25.6	-26.9	17.0	0.00e+00	0	43	0	3228565504	11	4181
2026-01-27 13:30:21.22	326.31	16.28	-25.6	-26.9	17.0	0.00e+00	0	43	0	3233808384	11	4177
2026-01-27 13:30:22.23	326.42	16.18	-25.6	-26.9	17.0	1.10e-06	0	43	0	3240099840	11	4179
2026-01-27 13:30:23.23	326.53	16.08	-25.7	-27.1	16.9	0.00e+00	0	43	0	3245342720	11	4226
2026-01-27 13:30:24.23	326.64	15.99	-25.7	-27.2	16.8	0.00e+00	0	43	0	3250585600	11	4258
2026-01-27 13:30:25.24	326.74	15.89	-25.7	-27.0	16.9	0.00e+00	0	43	0	3256877056	11	4220
2026-01-27 13:30:26.25	326.85	15.79	-25.7	-27.1	16.9	0.00e+00	0	43	0	3262119936	11	4225
2026-01-27 13:30:27.26	326.95	15.69	-25.8	-27.3	16.8	0.00e+00	0	43	0	3268411392	11	4276
2026-01-27 13:30:28.26	327.05	15.60	-25.7	-27.1	16.9	0.00e+00	0	43	0	3273654272	11	4232
2026-01-27 13:30:29.27	327.16	15.50	-25.7	-27.2	16.8	0.00e+00	0	43	0	3278897152	11	4257
2026-01-27 13:30:30.26	327.26	15.41	-25.7	-27.1	16.8	0.00e+00	0	43	0	3285188608	11	4233
2026-01-27 13:30:31.27	327.36	15.31	-25.8	-27.4	16.7	0.00e+00	0	43	0	3290431488	11	4307
2026-01-27 13:30:32.27	327.46	15.22	-25.9	-27.5	16.6	0.00e+00	0	44	0	3296722944	11	4340
2026-01-27 13:30:33.28	327.56	15.12	-26.0	-27.2	16.5	0.00e+00	0	43	0	3301965824	12	4150
2026-01-27 13:30:34.28	327.66	15.03	-25.8	-26.9	16.6	0.00e+00	0	43	0	3307208704	12	4071
2026-01-27 13:30:35.29	327.76	14.93	-25.9	-27.0	16.6	0.00e+00	0	43	0	3313500160	12	4102
2026-01-27 13:30:36.29	327.86	14.84	-25.9	-27.2	16.5	0.00e+00	0	43	0	3318743040	12	4145
2026-01-27 13:30:37.29	327.96	14.74	-26.0	-27.3	16.4	0.00e+00	0	43	0	3323985920	12	4170
2026-01-27 13:30:38.30	328.06	14.65	-26.0	-27.4	16.3	0.00e+00	0	43	0	3330277376	12	4211
2026-01-27 13:30:39.30	328.15	14.56	-26.0	-27.4	16.3	0.00e+00	0	43	0	3335520256	12	4203
2026-01-27 13:30:40.31	328.25	14.46	-26.1	-27.5	16.3	0.00e+00	0	43	0	3341811712	12	4231
2026-01-27 13:30:41.32	328.34	14.37	-26.2	-27.8	16.1	0.00e+00	0	43	0	3347054592	12	4316
2026-01-27 13:30:42.33	328.44	14.28	-26.1	-27.6	16.2	0.00e+00	0	43	0	3353346048	12	4270
2026-01-27 13:30:43.33	328.53	14.19	-26.1	-27.6	16.2	0.00e+00	0	43	0	3358588928	12	4269
2026-01-27 13:30:44.34	328.63	14.09	-26.2	-27.8	16.1	0.00e+00	0	43	0	3363831808	12	4312
2026-01-27 13:30:45.34	328.72	14.00	-26.3	-27.9	16.0	0.00e+00	0	43	0	3370123264	12	4356
2026-01-27 13:30:46.35	328.82	13.91	-26.2	-27.8	16.0	0.00e+00	0	43	0	3375366144	12	4331
2026-01-27 13:30:47.35	328.91	13.82	-26.3	-27.9	16.0	0.00e+00	0	43	0	3380609024	12	4346
2026-01-27 13:30:48.35	329.00	13.73	-26.3	-28.0	15.9	0.00e+00	0	43	0	3386900480	12	4364
2026-01-27 13:30:49.35	329.09	13.64	-26.4	-28.1	15.8	0.00e+00	0	43	0	3392143360	12	4408
2026-01-27 13:30:50.36	329.18	13.55	-26.3	-28.1	15.9	0.00e+00	0	43	0	3397386240	12	4386
2026-01-27 13:30:51.36	329.27	13.46	-26.4	-28.1	15.8	0.00e+00	0	43	0	3403677696	12	4416
2026-01-27 13:30:52.36	329.36	13.37	-26.4	-28.3	15.7	0.00e+00	0	43	0	3408920576	12	4457
2026-01-27 13:30:53.36	329.45	13.28	-26.4	-28.3	15.8	0.00e+00	0	43	0	3415212032	12	4453
2026-01-27 13:30:54.36	329.54	13.19	-26.5	-28.3	15.7	0.00e+00	0	43	0	3420454912	12	4464
2026-01-27 13:30:55.36	329.63	13.10	-26.6	-28.2	15.5	0.00e+00	0	43	0	3425697792	13	4306
2026-01-27 13:30:56.36	329.71	13.02	-26.6	-28.2	15.5	0.00e+00	0	43	0	3431989248	13	4318
2026-01-27 13:30:57.36	329.80	12.93	-26.6	-28.1	15.6	0.00e+00	0	43	0	3437232128	13	4272
2026-01-27 13:30:58.36	329.89	12.84	-26.7	-28.3	15.4	0.00e+00	0	43	0	3442475008	13	4336
2026-01-27 13:30:59.37	329.97	12.75	-26.8	-28.5	15.3	0.00e+00	0	43	0	3448766464	13	4403
2026-01-27 13:31:00.38	330.06	12.66	-26.6	-28.1	15.5	0.00e+00	0	43	0	3454009344	13	4300
2026-01-27 13:31:01.39	330.14	12.58	-26.6	-28.1	15.5	0.00e+00	0	43	0	3460300800	13	4300
2026-01-27 13:31:02.40	330.23	12.49	-26.8	-28.5	15.3	0.00e+00	0	43	0	3465543680	13	4392
2026-01-27 13:31:03.40	330.31	12.40	-27.0	-28.9	15.0	0.00e+00	0	43	0	3470786560	13	4523
2026-01-27 13:31:04.40	330.40	12.32	-27.3	-29.1	14.7	0.00e+00	0	43	0	3477078016	14	4466
2026-01-27 13:31:05.41	330.48	12.23	-27.3	-29.3	14.5	2.20e-06	0	43	0	3482320896	14	4517
2026-01-27 13:31:06.41	330.56	12.14	-27.1	-28.7	14.9	0.00e+00	0	43	0	3488612352	14	4332
2026-01-27 13:31:07.41	330.65	12.06	-26.9	-28.2	15.2	0.00e+00	0	43	0	3493855232	14	4213
2026-01-27 13:31:08.42	330.73	11.97	-26.7	-27.9	15.4	2.20e-06	0	43	0	3500146688	14	4127
2026-01-27 13:31:09.43	330.81	11.89	-26.8	-28.0	15.3	0.00e+00	0	43	0	3505389568	14	4156
2026-01-27 13:31:10.43	330.89	11.80	-26.8	-28.1	15.3	0.00e+00	0	43	0	3510632448	14	4186
2026-01-27 13:31:11.44	330.97	11.72	-26.8	-28.0	15.3	0.00e+00	0	43	0	3516923904	14	4164
2026-01-27 13:31:12.45	331.05	11.63	-26.7	-27.8	15.4	0.00e+00	0	43	0	3522166784	14	4108
2026-01-27 13:31:13.45	331.13	11.55	-26.7	-27.9	15.4	0.00e+00	0	43	0	3527409664	14	4119
2026-01-27 13:31:14.45	331.21	11.47	-26.7	-27.9	15.4	0.00e+00	0	43	0	3533701120	14	4128
2026-01-27 13:31:15.46	331.29	11.38	-26.7	-27.8	15.4	0.00e+00	0	43	0	3538944000	14	4100
2026-01-27 13:31:16.47	331.37	11.30	-26.7	-27.9	15.3	0.00e+00	0	43	0	3544186880	14	4137
2026-01-27 13:31:17.47	331.45	11.21	-26.7	-27.8	15.4	0.00e+00	0	43	0	3550478336	14	4104
2026-01-27 13:31:18.47	331.53	11.13	-26.7	-28.0	15.3	0.00e+00	0	43	0	3555721216	14	4146
2026-01-27 13:31:19.48	331.60	11.05	-26.8	-28.1	15.2	0.00e+00	0	43	0	3562012672	14	4180
2026-01-27 13:31:20.49	331.68	10.97	-26.8	-28.1	15.2	0.00e+00	0	43	0	3567255552	14	4170
2026-01-27 13:31:21.50	331.76	10.88	-26.7	-27.9	15.3	0.00e+00	0	43	0	3573547008	14	4141
2026-01-27 13:31:22.50	331.83	10.80	-26.8	-28.1	15.2	0.00e+00	0	43	0	3578789888	14	4180
2026-01-27 13:31:23.51	331.91	10.72	-26.7	-28.0	15.3	0.00e+00	0	43	0	3584032768	14	4149
2026-01-27 13:31:24.51	331.98	10.64	-26.8	-28.2	15.1	1.10e-06	0	43	0	3590324224	14	4201
2026-01-27 13:31:25.52	332.06	10.56	-26.8	-28.2	15.1	0.00e+00	0	43	0	3595567104	14	4209
2026-01-27 13:31:26.52	332.13	10.48	-26.8	-28.1	15.2	1.10e-06	0	43	0	3601858560	14	4172
2026-01-27 13:31:27.53	332.21	10.39	-26.9	-28.2	15.1	0.00e+00	0	43	0	3607101440	14	4218
2026-01-27 13:31:28.53	332.28	10.31	-26.9	-28.3	15.1	0.00e+00	0	43	0	3612344320	14	4232
2026-01-27 13:31:29.53	332.35	10.23	-26.8	-28.0	15.2	2.20e-06	0	43	0	3618635776	14	4164
2026-01-27 13:31:30.53	332.43	10.15	-26.9	-28.3	15.0	0.00e+00	0	43	0	3623878656	14	4250
2026-01-27 13:31:31.53	332.50	10.07	-26.9	-28.3	15.0	1.10e-06	0	43	0	3629121536	14	4245
2026-01-27 13:31:32.53	332.57	9.99	-27.0	-28.6	14.9	1.10e-06	0	43	0	3635412992	14	4317
2026-01-27 13:31:33.54	332.64	9.91	-27.0	-28.5	14.9	3.40e-06	0	43	0	3640655872	14	4290
2026-01-27 13:31:34.54	332.72	9.84	-27.0	-28.5	14.9	0.00e+00	0	43	0	3646947328	14	4287
2026-01-27 13:31:35.54	332.79	9.76	-27.0	-28.6	14.9	1.10e-06	0	43	0	3652190208	14	4307
2026-01-27 13:31:36.55	332.86	9.68	-27.0	-28.6	14.8	1.10e-06	0	43	0	3657433088	14	4326
2026-01-27 13:31:37.56	332.93	9.60	-27.1	-28.9	14.7	2.20e-06	0	43	0	3663724544	14	4408
2026-01-27 13:31:38.55	333.00	9.52	-27.1	-28.7	14.7	0.00e+00	0	43	0	3668967424	14	4356
2026-01-27 13:31:39.56	333.07	9.44	-27.1	-28.9	14.7	0.00e+00	0	43	0	3674210304	14	4395
2026-01-27 13:31:40.57	333.14	9.36	-27.0	-28.6	14.8	0.00e+00	0	43	0	3680501760	14	4330
2026-01-27 13:31:41.57	333.21	9.29	-27.1	-28.9	14.6	1.10e-06	0	43	0	3685744640	14	4398
2026-01-27 13:31:42.58	333.27	9.21	-27.2	-29.0	14.6	0.00e+00	0	43	0	3692036096	14	4427
2026-01-27 13:31:43.58	333.34	9.13	-27.2	-29.0	14.5	1.10e-06	0	43	0	3697278976	14	4448
2026-01-27 13:31:44.58	333.41	9.05	-27.2	-29.0	14.5	0.00e+00	0	43	0	3702521856	14	4443
2026-01-27 13:31:45.58	333.48	8.98	-27.3	-29.3	14.4	0.00e+00	0	43	0	3708813312	14	4518
2026-01-27 13:31:46.59	333.55	8.90	-27.2	-29.1	14.5	1.10e-06	0	43	0	3714056192	14	4456
2026-01-27 13:31:47.59	333.61	8.82	-27.2	-29.0	14.6	2.20e-06	0	43	0	3720347648	14	4422
2026-01-27 13:31:48.60	333.68	8.75	-27.2	-28.9	14.6	2.20e-06	0	43	0	3725590528	14	4417
2026-01-27 13:31:49.60	333.75	8.67	-27.4	-29.4	14.3	0.00e+00	0	43	0	3730833408	14	4560
2026-01-27 13:31:50.60	333.81	8.60	-27.4	-29.5	14.2	4.50e-06	0	43	0	3737124864	14	4580
2026-01-27 13:31:51.61	333.88	8.52	-27.4	-29.4	14.3	2.20e-06	0	43	0	3742367744	14	4557
2026-01-27 13:31:52.61	333.94	8.44	-27.4	-29.4	14.2	0.00e+00	0	43	0	3747610624	14	4551
2026-01-27 13:31:53.61	334.01	8.37	-27.5	-29.7	14.1	4.50e-06	0	43	0	3753902080	14	4630
2026-01-27 13:31:54.61	334.07	8.29	-27.4	-29.5	14.2	2.20e-06	0	43	0	3759144960	14	4575
2026-01-27 13:31:55.62	334.14	8.22	-27.5	-29.3	14.0	2.20e-06	0	43	0	3764387840	15	4403
2026-01-27 13:31:56.62	334.20	8.15	-27.7	-29.7	13.8	1.14e-05	0	43	0	3770679296	15	4521
2026-01-27 13:31:57.61	334.26	8.07	-27.7	-29.6	13.8	5.70e-06	0	43	0	3775922176	15	4489
2026-01-27 13:31:58.62	334.33	8.00	-27.8	-30.0	13.6	1.37e-05	0	43	0	3782213632	15	4615
2026-01-27 13:31:59.62	334.39	7.92	-27.7	-29.6	13.8	1.71e-05	0	43	0	3787456512	15	4490
2026-01-27 13:32:00.62	334.45	7.85	-27.6	-29.5	13.8	9.10e-06	0	43	0	3793747968	15	4478
2026-01-27 13:32:01.63	334.52	7.77	-27.4	-29.0	14.1	6.80e-06	0	43	0	3798990848	15	4323
2026-01-27 13:32:02.63	334.58	7.70	-27.3	-28.8	14.2	1.10e-06	0	43	0	3804233728	15	4286
2026-01-27 13:32:03.64	334.64	7.63	-27.3	-28.9	14.2	3.40e-06	0	43	0	3810525184	15	4288
2026-01-27 13:32:04.64	334.70	7.55	-27.6	-29.4	13.9	2.40e-05	0	43	0	3815768064	15	4436
2026-01-27 13:32:05.64	334.76	7.48	-27.6	-29.4	13.9	6.80e-06	0	43	0	3821010944	15	4440
2026-01-27 13:32:06.64	334.82	7.41	-27.5	-29.2	14.0	3.40e-06	0	43	0	3827302400	15	4399
2026-01-27 13:32:07.65	334.89	7.34	-27.5	-29.2	14.0	9.49e-05	0	43	0	3832545280	15	4398
2026-01-27 13:32:08.65	334.95	7.26	-27.4	-29.1	14.0	6.80e-06	0	43	0	3837788160	15	4355
2026-01-27 13:32:09.66	335.01	7.19	-27.5	-29.4	13.9	4.50e-06	0	43	0	3844079616	15	4442
