passes_logs/2026/01/27/R2M6_AANII_01/R2M6_AANII_01__20260127_002030_NOAA_21_JPSS-2_rec.log

#Pass ID: 20260127_002030_NOAA 21 (JPSS-2)
#Satellite: NOAA 21 (JPSS-2)
#Configuration: NOAA 21
#almurnet v.1.7.20240730
#Start time: 2026-01-27 00:23:56

#Version: 2.2.20231116
#Station: R2M6_AANII_01
#Location: 30.233357 lon 59.946436 lat
#TLE: 1 54234U 22150A   26026.43130734  .00000179  00000+0  10559-3 0  9998
#TLE: 2 54234  98.7509 327.1934 0000805 209.8356 150.2774 14.19539635166435

#Time	Az	El	Level	Level2	SNR	BER	BlckErr	Temp	State	Recorded	gain1	gain2
2026-01-27 00:23:56.39	18.81	31.99	-34.0	-53.7	3.8	7.44e-01	0	44	0	0	28	34770
2026-01-27 00:23:57.38	18.81	32.19	-34.3	-46.4	3.8	1.49e+00	0	44	104	0	28	14506
2026-01-27 00:23:58.39	18.81	32.40	-34.3	-46.5	3.8	1.49e+00	0	44	104	0	28	14571
2026-01-27 00:23:59.39	18.81	32.60	-34.3	-46.5	3.8	1.49e+00	0	44	104	0	28	14636
2026-01-27 00:24:00.39	18.82	32.81	-34.4	-46.6	3.8	1.49e+00	0	44	104	0	28	14753
2026-01-27 00:24:01.40	18.82	33.03	-34.4	-46.7	3.8	1.49e+00	0	44	104	0	28	14748
2026-01-27 00:24:02.40	18.82	33.24	-34.4	-46.7	3.8	1.49e+00	0	44	104	0	28	14750
2026-01-27 00:24:03.41	18.83	33.45	-34.4	-46.7	3.8	1.49e+00	0	44	104	0	28	14805
2026-01-27 00:24:04.41	18.83	33.67	-34.4	-46.6	3.8	1.49e+00	0	44	104	0	28	14698
2026-01-27 00:24:05.42	18.83	33.89	-34.3	-46.5	3.8	1.49e+00	0	44	104	0	28	14656
2026-01-27 00:24:06.43	18.83	34.11	-34.3	-46.5	3.8	1.49e+00	0	44	104	0	28	14660
2026-01-27 00:24:07.43	18.84	34.32	-34.3	-46.5	3.8	1.49e+00	0	44	104	0	28	14608
2026-01-27 00:24:08.44	18.84	34.55	-34.3	-46.4	3.8	1.49e+00	0	44	104	0	28	14573
2026-01-27 00:24:09.44	18.84	34.77	-34.3	-46.4	3.8	1.49e+00	0	44	104	0	28	14589
2026-01-27 00:24:10.45	18.84	35.00	-34.3	-46.4	3.8	1.49e+00	0	44	104	0	28	14547
2026-01-27 00:24:11.45	18.84	35.22	-34.3	-46.4	3.8	1.49e+00	0	44	104	0	28	14534
2026-01-27 00:24:12.46	18.85	35.45	-34.3	-46.3	3.8	1.49e+00	0	44	104	0	28	14471
2026-01-27 00:24:13.46	18.85	35.68	-34.3	-46.5	3.8	1.49e+00	0	44	104	0	28	14596
2026-01-27 00:24:14.47	18.85	35.91	-34.5	-46.8	3.8	1.49e+00	0	44	104	0	28	14865
2026-01-27 00:24:15.48	18.85	36.15	-34.6	-46.5	3.8	1.49e+00	0	44	104	0	29	14201
2026-01-27 00:24:16.49	18.86	36.38	-34.5	-46.4	3.8	1.49e+00	0	44	104	0	29	14106
2026-01-27 00:24:17.49	18.86	36.62	-34.5	-46.4	3.8	1.49e+00	0	44	104	0	29	14056
2026-01-27 00:24:18.49	18.86	36.86	-34.5	-46.4	3.8	1.49e+00	0	44	104	0	29	14095
2026-01-27 00:24:19.49	18.86	37.10	-34.4	-46.3	3.8	1.49e+00	0	44	104	0	29	14079
2026-01-27 00:24:20.50	18.86	37.34	-34.4	-46.2	3.8	1.49e+00	0	44	104	0	29	14032
2026-01-27 00:24:21.51	18.87	37.58	-34.4	-46.2	3.8	1.49e+00	0	44	104	0	29	14013
2026-01-27 00:24:22.51	18.87	37.83	-34.4	-46.2	3.8	1.49e+00	0	44	104	0	29	13930
2026-01-27 00:24:23.51	18.87	38.07	-34.4	-46.6	3.8	1.49e+00	0	44	104	0	28	14704
2026-01-27 00:24:24.52	18.87	38.33	-34.4	-46.4	3.8	1.49e+00	0	44	104	0	28	14482
2026-01-27 00:24:25.53	18.88	38.58	-34.3	-46.4	3.8	1.49e+00	0	44	104	0	28	14374
2026-01-27 00:24:26.53	18.88	38.83	-34.3	-46.3	3.8	1.49e+00	0	44	104	0	28	14304
2026-01-27 00:24:27.53	18.88	39.08	-34.3	-46.3	3.8	1.49e+00	0	44	104	0	28	14274
2026-01-27 00:24:28.54	18.88	39.34	-34.3	-46.2	3.8	1.49e+00	0	44	104	0	28	14196
2026-01-27 00:24:29.54	18.88	39.60	-34.3	-46.1	3.8	1.49e+00	0	44	104	0	28	14019
2026-01-27 00:24:30.54	18.88	39.86	-34.2	-45.8	3.8	1.49e+00	0	44	104	0	28	13563
2026-01-27 00:24:31.55	18.89	40.12	-34.2	-45.4	3.8	1.49e+00	0	44	104	0	28	13073
2026-01-27 00:24:32.55	18.89	40.39	-34.2	-45.2	3.8	1.49e+00	0	44	104	0	28	12744
2026-01-27 00:24:33.55	18.89	40.65	-34.2	-45.2	3.8	1.49e+00	0	44	104	0	28	12833
2026-01-27 00:24:34.55	18.89	40.92	-34.2	-45.6	3.8	1.49e+00	0	44	104	0	28	13349
2026-01-27 00:24:35.56	18.89	41.19	-34.3	-46.0	3.8	1.49e+00	0	44	104	0	28	13963
2026-01-27 00:24:36.56	18.89	41.46	-34.3	-46.3	3.8	1.49e+00	0	44	104	0	28	14350
2026-01-27 00:24:37.57	18.90	41.74	-33.8	-45.9	3.8	1.49e+00	0	44	104	0	27	14493
2026-01-27 00:24:38.57	18.90	42.01	-34.2	-46.0	3.9	1.49e+00	0	44	104	0	28	13893
2026-01-27 00:24:39.58	18.90	42.29	-34.2	-45.7	3.8	1.49e+00	0	44	104	0	28	13464
2026-01-27 00:24:40.58	18.90	42.57	-34.2	-45.8	3.8	1.49e+00	0	44	104	0	28	13626
2026-01-27 00:24:41.59	18.90	42.86	-34.3	-46.2	3.8	1.49e+00	0	44	104	0	28	14252
2026-01-27 00:24:42.59	18.90	43.14	-33.1	-44.7	3.8	1.49e+00	0	44	104	0	27	13636
2026-01-27 00:24:43.59	18.91	43.43	-34.0	-43.9	3.8	1.49e+00	0	44	104	0	28	11214
2026-01-27 00:24:44.60	18.91	43.72	-33.6	-41.7	4.0	1.48e+00	0	44	104	0	27	9081
2026-01-27 00:24:45.60	18.91	44.01	-32.9	-38.0	6.8	2.99e-01	0	44	0	0	26	6454
2026-01-27 00:24:46.61	18.91	44.31	-31.8	-35.2	9.4	3.24e-02	0	44	0	2097152	24	5329
2026-01-27 00:24:47.61	18.91	44.60	-30.6	-33.0	11.6	2.25e-03	0	44	0	5242880	22	4711
2026-01-27 00:24:48.62	18.91	44.90	-30.0	-32.3	12.7	1.71e-04	0	44	0	8388608	20	4675
2026-01-27 00:24:49.62	18.91	45.20	-30.1	-32.6	12.5	6.40e-05	0	44	0	11534336	20	4778
2026-01-27 00:24:50.63	18.91	45.51	-31.0	-34.0	11.0	6.37e-04	0	44	0	14680064	22	5064
2026-01-27 00:24:51.63	18.91	45.81	-31.7	-35.5	9.6	1.35e-02	0	44	0	17825792	23	5576
2026-01-27 00:24:52.64	18.92	46.12	-31.4	-34.5	10.2	9.10e-03	0	44	0	22020096	23	5170
2026-01-27 00:24:53.65	18.92	46.43	-31.6	-35.2	9.7	7.90e-03	0	44	0	24117248	23	5430
2026-01-27 00:24:54.65	18.92	46.74	-31.5	-34.9	9.9	1.04e-02	0	44	0	27262976	23	5313
2026-01-27 00:24:55.66	18.92	47.06	-31.1	-33.8	10.6	4.30e-03	0	44	0	30408704	23	4915
2026-01-27 00:24:56.66	18.92	47.37	-30.6	-33.0	11.5	1.46e-03	0	44	0	33554432	22	4703
2026-01-27 00:24:57.67	18.92	47.70	-30.2	-32.4	12.2	2.96e-04	0	44	0	36700160	21	4618
2026-01-27 00:24:58.67	18.92	48.02	-29.7	-31.5	13.0	4.32e-04	0	44	0	39845888	20	4458
2026-01-27 00:24:59.68	18.92	48.34	-29.3	-31.1	13.7	5.19e-04	0	44	0	42991616	19	4437
2026-01-27 00:25:00.69	18.92	48.67	-28.9	-30.3	14.1	1.36e-04	0	44	0	46137344	19	4195
2026-01-27 00:25:01.69	18.92	49.00	-28.8	-30.4	14.3	3.42e-04	0	44	0	49283072	18	4341
2026-01-27 00:25:02.70	18.92	49.33	-28.6	-30.0	14.6	2.89e-04	0	44	0	52428800	18	4229
2026-01-27 00:25:03.71	18.92	49.67	-28.5	-29.8	14.7	1.22e-05	0	44	0	55574528	18	4156
2026-01-27 00:25:04.71	18.92	50.00	-28.2	-29.6	15.1	2.59e-04	0	44	0	58720256	17	4207
2026-01-27 00:25:05.72	18.92	50.35	-28.1	-29.4	15.2	2.79e-04	0	44	0	61865984	17	4145
2026-01-27 00:25:06.72	18.92	50.69	-28.3	-29.7	15.1	7.00e-07	0	44	0	65011712	17	4227
2026-01-27 00:25:07.73	18.92	51.03	-28.2	-29.6	15.1	7.00e-07	0	44	0	68157440	17	4201
2026-01-27 00:25:08.74	18.92	51.38	-28.3	-29.7	15.1	2.10e-04	0	44	0	71303168	17	4235
2026-01-27 00:25:09.74	18.92	51.73	-28.3	-29.6	15.1	0.00e+00	0	44	0	74448896	17	4219
2026-01-27 00:25:10.75	18.92	52.08	-28.3	-29.6	15.1	1.88e-04	0	44	0	77594624	17	4222
2026-01-27 00:25:11.75	18.92	52.44	-28.5	-30.1	14.9	6.17e-05	0	44	0	80740352	17	4344
2026-01-27 00:25:12.75	18.92	52.79	-28.3	-29.8	15.0	5.56e-05	0	44	0	83886080	17	4267
2026-01-27 00:25:13.75	18.92	53.15	-28.2	-29.4	15.2	0.00e+00	0	44	0	87031808	17	4165
2026-01-27 00:25:14.76	18.92	53.52	-28.3	-29.8	15.0	8.77e-05	0	44	0	90177536	17	4279
2026-01-27 00:25:15.76	18.92	53.88	-28.2	-29.6	15.1	9.46e-05	0	44	0	93323264	17	4212
2026-01-27 00:25:16.76	18.91	54.24	-28.4	-30.0	14.9	0.00e+00	0	44	0	96468992	17	4338
2026-01-27 00:25:17.77	18.91	54.62	-28.3	-29.8	15.0	0.00e+00	0	44	0	99614720	17	4262
2026-01-27 00:25:18.78	18.91	54.99	-28.1	-29.4	15.3	0.00e+00	0	44	0	102760448	17	4164
2026-01-27 00:25:19.78	18.91	55.37	-28.0	-29.0	15.4	3.28e-05	0	44	0	105906176	17	4069
2026-01-27 00:25:20.78	18.91	55.74	-27.8	-28.7	15.6	1.50e-04	0	44	0	109051904	17	3979
2026-01-27 00:25:21.78	18.91	56.12	-28.0	-29.5	15.4	7.55e-05	0	44	0	112197632	16	4298
2026-01-27 00:25:22.79	18.90	56.51	-27.8	-29.1	15.6	0.00e+00	0	44	0	115343360	16	4200
2026-01-27 00:25:23.80	18.90	56.90	-27.9	-29.3	15.5	0.00e+00	0	44	0	118489088	16	4253
2026-01-27 00:25:24.81	18.90	57.29	-28.0	-29.7	15.4	0.00e+00	0	44	0	121634816	16	4347
2026-01-27 00:25:25.81	18.90	57.68	-28.2	-30.0	15.2	2.20e-06	0	44	0	124780544	16	4444
2026-01-27 00:25:26.81	18.89	58.07	-28.4	-30.5	14.9	8.77e-05	0	44	0	127926272	16	4610
2026-01-27 00:25:27.82	18.89	58.47	-28.3	-30.4	15.0	0.00e+00	0	44	0	131072000	16	4560
2026-01-27 00:25:28.82	18.89	58.87	-28.2	-30.0	15.2	0.00e+00	0	44	0	134217728	16	4449
2026-01-27 00:25:29.82	18.88	59.27	-28.0	-29.6	15.4	0.00e+00	0	44	0	137363456	16	4327
2026-01-27 00:25:30.83	18.88	59.68	-28.2	-30.0	15.2	0.00e+00	0	44	0	140509184	16	4442
2026-01-27 00:25:31.83	18.88	60.08	-28.0	-29.6	15.5	0.00e+00	0	44	0	143654912	16	4329
2026-01-27 00:25:32.83	18.87	60.49	-27.6	-28.7	15.9	0.00e+00	0	44	0	146800640	16	4072
2026-01-27 00:25:33.83	18.87	60.90	-27.3	-28.0	16.3	0.00e+00	0	44	0	149946368	16	3901
2026-01-27 00:25:34.83	18.86	61.32	-26.9	-27.6	16.6	0.00e+00	0	44	0	153092096	15	3917
2026-01-27 00:25:35.84	18.86	61.74	-26.7	-27.8	16.8	0.00e+00	0	44	0	156237824	14	4065
2026-01-27 00:25:36.84	18.85	62.16	-26.6	-27.5	16.9	0.00e+00	0	44	0	159383552	14	3996
2026-01-27 00:25:37.84	18.85	62.58	-26.6	-27.6	16.9	0.00e+00	0	44	0	162529280	14	4011
2026-01-27 00:25:38.85	18.84	63.01	-26.6	-27.5	16.9	0.00e+00	0	44	0	165675008	14	3984
2026-01-27 00:25:39.85	18.84	63.44	-26.4	-27.5	17.1	0.00e+00	0	44	0	168820736	13	4109
2026-01-27 00:25:40.85	18.83	63.87	-26.8	-28.4	16.7	7.00e-07	0	44	0	171966464	13	4349
2026-01-27 00:25:41.85	18.82	64.30	-26.6	-28.1	16.8	0.00e+00	0	44	0	175112192	13	4265
2026-01-27 00:25:42.86	18.82	64.74	-26.5	-27.9	17.0	0.00e+00	0	44	0	178257920	13	4204
2026-01-27 00:25:43.86	18.81	65.18	-26.3	-27.4	17.2	0.00e+00	0	44	0	181403648	13	4083
2026-01-27 00:25:44.87	18.80	65.62	-25.9	-26.5	17.6	0.00e+00	0	44	0	184549376	13	3862
2026-01-27 00:25:45.87	18.79	66.06	-26.0	-27.3	17.6	0.00e+00	0	44	0	187695104	12	4143
2026-01-27 00:25:46.87	18.78	66.51	-26.1	-27.3	17.5	4.50e-06	0	44	0	190840832	12	4162
2026-01-27 00:25:47.88	18.77	66.96	-26.4	-28.1	17.1	0.00e+00	0	44	0	193986560	12	4379
2026-01-27 00:25:48.87	18.76	67.40	-26.3	-27.4	17.2	0.00e+00	0	44	0	197132288	13	4073
2026-01-27 00:25:49.88	18.75	67.86	-26.1	-27.0	17.4	1.50e-06	0	44	0	200278016	13	3964
2026-01-27 00:25:50.88	18.74	68.32	-26.2	-27.7	17.3	0.00e+00	0	44	0	203423744	12	4272
2026-01-27 00:25:51.88	18.73	68.77	-26.2	-27.6	17.3	0.00e+00	0	44	0	206569472	12	4236
2026-01-27 00:25:52.88	18.72	69.23	-26.1	-27.4	17.4	2.20e-06	0	44	0	209715200	12	4176
2026-01-27 00:25:53.89	18.70	69.70	-26.0	-27.2	17.5	0.00e+00	0	44	0	212860928	12	4138
2026-01-27 00:25:54.88	18.69	70.16	-25.8	-26.7	17.9	0.00e+00	0	44	0	216006656	12	3993
2026-01-27 00:25:55.89	18.67	70.63	-25.6	-26.9	18.1	0.00e+00	0	44	0	219152384	11	4153
2026-01-27 00:25:56.89	18.65	71.10	-26.0	-27.6	17.7	0.00e+00	0	44	0	222298112	11	4344
2026-01-27 00:25:57.90	18.64	71.57	-25.7	-26.6	17.9	0.00e+00	0	44	0	225443840	12	3967
2026-01-27 00:25:58.90	18.62	72.04	-25.6	-26.2	18.1	0.00e+00	0	44	0	228589568	12	3884
2026-01-27 00:25:59.90	18.60	72.52	-25.7	-27.0	18.0	0.00e+00	0	44	0	231735296	11	4192
2026-01-27 00:26:00.90	18.57	73.00	-25.8	-27.3	17.8	0.00e+00	0	44	0	234881024	11	4253
2026-01-27 00:26:01.91	18.55	73.48	-26.2	-27.6	17.3	0.00e+00	0	44	0	238026752	12	4228
2026-01-27 00:26:02.92	18.53	73.97	-26.2	-27.6	17.4	0.00e+00	0	44	0	241172480	12	4236
2026-01-27 00:26:03.92	18.50	74.45	-26.1	-27.5	17.4	0.00e+00	0	44	0	244318208	12	4198
2026-01-27 00:26:04.92	18.47	74.93	-25.9	-27.0	17.6	0.00e+00	0	44	0	247463936	12	4077
2026-01-27 00:26:05.93	18.44	75.42	-26.4	-28.0	17.2	0.00e+00	0	44	0	250609664	12	4329
2026-01-27 00:26:06.93	18.40	75.91	-26.2	-27.7	17.3	0.00e+00	0	44	0	253755392	12	4257
2026-01-27 00:26:07.93	18.37	76.40	-26.2	-27.7	17.4	0.00e+00	0	44	0	256901120	12	4250
2026-01-27 00:26:08.94	18.33	76.90	-26.2	-27.6	17.3	0.00e+00	0	44	0	260046848	12	4244
2026-01-27 00:26:09.93	18.29	77.39	-25.9	-27.0	17.7	0.00e+00	0	44	0	263192576	12	4080
2026-01-27 00:26:10.94	18.24	77.89	-26.2	-27.6	17.4	0.00e+00	0	44	0	266338304	12	4219
2026-01-27 00:26:11.95	18.19	78.39	-26.4	-28.1	17.1	0.00e+00	0	44	0	269484032	12	4371
2026-01-27 00:26:12.95	18.13	78.89	-26.8	-28.4	16.7	0.00e+00	0	44	0	272629760	13	4327
2026-01-27 00:26:13.95	18.07	79.39	-26.7	-28.3	16.8	0.00e+00	0	44	0	275775488	13	4301
2026-01-27 00:26:14.96	18.00	79.89	-26.5	-27.7	17.1	0.00e+00	0	44	0	278921216	13	4155
2026-01-27 00:26:15.96	17.92	80.39	-26.2	-27.2	17.4	0.00e+00	0	44	0	282066944	13	4022
2026-01-27 00:26:16.97	17.83	80.90	-26.2	-27.1	17.4	0.00e+00	0	44	0	285212672	13	4009
2026-01-27 00:26:17.97	17.74	81.41	-26.4	-27.6	17.1	0.00e+00	0	44	0	288358400	13	4131
2026-01-27 00:26:18.97	17.63	81.91	-26.6	-28.1	17.0	0.00e+00	0	44	0	291504128	13	4249
2026-01-27 00:26:19.98	17.50	82.42	-26.5	-27.8	17.0	0.00e+00	0	44	0	294649856	13	4174
2026-01-27 00:26:20.98	17.36	82.93	-26.5	-27.8	17.0	0.00e+00	0	44	0	297795584	13	4176
2026-01-27 00:26:21.99	17.19	83.44	-26.9	-28.7	16.5	0.00e+00	0	44	0	300941312	13	4422
2026-01-27 00:26:22.99	16.99	83.95	-27.4	-29.3	16.0	0.00e+00	0	44	0	304087040	14	4472
2026-01-27 00:26:24.00	16.76	84.47	-27.5	-28.9	15.9	0.00e+00	0	44	0	307232768	15	4259
2026-01-27 00:26:25.01	16.47	84.98	-27.8	-29.6	15.5	0.00e+00	0	44	0	310378496	15	4449
2026-01-27 00:26:26.01	16.13	85.50	-28.4	-30.6	14.8	7.00e-07	0	44	0	313524224	16	4610
2026-01-27 00:26:27.01	15.69	86.01	-28.3	-30.2	15.0	0.00e+00	0	44	0	316669952	16	4495
2026-01-27 00:26:28.02	15.12	86.52	-28.3	-30.3	15.1	0.00e+00	0	44	0	319815680	16	4520
2026-01-27 00:26:29.02	14.35	87.04	-28.4	-30.1	14.9	7.70e-05	0	44	0	322961408	17	4343
2026-01-27 00:26:30.03	13.25	87.55	-28.4	-29.9	15.0	7.00e-07	0	44	0	326107136	17	4304
2026-01-27 00:26:31.04	11.55	88.07	-27.9	-28.8	15.6	0.00e+00	0	44	0	329252864	17	3986
2026-01-27 00:26:32.05	8.63	88.58	-28.1	-29.2	15.4	0.00e+00	0	44	0	332398592	17	4098
2026-01-27 00:26:33.05	2.53	89.08	-28.4	-29.9	15.2	0.00e+00	0	44	0	335544320	17	4276
2026-01-27 00:26:34.05	343.05	89.55	-27.8	-28.6	15.8	3.35e-05	0	44	0	338690048	17	3950
2026-01-27 00:26:35.06	259.50	89.69	-28.5	-30.2	14.8	1.64e-04	0	44	0	341835776	17	4363
2026-01-27 00:26:36.06	221.47	89.28	-31.4	-35.0	10.4	2.90e-03	0	44	0	344981504	22	5465
2026-01-27 00:26:37.06	212.40	88.78	-30.8	-33.1	11.0	1.02e-02	0	44	0	348127232	23	4673
2026-01-27 00:26:38.06	208.60	88.28	-29.4	-31.0	13.2	2.02e-04	0	44	0	351272960	20	4314
2026-01-27 00:26:39.06	206.53	87.77	-26.8	-27.5	16.4	2.03e-04	0	44	0	354418688	15	3905
2026-01-27 00:26:40.07	205.23	87.25	-27.1	-28.7	16.1	4.90e-04	0	44	0	357564416	14	4307
2026-01-27 00:26:41.07	204.35	86.74	-27.0	-28.4	16.1	5.20e-04	0	44	0	360710144	14	4245
2026-01-27 00:26:42.07	203.70	86.23	-26.8	-28.0	16.4	0.00e+00	0	44	0	363855872	14	4121
2026-01-27 00:26:43.08	203.21	85.71	-26.8	-28.0	16.4	5.15e-04	0	44	0	367001600	14	4114
2026-01-27 00:26:44.08	202.83	85.20	-26.4	-27.6	16.8	5.87e-04	0	44	0	370147328	13	4131
2026-01-27 00:26:45.08	202.52	84.69	-26.6	-27.9	16.7	0.00e+00	0	44	0	372244480	13	4215
2026-01-27 00:26:46.07	202.27	84.18	-26.9	-28.7	16.2	5.60e-04	0	44	0	375390208	13	4421
2026-01-27 00:26:47.08	202.06	83.67	-26.7	-28.3	16.5	4.42e-04	0	44	0	378535936	13	4324
2026-01-27 00:26:48.08	201.88	83.16	-26.6	-28.0	16.6	0.00e+00	0	44	0	381681664	13	4238
2026-01-27 00:26:49.08	201.73	82.65	-26.8	-28.4	16.4	3.43e-04	0	44	0	384827392	13	4352
2026-01-27 00:26:50.09	201.59	82.14	-27.4	-29.3	15.6	3.76e-04	0	44	0	387973120	14	4501
2026-01-27 00:26:51.10	201.48	81.63	-26.7	-27.8	16.4	0.00e+00	0	44	0	392167424	14	4092
2026-01-27 00:26:52.09	201.38	81.13	-26.5	-27.3	16.7	4.42e-04	0	44	0	395313152	14	3945
2026-01-27 00:26:53.09	201.28	80.62	-26.1	-27.0	17.1	0.00e+00	0	44	0	397410304	13	3987
2026-01-27 00:26:54.09	201.20	80.12	-26.0	-26.7	17.3	0.00e+00	0	44	0	400556032	13	3899
2026-01-27 00:26:55.10	201.13	79.61	-25.6	-26.4	17.6	7.31e-04	0	44	0	403701760	12	3933
2026-01-27 00:26:56.10	201.06	79.11	-26.0	-27.3	17.1	7.00e-04	0	44	0	406847488	12	4171
2026-01-27 00:26:57.10	201.01	78.61	-26.0	-27.3	17.2	0.00e+00	0	44	0	409993216	12	4164
2026-01-27 00:26:58.11	200.95	78.11	-26.4	-28.2	16.7	3.80e-06	0	44	0	413138944	12	4418
2026-01-27 00:26:59.12	200.90	77.61	-26.3	-27.9	16.9	8.64e-04	0	44	0	416284672	12	4347
2026-01-27 00:27:00.12	200.86	77.11	-26.6	-28.0	16.5	0.00e+00	0	44	0	419430400	13	4254
2026-01-27 00:27:01.12	200.81	76.62	-26.1	-27.0	17.1	6.88e-04	0	44	0	422576128	13	3993
2026-01-27 00:27:02.13	200.78	76.12	-25.9	-27.0	17.3	8.21e-04	0	44	0	425721856	12	4084
2026-01-27 00:27:03.13	200.74	75.63	-25.2	-26.0	18.2	0.00e+00	0	44	0	428867584	11	3950
2026-01-27 00:27:04.14	200.71	75.14	-24.9	-25.4	18.4	2.20e-06	0	44	0	432013312	11	3813
2026-01-27 00:27:05.14	200.68	74.65	-25.1	-26.4	18.2	0.00e+00	0	44	0	435159040	10	4152
2026-01-27 00:27:06.14	200.65	74.17	-25.4	-27.0	17.9	1.22e-05	0	44	0	438304768	10	4309
2026-01-27 00:27:07.14	200.62	73.69	-25.6	-26.8	17.8	3.55e-04	0	44	0	441450496	11	4155
2026-01-27 00:27:08.15	200.60	73.20	-25.6	-26.8	17.8	0.00e+00	0	44	0	444596224	11	4135
2026-01-27 00:27:09.14	200.58	72.73	-25.6	-26.9	17.6	0.00e+00	0	44	0	447741952	11	4175
2026-01-27 00:27:10.15	200.56	72.25	-25.3	-26.2	18.0	0.00e+00	0	44	0	450887680	11	3991
2026-01-27 00:27:11.16	200.54	71.77	-25.3	-26.1	18.0	1.59e-04	0	44	0	454033408	11	3983
2026-01-27 00:27:12.16	200.52	71.29	-25.8	-27.4	17.5	2.28e-05	0	44	0	457179136	11	4295
2026-01-27 00:27:13.17	200.50	70.82	-26.5	-28.0	16.5	0.00e+00	0	44	0	460324864	13	4247
2026-01-27 00:27:14.17	200.48	70.35	-26.8	-28.6	16.2	0.00e+00	0	44	0	463470592	13	4424
2026-01-27 00:27:15.17	200.47	69.89	-26.2	-27.2	16.9	0.00e+00	0	44	0	466616320	13	4044
2026-01-27 00:27:16.17	200.46	69.42	-25.4	-26.0	17.8	0.00e+00	0	44	0	469762048	12	3848
2026-01-27 00:27:17.18	200.44	68.96	-25.2	-26.1	18.1	1.33e-04	0	44	0	472907776	11	3971
2026-01-27 00:27:18.18	200.43	68.50	-25.2	-25.9	18.2	0.00e+00	0	44	0	476053504	11	3929
2026-01-27 00:27:19.18	200.42	68.04	-25.4	-26.3	18.0	0.00e+00	0	44	0	479199232	11	4033
2026-01-27 00:27:20.19	200.41	67.58	-26.1	-27.5	17.1	0.00e+00	0	44	0	482344960	12	4228
2026-01-27 00:27:21.19	200.39	67.13	-26.6	-28.2	16.4	0.00e+00	0	44	0	485490688	13	4287
2026-01-27 00:27:22.20	200.38	66.67	-27.1	-28.6	15.9	0.00e+00	0	44	0	488636416	14	4298
2026-01-27 00:27:23.20	200.37	66.23	-26.6	-27.5	16.4	0.00e+00	0	44	0	491782144	14	3996
2026-01-27 00:27:24.20	200.37	65.78	-26.0	-26.7	17.1	0.00e+00	0	44	0	494927872	13	3910
2026-01-27 00:27:25.19	200.36	65.35	-25.7	-26.5	17.6	0.00e+00	0	44	0	498073600	12	3976
2026-01-27 00:27:26.19	200.35	64.91	-25.5	-26.1	17.8	0.00e+00	0	44	0	501219328	12	3857
2026-01-27 00:27:27.20	200.34	64.46	-25.7	-26.9	17.6	0.00e+00	0	44	0	504365056	11	4177
2026-01-27 00:27:28.20	200.33	64.03	-26.4	-28.0	16.8	0.00e+00	0	44	0	507510784	12	4359
2026-01-27 00:27:29.20	200.33	63.60	-27.4	-29.4	15.6	0.00e+00	0	44	0	510656512	14	4517
2026-01-27 00:27:30.20	200.32	63.17	-27.7	-29.6	15.1	0.00e+00	0	44	0	513802240	15	4471
2026-01-27 00:27:31.20	200.32	62.74	-27.5	-29.1	15.1	0.00e+00	0	44	0	516947968	15	4316
2026-01-27 00:27:32.20	200.31	62.32	-27.5	-29.1	15.2	0.00e+00	0	44	0	520093696	15	4325
2026-01-27 00:27:33.20	200.30	61.89	-27.6	-29.2	15.2	0.00e+00	0	44	0	523239424	15	4360
2026-01-27 00:27:34.20	200.30	61.48	-27.1	-28.1	15.9	0.00e+00	0	44	0	526385152	15	4043
2026-01-27 00:27:35.20	200.29	61.06	-26.5	-27.3	16.6	0.00e+00	0	44	0	529530880	14	3955
2026-01-27 00:27:36.21	200.29	60.64	-26.4	-27.5	16.8	0.00e+00	0	44	0	532676608	13	4117
2026-01-27 00:27:37.22	200.29	60.23	-26.6	-28.1	16.4	0.00e+00	0	44	0	535822336	13	4256
2026-01-27 00:27:38.23	200.28	59.81	-27.3	-29.1	15.7	0.00e+00	0	44	0	538968064	14	4440
2026-01-27 00:27:39.22	200.28	59.41	-28.4	-30.6	14.5	0.00e+00	0	44	0	542113792	16	4651
2026-01-27 00:27:40.23	200.27	59.00	-28.2	-30.1	14.7	0.00e+00	0	44	0	545259520	16	4498
2026-01-27 00:27:41.23	200.27	58.60	-27.4	-28.9	15.3	0.00e+00	0	44	0	548405248	15	4279
2026-01-27 00:27:42.23	200.27	58.20	-27.1	-28.1	15.8	0.00e+00	0	44	0	551550976	15	4061
2026-01-27 00:27:43.23	200.26	57.81	-27.0	-28.5	16.0	0.00e+00	0	44	0	554696704	14	4259
2026-01-27 00:27:44.23	200.26	57.42	-27.1	-28.6	15.9	0.00e+00	0	44	0	557842432	14	4293
2026-01-27 00:27:45.24	200.26	57.02	-28.0	-30.2	14.7	0.00e+00	0	44	0	560988160	15	4659
2026-01-27 00:27:46.23	200.26	56.64	-28.2	-30.2	14.5	0.00e+00	0	44	0	564133888	16	4534
2026-01-27 00:27:47.23	200.25	56.25	-28.7	-30.9	13.9	7.00e-07	0	44	0	567279616	17	4608
2026-01-27 00:27:48.23	200.25	55.87	-29.3	-31.7	13.2	2.44e-05	0	44	0	570425344	18	4757
2026-01-27 00:27:49.23	200.25	55.49	-29.5	-31.8	12.8	4.57e-05	0	44	0	573571072	19	4684
2026-01-27 00:27:50.23	200.25	55.12	-29.9	-32.8	12.2	1.40e-04	0	44	0	576716800	19	5032
2026-01-27 00:27:51.24	200.25	54.74	-29.7	-31.9	12.4	3.23e-04	0	44	0	579862528	20	4626
2026-01-27 00:27:52.24	200.24	54.37	-28.4	-29.6	14.3	6.80e-06	0	44	0	583008256	18	4139
2026-01-27 00:27:53.24	200.24	54.00	-27.5	-28.6	15.5	0.00e+00	0	44	0	586153984	16	4062
2026-01-27 00:27:54.25	200.24	53.63	-27.3	-28.5	15.7	0.00e+00	0	44	0	589299712	15	4165
2026-01-27 00:27:55.26	200.24	53.26	-27.1	-28.7	15.9	0.00e+00	0	44	0	592445440	14	4335
2026-01-27 00:27:56.26	200.24	52.90	-27.5	-29.1	15.3	0.00e+00	0	44	0	595591168	15	4323
2026-01-27 00:27:57.27	200.24	52.54	-27.8	-29.7	14.9	0.00e+00	0	44	0	598736896	15	4508
2026-01-27 00:27:58.27	200.24	52.18	-28.5	-30.8	14.3	1.50e-06	0	44	0	601882624	16	4706
2026-01-27 00:27:59.27	200.24	51.83	-28.8	-31.1	13.8	5.30e-06	0	44	0	605028352	17	4686
2026-01-27 00:28:00.27	200.24	51.48	-28.8	-31.2	13.8	2.20e-06	0	44	0	608174080	17	4717
2026-01-27 00:28:01.27	200.24	51.13	-28.8	-31.1	13.8	5.30e-06	0	44	0	611319808	17	4699
2026-01-27 00:28:02.28	200.24	50.78	-29.3	-31.8	13.0	1.67e-05	0	44	0	614465536	18	4819
2026-01-27 00:28:03.28	200.23	50.44	-29.6	-32.0	12.7	9.61e-05	0	44	0	617611264	19	4764
2026-01-27 00:28:04.29	200.23	50.10	-29.4	-31.4	13.0	5.41e-05	0	44	0	620756992	19	4578
2026-01-27 00:28:05.30	200.23	49.76	-29.0	-31.1	13.4	1.75e-05	0	44	0	623902720	18	4579
2026-01-27 00:28:06.30	200.23	49.42	-28.7	-30.3	13.9	6.80e-06	0	44	0	627048448	18	4331
2026-01-27 00:28:07.30	200.23	49.09	-28.4	-30.0	14.4	1.50e-06	0	44	0	630194176	17	4346
2026-01-27 00:28:08.30	200.23	48.76	-28.4	-30.5	14.4	7.00e-07	0	44	0	633339904	16	4623
2026-01-27 00:28:09.31	200.23	48.43	-28.5	-30.3	14.2	1.50e-06	0	44	0	636485632	17	4447
2026-01-27 00:28:10.31	200.23	48.10	-28.9	-31.4	13.6	4.50e-06	0	44	0	639631360	17	4796
2026-01-27 00:28:11.31	200.23	47.78	-29.5	-31.9	12.7	4.57e-05	0	44	0	642777088	19	4744
2026-01-27 00:28:12.32	200.23	47.45	-29.8	-32.6	12.2	1.89e-04	0	44	0	645922816	19	4973
2026-01-27 00:28:13.32	200.24	47.14	-29.6	-32.2	12.6	1.39e-04	0	44	0	648019968	19	4815
2026-01-27 00:28:14.33	200.24	46.82	-29.4	-31.5	13.0	6.10e-05	0	44	0	651165696	19	4601
2026-01-27 00:28:15.34	200.24	46.50	-29.4	-31.4	13.0	4.19e-05	0	44	0	654311424	19	4566
2026-01-27 00:28:16.33	200.24	46.19	-29.3	-31.7	13.1	4.04e-05	0	44	0	657457152	18	4747
2026-01-27 00:28:17.34	200.24	45.88	-29.0	-31.0	13.5	1.14e-05	0	44	0	660602880	18	4542
2026-01-27 00:28:18.34	200.24	45.57	-29.3	-31.7	13.1	2.28e-05	0	44	0	664797184	18	4746
2026-01-27 00:28:19.35	200.24	45.27	-29.5	-31.9	12.4	1.42e-03	0	44	0	667942912	19	4726
2026-01-27 00:28:20.35	200.24	44.97	-29.5	-31.8	12.7	8.39e-05	0	44	0	671088640	19	4688
2026-01-27 00:28:21.35	200.24	44.67	-29.4	-32.2	12.7	7.40e-05	0	44	0	673185792	18	4923
2026-01-27 00:28:22.35	200.24	44.37	-29.4	-31.5	12.8	8.69e-05	0	44	0	676331520	19	4609
2026-01-27 00:28:23.36	200.24	44.07	-29.2	-31.4	13.2	3.43e-05	0	44	0	679477248	18	4681
2026-01-27 00:28:24.35	200.24	43.78	-28.8	-30.6	13.7	1.66e-04	0	44	0	682622976	18	4432
2026-01-27 00:28:25.36	200.24	43.49	-28.7	-30.7	13.9	2.20e-06	0	44	0	685768704	17	4578
2026-01-27 00:28:26.37	200.24	43.20	-28.5	-30.4	14.1	2.20e-06	0	44	0	688914432	17	4481
2026-01-27 00:28:27.37	200.25	42.91	-28.6	-30.7	13.9	3.00e-06	0	44	0	692060160	17	4548
2026-01-27 00:28:28.38	200.25	42.62	-28.9	-31.2	13.6	3.80e-06	0	44	0	695205888	17	4733
2026-01-27 00:28:29.39	200.25	42.34	-29.1	-31.3	13.2	6.71e-04	0	44	0	698351616	18	4654
2026-01-27 00:28:30.39	200.25	42.06	-29.2	-31.6	13.0	2.66e-04	0	44	0	701497344	18	4743
2026-01-27 00:28:31.40	200.25	41.78	-29.3	-31.7	13.1	1.06e-03	0	44	0	704643072	18	4769
2026-01-27 00:28:32.40	200.25	41.50	-29.3	-31.7	13.1	2.74e-05	0	44	0	707788800	18	4778
2026-01-27 00:28:33.41	200.25	41.23	-29.4	-32.0	12.9	4.34e-05	0	44	0	710934528	18	4861
2026-01-27 00:28:34.41	200.25	40.96	-29.3	-31.8	13.1	1.12e-03	0	44	0	714080256	18	4799
2026-01-27 00:28:35.42	200.26	40.68	-29.1	-31.4	13.4	6.35e-04	0	44	0	717225984	18	4658
2026-01-27 00:28:36.42	200.26	40.42	-29.1	-31.3	13.4	6.13e-04	0	44	0	720371712	18	4630
2026-01-27 00:28:37.42	200.26	40.15	-29.1	-31.4	13.4	2.13e-05	0	44	0	723517440	18	4652
2026-01-27 00:28:38.43	200.26	39.88	-29.2	-31.6	13.2	2.36e-05	0	44	0	726663168	18	4717
2026-01-27 00:28:39.43	200.26	39.62	-29.5	-31.8	12.8	6.97e-04	0	44	0	729808896	19	4694
2026-01-27 00:28:40.44	200.26	39.36	-29.5	-32.2	12.8	1.40e-03	0	44	0	732954624	18	4938
2026-01-27 00:28:41.45	200.26	39.10	-29.4	-32.2	12.8	7.90e-04	0	44	0	736100352	18	4925
2026-01-27 00:28:42.45	200.27	38.85	-29.3	-31.9	13.0	6.81e-04	0	44	0	739246080	18	4831
2026-01-27 00:28:43.46	200.27	38.59	-29.0	-31.0	13.6	7.56e-04	0	44	0	742391808	18	4533
2026-01-27 00:28:44.46	200.27	38.34	-28.5	-30.4	14.2	6.89e-04	0	44	0	745537536	17	4469
2026-01-27 00:28:45.47	200.27	38.08	-28.2	-29.8	14.5	4.62e-04	0	44	0	748683264	17	4285
2026-01-27 00:28:46.47	200.27	37.84	-28.2	-30.2	14.6	1.03e-03	0	44	0	751828992	16	4507
2026-01-27 00:28:47.47	200.27	37.59	-28.3	-30.3	14.5	5.07e-04	0	44	0	754974720	16	4537
2026-01-27 00:28:48.47	200.28	37.35	-28.0	-29.6	14.9	0.00e+00	0	44	0	758120448	16	4339
2026-01-27 00:28:49.48	200.28	37.10	-27.6	-29.4	15.1	1.22e-03	0	44	0	761266176	15	4413
2026-01-27 00:28:50.49	200.28	36.86	-27.8	-29.7	15.0	5.74e-04	0	44	0	764411904	15	4490
2026-01-27 00:28:51.49	200.28	36.62	-28.2	-30.2	14.6	7.56e-04	0	44	0	767557632	16	4530
2026-01-27 00:28:52.49	200.28	36.38	-28.4	-30.7	14.3	1.23e-03	0	44	0	770703360	16	4668
2026-01-27 00:28:53.50	200.29	36.14	-28.5	-30.9	14.1	5.25e-04	0	44	0	773849088	16	4729
2026-01-27 00:28:54.50	200.29	35.91	-28.3	-30.0	14.3	3.00e-06	0	44	0	776994816	17	4365
2026-01-27 00:28:55.50	200.29	35.68	-28.0	-29.8	14.8	0.00e+00	0	44	0	780140544	16	4398
2026-01-27 00:28:56.51	200.29	35.44	-27.8	-29.7	15.0	5.85e-04	0	44	0	783286272	15	4482
2026-01-27 00:28:57.51	200.29	35.22	-27.8	-29.9	14.8	5.49e-04	0	44	0	786432000	15	4556
2026-01-27 00:28:58.52	200.29	34.99	-27.9	-30.1	14.7	0.00e+00	0	44	0	789577728	15	4617
2026-01-27 00:28:59.52	200.30	34.76	-27.7	-29.5	15.0	7.00e-07	0	44	0	792723456	15	4443
2026-01-27 00:29:00.53	200.30	34.53	-27.5	-29.2	15.2	0.00e+00	0	44	0	795869184	15	4357
2026-01-27 00:29:01.54	200.30	34.31	-27.5	-29.1	15.2	7.85e-04	0	44	0	799014912	15	4324
2026-01-27 00:29:02.54	200.30	34.09	-27.5	-29.2	15.1	4.16e-04	0	44	0	802160640	15	4350
2026-01-27 00:29:03.55	200.30	33.87	-27.6	-29.4	15.1	0.00e+00	0	44	0	805306368	15	4423
2026-01-27 00:29:04.55	200.31	33.65	-27.7	-29.5	15.0	0.00e+00	0	44	0	808452096	15	4457
2026-01-27 00:29:05.56	200.31	33.43	-27.8	-29.7	14.8	0.00e+00	0	44	0	811597824	15	4513
2026-01-27 00:29:06.56	200.31	33.22	-27.8	-29.7	14.9	0.00e+00	0	44	0	814743552	15	4516
2026-01-27 00:29:07.56	200.31	33.00	-27.6	-29.3	15.1	5.48e-04	0	44	0	817889280	15	4382
2026-01-27 00:29:08.57	200.32	32.79	-27.6	-29.3	15.1	0.00e+00	0	44	0	821035008	15	4387
2026-01-27 00:29:09.57	200.32	32.58	-27.5	-29.1	15.2	0.00e+00	0	44	0	824180736	15	4329
2026-01-27 00:29:10.57	200.32	32.37	-27.3	-29.3	15.4	0.00e+00	0	44	0	827326464	14	4493
2026-01-27 00:29:11.57	200.32	32.16	-27.3	-29.1	15.5	0.00e+00	0	44	0	830472192	14	4450
2026-01-27 00:29:12.58	200.32	31.96	-27.3	-29.2	15.4	0.00e+00	0	44	0	833617920	14	4487
2026-01-27 00:29:13.58	200.33	31.75	-27.3	-29.2	15.4	0.00e+00	0	44	0	836763648	14	4478
2026-01-27 00:29:14.59	200.33	31.55	-27.2	-29.1	15.5	0.00e+00	0	44	0	839909376	14	4436
2026-01-27 00:29:15.59	200.33	31.35	-27.4	-29.4	15.3	7.00e-07	0	44	0	843055104	14	4532
2026-01-27 00:29:16.60	200.33	31.14	-27.3	-29.3	15.4	0.00e+00	0	44	0	846200832	14	4491
2026-01-27 00:29:17.60	200.33	30.94	-27.5	-29.6	15.2	7.00e-07	0	44	0	849346560	14	4594
2026-01-27 00:29:18.61	200.34	30.74	-27.5	-29.1	15.2	0.00e+00	0	44	0	852492288	15	4323
2026-01-27 00:29:19.61	200.34	30.55	-27.4	-29.4	15.3	0.00e+00	0	44	0	855638016	14	4539
2026-01-27 00:29:20.61	200.34	30.35	-27.4	-29.4	15.3	0.00e+00	0	44	0	858783744	14	4539
2026-01-27 00:29:21.61	200.34	30.16	-27.5	-29.2	15.1	0.00e+00	0	44	0	861929472	15	4358
2026-01-27 00:29:22.62	200.35	29.97	-27.5	-29.2	15.1	0.00e+00	0	44	0	865075200	15	4381
2026-01-27 00:29:23.62	200.35	29.78	-27.5	-29.2	15.1	0.00e+00	0	44	0	868220928	15	4365
2026-01-27 00:29:24.62	200.35	29.59	-27.7	-29.7	14.8	0.00e+00	0	44	0	871366656	15	4511
2026-01-27 00:29:25.63	200.35	29.40	-27.8	-29.9	14.7	0.00e+00	0	44	0	874512384	15	4568
2026-01-27 00:29:26.63	200.36	29.21	-27.9	-30.0	14.7	7.00e-07	0	44	0	877658112	15	4610
2026-01-27 00:29:27.63	200.36	29.02	-27.7	-29.7	14.8	0.00e+00	0	44	0	880803840	15	4528
2026-01-27 00:29:28.64	200.36	28.84	-27.4	-29.0	15.2	0.00e+00	0	44	0	883949568	15	4311
2026-01-27 00:29:29.64	200.36	28.65	-27.1	-28.3	15.6	6.10e-06	0	44	0	887095296	15	4136
2026-01-27 00:29:30.65	200.37	28.47	-26.9	-28.4	15.8	0.00e+00	0	44	0	890241024	14	4249
2026-01-27 00:29:31.65	200.37	28.29	-26.8	-28.5	16.0	0.00e+00	0	44	0	893386752	13	4397
2026-01-27 00:29:32.66	200.37	28.11	-26.9	-28.8	15.8	9.90e-06	0	44	0	896532480	13	4471
2026-01-27 00:29:33.67	200.37	27.93	-26.7	-28.5	16.0	0.00e+00	0	44	0	899678208	13	4384
2026-01-27 00:29:34.68	200.37	27.75	-26.5	-28.0	16.2	0.00e+00	0	44	0	902823936	13	4264
2026-01-27 00:29:35.68	200.38	27.57	-26.5	-28.0	16.2	0.00e+00	0	44	0	905969664	13	4253
2026-01-27 00:29:36.69	200.38	27.39	-26.6	-28.1	16.1	0.00e+00	0	44	0	909115392	13	4297
2026-01-27 00:29:37.69	200.38	27.22	-26.5	-27.9	16.3	0.00e+00	0	44	0	912261120	13	4232
2026-01-27 00:29:38.69	200.38	27.05	-26.4	-28.3	16.3	3.00e-06	0	44	0	915406848	12	4464
2026-01-27 00:29:39.70	200.39	26.87	-26.5	-28.4	16.2	0.00e+00	0	44	0	918552576	12	4475
2026-01-27 00:29:40.70	200.39	26.70	-26.4	-28.1	16.3	0.00e+00	0	44	0	921698304	12	4419
2026-01-27 00:29:41.70	200.39	26.53	-26.5	-28.4	16.2	0.00e+00	0	44	0	924844032	12	4479
2026-01-27 00:29:42.70	200.39	26.36	-26.5	-27.9	16.2	0.00e+00	0	44	0	927989760	13	4232
2026-01-27 00:29:43.70	200.40	26.20	-26.3	-28.1	16.4	0.00e+00	0	44	0	931135488	12	4403
2026-01-27 00:29:44.71	200.40	26.03	-26.3	-27.9	16.4	0.00e+00	0	44	0	934281216	12	4350
2026-01-27 00:29:45.71	200.40	25.86	-26.2	-27.9	16.5	0.00e+00	0	44	0	937426944	12	4344
2026-01-27 00:29:46.71	200.40	25.70	-26.4	-28.2	16.3	0.00e+00	0	44	0	940572672	12	4427
2026-01-27 00:29:47.72	200.41	25.53	-26.3	-28.1	16.4	0.00e+00	0	44	0	943718400	12	4396
2026-01-27 00:29:48.72	200.41	25.37	-26.2	-27.8	16.5	0.00e+00	0	44	0	946864128	12	4318
2026-01-27 00:29:49.73	200.41	25.21	-26.3	-27.9	16.5	0.00e+00	0	44	0	950009856	12	4354
2026-01-27 00:29:50.74	200.41	25.04	-26.3	-27.9	16.5	0.00e+00	0	44	0	953155584	12	4348
2026-01-27 00:29:51.74	200.42	24.88	-26.3	-28.0	16.5	0.00e+00	0	44	0	956301312	12	4364
2026-01-27 00:29:52.75	200.42	24.72	-26.2	-27.7	16.6	0.00e+00	0	44	0	959447040	12	4299
2026-01-27 00:29:53.75	200.42	24.57	-26.2	-27.7	16.6	0.00e+00	0	44	0	962592768	12	4292
2026-01-27 00:29:54.75	200.43	24.41	-26.2	-27.7	16.6	0.00e+00	0	44	0	965738496	12	4296
2026-01-27 00:29:55.76	200.43	24.25	-26.1	-27.6	16.6	0.00e+00	0	44	0	968884224	12	4257
2026-01-27 00:29:56.76	200.43	24.10	-26.1	-27.4	16.7	0.00e+00	0	44	0	972029952	12	4217
2026-01-27 00:29:57.77	200.43	23.94	-26.1	-27.6	16.6	0.00e+00	0	44	0	975175680	12	4272
2026-01-27 00:29:58.77	200.44	23.79	-26.2	-27.7	16.6	0.00e+00	0	44	0	978321408	12	4288
2026-01-27 00:29:59.78	200.44	23.64	-25.5	-27.1	16.2	0.00e+00	0	44	0	981467136	12	4320
2026-01-27 00:30:00.78	200.44	23.48	-26.2	-27.7	14.8	0.00e+00	0	44	0	984612864	12	4288
2026-01-27 00:30:01.78	200.44	23.33	-25.5	-27.0	14.8	0.00e+00	0	44	0	987758592	12	4303
2026-01-27 00:30:02.79	200.45	23.18	-26.2	-27.8	16.4	0.00e+00	0	44	0	990904320	12	4311
2026-01-27 00:30:03.79	200.45	23.03	-26.2	-27.7	14.2	0.00e+00	0	44	0	994050048	12	4298
2026-01-27 00:30:04.80	200.45	22.88	-26.3	-27.9	16.5	0.00e+00	0	44	0	997195776	12	4337
2026-01-27 00:30:05.80	200.45	22.74	-26.2	-27.8	16.5	2.70e-03	0	44	0	1000341504	12	4318
2026-01-27 00:30:06.80	200.46	22.59	-26.3	-27.9	16.5	0.00e+00	0	44	0	1003487232	12	4351
2026-01-27 00:30:07.80	200.46	22.45	-26.3	-28.0	16.4	0.00e+00	0	44	0	1006632960	12	4385
2026-01-27 00:30:08.81	200.46	22.30	-26.4	-28.1	16.3	0.00e+00	0	44	0	1009778688	12	4408
2026-01-27 00:30:09.81	200.46	22.16	-26.5	-28.3	16.2	0.00e+00	0	44	0	1012924416	12	4465
2026-01-27 00:30:10.81	200.47	22.01	-26.4	-28.3	16.2	2.39e-03	0	44	0	1016070144	12	4447
2026-01-27 00:30:11.82	200.47	21.87	-26.5	-28.0	16.1	2.16e-03	0	44	0	1019215872	13	4255
2026-01-27 00:30:12.81	200.47	21.73	-26.6	-28.2	16.0	0.00e+00	0	44	0	1022361600	13	4321
2026-01-27 00:30:13.81	200.48	21.59	-26.6	-28.3	16.0	0.00e+00	0	44	0	1025507328	13	4337
2026-01-27 00:30:14.82	200.48	21.45	-26.7	-28.5	15.8	1.75e-03	0	44	0	1028653056	13	4406
2026-01-27 00:30:15.82	200.48	21.31	-26.8	-28.6	15.7	3.65e-03	0	44	0	1031798784	13	4444
2026-01-27 00:30:16.82	200.48	21.17	-26.9	-28.9	15.6	2.17e-03	0	44	0	1034944512	13	4524
2026-01-27 00:30:17.82	200.49	21.04	-26.9	-28.9	15.5	0.00e+00	0	44	0	1038090240	13	4531
2026-01-27 00:30:18.83	200.49	20.90	-26.9	-28.8	15.7	0.00e+00	0	44	0	1041235968	13	4482
2026-01-27 00:30:19.83	200.49	20.76	-26.8	-28.6	15.7	0.00e+00	0	44	0	1043333120	13	4445
2026-01-27 00:30:20.83	200.49	20.63	-26.8	-28.6	15.8	1.67e-03	0	44	0	1046478848	13	4432
2026-01-27 00:30:21.84	200.50	20.49	-26.8	-28.6	15.8	3.20e-03	0	44	0	1049624576	13	4428
2026-01-27 00:30:22.84	200.50	20.36	-26.8	-28.6	15.7	1.91e-03	0	44	0	1053818880	13	4438
2026-01-27 00:30:23.85	200.50	20.22	-26.9	-28.8	15.6	1.02e-03	0	44	0	1056964608	13	4487
2026-01-27 00:30:24.86	200.50	20.09	-26.9	-28.8	15.6	2.44e-03	0	44	0	1060110336	13	4507
2026-01-27 00:30:25.86	200.51	19.96	-27.0	-29.0	15.5	1.77e-03	0	44	0	1063256064	13	4551
2026-01-27 00:30:26.87	200.51	19.82	-26.9	-28.4	15.6	1.42e-03	0	44	0	1065353216	14	4266
2026-01-27 00:30:27.88	200.51	19.69	-27.0	-29.0	15.5	3.48e-03	0	44	0	1068498944	13	4558
2026-01-27 00:30:28.88	200.52	19.56	-27.0	-29.0	15.5	1.58e-03	0	44	0	1071644672	13	4543
2026-01-27 00:30:29.88	200.52	19.44	-27.0	-28.7	15.4	1.78e-03	0	44	0	1074790400	14	4337
2026-01-27 00:30:30.89	200.52	19.31	-27.0	-29.0	15.5	2.96e-03	0	44	0	1077936128	13	4547
2026-01-27 00:30:31.88	200.52	19.18	-26.9	-28.8	15.5	1.36e-03	0	44	0	1081081856	13	4504
2026-01-27 00:30:32.89	200.53	19.05	-26.8	-28.7	15.6	1.76e-03	0	44	0	1084227584	13	4467
2026-01-27 00:30:33.89	200.53	18.93	-26.9	-28.9	15.5	3.18e-03	0	44	0	1088421888	13	4519
2026-01-27 00:30:34.89	200.53	18.80	-26.9	-28.8	15.6	1.14e-05	0	44	0	1090519040	13	4482
2026-01-27 00:30:35.90	200.54	18.67	-26.9	-28.8	15.6	1.92e-03	0	44	0	1093664768	13	4498
2026-01-27 00:30:36.91	200.54	18.55	-26.9	-28.9	15.5	2.68e-03	0	44	0	1096810496	13	4511
2026-01-27 00:30:37.92	200.54	18.42	-27.0	-28.7	15.4	7.19e-04	0	44	0	1099956224	14	4338
2026-01-27 00:30:38.92	200.54	18.30	-27.2	-29.1	15.1	1.75e-03	0	44	0	1103101952	14	4468
2026-01-27 00:30:39.92	200.55	18.18	-27.1	-28.8	15.3	0.00e+00	0	44	0	1106247680	14	4382
2026-01-27 00:30:40.93	200.55	18.05	-27.0	-28.5	15.4	8.30e-06	0	44	0	1109393408	14	4307
2026-01-27 00:30:41.93	200.55	17.93	-27.0	-29.0	15.4	1.69e-03	0	44	0	1112539136	13	4559
2026-01-27 00:30:42.93	200.55	17.81	-27.1	-28.7	15.3	2.44e-03	0	44	0	1115684864	14	4360
2026-01-27 00:30:43.94	200.56	17.69	-27.2	-29.0	15.1	7.26e-04	0	44	0	1118830592	14	4441
2026-01-27 00:30:44.94	200.56	17.57	-27.2	-29.0	15.2	0.00e+00	0	44	0	1121976320	14	4426
2026-01-27 00:30:45.95	200.56	17.45	-27.1	-28.9	15.2	0.00e+00	0	44	0	1125122048	14	4398
2026-01-27 00:30:46.95	200.57	17.33	-27.2	-29.0	15.1	0.00e+00	0	44	0	1128267776	14	4450
2026-01-27 00:30:47.94	200.57	17.22	-27.2	-29.1	15.1	2.14e-03	0	44	0	1131413504	14	4477
2026-01-27 00:30:48.94	200.57	17.10	-27.3	-29.2	15.0	5.55e-04	0	44	0	1134559232	14	4501
2026-01-27 00:30:49.95	200.57	16.98	-27.3	-29.3	15.0	1.14e-05	0	44	0	1137704960	14	4519
2026-01-27 00:30:50.96	200.58	16.86	-27.4	-29.6	14.8	0.00e+00	0	44	0	1140850688	14	4602
2026-01-27 00:30:51.95	200.58	16.75	-27.4	-29.4	14.9	0.00e+00	0	44	0	1143996416	14	4572
2026-01-27 00:30:52.95	200.58	16.64	-27.4	-29.4	14.9	7.00e-07	0	44	0	1147142144	14	4570
2026-01-27 00:30:53.96	200.59	16.52	-27.4	-29.6	14.8	0.00e+00	0	44	0	1150287872	14	4600
2026-01-27 00:30:54.97	200.59	16.41	-27.5	-29.3	14.7	0.00e+00	0	44	0	1153433600	15	4408
2026-01-27 00:30:55.97	200.59	16.29	-27.5	-29.2	14.7	1.50e-06	0	44	0	1156579328	15	4380
2026-01-27 00:30:56.98	200.59	16.18	-27.5	-29.2	14.7	7.00e-07	0	44	0	1159725056	15	4375
2026-01-27 00:30:57.98	200.60	16.07	-27.4	-29.6	14.7	7.00e-07	0	44	0	1162870784	14	4619
2026-01-27 00:30:58.98	200.60	15.95	-27.5	-29.7	14.7	1.29e-05	0	44	0	1166016512	14	4652
2026-01-27 00:30:59.99	200.60	15.84	-27.5	-29.3	14.6	7.00e-07	0	44	0	1169162240	15	4418
2026-01-27 00:31:00.98	200.60	15.73	-27.5	-29.4	14.6	0.00e+00	0	44	0	1172307968	15	4438
2026-01-27 00:31:01.98	200.61	15.62	-27.7	-29.6	14.4	0.00e+00	0	44	0	1175453696	15	4511
2026-01-27 00:31:02.98	200.61	15.51	-27.8	-29.9	14.3	1.50e-06	0	44	0	1178599424	15	4597
2026-01-27 00:31:03.99	200.61	15.40	-27.7	-29.7	14.4	0.00e+00	0	44	0	1181745152	15	4539
2026-01-27 00:31:04.99	200.62	15.29	-27.8	-30.0	14.2	3.00e-06	0	44	0	1184890880	15	4643
2026-01-27 00:31:05.99	200.62	15.18	-27.8	-29.9	14.3	2.20e-06	0	44	0	1188036608	15	4594
2026-01-27 00:31:06.99	200.62	15.08	-27.9	-30.2	14.1	3.00e-06	0	44	0	1191182336	15	4680
2026-01-27 00:31:08.00	200.62	14.97	-27.8	-30.0	14.2	7.00e-07	0	44	0	1194328064	15	4643
2026-01-27 00:31:09.01	200.63	14.86	-27.9	-30.3	14.0	1.50e-06	0	44	0	1197473792	15	4714
2026-01-27 00:31:10.01	200.63	14.75	-27.9	-30.3	14.0	2.20e-06	0	44	0	1200619520	15	4714
2026-01-27 00:31:11.01	200.63	14.65	-27.8	-30.0	14.2	7.00e-07	0	44	0	1203765248	15	4632
2026-01-27 00:31:12.02	200.64	14.54	-27.7	-29.8	14.3	7.00e-07	0	44	0	1206910976	15	4577
2026-01-27 00:31:13.02	200.64	14.44	-27.7	-29.8	14.3	1.50e-06	0	44	0	1210056704	15	4560
2026-01-27 00:31:14.03	200.64	14.33	-27.7	-29.9	14.2	2.20e-06	0	44	0	1213202432	15	4591
2026-01-27 00:31:15.03	200.64	14.23	-27.8	-30.0	14.1	5.30e-06	0	44	0	1216348160	15	4647
2026-01-27 00:31:16.03	200.65	14.12	-27.9	-30.3	14.0	1.50e-06	0	44	0	1219493888	15	4727
2026-01-27 00:31:17.03	200.65	14.02	-27.8	-30.0	14.1	2.20e-06	0	44	0	1222639616	15	4651
2026-01-27 00:31:18.04	200.65	13.92	-27.8	-30.1	14.1	1.50e-06	0	44	0	1225785344	15	4664
2026-01-27 00:31:19.04	200.66	13.81	-27.9	-30.3	13.9	1.50e-06	0	44	0	1228931072	15	4735
2026-01-27 00:31:20.05	200.66	13.71	-27.8	-30.1	14.1	2.20e-06	0	44	0	1232076800	15	4670
2026-01-27 00:31:21.05	200.66	13.61	-27.8	-30.1	14.1	7.00e-07	0	44	0	1235222528	15	4664
2026-01-27 00:31:22.05	200.66	13.51	-28.2	-30.3	13.8	4.50e-06	0	44	0	1238368256	16	4605
2026-01-27 00:31:23.06	200.67	13.41	-28.1	-30.1	13.9	3.00e-06	0	44	0	1241513984	16	4545
2026-01-27 00:31:24.05	200.67	13.31	-28.0	-30.0	14.0	7.00e-07	0	44	0	1244659712	16	4507
2026-01-27 00:31:25.05	200.67	13.21	-27.9	-30.2	14.0	4.50e-06	0	44	0	1247805440	15	4693
2026-01-27 00:31:26.06	200.68	13.11	-27.9	-30.2	13.9	4.50e-06	0	44	0	1250951168	15	4710
2026-01-27 00:31:27.06	200.68	13.01	-27.9	-30.3	13.9	3.80e-06	0	44	0	1254096896	15	4717
2026-01-27 00:31:28.07	200.68	12.91	-28.0	-30.4	13.8	3.80e-06	0	44	0	1257242624	15	4770
2026-01-27 00:31:29.07	200.68	12.81	-27.9	-30.3	13.8	6.10e-06	0	44	0	1260388352	15	4745
2026-01-27 00:31:30.07	200.69	12.71	-27.8	-30.1	14.0	7.00e-07	0	44	0	1263534080	15	4660
2026-01-27 00:31:31.07	200.69	12.62	-27.8	-30.0	14.0	7.00e-07	0	44	0	1266679808	15	4651
2026-01-27 00:31:32.07	200.69	12.52	-27.9	-30.2	13.9	1.50e-06	0	44	0	1269825536	15	4703
2026-01-27 00:31:33.08	200.70	12.42	-27.8	-30.1	14.0	4.50e-06	0	44	0	1272971264	15	4654
2026-01-27 00:31:34.08	200.70	12.32	-27.8	-30.1	14.0	1.50e-06	0	44	0	1276116992	15	4658
2026-01-27 00:31:35.08	200.70	12.23	-27.9	-30.3	13.8	6.10e-06	0	44	0	1279262720	15	4733
2026-01-27 00:31:36.08	200.70	12.13	-27.8	-30.0	14.0	7.00e-07	0	44	0	1282408448	15	4655
2026-01-27 00:31:37.09	200.71	12.04	-27.8	-30.1	14.0	2.20e-06	0	44	0	1285554176	15	4670
2026-01-27 00:31:38.09	200.71	11.94	-27.8	-30.1	13.9	4.50e-06	0	44	0	1288699904	15	4670
2026-01-27 00:31:39.10	200.71	11.85	-27.8	-30.1	13.9	3.00e-06	0	44	0	1291845632	15	4681
2026-01-27 00:31:40.09	200.72	11.75	-28.2	-30.4	13.6	8.30e-06	0	44	0	1294991360	16	4648
2026-01-27 00:31:41.09	200.72	11.66	-28.1	-30.2	13.7	6.10e-06	0	44	0	1298137088	16	4598
2026-01-27 00:31:42.09	200.72	11.57	-28.1	-30.1	13.8	2.20e-06	0	44	0	1301282816	16	4540
2026-01-27 00:31:43.10	200.72	11.47	-27.9	-30.2	13.9	2.20e-06	0	44	0	1304428544	15	4709
2026-01-27 00:31:44.10	200.73	11.38	-27.9	-30.3	13.8	3.00e-06	0	44	0	1307574272	15	4731
2026-01-27 00:31:45.11	200.73	11.29	-28.2	-30.4	13.6	5.30e-06	0	44	0	1310720000	16	4642
2026-01-27 00:31:46.11	200.73	11.20	-28.1	-30.2	13.7	3.80e-06	0	44	0	1313865728	16	4595
2026-01-27 00:31:47.11	200.74	11.10	-28.1	-30.1	13.8	6.10e-06	0	44	0	1317011456	16	4556
2026-01-27 00:31:48.12	200.74	11.01	-28.2	-30.4	13.6	8.30e-06	0	44	0	1320157184	16	4636
2026-01-27 00:31:49.12	200.74	10.92	-28.1	-30.3	13.7	2.74e-05	0	44	0	1323302912	16	4606
2026-01-27 00:31:50.12	200.74	10.83	-28.2	-30.3	13.6	7.60e-06	0	44	0	1326448640	16	4632
2026-01-27 00:31:51.12	200.75	10.74	-28.3	-30.7	13.4	9.90e-06	0	44	0	1329594368	16	4758
2026-01-27 00:31:52.12	200.75	10.65	-28.3	-30.7	13.4	9.90e-06	0	44	0	1332740096	16	4732
2026-01-27 00:31:53.13	200.75	10.56	-28.4	-30.8	13.3	9.10e-06	0	44	0	1335885824	16	4783
2026-01-27 00:31:54.13	200.76	10.47	-28.4	-31.0	13.2	2.82e-05	0	44	0	1339031552	16	4837
2026-01-27 00:31:55.13	200.76	10.38	-28.4	-31.0	13.2	4.19e-05	0	44	0	1341128704	16	4827
2026-01-27 00:31:56.14	200.76	10.29	-28.4	-30.8	13.3	1.83e-05	0	44	0	1344274432	16	4792
2026-01-27 00:31:57.15	200.76	10.20	-28.4	-30.8	13.3	2.67e-05	0	44	0	1348468736	16	4790
2026-01-27 00:31:58.15	200.77	10.12	-28.4	-31.0	13.2	3.66e-05	0	44	0	1351614464	16	4846
2026-01-27 00:31:59.16	200.77	10.03	-28.6	-31.0	12.8	4.11e-05	0	44	0	1354760192	17	4746
2026-01-27 00:32:00.16	200.77	9.94	-28.4	-30.5	13.1	2.74e-05	0	44	0	1357905920	17	4572
2026-01-27 00:32:01.17	200.78	9.85	-28.4	-30.4	13.2	3.89e-05	0	44	0	1361051648	17	4539
2026-01-27 00:32:02.18	200.78	9.76	-28.4	-30.9	13.2	2.14e-03	0	44	0	1364197376	16	4818
2026-01-27 00:32:03.18	200.78	9.68	-28.3	-30.8	13.2	2.21e-05	0	44	0	1366294528	16	4792
2026-01-27 00:32:04.18	200.78	9.59	-28.4	-30.9	13.2	3.81e-05	0	44	0	1369440256	16	4806
2026-01-27 00:32:05.18	200.79	9.51	-28.4	-31.0	13.2	2.28e-05	0	44	0	1372585984	16	4844
2026-01-27 00:32:06.19	200.79	9.42	-28.4	-31.0	13.1	2.28e-03	0	44	0	1375731712	16	4859
2026-01-27 00:32:07.19	200.79	9.34	-28.5	-31.1	13.0	3.35e-05	0	44	0	1379926016	16	4884
2026-01-27 00:32:08.20	200.80	9.25	-28.4	-31.0	13.1	2.40e-03	0	44	0	1383071744	16	4857
2026-01-27 00:32:09.20	200.80	9.16	-28.4	-31.0	13.1	2.59e-05	0	44	0	1386217472	16	4864
2026-01-27 00:32:10.21	200.80	9.08	-28.6	-30.9	12.9	5.03e-05	0	44	0	1388314624	17	4697
2026-01-27 00:32:11.22	200.80	8.99	-28.5	-30.7	12.9	2.85e-03	0	44	0	1391460352	17	4651
2026-01-27 00:32:12.22	200.81	8.91	-28.6	-30.9	12.8	2.86e-03	0	44	0	1394606080	17	4711
2026-01-27 00:32:13.23	200.81	8.83	-28.5	-30.9	12.8	5.41e-05	0	44	0	1397751808	17	4700
2026-01-27 00:32:14.23	200.81	8.74	-28.6	-30.9	12.8	5.41e-05	0	44	0	1400897536	17	4721
2026-01-27 00:32:15.23	200.82	8.66	-28.8	-31.4	12.5	9.68e-05	0	44	0	1404043264	17	4864
2026-01-27 00:32:16.24	200.82	8.58	-28.7	-31.2	12.6	7.85e-05	0	44	0	1407188992	17	4796
2026-01-27 00:32:17.24	200.82	8.49	-28.5	-30.9	12.8	2.71e-03	0	44	0	1411383296	17	4700
2026-01-27 00:32:18.25	200.82	8.41	-28.7	-31.4	12.5	2.73e-03	0	44	0	1413480448	17	4868
2026-01-27 00:32:19.25	200.83	8.33	-28.6	-31.1	12.7	9.30e-05	0	44	0	1416626176	17	4773
2026-01-27 00:32:20.26	200.83	8.25	-28.7	-31.3	12.5	2.64e-03	0	44	0	1419771904	17	4852
2026-01-27 00:32:21.26	200.83	8.17	-28.8	-31.4	12.4	2.89e-03	0	44	0	1422917632	17	4894
2026-01-27 00:32:22.26	200.84	8.09	-28.8	-31.5	12.4	1.20e-04	0	44	0	1426063360	17	4899
2026-01-27 00:32:23.26	200.84	8.00	-28.9	-31.7	12.2	2.68e-03	0	44	0	1429209088	17	4991
2026-01-27 00:32:24.26	200.84	7.92	-28.9	-31.7	12.2	2.63e-03	0	44	0	1432354816	17	5001
2026-01-27 00:32:25.27	200.85	7.84	-28.9	-31.8	12.2	2.57e-04	0	44	0	1435500544	17	5022
2026-01-27 00:32:26.27	200.85	7.76	-29.1	-31.6	11.9	2.87e-03	0	44	0	1438646272	18	4854
2026-01-27 00:32:27.27	200.85	7.68	-29.1	-31.8	11.8	2.96e-03	0	44	0	1441792000	18	4930
2026-01-27 00:32:28.28	200.85	7.60	-29.0	-31.4	12.0	3.38e-04	0	44	0	1444937728	18	4792
2026-01-27 00:32:29.28	200.86	7.52	-29.0	-31.9	12.0	2.72e-03	0	44	0	1448083456	17	5076
2026-01-27 00:32:30.28	200.86	7.44	-29.0	-32.0	12.0	3.26e-04	0	44	0	1451229184	17	5101
2026-01-27 00:32:31.29	200.86	7.37	-29.0	-31.6	11.9	3.65e-04	0	44	0	1454374912	18	4839
2026-01-27 00:32:32.29	200.87	7.29	-29.0	-32.0	11.9	2.54e-03	0	44	0	1457520640	17	5105
2026-01-27 00:32:33.29	200.87	7.21	-28.9	-31.8	12.1	2.37e-03	0	44	0	1460666368	17	5028
2026-01-27 00:32:34.30	200.87	7.13	-31.2	-36.2	7.9	4.15e-04	0	44	0	1463812096	22	6411
2026-01-27 00:32:35.30	200.87	7.05	-33.1	-45.1	3.8	1.49e+00	0	44	104	1464860672	26	14285
2026-01-27 00:32:36.30	200.88	6.97	-33.4	-45.8	3.8	1.49e+00	0	44	104	1464860672	26	14872

#Closed at: 2026-01-27 00:32:37
#Recorded file [1464 MB]: D:/data/31010_260127_032445.dat