passes_logs/2026/01/27/R2M6_AANII_01/R2M6_AANII_01__20260127_083429_NOAA_21_JPSS-2_rec.log

#Pass ID: 20260127_083429_NOAA 21 (JPSS-2)
#Satellite: NOAA 21 (JPSS-2)
#Configuration: NOAA 21
#almurnet v.1.7.20240730
#Start time: 2026-01-27 08:34:31

#Version: 2.2.20231116
#Station: R2M6_AANII_01
#Location: 30.233357 lon 59.946436 lat
#TLE: 1 54234U 22150A   26026.78373243  .00000177  00000+0  10458-3 0  9996
#TLE: 2 54234  98.7509 327.5416 0000822 208.1870 151.9262 14.19539807166482

#Time	Az	El	Level	Level2	SNR	BER	BlckErr	Temp	State	Recorded	gain1	gain2
2026-01-27 08:34:31.41	106.06	7.12	-31.6	-36.9	4.4	1.42e+00	0	41	0	0	24	6642
2026-01-27 08:34:32.41	105.98	7.18	-31.4	-36.0	4.5	1.41e+00	0	41	104	0	24	6174
2026-01-27 08:34:33.41	105.89	7.25	-31.4	-35.4	7.7	9.12e-02	0	41	0	0	24	5719
2026-01-27 08:34:34.42	105.80	7.32	-31.4	-35.5	7.7	1.01e-01	0	41	0	3145728	24	5742
2026-01-27 08:34:35.43	105.72	7.39	-31.4	-35.2	7.9	6.87e-02	0	41	0	6291456	24	5614
2026-01-27 08:34:36.43	105.63	7.45	-31.3	-35.1	8.0	6.58e-02	0	41	0	9437184	24	5573
2026-01-27 08:34:37.44	105.54	7.52	-31.2	-35.1	8.3	7.69e-02	0	41	0	12582912	23	5669
2026-01-27 08:34:38.44	105.46	7.59	-30.9	-34.1	9.0	3.41e-02	0	41	0	15728640	23	5231
2026-01-27 08:34:39.44	105.37	7.65	-30.4	-33.2	10.1	1.09e-02	0	41	0	18874368	22	4957
2026-01-27 08:34:40.45	105.28	7.72	-30.1	-32.8	10.7	3.32e-03	0	41	0	22020096	21	4889
2026-01-27 08:34:41.45	105.19	7.79	-29.8	-32.1	11.2	1.44e-03	0	41	0	24117248	21	4648
2026-01-27 08:34:42.45	105.10	7.86	-29.4	-31.4	12.0	3.46e-04	0	41	0	27262976	20	4511
2026-01-27 08:34:43.46	105.01	7.93	-29.2	-31.2	12.5	2.04e-04	0	41	0	30408704	19	4569
2026-01-27 08:34:44.45	104.93	7.99	-29.3	-31.6	12.3	1.29e-04	0	41	0	33554432	19	4686
2026-01-27 08:34:45.46	104.84	8.06	-29.3	-31.5	12.3	1.42e-04	0	42	0	36700160	19	4662
2026-01-27 08:34:46.47	104.74	8.13	-29.2	-31.4	12.4	1.63e-04	0	42	0	40894464	19	4629
2026-01-27 08:34:47.47	104.65	8.20	-29.3	-31.5	12.3	1.42e-04	0	42	0	44040192	19	4638
2026-01-27 08:34:48.48	104.56	8.27	-29.2	-31.2	12.5	1.19e-04	0	42	0	47185920	19	4551
2026-01-27 08:34:49.48	104.47	8.34	-29.2	-31.2	12.5	1.11e-04	0	42	0	49283072	19	4542
2026-01-27 08:34:50.49	104.38	8.41	-29.2	-31.2	12.5	9.30e-05	0	42	0	52428800	19	4556
2026-01-27 08:34:51.49	104.28	8.47	-29.3	-31.5	12.4	1.15e-04	0	42	0	55574528	19	4637
2026-01-27 08:34:52.50	104.19	8.54	-29.2	-31.3	12.5	1.33e-04	0	42	0	58720256	19	4560
2026-01-27 08:34:53.49	104.10	8.61	-29.0	-30.8	12.8	6.17e-05	0	42	0	61865984	19	4417
2026-01-27 08:34:54.50	104.00	8.68	-28.8	-30.7	13.2	3.50e-05	0	42	0	65011712	18	4498
2026-01-27 08:34:55.50	103.91	8.75	-28.9	-31.0	13.0	2.21e-05	0	42	0	68157440	18	4600
2026-01-27 08:34:56.51	103.81	8.82	-28.8	-30.7	13.2	3.81e-05	0	42	0	71303168	18	4490
2026-01-27 08:34:57.51	103.72	8.89	-28.8	-30.7	13.2	2.44e-05	0	42	0	74448896	18	4479
2026-01-27 08:34:58.51	103.62	8.96	-28.8	-30.7	13.3	1.67e-05	0	42	0	77594624	18	4475
2026-01-27 08:34:59.51	103.52	9.03	-28.7	-30.6	13.3	2.05e-05	0	42	0	80740352	18	4456
2026-01-27 08:35:00.51	103.43	9.10	-28.8	-30.7	13.2	2.51e-05	0	42	0	83886080	18	4493
2026-01-27 08:35:01.52	103.33	9.17	-28.7	-30.5	13.4	1.67e-05	0	42	0	87031808	18	4434
2026-01-27 08:35:02.52	103.23	9.24	-28.7	-30.5	13.4	1.83e-05	0	42	0	90177536	18	4437
2026-01-27 08:35:03.52	103.13	9.31	-28.8	-30.7	13.2	2.51e-05	0	42	0	93323264	18	4502
2026-01-27 08:35:04.53	103.03	9.38	-28.7	-30.4	13.4	9.90e-06	0	42	0	96468992	18	4416
2026-01-27 08:35:05.53	102.93	9.45	-28.8	-30.7	13.3	2.21e-05	0	42	0	99614720	18	4492
2026-01-27 08:35:06.53	102.83	9.52	-28.8	-30.7	13.3	2.82e-05	0	42	0	102760448	18	4484
2026-01-27 08:35:07.54	102.73	9.59	-28.8	-30.7	13.2	1.06e-05	0	42	0	105906176	18	4506
2026-01-27 08:35:08.54	102.63	9.66	-28.8	-30.8	13.2	2.21e-05	0	42	0	109051904	18	4525
2026-01-27 08:35:09.55	102.53	9.73	-28.6	-30.3	13.6	1.06e-05	0	42	0	112197632	18	4357
2026-01-27 08:35:10.55	102.43	9.81	-28.5	-30.1	13.7	7.60e-06	0	42	0	115343360	18	4313
2026-01-27 08:35:11.56	102.33	9.88	-28.5	-30.0	13.7	3.00e-06	0	42	0	118489088	18	4286
2026-01-27 08:35:12.55	102.22	9.95	-28.4	-29.8	13.9	3.00e-06	0	42	0	121634816	18	4211
2026-01-27 08:35:13.56	102.12	10.02	-28.4	-29.6	14.0	6.80e-06	0	42	0	124780544	18	4177
2026-01-27 08:35:14.56	102.02	10.09	-28.4	-29.7	13.9	1.50e-06	0	42	0	127926272	18	4187
2026-01-27 08:35:15.56	101.91	10.16	-28.4	-29.8	13.9	3.80e-06	0	42	0	131072000	18	4220
2026-01-27 08:35:16.56	101.81	10.23	-28.3	-29.6	14.0	7.00e-07	0	42	0	134217728	18	4178
2026-01-27 08:35:17.56	101.70	10.31	-28.2	-29.9	14.1	7.00e-07	0	42	0	137363456	17	4353
2026-01-27 08:35:18.57	101.60	10.38	-28.2	-29.9	14.1	2.20e-06	0	42	0	140509184	17	4348
2026-01-27 08:35:19.58	101.49	10.45	-28.3	-30.1	14.0	1.50e-06	0	42	0	143654912	17	4399
2026-01-27 08:35:20.59	101.38	10.52	-28.2	-29.8	14.2	0.00e+00	0	42	0	146800640	17	4323
2026-01-27 08:35:21.59	101.27	10.60	-28.2	-29.8	14.2	1.50e-06	0	42	0	149946368	17	4321
2026-01-27 08:35:22.60	101.16	10.67	-28.2	-29.8	14.2	3.80e-06	0	42	0	153092096	17	4328
2026-01-27 08:35:23.60	101.06	10.74	-28.3	-30.0	14.1	0.00e+00	0	43	0	156237824	17	4380
2026-01-27 08:35:24.60	100.95	10.81	-28.3	-30.0	14.1	4.50e-06	0	42	0	159383552	17	4371
2026-01-27 08:35:25.60	100.84	10.89	-28.2	-29.8	14.2	0.00e+00	0	42	0	162529280	17	4319
2026-01-27 08:35:26.61	100.73	10.96	-28.2	-29.8	14.2	0.00e+00	0	42	0	165675008	17	4333
2026-01-27 08:35:27.61	100.61	11.03	-28.2	-29.7	14.3	7.00e-07	0	43	0	168820736	17	4305
2026-01-27 08:35:28.61	100.50	11.10	-28.2	-29.7	14.3	7.00e-07	0	42	0	171966464	17	4293
2026-01-27 08:35:29.61	100.39	11.18	-28.2	-29.8	14.2	1.50e-06	0	42	0	175112192	17	4329
2026-01-27 08:35:30.61	100.28	11.25	-28.3	-30.0	14.1	3.80e-06	0	42	0	178257920	17	4366
2026-01-27 08:35:31.61	100.17	11.32	-28.2	-29.7	14.3	7.00e-07	0	42	0	181403648	17	4293
2026-01-27 08:35:32.62	100.05	11.40	-28.1	-29.6	14.4	7.00e-07	0	43	0	184549376	17	4254
2026-01-27 08:35:33.62	99.94	11.47	-28.1	-29.6	14.3	7.00e-07	0	43	0	187695104	17	4268
2026-01-27 08:35:34.62	99.82	11.55	-28.2	-29.9	14.2	7.00e-07	0	43	0	190840832	17	4337
2026-01-27 08:35:35.63	99.71	11.62	-28.2	-29.7	14.3	1.50e-06	0	43	0	193986560	17	4288
2026-01-27 08:35:36.63	99.59	11.69	-28.1	-29.6	14.3	7.00e-07	0	43	0	197132288	17	4265
2026-01-27 08:35:37.64	99.47	11.77	-28.2	-29.8	14.3	7.00e-07	0	43	0	200278016	17	4308
2026-01-27 08:35:38.65	99.35	11.84	-28.3	-29.9	14.2	1.50e-06	0	43	0	203423744	17	4344
2026-01-27 08:35:39.65	99.24	11.92	-28.3	-30.0	14.2	7.00e-07	0	43	0	206569472	17	4363
2026-01-27 08:35:40.65	99.12	11.99	-28.2	-29.8	14.3	7.00e-07	0	43	0	209715200	17	4322
2026-01-27 08:35:41.66	99.00	12.07	-28.3	-29.9	14.2	1.50e-06	0	43	0	212860928	17	4358
2026-01-27 08:35:42.67	98.88	12.14	-28.2	-29.8	14.3	2.20e-06	0	43	0	216006656	17	4321
2026-01-27 08:35:43.67	98.76	12.22	-28.3	-29.9	14.3	0.00e+00	0	43	0	219152384	17	4343
2026-01-27 08:35:44.67	98.64	12.29	-28.2	-29.7	14.4	7.00e-07	0	43	0	222298112	17	4286
2026-01-27 08:35:45.66	98.52	12.36	-28.2	-29.8	14.3	0.00e+00	0	43	0	225443840	17	4328
2026-01-27 08:35:46.67	98.39	12.44	-28.2	-29.7	14.4	7.00e-07	0	43	0	228589568	17	4281
2026-01-27 08:35:47.67	98.27	12.51	-28.0	-29.2	14.7	2.20e-06	0	43	0	231735296	17	4136
2026-01-27 08:35:48.68	98.14	12.59	-28.0	-29.2	14.7	0.00e+00	0	43	0	234881024	17	4144
2026-01-27 08:35:49.69	98.02	12.67	-28.0	-29.2	14.7	0.00e+00	0	43	0	238026752	17	4141
2026-01-27 08:35:50.69	97.89	12.74	-28.0	-29.2	14.7	0.00e+00	0	43	0	241172480	17	4149
2026-01-27 08:35:51.70	97.77	12.82	-28.1	-29.5	14.5	0.00e+00	0	43	0	244318208	17	4220
2026-01-27 08:35:52.70	97.64	12.89	-28.1	-29.4	14.6	0.00e+00	0	43	0	247463936	17	4197
2026-01-27 08:35:53.71	97.51	12.97	-28.1	-29.5	14.6	0.00e+00	0	43	0	250609664	17	4213
2026-01-27 08:35:54.71	97.39	13.04	-28.1	-29.5	14.6	0.00e+00	0	43	0	253755392	17	4220
2026-01-27 08:35:55.72	97.26	13.12	-28.1	-29.4	14.6	1.50e-06	0	43	0	256901120	17	4216
2026-01-27 08:35:56.72	97.13	13.20	-28.2	-29.6	14.5	1.50e-06	0	43	0	260046848	17	4266
2026-01-27 08:35:57.73	97.00	13.27	-28.0	-29.3	14.7	7.00e-07	0	43	0	263192576	17	4177
2026-01-27 08:35:58.73	96.87	13.35	-28.1	-29.5	14.6	0.00e+00	0	43	0	266338304	17	4220
2026-01-27 08:35:59.73	96.74	13.43	-28.1	-29.4	14.6	0.00e+00	0	43	0	269484032	17	4200
2026-01-27 08:36:00.73	96.61	13.50	-28.1	-29.5	14.6	0.00e+00	0	43	0	272629760	17	4215
2026-01-27 08:36:01.73	96.47	13.58	-28.0	-29.2	14.8	0.00e+00	0	43	0	275775488	17	4147
2026-01-27 08:36:02.73	96.34	13.65	-28.0	-29.2	14.8	0.00e+00	0	43	0	278921216	17	4143
2026-01-27 08:36:03.74	96.21	13.73	-27.9	-29.1	14.8	0.00e+00	0	43	0	282066944	17	4121
2026-01-27 08:36:04.73	96.07	13.81	-28.0	-29.2	14.8	0.00e+00	0	43	0	285212672	17	4154
2026-01-27 08:36:05.73	95.94	13.88	-27.9	-29.0	14.9	0.00e+00	0	43	0	288358400	17	4091
2026-01-27 08:36:06.73	95.80	13.96	-27.9	-29.1	14.9	0.00e+00	0	43	0	291504128	17	4101
2026-01-27 08:36:07.73	95.67	14.04	-27.9	-29.0	14.9	0.00e+00	0	43	0	294649856	17	4086
2026-01-27 08:36:08.73	95.53	14.11	-27.9	-28.9	15.0	0.00e+00	0	43	0	297795584	17	4058
2026-01-27 08:36:09.74	95.39	14.19	-28.1	-29.4	14.8	0.00e+00	0	43	0	300941312	17	4185
2026-01-27 08:36:10.75	95.25	14.27	-28.1	-29.5	14.7	7.00e-07	0	43	0	304087040	17	4220
2026-01-27 08:36:11.75	95.11	14.35	-28.2	-29.6	14.6	0.00e+00	0	43	0	307232768	17	4261
2026-01-27 08:36:12.75	94.97	14.42	-28.2	-29.7	14.6	0.00e+00	0	43	0	310378496	17	4273
2026-01-27 08:36:13.76	94.83	14.50	-28.3	-29.8	14.5	0.00e+00	0	43	0	313524224	17	4307
2026-01-27 08:36:14.75	94.69	14.58	-28.2	-29.8	14.6	0.00e+00	0	43	0	316669952	17	4289
2026-01-27 08:36:15.75	94.55	14.66	-28.3	-29.9	14.5	1.50e-06	0	43	0	319815680	17	4340
2026-01-27 08:36:16.76	94.40	14.73	-28.3	-29.9	14.5	0.00e+00	0	43	0	322961408	17	4336
2026-01-27 08:36:17.76	94.26	14.81	-28.2	-29.7	14.6	1.50e-06	0	43	0	325058560	17	4288
2026-01-27 08:36:18.76	94.12	14.89	-28.2	-29.8	14.6	7.00e-07	0	43	0	328204288	17	4298
2026-01-27 08:36:19.76	93.97	14.97	-28.3	-29.8	14.6	0.00e+00	0	43	0	331350016	17	4315
2026-01-27 08:36:20.75	93.83	15.04	-28.3	-30.0	14.5	7.00e-07	0	43	0	334495744	17	4362
2026-01-27 08:36:21.75	93.68	15.12	-28.4	-30.1	14.4	0.00e+00	0	43	0	337641472	17	4377
2026-01-27 08:36:22.75	93.53	15.20	-28.2	-29.7	14.6	0.00e+00	0	43	0	340787200	17	4277
2026-01-27 08:36:23.76	93.38	15.28	-28.2	-29.7	14.7	0.00e+00	0	43	0	343932928	17	4260
2026-01-27 08:36:24.77	93.23	15.36	-28.4	-30.1	14.5	0.00e+00	0	43	0	348127232	17	4374
2026-01-27 08:36:25.77	93.08	15.43	-28.3	-29.9	14.5	7.00e-07	0	43	0	350224384	17	4336
2026-01-27 08:36:26.78	92.93	15.51	-28.4	-30.1	14.5	0.00e+00	0	43	0	353370112	17	4376
2026-01-27 08:36:27.79	92.78	15.59	-28.4	-30.0	14.5	7.00e-07	0	43	0	356515840	17	4369
2026-01-27 08:36:28.80	92.62	15.67	-28.4	-30.1	14.5	0.00e+00	0	43	0	359661568	17	4386
2026-01-27 08:36:29.80	92.47	15.75	-28.4	-30.1	14.5	2.20e-06	0	43	0	362807296	17	4377
2026-01-27 08:36:30.80	92.32	15.83	-28.4	-30.0	14.5	0.00e+00	0	43	0	365953024	17	4360
2026-01-27 08:36:31.80	92.16	15.90	-28.6	-30.6	14.2	7.60e-06	0	43	0	369098752	17	4518
2026-01-27 08:36:32.81	92.00	15.98	-28.5	-30.4	14.3	7.00e-07	0	43	0	372244480	17	4480
2026-01-27 08:36:33.81	91.85	16.06	-28.5	-30.3	14.4	0.00e+00	0	43	0	375390208	17	4431
2026-01-27 08:36:34.81	91.69	16.14	-28.5	-30.4	14.4	7.00e-07	0	43	0	378535936	17	4469
2026-01-27 08:36:35.81	91.53	16.22	-28.6	-30.6	14.3	7.00e-07	0	43	0	381681664	17	4527
2026-01-27 08:36:36.81	91.37	16.30	-28.6	-30.5	14.3	7.00e-07	0	43	0	384827392	17	4501
2026-01-27 08:36:37.82	91.21	16.37	-28.7	-30.8	14.1	7.00e-07	0	43	0	387973120	17	4577
2026-01-27 08:36:38.82	91.05	16.45	-28.6	-30.5	14.3	7.00e-07	0	43	0	391118848	17	4498
2026-01-27 08:36:39.83	90.89	16.53	-28.5	-30.3	14.5	0.00e+00	0	43	0	394264576	17	4419
2026-01-27 08:36:40.84	90.72	16.61	-28.4	-30.2	14.5	7.00e-07	0	43	0	397410304	17	4397
2026-01-27 08:36:41.84	90.56	16.69	-28.4	-30.1	14.6	0.00e+00	0	43	0	400556032	17	4366
2026-01-27 08:36:42.83	90.40	16.77	-28.4	-30.2	14.5	0.00e+00	0	43	0	403701760	17	4390
2026-01-27 08:36:43.84	90.23	16.85	-28.4	-30.0	14.6	7.00e-07	0	43	0	406847488	17	4359
2026-01-27 08:36:44.84	90.07	16.93	-28.4	-30.0	14.6	0.00e+00	0	43	0	409993216	17	4349
2026-01-27 08:36:45.85	89.90	17.00	-28.4	-30.0	14.6	0.00e+00	0	43	0	413138944	17	4349
2026-01-27 08:36:46.85	89.73	17.08	-28.4	-30.1	14.6	0.00e+00	0	43	0	416284672	17	4381
2026-01-27 08:36:47.86	89.56	17.16	-28.3	-29.8	14.8	7.00e-07	0	43	0	419430400	17	4290
2026-01-27 08:36:48.86	89.39	17.24	-28.2	-29.6	14.9	0.00e+00	0	43	0	422576128	17	4248
2026-01-27 08:36:49.86	89.22	17.32	-28.3	-29.8	14.8	0.00e+00	0	43	0	425721856	17	4296
2026-01-27 08:36:50.86	89.05	17.40	-28.2	-29.5	15.0	0.00e+00	0	43	0	428867584	17	4207
2026-01-27 08:36:51.87	88.88	17.48	-28.0	-29.1	15.2	0.00e+00	0	43	0	432013312	17	4092
2026-01-27 08:36:52.86	88.71	17.55	-28.0	-29.2	15.2	7.00e-07	0	43	0	435159040	17	4115
2026-01-27 08:36:53.86	88.53	17.63	-27.9	-28.9	15.3	0.00e+00	0	43	0	438304768	17	4056
2026-01-27 08:36:54.86	88.36	17.71	-27.9	-28.9	15.3	0.00e+00	0	43	0	441450496	17	4048
2026-01-27 08:36:55.87	88.18	17.79	-28.0	-29.1	15.2	0.00e+00	0	43	0	444596224	17	4098
2026-01-27 08:36:56.88	88.00	17.87	-28.0	-29.2	15.2	0.00e+00	0	43	0	447741952	17	4117
2026-01-27 08:36:57.88	87.82	17.95	-28.0	-29.1	15.2	0.00e+00	0	43	0	450887680	17	4086
2026-01-27 08:36:58.88	87.65	18.03	-27.9	-29.0	15.3	0.00e+00	0	43	0	454033408	17	4056
2026-01-27 08:36:59.89	87.47	18.10	-28.0	-29.1	15.2	0.00e+00	0	43	0	457179136	17	4103
2026-01-27 08:37:00.89	87.28	18.18	-27.9	-29.0	15.3	0.00e+00	0	43	0	460324864	17	4053
2026-01-27 08:37:01.90	87.10	18.26	-27.9	-28.9	15.4	0.00e+00	0	43	0	463470592	17	4042
2026-01-27 08:37:02.91	86.92	18.34	-27.9	-29.0	15.3	0.00e+00	0	43	0	466616320	17	4060
2026-01-27 08:37:03.91	86.73	18.42	-27.9	-28.8	15.4	0.00e+00	0	43	0	469762048	17	4019
2026-01-27 08:37:04.90	86.55	18.50	-27.9	-28.9	15.4	0.00e+00	0	43	0	472907776	17	4032
2026-01-27 08:37:05.91	86.37	18.57	-27.9	-29.0	15.3	0.00e+00	0	43	0	476053504	17	4057
2026-01-27 08:37:06.91	86.18	18.65	-28.2	-29.5	15.0	0.00e+00	0	43	0	479199232	17	4194
2026-01-27 08:37:07.91	85.99	18.73	-28.2	-29.6	15.0	0.00e+00	0	43	0	482344960	17	4219
2026-01-27 08:37:08.92	85.80	18.81	-28.3	-29.9	14.8	0.00e+00	0	43	0	485490688	17	4300
2026-01-27 08:37:09.92	85.61	18.89	-28.2	-29.7	14.9	0.00e+00	0	43	0	488636416	17	4255
2026-01-27 08:37:10.93	85.42	18.96	-28.3	-29.8	14.9	0.00e+00	0	43	0	491782144	17	4276
2026-01-27 08:37:11.93	85.23	19.04	-28.4	-30.1	14.7	0.00e+00	0	43	0	494927872	17	4368
2026-01-27 08:37:12.94	85.04	19.12	-28.2	-29.5	15.1	0.00e+00	0	44	0	498073600	17	4212
2026-01-27 08:37:13.94	84.85	19.20	-28.0	-29.0	15.4	7.00e-07	0	43	0	501219328	17	4072
2026-01-27 08:37:14.95	84.65	19.27	-27.9	-28.9	15.4	0.00e+00	0	43	0	504365056	17	4032
2026-01-27 08:37:15.95	84.45	19.35	-28.0	-29.0	15.4	0.00e+00	0	43	0	507510784	17	4070
2026-01-27 08:37:16.95	84.26	19.43	-27.9	-29.0	15.4	1.50e-06	0	43	0	510656512	17	4057
2026-01-27 08:37:17.96	84.06	19.51	-28.1	-29.5	15.1	0.00e+00	0	43	0	513802240	17	4186
2026-01-27 08:37:18.96	83.86	19.58	-28.0	-29.1	15.3	0.00e+00	0	43	0	516947968	17	4090
2026-01-27 08:37:19.96	83.66	19.66	-27.7	-29.0	15.6	1.50e-06	0	43	0	520093696	16	4174
2026-01-27 08:37:20.97	83.46	19.74	-27.9	-29.4	15.5	0.00e+00	0	43	0	523239424	16	4265
2026-01-27 08:37:21.97	83.26	19.81	-27.7	-28.8	15.8	0.00e+00	0	43	0	526385152	16	4122
2026-01-27 08:37:22.97	83.06	19.89	-27.5	-28.5	15.9	0.00e+00	0	43	0	529530880	16	4039
2026-01-27 08:37:23.97	82.86	19.96	-27.5	-28.5	16.0	0.00e+00	0	43	0	532676608	16	4021
2026-01-27 08:37:24.97	82.65	20.04	-27.7	-28.9	15.8	0.00e+00	0	43	0	535822336	16	4128
2026-01-27 08:37:25.97	82.45	20.12	-27.5	-28.5	15.9	0.00e+00	0	43	0	538968064	16	4030
2026-01-27 08:37:26.98	82.24	20.19	-27.6	-28.7	15.9	0.00e+00	0	43	0	542113792	16	4080
2026-01-27 08:37:27.98	82.03	20.27	-27.7	-29.0	15.6	0.00e+00	0	43	0	545259520	16	4179
2026-01-27 08:37:28.98	81.83	20.34	-27.7	-28.9	15.7	0.00e+00	0	43	0	548405248	16	4141
2026-01-27 08:37:29.99	81.61	20.42	-27.6	-28.7	15.9	0.00e+00	0	43	0	551550976	16	4078
2026-01-27 08:37:30.99	81.40	20.49	-27.6	-28.6	15.9	0.00e+00	0	43	0	554696704	16	4071
2026-01-27 08:37:32.00	81.19	20.57	-27.5	-28.5	16.0	0.00e+00	0	43	0	557842432	16	4029
2026-01-27 08:37:33.00	80.98	20.64	-27.4	-28.4	16.0	0.00e+00	0	43	0	560988160	16	4001
2026-01-27 08:37:34.00	80.77	20.72	-27.5	-28.4	16.0	0.00e+00	0	43	0	564133888	16	4015
2026-01-27 08:37:35.01	80.55	20.79	-27.6	-28.7	15.8	0.00e+00	0	44	0	567279616	16	4093
2026-01-27 08:37:36.02	80.33	20.87	-27.5	-28.5	16.0	0.00e+00	0	43	0	570425344	16	4031
2026-01-27 08:37:37.03	80.11	20.94	-27.5	-28.4	16.0	0.00e+00	0	43	0	573571072	16	4002
2026-01-27 08:37:38.02	79.90	21.01	-27.6	-28.7	15.8	0.00e+00	0	43	0	576716800	16	4096
2026-01-27 08:37:39.02	79.68	21.09	-27.5	-28.6	16.0	0.00e+00	0	43	0	579862528	16	4051
2026-01-27 08:37:40.03	79.46	21.16	-27.6	-28.6	15.9	0.00e+00	0	43	0	583008256	16	4065
2026-01-27 08:37:41.04	79.24	21.23	-27.7	-28.9	15.8	0.00e+00	0	43	0	586153984	16	4140
2026-01-27 08:37:42.05	79.01	21.31	-27.5	-28.4	16.0	0.00e+00	0	43	0	589299712	16	4009
2026-01-27 08:37:43.05	78.79	21.38	-27.4	-28.3	16.0	0.00e+00	0	43	0	592445440	16	3993
2026-01-27 08:37:44.05	78.57	21.45	-27.5	-28.6	15.9	0.00e+00	0	43	0	595591168	16	4050
2026-01-27 08:37:45.06	78.34	21.52	-27.5	-28.4	16.0	0.00e+00	0	43	0	598736896	16	4016
2026-01-27 08:37:46.06	78.11	21.59	-27.6	-28.6	15.9	0.00e+00	0	43	0	601882624	16	4059
2026-01-27 08:37:47.06	77.89	21.66	-27.7	-28.8	15.8	0.00e+00	0	43	0	605028352	16	4124
2026-01-27 08:37:48.06	77.66	21.74	-27.5	-28.4	16.0	0.00e+00	0	43	0	608174080	16	4017
2026-01-27 08:37:49.06	77.43	21.81	-27.5	-28.4	16.1	0.00e+00	0	43	0	611319808	16	4007
2026-01-27 08:37:50.07	77.20	21.88	-27.5	-28.5	16.0	0.00e+00	0	43	0	614465536	16	4035
2026-01-27 08:37:51.08	76.97	21.95	-27.5	-28.4	16.0	0.00e+00	0	43	0	617611264	16	4015
2026-01-27 08:37:52.09	76.73	22.02	-27.6	-28.6	15.9	0.00e+00	0	43	0	620756992	16	4057
2026-01-27 08:37:53.09	76.50	22.09	-27.6	-28.7	15.9	0.00e+00	0	43	0	623902720	16	4071
2026-01-27 08:37:54.09	76.26	22.16	-27.6	-28.6	15.9	0.00e+00	0	44	0	627048448	16	4059
2026-01-27 08:37:55.10	76.03	22.23	-27.6	-28.6	16.0	0.00e+00	0	43	0	630194176	16	4060
2026-01-27 08:37:56.11	75.79	22.29	-27.5	-28.5	16.0	0.00e+00	0	43	0	633339904	16	4024
2026-01-27 08:37:57.11	75.55	22.36	-27.7	-28.8	15.8	0.00e+00	0	43	0	636485632	16	4110
2026-01-27 08:37:58.11	75.31	22.43	-27.6	-28.7	15.9	0.00e+00	0	43	0	639631360	16	4092
2026-01-27 08:37:59.11	75.07	22.50	-27.6	-28.8	15.9	0.00e+00	0	43	0	642777088	16	4100
2026-01-27 08:38:00.11	74.83	22.56	-27.7	-28.9	15.8	0.00e+00	0	43	0	645922816	16	4129
2026-01-27 08:38:01.11	74.59	22.63	-27.7	-28.9	15.8	0.00e+00	0	43	0	649068544	16	4136
2026-01-27 08:38:02.11	74.35	22.70	-27.6	-28.8	15.9	0.00e+00	0	43	0	652214272	16	4096
2026-01-27 08:38:03.12	74.10	22.76	-27.7	-28.9	15.8	0.00e+00	0	43	0	655360000	16	4118
2026-01-27 08:38:04.12	73.86	22.83	-27.7	-29.0	15.8	1.50e-06	0	43	0	658505728	16	4157
2026-01-27 08:38:05.13	73.61	22.89	-27.5	-28.4	16.1	0.00e+00	0	43	0	661651456	16	4001
2026-01-27 08:38:06.13	73.37	22.96	-27.6	-28.6	16.0	0.00e+00	0	43	0	664797184	16	4044
2026-01-27 08:38:07.14	73.12	23.02	-27.7	-28.9	15.8	1.50e-06	0	44	0	667942912	16	4138
2026-01-27 08:38:08.14	72.87	23.09	-27.6	-28.7	15.9	0.00e+00	0	43	0	671088640	16	4087
2026-01-27 08:38:09.15	72.62	23.15	-27.8	-29.1	15.7	0.00e+00	0	43	0	673185792	16	4171
2026-01-27 08:38:10.16	72.36	23.21	-27.7	-28.8	15.9	3.80e-06	0	43	0	676331520	16	4109
2026-01-27 08:38:11.17	72.11	23.28	-27.5	-28.5	16.1	0.00e+00	0	43	0	680525824	16	4022
2026-01-27 08:38:12.17	71.86	23.34	-27.5	-28.5	16.0	0.00e+00	0	43	0	683671552	16	4036
2026-01-27 08:38:13.18	71.60	23.40	-27.5	-28.5	16.0	3.80e-06	0	43	0	686817280	16	4031
2026-01-27 08:38:14.18	71.34	23.46	-27.7	-29.0	15.8	0.00e+00	0	44	0	689963008	16	4152
2026-01-27 08:38:15.18	71.09	23.52	-27.6	-28.6	16.0	0.00e+00	0	43	0	693108736	16	4051
2026-01-27 08:38:16.19	70.83	23.58	-27.5	-28.5	16.1	0.00e+00	0	43	0	696254464	16	4018
2026-01-27 08:38:17.19	70.57	23.64	-27.6	-28.6	16.0	0.00e+00	0	43	0	698351616	16	4051
2026-01-27 08:38:18.19	70.31	23.70	-27.6	-28.8	15.9	0.00e+00	0	43	0	701497344	16	4102
2026-01-27 08:38:19.20	70.05	23.76	-27.8	-29.2	15.7	7.00e-07	0	43	0	704643072	16	4201
2026-01-27 08:38:20.20	69.79	23.82	-27.8	-29.2	15.7	0.00e+00	0	43	0	707788800	16	4218
2026-01-27 08:38:21.20	69.53	23.88	-27.9	-29.3	15.6	0.00e+00	0	44	0	710934528	16	4240
2026-01-27 08:38:22.21	69.26	23.93	-27.8	-29.0	15.8	0.00e+00	0	44	0	714080256	16	4163
2026-01-27 08:38:23.20	69.00	23.99	-27.7	-28.8	15.9	0.00e+00	0	43	0	717225984	16	4111
2026-01-27 08:38:24.20	68.74	24.05	-27.7	-29.0	15.8	0.00e+00	0	43	0	720371712	16	4149
2026-01-27 08:38:25.21	68.47	24.10	-27.5	-28.5	16.1	0.00e+00	0	44	0	723517440	16	4031
2026-01-27 08:38:26.21	68.21	24.16	-27.5	-28.4	16.1	0.00e+00	0	44	0	726663168	16	3995
2026-01-27 08:38:27.21	67.94	24.21	-27.5	-28.4	16.1	0.00e+00	0	44	0	729808896	16	4012
2026-01-27 08:38:28.22	67.67	24.27	-27.5	-28.4	16.1	0.00e+00	0	44	0	732954624	16	4008
2026-01-27 08:38:29.22	67.40	24.32	-27.5	-28.5	16.1	0.00e+00	0	43	0	736100352	16	4026
2026-01-27 08:38:30.22	67.13	24.37	-27.4	-28.3	16.2	0.00e+00	0	43	0	739246080	16	3979
2026-01-27 08:38:31.22	66.86	24.42	-27.5	-28.3	16.2	0.00e+00	0	43	0	742391808	16	3980
2026-01-27 08:38:32.22	66.59	24.47	-27.5	-28.5	16.1	0.00e+00	0	43	0	745537536	16	4013
2026-01-27 08:38:33.23	66.31	24.53	-27.5	-28.3	16.2	0.00e+00	0	43	0	748683264	16	3980
2026-01-27 08:38:34.23	66.04	24.58	-27.5	-28.3	16.2	0.00e+00	0	43	0	751828992	16	3981
2026-01-27 08:38:35.24	65.76	24.63	-27.5	-28.5	16.1	0.00e+00	0	43	0	754974720	16	4020
2026-01-27 08:38:36.25	65.48	24.68	-27.5	-28.4	16.1	0.00e+00	0	43	0	758120448	16	4001
2026-01-27 08:38:37.25	65.21	24.72	-27.6	-28.6	16.1	0.00e+00	0	44	0	761266176	16	4048
2026-01-27 08:38:38.25	64.93	24.77	-27.5	-28.5	16.1	0.00e+00	0	43	0	764411904	16	4036
2026-01-27 08:38:39.25	64.65	24.82	-27.5	-28.5	16.1	0.00e+00	0	43	0	767557632	16	4042
2026-01-27 08:38:40.26	64.37	24.86	-27.6	-28.6	16.0	0.00e+00	0	44	0	770703360	16	4064
2026-01-27 08:38:41.27	64.09	24.91	-27.5	-28.6	16.1	0.00e+00	0	44	0	773849088	16	4042
2026-01-27 08:38:42.27	63.81	24.96	-27.6	-28.7	16.0	0.00e+00	0	44	0	776994816	16	4084
2026-01-27 08:38:43.27	63.53	25.00	-27.7	-28.9	15.9	0.00e+00	0	43	0	780140544	16	4123
2026-01-27 08:38:44.28	63.24	25.04	-27.4	-28.3	16.2	0.00e+00	0	44	0	783286272	16	3969
2026-01-27 08:38:45.29	62.96	25.09	-27.4	-28.1	16.3	0.00e+00	0	44	0	786432000	16	3934
2026-01-27 08:38:46.29	62.67	25.13	-27.4	-28.2	16.3	0.00e+00	0	44	0	789577728	16	3944
2026-01-27 08:38:47.29	62.39	25.17	-27.4	-28.3	16.2	0.00e+00	0	44	0	792723456	16	3960
2026-01-27 08:38:48.30	62.10	25.21	-27.1	-28.0	16.5	0.00e+00	0	44	0	795869184	15	3996
2026-01-27 08:38:49.30	61.82	25.25	-27.0	-27.9	16.5	0.00e+00	0	44	0	799014912	15	3991
2026-01-27 08:38:50.31	61.53	25.29	-27.1	-28.0	16.5	0.00e+00	0	43	0	802160640	15	4006
2026-01-27 08:38:51.31	61.24	25.33	-27.2	-28.2	16.4	0.00e+00	0	44	0	805306368	15	4068
2026-01-27 08:38:52.30	60.95	25.37	-27.2	-28.2	16.3	0.00e+00	0	44	0	808452096	15	4067
2026-01-27 08:38:53.31	60.66	25.41	-27.2	-28.4	16.3	0.00e+00	0	44	0	811597824	15	4101
2026-01-27 08:38:54.31	60.37	25.44	-27.4	-28.6	16.1	0.00e+00	0	43	0	814743552	15	4174
2026-01-27 08:38:55.32	60.08	25.48	-27.3	-28.5	16.2	0.00e+00	0	44	0	817889280	15	4148
2026-01-27 08:38:56.32	59.79	25.51	-27.4	-28.8	16.1	0.00e+00	0	44	0	821035008	15	4208
2026-01-27 08:38:57.32	59.50	25.55	-27.5	-28.9	16.0	0.00e+00	0	44	0	824180736	15	4252
2026-01-27 08:38:58.33	59.21	25.58	-27.3	-28.5	16.2	0.00e+00	0	44	0	827326464	15	4150
2026-01-27 08:38:59.34	58.91	25.61	-27.3	-28.5	16.2	0.00e+00	0	44	0	830472192	15	4132
2026-01-27 08:39:00.34	58.62	25.65	-27.3	-28.5	16.2	0.00e+00	0	44	0	833617920	15	4144
2026-01-27 08:39:01.34	58.32	25.68	-27.2	-28.4	16.3	0.00e+00	0	43	0	836763648	15	4104
2026-01-27 08:39:02.34	58.03	25.71	-27.3	-28.5	16.2	0.00e+00	0	44	0	839909376	15	4143
2026-01-27 08:39:03.35	57.73	25.74	-27.4	-28.7	16.1	0.00e+00	0	44	0	843055104	15	4202
2026-01-27 08:39:04.36	57.44	25.77	-27.4	-28.7	16.1	0.00e+00	0	44	0	846200832	15	4196
2026-01-27 08:39:05.36	57.14	25.79	-27.5	-29.0	16.0	0.00e+00	0	44	0	849346560	15	4263
2026-01-27 08:39:06.36	56.84	25.82	-27.5	-28.9	16.0	0.00e+00	0	43	0	852492288	15	4243
2026-01-27 08:39:07.36	56.55	25.85	-27.3	-28.4	16.3	0.00e+00	0	43	0	855638016	15	4113
2026-01-27 08:39:08.37	56.25	25.87	-27.2	-28.4	16.3	0.00e+00	0	43	0	858783744	15	4113
2026-01-27 08:39:09.37	55.95	25.90	-27.4	-28.7	16.1	0.00e+00	0	43	0	861929472	15	4179
2026-01-27 08:39:10.37	55.65	25.92	-27.3	-28.6	16.2	0.00e+00	0	44	0	865075200	15	4157
2026-01-27 08:39:11.37	55.35	25.94	-27.3	-28.4	16.2	0.00e+00	0	43	0	868220928	15	4110
2026-01-27 08:39:12.38	55.05	25.97	-27.3	-28.5	16.2	1.50e-06	0	44	0	871366656	15	4141
2026-01-27 08:39:13.38	54.75	25.99	-27.5	-28.9	16.0	0.00e+00	0	44	0	874512384	15	4245
2026-01-27 08:39:14.38	54.45	26.01	-27.4	-28.8	16.0	0.00e+00	0	43	0	877658112	15	4229
2026-01-27 08:39:15.39	54.15	26.03	-27.5	-28.9	16.0	0.00e+00	0	44	0	880803840	15	4256
2026-01-27 08:39:16.40	53.85	26.05	-27.6	-29.1	15.9	0.00e+00	0	44	0	883949568	15	4302
2026-01-27 08:39:17.40	53.55	26.06	-27.7	-29.3	15.8	0.00e+00	0	44	0	887095296	15	4358
2026-01-27 08:39:18.41	53.24	26.08	-27.6	-29.2	15.8	0.00e+00	0	44	0	890241024	15	4331
2026-01-27 08:39:19.41	52.94	26.10	-27.6	-29.2	15.9	0.00e+00	0	44	0	893386752	15	4322
2026-01-27 08:39:20.41	52.64	26.11	-27.6	-29.2	15.9	0.00e+00	0	43	0	896532480	15	4317
2026-01-27 08:39:21.41	52.34	26.13	-27.7	-29.5	15.7	0.00e+00	0	44	0	899678208	15	4414
2026-01-27 08:39:22.41	52.03	26.14	-28.0	-29.6	15.5	0.00e+00	0	43	0	902823936	16	4309
2026-01-27 08:39:23.42	51.73	26.15	-27.8	-29.0	15.8	0.00e+00	0	44	0	905969664	16	4159
2026-01-27 08:39:24.42	51.43	26.16	-27.6	-28.8	16.0	0.00e+00	0	44	0	909115392	16	4097
2026-01-27 08:39:25.43	51.12	26.17	-27.8	-29.0	15.9	0.00e+00	0	44	0	912261120	16	4165
2026-01-27 08:39:26.43	50.82	26.18	-28.0	-29.6	15.6	0.00e+00	0	44	0	915406848	16	4311
2026-01-27 08:39:27.43	50.51	26.19	-28.0	-29.6	15.5	0.00e+00	0	43	0	918552576	16	4326
2026-01-27 08:39:28.44	50.21	26.20	-27.9	-29.3	15.7	0.00e+00	0	43	0	921698304	16	4236
2026-01-27 08:39:29.44	49.90	26.21	-27.9	-29.3	15.7	0.00e+00	0	44	0	924844032	16	4244
2026-01-27 08:39:30.45	49.60	26.22	-27.9	-29.2	15.7	0.00e+00	0	44	0	927989760	16	4214
2026-01-27 08:39:31.44	49.30	26.22	-27.8	-29.2	15.7	0.00e+00	0	44	0	931135488	16	4208
2026-01-27 08:39:32.45	48.99	26.23	-27.8	-29.2	15.7	0.00e+00	0	44	0	934281216	16	4219
2026-01-27 08:39:33.45	48.69	26.23	-28.0	-29.6	15.5	0.00e+00	0	43	0	937426944	16	4311
2026-01-27 08:39:34.46	48.38	26.23	-28.1	-29.9	15.4	0.00e+00	0	43	0	940572672	16	4401
2026-01-27 08:39:35.46	48.07	26.23	-27.9	-29.3	15.7	0.00e+00	0	43	0	943718400	16	4248
2026-01-27 08:39:36.47	47.77	26.24	-27.7	-28.8	15.9	0.00e+00	0	44	0	946864128	16	4110
2026-01-27 08:39:37.47	47.46	26.24	-27.6	-28.7	16.0	0.00e+00	0	44	0	950009856	16	4079
2026-01-27 08:39:38.47	47.16	26.23	-27.7	-28.8	16.0	0.00e+00	0	44	0	953155584	16	4092
2026-01-27 08:39:39.48	46.85	26.23	-27.7	-28.9	15.9	0.00e+00	0	44	0	956301312	16	4130
2026-01-27 08:39:40.48	46.55	26.23	-27.6	-28.6	16.0	0.00e+00	0	43	0	959447040	16	4062
2026-01-27 08:39:41.49	46.24	26.23	-27.4	-28.3	16.2	0.00e+00	0	44	0	962592768	16	3977
2026-01-27 08:39:42.49	45.94	26.22	-27.4	-28.2	16.3	0.00e+00	0	43	0	965738496	16	3958
2026-01-27 08:39:43.49	45.63	26.22	-27.4	-28.2	16.3	0.00e+00	0	44	0	968884224	16	3958
2026-01-27 08:39:44.50	45.33	26.21	-27.3	-28.0	16.4	0.00e+00	0	43	0	972029952	16	3902
2026-01-27 08:39:45.50	45.02	26.20	-27.1	-28.2	16.4	0.00e+00	0	44	0	975175680	15	4044
2026-01-27 08:39:46.49	44.72	26.20	-27.2	-28.3	16.3	0.00e+00	0	44	0	978321408	15	4072
2026-01-27 08:39:47.50	44.42	26.19	-27.2	-28.2	16.4	0.00e+00	0	44	0	981467136	15	4067
2026-01-27 08:39:48.50	44.11	26.18	-27.3	-28.5	16.2	0.00e+00	0	44	0	984612864	15	4146
2026-01-27 08:39:49.51	43.81	26.17	-27.5	-28.9	16.0	0.00e+00	0	44	0	987758592	15	4244
2026-01-27 08:39:50.51	43.51	26.16	-27.5	-29.0	16.0	0.00e+00	0	43	0	990904320	15	4273
2026-01-27 08:39:51.52	43.20	26.14	-27.6	-29.2	15.8	0.00e+00	0	44	0	994050048	15	4333
2026-01-27 08:39:52.52	42.90	26.13	-27.5	-28.9	16.0	0.00e+00	0	44	0	997195776	15	4250
2026-01-27 08:39:53.53	42.59	26.12	-27.4	-28.8	16.1	0.00e+00	0	44	0	1000341504	15	4215
2026-01-27 08:39:54.54	42.29	26.10	-27.4	-28.7	16.1	0.00e+00	0	44	0	1003487232	15	4195
2026-01-27 08:39:55.54	41.99	26.09	-27.4	-28.8	16.1	0.00e+00	0	43	0	1006632960	15	4211
2026-01-27 08:39:56.54	41.69	26.07	-27.4	-28.8	16.1	0.00e+00	0	44	0	1009778688	15	4205
2026-01-27 08:39:57.54	41.39	26.05	-27.5	-28.9	16.0	0.00e+00	0	44	0	1012924416	15	4240
2026-01-27 08:39:58.54	41.08	26.03	-27.5	-29.0	15.9	0.00e+00	0	43	0	1016070144	15	4261
2026-01-27 08:39:59.55	40.78	26.01	-27.5	-29.0	15.9	0.00e+00	0	43	0	1019215872	15	4282
2026-01-27 08:40:00.55	40.48	25.99	-27.5	-28.9	16.0	0.00e+00	0	44	0	1021313024	15	4262
2026-01-27 08:40:01.56	40.18	25.97	-27.4	-28.8	16.0	0.00e+00	0	44	0	1024458752	15	4214
2026-01-27 08:40:02.56	39.88	25.95	-27.4	-28.8	16.0	0.00e+00	0	44	0	1028653056	15	4220
2026-01-27 08:40:03.57	39.58	25.93	-27.5	-28.9	16.0	0.00e+00	0	44	0	1031798784	15	4258
2026-01-27 08:40:04.58	39.28	25.91	-27.4	-28.8	16.0	0.00e+00	0	43	0	1034944512	15	4227
2026-01-27 08:40:05.58	38.98	25.88	-27.3	-28.5	16.2	0.00e+00	0	44	0	1038090240	15	4134
2026-01-27 08:40:06.59	38.68	25.86	-27.2	-28.4	16.3	0.00e+00	0	44	0	1041235968	15	4099
2026-01-27 08:40:07.59	38.39	25.83	-27.2	-28.3	16.3	0.00e+00	0	44	0	1044381696	15	4088
2026-01-27 08:40:08.59	38.09	25.80	-27.2	-28.4	16.3	0.00e+00	0	44	0	1046478848	15	4109
2026-01-27 08:40:09.59	37.79	25.78	-27.3	-28.6	16.1	0.00e+00	0	44	0	1049624576	15	4163
2026-01-27 08:40:10.59	37.50	25.75	-27.4	-28.7	16.1	0.00e+00	0	43	0	1052770304	15	4179
2026-01-27 08:40:11.60	37.20	25.72	-27.3	-28.6	16.1	0.00e+00	0	44	0	1055916032	15	4171
2026-01-27 08:40:12.60	36.91	25.69	-27.3	-28.4	16.2	0.00e+00	0	44	0	1059061760	15	4122
2026-01-27 08:40:13.60	36.62	25.66	-27.4	-28.7	16.0	0.00e+00	0	44	0	1062207488	15	4197
2026-01-27 08:40:14.60	36.32	25.63	-27.4	-28.8	16.0	0.00e+00	0	44	0	1065353216	15	4221
2026-01-27 08:40:15.60	36.03	25.59	-27.3	-28.6	16.1	0.00e+00	0	44	0	1068498944	15	4177
2026-01-27 08:40:16.61	35.74	25.56	-27.5	-28.9	16.0	0.00e+00	0	44	0	1071644672	15	4235
2026-01-27 08:40:17.61	35.45	25.53	-27.3	-28.6	16.1	0.00e+00	0	44	0	1074790400	15	4172
2026-01-27 08:40:18.62	35.15	25.49	-27.2	-28.4	16.2	0.00e+00	0	44	0	1077936128	15	4112
2026-01-27 08:40:19.62	34.86	25.46	-27.3	-28.4	16.2	0.00e+00	0	43	0	1081081856	15	4121
2026-01-27 08:40:20.63	34.57	25.42	-27.2	-28.4	16.3	0.00e+00	0	44	0	1084227584	15	4102
2026-01-27 08:40:21.63	34.28	25.38	-27.2	-28.3	16.3	0.00e+00	0	43	0	1087373312	15	4077
2026-01-27 08:40:22.63	34.00	25.35	-27.2	-28.2	16.3	0.00e+00	0	44	0	1090519040	15	4059
2026-01-27 08:40:23.64	33.71	25.31	-27.3	-28.5	16.2	0.00e+00	0	44	0	1093664768	15	4130
2026-01-27 08:40:24.65	33.42	25.27	-27.2	-28.2	16.3	0.00e+00	0	44	0	1096810496	15	4057
2026-01-27 08:40:25.65	33.13	25.23	-27.1	-28.0	16.5	0.00e+00	0	44	0	1099956224	15	4002
2026-01-27 08:40:26.66	32.84	25.19	-27.2	-28.2	16.3	0.00e+00	0	44	0	1103101952	15	4065
2026-01-27 08:40:27.66	32.56	25.15	-27.3	-28.5	16.2	0.00e+00	0	44	0	1106247680	15	4144
2026-01-27 08:40:28.67	32.27	25.10	-27.3	-28.6	16.1	0.00e+00	0	43	0	1109393408	15	4153
2026-01-27 08:40:29.66	31.99	25.06	-27.3	-28.6	16.1	0.00e+00	0	43	0	1112539136	15	4165
2026-01-27 08:40:30.67	31.71	25.02	-27.3	-28.6	16.1	0.00e+00	0	43	0	1115684864	15	4157
2026-01-27 08:40:31.67	31.43	24.97	-27.3	-28.5	16.2	0.00e+00	0	44	0	1118830592	15	4143
2026-01-27 08:40:32.68	31.15	24.93	-27.3	-28.4	16.2	0.00e+00	0	43	0	1121976320	15	4118
2026-01-27 08:40:33.67	30.87	24.88	-27.2	-28.3	16.3	0.00e+00	0	44	0	1125122048	15	4084
2026-01-27 08:40:34.68	30.59	24.84	-27.2	-28.3	16.3	0.00e+00	0	44	0	1128267776	15	4081
2026-01-27 08:40:35.68	30.31	24.79	-27.1	-28.2	16.4	0.00e+00	0	44	0	1131413504	15	4054
2026-01-27 08:40:36.69	30.03	24.74	-27.1	-28.1	16.4	0.00e+00	0	43	0	1134559232	15	4039
2026-01-27 08:40:37.69	29.76	24.70	-27.3	-28.6	16.1	0.00e+00	0	44	0	1137704960	15	4160
2026-01-27 08:40:38.70	29.48	24.65	-27.4	-28.8	16.0	0.00e+00	0	43	0	1140850688	15	4219
2026-01-27 08:40:39.70	29.21	24.60	-27.6	-29.2	15.8	0.00e+00	0	43	0	1143996416	15	4321
2026-01-27 08:40:40.70	28.93	24.55	-27.7	-29.3	15.7	0.00e+00	0	43	0	1147142144	15	4367
2026-01-27 08:40:41.71	28.66	24.50	-27.7	-29.4	15.7	0.00e+00	0	43	0	1150287872	15	4396
2026-01-27 08:40:42.71	28.39	24.45	-27.6	-29.2	15.8	0.00e+00	0	43	0	1153433600	15	4338
2026-01-27 08:40:43.72	28.11	24.39	-27.5	-29.0	15.9	0.00e+00	0	44	0	1156579328	15	4281
2026-01-27 08:40:44.72	27.84	24.34	-27.6	-29.1	15.8	0.00e+00	0	44	0	1159725056	15	4313
2026-01-27 08:40:45.72	27.57	24.29	-27.6	-29.2	15.7	0.00e+00	0	44	0	1162870784	15	4327
2026-01-27 08:40:46.72	27.31	24.24	-27.6	-29.3	15.8	0.00e+00	0	43	0	1166016512	15	4343
2026-01-27 08:40:47.73	27.04	24.18	-27.7	-29.4	15.7	0.00e+00	0	44	0	1169162240	15	4376
2026-01-27 08:40:48.73	26.77	24.13	-27.6	-29.1	15.8	0.00e+00	0	44	0	1172307968	15	4301
2026-01-27 08:40:49.72	26.51	24.07	-27.5	-28.9	16.0	0.00e+00	0	44	0	1175453696	15	4245
2026-01-27 08:40:50.72	26.24	24.02	-27.5	-28.9	16.0	0.00e+00	0	44	0	1178599424	15	4243
2026-01-27 08:40:51.72	25.98	23.96	-27.4	-28.7	16.0	0.00e+00	0	44	0	1181745152	15	4196
2026-01-27 08:40:52.73	25.72	23.90	-27.3	-28.6	16.1	0.00e+00	0	44	0	1184890880	15	4165
2026-01-27 08:40:53.74	25.45	23.85	-27.5	-28.9	15.9	0.00e+00	0	44	0	1188036608	15	4253
2026-01-27 08:40:54.74	25.19	23.79	-27.4	-28.9	15.9	0.00e+00	0	43	0	1191182336	15	4235
2026-01-27 08:40:55.74	24.93	23.73	-27.6	-29.3	15.7	0.00e+00	0	44	0	1194328064	15	4353
2026-01-27 08:40:56.75	24.67	23.67	-27.7	-29.5	15.6	0.00e+00	0	44	0	1197473792	15	4411
2026-01-27 08:40:57.76	24.41	23.61	-27.8	-29.8	15.5	0.00e+00	0	44	0	1200619520	15	4491
2026-01-27 08:40:58.77	24.15	23.55	-27.6	-29.3	15.7	0.00e+00	0	44	0	1203765248	15	4361
2026-01-27 08:40:59.77	23.90	23.49	-27.4	-28.7	16.0	0.00e+00	0	44	0	1206910976	15	4197
2026-01-27 08:41:00.78	23.64	23.43	-27.2	-28.4	16.2	0.00e+00	0	44	0	1210056704	15	4098
2026-01-27 08:41:01.78	23.39	23.37	-27.2	-28.3	16.2	0.00e+00	0	44	0	1213202432	15	4083
2026-01-27 08:41:02.77	23.14	23.31	-27.3	-28.5	16.1	0.00e+00	0	43	0	1216348160	15	4139
2026-01-27 08:41:03.77	22.89	23.24	-27.2	-28.2	16.3	0.00e+00	0	44	0	1219493888	15	4060
2026-01-27 08:41:04.78	22.64	23.18	-27.2	-28.2	16.3	0.00e+00	0	44	0	1222639616	15	4074
2026-01-27 08:41:05.78	22.39	23.12	-27.3	-28.6	16.1	0.00e+00	0	44	0	1225785344	15	4159
2026-01-27 08:41:06.79	22.14	23.05	-27.5	-29.0	15.9	0.00e+00	0	44	0	1228931072	15	4276
2026-01-27 08:41:07.78	21.89	22.99	-27.7	-29.3	15.7	0.00e+00	0	44	0	1232076800	15	4369
2026-01-27 08:41:08.79	21.64	22.93	-27.8	-29.7	15.5	0.00e+00	0	43	0	1235222528	15	4466
2026-01-27 08:41:09.79	21.40	22.86	-27.9	-29.8	15.4	0.00e+00	0	44	0	1238368256	15	4506
2026-01-27 08:41:10.79	21.15	22.80	-28.0	-30.1	15.2	0.00e+00	0	44	0	1241513984	15	4586
2026-01-27 08:41:11.80	20.91	22.73	-28.2	-29.9	15.2	0.00e+00	0	44	0	1244659712	16	4423
2026-01-27 08:41:12.80	20.67	22.67	-28.2	-29.9	15.2	0.00e+00	0	43	0	1247805440	16	4422
2026-01-27 08:41:13.81	20.42	22.60	-27.8	-29.2	15.6	0.00e+00	0	44	0	1250951168	16	4225
2026-01-27 08:41:14.81	20.18	22.53	-27.5	-28.5	16.0	0.00e+00	0	44	0	1254096896	16	4031
2026-01-27 08:41:15.81	19.94	22.46	-27.4	-28.3	16.1	0.00e+00	0	44	0	1257242624	16	3978
2026-01-27 08:41:16.81	19.71	22.40	-27.5	-28.4	16.0	0.00e+00	0	44	0	1260388352	16	4007
2026-01-27 08:41:17.82	19.47	22.33	-27.4	-28.2	16.1	0.00e+00	0	44	0	1263534080	16	3960
2026-01-27 08:41:18.83	19.23	22.26	-27.6	-28.7	15.9	0.00e+00	0	44	0	1266679808	16	4075
2026-01-27 08:41:19.83	18.99	22.19	-27.5	-28.5	16.0	0.00e+00	0	43	0	1269825536	16	4017
2026-01-27 08:41:20.83	18.76	22.12	-27.3	-28.1	16.2	0.00e+00	0	44	0	1272971264	16	3918
2026-01-27 08:41:21.83	18.53	22.05	-27.3	-28.0	16.3	0.00e+00	0	44	0	1276116992	16	3897
2026-01-27 08:41:22.83	18.30	21.99	-27.1	-28.1	16.3	0.00e+00	0	44	0	1279262720	15	4024
2026-01-27 08:41:23.83	18.07	21.92	-27.0	-27.8	16.5	0.00e+00	0	44	0	1282408448	15	3949
2026-01-27 08:41:24.84	17.83	21.85	-27.0	-28.0	16.4	0.00e+00	0	44	0	1285554176	15	3997
2026-01-27 08:41:25.85	17.60	21.77	-27.1	-28.2	16.3	0.00e+00	0	44	0	1288699904	15	4054
2026-01-27 08:41:26.85	17.38	21.70	-27.4	-28.8	15.9	0.00e+00	0	44	0	1291845632	15	4213
2026-01-27 08:41:27.86	17.15	21.63	-27.4	-28.8	15.9	0.00e+00	0	44	0	1294991360	15	4237
2026-01-27 08:41:28.86	16.92	21.56	-27.4	-28.8	15.9	0.00e+00	0	44	0	1298137088	15	4232
2026-01-27 08:41:29.87	16.70	21.49	-27.4	-28.8	15.9	0.00e+00	0	44	0	1301282816	15	4210
2026-01-27 08:41:30.88	16.47	21.42	-27.4	-28.7	16.0	0.00e+00	0	44	0	1304428544	15	4195
2026-01-27 08:41:31.88	16.25	21.35	-27.4	-28.7	16.0	0.00e+00	0	44	0	1307574272	15	4194
2026-01-27 08:41:32.89	16.03	21.27	-27.5	-29.0	15.8	0.00e+00	0	44	0	1310720000	15	4266
2026-01-27 08:41:33.90	15.80	21.20	-27.2	-28.3	16.2	0.00e+00	0	44	0	1313865728	15	4098
2026-01-27 08:41:34.90	15.58	21.13	-27.0	-27.9	16.4	0.00e+00	0	44	0	1317011456	15	3983
2026-01-27 08:41:35.90	15.37	21.05	-27.0	-27.8	16.5	0.00e+00	0	44	0	1320157184	15	3951
2026-01-27 08:41:36.90	15.15	20.98	-27.1	-28.1	16.2	0.00e+00	0	44	0	1323302912	15	4047
2026-01-27 08:41:37.91	14.93	20.91	-27.2	-28.4	16.1	0.00e+00	0	44	0	1326448640	15	4109
2026-01-27 08:41:38.91	14.72	20.83	-27.6	-29.2	15.7	0.00e+00	0	43	0	1329594368	15	4321
2026-01-27 08:41:39.91	14.50	20.76	-27.5	-29.1	15.7	0.00e+00	0	44	0	1332740096	15	4295
2026-01-27 08:41:40.92	14.29	20.69	-27.8	-29.6	15.4	0.00e+00	0	44	0	1335885824	15	4436
2026-01-27 08:41:41.93	14.07	20.61	-27.6	-29.2	15.7	0.00e+00	0	44	0	1339031552	15	4329
2026-01-27 08:41:42.93	13.86	20.54	-27.4	-28.9	15.8	0.00e+00	0	44	0	1342177280	15	4239
2026-01-27 08:41:43.94	13.65	20.46	-27.4	-28.7	15.9	0.00e+00	0	44	0	1345323008	15	4210
2026-01-27 08:41:44.95	13.44	20.39	-27.5	-28.9	15.8	0.00e+00	0	44	0	1348468736	15	4253
2026-01-27 08:41:45.95	13.23	20.31	-27.5	-29.0	15.7	0.00e+00	0	44	0	1351614464	15	4274
2026-01-27 08:41:46.95	13.03	20.24	-27.7	-29.4	15.5	0.00e+00	0	44	0	1354760192	15	4391
2026-01-27 08:41:47.96	12.82	20.16	-27.7	-29.4	15.6	0.00e+00	0	44	0	1357905920	15	4377
2026-01-27 08:41:48.97	12.61	20.08	-27.6	-29.3	15.6	0.00e+00	0	44	0	1361051648	15	4371
2026-01-27 08:41:49.97	12.41	20.01	-27.7	-29.4	15.5	0.00e+00	0	44	0	1364197376	15	4402
2026-01-27 08:41:50.96	12.21	19.93	-27.5	-29.0	15.7	0.00e+00	0	44	0	1367343104	15	4291
2026-01-27 08:41:51.96	12.01	19.86	-27.4	-28.8	15.8	0.00e+00	0	43	0	1370488832	15	4224
2026-01-27 08:41:52.96	11.81	19.78	-27.4	-28.8	15.9	0.00e+00	0	44	0	1373634560	15	4232
2026-01-27 08:41:53.96	11.61	19.71	-27.2	-28.4	16.1	0.00e+00	0	44	0	1376780288	15	4108
2026-01-27 08:41:54.96	11.41	19.63	-27.2	-28.3	16.1	0.00e+00	0	44	0	1379926016	15	4100
2026-01-27 08:41:55.97	11.21	19.55	-27.3	-28.6	15.9	0.00e+00	0	44	0	1383071744	15	4176
2026-01-27 08:41:56.97	11.02	19.48	-27.2	-28.4	16.0	0.00e+00	0	44	0	1386217472	15	4125
2026-01-27 08:41:57.97	10.82	19.40	-27.3	-28.6	15.9	0.00e+00	0	44	0	1389363200	15	4166
2026-01-27 08:41:58.97	10.63	19.32	-27.5	-29.1	15.6	0.00e+00	0	44	0	1392508928	15	4313
2026-01-27 08:41:59.97	10.43	19.25	-27.7	-29.4	15.5	0.00e+00	0	44	0	1394606080	15	4383
2026-01-27 08:42:00.97	10.24	19.17	-27.9	-29.9	15.2	0.00e+00	0	44	0	1397751808	15	4545
2026-01-27 08:42:01.98	10.05	19.09	-27.9	-29.9	15.2	0.00e+00	0	44	0	1400897536	15	4548
2026-01-27 08:42:02.98	9.86	19.02	-28.2	-30.0	15.1	0.00e+00	0	44	0	1404043264	16	4444
2026-01-27 08:42:03.98	9.67	18.94	-28.1	-29.9	15.1	0.00e+00	0	44	0	1407188992	16	4411
2026-01-27 08:42:04.98	9.48	18.86	-28.1	-29.8	15.1	0.00e+00	0	44	0	1410334720	16	4387
2026-01-27 08:42:05.97	9.29	18.78	-28.1	-30.0	15.0	7.00e-07	0	44	0	1413480448	16	4437
2026-01-27 08:42:06.98	9.11	18.71	-28.0	-29.7	15.2	0.00e+00	0	44	0	1416626176	16	4367
2026-01-27 08:42:07.97	8.92	18.63	-28.0	-29.6	15.2	0.00e+00	0	44	0	1419771904	16	4348
2026-01-27 08:42:08.97	8.74	18.55	-28.0	-29.7	15.2	0.00e+00	0	44	0	1422917632	16	4368
2026-01-27 08:42:09.98	8.55	18.47	-28.0	-29.6	15.2	0.00e+00	0	44	0	1426063360	16	4333
2026-01-27 08:42:10.99	8.37	18.40	-28.0	-29.6	15.3	0.00e+00	0	44	0	1429209088	16	4321
2026-01-27 08:42:11.99	8.19	18.32	-28.0	-29.7	15.1	0.00e+00	0	44	0	1432354816	16	4376
2026-01-27 08:42:12.99	8.00	18.24	-28.0	-29.7	15.2	7.00e-07	0	44	0	1435500544	16	4362
2026-01-27 08:42:13.99	7.82	18.16	-28.1	-29.9	15.0	0.00e+00	0	44	0	1438646272	16	4437
2026-01-27 08:42:14.98	7.65	18.09	-28.0	-29.6	15.2	7.00e-07	0	44	0	1441792000	16	4339
2026-01-27 08:42:15.99	7.47	18.01	-28.0	-29.6	15.2	0.00e+00	0	44	0	1444937728	16	4334
2026-01-27 08:42:16.99	7.29	17.93	-28.1	-29.8	15.1	0.00e+00	0	44	0	1448083456	16	4402
2026-01-27 08:42:17.99	7.11	17.85	-28.0	-29.5	15.2	0.00e+00	0	44	0	1451229184	16	4318
2026-01-27 08:42:19.00	6.94	17.77	-28.0	-29.5	15.2	0.00e+00	0	44	0	1454374912	16	4318
2026-01-27 08:42:20.00	6.76	17.69	-28.0	-29.7	15.1	0.00e+00	0	44	0	1457520640	16	4357
2026-01-27 08:42:21.01	6.59	17.61	-27.9	-29.4	15.3	0.00e+00	0	44	0	1460666368	16	4288
2026-01-27 08:42:22.01	6.42	17.54	-27.8	-29.3	15.3	0.00e+00	0	44	0	1463812096	16	4247
2026-01-27 08:42:23.02	6.24	17.46	-27.8	-29.3	15.4	0.00e+00	0	44	0	1466957824	16	4240
2026-01-27 08:42:24.02	6.07	17.38	-27.6	-28.8	15.6	0.00e+00	0	44	0	1470103552	16	4110
2026-01-27 08:42:25.03	5.90	17.30	-27.6	-28.7	15.7	0.00e+00	0	44	0	1473249280	16	4095
2026-01-27 08:42:26.03	5.73	17.22	-27.6	-28.7	15.7	0.00e+00	0	44	0	1476395008	16	4096
2026-01-27 08:42:27.03	5.56	17.14	-27.6	-28.7	15.7	0.00e+00	0	44	0	1479540736	16	4084
2026-01-27 08:42:28.04	5.40	17.07	-27.6	-28.8	15.6	0.00e+00	0	44	0	1482686464	16	4112
2026-01-27 08:42:29.04	5.23	16.99	-27.7	-28.9	15.5	0.00e+00	0	44	0	1485832192	16	4148
2026-01-27 08:42:30.05	5.06	16.91	-27.8	-29.3	15.3	7.00e-07	0	44	0	1488977920	16	4248
2026-01-27 08:42:31.04	4.90	16.83	-27.8	-29.2	15.4	7.00e-07	0	44	0	1492123648	16	4237
2026-01-27 08:42:32.05	4.73	16.75	-27.9	-29.5	15.2	0.00e+00	0	44	0	1495269376	16	4297
2026-01-27 08:42:33.06	4.57	16.67	-27.9	-29.4	15.3	0.00e+00	0	44	0	1498415104	16	4268
2026-01-27 08:42:34.06	4.41	16.60	-27.8	-29.3	15.3	0.00e+00	0	44	0	1501560832	16	4252
2026-01-27 08:42:35.07	4.25	16.52	-27.8	-29.3	15.3	0.00e+00	0	43	0	1504706560	16	4250
2026-01-27 08:42:36.07	4.09	16.44	-27.9	-29.3	15.3	0.00e+00	0	44	0	1507852288	16	4259
2026-01-27 08:42:37.08	3.93	16.36	-27.7	-29.0	15.5	0.00e+00	0	44	0	1510998016	16	4166
2026-01-27 08:42:38.08	3.77	16.28	-27.7	-29.0	15.5	0.00e+00	0	44	0	1514143744	16	4161
2026-01-27 08:42:39.09	3.61	16.20	-27.7	-28.9	15.5	0.00e+00	0	44	0	1517289472	16	4144
2026-01-27 08:42:40.09	3.45	16.12	-27.7	-29.0	15.4	0.00e+00	0	44	0	1520435200	16	4176
2026-01-27 08:42:41.08	3.30	16.05	-27.6	-28.8	15.6	0.00e+00	0	44	0	1523580928	16	4116
2026-01-27 08:42:42.08	3.14	15.97	-27.7	-28.9	15.5	0.00e+00	0	44	0	1526726656	16	4150
2026-01-27 08:42:43.08	2.99	15.89	-27.8	-29.2	15.3	0.00e+00	0	44	0	1529872384	16	4223
2026-01-27 08:42:44.08	2.83	15.81	-27.9	-29.5	15.2	0.00e+00	0	44	0	1533018112	16	4299
2026-01-27 08:42:45.08	2.68	15.74	-28.0	-29.8	15.1	0.00e+00	0	44	0	1536163840	16	4389
2026-01-27 08:42:46.09	2.53	15.66	-28.2	-30.1	14.8	0.00e+00	0	44	0	1539309568	16	4498
2026-01-27 08:42:47.09	2.38	15.58	-28.3	-30.3	14.7	7.00e-07	0	44	0	1542455296	16	4529
2026-01-27 08:42:48.08	2.23	15.50	-28.4	-30.5	14.5	0.00e+00	0	44	0	1545601024	16	4617
2026-01-27 08:42:49.08	2.08	15.43	-28.2	-30.1	14.8	1.50e-06	0	44	0	1548746752	16	4489
2026-01-27 08:42:50.08	1.93	15.35	-28.1	-29.9	14.9	0.00e+00	0	44	0	1551892480	16	4415
2026-01-27 08:42:51.09	1.78	15.27	-28.1	-29.8	14.9	0.00e+00	0	44	0	1555038208	16	4395
2026-01-27 08:42:52.10	1.63	15.19	-28.1	-29.8	14.9	7.00e-07	0	44	0	1558183936	16	4407
2026-01-27 08:42:53.09	1.49	15.11	-28.2	-30.2	14.7	0.00e+00	0	44	0	1561329664	16	4517
2026-01-27 08:42:54.10	1.34	15.04	-28.3	-30.4	14.6	0.00e+00	0	44	0	1564475392	16	4571
2026-01-27 08:42:55.09	1.20	14.96	-28.5	-30.4	14.3	0.00e+00	0	44	0	1567621120	17	4448
2026-01-27 08:42:56.09	1.05	14.88	-28.3	-29.9	14.6	1.50e-06	0	44	0	1570766848	17	4324
2026-01-27 08:42:57.09	0.91	14.81	-28.3	-29.8	14.6	0.00e+00	0	44	0	1573912576	17	4290
2026-01-27 08:42:58.10	0.77	14.73	-28.4	-30.1	14.5	0.00e+00	0	44	0	1577058304	17	4367
2026-01-27 08:42:59.10	0.63	14.65	-28.5	-30.2	14.4	7.00e-07	0	44	0	1580204032	17	4411
2026-01-27 08:43:00.11	0.48	14.57	-28.6	-30.5	14.2	7.00e-07	0	44	0	1583349760	17	4501
2026-01-27 08:43:01.11	0.34	14.50	-28.5	-30.4	14.3	1.50e-06	0	44	0	1586495488	17	4452
2026-01-27 08:43:02.11	0.20	14.42	-28.5	-30.2	14.4	7.00e-07	0	44	0	1589641216	17	4420
2026-01-27 08:43:03.11	0.07	14.34	-28.6	-30.5	14.2	2.20e-06	0	44	0	1592786944	17	4508
2026-01-27 08:43:04.11	359.93	14.27	-28.5	-30.2	14.4	0.00e+00	0	44	0	1595932672	17	4416
2026-01-27 08:43:05.11	359.79	14.19	-28.4	-30.2	14.4	7.00e-07	0	44	0	1599078400	17	4402
2026-01-27 08:43:06.12	359.65	14.11	-28.5	-30.2	14.4	7.00e-07	0	44	0	1602224128	17	4418
2026-01-27 08:43:07.12	359.52	14.03	-28.4	-30.1	14.4	7.00e-07	0	44	0	1605369856	17	4371
2026-01-27 08:43:08.13	359.38	13.96	-28.3	-30.0	14.5	7.00e-07	0	44	0	1608515584	17	4343
2026-01-27 08:43:09.12	359.25	13.88	-28.4	-30.1	14.4	0.00e+00	0	44	0	1611661312	17	4375
2026-01-27 08:43:10.13	359.11	13.81	-28.2	-29.6	14.7	0.00e+00	0	44	0	1614807040	17	4237
2026-01-27 08:43:11.12	358.98	13.73	-28.1	-29.5	14.7	0.00e+00	0	44	0	1617952768	17	4211
2026-01-27 08:43:12.13	358.85	13.65	-28.2	-29.6	14.7	7.00e-07	0	44	0	1621098496	17	4247
2026-01-27 08:43:13.13	358.72	13.58	-28.3	-29.8	14.6	1.50e-06	0	44	0	1623195648	17	4302
2026-01-27 08:43:14.13	358.58	13.50	-28.2	-29.7	14.6	0.00e+00	0	44	0	1626341376	17	4276
2026-01-27 08:43:15.14	358.45	13.42	-28.4	-30.1	14.4	1.50e-06	0	44	0	1629487104	17	4376
2026-01-27 08:43:16.14	358.32	13.35	-28.4	-30.2	14.3	1.50e-06	0	44	0	1632632832	17	4407
2026-01-27 08:43:17.15	358.19	13.27	-28.6	-30.6	14.1	1.50e-06	0	44	0	1635778560	17	4527
2026-01-27 08:43:18.15	358.07	13.20	-28.6	-30.5	14.1	7.00e-07	0	44	0	1638924288	17	4507
2026-01-27 08:43:19.16	357.94	13.12	-28.6	-30.5	14.1	2.20e-06	0	44	0	1643118592	17	4516
2026-01-27 08:43:20.16	357.81	13.05	-28.6	-30.6	14.1	1.50e-06	0	44	0	1645215744	17	4527
2026-01-27 08:43:21.17	357.68	12.97	-28.6	-30.5	14.1	1.50e-06	0	44	0	1648361472	17	4507
2026-01-27 08:43:22.17	357.56	12.89	-28.5	-30.4	14.2	7.00e-07	0	44	0	1651507200	17	4473
2026-01-27 08:43:23.17	357.43	12.82	-28.4	-30.0	14.4	7.00e-07	0	44	0	1654652928	17	4357
2026-01-27 08:43:24.18	357.31	12.74	-28.3	-29.9	14.4	0.00e+00	0	44	0	1657798656	17	4336
2026-01-27 08:43:25.18	357.18	12.67	-28.4	-30.0	14.4	7.00e-07	0	44	0	1660944384	17	4363
2026-01-27 08:43:26.19	357.06	12.59	-28.5	-30.3	14.2	2.20e-06	0	44	0	1664090112	17	4444
2026-01-27 08:43:27.19	356.94	12.52	-28.2	-29.6	14.6	1.50e-06	0	44	0	1667235840	17	4252
2026-01-27 08:43:28.20	356.82	12.44	-28.3	-29.9	14.5	1.50e-06	0	44	0	1670381568	17	4321
2026-01-27 08:43:29.21	356.69	12.37	-28.3	-30.0	14.4	1.50e-06	0	44	0	1673527296	17	4342
2026-01-27 08:43:30.21	356.57	12.29	-28.2	-29.7	14.6	1.50e-06	0	44	0	1676673024	17	4265
2026-01-27 08:43:31.21	356.45	12.22	-28.1	-29.5	14.7	0.00e+00	0	44	0	1679818752	17	4207
2026-01-27 08:43:32.22	356.33	12.14	-28.2	-29.6	14.6	0.00e+00	0	44	0	1682964480	17	4244
2026-01-27 08:43:33.22	356.21	12.07	-28.4	-30.1	14.3	7.00e-07	0	44	0	1686110208	17	4398
2026-01-27 08:43:34.21	356.10	12.00	-28.7	-30.8	13.9	7.00e-07	0	44	0	1689255936	17	4592
2026-01-27 08:43:35.22	355.98	11.92	-28.6	-30.6	14.0	7.00e-07	0	44	0	1692401664	17	4546
2026-01-27 08:43:36.21	355.86	11.85	-28.6	-30.7	13.9	7.00e-07	0	44	0	1695547392	17	4554
2026-01-27 08:43:37.22	355.75	11.77	-28.7	-30.8	13.9	3.80e-06	0	44	0	1698693120	17	4610
2026-01-27 08:43:38.22	355.63	11.70	-28.8	-31.1	13.7	3.80e-06	0	44	0	1701838848	17	4703
2026-01-27 08:43:39.23	355.52	11.63	-28.8	-31.2	13.6	3.80e-06	0	44	0	1704984576	17	4715
2026-01-27 08:43:40.24	355.40	11.55	-28.9	-31.3	13.6	9.90e-06	0	44	0	1708130304	17	4754
2026-01-27 08:43:41.25	355.29	11.48	-28.8	-31.1	13.7	9.10e-06	0	44	0	1711276032	17	4686
2026-01-27 08:43:42.25	355.17	11.41	-28.7	-30.8	13.8	3.80e-06	0	44	0	1714421760	17	4597
2026-01-27 08:43:43.25	355.06	11.33	-28.6	-30.6	13.9	7.00e-07	0	44	0	1717567488	17	4551
2026-01-27 08:43:44.26	354.95	11.26	-28.6	-30.5	14.0	3.00e-06	0	44	0	1720713216	17	4518
2026-01-27 08:43:45.25	354.84	11.19	-28.6	-30.6	13.9	3.00e-06	0	44	0	1723858944	17	4529
2026-01-27 08:43:46.25	354.73	11.11	-28.4	-30.0	14.3	7.00e-07	0	44	0	1727004672	17	4364
2026-01-27 08:43:47.25	354.62	11.04	-28.4	-30.2	14.2	0.00e+00	0	44	0	1730150400	17	4415
2026-01-27 08:43:48.26	354.51	10.97	-28.4	-30.2	14.2	1.50e-06	0	44	0	1733296128	17	4423
2026-01-27 08:43:49.26	354.40	10.90	-28.4	-30.2	14.2	3.00e-06	0	44	0	1736441856	17	4413
2026-01-27 08:43:50.27	354.29	10.82	-28.3	-30.0	14.3	7.00e-07	0	44	0	1739587584	17	4348
2026-01-27 08:43:51.27	354.18	10.75	-28.4	-30.3	14.1	3.00e-06	0	44	0	1742733312	17	4437
2026-01-27 08:43:52.28	354.07	10.68	-28.5	-30.4	14.1	7.00e-07	0	44	0	1745879040	17	4481
2026-01-27 08:43:53.29	353.96	10.60	-28.6	-30.6	13.9	5.30e-06	0	44	0	1749024768	17	4544
2026-01-27 08:43:54.29	353.86	10.53	-28.7	-30.9	13.8	4.50e-06	0	44	0	1752170496	17	4630
2026-01-27 08:43:55.29	353.75	10.46	-28.7	-31.0	13.7	9.90e-06	0	44	0	1755316224	17	4670
2026-01-27 08:43:56.29	353.65	10.39	-28.8	-31.1	13.6	9.90e-06	0	44	0	1758461952	17	4697
2026-01-27 08:43:57.30	353.54	10.32	-28.9	-31.3	13.5	1.44e-05	0	44	0	1761607680	17	4779
2026-01-27 08:43:58.31	353.43	10.25	-28.9	-31.4	13.4	1.29e-05	0	44	0	1764753408	17	4811
2026-01-27 08:43:59.31	353.33	10.17	-29.0	-31.6	13.3	1.52e-05	0	44	0	1767899136	17	4855
2026-01-27 08:44:00.31	353.23	10.10	-29.1	-31.3	13.2	2.05e-05	0	44	0	1771044864	18	4664
2026-01-27 08:44:01.31	353.13	10.03	-29.1	-31.4	13.1	1.37e-05	0	44	0	1774190592	18	4682
2026-01-27 08:44:02.32	353.02	9.96	-29.0	-31.2	13.2	2.21e-05	0	44	0	1777336320	18	4623
2026-01-27 08:44:03.32	352.92	9.89	-29.1	-31.2	13.2	1.60e-05	0	44	0	1780482048	18	4632
2026-01-27 08:44:04.32	352.82	9.82	-29.1	-31.3	13.2	2.89e-05	0	44	0	1783627776	18	4643
2026-01-27 08:44:05.32	352.72	9.75	-28.9	-30.9	13.4	1.44e-05	0	44	0	1786773504	18	4537
2026-01-27 08:44:06.33	352.62	9.68	-29.1	-31.3	13.1	4.04e-05	0	43	0	1789919232	18	4650
2026-01-27 08:44:07.34	352.52	9.61	-28.9	-30.9	13.4	1.75e-05	0	44	0	1793064960	18	4529
2026-01-27 08:44:08.34	352.42	9.54	-28.8	-30.7	13.5	1.22e-05	0	44	0	1796210688	18	4458
2026-01-27 08:44:09.34	352.32	9.47	-28.9	-30.9	13.4	1.14e-05	0	44	0	1799356416	18	4528
2026-01-27 08:44:10.35	352.22	9.39	-28.8	-30.7	13.5	9.10e-06	0	44	0	1802502144	18	4468
2026-01-27 08:44:11.35	352.12	9.32	-28.9	-30.8	13.3	1.83e-05	0	44	0	1805647872	18	4511
2026-01-27 08:44:12.37	352.02	9.25	-29.1	-31.4	13.1	2.13e-05	0	44	0	1808793600	18	4688
2026-01-27 08:44:13.37	351.93	9.18	-29.1	-31.4	13.1	2.89e-05	0	44	0	1811939328	18	4680
2026-01-27 08:44:14.38	351.83	9.11	-29.0	-31.1	13.3	2.44e-05	0	44	0	1815085056	18	4587
2026-01-27 08:44:15.39	351.73	9.04	-29.0	-31.2	13.2	2.74e-05	0	44	0	1818230784	18	4632
2026-01-27 08:44:16.39	351.64	8.97	-29.3	-31.8	12.8	4.88e-05	0	44	0	1821376512	18	4804
2026-01-27 08:44:17.39	351.54	8.91	-29.4	-32.2	12.6	1.15e-04	0	44	0	1824522240	18	4940
2026-01-27 08:44:18.39	351.45	8.84	-29.3	-31.9	12.7	7.40e-05	0	44	0	1827667968	18	4849
2026-01-27 08:44:19.40	351.36	8.77	-29.3	-31.9	12.7	9.07e-05	0	44	0	1830813696	18	4864
2026-01-27 08:44:20.40	351.26	8.70	-29.3	-31.9	12.6	1.04e-04	0	44	0	1833959424	18	4875
2026-01-27 08:44:21.40	351.17	8.63	-29.3	-32.0	12.6	6.71e-05	0	44	0	1837105152	18	4891
2026-01-27 08:44:22.41	351.08	8.56	-29.4	-32.2	12.4	1.20e-04	0	44	0	1840250880	18	4979
2026-01-27 08:44:23.41	350.98	8.49	-29.5	-32.3	12.4	1.40e-04	0	43	0	1843396608	18	5004
2026-01-27 08:44:24.41	350.89	8.42	-29.5	-32.0	12.3	1.91e-04	0	44	0	1846542336	19	4800
2026-01-27 08:44:25.42	350.80	8.35	-29.6	-32.2	12.2	1.79e-04	0	44	0	1849688064	19	4850
2026-01-27 08:44:26.42	350.71	8.29	-29.7	-32.6	11.9	2.69e-04	0	44	0	1852833792	19	4985
2026-01-27 08:44:27.43	350.62	8.22	-29.6	-32.3	12.1	3.78e-04	0	43	0	1855979520	19	4886
2026-01-27 08:44:28.43	350.53	8.15	-29.5	-31.8	12.3	1.81e-04	0	44	0	1859125248	19	4737
2026-01-27 08:44:29.43	350.44	8.08	-29.5	-31.9	12.3	1.80e-04	0	44	0	1862270976	19	4764
2026-01-27 08:44:30.44	350.35	8.01	-29.6	-32.2	12.1	2.98e-04	0	44	0	1865416704	19	4864
2026-01-27 08:44:31.44	350.26	7.94	-29.5	-32.0	12.2	2.17e-04	0	44	0	1868562432	19	4775
2026-01-27 08:44:32.44	350.17	7.88	-29.6	-32.2	12.1	2.14e-04	0	44	0	1871708160	19	4851
2026-01-27 08:44:33.44	350.09	7.81	-29.7	-32.4	12.0	3.86e-04	0	44	0	1874853888	19	4913
2026-01-27 08:44:34.45	350.00	7.74	-29.5	-31.9	12.3	2.15e-04	0	44	0	1877999616	19	4742
2026-01-27 08:44:35.44	349.91	7.68	-29.4	-31.6	12.4	1.47e-04	0	44	0	1881145344	19	4665
2026-01-27 08:44:36.45	349.83	7.61	-29.4	-31.7	12.4	1.25e-04	0	44	0	1884291072	19	4698
2026-01-27 08:44:37.45	349.74	7.54	-29.4	-31.8	12.4	1.97e-04	0	44	0	1887436800	19	4717
2026-01-27 08:44:38.46	349.65	7.47	-29.3	-31.5	12.5	1.23e-04	0	44	0	1890582528	19	4635
2026-01-27 08:44:39.46	349.57	7.41	-29.6	-32.2	12.0	2.55e-04	0	44	0	1893728256	19	4867
2026-01-27 08:44:40.47	349.48	7.34	-29.5	-31.9	12.2	2.94e-04	0	44	0	1896873984	19	4743
2026-01-27 08:44:41.46	349.40	7.27	-29.4	-31.8	12.3	2.01e-04	0	44	0	1900019712	19	4727
2026-01-27 08:44:42.46	349.32	7.21	-29.4	-31.8	12.3	1.60e-04	0	44	0	1903165440	19	4715
2026-01-27 08:44:43.46	349.23	7.14	-29.6	-32.2	12.0	2.78e-04	0	44	0	1906311168	19	4854
2026-01-27 08:44:44.47	349.15	7.07	-32.5	-39.0	6.1	7.36e-04	0	44	0	1909456896	24	7685
2026-01-27 08:44:45.47	349.07	7.01	-33.7	-45.5	3.8	1.49e+00	0	44	104	1909456896	27	13957
2026-01-27 08:44:46.48	348.98	6.94	-34.0	-45.8	3.8	1.49e+00	0	44	104	1909456896	28	13999
2026-01-27 08:44:47.49	348.90	6.88	-34.2	-46.3	3.8	1.49e+00	0	44	104	1909456896	28	14393

#Closed at: 2026-01-27 08:44:47
#Recorded file [1909 MB]: D:/data/31010_260127_113433.dat