passes_logs/2026/01/27/R2M6_AANII_01/R2M6_AANII_01__20260127_150255_FENGYUN_3E_rec.log

#Pass ID: 20260127_150255_FENGYUN 3E
#Satellite: FENGYUN 3E
#Configuration: FENGYUN 3E
#almurnet v.1.7.20240730
#Start time: 2026-01-27 15:02:56

#Version: 2.2.20231116
#Station: R2M6_AANII_01
#Location: 30.233357 lon 59.946436 lat
#TLE: 1 49008U 21062A   26026.84429991  .00000247  00000+0  13693-3 0  9991
#TLE: 2 49008  98.7501  31.8345 0002501 116.3456 243.7977 14.19887781236522

#Time	Az	El	Level	Level2	SNR	BER	BlckErr	Temp	State	Recorded	gain1	gain2
2026-01-27 15:02:56.78	174.14	7.09	-27.5	-29.7	5.6	7.63e-01	0	41	0	0	14	4670
2026-01-27 15:02:57.78	174.17	7.16	-28.1	-29.6	5.5	7.68e-01	0	41	104	0	17	4288
2026-01-27 15:02:58.79	174.20	7.24	-28.5	-31.1	10.5	3.68e-03	0	41	0	0	16	4850
2026-01-27 15:02:59.79	174.23	7.32	-28.6	-30.7	10.4	5.61e-03	0	41	0	7340032	17	4608
2026-01-27 15:03:00.79	174.26	7.39	-28.0	-29.4	11.2	2.26e-03	0	41	0	14680064	17	4223
2026-01-27 15:03:01.79	174.29	7.47	-27.0	-28.1	12.5	2.31e-04	0	41	0	22020096	15	4063
2026-01-27 15:03:02.79	174.32	7.55	-26.7	-27.9	12.9	7.20e-05	0	41	0	28311552	14	4115
2026-01-27 15:03:03.79	174.35	7.63	-26.5	-27.5	13.1	3.20e-05	0	41	0	35651584	14	4015
2026-01-27 15:03:04.79	174.38	7.71	-26.0	-26.8	13.7	1.48e-05	0	41	0	42991616	13	3949
2026-01-27 15:03:05.78	174.41	7.78	-26.0	-26.7	13.9	6.80e-06	0	41	0	50331648	13	3910
2026-01-27 15:03:06.79	174.44	7.86	-26.1	-26.9	13.7	5.70e-06	0	41	0	57671680	13	3965
2026-01-27 15:03:07.80	174.47	7.94	-26.0	-26.7	13.9	3.40e-06	0	41	0	65011712	13	3913
2026-01-27 15:03:08.80	174.50	8.02	-26.2	-27.6	13.6	3.40e-06	0	41	0	72351744	12	4260
2026-01-27 15:03:09.80	174.54	8.10	-26.0	-27.2	13.8	6.80e-06	0	41	0	79691776	12	4163
2026-01-27 15:03:10.81	174.57	8.18	-26.0	-27.3	13.8	5.70e-06	0	41	0	85983232	12	4163
2026-01-27 15:03:11.82	174.60	8.26	-25.9	-27.1	13.9	4.50e-06	0	41	0	93323264	12	4106
2026-01-27 15:03:12.82	174.63	8.34	-26.1	-27.4	13.8	3.40e-06	0	42	0	100663296	12	4198
2026-01-27 15:03:13.83	174.66	8.42	-26.0	-27.3	13.9	4.50e-06	0	42	0	108003328	12	4156
2026-01-27 15:03:14.83	174.70	8.50	-25.9	-27.0	14.0	4.50e-06	0	41	0	115343360	12	4083
2026-01-27 15:03:15.84	174.73	8.59	-26.0	-27.2	13.9	4.50e-06	0	42	0	122683392	12	4144
2026-01-27 15:03:16.83	174.76	8.67	-26.1	-27.4	13.8	3.40e-06	0	41	0	130023424	12	4181
2026-01-27 15:03:17.83	174.80	8.75	-26.2	-27.7	13.7	1.25e-05	0	42	0	137363456	12	4270
2026-01-27 15:03:18.83	174.83	8.83	-26.2	-27.6	13.7	3.40e-06	0	42	0	144703488	12	4259
2026-01-27 15:03:19.84	174.86	8.91	-26.3	-27.9	13.6	3.40e-06	0	42	0	152043520	12	4315
2026-01-27 15:03:20.84	174.90	8.99	-26.3	-27.9	13.5	1.14e-05	0	42	0	159383552	12	4334
2026-01-27 15:03:21.85	174.93	9.08	-26.3	-27.8	13.6	9.10e-06	0	42	0	166723584	12	4291
2026-01-27 15:03:22.85	174.96	9.16	-26.2	-27.7	13.7	4.50e-06	0	42	0	173015040	12	4271
2026-01-27 15:03:23.86	175.00	9.24	-26.1	-27.5	13.8	1.10e-06	0	42	0	180355072	12	4206
2026-01-27 15:03:24.86	175.03	9.33	-26.1	-27.5	13.8	6.80e-06	0	42	0	187695104	12	4224
2026-01-27 15:03:25.86	175.07	9.41	-26.2	-27.7	13.7	9.10e-06	0	42	0	195035136	12	4266
2026-01-27 15:03:26.87	175.10	9.50	-25.9	-27.0	14.1	3.40e-06	0	42	0	202375168	12	4096
2026-01-27 15:03:27.88	175.14	9.58	-25.8	-26.7	14.3	2.20e-06	0	42	0	209715200	12	4004
2026-01-27 15:03:28.88	175.17	9.67	-25.7	-26.5	14.4	1.10e-06	0	42	0	217055232	12	3967
2026-01-27 15:03:29.89	175.21	9.75	-25.8	-26.7	14.3	1.10e-06	0	42	0	224395264	12	4008
2026-01-27 15:03:30.89	175.24	9.84	-25.7	-26.4	14.4	1.10e-06	0	42	0	231735296	12	3935
2026-01-27 15:03:31.89	175.28	9.92	-25.6	-26.4	14.5	0.00e+00	0	42	0	239075328	12	3927
2026-01-27 15:03:32.89	175.31	10.01	-25.6	-26.4	14.5	0.00e+00	0	42	0	246415360	12	3920
2026-01-27 15:03:33.90	175.35	10.09	-25.7	-26.5	14.4	0.00e+00	0	42	0	252706816	12	3951
2026-01-27 15:03:34.91	175.38	10.18	-25.7	-26.5	14.4	0.00e+00	0	42	0	260046848	12	3967
2026-01-27 15:03:35.90	175.42	10.27	-25.8	-26.7	14.3	1.10e-06	0	42	0	267386880	12	4007
2026-01-27 15:03:36.90	175.46	10.35	-25.7	-26.6	14.4	0.00e+00	0	42	0	274726912	12	3971
2026-01-27 15:03:37.91	175.49	10.44	-25.6	-26.3	14.5	0.00e+00	0	42	0	282066944	12	3898
2026-01-27 15:03:38.92	175.53	10.53	-25.8	-26.7	14.3	3.40e-06	0	42	0	289406976	12	4016
2026-01-27 15:03:39.92	175.57	10.62	-25.7	-26.5	14.5	0.00e+00	0	42	0	296747008	12	3956
2026-01-27 15:03:40.92	175.61	10.70	-25.9	-27.0	14.2	1.10e-06	0	42	0	304087040	12	4086
2026-01-27 15:03:41.93	175.64	10.79	-25.8	-26.7	14.4	1.10e-06	0	42	0	311427072	12	4000
2026-01-27 15:03:42.93	175.68	10.88	-25.6	-26.4	14.6	0.00e+00	0	42	0	317718528	12	3923
2026-01-27 15:03:43.94	175.72	10.97	-25.6	-26.4	14.5	1.10e-06	0	42	0	326107136	12	3925
2026-01-27 15:03:44.94	175.76	11.06	-25.7	-26.4	14.5	0.00e+00	0	42	0	333447168	12	3942
2026-01-27 15:03:45.95	175.80	11.15	-25.6	-26.2	14.7	1.10e-06	0	42	0	339738624	12	3889
2026-01-27 15:03:46.95	175.83	11.24	-25.8	-26.7	14.4	0.00e+00	0	42	0	347078656	12	3991
2026-01-27 15:03:47.96	175.87	11.33	-25.5	-26.0	14.7	0.00e+00	0	42	0	354418688	12	3842
2026-01-27 15:03:48.96	175.91	11.42	-25.6	-26.3	14.6	0.00e+00	0	42	0	361758720	12	3910
2026-01-27 15:03:49.97	175.95	11.51	-25.5	-26.0	14.7	0.00e+00	0	42	0	369098752	12	3838
2026-01-27 15:03:50.97	175.99	11.61	-25.5	-26.6	14.8	0.00e+00	0	42	0	376438784	11	4075
2026-01-27 15:03:51.97	176.03	11.70	-25.5	-26.7	14.7	0.00e+00	0	42	0	383778816	11	4101
2026-01-27 15:03:52.97	176.07	11.79	-25.4	-26.4	14.9	0.00e+00	0	42	0	391118848	11	4043
2026-01-27 15:03:53.98	176.11	11.88	-25.6	-26.7	14.7	1.10e-06	0	42	0	398458880	11	4105
2026-01-27 15:03:54.98	176.15	11.97	-25.5	-26.6	14.8	0.00e+00	0	42	0	404750336	11	4089
2026-01-27 15:03:55.98	176.19	12.07	-25.2	-25.9	15.2	0.00e+00	0	42	0	412090368	11	3897
2026-01-27 15:03:56.98	176.23	12.16	-25.1	-25.8	15.2	5.70e-06	0	42	0	420478976	11	3887
2026-01-27 15:03:57.99	176.27	12.25	-25.2	-25.9	15.2	0.00e+00	0	42	0	426770432	11	3903
2026-01-27 15:03:58.99	176.31	12.35	-25.1	-25.8	15.3	0.00e+00	0	42	0	434110464	11	3876
2026-01-27 15:04:00.00	176.36	12.44	-25.2	-25.9	15.2	8.00e-06	0	42	0	441450496	11	3900
2026-01-27 15:04:01.00	176.40	12.54	-25.0	-25.5	15.4	1.10e-06	0	42	0	448790528	11	3828
2026-01-27 15:04:02.01	176.44	12.63	-25.0	-25.5	15.4	0.00e+00	0	42	0	456130560	11	3817
2026-01-27 15:04:03.01	176.48	12.73	-25.1	-25.6	15.3	1.25e-05	0	42	0	463470592	11	3847
2026-01-27 15:04:04.01	176.52	12.83	-25.1	-25.8	15.3	0.00e+00	0	43	0	470810624	11	3883
2026-01-27 15:04:05.02	176.57	12.92	-25.1	-25.6	15.3	0.00e+00	0	42	0	478150656	11	3856
2026-01-27 15:04:06.02	176.61	13.02	-24.7	-25.5	15.7	0.00e+00	0	43	0	484442112	10	3910
2026-01-27 15:04:07.01	176.65	13.11	-24.9	-25.8	15.5	0.00e+00	0	43	0	491782144	10	3987
2026-01-27 15:04:08.01	176.70	13.21	-25.1	-26.1	15.4	0.00e+00	0	42	0	499122176	10	4076
2026-01-27 15:04:09.01	176.74	13.31	-24.8	-25.6	15.6	0.00e+00	0	43	0	506462208	10	3939
2026-01-27 15:04:10.02	176.79	13.41	-25.0	-26.1	15.3	0.00e+00	0	43	0	513802240	10	4082
2026-01-27 15:04:11.02	176.83	13.51	-25.0	-25.9	15.4	0.00e+00	0	42	0	521142272	10	4031
2026-01-27 15:04:12.03	176.87	13.61	-25.2	-26.5	15.2	0.00e+00	0	42	0	528482304	10	4162
2026-01-27 15:04:13.02	176.92	13.70	-24.9	-25.9	15.5	0.00e+00	0	43	0	535822336	10	4022
2026-01-27 15:04:14.03	176.96	13.80	-24.8	-25.7	15.6	0.00e+00	0	43	0	543162368	10	3964
2026-01-27 15:04:15.03	177.01	13.90	-24.6	-25.2	15.8	0.00e+00	0	43	0	549453824	10	3859
2026-01-27 15:04:16.03	177.06	14.00	-24.8	-25.6	15.6	0.00e+00	0	43	0	557842432	10	3955
2026-01-27 15:04:17.04	177.10	14.11	-24.8	-25.5	15.7	0.00e+00	0	43	0	565182464	10	3935
2026-01-27 15:04:18.05	177.15	14.21	-24.6	-25.2	15.8	0.00e+00	0	43	0	571473920	10	3863
2026-01-27 15:04:19.05	177.20	14.31	-24.7	-25.3	15.8	0.00e+00	0	42	0	578813952	10	3888
2026-01-27 15:04:20.05	177.24	14.41	-24.5	-25.1	15.9	0.00e+00	0	43	0	586153984	10	3827
2026-01-27 15:04:21.06	177.29	14.51	-24.6	-25.3	15.8	0.00e+00	0	43	0	593494016	10	3883
2026-01-27 15:04:22.06	177.34	14.62	-24.6	-25.2	15.9	0.00e+00	0	43	0	600834048	10	3859
2026-01-27 15:04:23.06	177.39	14.72	-24.7	-25.4	15.8	0.00e+00	0	43	0	608174080	10	3909
2026-01-27 15:04:24.07	177.43	14.82	-24.6	-25.2	15.8	0.00e+00	0	43	0	615514112	10	3879
2026-01-27 15:04:25.07	177.48	14.93	-24.6	-25.2	15.8	0.00e+00	0	42	0	622854144	10	3871
2026-01-27 15:04:26.07	177.53	15.03	-24.9	-25.8	15.5	0.00e+00	0	43	0	630194176	10	4021
2026-01-27 15:04:27.07	177.58	15.14	-24.6	-25.2	15.9	0.00e+00	0	43	0	636485632	10	3857
2026-01-27 15:04:28.07	177.63	15.24	-24.5	-25.1	15.9	0.00e+00	0	43	0	643825664	10	3850
2026-01-27 15:04:29.08	177.68	15.35	-24.7	-25.4	15.7	0.00e+00	0	43	0	651165696	10	3923
2026-01-27 15:04:30.08	177.73	15.46	-24.5	-25.1	15.9	0.00e+00	0	43	0	658505728	10	3843
2026-01-27 15:04:31.09	177.78	15.56	-24.4	-24.9	16.0	0.00e+00	0	43	0	665845760	10	3804
2026-01-27 15:04:32.09	177.83	15.67	-24.6	-25.4	15.7	0.00e+00	0	43	0	673185792	10	3917
2026-01-27 15:04:33.09	177.88	15.78	-24.6	-25.3	15.8	0.00e+00	0	43	0	680525824	10	3907
2026-01-27 15:04:34.10	177.93	15.89	-24.4	-25.0	15.9	0.00e+00	0	43	0	687865856	10	3820
2026-01-27 15:04:35.10	177.99	16.00	-24.5	-25.1	15.8	0.00e+00	0	43	0	695205888	10	3861
2026-01-27 15:04:36.10	178.04	16.10	-24.5	-25.1	15.9	0.00e+00	0	43	0	702545920	10	3851
2026-01-27 15:04:37.10	178.09	16.21	-24.4	-25.3	16.0	0.00e+00	0	43	0	709885952	9	4018
2026-01-27 15:04:38.11	178.14	16.33	-24.4	-25.5	15.9	0.00e+00	0	43	0	716177408	9	4066
2026-01-27 15:04:39.11	178.20	16.44	-24.4	-25.5	15.9	0.00e+00	0	43	0	723517440	9	4057
2026-01-27 15:04:40.12	178.25	16.55	-24.3	-25.1	16.1	0.00e+00	0	43	0	730857472	9	3974
2026-01-27 15:04:41.11	178.30	16.66	-24.3	-25.1	16.1	0.00e+00	0	43	0	738197504	9	3975
2026-01-27 15:04:42.12	178.36	16.77	-24.3	-25.1	16.1	0.00e+00	0	43	0	745537536	9	3955
2026-01-27 15:04:43.12	178.41	16.88	-24.2	-24.9	16.2	0.00e+00	0	43	0	752877568	9	3914
2026-01-27 15:04:44.13	178.47	17.00	-24.2	-24.9	16.2	0.00e+00	0	43	0	760217600	9	3920
2026-01-27 15:04:45.13	178.52	17.11	-24.1	-24.8	16.3	0.00e+00	0	43	0	767557632	9	3895
2026-01-27 15:04:46.14	178.58	17.22	-24.1	-24.7	16.3	0.00e+00	0	43	0	774897664	9	3867
2026-01-27 15:04:47.14	178.64	17.34	-24.2	-24.9	16.2	0.00e+00	0	43	0	782237696	9	3916
2026-01-27 15:04:48.15	178.69	17.46	-24.2	-24.9	16.2	0.00e+00	0	43	0	789577728	9	3908
2026-01-27 15:04:49.15	178.75	17.57	-24.3	-25.2	16.1	0.00e+00	0	43	0	796917760	9	3971
2026-01-27 15:04:50.16	178.81	17.69	-24.0	-24.5	16.5	0.00e+00	0	43	0	803209216	9	3817
2026-01-27 15:04:51.17	178.87	17.81	-23.9	-24.8	16.5	0.00e+00	0	43	0	810549248	8	3993
2026-01-27 15:04:52.18	178.93	17.92	-23.7	-24.4	16.7	0.00e+00	0	43	0	817889280	8	3902
2026-01-27 15:04:53.17	178.98	18.04	-23.8	-24.5	16.7	0.00e+00	0	43	0	825229312	8	3908
2026-01-27 15:04:54.18	179.04	18.16	-23.7	-24.4	16.7	0.00e+00	0	43	0	832569344	8	3900
2026-01-27 15:04:55.18	179.10	18.28	-23.9	-24.7	16.6	0.00e+00	0	43	0	839909376	8	3964
2026-01-27 15:04:56.19	179.16	18.40	-24.0	-25.0	16.5	0.00e+00	0	43	0	847249408	8	4028
2026-01-27 15:04:57.19	179.23	18.52	-23.7	-24.3	16.8	0.00e+00	0	43	0	854589440	8	3878
2026-01-27 15:04:58.19	179.29	18.64	-23.6	-24.2	16.9	0.00e+00	0	43	0	861929472	8	3852
2026-01-27 15:04:59.19	179.35	18.76	-23.5	-24.0	17.0	2.20e-06	0	43	0	869269504	8	3792
2026-01-27 15:05:00.20	179.41	18.88	-23.6	-24.2	16.9	0.00e+00	0	43	0	876609536	8	3844
2026-01-27 15:05:01.20	179.47	19.00	-23.5	-23.9	17.1	0.00e+00	0	43	0	882900992	8	3773
2026-01-27 15:05:02.21	179.54	19.13	-23.6	-24.1	16.9	1.10e-06	0	43	0	890241024	8	3825
2026-01-27 15:05:03.21	179.60	19.25	-23.4	-24.3	17.1	0.00e+00	0	43	0	897581056	7	3987
2026-01-27 15:05:04.21	179.66	19.37	-23.3	-23.9	17.2	0.00e+00	0	43	0	904921088	7	3890
2026-01-27 15:05:05.22	179.73	19.50	-23.3	-24.0	17.2	2.20e-06	0	43	0	912261120	7	3909
2026-01-27 15:05:06.22	179.79	19.62	-23.4	-24.2	17.1	0.00e+00	0	43	0	919601152	7	3945
2026-01-27 15:05:07.22	179.86	19.75	-23.3	-24.0	17.2	0.00e+00	0	43	0	926941184	7	3900
2026-01-27 15:05:08.22	179.92	19.87	-23.2	-23.8	17.3	0.00e+00	0	43	0	934281216	7	3847
2026-01-27 15:05:09.23	179.99	20.00	-23.4	-24.2	17.1	0.00e+00	0	43	0	941621248	7	3956
2026-01-27 15:05:10.23	180.06	20.13	-23.4	-24.2	17.1	0.00e+00	0	43	0	947912704	7	3961
2026-01-27 15:05:11.23	180.12	20.26	-23.4	-24.3	17.1	0.00e+00	0	43	0	955252736	7	3993
2026-01-27 15:05:12.23	180.19	20.39	-23.6	-24.8	16.8	0.00e+00	0	43	0	962592768	7	4107
2026-01-27 15:05:13.22	180.26	20.51	-23.4	-24.2	17.1	0.00e+00	0	43	0	969932800	7	3970
2026-01-27 15:05:14.23	180.33	20.64	-23.5	-24.6	16.9	0.00e+00	0	43	0	977272832	7	4049
2026-01-27 15:05:15.23	180.40	20.78	-23.6	-24.7	16.9	0.00e+00	0	43	0	984612864	7	4094
2026-01-27 15:05:16.24	180.47	20.91	-23.5	-24.5	17.0	0.00e+00	0	43	0	991952896	7	4026
2026-01-27 15:05:17.24	180.54	21.04	-23.5	-24.5	17.0	0.00e+00	0	43	0	999292928	7	4043
2026-01-27 15:05:18.24	180.61	21.17	-23.6	-24.7	16.9	0.00e+00	0	43	0	1006632960	7	4095
2026-01-27 15:05:19.25	180.68	21.31	-23.5	-24.6	17.0	0.00e+00	0	43	0	1013972992	7	4049
2026-01-27 15:05:20.25	180.76	21.44	-23.5	-24.5	17.0	0.00e+00	0	43	0	1021313024	7	4043
2026-01-27 15:05:21.25	180.83	21.57	-23.5	-24.6	17.0	0.00e+00	0	43	0	1028653056	7	4050
2026-01-27 15:05:22.26	180.90	21.71	-23.5	-24.5	17.1	0.00e+00	0	43	0	1034944512	7	4019
2026-01-27 15:05:23.27	180.98	21.85	-23.5	-24.3	17.2	0.00e+00	0	43	0	1042284544	7	3978
2026-01-27 15:05:24.28	181.06	21.98	-23.6	-24.6	17.0	0.00e+00	0	43	0	1049624576	7	4049
2026-01-27 15:05:25.28	181.13	22.12	-23.3	-24.0	17.3	0.00e+00	0	43	0	1056964608	7	3905
2026-01-27 15:05:26.29	181.21	22.26	-23.3	-23.9	17.4	0.00e+00	0	43	0	1064304640	7	3871
2026-01-27 15:05:27.29	181.28	22.40	-23.3	-23.8	17.4	0.00e+00	0	43	0	1071644672	7	3852
2026-01-27 15:05:28.30	181.36	22.54	-23.2	-23.7	17.5	0.00e+00	0	43	0	1078984704	7	3818
2026-01-27 15:05:29.30	181.44	22.68	-23.1	-23.5	17.7	0.00e+00	0	43	0	1086324736	7	3764
2026-01-27 15:05:30.30	181.52	22.82	-23.0	-23.2	17.8	0.00e+00	0	43	0	1093664768	7	3698
2026-01-27 15:05:31.29	181.60	22.96	-23.0	-23.2	17.8	0.00e+00	0	43	0	1101004800	7	3697
2026-01-27 15:05:32.30	181.68	23.10	-23.0	-23.2	17.8	0.00e+00	0	43	0	1108344832	7	3682
2026-01-27 15:05:33.30	181.76	23.25	-23.0	-23.3	17.8	0.00e+00	0	43	0	1114636288	7	3720
2026-01-27 15:05:34.30	181.84	23.39	-23.1	-23.4	17.7	0.00e+00	0	43	0	1121976320	7	3743
2026-01-27 15:05:35.31	181.92	23.54	-23.0	-23.2	17.8	0.00e+00	0	43	0	1129316352	7	3701
2026-01-27 15:05:36.32	182.01	23.68	-23.1	-23.4	17.7	0.00e+00	0	43	0	1136656384	7	3746
2026-01-27 15:05:37.32	182.09	23.83	-23.1	-23.5	17.7	0.00e+00	0	43	0	1143996416	7	3765
2026-01-27 15:05:38.32	182.18	23.97	-23.1	-23.5	17.7	0.00e+00	0	43	0	1151336448	7	3771
2026-01-27 15:05:39.33	182.26	24.12	-23.1	-23.5	17.7	0.00e+00	0	43	0	1158676480	7	3769
2026-01-27 15:05:40.33	182.35	24.27	-23.2	-23.8	17.5	0.00e+00	0	43	0	1166016512	7	3832
2026-01-27 15:05:41.34	182.44	24.42	-23.4	-24.1	17.4	0.00e+00	0	43	0	1173356544	7	3901
2026-01-27 15:05:42.34	182.52	24.57	-23.3	-24.0	17.4	0.00e+00	0	43	0	1180696576	7	3880
2026-01-27 15:05:43.35	182.61	24.72	-23.3	-24.1	17.4	0.00e+00	0	43	0	1188036608	7	3906
2026-01-27 15:05:44.34	182.70	24.87	-23.4	-24.3	17.2	0.00e+00	0	43	0	1195376640	7	3959
2026-01-27 15:05:45.35	182.79	25.03	-23.5	-24.4	17.2	0.00e+00	0	43	0	1201668096	7	3994
2026-01-27 15:05:46.36	182.88	25.18	-23.5	-24.5	17.2	0.00e+00	0	43	0	1209008128	7	4016
2026-01-27 15:05:47.36	182.98	25.34	-23.5	-24.4	17.2	0.00e+00	0	43	0	1216348160	7	4000
2026-01-27 15:05:48.37	183.07	25.49	-23.5	-24.4	17.2	0.00e+00	0	43	0	1223688192	7	3990
2026-01-27 15:05:49.38	183.16	25.65	-23.1	-23.7	17.5	0.00e+00	0	43	0	1231028224	7	3818
2026-01-27 15:05:50.38	183.26	25.80	-22.9	-23.7	17.8	0.00e+00	0	43	0	1238368256	6	3933
2026-01-27 15:05:51.38	183.35	25.96	-22.9	-23.7	17.8	0.00e+00	0	43	0	1245708288	6	3924
2026-01-27 15:05:52.38	183.45	26.12	-22.9	-23.6	17.9	0.00e+00	0	43	0	1253048320	6	3897
2026-01-27 15:05:53.39	183.55	26.28	-22.8	-23.4	17.9	0.00e+00	0	43	0	1260388352	6	3872
2026-01-27 15:05:54.39	183.65	26.44	-22.8	-23.5	17.9	0.00e+00	0	43	0	1267728384	6	3881
2026-01-27 15:05:55.38	183.74	26.60	-22.7	-23.3	18.0	0.00e+00	0	43	0	1275068416	6	3834
2026-01-27 15:05:56.39	183.85	26.76	-22.7	-23.2	18.0	0.00e+00	0	43	0	1282408448	6	3820
2026-01-27 15:05:57.40	183.95	26.93	-22.6	-22.9	18.1	0.00e+00	0	43	0	1288699904	6	3755
2026-01-27 15:05:58.40	184.05	27.09	-22.6	-23.0	18.1	0.00e+00	0	43	0	1296039936	6	3774
2026-01-27 15:05:59.40	184.15	27.25	-22.5	-22.8	18.2	0.00e+00	0	43	0	1303379968	6	3721
2026-01-27 15:06:00.40	184.26	27.42	-22.4	-23.0	18.3	0.00e+00	0	43	0	1310720000	5	3885
2026-01-27 15:06:01.40	184.36	27.58	-22.3	-22.9	18.4	0.00e+00	0	43	0	1318060032	5	3858
2026-01-27 15:06:02.40	184.47	27.75	-22.5	-23.3	18.2	0.00e+00	0	43	0	1325400064	5	3939
2026-01-27 15:06:03.41	184.58	27.92	-22.6	-23.4	18.2	0.00e+00	0	43	0	1332740096	5	3972
2026-01-27 15:06:04.41	184.69	28.09	-22.4	-23.0	18.4	0.00e+00	0	43	0	1340080128	5	3875
2026-01-27 15:06:05.41	184.79	28.26	-22.3	-22.9	18.4	0.00e+00	0	43	0	1346371584	5	3845
2026-01-27 15:06:06.41	184.91	28.43	-22.4	-23.1	18.3	0.00e+00	0	43	0	1353711616	5	3909
2026-01-27 15:06:07.41	185.02	28.60	-22.4	-23.1	18.3	0.00e+00	0	43	0	1361051648	5	3906
2026-01-27 15:06:08.41	185.13	28.77	-22.6	-23.5	18.1	0.00e+00	0	43	0	1368391680	5	4003
2026-01-27 15:06:09.41	185.24	28.94	-22.7	-23.6	18.1	0.00e+00	0	43	0	1375731712	5	4019
2026-01-27 15:06:10.42	185.36	29.12	-22.7	-23.6	18.1	0.00e+00	0	43	0	1383071744	5	4017
2026-01-27 15:06:11.43	185.48	29.30	-22.6	-23.5	18.2	0.00e+00	0	43	0	1390411776	5	3981
2026-01-27 15:06:12.43	185.60	29.47	-22.7	-23.6	18.2	0.00e+00	0	43	0	1397751808	5	3999
2026-01-27 15:06:13.43	185.71	29.65	-22.6	-23.5	18.2	0.00e+00	0	43	0	1405091840	5	3986
2026-01-27 15:06:14.44	185.84	29.83	-22.6	-23.5	18.2	0.00e+00	0	43	0	1412431872	5	3980
2026-01-27 15:06:15.44	185.96	30.01	-22.7	-23.7	18.2	0.00e+00	0	43	0	1419771904	5	4019
2026-01-27 15:06:16.45	186.08	30.19	-22.6	-23.4	18.4	0.00e+00	0	43	0	1427111936	5	3951
2026-01-27 15:06:17.45	186.21	30.37	-22.7	-23.6	18.3	0.00e+00	0	43	0	1433403392	5	4002
2026-01-27 15:06:18.45	186.33	30.56	-22.6	-23.4	18.4	0.00e+00	0	43	0	1440743424	5	3942
2026-01-27 15:06:19.46	186.46	30.74	-22.5	-23.3	18.4	0.00e+00	0	43	0	1448083456	5	3924
2026-01-27 15:06:20.46	186.59	30.92	-22.6	-23.5	18.4	0.00e+00	0	43	0	1455423488	5	3978
2026-01-27 15:06:21.47	186.72	31.11	-22.6	-23.5	18.4	0.00e+00	0	43	0	1462763520	5	3972
2026-01-27 15:06:22.47	186.85	31.30	-22.8	-23.8	18.2	0.00e+00	0	43	0	1470103552	5	4040
2026-01-27 15:06:23.48	186.98	31.49	-22.8	-23.8	18.2	0.00e+00	0	43	0	1477443584	5	4045
2026-01-27 15:06:24.49	187.12	31.68	-22.6	-23.4	18.4	0.00e+00	0	43	0	1484783616	5	3962
2026-01-27 15:06:25.49	187.26	31.87	-22.7	-23.7	18.2	0.00e+00	0	43	0	1492123648	5	4024
2026-01-27 15:06:26.50	187.40	32.06	-22.9	-24.1	17.9	0.00e+00	0	43	0	1499463680	5	4128
2026-01-27 15:06:27.51	187.54	32.25	-22.4	-23.0	18.5	0.00e+00	0	43	0	1506803712	5	3864
2026-01-27 15:06:28.51	187.68	32.45	-22.3	-22.9	18.6	0.00e+00	0	43	0	1514143744	5	3828
2026-01-27 15:06:29.51	187.82	32.64	-22.3	-22.9	18.6	0.00e+00	0	43	0	1520435200	5	3840
2026-01-27 15:06:30.52	187.96	32.84	-22.4	-23.0	18.5	0.00e+00	0	43	0	1527775232	5	3859
2026-01-27 15:06:31.52	188.11	33.03	-22.4	-23.1	18.4	0.00e+00	0	43	0	1535115264	5	3899
2026-01-27 15:06:32.53	188.26	33.23	-22.3	-22.8	18.6	0.00e+00	0	43	0	1542455296	5	3823
2026-01-27 15:06:33.54	188.41	33.43	-22.4	-23.1	18.4	0.00e+00	0	43	0	1549795328	5	3910
2026-01-27 15:06:34.54	188.56	33.63	-22.5	-23.2	18.3	0.00e+00	0	44	0	1557135360	5	3941
2026-01-27 15:06:35.55	188.71	33.83	-22.5	-23.3	18.3	0.00e+00	0	43	0	1564475392	5	3958
2026-01-27 15:06:36.56	188.87	34.03	-22.4	-23.2	18.4	0.00e+00	0	43	0	1571815424	5	3923
2026-01-27 15:06:37.56	189.03	34.24	-22.5	-23.4	18.3	0.00e+00	0	43	0	1579155456	5	3974
2026-01-27 15:06:38.57	189.19	34.44	-22.6	-23.5	18.2	0.00e+00	0	43	0	1586495488	5	4005
2026-01-27 15:06:39.57	189.35	34.65	-22.7	-23.7	18.1	0.00e+00	0	43	0	1593835520	5	4059
2026-01-27 15:06:40.58	189.51	34.85	-22.7	-23.7	18.0	0.00e+00	0	43	0	1600126976	5	4070
2026-01-27 15:06:41.58	189.67	35.06	-22.7	-23.7	18.1	0.00e+00	0	43	0	1607467008	5	4056
2026-01-27 15:06:42.58	189.84	35.27	-22.5	-23.4	18.2	0.00e+00	0	43	0	1614807040	5	3991
2026-01-27 15:06:43.58	190.01	35.48	-22.8	-23.9	18.0	0.00e+00	0	43	0	1622147072	5	4120
2026-01-27 15:06:44.58	190.18	35.69	-22.7	-23.8	18.1	0.00e+00	0	43	0	1629487104	5	4089
2026-01-27 15:06:45.59	190.35	35.90	-22.7	-23.8	18.0	0.00e+00	0	43	0	1636827136	5	4094
2026-01-27 15:06:46.61	190.53	36.12	-22.8	-24.1	17.9	0.00e+00	0	43	0	1644167168	5	4150
2026-01-27 15:06:47.61	190.71	36.33	-23.2	-24.3	17.6	0.00e+00	0	43	0	1651507200	6	4108
2026-01-27 15:06:48.61	190.89	36.55	-23.1	-24.1	17.7	0.00e+00	0	43	0	1658847232	6	4045
2026-01-27 15:06:49.61	191.07	36.76	-23.7	-24.1	18.2	0.00e+00	0	43	0	1666187264	7	3783
2026-01-27 15:06:50.62	191.26	36.98	-23.7	-24.1	18.2	0.00e+00	0	43	0	1673527296	7	3775
2026-01-27 15:06:51.62	191.44	37.20	-23.6	-23.9	18.4	0.00e+00	0	43	0	1680867328	7	3724
2026-01-27 15:06:52.63	191.64	37.42	-23.5	-23.8	18.4	0.00e+00	0	43	0	1687158784	7	3704
2026-01-27 15:06:53.62	191.83	37.64	-23.5	-23.8	18.4	0.00e+00	0	43	0	1694498816	7	3704
2026-01-27 15:06:54.63	192.02	37.86	-23.5	-23.8	18.4	0.00e+00	0	43	0	1701838848	7	3705
2026-01-27 15:06:55.63	192.22	38.08	-23.4	-23.6	18.5	0.00e+00	0	43	0	1709178880	7	3666
2026-01-27 15:06:56.63	192.42	38.31	-23.4	-23.5	18.5	0.00e+00	0	43	0	1716518912	7	3652
2026-01-27 15:06:57.63	192.62	38.53	-23.5	-23.7	18.5	0.00e+00	0	43	0	1723858944	7	3700
2026-01-27 15:06:58.64	192.83	38.76	-23.7	-23.7	18.3	0.00e+00	0	43	0	1731198976	8	3594
2026-01-27 15:06:59.64	193.04	38.99	-23.7	-23.7	18.3	0.00e+00	0	43	0	1738539008	8	3583
2026-01-27 15:07:00.64	193.25	39.21	-23.5	-23.3	18.5	0.00e+00	0	43	0	1745879040	8	3502
2026-01-27 15:07:01.65	193.46	39.44	-23.5	-23.1	18.6	0.00e+00	0	43	0	1753219072	8	3473
2026-01-27 15:07:02.65	193.68	39.67	-23.4	-23.1	18.6	0.00e+00	0	43	0	1760559104	8	3457
2026-01-27 15:07:03.66	193.90	39.91	-23.6	-23.9	18.3	0.00e+00	0	43	0	1766850560	7	3732
2026-01-27 15:07:04.66	194.12	40.14	-23.5	-23.8	18.5	0.00e+00	0	43	0	1774190592	7	3707
2026-01-27 15:07:05.67	194.35	40.38	-23.6	-23.8	18.4	0.00e+00	0	43	0	1781530624	7	3719
2026-01-27 15:07:06.67	194.58	40.61	-23.6	-24.0	18.3	0.00e+00	0	44	0	1788870656	7	3760
2026-01-27 15:07:07.67	194.81	40.85	-23.6	-24.0	18.4	0.00e+00	0	43	0	1796210688	7	3765
2026-01-27 15:07:08.67	195.05	41.08	-23.4	-23.5	18.6	0.00e+00	0	43	0	1803550720	7	3644
2026-01-27 15:07:09.68	195.29	41.32	-23.4	-23.4	18.6	0.00e+00	0	43	0	1810890752	7	3627
2026-01-27 15:07:10.68	195.53	41.56	-23.4	-23.5	18.6	0.00e+00	0	43	0	1818230784	7	3633
2026-01-27 15:07:11.69	195.78	41.80	-23.5	-23.8	18.5	0.00e+00	0	43	0	1825570816	7	3711
2026-01-27 15:07:12.69	196.03	42.04	-23.6	-23.9	18.4	0.00e+00	0	43	0	1832910848	7	3743
2026-01-27 15:07:13.69	196.28	42.28	-23.6	-23.9	18.4	0.00e+00	0	43	0	1840250880	7	3727
2026-01-27 15:07:14.70	196.54	42.53	-23.7	-23.6	18.4	0.00e+00	0	43	0	1847590912	8	3567
2026-01-27 15:07:15.70	196.81	42.77	-23.6	-23.3	18.5	0.00e+00	0	43	0	1853882368	8	3512
2026-01-27 15:07:16.71	197.07	43.02	-23.7	-23.5	18.4	0.00e+00	0	43	0	1861222400	8	3549
2026-01-27 15:07:17.71	197.34	43.26	-23.7	-23.6	18.4	0.00e+00	0	43	0	1868562432	8	3564
2026-01-27 15:07:18.71	197.62	43.51	-23.8	-23.8	18.3	0.00e+00	0	43	0	1875902464	8	3610
2026-01-27 15:07:19.72	197.90	43.76	-23.5	-23.8	18.5	0.00e+00	0	43	0	1883242496	7	3701
2026-01-27 15:07:20.73	198.18	44.01	-23.8	-24.4	18.2	0.00e+00	0	43	0	1890582528	7	3840
2026-01-27 15:07:21.72	198.46	44.25	-23.7	-24.0	18.3	0.00e+00	0	43	0	1897922560	7	3760
2026-01-27 15:07:22.73	198.76	44.51	-23.5	-23.8	18.5	0.00e+00	0	43	0	1905262592	7	3705
2026-01-27 15:07:23.73	199.05	44.76	-23.5	-23.7	18.5	0.00e+00	0	43	0	1912602624	7	3689
2026-01-27 15:07:24.74	199.36	45.01	-22.8	-22.7	19.1	0.00e+00	0	43	0	1919942656	6	3573
2026-01-27 15:07:25.75	199.66	45.26	-23.4	-23.5	18.7	0.00e+00	0	44	0	1927282688	7	3630
2026-01-27 15:07:26.75	199.97	45.52	-23.5	-23.7	18.5	0.00e+00	0	43	0	1934622720	7	3694
2026-01-27 15:07:27.75	200.29	45.77	-23.7	-24.1	18.4	0.00e+00	0	44	0	1940914176	7	3769
2026-01-27 15:07:28.75	200.61	46.02	-23.7	-24.2	18.3	0.00e+00	0	43	0	1948254208	7	3807
2026-01-27 15:07:29.75	200.93	46.28	-23.8	-24.3	18.2	0.00e+00	0	43	0	1955594240	7	3822
2026-01-27 15:07:30.76	201.26	46.53	-24.0	-24.4	18.0	0.00e+00	0	43	0	1962934272	8	3737
2026-01-27 15:07:31.76	201.60	46.79	-24.1	-24.5	17.9	0.00e+00	0	43	0	1970274304	8	3762
2026-01-27 15:07:32.76	201.94	47.05	-24.2	-24.6	17.9	0.00e+00	0	43	0	1977614336	8	3784
2026-01-27 15:07:33.76	202.29	47.30	-24.0	-24.3	18.0	0.00e+00	0	43	0	1984954368	8	3716
2026-01-27 15:07:34.76	202.64	47.56	-24.1	-24.4	18.0	0.00e+00	0	43	0	1992294400	8	3732
2026-01-27 15:07:35.77	203.00	47.82	-24.3	-24.9	17.7	0.00e+00	0	43	0	1998585856	8	3859
2026-01-27 15:07:36.77	203.36	48.08	-24.3	-25.0	17.7	0.00e+00	0	43	0	2005925888	8	3873
2026-01-27 15:07:37.77	203.73	48.33	-24.4	-25.1	17.6	0.00e+00	0	43	0	2013265920	8	3902
2026-01-27 15:07:38.78	204.11	48.59	-24.4	-25.1	17.6	0.00e+00	0	44	0	2020605952	8	3903
2026-01-27 15:07:39.78	204.49	48.85	-24.3	-24.9	17.7	0.00e+00	0	44	0	2027945984	8	3855
2026-01-27 15:07:40.79	204.88	49.11	-24.4	-24.5	17.6	0.00e+00	0	43	0	2035286016	9	3662
2026-01-27 15:07:41.80	205.28	49.38	-24.7	-25.3	17.3	0.00e+00	0	43	0	2042626048	9	3841
2026-01-27 15:07:42.80	205.68	49.63	-24.8	-25.4	17.2	0.00e+00	0	43	0	2049966080	9	3878
2026-01-27 15:07:43.81	206.10	49.90	-24.9	-25.6	17.1	0.00e+00	0	43	0	2057306112	9	3910
2026-01-27 15:07:44.81	206.51	50.15	-25.2	-25.7	16.8	0.00e+00	0	44	0	2064646144	10	3843
2026-01-27 15:07:45.81	206.93	50.41	-24.0	-23.6	18.1	0.00e+00	0	43	0	2071986176	9	3467
2026-01-27 15:07:46.80	207.36	50.67	-24.6	-24.6	17.4	0.00e+00	0	44	0	2079326208	10	3592
2026-01-27 15:07:47.81	207.80	50.93	-24.5	-24.3	17.6	0.00e+00	0	44	0	2085617664	10	3522
2026-01-27 15:07:48.81	208.25	51.19	-24.6	-24.4	17.5	0.00e+00	0	44	0	2092957696	10	3543
2026-01-27 15:07:49.81	208.70	51.44	-24.5	-24.3	17.6	0.00e+00	0	43	0	2100297728	10	3523
2026-01-27 15:07:50.82	209.16	51.70	-24.6	-25.0	17.5	0.00e+00	0	43	0	2107637760	9	3765
2026-01-27 15:07:51.82	209.63	51.96	-24.7	-25.3	17.4	0.00e+00	0	43	0	2114977792	9	3835
2026-01-27 15:07:52.83	210.11	52.22	-24.5	-24.8	17.6	0.00e+00	0	43	0	2122317824	9	3715
2026-01-27 15:07:53.84	210.60	52.47	-24.6	-25.1	17.4	0.00e+00	0	43	0	2129657856	9	3792
2026-01-27 15:07:54.85	211.10	52.73	-24.5	-24.7	17.6	0.00e+00	0	43	0	2136997888	9	3712
2026-01-27 15:07:55.85	211.60	52.98	-24.8	-25.4	17.2	0.00e+00	0	43	0	2144337920	9	3875
2026-01-27 15:07:56.85	212.11	53.24	-24.8	-25.0	17.2	0.00e+00	0	43	0	2151677952	10	3655
2026-01-27 15:07:57.85	212.63	53.49	-25.0	-25.3	17.1	0.00e+00	0	43	0	2159017984	10	3725
2026-01-27 15:07:58.85	213.15	53.74	-25.2	-25.8	16.9	0.00e+00	0	44	0	2166358016	10	3852
2026-01-27 15:07:59.86	213.70	53.99	-25.1	-25.6	17.0	0.00e+00	0	43	0	2172649472	10	3811
2026-01-27 15:08:00.86	214.24	54.24	-25.0	-25.3	17.1	0.00e+00	0	44	0	2179989504	10	3753
2026-01-27 15:08:01.87	214.80	54.49	-24.7	-24.6	17.4	0.00e+00	0	43	0	2187329536	10	3591
2026-01-27 15:08:02.87	215.37	54.73	-24.7	-24.7	17.4	0.00e+00	0	43	0	2194669568	10	3610
2026-01-27 15:08:03.87	215.94	54.97	-24.6	-24.5	17.6	0.00e+00	0	43	0	2202009600	10	3552
2026-01-27 15:08:04.88	216.53	55.22	-24.7	-24.8	17.4	0.00e+00	0	43	0	2209349632	10	3615
2026-01-27 15:08:05.88	217.13	55.46	-24.7	-24.7	17.5	0.00e+00	0	43	0	2216689664	10	3596
2026-01-27 15:08:06.88	217.73	55.69	-24.8	-24.8	17.4	0.00e+00	0	43	0	2224029696	10	3641
2026-01-27 15:08:07.89	218.35	55.93	-24.9	-25.1	17.2	0.00e+00	0	43	0	2231369728	10	3692
2026-01-27 15:08:08.90	218.98	56.17	-24.7	-24.8	17.4	0.00e+00	0	44	0	2238709760	10	3632
2026-01-27 15:08:09.91	219.62	56.40	-24.6	-24.6	17.6	0.00e+00	0	43	0	2246049792	10	3574
2026-01-27 15:08:10.91	220.27	56.63	-24.6	-24.4	17.6	0.00e+00	0	44	0	2252341248	10	3534
2026-01-27 15:08:11.91	220.93	56.85	-24.5	-24.8	17.7	0.00e+00	0	44	0	2259681280	9	3717
2026-01-27 15:08:12.91	221.60	57.08	-24.6	-25.1	17.5	0.00e+00	0	43	0	2267021312	9	3794
2026-01-27 15:08:13.92	222.28	57.30	-24.6	-25.1	17.5	0.00e+00	0	43	0	2274361344	9	3794
2026-01-27 15:08:14.92	222.97	57.51	-24.5	-24.7	17.7	0.00e+00	0	43	0	2281701376	9	3711
2026-01-27 15:08:15.93	223.68	57.73	-24.2	-24.2	18.0	0.00e+00	0	44	0	2289041408	9	3588
2026-01-27 15:08:16.93	224.39	57.94	-24.3	-24.3	17.9	0.00e+00	0	43	0	2296381440	9	3611
2026-01-27 15:08:17.94	225.12	58.15	-24.3	-24.4	17.9	0.00e+00	0	43	0	2303721472	9	3642
2026-01-27 15:08:18.94	225.85	58.35	-24.8	-25.4	17.4	0.00e+00	0	43	0	2311061504	9	3859
2026-01-27 15:08:19.94	226.60	58.55	-24.8	-25.5	17.3	0.00e+00	0	44	0	2318401536	9	3903
2026-01-27 15:08:20.95	227.36	58.75	-25.0	-25.8	17.2	0.00e+00	0	43	0	2325741568	9	3968
2026-01-27 15:08:21.95	228.13	58.94	-24.8	-24.9	17.4	0.00e+00	0	44	0	2333081600	10	3649
2026-01-27 15:08:22.95	228.91	59.13	-24.7	-24.6	17.5	0.00e+00	0	43	0	2339373056	10	3586
2026-01-27 15:08:23.95	229.69	59.31	-25.0	-25.3	17.2	0.00e+00	0	44	0	2346713088	10	3724
2026-01-27 15:08:24.96	230.50	59.49	-25.2	-25.7	17.0	0.00e+00	0	43	0	2354053120	10	3825
2026-01-27 15:08:25.97	231.32	59.67	-24.9	-25.2	17.3	0.00e+00	0	43	0	2361393152	10	3712
2026-01-27 15:08:26.98	232.15	59.84	-24.9	-25.2	17.3	0.00e+00	0	43	0	2368733184	10	3718
2026-01-27 15:08:27.98	232.98	60.01	-24.8	-25.0	17.3	0.00e+00	0	44	0	2376073216	10	3683
2026-01-27 15:08:28.99	233.84	60.17	-25.0	-25.3	17.2	0.00e+00	0	44	0	2383413248	10	3745
2026-01-27 15:08:29.99	234.69	60.32	-25.0	-25.4	17.1	0.00e+00	0	44	0	2390753280	10	3769
2026-01-27 15:08:31.00	235.56	60.47	-24.8	-24.9	17.4	0.00e+00	0	43	0	2398093312	10	3646
2026-01-27 15:08:32.00	236.44	60.62	-24.7	-24.7	17.5	0.00e+00	0	44	0	2405433344	10	3605
2026-01-27 15:08:33.00	237.32	60.76	-25.2	-25.8	17.0	0.00e+00	0	43	0	2412773376	10	3844
2026-01-27 15:08:34.01	238.22	60.89	-25.1	-25.5	17.1	0.00e+00	0	43	0	2419064832	10	3786
2026-01-27 15:08:35.02	239.13	61.02	-25.4	-26.1	16.9	0.00e+00	0	43	0	2426404864	10	3920
2026-01-27 15:08:36.02	240.04	61.14	-25.0	-25.3	17.2	0.00e+00	0	44	0	2433744896	10	3719
2026-01-27 15:08:37.03	240.97	61.25	-24.5	-24.3	17.8	0.00e+00	0	44	0	2441084928	10	3496
2026-01-27 15:08:38.03	241.90	61.36	-24.5	-24.7	17.8	0.00e+00	0	44	0	2448424960	9	3687
2026-01-27 15:08:39.04	242.84	61.46	-24.7	-25.2	17.5	0.00e+00	0	43	0	2455764992	9	3821
2026-01-27 15:08:40.04	243.79	61.56	-24.6	-25.1	17.6	0.00e+00	0	44	0	2463105024	9	3787
2026-01-27 15:08:41.05	244.75	61.65	-24.3	-24.4	18.0	0.00e+00	0	43	0	2470445056	9	3624
2026-01-27 15:08:42.06	245.71	61.73	-24.2	-24.1	18.1	0.00e+00	0	43	0	2477785088	9	3565
2026-01-27 15:08:43.07	246.68	61.81	-23.9	-24.1	18.4	0.00e+00	0	43	0	2485125120	8	3652
2026-01-27 15:08:44.07	247.65	61.87	-24.0	-24.2	18.2	0.00e+00	0	44	0	2492465152	8	3687
2026-01-27 15:08:45.07	248.63	61.94	-24.1	-24.4	18.1	0.00e+00	0	43	0	2499805184	8	3738
2026-01-27 15:08:46.08	249.61	61.99	-24.4	-25.0	18.0	0.00e+00	0	44	0	2506096640	8	3860
2026-01-27 15:08:47.08	250.60	62.04	-24.4	-25.0	17.9	0.00e+00	0	43	0	2513436672	8	3877
2026-01-27 15:08:48.08	251.58	62.08	-24.3	-24.8	18.0	0.00e+00	0	43	0	2521825280	8	3827
2026-01-27 15:08:49.09	252.58	62.11	-24.0	-24.2	18.3	0.00e+00	0	44	0	2528116736	8	3674
2026-01-27 15:08:50.09	253.57	62.14	-24.2	-24.6	18.1	0.00e+00	0	43	0	2535456768	8	3773
2026-01-27 15:08:51.09	254.56	62.15	-24.4	-25.1	17.9	0.00e+00	0	43	0	2542796800	8	3900
2026-01-27 15:08:52.10	255.57	62.16	-24.4	-25.0	17.9	0.00e+00	0	43	0	2550136832	8	3881
2026-01-27 15:08:53.10	256.56	62.17	-24.4	-25.1	17.8	0.00e+00	0	44	0	2557476864	8	3898
2026-01-27 15:08:54.11	257.56	62.16	-24.2	-24.6	18.1	0.00e+00	0	44	0	2564816896	8	3764
2026-01-27 15:08:55.11	258.56	62.15	-24.2	-24.6	18.1	0.00e+00	0	43	0	2572156928	8	3780
2026-01-27 15:08:56.11	259.55	62.14	-24.3	-24.8	18.0	0.00e+00	0	44	0	2579496960	8	3813
2026-01-27 15:08:57.11	260.54	62.11	-24.2	-24.6	18.1	0.00e+00	0	43	0	2586836992	8	3787
2026-01-27 15:08:58.12	261.54	62.08	-24.2	-24.6	18.1	0.00e+00	0	43	0	2593128448	8	3767
2026-01-27 15:08:59.12	262.52	62.04	-23.9	-24.0	18.4	0.00e+00	0	43	0	2600468480	8	3630
2026-01-27 15:09:00.12	263.50	61.99	-23.8	-23.8	18.5	0.00e+00	0	43	0	2607808512	8	3597
2026-01-27 15:09:01.13	264.49	61.94	-24.1	-24.3	18.3	0.00e+00	0	44	0	2615148544	8	3709
2026-01-27 15:09:02.13	265.46	61.87	-24.1	-24.4	18.2	0.00e+00	0	43	0	2622488576	8	3738
2026-01-27 15:09:03.14	266.44	61.81	-24.3	-24.9	18.0	0.00e+00	0	43	0	2629828608	8	3854
2026-01-27 15:09:04.13	267.39	61.73	-24.3	-24.8	18.0	0.00e+00	0	43	0	2637168640	8	3828
2026-01-27 15:09:05.14	268.36	61.65	-24.1	-24.4	18.3	0.00e+00	0	44	0	2644508672	8	3716
2026-01-27 15:09:06.14	269.31	61.56	-24.1	-24.3	18.1	0.00e+00	0	44	0	2651848704	8	3713
2026-01-27 15:09:07.14	270.25	61.47	-24.7	-25.1	17.6	0.00e+00	0	43	0	2659188736	9	3791
2026-01-27 15:09:08.15	271.20	61.36	-24.8	-25.4	17.4	0.00e+00	0	43	0	2666528768	9	3871
2026-01-27 15:09:09.16	272.13	61.26	-25.0	-25.9	17.3	0.00e+00	0	43	0	2672820224	9	3975
2026-01-27 15:09:10.16	273.05	61.14	-25.0	-25.3	17.3	0.00e+00	0	43	0	2680160256	10	3738
2026-01-27 15:09:11.16	273.96	61.02	-25.1	-25.4	17.2	0.00e+00	0	43	0	2687500288	10	3760
2026-01-27 15:09:12.17	274.87	60.89	-25.0	-25.3	17.3	0.00e+00	0	44	0	2694840320	10	3722
2026-01-27 15:09:13.17	275.77	60.76	-25.0	-25.2	17.3	0.00e+00	0	43	0	2702180352	10	3718
2026-01-27 15:09:14.17	276.65	60.62	-25.1	-25.5	17.1	0.00e+00	0	44	0	2709520384	10	3775
2026-01-27 15:09:15.17	277.52	60.48	-25.3	-25.9	16.9	0.00e+00	0	44	0	2716860416	10	3872
2026-01-27 15:09:16.18	278.39	60.33	-25.3	-26.0	16.9	0.00e+00	0	43	0	2724200448	10	3906
2026-01-27 15:09:17.18	279.25	60.18	-24.6	-24.5	17.7	0.00e+00	0	44	0	2731540480	10	3547
2026-01-27 15:09:18.19	280.10	60.02	-24.4	-24.1	17.9	0.00e+00	0	44	0	2738880512	10	3473
2026-01-27 15:09:19.19	280.93	59.85	-24.7	-24.6	17.6	0.00e+00	0	43	0	2746220544	10	3576
2026-01-27 15:09:20.20	281.76	59.68	-24.9	-25.2	17.3	0.00e+00	0	43	0	2753560576	10	3709
2026-01-27 15:09:21.19	282.56	59.51	-24.9	-25.2	17.3	0.00e+00	0	43	0	2759852032	10	3705
2026-01-27 15:09:22.19	283.36	59.33	-25.0	-25.4	17.2	0.00e+00	0	44	0	2767192064	10	3745
2026-01-27 15:09:23.20	284.16	59.15	-25.0	-25.4	17.3	0.00e+00	0	43	0	2774532096	10	3749
2026-01-27 15:09:24.20	284.94	58.96	-25.2	-25.7	17.1	0.00e+00	0	44	0	2781872128	10	3826
2026-01-27 15:09:25.20	285.70	58.77	-25.1	-25.5	17.2	0.00e+00	0	43	0	2789212160	10	3773
2026-01-27 15:09:26.21	286.47	58.57	-24.8	-24.8	17.5	0.00e+00	0	44	0	2796552192	10	3613
2026-01-27 15:09:27.21	287.21	58.37	-24.9	-25.1	17.4	0.00e+00	0	44	0	2803892224	10	3680
2026-01-27 15:09:28.21	287.94	58.17	-25.4	-26.2	16.8	0.00e+00	0	44	0	2811232256	10	3939
2026-01-27 15:09:29.21	288.67	57.96	-25.4	-26.1	16.9	0.00e+00	0	44	0	2817523712	10	3918
2026-01-27 15:09:30.21	289.38	57.75	-25.6	-26.1	16.6	0.00e+00	0	44	0	2824863744	11	3819
2026-01-27 15:09:31.22	290.08	57.54	-25.4	-25.7	16.8	0.00e+00	0	43	0	2832203776	11	3716
2026-01-27 15:09:32.22	290.77	57.32	-25.2	-25.2	17.1	0.00e+00	0	43	0	2839543808	11	3596
2026-01-27 15:09:33.23	291.46	57.10	-25.1	-25.1	17.1	0.00e+00	0	43	0	2846883840	11	3574
2026-01-27 15:09:34.23	292.13	56.88	-25.3	-25.4	17.0	0.00e+00	0	44	0	2854223872	11	3661
2026-01-27 15:09:35.23	292.78	56.65	-25.3	-25.3	17.0	0.00e+00	0	43	0	2861563904	11	3635
2026-01-27 15:09:36.23	293.43	56.43	-25.4	-25.7	16.8	0.00e+00	0	43	0	2868903936	11	3720
2026-01-27 15:09:37.24	294.07	56.19	-25.7	-26.3	16.5	0.00e+00	0	43	0	2876243968	11	3855
2026-01-27 15:09:38.24	294.70	55.96	-25.0	-24.9	17.3	0.00e+00	0	44	0	2883584000	11	3538
2026-01-27 15:09:39.24	295.31	55.73	-24.5	-24.2	17.9	0.00e+00	0	44	0	2890924032	10	3483
2026-01-27 15:09:40.25	295.92	55.49	-24.3	-24.3	18.0	0.00e+00	0	43	0	2898264064	9	3606
2026-01-27 15:09:41.25	296.52	55.25	-24.6	-25.0	17.7	0.00e+00	0	43	0	2904555520	9	3758
2026-01-27 15:09:42.25	297.10	55.01	-24.9	-25.7	17.3	0.00e+00	0	44	0	2911895552	9	3918
2026-01-27 15:09:43.25	297.67	54.77	-25.2	-25.7	16.9	0.00e+00	0	44	0	2919235584	10	3830
2026-01-27 15:09:44.25	298.24	54.53	-25.3	-25.9	17.0	0.00e+00	0	43	0	2926575616	10	3886
2026-01-27 15:09:45.25	298.80	54.28	-25.3	-25.9	17.0	0.00e+00	0	43	0	2933915648	10	3877
2026-01-27 15:09:46.26	299.35	54.03	-25.2	-25.8	17.1	0.00e+00	0	43	0	2941255680	10	3841
2026-01-27 15:09:47.26	299.88	53.78	-25.0	-25.3	17.4	0.00e+00	0	44	0	2948595712	10	3720
2026-01-27 15:09:48.27	300.42	53.53	-24.9	-25.1	17.4	0.00e+00	0	44	0	2955935744	10	3677
2026-01-27 15:09:49.27	300.94	53.28	-25.2	-25.7	17.1	0.00e+00	0	44	0	2963275776	10	3816
2026-01-27 15:09:50.27	301.45	53.03	-25.3	-25.9	17.0	0.00e+00	0	43	0	2969567232	10	3870
2026-01-27 15:09:51.28	301.95	52.78	-25.2	-25.8	17.1	0.00e+00	0	43	0	2976907264	10	3837
2026-01-27 15:09:52.27	302.44	52.52	-25.2	-25.7	17.1	0.00e+00	0	43	0	2984247296	10	3813
2026-01-27 15:09:53.28	302.93	52.27	-25.2	-25.8	17.0	0.00e+00	0	43	0	2991587328	10	3854
2026-01-27 15:09:54.28	303.40	52.01	-25.0	-25.4	17.3	0.00e+00	0	43	0	2998927360	10	3753
2026-01-27 15:09:55.28	303.87	51.76	-25.0	-25.3	17.3	0.00e+00	0	43	0	3006267392	10	3732
2026-01-27 15:09:56.29	304.34	51.50	-25.1	-25.6	17.2	0.00e+00	0	43	0	3013607424	10	3793
2026-01-27 15:09:57.28	304.79	51.25	-25.2	-25.7	16.8	0.00e+00	0	43	0	3020947456	10	3828
2026-01-27 15:09:58.28	305.23	50.99	-24.9	-25.1	17.4	0.00e+00	0	43	0	3028287488	10	3674
2026-01-27 15:09:59.29	305.67	50.73	-24.9	-25.0	17.5	0.00e+00	0	44	0	3035627520	10	3666
2026-01-27 15:10:00.28	306.10	50.48	-24.9	-25.1	17.4	0.00e+00	0	43	0	3042967552	10	3692
2026-01-27 15:10:01.28	306.52	50.22	-24.8	-25.0	17.5	0.00e+00	0	43	0	3049259008	10	3658
2026-01-27 15:10:02.29	306.94	49.96	-24.8	-24.9	17.4	0.00e+00	0	43	0	3056599040	10	3640
2026-01-27 15:10:03.30	307.35	49.70	-24.9	-25.2	17.4	0.00e+00	0	44	0	3063939072	10	3696
2026-01-27 15:10:04.31	307.76	49.44	-25.0	-25.3	17.3	0.00e+00	0	43	0	3071279104	10	3733
2026-01-27 15:10:05.32	308.16	49.18	-25.2	-25.8	17.0	0.00e+00	0	44	0	3078619136	10	3842
2026-01-27 15:10:06.32	308.55	48.92	-25.3	-25.9	17.0	0.00e+00	0	43	0	3085959168	10	3867
2026-01-27 15:10:07.32	308.93	48.66	-25.0	-25.4	17.3	0.00e+00	0	44	0	3093299200	10	3754
2026-01-27 15:10:08.33	309.31	48.40	-24.8	-25.0	17.4	0.00e+00	0	44	0	3100639232	10	3667
2026-01-27 15:10:09.33	309.68	48.15	-24.7	-24.6	17.7	0.00e+00	0	44	0	3107979264	10	3575
2026-01-27 15:10:10.34	310.05	47.89	-24.6	-24.6	17.7	0.00e+00	0	44	0	3115319296	10	3570
2026-01-27 15:10:11.34	310.40	47.63	-24.4	-24.5	17.9	0.00e+00	0	44	0	3122659328	9	3663
2026-01-27 15:10:12.34	310.75	47.37	-24.4	-24.6	17.9	0.00e+00	0	43	0	3129999360	9	3667
2026-01-27 15:10:13.34	311.10	47.12	-24.3	-24.3	18.0	0.00e+00	0	44	0	3136290816	9	3619
2026-01-27 15:10:14.35	311.45	46.86	-24.5	-24.8	17.7	0.00e+00	0	43	0	3143630848	9	3727
2026-01-27 15:10:15.35	311.78	46.61	-24.6	-25.1	17.7	0.00e+00	0	44	0	3150970880	9	3779
2026-01-27 15:10:16.35	312.11	46.35	-24.4	-24.5	17.9	0.00e+00	0	44	0	3158310912	9	3662
2026-01-27 15:10:17.35	312.44	46.10	-24.0	-23.8	18.3	0.00e+00	0	44	0	3165650944	9	3503
2026-01-27 15:10:18.36	312.76	45.84	-24.0	-24.2	18.4	0.00e+00	0	43	0	3172990976	8	3680
2026-01-27 15:10:19.36	313.07	45.59	-23.9	-23.9	18.5	0.00e+00	0	43	0	3180331008	8	3629
2026-01-27 15:10:20.36	313.38	45.34	-23.6	-23.4	18.7	0.00e+00	0	43	0	3187671040	8	3519
2026-01-27 15:10:21.37	313.69	45.09	-23.3	-23.3	19.0	0.00e+00	0	43	0	3195011072	7	3592
2026-01-27 15:10:22.37	313.99	44.84	-23.2	-23.1	19.1	0.00e+00	0	43	0	3201302528	7	3555
2026-01-27 15:10:23.38	314.29	44.59	-23.3	-23.2	19.0	0.00e+00	0	43	0	3208642560	7	3570
2026-01-27 15:10:24.38	314.58	44.34	-23.4	-23.5	18.9	0.00e+00	0	44	0	3215982592	7	3627
2026-01-27 15:10:25.38	314.87	44.09	-23.6	-23.9	18.7	0.00e+00	0	44	0	3223322624	7	3731
2026-01-27 15:10:26.39	315.15	43.84	-23.8	-24.4	18.5	0.00e+00	0	44	0	3230662656	7	3831
2026-01-27 15:10:27.40	315.43	43.59	-24.0	-24.7	18.3	0.00e+00	0	44	0	3238002688	7	3913
2026-01-27 15:10:28.40	315.70	43.35	-24.1	-24.4	18.1	0.00e+00	0	43	0	3245342720	8	3736
2026-01-27 15:10:29.40	315.97	43.10	-24.1	-24.5	18.2	0.00e+00	0	43	0	3252682752	8	3746
2026-01-27 15:10:30.40	316.24	42.86	-24.0	-24.1	18.4	0.00e+00	0	44	0	3260022784	8	3676
2026-01-27 15:10:31.41	316.50	42.62	-23.7	-23.7	18.6	0.00e+00	0	44	0	3267362816	8	3575
2026-01-27 15:10:32.41	316.76	42.37	-23.6	-23.3	18.8	0.00e+00	0	43	0	3274702848	8	3504
2026-01-27 15:10:33.41	317.02	42.13	-23.7	-23.5	18.7	0.00e+00	0	43	0	3280994304	8	3539
2026-01-27 15:10:34.41	317.27	41.89	-23.8	-23.9	18.5	0.00e+00	0	44	0	3288334336	8	3623
2026-01-27 15:10:35.42	317.52	41.65	-23.9	-24.0	18.4	0.00e+00	0	43	0	3295674368	8	3649
2026-01-27 15:10:36.42	317.76	41.42	-24.0	-24.3	18.2	0.00e+00	0	44	0	3303014400	8	3708
2026-01-27 15:10:37.43	318.00	41.18	-24.1	-24.4	18.2	0.00e+00	0	44	0	3310354432	8	3728
2026-01-27 15:10:38.43	318.24	40.94	-24.0	-24.3	18.2	0.00e+00	0	43	0	3317694464	8	3715
2026-01-27 15:10:39.43	318.47	40.71	-23.8	-23.9	18.4	0.00e+00	0	44	0	3325034496	8	3615
2026-01-27 15:10:40.44	318.70	40.47	-23.8	-23.7	18.6	0.00e+00	0	43	0	3332374528	8	3587
2026-01-27 15:10:41.44	318.93	40.24	-23.7	-23.7	18.6	0.00e+00	0	43	0	3339714560	8	3576
2026-01-27 15:10:42.44	319.15	40.01	-23.8	-23.9	18.4	0.00e+00	0	44	0	3347054592	8	3612
2026-01-27 15:10:43.44	319.37	39.78	-24.0	-24.1	18.3	0.00e+00	0	43	0	3354394624	8	3673
2026-01-27 15:10:44.44	319.59	39.55	-23.8	-23.9	18.5	0.00e+00	0	43	0	3361734656	8	3616
2026-01-27 15:10:45.45	319.80	39.32	-23.8	-23.8	18.5	0.00e+00	0	43	0	3368026112	8	3607
2026-01-27 15:10:46.45	320.01	39.09	-23.9	-23.9	18.4	0.00e+00	0	44	0	3375366144	8	3632
2026-01-27 15:10:47.46	320.22	38.86	-24.0	-24.2	18.3	0.00e+00	0	43	0	3382706176	8	3695
2026-01-27 15:10:48.46	320.43	38.64	-23.9	-24.0	18.4	0.00e+00	0	43	0	3390046208	8	3638
2026-01-27 15:10:49.46	320.63	38.41	-23.9	-24.0	18.3	0.00e+00	0	44	0	3397386240	8	3650
2026-01-27 15:10:50.47	320.83	38.19	-23.9	-24.0	18.4	0.00e+00	0	43	0	3404726272	8	3643
2026-01-27 15:10:51.47	321.03	37.97	-23.8	-23.7	18.5	0.00e+00	0	43	0	3412066304	8	3583
2026-01-27 15:10:52.47	321.23	37.75	-23.7	-23.6	18.6	0.00e+00	0	44	0	3419406336	8	3573
2026-01-27 15:10:53.48	321.42	37.52	-23.8	-23.8	18.5	0.00e+00	0	44	0	3425697792	8	3597
2026-01-27 15:10:54.48	321.61	37.31	-23.8	-23.8	18.5	0.00e+00	0	44	0	3434086400	8	3607
2026-01-27 15:10:55.48	321.80	37.09	-23.7	-23.6	18.6	0.00e+00	0	43	0	3441426432	8	3556
2026-01-27 15:10:56.49	321.98	36.87	-23.7	-23.7	18.5	0.00e+00	0	43	0	3447717888	8	3579
2026-01-27 15:10:57.50	322.17	36.65	-23.7	-23.6	18.6	0.00e+00	0	44	0	3455057920	8	3550
2026-01-27 15:10:58.50	322.35	36.44	-23.5	-23.2	18.8	0.00e+00	0	44	0	3462397952	8	3477
2026-01-27 15:10:59.51	322.53	36.23	-23.4	-23.6	18.7	0.00e+00	0	44	0	3469737984	7	3651
2026-01-27 15:11:00.50	322.70	36.02	-23.4	-23.4	18.9	0.00e+00	0	44	0	3477078016	7	3615
2026-01-27 15:11:01.51	322.88	35.80	-23.3	-23.3	19.0	0.00e+00	0	44	0	3484418048	7	3593
2026-01-27 15:11:02.52	323.05	35.59	-23.3	-23.2	18.9	0.00e+00	0	44	0	3491758080	7	3585
2026-01-27 15:11:03.52	323.22	35.38	-23.3	-23.4	18.9	0.00e+00	0	44	0	3499098112	7	3608
2026-01-27 15:11:04.53	323.39	35.17	-23.4	-23.5	18.9	0.00e+00	0	43	0	3506438144	7	3641
2026-01-27 15:11:05.53	323.55	34.97	-23.5	-23.7	18.8	0.00e+00	0	44	0	3512729600	7	3684
2026-01-27 15:11:06.53	323.71	34.76	-23.6	-23.9	18.7	0.00e+00	0	43	0	3521118208	7	3730
2026-01-27 15:11:07.54	323.88	34.56	-23.7	-24.1	18.5	0.00e+00	0	43	0	3528458240	7	3770
2026-01-27 15:11:08.55	324.04	34.35	-23.7	-24.1	18.5	0.00e+00	0	43	0	3534749696	7	3780
2026-01-27 15:11:09.55	324.19	34.15	-23.7	-24.2	18.5	0.00e+00	0	43	0	3542089728	7	3790
2026-01-27 15:11:10.55	324.35	33.95	-23.8	-24.4	18.4	0.00e+00	0	43	0	3549429760	7	3843
2026-01-27 15:11:11.56	324.50	33.75	-23.8	-24.2	18.5	0.00e+00	0	44	0	3556769792	7	3797
2026-01-27 15:11:12.57	324.66	33.55	-23.5	-23.6	18.8	0.00e+00	0	44	0	3564109824	7	3662
2026-01-27 15:11:13.56	324.80	33.35	-23.3	-23.4	18.9	0.00e+00	0	44	0	3571449856	7	3608
2026-01-27 15:11:14.57	324.95	33.16	-23.3	-23.3	18.9	0.00e+00	0	43	0	3578789888	7	3602
2026-01-27 15:11:15.57	325.10	32.96	-23.3	-23.3	19.0	0.00e+00	0	43	0	3586129920	7	3594
2026-01-27 15:11:16.57	325.24	32.77	-23.3	-23.2	19.0	0.00e+00	0	43	0	3593469952	7	3572
2026-01-27 15:11:17.57	325.39	32.57	-23.2	-23.2	19.0	0.00e+00	0	43	0	3599761408	7	3565
2026-01-27 15:11:18.58	325.53	32.38	-23.2	-23.0	19.0	0.00e+00	0	44	0	3607101440	7	3538
2026-01-27 15:11:19.58	325.67	32.19	-23.2	-23.1	19.0	0.00e+00	0	44	0	3614441472	7	3560
2026-01-27 15:11:20.58	325.81	32.00	-23.3	-23.2	19.0	0.00e+00	0	44	0	3621781504	7	3579
2026-01-27 15:11:21.58	325.94	31.81	-23.2	-23.1	19.0	0.00e+00	0	43	0	3629121536	7	3561
2026-01-27 15:11:22.58	326.08	31.62	-23.3	-23.3	18.9	0.00e+00	0	43	0	3636461568	7	3585
2026-01-27 15:11:23.58	326.21	31.44	-23.3	-23.3	18.8	0.00e+00	0	44	0	3643801600	7	3599
2026-01-27 15:11:24.59	326.34	31.25	-23.4	-23.4	18.9	0.00e+00	0	43	0	3651141632	7	3614
2026-01-27 15:11:25.59	326.47	31.06	-23.4	-23.4	18.8	0.00e+00	0	44	0	3658481664	7	3624
2026-01-27 15:11:26.60	326.60	30.88	-23.4	-23.5	18.8	0.00e+00	0	44	0	3665821696	7	3630
2026-01-27 15:11:27.60	326.73	30.70	-23.4	-23.5	18.8	0.00e+00	0	44	0	3673161728	7	3635
2026-01-27 15:11:28.60	326.86	30.51	-23.5	-23.7	18.7	0.00e+00	0	43	0	3679453184	7	3677
2026-01-27 15:11:29.61	326.98	30.33	-23.5	-23.7	18.7	0.00e+00	0	43	0	3686793216	7	3684
2026-01-27 15:11:30.62	327.11	30.15	-23.6	-23.8	18.6	0.00e+00	0	43	0	3694133248	7	3712
2026-01-27 15:11:31.62	327.23	29.97	-23.6	-23.8	18.7	0.00e+00	0	44	0	3701473280	7	3711
2026-01-27 15:11:32.63	327.35	29.79	-23.6	-23.9	18.6	0.00e+00	0	43	0	3708813312	7	3731
2026-01-27 15:11:33.63	327.47	29.62	-23.6	-23.9	18.6	0.00e+00	0	44	0	3716153344	7	3731
2026-01-27 15:11:34.63	327.59	29.44	-23.6	-24.0	18.6	0.00e+00	0	44	0	3723493376	7	3747
2026-01-27 15:11:35.63	327.71	29.26	-23.6	-24.0	18.6	0.00e+00	0	44	0	3730833408	7	3740
2026-01-27 15:11:36.64	327.82	29.09	-23.7	-24.1	18.5	0.00e+00	0	43	0	3738173440	7	3769
2026-01-27 15:11:37.64	327.94	28.92	-23.7	-24.1	18.5	0.00e+00	0	44	0	3745513472	7	3763
2026-01-27 15:11:38.65	328.05	28.74	-23.7	-24.2	18.5	0.00e+00	0	44	0	3752853504	7	3782
2026-01-27 15:11:39.65	328.17	28.57	-23.7	-24.2	18.4	0.00e+00	0	43	0	3760193536	7	3786
2026-01-27 15:11:40.66	328.28	28.40	-23.7	-24.2	18.5	0.00e+00	0	44	0	3766484992	7	3784
2026-01-27 15:11:41.66	328.39	28.23	-23.7	-24.2	18.4	0.00e+00	0	44	0	3773825024	7	3790
2026-01-27 15:11:42.66	328.50	28.06	-23.8	-24.3	18.3	0.00e+00	0	44	0	3781165056	7	3813
2026-01-27 15:11:43.66	328.60	27.90	-23.9	-24.5	18.3	0.00e+00	0	44	0	3788505088	7	3867
2026-01-27 15:11:44.66	328.71	27.73	-23.9	-24.4	18.3	0.00e+00	0	44	0	3795845120	7	3846
2026-01-27 15:11:45.67	328.82	27.56	-23.8	-24.2	18.4	0.00e+00	0	44	0	3803185152	7	3803
2026-01-27 15:11:46.67	328.92	27.40	-23.7	-24.1	18.5	0.00e+00	0	43	0	3810525184	7	3779
2026-01-27 15:11:47.68	329.03	27.23	-23.7	-24.1	18.5	0.00e+00	0	44	0	3817865216	7	3780
2026-01-27 15:11:48.68	329.13	27.07	-23.7	-24.1	18.5	1.10e-06	0	43	0	3824156672	7	3776
2026-01-27 15:11:49.67	329.23	26.91	-23.7	-24.0	18.5	0.00e+00	0	44	0	3831496704	7	3757
2026-01-27 15:11:50.67	329.33	26.75	-23.6	-24.0	18.5	0.00e+00	0	44	0	3838836736	7	3750
2026-01-27 15:11:51.68	329.43	26.59	-23.6	-24.0	18.5	0.00e+00	0	43	0	3846176768	7	3739
2026-01-27 15:11:52.67	329.53	26.43	-23.6	-23.9	18.6	0.00e+00	0	44	0	3853516800	7	3719
2026-01-27 15:11:53.68	329.63	26.27	-23.6	-23.9	18.6	0.00e+00	0	44	0	3860856832	7	3727
2026-01-27 15:11:54.68	329.72	26.11	-23.6	-23.9	18.6	0.00e+00	0	43	0	3868196864	7	3720
2026-01-27 15:11:55.69	329.82	25.96	-23.5	-23.8	18.6	0.00e+00	0	44	0	3875536896	7	3697
2026-01-27 15:11:56.69	329.92	25.80	-23.6	-23.9	18.5	0.00e+00	0	44	0	3882876928	7	3735
2026-01-27 15:11:57.70	330.01	25.64	-23.5	-23.8	18.5	0.00e+00	0	44	0	3890216960	7	3703
2026-01-27 15:11:58.70	330.10	25.49	-23.6	-23.9	18.6	0.00e+00	0	43	0	3897556992	7	3727
2026-01-27 15:11:59.70	330.20	25.34	-23.6	-23.9	18.6	0.00e+00	0	44	0	3904897024	7	3728
2026-01-27 15:12:00.71	330.29	25.18	-23.5	-23.8	18.6	1.10e-06	0	44	0	3911188480	7	3697
2026-01-27 15:12:01.69	330.38	25.03	-23.5	-23.8	18.6	0.00e+00	0	44	0	3918528512	7	3704
2026-01-27 15:12:02.69	330.47	24.88	-23.6	-23.9	18.5	0.00e+00	0	44	0	3925868544	7	3733
2026-01-27 15:12:03.70	330.56	24.73	-23.6	-23.8	18.5	0.00e+00	0	44	0	3933208576	7	3709
2026-01-27 15:12:04.71	330.65	24.58	-23.7	-24.0	18.5	0.00e+00	0	44	0	3940548608	7	3755
2026-01-27 15:12:05.72	330.74	24.43	-23.6	-23.9	18.5	0.00e+00	0	43	0	3947888640	7	3721
2026-01-27 15:12:06.71	330.82	24.28	-23.7	-24.0	18.5	0.00e+00	0	44	0	3955228672	7	3753
2026-01-27 15:12:07.72	330.91	24.14	-23.7	-24.1	18.4	0.00e+00	0	44	0	3962568704	7	3781
2026-01-27 15:12:08.73	330.99	23.99	-23.8	-24.3	18.3	0.00e+00	0	44	0	3969908736	7	3821
2026-01-27 15:12:09.74	331.08	23.84	-23.9	-24.5	18.2	0.00e+00	0	44	0	3977248768	7	3857
2026-01-27 15:12:10.74	331.16	23.70	-23.9	-24.6	18.2	0.00e+00	0	44	0	3984588800	7	3879
2026-01-27 15:12:11.75	331.25	23.55	-24.0	-24.7	18.1	0.00e+00	0	44	0	3991928832	7	3914
2026-01-27 15:12:12.75	331.33	23.41	-24.0	-24.8	18.0	0.00e+00	0	43	0	3998220288	7	3942
2026-01-27 15:12:13.74	331.41	23.27	-24.1	-24.5	18.0	0.00e+00	0	44	0	4005560320	8	3751
2026-01-27 15:12:14.75	331.49	23.12	-24.2	-24.7	17.9	0.00e+00	0	44	0	4012900352	8	3805
2026-01-27 15:12:15.75	331.57	22.98	-24.2	-24.7	17.9	0.00e+00	0	44	0	4020240384	8	3805
2026-01-27 15:12:16.75	331.65	22.84	-24.2	-24.7	17.8	0.00e+00	0	44	0	4027580416	8	3808
2026-01-27 15:12:17.76	331.73	22.70	-24.3	-24.8	17.8	0.00e+00	0	44	0	4034920448	8	3832
2026-01-27 15:12:18.76	331.81	22.56	-24.3	-24.9	17.7	1.10e-06	0	44	0	4042260480	8	3867
2026-01-27 15:12:19.77	331.89	22.42	-24.3	-24.8	17.8	0.00e+00	0	44	0	4049600512	8	3833
2026-01-27 15:12:20.77	331.96	22.29	-24.3	-24.8	17.8	0.00e+00	0	44	0	4056940544	8	3832
2026-01-27 15:12:21.78	332.04	22.15	-24.3	-24.8	17.7	0.00e+00	0	43	0	4064280576	8	3833
2026-01-27 15:12:22.79	332.12	22.01	-24.4	-25.0	17.6	0.00e+00	0	44	0	4071620608	8	3887
2026-01-27 15:12:23.78	332.19	21.88	-24.3	-24.9	17.7	0.00e+00	0	44	0	4077912064	8	3863
2026-01-27 15:12:24.79	332.26	21.74	-24.4	-25.0	17.7	0.00e+00	0	44	0	4085252096	8	3886
2026-01-27 15:12:25.79	332.34	21.61	-24.6	-25.4	17.4	0.00e+00	0	44	0	4092592128	8	3976
2026-01-27 15:12:26.79	332.41	21.47	-24.4	-24.7	17.5	0.00e+00	0	43	0	4099932160	9	3706
2026-01-27 15:12:27.79	332.48	21.34	-24.3	-24.5	17.7	0.00e+00	0	44	0	4107272192	9	3651
2026-01-27 15:12:28.78	332.56	21.21	-24.3	-24.5	17.7	0.00e+00	0	44	0	4114612224	9	3649
2026-01-27 15:12:29.79	332.63	21.08	-24.3	-24.4	17.7	0.00e+00	0	44	0	4121952256	9	3640
2026-01-27 15:12:30.79	332.70	20.95	-24.4	-24.7	17.6	1.10e-06	0	43	0	4129292288	9	3696
2026-01-27 15:12:31.79	332.77	20.82	-24.4	-24.6	17.6	0.00e+00	0	43	0	4136632320	9	3675
2026-01-27 15:12:32.80	332.84	20.69	-24.4	-24.5	17.6	0.00e+00	0	44	0	4142923776	9	3667
2026-01-27 15:12:33.80	332.91	20.56	-24.5	-24.8	17.5	0.00e+00	0	44	0	4150263808	9	3716
2026-01-27 15:12:34.79	332.98	20.43	-24.4	-24.7	17.5	0.00e+00	0	44	0	4157603840	9	3694
2026-01-27 15:12:35.80	333.04	20.30	-24.4	-24.6	17.6	0.00e+00	0	44	0	4164943872	9	3691
2026-01-27 15:12:36.80	333.11	20.17	-24.5	-24.7	17.5	0.00e+00	0	44	0	4172283904	9	3708
2026-01-27 15:12:37.80	333.18	20.05	-24.5	-24.7	17.5	0.00e+00	0	44	0	4179623936	9	3713
2026-01-27 15:12:38.81	333.25	19.92	-24.6	-25.0	17.4	0.00e+00	0	44	0	4186963968	9	3766
2026-01-27 15:12:39.81	333.31	19.80	-24.5	-24.9	17.4	0.00e+00	0	44	0	4194304000	9	3750
2026-01-27 15:12:40.82	333.38	19.67	-24.6	-24.9	17.4	0.00e+00	0	43	0	4201644032	9	3757
2026-01-27 15:12:41.82	333.44	19.55	-24.6	-25.0	17.3	0.00e+00	0	43	0	4208984064	9	3780
2026-01-27 15:12:42.82	333.51	19.42	-24.7	-25.2	17.2	0.00e+00	0	44	0	4216324096	9	3822
2026-01-27 15:12:43.82	333.57	19.30	-24.7	-25.3	17.2	0.00e+00	0	44	0	4222615552	9	3853
2026-01-27 15:12:44.82	333.63	19.18	-24.8	-25.5	17.1	0.00e+00	0	43	0	4229955584	9	3898
2026-01-27 15:12:45.82	333.70	19.06	-24.9	-25.6	17.1	0.00e+00	0	43	0	4237295616	9	3901
2026-01-27 15:12:46.82	333.76	18.94	-24.9	-25.7	16.9	0.00e+00	0	44	0	4244635648	9	3947
2026-01-27 15:12:47.82	333.82	18.81	-25.0	-25.8	16.9	0.00e+00	0	44	0	4251975680	9	3963
2026-01-27 15:12:48.81	333.88	18.70	-25.1	-26.0	16.8	0.00e+00	0	44	0	4259315712	9	4008
2026-01-27 15:12:49.81	333.94	18.58	-25.2	-25.7	16.7	0.00e+00	0	44	0	4266655744	10	3833
2026-01-27 15:12:50.82	334.01	18.46	-25.2	-25.8	16.6	0.00e+00	0	44	0	4273995776	10	3862
2026-01-27 15:12:51.82	334.07	18.34	-25.2	-25.8	16.7	0.00e+00	0	44	0	4281335808	10	3849
2026-01-27 15:12:52.83	334.13	18.22	-25.2	-25.9	16.6	0.00e+00	0	44	0	4287627264	10	3876
2026-01-27 15:12:53.83	334.19	18.10	-25.2	-25.8	16.6	0.00e+00	0	44	0	4294967296	10	3868
2026-01-27 15:12:54.84	334.25	17.98	-25.3	-26.0	16.5	0.00e+00	0	44	0	4302307328	10	3904
2026-01-27 15:12:55.84	334.30	17.87	-25.3	-26.1	16.5	0.00e+00	0	44	0	4309647360	10	3917
2026-01-27 15:12:56.85	334.36	17.75	-25.2	-25.8	16.6	0.00e+00	0	44	0	4316987392	10	3861
2026-01-27 15:12:57.85	334.42	17.64	-25.2	-25.9	16.6	0.00e+00	0	44	0	4324327424	10	3872
2026-01-27 15:12:58.85	334.48	17.52	-25.2	-25.9	16.6	0.00e+00	0	44	0	4331667456	10	3874
2026-01-27 15:12:59.86	334.54	17.41	-25.3	-26.0	16.5	0.00e+00	0	44	0	4339007488	10	3914
2026-01-27 15:13:00.86	334.59	17.29	-25.2	-25.9	16.6	0.00e+00	0	44	0	4346347520	10	3873
2026-01-27 15:13:01.86	334.65	17.18	-25.2	-25.8	16.6	0.00e+00	0	44	0	4353687552	10	3862
2026-01-27 15:13:02.86	334.70	17.07	-25.4	-26.3	16.4	0.00e+00	0	43	0	4361027584	10	3973
2026-01-27 15:13:03.86	334.76	16.96	-25.3	-26.0	16.5	0.00e+00	0	44	0	4368367616	10	3890
2026-01-27 15:13:04.87	334.82	16.84	-25.3	-25.9	16.5	0.00e+00	0	44	0	4374659072	10	3890
2026-01-27 15:13:05.87	334.87	16.73	-25.4	-26.1	16.4	0.00e+00	0	44	0	4381999104	10	3939
2026-01-27 15:13:06.88	334.93	16.62	-25.3	-26.1	16.4	0.00e+00	0	44	0	4389339136	10	3929
2026-01-27 15:13:07.88	334.98	16.51	-25.3	-25.9	16.5	0.00e+00	0	44	0	4396679168	10	3880
2026-01-27 15:13:08.89	335.03	16.40	-25.4	-26.1	16.4	0.00e+00	0	44	0	4404019200	10	3934
2026-01-27 15:13:09.89	335.09	16.29	-25.3	-26.0	16.5	0.00e+00	0	43	0	4411359232	10	3901
2026-01-27 15:13:10.90	335.14	16.18	-25.3	-25.9	16.5	0.00e+00	0	44	0	4418699264	10	3888
2026-01-27 15:13:11.89	335.19	16.07	-25.4	-26.1	16.4	0.00e+00	0	43	0	4426039296	10	3940
2026-01-27 15:13:12.89	335.24	15.97	-25.3	-26.1	16.4	0.00e+00	0	44	0	4432330752	10	3918
2026-01-27 15:13:13.90	335.30	15.86	-25.3	-26.0	16.4	0.00e+00	0	44	0	4439670784	10	3909
2026-01-27 15:13:14.90	335.35	15.75	-25.3	-26.1	16.4	0.00e+00	0	43	0	4447010816	10	3924
2026-01-27 15:13:15.91	335.40	15.64	-25.3	-26.1	16.4	0.00e+00	0	44	0	4454350848	10	3921
2026-01-27 15:13:16.90	335.45	15.54	-25.5	-26.4	16.2	1.10e-06	0	43	0	4461690880	10	4009
2026-01-27 15:13:17.91	335.50	15.43	-25.4	-26.2	16.3	0.00e+00	0	43	0	4469030912	10	3963
2026-01-27 15:13:18.91	335.55	15.33	-25.4	-26.3	16.3	0.00e+00	0	43	0	4476370944	10	3970
2026-01-27 15:13:19.91	335.60	15.22	-25.5	-26.5	16.2	0.00e+00	0	43	0	4483710976	10	4028
2026-01-27 15:13:20.92	335.65	15.12	-25.5	-26.4	16.2	0.00e+00	0	44	0	4491051008	10	4001
2026-01-27 15:13:21.92	335.70	15.01	-25.5	-26.4	16.2	0.00e+00	0	44	0	4498391040	10	4015
2026-01-27 15:13:22.93	335.75	14.91	-25.5	-26.5	16.2	1.10e-06	0	43	0	4505731072	10	4015
2026-01-27 15:13:23.93	335.80	14.81	-25.5	-26.5	16.2	0.00e+00	0	43	0	4513071104	10	4022
2026-01-27 15:13:24.93	335.85	14.70	-25.5	-26.5	16.1	0.00e+00	0	44	0	4519362560	10	4034
2026-01-27 15:13:25.93	335.89	14.60	-25.6	-26.2	16.0	0.00e+00	0	44	0	4526702592	11	3842
2026-01-27 15:13:26.94	335.94	14.50	-25.6	-26.1	16.0	0.00e+00	0	44	0	4534042624	11	3838
2026-01-27 15:13:27.94	335.99	14.40	-25.6	-26.2	16.0	0.00e+00	0	44	0	4541382656	11	3841
2026-01-27 15:13:28.94	336.04	14.30	-25.6	-26.3	16.0	0.00e+00	0	44	0	4548722688	11	3865
2026-01-27 15:13:29.94	336.08	14.20	-25.7	-26.4	15.9	0.00e+00	0	43	0	4556062720	11	3890
2026-01-27 15:13:30.95	336.13	14.10	-25.9	-26.7	15.7	0.00e+00	0	43	0	4563402752	11	3987
2026-01-27 15:13:31.95	336.18	14.00	-25.8	-26.6	15.7	0.00e+00	0	44	0	4570742784	11	3958
2026-01-27 15:13:32.96	336.22	13.90	-25.9	-26.9	15.7	0.00e+00	0	44	0	4578082816	11	4009
2026-01-27 15:13:33.96	336.27	13.80	-25.9	-26.8	15.6	0.00e+00	0	43	0	4585422848	11	3990
2026-01-27 15:13:34.96	336.31	13.70	-25.9	-26.9	15.6	0.00e+00	0	44	0	4592762880	11	4020
2026-01-27 15:13:35.96	336.36	13.60	-26.0	-27.1	15.5	0.00e+00	0	44	0	4599054336	11	4069
2026-01-27 15:13:36.96	336.40	13.50	-25.8	-26.7	15.7	0.00e+00	0	44	0	4606394368	11	3981
2026-01-27 15:13:37.97	336.45	13.40	-25.9	-26.9	15.6	1.10e-06	0	44	0	4613734400	11	4018
2026-01-27 15:13:38.98	336.49	13.31	-25.9	-26.8	15.6	0.00e+00	0	44	0	4621074432	11	4013
2026-01-27 15:13:39.98	336.54	13.21	-26.0	-27.1	15.5	0.00e+00	0	44	0	4628414464	11	4082
2026-01-27 15:13:40.98	336.58	13.11	-26.0	-27.0	15.5	0.00e+00	0	44	0	4635754496	11	4055
2026-01-27 15:13:41.99	336.63	13.02	-26.1	-26.8	15.3	0.00e+00	0	44	0	4643094528	12	3908
2026-01-27 15:13:42.99	336.67	12.92	-26.3	-27.2	15.0	0.00e+00	0	44	0	4650434560	12	3988
2026-01-27 15:13:43.99	336.71	12.83	-26.2	-26.9	15.2	0.00e+00	0	44	0	4657774592	12	3928
2026-01-27 15:13:44.99	336.75	12.73	-26.2	-27.1	15.1	1.10e-06	0	44	0	4664066048	12	3963
2026-01-27 15:13:46.00	336.80	12.64	-26.1	-26.8	15.2	2.20e-06	0	44	0	4671406080	12	3910
2026-01-27 15:13:47.01	336.84	12.54	-26.2	-27.1	15.1	0.00e+00	0	44	0	4678746112	12	3975
2026-01-27 15:13:48.01	336.88	12.45	-26.3	-27.2	15.0	0.00e+00	0	44	0	4686086144	12	3998
2026-01-27 15:13:49.02	336.92	12.35	-26.4	-27.4	14.9	0.00e+00	0	43	0	4693426176	12	4050
2026-01-27 15:13:50.03	336.97	12.26	-26.3	-27.2	15.0	0.00e+00	0	44	0	4700766208	12	4004
2026-01-27 15:13:51.03	337.01	12.17	-26.2	-27.0	15.2	0.00e+00	0	44	0	4708106240	12	3939
2026-01-27 15:13:52.03	337.05	12.08	-26.2	-27.1	15.1	0.00e+00	0	44	0	4715446272	12	3969
2026-01-27 15:13:53.03	337.09	11.98	-26.2	-27.1	15.1	1.10e-06	0	44	0	4722786304	12	3966
2026-01-27 15:13:54.03	337.13	11.89	-26.4	-27.4	14.9	0.00e+00	0	44	0	4730126336	12	4053
2026-01-27 15:13:55.04	337.17	11.80	-26.3	-27.3	14.9	0.00e+00	0	44	0	4737466368	12	4029
2026-01-27 15:13:56.04	337.21	11.71	-26.3	-27.3	14.9	0.00e+00	0	44	0	4744806400	12	4030
2026-01-27 15:13:57.05	337.25	11.62	-26.3	-27.2	14.9	2.20e-06	0	44	0	4751097856	12	4012
2026-01-27 15:13:58.05	337.29	11.53	-26.4	-27.5	14.8	1.10e-06	0	44	0	4758437888	12	4062
2026-01-27 15:13:59.05	337.33	11.44	-26.3	-27.3	14.9	2.20e-06	0	44	0	4765777920	12	4032
2026-01-27 15:14:00.06	337.37	11.35	-26.4	-27.4	14.8	2.20e-06	0	44	0	4773117952	12	4056
2026-01-27 15:14:01.06	337.41	11.26	-26.4	-27.4	14.9	3.40e-06	0	44	0	4780457984	12	4048
2026-01-27 15:14:02.06	337.45	11.17	-26.4	-27.5	14.8	0.00e+00	0	44	0	4787798016	12	4086
2026-01-27 15:14:03.07	337.49	11.08	-26.4	-27.5	14.8	1.10e-06	0	44	0	4795138048	12	4084
2026-01-27 15:14:04.08	337.53	10.99	-26.5	-27.7	14.7	0.00e+00	0	44	0	4802478080	12	4124
2026-01-27 15:14:05.08	337.57	10.90	-26.4	-27.4	14.8	2.20e-06	0	44	0	4809818112	12	4054
2026-01-27 15:14:06.08	337.60	10.81	-26.4	-27.6	14.7	2.20e-06	0	44	0	4817158144	12	4089
2026-01-27 15:14:07.08	337.64	10.73	-26.6	-27.8	14.6	0.00e+00	0	44	0	4824498176	12	4154
2026-01-27 15:14:08.09	337.68	10.64	-26.5	-27.7	14.7	2.20e-06	0	44	0	4830789632	12	4131
2026-01-27 15:14:09.09	337.72	10.55	-26.5	-27.7	14.6	1.10e-06	0	43	0	4838129664	12	4125
2026-01-27 15:14:10.08	337.75	10.47	-26.6	-27.8	14.5	6.80e-06	0	44	0	4845469696	12	4171
2026-01-27 15:14:11.08	337.79	10.38	-26.7	-27.6	14.4	2.20e-06	0	44	0	4852809728	13	3996
2026-01-27 15:14:12.09	337.83	10.29	-26.9	-28.1	14.1	8.00e-06	0	44	0	4860149760	13	4131
2026-01-27 15:14:13.09	337.87	10.21	-26.8	-27.9	14.2	3.40e-06	0	43	0	4867489792	13	4075
2026-01-27 15:14:14.10	337.90	10.12	-26.9	-28.2	14.1	5.70e-06	0	44	0	4874829824	13	4148
2026-01-27 15:14:15.09	337.94	10.04	-26.8	-27.9	14.2	1.10e-06	0	44	0	4882169856	13	4066
2026-01-27 15:14:16.10	337.97	9.95	-26.8	-27.9	14.2	3.40e-06	0	44	0	4889509888	13	4074
2026-01-27 15:14:17.10	338.01	9.87	-26.8	-27.9	14.2	3.40e-06	0	43	0	4895801344	13	4076
2026-01-27 15:14:18.09	338.05	9.78	-27.0	-27.9	13.9	8.00e-06	0	44	0	4903141376	14	3967
2026-01-27 15:14:19.10	338.08	9.70	-26.9	-27.6	14.1	2.20e-06	0	44	0	4910481408	14	3892
2026-01-27 15:14:20.10	338.12	9.61	-26.8	-27.3	14.3	0.00e+00	0	44	0	4917821440	14	3824
2026-01-27 15:14:21.10	338.15	9.53	-26.7	-27.2	14.3	4.50e-06	0	43	0	4925161472	14	3814
