passes_logs/2026/01/27/R2M6_AANII_01/R2M6_AANII_01__20260127_104304_SUOMI_NPP_rec.log

#Pass ID: 20260127_104304_SUOMI NPP
#Satellite: SUOMI NPP
#Configuration: NPP
#almurnet v.1.7.20240730
#Start time: 2026-01-27 10:43:06

#Version: 2.2.20231116
#Station: R2M6_AANII_01
#Location: 30.233357 lon 59.946436 lat
#TLE: 1 37849U 11061A   26026.87508736  .00000176  00000+0  10464-3 0  9991
#TLE: 2 37849  98.7822 328.8221 0002127  43.3055 316.8288 14.19530452738397

#Time	Az	El	Level	Level2	SNR	BER	BlckErr	Temp	State	Recorded	gain1	gain2
2026-01-27 10:43:06.84	170.17	7.16	-31.4	-35.9	5.1	1.28e+00	0	41	0	0	22	6079
2026-01-27 10:43:07.84	170.19	7.24	-31.7	-36.2	4.9	1.30e+00	0	42	104	0	24	6042
2026-01-27 10:43:08.84	170.21	7.31	-31.6	-35.4	8.2	9.73e-02	0	41	0	0	24	5593
2026-01-27 10:43:09.85	170.23	7.39	-31.4	-34.6	8.8	2.97e-02	0	42	0	1048576	24	5226
2026-01-27 10:43:10.85	170.26	7.47	-31.3	-34.6	9.3	1.75e-02	0	42	0	3145728	23	5281
2026-01-27 10:43:11.85	170.28	7.55	-31.0	-33.6	10.0	1.25e-02	0	41	0	5242880	23	4874
2026-01-27 10:43:12.85	170.30	7.63	-30.7	-33.2	10.8	4.28e-03	0	42	0	7340032	22	4787
2026-01-27 10:43:13.86	170.33	7.71	-30.6	-32.8	11.0	1.99e-03	0	42	0	9437184	22	4648
2026-01-27 10:43:14.86	170.35	7.79	-30.5	-32.6	11.3	1.56e-03	0	42	0	10485760	22	4545
2026-01-27 10:43:15.86	170.38	7.86	-30.7	-33.0	11.0	1.15e-03	0	42	0	12582912	22	4690
2026-01-27 10:43:16.87	170.40	7.94	-30.5	-32.4	11.4	9.15e-04	0	42	0	14680064	22	4484
2026-01-27 10:43:17.87	170.42	8.02	-30.4	-32.0	11.7	5.71e-04	0	42	0	16777216	22	4351
2026-01-27 10:43:18.88	170.45	8.11	-30.4	-32.0	11.7	5.32e-04	0	42	0	17825792	22	4327
2026-01-27 10:43:19.89	170.47	8.19	-30.3	-32.2	11.9	5.37e-04	0	42	0	19922944	21	4482
2026-01-27 10:43:20.90	170.50	8.27	-30.4	-32.5	11.7	5.02e-04	0	42	0	22020096	21	4585
2026-01-27 10:43:21.90	170.52	8.35	-30.3	-32.3	11.9	4.86e-04	0	42	0	24117248	21	4508
2026-01-27 10:43:22.90	170.55	8.43	-30.3	-32.2	12.0	5.02e-04	0	42	0	26214400	21	4476
2026-01-27 10:43:23.91	170.57	8.51	-30.3	-32.4	11.8	3.42e-04	0	42	0	28311552	21	4545
2026-01-27 10:43:24.91	170.60	8.59	-30.3	-32.2	12.0	3.97e-04	0	42	0	29360128	21	4470
2026-01-27 10:43:25.91	170.62	8.68	-30.3	-32.3	11.9	3.00e-04	0	42	0	31457280	21	4519
2026-01-27 10:43:26.92	170.65	8.76	-30.4	-32.4	11.8	5.60e-04	0	42	0	33554432	21	4562
2026-01-27 10:43:27.92	170.67	8.84	-30.3	-32.2	12.0	3.51e-04	0	42	0	35651584	21	4462
2026-01-27 10:43:28.93	170.70	8.92	-30.3	-32.1	12.1	2.13e-04	0	42	0	36700160	21	4430
2026-01-27 10:43:29.93	170.72	9.01	-30.3	-32.2	12.1	2.32e-04	0	42	0	38797312	21	4459
2026-01-27 10:43:30.93	170.75	9.09	-30.4	-32.4	11.9	2.52e-04	0	42	0	40894464	21	4541
2026-01-27 10:43:31.94	170.77	9.18	-30.3	-32.0	12.1	3.32e-04	0	42	0	42991616	21	4421
2026-01-27 10:43:32.94	170.80	9.26	-30.2	-31.9	12.2	3.20e-04	0	42	0	45088768	21	4361
2026-01-27 10:43:33.94	170.83	9.34	-30.3	-32.1	12.1	2.23e-04	0	42	0	46137344	21	4420
2026-01-27 10:43:34.95	170.85	9.43	-30.3	-32.0	12.2	1.95e-04	0	42	0	48234496	21	4400
2026-01-27 10:43:35.95	170.88	9.51	-30.3	-32.2	12.1	2.20e-04	0	42	0	50331648	21	4458
2026-01-27 10:43:36.96	170.91	9.60	-30.4	-32.3	12.0	3.74e-04	0	42	0	52428800	21	4499
2026-01-27 10:43:37.95	170.93	9.68	-30.5	-32.8	11.7	4.01e-04	0	42	0	54525952	21	4658
2026-01-27 10:43:38.96	170.96	9.77	-30.6	-32.8	11.6	4.42e-04	0	42	0	55574528	21	4678
2026-01-27 10:43:39.97	170.99	9.86	-30.4	-32.4	12.0	6.19e-04	0	43	0	57671680	21	4515
2026-01-27 10:43:40.97	171.01	9.94	-30.4	-32.4	12.0	3.88e-04	0	42	0	59768832	21	4537
2026-01-27 10:43:41.97	171.04	10.03	-30.5	-32.7	11.8	3.90e-04	0	42	0	61865984	21	4642
2026-01-27 10:43:42.97	171.07	10.12	-30.4	-32.4	12.0	4.01e-04	0	43	0	63963136	21	4512
2026-01-27 10:43:43.97	171.09	10.20	-30.5	-32.6	11.9	3.31e-04	0	42	0	65011712	21	4590
2026-01-27 10:43:44.97	171.12	10.29	-30.5	-32.8	11.7	4.55e-04	0	43	0	67108864	21	4651
2026-01-27 10:43:45.98	171.15	10.38	-30.4	-32.5	12.0	5.09e-04	0	42	0	69206016	21	4545
2026-01-27 10:43:46.98	171.18	10.47	-30.3	-32.0	12.3	1.68e-04	0	42	0	71303168	21	4404
2026-01-27 10:43:47.98	171.21	10.55	-30.2	-31.7	12.5	1.23e-04	0	43	0	73400320	21	4280
2026-01-27 10:43:48.98	171.23	10.64	-30.1	-31.4	12.7	6.86e-05	0	43	0	74448896	21	4185
2026-01-27 10:43:49.99	171.26	10.73	-30.1	-31.4	12.7	6.94e-05	0	43	0	76546048	21	4205
2026-01-27 10:43:50.99	171.29	10.82	-30.1	-31.4	12.7	5.87e-05	0	43	0	78643200	21	4184
2026-01-27 10:43:51.99	171.32	10.91	-30.1	-31.6	12.6	6.86e-05	0	43	0	80740352	21	4236
2026-01-27 10:43:52.99	171.35	11.00	-30.2	-31.7	12.6	8.46e-05	0	43	0	82837504	21	4268
2026-01-27 10:43:54.00	171.38	11.09	-30.0	-31.0	13.0	5.11e-05	0	43	0	83886080	21	4067
2026-01-27 10:43:55.00	171.41	11.18	-29.9	-30.9	13.1	3.12e-05	0	43	0	85983232	21	4011
2026-01-27 10:43:55.99	171.43	11.27	-30.0	-31.1	13.0	4.42e-05	0	43	0	88080384	21	4079
2026-01-27 10:43:56.99	171.46	11.36	-30.1	-31.3	12.9	6.40e-05	0	43	0	90177536	21	4133
2026-01-27 10:43:57.99	171.49	11.45	-30.0	-31.0	13.1	2.97e-05	0	43	0	91226112	21	4051
2026-01-27 10:43:59.00	171.52	11.55	-29.9	-30.9	13.2	2.82e-05	0	43	0	93323264	21	4008
2026-01-27 10:44:00.00	171.55	11.64	-29.9	-31.4	13.2	1.75e-05	0	43	0	95420416	20	4250
2026-01-27 10:44:01.01	171.58	11.73	-29.8	-31.0	13.5	1.44e-05	0	43	0	97517568	20	4128
2026-01-27 10:44:02.01	171.61	11.83	-29.8	-31.0	13.5	2.05e-05	0	43	0	99614720	20	4120
2026-01-27 10:44:03.01	171.64	11.92	-29.7	-30.8	13.6	6.10e-06	0	43	0	100663296	20	4081
2026-01-27 10:44:04.01	171.67	12.01	-29.9	-31.2	13.3	1.14e-05	0	43	0	102760448	20	4186
2026-01-27 10:44:05.01	171.71	12.11	-29.7	-30.8	13.6	1.37e-05	0	43	0	104857600	20	4070
2026-01-27 10:44:06.02	171.74	12.20	-29.6	-30.6	13.8	9.10e-06	0	43	0	106954752	20	4016
2026-01-27 10:44:07.02	171.77	12.30	-29.5	-30.3	13.9	1.50e-06	0	43	0	109051904	20	3937
2026-01-27 10:44:08.02	171.80	12.39	-29.6	-30.4	13.8	1.22e-05	0	43	0	110100480	20	3958
2026-01-27 10:44:09.03	171.83	12.49	-29.5	-30.2	14.0	4.50e-06	0	43	0	112197632	20	3900
2026-01-27 10:44:10.03	171.86	12.58	-29.6	-30.6	13.8	2.20e-06	0	43	0	114294784	20	4006
2026-01-27 10:44:11.04	171.89	12.68	-29.5	-30.2	14.0	5.30e-06	0	43	0	116391936	20	3914
2026-01-27 10:44:12.05	171.93	12.78	-29.5	-30.2	14.0	7.00e-07	0	43	0	118489088	20	3911
2026-01-27 10:44:13.05	171.96	12.87	-29.4	-29.9	14.1	0.00e+00	0	43	0	119537664	20	3836
2026-01-27 10:44:14.05	171.99	12.97	-29.4	-29.9	14.2	7.00e-07	0	43	0	121634816	20	3825
2026-01-27 10:44:15.05	172.02	13.07	-29.5	-30.1	14.1	2.20e-06	0	43	0	123731968	20	3874
2026-01-27 10:44:16.06	172.06	13.17	-29.4	-29.9	14.2	3.00e-06	0	43	0	125829120	20	3829
2026-01-27 10:44:17.06	172.09	13.27	-29.3	-29.8	14.2	1.29e-05	0	43	0	127926272	20	3811
2026-01-27 10:44:18.06	172.12	13.37	-29.4	-29.9	14.2	0.00e+00	0	43	0	128974848	20	3823
2026-01-27 10:44:19.06	172.16	13.46	-29.3	-29.8	14.3	2.20e-06	0	43	0	131072000	20	3804
2026-01-27 10:44:20.07	172.19	13.57	-29.4	-30.0	14.2	9.90e-06	0	43	0	133169152	20	3860
2026-01-27 10:44:21.07	172.22	13.67	-29.5	-30.2	14.0	2.20e-06	0	43	0	135266304	20	3908
2026-01-27 10:44:22.07	172.26	13.77	-29.5	-30.4	13.9	3.00e-06	0	43	0	136314880	20	3964
2026-01-27 10:44:23.07	172.29	13.87	-29.5	-30.3	14.0	7.00e-07	0	43	0	138412032	20	3934
2026-01-27 10:44:24.07	172.33	13.97	-29.4	-30.0	14.2	1.50e-06	0	43	0	140509184	20	3844
2026-01-27 10:44:25.06	172.36	14.07	-29.5	-30.2	14.0	2.20e-06	0	43	0	142606336	20	3927
2026-01-27 10:44:26.07	172.40	14.17	-29.5	-30.2	14.0	2.20e-06	0	43	0	144703488	20	3920
2026-01-27 10:44:27.08	172.43	14.27	-29.4	-30.1	14.1	4.50e-06	0	43	0	145752064	20	3897
2026-01-27 10:44:28.09	172.47	14.38	-29.5	-30.2	14.0	7.00e-07	0	43	0	147849216	20	3925
2026-01-27 10:44:29.09	172.50	14.48	-29.4	-30.1	14.2	0.00e+00	0	43	0	149946368	20	3879
2026-01-27 10:44:30.10	172.54	14.59	-29.3	-30.3	14.4	0.00e+00	0	43	0	152043520	19	4019
2026-01-27 10:44:31.10	172.57	14.69	-29.4	-30.4	14.3	0.00e+00	0	43	0	154140672	19	4067
2026-01-27 10:44:32.11	172.61	14.80	-29.3	-30.3	14.4	3.00e-06	0	43	0	155189248	19	4012
2026-01-27 10:44:33.12	172.65	14.90	-29.4	-30.4	14.3	0.00e+00	0	43	0	157286400	19	4068
2026-01-27 10:44:34.12	172.68	15.01	-29.4	-30.6	14.2	0.00e+00	0	43	0	159383552	19	4101
2026-01-27 10:44:35.13	172.72	15.12	-29.4	-30.6	14.3	0.00e+00	0	43	0	161480704	19	4104
2026-01-27 10:44:36.12	172.76	15.22	-29.5	-30.7	14.2	7.00e-07	0	43	0	163577856	19	4133
2026-01-27 10:44:37.12	172.80	15.33	-29.4	-30.6	14.2	3.00e-06	0	43	0	164626432	19	4116
2026-01-27 10:44:38.13	172.83	15.44	-29.5	-30.8	14.1	2.20e-06	0	43	0	166723584	19	4181
2026-01-27 10:44:39.13	172.87	15.54	-29.7	-31.3	13.7	3.80e-06	0	43	0	168820736	19	4341
2026-01-27 10:44:40.14	172.91	15.65	-29.8	-31.6	13.6	1.22e-05	0	43	0	170917888	19	4439
2026-01-27 10:44:41.13	172.95	15.76	-29.9	-31.9	13.4	1.44e-05	0	43	0	173015040	19	4519
2026-01-27 10:44:42.14	172.99	15.87	-29.8	-31.7	13.5	9.10e-06	0	43	0	174063616	19	4471
2026-01-27 10:44:43.14	173.03	15.98	-30.0	-31.5	13.2	1.60e-05	0	43	0	176160768	20	4324
2026-01-27 10:44:44.15	173.07	16.09	-30.0	-31.6	13.2	1.75e-05	0	43	0	178257920	20	4344
2026-01-27 10:44:45.15	173.11	16.20	-30.0	-31.7	13.2	2.05e-05	0	43	0	180355072	20	4374
2026-01-27 10:44:46.16	173.15	16.32	-30.1	-32.0	13.0	3.12e-05	0	43	0	182452224	20	4460
2026-01-27 10:44:47.16	173.19	16.43	-30.3	-32.5	12.7	4.95e-05	0	43	0	183500800	20	4653
2026-01-27 10:44:48.16	173.23	16.54	-30.1	-31.8	13.2	4.65e-05	0	43	0	185597952	20	4411
2026-01-27 10:44:49.16	173.27	16.65	-30.0	-31.6	13.3	3.35e-05	0	44	0	187695104	20	4332
2026-01-27 10:44:50.16	173.31	16.77	-29.9	-31.4	13.4	1.52e-05	0	43	0	189792256	20	4251
2026-01-27 10:44:51.17	173.35	16.88	-30.0	-31.5	13.4	2.05e-05	0	43	0	191889408	20	4290
2026-01-27 10:44:52.17	173.39	16.99	-30.0	-31.6	13.3	2.13e-05	0	44	0	192937984	20	4319
2026-01-27 10:44:53.17	173.43	17.11	-30.1	-31.8	13.3	2.21e-05	0	44	0	195035136	20	4358
2026-01-27 10:44:54.17	173.47	17.23	-30.1	-31.7	13.4	1.90e-05	0	44	0	197132288	20	4336
2026-01-27 10:44:55.17	173.52	17.34	-30.1	-31.8	13.3	1.98e-05	0	43	0	199229440	20	4365
2026-01-27 10:44:56.18	173.56	17.46	-30.1	-31.7	13.3	1.22e-05	0	44	0	200278016	20	4336
2026-01-27 10:44:57.19	173.60	17.58	-30.1	-31.6	13.4	1.67e-05	0	44	0	202375168	20	4283
2026-01-27 10:44:58.19	173.65	17.69	-30.1	-31.6	13.3	2.74e-05	0	44	0	204472320	20	4305
2026-01-27 10:44:59.19	173.69	17.81	-30.3	-32.1	13.2	2.21e-05	0	43	0	206569472	20	4435
2026-01-27 10:45:00.21	173.73	17.93	-30.3	-32.1	13.1	1.60e-05	0	43	0	208666624	20	4436
2026-01-27 10:45:01.21	173.78	18.05	-30.4	-32.5	12.9	4.27e-05	0	43	0	209715200	20	4579
2026-01-27 10:45:02.22	173.82	18.17	-30.6	-32.5	12.5	1.36e-04	0	43	0	211812352	21	4493
2026-01-27 10:45:03.22	173.87	18.29	-30.5	-32.3	12.7	6.56e-05	0	44	0	213909504	21	4409
2026-01-27 10:45:04.22	173.91	18.41	-30.6	-32.4	12.6	7.09e-05	0	43	0	216006656	21	4451
2026-01-27 10:45:05.23	173.96	18.54	-30.7	-32.6	12.5	5.56e-05	0	43	0	218103808	21	4511
2026-01-27 10:45:06.24	174.00	18.66	-30.5	-32.3	12.7	1.42e-04	0	43	0	219152384	21	4406
2026-01-27 10:45:07.23	174.05	18.78	-30.7	-32.6	12.5	1.43e-04	0	43	0	221249536	21	4509
2026-01-27 10:45:08.24	174.10	18.91	-30.8	-32.9	12.3	1.40e-04	0	43	0	223346688	21	4596
2026-01-27 10:45:09.24	174.14	19.03	-30.8	-33.0	12.3	2.81e-04	0	43	0	225443840	21	4642
2026-01-27 10:45:10.25	174.19	19.16	-30.9	-33.2	12.1	2.78e-04	0	44	0	227540992	21	4718
2026-01-27 10:45:11.25	174.24	19.28	-30.9	-33.2	12.1	3.13e-04	0	43	0	228589568	21	4706
2026-01-27 10:45:12.26	174.29	19.41	-31.0	-33.1	11.9	3.35e-04	0	44	0	230686720	22	4592
2026-01-27 10:45:13.26	174.34	19.54	-30.9	-32.8	12.1	2.40e-04	0	44	0	232783872	22	4476
2026-01-27 10:45:14.27	174.39	19.66	-31.0	-32.9	12.0	2.84e-04	0	44	0	234881024	22	4523
2026-01-27 10:45:15.27	174.43	19.79	-30.8	-32.6	12.2	3.32e-04	0	44	0	236978176	22	4395
2026-01-27 10:45:16.27	174.48	19.92	-30.8	-32.5	12.3	1.26e-04	0	44	0	238026752	22	4366
2026-01-27 10:45:17.27	174.53	20.05	-30.8	-32.4	12.4	1.39e-04	0	44	0	240123904	22	4321
2026-01-27 10:45:18.28	174.58	20.18	-30.7	-32.1	12.6	1.22e-04	0	44	0	242221056	22	4237
2026-01-27 10:45:19.28	174.63	20.31	-30.6	-31.9	12.7	1.36e-04	0	43	0	244318208	22	4189
2026-01-27 10:45:20.29	174.69	20.44	-30.6	-31.8	12.8	8.85e-05	0	43	0	246415360	22	4153
2026-01-27 10:45:21.29	174.74	20.57	-30.6	-31.8	12.8	4.73e-05	0	43	0	247463936	22	4139
2026-01-27 10:45:22.29	174.79	20.71	-30.7	-32.0	12.6	7.55e-05	0	44	0	249561088	22	4221
2026-01-27 10:45:23.29	174.84	20.84	-30.6	-31.7	12.9	5.26e-05	0	43	0	251658240	22	4126
2026-01-27 10:45:24.30	174.89	20.97	-30.6	-32.0	12.7	3.20e-05	0	44	0	253755392	22	4190
2026-01-27 10:45:25.30	174.95	21.11	-30.7	-32.1	12.7	1.07e-04	0	44	0	255852544	22	4221
2026-01-27 10:45:26.31	175.00	21.24	-30.5	-31.7	12.9	7.47e-05	0	44	0	256901120	22	4110
2026-01-27 10:45:27.32	175.06	21.38	-30.6	-31.7	12.9	6.02e-05	0	44	0	258998272	22	4114
2026-01-27 10:45:28.32	175.11	21.52	-30.8	-32.3	12.6	9.68e-05	0	44	0	261095424	22	4293
2026-01-27 10:45:29.32	175.17	21.65	-30.6	-31.9	12.8	5.79e-05	0	44	0	263192576	22	4166
2026-01-27 10:45:30.33	175.22	21.79	-30.7	-32.1	12.7	5.26e-05	0	44	0	265289728	22	4221
2026-01-27 10:45:31.33	175.28	21.93	-30.7	-32.1	12.7	6.33e-05	0	44	0	266338304	22	4232
2026-01-27 10:45:32.33	175.33	22.07	-30.6	-32.0	12.8	1.01e-04	0	44	0	268435456	22	4199
2026-01-27 10:45:33.34	175.39	22.21	-30.6	-31.9	12.8	8.62e-05	0	43	0	270532608	22	4163
2026-01-27 10:45:34.34	175.45	22.35	-30.8	-32.5	12.4	6.25e-05	0	44	0	272629760	22	4365
2026-01-27 10:45:35.35	175.51	22.50	-30.8	-32.5	12.5	1.52e-04	0	44	0	274726912	22	4360
2026-01-27 10:45:36.35	175.56	22.64	-30.7	-32.0	12.8	7.09e-05	0	44	0	275775488	22	4198
2026-01-27 10:45:37.34	175.62	22.78	-30.7	-32.0	12.8	6.79e-05	0	44	0	277872640	22	4215
2026-01-27 10:45:38.35	175.68	22.93	-30.6	-31.9	12.8	7.17e-05	0	44	0	279969792	22	4173
2026-01-27 10:45:39.35	175.74	23.07	-30.7	-32.2	12.6	7.40e-05	0	44	0	282066944	22	4261
2026-01-27 10:45:40.35	175.80	23.22	-30.7	-32.0	12.8	5.49e-05	0	44	0	283115520	22	4183
2026-01-27 10:45:41.36	175.86	23.36	-30.6	-31.8	12.9	5.64e-05	0	43	0	285212672	22	4138
2026-01-27 10:45:42.36	175.93	23.51	-30.8	-32.4	12.5	1.31e-04	0	44	0	287309824	22	4320
2026-01-27 10:45:43.37	175.99	23.66	-30.6	-31.8	12.9	5.64e-05	0	44	0	289406976	22	4146
2026-01-27 10:45:44.37	176.05	23.81	-30.6	-31.7	13.0	2.28e-05	0	44	0	291504128	22	4109
2026-01-27 10:45:45.38	176.11	23.96	-30.4	-31.3	13.3	3.58e-05	0	44	0	292552704	22	3988
2026-01-27 10:45:46.38	176.18	24.11	-30.5	-31.5	13.2	3.05e-05	0	44	0	294649856	22	4030
2026-01-27 10:45:47.39	176.24	24.26	-30.4	-31.3	13.3	2.21e-05	0	44	0	296747008	22	3974
2026-01-27 10:45:48.40	176.31	24.42	-30.3	-31.4	13.4	1.37e-05	0	44	0	298844160	21	4110
2026-01-27 10:45:49.40	176.37	24.57	-30.3	-31.5	13.5	1.60e-05	0	44	0	300941312	21	4136
2026-01-27 10:45:50.40	176.44	24.72	-30.2	-31.1	13.7	3.00e-06	0	44	0	301989888	21	4024
2026-01-27 10:45:51.40	176.51	24.88	-30.0	-30.7	14.0	9.90e-06	0	44	0	304087040	21	3906
2026-01-27 10:45:52.41	176.57	25.04	-30.3	-31.4	13.6	1.67e-05	0	44	0	306184192	21	4086
2026-01-27 10:45:53.41	176.64	25.19	-30.3	-31.5	13.5	1.52e-05	0	44	0	308281344	21	4117
2026-01-27 10:45:54.42	176.71	25.35	-30.2	-31.2	13.7	6.80e-06	0	44	0	310378496	21	4048
2026-01-27 10:45:55.42	176.78	25.51	-30.2	-31.1	13.8	6.10e-06	0	44	0	311427072	21	4005
2026-01-27 10:45:56.42	176.85	25.67	-30.2	-31.1	13.7	9.90e-06	0	44	0	313524224	21	4007
2026-01-27 10:45:57.42	176.92	25.83	-30.2	-31.2	13.7	1.29e-05	0	44	0	315621376	21	4026
2026-01-27 10:45:58.42	176.99	25.99	-29.9	-30.4	14.2	3.80e-06	0	44	0	317718528	21	3814
2026-01-27 10:45:59.43	177.06	26.15	-29.9	-30.5	14.1	3.00e-06	0	44	0	319815680	21	3839
2026-01-27 10:46:00.43	177.14	26.32	-30.0	-30.5	14.1	2.20e-06	0	44	0	320864256	21	3836
2026-01-27 10:46:01.43	177.21	26.48	-29.7	-30.4	14.5	7.00e-07	0	44	0	322961408	20	3898
2026-01-27 10:46:02.43	177.28	26.65	-29.8	-30.7	14.4	7.00e-07	0	44	0	325058560	20	3974
2026-01-27 10:46:03.44	177.36	26.81	-29.9	-30.8	14.3	7.00e-07	0	44	0	327155712	20	4015
2026-01-27 10:46:04.45	177.44	26.98	-30.0	-31.1	14.2	1.50e-06	0	44	0	329252864	20	4088
2026-01-27 10:46:05.45	177.51	27.15	-29.8	-30.7	14.4	1.50e-06	0	44	0	330301440	20	3966
2026-01-27 10:46:06.46	177.59	27.32	-30.0	-31.2	14.1	6.10e-06	0	44	0	332398592	20	4126
2026-01-27 10:46:07.46	177.67	27.49	-30.0	-31.0	14.3	2.20e-06	0	44	0	334495744	20	4078
2026-01-27 10:46:08.47	177.75	27.66	-30.1	-31.4	14.0	7.00e-07	0	44	0	336592896	20	4180
2026-01-27 10:46:09.48	177.83	27.84	-30.1	-31.3	14.0	5.30e-06	0	44	0	338690048	20	4155
2026-01-27 10:46:10.48	177.91	28.01	-29.9	-30.8	14.3	1.50e-06	0	44	0	339738624	20	4004
2026-01-27 10:46:11.49	177.99	28.18	-29.9	-30.8	14.3	0.00e+00	0	44	0	341835776	20	3992
2026-01-27 10:46:12.49	178.07	28.36	-29.8	-30.7	14.4	2.20e-06	0	44	0	343932928	20	3976
2026-01-27 10:46:13.48	178.15	28.53	-29.7	-30.3	14.7	0.00e+00	0	44	0	346030080	20	3854
2026-01-27 10:46:14.49	178.24	28.71	-30.1	-31.3	14.1	0.00e+00	0	44	0	348127232	20	4145
2026-01-27 10:46:15.49	178.32	28.89	-29.9	-31.0	14.2	7.00e-07	0	44	0	349175808	20	4048
2026-01-27 10:46:16.49	178.41	29.07	-29.9	-30.9	14.3	7.00e-07	0	44	0	351272960	20	4043
2026-01-27 10:46:17.50	178.49	29.25	-30.0	-31.0	14.2	2.20e-06	0	44	0	353370112	20	4063
2026-01-27 10:46:18.50	178.58	29.43	-30.0	-31.2	14.1	2.20e-06	0	44	0	355467264	20	4125
2026-01-27 10:46:19.51	178.67	29.62	-30.2	-31.5	13.9	3.00e-06	0	44	0	357564416	20	4212
2026-01-27 10:46:20.51	178.76	29.80	-30.3	-32.0	13.6	3.80e-06	0	44	0	358612992	20	4370
2026-01-27 10:46:21.52	178.85	29.99	-30.4	-31.8	13.4	8.30e-06	0	44	0	360710144	21	4214
2026-01-27 10:46:22.52	178.94	30.17	-30.2	-31.0	13.9	6.10e-06	0	44	0	362807296	21	3974
2026-01-27 10:46:23.53	179.04	30.36	-30.2	-31.3	13.8	2.20e-06	0	44	0	364904448	21	4046
2026-01-27 10:46:24.53	179.13	30.55	-30.1	-31.0	13.9	6.10e-06	0	44	0	365953024	21	3958
2026-01-27 10:46:25.53	179.22	30.74	-30.4	-31.6	13.5	5.30e-06	0	44	0	368050176	21	4156
2026-01-27 10:46:26.53	179.32	30.93	-30.7	-32.4	13.0	1.60e-05	0	44	0	370147328	21	4393
2026-01-27 10:46:27.54	179.42	31.12	-30.5	-31.9	13.4	2.21e-05	0	44	0	372244480	21	4235
2026-01-27 10:46:28.54	179.51	31.31	-30.8	-32.9	12.7	2.74e-05	0	44	0	374341632	21	4544
2026-01-27 10:46:29.55	179.61	31.51	-30.9	-32.6	12.6	1.18e-04	0	44	0	375390208	22	4362
2026-01-27 10:46:30.55	179.71	31.70	-31.1	-33.1	12.3	1.07e-04	0	44	0	377487360	22	4516
2026-01-27 10:46:31.55	179.81	31.90	-31.2	-33.3	12.3	1.44e-04	0	44	0	379584512	22	4576
2026-01-27 10:46:32.56	179.92	32.10	-31.3	-33.7	11.9	2.52e-04	0	44	0	381681664	22	4717
2026-01-27 10:46:33.56	180.02	32.30	-31.4	-33.5	11.7	5.74e-04	0	44	0	383778816	23	4581
2026-01-27 10:46:34.57	180.13	32.50	-31.4	-33.4	11.7	6.15e-04	0	44	0	384827392	23	4533
2026-01-27 10:46:35.57	180.23	32.70	-31.6	-34.0	11.3	5.20e-04	0	44	0	386924544	23	4771
2026-01-27 10:46:36.57	180.34	32.90	-31.6	-34.2	11.2	1.63e-03	0	44	0	389021696	23	4815
2026-01-27 10:46:37.58	180.45	33.11	-31.2	-32.7	12.2	6.68e-04	0	44	0	391118848	23	4315
2026-01-27 10:46:38.59	180.56	33.32	-31.2	-33.0	12.0	8.39e-04	0	44	0	393216000	23	4394
2026-01-27 10:46:39.59	180.67	33.52	-31.1	-32.6	12.3	3.52e-04	0	44	0	394264576	23	4265
2026-01-27 10:46:40.59	180.78	33.73	-31.0	-32.3	12.5	1.05e-04	0	44	0	396361728	23	4183
2026-01-27 10:46:41.59	180.90	33.94	-30.8	-32.1	13.0	1.08e-04	0	44	0	398458880	22	4185
2026-01-27 10:46:42.60	181.02	34.15	-30.8	-32.0	13.1	2.13e-05	0	44	0	400556032	22	4170
2026-01-27 10:46:43.60	181.13	34.36	-30.5	-31.5	13.4	2.44e-05	0	44	0	402653184	22	4004
2026-01-27 10:46:44.60	181.25	34.58	-30.6	-31.6	13.4	1.52e-05	0	44	0	403701760	22	4036
2026-01-27 10:46:45.61	181.37	34.79	-30.8	-32.3	12.9	3.12e-05	0	44	0	405798912	22	4246
2026-01-27 10:46:46.61	181.49	35.01	-30.8	-32.2	13.0	2.82e-05	0	44	0	407896064	22	4215
2026-01-27 10:46:47.62	181.62	35.23	-31.0	-32.7	12.6	3.50e-05	0	44	0	409993216	22	4402
2026-01-27 10:46:48.62	181.74	35.45	-31.0	-32.7	12.6	2.47e-04	0	44	0	412090368	22	4408
2026-01-27 10:46:49.63	181.87	35.67	-31.3	-33.8	11.9	2.73e-04	0	44	0	413138944	22	4761
2026-01-27 10:46:50.63	182.00	35.89	-31.4	-33.9	11.8	5.61e-04	0	44	0	415236096	22	4818
2026-01-27 10:46:51.63	182.13	36.11	-31.5	-33.6	11.7	7.27e-04	0	44	0	417333248	23	4612
2026-01-27 10:46:52.63	182.26	36.34	-31.8	-34.8	10.8	1.32e-03	0	44	0	419430400	23	5072
2026-01-27 10:46:53.64	182.39	36.56	-31.8	-34.7	10.9	2.24e-03	0	44	0	420478976	23	5018
2026-01-27 10:46:54.65	182.53	36.79	-31.9	-35.0	10.7	1.58e-03	0	44	0	422576128	23	5136
2026-01-27 10:46:55.65	182.67	37.02	-31.8	-34.5	11.0	2.31e-03	0	44	0	424673280	23	4954
2026-01-27 10:46:56.65	182.80	37.25	-31.8	-34.8	10.8	1.46e-03	0	44	0	426770432	23	5081
2026-01-27 10:46:57.66	182.95	37.48	-31.7	-34.2	11.2	2.22e-03	0	44	0	428867584	23	4840
2026-01-27 10:46:58.67	183.09	37.72	-31.7	-34.2	11.2	1.69e-03	0	44	0	430964736	23	4816
2026-01-27 10:46:59.67	183.23	37.95	-31.8	-34.7	10.9	2.65e-03	0	44	0	432013312	23	5031
2026-01-27 10:47:00.67	183.38	38.19	-31.6	-34.1	11.3	2.34e-03	0	44	0	434110464	23	4776
2026-01-27 10:47:01.67	183.53	38.42	-31.9	-34.6	10.6	1.86e-03	0	44	0	436207616	24	4893
2026-01-27 10:47:02.67	183.68	38.66	-32.0	-35.0	10.4	3.36e-03	0	44	0	438304768	24	5043
2026-01-27 10:47:03.67	183.83	38.90	-32.4	-36.4	9.4	9.31e-03	0	44	0	439353344	24	5688
2026-01-27 10:47:04.68	183.99	39.14	-32.5	-36.1	9.0	2.11e-02	0	44	0	441450496	25	5473
2026-01-27 10:47:05.67	184.15	39.38	-32.4	-35.9	9.3	1.55e-02	0	44	0	443547648	25	5345
2026-01-27 10:47:06.67	184.31	39.63	-32.5	-36.1	9.1	2.02e-02	0	44	0	445644800	25	5433
2026-01-27 10:47:07.67	184.47	39.87	-32.6	-36.5	8.9	2.25e-02	0	44	0	447741952	25	5654
2026-01-27 10:47:08.67	184.63	40.12	-32.5	-36.2	9.0	2.39e-02	0	44	0	448790528	25	5505
2026-01-27 10:47:09.67	184.80	40.37	-32.4	-35.8	9.4	2.43e-02	0	44	0	450887680	25	5300
2026-01-27 10:47:10.67	184.97	40.62	-32.7	-36.8	8.6	1.76e-02	0	44	0	452984832	25	5778
2026-01-27 10:47:11.68	185.14	40.87	-32.3	-35.4	9.7	2.06e-02	0	44	0	455081984	25	5123
2026-01-27 10:47:12.69	185.32	41.13	-32.3	-35.3	9.7	6.39e-03	0	44	0	457179136	25	5101
2026-01-27 10:47:13.68	185.50	41.38	-32.2	-35.1	9.8	1.26e-02	0	44	0	458227712	25	5019
2026-01-27 10:47:14.69	185.68	41.64	-32.2	-35.1	9.9	1.49e-02	0	44	0	460324864	25	5001
2026-01-27 10:47:15.68	185.86	41.89	-32.3	-35.2	9.8	1.28e-02	0	44	0	462422016	25	5068
2026-01-27 10:47:16.69	186.05	42.15	-31.8	-33.8	10.9	3.23e-03	0	44	0	464519168	25	4499
2026-01-27 10:47:17.69	186.24	42.41	-31.6	-33.5	11.4	1.27e-03	0	44	0	466616320	24	4453
2026-01-27 10:47:18.69	186.43	42.67	-31.6	-33.3	11.6	9.73e-04	0	44	0	467664896	24	4407
2026-01-27 10:47:19.70	186.62	42.94	-31.4	-32.9	11.9	9.61e-04	0	44	0	469762048	24	4272
2026-01-27 10:47:20.70	186.82	43.20	-31.8	-34.2	11.0	1.17e-03	0	44	0	471859200	24	4719
2026-01-27 10:47:21.70	187.02	43.47	-31.9	-34.6	10.6	2.99e-03	0	44	0	473956352	24	4881
2026-01-27 10:47:22.71	187.23	43.74	-31.9	-34.4	10.7	3.01e-03	0	44	0	476053504	24	4802
2026-01-27 10:47:23.71	187.44	44.01	-31.9	-34.6	10.7	3.87e-03	0	44	0	477102080	24	4876
2026-01-27 10:47:24.71	187.65	44.28	-31.7	-33.7	11.2	3.28e-03	0	44	0	479199232	24	4551
2026-01-27 10:47:25.72	187.87	44.55	-31.2	-32.8	12.4	7.30e-04	0	44	0	481296384	23	4312
2026-01-27 10:47:26.72	188.09	44.83	-31.0	-32.3	12.6	1.30e-04	0	44	0	483393536	23	4171
2026-01-27 10:47:27.73	188.31	45.11	-31.0	-32.3	12.5	5.64e-05	0	44	0	484442112	23	4155
2026-01-27 10:47:28.74	188.54	45.38	-30.7	-31.9	13.2	5.18e-05	0	44	0	486539264	22	4137
2026-01-27 10:47:29.75	188.77	45.67	-30.6	-31.6	13.4	1.67e-05	0	44	0	488636416	22	4032
2026-01-27 10:47:30.75	189.01	45.94	-30.6	-31.7	13.5	5.30e-06	0	44	0	490733568	22	4065
2026-01-27 10:47:31.75	189.25	46.23	-30.5	-31.4	13.5	4.50e-06	0	44	0	492830720	22	3989
2026-01-27 10:47:32.76	189.49	46.51	-30.6	-31.7	13.4	1.37e-05	0	44	0	493879296	22	4070
2026-01-27 10:47:33.76	189.74	46.79	-30.4	-31.6	13.9	7.60e-06	0	44	0	495976448	21	4114
2026-01-27 10:47:34.77	189.99	47.08	-30.6	-32.0	13.5	3.80e-06	0	44	0	498073600	21	4260
2026-01-27 10:47:35.77	190.25	47.37	-30.8	-32.8	13.0	1.75e-05	0	44	0	500170752	21	4508
2026-01-27 10:47:36.77	190.51	47.65	-31.0	-33.1	12.7	3.05e-05	0	44	0	502267904	21	4623
2026-01-27 10:47:37.77	190.78	47.94	-31.1	-33.0	12.5	8.92e-05	0	44	0	503316480	22	4479
2026-01-27 10:47:38.78	191.05	48.24	-31.0	-32.8	12.7	1.88e-04	0	44	0	505413632	22	4433
2026-01-27 10:47:39.78	191.33	48.53	-31.4	-33.4	11.9	2.13e-04	0	44	0	507510784	23	4539
2026-01-27 10:47:40.78	191.61	48.82	-31.8	-34.6	11.0	8.86e-04	0	44	0	509607936	23	4985
2026-01-27 10:47:41.78	191.89	49.11	-31.5	-33.8	11.6	7.29e-04	0	44	0	511705088	23	4684
2026-01-27 10:47:42.78	192.18	49.41	-31.0	-32.3	12.7	1.58e-04	0	44	0	512753664	23	4172
2026-01-27 10:47:43.80	192.49	49.71	-31.0	-32.3	12.6	9.68e-05	0	44	0	514850816	23	4164
2026-01-27 10:47:44.80	192.79	50.01	-31.1	-32.4	12.7	9.84e-05	0	44	0	516947968	23	4200
2026-01-27 10:47:45.81	193.10	50.31	-30.9	-32.5	12.9	7.55e-05	0	44	0	519045120	22	4313
2026-01-27 10:47:46.82	193.42	50.61	-30.2	-31.1	14.0	2.97e-05	0	44	0	521142272	21	3994
2026-01-27 10:47:47.83	193.75	50.91	-30.7	-32.3	13.3	1.14e-05	0	44	0	522190848	21	4334
2026-01-27 10:47:48.83	194.07	51.22	-30.7	-32.3	13.3	1.14e-05	0	44	0	524288000	21	4352
2026-01-27 10:47:49.82	194.41	51.52	-30.8	-32.6	13.1	1.14e-05	0	44	0	526385152	21	4447
2026-01-27 10:47:50.82	194.75	51.82	-30.6	-32.2	13.4	1.75e-05	0	44	0	528482304	21	4327
2026-01-27 10:47:51.83	195.10	52.13	-30.7	-32.5	13.2	2.13e-05	0	44	0	530579456	21	4412
2026-01-27 10:47:52.83	195.45	52.43	-30.5	-31.3	13.7	6.63e-05	0	44	0	531628032	22	3949
2026-01-27 10:47:53.83	195.82	52.74	-30.0	-30.6	14.3	3.00e-06	0	44	0	533725184	21	3846
2026-01-27 10:47:54.84	196.19	53.05	-29.5	-29.8	15.1	0.00e+00	0	44	0	535822336	20	3715
2026-01-27 10:47:55.84	196.57	53.35	-29.3	-29.3	15.5	0.00e+00	0	44	0	537919488	20	3595
2026-01-27 10:47:56.85	196.96	53.66	-29.3	-29.8	15.3	0.00e+00	0	44	0	540016640	19	3806
2026-01-27 10:47:57.85	197.35	53.97	-29.0	-29.1	16.0	0.00e+00	0	44	0	541065216	19	3628
2026-01-27 10:47:58.86	197.76	54.28	-29.2	-29.5	15.9	0.00e+00	0	44	0	543162368	19	3735
2026-01-27 10:47:59.87	198.18	54.60	-29.2	-29.5	15.8	0.00e+00	0	44	0	545259520	19	3730
2026-01-27 10:48:00.86	198.59	54.90	-29.3	-29.7	15.7	0.00e+00	0	44	0	547356672	19	3780
2026-01-27 10:48:01.85	199.02	55.21	-29.2	-29.6	15.7	0.00e+00	0	44	0	549453824	19	3748
2026-01-27 10:48:02.86	199.46	55.52	-29.0	-29.0	16.0	0.00e+00	0	44	0	550502400	19	3608
2026-01-27 10:48:03.86	199.91	55.83	-28.8	-28.9	16.4	0.00e+00	0	44	0	552599552	18	3664
2026-01-27 10:48:04.86	200.37	56.14	-28.8	-29.1	16.2	0.00e+00	0	44	0	554696704	18	3708
2026-01-27 10:48:05.86	200.84	56.45	-29.0	-29.4	16.2	0.00e+00	0	44	0	556793856	18	3789
2026-01-27 10:48:06.87	201.33	56.77	-28.8	-29.1	16.3	0.00e+00	0	44	0	557842432	18	3705
2026-01-27 10:48:07.87	201.82	57.08	-29.0	-29.4	16.2	0.00e+00	0	44	0	559939584	18	3794
2026-01-27 10:48:08.87	202.32	57.39	-28.8	-28.9	16.4	0.00e+00	0	44	0	562036736	18	3662
2026-01-27 10:48:09.87	202.83	57.70	-28.6	-28.5	16.7	0.00e+00	0	44	0	564133888	18	3576
2026-01-27 10:48:10.87	203.36	58.00	-29.0	-29.4	16.2	0.00e+00	0	44	0	566231040	18	3782
2026-01-27 10:48:11.88	203.90	58.31	-29.0	-29.5	16.1	0.00e+00	0	44	0	567279616	18	3814
2026-01-27 10:48:12.88	204.45	58.62	-29.1	-29.8	15.9	0.00e+00	0	44	0	569376768	18	3884
2026-01-27 10:48:13.89	205.02	58.93	-29.5	-30.6	15.6	0.00e+00	0	44	0	571473920	18	4103
2026-01-27 10:48:14.89	205.59	59.24	-29.6	-30.5	15.2	0.00e+00	0	44	0	573571072	19	3985
2026-01-27 10:48:15.89	206.18	59.54	-30.0	-31.1	14.6	7.00e-07	0	44	0	575668224	20	4054
2026-01-27 10:48:16.89	206.78	59.84	-29.7	-30.1	15.1	7.00e-07	0	44	0	576716800	20	3795
2026-01-27 10:48:17.90	207.41	60.15	-30.1	-31.3	14.4	7.00e-07	0	44	0	578813952	20	4124
2026-01-27 10:48:18.90	208.04	60.45	-30.4	-32.1	13.9	7.00e-07	0	44	0	580911104	20	4342
2026-01-27 10:48:19.91	208.69	60.75	-30.4	-31.6	14.0	3.00e-06	0	44	0	583008256	21	4117
2026-01-27 10:48:20.91	209.35	61.04	-30.3	-31.3	13.9	3.80e-06	0	44	0	585105408	21	4033
2026-01-27 10:48:21.92	210.04	61.34	-30.7	-32.2	13.6	6.80e-06	0	44	0	586153984	21	4288
2026-01-27 10:48:22.92	210.73	61.63	-30.2	-31.0	14.3	2.20e-06	0	44	0	588251136	21	3939
2026-01-27 10:48:23.92	211.44	61.92	-29.8	-30.3	15.0	7.00e-07	0	44	0	590348288	20	3851
2026-01-27 10:48:24.92	212.17	62.21	-29.3	-29.6	15.7	0.00e+00	0	44	0	592445440	19	3747
2026-01-27 10:48:25.92	212.91	62.49	-29.6	-30.5	15.3	0.00e+00	0	44	0	594542592	19	3961
2026-01-27 10:48:26.92	213.67	62.77	-29.8	-30.9	15.1	0.00e+00	0	44	0	595591168	19	4076
2026-01-27 10:48:27.92	214.45	63.05	-30.0	-30.8	14.7	0.00e+00	0	44	0	597688320	20	3984
2026-01-27 10:48:28.92	215.25	63.33	-29.5	-29.7	15.2	0.00e+00	0	44	0	599785472	20	3698
2026-01-27 10:48:29.92	216.06	63.60	-29.0	-29.0	16.2	0.00e+00	0	44	0	601882624	19	3592
2026-01-27 10:48:30.92	216.90	63.86	-28.8	-28.5	16.5	0.00e+00	0	44	0	602931200	19	3468
2026-01-27 10:48:31.92	217.75	64.13	-29.4	-29.9	15.7	0.00e+00	0	44	0	605028352	19	3818
2026-01-27 10:48:32.92	218.63	64.39	-29.4	-30.0	15.6	0.00e+00	0	44	0	607125504	19	3838
2026-01-27 10:48:33.92	219.52	64.64	-29.6	-30.4	15.4	0.00e+00	0	44	0	609222656	19	3954
2026-01-27 10:48:34.93	220.44	64.89	-29.5	-30.2	15.5	0.00e+00	0	44	0	611319808	19	3903
2026-01-27 10:48:35.93	221.37	65.14	-29.8	-31.0	15.0	0.00e+00	0	44	0	612368384	19	4109
2026-01-27 10:48:36.94	222.34	65.38	-29.3	-29.2	15.7	0.00e+00	0	44	0	614465536	20	3550
2026-01-27 10:48:37.95	223.32	65.61	-29.5	-30.2	15.4	0.00e+00	0	44	0	616562688	19	3895
2026-01-27 10:48:38.95	224.31	65.84	-29.6	-30.3	15.4	0.00e+00	0	44	0	618659840	19	3914
2026-01-27 10:48:39.96	225.34	66.06	-29.5	-30.2	15.5	0.00e+00	0	44	0	620756992	19	3888
2026-01-27 10:48:40.97	226.39	66.28	-29.7	-30.6	15.3	0.00e+00	0	44	0	621805568	19	4009
2026-01-27 10:48:41.97	227.44	66.49	-29.8	-30.8	15.2	7.00e-07	0	44	0	623902720	19	4065
2026-01-27 10:48:42.97	228.52	66.69	-30.0	-30.9	14.8	7.00e-07	0	44	0	625999872	20	3995
2026-01-27 10:48:43.98	229.63	66.89	-29.5	-29.6	15.5	0.00e+00	0	44	0	628097024	20	3655
2026-01-27 10:48:44.98	230.74	67.08	-29.7	-30.1	15.3	0.00e+00	0	44	0	630194176	20	3783
2026-01-27 10:48:45.97	231.87	67.26	-30.4	-31.9	14.2	0.00e+00	0	44	0	631242752	20	4285
2026-01-27 10:48:46.98	233.04	67.43	-30.8	-32.0	13.3	8.30e-06	0	44	0	633339904	22	4145
2026-01-27 10:48:47.98	234.21	67.59	-30.6	-31.5	13.8	1.14e-05	0	44	0	635437056	22	3989
2026-01-27 10:48:48.98	235.40	67.75	-30.1	-30.6	14.6	7.00e-07	0	44	0	637534208	21	3820
2026-01-27 10:48:49.98	236.62	67.89	-30.1	-30.7	14.6	0.00e+00	0	44	0	639631360	21	3860
2026-01-27 10:48:50.99	237.86	68.03	-31.1	-32.9	12.9	3.00e-06	0	44	0	640679936	22	4401
2026-01-27 10:48:52.00	239.11	68.16	-31.3	-33.2	12.7	7.09e-05	0	44	0	642777088	22	4515
2026-01-27 10:48:53.00	240.37	68.28	-31.4	-33.5	12.6	7.40e-05	0	44	0	644874240	22	4609
2026-01-27 10:48:54.00	241.64	68.39	-31.5	-33.8	12.3	1.40e-04	0	44	0	646971392	22	4713
2026-01-27 10:48:55.00	242.93	68.49	-31.3	-33.0	12.4	1.69e-04	0	44	0	649068544	23	4341
2026-01-27 10:48:56.00	244.23	68.58	-31.6	-33.9	12.0	1.94e-04	0	44	0	650117120	23	4645
2026-01-27 10:48:57.01	245.55	68.66	-32.2	-35.1	10.7	1.44e-03	0	44	0	652214272	24	5047
2026-01-27 10:48:58.00	246.86	68.73	-32.5	-35.7	9.8	6.74e-03	0	44	0	654311424	25	5192
2026-01-27 10:48:59.00	248.19	68.79	-31.8	-33.4	11.6	4.45e-03	0	44	0	656408576	25	4310
2026-01-27 10:49:00.00	249.52	68.84	-31.0	-32.1	13.1	1.76e-04	0	44	0	657457152	23	4060
2026-01-27 10:49:01.01	250.88	68.87	-31.1	-32.2	13.0	2.51e-05	0	44	0	659554304	23	4112
2026-01-27 10:49:02.01	252.23	68.90	-31.5	-33.4	12.3	1.20e-04	0	44	0	661651456	23	4496
2026-01-27 10:49:03.02	253.59	68.92	-31.4	-33.1	12.4	1.91e-04	0	44	0	663748608	23	4394
2026-01-27 10:49:04.02	254.94	68.92	-30.3	-30.6	14.4	9.10e-06	0	44	0	665845760	22	3716
2026-01-27 10:49:05.03	256.30	68.92	-30.5	-31.6	14.1	0.00e+00	0	44	0	666894336	21	4095
2026-01-27 10:49:06.03	257.65	68.90	-31.0	-32.9	13.3	8.30e-06	0	44	0	668991488	21	4493
2026-01-27 10:49:07.03	259.00	68.87	-30.7	-31.6	13.8	1.37e-05	0	44	0	671088640	22	4005
2026-01-27 10:49:08.03	260.34	68.83	-30.7	-31.7	13.8	6.10e-06	0	44	0	673185792	22	4036
2026-01-27 10:49:09.04	261.69	68.79	-31.2	-33.0	12.9	4.65e-05	0	44	0	675282944	22	4442
2026-01-27 10:49:10.04	263.01	68.73	-31.5	-33.3	12.4	1.91e-04	0	44	0	676331520	23	4447
2026-01-27 10:49:11.05	264.35	68.66	-31.1	-32.1	13.1	7.85e-05	0	44	0	678428672	23	4064
2026-01-27 10:49:12.05	265.65	68.58	-30.8	-32.0	13.5	1.06e-05	0	44	0	680525824	22	4113
2026-01-27 10:49:13.05	266.95	68.49	-30.6	-31.3	14.0	9.10e-06	0	44	0	682622976	22	3929
2026-01-27 10:49:14.06	268.25	68.39	-29.8	-30.0	15.0	7.00e-07	0	44	0	684720128	21	3651
2026-01-27 10:49:15.06	269.52	68.28	-29.7	-30.2	15.3	0.00e+00	0	44	0	685768704	20	3801
2026-01-27 10:49:16.06	270.78	68.16	-30.8	-32.5	13.5	0.00e+00	0	44	0	687865856	21	4383
2026-01-27 10:49:17.06	272.02	68.03	-31.1	-32.8	13.0	1.90e-05	0	44	0	689963008	22	4366
2026-01-27 10:49:18.06	273.25	67.89	-30.3	-30.6	14.3	3.80e-06	0	44	0	692060160	22	3719
2026-01-27 10:49:19.06	274.46	67.74	-30.2	-31.0	14.6	7.00e-07	0	44	0	694157312	21	3919
2026-01-27 10:49:20.06	275.65	67.59	-30.8	-32.4	13.6	5.30e-06	0	44	0	695205888	21	4322
2026-01-27 10:49:21.06	276.82	67.42	-30.6	-31.8	14.0	7.60e-06	0	44	0	697303040	21	4150
2026-01-27 10:49:22.07	277.99	67.25	-30.7	-32.3	13.8	3.00e-06	0	44	0	699400192	21	4295
2026-01-27 10:49:23.08	279.13	67.07	-31.1	-32.8	13.0	1.75e-05	0	44	0	701497344	22	4369
2026-01-27 10:49:24.08	280.25	66.88	-31.7	-34.0	12.0	1.78e-04	0	44	0	703594496	23	4684
2026-01-27 10:49:25.08	281.34	66.69	-32.2	-35.0	10.8	1.76e-03	0	44	0	704643072	24	4976
2026-01-27 10:49:26.09	282.43	66.48	-31.3	-32.7	12.8	5.23e-04	0	44	0	706740224	23	4237
2026-01-27 10:49:27.09	283.48	66.27	-30.4	-31.0	14.1	7.60e-06	0	44	0	708837376	22	3847
2026-01-27 10:49:28.10	284.53	66.06	-30.4	-31.3	14.3	2.20e-06	0	44	0	710934528	21	4021
2026-01-27 10:49:29.10	285.54	65.84	-30.1	-30.6	14.7	7.00e-07	0	44	0	713031680	21	3820
2026-01-27 10:49:30.10	286.53	65.61	-30.2	-30.8	14.6	1.50e-06	0	44	0	714080256	21	3869
2026-01-27 10:49:31.10	287.50	65.37	-28.8	-28.4	16.6	0.00e+00	0	44	0	716177408	19	3450
2026-01-27 10:49:32.10	288.46	65.14	-27.9	-27.4	17.7	0.00e+00	0	44	0	718274560	17	3390
2026-01-27 10:49:33.10	289.39	64.89	-28.0	-28.2	17.6	0.00e+00	0	44	0	720371712	16	3677
2026-01-27 10:49:34.11	290.31	64.64	-29.3	-30.1	16.0	0.00e+00	0	44	0	721420288	18	3955
2026-01-27 10:49:35.12	291.21	64.38	-29.4	-30.0	15.8	0.00e+00	0	44	0	723517440	19	3824
2026-01-27 10:49:36.11	292.07	64.13	-29.1	-29.1	16.2	7.00e-07	0	44	0	725614592	19	3603
2026-01-27 10:49:37.11	292.92	63.87	-29.4	-29.9	15.7	0.00e+00	0	44	0	727711744	19	3814
2026-01-27 10:49:38.12	293.76	63.60	-29.5	-30.1	15.6	0.00e+00	0	44	0	729808896	19	3881
2026-01-27 10:49:39.13	294.59	63.32	-30.5	-32.1	14.1	7.00e-07	0	44	0	730857472	20	4360
2026-01-27 10:49:40.13	295.38	63.05	-29.0	-29.3	15.6	0.00e+00	0	44	0	732954624	19	3731
2026-01-27 10:49:41.13	296.16	62.77	-27.5	-27.9	16.6	0.00e+00	0	44	0	735051776	16	3757
2026-01-27 10:49:42.13	296.92	62.49	-26.8	-27.5	16.9	0.00e+00	0	44	0	737148928	14	3933
2026-01-27 10:49:43.14	297.67	62.21	-27.7	-29.1	15.8	0.00e+00	0	44	0	739246080	15	4232
2026-01-27 10:49:44.14	298.39	61.92	-28.6	-29.3	16.1	0.00e+00	0	44	0	740294656	17	3929
2026-01-27 10:49:45.15	299.11	61.63	-28.5	-29.0	16.7	0.00e+00	0	44	0	742391808	17	3785
2026-01-27 10:49:46.15	299.80	61.34	-28.3	-28.3	17.3	0.00e+00	0	44	0	744488960	17	3602
2026-01-27 10:49:47.15	300.48	61.04	-28.0	-27.7	17.6	0.00e+00	0	44	0	746586112	17	3456
2026-01-27 10:49:48.16	301.14	60.75	-28.2	-28.1	17.4	0.00e+00	0	44	0	748683264	17	3538
2026-01-27 10:49:49.16	301.79	60.45	-28.4	-28.5	17.2	0.00e+00	0	44	0	749731840	17	3640
2026-01-27 10:49:50.16	302.42	60.15	-29.4	-30.4	15.9	0.00e+00	0	44	0	751828992	18	4044
2026-01-27 10:49:51.17	303.04	59.85	-29.0	-29.0	16.2	0.00e+00	0	44	0	753926144	19	3594
2026-01-27 10:49:52.16	303.64	59.55	-28.7	-28.7	16.7	0.00e+00	0	44	0	756023296	18	3616
2026-01-27 10:49:53.17	304.23	59.24	-29.1	-29.6	16.3	0.00e+00	0	44	0	758120448	18	3821
2026-01-27 10:49:54.17	304.80	58.94	-29.8	-30.7	15.4	0.00e+00	0	44	0	759169024	19	4032
2026-01-27 10:49:55.18	305.37	58.63	-29.7	-30.1	15.4	1.50e-06	0	44	0	761266176	20	3768
2026-01-27 10:49:56.18	305.92	58.32	-28.8	-28.4	16.7	0.00e+00	0	44	0	763363328	19	3446
2026-01-27 10:49:57.18	306.45	58.02	-28.5	-28.2	17.1	0.00e+00	0	44	0	765460480	18	3475
2026-01-27 10:49:58.18	306.98	57.71	-28.7	-28.8	16.7	0.00e+00	0	44	0	766509056	18	3639
2026-01-27 10:49:59.18	307.49	57.40	-28.5	-28.2	17.1	0.00e+00	0	44	0	768606208	18	3497
2026-01-27 10:50:00.19	308.00	57.09	-29.3	-30.2	15.9	0.00e+00	0	44	0	770703360	18	3972
2026-01-27 10:50:01.19	308.49	56.78	-29.1	-29.6	16.3	0.00e+00	0	44	0	772800512	18	3818
2026-01-27 10:50:02.19	308.96	56.47	-29.0	-29.5	16.3	0.00e+00	0	44	0	774897664	18	3809
2026-01-27 10:50:03.19	309.43	56.16	-29.2	-29.8	16.1	0.00e+00	0	44	0	776994816	18	3879
2026-01-27 10:50:04.19	309.89	55.85	-29.0	-29.5	16.4	0.00e+00	0	44	0	778043392	18	3794
2026-01-27 10:50:05.20	310.34	55.54	-28.7	-28.7	16.8	0.00e+00	0	44	0	780140544	18	3588
2026-01-27 10:50:06.20	310.78	55.23	-28.4	-28.5	17.1	0.00e+00	0	44	0	782237696	17	3654
2026-01-27 10:50:07.21	311.21	54.92	-28.3	-28.4	17.2	0.00e+00	0	44	0	784334848	17	3616
2026-01-27 10:50:08.21	311.63	54.61	-28.7	-29.3	16.7	0.00e+00	0	44	0	785383424	17	3828
2026-01-27 10:50:09.22	312.05	54.30	-28.6	-29.0	16.9	2.20e-06	0	44	0	787480576	17	3752
2026-01-27 10:50:10.22	312.45	54.00	-29.5	-30.6	15.8	0.00e+00	0	44	0	789577728	18	4078
2026-01-27 10:50:11.22	312.85	53.69	-30.2	-31.4	14.5	0.00e+00	0	44	0	791674880	20	4138
2026-01-27 10:50:12.23	313.23	53.38	-30.2	-31.3	14.6	3.80e-06	0	44	0	793772032	20	4092
2026-01-27 10:50:13.23	313.61	53.07	-29.4	-29.3	15.8	0.00e+00	0	44	0	794820608	20	3561
2026-01-27 10:50:14.24	313.99	52.76	-29.7	-30.4	15.5	0.00e+00	0	44	0	796917760	19	3944
2026-01-27 10:50:15.24	314.35	52.46	-30.3	-31.5	14.6	0.00e+00	0	44	0	799014912	20	4158
2026-01-27 10:50:16.25	314.71	52.15	-30.6	-31.8	14.1	2.20e-06	0	44	0	801112064	21	4132
2026-01-27 10:50:17.26	315.06	51.85	-31.3	-33.2	12.9	1.67e-05	0	44	0	803209216	22	4497
2026-01-27 10:50:18.26	315.40	51.55	-31.8	-34.3	11.7	2.66e-04	0	44	0	804257792	23	4795
2026-01-27 10:50:19.26	315.73	51.24	-31.7	-33.9	11.9	9.14e-04	0	44	0	806354944	23	4649
2026-01-27 10:50:20.27	316.06	50.94	-31.5	-33.4	12.3	2.34e-04	0	44	0	808452096	23	4476
2026-01-27 10:50:21.27	316.38	50.64	-31.8	-34.3	11.8	3.12e-04	0	44	0	810549248	23	4787
2026-01-27 10:50:22.27	316.70	50.34	-31.8	-34.2	11.8	5.86e-04	0	44	0	812646400	23	4771
2026-01-27 10:50:23.27	317.01	50.05	-32.0	-34.3	11.4	8.17e-04	0	44	0	813694976	24	4695
2026-01-27 10:50:24.28	317.31	49.75	-32.0	-34.5	11.2	5.50e-04	0	44	0	815792128	24	4760
2026-01-27 10:50:25.28	317.61	49.45	-31.8	-33.7	11.9	9.31e-04	0	44	0	817889280	24	4470
2026-01-27 10:50:26.28	317.90	49.16	-31.8	-33.7	11.8	7.04e-04	0	44	0	819986432	24	4490
2026-01-27 10:50:27.29	318.19	48.86	-32.0	-34.4	11.2	2.22e-03	0	44	0	822083584	24	4749
2026-01-27 10:50:28.29	318.47	48.57	-31.0	-32.1	13.2	2.30e-04	0	44	0	823132160	23	4050
2026-01-27 10:50:29.29	318.75	48.28	-29.7	-30.2	15.2	1.50e-06	0	44	0	825229312	20	3792
2026-01-27 10:50:30.29	319.02	47.99	-29.3	-29.7	15.9	0.00e+00	0	44	0	827326464	19	3743
2026-01-27 10:50:31.29	319.28	47.71	-30.1	-31.0	14.8	0.00e+00	0	44	0	829423616	20	4025
2026-01-27 10:50:32.30	319.54	47.42	-31.5	-33.9	12.3	1.60e-05	0	44	0	831520768	22	4752
2026-01-27 10:50:33.30	319.80	47.13	-32.0	-34.6	11.0	1.33e-03	0	44	0	832569344	24	4826
2026-01-27 10:50:34.31	320.05	46.85	-31.3	-32.4	12.5	3.32e-04	0	44	0	834666496	24	4084
2026-01-27 10:50:35.31	320.30	46.56	-29.9	-30.2	14.8	3.80e-06	0	44	0	836763648	21	3718
2026-01-27 10:50:36.30	320.54	46.29	-29.4	-29.4	15.7	0.00e+00	0	44	0	838860800	20	3598
2026-01-27 10:50:37.31	320.78	46.00	-29.2	-29.3	16.2	0.00e+00	0	44	0	839909376	19	3655
2026-01-27 10:50:38.31	321.02	45.73	-29.5	-30.1	15.7	0.00e+00	0	44	0	842006528	19	3842
2026-01-27 10:50:39.31	321.25	45.45	-29.7	-30.6	15.4	0.00e+00	0	44	0	844103680	19	4005
2026-01-27 10:50:40.31	321.47	45.17	-30.1	-31.2	14.6	0.00e+00	0	44	0	846200832	20	4070
2026-01-27 10:50:41.31	321.70	44.90	-30.8	-32.6	13.4	6.80e-06	0	44	0	848297984	21	4396
2026-01-27 10:50:42.32	321.92	44.63	-31.1	-32.8	13.1	2.82e-05	0	44	0	849346560	22	4377
2026-01-27 10:50:43.33	322.13	44.35	-30.9	-32.2	13.4	3.81e-05	0	44	0	851443712	22	4191
2026-01-27 10:50:44.32	322.34	44.09	-30.2	-30.8	14.6	5.30e-06	0	44	0	853540864	21	3866
2026-01-27 10:50:45.33	322.55	43.82	-29.4	-29.3	15.8	0.00e+00	0	44	0	855638016	20	3564
2026-01-27 10:50:46.34	322.76	43.55	-29.1	-29.1	16.3	0.00e+00	0	44	0	857735168	19	3608
2026-01-27 10:50:47.34	322.96	43.28	-29.2	-29.4	16.1	0.00e+00	0	44	0	858783744	19	3682
2026-01-27 10:50:48.34	323.16	43.02	-30.3	-31.5	14.4	0.00e+00	0	44	0	860880896	20	4170
2026-01-27 10:50:49.35	323.36	42.75	-30.9	-32.8	13.3	1.50e-06	0	44	0	862978048	21	4483
2026-01-27 10:50:50.35	323.55	42.49	-31.0	-32.6	13.1	4.04e-05	0	44	0	865075200	22	4301
2026-01-27 10:50:51.35	323.74	42.23	-30.4	-30.9	14.1	6.80e-06	0	44	0	867172352	22	3814
2026-01-27 10:50:52.35	323.92	41.98	-29.6	-29.9	15.3	0.00e+00	0	44	0	868220928	20	3727
2026-01-27 10:50:53.36	324.11	41.72	-28.8	-28.5	16.5	0.00e+00	0	44	0	870318080	19	3463
2026-01-27 10:50:54.36	324.29	41.46	-28.8	-28.9	16.7	0.00e+00	0	44	0	872415232	18	3646
2026-01-27 10:50:55.36	324.47	41.21	-29.1	-29.6	16.3	0.00e+00	0	44	0	874512384	18	3810
2026-01-27 10:50:56.36	324.64	40.96	-29.6	-30.3	15.6	0.00e+00	0	44	0	876609536	19	3902
2026-01-27 10:50:57.37	324.82	40.71	-30.6	-31.8	13.9	7.00e-07	0	44	0	877658112	21	4169
2026-01-27 10:50:58.37	324.99	40.46	-31.6	-33.7	12.0	6.33e-05	0	44	0	879755264	23	4592
2026-01-27 10:50:59.37	325.15	40.21	-32.5	-36.0	10.0	2.19e-03	0	44	0	881852416	24	5421
2026-01-27 10:51:00.37	325.32	39.96	-32.5	-35.7	9.8	8.71e-03	0	44	0	883949568	25	5203
2026-01-27 10:51:01.38	325.48	39.72	-32.5	-35.6	9.9	1.56e-02	0	44	0	884998144	25	5143
2026-01-27 10:51:02.38	325.64	39.47	-31.9	-33.8	11.2	5.28e-03	0	44	0	887095296	25	4475
2026-01-27 10:51:03.39	325.80	39.23	-30.7	-31.6	13.7	1.37e-04	0	44	0	889192448	22	4016
2026-01-27 10:51:04.39	325.96	38.99	-30.1	-30.6	14.6	1.50e-06	0	44	0	891289600	21	3830
2026-01-27 10:51:05.40	326.11	38.75	-29.5	-29.6	15.6	1.50e-06	0	44	0	893386752	20	3645
2026-01-27 10:51:06.40	326.26	38.51	-29.3	-29.6	15.9	0.00e+00	0	44	0	895483904	19	3740
2026-01-27 10:51:07.41	326.41	38.28	-29.4	-29.9	15.7	0.00e+00	0	44	0	896532480	19	3816
2026-01-27 10:51:08.42	326.56	38.04	-30.3	-31.6	14.3	0.00e+00	0	44	0	898629632	20	4205
2026-01-27 10:51:09.42	326.70	37.81	-30.8	-32.5	13.4	2.20e-06	0	44	0	900726784	21	4386
2026-01-27 10:51:10.42	326.85	37.58	-31.4	-33.7	12.4	1.90e-05	0	44	0	902823936	22	4687
2026-01-27 10:51:11.42	326.99	37.35	-31.8	-34.5	11.5	6.45e-04	0	44	0	903872512	23	4890
2026-01-27 10:51:12.42	327.13	37.12	-31.4	-33.2	12.3	3.75e-04	0	44	0	905969664	23	4419
2026-01-27 10:51:13.43	327.26	36.89	-31.2	-32.5	12.8	1.70e-04	0	44	0	908066816	23	4184
2026-01-27 10:51:14.43	327.40	36.66	-30.6	-31.3	13.9	1.14e-05	0	44	0	910163968	22	3935
2026-01-27 10:51:15.43	327.53	36.44	-30.3	-31.1	14.3	7.00e-07	0	44	0	912261120	21	3947
2026-01-27 10:51:16.43	327.66	36.22	-30.2	-30.8	14.5	0.00e+00	0	44	0	913309696	21	3869
2026-01-27 10:51:17.44	327.79	35.99	-30.2	-31.0	14.4	7.00e-07	0	44	0	915406848	21	3923
2026-01-27 10:51:18.44	327.92	35.77	-30.1	-30.6	14.7	7.00e-07	0	44	0	917504000	21	3826
2026-01-27 10:51:19.45	328.05	35.55	-29.8	-30.0	15.0	7.00e-07	0	44	0	919601152	21	3657
2026-01-27 10:51:20.45	328.18	35.33	-30.0	-30.5	14.7	0.00e+00	0	44	0	921698304	21	3794
2026-01-27 10:51:21.45	328.30	35.12	-29.8	-30.0	14.9	0.00e+00	0	44	0	922746880	21	3672
2026-01-27 10:51:22.46	328.42	34.90	-30.1	-30.7	14.6	0.00e+00	0	44	0	924844032	21	3845
2026-01-27 10:51:23.46	328.54	34.69	-30.3	-31.1	14.4	3.00e-06	0	44	0	926941184	21	3969
2026-01-27 10:51:24.46	328.66	34.48	-30.6	-32.1	13.6	6.80e-06	0	44	0	929038336	21	4257
2026-01-27 10:51:25.46	328.78	34.27	-31.4	-33.5	12.4	1.83e-05	0	44	0	931135488	22	4630
2026-01-27 10:51:26.47	328.89	34.06	-31.7	-34.0	11.8	2.66e-04	0	44	0	932184064	23	4705
2026-01-27 10:51:27.47	329.01	33.85	-32.1	-35.0	10.7	1.68e-03	0	44	0	934281216	24	4992
2026-01-27 10:51:28.47	329.12	33.64	-32.2	-35.0	10.7	5.01e-03	0	44	0	936378368	24	4989
2026-01-27 10:51:29.48	329.23	33.43	-32.6	-36.2	9.4	8.45e-03	0	44	0	938475520	25	5422
2026-01-27 10:51:30.48	329.34	33.23	-32.6	-36.0	9.5	1.81e-02	0	44	0	940572672	25	5329
2026-01-27 10:51:31.48	329.45	33.03	-32.6	-35.9	9.6	9.98e-03	0	44	0	941621248	25	5295
2026-01-27 10:51:32.48	329.56	32.82	-32.5	-35.7	9.8	1.48e-02	0	44	0	943718400	25	5214
2026-01-27 10:51:33.48	329.67	32.62	-31.9	-33.8	11.1	6.10e-03	0	44	0	945815552	25	4460
2026-01-27 10:51:34.48	329.77	32.42	-31.6	-33.3	11.8	5.61e-04	0	44	0	947912704	24	4383
2026-01-27 10:51:35.49	329.88	32.22	-31.3	-32.4	12.4	1.90e-04	0	44	0	948961280	24	4071
2026-01-27 10:51:36.49	329.98	32.03	-31.1	-32.3	12.9	8.08e-05	0	44	0	951058432	23	4125
2026-01-27 10:51:37.49	330.08	31.83	-30.6	-31.5	13.7	6.10e-06	0	44	0	953155584	22	3998
2026-01-27 10:51:38.50	330.18	31.64	-30.7	-31.7	13.6	4.50e-06	0	44	0	955252736	22	4038
2026-01-27 10:51:39.50	330.28	31.44	-30.3	-30.6	14.3	2.20e-06	0	44	0	957349888	22	3725
2026-01-27 10:51:40.51	330.38	31.25	-30.0	-30.5	14.6	1.50e-06	0	44	0	958398464	21	3801
2026-01-27 10:51:41.51	330.48	31.06	-30.3	-31.1	14.3	1.50e-06	0	44	0	960495616	21	3954
2026-01-27 10:51:42.52	330.57	30.87	-30.4	-31.4	14.1	7.00e-07	0	44	0	962592768	21	4037
2026-01-27 10:51:43.52	330.67	30.68	-30.7	-32.2	13.6	1.50e-06	0	44	0	964689920	21	4281
2026-01-27 10:51:44.53	330.76	30.49	-31.3	-33.3	12.5	9.76e-05	0	44	0	966787072	22	4558
2026-01-27 10:51:45.52	330.85	30.31	-31.3	-33.4	12.5	8.01e-05	0	44	0	967835648	22	4595
2026-01-27 10:51:46.53	330.95	30.12	-31.6	-33.8	11.9	1.71e-04	0	44	0	969932800	23	4652
2026-01-27 10:51:47.53	331.04	29.94	-31.8	-34.5	11.4	8.83e-04	0	44	0	972029952	23	4885
2026-01-27 10:51:48.53	331.13	29.75	-31.8	-34.4	11.4	1.09e-03	0	44	0	974127104	23	4870
2026-01-27 10:51:49.53	331.21	29.57	-32.0	-34.4	11.2	1.28e-03	0	44	0	976224256	24	4776
2026-01-27 10:51:50.53	331.30	29.39	-32.1	-34.9	10.7	1.56e-03	0	44	0	977272832	24	4977
2026-01-27 10:51:51.53	331.39	29.21	-32.0	-34.4	11.0	2.84e-03	0	44	0	979369984	24	4774
2026-01-27 10:51:52.54	331.48	29.03	-31.7	-33.6	11.6	1.19e-03	0	44	0	981467136	24	4478
2026-01-27 10:51:53.54	331.56	28.85	-31.6	-33.3	11.8	7.03e-04	0	44	0	983564288	24	4387
2026-01-27 10:51:54.55	331.65	28.68	-31.2	-32.6	12.6	1.43e-04	0	44	0	985661440	23	4228
2026-01-27 10:51:55.55	331.73	28.50	-31.2	-32.7	12.6	6.56e-05	0	44	0	986710016	23	4260
2026-01-27 10:51:56.55	331.81	28.33	-30.9	-31.9	13.0	4.73e-05	0	44	0	988807168	23	4014
2026-01-27 10:51:57.55	331.89	28.15	-30.6	-31.5	13.7	2.74e-05	0	44	0	990904320	22	3973
2026-01-27 10:51:58.56	331.97	27.98	-30.6	-31.4	13.7	9.10e-06	0	44	0	993001472	22	3954
2026-01-27 10:51:59.56	332.05	27.81	-30.2	-30.8	14.2	3.80e-06	0	44	0	995098624	21	3889
2026-01-27 10:52:00.56	332.13	27.64	-29.6	-30.0	15.2	7.00e-07	0	44	0	996147200	20	3757
2026-01-27 10:52:01.57	332.21	27.47	-29.6	-30.0	15.2	0.00e+00	0	44	0	998244352	20	3756
2026-01-27 10:52:02.57	332.29	27.30	-29.6	-29.9	15.3	0.00e+00	0	44	0	1000341504	20	3728
2026-01-27 10:52:03.57	332.37	27.13	-29.5	-29.6	15.4	0.00e+00	0	44	0	1002438656	20	3661
2026-01-27 10:52:04.58	332.44	26.96	-29.4	-29.5	15.4	0.00e+00	0	44	0	1003487232	20	3639
2026-01-27 10:52:05.58	332.52	26.80	-29.9	-30.6	14.8	0.00e+00	0	44	0	1005584384	20	3922
2026-01-27 10:52:06.58	332.59	26.64	-30.3	-31.7	14.1	1.50e-06	0	44	0	1007681536	20	4232
2026-01-27 10:52:07.59	332.67	26.47	-30.5	-31.9	13.5	3.00e-06	0	44	0	1009778688	21	4244
2026-01-27 10:52:08.60	332.74	26.31	-30.4	-31.6	13.6	6.50e-04	0	44	0	1011875840	21	4141
2026-01-27 10:52:09.60	332.81	26.15	-30.7	-32.4	13.0	2.06e-03	0	44	0	1013972992	21	4411
2026-01-27 10:52:10.61	332.89	25.98	-30.8	-32.9	12.6	7.13e-03	0	44	0	1015021568	21	4562
2026-01-27 10:52:11.61	332.96	25.82	-30.5	-32.0	13.3	4.53e-03	0	44	0	1017118720	21	4273
2026-01-27 10:52:12.61	333.03	25.67	-30.5	-31.8	13.5	6.98e-04	0	44	0	1019215872	21	4194
2026-01-27 10:52:13.62	333.10	25.51	-30.4	-31.7	13.5	1.08e-03	0	44	0	1021313024	21	4178
2026-01-27 10:52:14.62	333.17	25.35	-30.3	-31.4	13.6	2.06e-03	0	44	0	1022361600	21	4075
2026-01-27 10:52:15.62	333.23	25.19	-30.5	-31.7	13.8	4.50e-06	0	44	0	1024458752	21	4141
2026-01-27 10:52:16.63	333.30	25.04	-30.3	-31.3	14.0	4.50e-06	0	44	0	1026555904	21	4014
2026-01-27 10:52:17.63	333.37	24.88	-30.1	-30.6	14.4	0.00e+00	0	44	0	1028653056	21	3839
2026-01-27 10:52:18.63	333.44	24.73	-30.1	-30.6	14.4	0.00e+00	0	44	0	1030750208	21	3842
2026-01-27 10:52:19.64	333.50	24.58	-29.9	-30.2	14.7	7.00e-07	0	44	0	1031798784	21	3732
2026-01-27 10:52:20.64	333.57	24.42	-30.1	-30.6	14.3	0.00e+00	0	44	0	1033895936	21	3846
2026-01-27 10:52:21.64	333.63	24.27	-30.1	-30.9	14.3	0.00e+00	0	44	0	1035993088	21	3906
2026-01-27 10:52:22.64	333.70	24.12	-30.0	-30.5	14.5	0.00e+00	0	44	0	1038090240	21	3802
2026-01-27 10:52:23.65	333.76	23.97	-30.0	-30.5	14.4	7.00e-07	0	44	0	1040187392	21	3815
2026-01-27 10:52:24.65	333.82	23.83	-29.9	-30.3	14.6	7.00e-07	0	44	0	1041235968	21	3763
2026-01-27 10:52:25.65	333.89	23.68	-30.0	-30.4	14.5	3.80e-06	0	44	0	1043333120	21	3802
2026-01-27 10:52:26.66	333.95	23.53	-29.9	-30.2	14.5	5.30e-06	0	44	0	1045430272	21	3747
2026-01-27 10:52:27.66	334.01	23.38	-29.8	-30.1	14.6	2.74e-05	0	44	0	1047527424	21	3715
2026-01-27 10:52:28.67	334.07	23.24	-29.7	-30.3	14.7	4.88e-05	0	44	0	1049624576	20	3838
2026-01-27 10:52:29.67	334.13	23.09	-29.7	-30.2	14.8	3.43e-05	0	44	0	1050673152	20	3817
2026-01-27 10:52:30.67	334.19	22.95	-29.9	-30.7	14.5	3.96e-05	0	44	0	1052770304	20	3961
2026-01-27 10:52:31.68	334.25	22.81	-29.7	-30.3	14.8	2.59e-05	0	44	0	1054867456	20	3863
2026-01-27 10:52:32.68	334.31	22.66	-29.8	-30.6	14.7	0.00e+00	0	44	0	1056964608	20	3937
2026-01-27 10:52:33.69	334.37	22.52	-29.8	-30.5	14.7	0.00e+00	0	44	0	1059061760	20	3907
2026-01-27 10:52:34.68	334.43	22.38	-29.8	-30.6	14.6	0.00e+00	0	44	0	1060110336	20	3933
2026-01-27 10:52:35.69	334.48	22.24	-29.7	-30.3	14.9	0.00e+00	0	44	0	1062207488	20	3858
2026-01-27 10:52:36.70	334.54	22.10	-29.6	-30.0	15.0	0.00e+00	0	44	0	1064304640	20	3786
2026-01-27 10:52:37.70	334.60	21.96	-29.7	-30.2	14.9	7.00e-07	0	44	0	1066401792	20	3821
2026-01-27 10:52:38.71	334.65	21.82	-29.5	-29.7	15.2	0.00e+00	0	44	0	1068498944	20	3694
2026-01-27 10:52:39.71	334.71	21.69	-29.3	-29.7	15.5	0.00e+00	0	44	0	1069547520	19	3781
2026-01-27 10:52:40.71	334.77	21.55	-29.2	-29.5	15.7	0.00e+00	0	44	0	1071644672	19	3723
2026-01-27 10:52:41.72	334.82	21.42	-29.1	-29.4	15.7	0.00e+00	0	44	0	1073741824	19	3695
2026-01-27 10:52:42.73	334.88	21.28	-29.1	-29.3	15.8	0.00e+00	0	44	0	1075838976	19	3667
2026-01-27 10:52:43.73	334.93	21.15	-29.0	-28.9	15.9	0.00e+00	0	44	0	1076887552	19	3586
2026-01-27 10:52:44.72	334.98	21.01	-28.9	-28.8	16.0	0.00e+00	0	44	0	1078984704	19	3562
2026-01-27 10:52:45.73	335.03	20.88	-28.9	-28.7	16.1	0.00e+00	0	44	0	1081081856	19	3532
2026-01-27 10:52:46.74	335.09	20.75	-28.6	-28.6	16.4	0.00e+00	0	44	0	1083179008	18	3603
2026-01-27 10:52:47.75	335.14	20.61	-28.6	-28.6	16.4	0.00e+00	0	44	0	1085276160	18	3607
2026-01-27 10:52:48.75	335.19	20.48	-28.8	-29.1	16.1	0.00e+00	0	44	0	1087373312	18	3720
2026-01-27 10:52:49.75	335.24	20.35	-28.8	-29.0	16.1	0.00e+00	0	44	0	1088421888	18	3709
2026-01-27 10:52:50.75	335.29	20.23	-28.9	-29.2	16.0	0.00e+00	0	44	0	1090519040	18	3745
2026-01-27 10:52:51.75	335.34	20.10	-29.0	-29.5	15.8	0.00e+00	0	44	0	1092616192	18	3827
2026-01-27 10:52:52.76	335.39	19.97	-29.0	-29.5	15.7	0.00e+00	0	44	0	1094713344	18	3830
2026-01-27 10:52:53.76	335.44	19.84	-29.0	-29.5	15.7	0.00e+00	0	44	0	1095761920	18	3834
2026-01-27 10:52:54.76	335.49	19.71	-29.1	-29.7	15.6	0.00e+00	0	44	0	1097859072	18	3880
2026-01-27 10:52:55.76	335.54	19.59	-29.1	-29.8	15.6	0.00e+00	0	44	0	1099956224	18	3906
2026-01-27 10:52:56.76	335.59	19.46	-29.1	-29.7	15.7	0.00e+00	0	44	0	1102053376	18	3876
2026-01-27 10:52:57.77	335.64	19.34	-29.1	-29.9	15.6	0.00e+00	0	44	0	1104150528	18	3924
2026-01-27 10:52:58.77	335.69	19.21	-29.4	-30.6	15.2	0.00e+00	0	44	0	1105199104	18	4112
2026-01-27 10:52:59.77	335.74	19.09	-29.4	-30.0	15.2	0.00e+00	0	44	0	1107296256	19	3858
2026-01-27 10:53:00.78	335.78	18.96	-29.5	-30.3	15.0	0.00e+00	0	44	0	1109393408	19	3939
2026-01-27 10:53:01.78	335.83	18.84	-29.6	-30.6	14.8	0.00e+00	0	44	0	1111490560	19	4024
2026-01-27 10:53:02.79	335.88	18.72	-29.7	-30.7	14.7	0.00e+00	0	44	0	1113587712	19	4070
2026-01-27 10:53:03.80	335.92	18.60	-29.9	-31.3	14.3	7.00e-07	0	44	0	1114636288	19	4241
2026-01-27 10:53:04.80	335.97	18.48	-29.9	-30.8	14.1	1.50e-06	0	44	0	1116733440	20	4008
2026-01-27 10:53:05.81	336.01	18.36	-30.0	-31.2	13.9	7.00e-07	0	44	0	1118830592	20	4122
2026-01-27 10:53:06.81	336.06	18.24	-30.1	-31.4	13.7	5.30e-06	0	44	0	1120927744	20	4188
2026-01-27 10:53:07.82	336.10	18.12	-30.3	-32.0	13.4	3.80e-06	0	44	0	1123024896	20	4350
2026-01-27 10:53:08.82	336.15	18.00	-30.2	-31.7	13.6	1.75e-05	0	44	0	1124073472	20	4274
2026-01-27 10:53:09.82	336.19	17.88	-30.3	-32.0	13.6	4.50e-06	0	44	0	1126170624	20	4344
2026-01-27 10:53:10.82	336.24	17.76	-30.3	-31.9	13.6	4.50e-06	0	44	0	1128267776	20	4329
2026-01-27 10:53:11.83	336.28	17.65	-30.3	-32.0	13.1	1.06e-05	0	44	0	1130364928	20	4374
2026-01-27 10:53:12.83	336.32	17.53	-30.1	-31.5	13.0	3.35e-05	0	44	0	1132462080	20	4221
2026-01-27 10:53:13.83	336.37	17.41	-30.0	-31.2	12.6	5.79e-05	0	44	0	1133510656	20	4130
2026-01-27 10:53:14.84	336.41	17.30	-29.7	-30.5	12.4	5.72e-05	0	44	0	1135607808	20	3943
2026-01-27 10:53:15.84	336.45	17.18	-29.6	-30.3	11.9	1.27e-04	0	44	0	1137704960	20	3910
2026-01-27 10:53:16.84	336.49	17.07	-29.7	-30.6	11.8	1.85e-04	0	44	0	1139802112	20	3990
2026-01-27 10:53:17.85	336.54	16.95	-29.7	-30.5	14.0	3.66e-05	0	44	0	1141899264	20	3921
2026-01-27 10:53:18.85	336.58	16.84	-29.3	-29.7	11.6	2.20e-06	0	44	0	1142947840	20	3754
2026-01-27 10:53:19.85	336.62	16.73	-28.1	-29.5	5.9	6.31e-02	0	44	0	1145044992	17	4191
2026-01-27 10:53:20.86	336.66	16.62	-26.5	-28.3	4.0	7.21e-01	0	44	0	1147142144	14	4430
2026-01-27 10:53:21.86	336.70	16.51	-25.7	-28.2	3.7	1.46e+00	0	44	104	1147142144	12	4832
2026-01-27 10:53:22.87	336.74	16.39	-25.7	-28.1	3.8	1.46e+00	0	44	104	1147142144	12	4720
2026-01-27 10:53:23.88	336.78	16.28	-26.3	-29.1	3.8	1.48e+00	0	44	104	1147142144	12	4977
2026-01-27 10:53:24.88	336.82	16.17	-27.4	-29.4	5.5	7.95e-01	0	44	0	1147142144	14	4526
2026-01-27 10:53:25.88	336.86	16.06	-28.6	-29.9	8.3	1.12e-01	0	44	0	1048576	17	4187
2026-01-27 10:53:26.89	336.90	15.95	-29.3	-30.6	12.1	5.90e-04	0	44	0	3145728	18	4167
2026-01-27 10:53:27.89	336.94	15.84	-29.5	-30.6	13.1	2.28e-05	0	44	0	5242880	19	4052
2026-01-27 10:53:28.90	336.98	15.73	-29.4	-30.2	12.5	1.22e-05	0	44	0	7340032	19	3950
2026-01-27 10:53:29.90	337.02	15.63	-29.5	-30.5	12.1	7.09e-05	0	44	0	9437184	19	4042
2026-01-27 10:53:30.90	337.06	15.52	-29.5	-30.6	12.6	5.26e-05	0	44	0	10485760	19	4068
2026-01-27 10:53:31.91	337.10	15.41	-29.8	-31.3	12.8	3.05e-05	0	44	0	12582912	19	4263
2026-01-27 10:53:32.91	337.13	15.31	-29.9	-31.3	13.3	1.83e-05	0	44	0	14680064	19	4260
2026-01-27 10:53:33.92	337.17	15.20	-29.8	-31.2	13.6	9.90e-06	0	44	0	16777216	19	4215
2026-01-27 10:53:34.92	337.21	15.09	-29.9	-31.3	13.7	5.30e-06	0	44	0	18874368	19	4257
2026-01-27 10:53:35.92	337.25	14.99	-30.0	-31.6	13.8	4.50e-06	0	44	0	19922944	19	4338
2026-01-27 10:53:36.93	337.28	14.88	-29.9	-30.9	14.0	2.20e-06	0	44	0	22020096	20	4053
2026-01-27 10:53:37.93	337.32	14.78	-30.1	-31.4	13.7	3.00e-06	0	44	0	24117248	20	4201
2026-01-27 10:53:38.93	337.36	14.68	-30.0	-31.3	13.6	1.14e-05	0	44	0	26214400	20	4157
2026-01-27 10:53:39.94	337.39	14.57	-30.1	-31.6	13.4	1.75e-05	0	44	0	28311552	20	4249
2026-01-27 10:53:40.95	337.43	14.47	-30.1	-31.6	13.4	2.21e-05	0	44	0	29360128	20	4250
2026-01-27 10:53:41.95	337.47	14.37	-30.2	-31.7	13.4	1.60e-05	0	44	0	31457280	20	4290
2026-01-27 10:53:42.95	337.50	14.27	-30.3	-32.0	13.4	1.90e-05	0	44	0	33554432	20	4373
2026-01-27 10:53:43.96	337.54	14.16	-30.3	-32.0	13.3	1.22e-05	0	44	0	35651584	20	4388
2026-01-27 10:53:44.96	337.57	14.06	-30.3	-32.0	13.3	1.29e-05	0	44	0	37748736	20	4388
2026-01-27 10:53:45.96	337.61	13.96	-30.4	-32.4	13.0	2.97e-05	0	44	0	38797312	20	4528
2026-01-27 10:53:46.95	337.64	13.86	-30.3	-32.0	13.3	2.97e-05	0	44	0	40894464	20	4396
2026-01-27 10:53:47.96	337.68	13.76	-30.4	-32.3	13.0	2.97e-05	0	44	0	42991616	20	4475
2026-01-27 10:53:48.97	337.71	13.66	-30.4	-32.5	12.9	4.27e-05	0	44	0	45088768	20	4540
2026-01-27 10:53:49.97	337.75	13.56	-30.5	-32.0	12.8	5.11e-05	0	44	0	46137344	21	4300
2026-01-27 10:53:50.97	337.78	13.46	-30.5	-32.0	12.8	6.17e-05	0	44	0	48234496	21	4308
2026-01-27 10:53:51.98	337.81	13.37	-30.6	-32.5	12.5	9.23e-05	0	44	0	50331648	21	4469
2026-01-27 10:53:52.98	337.85	13.27	-30.5	-32.2	12.7	7.40e-05	0	44	0	52428800	21	4378
2026-01-27 10:53:53.99	337.88	13.17	-30.7	-32.7	12.4	9.23e-05	0	44	0	54525952	21	4518
2026-01-27 10:53:54.99	337.91	13.07	-30.6	-32.5	12.5	1.27e-04	0	44	0	56623104	21	4462
2026-01-27 10:53:56.00	337.95	12.98	-30.6	-32.5	12.5	1.33e-04	0	44	0	57671680	21	4477
2026-01-27 10:53:57.00	337.98	12.88	-30.6	-32.4	12.7	9.30e-05	0	44	0	59768832	21	4427
2026-01-27 10:53:58.00	338.01	12.78	-30.6	-32.3	12.8	5.64e-05	0	44	0	61865984	21	4391
2026-01-27 10:53:59.01	338.05	12.69	-30.6	-32.3	12.7	7.32e-05	0	44	0	63963136	21	4414
2026-01-27 10:54:00.01	338.08	12.59	-30.5	-32.1	12.8	6.86e-05	0	44	0	65011712	21	4336
2026-01-27 10:54:01.01	338.11	12.50	-30.6	-32.5	12.6	7.32e-05	0	44	0	67108864	21	4471
2026-01-27 10:54:02.02	338.14	12.40	-30.7	-32.8	12.3	1.32e-04	0	44	0	69206016	21	4588
2026-01-27 10:54:03.02	338.17	12.31	-30.5	-32.3	12.7	8.16e-05	0	44	0	71303168	21	4406
2026-01-27 10:54:04.02	338.21	12.21	-30.7	-32.6	12.5	1.04e-04	0	44	0	73400320	21	4507
2026-01-27 10:54:05.03	338.24	12.12	-30.7	-32.7	12.4	1.75e-04	0	44	0	74448896	21	4557
2026-01-27 10:54:06.04	338.27	12.03	-30.6	-32.6	12.5	1.79e-04	0	44	0	76546048	21	4498
2026-01-27 10:54:07.04	338.30	11.93	-30.8	-33.0	12.2	1.62e-04	0	44	0	78643200	21	4631
2026-01-27 10:54:08.05	338.33	11.84	-30.8	-32.9	12.2	2.40e-04	0	44	0	80740352	21	4622
2026-01-27 10:54:09.05	338.36	11.75	-30.6	-32.6	12.4	1.40e-04	0	44	0	82837504	21	4494
2026-01-27 10:54:10.06	338.39	11.66	-30.8	-32.9	12.2	2.14e-04	0	44	0	83886080	21	4609
2026-01-27 10:54:11.06	338.42	11.57	-30.7	-32.8	12.3	1.46e-04	0	44	0	85983232	21	4561
2026-01-27 10:54:12.06	338.45	11.47	-30.6	-32.6	12.4	1.56e-04	0	44	0	88080384	21	4504
2026-01-27 10:54:13.07	338.48	11.38	-30.6	-32.5	12.5	1.39e-04	0	44	0	90177536	21	4467
2026-01-27 10:54:14.07	338.51	11.29	-30.6	-32.7	12.2	1.67e-04	0	44	0	92274688	21	4579
2026-01-27 10:54:15.07	338.54	11.20	-30.5	-32.5	12.4	1.81e-04	0	44	0	93323264	21	4504
2026-01-27 10:54:16.07	338.57	11.11	-30.5	-32.4	12.3	1.98e-04	0	44	0	95420416	21	4496
2026-01-27 10:54:17.07	338.60	11.02	-30.5	-32.6	12.2	1.95e-04	0	44	0	97517568	21	4574
2026-01-27 10:54:18.07	338.63	10.94	-30.8	-33.4	11.6	4.42e-04	0	44	0	99614720	21	4858
2026-01-27 10:54:19.07	338.66	10.85	-30.5	-32.5	12.3	3.71e-04	0	44	0	101711872	21	4531
2026-01-27 10:54:20.07	338.69	10.76	-30.4	-32.3	12.4	1.44e-04	0	44	0	102760448	21	4474
2026-01-27 10:54:21.07	338.72	10.67	-30.4	-32.2	12.5	1.25e-04	0	44	0	104857600	21	4449
2026-01-27 10:54:22.08	338.75	10.58	-30.5	-32.6	12.3	1.07e-04	0	44	0	106954752	21	4549
2026-01-27 10:54:23.08	338.78	10.49	-30.5	-32.4	12.4	1.36e-04	0	44	0	109051904	21	4471
2026-01-27 10:54:24.08	338.80	10.41	-30.6	-32.7	12.3	1.30e-04	0	44	0	110100480	21	4553
2026-01-27 10:54:25.08	338.83	10.32	-30.5	-32.3	12.5	1.53e-04	0	44	0	112197632	21	4418
2026-01-27 10:54:26.08	338.86	10.23	-30.6	-32.5	12.4	1.25e-04	0	44	0	114294784	21	4497
2026-01-27 10:54:27.08	338.89	10.15	-30.7	-33.0	12.0	1.99e-04	0	44	0	116391936	21	4669
2026-01-27 10:54:28.08	338.92	10.06	-30.7	-32.8	12.2	3.15e-04	0	44	0	118489088	21	4602
2026-01-27 10:54:29.08	338.94	9.98	-30.7	-33.0	12.0	2.96e-04	0	44	0	119537664	21	4671
2026-01-27 10:54:30.08	338.97	9.89	-30.9	-33.4	11.7	3.96e-04	0	44	0	121634816	21	4827
2026-01-27 10:54:31.09	339.00	9.81	-30.7	-33.0	12.0	3.51e-04	0	44	0	123731968	21	4656
2026-01-27 10:54:32.09	339.03	9.72	-30.7	-33.0	12.0	3.81e-04	0	44	0	125829120	21	4662
2026-01-27 10:54:33.10	339.05	9.64	-30.8	-33.3	11.8	3.48e-04	0	44	0	127926272	21	4756
