passes_logs/2026/01/27/R2M6_AANII_01/R2M6_AANII_01__20260127_005017_SUOMI_NPP_rec.log

#Pass ID: 20260127_005017_SUOMI NPP
#Satellite: SUOMI NPP
#Configuration: NPP
#almurnet v.1.7.20240730
#Start time: 2026-01-27 00:50:19

#Version: 2.2.20231116
#Station: R2M6_AANII_01
#Location: 30.233357 lon 59.946436 lat
#TLE: 1 37849U 11061A   26026.52266023  .00000173  00000+0  10323-3 0  9994
#TLE: 2 37849  98.7822 328.4727 0002140  43.9411 316.1934 14.19530258738341

#Time	Az	El	Level	Level2	SNR	BER	BlckErr	Temp	State	Recorded	gain1	gain2
2026-01-27 00:50:19.48	16.12	7.13	-32.0	-37.7	4.8	1.35e+00	0	42	0	0	23	6997
2026-01-27 00:50:20.47	16.10	7.20	-32.0	-37.3	4.7	1.35e+00	0	41	104	0	24	6642
2026-01-27 00:50:21.48	16.08	7.28	-32.0	-37.4	6.7	2.41e-01	0	41	0	0	24	6649
2026-01-27 00:50:22.48	16.07	7.36	-31.9	-37.0	7.4	1.21e-01	0	42	0	1048576	23	6477
2026-01-27 00:50:23.49	16.05	7.44	-31.7	-36.2	8.1	7.48e-02	0	41	0	3145728	23	6034
2026-01-27 00:50:24.49	16.03	7.52	-31.6	-35.4	8.7	4.91e-02	0	41	0	5242880	23	5626
2026-01-27 00:50:25.49	16.01	7.59	-31.4	-35.3	9.2	2.25e-02	0	42	0	7340032	22	5629
2026-01-27 00:50:26.49	15.99	7.67	-31.5	-35.5	9.1	1.84e-02	0	42	0	9437184	22	5725
2026-01-27 00:50:27.50	15.97	7.75	-31.5	-35.3	8.9	2.32e-02	0	42	0	10485760	23	5533
2026-01-27 00:50:28.50	15.95	7.83	-31.6	-35.5	8.7	3.95e-02	0	42	0	12582912	23	5646
2026-01-27 00:50:29.50	15.93	7.91	-31.5	-35.1	9.0	2.67e-02	0	42	0	14680064	23	5449
2026-01-27 00:50:30.51	15.91	7.99	-31.3	-34.7	9.7	1.48e-02	0	42	0	16777216	22	5342
2026-01-27 00:50:31.51	15.89	8.07	-31.1	-34.0	10.3	7.44e-03	0	42	0	17825792	22	5045
2026-01-27 00:50:32.50	15.87	8.15	-30.9	-33.5	10.7	3.32e-03	0	42	0	19922944	22	4835
2026-01-27 00:50:33.50	15.85	8.23	-30.7	-33.3	11.2	2.68e-03	0	42	0	22020096	21	4849
2026-01-27 00:50:34.51	15.83	8.31	-30.7	-33.2	11.3	1.13e-03	0	42	0	24117248	21	4806
2026-01-27 00:50:35.51	15.81	8.39	-30.5	-32.7	11.6	3.30e-03	0	42	0	26214400	21	4629
2026-01-27 00:50:36.51	15.79	8.47	-30.5	-33.1	11.7	1.02e-03	0	42	0	27262976	20	4877
2026-01-27 00:50:37.51	15.77	8.55	-30.5	-32.8	11.5	1.32e-03	0	42	0	29360128	21	4679
2026-01-27 00:50:38.52	15.75	8.63	-30.6	-33.0	11.4	9.79e-04	0	42	0	31457280	21	4731
2026-01-27 00:50:39.52	15.73	8.71	-30.4	-32.9	11.8	1.10e-03	0	42	0	33554432	20	4808
2026-01-27 00:50:40.52	15.71	8.79	-30.4	-32.5	11.8	8.26e-04	0	42	0	35651584	21	4548
2026-01-27 00:50:41.52	15.68	8.88	-30.4	-32.4	11.9	5.10e-04	0	42	0	36700160	21	4506
2026-01-27 00:50:42.53	15.66	8.96	-30.4	-32.8	12.0	8.01e-04	0	42	0	38797312	20	4754
2026-01-27 00:50:43.53	15.64	9.04	-30.3	-32.6	12.2	7.84e-04	0	42	0	40894464	20	4667
2026-01-27 00:50:44.52	15.62	9.12	-30.3	-32.4	12.2	1.84e-04	0	42	0	42991616	20	4619
2026-01-27 00:50:45.52	15.60	9.21	-30.3	-32.5	12.2	2.33e-04	0	42	0	45088768	20	4633
2026-01-27 00:50:46.53	15.57	9.29	-30.3	-32.6	12.1	7.18e-04	0	42	0	46137344	20	4675
2026-01-27 00:50:47.53	15.55	9.37	-30.3	-32.5	12.2	2.25e-04	0	42	0	48234496	20	4636
2026-01-27 00:50:48.52	15.53	9.46	-30.2	-32.3	12.3	6.51e-04	0	42	0	50331648	20	4576
2026-01-27 00:50:49.53	15.51	9.54	-30.2	-32.2	12.4	8.52e-04	0	42	0	52428800	20	4545
2026-01-27 00:50:50.54	15.48	9.63	-30.4	-32.7	12.1	2.29e-04	0	42	0	54525952	20	4692
2026-01-27 00:50:51.54	15.46	9.71	-30.3	-32.5	12.2	1.09e-03	0	42	0	55574528	20	4645
2026-01-27 00:50:52.54	15.44	9.80	-30.3	-32.6	12.1	7.65e-04	0	42	0	57671680	20	4662
2026-01-27 00:50:53.55	15.42	9.88	-30.4	-32.7	12.1	2.59e-04	0	42	0	59768832	20	4713
2026-01-27 00:50:54.55	15.39	9.97	-30.4	-32.7	12.1	8.61e-04	0	42	0	61865984	20	4693
2026-01-27 00:50:55.55	15.37	10.05	-30.3	-32.4	12.3	1.10e-03	0	42	0	62914560	20	4587
2026-01-27 00:50:56.55	15.35	10.14	-30.2	-32.3	12.4	1.27e-04	0	42	0	65011712	20	4556
2026-01-27 00:50:57.55	15.32	10.23	-30.2	-32.3	12.4	1.15e-03	0	43	0	67108864	20	4562
2026-01-27 00:50:58.56	15.30	10.31	-29.8	-31.9	12.3	8.30e-04	0	43	0	69206016	20	4605
2026-01-27 00:50:59.56	15.27	10.40	-29.4	-31.4	12.5	1.33e-04	0	43	0	71303168	20	4551
2026-01-27 00:51:00.57	15.25	10.49	-30.2	-32.1	12.4	7.31e-04	0	43	0	72351744	20	4508
2026-01-27 00:51:01.57	15.22	10.58	-30.1	-32.0	11.7	8.52e-04	0	43	0	74448896	20	4459
2026-01-27 00:51:02.57	15.20	10.67	-30.2	-32.0	11.8	7.78e-05	0	43	0	76546048	20	4470
2026-01-27 00:51:03.58	15.17	10.75	-30.1	-31.7	12.8	6.47e-04	0	43	0	78643200	20	4374
2026-01-27 00:51:04.57	15.15	10.84	-30.1	-31.8	12.2	6.97e-04	0	43	0	80740352	20	4383
2026-01-27 00:51:05.57	15.12	10.93	-30.0	-31.6	12.8	5.79e-05	0	43	0	81788928	20	4324
2026-01-27 00:51:06.58	15.10	11.02	-30.0	-31.6	12.9	1.58e-04	0	43	0	83886080	20	4314
2026-01-27 00:51:07.58	15.07	11.11	-30.0	-31.7	12.9	5.61e-04	0	43	0	85983232	20	4347
2026-01-27 00:51:08.59	15.05	11.20	-30.1	-31.8	12.8	5.87e-05	0	43	0	88080384	20	4404
2026-01-27 00:51:09.59	15.02	11.29	-29.9	-31.4	13.1	5.38e-04	0	43	0	90177536	20	4266
2026-01-27 00:51:10.60	15.00	11.38	-30.0	-32.0	13.2	2.30e-03	0	43	0	91226112	19	4523
2026-01-27 00:51:11.60	14.97	11.47	-29.9	-31.3	13.1	2.05e-05	0	43	0	93323264	20	4226
2026-01-27 00:51:12.60	14.94	11.57	-29.9	-31.2	13.2	5.45e-04	0	43	0	95420416	20	4207
2026-01-27 00:51:13.60	14.92	11.66	-29.9	-31.8	13.2	2.10e-03	0	43	0	97517568	19	4480
2026-01-27 00:51:14.61	14.89	11.75	-29.9	-31.8	13.3	1.67e-05	0	43	0	99614720	19	4451
2026-01-27 00:51:15.61	14.86	11.84	-29.9	-31.7	13.3	4.23e-04	0	43	0	100663296	19	4450
2026-01-27 00:51:16.62	14.83	11.94	-29.8	-31.6	13.4	4.90e-04	0	43	0	102760448	19	4402
2026-01-27 00:51:17.62	14.81	12.03	-29.8	-31.4	13.5	2.27e-03	0	43	0	104857600	19	4352
2026-01-27 00:51:18.63	14.78	12.12	-29.8	-31.5	13.5	4.83e-04	0	43	0	106954752	19	4367
2026-01-27 00:51:19.63	14.75	12.22	-29.8	-31.4	13.5	4.73e-04	0	43	0	109051904	19	4329
2026-01-27 00:51:20.64	14.72	12.31	-29.8	-31.4	13.5	2.09e-03	0	43	0	110100480	19	4353
2026-01-27 00:51:21.64	14.69	12.40	-29.7	-31.3	13.6	7.70e-05	0	43	0	112197632	19	4315
2026-01-27 00:51:22.64	14.67	12.50	-29.7	-31.1	13.7	5.00e-04	0	43	0	114294784	19	4242
2026-01-27 00:51:23.64	14.64	12.59	-29.8	-31.4	13.6	2.34e-03	0	43	0	116391936	19	4352
2026-01-27 00:51:24.64	14.61	12.69	-29.7	-31.3	13.6	1.36e-04	0	43	0	118489088	19	4304
2026-01-27 00:51:25.65	14.58	12.79	-29.8	-31.4	13.6	7.70e-04	0	43	0	119537664	19	4332
2026-01-27 00:51:26.65	14.55	12.88	-29.8	-31.3	13.6	8.30e-06	0	43	0	121634816	19	4297
2026-01-27 00:51:27.66	14.52	12.98	-29.7	-31.0	13.8	1.43e-04	0	43	0	123731968	19	4220
2026-01-27 00:51:28.67	14.49	13.08	-29.5	-30.8	14.0	2.19e-03	0	43	0	125829120	19	4140
2026-01-27 00:51:29.67	14.46	13.18	-29.5	-30.7	14.0	7.00e-07	0	43	0	126877696	19	4126
2026-01-27 00:51:30.67	14.43	13.27	-29.5	-30.6	14.1	1.11e-04	0	43	0	128974848	19	4085
2026-01-27 00:51:31.67	14.40	13.37	-29.6	-30.9	13.9	2.01e-03	0	43	0	131072000	19	4194
2026-01-27 00:51:32.68	14.37	13.47	-29.7	-31.2	13.7	3.00e-06	0	43	0	133169152	19	4284
2026-01-27 00:51:33.68	14.34	13.57	-29.7	-31.2	13.8	1.19e-04	0	43	0	135266304	19	4260
2026-01-27 00:51:34.68	14.31	13.67	-29.5	-30.8	14.0	2.26e-03	0	43	0	136314880	19	4140
2026-01-27 00:51:35.69	14.28	13.77	-29.6	-30.8	14.0	2.23e-03	0	43	0	138412032	19	4147
2026-01-27 00:51:36.70	14.24	13.87	-29.6	-30.9	13.9	4.27e-04	0	43	0	140509184	19	4182
2026-01-27 00:51:37.69	14.21	13.97	-29.6	-30.9	13.9	2.21e-03	0	43	0	142606336	19	4170
2026-01-27 00:51:38.70	14.18	14.07	-29.6	-31.0	13.9	2.00e-03	0	43	0	144703488	19	4204
2026-01-27 00:51:39.70	14.15	14.17	-29.7	-31.1	13.8	4.42e-05	0	43	0	145752064	19	4243
2026-01-27 00:51:40.70	14.11	14.27	-29.7	-31.1	13.8	2.04e-03	0	43	0	147849216	19	4247
2026-01-27 00:51:41.70	14.08	14.38	-29.7	-31.2	13.8	2.26e-03	0	43	0	149946368	19	4258
2026-01-27 00:51:42.70	14.05	14.48	-29.4	-30.4	14.3	6.63e-05	0	43	0	152043520	19	4022
2026-01-27 00:51:43.71	14.02	14.58	-29.4	-30.8	14.4	4.72e-04	0	43	0	154140672	18	4226
2026-01-27 00:51:44.71	13.98	14.69	-29.3	-30.7	14.4	2.13e-03	0	43	0	155189248	18	4194
2026-01-27 00:51:45.72	13.95	14.79	-29.4	-30.8	14.4	8.16e-05	0	43	0	157286400	18	4222
2026-01-27 00:51:46.72	13.91	14.89	-29.3	-30.5	14.6	2.19e-03	0	43	0	159383552	18	4154
2026-01-27 00:51:47.73	13.88	15.00	-29.3	-30.7	14.4	2.00e-03	0	43	0	161480704	18	4219
2026-01-27 00:51:48.73	13.84	15.10	-29.3	-30.7	14.5	4.73e-05	0	43	0	163577856	18	4203
2026-01-27 00:51:49.73	13.81	15.21	-29.3	-30.5	14.5	1.96e-03	0	43	0	164626432	18	4167
2026-01-27 00:51:50.73	13.77	15.32	-29.2	-30.3	14.7	2.21e-03	0	43	0	166723584	18	4111
2026-01-27 00:51:51.73	13.74	15.42	-29.2	-30.4	14.6	5.95e-05	0	43	0	168820736	18	4123
2026-01-27 00:51:52.74	13.70	15.53	-29.4	-30.9	14.3	2.24e-03	0	43	0	170917888	18	4285
2026-01-27 00:51:53.74	13.67	15.64	-29.4	-30.8	14.4	2.19e-03	0	43	0	173015040	18	4239
2026-01-27 00:51:54.75	13.63	15.75	-29.1	-30.2	14.8	7.78e-05	0	43	0	174063616	18	4062
2026-01-27 00:51:55.74	13.59	15.85	-29.2	-30.5	14.6	2.19e-03	0	43	0	176160768	18	4149
2026-01-27 00:51:56.75	13.56	15.96	-29.3	-30.6	14.6	2.01e-03	0	43	0	178257920	18	4181
2026-01-27 00:51:57.75	13.52	16.07	-29.3	-30.6	14.5	0.00e+00	0	43	0	180355072	18	4180
2026-01-27 00:51:58.75	13.48	16.18	-29.3	-30.5	14.6	1.94e-03	0	43	0	181403648	18	4145
2026-01-27 00:51:59.76	13.44	16.29	-29.2	-30.4	14.7	2.22e-03	0	43	0	183500800	18	4128
2026-01-27 00:52:00.77	13.40	16.41	-29.4	-30.9	14.4	0.00e+00	0	43	0	185597952	18	4262
2026-01-27 00:52:01.77	13.37	16.52	-29.3	-30.6	14.6	2.30e-03	0	43	0	187695104	18	4167
2026-01-27 00:52:02.77	13.33	16.63	-29.1	-30.1	14.9	2.20e-03	0	43	0	189792256	18	4023
2026-01-27 00:52:03.77	13.29	16.74	-29.1	-30.2	14.8	9.23e-05	0	43	0	190840832	18	4053
2026-01-27 00:52:04.77	13.25	16.85	-29.2	-30.3	14.8	0.00e+00	0	43	0	192937984	18	4100
2026-01-27 00:52:05.77	13.21	16.97	-28.5	-29.4	15.0	2.00e-03	0	43	0	195035136	18	4009
2026-01-27 00:52:06.78	13.17	17.08	-29.2	-30.4	14.8	1.83e-05	0	43	0	197132288	18	4102
2026-01-27 00:52:07.78	13.13	17.19	-29.2	-30.2	14.8	0.00e+00	0	43	0	199229440	18	4054
2026-01-27 00:52:08.79	13.09	17.31	-29.2	-30.2	14.9	2.25e-03	0	43	0	200278016	18	4066
2026-01-27 00:52:09.80	13.05	17.43	-29.2	-30.4	14.8	1.83e-05	0	43	0	202375168	18	4120
2026-01-27 00:52:10.80	13.00	17.54	-29.1	-30.1	14.9	0.00e+00	0	43	0	204472320	18	4022
2026-01-27 00:52:11.81	12.96	17.66	-29.1	-30.0	15.0	0.00e+00	0	43	0	206569472	18	4007
2026-01-27 00:52:12.82	12.92	17.78	-29.3	-30.4	14.8	2.82e-05	0	43	0	208666624	18	4119
2026-01-27 00:52:13.82	12.88	17.90	-29.2	-30.3	14.8	2.17e-03	0	43	0	209715200	18	4080
2026-01-27 00:52:14.82	12.83	18.01	-29.3	-30.6	14.6	4.99e-04	0	43	0	211812352	18	4169
2026-01-27 00:52:15.82	12.79	18.13	-29.2	-30.3	14.8	7.00e-07	0	43	0	213909504	18	4088
2026-01-27 00:52:16.83	12.75	18.25	-29.2	-30.4	14.8	2.00e-03	0	43	0	216006656	18	4103
2026-01-27 00:52:17.83	12.70	18.37	-29.3	-30.4	14.8	6.17e-04	0	43	0	218103808	18	4109
2026-01-27 00:52:18.84	12.66	18.49	-29.2	-30.3	14.9	0.00e+00	0	43	0	219152384	18	4065
2026-01-27 00:52:19.84	12.61	18.61	-29.3	-30.6	14.7	2.23e-03	0	43	0	221249536	18	4175
2026-01-27 00:52:20.84	12.57	18.73	-29.4	-30.7	14.7	4.45e-04	0	44	0	223346688	18	4180
2026-01-27 00:52:21.85	12.52	18.86	-29.2	-30.2	14.9	5.68e-04	0	43	0	225443840	18	4054
2026-01-27 00:52:22.85	12.48	18.98	-29.2	-30.2	14.9	0.00e+00	0	43	0	227540992	18	4041
2026-01-27 00:52:23.85	12.43	19.10	-29.2	-30.3	14.9	1.96e-03	0	43	0	228589568	18	4087
2026-01-27 00:52:24.85	12.38	19.23	-29.4	-30.6	14.7	3.55e-04	0	43	0	230686720	18	4171
2026-01-27 00:52:25.85	12.34	19.35	-29.3	-30.5	14.8	0.00e+00	0	43	0	232783872	18	4122
2026-01-27 00:52:26.86	12.29	19.48	-29.1	-30.1	15.0	0.00e+00	0	43	0	234881024	18	4007
2026-01-27 00:52:27.87	12.24	19.60	-29.0	-29.7	15.3	3.84e-04	0	43	0	236978176	18	3912
2026-01-27 00:52:28.87	12.19	19.73	-29.1	-30.1	15.1	0.00e+00	0	43	0	238026752	18	4013
2026-01-27 00:52:29.87	12.14	19.86	-29.0	-29.7	15.3	0.00e+00	0	43	0	240123904	18	3902
2026-01-27 00:52:30.87	12.09	19.98	-29.0	-30.2	15.3	2.20e-06	0	43	0	242221056	17	4132
2026-01-27 00:52:31.87	12.04	20.11	-28.9	-29.5	15.4	0.00e+00	0	43	0	244318208	18	3848
2026-01-27 00:52:32.88	11.99	20.24	-28.9	-29.5	15.4	2.68e-04	0	44	0	246415360	18	3855
2026-01-27 00:52:33.88	11.94	20.37	-29.1	-29.9	15.2	0.00e+00	0	43	0	247463936	18	3969
2026-01-27 00:52:34.89	11.89	20.50	-29.0	-29.6	15.3	0.00e+00	0	43	0	249561088	18	3888
2026-01-27 00:52:35.89	11.84	20.63	-28.8	-29.6	15.6	3.44e-04	0	43	0	251658240	17	3980
2026-01-27 00:52:36.90	11.79	20.77	-28.9	-30.0	15.4	0.00e+00	0	43	0	253755392	17	4094
2026-01-27 00:52:37.90	11.73	20.90	-28.9	-29.9	15.5	0.00e+00	0	43	0	254803968	17	4041
2026-01-27 00:52:38.90	11.68	21.03	-28.9	-30.0	15.4	3.47e-04	0	43	0	256901120	17	4091
2026-01-27 00:52:39.90	11.63	21.16	-28.9	-29.5	15.5	3.04e-04	0	43	0	258998272	18	3842
2026-01-27 00:52:40.91	11.57	21.30	-28.9	-30.0	15.4	0.00e+00	0	43	0	261095424	17	4070
2026-01-27 00:52:41.92	11.52	21.43	-28.9	-29.9	15.4	3.33e-04	0	44	0	263192576	17	4065
2026-01-27 00:52:42.92	11.46	21.57	-29.0	-29.6	15.4	3.81e-04	0	43	0	264241152	18	3880
2026-01-27 00:52:43.93	11.41	21.71	-29.1	-30.0	15.1	0.00e+00	0	43	0	266338304	18	3991
2026-01-27 00:52:44.94	11.35	21.84	-29.1	-30.0	15.1	3.78e-04	0	43	0	268435456	18	3972
2026-01-27 00:52:45.94	11.29	21.98	-29.2	-30.6	14.9	2.76e-04	0	44	0	270532608	17	4252
2026-01-27 00:52:46.94	11.23	22.12	-29.4	-30.8	13.9	0.00e+00	0	43	0	272629760	18	4198
2026-01-27 00:52:47.94	11.18	22.26	-29.4	-30.2	14.7	2.14e-04	0	43	0	273678336	19	3951
2026-01-27 00:52:48.95	11.12	22.40	-29.2	-30.2	14.1	2.33e-04	0	43	0	275775488	18	4040
2026-01-27 00:52:49.96	11.06	22.54	-29.2	-30.3	14.5	0.00e+00	0	43	0	277872640	18	4055
2026-01-27 00:52:50.95	11.00	22.68	-29.4	-30.6	14.8	2.14e-04	0	44	0	279969792	18	4150
2026-01-27 00:52:51.96	10.94	22.82	-29.3	-30.5	14.8	1.58e-04	0	43	0	282066944	18	4113
2026-01-27 00:52:52.96	10.88	22.97	-29.3	-30.5	14.8	0.00e+00	0	43	0	283115520	18	4122
2026-01-27 00:52:53.97	10.82	23.11	-29.3	-30.5	14.9	2.32e-04	0	43	0	285212672	18	4132
2026-01-27 00:52:54.97	10.75	23.26	-29.4	-30.8	14.7	1.49e-03	0	43	0	287309824	18	4194
2026-01-27 00:52:55.97	10.69	23.40	-29.7	-31.0	14.3	0.00e+00	0	43	0	289406976	19	4165
2026-01-27 00:52:56.98	10.63	23.55	-29.5	-30.4	14.6	3.85e-04	0	44	0	291504128	19	3992
2026-01-27 00:52:57.98	10.57	23.69	-29.8	-31.1	14.2	1.17e-03	0	44	0	292552704	19	4203
2026-01-27 00:52:58.98	10.50	23.84	-29.5	-30.4	14.7	0.00e+00	0	44	0	294649856	19	3989
2026-01-27 00:52:59.98	10.44	23.99	-29.3	-30.0	14.9	2.73e-04	0	44	0	296747008	19	3874
2026-01-27 00:53:00.99	10.37	24.14	-29.3	-30.4	15.0	3.26e-04	0	43	0	298844160	18	4076
2026-01-27 00:53:01.99	10.30	24.29	-29.6	-30.6	14.6	1.22e-03	0	44	0	300941312	19	4054
2026-01-27 00:53:02.99	10.24	24.44	-29.8	-31.3	14.2	2.50e-04	0	43	0	301989888	19	4253
2026-01-27 00:53:04.00	10.17	24.59	-29.9	-31.5	14.0	2.21e-04	0	43	0	304087040	19	4322
2026-01-27 00:53:05.00	10.10	24.74	-30.2	-31.9	13.4	1.09e-03	0	43	0	306184192	20	4346
2026-01-27 00:53:06.01	10.03	24.90	-30.6	-32.3	12.7	3.11e-04	0	43	0	308281344	21	4408
2026-01-27 00:53:07.01	9.96	25.05	-30.4	-31.9	13.0	3.07e-04	0	44	0	310378496	21	4251
2026-01-27 00:53:08.02	9.89	25.21	-30.8	-32.9	12.4	4.95e-05	0	43	0	311427072	21	4580
2026-01-27 00:53:09.02	9.82	25.37	-30.6	-32.4	12.7	8.08e-05	0	44	0	313524224	21	4415
2026-01-27 00:53:10.02	9.75	25.52	-30.4	-31.7	13.2	4.16e-04	0	44	0	315621376	21	4218
2026-01-27 00:53:11.03	9.67	25.68	-30.2	-31.7	13.5	9.10e-06	0	44	0	317718528	20	4287
2026-01-27 00:53:12.03	9.60	25.84	-30.2	-31.8	13.5	6.10e-06	0	44	0	319815680	20	4318
2026-01-27 00:53:13.03	9.53	26.00	-30.1	-31.5	13.7	6.58e-04	0	43	0	320864256	20	4237
2026-01-27 00:53:14.03	9.45	26.16	-30.2	-31.7	13.6	9.10e-06	0	43	0	322961408	20	4296
2026-01-27 00:53:15.04	9.37	26.32	-30.0	-31.4	13.7	9.10e-06	0	43	0	325058560	20	4190
2026-01-27 00:53:16.04	9.30	26.48	-30.4	-32.4	13.1	4.52e-04	0	44	0	327155712	20	4509
2026-01-27 00:53:17.04	9.22	26.64	-30.2	-31.9	13.4	1.42e-04	0	44	0	329252864	20	4352
2026-01-27 00:53:18.04	9.14	26.81	-30.4	-32.3	13.2	4.24e-04	0	43	0	330301440	20	4480
2026-01-27 00:53:19.04	9.06	26.97	-30.5	-32.2	12.9	6.52e-04	0	44	0	332398592	21	4365
2026-01-27 00:53:20.04	8.98	27.14	-31.0	-33.4	12.1	6.69e-04	0	44	0	334495744	21	4775
2026-01-27 00:53:21.05	8.90	27.31	-30.7	-32.7	12.6	3.20e-04	0	44	0	336592896	21	4531
2026-01-27 00:53:22.05	8.82	27.47	-30.7	-32.8	12.6	5.95e-04	0	43	0	337641472	21	4539
2026-01-27 00:53:23.05	8.74	27.64	-30.9	-33.1	12.3	7.97e-04	0	44	0	339738624	21	4650
2026-01-27 00:53:24.06	8.65	27.81	-30.8	-33.0	12.3	3.30e-04	0	43	0	341835776	21	4630
2026-01-27 00:53:25.07	8.57	27.98	-30.9	-33.4	12.1	2.72e-04	0	43	0	343932928	21	4753
2026-01-27 00:53:26.07	8.48	28.16	-31.0	-33.0	11.9	8.16e-04	0	44	0	346030080	22	4542
2026-01-27 00:53:27.07	8.39	28.33	-30.8	-32.3	12.5	1.94e-04	0	44	0	347078656	22	4289
2026-01-27 00:53:28.07	8.31	28.50	-30.7	-32.7	12.6	2.80e-04	0	43	0	349175808	21	4515
2026-01-27 00:53:29.08	8.22	28.68	-30.8	-32.9	12.4	7.57e-04	0	44	0	351272960	21	4597
2026-01-27 00:53:30.09	8.13	28.85	-30.8	-33.0	12.3	1.41e-04	0	44	0	353370112	21	4618
2026-01-27 00:53:31.09	8.04	29.03	-30.9	-33.1	12.4	1.28e-03	0	43	0	355467264	21	4667
2026-01-27 00:53:32.09	7.95	29.21	-31.1	-33.4	11.8	1.44e-03	0	43	0	356515840	22	4663
2026-01-27 00:53:33.10	7.85	29.39	-31.2	-33.6	11.7	6.35e-04	0	43	0	358612992	22	4730
2026-01-27 00:53:34.10	7.76	29.57	-31.3	-33.9	11.4	1.71e-03	0	43	0	360710144	22	4835
2026-01-27 00:53:35.10	7.66	29.75	-31.4	-34.1	11.2	1.77e-03	0	44	0	362807296	22	4939
2026-01-27 00:53:36.11	7.57	29.93	-31.3	-34.0	11.4	9.22e-04	0	44	0	364904448	22	4895
2026-01-27 00:53:37.11	7.47	30.11	-31.3	-33.8	11.5	1.24e-03	0	44	0	365953024	22	4816
2026-01-27 00:53:38.12	7.37	30.30	-31.3	-33.7	11.5	1.20e-03	0	44	0	368050176	22	4789
2026-01-27 00:53:39.12	7.27	30.49	-31.2	-33.6	11.6	6.45e-04	0	44	0	370147328	22	4736
2026-01-27 00:53:40.12	7.17	30.67	-31.1	-33.4	11.9	1.24e-03	0	44	0	372244480	22	4658
2026-01-27 00:53:41.12	7.07	30.86	-31.1	-33.3	11.9	1.35e-03	0	44	0	374341632	22	4631
2026-01-27 00:53:42.13	6.97	31.05	-30.9	-32.7	12.3	2.35e-04	0	44	0	375390208	22	4418
2026-01-27 00:53:43.13	6.86	31.24	-31.1	-33.4	11.9	1.37e-03	0	44	0	377487360	22	4651
2026-01-27 00:53:44.13	6.76	31.43	-31.3	-33.9	11.5	1.62e-03	0	44	0	379584512	22	4865
2026-01-27 00:53:45.13	6.65	31.62	-31.3	-34.0	11.4	5.99e-04	0	43	0	381681664	22	4881
2026-01-27 00:53:46.13	6.54	31.81	-31.7	-34.6	10.5	3.03e-03	0	44	0	383778816	23	5022
2026-01-27 00:53:47.14	6.43	32.01	-31.5	-34.1	11.1	5.06e-03	0	44	0	384827392	23	4813
2026-01-27 00:53:48.14	6.32	32.20	-31.9	-35.3	10.1	4.21e-03	0	44	0	386924544	23	5314
2026-01-27 00:53:49.14	6.21	32.40	-32.0	-35.5	10.0	4.74e-03	0	44	0	389021696	23	5401
2026-01-27 00:53:50.15	6.09	32.60	-31.8	-34.3	10.5	6.70e-03	0	44	0	391118848	24	4822
2026-01-27 00:53:51.15	5.98	32.80	-31.9	-34.7	10.2	6.73e-03	0	44	0	392167424	24	4974
2026-01-27 00:53:52.15	5.86	33.00	-31.9	-34.9	10.0	6.48e-03	0	44	0	394264576	24	5051
2026-01-27 00:53:53.15	5.74	33.20	-31.9	-35.2	10.2	6.23e-03	0	44	0	396361728	23	5277
2026-01-27 00:53:54.15	5.62	33.40	-32.2	-35.9	9.3	9.81e-03	0	44	0	398458880	24	5489
2026-01-27 00:53:55.16	5.50	33.60	-32.4	-36.4	8.8	3.77e-02	0	44	0	400556032	24	5756
2026-01-27 00:53:56.17	5.38	33.81	-32.3	-36.3	9.0	2.69e-02	0	44	0	401604608	24	5698
2026-01-27 00:53:57.17	5.25	34.02	-32.5	-37.0	8.5	2.65e-02	0	44	0	403701760	24	6050
2026-01-27 00:53:58.18	5.13	34.23	-32.4	-36.4	9.0	3.37e-02	0	44	0	405798912	24	5748
2026-01-27 00:53:59.18	5.00	34.43	-32.3	-36.1	9.1	2.06e-02	0	44	0	407896064	24	5606
2026-01-27 00:54:00.17	4.87	34.64	-32.3	-36.2	9.1	3.38e-02	0	44	0	409993216	24	5622
2026-01-27 00:54:01.18	4.74	34.85	-32.2	-35.9	9.4	1.37e-02	0	44	0	411041792	24	5473
2026-01-27 00:54:02.18	4.61	35.07	-32.3	-36.3	8.9	1.80e-02	0	44	0	413138944	24	5695
2026-01-27 00:54:03.19	4.47	35.28	-31.5	-34.4	9.6	2.59e-02	0	44	0	415236096	25	5051
2026-01-27 00:54:04.19	4.33	35.50	-32.1	-35.5	9.8	1.16e-02	0	44	0	417333248	24	5302
2026-01-27 00:54:05.20	4.19	35.71	-32.5	-37.0	8.5	1.56e-02	0	44	0	419430400	24	6021
2026-01-27 00:54:06.20	4.05	35.93	-32.5	-36.6	8.5	3.65e-02	0	44	0	420478976	25	5740
2026-01-27 00:54:07.20	3.91	36.15	-32.7	-37.2	7.9	7.85e-02	0	44	0	422576128	25	6070
2026-01-27 00:54:08.21	3.77	36.37	-32.8	-37.9	7.4	1.57e-01	0	44	0	424673280	25	6454
2026-01-27 00:54:09.21	3.62	36.59	-32.9	-38.4	7.0	1.52e-01	0	44	0	426770432	25	6756
2026-01-27 00:54:10.22	3.47	36.82	-32.8	-37.6	7.7	1.28e-01	0	44	0	428867584	25	6269
2026-01-27 00:54:11.23	3.32	37.04	-32.5	-36.4	8.5	6.71e-02	0	44	0	429916160	25	5670
2026-01-27 00:54:12.23	3.17	37.27	-32.5	-36.3	8.6	3.34e-02	0	44	0	432013312	25	5597
2026-01-27 00:54:13.24	3.01	37.49	-32.2	-35.6	9.6	1.52e-02	0	44	0	434110464	24	5351
2026-01-27 00:54:14.24	2.85	37.72	-32.1	-35.5	9.7	1.04e-02	0	44	0	436207616	24	5285
2026-01-27 00:54:15.24	2.69	37.95	-32.1	-35.4	9.8	1.26e-02	0	44	0	438304768	24	5262
2026-01-27 00:54:16.25	2.53	38.18	-32.0	-35.0	10.1	3.21e-03	0	44	0	439353344	24	5070
2026-01-27 00:54:17.25	2.37	38.41	-32.1	-35.5	9.7	8.34e-03	0	44	0	441450496	24	5301
2026-01-27 00:54:18.25	2.20	38.65	-32.0	-35.0	10.1	1.04e-02	0	44	0	443547648	24	5081
2026-01-27 00:54:19.25	2.03	38.88	-32.2	-35.8	9.4	1.43e-02	0	44	0	445644800	24	5438
2026-01-27 00:54:20.26	1.86	39.12	-32.2	-35.9	9.5	1.22e-02	0	44	0	447741952	24	5462
2026-01-27 00:54:21.27	1.69	39.36	-32.0	-35.0	10.0	1.55e-02	0	44	0	448790528	24	5084
2026-01-27 00:54:22.27	1.51	39.59	-32.2	-35.6	9.6	1.73e-02	0	44	0	450887680	24	5350
2026-01-27 00:54:23.28	1.33	39.84	-32.1	-35.5	9.7	1.09e-02	0	44	0	452984832	24	5306
2026-01-27 00:54:24.27	1.15	40.07	-32.1	-35.3	9.7	6.83e-03	0	44	0	455081984	24	5231
2026-01-27 00:54:25.28	0.96	40.32	-32.0	-35.0	10.2	1.09e-02	0	44	0	457179136	24	5097
2026-01-27 00:54:26.29	0.77	40.56	-32.0	-35.1	9.9	1.07e-02	0	44	0	458227712	24	5150
2026-01-27 00:54:27.29	0.58	40.81	-31.9	-34.6	10.4	5.03e-03	0	44	0	460324864	24	4912
2026-01-27 00:54:28.28	0.39	41.05	-31.7	-34.4	10.9	3.01e-03	0	44	0	462422016	23	4932
2026-01-27 00:54:29.28	0.20	41.30	-31.4	-33.4	11.7	1.23e-03	0	44	0	464519168	23	4547
2026-01-27 00:54:30.29	359.99	41.55	-31.2	-33.3	12.0	8.64e-04	0	44	0	465567744	22	4603
2026-01-27 00:54:31.29	359.79	41.80	-31.0	-33.0	12.3	2.94e-04	0	44	0	467664896	22	4487
2026-01-27 00:54:32.29	359.59	42.05	-31.1	-33.2	12.2	2.01e-04	0	44	0	469762048	22	4567
2026-01-27 00:54:33.29	359.38	42.30	-31.0	-32.9	12.4	4.81e-04	0	44	0	471859200	22	4454
2026-01-27 00:54:34.29	359.17	42.56	-30.9	-32.4	12.6	1.30e-04	0	44	0	473956352	22	4310
2026-01-27 00:54:35.30	358.95	42.81	-30.7	-32.0	12.9	8.01e-05	0	44	0	475004928	22	4182
2026-01-27 00:54:36.31	358.73	43.07	-30.6	-31.6	13.2	8.62e-05	0	44	0	477102080	22	4068
2026-01-27 00:54:37.31	358.50	43.33	-30.7	-32.5	12.9	3.73e-05	0	44	0	479199232	21	4437
2026-01-27 00:54:38.32	358.27	43.59	-30.6	-32.3	13.1	7.01e-05	0	44	0	481296384	21	4362
2026-01-27 00:54:39.32	358.04	43.85	-30.4	-32.3	13.3	1.22e-05	0	44	0	483393536	20	4434
2026-01-27 00:54:40.32	357.81	44.11	-30.4	-32.2	13.1	3.35e-05	0	44	0	484442112	20	4426
2026-01-27 00:54:41.33	357.57	44.38	-30.1	-31.4	13.9	6.10e-06	0	44	0	486539264	20	4183
2026-01-27 00:54:42.33	357.33	44.64	-30.1	-31.4	14.0	2.20e-06	0	44	0	488636416	20	4185
2026-01-27 00:54:43.34	357.08	44.91	-30.1	-31.5	13.9	5.34e-05	0	44	0	490733568	20	4193
2026-01-27 00:54:44.34	356.83	45.17	-30.1	-31.2	14.1	1.50e-06	0	44	0	492830720	20	4119
2026-01-27 00:54:45.35	356.57	45.44	-30.2	-31.6	13.9	7.00e-07	0	44	0	493879296	20	4230
2026-01-27 00:54:46.35	356.31	45.71	-29.8	-31.2	14.5	7.93e-04	0	44	0	495976448	19	4186
2026-01-27 00:54:47.35	356.05	45.98	-30.0	-31.0	14.3	7.00e-07	0	44	0	498073600	20	4048
2026-01-27 00:54:48.35	355.78	46.25	-29.9	-30.9	14.3	3.80e-06	0	44	0	500170752	20	4034
2026-01-27 00:54:49.35	355.51	46.52	-30.0	-31.0	14.2	7.00e-07	0	44	0	502267904	20	4058
2026-01-27 00:54:50.35	355.23	46.79	-29.8	-30.6	14.5	0.00e+00	0	44	0	503316480	20	3933
2026-01-27 00:54:51.36	354.94	47.07	-29.8	-31.0	14.7	0.00e+00	0	44	0	505413632	19	4151
2026-01-27 00:54:52.36	354.65	47.35	-30.0	-31.1	14.2	1.50e-06	0	44	0	507510784	20	4077
2026-01-27 00:54:53.36	354.36	47.62	-30.1	-31.4	14.1	2.20e-06	0	44	0	509607936	20	4170
2026-01-27 00:54:54.36	354.06	47.90	-30.4	-32.1	13.6	1.37e-05	0	44	0	510656512	20	4391
2026-01-27 00:54:55.36	353.76	48.17	-30.2	-31.8	13.7	6.80e-06	0	44	0	512753664	20	4282
2026-01-27 00:54:56.36	353.45	48.45	-30.2	-31.7	13.8	1.50e-06	0	44	0	514850816	20	4260
2026-01-27 00:54:57.37	353.13	48.74	-30.0	-31.1	14.2	4.71e-04	0	44	0	516947968	20	4082
2026-01-27 00:54:58.37	352.81	49.02	-29.7	-30.8	14.8	7.00e-07	0	44	0	519045120	19	4072
2026-01-27 00:54:59.38	352.48	49.30	-29.7	-30.8	14.7	0.00e+00	0	44	0	521142272	19	4095
2026-01-27 00:55:00.38	352.15	49.58	-29.4	-30.1	15.2	4.94e-04	0	44	0	522190848	19	3892
2026-01-27 00:55:01.38	351.81	49.86	-29.1	-29.9	15.6	5.26e-04	0	44	0	524288000	18	3926
2026-01-27 00:55:02.39	351.46	50.15	-28.7	-28.9	16.2	0.00e+00	0	44	0	526385152	18	3665
2026-01-27 00:55:03.39	351.10	50.43	-28.6	-29.2	16.3	6.47e-04	0	44	0	528482304	17	3836
2026-01-27 00:55:04.39	350.74	50.72	-28.8	-29.5	16.1	8.64e-04	0	44	0	529530880	17	3923
2026-01-27 00:55:05.40	350.37	51.00	-29.2	-30.0	15.6	0.00e+00	0	44	0	531628032	18	3957
2026-01-27 00:55:06.40	350.00	51.29	-29.5	-30.3	15.1	0.00e+00	0	44	0	533725184	19	3930
2026-01-27 00:55:07.40	349.62	51.57	-29.4	-30.6	15.2	1.24e-03	0	44	0	535822336	18	4112
2026-01-27 00:55:08.41	349.23	51.86	-29.4	-30.0	15.3	7.00e-07	0	44	0	537919488	19	3875
2026-01-27 00:55:09.40	348.84	52.15	-29.5	-30.3	15.0	0.00e+00	0	44	0	538968064	19	3947
2026-01-27 00:55:10.41	348.43	52.44	-29.9	-30.7	14.5	4.26e-04	0	44	0	541065216	20	3978
2026-01-27 00:55:11.42	348.01	52.72	-30.5	-32.4	13.6	7.60e-06	0	44	0	543162368	20	4483
2026-01-27 00:55:12.42	347.59	53.01	-30.7	-32.5	13.0	2.21e-05	0	44	0	545259520	21	4434
2026-01-27 00:55:13.43	347.16	53.30	-30.7	-32.5	13.0	1.74e-04	0	44	0	547356672	21	4414
2026-01-27 00:55:14.42	346.73	53.58	-30.2	-31.0	13.9	6.80e-06	0	44	0	548405248	21	3976
2026-01-27 00:55:15.42	346.28	53.87	-29.8	-30.7	14.5	2.29e-04	0	44	0	550502400	20	3955
2026-01-27 00:55:16.43	345.82	54.16	-29.6	-30.1	14.7	7.00e-07	0	44	0	552599552	20	3811
2026-01-27 00:55:17.43	345.36	54.45	-30.0	-31.2	14.2	0.00e+00	0	44	0	554696704	20	4108
2026-01-27 00:55:18.44	344.88	54.74	-29.9	-31.3	14.4	6.79e-04	0	44	0	556793856	19	4207
2026-01-27 00:55:19.44	344.40	55.02	-29.8	-31.0	14.7	5.97e-04	0	44	0	557842432	19	4130
2026-01-27 00:55:20.43	343.91	55.30	-29.9	-31.2	14.6	0.00e+00	0	44	0	559939584	19	4199
2026-01-27 00:55:21.43	343.41	55.59	-30.0	-31.1	14.3	3.42e-04	0	44	0	562036736	20	4083
2026-01-27 00:55:22.44	342.89	55.87	-30.2	-31.5	14.0	4.00e-04	0	44	0	564133888	20	4205
2026-01-27 00:55:23.44	342.36	56.16	-30.0	-31.1	14.3	1.43e-04	0	44	0	566231040	20	4079
2026-01-27 00:55:24.45	341.82	56.44	-30.0	-31.2	14.1	4.71e-04	0	44	0	567279616	20	4098
2026-01-27 00:55:25.45	341.28	56.72	-30.1	-31.5	14.0	5.55e-04	0	44	0	569376768	20	4191
2026-01-27 00:55:26.45	340.72	57.00	-30.0	-31.2	14.2	1.67e-05	0	44	0	571473920	20	4095
2026-01-27 00:55:27.46	340.14	57.28	-30.0	-31.0	14.2	6.20e-04	0	44	0	573571072	20	4064
2026-01-27 00:55:28.47	339.56	57.56	-30.3	-31.9	13.8	5.10e-04	0	44	0	574619648	20	4322
2026-01-27 00:55:29.47	338.96	57.83	-30.6	-32.1	13.3	1.06e-05	0	44	0	576716800	21	4282
2026-01-27 00:55:30.48	338.35	58.11	-30.3	-31.3	13.8	3.00e-04	0	44	0	578813952	21	4058
2026-01-27 00:55:31.48	337.73	58.38	-30.0	-30.6	14.2	2.15e-04	0	44	0	580911104	21	3846
2026-01-27 00:55:32.48	337.10	58.65	-29.9	-30.3	14.5	0.00e+00	0	44	0	583008256	21	3776
2026-01-27 00:55:33.48	336.46	58.92	-29.9	-30.9	14.3	1.09e-04	0	44	0	584056832	20	4034
2026-01-27 00:55:34.48	335.80	59.18	-30.3	-32.0	13.7	2.20e-06	0	44	0	586153984	20	4352
2026-01-27 00:55:35.49	335.13	59.45	-30.3	-31.4	13.9	8.30e-06	0	44	0	588251136	21	4093
2026-01-27 00:55:36.50	334.44	59.71	-29.4	-29.5	15.1	0.00e+00	0	44	0	590348288	20	3657
2026-01-27 00:55:37.50	333.74	59.97	-29.1	-29.4	15.7	0.00e+00	0	44	0	592445440	19	3701
2026-01-27 00:55:38.51	333.02	60.23	-28.6	-28.6	16.3	0.00e+00	0	44	0	593494016	18	3609
2026-01-27 00:55:39.51	332.29	60.48	-28.9	-29.3	16.0	7.00e-07	0	44	0	595591168	18	3764
2026-01-27 00:55:40.51	331.55	60.73	-29.1	-29.8	15.7	1.90e-05	0	44	0	597688320	18	3906
2026-01-27 00:55:41.52	330.79	60.98	-29.6	-30.6	14.9	0.00e+00	0	44	0	599785472	19	4039
2026-01-27 00:55:42.53	330.01	61.22	-29.8	-30.4	14.7	9.61e-05	0	44	0	601882624	20	3895
2026-01-27 00:55:43.53	329.22	61.46	-29.2	-29.4	15.5	1.98e-04	0	44	0	602931200	19	3720
2026-01-27 00:55:44.54	328.41	61.69	-29.4	-30.0	15.3	2.20e-06	0	44	0	605028352	19	3872
2026-01-27 00:55:45.55	327.59	61.92	-29.5	-30.2	15.2	2.06e-04	0	44	0	607125504	19	3929
2026-01-27 00:55:46.55	326.76	62.15	-29.7	-30.2	14.8	2.13e-04	0	44	0	609222656	20	3852
2026-01-27 00:55:47.55	325.91	62.37	-29.4	-29.5	15.2	0.00e+00	0	44	0	611319808	20	3662
2026-01-27 00:55:48.55	325.04	62.59	-29.2	-29.5	15.5	0.00e+00	0	44	0	612368384	19	3746
2026-01-27 00:55:49.55	324.17	62.80	-29.2	-30.0	15.5	3.11e-04	0	44	0	614465536	18	3957
2026-01-27 00:55:50.56	323.26	63.00	-29.3	-29.9	15.4	0.00e+00	0	44	0	616562688	19	3838
2026-01-27 00:55:51.56	322.35	63.20	-29.3	-29.8	15.1	0.00e+00	0	44	0	618659840	19	3812
2026-01-27 00:55:52.56	321.43	63.40	-29.0	-29.1	15.7	0.00e+00	0	44	0	620756992	19	3640
2026-01-27 00:55:53.57	320.48	63.59	-28.8	-28.7	16.1	7.00e-07	0	44	0	621805568	19	3532
2026-01-27 00:55:54.58	319.51	63.78	-29.1	-29.4	15.7	0.00e+00	0	44	0	623902720	19	3698
2026-01-27 00:55:55.58	318.54	63.95	-29.2	-29.6	15.5	0.00e+00	0	44	0	625999872	19	3758
2026-01-27 00:55:56.59	317.55	64.12	-29.8	-31.2	14.6	7.00e-07	0	44	0	628097024	19	4191
2026-01-27 00:55:57.60	316.54	64.29	-29.7	-30.4	14.7	0.00e+00	0	44	0	630194176	20	3890
2026-01-27 00:55:58.60	315.53	64.45	-29.3	-29.8	15.4	0.00e+00	0	44	0	631242752	19	3810
2026-01-27 00:55:59.60	314.50	64.60	-29.7	-30.8	14.8	0.00e+00	0	44	0	633339904	19	4077
2026-01-27 00:56:00.60	313.46	64.74	-29.6	-30.1	14.8	1.50e-06	0	44	0	635437056	20	3801
2026-01-27 00:56:01.60	312.40	64.87	-28.9	-28.8	16.0	0.00e+00	0	44	0	637534208	19	3562
2026-01-27 00:56:02.61	311.33	65.00	-28.4	-28.1	16.6	2.20e-06	0	44	0	639631360	18	3490
2026-01-27 00:56:03.62	310.24	65.12	-28.2	-28.1	17.0	0.00e+00	0	44	0	640679936	17	3572
2026-01-27 00:56:04.61	309.16	65.24	-28.6	-29.2	16.4	0.00e+00	0	44	0	642777088	17	3845
2026-01-27 00:56:05.62	308.05	65.34	-29.3	-30.3	15.5	1.50e-06	0	44	0	644874240	18	4031
2026-01-27 00:56:06.62	306.94	65.44	-29.4	-30.1	15.2	0.00e+00	0	44	0	646971392	19	3894
2026-01-27 00:56:07.63	305.80	65.52	-29.7	-30.9	14.8	7.00e-07	0	44	0	649068544	19	4095
2026-01-27 00:56:08.63	304.68	65.60	-29.8	-31.1	14.6	0.00e+00	0	44	0	650117120	19	4164
2026-01-27 00:56:09.63	303.54	65.67	-30.2	-31.5	14.0	1.50e-06	0	44	0	652214272	20	4212
2026-01-27 00:56:10.64	302.39	65.74	-29.4	-29.7	15.2	3.20e-05	0	44	0	654311424	20	3699
2026-01-27 00:56:11.65	301.23	65.79	-28.9	-28.9	15.9	0.00e+00	0	44	0	656408576	19	3591
2026-01-27 00:56:12.66	300.06	65.83	-28.6	-28.5	16.3	0.00e+00	0	44	0	658505728	18	3590
2026-01-27 00:56:13.66	298.90	65.87	-28.5	-28.9	16.5	0.00e+00	0	44	0	659554304	17	3756
2026-01-27 00:56:14.67	297.73	65.90	-28.5	-28.9	16.5	2.55e-04	0	44	0	661651456	17	3779
2026-01-27 00:56:15.67	296.56	65.91	-28.3	-28.5	16.7	0.00e+00	0	44	0	663748608	17	3672
2026-01-27 00:56:16.68	295.39	65.92	-28.0	-28.3	17.1	0.00e+00	0	44	0	665845760	16	3712
2026-01-27 00:56:17.68	294.22	65.92	-28.0	-28.2	17.1	3.41e-04	0	44	0	667942912	16	3687
2026-01-27 00:56:18.68	293.06	65.91	-28.4	-29.2	16.6	0.00e+00	0	44	0	668991488	16	3956
2026-01-27 00:56:19.68	291.89	65.89	-28.9	-29.9	15.8	0.00e+00	0	44	0	671088640	17	4031
2026-01-27 00:56:20.69	290.72	65.86	-29.1	-29.8	15.6	0.00e+00	0	44	0	673185792	18	3916
2026-01-27 00:56:21.69	289.56	65.82	-29.1	-29.8	15.6	0.00e+00	0	44	0	675282944	18	3910
2026-01-27 00:56:22.69	288.41	65.78	-28.8	-29.1	16.0	0.00e+00	0	44	0	676331520	18	3725
2026-01-27 00:56:23.70	287.25	65.72	-28.2	-28.7	16.8	0.00e+00	0	44	0	678428672	16	3798
2026-01-27 00:56:24.70	286.11	65.66	-27.7	-27.6	17.4	0.00e+00	0	44	0	680525824	16	3544
2026-01-27 00:56:25.71	284.96	65.58	-28.4	-29.2	16.5	1.61e-04	0	44	0	682622976	16	3949
2026-01-27 00:56:26.71	283.84	65.50	-28.9	-29.7	16.0	0.00e+00	0	44	0	684720128	17	3979
2026-01-27 00:56:27.72	282.71	65.41	-29.0	-29.7	15.7	0.00e+00	0	44	0	685768704	18	3871
2026-01-27 00:56:28.72	281.60	65.31	-29.0	-29.6	15.7	0.00e+00	0	44	0	687865856	18	3857
2026-01-27 00:56:29.72	280.50	65.20	-29.1	-29.8	15.7	0.00e+00	0	44	0	689963008	18	3905
2026-01-27 00:56:30.72	279.41	65.09	-28.3	-29.2	15.6	0.00e+00	0	44	0	692060160	18	3995
2026-01-27 00:56:31.73	278.33	64.97	-29.2	-29.5	15.5	1.78e-04	0	44	0	694157312	19	3739
2026-01-27 00:56:32.73	277.26	64.84	-29.3	-30.4	15.3	2.40e-04	0	44	0	695205888	18	4065
2026-01-27 00:56:33.73	276.21	64.70	-29.6	-30.4	15.0	0.00e+00	0	44	0	697303040	19	3982
2026-01-27 00:56:34.74	275.16	64.55	-29.2	-29.4	15.5	1.47e-04	0	44	0	699400192	19	3717
2026-01-27 00:56:35.73	274.15	64.40	-28.5	-28.9	16.4	1.78e-04	0	44	0	701497344	17	3776
2026-01-27 00:56:36.74	273.13	64.24	-28.1	-28.4	17.0	0.00e+00	0	44	0	703594496	16	3732
2026-01-27 00:56:37.74	272.13	64.08	-27.8	-27.7	17.3	3.69e-04	0	44	0	704643072	16	3580
2026-01-27 00:56:38.75	271.14	63.90	-28.3	-29.0	16.6	5.48e-04	0	44	0	706740224	16	3875
2026-01-27 00:56:39.75	270.17	63.72	-28.5	-29.3	16.5	0.00e+00	0	44	0	708837376	16	3962
2026-01-27 00:56:40.76	269.21	63.54	-27.5	-27.0	17.8	0.00e+00	0	44	0	710934528	16	3419
2026-01-27 00:56:41.76	268.27	63.35	-26.6	-26.6	18.5	5.03e-04	0	44	0	713031680	13	3608
2026-01-27 00:56:42.76	267.35	63.15	-27.5	-27.5	17.6	0.00e+00	0	44	0	714080256	15	3631
2026-01-27 00:56:43.77	266.44	62.94	-28.4	-29.1	16.7	0.00e+00	0	44	0	716177408	16	3909
2026-01-27 00:56:44.77	265.55	62.74	-27.8	-28.4	17.1	9.41e-04	0	44	0	718274560	15	3828
2026-01-27 00:56:45.78	264.66	62.52	-27.9	-28.6	17.0	0.00e+00	0	44	0	720371712	15	3903
2026-01-27 00:56:46.79	263.79	62.30	-28.6	-29.2	16.3	6.49e-04	0	44	0	722468864	17	3854
2026-01-27 00:56:47.79	262.95	62.08	-29.7	-30.9	14.7	9.97e-04	0	44	0	723517440	19	4124
2026-01-27 00:56:48.80	262.11	61.85	-30.7	-32.5	12.9	1.05e-03	0	44	0	725614592	21	4432
2026-01-27 00:56:49.80	261.30	61.62	-30.6	-32.3	13.0	2.20e-04	0	44	0	727711744	21	4370
2026-01-27 00:56:50.80	260.50	61.39	-30.4	-32.2	13.6	3.91e-04	0	44	0	729808896	20	4440
2026-01-27 00:56:51.81	259.71	61.14	-30.3	-32.0	13.6	9.70e-04	0	44	0	731906048	20	4343
2026-01-27 00:56:52.81	258.94	60.90	-30.1	-31.4	13.9	3.80e-04	0	44	0	732954624	20	4168
2026-01-27 00:56:53.81	258.19	60.65	-30.4	-32.3	13.5	2.02e-04	0	44	0	735051776	20	4443
2026-01-27 00:56:54.82	257.45	60.40	-31.0	-33.2	12.5	4.52e-04	0	44	0	737148928	21	4677
2026-01-27 00:56:55.82	256.72	60.15	-31.5	-33.7	11.5	6.45e-04	0	44	0	739246080	23	4645
2026-01-27 00:56:56.83	256.01	59.89	-31.9	-35.0	10.6	1.87e-03	0	44	0	741343232	23	5163
2026-01-27 00:56:57.83	255.31	59.63	-32.0	-35.1	10.0	9.66e-03	0	44	0	742391808	24	5141
2026-01-27 00:56:58.84	254.62	59.37	-31.7	-34.1	10.7	4.58e-03	0	44	0	744488960	24	4727
2026-01-27 00:56:59.84	253.95	59.10	-31.1	-32.5	12.4	2.94e-03	0	44	0	746586112	23	4241
2026-01-27 00:57:00.84	253.30	58.84	-30.5	-31.9	13.2	1.30e-04	0	44	0	748683264	21	4249
2026-01-27 00:57:01.85	252.65	58.56	-30.3	-31.3	13.6	1.06e-05	0	44	0	749731840	21	4071
2026-01-27 00:57:02.86	252.02	58.29	-30.5	-31.9	13.2	1.74e-03	0	44	0	751828992	21	4243
2026-01-27 00:57:03.86	251.40	58.02	-31.2	-33.6	11.9	1.29e-03	0	44	0	753926144	22	4723
2026-01-27 00:57:04.87	250.80	57.74	-31.6	-34.3	10.9	1.84e-03	0	44	0	756023296	23	4912
2026-01-27 00:57:05.88	250.20	57.46	-31.2	-32.9	11.9	1.82e-03	0	44	0	758120448	23	4377
2026-01-27 00:57:06.88	249.62	57.18	-30.9	-32.7	12.4	1.50e-04	0	44	0	760217600	22	4415
2026-01-27 00:57:07.88	249.05	56.91	-31.0	-32.9	12.3	2.07e-04	0	44	0	761266176	22	4472
2026-01-27 00:57:08.88	248.50	56.63	-31.8	-34.8	10.6	2.18e-03	0	44	0	763363328	23	5125
2026-01-27 00:57:09.88	247.96	56.34	-31.6	-34.5	10.7	9.98e-03	0	44	0	765460480	23	4976
2026-01-27 00:57:10.88	247.42	56.06	-31.6	-34.2	11.0	1.63e-03	0	44	0	767557632	23	4868
2026-01-27 00:57:11.89	246.90	55.77	-31.1	-32.7	12.1	3.24e-03	0	44	0	768606208	23	4323
2026-01-27 00:57:12.89	246.38	55.49	-31.0	-33.3	12.3	2.48e-03	0	44	0	770703360	21	4707
2026-01-27 00:57:13.89	245.88	55.21	-31.4	-34.2	11.4	2.22e-04	0	44	0	772800512	22	4947
2026-01-27 00:57:14.90	245.39	54.92	-31.8	-35.1	10.3	5.01e-03	0	44	0	774897664	23	5235
2026-01-27 00:57:15.90	244.91	54.63	-31.4	-33.6	11.3	4.22e-03	0	44	0	776994816	23	4651
2026-01-27 00:57:16.90	244.43	54.34	-31.0	-32.9	12.2	1.69e-04	0	44	0	778043392	22	4489
2026-01-27 00:57:17.91	243.97	54.05	-30.6	-32.2	13.0	4.07e-04	0	44	0	780140544	21	4339
2026-01-27 00:57:18.91	243.52	53.77	-30.4	-31.8	13.2	2.33e-04	0	44	0	782237696	21	4232
2026-01-27 00:57:19.92	243.07	53.48	-30.2	-31.3	13.5	3.81e-05	0	44	0	784334848	21	4078
2026-01-27 00:57:20.92	242.63	53.19	-30.9	-33.3	12.3	2.34e-04	0	44	0	786432000	21	4738
2026-01-27 00:57:21.92	242.21	52.90	-30.9	-32.8	12.3	2.46e-04	0	44	0	787480576	22	4446
2026-01-27 00:57:22.92	241.79	52.61	-31.3	-33.8	11.6	3.67e-04	0	44	0	789577728	22	4825
2026-01-27 00:57:23.92	241.38	52.33	-31.1	-33.2	12.0	1.47e-03	0	44	0	791674880	22	4591
2026-01-27 00:57:24.92	240.97	52.04	-31.0	-32.9	12.1	7.76e-04	0	44	0	793772032	22	4491
2026-01-27 00:57:25.92	240.58	51.75	-30.8	-32.3	12.5	1.01e-04	0	44	0	794820608	22	4303
2026-01-27 00:57:26.92	240.19	51.47	-30.4	-31.8	13.1	4.01e-04	0	44	0	796917760	21	4234
2026-01-27 00:57:27.92	239.81	51.18	-29.7	-30.5	14.4	1.94e-04	0	44	0	799014912	20	3924
2026-01-27 00:57:28.92	239.44	50.89	-29.3	-29.8	15.2	0.00e+00	0	44	0	801112064	19	3820
2026-01-27 00:57:29.92	239.08	50.61	-29.5	-30.3	14.8	4.11e-05	0	44	0	803209216	19	3962
2026-01-27 00:57:30.93	238.71	50.32	-29.8	-31.1	14.3	6.80e-06	0	44	0	805306368	19	4186
2026-01-27 00:57:31.93	238.36	50.04	-29.9	-31.4	14.1	2.20e-06	0	44	0	806354944	19	4295
2026-01-27 00:57:32.93	238.02	49.75	-30.0	-31.3	13.8	1.50e-06	0	44	0	808452096	20	4159
2026-01-27 00:57:33.94	237.68	49.47	-31.0	-33.5	12.1	3.99e-04	0	44	0	810549248	21	4789
2026-01-27 00:57:34.94	237.34	49.19	-30.9	-32.8	12.2	2.42e-04	0	44	0	812646400	22	4459
2026-01-27 00:57:35.94	237.02	48.90	-30.9	-32.8	12.1	1.85e-04	0	44	0	813694976	22	4481
2026-01-27 00:57:36.94	236.70	48.62	-31.3	-34.1	11.2	5.56e-04	0	44	0	815792128	22	4934
2026-01-27 00:57:37.93	236.39	48.35	-31.8	-35.0	10.2	3.34e-03	0	44	0	817889280	23	5222
2026-01-27 00:57:38.93	236.08	48.07	-31.0	-32.5	12.0	5.02e-04	0	44	0	819986432	23	4275
2026-01-27 00:57:39.94	235.77	47.79	-30.1	-31.0	13.6	2.13e-05	0	44	0	822083584	21	3998
2026-01-27 00:57:40.94	235.47	47.51	-30.6	-32.4	12.8	1.52e-05	0	44	0	823132160	21	4413
2026-01-27 00:57:41.94	235.18	47.23	-30.7	-32.6	12.6	6.46e-04	0	44	0	825229312	21	4504
2026-01-27 00:57:42.94	234.89	46.96	-30.3	-32.2	13.1	2.44e-05	0	44	0	827326464	20	4477
2026-01-27 00:57:43.94	234.61	46.68	-29.9	-30.9	14.0	4.50e-06	0	44	0	829423616	20	4053
2026-01-27 00:57:44.94	234.33	46.41	-30.4	-32.3	13.1	4.80e-04	0	44	0	831520768	20	4496
2026-01-27 00:57:45.94	234.06	46.14	-30.9	-33.4	12.0	1.99e-04	0	44	0	832569344	21	4802
2026-01-27 00:57:46.94	233.79	45.87	-31.5	-34.6	10.9	1.31e-03	0	44	0	834666496	22	5159
2026-01-27 00:57:47.94	233.53	45.60	-31.7	-34.9	10.2	2.69e-03	0	44	0	836763648	23	5216
2026-01-27 00:57:48.95	233.27	45.33	-31.9	-35.8	9.5	5.86e-03	0	44	0	838860800	23	5613
2026-01-27 00:57:49.95	233.02	45.06	-31.7	-34.8	10.2	6.25e-03	0	44	0	839909376	23	5174
2026-01-27 00:57:50.95	232.77	44.79	-31.5	-34.3	10.6	4.47e-03	0	44	0	842006528	23	4965
2026-01-27 00:57:51.95	232.52	44.53	-31.2	-33.2	11.4	3.43e-03	0	44	0	844103680	23	4544
2026-01-27 00:57:52.96	232.28	44.26	-31.4	-33.9	11.0	1.56e-03	0	44	0	846200832	23	4808
2026-01-27 00:57:53.96	232.04	44.00	-31.7	-34.9	10.2	4.08e-03	0	44	0	848297984	23	5225
2026-01-27 00:57:54.97	231.80	43.73	-31.3	-33.5	11.2	1.54e-03	0	44	0	849346560	23	4654
2026-01-27 00:57:55.97	231.57	43.47	-30.4	-31.4	13.0	5.26e-05	0	44	0	851443712	22	4051
2026-01-27 00:57:56.97	231.35	43.21	-30.2	-31.7	13.4	1.22e-05	0	44	0	853540864	20	4316
2026-01-27 00:57:57.97	231.12	42.96	-30.0	-31.4	13.7	8.30e-06	0	44	0	855638016	20	4211
2026-01-27 00:57:58.98	230.90	42.70	-30.1	-31.7	13.3	8.30e-06	0	44	0	857735168	20	4292
2026-01-27 00:57:59.98	230.69	42.44	-30.5	-32.2	12.8	5.34e-05	0	44	0	858783744	21	4379
2026-01-27 00:58:00.99	230.47	42.18	-30.8	-33.2	12.1	8.01e-05	0	44	0	860880896	21	4719
2026-01-27 00:58:01.99	230.26	41.93	-31.3	-34.1	11.1	4.30e-04	0	44	0	862978048	22	4986
2026-01-27 00:58:02.99	230.06	41.68	-31.5	-34.7	10.9	7.21e-04	0	44	0	865075200	22	5228
2026-01-27 00:58:03.99	229.86	41.43	-32.1	-35.9	9.0	9.62e-03	0	44	0	867172352	24	5577
2026-01-27 00:58:05.00	229.66	41.18	-32.1	-35.8	9.1	2.85e-02	0	44	0	868220928	24	5556
2026-01-27 00:58:06.00	229.46	40.93	-32.3	-36.9	8.3	5.38e-02	0	44	0	870318080	24	6074
2026-01-27 00:58:07.01	229.27	40.68	-32.3	-36.7	8.4	4.62e-02	0	44	0	872415232	24	5950
2026-01-27 00:58:08.01	229.08	40.44	-32.5	-36.9	7.9	6.65e-02	0	44	0	874512384	25	6012
2026-01-27 00:58:09.01	228.89	40.19	-32.0	-35.0	9.3	4.41e-02	0	44	0	876609536	25	5065
2026-01-27 00:58:10.01	228.70	39.95	-31.5	-33.8	10.6	7.70e-03	0	44	0	877658112	24	4672
2026-01-27 00:58:11.01	228.52	39.71	-30.8	-32.2	12.1	4.65e-04	0	44	0	879755264	23	4192
2026-01-27 00:58:12.01	228.34	39.47	-31.0	-33.0	11.8	5.61e-04	0	44	0	881852416	22	4561
2026-01-27 00:58:13.01	228.17	39.23	-30.5	-32.2	12.8	3.18e-04	0	44	0	883949568	21	4375
2026-01-27 00:58:14.01	227.99	39.00	-31.0	-33.7	11.7	2.34e-04	0	44	0	884998144	21	4912
2026-01-27 00:58:15.01	227.82	38.76	-30.9	-32.8	12.0	6.36e-04	0	44	0	887095296	22	4477
2026-01-27 00:58:16.01	227.66	38.53	-31.2	-33.8	11.3	8.60e-04	0	44	0	889192448	22	4878
2026-01-27 00:58:17.02	227.49	38.29	-31.0	-33.1	11.8	7.99e-04	0	44	0	891289600	22	4610
2026-01-27 00:58:18.02	227.32	38.06	-31.1	-33.5	11.4	8.58e-04	0	44	0	893386752	22	4739
2026-01-27 00:58:19.03	227.16	37.83	-31.7	-34.8	10.1	2.61e-03	0	44	0	895483904	23	5182
2026-01-27 00:58:20.03	227.00	37.60	-32.0	-36.1	9.0	1.40e-02	0	44	0	896532480	23	5782
2026-01-27 00:58:21.03	226.85	37.37	-31.7	-35.2	9.6	2.03e-02	0	44	0	898629632	23	5337
2026-01-27 00:58:22.03	226.69	37.14	-31.9	-35.9	9.4	1.42e-02	0	44	0	900726784	23	5690
2026-01-27 00:58:23.04	226.54	36.92	-31.8	-35.2	9.8	1.50e-02	0	44	0	902823936	23	5360
2026-01-27 00:58:24.04	226.39	36.69	-31.5	-34.3	10.4	7.53e-03	0	44	0	903872512	23	4986
2026-01-27 00:58:25.04	226.24	36.47	-31.8	-35.3	9.7	1.13e-02	0	44	0	905969664	23	5410
2026-01-27 00:58:26.05	226.09	36.25	-31.8	-35.6	9.6	1.21e-02	0	44	0	908066816	23	5529
2026-01-27 00:58:27.05	225.95	36.03	-31.7	-35.2	9.8	1.17e-02	0	44	0	910163968	23	5342
2026-01-27 00:58:28.05	225.81	35.81	-31.5	-34.3	10.5	4.89e-03	0	44	0	912261120	23	4968
2026-01-27 00:58:29.06	225.66	35.59	-31.5	-34.7	10.6	2.52e-03	0	44	0	913309696	22	5233
2026-01-27 00:58:30.06	225.53	35.37	-31.3	-34.1	11.0	3.50e-03	0	44	0	915406848	22	5003
2026-01-27 00:58:31.06	225.39	35.16	-31.6	-34.6	10.4	3.08e-03	0	44	0	917504000	23	5117
2026-01-27 00:58:32.06	225.25	34.94	-31.4	-34.1	10.6	4.15e-03	0	44	0	919601152	23	4893
2026-01-27 00:58:33.06	225.12	34.73	-31.2	-33.9	11.2	1.43e-03	0	44	0	921698304	22	4903
2026-01-27 00:58:34.07	224.99	34.52	-30.9	-32.9	11.8	7.51e-04	0	44	0	922746880	22	4532
2026-01-27 00:58:35.07	224.86	34.31	-30.4	-32.1	12.7	8.39e-05	0	44	0	924844032	21	4356
2026-01-27 00:58:36.07	224.73	34.10	-30.4	-31.9	12.9	6.79e-05	0	44	0	926941184	21	4300
2026-01-27 00:58:37.07	224.61	33.89	-30.0	-31.0	13.5	1.52e-05	0	44	0	929038336	21	4001
2026-01-27 00:58:38.07	224.48	33.69	-30.1	-31.6	13.4	1.29e-05	0	44	0	930086912	20	4288
2026-01-27 00:58:39.07	224.36	33.48	-30.8	-33.0	12.1	5.41e-05	0	44	0	932184064	21	4682
2026-01-27 00:58:40.08	224.24	33.28	-31.5	-34.8	10.5	9.38e-04	0	44	0	934281216	22	5260
2026-01-27 00:58:41.07	224.12	33.08	-31.3	-33.7	11.0	2.55e-03	0	44	0	936378368	23	4743
2026-01-27 00:58:42.07	224.00	32.87	-31.1	-33.6	11.4	1.89e-03	0	44	0	938475520	22	4786
2026-01-27 00:58:43.07	223.88	32.67	-30.8	-32.7	12.0	1.12e-03	0	44	0	939524096	22	4472
2026-01-27 00:58:44.08	223.77	32.47	-30.7	-32.8	12.2	6.56e-04	0	44	0	941621248	21	4614
2026-01-27 00:58:45.08	223.65	32.28	-30.8	-33.1	12.0	3.94e-04	0	44	0	943718400	21	4696
2026-01-27 00:58:46.09	223.54	32.08	-31.1	-33.6	11.4	5.40e-04	0	44	0	945815552	22	4777
2026-01-27 00:58:47.09	223.43	31.88	-31.3	-34.1	10.9	1.83e-03	0	44	0	947912704	22	5003
2026-01-27 00:58:48.09	223.32	31.69	-31.0	-33.3	11.5	2.74e-03	0	44	0	948961280	22	4673
2026-01-27 00:58:49.09	223.21	31.49	-30.6	-32.1	12.4	9.92e-04	0	44	0	951058432	22	4265
2026-01-27 00:58:50.09	223.10	31.30	-30.0	-31.0	13.4	9.84e-05	0	44	0	953155584	21	4010
2026-01-27 00:58:51.09	223.00	31.11	-29.7	-30.7	13.9	2.21e-05	0	44	0	955252736	20	4011
2026-01-27 00:58:52.09	222.89	30.92	-29.6	-30.3	14.1	8.08e-05	0	44	0	957349888	20	3917
2026-01-27 00:58:53.09	222.79	30.73	-29.8	-31.0	13.7	1.59e-04	0	44	0	958398464	20	4105
2026-01-27 00:58:54.09	222.69	30.55	-29.8	-30.9	13.8	7.70e-05	0	44	0	960495616	20	4072
2026-01-27 00:58:55.10	222.59	30.36	-30.0	-31.8	13.6	1.94e-04	0	44	0	962592768	19	4456
2026-01-27 00:58:56.09	222.49	30.17	-30.2	-32.1	13.0	1.49e-04	0	44	0	964689920	20	4469
2026-01-27 00:58:57.09	222.39	29.99	-30.3	-32.2	12.9	1.83e-05	0	44	0	966787072	20	4479
2026-01-27 00:58:58.10	222.29	29.81	-30.2	-32.0	13.0	1.72e-04	0	44	0	967835648	20	4435
2026-01-27 00:58:59.10	222.19	29.62	-30.2	-32.1	13.0	1.02e-03	0	44	0	969932800	20	4457
2026-01-27 00:59:00.10	222.10	29.44	-30.3	-32.4	12.8	6.33e-05	0	44	0	972029952	20	4551
2026-01-27 00:59:01.11	222.00	29.26	-30.6	-32.5	12.3	2.39e-04	0	44	0	974127104	21	4519
2026-01-27 00:59:02.11	221.91	29.08	-31.0	-33.8	11.4	1.63e-03	0	44	0	975175680	21	4995
2026-01-27 00:59:03.12	221.82	28.90	-31.6	-34.7	10.1	2.75e-03	0	44	0	977272832	23	5147
2026-01-27 00:59:04.12	221.73	28.73	-31.6	-34.9	9.9	6.81e-03	0	44	0	979369984	23	5246
2026-01-27 00:59:05.13	221.64	28.55	-31.9	-36.1	9.0	2.43e-02	0	44	0	981467136	23	5806
2026-01-27 00:59:06.13	221.55	28.37	-31.9	-35.8	9.1	2.67e-02	0	44	0	983564288	23	5690
2026-01-27 00:59:07.14	221.46	28.20	-31.8	-35.6	9.3	1.99e-02	0	44	0	985661440	23	5581
2026-01-27 00:59:08.13	221.37	28.03	-31.7	-35.2	9.6	1.75e-02	0	44	0	986710016	23	5406
2026-01-27 00:59:09.14	221.29	27.85	-31.6	-34.9	9.9	1.11e-02	0	44	0	988807168	23	5239
2026-01-27 00:59:10.14	221.20	27.68	-31.6	-34.8	10.0	9.06e-03	0	44	0	990904320	23	5218
2026-01-27 00:59:11.14	221.12	27.51	-31.5	-34.4	10.2	6.77e-03	0	44	0	993001472	23	5040
2026-01-27 00:59:12.14	221.04	27.35	-31.1	-33.1	11.2	2.48e-03	0	44	0	994050048	23	4552
2026-01-27 00:59:13.14	220.95	27.18	-30.9	-32.6	11.6	7.79e-04	0	44	0	996147200	23	4370
2026-01-27 00:59:14.15	220.87	27.01	-30.8	-32.7	11.9	7.01e-04	0	44	0	998244352	22	4478
2026-01-27 00:59:15.15	220.79	26.84	-30.6	-32.2	12.2	3.59e-04	0	44	0	1000341504	22	4324
2026-01-27 00:59:16.16	220.71	26.68	-30.6	-32.2	12.1	2.95e-04	0	44	0	1002438656	22	4333
2026-01-27 00:59:17.16	220.63	26.51	-30.2	-31.5	12.9	7.69e-04	0	44	0	1003487232	21	4210
2026-01-27 00:59:18.16	220.55	26.35	-30.4	-32.7	12.4	1.55e-03	0	44	0	1005584384	20	4677
2026-01-27 00:59:19.17	220.48	26.19	-30.0	-31.6	13.2	1.70e-04	0	44	0	1007681536	20	4316
2026-01-27 00:59:20.17	220.40	26.03	-29.8	-31.1	13.5	1.97e-03	0	44	0	1009778688	20	4163
2026-01-27 00:59:21.17	220.32	25.86	-30.1	-31.8	13.0	2.36e-05	0	44	0	1011875840	20	4391
2026-01-27 00:59:22.17	220.25	25.71	-30.1	-31.9	12.9	4.34e-05	0	44	0	1012924416	20	4425
2026-01-27 00:59:23.17	220.18	25.55	-30.3	-32.4	12.6	2.74e-03	0	44	0	1015021568	20	4579
2026-01-27 00:59:24.17	220.10	25.39	-30.5	-32.5	12.2	2.21e-03	0	44	0	1017118720	21	4543
2026-01-27 00:59:25.17	220.03	25.23	-30.5	-32.6	12.1	2.08e-04	0	44	0	1019215872	21	4565
2026-01-27 00:59:26.18	219.96	25.08	-30.7	-33.0	11.8	2.94e-03	0	44	0	1021313024	21	4722
2026-01-27 00:59:27.18	219.89	24.92	-30.6	-32.8	12.0	2.80e-03	0	44	0	1022361600	21	4642
2026-01-27 00:59:28.19	219.82	24.76	-30.5	-32.4	12.2	2.31e-04	0	44	0	1024458752	21	4501
2026-01-27 00:59:29.19	219.75	24.61	-30.4	-32.6	12.3	2.62e-03	0	44	0	1026555904	20	4660
2026-01-27 00:59:30.19	219.68	24.46	-30.3	-31.9	12.5	2.53e-03	0	44	0	1028653056	21	4334
2026-01-27 00:59:31.20	219.61	24.31	-30.3	-32.4	12.6	8.46e-05	0	44	0	1030750208	20	4597
2026-01-27 00:59:32.21	219.54	24.15	-30.4	-32.6	12.4	1.23e-04	0	44	0	1031798784	20	4668
2026-01-27 00:59:33.22	219.47	24.00	-30.3	-31.9	12.6	2.39e-03	0	44	0	1033895936	21	4327
2026-01-27 00:59:34.23	219.41	23.85	-30.7	-33.3	11.6	9.05e-04	0	44	0	1035993088	21	4806
2026-01-27 00:59:35.23	219.34	23.70	-31.0	-33.6	11.0	1.30e-03	0	44	0	1038090240	22	4862
2026-01-27 00:59:36.24	219.28	23.55	-31.1	-33.9	10.8	4.87e-03	0	44	0	1040187392	22	4969
2026-01-27 00:59:37.24	219.21	23.41	-31.2	-34.2	10.5	3.67e-03	0	44	0	1041235968	22	5112
2026-01-27 00:59:38.25	219.15	23.26	-31.3	-34.8	10.1	5.46e-03	0	44	0	1043333120	22	5328
2026-01-27 00:59:39.25	219.09	23.12	-31.5	-34.7	9.8	9.70e-03	0	44	0	1045430272	23	5206
2026-01-27 00:59:40.25	219.02	22.97	-31.5	-34.6	9.9	9.15e-03	0	44	0	1047527424	23	5191
2026-01-27 00:59:41.26	218.96	22.83	-31.4	-35.1	9.8	7.55e-03	0	44	0	1048576000	22	5475
2026-01-27 00:59:42.26	218.90	22.68	-31.5	-34.7	9.8	1.06e-02	0	44	0	1050673152	23	5215
2026-01-27 00:59:43.26	218.84	22.54	-31.5	-34.7	9.8	1.26e-02	0	44	0	1052770304	23	5226
2026-01-27 00:59:44.27	218.78	22.40	-31.0	-33.6	10.9	7.04e-03	0	44	0	1054867456	22	4857
2026-01-27 00:59:45.27	218.72	22.26	-30.5	-32.4	12.1	4.50e-04	0	44	0	1056964608	21	4516
2026-01-27 00:59:46.27	218.66	22.12	-30.0	-31.6	13.0	1.07e-04	0	44	0	1058013184	20	4349
2026-01-27 00:59:47.27	218.60	21.98	-29.9	-31.4	13.1	1.49e-03	0	44	0	1060110336	20	4256
2026-01-27 00:59:48.27	218.55	21.84	-29.7	-31.3	13.6	1.29e-05	0	44	0	1062207488	19	4331
2026-01-27 00:59:49.27	218.49	21.70	-29.6	-31.0	13.7	6.80e-06	0	44	0	1064304640	19	4245
2026-01-27 00:59:50.28	218.43	21.57	-29.7	-31.3	13.7	6.80e-06	0	44	0	1066401792	19	4323
2026-01-27 00:59:51.28	218.37	21.43	-29.7	-31.2	13.7	1.37e-05	0	44	0	1067450368	19	4276
2026-01-27 00:59:52.28	218.32	21.29	-29.5	-30.8	13.9	4.50e-06	0	44	0	1069547520	19	4178
2026-01-27 00:59:53.29	218.26	21.16	-29.7	-31.2	13.6	4.50e-06	0	44	0	1071644672	19	4303
2026-01-27 00:59:54.29	218.21	21.02	-29.7	-31.2	13.6	1.37e-05	0	44	0	1073741824	19	4287
2026-01-27 00:59:55.29	218.15	20.89	-29.8	-31.6	13.4	1.14e-05	0	44	0	1075838976	19	4419
2026-01-27 00:59:56.30	218.10	20.76	-29.9	-31.7	13.3	1.90e-05	0	44	0	1076887552	19	4456
2026-01-27 00:59:57.29	218.05	20.62	-29.9	-31.7	13.4	1.83e-05	0	44	0	1078984704	19	4456
2026-01-27 00:59:58.29	218.00	20.49	-29.9	-31.3	13.2	2.36e-05	0	44	0	1081081856	20	4237
2026-01-27 00:59:59.30	217.94	20.36	-29.8	-31.0	13.3	2.74e-05	0	44	0	1083179008	20	4153
2026-01-27 01:00:00.30	217.89	20.23	-29.9	-31.3	13.2	1.98e-05	0	44	0	1085276160	20	4245
2026-01-27 01:00:01.29	217.84	20.10	-29.8	-31.5	13.4	2.44e-05	0	44	0	1086324736	19	4403
2026-01-27 01:00:02.30	217.79	19.97	-29.8	-31.0	13.2	2.97e-05	0	44	0	1088421888	20	4170
2026-01-27 01:00:03.30	217.74	19.84	-29.8	-31.2	13.2	3.96e-05	0	44	0	1090519040	20	4207
2026-01-27 01:00:04.30	217.69	19.72	-29.8	-31.6	13.3	1.52e-05	0	44	0	1092616192	19	4431
2026-01-27 01:00:05.31	217.64	19.59	-30.0	-31.6	12.9	4.73e-05	0	44	0	1094713344	20	4339
2026-01-27 01:00:06.32	217.59	19.46	-29.8	-31.3	13.1	4.34e-05	0	44	0	1095761920	20	4239
2026-01-27 01:00:07.32	217.54	19.34	-30.0	-32.1	13.0	2.67e-05	0	44	0	1097859072	19	4607
2026-01-27 01:00:08.32	217.49	19.21	-30.0	-31.7	12.8	3.73e-05	0	44	0	1099956224	20	4364
2026-01-27 01:00:09.32	217.45	19.09	-30.0	-31.7	12.8	5.41e-05	0	44	0	1102053376	20	4371
2026-01-27 01:00:10.32	217.40	18.96	-29.9	-31.4	13.0	3.20e-05	0	44	0	1103101952	20	4270
2026-01-27 01:00:11.33	217.35	18.84	-30.0	-31.7	12.8	3.58e-05	0	44	0	1105199104	20	4372
2026-01-27 01:00:12.33	217.30	18.72	-30.1	-32.0	12.2	7.62e-05	0	44	0	1107296256	20	4473
2026-01-27 01:00:13.33	217.26	18.59	-30.0	-31.7	12.6	7.55e-05	0	44	0	1109393408	20	4379
2026-01-27 01:00:14.33	217.21	18.47	-30.2	-32.4	12.3	1.05e-04	0	44	0	1111490560	20	4607
2026-01-27 01:00:15.33	217.17	18.35	-30.3	-32.6	12.2	6.07e-04	0	44	0	1112539136	20	4698
2026-01-27 01:00:16.34	217.12	18.23	-29.3	-31.3	12.5	1.81e-04	0	44	0	1114636288	20	4532
2026-01-27 01:00:17.34	217.08	18.11	-30.4	-33.0	11.7	2.01e-04	0	44	0	1116733440	20	4832
2026-01-27 01:00:18.34	217.03	17.99	-30.5	-32.7	11.7	4.24e-04	0	44	0	1118830592	21	4635
2026-01-27 01:00:19.34	216.99	17.87	-30.5	-32.8	11.4	5.71e-04	0	44	0	1120927744	21	4675
2026-01-27 01:00:20.35	216.94	17.75	-30.8	-33.6	11.0	1.08e-03	0	44	0	1121976320	21	4976
2026-01-27 01:00:21.36	216.90	17.63	-30.9	-34.0	10.7	1.32e-03	0	44	0	1124073472	21	5166
2026-01-27 01:00:22.36	216.86	17.52	-31.1	-34.1	10.3	5.19e-03	0	44	0	1126170624	22	5094
2026-01-27 01:00:23.37	216.82	17.40	-31.0	-34.2	10.5	3.60e-03	0	44	0	1128267776	21	5225
2026-01-27 01:00:24.37	216.77	17.28	-31.0	-33.7	10.7	3.18e-03	0	44	0	1130364928	22	4941
2026-01-27 01:00:25.38	216.73	17.17	-31.1	-34.2	10.3	4.15e-03	0	44	0	1131413504	22	5127
2026-01-27 01:00:26.38	216.69	17.05	-31.1	-34.0	10.4	6.33e-03	0	44	0	1133510656	22	5066
2026-01-27 01:00:27.37	216.65	16.94	-31.0	-34.3	10.5	4.90e-03	0	44	0	1135607808	21	5276
2026-01-27 01:00:28.38	216.61	16.82	-30.7	-33.4	11.2	2.51e-03	0	44	0	1137704960	21	4896
2026-01-27 01:00:29.38	216.57	16.71	-30.7	-33.4	11.2	1.61e-03	0	44	0	1139802112	21	4894
2026-01-27 01:00:30.38	216.53	16.60	-30.5	-32.6	11.7	9.75e-04	0	44	0	1140850688	21	4623
2026-01-27 01:00:31.38	216.49	16.48	-30.4	-32.9	11.9	6.34e-04	0	44	0	1142947840	20	4801
2026-01-27 01:00:32.39	216.45	16.37	-30.6	-32.9	11.5	9.93e-04	0	44	0	1145044992	21	4730
2026-01-27 01:00:33.39	216.41	16.26	-30.5	-33.1	11.7	1.24e-03	0	44	0	1147142144	20	4881
2026-01-27 01:00:34.40	216.37	16.15	-30.1	-32.1	12.4	2.59e-04	0	44	0	1149239296	20	4527
2026-01-27 01:00:35.40	216.33	16.04	-30.0	-31.7	12.6	1.31e-04	0	44	0	1150287872	20	4399
2026-01-27 01:00:36.41	216.29	15.93	-29.9	-32.0	12.9	4.68e-04	0	44	0	1152385024	19	4563
2026-01-27 01:00:37.41	216.25	15.82	-29.9	-32.0	12.9	3.96e-05	0	44	0	1154482176	19	4564
2026-01-27 01:00:38.42	216.22	15.71	-29.7	-31.3	13.3	2.51e-05	0	44	0	1156579328	19	4335
2026-01-27 01:00:39.43	216.18	15.60	-29.7	-31.4	13.2	2.95e-04	0	44	0	1158676480	19	4372
2026-01-27 01:00:40.44	216.14	15.49	-29.8	-31.6	13.1	2.88e-04	0	44	0	1159725056	19	4439
2026-01-27 01:00:41.43	216.10	15.38	-29.5	-30.9	13.6	2.13e-05	0	44	0	1161822208	19	4213
2026-01-27 01:00:42.44	216.07	15.28	-29.5	-30.9	13.6	8.46e-05	0	44	0	1163919360	19	4210
2026-01-27 01:00:43.43	216.03	15.17	-29.5	-30.8	13.6	2.67e-04	0	44	0	1166016512	19	4197
2026-01-27 01:00:44.43	216.00	15.06	-29.4	-30.7	13.7	6.10e-06	0	44	0	1168113664	19	4164
2026-01-27 01:00:45.44	215.96	14.96	-29.6	-31.1	13.4	9.10e-06	0	44	0	1169162240	19	4302
2026-01-27 01:00:46.44	215.93	14.85	-29.9	-31.9	12.8	5.90e-04	0	44	0	1171259392	19	4559
2026-01-27 01:00:47.44	215.89	14.75	-29.9	-32.0	12.8	5.93e-04	0	44	0	1173356544	19	4565
2026-01-27 01:00:48.45	215.85	14.64	-29.9	-32.1	12.7	6.56e-05	0	44	0	1175453696	19	4630
2026-01-27 01:00:49.45	215.82	14.54	-30.0	-31.9	12.4	9.28e-04	0	44	0	1176502272	20	4478
2026-01-27 01:00:50.45	215.79	14.43	-30.1	-32.2	12.2	1.22e-03	0	44	0	1178599424	20	4558
2026-01-27 01:00:51.45	215.75	14.33	-30.1	-32.1	12.2	1.58e-04	0	44	0	1180696576	20	4542
2026-01-27 01:00:52.46	215.72	14.23	-30.3	-32.7	11.8	3.07e-04	0	44	0	1182793728	20	4760
2026-01-27 01:00:53.46	215.68	14.13	-30.2	-32.5	11.9	1.77e-03	0	44	0	1184890880	20	4697
2026-01-27 01:00:54.47	215.65	14.02	-30.4	-33.0	11.6	7.56e-04	0	44	0	1185939456	20	4861
2026-01-27 01:00:55.47	215.62	13.92	-30.3	-32.7	11.8	5.88e-04	0	44	0	1188036608	20	4768
2026-01-27 01:00:56.47	215.58	13.82	-30.3	-32.9	11.7	1.53e-03	0	44	0	1190133760	20	4815
2026-01-27 01:00:57.48	215.55	13.72	-30.4	-33.0	11.6	6.86e-04	0	44	0	1192230912	20	4867
2026-01-27 01:00:58.48	215.52	13.62	-30.3	-32.9	11.6	1.97e-03	0	44	0	1194328064	20	4824
2026-01-27 01:00:59.48	215.49	13.52	-30.3	-32.7	11.8	1.62e-03	0	44	0	1195376640	20	4746
2026-01-27 01:01:00.48	215.46	13.42	-30.3	-32.6	11.8	4.46e-04	0	44	0	1197473792	20	4739
2026-01-27 01:01:01.49	215.42	13.32	-30.1	-32.2	12.1	1.53e-03	0	44	0	1199570944	20	4577
2026-01-27 01:01:02.49	215.39	13.22	-30.2	-32.5	11.9	3.44e-04	0	44	0	1201668096	20	4700
2026-01-27 01:01:03.49	215.36	13.12	-30.1	-32.1	12.1	3.71e-04	0	44	0	1203765248	20	4542
2026-01-27 01:01:04.50	215.33	13.02	-30.1	-32.3	12.0	1.46e-03	0	44	0	1204813824	20	4610
2026-01-27 01:01:05.50	215.30	12.93	-30.1	-32.2	12.1	1.29e-03	0	44	0	1206910976	20	4572
2026-01-27 01:01:06.51	215.27	12.83	-30.0	-32.0	12.1	3.26e-04	0	44	0	1209008128	20	4526
2026-01-27 01:01:07.51	215.24	12.73	-30.0	-32.1	12.1	1.15e-03	0	44	0	1211105280	20	4537
2026-01-27 01:01:08.51	215.21	12.64	-30.0	-31.9	12.3	1.07e-03	0	44	0	1213202432	20	4475
2026-01-27 01:01:09.52	215.18	12.54	-30.0	-31.9	12.2	3.35e-04	0	44	0	1214251008	20	4489
2026-01-27 01:01:10.53	215.15	12.44	-29.9	-31.8	12.3	9.79e-04	0	44	0	1216348160	20	4446
2026-01-27 01:01:11.52	215.12	12.35	-30.0	-31.8	12.3	1.04e-03	0	44	0	1218445312	20	4456
2026-01-27 01:01:12.53	215.09	12.25	-30.0	-31.8	12.3	2.53e-04	0	44	0	1220542464	20	4464
2026-01-27 01:01:13.53	215.06	12.16	-29.9	-31.6	12.4	9.70e-04	0	44	0	1222639616	20	4382
2026-01-27 01:01:14.53	215.03	12.06	-30.1	-32.1	12.0	8.03e-04	0	44	0	1223688192	20	4568
2026-01-27 01:01:15.54	215.00	11.97	-30.1	-32.2	11.9	4.55e-04	0	44	0	1225785344	20	4604
2026-01-27 01:01:16.53	214.97	11.88	-30.1	-32.2	11.9	3.76e-04	0	44	0	1227882496	20	4607
2026-01-27 01:01:17.53	214.95	11.78	-30.2	-32.7	11.6	8.48e-04	0	44	0	1229979648	20	4768
2026-01-27 01:01:18.54	214.92	11.69	-30.2	-32.6	11.7	7.52e-04	0	44	0	1231028224	20	4741
2026-01-27 01:01:19.54	214.89	11.60	-30.2	-32.5	11.7	8.24e-04	0	44	0	1233125376	20	4694
2026-01-27 01:01:20.55	214.86	11.51	-30.1	-32.4	11.8	6.09e-04	0	44	0	1235222528	20	4657
2026-01-27 01:01:21.55	214.84	11.41	-30.3	-32.8	11.5	7.96e-04	0	44	0	1237319680	20	4824
2026-01-27 01:01:22.56	214.81	11.32	-30.3	-33.1	11.3	1.20e-03	0	44	0	1239416832	20	4919
2026-01-27 01:01:23.56	214.78	11.23	-30.2	-32.6	11.6	7.12e-04	0	44	0	1240465408	20	4746
2026-01-27 01:01:24.56	214.75	11.14	-30.3	-32.9	11.4	8.71e-04	0	44	0	1242562560	20	4873
2026-01-27 01:01:25.56	214.73	11.05	-30.3	-33.0	11.3	1.44e-03	0	44	0	1244659712	20	4898
2026-01-27 01:01:26.56	214.70	10.96	-30.2	-32.6	11.5	6.76e-04	0	44	0	1246756864	20	4769
2026-01-27 01:01:27.57	214.67	10.87	-30.2	-32.6	11.5	7.34e-04	0	44	0	1248854016	20	4766
2026-01-27 01:01:28.57	214.65	10.78	-30.2	-32.7	11.5	1.27e-03	0	44	0	1249902592	20	4806
2026-01-27 01:01:29.58	214.62	10.69	-30.3	-32.9	11.3	1.04e-03	0	44	0	1251999744	20	4875
2026-01-27 01:01:30.58	214.60	10.60	-30.4	-33.4	11.0	1.51e-03	0	44	0	1254096896	20	5064
2026-01-27 01:01:31.59	214.57	10.51	-30.5	-33.5	10.9	1.66e-03	0	44	0	1256194048	20	5101
2026-01-27 01:01:32.59	214.54	10.42	-30.3	-33.1	11.1	1.87e-03	0	44	0	1258291200	20	4970
2026-01-27 01:01:33.60	214.52	10.34	-30.4	-33.3	11.1	1.43e-03	0	44	0	1259339776	20	5014
2026-01-27 01:01:34.60	214.49	10.25	-30.4	-33.3	10.9	1.60e-03	0	44	0	1261436928	20	5036
2026-01-27 01:01:35.60	214.47	10.16	-30.3	-33.1	11.2	1.73e-03	0	44	0	1263534080	20	4950
2026-01-27 01:01:36.60	214.44	10.07	-30.3	-33.0	11.2	1.48e-03	0	44	0	1265631232	20	4927
2026-01-27 01:01:37.61	214.42	9.99	-30.5	-33.6	10.8	2.13e-03	0	44	0	1267728384	20	5160
2026-01-27 01:01:38.60	214.40	9.90	-30.4	-33.0	10.9	2.47e-03	0	44	0	1268776960	21	4819
2026-01-27 01:01:39.61	214.37	9.81	-30.6	-33.6	10.4	2.73e-03	0	44	0	1270874112	21	5059
2026-01-27 01:01:40.61	214.35	9.73	-30.6	-33.6	10.4	5.06e-03	0	44	0	1272971264	21	5068
2026-01-27 01:01:41.61	214.32	9.64	-30.5	-33.2	10.6	3.04e-03	0	44	0	1275068416	21	4927
2026-01-27 01:01:42.61	214.30	9.56	-30.6	-33.4	10.5	3.32e-03	0	44	0	1276116992	21	5007
2026-01-27 01:01:43.61	214.27	9.47	-30.6	-33.5	10.4	5.00e-03	0	44	0	1278214144	21	5042
2026-01-27 01:01:44.60	214.25	9.39	-30.7	-33.7	10.2	4.60e-03	0	44	0	1280311296	21	5129
2026-01-27 01:01:45.61	214.23	9.30	-30.7	-34.0	10.1	5.82e-03	0	44	0	1282408448	21	5234
2026-01-27 01:01:46.61	214.20	9.22	-30.7	-33.8	10.2	9.36e-03	0	44	0	1284505600	21	5151
2026-01-27 01:01:47.62	214.18	9.14	-30.7	-33.7	10.2	6.31e-03	0	44	0	1285554176	21	5139
2026-01-27 01:01:48.61	214.16	9.05	-30.6	-33.5	10.4	4.87e-03	0	44	0	1287651328	21	5042
