passes_logs/2026/01/27/R2M6_AANII_01/R2M6_AANII_01__20260127_110351_NOAA_20_JPSS-1_rec.log

#Pass ID: 20260127_110351_NOAA 20 (JPSS-1)
#Satellite: NOAA 20 (JPSS-1)
#Configuration: NOAA 20
#almurnet v.1.7.20240730
#Start time: 2026-01-27 11:03:52

#Version: 2.2.20231116
#Station: R2M6_AANII_01
#Location: 30.233357 lon 59.946436 lat
#TLE: 1 43013U 17073A   26026.81907703  .00000149  00000+0  91399-4 0  9998
#TLE: 2 43013  98.7647 327.6343 0000991  22.4130 337.7089 14.19540778424411

#Time	Az	El	Level	Level2	SNR	BER	BlckErr	Temp	State	Recorded	gain1	gain2
2026-01-27 11:03:52.59	183.54	7.05	-31.5	-36.9	5.2	1.23e+00	0	41	0	0	23	6721
2026-01-27 11:03:53.59	183.59	7.12	-32.0	-38.6	4.9	1.32e+00	0	41	104	0	24	7699
2026-01-27 11:03:54.60	183.64	7.20	-32.0	-38.5	7.3	8.77e-02	0	42	0	0	24	7615
2026-01-27 11:03:55.60	183.68	7.27	-32.0	-38.3	7.5	1.18e-01	0	41	0	1048576	24	7465
2026-01-27 11:03:56.60	183.73	7.35	-31.8	-37.5	8.2	7.62e-02	0	42	0	3145728	24	6891
2026-01-27 11:03:57.60	183.78	7.42	-31.6	-36.6	8.9	3.64e-02	0	42	0	5242880	24	6392
2026-01-27 11:03:58.61	183.83	7.50	-31.4	-35.8	9.6	2.19e-02	0	42	0	7340032	24	5944
2026-01-27 11:03:59.61	183.87	7.58	-31.2	-35.4	10.2	7.06e-03	0	42	0	9437184	23	5864
2026-01-27 11:04:00.61	183.92	7.65	-31.0	-34.7	10.8	3.10e-03	0	42	0	10485760	23	5525
2026-01-27 11:04:01.61	183.97	7.73	-30.8	-34.2	11.1	2.36e-03	0	42	0	12582912	23	5303
2026-01-27 11:04:02.61	184.02	7.80	-30.8	-34.1	11.2	1.34e-03	0	42	0	14680064	23	5273
2026-01-27 11:04:03.62	184.07	7.88	-30.8	-34.7	11.2	1.27e-03	0	42	0	16777216	22	5634
2026-01-27 11:04:04.62	184.12	7.96	-30.7	-34.3	11.5	1.52e-03	0	42	0	17825792	22	5447
2026-01-27 11:04:05.62	184.17	8.04	-30.8	-34.5	11.4	1.10e-03	0	42	0	19922944	22	5518
2026-01-27 11:04:06.63	184.22	8.11	-30.8	-34.7	11.2	1.42e-03	0	42	0	22020096	22	5602
2026-01-27 11:04:07.63	184.27	8.19	-30.8	-34.7	11.2	1.28e-03	0	42	0	24117248	22	5613
2026-01-27 11:04:08.64	184.32	8.27	-30.8	-34.6	11.3	1.15e-03	0	42	0	26214400	22	5567
2026-01-27 11:04:09.64	184.37	8.35	-30.9	-34.7	11.3	1.17e-03	0	42	0	27262976	22	5611
2026-01-27 11:04:10.64	184.42	8.43	-30.8	-34.6	11.3	8.79e-04	0	42	0	29360128	22	5566
2026-01-27 11:04:11.65	184.47	8.51	-30.9	-34.9	11.1	1.44e-03	0	42	0	31457280	22	5686
2026-01-27 11:04:12.65	184.52	8.58	-30.9	-34.7	11.3	1.36e-03	0	42	0	33554432	22	5622
2026-01-27 11:04:13.65	184.57	8.66	-30.9	-34.8	11.3	1.40e-03	0	42	0	35651584	22	5630
2026-01-27 11:04:14.66	184.62	8.74	-30.9	-35.0	11.1	1.24e-03	0	42	0	36700160	22	5728
2026-01-27 11:04:15.66	184.67	8.82	-30.8	-34.6	11.4	1.12e-03	0	42	0	38797312	22	5539
2026-01-27 11:04:16.66	184.73	8.90	-30.8	-34.7	11.4	1.03e-03	0	42	0	40894464	22	5590
2026-01-27 11:04:17.67	184.78	8.98	-30.8	-34.6	11.4	1.14e-03	0	42	0	42991616	22	5551
2026-01-27 11:04:18.67	184.83	9.06	-30.7	-34.3	11.6	8.06e-04	0	42	0	45088768	22	5411
2026-01-27 11:04:19.67	184.88	9.14	-30.7	-34.2	11.7	6.68e-04	0	42	0	46137344	22	5386
2026-01-27 11:04:20.68	184.94	9.23	-30.7	-34.2	11.7	4.68e-04	0	42	0	48234496	22	5380
2026-01-27 11:04:21.68	184.99	9.31	-30.6	-33.9	11.9	4.98e-04	0	42	0	50331648	22	5275
2026-01-27 11:04:22.69	185.05	9.39	-30.8	-34.4	11.6	5.77e-04	0	42	0	52428800	22	5449
2026-01-27 11:04:23.70	185.10	9.47	-30.7	-34.1	11.8	6.15e-04	0	42	0	54525952	22	5333
2026-01-27 11:04:24.70	185.16	9.55	-30.6	-33.8	12.0	4.35e-04	0	42	0	55574528	22	5222
2026-01-27 11:04:25.70	185.21	9.63	-30.7	-34.0	11.9	3.95e-04	0	42	0	57671680	22	5294
2026-01-27 11:04:26.71	185.27	9.72	-30.7	-34.0	11.9	3.33e-04	0	43	0	59768832	22	5276
2026-01-27 11:04:27.72	185.32	9.80	-30.6	-33.7	12.2	2.54e-04	0	42	0	61865984	22	5145
2026-01-27 11:04:28.72	185.38	9.88	-30.7	-34.0	11.9	3.12e-04	0	42	0	63963136	22	5282
2026-01-27 11:04:29.72	185.43	9.97	-30.6	-33.9	12.0	3.07e-04	0	43	0	65011712	22	5226
2026-01-27 11:04:30.72	185.49	10.05	-30.5	-33.6	12.2	2.30e-04	0	43	0	67108864	22	5109
2026-01-27 11:04:31.73	185.55	10.13	-30.5	-33.6	12.3	1.93e-04	0	43	0	69206016	22	5105
2026-01-27 11:04:32.73	185.60	10.22	-30.5	-33.4	12.4	1.74e-04	0	42	0	71303168	22	5031
2026-01-27 11:04:33.74	185.66	10.30	-30.5	-33.5	12.3	1.81e-04	0	43	0	73400320	22	5089
2026-01-27 11:04:34.74	185.72	10.38	-30.5	-33.5	12.3	1.64e-04	0	43	0	74448896	22	5064
2026-01-27 11:04:35.75	185.77	10.47	-30.5	-33.4	12.3	1.33e-04	0	42	0	76546048	22	5060
2026-01-27 11:04:36.75	185.83	10.55	-30.5	-33.6	12.3	1.93e-04	0	42	0	78643200	22	5102
2026-01-27 11:04:37.75	185.89	10.64	-30.6	-33.8	12.1	2.44e-04	0	43	0	80740352	22	5202
2026-01-27 11:04:38.76	185.95	10.73	-30.6	-33.6	12.2	3.18e-04	0	43	0	82837504	22	5132
2026-01-27 11:04:39.76	186.01	10.81	-30.4	-33.2	12.5	1.32e-04	0	43	0	83886080	22	4965
2026-01-27 11:04:40.76	186.07	10.90	-30.4	-33.0	12.6	6.63e-05	0	43	0	85983232	22	4903
2026-01-27 11:04:41.77	186.13	10.98	-30.3	-32.9	12.7	6.48e-05	0	43	0	88080384	22	4857
2026-01-27 11:04:42.78	186.19	11.07	-30.3	-33.0	12.7	9.99e-05	0	43	0	90177536	22	4872
2026-01-27 11:04:43.78	186.25	11.16	-30.3	-33.0	12.7	7.70e-05	0	43	0	91226112	22	4900
2026-01-27 11:04:44.79	186.31	11.25	-30.4	-33.3	12.5	9.15e-05	0	43	0	93323264	22	4989
2026-01-27 11:04:45.79	186.37	11.33	-30.4	-33.1	12.6	1.03e-04	0	43	0	95420416	22	4921
2026-01-27 11:04:46.80	186.43	11.42	-30.3	-32.9	12.7	7.85e-05	0	43	0	97517568	22	4868
2026-01-27 11:04:47.81	186.50	11.51	-30.3	-33.3	12.8	6.71e-05	0	43	0	99614720	21	5105
2026-01-27 11:04:48.80	186.56	11.60	-30.3	-33.4	12.8	5.79e-05	0	43	0	101711872	21	5133
2026-01-27 11:04:49.80	186.62	11.69	-30.2	-33.3	12.8	6.86e-05	0	43	0	102760448	21	5113
2026-01-27 11:04:50.80	186.68	11.77	-30.2	-33.3	12.8	5.95e-05	0	43	0	104857600	21	5098
2026-01-27 11:04:51.80	186.74	11.86	-30.3	-33.5	12.6	5.72e-05	0	43	0	106954752	21	5210
2026-01-27 11:04:52.81	186.81	11.95	-30.3	-33.3	12.8	6.25e-05	0	43	0	109051904	21	5134
2026-01-27 11:04:53.81	186.87	12.04	-30.2	-33.2	12.8	5.95e-05	0	43	0	110100480	21	5091
2026-01-27 11:04:54.81	186.94	12.13	-30.2	-33.1	13.0	3.66e-05	0	43	0	112197632	21	5028
2026-01-27 11:04:55.82	187.00	12.22	-30.2	-33.2	12.8	3.96e-05	0	43	0	114294784	21	5084
2026-01-27 11:04:56.82	187.07	12.31	-30.2	-33.2	12.8	4.73e-05	0	43	0	116391936	21	5095
2026-01-27 11:04:57.82	187.13	12.40	-30.1	-32.9	13.1	2.28e-05	0	43	0	118489088	21	4958
2026-01-27 11:04:58.83	187.20	12.50	-30.2	-33.2	12.9	4.19e-05	0	43	0	119537664	21	5071
2026-01-27 11:04:59.84	187.26	12.59	-30.1	-32.8	13.1	2.74e-05	0	43	0	121634816	21	4936
2026-01-27 11:05:00.84	187.33	12.68	-30.0	-32.6	13.3	2.59e-05	0	43	0	123731968	21	4845
2026-01-27 11:05:01.85	187.40	12.77	-30.1	-32.8	13.3	2.13e-05	0	43	0	125829120	21	4903
2026-01-27 11:05:02.85	187.46	12.87	-30.1	-32.8	13.3	2.05e-05	0	43	0	127926272	21	4900
2026-01-27 11:05:03.85	187.53	12.96	-30.1	-32.8	13.3	1.37e-05	0	43	0	128974848	21	4904
2026-01-27 11:05:04.85	187.60	13.05	-30.2	-32.9	13.2	2.21e-05	0	43	0	131072000	21	4954
2026-01-27 11:05:05.85	187.67	13.14	-30.1	-32.9	13.2	3.12e-05	0	43	0	133169152	21	4936
2026-01-27 11:05:06.85	187.74	13.24	-30.2	-33.1	13.1	2.44e-05	0	43	0	135266304	21	5025
2026-01-27 11:05:07.85	187.81	13.33	-30.1	-32.7	13.4	2.44e-05	0	43	0	137363456	21	4850
2026-01-27 11:05:08.86	187.88	13.43	-29.9	-32.3	13.6	1.37e-05	0	43	0	138412032	21	4718
2026-01-27 11:05:09.86	187.95	13.52	-29.9	-32.2	13.7	8.30e-06	0	43	0	140509184	21	4687
2026-01-27 11:05:10.87	188.02	13.62	-29.9	-32.1	13.7	3.80e-06	0	43	0	142606336	21	4664
2026-01-27 11:05:11.86	188.09	13.71	-29.9	-32.1	13.7	3.80e-06	0	43	0	144703488	21	4677
2026-01-27 11:05:12.86	188.16	13.81	-29.8	-32.1	13.7	6.80e-06	0	43	0	146800640	21	4659
2026-01-27 11:05:13.86	188.23	13.90	-30.0	-32.5	13.4	1.60e-05	0	43	0	147849216	21	4801
2026-01-27 11:05:14.87	188.30	14.00	-29.8	-32.1	13.7	7.60e-06	0	43	0	149946368	21	4661
2026-01-27 11:05:15.88	188.38	14.10	-29.8	-32.0	13.8	4.50e-06	0	43	0	152043520	21	4632
2026-01-27 11:05:16.88	188.45	14.19	-29.8	-32.0	13.7	5.30e-06	0	43	0	154140672	21	4646
2026-01-27 11:05:17.88	188.52	14.29	-29.8	-32.4	13.8	4.50e-06	0	43	0	155189248	20	4872
2026-01-27 11:05:18.88	188.60	14.39	-29.8	-32.4	13.8	2.20e-06	0	43	0	157286400	20	4873
2026-01-27 11:05:19.89	188.67	14.49	-29.8	-32.6	13.6	5.30e-06	0	43	0	159383552	20	4951
2026-01-27 11:05:20.88	188.75	14.59	-29.7	-32.3	13.8	6.80e-06	0	43	0	161480704	20	4866
2026-01-27 11:05:21.88	188.82	14.68	-29.6	-32.0	14.0	5.30e-06	0	43	0	163577856	20	4753
2026-01-27 11:05:22.88	188.90	14.78	-29.6	-32.1	13.9	3.80e-06	0	43	0	164626432	20	4784
2026-01-27 11:05:23.89	188.98	14.88	-29.8	-32.5	13.7	5.30e-06	0	43	0	166723584	20	4928
2026-01-27 11:05:24.89	189.05	14.98	-29.8	-32.5	13.7	3.80e-06	0	43	0	168820736	20	4914
2026-01-27 11:05:25.89	189.13	15.08	-29.8	-32.5	13.7	6.80e-06	0	43	0	170917888	20	4912
2026-01-27 11:05:26.90	189.21	15.18	-29.8	-32.7	13.6	6.80e-06	0	43	0	173015040	20	4977
2026-01-27 11:05:27.89	189.29	15.28	-30.0	-33.1	13.3	1.29e-05	0	43	0	174063616	20	5133
2026-01-27 11:05:28.89	189.37	15.39	-29.8	-32.6	13.6	1.14e-05	0	43	0	176160768	20	4968
2026-01-27 11:05:29.90	189.45	15.49	-29.7	-32.3	13.8	7.60e-06	0	43	0	178257920	20	4843
2026-01-27 11:05:30.90	189.53	15.59	-29.7	-32.3	13.9	6.10e-06	0	43	0	180355072	20	4830
2026-01-27 11:05:31.91	189.61	15.69	-29.7	-32.3	13.8	6.80e-06	0	43	0	182452224	20	4850
2026-01-27 11:05:32.91	189.69	15.80	-30.0	-32.9	13.5	8.30e-06	0	43	0	183500800	20	5049
2026-01-27 11:05:33.91	189.77	15.90	-29.8	-32.3	13.9	3.00e-06	0	43	0	185597952	20	4851
2026-01-27 11:05:34.91	189.85	16.00	-29.6	-31.9	14.2	0.00e+00	0	43	0	187695104	20	4695
2026-01-27 11:05:35.92	189.94	16.11	-29.5	-31.6	14.5	7.00e-07	0	43	0	189792256	20	4577
2026-01-27 11:05:36.92	190.02	16.21	-29.4	-31.5	14.5	7.00e-07	0	43	0	191889408	20	4554
2026-01-27 11:05:37.92	190.10	16.32	-29.5	-31.5	14.5	3.00e-06	0	43	0	192937984	20	4560
2026-01-27 11:05:38.92	190.19	16.42	-29.4	-31.5	14.5	0.00e+00	0	43	0	195035136	20	4556
2026-01-27 11:05:39.93	190.27	16.53	-29.6	-31.9	14.2	1.50e-06	0	43	0	197132288	20	4685
2026-01-27 11:05:40.92	190.36	16.63	-29.5	-31.6	14.4	8.30e-06	0	43	0	199229440	20	4582
2026-01-27 11:05:41.93	190.44	16.74	-29.3	-31.3	14.6	1.50e-06	0	44	0	200278016	20	4484
2026-01-27 11:05:42.93	190.53	16.85	-29.3	-31.1	14.7	0.00e+00	0	43	0	202375168	20	4441
2026-01-27 11:05:43.94	190.62	16.96	-29.4	-31.4	14.6	7.60e-06	0	43	0	204472320	20	4525
2026-01-27 11:05:44.94	190.71	17.06	-29.3	-31.2	14.7	0.00e+00	0	43	0	206569472	20	4452
2026-01-27 11:05:45.94	190.80	17.17	-29.4	-31.4	14.6	0.00e+00	0	43	0	208666624	20	4521
2026-01-27 11:05:46.95	190.89	17.28	-29.5	-31.6	14.5	7.00e-07	0	43	0	209715200	20	4584
2026-01-27 11:05:47.96	190.98	17.39	-29.4	-31.3	14.7	0.00e+00	0	43	0	211812352	20	4490
2026-01-27 11:05:48.96	191.07	17.50	-29.4	-31.2	14.9	0.00e+00	0	43	0	213909504	20	4430
2026-01-27 11:05:49.97	191.16	17.61	-29.4	-31.3	14.8	3.00e-06	0	44	0	216006656	20	4486
2026-01-27 11:05:50.97	191.25	17.72	-29.4	-31.2	14.9	7.00e-07	0	43	0	218103808	20	4439
2026-01-27 11:05:51.97	191.34	17.83	-29.4	-31.4	14.8	0.00e+00	0	43	0	219152384	20	4496
2026-01-27 11:05:52.96	191.43	17.94	-29.5	-31.4	14.8	9.10e-06	0	43	0	221249536	20	4489
2026-01-27 11:05:53.97	191.53	18.05	-29.4	-31.3	14.9	0.00e+00	0	43	0	223346688	20	4483
2026-01-27 11:05:54.97	191.62	18.17	-29.5	-31.5	14.8	0.00e+00	0	44	0	225443840	20	4541
2026-01-27 11:05:55.97	191.72	18.28	-29.4	-31.3	14.9	5.30e-06	0	43	0	227540992	20	4466
2026-01-27 11:05:56.97	191.81	18.39	-29.4	-31.2	15.0	7.00e-07	0	44	0	228589568	20	4427
2026-01-27 11:05:57.98	191.91	18.50	-29.4	-31.2	14.9	0.00e+00	0	43	0	230686720	20	4429
2026-01-27 11:05:58.98	192.01	18.62	-29.3	-31.1	15.0	3.80e-06	0	43	0	232783872	20	4414
2026-01-27 11:05:59.98	192.10	18.73	-29.4	-31.3	14.9	7.00e-07	0	43	0	234881024	20	4458
2026-01-27 11:06:00.98	192.20	18.85	-29.4	-31.2	15.0	0.00e+00	0	44	0	236978176	20	4435
2026-01-27 11:06:01.99	192.30	18.96	-29.4	-31.3	14.9	1.50e-06	0	43	0	238026752	20	4487
2026-01-27 11:06:02.99	192.40	19.08	-29.6	-31.8	14.7	0.00e+00	0	43	0	240123904	20	4616
2026-01-27 11:06:04.00	192.50	19.20	-29.5	-31.4	14.8	0.00e+00	0	43	0	242221056	20	4516
2026-01-27 11:06:05.00	192.60	19.31	-29.4	-31.2	15.0	0.00e+00	0	43	0	244318208	20	4444
2026-01-27 11:06:06.01	192.71	19.43	-29.5	-31.4	14.9	7.00e-07	0	43	0	246415360	20	4505
2026-01-27 11:06:07.02	192.81	19.55	-29.5	-31.4	14.9	0.00e+00	0	43	0	247463936	20	4502
2026-01-27 11:06:08.01	192.91	19.66	-29.5	-31.4	14.9	0.00e+00	0	44	0	249561088	20	4503
2026-01-27 11:06:09.02	193.02	19.78	-29.5	-31.4	14.9	0.00e+00	0	44	0	251658240	20	4493
2026-01-27 11:06:10.02	193.12	19.90	-29.5	-31.4	14.8	0.00e+00	0	44	0	253755392	20	4499
2026-01-27 11:06:11.02	193.23	20.02	-29.6	-31.7	14.6	0.00e+00	0	43	0	254803968	20	4608
2026-01-27 11:06:12.02	193.34	20.14	-29.4	-31.3	14.9	0.00e+00	0	44	0	256901120	20	4475
2026-01-27 11:06:13.02	193.44	20.26	-29.4	-31.2	15.0	0.00e+00	0	44	0	258998272	20	4429
2026-01-27 11:06:14.03	193.55	20.38	-29.4	-31.2	15.0	3.80e-06	0	44	0	261095424	20	4438
2026-01-27 11:06:15.03	193.66	20.50	-29.5	-31.4	14.9	7.00e-07	0	44	0	263192576	20	4492
2026-01-27 11:06:16.03	193.77	20.63	-29.3	-31.0	15.1	0.00e+00	0	44	0	264241152	20	4375
2026-01-27 11:06:17.03	193.88	20.75	-29.3	-31.5	15.2	0.00e+00	0	44	0	266338304	19	4612
2026-01-27 11:06:18.04	193.99	20.87	-29.4	-31.7	15.1	0.00e+00	0	44	0	268435456	19	4683
2026-01-27 11:06:19.04	194.11	20.99	-29.4	-31.7	15.1	0.00e+00	0	44	0	270532608	19	4697
2026-01-27 11:06:20.05	194.22	21.12	-29.5	-32.0	14.9	0.00e+00	0	43	0	272629760	19	4802
2026-01-27 11:06:21.05	194.34	21.24	-29.4	-31.8	15.1	0.00e+00	0	44	0	273678336	19	4719
2026-01-27 11:06:22.05	194.45	21.37	-29.5	-32.0	14.9	0.00e+00	0	44	0	275775488	19	4795
2026-01-27 11:06:23.06	194.57	21.49	-29.6	-32.2	14.8	0.00e+00	0	44	0	277872640	19	4867
2026-01-27 11:06:24.06	194.68	21.62	-29.6	-32.1	14.9	0.00e+00	0	44	0	279969792	19	4810
2026-01-27 11:06:25.06	194.80	21.74	-29.6	-32.1	14.9	0.00e+00	0	44	0	282066944	19	4837
2026-01-27 11:06:26.06	194.92	21.87	-29.5	-32.0	14.9	0.00e+00	0	44	0	283115520	19	4797
2026-01-27 11:06:27.06	195.04	22.00	-29.6	-32.2	14.9	0.00e+00	0	44	0	285212672	19	4851
2026-01-27 11:06:28.07	195.16	22.13	-29.6	-32.2	14.9	0.00e+00	0	44	0	287309824	19	4837
2026-01-27 11:06:29.07	195.28	22.26	-29.7	-32.6	14.6	0.00e+00	0	44	0	289406976	19	4975
2026-01-27 11:06:30.08	195.41	22.39	-29.5	-32.0	14.9	0.00e+00	0	44	0	291504128	19	4798
2026-01-27 11:06:31.08	195.53	22.51	-29.4	-31.7	15.2	7.00e-07	0	44	0	292552704	19	4701
2026-01-27 11:06:32.08	195.66	22.64	-29.4	-31.7	15.2	0.00e+00	0	44	0	294649856	19	4692
2026-01-27 11:06:33.09	195.78	22.78	-29.4	-31.6	15.2	0.00e+00	0	44	0	296747008	19	4668
2026-01-27 11:06:34.09	195.91	22.91	-29.5	-31.9	15.0	0.00e+00	0	43	0	298844160	19	4757
2026-01-27 11:06:35.09	196.04	23.04	-29.5	-32.0	15.0	0.00e+00	0	44	0	300941312	19	4773
2026-01-27 11:06:36.10	196.17	23.17	-29.6	-32.2	14.9	0.00e+00	0	44	0	301989888	19	4850
2026-01-27 11:06:37.10	196.30	23.30	-29.6	-32.2	14.9	0.00e+00	0	44	0	304087040	19	4852
2026-01-27 11:06:38.11	196.43	23.44	-29.6	-32.2	14.9	7.00e-07	0	44	0	306184192	19	4854
2026-01-27 11:06:39.11	196.56	23.57	-29.7	-32.5	14.7	2.20e-06	0	44	0	308281344	19	4962
2026-01-27 11:06:40.11	196.69	23.70	-29.7	-32.5	14.7	0.00e+00	0	44	0	310378496	19	4941
2026-01-27 11:06:41.12	196.83	23.84	-29.8	-32.8	14.5	0.00e+00	0	44	0	311427072	19	5059
2026-01-27 11:06:42.12	196.96	23.97	-29.7	-32.5	14.7	0.00e+00	0	44	0	313524224	19	4949
2026-01-27 11:06:43.12	197.10	24.11	-29.8	-32.7	14.6	0.00e+00	0	44	0	315621376	19	5016
2026-01-27 11:06:44.12	197.24	24.25	-29.9	-32.9	14.5	0.00e+00	0	44	0	317718528	19	5108
2026-01-27 11:06:45.12	197.38	24.38	-29.7	-32.4	14.8	0.00e+00	0	44	0	318767104	19	4918
2026-01-27 11:06:46.12	197.52	24.52	-29.6	-32.2	14.9	3.00e-06	0	44	0	320864256	19	4835
2026-01-27 11:06:47.12	197.66	24.66	-29.6	-32.1	15.0	0.00e+00	0	44	0	322961408	19	4818
2026-01-27 11:06:48.13	197.80	24.80	-29.6	-32.0	15.0	0.00e+00	0	44	0	325058560	19	4798
2026-01-27 11:06:49.14	197.95	24.94	-29.6	-32.2	14.9	0.00e+00	0	44	0	327155712	19	4866
2026-01-27 11:06:50.14	198.09	25.08	-29.7	-32.5	14.7	0.00e+00	0	44	0	328204288	19	4948
2026-01-27 11:06:51.14	198.24	25.22	-29.8	-32.7	14.6	0.00e+00	0	44	0	330301440	19	5031
2026-01-27 11:06:52.14	198.38	25.36	-29.8	-32.7	14.6	0.00e+00	0	44	0	332398592	19	5027
2026-01-27 11:06:53.14	198.53	25.50	-29.9	-33.0	14.5	7.00e-07	0	44	0	334495744	19	5114
2026-01-27 11:06:54.14	198.68	25.64	-29.9	-33.0	14.5	7.00e-07	0	44	0	336592896	19	5139
2026-01-27 11:06:55.15	198.83	25.78	-30.0	-32.6	14.3	2.20e-06	0	44	0	337641472	20	4902
2026-01-27 11:06:56.16	198.99	25.93	-30.1	-33.0	14.1	3.00e-06	0	44	0	339738624	20	5044
2026-01-27 11:06:57.16	199.14	26.07	-30.2	-33.3	13.9	2.20e-06	0	44	0	341835776	20	5159
2026-01-27 11:06:58.15	199.30	26.21	-30.0	-32.8	14.2	2.20e-06	0	44	0	343932928	20	4964
2026-01-27 11:06:59.16	199.45	26.36	-29.9	-32.5	14.4	7.00e-07	0	44	0	346030080	20	4862
2026-01-27 11:07:00.16	199.61	26.50	-29.9	-32.6	14.4	1.50e-06	0	44	0	347078656	20	4883
2026-01-27 11:07:01.16	199.77	26.65	-30.0	-32.7	14.3	0.00e+00	0	44	0	349175808	20	4918
2026-01-27 11:07:02.15	199.93	26.79	-30.1	-33.1	14.1	1.50e-06	0	44	0	351272960	20	5050
2026-01-27 11:07:03.16	200.09	26.94	-30.1	-33.1	14.0	1.50e-06	0	44	0	353370112	20	5072
2026-01-27 11:07:04.16	200.26	27.09	-30.3	-33.6	13.7	6.10e-06	0	44	0	355467264	20	5249
2026-01-27 11:07:05.17	200.42	27.24	-30.3	-33.5	13.8	3.00e-06	0	44	0	356515840	20	5209
2026-01-27 11:07:06.17	200.59	27.39	-30.4	-33.7	13.7	6.10e-06	0	44	0	358612992	20	5295
2026-01-27 11:07:07.18	200.76	27.54	-30.3	-33.6	13.8	8.30e-06	0	44	0	360710144	20	5234
2026-01-27 11:07:08.18	200.93	27.69	-30.3	-33.6	13.8	4.50e-06	0	44	0	362807296	20	5225
2026-01-27 11:07:09.18	201.10	27.84	-30.4	-33.7	13.7	4.50e-06	0	44	0	363855872	20	5294
2026-01-27 11:07:10.19	201.28	27.99	-30.5	-33.9	13.5	1.06e-05	0	44	0	365953024	20	5356
2026-01-27 11:07:11.19	201.45	28.14	-30.4	-33.6	13.8	3.80e-06	0	44	0	368050176	20	5241
2026-01-27 11:07:12.20	201.63	28.29	-30.4	-33.8	13.7	5.30e-06	0	44	0	370147328	20	5310
2026-01-27 11:07:13.21	201.81	28.44	-30.5	-33.5	13.5	9.90e-06	0	44	0	372244480	21	5090
2026-01-27 11:07:14.20	201.99	28.60	-30.5	-33.6	13.5	1.29e-05	0	44	0	374341632	21	5128
2026-01-27 11:07:15.21	202.17	28.75	-30.7	-33.9	13.3	1.37e-05	0	44	0	375390208	21	5244
2026-01-27 11:07:16.22	202.35	28.91	-30.8	-34.2	13.1	1.90e-05	0	44	0	377487360	21	5374
2026-01-27 11:07:17.21	202.54	29.06	-31.0	-34.8	12.6	6.63e-05	0	44	0	379584512	21	5611
2026-01-27 11:07:18.22	202.72	29.21	-31.0	-34.8	12.6	6.48e-05	0	44	0	381681664	21	5607
2026-01-27 11:07:19.22	202.91	29.37	-31.2	-35.0	12.2	1.62e-04	0	44	0	382730240	22	5557
2026-01-27 11:07:20.22	203.10	29.53	-31.3	-35.4	11.9	3.20e-04	0	44	0	384827392	22	5745
2026-01-27 11:07:21.22	203.29	29.68	-31.4	-35.5	11.9	3.77e-04	0	44	0	386924544	22	5766
2026-01-27 11:07:22.22	203.49	29.84	-31.6	-35.6	11.4	5.35e-04	0	44	0	389021696	23	5723
2026-01-27 11:07:23.23	203.68	30.00	-31.7	-36.1	11.1	1.29e-03	0	44	0	391118848	23	5956
2026-01-27 11:07:24.23	203.88	30.16	-31.8	-36.2	11.0	1.74e-03	0	44	0	392167424	23	6024
2026-01-27 11:07:25.23	204.08	30.31	-31.8	-36.5	10.8	2.04e-03	0	44	0	394264576	23	6159
2026-01-27 11:07:26.23	204.28	30.47	-31.9	-36.5	10.7	3.26e-03	0	44	0	396361728	23	6173
2026-01-27 11:07:27.24	204.48	30.63	-31.8	-36.3	10.9	2.49e-03	0	44	0	398458880	23	6066
2026-01-27 11:07:28.24	204.69	30.79	-31.8	-36.3	10.9	2.21e-03	0	44	0	400556032	23	6064
2026-01-27 11:07:29.25	204.90	30.96	-31.8	-36.4	10.9	2.19e-03	0	44	0	401604608	23	6110
2026-01-27 11:07:30.25	205.11	31.12	-31.8	-36.4	10.9	2.53e-03	0	44	0	403701760	23	6116
2026-01-27 11:07:31.26	205.32	31.28	-31.7	-35.9	11.2	1.84e-03	0	44	0	405798912	23	5878
2026-01-27 11:07:32.26	205.53	31.44	-31.6	-35.7	11.4	1.34e-03	0	44	0	407896064	23	5742
2026-01-27 11:07:33.27	205.75	31.61	-31.6	-35.5	11.6	7.28e-04	0	44	0	409993216	23	5662
2026-01-27 11:07:34.26	205.97	31.77	-31.6	-35.6	11.4	7.57e-04	0	44	0	411041792	23	5730
2026-01-27 11:07:35.26	206.18	31.93	-31.5	-35.3	11.7	7.80e-04	0	44	0	413138944	23	5576
2026-01-27 11:07:36.27	206.41	32.10	-31.5	-35.3	11.7	5.45e-04	0	44	0	415236096	23	5588
2026-01-27 11:07:37.27	206.63	32.26	-31.4	-35.1	11.8	5.45e-04	0	44	0	417333248	23	5503
2026-01-27 11:07:38.28	206.86	32.43	-31.3	-34.6	12.2	3.39e-04	0	44	0	419430400	23	5272
2026-01-27 11:07:39.28	207.09	32.59	-31.1	-34.2	12.5	1.50e-04	0	44	0	420478976	23	5113
2026-01-27 11:07:40.28	207.32	32.76	-31.2	-34.3	12.4	9.91e-05	0	44	0	422576128	23	5164
2026-01-27 11:07:41.29	207.55	32.92	-31.1	-34.2	12.5	1.67e-04	0	44	0	424673280	23	5122
2026-01-27 11:07:42.29	207.79	33.09	-31.0	-33.9	12.7	8.39e-05	0	44	0	426770432	23	5000
2026-01-27 11:07:43.30	208.03	33.26	-30.9	-33.5	12.9	6.56e-05	0	44	0	428867584	23	4874
2026-01-27 11:07:44.30	208.27	33.42	-30.8	-33.2	13.2	3.28e-05	0	44	0	429916160	23	4771
2026-01-27 11:07:45.31	208.51	33.59	-30.8	-33.2	13.2	2.51e-05	0	44	0	432013312	23	4770
2026-01-27 11:07:46.32	208.76	33.76	-30.5	-33.0	13.6	1.37e-05	0	44	0	434110464	22	4795
2026-01-27 11:07:47.32	209.01	33.93	-30.3	-32.3	14.1	3.80e-06	0	44	0	436207616	22	4565
2026-01-27 11:07:48.33	209.26	34.10	-30.2	-32.7	14.1	2.20e-06	0	44	0	437256192	21	4794
2026-01-27 11:07:49.32	209.51	34.27	-30.2	-32.7	14.2	7.00e-07	0	44	0	439353344	21	4765
2026-01-27 11:07:50.32	209.77	34.44	-30.3	-33.0	14.0	1.50e-06	0	44	0	441450496	21	4873
2026-01-27 11:07:51.32	210.02	34.61	-30.5	-33.3	13.7	2.20e-06	0	44	0	443547648	21	4999
2026-01-27 11:07:52.33	210.29	34.78	-30.2	-32.5	14.3	3.00e-06	0	44	0	445644800	21	4712
2026-01-27 11:07:53.34	210.55	34.95	-29.9	-31.8	14.7	7.00e-07	0	44	0	447741952	21	4500
2026-01-27 11:07:54.34	210.82	35.12	-29.9	-31.8	14.7	7.00e-07	0	44	0	448790528	21	4489
2026-01-27 11:07:55.34	211.09	35.29	-30.0	-32.1	14.6	0.00e+00	0	44	0	450887680	21	4576
2026-01-27 11:07:56.34	211.36	35.46	-30.2	-32.5	14.3	3.80e-06	0	44	0	452984832	21	4723
2026-01-27 11:07:57.35	211.63	35.63	-30.3	-32.7	14.2	0.00e+00	0	44	0	455081984	21	4799
2026-01-27 11:07:58.35	211.91	35.80	-30.6	-33.6	13.6	1.50e-06	0	44	0	456130560	21	5112
2026-01-27 11:07:59.35	212.19	35.97	-30.7	-33.9	13.4	1.67e-05	0	44	0	458227712	21	5235
2026-01-27 11:08:00.35	212.47	36.14	-30.7	-34.0	13.3	1.52e-05	0	44	0	460324864	21	5260
2026-01-27 11:08:01.35	212.76	36.32	-30.8	-34.3	13.2	2.44e-05	0	44	0	462422016	21	5368
2026-01-27 11:08:02.35	213.05	36.49	-30.6	-33.8	13.5	1.83e-05	0	44	0	464519168	21	5155
2026-01-27 11:08:03.36	213.34	36.66	-30.5	-33.5	13.7	6.10e-06	0	44	0	465567744	21	5044
2026-01-27 11:08:04.36	213.64	36.83	-30.4	-33.1	13.9	6.80e-06	0	44	0	467664896	21	4897
2026-01-27 11:08:05.36	213.93	37.00	-30.3	-32.8	14.1	2.20e-06	0	44	0	469762048	21	4804
2026-01-27 11:08:06.37	214.24	37.18	-30.1	-32.4	14.4	7.00e-07	0	44	0	471859200	21	4669
2026-01-27 11:08:07.37	214.54	37.35	-30.1	-32.3	14.4	0.00e+00	0	44	0	473956352	21	4648
2026-01-27 11:08:08.37	214.85	37.52	-30.1	-32.3	14.5	7.00e-07	0	44	0	475004928	21	4627
2026-01-27 11:08:09.37	215.16	37.69	-29.9	-31.9	14.7	0.00e+00	0	44	0	477102080	21	4498
2026-01-27 11:08:10.37	215.47	37.86	-30.1	-32.4	14.4	0.00e+00	0	44	0	479199232	21	4664
2026-01-27 11:08:11.37	215.79	38.04	-30.1	-32.2	14.5	0.00e+00	0	44	0	481296384	21	4603
2026-01-27 11:08:12.37	216.11	38.21	-30.0	-32.1	14.6	7.00e-07	0	44	0	482344960	21	4573
2026-01-27 11:08:13.37	216.43	38.38	-30.2	-32.5	14.4	7.00e-07	0	44	0	484442112	21	4695
2026-01-27 11:08:14.37	216.76	38.55	-30.2	-32.6	14.3	1.50e-06	0	44	0	486539264	21	4736
2026-01-27 11:08:15.36	217.08	38.72	-30.2	-32.5	14.4	1.50e-06	0	44	0	488636416	21	4694
2026-01-27 11:08:16.36	217.42	38.89	-29.9	-31.9	14.8	0.00e+00	0	44	0	490733568	21	4497
2026-01-27 11:08:17.38	217.76	39.06	-29.7	-31.8	15.1	0.00e+00	0	44	0	491782144	20	4591
2026-01-27 11:08:18.38	218.10	39.23	-29.6	-31.5	15.3	0.00e+00	0	44	0	493879296	20	4473
2026-01-27 11:08:19.39	218.45	39.41	-29.5	-31.3	15.4	0.00e+00	0	44	0	495976448	20	4418
2026-01-27 11:08:20.40	218.80	39.58	-29.6	-31.6	15.3	0.00e+00	0	44	0	498073600	20	4504
2026-01-27 11:08:21.40	219.15	39.75	-29.8	-31.9	15.1	0.00e+00	0	44	0	500170752	20	4619
2026-01-27 11:08:22.41	219.51	39.92	-29.9	-32.2	14.9	0.00e+00	0	44	0	501219328	20	4699
2026-01-27 11:08:23.41	219.87	40.09	-30.0	-32.6	14.6	1.50e-06	0	44	0	503316480	20	4859
2026-01-27 11:08:24.41	220.23	40.25	-30.2	-33.1	14.4	0.00e+00	0	44	0	505413632	20	5001
2026-01-27 11:08:25.41	220.60	40.42	-30.3	-33.4	14.2	2.20e-06	0	44	0	507510784	20	5112
2026-01-27 11:08:26.41	220.97	40.59	-30.4	-33.6	14.0	0.00e+00	0	44	0	509607936	20	5193
2026-01-27 11:08:27.42	221.34	40.76	-30.3	-33.4	14.1	3.80e-06	0	44	0	510656512	20	5143
2026-01-27 11:08:28.42	221.72	40.92	-30.5	-33.3	13.9	3.80e-06	0	44	0	512753664	21	4974
2026-01-27 11:08:29.43	222.11	41.09	-30.6	-33.5	13.7	7.00e-07	0	44	0	514850816	21	5063
2026-01-27 11:08:30.43	222.49	41.26	-30.6	-33.7	13.6	1.14e-05	0	44	0	516947968	21	5126
2026-01-27 11:08:31.43	222.88	41.42	-30.6	-33.5	13.8	9.10e-06	0	44	0	519045120	21	5054
2026-01-27 11:08:32.43	223.27	41.58	-30.6	-33.7	13.7	7.60e-06	0	44	0	520093696	21	5131
2026-01-27 11:08:33.44	223.67	41.75	-30.8	-34.3	13.3	1.37e-05	0	44	0	522190848	21	5376
2026-01-27 11:08:34.45	224.08	41.91	-30.9	-34.6	13.1	2.89e-05	0	44	0	524288000	21	5490
2026-01-27 11:08:35.46	224.49	42.07	-30.9	-34.4	13.2	2.13e-05	0	44	0	526385152	21	5396
2026-01-27 11:08:36.46	224.90	42.23	-30.8	-34.3	13.2	2.89e-05	0	44	0	528482304	21	5376
2026-01-27 11:08:37.46	225.31	42.39	-30.9	-34.4	13.2	1.14e-05	0	44	0	529530880	21	5398
2026-01-27 11:08:38.47	225.73	42.55	-30.9	-34.5	13.1	2.59e-05	0	44	0	531628032	21	5449
2026-01-27 11:08:39.47	226.15	42.71	-31.0	-34.3	13.0	4.11e-05	0	44	0	533725184	22	5253
2026-01-27 11:08:40.47	226.58	42.87	-31.0	-34.4	12.9	4.34e-05	0	44	0	535822336	22	5269
2026-01-27 11:08:41.48	227.01	43.02	-31.1	-34.4	13.0	3.66e-05	0	44	0	537919488	22	5290
2026-01-27 11:08:42.49	227.45	43.18	-30.9	-33.9	13.3	3.12e-05	0	44	0	538968064	22	5090
2026-01-27 11:08:43.49	227.88	43.33	-30.9	-33.9	13.3	1.37e-05	0	44	0	541065216	22	5092
2026-01-27 11:08:44.50	228.33	43.48	-30.8	-33.7	13.4	2.28e-05	0	44	0	543162368	22	4994
2026-01-27 11:08:45.50	228.78	43.63	-31.0	-34.1	13.1	2.05e-05	0	44	0	545259520	22	5154
2026-01-27 11:08:46.51	229.23	43.78	-31.2	-34.6	12.8	4.11e-05	0	44	0	547356672	22	5368
2026-01-27 11:08:47.51	229.68	43.93	-31.3	-35.1	12.5	1.38e-04	0	44	0	548405248	22	5562
2026-01-27 11:08:48.51	230.14	44.08	-31.3	-35.0	12.5	1.31e-04	0	44	0	550502400	22	5537
2026-01-27 11:08:49.51	230.60	44.22	-31.2	-34.9	12.6	1.22e-04	0	44	0	552599552	22	5484
2026-01-27 11:08:50.51	231.07	44.36	-31.0	-34.3	13.0	3.96e-05	0	44	0	554696704	22	5227
2026-01-27 11:08:51.52	231.55	44.51	-31.1	-34.5	12.9	2.36e-05	0	44	0	556793856	22	5316
2026-01-27 11:08:52.52	232.02	44.65	-31.0	-34.2	13.1	6.94e-05	0	44	0	557842432	22	5206
2026-01-27 11:08:53.52	232.50	44.79	-31.1	-34.4	12.9	2.28e-05	0	44	0	559939584	22	5288
2026-01-27 11:08:54.51	232.98	44.92	-31.4	-35.4	12.3	1.46e-04	0	44	0	562036736	22	5694
2026-01-27 11:08:55.52	233.47	45.06	-31.6	-35.4	11.9	3.14e-04	0	44	0	564133888	23	5605
2026-01-27 11:08:56.52	233.96	45.19	-31.6	-35.4	11.9	5.12e-04	0	44	0	565182464	23	5600
2026-01-27 11:08:57.52	234.45	45.32	-31.4	-34.7	12.4	2.43e-04	0	44	0	567279616	23	5303
2026-01-27 11:08:58.52	234.95	45.45	-31.1	-34.0	12.9	7.47e-05	0	44	0	569376768	23	4997
2026-01-27 11:08:59.53	235.46	45.58	-31.0	-33.6	13.2	2.28e-05	0	44	0	571473920	23	4860
2026-01-27 11:09:00.53	235.97	45.70	-31.1	-34.0	12.9	3.05e-05	0	44	0	573571072	23	5004
2026-01-27 11:09:01.54	236.48	45.83	-31.6	-35.3	12.1	1.31e-04	0	44	0	574619648	23	5502
2026-01-27 11:09:02.54	237.00	45.95	-31.8	-36.0	11.6	6.45e-04	0	44	0	576716800	23	5808
2026-01-27 11:09:03.54	237.52	46.07	-32.3	-36.9	10.5	1.04e-03	0	44	0	578813952	24	6184
2026-01-27 11:09:04.54	238.04	46.18	-32.4	-37.3	10.2	7.76e-03	0	44	0	580911104	24	6386
2026-01-27 11:09:05.54	238.57	46.30	-32.2	-36.7	10.6	4.50e-03	0	44	0	583008256	24	6055
2026-01-27 11:09:06.55	239.10	46.41	-31.9	-35.7	11.3	1.68e-03	0	44	0	584056832	24	5605
2026-01-27 11:09:07.55	239.64	46.52	-31.7	-35.1	11.8	5.65e-04	0	44	0	586153984	24	5346
2026-01-27 11:09:08.56	240.18	46.63	-31.7	-35.1	11.8	4.37e-04	0	44	0	588251136	24	5341
2026-01-27 11:09:09.56	240.72	46.73	-31.7	-35.2	11.8	4.43e-04	0	44	0	590348288	24	5376
2026-01-27 11:09:10.57	241.27	46.84	-31.9	-35.7	11.4	4.62e-04	0	44	0	592445440	24	5591
2026-01-27 11:09:11.57	241.82	46.94	-31.9	-35.8	11.3	1.35e-03	0	44	0	593494016	24	5609
2026-01-27 11:09:12.57	242.37	47.03	-31.7	-35.2	11.7	7.43e-04	0	44	0	595591168	24	5373
2026-01-27 11:09:13.57	242.93	47.13	-31.5	-34.5	12.3	4.33e-04	0	44	0	597688320	24	5103
2026-01-27 11:09:14.58	243.49	47.22	-31.3	-34.0	12.6	1.10e-04	0	44	0	599785472	24	4888
2026-01-27 11:09:15.58	244.05	47.31	-31.4	-34.9	12.4	1.34e-04	0	44	0	601882624	23	5335
2026-01-27 11:09:16.59	244.62	47.40	-31.6	-35.3	12.1	1.94e-04	0	44	0	602931200	23	5499
2026-01-27 11:09:17.59	245.19	47.48	-31.5	-35.0	12.2	2.21e-04	0	44	0	605028352	23	5385
2026-01-27 11:09:18.59	245.76	47.56	-31.3	-34.5	12.5	1.33e-04	0	44	0	607125504	23	5196
2026-01-27 11:09:19.59	246.33	47.64	-31.3	-34.3	12.7	6.94e-05	0	44	0	609222656	23	5133
2026-01-27 11:09:20.59	246.91	47.71	-31.3	-34.5	12.7	5.26e-05	0	44	0	611319808	23	5185
2026-01-27 11:09:21.59	247.49	47.78	-31.2	-34.2	12.8	8.31e-05	0	44	0	612368384	23	5075
2026-01-27 11:09:22.60	248.08	47.85	-31.4	-34.7	12.4	7.78e-05	0	44	0	614465536	23	5287
2026-01-27 11:09:23.60	248.66	47.92	-31.6	-35.4	11.9	3.30e-04	0	44	0	616562688	23	5586
2026-01-27 11:09:24.60	249.25	47.98	-31.7	-35.7	11.7	3.82e-04	0	44	0	618659840	23	5691
2026-01-27 11:09:25.61	249.84	48.04	-31.5	-35.2	12.1	5.89e-04	0	44	0	619708416	23	5460
2026-01-27 11:09:26.61	250.43	48.10	-31.2	-34.2	12.8	1.52e-04	0	44	0	621805568	23	5094
2026-01-27 11:09:27.61	251.03	48.15	-31.1	-33.8	13.1	2.97e-05	0	44	0	623902720	23	4929
2026-01-27 11:09:28.61	251.62	48.20	-30.9	-33.2	13.5	1.37e-05	0	44	0	625999872	23	4702
2026-01-27 11:09:29.62	252.22	48.25	-31.0	-33.7	13.1	2.21e-05	0	44	0	628097024	23	4890
2026-01-27 11:09:30.63	252.83	48.29	-31.2	-34.2	12.8	2.89e-05	0	44	0	629145600	23	5082
2026-01-27 11:09:31.63	253.43	48.33	-31.4	-34.7	12.4	1.36e-04	0	44	0	631242752	23	5274
2026-01-27 11:09:32.64	254.04	48.37	-31.3	-34.6	12.5	1.01e-04	0	44	0	633339904	23	5214
2026-01-27 11:09:33.64	254.64	48.40	-31.1	-33.8	13.1	8.46e-05	0	44	0	635437056	23	4917
2026-01-27 11:09:34.64	255.24	48.43	-31.0	-33.5	13.3	2.74e-05	0	44	0	637534208	23	4803
2026-01-27 11:09:35.65	255.85	48.46	-31.1	-33.8	13.1	2.51e-05	0	44	0	638582784	23	4908
2026-01-27 11:09:36.66	256.47	48.48	-30.9	-33.2	13.5	3.43e-05	0	44	0	640679936	23	4709
2026-01-27 11:09:37.66	257.07	48.50	-30.8	-33.4	13.7	9.90e-06	0	44	0	642777088	22	4874
2026-01-27 11:09:38.66	257.68	48.52	-30.7	-33.3	13.7	6.80e-06	0	44	0	644874240	22	4841
2026-01-27 11:09:39.67	258.29	48.53	-30.8	-33.6	13.6	6.80e-06	0	44	0	646971392	22	4959
2026-01-27 11:09:40.67	258.90	48.54	-30.9	-33.7	13.5	1.06e-05	0	44	0	648019968	22	4984
2026-01-27 11:09:41.67	259.51	48.55	-30.8	-33.6	13.6	9.90e-06	0	44	0	650117120	22	4939
2026-01-27 11:09:42.67	260.12	48.55	-30.9	-33.7	13.5	7.60e-06	0	44	0	652214272	22	4990
2026-01-27 11:09:43.68	260.74	48.55	-30.7	-33.2	13.8	6.10e-06	0	44	0	654311424	22	4817
2026-01-27 11:09:44.68	261.35	48.55	-30.7	-33.3	13.7	3.00e-06	0	44	0	656408576	22	4866
2026-01-27 11:09:45.68	261.95	48.54	-30.8	-33.5	13.7	6.80e-06	0	44	0	657457152	22	4924
2026-01-27 11:09:46.68	262.56	48.53	-30.7	-33.1	13.8	6.80e-06	0	44	0	659554304	22	4788
2026-01-27 11:09:47.68	263.17	48.52	-30.6	-32.9	14.0	3.00e-06	0	44	0	661651456	22	4693
2026-01-27 11:09:48.69	263.78	48.50	-30.5	-32.8	14.2	7.00e-07	0	44	0	663748608	22	4657
2026-01-27 11:09:49.68	264.38	48.48	-30.5	-32.8	14.1	3.00e-06	0	44	0	664797184	22	4682
2026-01-27 11:09:50.68	264.99	48.45	-30.6	-32.9	14.1	2.20e-06	0	44	0	666894336	22	4695
2026-01-27 11:09:51.69	265.60	48.42	-30.7	-33.2	13.8	2.20e-06	0	44	0	668991488	22	4811
2026-01-27 11:09:52.69	266.20	48.39	-30.8	-33.6	13.5	3.00e-06	0	44	0	671088640	22	4968
2026-01-27 11:09:53.69	266.81	48.36	-31.0	-33.9	13.4	1.90e-05	0	44	0	673185792	22	5075
2026-01-27 11:09:54.70	267.41	48.32	-31.0	-33.9	13.5	1.29e-05	0	44	0	675282944	22	5072
2026-01-27 11:09:55.70	268.01	48.28	-30.9	-33.8	13.5	2.05e-05	0	44	0	676331520	22	5029
2026-01-27 11:09:56.71	268.62	48.23	-31.1	-34.4	13.2	1.67e-05	0	44	0	678428672	22	5229
2026-01-27 11:09:57.71	269.21	48.19	-31.4	-35.1	12.6	5.34e-05	0	44	0	680525824	22	5545
2026-01-27 11:09:58.72	269.81	48.14	-31.5	-35.1	12.3	1.65e-04	0	44	0	682622976	23	5410
2026-01-27 11:09:59.72	270.40	48.08	-31.8	-35.9	11.7	3.23e-04	0	44	0	683671552	23	5760
2026-01-27 11:10:00.72	270.99	48.02	-31.8	-35.8	11.8	5.68e-04	0	44	0	685768704	23	5741
2026-01-27 11:10:01.72	271.58	47.96	-31.8	-35.7	11.9	4.52e-04	0	44	0	687865856	23	5676
2026-01-27 11:10:02.73	272.17	47.90	-31.8	-35.8	11.8	4.19e-04	0	44	0	689963008	23	5709
2026-01-27 11:10:03.73	272.75	47.83	-31.8	-35.8	11.8	5.42e-04	0	44	0	692060160	23	5699
2026-01-27 11:10:04.74	273.34	47.76	-32.1	-36.3	11.1	7.00e-04	0	44	0	693108736	24	5845
2026-01-27 11:10:05.74	273.92	47.69	-31.9	-35.6	11.6	1.41e-03	0	44	0	695205888	24	5532
2026-01-27 11:10:06.74	274.49	47.61	-31.4	-34.1	12.6	2.69e-04	0	44	0	697303040	24	4927
2026-01-27 11:10:07.73	275.06	47.54	-31.0	-33.7	13.3	2.67e-05	0	44	0	699400192	23	4873
2026-01-27 11:10:08.73	275.63	47.46	-31.2	-34.2	12.9	3.66e-05	0	44	0	701497344	23	5081
2026-01-27 11:10:09.74	276.20	47.37	-31.9	-36.1	11.6	1.89e-04	0	44	0	702545920	23	5859
2026-01-27 11:10:10.74	276.76	47.28	-32.2	-36.8	10.8	1.69e-03	0	44	0	704643072	24	6075
2026-01-27 11:10:11.75	277.33	47.19	-32.0	-35.9	11.4	1.34e-03	0	44	0	706740224	24	5647
2026-01-27 11:10:12.75	277.88	47.10	-31.6	-34.8	12.2	3.91e-04	0	44	0	708837376	24	5179
2026-01-27 11:10:13.76	278.44	47.01	-31.5	-34.5	12.4	1.17e-04	0	44	0	710934528	24	5079
2026-01-27 11:10:14.77	279.00	46.91	-32.1	-36.2	11.1	3.57e-04	0	44	0	711983104	24	5790
2026-01-27 11:10:15.77	279.54	46.81	-32.4	-37.4	10.3	3.78e-03	0	44	0	714080256	24	6359
2026-01-27 11:10:16.78	280.09	46.70	-32.2	-36.7	10.8	3.92e-03	0	44	0	716177408	24	6029
2026-01-27 11:10:17.78	280.63	46.60	-31.9	-35.6	11.6	1.41e-03	0	44	0	718274560	24	5529
2026-01-27 11:10:18.77	281.16	46.49	-31.8	-35.5	11.7	5.82e-04	0	44	0	720371712	24	5476
2026-01-27 11:10:19.77	281.69	46.38	-32.0	-36.1	11.3	1.41e-03	0	44	0	721420288	24	5733
2026-01-27 11:10:20.77	282.22	46.27	-32.1	-36.4	11.1	1.35e-03	0	44	0	723517440	24	5865
2026-01-27 11:10:21.77	282.74	46.15	-32.1	-36.3	11.1	2.12e-03	0	44	0	725614592	24	5854
2026-01-27 11:10:22.78	283.27	46.04	-32.0	-36.1	11.3	1.53e-03	0	44	0	727711744	24	5726
2026-01-27 11:10:23.79	283.79	45.92	-31.8	-35.2	11.9	6.16e-04	0	44	0	728760320	24	5364
2026-01-27 11:10:24.79	284.30	45.79	-31.8	-35.4	11.7	3.58e-04	0	44	0	730857472	24	5451
2026-01-27 11:10:25.79	284.81	45.67	-32.2	-36.5	11.0	1.36e-03	0	44	0	732954624	24	5935
2026-01-27 11:10:26.79	285.32	45.55	-32.7	-38.0	9.4	7.41e-03	0	44	0	735051776	25	6626
2026-01-27 11:10:27.79	285.82	45.42	-32.3	-36.6	10.5	1.46e-02	0	44	0	737148928	25	5893
2026-01-27 11:10:28.80	286.32	45.29	-31.5	-34.5	12.4	4.11e-04	0	44	0	738197504	24	5061
2026-01-27 11:10:29.80	286.81	45.16	-30.8	-33.5	13.7	1.14e-05	0	44	0	740294656	22	4892
2026-01-27 11:10:30.80	287.30	45.02	-30.7	-33.2	13.9	2.20e-06	0	44	0	742391808	22	4800
2026-01-27 11:10:31.80	287.78	44.89	-31.1	-34.2	13.3	6.10e-06	0	44	0	744488960	22	5154
2026-01-27 11:10:32.80	288.27	44.75	-31.0	-33.9	13.4	2.51e-05	0	44	0	746586112	22	5066
2026-01-27 11:10:33.81	288.75	44.61	-30.6	-33.0	14.0	5.30e-06	0	44	0	747634688	22	4731
2026-01-27 11:10:34.81	289.22	44.47	-30.4	-32.5	14.3	3.80e-06	0	44	0	749731840	22	4553
2026-01-27 11:10:35.82	289.69	44.33	-30.6	-32.9	14.2	1.50e-06	0	44	0	751828992	22	4699
2026-01-27 11:10:36.82	290.15	44.19	-30.6	-33.0	14.0	0.00e+00	0	44	0	753926144	22	4729
2026-01-27 11:10:37.82	290.61	44.04	-30.9	-33.6	13.7	4.50e-06	0	44	0	756023296	22	4941
2026-01-27 11:10:38.82	291.07	43.90	-30.8	-33.3	13.9	9.90e-06	0	44	0	757071872	22	4847
2026-01-27 11:10:39.82	291.52	43.75	-30.4	-32.3	14.5	0.00e+00	0	44	0	759169024	22	4490
2026-01-27 11:10:40.83	291.97	43.60	-30.1	-32.1	14.9	7.00e-07	0	44	0	761266176	21	4554
2026-01-27 11:10:41.84	292.42	43.45	-30.3	-32.7	14.6	7.00e-07	0	44	0	763363328	21	4741
2026-01-27 11:10:42.84	292.86	43.30	-30.4	-32.9	14.4	0.00e+00	0	44	0	765460480	21	4809
2026-01-27 11:10:43.84	293.30	43.15	-30.2	-32.5	14.7	0.00e+00	0	44	0	766509056	21	4671
2026-01-27 11:10:44.84	293.73	42.99	-30.0	-31.9	15.0	1.50e-06	0	44	0	768606208	21	4472
2026-01-27 11:10:45.85	294.16	42.84	-30.2	-32.4	14.8	0.00e+00	0	44	0	770703360	21	4626
2026-01-27 11:10:46.85	294.58	42.68	-30.2	-32.3	14.8	0.00e+00	0	44	0	772800512	21	4613
2026-01-27 11:10:47.85	295.00	42.52	-30.6	-33.4	14.2	0.00e+00	0	44	0	774897664	21	4965
2026-01-27 11:10:48.85	295.41	42.37	-30.4	-32.9	14.4	2.20e-06	0	44	0	775946240	21	4789
2026-01-27 11:10:49.85	295.82	42.21	-30.0	-32.0	15.0	0.00e+00	0	44	0	778043392	21	4505
2026-01-27 11:10:50.86	296.23	42.05	-29.9	-31.6	15.2	0.00e+00	0	44	0	780140544	21	4379
2026-01-27 11:10:51.86	296.64	41.89	-30.1	-32.0	15.0	0.00e+00	0	44	0	782237696	21	4515
2026-01-27 11:10:52.86	297.03	41.72	-30.4	-32.8	14.5	0.00e+00	0	44	0	783286272	21	4777
2026-01-27 11:10:53.86	297.43	41.56	-30.8	-34.0	13.7	7.00e-07	0	44	0	785383424	21	5214
2026-01-27 11:10:54.86	297.82	41.40	-31.3	-34.8	12.9	2.05e-05	0	44	0	787480576	22	5386
2026-01-27 11:10:55.87	298.21	41.23	-31.0	-34.2	13.3	1.83e-05	0	44	0	789577728	22	5148
2026-01-27 11:10:56.87	298.59	41.07	-30.6	-32.8	14.2	2.20e-06	0	44	0	791674880	22	4674
2026-01-27 11:10:57.88	298.98	40.90	-30.5	-32.6	14.3	1.50e-06	0	44	0	792723456	22	4607
2026-01-27 11:10:58.88	299.35	40.74	-31.0	-34.0	13.4	0.00e+00	0	44	0	794820608	22	5109
2026-01-27 11:10:59.88	299.72	40.57	-31.4	-35.0	12.7	6.25e-05	0	44	0	796917760	22	5492
2026-01-27 11:11:00.88	300.09	40.41	-31.1	-34.4	13.1	7.85e-05	0	44	0	799014912	22	5230
2026-01-27 11:11:01.88	300.46	40.24	-30.6	-32.8	14.1	4.50e-06	0	44	0	801112064	22	4672
2026-01-27 11:11:02.88	300.82	40.07	-30.4	-32.3	14.4	0.00e+00	0	44	0	802160640	22	4509
2026-01-27 11:11:03.88	301.17	39.90	-30.6	-32.9	14.1	7.00e-07	0	44	0	804257792	22	4681
2026-01-27 11:11:04.88	301.53	39.74	-30.9	-33.8	13.5	6.10e-06	0	44	0	806354944	22	5018
2026-01-27 11:11:05.89	301.88	39.57	-31.6	-35.3	12.2	1.13e-04	0	44	0	808452096	23	5499
2026-01-27 11:11:06.90	302.23	39.39	-31.7	-35.6	11.9	3.20e-04	0	44	0	810549248	23	5640
2026-01-27 11:11:07.90	302.57	39.23	-31.4	-34.7	12.6	1.88e-04	0	44	0	811597824	23	5233
2026-01-27 11:11:08.90	302.91	39.06	-31.1	-33.8	13.2	5.11e-05	0	44	0	813694976	23	4916
2026-01-27 11:11:09.91	303.25	38.88	-31.1	-33.8	13.2	1.14e-05	0	44	0	815792128	23	4896
2026-01-27 11:11:10.91	303.58	38.71	-31.6	-35.2	12.3	5.11e-05	0	44	0	817889280	23	5454
2026-01-27 11:11:11.91	303.91	38.54	-32.1	-36.2	11.1	5.79e-04	0	44	0	819986432	24	5801
2026-01-27 11:11:12.92	304.24	38.37	-32.2	-36.7	10.8	2.76e-03	0	44	0	821035008	24	6042
2026-01-27 11:11:13.92	304.56	38.20	-32.0	-36.0	11.3	1.86e-03	0	44	0	823132160	24	5681
2026-01-27 11:11:14.93	304.88	38.03	-31.6	-34.7	12.2	4.59e-04	0	44	0	825229312	24	5143
2026-01-27 11:11:15.93	305.19	37.86	-31.6	-34.6	12.3	1.72e-04	0	44	0	827326464	24	5088
2026-01-27 11:11:16.93	305.51	37.69	-32.0	-36.0	11.4	5.00e-04	0	44	0	829423616	24	5686
2026-01-27 11:11:17.93	305.81	37.52	-32.4	-37.1	10.5	2.06e-03	0	44	0	830472192	24	6235
2026-01-27 11:11:18.93	306.12	37.35	-33.2	-39.2	8.2	1.63e-02	0	44	0	832569344	26	7230
2026-01-27 11:11:19.94	306.42	37.17	-33.4	-40.2	7.4	1.11e-01	0	44	0	834666496	26	7863
2026-01-27 11:11:20.94	306.72	37.00	-32.9	-38.2	9.0	5.69e-02	0	44	0	836763648	26	6589
2026-01-27 11:11:21.95	307.02	36.83	-32.4	-36.2	10.4	1.10e-02	0	44	0	838860800	26	5591
2026-01-27 11:11:22.96	307.32	36.66	-32.1	-35.6	11.2	1.65e-03	0	44	0	839909376	25	5426
2026-01-27 11:11:23.96	307.61	36.49	-32.1	-35.8	11.1	1.24e-03	0	44	0	842006528	25	5517
2026-01-27 11:11:24.96	307.90	36.32	-32.5	-37.1	10.2	3.05e-03	0	44	0	844103680	25	6113
2026-01-27 11:11:25.95	308.18	36.15	-32.9	-38.6	9.0	1.28e-02	0	44	0	846200832	25	6944
2026-01-27 11:11:26.96	308.46	35.98	-33.0	-38.4	8.7	3.52e-02	0	44	0	847249408	26	6735
2026-01-27 11:11:27.96	308.74	35.81	-33.0	-38.6	8.5	4.59e-02	0	44	0	849346560	26	6875
2026-01-27 11:11:28.96	309.01	35.64	-32.2	-36.2	10.8	1.48e-02	0	44	0	851443712	25	5688
2026-01-27 11:11:29.97	309.29	35.47	-31.3	-33.8	12.8	1.33e-04	0	44	0	853540864	24	4801
2026-01-27 11:11:30.97	309.56	35.30	-30.6	-32.9	14.0	9.90e-06	0	44	0	855638016	22	4705
2026-01-27 11:11:31.97	309.83	35.13	-30.5	-32.6	14.3	7.00e-07	0	44	0	856686592	22	4602
2026-01-27 11:11:32.97	310.09	34.96	-30.9	-33.7	13.6	1.50e-06	0	44	0	858783744	22	4985
2026-01-27 11:11:33.98	310.35	34.79	-31.8	-35.8	11.8	1.48e-04	0	44	0	860880896	23	5741
2026-01-27 11:11:34.98	310.61	34.62	-32.1	-36.3	11.1	1.25e-03	0	44	0	862978048	24	5850
2026-01-27 11:11:35.98	310.87	34.45	-31.8	-35.2	11.8	1.03e-03	0	44	0	865075200	24	5356
2026-01-27 11:11:36.98	311.12	34.28	-31.3	-33.9	12.8	1.12e-04	0	44	0	866123776	24	4833
2026-01-27 11:11:37.99	311.38	34.12	-31.0	-33.5	13.4	2.59e-05	0	44	0	868220928	23	4800
2026-01-27 11:11:38.99	311.63	33.95	-31.2	-33.9	13.1	9.10e-06	0	44	0	870318080	23	4953
2026-01-27 11:11:40.00	311.87	33.78	-31.0	-33.6	13.3	1.44e-05	0	44	0	872415232	23	4824
2026-01-27 11:11:41.00	312.12	33.61	-31.6	-35.3	12.2	8.39e-05	0	44	0	874512384	23	5478
2026-01-27 11:11:42.00	312.36	33.45	-31.9	-36.1	11.6	4.63e-04	0	44	0	875560960	23	5878
2026-01-27 11:11:42.99	312.60	33.28	-32.6	-37.5	9.8	2.51e-03	0	44	0	877658112	25	6327
2026-01-27 11:11:44.00	312.84	33.12	-32.7	-37.9	9.5	1.45e-02	0	44	0	879755264	25	6562
2026-01-27 11:11:44.99	313.07	32.95	-32.6	-37.5	9.7	1.38e-02	0	44	0	881852416	25	6353
2026-01-27 11:11:46.00	313.30	32.79	-32.4	-36.8	10.3	7.01e-03	0	44	0	883949568	25	5965
2026-01-27 11:11:47.01	313.53	32.62	-32.2	-36.1	10.9	2.88e-03	0	44	0	884998144	25	5626
2026-01-27 11:11:48.01	313.76	32.46	-32.3	-36.4	10.6	2.94e-03	0	44	0	887095296	25	5796
2026-01-27 11:11:49.01	313.99	32.29	-31.9	-35.2	11.4	1.83e-03	0	44	0	889192448	25	5275
2026-01-27 11:11:50.01	314.21	32.13	-32.0	-35.6	11.2	8.99e-04	0	44	0	891289600	25	5444
2026-01-27 11:11:51.01	314.43	31.97	-32.6	-37.4	9.9	5.01e-03	0	44	0	892338176	25	6289
2026-01-27 11:11:52.01	314.65	31.81	-33.0	-39.0	8.6	2.02e-02	0	44	0	894435328	25	7196
2026-01-27 11:11:53.02	314.87	31.64	-33.5	-40.9	6.8	8.22e-02	0	44	0	896532480	26	8445
2026-01-27 11:11:54.03	315.08	31.48	-33.5	-40.6	6.7	2.26e-01	0	44	0	898629632	27	8133
2026-01-27 11:11:55.03	315.29	31.32	-33.3	-39.7	7.3	1.57e-01	0	44	0	900726784	27	7482
2026-01-27 11:11:56.03	315.50	31.16	-32.7	-37.3	9.5	5.32e-02	0	44	0	901775360	26	6121
2026-01-27 11:11:57.02	315.71	31.00	-31.8	-35.0	11.6	4.88e-03	0	44	0	903872512	25	5161
2026-01-27 11:11:58.02	315.92	30.84	-31.2	-34.0	13.0	8.23e-05	0	44	0	905969664	23	4974
2026-01-27 11:11:59.02	316.12	30.68	-30.7	-33.2	13.9	1.14e-05	0	44	0	908066816	22	4792
2026-01-27 11:12:00.02	316.32	30.52	-30.6	-32.9	14.1	0.00e+00	0	44	0	910163968	22	4686
2026-01-27 11:12:01.03	316.52	30.36	-30.7	-33.2	13.8	3.00e-06	0	44	0	911212544	22	4804
2026-01-27 11:12:02.03	316.72	30.21	-31.2	-34.5	13.0	2.21e-05	0	44	0	913309696	22	5304
2026-01-27 11:12:03.02	316.92	30.05	-31.6	-35.3	12.1	9.00e-05	0	44	0	915406848	23	5497
2026-01-27 11:12:04.02	317.11	29.90	-32.0	-36.1	11.2	5.12e-04	0	44	0	917504000	24	5760
2026-01-27 11:12:05.03	317.31	29.74	-32.1	-36.4	10.9	2.10e-03	0	44	0	919601152	24	5921
2026-01-27 11:12:06.03	317.50	29.58	-32.1	-36.4	10.9	2.65e-03	0	44	0	920649728	24	5920
2026-01-27 11:12:07.04	317.69	29.43	-31.8	-35.4	11.6	1.31e-03	0	44	0	922746880	24	5461
2026-01-27 11:12:08.04	317.88	29.27	-31.5	-34.4	12.4	2.34e-04	0	44	0	924844032	24	5037
2026-01-27 11:12:09.03	318.06	29.12	-31.2	-34.2	12.9	7.47e-05	0	44	0	926941184	23	5054
2026-01-27 11:12:10.04	318.25	28.97	-31.2	-34.0	13.0	4.11e-05	0	44	0	929038336	23	5008
2026-01-27 11:12:11.04	318.43	28.81	-31.3	-34.4	12.7	5.72e-05	0	44	0	930086912	23	5152
2026-01-27 11:12:12.05	318.61	28.66	-31.3	-34.4	12.7	7.09e-05	0	44	0	932184064	23	5136
2026-01-27 11:12:13.05	318.79	28.51	-31.5	-35.0	12.3	9.91e-05	0	44	0	934281216	23	5402
2026-01-27 11:12:14.06	318.97	28.36	-31.7	-35.5	11.9	2.58e-04	0	44	0	936378368	23	5615
2026-01-27 11:12:15.06	319.14	28.21	-31.8	-36.0	11.6	6.53e-04	0	44	0	937426944	23	5797
2026-01-27 11:12:16.06	319.32	28.06	-31.6	-35.3	12.1	4.13e-04	0	44	0	939524096	23	5502
2026-01-27 11:12:17.06	319.49	27.91	-31.4	-34.6	12.5	2.07e-04	0	44	0	941621248	23	5241
2026-01-27 11:12:18.07	319.66	27.76	-31.0	-33.6	13.2	3.28e-05	0	44	0	943718400	23	4853
2026-01-27 11:12:19.07	319.83	27.61	-30.8	-33.4	13.7	1.22e-05	0	44	0	945815552	22	4870
2026-01-27 11:12:20.07	320.00	27.46	-30.7	-33.2	13.8	5.30e-06	0	44	0	946864128	22	4804
2026-01-27 11:12:21.07	320.17	27.31	-30.2	-32.4	14.5	7.00e-07	0	44	0	948961280	21	4644
2026-01-27 11:12:22.07	320.33	27.17	-30.0	-32.0	14.8	7.00e-07	0	44	0	951058432	21	4505
2026-01-27 11:12:23.06	320.49	27.02	-30.0	-31.8	14.9	0.00e+00	0	44	0	953155584	21	4452
2026-01-27 11:12:24.06	320.65	26.88	-30.2	-32.3	14.6	0.00e+00	0	44	0	955252736	21	4630
2026-01-27 11:12:25.07	320.82	26.73	-30.3	-32.7	14.4	0.00e+00	0	44	0	956301312	21	4756
2026-01-27 11:12:26.07	320.98	26.58	-30.6	-33.6	13.8	3.00e-06	0	44	0	958398464	21	5049
2026-01-27 11:12:27.08	321.13	26.44	-30.8	-34.1	13.5	3.80e-06	0	44	0	960495616	21	5241
2026-01-27 11:12:28.08	321.29	26.30	-31.1	-34.3	13.1	2.97e-05	0	44	0	962592768	22	5209
2026-01-27 11:12:29.09	321.45	26.15	-31.1	-34.3	13.0	3.96e-05	0	44	0	964689920	22	5212
2026-01-27 11:12:30.09	321.60	26.01	-30.9	-33.8	13.4	2.05e-05	0	44	0	965738496	22	5011
2026-01-27 11:12:31.09	321.75	25.87	-30.8	-33.7	13.4	1.22e-05	0	44	0	967835648	22	4987
2026-01-27 11:12:32.09	321.90	25.73	-30.9	-33.8	13.4	1.75e-05	0	44	0	969932800	22	5019
2026-01-27 11:12:33.09	322.05	25.59	-30.6	-33.1	13.8	6.80e-06	0	44	0	972029952	22	4770
2026-01-27 11:12:34.10	322.20	25.44	-30.7	-33.2	13.7	3.00e-06	0	44	0	974127104	22	4828
2026-01-27 11:12:35.10	322.35	25.31	-30.6	-33.0	13.8	8.30e-06	0	44	0	975175680	22	4764
2026-01-27 11:12:36.10	322.50	25.17	-30.5	-32.7	14.1	1.50e-06	0	44	0	977272832	22	4651
2026-01-27 11:12:37.10	322.64	25.03	-30.5	-32.7	14.0	1.50e-06	0	44	0	979369984	22	4640
2026-01-27 11:12:38.11	322.78	24.89	-30.4	-32.4	14.2	0.00e+00	0	44	0	981467136	22	4553
2026-01-27 11:12:39.11	322.93	24.75	-30.4	-32.5	14.2	7.00e-07	0	44	0	982515712	22	4586
2026-01-27 11:12:40.11	323.07	24.61	-30.4	-32.5	14.2	1.50e-06	0	44	0	984612864	22	4576
2026-01-27 11:12:41.11	323.21	24.48	-30.4	-32.4	14.3	0.00e+00	0	44	0	986710016	22	4546
2026-01-27 11:12:42.11	323.35	24.34	-30.5	-32.7	14.0	3.00e-06	0	44	0	988807168	22	4666
2026-01-27 11:12:43.11	323.48	24.21	-30.5	-32.9	14.0	2.20e-06	0	44	0	990904320	22	4712
2026-01-27 11:12:44.11	323.62	24.07	-30.7	-33.4	13.6	2.20e-06	0	44	0	991952896	22	4896
2026-01-27 11:12:45.11	323.75	23.94	-30.8	-33.5	13.5	1.14e-05	0	44	0	994050048	22	4916
2026-01-27 11:12:46.12	323.89	23.80	-31.0	-34.2	13.0	3.05e-05	0	44	0	996147200	22	5190
2026-01-27 11:12:47.12	324.02	23.67	-31.2	-34.6	12.7	5.79e-05	0	44	0	998244352	22	5361
2026-01-27 11:12:48.13	324.16	23.54	-31.2	-34.8	12.6	7.24e-05	0	44	0	1000341504	22	5421
2026-01-27 11:12:49.13	324.29	23.40	-31.3	-35.0	12.4	1.35e-04	0	44	0	1001390080	22	5529
2026-01-27 11:12:50.14	324.42	23.27	-31.2	-34.6	12.7	1.07e-04	0	44	0	1003487232	22	5368
2026-01-27 11:12:51.14	324.55	23.14	-31.2	-34.7	12.7	6.10e-05	0	44	0	1005584384	22	5380
2026-01-27 11:12:52.14	324.67	23.01	-31.1	-34.4	12.9	6.25e-05	0	44	0	1007681536	22	5267
2026-01-27 11:12:53.14	324.80	22.88	-30.8	-33.5	13.5	1.52e-05	0	44	0	1009778688	22	4944
2026-01-27 11:12:54.15	324.93	22.75	-30.8	-33.7	13.3	1.06e-05	0	44	0	1010827264	22	4990
2026-01-27 11:12:55.15	325.05	22.62	-30.6	-33.0	13.8	6.10e-06	0	44	0	1012924416	22	4742
2026-01-27 11:12:56.15	325.18	22.49	-30.5	-32.7	14.0	3.00e-06	0	44	0	1015021568	22	4654
2026-01-27 11:12:57.15	325.30	22.37	-30.6	-32.9	13.8	4.50e-06	0	44	0	1017118720	22	4739
2026-01-27 11:12:58.15	325.42	22.24	-30.6	-33.0	13.8	3.80e-06	0	44	0	1019215872	22	4776
2026-01-27 11:12:59.16	325.54	22.11	-30.7	-33.5	13.5	3.80e-06	0	44	0	1020264448	22	4917
2026-01-27 11:13:00.16	325.66	21.98	-30.9	-33.9	13.1	2.21e-05	0	44	0	1022361600	22	5101
2026-01-27 11:13:01.17	325.78	21.86	-30.9	-33.8	13.3	2.13e-05	0	44	0	1024458752	22	5027
2026-01-27 11:13:02.18	325.90	21.73	-30.9	-33.9	13.2	1.67e-05	0	44	0	1026555904	22	5092
2026-01-27 11:13:03.18	326.02	21.61	-30.9	-33.8	13.3	1.90e-05	0	44	0	1028653056	22	5053
2026-01-27 11:13:04.19	326.13	21.48	-30.8	-33.5	13.4	1.60e-05	0	44	0	1029701632	22	4951
2026-01-27 11:13:05.20	326.25	21.36	-30.8	-33.6	13.4	2.36e-05	0	44	0	1031798784	22	4969
2026-01-27 11:13:06.20	326.37	21.23	-30.6	-33.2	13.7	3.80e-06	0	44	0	1033895936	22	4834
2026-01-27 11:13:07.21	326.48	21.11	-30.6	-33.2	13.7	9.10e-06	0	44	0	1035993088	22	4818
2026-01-27 11:13:08.21	326.59	20.99	-30.5	-32.9	13.8	6.10e-06	0	44	0	1038090240	22	4714
2026-01-27 11:13:09.22	326.71	20.86	-30.5	-32.8	13.9	4.50e-06	0	44	0	1039138816	22	4695
2026-01-27 11:13:10.22	326.82	20.74	-30.7	-33.2	13.6	1.50e-06	0	44	0	1041235968	22	4844
2026-01-27 11:13:11.23	326.93	20.62	-30.6	-33.0	13.8	2.20e-06	0	44	0	1043333120	22	4763
2026-01-27 11:13:12.23	327.04	20.50	-30.6	-33.2	13.6	8.30e-06	0	44	0	1045430272	22	4827
2026-01-27 11:13:13.24	327.15	20.38	-30.7	-33.3	13.5	9.10e-06	0	44	0	1047527424	22	4872
2026-01-27 11:13:14.24	327.25	20.26	-30.7	-33.5	13.4	6.80e-06	0	44	0	1048576000	22	4931
2026-01-27 11:13:15.24	327.36	20.14	-30.8	-33.7	13.3	2.21e-05	0	44	0	1050673152	22	5020
2026-01-27 11:13:16.24	327.47	20.02	-30.8	-33.6	13.3	1.60e-05	0	44	0	1052770304	22	4997
2026-01-27 11:13:17.25	327.57	19.90	-31.0	-34.1	13.0	2.59e-05	0	44	0	1054867456	22	5186
2026-01-27 11:13:18.25	327.68	19.79	-31.1	-34.4	12.7	5.18e-05	0	44	0	1055916032	22	5301
2026-01-27 11:13:19.25	327.78	19.67	-30.9	-34.1	13.0	3.89e-05	0	44	0	1058013184	22	5158
2026-01-27 11:13:20.25	327.88	19.55	-30.9	-33.9	13.1	4.50e-05	0	44	0	1060110336	22	5089
2026-01-27 11:13:21.26	327.99	19.44	-30.9	-34.0	13.1	3.12e-05	0	44	0	1062207488	22	5121
2026-01-27 11:13:22.26	328.09	19.32	-30.9	-33.9	13.1	3.66e-05	0	44	0	1064304640	22	5100
2026-01-27 11:13:23.26	328.19	19.20	-30.9	-33.9	13.1	4.04e-05	0	44	0	1065353216	22	5097
2026-01-27 11:13:24.27	328.29	19.09	-31.1	-34.4	12.7	4.88e-05	0	44	0	1067450368	22	5298
2026-01-27 11:13:25.27	328.39	18.97	-31.0	-34.4	12.7	8.39e-05	0	44	0	1069547520	22	5289
2026-01-27 11:13:26.27	328.49	18.86	-30.9	-34.0	13.0	5.18e-05	0	44	0	1071644672	22	5136
2026-01-27 11:13:27.27	328.58	18.75	-30.9	-34.0	13.0	3.35e-05	0	44	0	1073741824	22	5120
2026-01-27 11:13:28.28	328.68	18.63	-30.9	-34.1	12.9	5.56e-05	0	44	0	1074790400	22	5161
2026-01-27 11:13:29.29	328.78	18.52	-30.9	-34.0	13.0	6.25e-05	0	44	0	1076887552	22	5157
2026-01-27 11:13:30.29	328.88	18.41	-31.0	-34.2	12.8	6.40e-05	0	44	0	1078984704	22	5224
2026-01-27 11:13:31.29	328.97	18.30	-31.0	-34.1	12.9	5.26e-05	0	44	0	1081081856	22	5184
2026-01-27 11:13:32.28	329.06	18.19	-31.1	-34.4	12.7	8.62e-05	0	44	0	1083179008	22	5313
2026-01-27 11:13:33.29	329.16	18.08	-31.2	-34.8	12.4	1.43e-04	0	44	0	1084227584	22	5454
2026-01-27 11:13:34.30	329.25	17.96	-31.0	-34.3	12.7	7.32e-05	0	44	0	1086324736	22	5271
2026-01-27 11:13:35.30	329.35	17.85	-31.0	-34.2	12.8	5.49e-05	0	44	0	1088421888	22	5240
2026-01-27 11:13:36.30	329.44	17.74	-31.0	-34.2	12.8	6.71e-05	0	44	0	1090519040	22	5200
2026-01-27 11:13:37.31	329.53	17.63	-30.9	-34.1	12.9	6.86e-05	0	44	0	1092616192	22	5175
2026-01-27 11:13:38.31	329.62	17.53	-31.0	-34.2	12.8	4.65e-05	0	44	0	1093664768	22	5233
2026-01-27 11:13:39.31	329.71	17.42	-30.9	-34.0	12.9	5.72e-05	0	44	0	1095761920	22	5145
2026-01-27 11:13:40.31	329.80	17.31	-30.9	-34.1	12.9	4.34e-05	0	44	0	1097859072	22	5178
2026-01-27 11:13:41.32	329.89	17.20	-31.0	-34.2	12.8	4.65e-05	0	44	0	1099956224	22	5207
2026-01-27 11:13:42.31	329.98	17.10	-31.0	-34.2	12.8	5.95e-05	0	44	0	1101004800	22	5203
2026-01-27 11:13:43.32	330.06	16.99	-31.0	-34.3	12.7	6.25e-05	0	44	0	1103101952	22	5275
2026-01-27 11:13:44.32	330.15	16.88	-31.0	-34.4	12.7	9.00e-05	0	44	0	1105199104	22	5281
2026-01-27 11:13:45.32	330.24	16.78	-31.0	-34.4	12.6	7.70e-05	0	44	0	1107296256	22	5311
2026-01-27 11:13:46.32	330.32	16.67	-31.1	-34.5	12.6	9.68e-05	0	44	0	1109393408	22	5345
2026-01-27 11:13:47.33	330.41	16.57	-31.1	-34.6	12.5	1.24e-04	0	44	0	1111490560	22	5374
2026-01-27 11:13:48.33	330.49	16.46	-31.0	-34.4	12.6	9.15e-05	0	44	0	1112539136	22	5312
2026-01-27 11:13:49.34	330.58	16.36	-31.0	-34.4	12.7	8.01e-05	0	44	0	1114636288	22	5287
2026-01-27 11:13:50.34	330.66	16.25	-31.0	-34.4	12.6	1.01e-04	0	44	0	1116733440	22	5295
2026-01-27 11:13:51.34	330.75	16.15	-31.0	-34.4	12.6	7.70e-05	0	44	0	1118830592	22	5315
2026-01-27 11:13:52.34	330.83	16.05	-31.0	-34.4	12.6	1.18e-04	0	44	0	1119879168	22	5301
2026-01-27 11:13:53.34	330.91	15.94	-30.9	-34.1	12.8	7.40e-05	0	44	0	1121976320	22	5182
2026-01-27 11:13:54.34	330.99	15.84	-30.8	-33.8	13.0	5.18e-05	0	44	0	1124073472	22	5072
2026-01-27 11:13:55.34	331.07	15.74	-30.8	-33.8	13.0	4.27e-05	0	44	0	1126170624	22	5078
2026-01-27 11:13:56.35	331.15	15.64	-30.8	-33.9	12.9	3.81e-05	0	44	0	1128267776	22	5113
2026-01-27 11:13:57.35	331.23	15.54	-30.8	-33.9	12.9	4.27e-05	0	44	0	1129316352	22	5108
2026-01-27 11:13:58.35	331.31	15.44	-30.9	-34.0	12.8	6.33e-05	0	44	0	1131413504	22	5147
2026-01-27 11:13:59.35	331.39	15.34	-30.8	-33.9	12.9	5.03e-05	0	44	0	1133510656	22	5098
2026-01-27 11:14:00.36	331.47	15.23	-30.9	-33.9	12.9	4.57e-05	0	44	0	1135607808	22	5120
2026-01-27 11:14:01.36	331.55	15.13	-30.9	-34.1	12.7	5.95e-05	0	44	0	1137704960	22	5197
2026-01-27 11:14:02.36	331.63	15.04	-31.0	-34.3	12.6	9.68e-05	0	44	0	1138753536	22	5277
2026-01-27 11:14:03.36	331.70	14.94	-30.9	-34.1	12.7	7.40e-05	0	44	0	1140850688	22	5186
2026-01-27 11:14:04.36	331.78	14.84	-30.9	-34.2	12.7	6.17e-05	0	44	0	1142947840	22	5231
2026-01-27 11:14:05.36	331.86	14.74	-31.0	-34.4	12.5	1.14e-04	0	44	0	1145044992	22	5331
2026-01-27 11:14:06.37	331.93	14.64	-31.0	-34.4	12.4	1.23e-04	0	44	0	1146093568	22	5339
2026-01-27 11:14:07.38	332.01	14.54	-31.1	-34.7	12.3	1.79e-04	0	44	0	1148190720	22	5451
2026-01-27 11:14:08.39	332.08	14.45	-31.1	-34.8	12.2	2.25e-04	0	44	0	1150287872	22	5472
2026-01-27 11:14:09.39	332.16	14.35	-31.2	-35.0	12.0	2.97e-04	0	44	0	1152385024	22	5597
2026-01-27 11:14:10.39	332.23	14.25	-31.3	-35.2	11.9	4.21e-04	0	44	0	1154482176	22	5669
2026-01-27 11:14:11.40	332.31	14.16	-31.2	-35.2	11.9	4.39e-04	0	44	0	1156579328	22	5645
2026-01-27 11:14:12.40	332.38	14.06	-31.3	-35.3	11.8	4.30e-04	0	44	0	1157627904	22	5691
2026-01-27 11:14:13.40	332.45	13.96	-31.3	-35.4	11.8	5.21e-04	0	44	0	1159725056	22	5756
2026-01-27 11:14:14.41	332.52	13.87	-31.3	-35.2	11.9	4.58e-04	0	44	0	1161822208	22	5673
2026-01-27 11:14:15.41	332.59	13.77	-31.3	-35.3	11.8	5.34e-04	0	44	0	1163919360	22	5735
2026-01-27 11:14:16.41	332.67	13.68	-31.3	-35.4	11.7	4.59e-04	0	44	0	1164967936	22	5752
2026-01-27 11:14:17.41	332.74	13.59	-31.3	-35.5	11.7	6.21e-04	0	44	0	1167065088	22	5794
2026-01-27 11:14:18.42	332.81	13.49	-31.3	-35.4	11.7	5.42e-04	0	44	0	1169162240	22	5748
2026-01-27 11:14:19.42	332.88	13.40	-31.3	-35.2	11.8	4.68e-04	0	44	0	1171259392	22	5687
2026-01-27 11:14:20.43	332.95	13.30	-31.2	-35.1	11.9	4.26e-04	0	44	0	1173356544	22	5616
2026-01-27 11:14:21.43	333.02	13.21	-31.2	-35.1	11.9	3.15e-04	0	44	0	1174405120	22	5629
2026-01-27 11:14:22.44	333.08	13.12	-31.2	-34.9	12.0	4.16e-04	0	44	0	1176502272	22	5562
2026-01-27 11:14:23.44	333.15	13.03	-31.1	-34.6	12.2	2.30e-04	0	44	0	1178599424	22	5423
2026-01-27 11:14:24.44	333.22	12.93	-30.9	-34.3	12.5	1.39e-04	0	44	0	1180696576	22	5275
2026-01-27 11:14:25.45	333.29	12.84	-30.9	-34.2	12.5	1.21e-04	0	44	0	1182793728	22	5259
2026-01-27 11:14:26.46	333.36	12.75	-30.9	-34.1	12.5	1.05e-04	0	44	0	1183842304	22	5209
2026-01-27 11:14:27.46	333.42	12.66	-30.8	-34.0	12.6	8.92e-05	0	44	0	1185939456	22	5161
2026-01-27 11:14:28.47	333.49	12.57	-30.8	-33.9	12.6	1.20e-04	0	44	0	1188036608	22	5146
2026-01-27 11:14:29.47	333.56	12.48	-30.8	-33.8	12.8	6.86e-05	0	44	0	1190133760	22	5100
2026-01-27 11:14:30.47	333.62	12.39	-30.8	-33.8	12.8	7.55e-05	0	44	0	1192230912	22	5101
2026-01-27 11:14:31.47	333.69	12.30	-30.8	-34.0	12.6	9.46e-05	0	44	0	1193279488	22	5204
2026-01-27 11:14:32.48	333.75	12.21	-30.9	-34.1	12.5	1.32e-04	0	44	0	1195376640	22	5230
2026-01-27 11:14:33.48	333.82	12.12	-30.8	-34.0	12.5	1.27e-04	0	44	0	1197473792	22	5202
2026-01-27 11:14:34.48	333.88	12.03	-30.9	-34.2	12.4	1.11e-04	0	44	0	1199570944	22	5258
2026-01-27 11:14:35.48	333.94	11.94	-30.9	-34.3	12.4	1.80e-04	0	44	0	1201668096	22	5302
2026-01-27 11:14:36.48	334.01	11.85	-30.8	-34.0	12.5	1.39e-04	0	44	0	1202716672	22	5205
2026-01-27 11:14:37.49	334.07	11.76	-30.8	-34.1	12.5	9.84e-05	0	44	0	1204813824	22	5223
2026-01-27 11:14:38.49	334.13	11.68	-31.0	-34.5	12.2	2.10e-04	0	44	0	1206910976	22	5380
2026-01-27 11:14:39.49	334.20	11.59	-31.0	-34.6	12.1	1.73e-04	0	44	0	1209008128	22	5449
2026-01-27 11:14:40.50	334.26	11.50	-31.1	-34.8	11.9	4.13e-04	0	44	0	1211105280	22	5516
2026-01-27 11:14:41.50	334.32	11.41	-31.1	-34.9	11.9	3.52e-04	0	44	0	1212153856	22	5558
2026-01-27 11:14:42.50	334.38	11.33	-31.2	-35.2	11.6	6.01e-04	0	44	0	1214251008	22	5699
2026-01-27 11:14:43.50	334.44	11.24	-31.2	-35.2	11.6	6.55e-04	0	44	0	1216348160	22	5722
2026-01-27 11:14:44.51	334.50	11.16	-31.3	-35.6	11.3	1.20e-03	0	44	0	1218445312	22	5867
2026-01-27 11:14:45.51	334.56	11.07	-31.3	-35.6	11.2	1.14e-03	0	44	0	1220542464	22	5900
2026-01-27 11:14:46.51	334.62	10.98	-31.4	-35.8	11.0	1.84e-03	0	44	0	1221591040	22	5982
2026-01-27 11:14:47.52	334.68	10.90	-31.3	-35.8	10.8	2.16e-03	0	44	0	1223688192	22	6005
2026-01-27 11:14:48.51	334.74	10.81	-31.4	-36.1	10.6	3.17e-03	0	44	0	1225785344	22	6146
2026-01-27 11:14:49.51	334.80	10.73	-31.4	-36.0	10.7	2.92e-03	0	44	0	1227882496	22	6144
2026-01-27 11:14:50.51	334.86	10.65	-31.5	-36.2	10.6	3.67e-03	0	44	0	1228931072	22	6200
2026-01-27 11:14:51.52	334.92	10.56	-31.6	-36.0	10.4	3.89e-03	0	44	0	1231028224	23	5984
2026-01-27 11:14:52.52	334.98	10.48	-31.7	-36.4	10.0	6.17e-03	0	44	0	1233125376	23	6198
2026-01-27 11:14:53.52	335.03	10.39	-31.7	-36.6	10.0	8.82e-03	0	44	0	1235222528	23	6291
2026-01-27 11:14:54.52	335.09	10.31	-31.8	-36.6	10.1	5.66e-03	0	44	0	1237319680	23	6317
2026-01-27 11:14:55.52	335.15	10.23	-31.8	-36.8	10.0	8.53e-03	0	44	0	1238368256	23	6380
2026-01-27 11:14:56.53	335.21	10.14	-31.6	-36.2	10.1	6.77e-03	0	44	0	1240465408	23	6111
2026-01-27 11:14:57.54	335.26	10.06	-31.5	-35.9	10.0	7.18e-03	0	44	0	1242562560	23	5972
2026-01-27 11:14:58.54	335.32	9.98	-31.4	-35.6	10.1	7.51e-03	0	44	0	1244659712	23	5865
2026-01-27 11:14:59.55	335.38	9.90	-31.4	-35.8	10.1	6.50e-03	0	44	0	1246756864	23	5922
2026-01-27 11:15:00.56	335.43	9.81	-31.4	-35.7	10.4	5.18e-03	0	44	0	1247805440	23	5853
2026-01-27 11:15:01.55	335.49	9.73	-31.4	-35.7	10.5	4.10e-03	0	44	0	1249902592	23	5846
2026-01-27 11:15:02.55	335.54	9.65	-31.4	-35.6	10.5	4.03e-03	0	44	0	1251999744	23	5793
2026-01-27 11:15:03.56	335.60	9.57	-31.4	-35.4	10.5	4.22e-03	0	44	0	1254096896	23	5751
2026-01-27 11:15:04.56	335.65	9.49	-31.4	-35.6	10.5	3.77e-03	0	44	0	1256194048	23	5804
2026-01-27 11:15:05.57	335.71	9.41	-31.5	-35.7	10.4	4.47e-03	0	44	0	1257242624	23	5864
2026-01-27 11:15:06.58	335.76	9.33	-31.4	-35.6	10.6	3.74e-03	0	44	0	1259339776	23	5825
2026-01-27 11:15:07.58	335.81	9.25	-31.5	-35.9	10.4	4.07e-03	0	44	0	1261436928	23	5980
2026-01-27 11:15:08.59	335.87	9.17	-31.4	-35.6	10.6	3.83e-03	0	44	0	1263534080	23	5833
2026-01-27 11:15:09.59	335.92	9.09	-31.4	-35.6	10.5	3.58e-03	0	44	0	1265631232	23	5850
2026-01-27 11:15:10.59	335.97	9.01	-31.4	-35.6	10.5	4.00e-03	0	44	0	1266679808	23	5808
2026-01-27 11:15:11.59	336.03	8.93	-31.5	-35.7	10.5	3.40e-03	0	44	0	1268776960	23	5881
2026-01-27 11:15:12.60	336.08	8.85	-31.4	-35.4	10.8	3.20e-03	0	44	0	1270874112	23	5710
2026-01-27 11:15:13.60	336.13	8.77	-31.5	-35.8	10.5	2.65e-03	0	44	0	1272971264	23	5941
2026-01-27 11:15:14.60	336.18	8.69	-31.4	-35.5	10.7	3.48e-03	0	44	0	1275068416	23	5772
2026-01-27 11:15:15.61	336.24	8.61	-31.3	-35.2	10.9	2.79e-03	0	44	0	1276116992	23	5661
2026-01-27 11:15:16.62	336.29	8.54	-31.1	-34.7	11.2	1.70e-03	0	44	0	1278214144	23	5415
2026-01-27 11:15:17.62	336.34	8.46	-31.1	-34.8	11.0	1.76e-03	0	44	0	1280311296	23	5472
