passes_logs/2026/01/27/R2M6_AANII_01/R2M6_AANII_01__20260127_025135_NOAA_20_JPSS-1_rec.log

#Pass ID: 20260127_025135_NOAA 20 (JPSS-1)
#Satellite: NOAA 20 (JPSS-1)
#Configuration: NOAA 20
#almurnet v.1.7.20240730
#Start time: 2026-01-27 02:51:37

#Version: 2.2.20231116
#Station: R2M6_AANII_01
#Location: 30.233357 lon 59.946436 lat
#TLE: 1 43013U 17073A   26026.46665230  .00000148  00000+0  91302-4 0  9998
#TLE: 2 43013  98.7646 327.2856 0001008  22.9532 337.1688 14.19540616424360

#Time	Az	El	Level	Level2	SNR	BER	BlckErr	Temp	State	Recorded	gain1	gain2
2026-01-27 02:51:37.08	8.52	7.06	-32.4	-42.4	4.0	1.46e+00	0	41	0	0	25	11446
2026-01-27 02:51:38.07	8.41	7.12	-32.3	-41.2	4.2	1.41e+00	0	42	104	0	25	10081
2026-01-27 02:51:39.08	8.29	7.17	-32.2	-41.4	5.0	7.32e-01	0	41	0	0	24	10327
2026-01-27 02:51:40.09	8.18	7.23	-32.2	-41.3	5.1	6.68e-01	0	42	0	1048576	24	10209
2026-01-27 02:51:41.10	8.06	7.29	-32.3	-41.6	5.0	6.71e-01	0	42	0	3145728	24	10513
2026-01-27 02:51:42.10	7.95	7.34	-32.2	-41.3	5.1	6.70e-01	0	41	0	5242880	24	10212
2026-01-27 02:51:43.10	7.83	7.40	-32.1	-40.3	5.7	5.74e-01	0	42	0	7340032	24	9188
2026-01-27 02:51:44.11	7.71	7.45	-32.0	-39.2	6.4	3.01e-01	0	42	0	9437184	24	8260
2026-01-27 02:51:45.11	7.60	7.51	-31.8	-38.2	7.1	1.74e-01	0	41	0	10485760	24	7535
2026-01-27 02:51:46.12	7.48	7.56	-31.6	-37.2	7.9	1.06e-01	0	42	0	12582912	24	6868
2026-01-27 02:51:47.12	7.36	7.62	-31.4	-36.3	8.7	4.21e-02	0	42	0	14680064	24	6328
2026-01-27 02:51:48.12	7.25	7.67	-31.2	-36.0	9.3	2.31e-02	0	42	0	16777216	23	6262
2026-01-27 02:51:49.13	7.13	7.73	-31.1	-35.4	9.8	1.48e-02	0	42	0	18874368	23	5958
2026-01-27 02:51:50.13	7.01	7.78	-31.0	-35.2	10.0	7.92e-03	0	42	0	19922944	23	5821
2026-01-27 02:51:51.13	6.89	7.84	-30.9	-35.4	10.3	5.85e-03	0	42	0	22020096	22	6004
2026-01-27 02:51:52.14	6.77	7.89	-30.9	-35.4	10.3	4.95e-03	0	42	0	24117248	22	6009
2026-01-27 02:51:53.14	6.65	7.95	-30.9	-35.4	10.3	4.98e-03	0	42	0	26214400	22	6000
2026-01-27 02:51:54.14	6.53	8.00	-30.9	-35.1	10.5	4.42e-03	0	42	0	28311552	22	5894
2026-01-27 02:51:55.15	6.40	8.06	-30.8	-35.1	10.5	3.94e-03	0	42	0	29360128	22	5869
2026-01-27 02:51:56.15	6.28	8.12	-30.8	-35.1	10.5	3.83e-03	0	42	0	31457280	22	5890
2026-01-27 02:51:57.15	6.16	8.17	-30.9	-35.2	10.5	4.31e-03	0	42	0	33554432	22	5914
2026-01-27 02:51:58.16	6.04	8.23	-30.8	-35.0	10.6	3.69e-03	0	42	0	35651584	22	5827
2026-01-27 02:51:59.16	5.92	8.28	-30.8	-35.4	10.6	3.29e-03	0	42	0	36700160	21	6110
2026-01-27 02:52:00.16	5.79	8.34	-30.7	-35.2	10.8	3.31e-03	0	42	0	38797312	21	6008
2026-01-27 02:52:01.16	5.67	8.39	-30.7	-35.0	10.9	2.30e-03	0	42	0	40894464	21	5922
2026-01-27 02:52:02.17	5.54	8.45	-30.7	-35.1	10.9	2.13e-03	0	42	0	42991616	21	5990
2026-01-27 02:52:03.18	5.42	8.50	-30.7	-35.0	11.0	2.09e-03	0	42	0	45088768	21	5925
2026-01-27 02:52:04.18	5.29	8.56	-30.7	-35.0	10.9	2.05e-03	0	42	0	46137344	21	5939
2026-01-27 02:52:05.18	5.17	8.61	-30.7	-35.1	10.9	2.19e-03	0	42	0	48234496	21	5969
2026-01-27 02:52:06.18	5.04	8.67	-30.8	-35.3	10.7	2.55e-03	0	42	0	50331648	21	6091
2026-01-27 02:52:07.19	4.91	8.72	-30.8	-35.5	10.6	3.71e-03	0	42	0	52428800	21	6184
2026-01-27 02:52:08.20	4.78	8.78	-30.8	-35.3	10.7	3.25e-03	0	42	0	54525952	21	6069
2026-01-27 02:52:09.19	4.66	8.83	-30.8	-35.4	10.7	2.77e-03	0	42	0	55574528	21	6110
2026-01-27 02:52:10.20	4.53	8.89	-30.9	-35.6	10.6	3.42e-03	0	42	0	57671680	21	6211
2026-01-27 02:52:11.21	4.40	8.94	-30.8	-35.4	10.7	3.22e-03	0	42	0	59768832	21	6124
2026-01-27 02:52:12.21	4.27	9.00	-30.8	-35.5	10.6	3.39e-03	0	42	0	61865984	21	6182
2026-01-27 02:52:13.22	4.14	9.05	-30.9	-35.8	10.5	4.20e-03	0	42	0	63963136	21	6301
2026-01-27 02:52:14.23	4.00	9.11	-30.9	-35.6	10.6	3.66e-03	0	42	0	65011712	21	6197
2026-01-27 02:52:15.23	3.87	9.17	-30.9	-35.6	10.6	3.52e-03	0	42	0	67108864	21	6201
2026-01-27 02:52:16.23	3.74	9.22	-30.9	-35.7	10.6	3.74e-03	0	42	0	69206016	21	6229
2026-01-27 02:52:17.23	3.61	9.28	-30.9	-35.6	10.7	3.52e-03	0	42	0	71303168	21	6185
2026-01-27 02:52:18.23	3.48	9.33	-30.9	-35.6	10.7	3.62e-03	0	42	0	73400320	21	6178
2026-01-27 02:52:19.24	3.34	9.39	-30.8	-35.5	10.7	2.97e-03	0	42	0	74448896	21	6133
2026-01-27 02:52:20.24	3.21	9.44	-30.9	-35.7	10.5	4.15e-03	0	43	0	76546048	21	6251
2026-01-27 02:52:21.25	3.08	9.50	-30.8	-35.3	10.8	2.89e-03	0	43	0	78643200	21	6074
2026-01-27 02:52:22.25	2.94	9.55	-30.7	-34.9	11.1	2.06e-03	0	42	0	80740352	21	5882
2026-01-27 02:52:23.25	2.81	9.60	-30.6	-34.8	11.2	1.77e-03	0	43	0	82837504	21	5801
2026-01-27 02:52:24.25	2.67	9.66	-30.6	-34.7	11.3	1.49e-03	0	42	0	83886080	21	5752
2026-01-27 02:52:25.26	2.53	9.71	-30.6	-34.8	11.2	1.30e-03	0	42	0	85983232	21	5813
2026-01-27 02:52:26.25	2.40	9.77	-30.6	-34.7	11.3	1.27e-03	0	43	0	88080384	21	5756
2026-01-27 02:52:27.25	2.26	9.82	-30.6	-34.7	11.3	1.31e-03	0	43	0	90177536	21	5767
2026-01-27 02:52:28.25	2.13	9.88	-30.5	-34.5	11.5	8.71e-04	0	43	0	91226112	21	5672
2026-01-27 02:52:29.26	1.99	9.93	-30.6	-34.5	11.4	9.40e-04	0	43	0	93323264	21	5678
2026-01-27 02:52:30.26	1.85	9.99	-30.6	-34.6	11.4	1.08e-03	0	43	0	95420416	21	5715
2026-01-27 02:52:31.27	1.71	10.04	-30.6	-34.7	11.3	1.14e-03	0	43	0	97517568	21	5758
2026-01-27 02:52:32.28	1.57	10.10	-30.6	-34.5	11.5	1.10e-03	0	43	0	99614720	21	5664
2026-01-27 02:52:33.28	1.43	10.15	-30.6	-34.7	11.4	9.71e-04	0	43	0	101711872	21	5758
2026-01-27 02:52:34.28	1.29	10.20	-30.7	-34.9	11.2	1.28e-03	0	43	0	102760448	21	5846
2026-01-27 02:52:35.28	1.14	10.26	-30.7	-34.8	11.3	1.34e-03	0	43	0	104857600	21	5796
2026-01-27 02:52:36.28	1.00	10.31	-30.6	-34.7	11.3	1.35e-03	0	43	0	106954752	21	5766
2026-01-27 02:52:37.28	0.86	10.37	-30.7	-34.8	11.3	1.27e-03	0	43	0	109051904	21	5804
2026-01-27 02:52:38.28	0.72	10.42	-30.7	-34.8	11.3	1.63e-03	0	43	0	110100480	21	5808
2026-01-27 02:52:39.29	0.57	10.48	-30.7	-34.9	11.2	1.58e-03	0	43	0	112197632	21	5842
2026-01-27 02:52:40.29	0.43	10.53	-30.8	-35.1	11.1	1.41e-03	0	43	0	114294784	21	5942
2026-01-27 02:52:41.29	0.28	10.58	-30.7	-34.9	11.2	1.33e-03	0	43	0	116391936	21	5846
2026-01-27 02:52:42.29	0.14	10.64	-30.8	-35.3	11.0	1.84e-03	0	43	0	118489088	21	6019
2026-01-27 02:52:43.30	359.99	10.69	-30.9	-35.5	10.8	2.45e-03	0	43	0	119537664	21	6109
2026-01-27 02:52:44.30	359.85	10.75	-30.9	-35.4	10.8	2.10e-03	0	43	0	121634816	21	6101
2026-01-27 02:52:45.30	359.70	10.80	-31.0	-35.8	10.6	3.21e-03	0	43	0	123731968	21	6282
2026-01-27 02:52:46.30	359.55	10.85	-31.0	-35.4	10.5	3.78e-03	0	43	0	125829120	22	5960
2026-01-27 02:52:47.31	359.40	10.91	-31.0	-35.4	10.5	4.26e-03	0	43	0	127926272	22	5986
2026-01-27 02:52:48.31	359.25	10.96	-31.0	-35.4	10.5	3.80e-03	0	43	0	128974848	22	5983
2026-01-27 02:52:49.31	359.11	11.01	-31.0	-35.4	10.6	3.71e-03	0	43	0	131072000	22	5966
2026-01-27 02:52:50.31	358.96	11.07	-31.1	-35.6	10.4	4.12e-03	0	43	0	133169152	22	6044
2026-01-27 02:52:51.31	358.81	11.12	-31.1	-35.7	10.4	4.66e-03	0	43	0	135266304	22	6097
2026-01-27 02:52:52.31	358.66	11.17	-31.2	-35.9	10.2	6.20e-03	0	43	0	136314880	22	6223
2026-01-27 02:52:53.31	358.51	11.23	-31.0	-35.4	10.6	4.60e-03	0	43	0	138412032	22	5961
2026-01-27 02:52:54.32	358.35	11.28	-31.0	-35.2	10.8	3.31e-03	0	43	0	140509184	22	5855
2026-01-27 02:52:55.31	358.20	11.33	-31.0	-35.2	10.7	2.59e-03	0	43	0	142606336	22	5846
2026-01-27 02:52:56.31	358.05	11.38	-31.0	-35.8	10.7	2.80e-03	0	43	0	144703488	21	6263
2026-01-27 02:52:57.31	357.90	11.44	-30.9	-35.6	10.8	2.92e-03	0	43	0	145752064	21	6141
2026-01-27 02:52:58.31	357.74	11.49	-30.8	-35.2	11.1	1.84e-03	0	43	0	147849216	21	5988
2026-01-27 02:52:59.31	357.59	11.54	-30.8	-35.1	11.1	1.55e-03	0	43	0	149946368	21	5912
2026-01-27 02:53:00.32	357.43	11.59	-30.8	-35.2	11.1	1.80e-03	0	43	0	152043520	21	5989
2026-01-27 02:53:01.32	357.28	11.65	-30.9	-35.4	10.9	1.72e-03	0	43	0	154140672	21	6053
2026-01-27 02:53:02.33	357.12	11.70	-30.8	-35.3	11.0	1.88e-03	0	43	0	155189248	21	6010
2026-01-27 02:53:03.33	356.96	11.75	-30.9	-35.4	10.9	2.14e-03	0	43	0	157286400	21	6085
2026-01-27 02:53:04.34	356.80	11.80	-30.8	-35.3	11.1	2.00e-03	0	43	0	159383552	21	6010
2026-01-27 02:53:05.35	356.64	11.86	-30.9	-35.5	10.9	1.95e-03	0	43	0	161480704	21	6139
2026-01-27 02:53:06.35	356.48	11.91	-30.9	-35.6	10.9	2.79e-03	0	43	0	163577856	21	6145
2026-01-27 02:53:07.35	356.33	11.96	-30.8	-35.2	11.1	1.89e-03	0	43	0	164626432	21	5955
2026-01-27 02:53:08.35	356.17	12.01	-30.7	-34.9	11.3	1.09e-03	0	43	0	166723584	21	5829
2026-01-27 02:53:09.36	356.00	12.06	-30.7	-34.9	11.4	8.77e-04	0	43	0	168820736	21	5823
2026-01-27 02:53:10.36	355.84	12.11	-30.7	-34.8	11.4	1.00e-03	0	43	0	170917888	21	5776
2026-01-27 02:53:11.36	355.68	12.17	-30.7	-34.7	11.5	1.48e-03	0	43	0	173015040	21	5735
2026-01-27 02:53:12.37	355.52	12.22	-30.6	-34.6	11.6	7.97e-04	0	43	0	174063616	21	5677
2026-01-27 02:53:13.37	355.36	12.27	-30.7	-34.7	11.5	7.87e-04	0	43	0	176160768	21	5728
2026-01-27 02:53:14.37	355.19	12.32	-30.7	-34.7	11.5	7.93e-04	0	43	0	178257920	21	5731
2026-01-27 02:53:15.38	355.03	12.37	-30.7	-34.9	11.4	8.77e-04	0	43	0	180355072	21	5807
2026-01-27 02:53:16.38	354.86	12.42	-30.7	-34.8	11.4	1.09e-03	0	43	0	182452224	21	5797
2026-01-27 02:53:17.38	354.70	12.47	-30.6	-34.4	11.7	7.05e-04	0	43	0	183500800	21	5616
2026-01-27 02:53:18.39	354.53	12.52	-30.5	-34.2	11.9	4.45e-04	0	43	0	185597952	21	5508
2026-01-27 02:53:19.39	354.37	12.57	-30.5	-34.3	11.9	4.09e-04	0	43	0	187695104	21	5533
2026-01-27 02:53:20.40	354.20	12.62	-30.5	-34.2	11.9	5.30e-04	0	43	0	189792256	21	5511
2026-01-27 02:53:21.40	354.03	12.67	-30.4	-34.0	12.1	3.81e-04	0	43	0	191889408	21	5423
2026-01-27 02:53:22.40	353.86	12.72	-30.4	-33.9	12.1	2.70e-04	0	43	0	192937984	21	5364
2026-01-27 02:53:23.41	353.69	12.77	-30.3	-33.7	12.2	2.21e-04	0	43	0	195035136	21	5286
2026-01-27 02:53:24.41	353.53	12.82	-30.3	-34.0	12.4	1.58e-04	0	43	0	197132288	20	5509
2026-01-27 02:53:25.42	353.35	12.87	-30.2	-33.8	12.5	1.59e-04	0	43	0	199229440	20	5465
2026-01-27 02:53:26.41	353.19	12.92	-30.2	-33.7	12.6	9.38e-05	0	43	0	200278016	20	5390
2026-01-27 02:53:27.42	353.01	12.97	-30.2	-33.7	12.6	9.30e-05	0	43	0	202375168	20	5403
2026-01-27 02:53:28.42	352.84	13.02	-30.1	-33.6	12.6	1.12e-04	0	43	0	204472320	20	5366
2026-01-27 02:53:29.41	352.67	13.07	-30.2	-33.8	12.6	1.17e-04	0	43	0	206569472	20	5447
2026-01-27 02:53:30.41	352.50	13.12	-30.3	-34.0	12.4	1.29e-04	0	43	0	208666624	20	5512
2026-01-27 02:53:31.42	352.33	13.17	-29.5	-33.2	12.4	1.69e-04	0	43	0	209715200	20	5503
2026-01-27 02:53:32.42	352.15	13.21	-30.2	-34.0	12.5	1.13e-04	0	43	0	211812352	20	5559
2026-01-27 02:53:33.42	351.98	13.26	-30.4	-34.2	12.3	1.11e-04	0	43	0	213909504	20	5621
2026-01-27 02:53:34.42	351.80	13.31	-30.4	-34.2	12.0	2.36e-04	0	43	0	216006656	20	5633
2026-01-27 02:53:35.43	351.63	13.36	-30.2	-33.7	12.6	4.66e-04	0	43	0	218103808	20	5397
2026-01-27 02:53:36.44	351.45	13.41	-30.1	-33.5	12.8	5.95e-05	0	44	0	219152384	20	5324
2026-01-27 02:53:37.44	351.27	13.45	-30.1	-33.4	12.9	5.87e-05	0	43	0	221249536	20	5271
2026-01-27 02:53:38.45	351.09	13.50	-30.1	-33.4	12.9	3.81e-05	0	43	0	223346688	20	5296
2026-01-27 02:53:39.44	350.92	13.55	-30.1	-33.4	12.8	5.95e-05	0	43	0	225443840	20	5299
2026-01-27 02:53:40.45	350.74	13.59	-30.0	-33.6	13.1	3.35e-05	0	43	0	227540992	19	5448
2026-01-27 02:53:41.45	350.56	13.64	-29.9	-33.3	13.3	1.83e-05	0	43	0	228589568	19	5349
2026-01-27 02:53:42.45	350.38	13.69	-29.8	-33.2	13.4	1.60e-05	0	44	0	230686720	19	5309
2026-01-27 02:53:43.45	350.20	13.73	-29.8	-33.1	13.4	1.75e-05	0	43	0	232783872	19	5253
2026-01-27 02:53:44.45	350.02	13.78	-29.8	-33.1	13.4	1.14e-05	0	44	0	234881024	19	5280
2026-01-27 02:53:45.45	349.84	13.83	-29.8	-33.1	13.4	1.60e-05	0	44	0	236978176	19	5261
2026-01-27 02:53:46.46	349.66	13.87	-29.8	-33.2	13.4	2.19e-04	0	43	0	238026752	19	5300
2026-01-27 02:53:47.46	349.48	13.92	-29.7	-32.9	13.6	8.30e-06	0	44	0	240123904	19	5178
2026-01-27 02:53:48.46	349.29	13.96	-29.7	-32.8	13.7	1.06e-05	0	43	0	242221056	19	5153
2026-01-27 02:53:49.46	349.11	14.01	-29.7	-32.8	13.7	2.58e-04	0	43	0	244318208	19	5148
2026-01-27 02:53:50.47	348.92	14.05	-29.7	-32.8	13.7	8.30e-06	0	43	0	245366784	19	5129
2026-01-27 02:53:51.47	348.74	14.10	-29.6	-32.6	13.8	7.00e-07	0	43	0	247463936	19	5070
2026-01-27 02:53:52.47	348.55	14.14	-29.6	-32.6	13.8	2.89e-04	0	44	0	249561088	19	5061
2026-01-27 02:53:53.47	348.37	14.19	-29.6	-32.5	13.8	3.07e-04	0	44	0	251658240	19	5054
2026-01-27 02:53:54.48	348.18	14.23	-29.6	-32.7	13.8	6.10e-06	0	44	0	253755392	19	5111
2026-01-27 02:53:55.48	347.99	14.28	-29.6	-32.6	13.8	3.26e-04	0	44	0	254803968	19	5075
2026-01-27 02:53:56.48	347.81	14.32	-29.7	-32.7	13.7	2.75e-04	0	44	0	256901120	19	5121
2026-01-27 02:53:57.48	347.62	14.36	-29.7	-32.8	13.7	3.80e-06	0	43	0	258998272	19	5147
2026-01-27 02:53:58.49	347.43	14.41	-29.9	-33.2	13.5	7.60e-06	0	43	0	261095424	19	5293
2026-01-27 02:53:59.49	347.24	14.45	-29.8	-32.7	13.4	1.86e-04	0	44	0	263192576	20	4993
2026-01-27 02:54:00.49	347.05	14.49	-29.8	-32.7	13.4	1.67e-05	0	44	0	264241152	20	4999
2026-01-27 02:54:01.50	346.86	14.53	-29.9	-32.8	13.3	1.22e-05	0	43	0	266338304	20	5048
2026-01-27 02:54:02.50	346.67	14.58	-30.0	-33.1	13.2	2.15e-04	0	43	0	268435456	20	5136
2026-01-27 02:54:03.51	346.48	14.62	-30.0	-33.2	13.0	2.82e-05	0	44	0	270532608	20	5191
2026-01-27 02:54:04.51	346.29	14.66	-30.0	-33.2	13.0	2.41e-04	0	44	0	272629760	20	5199
2026-01-27 02:54:05.51	346.09	14.70	-30.0	-33.2	13.0	4.57e-05	0	43	0	273678336	20	5214
2026-01-27 02:54:06.51	345.90	14.74	-30.0	-33.1	13.1	2.89e-05	0	44	0	275775488	20	5143
2026-01-27 02:54:07.51	345.71	14.78	-30.0	-33.2	13.0	2.49e-04	0	44	0	277872640	20	5207
2026-01-27 02:54:08.51	345.51	14.82	-30.0	-33.3	13.0	2.76e-04	0	44	0	279969792	20	5220
2026-01-27 02:54:09.52	345.32	14.86	-29.9	-32.9	13.3	2.13e-05	0	44	0	282066944	20	5083
2026-01-27 02:54:10.53	345.12	14.91	-29.9	-33.3	13.3	2.65e-04	0	44	0	283115520	19	5347
2026-01-27 02:54:11.53	344.93	14.95	-29.9	-33.3	13.4	2.05e-04	0	44	0	285212672	19	5326
2026-01-27 02:54:12.52	344.73	14.98	-30.0	-33.5	13.3	1.75e-05	0	43	0	287309824	19	5404
2026-01-27 02:54:13.53	344.53	15.02	-29.9	-32.8	13.3	2.72e-04	0	43	0	289406976	20	5039
2026-01-27 02:54:14.53	344.34	15.06	-29.8	-33.2	13.5	2.64e-04	0	44	0	291504128	19	5267
2026-01-27 02:54:15.54	344.14	15.10	-29.8	-33.1	13.6	1.14e-05	0	44	0	292552704	19	5248
2026-01-27 02:54:16.54	343.94	15.14	-29.8	-33.2	13.5	2.31e-04	0	44	0	294649856	19	5266
2026-01-27 02:54:17.54	343.74	15.18	-29.9	-33.3	13.5	2.43e-04	0	44	0	296747008	19	5311
2026-01-27 02:54:18.55	343.54	15.22	-29.9	-33.2	13.5	9.10e-06	0	43	0	298844160	19	5293
2026-01-27 02:54:19.55	343.34	15.25	-29.8	-33.1	13.5	6.80e-06	0	44	0	300941312	19	5259
2026-01-27 02:54:20.56	343.14	15.29	-29.7	-32.8	13.8	1.60e-04	0	44	0	301989888	19	5125
2026-01-27 02:54:21.56	342.94	15.33	-29.5	-32.3	14.1	3.00e-06	0	44	0	304087040	19	4957
2026-01-27 02:54:22.56	342.74	15.37	-29.5	-32.2	14.1	1.01e-04	0	43	0	306184192	19	4928
2026-01-27 02:54:23.56	342.53	15.40	-29.5	-32.2	14.1	7.93e-05	0	44	0	308281344	19	4907
2026-01-27 02:54:24.57	342.33	15.44	-29.6	-32.4	14.0	1.50e-06	0	44	0	309329920	19	4973
2026-01-27 02:54:25.57	342.13	15.47	-29.4	-32.1	14.2	1.12e-04	0	44	0	311427072	19	4876
2026-01-27 02:54:26.57	341.93	15.51	-29.5	-32.2	14.1	2.20e-06	0	44	0	313524224	19	4926
2026-01-27 02:54:27.58	341.72	15.55	-29.5	-32.3	14.1	2.20e-06	0	44	0	315621376	19	4933
2026-01-27 02:54:28.59	341.51	15.58	-29.5	-32.3	14.1	1.92e-04	0	43	0	317718528	19	4931
2026-01-27 02:54:29.58	341.31	15.61	-29.5	-32.3	14.1	7.00e-07	0	44	0	318767104	19	4942
2026-01-27 02:54:30.59	341.10	15.65	-29.7	-32.6	13.9	3.00e-06	0	44	0	320864256	19	5077
2026-01-27 02:54:31.59	340.90	15.68	-29.8	-32.9	13.7	2.07e-04	0	44	0	322961408	19	5178
2026-01-27 02:54:32.60	340.69	15.72	-29.7	-32.8	13.7	1.92e-04	0	44	0	325058560	19	5137
2026-01-27 02:54:33.60	340.48	15.75	-29.7	-32.7	13.8	6.10e-06	0	44	0	327155712	19	5106
2026-01-27 02:54:34.60	340.28	15.78	-29.7	-32.7	13.8	3.89e-05	0	44	0	328204288	19	5107
2026-01-27 02:54:35.61	340.07	15.82	-29.8	-32.9	13.7	6.10e-06	0	44	0	330301440	19	5178
2026-01-27 02:54:36.61	339.86	15.85	-29.8	-33.0	13.6	4.50e-06	0	44	0	332398592	19	5221
2026-01-27 02:54:37.61	339.65	15.88	-29.8	-32.9	13.7	9.10e-06	0	44	0	334495744	19	5161
2026-01-27 02:54:38.62	339.44	15.91	-29.6	-32.4	14.0	9.76e-05	0	44	0	336592896	19	4991
2026-01-27 02:54:39.62	339.23	15.94	-29.5	-32.1	14.2	2.20e-06	0	44	0	337641472	19	4890
2026-01-27 02:54:40.63	339.02	15.97	-29.5	-32.3	14.1	1.50e-06	0	44	0	339738624	19	4961
2026-01-27 02:54:41.63	338.81	16.00	-29.5	-32.3	14.1	3.80e-06	0	44	0	341835776	19	4962
2026-01-27 02:54:42.63	338.60	16.03	-29.5	-32.3	14.1	3.00e-06	0	44	0	343932928	19	4957
2026-01-27 02:54:43.64	338.39	16.06	-29.7	-32.6	13.9	5.30e-06	0	44	0	346030080	19	5061
2026-01-27 02:54:44.65	338.17	16.09	-29.6	-32.6	13.9	3.80e-06	0	44	0	347078656	19	5040
2026-01-27 02:54:45.65	337.96	16.12	-29.5	-32.3	14.1	2.20e-06	0	44	0	349175808	19	4960
2026-01-27 02:54:46.65	337.75	16.15	-29.5	-32.2	14.2	1.50e-06	0	44	0	351272960	19	4908
2026-01-27 02:54:47.66	337.54	16.18	-29.5	-32.1	14.2	0.00e+00	0	44	0	353370112	19	4894
2026-01-27 02:54:48.66	337.32	16.21	-29.4	-32.0	14.3	0.00e+00	0	44	0	355467264	19	4848
2026-01-27 02:54:49.67	337.11	16.24	-29.5	-32.1	14.2	7.00e-07	0	44	0	356515840	19	4871
2026-01-27 02:54:50.67	336.89	16.26	-29.6	-32.3	14.1	2.20e-06	0	44	0	358612992	19	4961
2026-01-27 02:54:51.68	336.68	16.29	-29.5	-32.2	14.1	2.20e-06	0	44	0	360710144	19	4929
2026-01-27 02:54:52.68	336.46	16.32	-29.5	-32.3	14.1	3.80e-06	0	44	0	362807296	19	4949
2026-01-27 02:54:53.68	336.25	16.34	-29.5	-32.1	14.2	0.00e+00	0	44	0	364904448	19	4891
2026-01-27 02:54:54.69	336.03	16.37	-29.5	-32.2	14.2	0.00e+00	0	44	0	365953024	19	4915
2026-01-27 02:54:55.69	335.81	16.39	-29.4	-32.0	14.3	0.00e+00	0	44	0	368050176	19	4836
2026-01-27 02:54:56.69	335.60	16.42	-29.4	-32.5	14.3	7.00e-07	0	44	0	370147328	18	5114
2026-01-27 02:54:57.69	335.38	16.44	-29.5	-32.2	14.2	0.00e+00	0	44	0	372244480	19	4901
2026-01-27 02:54:58.70	335.16	16.47	-29.7	-32.7	13.8	1.50e-06	0	44	0	374341632	19	5096
2026-01-27 02:54:59.69	334.95	16.49	-29.6	-32.5	13.9	6.10e-06	0	44	0	375390208	19	5031
2026-01-27 02:55:00.70	334.73	16.51	-29.5	-32.2	14.1	7.00e-07	0	44	0	377487360	19	4918
2026-01-27 02:55:01.70	334.51	16.54	-29.4	-32.0	14.3	0.00e+00	0	44	0	379584512	19	4839
2026-01-27 02:55:02.71	334.29	16.56	-29.4	-31.8	14.4	7.00e-07	0	44	0	381681664	19	4790
2026-01-27 02:55:03.71	334.07	16.58	-29.4	-31.9	14.4	7.00e-07	0	44	0	382730240	19	4812
2026-01-27 02:55:04.72	333.85	16.60	-29.5	-32.1	14.3	2.20e-06	0	44	0	384827392	19	4884
2026-01-27 02:55:05.72	333.63	16.62	-29.5	-32.2	14.2	7.00e-07	0	44	0	386924544	19	4893
2026-01-27 02:55:06.73	333.41	16.65	-29.4	-32.4	14.3	2.20e-06	0	44	0	389021696	18	5083
2026-01-27 02:55:07.73	333.19	16.67	-29.5	-32.3	14.0	1.50e-06	0	44	0	391118848	19	4940
2026-01-27 02:55:08.73	332.97	16.69	-29.8	-33.0	13.7	2.20e-06	0	44	0	392167424	19	5190
2026-01-27 02:55:09.73	332.75	16.71	-29.9	-33.2	13.5	6.10e-06	0	44	0	394264576	19	5285
2026-01-27 02:55:10.74	332.53	16.72	-29.9	-33.3	13.5	1.37e-05	0	44	0	396361728	19	5315
2026-01-27 02:55:11.74	332.31	16.74	-30.0	-33.4	13.4	1.29e-05	0	44	0	398458880	19	5376
2026-01-27 02:55:12.74	332.09	16.76	-29.9	-33.3	13.4	2.05e-05	0	44	0	400556032	19	5324
2026-01-27 02:55:13.74	331.86	16.78	-29.9	-33.2	13.5	3.25e-04	0	44	0	401604608	19	5294
2026-01-27 02:55:14.74	331.64	16.80	-29.8	-33.1	13.6	9.10e-06	0	44	0	403701760	19	5222
2026-01-27 02:55:15.74	331.42	16.81	-29.9	-33.2	13.6	1.14e-05	0	44	0	405798912	19	5271
2026-01-27 02:55:16.74	331.20	16.83	-29.9	-33.1	13.6	7.60e-06	0	44	0	407896064	19	5233
2026-01-27 02:55:17.74	330.98	16.85	-29.7	-32.8	13.8	4.50e-06	0	44	0	409993216	19	5125
2026-01-27 02:55:18.74	330.75	16.86	-29.7	-32.8	13.8	5.30e-06	0	44	0	411041792	19	5119
2026-01-27 02:55:19.75	330.53	16.88	-29.8	-33.0	13.7	3.80e-06	0	44	0	413138944	19	5208
2026-01-27 02:55:20.75	330.31	16.89	-29.8	-32.9	13.8	3.80e-06	0	44	0	415236096	19	5162
2026-01-27 02:55:21.75	330.08	16.91	-29.7	-32.8	13.8	2.20e-06	0	44	0	417333248	19	5137
2026-01-27 02:55:22.76	329.86	16.92	-29.8	-33.0	13.7	6.80e-06	0	44	0	419430400	19	5207
2026-01-27 02:55:23.76	329.63	16.94	-29.9	-33.1	13.6	9.10e-06	0	44	0	420478976	19	5242
2026-01-27 02:55:24.76	329.41	16.95	-29.9	-33.4	13.5	3.14e-04	0	44	0	422576128	19	5344
2026-01-27 02:55:25.77	329.18	16.96	-29.9	-33.3	13.5	1.06e-05	0	44	0	424673280	19	5299
2026-01-27 02:55:26.76	328.96	16.97	-29.9	-33.3	13.5	1.22e-05	0	44	0	426770432	19	5304
2026-01-27 02:55:27.77	328.73	16.99	-30.0	-33.5	13.3	1.25e-03	0	44	0	427819008	19	5389
2026-01-27 02:55:28.77	328.51	17.00	-30.1	-33.3	13.1	2.28e-05	0	44	0	429916160	20	5205
2026-01-27 02:55:29.76	328.29	17.01	-30.0	-33.1	13.2	2.51e-05	0	44	0	432013312	20	5143
2026-01-27 02:55:30.77	328.06	17.02	-30.1	-33.3	13.1	4.62e-04	0	44	0	434110464	20	5205
2026-01-27 02:55:31.77	327.83	17.03	-30.0	-33.0	13.3	3.12e-04	0	44	0	436207616	20	5088
2026-01-27 02:55:32.77	327.61	17.04	-29.9	-32.7	13.5	1.44e-05	0	44	0	437256192	20	4983
2026-01-27 02:55:33.78	327.38	17.05	-29.9	-33.2	13.5	3.53e-04	0	44	0	439353344	19	5295
2026-01-27 02:55:34.79	327.15	17.06	-29.9	-33.2	13.6	3.86e-04	0	44	0	441450496	19	5273
2026-01-27 02:55:35.79	326.93	17.06	-30.0	-33.4	13.4	8.30e-06	0	44	0	443547648	19	5364
2026-01-27 02:55:36.79	326.70	17.07	-30.0	-33.0	13.3	9.10e-06	0	44	0	445644800	20	5120
2026-01-27 02:55:37.79	326.47	17.08	-30.2	-33.6	12.9	6.35e-04	0	44	0	446693376	20	5316
2026-01-27 02:55:38.79	326.25	17.09	-30.1	-33.4	13.0	4.65e-05	0	44	0	448790528	20	5239
2026-01-27 02:55:39.79	326.02	17.09	-30.0	-33.1	13.2	3.12e-05	0	44	0	450887680	20	5135
2026-01-27 02:55:40.80	325.79	17.10	-30.0	-33.1	13.2	3.05e-04	0	44	0	452984832	20	5126
2026-01-27 02:55:41.80	325.57	17.10	-30.0	-33.2	13.1	2.36e-05	0	44	0	455081984	20	5170
2026-01-27 02:55:42.81	325.34	17.11	-30.0	-33.1	13.2	1.20e-04	0	44	0	456130560	20	5126
2026-01-27 02:55:43.82	325.11	17.11	-30.1	-33.3	13.0	2.82e-05	0	44	0	458227712	20	5219
2026-01-27 02:55:44.82	324.88	17.12	-30.1	-33.3	13.1	3.35e-05	0	44	0	460324864	20	5208
2026-01-27 02:55:45.83	324.65	17.12	-30.0	-33.1	13.3	1.98e-04	0	44	0	462422016	20	5124
2026-01-27 02:55:46.83	324.43	17.12	-30.0	-33.1	13.2	2.15e-04	0	44	0	464519168	20	5131
2026-01-27 02:55:47.84	324.20	17.13	-30.0	-33.1	13.2	1.83e-05	0	44	0	465567744	20	5138
2026-01-27 02:55:48.84	323.97	17.13	-30.0	-33.2	13.1	4.00e-04	0	44	0	467664896	20	5175
2026-01-27 02:55:49.83	323.74	17.13	-30.1	-33.4	13.0	5.30e-04	0	44	0	469762048	20	5250
2026-01-27 02:55:50.84	323.52	17.13	-30.1	-33.3	13.0	2.97e-05	0	44	0	471859200	20	5231
2026-01-27 02:55:51.84	323.29	17.13	-30.1	-33.3	13.1	5.42e-04	0	44	0	473956352	20	5227
2026-01-27 02:55:52.85	323.06	17.13	-30.1	-33.2	13.1	5.07e-04	0	44	0	475004928	20	5189
2026-01-27 02:55:53.85	322.83	17.13	-30.0	-33.2	13.1	3.89e-05	0	44	0	477102080	20	5183
2026-01-27 02:55:54.86	322.60	17.13	-30.2	-33.5	13.0	3.90e-04	0	44	0	479199232	20	5299
2026-01-27 02:55:55.86	322.38	17.13	-30.1	-33.3	13.1	3.17e-04	0	44	0	481296384	20	5214
2026-01-27 02:55:56.87	322.15	17.13	-30.1	-33.4	13.0	3.05e-05	0	44	0	482344960	20	5259
2026-01-27 02:55:57.87	321.92	17.13	-30.0	-33.2	13.1	3.12e-05	0	44	0	484442112	20	5180
2026-01-27 02:55:58.87	321.69	17.13	-30.1	-33.4	13.0	3.28e-05	0	44	0	486539264	20	5255
2026-01-27 02:55:59.87	321.47	17.12	-30.1	-33.3	13.1	4.19e-05	0	44	0	488636416	20	5215
2026-01-27 02:56:00.87	321.24	17.12	-30.1	-33.2	13.1	2.51e-05	0	44	0	490733568	20	5180
2026-01-27 02:56:01.88	321.01	17.12	-30.0	-33.0	13.3	1.11e-04	0	44	0	492830720	20	5108
2026-01-27 02:56:02.88	320.78	17.11	-30.1	-33.3	13.1	2.82e-05	0	44	0	493879296	20	5199
2026-01-27 02:56:03.89	320.55	17.11	-30.0	-33.0	13.3	3.35e-04	0	44	0	495976448	20	5106
2026-01-27 02:56:04.90	320.33	17.10	-29.8	-32.6	13.5	1.14e-05	0	44	0	498073600	20	4961
2026-01-27 02:56:05.90	320.10	17.10	-29.8	-32.6	13.5	1.29e-05	0	44	0	500170752	20	4968
2026-01-27 02:56:06.90	319.87	17.09	-30.0	-33.5	13.4	3.49e-04	0	44	0	501219328	19	5389
2026-01-27 02:56:07.91	319.64	17.08	-29.9	-32.8	13.4	1.60e-05	0	44	0	503316480	20	5046
2026-01-27 02:56:08.92	319.42	17.08	-29.9	-32.8	13.4	1.98e-05	0	44	0	505413632	20	5039
2026-01-27 02:56:09.92	319.19	17.07	-30.0	-33.4	13.4	2.43e-04	0	44	0	507510784	19	5371
2026-01-27 02:56:10.92	318.96	17.06	-30.0	-33.0	13.3	1.69e-04	0	44	0	509607936	20	5088
2026-01-27 02:56:11.92	318.74	17.05	-30.0	-33.2	13.2	2.59e-05	0	44	0	510656512	20	5160
2026-01-27 02:56:12.93	318.51	17.04	-29.9	-32.8	13.4	5.41e-05	0	44	0	512753664	20	5044
2026-01-27 02:56:13.93	318.28	17.04	-29.8	-32.6	13.5	3.81e-05	0	44	0	514850816	20	4955
2026-01-27 02:56:14.93	318.06	17.03	-29.8	-32.5	13.6	6.80e-06	0	44	0	516947968	20	4928
2026-01-27 02:56:15.94	317.83	17.02	-29.9	-32.8	13.4	1.52e-05	0	44	0	519045120	20	5032
2026-01-27 02:56:16.94	317.61	17.00	-29.9	-32.7	13.4	3.12e-05	0	44	0	520093696	20	5006
2026-01-27 02:56:17.94	317.38	16.99	-29.8	-32.6	13.5	8.30e-06	0	44	0	522190848	20	4971
2026-01-27 02:56:18.95	317.15	16.98	-29.9	-32.8	13.3	9.10e-06	0	44	0	524288000	20	5041
2026-01-27 02:56:19.95	316.93	16.97	-29.8	-32.4	13.6	8.30e-06	0	44	0	526385152	20	4895
2026-01-27 02:56:20.96	316.70	16.96	-29.6	-32.1	13.8	7.00e-07	0	44	0	528482304	20	4776
2026-01-27 02:56:21.96	316.48	16.95	-29.6	-32.0	13.9	7.00e-07	0	44	0	529530880	20	4750
2026-01-27 02:56:22.97	316.25	16.93	-29.7	-32.1	13.8	6.10e-06	0	44	0	531628032	20	4796
2026-01-27 02:56:23.97	316.03	16.92	-29.6	-32.0	13.9	3.00e-06	0	44	0	533725184	20	4755
2026-01-27 02:56:24.97	315.80	16.90	-29.8	-32.4	13.6	7.60e-06	0	44	0	535822336	20	4898
2026-01-27 02:56:25.98	315.58	16.89	-29.7	-32.2	13.8	5.30e-06	0	44	0	537919488	20	4816
2026-01-27 02:56:26.98	315.35	16.87	-29.8	-32.7	13.5	1.06e-05	0	44	0	538968064	20	4982
2026-01-27 02:56:27.98	315.13	16.86	-29.7	-32.4	13.7	9.10e-06	0	44	0	541065216	20	4880
2026-01-27 02:56:28.99	314.91	16.84	-29.6	-32.0	13.9	3.80e-06	0	44	0	543162368	20	4745
2026-01-27 02:56:29.99	314.68	16.83	-29.6	-31.9	14.0	3.80e-06	0	44	0	545259520	20	4721
2026-01-27 02:56:30.99	314.46	16.81	-29.7	-32.6	13.9	7.00e-07	0	44	0	547356672	19	5063
2026-01-27 02:56:31.99	314.24	16.79	-29.6	-32.4	14.0	1.50e-06	0	44	0	548405248	19	4984
2026-01-27 02:56:32.99	314.02	16.77	-29.5	-32.2	14.2	2.20e-06	0	44	0	550502400	19	4897
2026-01-27 02:56:34.00	313.79	16.76	-29.5	-32.6	14.2	2.20e-06	0	44	0	552599552	18	5169
2026-01-27 02:56:35.00	313.57	16.74	-29.4	-32.4	14.3	7.00e-07	0	44	0	554696704	18	5115
2026-01-27 02:56:36.01	313.35	16.72	-29.4	-32.4	14.3	7.00e-07	0	44	0	555745280	18	5105
2026-01-27 02:56:37.01	313.13	16.70	-29.3	-32.1	14.5	7.00e-07	0	44	0	557842432	18	4993
2026-01-27 02:56:38.01	312.91	16.68	-29.3	-32.1	14.6	7.00e-07	0	44	0	559939584	18	4984
2026-01-27 02:56:39.01	312.69	16.66	-29.3	-32.1	14.5	7.00e-07	0	44	0	562036736	18	4997
2026-01-27 02:56:40.01	312.47	16.64	-29.3	-32.1	14.6	7.00e-07	0	44	0	564133888	18	4974
2026-01-27 02:56:41.01	312.25	16.62	-29.3	-32.2	14.4	0.00e+00	0	44	0	565182464	18	5033
2026-01-27 02:56:42.02	312.03	16.60	-29.3	-32.1	14.5	7.00e-07	0	44	0	567279616	18	4974
2026-01-27 02:56:43.03	311.81	16.57	-29.3	-32.2	14.5	0.00e+00	0	44	0	569376768	18	5017
2026-01-27 02:56:44.03	311.59	16.55	-29.4	-32.3	14.4	0.00e+00	0	44	0	571473920	18	5073
2026-01-27 02:56:45.03	311.37	16.53	-29.4	-32.5	13.4	2.20e-06	0	44	0	573571072	18	5148
2026-01-27 02:56:46.03	311.15	16.51	-29.4	-32.5	13.6	7.00e-07	0	44	0	574619648	18	5134
2026-01-27 02:56:47.03	310.93	16.48	-29.5	-32.3	14.0	1.50e-06	0	44	0	576716800	19	4959
2026-01-27 02:56:48.04	310.71	16.46	-29.5	-32.6	13.8	7.00e-07	0	44	0	578813952	18	5181
2026-01-27 02:56:49.03	310.50	16.44	-29.4	-32.5	14.1	1.50e-06	0	44	0	580911104	18	5145
2026-01-27 02:56:50.04	310.28	16.41	-29.4	-32.6	14.2	3.80e-06	0	44	0	583008256	18	5156
2026-01-27 02:56:51.04	310.06	16.39	-29.5	-32.4	14.0	7.00e-07	0	44	0	584056832	19	4973
2026-01-27 02:56:52.05	309.85	16.36	-29.6	-32.6	13.9	1.61e-03	0	44	0	586153984	19	5043
2026-01-27 02:56:53.06	309.63	16.33	-29.5	-32.2	14.1	1.50e-06	0	44	0	588251136	19	4927
2026-01-27 02:56:54.06	309.41	16.31	-29.5	-32.3	14.1	1.50e-06	0	44	0	590348288	19	4954
2026-01-27 02:56:55.06	309.20	16.28	-29.7	-32.7	13.8	7.00e-07	0	44	0	592445440	19	5082
2026-01-27 02:56:56.07	308.98	16.25	-29.6	-32.5	13.9	1.50e-06	0	44	0	593494016	19	5016
2026-01-27 02:56:57.08	308.77	16.23	-29.7	-32.8	13.7	3.00e-06	0	44	0	595591168	19	5128
2026-01-27 02:56:58.07	308.55	16.20	-29.6	-32.6	13.9	6.80e-06	0	44	0	597688320	19	5053
2026-01-27 02:56:59.08	308.34	16.17	-29.6	-32.6	13.9	5.30e-06	0	44	0	599785472	19	5066
2026-01-27 02:57:00.08	308.13	16.14	-29.7	-32.8	13.7	6.80e-06	0	44	0	601882624	19	5122
2026-01-27 02:57:01.09	307.91	16.11	-29.7	-32.7	13.8	5.30e-06	0	44	0	602931200	19	5098
2026-01-27 02:57:02.09	307.70	16.08	-29.8	-32.9	13.7	5.30e-06	0	44	0	605028352	19	5182
2026-01-27 02:57:03.09	307.49	16.05	-29.7	-32.9	13.7	3.55e-04	0	44	0	607125504	19	5157
2026-01-27 02:57:04.10	307.27	16.02	-29.8	-33.0	13.6	9.10e-06	0	44	0	609222656	19	5222
2026-01-27 02:57:05.10	307.06	15.99	-30.0	-33.5	13.3	1.83e-05	0	44	0	611319808	19	5394
2026-01-27 02:57:06.10	306.85	15.96	-29.8	-33.0	13.6	3.81e-04	0	44	0	612368384	19	5221
2026-01-27 02:57:07.10	306.64	15.93	-29.7	-32.8	13.7	7.60e-06	0	44	0	614465536	19	5134
2026-01-27 02:57:08.10	306.43	15.90	-29.8	-32.9	13.6	6.80e-06	0	44	0	616562688	19	5186
2026-01-27 02:57:09.10	306.23	15.87	-29.7	-32.8	13.7	4.22e-04	0	44	0	618659840	19	5156
2026-01-27 02:57:10.10	306.02	15.84	-29.8	-33.1	13.5	4.14e-04	0	44	0	619708416	19	5253
2026-01-27 02:57:11.10	305.81	15.81	-29.9	-33.4	13.3	1.14e-05	0	44	0	621805568	19	5351
2026-01-27 02:57:12.11	305.60	15.77	-29.8	-33.1	13.5	4.24e-04	0	44	0	623902720	19	5272
2026-01-27 02:57:13.11	305.39	15.74	-29.9	-32.9	13.2	5.08e-04	0	44	0	625999872	20	5095
2026-01-27 02:57:14.12	305.18	15.71	-29.9	-32.8	13.3	1.44e-05	0	44	0	628097024	20	5034
2026-01-27 02:57:15.12	304.98	15.67	-29.9	-32.8	13.3	1.44e-05	0	44	0	629145600	20	5032
2026-01-27 02:57:16.12	304.77	15.64	-29.9	-33.0	13.2	8.13e-04	0	44	0	631242752	20	5113
2026-01-27 02:57:17.13	304.56	15.60	-29.8	-32.7	13.3	1.83e-05	0	44	0	633339904	20	5022
2026-01-27 02:57:18.14	304.36	15.57	-29.8	-33.2	13.4	1.98e-05	0	44	0	635437056	19	5283
2026-01-27 02:57:19.14	304.15	15.53	-29.8	-33.1	13.5	4.87e-04	0	44	0	637534208	19	5237
2026-01-27 02:57:20.15	303.95	15.50	-29.8	-33.0	13.5	4.50e-06	0	44	0	638582784	19	5218
2026-01-27 02:57:21.15	303.74	15.46	-29.9	-33.2	13.4	2.49e-04	0	44	0	640679936	19	5306
2026-01-27 02:57:22.16	303.54	15.43	-30.0	-33.0	13.1	2.91e-04	0	44	0	642777088	20	5128
2026-01-27 02:57:23.16	303.34	15.39	-29.8	-32.6	13.4	1.67e-05	0	44	0	644874240	20	4966
2026-01-27 02:57:24.16	303.13	15.35	-29.9	-33.2	13.4	6.21e-04	0	44	0	646971392	19	5300
2026-01-27 02:57:25.16	302.93	15.32	-29.9	-33.3	13.3	1.04e-04	0	44	0	648019968	19	5323
2026-01-27 02:57:26.16	302.73	15.28	-29.9	-33.4	13.3	2.51e-05	0	44	0	650117120	19	5362
2026-01-27 02:57:27.17	302.53	15.24	-29.9	-33.0	13.1	1.69e-03	0	44	0	652214272	20	5127
2026-01-27 02:57:28.17	302.33	15.20	-30.0	-33.2	13.0	1.66e-03	0	44	0	654311424	20	5216
2026-01-27 02:57:29.17	302.13	15.17	-30.1	-33.4	12.8	6.40e-05	0	44	0	656408576	20	5277
2026-01-27 02:57:30.18	301.93	15.13	-30.1	-33.5	12.7	1.63e-03	0	44	0	657457152	20	5317
2026-01-27 02:57:31.18	301.73	15.09	-30.2	-33.9	12.5	1.59e-03	0	44	0	659554304	20	5464
2026-01-27 02:57:32.19	301.53	15.05	-29.9	-33.0	13.1	4.88e-05	0	44	0	661651456	20	5130
2026-01-27 02:57:33.19	301.33	15.01	-29.8	-33.1	13.4	1.54e-03	0	44	0	663748608	19	5269
2026-01-27 02:57:34.20	301.14	14.97	-29.9	-33.3	13.2	1.62e-03	0	44	0	665845760	19	5353
2026-01-27 02:57:35.20	300.94	14.93	-29.7	-32.8	13.6	1.06e-05	0	44	0	666894336	19	5149
2026-01-27 02:57:36.21	300.74	14.89	-29.5	-32.4	13.9	3.49e-04	0	44	0	668991488	19	4997
2026-01-27 02:57:37.21	300.55	14.85	-29.5	-32.4	13.9	1.56e-03	0	44	0	671088640	19	5011
2026-01-27 02:57:38.22	300.35	14.81	-29.6	-32.5	13.8	5.30e-06	0	44	0	673185792	19	5051
2026-01-27 02:57:39.22	300.16	14.77	-29.5	-32.4	13.9	2.20e-06	0	44	0	675282944	19	5005
2026-01-27 02:57:40.22	299.96	14.73	-29.6	-32.5	13.8	1.43e-03	0	44	0	676331520	19	5025
2026-01-27 02:57:41.23	299.77	14.69	-29.6	-32.6	13.7	6.80e-06	0	44	0	678428672	19	5056
2026-01-27 02:57:42.23	299.58	14.64	-29.6	-32.5	13.8	7.60e-06	0	44	0	680525824	19	5040
2026-01-27 02:57:43.23	299.38	14.60	-29.7	-32.7	13.6	3.80e-06	0	44	0	682622976	19	5121
2026-01-27 02:57:44.24	299.19	14.56	-29.8	-33.1	13.4	9.10e-06	0	44	0	684720128	19	5256
2026-01-27 02:57:45.24	299.00	14.52	-29.7	-32.8	13.6	1.67e-03	0	44	0	685768704	19	5143
2026-01-27 02:57:46.25	298.81	14.47	-29.7	-32.9	13.5	9.90e-06	0	44	0	687865856	19	5203
2026-01-27 02:57:47.26	298.62	14.43	-29.8	-33.2	13.3	1.29e-05	0	44	0	689963008	19	5306
2026-01-27 02:57:48.26	298.43	14.39	-29.7	-32.9	13.5	1.11e-03	0	44	0	692060160	19	5179
2026-01-27 02:57:49.27	298.24	14.34	-29.7	-32.8	13.6	6.10e-06	0	44	0	693108736	19	5171
2026-01-27 02:57:50.27	298.05	14.30	-29.7	-32.9	13.5	1.14e-05	0	44	0	695205888	19	5185
2026-01-27 02:57:51.27	297.86	14.26	-29.7	-33.0	13.5	1.79e-04	0	44	0	697303040	19	5225
2026-01-27 02:57:52.27	297.67	14.21	-29.7	-33.0	13.4	1.96e-04	0	44	0	699400192	19	5228
2026-01-27 02:57:53.27	297.49	14.17	-29.7	-32.7	13.6	9.10e-06	0	44	0	701497344	19	5117
2026-01-27 02:57:54.28	297.30	14.12	-29.5	-32.4	13.8	1.14e-05	0	44	0	702545920	19	5021
2026-01-27 02:57:55.28	297.11	14.08	-29.5	-32.4	13.8	3.83e-04	0	44	0	704643072	19	5007
2026-01-27 02:57:56.28	296.93	14.04	-29.6	-32.5	13.7	3.80e-06	0	44	0	706740224	19	5053
2026-01-27 02:57:57.28	296.75	13.99	-29.6	-32.6	13.7	3.00e-06	0	44	0	708837376	19	5066
2026-01-27 02:57:58.28	296.56	13.95	-29.7	-32.8	13.5	8.30e-06	0	44	0	710934528	19	5163
2026-01-27 02:57:59.28	296.38	13.90	-29.8	-33.1	13.4	1.52e-05	0	44	0	711983104	19	5252
2026-01-27 02:58:00.29	296.19	13.85	-29.9	-33.3	13.2	1.75e-05	0	44	0	714080256	19	5350
2026-01-27 02:58:01.29	296.01	13.81	-29.9	-33.4	13.1	3.35e-05	0	44	0	716177408	19	5396
2026-01-27 02:58:02.29	295.83	13.76	-29.9	-33.4	13.1	2.36e-05	0	44	0	718274560	19	5370
2026-01-27 02:58:03.30	295.65	13.71	-29.9	-33.4	13.1	1.67e-05	0	44	0	720371712	19	5384
2026-01-27 02:58:04.30	295.47	13.67	-29.9	-33.5	13.0	3.35e-05	0	44	0	721420288	19	5450
2026-01-27 02:58:05.30	295.29	13.62	-30.0	-33.3	12.8	3.89e-05	0	44	0	723517440	20	5260
2026-01-27 02:58:06.30	295.11	13.57	-30.1	-33.6	12.6	8.77e-05	0	44	0	725614592	20	5367
2026-01-27 02:58:07.30	294.93	13.53	-30.1	-33.5	12.6	7.40e-05	0	44	0	727711744	20	5340
2026-01-27 02:58:08.31	294.75	13.48	-30.2	-33.8	12.4	1.37e-04	0	44	0	729808896	20	5469
2026-01-27 02:58:09.31	294.57	13.43	-30.2	-33.8	12.4	1.17e-04	0	44	0	730857472	20	5476
2026-01-27 02:58:10.31	294.40	13.39	-30.3	-34.2	12.1	2.63e-04	0	44	0	732954624	20	5645
2026-01-27 02:58:11.31	294.22	13.34	-30.4	-34.3	12.1	2.69e-04	0	44	0	735051776	20	5690
2026-01-27 02:58:12.31	294.05	13.29	-30.3	-34.3	12.1	2.86e-04	0	44	0	737148928	20	5661
2026-01-27 02:58:13.31	293.87	13.24	-30.4	-34.4	12.0	3.66e-04	0	44	0	738197504	20	5715
2026-01-27 02:58:14.32	293.70	13.19	-30.4	-34.4	11.9	3.49e-04	0	44	0	740294656	20	5714
2026-01-27 02:58:15.32	293.52	13.14	-30.5	-34.7	11.7	4.40e-04	0	44	0	742391808	20	5869
2026-01-27 02:58:16.33	293.35	13.10	-30.6	-34.6	11.4	8.64e-04	0	44	0	744488960	21	5704
2026-01-27 02:58:17.33	293.17	13.05	-30.7	-35.0	11.1	1.61e-03	0	44	0	746586112	21	5888
2026-01-27 02:58:18.34	293.00	13.00	-30.6	-34.7	11.3	1.26e-03	0	44	0	748683264	21	5759
2026-01-27 02:58:19.34	292.83	12.95	-30.5	-34.4	11.5	9.79e-04	0	44	0	749731840	21	5651
2026-01-27 02:58:20.35	292.66	12.90	-30.6	-34.6	11.4	8.19e-04	0	44	0	751828992	21	5709
2026-01-27 02:58:21.35	292.49	12.85	-30.7	-34.9	11.2	1.38e-03	0	44	0	753926144	21	5877
2026-01-27 02:58:22.36	292.31	12.80	-30.7	-34.9	11.1	1.37e-03	0	44	0	756023296	21	5876
2026-01-27 02:58:23.36	292.14	12.75	-30.7	-35.1	11.0	2.01e-03	0	44	0	757071872	21	5942
2026-01-27 02:58:24.36	291.98	12.70	-30.7	-35.2	10.9	1.70e-03	0	44	0	759169024	21	5984
2026-01-27 02:58:25.37	291.81	12.65	-30.8	-35.2	11.0	2.12e-03	0	44	0	761266176	21	5988
2026-01-27 02:58:26.38	291.64	12.60	-30.6	-34.7	11.0	1.49e-03	0	44	0	763363328	21	5788
2026-01-27 02:58:27.37	291.47	12.55	-30.6	-34.6	11.1	9.28e-04	0	44	0	765460480	21	5705
2026-01-27 02:58:28.38	291.30	12.50	-30.5	-34.5	11.5	8.93e-04	0	44	0	766509056	21	5660
2026-01-27 02:58:29.38	291.14	12.45	-30.6	-34.6	11.4	1.01e-03	0	44	0	768606208	21	5716
2026-01-27 02:58:30.38	290.97	12.40	-30.6	-34.6	11.3	8.84e-04	0	44	0	770703360	21	5741
2026-01-27 02:58:31.39	290.81	12.35	-30.7	-35.1	11.0	1.81e-03	0	44	0	772800512	21	5957
2026-01-27 02:58:32.38	290.64	12.30	-30.8	-35.3	10.9	1.85e-03	0	44	0	774897664	21	6033
2026-01-27 02:58:33.39	290.48	12.24	-30.9	-35.7	10.5	4.72e-03	0	44	0	775946240	21	6271
2026-01-27 02:58:34.39	290.32	12.19	-31.0	-35.9	10.4	3.64e-03	0	44	0	778043392	21	6350
2026-01-27 02:58:35.39	290.15	12.14	-31.1	-35.7	10.1	6.53e-03	0	44	0	780140544	22	6172
2026-01-27 02:58:36.40	289.99	12.09	-31.0	-35.9	10.3	5.45e-03	0	44	0	782237696	21	6383
2026-01-27 02:58:37.40	289.83	12.04	-30.9	-35.7	10.5	4.33e-03	0	44	0	784334848	21	6286
2026-01-27 02:58:38.41	289.67	11.99	-30.9	-35.7	10.5	4.49e-03	0	44	0	785383424	21	6269
2026-01-27 02:58:39.42	289.51	11.93	-30.8	-35.5	10.6	3.51e-03	0	44	0	787480576	21	6194
2026-01-27 02:58:40.42	289.35	11.88	-30.9	-35.6	10.6	3.55e-03	0	44	0	789577728	21	6210
2026-01-27 02:58:41.42	289.19	11.83	-30.9	-35.7	10.5	4.25e-03	0	44	0	791674880	21	6237
2026-01-27 02:58:42.42	289.03	11.78	-30.8	-35.4	10.7	3.42e-03	0	44	0	793772032	21	6101
2026-01-27 02:58:43.43	288.87	11.73	-30.7	-35.1	10.9	2.32e-03	0	44	0	794820608	21	5982
2026-01-27 02:58:44.43	288.71	11.67	-30.7	-34.9	11.0	3.96e-03	0	44	0	796917760	21	5891
2026-01-27 02:58:45.43	288.56	11.62	-30.7	-35.0	11.0	1.89e-03	0	44	0	799014912	21	5921
2026-01-27 02:58:46.43	288.40	11.57	-30.7	-35.1	10.9	2.06e-03	0	44	0	801112064	21	5997
2026-01-27 02:58:47.43	288.25	11.52	-30.8	-35.3	10.8	4.27e-03	0	44	0	803209216	21	6059
2026-01-27 02:58:48.44	288.09	11.46	-30.8	-35.3	10.7	4.03e-03	0	44	0	804257792	21	6058
2026-01-27 02:58:49.44	287.93	11.41	-30.8	-35.5	10.6	2.98e-03	0	44	0	806354944	21	6159
2026-01-27 02:58:50.45	287.78	11.36	-30.8	-35.4	10.6	4.06e-03	0	44	0	808452096	21	6141
2026-01-27 02:58:51.45	287.63	11.30	-30.8	-35.4	10.7	3.37e-03	0	44	0	810549248	21	6102
2026-01-27 02:58:52.45	287.47	11.25	-30.8	-35.6	10.5	3.34e-03	0	44	0	811597824	21	6225
2026-01-27 02:58:53.45	287.32	11.20	-30.8	-35.4	10.6	4.43e-03	0	44	0	813694976	21	6157
2026-01-27 02:58:54.45	287.17	11.14	-30.7	-35.0	10.9	2.68e-03	0	44	0	815792128	21	5951
2026-01-27 02:58:55.45	287.02	11.09	-30.6	-34.8	11.0	1.86e-03	0	44	0	817889280	21	5846
2026-01-27 02:58:56.46	286.87	11.04	-30.6	-34.8	11.0	1.76e-03	0	44	0	819986432	21	5856
2026-01-27 02:58:57.46	286.72	10.98	-30.7	-35.0	10.9	2.42e-03	0	44	0	821035008	21	5947
2026-01-27 02:58:58.46	286.57	10.93	-30.8	-35.3	10.6	2.49e-03	0	44	0	823132160	21	6101
2026-01-27 02:58:59.46	286.42	10.88	-30.8	-35.4	10.6	3.69e-03	0	44	0	825229312	21	6158
2026-01-27 02:59:00.47	286.27	10.82	-30.8	-35.4	10.6	3.58e-03	0	44	0	827326464	21	6127
2026-01-27 02:59:01.47	286.12	10.77	-30.7	-35.3	10.7	2.99e-03	0	44	0	829423616	21	6073
2026-01-27 02:59:02.47	285.97	10.72	-30.7	-35.3	10.7	5.09e-03	0	44	0	830472192	21	6083
2026-01-27 02:59:03.47	285.83	10.66	-30.6	-35.0	10.9	2.78e-03	0	44	0	832569344	21	5961
2026-01-27 02:59:04.48	285.68	10.61	-30.6	-35.0	10.9	2.03e-03	0	44	0	834666496	21	5925
2026-01-27 02:59:05.48	285.53	10.55	-30.5	-34.7	11.1	4.27e-03	0	44	0	836763648	21	5791
2026-01-27 02:59:06.48	285.39	10.50	-30.5	-34.5	11.3	3.70e-03	0	44	0	838860800	21	5706
2026-01-27 02:59:07.49	285.24	10.44	-30.4	-34.3	11.3	1.12e-03	0	44	0	839909376	21	5638
2026-01-27 02:59:08.49	285.10	10.39	-30.5	-34.5	11.2	3.60e-03	0	44	0	842006528	21	5731
2026-01-27 02:59:09.49	284.96	10.34	-30.4	-34.4	11.2	4.04e-03	0	44	0	844103680	21	5688
2026-01-27 02:59:10.50	284.81	10.28	-30.3	-34.1	11.5	8.89e-04	0	44	0	846200832	21	5530
2026-01-27 02:59:11.50	284.67	10.23	-30.3	-34.4	11.6	2.67e-03	0	44	0	848297984	20	5788
2026-01-27 02:59:12.50	284.53	10.17	-30.3	-34.3	11.6	2.26e-03	0	44	0	849346560	20	5750
2026-01-27 02:59:13.51	284.39	10.12	-30.3	-34.5	11.5	6.77e-04	0	44	0	851443712	20	5844
2026-01-27 02:59:14.51	284.25	10.06	-30.4	-34.6	11.4	2.22e-03	0	44	0	853540864	20	5893
2026-01-27 02:59:15.51	284.11	10.01	-30.3	-34.6	11.5	2.37e-03	0	44	0	855638016	20	5861
2026-01-27 02:59:16.51	283.97	9.96	-30.4	-34.8	11.3	9.63e-04	0	44	0	856686592	20	5956
2026-01-27 02:59:17.51	283.83	9.90	-30.4	-34.8	11.3	1.24e-03	0	44	0	858783744	20	5982
2026-01-27 02:59:18.51	283.69	9.85	-30.4	-34.7	11.3	3.58e-03	0	44	0	860880896	20	5918
2026-01-27 02:59:19.52	283.55	9.79	-30.4	-34.8	11.3	1.13e-03	0	44	0	862978048	20	5993
2026-01-27 02:59:20.52	283.41	9.74	-30.5	-35.0	11.1	4.18e-03	0	44	0	865075200	20	6083
2026-01-27 02:59:21.52	283.27	9.68	-30.4	-34.8	11.3	1.25e-03	0	44	0	866123776	20	5977
2026-01-27 02:59:22.52	283.14	9.63	-30.4	-34.7	11.3	1.10e-03	0	44	0	868220928	20	5941
2026-01-27 02:59:23.52	283.00	9.57	-30.4	-34.9	11.1	3.70e-03	0	44	0	870318080	20	6023
2026-01-27 02:59:24.53	282.87	9.52	-30.4	-34.8	11.2	1.80e-03	0	44	0	872415232	20	5997
2026-01-27 02:59:25.53	282.73	9.46	-30.2	-34.3	11.6	1.00e-03	0	44	0	874512384	20	5739
2026-01-27 02:59:26.54	282.60	9.41	-30.2	-34.1	11.7	2.88e-03	0	44	0	875560960	20	5666
2026-01-27 02:59:27.55	282.46	9.35	-30.2	-34.1	11.7	5.52e-04	0	44	0	877658112	20	5667
2026-01-27 02:59:28.55	282.33	9.30	-30.2	-34.3	11.6	6.39e-04	0	44	0	879755264	20	5753
2026-01-27 02:59:29.55	282.19	9.24	-30.3	-34.4	11.4	3.27e-03	0	44	0	881852416	20	5811
2026-01-27 02:59:30.55	282.06	9.19	-30.1	-33.9	11.8	3.03e-03	0	44	0	883949568	20	5571
2026-01-27 02:59:31.56	281.93	9.13	-30.0	-33.6	12.0	3.53e-04	0	44	0	884998144	20	5456
2026-01-27 02:59:32.56	281.80	9.08	-29.9	-33.4	12.1	2.64e-04	0	44	0	887095296	20	5381
2026-01-27 02:59:33.56	281.67	9.02	-30.0	-34.0	12.2	2.44e-03	0	44	0	889192448	19	5733
2026-01-27 02:59:34.56	281.54	8.97	-29.9	-33.3	12.3	2.34e-04	0	44	0	891289600	20	5315
2026-01-27 02:59:35.56	281.41	8.91	-29.9	-33.7	12.4	1.72e-04	0	44	0	893386752	19	5580
2026-01-27 02:59:36.56	281.28	8.86	-29.9	-34.0	12.2	2.30e-03	0	44	0	894435328	19	5710
2026-01-27 02:59:37.56	281.15	8.80	-29.8	-33.6	12.4	2.45e-04	0	44	0	896532480	19	5556
2026-01-27 02:59:38.57	281.02	8.74	-29.7	-33.3	12.6	1.11e-04	0	44	0	898629632	19	5447
2026-01-27 02:59:39.56	280.89	8.69	-29.7	-33.3	12.6	8.69e-05	0	44	0	900726784	19	5432
2026-01-27 02:59:40.57	280.76	8.63	-29.7	-33.2	12.7	8.92e-05	0	44	0	901775360	19	5408
2026-01-27 02:59:41.57	280.64	8.58	-29.7	-33.3	12.6	1.10e-04	0	44	0	903872512	19	5422
2026-01-27 02:59:42.57	280.51	8.52	-29.8	-33.4	12.5	1.09e-04	0	44	0	905969664	19	5476
2026-01-27 02:59:43.56	280.39	8.47	-29.8	-33.5	12.5	1.20e-04	0	44	0	908066816	19	5492
2026-01-27 02:59:44.57	280.26	8.41	-29.8	-33.7	12.3	2.63e-03	0	44	0	910163968	19	5577
2026-01-27 02:59:45.57	280.13	8.36	-29.8	-33.6	12.4	1.59e-04	0	44	0	911212544	19	5558
2026-01-27 02:59:46.57	280.01	8.30	-29.8	-33.4	12.5	1.28e-04	0	44	0	913309696	19	5462
2026-01-27 02:59:47.58	279.89	8.25	-29.7	-33.3	12.6	2.43e-03	0	44	0	915406848	19	5422
2026-01-27 02:59:48.58	279.76	8.19	-29.7	-33.2	12.6	9.53e-05	0	44	0	917504000	19	5408
2026-01-27 02:59:49.58	279.64	8.14	-29.7	-33.3	12.6	1.04e-04	0	44	0	919601152	19	5419
2026-01-27 02:59:50.58	279.52	8.08	-29.7	-33.2	12.6	1.22e-04	0	44	0	920649728	19	5407
2026-01-27 02:59:51.59	279.39	8.03	-29.7	-33.2	12.6	8.46e-05	0	44	0	922746880	19	5389
2026-01-27 02:59:52.59	279.27	7.97	-29.7	-33.2	12.6	7.70e-05	0	44	0	924844032	19	5413
2026-01-27 02:59:53.59	279.15	7.92	-29.7	-33.1	12.7	8.62e-05	0	44	0	926941184	19	5364
2026-01-27 02:59:54.59	279.03	7.86	-29.8	-33.5	12.4	1.16e-04	0	44	0	929038336	19	5546
2026-01-27 02:59:55.60	278.91	7.80	-29.8	-33.7	12.2	2.42e-04	0	44	0	930086912	19	5618
2026-01-27 02:59:56.60	278.79	7.75	-29.8	-33.7	12.2	2.35e-04	0	44	0	932184064	19	5627
2026-01-27 02:59:57.60	278.67	7.69	-29.9	-33.9	12.1	2.34e-04	0	44	0	934281216	19	5716
2026-01-27 02:59:58.60	278.55	7.64	-29.9	-33.5	11.9	3.82e-04	0	44	0	936378368	20	5439
2026-01-27 02:59:59.60	278.43	7.58	-29.8	-33.3	12.1	3.10e-04	0	44	0	938475520	20	5336
2026-01-27 03:00:00.61	278.31	7.53	-29.8	-33.3	12.1	2.46e-04	0	44	0	939524096	20	5370
2026-01-27 03:00:01.62	278.20	7.47	-29.9	-33.3	12.0	2.87e-04	0	44	0	941621248	20	5374
2026-01-27 03:00:02.62	278.08	7.42	-30.0	-33.6	11.8	3.80e-04	0	44	0	943718400	20	5491
2026-01-27 03:00:03.63	277.96	7.36	-29.9	-33.5	11.9	5.52e-04	0	44	0	945815552	20	5442
2026-01-27 03:00:04.63	277.85	7.31	-29.8	-33.2	12.2	2.82e-04	0	44	0	947912704	20	5297
2026-01-27 03:00:05.64	277.73	7.25	-29.0	-32.8	11.9	2.04e-04	0	44	0	948961280	19	5593
2026-01-27 03:00:06.64	277.61	7.19	-29.9	-33.8	12.1	3.21e-04	0	44	0	951058432	19	5670
2026-01-27 03:00:07.64	277.50	7.14	-29.8	-33.5	11.8	2.20e-04	0	44	0	953155584	19	5532
2026-01-27 03:00:08.65	277.38	7.08	-29.8	-33.7	11.6	2.22e-04	0	44	0	955252736	19	5614
2026-01-27 03:00:09.65	277.27	7.03	-32.7	-46.8	3.8	4.50e-01	0	44	104	956301312	25	18317
2026-01-27 03:00:10.66	277.16	6.97	-33.1	-47.3	3.8	1.49e+00	0	44	104	956301312	26	18437

#Closed at: 2026-01-27 03:00:11
#Recorded file [956 MB]: D:/data/31010_260127_055138.dat