passes_logs/2026/01/27/R2M6_AANII_01/R2M6_AANII_01__20260127_032739_FENGYUN_3D_rec.log

#Pass ID: 20260127_032739_FENGYUN 3D
#Satellite: FENGYUN 3D
#Configuration: FENGYUN 3D
#almurnet v.1.7.20240730
#Start time: 2026-01-27 03:27:39

#Version: 2.2.20231116
#Station: R2M6_AANII_01
#Location: 30.233357 lon 59.946436 lat
#TLE: 1 43010U 17072A   26026.49129444  .00000151  00000+0  93391-4 0  9993
#TLE: 2 43010  98.9962 358.4866 0002525  88.1664 271.9801 14.19700337424889

#Time	Az	El	Level	Level2	SNR	BER	BlckErr	Temp	State	Recorded	gain1	gain2
2026-01-27 03:27:39.94	14.10	7.04	-30.5	-34.6	5.0	8.01e-01	0	42	0	0	21	5771
2026-01-27 03:27:40.93	14.06	7.11	-30.7	-35.2	5.0	8.05e-01	0	41	104	0	21	6011
2026-01-27 03:27:41.94	14.01	7.19	-30.6	-34.5	8.0	6.44e-02	0	42	0	0	21	5696
2026-01-27 03:27:42.95	13.96	7.26	-30.6	-34.8	7.8	6.40e-02	0	42	0	5242880	21	5816
2026-01-27 03:27:43.95	13.91	7.34	-30.8	-35.4	7.5	8.39e-02	0	42	0	11534336	21	6104
2026-01-27 03:27:44.95	13.86	7.41	-30.6	-34.7	7.9	6.89e-02	0	41	0	16777216	21	5751
2026-01-27 03:27:45.96	13.81	7.49	-30.5	-34.2	8.3	5.07e-02	0	42	0	22020096	21	5531
2026-01-27 03:27:46.96	13.76	7.56	-30.3	-33.7	8.7	3.00e-02	0	42	0	28311552	21	5334
2026-01-27 03:27:47.96	13.71	7.63	-30.2	-33.8	9.0	2.32e-02	0	42	0	33554432	20	5470
2026-01-27 03:27:48.97	13.65	7.71	-30.3	-34.1	8.8	2.35e-02	0	42	0	38797312	20	5602
2026-01-27 03:27:49.97	13.60	7.79	-30.6	-34.7	8.0	4.62e-02	0	42	0	45088768	21	5748
2026-01-27 03:27:50.97	13.55	7.86	-30.2	-33.3	9.0	2.54e-02	0	42	0	50331648	21	5171
2026-01-27 03:27:51.98	13.50	7.94	-29.8	-32.7	9.8	9.77e-03	0	42	0	55574528	20	5037
2026-01-27 03:27:52.98	13.45	8.01	-29.4	-31.6	10.5	4.88e-03	0	42	0	61865984	20	4623
2026-01-27 03:27:53.98	13.40	8.09	-28.9	-31.3	11.5	1.03e-03	0	42	0	67108864	18	4730
2026-01-27 03:27:54.99	13.34	8.17	-28.5	-30.2	12.2	2.16e-04	0	42	0	73400320	18	4383
2026-01-27 03:27:55.98	13.29	8.24	-28.0	-29.5	12.9	4.80e-05	0	42	0	78643200	17	4289
2026-01-27 03:27:56.98	13.24	8.32	-27.7	-29.3	13.4	1.14e-05	0	42	0	83886080	16	4314
2026-01-27 03:27:57.99	13.18	8.40	-27.1	-28.5	14.0	1.10e-06	0	42	0	90177536	15	4213
2026-01-27 03:27:58.99	13.13	8.47	-27.0	-28.1	14.2	0.00e+00	0	42	0	95420416	15	4110
2026-01-27 03:27:59.99	13.07	8.55	-26.9	-28.4	14.3	1.10e-06	0	42	0	101711872	14	4296
2026-01-27 03:28:00.99	13.02	8.63	-27.0	-28.7	14.1	0.00e+00	0	42	0	106954752	14	4393
2026-01-27 03:28:02.00	12.96	8.71	-26.9	-28.5	14.3	0.00e+00	0	42	0	112197632	14	4327
2026-01-27 03:28:03.00	12.91	8.79	-26.8	-28.8	14.4	0.00e+00	0	42	0	118489088	13	4514
2026-01-27 03:28:04.00	12.85	8.86	-26.9	-29.0	14.3	0.00e+00	0	42	0	123731968	13	4569
2026-01-27 03:28:05.00	12.80	8.94	-26.9	-28.9	14.3	0.00e+00	0	42	0	128974848	13	4549
2026-01-27 03:28:06.00	12.74	9.02	-26.9	-29.0	14.3	4.50e-06	0	42	0	135266304	13	4586
2026-01-27 03:28:07.01	12.69	9.10	-26.9	-29.1	14.3	0.00e+00	0	42	0	140509184	13	4604
2026-01-27 03:28:08.02	12.63	9.18	-26.9	-29.1	14.3	1.10e-06	0	42	0	146800640	13	4604
2026-01-27 03:28:09.02	12.57	9.26	-27.2	-29.2	14.0	0.00e+00	0	43	0	152043520	14	4519
2026-01-27 03:28:10.01	12.51	9.34	-27.1	-29.0	14.1	1.10e-06	0	42	0	157286400	14	4449
2026-01-27 03:28:11.02	12.46	9.42	-26.8	-28.3	14.5	2.20e-06	0	42	0	163577856	14	4272
2026-01-27 03:28:12.03	12.40	9.50	-26.7	-28.6	14.6	0.00e+00	0	42	0	168820736	13	4465
2026-01-27 03:28:13.03	12.34	9.58	-26.8	-28.6	14.5	0.00e+00	0	42	0	174063616	13	4477
2026-01-27 03:28:14.04	12.28	9.66	-26.8	-28.8	14.5	0.00e+00	0	42	0	180355072	13	4511
2026-01-27 03:28:15.04	12.22	9.74	-26.7	-28.6	14.6	0.00e+00	0	43	0	185597952	13	4453
2026-01-27 03:28:16.04	12.16	9.82	-26.9	-28.9	14.4	0.00e+00	0	42	0	191889408	13	4535
2026-01-27 03:28:17.04	12.10	9.90	-26.8	-28.7	14.6	0.00e+00	0	42	0	197132288	13	4478
2026-01-27 03:28:18.05	12.04	9.99	-26.7	-28.5	14.7	0.00e+00	0	43	0	202375168	13	4435
2026-01-27 03:28:19.05	11.98	10.07	-26.8	-28.8	14.5	0.00e+00	0	43	0	208666624	13	4509
2026-01-27 03:28:20.05	11.92	10.15	-27.0	-29.1	14.3	0.00e+00	0	43	0	213909504	13	4599
2026-01-27 03:28:21.05	11.86	10.23	-26.9	-28.9	14.4	0.00e+00	0	43	0	220200960	13	4546
2026-01-27 03:28:22.05	11.80	10.31	-26.9	-28.9	14.4	0.00e+00	0	43	0	225443840	13	4561
2026-01-27 03:28:23.05	11.73	10.40	-26.8	-28.8	14.5	1.10e-06	0	43	0	230686720	13	4515
2026-01-27 03:28:24.06	11.67	10.48	-26.9	-29.0	14.4	0.00e+00	0	43	0	236978176	13	4570
2026-01-27 03:28:25.06	11.61	10.56	-26.8	-28.7	14.6	0.00e+00	0	43	0	242221056	13	4475
2026-01-27 03:28:26.07	11.54	10.65	-26.7	-28.4	14.7	0.00e+00	0	43	0	247463936	13	4406
2026-01-27 03:28:27.07	11.48	10.73	-26.8	-28.8	14.6	0.00e+00	0	43	0	253755392	13	4504
2026-01-27 03:28:28.08	11.42	10.82	-26.7	-28.4	14.7	0.00e+00	0	43	0	258998272	13	4405
2026-01-27 03:28:29.09	11.35	10.90	-26.8	-28.7	14.6	0.00e+00	0	43	0	265289728	13	4477
2026-01-27 03:28:30.09	11.29	10.98	-26.7	-28.4	14.8	0.00e+00	0	43	0	270532608	13	4398
2026-01-27 03:28:31.09	11.22	11.07	-26.5	-28.0	15.0	0.00e+00	0	43	0	275775488	13	4278
2026-01-27 03:28:32.10	11.16	11.15	-26.4	-27.7	15.2	0.00e+00	0	43	0	282066944	13	4214
2026-01-27 03:28:33.10	11.09	11.24	-26.4	-28.3	15.1	0.00e+00	0	43	0	287309824	12	4496
2026-01-27 03:28:34.10	11.02	11.33	-26.3	-28.1	15.2	0.00e+00	0	43	0	293601280	12	4425
2026-01-27 03:28:35.11	10.96	11.41	-26.4	-28.2	15.2	0.00e+00	0	43	0	298844160	12	4462
2026-01-27 03:28:36.11	10.89	11.50	-26.2	-28.0	15.3	3.74e-04	0	43	0	304087040	12	4390
2026-01-27 03:28:37.12	10.82	11.58	-26.2	-27.8	15.4	0.00e+00	0	43	0	310378496	12	4341
2026-01-27 03:28:38.13	10.75	11.67	-26.2	-27.9	15.4	0.00e+00	0	43	0	315621376	12	4377
2026-01-27 03:28:39.13	10.68	11.76	-26.3	-28.1	15.3	2.96e-04	0	43	0	320864256	12	4432
2026-01-27 03:28:40.13	10.61	11.85	-26.2	-27.8	15.4	0.00e+00	0	43	0	327155712	12	4344
2026-01-27 03:28:41.13	10.54	11.93	-26.2	-27.9	15.4	3.29e-04	0	43	0	332398592	12	4380
2026-01-27 03:28:42.13	10.48	12.02	-26.4	-28.3	15.1	0.00e+00	0	43	0	337641472	12	4496
2026-01-27 03:28:43.13	10.41	12.11	-26.3	-28.0	15.4	0.00e+00	0	43	0	343932928	12	4400
2026-01-27 03:28:44.13	10.33	12.20	-26.3	-28.0	15.4	0.00e+00	0	43	0	349175808	12	4399
2026-01-27 03:28:45.13	10.26	12.28	-26.3	-28.2	15.3	0.00e+00	0	43	0	355467264	12	4437
2026-01-27 03:28:46.13	10.19	12.37	-26.2	-27.9	15.4	0.00e+00	0	43	0	360710144	12	4374
2026-01-27 03:28:47.14	10.12	12.46	-26.2	-27.8	15.5	0.00e+00	0	43	0	367001600	12	4349
2026-01-27 03:28:48.14	10.05	12.55	-26.2	-27.8	15.6	3.17e-04	0	43	0	372244480	12	4327
2026-01-27 03:28:49.14	9.97	12.64	-26.1	-27.7	15.6	0.00e+00	0	43	0	377487360	12	4317
2026-01-27 03:28:50.14	9.90	12.73	-26.2	-27.8	15.5	3.07e-04	0	43	0	383778816	12	4327
2026-01-27 03:28:51.15	9.83	12.82	-26.2	-27.9	15.5	2.56e-04	0	43	0	389021696	12	4369
2026-01-27 03:28:52.15	9.75	12.91	-26.1	-27.6	15.6	0.00e+00	0	43	0	394264576	12	4293
2026-01-27 03:28:53.16	9.68	13.00	-26.0	-27.5	15.7	2.25e-04	0	43	0	400556032	12	4249
2026-01-27 03:28:54.17	9.60	13.09	-26.0	-27.5	15.7	0.00e+00	0	43	0	405798912	12	4255
2026-01-27 03:28:55.17	9.52	13.19	-26.0	-27.4	15.8	0.00e+00	0	43	0	411041792	12	4238
2026-01-27 03:28:56.18	9.45	13.28	-26.0	-27.5	15.8	0.00e+00	0	43	0	417333248	12	4249
2026-01-27 03:28:57.18	9.37	13.37	-26.0	-27.3	15.8	2.85e-04	0	43	0	422576128	12	4207
2026-01-27 03:28:58.19	9.29	13.46	-26.0	-27.3	15.8	0.00e+00	0	43	0	428867584	12	4200
2026-01-27 03:28:59.19	9.21	13.55	-26.0	-27.3	15.8	2.79e-04	0	43	0	434110464	12	4214
2026-01-27 03:29:00.19	9.14	13.65	-26.1	-27.6	15.7	3.17e-04	0	43	0	440401920	12	4273
2026-01-27 03:29:01.19	9.06	13.74	-25.8	-27.0	16.0	0.00e+00	0	43	0	445644800	12	4130
2026-01-27 03:29:02.20	8.98	13.83	-25.9	-27.7	16.0	3.51e-04	0	43	0	450887680	11	4426
2026-01-27 03:29:03.20	8.90	13.93	-26.0	-27.4	15.8	0.00e+00	0	43	0	457179136	12	4224
2026-01-27 03:29:04.21	8.82	14.02	-25.8	-26.9	16.1	0.00e+00	0	43	0	462422016	12	4102
2026-01-27 03:29:05.21	8.74	14.12	-25.8	-27.5	16.1	3.13e-04	0	43	0	467664896	11	4353
2026-01-27 03:29:06.21	8.65	14.21	-25.9	-27.6	16.1	3.00e-04	0	43	0	473956352	11	4376
2026-01-27 03:29:07.21	8.57	14.31	-25.7	-27.3	16.2	0.00e+00	0	43	0	479199232	11	4312
2026-01-27 03:29:08.22	8.49	14.40	-25.7	-27.1	16.3	0.00e+00	0	43	0	484442112	11	4264
2026-01-27 03:29:09.23	8.41	14.50	-25.7	-27.2	16.3	1.83e-04	0	43	0	490733568	11	4273
2026-01-27 03:29:10.24	8.32	14.59	-25.7	-27.2	16.3	0.00e+00	0	43	0	495976448	11	4288
2026-01-27 03:29:11.23	8.24	14.69	-25.6	-27.0	16.4	2.01e-04	0	43	0	502267904	11	4218
2026-01-27 03:29:12.24	8.15	14.79	-25.6	-27.0	16.4	0.00e+00	0	43	0	507510784	11	4226
2026-01-27 03:29:13.25	8.07	14.88	-25.6	-27.1	16.4	0.00e+00	0	43	0	513802240	11	4253
2026-01-27 03:29:14.25	7.98	14.98	-25.6	-27.0	16.4	0.00e+00	0	43	0	519045120	11	4224
2026-01-27 03:29:15.24	7.89	15.08	-25.6	-27.1	16.4	0.00e+00	0	43	0	524288000	11	4256
2026-01-27 03:29:16.25	7.81	15.18	-25.6	-27.0	16.4	0.00e+00	0	43	0	530579456	11	4232
2026-01-27 03:29:17.25	7.72	15.27	-25.7	-27.2	16.4	0.00e+00	0	43	0	535822336	11	4279
2026-01-27 03:29:18.25	7.63	15.37	-25.7	-27.2	16.4	1.36e-04	0	43	0	541065216	11	4288
2026-01-27 03:29:19.25	7.54	15.47	-25.5	-26.8	16.5	0.00e+00	0	43	0	547356672	11	4179
2026-01-27 03:29:20.25	7.45	15.57	-25.4	-26.6	16.7	0.00e+00	0	43	0	552599552	11	4114
2026-01-27 03:29:21.25	7.36	15.67	-25.4	-26.6	16.7	0.00e+00	0	44	0	557842432	11	4125
2026-01-27 03:29:22.26	7.27	15.77	-25.5	-26.7	16.6	0.00e+00	0	43	0	564133888	11	4143
2026-01-27 03:29:23.26	7.18	15.87	-25.3	-26.3	16.9	1.46e-04	0	43	0	569376768	11	4040
2026-01-27 03:29:24.26	7.09	15.97	-25.2	-26.0	17.0	0.00e+00	0	43	0	575668224	11	3982
2026-01-27 03:29:25.27	6.99	16.07	-25.1	-26.0	17.0	0.00e+00	0	43	0	580911104	11	3968
2026-01-27 03:29:26.27	6.90	16.17	-25.1	-25.8	17.1	0.00e+00	0	43	0	586153984	11	3917
2026-01-27 03:29:27.28	6.80	16.27	-25.0	-26.2	17.1	0.00e+00	0	43	0	592445440	10	4142
2026-01-27 03:29:28.28	6.71	16.37	-25.0	-26.3	17.2	0.00e+00	0	43	0	597688320	10	4145
2026-01-27 03:29:29.29	6.61	16.48	-25.1	-26.5	17.1	0.00e+00	0	44	0	603979776	10	4192
2026-01-27 03:29:30.30	6.52	16.58	-25.2	-26.6	17.0	0.00e+00	0	43	0	609222656	10	4226
2026-01-27 03:29:31.30	6.42	16.68	-25.1	-26.3	17.1	0.00e+00	0	43	0	614465536	10	4162
2026-01-27 03:29:32.30	6.32	16.79	-25.0	-26.3	17.2	0.00e+00	0	43	0	620756992	10	4149
2026-01-27 03:29:33.30	6.22	16.89	-25.1	-26.3	17.2	0.00e+00	0	43	0	625999872	10	4153
2026-01-27 03:29:34.30	6.12	16.99	-25.0	-26.2	17.2	0.00e+00	0	43	0	631242752	10	4131
2026-01-27 03:29:35.31	6.02	17.10	-25.1	-26.4	17.1	0.00e+00	0	43	0	637534208	10	4178
2026-01-27 03:29:36.32	5.92	17.20	-25.2	-26.5	17.0	0.00e+00	0	43	0	642777088	10	4203
2026-01-27 03:29:37.31	5.82	17.31	-25.1	-26.5	17.1	0.00e+00	0	44	0	649068544	10	4202
2026-01-27 03:29:38.32	5.72	17.41	-25.1	-26.5	17.1	0.00e+00	0	43	0	654311424	10	4208
2026-01-27 03:29:39.32	5.62	17.52	-25.1	-26.5	17.1	0.00e+00	0	43	0	659554304	10	4201
2026-01-27 03:29:40.32	5.51	17.62	-25.0	-26.2	17.2	0.00e+00	0	43	0	665845760	10	4137
2026-01-27 03:29:41.32	5.41	17.73	-24.9	-26.0	17.3	0.00e+00	0	43	0	671088640	10	4086
2026-01-27 03:29:42.33	5.30	17.84	-25.0	-26.1	17.3	0.00e+00	0	43	0	676331520	10	4095
2026-01-27 03:29:43.34	5.20	17.95	-25.0	-26.1	17.3	0.00e+00	0	43	0	682622976	10	4100
2026-01-27 03:29:44.34	5.09	18.05	-25.0	-26.1	17.3	0.00e+00	0	44	0	687865856	10	4109
2026-01-27 03:29:45.35	4.98	18.16	-24.7	-25.6	17.6	0.00e+00	0	43	0	694157312	10	3972
2026-01-27 03:29:46.36	4.87	18.27	-24.6	-25.3	17.7	0.00e+00	0	44	0	699400192	10	3914
2026-01-27 03:29:47.36	4.77	18.38	-24.6	-25.8	17.7	0.00e+00	0	44	0	704643072	9	4135
2026-01-27 03:29:48.36	4.66	18.49	-24.6	-25.8	17.7	0.00e+00	0	44	0	710934528	9	4149
2026-01-27 03:29:49.37	4.54	18.60	-24.7	-26.0	17.6	0.00e+00	0	44	0	716177408	9	4192
2026-01-27 03:29:50.36	4.43	18.71	-24.6	-25.9	17.7	0.00e+00	0	44	0	722468864	9	4168
2026-01-27 03:29:51.37	4.32	18.82	-24.7	-26.0	17.6	0.00e+00	0	43	0	727711744	9	4179
2026-01-27 03:29:52.37	4.21	18.93	-24.7	-25.9	17.7	0.00e+00	0	44	0	732954624	9	4167
2026-01-27 03:29:53.38	4.09	19.04	-24.7	-26.0	17.6	0.00e+00	0	44	0	739246080	9	4178
2026-01-27 03:29:54.38	3.98	19.15	-24.6	-25.7	17.8	0.00e+00	0	44	0	744488960	9	4113
2026-01-27 03:29:55.38	3.86	19.26	-24.5	-25.6	17.8	0.00e+00	0	43	0	749731840	9	4096
2026-01-27 03:29:56.39	3.75	19.37	-24.6	-25.8	17.8	0.00e+00	0	44	0	756023296	9	4133
2026-01-27 03:29:57.39	3.63	19.49	-24.7	-26.1	17.6	0.00e+00	0	44	0	761266176	9	4209
2026-01-27 03:29:58.39	3.51	19.60	-24.7	-26.1	17.6	0.00e+00	0	43	0	767557632	9	4206
2026-01-27 03:29:59.40	3.39	19.71	-24.5	-25.7	17.9	0.00e+00	0	43	0	772800512	9	4099
2026-01-27 03:30:00.40	3.27	19.83	-24.5	-25.6	17.9	0.00e+00	0	43	0	778043392	9	4081
2026-01-27 03:30:01.40	3.15	19.94	-24.4	-25.5	18.0	0.00e+00	0	43	0	784334848	9	4050
2026-01-27 03:30:02.41	3.03	20.05	-24.5	-25.5	17.9	0.00e+00	0	43	0	789577728	9	4062
2026-01-27 03:30:03.42	2.90	20.17	-24.5	-25.5	17.9	0.00e+00	0	44	0	795869184	9	4070
2026-01-27 03:30:04.42	2.78	20.28	-24.5	-25.7	17.9	0.00e+00	0	43	0	801112064	9	4102
2026-01-27 03:30:05.43	2.66	20.40	-24.7	-25.9	17.7	0.00e+00	0	44	0	806354944	9	4168
2026-01-27 03:30:06.43	2.53	20.52	-24.4	-25.5	18.0	0.00e+00	0	44	0	812646400	9	4048
2026-01-27 03:30:07.43	2.40	20.63	-24.3	-25.2	18.1	0.00e+00	0	44	0	817889280	9	3979
2026-01-27 03:30:08.43	2.28	20.75	-24.3	-25.2	18.1	0.00e+00	0	44	0	823132160	9	3979
2026-01-27 03:30:09.43	2.15	20.86	-24.3	-25.2	18.1	0.00e+00	0	44	0	829423616	9	3983
2026-01-27 03:30:10.44	2.02	20.98	-24.3	-25.2	18.1	0.00e+00	0	43	0	834666496	9	3977
2026-01-27 03:30:11.44	1.89	21.10	-24.3	-25.3	18.1	0.00e+00	0	43	0	840957952	9	4000
2026-01-27 03:30:12.44	1.75	21.22	-24.3	-25.2	18.1	0.00e+00	0	44	0	846200832	9	4000
2026-01-27 03:30:13.45	1.62	21.34	-24.2	-25.0	18.3	0.00e+00	0	44	0	852492288	9	3932
2026-01-27 03:30:14.46	1.49	21.46	-24.1	-24.8	18.3	0.00e+00	0	44	0	857735168	9	3896
2026-01-27 03:30:15.46	1.35	21.58	-24.1	-24.7	18.4	0.00e+00	0	43	0	862978048	9	3870
2026-01-27 03:30:16.47	1.21	21.70	-24.0	-24.5	18.5	0.00e+00	0	43	0	869269504	9	3825
2026-01-27 03:30:17.47	1.08	21.82	-24.0	-24.6	18.5	0.00e+00	0	43	0	874512384	9	3842
2026-01-27 03:30:18.47	0.94	21.94	-24.0	-24.6	18.5	0.00e+00	0	43	0	879755264	9	3840
2026-01-27 03:30:19.47	0.80	22.06	-24.0	-24.6	18.5	0.00e+00	0	44	0	886046720	9	3838
2026-01-27 03:30:20.47	0.66	22.18	-24.1	-24.7	18.4	0.00e+00	0	44	0	891289600	9	3871
2026-01-27 03:30:21.48	0.52	22.30	-24.0	-24.6	18.5	0.00e+00	0	44	0	896532480	9	3845
2026-01-27 03:30:22.48	0.38	22.42	-24.0	-24.6	18.5	0.00e+00	0	44	0	902823936	9	3847
2026-01-27 03:30:23.48	0.23	22.54	-24.1	-24.7	18.4	0.00e+00	0	44	0	908066816	9	3872
2026-01-27 03:30:24.49	0.09	22.67	-24.1	-24.7	18.4	0.00e+00	0	44	0	914358272	9	3863
2026-01-27 03:30:25.49	359.94	22.79	-24.1	-24.8	18.4	0.00e+00	0	44	0	919601152	9	3894
2026-01-27 03:30:26.50	359.79	22.92	-24.1	-24.7	18.4	1.14e-05	0	43	0	925892608	9	3879
2026-01-27 03:30:27.51	359.64	23.04	-24.0	-24.5	18.5	0.00e+00	0	43	0	931135488	9	3819
2026-01-27 03:30:28.51	359.49	23.16	-23.9	-24.4	18.6	0.00e+00	0	44	0	936378368	9	3787
2026-01-27 03:30:29.51	359.34	23.29	-23.8	-24.2	18.7	1.10e-06	0	44	0	942669824	9	3746
2026-01-27 03:30:30.52	359.19	23.41	-23.7	-24.4	18.9	0.00e+00	0	43	0	947912704	8	3896
2026-01-27 03:30:31.51	359.04	23.54	-23.6	-24.2	19.0	0.00e+00	0	44	0	953155584	8	3852
2026-01-27 03:30:32.52	358.88	23.67	-23.6	-24.1	19.0	0.00e+00	0	43	0	959447040	8	3841
2026-01-27 03:30:33.53	358.72	23.79	-23.6	-24.3	18.9	0.00e+00	0	44	0	964689920	8	3866
2026-01-27 03:30:34.53	358.57	23.92	-23.7	-24.3	18.9	0.00e+00	0	43	0	969932800	8	3877
2026-01-27 03:30:35.53	358.41	24.05	-23.6	-24.1	19.0	0.00e+00	0	44	0	976224256	8	3830
2026-01-27 03:30:36.54	358.25	24.17	-23.6	-24.1	19.0	0.00e+00	0	44	0	981467136	8	3832
2026-01-27 03:30:37.52	358.09	24.30	-23.6	-24.2	19.0	0.00e+00	0	44	0	987758592	8	3863
2026-01-27 03:30:38.52	357.93	24.43	-23.7	-24.3	18.9	8.46e-05	0	43	0	993001472	8	3886
2026-01-27 03:30:39.53	357.76	24.56	-23.7	-24.5	18.8	0.00e+00	0	44	0	998244352	8	3925
2026-01-27 03:30:40.54	357.59	24.69	-23.8	-24.6	18.8	4.23e-05	0	44	0	1004535808	8	3940
2026-01-27 03:30:41.54	357.43	24.82	-23.8	-24.6	18.8	6.63e-05	0	44	0	1009778688	8	3953
2026-01-27 03:30:42.54	357.26	24.94	-23.8	-24.6	18.8	0.00e+00	0	44	0	1016070144	8	3956
2026-01-27 03:30:43.55	357.09	25.08	-23.7	-24.3	18.9	4.34e-05	0	44	0	1021313024	8	3885
2026-01-27 03:30:44.54	356.92	25.20	-23.7	-24.3	18.9	0.00e+00	0	43	0	1026555904	8	3884
2026-01-27 03:30:45.55	356.75	25.34	-23.6	-24.1	19.0	0.00e+00	0	44	0	1032847360	8	3843
2026-01-27 03:30:46.55	356.57	25.47	-23.5	-24.0	19.1	0.00e+00	0	44	0	1038090240	8	3815
2026-01-27 03:30:47.56	356.40	25.60	-23.6	-24.2	19.0	0.00e+00	0	44	0	1043333120	8	3849
2026-01-27 03:30:48.56	356.22	25.73	-23.5	-24.1	19.1	0.00e+00	0	44	0	1049624576	8	3821
2026-01-27 03:30:49.57	356.04	25.86	-23.4	-23.7	19.2	0.00e+00	0	44	0	1054867456	8	3747
2026-01-27 03:30:50.58	355.86	26.00	-23.3	-23.6	19.3	0.00e+00	0	44	0	1061158912	8	3712
2026-01-27 03:30:51.58	355.68	26.13	-23.4	-23.7	19.3	0.00e+00	0	44	0	1066401792	8	3748
2026-01-27 03:30:52.59	355.49	26.26	-23.4	-23.7	19.3	0.00e+00	0	44	0	1071644672	8	3734
2026-01-27 03:30:53.59	355.31	26.40	-23.4	-23.9	19.2	0.00e+00	0	44	0	1077936128	8	3780
2026-01-27 03:30:54.59	355.12	26.53	-23.4	-23.8	19.2	0.00e+00	0	44	0	1083179008	8	3773
2026-01-27 03:30:55.59	354.94	26.66	-23.4	-23.7	19.3	0.00e+00	0	44	0	1089470464	8	3748
2026-01-27 03:30:56.60	354.74	26.80	-23.3	-23.6	19.3	0.00e+00	0	44	0	1094713344	8	3717
2026-01-27 03:30:57.60	354.55	26.93	-23.3	-23.6	19.4	0.00e+00	0	44	0	1099956224	8	3715
2026-01-27 03:30:58.60	354.36	27.07	-23.2	-23.9	19.4	0.00e+00	0	44	0	1106247680	7	3893
2026-01-27 03:30:59.61	354.17	27.21	-23.2	-23.8	19.4	0.00e+00	0	44	0	1111490560	7	3874
2026-01-27 03:31:00.59	353.97	27.34	-23.2	-23.9	19.4	0.00e+00	0	44	0	1116733440	7	3877
2026-01-27 03:31:01.60	353.77	27.48	-23.3	-24.0	19.4	0.00e+00	0	44	0	1123024896	7	3923
2026-01-27 03:31:02.61	353.57	27.61	-23.3	-24.0	19.4	0.00e+00	0	44	0	1128267776	7	3909
2026-01-27 03:31:03.61	353.37	27.75	-23.3	-24.0	19.4	0.00e+00	0	44	0	1134559232	7	3906
2026-01-27 03:31:04.62	353.17	27.89	-23.3	-24.0	19.4	0.00e+00	0	44	0	1139802112	7	3918
2026-01-27 03:31:05.63	352.96	28.02	-23.2	-23.9	19.4	0.00e+00	0	44	0	1145044992	7	3899
2026-01-27 03:31:06.63	352.75	28.16	-23.3	-24.0	19.4	0.00e+00	0	44	0	1151336448	7	3923
2026-01-27 03:31:07.63	352.55	28.30	-23.2	-23.9	19.4	0.00e+00	0	44	0	1156579328	7	3880
2026-01-27 03:31:08.63	352.34	28.44	-23.1	-23.7	19.6	0.00e+00	0	44	0	1161822208	7	3832
2026-01-27 03:31:09.64	352.12	28.58	-23.2	-23.8	19.5	0.00e+00	0	44	0	1168113664	7	3870
2026-01-27 03:31:10.64	351.91	28.71	-23.1	-23.7	19.5	0.00e+00	0	44	0	1173356544	7	3852
2026-01-27 03:31:11.63	351.70	28.85	-23.2	-23.8	19.5	2.63e-05	0	44	0	1178599424	7	3878
2026-01-27 03:31:12.64	351.48	28.99	-23.3	-24.1	19.3	0.00e+00	0	44	0	1184890880	7	3943
2026-01-27 03:31:13.64	351.26	29.13	-23.3	-24.1	19.3	1.79e-04	0	44	0	1190133760	7	3927
2026-01-27 03:31:14.65	351.03	29.27	-23.3	-24.1	19.3	0.00e+00	0	44	0	1196425216	7	3942
2026-01-27 03:31:15.65	350.81	29.41	-23.4	-24.2	19.3	0.00e+00	0	44	0	1201668096	7	3952
2026-01-27 03:31:16.65	350.59	29.55	-23.2	-23.8	19.5	0.00e+00	0	44	0	1207959552	7	3856
2026-01-27 03:31:17.65	350.36	29.69	-22.9	-23.3	19.8	0.00e+00	0	44	0	1213202432	7	3750
2026-01-27 03:31:18.66	350.13	29.83	-22.9	-23.2	19.8	0.00e+00	0	44	0	1218445312	7	3717
2026-01-27 03:31:19.66	349.90	29.97	-22.9	-23.8	19.8	0.00e+00	0	44	0	1224736768	6	3964
2026-01-27 03:31:20.67	349.66	30.11	-22.9	-23.7	19.8	0.00e+00	0	44	0	1229979648	6	3962
2026-01-27 03:31:21.66	349.43	30.25	-23.0	-23.9	19.7	0.00e+00	0	44	0	1235222528	6	3994
2026-01-27 03:31:22.67	349.19	30.39	-23.0	-23.9	19.7	0.00e+00	0	44	0	1241513984	6	3988
2026-01-27 03:31:23.67	348.95	30.53	-23.0	-24.0	19.6	0.00e+00	0	44	0	1246756864	6	4017
2026-01-27 03:31:24.68	348.71	30.67	-23.1	-24.1	19.6	0.00e+00	0	44	0	1251999744	6	4049
2026-01-27 03:31:25.68	348.46	30.81	-23.1	-24.1	19.6	0.00e+00	0	44	0	1258291200	6	4058
2026-01-27 03:31:26.68	348.22	30.96	-23.1	-24.2	19.5	0.00e+00	0	44	0	1263534080	6	4070
2026-01-27 03:31:27.69	347.97	31.10	-23.0	-24.0	19.6	0.00e+00	0	44	0	1269825536	6	4031
2026-01-27 03:31:28.69	347.72	31.24	-23.0	-23.9	19.7	0.00e+00	0	44	0	1275068416	6	4004
2026-01-27 03:31:29.70	347.46	31.38	-23.1	-24.1	19.5	0.00e+00	0	44	0	1281359872	6	4060
2026-01-27 03:31:30.70	347.21	31.52	-23.0	-24.0	19.6	0.00e+00	0	44	0	1286602752	6	4016
2026-01-27 03:31:31.69	346.95	31.66	-22.9	-23.8	19.8	0.00e+00	0	44	0	1291845632	6	3968
2026-01-27 03:31:32.69	346.69	31.80	-23.0	-23.9	19.7	0.00e+00	0	44	0	1298137088	6	3991
2026-01-27 03:31:33.69	346.43	31.94	-22.9	-23.8	19.8	0.00e+00	0	44	0	1303379968	6	3984
2026-01-27 03:31:34.69	346.17	32.08	-23.0	-23.9	19.7	0.00e+00	0	44	0	1308622848	6	4011
2026-01-27 03:31:35.70	345.90	32.23	-22.8	-23.5	19.9	0.00e+00	0	44	0	1314914304	6	3903
2026-01-27 03:31:36.71	345.63	32.37	-22.6	-23.1	20.1	0.00e+00	0	44	0	1320157184	6	3803
2026-01-27 03:31:37.71	345.36	32.51	-22.6	-23.5	20.1	0.00e+00	0	44	0	1325400064	5	4016
2026-01-27 03:31:38.71	345.08	32.65	-22.6	-23.7	20.1	0.00e+00	0	44	0	1331691520	5	4057
2026-01-27 03:31:39.72	344.80	32.79	-22.7	-23.9	19.9	0.00e+00	0	44	0	1336934400	5	4114
2026-01-27 03:31:40.72	344.53	32.93	-22.8	-24.0	19.9	0.00e+00	0	44	0	1343225856	5	4146
2026-01-27 03:31:41.72	344.24	33.07	-23.0	-24.3	19.7	0.00e+00	0	44	0	1348468736	5	4225
2026-01-27 03:31:42.72	343.96	33.21	-23.0	-23.9	19.7	0.00e+00	0	44	0	1353711616	6	3994
2026-01-27 03:31:43.73	343.67	33.36	-23.0	-23.9	19.8	0.00e+00	0	44	0	1360003072	6	3990
2026-01-27 03:31:44.74	343.38	33.50	-23.0	-23.9	19.7	0.00e+00	0	44	0	1365245952	6	3989
2026-01-27 03:31:45.74	343.09	33.64	-22.8	-23.5	19.9	0.00e+00	0	44	0	1371537408	6	3912
2026-01-27 03:31:46.74	342.80	33.78	-22.7	-23.4	20.0	0.00e+00	0	44	0	1376780288	6	3869
2026-01-27 03:31:47.75	342.50	33.92	-22.8	-23.6	19.9	0.00e+00	0	44	0	1382023168	6	3926
2026-01-27 03:31:48.75	342.20	34.06	-22.8	-23.5	19.9	0.00e+00	0	44	0	1388314624	6	3899
2026-01-27 03:31:49.76	341.90	34.20	-22.7	-23.3	20.0	0.00e+00	0	44	0	1393557504	6	3865
2026-01-27 03:31:50.76	341.59	34.34	-22.8	-23.5	19.9	0.00e+00	0	44	0	1398800384	6	3894
2026-01-27 03:31:51.76	341.29	34.47	-22.6	-23.0	20.1	0.00e+00	0	44	0	1405091840	6	3795
2026-01-27 03:31:52.76	340.98	34.61	-22.4	-22.6	20.3	0.00e+00	0	44	0	1410334720	6	3704
2026-01-27 03:31:53.77	340.66	34.75	-22.3	-23.1	20.4	0.00e+00	0	44	0	1416626176	5	3908
2026-01-27 03:31:54.77	340.35	34.89	-22.3	-23.0	20.4	0.00e+00	0	44	0	1421869056	5	3891
2026-01-27 03:31:55.78	340.03	35.03	-22.3	-23.0	20.4	0.00e+00	0	44	0	1427111936	5	3893
2026-01-27 03:31:56.79	339.71	35.16	-22.5	-23.5	20.1	0.00e+00	0	44	0	1433403392	5	4013
2026-01-27 03:31:57.80	339.38	35.30	-22.6	-23.7	20.0	0.00e+00	0	44	0	1438646272	5	4057
2026-01-27 03:31:58.80	339.06	35.44	-22.7	-23.8	20.0	0.00e+00	0	44	0	1444937728	5	4093
2026-01-27 03:31:59.80	338.73	35.57	-22.6	-23.6	20.1	0.00e+00	0	44	0	1450180608	5	4025
2026-01-27 03:32:00.80	338.40	35.71	-22.4	-23.2	20.3	0.00e+00	0	44	0	1455423488	5	3947
2026-01-27 03:32:01.81	338.06	35.84	-22.5	-23.3	20.2	0.00e+00	0	44	0	1461714944	5	3962
2026-01-27 03:32:02.81	337.73	35.98	-22.4	-23.1	20.3	0.00e+00	0	44	0	1466957824	5	3927
2026-01-27 03:32:03.81	337.39	36.11	-22.4	-23.2	20.3	0.00e+00	0	44	0	1472200704	5	3934
2026-01-27 03:32:04.82	337.04	36.24	-22.4	-23.1	20.3	0.00e+00	0	44	0	1478492160	5	3930
2026-01-27 03:32:05.82	336.70	36.37	-22.4	-23.1	20.3	0.00e+00	0	44	0	1483735040	5	3925
2026-01-27 03:32:06.83	336.35	36.51	-22.4	-23.1	20.3	0.00e+00	0	44	0	1490026496	5	3925
2026-01-27 03:32:07.83	336.00	36.64	-22.4	-23.3	20.2	0.00e+00	0	44	0	1495269376	5	3960
2026-01-27 03:32:08.83	335.64	36.77	-22.4	-23.2	20.3	0.00e+00	0	44	0	1500512256	5	3949
2026-01-27 03:32:09.84	335.28	36.90	-22.5	-23.4	20.1	0.00e+00	0	44	0	1506803712	5	3992
2026-01-27 03:32:10.84	334.92	37.02	-22.8	-24.0	19.9	0.00e+00	0	44	0	1512046592	5	4138
2026-01-27 03:32:11.84	334.56	37.15	-22.8	-24.0	19.9	0.00e+00	0	44	0	1518338048	5	4146
2026-01-27 03:32:12.85	334.19	37.28	-22.9	-24.2	19.8	0.00e+00	0	44	0	1523580928	5	4175
2026-01-27 03:32:13.85	333.83	37.40	-23.0	-24.4	19.7	0.00e+00	0	44	0	1528823808	5	4230
2026-01-27 03:32:14.85	333.46	37.53	-23.0	-23.9	19.7	0.00e+00	0	44	0	1535115264	6	4006
2026-01-27 03:32:15.85	333.08	37.65	-23.0	-23.9	19.7	0.00e+00	0	44	0	1540358144	6	4003
2026-01-27 03:32:16.86	332.70	37.78	-22.9	-23.8	19.8	0.00e+00	0	44	0	1545601024	6	3973
2026-01-27 03:32:17.86	332.33	37.90	-23.0	-24.0	19.7	0.00e+00	0	44	0	1551892480	6	4018
2026-01-27 03:32:18.87	331.94	38.02	-22.9	-23.8	19.8	0.00e+00	0	44	0	1557135360	6	3964
2026-01-27 03:32:19.88	331.55	38.14	-23.0	-23.9	19.7	0.00e+00	0	44	0	1563426816	6	4006
2026-01-27 03:32:20.88	331.16	38.26	-23.1	-24.2	19.6	0.00e+00	0	44	0	1568669696	6	4064
2026-01-27 03:32:21.89	330.77	38.38	-22.8	-23.6	19.9	1.64e-04	0	44	0	1574961152	6	3925
2026-01-27 03:32:22.90	330.37	38.50	-22.7	-23.3	20.1	0.00e+00	0	44	0	1580204032	6	3843
2026-01-27 03:32:23.89	329.98	38.61	-22.8	-23.5	19.9	0.00e+00	0	44	0	1585446912	6	3902
2026-01-27 03:32:24.89	329.58	38.73	-22.8	-23.9	19.9	0.00e+00	0	44	0	1591738368	5	4114
2026-01-27 03:32:25.90	329.18	38.84	-22.8	-24.0	19.9	0.00e+00	0	44	0	1596981248	5	4137
2026-01-27 03:32:26.90	328.77	38.95	-22.9	-24.3	19.7	0.00e+00	0	44	0	1602224128	5	4212
2026-01-27 03:32:27.90	328.37	39.06	-22.8	-24.0	19.9	0.00e+00	0	44	0	1608515584	5	4136
2026-01-27 03:32:28.91	327.95	39.17	-22.6	-23.6	20.1	1.49e-04	0	44	0	1613758464	5	4044
2026-01-27 03:32:29.92	327.53	39.28	-22.7	-23.8	20.0	0.00e+00	0	44	0	1619001344	5	4096
2026-01-27 03:32:30.92	327.12	39.39	-22.7	-23.7	20.0	2.47e-04	0	44	0	1625292800	5	4074
2026-01-27 03:32:31.93	326.70	39.49	-22.6	-23.6	20.1	0.00e+00	0	44	0	1630535680	5	4027
2026-01-27 03:32:32.94	326.27	39.60	-22.5	-23.5	20.2	0.00e+00	0	44	0	1636827136	5	4003
2026-01-27 03:32:33.94	325.85	39.70	-22.6	-23.6	20.1	5.87e-04	0	44	0	1642070016	5	4027
2026-01-27 03:32:34.94	325.42	39.80	-22.4	-23.2	20.3	6.10e-04	0	44	0	1648361472	5	3942
2026-01-27 03:32:35.94	324.99	39.90	-22.4	-23.1	20.4	0.00e+00	0	44	0	1653604352	5	3916
2026-01-27 03:32:36.93	324.56	40.00	-22.5	-23.5	20.2	0.00e+00	0	44	0	1658847232	5	4004
2026-01-27 03:32:37.94	324.13	40.09	-22.6	-23.6	20.1	2.83e-04	0	44	0	1665138688	5	4043
2026-01-27 03:32:38.94	323.69	40.19	-22.7	-23.9	20.0	0.00e+00	0	44	0	1670381568	5	4105
2026-01-27 03:32:39.95	323.25	40.28	-22.5	-23.4	20.2	2.77e-04	0	44	0	1675624448	5	3978
2026-01-27 03:32:40.95	322.80	40.37	-22.3	-23.0	20.4	2.73e-04	0	44	0	1681915904	5	3902
2026-01-27 03:32:41.95	322.36	40.46	-22.4	-23.2	20.3	0.00e+00	0	44	0	1687158784	5	3944
2026-01-27 03:32:42.95	321.91	40.55	-22.4	-23.1	20.3	2.51e-04	0	44	0	1692401664	5	3919
2026-01-27 03:32:43.96	321.46	40.63	-22.4	-23.1	20.3	0.00e+00	0	44	0	1698693120	5	3917
2026-01-27 03:32:44.96	321.01	40.72	-22.3	-23.0	20.4	0.00e+00	0	44	0	1703936000	5	3895
2026-01-27 03:32:45.97	320.55	40.80	-22.4	-23.1	20.3	2.20e-04	0	44	0	1710227456	5	3918
2026-01-27 03:32:46.98	320.09	40.88	-22.4	-23.2	20.3	1.43e-04	0	44	0	1715470336	5	3953
2026-01-27 03:32:47.98	319.63	40.96	-22.6	-23.6	20.1	0.00e+00	0	44	0	1720713216	5	4034
2026-01-27 03:32:48.98	319.17	41.04	-22.5	-23.5	20.2	1.10e-06	0	44	0	1727004672	5	4003
2026-01-27 03:32:49.99	318.70	41.11	-22.5	-23.5	20.1	0.00e+00	0	44	0	1732247552	5	4007
2026-01-27 03:32:50.99	318.23	41.18	-22.7	-23.9	20.0	0.00e+00	0	44	0	1738539008	5	4106
2026-01-27 03:32:52.00	317.76	41.25	-22.6	-23.7	20.1	1.49e-04	0	44	0	1743781888	5	4055
2026-01-27 03:32:53.00	317.29	41.32	-22.7	-23.7	20.0	0.00e+00	0	44	0	1749024768	5	4069
2026-01-27 03:32:54.01	316.82	41.39	-22.7	-23.8	20.0	0.00e+00	0	44	0	1755316224	5	4094
2026-01-27 03:32:55.01	316.34	41.45	-22.8	-24.1	19.9	2.86e-04	0	44	0	1760559104	5	4152
2026-01-27 03:32:56.02	315.86	41.52	-22.5	-23.3	20.3	1.21e-04	0	44	0	1765801984	5	3962
2026-01-27 03:32:57.02	315.39	41.58	-22.2	-22.8	20.5	0.00e+00	0	44	0	1772093440	5	3859
2026-01-27 03:32:58.03	314.90	41.63	-22.1	-22.6	20.6	0.00e+00	0	44	0	1777336320	5	3812
2026-01-27 03:32:59.03	314.42	41.69	-22.3	-22.9	20.5	0.00e+00	0	44	0	1783627776	5	3866
2026-01-27 03:33:00.04	313.94	41.74	-22.2	-22.7	20.6	0.00e+00	0	44	0	1788870656	5	3829
2026-01-27 03:33:01.04	313.45	41.79	-22.3	-22.9	20.5	0.00e+00	0	44	0	1795162112	5	3861
2026-01-27 03:33:02.05	312.96	41.84	-22.6	-23.6	20.1	0.00e+00	0	44	0	1800404992	5	4028
2026-01-27 03:33:03.06	312.47	41.89	-22.5	-23.3	20.3	0.00e+00	0	44	0	1805647872	5	3972
2026-01-27 03:33:04.07	311.98	41.93	-22.5	-23.4	20.2	2.04e-04	0	44	0	1811939328	5	3993
2026-01-27 03:33:05.07	311.49	41.98	-22.7	-23.7	20.0	0.00e+00	0	44	0	1817182208	5	4061
2026-01-27 03:33:06.08	310.99	42.02	-22.4	-23.2	20.3	0.00e+00	0	44	0	1822425088	5	3928
2026-01-27 03:33:07.08	310.50	42.05	-22.4	-23.2	20.3	0.00e+00	0	44	0	1828716544	5	3933
2026-01-27 03:33:08.08	310.01	42.09	-22.5	-23.4	20.2	0.00e+00	0	44	0	1833959424	5	3986
2026-01-27 03:33:09.09	309.51	42.12	-22.2	-22.7	20.6	0.00e+00	0	44	0	1840250880	5	3833
2026-01-27 03:33:10.10	309.01	42.15	-21.9	-22.2	20.8	0.00e+00	0	44	0	1845493760	5	3718
2026-01-27 03:33:11.11	308.51	42.18	-21.9	-22.7	20.8	0.00e+00	0	44	0	1850736640	4	3927
2026-01-27 03:33:12.11	308.01	42.20	-21.8	-22.5	20.9	0.00e+00	0	44	0	1857028096	4	3877
2026-01-27 03:33:13.12	307.51	42.23	-22.1	-23.1	20.6	0.00e+00	0	44	0	1862270976	4	4020
2026-01-27 03:33:14.13	307.01	42.25	-22.3	-23.6	20.4	0.00e+00	0	44	0	1868562432	4	4138
2026-01-27 03:33:15.13	306.51	42.27	-22.4	-23.6	20.4	0.00e+00	0	44	0	1873805312	4	4148
2026-01-27 03:33:16.13	306.01	42.28	-22.5	-23.3	20.3	0.00e+00	0	44	0	1879048192	5	3965
2026-01-27 03:33:17.14	305.50	42.29	-22.3	-23.0	20.4	0.00e+00	0	44	0	1885339648	5	3896
2026-01-27 03:33:18.14	305.00	42.30	-22.3	-22.9	20.5	0.00e+00	0	44	0	1890582528	5	3881
2026-01-27 03:33:19.15	304.50	42.31	-22.2	-22.8	20.5	0.00e+00	0	44	0	1896873984	5	3849
2026-01-27 03:33:20.15	304.00	42.32	-22.3	-23.0	20.4	0.00e+00	0	44	0	1902116864	5	3893
2026-01-27 03:33:21.15	303.50	42.32	-22.9	-24.2	19.8	0.00e+00	0	44	0	1907359744	5	4186
2026-01-27 03:33:22.15	302.99	42.32	-23.2	-24.4	19.5	0.00e+00	0	44	0	1913651200	6	4119
2026-01-27 03:33:23.15	302.49	42.32	-23.1	-24.1	19.6	0.00e+00	0	44	0	1918894080	6	4055
2026-01-27 03:33:24.16	301.99	42.31	-22.6	-23.1	20.1	0.00e+00	0	44	0	1925185536	6	3813
2026-01-27 03:33:25.15	301.49	42.31	-22.6	-23.1	20.1	0.00e+00	0	44	0	1930428416	6	3816
2026-01-27 03:33:26.15	300.99	42.30	-23.0	-23.9	19.7	0.00e+00	0	44	0	1935671296	6	3991
2026-01-27 03:33:27.15	300.49	42.29	-23.0	-23.9	19.8	0.00e+00	0	44	0	1941962752	6	3993
2026-01-27 03:33:28.16	299.99	42.27	-23.2	-24.3	19.5	0.00e+00	0	44	0	1947205632	6	4098
2026-01-27 03:33:29.16	299.49	42.26	-22.5	-22.9	20.2	0.00e+00	0	44	0	1952448512	6	3772
2026-01-27 03:33:30.16	298.99	42.24	-22.2	-22.7	20.5	0.00e+00	0	44	0	1958739968	5	3833
2026-01-27 03:33:31.16	298.49	42.21	-22.1	-22.6	20.6	0.00e+00	0	44	0	1963982848	5	3791
2026-01-27 03:33:32.17	297.99	42.19	-22.4	-23.3	20.3	0.00e+00	0	44	0	1969225728	5	3961
2026-01-27 03:33:33.17	297.49	42.16	-22.5	-23.3	20.2	0.00e+00	0	44	0	1975517184	5	3980
2026-01-27 03:33:34.18	296.99	42.13	-22.7	-23.8	20.0	0.00e+00	0	44	0	1980760064	5	4089
2026-01-27 03:33:35.18	296.50	42.10	-22.7	-23.8	20.0	0.00e+00	0	44	0	1987051520	5	4080
2026-01-27 03:33:36.19	296.00	42.07	-22.4	-23.2	20.3	0.00e+00	0	44	0	1992294400	5	3943
2026-01-27 03:33:37.20	295.50	42.03	-22.4	-23.2	20.3	0.00e+00	0	44	0	1998585856	5	3933
2026-01-27 03:33:38.21	295.01	41.99	-22.5	-23.4	20.2	0.00e+00	0	44	0	2003828736	5	3993
2026-01-27 03:33:39.22	294.51	41.95	-22.3	-23.0	20.4	0.00e+00	0	44	0	2009071616	5	3886
2026-01-27 03:33:40.22	294.02	41.91	-22.3	-22.9	20.4	0.00e+00	0	44	0	2015363072	5	3868
2026-01-27 03:33:41.22	293.53	41.86	-22.4	-23.2	20.3	0.00e+00	0	44	0	2020605952	5	3942
2026-01-27 03:33:42.23	293.04	41.82	-22.4	-23.2	20.3	0.00e+00	0	44	0	2025848832	5	3940
2026-01-27 03:33:43.23	292.56	41.77	-22.5	-23.4	20.2	0.00e+00	0	44	0	2032140288	5	3976
2026-01-27 03:33:44.23	292.07	41.71	-22.0	-22.4	20.7	0.00e+00	0	44	0	2037383168	5	3763
2026-01-27 03:33:45.24	291.59	41.66	-22.0	-22.3	20.7	0.00e+00	0	44	0	2043674624	5	3731
2026-01-27 03:33:46.24	291.11	41.60	-22.1	-22.5	20.6	0.00e+00	0	44	0	2048917504	5	3791
2026-01-27 03:33:47.24	290.63	41.54	-22.2	-22.8	20.5	0.00e+00	0	44	0	2054160384	5	3860
2026-01-27 03:33:48.25	290.15	41.48	-22.1	-22.5	20.6	0.00e+00	0	44	0	2060451840	5	3787
2026-01-27 03:33:49.25	289.67	41.42	-22.1	-22.5	20.6	0.00e+00	0	44	0	2065694720	5	3770
2026-01-27 03:33:50.26	289.20	41.35	-22.2	-23.3	20.5	0.00e+00	0	44	0	2071986176	4	4067
2026-01-27 03:33:51.26	288.72	41.29	-22.2	-23.3	20.4	0.00e+00	0	44	0	2077229056	4	4081
2026-01-27 03:33:52.28	288.25	41.21	-22.5	-23.4	20.2	0.00e+00	0	44	0	2082471936	5	3980
2026-01-27 03:33:53.28	287.78	41.14	-22.3	-22.9	20.4	0.00e+00	0	44	0	2088763392	5	3868
2026-01-27 03:33:54.28	287.31	41.07	-22.1	-22.6	20.5	0.00e+00	0	44	0	2094006272	5	3803
2026-01-27 03:33:55.29	286.85	40.99	-22.0	-22.3	20.7	0.00e+00	0	44	0	2100297728	5	3726
2026-01-27 03:33:56.29	286.39	40.92	-22.0	-22.2	20.7	0.00e+00	0	44	0	2105540608	5	3721
2026-01-27 03:33:57.30	285.92	40.84	-21.9	-22.2	20.7	0.00e+00	0	44	0	2110783488	5	3726
2026-01-27 03:33:58.29	285.47	40.76	-22.0	-22.4	20.7	0.00e+00	0	44	0	2117074944	5	3757
2026-01-27 03:33:59.30	285.01	40.67	-22.0	-22.3	20.7	0.00e+00	0	44	0	2122317824	5	3730
2026-01-27 03:34:00.30	284.56	40.59	-21.8	-22.3	20.9	2.79e-04	0	44	0	2127560704	4	3852
2026-01-27 03:34:01.29	284.12	40.50	-21.7	-22.2	21.0	0.00e+00	0	44	0	2133852160	4	3821
2026-01-27 03:34:02.30	283.67	40.41	-21.8	-22.3	20.9	0.00e+00	0	44	0	2139095040	4	3847
2026-01-27 03:34:03.30	283.22	40.32	-22.0	-22.8	20.7	0.00e+00	0	44	0	2145386496	4	3961
2026-01-27 03:34:04.31	282.78	40.23	-22.0	-22.9	20.6	0.00e+00	0	44	0	2150629376	4	3971
2026-01-27 03:34:05.31	282.34	40.14	-22.1	-23.0	20.6	0.00e+00	0	44	0	2155872256	4	3996
2026-01-27 03:34:06.31	281.90	40.04	-22.0	-22.8	20.6	0.00e+00	0	44	0	2162163712	4	3962
2026-01-27 03:34:07.31	281.47	39.94	-22.1	-23.0	20.5	3.03e-04	0	44	0	2167406592	4	4014
2026-01-27 03:34:08.32	281.03	39.84	-22.1	-23.0	20.6	0.00e+00	0	44	0	2172649472	4	4012
2026-01-27 03:34:09.33	280.60	39.74	-22.1	-23.0	20.5	0.00e+00	0	44	0	2178940928	4	4019
2026-01-27 03:34:10.33	280.18	39.64	-22.1	-23.0	20.5	0.00e+00	0	44	0	2184183808	4	4008
2026-01-27 03:34:11.35	279.74	39.54	-22.1	-23.0	20.6	0.00e+00	0	44	0	2190475264	4	3995
2026-01-27 03:34:12.35	279.32	39.43	-22.1	-23.2	20.5	1.80e-04	0	44	0	2195718144	4	4043
2026-01-27 03:34:13.36	278.90	39.32	-22.2	-23.3	20.4	0.00e+00	0	44	0	2200961024	4	4084
2026-01-27 03:34:14.36	278.49	39.22	-22.1	-23.1	20.5	0.00e+00	0	44	0	2207252480	4	4041
2026-01-27 03:34:15.36	278.07	39.11	-22.1	-23.0	20.6	0.00e+00	0	44	0	2212495360	4	4015
2026-01-27 03:34:16.37	277.66	39.00	-22.0	-22.9	20.6	1.10e-06	0	44	0	2218786816	4	3979
2026-01-27 03:34:17.37	277.25	38.89	-21.9	-22.6	20.7	0.00e+00	0	44	0	2224029696	4	3916
2026-01-27 03:34:18.38	276.85	38.77	-22.0	-22.8	20.6	0.00e+00	0	44	0	2229272576	4	3951
2026-01-27 03:34:19.38	276.45	38.66	-21.9	-22.7	20.7	0.00e+00	0	44	0	2235564032	4	3938
2026-01-27 03:34:20.39	276.04	38.54	-22.0	-22.9	20.5	0.00e+00	0	44	0	2240806912	4	3987
2026-01-27 03:34:21.39	275.65	38.42	-22.1	-23.2	20.5	0.00e+00	0	44	0	2247098368	4	4042
2026-01-27 03:34:22.40	275.25	38.31	-22.2	-23.2	20.4	0.00e+00	0	44	0	2252341248	4	4056
2026-01-27 03:34:23.40	274.86	38.19	-22.4	-23.6	20.2	0.00e+00	0	44	0	2257584128	4	4160
2026-01-27 03:34:24.41	274.47	38.07	-22.3	-23.5	20.3	0.00e+00	0	44	0	2263875584	4	4116
2026-01-27 03:34:25.41	274.09	37.95	-22.2	-23.3	20.4	0.00e+00	0	44	0	2269118464	4	4067
2026-01-27 03:34:26.42	273.70	37.82	-22.3	-23.5	20.3	0.00e+00	0	44	0	2274361344	4	4130
2026-01-27 03:34:27.42	273.33	37.70	-22.4	-23.6	20.2	1.10e-06	0	44	0	2280652800	4	4160
2026-01-27 03:34:28.43	272.95	37.58	-22.3	-23.4	20.3	1.34e-04	0	44	0	2285895680	4	4108
2026-01-27 03:34:29.43	272.57	37.45	-22.3	-23.5	20.3	0.00e+00	0	44	0	2292187136	4	4115
2026-01-27 03:34:30.43	272.20	37.33	-22.4	-23.8	20.1	2.15e-04	0	44	0	2297430016	4	4194
2026-01-27 03:34:31.44	271.83	37.20	-22.6	-23.5	20.0	0.00e+00	0	44	0	2303721472	5	4019
2026-01-27 03:34:32.44	271.47	37.07	-22.3	-23.0	20.3	0.00e+00	0	44	0	2308964352	5	3887
2026-01-27 03:34:33.44	271.11	36.94	-22.1	-22.6	20.5	3.54e-05	0	44	0	2314207232	5	3807
2026-01-27 03:34:34.44	270.75	36.81	-22.0	-22.4	20.6	4.23e-05	0	44	0	2320498688	5	3757
2026-01-27 03:34:35.44	270.40	36.68	-22.1	-22.6	20.4	0.00e+00	0	44	0	2325741568	5	3806
2026-01-27 03:34:36.45	270.04	36.55	-22.2	-22.7	20.4	0.00e+00	0	44	0	2330984448	5	3825
2026-01-27 03:34:37.45	269.69	36.42	-22.1	-22.5	20.5	9.15e-05	0	44	0	2337275904	5	3792
2026-01-27 03:34:38.45	269.34	36.29	-22.2	-22.8	20.4	0.00e+00	0	44	0	2342518784	5	3845
2026-01-27 03:34:39.45	269.00	36.16	-22.3	-22.9	20.3	2.14e-04	0	44	0	2347761664	5	3888
2026-01-27 03:34:40.46	268.66	36.02	-22.2	-22.8	20.4	2.73e-04	0	44	0	2354053120	5	3846
2026-01-27 03:34:41.46	268.32	35.89	-22.2	-22.7	20.4	0.00e+00	0	44	0	2359296000	5	3832
2026-01-27 03:34:42.47	267.98	35.75	-22.2	-23.2	20.4	5.17e-04	0	44	0	2365587456	4	4045
2026-01-27 03:34:43.48	267.64	35.62	-22.2	-23.2	20.4	0.00e+00	0	44	0	2370830336	4	4050
2026-01-27 03:34:44.48	267.31	35.48	-22.1	-23.1	20.4	0.00e+00	0	44	0	2376073216	4	4038
2026-01-27 03:34:45.49	266.98	35.34	-22.2	-23.2	20.4	0.00e+00	0	44	0	2382364672	4	4057
2026-01-27 03:34:46.49	266.66	35.21	-22.3	-23.4	20.3	0.00e+00	0	44	0	2387607552	4	4107
2026-01-27 03:34:47.49	266.34	35.07	-22.3	-23.4	20.2	0.00e+00	0	44	0	2393899008	4	4114
2026-01-27 03:34:48.49	266.02	34.93	-22.2	-23.3	20.3	0.00e+00	0	44	0	2399141888	4	4086
2026-01-27 03:34:49.49	265.70	34.80	-22.3	-23.5	20.2	0.00e+00	0	44	0	2404384768	4	4127
2026-01-27 03:34:50.49	265.39	34.66	-22.2	-23.4	20.3	0.00e+00	0	44	0	2410676224	4	4103
2026-01-27 03:34:51.50	265.07	34.52	-22.0	-23.0	20.5	2.63e-04	0	44	0	2415919104	4	3997
2026-01-27 03:34:52.50	264.76	34.38	-22.0	-22.8	20.5	0.00e+00	0	44	0	2421161984	4	3967
2026-01-27 03:34:53.50	264.46	34.24	-21.9	-22.7	20.6	0.00e+00	0	44	0	2427453440	4	3937
2026-01-27 03:34:54.50	264.16	34.10	-21.9	-22.6	20.6	0.00e+00	0	44	0	2432696320	4	3917
2026-01-27 03:34:55.50	263.85	33.96	-22.0	-22.8	20.6	0.00e+00	0	44	0	2438987776	4	3957
2026-01-27 03:34:56.50	263.56	33.82	-22.0	-22.8	20.5	3.40e-06	0	44	0	2444230656	4	3972
2026-01-27 03:34:57.51	263.26	33.68	-22.0	-22.8	20.5	0.00e+00	0	44	0	2449473536	4	3969
2026-01-27 03:34:58.51	262.97	33.54	-21.9	-22.7	20.6	0.00e+00	0	44	0	2455764992	4	3948
2026-01-27 03:34:59.52	262.67	33.40	-21.9	-22.7	20.6	0.00e+00	0	44	0	2461007872	4	3927
2026-01-27 03:35:00.52	262.38	33.26	-22.0	-22.9	20.5	0.00e+00	0	44	0	2466250752	4	3981
2026-01-27 03:35:01.53	262.10	33.12	-22.1	-23.0	20.5	0.00e+00	0	44	0	2472542208	4	4004
2026-01-27 03:35:02.53	261.81	32.98	-22.0	-22.9	20.5	0.00e+00	0	44	0	2477785088	4	3983
2026-01-27 03:35:03.54	261.53	32.83	-22.1	-23.1	20.4	0.00e+00	0	44	0	2484076544	4	4035
2026-01-27 03:35:04.54	261.25	32.69	-22.2	-23.3	20.2	0.00e+00	0	44	0	2489319424	4	4089
2026-01-27 03:35:05.54	260.98	32.55	-22.3	-23.5	20.2	1.10e-06	0	44	0	2494562304	4	4123
2026-01-27 03:35:06.54	260.70	32.41	-22.4	-23.7	20.1	0.00e+00	0	44	0	2500853760	4	4176
2026-01-27 03:35:07.54	260.43	32.27	-22.3	-23.5	20.1	0.00e+00	0	44	0	2506096640	4	4133
2026-01-27 03:35:08.55	260.16	32.12	-22.2	-23.2	20.3	2.20e-06	0	44	0	2512388096	4	4066
2026-01-27 03:35:09.55	259.90	31.98	-22.2	-23.3	20.2	0.00e+00	0	44	0	2517630976	4	4084
2026-01-27 03:35:10.55	259.63	31.84	-22.2	-23.3	20.2	0.00e+00	0	44	0	2522873856	4	4081
2026-01-27 03:35:11.56	259.37	31.70	-22.3	-23.4	20.2	2.20e-06	0	44	0	2529165312	4	4111
2026-01-27 03:35:12.55	259.11	31.56	-22.4	-23.7	20.0	0.00e+00	0	44	0	2534408192	4	4174
2026-01-27 03:35:13.56	258.85	31.42	-22.4	-23.7	20.1	0.00e+00	0	44	0	2539651072	4	4176
2026-01-27 03:35:14.57	258.60	31.27	-22.5	-23.4	19.9	0.00e+00	0	44	0	2545942528	5	4002
2026-01-27 03:35:15.57	258.35	31.13	-22.7	-23.8	19.7	0.00e+00	0	44	0	2551185408	5	4082
2026-01-27 03:35:16.57	258.10	30.99	-22.7	-23.8	19.8	0.00e+00	0	44	0	2556428288	5	4090
2026-01-27 03:35:17.58	257.85	30.85	-22.6	-23.6	19.8	6.80e-06	0	44	0	2562719744	5	4051
2026-01-27 03:35:18.58	257.60	30.71	-22.7	-23.8	19.7	0.00e+00	0	44	0	2567962624	5	4084
2026-01-27 03:35:19.58	257.36	30.56	-22.8	-24.0	19.7	0.00e+00	0	44	0	2574254080	5	4132
2026-01-27 03:35:20.58	257.11	30.42	-22.8	-24.0	19.6	3.40e-06	0	44	0	2579496960	5	4148
2026-01-27 03:35:21.59	256.87	30.28	-22.8	-24.0	19.6	0.00e+00	0	44	0	2585788416	5	4146
2026-01-27 03:35:22.60	256.63	30.14	-22.7	-23.9	19.7	0.00e+00	0	44	0	2591031296	5	4118
2026-01-27 03:35:23.60	256.40	30.00	-22.8	-24.1	19.6	0.00e+00	0	44	0	2596274176	5	4166
2026-01-27 03:35:24.60	256.17	29.86	-22.8	-23.9	19.6	0.00e+00	0	44	0	2602565632	5	4125
2026-01-27 03:35:25.60	255.94	29.72	-22.7	-23.8	19.7	0.00e+00	0	44	0	2607808512	5	4085
2026-01-27 03:35:26.61	255.70	29.58	-22.7	-23.8	19.7	0.00e+00	0	44	0	2613051392	5	4090
2026-01-27 03:35:27.61	255.48	29.44	-22.7	-23.7	19.7	0.00e+00	0	44	0	2619342848	5	4071
2026-01-27 03:35:28.61	255.25	29.30	-22.6	-23.6	19.8	0.00e+00	0	44	0	2624585728	5	4041
2026-01-27 03:35:29.62	255.03	29.15	-22.7	-23.8	19.7	2.20e-06	0	44	0	2629828608	5	4093
2026-01-27 03:35:30.62	254.81	29.02	-22.7	-23.7	19.8	0.00e+00	0	44	0	2636120064	5	4070
2026-01-27 03:35:31.62	254.59	28.88	-22.6	-23.5	19.8	0.00e+00	0	44	0	2641362944	5	4019
2026-01-27 03:35:32.63	254.37	28.74	-22.6	-23.6	19.8	3.40e-06	0	44	0	2647654400	5	4049
2026-01-27 03:35:33.64	254.15	28.60	-22.6	-23.5	19.8	0.00e+00	0	44	0	2652897280	5	4027
2026-01-27 03:35:34.64	253.94	28.46	-22.5	-23.5	19.8	0.00e+00	0	44	0	2659188736	5	4008
2026-01-27 03:35:35.65	253.72	28.32	-22.6	-23.6	19.8	0.00e+00	0	44	0	2664431616	5	4048
2026-01-27 03:35:36.65	253.51	28.18	-22.6	-23.5	19.8	0.00e+00	0	44	0	2669674496	5	4029
2026-01-27 03:35:37.66	253.30	28.04	-22.6	-23.5	19.8	0.00e+00	0	44	0	2675965952	5	4022
2026-01-27 03:35:38.66	253.10	27.90	-22.7	-23.8	19.6	0.00e+00	0	44	0	2681208832	5	4096
2026-01-27 03:35:39.67	252.89	27.76	-22.7	-23.9	19.6	0.00e+00	0	44	0	2686451712	5	4112
2026-01-27 03:35:40.67	252.69	27.63	-22.7	-23.9	19.6	0.00e+00	0	44	0	2692743168	5	4111
2026-01-27 03:35:41.68	252.49	27.49	-22.7	-23.9	19.6	0.00e+00	0	44	0	2697986048	5	4116
2026-01-27 03:35:42.68	252.29	27.35	-22.7	-23.9	19.6	0.00e+00	0	44	0	2703228928	5	4117
2026-01-27 03:35:43.68	252.09	27.22	-22.7	-23.8	19.7	0.00e+00	0	44	0	2709520384	5	4085
2026-01-27 03:35:44.68	251.90	27.08	-22.3	-23.5	19.4	0.00e+00	0	44	0	2714763264	5	4123
2026-01-27 03:35:45.69	251.70	26.94	-22.8	-24.0	19.5	0.00e+00	0	44	0	2721054720	5	4141
2026-01-27 03:35:46.69	251.51	26.81	-22.8	-24.1	19.5	0.00e+00	0	44	0	2726297600	5	4156
2026-01-27 03:35:47.70	251.31	26.67	-22.8	-24.1	19.5	0.00e+00	0	44	0	2732589056	5	4171
2026-01-27 03:35:48.70	251.13	26.54	-22.9	-24.2	19.5	0.00e+00	0	44	0	2737831936	5	4184
2026-01-27 03:35:49.70	250.94	26.40	-22.9	-24.3	19.4	0.00e+00	0	44	0	2743074816	5	4211
2026-01-27 03:35:50.71	250.75	26.27	-22.9	-24.2	19.4	1.26e-04	0	44	0	2749366272	5	4177
2026-01-27 03:35:51.71	250.57	26.14	-22.8	-24.1	19.5	0.00e+00	0	44	0	2754609152	5	4153
2026-01-27 03:35:52.71	250.38	26.00	-22.9	-24.2	19.4	0.00e+00	0	44	0	2759852032	5	4203
2026-01-27 03:35:53.72	250.20	25.87	-22.9	-24.3	19.3	0.00e+00	0	44	0	2766143488	5	4229
2026-01-27 03:35:54.73	250.02	25.73	-23.0	-24.0	19.3	0.00e+00	0	44	0	2771386368	6	4036
2026-01-27 03:35:55.73	249.84	25.60	-23.1	-24.2	19.2	0.00e+00	0	44	0	2776629248	6	4082
2026-01-27 03:35:56.74	249.66	25.47	-23.1	-24.1	19.2	0.00e+00	0	44	0	2782920704	6	4053
2026-01-27 03:35:57.73	249.49	25.34	-23.1	-24.1	19.2	5.70e-06	0	44	0	2788163584	6	4060
2026-01-27 03:35:58.74	249.32	25.21	-22.9	-23.8	19.4	0.00e+00	0	44	0	2794455040	6	3971
2026-01-27 03:35:59.74	249.14	25.08	-22.8	-23.5	19.5	5.70e-06	0	44	0	2799697920	6	3896
2026-01-27 03:36:00.75	248.97	24.94	-22.8	-23.6	19.5	0.00e+00	0	44	0	2805989376	6	3929
2026-01-27 03:36:01.75	248.80	24.81	-22.9	-23.7	19.4	0.00e+00	0	44	0	2811232256	6	3948
2026-01-27 03:36:02.76	248.63	24.68	-22.9	-23.8	19.3	5.70e-06	0	44	0	2816475136	6	3989
2026-01-27 03:36:03.76	248.47	24.55	-23.1	-24.2	19.2	0.00e+00	0	44	0	2822766592	6	4069
2026-01-27 03:36:04.76	248.30	24.43	-23.1	-24.1	19.2	0.00e+00	0	44	0	2828009472	6	4046
2026-01-27 03:36:05.76	248.14	24.30	-23.0	-24.0	19.3	0.00e+00	0	44	0	2833252352	6	4034
2026-01-27 03:36:06.76	247.97	24.17	-23.0	-23.9	19.3	1.48e-04	0	44	0	2839543808	6	3996
2026-01-27 03:36:07.77	247.81	24.04	-23.1	-24.1	19.2	0.00e+00	0	44	0	2844786688	6	4047
2026-01-27 03:36:08.77	247.65	23.91	-22.9	-23.8	19.3	2.92e-04	0	44	0	2850029568	6	3986
2026-01-27 03:36:09.77	247.49	23.79	-23.1	-24.1	19.2	3.17e-04	0	44	0	2856321024	6	4050
2026-01-27 03:36:10.78	247.34	23.66	-23.0	-23.9	19.3	0.00e+00	0	44	0	2861563904	6	4011
2026-01-27 03:36:11.77	247.18	23.53	-22.9	-23.7	19.4	4.91e-04	0	44	0	2867855360	6	3960
2026-01-27 03:36:12.78	247.03	23.41	-22.9	-24.3	19.3	5.76e-04	0	44	0	2873098240	5	4213
2026-01-27 03:36:13.78	246.87	23.28	-22.9	-24.3	19.3	0.00e+00	0	44	0	2878341120	5	4210
2026-01-27 03:36:14.78	246.72	23.16	-23.0	-24.4	19.2	5.84e-04	0	44	0	2884632576	5	4237
2026-01-27 03:36:15.79	246.57	23.03	-22.9	-24.2	19.3	4.18e-04	0	44	0	2889875456	5	4195
2026-01-27 03:36:16.79	246.42	22.91	-22.8	-24.1	19.4	0.00e+00	0	44	0	2896166912	5	4176
2026-01-27 03:36:17.79	246.27	22.78	-22.9	-24.2	19.3	0.00e+00	0	44	0	2901409792	5	4205
2026-01-27 03:36:18.79	246.12	22.66	-23.0	-24.4	19.2	3.73e-04	0	44	0	2906652672	5	4229
2026-01-27 03:36:19.80	245.98	22.53	-23.1	-24.1	19.2	0.00e+00	0	44	0	2912944128	6	4051
2026-01-27 03:36:20.81	245.83	22.41	-23.3	-24.5	18.9	3.17e-04	0	44	0	2918187008	6	4161
2026-01-27 03:36:21.81	245.69	22.29	-23.2	-24.4	19.0	2.47e-04	0	44	0	2923429888	6	4132
2026-01-27 03:36:22.82	245.54	22.16	-23.3	-24.6	18.9	0.00e+00	0	44	0	2929721344	6	4182
2026-01-27 03:36:23.82	245.40	22.04	-23.3	-24.5	18.9	3.40e-06	0	44	0	2934964224	6	4167
2026-01-27 03:36:24.82	245.26	21.92	-23.3	-24.6	18.8	0.00e+00	0	44	0	2941255680	6	4187
2026-01-27 03:36:25.83	245.12	21.80	-23.3	-24.6	18.9	0.00e+00	0	44	0	2946498560	6	4168
2026-01-27 03:36:26.84	244.98	21.68	-23.3	-24.6	18.8	0.00e+00	0	44	0	2951741440	6	4178
2026-01-27 03:36:27.84	244.84	21.56	-23.4	-24.8	18.7	1.85e-04	0	44	0	2958032896	6	4237
2026-01-27 03:36:28.84	244.71	21.44	-23.5	-24.6	18.6	0.00e+00	0	44	0	2963275776	7	4067
2026-01-27 03:36:29.84	244.57	21.32	-23.7	-25.0	18.3	0.00e+00	0	44	0	2969567232	7	4177
2026-01-27 03:36:30.85	244.44	21.20	-23.6	-24.8	18.5	6.41e-04	0	44	0	2974810112	7	4108
2026-01-27 03:36:31.85	244.30	21.08	-23.5	-24.5	18.6	3.40e-06	0	44	0	2980052992	7	4048
2026-01-27 03:36:32.86	244.17	20.96	-23.5	-24.5	18.6	7.06e-04	0	44	0	2986344448	7	4034
2026-01-27 03:36:33.86	244.04	20.84	-23.6	-24.7	18.5	0.00e+00	0	44	0	2991587328	7	4089
2026-01-27 03:36:34.87	243.91	20.73	-23.5	-24.4	18.6	0.00e+00	0	44	0	2996830208	7	4028
2026-01-27 03:36:35.87	243.78	20.61	-23.4	-24.4	18.7	0.00e+00	0	44	0	3003121664	7	4022
2026-01-27 03:36:36.87	243.65	20.49	-23.5	-24.5	18.6	0.00e+00	0	44	0	3008364544	7	4054
2026-01-27 03:36:37.88	243.53	20.38	-23.5	-24.6	18.6	0.00e+00	0	44	0	3014656000	7	4057
2026-01-27 03:36:38.89	243.40	20.26	-23.6	-24.7	18.5	0.00e+00	0	44	0	3019898880	7	4084
2026-01-27 03:36:39.89	243.27	20.14	-23.7	-25.0	18.3	0.00e+00	0	44	0	3026190336	7	4170
2026-01-27 03:36:40.89	243.15	20.03	-23.7	-24.9	18.4	0.00e+00	0	44	0	3031433216	7	4138
2026-01-27 03:36:41.89	243.03	19.91	-23.9	-25.3	18.2	0.00e+00	0	44	0	3036676096	7	4247
2026-01-27 03:36:42.89	242.91	19.80	-23.8	-25.1	18.3	0.00e+00	0	44	0	3042967552	7	4186
2026-01-27 03:36:43.90	242.78	19.68	-23.7	-24.9	18.3	0.00e+00	0	44	0	3048210432	7	4159
2026-01-27 03:36:44.90	242.66	19.57	-23.7	-25.0	18.3	0.00e+00	0	44	0	3053453312	7	4161
2026-01-27 03:36:45.90	242.54	19.46	-23.7	-25.0	18.3	0.00e+00	0	44	0	3059744768	7	4173
2026-01-27 03:36:46.90	242.43	19.35	-23.8	-25.1	18.3	0.00e+00	0	44	0	3064987648	7	4190
2026-01-27 03:36:47.90	242.31	19.23	-23.8	-25.2	18.1	0.00e+00	0	44	0	3070230528	7	4235
2026-01-27 03:36:48.90	242.19	19.12	-23.8	-25.1	18.2	0.00e+00	0	44	0	3076521984	7	4197
2026-01-27 03:36:49.90	242.08	19.01	-23.7	-25.0	18.2	0.00e+00	0	44	0	3081764864	7	4178
2026-01-27 03:36:50.91	241.96	18.90	-23.8	-25.2	18.2	0.00e+00	0	44	0	3088056320	7	4228
2026-01-27 03:36:51.91	241.85	18.79	-23.7	-25.0	18.2	0.00e+00	0	44	0	3093299200	7	4178
2026-01-27 03:36:52.91	241.73	18.68	-23.7	-24.9	18.3	0.00e+00	0	44	0	3098542080	7	4147
2026-01-27 03:36:53.92	241.62	18.57	-23.7	-25.0	18.2	0.00e+00	0	44	0	3104833536	7	4179
2026-01-27 03:36:54.92	241.51	18.46	-23.7	-24.9	18.3	0.00e+00	0	44	0	3110076416	7	4151
2026-01-27 03:36:55.93	241.40	18.35	-23.8	-25.2	18.1	0.00e+00	0	44	0	3115319296	7	4221
2026-01-27 03:36:56.93	241.29	18.24	-23.8	-25.1	18.2	0.00e+00	0	44	0	3121610752	7	4203
2026-01-27 03:36:57.93	241.18	18.13	-23.8	-25.2	18.1	0.00e+00	0	44	0	3126853632	7	4228
2026-01-27 03:36:58.94	241.07	18.02	-23.9	-25.4	18.0	0.00e+00	0	44	0	3133145088	7	4269
2026-01-27 03:36:59.94	240.96	17.91	-24.1	-25.2	17.9	0.00e+00	0	44	0	3138387968	8	4110
2026-01-27 03:37:00.95	240.86	17.80	-24.2	-25.6	17.7	0.00e+00	0	44	0	3143630848	8	4218
2026-01-27 03:37:01.95	240.75	17.70	-24.2	-25.5	17.7	0.00e+00	0	44	0	3149922304	8	4189
2026-01-27 03:37:02.96	240.64	17.59	-24.3	-25.7	17.6	0.00e+00	0	44	0	3155165184	8	4231
2026-01-27 03:37:03.96	240.54	17.48	-24.3	-25.7	17.6	0.00e+00	0	44	0	3161456640	8	4243
2026-01-27 03:37:04.96	240.44	17.38	-24.4	-26.0	17.5	0.00e+00	0	44	0	3166699520	8	4308
2026-01-27 03:37:05.97	240.33	17.27	-24.4	-25.9	17.5	0.00e+00	0	44	0	3171942400	8	4301
2026-01-27 03:37:06.97	240.23	17.17	-24.5	-26.1	17.4	0.00e+00	0	44	0	3178233856	8	4343
2026-01-27 03:37:07.98	240.13	17.06	-24.4	-26.0	17.5	0.00e+00	0	44	0	3183476736	8	4304
2026-01-27 03:37:08.99	240.03	16.95	-24.4	-26.0	17.4	0.00e+00	0	44	0	3189768192	8	4314
2026-01-27 03:37:10.00	239.92	16.85	-24.6	-25.9	17.2	0.00e+00	0	44	0	3195011072	9	4163
2026-01-27 03:37:11.00	239.83	16.75	-24.8	-26.4	17.0	0.00e+00	0	44	0	3200253952	9	4296
2026-01-27 03:37:12.01	239.73	16.64	-24.6	-25.9	17.2	0.00e+00	0	44	0	3206545408	9	4169
2026-01-27 03:37:13.01	239.63	16.54	-24.6	-25.9	17.2	0.00e+00	0	44	0	3211788288	9	4169
2026-01-27 03:37:14.02	239.53	16.43	-24.6	-26.0	17.2	0.00e+00	0	44	0	3218079744	9	4194
2026-01-27 03:37:15.03	239.43	16.33	-24.7	-26.1	17.1	0.00e+00	0	44	0	3223322624	9	4240
2026-01-27 03:37:16.03	239.34	16.23	-24.7	-26.0	17.1	0.00e+00	0	44	0	3228565504	9	4205
2026-01-27 03:37:17.03	239.24	16.13	-24.7	-26.0	17.1	0.00e+00	0	44	0	3234856960	9	4214
2026-01-27 03:37:18.03	239.15	16.03	-24.7	-26.1	17.1	0.00e+00	0	44	0	3240099840	9	4239
2026-01-27 03:37:19.04	239.05	15.92	-25.0	-26.7	16.7	0.00e+00	0	44	0	3246391296	9	4395
2026-01-27 03:37:20.04	238.96	15.82	-24.8	-26.2	17.0	0.00e+00	0	44	0	3251634176	9	4263
2026-01-27 03:37:21.04	238.87	15.72	-24.7	-26.0	17.1	0.00e+00	0	44	0	3256877056	9	4200
2026-01-27 03:37:22.04	238.78	15.62	-24.7	-26.0	17.1	0.00e+00	0	44	0	3263168512	9	4211
2026-01-27 03:37:23.04	238.68	15.52	-24.8	-26.2	17.0	0.00e+00	0	44	0	3268411392	9	4265
2026-01-27 03:37:24.05	238.59	15.42	-24.7	-26.1	17.0	0.00e+00	0	44	0	3273654272	9	4241
2026-01-27 03:37:25.05	238.50	15.32	-25.0	-26.7	16.7	0.00e+00	0	44	0	3279945728	9	4388
2026-01-27 03:37:26.06	238.41	15.22	-24.5	-26.0	16.8	0.00e+00	0	44	0	3285188608	9	4289
2026-01-27 03:37:27.06	238.32	15.13	-24.8	-26.2	16.0	0.00e+00	0	44	0	3291480064	9	4267
2026-01-27 03:37:28.07	238.23	15.03	-24.9	-26.4	16.8	0.00e+00	0	44	0	3296722944	9	4322
2026-01-27 03:37:29.07	238.15	14.93	-24.8	-26.4	16.8	0.00e+00	0	44	0	3301965824	9	4308
2026-01-27 03:37:30.07	238.06	14.83	-24.9	-26.6	16.7	0.00e+00	0	44	0	3308257280	9	4375
2026-01-27 03:37:31.07	237.97	14.74	-25.0	-26.4	16.6	0.00e+00	0	44	0	3313500160	10	4188
2026-01-27 03:37:32.08	237.89	14.64	-25.2	-26.8	16.4	3.09e-04	0	44	0	3318743040	10	4294
2026-01-27 03:37:33.08	237.80	14.54	-25.1	-26.4	16.6	0.00e+00	0	44	0	3325034496	10	4208
2026-01-27 03:37:34.09	237.72	14.44	-25.0	-26.3	16.6	0.00e+00	0	44	0	3330277376	10	4180
2026-01-27 03:37:35.10	237.63	14.35	-25.1	-26.4	16.5	0.00e+00	0	44	0	3336568832	10	4213
2026-01-27 03:37:36.10	237.55	14.25	-25.1	-26.5	16.5	0.00e+00	0	44	0	3341811712	10	4215
2026-01-27 03:37:37.11	237.46	14.16	-25.2	-26.6	16.4	0.00e+00	0	44	0	3347054592	10	4254
2026-01-27 03:37:38.10	237.38	14.06	-25.1	-26.5	16.5	0.00e+00	0	44	0	3353346048	10	4216
2026-01-27 03:37:39.11	237.30	13.97	-25.1	-26.4	16.5	1.27e-04	0	44	0	3358588928	10	4207
2026-01-27 03:37:40.11	237.22	13.87	-25.0	-26.3	16.6	0.00e+00	0	44	0	3364880384	10	4186
2026-01-27 03:37:41.12	237.14	13.78	-25.1	-26.5	16.4	2.51e-05	0	44	0	3370123264	10	4234
2026-01-27 03:37:42.12	237.06	13.68	-25.1	-26.5	16.5	0.00e+00	0	44	0	3375366144	10	4212
2026-01-27 03:37:43.12	236.98	13.59	-25.1	-26.4	16.5	0.00e+00	0	44	0	3381657600	10	4211
2026-01-27 03:37:44.12	236.90	13.50	-25.1	-26.5	16.5	6.63e-05	0	44	0	3386900480	10	4213
2026-01-27 03:37:45.13	236.82	13.40	-25.1	-26.4	16.5	0.00e+00	0	44	0	3392143360	10	4206
2026-01-27 03:37:46.14	236.74	13.31	-25.1	-26.6	16.4	2.20e-06	0	44	0	3398434816	10	4241
2026-01-27 03:37:47.15	236.66	13.22	-25.1	-26.4	16.5	0.00e+00	0	44	0	3403677696	10	4207
2026-01-27 03:37:48.14	236.58	13.13	-25.1	-26.5	16.4	1.02e-04	0	44	0	3409969152	10	4227
2026-01-27 03:37:49.14	236.51	13.04	-25.2	-26.7	16.3	0.00e+00	0	44	0	3415212032	10	4278
2026-01-27 03:37:50.15	236.43	12.94	-25.2	-26.6	16.3	1.17e-04	0	44	0	3420454912	10	4265
2026-01-27 03:37:51.15	236.35	12.85	-25.3	-26.9	16.1	6.98e-05	0	44	0	3426746368	10	4348
2026-01-27 03:37:52.16	236.28	12.76	-25.4	-27.2	16.0	0.00e+00	0	44	0	3431989248	10	4415
2026-01-27 03:37:53.16	236.20	12.67	-25.3	-27.0	16.1	1.27e-04	0	44	0	3438280704	10	4353
2026-01-27 03:37:54.16	236.13	12.58	-25.2	-26.8	16.2	0.00e+00	0	44	0	3443523584	10	4308
2026-01-27 03:37:55.16	236.06	12.49	-25.3	-26.9	16.1	0.00e+00	0	44	0	3448766464	10	4346
2026-01-27 03:37:56.15	235.98	12.40	-25.4	-27.0	16.1	1.70e-04	0	44	0	3455057920	10	4375
2026-01-27 03:37:57.16	235.91	12.31	-25.5	-27.3	15.9	1.37e-04	0	44	0	3460300800	10	4442
2026-01-27 03:37:58.16	235.84	12.22	-25.4	-27.2	16.0	0.00e+00	0	44	0	3465543680	10	4411
2026-01-27 03:37:59.17	235.76	12.13	-25.6	-27.1	15.8	1.45e-04	0	44	0	3471835136	11	4268
2026-01-27 03:38:00.18	235.69	12.05	-25.8	-27.5	15.5	1.75e-04	0	44	0	3477078016	11	4399
2026-01-27 03:38:01.17	235.62	11.96	-25.6	-27.0	15.8	0.00e+00	0	44	0	3482320896	11	4262
2026-01-27 03:38:02.18	235.55	11.87	-25.5	-26.8	15.9	1.90e-04	0	44	0	3488612352	11	4206
2026-01-27 03:38:03.18	235.48	11.78	-25.5	-26.9	15.8	1.43e-04	0	44	0	3493855232	11	4230
2026-01-27 03:38:04.18	235.41	11.69	-25.6	-27.1	15.8	0.00e+00	0	44	0	3500146688	11	4269
2026-01-27 03:38:05.19	235.34	11.61	-25.5	-27.0	15.8	1.35e-04	0	44	0	3505389568	11	4241
2026-01-27 03:38:06.19	235.27	11.52	-25.6	-27.1	15.7	0.00e+00	0	44	0	3511681024	11	4288
2026-01-27 03:38:07.19	235.20	11.43	-25.5	-27.0	15.8	0.00e+00	0	44	0	3516923904	11	4252
2026-01-27 03:38:08.19	235.13	11.35	-25.6	-27.0	15.7	0.00e+00	0	44	0	3522166784	11	4260
2026-01-27 03:38:09.20	235.07	11.26	-25.6	-27.0	15.7	1.23e-04	0	44	0	3528458240	11	4258
2026-01-27 03:38:10.20	235.00	11.17	-25.6	-27.2	15.7	0.00e+00	0	44	0	3533701120	11	4294
2026-01-27 03:38:11.21	234.93	11.09	-25.6	-27.0	15.7	1.32e-04	0	44	0	3538944000	11	4263
2026-01-27 03:38:12.21	234.86	11.00	-25.6	-27.1	15.7	1.38e-04	0	44	0	3545235456	11	4280
2026-01-27 03:38:13.21	234.80	10.92	-25.7	-27.2	15.6	0.00e+00	0	44	0	3550478336	11	4309
2026-01-27 03:38:14.22	234.73	10.83	-25.6	-27.1	15.6	1.83e-04	0	44	0	3555721216	11	4279
2026-01-27 03:38:15.23	234.67	10.75	-25.6	-27.1	15.6	0.00e+00	0	44	0	3562012672	11	4291
2026-01-27 03:38:16.23	234.60	10.66	-25.7	-27.2	15.6	0.00e+00	0	44	0	3567255552	11	4315
2026-01-27 03:38:17.24	234.54	10.58	-25.7	-27.3	15.6	0.00e+00	0	44	0	3573547008	11	4319
2026-01-27 03:38:18.25	234.47	10.49	-25.6	-27.1	15.6	0.00e+00	0	44	0	3578789888	11	4291
2026-01-27 03:38:19.25	234.41	10.41	-25.6	-27.2	15.6	0.00e+00	0	44	0	3585081344	11	4306
2026-01-27 03:38:20.26	234.34	10.33	-25.8	-27.5	15.4	0.00e+00	0	44	0	3590324224	11	4403
2026-01-27 03:38:21.26	234.28	10.24	-25.7	-27.4	15.5	2.22e-04	0	44	0	3595567104	11	4364
2026-01-27 03:38:22.26	234.22	10.16	-25.8	-27.6	15.3	0.00e+00	0	44	0	3601858560	11	4422
2026-01-27 03:38:23.27	234.15	10.08	-25.8	-27.6	15.3	0.00e+00	0	44	0	3607101440	11	4410
2026-01-27 03:38:24.27	234.09	10.00	-25.8	-27.6	15.3	0.00e+00	0	44	0	3612344320	11	4406
2026-01-27 03:38:25.27	234.03	9.91	-25.9	-27.8	15.2	0.00e+00	0	44	0	3618635776	11	4472
2026-01-27 03:38:26.27	233.97	9.83	-25.8	-27.6	15.3	0.00e+00	0	44	0	3623878656	11	4420
2026-01-27 03:38:27.28	233.91	9.75	-25.8	-27.6	15.3	0.00e+00	0	44	0	3629121536	11	4438
2026-01-27 03:38:28.28	233.85	9.67	-25.9	-27.8	15.2	0.00e+00	0	44	0	3635412992	11	4474
2026-01-27 03:38:29.27	233.79	9.59	-25.9	-27.3	15.1	1.10e-06	0	44	0	3640655872	12	4230
2026-01-27 03:38:30.28	233.73	9.51	-25.8	-27.1	15.2	0.00e+00	0	44	0	3646947328	12	4179
2026-01-27 03:38:31.28	233.67	9.43	-25.9	-27.3	15.1	0.00e+00	0	44	0	3652190208	12	4232
2026-01-27 03:38:32.28	233.61	9.35	-25.9	-27.3	15.1	0.00e+00	0	44	0	3657433088	12	4243
2026-01-27 03:38:33.29	233.55	9.27	-26.0	-27.5	15.0	0.00e+00	0	44	0	3663724544	12	4277
2026-01-27 03:38:34.29	233.49	9.19	-25.9	-27.4	15.0	0.00e+00	0	44	0	3668967424	12	4258
2026-01-27 03:38:35.30	233.43	9.11	-25.9	-27.4	15.0	0.00e+00	0	44	0	3675258880	12	4246
2026-01-27 03:38:36.30	233.38	9.03	-26.0	-27.5	14.9	0.00e+00	0	44	0	3680501760	12	4302
2026-01-27 03:38:37.30	233.32	8.95	-26.0	-27.5	14.9	0.00e+00	0	44	0	3685744640	12	4292
2026-01-27 03:38:38.31	233.26	8.87	-26.0	-27.6	14.9	0.00e+00	0	44	0	3692036096	12	4324
2026-01-27 03:38:39.31	233.20	8.79	-26.0	-27.6	14.9	0.00e+00	0	44	0	3697278976	12	4304
2026-01-27 03:38:40.32	233.15	8.71	-26.1	-27.8	14.8	0.00e+00	0	44	0	3702521856	12	4371
2026-01-27 03:38:41.32	233.09	8.63	-26.2	-27.9	14.7	0.00e+00	0	44	0	3708813312	12	4408
2026-01-27 03:38:42.32	233.03	8.55	-26.2	-28.0	14.7	0.00e+00	0	44	0	3714056192	12	4419
2026-01-27 03:38:43.32	232.98	8.48	-26.2	-28.1	14.5	1.10e-06	0	44	0	3720347648	12	4460
2026-01-27 03:38:44.32	232.92	8.40	-26.1	-27.9	14.7	0.00e+00	0	44	0	3725590528	12	4394
2026-01-27 03:38:45.33	232.87	8.32	-26.1	-27.9	14.6	0.00e+00	0	44	0	3730833408	12	4409
2026-01-27 03:38:46.33	232.81	8.24	-26.2	-28.0	14.6	0.00e+00	0	44	0	3737124864	12	4438
2026-01-27 03:38:47.33	232.76	8.17	-26.2	-28.0	14.6	0.00e+00	0	44	0	3742367744	12	4428
2026-01-27 03:38:48.33	232.71	8.09	-26.2	-28.1	14.5	0.00e+00	0	44	0	3747610624	12	4478
2026-01-27 03:38:49.33	232.65	8.01	-26.3	-28.3	14.4	0.00e+00	0	44	0	3753902080	12	4528
2026-01-27 03:38:50.33	232.60	7.94	-26.3	-28.3	14.4	0.00e+00	0	44	0	3759144960	12	4532
2026-01-27 03:38:51.33	232.55	7.86	-26.4	-28.4	14.3	0.00e+00	0	44	0	3764387840	12	4559
2026-01-27 03:38:52.33	232.49	7.78	-26.3	-28.3	14.4	0.00e+00	0	44	0	3770679296	12	4523
2026-01-27 03:38:53.34	232.44	7.71	-26.2	-28.1	14.5	0.00e+00	0	44	0	3775922176	12	4474
2026-01-27 03:38:54.34	232.39	7.63	-26.3	-28.4	14.3	0.00e+00	0	44	0	3782213632	12	4547
2026-01-27 03:38:55.34	232.34	7.56	-26.3	-28.3	14.4	0.00e+00	0	44	0	3787456512	12	4522
2026-01-27 03:38:56.34	232.28	7.48	-26.2	-28.1	14.4	0.00e+00	0	44	0	3793747968	12	4469
2026-01-27 03:38:57.35	232.23	7.41	-26.4	-28.5	14.2	1.10e-06	0	44	0	3798990848	12	4576
2026-01-27 03:38:58.35	232.18	7.33	-26.4	-28.5	14.2	0.00e+00	0	44	0	3804233728	12	4595
2026-01-27 03:38:59.35	232.13	7.26	-26.4	-28.4	14.2	0.00e+00	0	44	0	3810525184	12	4566
2026-01-27 03:39:00.35	232.08	7.18	-26.4	-28.4	14.2	0.00e+00	0	44	0	3815768064	12	4566
2026-01-27 03:39:01.35	232.03	7.11	-31.5	-38.0	5.8	1.10e-06	0	44	0	3821010944	22	7635
2026-01-27 03:39:02.36	231.98	7.03	-32.9	-44.3	3.8	8.46e-01	0	44	104	3821010944	25	13393
2026-01-27 03:39:03.36	231.93	6.96	-33.3	-44.6	3.8	8.46e-01	0	44	104	3821010944	26	13265
2026-01-27 03:39:04.37	231.88	6.89	-33.5	-44.6	3.8	8.46e-01	0	44	104	3821010944	27	12904
2026-01-27 03:39:05.37	231.83	6.81	-33.8	-45.1	3.8	8.45e-01	0	44	104	3821010944	27	13292

#Closed at: 2026-01-27 03:39:05
#Recorded file [3821 MB]: D:/data/31010_260127_062741.dat