passes_logs/2026/01/27/R2M6_AANII_01/R2M6_AANII_01__20260127_092342_NOAA_20_JPSS-1_rec.log

#Pass ID: 20260127_092342_NOAA 20 (JPSS-1)
#Satellite: NOAA 20 (JPSS-1)
#Configuration: NOAA 20
#almurnet v.1.7.20240730
#Start time: 2026-01-27 09:23:42

#Version: 2.2.20231116
#Station: R2M6_AANII_01
#Location: 30.233357 lon 59.946436 lat
#TLE: 1 43013U 17073A   26026.81907703  .00000149  00000+0  91399-4 0  9998
#TLE: 2 43013  98.7647 327.6343 0000991  22.4130 337.7089 14.19540778424411

#Time	Az	El	Level	Level2	SNR	BER	BlckErr	Temp	State	Recorded	gain1	gain2
2026-01-27 09:23:42.91	131.49	7.04	-32.2	-39.1	4.8	1.33e+00	0	41	0	0	25	7896
2026-01-27 09:23:43.91	131.44	7.11	-32.3	-39.3	4.7	1.34e+00	0	41	104	0	25	8046
2026-01-27 09:23:44.91	131.40	7.19	-32.2	-38.5	7.2	1.76e-01	0	41	0	0	25	7438
2026-01-27 09:23:45.92	131.35	7.26	-32.2	-38.9	6.9	1.64e-01	0	41	0	1048576	25	7719
2026-01-27 09:23:46.92	131.31	7.34	-32.2	-38.3	7.3	1.49e-01	0	42	0	3145728	25	7327
2026-01-27 09:23:47.92	131.26	7.41	-32.1	-37.9	7.7	1.03e-01	0	41	0	5242880	25	7053
2026-01-27 09:23:48.93	131.21	7.49	-32.0	-37.8	7.7	8.69e-02	0	42	0	7340032	25	6975
2026-01-27 09:23:49.93	131.17	7.56	-32.0	-37.9	7.7	8.77e-02	0	41	0	9437184	25	7023
2026-01-27 09:23:50.93	131.12	7.64	-32.2	-38.8	6.9	1.30e-01	0	41	0	10485760	25	7704
2026-01-27 09:23:51.93	131.07	7.72	-32.2	-38.4	7.2	1.55e-01	0	42	0	12582912	25	7413
2026-01-27 09:23:52.93	131.03	7.79	-32.0	-37.6	7.9	7.90e-02	0	42	0	14680064	25	6892
2026-01-27 09:23:53.94	130.98	7.87	-31.8	-36.7	8.6	4.46e-02	0	42	0	16777216	25	6362
2026-01-27 09:23:54.94	130.93	7.95	-31.6	-36.6	9.1	2.65e-02	0	42	0	17825792	24	6357
2026-01-27 09:23:55.95	130.88	8.03	-31.7	-36.7	9.1	2.17e-02	0	42	0	19922944	24	6416
2026-01-27 09:23:56.95	130.83	8.10	-31.7	-36.8	9.0	2.43e-02	0	42	0	22020096	24	6512
2026-01-27 09:23:57.95	130.78	8.18	-31.5	-36.1	9.5	1.90e-02	0	42	0	24117248	24	6138
2026-01-27 09:23:58.96	130.73	8.26	-31.4	-35.9	9.6	1.30e-02	0	42	0	26214400	24	6037
2026-01-27 09:23:59.96	130.68	8.34	-31.4	-35.6	9.9	1.04e-02	0	42	0	27262976	24	5839
2026-01-27 09:24:00.97	130.63	8.42	-31.4	-35.8	9.7	8.46e-03	0	42	0	29360128	24	5980
2026-01-27 09:24:01.97	130.58	8.49	-31.4	-35.7	9.9	9.01e-03	0	42	0	31457280	24	5887
2026-01-27 09:24:02.98	130.53	8.57	-31.6	-36.3	9.4	1.26e-02	0	42	0	33554432	24	6214
2026-01-27 09:24:03.98	130.48	8.65	-31.4	-35.5	10.0	1.00e-02	0	42	0	35651584	24	5804
2026-01-27 09:24:04.98	130.43	8.73	-31.2	-35.2	10.7	5.70e-03	0	42	0	36700160	23	5749
2026-01-27 09:24:05.98	130.38	8.81	-31.4	-36.2	10.0	6.77e-03	0	42	0	38797312	23	6207
2026-01-27 09:24:06.98	130.33	8.89	-31.3	-35.7	10.3	6.01e-03	0	42	0	40894464	23	5965
2026-01-27 09:24:07.99	130.28	8.97	-31.2	-35.5	10.4	4.54e-03	0	42	0	42991616	23	5901
2026-01-27 09:24:08.99	130.23	9.05	-31.4	-36.0	10.1	4.29e-03	0	42	0	45088768	23	6145
2026-01-27 09:24:09.99	130.17	9.13	-31.4	-36.1	10.1	7.14e-03	0	42	0	46137344	23	6182
2026-01-27 09:24:11.00	130.12	9.21	-31.4	-36.0	10.1	7.64e-03	0	42	0	48234496	23	6148
2026-01-27 09:24:12.01	130.07	9.30	-31.4	-36.2	10.0	6.33e-03	0	42	0	50331648	23	6228
2026-01-27 09:24:13.02	130.01	9.38	-31.5	-36.3	10.0	7.59e-03	0	42	0	52428800	23	6256
2026-01-27 09:24:14.01	129.96	9.46	-31.3	-35.7	10.4	6.14e-03	0	42	0	54525952	23	5981
2026-01-27 09:24:15.01	129.91	9.54	-31.1	-35.1	10.8	3.48e-03	0	42	0	55574528	23	5688
2026-01-27 09:24:16.01	129.85	9.62	-31.1	-35.0	10.9	2.27e-03	0	42	0	57671680	23	5637
2026-01-27 09:24:17.02	129.80	9.70	-31.0	-34.7	11.1	1.66e-03	0	42	0	59768832	23	5506
2026-01-27 09:24:18.02	129.74	9.79	-31.3	-35.6	10.5	2.34e-03	0	42	0	61865984	23	5894
2026-01-27 09:24:19.02	129.69	9.87	-31.1	-34.9	11.0	2.85e-03	0	42	0	63963136	23	5578
2026-01-27 09:24:20.02	129.63	9.95	-30.9	-34.2	11.5	9.21e-04	0	42	0	65011712	23	5293
2026-01-27 09:24:21.03	129.58	10.04	-30.8	-34.3	11.8	4.78e-04	0	42	0	67108864	22	5406
2026-01-27 09:24:22.03	129.52	10.12	-30.9	-34.6	11.6	5.06e-04	0	42	0	69206016	22	5552
2026-01-27 09:24:23.03	129.46	10.20	-30.7	-34.2	12.0	4.42e-04	0	42	0	71303168	22	5344
2026-01-27 09:24:24.04	129.41	10.29	-30.7	-34.1	12.0	2.74e-04	0	42	0	73400320	22	5331
2026-01-27 09:24:25.04	129.35	10.37	-30.8	-34.3	11.9	3.73e-04	0	42	0	74448896	22	5394
2026-01-27 09:24:26.04	129.29	10.45	-30.7	-34.0	12.2	3.84e-04	0	42	0	76546048	22	5255
2026-01-27 09:24:27.04	129.24	10.54	-30.7	-33.9	12.3	1.96e-04	0	42	0	78643200	22	5214
2026-01-27 09:24:28.05	129.18	10.63	-30.7	-33.9	12.3	1.95e-04	0	42	0	80740352	22	5207
2026-01-27 09:24:29.05	129.12	10.71	-30.7	-33.9	12.3	1.57e-04	0	42	0	81788928	22	5217
2026-01-27 09:24:30.06	129.06	10.80	-30.9	-34.4	11.9	2.79e-04	0	42	0	83886080	22	5426
2026-01-27 09:24:31.07	129.00	10.88	-30.7	-34.0	12.3	2.22e-04	0	42	0	85983232	22	5230
2026-01-27 09:24:32.07	128.94	10.97	-30.6	-33.6	12.5	1.46e-04	0	43	0	88080384	22	5094
2026-01-27 09:24:33.08	128.88	11.06	-30.6	-33.6	12.5	1.09e-04	0	42	0	90177536	22	5085
2026-01-27 09:24:34.07	128.82	11.14	-30.7	-33.9	12.3	1.28e-04	0	42	0	91226112	22	5193
2026-01-27 09:24:35.08	128.76	11.23	-30.7	-33.9	12.3	1.51e-04	0	43	0	93323264	22	5185
2026-01-27 09:24:36.08	128.70	11.32	-30.7	-34.0	12.2	1.66e-04	0	43	0	95420416	22	5256
2026-01-27 09:24:37.08	128.64	11.40	-30.7	-34.0	12.3	1.97e-04	0	43	0	97517568	22	5238
2026-01-27 09:24:38.08	128.57	11.49	-30.8	-34.2	12.1	2.28e-04	0	42	0	99614720	22	5319
2026-01-27 09:24:39.09	128.51	11.58	-30.7	-33.8	12.4	1.62e-04	0	43	0	100663296	22	5155
2026-01-27 09:24:40.10	128.45	11.67	-30.6	-33.7	12.5	1.18e-04	0	43	0	102760448	22	5120
2026-01-27 09:24:41.10	128.39	11.76	-30.6	-33.6	12.5	1.27e-04	0	43	0	104857600	22	5115
2026-01-27 09:24:42.10	128.32	11.85	-30.5	-33.4	12.7	1.04e-04	0	43	0	106954752	22	5040
2026-01-27 09:24:43.10	128.26	11.93	-30.6	-33.7	12.5	1.07e-04	0	43	0	109051904	22	5145
2026-01-27 09:24:44.10	128.19	12.02	-30.5	-33.4	12.7	6.48e-05	0	43	0	110100480	22	5035
2026-01-27 09:24:45.11	128.13	12.11	-30.4	-33.2	12.9	6.02e-05	0	43	0	112197632	22	4938
2026-01-27 09:24:46.11	128.06	12.20	-30.5	-33.3	12.8	5.41e-05	0	43	0	114294784	22	4987
2026-01-27 09:24:47.11	128.00	12.29	-30.5	-33.4	12.8	7.55e-05	0	43	0	116391936	22	5005
2026-01-27 09:24:48.12	127.93	12.38	-30.5	-33.4	12.7	5.87e-05	0	43	0	118489088	22	5023
2026-01-27 09:24:49.12	127.87	12.48	-30.5	-33.4	12.8	7.24e-05	0	43	0	119537664	22	5020
2026-01-27 09:24:50.12	127.80	12.57	-30.5	-33.4	12.7	9.68e-05	0	43	0	121634816	22	5013
2026-01-27 09:24:51.12	127.73	12.66	-30.5	-33.4	12.8	5.72e-05	0	43	0	123731968	22	5013
2026-01-27 09:24:52.12	127.67	12.75	-30.5	-33.3	12.8	4.95e-05	0	43	0	125829120	22	4998
2026-01-27 09:24:53.12	127.60	12.84	-30.6	-33.6	12.7	6.33e-05	0	43	0	127926272	22	5070
2026-01-27 09:24:54.13	127.53	12.93	-30.4	-33.1	13.0	4.95e-05	0	43	0	128974848	22	4895
2026-01-27 09:24:55.13	127.46	13.03	-30.5	-33.3	12.9	5.03e-05	0	43	0	131072000	22	4960
2026-01-27 09:24:56.13	127.39	13.12	-30.5	-33.2	12.9	3.73e-05	0	43	0	133169152	22	4926
2026-01-27 09:24:57.13	127.32	13.21	-30.5	-33.2	13.0	3.73e-05	0	43	0	135266304	22	4918
2026-01-27 09:24:58.13	127.25	13.31	-30.6	-33.5	12.8	6.94e-05	0	43	0	136314880	22	5024
2026-01-27 09:24:59.14	127.18	13.40	-30.6	-33.5	12.8	4.34e-05	0	43	0	138412032	22	5030
2026-01-27 09:25:00.14	127.11	13.50	-30.7	-33.8	12.6	6.63e-05	0	43	0	140509184	22	5118
2026-01-27 09:25:01.14	127.04	13.59	-30.7	-33.6	12.7	6.63e-05	0	43	0	142606336	22	5072
2026-01-27 09:25:02.14	126.96	13.68	-30.7	-33.7	12.7	7.55e-05	0	43	0	144703488	22	5101
2026-01-27 09:25:03.14	126.89	13.78	-30.8	-33.9	12.5	8.69e-05	0	43	0	145752064	22	5171
2026-01-27 09:25:04.15	126.82	13.88	-30.6	-33.3	13.0	4.88e-05	0	43	0	147849216	22	4937
2026-01-27 09:25:05.16	126.74	13.97	-30.4	-32.8	13.4	1.90e-05	0	43	0	149946368	22	4747
2026-01-27 09:25:06.16	126.67	14.07	-30.4	-32.7	13.4	1.60e-05	0	43	0	152043520	22	4725
2026-01-27 09:25:07.17	126.59	14.17	-30.5	-33.1	13.1	2.05e-05	0	43	0	154140672	22	4883
2026-01-27 09:25:08.17	126.52	14.26	-30.6	-33.4	13.0	3.89e-05	0	43	0	155189248	22	4961
2026-01-27 09:25:09.17	126.44	14.36	-30.6	-33.5	12.9	4.27e-05	0	43	0	157286400	22	5019
2026-01-27 09:25:10.17	126.37	14.46	-30.7	-33.8	12.7	6.63e-05	0	43	0	159383552	22	5126
2026-01-27 09:25:11.18	126.29	14.56	-30.6	-33.6	12.8	5.64e-05	0	43	0	161480704	22	5062
2026-01-27 09:25:12.18	126.21	14.65	-30.6	-33.5	12.9	5.56e-05	0	43	0	163577856	22	5030
2026-01-27 09:25:13.18	126.14	14.75	-30.6	-33.4	12.9	5.56e-05	0	43	0	164626432	22	5005
2026-01-27 09:25:14.18	126.06	14.85	-30.6	-33.6	12.8	5.64e-05	0	43	0	166723584	22	5046
2026-01-27 09:25:15.18	125.98	14.95	-30.7	-33.9	12.6	6.10e-05	0	43	0	168820736	22	5161
2026-01-27 09:25:16.19	125.90	15.05	-30.8	-34.1	12.4	8.23e-05	0	43	0	170917888	22	5237
2026-01-27 09:25:17.19	125.82	15.15	-30.6	-33.5	12.9	4.50e-05	0	43	0	173015040	22	5022
2026-01-27 09:25:18.20	125.74	15.25	-30.5	-33.1	13.1	3.96e-05	0	43	0	174063616	22	4884
2026-01-27 09:25:19.20	125.66	15.35	-30.5	-33.2	13.2	2.28e-05	0	43	0	176160768	22	4892
2026-01-27 09:25:20.21	125.57	15.45	-30.6	-33.3	13.1	2.59e-05	0	43	0	178257920	22	4944
2026-01-27 09:25:21.21	125.49	15.56	-30.6	-33.3	13.0	5.34e-05	0	43	0	180355072	22	4960
2026-01-27 09:25:22.21	125.41	15.66	-30.6	-33.4	13.0	3.12e-05	0	43	0	181403648	22	4981
2026-01-27 09:25:23.22	125.33	15.76	-30.6	-33.3	13.0	3.73e-05	0	43	0	183500800	22	4952
2026-01-27 09:25:24.22	125.24	15.86	-30.4	-33.0	13.3	2.67e-05	0	43	0	185597952	22	4805
2026-01-27 09:25:25.22	125.16	15.96	-30.4	-32.8	13.5	1.44e-05	0	43	0	187695104	22	4733
2026-01-27 09:25:26.22	125.07	16.07	-30.4	-32.9	13.4	2.21e-05	0	43	0	189792256	22	4778
2026-01-27 09:25:27.23	124.99	16.17	-30.6	-33.3	13.1	2.97e-05	0	43	0	191889408	22	4937
2026-01-27 09:25:28.23	124.90	16.28	-30.6	-33.2	13.2	1.37e-05	0	43	0	192937984	22	4891
2026-01-27 09:25:29.23	124.81	16.38	-30.7	-33.6	13.0	4.88e-05	0	43	0	195035136	22	5025
2026-01-27 09:25:30.24	124.73	16.49	-30.6	-33.4	13.1	4.04e-05	0	43	0	197132288	22	4961
2026-01-27 09:25:31.24	124.64	16.59	-30.7	-33.6	12.9	4.11e-05	0	43	0	199229440	22	5052
2026-01-27 09:25:32.24	124.55	16.70	-30.5	-33.2	13.2	2.21e-05	0	43	0	200278016	22	4877
2026-01-27 09:25:33.24	124.46	16.80	-30.4	-32.8	13.5	1.06e-05	0	43	0	202375168	22	4759
2026-01-27 09:25:34.25	124.37	16.91	-30.5	-33.0	13.4	9.10e-06	0	43	0	204472320	22	4802
2026-01-27 09:25:35.25	124.28	17.02	-30.5	-33.1	13.3	1.52e-05	0	43	0	206569472	22	4854
2026-01-27 09:25:36.26	124.19	17.12	-30.5	-33.2	13.3	2.05e-05	0	43	0	208666624	22	4890
2026-01-27 09:25:37.26	124.09	17.23	-30.4	-32.9	13.4	2.13e-05	0	43	0	209715200	22	4798
2026-01-27 09:25:38.27	124.00	17.34	-30.5	-33.1	13.3	1.52e-05	0	43	0	211812352	22	4870
2026-01-27 09:25:39.27	123.91	17.45	-30.5	-33.3	13.2	3.05e-05	0	43	0	213909504	22	4936
2026-01-27 09:25:40.28	123.81	17.56	-30.5	-33.3	13.2	9.10e-06	0	43	0	216006656	22	4937
2026-01-27 09:25:41.28	123.72	17.67	-30.6	-33.5	13.1	2.21e-05	0	43	0	218103808	22	5021
2026-01-27 09:25:42.28	123.62	17.78	-30.6	-33.4	13.1	3.73e-05	0	43	0	219152384	22	4996
2026-01-27 09:25:43.29	123.52	17.89	-30.5	-33.2	13.2	2.67e-05	0	43	0	221249536	22	4935
2026-01-27 09:25:44.29	123.43	18.00	-30.5	-33.3	13.1	2.44e-05	0	43	0	223346688	22	4962
2026-01-27 09:25:45.30	123.33	18.11	-30.5	-33.1	13.3	1.52e-05	0	43	0	225443840	22	4893
2026-01-27 09:25:46.29	123.23	18.22	-30.5	-33.2	13.2	2.44e-05	0	43	0	227540992	22	4932
2026-01-27 09:25:47.30	123.13	18.33	-30.6	-33.4	13.1	2.28e-05	0	43	0	228589568	22	4989
2026-01-27 09:25:48.30	123.03	18.44	-30.5	-33.2	13.3	2.13e-05	0	43	0	230686720	22	4906
2026-01-27 09:25:49.30	122.93	18.55	-30.5	-33.2	13.3	1.67e-05	0	43	0	232783872	22	4891
2026-01-27 09:25:50.30	122.83	18.67	-30.6	-33.3	13.3	2.05e-05	0	43	0	234881024	22	4915
2026-01-27 09:25:51.31	122.73	18.78	-30.6	-33.4	13.2	2.13e-05	0	43	0	236978176	22	4972
2026-01-27 09:25:52.31	122.62	18.89	-30.6	-33.2	13.3	1.90e-05	0	43	0	238026752	22	4890
2026-01-27 09:25:53.31	122.52	19.01	-30.6	-33.3	13.3	1.90e-05	0	43	0	240123904	22	4909
2026-01-27 09:25:54.32	122.41	19.12	-30.6	-33.3	13.3	2.21e-05	0	43	0	242221056	22	4931
2026-01-27 09:25:55.32	122.31	19.24	-30.6	-33.4	13.3	1.29e-05	0	43	0	244318208	22	4956
2026-01-27 09:25:56.33	122.20	19.35	-30.8	-33.7	13.0	2.36e-05	0	43	0	246415360	22	5080
2026-01-27 09:25:57.33	122.10	19.47	-30.8	-33.9	12.9	6.02e-05	0	43	0	247463936	22	5138
2026-01-27 09:25:58.34	121.99	19.59	-30.6	-33.4	13.3	2.36e-05	0	43	0	249561088	22	4956
2026-01-27 09:25:59.34	121.88	19.70	-30.6	-33.2	13.4	1.14e-05	0	44	0	251658240	22	4888
2026-01-27 09:26:00.34	121.77	19.82	-30.6	-33.3	13.3	1.37e-05	0	43	0	253755392	22	4918
2026-01-27 09:26:01.35	121.66	19.94	-30.6	-33.3	13.3	1.22e-05	0	43	0	254803968	22	4927
2026-01-27 09:26:02.35	121.55	20.06	-30.7	-33.6	13.2	3.35e-05	0	43	0	256901120	22	4999
2026-01-27 09:26:03.35	121.43	20.17	-30.8	-33.9	13.0	3.12e-05	0	43	0	258998272	22	5106
2026-01-27 09:26:04.36	121.32	20.29	-30.8	-33.8	13.1	2.67e-05	0	43	0	261095424	22	5068
2026-01-27 09:26:05.36	121.21	20.41	-30.8	-33.7	13.2	2.82e-05	0	43	0	263192576	22	5037
2026-01-27 09:26:06.36	121.09	20.53	-30.8	-33.9	13.1	3.05e-05	0	43	0	264241152	22	5095
2026-01-27 09:26:07.36	120.98	20.65	-30.9	-34.0	12.9	3.96e-05	0	43	0	266338304	22	5165
2026-01-27 09:26:08.36	120.86	20.77	-30.9	-34.1	12.9	3.66e-05	0	43	0	268435456	22	5192
2026-01-27 09:26:09.37	120.74	20.89	-30.9	-34.1	12.9	4.50e-05	0	43	0	270532608	22	5169
2026-01-27 09:26:10.38	120.62	21.02	-30.9	-34.0	13.0	3.43e-05	0	43	0	272629760	22	5132
2026-01-27 09:26:11.38	120.50	21.14	-30.9	-34.1	12.9	4.88e-05	0	43	0	273678336	22	5187
2026-01-27 09:26:12.39	120.38	21.26	-31.0	-34.4	12.7	5.26e-05	0	44	0	275775488	22	5304
2026-01-27 09:26:13.39	120.26	21.39	-31.0	-34.4	12.8	7.17e-05	0	43	0	277872640	22	5303
2026-01-27 09:26:14.39	120.14	21.51	-30.9	-34.0	13.0	5.03e-05	0	43	0	279969792	22	5164
2026-01-27 09:26:15.40	120.01	21.63	-30.9	-34.0	13.0	3.81e-05	0	43	0	282066944	22	5156
2026-01-27 09:26:16.40	119.89	21.76	-30.9	-34.0	13.0	2.28e-05	0	44	0	283115520	22	5141
2026-01-27 09:26:17.41	119.76	21.88	-31.0	-34.1	12.9	3.66e-05	0	44	0	285212672	22	5194
2026-01-27 09:26:18.41	119.63	22.01	-30.9	-34.1	12.9	5.87e-05	0	44	0	287309824	22	5196
2026-01-27 09:26:19.41	119.51	22.13	-30.9	-34.0	13.1	3.58e-05	0	44	0	289406976	22	5138
2026-01-27 09:26:20.41	119.38	22.26	-30.9	-34.1	13.0	2.89e-05	0	44	0	291504128	22	5172
2026-01-27 09:26:21.42	119.25	22.39	-30.9	-34.0	13.0	3.89e-05	0	43	0	292552704	22	5153
2026-01-27 09:26:22.42	119.11	22.51	-30.8	-33.8	13.2	1.75e-05	0	43	0	294649856	22	5079
2026-01-27 09:26:23.42	118.98	22.64	-30.7	-33.5	13.4	1.60e-05	0	44	0	296747008	22	4961
2026-01-27 09:26:24.43	118.85	22.77	-30.8	-33.6	13.3	1.29e-05	0	43	0	298844160	22	4990
2026-01-27 09:26:25.43	118.71	22.90	-30.7	-33.5	13.4	1.22e-05	0	43	0	300941312	22	4943
2026-01-27 09:26:26.43	118.58	23.03	-30.7	-33.3	13.6	9.10e-06	0	44	0	301989888	22	4879
2026-01-27 09:26:27.43	118.44	23.16	-30.7	-33.3	13.6	1.14e-05	0	44	0	304087040	22	4871
2026-01-27 09:26:28.44	118.30	23.29	-30.8	-33.6	13.4	1.52e-05	0	44	0	306184192	22	4964
2026-01-27 09:26:29.44	118.17	23.42	-30.8	-33.7	13.3	1.52e-05	0	44	0	308281344	22	5008
2026-01-27 09:26:30.44	118.03	23.55	-30.9	-34.0	13.1	2.44e-05	0	44	0	310378496	22	5128
2026-01-27 09:26:31.45	117.88	23.68	-30.9	-34.1	13.1	2.44e-05	0	44	0	311427072	22	5158
2026-01-27 09:26:32.45	117.74	23.81	-30.9	-33.9	13.2	2.28e-05	0	44	0	313524224	22	5103
2026-01-27 09:26:33.45	117.60	23.94	-31.0	-34.2	13.0	3.73e-05	0	44	0	315621376	22	5234
2026-01-27 09:26:34.45	117.45	24.08	-31.0	-34.3	12.9	4.27e-05	0	44	0	317718528	22	5271
2026-01-27 09:26:35.45	117.31	24.21	-31.1	-34.6	12.8	5.87e-05	0	44	0	318767104	22	5361
2026-01-27 09:26:36.45	117.16	24.34	-31.1	-34.7	12.7	9.38e-05	0	44	0	320864256	22	5395
2026-01-27 09:26:37.46	117.01	24.48	-31.0	-34.3	12.8	5.87e-05	0	44	0	322961408	22	5273
2026-01-27 09:26:38.46	116.86	24.61	-31.1	-34.4	12.9	5.41e-05	0	44	0	325058560	22	5279
2026-01-27 09:26:39.47	116.71	24.75	-31.1	-34.6	12.7	6.40e-05	0	44	0	327155712	22	5368
2026-01-27 09:26:40.47	116.56	24.88	-31.1	-34.4	12.8	7.78e-05	0	44	0	329252864	22	5302
2026-01-27 09:26:41.47	116.40	25.02	-31.0	-34.3	12.9	3.50e-05	0	44	0	330301440	22	5249
2026-01-27 09:26:42.48	116.24	25.16	-31.0	-34.3	13.0	4.42e-05	0	44	0	332398592	22	5234
2026-01-27 09:26:43.49	116.09	25.29	-31.1	-34.4	12.9	5.03e-05	0	44	0	334495744	22	5268
2026-01-27 09:26:44.49	115.93	25.43	-31.1	-34.4	12.9	5.49e-05	0	44	0	336592896	22	5271
2026-01-27 09:26:45.49	115.77	25.57	-30.9	-34.0	13.2	3.12e-05	0	44	0	337641472	22	5116
2026-01-27 09:26:46.49	115.61	25.71	-30.9	-34.0	13.2	2.05e-05	0	44	0	339738624	22	5108
2026-01-27 09:26:47.49	115.45	25.85	-30.9	-33.9	13.3	1.98e-05	0	44	0	341835776	22	5063
2026-01-27 09:26:48.50	115.28	25.99	-31.0	-34.2	13.1	1.67e-05	0	44	0	343932928	22	5194
2026-01-27 09:26:49.50	115.12	26.13	-31.1	-34.5	12.9	6.48e-05	0	44	0	346030080	22	5329
2026-01-27 09:26:50.50	114.95	26.27	-31.1	-34.4	13.0	3.12e-05	0	43	0	347078656	22	5290
2026-01-27 09:26:51.50	114.78	26.41	-31.1	-34.3	13.1	3.73e-05	0	44	0	349175808	22	5219
2026-01-27 09:26:52.51	114.61	26.55	-31.0	-34.2	13.2	2.82e-05	0	44	0	351272960	22	5183
2026-01-27 09:26:53.52	114.44	26.69	-31.1	-34.3	13.1	2.05e-05	0	44	0	353370112	22	5203
2026-01-27 09:26:54.52	114.27	26.83	-31.1	-34.4	13.0	3.43e-05	0	44	0	355467264	22	5261
2026-01-27 09:26:55.52	114.09	26.98	-31.2	-34.6	12.9	2.89e-05	0	44	0	356515840	22	5351
2026-01-27 09:26:56.53	113.91	27.12	-31.2	-34.8	12.8	7.62e-05	0	44	0	358612992	22	5417
2026-01-27 09:26:57.53	113.74	27.26	-31.1	-34.5	13.0	4.80e-05	0	44	0	360710144	22	5305
2026-01-27 09:26:58.53	113.56	27.41	-31.1	-34.4	13.0	3.50e-05	0	44	0	362807296	22	5245
2026-01-27 09:26:59.54	113.38	27.55	-31.2	-34.6	12.9	3.20e-05	0	44	0	364904448	22	5324
2026-01-27 09:27:00.54	113.19	27.70	-31.3	-34.8	12.8	5.41e-05	0	44	0	365953024	22	5403
2026-01-27 09:27:01.54	113.01	27.84	-31.4	-35.1	12.6	6.71e-05	0	44	0	368050176	22	5526
2026-01-27 09:27:02.54	112.82	27.99	-31.4	-35.1	12.6	1.20e-04	0	44	0	370147328	22	5545
2026-01-27 09:27:03.54	112.64	28.13	-31.3	-35.0	12.7	1.05e-04	0	44	0	372244480	22	5491
2026-01-27 09:27:04.54	112.45	28.28	-31.3	-34.9	12.7	7.32e-05	0	44	0	374341632	22	5443
2026-01-27 09:27:05.55	112.25	28.43	-31.4	-35.0	12.6	8.01e-05	0	44	0	375390208	22	5498
2026-01-27 09:27:06.55	112.06	28.57	-31.4	-35.2	12.6	8.46e-05	0	43	0	377487360	22	5547
2026-01-27 09:27:07.56	111.86	28.72	-31.5	-35.1	12.3	1.55e-04	0	44	0	379584512	23	5400
2026-01-27 09:27:08.56	111.67	28.87	-31.8	-35.8	11.8	3.50e-04	0	44	0	381681664	23	5721
2026-01-27 09:27:09.57	111.47	29.02	-31.8	-35.9	11.7	4.23e-04	0	44	0	383778816	23	5787
2026-01-27 09:27:10.57	111.27	29.17	-31.8	-36.0	11.7	6.12e-04	0	44	0	384827392	23	5791
2026-01-27 09:27:11.57	111.07	29.32	-31.8	-35.7	11.8	4.17e-04	0	44	0	386924544	23	5691
2026-01-27 09:27:12.57	110.86	29.47	-31.9	-36.2	11.5	6.17e-04	0	44	0	389021696	23	5904
2026-01-27 09:27:13.57	110.66	29.62	-32.0	-36.4	11.4	9.35e-04	0	44	0	391118848	23	5979
2026-01-27 09:27:14.58	110.45	29.77	-32.1	-36.2	11.2	1.19e-03	0	44	0	392167424	24	5790
2026-01-27 09:27:15.58	110.24	29.92	-32.2	-36.7	10.8	2.42e-03	0	44	0	394264576	24	6050
2026-01-27 09:27:16.59	110.02	30.07	-32.2	-36.7	10.8	2.80e-03	0	44	0	396361728	24	6010
2026-01-27 09:27:17.59	109.81	30.22	-32.3	-37.0	10.6	2.99e-03	0	44	0	398458880	24	6174
2026-01-27 09:27:18.60	109.59	30.38	-32.4	-37.4	10.3	5.39e-03	0	44	0	400556032	24	6360
2026-01-27 09:27:19.60	109.37	30.53	-32.4	-37.5	10.3	5.20e-03	0	44	0	401604608	24	6428
2026-01-27 09:27:20.60	109.15	30.68	-32.6	-37.3	10.0	6.83e-03	0	44	0	403701760	25	6235
2026-01-27 09:27:21.59	108.94	30.83	-32.6	-37.3	10.0	6.82e-03	0	44	0	405798912	25	6241
2026-01-27 09:27:22.59	108.71	30.98	-32.6	-37.6	9.7	9.70e-03	0	44	0	407896064	25	6395
2026-01-27 09:27:23.59	108.49	31.14	-32.6	-37.5	9.8	1.23e-02	0	44	0	409993216	25	6338
2026-01-27 09:27:24.59	108.26	31.29	-32.6	-37.4	10.0	9.23e-03	0	44	0	411041792	25	6274
2026-01-27 09:27:25.59	108.03	31.44	-32.5	-37.2	10.1	9.28e-03	0	44	0	413138944	25	6162
2026-01-27 09:27:26.59	107.79	31.60	-32.4	-36.9	10.3	5.45e-03	0	44	0	415236096	25	6008
2026-01-27 09:27:27.59	107.56	31.75	-32.5	-37.1	10.2	6.67e-03	0	44	0	417333248	25	6148
2026-01-27 09:27:28.59	107.32	31.91	-32.5	-37.2	10.0	6.70e-03	0	44	0	419430400	25	6192
2026-01-27 09:27:29.60	107.08	32.06	-32.6	-37.6	9.8	9.13e-03	0	44	0	420478976	25	6364
2026-01-27 09:27:30.59	106.84	32.22	-32.7	-37.9	9.5	1.29e-02	0	44	0	422576128	25	6558
2026-01-27 09:27:31.59	106.60	32.37	-32.7	-37.7	9.7	1.39e-02	0	44	0	424673280	25	6415
2026-01-27 09:27:32.59	106.35	32.53	-32.7	-38.0	9.6	1.21e-02	0	44	0	426770432	25	6572
2026-01-27 09:27:33.59	106.10	32.68	-32.7	-38.0	9.5	1.53e-02	0	44	0	427819008	25	6599
2026-01-27 09:27:34.60	105.85	32.84	-32.7	-38.0	9.5	1.45e-02	0	44	0	429916160	25	6599
2026-01-27 09:27:35.61	105.59	33.00	-32.8	-38.4	9.3	1.46e-02	0	44	0	432013312	25	6801
2026-01-27 09:27:36.61	105.33	33.15	-32.8	-38.2	9.3	2.07e-02	0	44	0	434110464	25	6728
2026-01-27 09:27:37.62	105.07	33.31	-32.5	-37.1	10.2	9.25e-03	0	44	0	436207616	25	6122
2026-01-27 09:27:38.62	104.81	33.47	-32.4	-36.8	10.5	4.82e-03	0	44	0	437256192	25	5943
2026-01-27 09:27:39.63	104.54	33.63	-32.4	-36.6	10.6	3.76e-03	0	44	0	439353344	25	5879
2026-01-27 09:27:40.63	104.28	33.78	-32.3	-36.5	10.7	3.27e-03	0	44	0	441450496	25	5797
2026-01-27 09:27:41.63	104.01	33.94	-32.4	-36.8	10.5	3.51e-03	0	44	0	443547648	25	5962
2026-01-27 09:27:42.63	103.74	34.09	-32.3	-36.4	10.7	4.39e-03	0	44	0	445644800	25	5750
2026-01-27 09:27:43.64	103.46	34.25	-32.3	-36.3	10.9	2.52e-03	0	44	0	446693376	25	5693
2026-01-27 09:27:44.64	103.18	34.41	-32.3	-36.3	10.9	2.40e-03	0	44	0	448790528	25	5732
2026-01-27 09:27:45.63	102.91	34.57	-32.1	-35.7	11.3	1.96e-03	0	44	0	450887680	25	5432
2026-01-27 09:27:46.64	102.62	34.72	-31.9	-35.1	11.7	7.25e-04	0	44	0	452984832	25	5199
2026-01-27 09:27:47.65	102.33	34.88	-31.8	-34.8	12.0	4.26e-04	0	44	0	455081984	25	5065
2026-01-27 09:27:48.65	102.05	35.04	-31.8	-35.1	12.0	3.01e-04	0	44	0	456130560	24	5301
2026-01-27 09:27:49.66	101.75	35.20	-31.7	-35.0	12.1	2.84e-04	0	44	0	458227712	24	5263
2026-01-27 09:27:50.65	101.46	35.35	-31.8	-35.2	12.0	2.14e-04	0	44	0	460324864	24	5330
2026-01-27 09:27:51.65	101.16	35.51	-31.8	-35.1	12.1	3.42e-04	0	44	0	462422016	24	5280
2026-01-27 09:27:52.65	100.87	35.66	-31.6	-34.6	12.4	2.67e-04	0	44	0	464519168	24	5087
2026-01-27 09:27:53.65	100.56	35.82	-31.5	-34.3	12.7	1.17e-04	0	44	0	465567744	24	4982
2026-01-27 09:27:54.66	100.25	35.98	-31.4	-33.9	12.9	5.95e-05	0	44	0	467664896	24	4845
2026-01-27 09:27:55.66	99.95	36.13	-31.4	-34.5	12.8	3.28e-05	0	44	0	469762048	23	5172
2026-01-27 09:27:56.66	99.64	36.29	-31.3	-34.3	13.0	5.34e-05	0	44	0	471859200	23	5078
2026-01-27 09:27:57.67	99.32	36.45	-31.4	-34.5	13.0	3.66e-05	0	44	0	473956352	23	5136
2026-01-27 09:27:58.67	99.00	36.60	-31.4	-34.5	12.9	6.79e-05	0	44	0	475004928	23	5150
2026-01-27 09:27:59.67	98.68	36.76	-31.5	-34.7	12.7	5.11e-05	0	44	0	477102080	23	5247
2026-01-27 09:28:00.67	98.36	36.91	-31.5	-34.9	12.6	8.01e-05	0	44	0	479199232	23	5300
2026-01-27 09:28:01.67	98.03	37.07	-31.6	-35.1	12.5	9.30e-05	0	44	0	481296384	23	5405
2026-01-27 09:28:02.67	97.70	37.22	-31.7	-35.4	12.2	1.59e-04	0	44	0	482344960	23	5533
2026-01-27 09:28:03.68	97.37	37.37	-31.7	-35.4	12.2	1.75e-04	0	44	0	484442112	23	5536
2026-01-27 09:28:04.68	97.03	37.53	-31.7	-35.5	12.1	1.75e-04	0	44	0	486539264	23	5573
2026-01-27 09:28:05.69	96.69	37.68	-31.7	-35.5	12.2	2.80e-04	0	44	0	488636416	23	5549
2026-01-27 09:28:06.69	96.35	37.83	-31.7	-35.4	12.3	2.04e-04	0	44	0	490733568	23	5513
2026-01-27 09:28:07.69	96.00	37.99	-31.7	-35.5	12.2	2.49e-04	0	44	0	491782144	23	5573
2026-01-27 09:28:08.70	95.65	38.14	-31.9	-35.8	12.0	3.30e-04	0	44	0	493879296	23	5699
2026-01-27 09:28:09.71	95.29	38.29	-31.9	-35.9	11.9	3.81e-04	0	44	0	495976448	23	5715
2026-01-27 09:28:10.71	94.94	38.44	-31.9	-35.9	12.0	3.72e-04	0	44	0	498073600	23	5723
2026-01-27 09:28:11.71	94.58	38.59	-31.8	-35.8	12.0	3.23e-04	0	44	0	500170752	23	5664
2026-01-27 09:28:12.71	94.22	38.74	-31.6	-35.2	12.4	2.74e-04	0	44	0	501219328	23	5415
2026-01-27 09:28:13.71	93.85	38.89	-31.6	-35.2	12.4	1.11e-04	0	44	0	503316480	23	5438
2026-01-27 09:28:14.72	93.48	39.04	-31.9	-36.0	11.9	2.94e-04	0	44	0	505413632	23	5762
2026-01-27 09:28:15.72	93.11	39.18	-32.0	-36.3	11.7	4.78e-04	0	44	0	507510784	23	5889
2026-01-27 09:28:16.73	92.73	39.33	-31.9	-36.0	11.9	4.51e-04	0	44	0	509607936	23	5778
2026-01-27 09:28:17.73	92.35	39.47	-31.8	-35.7	12.0	2.59e-04	0	44	0	510656512	23	5649
2026-01-27 09:28:18.73	91.97	39.62	-31.8	-35.7	12.0	2.15e-04	0	44	0	512753664	23	5630
2026-01-27 09:28:19.74	91.58	39.76	-31.7	-35.4	12.3	2.68e-04	0	44	0	514850816	23	5506
2026-01-27 09:28:20.74	91.19	39.91	-31.8	-35.6	12.2	2.05e-04	0	44	0	516947968	23	5605
2026-01-27 09:28:21.75	90.79	40.05	-31.7	-35.4	12.3	2.71e-04	0	44	0	519045120	23	5527
2026-01-27 09:28:22.76	90.39	40.19	-31.6	-35.0	12.5	1.52e-04	0	44	0	520093696	23	5362
2026-01-27 09:28:23.76	90.00	40.33	-31.4	-34.5	12.9	7.32e-05	0	44	0	522190848	23	5135
2026-01-27 09:28:24.76	89.59	40.47	-31.4	-34.5	12.9	2.36e-05	0	44	0	524288000	23	5145
2026-01-27 09:28:25.76	89.19	40.61	-31.3	-34.1	13.1	4.88e-05	0	44	0	526385152	23	5005
2026-01-27 09:28:26.77	88.77	40.74	-31.1	-33.7	13.5	2.59e-05	0	44	0	528482304	23	4843
2026-01-27 09:28:27.77	88.36	40.88	-31.0	-33.5	13.6	5.30e-06	0	44	0	529530880	23	4782
2026-01-27 09:28:28.78	87.94	41.01	-30.8	-32.9	13.9	4.50e-06	0	44	0	531628032	23	4570
2026-01-27 09:28:29.78	87.52	41.15	-30.8	-33.3	14.0	0.00e+00	0	44	0	533725184	22	4814
2026-01-27 09:28:30.78	87.10	41.28	-30.7	-32.9	14.3	7.00e-07	0	44	0	535822336	22	4688
2026-01-27 09:28:31.79	86.66	41.41	-30.8	-33.3	14.1	3.00e-06	0	44	0	537919488	22	4804
2026-01-27 09:28:32.79	86.23	41.54	-30.7	-33.1	14.1	4.50e-06	0	44	0	538968064	22	4744
2026-01-27 09:28:33.80	85.80	41.67	-30.8	-33.4	14.0	1.50e-06	0	44	0	541065216	22	4861
2026-01-27 09:28:34.80	85.36	41.79	-30.8	-33.3	14.0	7.00e-07	0	44	0	543162368	22	4812
2026-01-27 09:28:35.80	84.92	41.92	-30.7	-33.1	14.2	3.00e-06	0	44	0	545259520	22	4729
2026-01-27 09:28:36.80	84.47	42.04	-30.7	-33.1	14.2	7.00e-07	0	44	0	546308096	22	4731
2026-01-27 09:28:37.80	84.03	42.16	-30.6	-32.8	14.3	1.50e-06	0	44	0	548405248	22	4657
2026-01-27 09:28:38.81	83.57	42.28	-30.7	-33.1	14.3	0.00e+00	0	44	0	550502400	22	4737
2026-01-27 09:28:39.82	83.11	42.40	-30.8	-33.3	14.1	1.50e-06	0	44	0	552599552	22	4806
2026-01-27 09:28:40.82	82.65	42.52	-30.9	-33.7	13.8	3.80e-06	0	44	0	554696704	22	4945
2026-01-27 09:28:41.82	82.19	42.63	-31.0	-33.9	13.7	6.80e-06	0	44	0	556793856	22	5004
2026-01-27 09:28:42.82	81.73	42.74	-31.1	-34.3	13.5	6.80e-06	0	44	0	557842432	22	5158
2026-01-27 09:28:43.83	81.26	42.86	-31.1	-34.2	13.5	9.90e-06	0	44	0	559939584	22	5112
2026-01-27 09:28:44.83	80.79	42.96	-31.1	-34.2	13.5	1.44e-05	0	44	0	562036736	22	5122
2026-01-27 09:28:45.83	80.31	43.07	-31.2	-34.5	13.3	1.52e-05	0	44	0	564133888	22	5243
2026-01-27 09:28:46.83	79.84	43.18	-31.0	-33.9	13.7	1.52e-05	0	44	0	565182464	22	5017
2026-01-27 09:28:47.83	79.36	43.28	-30.8	-33.4	14.1	1.50e-06	0	44	0	567279616	22	4854
2026-01-27 09:28:48.83	78.87	43.38	-30.8	-33.4	14.0	2.20e-06	0	44	0	569376768	22	4834
2026-01-27 09:28:49.83	78.39	43.48	-30.7	-33.1	14.2	2.20e-06	0	44	0	571473920	22	4754
2026-01-27 09:28:50.83	77.90	43.58	-30.7	-33.1	14.2	0.00e+00	0	44	0	573571072	22	4723
2026-01-27 09:28:51.84	77.40	43.67	-30.8	-33.4	14.0	1.50e-06	0	44	0	574619648	22	4863
2026-01-27 09:28:52.84	76.91	43.77	-30.7	-33.2	14.2	7.00e-07	0	44	0	576716800	22	4768
2026-01-27 09:28:53.85	76.40	43.86	-30.7	-33.1	14.3	2.20e-06	0	44	0	578813952	22	4724
2026-01-27 09:28:54.85	75.90	43.95	-30.9	-33.5	14.0	2.20e-06	0	44	0	580911104	22	4874
2026-01-27 09:28:55.86	75.39	44.03	-30.7	-33.2	14.2	2.20e-06	0	44	0	583008256	22	4767
2026-01-27 09:28:56.87	74.88	44.12	-30.7	-33.2	14.2	1.50e-06	0	44	0	584056832	22	4770
2026-01-27 09:28:57.87	74.37	44.20	-30.8	-33.2	14.2	3.00e-06	0	44	0	586153984	22	4774
2026-01-27 09:28:58.87	73.86	44.28	-31.0	-33.8	13.8	2.20e-06	0	44	0	588251136	22	4984
2026-01-27 09:28:59.87	73.35	44.36	-30.9	-33.5	14.0	9.10e-06	0	44	0	590348288	22	4882
2026-01-27 09:29:00.87	72.83	44.43	-31.0	-33.7	13.9	6.10e-06	0	44	0	592445440	22	4950
2026-01-27 09:29:01.86	72.32	44.50	-31.0	-33.8	13.7	2.20e-06	0	44	0	593494016	22	5001
2026-01-27 09:29:02.86	71.80	44.57	-31.3	-34.7	13.2	1.90e-05	0	44	0	595591168	22	5326
2026-01-27 09:29:03.87	71.27	44.64	-31.6	-35.1	12.6	3.05e-05	0	44	0	597688320	23	5366
2026-01-27 09:29:04.87	70.74	44.70	-31.5	-34.8	12.8	5.79e-05	0	44	0	599785472	23	5255
2026-01-27 09:29:05.87	70.22	44.76	-31.5	-34.9	12.8	5.41e-05	0	44	0	601882624	23	5286
2026-01-27 09:29:06.88	69.68	44.82	-31.5	-34.6	12.9	5.49e-05	0	44	0	602931200	23	5187
2026-01-27 09:29:07.88	69.15	44.88	-31.5	-34.8	12.8	5.49e-05	0	44	0	605028352	23	5237
2026-01-27 09:29:08.88	68.62	44.93	-31.7	-35.4	12.4	1.20e-04	0	44	0	607125504	23	5492
2026-01-27 09:29:09.88	68.08	44.98	-31.6	-35.1	12.6	1.17e-04	0	44	0	609222656	23	5371
2026-01-27 09:29:10.89	67.54	45.03	-31.7	-35.3	12.5	9.23e-05	0	44	0	610271232	23	5471
2026-01-27 09:29:11.89	67.00	45.08	-31.9	-35.9	12.1	2.31e-04	0	44	0	612368384	23	5699
2026-01-27 09:29:12.89	66.46	45.12	-31.9	-35.8	12.1	2.31e-04	0	44	0	614465536	23	5667
2026-01-27 09:29:13.89	65.92	45.16	-31.9	-36.0	12.0	3.33e-04	0	44	0	616562688	23	5774
2026-01-27 09:29:14.90	65.37	45.20	-31.8	-35.5	12.3	2.20e-04	0	44	0	618659840	23	5561
2026-01-27 09:29:15.90	64.83	45.23	-32.0	-35.7	11.9	3.53e-04	0	44	0	619708416	24	5514
2026-01-27 09:29:16.91	64.28	45.26	-31.8	-35.1	12.3	3.65e-04	0	44	0	621805568	24	5259
2026-01-27 09:29:17.91	63.73	45.29	-31.6	-34.6	12.6	1.68e-04	0	44	0	623902720	24	5073
2026-01-27 09:29:18.92	63.18	45.32	-31.4	-34.0	13.0	5.11e-05	0	44	0	625999872	24	4862
2026-01-27 09:29:19.93	62.63	45.34	-31.4	-33.9	13.1	3.58e-05	0	44	0	628097024	24	4814
2026-01-27 09:29:20.93	62.08	45.36	-31.5	-34.3	12.8	2.89e-05	0	44	0	629145600	24	4955
2026-01-27 09:29:21.93	61.53	45.38	-31.4	-34.1	13.0	3.43e-05	0	44	0	631242752	24	4874
2026-01-27 09:29:22.93	60.98	45.39	-31.4	-34.0	13.0	3.12e-05	0	44	0	633339904	24	4843
2026-01-27 09:29:23.94	60.43	45.40	-31.5	-34.2	12.9	5.26e-05	0	44	0	635437056	24	4910
2026-01-27 09:29:24.94	59.88	45.41	-31.5	-34.1	13.0	3.73e-05	0	44	0	637534208	24	4875
2026-01-27 09:29:25.95	59.32	45.42	-31.5	-34.2	12.9	4.95e-05	0	44	0	638582784	24	4935
2026-01-27 09:29:26.94	58.77	45.42	-31.5	-34.1	12.9	5.26e-05	0	44	0	640679936	24	4882
2026-01-27 09:29:27.95	58.22	45.42	-31.6	-34.5	12.7	5.49e-05	0	44	0	642777088	24	5011
2026-01-27 09:29:28.95	57.67	45.41	-31.7	-34.7	12.6	1.01e-04	0	44	0	644874240	24	5098
2026-01-27 09:29:29.96	57.11	45.41	-31.7	-34.7	12.5	7.70e-05	0	44	0	646971392	24	5107
2026-01-27 09:29:30.96	56.56	45.40	-31.9	-35.4	12.1	1.49e-04	0	44	0	648019968	24	5393
2026-01-27 09:29:31.95	56.02	45.38	-32.1	-35.9	11.7	3.90e-04	0	44	0	650117120	24	5578
2026-01-27 09:29:32.96	55.46	45.37	-32.0	-35.7	11.8	4.48e-04	0	44	0	652214272	24	5533
2026-01-27 09:29:33.96	54.92	45.35	-31.9	-35.5	12.1	3.15e-04	0	44	0	654311424	24	5429
2026-01-27 09:29:34.95	54.37	45.33	-32.0	-35.8	11.8	3.52e-04	0	44	0	655360000	24	5564
2026-01-27 09:29:35.95	53.83	45.30	-32.0	-35.8	11.8	4.36e-04	0	44	0	657457152	24	5576
2026-01-27 09:29:36.96	53.28	45.28	-31.9	-35.4	12.1	5.23e-04	0	44	0	659554304	24	5401
2026-01-27 09:29:37.96	52.73	45.25	-32.0	-35.7	11.9	3.56e-04	0	44	0	661651456	24	5511
2026-01-27 09:29:38.96	52.19	45.21	-32.3	-36.8	11.1	1.04e-03	0	44	0	663748608	24	5993
2026-01-27 09:29:39.95	51.65	45.18	-32.5	-36.8	10.6	2.68e-03	0	44	0	664797184	25	5930
2026-01-27 09:29:40.96	51.10	45.14	-32.8	-37.8	10.0	5.29e-03	0	44	0	666894336	25	6390
2026-01-27 09:29:41.96	50.56	45.10	-32.5	-36.8	10.8	5.13e-03	0	44	0	668991488	25	5879
2026-01-27 09:29:42.97	50.02	45.06	-32.4	-36.4	11.1	1.80e-03	0	44	0	671088640	25	5707
2026-01-27 09:29:43.97	49.48	45.01	-32.5	-36.8	10.7	1.95e-03	0	44	0	673185792	25	5895
2026-01-27 09:29:44.97	48.95	44.96	-32.4	-36.6	10.9	2.89e-03	0	44	0	674234368	25	5808
2026-01-27 09:29:45.98	48.41	44.91	-32.5	-36.9	10.6	2.92e-03	0	44	0	676331520	25	5941
2026-01-27 09:29:46.98	47.88	44.85	-32.6	-37.3	10.4	4.30e-03	0	44	0	678428672	25	6133
2026-01-27 09:29:47.98	47.35	44.79	-32.5	-36.9	10.7	3.75e-03	0	44	0	680525824	25	5934
2026-01-27 09:29:48.99	46.81	44.73	-32.3	-36.1	11.2	1.95e-03	0	44	0	682622976	25	5585
2026-01-27 09:29:49.99	46.29	44.67	-32.2	-35.7	11.6	8.31e-04	0	44	0	683671552	25	5398
2026-01-27 09:29:50.99	45.76	44.60	-32.1	-35.4	11.8	4.42e-04	0	44	0	685768704	25	5264
2026-01-27 09:29:51.99	45.24	44.54	-32.2	-35.9	11.4	6.58e-04	0	44	0	687865856	25	5504
2026-01-27 09:29:52.99	44.72	44.47	-32.2	-35.7	11.5	8.06e-04	0	44	0	689963008	25	5412
2026-01-27 09:29:54.00	44.20	44.39	-31.9	-35.0	12.0	4.78e-04	0	44	0	692060160	25	5114
2026-01-27 09:29:55.01	43.68	44.32	-31.7	-34.8	12.5	2.23e-04	0	44	0	693108736	24	5152
2026-01-27 09:29:56.00	43.17	44.24	-31.7	-34.7	12.6	9.61e-05	0	44	0	695205888	24	5091
2026-01-27 09:29:57.00	42.66	44.16	-31.7	-34.8	12.5	1.24e-04	0	44	0	697303040	24	5148
2026-01-27 09:29:58.01	42.15	44.08	-31.5	-34.2	12.9	9.23e-05	0	44	0	699400192	24	4923
2026-01-27 09:29:59.01	41.65	43.99	-31.3	-34.1	13.2	1.60e-05	0	44	0	700448768	23	4988
2026-01-27 09:30:00.01	41.15	43.90	-31.3	-34.1	13.3	1.90e-05	0	44	0	702545920	23	4979
2026-01-27 09:30:01.00	40.65	43.82	-31.1	-33.7	13.6	1.06e-05	0	44	0	704643072	23	4824
2026-01-27 09:30:02.01	40.15	43.72	-31.0	-33.4	13.7	6.10e-06	0	44	0	706740224	23	4745
2026-01-27 09:30:03.02	39.66	43.63	-31.1	-33.7	13.5	6.80e-06	0	43	0	708837376	23	4828
2026-01-27 09:30:04.02	39.17	43.53	-30.9	-33.0	14.0	6.10e-06	0	44	0	709885952	23	4592
2026-01-27 09:30:05.03	38.67	43.43	-30.7	-33.1	14.2	2.20e-06	0	44	0	711983104	22	4741
2026-01-27 09:30:06.03	38.19	43.33	-30.7	-33.1	14.2	2.20e-06	0	44	0	714080256	22	4743
2026-01-27 09:30:07.04	37.71	43.23	-30.9	-33.6	13.9	2.20e-06	0	44	0	716177408	22	4919
2026-01-27 09:30:08.04	37.23	43.13	-30.7	-33.1	14.3	3.80e-06	0	44	0	718274560	22	4731
2026-01-27 09:30:09.05	36.75	43.02	-30.4	-32.4	14.7	0.00e+00	0	44	0	719323136	22	4498
2026-01-27 09:30:10.06	36.27	42.91	-30.2	-32.3	15.1	0.00e+00	0	44	0	721420288	21	4584
2026-01-27 09:30:11.06	35.81	42.80	-30.2	-32.3	15.0	0.00e+00	0	44	0	723517440	21	4581
2026-01-27 09:30:12.06	35.34	42.69	-30.0	-31.8	15.3	0.00e+00	0	44	0	725614592	21	4429
2026-01-27 09:30:13.06	34.88	42.57	-29.8	-31.7	15.7	0.00e+00	0	44	0	727711744	20	4507
2026-01-27 09:30:14.07	34.42	42.46	-29.6	-31.3	15.9	0.00e+00	0	44	0	728760320	20	4372
2026-01-27 09:30:15.08	33.96	42.34	-29.5	-31.0	16.1	0.00e+00	0	44	0	730857472	20	4284
2026-01-27 09:30:16.08	33.51	42.22	-29.6	-31.2	16.0	0.00e+00	0	44	0	732954624	20	4346
2026-01-27 09:30:17.08	33.06	42.10	-29.8	-31.7	15.7	0.00e+00	0	44	0	735051776	20	4500
2026-01-27 09:30:18.09	32.61	41.98	-29.5	-31.0	16.1	0.00e+00	0	44	0	737148928	20	4300
2026-01-27 09:30:19.10	32.16	41.85	-29.4	-30.9	16.1	0.00e+00	0	44	0	738197504	20	4274
2026-01-27 09:30:20.11	31.72	41.73	-29.5	-31.2	15.9	0.00e+00	0	44	0	740294656	20	4348
2026-01-27 09:30:21.11	31.29	41.60	-29.7	-31.5	15.8	7.00e-07	0	44	0	742391808	20	4439
2026-01-27 09:30:22.11	30.86	41.47	-29.5	-31.1	16.0	0.00e+00	0	44	0	744488960	20	4312
2026-01-27 09:30:23.11	30.43	41.35	-29.4	-30.8	16.1	0.00e+00	0	44	0	746586112	20	4244
2026-01-27 09:30:24.11	30.00	41.22	-29.6	-31.2	15.9	0.00e+00	0	44	0	747634688	20	4359
2026-01-27 09:30:25.11	29.58	41.08	-29.8	-31.7	15.6	0.00e+00	0	44	0	749731840	20	4521
2026-01-27 09:30:26.12	29.16	40.95	-30.1	-32.5	15.2	0.00e+00	0	44	0	751828992	20	4774
2026-01-27 09:30:27.12	28.75	40.82	-29.7	-31.5	15.7	0.00e+00	0	44	0	753926144	20	4451
2026-01-27 09:30:28.13	28.33	40.68	-29.4	-30.9	16.1	0.00e+00	0	44	0	756023296	20	4272
2026-01-27 09:30:29.14	27.92	40.54	-29.3	-31.0	16.4	0.00e+00	0	44	0	757071872	19	4394
2026-01-27 09:30:30.14	27.52	40.40	-29.3	-31.1	16.3	0.00e+00	0	44	0	759169024	19	4415
2026-01-27 09:30:31.15	27.12	40.26	-29.2	-31.0	16.4	0.00e+00	0	44	0	761266176	19	4380
2026-01-27 09:30:32.15	26.72	40.12	-29.5	-31.5	16.1	0.00e+00	0	44	0	763363328	19	4561
2026-01-27 09:30:33.16	26.32	39.98	-29.7	-32.0	15.8	0.00e+00	0	44	0	765460480	19	4697
2026-01-27 09:30:34.17	25.93	39.84	-29.9	-32.5	15.5	0.00e+00	0	44	0	766509056	19	4858
2026-01-27 09:30:35.16	25.55	39.70	-29.7	-32.1	15.7	0.00e+00	0	44	0	768606208	19	4749
2026-01-27 09:30:36.17	25.16	39.55	-29.8	-32.2	15.7	0.00e+00	0	44	0	770703360	19	4768
2026-01-27 09:30:37.18	24.78	39.41	-29.9	-32.5	15.5	0.00e+00	0	44	0	772800512	19	4863
2026-01-27 09:30:38.18	24.40	39.26	-30.1	-32.6	15.0	0.00e+00	0	44	0	774897664	20	4801
2026-01-27 09:30:39.18	24.03	39.12	-30.1	-32.5	15.1	7.00e-07	0	44	0	775946240	20	4784
2026-01-27 09:30:40.19	23.66	38.97	-30.1	-32.6	15.0	0.00e+00	0	44	0	778043392	20	4794
2026-01-27 09:30:41.19	23.29	38.82	-30.2	-32.9	14.8	0.00e+00	0	44	0	780140544	20	4906
2026-01-27 09:30:42.20	22.93	38.67	-30.3	-33.0	14.8	0.00e+00	0	44	0	782237696	20	4953
2026-01-27 09:30:43.20	22.57	38.52	-30.5	-33.5	14.4	1.50e-06	0	44	0	783286272	20	5130
2026-01-27 09:30:44.19	22.22	38.38	-30.5	-33.5	14.4	7.00e-07	0	44	0	785383424	20	5125
2026-01-27 09:30:45.20	21.86	38.23	-30.7	-33.7	14.0	3.00e-06	0	44	0	787480576	21	5063
2026-01-27 09:30:46.20	21.51	38.07	-30.7	-33.6	14.0	3.00e-06	0	44	0	789577728	21	5046
2026-01-27 09:30:47.20	21.17	37.92	-30.9	-34.2	13.6	3.00e-06	0	44	0	791674880	21	5265
2026-01-27 09:30:48.20	20.82	37.77	-30.6	-33.4	14.3	3.00e-06	0	44	0	792723456	21	4953
2026-01-27 09:30:49.21	20.48	37.62	-30.3	-32.7	14.7	7.00e-07	0	44	0	794820608	21	4715
2026-01-27 09:30:50.21	20.15	37.47	-30.2	-32.3	14.9	7.00e-07	0	44	0	796917760	21	4597
2026-01-27 09:30:51.21	19.81	37.31	-30.3	-32.5	14.8	7.00e-07	0	44	0	799014912	21	4650
2026-01-27 09:30:52.21	19.48	37.16	-30.3	-32.7	14.6	0.00e+00	0	44	0	801112064	21	4730
2026-01-27 09:30:53.22	19.15	37.01	-30.5	-33.1	14.4	7.00e-07	0	44	0	802160640	21	4842
2026-01-27 09:30:54.22	18.83	36.85	-30.6	-33.3	14.3	7.00e-07	0	44	0	804257792	21	4929
2026-01-27 09:30:55.23	18.51	36.70	-30.8	-34.0	13.8	1.50e-06	0	44	0	806354944	21	5168
2026-01-27 09:30:56.23	18.19	36.54	-30.9	-34.1	13.7	3.80e-06	0	44	0	808452096	21	5237
2026-01-27 09:30:57.23	17.87	36.39	-31.0	-34.1	13.4	1.75e-05	0	44	0	810549248	22	5100
2026-01-27 09:30:58.23	17.56	36.23	-31.1	-34.1	13.4	1.75e-05	0	44	0	811597824	22	5124
2026-01-27 09:30:59.23	17.25	36.08	-31.2	-34.6	13.1	1.90e-05	0	44	0	813694976	22	5307
2026-01-27 09:31:00.24	16.95	35.92	-31.3	-34.9	12.9	2.89e-05	0	44	0	815792128	22	5412
2026-01-27 09:31:01.24	16.64	35.77	-31.4	-35.0	12.8	4.95e-05	0	44	0	817889280	22	5475
2026-01-27 09:31:02.23	16.35	35.61	-31.5	-34.9	12.6	7.17e-05	0	44	0	819986432	23	5298
2026-01-27 09:31:03.24	16.05	35.45	-31.5	-34.8	12.6	8.62e-05	0	44	0	821035008	23	5295
2026-01-27 09:31:04.24	15.75	35.30	-31.6	-35.2	12.4	1.49e-04	0	44	0	823132160	23	5435
2026-01-27 09:31:05.25	15.46	35.14	-31.9	-36.1	11.7	3.36e-04	0	44	0	825229312	23	5830
2026-01-27 09:31:06.25	15.17	34.98	-32.1	-36.3	11.1	8.54e-04	0	44	0	827326464	24	5836
2026-01-27 09:31:07.25	14.89	34.83	-32.1	-36.2	11.2	1.31e-03	0	44	0	828375040	24	5792
2026-01-27 09:31:08.26	14.60	34.67	-32.2	-36.5	11.0	1.61e-03	0	44	0	830472192	24	5908
2026-01-27 09:31:09.26	14.32	34.51	-32.1	-36.2	11.2	1.56e-03	0	44	0	832569344	24	5790
2026-01-27 09:31:10.27	14.04	34.36	-32.1	-36.2	11.3	1.33e-03	0	44	0	834666496	24	5765
2026-01-27 09:31:11.27	13.77	34.20	-32.3	-36.8	10.8	2.27e-03	0	44	0	836763648	24	6084
2026-01-27 09:31:12.28	13.49	34.04	-32.3	-37.0	10.6	3.21e-03	0	44	0	838860800	24	6163
2026-01-27 09:31:13.29	13.22	33.89	-32.5	-37.1	10.2	5.69e-03	0	44	0	839909376	25	6102
2026-01-27 09:31:14.29	12.95	33.73	-32.6	-37.3	10.0	6.43e-03	0	44	0	842006528	25	6236
2026-01-27 09:31:15.29	12.69	33.57	-32.7	-37.7	9.7	9.53e-03	0	44	0	844103680	25	6454
2026-01-27 09:31:16.30	12.42	33.42	-32.7	-37.9	9.6	1.21e-02	0	44	0	846200832	25	6537
2026-01-27 09:31:17.30	12.17	33.26	-32.8	-38.1	9.4	1.61e-02	0	44	0	847249408	25	6643
2026-01-27 09:31:18.31	11.91	33.10	-32.6	-37.5	9.9	1.19e-02	0	44	0	849346560	25	6325
2026-01-27 09:31:19.31	11.65	32.95	-32.6	-37.6	9.8	1.02e-02	0	44	0	851443712	25	6383
2026-01-27 09:31:20.31	11.40	32.79	-32.5	-37.3	10.0	1.05e-02	0	44	0	853540864	25	6199
2026-01-27 09:31:21.31	11.15	32.64	-32.4	-36.8	10.3	5.82e-03	0	44	0	855638016	25	5964
2026-01-27 09:31:22.31	10.90	32.48	-32.3	-36.5	10.6	3.91e-03	0	44	0	856686592	25	5810
2026-01-27 09:31:23.32	10.66	32.33	-32.3	-36.5	10.6	3.26e-03	0	44	0	858783744	25	5827
2026-01-27 09:31:24.32	10.42	32.17	-32.2	-36.2	10.8	2.87e-03	0	44	0	860880896	25	5698
2026-01-27 09:31:25.32	10.18	32.02	-32.3	-36.4	10.6	3.19e-03	0	44	0	862978048	25	5786
2026-01-27 09:31:26.32	9.94	31.87	-32.2	-36.2	10.8	3.46e-03	0	44	0	865075200	25	5691
2026-01-27 09:31:27.33	9.70	31.71	-32.2	-36.1	10.9	2.51e-03	0	44	0	866123776	25	5656
2026-01-27 09:31:28.33	9.47	31.56	-32.1	-35.8	11.1	2.19e-03	0	44	0	868220928	25	5518
2026-01-27 09:31:29.34	9.24	31.40	-32.2	-36.2	10.9	1.97e-03	0	44	0	870318080	25	5670
2026-01-27 09:31:30.34	9.01	31.25	-32.2	-36.2	10.7	3.38e-03	0	44	0	872415232	25	5707
2026-01-27 09:31:31.34	8.78	31.10	-32.0	-35.4	11.3	1.42e-03	0	44	0	874512384	25	5340
2026-01-27 09:31:32.34	8.56	30.95	-31.7	-35.1	11.9	8.37e-04	0	44	0	875560960	24	5313
2026-01-27 09:31:33.35	8.33	30.79	-31.6	-34.6	12.2	3.17e-04	0	44	0	877658112	24	5137
2026-01-27 09:31:34.35	8.11	30.64	-31.5	-34.6	12.2	2.66e-04	0	44	0	879755264	24	5137
2026-01-27 09:31:35.36	7.89	30.49	-31.6	-34.7	12.2	2.24e-04	0	44	0	881852416	24	5149
2026-01-27 09:31:36.36	7.68	30.34	-31.5	-34.6	12.2	2.10e-04	0	44	0	883949568	24	5108
2026-01-27 09:31:37.36	7.46	30.19	-31.6	-34.7	12.2	1.98e-04	0	44	0	884998144	24	5158
2026-01-27 09:31:38.37	7.25	30.03	-31.6	-34.8	12.1	3.17e-04	0	44	0	887095296	24	5211
2026-01-27 09:31:39.37	7.04	29.88	-31.6	-34.9	12.0	2.37e-04	0	44	0	889192448	24	5229
2026-01-27 09:31:40.37	6.83	29.73	-31.6	-34.9	12.0	3.97e-04	0	44	0	891289600	24	5252
2026-01-27 09:31:41.37	6.63	29.59	-31.7	-35.0	11.9	3.54e-04	0	44	0	893386752	24	5289
2026-01-27 09:31:42.38	6.42	29.43	-31.8	-35.3	11.6	5.85e-04	0	44	0	894435328	24	5416
2026-01-27 09:31:43.39	6.22	29.28	-31.7	-35.2	11.8	5.30e-04	0	44	0	896532480	24	5373
2026-01-27 09:31:44.38	6.02	29.14	-31.8	-35.3	11.7	6.05e-04	0	44	0	898629632	24	5423
2026-01-27 09:31:45.39	5.82	28.99	-31.7	-35.2	11.8	4.42e-04	0	44	0	900726784	24	5359
2026-01-27 09:31:46.40	5.62	28.84	-31.7	-35.1	11.9	4.49e-04	0	44	0	902823936	24	5318
2026-01-27 09:31:47.40	5.43	28.69	-31.5	-34.6	12.1	2.91e-04	0	44	0	903872512	24	5147
2026-01-27 09:31:48.40	5.24	28.55	-31.6	-34.7	12.1	2.64e-04	0	44	0	905969664	24	5152
2026-01-27 09:31:49.40	5.05	28.40	-31.6	-35.0	11.9	2.95e-04	0	44	0	908066816	24	5269
2026-01-27 09:31:50.41	4.85	28.25	-31.7	-35.1	11.9	3.94e-04	0	44	0	910163968	24	5316
2026-01-27 09:31:51.40	4.67	28.11	-31.6	-34.9	11.9	3.62e-04	0	44	0	911212544	24	5269
2026-01-27 09:31:52.41	4.48	27.96	-31.7	-35.2	11.7	4.22e-04	0	44	0	913309696	24	5365
2026-01-27 09:31:53.41	4.30	27.82	-31.7	-35.2	11.8	6.74e-04	0	44	0	915406848	24	5362
2026-01-27 09:31:54.42	4.11	27.67	-31.6	-34.8	12.0	3.58e-04	0	44	0	917504000	24	5228
2026-01-27 09:31:55.42	3.93	27.53	-31.7	-35.0	11.9	3.63e-04	0	44	0	919601152	24	5284
2026-01-27 09:31:56.42	3.75	27.39	-31.7	-35.2	11.7	4.64e-04	0	44	0	920649728	24	5379
2026-01-27 09:31:57.42	3.58	27.24	-31.8	-35.4	11.6	6.23e-04	0	44	0	922746880	24	5455
2026-01-27 09:31:58.43	3.40	27.10	-31.7	-35.2	11.7	6.77e-04	0	44	0	924844032	24	5373
2026-01-27 09:31:59.43	3.23	26.96	-31.7	-35.1	11.7	5.98e-04	0	44	0	926941184	24	5361
2026-01-27 09:32:00.42	3.06	26.82	-31.7	-35.1	11.8	4.89e-04	0	44	0	929038336	24	5339
2026-01-27 09:32:01.41	2.89	26.68	-31.6	-34.8	12.0	4.32e-04	0	44	0	930086912	24	5232
2026-01-27 09:32:02.41	2.72	26.54	-31.4	-34.3	12.3	2.43e-04	0	44	0	932184064	24	5022
2026-01-27 09:32:03.41	2.55	26.40	-31.3	-34.0	12.5	1.39e-04	0	44	0	934281216	24	4900
2026-01-27 09:32:04.42	2.38	26.26	-31.2	-34.1	12.7	6.79e-05	0	44	0	936378368	23	5054
2026-01-27 09:32:05.43	2.21	26.12	-31.3	-34.5	12.5	1.08e-04	0	44	0	938475520	23	5187
2026-01-27 09:32:06.42	2.05	25.98	-31.3	-34.5	12.6	1.62e-04	0	44	0	939524096	23	5192
2026-01-27 09:32:07.43	1.89	25.84	-31.2	-34.1	12.8	8.85e-05	0	44	0	941621248	23	5061
2026-01-27 09:32:08.43	1.73	25.70	-31.1	-34.0	12.8	6.33e-05	0	44	0	943718400	23	5023
2026-01-27 09:32:09.43	1.57	25.57	-31.2	-34.2	12.7	5.41e-05	0	44	0	945815552	23	5075
2026-01-27 09:32:10.44	1.41	25.43	-31.2	-34.2	12.7	7.62e-05	0	44	0	947912704	23	5090
2026-01-27 09:32:11.44	1.25	25.29	-31.2	-34.2	12.7	6.17e-05	0	44	0	948961280	23	5068
2026-01-27 09:32:12.45	1.10	25.15	-31.2	-34.1	12.7	6.86e-05	0	44	0	951058432	23	5036
2026-01-27 09:32:13.45	0.94	25.02	-31.2	-34.4	12.5	1.07e-04	0	44	0	953155584	23	5152
2026-01-27 09:32:14.45	0.79	24.88	-31.3	-34.5	12.5	9.91e-05	0	44	0	955252736	23	5193
2026-01-27 09:32:15.46	0.64	24.75	-31.2	-34.3	12.5	1.23e-04	0	44	0	956301312	23	5143
2026-01-27 09:32:16.47	0.49	24.61	-31.4	-34.7	12.3	1.46e-04	0	44	0	958398464	23	5295
2026-01-27 09:32:17.46	0.34	24.48	-31.3	-34.5	12.4	2.10e-04	0	44	0	960495616	23	5226
2026-01-27 09:32:18.47	0.19	24.35	-31.2	-34.2	12.6	9.84e-05	0	44	0	962592768	23	5098
2026-01-27 09:32:19.47	0.05	24.21	-31.2	-34.2	12.6	8.85e-05	0	44	0	964689920	23	5097
2026-01-27 09:32:20.48	359.90	24.08	-31.2	-34.2	12.6	1.30e-04	0	44	0	965738496	23	5102
2026-01-27 09:32:21.48	359.76	23.95	-31.1	-34.0	12.7	7.40e-05	0	44	0	967835648	23	5005
2026-01-27 09:32:22.49	359.61	23.82	-31.1	-34.1	12.7	5.26e-05	0	44	0	969932800	23	5046
2026-01-27 09:32:23.50	359.47	23.68	-31.1	-34.0	12.8	7.47e-05	0	44	0	972029952	23	5015
2026-01-27 09:32:24.50	359.33	23.55	-31.1	-33.9	12.9	7.40e-05	0	44	0	974127104	23	4964
2026-01-27 09:32:25.50	359.19	23.42	-30.9	-33.4	13.2	2.36e-05	0	44	0	975175680	23	4804
2026-01-27 09:32:26.50	359.06	23.29	-30.8	-33.2	13.3	2.05e-05	0	44	0	977272832	23	4725
2026-01-27 09:32:27.51	358.92	23.16	-30.8	-33.0	13.4	2.13e-05	0	44	0	979369984	23	4670
2026-01-27 09:32:28.51	358.79	23.04	-30.8	-33.5	13.4	1.67e-05	0	44	0	981467136	22	4931
2026-01-27 09:32:29.51	358.65	22.91	-30.8	-33.5	13.4	1.29e-05	0	44	0	983564288	22	4948
2026-01-27 09:32:30.51	358.52	22.78	-30.9	-33.8	13.3	1.52e-05	0	44	0	984612864	22	5035
2026-01-27 09:32:31.52	358.39	22.65	-30.9	-34.0	13.1	3.43e-05	0	44	0	986710016	22	5115
2026-01-27 09:32:32.53	358.25	22.52	-31.0	-34.1	13.1	2.28e-05	0	44	0	988807168	22	5143
2026-01-27 09:32:33.54	358.12	22.40	-31.0	-34.1	13.1	3.89e-05	0	44	0	990904320	22	5141
2026-01-27 09:32:34.54	358.00	22.27	-30.9	-33.8	13.2	2.36e-05	0	44	0	993001472	22	5064
2026-01-27 09:32:35.54	357.87	22.15	-30.8	-33.7	13.3	2.21e-05	0	44	0	994050048	22	5019
2026-01-27 09:32:36.54	357.74	22.02	-30.8	-33.6	13.4	1.22e-05	0	44	0	996147200	22	4978
2026-01-27 09:32:37.54	357.62	21.90	-30.9	-33.8	13.2	2.67e-05	0	44	0	998244352	22	5066
2026-01-27 09:32:38.55	357.49	21.77	-30.8	-33.6	13.4	1.44e-05	0	44	0	1000341504	22	4977
2026-01-27 09:32:39.55	357.37	21.65	-30.8	-33.6	13.4	1.52e-05	0	44	0	1002438656	22	4974
2026-01-27 09:32:40.56	357.25	21.53	-30.8	-33.7	13.3	2.28e-05	0	44	0	1003487232	22	5017
2026-01-27 09:32:41.56	357.12	21.40	-30.8	-33.7	13.3	1.22e-05	0	44	0	1005584384	22	5024
2026-01-27 09:32:42.56	357.00	21.28	-30.9	-33.9	13.1	2.05e-05	0	44	0	1007681536	22	5101
2026-01-27 09:32:43.56	356.89	21.16	-30.9	-34.0	13.0	3.96e-05	0	44	0	1009778688	22	5135
2026-01-27 09:32:44.56	356.77	21.04	-30.9	-34.0	13.1	2.28e-05	0	44	0	1010827264	22	5120
2026-01-27 09:32:45.56	356.65	20.92	-31.0	-34.2	13.0	5.56e-05	0	44	0	1012924416	22	5196
2026-01-27 09:32:46.57	356.53	20.80	-31.0	-34.3	12.9	4.27e-05	0	44	0	1015021568	22	5235
2026-01-27 09:32:47.58	356.42	20.68	-31.1	-34.4	12.8	6.94e-05	0	44	0	1017118720	22	5288
2026-01-27 09:32:48.58	356.30	20.56	-31.0	-34.3	12.9	3.73e-05	0	44	0	1019215872	22	5220
2026-01-27 09:32:49.59	356.19	20.44	-31.0	-34.2	12.9	3.73e-05	0	44	0	1021313024	22	5210
2026-01-27 09:32:50.59	356.07	20.32	-31.1	-34.5	12.7	5.11e-05	0	44	0	1022361600	22	5336
2026-01-27 09:32:51.59	355.96	20.20	-31.2	-34.9	12.5	7.40e-05	0	44	0	1024458752	22	5463
2026-01-27 09:32:52.60	355.85	20.08	-31.1	-34.6	12.7	1.17e-04	0	44	0	1026555904	22	5345
2026-01-27 09:32:53.60	355.74	19.97	-31.1	-34.4	12.8	6.40e-05	0	44	0	1028653056	22	5292
2026-01-27 09:32:54.60	355.63	19.85	-31.0	-34.1	13.0	4.80e-05	0	44	0	1029701632	22	5159
2026-01-27 09:32:55.60	355.52	19.73	-30.9	-34.0	13.0	4.27e-05	0	44	0	1031798784	22	5133
2026-01-27 09:32:56.60	355.42	19.62	-30.9	-34.0	13.0	4.27e-05	0	44	0	1033895936	22	5138
2026-01-27 09:32:57.60	355.31	19.50	-30.9	-34.0	13.0	2.51e-05	0	44	0	1035993088	22	5134
2026-01-27 09:32:58.60	355.20	19.39	-31.1	-34.4	12.7	5.26e-05	0	44	0	1038090240	22	5299
2026-01-27 09:32:59.60	355.10	19.27	-31.0	-34.3	12.8	6.79e-05	0	44	0	1039138816	22	5246
2026-01-27 09:33:00.61	354.99	19.16	-30.9	-34.0	13.0	5.03e-05	0	44	0	1041235968	22	5133
2026-01-27 09:33:01.61	354.89	19.04	-30.9	-33.9	13.0	4.34e-05	0	44	0	1043333120	22	5088
2026-01-27 09:33:02.61	354.79	18.93	-30.9	-34.0	13.0	4.11e-05	0	44	0	1045430272	22	5139
2026-01-27 09:33:03.62	354.69	18.82	-31.0	-34.3	12.9	5.56e-05	0	44	0	1047527424	22	5237
2026-01-27 09:33:04.63	354.58	18.70	-30.9	-34.0	13.0	4.73e-05	0	44	0	1048576000	22	5137
2026-01-27 09:33:05.63	354.48	18.59	-31.0	-34.2	12.9	4.88e-05	0	44	0	1050673152	22	5210
2026-01-27 09:33:06.63	354.38	18.48	-30.9	-34.1	12.9	4.65e-05	0	44	0	1052770304	22	5176
2026-01-27 09:33:07.63	354.29	18.37	-30.9	-34.1	12.9	4.80e-05	0	44	0	1054867456	22	5168
2026-01-27 09:33:08.63	354.19	18.26	-31.0	-34.1	12.9	5.56e-05	0	44	0	1056964608	22	5186
2026-01-27 09:33:09.63	354.09	18.15	-31.0	-34.4	12.7	6.63e-05	0	44	0	1058013184	22	5274
2026-01-27 09:33:10.63	353.99	18.04	-31.1	-34.4	12.7	5.95e-05	0	44	0	1060110336	22	5314
2026-01-27 09:33:11.64	353.90	17.93	-31.1	-34.4	12.7	9.46e-05	0	44	0	1062207488	22	5310
2026-01-27 09:33:12.64	353.80	17.82	-31.1	-34.7	12.5	8.23e-05	0	44	0	1064304640	22	5419
2026-01-27 09:33:13.64	353.71	17.71	-31.1	-34.7	12.5	1.17e-04	0	44	0	1066401792	22	5402
2026-01-27 09:33:14.65	353.61	17.60	-31.2	-34.9	12.4	1.16e-04	0	44	0	1067450368	22	5490
2026-01-27 09:33:15.65	353.52	17.49	-31.3	-35.1	12.2	2.32e-04	0	44	0	1069547520	22	5578
2026-01-27 09:33:16.66	353.43	17.38	-31.3	-35.2	12.1	2.08e-04	0	44	0	1071644672	22	5629
2026-01-27 09:33:17.66	353.34	17.28	-31.4	-35.4	12.0	3.38e-04	0	44	0	1073741824	22	5727
2026-01-27 09:33:18.66	353.24	17.17	-31.4	-35.4	11.9	3.47e-04	0	44	0	1074790400	22	5749
2026-01-27 09:33:19.67	353.15	17.06	-31.5	-35.3	11.7	5.48e-04	0	44	0	1076887552	23	5578
2026-01-27 09:33:20.67	353.06	16.96	-31.6	-35.7	11.4	8.39e-04	0	44	0	1078984704	23	5759
2026-01-27 09:33:21.67	352.98	16.85	-31.6	-35.6	11.4	1.26e-03	0	44	0	1081081856	23	5736
2026-01-27 09:33:22.68	352.89	16.75	-31.5	-35.2	11.7	7.19e-04	0	44	0	1083179008	23	5543
2026-01-27 09:33:23.67	352.80	16.64	-31.4	-34.9	11.9	4.38e-04	0	44	0	1084227584	23	5394
2026-01-27 09:33:24.68	352.71	16.54	-31.4	-35.0	11.8	4.71e-04	0	44	0	1086324736	23	5459
2026-01-27 09:33:25.67	352.63	16.43	-31.4	-34.9	11.9	4.18e-04	0	44	0	1088421888	23	5410
2026-01-27 09:33:26.67	352.54	16.33	-31.5	-35.2	11.7	5.07e-04	0	44	0	1090519040	23	5556
2026-01-27 09:33:27.68	352.45	16.23	-31.4	-35.2	11.7	7.42e-04	0	44	0	1092616192	23	5531
2026-01-27 09:33:28.68	352.37	16.12	-31.3	-34.6	12.1	4.09e-04	0	44	0	1093664768	23	5310
2026-01-27 09:33:29.69	352.29	16.02	-31.2	-34.3	12.3	1.91e-04	0	44	0	1095761920	23	5165
2026-01-27 09:33:30.69	352.20	15.92	-31.1	-34.2	12.4	1.61e-04	0	44	0	1097859072	23	5128
2026-01-27 09:33:31.70	352.12	15.81	-31.1	-34.1	12.5	1.50e-04	0	44	0	1099956224	23	5084
2026-01-27 09:33:32.69	352.04	15.71	-31.1	-34.0	12.5	1.14e-04	0	44	0	1102053376	23	5066
2026-01-27 09:33:33.70	351.96	15.61	-31.2	-34.4	12.2	1.42e-04	0	44	0	1103101952	23	5206
2026-01-27 09:33:34.71	351.87	15.51	-31.0	-34.0	12.4	2.35e-04	0	44	0	1105199104	23	5053
2026-01-27 09:33:35.71	351.79	15.41	-30.9	-33.7	12.6	1.19e-04	0	44	0	1107296256	23	4933
2026-01-27 09:33:36.72	351.71	15.31	-30.9	-33.7	12.5	1.08e-04	0	44	0	1109393408	23	4960
2026-01-27 09:33:37.72	351.63	15.21	-30.9	-33.7	12.6	1.13e-04	0	44	0	1111490560	23	4952
2026-01-27 09:33:38.73	351.55	15.11	-31.0	-33.9	12.5	1.42e-04	0	44	0	1112539136	23	5026
2026-01-27 09:33:39.73	351.48	15.01	-31.1	-34.0	12.5	1.46e-04	0	44	0	1114636288	23	5069
2026-01-27 09:33:40.74	351.40	14.91	-31.1	-34.2	12.3	1.45e-04	0	44	0	1116733440	23	5123
2026-01-27 09:33:41.74	351.32	14.81	-31.2	-34.6	12.1	2.27e-04	0	44	0	1118830592	23	5287
2026-01-27 09:33:42.74	351.24	14.71	-31.2	-34.6	12.0	2.94e-04	0	44	0	1120927744	23	5284
2026-01-27 09:33:43.75	351.17	14.62	-31.3	-34.8	11.9	3.88e-04	0	44	0	1121976320	23	5377
2026-01-27 09:33:44.75	351.09	14.52	-31.3	-34.8	11.8	5.19e-04	0	44	0	1124073472	23	5399
2026-01-27 09:33:45.75	351.02	14.42	-31.4	-35.1	11.6	4.05e-04	0	44	0	1126170624	23	5527
2026-01-27 09:33:46.76	350.94	14.32	-31.4	-35.1	11.6	6.90e-04	0	44	0	1128267776	23	5501
2026-01-27 09:33:47.76	350.87	14.23	-31.5	-35.3	11.5	6.01e-04	0	44	0	1129316352	23	5599
2026-01-27 09:33:48.77	350.79	14.13	-31.4	-35.3	11.5	1.11e-03	0	44	0	1131413504	23	5595
2026-01-27 09:33:49.76	350.72	14.04	-31.3	-35.0	11.7	6.48e-04	0	44	0	1133510656	23	5463
2026-01-27 09:33:50.77	350.65	13.94	-31.3	-34.9	11.7	6.55e-04	0	44	0	1135607808	23	5422
2026-01-27 09:33:51.77	350.58	13.85	-31.4	-35.0	11.7	5.88e-04	0	44	0	1137704960	23	5484
2026-01-27 09:33:52.78	350.50	13.75	-31.4	-35.3	11.5	8.27e-04	0	44	0	1139802112	23	5591
2026-01-27 09:33:53.77	350.43	13.66	-31.5	-35.6	11.3	9.99e-04	0	44	0	1140850688	23	5737
2026-01-27 09:33:54.78	350.36	13.56	-31.5	-35.3	11.4	1.16e-03	0	44	0	1142947840	23	5625
2026-01-27 09:33:55.78	350.29	13.47	-31.4	-35.3	11.5	9.22e-04	0	44	0	1145044992	23	5600
2026-01-27 09:33:56.79	350.22	13.37	-31.4	-35.2	11.5	8.24e-04	0	44	0	1147142144	23	5545
2026-01-27 09:33:57.79	350.15	13.28	-31.5	-35.4	11.3	8.85e-04	0	44	0	1148190720	23	5663
2026-01-27 09:33:58.79	350.08	13.19	-31.4	-35.3	11.3	1.27e-03	0	44	0	1150287872	23	5629
2026-01-27 09:33:59.80	350.02	13.10	-31.4	-35.3	11.4	1.05e-03	0	44	0	1152385024	23	5631
2026-01-27 09:34:00.79	349.95	13.00	-31.5	-35.6	11.2	1.42e-03	0	44	0	1154482176	23	5743
2026-01-27 09:34:01.79	349.88	12.91	-31.4	-35.4	11.3	1.38e-03	0	44	0	1156579328	23	5660
2026-01-27 09:34:02.79	349.81	12.82	-31.4	-35.2	11.4	9.99e-04	0	44	0	1157627904	23	5575
2026-01-27 09:34:03.80	349.75	12.73	-31.5	-35.5	11.2	1.25e-03	0	44	0	1159725056	23	5700
2026-01-27 09:34:04.80	349.68	12.64	-31.5	-35.5	11.2	1.26e-03	0	44	0	1161822208	23	5725
2026-01-27 09:34:05.80	349.62	12.55	-31.7	-36.1	10.7	1.88e-03	0	44	0	1163919360	23	6020
2026-01-27 09:34:06.80	349.55	12.46	-31.6	-36.0	10.8	2.71e-03	0	44	0	1166016512	23	5933
2026-01-27 09:34:07.80	349.49	12.37	-31.7	-36.1	10.7	2.35e-03	0	44	0	1167065088	23	5987
2026-01-27 09:34:08.81	349.42	12.28	-31.6	-36.0	10.8	3.09e-03	0	44	0	1169162240	23	5945
2026-01-27 09:34:09.81	349.36	12.19	-31.6	-35.8	10.9	2.03e-03	0	44	0	1171259392	23	5849
2026-01-27 09:34:10.81	349.29	12.10	-31.5	-35.6	11.0	2.15e-03	0	44	0	1173356544	23	5757
2026-01-27 09:34:11.82	349.23	12.01	-31.5	-35.7	10.9	1.80e-03	0	44	0	1175453696	23	5815
2026-01-27 09:34:12.82	349.17	11.92	-31.5	-35.8	10.8	2.67e-03	0	44	0	1176502272	23	5847
2026-01-27 09:34:13.83	349.10	11.83	-31.6	-35.9	10.7	2.74e-03	0	44	0	1178599424	23	5901
2026-01-27 09:34:14.84	349.04	11.74	-31.5	-35.7	10.8	2.70e-03	0	44	0	1180696576	23	5817
2026-01-27 09:34:15.84	348.98	11.65	-31.4	-35.4	11.0	2.28e-03	0	44	0	1182793728	23	5683
2026-01-27 09:34:16.85	348.92	11.57	-31.4	-35.3	11.2	1.41e-03	0	44	0	1184890880	23	5622
2026-01-27 09:34:17.86	348.86	11.48	-31.4	-35.4	11.1	1.56e-03	0	44	0	1185939456	23	5684
2026-01-27 09:34:18.86	348.80	11.39	-31.4	-35.2	11.3	1.34e-03	0	44	0	1188036608	23	5580
2026-01-27 09:34:19.86	348.74	11.31	-31.3	-35.0	11.5	8.71e-04	0	44	0	1190133760	23	5495
2026-01-27 09:34:20.86	348.68	11.22	-31.3	-34.9	11.5	8.71e-04	0	44	0	1192230912	23	5470
2026-01-27 09:34:21.87	348.62	11.13	-31.4	-35.2	11.3	9.55e-04	0	44	0	1194328064	23	5616
2026-01-27 09:34:22.86	348.56	11.05	-31.3	-34.9	11.5	1.07e-03	0	44	0	1195376640	23	5458
2026-01-27 09:34:23.87	348.50	10.96	-31.3	-34.9	11.5	8.88e-04	0	44	0	1197473792	23	5461
2026-01-27 09:34:24.87	348.44	10.88	-31.3	-34.9	11.5	9.04e-04	0	44	0	1199570944	23	5478
2026-01-27 09:34:25.87	348.38	10.79	-31.3	-35.1	11.3	1.10e-03	0	44	0	1201668096	23	5545
2026-01-27 09:34:26.88	348.33	10.71	-31.4	-35.2	11.1	1.41e-03	0	44	0	1202716672	23	5610
2026-01-27 09:34:27.89	348.27	10.62	-31.4	-35.3	11.1	1.52e-03	0	44	0	1204813824	23	5642
2026-01-27 09:34:28.89	348.21	10.54	-31.4	-35.5	11.0	1.59e-03	0	44	0	1206910976	23	5732
2026-01-27 09:34:29.89	348.16	10.45	-31.5	-35.6	10.9	2.22e-03	0	44	0	1209008128	23	5778
2026-01-27 09:34:30.90	348.10	10.37	-31.5	-35.6	10.9	2.17e-03	0	44	0	1211105280	23	5785
2026-01-27 09:34:31.90	348.04	10.28	-31.6	-36.1	10.5	2.77e-03	0	44	0	1212153856	23	6025
2026-01-27 09:34:32.90	347.99	10.20	-31.6	-36.1	10.5	3.55e-03	0	44	0	1214251008	23	6019
2026-01-27 09:34:33.91	347.93	10.12	-31.6	-36.2	10.4	3.82e-03	0	44	0	1216348160	23	6093
2026-01-27 09:34:34.91	347.88	10.03	-31.6	-36.1	10.4	4.34e-03	0	44	0	1218445312	23	6059
2026-01-27 09:34:35.91	347.82	9.95	-31.7	-36.3	10.3	4.05e-03	0	44	0	1220542464	23	6137
2026-01-27 09:34:36.91	347.77	9.87	-31.7	-36.6	10.1	6.61e-03	0	44	0	1221591040	23	6306
2026-01-27 09:34:37.91	347.72	9.79	-31.7	-36.5	10.2	6.52e-03	0	44	0	1223688192	23	6229
2026-01-27 09:34:38.92	347.66	9.71	-31.8	-36.8	9.9	7.19e-03	0	44	0	1225785344	23	6403
2026-01-27 09:34:39.92	347.61	9.62	-31.7	-36.5	10.2	6.72e-03	0	44	0	1227882496	23	6245
2026-01-27 09:34:40.93	347.56	9.54	-31.6	-36.1	10.4	4.49e-03	0	44	0	1229979648	23	6072
2026-01-27 09:34:41.93	347.50	9.46	-31.5	-35.9	10.6	3.99e-03	0	44	0	1231028224	23	5973
2026-01-27 09:34:42.93	347.45	9.38	-31.6	-36.1	10.5	3.29e-03	0	44	0	1233125376	23	6040
2026-01-27 09:34:43.93	347.40	9.30	-31.6	-36.1	10.5	3.67e-03	0	44	0	1235222528	23	6037
2026-01-27 09:34:44.93	347.35	9.22	-31.6	-36.3	10.3	4.52e-03	0	44	0	1237319680	23	6168
2026-01-27 09:34:45.94	347.30	9.14	-31.5	-36.0	10.5	5.17e-03	0	44	0	1239416832	23	6009
2026-01-27 09:34:46.94	347.25	9.06	-31.5	-35.9	10.5	3.66e-03	0	44	0	1240465408	23	5984
2026-01-27 09:34:47.94	347.20	8.98	-31.5	-35.9	10.5	3.86e-03	0	44	0	1242562560	23	5948
2026-01-27 09:34:48.94	347.15	8.90	-31.4	-35.6	10.7	3.04e-03	0	44	0	1244659712	23	5826
2026-01-27 09:34:49.94	347.10	8.82	-31.5	-35.9	10.6	2.79e-03	0	44	0	1246756864	23	5945
2026-01-27 09:34:50.94	347.05	8.74	-31.4	-35.6	10.7	3.70e-03	0	44	0	1248854016	23	5828
2026-01-27 09:34:51.94	347.00	8.66	-31.5	-35.9	10.5	3.61e-03	0	44	0	1249902592	23	5983
2026-01-27 09:34:52.94	346.95	8.59	-31.6	-36.2	10.3	4.73e-03	0	44	0	1251999744	23	6126
2026-01-27 09:34:53.95	346.90	8.51	-31.6	-36.1	10.3	4.53e-03	0	44	0	1254096896	23	6059
2026-01-27 09:34:54.95	346.85	8.43	-31.5	-35.8	10.5	3.79e-03	0	44	0	1256194048	23	5928
2026-01-27 09:34:55.95	346.80	8.35	-31.5	-35.8	10.6	3.61e-03	0	44	0	1257242624	23	5910
2026-01-27 09:34:56.96	346.75	8.27	-31.4	-35.7	10.6	3.02e-03	0	44	0	1259339776	23	5887
2026-01-27 09:34:57.96	346.70	8.20	-31.5	-35.9	10.5	4.00e-03	0	44	0	1261436928	23	5965
2026-01-27 09:34:58.96	346.66	8.12	-31.4	-35.7	10.6	4.12e-03	0	44	0	1263534080	23	5901
2026-01-27 09:34:59.97	346.61	8.04	-31.6	-36.2	10.2	4.22e-03	0	44	0	1265631232	23	6156
2026-01-27 09:35:00.96	346.56	7.97	-31.6	-36.2	10.2	5.51e-03	0	44	0	1266679808	23	6151
2026-01-27 09:35:01.96	346.52	7.89	-31.6	-36.3	10.2	5.96e-03	0	44	0	1268776960	23	6169
2026-01-27 09:35:02.96	346.47	7.81	-31.7	-36.5	9.9	7.70e-03	0	44	0	1270874112	23	6327
2026-01-27 09:35:03.97	346.42	7.74	-31.6	-36.3	10.1	6.64e-03	0	44	0	1272971264	23	6185
2026-01-27 09:35:04.97	346.38	7.66	-31.7	-36.7	9.7	9.11e-03	0	44	0	1275068416	23	6444
2026-01-27 09:35:05.98	346.33	7.58	-31.6	-36.5	9.9	7.95e-03	0	44	0	1276116992	23	6333
2026-01-27 09:35:06.98	346.29	7.51	-31.6	-36.4	10.0	9.26e-03	0	44	0	1278214144	23	6232
2026-01-27 09:35:07.98	346.24	7.43	-31.6	-36.4	9.9	1.07e-02	0	44	0	1280311296	23	6264
2026-01-27 09:35:08.99	346.20	7.36	-31.6	-36.5	9.9	8.59e-03	0	44	0	1282408448	23	6314
2026-01-27 09:35:09.98	346.15	7.28	-31.6	-36.6	9.7	9.39e-03	0	44	0	1284505600	23	6405
2026-01-27 09:35:10.99	346.11	7.21	-31.6	-36.4	9.9	1.02e-02	0	44	0	1285554176	23	6242
2026-01-27 09:35:11.99	346.06	7.13	-31.6	-36.4	9.9	7.72e-03	0	44	0	1287651328	23	6252
