passes_logs/2026/01/27/R2M6_AANII_01/R2M6_AANII_01__20260127_122553_SUOMI_NPP_rec.log

#Pass ID: 20260127_122553_SUOMI NPP
#Satellite: SUOMI NPP
#Configuration: NPP
#almurnet v.1.7.20240730
#Start time: 2026-01-27 12:25:55

#Version: 2.2.20231116
#Station: R2M6_AANII_01
#Location: 30.233357 lon 59.946436 lat
#TLE: 1 37849U 11061A   26026.87508736  .00000176  00000+0  10464-3 0  9991
#TLE: 2 37849  98.7822 328.8221 0002127  43.3055 316.8288 14.19530452738397

#Time	Az	El	Level	Level2	SNR	BER	BlckErr	Temp	State	Recorded	gain1	gain2
2026-01-27 12:25:55.58	229.18	7.11	-31.3	-34.4	5.3	1.13e+00	0	41	0	0	23	5161
2026-01-27 12:25:56.57	229.30	7.16	-31.6	-35.0	5.1	1.17e+00	0	41	104	0	24	5320
2026-01-27 12:25:57.57	229.41	7.22	-31.6	-35.1	8.8	4.28e-02	0	41	0	0	24	5351
2026-01-27 12:25:58.57	229.53	7.27	-31.7	-35.1	8.8	2.43e-02	0	41	0	1048576	24	5348
2026-01-27 12:25:59.57	229.65	7.32	-31.7	-35.1	8.8	3.91e-02	0	41	0	3145728	24	5350
2026-01-27 12:26:00.58	229.77	7.38	-31.6	-35.0	8.9	2.05e-02	0	41	0	5242880	24	5298
2026-01-27 12:26:01.58	229.89	7.43	-31.5	-34.6	9.2	2.32e-02	0	41	0	7340032	24	5140
2026-01-27 12:26:02.59	230.02	7.49	-31.5	-34.3	9.5	1.57e-02	0	41	0	9437184	24	4985
2026-01-27 12:26:03.59	230.14	7.54	-31.4	-34.1	9.7	1.40e-02	0	41	0	10485760	24	4888
2026-01-27 12:26:04.60	230.26	7.60	-31.6	-34.8	9.0	1.78e-02	0	41	0	12582912	24	5228
2026-01-27 12:26:05.60	230.38	7.65	-31.5	-34.6	9.3	2.42e-02	0	41	0	14680064	24	5108
2026-01-27 12:26:06.60	230.50	7.70	-31.5	-34.3	9.5	1.98e-02	0	41	0	16777216	24	4966
2026-01-27 12:26:07.60	230.63	7.76	-31.3	-33.7	9.9	9.97e-03	0	41	0	17825792	24	4750
2026-01-27 12:26:08.61	230.75	7.81	-31.3	-34.3	9.9	6.71e-03	0	41	0	19922944	23	5082
2026-01-27 12:26:09.61	230.88	7.87	-31.3	-34.2	10.0	8.85e-03	0	41	0	22020096	23	5027
2026-01-27 12:26:10.62	231.00	7.92	-31.1	-33.4	10.6	4.36e-03	0	41	0	24117248	23	4683
2026-01-27 12:26:11.61	231.13	7.97	-30.9	-32.9	11.0	2.21e-03	0	42	0	26214400	23	4497
2026-01-27 12:26:12.61	231.25	8.03	-30.9	-32.7	11.2	1.62e-03	0	42	0	27262976	23	4431
2026-01-27 12:26:13.61	231.38	8.08	-30.8	-32.8	11.4	1.30e-03	0	42	0	29360128	22	4573
2026-01-27 12:26:14.62	231.50	8.14	-30.8	-32.9	11.4	7.61e-04	0	41	0	31457280	22	4603
2026-01-27 12:26:15.62	231.63	8.19	-31.0	-33.5	11.0	1.75e-03	0	42	0	33554432	22	4822
2026-01-27 12:26:16.62	231.76	8.24	-30.9	-33.4	11.0	2.35e-03	0	42	0	35651584	22	4783
2026-01-27 12:26:17.62	231.88	8.30	-30.7	-32.8	11.5	1.27e-03	0	42	0	36700160	22	4539
2026-01-27 12:26:18.62	232.01	8.35	-30.7	-32.5	11.7	8.06e-04	0	42	0	38797312	22	4449
2026-01-27 12:26:19.63	232.14	8.41	-30.7	-32.6	11.7	6.06e-04	0	42	0	40894464	22	4468
2026-01-27 12:26:20.64	232.27	8.46	-30.6	-32.4	11.8	4.79e-04	0	42	0	42991616	22	4419
2026-01-27 12:26:21.64	232.40	8.52	-30.8	-32.8	11.5	5.14e-04	0	42	0	45088768	22	4551
2026-01-27 12:26:22.63	232.53	8.57	-30.7	-32.6	11.7	6.43e-04	0	42	0	46137344	22	4487
2026-01-27 12:26:23.64	232.66	8.62	-30.6	-32.3	11.9	5.68e-04	0	42	0	48234496	22	4383
2026-01-27 12:26:24.64	232.79	8.68	-30.7	-32.6	11.7	4.61e-04	0	42	0	50331648	22	4463
2026-01-27 12:26:25.64	232.92	8.73	-30.7	-32.4	11.9	5.30e-04	0	42	0	52428800	22	4379
2026-01-27 12:26:26.64	233.05	8.78	-30.7	-32.4	11.9	4.44e-04	0	42	0	54525952	22	4395
2026-01-27 12:26:27.64	233.19	8.84	-30.6	-32.2	12.0	3.92e-04	0	42	0	55574528	22	4339
2026-01-27 12:26:28.65	233.32	8.89	-30.6	-32.3	12.0	4.52e-04	0	42	0	57671680	22	4359
2026-01-27 12:26:29.65	233.45	8.95	-30.5	-31.8	12.3	2.53e-04	0	42	0	59768832	22	4190
2026-01-27 12:26:30.65	233.59	9.00	-30.6	-32.1	12.1	2.57e-04	0	42	0	61865984	22	4285
2026-01-27 12:26:31.66	233.72	9.05	-30.5	-31.9	12.2	3.50e-04	0	42	0	62914560	22	4242
2026-01-27 12:26:32.66	233.86	9.11	-30.4	-31.6	12.4	1.67e-04	0	42	0	65011712	22	4148
2026-01-27 12:26:33.66	233.99	9.16	-30.3	-32.0	12.5	8.85e-05	0	42	0	67108864	21	4365
2026-01-27 12:26:34.66	234.13	9.22	-30.2	-31.6	12.7	1.01e-04	0	42	0	69206016	21	4239
2026-01-27 12:26:35.67	234.26	9.27	-30.4	-32.1	12.5	1.20e-04	0	42	0	71303168	21	4370
2026-01-27 12:26:36.67	234.40	9.32	-30.3	-31.7	12.7	1.05e-04	0	42	0	72351744	21	4257
2026-01-27 12:26:37.68	234.54	9.38	-30.4	-32.1	12.4	9.68e-05	0	42	0	74448896	21	4390
2026-01-27 12:26:38.69	234.68	9.43	-30.4	-32.2	12.4	1.40e-04	0	42	0	76546048	21	4420
2026-01-27 12:26:39.69	234.81	9.49	-30.4	-32.0	12.6	1.23e-04	0	42	0	78643200	21	4333
2026-01-27 12:26:40.70	234.95	9.54	-30.5	-32.5	12.2	1.81e-04	0	42	0	80740352	21	4519
2026-01-27 12:26:41.70	235.09	9.59	-30.6	-32.6	12.1	1.80e-04	0	42	0	81788928	21	4544
2026-01-27 12:26:42.70	235.23	9.65	-30.5	-32.4	12.3	2.22e-04	0	42	0	83886080	21	4481
2026-01-27 12:26:43.71	235.37	9.70	-30.4	-32.1	12.4	1.26e-04	0	42	0	85983232	21	4390
2026-01-27 12:26:44.71	235.51	9.75	-30.4	-32.2	12.4	1.40e-04	0	42	0	88080384	21	4402
2026-01-27 12:26:45.71	235.65	9.81	-30.5	-32.3	12.3	1.79e-04	0	42	0	90177536	21	4437
2026-01-27 12:26:46.71	235.80	9.86	-30.7	-32.9	11.9	2.45e-04	0	42	0	91226112	21	4642
2026-01-27 12:26:47.71	235.94	9.91	-30.6	-32.8	12.0	3.91e-04	0	42	0	93323264	21	4604
2026-01-27 12:26:48.72	236.08	9.97	-30.6	-32.5	12.2	2.91e-04	0	42	0	95420416	21	4528
2026-01-27 12:26:49.72	236.22	10.02	-30.6	-32.7	12.1	3.45e-04	0	42	0	97517568	21	4596
2026-01-27 12:26:50.72	236.37	10.08	-30.6	-32.8	12.0	3.46e-04	0	42	0	99614720	21	4612
2026-01-27 12:26:51.73	236.51	10.13	-30.8	-33.2	11.7	5.67e-04	0	42	0	100663296	21	4762
2026-01-27 12:26:52.73	236.66	10.18	-30.8	-33.2	11.7	4.96e-04	0	42	0	102760448	21	4745
2026-01-27 12:26:53.74	236.80	10.24	-30.9	-33.7	11.4	6.02e-04	0	42	0	104857600	21	4935
2026-01-27 12:26:54.74	236.95	10.29	-31.0	-33.4	11.3	1.37e-03	0	43	0	106954752	22	4737
2026-01-27 12:26:55.75	237.10	10.34	-31.2	-34.1	10.8	1.70e-03	0	42	0	109051904	22	5013
2026-01-27 12:26:56.75	237.24	10.39	-31.2	-34.0	10.8	3.78e-03	0	42	0	110100480	22	4988
2026-01-27 12:26:57.75	237.39	10.45	-31.0	-33.5	11.2	1.72e-03	0	43	0	112197632	22	4778
2026-01-27 12:26:58.76	237.54	10.50	-30.9	-33.2	11.4	1.28e-03	0	42	0	114294784	22	4654
2026-01-27 12:26:59.76	237.69	10.55	-30.9	-32.9	11.6	7.59e-04	0	43	0	116391936	22	4570
2026-01-27 12:27:00.75	237.83	10.61	-31.0	-33.2	11.5	8.12e-04	0	42	0	118489088	22	4656
2026-01-27 12:27:01.75	237.98	10.66	-30.8	-32.9	11.7	7.97e-04	0	43	0	119537664	22	4542
2026-01-27 12:27:02.75	238.13	10.71	-30.9	-33.2	11.5	5.32e-04	0	42	0	121634816	22	4646
2026-01-27 12:27:03.75	238.28	10.76	-30.9	-32.8	11.7	6.87e-04	0	42	0	123731968	22	4530
2026-01-27 12:27:04.76	238.43	10.82	-30.6	-32.0	12.3	2.52e-04	0	42	0	125829120	22	4229
2026-01-27 12:27:05.75	238.58	10.87	-30.5	-31.7	12.5	1.67e-04	0	43	0	126877696	22	4146
2026-01-27 12:27:06.76	238.74	10.92	-30.4	-31.4	12.7	6.17e-05	0	43	0	128974848	22	4068
2026-01-27 12:27:07.76	238.89	10.97	-30.4	-31.4	12.7	6.40e-05	0	43	0	131072000	22	4065
2026-01-27 12:27:08.76	239.04	11.03	-30.3	-31.3	12.8	6.86e-05	0	43	0	133169152	22	4019
2026-01-27 12:27:09.77	239.19	11.08	-30.3	-31.8	12.8	4.42e-05	0	43	0	135266304	21	4273
2026-01-27 12:27:10.78	239.35	11.13	-30.3	-31.7	12.8	4.50e-05	0	43	0	136314880	21	4243
2026-01-27 12:27:11.78	239.50	11.18	-30.4	-31.9	12.7	4.57e-05	0	43	0	138412032	21	4304
2026-01-27 12:27:12.79	239.66	11.24	-30.2	-31.6	12.9	4.88e-05	0	43	0	140509184	21	4207
2026-01-27 12:27:13.78	239.81	11.29	-30.1	-31.3	13.1	3.35e-05	0	43	0	142606336	21	4126
2026-01-27 12:27:14.78	239.97	11.34	-30.3	-31.7	12.9	2.89e-05	0	43	0	144703488	21	4241
2026-01-27 12:27:15.78	240.13	11.39	-30.1	-31.1	13.3	3.66e-05	0	43	0	145752064	21	4052
2026-01-27 12:27:16.79	240.28	11.44	-29.9	-30.7	13.5	1.06e-05	0	43	0	147849216	21	3940
2026-01-27 12:27:17.79	240.44	11.49	-29.8	-30.4	13.6	6.10e-06	0	43	0	149946368	21	3868
2026-01-27 12:27:18.80	240.60	11.55	-30.0	-30.8	13.5	3.80e-06	0	43	0	152043520	21	3973
2026-01-27 12:27:19.80	240.76	11.60	-29.8	-30.7	13.8	4.50e-06	0	43	0	154140672	20	4024
2026-01-27 12:27:20.81	240.92	11.65	-29.8	-31.0	13.7	6.80e-06	0	43	0	155189248	20	4103
2026-01-27 12:27:21.81	241.08	11.70	-29.9	-31.0	13.6	9.90e-06	0	43	0	157286400	20	4119
2026-01-27 12:27:22.81	241.24	11.75	-30.1	-31.7	13.2	6.80e-06	0	43	0	159383552	20	4333
2026-01-27 12:27:23.82	241.40	11.80	-30.1	-31.6	13.3	1.83e-05	0	43	0	161480704	20	4308
2026-01-27 12:27:24.82	241.56	11.85	-30.0	-31.5	13.4	1.67e-05	0	43	0	163577856	20	4249
2026-01-27 12:27:25.83	241.73	11.91	-30.2	-31.9	13.2	1.22e-05	0	43	0	164626432	20	4375
2026-01-27 12:27:26.83	241.89	11.96	-30.2	-31.9	13.1	3.89e-05	0	43	0	166723584	20	4393
2026-01-27 12:27:27.85	242.05	12.01	-30.2	-32.0	13.1	3.89e-05	0	43	0	168820736	20	4409
2026-01-27 12:27:28.85	242.22	12.06	-30.3	-32.3	12.9	3.89e-05	0	43	0	170917888	20	4514
2026-01-27 12:27:29.85	242.38	12.11	-30.2	-31.9	13.1	3.05e-05	0	43	0	173015040	20	4371
2026-01-27 12:27:30.86	242.55	12.16	-30.1	-31.8	13.2	3.50e-05	0	43	0	174063616	20	4349
2026-01-27 12:27:31.86	242.71	12.21	-30.1	-31.6	13.3	1.67e-05	0	43	0	176160768	20	4278
2026-01-27 12:27:32.86	242.88	12.26	-30.1	-31.7	13.3	1.67e-05	0	43	0	178257920	20	4302
2026-01-27 12:27:33.85	243.04	12.31	-30.0	-31.3	13.5	1.83e-05	0	43	0	180355072	20	4206
2026-01-27 12:27:34.86	243.21	12.36	-30.1	-31.5	13.4	1.67e-05	0	43	0	181403648	20	4271
2026-01-27 12:27:35.86	243.38	12.41	-30.0	-31.3	13.5	1.29e-05	0	43	0	183500800	20	4192
2026-01-27 12:27:36.86	243.55	12.46	-30.1	-31.6	13.4	1.83e-05	0	43	0	185597952	20	4267
2026-01-27 12:27:37.87	243.72	12.51	-30.1	-31.7	13.3	2.82e-05	0	43	0	187695104	20	4311
2026-01-27 12:27:38.87	243.88	12.56	-30.2	-31.9	13.2	1.90e-05	0	43	0	189792256	20	4375
2026-01-27 12:27:39.87	244.05	12.61	-30.1	-31.6	13.4	2.13e-05	0	43	0	190840832	20	4270
2026-01-27 12:27:40.88	244.23	12.66	-30.0	-31.3	13.6	9.10e-06	0	43	0	192937984	20	4179
2026-01-27 12:27:41.88	244.40	12.71	-30.1	-31.6	13.4	1.60e-05	0	43	0	195035136	20	4289
2026-01-27 12:27:42.88	244.57	12.75	-30.0	-31.4	13.5	1.37e-05	0	43	0	197132288	20	4210
2026-01-27 12:27:43.89	244.74	12.80	-30.1	-31.6	13.3	1.52e-05	0	43	0	199229440	20	4295
2026-01-27 12:27:44.89	244.91	12.85	-30.1	-31.7	13.3	1.83e-05	0	43	0	200278016	20	4300
2026-01-27 12:27:45.89	245.08	12.90	-30.1	-31.7	13.3	1.67e-05	0	43	0	202375168	20	4305
2026-01-27 12:27:46.89	245.26	12.95	-30.1	-31.7	13.3	1.60e-05	0	43	0	204472320	20	4318
2026-01-27 12:27:47.90	245.43	13.00	-30.2	-31.9	13.2	2.28e-05	0	43	0	206569472	20	4389
2026-01-27 12:27:48.90	245.61	13.05	-30.2	-31.9	13.2	2.05e-05	0	43	0	208666624	20	4378
2026-01-27 12:27:49.90	245.78	13.09	-30.1	-31.6	13.4	1.90e-05	0	43	0	209715200	20	4288
2026-01-27 12:27:50.90	245.96	13.14	-30.2	-32.0	13.1	1.98e-05	0	43	0	211812352	20	4404
2026-01-27 12:27:51.90	246.13	13.19	-30.5	-32.6	12.7	3.28e-05	0	43	0	213909504	20	4611
2026-01-27 12:27:52.90	246.31	13.24	-30.3	-31.7	13.0	5.64e-05	0	43	0	216006656	21	4218
2026-01-27 12:27:53.91	246.49	13.28	-30.2	-31.4	13.3	2.59e-05	0	43	0	218103808	21	4118
2026-01-27 12:27:54.91	246.67	13.33	-30.1	-31.1	13.4	1.67e-05	0	43	0	219152384	21	4026
2026-01-27 12:27:55.91	246.84	13.38	-30.3	-31.5	13.2	1.29e-05	0	43	0	221249536	21	4158
2026-01-27 12:27:56.91	247.02	13.42	-30.3	-31.5	13.1	2.97e-05	0	43	0	223346688	21	4154
2026-01-27 12:27:57.92	247.20	13.47	-30.5	-32.3	12.7	5.95e-05	0	43	0	225443840	21	4418
2026-01-27 12:27:58.92	247.38	13.52	-30.5	-32.1	12.8	9.15e-05	0	43	0	226492416	21	4338
2026-01-27 12:27:59.93	247.57	13.57	-30.4	-31.8	12.9	5.41e-05	0	43	0	228589568	21	4264
2026-01-27 12:28:00.93	247.75	13.61	-30.4	-32.0	12.8	4.27e-05	0	43	0	230686720	21	4313
2026-01-27 12:28:01.93	247.93	13.66	-30.5	-32.1	12.8	3.89e-05	0	43	0	232783872	21	4336
2026-01-27 12:28:02.93	248.11	13.70	-30.4	-31.8	13.0	4.65e-05	0	43	0	234881024	21	4238
2026-01-27 12:28:03.94	248.29	13.75	-30.5	-32.1	12.8	4.42e-05	0	43	0	236978176	21	4341
2026-01-27 12:28:04.94	248.48	13.79	-30.6	-32.5	12.5	7.01e-05	0	43	0	238026752	21	4467
2026-01-27 12:28:05.95	248.66	13.84	-30.6	-32.4	12.6	1.16e-04	0	43	0	240123904	21	4433
2026-01-27 12:28:06.95	248.85	13.88	-30.8	-33.0	12.2	1.33e-04	0	43	0	242221056	21	4648
2026-01-27 12:28:07.96	249.03	13.93	-30.7	-32.8	12.3	1.59e-04	0	43	0	244318208	21	4587
2026-01-27 12:28:08.95	249.22	13.97	-30.8	-33.0	12.2	1.85e-04	0	43	0	245366784	21	4662
2026-01-27 12:28:09.95	249.40	14.02	-30.7	-32.8	12.3	1.84e-04	0	43	0	247463936	21	4566
2026-01-27 12:28:10.96	249.59	14.06	-30.7	-32.8	12.3	1.16e-04	0	43	0	249561088	21	4571
2026-01-27 12:28:11.96	249.78	14.11	-30.8	-33.1	12.1	2.33e-04	0	43	0	251658240	21	4669
2026-01-27 12:28:12.97	249.97	14.15	-30.7	-32.7	12.3	2.45e-04	0	43	0	253755392	21	4556
2026-01-27 12:28:13.97	250.16	14.19	-30.6	-32.3	12.7	1.13e-04	0	43	0	254803968	21	4413
2026-01-27 12:28:14.97	250.34	14.24	-30.4	-32.0	12.9	4.50e-05	0	43	0	256901120	21	4313
2026-01-27 12:28:15.97	250.53	14.28	-30.5	-32.1	12.8	6.48e-05	0	43	0	258998272	21	4351
2026-01-27 12:28:16.98	250.72	14.32	-30.5	-32.3	12.7	4.27e-05	0	43	0	261095424	21	4393
2026-01-27 12:28:17.98	250.91	14.37	-30.6	-32.5	12.5	8.62e-05	0	43	0	263192576	21	4468
2026-01-27 12:28:18.99	251.11	14.41	-30.4	-32.0	12.9	7.85e-05	0	43	0	264241152	21	4305
2026-01-27 12:28:19.98	251.30	14.45	-30.5	-32.2	12.7	5.18e-05	0	43	0	266338304	21	4373
2026-01-27 12:28:20.98	251.49	14.49	-30.6	-32.5	12.5	1.11e-04	0	43	0	268435456	21	4479
2026-01-27 12:28:21.99	251.68	14.54	-30.6	-32.5	12.5	9.84e-05	0	43	0	270532608	21	4469
2026-01-27 12:28:22.99	251.87	14.58	-30.7	-32.8	12.3	1.52e-04	0	43	0	272629760	21	4585
2026-01-27 12:28:23.99	252.07	14.62	-30.8	-33.1	12.2	1.46e-04	0	43	0	273678336	21	4665
2026-01-27 12:28:25.00	252.26	14.66	-30.8	-33.2	12.1	2.77e-04	0	43	0	275775488	21	4712
2026-01-27 12:28:26.00	252.46	14.70	-30.8	-33.0	12.2	2.17e-04	0	43	0	277872640	21	4658
2026-01-27 12:28:27.00	252.65	14.74	-30.7	-32.8	12.4	2.02e-04	0	43	0	279969792	21	4561
2026-01-27 12:28:28.01	252.85	14.78	-30.7	-32.6	12.6	1.07e-04	0	43	0	282066944	21	4488
2026-01-27 12:28:29.01	253.04	14.82	-30.6	-32.4	12.6	8.46e-05	0	43	0	283115520	21	4445
2026-01-27 12:28:30.01	253.24	14.86	-30.7	-32.7	12.5	1.03e-04	0	43	0	285212672	21	4531
2026-01-27 12:28:31.02	253.44	14.90	-30.8	-33.0	12.3	1.14e-04	0	43	0	287309824	21	4624
2026-01-27 12:28:32.02	253.64	14.94	-30.8	-33.2	12.2	1.34e-04	0	43	0	289406976	21	4699
2026-01-27 12:28:33.03	253.84	14.98	-31.0	-33.2	11.9	2.84e-04	0	43	0	291504128	22	4605
2026-01-27 12:28:34.03	254.04	15.02	-31.0	-33.1	11.9	5.11e-04	0	43	0	292552704	22	4566
2026-01-27 12:28:35.04	254.24	15.06	-31.1	-33.3	11.8	4.27e-04	0	43	0	294649856	22	4639
2026-01-27 12:28:36.04	254.44	15.10	-31.1	-33.3	11.7	4.79e-04	0	43	0	296747008	22	4648
2026-01-27 12:28:37.04	254.64	15.14	-31.1	-33.2	11.8	4.38e-04	0	43	0	298844160	22	4624
2026-01-27 12:28:38.04	254.84	15.18	-31.0	-33.1	11.9	3.49e-04	0	43	0	299892736	22	4566
2026-01-27 12:28:39.05	255.04	15.21	-30.9	-32.8	12.1	2.70e-04	0	43	0	301989888	22	4467
2026-01-27 12:28:40.05	255.24	15.25	-31.0	-33.1	11.9	3.32e-04	0	43	0	304087040	22	4578
2026-01-27 12:28:41.04	255.44	15.29	-31.2	-33.6	11.5	6.37e-04	0	43	0	306184192	22	4765
2026-01-27 12:28:42.04	255.64	15.32	-31.2	-33.6	11.6	6.96e-04	0	43	0	308281344	22	4744
2026-01-27 12:28:43.03	255.84	15.36	-31.3	-34.1	11.2	1.21e-03	0	43	0	309329920	22	4958
2026-01-27 12:28:44.03	256.05	15.40	-31.1	-33.4	11.7	8.46e-04	0	43	0	311427072	22	4685
2026-01-27 12:28:45.04	256.25	15.43	-30.9	-32.7	12.1	3.71e-04	0	43	0	313524224	22	4452
2026-01-27 12:28:46.05	256.46	15.47	-30.9	-32.8	12.2	2.30e-04	0	43	0	315621376	22	4451
2026-01-27 12:28:47.06	256.66	15.50	-30.9	-32.8	12.2	2.45e-04	0	43	0	317718528	22	4456
2026-01-27 12:28:48.06	256.87	15.54	-31.1	-33.3	11.7	3.17e-04	0	43	0	318767104	22	4648
2026-01-27 12:28:49.06	257.07	15.57	-31.0	-32.9	12.0	5.07e-04	0	43	0	320864256	22	4517
2026-01-27 12:28:50.06	257.28	15.61	-30.9	-32.7	12.2	2.91e-04	0	43	0	322961408	22	4437
2026-01-27 12:28:51.06	257.49	15.64	-31.2	-33.7	11.4	3.73e-04	0	43	0	325058560	22	4810
2026-01-27 12:28:52.06	257.69	15.68	-31.3	-34.0	11.3	1.08e-03	0	43	0	327155712	22	4896
2026-01-27 12:28:53.07	257.90	15.71	-31.2	-33.6	11.5	8.77e-04	0	44	0	328204288	22	4748
2026-01-27 12:28:54.07	258.11	15.74	-31.0	-33.1	11.9	7.21e-04	0	43	0	330301440	22	4585
2026-01-27 12:28:55.07	258.32	15.78	-31.0	-33.1	11.8	4.10e-04	0	43	0	332398592	22	4579
2026-01-27 12:28:56.07	258.53	15.81	-30.9	-32.8	12.1	2.53e-04	0	43	0	334495744	22	4491
2026-01-27 12:28:57.08	258.74	15.84	-31.0	-33.0	12.0	2.66e-04	0	43	0	336592896	22	4537
2026-01-27 12:28:58.08	258.95	15.87	-30.8	-32.5	12.3	1.95e-04	0	43	0	337641472	22	4373
2026-01-27 12:28:59.08	259.16	15.91	-30.9	-32.8	12.1	2.86e-04	0	43	0	339738624	22	4462
2026-01-27 12:29:00.08	259.37	15.94	-30.8	-32.4	12.4	1.67e-04	0	43	0	341835776	22	4354
2026-01-27 12:29:01.08	259.58	15.97	-30.6	-31.9	12.8	1.15e-04	0	43	0	343932928	22	4177
2026-01-27 12:29:02.09	259.79	16.00	-30.3	-31.1	13.2	2.44e-05	0	43	0	346030080	22	3956
2026-01-27 12:29:03.09	260.01	16.03	-30.2	-31.2	13.5	1.75e-05	0	43	0	347078656	21	4049
2026-01-27 12:29:04.09	260.22	16.06	-30.1	-31.1	13.6	7.60e-06	0	44	0	349175808	21	4018
2026-01-27 12:29:05.09	260.43	16.09	-30.2	-31.2	13.5	9.90e-06	0	44	0	351272960	21	4065
2026-01-27 12:29:06.10	260.65	16.12	-30.4	-31.8	13.1	1.75e-05	0	43	0	353370112	21	4231
2026-01-27 12:29:07.09	260.86	16.15	-30.1	-31.1	13.6	1.29e-05	0	44	0	354418688	21	4025
2026-01-27 12:29:08.10	261.07	16.18	-30.2	-31.4	13.4	1.14e-05	0	43	0	356515840	21	4111
2026-01-27 12:29:09.10	261.29	16.21	-30.2	-31.2	13.5	8.30e-06	0	43	0	358612992	21	4068
2026-01-27 12:29:10.10	261.50	16.23	-30.2	-31.3	13.5	1.06e-05	0	44	0	360710144	21	4073
2026-01-27 12:29:11.10	261.72	16.26	-30.2	-31.3	13.4	1.06e-05	0	43	0	362807296	21	4077
2026-01-27 12:29:12.11	261.93	16.29	-30.0	-30.9	13.7	5.30e-06	0	43	0	363855872	21	3973
2026-01-27 12:29:13.11	262.15	16.32	-30.1	-31.0	13.7	6.80e-06	0	43	0	365953024	21	4010
2026-01-27 12:29:14.11	262.37	16.34	-30.1	-31.2	13.5	1.06e-05	0	43	0	368050176	21	4050
2026-01-27 12:29:15.11	262.58	16.37	-30.2	-31.4	13.4	1.06e-05	0	43	0	370147328	21	4124
2026-01-27 12:29:16.11	262.80	16.39	-30.2	-31.3	13.4	1.37e-05	0	43	0	372244480	21	4074
2026-01-27 12:29:17.12	263.02	16.42	-30.5	-32.0	13.0	3.28e-05	0	43	0	373293056	21	4293
2026-01-27 12:29:18.12	263.24	16.45	-30.5	-32.1	12.9	5.11e-05	0	43	0	375390208	21	4334
2026-01-27 12:29:19.12	263.45	16.47	-30.6	-32.5	12.7	6.02e-05	0	43	0	377487360	21	4462
2026-01-27 12:29:20.12	263.67	16.49	-30.6	-32.5	12.7	5.56e-05	0	43	0	379584512	21	4452
2026-01-27 12:29:21.12	263.89	16.52	-30.6	-32.4	12.7	4.80e-05	0	43	0	380633088	21	4420
2026-01-27 12:29:22.12	264.11	16.54	-30.6	-32.5	12.7	5.49e-05	0	43	0	382730240	21	4469
2026-01-27 12:29:23.13	264.33	16.57	-30.6	-32.4	12.7	8.23e-05	0	43	0	384827392	21	4438
2026-01-27 12:29:24.13	264.55	16.59	-30.7	-32.8	12.5	9.15e-05	0	43	0	386924544	21	4553
2026-01-27 12:29:25.13	264.77	16.61	-30.5	-32.1	13.0	8.16e-05	0	44	0	389021696	21	4338
2026-01-27 12:29:26.13	264.99	16.63	-30.3	-31.5	13.4	1.98e-05	0	43	0	391118848	21	4142
2026-01-27 12:29:27.14	265.21	16.66	-30.1	-30.9	13.8	1.14e-05	0	44	0	392167424	21	3961
2026-01-27 12:29:28.14	265.43	16.68	-29.9	-30.4	14.1	1.50e-06	0	43	0	394264576	21	3825
2026-01-27 12:29:29.15	265.66	16.70	-30.0	-30.8	13.8	3.80e-06	0	43	0	396361728	21	3923
2026-01-27 12:29:30.15	265.88	16.72	-30.2	-31.3	13.5	1.60e-05	0	43	0	398458880	21	4060
2026-01-27 12:29:31.15	266.10	16.74	-30.2	-31.4	13.5	4.50e-06	0	43	0	399507456	21	4096
2026-01-27 12:29:32.15	266.32	16.76	-30.4	-31.7	13.3	1.29e-05	0	43	0	401604608	21	4192
2026-01-27 12:29:33.16	266.55	16.78	-30.6	-32.5	12.7	4.50e-05	0	44	0	403701760	21	4443
2026-01-27 12:29:34.15	266.77	16.80	-30.7	-32.6	12.7	6.56e-05	0	44	0	405798912	21	4473
2026-01-27 12:29:35.15	266.99	16.82	-30.6	-32.4	12.8	7.47e-05	0	43	0	407896064	21	4423
2026-01-27 12:29:36.15	267.21	16.83	-30.6	-32.3	12.9	5.26e-05	0	44	0	408944640	21	4388
2026-01-27 12:29:37.15	267.44	16.85	-30.6	-32.3	12.9	4.19e-05	0	44	0	411041792	21	4386
2026-01-27 12:29:38.16	267.66	16.87	-30.5	-32.0	13.0	4.04e-05	0	43	0	413138944	21	4303
2026-01-27 12:29:39.17	267.89	16.89	-30.6	-32.3	12.8	4.73e-05	0	43	0	415236096	21	4404
2026-01-27 12:29:40.16	268.11	16.90	-30.6	-32.2	12.8	5.41e-05	0	43	0	417333248	21	4366
2026-01-27 12:29:41.17	268.34	16.92	-30.5	-32.2	12.9	5.18e-05	0	43	0	418381824	21	4352
2026-01-27 12:29:42.17	268.56	16.93	-30.5	-32.0	13.0	5.18e-05	0	44	0	420478976	21	4306
2026-01-27 12:29:43.17	268.78	16.95	-30.3	-31.5	13.3	2.74e-05	0	44	0	422576128	21	4144
2026-01-27 12:29:44.18	269.01	16.97	-30.2	-31.2	13.5	9.90e-06	0	43	0	424673280	21	4055
2026-01-27 12:29:45.18	269.24	16.98	-30.3	-31.4	13.4	1.52e-05	0	44	0	426770432	21	4115
2026-01-27 12:29:46.18	269.46	16.99	-30.5	-32.1	13.0	2.82e-05	0	44	0	427819008	21	4330
2026-01-27 12:29:47.18	269.69	17.01	-30.5	-32.0	13.0	3.28e-05	0	43	0	429916160	21	4303
2026-01-27 12:29:48.19	269.92	17.02	-30.7	-32.6	12.6	1.03e-04	0	43	0	432013312	21	4498
2026-01-27 12:29:49.19	270.14	17.03	-30.8	-33.0	12.4	1.36e-04	0	44	0	434110464	21	4625
2026-01-27 12:29:50.20	270.37	17.05	-30.8	-33.0	12.3	1.70e-04	0	44	0	436207616	21	4636
2026-01-27 12:29:51.20	270.60	17.06	-30.9	-33.1	12.3	1.60e-04	0	43	0	437256192	21	4658
2026-01-27 12:29:52.20	270.82	17.07	-30.9	-33.2	12.2	2.25e-04	0	44	0	439353344	21	4712
2026-01-27 12:29:53.21	271.05	17.08	-31.1	-33.3	11.8	3.99e-04	0	43	0	441450496	22	4635
2026-01-27 12:29:54.21	271.28	17.09	-31.3	-33.9	11.4	9.28e-04	0	43	0	443547648	22	4852
2026-01-27 12:29:55.21	271.50	17.10	-31.2	-33.7	11.6	7.90e-04	0	44	0	444596224	22	4784
2026-01-27 12:29:56.21	271.73	17.11	-31.2	-33.7	11.7	6.36e-04	0	43	0	446693376	22	4766
2026-01-27 12:29:57.22	271.96	17.12	-31.3	-33.9	11.4	7.13e-04	0	43	0	448790528	22	4841
2026-01-27 12:29:58.21	272.19	17.13	-31.5	-34.0	11.0	1.83e-03	0	44	0	450887680	23	4793
2026-01-27 12:29:59.21	272.41	17.14	-31.5	-34.0	11.0	2.04e-03	0	44	0	452984832	23	4787
2026-01-27 12:30:00.21	272.64	17.15	-31.6	-34.4	10.6	3.23e-03	0	44	0	454033408	23	4968
2026-01-27 12:30:01.22	272.87	17.16	-31.5	-33.9	11.1	2.11e-03	0	44	0	456130560	23	4748
2026-01-27 12:30:02.21	273.10	17.16	-31.3	-33.4	11.4	1.22e-03	0	44	0	458227712	23	4595
2026-01-27 12:30:03.22	273.33	17.17	-31.3	-33.5	11.3	9.60e-04	0	43	0	460324864	23	4625
2026-01-27 12:30:04.22	273.55	17.18	-31.5	-34.1	10.9	1.61e-03	0	43	0	462422016	23	4831
2026-01-27 12:30:05.23	273.78	17.18	-31.4	-33.9	11.1	1.86e-03	0	43	0	463470592	23	4753
2026-01-27 12:30:06.23	274.01	17.19	-31.6	-34.2	10.8	2.08e-03	0	43	0	465567744	23	4892
2026-01-27 12:30:07.23	274.24	17.19	-31.3	-33.4	11.4	1.26e-03	0	43	0	467664896	23	4584
2026-01-27 12:30:08.24	274.47	17.20	-31.1	-32.7	11.9	4.90e-04	0	43	0	469762048	23	4346
2026-01-27 12:30:09.25	274.70	17.20	-31.0	-32.4	12.1	3.24e-04	0	44	0	471859200	23	4259
2026-01-27 12:30:10.25	274.93	17.21	-31.1	-32.7	11.9	3.81e-04	0	44	0	472907776	23	4337
2026-01-27 12:30:11.26	275.16	17.21	-31.2	-33.1	11.6	6.14e-04	0	43	0	475004928	23	4488
2026-01-27 12:30:12.26	275.39	17.21	-31.2	-33.1	11.6	5.93e-04	0	44	0	477102080	23	4472
2026-01-27 12:30:13.27	275.62	17.22	-31.2	-33.1	11.6	5.10e-04	0	43	0	479199232	23	4475
2026-01-27 12:30:14.27	275.85	17.22	-31.2	-33.1	11.6	7.05e-04	0	43	0	481296384	23	4481
2026-01-27 12:30:15.27	276.08	17.22	-31.2	-33.0	11.7	7.67e-04	0	43	0	482344960	23	4443
2026-01-27 12:30:16.28	276.31	17.22	-30.9	-32.3	12.2	4.23e-04	0	43	0	484442112	23	4202
2026-01-27 12:30:17.28	276.54	17.22	-30.7	-32.2	12.6	1.12e-04	0	44	0	486539264	22	4254
2026-01-27 12:30:18.28	276.77	17.22	-30.7	-32.2	12.6	1.05e-04	0	43	0	488636416	22	4273
2026-01-27 12:30:19.29	277.00	17.22	-31.0	-32.9	12.1	1.88e-04	0	43	0	490733568	22	4490
2026-01-27 12:30:20.29	277.23	17.22	-30.9	-32.6	12.3	1.78e-04	0	44	0	491782144	22	4394
2026-01-27 12:30:21.30	277.46	17.22	-30.8	-32.5	12.4	1.27e-04	0	43	0	493879296	22	4358
2026-01-27 12:30:22.30	277.68	17.22	-30.8	-32.3	12.5	1.49e-04	0	44	0	495976448	22	4309
2026-01-27 12:30:23.30	277.91	17.22	-30.8	-32.4	12.4	1.53e-04	0	44	0	498073600	22	4324
2026-01-27 12:30:24.31	278.14	17.21	-30.9	-32.6	12.3	1.98e-04	0	43	0	499122176	22	4394
2026-01-27 12:30:25.31	278.37	17.21	-30.7	-32.1	12.6	8.77e-05	0	44	0	501219328	22	4239
2026-01-27 12:30:26.31	278.60	17.21	-30.7	-32.1	12.7	4.80e-05	0	43	0	503316480	22	4222
2026-01-27 12:30:27.32	278.83	17.21	-30.7	-32.1	12.7	8.69e-05	0	43	0	505413632	22	4233
2026-01-27 12:30:28.32	279.06	17.20	-30.7	-32.2	12.6	1.07e-04	0	44	0	507510784	22	4264
2026-01-27 12:30:29.33	279.29	17.20	-30.6	-31.8	12.9	7.78e-05	0	43	0	509607936	22	4126
2026-01-27 12:30:30.33	279.52	17.19	-30.5	-31.4	13.1	2.82e-05	0	43	0	510656512	22	4021
2026-01-27 12:30:31.34	279.75	17.19	-30.4	-31.2	13.3	1.75e-05	0	44	0	512753664	22	3946
2026-01-27 12:30:32.34	279.98	17.18	-30.4	-31.2	13.3	1.44e-05	0	43	0	514850816	22	3952
2026-01-27 12:30:33.34	280.20	17.17	-30.5	-31.5	13.1	3.20e-05	0	44	0	516947968	22	4040
2026-01-27 12:30:34.34	280.43	17.17	-30.4	-31.3	13.2	2.51e-05	0	44	0	517996544	22	3981
2026-01-27 12:30:35.34	280.66	17.16	-30.5	-31.7	12.9	4.34e-05	0	43	0	520093696	22	4103
2026-01-27 12:30:36.34	280.89	17.15	-30.6	-31.9	12.9	5.56e-05	0	44	0	522190848	22	4164
2026-01-27 12:30:37.34	281.11	17.15	-30.7	-32.1	12.6	7.32e-05	0	44	0	524288000	22	4243
2026-01-27 12:30:38.35	281.34	17.14	-30.6	-31.7	12.9	6.79e-05	0	44	0	526385152	22	4120
2026-01-27 12:30:39.35	281.57	17.13	-30.5	-31.4	13.1	3.58e-05	0	43	0	527433728	22	4030
2026-01-27 12:30:40.36	281.80	17.12	-30.5	-31.7	13.0	3.89e-05	0	43	0	529530880	22	4112
2026-01-27 12:30:41.36	282.03	17.11	-30.6	-31.9	12.8	4.50e-05	0	44	0	531628032	22	4154
2026-01-27 12:30:42.36	282.25	17.10	-30.7	-32.1	12.7	7.55e-05	0	44	0	533725184	22	4227
2026-01-27 12:30:43.37	282.48	17.09	-30.8	-32.4	12.5	1.23e-04	0	44	0	535822336	22	4334
2026-01-27 12:30:44.37	282.71	17.08	-30.8	-32.5	12.3	1.52e-04	0	44	0	536870912	22	4372
2026-01-27 12:30:45.38	282.94	17.07	-30.7	-32.2	12.6	1.30e-04	0	44	0	538968064	22	4265
2026-01-27 12:30:46.39	283.17	17.05	-30.8	-32.5	12.4	1.07e-04	0	43	0	541065216	22	4357
2026-01-27 12:30:47.39	283.39	17.04	-30.8	-32.5	12.4	1.21e-04	0	44	0	543162368	22	4360
2026-01-27 12:30:48.40	283.62	17.03	-30.8	-32.5	12.3	2.04e-04	0	44	0	545259520	22	4368
2026-01-27 12:30:49.40	283.85	17.02	-30.9	-32.7	12.2	2.53e-04	0	44	0	546308096	22	4446
2026-01-27 12:30:50.40	284.07	17.00	-31.0	-33.0	12.0	2.82e-04	0	43	0	548405248	22	4531
2026-01-27 12:30:51.41	284.30	16.99	-31.1	-33.2	11.9	3.50e-04	0	43	0	550502400	22	4609
2026-01-27 12:30:52.41	284.52	16.98	-31.2	-33.5	11.7	6.35e-04	0	44	0	552599552	22	4705
2026-01-27 12:30:53.41	284.75	16.96	-31.2	-33.5	11.7	5.98e-04	0	44	0	554696704	22	4702
2026-01-27 12:30:54.42	284.97	16.95	-31.1	-33.4	11.8	7.29e-04	0	43	0	555745280	22	4655
2026-01-27 12:30:55.42	285.20	16.93	-31.1	-33.4	11.8	5.19e-04	0	44	0	557842432	22	4662
2026-01-27 12:30:56.42	285.42	16.91	-31.1	-33.1	11.9	6.52e-04	0	44	0	559939584	22	4583
2026-01-27 12:30:57.42	285.65	16.90	-30.8	-32.4	12.5	1.36e-04	0	44	0	562036736	22	4318
2026-01-27 12:30:58.43	285.87	16.88	-30.5	-31.4	13.1	3.28e-05	0	44	0	563085312	22	4029
2026-01-27 12:30:59.43	286.09	16.86	-30.3	-31.5	13.4	1.29e-05	0	43	0	565182464	21	4133
2026-01-27 12:31:00.43	286.32	16.85	-30.2	-31.2	13.6	1.06e-05	0	43	0	567279616	21	4037
2026-01-27 12:31:01.43	286.54	16.83	-30.0	-30.8	13.8	7.60e-06	0	44	0	569376768	21	3947
2026-01-27 12:31:02.43	286.76	16.81	-30.0	-30.9	13.7	5.30e-06	0	44	0	571473920	21	3952
2026-01-27 12:31:03.44	286.99	16.79	-30.0	-30.8	13.7	7.60e-06	0	44	0	572522496	21	3941
2026-01-27 12:31:04.44	287.21	16.77	-30.1	-30.9	13.7	9.10e-06	0	43	0	574619648	21	3959
2026-01-27 12:31:05.45	287.43	16.75	-30.3	-31.6	13.3	1.29e-05	0	44	0	576716800	21	4158
2026-01-27 12:31:06.45	287.65	16.73	-30.4	-31.8	13.1	2.67e-05	0	44	0	578813952	21	4240
2026-01-27 12:31:07.46	287.88	16.71	-30.5	-32.0	13.0	3.28e-05	0	43	0	580911104	21	4279
2026-01-27 12:31:08.46	288.10	16.69	-30.5	-32.0	13.0	4.57e-05	0	43	0	581959680	21	4290
2026-01-27 12:31:09.46	288.32	16.67	-30.6	-32.3	12.8	4.80e-05	0	44	0	584056832	21	4380
2026-01-27 12:31:10.47	288.54	16.65	-30.5	-32.1	12.9	5.11e-05	0	44	0	586153984	21	4335
2026-01-27 12:31:11.47	288.76	16.63	-30.6	-32.3	12.8	6.33e-05	0	44	0	588251136	21	4397
2026-01-27 12:31:12.47	288.98	16.60	-30.6	-32.4	12.7	6.33e-05	0	44	0	590348288	21	4417
2026-01-27 12:31:13.47	289.20	16.58	-30.6	-32.4	12.8	4.88e-05	0	43	0	591396864	21	4412
2026-01-27 12:31:14.48	289.42	16.56	-30.6	-32.3	12.8	6.63e-05	0	44	0	593494016	21	4378
2026-01-27 12:31:15.48	289.64	16.54	-30.4	-31.7	13.2	4.04e-05	0	43	0	595591168	21	4198
2026-01-27 12:31:16.48	289.86	16.51	-30.1	-31.0	13.6	1.52e-05	0	44	0	597688320	21	3997
2026-01-27 12:31:17.49	290.08	16.49	-30.0	-30.8	13.8	1.29e-05	0	43	0	599785472	21	3924
2026-01-27 12:31:18.49	290.29	16.46	-30.1	-30.9	13.7	4.50e-06	0	44	0	600834048	21	3973
2026-01-27 12:31:19.49	290.51	16.44	-30.2	-31.1	13.5	5.30e-06	0	43	0	602931200	21	4035
2026-01-27 12:31:20.50	290.73	16.41	-30.2	-31.3	13.4	1.22e-05	0	44	0	605028352	21	4093
2026-01-27 12:31:21.49	290.94	16.39	-30.3	-31.4	13.3	9.90e-06	0	43	0	607125504	21	4121
2026-01-27 12:31:22.50	291.16	16.36	-30.3	-31.5	13.4	1.06e-05	0	44	0	609222656	21	4140
2026-01-27 12:31:23.50	291.38	16.34	-30.3	-31.5	13.3	1.75e-05	0	44	0	610271232	21	4141
2026-01-27 12:31:24.51	291.60	16.31	-30.1	-31.1	13.6	1.22e-05	0	43	0	612368384	21	4009
2026-01-27 12:31:25.51	291.81	16.28	-30.1	-31.1	13.6	1.44e-05	0	43	0	614465536	21	4020
2026-01-27 12:31:26.52	292.03	16.25	-30.2	-31.4	13.4	1.14e-05	0	43	0	616562688	21	4111
2026-01-27 12:31:27.52	292.24	16.23	-30.3	-31.6	13.3	2.89e-05	0	44	0	617611264	21	4163
2026-01-27 12:31:28.53	292.46	16.20	-30.5	-32.1	12.9	1.90e-05	0	43	0	619708416	21	4339
2026-01-27 12:31:29.53	292.67	16.17	-30.6	-32.3	12.8	6.25e-05	0	43	0	621805568	21	4410
2026-01-27 12:31:30.53	292.88	16.14	-30.6	-32.4	12.7	6.25e-05	0	44	0	623902720	21	4431
2026-01-27 12:31:31.54	293.10	16.11	-30.7	-32.6	12.6	1.22e-04	0	44	0	625999872	21	4509
2026-01-27 12:31:32.54	293.31	16.08	-30.5	-32.1	12.9	4.42e-05	0	44	0	628097024	21	4328
2026-01-27 12:31:33.54	293.52	16.05	-30.5	-32.2	12.8	4.42e-05	0	44	0	629145600	21	4367
2026-01-27 12:31:34.55	293.74	16.02	-30.5	-32.1	12.9	5.18e-05	0	44	0	631242752	21	4335
2026-01-27 12:31:35.56	293.95	15.99	-30.3	-31.7	13.1	2.67e-05	0	43	0	633339904	21	4199
2026-01-27 12:31:36.56	294.16	15.96	-30.3	-31.6	13.3	2.82e-05	0	44	0	635437056	21	4165
2026-01-27 12:31:37.56	294.37	15.93	-30.4	-31.8	13.1	3.58e-05	0	43	0	636485632	21	4238
2026-01-27 12:31:38.56	294.58	15.90	-30.5	-32.0	12.9	2.67e-05	0	44	0	638582784	21	4313
2026-01-27 12:31:39.57	294.79	15.87	-30.4	-31.9	13.0	2.82e-05	0	43	0	640679936	21	4273
2026-01-27 12:31:40.56	295.00	15.84	-30.3	-31.7	13.2	2.97e-05	0	44	0	642777088	21	4190
2026-01-27 12:31:41.56	295.20	15.80	-30.0	-30.9	13.7	6.80e-06	0	44	0	644874240	21	3954
2026-01-27 12:31:42.57	295.41	15.77	-29.8	-30.3	14.0	4.50e-06	0	44	0	645922816	21	3810
2026-01-27 12:31:43.57	295.62	15.74	-29.6	-30.2	14.4	0.00e+00	0	43	0	648019968	20	3870
2026-01-27 12:31:44.57	295.83	15.70	-29.6	-30.1	14.4	0.00e+00	0	44	0	650117120	20	3848
2026-01-27 12:31:45.58	296.04	15.67	-29.5	-30.1	14.5	0.00e+00	0	43	0	652214272	20	3822
2026-01-27 12:31:46.59	296.25	15.64	-29.5	-30.0	14.5	2.20e-06	0	43	0	654311424	20	3808
2026-01-27 12:31:47.59	296.45	15.60	-29.6	-30.2	14.5	0.00e+00	0	44	0	655360000	20	3850
2026-01-27 12:31:48.59	296.66	15.57	-29.6	-30.2	14.4	0.00e+00	0	44	0	657457152	20	3872
2026-01-27 12:31:49.59	296.86	15.53	-29.7	-30.5	14.2	2.20e-06	0	43	0	659554304	20	3949
2026-01-27 12:31:50.59	297.06	15.50	-29.7	-30.6	14.2	7.00e-07	0	44	0	661651456	20	3978
2026-01-27 12:31:51.60	297.27	15.46	-29.9	-31.1	13.9	3.80e-06	0	43	0	663748608	20	4114
2026-01-27 12:31:52.60	297.47	15.43	-30.0	-31.2	13.8	4.50e-06	0	43	0	664797184	20	4140
2026-01-27 12:31:53.61	297.68	15.39	-29.9	-31.0	13.9	5.30e-06	0	44	0	666894336	20	4075
2026-01-27 12:31:54.61	297.88	15.35	-29.9	-30.9	14.0	5.30e-06	0	43	0	668991488	20	4053
2026-01-27 12:31:55.61	298.08	15.32	-29.9	-30.9	13.9	3.00e-06	0	43	0	671088640	20	4059
2026-01-27 12:31:56.62	298.29	15.28	-30.0	-31.3	13.7	2.20e-06	0	44	0	673185792	20	4180
2026-01-27 12:31:57.62	298.49	15.24	-30.0	-31.3	13.7	7.00e-07	0	43	0	674234368	20	4168
2026-01-27 12:31:58.62	298.69	15.21	-30.0	-31.3	13.7	4.50e-06	0	43	0	676331520	20	4193
2026-01-27 12:31:59.63	298.89	15.17	-30.0	-31.4	13.6	6.10e-06	0	44	0	678428672	20	4212
2026-01-27 12:32:00.63	299.09	15.13	-30.2	-31.7	13.4	8.30e-06	0	43	0	680525824	20	4308
2026-01-27 12:32:01.63	299.29	15.09	-30.2	-31.7	13.5	1.29e-05	0	43	0	682622976	20	4287
2026-01-27 12:32:02.63	299.48	15.06	-30.0	-31.2	13.7	6.80e-06	0	44	0	683671552	20	4154
2026-01-27 12:32:03.63	299.68	15.02	-30.0	-31.3	13.7	2.20e-06	0	43	0	685768704	20	4188
2026-01-27 12:32:04.64	299.88	14.98	-30.0	-31.2	13.8	8.30e-06	0	44	0	687865856	20	4135
2026-01-27 12:32:05.64	300.08	14.94	-29.8	-30.7	14.1	3.80e-06	0	44	0	689963008	20	4001
2026-01-27 12:32:06.65	300.28	14.90	-29.9	-31.1	13.8	1.50e-06	0	44	0	692060160	20	4108
2026-01-27 12:32:07.65	300.47	14.86	-29.8	-30.8	14.0	1.50e-06	0	44	0	693108736	20	4030
2026-01-27 12:32:08.66	300.67	14.82	-29.8	-30.6	14.1	3.80e-06	0	43	0	695205888	20	3980
2026-01-27 12:32:09.67	300.87	14.78	-29.6	-30.3	14.3	7.00e-07	0	44	0	697303040	20	3898
2026-01-27 12:32:10.67	301.06	14.74	-29.5	-30.0	14.5	1.50e-06	0	44	0	699400192	20	3824
2026-01-27 12:32:11.68	301.26	14.70	-29.6	-30.2	14.4	7.00e-07	0	44	0	701497344	20	3876
2026-01-27 12:32:12.69	301.45	14.66	-29.7	-30.6	14.1	1.50e-06	0	43	0	702545920	20	3967
2026-01-27 12:32:13.69	301.64	14.62	-29.8	-30.8	14.0	7.00e-07	0	44	0	704643072	20	4045
2026-01-27 12:32:14.69	301.84	14.57	-29.9	-31.0	13.9	2.20e-06	0	43	0	706740224	20	4087
2026-01-27 12:32:15.70	302.03	14.53	-29.8	-30.9	14.0	1.50e-06	0	44	0	708837376	20	4047
2026-01-27 12:32:16.70	302.22	14.49	-29.9	-31.1	13.8	5.30e-06	0	43	0	709885952	20	4109
2026-01-27 12:32:17.71	302.41	14.45	-29.9	-30.9	13.9	7.60e-06	0	44	0	711983104	20	4075
2026-01-27 12:32:18.71	302.60	14.41	-29.9	-31.1	13.7	6.80e-06	0	44	0	714080256	20	4130
2026-01-27 12:32:19.71	302.79	14.36	-30.0	-31.2	13.7	5.30e-06	0	43	0	716177408	20	4158
2026-01-27 12:32:20.71	302.98	14.32	-30.2	-31.8	13.3	1.37e-05	0	44	0	718274560	20	4342
2026-01-27 12:32:21.72	303.17	14.28	-30.3	-32.2	13.1	2.36e-05	0	43	0	719323136	20	4478
2026-01-27 12:32:22.72	303.36	14.24	-30.5	-32.2	12.7	5.49e-05	0	44	0	721420288	21	4392
2026-01-27 12:32:23.72	303.55	14.19	-30.7	-32.7	12.4	1.31e-04	0	44	0	723517440	21	4546
2026-01-27 12:32:24.73	303.74	14.15	-30.7	-32.8	12.3	2.11e-04	0	43	0	725614592	21	4594
2026-01-27 12:32:25.73	303.92	14.11	-30.8	-33.1	12.1	2.81e-04	0	44	0	727711744	21	4672
2026-01-27 12:32:26.73	304.11	14.06	-30.9	-33.3	12.0	2.92e-04	0	43	0	728760320	21	4751
2026-01-27 12:32:27.74	304.30	14.02	-30.9	-33.3	12.0	3.75e-04	0	43	0	730857472	21	4743
2026-01-27 12:32:28.74	304.48	13.97	-30.8	-33.0	12.2	2.99e-04	0	43	0	732954624	21	4648
2026-01-27 12:32:29.74	304.66	13.93	-30.5	-32.1	12.8	1.23e-04	0	44	0	735051776	21	4332
2026-01-27 12:32:30.75	304.85	13.88	-30.4	-31.9	12.9	5.34e-05	0	43	0	737148928	21	4266
2026-01-27 12:32:31.74	305.03	13.84	-30.3	-31.7	13.1	3.89e-05	0	43	0	738197504	21	4203
2026-01-27 12:32:32.75	305.21	13.80	-30.4	-32.0	12.9	4.34e-05	0	43	0	740294656	21	4297
2026-01-27 12:32:33.75	305.40	13.75	-30.4	-32.0	12.9	4.50e-05	0	44	0	742391808	21	4296
2026-01-27 12:32:34.75	305.58	13.70	-30.6	-32.5	12.5	7.32e-05	0	44	0	744488960	21	4486
2026-01-27 12:32:35.76	305.76	13.66	-30.7	-32.7	12.4	1.63e-04	0	43	0	746586112	21	4531
2026-01-27 12:32:36.76	305.94	13.61	-30.8	-33.0	12.1	2.26e-04	0	43	0	747634688	21	4661
2026-01-27 12:32:37.77	306.12	13.57	-30.8	-33.1	12.1	2.51e-04	0	44	0	749731840	21	4676
2026-01-27 12:32:38.77	306.30	13.52	-30.9	-33.2	12.1	2.24e-04	0	43	0	751828992	21	4701
2026-01-27 12:32:39.77	306.48	13.48	-30.8	-33.1	12.1	3.03e-04	0	43	0	753926144	21	4686
2026-01-27 12:32:40.77	306.66	13.43	-30.9	-33.5	11.9	4.11e-04	0	44	0	754974720	21	4814
2026-01-27 12:32:41.77	306.84	13.38	-30.8	-33.1	12.1	4.16e-04	0	44	0	757071872	21	4686
2026-01-27 12:32:42.78	307.02	13.34	-30.8	-33.2	12.0	1.81e-04	0	43	0	759169024	21	4715
2026-01-27 12:32:43.79	307.19	13.29	-30.8	-33.0	12.2	2.05e-04	0	44	0	761266176	21	4631
2026-01-27 12:32:44.79	307.37	13.24	-30.8	-33.0	12.2	1.54e-04	0	44	0	763363328	21	4651
2026-01-27 12:32:45.79	307.55	13.19	-30.9	-33.2	12.0	2.94e-04	0	43	0	765460480	21	4721
2026-01-27 12:32:46.80	307.72	13.15	-31.0	-33.1	11.8	3.78e-04	0	43	0	766509056	22	4583
2026-01-27 12:32:47.81	307.90	13.10	-31.2	-33.6	11.4	7.30e-04	0	44	0	768606208	22	4753
2026-01-27 12:32:48.81	308.07	13.05	-31.2	-33.8	11.3	1.10e-03	0	43	0	770703360	22	4827
2026-01-27 12:32:49.81	308.24	13.00	-31.3	-34.2	11.0	1.33e-03	0	43	0	772800512	22	4995
2026-01-27 12:32:50.82	308.42	12.96	-31.3	-34.1	11.0	1.89e-03	0	44	0	773849088	22	4970
2026-01-27 12:32:51.82	308.59	12.91	-31.3	-34.1	11.0	1.61e-03	0	44	0	775946240	22	4971
2026-01-27 12:32:52.82	308.76	12.86	-31.5	-34.6	10.8	1.79e-03	0	44	0	778043392	22	5141
2026-01-27 12:32:53.82	308.93	12.81	-31.6	-34.4	10.5	3.13e-03	0	44	0	780140544	23	4982
2026-01-27 12:32:54.82	309.10	12.76	-31.6	-34.5	10.4	3.33e-03	0	44	0	782237696	23	5042
2026-01-27 12:32:55.82	309.27	12.72	-31.7	-34.9	10.1	4.83e-03	0	44	0	783286272	23	5183
2026-01-27 12:32:56.82	309.44	12.67	-31.5	-34.3	10.5	5.72e-03	0	43	0	785383424	23	4961
2026-01-27 12:32:57.82	309.61	12.62	-31.6	-34.5	10.4	5.62e-03	0	44	0	787480576	23	5026
2026-01-27 12:32:58.82	309.78	12.57	-31.4	-33.9	10.8	4.33e-03	0	44	0	789577728	23	4800
2026-01-27 12:32:59.83	309.95	12.52	-31.1	-32.8	11.6	1.25e-03	0	44	0	791674880	23	4407
2026-01-27 12:33:00.81	310.11	12.47	-30.9	-32.3	12.0	4.84e-04	0	44	0	792723456	23	4251
2026-01-27 12:33:01.81	310.28	12.42	-30.8	-32.4	12.2	3.49e-04	0	44	0	794820608	22	4366
2026-01-27 12:33:02.81	310.45	12.37	-30.8	-32.5	12.2	2.62e-04	0	43	0	796917760	22	4372
2026-01-27 12:33:03.82	310.61	12.32	-30.9	-32.8	12.0	2.75e-04	0	43	0	799014912	22	4475
2026-01-27 12:33:04.82	310.78	12.27	-30.8	-32.6	12.1	3.91e-04	0	44	0	800063488	22	4424
2026-01-27 12:33:05.83	310.95	12.22	-30.9	-32.8	11.8	3.35e-04	0	44	0	802160640	22	4503
2026-01-27 12:33:06.83	311.11	12.17	-31.0	-33.0	11.7	5.70e-04	0	44	0	804257792	22	4577
2026-01-27 12:33:07.83	311.27	12.12	-30.9	-33.0	11.8	5.63e-04	0	44	0	806354944	22	4544
2026-01-27 12:33:08.83	311.44	12.07	-31.1	-33.3	11.6	5.76e-04	0	43	0	808452096	22	4680
2026-01-27 12:33:09.83	311.60	12.02	-30.9	-33.0	11.8	5.32e-04	0	43	0	810549248	22	4563
2026-01-27 12:33:10.84	311.76	11.97	-31.1	-33.6	11.4	7.05e-04	0	44	0	811597824	22	4766
2026-01-27 12:33:11.84	311.92	11.92	-31.1	-33.4	11.5	1.09e-03	0	43	0	813694976	22	4700
2026-01-27 12:33:12.84	312.08	11.87	-31.2	-33.7	11.3	7.32e-04	0	44	0	815792128	22	4820
2026-01-27 12:33:13.85	312.25	11.82	-31.2	-33.8	11.2	1.34e-03	0	43	0	817889280	22	4848
2026-01-27 12:33:14.86	312.41	11.77	-31.3	-34.0	11.0	1.20e-03	0	43	0	818937856	22	4938
2026-01-27 12:33:15.86	312.57	11.72	-31.3	-34.1	11.0	1.74e-03	0	43	0	821035008	22	4979
2026-01-27 12:33:16.87	312.73	11.67	-31.4	-34.4	10.7	2.04e-03	0	43	0	823132160	22	5112
2026-01-27 12:33:17.87	312.88	11.62	-31.3	-34.2	10.9	2.10e-03	0	43	0	825229312	22	5002
2026-01-27 12:33:18.88	313.04	11.57	-31.3	-34.3	10.8	2.48e-03	0	43	0	827326464	22	5061
2026-01-27 12:33:19.88	313.20	11.52	-31.3	-34.1	11.0	2.39e-03	0	43	0	828375040	22	4985
2026-01-27 12:33:20.89	313.36	11.46	-31.3	-34.2	10.9	2.05e-03	0	43	0	830472192	22	5022
2026-01-27 12:33:21.89	313.51	11.41	-31.4	-34.3	10.8	2.68e-03	0	43	0	832569344	22	5072
2026-01-27 12:33:22.90	313.67	11.36	-31.5	-34.3	10.4	4.04e-03	0	43	0	834666496	23	4966
2026-01-27 12:33:23.90	313.83	11.31	-31.6	-34.7	10.1	6.97e-03	0	43	0	836763648	23	5139
2026-01-27 12:33:24.91	313.98	11.26	-31.4	-34.0	10.6	5.17e-03	0	44	0	837812224	23	4841
2026-01-27 12:33:25.91	314.14	11.21	-31.3	-33.6	10.9	2.69e-03	0	44	0	839909376	23	4698
2026-01-27 12:33:26.91	314.29	11.16	-31.0	-32.8	11.5	1.14e-03	0	43	0	842006528	23	4417
2026-01-27 12:33:27.91	314.44	11.10	-31.0	-32.6	11.7	6.75e-04	0	44	0	844103680	23	4344
2026-01-27 12:33:28.91	314.59	11.05	-30.9	-32.4	11.7	6.15e-04	0	44	0	846200832	23	4278
2026-01-27 12:33:29.91	314.75	11.00	-30.7	-32.2	12.3	2.21e-04	0	43	0	847249408	22	4295
2026-01-27 12:33:30.92	314.90	10.95	-30.9	-32.9	11.8	3.70e-04	0	43	0	849346560	22	4535
2026-01-27 12:33:31.92	315.05	10.90	-30.6	-32.1	12.3	3.63e-04	0	44	0	851443712	22	4279
2026-01-27 12:33:32.93	315.20	10.84	-30.4	-31.5	12.7	1.12e-04	0	43	0	853540864	22	4091
2026-01-27 12:33:33.93	315.35	10.79	-30.6	-32.2	12.3	1.13e-04	0	43	0	855638016	22	4280
2026-01-27 12:33:34.93	315.50	10.74	-30.5	-31.7	12.6	9.84e-05	0	44	0	856686592	22	4128
2026-01-27 12:33:35.93	315.65	10.69	-30.6	-31.9	12.4	1.23e-04	0	44	0	858783744	22	4213
2026-01-27 12:33:36.93	315.80	10.64	-30.5	-31.8	12.5	1.48e-04	0	43	0	860880896	22	4161
2026-01-27 12:33:37.94	315.95	10.58	-30.6	-32.0	12.4	1.41e-04	0	43	0	862978048	22	4228
2026-01-27 12:33:38.93	316.09	10.53	-30.6	-32.0	12.4	1.65e-04	0	43	0	865075200	22	4227
2026-01-27 12:33:39.94	316.24	10.48	-30.5	-31.8	12.5	1.23e-04	0	43	0	866123776	22	4164
2026-01-27 12:33:40.94	316.39	10.43	-30.7	-32.3	12.1	1.89e-04	0	44	0	868220928	22	4339
2026-01-27 12:33:41.94	316.53	10.37	-30.6	-31.9	12.4	1.77e-04	0	44	0	870318080	22	4218
2026-01-27 12:33:42.94	316.68	10.32	-30.5	-31.7	12.5	1.14e-04	0	43	0	872415232	22	4156
2026-01-27 12:33:43.94	316.82	10.27	-30.4	-31.4	12.7	8.69e-05	0	44	0	873463808	22	4065
2026-01-27 12:33:44.94	316.97	10.22	-30.4	-31.5	12.7	9.53e-05	0	44	0	875560960	22	4088
2026-01-27 12:33:45.95	317.11	10.16	-30.5	-31.7	12.6	7.93e-05	0	43	0	877658112	22	4142
2026-01-27 12:33:46.95	317.25	10.11	-30.5	-31.9	12.4	1.27e-04	0	43	0	879755264	22	4195
2026-01-27 12:33:47.95	317.40	10.06	-30.5	-31.6	12.6	1.06e-04	0	43	0	881852416	22	4119
2026-01-27 12:33:48.96	317.54	10.00	-30.5	-31.7	12.6	8.23e-05	0	43	0	882900992	22	4135
2026-01-27 12:33:49.96	317.68	9.95	-30.6	-32.0	12.3	9.46e-05	0	43	0	884998144	22	4226
2026-01-27 12:33:50.96	317.82	9.90	-30.6	-32.0	12.3	1.62e-04	0	43	0	887095296	22	4246
2026-01-27 12:33:51.97	317.96	9.85	-30.6	-32.1	12.2	1.84e-04	0	44	0	889192448	22	4281
2026-01-27 12:33:52.97	318.10	9.79	-30.7	-32.4	12.0	3.25e-04	0	43	0	891289600	22	4381
2026-01-27 12:33:53.97	318.24	9.74	-30.7	-32.3	12.1	2.65e-04	0	43	0	892338176	22	4341
2026-01-27 12:33:54.98	318.38	9.69	-30.5	-31.8	12.4	1.98e-04	0	44	0	894435328	22	4192
2026-01-27 12:33:55.98	318.52	9.63	-30.6	-32.1	12.2	1.75e-04	0	43	0	896532480	22	4281
2026-01-27 12:33:56.97	318.66	9.58	-30.4	-31.5	12.6	1.74e-04	0	43	0	898629632	22	4091
2026-01-27 12:33:57.97	318.80	9.53	-30.3	-31.2	12.8	7.55e-05	0	43	0	900726784	22	4001
2026-01-27 12:33:58.97	318.93	9.48	-30.3	-31.7	12.8	4.19e-05	0	43	0	901775360	21	4231
2026-01-27 12:33:59.98	319.07	9.42	-30.1	-31.3	13.0	5.03e-05	0	43	0	903872512	21	4106
2026-01-27 12:34:00.98	319.21	9.37	-30.2	-31.5	12.9	3.35e-05	0	43	0	905969664	21	4169
2026-01-27 12:34:01.98	319.34	9.32	-30.4	-31.9	12.6	5.79e-05	0	43	0	908066816	21	4306
2026-01-27 12:34:02.99	319.48	9.26	-30.2	-31.4	13.0	7.47e-05	0	44	0	910163968	21	4154
2026-01-27 12:34:03.99	319.62	9.21	-30.2	-31.5	12.9	3.89e-05	0	44	0	911212544	21	4165
2026-01-27 12:34:04.99	319.75	9.16	-30.3	-31.8	12.7	6.48e-05	0	43	0	913309696	21	4281
2026-01-27 12:34:05.99	319.88	9.10	-30.2	-31.5	12.9	7.01e-05	0	43	0	915406848	21	4174
2026-01-27 12:34:07.00	320.02	9.05	-30.4	-32.0	12.5	4.42e-05	0	43	0	917504000	21	4334
2026-01-27 12:34:08.00	320.15	9.00	-30.4	-32.1	12.5	1.07e-04	0	44	0	918552576	21	4361
2026-01-27 12:34:09.01	320.28	8.94	-30.5	-32.4	12.3	1.59e-04	0	43	0	920649728	21	4466
2026-01-27 12:34:10.01	320.42	8.89	-30.5	-32.5	12.2	1.57e-04	0	43	0	922746880	21	4492
2026-01-27 12:34:11.01	320.55	8.84	-30.6	-32.8	12.0	3.24e-04	0	43	0	924844032	21	4605
2026-01-27 12:34:12.02	320.68	8.78	-30.6	-32.6	12.0	3.07e-04	0	44	0	926941184	21	4552
2026-01-27 12:34:13.02	320.81	8.73	-30.7	-32.9	11.8	3.25e-04	0	43	0	927989760	21	4652
2026-01-27 12:34:14.01	320.94	8.68	-30.7	-33.1	11.7	5.40e-04	0	43	0	930086912	21	4707
2026-01-27 12:34:15.02	321.07	8.62	-30.8	-33.1	11.7	5.37e-04	0	44	0	932184064	21	4736
2026-01-27 12:34:16.03	321.20	8.57	-30.8	-33.4	11.5	7.07e-04	0	43	0	934281216	21	4822
2026-01-27 12:34:17.03	321.33	8.51	-30.8	-33.2	11.6	6.23e-04	0	43	0	936378368	21	4765
2026-01-27 12:34:18.03	321.46	8.46	-30.8	-33.4	11.5	8.62e-04	0	43	0	937426944	21	4831
2026-01-27 12:34:19.04	321.59	8.41	-30.8	-33.3	11.5	7.49e-04	0	43	0	939524096	21	4797
2026-01-27 12:34:20.04	321.71	8.35	-30.7	-33.1	11.5	7.05e-04	0	44	0	941621248	21	4747
2026-01-27 12:34:21.04	321.84	8.30	-30.6	-32.8	11.8	5.41e-04	0	44	0	943718400	21	4631
2026-01-27 12:34:22.04	321.97	8.25	-30.6	-32.8	11.7	5.59e-04	0	43	0	945815552	21	4611
2026-01-27 12:34:23.05	322.10	8.19	-30.5	-32.3	12.1	4.45e-04	0	44	0	946864128	21	4456
2026-01-27 12:34:24.05	322.22	8.14	-30.5	-32.4	12.0	3.10e-04	0	44	0	948961280	21	4502
2026-01-27 12:34:25.05	322.35	8.09	-30.5	-32.4	12.0	2.27e-04	0	43	0	951058432	21	4504
2026-01-27 12:34:26.05	322.47	8.03	-30.6	-32.8	11.8	4.65e-04	0	43	0	953155584	21	4630
2026-01-27 12:34:27.05	322.60	7.98	-30.4	-32.1	12.0	4.18e-04	0	44	0	955252736	21	4403
2026-01-27 12:34:28.06	322.72	7.93	-30.4	-32.2	11.9	3.61e-04	0	44	0	956301312	21	4411
2026-01-27 12:34:29.06	322.84	7.87	-30.5	-32.5	11.6	5.75e-04	0	43	0	958398464	21	4541
2026-01-27 12:34:30.06	322.97	7.82	-30.4	-32.4	11.5	8.64e-04	0	43	0	960495616	21	4487
2026-01-27 12:34:31.06	323.09	7.77	-30.7	-33.0	11.2	1.20e-03	0	44	0	962592768	21	4728
2026-01-27 12:34:32.06	323.21	7.71	-30.7	-33.3	11.1	1.22e-03	0	43	0	963641344	21	4809
2026-01-27 12:34:33.06	323.33	7.66	-30.8	-33.6	10.9	1.41e-03	0	44	0	965738496	21	4922
2026-01-27 12:34:34.06	323.45	7.61	-30.9	-33.7	10.9	1.73e-03	0	43	0	967835648	21	4958
2026-01-27 12:34:35.06	323.57	7.55	-31.0	-34.0	10.8	2.20e-03	0	44	0	969932800	21	5085
2026-01-27 12:34:36.07	323.70	7.50	-30.9	-33.3	11.0	2.02e-03	0	44	0	972029952	22	4735
2026-01-27 12:34:37.07	323.82	7.45	-30.9	-33.2	11.2	1.25e-03	0	43	0	973078528	22	4686
2026-01-27 12:34:38.08	323.94	7.39	-30.8	-32.9	11.3	1.05e-03	0	43	0	975175680	22	4567
2026-01-27 12:34:39.08	324.06	7.34	-30.8	-32.9	10.9	1.64e-03	0	43	0	977272832	22	4571
2026-01-27 12:34:40.09	324.18	7.28	-30.8	-33.0	10.2	3.75e-03	0	43	0	979369984	22	4654
2026-01-27 12:34:41.09	324.29	7.23	-30.8	-33.1	10.6	3.90e-03	0	44	0	981467136	22	4656
2026-01-27 12:34:42.09	324.41	7.18	-30.9	-33.4	10.8	2.23e-03	0	44	0	982515712	22	4763
2026-01-27 12:34:43.10	324.53	7.12	-30.8	-33.1	9.5	3.19e-03	0	44	0	984612864	22	4687
2026-01-27 12:34:44.10	324.65	7.07	-30.4	-32.6	7.1	2.66e-02	0	43	0	986710016	22	4644
2026-01-27 12:34:45.10	324.76	7.02	-33.7	-45.8	3.8	1.49e+00	0	44	104	986710016	27	14484
2026-01-27 12:34:46.11	324.88	6.96	-34.0	-46.2	3.8	1.49e+00	0	43	104	986710016	28	14644
2026-01-27 12:34:47.10	325.00	6.91	-34.1	-46.5	3.8	1.49e+00	0	44	104	986710016	28	14944

#Closed at: 2026-01-27 12:34:47
#Recorded file [986 MB]: D:/data/31010_260127_152557.dat