passes_logs/2026/01/27/R2M6_AANII_01/R2M6_AANII_01__20260127_164603_FENGYUN_3E_rec.log

#Pass ID: 20260127_164603_FENGYUN 3E
#Satellite: FENGYUN 3E
#Configuration: FENGYUN 3E
#almurnet v.1.7.20240730
#Start time: 2026-01-27 16:46:02

#Version: 2.2.20231116
#Station: R2M6_AANII_01
#Location: 30.233357 lon 59.946436 lat
#TLE: 1 49008U 21062A   26026.84429991  .00000247  00000+0  13693-3 0  9991
#TLE: 2 49008  98.7501  31.8345 0002501 116.3456 243.7977 14.19887781236522

#Time	Az	El	Level	Level2	SNR	BER	BlckErr	Temp	State	Recorded	gain1	gain2
2026-01-27 16:46:02.89	234.22	6.97	-28.3	-30.0	5.6	7.24e-01	0	41	0	0	16	4376
2026-01-27 16:46:03.88	234.34	7.02	-29.9	-32.7	5.2	7.52e-01	0	41	104	0	19	4945
2026-01-27 16:46:04.89	234.46	7.07	-30.2	-33.1	8.2	5.26e-02	0	41	0	0	20	4998
2026-01-27 16:46:05.90	234.59	7.12	-30.0	-32.5	8.7	3.83e-02	0	41	0	7340032	20	4773
2026-01-27 16:46:06.90	234.71	7.17	-30.4	-33.5	8.0	5.27e-02	0	41	0	14680064	20	5141
2026-01-27 16:46:07.90	234.84	7.22	-30.1	-32.6	8.6	3.96e-02	0	41	0	22020096	20	4814
2026-01-27 16:46:08.90	234.97	7.27	-29.8	-32.4	9.2	2.43e-02	0	41	0	28311552	19	4824
2026-01-27 16:46:09.91	235.09	7.32	-30.0	-32.9	8.8	2.54e-02	0	41	0	35651584	19	5013
2026-01-27 16:46:10.91	235.22	7.37	-29.8	-32.3	9.2	2.26e-02	0	41	0	42991616	19	4785
2026-01-27 16:46:11.91	235.35	7.42	-29.4	-31.3	9.9	1.03e-02	0	41	0	50331648	19	4459
2026-01-27 16:46:12.92	235.48	7.47	-29.1	-31.0	10.5	3.90e-03	0	41	0	57671680	18	4468
2026-01-27 16:46:13.92	235.60	7.52	-28.9	-30.3	10.9	2.52e-03	0	41	0	65011712	18	4244
2026-01-27 16:46:14.93	235.73	7.57	-28.7	-30.5	11.1	1.27e-03	0	41	0	72351744	17	4397
2026-01-27 16:46:15.93	235.86	7.62	-28.8	-30.7	11.0	1.34e-03	0	41	0	79691776	17	4456
2026-01-27 16:46:16.94	235.99	7.67	-28.7	-30.3	11.2	1.66e-03	0	41	0	85983232	17	4353
2026-01-27 16:46:17.94	236.12	7.72	-29.1	-31.3	10.6	2.57e-03	0	41	0	94371840	17	4650
2026-01-27 16:46:18.95	236.25	7.77	-28.6	-30.1	11.4	1.30e-03	0	41	0	101711872	17	4290
2026-01-27 16:46:19.94	236.38	7.82	-28.3	-29.4	11.8	4.32e-04	0	41	0	108003328	17	4081
2026-01-27 16:46:20.95	236.52	7.87	-27.9	-28.9	12.4	1.83e-04	0	41	0	115343360	16	4054
2026-01-27 16:46:21.95	236.65	7.92	-27.5	-28.5	12.8	4.92e-05	0	41	0	122683392	15	4044
2026-01-27 16:46:22.95	236.78	7.97	-27.1	-27.6	13.3	2.28e-05	0	41	0	130023424	15	3828
2026-01-27 16:46:23.96	236.91	8.02	-26.9	-28.2	13.6	5.70e-06	0	41	0	137363456	13	4171
2026-01-27 16:46:24.96	237.04	8.07	-27.0	-28.4	13.5	1.02e-05	0	41	0	144703488	13	4235
2026-01-27 16:46:25.97	237.18	8.12	-27.2	-28.3	13.3	2.51e-05	0	41	0	152043520	14	4085
2026-01-27 16:46:26.97	237.31	8.17	-27.2	-28.4	13.2	2.74e-05	0	41	0	159383552	14	4135
2026-01-27 16:46:27.97	237.45	8.22	-27.0	-28.0	13.4	1.83e-05	0	41	0	166723584	14	4013
2026-01-27 16:46:28.97	237.58	8.27	-26.9	-27.7	13.6	4.50e-06	0	41	0	173015040	14	3942
2026-01-27 16:46:29.98	237.72	8.32	-26.9	-28.2	13.6	2.20e-06	0	42	0	180355072	13	4171
2026-01-27 16:46:30.98	237.85	8.37	-26.9	-28.2	13.6	4.50e-06	0	42	0	187695104	13	4179
2026-01-27 16:46:31.98	237.99	8.42	-26.7	-27.7	13.9	1.10e-06	0	42	0	195035136	13	4033
2026-01-27 16:46:32.98	238.12	8.47	-26.6	-27.5	14.0	1.10e-06	0	42	0	202375168	13	3982
2026-01-27 16:46:33.98	238.26	8.52	-26.5	-27.8	14.2	0.00e+00	0	42	0	209715200	12	4164
2026-01-27 16:46:34.98	238.40	8.57	-26.5	-27.7	14.2	1.10e-06	0	42	0	217055232	12	4156
2026-01-27 16:46:35.98	238.54	8.62	-26.7	-27.7	13.9	2.20e-06	0	42	0	224395264	13	4050
2026-01-27 16:46:36.98	238.67	8.67	-26.7	-27.8	13.8	2.20e-06	0	42	0	230686720	13	4072
2026-01-27 16:46:37.99	238.81	8.72	-26.6	-27.5	14.0	2.20e-06	0	42	0	239075328	13	3983
2026-01-27 16:46:39.00	238.95	8.77	-26.8	-27.9	13.8	3.40e-06	0	42	0	246415360	13	4099
2026-01-27 16:46:40.00	239.09	8.82	-26.7	-27.8	13.8	5.70e-06	0	42	0	252706816	13	4070
2026-01-27 16:46:41.01	239.24	8.87	-26.8	-27.9	13.8	3.40e-06	0	42	0	260046848	13	4105
2026-01-27 16:46:42.02	239.38	8.91	-26.8	-28.0	13.8	3.40e-06	0	42	0	267386880	13	4115
2026-01-27 16:46:43.03	239.52	8.96	-26.7	-27.8	13.9	9.10e-06	0	42	0	274726912	13	4064
2026-01-27 16:46:44.03	239.66	9.01	-26.7	-27.7	14.0	4.50e-06	0	42	0	282066944	13	4035
2026-01-27 16:46:45.04	239.80	9.06	-26.7	-27.7	13.9	0.00e+00	0	42	0	289406976	13	4050
2026-01-27 16:46:46.05	239.95	9.11	-26.7	-27.6	14.0	6.80e-06	0	42	0	296747008	13	4026
2026-01-27 16:46:47.05	240.09	9.16	-26.5	-27.3	14.2	1.10e-06	0	42	0	304087040	13	3932
2026-01-27 16:46:48.06	240.23	9.21	-26.5	-27.7	14.2	1.10e-06	0	42	0	311427072	12	4154
2026-01-27 16:46:49.06	240.38	9.26	-26.5	-27.4	14.2	4.50e-06	0	42	0	318767104	13	3957
2026-01-27 16:46:50.07	240.52	9.31	-26.5	-27.4	14.1	2.20e-06	0	42	0	326107136	13	3954
2026-01-27 16:46:51.06	240.67	9.36	-26.5	-27.3	14.2	0.00e+00	0	42	0	333447168	13	3940
2026-01-27 16:46:52.07	240.81	9.41	-26.4	-27.6	14.3	2.20e-06	0	42	0	339738624	12	4132
2026-01-27 16:46:53.07	240.96	9.45	-26.5	-27.7	14.2	0.00e+00	0	42	0	347078656	12	4140
2026-01-27 16:46:54.07	241.10	9.50	-26.5	-27.7	14.3	0.00e+00	0	42	0	354418688	12	4135
2026-01-27 16:46:55.07	241.25	9.55	-26.5	-27.7	14.2	1.10e-06	0	42	0	361758720	12	4156
2026-01-27 16:46:56.08	241.40	9.60	-26.5	-27.8	14.2	2.20e-06	0	42	0	369098752	12	4177
2026-01-27 16:46:57.07	241.54	9.65	-26.4	-27.6	14.3	1.10e-06	0	42	0	376438784	12	4125
2026-01-27 16:46:58.08	241.69	9.70	-26.5	-27.8	14.2	0.00e+00	0	42	0	383778816	12	4185
2026-01-27 16:46:59.08	241.84	9.74	-26.4	-27.6	12.0	2.20e-06	0	42	0	391118848	12	4121
2026-01-27 16:47:00.09	241.99	9.79	-26.4	-27.6	14.3	1.35e-03	0	42	0	398458880	12	4129
2026-01-27 16:47:01.10	242.14	9.84	-26.6	-27.5	14.1	2.20e-06	0	42	0	405798912	13	3984
2026-01-27 16:47:02.10	242.29	9.89	-26.5	-27.7	14.2	1.44e-03	0	42	0	413138944	12	4157
2026-01-27 16:47:03.10	242.44	9.94	-26.3	-27.4	14.4	1.10e-06	0	42	0	420478976	12	4069
2026-01-27 16:47:04.11	242.60	9.98	-26.4	-27.5	14.4	0.00e+00	0	42	0	426770432	12	4092
2026-01-27 16:47:05.11	242.75	10.03	-26.3	-27.3	14.3	1.60e-03	0	42	0	434110464	12	4043
2026-01-27 16:47:06.12	242.90	10.08	-26.3	-27.3	14.5	0.00e+00	0	42	0	441450496	12	4045
2026-01-27 16:47:07.12	243.05	10.13	-26.3	-27.2	14.6	1.10e-06	0	42	0	448790528	12	4028
2026-01-27 16:47:08.12	243.20	10.17	-26.3	-27.2	14.6	9.82e-04	0	42	0	456130560	12	4024
2026-01-27 16:47:09.12	243.36	10.22	-26.3	-27.4	14.5	0.00e+00	0	42	0	463470592	12	4061
2026-01-27 16:47:10.13	243.51	10.27	-26.4	-27.6	14.4	2.20e-06	0	42	0	470810624	12	4112
2026-01-27 16:47:11.14	243.67	10.32	-26.6	-27.6	14.1	1.10e-06	0	42	0	478150656	13	4018
2026-01-27 16:47:12.14	243.82	10.36	-26.4	-27.5	14.4	1.47e-03	0	42	0	485490688	12	4106
2026-01-27 16:47:13.14	243.98	10.41	-26.4	-27.5	14.4	3.16e-04	0	42	0	492830720	12	4097
2026-01-27 16:47:14.15	244.13	10.46	-26.4	-27.4	14.4	2.01e-03	0	43	0	500170752	12	4078
2026-01-27 16:47:15.15	244.29	10.50	-26.4	-27.5	14.4	1.96e-03	0	42	0	506462208	12	4084
2026-01-27 16:47:16.16	244.45	10.55	-26.3	-27.2	14.6	4.05e-04	0	42	0	513802240	12	4026
2026-01-27 16:47:17.16	244.60	10.60	-26.2	-27.1	14.6	1.96e-03	0	42	0	521142272	12	3992
2026-01-27 16:47:18.17	244.76	10.64	-26.3	-27.2	14.6	1.65e-03	0	42	0	528482304	12	4018
2026-01-27 16:47:19.17	244.92	10.69	-26.2	-27.0	14.7	2.71e-04	0	42	0	535822336	12	3960
2026-01-27 16:47:20.16	245.08	10.74	-26.0	-26.7	14.9	1.45e-03	0	42	0	543162368	12	3897
2026-01-27 16:47:21.16	245.24	10.78	-26.1	-27.0	14.8	0.00e+00	0	42	0	550502400	12	3957
2026-01-27 16:47:22.16	245.40	10.83	-26.2	-27.1	14.7	1.99e-04	0	42	0	557842432	12	3986
2026-01-27 16:47:23.16	245.56	10.87	-26.2	-27.1	14.7	1.15e-03	0	42	0	565182464	12	3993
2026-01-27 16:47:24.16	245.72	10.92	-26.1	-26.9	14.8	0.00e+00	0	43	0	571473920	12	3948
2026-01-27 16:47:25.17	245.88	10.97	-26.1	-26.9	14.8	4.89e-04	0	42	0	578813952	12	3951
2026-01-27 16:47:26.17	246.04	11.01	-26.1	-26.9	14.8	2.36e-04	0	43	0	586153984	12	3937
2026-01-27 16:47:27.17	246.20	11.06	-26.0	-26.7	14.9	1.94e-03	0	43	0	593494016	12	3900
2026-01-27 16:47:28.18	246.37	11.10	-26.0	-26.7	14.9	7.38e-04	0	42	0	600834048	12	3896
2026-01-27 16:47:29.19	246.53	11.15	-26.2	-27.0	14.7	2.96e-04	0	43	0	608174080	12	3969
2026-01-27 16:47:30.19	246.69	11.19	-26.1	-26.8	14.9	2.25e-03	0	42	0	615514112	12	3906
2026-01-27 16:47:31.19	246.86	11.24	-26.2	-27.0	14.7	2.83e-04	0	42	0	622854144	12	3967
2026-01-27 16:47:32.20	247.02	11.28	-26.3	-27.3	14.6	2.83e-04	0	43	0	630194176	12	4048
2026-01-27 16:47:33.20	247.19	11.33	-26.1	-26.8	14.9	0.00e+00	0	42	0	637534208	12	3920
2026-01-27 16:47:34.20	247.35	11.37	-26.2	-27.2	14.7	1.85e-04	0	43	0	644874240	12	4005
2026-01-27 16:47:35.20	247.52	11.42	-26.1	-26.9	14.8	1.64e-03	0	42	0	652214272	12	3929
2026-01-27 16:47:36.20	247.68	11.46	-26.1	-26.9	14.8	0.00e+00	0	43	0	658505728	12	3943
2026-01-27 16:47:37.21	247.85	11.50	-26.1	-26.9	14.9	0.00e+00	0	43	0	665845760	12	3931
2026-01-27 16:47:38.21	248.02	11.55	-26.2	-27.0	14.8	0.00e+00	0	43	0	673185792	12	3967
2026-01-27 16:47:39.21	248.19	11.59	-26.0	-26.6	15.0	0.00e+00	0	43	0	680525824	12	3870
2026-01-27 16:47:40.22	248.36	11.64	-26.0	-26.7	14.9	0.00e+00	0	43	0	687865856	12	3893
2026-01-27 16:47:41.22	248.52	11.68	-26.0	-27.2	15.0	0.00e+00	0	43	0	695205888	11	4110
2026-01-27 16:47:42.23	248.70	11.72	-26.0	-26.6	15.0	1.10e-06	0	43	0	702545920	12	3869
2026-01-27 16:47:43.24	248.87	11.77	-25.9	-27.0	15.1	0.00e+00	0	43	0	709885952	11	4057
2026-01-27 16:47:44.23	249.04	11.81	-25.9	-26.9	15.2	0.00e+00	0	43	0	716177408	11	4038
2026-01-27 16:47:45.23	249.21	11.85	-26.0	-27.0	15.1	0.00e+00	0	43	0	723517440	11	4068
2026-01-27 16:47:46.24	249.38	11.90	-25.9	-26.9	15.2	1.10e-06	0	43	0	730857472	11	4032
2026-01-27 16:47:47.23	249.55	11.94	-25.8	-26.7	15.3	0.00e+00	0	43	0	738197504	11	3998
2026-01-27 16:47:48.24	249.72	11.98	-25.8	-26.7	15.3	0.00e+00	0	43	0	745537536	11	3985
2026-01-27 16:47:49.25	249.90	12.02	-25.9	-26.9	15.2	0.00e+00	0	43	0	752877568	11	4034
2026-01-27 16:47:50.25	250.07	12.07	-25.8	-26.7	15.3	0.00e+00	0	43	0	760217600	11	3994
2026-01-27 16:47:51.25	250.24	12.11	-25.9	-26.8	15.3	0.00e+00	0	43	0	767557632	11	4021
2026-01-27 16:47:52.26	250.42	12.15	-25.7	-26.5	15.5	0.00e+00	0	43	0	774897664	11	3934
2026-01-27 16:47:53.26	250.59	12.19	-25.8	-26.6	15.4	0.00e+00	0	43	0	782237696	11	3965
2026-01-27 16:47:54.26	250.77	12.23	-25.9	-26.8	15.3	0.00e+00	0	43	0	789577728	11	4003
2026-01-27 16:47:55.27	250.94	12.28	-25.8	-26.6	15.4	0.00e+00	0	43	0	796917760	11	3967
2026-01-27 16:47:56.27	251.12	12.32	-25.7	-26.5	15.5	0.00e+00	0	43	0	803209216	11	3934
2026-01-27 16:47:57.28	251.30	12.36	-25.8	-26.7	15.4	0.00e+00	0	43	0	810549248	11	3989
2026-01-27 16:47:58.28	251.47	12.40	-25.6	-26.2	15.6	0.00e+00	0	43	0	817889280	11	3863
2026-01-27 16:47:59.28	251.65	12.44	-25.5	-26.1	15.7	0.00e+00	0	43	0	825229312	11	3844
2026-01-27 16:48:00.29	251.83	12.48	-25.6	-26.2	15.6	0.00e+00	0	43	0	832569344	11	3873
2026-01-27 16:48:01.29	252.01	12.52	-25.7	-26.4	15.6	0.00e+00	0	43	0	839909376	11	3900
2026-01-27 16:48:02.30	252.19	12.56	-25.5	-26.0	15.8	0.00e+00	0	43	0	847249408	11	3814
2026-01-27 16:48:03.30	252.37	12.60	-25.5	-25.9	15.8	0.00e+00	0	43	0	854589440	11	3791
2026-01-27 16:48:04.30	252.55	12.64	-25.6	-26.2	15.6	0.00e+00	0	43	0	861929472	11	3866
2026-01-27 16:48:05.31	252.73	12.68	-25.5	-26.0	15.7	0.00e+00	0	43	0	869269504	11	3820
2026-01-27 16:48:06.32	252.91	12.72	-25.5	-26.1	15.7	0.00e+00	0	43	0	876609536	11	3836
2026-01-27 16:48:07.32	253.09	12.76	-25.6	-26.7	15.7	0.00e+00	0	43	0	882900992	10	4090
2026-01-27 16:48:08.32	253.27	12.80	-25.4	-26.4	15.8	0.00e+00	0	43	0	890241024	10	4011
2026-01-27 16:48:09.33	253.46	12.84	-25.6	-26.6	15.7	0.00e+00	0	43	0	897581056	10	4072
2026-01-27 16:48:10.33	253.64	12.87	-25.4	-26.4	15.8	0.00e+00	0	43	0	904921088	10	4014
2026-01-27 16:48:11.33	253.82	12.91	-25.5	-26.1	15.7	0.00e+00	0	43	0	912261120	11	3829
2026-01-27 16:48:12.34	254.01	12.95	-25.9	-26.8	15.3	0.00e+00	0	43	0	919601152	11	4008
2026-01-27 16:48:13.34	254.19	12.99	-25.9	-26.8	15.3	0.00e+00	0	43	0	926941184	11	4017
2026-01-27 16:48:14.35	254.38	13.03	-25.6	-26.2	15.6	0.00e+00	0	43	0	934281216	11	3858
2026-01-27 16:48:15.35	254.56	13.06	-25.5	-26.1	15.7	0.00e+00	0	43	0	941621248	11	3827
2026-01-27 16:48:16.36	254.75	13.10	-25.5	-26.1	15.8	0.00e+00	0	43	0	948961280	11	3831
2026-01-27 16:48:17.36	254.93	13.14	-25.7	-26.4	15.6	0.00e+00	0	43	0	956301312	11	3918
2026-01-27 16:48:18.36	255.12	13.18	-25.6	-26.3	15.6	0.00e+00	0	43	0	963641344	11	3897
2026-01-27 16:48:19.36	255.31	13.21	-25.6	-26.2	15.7	0.00e+00	0	43	0	969932800	11	3866
2026-01-27 16:48:20.36	255.49	13.25	-25.6	-26.3	15.6	0.00e+00	0	43	0	977272832	11	3886
2026-01-27 16:48:21.36	255.68	13.29	-25.7	-26.4	15.6	0.00e+00	0	43	0	984612864	11	3917
2026-01-27 16:48:22.36	255.87	13.32	-25.8	-26.7	15.4	0.00e+00	0	43	0	991952896	11	3986
2026-01-27 16:48:23.37	256.06	13.36	-25.7	-26.4	15.6	0.00e+00	0	43	0	999292928	11	3907
2026-01-27 16:48:24.37	256.25	13.39	-25.7	-26.5	15.5	0.00e+00	0	43	0	1006632960	11	3940
2026-01-27 16:48:25.38	256.44	13.43	-25.6	-26.1	15.7	0.00e+00	0	43	0	1013972992	11	3840
2026-01-27 16:48:26.38	256.63	13.46	-25.5	-26.6	15.7	0.00e+00	0	43	0	1021313024	10	4061
2026-01-27 16:48:27.38	256.82	13.50	-25.7	-26.4	15.6	0.00e+00	0	43	0	1028653056	11	3912
2026-01-27 16:48:28.39	257.01	13.53	-25.8	-26.2	15.3	0.00e+00	0	43	0	1034944512	12	3770
2026-01-27 16:48:29.39	257.20	13.57	-25.6	-26.2	15.7	0.00e+00	0	43	0	1042284544	11	3864
2026-01-27 16:48:30.39	257.39	13.60	-25.6	-26.3	15.6	0.00e+00	0	43	0	1050673152	11	3874
2026-01-27 16:48:31.39	257.58	13.63	-25.7	-26.4	15.6	0.00e+00	0	43	0	1056964608	11	3909
2026-01-27 16:48:32.39	257.78	13.67	-25.7	-26.4	11.5	0.00e+00	0	43	0	1064304640	11	3921
2026-01-27 16:48:33.40	257.97	13.70	-25.6	-26.2	15.6	0.00e+00	0	43	0	1071644672	11	3857
2026-01-27 16:48:34.40	258.16	13.73	-25.4	-26.3	15.9	0.00e+00	0	43	0	1078984704	10	3989
2026-01-27 16:48:35.41	258.36	13.77	-25.5	-26.5	15.8	1.34e-04	0	43	0	1086324736	10	4035
2026-01-27 16:48:36.40	258.55	13.80	-25.5	-26.5	15.8	0.00e+00	0	43	0	1093664768	10	4049
2026-01-27 16:48:37.40	258.74	13.83	-25.3	-26.1	16.0	0.00e+00	0	43	0	1101004800	10	3933
2026-01-27 16:48:38.41	258.94	13.86	-25.3	-26.1	16.0	0.00e+00	0	43	0	1108344832	10	3932
2026-01-27 16:48:39.42	259.14	13.90	-25.3	-26.0	16.1	0.00e+00	0	43	0	1114636288	10	3911
2026-01-27 16:48:40.43	259.33	13.93	-25.3	-26.0	16.0	2.29e-03	0	43	0	1121976320	10	3925
2026-01-27 16:48:41.43	259.53	13.96	-25.4	-26.3	15.9	0.00e+00	0	43	0	1129316352	10	3996
2026-01-27 16:48:42.43	259.73	13.99	-25.4	-26.3	14.6	0.00e+00	0	43	0	1136656384	10	3995
2026-01-27 16:48:43.43	259.92	14.02	-25.4	-26.3	15.9	3.01e-04	0	43	0	1143996416	10	3984
2026-01-27 16:48:44.43	260.12	14.05	-25.4	-26.2	15.9	0.00e+00	0	43	0	1151336448	10	3979
2026-01-27 16:48:45.42	260.32	14.08	-25.3	-26.2	16.0	5.83e-05	0	43	0	1158676480	10	3965
2026-01-27 16:48:46.43	260.52	14.11	-25.4	-26.3	16.0	0.00e+00	0	43	0	1166016512	10	3978
2026-01-27 16:48:47.42	260.71	14.14	-25.3	-26.0	16.1	1.72e-03	0	43	0	1173356544	10	3912
2026-01-27 16:48:48.42	260.91	14.17	-25.3	-26.1	16.0	0.00e+00	0	43	0	1179648000	10	3940
2026-01-27 16:48:49.43	261.11	14.20	-25.3	-26.1	16.0	0.00e+00	0	43	0	1186988032	10	3938
2026-01-27 16:48:50.43	261.31	14.23	-25.2	-26.0	16.1	1.71e-03	0	43	0	1194328064	10	3905
2026-01-27 16:48:51.44	261.51	14.26	-25.3	-26.0	16.1	5.03e-05	0	43	0	1201668096	10	3927
2026-01-27 16:48:52.43	261.71	14.28	-25.3	-26.1	16.0	1.58e-03	0	43	0	1209008128	10	3953
2026-01-27 16:48:53.44	261.91	14.31	-25.3	-26.1	16.0	1.29e-03	0	43	0	1216348160	10	3945
2026-01-27 16:48:54.44	262.11	14.34	-25.4	-26.3	16.0	1.14e-05	0	43	0	1223688192	10	3991
2026-01-27 16:48:55.44	262.31	14.37	-25.4	-26.3	15.9	1.18e-03	0	43	0	1231028224	10	3997
2026-01-27 16:48:56.45	262.52	14.39	-25.4	-26.4	15.9	8.32e-04	0	43	0	1238368256	10	4016
2026-01-27 16:48:57.45	262.72	14.42	-25.4	-26.2	16.0	4.71e-04	0	43	0	1245708288	10	3967
2026-01-27 16:48:58.45	262.92	14.45	-25.3	-26.1	16.0	1.46e-03	0	43	0	1253048320	10	3953
2026-01-27 16:48:59.45	263.12	14.47	-25.3	-26.1	16.1	0.00e+00	0	43	0	1260388352	10	3940
2026-01-27 16:49:00.45	263.33	14.50	-25.2	-25.9	16.1	9.41e-04	0	43	0	1266679808	10	3893
2026-01-27 16:49:01.46	263.53	14.52	-25.2	-25.8	16.2	2.11e-03	0	43	0	1274019840	10	3875
2026-01-27 16:49:02.46	263.73	14.55	-25.2	-25.7	16.2	1.71e-03	0	43	0	1281359872	10	3853
2026-01-27 16:49:03.46	263.94	14.57	-25.2	-25.8	16.2	1.61e-04	0	43	0	1288699904	10	3860
2026-01-27 16:49:04.46	264.14	14.60	-25.1	-25.7	16.3	0.00e+00	0	43	0	1296039936	10	3833
2026-01-27 16:49:05.46	264.35	14.62	-25.1	-25.7	16.3	1.70e-03	0	43	0	1303379968	10	3840
2026-01-27 16:49:06.46	264.55	14.65	-25.2	-25.9	16.1	1.60e-04	0	43	0	1310720000	10	3902
2026-01-27 16:49:07.46	264.76	14.67	-25.2	-25.9	16.2	1.70e-04	0	43	0	1318060032	10	3901
2026-01-27 16:49:08.47	264.96	14.69	-25.2	-25.9	16.2	1.95e-03	0	43	0	1324351488	10	3894
2026-01-27 16:49:09.47	265.17	14.72	-25.2	-25.9	16.2	0.00e+00	0	43	0	1331691520	10	3903
2026-01-27 16:49:10.48	265.38	14.74	-25.4	-26.2	16.0	2.90e-03	0	43	0	1339031552	10	3965
2026-01-27 16:49:11.48	265.58	14.76	-25.3	-26.1	16.1	2.06e-03	0	43	0	1346371584	10	3938
2026-01-27 16:49:12.49	265.79	14.78	-25.3	-26.1	16.1	1.01e-03	0	43	0	1353711616	10	3927
2026-01-27 16:49:13.49	266.00	14.81	-25.4	-26.3	16.0	0.00e+00	0	43	0	1361051648	10	3985
2026-01-27 16:49:14.49	266.21	14.83	-25.3	-26.1	16.0	2.20e-06	0	43	0	1368391680	10	3943
2026-01-27 16:49:15.50	266.42	14.85	-25.2	-25.9	16.2	1.30e-03	0	43	0	1375731712	10	3899
2026-01-27 16:49:16.50	266.62	14.87	-25.1	-25.6	16.3	0.00e+00	0	43	0	1383071744	10	3824
2026-01-27 16:49:17.50	266.83	14.89	-25.2	-25.9	16.3	2.20e-06	0	43	0	1390411776	10	3883
2026-01-27 16:49:18.51	267.04	14.91	-25.2	-25.8	16.2	0.00e+00	0	43	0	1397751808	10	3868
2026-01-27 16:49:19.51	267.25	14.93	-25.1	-25.7	16.3	0.00e+00	0	43	0	1405091840	10	3842
2026-01-27 16:49:20.51	267.46	14.95	-25.2	-25.9	16.3	0.00e+00	0	43	0	1411383296	10	3879
2026-01-27 16:49:21.52	267.67	14.97	-25.3	-26.1	16.1	0.00e+00	0	43	0	1418723328	10	3934
2026-01-27 16:49:22.53	267.88	14.98	-25.4	-26.4	15.9	0.00e+00	0	43	0	1426063360	10	4004
2026-01-27 16:49:23.52	268.09	15.00	-25.5	-26.0	15.9	0.00e+00	0	43	0	1433403392	11	3807
2026-01-27 16:49:24.52	268.30	15.02	-25.4	-26.2	16.1	0.00e+00	0	43	0	1440743424	10	3947
2026-01-27 16:49:25.53	268.51	15.04	-25.3	-26.1	16.1	0.00e+00	0	43	0	1448083456	10	3927
2026-01-27 16:49:26.54	268.72	15.06	-25.3	-26.0	16.1	0.00e+00	0	43	0	1455423488	10	3911
2026-01-27 16:49:27.54	268.93	15.07	-25.2	-25.9	16.2	0.00e+00	0	43	0	1462763520	10	3902
2026-01-27 16:49:28.55	269.15	15.09	-25.3	-26.0	16.2	0.00e+00	0	43	0	1470103552	10	3904
2026-01-27 16:49:29.55	269.36	15.11	-25.4	-26.2	16.0	0.00e+00	0	43	0	1477443584	10	3965
2026-01-27 16:49:30.56	269.57	15.12	-25.3	-26.1	16.1	0.00e+00	0	43	0	1484783616	10	3931
2026-01-27 16:49:31.56	269.78	15.14	-25.2	-25.7	16.3	0.00e+00	0	43	0	1491075072	10	3853
2026-01-27 16:49:32.56	269.99	15.15	-25.0	-25.5	16.4	0.00e+00	0	43	0	1498415104	10	3797
2026-01-27 16:49:33.56	270.21	15.17	-25.0	-25.5	16.4	0.00e+00	0	43	0	1505755136	10	3803
2026-01-27 16:49:34.57	270.42	15.18	-25.0	-25.5	16.4	0.00e+00	0	43	0	1513095168	10	3799
2026-01-27 16:49:35.57	270.63	15.19	-25.2	-25.7	16.3	0.00e+00	0	43	0	1520435200	10	3856
2026-01-27 16:49:36.58	270.85	15.21	-25.2	-25.8	16.3	0.00e+00	0	43	0	1527775232	10	3862
2026-01-27 16:49:37.58	271.06	15.22	-25.1	-25.5	16.4	0.00e+00	0	43	0	1535115264	10	3801
2026-01-27 16:49:38.58	271.27	15.23	-25.1	-26.0	16.4	0.00e+00	0	43	0	1542455296	9	4019
2026-01-27 16:49:39.59	271.49	15.25	-25.0	-25.5	16.4	0.00e+00	0	43	0	1549795328	10	3791
2026-01-27 16:49:40.59	271.70	15.26	-25.0	-25.4	16.5	0.00e+00	0	43	0	1557135360	10	3780
2026-01-27 16:49:41.59	271.91	15.27	-25.1	-25.6	16.4	0.00e+00	0	43	0	1564475392	10	3821
2026-01-27 16:49:42.59	272.13	15.28	-25.1	-25.7	16.3	0.00e+00	0	43	0	1571815424	10	3852
2026-01-27 16:49:43.60	272.34	15.29	-25.2	-25.9	16.2	0.00e+00	0	43	0	1578106880	10	3885
2026-01-27 16:49:44.60	272.56	15.30	-25.3	-26.0	16.2	0.00e+00	0	43	0	1585446912	10	3922
2026-01-27 16:49:45.61	272.77	15.31	-25.3	-26.1	16.1	0.00e+00	0	43	0	1592786944	10	3942
2026-01-27 16:49:46.61	272.99	15.32	-25.3	-26.0	16.1	0.00e+00	0	43	0	1600126976	10	3926
2026-01-27 16:49:47.61	273.20	15.33	-25.3	-26.1	16.1	0.00e+00	0	43	0	1607467008	10	3927
2026-01-27 16:49:48.62	273.42	15.34	-25.3	-26.1	16.1	0.00e+00	0	43	0	1614807040	10	3947
2026-01-27 16:49:49.63	273.63	15.35	-25.2	-25.8	16.3	0.00e+00	0	43	0	1622147072	10	3868
2026-01-27 16:49:50.63	273.85	15.36	-25.1	-25.5	16.4	0.00e+00	0	43	0	1629487104	10	3804
2026-01-27 16:49:51.64	274.06	15.37	-25.1	-25.6	16.4	0.00e+00	0	43	0	1636827136	10	3806
2026-01-27 16:49:52.64	274.28	15.38	-25.1	-25.6	16.4	0.00e+00	0	43	0	1644167168	10	3814
2026-01-27 16:49:53.65	274.50	15.38	-25.0	-25.9	16.5	0.00e+00	0	43	0	1651507200	9	4005
2026-01-27 16:49:54.65	274.71	15.39	-25.2	-25.8	16.3	0.00e+00	0	43	0	1658847232	10	3865
2026-01-27 16:49:55.66	274.93	15.40	-25.2	-25.8	16.3	0.00e+00	0	43	0	1665138688	10	3871
2026-01-27 16:49:56.67	275.15	15.40	-25.1	-25.6	16.4	0.00e+00	0	43	0	1672478720	10	3824
2026-01-27 16:49:57.67	275.36	15.41	-25.2	-25.8	16.3	0.00e+00	0	43	0	1679818752	10	3869
2026-01-27 16:49:58.68	275.58	15.42	-25.1	-25.7	16.3	0.00e+00	0	43	0	1687158784	10	3854
2026-01-27 16:49:59.68	275.79	15.42	-25.1	-25.6	16.4	0.00e+00	0	43	0	1694498816	10	3813
2026-01-27 16:50:00.68	276.01	15.43	-25.1	-25.7	16.4	0.00e+00	0	43	0	1701838848	10	3832
2026-01-27 16:50:01.69	276.23	15.43	-25.1	-25.7	16.3	0.00e+00	0	43	0	1709178880	10	3834
2026-01-27 16:50:02.70	276.44	15.43	-25.1	-25.7	16.3	0.00e+00	0	43	0	1716518912	10	3839
2026-01-27 16:50:03.70	276.66	15.44	-25.1	-25.7	16.3	0.00e+00	0	43	0	1723858944	10	3845
2026-01-27 16:50:04.71	276.88	15.44	-25.2	-25.9	16.2	0.00e+00	0	43	0	1731198976	10	3886
2026-01-27 16:50:05.71	277.09	15.44	-25.1	-25.7	16.3	0.00e+00	0	43	0	1738539008	10	3846
2026-01-27 16:50:06.72	277.31	15.45	-25.1	-25.6	16.4	0.00e+00	0	43	0	1744830464	10	3808
2026-01-27 16:50:07.72	277.53	15.45	-25.1	-25.7	16.4	0.00e+00	0	43	0	1752170496	10	3832
2026-01-27 16:50:08.73	277.74	15.45	-25.1	-25.6	16.4	0.00e+00	0	43	0	1759510528	10	3815
2026-01-27 16:50:09.72	277.96	15.45	-24.6	-25.1	16.2	0.00e+00	0	43	0	1766850560	10	3839
2026-01-27 16:50:10.73	278.17	15.45	-25.2	-25.9	11.9	3.92e-04	0	43	0	1774190592	10	3880
2026-01-27 16:50:11.74	278.39	15.45	-25.2	-25.9	16.2	0.00e+00	0	43	0	1781530624	10	3882
2026-01-27 16:50:12.74	278.61	15.45	-25.2	-25.9	16.2	1.45e-03	0	43	0	1788870656	10	3890
2026-01-27 16:50:13.74	278.82	15.45	-25.3	-26.0	16.1	0.00e+00	0	43	0	1796210688	10	3915
2026-01-27 16:50:14.75	279.04	15.45	-25.2	-25.9	16.2	0.00e+00	0	43	0	1803550720	10	3892
2026-01-27 16:50:15.75	279.26	15.45	-25.1	-25.7	16.3	9.52e-04	0	43	0	1810890752	10	3842
2026-01-27 16:50:16.75	279.47	15.45	-25.1	-25.6	16.3	0.00e+00	0	43	0	1818230784	10	3828
2026-01-27 16:50:17.76	279.69	15.45	-25.2	-25.8	16.3	3.58e-04	0	43	0	1825570816	10	3862
2026-01-27 16:50:18.76	279.91	15.44	-25.0	-25.9	16.4	0.00e+00	0	43	0	1831862272	9	4004
2026-01-27 16:50:19.77	280.12	15.44	-25.1	-25.6	16.3	0.00e+00	0	43	0	1839202304	10	3826
2026-01-27 16:50:20.77	280.34	15.44	-25.1	-25.7	16.3	3.11e-04	0	43	0	1846542336	10	3835
2026-01-27 16:50:21.77	280.56	15.44	-25.0	-25.9	16.5	0.00e+00	0	43	0	1853882368	9	3995
2026-01-27 16:50:22.77	280.77	15.43	-25.1	-26.1	16.3	1.61e-03	0	43	0	1861222400	9	4043
2026-01-27 16:50:23.78	280.99	15.43	-25.1	-25.7	16.3	1.10e-06	0	43	0	1868562432	10	3834
2026-01-27 16:50:24.79	281.21	15.42	-25.1	-25.7	16.3	0.00e+00	0	43	0	1875902464	10	3841
2026-01-27 16:50:25.79	281.42	15.42	-25.1	-25.7	16.3	1.31e-03	0	43	0	1883242496	10	3834
2026-01-27 16:50:26.80	281.64	15.41	-25.1	-25.7	16.3	0.00e+00	0	43	0	1890582528	10	3841
2026-01-27 16:50:27.80	281.85	15.41	-25.1	-25.6	16.3	1.85e-03	0	43	0	1897922560	10	3834
2026-01-27 16:50:28.80	282.07	15.40	-25.3	-26.0	16.1	1.38e-03	0	43	0	1905262592	10	3908
2026-01-27 16:50:29.80	282.28	15.39	-25.2	-25.9	16.2	9.06e-04	0	43	0	1911554048	10	3899
2026-01-27 16:50:30.80	282.50	15.39	-25.1	-25.7	16.3	1.86e-03	0	43	0	1918894080	10	3850
2026-01-27 16:50:31.81	282.71	15.38	-25.3	-26.0	16.2	8.44e-04	0	43	0	1926234112	10	3902
2026-01-27 16:50:32.80	282.93	15.37	-25.2	-25.8	16.2	9.39e-04	0	43	0	1933574144	10	3877
2026-01-27 16:50:33.81	283.14	15.37	-25.3	-26.0	16.1	2.41e-03	0	43	0	1940914176	10	3925
2026-01-27 16:50:34.81	283.36	15.36	-25.2	-25.9	16.2	1.55e-03	0	43	0	1948254208	10	3889
2026-01-27 16:50:35.82	283.57	15.35	-25.2	-25.8	16.3	4.98e-04	0	43	0	1955594240	10	3867
2026-01-27 16:50:36.82	283.79	15.34	-25.3	-26.1	16.1	0.00e+00	0	43	0	1962934272	10	3943
2026-01-27 16:50:37.82	284.00	15.33	-25.2	-25.8	16.3	1.88e-03	0	43	0	1970274304	10	3853
2026-01-27 16:50:38.83	284.22	15.32	-25.1	-25.6	16.4	9.38e-05	0	43	0	1976565760	10	3827
2026-01-27 16:50:39.83	284.43	15.31	-25.2	-25.8	16.3	0.00e+00	0	43	0	1983905792	10	3865
2026-01-27 16:50:40.83	284.65	15.30	-25.1	-25.7	16.3	1.61e-03	0	43	0	1991245824	10	3852
2026-01-27 16:50:41.83	284.86	15.29	-25.2	-25.8	16.3	0.00e+00	0	43	0	1998585856	10	3862
2026-01-27 16:50:42.84	285.07	15.28	-25.3	-26.0	16.2	1.67e-03	0	43	0	2005925888	10	3915
2026-01-27 16:50:43.84	285.29	15.27	-25.2	-25.8	16.2	0.00e+00	0	43	0	2013265920	10	3872
2026-01-27 16:50:44.84	285.50	15.25	-25.1	-25.7	16.3	0.00e+00	0	43	0	2020605952	10	3844
2026-01-27 16:50:45.84	285.71	15.24	-25.1	-25.7	16.3	2.03e-03	0	43	0	2027945984	10	3829
2026-01-27 16:50:46.84	285.93	15.23	-25.3	-26.0	16.2	0.00e+00	0	44	0	2035286016	10	3917
2026-01-27 16:50:47.85	286.14	15.22	-25.4	-26.3	16.0	4.00e-04	0	43	0	2042626048	10	3977
2026-01-27 16:50:48.85	286.35	15.20	-25.3	-26.1	16.1	0.00e+00	0	43	0	2049966080	10	3938
2026-01-27 16:50:49.85	286.56	15.19	-25.4	-26.3	16.0	0.00e+00	0	43	0	2057306112	10	3989
2026-01-27 16:50:50.85	286.78	15.18	-25.7	-26.4	15.7	7.71e-04	0	43	0	2063597568	11	3896
2026-01-27 16:50:51.86	286.99	15.16	-26.0	-27.1	15.3	0.00e+00	0	43	0	2070937600	11	4078
2026-01-27 16:50:52.87	287.20	15.15	-25.8	-26.7	15.5	0.00e+00	0	43	0	2078277632	11	3973
2026-01-27 16:50:53.87	287.41	15.13	-25.5	-26.0	15.9	0.00e+00	0	43	0	2085617664	11	3811
2026-01-27 16:50:54.88	287.63	15.11	-25.4	-26.2	16.1	0.00e+00	0	43	0	2092957696	10	3952
2026-01-27 16:50:55.88	287.84	15.10	-25.5	-26.5	15.9	0.00e+00	0	43	0	2100297728	10	4024
2026-01-27 16:50:56.88	288.05	15.08	-25.4	-26.3	16.0	0.00e+00	0	43	0	2107637760	10	3981
2026-01-27 16:50:57.89	288.26	15.07	-25.4	-26.2	16.0	0.00e+00	0	44	0	2114977792	10	3975
2026-01-27 16:50:58.89	288.47	15.05	-25.4	-26.2	16.0	0.00e+00	0	43	0	2121269248	10	3960
2026-01-27 16:50:59.90	288.68	15.03	-25.4	-26.3	16.0	0.00e+00	0	43	0	2129657856	10	3986
2026-01-27 16:51:00.90	288.89	15.01	-25.6	-26.3	15.7	0.00e+00	0	43	0	2136997888	11	3881
2026-01-27 16:51:01.90	289.10	15.00	-25.4	-25.9	16.0	0.00e+00	0	43	0	2143289344	11	3785
2026-01-27 16:51:02.90	289.31	14.98	-25.7	-26.5	15.6	0.00e+00	0	43	0	2150629376	11	3928
2026-01-27 16:51:03.91	289.52	14.96	-25.5	-26.1	15.8	0.00e+00	0	44	0	2157969408	11	3834
2026-01-27 16:51:04.92	289.73	14.94	-25.4	-25.7	16.0	0.00e+00	0	43	0	2165309440	11	3747
2026-01-27 16:51:05.92	289.94	14.92	-25.4	-26.3	16.0	0.00e+00	0	43	0	2172649472	10	3976
2026-01-27 16:51:06.93	290.15	14.90	-25.5	-26.4	15.9	0.00e+00	0	43	0	2179989504	10	4018
2026-01-27 16:51:07.94	290.36	14.88	-25.6	-26.2	15.8	0.00e+00	0	43	0	2187329536	11	3858
2026-01-27 16:51:08.94	290.57	14.86	-25.6	-26.2	15.8	0.00e+00	0	43	0	2194669568	11	3853
2026-01-27 16:51:09.94	290.77	14.84	-25.5	-26.6	15.8	0.00e+00	0	44	0	2202009600	10	4062
2026-01-27 16:51:10.95	290.98	14.82	-25.7	-26.4	15.7	0.00e+00	0	43	0	2209349632	11	3898
2026-01-27 16:51:11.95	291.19	14.80	-25.8	-26.6	15.5	0.00e+00	0	43	0	2216689664	11	3950
2026-01-27 16:51:12.96	291.40	14.78	-25.7	-26.3	15.7	0.00e+00	0	43	0	2224029696	11	3888
2026-01-27 16:51:13.96	291.60	14.75	-25.7	-26.5	15.6	0.00e+00	0	43	0	2230321152	11	3941
2026-01-27 16:51:14.97	291.81	14.73	-25.6	-26.2	15.7	0.00e+00	0	43	0	2237661184	11	3868
2026-01-27 16:51:15.98	292.02	14.71	-25.5	-26.4	15.9	0.00e+00	0	43	0	2245001216	10	4015
2026-01-27 16:51:16.99	292.23	14.69	-25.5	-26.4	15.9	0.00e+00	0	43	0	2252341248	10	4022
2026-01-27 16:51:17.99	292.43	14.66	-25.6	-26.7	15.8	0.00e+00	0	44	0	2259681280	10	4077
2026-01-27 16:51:18.99	292.64	14.64	-25.4	-25.8	16.0	0.00e+00	0	43	0	2267021312	11	3758
2026-01-27 16:51:20.00	292.84	14.61	-25.3	-26.1	16.2	0.00e+00	0	43	0	2274361344	10	3924
2026-01-27 16:51:21.00	293.05	14.59	-25.4	-26.3	16.0	0.00e+00	0	43	0	2281701376	10	3974
2026-01-27 16:51:22.00	293.25	14.57	-25.3	-26.1	16.1	0.00e+00	0	43	0	2289041408	10	3945
2026-01-27 16:51:23.00	293.45	14.54	-25.3	-26.1	16.1	0.00e+00	0	43	0	2296381440	10	3942
2026-01-27 16:51:24.01	293.66	14.52	-25.4	-26.2	16.0	0.00e+00	0	43	0	2303721472	10	3973
2026-01-27 16:51:25.02	293.86	14.49	-25.4	-26.3	16.0	0.00e+00	0	43	0	2311061504	10	3985
2026-01-27 16:51:26.02	294.06	14.46	-25.5	-26.4	15.9	0.00e+00	0	43	0	2317352960	10	4019
2026-01-27 16:51:27.03	294.27	14.44	-25.5	-26.5	15.9	0.00e+00	0	43	0	2324692992	10	4025
2026-01-27 16:51:28.03	294.47	14.41	-25.6	-26.2	15.7	1.10e-06	0	44	0	2332033024	11	3867
2026-01-27 16:51:29.04	294.67	14.38	-25.5	-25.9	15.9	0.00e+00	0	43	0	2339373056	11	3801
2026-01-27 16:51:30.05	294.87	14.36	-25.3	-26.1	16.1	0.00e+00	0	43	0	2346713088	10	3946
2026-01-27 16:51:31.05	295.07	14.33	-25.5	-26.4	15.9	0.00e+00	0	43	0	2354053120	10	4017
2026-01-27 16:51:32.05	295.27	14.30	-25.4	-26.3	16.0	0.00e+00	0	43	0	2361393152	10	3975
2026-01-27 16:51:33.06	295.48	14.27	-25.4	-26.3	16.0	0.00e+00	0	43	0	2368733184	10	3985
2026-01-27 16:51:34.06	295.68	14.25	-25.4	-26.3	16.0	0.00e+00	0	43	0	2376073216	10	4001
2026-01-27 16:51:35.06	295.87	14.22	-25.5	-26.5	15.9	0.00e+00	0	43	0	2383413248	10	4035
2026-01-27 16:51:36.07	296.07	14.19	-25.5	-26.5	15.9	0.00e+00	0	43	0	2390753280	10	4033
2026-01-27 16:51:37.07	296.27	14.16	-25.5	-26.5	15.9	0.00e+00	0	43	0	2397044736	10	4047
2026-01-27 16:51:38.07	296.47	14.13	-25.6	-26.1	15.8	0.00e+00	0	43	0	2404384768	11	3845
2026-01-27 16:51:39.07	296.67	14.10	-25.7	-26.3	15.7	0.00e+00	0	44	0	2411724800	11	3897
2026-01-27 16:51:40.08	296.87	14.07	-25.8	-26.6	15.6	0.00e+00	0	43	0	2419064832	11	3954
2026-01-27 16:51:41.09	297.07	14.04	-25.6	-26.3	15.7	0.00e+00	0	43	0	2426404864	11	3873
2026-01-27 16:51:42.09	297.26	14.01	-25.7	-26.5	15.6	0.00e+00	0	43	0	2433744896	11	3930
2026-01-27 16:51:43.09	297.46	13.98	-25.6	-26.1	15.8	0.00e+00	0	44	0	2441084928	11	3840
2026-01-27 16:51:44.10	297.65	13.95	-25.6	-26.3	15.7	0.00e+00	0	43	0	2448424960	11	3887
2026-01-27 16:51:45.10	297.85	13.92	-25.7	-26.5	15.6	0.00e+00	0	43	0	2455764992	11	3921
2026-01-27 16:51:46.10	298.04	13.89	-25.6	-26.2	15.7	0.00e+00	0	43	0	2463105024	11	3863
2026-01-27 16:51:47.10	298.24	13.85	-25.5	-26.5	15.8	0.00e+00	0	44	0	2470445056	10	4049
2026-01-27 16:51:48.11	298.43	13.82	-25.5	-26.5	15.8	9.31e-04	0	44	0	2477785088	10	4041
2026-01-27 16:51:49.11	298.63	13.79	-25.5	-26.4	15.9	0.00e+00	0	43	0	2484076544	10	4022
2026-01-27 16:51:50.12	298.82	13.76	-25.4	-26.3	16.0	0.00e+00	0	44	0	2491416576	10	3981
2026-01-27 16:51:51.12	299.01	13.73	-25.4	-26.4	15.9	1.93e-03	0	43	0	2498756608	10	4002
2026-01-27 16:51:52.12	299.21	13.69	-25.4	-26.3	15.9	0.00e+00	0	43	0	2506096640	10	3985
2026-01-27 16:51:53.12	299.40	13.66	-25.4	-26.4	15.9	9.27e-04	0	43	0	2513436672	10	4003
2026-01-27 16:51:54.13	299.59	13.63	-25.4	-26.3	16.0	0.00e+00	0	43	0	2520776704	10	3990
2026-01-27 16:51:55.13	299.78	13.59	-25.5	-26.5	15.9	1.02e-03	0	43	0	2528116736	10	4027
2026-01-27 16:51:56.13	299.97	13.56	-25.5	-26.4	15.9	6.97e-04	0	43	0	2535456768	10	4013
2026-01-27 16:51:57.13	300.16	13.52	-25.7	-26.3	15.7	0.00e+00	0	43	0	2541748224	11	3889
2026-01-27 16:51:58.14	300.35	13.49	-25.9	-26.9	15.3	1.10e-03	0	44	0	2549088256	11	4033
2026-01-27 16:51:59.14	300.54	13.45	-25.8	-26.6	15.5	8.23e-04	0	43	0	2557476864	11	3956
2026-01-27 16:52:00.16	300.73	13.42	-25.7	-26.4	15.6	2.16e-03	0	44	0	2563768320	11	3918
2026-01-27 16:52:01.16	300.92	13.38	-25.8	-26.6	15.5	1.37e-03	0	44	0	2571108352	11	3945
2026-01-27 16:52:02.15	301.11	13.35	-25.8	-26.5	15.6	7.40e-04	0	43	0	2578448384	11	3944
2026-01-27 16:52:03.15	301.30	13.31	-25.8	-26.6	15.5	1.78e-03	0	43	0	2585788416	11	3951
2026-01-27 16:52:04.16	301.48	13.28	-25.8	-26.7	15.5	1.20e-03	0	43	0	2593128448	11	3974
2026-01-27 16:52:05.16	301.67	13.24	-25.8	-26.7	15.4	3.47e-04	0	43	0	2600468480	11	3979
2026-01-27 16:52:06.15	301.86	13.21	-25.8	-26.7	15.5	1.24e-03	0	43	0	2607808512	11	3974
2026-01-27 16:52:07.16	302.04	13.17	-25.8	-26.7	15.4	0.00e+00	0	44	0	2615148544	11	3987
2026-01-27 16:52:08.17	302.23	13.13	-25.9	-27.0	15.3	2.20e-04	0	43	0	2622488576	11	4046
2026-01-27 16:52:09.17	302.41	13.09	-25.9	-27.0	15.3	1.23e-03	0	43	0	2628780032	11	4047
2026-01-27 16:52:10.18	302.60	13.06	-26.0	-27.0	15.3	9.09e-04	0	43	0	2636120064	11	4056
2026-01-27 16:52:11.18	302.78	13.02	-26.0	-26.7	15.1	2.94e-04	0	44	0	2643460096	12	3883
2026-01-27 16:52:12.19	302.97	12.98	-26.0	-27.1	15.3	0.00e+00	0	43	0	2650800128	11	4074
2026-01-27 16:52:13.19	303.15	12.94	-25.9	-26.9	15.3	8.78e-04	0	43	0	2658140160	11	4022
2026-01-27 16:52:14.20	303.34	12.91	-25.9	-26.9	15.3	0.00e+00	0	43	0	2665480192	11	4021
2026-01-27 16:52:15.20	303.52	12.87	-26.0	-26.6	15.2	0.00e+00	0	43	0	2672820224	12	3851
2026-01-27 16:52:16.21	303.70	12.83	-26.0	-27.0	15.2	1.11e-03	0	43	0	2680160256	11	4052
2026-01-27 16:52:17.21	303.88	12.79	-26.0	-27.0	15.3	0.00e+00	0	43	0	2687500288	11	4060
2026-01-27 16:52:18.21	304.06	12.75	-26.0	-27.0	15.2	1.14e-03	0	43	0	2694840320	11	4065
2026-01-27 16:52:19.22	304.24	12.71	-26.0	-27.1	15.2	0.00e+00	0	43	0	2702180352	11	4093
2026-01-27 16:52:20.22	304.42	12.67	-25.9	-26.9	15.3	0.00e+00	0	43	0	2709520384	11	4024
2026-01-27 16:52:21.22	304.60	12.63	-25.9	-26.9	15.3	0.00e+00	0	43	0	2715811840	11	4037
2026-01-27 16:52:22.22	304.78	12.60	-26.0	-27.0	15.3	0.00e+00	0	43	0	2723151872	11	4056
2026-01-27 16:52:23.22	304.96	12.56	-26.2	-27.0	14.9	1.10e-06	0	43	0	2730491904	12	3951
2026-01-27 16:52:24.23	305.14	12.52	-26.5	-27.6	14.6	0.00e+00	0	43	0	2737831936	12	4115
2026-01-27 16:52:25.23	305.32	12.48	-26.1	-26.9	15.0	0.00e+00	0	43	0	2745171968	12	3927
2026-01-27 16:52:26.24	305.49	12.43	-25.9	-26.5	15.2	0.00e+00	0	43	0	2752512000	12	3826
2026-01-27 16:52:27.24	305.67	12.39	-26.0	-27.0	15.3	0.00e+00	0	43	0	2759852032	11	4058
2026-01-27 16:52:28.24	305.85	12.35	-26.1	-26.8	15.0	0.00e+00	0	43	0	2767192064	12	3894
2026-01-27 16:52:29.24	306.02	12.31	-26.1	-26.8	15.0	0.00e+00	0	43	0	2774532096	12	3905
2026-01-27 16:52:30.25	306.20	12.27	-26.1	-26.8	15.0	0.00e+00	0	43	0	2781872128	12	3910
2026-01-27 16:52:31.25	306.37	12.23	-26.1	-26.8	15.0	5.70e-06	0	43	0	2789212160	12	3916
2026-01-27 16:52:32.26	306.55	12.19	-26.2	-26.9	14.9	0.00e+00	0	43	0	2795503616	12	3940
2026-01-27 16:52:33.26	306.72	12.15	-26.0	-26.7	15.1	0.00e+00	0	43	0	2802843648	12	3874
2026-01-27 16:52:34.26	306.89	12.11	-26.0	-27.1	15.2	0.00e+00	0	43	0	2810183680	11	4095
2026-01-27 16:52:35.27	307.07	12.06	-26.1	-26.8	15.0	1.10e-06	0	43	0	2817523712	12	3901
2026-01-27 16:52:36.27	307.24	12.02	-26.3	-27.3	14.7	0.00e+00	0	44	0	2824863744	12	4039
2026-01-27 16:52:37.28	307.41	11.98	-26.6	-27.4	14.4	0.00e+00	0	43	0	2832203776	13	3957
2026-01-27 16:52:38.28	307.59	11.94	-26.3	-26.8	14.7	0.00e+00	0	44	0	2839543808	13	3812
2026-01-27 16:52:39.28	307.76	11.90	-26.2	-27.1	14.8	0.00e+00	0	44	0	2846883840	12	3979
2026-01-27 16:52:40.29	307.93	11.85	-26.4	-27.6	14.6	0.00e+00	0	43	0	2854223872	12	4098
2026-01-27 16:52:41.29	308.10	11.81	-26.2	-27.0	14.9	2.20e-06	0	43	0	2860515328	12	3963
2026-01-27 16:52:42.29	308.27	11.77	-26.3	-27.2	14.8	0.00e+00	0	44	0	2868903936	12	4013
2026-01-27 16:52:43.30	308.44	11.72	-26.3	-27.2	14.8	2.20e-06	0	43	0	2876243968	12	4018
2026-01-27 16:52:44.30	308.60	11.68	-26.3	-27.4	14.7	1.10e-06	0	43	0	2882535424	12	4051
2026-01-27 16:52:45.30	308.77	11.64	-26.4	-27.4	14.7	1.10e-06	0	43	0	2889875456	12	4060
2026-01-27 16:52:46.30	308.94	11.59	-26.3	-27.4	14.7	0.00e+00	0	44	0	2897215488	12	4047
2026-01-27 16:52:47.31	309.11	11.55	-26.3	-27.2	14.8	0.00e+00	0	44	0	2904555520	12	4010
2026-01-27 16:52:48.31	309.27	11.51	-26.4	-27.4	14.6	0.00e+00	0	44	0	2911895552	12	4071
2026-01-27 16:52:49.32	309.44	11.46	-26.5	-27.7	14.5	1.10e-06	0	43	0	2919235584	12	4144
2026-01-27 16:52:50.33	309.61	11.42	-26.4	-27.4	14.6	2.20e-06	0	44	0	2926575616	12	4065
2026-01-27 16:52:51.34	309.77	11.37	-26.5	-27.8	14.4	1.10e-06	0	44	0	2933915648	12	4156
2026-01-27 16:52:52.33	309.94	11.33	-26.7	-27.7	14.2	0.00e+00	0	43	0	2940207104	13	4029
2026-01-27 16:52:53.33	310.10	11.29	-26.4	-27.0	14.6	0.00e+00	0	43	0	2947547136	13	3866
2026-01-27 16:52:54.34	310.27	11.24	-26.4	-27.5	14.6	0.00e+00	0	43	0	2954887168	12	4071
2026-01-27 16:52:55.34	310.43	11.20	-26.3	-27.4	14.7	0.00e+00	0	44	0	2962227200	12	4050
2026-01-27 16:52:56.35	310.59	11.15	-26.2	-27.1	14.8	0.00e+00	0	44	0	2969567232	12	3982
2026-01-27 16:52:57.35	310.75	11.11	-26.3	-27.4	14.6	0.00e+00	0	43	0	2976907264	12	4047
2026-01-27 16:52:58.35	310.92	11.06	-26.4	-27.5	14.6	0.00e+00	0	44	0	2984247296	12	4078
2026-01-27 16:52:59.35	311.08	11.02	-26.5	-27.7	14.4	0.00e+00	0	43	0	2991587328	12	4148
2026-01-27 16:53:00.36	311.24	10.97	-26.5	-27.7	14.5	1.10e-06	0	43	0	2998927360	12	4124
2026-01-27 16:53:01.36	311.40	10.93	-26.6	-27.5	14.2	2.20e-06	0	43	0	3006267392	13	3987
2026-01-27 16:53:02.37	311.56	10.88	-26.8	-27.9	14.0	4.50e-06	0	43	0	3013607424	13	4090
2026-01-27 16:53:03.37	311.72	10.83	-26.9	-28.1	13.9	2.20e-06	0	43	0	3020947456	13	4126
2026-01-27 16:53:04.38	311.88	10.79	-26.8	-27.9	14.1	3.40e-06	0	44	0	3027238912	13	4086
2026-01-27 16:53:05.39	312.04	10.74	-26.7	-27.7	14.1	3.40e-06	0	44	0	3035627520	13	4040
2026-01-27 16:53:06.40	312.20	10.70	-26.7	-27.7	14.1	1.10e-06	0	43	0	3042967552	13	4041
2026-01-27 16:53:07.40	312.35	10.65	-26.7	-27.7	14.2	2.20e-06	0	43	0	3049259008	13	4034
2026-01-27 16:53:08.41	312.51	10.60	-26.9	-28.1	14.0	1.10e-06	0	43	0	3056599040	13	4130
2026-01-27 16:53:09.40	312.67	10.56	-26.9	-28.0	14.0	2.20e-06	0	43	0	3063939072	13	4112
2026-01-27 16:53:10.41	312.82	10.51	-26.9	-28.1	13.9	1.10e-06	0	43	0	3071279104	13	4135
2026-01-27 16:53:11.41	312.98	10.47	-27.0	-28.3	13.8	4.50e-06	0	43	0	3078619136	13	4179
2026-01-27 16:53:12.42	313.14	10.42	-26.8	-27.8	14.1	4.50e-06	0	44	0	3085959168	13	4049
2026-01-27 16:53:13.42	313.29	10.37	-26.8	-27.8	14.1	2.20e-06	0	43	0	3093299200	13	4057
2026-01-27 16:53:14.42	313.44	10.33	-26.8	-27.9	14.0	0.00e+00	0	43	0	3100639232	13	4090
2026-01-27 16:53:15.43	313.60	10.28	-26.9	-28.1	13.9	2.20e-06	0	43	0	3107979264	13	4138
2026-01-27 16:53:16.43	313.75	10.23	-25.9	-26.9	13.9	1.10e-06	0	43	0	3114270720	13	4037
2026-01-27 16:53:17.43	313.90	10.18	-26.7	-27.7	13.9	1.10e-06	0	43	0	3121610752	13	4043
2026-01-27 16:53:18.44	314.06	10.14	-26.5	-27.6	14.1	2.20e-06	0	43	0	3128950784	13	4085
2026-01-27 16:53:19.44	314.21	10.09	-26.9	-28.2	13.6	3.40e-06	0	43	0	3136290816	13	4172
2026-01-27 16:53:20.44	314.36	10.04	-26.8	-27.8	14.1	1.41e-03	0	44	0	3143630848	13	4062
2026-01-27 16:53:21.45	314.51	10.00	-26.7	-27.7	14.2	2.20e-06	0	43	0	3150970880	13	4023
2026-01-27 16:53:22.46	314.66	9.95	-26.8	-27.9	14.1	1.10e-06	0	43	0	3158310912	13	4069
2026-01-27 16:53:23.47	314.81	9.90	-26.8	-27.8	14.1	1.18e-03	0	43	0	3165650944	13	4071
2026-01-27 16:53:24.47	314.96	9.85	-26.6	-27.4	14.3	0.00e+00	0	44	0	3172990976	13	3953
2026-01-27 16:53:25.47	315.11	9.81	-26.7	-27.7	14.1	1.10e-06	0	43	0	3180331008	13	4033
2026-01-27 16:53:26.47	315.26	9.76	-26.8	-27.8	14.0	3.40e-06	0	43	0	3187671040	13	4065
2026-01-27 16:53:27.47	315.40	9.71	-26.6	-27.5	14.2	0.00e+00	0	43	0	3193962496	13	3977
2026-01-27 16:53:28.47	315.55	9.66	-26.5	-27.2	14.4	6.75e-05	0	43	0	3201302528	13	3902
2026-01-27 16:53:29.47	315.70	9.61	-26.4	-27.1	14.5	3.40e-06	0	43	0	3208642560	13	3881
2026-01-27 16:53:30.47	315.84	9.57	-26.5	-27.6	14.4	8.07e-04	0	43	0	3215982592	12	4117
2026-01-27 16:53:31.48	315.99	9.52	-26.6	-27.8	14.3	1.53e-04	0	44	0	3223322624	12	4173
2026-01-27 16:53:32.48	316.14	9.47	-26.8	-27.8	14.0	4.50e-06	0	43	0	3230662656	13	4058
2026-01-27 16:53:33.48	316.28	9.42	-27.0	-28.3	13.8	1.29e-03	0	43	0	3238002688	13	4177
2026-01-27 16:53:34.48	316.43	9.37	-26.8	-27.8	14.0	1.10e-06	0	43	0	3245342720	13	4071
2026-01-27 16:53:35.48	316.57	9.33	-26.8	-27.9	14.0	1.49e-03	0	44	0	3252682752	13	4093
2026-01-27 16:53:36.48	316.71	9.28	-26.8	-27.9	14.0	1.69e-03	0	43	0	3258974208	13	4091
2026-01-27 16:53:37.49	316.86	9.23	-27.0	-28.3	13.8	9.10e-06	0	44	0	3266314240	13	4180
2026-01-27 16:53:38.49	317.00	9.18	-26.9	-28.2	13.8	1.80e-03	0	43	0	3274702848	13	4154
2026-01-27 16:53:39.50	317.14	9.13	-27.0	-28.4	13.7	1.77e-03	0	43	0	3280994304	13	4216
2026-01-27 16:53:40.50	317.28	9.08	-27.1	-28.5	13.6	1.60e-05	0	44	0	3288334336	13	4243
2026-01-27 16:53:41.51	317.43	9.04	-27.0	-28.4	13.7	1.69e-03	0	43	0	3295674368	13	4209
2026-01-27 16:53:42.51	317.57	8.99	-27.1	-28.5	13.6	1.53e-03	0	43	0	3303014400	13	4257
2026-01-27 16:53:43.51	317.71	8.94	-27.0	-28.0	13.7	1.51e-04	0	44	0	3310354432	14	4001
2026-01-27 16:53:44.50	317.85	8.89	-26.9	-28.2	13.8	1.25e-05	0	44	0	3317694464	13	4157
2026-01-27 16:53:45.51	317.99	8.84	-26.9	-28.2	13.8	1.29e-03	0	43	0	3325034496	13	4169
2026-01-27 16:53:46.50	318.12	8.79	-26.9	-28.1	13.8	1.92e-04	0	44	0	3332374528	13	4151
2026-01-27 16:53:47.51	318.26	8.74	-26.8	-27.9	13.9	4.50e-06	0	44	0	3339714560	13	4091
2026-01-27 16:53:48.51	318.40	8.69	-27.0	-28.4	13.7	1.39e-03	0	44	0	3346006016	13	4215
2026-01-27 16:53:49.52	318.54	8.64	-26.9	-28.1	13.8	5.70e-06	0	43	0	3353346048	13	4141
2026-01-27 16:53:50.52	318.68	8.60	-26.7	-27.7	14.0	1.58e-03	0	43	0	3360686080	13	4039
2026-01-27 16:53:51.52	318.81	8.55	-26.8	-27.8	14.0	1.46e-03	0	43	0	3368026112	13	4053
2026-01-27 16:53:52.53	318.95	8.50	-26.6	-27.5	14.1	1.10e-06	0	43	0	3375366144	13	3992
2026-01-27 16:53:53.53	319.09	8.45	-26.6	-27.5	14.2	1.47e-03	0	43	0	3382706176	13	3987
2026-01-27 16:53:54.53	319.22	8.40	-26.7	-27.7	14.1	5.70e-06	0	43	0	3390046208	13	4038
2026-01-27 16:53:55.54	319.36	8.35	-26.7	-27.8	14.0	2.20e-06	0	44	0	3397386240	13	4052
2026-01-27 16:53:56.54	319.49	8.30	-26.7	-27.7	14.0	0.00e+00	0	43	0	3404726272	13	4047
2026-01-27 16:53:57.55	319.63	8.25	-26.7	-27.6	14.0	1.10e-06	0	44	0	3412066304	13	4021
2026-01-27 16:53:58.55	319.76	8.20	-26.9	-28.1	13.8	4.50e-06	0	43	0	3419406336	13	4147
2026-01-27 16:53:59.56	319.90	8.15	-26.8	-27.9	13.8	3.40e-06	0	44	0	3425697792	13	4094
2026-01-27 16:54:00.56	320.03	8.10	-26.8	-28.0	13.8	2.20e-06	0	43	0	3433037824	13	4118
2026-01-27 16:54:01.56	320.16	8.05	-27.0	-28.3	13.6	5.70e-06	0	44	0	3440377856	13	4209
2026-01-27 16:54:02.57	320.29	8.00	-26.9	-28.2	13.7	6.80e-06	0	44	0	3447717888	13	4175
2026-01-27 16:54:03.57	320.43	7.95	-27.2	-28.2	13.4	1.27e-03	0	44	0	3455057920	14	4078
2026-01-27 16:54:04.57	320.56	7.90	-27.3	-28.6	13.2	1.71e-05	0	44	0	3462397952	14	4182
2026-01-27 16:54:05.58	320.69	7.85	-27.2	-28.4	13.3	2.40e-05	0	43	0	3469737984	14	4125
2026-01-27 16:54:06.58	320.82	7.81	-27.3	-28.6	13.2	1.48e-05	0	44	0	3477078016	14	4164
2026-01-27 16:54:07.59	320.95	7.76	-27.3	-28.7	13.2	3.08e-05	0	44	0	3484418048	14	4196
2026-01-27 16:54:08.60	321.08	7.71	-27.3	-28.6	13.1	2.86e-05	0	43	0	3491758080	14	4163
2026-01-27 16:54:09.60	321.21	7.66	-27.3	-28.6	13.2	2.63e-05	0	43	0	3499098112	14	4162
2026-01-27 16:54:10.61	321.34	7.61	-27.4	-28.7	13.1	1.94e-05	0	44	0	3506438144	14	4204
2026-01-27 16:54:11.61	321.47	7.56	-27.5	-28.9	13.0	2.86e-05	0	43	0	3512729600	14	4266
2026-01-27 16:54:12.62	321.59	7.51	-27.3	-28.5	13.2	1.25e-05	0	44	0	3520069632	14	4150
2026-01-27 16:54:13.62	321.72	7.46	-27.2	-28.3	13.4	1.14e-05	0	44	0	3527409664	14	4081
2026-01-27 16:54:14.63	321.85	7.41	-27.4	-28.7	13.1	1.83e-05	0	44	0	3534749696	14	4194
2026-01-27 16:54:15.64	321.98	7.36	-27.2	-28.4	13.3	1.71e-05	0	44	0	3542089728	14	4111
2026-01-27 16:54:16.64	322.10	7.31	-27.2	-28.4	13.3	1.71e-05	0	44	0	3549429760	14	4110
2026-01-27 16:54:17.64	322.23	7.26	-27.1	-28.2	13.4	1.48e-05	0	43	0	3556769792	14	4065
2026-01-27 16:54:18.65	322.35	7.21	-27.2	-28.4	13.2	1.37e-05	0	44	0	3564109824	14	4121
2026-01-27 16:54:19.64	322.48	7.16	-27.2	-28.3	13.3	1.14e-05	0	44	0	3571449856	14	4087
2026-01-27 16:54:20.65	322.60	7.11	-27.1	-28.1	13.4	1.37e-05	0	44	0	3578789888	14	4050
2026-01-27 16:54:21.65	322.73	7.06	-33.4	-42.9	3.8	3.90e-01	0	44	104	3584032768	26	10785
2026-01-27 16:54:22.65	322.85	7.01	-33.8	-43.5	3.8	8.46e-01	0	44	104	3584032768	27	10955
2026-01-27 16:54:23.66	322.97	6.96	-34.0	-43.5	3.8	8.46e-01	0	44	104	3584032768	28	10713
2026-01-27 16:54:24.66	323.10	6.91	-34.1	-43.7	3.8	8.45e-01	0	44	104	3584032768	28	10769

#Closed at: 2026-01-27 16:54:25
#Recorded file [3584 MB]: D:/data/31010_260127_194604.dat