passes_logs/2026/01/27/R2M6_AANII_01/R2M6_AANII_01__20260127_225127_SUOMI_NPP_rec.log

#Pass ID: 20260127_225127_SUOMI NPP
#Satellite: SUOMI NPP
#Configuration: NPP
#almurnet v.1.7.20240730
#Start time: 2026-01-27 22:51:27

#Version: 2.2.20231116
#Station: R2M6_AANII_01
#Location: 30.233357 lon 59.946436 lat
#TLE: 1 37849U 11061A   26027.50945616  .00000185  00000+0  10897-3 0  9994
#TLE: 2 37849  98.7823 329.4511 0002105  42.1421 317.9917 14.19530771738482

#Time	Az	El	Level	Level2	SNR	BER	BlckErr	Temp	State	Recorded	gain1	gain2
2026-01-27 22:51:27.00	29.53	6.98	-31.6	-35.2	5.3	1.19e+00	0	40	0	0	23	5483
2026-01-27 22:51:28.01	29.62	7.04	-32.2	-37.5	4.8	1.27e+00	0	41	104	0	24	6606
2026-01-27 22:51:29.01	29.71	7.10	-32.3	-37.6	7.0	1.71e-01	0	40	0	0	24	6631
2026-01-27 22:51:30.02	29.80	7.17	-32.1	-36.7	7.8	9.45e-02	0	41	0	1048576	24	6095
2026-01-27 22:51:31.02	29.90	7.23	-32.2	-37.1	7.5	1.01e-01	0	41	0	3145728	24	6333
2026-01-27 22:51:32.03	29.99	7.30	-32.1	-36.5	7.9	8.85e-02	0	41	0	5242880	24	5984
2026-01-27 22:51:33.03	30.08	7.36	-31.8	-36.0	8.8	3.90e-02	0	41	0	7340032	23	5825
2026-01-27 22:51:34.03	30.18	7.42	-31.6	-35.2	9.4	2.18e-02	0	40	0	9437184	23	5444
2026-01-27 22:51:35.03	30.27	7.49	-31.5	-34.7	9.8	1.38e-02	0	41	0	10485760	23	5211
2026-01-27 22:51:36.03	30.37	7.55	-31.3	-34.6	10.3	8.55e-03	0	41	0	12582912	22	5238
2026-01-27 22:51:37.04	30.46	7.62	-31.5	-35.1	10.0	7.15e-03	0	41	0	14680064	22	5444
2026-01-27 22:51:38.04	30.56	7.68	-31.3	-34.3	10.5	5.75e-03	0	41	0	16777216	22	5114
2026-01-27 22:51:39.05	30.65	7.75	-30.9	-33.3	11.3	2.60e-03	0	41	0	17825792	22	4715
2026-01-27 22:51:40.05	30.75	7.81	-30.9	-33.1	11.4	1.08e-03	0	41	0	19922944	22	4636
2026-01-27 22:51:41.05	30.85	7.87	-30.8	-32.9	11.6	8.74e-04	0	41	0	22020096	22	4576
2026-01-27 22:51:42.06	30.95	7.94	-30.9	-33.7	11.4	1.05e-03	0	41	0	24117248	21	4945
2026-01-27 22:51:43.07	31.04	8.01	-30.7	-33.0	11.8	5.96e-04	0	41	0	26214400	21	4701
2026-01-27 22:51:44.07	31.14	8.07	-30.7	-32.9	11.9	7.49e-04	0	41	0	28311552	21	4660
2026-01-27 22:51:45.07	31.24	8.14	-30.7	-33.0	11.8	8.13e-04	0	41	0	29360128	21	4689
2026-01-27 22:51:46.07	31.34	8.20	-30.7	-32.9	11.9	8.00e-04	0	41	0	31457280	21	4670
2026-01-27 22:51:47.08	31.44	8.27	-30.9	-33.8	11.3	1.24e-03	0	41	0	33554432	21	4980
2026-01-27 22:51:48.08	31.54	8.33	-30.7	-33.1	11.8	1.47e-03	0	41	0	35651584	21	4729
2026-01-27 22:51:49.08	31.64	8.40	-30.7	-33.1	11.8	8.03e-04	0	41	0	36700160	21	4726
2026-01-27 22:51:50.09	31.74	8.46	-30.8	-33.4	11.6	1.06e-03	0	41	0	38797312	21	4824
2026-01-27 22:51:51.09	31.84	8.53	-30.8	-33.4	11.6	1.26e-03	0	41	0	40894464	21	4824
2026-01-27 22:51:52.09	31.94	8.59	-30.8	-33.4	11.6	8.44e-04	0	41	0	42991616	21	4825
2026-01-27 22:51:53.09	32.04	8.66	-30.8	-33.3	11.7	6.16e-04	0	41	0	45088768	21	4788
2026-01-27 22:51:54.10	32.15	8.73	-30.9	-33.6	11.4	1.08e-03	0	41	0	46137344	21	4914
2026-01-27 22:51:55.10	32.25	8.79	-31.0	-33.4	11.3	8.55e-04	0	42	0	48234496	22	4731
2026-01-27 22:51:56.10	32.35	8.86	-31.0	-33.4	11.3	9.29e-04	0	41	0	50331648	22	4727
2026-01-27 22:51:57.11	32.46	8.92	-31.1	-33.7	11.0	1.68e-03	0	41	0	52428800	22	4862
2026-01-27 22:51:58.11	32.56	8.99	-31.1	-33.6	11.2	1.32e-03	0	41	0	54525952	22	4801
2026-01-27 22:51:59.12	32.67	9.06	-31.2	-33.9	10.9	1.60e-03	0	42	0	55574528	22	4929
2026-01-27 22:52:00.12	32.77	9.12	-31.3	-34.2	10.7	2.93e-03	0	41	0	57671680	22	5034
2026-01-27 22:52:01.12	32.88	9.19	-31.3	-34.3	10.7	2.22e-03	0	41	0	59768832	22	5097
2026-01-27 22:52:02.12	32.98	9.26	-31.1	-33.6	11.2	1.91e-03	0	41	0	61865984	22	4793
2026-01-27 22:52:03.13	33.09	9.32	-31.0	-33.3	11.4	1.63e-03	0	41	0	63963136	22	4703
2026-01-27 22:52:04.13	33.20	9.39	-31.1	-33.6	11.2	1.36e-03	0	42	0	65011712	22	4801
2026-01-27 22:52:05.14	33.30	9.46	-31.0	-33.4	11.3	1.60e-03	0	41	0	67108864	22	4730
2026-01-27 22:52:06.14	33.41	9.53	-31.1	-33.7	11.2	1.27e-03	0	41	0	69206016	22	4855
2026-01-27 22:52:07.14	33.52	9.59	-31.2	-34.0	11.0	2.48e-03	0	42	0	71303168	22	4935
2026-01-27 22:52:08.15	33.63	9.66	-31.1	-33.6	11.2	1.82e-03	0	41	0	73400320	22	4799
2026-01-27 22:52:09.15	33.74	9.73	-31.0	-33.4	11.5	1.11e-03	0	42	0	74448896	22	4713
2026-01-27 22:52:10.15	33.85	9.80	-31.0	-33.3	11.5	8.38e-04	0	42	0	76546048	22	4660
2026-01-27 22:52:11.16	33.96	9.86	-31.1	-33.5	11.4	1.02e-03	0	42	0	78643200	22	4759
2026-01-27 22:52:12.16	34.07	9.93	-31.1	-33.4	11.3	7.85e-04	0	42	0	80740352	22	4740
2026-01-27 22:52:13.16	34.18	10.00	-31.1	-33.5	11.4	8.75e-04	0	42	0	82837504	22	4770
2026-01-27 22:52:14.16	34.29	10.07	-31.1	-33.7	11.2	1.52e-03	0	42	0	83886080	22	4847
2026-01-27 22:52:15.17	34.41	10.13	-31.0	-33.4	11.5	9.71e-04	0	42	0	85983232	22	4706
2026-01-27 22:52:16.17	34.52	10.20	-31.2	-33.8	11.1	1.13e-03	0	42	0	88080384	22	4885
2026-01-27 22:52:17.18	34.63	10.27	-31.0	-33.4	11.5	9.35e-04	0	42	0	90177536	22	4726
2026-01-27 22:52:18.19	34.75	10.34	-31.1	-33.5	11.4	8.89e-04	0	42	0	91226112	22	4775
2026-01-27 22:52:19.20	34.86	10.41	-31.1	-33.5	11.4	8.77e-04	0	42	0	93323264	22	4758
2026-01-27 22:52:20.20	34.98	10.48	-30.9	-33.0	11.7	9.89e-04	0	42	0	95420416	22	4566
2026-01-27 22:52:21.20	35.09	10.55	-31.0	-33.2	11.6	6.13e-04	0	42	0	97517568	22	4638
2026-01-27 22:52:22.20	35.21	10.61	-31.0	-33.2	11.6	5.20e-04	0	42	0	99614720	22	4636
2026-01-27 22:52:23.20	35.32	10.68	-31.1	-33.5	11.4	9.40e-04	0	42	0	101711872	22	4746
2026-01-27 22:52:24.20	35.44	10.75	-30.7	-32.5	12.1	3.41e-04	0	42	0	102760448	22	4392
2026-01-27 22:52:25.21	35.56	10.82	-30.6	-32.1	12.4	2.04e-04	0	42	0	104857600	22	4250
2026-01-27 22:52:26.21	35.68	10.89	-30.4	-32.1	12.7	1.40e-04	0	42	0	106954752	21	4350
2026-01-27 22:52:27.21	35.79	10.96	-30.4	-32.1	12.7	1.76e-04	0	42	0	109051904	21	4353
2026-01-27 22:52:28.21	35.91	11.03	-30.4	-31.9	12.8	7.17e-05	0	42	0	110100480	21	4292
2026-01-27 22:52:29.21	36.03	11.10	-30.3	-31.7	12.9	5.03e-05	0	42	0	112197632	21	4219
2026-01-27 22:52:30.20	36.15	11.17	-30.3	-31.8	12.9	3.28e-05	0	42	0	114294784	21	4263
2026-01-27 22:52:31.21	36.27	11.24	-30.2	-31.4	13.2	3.05e-05	0	42	0	116391936	21	4132
2026-01-27 22:52:32.21	36.39	11.30	-30.3	-31.6	13.1	3.73e-05	0	42	0	118489088	21	4209
2026-01-27 22:52:33.21	36.52	11.37	-30.3	-31.7	13.0	3.28e-05	0	42	0	119537664	21	4217
2026-01-27 22:52:34.21	36.64	11.44	-30.5	-32.3	12.6	8.16e-05	0	42	0	121634816	21	4426
2026-01-27 22:52:35.22	36.76	11.51	-30.4	-32.0	12.8	8.69e-05	0	42	0	123731968	21	4324
2026-01-27 22:52:36.22	36.88	11.58	-30.4	-31.9	12.9	6.40e-05	0	42	0	125829120	21	4279
2026-01-27 22:52:37.22	37.01	11.65	-30.4	-31.9	12.8	6.10e-05	0	42	0	127926272	21	4296
2026-01-27 22:52:38.22	37.13	11.72	-30.4	-31.8	13.0	5.03e-05	0	42	0	128974848	21	4257
2026-01-27 22:52:39.22	37.26	11.79	-30.4	-31.9	12.9	4.04e-05	0	42	0	131072000	21	4295
2026-01-27 22:52:40.23	37.38	11.86	-30.5	-32.1	12.8	5.18e-05	0	42	0	133169152	21	4359
2026-01-27 22:52:41.23	37.51	11.93	-30.6	-32.4	12.7	6.25e-05	0	42	0	135266304	21	4436
2026-01-27 22:52:42.24	37.64	12.01	-30.6	-32.6	12.5	1.19e-04	0	42	0	136314880	21	4509
2026-01-27 22:52:43.24	37.76	12.08	-30.4	-31.8	13.0	5.56e-05	0	42	0	138412032	21	4260
2026-01-27 22:52:44.24	37.89	12.15	-30.4	-31.8	13.0	5.56e-05	0	42	0	140509184	21	4255
2026-01-27 22:52:45.24	38.02	12.22	-30.3	-31.6	13.1	2.36e-05	0	42	0	142606336	21	4195
2026-01-27 22:52:46.25	38.15	12.29	-30.3	-31.5	13.2	3.35e-05	0	42	0	144703488	21	4160
2026-01-27 22:52:47.25	38.28	12.36	-30.4	-31.9	12.9	2.97e-05	0	42	0	145752064	21	4270
2026-01-27 22:52:48.26	38.41	12.43	-30.3	-31.5	13.2	2.89e-05	0	42	0	147849216	21	4164
2026-01-27 22:52:49.26	38.54	12.50	-30.4	-32.0	12.9	5.11e-05	0	42	0	149946368	21	4309
2026-01-27 22:52:50.26	38.67	12.57	-30.3	-31.7	13.1	1.23e-04	0	42	0	152043520	21	4219
2026-01-27 22:52:51.27	38.81	12.64	-30.3	-31.6	13.2	2.82e-05	0	42	0	154140672	21	4195
2026-01-27 22:52:52.27	38.94	12.71	-30.4	-32.0	12.8	2.97e-05	0	42	0	155189248	21	4310
2026-01-27 22:52:53.27	39.07	12.78	-30.5	-32.3	12.7	5.18e-05	0	42	0	157286400	21	4406
2026-01-27 22:52:54.28	39.21	12.86	-30.5	-32.2	12.7	1.31e-04	0	42	0	159383552	21	4382
2026-01-27 22:52:55.28	39.34	12.93	-30.7	-32.6	12.5	7.32e-05	0	42	0	161480704	21	4517
2026-01-27 22:52:56.28	39.48	13.00	-30.8	-33.1	12.2	1.43e-04	0	42	0	163577856	21	4691
2026-01-27 22:52:57.29	39.62	13.07	-30.6	-32.5	12.6	1.24e-04	0	43	0	164626432	21	4465
2026-01-27 22:52:58.29	39.75	13.14	-30.7	-32.6	12.5	1.03e-04	0	42	0	166723584	21	4515
2026-01-27 22:52:59.29	39.89	13.21	-30.7	-32.7	12.5	1.28e-04	0	42	0	168820736	21	4523
2026-01-27 22:53:00.30	40.03	13.29	-30.5	-32.2	12.8	8.69e-05	0	42	0	170917888	21	4366
2026-01-27 22:53:01.30	40.17	13.36	-30.5	-32.2	12.9	6.02e-05	0	42	0	173015040	21	4378
2026-01-27 22:53:02.30	40.31	13.43	-30.6	-32.5	12.7	5.34e-05	0	42	0	174063616	21	4456
2026-01-27 22:53:03.31	40.45	13.50	-30.6	-32.3	12.8	1.07e-04	0	42	0	176160768	21	4408
2026-01-27 22:53:04.30	40.59	13.57	-30.3	-31.6	13.3	5.72e-05	0	42	0	178257920	21	4181
2026-01-27 22:53:05.30	40.73	13.64	-30.2	-31.3	13.5	1.29e-05	0	43	0	180355072	21	4093
2026-01-27 22:53:06.30	40.87	13.72	-30.2	-31.2	13.5	8.30e-06	0	42	0	181403648	21	4059
2026-01-27 22:53:07.30	41.01	13.79	-30.0	-30.8	13.8	6.10e-06	0	43	0	183500800	21	3931
2026-01-27 22:53:08.31	41.15	13.86	-30.1	-30.9	13.7	7.60e-06	0	43	0	185597952	21	3976
2026-01-27 22:53:09.30	41.30	13.93	-29.9	-30.6	13.9	5.30e-06	0	42	0	187695104	21	3878
2026-01-27 22:53:10.30	41.44	14.00	-29.9	-30.6	13.9	1.06e-05	0	42	0	189792256	21	3890
2026-01-27 22:53:11.30	41.59	14.08	-29.9	-30.5	13.9	3.00e-06	0	42	0	191889408	21	3868
2026-01-27 22:53:12.31	41.73	14.15	-29.9	-31.0	14.0	1.50e-06	0	43	0	192937984	20	4087
2026-01-27 22:53:13.31	41.88	14.22	-29.8	-30.8	14.0	4.50e-06	0	43	0	195035136	20	4042
2026-01-27 22:53:14.32	42.03	14.29	-29.9	-31.0	14.0	3.00e-06	0	42	0	197132288	20	4083
2026-01-27 22:53:15.32	42.18	14.37	-29.9	-31.0	14.0	3.00e-06	0	43	0	199229440	20	4089
2026-01-27 22:53:16.33	42.33	14.44	-29.9	-30.9	14.0	7.00e-07	0	42	0	200278016	20	4061
2026-01-27 22:53:17.34	42.48	14.51	-30.0	-31.3	13.8	7.00e-07	0	42	0	202375168	20	4157
2026-01-27 22:53:18.34	42.63	14.59	-29.8	-30.8	14.1	3.00e-06	0	43	0	204472320	20	4033
2026-01-27 22:53:19.35	42.78	14.66	-29.9	-30.8	14.2	3.00e-06	0	42	0	206569472	20	4034
2026-01-27 22:53:20.35	42.93	14.73	-29.8	-30.8	14.1	2.20e-06	0	42	0	208666624	20	4016
2026-01-27 22:53:21.36	43.08	14.80	-29.8	-30.8	14.1	3.00e-06	0	43	0	209715200	20	4020
2026-01-27 22:53:22.36	43.24	14.88	-29.9	-31.0	14.0	1.50e-06	0	43	0	211812352	20	4079
2026-01-27 22:53:23.36	43.39	14.95	-30.0	-31.6	14.1	0.00e+00	0	43	0	213909504	19	4330
2026-01-27 22:53:24.37	43.54	15.02	-30.0	-31.2	13.9	2.20e-06	0	43	0	216006656	20	4133
2026-01-27 22:53:25.37	43.70	15.10	-30.1	-31.5	13.7	8.31e-04	0	43	0	218103808	20	4218
2026-01-27 22:53:26.37	43.86	15.17	-30.1	-31.5	13.8	7.60e-06	0	43	0	219152384	20	4217
2026-01-27 22:53:27.38	44.01	15.24	-30.1	-31.6	13.7	6.80e-06	0	43	0	221249536	20	4260
2026-01-27 22:53:28.38	44.17	15.32	-30.3	-32.0	13.4	1.03e-03	0	43	0	223346688	20	4394
2026-01-27 22:53:29.39	44.33	15.39	-30.2	-31.7	13.6	6.51e-04	0	43	0	225443840	20	4298
2026-01-27 22:53:30.40	44.49	15.46	-30.3	-31.9	13.5	3.00e-06	0	43	0	227540992	20	4353
2026-01-27 22:53:31.39	44.65	15.53	-30.4	-32.2	13.3	1.14e-05	0	43	0	228589568	20	4438
2026-01-27 22:53:32.39	44.81	15.61	-30.2	-31.8	13.6	1.65e-04	0	43	0	230686720	20	4299
2026-01-27 22:53:33.40	44.97	15.68	-30.0	-31.2	13.9	6.10e-06	0	43	0	232783872	20	4141
2026-01-27 22:53:34.40	45.13	15.75	-30.1	-31.4	13.9	3.00e-06	0	43	0	234881024	20	4192
2026-01-27 22:53:35.40	45.29	15.83	-30.1	-31.5	13.7	3.12e-05	0	42	0	236978176	20	4227
2026-01-27 22:53:36.40	45.46	15.90	-30.0	-31.1	14.0	3.00e-06	0	43	0	238026752	20	4115
2026-01-27 22:53:37.40	45.62	15.97	-30.1	-31.6	13.7	3.80e-06	0	43	0	240123904	20	4240
2026-01-27 22:53:38.41	45.79	16.05	-30.0	-31.3	13.9	1.67e-05	0	43	0	242221056	20	4167
2026-01-27 22:53:39.41	45.95	16.12	-30.0	-31.3	13.9	2.20e-06	0	43	0	244318208	20	4172
2026-01-27 22:53:40.41	46.12	16.19	-30.1	-31.3	13.9	6.10e-06	0	42	0	246415360	20	4169
2026-01-27 22:53:41.42	46.29	16.26	-30.0	-31.1	14.1	5.30e-06	0	43	0	247463936	20	4091
2026-01-27 22:53:42.43	46.46	16.34	-29.9	-30.9	14.2	2.20e-06	0	43	0	249561088	20	4035
2026-01-27 22:53:43.43	46.63	16.41	-29.9	-30.9	14.2	7.24e-05	0	43	0	251658240	20	4030
2026-01-27 22:53:44.43	46.80	16.48	-29.9	-31.0	14.1	1.50e-06	0	43	0	253755392	20	4058
2026-01-27 22:53:45.44	46.97	16.56	-29.8	-30.7	14.3	0.00e+00	0	43	0	254803968	20	3974
2026-01-27 22:53:46.44	47.14	16.63	-29.8	-31.2	14.4	4.75e-04	0	43	0	256901120	19	4207
2026-01-27 22:53:47.44	47.31	16.70	-29.7	-30.9	14.6	5.74e-04	0	43	0	258998272	19	4140
2026-01-27 22:53:48.45	47.49	16.78	-29.7	-30.8	14.6	0.00e+00	0	43	0	261095424	19	4092
2026-01-27 22:53:49.45	47.66	16.85	-29.7	-30.8	14.7	3.36e-04	0	43	0	263192576	19	4092
2026-01-27 22:53:50.45	47.83	16.92	-29.7	-31.0	14.5	2.96e-04	0	43	0	264241152	19	4150
2026-01-27 22:53:51.46	48.01	17.00	-29.8	-31.0	14.5	1.50e-06	0	43	0	266338304	19	4160
2026-01-27 22:53:52.46	48.19	17.07	-29.6	-30.6	14.8	8.08e-05	0	43	0	268435456	19	4032
2026-01-27 22:53:53.47	48.37	17.14	-29.6	-30.5	14.8	8.30e-06	0	43	0	270532608	19	4013
2026-01-27 22:53:54.47	48.54	17.21	-29.5	-30.5	14.8	7.00e-07	0	43	0	272629760	19	4003
2026-01-27 22:53:55.48	48.72	17.29	-29.6	-30.5	14.8	3.00e-06	0	43	0	273678336	19	4020
2026-01-27 22:53:56.48	48.90	17.36	-29.6	-30.7	14.7	3.80e-06	0	43	0	275775488	19	4062
2026-01-27 22:53:57.49	49.09	17.43	-29.6	-30.7	14.7	0.00e+00	0	43	0	277872640	19	4068
2026-01-27 22:53:58.49	49.27	17.50	-29.8	-31.0	14.5	3.80e-06	0	43	0	279969792	19	4160
2026-01-27 22:53:59.50	49.45	17.58	-29.8	-31.1	14.5	1.50e-06	0	43	0	282066944	19	4166
2026-01-27 22:54:00.51	49.63	17.65	-29.8	-31.2	14.4	7.00e-07	0	43	0	283115520	19	4221
2026-01-27 22:54:01.52	49.82	17.72	-29.7	-30.9	14.6	1.90e-05	0	43	0	285212672	19	4123
2026-01-27 22:54:02.52	50.00	17.80	-29.7	-30.8	14.6	8.30e-06	0	43	0	287309824	19	4110
2026-01-27 22:54:03.53	50.19	17.87	-29.8	-31.2	14.4	7.00e-07	0	43	0	289406976	19	4216
2026-01-27 22:54:04.53	50.38	17.94	-29.8	-31.0	14.5	2.36e-05	0	43	0	291504128	19	4160
2026-01-27 22:54:05.54	50.57	18.01	-29.7	-30.8	14.6	0.00e+00	0	43	0	292552704	19	4098
2026-01-27 22:54:06.53	50.75	18.08	-29.8	-31.0	14.6	7.00e-07	0	43	0	294649856	19	4145
2026-01-27 22:54:07.54	50.94	18.16	-29.8	-31.1	14.4	2.07e-04	0	43	0	296747008	19	4168
2026-01-27 22:54:08.54	51.13	18.23	-29.9	-31.3	14.4	4.04e-04	0	43	0	298844160	19	4235
2026-01-27 22:54:09.54	51.32	18.30	-29.9	-31.0	14.2	7.00e-07	0	43	0	300941312	20	4058
2026-01-27 22:54:10.55	51.52	18.37	-29.8	-30.7	14.4	4.05e-04	0	43	0	301989888	20	3984
2026-01-27 22:54:11.55	51.71	18.44	-30.0	-31.6	14.2	3.31e-04	0	42	0	304087040	19	4327
2026-01-27 22:54:12.55	51.90	18.51	-29.9	-30.8	14.3	1.50e-06	0	43	0	306184192	20	4001
2026-01-27 22:54:13.56	52.10	18.59	-29.9	-30.8	14.3	3.81e-04	0	43	0	308281344	20	4013
2026-01-27 22:54:14.56	52.29	18.66	-29.9	-31.0	14.2	4.78e-04	0	43	0	310378496	20	4066
2026-01-27 22:54:15.58	52.49	18.73	-30.1	-31.5	13.8	7.00e-07	0	43	0	311427072	20	4229
2026-01-27 22:54:16.58	52.69	18.80	-30.2	-31.7	13.8	5.30e-06	0	43	0	313524224	20	4262
2026-01-27 22:54:17.58	52.89	18.87	-30.1	-31.4	13.9	1.26e-03	0	43	0	315621376	20	4184
2026-01-27 22:54:18.59	53.09	18.94	-30.2	-31.6	13.8	5.30e-06	0	43	0	317718528	20	4232
2026-01-27 22:54:19.58	53.29	19.01	-30.1	-31.3	14.1	2.20e-06	0	43	0	319815680	20	4140
2026-01-27 22:54:20.58	53.49	19.08	-30.1	-31.3	14.0	3.00e-06	0	43	0	320864256	20	4155
2026-01-27 22:54:21.58	53.69	19.15	-30.1	-31.4	13.9	3.00e-06	0	43	0	322961408	20	4180
2026-01-27 22:54:22.58	53.89	19.22	-30.1	-31.5	13.9	3.80e-06	0	43	0	325058560	20	4210
2026-01-27 22:54:23.58	54.09	19.29	-30.0	-31.2	14.1	1.50e-06	0	43	0	327155712	20	4118
2026-01-27 22:54:24.58	54.30	19.36	-30.1	-31.4	13.9	0.00e+00	0	43	0	329252864	20	4173
2026-01-27 22:54:25.58	54.50	19.43	-30.2	-31.7	13.8	9.07e-05	0	43	0	330301440	20	4283
2026-01-27 22:54:26.58	54.71	19.50	-30.4	-32.1	13.5	6.10e-06	0	43	0	332398592	20	4405
2026-01-27 22:54:27.59	54.92	19.57	-30.5	-32.1	13.2	4.42e-05	0	43	0	334495744	21	4291
2026-01-27 22:54:28.60	55.13	19.64	-30.6	-32.2	13.2	1.40e-04	0	43	0	336592896	21	4320
2026-01-27 22:54:29.60	55.34	19.71	-30.6	-32.3	13.1	3.43e-05	0	43	0	337641472	21	4360
2026-01-27 22:54:30.60	55.55	19.78	-30.7	-32.5	12.9	2.97e-05	0	43	0	339738624	21	4442
2026-01-27 22:54:31.61	55.76	19.84	-30.6	-32.1	13.2	4.57e-05	0	43	0	341835776	21	4317
2026-01-27 22:54:32.61	55.97	19.91	-30.2	-31.2	13.7	1.22e-05	0	43	0	343932928	21	4044
2026-01-27 22:54:33.62	56.18	19.98	-30.2	-31.0	13.9	6.10e-06	0	43	0	346030080	21	3981
2026-01-27 22:54:34.62	56.40	20.05	-30.2	-31.3	13.7	1.06e-05	0	43	0	347078656	21	4049
2026-01-27 22:54:35.62	56.61	20.12	-30.1	-31.0	13.9	3.50e-05	0	43	0	349175808	21	3978
2026-01-27 22:54:36.62	56.83	20.18	-30.4	-31.8	13.4	8.30e-06	0	43	0	351272960	21	4197
2026-01-27 22:54:37.63	57.04	20.25	-30.6	-32.2	13.2	1.06e-05	0	43	0	353370112	21	4322
2026-01-27 22:54:38.63	57.26	20.32	-30.5	-31.8	13.4	2.44e-05	0	43	0	355467264	21	4213
2026-01-27 22:54:39.63	57.48	20.39	-30.2	-31.3	13.7	8.30e-06	0	43	0	356515840	21	4056
2026-01-27 22:54:40.64	57.70	20.45	-30.2	-31.2	13.8	5.30e-06	0	43	0	358612992	21	4035
2026-01-27 22:54:41.64	57.92	20.52	-30.3	-31.5	13.6	3.00e-06	0	43	0	360710144	21	4106
2026-01-27 22:54:42.64	58.14	20.58	-30.3	-31.5	13.6	1.29e-05	0	43	0	362807296	21	4114
2026-01-27 22:54:43.64	58.36	20.65	-30.4	-31.7	13.5	6.80e-06	0	43	0	364904448	21	4172
2026-01-27 22:54:44.65	58.59	20.72	-30.7	-32.4	13.0	1.60e-05	0	43	0	365953024	21	4401
2026-01-27 22:54:45.65	58.81	20.78	-31.0	-33.3	12.4	6.40e-05	0	43	0	368050176	21	4686
2026-01-27 22:54:46.65	59.03	20.85	-31.2	-33.4	12.1	2.39e-04	0	43	0	370147328	22	4647
2026-01-27 22:54:47.66	59.26	20.91	-31.1	-33.1	12.2	2.53e-04	0	43	0	372244480	22	4540
2026-01-27 22:54:48.66	59.49	20.98	-30.9	-32.7	12.6	1.27e-04	0	43	0	374341632	22	4385
2026-01-27 22:54:49.67	59.72	21.04	-30.7	-32.0	13.0	4.80e-05	0	43	0	375390208	22	4161
2026-01-27 22:54:50.67	59.95	21.11	-30.6	-31.7	13.2	3.58e-05	0	43	0	377487360	22	4080
2026-01-27 22:54:51.67	60.18	21.17	-30.7	-32.0	13.0	3.43e-05	0	43	0	379584512	22	4165
2026-01-27 22:54:52.68	60.41	21.23	-30.6	-31.7	13.2	4.11e-05	0	43	0	381681664	22	4090
2026-01-27 22:54:53.68	60.64	21.30	-30.4	-31.3	13.5	1.22e-05	0	43	0	383778816	22	3959
2026-01-27 22:54:54.69	60.87	21.36	-30.6	-31.6	13.3	1.29e-05	0	43	0	384827392	22	4056
2026-01-27 22:54:55.69	61.11	21.42	-30.2	-31.0	13.5	1.60e-05	0	43	0	386924544	22	3951
2026-01-27 22:54:56.69	61.34	21.48	-30.1	-30.9	14.0	4.50e-06	0	43	0	389021696	21	3956
2026-01-27 22:54:57.69	61.57	21.55	-30.0	-30.7	14.1	2.20e-06	0	43	0	391118848	21	3882
2026-01-27 22:54:58.70	61.81	21.61	-30.2	-31.1	13.8	7.00e-07	0	43	0	392167424	21	3985
2026-01-27 22:54:59.71	62.05	21.67	-30.3	-31.5	13.7	5.30e-06	0	43	0	394264576	21	4117
2026-01-27 22:55:00.71	62.29	21.73	-30.5	-31.9	13.3	9.90e-06	0	43	0	396361728	21	4244
2026-01-27 22:55:01.70	62.52	21.79	-30.5	-31.9	13.4	2.44e-05	0	43	0	398458880	21	4232
2026-01-27 22:55:02.70	62.76	21.85	-30.6	-32.3	13.1	2.21e-05	0	43	0	400556032	21	4357
2026-01-27 22:55:03.71	63.01	21.91	-30.6	-32.3	13.2	3.05e-05	0	43	0	402653184	21	4348
2026-01-27 22:55:04.71	63.25	21.97	-30.8	-32.7	12.9	2.67e-05	0	43	0	403701760	21	4483
2026-01-27 22:55:05.71	63.49	22.03	-30.4	-31.7	13.5	3.96e-05	0	43	0	405798912	21	4179
2026-01-27 22:55:06.71	63.73	22.09	-30.3	-31.4	13.7	3.17e-04	0	43	0	407896064	21	4073
2026-01-27 22:55:07.72	63.98	22.14	-30.4	-32.0	13.6	5.30e-06	0	43	0	409993216	20	4372
2026-01-27 22:55:08.72	64.22	22.20	-30.3	-32.0	13.6	1.14e-05	0	43	0	411041792	20	4354
2026-01-27 22:55:09.73	64.47	22.26	-30.5	-32.3	13.4	4.50e-06	0	43	0	413138944	20	4458
2026-01-27 22:55:10.73	64.72	22.32	-30.8	-32.7	12.9	6.21e-04	0	43	0	415236096	21	4490
2026-01-27 22:55:11.73	64.96	22.37	-30.8	-32.7	12.8	9.99e-05	0	43	0	417333248	21	4499
2026-01-27 22:55:12.73	65.21	22.43	-31.3	-33.7	11.8	1.06e-04	0	43	0	419430400	22	4744
2026-01-27 22:55:13.74	65.46	22.49	-31.3	-33.8	11.8	5.99e-04	0	43	0	420478976	22	4780
2026-01-27 22:55:14.73	65.71	22.54	-31.6	-34.2	11.1	8.80e-04	0	43	0	422576128	23	4854
2026-01-27 22:55:15.73	65.96	22.60	-31.6	-34.1	11.2	2.65e-03	0	43	0	424673280	23	4792
2026-01-27 22:55:16.73	66.21	22.65	-31.3	-33.5	12.0	1.05e-03	0	43	0	426770432	22	4677
2026-01-27 22:55:17.73	66.47	22.70	-30.8	-32.3	12.7	1.09e-04	0	43	0	428867584	22	4281
2026-01-27 22:55:18.73	66.72	22.76	-30.4	-31.1	13.6	9.10e-06	0	43	0	429916160	22	3899
2026-01-27 22:55:19.74	66.98	22.81	-30.0	-30.6	14.2	2.20e-06	0	43	0	432013312	21	3848
2026-01-27 22:55:20.75	67.23	22.86	-29.9	-30.8	14.4	0.00e+00	0	43	0	434110464	20	4010
2026-01-27 22:55:21.75	67.49	22.92	-30.2	-31.8	13.8	3.46e-04	0	43	0	436207616	20	4283
2026-01-27 22:55:22.76	67.75	22.97	-30.6	-32.1	13.3	5.30e-06	0	43	0	438304768	21	4299
2026-01-27 22:55:23.76	68.01	23.02	-30.8	-32.7	12.9	4.80e-05	0	43	0	439353344	21	4484
2026-01-27 22:55:24.76	68.27	23.07	-31.0	-32.8	12.4	6.71e-05	0	43	0	441450496	22	4440
2026-01-27 22:55:25.76	68.52	23.12	-30.9	-32.6	12.6	1.03e-04	0	43	0	443547648	22	4361
2026-01-27 22:55:26.75	68.78	23.17	-30.6	-31.7	13.2	5.41e-05	0	43	0	445644800	22	4089
2026-01-27 22:55:27.75	69.04	23.22	-30.6	-31.6	13.3	2.05e-05	0	43	0	446693376	22	4064
2026-01-27 22:55:28.76	69.31	23.27	-30.6	-31.7	13.3	2.97e-05	0	43	0	448790528	22	4079
2026-01-27 22:55:29.75	69.57	23.32	-30.7	-31.9	13.2	1.67e-05	0	43	0	450887680	22	4136
2026-01-27 22:55:30.75	69.83	23.36	-30.8	-32.2	12.9	2.63e-04	0	43	0	452984832	22	4242
2026-01-27 22:55:31.75	70.09	23.41	-30.7	-32.5	13.0	1.55e-04	0	43	0	455081984	21	4437
2026-01-27 22:55:32.76	70.36	23.46	-30.6	-32.2	13.1	3.12e-05	0	43	0	456130560	21	4330
2026-01-27 22:55:33.76	70.63	23.50	-30.5	-32.0	13.4	4.80e-05	0	43	0	458227712	21	4255
2026-01-27 22:55:34.76	70.89	23.55	-30.7	-32.5	13.0	5.26e-05	0	43	0	460324864	21	4439
2026-01-27 22:55:35.76	71.16	23.59	-30.9	-32.9	12.8	4.88e-05	0	43	0	462422016	21	4532
2026-01-27 22:55:36.76	71.43	23.64	-31.5	-34.1	11.6	1.85e-04	0	43	0	464519168	22	4899
2026-01-27 22:55:37.77	71.70	23.68	-32.0	-34.9	10.4	3.30e-03	0	43	0	465567744	24	5017
2026-01-27 22:55:38.77	71.97	23.73	-32.2	-35.6	9.8	9.15e-03	0	43	0	467664896	24	5316
2026-01-27 22:55:39.77	72.24	23.77	-32.3	-35.9	9.6	1.16e-02	0	43	0	469762048	24	5453
2026-01-27 22:55:40.77	72.51	23.81	-32.1	-35.3	10.0	9.59e-03	0	43	0	471859200	24	5204
2026-01-27 22:55:41.78	72.79	23.85	-31.7	-33.9	11.0	3.17e-03	0	43	0	473956352	24	4642
2026-01-27 22:55:42.78	73.06	23.89	-31.5	-33.3	11.5	8.80e-04	0	43	0	475004928	24	4418
2026-01-27 22:55:43.77	73.33	23.93	-31.4	-33.0	11.7	6.08e-04	0	43	0	477102080	24	4332
2026-01-27 22:55:44.78	73.61	23.97	-31.5	-33.2	11.6	5.84e-04	0	43	0	479199232	24	4375
2026-01-27 22:55:45.79	73.88	24.01	-31.6	-33.7	11.2	1.00e-03	0	43	0	481296384	24	4559
2026-01-27 22:55:46.79	74.16	24.05	-31.4	-33.1	11.7	1.49e-03	0	43	0	482344960	24	4349
2026-01-27 22:55:47.80	74.44	24.09	-31.3	-32.8	11.8	5.84e-04	0	43	0	484442112	24	4249
2026-01-27 22:55:48.80	74.71	24.13	-31.2	-33.0	12.1	2.88e-04	0	43	0	486539264	23	4399
2026-01-27 22:55:49.81	74.99	24.16	-31.2	-33.0	12.1	2.52e-04	0	43	0	488636416	23	4392
2026-01-27 22:55:50.80	75.27	24.20	-31.3	-33.2	12.0	2.61e-04	0	43	0	490733568	23	4457
2026-01-27 22:55:51.81	75.55	24.23	-31.5	-33.7	11.6	7.35e-04	0	43	0	492830720	23	4652
2026-01-27 22:55:52.82	75.83	24.27	-31.3	-33.6	11.9	8.53e-04	0	43	0	493879296	22	4689
2026-01-27 22:55:53.82	76.11	24.30	-31.5	-33.7	11.6	6.19e-04	0	43	0	495976448	23	4647
2026-01-27 22:55:54.82	76.39	24.34	-31.6	-34.0	11.3	1.21e-03	0	43	0	498073600	23	4754
2026-01-27 22:55:55.82	76.67	24.37	-31.8	-34.7	10.8	1.67e-03	0	43	0	500170752	23	5031
2026-01-27 22:55:56.83	76.95	24.40	-31.8	-34.8	10.9	2.26e-03	0	43	0	501219328	23	5064
2026-01-27 22:55:57.83	77.24	24.43	-31.7	-34.5	11.0	2.15e-03	0	43	0	503316480	23	4945
2026-01-27 22:55:58.83	77.52	24.46	-31.6	-34.2	11.2	2.47e-03	0	43	0	505413632	23	4835
2026-01-27 22:55:59.83	77.80	24.49	-31.6	-33.9	11.4	1.24e-03	0	43	0	507510784	23	4733
2026-01-27 22:56:00.84	78.09	24.52	-31.5	-33.9	11.4	1.77e-03	0	43	0	509607936	23	4731
2026-01-27 22:56:01.84	78.37	24.55	-31.4	-33.4	11.8	7.10e-04	0	43	0	510656512	23	4531
2026-01-27 22:56:02.85	78.66	24.58	-31.0	-32.3	12.4	1.98e-04	0	43	0	512753664	23	4189
2026-01-27 22:56:03.84	78.94	24.60	-30.6	-31.7	13.3	1.11e-04	0	43	0	514850816	22	4073
2026-01-27 22:56:04.85	79.23	24.63	-30.2	-31.2	13.8	9.90e-06	0	43	0	516947968	21	4019
2026-01-27 22:56:05.85	79.52	24.66	-29.8	-30.1	14.5	4.50e-06	0	43	0	519045120	21	3733
2026-01-27 22:56:06.86	79.80	24.68	-29.8	-30.2	14.5	3.80e-06	0	43	0	520093696	21	3743
2026-01-27 22:56:07.86	80.09	24.71	-30.1	-30.8	14.1	3.00e-06	0	43	0	522190848	21	3908
2026-01-27 22:56:08.86	80.38	24.73	-30.4	-31.7	13.6	2.20e-06	0	43	0	524288000	21	4163
2026-01-27 22:56:09.86	80.67	24.75	-30.7	-32.6	12.9	1.98e-05	0	43	0	526385152	21	4462
2026-01-27 22:56:10.87	80.96	24.77	-30.8	-32.7	12.8	7.32e-05	0	43	0	528482304	21	4491
2026-01-27 22:56:11.88	81.25	24.80	-30.8	-32.8	12.9	4.34e-05	0	43	0	529530880	21	4512
2026-01-27 22:56:12.87	81.53	24.82	-30.5	-32.0	13.4	4.04e-05	0	43	0	531628032	21	4270
2026-01-27 22:56:13.88	81.83	24.84	-30.7	-32.4	13.1	6.71e-05	0	43	0	533725184	21	4381
2026-01-27 22:56:14.89	82.12	24.86	-30.6	-32.2	13.3	1.98e-05	0	43	0	535822336	21	4322
2026-01-27 22:56:15.89	82.41	24.87	-30.8	-32.7	12.8	2.67e-05	0	43	0	537919488	21	4512
2026-01-27 22:56:16.89	82.70	24.89	-31.0	-33.0	12.4	1.12e-04	0	43	0	538968064	22	4500
2026-01-27 22:56:17.89	82.99	24.91	-31.1	-33.2	12.2	1.66e-04	0	43	0	541065216	22	4572
2026-01-27 22:56:18.89	83.28	24.92	-31.0	-32.8	12.4	1.53e-04	0	43	0	543162368	22	4434
2026-01-27 22:56:19.89	83.57	24.94	-30.9	-32.4	12.8	9.30e-05	0	43	0	545259520	22	4302
2026-01-27 22:56:20.89	83.86	24.95	-30.9	-32.6	12.7	5.72e-05	0	43	0	546308096	22	4362
2026-01-27 22:56:21.90	84.16	24.97	-30.8	-32.4	12.8	6.63e-05	0	43	0	548405248	22	4289
2026-01-27 22:56:22.90	84.45	24.98	-30.8	-32.2	12.8	6.94e-05	0	43	0	550502400	22	4260
2026-01-27 22:56:23.91	84.75	24.99	-30.6	-31.6	13.2	3.20e-05	0	43	0	552599552	22	4070
2026-01-27 22:56:24.92	85.04	25.01	-30.2	-31.1	14.0	4.50e-06	0	43	0	554696704	21	3984
2026-01-27 22:56:25.91	85.33	25.02	-29.7	-30.4	14.7	0.00e+00	0	43	0	555745280	20	3899
2026-01-27 22:56:26.91	85.62	25.03	-29.6	-30.1	14.8	0.00e+00	0	43	0	557842432	20	3805
2026-01-27 22:56:27.91	85.92	25.04	-29.4	-29.5	15.3	8.30e-06	0	43	0	559939584	20	3643
2026-01-27 22:56:28.92	86.21	25.04	-29.3	-29.4	15.3	0.00e+00	0	43	0	562036736	20	3621
2026-01-27 22:56:29.92	86.51	25.05	-29.7	-30.3	14.7	0.00e+00	0	43	0	564133888	20	3872
2026-01-27 22:56:30.93	86.80	25.06	-30.1	-31.4	14.1	7.00e-07	0	43	0	565182464	20	4168
2026-01-27 22:56:31.93	87.10	25.06	-30.1	-31.5	14.0	3.00e-06	0	43	0	567279616	20	4196
2026-01-27 22:56:32.93	87.39	25.07	-30.1	-31.3	14.1	7.00e-07	0	43	0	569376768	20	4137
2026-01-27 22:56:33.94	87.69	25.07	-30.1	-31.4	14.1	1.50e-06	0	43	0	571473920	20	4164
2026-01-27 22:56:34.94	87.98	25.08	-29.9	-30.8	14.4	0.00e+00	0	43	0	573571072	20	3997
2026-01-27 22:56:35.94	88.27	25.08	-29.6	-30.1	14.9	0.00e+00	0	43	0	574619648	20	3817
2026-01-27 22:56:36.94	88.57	25.08	-29.7	-30.4	14.7	7.00e-07	0	43	0	576716800	20	3887
2026-01-27 22:56:37.94	88.86	25.08	-29.8	-30.5	14.6	0.00e+00	0	43	0	578813952	20	3920
2026-01-27 22:56:38.95	89.16	25.09	-30.0	-31.2	14.2	7.00e-07	0	43	0	580911104	20	4099
2026-01-27 22:56:39.95	89.45	25.08	-30.0	-31.0	14.3	7.00e-07	0	43	0	583008256	20	4071
2026-01-27 22:56:40.96	89.75	25.08	-30.0	-31.1	14.2	7.00e-07	0	43	0	584056832	20	4084
2026-01-27 22:56:41.96	90.04	25.08	-30.0	-31.3	14.1	5.30e-06	0	43	0	586153984	20	4146
2026-01-27 22:56:42.96	90.34	25.08	-30.3	-31.9	13.7	6.10e-06	0	43	0	588251136	20	4320
2026-01-27 22:56:43.96	90.63	25.08	-30.5	-32.3	13.4	5.30e-06	0	43	0	590348288	20	4470
2026-01-27 22:56:44.97	90.93	25.07	-30.6	-32.2	13.1	4.19e-05	0	43	0	592445440	21	4327
2026-01-27 22:56:45.97	91.22	25.07	-30.4	-31.7	13.4	1.90e-05	0	43	0	593494016	21	4176
2026-01-27 22:56:46.97	91.52	25.06	-30.4	-31.7	13.6	1.60e-05	0	43	0	595591168	21	4163
2026-01-27 22:56:47.97	91.81	25.05	-30.4	-31.8	13.5	9.90e-06	0	43	0	597688320	21	4201
2026-01-27 22:56:48.98	92.11	25.05	-30.6	-32.2	13.2	1.44e-05	0	43	0	599785472	21	4333
2026-01-27 22:56:49.99	92.40	25.04	-30.4	-31.7	13.5	1.67e-05	0	43	0	600834048	21	4164
2026-01-27 22:56:50.99	92.70	25.03	-30.1	-30.9	14.0	5.30e-06	0	43	0	602931200	21	3954
2026-01-27 22:56:51.99	92.99	25.02	-29.8	-30.2	14.5	2.36e-05	0	43	0	605028352	21	3755
2026-01-27 22:56:52.99	93.28	25.01	-29.7	-30.5	14.6	7.00e-07	0	43	0	607125504	20	3908
2026-01-27 22:56:54.00	93.58	25.00	-29.8	-30.7	14.5	7.00e-07	0	43	0	609222656	20	3968
2026-01-27 22:56:55.00	93.87	24.99	-30.0	-31.1	14.3	7.00e-07	0	43	0	610271232	20	4079
2026-01-27 22:56:55.99	94.16	24.98	-30.0	-31.2	14.1	1.50e-06	0	43	0	612368384	20	4102
2026-01-27 22:56:56.99	94.45	24.96	-29.9	-30.9	14.3	0.00e+00	0	43	0	614465536	20	4024
2026-01-27 22:56:58.00	94.75	24.95	-29.8	-30.7	14.5	0.00e+00	0	43	0	616562688	20	3976
2026-01-27 22:56:59.01	95.04	24.93	-29.8	-30.6	14.5	1.50e-06	0	43	0	618659840	20	3959
2026-01-27 22:57:00.01	95.33	24.92	-29.7	-30.2	14.8	0.00e+00	0	43	0	619708416	20	3844
2026-01-27 22:57:01.01	95.62	24.90	-29.6	-30.2	14.8	0.00e+00	0	43	0	621805568	20	3825
2026-01-27 22:57:02.01	95.92	24.88	-29.7	-30.3	14.7	0.00e+00	0	43	0	623902720	20	3867
2026-01-27 22:57:03.02	96.21	24.86	-29.6	-30.1	14.8	0.00e+00	0	43	0	625999872	20	3810
2026-01-27 22:57:04.02	96.50	24.85	-29.7	-30.3	14.7	0.00e+00	0	43	0	628097024	20	3863
2026-01-27 22:57:05.02	96.79	24.83	-29.8	-30.7	14.5	0.00e+00	0	43	0	629145600	20	3968
2026-01-27 22:57:06.02	97.08	24.81	-29.6	-30.0	14.9	0.00e+00	0	43	0	631242752	20	3778
2026-01-27 22:57:07.02	97.37	24.79	-29.4	-29.6	15.1	2.20e-06	0	43	0	633339904	20	3675
2026-01-27 22:57:08.03	97.66	24.76	-29.3	-29.8	15.3	0.00e+00	0	43	0	635437056	19	3816
2026-01-27 22:57:09.03	97.95	24.74	-29.3	-29.7	15.4	0.00e+00	0	43	0	637534208	19	3792
2026-01-27 22:57:10.04	98.24	24.72	-29.5	-30.3	14.9	0.00e+00	0	43	0	638582784	19	3947
2026-01-27 22:57:11.04	98.52	24.69	-29.4	-30.0	15.2	0.00e+00	0	43	0	640679936	19	3888
2026-01-27 22:57:12.04	98.81	24.67	-29.5	-30.4	15.0	0.00e+00	0	43	0	642777088	19	3974
2026-01-27 22:57:13.04	99.10	24.64	-29.6	-30.5	14.8	0.00e+00	0	43	0	644874240	19	4020
2026-01-27 22:57:14.05	99.39	24.62	-29.7	-30.7	14.8	7.00e-07	0	43	0	645922816	19	4072
2026-01-27 22:57:15.05	99.67	24.59	-29.6	-30.6	14.9	0.00e+00	0	43	0	648019968	19	4020
2026-01-27 22:57:16.06	99.96	24.56	-29.6	-30.5	14.9	0.00e+00	0	43	0	650117120	19	4003
2026-01-27 22:57:17.06	100.25	24.53	-29.4	-30.0	15.2	7.00e-07	0	43	0	652214272	19	3886
2026-01-27 22:57:18.07	100.53	24.51	-29.4	-30.2	15.1	0.00e+00	0	43	0	654311424	19	3919
2026-01-27 22:57:19.07	100.82	24.48	-29.4	-30.0	15.2	0.00e+00	0	43	0	656408576	19	3887
2026-01-27 22:57:20.07	101.10	24.45	-29.2	-29.7	15.3	2.20e-06	0	43	0	657457152	19	3785
2026-01-27 22:57:21.07	101.38	24.41	-29.2	-29.5	15.5	0.00e+00	0	43	0	659554304	19	3753
2026-01-27 22:57:22.08	101.67	24.38	-29.2	-29.6	15.5	0.00e+00	0	43	0	661651456	19	3764
2026-01-27 22:57:23.08	101.95	24.35	-29.1	-29.4	15.5	0.00e+00	0	43	0	663748608	19	3726
2026-01-27 22:57:24.08	102.23	24.32	-29.4	-30.0	15.2	2.13e-05	0	43	0	664797184	19	3882
2026-01-27 22:57:25.08	102.51	24.28	-29.4	-30.2	15.1	4.42e-05	0	43	0	666894336	19	3922
2026-01-27 22:57:26.09	102.79	24.25	-29.3	-29.8	15.3	0.00e+00	0	43	0	668991488	19	3840
2026-01-27 22:57:27.08	103.07	24.21	-29.4	-30.0	15.1	6.10e-05	0	43	0	671088640	19	3876
2026-01-27 22:57:28.09	103.35	24.18	-29.0	-29.1	15.7	6.33e-05	0	43	0	673185792	19	3654
2026-01-27 22:57:29.09	103.63	24.14	-28.7	-29.0	16.0	0.00e+00	0	43	0	674234368	18	3704
2026-01-27 22:57:30.09	103.91	24.10	-28.5	-28.5	16.3	1.23e-04	0	43	0	676331520	18	3593
2026-01-27 22:57:31.09	104.18	24.07	-28.5	-28.8	16.4	1.14e-04	0	43	0	678428672	17	3756
2026-01-27 22:57:32.10	104.46	24.03	-28.5	-29.0	16.3	7.00e-07	0	43	0	680525824	17	3793
2026-01-27 22:57:33.10	104.74	23.99	-28.7	-29.5	16.0	1.67e-05	0	43	0	682622976	17	3926
2026-01-27 22:57:34.11	105.01	23.95	-28.7	-29.4	16.1	1.44e-05	0	43	0	683671552	17	3902
2026-01-27 22:57:35.11	105.29	23.91	-28.6	-29.1	16.2	0.00e+00	0	43	0	685768704	17	3833
2026-01-27 22:57:36.11	105.56	23.87	-28.4	-28.8	16.4	0.00e+00	0	43	0	687865856	17	3758
2026-01-27 22:57:37.12	105.84	23.83	-28.3	-28.5	16.6	1.85e-04	0	43	0	689963008	17	3674
2026-01-27 22:57:38.12	106.11	23.79	-28.4	-28.7	16.5	0.00e+00	0	43	0	692060160	17	3720
2026-01-27 22:57:39.12	106.38	23.74	-28.3	-28.4	16.6	0.00e+00	0	43	0	693108736	17	3650
2026-01-27 22:57:40.12	106.65	23.70	-28.4	-28.8	16.3	0.00e+00	0	43	0	695205888	17	3765
2026-01-27 22:57:41.12	106.92	23.66	-28.7	-29.3	16.1	0.00e+00	0	43	0	697303040	17	3895
2026-01-27 22:57:42.13	107.19	23.61	-28.7	-29.5	16.0	0.00e+00	0	43	0	699400192	17	3941
2026-01-27 22:57:43.13	107.46	23.57	-28.8	-29.6	15.9	0.00e+00	0	43	0	701497344	17	3961
2026-01-27 22:57:44.13	107.73	23.52	-28.2	-28.2	16.7	0.00e+00	0	43	0	702545920	17	3611
2026-01-27 22:57:45.13	107.99	23.48	-28.0	-27.7	16.9	0.00e+00	0	43	0	704643072	17	3499
2026-01-27 22:57:46.13	108.26	23.43	-27.9	-27.7	17.0	0.00e+00	0	43	0	706740224	17	3484
2026-01-27 22:57:47.14	108.53	23.38	-28.2	-28.2	16.7	0.00e+00	0	43	0	708837376	17	3606
2026-01-27 22:57:48.14	108.79	23.33	-28.2	-28.3	16.6	0.00e+00	0	43	0	709885952	17	3640
2026-01-27 22:57:49.14	109.06	23.29	-28.6	-29.2	16.1	7.00e-07	0	43	0	711983104	17	3865
2026-01-27 22:57:50.15	109.32	23.24	-28.9	-29.8	15.8	0.00e+00	0	43	0	714080256	17	4031
2026-01-27 22:57:51.15	109.58	23.19	-29.2	-30.1	15.3	1.85e-04	0	43	0	716177408	18	3998
2026-01-27 22:57:52.16	109.85	23.14	-29.0	-29.7	15.5	2.48e-04	0	43	0	718274560	18	3898
2026-01-27 22:57:53.16	110.11	23.09	-28.7	-28.9	16.0	0.00e+00	0	43	0	720371712	18	3704
2026-01-27 22:57:54.17	110.37	23.04	-28.4	-28.3	16.4	0.00e+00	0	43	0	721420288	18	3550
2026-01-27 22:57:55.17	110.63	22.98	-28.3	-28.4	16.5	1.82e-04	0	43	0	723517440	17	3671
2026-01-27 22:57:56.17	110.89	22.93	-28.3	-28.5	16.5	0.00e+00	0	43	0	725614592	17	3692
2026-01-27 22:57:57.17	111.14	22.88	-28.4	-28.8	16.4	0.00e+00	0	43	0	727711744	17	3756
2026-01-27 22:57:58.18	111.40	22.83	-28.6	-29.2	16.0	0.00e+00	0	43	0	728760320	17	3868
2026-01-27 22:57:59.18	111.66	22.77	-28.4	-28.8	16.3	0.00e+00	0	43	0	730857472	17	3754
2026-01-27 22:58:00.18	111.91	22.72	-28.5	-29.0	16.2	0.00e+00	0	43	0	732954624	17	3807
2026-01-27 22:58:01.19	112.17	22.67	-28.5	-29.0	16.2	0.00e+00	0	43	0	735051776	17	3810
2026-01-27 22:58:02.19	112.42	22.61	-28.4	-28.9	16.2	0.00e+00	0	43	0	737148928	17	3788
2026-01-27 22:58:03.18	112.67	22.56	-28.8	-29.7	15.8	1.50e-06	0	43	0	738197504	17	4003
2026-01-27 22:58:04.18	112.92	22.50	-29.0	-30.2	15.5	0.00e+00	0	43	0	740294656	17	4129
2026-01-27 22:58:05.18	113.17	22.45	-29.2	-30.3	15.2	0.00e+00	0	43	0	742391808	18	4064
2026-01-27 22:58:06.18	113.42	22.39	-29.3	-30.3	15.1	1.44e-05	0	43	0	744488960	18	4079
2026-01-27 22:58:07.19	113.67	22.33	-29.2	-30.3	15.1	0.00e+00	0	43	0	746586112	18	4067
2026-01-27 22:58:08.20	113.92	22.28	-29.3	-30.3	15.1	0.00e+00	0	43	0	747634688	18	4077
2026-01-27 22:58:09.20	114.17	22.22	-29.3	-30.5	15.0	0.00e+00	0	43	0	749731840	18	4135
2026-01-27 22:58:10.20	114.42	22.16	-29.6	-30.7	14.6	0.00e+00	0	43	0	751828992	19	4082
2026-01-27 22:58:11.20	114.66	22.10	-29.4	-30.3	14.8	0.00e+00	0	43	0	753926144	19	3982
2026-01-27 22:58:12.20	114.91	22.04	-29.4	-30.3	14.8	0.00e+00	0	43	0	754974720	19	3976
2026-01-27 22:58:13.20	115.15	21.98	-29.6	-30.8	14.4	2.66e-04	0	43	0	757071872	19	4137
2026-01-27 22:58:14.20	115.39	21.92	-29.5	-30.6	14.6	0.00e+00	0	43	0	759169024	19	4060
2026-01-27 22:58:15.21	115.63	21.86	-29.7	-31.0	14.3	0.00e+00	0	43	0	761266176	19	4178
2026-01-27 22:58:16.21	115.87	21.80	-29.7	-30.9	14.3	0.00e+00	0	43	0	763363328	19	4167
2026-01-27 22:58:17.21	116.11	21.74	-29.4	-30.2	14.8	7.00e-07	0	43	0	765460480	19	3950
2026-01-27 22:58:18.21	116.35	21.68	-29.3	-30.6	15.0	0.00e+00	0	43	0	766509056	18	4147
2026-01-27 22:58:19.21	116.59	21.62	-29.3	-30.5	14.9	2.20e-06	0	43	0	768606208	18	4135
2026-01-27 22:58:20.21	116.83	21.56	-29.4	-30.8	14.7	7.00e-07	0	43	0	770703360	18	4208
2026-01-27 22:58:21.22	117.07	21.50	-29.8	-31.2	14.2	0.00e+00	0	43	0	772800512	19	4235
2026-01-27 22:58:22.23	117.30	21.43	-30.2	-31.8	13.4	7.60e-06	0	43	0	773849088	20	4356
2026-01-27 22:58:23.23	117.54	21.37	-30.4	-32.3	13.0	1.67e-05	0	43	0	775946240	20	4522
2026-01-27 22:58:24.23	117.77	21.31	-30.5	-32.2	12.8	8.16e-05	0	43	0	778043392	21	4373
2026-01-27 22:58:25.24	118.00	21.24	-30.2	-31.3	13.4	2.51e-05	0	43	0	780140544	21	4104
2026-01-27 22:58:26.24	118.24	21.18	-29.8	-30.2	14.1	4.50e-06	0	43	0	782237696	21	3792
2026-01-27 22:58:27.24	118.47	21.12	-29.4	-29.8	14.7	0.00e+00	0	43	0	783286272	20	3764
2026-01-27 22:58:28.24	118.69	21.05	-29.0	-29.2	15.5	0.00e+00	0	43	0	785383424	19	3676
2026-01-27 22:58:29.24	118.92	20.99	-28.7	-28.9	15.9	0.00e+00	0	43	0	787480576	18	3699
2026-01-27 22:58:30.24	119.15	20.92	-28.8	-29.1	15.8	0.00e+00	0	43	0	789577728	18	3749
2026-01-27 22:58:31.25	119.38	20.86	-28.9	-29.4	15.7	0.00e+00	0	43	0	791674880	18	3815
2026-01-27 22:58:32.26	119.61	20.79	-29.2	-30.1	15.1	0.00e+00	0	43	0	792723456	18	4018
2026-01-27 22:58:33.26	119.83	20.73	-29.5	-30.8	14.8	0.00e+00	0	43	0	794820608	18	4222
2026-01-27 22:58:34.26	120.06	20.66	-29.6	-30.8	14.4	1.50e-06	0	43	0	796917760	19	4129
2026-01-27 22:58:35.26	120.28	20.60	-29.9	-31.4	14.1	0.00e+00	0	43	0	799014912	19	4301
2026-01-27 22:58:36.26	120.50	20.53	-29.9	-31.4	14.1	1.50e-06	0	43	0	801112064	19	4297
2026-01-27 22:58:37.26	120.72	20.46	-29.8	-31.2	14.2	3.80e-06	0	43	0	802160640	19	4222
2026-01-27 22:58:38.27	120.94	20.39	-29.8	-30.8	14.1	4.50e-06	0	43	0	804257792	20	4024
2026-01-27 22:58:39.27	121.16	20.33	-29.9	-31.0	14.0	7.00e-07	0	43	0	806354944	20	4078
2026-01-27 22:58:40.28	121.38	20.26	-29.8	-30.8	14.1	3.80e-06	0	43	0	808452096	20	4020
2026-01-27 22:58:41.28	121.60	20.19	-29.9	-31.1	13.9	6.10e-06	0	43	0	810549248	20	4136
2026-01-27 22:58:42.28	121.82	20.12	-29.8	-30.8	14.0	3.00e-06	0	43	0	811597824	20	4049
2026-01-27 22:58:43.29	122.03	20.06	-29.6	-30.3	14.3	0.00e+00	0	43	0	813694976	20	3903
2026-01-27 22:58:44.29	122.25	19.99	-29.7	-30.4	14.3	2.05e-05	0	43	0	815792128	20	3919
2026-01-27 22:58:45.30	122.46	19.92	-29.6	-30.2	14.4	1.50e-06	0	43	0	817889280	20	3868
2026-01-27 22:58:46.30	122.68	19.85	-29.7	-30.5	14.3	0.00e+00	0	43	0	818937856	20	3950
2026-01-27 22:58:47.31	122.89	19.78	-29.8	-30.9	14.0	4.50e-06	0	43	0	821035008	20	4053
2026-01-27 22:58:48.31	123.10	19.71	-30.0	-31.4	13.7	5.30e-06	0	43	0	823132160	20	4225
2026-01-27 22:58:49.31	123.31	19.64	-30.2	-32.0	13.2	1.29e-05	0	43	0	825229312	20	4415
2026-01-27 22:58:50.32	123.52	19.57	-30.3	-32.2	13.1	3.73e-05	0	43	0	827326464	20	4475
2026-01-27 22:58:51.33	123.73	19.50	-30.1	-31.7	13.5	1.60e-05	0	43	0	828375040	20	4313
2026-01-27 22:58:52.33	123.94	19.43	-30.0	-31.2	13.8	8.30e-06	0	43	0	830472192	20	4156
2026-01-27 22:58:53.33	124.14	19.36	-29.8	-30.8	14.0	7.00e-07	0	43	0	832569344	20	4040
2026-01-27 22:58:54.33	124.35	19.29	-29.8	-30.7	14.1	4.65e-05	0	43	0	834666496	20	3999
2026-01-27 22:58:55.34	124.56	19.22	-29.8	-30.7	14.1	3.00e-06	0	43	0	836763648	20	3996
2026-01-27 22:58:56.35	124.76	19.15	-29.6	-30.2	14.5	7.00e-07	0	43	0	837812224	20	3867
2026-01-27 22:58:57.36	124.97	19.08	-29.9	-31.0	13.9	3.00e-06	0	43	0	839909376	20	4090
2026-01-27 22:58:58.36	125.17	19.01	-30.2	-31.9	13.3	1.06e-05	0	43	0	842006528	20	4367
2026-01-27 22:58:59.36	125.37	18.94	-30.5	-32.3	12.7	7.17e-05	0	43	0	844103680	21	4425
2026-01-27 22:59:00.37	125.57	18.87	-30.5	-32.3	12.7	8.46e-05	0	43	0	846200832	21	4426
2026-01-27 22:59:01.37	125.77	18.79	-30.5	-32.4	12.6	7.17e-05	0	43	0	847249408	21	4458
2026-01-27 22:59:02.37	125.97	18.72	-30.5	-32.3	12.7	7.70e-05	0	43	0	849346560	21	4412
2026-01-27 22:59:03.37	126.16	18.65	-30.6	-32.6	12.5	8.16e-05	0	43	0	851443712	21	4535
2026-01-27 22:59:04.37	126.36	18.58	-30.9	-33.3	12.0	3.67e-04	0	43	0	853540864	21	4767
2026-01-27 22:59:05.37	126.55	18.51	-30.5	-32.1	12.8	1.14e-04	0	43	0	855638016	21	4349
2026-01-27 22:59:06.37	126.75	18.44	-30.3	-31.7	13.1	3.28e-05	0	43	0	856686592	21	4211
2026-01-27 22:59:07.37	126.94	18.37	-30.3	-31.7	13.1	3.28e-05	0	43	0	858783744	21	4205
2026-01-27 22:59:08.37	127.13	18.29	-30.2	-31.3	13.3	2.44e-05	0	43	0	860880896	21	4089
2026-01-27 22:59:09.37	127.33	18.22	-30.4	-31.9	12.9	3.43e-05	0	43	0	862978048	21	4278
2026-01-27 22:59:10.38	127.52	18.15	-30.3	-31.8	13.0	4.73e-05	0	43	0	865075200	21	4253
2026-01-27 22:59:11.39	127.71	18.08	-30.1	-31.2	13.4	4.57e-05	0	43	0	866123776	21	4079
2026-01-27 22:59:12.38	127.90	18.00	-29.8	-30.8	13.9	2.44e-05	0	43	0	868220928	20	4074
2026-01-27 22:59:13.39	128.09	17.93	-29.6	-30.3	14.1	3.00e-06	0	43	0	870318080	20	3931
2026-01-27 22:59:14.39	128.27	17.86	-29.5	-30.1	14.3	1.50e-06	0	43	0	872415232	20	3849
2026-01-27 22:59:15.40	128.46	17.79	-29.7	-30.6	14.0	3.00e-06	0	43	0	873463808	20	3984
2026-01-27 22:59:16.40	128.65	17.71	-29.9	-31.2	13.6	2.20e-06	0	43	0	875560960	20	4178
2026-01-27 22:59:17.41	128.83	17.64	-30.0	-31.3	13.6	1.52e-05	0	43	0	877658112	20	4202
2026-01-27 22:59:18.41	129.02	17.57	-29.9	-31.0	13.8	3.89e-05	0	43	0	879755264	20	4091
2026-01-27 22:59:19.41	129.20	17.49	-29.7	-30.6	14.0	5.30e-06	0	43	0	881852416	20	3981
2026-01-27 22:59:20.42	129.39	17.42	-29.5	-30.0	14.3	3.11e-04	0	43	0	883949568	20	3837
2026-01-27 22:59:21.41	129.56	17.35	-29.3	-30.1	14.6	1.30e-04	0	43	0	884998144	19	3949
2026-01-27 22:59:22.41	129.75	17.28	-29.2	-29.8	14.8	0.00e+00	0	43	0	887095296	19	3862
2026-01-27 22:59:23.42	129.93	17.20	-29.2	-30.3	14.8	4.18e-04	0	43	0	889192448	18	4077
2026-01-27 22:59:24.42	130.10	17.13	-29.5	-31.1	14.4	3.71e-04	0	43	0	891289600	18	4310
2026-01-27 22:59:25.42	130.28	17.06	-29.7	-31.1	14.0	0.00e+00	0	43	0	892338176	19	4228
2026-01-27 22:59:26.43	130.46	16.98	-29.9	-31.6	13.7	3.51e-04	0	43	0	894435328	19	4393
2026-01-27 22:59:27.44	130.64	16.91	-30.0	-31.6	13.3	2.80e-04	0	43	0	896532480	20	4294
2026-01-27 22:59:28.44	130.81	16.83	-30.1	-31.7	13.2	2.51e-05	0	43	0	898629632	20	4353
2026-01-27 22:59:29.44	130.99	16.76	-30.0	-31.4	13.3	1.75e-05	0	43	0	900726784	20	4258
2026-01-27 22:59:30.44	131.16	16.69	-29.8	-31.1	13.6	9.90e-06	0	43	0	901775360	20	4142
2026-01-27 22:59:31.45	131.34	16.61	-29.7	-30.7	13.8	3.80e-06	0	43	0	903872512	20	4024
2026-01-27 22:59:32.46	131.51	16.54	-29.8	-31.0	13.6	3.80e-06	0	43	0	905969664	20	4134
2026-01-27 22:59:33.46	131.68	16.47	-29.8	-31.0	13.7	2.51e-05	0	43	0	908066816	20	4109
2026-01-27 22:59:34.46	131.85	16.39	-29.6	-30.5	14.0	7.00e-07	0	43	0	910163968	20	3969
2026-01-27 22:59:35.47	132.02	16.32	-29.7	-31.1	14.0	1.50e-06	0	43	0	911212544	19	4220
2026-01-27 22:59:36.47	132.19	16.25	-29.7	-31.1	13.9	2.87e-04	0	43	0	913309696	19	4243
2026-01-27 22:59:37.48	132.36	16.17	-29.8	-31.3	13.8	2.20e-06	0	43	0	915406848	19	4313
2026-01-27 22:59:38.48	132.53	16.10	-29.7	-31.1	13.9	2.20e-06	0	43	0	917504000	19	4238
2026-01-27 22:59:39.47	132.69	16.03	-29.5	-30.5	14.2	1.50e-06	0	43	0	919601152	19	4072
2026-01-27 22:59:40.48	132.86	15.95	-29.4	-30.5	14.3	1.50e-06	0	43	0	920649728	19	4059
2026-01-27 22:59:41.49	133.03	15.88	-29.5	-30.5	14.2	1.18e-04	0	43	0	922746880	19	4072
2026-01-27 22:59:42.49	133.19	15.80	-29.6	-30.8	14.1	1.50e-06	0	43	0	924844032	19	4134
2026-01-27 22:59:43.49	133.35	15.73	-29.6	-31.0	13.9	0.00e+00	0	43	0	926941184	19	4207
2026-01-27 22:59:44.49	133.52	15.66	-29.8	-31.4	13.7	2.30e-04	0	43	0	929038336	19	4329
2026-01-27 22:59:45.49	133.68	15.58	-30.0	-31.5	13.2	1.83e-05	0	43	0	930086912	20	4283
2026-01-27 22:59:46.48	133.84	15.51	-30.2	-32.2	12.7	8.46e-05	0	43	0	932184064	20	4541
2026-01-27 22:59:47.48	134.00	15.44	-30.4	-32.8	12.2	2.31e-04	0	43	0	934281216	20	4785
2026-01-27 22:59:48.49	134.16	15.36	-30.5	-33.0	11.6	7.74e-04	0	43	0	936378368	21	4788
2026-01-27 22:59:49.49	134.32	15.29	-30.6	-33.3	11.3	8.03e-04	0	43	0	937426944	21	4918
2026-01-27 22:59:50.49	134.48	15.22	-30.6	-33.4	11.3	1.14e-03	0	43	0	939524096	21	4968
2026-01-27 22:59:51.50	134.63	15.14	-30.6	-33.2	11.4	1.44e-03	0	43	0	941621248	21	4870
2026-01-27 22:59:52.50	134.79	15.07	-30.3	-32.3	12.1	3.96e-04	0	43	0	943718400	21	4533
2026-01-27 22:59:53.50	134.95	15.00	-30.3	-32.1	12.2	2.22e-04	0	43	0	945815552	21	4456
2026-01-27 22:59:54.51	135.10	14.92	-30.2	-31.8	12.5	3.55e-04	0	43	0	946864128	21	4332
2026-01-27 22:59:55.51	135.26	14.85	-30.2	-31.7	12.6	6.33e-05	0	43	0	948961280	21	4272
2026-01-27 22:59:56.52	135.41	14.77	-30.0	-31.6	13.0	7.24e-05	0	43	0	951058432	20	4354
2026-01-27 22:59:57.52	135.56	14.70	-29.9	-31.4	13.1	3.96e-05	0	43	0	953155584	20	4282
2026-01-27 22:59:58.53	135.72	14.63	-29.8	-31.0	13.4	1.90e-05	0	43	0	955252736	20	4125
2026-01-27 22:59:59.53	135.87	14.55	-29.7	-30.7	13.6	1.14e-05	0	43	0	956301312	20	4043
2026-01-27 23:00:00.52	136.02	14.48	-29.7	-30.9	13.5	1.14e-05	0	43	0	958398464	20	4092
2026-01-27 23:00:01.53	136.17	14.41	-29.6	-30.5	13.7	9.10e-06	0	43	0	960495616	20	4002
2026-01-27 23:00:02.53	136.32	14.33	-29.5	-30.2	13.9	4.50e-06	0	43	0	962592768	20	3912
2026-01-27 23:00:03.53	136.47	14.26	-29.6	-30.5	13.7	6.80e-06	0	43	0	964689920	20	4008
2026-01-27 23:00:04.53	136.61	14.19	-29.4	-29.9	14.0	1.50e-06	0	43	0	965738496	20	3841
2026-01-27 23:00:05.53	136.76	14.12	-29.3	-30.3	14.2	1.50e-06	0	43	0	967835648	19	4033
2026-01-27 23:00:06.53	136.91	14.04	-29.5	-30.8	13.8	4.50e-06	0	43	0	969932800	19	4185
2026-01-27 23:00:07.54	137.05	13.97	-29.6	-31.1	13.6	5.30e-06	0	43	0	972029952	19	4271
2026-01-27 23:00:08.54	137.20	13.90	-29.7	-31.3	13.5	4.50e-06	0	43	0	974127104	19	4331
2026-01-27 23:00:09.54	137.34	13.82	-29.9	-31.7	13.3	1.67e-05	0	43	0	975175680	19	4470
2026-01-27 23:00:10.55	137.49	13.75	-30.0	-31.8	12.7	4.88e-05	0	43	0	977272832	20	4411
2026-01-27 23:00:11.55	137.63	13.68	-30.2	-32.2	12.5	8.31e-05	0	43	0	979369984	20	4560
2026-01-27 23:00:12.56	137.77	13.61	-30.3	-32.6	12.2	2.04e-04	0	43	0	981467136	20	4697
2026-01-27 23:00:13.56	137.92	13.53	-30.3	-32.7	12.1	1.91e-04	0	43	0	983564288	20	4728
2026-01-27 23:00:14.57	138.06	13.46	-30.3	-32.7	12.1	2.49e-04	0	43	0	984612864	20	4755
2026-01-27 23:00:15.57	138.20	13.39	-30.4	-33.1	11.8	4.60e-04	0	43	0	986710016	20	4884
2026-01-27 23:00:16.58	138.34	13.31	-30.3	-32.7	12.1	3.84e-04	0	43	0	988807168	20	4741
2026-01-27 23:00:17.58	138.48	13.24	-30.4	-33.0	11.8	3.17e-04	0	43	0	990904320	20	4868
2026-01-27 23:00:18.58	138.62	13.17	-30.3	-32.7	12.1	4.99e-04	0	43	0	991952896	20	4743
2026-01-27 23:00:19.59	138.75	13.10	-30.1	-32.2	12.4	1.67e-04	0	43	0	994050048	20	4553
2026-01-27 23:00:20.59	138.89	13.02	-30.1	-32.2	12.4	1.64e-04	0	43	0	996147200	20	4570
2026-01-27 23:00:21.59	139.03	12.95	-30.1	-32.1	12.5	1.36e-04	0	43	0	998244352	20	4526
2026-01-27 23:00:22.60	139.16	12.88	-30.1	-32.1	12.4	1.43e-04	0	43	0	1000341504	20	4530
2026-01-27 23:00:23.60	139.30	12.81	-30.1	-32.1	12.3	1.93e-04	0	43	0	1001390080	20	4537
2026-01-27 23:00:24.60	139.43	12.74	-30.0	-31.8	12.7	9.99e-05	0	43	0	1003487232	20	4407
2026-01-27 23:00:25.60	139.57	12.67	-30.0	-31.7	12.4	7.47e-05	0	43	0	1005584384	20	4395
2026-01-27 23:00:26.60	139.70	12.59	-29.9	-31.6	12.5	6.63e-05	0	43	0	1007681536	20	4371
2026-01-27 23:00:27.61	139.83	12.52	-29.9	-31.6	12.8	4.19e-05	0	43	0	1009778688	20	4366
2026-01-27 23:00:28.62	139.97	12.45	-29.9	-31.4	12.9	7.62e-05	0	43	0	1010827264	20	4301
2026-01-27 23:00:29.62	140.10	12.38	-29.9	-31.9	13.0	4.71e-04	0	43	0	1012924416	19	4530
2026-01-27 23:00:30.63	140.23	12.31	-29.9	-31.9	13.0	3.89e-05	0	43	0	1015021568	19	4536
2026-01-27 23:00:31.62	140.36	12.24	-29.7	-31.5	13.2	3.50e-05	0	43	0	1017118720	19	4426
2026-01-27 23:00:32.62	140.49	12.16	-29.7	-31.5	13.2	2.22e-04	0	43	0	1019215872	19	4416
2026-01-27 23:00:33.63	140.62	12.09	-29.8	-31.7	13.1	3.89e-05	0	43	0	1020264448	19	4477
2026-01-27 23:00:34.63	140.75	12.02	-29.8	-31.7	13.0	4.50e-05	0	43	0	1022361600	19	4473
2026-01-27 23:00:35.63	140.87	11.95	-29.9	-32.1	12.8	5.11e-05	0	43	0	1024458752	19	4605
2026-01-27 23:00:36.63	141.00	11.88	-30.2	-32.4	12.1	1.88e-04	0	43	0	1026555904	20	4661
2026-01-27 23:00:37.64	141.13	11.81	-30.2	-32.5	12.0	4.05e-04	0	43	0	1028653056	20	4678
2026-01-27 23:00:38.64	141.25	11.74	-30.3	-32.7	11.8	2.49e-04	0	43	0	1029701632	20	4755
2026-01-27 23:00:39.65	141.38	11.67	-30.4	-33.0	11.6	5.60e-04	0	43	0	1031798784	20	4863
2026-01-27 23:00:40.65	141.50	11.60	-30.5	-33.2	11.5	1.43e-03	0	43	0	1033895936	20	4956
2026-01-27 23:00:41.65	141.63	11.53	-30.7	-33.7	10.7	1.37e-03	0	43	0	1035993088	21	5057
2026-01-27 23:00:42.66	141.75	11.45	-30.7	-33.7	10.6	3.70e-03	0	43	0	1038090240	21	5090
2026-01-27 23:00:43.66	141.88	11.38	-30.7	-33.8	10.5	3.97e-03	0	43	0	1039138816	21	5146
2026-01-27 23:00:44.66	142.00	11.31	-30.8	-34.0	10.3	4.59e-03	0	43	0	1041235968	21	5247
2026-01-27 23:00:45.66	142.12	11.24	-30.7	-33.9	10.4	5.69e-03	0	43	0	1043333120	21	5186
2026-01-27 23:00:46.66	142.24	11.17	-30.9	-34.4	10.0	6.68e-03	0	43	0	1045430272	21	5391
2026-01-27 23:00:47.67	142.36	11.10	-30.7	-33.9	10.4	8.07e-03	0	43	0	1047527424	21	5179
2026-01-27 23:00:48.67	142.48	11.03	-30.7	-33.6	10.6	4.00e-03	0	43	0	1048576000	21	5065
2026-01-27 23:00:49.67	142.60	10.96	-30.9	-34.5	10.0	8.07e-03	0	43	0	1050673152	21	5431
2026-01-27 23:00:50.67	142.72	10.89	-30.7	-33.7	10.5	7.84e-03	0	43	0	1052770304	21	5104
2026-01-27 23:00:51.67	142.84	10.82	-30.5	-33.1	10.9	2.24e-03	0	43	0	1054867456	21	4873
2026-01-27 23:00:52.68	142.96	10.75	-30.4	-33.3	11.2	1.83e-03	0	43	0	1055916032	20	5011
2026-01-27 23:00:53.67	143.07	10.69	-30.2	-32.8	11.5	2.00e-03	0	43	0	1058013184	20	4829
2026-01-27 23:00:54.68	143.19	10.62	-30.3	-33.1	11.3	8.98e-04	0	43	0	1060110336	20	4966
2026-01-27 23:00:55.69	143.31	10.55	-30.2	-32.8	11.5	9.78e-04	0	43	0	1062207488	20	4841
2026-01-27 23:00:56.69	143.43	10.48	-30.2	-32.8	11.5	1.72e-03	0	43	0	1064304640	20	4835
2026-01-27 23:00:57.69	143.54	10.41	-30.3	-33.1	11.2	1.10e-03	0	43	0	1065353216	20	4985
2026-01-27 23:00:58.69	143.66	10.34	-30.2	-32.8	11.4	2.75e-03	0	43	0	1067450368	20	4864
2026-01-27 23:00:59.69	143.77	10.27	-30.2	-32.7	11.5	7.16e-04	0	43	0	1069547520	20	4835
2026-01-27 23:01:00.69	143.88	10.20	-30.2	-32.8	11.4	1.11e-03	0	43	0	1071644672	20	4873
2026-01-27 23:01:01.70	144.00	10.13	-30.0	-32.2	11.8	2.45e-03	0	43	0	1073741824	20	4654
2026-01-27 23:01:02.71	144.11	10.06	-30.0	-32.2	11.8	4.03e-04	0	43	0	1074790400	20	4653
2026-01-27 23:01:03.71	144.22	9.99	-29.9	-32.1	11.9	5.19e-04	0	43	0	1076887552	20	4601
2026-01-27 23:01:04.72	144.34	9.92	-30.0	-32.2	11.9	2.17e-03	0	43	0	1078984704	20	4637
2026-01-27 23:01:05.72	144.45	9.86	-29.9	-32.1	11.9	2.30e-03	0	43	0	1081081856	20	4624
2026-01-27 23:01:06.71	144.56	9.79	-29.9	-32.0	12.0	4.07e-04	0	43	0	1083179008	20	4563
2026-01-27 23:01:07.72	144.67	9.72	-30.0	-32.3	11.8	2.30e-03	0	43	0	1084227584	20	4688
2026-01-27 23:01:08.72	144.78	9.65	-30.0	-32.3	11.8	2.45e-03	0	43	0	1086324736	20	4694
2026-01-27 23:01:09.73	144.89	9.58	-30.0	-32.4	11.8	4.58e-04	0	43	0	1088421888	20	4700
2026-01-27 23:01:10.74	145.00	9.52	-30.2	-32.8	11.5	2.83e-03	0	43	0	1090519040	20	4843
2026-01-27 23:01:11.74	145.11	9.45	-30.4	-33.2	11.2	3.40e-03	0	43	0	1092616192	20	5010
2026-01-27 23:01:12.75	145.21	9.38	-30.3	-33.2	11.2	1.29e-03	0	43	0	1093664768	20	4988
2026-01-27 23:01:13.75	145.32	9.31	-30.6	-33.6	10.5	4.99e-03	0	43	0	1095761920	21	5075
2026-01-27 23:01:14.75	145.43	9.24	-30.5	-33.2	10.8	5.30e-03	0	43	0	1097859072	21	4907
2026-01-27 23:01:15.75	145.53	9.18	-30.6	-33.7	10.5	2.56e-03	0	43	0	1099956224	21	5112
2026-01-27 23:01:16.75	145.64	9.11	-30.6	-33.6	10.5	6.20e-03	0	43	0	1101004800	21	5099
2026-01-27 23:01:17.75	145.75	9.04	-30.3	-33.0	10.9	4.67e-03	0	43	0	1103101952	21	4876
2026-01-27 23:01:18.76	145.85	8.98	-30.3	-33.3	10.5	2.77e-03	0	43	0	1105199104	21	5041
2026-01-27 23:01:19.76	145.96	8.91	-30.2	-33.2	11.0	5.54e-03	0	43	0	1107296256	20	5087
2026-01-27 23:01:20.77	146.06	8.84	-30.1	-33.0	11.1	1.34e-03	0	43	0	1109393408	20	5004
2026-01-27 23:01:21.77	146.16	8.77	-30.1	-33.0	11.1	2.28e-03	0	43	0	1111490560	20	4995
2026-01-27 23:01:22.77	146.27	8.71	-30.0	-32.4	11.6	2.74e-03	0	43	0	1112539136	20	4772
2026-01-27 23:01:23.77	146.37	8.64	-30.0	-32.5	11.5	7.08e-04	0	43	0	1114636288	20	4802
2026-01-27 23:01:24.77	146.47	8.57	-30.1	-32.7	11.4	1.26e-03	0	43	0	1116733440	20	4888
2026-01-27 23:01:25.78	146.57	8.51	-29.9	-32.2	11.7	3.15e-03	0	43	0	1118830592	20	4711
2026-01-27 23:01:26.78	146.68	8.44	-30.0	-32.6	11.4	2.90e-03	0	43	0	1119879168	20	4852
2026-01-27 23:01:27.78	146.78	8.38	-30.0	-32.8	11.3	1.08e-03	0	43	0	1121976320	20	4942
2026-01-27 23:01:28.79	146.88	8.31	-29.9	-32.4	11.4	3.37e-03	0	43	0	1124073472	20	4823
2026-01-27 23:01:29.80	146.98	8.24	-30.1	-33.2	10.9	3.96e-03	0	43	0	1126170624	20	5142
2026-01-27 23:01:30.81	147.08	8.18	-30.1	-33.2	10.8	2.92e-03	0	43	0	1128267776	20	5150
2026-01-27 23:01:31.81	147.18	8.11	-30.1	-33.6	10.3	5.66e-03	0	43	0	1129316352	20	5426
2026-01-27 23:01:32.81	147.28	8.04	-30.2	-34.0	10.0	9.22e-03	0	43	0	1131413504	20	5604
2026-01-27 23:01:33.82	147.38	7.98	-30.1	-33.8	10.2	6.76e-03	0	43	0	1133510656	20	5490
2026-01-27 23:01:34.82	147.47	7.91	-30.3	-34.7	9.4	1.22e-02	0	43	0	1135607808	20	5968
2026-01-27 23:01:35.83	147.57	7.85	-30.3	-34.8	9.4	1.84e-02	0	43	0	1137704960	20	5999
2026-01-27 23:01:36.83	147.67	7.78	-30.2	-34.4	9.7	1.31e-02	0	43	0	1138753536	20	5814
2026-01-27 23:01:37.83	147.76	7.72	-30.4	-35.1	9.2	2.07e-02	0	43	0	1140850688	20	6164
2026-01-27 23:01:38.83	147.86	7.65	-30.3	-34.7	9.4	1.84e-02	0	43	0	1142947840	20	5934
2026-01-27 23:01:39.84	147.96	7.59	-30.5	-35.0	9.3	1.40e-02	0	43	0	1145044992	20	6033
2026-01-27 23:01:40.84	148.05	7.52	-30.5	-34.4	9.3	1.91e-02	0	43	0	1147142144	21	5679
2026-01-27 23:01:41.85	148.15	7.46	-30.4	-34.4	9.8	1.17e-02	0	43	0	1148190720	20	5714
2026-01-27 23:01:42.86	148.24	7.39	-30.6	-34.4	9.4	1.24e-02	0	43	0	1150287872	21	5617
2026-01-27 23:01:43.86	148.34	7.33	-30.6	-34.3	9.5	1.35e-02	0	43	0	1152385024	21	5545
2026-01-27 23:01:44.87	148.43	7.26	-30.7	-34.9	9.1	1.54e-02	0	43	0	1154482176	21	5808
2026-01-27 23:01:45.88	148.53	7.20	-30.5	-34.2	9.6	2.15e-02	0	43	0	1156579328	21	5494
2026-01-27 23:01:46.88	148.62	7.13	-30.4	-33.9	9.8	1.54e-02	0	43	0	1157627904	21	5357
2026-01-27 23:01:47.88	148.71	7.07	-32.0	-44.6	3.8	1.49e+00	0	43	104	1158676480	24	15367
2026-01-27 23:01:48.88	148.80	7.00	-33.5	-46.2	3.8	1.49e+00	0	43	104	1158676480	26	15573

#Closed at: 2026-01-27 23:01:49
#Recorded file [1158 MB]: D:/data/31010_260128_015128.dat