passes_logs/2026/01/27/R2M6_AANII_01/R2M6_AANII_01__20260127_101316_NOAA_21_JPSS-2_rec.log

#Pass ID: 20260127_101316_NOAA 21 (JPSS-2)
#Satellite: NOAA 21 (JPSS-2)
#Configuration: NOAA 21
#almurnet v.1.7.20240730
#Start time: 2026-01-27 10:13:16

#Version: 2.2.20231116
#Station: R2M6_AANII_01
#Location: 30.233357 lon 59.946436 lat
#TLE: 1 54234U 22150A   26026.78373243  .00000177  00000+0  10458-3 0  9996
#TLE: 2 54234  98.7509 327.5416 0000822 208.1870 151.9262 14.19539807166482

#Time	Az	El	Level	Level2	SNR	BER	BlckErr	Temp	State	Recorded	gain1	gain2
2026-01-27 10:13:16.77	157.06	7.05	-29.8	-34.0	4.8	1.38e+00	0	43	0	0	20	5883
2026-01-27 10:13:17.76	157.05	7.13	-30.2	-35.2	4.7	1.40e+00	0	43	104	0	20	6450
2026-01-27 10:13:18.77	157.05	7.21	-30.0	-33.8	9.7	1.47e-02	0	43	0	0	20	5591
2026-01-27 10:13:19.77	157.05	7.28	-30.1	-34.1	9.5	1.36e-02	0	43	0	3145728	20	5713
2026-01-27 10:13:20.78	157.05	7.36	-30.1	-33.9	9.7	1.36e-02	0	43	0	6291456	20	5613
2026-01-27 10:13:21.78	157.05	7.44	-30.0	-33.4	10.1	7.61e-03	0	43	0	9437184	20	5363
2026-01-27 10:13:22.79	157.05	7.52	-30.0	-33.3	10.2	6.20e-03	0	43	0	12582912	20	5297
2026-01-27 10:13:23.79	157.05	7.60	-29.9	-33.1	10.4	4.45e-03	0	43	0	15728640	20	5223
2026-01-27 10:13:24.79	157.05	7.68	-29.8	-32.9	10.6	3.93e-03	0	43	0	18874368	20	5112
2026-01-27 10:13:25.80	157.05	7.76	-29.6	-32.2	11.0	2.37e-03	0	43	0	22020096	20	4863
2026-01-27 10:13:26.80	157.05	7.84	-29.3	-31.4	11.5	8.31e-04	0	43	0	24117248	20	4586
2026-01-27 10:13:27.80	157.04	7.92	-29.2	-31.6	11.8	5.45e-04	0	43	0	27262976	19	4763
2026-01-27 10:13:28.80	157.04	8.00	-29.3	-31.8	11.7	5.65e-04	0	43	0	30408704	19	4817
2026-01-27 10:13:29.81	157.04	8.08	-29.2	-31.5	11.9	4.36e-04	0	43	0	33554432	19	4719
2026-01-27 10:13:30.82	157.04	8.16	-29.2	-31.7	11.8	4.25e-04	0	43	0	36700160	19	4786
2026-01-27 10:13:31.82	157.04	8.25	-29.1	-31.3	12.1	3.16e-04	0	43	0	40894464	19	4641
2026-01-27 10:13:32.82	157.04	8.33	-28.9	-30.9	12.3	2.04e-04	0	43	0	44040192	19	4528
2026-01-27 10:13:33.83	157.04	8.41	-28.9	-30.8	12.5	1.28e-04	0	43	0	47185920	19	4471
2026-01-27 10:13:34.83	157.04	8.49	-28.9	-30.7	12.5	1.17e-04	0	43	0	49283072	19	4454
2026-01-27 10:13:35.83	157.04	8.57	-28.9	-30.7	12.6	1.26e-04	0	43	0	52428800	19	4426
2026-01-27 10:13:36.83	157.03	8.66	-28.9	-30.8	12.5	9.23e-05	0	43	0	55574528	19	4462
2026-01-27 10:13:37.84	157.03	8.74	-28.8	-30.5	12.6	8.39e-05	0	43	0	58720256	19	4386
2026-01-27 10:13:38.84	157.03	8.82	-28.6	-30.6	12.9	5.64e-05	0	43	0	61865984	18	4506
2026-01-27 10:13:39.85	157.03	8.91	-28.8	-31.0	12.7	7.85e-05	0	43	0	65011712	18	4628
2026-01-27 10:13:40.85	157.03	8.99	-28.8	-30.8	12.8	7.70e-05	0	43	0	68157440	18	4569
2026-01-27 10:13:41.85	157.03	9.08	-28.7	-30.7	12.9	3.73e-05	0	43	0	71303168	18	4517
2026-01-27 10:13:42.86	157.03	9.16	-28.8	-30.9	12.8	5.72e-05	0	43	0	74448896	18	4606
2026-01-27 10:13:43.86	157.03	9.25	-28.7	-30.8	12.9	4.65e-05	0	43	0	77594624	18	4542
2026-01-27 10:13:44.86	157.02	9.33	-28.7	-30.7	12.9	4.57e-05	0	43	0	80740352	18	4522
2026-01-27 10:13:45.86	157.02	9.41	-29.0	-31.3	12.6	5.56e-05	0	43	0	83886080	18	4713
2026-01-27 10:13:46.87	157.02	9.50	-28.8	-30.9	12.8	5.95e-05	0	43	0	87031808	18	4585
2026-01-27 10:13:47.87	157.02	9.59	-28.7	-30.6	13.0	4.42e-05	0	43	0	90177536	18	4486
2026-01-27 10:13:48.87	157.02	9.67	-28.6	-30.2	13.3	1.83e-05	0	43	0	93323264	18	4376
2026-01-27 10:13:49.86	157.02	9.76	-28.6	-30.3	13.3	1.83e-05	0	43	0	96468992	18	4377
2026-01-27 10:13:50.86	157.01	9.85	-28.5	-30.2	13.3	2.05e-05	0	43	0	99614720	18	4364
2026-01-27 10:13:51.86	157.01	9.93	-28.5	-30.1	13.3	1.29e-05	0	43	0	102760448	18	4349
2026-01-27 10:13:52.86	157.01	10.02	-28.4	-29.9	13.5	1.67e-05	0	43	0	105906176	18	4281
2026-01-27 10:13:53.87	157.01	10.11	-28.4	-29.9	13.5	9.90e-06	0	44	0	109051904	18	4286
2026-01-27 10:13:54.87	157.01	10.20	-28.4	-30.0	13.5	9.90e-06	0	43	0	112197632	18	4303
2026-01-27 10:13:55.88	157.01	10.28	-28.6	-30.3	13.3	2.21e-05	0	43	0	115343360	18	4403
2026-01-27 10:13:56.88	157.00	10.37	-28.5	-30.2	13.3	9.90e-06	0	43	0	118489088	18	4368
2026-01-27 10:13:57.88	157.00	10.46	-28.4	-30.0	13.5	1.75e-05	0	43	0	121634816	18	4303
2026-01-27 10:13:58.89	157.00	10.55	-28.5	-30.1	13.4	1.44e-05	0	44	0	124780544	18	4320
2026-01-27 10:13:59.89	157.00	10.64	-28.7	-30.7	13.0	2.51e-05	0	43	0	127926272	18	4524
2026-01-27 10:14:00.89	157.00	10.73	-28.5	-30.2	13.3	2.59e-05	0	43	0	131072000	18	4367
2026-01-27 10:14:01.88	157.00	10.82	-28.4	-29.8	13.6	1.60e-05	0	43	0	134217728	18	4234
2026-01-27 10:14:02.89	156.99	10.91	-28.4	-29.8	13.6	9.90e-06	0	44	0	137363456	18	4246
2026-01-27 10:14:03.89	156.99	11.00	-28.3	-29.7	13.7	4.50e-06	0	43	0	140509184	18	4206
2026-01-27 10:14:04.90	156.99	11.09	-28.3	-30.0	13.8	6.80e-06	0	43	0	143654912	17	4417
2026-01-27 10:14:05.91	156.99	11.19	-28.2	-29.9	13.9	1.50e-06	0	44	0	146800640	17	4370
2026-01-27 10:14:06.91	156.99	11.28	-28.3	-30.2	13.7	3.80e-06	0	44	0	149946368	17	4480
2026-01-27 10:14:07.91	156.98	11.37	-28.3	-30.0	13.8	5.30e-06	0	44	0	153092096	17	4422
2026-01-27 10:14:08.92	156.98	11.46	-28.2	-29.9	13.9	6.10e-06	0	43	0	156237824	17	4371
2026-01-27 10:14:09.93	156.98	11.56	-28.0	-29.5	14.1	1.50e-06	0	44	0	159383552	17	4257
2026-01-27 10:14:10.93	156.98	11.65	-28.0	-29.5	14.1	0.00e+00	0	43	0	162529280	17	4256
2026-01-27 10:14:11.93	156.97	11.74	-28.1	-29.7	14.0	7.00e-07	0	44	0	165675008	17	4320
2026-01-27 10:14:12.93	156.97	11.84	-28.0	-29.5	14.1	3.00e-06	0	44	0	168820736	17	4255
2026-01-27 10:14:13.93	156.97	11.93	-28.1	-29.6	14.1	3.00e-06	0	44	0	171966464	17	4286
2026-01-27 10:14:14.93	156.97	12.03	-27.9	-29.2	14.3	7.00e-07	0	44	0	175112192	17	4179
2026-01-27 10:14:15.94	156.97	12.12	-27.9	-29.3	14.3	3.80e-06	0	44	0	178257920	17	4195
2026-01-27 10:14:16.94	156.96	12.22	-27.9	-29.3	14.3	7.00e-07	0	44	0	181403648	17	4199
2026-01-27 10:14:17.95	156.96	12.32	-28.1	-29.6	14.1	3.80e-06	0	44	0	184549376	17	4297
2026-01-27 10:14:18.95	156.96	12.41	-28.0	-29.3	14.3	0.00e+00	0	44	0	187695104	17	4207
2026-01-27 10:14:19.95	156.96	12.51	-28.0	-29.3	14.3	2.20e-06	0	44	0	190840832	17	4210
2026-01-27 10:14:20.96	156.95	12.61	-27.9	-29.2	14.3	7.00e-07	0	44	0	193986560	17	4182
2026-01-27 10:14:21.97	156.95	12.70	-27.9	-29.2	14.3	7.00e-07	0	44	0	197132288	17	4187
2026-01-27 10:14:22.97	156.95	12.80	-28.1	-29.6	14.1	0.00e+00	0	44	0	200278016	17	4307
2026-01-27 10:14:23.97	156.95	12.90	-28.0	-29.4	14.2	0.00e+00	0	44	0	203423744	17	4227
2026-01-27 10:14:24.96	156.94	13.00	-27.9	-29.2	14.3	7.00e-07	0	44	0	206569472	17	4183
2026-01-27 10:14:25.97	156.94	13.10	-27.8	-29.0	14.5	0.00e+00	0	44	0	209715200	17	4126
2026-01-27 10:14:26.97	156.94	13.20	-27.8	-29.5	14.5	7.00e-07	0	44	0	212860928	16	4352
2026-01-27 10:14:27.98	156.93	13.30	-27.9	-29.6	14.5	0.00e+00	0	44	0	216006656	16	4392
2026-01-27 10:14:28.98	156.93	13.40	-27.9	-29.7	14.4	7.00e-07	0	44	0	219152384	16	4428
2026-01-27 10:14:29.97	156.93	13.50	-28.2	-30.3	14.0	3.00e-06	0	44	0	222298112	16	4598
2026-01-27 10:14:30.98	156.93	13.60	-28.0	-29.8	14.3	0.00e+00	0	44	0	225443840	16	4454
2026-01-27 10:14:31.98	156.92	13.70	-27.8	-29.5	14.5	7.00e-07	0	44	0	228589568	16	4357
2026-01-27 10:14:32.98	156.92	13.80	-27.8	-29.5	14.6	0.00e+00	0	44	0	231735296	16	4351
2026-01-27 10:14:33.98	156.92	13.90	-27.9	-29.5	14.5	2.20e-06	0	44	0	234881024	16	4358
2026-01-27 10:14:34.99	156.91	14.01	-27.8	-29.4	14.6	0.00e+00	0	44	0	238026752	16	4337
2026-01-27 10:14:35.99	156.91	14.11	-28.0	-29.8	14.4	0.00e+00	0	44	0	241172480	16	4438
2026-01-27 10:14:37.00	156.91	14.22	-27.9	-29.6	14.5	0.00e+00	0	44	0	244318208	16	4377
2026-01-27 10:14:37.99	156.90	14.32	-27.9	-29.6	14.5	7.00e-07	0	44	0	247463936	16	4371
2026-01-27 10:14:38.99	156.90	14.42	-27.9	-29.7	14.5	7.00e-07	0	44	0	250609664	16	4406
2026-01-27 10:14:40.00	156.90	14.53	-27.9	-29.6	14.5	7.00e-07	0	44	0	253755392	16	4375
2026-01-27 10:14:41.00	156.89	14.63	-27.9	-29.5	14.6	7.00e-07	0	44	0	256901120	16	4354
2026-01-27 10:14:42.01	156.89	14.74	-28.0	-29.9	14.4	0.00e+00	0	44	0	260046848	16	4467
2026-01-27 10:14:43.02	156.89	14.85	-27.9	-29.6	14.6	7.00e-07	0	44	0	263192576	16	4379
2026-01-27 10:14:44.02	156.88	14.95	-27.8	-29.3	14.7	0.00e+00	0	44	0	266338304	16	4306
2026-01-27 10:14:45.03	156.88	15.06	-27.8	-29.2	14.8	0.00e+00	0	44	0	269484032	16	4267
2026-01-27 10:14:46.03	156.88	15.17	-27.8	-29.3	14.7	0.00e+00	0	44	0	272629760	16	4297
2026-01-27 10:14:47.04	156.87	15.28	-27.9	-29.5	14.6	0.00e+00	0	44	0	275775488	16	4352
2026-01-27 10:14:48.04	156.87	15.39	-27.8	-29.4	14.7	7.00e-07	0	44	0	278921216	16	4326
2026-01-27 10:14:49.05	156.87	15.50	-27.9	-29.5	14.7	0.00e+00	0	44	0	282066944	16	4351
2026-01-27 10:14:50.05	156.86	15.61	-27.9	-29.4	14.7	7.00e-07	0	44	0	285212672	16	4323
2026-01-27 10:14:51.04	156.86	15.72	-27.8	-29.4	14.7	0.00e+00	0	44	0	288358400	16	4319
2026-01-27 10:14:52.05	156.86	15.83	-28.1	-29.9	14.5	0.00e+00	0	44	0	291504128	16	4467
2026-01-27 10:14:53.05	156.85	15.94	-28.0	-29.7	14.6	0.00e+00	0	44	0	294649856	16	4404
2026-01-27 10:14:54.05	156.85	16.05	-28.2	-30.3	14.3	1.50e-06	0	44	0	297795584	16	4569
2026-01-27 10:14:55.05	156.84	16.16	-28.1	-29.9	14.5	0.00e+00	0	44	0	300941312	16	4466
2026-01-27 10:14:56.05	156.84	16.28	-27.9	-29.6	14.7	7.00e-07	0	44	0	303038464	16	4361
2026-01-27 10:14:57.05	156.84	16.39	-28.0	-29.8	14.6	7.00e-07	0	44	0	306184192	16	4408
2026-01-27 10:14:58.05	156.83	16.50	-27.9	-29.6	14.7	6.10e-06	0	44	0	309329920	16	4375
2026-01-27 10:14:59.05	156.83	16.62	-28.0	-29.7	14.7	0.00e+00	0	44	0	312475648	16	4379
2026-01-27 10:15:00.05	156.82	16.73	-28.2	-30.3	14.3	0.00e+00	0	44	0	315621376	16	4582
2026-01-27 10:15:01.05	156.82	16.85	-28.0	-29.8	14.6	3.80e-06	0	44	0	318767104	16	4422
2026-01-27 10:15:02.05	156.81	16.96	-28.0	-29.8	14.6	0.00e+00	0	44	0	321912832	16	4415
2026-01-27 10:15:03.05	156.81	17.08	-28.0	-29.7	14.6	0.00e+00	0	44	0	325058560	16	4398
2026-01-27 10:15:04.05	156.81	17.20	-28.0	-29.8	14.6	0.00e+00	0	44	0	328204288	16	4432
2026-01-27 10:15:05.05	156.80	17.31	-28.0	-29.8	14.6	0.00e+00	0	44	0	331350016	16	4433
2026-01-27 10:15:06.05	156.80	17.43	-27.9	-29.6	14.7	0.00e+00	0	44	0	334495744	16	4379
2026-01-27 10:15:07.05	156.79	17.55	-28.0	-29.7	14.7	1.29e-05	0	44	0	337641472	16	4406
2026-01-27 10:15:08.05	156.79	17.67	-28.0	-29.7	14.7	7.00e-07	0	44	0	340787200	16	4406
2026-01-27 10:15:09.05	156.78	17.79	-27.9	-29.7	14.7	0.00e+00	0	44	0	343932928	16	4387
2026-01-27 10:15:10.06	156.78	17.91	-28.1	-30.1	14.4	1.50e-06	0	44	0	347078656	16	4526
2026-01-27 10:15:11.06	156.77	18.03	-28.0	-29.8	14.6	0.00e+00	0	44	0	350224384	16	4424
2026-01-27 10:15:12.06	156.77	18.15	-27.9	-29.6	14.8	0.00e+00	0	44	0	353370112	16	4361
2026-01-27 10:15:13.07	156.76	18.28	-28.0	-29.7	14.7	0.00e+00	0	44	0	356515840	16	4387
2026-01-27 10:15:14.07	156.76	18.40	-27.9	-29.6	14.8	0.00e+00	0	44	0	359661568	16	4352
2026-01-27 10:15:15.06	156.75	18.52	-28.0	-29.8	14.7	7.00e-07	0	44	0	362807296	16	4413
2026-01-27 10:15:16.07	156.75	18.65	-27.9	-29.6	14.8	7.00e-07	0	44	0	365953024	16	4368
2026-01-27 10:15:17.07	156.74	18.77	-27.9	-29.4	14.9	0.00e+00	0	44	0	369098752	16	4317
2026-01-27 10:15:18.07	156.74	18.90	-28.0	-29.7	14.7	1.50e-06	0	44	0	372244480	16	4387
2026-01-27 10:15:19.07	156.73	19.02	-27.9	-29.6	14.8	7.00e-07	0	44	0	375390208	16	4356
2026-01-27 10:15:20.07	156.72	19.15	-28.0	-29.6	14.8	0.00e+00	0	44	0	378535936	16	4373
2026-01-27 10:15:21.06	156.72	19.28	-28.0	-29.7	14.8	0.00e+00	0	44	0	381681664	16	4390
2026-01-27 10:15:22.07	156.71	19.41	-27.9	-29.5	14.8	0.00e+00	0	44	0	384827392	16	4341
2026-01-27 10:15:23.07	156.71	19.53	-28.0	-29.6	14.8	0.00e+00	0	44	0	387973120	16	4371
2026-01-27 10:15:24.07	156.70	19.66	-28.0	-29.8	14.7	7.00e-07	0	44	0	391118848	16	4420
2026-01-27 10:15:25.06	156.70	19.79	-27.9	-29.5	14.9	0.00e+00	0	44	0	394264576	16	4338
2026-01-27 10:15:26.05	156.69	19.92	-27.9	-29.4	15.0	0.00e+00	0	44	0	397410304	16	4298
2026-01-27 10:15:27.06	156.68	20.05	-27.9	-29.6	14.9	0.00e+00	0	44	0	400556032	16	4346
2026-01-27 10:15:28.06	156.68	20.19	-27.8	-29.3	15.0	0.00e+00	0	44	0	403701760	16	4269
2026-01-27 10:15:29.05	156.67	20.32	-27.8	-29.3	15.1	0.00e+00	0	44	0	406847488	16	4269
2026-01-27 10:15:30.06	156.67	20.45	-27.9	-29.5	14.9	0.00e+00	0	44	0	409993216	16	4326
2026-01-27 10:15:31.06	156.66	20.59	-27.7	-29.1	15.1	0.00e+00	0	44	0	413138944	16	4233
2026-01-27 10:15:32.06	156.65	20.72	-27.7	-29.1	15.2	0.00e+00	0	44	0	416284672	16	4204
2026-01-27 10:15:33.07	156.65	20.86	-27.6	-28.9	15.3	0.00e+00	0	44	0	419430400	16	4171
2026-01-27 10:15:34.08	156.64	20.99	-27.6	-28.9	15.3	0.00e+00	0	44	0	422576128	16	4161
2026-01-27 10:15:35.08	156.63	21.13	-27.7	-29.1	15.2	0.00e+00	0	44	0	425721856	16	4210
2026-01-27 10:15:36.09	156.63	21.27	-27.5	-28.6	15.4	0.00e+00	0	44	0	428867584	16	4094
2026-01-27 10:15:37.10	156.62	21.41	-27.4	-28.5	15.5	0.00e+00	0	44	0	432013312	16	4044
2026-01-27 10:15:38.10	156.61	21.55	-27.3	-28.2	15.7	0.00e+00	0	44	0	435159040	16	3983
2026-01-27 10:15:39.10	156.60	21.69	-27.2	-28.3	15.7	0.00e+00	0	44	0	438304768	15	4125
2026-01-27 10:15:40.11	156.60	21.83	-27.2	-28.5	15.7	0.00e+00	0	44	0	441450496	15	4156
2026-01-27 10:15:41.12	156.59	21.98	-27.3	-28.6	15.6	0.00e+00	0	44	0	444596224	15	4197
2026-01-27 10:15:42.12	156.58	22.12	-27.0	-28.0	15.9	0.00e+00	0	44	0	447741952	15	4044
2026-01-27 10:15:43.13	156.58	22.26	-26.9	-27.8	16.0	0.00e+00	0	44	0	450887680	15	3984
2026-01-27 10:15:44.12	156.57	22.41	-26.9	-27.8	16.1	0.00e+00	0	44	0	454033408	15	3975
2026-01-27 10:15:45.13	156.56	22.55	-27.0	-28.0	15.9	0.00e+00	0	44	0	457179136	15	4039
2026-01-27 10:15:46.12	156.55	22.70	-26.8	-27.6	16.1	0.00e+00	0	44	0	460324864	15	3934
2026-01-27 10:15:47.13	156.54	22.84	-27.0	-27.9	16.0	0.00e+00	0	44	0	463470592	15	3995
2026-01-27 10:15:48.13	156.54	22.99	-27.1	-28.3	15.8	0.00e+00	0	44	0	466616320	15	4099
2026-01-27 10:15:49.13	156.53	23.14	-26.9	-27.7	16.1	0.00e+00	0	44	0	469762048	15	3943
2026-01-27 10:15:50.13	156.52	23.29	-26.7	-27.7	16.4	0.00e+00	0	44	0	472907776	14	4066
2026-01-27 10:15:51.13	156.51	23.44	-26.8	-27.9	16.3	0.00e+00	0	44	0	476053504	14	4115
2026-01-27 10:15:52.14	156.50	23.59	-27.0	-28.4	16.0	0.00e+00	0	44	0	479199232	14	4251
2026-01-27 10:15:53.14	156.50	23.74	-27.2	-28.8	15.8	0.00e+00	0	44	0	482344960	14	4359
2026-01-27 10:15:54.14	156.49	23.89	-26.9	-28.2	16.1	0.00e+00	0	44	0	485490688	14	4189
2026-01-27 10:15:55.14	156.48	24.05	-26.9	-28.3	16.1	0.00e+00	0	44	0	488636416	14	4205
2026-01-27 10:15:56.15	156.47	24.20	-26.9	-28.3	16.1	0.00e+00	0	44	0	491782144	14	4218
2026-01-27 10:15:57.15	156.46	24.36	-26.8	-28.1	16.2	0.00e+00	0	44	0	494927872	14	4162
2026-01-27 10:15:58.16	156.45	24.52	-26.9	-28.3	16.1	0.00e+00	0	44	0	498073600	14	4216
2026-01-27 10:15:59.16	156.44	24.67	-27.1	-28.8	15.9	7.00e-07	0	44	0	501219328	14	4342
2026-01-27 10:16:00.16	156.43	24.83	-26.8	-28.1	16.2	0.00e+00	0	44	0	504365056	14	4161
2026-01-27 10:16:01.16	156.42	24.99	-26.7	-27.8	16.4	0.00e+00	0	44	0	507510784	14	4083
2026-01-27 10:16:02.17	156.41	25.15	-26.6	-27.6	16.5	0.00e+00	0	44	0	509607936	14	4041
2026-01-27 10:16:03.17	156.40	25.31	-26.8	-28.0	16.3	0.00e+00	0	44	0	512753664	14	4145
2026-01-27 10:16:04.17	156.39	25.48	-26.9	-28.3	16.1	0.00e+00	0	44	0	515899392	14	4211
2026-01-27 10:16:05.17	156.38	25.64	-26.8	-28.1	16.3	0.00e+00	0	44	0	519045120	14	4162
2026-01-27 10:16:06.17	156.37	25.80	-27.1	-28.8	15.9	0.00e+00	0	44	0	523239424	14	4341
2026-01-27 10:16:07.18	156.36	25.97	-26.9	-28.3	16.2	0.00e+00	0	44	0	526385152	14	4207
2026-01-27 10:16:08.18	156.35	26.14	-26.8	-28.0	16.3	0.00e+00	0	44	0	529530880	14	4131
2026-01-27 10:16:09.18	156.34	26.30	-26.9	-28.3	16.2	4.50e-06	0	44	0	531628032	14	4211
2026-01-27 10:16:10.19	156.33	26.47	-27.0	-28.4	16.1	0.00e+00	0	44	0	534773760	14	4242
2026-01-27 10:16:11.19	156.32	26.64	-27.1	-28.6	16.0	0.00e+00	0	44	0	537919488	14	4283
2026-01-27 10:16:12.20	156.31	26.81	-27.2	-29.0	15.8	0.00e+00	0	44	0	541065216	14	4392
2026-01-27 10:16:13.20	156.30	26.98	-27.2	-28.9	15.9	0.00e+00	0	44	0	544210944	14	4361
2026-01-27 10:16:14.20	156.29	27.16	-27.3	-29.2	15.7	0.00e+00	0	44	0	547356672	14	4455
2026-01-27 10:16:15.21	156.28	27.33	-27.3	-29.0	15.8	0.00e+00	0	44	0	550502400	14	4396
2026-01-27 10:16:16.21	156.26	27.51	-27.4	-29.3	15.6	0.00e+00	0	44	0	553648128	14	4490
2026-01-27 10:16:17.21	156.25	27.68	-27.3	-29.1	15.8	0.00e+00	0	44	0	556793856	14	4423
2026-01-27 10:16:18.21	156.24	27.86	-27.4	-29.4	15.6	0.00e+00	0	44	0	559939584	14	4497
2026-01-27 10:16:19.20	156.23	28.04	-27.4	-29.3	15.7	0.00e+00	0	44	0	563085312	14	4480
2026-01-27 10:16:20.19	156.22	28.21	-27.4	-29.3	15.7	0.00e+00	0	44	0	566231040	14	4490
2026-01-27 10:16:21.19	156.20	28.39	-27.4	-29.3	15.7	0.00e+00	0	44	0	569376768	14	4479
2026-01-27 10:16:22.20	156.19	28.58	-27.4	-29.3	15.7	0.00e+00	0	44	0	572522496	14	4490
2026-01-27 10:16:23.21	156.18	28.76	-27.6	-29.3	15.4	7.00e-07	0	44	0	575668224	15	4371
2026-01-27 10:16:24.21	156.17	28.94	-27.8	-29.7	15.2	5.30e-06	0	44	0	578813952	15	4476
2026-01-27 10:16:25.21	156.15	29.13	-27.5	-29.1	15.5	0.00e+00	0	44	0	581959680	15	4325
2026-01-27 10:16:26.21	156.14	29.32	-27.5	-29.1	15.5	0.00e+00	0	44	0	585105408	15	4320
2026-01-27 10:16:27.22	156.13	29.51	-27.7	-29.4	15.3	0.00e+00	0	44	0	588251136	15	4411
2026-01-27 10:16:28.22	156.11	29.69	-27.7	-29.6	15.3	0.00e+00	0	44	0	591396864	15	4455
2026-01-27 10:16:29.22	156.10	29.88	-27.6	-29.3	15.4	0.00e+00	0	44	0	594542592	15	4380
2026-01-27 10:16:30.23	156.08	30.08	-27.5	-29.1	15.5	0.00e+00	0	44	0	597688320	15	4307
2026-01-27 10:16:31.22	156.07	30.27	-27.5	-29.0	15.6	0.00e+00	0	44	0	600834048	15	4279
2026-01-27 10:16:32.22	156.05	30.46	-27.5	-29.1	15.5	0.00e+00	0	44	0	603979776	15	4320
2026-01-27 10:16:33.22	156.04	30.66	-27.6	-29.2	15.5	0.00e+00	0	44	0	607125504	15	4349
2026-01-27 10:16:34.23	156.02	30.86	-27.7	-29.5	15.3	0.00e+00	0	44	0	610271232	15	4425
2026-01-27 10:16:35.22	156.01	31.05	-27.5	-29.1	15.6	0.00e+00	0	44	0	613416960	15	4320
2026-01-27 10:16:36.22	155.99	31.25	-27.3	-28.6	15.8	0.00e+00	0	44	0	616562688	15	4192
2026-01-27 10:16:37.22	155.98	31.45	-27.4	-28.8	15.8	0.00e+00	0	44	0	619708416	15	4227
2026-01-27 10:16:38.22	155.96	31.65	-27.4	-28.8	15.8	0.00e+00	0	44	0	622854144	15	4229
2026-01-27 10:16:39.22	155.95	31.86	-27.3	-28.6	15.9	0.00e+00	0	44	0	625999872	15	4191
2026-01-27 10:16:40.23	155.93	32.06	-27.4	-28.7	15.8	0.00e+00	0	44	0	629145600	15	4209
2026-01-27 10:16:41.24	155.91	32.27	-27.4	-28.9	15.7	0.00e+00	0	44	0	632291328	15	4259
2026-01-27 10:16:42.23	155.90	32.48	-27.5	-29.1	15.6	0.00e+00	0	44	0	635437056	15	4322
2026-01-27 10:16:43.23	155.88	32.69	-27.7	-29.6	15.4	0.00e+00	0	44	0	638582784	15	4451
2026-01-27 10:16:44.23	155.86	32.90	-27.7	-29.4	15.4	0.00e+00	0	44	0	641728512	15	4395
2026-01-27 10:16:45.23	155.84	33.11	-27.8	-29.8	15.2	0.00e+00	0	44	0	644874240	15	4523
2026-01-27 10:16:46.22	155.83	33.32	-27.8	-29.8	15.2	0.00e+00	0	44	0	648019968	15	4508
2026-01-27 10:16:47.22	155.81	33.53	-27.8	-29.8	15.2	0.00e+00	0	44	0	651165696	15	4502
2026-01-27 10:16:48.21	155.79	33.75	-27.9	-29.9	15.2	0.00e+00	0	44	0	654311424	15	4524
2026-01-27 10:16:49.22	155.77	33.97	-28.0	-30.1	15.1	0.00e+00	0	44	0	657457152	15	4589
2026-01-27 10:16:50.22	155.75	34.19	-28.2	-30.1	15.0	0.00e+00	0	44	0	660602880	16	4466
2026-01-27 10:16:51.21	155.73	34.41	-28.4	-30.5	14.7	7.00e-07	0	44	0	663748608	16	4604
2026-01-27 10:16:52.21	155.71	34.63	-28.3	-30.2	14.9	0.00e+00	0	44	0	666894336	16	4517
2026-01-27 10:16:53.21	155.69	34.85	-28.4	-30.6	14.7	0.00e+00	0	44	0	670040064	16	4622
2026-01-27 10:16:54.21	155.67	35.08	-28.4	-30.6	14.7	0.00e+00	0	44	0	673185792	16	4607
2026-01-27 10:16:55.22	155.65	35.31	-28.4	-30.6	14.7	7.00e-07	0	44	0	676331520	16	4630
2026-01-27 10:16:56.22	155.63	35.54	-28.5	-30.3	14.6	7.00e-07	0	44	0	679477248	17	4434
2026-01-27 10:16:57.22	155.61	35.77	-28.6	-30.5	14.4	0.00e+00	0	44	0	682622976	17	4485
2026-01-27 10:16:58.23	155.59	36.00	-28.7	-30.8	14.3	0.00e+00	0	44	0	685768704	17	4578
2026-01-27 10:16:59.23	155.57	36.24	-29.0	-31.4	14.0	1.50e-06	0	44	0	688914432	17	4742
2026-01-27 10:17:00.24	155.54	36.48	-29.0	-31.0	14.0	2.20e-06	0	44	0	692060160	18	4503
2026-01-27 10:17:01.24	155.52	36.71	-29.2	-31.5	13.6	7.60e-06	0	44	0	695205888	18	4675
2026-01-27 10:17:02.24	155.50	36.95	-29.2	-31.4	13.7	3.00e-06	0	44	0	698351616	18	4628
2026-01-27 10:17:03.25	155.47	37.20	-29.1	-31.2	13.8	4.50e-06	0	44	0	701497344	18	4593
2026-01-27 10:17:04.25	155.45	37.44	-29.2	-31.4	13.7	5.30e-06	0	44	0	704643072	18	4643
2026-01-27 10:17:05.25	155.42	37.68	-29.1	-31.1	13.9	3.80e-06	0	44	0	707788800	18	4552
2026-01-27 10:17:06.25	155.40	37.93	-29.1	-31.2	13.8	7.60e-06	0	44	0	710934528	18	4592
2026-01-27 10:17:07.25	155.37	38.18	-29.3	-31.6	13.6	7.60e-06	0	44	0	713031680	18	4704
2026-01-27 10:17:08.25	155.35	38.43	-29.0	-31.1	13.9	4.50e-06	0	44	0	716177408	18	4537
2026-01-27 10:17:09.26	155.32	38.68	-29.1	-31.2	13.8	3.80e-06	0	44	0	719323136	18	4594
2026-01-27 10:17:10.27	155.30	38.94	-29.1	-31.2	13.8	2.20e-06	0	44	0	722468864	18	4574
2026-01-27 10:17:11.26	155.27	39.19	-29.1	-31.2	13.9	3.80e-06	0	44	0	725614592	18	4573
2026-01-27 10:17:12.26	155.24	39.45	-29.1	-31.2	13.9	3.80e-06	0	44	0	728760320	18	4568
2026-01-27 10:17:13.27	155.21	39.71	-29.2	-31.3	13.8	3.00e-06	0	44	0	731906048	18	4608
2026-01-27 10:17:14.27	155.18	39.97	-29.1	-31.2	13.9	6.10e-06	0	44	0	736100352	18	4564
2026-01-27 10:17:15.28	155.15	40.24	-29.2	-31.5	13.7	6.10e-06	0	44	0	738197504	18	4668
2026-01-27 10:17:16.27	155.13	40.50	-29.2	-31.4	13.8	5.30e-06	0	44	0	741343232	18	4630
2026-01-27 10:17:17.28	155.09	40.77	-29.1	-31.1	13.9	3.00e-06	0	44	0	744488960	18	4558
2026-01-27 10:17:18.28	155.06	41.04	-29.1	-31.1	13.9	6.10e-06	0	44	0	747634688	18	4542
2026-01-27 10:17:19.28	155.03	41.31	-29.1	-31.0	14.0	1.50e-06	0	44	0	750780416	18	4509
2026-01-27 10:17:20.28	155.00	41.58	-29.3	-31.5	13.7	4.50e-06	0	44	0	753926144	18	4678
2026-01-27 10:17:21.29	154.97	41.86	-29.2	-31.5	13.7	3.80e-06	0	44	0	757071872	18	4656
2026-01-27 10:17:22.29	154.93	42.14	-29.6	-31.8	13.2	2.05e-05	0	44	0	760217600	19	4645
2026-01-27 10:17:23.30	154.90	42.42	-29.6	-32.0	13.1	3.20e-05	0	44	0	763363328	19	4710
2026-01-27 10:17:24.30	154.87	42.70	-29.6	-31.9	13.1	3.58e-05	0	44	0	766509056	19	4695
2026-01-27 10:17:25.29	154.83	42.99	-29.7	-32.0	13.1	2.51e-05	0	44	0	769654784	19	4720
2026-01-27 10:17:26.30	154.80	43.27	-29.6	-31.9	13.1	3.20e-05	0	44	0	772800512	19	4694
2026-01-27 10:17:27.29	154.76	43.56	-29.4	-31.4	13.5	9.90e-06	0	44	0	775946240	19	4527
2026-01-27 10:17:28.30	154.72	43.85	-29.5	-31.5	13.4	8.30e-06	0	44	0	779091968	19	4553
2026-01-27 10:17:29.29	154.68	44.14	-29.4	-31.4	13.4	1.98e-05	0	44	0	782237696	19	4532
2026-01-27 10:17:30.30	154.65	44.44	-29.5	-31.5	13.3	1.14e-05	0	44	0	785383424	19	4565
2026-01-27 10:17:31.30	154.61	44.74	-29.7	-32.0	13.1	1.52e-05	0	44	0	788529152	19	4698
2026-01-27 10:17:32.31	154.57	45.04	-29.8	-32.4	12.9	3.89e-05	0	44	0	791674880	19	4841
2026-01-27 10:17:33.31	154.52	45.34	-29.8	-32.3	13.0	3.35e-05	0	44	0	794820608	19	4797
2026-01-27 10:17:34.32	154.48	45.64	-29.9	-32.1	12.7	8.23e-05	0	44	0	797966336	20	4660
2026-01-27 10:17:35.32	154.44	45.95	-29.7	-31.7	12.9	3.81e-05	0	44	0	801112064	20	4522
2026-01-27 10:17:36.33	154.39	46.26	-29.7	-31.7	12.9	4.11e-05	0	44	0	804257792	20	4509
2026-01-27 10:17:37.33	154.35	46.57	-29.7	-31.7	12.9	4.27e-05	0	44	0	807403520	20	4516
2026-01-27 10:17:38.33	154.30	46.88	-29.6	-31.4	13.2	3.43e-05	0	44	0	810549248	20	4418
2026-01-27 10:17:39.34	154.26	47.20	-29.5	-31.1	13.3	1.90e-05	0	44	0	813694976	20	4350
2026-01-27 10:17:40.34	154.21	47.52	-29.3	-30.7	13.6	9.90e-06	0	44	0	816840704	20	4215
2026-01-27 10:17:41.35	154.16	47.84	-29.4	-31.3	13.5	7.60e-06	0	44	0	819986432	19	4498
2026-01-27 10:17:42.36	154.11	48.17	-29.5	-31.5	13.4	1.22e-05	0	44	0	823132160	19	4549
2026-01-27 10:17:43.36	154.06	48.49	-29.2	-30.8	13.8	6.10e-06	0	44	0	826277888	19	4353
2026-01-27 10:17:44.36	154.01	48.82	-29.2	-30.8	13.9	3.80e-06	0	44	0	829423616	19	4338
2026-01-27 10:17:45.37	153.95	49.15	-29.2	-31.0	13.7	5.30e-06	0	44	0	832569344	19	4411
2026-01-27 10:17:46.37	153.90	49.48	-29.2	-30.8	13.9	6.10e-06	0	44	0	835715072	19	4331
2026-01-27 10:17:47.38	153.84	49.82	-29.3	-31.2	13.5	8.30e-06	0	44	0	838860800	19	4483
2026-01-27 10:17:48.39	153.78	50.16	-29.3	-31.0	13.8	7.60e-06	0	44	0	842006528	19	4415
2026-01-27 10:17:49.40	153.73	50.50	-29.3	-31.2	13.6	6.80e-06	0	44	0	845152256	19	4475
2026-01-27 10:17:50.40	153.67	50.85	-29.4	-31.4	13.5	9.90e-06	0	44	0	848297984	19	4536
2026-01-27 10:17:51.40	153.60	51.19	-29.3	-31.1	13.7	7.60e-06	0	44	0	851443712	19	4434
2026-01-27 10:17:52.40	153.54	51.54	-29.1	-30.7	14.0	3.00e-06	0	44	0	854589440	19	4321
2026-01-27 10:17:53.41	153.48	51.89	-29.1	-30.6	14.0	4.50e-06	0	44	0	857735168	19	4290
2026-01-27 10:17:54.41	153.41	52.24	-28.8	-30.0	14.4	0.00e+00	0	44	0	860880896	19	4119
2026-01-27 10:17:55.41	153.34	52.59	-28.8	-29.9	14.4	7.00e-07	0	44	0	864026624	19	4105
2026-01-27 10:17:56.42	153.27	52.95	-28.3	-29.3	15.0	7.00e-07	0	44	0	867172352	18	4036
2026-01-27 10:17:57.42	153.20	53.31	-28.1	-29.3	15.3	0.00e+00	0	44	0	870318080	17	4135
2026-01-27 10:17:58.42	153.13	53.67	-28.0	-29.1	15.4	0.00e+00	0	44	0	873463808	17	4094
2026-01-27 10:17:59.43	153.05	54.04	-28.0	-29.0	15.5	0.00e+00	0	44	0	876609536	17	4073
2026-01-27 10:18:00.43	152.97	54.41	-27.8	-29.1	15.7	0.00e+00	0	44	0	879755264	16	4182
2026-01-27 10:18:01.43	152.89	54.78	-27.6	-28.6	15.9	0.00e+00	0	44	0	882900992	16	4066
2026-01-27 10:18:02.44	152.81	55.15	-27.5	-28.5	16.0	0.00e+00	0	44	0	886046720	16	4034
2026-01-27 10:18:03.44	152.73	55.53	-27.5	-28.4	16.1	0.00e+00	0	44	0	889192448	16	4012
2026-01-27 10:18:04.45	152.64	55.91	-27.5	-28.5	16.0	0.00e+00	0	44	0	892338176	16	4037
2026-01-27 10:18:05.45	152.55	56.29	-27.3	-27.9	16.3	0.00e+00	0	44	0	895483904	16	3886
2026-01-27 10:18:06.45	152.46	56.67	-27.0	-27.9	16.5	0.00e+00	0	44	0	898629632	15	3980
2026-01-27 10:18:07.45	152.37	57.06	-27.0	-27.9	16.5	0.00e+00	0	44	0	901775360	15	3983
2026-01-27 10:18:08.46	152.27	57.45	-27.0	-27.9	16.5	0.00e+00	0	44	0	904921088	15	3973
2026-01-27 10:18:09.46	152.17	57.84	-26.8	-28.0	16.7	0.00e+00	0	44	0	908066816	14	4115
2026-01-27 10:18:10.47	152.07	58.23	-26.8	-28.0	16.7	0.00e+00	0	44	0	911212544	14	4104
2026-01-27 10:18:11.47	151.96	58.63	-26.7	-27.6	16.9	0.00e+00	0	44	0	914358272	14	4019
2026-01-27 10:18:12.47	151.85	59.02	-26.6	-27.5	16.9	0.00e+00	0	44	0	917504000	14	3995
2026-01-27 10:18:13.48	151.74	59.43	-26.6	-27.4	17.0	0.00e+00	0	44	0	920649728	14	3953
2026-01-27 10:18:14.48	151.62	59.83	-26.5	-27.2	17.1	0.00e+00	0	44	0	923795456	14	3920
2026-01-27 10:18:15.49	151.50	60.24	-26.7	-27.6	16.9	0.00e+00	0	44	0	926941184	14	4013
2026-01-27 10:18:16.50	151.38	60.65	-26.8	-27.8	16.8	0.00e+00	0	44	0	930086912	14	4073
2026-01-27 10:18:17.50	151.25	61.06	-26.8	-27.9	16.8	0.00e+00	0	44	0	933232640	14	4086
2026-01-27 10:18:18.50	151.12	61.47	-26.6	-27.5	17.0	0.00e+00	0	44	0	936378368	14	4000
2026-01-27 10:18:19.51	150.98	61.89	-26.5	-27.3	17.1	0.00e+00	0	44	0	939524096	14	3947
2026-01-27 10:18:20.51	150.84	62.31	-26.5	-27.2	17.1	0.00e+00	0	44	0	942669824	14	3915
2026-01-27 10:18:21.51	150.69	62.73	-26.4	-27.0	17.2	0.00e+00	0	44	0	945815552	14	3874
2026-01-27 10:18:22.52	150.53	63.15	-26.4	-27.0	17.2	0.00e+00	0	44	0	948961280	14	3882
2026-01-27 10:18:23.52	150.38	63.58	-26.4	-27.0	17.3	0.00e+00	0	44	0	952107008	14	3859
2026-01-27 10:18:24.52	150.21	64.00	-26.5	-27.2	17.2	0.00e+00	0	44	0	955252736	14	3914
2026-01-27 10:18:25.52	150.04	64.43	-26.4	-27.0	17.2	0.00e+00	0	44	0	958398464	14	3877
2026-01-27 10:18:26.53	149.86	64.87	-26.0	-26.7	17.7	0.00e+00	0	44	0	961544192	13	3893
2026-01-27 10:18:27.53	149.68	65.30	-25.8	-26.2	17.9	0.00e+00	0	45	0	964689920	13	3789
2026-01-27 10:18:28.54	149.48	65.74	-25.7	-26.6	18.0	0.00e+00	0	44	0	967835648	12	3978
2026-01-27 10:18:29.53	149.29	66.17	-25.8	-26.6	18.0	0.00e+00	0	44	0	970981376	12	3983
2026-01-27 10:18:30.53	149.08	66.61	-25.9	-27.1	17.8	0.00e+00	0	45	0	974127104	12	4090
2026-01-27 10:18:31.53	148.86	67.06	-26.0	-27.1	17.7	0.00e+00	0	44	0	977272832	12	4100
2026-01-27 10:18:32.54	148.63	67.50	-25.8	-26.8	17.8	0.00e+00	0	44	0	980418560	12	4035
2026-01-27 10:18:33.54	148.40	67.95	-25.8	-26.6	17.9	0.00e+00	0	44	0	983564288	12	3987
2026-01-27 10:18:34.54	148.15	68.40	-25.8	-26.8	17.8	0.00e+00	0	44	0	986710016	12	4035
2026-01-27 10:18:35.54	147.89	68.85	-26.1	-27.3	17.6	0.00e+00	0	44	0	989855744	12	4162
2026-01-27 10:18:36.55	147.62	69.30	-26.2	-27.7	17.4	0.00e+00	0	45	0	993001472	12	4272
2026-01-27 10:18:37.56	147.33	69.76	-26.4	-28.0	17.3	0.00e+00	0	44	0	996147200	12	4334
2026-01-27 10:18:38.57	147.03	70.22	-26.2	-27.7	17.4	0.00e+00	0	44	0	999292928	12	4244
2026-01-27 10:18:39.57	146.71	70.68	-26.3	-27.8	17.3	0.00e+00	0	44	0	1002438656	12	4281
2026-01-27 10:18:40.58	146.38	71.14	-26.3	-27.8	17.4	0.00e+00	0	44	0	1005584384	12	4275
2026-01-27 10:18:41.57	146.03	71.59	-26.2	-27.7	17.5	0.00e+00	0	44	0	1008730112	12	4253
2026-01-27 10:18:42.58	145.66	72.06	-26.2	-27.7	17.5	0.00e+00	0	45	0	1011875840	12	4249
2026-01-27 10:18:43.58	145.27	72.52	-26.1	-27.5	17.6	0.00e+00	0	44	0	1015021568	12	4199
2026-01-27 10:18:44.58	144.86	72.98	-26.3	-27.8	17.4	0.00e+00	0	44	0	1018167296	12	4275
2026-01-27 10:18:45.58	144.43	73.45	-26.4	-28.1	17.2	0.00e+00	0	44	0	1021313024	12	4382
2026-01-27 10:18:46.59	143.96	73.91	-26.7	-28.2	16.9	0.00e+00	0	45	0	1024458752	13	4288
2026-01-27 10:18:47.59	143.47	74.38	-26.7	-28.3	16.9	0.00e+00	0	44	0	1027604480	13	4314
2026-01-27 10:18:48.59	142.95	74.85	-26.6	-28.1	17.0	0.00e+00	0	45	0	1030750208	13	4246
2026-01-27 10:18:49.59	142.39	75.31	-26.8	-28.5	16.7	0.00e+00	0	45	0	1033895936	13	4372
2026-01-27 10:18:50.59	141.80	75.78	-27.0	-28.4	16.6	0.00e+00	0	44	0	1037041664	14	4212
2026-01-27 10:18:51.60	141.15	76.25	-26.8	-28.0	16.8	0.00e+00	0	45	0	1039138816	14	4118
2026-01-27 10:18:52.61	140.46	76.72	-26.4	-27.0	17.3	0.00e+00	0	45	0	1042284544	14	3864
2026-01-27 10:18:53.62	139.72	77.19	-26.2	-27.2	17.5	0.00e+00	0	44	0	1045430272	13	4002
2026-01-27 10:18:54.61	138.93	77.65	-26.4	-27.5	17.4	0.00e+00	0	45	0	1048576000	13	4083
2026-01-27 10:18:55.62	138.06	78.12	-26.9	-28.6	16.7	0.00e+00	0	45	0	1051721728	13	4398
2026-01-27 10:18:56.62	137.13	78.58	-26.7	-27.7	16.9	0.00e+00	0	45	0	1055916032	14	4043
2026-01-27 10:18:57.63	136.11	79.04	-26.2	-27.0	17.5	0.00e+00	0	44	0	1059061760	13	3973
2026-01-27 10:18:58.64	135.00	79.51	-26.3	-27.3	17.4	0.00e+00	0	45	0	1062207488	13	4033
2026-01-27 10:18:59.64	133.79	79.96	-26.4	-27.5	17.3	0.00e+00	0	45	0	1064304640	13	4079
2026-01-27 10:19:00.64	132.47	80.41	-26.3	-27.3	17.4	0.00e+00	0	45	0	1067450368	13	4048
2026-01-27 10:19:01.65	131.00	80.86	-26.0	-26.6	17.8	0.00e+00	0	44	0	1070596096	13	3869
2026-01-27 10:19:02.66	129.38	81.31	-26.0	-26.6	17.8	0.00e+00	0	44	0	1073741824	13	3857
2026-01-27 10:19:03.66	127.60	81.74	-26.1	-26.8	17.7	0.00e+00	0	45	0	1076887552	13	3919
2026-01-27 10:19:04.66	125.63	82.17	-26.3	-27.4	17.4	0.00e+00	0	45	0	1080033280	13	4057
2026-01-27 10:19:05.67	123.40	82.59	-26.5	-27.8	17.2	0.00e+00	0	45	0	1083179008	13	4159
2026-01-27 10:19:06.67	120.93	82.99	-26.3	-27.2	17.4	0.00e+00	0	45	0	1086324736	13	4018
2026-01-27 10:19:07.67	118.16	83.38	-26.3	-27.4	17.4	0.00e+00	0	45	0	1089470464	13	4061
2026-01-27 10:19:08.68	115.02	83.76	-26.8	-28.5	16.9	0.00e+00	0	44	0	1092616192	13	4342
2026-01-27 10:19:09.69	111.48	84.11	-27.2	-28.8	16.6	0.00e+00	0	45	0	1095761920	14	4330
2026-01-27 10:19:10.70	107.50	84.44	-27.3	-28.9	16.5	0.00e+00	0	45	0	1098907648	14	4341
2026-01-27 10:19:11.70	103.09	84.74	-27.3	-29.0	16.5	0.00e+00	0	45	0	1102053376	14	4374
2026-01-27 10:19:12.70	98.17	85.01	-27.3	-28.9	16.6	0.00e+00	0	45	0	1105199104	14	4347
2026-01-27 10:19:13.71	92.69	85.23	-27.1	-28.5	16.8	0.00e+00	0	45	0	1108344832	14	4243
2026-01-27 10:19:14.72	86.72	85.41	-27.3	-29.0	16.6	0.00e+00	0	45	0	1111490560	14	4361
2026-01-27 10:19:15.72	80.40	85.54	-27.5	-28.9	16.3	0.00e+00	0	45	0	1114636288	15	4242
2026-01-27 10:19:16.72	73.81	85.60	-27.3	-28.3	16.6	0.00e+00	0	45	0	1117782016	15	4078
2026-01-27 10:19:17.73	67.04	85.61	-27.0	-27.7	17.0	0.00e+00	0	44	0	1120927744	15	3911
2026-01-27 10:19:18.73	60.40	85.56	-26.8	-27.8	17.2	0.00e+00	0	45	0	1124073472	14	4038
2026-01-27 10:19:19.74	53.94	85.45	-27.2	-28.8	16.7	0.00e+00	0	45	0	1127219200	14	4308
2026-01-27 10:19:20.74	47.92	85.28	-27.3	-28.8	16.7	0.00e+00	0	45	0	1130364928	14	4314
2026-01-27 10:19:21.73	42.41	85.08	-27.3	-28.9	16.6	7.00e-07	0	45	0	1133510656	14	4335
2026-01-27 10:19:22.74	37.30	84.82	-27.3	-29.0	16.5	0.00e+00	0	45	0	1136656384	14	4358
2026-01-27 10:19:23.75	32.71	84.53	-27.4	-29.1	16.5	0.00e+00	0	45	0	1139802112	14	4400
2026-01-27 10:19:24.75	28.65	84.20	-27.5	-29.3	16.4	0.00e+00	0	44	0	1142947840	14	4462
2026-01-27 10:19:25.76	25.00	83.85	-27.7	-29.3	16.1	0.00e+00	0	45	0	1146093568	15	4333
2026-01-27 10:19:26.77	21.76	83.48	-27.7	-29.4	16.1	0.00e+00	0	45	0	1149239296	15	4357
2026-01-27 10:19:27.78	18.88	83.09	-27.7	-29.3	16.1	0.00e+00	0	45	0	1152385024	15	4325
2026-01-27 10:19:28.78	16.33	82.69	-27.7	-29.4	16.0	0.00e+00	0	45	0	1155530752	15	4356
2026-01-27 10:19:29.78	14.06	82.28	-27.1	-27.9	16.8	0.00e+00	0	45	0	1158676480	15	3964
2026-01-27 10:19:30.78	12.03	81.86	-27.2	-28.2	16.8	0.00e+00	0	45	0	1161822208	15	4036
2026-01-27 10:19:31.78	10.20	81.43	-27.5	-28.9	16.4	0.00e+00	0	45	0	1164967936	15	4228
2026-01-27 10:19:32.79	8.53	80.98	-27.3	-28.5	16.5	0.00e+00	0	45	0	1168113664	15	4127
2026-01-27 10:19:33.79	7.04	80.54	-26.6	-27.4	17.4	0.00e+00	0	45	0	1171259392	14	3936
2026-01-27 10:19:34.80	5.67	80.09	-26.4	-27.0	17.6	0.00e+00	0	45	0	1174405120	14	3853
2026-01-27 10:19:35.80	4.43	79.63	-26.5	-27.3	17.4	0.00e+00	0	44	0	1177550848	14	3914
2026-01-27 10:19:36.80	3.30	79.18	-26.6	-27.4	17.3	0.00e+00	0	45	0	1180696576	14	3961
2026-01-27 10:19:37.81	2.26	78.71	-26.5	-27.2	17.4	0.00e+00	0	45	0	1183842304	14	3893
2026-01-27 10:19:38.81	1.31	78.25	-26.8	-27.8	17.1	0.00e+00	0	45	0	1186988032	14	4058
2026-01-27 10:19:39.82	0.42	77.79	-26.6	-27.5	17.3	0.00e+00	0	45	0	1190133760	14	3970
2026-01-27 10:19:40.83	359.60	77.32	-26.1	-26.8	17.9	0.00e+00	0	44	0	1193279488	13	3907
2026-01-27 10:19:41.83	358.85	76.85	-26.3	-27.2	17.7	0.00e+00	0	45	0	1196425216	13	3996
2026-01-27 10:19:42.84	358.15	76.38	-26.2	-27.1	17.7	0.00e+00	0	45	0	1199570944	13	3993
2026-01-27 10:19:43.85	357.49	75.91	-26.9	-28.7	16.9	0.00e+00	0	45	0	1202716672	13	4396
2026-01-27 10:19:44.85	356.88	75.45	-27.1	-28.6	16.7	0.00e+00	0	45	0	1205862400	14	4252
2026-01-27 10:19:45.86	356.31	74.98	-26.6	-27.5	17.2	0.00e+00	0	45	0	1209008128	14	3966
2026-01-27 10:19:46.86	355.78	74.51	-26.3	-26.8	17.6	0.00e+00	0	45	0	1212153856	14	3815
2026-01-27 10:19:47.87	355.28	74.04	-26.8	-27.9	17.0	0.00e+00	0	45	0	1215299584	14	4080
2026-01-27 10:19:48.88	354.80	73.57	-27.1	-28.5	16.7	0.00e+00	0	45	0	1218445312	14	4247
2026-01-27 10:19:49.88	354.36	73.11	-27.9	-29.9	15.6	0.00e+00	0	45	0	1221591040	15	4511
2026-01-27 10:19:50.88	353.95	72.65	-27.8	-29.2	15.9	0.00e+00	0	45	0	1224736768	16	4190
2026-01-27 10:19:51.88	353.55	72.19	-27.5	-28.3	16.4	0.00e+00	0	45	0	1227882496	16	3966
2026-01-27 10:19:52.89	353.18	71.72	-26.6	-27.4	17.2	0.00e+00	0	45	0	1231028224	14	3961
2026-01-27 10:19:53.89	352.82	71.27	-26.1	-26.8	17.8	0.00e+00	0	45	0	1234173952	13	3911
2026-01-27 10:19:54.89	352.49	70.81	-26.3	-27.2	17.6	0.00e+00	0	45	0	1237319680	13	3999
2026-01-27 10:19:55.89	352.17	70.35	-26.2	-27.2	17.4	0.00e+00	0	45	0	1240465408	13	3998
2026-01-27 10:19:56.90	351.86	69.89	-26.7	-28.2	17.0	0.00e+00	0	45	0	1243611136	13	4261
2026-01-27 10:19:57.90	351.58	69.44	-27.0	-28.3	16.8	0.00e+00	0	45	0	1246756864	14	4168
2026-01-27 10:19:58.89	351.30	69.00	-27.5	-28.9	16.1	0.00e+00	0	45	0	1249902592	15	4238
2026-01-27 10:19:59.90	351.04	68.54	-26.9	-27.6	16.7	0.00e+00	0	45	0	1253048320	15	3892
2026-01-27 10:20:00.90	350.79	68.09	-26.1	-26.8	17.7	0.00e+00	0	45	0	1256194048	13	3903
2026-01-27 10:20:01.90	350.55	67.65	-25.6	-26.2	18.3	0.00e+00	0	45	0	1259339776	12	3866
2026-01-27 10:20:02.91	350.32	67.20	-25.5	-26.1	18.3	0.00e+00	0	45	0	1262485504	12	3843
2026-01-27 10:20:03.91	350.10	66.76	-25.9	-27.0	17.7	0.00e+00	0	45	0	1265631232	12	4051
2026-01-27 10:20:04.91	349.89	66.32	-26.6	-28.0	17.1	0.00e+00	0	45	0	1268776960	13	4204
2026-01-27 10:20:05.92	349.69	65.88	-27.7	-29.3	16.0	0.00e+00	0	45	0	1271922688	15	4357
2026-01-27 10:20:06.93	349.49	65.44	-27.0	-27.7	16.7	0.00e+00	0	45	0	1275068416	15	3935
2026-01-27 10:20:07.93	349.31	65.01	-26.0	-26.6	17.7	0.00e+00	0	45	0	1278214144	13	3854
2026-01-27 10:20:08.93	349.13	64.58	-25.5	-26.1	18.2	0.00e+00	0	45	0	1281359872	12	3845
2026-01-27 10:20:09.94	348.95	64.14	-25.7	-26.5	18.1	0.00e+00	0	45	0	1284505600	12	3954
2026-01-27 10:20:10.95	348.79	63.71	-26.0	-27.2	17.8	0.00e+00	0	45	0	1287651328	12	4110
2026-01-27 10:20:11.95	348.63	63.29	-26.7	-28.2	17.0	0.00e+00	0	45	0	1290797056	13	4274
2026-01-27 10:20:12.96	348.47	62.87	-27.8	-29.6	15.7	0.00e+00	0	45	0	1293942784	15	4444
2026-01-27 10:20:13.96	348.32	62.45	-28.2	-30.1	15.4	0.00e+00	0	45	0	1297088512	16	4447
2026-01-27 10:20:14.96	348.18	62.03	-27.7	-28.8	15.9	0.00e+00	0	45	0	1300234240	16	4092
2026-01-27 10:20:15.97	348.04	61.61	-27.0	-27.7	16.6	0.00e+00	0	45	0	1303379968	15	3937
2026-01-27 10:20:16.98	347.91	61.20	-26.9	-27.5	16.7	0.00e+00	0	45	0	1306525696	15	3882
2026-01-27 10:20:17.98	347.78	60.79	-27.1	-28.1	16.5	0.00e+00	0	45	0	1309671424	15	4043
2026-01-27 10:20:18.99	347.65	60.38	-26.8	-27.8	17.0	0.00e+00	0	45	0	1312817152	14	4054
2026-01-27 10:20:19.99	347.53	59.97	-27.2	-28.7	16.5	0.00e+00	0	44	0	1315962880	14	4282
2026-01-27 10:20:20.99	347.41	59.57	-27.6	-29.1	15.9	0.00e+00	0	45	0	1319108608	15	4298
2026-01-27 10:20:22.00	347.30	59.17	-28.6	-30.5	14.8	0.00e+00	0	45	0	1322254336	17	4451
2026-01-27 10:20:22.99	347.19	58.77	-28.9	-31.1	14.5	0.00e+00	0	45	0	1325400064	17	4648
2026-01-27 10:20:24.00	347.08	58.38	-28.7	-30.6	14.7	0.00e+00	0	45	0	1328545792	17	4502
2026-01-27 10:20:25.00	346.98	57.98	-28.2	-29.4	15.4	0.00e+00	0	45	0	1331691520	17	4164
2026-01-27 10:20:26.00	346.88	57.59	-28.1	-29.3	15.5	0.00e+00	0	45	0	1334837248	17	4120
2026-01-27 10:20:27.01	346.78	57.20	-28.6	-30.3	15.0	0.00e+00	0	45	0	1337982976	17	4383
2026-01-27 10:20:28.01	346.69	56.82	-28.4	-30.0	15.1	0.00e+00	0	45	0	1341128704	17	4307
2026-01-27 10:20:29.01	346.60	56.44	-29.3	-31.5	14.0	2.20e-06	0	45	0	1344274432	18	4650
2026-01-27 10:20:30.02	346.51	56.06	-29.7	-32.1	13.4	1.22e-05	0	45	0	1347420160	19	4707
2026-01-27 10:20:31.02	346.42	55.68	-30.3	-33.0	12.4	7.78e-05	0	44	0	1350565888	20	4898
2026-01-27 10:20:32.03	346.33	55.30	-30.3	-33.0	12.4	1.50e-04	0	45	0	1353711616	20	4924
2026-01-27 10:20:33.03	346.25	54.93	-30.5	-33.0	12.0	3.32e-04	0	45	0	1356857344	21	4817
2026-01-27 10:20:34.04	346.17	54.56	-30.8	-33.7	11.5	7.08e-04	0	45	0	1360003072	21	5059
2026-01-27 10:20:35.04	346.09	54.19	-30.4	-32.7	12.1	4.51e-04	0	45	0	1363148800	21	4713
2026-01-27 10:20:36.05	346.02	53.82	-29.9	-31.6	12.9	1.39e-04	0	45	0	1366294528	21	4352
2026-01-27 10:20:37.05	345.94	53.46	-29.0	-30.4	14.3	4.50e-06	0	45	0	1369440256	19	4207
2026-01-27 10:20:38.05	345.87	53.10	-28.1	-29.3	15.4	0.00e+00	0	45	0	1372585984	17	4104
2026-01-27 10:20:39.05	345.80	52.75	-28.0	-28.9	15.6	0.00e+00	0	45	0	1375731712	17	4012
2026-01-27 10:20:40.06	345.73	52.39	-28.5	-30.2	14.9	0.00e+00	0	45	0	1378877440	17	4365
2026-01-27 10:20:41.06	345.67	52.04	-29.3	-31.5	13.9	7.00e-07	0	45	0	1382023168	18	4631
2026-01-27 10:20:42.06	345.60	51.69	-30.0	-32.3	12.9	2.51e-05	0	45	0	1385168896	20	4668
2026-01-27 10:20:43.06	345.54	51.34	-29.8	-31.6	13.2	2.82e-05	0	45	0	1388314624	20	4467
2026-01-27 10:20:44.06	345.48	51.00	-29.5	-31.1	13.5	6.80e-06	0	45	0	1391460352	20	4309
2026-01-27 10:20:45.06	345.42	50.66	-29.5	-31.0	13.5	1.44e-05	0	45	0	1394606080	20	4281
2026-01-27 10:20:46.07	345.36	50.32	-29.5	-31.0	13.6	9.10e-06	0	44	0	1397751808	20	4282
2026-01-27 10:20:47.08	345.30	49.98	-29.6	-31.2	13.4	2.05e-05	0	44	0	1400897536	20	4331
2026-01-27 10:20:48.07	345.25	49.65	-29.5	-31.1	13.4	2.21e-05	0	45	0	1404043264	20	4322
2026-01-27 10:20:49.08	345.19	49.31	-29.6	-31.2	13.3	1.29e-05	0	45	0	1407188992	20	4355
2026-01-27 10:20:50.08	345.14	48.98	-29.4	-30.8	13.6	9.10e-06	0	45	0	1410334720	20	4225
2026-01-27 10:20:51.09	345.09	48.65	-29.3	-30.6	13.8	4.50e-06	0	45	0	1413480448	20	4165
2026-01-27 10:20:52.10	345.03	48.33	-29.5	-31.1	13.5	5.30e-06	0	45	0	1416626176	20	4311
2026-01-27 10:20:53.10	344.98	48.01	-29.7	-31.5	13.2	1.06e-05	0	45	0	1419771904	20	4437
2026-01-27 10:20:54.10	344.94	47.69	-29.9	-32.1	12.8	3.50e-05	0	45	0	1422917632	20	4617
2026-01-27 10:20:55.10	344.89	47.37	-30.2	-32.7	12.4	1.15e-04	0	45	0	1426063360	20	4836
2026-01-27 10:20:56.10	344.84	47.06	-30.1	-32.6	12.5	1.11e-04	0	45	0	1429209088	20	4800
2026-01-27 10:20:57.11	344.79	46.74	-30.1	-32.5	12.6	7.09e-05	0	45	0	1432354816	20	4757
2026-01-27 10:20:58.11	344.75	46.43	-30.1	-32.6	12.5	1.32e-04	0	45	0	1434451968	20	4797
2026-01-27 10:20:59.12	344.71	46.12	-30.4	-33.3	12.1	2.43e-04	0	45	0	1437597696	20	5027
2026-01-27 10:21:00.12	344.66	45.81	-30.2	-32.7	12.5	1.21e-04	0	45	0	1441792000	20	4811
2026-01-27 10:21:01.12	344.62	45.51	-30.2	-32.7	12.6	8.54e-05	0	45	0	1443889152	20	4804
2026-01-27 10:21:02.12	344.58	45.21	-30.2	-32.9	12.4	1.33e-04	0	45	0	1447034880	20	4872
2026-01-27 10:21:03.13	344.54	44.91	-30.1	-32.6	12.6	1.22e-04	0	45	0	1451229184	20	4784
2026-01-27 10:21:04.13	344.50	44.61	-30.2	-32.7	12.5	1.04e-04	0	45	0	1454374912	20	4826
2026-01-27 10:21:05.14	344.46	44.31	-30.3	-33.0	12.3	1.85e-04	0	45	0	1456472064	20	4908
2026-01-27 10:21:06.15	344.42	44.02	-30.1	-32.5	12.6	1.21e-04	0	45	0	1459617792	20	4754
2026-01-27 10:21:07.16	344.39	43.73	-29.7	-31.5	13.2	3.12e-05	0	45	0	1462763520	20	4438
2026-01-27 10:21:08.16	344.35	43.44	-29.5	-31.0	13.5	1.37e-05	0	45	0	1465909248	20	4298
2026-01-27 10:21:09.17	344.31	43.15	-29.4	-30.8	13.6	7.60e-06	0	44	0	1469054976	20	4243
2026-01-27 10:21:10.17	344.28	42.87	-29.5	-31.1	13.4	1.14e-05	0	44	0	1472200704	20	4313
2026-01-27 10:21:11.17	344.24	42.59	-29.7	-31.6	13.1	1.83e-05	0	45	0	1476395008	20	4466
2026-01-27 10:21:12.18	344.21	42.31	-30.0	-32.4	12.6	5.26e-05	0	45	0	1479540736	20	4723
2026-01-27 10:21:13.18	344.18	42.03	-30.2	-32.8	12.3	1.55e-04	0	45	0	1481637888	20	4867
2026-01-27 10:21:14.18	344.14	41.75	-30.0	-32.3	12.7	9.30e-05	0	45	0	1484783616	20	4685
2026-01-27 10:21:15.19	344.11	41.48	-30.0	-32.2	12.7	7.93e-05	0	45	0	1487929344	20	4673
2026-01-27 10:21:16.19	344.08	41.21	-29.9	-32.0	12.9	5.56e-05	0	45	0	1491075072	20	4614
2026-01-27 10:21:17.19	344.05	40.94	-29.8	-31.9	13.0	7.47e-05	0	45	0	1494220800	20	4570
2026-01-27 10:21:18.20	344.02	40.67	-29.6	-31.4	13.3	2.51e-05	0	44	0	1497366528	20	4393
2026-01-27 10:21:19.21	343.99	40.40	-29.5	-31.1	13.4	1.29e-05	0	45	0	1500512256	20	4329
2026-01-27 10:21:20.20	343.96	40.14	-29.7	-31.5	13.2	2.05e-05	0	44	0	1503657984	20	4437
2026-01-27 10:21:21.21	343.93	39.88	-29.6	-31.2	13.4	2.44e-05	0	44	0	1506803712	20	4357
2026-01-27 10:21:22.21	343.91	39.62	-29.6	-31.1	13.4	1.37e-05	0	45	0	1509949440	20	4326
2026-01-27 10:21:23.22	343.88	39.36	-29.5	-31.1	13.5	9.90e-06	0	45	0	1513095168	20	4309
2026-01-27 10:21:24.23	343.85	39.10	-29.6	-31.3	13.3	2.05e-05	0	45	0	1516240896	20	4383
2026-01-27 10:21:25.23	343.82	38.85	-29.6	-31.4	13.3	1.98e-05	0	45	0	1519386624	20	4399
2026-01-27 10:21:26.24	343.80	38.59	-29.5	-31.1	13.4	1.14e-05	0	45	0	1522532352	20	4320
2026-01-27 10:21:27.25	343.77	38.34	-29.4	-30.9	13.6	8.30e-06	0	45	0	1525678080	20	4261
2026-01-27 10:21:28.25	343.75	38.09	-29.3	-31.1	13.8	6.10e-06	0	45	0	1528823808	19	4409
2026-01-27 10:21:29.26	343.72	37.85	-29.1	-30.6	14.1	4.50e-06	0	45	0	1531969536	19	4276
2026-01-27 10:21:30.26	343.70	37.60	-28.6	-30.0	14.7	7.00e-07	0	45	0	1535115264	18	4197
2026-01-27 10:21:31.26	343.68	37.36	-28.2	-29.4	15.3	0.00e+00	0	45	0	1538260992	17	4154
2026-01-27 10:21:32.27	343.65	37.12	-27.9	-28.8	15.7	0.00e+00	0	45	0	1541406720	17	3989
2026-01-27 10:21:33.27	343.63	36.88	-28.0	-29.0	15.5	0.00e+00	0	44	0	1544552448	17	4036
2026-01-27 10:21:34.27	343.61	36.64	-28.3	-29.6	15.2	0.00e+00	0	45	0	1547698176	17	4207
2026-01-27 10:21:35.28	343.58	36.40	-28.5	-30.2	14.8	0.00e+00	0	45	0	1550843904	17	4380
2026-01-27 10:21:36.28	343.56	36.17	-28.8	-30.9	14.5	7.00e-07	0	45	0	1553989632	17	4573
2026-01-27 10:21:37.28	343.54	35.94	-29.0	-31.3	14.2	0.00e+00	0	45	0	1557135360	17	4708
2026-01-27 10:21:38.29	343.52	35.70	-29.1	-31.0	14.1	1.50e-06	0	45	0	1560281088	18	4508
2026-01-27 10:21:39.29	343.50	35.47	-29.1	-31.1	14.1	1.50e-06	0	45	0	1563426816	18	4523
2026-01-27 10:21:40.30	343.48	35.25	-29.0	-30.9	14.1	1.50e-06	0	45	0	1566572544	18	4469
2026-01-27 10:21:41.31	343.46	35.02	-28.9	-30.7	14.3	2.20e-06	0	44	0	1569718272	18	4416
2026-01-27 10:21:42.32	343.44	34.79	-28.9	-30.6	14.3	1.50e-06	0	45	0	1572864000	18	4388
2026-01-27 10:21:43.32	343.42	34.57	-28.9	-30.7	14.3	7.00e-07	0	45	0	1576009728	18	4398
2026-01-27 10:21:44.32	343.40	34.35	-28.9	-30.6	14.3	1.50e-06	0	44	0	1579155456	18	4374
2026-01-27 10:21:45.33	343.38	34.13	-28.7	-30.1	14.7	0.00e+00	0	45	0	1582301184	18	4238
2026-01-27 10:21:46.34	343.36	33.91	-28.6	-29.8	14.8	7.00e-07	0	44	0	1585446912	18	4160
2026-01-27 10:21:47.34	343.34	33.69	-28.5	-29.8	14.9	0.00e+00	0	45	0	1588592640	18	4142
2026-01-27 10:21:48.33	343.33	33.48	-28.6	-29.9	14.8	0.00e+00	0	45	0	1591738368	18	4171
2026-01-27 10:21:49.33	343.31	33.27	-28.5	-29.7	14.9	0.00e+00	0	45	0	1594884096	18	4130
2026-01-27 10:21:50.33	343.29	33.06	-28.3	-29.2	15.2	0.00e+00	0	45	0	1598029824	18	4005
2026-01-27 10:21:51.33	343.27	32.85	-28.3	-29.8	15.1	0.00e+00	0	45	0	1601175552	17	4249
2026-01-27 10:21:52.34	343.26	32.63	-28.4	-30.1	15.0	0.00e+00	0	45	0	1604321280	17	4331
2026-01-27 10:21:53.34	343.24	32.43	-28.5	-30.1	14.9	0.00e+00	0	45	0	1607467008	17	4348
2026-01-27 10:21:54.35	343.22	32.22	-28.3	-29.8	15.1	0.00e+00	0	45	0	1610612736	17	4252
2026-01-27 10:21:55.36	343.21	32.01	-28.2	-29.5	15.2	0.00e+00	0	45	0	1613758464	17	4192
2026-01-27 10:21:56.37	343.19	31.81	-28.2	-29.4	15.3	0.00e+00	0	45	0	1616904192	17	4147
2026-01-27 10:21:57.37	343.18	31.61	-28.2	-29.5	15.2	0.00e+00	0	45	0	1620049920	17	4182
2026-01-27 10:21:58.38	343.16	31.40	-28.2	-29.6	15.2	0.00e+00	0	45	0	1623195648	17	4204
2026-01-27 10:21:59.38	343.15	31.21	-28.2	-29.5	15.3	0.00e+00	0	45	0	1626341376	17	4178
2026-01-27 10:22:00.39	343.13	31.01	-28.2	-29.5	15.2	0.00e+00	0	45	0	1629487104	17	4193
2026-01-27 10:22:01.38	343.12	30.81	-28.2	-29.6	15.2	0.00e+00	0	44	0	1632632832	17	4198
2026-01-27 10:22:02.39	343.10	30.62	-28.2	-29.6	15.2	0.00e+00	0	45	0	1635778560	17	4205
2026-01-27 10:22:03.39	343.09	30.42	-28.2	-29.6	15.2	0.00e+00	0	44	0	1638924288	17	4208
2026-01-27 10:22:04.39	343.07	30.23	-28.3	-29.8	15.1	0.00e+00	0	45	0	1642070016	17	4268
2026-01-27 10:22:05.39	343.06	30.04	-28.3	-29.8	15.0	0.00e+00	0	45	0	1645215744	17	4272
2026-01-27 10:22:06.40	343.05	29.85	-28.4	-29.9	15.0	0.00e+00	0	45	0	1648361472	17	4315
2026-01-27 10:22:07.39	343.03	29.66	-28.4	-30.1	14.9	0.00e+00	0	44	0	1651507200	17	4351
2026-01-27 10:22:08.40	343.02	29.47	-28.4	-30.0	14.9	0.00e+00	0	44	0	1654652928	17	4346
2026-01-27 10:22:09.40	343.01	29.29	-28.5	-30.2	14.8	7.00e-07	0	44	0	1657798656	17	4386
2026-01-27 10:22:10.41	343.00	29.10	-28.5	-30.2	14.7	7.00e-07	0	45	0	1660944384	17	4398
2026-01-27 10:22:11.42	342.98	28.92	-28.5	-30.2	14.8	0.00e+00	0	44	0	1664090112	17	4387
2026-01-27 10:22:12.42	342.97	28.73	-28.3	-29.9	14.9	0.00e+00	0	45	0	1667235840	17	4296
2026-01-27 10:22:13.42	342.96	28.55	-28.3	-29.8	15.0	0.00e+00	0	45	0	1670381568	17	4273
2026-01-27 10:22:14.42	342.95	28.37	-28.2	-29.6	15.1	0.00e+00	0	45	0	1673527296	17	4214
2026-01-27 10:22:15.43	342.93	28.19	-28.2	-29.6	15.1	0.00e+00	0	45	0	1676673024	17	4212
2026-01-27 10:22:16.44	342.92	28.01	-28.3	-29.7	15.0	7.00e-07	0	45	0	1679818752	17	4250
2026-01-27 10:22:17.44	342.91	27.84	-28.3	-29.8	15.0	7.00e-07	0	45	0	1682964480	17	4263
2026-01-27 10:22:18.44	342.90	27.66	-28.3	-29.9	15.0	0.00e+00	0	45	0	1686110208	17	4297
2026-01-27 10:22:19.45	342.89	27.48	-28.3	-29.8	15.0	0.00e+00	0	45	0	1689255936	17	4279
2026-01-27 10:22:20.45	342.88	27.31	-28.1	-29.4	15.3	0.00e+00	0	45	0	1692401664	17	4157
2026-01-27 10:22:21.46	342.87	27.14	-28.0	-29.1	15.4	0.00e+00	0	44	0	1695547392	17	4074
2026-01-27 10:22:22.46	342.86	26.97	-28.0	-29.0	15.5	0.00e+00	0	44	0	1698693120	17	4062
2026-01-27 10:22:23.46	342.85	26.80	-27.8	-28.6	15.7	0.00e+00	0	44	0	1701838848	17	3954
2026-01-27 10:22:24.46	342.84	26.63	-27.5	-28.6	16.0	0.00e+00	0	44	0	1704984576	16	4048
2026-01-27 10:22:25.47	342.83	26.46	-27.4	-28.1	16.2	0.00e+00	0	44	0	1708130304	16	3936
2026-01-27 10:22:26.47	342.82	26.29	-27.3	-28.0	16.3	0.00e+00	0	45	0	1711276032	16	3912
2026-01-27 10:22:27.48	342.81	26.13	-27.3	-28.1	16.2	0.00e+00	0	45	0	1714421760	16	3919
2026-01-27 10:22:28.48	342.80	25.96	-27.1	-28.0	16.4	0.00e+00	0	45	0	1717567488	15	4018
2026-01-27 10:22:29.49	342.79	25.80	-27.1	-28.1	16.3	0.00e+00	0	44	0	1720713216	15	4035
2026-01-27 10:22:30.50	342.78	25.63	-27.0	-27.8	16.5	0.00e+00	0	44	0	1723858944	15	3967
2026-01-27 10:22:31.50	342.77	25.47	-27.0	-27.8	16.5	0.00e+00	0	45	0	1727004672	15	3953
2026-01-27 10:22:32.51	342.76	25.31	-26.9	-27.7	16.5	0.00e+00	0	44	0	1730150400	15	3937
2026-01-27 10:22:33.51	342.75	25.15	-26.9	-27.6	16.6	0.00e+00	0	45	0	1733296128	15	3914
2026-01-27 10:22:34.52	342.74	24.99	-26.9	-27.7	16.6	0.00e+00	0	45	0	1736441856	15	3933
2026-01-27 10:22:35.52	342.73	24.83	-27.1	-28.1	16.3	0.00e+00	0	44	0	1739587584	15	4036
2026-01-27 10:22:36.53	342.72	24.67	-27.1	-28.1	16.3	0.00e+00	0	44	0	1742733312	15	4041
2026-01-27 10:22:37.54	342.71	24.51	-26.9	-27.8	16.4	0.00e+00	0	45	0	1745879040	15	4001
2026-01-27 10:22:38.54	342.71	24.36	-26.9	-27.9	16.3	0.00e+00	0	45	0	1749024768	15	4048
2026-01-27 10:22:39.54	342.70	24.21	-27.0	-28.0	16.3	0.00e+00	0	45	0	1752170496	15	4066
2026-01-27 10:22:40.54	342.69	24.05	-27.1	-28.2	16.2	0.00e+00	0	44	0	1755316224	15	4084
2026-01-27 10:22:41.54	342.68	23.90	-27.2	-28.4	16.1	0.00e+00	0	45	0	1758461952	15	4128
2026-01-27 10:22:42.54	342.67	23.75	-27.3	-28.5	16.1	0.00e+00	0	45	0	1761607680	15	4134
2026-01-27 10:22:43.54	342.66	23.60	-27.3	-28.6	16.0	0.00e+00	0	45	0	1764753408	15	4171
2026-01-27 10:22:44.55	342.66	23.45	-27.4	-28.7	15.9	0.00e+00	0	45	0	1767899136	15	4204
2026-01-27 10:22:45.55	342.65	23.30	-27.4	-28.9	15.8	0.00e+00	0	44	0	1771044864	15	4239
2026-01-27 10:22:46.56	342.64	23.15	-27.5	-28.9	15.8	0.00e+00	0	45	0	1774190592	15	4259
2026-01-27 10:22:47.56	342.63	23.00	-27.6	-29.2	15.7	0.00e+00	0	45	0	1777336320	15	4332
2026-01-27 10:22:48.57	342.63	22.85	-27.6	-29.2	15.7	0.00e+00	0	44	0	1780482048	15	4321
2026-01-27 10:22:49.57	342.62	22.71	-27.7	-29.5	15.5	0.00e+00	0	45	0	1783627776	15	4421
2026-01-27 10:22:50.57	342.61	22.56	-27.7	-29.5	15.4	0.00e+00	0	44	0	1786773504	15	4430
2026-01-27 10:22:51.57	342.61	22.42	-27.6	-29.2	15.6	0.00e+00	0	45	0	1789919232	15	4348
2026-01-27 10:22:52.57	342.60	22.28	-27.6	-29.3	15.5	0.00e+00	0	45	0	1793064960	15	4371
2026-01-27 10:22:53.58	342.59	22.13	-27.6	-29.2	15.6	0.00e+00	0	44	0	1796210688	15	4330
2026-01-27 10:22:54.58	342.59	21.99	-27.6	-29.3	15.5	0.00e+00	0	44	0	1799356416	15	4369
2026-01-27 10:22:55.58	342.58	21.85	-27.7	-29.5	15.4	0.00e+00	0	45	0	1802502144	15	4413
2026-01-27 10:22:56.58	342.57	21.71	-27.5	-29.1	15.6	0.00e+00	0	44	0	1805647872	15	4319
2026-01-27 10:22:57.58	342.57	21.57	-27.4	-28.8	15.8	0.00e+00	0	45	0	1808793600	15	4227
2026-01-27 10:22:58.57	342.56	21.44	-27.3	-28.6	15.9	0.00e+00	0	44	0	1811939328	15	4165
2026-01-27 10:22:59.58	342.55	21.30	-27.3	-28.6	15.9	0.00e+00	0	44	0	1815085056	15	4186
2026-01-27 10:23:00.58	342.55	21.16	-27.3	-28.6	15.9	0.00e+00	0	44	0	1818230784	15	4172
2026-01-27 10:23:01.59	342.54	21.02	-27.3	-28.6	15.9	0.00e+00	0	44	0	1821376512	15	4188
2026-01-27 10:23:02.60	342.54	20.89	-27.3	-28.6	15.9	0.00e+00	0	44	0	1824522240	15	4184
2026-01-27 10:23:03.60	342.53	20.75	-27.3	-28.7	15.8	0.00e+00	0	45	0	1826619392	15	4207
2026-01-27 10:23:04.61	342.52	20.62	-27.3	-28.6	15.9	0.00e+00	0	44	0	1829765120	15	4187
2026-01-27 10:23:05.61	342.52	20.49	-27.3	-28.7	15.8	0.00e+00	0	44	0	1832910848	15	4205
2026-01-27 10:23:06.62	342.51	20.35	-27.3	-28.6	15.9	0.00e+00	0	45	0	1836056576	15	4179
2026-01-27 10:23:07.62	342.51	20.22	-27.4	-28.7	15.8	0.00e+00	0	44	0	1839202304	15	4213
2026-01-27 10:23:08.62	342.50	20.09	-27.3	-28.7	15.8	0.00e+00	0	44	0	1843396608	15	4203
2026-01-27 10:23:09.63	342.50	19.96	-27.4	-28.8	15.8	0.00e+00	0	44	0	1846542336	15	4222
2026-01-27 10:23:10.63	342.49	19.83	-27.4	-28.9	15.7	0.00e+00	0	44	0	1849688064	15	4255
2026-01-27 10:23:11.63	342.49	19.70	-27.4	-28.9	15.7	0.00e+00	0	44	0	1851785216	15	4262
2026-01-27 10:23:12.64	342.48	19.57	-27.5	-29.0	15.7	0.00e+00	0	44	0	1854930944	15	4272
2026-01-27 10:23:13.64	342.48	19.44	-27.4	-28.9	15.7	0.00e+00	0	45	0	1858076672	15	4270
2026-01-27 10:23:14.64	342.47	19.31	-27.5	-28.9	15.6	0.00e+00	0	45	0	1861222400	15	4265
2026-01-27 10:23:15.64	342.47	19.19	-27.5	-29.1	15.6	0.00e+00	0	44	0	1864368128	15	4307
2026-01-27 10:23:16.64	342.46	19.06	-27.5	-29.1	15.6	0.00e+00	0	44	0	1867513856	15	4313
2026-01-27 10:23:17.65	342.46	18.94	-27.5	-29.1	15.5	0.00e+00	0	44	0	1870659584	15	4327
2026-01-27 10:23:18.66	342.45	18.81	-27.6	-29.3	15.5	0.00e+00	0	44	0	1873805312	15	4359
2026-01-27 10:23:19.66	342.45	18.69	-27.6	-29.3	15.4	0.00e+00	0	44	0	1876951040	15	4368
2026-01-27 10:23:20.67	342.44	18.56	-27.6	-29.3	15.4	0.00e+00	0	44	0	1880096768	15	4374
2026-01-27 10:23:21.67	342.44	18.44	-27.6	-29.3	15.4	0.00e+00	0	44	0	1883242496	15	4379
2026-01-27 10:23:22.68	342.43	18.32	-27.7	-29.4	15.3	0.00e+00	0	44	0	1886388224	15	4410
2026-01-27 10:23:23.68	342.43	18.20	-27.7	-29.5	15.3	0.00e+00	0	44	0	1889533952	15	4440
2026-01-27 10:23:24.68	342.43	18.08	-27.7	-29.6	15.2	0.00e+00	0	44	0	1892679680	15	4455
2026-01-27 10:23:25.68	342.42	17.96	-27.7	-29.6	15.2	0.00e+00	0	44	0	1895825408	15	4464
2026-01-27 10:23:26.69	342.42	17.83	-27.8	-29.7	15.1	0.00e+00	0	44	0	1898971136	15	4495
2026-01-27 10:23:27.69	342.41	17.72	-27.8	-29.7	15.1	0.00e+00	0	44	0	1902116864	15	4496
2026-01-27 10:23:28.69	342.41	17.60	-27.8	-29.8	15.1	0.00e+00	0	44	0	1905262592	15	4510
2026-01-27 10:23:29.69	342.41	17.48	-27.9	-30.0	15.0	0.00e+00	0	44	0	1908408320	15	4585
2026-01-27 10:23:30.69	342.40	17.36	-28.1	-29.8	15.0	0.00e+00	0	44	0	1911554048	16	4401
2026-01-27 10:23:31.69	342.40	17.25	-28.1	-29.8	15.0	0.00e+00	0	44	0	1914699776	16	4393
2026-01-27 10:23:32.70	342.39	17.13	-28.0	-29.7	15.0	0.00e+00	0	44	0	1917845504	16	4371
2026-01-27 10:23:33.70	342.39	17.01	-28.1	-30.0	14.9	0.00e+00	0	44	0	1920991232	16	4453
2026-01-27 10:23:34.70	342.39	16.90	-28.1	-30.0	14.9	0.00e+00	0	44	0	1924136960	16	4452
2026-01-27 10:23:35.71	342.38	16.78	-28.2	-30.0	14.9	0.00e+00	0	44	0	1927282688	16	4462
2026-01-27 10:23:36.70	342.38	16.67	-28.2	-30.1	14.8	7.00e-07	0	45	0	1930428416	16	4469
2026-01-27 10:23:37.70	342.38	16.56	-28.1	-29.9	14.9	0.00e+00	0	44	0	1933574144	16	4429
2026-01-27 10:23:38.70	342.37	16.44	-28.1	-29.9	14.9	0.00e+00	0	44	0	1936719872	16	4435
2026-01-27 10:23:39.71	342.37	16.33	-28.1	-29.9	14.9	0.00e+00	0	44	0	1939865600	16	4425
2026-01-27 10:23:40.72	342.37	16.22	-28.1	-30.0	14.8	0.00e+00	0	44	0	1943011328	16	4454
2026-01-27 10:23:41.72	342.36	16.11	-28.1	-29.9	14.9	7.00e-07	0	44	0	1946157056	16	4433
2026-01-27 10:23:42.72	342.36	15.99	-28.0	-29.7	15.0	0.00e+00	0	45	0	1949302784	16	4378
2026-01-27 10:23:43.73	342.36	15.88	-28.0	-29.7	15.0	0.00e+00	0	44	0	1952448512	16	4374
2026-01-27 10:23:44.73	342.35	15.77	-28.0	-29.7	15.0	0.00e+00	0	44	0	1955594240	16	4359
2026-01-27 10:23:45.74	342.35	15.66	-28.0	-29.7	15.0	0.00e+00	0	44	0	1958739968	16	4366
2026-01-27 10:23:46.75	342.35	15.55	-28.0	-29.7	15.0	0.00e+00	0	44	0	1961885696	16	4368
2026-01-27 10:23:47.75	342.34	15.44	-28.0	-29.7	15.0	0.00e+00	0	44	0	1965031424	16	4362
2026-01-27 10:23:48.75	342.34	15.34	-28.1	-30.0	14.8	0.00e+00	0	44	0	1968177152	16	4457
2026-01-27 10:23:49.75	342.34	15.23	-28.2	-30.1	14.8	7.00e-07	0	44	0	1971322880	16	4477
2026-01-27 10:23:50.75	342.34	15.12	-28.1	-30.0	14.8	0.00e+00	0	44	0	1974468608	16	4460
2026-01-27 10:23:51.76	342.33	15.02	-28.3	-30.4	14.6	7.00e-07	0	44	0	1977614336	16	4585
2026-01-27 10:23:52.77	342.33	14.91	-28.3	-30.4	14.6	0.00e+00	0	44	0	1980760064	16	4569
2026-01-27 10:23:53.77	342.33	14.80	-28.3	-30.3	14.6	0.00e+00	0	44	0	1983905792	16	4554
2026-01-27 10:23:54.78	342.33	14.70	-28.3	-30.4	14.6	7.00e-07	0	44	0	1987051520	16	4572
2026-01-27 10:23:55.78	342.32	14.59	-28.4	-30.5	14.5	1.50e-06	0	44	0	1990197248	16	4615
2026-01-27 10:23:56.79	342.32	14.49	-28.3	-30.4	14.5	7.00e-07	0	44	0	1993342976	16	4583
2026-01-27 10:23:57.79	342.32	14.38	-28.4	-30.6	14.4	0.00e+00	0	44	0	1996488704	16	4629
2026-01-27 10:23:58.80	342.32	14.28	-28.3	-30.4	14.5	1.50e-06	0	44	0	1999634432	16	4570
2026-01-27 10:23:59.80	342.31	14.18	-28.3	-30.3	14.6	1.50e-06	0	45	0	2002780160	16	4539
2026-01-27 10:24:00.80	342.31	14.07	-28.2	-30.2	14.6	0.00e+00	0	44	0	2005925888	16	4518
2026-01-27 10:24:01.80	342.31	13.97	-28.2	-30.1	14.6	0.00e+00	0	44	0	2009071616	16	4499
2026-01-27 10:24:02.81	342.31	13.87	-28.3	-30.3	14.6	0.00e+00	0	44	0	2012217344	16	4539
2026-01-27 10:24:03.81	342.30	13.77	-28.3	-30.3	14.6	7.00e-07	0	44	0	2015363072	16	4537
2026-01-27 10:24:04.81	342.30	13.67	-28.3	-30.3	14.5	7.00e-07	0	44	0	2018508800	16	4564
2026-01-27 10:24:05.81	342.30	13.57	-28.3	-30.5	14.5	1.50e-06	0	44	0	2021654528	16	4607
2026-01-27 10:24:06.82	342.30	13.47	-28.3	-30.3	14.5	1.50e-06	0	44	0	2024800256	16	4551
2026-01-27 10:24:07.82	342.30	13.37	-28.3	-30.5	14.4	7.00e-07	0	44	0	2027945984	16	4610
2026-01-27 10:24:08.83	342.29	13.27	-28.3	-30.3	14.5	7.00e-07	0	44	0	2031091712	16	4551
2026-01-27 10:24:09.83	342.29	13.17	-28.4	-30.5	14.4	0.00e+00	0	44	0	2034237440	16	4620
2026-01-27 10:24:10.84	342.29	13.07	-28.3	-30.4	14.5	1.50e-06	0	44	0	2037383168	16	4569
2026-01-27 10:24:11.84	342.29	12.97	-28.2	-30.2	14.6	0.00e+00	0	45	0	2040528896	16	4512
2026-01-27 10:24:12.85	342.29	12.87	-28.4	-30.7	14.3	2.20e-06	0	44	0	2043674624	16	4670
2026-01-27 10:24:13.85	342.29	12.78	-28.3	-30.5	14.4	7.00e-07	0	44	0	2046820352	16	4603
2026-01-27 10:24:14.85	342.28	12.68	-28.5	-30.8	14.2	1.50e-06	0	44	0	2049966080	16	4702
2026-01-27 10:24:15.86	342.28	12.58	-28.4	-30.2	14.2	1.50e-06	0	44	0	2053111808	17	4424
2026-01-27 10:24:16.87	342.28	12.49	-28.3	-29.9	14.4	1.50e-06	0	44	0	2056257536	17	4336
2026-01-27 10:24:17.88	342.28	12.39	-28.2	-29.7	14.5	7.00e-07	0	44	0	2059403264	17	4279
2026-01-27 10:24:18.88	342.28	12.29	-28.1	-29.5	14.6	1.50e-06	0	45	0	2062548992	17	4224
2026-01-27 10:24:19.88	342.28	12.20	-28.2	-29.6	14.6	0.00e+00	0	44	0	2065694720	17	4233
2026-01-27 10:24:20.89	342.27	12.10	-28.1	-29.5	14.6	7.00e-07	0	44	0	2068840448	17	4222
2026-01-27 10:24:21.89	342.27	12.01	-28.1	-29.5	14.6	7.00e-07	0	44	0	2071986176	17	4207
2026-01-27 10:24:22.89	342.27	11.92	-28.2	-29.7	14.5	7.00e-07	0	44	0	2075131904	17	4279
2026-01-27 10:24:23.89	342.27	11.82	-28.2	-29.6	14.5	0.00e+00	0	44	0	2078277632	17	4254
2026-01-27 10:24:24.89	342.27	11.73	-28.2	-29.6	14.6	0.00e+00	0	44	0	2081423360	17	4236
2026-01-27 10:24:25.90	342.27	11.64	-28.2	-29.6	14.5	0.00e+00	0	45	0	2084569088	17	4252
2026-01-27 10:24:26.91	342.27	11.54	-28.2	-29.8	14.4	0.00e+00	0	44	0	2087714816	17	4292
2026-01-27 10:24:27.92	342.26	11.45	-28.3	-30.0	14.3	7.00e-07	0	44	0	2090860544	17	4377
2026-01-27 10:24:28.92	342.26	11.36	-28.3	-30.0	14.3	0.00e+00	0	44	0	2094006272	17	4357
2026-01-27 10:24:29.93	342.26	11.27	-28.4	-30.1	14.2	7.00e-07	0	44	0	2097152000	17	4399
2026-01-27 10:24:30.93	342.26	11.18	-28.4	-30.2	14.1	7.00e-07	0	44	0	2100297728	17	4432
2026-01-27 10:24:31.93	342.26	11.08	-28.4	-30.2	14.1	3.00e-06	0	45	0	2103443456	17	4416
2026-01-27 10:24:32.94	342.26	10.99	-28.5	-30.3	14.0	7.00e-07	0	44	0	2106589184	17	4457
2026-01-27 10:24:33.94	342.26	10.90	-28.4	-30.3	14.1	2.20e-06	0	44	0	2109734912	17	4435
2026-01-27 10:24:34.94	342.26	10.81	-28.4	-30.3	14.1	3.00e-06	0	44	0	2112880640	17	4451
2026-01-27 10:24:35.94	342.26	10.73	-28.5	-30.5	14.0	3.80e-06	0	44	0	2116026368	17	4501
2026-01-27 10:24:36.95	342.26	10.64	-28.5	-30.5	14.0	3.00e-06	0	44	0	2119172096	17	4493
2026-01-27 10:24:37.94	342.25	10.55	-28.7	-30.9	13.7	3.80e-06	0	44	0	2122317824	17	4646
2026-01-27 10:24:38.94	342.25	10.46	-28.6	-30.7	13.8	6.80e-06	0	44	0	2125463552	17	4579
