passes_logs/2026/01/27/R2M6_AANII_01/R2M6_AANII_01__20260127_090338_SUOMI_NPP_rec.log

#Pass ID: 20260127_090338_SUOMI NPP
#Satellite: SUOMI NPP
#Configuration: NPP
#almurnet v.1.7.20240730
#Start time: 2026-01-27 09:03:39

#Version: 2.2.20231116
#Station: R2M6_AANII_01
#Location: 30.233357 lon 59.946436 lat
#TLE: 1 37849U 11061A   26026.87508736  .00000176  00000+0  10464-3 0  9991
#TLE: 2 37849  98.7822 328.8221 0002127  43.3055 316.8288 14.19530452738397

#Time	Az	El	Level	Level2	SNR	BER	BlckErr	Temp	State	Recorded	gain1	gain2
2026-01-27 09:03:39.08	118.81	7.07	-32.7	-38.9	4.4	1.43e+00	0	41	0	0	26	7416
2026-01-27 09:03:40.09	118.74	7.14	-32.2	-36.9	4.8	1.33e+00	0	41	104	0	25	6155
2026-01-27 09:03:41.09	118.67	7.21	-32.1	-36.3	7.7	1.07e-01	0	41	0	0	25	5789
2026-01-27 09:03:42.10	118.61	7.29	-32.3	-37.0	7.2	1.13e-01	0	41	0	1048576	25	6195
2026-01-27 09:03:43.10	118.54	7.36	-32.3	-37.2	7.0	1.33e-01	0	41	0	3145728	25	6327
2026-01-27 09:03:44.11	118.47	7.43	-32.5	-37.9	6.5	1.86e-01	0	41	0	5242880	25	6747
2026-01-27 09:03:45.11	118.41	7.50	-32.6	-38.7	6.1	2.71e-01	0	41	0	7340032	25	7248
2026-01-27 09:03:46.11	118.34	7.58	-32.7	-39.5	5.5	4.51e-01	0	41	0	9437184	25	7873
2026-01-27 09:03:47.11	118.27	7.65	-32.5	-38.3	6.3	3.89e-01	0	42	0	10485760	25	6952
2026-01-27 09:03:48.12	118.20	7.72	-32.4	-37.2	7.1	1.97e-01	0	42	0	12582912	25	6280
2026-01-27 09:03:49.12	118.13	7.79	-31.9	-35.2	8.5	6.20e-02	0	42	0	14680064	25	5281
2026-01-27 09:03:50.12	118.06	7.87	-31.6	-34.5	9.5	2.17e-02	0	41	0	16777216	24	5041
2026-01-27 09:03:51.12	117.99	7.94	-31.3	-33.8	10.5	6.75e-03	0	42	0	17825792	23	4832
2026-01-27 09:03:52.12	117.92	8.01	-31.0	-33.0	11.1	3.09e-03	0	42	0	19922944	23	4502
2026-01-27 09:03:53.11	117.86	8.09	-31.0	-32.8	11.3	1.05e-03	0	42	0	22020096	23	4428
2026-01-27 09:03:54.12	117.78	8.16	-31.0	-32.8	11.3	9.81e-04	0	42	0	24117248	23	4425
2026-01-27 09:03:55.12	117.71	8.23	-31.1	-33.3	10.9	1.45e-03	0	42	0	26214400	23	4639
2026-01-27 09:03:56.12	117.64	8.31	-31.3	-33.9	10.5	3.54e-03	0	42	0	27262976	23	4857
2026-01-27 09:03:57.13	117.57	8.38	-31.7	-35.3	9.4	8.54e-03	0	42	0	29360128	23	5455
2026-01-27 09:03:58.13	117.50	8.46	-31.7	-35.3	9.5	1.15e-02	0	42	0	31457280	23	5433
2026-01-27 09:03:59.13	117.43	8.53	-31.7	-35.3	9.5	1.56e-02	0	42	0	33554432	23	5459
2026-01-27 09:04:00.13	117.35	8.61	-31.5	-34.5	10.1	1.17e-02	0	42	0	35651584	23	5074
2026-01-27 09:04:01.14	117.28	8.68	-31.3	-33.9	10.5	4.96e-03	0	42	0	36700160	23	4863
2026-01-27 09:04:02.14	117.21	8.76	-31.2	-33.6	10.8	3.17e-03	0	42	0	38797312	23	4737
2026-01-27 09:04:03.13	117.13	8.83	-31.2	-33.5	10.9	2.33e-03	0	42	0	40894464	23	4696
2026-01-27 09:04:04.13	117.06	8.91	-31.4	-33.9	10.7	3.28e-03	0	42	0	42991616	23	4829
2026-01-27 09:04:05.14	116.98	8.98	-31.2	-33.5	10.9	2.27e-03	0	42	0	45088768	23	4692
2026-01-27 09:04:06.15	116.91	9.06	-31.2	-33.4	11.0	1.81e-03	0	42	0	46137344	23	4648
2026-01-27 09:04:07.15	116.83	9.13	-31.4	-34.2	10.5	2.66e-03	0	42	0	48234496	23	4927
2026-01-27 09:04:08.16	116.75	9.21	-31.4	-34.0	10.6	5.28e-03	0	42	0	50331648	23	4861
2026-01-27 09:04:09.16	116.68	9.29	-31.6	-34.6	10.2	5.58e-03	0	42	0	52428800	23	5100
2026-01-27 09:04:10.16	116.60	9.36	-31.7	-35.2	9.8	9.16e-03	0	42	0	54525952	23	5337
2026-01-27 09:04:11.16	116.52	9.44	-31.6	-34.6	10.2	7.66e-03	0	42	0	55574528	23	5070
2026-01-27 09:04:12.17	116.45	9.52	-31.5	-34.2	10.6	4.65e-03	0	42	0	57671680	23	4910
2026-01-27 09:04:13.17	116.37	9.60	-31.4	-34.1	10.6	3.70e-03	0	42	0	59768832	23	4871
2026-01-27 09:04:14.18	116.29	9.67	-31.3	-33.8	10.8	2.21e-03	0	42	0	61865984	23	4771
2026-01-27 09:04:15.18	116.21	9.75	-31.3	-33.5	11.0	1.89e-03	0	42	0	62914560	23	4675
2026-01-27 09:04:16.18	116.13	9.83	-31.5	-34.2	10.6	3.74e-03	0	42	0	65011712	23	4917
2026-01-27 09:04:17.19	116.05	9.91	-31.4	-33.9	10.8	2.60e-03	0	42	0	67108864	23	4805
2026-01-27 09:04:18.19	115.97	9.98	-31.4	-33.8	10.8	1.95e-03	0	42	0	69206016	23	4774
2026-01-27 09:04:19.20	115.89	10.06	-31.3	-33.7	11.0	1.75e-03	0	42	0	71303168	23	4713
2026-01-27 09:04:20.20	115.81	10.14	-31.4	-34.1	10.7	2.39e-03	0	42	0	73400320	23	4869
2026-01-27 09:04:21.21	115.72	10.22	-31.5	-34.1	10.6	3.53e-03	0	42	0	74448896	23	4883
2026-01-27 09:04:22.21	115.64	10.30	-31.3	-33.7	11.0	1.98e-03	0	43	0	76546048	23	4716
2026-01-27 09:04:23.22	115.56	10.38	-31.3	-33.4	11.2	1.32e-03	0	43	0	78643200	23	4620
2026-01-27 09:04:24.22	115.48	10.46	-31.3	-33.6	11.1	2.50e-03	0	42	0	80740352	23	4678
2026-01-27 09:04:25.22	115.39	10.54	-31.2	-33.4	11.3	1.13e-03	0	43	0	81788928	23	4598
2026-01-27 09:04:26.23	115.31	10.62	-31.3	-33.6	11.1	1.41e-03	0	43	0	83886080	23	4676
2026-01-27 09:04:27.23	115.22	10.70	-31.4	-33.8	11.0	1.60e-03	0	42	0	85983232	23	4747
2026-01-27 09:04:28.24	115.14	10.78	-31.3	-33.5	11.2	1.77e-03	0	42	0	88080384	23	4638
2026-01-27 09:04:29.24	115.05	10.86	-31.3	-33.6	11.1	2.40e-03	0	42	0	90177536	23	4667
2026-01-27 09:04:30.25	114.97	10.94	-31.3	-33.5	11.2	1.30e-03	0	43	0	91226112	23	4657
2026-01-27 09:04:31.25	114.88	11.02	-31.2	-33.3	11.3	1.06e-03	0	43	0	93323264	23	4565
2026-01-27 09:04:32.25	114.79	11.10	-31.2	-33.3	11.4	1.50e-03	0	43	0	95420416	23	4578
2026-01-27 09:04:33.25	114.71	11.18	-31.2	-33.3	11.4	8.64e-04	0	43	0	97517568	23	4578
2026-01-27 09:04:34.25	114.62	11.26	-31.4	-33.8	11.1	1.48e-03	0	43	0	99614720	23	4762
2026-01-27 09:04:35.26	114.53	11.35	-31.2	-33.2	11.5	9.74e-04	0	43	0	100663296	23	4524
2026-01-27 09:04:36.26	114.44	11.43	-31.3	-33.4	11.3	1.22e-03	0	43	0	102760448	23	4598
2026-01-27 09:04:37.26	114.35	11.51	-31.4	-33.7	11.1	1.47e-03	0	43	0	104857600	23	4697
2026-01-27 09:04:38.27	114.26	11.59	-31.3	-33.5	11.2	1.49e-03	0	43	0	106954752	23	4644
2026-01-27 09:04:39.27	114.17	11.67	-31.2	-33.0	11.6	1.05e-03	0	43	0	109051904	23	4466
2026-01-27 09:04:40.26	114.08	11.75	-31.1	-32.7	11.9	7.03e-04	0	43	0	110100480	23	4368
2026-01-27 09:04:41.27	113.99	11.84	-30.9	-32.3	12.1	2.82e-04	0	43	0	112197632	23	4220
2026-01-27 09:04:42.28	113.90	11.92	-30.9	-32.4	12.2	2.12e-04	0	43	0	114294784	23	4244
2026-01-27 09:04:43.28	113.80	12.00	-30.7	-32.3	12.5	1.81e-04	0	43	0	116391936	22	4308
2026-01-27 09:04:44.29	113.71	12.09	-30.8	-32.5	12.4	1.44e-04	0	43	0	118489088	22	4372
2026-01-27 09:04:45.29	113.62	12.17	-30.8	-32.6	12.3	1.99e-04	0	43	0	119537664	22	4402
2026-01-27 09:04:46.29	113.52	12.26	-30.8	-32.5	12.4	1.23e-04	0	43	0	121634816	22	4363
2026-01-27 09:04:47.30	113.43	12.34	-30.8	-32.5	12.4	1.50e-04	0	43	0	123731968	22	4357
2026-01-27 09:04:48.30	113.33	12.42	-30.8	-32.4	12.4	1.69e-04	0	43	0	125829120	22	4335
2026-01-27 09:04:49.31	113.23	12.51	-30.9	-32.7	12.2	1.40e-04	0	43	0	127926272	22	4441
2026-01-27 09:04:50.31	113.14	12.59	-31.0	-33.0	12.0	2.48e-04	0	43	0	128974848	22	4534
2026-01-27 09:04:51.32	113.04	12.68	-30.7	-32.3	12.6	1.65e-04	0	43	0	131072000	22	4297
2026-01-27 09:04:52.32	112.94	12.76	-30.6	-32.0	12.8	1.27e-04	0	43	0	133169152	22	4200
2026-01-27 09:04:53.33	112.84	12.85	-30.6	-31.9	12.8	7.24e-05	0	43	0	135266304	22	4167
2026-01-27 09:04:54.33	112.75	12.93	-30.8	-32.6	12.4	8.69e-05	0	43	0	136314880	22	4387
2026-01-27 09:04:55.33	112.65	13.02	-30.8	-32.5	12.4	1.45e-04	0	43	0	138412032	22	4376
2026-01-27 09:04:56.33	112.55	13.11	-30.9	-32.7	12.3	1.99e-04	0	43	0	140509184	22	4443
2026-01-27 09:04:57.33	112.45	13.19	-30.9	-32.6	12.4	1.57e-04	0	43	0	142606336	22	4400
2026-01-27 09:04:58.34	112.34	13.28	-30.7	-32.2	12.7	1.04e-04	0	43	0	144703488	22	4256
2026-01-27 09:04:59.34	112.24	13.37	-30.5	-31.6	13.0	4.50e-05	0	43	0	146800640	22	4080
2026-01-27 09:05:00.34	112.14	13.45	-30.4	-31.2	13.3	2.13e-05	0	43	0	147849216	22	3964
2026-01-27 09:05:01.34	112.04	13.54	-30.4	-31.3	13.3	2.51e-05	0	43	0	149946368	22	3982
2026-01-27 09:05:02.34	111.93	13.63	-30.4	-31.4	13.2	1.37e-05	0	43	0	152043520	22	4003
2026-01-27 09:05:03.35	111.83	13.71	-30.7	-32.0	12.8	6.17e-05	0	43	0	154140672	22	4202
2026-01-27 09:05:04.35	111.73	13.80	-31.0	-32.9	12.2	1.30e-04	0	43	0	155189248	22	4482
2026-01-27 09:05:05.36	111.62	13.89	-31.1	-33.3	11.9	3.62e-04	0	43	0	157286400	22	4646
2026-01-27 09:05:06.36	111.51	13.98	-31.0	-32.9	12.2	3.49e-04	0	43	0	159383552	22	4504
2026-01-27 09:05:07.36	111.41	14.07	-31.0	-32.9	12.2	2.12e-04	0	43	0	161480704	22	4479
2026-01-27 09:05:08.37	111.30	14.15	-31.0	-32.8	12.2	2.33e-04	0	43	0	163577856	22	4460
2026-01-27 09:05:09.37	111.19	14.24	-30.8	-32.3	12.6	1.72e-04	0	43	0	164626432	22	4296
2026-01-27 09:05:10.37	111.08	14.33	-30.8	-32.2	12.7	5.56e-05	0	43	0	166723584	22	4255
2026-01-27 09:05:11.38	110.97	14.42	-30.7	-32.2	12.8	5.34e-05	0	43	0	168820736	22	4241
2026-01-27 09:05:12.37	110.86	14.51	-31.0	-32.9	12.2	7.40e-05	0	43	0	170917888	22	4482
2026-01-27 09:05:13.38	110.75	14.60	-31.1	-33.3	12.0	1.75e-04	0	43	0	173015040	22	4623
2026-01-27 09:05:14.38	110.64	14.69	-31.3	-33.7	11.7	5.40e-04	0	43	0	174063616	22	4758
2026-01-27 09:05:15.38	110.53	14.78	-31.3	-34.0	11.5	8.57e-04	0	43	0	176160768	22	4862
2026-01-27 09:05:16.38	110.42	14.87	-31.3	-33.9	11.6	9.70e-04	0	43	0	178257920	22	4838
2026-01-27 09:05:17.38	110.30	14.96	-30.8	-32.4	12.6	1.36e-04	0	43	0	180355072	22	4304
2026-01-27 09:05:18.39	110.19	15.05	-30.7	-31.9	13.0	4.19e-05	0	43	0	182452224	22	4151
2026-01-27 09:05:19.40	110.07	15.14	-30.6	-31.6	13.1	2.67e-05	0	43	0	183500800	22	4073
2026-01-27 09:05:20.40	109.96	15.23	-30.6	-31.8	13.0	3.20e-05	0	43	0	185597952	22	4129
2026-01-27 09:05:21.40	109.84	15.33	-30.9	-32.5	12.7	5.87e-05	0	43	0	187695104	22	4335
2026-01-27 09:05:22.41	109.72	15.42	-30.8	-32.2	12.8	9.84e-05	0	43	0	189792256	22	4258
2026-01-27 09:05:23.41	109.60	15.51	-31.0	-32.7	12.5	1.27e-04	0	43	0	191889408	22	4415
2026-01-27 09:05:24.41	109.49	15.60	-30.9	-32.7	12.5	9.84e-05	0	43	0	192937984	22	4392
2026-01-27 09:05:25.42	109.36	15.69	-30.8	-32.3	12.8	4.42e-05	0	43	0	195035136	22	4276
2026-01-27 09:05:26.42	109.24	15.79	-30.8	-32.3	12.8	7.01e-05	0	43	0	197132288	22	4281
2026-01-27 09:05:27.43	109.12	15.88	-30.8	-32.2	12.7	6.25e-05	0	43	0	199229440	22	4251
2026-01-27 09:05:28.43	109.00	15.97	-31.0	-32.7	12.5	5.95e-05	0	43	0	200278016	22	4402
2026-01-27 09:05:29.44	108.88	16.07	-30.9	-32.6	12.6	1.17e-04	0	43	0	202375168	22	4376
2026-01-27 09:05:30.44	108.76	16.16	-30.7	-32.1	12.9	6.02e-05	0	43	0	204472320	22	4210
2026-01-27 09:05:31.45	108.63	16.25	-30.9	-32.4	12.8	7.78e-05	0	43	0	206569472	22	4297
2026-01-27 09:05:32.45	108.51	16.35	-30.9	-32.4	12.8	1.01e-04	0	43	0	208666624	22	4305
2026-01-27 09:05:33.46	108.38	16.44	-30.7	-31.9	13.1	3.20e-05	0	43	0	209715200	22	4145
2026-01-27 09:05:34.46	108.25	16.54	-30.7	-32.0	13.1	3.12e-05	0	43	0	211812352	22	4158
2026-01-27 09:05:35.46	108.13	16.63	-30.7	-31.9	13.1	2.89e-05	0	43	0	213909504	22	4136
2026-01-27 09:05:36.46	108.00	16.73	-30.7	-31.9	13.1	1.14e-05	0	43	0	216006656	22	4127
2026-01-27 09:05:37.47	107.87	16.82	-30.9	-32.4	12.8	5.26e-05	0	43	0	218103808	22	4304
2026-01-27 09:05:38.47	107.74	16.92	-30.6	-31.6	13.4	2.44e-05	0	43	0	219152384	22	4032
2026-01-27 09:05:39.48	107.61	17.01	-30.8	-32.3	12.9	3.43e-05	0	43	0	221249536	22	4257
2026-01-27 09:05:40.48	107.48	17.11	-30.9	-32.6	12.7	7.78e-05	0	43	0	223346688	22	4359
2026-01-27 09:05:41.48	107.34	17.20	-30.7	-32.0	13.1	3.43e-05	0	43	0	225443840	22	4174
2026-01-27 09:05:42.48	107.21	17.30	-30.9	-32.4	12.9	4.80e-05	0	43	0	227540992	22	4292
2026-01-27 09:05:43.48	107.08	17.39	-31.0	-32.8	12.6	5.79e-05	0	43	0	228589568	22	4438
2026-01-27 09:05:44.49	106.94	17.49	-31.3	-33.6	12.0	2.34e-04	0	43	0	230686720	22	4717
2026-01-27 09:05:45.49	106.81	17.59	-31.3	-33.8	11.8	3.82e-04	0	43	0	232783872	22	4776
2026-01-27 09:05:46.50	106.67	17.69	-31.1	-33.1	12.4	2.83e-04	0	43	0	234881024	22	4531
2026-01-27 09:05:47.51	106.53	17.78	-31.3	-33.7	12.0	3.68e-04	0	43	0	236978176	22	4731
2026-01-27 09:05:48.50	106.39	17.88	-31.3	-33.8	11.9	3.02e-04	0	43	0	238026752	22	4756
2026-01-27 09:05:49.50	106.25	17.98	-31.4	-34.1	11.7	3.09e-04	0	44	0	240123904	22	4885
2026-01-27 09:05:50.50	106.11	18.07	-31.7	-34.3	11.2	1.00e-03	0	43	0	242221056	23	4863
2026-01-27 09:05:51.51	105.97	18.17	-31.5	-33.8	11.5	1.07e-03	0	44	0	244318208	23	4677
2026-01-27 09:05:52.51	105.83	18.27	-31.4	-33.4	11.8	6.04e-04	0	43	0	246415360	23	4541
2026-01-27 09:05:53.51	105.69	18.37	-31.1	-32.6	12.3	2.89e-04	0	43	0	247463936	23	4280
2026-01-27 09:05:54.51	105.54	18.47	-31.0	-32.2	12.7	7.70e-05	0	44	0	249561088	23	4150
2026-01-27 09:05:55.52	105.40	18.57	-31.0	-32.2	12.7	9.84e-05	0	43	0	251658240	23	4138
2026-01-27 09:05:56.53	105.25	18.67	-31.0	-32.2	12.7	7.17e-05	0	44	0	253755392	23	4123
2026-01-27 09:05:57.53	105.11	18.77	-31.3	-33.1	12.1	9.68e-05	0	43	0	254803968	23	4418
2026-01-27 09:05:58.53	104.96	18.86	-31.4	-33.5	11.8	4.48e-04	0	43	0	256901120	23	4567
2026-01-27 09:05:59.53	104.81	18.96	-31.2	-32.9	12.3	2.82e-04	0	44	0	258998272	23	4349
2026-01-27 09:06:00.54	104.66	19.06	-30.9	-31.9	12.9	1.29e-04	0	44	0	261095424	23	4060
2026-01-27 09:06:01.55	104.51	19.17	-30.8	-31.7	13.0	4.57e-05	0	44	0	263192576	23	3997
2026-01-27 09:06:02.55	104.36	19.27	-30.9	-32.3	13.0	3.43e-05	0	43	0	265289728	22	4258
2026-01-27 09:06:03.55	104.20	19.37	-30.9	-32.6	12.8	5.72e-05	0	43	0	266338304	22	4342
2026-01-27 09:06:04.56	104.05	19.47	-31.0	-32.8	12.7	8.08e-05	0	44	0	268435456	22	4424
2026-01-27 09:06:05.56	103.89	19.57	-31.3	-33.6	12.1	1.35e-04	0	44	0	270532608	22	4693
2026-01-27 09:06:06.56	103.74	19.67	-31.2	-33.4	12.2	2.75e-04	0	43	0	272629760	22	4632
2026-01-27 09:06:07.56	103.58	19.77	-31.1	-33.1	12.4	1.02e-04	0	44	0	273678336	22	4518
2026-01-27 09:06:08.57	103.42	19.87	-31.0	-32.7	12.7	7.62e-05	0	44	0	275775488	22	4383
2026-01-27 09:06:09.58	103.26	19.97	-31.0	-32.8	12.7	5.34e-05	0	44	0	277872640	22	4419
2026-01-27 09:06:10.59	103.10	20.08	-31.1	-32.9	12.6	7.62e-05	0	43	0	279969792	22	4458
2026-01-27 09:06:11.59	102.94	20.18	-31.0	-32.8	12.7	8.31e-05	0	43	0	282066944	22	4420
2026-01-27 09:06:12.60	102.78	20.28	-31.1	-33.0	12.6	9.99e-05	0	44	0	283115520	22	4490
2026-01-27 09:06:13.60	102.61	20.38	-31.1	-33.0	12.6	1.66e-04	0	44	0	285212672	22	4458
2026-01-27 09:06:14.60	102.45	20.48	-30.8	-32.3	13.1	2.89e-05	0	43	0	287309824	22	4236
2026-01-27 09:06:15.61	102.28	20.59	-31.0	-32.7	12.7	2.67e-05	0	44	0	289406976	22	4403
2026-01-27 09:06:16.60	102.12	20.69	-31.0	-32.9	12.6	6.71e-05	0	44	0	291504128	22	4454
2026-01-27 09:06:17.61	101.95	20.79	-31.0	-32.8	12.7	8.69e-05	0	44	0	292552704	22	4427
2026-01-27 09:06:18.61	101.78	20.89	-30.9	-32.5	12.8	6.71e-05	0	44	0	294649856	22	4347
2026-01-27 09:06:19.61	101.61	21.00	-30.8	-32.3	13.0	5.49e-05	0	44	0	296747008	22	4267
2026-01-27 09:06:20.61	101.44	21.10	-30.9	-32.6	12.8	6.33e-05	0	43	0	298844160	22	4368
2026-01-27 09:06:21.62	101.26	21.20	-31.1	-33.1	12.4	1.09e-04	0	44	0	300941312	22	4545
2026-01-27 09:06:22.63	101.09	21.31	-31.2	-33.5	12.2	2.48e-04	0	44	0	301989888	22	4677
2026-01-27 09:06:23.62	100.92	21.41	-31.3	-33.8	12.0	3.44e-04	0	43	0	304087040	22	4781
2026-01-27 09:06:24.63	100.74	21.52	-31.1	-33.1	12.4	1.52e-04	0	44	0	306184192	22	4564
2026-01-27 09:06:25.63	100.56	21.62	-31.1	-33.2	12.4	1.62e-04	0	44	0	308281344	22	4590
2026-01-27 09:06:26.64	100.38	21.72	-31.1	-33.2	12.4	2.54e-04	0	44	0	310378496	22	4584
2026-01-27 09:06:27.64	100.20	21.83	-31.3	-33.8	12.0	2.50e-04	0	44	0	311427072	22	4796
2026-01-27 09:06:28.65	100.02	21.93	-31.3	-33.8	11.9	4.20e-04	0	43	0	313524224	22	4794
2026-01-27 09:06:29.65	99.84	22.04	-31.2	-33.5	12.1	3.36e-04	0	44	0	315621376	22	4695
2026-01-27 09:06:30.65	99.66	22.14	-31.2	-33.3	12.3	1.86e-04	0	44	0	317718528	22	4619
2026-01-27 09:06:31.66	99.47	22.25	-31.2	-33.4	12.3	1.71e-04	0	44	0	319815680	22	4659
2026-01-27 09:06:32.66	99.29	22.35	-31.0	-32.9	12.6	6.48e-05	0	43	0	320864256	22	4467
2026-01-27 09:06:33.66	99.10	22.46	-30.8	-32.1	13.1	4.04e-05	0	44	0	322961408	22	4222
2026-01-27 09:06:34.67	98.91	22.56	-30.7	-31.9	13.3	3.58e-05	0	43	0	325058560	22	4162
2026-01-27 09:06:35.67	98.72	22.67	-30.7	-31.9	13.3	1.90e-05	0	44	0	327155712	22	4162
2026-01-27 09:06:36.67	98.53	22.77	-30.8	-32.2	13.1	2.36e-05	0	44	0	329252864	22	4252
2026-01-27 09:06:37.68	98.34	22.88	-31.0	-33.0	12.6	5.79e-05	0	43	0	330301440	22	4498
2026-01-27 09:06:38.68	98.14	22.98	-30.8	-32.3	13.1	6.25e-05	0	44	0	332398592	22	4264
2026-01-27 09:06:39.68	97.95	23.09	-30.8	-32.1	13.2	8.30e-06	0	44	0	334495744	22	4190
2026-01-27 09:06:40.68	97.75	23.19	-30.6	-31.6	13.6	1.22e-05	0	43	0	336592896	22	4046
2026-01-27 09:06:41.69	97.55	23.30	-30.4	-31.1	13.9	7.00e-07	0	44	0	338690048	22	3905
2026-01-27 09:06:42.69	97.35	23.41	-30.7	-31.8	13.4	6.80e-06	0	44	0	339738624	22	4106
2026-01-27 09:06:43.69	97.15	23.51	-30.8	-32.1	13.3	1.14e-05	0	43	0	341835776	22	4182
2026-01-27 09:06:44.70	96.95	23.62	-30.7	-31.8	13.5	1.14e-05	0	44	0	343932928	22	4094
2026-01-27 09:06:45.70	96.75	23.72	-30.6	-31.6	13.6	6.10e-06	0	44	0	346030080	22	4031
2026-01-27 09:06:46.71	96.54	23.83	-30.6	-31.7	13.5	1.14e-05	0	44	0	347078656	22	4048
2026-01-27 09:06:47.71	96.34	23.94	-30.7	-31.9	13.4	9.10e-06	0	44	0	349175808	22	4142
2026-01-27 09:06:48.72	96.13	24.04	-30.9	-32.4	13.1	1.37e-05	0	43	0	351272960	22	4270
2026-01-27 09:06:49.72	95.92	24.15	-30.9	-32.4	13.1	2.05e-05	0	44	0	353370112	22	4283
2026-01-27 09:06:50.72	95.71	24.25	-30.8	-32.1	13.3	3.20e-05	0	43	0	355467264	22	4193
2026-01-27 09:06:51.72	95.50	24.36	-30.8	-32.1	13.3	1.98e-05	0	43	0	356515840	22	4191
2026-01-27 09:06:52.73	95.28	24.47	-30.9	-32.3	13.1	2.13e-05	0	44	0	358612992	22	4265
2026-01-27 09:06:53.72	95.07	24.57	-30.8	-32.1	13.4	1.75e-05	0	44	0	360710144	22	4174
2026-01-27 09:06:54.73	94.86	24.68	-30.9	-32.4	13.1	2.89e-05	0	44	0	362807296	22	4280
2026-01-27 09:06:55.73	94.64	24.78	-31.1	-32.9	12.7	4.65e-05	0	44	0	364904448	22	4459
2026-01-27 09:06:56.73	94.42	24.89	-30.9	-32.4	13.1	2.74e-05	0	44	0	365953024	22	4296
2026-01-27 09:06:57.73	94.20	24.99	-31.1	-32.9	12.8	2.74e-05	0	44	0	368050176	22	4437
2026-01-27 09:06:58.74	93.98	25.10	-30.8	-32.2	13.2	2.74e-05	0	44	0	370147328	22	4214
2026-01-27 09:06:59.74	93.75	25.21	-30.9	-32.4	13.1	1.75e-05	0	44	0	372244480	22	4276
2026-01-27 09:07:00.74	93.53	25.31	-30.9	-32.3	13.1	4.73e-05	0	44	0	374341632	22	4254
2026-01-27 09:07:01.74	93.30	25.42	-30.9	-32.4	13.1	3.43e-05	0	44	0	375390208	22	4283
2026-01-27 09:07:02.73	93.08	25.52	-31.1	-33.0	12.7	6.33e-05	0	44	0	377487360	22	4487
2026-01-27 09:07:03.74	92.85	25.63	-31.1	-32.9	12.8	1.05e-04	0	43	0	379584512	22	4452
2026-01-27 09:07:04.74	92.62	25.73	-31.2	-33.2	12.6	7.70e-05	0	44	0	381681664	22	4549
2026-01-27 09:07:05.75	92.38	25.84	-31.2	-33.3	12.6	1.10e-04	0	44	0	383778816	22	4554
2026-01-27 09:07:06.75	92.15	25.94	-31.2	-33.3	12.5	7.55e-05	0	44	0	384827392	22	4568
2026-01-27 09:07:07.75	91.91	26.05	-31.3	-33.6	12.3	1.06e-04	0	44	0	386924544	22	4671
2026-01-27 09:07:08.76	91.68	26.15	-31.3	-33.4	12.5	1.42e-04	0	44	0	389021696	22	4588
2026-01-27 09:07:09.76	91.44	26.26	-31.4	-33.7	12.3	2.20e-04	0	44	0	391118848	22	4694
2026-01-27 09:07:10.77	91.19	26.36	-31.1	-32.9	12.8	9.68e-05	0	44	0	392167424	22	4447
2026-01-27 09:07:11.77	90.95	26.47	-30.9	-32.4	13.2	3.89e-05	0	44	0	394264576	22	4271
2026-01-27 09:07:12.77	90.71	26.57	-30.6	-31.6	13.7	1.67e-05	0	43	0	396361728	22	4031
2026-01-27 09:07:13.77	90.47	26.67	-30.5	-31.2	13.9	8.30e-06	0	44	0	398458880	22	3918
2026-01-27 09:07:14.78	90.22	26.78	-30.6	-31.4	13.8	3.00e-06	0	44	0	400556032	22	3973
2026-01-27 09:07:15.78	89.97	26.88	-30.1	-30.8	14.4	0.00e+00	0	44	0	401604608	21	3904
2026-01-27 09:07:16.79	89.72	26.99	-29.9	-30.3	14.9	0.00e+00	0	44	0	403701760	21	3752
2026-01-27 09:07:17.79	89.47	27.09	-29.9	-30.4	14.8	7.00e-07	0	44	0	405798912	21	3782
2026-01-27 09:07:18.80	89.21	27.19	-30.0	-30.6	14.5	7.00e-07	0	44	0	407896064	21	3857
2026-01-27 09:07:19.80	88.96	27.30	-30.1	-30.9	14.4	0.00e+00	0	44	0	409993216	21	3920
2026-01-27 09:07:20.81	88.70	27.40	-30.3	-31.4	14.1	2.20e-06	0	44	0	411041792	21	4069
2026-01-27 09:07:21.81	88.44	27.50	-30.5	-32.0	13.7	3.00e-06	0	44	0	413138944	21	4253
2026-01-27 09:07:22.81	88.18	27.60	-30.7	-32.4	13.4	9.90e-06	0	44	0	415236096	21	4392
2026-01-27 09:07:23.82	87.92	27.71	-30.9	-33.0	13.1	4.11e-05	0	44	0	417333248	21	4568
2026-01-27 09:07:24.82	87.65	27.81	-31.0	-33.2	13.0	2.28e-05	0	44	0	419430400	21	4635
2026-01-27 09:07:25.81	87.39	27.91	-31.0	-32.8	12.9	3.43e-05	0	44	0	420478976	22	4419
2026-01-27 09:07:26.82	87.12	28.01	-31.1	-33.0	12.8	4.73e-05	0	44	0	422576128	22	4493
2026-01-27 09:07:27.82	86.86	28.11	-31.3	-33.5	12.4	7.85e-05	0	44	0	424673280	22	4666
2026-01-27 09:07:28.83	86.58	28.21	-31.4	-34.0	12.1	2.19e-04	0	44	0	426770432	22	4850
2026-01-27 09:07:29.83	86.31	28.31	-31.7	-34.5	11.4	7.49e-04	0	44	0	428867584	23	4931
2026-01-27 09:07:30.83	86.04	28.41	-31.8	-34.5	11.4	9.69e-04	0	44	0	429916160	23	4943
2026-01-27 09:07:31.84	85.76	28.51	-31.5	-33.6	12.0	6.88e-04	0	44	0	432013312	23	4603
2026-01-27 09:07:32.84	85.49	28.61	-31.5	-33.7	12.0	2.26e-04	0	44	0	434110464	23	4632
2026-01-27 09:07:33.84	85.21	28.70	-31.5	-33.7	12.0	2.46e-04	0	44	0	436207616	23	4628
2026-01-27 09:07:34.85	84.93	28.80	-31.4	-33.3	12.2	2.73e-04	0	44	0	438304768	23	4480
2026-01-27 09:07:35.85	84.64	28.90	-31.4	-33.3	12.2	2.08e-04	0	44	0	439353344	23	4480
2026-01-27 09:07:36.85	84.36	29.00	-31.3	-33.1	12.4	1.52e-04	0	44	0	441450496	23	4407
2026-01-27 09:07:37.86	84.07	29.09	-31.2	-32.8	12.6	1.41e-04	0	44	0	443547648	23	4319
2026-01-27 09:07:38.87	83.78	29.19	-31.4	-33.4	12.2	1.46e-04	0	44	0	445644800	23	4544
2026-01-27 09:07:39.87	83.50	29.29	-31.8	-34.7	11.2	8.06e-04	0	44	0	447741952	23	5043
2026-01-27 09:07:40.87	83.21	29.38	-31.8	-34.8	11.1	1.49e-03	0	44	0	448790528	23	5066
2026-01-27 09:07:41.88	82.91	29.48	-32.1	-35.1	10.5	2.34e-03	0	44	0	450887680	24	5136
2026-01-27 09:07:42.88	82.62	29.57	-32.1	-35.1	10.5	4.16e-03	0	44	0	452984832	24	5133
2026-01-27 09:07:43.89	82.32	29.66	-32.2	-35.6	10.2	4.81e-03	0	44	0	455081984	24	5327
2026-01-27 09:07:44.88	82.03	29.76	-32.4	-36.3	9.7	9.27e-03	0	44	0	457179136	24	5627
2026-01-27 09:07:45.89	81.72	29.85	-32.4	-35.7	9.6	1.43e-02	0	44	0	458227712	25	5276
2026-01-27 09:07:46.89	81.42	29.94	-32.6	-36.5	9.1	2.17e-02	0	44	0	460324864	25	5655
2026-01-27 09:07:47.90	81.12	30.03	-32.8	-37.2	8.7	2.49e-02	0	44	0	462422016	25	5951
2026-01-27 09:07:48.90	80.82	30.12	-32.9	-37.6	8.3	3.50e-02	0	44	0	464519168	25	6185
2026-01-27 09:07:49.90	80.51	30.21	-32.8	-37.4	8.5	4.19e-02	0	44	0	465567744	25	6076
2026-01-27 09:07:50.90	80.20	30.30	-32.9	-37.5	8.4	4.92e-02	0	44	0	467664896	25	6126
2026-01-27 09:07:51.91	79.89	30.39	-32.5	-36.1	9.4	3.67e-02	0	44	0	469762048	25	5458
2026-01-27 09:07:52.91	79.58	30.48	-32.6	-36.3	9.4	1.65e-02	0	44	0	471859200	25	5524
2026-01-27 09:07:53.92	79.26	30.57	-32.4	-35.7	9.8	9.39e-03	0	44	0	473956352	25	5249
2026-01-27 09:07:54.92	78.95	30.65	-32.1	-34.7	10.6	4.14e-03	0	44	0	475004928	25	4825
2026-01-27 09:07:55.92	78.64	30.74	-32.0	-34.1	11.1	2.62e-03	0	44	0	477102080	25	4590
2026-01-27 09:07:56.92	78.32	30.82	-32.1	-34.5	10.8	2.17e-03	0	44	0	479199232	25	4768
2026-01-27 09:07:57.93	78.00	30.91	-32.3	-35.2	10.1	4.93e-03	0	44	0	481296384	25	5046
2026-01-27 09:07:58.93	77.68	30.99	-32.2	-35.0	10.3	5.79e-03	0	44	0	483393536	25	4984
2026-01-27 09:07:59.93	77.35	31.07	-31.9	-34.1	10.9	2.50e-03	0	44	0	484442112	25	4641
2026-01-27 09:08:00.93	77.03	31.15	-31.8	-34.2	11.2	1.45e-03	0	44	0	486539264	24	4762
2026-01-27 09:08:01.94	76.70	31.24	-32.0	-35.1	10.5	2.39e-03	0	44	0	488636416	24	5120
2026-01-27 09:08:02.94	76.37	31.32	-32.0	-35.1	10.6	3.81e-03	0	44	0	490733568	24	5094
2026-01-27 09:08:03.94	76.04	31.39	-32.2	-35.4	10.3	4.62e-03	0	44	0	492830720	24	5256
2026-01-27 09:08:04.94	75.71	31.47	-32.4	-36.3	9.7	5.14e-03	0	44	0	493879296	24	5644
2026-01-27 09:08:05.95	75.38	31.55	-32.2	-35.7	10.1	5.66e-03	0	44	0	495976448	24	5385
2026-01-27 09:08:06.96	75.04	31.63	-32.1	-35.2	10.5	4.05e-03	0	44	0	498073600	24	5148
2026-01-27 09:08:07.96	74.71	31.70	-31.8	-34.4	11.0	2.56e-03	0	44	0	500170752	24	4839
2026-01-27 09:08:08.96	74.37	31.78	-31.7	-34.1	11.3	1.26e-03	0	44	0	502267904	24	4731
2026-01-27 09:08:09.97	74.03	31.85	-31.9	-34.6	11.0	1.71e-03	0	44	0	503316480	24	4890
2026-01-27 09:08:10.97	73.69	31.93	-32.0	-35.0	10.7	3.04e-03	0	44	0	505413632	24	5053
2026-01-27 09:08:11.98	73.34	32.00	-32.1	-35.2	10.6	1.87e-03	0	44	0	507510784	24	5115
2026-01-27 09:08:12.97	73.00	32.07	-31.9	-34.6	11.0	2.16e-03	0	44	0	509607936	24	4867
2026-01-27 09:08:13.98	72.66	32.14	-31.9	-34.4	11.1	2.20e-03	0	44	0	510656512	24	4815
2026-01-27 09:08:14.99	72.31	32.21	-31.8	-34.1	11.4	1.35e-03	0	44	0	512753664	24	4695
2026-01-27 09:08:15.99	71.96	32.28	-31.7	-33.8	11.6	4.65e-04	0	44	0	514850816	24	4586
2026-01-27 09:08:17.00	71.61	32.34	-32.0	-34.6	11.1	1.64e-03	0	44	0	516947968	24	4879
2026-01-27 09:08:18.00	71.26	32.41	-31.9	-34.4	11.1	1.56e-03	0	44	0	519045120	24	4809
2026-01-27 09:08:19.01	70.90	32.47	-31.9	-34.5	11.2	8.21e-04	0	44	0	521142272	24	4841
2026-01-27 09:08:20.00	70.55	32.54	-31.9	-34.3	11.3	1.23e-03	0	44	0	522190848	24	4744
2026-01-27 09:08:21.00	70.20	32.60	-32.0	-34.8	11.0	1.36e-03	0	44	0	524288000	24	4935
2026-01-27 09:08:22.01	69.84	32.66	-31.7	-33.6	11.7	9.34e-04	0	44	0	526385152	24	4517
2026-01-27 09:08:23.01	69.48	32.72	-31.5	-33.1	12.2	2.64e-04	0	44	0	528482304	24	4316
2026-01-27 09:08:24.02	69.12	32.78	-31.2	-32.9	12.7	1.43e-04	0	44	0	529530880	23	4335
2026-01-27 09:08:25.02	68.76	32.84	-31.4	-33.4	12.3	6.17e-05	0	44	0	531628032	23	4501
2026-01-27 09:08:26.03	68.40	32.90	-31.5	-33.5	12.3	9.84e-05	0	44	0	533725184	23	4567
2026-01-27 09:08:27.03	68.03	32.95	-32.2	-35.2	10.6	1.38e-03	0	44	0	535822336	24	5128
2026-01-27 09:08:28.03	67.67	33.01	-32.0	-34.5	11.2	1.77e-03	0	44	0	537919488	24	4837
2026-01-27 09:08:29.03	67.31	33.06	-31.7	-33.6	11.8	1.10e-03	0	44	0	538968064	24	4498
2026-01-27 09:08:30.04	66.94	33.11	-31.7	-33.7	11.6	6.63e-04	0	44	0	541065216	24	4556
2026-01-27 09:08:31.04	66.57	33.16	-31.5	-33.2	12.1	4.46e-04	0	44	0	543162368	24	4380
2026-01-27 09:08:32.04	66.20	33.21	-31.2	-32.9	12.7	1.47e-04	0	44	0	545259520	23	4334
2026-01-27 09:08:33.05	65.83	33.26	-31.2	-32.8	12.7	7.32e-05	0	44	0	547356672	23	4324
2026-01-27 09:08:34.06	65.46	33.31	-31.4	-33.3	12.4	7.55e-05	0	44	0	548405248	23	4474
2026-01-27 09:08:35.06	65.08	33.35	-31.1	-32.6	12.9	6.94e-05	0	44	0	550502400	23	4236
2026-01-27 09:08:36.06	64.71	33.40	-31.1	-32.5	12.9	5.18e-05	0	44	0	552599552	23	4217
2026-01-27 09:08:37.07	64.33	33.44	-31.0	-32.2	13.2	2.13e-05	0	44	0	554696704	23	4114
2026-01-27 09:08:38.07	63.96	33.48	-31.0	-32.1	13.2	2.13e-05	0	44	0	556793856	23	4091
2026-01-27 09:08:39.08	63.58	33.52	-31.1	-32.5	12.9	2.74e-05	0	44	0	557842432	23	4200
2026-01-27 09:08:40.09	63.20	33.56	-31.8	-34.5	11.6	2.30e-04	0	44	0	559939584	23	4902
2026-01-27 09:08:41.09	62.82	33.60	-32.1	-35.0	10.9	1.33e-03	0	44	0	562036736	24	4997
2026-01-27 09:08:42.09	62.45	33.63	-32.5	-36.1	10.1	4.62e-03	0	44	0	564133888	24	5462
2026-01-27 09:08:43.10	62.06	33.67	-32.0	-34.7	11.0	1.79e-03	0	44	0	566231040	24	4910
2026-01-27 09:08:44.10	61.68	33.70	-31.7	-33.5	11.9	5.06e-04	0	44	0	567279616	24	4443
2026-01-27 09:08:45.11	61.30	33.73	-31.4	-32.7	12.4	2.65e-04	0	44	0	569376768	24	4189
2026-01-27 09:08:46.12	60.92	33.76	-31.4	-33.1	12.6	1.07e-04	0	44	0	571473920	23	4414
2026-01-27 09:08:47.12	60.53	33.79	-31.6	-33.8	12.1	2.42e-04	0	44	0	573571072	23	4652
2026-01-27 09:08:48.12	60.15	33.82	-31.5	-33.7	12.1	2.67e-04	0	44	0	575668224	23	4605
2026-01-27 09:08:49.12	59.77	33.85	-31.5	-33.5	12.3	2.09e-04	0	44	0	576716800	23	4536
2026-01-27 09:08:50.12	59.39	33.87	-31.5	-33.6	12.4	1.43e-04	0	44	0	578813952	23	4549
2026-01-27 09:08:51.13	59.00	33.90	-31.2	-32.6	12.8	7.78e-05	0	44	0	580911104	23	4218
2026-01-27 09:08:52.13	58.61	33.92	-31.0	-31.9	13.3	1.44e-05	0	44	0	583008256	23	4030
2026-01-27 09:08:53.13	58.23	33.94	-30.8	-32.1	13.5	1.06e-05	0	44	0	584056832	22	4166
2026-01-27 09:08:54.14	57.84	33.96	-30.9	-32.2	13.5	9.10e-06	0	44	0	586153984	22	4191
2026-01-27 09:08:55.14	57.45	33.97	-31.1	-32.8	13.1	2.36e-05	0	43	0	588251136	22	4399
2026-01-27 09:08:56.15	57.06	33.99	-31.4	-33.6	12.5	3.05e-05	0	44	0	590348288	22	4674
2026-01-27 09:08:57.15	56.68	34.00	-31.6	-33.9	12.0	2.78e-04	0	44	0	592445440	23	4661
2026-01-27 09:08:58.16	56.28	34.02	-31.6	-33.9	11.8	3.91e-04	0	44	0	594542592	23	4671
2026-01-27 09:08:59.16	55.90	34.03	-31.8	-34.5	11.6	5.26e-04	0	44	0	595591168	23	4883
2026-01-27 09:09:00.16	55.51	34.04	-31.9	-34.9	11.3	7.55e-04	0	44	0	597688320	23	5050
2026-01-27 09:09:01.17	55.12	34.05	-32.1	-34.9	10.9	2.06e-03	0	44	0	599785472	24	4973
2026-01-27 09:09:02.16	54.73	34.05	-32.0	-34.7	11.0	2.00e-03	0	44	0	601882624	24	4890
2026-01-27 09:09:03.16	54.35	34.06	-32.0	-34.5	11.2	1.50e-03	0	44	0	602931200	24	4823
2026-01-27 09:09:04.16	53.96	34.06	-32.0	-34.7	11.0	1.25e-03	0	44	0	605028352	24	4904
2026-01-27 09:09:05.17	53.57	34.07	-32.1	-34.9	10.9	1.61e-03	0	44	0	607125504	24	4984
2026-01-27 09:09:06.17	53.18	34.07	-31.7	-33.7	11.6	1.23e-03	0	44	0	609222656	24	4543
2026-01-27 09:09:07.17	52.79	34.07	-31.4	-33.2	12.4	1.20e-04	0	44	0	611319808	23	4432
2026-01-27 09:09:08.18	52.40	34.06	-31.1	-32.5	12.9	5.95e-05	0	44	0	612368384	23	4198
2026-01-27 09:09:09.18	52.01	34.06	-31.2	-32.6	12.8	4.34e-05	0	44	0	614465536	23	4240
2026-01-27 09:09:10.18	51.62	34.06	-31.5	-33.5	12.2	6.86e-05	0	44	0	616562688	23	4562
2026-01-27 09:09:11.18	51.23	34.05	-31.6	-33.8	12.1	2.51e-04	0	44	0	618659840	23	4677
2026-01-27 09:09:12.19	50.84	34.04	-32.0	-35.1	11.0	3.94e-04	0	44	0	620756992	23	5179
2026-01-27 09:09:13.20	50.45	34.03	-31.8	-34.5	11.4	1.10e-03	0	44	0	621805568	23	4930
2026-01-27 09:09:14.20	50.06	34.02	-31.6	-33.9	12.0	3.69e-04	0	44	0	623902720	23	4706
2026-01-27 09:09:15.21	49.67	34.01	-31.1	-32.6	12.8	1.87e-04	0	44	0	625999872	23	4236
2026-01-27 09:09:16.21	49.29	33.99	-31.0	-32.3	13.1	4.27e-05	0	44	0	628097024	23	4154
2026-01-27 09:09:17.22	48.90	33.98	-31.2	-32.6	12.9	5.49e-05	0	44	0	630194176	23	4258
2026-01-27 09:09:18.22	48.51	33.96	-31.5	-33.6	12.2	1.72e-04	0	44	0	631242752	23	4591
2026-01-27 09:09:19.23	48.12	33.94	-32.1	-35.0	10.8	1.38e-03	0	44	0	633339904	24	5045
2026-01-27 09:09:20.23	47.74	33.92	-32.3	-35.8	10.2	3.02e-03	0	44	0	635437056	24	5387
2026-01-27 09:09:21.23	47.35	33.90	-32.2	-35.5	10.4	6.43e-03	0	44	0	637534208	24	5265
2026-01-27 09:09:22.23	46.97	33.88	-32.2	-35.5	10.6	3.88e-03	0	44	0	639631360	24	5276
2026-01-27 09:09:23.24	46.58	33.85	-31.8	-33.9	11.5	2.48e-03	0	44	0	640679936	24	4611
2026-01-27 09:09:24.24	46.20	33.83	-31.5	-33.2	12.0	4.71e-04	0	44	0	642777088	24	4374
2026-01-27 09:09:25.25	45.81	33.80	-31.5	-33.1	12.1	7.09e-04	0	44	0	644874240	24	4343
2026-01-27 09:09:26.25	45.43	33.77	-31.6	-33.4	11.9	3.49e-04	0	44	0	646971392	24	4444
2026-01-27 09:09:27.25	45.05	33.74	-31.6	-33.5	11.9	3.09e-04	0	44	0	649068544	24	4448
2026-01-27 09:09:28.26	44.66	33.71	-31.8	-33.9	11.5	2.69e-04	0	44	0	650117120	24	4608
2026-01-27 09:09:29.26	44.29	33.68	-31.9	-34.4	11.3	1.04e-03	0	44	0	652214272	24	4767
2026-01-27 09:09:30.27	43.90	33.64	-32.0	-34.9	10.8	1.14e-03	0	44	0	654311424	24	5010
2026-01-27 09:09:31.27	43.53	33.61	-32.0	-34.7	11.0	2.14e-03	0	44	0	656408576	24	4912
2026-01-27 09:09:32.28	43.14	33.57	-31.9	-34.3	11.2	1.69e-03	0	44	0	657457152	24	4770
2026-01-27 09:09:33.28	42.77	33.53	-32.0	-34.8	11.0	9.52e-04	0	44	0	659554304	24	4937
2026-01-27 09:09:34.28	42.39	33.49	-32.0	-34.5	11.2	1.82e-03	0	44	0	661651456	24	4822
2026-01-27 09:09:35.29	42.02	33.45	-31.7	-33.6	11.8	6.90e-04	0	44	0	663748608	24	4494
2026-01-27 09:09:36.30	41.64	33.41	-31.5	-33.1	12.1	1.75e-04	0	44	0	665845760	24	4320
2026-01-27 09:09:37.30	41.27	33.37	-31.7	-33.7	11.7	3.84e-04	0	44	0	667942912	24	4542
2026-01-27 09:09:38.31	40.89	33.32	-31.8	-34.1	11.3	5.92e-04	0	44	0	668991488	24	4702
2026-01-27 09:09:39.30	40.53	33.27	-31.9	-34.5	11.1	8.37e-04	0	44	0	671088640	24	4818
2026-01-27 09:09:40.30	40.16	33.23	-31.6	-33.3	11.9	1.03e-03	0	44	0	673185792	24	4406
2026-01-27 09:09:41.30	39.79	33.18	-31.5	-33.0	12.1	3.58e-04	0	44	0	675282944	24	4311
2026-01-27 09:09:42.30	39.42	33.13	-31.3	-32.6	12.4	2.28e-04	0	44	0	676331520	24	4162
2026-01-27 09:09:43.31	39.05	33.08	-31.2	-32.8	12.6	1.40e-04	0	44	0	678428672	23	4318
2026-01-27 09:09:44.31	38.69	33.02	-31.0	-32.3	12.9	2.13e-05	0	44	0	680525824	23	4160
2026-01-27 09:09:45.32	38.32	32.97	-31.0	-32.2	13.0	3.20e-05	0	44	0	682622976	23	4142
2026-01-27 09:09:46.32	37.96	32.92	-30.6	-31.7	13.6	1.14e-05	0	44	0	684720128	22	4054
2026-01-27 09:09:47.33	37.60	32.86	-30.7	-32.0	13.4	9.90e-06	0	44	0	685768704	22	4156
2026-01-27 09:09:48.33	37.24	32.80	-31.2	-33.1	12.7	3.12e-05	0	44	0	687865856	22	4516
2026-01-27 09:09:49.34	36.88	32.74	-31.7	-34.2	11.7	2.77e-04	0	44	0	689963008	23	4795
2026-01-27 09:09:50.34	36.52	32.68	-31.9	-34.8	11.2	7.64e-04	0	44	0	692060160	23	5042
2026-01-27 09:09:51.34	36.16	32.62	-31.8	-34.4	11.5	5.42e-04	0	44	0	694157312	23	4888
2026-01-27 09:09:52.34	35.81	32.56	-31.4	-33.4	12.2	3.23e-04	0	44	0	695205888	23	4515
2026-01-27 09:09:53.34	35.46	32.50	-31.3	-33.1	12.5	1.44e-04	0	44	0	697303040	23	4399
2026-01-27 09:09:54.34	35.11	32.43	-31.2	-32.8	12.7	1.61e-04	0	44	0	699400192	23	4297
2026-01-27 09:09:55.35	34.75	32.37	-31.2	-32.7	12.7	1.01e-04	0	44	0	701497344	23	4267
2026-01-27 09:09:56.35	34.40	32.30	-31.1	-32.6	12.8	6.25e-05	0	44	0	703594496	23	4231
2026-01-27 09:09:57.36	34.05	32.23	-31.3	-32.9	12.6	5.34e-05	0	44	0	704643072	23	4336
2026-01-27 09:09:58.36	33.71	32.16	-31.4	-33.4	12.1	1.72e-04	0	44	0	706740224	23	4533
2026-01-27 09:09:59.37	33.36	32.09	-31.7	-34.4	11.5	4.30e-04	0	44	0	708837376	23	4885
2026-01-27 09:10:00.37	33.02	32.02	-32.0	-34.8	10.8	1.72e-03	0	44	0	710934528	24	4960
2026-01-27 09:10:01.38	32.67	31.95	-32.2	-35.4	10.4	3.61e-03	0	44	0	713031680	24	5192
2026-01-27 09:10:02.39	32.33	31.88	-32.4	-36.0	9.9	7.25e-03	0	44	0	714080256	24	5489
2026-01-27 09:10:03.39	31.99	31.81	-32.4	-36.0	9.9	8.94e-03	0	44	0	716177408	24	5464
2026-01-27 09:10:04.40	31.65	31.73	-32.3	-35.8	10.1	7.74e-03	0	44	0	718274560	24	5363
2026-01-27 09:10:05.40	31.32	31.66	-32.2	-35.4	10.4	4.12e-03	0	44	0	720371712	24	5188
2026-01-27 09:10:06.40	30.99	31.58	-32.4	-35.9	10.1	3.38e-03	0	44	0	722468864	24	5387
2026-01-27 09:10:07.40	30.65	31.50	-32.5	-35.9	9.7	7.47e-03	0	44	0	723517440	25	5300
2026-01-27 09:10:08.40	30.32	31.43	-32.5	-35.8	9.7	1.19e-02	0	44	0	725614592	25	5272
2026-01-27 09:10:09.41	29.99	31.35	-32.5	-35.7	9.8	1.11e-02	0	44	0	727711744	25	5216
2026-01-27 09:10:10.41	29.67	31.27	-32.6	-36.0	9.6	1.04e-02	0	44	0	729808896	25	5352
2026-01-27 09:10:11.41	29.34	31.19	-32.6	-36.0	9.6	1.02e-02	0	44	0	731906048	25	5327
2026-01-27 09:10:12.41	29.02	31.10	-32.6	-36.2	9.4	1.50e-02	0	44	0	732954624	25	5444
2026-01-27 09:10:13.42	28.69	31.02	-32.3	-35.2	10.2	8.03e-03	0	44	0	735051776	25	5005
2026-01-27 09:10:14.43	28.37	30.94	-32.5	-35.8	9.8	7.27e-03	0	44	0	737148928	25	5257
2026-01-27 09:10:15.43	28.05	30.85	-32.4	-35.3	10.2	8.53e-03	0	44	0	739246080	25	5022
2026-01-27 09:10:16.43	27.73	30.77	-32.0	-34.0	11.1	3.04e-03	0	44	0	740294656	25	4526
2026-01-27 09:10:17.43	27.42	30.69	-31.6	-33.4	11.9	6.03e-04	0	44	0	742391808	24	4407
2026-01-27 09:10:18.43	27.10	30.60	-31.9	-34.2	11.3	5.97e-04	0	44	0	744488960	24	4692
2026-01-27 09:10:19.43	26.79	30.51	-32.1	-35.0	10.8	1.28e-03	0	44	0	746586112	24	4994
2026-01-27 09:10:20.43	26.48	30.43	-32.8	-36.8	9.0	6.46e-03	0	44	0	748683264	25	5738
2026-01-27 09:10:21.43	26.17	30.34	-33.1	-37.5	8.1	6.42e-02	0	44	0	749731840	26	5996
2026-01-27 09:10:22.43	25.87	30.25	-33.3	-38.4	7.4	8.31e-02	0	44	0	751828992	26	6486
2026-01-27 09:10:23.43	25.56	30.16	-33.2	-38.1	7.6	1.32e-01	0	44	0	753926144	26	6337
2026-01-27 09:10:24.43	25.26	30.07	-32.7	-35.9	9.3	4.62e-02	0	44	0	756023296	26	5201
2026-01-27 09:10:25.43	24.96	29.98	-31.9	-33.6	11.3	2.31e-03	0	44	0	758120448	25	4402
2026-01-27 09:10:26.43	24.66	29.89	-31.5	-33.2	11.9	4.42e-04	0	44	0	759169024	24	4346
2026-01-27 09:10:27.43	24.36	29.80	-31.2	-32.8	12.6	1.61e-04	0	44	0	761266176	23	4318
2026-01-27 09:10:28.43	24.06	29.71	-31.6	-34.0	11.8	2.91e-04	0	44	0	763363328	23	4722
2026-01-27 09:10:29.43	23.77	29.61	-32.3	-35.7	10.1	3.40e-03	0	44	0	765460480	24	5316
2026-01-27 09:10:30.43	23.48	29.52	-32.8	-37.3	8.5	1.82e-02	0	44	0	766509056	25	5997
2026-01-27 09:10:31.44	23.18	29.43	-32.9	-37.5	8.5	4.69e-02	0	44	0	768606208	25	6112
2026-01-27 09:10:32.44	22.89	29.33	-32.5	-36.1	9.4	1.68e-02	0	44	0	770703360	25	5416
2026-01-27 09:10:33.45	22.60	29.24	-32.3	-35.3	10.0	1.10e-02	0	44	0	772800512	25	5084
2026-01-27 09:10:34.44	22.32	29.14	-32.4	-35.6	9.8	7.53e-03	0	44	0	774897664	25	5178
2026-01-27 09:10:35.45	22.03	29.05	-32.3	-35.0	10.3	7.18e-03	0	44	0	776994816	25	4940
2026-01-27 09:10:36.44	21.75	28.95	-32.2	-34.9	10.3	3.56e-03	0	44	0	778043392	25	4895
2026-01-27 09:10:37.45	21.47	28.85	-32.3	-35.3	10.1	7.08e-03	0	44	0	780140544	25	5068
2026-01-27 09:10:38.45	21.19	28.76	-32.4	-35.3	10.1	6.52e-03	0	44	0	782237696	25	5074
2026-01-27 09:10:39.46	20.91	28.66	-32.5	-35.7	9.8	1.37e-02	0	44	0	784334848	25	5246
2026-01-27 09:10:40.46	20.63	28.56	-32.3	-35.3	10.1	8.22e-03	0	44	0	785383424	25	5063
2026-01-27 09:10:41.46	20.36	28.46	-32.3	-35.0	10.2	7.88e-03	0	44	0	787480576	25	4942
2026-01-27 09:10:42.45	20.09	28.36	-32.0	-34.1	10.8	3.16e-03	0	44	0	789577728	25	4585
2026-01-27 09:10:43.45	19.82	28.26	-31.6	-33.3	11.9	1.02e-03	0	44	0	791674880	24	4379
2026-01-27 09:10:44.45	19.55	28.17	-31.3	-32.4	12.5	2.12e-04	0	44	0	793772032	24	4082
2026-01-27 09:10:45.46	19.28	28.06	-31.2	-32.7	12.6	1.30e-04	0	44	0	794820608	23	4268
2026-01-27 09:10:46.46	19.01	27.96	-30.9	-31.8	13.1	4.57e-05	0	44	0	796917760	23	4006
2026-01-27 09:10:47.46	18.75	27.86	-31.0	-32.0	13.1	3.12e-05	0	44	0	799014912	23	4063
2026-01-27 09:10:48.47	18.48	27.76	-31.1	-32.3	12.8	3.58e-05	0	44	0	801112064	23	4158
2026-01-27 09:10:49.47	18.22	27.66	-31.2	-32.8	12.5	8.77e-05	0	44	0	803209216	23	4318
2026-01-27 09:10:50.47	17.96	27.56	-31.5	-33.7	11.9	3.16e-04	0	44	0	804257792	23	4614
2026-01-27 09:10:51.48	17.70	27.46	-31.6	-33.9	11.8	3.29e-04	0	44	0	806354944	23	4668
2026-01-27 09:10:52.48	17.45	27.36	-31.4	-33.3	12.1	3.87e-04	0	44	0	808452096	23	4467
2026-01-27 09:10:53.49	17.19	27.25	-31.0	-32.1	12.9	9.91e-05	0	44	0	810549248	23	4094
2026-01-27 09:10:54.50	16.94	27.15	-30.6	-31.4	13.8	1.52e-05	0	44	0	812646400	22	3951
2026-01-27 09:10:55.50	16.69	27.05	-30.4	-31.1	13.9	0.00e+00	0	44	0	813694976	22	3879
2026-01-27 09:10:56.50	16.44	26.94	-30.5	-31.3	13.9	5.30e-06	0	44	0	815792128	22	3922
2026-01-27 09:10:57.50	16.19	26.84	-30.6	-31.6	13.7	4.50e-06	0	44	0	817889280	22	4011
2026-01-27 09:10:58.51	15.94	26.74	-30.7	-31.8	13.5	9.10e-06	0	44	0	819986432	22	4087
2026-01-27 09:10:59.51	15.70	26.63	-31.0	-32.4	13.2	2.97e-05	0	44	0	822083584	22	4272
2026-01-27 09:11:00.51	15.45	26.53	-31.0	-32.5	13.1	3.12e-05	0	44	0	823132160	22	4280
2026-01-27 09:11:01.52	15.21	26.43	-30.9	-32.2	13.2	1.83e-05	0	44	0	825229312	22	4207
2026-01-27 09:11:02.52	14.97	26.32	-30.7	-31.8	13.5	1.60e-05	0	44	0	827326464	22	4095
2026-01-27 09:11:03.53	14.73	26.22	-30.6	-31.5	13.6	7.60e-06	0	44	0	829423616	22	3992
2026-01-27 09:11:04.53	14.49	26.11	-30.5	-31.3	13.8	3.80e-06	0	44	0	830472192	22	3929
2026-01-27 09:11:05.54	14.26	26.01	-30.3	-30.8	14.1	4.50e-06	0	44	0	832569344	22	3800
2026-01-27 09:11:06.54	14.02	25.90	-30.3	-31.1	14.2	1.50e-06	0	44	0	834666496	21	3971
2026-01-27 09:11:07.54	13.79	25.80	-30.2	-30.9	14.3	3.00e-06	0	44	0	836763648	21	3909
2026-01-27 09:11:08.54	13.56	25.69	-30.2	-31.1	14.1	0.00e+00	0	44	0	838860800	21	3974
2026-01-27 09:11:09.55	13.33	25.59	-30.5	-31.9	13.6	3.80e-06	0	44	0	839909376	21	4222
2026-01-27 09:11:10.56	13.10	25.48	-30.9	-32.9	12.9	2.36e-05	0	44	0	842006528	21	4532
2026-01-27 09:11:11.56	12.88	25.38	-30.7	-32.4	13.3	4.11e-05	0	44	0	844103680	21	4374
2026-01-27 09:11:12.56	12.65	25.27	-31.0	-32.7	12.9	5.26e-05	0	44	0	846200832	22	4357
2026-01-27 09:11:13.56	12.43	25.17	-31.0	-32.7	12.8	5.41e-05	0	44	0	848297984	22	4367
2026-01-27 09:11:14.56	12.21	25.06	-31.0	-32.5	12.9	4.65e-05	0	44	0	849346560	22	4307
2026-01-27 09:11:15.56	11.99	24.96	-30.8	-32.1	13.2	6.79e-05	0	44	0	851443712	22	4169
2026-01-27 09:11:16.57	11.77	24.85	-30.5	-31.3	13.7	5.30e-06	0	44	0	853540864	22	3936
2026-01-27 09:11:17.57	11.55	24.75	-30.3	-30.9	13.8	6.80e-06	0	44	0	855638016	22	3825
2026-01-27 09:11:18.57	11.34	24.64	-30.2	-31.1	14.0	1.50e-06	0	44	0	857735168	21	3989
2026-01-27 09:11:19.58	11.12	24.54	-30.3	-31.4	13.9	3.00e-06	0	44	0	858783744	21	4061
2026-01-27 09:11:20.58	10.91	24.43	-30.3	-31.3	14.0	3.80e-06	0	44	0	860880896	21	4035
2026-01-27 09:11:21.58	10.70	24.33	-30.1	-30.8	14.3	2.20e-06	0	44	0	862978048	21	3901
2026-01-27 09:11:22.59	10.49	24.22	-30.0	-30.4	14.5	0.00e+00	0	44	0	865075200	21	3796
2026-01-27 09:11:23.59	10.28	24.11	-30.1	-30.7	14.3	1.50e-06	0	44	0	867172352	21	3880
2026-01-27 09:11:24.59	10.08	24.01	-30.1	-30.7	14.4	7.00e-07	0	44	0	868220928	21	3856
2026-01-27 09:11:25.60	9.87	23.90	-29.8	-30.6	14.8	0.00e+00	0	44	0	870318080	20	3921
2026-01-27 09:11:26.60	9.67	23.80	-29.6	-30.1	15.0	0.00e+00	0	44	0	872415232	20	3789
2026-01-27 09:11:27.60	9.46	23.69	-29.8	-30.4	14.7	7.00e-07	0	44	0	874512384	20	3880
2026-01-27 09:11:28.62	9.26	23.59	-29.7	-30.3	14.7	7.00e-07	0	44	0	876609536	20	3846
2026-01-27 09:11:29.62	9.06	23.48	-29.8	-30.4	14.6	0.00e+00	0	44	0	877658112	20	3878
2026-01-27 09:11:30.62	8.86	23.38	-30.1	-31.2	14.0	0.00e+00	0	44	0	879755264	20	4107
2026-01-27 09:11:31.62	8.66	23.27	-30.2	-31.6	13.7	1.50e-06	0	44	0	881852416	20	4217
2026-01-27 09:11:32.62	8.47	23.17	-30.3	-31.9	13.4	9.90e-06	0	44	0	883949568	20	4306
2026-01-27 09:11:33.62	8.28	23.06	-30.2	-31.7	13.2	1.98e-05	0	44	0	884998144	20	4249
2026-01-27 09:11:34.62	8.08	22.96	-30.1	-31.5	12.9	2.89e-05	0	44	0	887095296	20	4203
2026-01-27 09:11:35.62	7.89	22.85	-29.8	-30.7	13.3	1.60e-05	0	44	0	889192448	20	3990
2026-01-27 09:11:36.62	7.70	22.75	-30.1	-31.2	13.2	9.90e-06	0	44	0	891289600	20	4121
2026-01-27 09:11:37.63	7.51	22.64	-30.1	-31.3	13.5	1.44e-05	0	44	0	893386752	20	4153
2026-01-27 09:11:38.64	7.32	22.54	-30.4	-32.0	13.4	9.90e-06	0	44	0	895483904	20	4354
2026-01-27 09:11:39.64	7.13	22.43	-30.4	-32.2	13.5	1.06e-05	0	44	0	896532480	20	4414
2026-01-27 09:11:40.65	6.95	22.33	-30.5	-32.0	13.4	1.37e-05	0	44	0	898629632	21	4252
2026-01-27 09:11:41.65	6.76	22.22	-30.7	-32.5	13.1	2.97e-05	0	44	0	900726784	21	4415
2026-01-27 09:11:42.66	6.58	22.12	-30.6	-32.1	13.3	2.59e-05	0	44	0	902823936	21	4278
2026-01-27 09:11:43.67	6.40	22.01	-30.6	-32.2	13.3	1.83e-05	0	44	0	903872512	21	4311
2026-01-27 09:11:44.68	6.22	21.91	-30.5	-32.0	13.3	2.05e-05	0	44	0	905969664	21	4257
2026-01-27 09:11:45.68	6.04	21.81	-30.5	-32.0	13.4	8.30e-06	0	44	0	908066816	21	4257
2026-01-27 09:11:46.68	5.86	21.70	-30.3	-31.5	13.8	3.00e-06	0	44	0	910163968	21	4090
2026-01-27 09:11:47.67	5.68	21.60	-30.7	-32.3	13.1	1.75e-05	0	44	0	912261120	21	4345
2026-01-27 09:11:48.68	5.51	21.50	-30.8	-33.0	11.2	1.72e-04	0	44	0	913309696	21	4601
2026-01-27 09:11:49.68	5.33	21.39	-30.8	-33.0	9.6	4.92e-03	0	44	0	915406848	21	4651
2026-01-27 09:11:50.69	5.16	21.29	-30.6	-32.8	8.3	1.89e-02	0	44	0	917504000	21	4631
2026-01-27 09:11:51.68	4.99	21.19	-30.5	-32.4	8.2	3.88e-02	0	44	0	919601152	21	4512
2026-01-27 09:11:52.69	4.82	21.08	-30.6	-32.6	9.1	3.62e-02	0	44	0	921698304	21	4528
2026-01-27 09:11:53.69	4.65	20.98	-30.7	-32.7	10.8	3.10e-03	0	44	0	922746880	21	4519
2026-01-27 09:11:54.70	4.48	20.88	-31.0	-33.4	11.4	9.08e-04	0	44	0	924844032	21	4746
2026-01-27 09:11:55.70	4.31	20.78	-30.9	-32.6	11.7	6.36e-04	0	44	0	926941184	22	4380
2026-01-27 09:11:56.70	4.15	20.67	-30.9	-32.6	11.9	3.04e-04	0	44	0	929038336	22	4391
2026-01-27 09:11:57.71	3.98	20.57	-30.9	-32.7	12.2	2.82e-04	0	44	0	931135488	22	4401
2026-01-27 09:11:58.71	3.82	20.47	-31.0	-32.8	12.4	1.94e-04	0	44	0	932184064	22	4442
2026-01-27 09:11:59.71	3.65	20.37	-31.0	-32.9	12.5	1.13e-04	0	44	0	934281216	22	4454
2026-01-27 09:12:00.71	3.49	20.27	-31.1	-33.1	12.0	1.94e-04	0	44	0	936378368	22	4542
2026-01-27 09:12:01.71	3.33	20.16	-30.7	-32.1	12.4	2.59e-04	0	44	0	938475520	22	4206
2026-01-27 09:12:02.72	3.17	20.06	-30.4	-31.2	12.7	1.17e-04	0	44	0	940572672	22	3934
2026-01-27 09:12:03.72	3.01	19.96	-30.2	-31.3	12.8	3.73e-05	0	44	0	941621248	21	4072
2026-01-27 09:12:04.72	2.86	19.86	-30.0	-30.6	13.0	3.43e-05	0	44	0	943718400	21	3890
2026-01-27 09:12:05.71	2.70	19.76	-30.1	-31.0	12.6	4.11e-05	0	44	0	945815552	21	4001
2026-01-27 09:12:06.72	2.54	19.66	-30.0	-30.8	12.9	4.11e-05	0	44	0	947912704	21	3941
2026-01-27 09:12:07.73	2.39	19.56	-30.3	-31.5	12.6	3.58e-05	0	44	0	950009856	21	4140
2026-01-27 09:12:08.72	2.24	19.46	-30.3	-31.5	12.9	7.55e-05	0	44	0	951058432	21	4114
2026-01-27 09:12:09.73	2.08	19.36	-30.3	-31.5	13.4	1.83e-05	0	44	0	953155584	21	4105
2026-01-27 09:12:10.73	1.93	19.26	-30.4	-31.6	13.5	9.10e-06	0	44	0	955252736	21	4153
2026-01-27 09:12:11.73	1.78	19.16	-30.4	-31.7	13.5	1.44e-05	0	44	0	957349888	21	4162
2026-01-27 09:12:12.73	1.63	19.06	-30.3	-31.3	13.4	9.90e-06	0	44	0	958398464	21	4068
2026-01-27 09:12:13.73	1.49	18.96	-30.2	-31.1	13.3	1.37e-05	0	44	0	960495616	21	4013
2026-01-27 09:12:14.73	1.34	18.86	-30.3	-31.4	13.2	2.44e-05	0	44	0	962592768	21	4099
2026-01-27 09:12:15.74	1.19	18.76	-30.1	-30.9	13.7	1.06e-05	0	44	0	964689920	21	3958
2026-01-27 09:12:16.74	1.05	18.67	-30.1	-30.8	13.9	3.00e-06	0	44	0	966787072	21	3919
2026-01-27 09:12:17.75	0.90	18.57	-30.2	-31.0	13.8	7.00e-07	0	44	0	967835648	21	3984
2026-01-27 09:12:18.75	0.76	18.47	-30.3	-31.4	13.7	7.60e-06	0	44	0	969932800	21	4086
2026-01-27 09:12:19.75	0.62	18.37	-30.2	-31.3	13.8	6.10e-06	0	44	0	972029952	21	4048
2026-01-27 09:12:20.76	0.47	18.27	-30.5	-32.0	13.3	8.30e-06	0	44	0	974127104	21	4280
2026-01-27 09:12:21.76	0.33	18.18	-30.6	-32.4	13.0	5.95e-05	0	44	0	976224256	21	4398
2026-01-27 09:12:22.76	0.19	18.08	-30.9	-33.0	12.5	4.19e-05	0	44	0	977272832	21	4592
2026-01-27 09:12:23.76	0.06	17.98	-31.1	-33.3	11.9	3.21e-04	0	44	0	979369984	22	4607
2026-01-27 09:12:24.77	359.92	17.88	-31.4	-34.1	11.4	6.58e-04	0	44	0	981467136	22	4919
2026-01-27 09:12:25.76	359.78	17.79	-31.6	-34.4	10.8	2.31e-03	0	44	0	983564288	23	4921
2026-01-27 09:12:26.76	359.65	17.69	-31.9	-35.1	10.3	4.09e-03	0	44	0	985661440	23	5223
2026-01-27 09:12:27.76	359.51	17.60	-32.1	-35.4	9.8	9.44e-03	0	44	0	986710016	24	5286
2026-01-27 09:12:28.77	359.38	17.50	-32.1	-35.5	9.6	1.22e-02	0	44	0	988807168	24	5319
2026-01-27 09:12:29.77	359.24	17.40	-32.1	-35.4	9.8	1.04e-02	0	44	0	990904320	24	5272
2026-01-27 09:12:30.78	359.11	17.31	-31.9	-34.8	10.2	6.22e-03	0	44	0	993001472	24	5033
2026-01-27 09:12:31.77	358.98	17.21	-31.7	-34.1	10.8	3.72e-03	0	44	0	994050048	24	4734
2026-01-27 09:12:32.78	358.85	17.12	-31.7	-33.9	10.9	2.80e-03	0	44	0	996147200	24	4661
2026-01-27 09:12:33.79	358.72	17.02	-31.6	-33.6	11.1	1.73e-03	0	44	0	998244352	24	4547
2026-01-27 09:12:34.79	358.59	16.93	-31.7	-34.0	10.9	1.78e-03	0	44	0	1000341504	24	4694
2026-01-27 09:12:35.79	358.46	16.83	-31.4	-33.0	11.6	1.41e-03	0	44	0	1002438656	24	4336
2026-01-27 09:12:36.80	358.33	16.74	-31.1	-32.7	12.2	4.13e-04	0	44	0	1003487232	23	4303
2026-01-27 09:12:37.80	358.20	16.64	-31.2	-32.9	12.1	3.42e-04	0	44	0	1005584384	23	4393
2026-01-27 09:12:38.79	358.08	16.55	-31.4	-33.5	11.6	3.81e-04	0	44	0	1007681536	23	4588
2026-01-27 09:12:39.80	357.95	16.46	-31.4	-33.6	11.5	7.81e-04	0	44	0	1009778688	23	4650
2026-01-27 09:12:40.80	357.83	16.36	-31.7	-34.4	10.9	1.66e-03	0	44	0	1011875840	23	4946
2026-01-27 09:12:41.80	357.71	16.27	-31.8	-35.0	10.4	3.13e-03	0	44	0	1012924416	23	5184
2026-01-27 09:12:42.81	357.58	16.18	-32.0	-35.1	10.1	5.02e-03	0	44	0	1015021568	24	5135
2026-01-27 09:12:43.81	357.46	16.08	-32.3	-36.3	9.1	1.10e-02	0	44	0	1017118720	24	5676
2026-01-27 09:12:44.82	357.34	15.99	-32.2	-35.6	9.7	1.64e-02	0	44	0	1019215872	24	5339
2026-01-27 09:12:45.82	357.22	15.90	-31.7	-34.1	10.7	5.81e-03	0	44	0	1021313024	24	4750
2026-01-27 09:12:46.82	357.10	15.80	-31.4	-33.0	11.4	1.85e-03	0	44	0	1022361600	24	4362
2026-01-27 09:12:47.82	356.98	15.71	-31.3	-33.2	11.7	5.15e-04	0	44	0	1024458752	23	4501
2026-01-27 09:12:48.82	356.86	15.62	-31.2	-32.9	11.9	3.87e-04	0	44	0	1026555904	23	4389
2026-01-27 09:12:49.83	356.75	15.53	-31.2	-32.9	12.0	4.75e-04	0	44	0	1028653056	23	4382
2026-01-27 09:12:50.83	356.63	15.44	-31.3	-33.2	11.8	4.16e-04	0	44	0	1030750208	23	4490
2026-01-27 09:12:51.84	356.51	15.35	-31.2	-32.9	11.9	4.20e-04	0	44	0	1031798784	23	4386
2026-01-27 09:12:52.84	356.40	15.26	-31.1	-32.8	12.0	4.73e-04	0	44	0	1033895936	23	4373
2026-01-27 09:12:53.84	356.28	15.17	-31.3	-33.3	11.6	4.97e-04	0	44	0	1035993088	23	4555
2026-01-27 09:12:54.84	356.17	15.07	-31.3	-33.4	11.6	7.94e-04	0	44	0	1038090240	23	4562
2026-01-27 09:12:55.85	356.06	14.98	-31.2	-33.0	11.8	5.52e-04	0	44	0	1040187392	23	4427
2026-01-27 09:12:56.85	355.94	14.89	-31.1	-32.7	12.1	3.23e-04	0	44	0	1041235968	23	4324
2026-01-27 09:12:57.85	355.83	14.80	-31.0	-32.5	12.2	1.91e-04	0	44	0	1043333120	23	4260
2026-01-27 09:12:58.86	355.72	14.71	-30.9	-32.1	12.4	1.50e-04	0	44	0	1045430272	23	4159
2026-01-27 09:12:59.86	355.61	14.63	-31.0	-32.5	12.2	1.97e-04	0	44	0	1047527424	23	4256
2026-01-27 09:13:00.86	355.50	14.54	-31.0	-32.5	12.2	2.59e-04	0	44	0	1048576000	23	4260
2026-01-27 09:13:01.87	355.39	14.45	-30.9	-32.3	12.3	1.66e-04	0	44	0	1050673152	23	4207
2026-01-27 09:13:02.87	355.28	14.36	-31.0	-32.5	12.2	2.08e-04	0	44	0	1052770304	23	4264
2026-01-27 09:13:03.88	355.18	14.27	-31.1	-32.7	12.0	2.59e-04	0	44	0	1054867456	23	4322
2026-01-27 09:13:04.88	355.07	14.18	-31.0	-32.5	12.1	2.31e-04	0	44	0	1056964608	23	4280
2026-01-27 09:13:05.89	354.96	14.09	-31.2	-33.0	11.8	3.42e-04	0	44	0	1059061760	23	4452
2026-01-27 09:13:06.89	354.86	14.00	-31.1	-32.8	11.9	5.29e-04	0	44	0	1060110336	23	4376
2026-01-27 09:13:07.89	354.75	13.92	-30.9	-32.3	12.3	2.04e-04	0	44	0	1062207488	23	4208
2026-01-27 09:13:08.90	354.65	13.83	-30.9	-32.3	12.3	1.76e-04	0	44	0	1064304640	23	4228
2026-01-27 09:13:09.90	354.54	13.74	-31.0	-32.4	12.2	2.58e-04	0	44	0	1066401792	23	4247
2026-01-27 09:13:10.90	354.44	13.66	-30.8	-31.9	12.5	2.20e-04	0	44	0	1067450368	23	4101
2026-01-27 09:13:11.90	354.34	13.57	-30.6	-31.8	12.9	5.87e-05	0	44	0	1069547520	22	4153
2026-01-27 09:13:12.91	354.24	13.48	-30.7	-32.2	12.6	5.79e-05	0	44	0	1071644672	22	4278
2026-01-27 09:13:13.91	354.13	13.40	-30.9	-32.6	12.4	9.53e-05	0	44	0	1073741824	22	4406
2026-01-27 09:13:14.91	354.03	13.31	-30.9	-32.8	12.2	2.20e-04	0	44	0	1075838976	22	4458
2026-01-27 09:13:15.91	353.93	13.22	-31.0	-32.9	12.1	2.68e-04	0	44	0	1076887552	22	4506
2026-01-27 09:13:16.91	353.84	13.14	-31.3	-33.8	11.6	4.41e-04	0	44	0	1078984704	22	4804
2026-01-27 09:13:17.92	353.74	13.05	-31.3	-34.0	11.3	8.23e-04	0	44	0	1081081856	22	4912
2026-01-27 09:13:18.91	353.64	12.97	-31.6	-34.5	10.7	1.96e-03	0	44	0	1083179008	23	4995
2026-01-27 09:13:19.91	353.54	12.88	-31.8	-35.0	10.3	4.06e-03	0	44	0	1085276160	23	5209
2026-01-27 09:13:20.91	353.44	12.80	-31.8	-35.0	10.3	4.86e-03	0	44	0	1086324736	23	5210
2026-01-27 09:13:21.92	353.35	12.71	-32.0	-35.4	9.6	1.04e-02	0	44	0	1088421888	24	5297
2026-01-27 09:13:22.92	353.25	12.63	-32.1	-35.9	9.1	1.82e-02	0	44	0	1090519040	24	5551
2026-01-27 09:13:23.92	353.16	12.55	-32.3	-36.4	8.7	2.55e-02	0	44	0	1092616192	24	5810
2026-01-27 09:13:24.93	353.06	12.46	-32.2	-36.0	9.0	3.16e-02	0	44	0	1094713344	24	5610
2026-01-27 09:13:25.93	352.97	12.38	-32.3	-36.5	8.7	3.42e-02	0	44	0	1095761920	24	5828
2026-01-27 09:13:26.93	352.87	12.29	-32.3	-36.3	8.8	3.04e-02	0	44	0	1097859072	24	5745
2026-01-27 09:13:27.94	352.78	12.21	-32.2	-36.1	8.9	3.20e-02	0	44	0	1099956224	24	5652
2026-01-27 09:13:28.93	352.69	12.13	-32.3	-36.4	8.7	2.98e-02	0	44	0	1102053376	24	5798
2026-01-27 09:13:29.93	352.60	12.05	-32.1	-35.7	9.3	2.16e-02	0	44	0	1104150528	24	5471
2026-01-27 09:13:30.93	352.51	11.96	-31.9	-34.9	9.9	1.21e-02	0	44	0	1105199104	24	5095
2026-01-27 09:13:31.94	352.41	11.88	-31.8	-34.6	10.1	7.32e-03	0	44	0	1107296256	24	4970
2026-01-27 09:13:32.94	352.32	11.80	-31.6	-34.1	10.5	5.43e-03	0	44	0	1109393408	24	4784
2026-01-27 09:13:33.95	352.23	11.72	-31.8	-34.5	10.2	4.93e-03	0	44	0	1111490560	24	4943
2026-01-27 09:13:34.95	352.14	11.63	-31.6	-34.0	10.5	3.79e-03	0	44	0	1112539136	24	4755
2026-01-27 09:13:35.95	352.06	11.55	-31.6	-33.9	10.6	4.07e-03	0	44	0	1114636288	24	4722
2026-01-27 09:13:36.95	351.97	11.47	-31.8	-34.7	10.0	5.56e-03	0	44	0	1116733440	24	5021
2026-01-27 09:13:37.95	351.88	11.39	-31.6	-33.9	10.5	6.26e-03	0	44	0	1118830592	24	4723
2026-01-27 09:13:38.95	351.79	11.31	-31.3	-33.1	11.1	2.15e-03	0	44	0	1120927744	24	4432
2026-01-27 09:13:39.96	351.71	11.23	-31.2	-33.3	11.4	1.05e-03	0	44	0	1121976320	23	4556
2026-01-27 09:13:40.97	351.62	11.15	-31.3	-33.6	11.1	9.53e-04	0	44	0	1124073472	23	4689
2026-01-27 09:13:41.96	351.53	11.07	-31.1	-32.9	11.6	8.08e-04	0	44	0	1126170624	23	4420
2026-01-27 09:13:42.97	351.45	10.99	-31.0	-32.5	11.9	4.17e-04	0	44	0	1128267776	23	4308
2026-01-27 09:13:43.97	351.36	10.91	-31.0	-32.7	11.7	5.23e-04	0	44	0	1130364928	23	4381
2026-01-27 09:13:44.98	351.28	10.82	-30.9	-32.3	12.1	3.43e-04	0	44	0	1131413504	23	4222
2026-01-27 09:13:45.98	351.20	10.75	-31.0	-32.6	11.9	3.76e-04	0	44	0	1133510656	23	4316
2026-01-27 09:13:46.99	351.11	10.67	-31.0	-32.5	11.9	4.09e-04	0	44	0	1135607808	23	4311
2026-01-27 09:13:47.98	351.03	10.59	-30.9	-32.5	11.9	3.94e-04	0	44	0	1137704960	23	4295
2026-01-27 09:13:48.99	350.95	10.51	-30.8	-32.6	12.1	2.21e-04	0	44	0	1139802112	22	4410
2026-01-27 09:13:49.99	350.86	10.43	-31.0	-33.3	11.7	4.09e-04	0	44	0	1140850688	22	4648
2026-01-27 09:13:50.99	350.78	10.35	-30.9	-32.9	12.0	4.68e-04	0	44	0	1142947840	22	4519
2026-01-27 09:13:52.00	350.70	10.27	-31.1	-33.4	11.6	5.36e-04	0	44	0	1145044992	22	4705
2026-01-27 09:13:53.00	350.62	10.19	-31.1	-33.4	11.6	7.70e-04	0	44	0	1147142144	22	4713
2026-01-27 09:13:54.00	350.54	10.11	-31.2	-33.7	11.3	8.28e-04	0	44	0	1149239296	22	4829
2026-01-27 09:13:55.01	350.46	10.04	-31.2	-33.9	11.2	1.04e-03	0	44	0	1150287872	22	4888
2026-01-27 09:13:56.00	350.38	9.96	-31.3	-34.0	11.1	1.43e-03	0	44	0	1152385024	22	4916
2026-01-27 09:13:57.02	350.30	9.88	-31.3	-34.0	11.2	1.78e-03	0	44	0	1154482176	22	4935
2026-01-27 09:13:58.02	350.22	9.80	-31.4	-34.5	10.8	1.79e-03	0	44	0	1156579328	22	5122
2026-01-27 09:13:59.02	350.15	9.73	-31.4	-34.5	10.7	2.55e-03	0	44	0	1157627904	22	5140
2026-01-27 09:14:00.02	350.07	9.65	-31.4	-34.4	10.8	2.67e-03	0	44	0	1159725056	22	5110
2026-01-27 09:14:01.03	349.99	9.57	-31.6	-34.5	10.3	3.27e-03	0	44	0	1161822208	23	5065
2026-01-27 09:14:02.03	349.91	9.50	-31.7	-35.1	9.9	8.32e-03	0	44	0	1163919360	23	5307
2026-01-27 09:14:03.03	349.84	9.42	-31.5	-34.4	10.4	6.07e-03	0	44	0	1166016512	23	5010
2026-01-27 09:14:04.03	349.76	9.34	-31.4	-34.1	10.6	4.63e-03	0	44	0	1168113664	23	4905
2026-01-27 09:14:05.03	349.69	9.27	-31.4	-34.0	10.7	3.36e-03	0	44	0	1169162240	23	4844
2026-01-27 09:14:06.04	349.61	9.19	-31.3	-33.8	10.8	2.61e-03	0	44	0	1171259392	23	4768
2026-01-27 09:14:07.04	349.54	9.12	-31.3	-33.6	11.0	2.29e-03	0	44	0	1173356544	23	4684
2026-01-27 09:14:08.04	349.46	9.04	-31.3	-33.7	10.8	2.66e-03	0	44	0	1175453696	23	4756
2026-01-27 09:14:09.04	349.39	8.96	-31.4	-34.1	10.6	3.07e-03	0	44	0	1176502272	23	4890
2026-01-27 09:14:10.05	349.32	8.89	-31.4	-34.0	10.6	2.65e-03	0	44	0	1178599424	23	4872
2026-01-27 09:14:11.05	349.24	8.81	-31.5	-34.5	10.3	4.33e-03	0	44	0	1180696576	23	5054
2026-01-27 09:14:12.06	349.17	8.74	-31.6	-34.6	10.2	5.37e-03	0	44	0	1182793728	23	5110
2026-01-27 09:14:13.06	349.10	8.66	-31.7	-35.0	9.9	7.63e-03	0	44	0	1184890880	23	5282
2026-01-27 09:14:14.07	349.03	8.59	-31.7	-34.9	9.9	8.60e-03	0	44	0	1185939456	23	5246
2026-01-27 09:14:15.07	348.95	8.52	-31.8	-35.4	9.5	9.85e-03	0	44	0	1188036608	23	5467
2026-01-27 09:14:16.07	348.88	8.44	-31.8	-35.6	9.3	1.81e-02	0	44	0	1190133760	23	5570
2026-01-27 09:14:17.08	348.81	8.37	-31.9	-35.9	9.2	1.81e-02	0	44	0	1192230912	23	5685
2026-01-27 09:14:18.08	348.74	8.29	-31.9	-35.9	9.1	2.15e-02	0	44	0	1194328064	23	5688
2026-01-27 09:14:19.08	348.67	8.22	-32.0	-35.9	8.7	3.27e-02	0	44	0	1195376640	24	5647
2026-01-27 09:14:20.09	348.60	8.15	-32.1	-36.2	8.5	4.01e-02	0	44	0	1197473792	24	5761
2026-01-27 09:14:21.09	348.53	8.07	-32.2	-36.5	8.2	4.67e-02	0	44	0	1199570944	24	5955
2026-01-27 09:14:22.10	348.46	8.00	-32.2	-36.6	8.1	5.02e-02	0	44	0	1201668096	24	5986
2026-01-27 09:14:23.10	348.40	7.93	-32.0	-36.0	8.6	4.48e-02	0	44	0	1203765248	24	5670
2026-01-27 09:14:24.10	348.33	7.85	-32.0	-36.0	8.5	3.62e-02	0	44	0	1204813824	24	5709
2026-01-27 09:14:25.11	348.26	7.78	-32.0	-36.0	8.5	3.86e-02	0	44	0	1206910976	24	5711
2026-01-27 09:14:26.11	348.19	7.71	-32.1	-36.2	8.4	4.46e-02	0	44	0	1209008128	24	5800
2026-01-27 09:14:27.11	348.13	7.64	-32.0	-36.2	8.4	4.70e-02	0	44	0	1211105280	24	5779
2026-01-27 09:14:28.12	348.06	7.56	-31.9	-35.7	8.7	3.51e-02	0	44	0	1213202432	24	5558
2026-01-27 09:14:29.12	347.99	7.49	-31.7	-34.8	9.4	2.69e-02	0	44	0	1214251008	24	5148
2026-01-27 09:14:30.12	347.93	7.42	-31.6	-34.3	9.8	1.16e-02	0	44	0	1216348160	24	4939
2026-01-27 09:14:31.12	347.86	7.35	-31.4	-33.7	10.2	7.23e-03	0	44	0	1218445312	24	4712
2026-01-27 09:14:32.13	347.80	7.28	-31.5	-34.0	10.0	8.31e-03	0	44	0	1220542464	24	4802
2026-01-27 09:14:33.14	347.73	7.21	-31.4	-33.7	10.3	5.37e-03	0	44	0	1222639616	24	4691
2026-01-27 09:14:34.14	347.67	7.13	-31.4	-33.9	10.1	6.38e-03	0	44	0	1223688192	24	4776
2026-01-27 09:14:35.14	347.60	7.06	-31.1	-33.3	10.8	6.52e-03	0	44	0	1225785344	23	4623
2026-01-27 09:14:36.14	347.54	6.99	-33.7	-44.8	3.8	1.49e+00	0	44	104	1226833920	27	13069
2026-01-27 09:14:37.15	347.47	6.92	-34.0	-46.0	3.8	1.49e+00	0	44	104	1226833920	28	14399

#Closed at: 2026-01-27 09:14:37
#Recorded file [1226 MB]: D:/data/31010_260127_120340.dat