passes_logs/2026/01/27/R2M6_AANII_01/R2M6_AANII_01__20260127_114012_FENGYUN_3D_rec.log

#Pass ID: 20260127_114012_FENGYUN 3D
#Satellite: FENGYUN 3D
#Configuration: FENGYUN 3D
#almurnet v.1.7.20240730
#Start time: 2026-01-27 11:40:14

#Version: 2.2.20231116
#Station: R2M6_AANII_01
#Location: 30.233357 lon 59.946436 lat
#TLE: 1 43010U 17072A   26026.91415486  .00000072  00000+0  55983-4 0  9991
#TLE: 2 43010  98.9962 358.9161 0002508  89.0320 271.1142 14.19700283424949

#Time	Az	El	Level	Level2	SNR	BER	BlckErr	Temp	State	Recorded	gain1	gain2
2026-01-27 11:40:14.56	137.87	7.15	-30.2	-33.6	5.2	7.95e-01	0	44	0	0	21	5331
2026-01-27 11:40:15.56	137.83	7.23	-30.1	-33.4	5.2	7.93e-01	0	44	104	0	21	5258
2026-01-27 11:40:16.56	137.80	7.30	-30.2	-33.8	8.7	3.03e-02	0	44	0	0	21	5399
2026-01-27 11:40:17.57	137.76	7.38	-30.3	-33.9	8.6	4.60e-02	0	44	0	5242880	21	5462
2026-01-27 11:40:18.58	137.73	7.46	-30.0	-33.1	9.1	1.75e-02	0	44	0	11534336	21	5155
2026-01-27 11:40:19.58	137.69	7.54	-29.7	-32.8	9.7	1.28e-02	0	44	0	16777216	20	5155
2026-01-27 11:40:20.58	137.66	7.61	-29.6	-32.7	9.7	7.82e-03	0	44	0	22020096	20	5139
2026-01-27 11:40:21.58	137.62	7.69	-29.3	-32.4	10.4	2.87e-03	0	44	0	28311552	19	5139
2026-01-27 11:40:22.58	137.59	7.77	-29.3	-32.4	10.4	5.03e-03	0	44	0	33554432	19	5120
2026-01-27 11:40:23.58	137.55	7.85	-29.4	-32.4	10.3	4.15e-03	0	44	0	38797312	19	5139
2026-01-27 11:40:24.58	137.52	7.93	-28.8	-30.9	11.4	1.15e-03	0	44	0	45088768	19	4570
2026-01-27 11:40:25.58	137.48	8.00	-28.7	-31.1	11.6	6.34e-04	0	44	0	50331648	18	4746
2026-01-27 11:40:26.59	137.45	8.08	-28.3	-30.2	12.2	1.68e-04	0	44	0	55574528	18	4448
2026-01-27 11:40:27.60	137.41	8.16	-28.2	-30.2	12.6	1.09e-04	0	44	0	61865984	17	4536
2026-01-27 11:40:28.60	137.37	8.24	-27.8	-29.4	13.1	2.28e-05	0	44	0	67108864	17	4285
2026-01-27 11:40:29.61	137.34	8.32	-27.8	-29.3	13.2	2.40e-05	0	44	0	73400320	17	4271
2026-01-27 11:40:30.61	137.30	8.40	-27.9	-29.9	13.1	8.00e-06	0	44	0	78643200	16	4534
2026-01-27 11:40:31.62	137.26	8.48	-27.8	-29.6	13.3	1.94e-05	0	44	0	84934656	16	4460
2026-01-27 11:40:32.62	137.22	8.56	-27.9	-29.9	13.2	1.37e-05	0	44	0	90177536	16	4546
2026-01-27 11:40:33.63	137.19	8.65	-27.8	-29.7	13.3	1.14e-05	0	44	0	95420416	16	4480
2026-01-27 11:40:34.63	137.15	8.73	-27.8	-29.6	13.3	1.02e-05	0	44	0	101711872	16	4452
2026-01-27 11:40:35.63	137.11	8.81	-27.7	-29.5	13.4	4.50e-06	0	44	0	106954752	16	4425
2026-01-27 11:40:36.64	137.07	8.89	-27.7	-29.5	13.4	4.50e-06	0	44	0	112197632	16	4414
2026-01-27 11:40:37.63	137.03	8.97	-27.8	-29.8	13.3	6.80e-06	0	44	0	118489088	16	4510
2026-01-27 11:40:38.64	137.00	9.05	-27.7	-29.4	13.5	1.25e-05	0	44	0	123731968	16	4375
2026-01-27 11:40:39.64	136.96	9.14	-27.6	-29.3	13.6	1.10e-06	0	44	0	128974848	16	4343
2026-01-27 11:40:40.64	136.92	9.22	-27.5	-29.1	13.7	1.10e-06	0	44	0	135266304	16	4285
2026-01-27 11:40:41.64	136.88	9.30	-27.6	-29.2	13.7	4.50e-06	0	44	0	140509184	16	4328
2026-01-27 11:40:42.65	136.84	9.38	-27.6	-29.2	13.7	5.70e-06	0	44	0	146800640	16	4311
2026-01-27 11:40:43.65	136.80	9.47	-27.6	-29.0	13.8	2.20e-06	0	44	0	152043520	16	4274
2026-01-27 11:40:44.66	136.76	9.55	-27.6	-29.1	13.8	4.50e-06	0	44	0	158334976	16	4280
2026-01-27 11:40:45.67	136.72	9.64	-27.6	-29.2	13.8	3.40e-06	0	44	0	163577856	16	4310
2026-01-27 11:40:46.67	136.68	9.72	-27.4	-28.7	14.1	1.10e-06	0	44	0	168820736	16	4160
2026-01-27 11:40:47.68	136.64	9.81	-27.4	-28.6	14.1	1.10e-06	0	44	0	175112192	16	4135
2026-01-27 11:40:48.68	136.59	9.89	-27.6	-29.2	13.8	0.00e+00	0	44	0	180355072	16	4310
2026-01-27 11:40:49.68	136.55	9.98	-27.4	-28.6	14.1	2.20e-06	0	44	0	185597952	16	4144
2026-01-27 11:40:50.68	136.51	10.06	-27.4	-28.6	14.2	1.10e-06	0	44	0	191889408	16	4144
2026-01-27 11:40:51.68	136.47	10.15	-27.4	-28.6	14.2	0.00e+00	0	44	0	197132288	16	4134
2026-01-27 11:40:52.68	136.43	10.23	-27.4	-28.7	14.1	1.10e-06	0	44	0	202375168	16	4152
2026-01-27 11:40:53.68	136.38	10.32	-27.3	-28.4	14.2	0.00e+00	0	44	0	208666624	16	4093
2026-01-27 11:40:54.69	136.34	10.40	-27.0	-28.1	14.5	1.10e-06	0	44	0	213909504	15	4117
2026-01-27 11:40:55.69	136.30	10.49	-26.9	-28.1	14.6	0.00e+00	0	44	0	220200960	15	4113
2026-01-27 11:40:56.69	136.26	10.58	-27.0	-28.2	14.5	0.00e+00	0	44	0	225443840	15	4149
2026-01-27 11:40:57.70	136.21	10.67	-27.0	-28.3	14.5	0.00e+00	0	44	0	230686720	15	4166
2026-01-27 11:40:58.70	136.17	10.75	-26.8	-27.9	14.7	0.00e+00	0	44	0	236978176	15	4066
2026-01-27 11:40:59.70	136.12	10.84	-26.9	-27.9	14.7	0.00e+00	0	44	0	242221056	15	4076
2026-01-27 11:41:00.70	136.08	10.93	-26.8	-28.2	14.8	0.00e+00	0	44	0	247463936	14	4255
2026-01-27 11:41:01.70	136.04	11.02	-26.8	-28.3	14.8	1.10e-06	0	44	0	253755392	14	4296
2026-01-27 11:41:02.70	135.99	11.11	-26.8	-28.4	14.7	0.00e+00	0	44	0	258998272	14	4324
2026-01-27 11:41:03.71	135.94	11.19	-26.8	-28.4	14.7	0.00e+00	0	44	0	265289728	14	4316
2026-01-27 11:41:04.71	135.90	11.28	-26.7	-28.0	14.9	0.00e+00	0	44	0	270532608	14	4214
2026-01-27 11:41:05.72	135.85	11.37	-26.7	-28.1	14.9	0.00e+00	0	44	0	275775488	14	4220
2026-01-27 11:41:06.73	135.81	11.47	-26.7	-28.2	14.9	0.00e+00	0	44	0	282066944	14	4244
2026-01-27 11:41:07.73	135.76	11.56	-26.7	-28.0	15.0	0.00e+00	0	44	0	287309824	14	4220
2026-01-27 11:41:08.74	135.71	11.65	-26.7	-28.1	14.9	0.00e+00	0	44	0	293601280	14	4231
2026-01-27 11:41:09.74	135.67	11.74	-26.8	-28.4	14.7	0.00e+00	0	44	0	298844160	14	4325
2026-01-27 11:41:10.75	135.62	11.83	-27.0	-28.7	14.6	0.00e+00	0	44	0	304087040	14	4380
2026-01-27 11:41:11.76	135.57	11.92	-26.9	-28.5	14.7	0.00e+00	0	44	0	310378496	14	4327
2026-01-27 11:41:12.76	135.52	12.01	-26.9	-28.4	14.8	0.00e+00	0	44	0	315621376	14	4311
2026-01-27 11:41:13.76	135.47	12.11	-26.9	-28.6	14.7	0.00e+00	0	44	0	321912832	14	4358
2026-01-27 11:41:14.76	135.43	12.20	-26.9	-28.5	14.8	0.00e+00	0	44	0	327155712	14	4328
2026-01-27 11:41:15.77	135.38	12.29	-26.9	-28.6	14.7	0.00e+00	0	44	0	332398592	14	4365
2026-01-27 11:41:16.77	135.33	12.38	-26.8	-28.2	14.9	0.00e+00	0	44	0	338690048	14	4259
2026-01-27 11:41:17.77	135.28	12.48	-27.1	-29.0	14.5	0.00e+00	0	44	0	343932928	14	4473
2026-01-27 11:41:18.77	135.23	12.57	-26.8	-28.2	14.9	1.10e-06	0	44	0	349175808	14	4248
2026-01-27 11:41:19.78	135.18	12.67	-26.7	-28.0	15.1	1.10e-06	0	44	0	355467264	14	4177
2026-01-27 11:41:20.78	135.13	12.76	-26.5	-27.5	15.3	0.00e+00	0	44	0	360710144	14	4064
2026-01-27 11:41:21.79	135.08	12.86	-26.4	-27.5	15.4	0.00e+00	0	44	0	367001600	14	4049
2026-01-27 11:41:22.80	135.02	12.95	-26.4	-27.4	15.4	0.00e+00	0	44	0	372244480	14	4038
2026-01-27 11:41:23.80	134.97	13.05	-26.4	-27.4	15.4	0.00e+00	0	44	0	377487360	14	4034
2026-01-27 11:41:24.80	134.92	13.14	-26.5	-27.6	15.3	0.00e+00	0	44	0	383778816	14	4070
2026-01-27 11:41:25.81	134.87	13.24	-26.5	-27.5	15.3	0.00e+00	0	44	0	389021696	14	4059
2026-01-27 11:41:26.81	134.81	13.34	-26.4	-27.5	15.4	0.00e+00	0	44	0	395313152	14	4047
2026-01-27 11:41:27.81	134.76	13.43	-26.4	-27.4	15.4	0.00e+00	0	44	0	400556032	14	4031
2026-01-27 11:41:28.81	134.71	13.53	-26.6	-27.7	15.2	0.00e+00	0	44	0	405798912	14	4113
2026-01-27 11:41:29.81	134.65	13.63	-26.5	-27.5	15.4	0.00e+00	0	44	0	412090368	14	4062
2026-01-27 11:41:30.82	134.60	13.73	-26.6	-27.8	15.2	0.00e+00	0	44	0	417333248	14	4119
2026-01-27 11:41:31.81	134.55	13.82	-26.5	-27.6	15.3	0.00e+00	0	44	0	422576128	14	4074
2026-01-27 11:41:32.82	134.49	13.92	-26.4	-27.4	15.4	0.00e+00	0	44	0	428867584	14	4029
2026-01-27 11:41:33.82	134.44	14.02	-26.5	-27.5	15.3	0.00e+00	0	44	0	434110464	14	4058
2026-01-27 11:41:34.82	134.38	14.12	-26.4	-27.4	15.4	0.00e+00	0	44	0	440401920	14	4033
2026-01-27 11:41:35.83	134.32	14.22	-26.4	-27.4	15.5	1.10e-06	0	44	0	445644800	14	4023
2026-01-27 11:41:36.84	134.27	14.33	-26.3	-27.3	15.5	0.00e+00	0	44	0	450887680	14	4013
2026-01-27 11:41:37.84	134.21	14.43	-26.2	-27.5	15.6	0.00e+00	0	44	0	457179136	13	4184
2026-01-27 11:41:38.85	134.15	14.53	-26.3	-27.7	15.5	1.10e-06	0	44	0	462422016	13	4228
2026-01-27 11:41:39.85	134.09	14.63	-26.2	-27.4	15.7	0.00e+00	0	44	0	467664896	13	4153
2026-01-27 11:41:40.86	134.03	14.73	-26.1	-27.2	15.8	0.00e+00	0	44	0	473956352	13	4096
2026-01-27 11:41:41.86	133.98	14.83	-26.1	-27.2	15.8	0.00e+00	0	44	0	479199232	13	4093
2026-01-27 11:41:42.86	133.92	14.94	-26.1	-27.2	15.9	0.00e+00	0	44	0	485490688	13	4091
2026-01-27 11:41:43.86	133.86	15.04	-26.1	-27.2	15.8	0.00e+00	0	44	0	490733568	13	4099
2026-01-27 11:41:44.87	133.80	15.14	-26.3	-27.7	15.6	0.00e+00	0	44	0	495976448	13	4214
2026-01-27 11:41:45.87	133.74	15.25	-26.1	-27.2	15.9	0.00e+00	0	44	0	502267904	13	4089
2026-01-27 11:41:46.87	133.68	15.35	-25.9	-26.8	16.2	0.00e+00	0	44	0	507510784	13	3965
2026-01-27 11:41:47.88	133.62	15.46	-25.9	-26.7	16.2	0.00e+00	0	44	0	513802240	13	3936
2026-01-27 11:41:48.88	133.55	15.56	-25.9	-26.6	16.3	0.00e+00	0	44	0	519045120	13	3921
2026-01-27 11:41:49.88	133.49	15.67	-25.9	-26.7	16.2	0.00e+00	0	44	0	524288000	13	3943
2026-01-27 11:41:50.89	133.43	15.78	-25.9	-26.6	16.3	0.00e+00	0	44	0	530579456	13	3910
2026-01-27 11:41:51.89	133.37	15.88	-25.8	-27.0	16.4	0.00e+00	0	44	0	535822336	12	4110
2026-01-27 11:41:52.89	133.30	15.99	-25.8	-27.0	16.4	0.00e+00	0	44	0	541065216	12	4119
2026-01-27 11:41:53.90	133.24	16.10	-25.8	-27.0	16.4	0.00e+00	0	44	0	547356672	12	4121
2026-01-27 11:41:54.90	133.17	16.20	-25.8	-26.9	16.4	0.00e+00	0	44	0	552599552	12	4108
2026-01-27 11:41:55.90	133.11	16.31	-26.0	-27.5	16.1	0.00e+00	0	44	0	557842432	12	4256
2026-01-27 11:41:56.90	133.04	16.42	-25.8	-27.0	16.3	0.00e+00	0	44	0	564133888	12	4133
2026-01-27 11:41:57.90	132.98	16.53	-25.7	-26.8	16.5	0.00e+00	0	44	0	569376768	12	4071
2026-01-27 11:41:58.90	132.91	16.64	-25.7	-26.9	16.4	0.00e+00	0	44	0	575668224	12	4099
2026-01-27 11:41:59.91	132.84	16.75	-25.7	-26.7	16.5	1.10e-06	0	44	0	580911104	12	4050
2026-01-27 11:42:00.91	132.78	16.86	-25.7	-26.8	16.5	0.00e+00	0	44	0	587202560	12	4088
2026-01-27 11:42:01.91	132.71	16.97	-25.8	-27.0	16.4	0.00e+00	0	44	0	592445440	12	4139
2026-01-27 11:42:02.91	132.64	17.08	-25.6	-26.6	16.6	0.00e+00	0	44	0	597688320	12	4033
2026-01-27 11:42:03.92	132.57	17.19	-25.5	-26.2	16.8	0.00e+00	0	44	0	603979776	12	3935
2026-01-27 11:42:04.92	132.50	17.31	-25.5	-26.2	16.9	0.00e+00	0	44	0	609222656	12	3926
2026-01-27 11:42:05.93	132.43	17.42	-25.4	-26.0	17.0	0.00e+00	0	44	0	614465536	12	3882
2026-01-27 11:42:06.93	132.36	17.53	-25.4	-26.1	16.9	0.00e+00	0	44	0	620756992	12	3902
2026-01-27 11:42:07.93	132.29	17.65	-25.6	-26.5	16.7	0.00e+00	0	44	0	625999872	12	3987
2026-01-27 11:42:08.93	132.22	17.76	-25.3	-25.9	17.1	0.00e+00	0	44	0	631242752	12	3842
2026-01-27 11:42:09.94	132.14	17.88	-25.3	-26.3	17.2	0.00e+00	0	44	0	637534208	11	4040
2026-01-27 11:42:10.94	132.07	17.99	-25.3	-26.4	17.1	0.00e+00	0	44	0	642777088	11	4084
2026-01-27 11:42:11.95	132.00	18.11	-25.1	-25.9	17.4	0.00e+00	0	44	0	649068544	11	3957
2026-01-27 11:42:12.95	131.92	18.23	-25.1	-26.0	17.4	0.00e+00	0	44	0	654311424	11	3965
2026-01-27 11:42:13.95	131.85	18.34	-25.2	-26.1	17.3	0.00e+00	0	44	0	659554304	11	4007
2026-01-27 11:42:14.94	131.77	18.46	-25.1	-25.9	17.4	0.00e+00	0	44	0	665845760	11	3964
2026-01-27 11:42:15.95	131.70	18.58	-25.0	-25.6	17.6	0.00e+00	0	44	0	671088640	11	3889
2026-01-27 11:42:16.95	131.62	18.69	-25.0	-25.7	17.5	0.00e+00	0	44	0	677380096	11	3895
2026-01-27 11:42:17.96	131.54	18.81	-24.9	-25.5	17.6	0.00e+00	0	44	0	682622976	11	3859
2026-01-27 11:42:18.96	131.47	18.93	-24.9	-25.5	17.7	0.00e+00	0	44	0	687865856	11	3853
2026-01-27 11:42:19.96	131.39	19.05	-25.0	-25.7	17.5	0.00e+00	0	44	0	694157312	11	3907
2026-01-27 11:42:20.96	131.31	19.17	-24.9	-25.5	17.7	0.00e+00	0	44	0	699400192	11	3864
2026-01-27 11:42:21.96	131.23	19.29	-25.0	-25.6	17.6	0.00e+00	0	44	0	704643072	11	3892
2026-01-27 11:42:22.97	131.15	19.42	-25.0	-25.7	17.6	0.00e+00	0	44	0	710934528	11	3903
2026-01-27 11:42:23.96	131.07	19.54	-25.0	-25.7	17.6	0.00e+00	0	44	0	716177408	11	3906
2026-01-27 11:42:24.97	130.99	19.66	-25.0	-25.8	17.5	0.00e+00	0	44	0	722468864	11	3923
2026-01-27 11:42:25.98	130.90	19.78	-25.2	-26.1	17.4	0.00e+00	0	44	0	727711744	11	4009
2026-01-27 11:42:26.98	130.82	19.91	-24.9	-25.6	17.6	0.00e+00	0	44	0	732954624	11	3887
2026-01-27 11:42:27.99	130.74	20.03	-24.9	-25.5	17.7	0.00e+00	0	44	0	739246080	11	3848
2026-01-27 11:42:29.00	130.65	20.16	-24.9	-25.4	17.8	0.00e+00	0	44	0	744488960	11	3839
2026-01-27 11:42:30.00	130.57	20.28	-24.9	-25.6	17.7	0.00e+00	0	44	0	750780416	11	3871
2026-01-27 11:42:31.00	130.48	20.41	-24.7	-25.6	18.0	0.00e+00	0	44	0	756023296	10	3972
2026-01-27 11:42:32.01	130.39	20.54	-24.6	-25.3	18.1	0.00e+00	0	44	0	761266176	10	3897
2026-01-27 11:42:33.01	130.31	20.66	-24.6	-25.3	18.1	0.00e+00	0	44	0	767557632	10	3907
2026-01-27 11:42:34.01	130.22	20.79	-24.7	-25.6	17.9	0.00e+00	0	44	0	772800512	10	3986
2026-01-27 11:42:35.01	130.13	20.92	-24.6	-25.3	18.1	0.00e+00	0	44	0	778043392	10	3901
2026-01-27 11:42:36.01	130.04	21.05	-24.5	-25.2	18.2	0.00e+00	0	44	0	784334848	10	3873
2026-01-27 11:42:37.00	129.95	21.17	-24.6	-25.3	18.1	0.00e+00	0	44	0	789577728	10	3920
2026-01-27 11:42:38.00	129.86	21.30	-24.6	-25.3	18.1	0.00e+00	0	44	0	795869184	10	3910
2026-01-27 11:42:39.00	129.77	21.43	-24.8	-25.8	17.9	0.00e+00	0	44	0	801112064	10	4037
2026-01-27 11:42:40.00	129.67	21.56	-24.7	-25.6	18.0	0.00e+00	0	44	0	806354944	10	3983
2026-01-27 11:42:41.01	129.58	21.70	-24.6	-25.4	18.1	0.00e+00	0	44	0	812646400	10	3933
2026-01-27 11:42:42.01	129.49	21.83	-24.7	-25.5	18.0	0.00e+00	0	44	0	817889280	10	3957
2026-01-27 11:42:43.02	129.39	21.96	-24.7	-25.5	18.0	0.00e+00	0	44	0	823132160	10	3966
2026-01-27 11:42:44.02	129.29	22.10	-24.6	-25.5	18.1	0.00e+00	0	44	0	829423616	10	3953
2026-01-27 11:42:45.02	129.20	22.23	-24.8	-25.7	17.9	0.00e+00	0	44	0	834666496	10	4007
2026-01-27 11:42:46.02	129.10	22.36	-24.6	-25.4	18.1	0.00e+00	0	44	0	840957952	10	3934
2026-01-27 11:42:47.03	129.00	22.50	-24.6	-25.3	18.1	0.00e+00	0	44	0	846200832	10	3921
2026-01-27 11:42:48.03	128.90	22.64	-24.7	-25.5	18.1	0.00e+00	0	44	0	851443712	10	3961
2026-01-27 11:42:49.03	128.80	22.77	-24.4	-24.9	18.4	0.00e+00	0	44	0	857735168	10	3826
2026-01-27 11:42:50.03	128.70	22.91	-24.2	-25.0	18.6	0.00e+00	0	44	0	862978048	9	3953
2026-01-27 11:42:51.03	128.60	23.05	-24.3	-25.1	18.5	0.00e+00	0	44	0	868220928	9	3978
2026-01-27 11:42:52.03	128.49	23.18	-24.4	-25.4	18.4	0.00e+00	0	44	0	874512384	9	4043
2026-01-27 11:42:53.04	128.39	23.33	-24.5	-25.6	18.3	0.00e+00	0	44	0	879755264	9	4077
2026-01-27 11:42:54.03	128.29	23.46	-24.3	-25.1	18.5	0.00e+00	0	44	0	884998144	9	3981
2026-01-27 11:42:55.03	128.18	23.60	-24.2	-24.9	18.7	0.00e+00	0	44	0	891289600	9	3917
2026-01-27 11:42:56.04	128.07	23.75	-24.2	-25.0	18.6	0.00e+00	0	44	0	896532480	9	3939
2026-01-27 11:42:57.04	127.96	23.89	-24.1	-24.8	18.7	0.00e+00	0	44	0	902823936	9	3883
2026-01-27 11:42:58.04	127.86	24.03	-24.2	-24.9	18.7	0.00e+00	0	44	0	908066816	9	3929
2026-01-27 11:42:59.05	127.74	24.17	-24.2	-24.9	18.7	0.00e+00	0	44	0	913309696	9	3921
2026-01-27 11:43:00.05	127.63	24.32	-24.4	-25.5	18.4	0.00e+00	0	44	0	919601152	9	4068
2026-01-27 11:43:01.06	127.52	24.46	-24.3	-25.1	18.6	0.00e+00	0	44	0	924844032	9	3965
2026-01-27 11:43:02.06	127.41	24.61	-24.1	-24.8	18.7	0.00e+00	0	44	0	931135488	9	3895
2026-01-27 11:43:03.07	127.29	24.75	-24.1	-24.7	18.8	0.00e+00	0	44	0	936378368	9	3877
2026-01-27 11:43:04.07	127.18	24.90	-24.1	-24.7	18.8	0.00e+00	0	44	0	941621248	9	3887
2026-01-27 11:43:05.07	127.06	25.05	-23.9	-24.4	19.0	0.00e+00	0	44	0	947912704	9	3803
2026-01-27 11:43:06.08	126.94	25.20	-24.1	-24.8	18.8	0.00e+00	0	44	0	953155584	9	3889
2026-01-27 11:43:07.08	126.82	25.34	-23.9	-24.4	19.0	0.00e+00	0	44	0	958398464	9	3795
2026-01-27 11:43:08.09	126.70	25.49	-23.9	-24.5	18.9	0.00e+00	0	44	0	964689920	9	3817
2026-01-27 11:43:09.09	126.58	25.64	-24.0	-24.6	18.9	0.00e+00	0	44	0	969932800	9	3859
2026-01-27 11:43:10.09	126.46	25.79	-23.8	-24.2	19.1	0.00e+00	0	44	0	976224256	9	3764
2026-01-27 11:43:11.10	126.34	25.95	-23.8	-24.2	19.1	0.00e+00	0	44	0	981467136	9	3764
2026-01-27 11:43:12.10	126.21	26.10	-23.8	-24.7	19.1	0.00e+00	0	44	0	987758592	8	3968
2026-01-27 11:43:13.10	126.09	26.25	-23.9	-24.8	19.0	0.00e+00	0	44	0	993001472	8	4011
2026-01-27 11:43:14.10	125.96	26.40	-23.8	-24.6	19.1	0.00e+00	0	44	0	998244352	8	3964
2026-01-27 11:43:15.11	125.83	26.56	-23.9	-24.9	19.0	0.00e+00	0	44	0	1004535808	8	4036
2026-01-27 11:43:16.12	125.70	26.72	-24.0	-25.0	18.9	0.00e+00	0	44	0	1009778688	8	4057
2026-01-27 11:43:17.12	125.57	26.87	-23.8	-24.7	19.1	0.00e+00	0	44	0	1015021568	8	3981
2026-01-27 11:43:18.13	125.44	27.03	-23.8	-24.7	19.1	0.00e+00	0	44	0	1021313024	8	3991
2026-01-27 11:43:19.14	125.30	27.19	-24.0	-25.0	18.9	0.00e+00	0	44	0	1026555904	8	4064
2026-01-27 11:43:20.13	125.17	27.34	-24.1	-25.3	18.8	0.00e+00	0	44	0	1031798784	8	4137
2026-01-27 11:43:21.13	125.03	27.50	-24.0	-25.1	18.9	0.00e+00	0	44	0	1038090240	8	4068
2026-01-27 11:43:22.12	124.90	27.66	-23.9	-24.9	19.0	0.00e+00	0	44	0	1043333120	8	4028
2026-01-27 11:43:23.12	124.76	27.82	-23.9	-24.8	19.1	0.00e+00	0	44	0	1049624576	8	4016
2026-01-27 11:43:24.13	124.62	27.98	-24.0	-25.0	19.0	0.00e+00	0	44	0	1054867456	8	4053
2026-01-27 11:43:25.13	124.47	28.14	-23.8	-24.6	19.1	0.00e+00	0	44	0	1060110336	8	3965
2026-01-27 11:43:26.14	124.33	28.30	-23.9	-24.9	19.0	0.00e+00	0	44	0	1066401792	8	4022
2026-01-27 11:43:27.14	124.18	28.47	-23.7	-24.5	19.2	0.00e+00	0	44	0	1071644672	8	3930
2026-01-27 11:43:28.14	124.04	28.63	-23.8	-24.6	19.2	0.00e+00	0	44	0	1076887552	8	3948
2026-01-27 11:43:29.14	123.89	28.79	-23.9	-24.9	19.1	0.00e+00	0	44	0	1083179008	8	4021
2026-01-27 11:43:30.15	123.74	28.96	-23.9	-24.9	19.0	0.00e+00	0	44	0	1088421888	8	4029
2026-01-27 11:43:31.16	123.59	29.13	-24.0	-25.0	19.0	0.00e+00	0	44	0	1094713344	8	4055
2026-01-27 11:43:32.17	123.43	29.30	-23.9	-24.9	19.0	0.00e+00	0	44	0	1099956224	8	4025
2026-01-27 11:43:33.17	123.28	29.46	-23.9	-24.8	19.1	0.00e+00	0	44	0	1105199104	8	4003
2026-01-27 11:43:34.18	123.12	29.63	-24.0	-25.0	19.0	0.00e+00	0	44	0	1111490560	8	4045
2026-01-27 11:43:35.18	122.97	29.80	-23.9	-24.8	19.1	0.00e+00	0	44	0	1116733440	8	4009
2026-01-27 11:43:36.18	122.81	29.97	-24.0	-25.0	19.0	0.00e+00	0	44	0	1123024896	8	4046
2026-01-27 11:43:37.18	122.65	30.14	-23.9	-24.9	19.1	0.00e+00	0	44	0	1128267776	8	4036
2026-01-27 11:43:38.18	122.48	30.31	-24.0	-25.0	19.0	0.00e+00	0	44	0	1133510656	8	4054
2026-01-27 11:43:39.19	122.32	30.49	-23.9	-24.9	19.1	0.00e+00	0	44	0	1139802112	8	4029
2026-01-27 11:43:40.19	122.15	30.66	-24.0	-25.0	19.0	2.20e-06	0	44	0	1145044992	8	4058
2026-01-27 11:43:41.19	121.98	30.83	-23.9	-24.8	19.1	0.00e+00	0	44	0	1150287872	8	4003
2026-01-27 11:43:42.19	121.81	31.00	-23.9	-24.8	19.1	0.00e+00	0	44	0	1156579328	8	4002
2026-01-27 11:43:43.19	121.64	31.18	-23.8	-24.6	19.3	4.50e-06	0	44	0	1161822208	8	3947
2026-01-27 11:43:44.20	121.47	31.36	-23.8	-24.6	19.3	0.00e+00	0	44	0	1168113664	8	3945
2026-01-27 11:43:45.21	121.29	31.53	-23.8	-24.6	19.2	0.00e+00	0	44	0	1173356544	8	3966
2026-01-27 11:43:46.22	121.11	31.71	-23.6	-24.3	19.4	1.10e-06	0	44	0	1178599424	8	3882
2026-01-27 11:43:47.22	120.93	31.89	-23.6	-24.2	19.4	0.00e+00	0	44	0	1184890880	8	3860
2026-01-27 11:43:48.23	120.75	32.07	-23.6	-24.2	19.5	0.00e+00	0	44	0	1190133760	8	3855
2026-01-27 11:43:49.22	120.57	32.25	-23.7	-24.5	19.3	0.00e+00	0	44	0	1196425216	8	3929
2026-01-27 11:43:50.23	120.38	32.43	-23.9	-24.9	19.1	0.00e+00	0	44	0	1201668096	8	4015
2026-01-27 11:43:51.23	120.19	32.61	-23.7	-24.5	19.3	0.00e+00	0	44	0	1206910976	8	3928
2026-01-27 11:43:52.24	120.00	32.79	-23.8	-24.7	19.3	2.20e-06	0	44	0	1213202432	8	3963
2026-01-27 11:43:53.25	119.81	32.98	-23.5	-24.0	19.6	0.00e+00	0	44	0	1218445312	8	3817
2026-01-27 11:43:54.25	119.61	33.16	-23.4	-23.7	19.7	0.00e+00	0	44	0	1224736768	8	3753
2026-01-27 11:43:55.26	119.41	33.35	-23.4	-23.9	19.7	0.00e+00	0	44	0	1229979648	8	3780
2026-01-27 11:43:56.26	119.22	33.53	-23.5	-23.9	19.6	0.00e+00	0	44	0	1235222528	8	3803
2026-01-27 11:43:57.26	119.02	33.72	-23.3	-23.6	19.8	0.00e+00	0	44	0	1241513984	8	3730
2026-01-27 11:43:58.26	118.81	33.90	-23.2	-23.9	19.9	0.00e+00	0	44	0	1246756864	7	3890
2026-01-27 11:43:59.27	118.60	34.09	-23.2	-24.0	19.8	0.00e+00	0	44	0	1251999744	7	3908
2026-01-27 11:44:00.27	118.40	34.28	-23.2	-24.0	19.8	0.00e+00	0	44	0	1258291200	7	3910
2026-01-27 11:44:01.28	118.18	34.47	-23.4	-24.2	19.7	0.00e+00	0	44	0	1263534080	7	3969
2026-01-27 11:44:02.28	117.97	34.66	-23.4	-24.2	19.7	0.00e+00	0	44	0	1269825536	7	3967
2026-01-27 11:44:03.28	117.76	34.85	-23.4	-24.3	19.7	0.00e+00	0	44	0	1275068416	7	3979
2026-01-27 11:44:04.29	117.54	35.04	-23.3	-24.2	19.7	0.00e+00	0	44	0	1280311296	7	3960
2026-01-27 11:44:05.30	117.31	35.23	-23.3	-24.2	19.7	0.00e+00	0	44	0	1286602752	7	3960
2026-01-27 11:44:06.30	117.09	35.42	-23.4	-24.4	19.6	0.00e+00	0	44	0	1291845632	7	4014
2026-01-27 11:44:07.30	116.86	35.61	-23.5	-24.5	19.6	0.00e+00	0	44	0	1298137088	7	4033
2026-01-27 11:44:08.31	116.63	35.81	-23.6	-24.8	19.4	0.00e+00	0	44	0	1303379968	7	4113
2026-01-27 11:44:09.31	116.40	36.00	-23.6	-24.6	19.5	0.00e+00	0	44	0	1308622848	7	4079
2026-01-27 11:44:10.32	116.17	36.20	-23.6	-24.6	19.5	0.00e+00	0	44	0	1314914304	7	4069
2026-01-27 11:44:11.32	115.93	36.39	-23.5	-24.6	19.5	0.00e+00	0	44	0	1320157184	7	4060
2026-01-27 11:44:12.33	115.69	36.59	-23.5	-24.4	19.7	0.00e+00	0	44	0	1325400064	7	4021
2026-01-27 11:44:13.32	115.45	36.78	-23.3	-24.0	19.9	0.00e+00	0	44	0	1331691520	7	3916
2026-01-27 11:44:14.32	115.20	36.98	-23.4	-24.2	19.8	0.00e+00	0	44	0	1336934400	7	3967
2026-01-27 11:44:15.32	114.95	37.17	-23.4	-24.3	19.7	0.00e+00	0	44	0	1343225856	7	3994
2026-01-27 11:44:16.33	114.70	37.37	-23.5	-24.5	19.6	0.00e+00	0	44	0	1348468736	7	4035
2026-01-27 11:44:17.33	114.44	37.57	-23.5	-24.6	19.6	0.00e+00	0	44	0	1353711616	7	4050
2026-01-27 11:44:18.34	114.18	37.77	-23.4	-24.2	19.8	0.00e+00	0	44	0	1360003072	7	3965
2026-01-27 11:44:19.34	113.92	37.97	-23.4	-24.3	19.8	0.00e+00	0	44	0	1365245952	7	3981
2026-01-27 11:44:20.34	113.66	38.17	-23.5	-24.5	19.7	0.00e+00	0	44	0	1370488832	7	4031
2026-01-27 11:44:21.34	113.39	38.37	-23.3	-24.1	19.9	0.00e+00	0	44	0	1376780288	7	3935
2026-01-27 11:44:22.34	113.12	38.57	-23.2	-23.9	19.9	0.00e+00	0	44	0	1382023168	7	3889
2026-01-27 11:44:23.35	112.84	38.77	-23.2	-23.8	20.0	0.00e+00	0	44	0	1387266048	7	3876
2026-01-27 11:44:24.35	112.56	38.97	-23.2	-23.8	20.0	0.00e+00	0	44	0	1393557504	7	3869
2026-01-27 11:44:25.35	112.28	39.17	-23.3	-24.1	19.9	0.00e+00	0	44	0	1398800384	7	3931
2026-01-27 11:44:26.35	112.00	39.38	-23.4	-24.3	19.8	0.00e+00	0	44	0	1405091840	7	3982
2026-01-27 11:44:27.36	111.70	39.58	-23.4	-24.3	19.8	0.00e+00	0	44	0	1410334720	7	3990
2026-01-27 11:44:28.35	111.41	39.78	-23.6	-24.7	19.6	0.00e+00	0	44	0	1416626176	7	4077
2026-01-27 11:44:29.36	111.12	39.99	-23.4	-24.3	19.8	0.00e+00	0	44	0	1421869056	7	3976
2026-01-27 11:44:30.37	110.81	40.19	-23.3	-24.1	19.9	0.00e+00	0	44	0	1427111936	7	3947
2026-01-27 11:44:31.37	110.51	40.39	-23.4	-24.3	19.8	0.00e+00	0	44	0	1433403392	7	3972
2026-01-27 11:44:32.37	110.20	40.60	-23.5	-24.5	19.7	0.00e+00	0	44	0	1438646272	7	4041
2026-01-27 11:44:33.37	109.89	40.80	-23.5	-24.6	19.7	0.00e+00	0	44	0	1443889152	7	4050
2026-01-27 11:44:34.38	109.57	41.01	-23.6	-24.6	19.6	0.00e+00	0	44	0	1450180608	7	4067
2026-01-27 11:44:35.38	109.25	41.21	-23.5	-24.5	19.7	0.00e+00	0	44	0	1455423488	7	4020
2026-01-27 11:44:36.38	108.93	41.42	-23.5	-24.5	19.7	0.00e+00	0	44	0	1460666368	7	4039
2026-01-27 11:44:37.38	108.60	41.62	-23.6	-24.6	19.7	0.00e+00	0	44	0	1466957824	7	4047
2026-01-27 11:44:38.38	108.27	41.82	-23.4	-24.2	19.9	0.00e+00	0	44	0	1472200704	7	3953
2026-01-27 11:44:39.38	107.93	42.03	-23.3	-24.0	20.0	0.00e+00	0	44	0	1478492160	7	3910
2026-01-27 11:44:40.39	107.59	42.24	-23.4	-24.3	19.9	0.00e+00	0	44	0	1483735040	7	3973
2026-01-27 11:44:41.40	107.24	42.44	-23.7	-24.8	19.6	0.00e+00	0	44	0	1490026496	7	4104
2026-01-27 11:44:42.40	106.89	42.65	-23.7	-24.8	19.6	0.00e+00	0	44	0	1495269376	7	4115
2026-01-27 11:44:43.41	106.54	42.85	-23.4	-24.3	19.9	0.00e+00	0	44	0	1500512256	7	3990
2026-01-27 11:44:44.41	106.18	43.06	-23.2	-23.9	20.1	0.00e+00	0	44	0	1506803712	7	3891
2026-01-27 11:44:45.41	105.81	43.26	-23.3	-24.0	20.0	0.00e+00	0	44	0	1512046592	7	3911
2026-01-27 11:44:46.41	105.45	43.46	-23.4	-24.2	19.9	0.00e+00	0	44	0	1517289472	7	3962
2026-01-27 11:44:47.42	105.07	43.67	-23.5	-24.4	19.8	0.00e+00	0	44	0	1523580928	7	4018
2026-01-27 11:44:48.42	104.69	43.87	-23.6	-24.6	19.7	0.00e+00	0	44	0	1528823808	7	4067
2026-01-27 11:44:49.42	104.31	44.08	-23.3	-24.1	20.0	0.00e+00	0	44	0	1534066688	7	3926
2026-01-27 11:44:50.41	103.93	44.28	-23.3	-24.1	20.0	0.00e+00	0	44	0	1540358144	7	3932
2026-01-27 11:44:51.42	103.53	44.48	-23.6	-24.6	19.7	0.00e+00	0	44	0	1545601024	7	4068
2026-01-27 11:44:52.42	103.14	44.68	-23.8	-25.1	19.5	0.00e+00	0	44	0	1551892480	7	4197
2026-01-27 11:44:53.42	102.73	44.88	-23.8	-25.1	19.5	0.00e+00	0	44	0	1557135360	7	4179
2026-01-27 11:44:54.41	102.33	45.08	-23.9	-25.3	19.4	0.00e+00	0	44	0	1562378240	7	4221
2026-01-27 11:44:55.42	101.91	45.28	-24.3	-25.6	19.1	0.00e+00	0	44	0	1568669696	8	4173
2026-01-27 11:44:56.43	101.49	45.48	-24.4	-25.4	18.9	0.00e+00	0	44	0	1573912576	9	4028
2026-01-27 11:44:57.43	101.07	45.68	-24.2	-25.0	19.1	0.00e+00	0	44	0	1579155456	9	3918
2026-01-27 11:44:58.43	100.64	45.88	-24.1	-24.7	19.3	0.00e+00	0	44	0	1585446912	9	3858
2026-01-27 11:44:59.44	100.20	46.08	-23.9	-24.3	19.4	0.00e+00	0	44	0	1590689792	9	3773
2026-01-27 11:45:00.43	99.77	46.27	-23.8	-24.1	19.5	0.00e+00	0	44	0	1595932672	9	3726
2026-01-27 11:45:01.44	99.32	46.47	-23.9	-24.3	19.4	0.00e+00	0	44	0	1602224128	9	3771
2026-01-27 11:45:02.44	98.87	46.66	-24.0	-24.5	19.3	0.00e+00	0	44	0	1607467008	9	3822
2026-01-27 11:45:03.44	98.41	46.85	-24.2	-24.9	19.2	0.00e+00	0	44	0	1613758464	9	3901
2026-01-27 11:45:04.44	97.95	47.05	-23.9	-24.2	19.5	0.00e+00	0	44	0	1619001344	9	3749
2026-01-27 11:45:05.44	97.49	47.24	-23.6	-24.1	19.8	0.00e+00	0	44	0	1624244224	8	3820
2026-01-27 11:45:06.44	97.01	47.42	-23.7	-24.3	19.7	0.00e+00	0	44	0	1630535680	8	3879
2026-01-27 11:45:07.45	96.53	47.61	-24.0	-24.9	19.4	0.00e+00	0	44	0	1635778560	8	4019
2026-01-27 11:45:08.45	96.04	47.80	-24.0	-25.1	19.3	0.00e+00	0	44	0	1642070016	8	4071
2026-01-27 11:45:09.45	95.55	47.99	-24.1	-25.1	19.3	0.00e+00	0	44	0	1647312896	8	4079
2026-01-27 11:45:10.46	95.05	48.17	-23.9	-24.8	19.5	0.00e+00	0	44	0	1652555776	8	3993
2026-01-27 11:45:11.47	94.55	48.35	-24.0	-25.0	19.4	0.00e+00	0	44	0	1658847232	8	4027
2026-01-27 11:45:12.47	94.04	48.53	-24.1	-25.2	19.3	0.00e+00	0	44	0	1664090112	8	4092
2026-01-27 11:45:13.47	93.52	48.71	-24.4	-25.9	18.9	0.00e+00	0	44	0	1669332992	8	4274
2026-01-27 11:45:14.47	93.00	48.89	-24.8	-26.2	18.5	0.00e+00	0	44	0	1675624448	9	4241
2026-01-27 11:45:15.48	92.47	49.07	-24.7	-26.1	18.6	0.00e+00	0	44	0	1680867328	9	4191
2026-01-27 11:45:16.48	91.94	49.24	-24.5	-25.5	18.9	0.00e+00	0	44	0	1687158784	9	4042
2026-01-27 11:45:17.49	91.40	49.41	-24.5	-25.5	18.9	0.00e+00	0	44	0	1692401664	9	4041
2026-01-27 11:45:18.49	90.85	49.58	-24.6	-25.8	18.8	0.00e+00	0	44	0	1697644544	9	4116
2026-01-27 11:45:19.49	90.30	49.74	-24.8	-26.3	18.5	0.00e+00	0	44	0	1703936000	9	4244
2026-01-27 11:45:20.49	89.75	49.91	-24.7	-26.0	18.6	0.00e+00	0	44	0	1709178880	9	4177
2026-01-27 11:45:21.49	89.18	50.07	-24.3	-25.0	19.2	0.00e+00	0	44	0	1714421760	9	3930
2026-01-27 11:45:22.49	88.61	50.23	-24.2	-24.9	19.3	0.00e+00	0	44	0	1720713216	9	3891
2026-01-27 11:45:23.49	88.04	50.39	-24.4	-25.4	19.0	0.00e+00	0	44	0	1725956096	9	4013
2026-01-27 11:45:24.49	87.46	50.54	-24.7	-26.1	18.6	0.00e+00	0	44	0	1732247552	9	4198
2026-01-27 11:45:25.50	86.87	50.69	-24.8	-26.2	18.6	0.00e+00	0	44	0	1737490432	9	4216
2026-01-27 11:45:26.51	86.27	50.84	-24.6	-25.7	18.8	0.00e+00	0	44	0	1743781888	9	4085
2026-01-27 11:45:27.52	85.67	50.99	-24.7	-25.9	18.7	0.00e+00	0	44	0	1749024768	9	4155
2026-01-27 11:45:28.52	85.06	51.13	-24.9	-26.3	18.5	0.00e+00	0	44	0	1754267648	9	4252
2026-01-27 11:45:29.53	84.45	51.28	-24.7	-26.1	18.6	0.00e+00	0	44	0	1760559104	9	4190
2026-01-27 11:45:30.54	83.83	51.41	-24.5	-25.5	18.9	0.00e+00	0	44	0	1765801984	9	4054
2026-01-27 11:45:31.54	83.20	51.55	-24.3	-25.1	19.1	0.00e+00	0	44	0	1771044864	9	3962
2026-01-27 11:45:32.55	82.57	51.68	-24.4	-25.2	19.1	0.00e+00	0	44	0	1777336320	9	3982
2026-01-27 11:45:33.55	81.94	51.81	-24.2	-24.9	19.3	0.00e+00	0	44	0	1782579200	9	3893
2026-01-27 11:45:34.55	81.30	51.93	-24.2	-24.8	19.3	0.00e+00	0	44	0	1788870656	9	3880
2026-01-27 11:45:35.56	80.65	52.05	-24.2	-25.0	19.2	0.00e+00	0	44	0	1794113536	9	3928
2026-01-27 11:45:36.56	80.01	52.17	-24.2	-24.9	19.2	0.00e+00	0	44	0	1799356416	9	3909
2026-01-27 11:45:37.56	79.35	52.28	-24.4	-25.2	19.1	0.00e+00	0	44	0	1805647872	9	3962
2026-01-27 11:45:38.56	78.69	52.39	-24.5	-25.5	18.9	0.00e+00	0	44	0	1810890752	9	4041
2026-01-27 11:45:39.57	78.02	52.50	-24.8	-26.3	18.6	0.00e+00	0	44	0	1817182208	9	4236
2026-01-27 11:45:40.57	77.36	52.60	-24.8	-25.6	18.7	0.00e+00	0	44	0	1822425088	10	3967
2026-01-27 11:45:41.57	76.69	52.70	-24.2	-24.8	19.3	0.00e+00	0	44	0	1827667968	9	3886
2026-01-27 11:45:42.57	76.01	52.80	-24.0	-24.4	19.5	0.00e+00	0	44	0	1833959424	9	3780
2026-01-27 11:45:43.57	75.33	52.89	-24.0	-24.5	19.5	0.00e+00	0	44	0	1839202304	9	3817
2026-01-27 11:45:44.57	74.64	52.97	-24.0	-24.6	19.4	0.00e+00	0	44	0	1844445184	9	3825
2026-01-27 11:45:45.58	73.95	53.06	-23.9	-24.4	19.5	0.00e+00	0	44	0	1850736640	9	3773
2026-01-27 11:45:46.59	73.25	53.14	-24.2	-24.9	19.3	0.00e+00	0	44	0	1855979520	9	3894
2026-01-27 11:45:47.59	72.55	53.21	-24.5	-25.5	19.0	0.00e+00	0	44	0	1861222400	9	4043
2026-01-27 11:45:48.60	71.84	53.28	-24.4	-25.3	19.1	0.00e+00	0	44	0	1867513856	9	3987
2026-01-27 11:45:49.60	71.14	53.35	-24.4	-25.2	19.1	0.00e+00	0	44	0	1872756736	9	3981
2026-01-27 11:45:50.60	70.43	53.41	-24.4	-25.2	19.1	0.00e+00	0	44	0	1879048192	9	3983
2026-01-27 11:45:51.61	69.72	53.47	-24.3	-25.1	19.2	0.00e+00	0	44	0	1884291072	9	3937
2026-01-27 11:45:52.61	69.01	53.52	-24.5	-25.5	19.0	0.00e+00	0	44	0	1890582528	9	4057
2026-01-27 11:45:53.61	68.29	53.57	-24.4	-25.3	19.1	0.00e+00	0	44	0	1895825408	9	3990
2026-01-27 11:45:54.61	67.58	53.61	-24.1	-24.7	19.5	0.00e+00	0	44	0	1901068288	9	3837
2026-01-27 11:45:55.61	66.86	53.65	-24.3	-25.1	19.3	0.00e+00	0	44	0	1907359744	9	3944
2026-01-27 11:45:56.61	66.14	53.68	-24.6	-25.7	19.0	1.10e-06	0	44	0	1912602624	9	4097
2026-01-27 11:45:57.62	65.41	53.71	-24.5	-25.5	19.1	0.00e+00	0	44	0	1917845504	9	4031
2026-01-27 11:45:58.62	64.68	53.74	-24.2	-24.9	19.4	0.00e+00	0	44	0	1924136960	9	3884
2026-01-27 11:45:59.62	63.96	53.76	-24.5	-25.5	19.1	0.00e+00	0	44	0	1929379840	9	4022
2026-01-27 11:46:00.63	63.23	53.77	-24.5	-25.5	19.1	0.00e+00	0	44	0	1934622720	9	4034
2026-01-27 11:46:01.63	62.50	53.79	-24.4	-25.3	19.2	0.00e+00	0	44	0	1940914176	9	3985
2026-01-27 11:46:02.63	61.78	53.79	-24.7	-25.9	18.9	0.00e+00	0	44	0	1946157056	9	4130
2026-01-27 11:46:03.63	61.05	53.79	-24.6	-25.7	19.0	0.00e+00	0	44	0	1952448512	9	4080
2026-01-27 11:46:04.63	60.32	53.79	-24.3	-25.1	19.3	0.00e+00	0	44	0	1957691392	9	3927
2026-01-27 11:46:05.64	59.59	53.78	-24.3	-25.1	19.3	0.00e+00	0	44	0	1962934272	9	3931
2026-01-27 11:46:06.64	58.86	53.77	-24.3	-25.0	19.4	0.00e+00	0	44	0	1969225728	9	3907
2026-01-27 11:46:07.65	58.13	53.75	-24.2	-24.9	19.5	0.00e+00	0	44	0	1974468608	9	3875
2026-01-27 11:46:08.65	57.41	53.73	-24.4	-25.4	19.2	0.00e+00	0	44	0	1979711488	9	3999
2026-01-27 11:46:09.65	56.68	53.71	-24.6	-25.7	19.1	0.00e+00	0	44	0	1986002944	9	4073
2026-01-27 11:46:10.66	55.96	53.67	-24.6	-25.7	19.0	0.00e+00	0	44	0	1991245824	9	4091
2026-01-27 11:46:11.66	55.24	53.64	-24.4	-25.2	19.3	0.00e+00	0	44	0	1997537280	9	3946
2026-01-27 11:46:12.66	54.52	53.60	-24.1	-24.6	19.6	0.00e+00	0	44	0	2002780160	9	3825
2026-01-27 11:46:13.66	53.80	53.55	-24.2	-24.9	19.4	0.00e+00	0	44	0	2008023040	9	3885
2026-01-27 11:46:14.66	53.09	53.50	-24.6	-25.6	19.0	0.00e+00	0	44	0	2014314496	9	4067
2026-01-27 11:46:15.66	52.38	53.45	-24.5	-25.4	19.1	0.00e+00	0	44	0	2019557376	9	4023
2026-01-27 11:46:16.66	51.67	53.39	-24.3	-25.0	19.4	0.00e+00	0	44	0	2025848832	9	3905
2026-01-27 11:46:17.67	50.96	53.33	-24.3	-25.1	19.3	0.00e+00	0	44	0	2031091712	9	3930
2026-01-27 11:46:18.67	50.26	53.26	-24.3	-25.1	19.3	0.00e+00	0	44	0	2036334592	9	3931
2026-01-27 11:46:19.67	49.56	53.19	-24.1	-24.7	19.5	0.00e+00	0	44	0	2042626048	9	3844
2026-01-27 11:46:20.68	48.86	53.12	-23.9	-24.3	19.7	0.00e+00	0	44	0	2047868928	9	3748
2026-01-27 11:46:21.68	48.17	53.04	-23.9	-24.1	19.8	0.00e+00	0	44	0	2053111808	9	3710
2026-01-27 11:46:22.69	47.47	52.95	-24.2	-24.8	19.5	0.00e+00	0	44	0	2059403264	9	3861
2026-01-27 11:46:23.69	46.79	52.86	-24.4	-25.3	19.3	0.00e+00	0	44	0	2064646144	9	3976
2026-01-27 11:46:24.69	46.11	52.77	-24.3	-25.0	19.3	0.00e+00	0	44	0	2069889024	9	3911
2026-01-27 11:46:25.69	45.43	52.68	-24.3	-25.0	19.4	0.00e+00	0	44	0	2076180480	9	3905
2026-01-27 11:46:26.70	44.76	52.58	-24.3	-25.0	19.3	0.00e+00	0	44	0	2081423360	9	3924
2026-01-27 11:46:27.71	44.09	52.47	-24.4	-25.2	19.2	0.00e+00	0	44	0	2087714816	9	3971
2026-01-27 11:46:28.71	43.42	52.37	-24.2	-24.9	19.4	0.00e+00	0	44	0	2092957696	9	3894
2026-01-27 11:46:29.71	42.77	52.26	-24.3	-25.1	19.4	0.00e+00	0	44	0	2099249152	9	3924
2026-01-27 11:46:30.71	42.12	52.14	-24.1	-24.6	19.5	0.00e+00	0	44	0	2104492032	9	3813
2026-01-27 11:46:31.72	41.47	52.02	-23.8	-24.0	19.8	0.00e+00	0	44	0	2109734912	9	3680
2026-01-27 11:46:32.72	40.83	51.90	-23.7	-24.3	19.9	0.00e+00	0	44	0	2116026368	8	3868
2026-01-27 11:46:33.73	40.18	51.77	-23.8	-24.6	19.8	0.00e+00	0	44	0	2121269248	8	3918
2026-01-27 11:46:34.73	39.55	51.65	-23.9	-24.7	19.8	0.00e+00	0	44	0	2126512128	8	3946
2026-01-27 11:46:35.73	38.93	51.51	-23.9	-24.6	19.8	0.00e+00	0	44	0	2132803584	8	3940
2026-01-27 11:46:36.74	38.31	51.38	-23.9	-24.6	19.7	0.00e+00	0	44	0	2138046464	8	3936
2026-01-27 11:46:37.75	37.69	51.24	-23.8	-24.5	19.8	0.00e+00	0	44	0	2144337920	8	3913
2026-01-27 11:46:38.76	37.07	51.10	-23.8	-24.5	19.8	0.00e+00	0	44	0	2149580800	8	3903
2026-01-27 11:46:39.76	36.47	50.95	-24.1	-25.1	19.6	0.00e+00	0	44	0	2154823680	8	4039
2026-01-27 11:46:40.76	35.88	50.81	-24.0	-25.0	19.6	0.00e+00	0	44	0	2161115136	8	4016
2026-01-27 11:46:41.77	35.28	50.66	-24.0	-24.8	19.7	0.00e+00	0	44	0	2166358016	8	3986
2026-01-27 11:46:42.77	34.70	50.51	-24.0	-24.9	19.6	0.00e+00	0	44	0	2172649472	8	4001
2026-01-27 11:46:43.78	34.11	50.35	-23.9	-24.6	19.8	0.00e+00	0	44	0	2177892352	8	3927
2026-01-27 11:46:44.78	33.54	50.19	-23.8	-24.4	19.9	0.00e+00	0	44	0	2183135232	8	3875
2026-01-27 11:46:45.78	32.98	50.03	-23.9	-24.7	19.8	0.00e+00	0	44	0	2189426688	8	3939
2026-01-27 11:46:46.78	32.42	49.87	-24.1	-25.2	19.5	0.00e+00	0	44	0	2194669568	8	4080
2026-01-27 11:46:47.79	31.86	49.71	-24.3	-25.7	19.2	0.00e+00	0	44	0	2199912448	8	4205
2026-01-27 11:46:48.80	31.31	49.54	-24.5	-25.5	19.1	0.00e+00	0	44	0	2206203904	9	4041
2026-01-27 11:46:49.80	30.76	49.37	-24.6	-25.6	19.0	0.00e+00	0	44	0	2211446784	9	4067
2026-01-27 11:46:50.80	30.23	49.20	-24.2	-24.8	19.4	0.00e+00	0	44	0	2216689664	9	3867
2026-01-27 11:46:51.81	29.69	49.02	-23.9	-24.3	19.7	0.00e+00	0	44	0	2222981120	9	3748
2026-01-27 11:46:52.82	29.16	48.85	-23.8	-24.1	19.8	0.00e+00	0	44	0	2228224000	9	3703
2026-01-27 11:46:53.82	28.65	48.67	-23.7	-24.3	19.9	0.00e+00	0	44	0	2234515456	8	3866
2026-01-27 11:46:54.83	28.13	48.49	-23.7	-24.3	19.9	0.00e+00	0	44	0	2239758336	8	3852
2026-01-27 11:46:55.83	27.63	48.31	-23.8	-24.6	19.8	0.00e+00	0	44	0	2246049792	8	3916
2026-01-27 11:46:56.84	27.12	48.13	-23.7	-24.3	19.9	0.00e+00	0	44	0	2251292672	8	3866
2026-01-27 11:46:57.84	26.63	47.94	-23.7	-24.2	20.0	0.00e+00	0	44	0	2256535552	8	3841
2026-01-27 11:46:58.85	26.13	47.76	-23.7	-24.2	20.0	0.00e+00	0	44	0	2262827008	8	3844
2026-01-27 11:46:59.85	25.65	47.57	-23.7	-24.4	19.9	0.00e+00	0	44	0	2268069888	8	3872
2026-01-27 11:47:00.85	25.18	47.38	-23.5	-23.9	20.1	0.00e+00	0	44	0	2274361344	8	3771
2026-01-27 11:47:01.86	24.70	47.19	-23.7	-24.2	19.9	0.00e+00	0	44	0	2279604224	8	3837
2026-01-27 11:47:02.86	24.24	47.00	-23.4	-23.7	20.2	0.00e+00	0	44	0	2284847104	8	3717
2026-01-27 11:47:03.86	23.78	46.81	-23.2	-23.7	20.4	0.00e+00	0	44	0	2291138560	7	3823
2026-01-27 11:47:04.87	23.32	46.62	-23.2	-23.8	20.4	0.00e+00	0	44	0	2296381440	7	3849
2026-01-27 11:47:05.88	22.87	46.42	-23.5	-24.4	20.1	0.00e+00	0	44	0	2301624320	7	3997
2026-01-27 11:47:06.87	22.43	46.23	-23.5	-24.4	20.1	0.00e+00	0	44	0	2307915776	7	3988
2026-01-27 11:47:07.87	22.00	46.03	-23.6	-24.6	20.0	0.00e+00	0	44	0	2313158656	7	4028
2026-01-27 11:47:08.88	21.56	45.84	-23.5	-24.3	20.1	0.00e+00	0	44	0	2319450112	7	3974
2026-01-27 11:47:09.88	21.13	45.64	-23.5	-24.4	20.1	0.00e+00	0	44	0	2324692992	7	3994
2026-01-27 11:47:10.89	20.71	45.44	-23.5	-24.3	20.1	0.00e+00	0	44	0	2329935872	7	3980
2026-01-27 11:47:11.90	20.29	45.24	-23.4	-24.3	20.1	0.00e+00	0	44	0	2336227328	7	3963
2026-01-27 11:47:12.90	19.88	45.04	-23.5	-24.3	20.1	0.00e+00	0	44	0	2341470208	7	3964
2026-01-27 11:47:13.89	19.48	44.84	-23.7	-24.8	19.8	0.00e+00	0	44	0	2346713088	7	4083
2026-01-27 11:47:14.89	19.08	44.64	-24.1	-25.1	19.5	0.00e+00	0	44	0	2353004544	8	4046
2026-01-27 11:47:15.90	18.68	44.44	-24.0	-25.0	19.5	0.00e+00	0	44	0	2358247424	8	4017
2026-01-27 11:47:16.90	18.29	44.24	-23.9	-24.8	19.6	0.00e+00	0	44	0	2364538880	8	3977
2026-01-27 11:47:17.90	17.91	44.03	-23.9	-24.8	19.6	0.00e+00	0	44	0	2369781760	8	3981
2026-01-27 11:47:18.90	17.53	43.83	-24.0	-24.9	19.6	0.00e+00	0	44	0	2375024640	8	4009
2026-01-27 11:47:19.91	17.15	43.63	-23.9	-24.7	19.6	0.00e+00	0	44	0	2381316096	8	3954
2026-01-27 11:47:20.91	16.78	43.43	-24.2	-25.3	19.3	0.00e+00	0	44	0	2386558976	8	4098
2026-01-27 11:47:21.91	16.42	43.22	-23.8	-24.4	19.8	0.00e+00	0	44	0	2392850432	8	3879
2026-01-27 11:47:22.92	16.05	43.02	-23.4	-23.6	20.1	0.00e+00	0	44	0	2398093312	8	3705
2026-01-27 11:47:23.92	15.70	42.81	-23.1	-23.7	20.4	0.00e+00	0	44	0	2403336192	7	3823
2026-01-27 11:47:24.93	15.34	42.61	-23.3	-24.0	20.2	0.00e+00	0	44	0	2409627648	7	3896
2026-01-27 11:47:25.93	14.99	42.40	-23.2	-23.8	20.3	0.00e+00	0	44	0	2414870528	7	3854
2026-01-27 11:47:26.93	14.65	42.20	-23.3	-24.0	20.2	0.00e+00	0	44	0	2420113408	7	3894
2026-01-27 11:47:27.93	14.31	42.00	-23.5	-24.3	20.0	0.00e+00	0	44	0	2426404864	7	3974
2026-01-27 11:47:28.94	13.98	41.79	-23.3	-24.0	20.2	0.00e+00	0	44	0	2431647744	7	3890
2026-01-27 11:47:29.95	13.64	41.59	-23.3	-23.9	20.2	0.00e+00	0	44	0	2436890624	7	3876
2026-01-27 11:47:30.95	13.32	41.38	-23.5	-24.4	20.0	0.00e+00	0	44	0	2443182080	7	3982
2026-01-27 11:47:31.95	13.00	41.18	-23.4	-24.3	20.0	0.00e+00	0	44	0	2448424960	7	3972
2026-01-27 11:47:32.96	12.68	40.97	-23.5	-24.5	20.0	0.00e+00	0	44	0	2454716416	7	4018
2026-01-27 11:47:33.97	12.36	40.77	-23.3	-23.9	20.2	0.00e+00	0	44	0	2459959296	7	3871
2026-01-27 11:47:34.97	12.05	40.56	-23.1	-23.5	20.4	0.00e+00	0	44	0	2466250752	7	3774
2026-01-27 11:47:35.97	11.75	40.36	-23.1	-23.5	20.4	0.00e+00	0	44	0	2471493632	7	3779
2026-01-27 11:47:36.97	11.44	40.16	-22.9	-23.1	20.6	0.00e+00	0	44	0	2476736512	7	3687
2026-01-27 11:47:37.97	11.15	39.96	-22.9	-23.2	20.6	0.00e+00	0	44	0	2483027968	7	3707
2026-01-27 11:47:38.97	10.85	39.76	-23.0	-23.4	20.5	0.00e+00	0	44	0	2488270848	7	3753
2026-01-27 11:47:39.96	10.56	39.56	-23.2	-23.8	20.3	0.00e+00	0	44	0	2493513728	7	3845
2026-01-27 11:47:40.97	10.28	39.35	-23.2	-23.7	20.3	0.00e+00	0	44	0	2499805184	7	3832
2026-01-27 11:47:41.97	9.99	39.15	-23.4	-24.1	20.1	0.00e+00	0	44	0	2505048064	7	3934
2026-01-27 11:47:42.98	9.71	38.95	-23.3	-24.0	20.2	0.00e+00	0	44	0	2510290944	7	3902
2026-01-27 11:47:43.99	9.43	38.75	-23.3	-23.9	20.2	0.00e+00	0	44	0	2516582400	7	3883
2026-01-27 11:47:45.00	9.16	38.54	-23.4	-24.1	20.1	0.00e+00	0	44	0	2521825280	7	3926
2026-01-27 11:47:46.00	8.89	38.35	-23.3	-23.9	20.2	0.00e+00	0	44	0	2528116736	7	3884
2026-01-27 11:47:47.00	8.62	38.15	-23.3	-24.0	20.2	0.00e+00	0	44	0	2533359616	7	3889
2026-01-27 11:47:48.01	8.36	37.95	-23.4	-24.2	20.0	0.00e+00	0	44	0	2539651072	7	3941
2026-01-27 11:47:49.02	8.09	37.75	-23.3	-24.0	20.2	0.00e+00	0	44	0	2544893952	7	3891
2026-01-27 11:47:50.02	7.84	37.55	-23.3	-23.9	20.2	0.00e+00	0	44	0	2550136832	7	3873
2026-01-27 11:47:51.02	7.58	37.35	-23.4	-24.1	20.1	0.00e+00	0	44	0	2556428288	7	3925
2026-01-27 11:47:52.02	7.33	37.16	-23.2	-23.8	20.2	0.00e+00	0	44	0	2561671168	7	3847
2026-01-27 11:47:53.02	7.09	36.96	-23.3	-24.0	20.1	0.00e+00	0	44	0	2566914048	7	3911
2026-01-27 11:47:54.01	6.85	36.77	-23.4	-24.2	20.0	0.00e+00	0	44	0	2573205504	7	3939
2026-01-27 11:47:55.02	6.60	36.57	-23.4	-24.2	20.0	0.00e+00	0	44	0	2578448384	7	3938
2026-01-27 11:47:56.03	6.36	36.37	-23.5	-24.4	19.9	0.00e+00	0	44	0	2583691264	7	3986
2026-01-27 11:47:57.03	6.13	36.18	-23.7	-24.7	19.8	0.00e+00	0	44	0	2589982720	7	4069
2026-01-27 11:47:58.03	5.89	35.99	-23.3	-23.9	20.1	0.00e+00	0	44	0	2595225600	7	3880
2026-01-27 11:47:59.04	5.66	35.79	-23.3	-23.9	20.2	0.00e+00	0	44	0	2601517056	7	3879
2026-01-27 11:48:00.05	5.43	35.60	-23.4	-24.1	20.0	0.00e+00	0	44	0	2606759936	7	3932
2026-01-27 11:48:01.05	5.21	35.41	-23.3	-24.0	20.1	0.00e+00	0	44	0	2613051392	7	3903
2026-01-27 11:48:02.05	4.99	35.22	-23.3	-24.0	20.1	0.00e+00	0	44	0	2618294272	7	3905
2026-01-27 11:48:03.06	4.77	35.03	-23.3	-23.9	20.1	0.00e+00	0	44	0	2623537152	7	3877
2026-01-27 11:48:04.06	4.55	34.84	-23.4	-24.1	20.0	0.00e+00	0	44	0	2629828608	7	3921
2026-01-27 11:48:05.06	4.34	34.65	-23.4	-24.2	20.0	0.00e+00	0	44	0	2635071488	7	3945
2026-01-27 11:48:06.07	4.12	34.46	-23.8	-25.0	19.6	0.00e+00	0	44	0	2640314368	7	4153
2026-01-27 11:48:07.07	3.91	34.27	-23.5	-24.5	19.8	0.00e+00	0	44	0	2646605824	7	4011
2026-01-27 11:48:08.08	3.70	34.09	-23.3	-24.1	20.0	0.00e+00	0	44	0	2651848704	7	3922
2026-01-27 11:48:09.07	3.50	33.90	-23.2	-23.7	20.2	0.00e+00	0	44	0	2657091584	7	3837
2026-01-27 11:48:10.08	3.30	33.72	-23.1	-23.7	20.2	0.00e+00	0	44	0	2663383040	7	3820
2026-01-27 11:48:11.08	3.10	33.53	-23.1	-23.5	20.3	0.00e+00	0	44	0	2668625920	7	3781
2026-01-27 11:48:12.09	2.90	33.35	-23.1	-23.6	20.2	0.00e+00	0	44	0	2674917376	7	3814
2026-01-27 11:48:13.09	2.71	33.16	-23.1	-23.6	20.3	0.00e+00	0	44	0	2680160256	7	3801
2026-01-27 11:48:14.10	2.51	32.98	-23.1	-23.7	20.2	0.00e+00	0	44	0	2685403136	7	3825
2026-01-27 11:48:15.10	2.32	32.80	-23.2	-23.8	20.1	0.00e+00	0	44	0	2691694592	7	3850
2026-01-27 11:48:16.10	2.13	32.62	-23.3	-23.9	20.1	0.00e+00	0	44	0	2696937472	7	3876
2026-01-27 11:48:17.10	1.95	32.44	-23.3	-24.0	20.0	0.00e+00	0	44	0	2703228928	7	3900
2026-01-27 11:48:18.11	1.76	32.26	-23.4	-24.2	19.9	0.00e+00	0	44	0	2708471808	7	3942
2026-01-27 11:48:19.12	1.58	32.08	-23.4	-24.3	19.9	0.00e+00	0	44	0	2713714688	7	3976
2026-01-27 11:48:20.12	1.40	31.90	-23.6	-24.6	19.7	0.00e+00	0	44	0	2720006144	7	4035
2026-01-27 11:48:21.12	1.22	31.72	-23.5	-24.4	19.8	0.00e+00	0	44	0	2725249024	7	4007
2026-01-27 11:48:22.12	1.04	31.55	-23.5	-24.5	19.8	0.00e+00	0	44	0	2730491904	7	4008
2026-01-27 11:48:23.12	0.87	31.37	-23.4	-24.3	19.9	0.00e+00	0	44	0	2736783360	7	3973
2026-01-27 11:48:24.12	0.70	31.20	-23.5	-24.4	19.8	0.00e+00	0	44	0	2742026240	7	3984
2026-01-27 11:48:25.12	0.53	31.02	-23.3	-24.1	20.0	0.00e+00	0	44	0	2748317696	7	3924
2026-01-27 11:48:26.13	0.36	30.85	-23.3	-24.1	20.0	0.00e+00	0	44	0	2753560576	7	3922
2026-01-27 11:48:27.13	0.19	30.68	-23.4	-24.3	19.9	0.00e+00	0	44	0	2758803456	7	3971
2026-01-27 11:48:28.14	0.02	30.50	-23.4	-24.2	19.9	0.00e+00	0	44	0	2765094912	7	3951
2026-01-27 11:48:29.15	359.86	30.33	-23.6	-24.5	19.7	0.00e+00	0	44	0	2770337792	7	4025
2026-01-27 11:48:30.15	359.70	30.16	-23.6	-24.5	19.7	0.00e+00	0	44	0	2776629248	7	4026
2026-01-27 11:48:31.15	359.54	29.99	-23.7	-24.9	19.6	0.00e+00	0	44	0	2781872128	7	4116
2026-01-27 11:48:32.15	359.38	29.82	-23.7	-24.8	19.6	0.00e+00	0	44	0	2787115008	7	4094
2026-01-27 11:48:33.15	359.22	29.65	-23.9	-25.2	19.4	0.00e+00	0	44	0	2793406464	7	4200
2026-01-27 11:48:34.16	359.07	29.49	-23.8	-25.1	19.4	0.00e+00	0	44	0	2798649344	7	4170
2026-01-27 11:48:35.16	358.91	29.32	-23.9	-25.3	19.3	0.00e+00	0	44	0	2803892224	7	4228
2026-01-27 11:48:36.16	358.76	29.15	-23.8	-25.1	19.4	0.00e+00	0	44	0	2810183680	7	4167
2026-01-27 11:48:37.17	358.61	28.99	-23.9	-25.3	19.3	0.00e+00	0	44	0	2815426560	7	4220
2026-01-27 11:48:38.17	358.46	28.82	-24.2	-25.3	19.1	0.00e+00	0	44	0	2821718016	8	4108
2026-01-27 11:48:39.18	358.32	28.66	-24.4	-25.7	18.9	0.00e+00	0	44	0	2826960896	8	4212
2026-01-27 11:48:40.18	358.17	28.50	-24.0	-24.9	19.3	0.00e+00	0	44	0	2832203776	8	4013
2026-01-27 11:48:41.18	358.03	28.33	-23.7	-24.4	19.5	0.00e+00	0	44	0	2838495232	8	3893
2026-01-27 11:48:42.18	357.89	28.17	-23.7	-24.3	19.6	0.00e+00	0	44	0	2843738112	8	3853
2026-01-27 11:48:43.19	357.74	28.01	-23.7	-24.3	19.6	0.00e+00	0	44	0	2848980992	8	3864
2026-01-27 11:48:44.19	357.60	27.85	-23.7	-24.3	19.6	0.00e+00	0	44	0	2855272448	8	3871
2026-01-27 11:48:45.19	357.47	27.69	-23.8	-24.6	19.5	0.00e+00	0	44	0	2860515328	8	3924
2026-01-27 11:48:46.19	357.33	27.53	-23.7	-24.3	19.6	0.00e+00	0	44	0	2866806784	8	3867
2026-01-27 11:48:47.20	357.19	27.38	-23.7	-24.3	19.6	0.00e+00	0	44	0	2872049664	8	3857
2026-01-27 11:48:48.20	357.06	27.22	-23.7	-24.4	19.5	0.00e+00	0	44	0	2878341120	8	3877
2026-01-27 11:48:49.20	356.93	27.06	-23.6	-24.2	19.6	0.00e+00	0	44	0	2883584000	8	3839
2026-01-27 11:48:50.20	356.80	26.91	-23.7	-24.4	19.6	0.00e+00	0	44	0	2888826880	8	3877
2026-01-27 11:48:51.21	356.67	26.75	-23.7	-24.4	19.5	0.00e+00	0	44	0	2895118336	8	3897
2026-01-27 11:48:52.21	356.54	26.60	-23.7	-24.3	19.6	0.00e+00	0	44	0	2900361216	8	3863
2026-01-27 11:48:53.21	356.41	26.44	-23.7	-24.4	19.5	0.00e+00	0	44	0	2905604096	8	3880
2026-01-27 11:48:54.22	356.28	26.29	-23.7	-24.3	19.6	0.00e+00	0	44	0	2911895552	8	3860
2026-01-27 11:48:55.22	356.16	26.14	-23.7	-24.4	19.5	0.00e+00	0	44	0	2917138432	8	3898
2026-01-27 11:48:56.22	356.04	25.99	-23.9	-24.7	19.4	0.00e+00	0	44	0	2922381312	8	3954
2026-01-27 11:48:57.22	355.91	25.84	-23.8	-24.4	19.5	0.00e+00	0	44	0	2928672768	8	3897
2026-01-27 11:48:58.23	355.79	25.69	-23.9	-24.6	19.4	0.00e+00	0	44	0	2933915648	8	3944
2026-01-27 11:48:59.23	355.67	25.54	-23.7	-24.4	19.5	0.00e+00	0	44	0	2940207104	8	3876
2026-01-27 11:49:00.23	355.55	25.39	-23.7	-24.3	19.5	0.00e+00	0	44	0	2945449984	8	3862
2026-01-27 11:49:01.23	355.44	25.24	-23.7	-24.4	19.5	0.00e+00	0	44	0	2950692864	8	3888
2026-01-27 11:49:02.22	355.32	25.10	-23.8	-24.4	19.5	0.00e+00	0	44	0	2956984320	8	3900
2026-01-27 11:49:03.23	355.20	24.95	-24.0	-24.9	19.3	0.00e+00	0	44	0	2962227200	8	4000
2026-01-27 11:49:04.23	355.09	24.80	-24.1	-25.1	19.2	0.00e+00	0	44	0	2967470080	8	4056
2026-01-27 11:49:05.22	354.98	24.66	-24.0	-24.9	19.2	0.00e+00	0	44	0	2973761536	8	4008
2026-01-27 11:49:06.22	354.87	24.52	-24.0	-24.9	19.2	0.00e+00	0	44	0	2979004416	8	4014
2026-01-27 11:49:07.23	354.75	24.37	-24.0	-25.1	19.1	0.00e+00	0	44	0	2984247296	8	4050
2026-01-27 11:49:08.23	354.64	24.23	-24.0	-25.1	19.2	0.00e+00	0	44	0	2990538752	8	4045
2026-01-27 11:49:09.23	354.53	24.09	-24.2	-25.3	19.0	0.00e+00	0	44	0	2995781632	8	4098
2026-01-27 11:49:10.24	354.43	23.94	-24.1	-25.2	19.1	0.00e+00	0	44	0	3002073088	8	4087
2026-01-27 11:49:11.24	354.32	23.80	-24.2	-25.4	19.0	0.00e+00	0	44	0	3007315968	8	4131
2026-01-27 11:49:12.24	354.21	23.66	-24.3	-25.6	18.9	0.00e+00	0	44	0	3012558848	8	4181
2026-01-27 11:49:13.25	354.11	23.52	-24.2	-25.3	19.0	0.00e+00	0	44	0	3018850304	8	4113
2026-01-27 11:49:14.25	354.00	23.38	-24.1	-25.3	19.0	0.00e+00	0	44	0	3024093184	8	4101
2026-01-27 11:49:15.26	353.90	23.24	-24.1	-25.3	19.0	0.00e+00	0	44	0	3030384640	8	4098
2026-01-27 11:49:16.26	353.80	23.11	-24.1	-25.2	19.0	0.00e+00	0	44	0	3035627520	8	4086
2026-01-27 11:49:17.26	353.70	22.97	-24.2	-25.4	19.0	0.00e+00	0	44	0	3040870400	8	4127
2026-01-27 11:49:18.26	353.60	22.83	-24.0	-25.1	19.1	0.00e+00	0	44	0	3047161856	8	4045
2026-01-27 11:49:19.26	353.50	22.70	-24.0	-24.9	19.2	0.00e+00	0	44	0	3052404736	8	4008
2026-01-27 11:49:20.27	353.40	22.56	-24.0	-25.0	19.1	0.00e+00	0	44	0	3057647616	8	4031
2026-01-27 11:49:21.27	353.30	22.43	-24.1	-25.2	19.1	0.00e+00	0	44	0	3063939072	8	4069
2026-01-27 11:49:22.27	353.20	22.29	-24.0	-25.0	19.1	0.00e+00	0	44	0	3069181952	8	4021
2026-01-27 11:49:23.28	353.11	22.16	-24.0	-25.0	19.1	0.00e+00	0	44	0	3075473408	8	4029
2026-01-27 11:49:24.28	353.01	22.03	-24.1	-25.1	19.1	0.00e+00	0	44	0	3080716288	8	4051
2026-01-27 11:49:25.29	352.92	21.89	-24.1	-25.2	19.1	0.00e+00	0	44	0	3085959168	8	4074
2026-01-27 11:49:26.30	352.82	21.76	-24.1	-25.2	19.0	0.00e+00	0	44	0	3092250624	8	4086
2026-01-27 11:49:27.30	352.73	21.63	-24.2	-25.4	18.9	0.00e+00	0	44	0	3097493504	8	4129
2026-01-27 11:49:28.31	352.64	21.50	-24.2	-25.3	19.0	0.00e+00	0	44	0	3103784960	8	4100
2026-01-27 11:49:29.31	352.55	21.37	-24.2	-25.4	18.9	0.00e+00	0	44	0	3109027840	8	4127
2026-01-27 11:49:30.32	352.45	21.24	-24.2	-25.4	18.9	0.00e+00	0	44	0	3114270720	8	4133
2026-01-27 11:49:31.31	352.37	21.11	-24.3	-25.5	18.9	0.00e+00	0	44	0	3120562176	8	4156
2026-01-27 11:49:32.32	352.28	20.98	-24.3	-25.6	18.8	0.00e+00	0	44	0	3125805056	8	4184
2026-01-27 11:49:33.32	352.19	20.85	-24.3	-25.7	18.8	0.00e+00	0	44	0	3131047936	8	4198
2026-01-27 11:49:34.32	352.10	20.73	-24.4	-25.9	18.7	0.00e+00	0	44	0	3137339392	8	4250
2026-01-27 11:49:35.33	352.01	20.60	-24.7	-25.9	18.4	0.00e+00	0	44	0	3142582272	9	4136
2026-01-27 11:49:36.33	351.93	20.47	-24.8	-26.2	18.3	0.00e+00	0	44	0	3148873728	9	4208
2026-01-27 11:49:37.34	351.84	20.35	-24.8	-26.1	18.3	0.00e+00	0	44	0	3154116608	9	4190
2026-01-27 11:49:38.34	351.76	20.22	-24.9	-26.4	18.1	0.00e+00	0	44	0	3159359488	9	4268
2026-01-27 11:49:39.34	351.68	20.10	-24.9	-26.4	18.1	0.00e+00	0	44	0	3165650944	9	4265
2026-01-27 11:49:40.35	351.59	19.98	-25.0	-26.1	18.0	0.00e+00	0	44	0	3170893824	10	4094
2026-01-27 11:49:41.36	351.51	19.85	-25.0	-26.1	18.0	0.00e+00	0	44	0	3177185280	10	4075
2026-01-27 11:49:42.36	351.43	19.73	-25.0	-26.1	18.0	0.00e+00	0	44	0	3182428160	10	4090
2026-01-27 11:49:43.37	351.35	19.61	-25.2	-26.6	17.9	0.00e+00	0	44	0	3187671040	10	4210
2026-01-27 11:49:44.37	351.27	19.49	-25.3	-26.7	17.7	0.00e+00	0	44	0	3193962496	10	4225
2026-01-27 11:49:45.37	351.19	19.36	-25.1	-26.4	17.9	0.00e+00	0	44	0	3199205376	10	4156
2026-01-27 11:49:46.37	351.11	19.24	-25.1	-26.2	17.9	0.00e+00	0	44	0	3204448256	10	4120
2026-01-27 11:49:47.37	351.03	19.12	-25.0	-26.2	18.0	0.00e+00	0	44	0	3210739712	10	4096
2026-01-27 11:49:48.37	350.95	19.01	-25.1	-26.3	18.0	0.00e+00	0	44	0	3215982592	10	4123
2026-01-27 11:49:49.38	350.88	18.89	-25.2	-26.5	17.9	0.00e+00	0	44	0	3222274048	10	4174
2026-01-27 11:49:50.38	350.80	18.77	-25.4	-26.8	17.6	0.00e+00	0	44	0	3227516928	10	4273
2026-01-27 11:49:51.38	350.72	18.65	-25.3	-26.6	17.7	0.00e+00	0	44	0	3232759808	10	4214
2026-01-27 11:49:52.38	350.65	18.53	-25.4	-26.9	17.6	0.00e+00	0	44	0	3239051264	10	4272
2026-01-27 11:49:53.38	350.58	18.42	-25.4	-27.0	17.5	0.00e+00	0	44	0	3244294144	10	4298
2026-01-27 11:49:54.38	350.50	18.30	-25.3	-26.8	17.7	0.00e+00	0	44	0	3249537024	10	4247
2026-01-27 11:49:55.39	350.43	18.18	-25.3	-26.8	17.6	0.00e+00	0	44	0	3255828480	10	4264
2026-01-27 11:49:56.40	350.35	18.07	-25.4	-27.0	17.5	0.00e+00	0	44	0	3261071360	10	4300
2026-01-27 11:49:57.40	350.28	17.95	-25.5	-26.7	17.4	0.00e+00	0	44	0	3266314240	11	4123
2026-01-27 11:49:58.40	350.21	17.84	-25.7	-27.0	17.3	0.00e+00	0	44	0	3272605696	11	4188
2026-01-27 11:49:59.40	350.14	17.73	-25.5	-26.6	17.4	0.00e+00	0	44	0	3277848576	11	4106
2026-01-27 11:50:00.41	350.07	17.61	-25.4	-26.4	17.6	0.00e+00	0	44	0	3284140032	11	4047
2026-01-27 11:50:01.41	350.00	17.50	-25.4	-26.5	17.5	0.00e+00	0	44	0	3289382912	11	4060
2026-01-27 11:50:02.42	349.93	17.39	-25.5	-26.7	17.4	0.00e+00	0	44	0	3295674368	11	4127
2026-01-27 11:50:03.42	349.86	17.27	-25.5	-26.8	17.4	0.00e+00	0	44	0	3300917248	11	4146
2026-01-27 11:50:04.41	349.79	17.16	-25.7	-27.1	17.2	0.00e+00	0	44	0	3306160128	11	4219
2026-01-27 11:50:05.42	349.73	17.05	-25.6	-27.0	17.2	0.00e+00	0	44	0	3312451584	11	4193
2026-01-27 11:50:06.41	349.66	16.94	-25.7	-27.2	17.1	0.00e+00	0	44	0	3317694464	11	4257
2026-01-27 11:50:07.41	349.59	16.83	-25.8	-27.4	17.0	0.00e+00	0	44	0	3322937344	11	4309
2026-01-27 11:50:08.42	349.53	16.72	-25.7	-27.2	17.1	0.00e+00	0	44	0	3329228800	11	4251
2026-01-27 11:50:09.42	349.46	16.61	-25.8	-27.2	17.1	0.00e+00	0	44	0	3334471680	11	4268
2026-01-27 11:50:10.43	349.40	16.50	-25.8	-27.4	17.0	0.00e+00	0	44	0	3339714560	11	4305
2026-01-27 11:50:11.43	349.33	16.40	-25.8	-27.3	17.0	0.00e+00	0	44	0	3346006016	11	4296
2026-01-27 11:50:12.42	349.27	16.29	-25.8	-27.3	17.1	0.00e+00	0	44	0	3351248896	11	4273
2026-01-27 11:50:13.43	349.20	16.18	-25.8	-27.3	17.0	0.00e+00	0	44	0	3357540352	11	4272
2026-01-27 11:50:14.44	349.14	16.07	-25.8	-27.2	17.0	0.00e+00	0	44	0	3362783232	11	4264
2026-01-27 11:50:15.45	349.08	15.97	-25.9	-27.4	17.0	0.00e+00	0	44	0	3368026112	11	4304
2026-01-27 11:50:16.45	349.01	15.86	-25.9	-27.4	16.9	0.00e+00	0	44	0	3374317568	11	4318
2026-01-27 11:50:17.45	348.95	15.75	-25.9	-27.5	16.9	0.00e+00	0	44	0	3379560448	11	4332
2026-01-27 11:50:18.45	348.89	15.65	-25.9	-27.4	16.9	0.00e+00	0	44	0	3385851904	11	4310
2026-01-27 11:50:19.45	348.83	15.55	-25.8	-27.3	17.0	0.00e+00	0	44	0	3391094784	11	4266
2026-01-27 11:50:20.46	348.77	15.44	-25.8	-27.3	17.0	0.00e+00	0	44	0	3396337664	11	4266
2026-01-27 11:50:21.46	348.71	15.34	-25.9	-27.6	16.8	0.00e+00	0	44	0	3402629120	11	4360
2026-01-27 11:50:22.46	348.65	15.23	-26.1	-27.4	16.6	0.00e+00	0	44	0	3407872000	12	4206
2026-01-27 11:50:23.45	348.59	15.13	-26.1	-27.5	16.5	0.00e+00	0	44	0	3413114880	12	4221
2026-01-27 11:50:24.46	348.53	15.03	-26.0	-27.2	16.7	0.00e+00	0	44	0	3419406336	12	4137
2026-01-27 11:50:25.47	348.47	14.92	-26.0	-27.2	16.7	0.00e+00	0	44	0	3424649216	12	4136
2026-01-27 11:50:26.47	348.42	14.82	-26.1	-27.5	16.5	0.00e+00	0	44	0	3430940672	12	4216
2026-01-27 11:50:27.48	348.36	14.72	-26.2	-27.7	16.4	0.00e+00	0	44	0	3436183552	12	4262
2026-01-27 11:50:28.48	348.30	14.62	-26.2	-27.6	16.4	0.00e+00	0	44	0	3441426432	12	4255
2026-01-27 11:50:29.48	348.25	14.52	-26.2	-27.7	16.4	0.00e+00	0	44	0	3447717888	12	4281
2026-01-27 11:50:30.48	348.19	14.42	-26.1	-27.5	16.5	0.00e+00	0	44	0	3452960768	12	4220
2026-01-27 11:50:31.48	348.13	14.32	-26.0	-27.3	16.6	0.00e+00	0	44	0	3458203648	12	4170
2026-01-27 11:50:32.49	348.08	14.22	-26.0	-27.4	16.5	0.00e+00	0	44	0	3464495104	12	4190
2026-01-27 11:50:33.49	348.02	14.12	-26.1	-27.5	16.5	0.00e+00	0	44	0	3469737984	12	4220
2026-01-27 11:50:34.50	347.97	14.02	-26.1	-27.5	16.5	0.00e+00	0	44	0	3474980864	12	4223
2026-01-27 11:50:35.50	347.92	13.92	-26.1	-27.5	16.5	0.00e+00	0	44	0	3481272320	12	4218
2026-01-27 11:50:36.49	347.86	13.82	-26.1	-27.6	16.4	0.00e+00	0	44	0	3486515200	12	4249
2026-01-27 11:50:37.50	347.81	13.72	-26.1	-27.6	16.4	0.00e+00	0	44	0	3492806656	12	4253
2026-01-27 11:50:38.50	347.76	13.63	-26.2	-27.7	16.3	0.00e+00	0	44	0	3498049536	12	4274
2026-01-27 11:50:39.51	347.70	13.53	-26.2	-27.8	16.2	0.00e+00	0	44	0	3504340992	12	4309
2026-01-27 11:50:40.51	347.65	13.43	-26.3	-28.0	16.2	0.00e+00	0	44	0	3509583872	12	4353
2026-01-27 11:50:41.51	347.60	13.34	-26.2	-27.8	16.2	0.00e+00	0	44	0	3514826752	12	4309
2026-01-27 11:50:42.52	347.55	13.24	-26.3	-27.9	16.2	0.00e+00	0	44	0	3521118208	12	4347
2026-01-27 11:50:43.52	347.50	13.15	-26.4	-28.1	16.1	0.00e+00	0	44	0	3526361088	12	4380
2026-01-27 11:50:44.53	347.44	13.05	-26.4	-28.3	15.9	0.00e+00	0	44	0	3531603968	12	4434
2026-01-27 11:50:45.53	347.39	12.95	-26.7	-28.3	15.7	0.00e+00	0	44	0	3537895424	13	4327
2026-01-27 11:50:46.54	347.34	12.86	-26.7	-28.4	15.6	0.00e+00	0	44	0	3543138304	13	4364
2026-01-27 11:50:47.54	347.29	12.77	-26.6	-28.1	15.8	0.00e+00	0	44	0	3548381184	13	4278
2026-01-27 11:50:48.54	347.24	12.67	-26.5	-27.9	15.9	0.00e+00	0	44	0	3554672640	13	4232
2026-01-27 11:50:49.55	347.20	12.58	-26.5	-28.0	15.9	0.00e+00	0	44	0	3559915520	13	4240
2026-01-27 11:50:50.54	347.15	12.48	-26.5	-28.0	15.9	0.00e+00	0	44	0	3566206976	13	4240
2026-01-27 11:50:51.55	347.10	12.39	-26.5	-27.9	15.9	0.00e+00	0	44	0	3571449856	13	4219
2026-01-27 11:50:52.55	347.05	12.30	-26.5	-27.9	15.9	0.00e+00	0	44	0	3577741312	13	4220
2026-01-27 11:50:53.56	347.00	12.21	-26.7	-28.3	15.6	0.00e+00	0	44	0	3582984192	13	4338
2026-01-27 11:50:54.56	346.95	12.11	-26.7	-28.2	15.6	0.00e+00	0	44	0	3588227072	13	4310
2026-01-27 11:50:55.56	346.91	12.02	-26.6	-28.1	15.7	0.00e+00	0	44	0	3594518528	13	4272
2026-01-27 11:50:56.56	346.86	11.93	-26.6	-28.1	15.7	0.00e+00	0	44	0	3599761408	13	4283
2026-01-27 11:50:57.55	346.82	11.84	-26.6	-28.2	15.7	0.00e+00	0	44	0	3605004288	13	4308
2026-01-27 11:50:58.55	346.77	11.75	-26.7	-28.4	15.5	0.00e+00	0	44	0	3611295744	13	4354
2026-01-27 11:50:59.56	346.72	11.66	-26.7	-28.2	15.6	0.00e+00	0	44	0	3616538624	13	4323
2026-01-27 11:51:00.56	346.68	11.57	-26.6	-28.1	15.7	0.00e+00	0	44	0	3621781504	13	4290
2026-01-27 11:51:01.57	346.63	11.48	-26.6	-28.2	15.6	0.00e+00	0	44	0	3628072960	13	4309
2026-01-27 11:51:02.57	346.59	11.39	-26.7	-28.4	15.5	0.00e+00	0	44	0	3633315840	13	4371
2026-01-27 11:51:03.57	346.54	11.30	-26.8	-28.5	15.4	0.00e+00	0	44	0	3639607296	13	4397
2026-01-27 11:51:04.58	346.50	11.21	-26.8	-28.7	15.4	0.00e+00	0	44	0	3644850176	13	4437
2026-01-27 11:51:05.58	346.45	11.12	-27.0	-29.0	15.2	1.10e-06	0	44	0	3650093056	13	4529
2026-01-27 11:51:06.59	346.41	11.04	-27.2	-28.9	15.0	0.00e+00	0	44	0	3656384512	14	4389
2026-01-27 11:51:07.60	346.37	10.95	-27.2	-28.9	14.9	1.10e-06	0	44	0	3661627392	14	4401
2026-01-27 11:51:08.60	346.32	10.86	-26.9	-28.3	15.2	0.00e+00	0	44	0	3667918848	14	4240
2026-01-27 11:51:09.60	346.28	10.77	-26.9	-28.3	15.3	0.00e+00	0	44	0	3673161728	14	4214
2026-01-27 11:51:10.61	346.24	10.69	-26.9	-28.3	15.3	0.00e+00	0	44	0	3678404608	14	4221
2026-01-27 11:51:11.61	346.19	10.60	-26.9	-28.3	15.3	1.10e-06	0	44	0	3684696064	14	4221
2026-01-27 11:51:12.61	346.15	10.51	-26.9	-28.2	15.3	0.00e+00	0	44	0	3689938944	14	4197
2026-01-27 11:51:13.61	346.11	10.43	-26.9	-28.3	15.3	0.00e+00	0	44	0	3695181824	14	4217
2026-01-27 11:51:14.61	346.07	10.34	-27.1	-28.7	15.0	0.00e+00	0	44	0	3701473280	14	4350
2026-01-27 11:51:15.61	346.03	10.26	-27.0	-28.6	15.1	0.00e+00	0	44	0	3706716160	14	4308
2026-01-27 11:51:16.61	345.99	10.17	-27.0	-28.4	15.2	0.00e+00	0	44	0	3713007616	14	4263
2026-01-27 11:51:17.62	345.95	10.08	-27.1	-28.7	15.1	0.00e+00	0	44	0	3718250496	14	4323
2026-01-27 11:51:18.63	345.91	10.00	-27.1	-28.8	14.9	0.00e+00	0	44	0	3723493376	14	4370
2026-01-27 11:51:19.63	345.87	9.92	-27.0	-28.6	15.0	0.00e+00	0	44	0	3729784832	14	4322
2026-01-27 11:51:20.64	345.82	9.83	-27.2	-29.1	14.8	0.00e+00	0	44	0	3735027712	14	4443
2026-01-27 11:51:21.64	345.79	9.75	-27.2	-29.0	14.8	0.00e+00	0	44	0	3740270592	14	4430
2026-01-27 11:51:22.65	345.75	9.66	-27.1	-28.8	14.9	0.00e+00	0	44	0	3746562048	14	4378
2026-01-27 11:51:23.65	345.71	9.58	-27.2	-29.0	14.8	0.00e+00	0	44	0	3751804928	14	4439
2026-01-27 11:51:24.66	345.67	9.50	-27.2	-29.0	14.8	0.00e+00	0	44	0	3758096384	14	4422
2026-01-27 11:51:25.65	345.63	9.41	-27.3	-29.1	14.7	0.00e+00	0	44	0	3763339264	14	4455
2026-01-27 11:51:26.65	345.59	9.33	-27.1	-28.7	14.9	1.10e-06	0	44	0	3768582144	14	4353
2026-01-27 11:51:27.66	345.55	9.25	-27.2	-29.0	14.8	0.00e+00	0	44	0	3774873600	14	4428
2026-01-27 11:51:28.66	345.51	9.17	-27.2	-29.0	14.8	1.10e-06	0	44	0	3780116480	14	4417
2026-01-27 11:51:29.66	345.48	9.08	-27.3	-29.2	14.6	0.00e+00	0	44	0	3786407936	14	4485
2026-01-27 11:51:30.67	345.44	9.00	-27.3	-29.3	14.6	0.00e+00	0	44	0	3791650816	14	4504
2026-01-27 11:51:31.68	345.40	8.92	-27.3	-29.2	14.6	1.10e-06	0	44	0	3796893696	14	4501
2026-01-27 11:51:32.68	345.36	8.84	-27.4	-29.5	14.5	0.00e+00	0	44	0	3803185152	14	4567
2026-01-27 11:51:33.69	345.33	8.76	-27.3	-29.3	14.5	1.10e-06	0	44	0	3808428032	14	4525
2026-01-27 11:51:34.70	345.29	8.68	-27.3	-29.3	14.6	0.00e+00	0	44	0	3813670912	14	4507
2026-01-27 11:51:35.70	345.25	8.60	-27.3	-29.2	14.6	1.10e-06	0	44	0	3819962368	14	4486
2026-01-27 11:51:36.70	345.22	8.52	-27.4	-29.5	14.4	2.20e-06	0	44	0	3825205248	14	4570
2026-01-27 11:51:37.71	345.18	8.44	-27.4	-29.5	14.4	0.00e+00	0	44	0	3831496704	14	4571
2026-01-27 11:51:38.71	345.15	8.36	-27.4	-29.5	14.4	1.10e-06	0	44	0	3836739584	14	4564
2026-01-27 11:51:39.71	345.11	8.28	-27.4	-28.9	14.4	2.20e-06	0	44	0	3841982464	15	4287
2026-01-27 11:51:40.72	345.07	8.20	-27.4	-29.1	14.3	0.00e+00	0	44	0	3848273920	15	4344
2026-01-27 11:51:41.72	345.04	8.12	-27.3	-28.8	14.5	0.00e+00	0	44	0	3853516800	15	4269
2026-01-27 11:51:42.72	345.00	8.04	-27.4	-28.9	14.4	0.00e+00	0	44	0	3859808256	15	4300
