passes_logs/2026/01/27/R2M6_AANII_01/R2M6_AANII_01__20260127_011054_NOAA_20_JPSS-1_rec.log

#Pass ID: 20260127_011054_NOAA 20 (JPSS-1)
#Satellite: NOAA 20 (JPSS-1)
#Configuration: NOAA 20
#almurnet v.1.7.20240730
#Start time: 2026-01-27 01:10:53

#Version: 2.2.20231116
#Station: R2M6_AANII_01
#Location: 30.233357 lon 59.946436 lat
#TLE: 1 43013U 17073A   26026.46665230  .00000148  00000+0  91302-4 0  9998
#TLE: 2 43013  98.7646 327.2856 0001008  22.9532 337.1688 14.19540616424360

#Time	Az	El	Level	Level2	SNR	BER	BlckErr	Temp	State	Recorded	gain1	gain2
2026-01-27 01:10:53.57	14.33	6.95	-31.4	-37.4	5.1	1.25e+00	0	41	0	0	22	7220
2026-01-27 01:10:54.57	14.29	7.02	-31.7	-38.2	4.9	1.29e+00	0	41	104	0	23	7666
2026-01-27 01:10:55.57	14.25	7.09	-31.7	-38.5	7.3	1.22e-01	0	41	0	0	23	7843
2026-01-27 01:10:56.58	14.21	7.17	-31.6	-38.0	7.7	1.03e-01	0	41	0	1048576	23	7463
2026-01-27 01:10:57.58	14.17	7.24	-31.7	-38.0	7.7	7.51e-02	0	41	0	3145728	23	7494
2026-01-27 01:10:58.58	14.13	7.32	-31.7	-37.9	7.8	9.86e-02	0	41	0	5242880	23	7405
2026-01-27 01:10:59.59	14.09	7.40	-31.5	-37.3	8.3	5.35e-02	0	41	0	7340032	23	6993
2026-01-27 01:11:00.59	14.04	7.47	-31.4	-37.2	8.8	3.84e-02	0	42	0	9437184	22	7051
2026-01-27 01:11:01.60	14.00	7.55	-31.3	-36.8	9.2	2.73e-02	0	41	0	10485760	22	6789
2026-01-27 01:11:02.60	13.96	7.62	-31.2	-36.5	9.4	1.88e-02	0	42	0	12582912	22	6596
2026-01-27 01:11:03.60	13.92	7.70	-31.2	-36.5	9.5	1.63e-02	0	42	0	14680064	22	6582
2026-01-27 01:11:04.60	13.88	7.78	-31.2	-36.5	9.4	1.68e-02	0	42	0	16777216	22	6614
2026-01-27 01:11:05.60	13.83	7.85	-30.3	-35.1	9.8	1.28e-02	0	42	0	17825792	22	6302
2026-01-27 01:11:06.60	13.79	7.93	-30.6	-35.5	10.4	5.63e-03	0	42	0	19922944	21	6307
2026-01-27 01:11:07.60	13.75	8.01	-31.1	-35.5	10.7	2.47e-03	0	42	0	22020096	21	6006
2026-01-27 01:11:08.61	13.70	8.09	-30.4	-34.4	11.4	7.64e-04	0	42	0	24117248	20	5767
2026-01-27 01:11:09.61	13.66	8.16	-30.2	-33.9	11.4	7.84e-04	0	42	0	26214400	20	5544
2026-01-27 01:11:10.62	13.62	8.24	-30.1	-33.6	11.7	7.44e-04	0	42	0	27262976	20	5395
2026-01-27 01:11:11.62	13.57	8.32	-30.0	-33.3	12.6	8.77e-05	0	42	0	29360128	20	5261
2026-01-27 01:11:12.63	13.53	8.40	-30.0	-33.7	12.8	7.62e-04	0	42	0	31457280	19	5535
2026-01-27 01:11:13.63	13.48	8.48	-29.9	-33.6	12.9	3.21e-03	0	42	0	33554432	19	5469
2026-01-27 01:11:14.63	13.44	8.56	-29.9	-33.5	12.9	4.27e-05	0	42	0	35651584	19	5440
2026-01-27 01:11:15.63	13.39	8.63	-29.9	-33.6	12.9	5.55e-04	0	42	0	36700160	19	5497
2026-01-27 01:11:16.63	13.35	8.71	-30.0	-33.2	12.7	2.99e-03	0	42	0	38797312	20	5237
2026-01-27 01:11:17.64	13.30	8.79	-30.1	-33.6	12.5	9.38e-05	0	42	0	40894464	20	5378
2026-01-27 01:11:18.64	13.26	8.87	-30.1	-33.5	12.5	9.95e-04	0	42	0	42991616	20	5361
2026-01-27 01:11:19.64	13.21	8.95	-29.9	-33.1	12.8	5.97e-04	0	42	0	45088768	20	5176
2026-01-27 01:11:20.64	13.16	9.03	-29.9	-33.4	13.0	6.26e-04	0	42	0	46137344	19	5399
2026-01-27 01:11:21.64	13.12	9.11	-29.9	-33.4	13.0	5.80e-04	0	42	0	48234496	19	5401
2026-01-27 01:11:22.64	13.07	9.19	-29.9	-33.5	12.9	9.36e-04	0	42	0	50331648	19	5443
2026-01-27 01:11:23.64	13.02	9.27	-30.0	-33.2	12.7	6.67e-04	0	42	0	52428800	20	5233
2026-01-27 01:11:24.63	12.98	9.35	-30.1	-33.5	12.5	9.33e-04	0	42	0	54525952	20	5359
2026-01-27 01:11:25.64	12.93	9.44	-30.0	-33.4	12.6	6.54e-04	0	42	0	55574528	20	5316
2026-01-27 01:11:26.64	12.88	9.52	-29.9	-33.0	12.8	8.08e-05	0	42	0	57671680	20	5155
2026-01-27 01:11:27.65	12.83	9.60	-29.8	-33.3	13.1	2.67e-03	0	42	0	59768832	19	5351
2026-01-27 01:11:28.65	12.78	9.68	-29.9	-33.4	13.0	7.26e-04	0	42	0	61865984	19	5396
2026-01-27 01:11:29.65	12.73	9.76	-29.9	-33.4	13.1	3.89e-05	0	42	0	62914560	19	5393
2026-01-27 01:11:30.65	12.68	9.85	-29.9	-33.4	13.1	2.42e-03	0	42	0	65011712	19	5400
2026-01-27 01:11:31.65	12.63	9.93	-30.0	-33.7	12.9	3.30e-03	0	42	0	67108864	19	5503
2026-01-27 01:11:32.65	12.58	10.01	-29.9	-33.5	13.0	5.95e-05	0	42	0	69206016	19	5448
2026-01-27 01:11:33.65	12.53	10.10	-29.8	-33.3	13.1	5.00e-04	0	42	0	71303168	19	5360
2026-01-27 01:11:34.65	12.48	10.18	-29.9	-33.4	13.1	2.66e-03	0	42	0	72351744	19	5379
2026-01-27 01:11:35.65	12.43	10.26	-29.8	-33.2	13.2	2.21e-05	0	42	0	74448896	19	5331
2026-01-27 01:11:36.65	12.38	10.35	-29.8	-33.2	13.2	6.52e-04	0	43	0	76546048	19	5320
2026-01-27 01:11:37.65	12.33	10.43	-29.8	-33.2	13.2	2.44e-03	0	42	0	78643200	19	5302
2026-01-27 01:11:38.65	12.28	10.52	-29.8	-33.2	13.2	4.58e-04	0	42	0	80740352	19	5325
2026-01-27 01:11:39.66	12.23	10.60	-29.8	-33.2	13.3	4.71e-04	0	42	0	81788928	19	5309
2026-01-27 01:11:40.66	12.17	10.69	-29.8	-33.0	13.4	6.10e-04	0	43	0	83886080	19	5252
2026-01-27 01:11:41.66	12.12	10.77	-29.8	-33.1	13.3	4.51e-04	0	42	0	85983232	19	5287
2026-01-27 01:11:42.66	12.07	10.86	-29.8	-33.2	13.3	3.17e-03	0	42	0	88080384	19	5304
2026-01-27 01:11:43.67	12.01	10.94	-29.8	-33.1	13.3	4.43e-04	0	42	0	90177536	19	5280
2026-01-27 01:11:44.68	11.96	11.03	-29.9	-33.3	13.2	4.32e-04	0	43	0	91226112	19	5357
2026-01-27 01:11:45.68	11.91	11.12	-29.8	-33.3	13.2	2.64e-03	0	43	0	93323264	19	5338
2026-01-27 01:11:46.68	11.85	11.20	-29.8	-33.0	13.3	5.28e-04	0	43	0	95420416	19	5248
2026-01-27 01:11:47.68	11.80	11.29	-29.8	-33.1	13.4	4.58e-04	0	43	0	97517568	19	5252
2026-01-27 01:11:48.68	11.74	11.38	-29.8	-33.1	13.3	2.43e-03	0	43	0	99614720	19	5269
2026-01-27 01:11:49.68	11.69	11.47	-29.8	-33.1	13.3	2.68e-03	0	43	0	100663296	19	5268
2026-01-27 01:11:50.69	11.63	11.55	-29.9	-33.3	13.2	1.75e-05	0	43	0	102760448	19	5361
2026-01-27 01:11:51.69	11.57	11.64	-29.8	-33.2	13.2	2.80e-03	0	43	0	104857600	19	5317
2026-01-27 01:11:52.69	11.52	11.73	-29.8	-33.0	13.4	2.69e-03	0	43	0	106954752	19	5249
2026-01-27 01:11:53.69	11.46	11.82	-29.7	-32.9	13.5	9.90e-06	0	43	0	108003328	19	5190
2026-01-27 01:11:54.69	11.40	11.91	-29.7	-32.9	13.5	2.75e-03	0	43	0	110100480	19	5182
2026-01-27 01:11:55.70	11.34	12.00	-29.7	-32.9	13.5	2.46e-03	0	43	0	112197632	19	5209
2026-01-27 01:11:56.70	11.29	12.09	-29.8	-33.1	13.4	4.92e-04	0	43	0	114294784	19	5270
2026-01-27 01:11:57.70	11.23	12.18	-29.9	-33.4	13.1	2.55e-03	0	43	0	116391936	19	5393
2026-01-27 01:11:58.70	11.17	12.27	-29.9	-33.3	13.2	2.80e-03	0	43	0	117440512	19	5338
2026-01-27 01:11:59.71	11.11	12.36	-29.7	-32.9	13.5	4.71e-04	0	43	0	119537664	19	5192
2026-01-27 01:12:00.71	11.05	12.45	-29.7	-32.8	13.6	3.11e-03	0	43	0	121634816	19	5166
2026-01-27 01:12:01.72	10.99	12.54	-29.7	-32.9	13.5	2.59e-03	0	43	0	123731968	19	5195
2026-01-27 01:12:02.73	10.93	12.63	-29.7	-32.9	13.5	4.10e-04	0	43	0	125829120	19	5167
2026-01-27 01:12:03.73	10.87	12.73	-29.8	-33.0	13.5	2.61e-03	0	43	0	126877696	19	5225
2026-01-27 01:12:04.74	10.80	12.82	-29.7	-32.9	13.5	2.37e-03	0	43	0	128974848	19	5194
2026-01-27 01:12:05.74	10.74	12.91	-29.7	-32.9	13.5	3.75e-04	0	43	0	131072000	19	5184
2026-01-27 01:12:06.75	10.68	13.01	-29.8	-33.2	13.3	2.34e-03	0	43	0	133169152	19	5307
2026-01-27 01:12:07.75	10.62	13.10	-29.8	-33.0	13.5	1.52e-05	0	43	0	135266304	19	5237
2026-01-27 01:12:08.75	10.55	13.19	-29.7	-32.7	13.7	3.81e-04	0	43	0	136314880	19	5124
2026-01-27 01:12:09.75	10.49	13.29	-29.6	-32.6	13.8	2.60e-03	0	43	0	138412032	19	5057
2026-01-27 01:12:10.76	10.43	13.38	-29.7	-32.7	13.8	2.56e-03	0	43	0	140509184	19	5086
2026-01-27 01:12:11.76	10.36	13.47	-29.6	-32.6	13.8	4.50e-06	0	43	0	142606336	19	5059
2026-01-27 01:12:12.76	10.30	13.57	-29.5	-32.4	13.9	2.46e-03	0	43	0	144703488	19	4977
2026-01-27 01:12:13.77	10.23	13.67	-29.6	-32.5	13.9	2.31e-03	0	43	0	145752064	19	5034
2026-01-27 01:12:14.77	10.17	13.76	-29.5	-32.3	14.0	4.50e-06	0	43	0	147849216	19	4969
2026-01-27 01:12:15.77	10.10	13.86	-29.6	-32.5	13.9	2.28e-03	0	43	0	149946368	19	5016
2026-01-27 01:12:16.78	10.03	13.95	-29.7	-32.8	13.7	2.46e-03	0	43	0	152043520	19	5129
2026-01-27 01:12:17.78	9.97	14.05	-29.6	-32.5	13.9	5.30e-06	0	43	0	154140672	19	5030
2026-01-27 01:12:18.79	9.90	14.15	-29.6	-32.5	13.9	1.50e-06	0	43	0	155189248	19	5010
2026-01-27 01:12:19.78	9.83	14.24	-29.7	-32.7	13.8	2.47e-03	0	43	0	157286400	19	5084
2026-01-27 01:12:20.79	9.76	14.34	-29.6	-32.5	13.9	2.19e-04	0	43	0	159383552	19	5006
2026-01-27 01:12:21.79	9.69	14.44	-29.6	-32.4	14.0	3.00e-06	0	43	0	161480704	19	4987
2026-01-27 01:12:22.79	9.63	14.54	-29.5	-32.3	14.0	2.21e-03	0	43	0	163577856	19	4969
2026-01-27 01:12:23.79	9.56	14.64	-29.6	-32.6	13.9	2.17e-04	0	43	0	164626432	19	5050
2026-01-27 01:12:24.79	9.49	14.73	-29.6	-32.5	13.7	2.74e-05	0	43	0	166723584	19	5033
2026-01-27 01:12:25.80	9.41	14.83	-29.7	-32.6	13.9	3.80e-06	0	43	0	168820736	19	5075
2026-01-27 01:12:26.80	9.34	14.93	-29.6	-32.5	13.6	2.06e-04	0	43	0	170917888	19	5017
2026-01-27 01:12:27.80	9.27	15.03	-29.5	-32.2	13.7	2.48e-03	0	43	0	171966464	19	4932
2026-01-27 01:12:28.80	9.20	15.13	-29.5	-32.2	14.2	1.50e-06	0	43	0	174063616	19	4917
2026-01-27 01:12:29.80	9.13	15.23	-29.6	-32.4	14.0	2.59e-05	0	43	0	176160768	19	4967
2026-01-27 01:12:30.80	9.05	15.34	-29.5	-32.3	14.1	2.30e-03	0	43	0	178257920	19	4931
2026-01-27 01:12:31.80	8.98	15.44	-29.5	-32.1	14.2	1.50e-06	0	43	0	180355072	19	4886
2026-01-27 01:12:32.80	8.91	15.54	-29.5	-32.3	14.2	0.00e+00	0	43	0	181403648	19	4934
2026-01-27 01:12:33.81	8.83	15.64	-29.5	-32.2	14.2	2.20e-03	0	43	0	183500800	19	4918
2026-01-27 01:12:34.81	8.75	15.74	-29.5	-32.6	14.3	0.00e+00	0	43	0	185597952	18	5162
2026-01-27 01:12:35.82	8.68	15.85	-29.5	-32.1	14.3	1.50e-06	0	43	0	187695104	19	4871
2026-01-27 01:12:36.81	8.60	15.95	-29.5	-32.2	14.2	7.00e-07	0	43	0	189792256	19	4915
2026-01-27 01:12:37.81	8.53	16.05	-29.5	-32.2	14.2	2.36e-03	0	43	0	190840832	19	4920
2026-01-27 01:12:38.81	8.45	16.16	-29.5	-32.1	14.3	2.51e-04	0	43	0	192937984	19	4870
2026-01-27 01:12:39.82	8.37	16.26	-29.5	-32.3	14.2	0.00e+00	0	43	0	195035136	19	4923
2026-01-27 01:12:40.82	8.29	16.37	-29.5	-32.1	14.3	2.22e-03	0	43	0	197132288	19	4873
2026-01-27 01:12:41.82	8.21	16.47	-29.5	-32.3	14.2	3.80e-04	0	43	0	199229440	19	4930
2026-01-27 01:12:42.82	8.13	16.58	-29.5	-32.3	14.2	3.10e-04	0	43	0	200278016	19	4929
2026-01-27 01:12:43.82	8.05	16.68	-29.6	-32.4	14.1	0.00e+00	0	43	0	202375168	19	4986
2026-01-27 01:12:44.82	7.97	16.79	-29.7	-32.6	14.0	1.83e-04	0	43	0	204472320	19	5033
2026-01-27 01:12:45.83	7.89	16.90	-29.6	-32.5	14.1	4.03e-04	0	43	0	206569472	19	5025
2026-01-27 01:12:46.83	7.80	17.00	-29.6	-32.4	14.1	2.20e-06	0	43	0	208666624	19	4975
2026-01-27 01:12:47.83	7.72	17.11	-29.7	-32.6	14.0	2.20e-06	0	43	0	209715200	19	5047
2026-01-27 01:12:48.84	7.64	17.22	-29.6	-32.3	14.2	1.72e-04	0	43	0	211812352	19	4951
2026-01-27 01:12:49.84	7.55	17.33	-29.6	-32.3	14.2	2.20e-06	0	43	0	213909504	19	4945
2026-01-27 01:12:50.85	7.47	17.44	-29.5	-32.2	14.2	2.20e-06	0	43	0	216006656	19	4907
2026-01-27 01:12:51.85	7.38	17.55	-29.7	-32.6	14.0	2.18e-03	0	43	0	217055232	19	5031
2026-01-27 01:12:52.86	7.30	17.66	-29.6	-32.4	14.2	7.00e-07	0	43	0	219152384	19	4954
2026-01-27 01:12:53.86	7.21	17.77	-29.5	-32.2	14.3	3.80e-06	0	43	0	221249536	19	4888
2026-01-27 01:12:54.87	7.12	17.88	-29.5	-32.1	14.3	0.00e+00	0	43	0	223346688	19	4868
2026-01-27 01:12:55.87	7.03	17.99	-29.5	-32.2	14.3	0.00e+00	0	43	0	225443840	19	4904
2026-01-27 01:12:56.88	6.94	18.10	-29.5	-32.1	14.4	1.53e-04	0	43	0	226492416	19	4875
2026-01-27 01:12:57.88	6.85	18.22	-29.5	-32.2	14.3	1.50e-06	0	43	0	228589568	19	4899
2026-01-27 01:12:58.89	6.76	18.33	-29.7	-32.5	14.2	3.00e-06	0	43	0	230686720	19	5018
2026-01-27 01:12:59.89	6.67	18.44	-29.6	-32.3	14.2	1.56e-04	0	43	0	232783872	19	4947
2026-01-27 01:13:00.89	6.58	18.56	-29.6	-32.3	14.3	1.15e-04	0	43	0	234881024	19	4928
2026-01-27 01:13:01.90	6.49	18.67	-29.6	-32.4	14.2	7.00e-07	0	43	0	235929600	19	4959
2026-01-27 01:13:02.90	6.39	18.78	-29.6	-32.3	14.3	2.14e-04	0	43	0	238026752	19	4934
2026-01-27 01:13:03.90	6.30	18.90	-29.7	-32.6	14.1	3.87e-04	0	43	0	240123904	19	5051
2026-01-27 01:13:04.90	6.21	19.01	-29.7	-32.7	14.0	7.00e-07	0	43	0	242221056	19	5086
2026-01-27 01:13:05.90	6.11	19.13	-29.8	-32.8	14.0	4.94e-04	0	43	0	244318208	19	5099
2026-01-27 01:13:06.91	6.01	19.25	-29.8	-32.8	14.0	3.86e-04	0	43	0	245366784	19	5108
2026-01-27 01:13:07.92	5.92	19.36	-29.8	-33.0	13.7	7.00e-07	0	43	0	247463936	19	5194
2026-01-27 01:13:08.92	5.82	19.48	-29.8	-32.9	12.5	4.00e-04	0	44	0	249561088	19	5139
2026-01-27 01:13:09.92	5.72	19.60	-29.8	-33.0	12.4	3.49e-04	0	43	0	251658240	19	5192
2026-01-27 01:13:10.93	5.62	19.72	-29.9	-33.2	13.7	3.80e-06	0	43	0	253755392	19	5253
2026-01-27 01:13:11.93	5.52	19.83	-29.9	-33.1	13.0	4.50e-06	0	44	0	254803968	19	5233
2026-01-27 01:13:12.94	5.42	19.95	-29.9	-33.3	13.7	1.86e-04	0	43	0	256901120	19	5274
2026-01-27 01:13:13.94	5.32	20.07	-29.9	-33.2	13.8	2.20e-06	0	43	0	258998272	19	5255
2026-01-27 01:13:14.94	5.22	20.19	-29.9	-33.3	13.7	2.10e-04	0	43	0	261095424	19	5280
2026-01-27 01:13:15.95	5.11	20.31	-30.0	-33.4	13.6	1.85e-03	0	44	0	263192576	19	5310
2026-01-27 01:13:16.95	5.01	20.43	-30.0	-32.9	13.5	7.60e-06	0	43	0	264241152	20	5048
2026-01-27 01:13:17.96	4.90	20.56	-30.0	-32.8	13.6	3.73e-04	0	43	0	266338304	20	5007
2026-01-27 01:13:18.96	4.80	20.68	-30.1	-33.1	13.5	2.41e-03	0	43	0	268435456	20	5107
2026-01-27 01:13:19.97	4.69	20.80	-30.1	-33.1	13.5	9.10e-06	0	43	0	270532608	20	5119
2026-01-27 01:13:20.97	4.58	20.92	-30.1	-33.2	13.4	2.15e-04	0	43	0	272629760	20	5143
2026-01-27 01:13:21.98	4.47	21.05	-30.1	-33.1	13.5	1.94e-04	0	44	0	273678336	20	5107
2026-01-27 01:13:22.98	4.36	21.17	-30.1	-33.2	13.4	1.61e-04	0	44	0	275775488	20	5159
2026-01-27 01:13:23.99	4.25	21.29	-30.3	-33.7	13.0	1.21e-04	0	43	0	277872640	20	5357
2026-01-27 01:13:24.99	4.14	21.42	-30.4	-34.1	12.8	3.58e-05	0	44	0	279969792	20	5484
2026-01-27 01:13:26.00	4.03	21.55	-30.5	-34.3	12.7	2.43e-04	0	44	0	282066944	20	5585
2026-01-27 01:13:27.00	3.92	21.67	-30.4	-34.0	12.9	1.39e-04	0	43	0	283115520	20	5464
2026-01-27 01:13:28.01	3.80	21.80	-30.3	-33.8	13.1	2.10e-04	0	44	0	285212672	20	5357
2026-01-27 01:13:29.01	3.69	21.92	-30.4	-33.9	13.0	2.51e-05	0	44	0	287309824	20	5420
2026-01-27 01:13:30.01	3.57	22.05	-30.3	-33.8	13.0	2.77e-03	0	44	0	289406976	20	5382
2026-01-27 01:13:31.02	3.45	22.18	-30.4	-33.9	13.0	1.66e-04	0	44	0	291504128	20	5421
2026-01-27 01:13:32.02	3.33	22.31	-30.6	-34.1	12.5	6.48e-05	0	44	0	292552704	21	5382
2026-01-27 01:13:33.02	3.22	22.44	-30.4	-33.6	12.8	2.67e-03	0	44	0	294649856	21	5188
2026-01-27 01:13:34.03	3.09	22.57	-30.6	-34.1	12.5	2.48e-03	0	43	0	296747008	21	5392
2026-01-27 01:13:35.03	2.97	22.70	-30.9	-34.8	12.1	1.60e-04	0	44	0	298844160	21	5681
2026-01-27 01:13:36.03	2.85	22.83	-30.7	-34.3	12.4	2.53e-03	0	44	0	300941312	21	5460
2026-01-27 01:13:37.03	2.73	22.96	-30.6	-34.1	12.6	2.78e-03	0	43	0	301989888	21	5365
2026-01-27 01:13:38.04	2.60	23.09	-30.6	-34.0	12.6	6.79e-05	0	44	0	304087040	21	5337
2026-01-27 01:13:39.04	2.48	23.22	-30.6	-34.0	12.7	1.20e-04	0	44	0	306184192	21	5330
2026-01-27 01:13:40.05	2.35	23.35	-30.8	-34.7	12.2	2.82e-03	0	44	0	308281344	21	5604
2026-01-27 01:13:41.05	2.22	23.49	-30.6	-34.0	12.6	3.11e-04	0	44	0	309329920	21	5333
2026-01-27 01:13:42.05	2.10	23.62	-30.5	-34.1	12.9	7.93e-05	0	44	0	311427072	20	5492
2026-01-27 01:13:43.05	1.97	23.75	-30.5	-34.2	12.9	2.44e-03	0	43	0	313524224	20	5512
2026-01-27 01:13:44.05	1.84	23.89	-30.5	-33.8	12.8	2.14e-04	0	44	0	315621376	21	5256
2026-01-27 01:13:45.05	1.70	24.02	-30.6	-34.1	12.5	7.24e-05	0	44	0	317718528	21	5385
2026-01-27 01:13:46.05	1.57	24.16	-30.5	-33.9	12.7	2.71e-03	0	44	0	318767104	21	5278
2026-01-27 01:13:47.05	1.44	24.29	-30.7	-34.2	12.6	2.75e-04	0	44	0	320864256	21	5409
2026-01-27 01:13:48.05	1.30	24.43	-30.6	-34.1	12.6	2.69e-03	0	43	0	322961408	21	5368
2026-01-27 01:13:49.05	1.17	24.56	-30.7	-34.2	12.6	8.46e-05	0	44	0	325058560	21	5389
2026-01-27 01:13:50.06	1.03	24.70	-30.7	-34.2	12.5	2.39e-04	0	44	0	327155712	21	5410
2026-01-27 01:13:51.06	0.89	24.84	-30.8	-34.6	12.2	2.71e-03	0	44	0	328204288	21	5594
2026-01-27 01:13:52.06	0.75	24.98	-30.7	-34.4	12.4	2.54e-03	0	44	0	330301440	21	5476
2026-01-27 01:13:53.07	0.60	25.12	-30.6	-34.1	12.6	2.71e-04	0	44	0	332398592	21	5368
2026-01-27 01:13:54.07	0.46	25.26	-30.7	-34.2	12.6	2.47e-03	0	44	0	334495744	21	5421
2026-01-27 01:13:55.08	0.32	25.40	-30.7	-34.4	12.5	2.68e-03	0	43	0	336592896	21	5472
2026-01-27 01:13:56.07	0.17	25.54	-30.7	-34.2	12.5	3.00e-04	0	44	0	337641472	21	5415
2026-01-27 01:13:57.08	0.02	25.68	-30.7	-34.3	12.6	2.70e-03	0	43	0	339738624	21	5450
2026-01-27 01:13:58.09	359.87	25.83	-30.8	-34.6	12.4	2.59e-03	0	43	0	341835776	21	5557
2026-01-27 01:13:59.09	359.72	25.97	-30.9	-34.8	12.1	3.76e-04	0	44	0	343932928	21	5658
2026-01-27 01:14:00.09	359.57	26.11	-31.0	-35.1	12.0	2.78e-03	0	44	0	346030080	21	5779
2026-01-27 01:14:01.10	359.42	26.26	-30.8	-34.6	12.3	2.45e-03	0	43	0	347078656	21	5559
2026-01-27 01:14:02.10	359.27	26.40	-30.8	-34.5	12.4	3.51e-04	0	43	0	349175808	21	5508
2026-01-27 01:14:03.11	359.11	26.54	-30.7	-34.4	12.5	2.41e-03	0	44	0	351272960	21	5492
2026-01-27 01:14:04.11	358.95	26.69	-30.7	-34.2	12.6	2.63e-03	0	44	0	353370112	21	5401
2026-01-27 01:14:05.12	358.79	26.84	-30.7	-34.3	12.5	2.95e-04	0	43	0	355467264	21	5422
2026-01-27 01:14:06.12	358.63	26.98	-30.8	-34.5	12.4	1.14e-04	0	43	0	356515840	21	5517
2026-01-27 01:14:07.12	358.47	27.13	-30.7	-34.4	12.5	2.60e-03	0	44	0	358612992	21	5468
2026-01-27 01:14:08.12	358.31	27.28	-30.7	-34.1	12.7	3.31e-04	0	44	0	360710144	21	5375
2026-01-27 01:14:09.13	358.14	27.43	-30.6	-34.0	12.7	2.46e-03	0	44	0	362807296	21	5332
2026-01-27 01:14:10.13	357.98	27.57	-30.7	-34.2	12.7	9.53e-05	0	43	0	363855872	21	5386
2026-01-27 01:14:11.13	357.81	27.72	-30.5	-33.7	12.9	3.01e-04	0	44	0	365953024	21	5199
2026-01-27 01:14:12.13	357.64	27.87	-30.5	-33.7	12.9	2.28e-03	0	43	0	368050176	21	5222
2026-01-27 01:14:13.13	357.47	28.02	-30.5	-34.1	13.0	3.50e-05	0	43	0	370147328	20	5457
2026-01-27 01:14:14.13	357.30	28.17	-30.4	-34.0	13.1	3.26e-04	0	43	0	372244480	20	5433
2026-01-27 01:14:15.14	357.12	28.32	-30.4	-33.9	13.1	2.44e-03	0	43	0	373293056	20	5403
2026-01-27 01:14:16.14	356.95	28.47	-30.6	-33.9	12.9	2.30e-03	0	44	0	375390208	21	5262
2026-01-27 01:14:17.13	356.77	28.62	-30.7	-34.3	12.6	8.01e-05	0	44	0	377487360	21	5414
2026-01-27 01:14:18.13	356.60	28.78	-30.5	-33.7	13.0	2.34e-03	0	43	0	379584512	21	5178
2026-01-27 01:14:19.13	356.41	28.93	-30.2	-33.4	13.5	2.12e-03	0	43	0	381681664	20	5200
2026-01-27 01:14:20.13	356.23	29.08	-30.3	-33.5	13.5	1.44e-05	0	43	0	382730240	20	5222
2026-01-27 01:14:21.14	356.05	29.24	-30.3	-33.6	13.4	2.04e-03	0	43	0	384827392	20	5245
2026-01-27 01:14:22.14	355.86	29.39	-30.5	-34.1	13.1	2.23e-03	0	43	0	386924544	20	5453
2026-01-27 01:14:23.15	355.67	29.55	-30.4	-33.4	13.2	2.06e-04	0	43	0	389021696	21	5084
2026-01-27 01:14:24.15	355.48	29.70	-30.5	-33.7	13.0	3.81e-05	0	43	0	391118848	21	5205
2026-01-27 01:14:25.16	355.29	29.86	-30.7	-34.3	12.7	1.93e-03	0	44	0	392167424	21	5417
2026-01-27 01:14:26.16	355.09	30.02	-30.7	-34.2	12.7	2.86e-04	0	43	0	394264576	21	5398
2026-01-27 01:14:27.16	354.90	30.17	-30.8	-34.4	12.5	1.05e-04	0	43	0	396361728	21	5482
2026-01-27 01:14:28.17	354.70	30.33	-30.9	-34.7	12.4	1.54e-04	0	43	0	398458880	21	5582
2026-01-27 01:14:29.17	354.50	30.49	-30.9	-34.7	12.3	4.08e-04	0	43	0	400556032	21	5614
2026-01-27 01:14:30.18	354.30	30.65	-30.9	-34.9	12.2	1.41e-04	0	43	0	401604608	21	5705
2026-01-27 01:14:31.17	354.10	30.81	-31.1	-34.9	11.9	3.03e-04	0	44	0	403701760	22	5560
2026-01-27 01:14:32.18	353.89	30.97	-31.3	-35.3	11.6	7.93e-04	0	44	0	405798912	22	5758
2026-01-27 01:14:33.18	353.68	31.13	-31.2	-35.2	11.8	2.43e-03	0	44	0	407896064	22	5682
2026-01-27 01:14:34.18	353.47	31.29	-31.3	-35.6	11.5	8.35e-04	0	43	0	408944640	22	5868
2026-01-27 01:14:35.19	353.26	31.45	-31.1	-34.8	12.0	5.80e-04	0	43	0	411041792	22	5533
2026-01-27 01:14:36.19	353.04	31.61	-31.1	-34.9	11.9	2.18e-03	0	44	0	413138944	22	5566
2026-01-27 01:14:37.20	352.83	31.77	-31.1	-34.7	12.1	3.10e-04	0	43	0	415236096	22	5484
2026-01-27 01:14:38.20	352.61	31.94	-31.2	-35.1	11.8	3.23e-04	0	44	0	417333248	22	5647
2026-01-27 01:14:39.21	352.39	32.10	-31.4	-35.6	11.4	1.40e-03	0	44	0	418381824	22	5873
2026-01-27 01:14:40.21	352.16	32.26	-31.5	-35.7	11.0	3.14e-03	0	43	0	420478976	23	5836
2026-01-27 01:14:41.21	351.94	32.43	-31.7	-36.2	10.6	3.31e-03	0	44	0	422576128	23	6066
2026-01-27 01:14:42.21	351.71	32.59	-31.5	-35.7	11.0	2.55e-03	0	44	0	424673280	23	5804
2026-01-27 01:14:43.22	351.48	32.75	-31.4	-35.2	11.3	3.25e-03	0	44	0	426770432	23	5595
2026-01-27 01:14:44.22	351.25	32.92	-31.4	-35.3	11.3	1.00e-03	0	44	0	427819008	23	5615
2026-01-27 01:14:45.22	351.01	33.08	-31.5	-35.9	11.3	1.14e-03	0	44	0	429916160	22	6008
2026-01-27 01:14:46.23	350.77	33.25	-31.5	-35.5	11.2	1.08e-03	0	44	0	432013312	23	5709
2026-01-27 01:14:47.23	350.53	33.41	-31.6	-36.0	10.8	2.40e-03	0	44	0	434110464	23	5959
2026-01-27 01:14:48.22	350.29	33.58	-31.4	-35.2	11.4	1.25e-03	0	44	0	436207616	23	5576
2026-01-27 01:14:49.23	350.05	33.75	-31.1	-34.8	12.0	4.39e-04	0	43	0	437256192	22	5530
2026-01-27 01:14:50.22	349.80	33.91	-30.9	-34.2	12.5	4.63e-04	0	44	0	439353344	22	5276
2026-01-27 01:14:51.23	349.55	34.08	-30.8	-34.3	12.7	1.11e-04	0	44	0	441450496	21	5418
2026-01-27 01:14:52.23	349.30	34.24	-30.8	-34.5	12.6	9.91e-05	0	44	0	443547648	21	5500
2026-01-27 01:14:53.23	349.05	34.41	-30.8	-34.4	12.7	1.13e-04	0	44	0	445644800	21	5458
2026-01-27 01:14:54.24	348.79	34.58	-31.0	-34.6	12.2	1.45e-04	0	44	0	446693376	22	5439
2026-01-27 01:14:55.25	348.52	34.75	-31.1	-34.8	12.1	2.32e-04	0	44	0	448790528	22	5526
2026-01-27 01:14:56.25	348.26	34.92	-31.3	-35.3	11.8	3.84e-04	0	44	0	450887680	22	5718
2026-01-27 01:14:57.24	348.00	35.08	-31.1	-34.9	12.0	9.70e-04	0	44	0	452984832	22	5534
2026-01-27 01:14:58.24	347.73	35.25	-31.3	-35.3	11.7	4.29e-04	0	44	0	454033408	22	5725
2026-01-27 01:14:59.25	347.46	35.42	-31.6	-35.7	11.1	9.67e-04	0	44	0	456130560	23	5804
2026-01-27 01:15:00.25	347.18	35.59	-31.6	-35.9	11.0	1.61e-03	0	44	0	458227712	23	5880
2026-01-27 01:15:01.24	346.91	35.75	-31.7	-36.2	10.8	2.34e-03	0	44	0	460324864	23	6016
2026-01-27 01:15:02.24	346.63	35.92	-31.7	-36.1	10.8	2.61e-03	0	43	0	462422016	23	6012
2026-01-27 01:15:03.25	346.34	36.09	-31.8	-36.4	10.6	2.78e-03	0	44	0	463470592	23	6111
2026-01-27 01:15:04.25	346.06	36.26	-31.8	-36.4	10.5	3.99e-03	0	44	0	465567744	23	6156
2026-01-27 01:15:05.26	345.77	36.43	-31.7	-36.0	10.9	2.21e-03	0	43	0	467664896	23	5928
2026-01-27 01:15:06.27	345.47	36.60	-31.8	-36.6	10.4	4.37e-03	0	44	0	469762048	23	6258
2026-01-27 01:15:07.26	345.18	36.77	-31.6	-35.7	11.1	3.45e-03	0	44	0	471859200	23	5802
2026-01-27 01:15:08.26	344.88	36.94	-31.4	-35.2	11.5	1.10e-03	0	44	0	472907776	23	5551
2026-01-27 01:15:09.26	344.58	37.11	-31.3	-35.5	11.7	8.02e-04	0	44	0	475004928	22	5784
2026-01-27 01:15:10.26	344.28	37.28	-31.3	-35.5	11.6	7.26e-04	0	44	0	477102080	22	5792
2026-01-27 01:15:11.26	343.97	37.44	-31.1	-34.8	12.1	3.56e-04	0	44	0	479199232	22	5501
2026-01-27 01:15:12.26	343.66	37.61	-30.1	-33.5	12.5	2.12e-04	0	44	0	481296384	22	5311
2026-01-27 01:15:13.27	343.34	37.78	-31.1	-34.7	12.2	2.16e-04	0	44	0	482344960	22	5445
2026-01-27 01:15:14.27	343.03	37.95	-31.1	-34.9	11.5	2.47e-04	0	44	0	484442112	22	5527
2026-01-27 01:15:15.28	342.70	38.12	-31.2	-35.0	11.3	2.72e-04	0	44	0	486539264	22	5617
2026-01-27 01:15:16.27	342.38	38.29	-31.2	-34.9	12.0	3.00e-04	0	44	0	488636416	22	5556
2026-01-27 01:15:17.27	342.06	38.45	-31.2	-34.9	11.7	2.28e-04	0	44	0	490733568	22	5553
2026-01-27 01:15:18.28	341.72	38.62	-31.2	-34.9	11.8	3.90e-04	0	44	0	491782144	22	5555
2026-01-27 01:15:19.28	341.39	38.79	-31.0	-34.4	12.4	2.00e-04	0	44	0	493879296	22	5342
2026-01-27 01:15:20.28	341.05	38.96	-31.0	-34.9	12.3	1.22e-04	0	44	0	495976448	21	5652
2026-01-27 01:15:21.29	340.71	39.13	-30.9	-34.7	12.5	2.23e-03	0	44	0	498073600	21	5593
2026-01-27 01:15:22.29	340.36	39.29	-31.0	-34.9	12.4	1.51e-04	0	44	0	499122176	21	5640
2026-01-27 01:15:23.29	340.01	39.46	-30.9	-34.2	12.6	1.59e-04	0	44	0	501219328	22	5268
2026-01-27 01:15:24.29	339.66	39.62	-31.0	-34.8	12.4	1.37e-04	0	44	0	503316480	21	5621
2026-01-27 01:15:25.30	339.30	39.79	-31.2	-35.1	12.0	3.66e-04	0	44	0	505413632	22	5624
2026-01-27 01:15:26.29	338.95	39.95	-31.4	-35.8	11.5	7.20e-04	0	44	0	507510784	22	5928
2026-01-27 01:15:27.30	338.58	40.12	-31.4	-35.7	11.5	7.86e-04	0	44	0	508559360	22	5882
2026-01-27 01:15:28.30	338.21	40.28	-31.6	-35.7	11.2	1.24e-03	0	44	0	510656512	23	5774
2026-01-27 01:15:29.30	337.84	40.44	-31.7	-36.0	10.9	2.60e-03	0	44	0	512753664	23	5938
2026-01-27 01:15:30.31	337.47	40.61	-31.4	-35.8	11.5	1.15e-03	0	44	0	514850816	22	5948
2026-01-27 01:15:31.31	337.09	40.77	-31.5	-35.9	11.4	9.13e-04	0	44	0	516947968	22	5987
2026-01-27 01:15:32.32	336.70	40.93	-31.8	-36.4	10.7	3.63e-03	0	44	0	517996544	23	6099
2026-01-27 01:15:33.32	336.32	41.09	-31.7	-36.1	10.8	2.39e-03	0	44	0	520093696	23	5984
2026-01-27 01:15:34.32	335.93	41.25	-31.7	-36.1	10.8	2.79e-03	0	44	0	522190848	23	5979
2026-01-27 01:15:35.33	335.53	41.41	-31.7	-36.3	10.7	4.57e-03	0	44	0	524288000	23	6073
2026-01-27 01:15:36.34	335.13	41.57	-31.8	-36.4	10.7	3.30e-03	0	44	0	526385152	23	6112
2026-01-27 01:15:37.34	334.73	41.72	-31.8	-36.5	10.6	3.15e-03	0	44	0	527433728	23	6151
2026-01-27 01:15:38.35	334.32	41.88	-31.8	-36.4	10.6	4.66e-03	0	44	0	529530880	23	6132
2026-01-27 01:15:39.35	333.91	42.03	-31.7	-36.2	10.8	3.49e-03	0	44	0	531628032	23	6025
2026-01-27 01:15:40.35	333.50	42.19	-31.9	-36.7	10.5	3.13e-03	0	44	0	533725184	23	6266
2026-01-27 01:15:41.36	333.08	42.34	-32.0	-36.8	10.0	8.25e-03	0	44	0	535822336	24	6207
2026-01-27 01:15:42.36	332.66	42.49	-31.8	-36.5	10.6	4.67e-03	0	44	0	536870912	23	6182
2026-01-27 01:15:43.37	332.23	42.64	-31.4	-35.1	11.5	1.34e-03	0	44	0	538968064	23	5533
2026-01-27 01:15:44.37	331.80	42.79	-30.9	-33.7	12.5	4.31e-04	0	44	0	541065216	23	4966
2026-01-27 01:15:45.38	331.36	42.94	-30.7	-34.0	13.0	4.07e-04	0	44	0	543162368	21	5289
2026-01-27 01:15:46.38	330.93	43.09	-30.5	-33.5	13.3	2.36e-05	0	44	0	545259520	21	5108
2026-01-27 01:15:47.38	330.48	43.23	-30.3	-33.4	13.8	2.23e-04	0	44	0	546308096	20	5160
2026-01-27 01:15:48.39	330.03	43.38	-30.0	-32.8	14.1	1.30e-03	0	44	0	548405248	20	4938
2026-01-27 01:15:49.39	329.59	43.52	-29.9	-32.3	14.5	7.00e-07	0	44	0	550502400	20	4768
2026-01-27 01:15:50.40	329.13	43.66	-29.9	-32.8	14.5	2.18e-03	0	44	0	552599552	19	5059
2026-01-27 01:15:51.40	328.67	43.80	-29.9	-32.4	14.4	2.69e-04	0	44	0	554696704	20	4784
2026-01-27 01:15:52.40	328.21	43.94	-29.8	-32.1	14.5	0.00e+00	0	44	0	555745280	20	4711
2026-01-27 01:15:53.41	327.74	44.08	-29.9	-32.8	14.5	2.49e-03	0	44	0	557842432	19	5037
2026-01-27 01:15:54.42	327.27	44.21	-29.9	-32.9	14.4	1.79e-04	0	44	0	559939584	19	5084
2026-01-27 01:15:55.42	326.79	44.35	-29.9	-32.9	14.4	7.00e-07	0	44	0	562036736	19	5076
2026-01-27 01:15:56.43	326.31	44.48	-30.0	-32.7	14.2	2.60e-03	0	44	0	564133888	20	4927
2026-01-27 01:15:57.43	325.83	44.61	-30.1	-32.9	14.1	2.68e-03	0	44	0	565182464	20	4993
2026-01-27 01:15:58.44	325.34	44.74	-30.1	-33.0	14.0	3.00e-06	0	44	0	567279616	20	5016
2026-01-27 01:15:59.44	324.85	44.86	-30.1	-32.9	14.1	2.07e-03	0	44	0	569376768	20	4989
2026-01-27 01:16:00.45	324.35	44.99	-30.2	-33.3	13.9	2.64e-03	0	44	0	571473920	20	5106
2026-01-27 01:16:01.45	323.86	45.11	-30.2	-33.2	13.9	4.50e-06	0	44	0	573571072	20	5087
2026-01-27 01:16:02.45	323.36	45.23	-30.2	-33.3	13.9	1.73e-03	0	44	0	574619648	20	5107
2026-01-27 01:16:03.46	322.85	45.34	-30.6	-33.7	13.3	1.57e-03	0	44	0	576716800	21	5178
2026-01-27 01:16:04.46	322.34	45.46	-30.8	-34.5	12.6	8.16e-05	0	44	0	578813952	21	5496
2026-01-27 01:16:05.46	321.83	45.57	-31.3	-35.2	11.9	2.25e-03	0	44	0	580911104	22	5681
2026-01-27 01:16:06.47	321.31	45.68	-31.3	-35.4	11.7	2.79e-03	0	44	0	583008256	22	5753
2026-01-27 01:16:07.46	320.79	45.79	-31.1	-34.7	12.2	3.27e-04	0	44	0	584056832	22	5437
2026-01-27 01:16:08.47	320.26	45.90	-30.9	-34.2	12.6	1.15e-04	0	44	0	586153984	22	5251
2026-01-27 01:16:09.47	319.74	46.00	-30.9	-34.6	12.7	1.84e-03	0	44	0	588251136	21	5508
2026-01-27 01:16:10.48	319.20	46.10	-30.8	-34.3	12.9	1.66e-04	0	44	0	590348288	21	5383
2026-01-27 01:16:11.48	318.67	46.20	-30.8	-34.3	12.8	6.66e-04	0	44	0	591396864	21	5402
2026-01-27 01:16:12.48	318.13	46.30	-31.0	-34.5	12.4	3.40e-04	0	44	0	593494016	22	5356
2026-01-27 01:16:13.49	317.59	46.39	-31.0	-34.5	12.4	2.72e-04	0	44	0	595591168	22	5360
2026-01-27 01:16:14.49	317.04	46.48	-31.3	-35.2	12.0	1.69e-04	0	44	0	597688320	22	5653
2026-01-27 01:16:15.49	316.50	46.57	-31.4	-35.5	11.7	6.00e-04	0	44	0	599785472	22	5812
2026-01-27 01:16:16.49	315.95	46.66	-31.3	-35.3	11.9	5.15e-04	0	44	0	600834048	22	5719
2026-01-27 01:16:17.50	315.39	46.74	-31.2	-34.9	12.1	1.01e-03	0	44	0	602931200	22	5536
2026-01-27 01:16:18.50	314.84	46.82	-31.4	-35.8	11.5	1.43e-03	0	44	0	605028352	22	5917
2026-01-27 01:16:19.50	314.28	46.90	-31.7	-36.0	11.0	1.47e-03	0	44	0	607125504	23	5897
2026-01-27 01:16:20.51	313.71	46.97	-31.6	-35.9	11.1	4.07e-03	0	44	0	609222656	23	5871
2026-01-27 01:16:21.50	313.16	47.04	-31.5	-35.4	11.4	3.13e-03	0	44	0	610271232	23	5670
2026-01-27 01:16:22.51	312.58	47.11	-31.6	-35.9	11.1	1.19e-03	0	44	0	612368384	23	5857
2026-01-27 01:16:23.51	312.02	47.18	-31.7	-36.2	10.8	4.15e-03	0	44	0	614465536	23	6018
2026-01-27 01:16:24.51	311.45	47.24	-31.7	-36.1	11.0	4.52e-03	0	44	0	616562688	23	5987
2026-01-27 01:16:25.52	310.87	47.30	-31.7	-36.0	11.0	1.80e-03	0	44	0	618659840	23	5928
2026-01-27 01:16:26.52	310.29	47.36	-31.5	-35.3	11.6	1.16e-03	0	44	0	619708416	23	5603
2026-01-27 01:16:27.52	309.71	47.41	-31.3	-35.2	12.0	2.27e-03	0	44	0	621805568	22	5644
2026-01-27 01:16:28.53	309.13	47.46	-31.1	-34.8	12.2	4.14e-04	0	44	0	623902720	22	5467
2026-01-27 01:16:29.54	308.54	47.51	-31.2	-35.0	12.1	2.58e-04	0	44	0	625999872	22	5569
2026-01-27 01:16:30.54	307.96	47.55	-31.3	-35.1	12.0	1.71e-03	0	44	0	628097024	22	5634
2026-01-27 01:16:31.54	307.38	47.59	-31.1	-34.7	12.4	2.57e-04	0	44	0	629145600	22	5426
2026-01-27 01:16:32.54	306.79	47.63	-31.1	-34.6	12.3	1.81e-04	0	44	0	631242752	22	5405
2026-01-27 01:16:33.55	306.20	47.66	-31.2	-35.1	12.1	1.99e-04	0	44	0	633339904	22	5623
2026-01-27 01:16:34.55	305.61	47.69	-31.3	-35.3	11.9	4.27e-04	0	44	0	635437056	22	5689
2026-01-27 01:16:35.55	305.02	47.72	-31.3	-35.4	11.8	6.04e-04	0	44	0	636485632	22	5754
2026-01-27 01:16:36.55	304.43	47.75	-31.4	-35.5	11.7	6.18e-04	0	44	0	638582784	22	5797
2026-01-27 01:16:37.55	303.84	47.77	-31.6	-35.8	11.2	8.36e-04	0	44	0	640679936	23	5803
2026-01-27 01:16:38.55	303.25	47.78	-31.7	-36.0	11.0	2.12e-03	0	44	0	642777088	23	5912
2026-01-27 01:16:39.55	302.65	47.80	-31.7	-36.0	11.1	1.65e-03	0	44	0	644874240	23	5905
2026-01-27 01:16:40.55	302.06	47.81	-31.7	-36.0	11.0	1.97e-03	0	44	0	645922816	23	5902
2026-01-27 01:16:41.55	301.47	47.82	-31.8	-36.3	10.8	2.55e-03	0	44	0	648019968	23	6069
2026-01-27 01:16:42.55	300.87	47.82	-31.7	-36.0	10.9	3.29e-03	0	44	0	650117120	23	5936
2026-01-27 01:16:43.56	300.27	47.82	-31.6	-35.7	11.2	1.60e-03	0	44	0	652214272	23	5769
2026-01-27 01:16:44.56	299.68	47.82	-31.6	-35.8	11.1	1.40e-03	0	44	0	654311424	23	5845
2026-01-27 01:16:45.56	299.09	47.81	-31.6	-35.7	11.2	1.73e-03	0	44	0	655360000	23	5778
2026-01-27 01:16:46.56	298.49	47.80	-31.8	-36.3	10.9	1.71e-03	0	44	0	657457152	23	6063
2026-01-27 01:16:47.57	297.89	47.79	-31.7	-36.1	10.8	3.13e-03	0	44	0	659554304	23	5995
2026-01-27 01:16:48.57	297.30	47.78	-31.5	-35.4	11.4	1.69e-03	0	44	0	661651456	23	5646
2026-01-27 01:16:49.57	296.71	47.76	-31.3	-34.7	11.9	6.32e-04	0	44	0	663748608	23	5361
2026-01-27 01:16:50.57	296.12	47.73	-31.2	-34.9	12.1	2.61e-04	0	44	0	664797184	22	5542
2026-01-27 01:16:51.57	295.53	47.71	-31.4	-35.6	11.7	3.33e-04	0	44	0	666894336	22	5837
2026-01-27 01:16:52.58	294.93	47.68	-31.5	-35.6	11.3	7.37e-04	0	44	0	668991488	23	5735
2026-01-27 01:16:53.58	294.35	47.65	-31.2	-35.1	12.0	5.68e-04	0	44	0	671088640	22	5637
2026-01-27 01:16:54.58	293.76	47.61	-31.0	-34.4	12.5	1.97e-04	0	44	0	673185792	22	5313
2026-01-27 01:16:55.59	293.17	47.57	-31.0	-34.4	12.4	1.17e-04	0	44	0	674234368	22	5339
2026-01-27 01:16:56.59	292.58	47.53	-31.1	-34.6	12.3	2.88e-04	0	44	0	676331520	22	5398
2026-01-27 01:16:57.58	292.01	47.48	-31.2	-35.1	12.0	2.13e-04	0	44	0	678428672	22	5626
2026-01-27 01:16:58.58	291.43	47.44	-31.4	-35.6	11.7	5.80e-04	0	44	0	680525824	22	5826
2026-01-27 01:16:59.58	290.85	47.38	-31.5	-35.9	11.5	6.10e-04	0	44	0	681574400	22	5965
2026-01-27 01:17:00.58	290.27	47.33	-31.4	-35.5	11.6	7.29e-04	0	44	0	683671552	22	5815
2026-01-27 01:17:01.58	289.70	47.27	-31.3	-35.4	11.7	4.77e-04	0	44	0	685768704	22	5735
2026-01-27 01:17:02.58	289.13	47.21	-31.4	-35.8	11.5	6.14e-04	0	44	0	687865856	22	5918
2026-01-27 01:17:03.59	288.55	47.15	-31.2	-35.1	11.9	4.86e-04	0	44	0	689963008	22	5608
2026-01-27 01:17:04.59	287.98	47.08	-31.1	-34.7	12.2	2.64e-04	0	44	0	691011584	22	5464
2026-01-27 01:17:05.59	287.42	47.01	-31.1	-34.6	12.3	1.54e-04	0	44	0	693108736	22	5397
2026-01-27 01:17:06.59	286.85	46.94	-31.2	-34.9	12.1	2.58e-04	0	44	0	695205888	22	5529
2026-01-27 01:17:07.60	286.29	46.86	-31.4	-35.6	11.6	4.00e-04	0	44	0	697303040	22	5853
2026-01-27 01:17:08.60	285.73	46.78	-31.6	-35.7	11.2	1.47e-03	0	44	0	699400192	23	5794
2026-01-27 01:17:09.60	285.18	46.70	-31.6	-35.9	11.1	1.45e-03	0	44	0	700448768	23	5889
2026-01-27 01:17:10.60	284.63	46.61	-31.6	-35.8	11.1	2.26e-03	0	44	0	702545920	23	5854
2026-01-27 01:17:11.61	284.07	46.53	-31.5	-35.6	11.3	1.26e-03	0	44	0	704643072	23	5721
2026-01-27 01:17:12.61	283.53	46.44	-31.5	-35.4	11.4	1.13e-03	0	44	0	706740224	23	5670
2026-01-27 01:17:13.62	282.98	46.34	-31.0	-34.8	11.5	8.75e-04	0	44	0	708837376	23	5572
2026-01-27 01:17:14.62	282.44	46.25	-31.4	-35.7	11.4	8.77e-04	0	44	0	709885952	22	5888
2026-01-27 01:17:15.62	281.91	46.15	-31.2	-34.9	12.0	5.07e-04	0	44	0	711983104	22	5534
2026-01-27 01:17:16.62	281.37	46.05	-31.2	-35.1	11.1	2.96e-03	0	44	0	714080256	22	5629
2026-01-27 01:17:17.62	280.84	45.95	-31.5	-36.0	10.8	6.42e-04	0	44	0	716177408	22	6017
2026-01-27 01:17:18.63	280.31	45.84	-31.4	-35.2	11.5	1.14e-03	0	44	0	718274560	23	5580
2026-01-27 01:17:19.63	279.79	45.74	-31.4	-35.7	11.4	7.21e-04	0	44	0	719323136	22	5911
2026-01-27 01:17:20.64	279.27	45.63	-31.3	-35.4	11.7	6.83e-04	0	44	0	721420288	22	5764
2026-01-27 01:17:21.64	278.75	45.51	-31.4	-35.6	11.5	4.83e-04	0	44	0	723517440	22	5866
2026-01-27 01:17:22.64	278.24	45.40	-31.2	-35.2	11.8	6.35e-04	0	44	0	725614592	22	5671
2026-01-27 01:17:23.64	277.74	45.28	-30.9	-34.8	12.5	2.56e-03	0	44	0	726663168	21	5620
2026-01-27 01:17:24.65	277.23	45.16	-30.5	-33.7	13.2	4.57e-05	0	44	0	728760320	21	5161
2026-01-27 01:17:25.65	276.73	45.04	-30.3	-33.5	13.7	1.98e-05	0	44	0	730857472	20	5197
2026-01-27 01:17:26.66	276.23	44.92	-30.1	-32.9	14.0	1.82e-03	0	44	0	732954624	20	5000
2026-01-27 01:17:27.67	275.73	44.79	-30.1	-33.1	13.9	7.00e-07	0	44	0	735051776	20	5057
2026-01-27 01:17:28.67	275.24	44.67	-30.1	-33.1	13.9	1.60e-04	0	44	0	737148928	20	5052
2026-01-27 01:17:29.68	274.75	44.54	-30.1	-33.1	13.9	2.20e-06	0	44	0	738197504	20	5051
2026-01-27 01:17:30.68	274.27	44.41	-30.2	-33.3	13.8	3.80e-06	0	44	0	740294656	20	5122
2026-01-27 01:17:31.68	273.80	44.27	-30.1	-33.0	14.0	2.15e-04	0	44	0	742391808	20	5029
2026-01-27 01:17:32.69	273.32	44.14	-29.8	-32.7	14.5	2.41e-04	0	44	0	744488960	19	5032
2026-01-27 01:17:33.70	272.85	44.00	-29.6	-32.2	14.8	0.00e+00	0	44	0	745537536	19	4828
2026-01-27 01:17:34.70	272.38	43.86	-29.4	-32.2	15.1	1.88e-03	0	44	0	747634688	18	4960
2026-01-27 01:17:35.71	271.92	43.72	-29.1	-31.4	15.6	9.91e-05	0	44	0	749731840	18	4690
2026-01-27 01:17:36.72	271.46	43.58	-29.1	-31.3	15.7	0.00e+00	0	44	0	751828992	18	4655
2026-01-27 01:17:37.72	271.01	43.44	-29.4	-32.0	15.2	2.05e-03	0	44	0	753926144	18	4886
2026-01-27 01:17:38.73	270.55	43.30	-29.6	-32.2	14.9	1.73e-04	0	44	0	754974720	19	4846
2026-01-27 01:17:39.73	270.11	43.15	-29.6	-32.2	14.8	0.00e+00	0	44	0	757071872	19	4836
2026-01-27 01:17:40.73	269.67	43.01	-29.3	-32.0	15.3	2.46e-03	0	44	0	759169024	18	4882
2026-01-27 01:17:41.74	269.23	42.86	-29.0	-31.1	15.8	2.31e-03	0	44	0	761266176	18	4602
2026-01-27 01:17:42.74	268.80	42.71	-28.8	-30.7	15.9	0.00e+00	0	44	0	763363328	18	4480
2026-01-27 01:17:43.74	268.37	42.56	-28.8	-31.3	15.9	2.11e-03	0	44	0	764411904	17	4765
2026-01-27 01:17:44.74	267.95	42.41	-28.8	-31.1	16.0	2.12e-03	0	44	0	766509056	17	4717
2026-01-27 01:17:45.75	267.52	42.25	-28.8	-31.2	16.0	0.00e+00	0	44	0	768606208	17	4739
2026-01-27 01:17:46.74	267.11	42.10	-29.1	-31.4	15.5	1.50e-04	0	44	0	770703360	18	4708
2026-01-27 01:17:47.75	266.70	41.94	-29.1	-31.4	15.6	1.83e-03	0	44	0	772800512	18	4710
2026-01-27 01:17:48.75	266.29	41.79	-29.1	-31.5	15.6	3.20e-05	0	44	0	773849088	18	4719
2026-01-27 01:17:49.75	265.88	41.63	-29.3	-31.9	15.3	2.84e-04	0	44	0	775946240	18	4851
2026-01-27 01:17:50.76	265.48	41.47	-29.0	-31.3	15.6	2.16e-03	0	44	0	778043392	18	4656
2026-01-27 01:17:51.77	265.08	41.31	-28.9	-30.8	15.9	1.31e-04	0	44	0	780140544	18	4512
2026-01-27 01:17:52.77	264.69	41.15	-28.8	-31.2	16.0	2.80e-03	0	44	0	782237696	17	4749
2026-01-27 01:17:53.77	264.30	40.99	-28.9	-31.4	15.8	1.99e-03	0	44	0	783286272	17	4813
2026-01-27 01:17:54.78	263.91	40.83	-29.3	-31.9	15.3	1.63e-04	0	44	0	785383424	18	4859
2026-01-27 01:17:55.78	263.53	40.67	-29.4	-32.2	15.0	2.50e-03	0	44	0	787480576	18	4975
2026-01-27 01:17:56.78	263.15	40.51	-29.5	-32.4	15.0	6.25e-04	0	44	0	789577728	18	5036
2026-01-27 01:17:57.78	262.78	40.35	-29.4	-31.8	15.0	1.50e-04	0	44	0	791674880	19	4705
2026-01-27 01:17:58.78	262.41	40.18	-29.3	-32.0	15.2	2.63e-03	0	44	0	792723456	18	4910
2026-01-27 01:17:59.78	262.05	40.02	-29.4	-32.2	15.1	2.44e-03	0	44	0	794820608	18	4966
2026-01-27 01:18:00.78	261.68	39.85	-29.3	-31.9	15.2	1.06e-05	0	44	0	796917760	18	4880
2026-01-27 01:18:01.77	261.33	39.69	-29.3	-31.8	15.3	1.99e-03	0	44	0	799014912	18	4845
2026-01-27 01:18:02.78	260.97	39.52	-29.4	-32.2	15.0	2.58e-03	0	44	0	800063488	18	4966
2026-01-27 01:18:03.78	260.62	39.36	-29.4	-32.1	15.0	7.00e-07	0	44	0	802160640	18	4945
2026-01-27 01:18:04.79	260.27	39.19	-29.3	-31.8	15.2	1.71e-03	0	44	0	804257792	18	4838
2026-01-27 01:18:05.79	259.93	39.02	-29.2	-31.6	15.4	1.85e-03	0	44	0	806354944	18	4776
2026-01-27 01:18:06.80	259.58	38.85	-29.3	-31.9	15.2	0.00e+00	0	44	0	808452096	18	4876
2026-01-27 01:18:07.80	259.25	38.69	-29.4	-32.2	15.0	1.58e-03	0	44	0	809500672	18	4961
2026-01-27 01:18:08.81	258.91	38.52	-29.4	-32.1	15.1	1.30e-03	0	44	0	811597824	18	4943
2026-01-27 01:18:09.82	258.58	38.35	-29.3	-32.0	15.2	0.00e+00	0	44	0	813694976	18	4891
2026-01-27 01:18:10.82	258.25	38.18	-29.3	-31.9	15.2	0.00e+00	0	44	0	815792128	18	4878
2026-01-27 01:18:11.82	257.93	38.01	-29.4	-32.3	14.9	1.98e-03	0	44	0	817889280	18	5001
2026-01-27 01:18:12.82	257.61	37.84	-29.4	-31.7	15.0	0.00e+00	0	44	0	818937856	19	4683
2026-01-27 01:18:13.82	257.29	37.67	-29.4	-32.2	15.0	2.03e-03	0	44	0	821035008	18	4958
2026-01-27 01:18:14.82	256.98	37.50	-29.5	-32.0	14.8	2.35e-03	0	44	0	823132160	19	4795
2026-01-27 01:18:15.82	256.67	37.33	-29.8	-32.8	14.3	7.00e-07	0	44	0	825229312	19	5071
2026-01-27 01:18:16.82	256.36	37.17	-30.0	-33.1	14.1	2.48e-03	0	44	0	827326464	19	5192
2026-01-27 01:18:17.82	256.06	37.00	-30.0	-32.8	13.9	3.00e-06	0	44	0	828375040	20	4952
2026-01-27 01:18:18.82	255.76	36.83	-30.2	-33.3	13.6	3.00e-06	0	44	0	830472192	20	5136
2026-01-27 01:18:19.83	255.46	36.66	-30.2	-33.3	13.6	2.28e-03	0	44	0	832569344	20	5167
2026-01-27 01:18:20.83	255.16	36.49	-30.3	-33.6	13.4	2.20e-03	0	44	0	834666496	20	5262
2026-01-27 01:18:21.83	254.87	36.32	-30.4	-33.8	13.3	1.60e-05	0	44	0	836763648	20	5354
2026-01-27 01:18:22.84	254.58	36.15	-30.5	-33.8	12.9	2.15e-03	0	44	0	837812224	21	5254
2026-01-27 01:18:23.84	254.30	35.98	-30.7	-34.2	12.7	2.50e-03	0	44	0	839909376	21	5378
2026-01-27 01:18:24.85	254.01	35.81	-30.7	-34.4	12.5	8.01e-05	0	44	0	842006528	21	5462
2026-01-27 01:18:25.85	253.73	35.64	-30.8	-34.6	12.4	2.65e-03	0	44	0	844103680	21	5567
2026-01-27 01:18:26.86	253.45	35.47	-30.9	-34.8	12.2	2.67e-03	0	44	0	846200832	21	5637
2026-01-27 01:18:27.86	253.18	35.30	-31.1	-34.8	11.8	3.75e-04	0	44	0	847249408	22	5553
2026-01-27 01:18:28.86	252.91	35.13	-31.1	-35.1	11.7	6.17e-04	0	44	0	849346560	22	5666
2026-01-27 01:18:29.86	252.64	34.96	-31.2	-35.2	11.6	3.05e-03	0	44	0	851443712	22	5710
2026-01-27 01:18:30.87	252.38	34.79	-31.2	-35.1	11.6	7.29e-04	0	44	0	853540864	22	5691
2026-01-27 01:18:31.88	252.11	34.62	-31.4	-36.0	11.0	1.30e-03	0	44	0	855638016	22	6089
2026-01-27 01:18:32.88	251.85	34.45	-31.4	-36.1	10.9	1.71e-03	0	44	0	856686592	22	6128
2026-01-27 01:18:33.88	251.59	34.29	-31.7	-36.3	10.4	3.06e-03	0	44	0	858783744	23	6149
2026-01-27 01:18:34.89	251.34	34.12	-31.6	-36.2	10.5	4.42e-03	0	44	0	860880896	23	6115
2026-01-27 01:18:35.89	251.09	33.95	-31.6	-36.1	10.6	4.13e-03	0	44	0	862978048	23	6040
2026-01-27 01:18:36.90	250.84	33.78	-31.7	-36.5	10.3	3.94e-03	0	44	0	864026624	23	6241
2026-01-27 01:18:37.90	250.59	33.61	-31.8	-36.8	10.0	9.53e-03	0	44	0	866123776	23	6434
2026-01-27 01:18:38.90	250.35	33.45	-31.8	-36.9	9.9	7.43e-03	0	44	0	868220928	23	6484
2026-01-27 01:18:39.91	250.10	33.28	-31.8	-36.9	10.0	7.58e-03	0	44	0	870318080	23	6438
2026-01-27 01:18:40.90	249.87	33.12	-31.7	-36.6	10.2	9.51e-03	0	44	0	872415232	23	6299
2026-01-27 01:18:41.90	249.63	32.95	-31.9	-37.1	9.8	9.55e-03	0	44	0	873463808	23	6570
2026-01-27 01:18:42.91	249.39	32.78	-31.8	-36.7	10.1	8.53e-03	0	44	0	875560960	23	6345
2026-01-27 01:18:43.91	249.16	32.62	-31.8	-36.9	10.0	9.70e-03	0	44	0	877658112	23	6448
2026-01-27 01:18:44.92	248.93	32.45	-31.6	-36.2	10.4	4.78e-03	0	44	0	879755264	23	6096
2026-01-27 01:18:45.91	248.71	32.29	-31.6	-36.1	10.5	4.29e-03	0	44	0	881852416	23	6044
2026-01-27 01:18:46.91	248.48	32.13	-31.4	-35.6	10.8	2.89e-03	0	44	0	882900992	23	5858
2026-01-27 01:18:47.91	248.26	31.97	-31.4	-35.9	10.9	4.72e-03	0	44	0	884998144	22	6079
2026-01-27 01:18:48.91	248.04	31.80	-31.3	-35.5	11.3	1.61e-03	0	44	0	887095296	22	5877
2026-01-27 01:18:49.92	247.82	31.64	-31.2	-35.4	11.3	1.21e-03	0	44	0	889192448	22	5840
2026-01-27 01:18:50.92	247.60	31.48	-31.1	-35.2	11.5	1.05e-03	0	44	0	891289600	22	5746
2026-01-27 01:18:51.92	247.39	31.32	-31.3	-35.6	11.2	1.30e-03	0	44	0	892338176	22	5920
2026-01-27 01:18:52.92	247.18	31.16	-31.1	-35.2	11.5	9.02e-04	0	44	0	894435328	22	5756
2026-01-27 01:18:53.93	246.97	30.99	-31.1	-35.2	11.4	8.93e-04	0	44	0	896532480	22	5773
2026-01-27 01:18:54.93	246.76	30.83	-31.1	-35.0	11.6	7.54e-04	0	44	0	898629632	22	5669
2026-01-27 01:18:55.93	246.56	30.67	-31.0	-34.8	11.8	5.15e-04	0	44	0	900726784	22	5592
2026-01-27 01:18:56.93	246.35	30.52	-31.1	-35.0	11.7	6.38e-04	0	44	0	901775360	22	5647
2026-01-27 01:18:57.94	246.15	30.35	-30.8	-34.2	12.2	4.25e-04	0	44	0	903872512	22	5307
2026-01-27 01:18:58.95	245.95	30.20	-30.8	-34.6	12.2	3.30e-04	0	44	0	905969664	21	5603
2026-01-27 01:18:59.95	245.75	30.04	-30.8	-34.7	12.1	2.27e-04	0	44	0	908066816	21	5662
2026-01-27 01:19:00.96	245.55	29.88	-30.9	-35.1	11.9	2.99e-04	0	44	0	909115392	21	5788
2026-01-27 01:19:01.96	245.36	29.72	-30.9	-35.0	11.9	5.08e-04	0	44	0	911212544	21	5774
2026-01-27 01:19:02.96	245.17	29.57	-31.1	-35.1	11.5	7.38e-04	0	44	0	913309696	22	5713
2026-01-27 01:19:03.96	244.98	29.41	-31.3	-35.7	11.1	9.93e-04	0	44	0	915406848	22	5967
2026-01-27 01:19:04.96	244.79	29.26	-31.5	-36.0	10.5	3.44e-03	0	44	0	917504000	23	6007
2026-01-27 01:19:05.96	244.61	29.10	-31.3	-35.3	11.0	2.37e-03	0	44	0	919601152	23	5672
2026-01-27 01:19:06.97	244.42	28.94	-31.2	-35.0	11.2	1.28e-03	0	44	0	920649728	23	5546
2026-01-27 01:19:07.97	244.24	28.79	-31.1	-35.0	11.5	1.12e-03	0	44	0	922746880	22	5683
2026-01-27 01:19:08.98	244.06	28.64	-31.1	-34.9	11.6	6.68e-04	0	44	0	924844032	22	5636
2026-01-27 01:19:09.98	243.88	28.48	-31.0	-34.8	11.7	8.99e-04	0	44	0	926941184	22	5565
2026-01-27 01:19:10.98	243.70	28.33	-31.2	-35.5	11.2	7.68e-04	0	44	0	927989760	22	5867
2026-01-27 01:19:11.99	243.52	28.18	-31.0	-34.9	11.6	7.19e-04	0	44	0	930086912	22	5613
2026-01-27 01:19:12.99	243.35	28.03	-30.7	-34.3	11.9	6.33e-04	0	44	0	932184064	22	5451
2026-01-27 01:19:14.00	243.18	27.88	-30.0	-34.0	12.0	3.91e-04	0	44	0	934281216	21	5717
2026-01-27 01:19:15.00	243.01	27.73	-31.0	-34.9	11.6	3.94e-04	0	44	0	936378368	22	5611
2026-01-27 01:19:16.00	242.84	27.58	-30.9	-35.0	11.5	8.35e-04	0	44	0	937426944	21	5766
2026-01-27 01:19:17.00	242.67	27.43	-31.0	-35.2	11.2	6.68e-04	0	44	0	939524096	21	5884
2026-01-27 01:19:18.01	242.50	27.28	-30.8	-34.8	11.9	5.03e-04	0	44	0	941621248	21	5702
2026-01-27 01:19:19.01	242.34	27.13	-30.7	-34.5	11.9	3.40e-04	0	44	0	943718400	21	5542
2026-01-27 01:19:20.01	242.18	26.98	-30.7	-34.3	12.1	3.32e-04	0	44	0	945815552	21	5495
2026-01-27 01:19:21.01	242.02	26.84	-30.6	-34.2	12.4	1.43e-04	0	44	0	946864128	21	5428
2026-01-27 01:19:22.01	241.86	26.69	-30.7	-34.5	12.2	1.78e-04	0	44	0	948961280	21	5576
2026-01-27 01:19:23.01	241.70	26.54	-30.6	-34.1	12.4	6.47e-04	0	44	0	951058432	21	5411
2026-01-27 01:19:24.01	241.54	26.40	-30.5	-33.8	12.7	9.76e-05	0	44	0	953155584	21	5279
2026-01-27 01:19:25.01	241.39	26.25	-30.5	-34.2	12.7	7.09e-05	0	44	0	955252736	20	5552
2026-01-27 01:19:26.01	241.23	26.11	-30.3	-33.7	13.1	1.41e-03	0	44	0	956301312	20	5327
2026-01-27 01:19:27.01	241.08	25.97	-30.2	-33.5	13.2	2.51e-05	0	44	0	958398464	20	5263
2026-01-27 01:19:28.02	240.93	25.82	-30.2	-33.6	13.1	1.43e-03	0	44	0	960495616	20	5302
2026-01-27 01:19:29.01	240.78	25.68	-30.4	-34.0	12.8	1.57e-03	0	44	0	962592768	20	5474
2026-01-27 01:19:30.02	240.63	25.54	-30.4	-34.2	12.7	6.71e-05	0	44	0	964689920	20	5551
2026-01-27 01:19:31.03	240.48	25.40	-30.3	-34.0	12.8	4.97e-04	0	44	0	965738496	20	5461
2026-01-27 01:19:32.02	240.34	25.26	-30.2	-33.5	13.1	5.11e-05	0	44	0	967835648	20	5258
2026-01-27 01:19:33.02	240.20	25.12	-30.2	-33.6	13.1	1.72e-04	0	44	0	969932800	20	5304
2026-01-27 01:19:34.02	240.05	24.98	-30.3	-33.8	12.9	1.90e-04	0	44	0	972029952	20	5395
2026-01-27 01:19:35.03	239.91	24.84	-30.2	-33.6	13.0	3.66e-05	0	44	0	973078528	20	5333
2026-01-27 01:19:36.04	239.77	24.70	-30.4	-34.2	12.6	2.06e-04	0	44	0	975175680	20	5577
2026-01-27 01:19:37.04	239.63	24.56	-30.3	-33.9	12.8	4.50e-05	0	44	0	977272832	20	5424
2026-01-27 01:19:38.04	239.49	24.42	-30.2	-33.5	13.1	3.43e-05	0	44	0	979369984	20	5258
2026-01-27 01:19:39.03	239.36	24.28	-30.2	-33.4	13.2	2.67e-05	0	44	0	981467136	20	5242
2026-01-27 01:19:40.03	239.22	24.15	-30.2	-33.5	13.1	1.11e-03	0	44	0	982515712	20	5289
2026-01-27 01:19:41.04	239.08	24.01	-30.3	-34.0	12.7	3.07e-04	0	44	0	984612864	20	5469
2026-01-27 01:19:42.04	238.95	23.87	-30.5	-34.3	12.5	8.16e-05	0	44	0	986710016	20	5607
2026-01-27 01:19:43.03	238.82	23.74	-30.3	-34.0	12.7	1.77e-03	0	44	0	988807168	20	5462
2026-01-27 01:19:44.04	238.69	23.61	-30.3	-33.8	12.9	2.06e-03	0	44	0	990904320	20	5406
2026-01-27 01:19:45.04	238.56	23.47	-30.3	-33.9	12.8	4.88e-05	0	44	0	991952896	20	5439
2026-01-27 01:19:46.04	238.43	23.34	-30.3	-33.8	12.9	1.68e-03	0	44	0	994050048	20	5396
2026-01-27 01:19:47.04	238.30	23.21	-30.3	-33.8	12.8	3.41e-03	0	44	0	996147200	20	5408
2026-01-27 01:19:48.05	238.18	23.07	-30.3	-33.9	12.8	6.63e-05	0	44	0	998244352	20	5436
2026-01-27 01:19:49.05	238.05	22.94	-30.2	-33.6	13.0	1.70e-03	0	44	0	999292928	20	5332
2026-01-27 01:19:50.05	237.93	22.81	-30.4	-34.1	12.6	4.05e-03	0	44	0	1001390080	20	5534
2026-01-27 01:19:51.06	237.80	22.68	-30.1	-33.3	13.2	3.47e-04	0	44	0	1003487232	20	5198
2026-01-27 01:19:52.06	237.68	22.55	-30.3	-34.0	12.7	2.04e-03	0	44	0	1005584384	20	5490
2026-01-27 01:19:53.06	237.56	22.42	-30.1	-33.3	13.2	2.15e-03	0	44	0	1007681536	20	5188
2026-01-27 01:19:54.06	237.44	22.29	-29.9	-33.3	13.5	3.39e-04	0	44	0	1009778688	19	5298
2026-01-27 01:19:55.07	237.32	22.16	-30.1	-33.3	13.1	1.75e-03	0	44	0	1010827264	20	5216
2026-01-27 01:19:56.08	237.20	22.03	-30.1	-33.3	13.1	1.81e-03	0	44	0	1012924416	20	5215
2026-01-27 01:19:57.08	237.08	21.90	-30.1	-33.4	13.0	2.65e-04	0	44	0	1015021568	20	5253
2026-01-27 01:19:58.08	236.97	21.77	-30.1	-33.3	13.1	2.14e-03	0	44	0	1017118720	20	5221
2026-01-27 01:19:59.08	236.85	21.65	-30.1	-33.3	13.1	1.36e-03	0	44	0	1018167296	20	5222
2026-01-27 01:20:00.08	236.74	21.52	-30.2	-33.5	13.0	1.64e-04	0	44	0	1020264448	20	5291
2026-01-27 01:20:01.08	236.63	21.40	-30.0	-33.1	13.2	2.63e-03	0	44	0	1022361600	20	5149
2026-01-27 01:20:02.08	236.51	21.27	-30.2	-33.7	12.8	1.30e-03	0	44	0	1024458752	20	5373
2026-01-27 01:20:03.09	236.40	21.15	-30.0	-33.1	13.2	1.27e-04	0	44	0	1026555904	20	5139
2026-01-27 01:20:04.09	236.29	21.02	-29.9	-33.2	13.6	2.40e-03	0	44	0	1027604480	19	5269
2026-01-27 01:20:05.10	236.18	20.90	-30.0	-33.1	13.2	3.09e-03	0	44	0	1029701632	20	5155
2026-01-27 01:20:06.10	236.07	20.77	-30.3	-33.9	12.7	5.18e-05	0	44	0	1031798784	20	5464
2026-01-27 01:20:07.10	235.96	20.65	-30.1	-33.4	13.0	2.86e-03	0	44	0	1033895936	20	5246
2026-01-27 01:20:08.11	235.86	20.53	-30.2	-33.5	12.9	3.65e-03	0	44	0	1035993088	20	5292
2026-01-27 01:20:09.11	235.75	20.41	-30.2	-33.6	12.8	8.61e-04	0	44	0	1037041664	20	5348
2026-01-27 01:20:10.12	235.64	20.28	-30.2	-33.6	12.9	2.83e-03	0	44	0	1039138816	20	5348
2026-01-27 01:20:11.12	235.54	20.16	-30.2	-33.8	12.7	3.26e-03	0	44	0	1041235968	20	5412
2026-01-27 01:20:12.12	235.44	20.04	-30.2	-33.8	12.7	1.29e-03	0	44	0	1043333120	20	5413
2026-01-27 01:20:13.12	235.33	19.92	-30.3	-33.8	12.7	3.23e-03	0	44	0	1045430272	20	5428
2026-01-27 01:20:14.13	235.23	19.80	-30.3	-34.1	12.5	3.15e-03	0	44	0	1046478848	20	5544
2026-01-27 01:20:15.13	235.13	19.68	-30.6	-34.3	12.0	1.73e-03	0	44	0	1048576000	21	5529
2026-01-27 01:20:16.13	235.03	19.57	-30.8	-35.0	11.5	4.17e-03	0	44	0	1050673152	21	5818
2026-01-27 01:20:17.14	234.93	19.45	-30.5	-34.2	12.0	3.27e-03	0	44	0	1052770304	21	5487
2026-01-27 01:20:18.14	234.83	19.33	-30.3	-34.0	12.5	1.85e-03	0	44	0	1054867456	20	5527
2026-01-27 01:20:19.15	234.73	19.21	-30.2	-33.6	12.8	3.17e-03	0	44	0	1055916032	20	5346
2026-01-27 01:20:20.16	234.63	19.09	-30.0	-33.2	13.0	3.12e-03	0	44	0	1058013184	20	5193
2026-01-27 01:20:21.17	234.54	18.98	-30.0	-33.2	13.0	1.65e-03	0	44	0	1060110336	20	5197
2026-01-27 01:20:22.17	234.44	18.86	-30.0	-33.1	13.1	2.99e-03	0	44	0	1062207488	20	5168
2026-01-27 01:20:23.17	234.35	18.75	-30.0	-33.1	13.1	2.44e-05	0	44	0	1064304640	20	5168
2026-01-27 01:20:24.18	234.25	18.63	-30.1	-33.4	12.9	1.49e-03	0	44	0	1065353216	20	5283
2026-01-27 01:20:25.18	234.16	18.52	-30.0	-33.1	13.1	2.81e-03	0	44	0	1067450368	20	5158
2026-01-27 01:20:26.19	234.07	18.40	-30.1	-33.4	13.0	2.82e-03	0	44	0	1069547520	20	5269
2026-01-27 01:20:27.18	233.97	18.29	-30.2	-33.7	12.7	8.01e-05	0	44	0	1071644672	20	5411
2026-01-27 01:20:28.19	233.88	18.18	-30.0	-33.2	13.0	2.46e-03	0	44	0	1072693248	20	5196
2026-01-27 01:20:29.19	233.79	18.06	-29.9	-33.0	13.1	2.62e-03	0	44	0	1074790400	20	5127
2026-01-27 01:20:30.19	233.70	17.95	-29.9	-33.0	13.1	2.36e-05	0	44	0	1076887552	20	5131
2026-01-27 01:20:31.19	233.61	17.84	-30.0	-33.1	13.1	2.31e-03	0	44	0	1078984704	20	5173
2026-01-27 01:20:32.19	233.52	17.73	-30.0	-33.1	13.0	1.37e-03	0	44	0	1081081856	20	5172
2026-01-27 01:20:33.19	233.44	17.62	-30.0	-33.0	13.1	1.43e-04	0	44	0	1082130432	20	5137
2026-01-27 01:20:34.19	233.35	17.51	-29.9	-33.1	13.1	3.05e-05	0	44	0	1084227584	20	5151
2026-01-27 01:20:35.19	233.26	17.40	-29.9	-33.0	13.1	2.89e-05	0	44	0	1086324736	20	5143
2026-01-27 01:20:36.19	233.18	17.29	-30.0	-33.2	13.0	3.20e-05	0	44	0	1088421888	20	5221
2026-01-27 01:20:37.19	233.09	17.18	-30.0	-33.2	13.0	4.04e-05	0	44	0	1090519040	20	5204
2026-01-27 01:20:38.20	233.01	17.07	-30.1	-33.4	12.8	1.44e-03	0	44	0	1091567616	20	5288
2026-01-27 01:20:39.20	232.92	16.96	-30.0	-33.3	12.9	5.34e-05	0	44	0	1093664768	20	5265
2026-01-27 01:20:40.20	232.84	16.86	-30.1	-33.4	12.8	2.47e-03	0	44	0	1095761920	20	5287
2026-01-27 01:20:41.21	232.76	16.75	-30.1	-33.6	12.7	6.94e-05	0	44	0	1097859072	20	5379
2026-01-27 01:20:42.21	232.67	16.64	-30.2	-33.8	12.5	1.16e-04	0	44	0	1099956224	20	5465
2026-01-27 01:20:43.21	232.59	16.53	-30.2	-33.7	12.6	2.46e-03	0	44	0	1101004800	20	5394
2026-01-27 01:20:44.22	232.51	16.43	-30.2	-33.8	12.5	1.40e-04	0	44	0	1103101952	20	5473
2026-01-27 01:20:45.21	232.43	16.32	-30.3	-34.2	12.3	1.85e-04	0	44	0	1105199104	20	5602
2026-01-27 01:20:46.21	232.35	16.22	-30.3	-34.1	12.3	2.51e-03	0	44	0	1107296256	20	5556
2026-01-27 01:20:47.21	232.27	16.11	-30.3	-34.3	12.2	2.76e-03	0	44	0	1108344832	20	5644
2026-01-27 01:20:48.20	232.19	16.01	-30.5	-34.6	11.9	3.39e-04	0	44	0	1110441984	20	5815
2026-01-27 01:20:49.21	232.12	15.90	-30.3	-34.1	12.3	2.91e-03	0	44	0	1112539136	20	5582
2026-01-27 01:20:50.21	232.04	15.80	-30.2	-33.8	12.5	2.69e-03	0	44	0	1114636288	20	5432
2026-01-27 01:20:51.21	231.96	15.70	-30.1	-33.7	12.5	1.16e-04	0	44	0	1116733440	20	5410
2026-01-27 01:20:52.21	231.89	15.59	-30.2	-33.9	12.4	1.40e-04	0	44	0	1117782016	20	5491
2026-01-27 01:20:53.22	231.81	15.49	-30.3	-34.2	12.2	2.48e-03	0	44	0	1119879168	20	5616
2026-01-27 01:20:54.22	231.73	15.39	-30.2	-33.9	12.3	1.73e-04	0	44	0	1121976320	20	5512
2026-01-27 01:20:55.23	231.66	15.28	-30.2	-33.8	12.4	1.52e-04	0	44	0	1124073472	20	5477
2026-01-27 01:20:56.23	231.58	15.18	-30.3	-34.1	12.3	2.71e-03	0	44	0	1126170624	20	5582
2026-01-27 01:20:57.23	231.51	15.08	-30.4	-34.4	12.0	3.14e-04	0	44	0	1127219200	20	5728
2026-01-27 01:20:58.23	231.44	14.98	-30.3	-34.3	12.1	2.81e-04	0	44	0	1129316352	20	5657
2026-01-27 01:20:59.24	231.36	14.88	-30.3	-34.1	12.2	2.17e-04	0	44	0	1131413504	20	5574
2026-01-27 01:21:00.24	231.29	14.78	-30.4	-34.4	12.0	3.28e-04	0	44	0	1133510656	20	5715
2026-01-27 01:21:01.24	231.22	14.68	-30.4	-34.4	12.0	3.46e-04	0	44	0	1135607808	20	5736
2026-01-27 01:21:02.25	231.15	14.58	-30.4	-34.3	12.0	3.47e-04	0	44	0	1136656384	20	5694
2026-01-27 01:21:03.25	231.08	14.48	-30.4	-34.4	12.0	3.27e-04	0	44	0	1138753536	20	5711
2026-01-27 01:21:04.25	231.01	14.38	-30.3	-34.2	12.0	2.71e-03	0	44	0	1140850688	20	5656
2026-01-27 01:21:05.25	230.94	14.28	-30.3	-34.2	12.1	2.97e-04	0	44	0	1142947840	20	5657
2026-01-27 01:21:06.25	230.87	14.19	-30.2	-34.0	12.2	2.33e-04	0	44	0	1145044992	20	5566
2026-01-27 01:21:07.25	230.80	14.09	-30.2	-33.9	12.3	2.86e-03	0	44	0	1146093568	20	5496
2026-01-27 01:21:08.26	230.73	13.99	-30.1	-33.7	12.4	1.76e-04	0	44	0	1148190720	20	5443
2026-01-27 01:21:09.26	230.66	13.89	-30.2	-33.8	12.3	1.78e-04	0	44	0	1150287872	20	5500
2026-01-27 01:21:10.27	230.59	13.80	-30.2	-34.1	12.1	2.48e-04	0	44	0	1152385024	20	5614
2026-01-27 01:21:11.27	230.53	13.70	-30.1	-33.7	12.4	1.50e-04	0	44	0	1154482176	20	5429
2026-01-27 01:21:12.27	230.46	13.61	-30.1	-33.6	12.4	1.24e-04	0	44	0	1155530752	20	5410
2026-01-27 01:21:13.28	230.39	13.51	-30.0	-33.5	12.5	1.23e-04	0	44	0	1157627904	20	5363
2026-01-27 01:21:14.28	230.33	13.41	-30.0	-33.4	12.6	2.64e-03	0	44	0	1159725056	20	5316
2026-01-27 01:21:15.29	230.26	13.32	-30.1	-33.6	12.4	2.41e-04	0	44	0	1161822208	20	5396
2026-01-27 01:21:16.29	230.20	13.22	-30.1	-33.7	12.3	1.84e-04	0	44	0	1163919360	20	5465
2026-01-27 01:21:17.29	230.13	13.13	-30.2	-33.9	12.2	1.92e-04	0	44	0	1164967936	20	5538
2026-01-27 01:21:18.30	230.07	13.04	-30.2	-34.1	12.1	3.25e-04	0	44	0	1167065088	20	5620
2026-01-27 01:21:19.30	230.01	12.94	-30.3	-34.2	11.9	4.64e-04	0	44	0	1169162240	20	5685
2026-01-27 01:21:20.30	229.94	12.85	-30.3	-34.4	11.8	4.13e-04	0	44	0	1171259392	20	5746
2026-01-27 01:21:21.31	229.88	12.76	-30.4	-34.6	11.7	4.79e-04	0	44	0	1172307968	20	5828
2026-01-27 01:21:22.31	229.82	12.66	-30.4	-34.8	11.5	7.97e-04	0	44	0	1174405120	20	5942
2026-01-27 01:21:23.32	229.75	12.57	-30.5	-34.9	11.5	8.30e-04	0	44	0	1176502272	20	5978
2026-01-27 01:21:24.32	229.69	12.48	-30.6	-34.8	11.2	1.03e-03	0	44	0	1178599424	21	5827
2026-01-27 01:21:25.32	229.63	12.39	-30.6	-34.9	11.0	1.95e-03	0	44	0	1180696576	21	5900
2026-01-27 01:21:26.32	229.57	12.30	-30.6	-34.8	11.1	1.50e-03	0	44	0	1181745152	21	5825
2026-01-27 01:21:27.33	229.51	12.20	-30.6	-34.9	11.0	1.65e-03	0	44	0	1183842304	21	5905
2026-01-27 01:21:28.33	229.45	12.11	-30.6	-34.7	11.1	1.82e-03	0	44	0	1185939456	21	5805
2026-01-27 01:21:29.34	229.39	12.02	-30.6	-34.9	11.0	1.76e-03	0	44	0	1188036608	21	5912
2026-01-27 01:21:30.34	229.33	11.93	-30.7	-35.1	10.9	2.54e-03	0	44	0	1190133760	21	5986
2026-01-27 01:21:31.35	229.27	11.84	-30.6	-34.7	11.2	1.82e-03	0	44	0	1191182336	21	5787
2026-01-27 01:21:32.35	229.21	11.75	-29.8	-34.0	11.1	1.52e-03	0	44	0	1193279488	21	5837
2026-01-27 01:21:33.35	229.16	11.66	-29.4	-34.0	11.0	1.75e-03	0	44	0	1195376640	20	6092
2026-01-27 01:21:34.36	229.10	11.57	-30.5	-35.0	11.0	1.24e-03	0	44	0	1197473792	20	6052
2026-01-27 01:21:35.36	229.04	11.48	-30.5	-34.6	11.1	1.36e-03	0	44	0	1199570944	21	5753
2026-01-27 01:21:36.36	228.98	11.40	-30.5	-34.9	11.4	1.29e-03	0	44	0	1200619520	20	5983
2026-01-27 01:21:37.37	228.93	11.31	-30.4	-34.8	11.4	1.35e-03	0	44	0	1202716672	20	5937
2026-01-27 01:21:38.37	228.87	11.22	-30.4	-34.8	11.4	1.32e-03	0	44	0	1204813824	20	5966
2026-01-27 01:21:39.38	228.81	11.13	-30.4	-34.8	11.4	1.34e-03	0	44	0	1206910976	20	5951
2026-01-27 01:21:40.38	228.76	11.04	-30.4	-34.8	11.4	1.16e-03	0	44	0	1209008128	20	5969
2026-01-27 01:21:41.39	228.70	10.96	-30.5	-34.4	11.2	1.21e-03	0	44	0	1210056704	21	5688
2026-01-27 01:21:42.40	228.65	10.87	-30.5	-34.9	11.3	1.41e-03	0	44	0	1212153856	20	6018
2026-01-27 01:21:43.40	228.59	10.78	-30.4	-34.8	11.3	1.00e-03	0	44	0	1214251008	20	5968
2026-01-27 01:21:44.40	228.54	10.70	-30.5	-35.0	11.2	1.13e-03	0	44	0	1216348160	20	6055
2026-01-27 01:21:45.40	228.49	10.61	-30.5	-35.0	11.2	3.35e-03	0	44	0	1218445312	20	6052
2026-01-27 01:21:46.41	228.43	10.53	-30.5	-35.0	11.2	1.47e-03	0	44	0	1219493888	20	6047
2026-01-27 01:21:47.41	228.38	10.44	-30.5	-34.7	11.0	1.71e-03	0	44	0	1221591040	21	5837
2026-01-27 01:21:48.41	228.33	10.36	-30.6	-34.8	10.9	3.66e-03	0	44	0	1223688192	21	5888
2026-01-27 01:21:49.42	228.27	10.27	-30.5	-34.8	10.9	2.03e-03	0	44	0	1225785344	21	5881
2026-01-27 01:21:50.41	228.22	10.19	-30.6	-35.1	10.7	2.77e-03	0	44	0	1227882496	21	6018
2026-01-27 01:21:51.42	228.17	10.10	-30.6	-35.0	10.8	2.66e-03	0	44	0	1228931072	21	5951
2026-01-27 01:21:52.42	228.12	10.02	-30.7	-35.4	10.5	4.48e-03	0	44	0	1231028224	21	6162
2026-01-27 01:21:53.42	228.07	9.93	-30.7	-35.4	10.4	4.83e-03	0	44	0	1233125376	21	6184
2026-01-27 01:21:54.42	228.01	9.85	-30.6	-35.2	10.6	3.96e-03	0	44	0	1235222528	21	6049
2026-01-27 01:21:55.42	227.96	9.77	-30.6	-35.1	10.7	3.91e-03	0	44	0	1237319680	21	6003
2026-01-27 01:21:56.43	227.91	9.68	-30.6	-35.1	10.7	3.08e-03	0	44	0	1238368256	21	6025
2026-01-27 01:21:57.43	227.86	9.60	-30.6	-35.2	10.6	3.52e-03	0	44	0	1240465408	21	6051
2026-01-27 01:21:58.43	227.81	9.52	-30.6	-35.0	10.7	3.77e-03	0	44	0	1242562560	21	5981
2026-01-27 01:21:59.43	227.76	9.44	-30.6	-35.1	10.5	3.83e-03	0	44	0	1244659712	21	6061
2026-01-27 01:22:00.43	227.72	9.36	-30.6	-34.9	10.7	3.39e-03	0	44	0	1245708288	21	5960
2026-01-27 01:22:01.43	227.67	9.27	-30.6	-35.0	10.6	2.93e-03	0	44	0	1247805440	21	6005
2026-01-27 01:22:02.43	227.62	9.19	-30.6	-35.1	10.6	3.49e-03	0	44	0	1249902592	21	6053
2026-01-27 01:22:03.44	227.57	9.11	-30.6	-35.1	10.5	4.73e-03	0	44	0	1251999744	21	6071
2026-01-27 01:22:04.44	227.52	9.03	-30.7	-35.3	10.4	4.40e-03	0	44	0	1254096896	21	6152
2026-01-27 01:22:05.44	227.47	8.95	-30.6	-35.1	10.5	3.82e-03	0	44	0	1255145472	21	6063
2026-01-27 01:22:06.44	227.43	8.87	-30.6	-35.2	10.4	5.52e-03	0	44	0	1257242624	21	6095
2026-01-27 01:22:07.44	227.38	8.79	-30.7	-35.4	10.3	5.12e-03	0	44	0	1259339776	21	6190
2026-01-27 01:22:08.45	227.33	8.71	-30.6	-35.1	10.6	4.59e-03	0	44	0	1261436928	21	6033
2026-01-27 01:22:09.46	227.28	8.63	-30.6	-35.2	10.5	5.45e-03	0	44	0	1263534080	21	6099
2026-01-27 01:22:10.46	227.24	8.55	-30.6	-35.2	10.4	6.25e-03	0	44	0	1264582656	21	6099
2026-01-27 01:22:11.46	227.19	8.47	-30.6	-35.0	10.5	4.55e-03	0	44	0	1266679808	21	6026
2026-01-27 01:22:12.47	227.15	8.39	-30.5	-35.0	10.5	5.13e-03	0	44	0	1268776960	21	6012
2026-01-27 01:22:13.46	227.10	8.31	-30.5	-34.9	10.6	5.34e-03	0	44	0	1270874112	21	5967
2026-01-27 01:22:14.46	227.06	8.23	-30.6	-35.1	10.5	4.11e-03	0	44	0	1272971264	21	6059
2026-01-27 01:22:15.47	227.01	8.15	-30.6	-35.2	10.4	6.83e-03	0	44	0	1274019840	21	6100
2026-01-27 01:22:16.48	226.96	8.08	-30.7	-35.4	10.2	6.25e-03	0	44	0	1276116992	21	6221
2026-01-27 01:22:17.48	226.92	8.00	-30.7	-35.4	10.2	6.10e-03	0	44	0	1278214144	21	6210
2026-01-27 01:22:18.48	226.88	7.92	-30.7	-35.5	10.2	6.31e-03	0	44	0	1280311296	21	6257
2026-01-27 01:22:19.48	226.83	7.84	-30.7	-35.5	10.1	8.47e-03	0	44	0	1282408448	21	6291
2026-01-27 01:22:20.49	226.79	7.77	-30.7	-35.6	10.0	7.72e-03	0	44	0	1283457024	21	6331
2026-01-27 01:22:21.49	226.74	7.69	-30.7	-35.5	10.1	8.89e-03	0	44	0	1285554176	21	6296
