passes_logs/2026/01/27/R2M6_AANII_01/R2M6_AANII_01__20260127_065054_FENGYUN_3E_rec.log

#Pass ID: 20260127_065054_FENGYUN 3E
#Satellite: FENGYUN 3E
#Configuration: FENGYUN 3E
#almurnet v.1.7.20240730
#Start time: 2026-01-27 06:50:56

#Version: 2.2.20231116
#Station: R2M6_AANII_01
#Location: 30.233357 lon 59.946436 lat
#TLE: 1 49008U 21062A   26026.84429991  .00000247  00000+0  13693-3 0  9991
#TLE: 2 49008  98.7501  31.8345 0002501 116.3456 243.7977 14.19887781236522

#Time	Az	El	Level	Level2	SNR	BER	BlckErr	Temp	State	Recorded	gain1	gain2
2026-01-27 06:50:56.17	9.17	7.10	-31.7	-35.5	4.5	8.19e-01	0	41	0	0	24	5608
2026-01-27 06:50:57.17	9.06	7.16	-31.0	-34.3	4.9	7.92e-01	0	41	104	0	22	5207
2026-01-27 06:50:58.18	8.96	7.22	-30.9	-33.7	7.6	9.21e-02	0	41	0	0	22	4970
2026-01-27 06:50:59.19	8.85	7.28	-30.9	-33.8	7.6	8.65e-02	0	41	0	7340032	22	5000
2026-01-27 06:51:00.19	8.75	7.34	-30.9	-33.8	7.6	8.89e-02	0	41	0	14680064	22	4998
2026-01-27 06:51:01.20	8.64	7.40	-31.0	-34.0	7.5	1.09e-01	0	41	0	22020096	22	5090
2026-01-27 06:51:02.21	8.54	7.46	-30.9	-33.6	7.8	9.09e-02	0	41	0	28311552	22	4908
2026-01-27 06:51:03.21	8.43	7.52	-30.4	-32.6	8.7	3.52e-02	0	42	0	35651584	21	4661
2026-01-27 06:51:04.21	8.32	7.58	-29.9	-31.8	9.6	1.43e-02	0	41	0	42991616	20	4476
2026-01-27 06:51:05.22	8.22	7.64	-29.4	-30.5	10.5	4.74e-03	0	41	0	50331648	20	4092
2026-01-27 06:51:06.22	8.11	7.70	-29.0	-30.1	11.1	2.18e-03	0	41	0	57671680	19	4052
2026-01-27 06:51:07.23	8.00	7.76	-28.7	-29.8	11.6	8.32e-04	0	42	0	65011712	18	4067
2026-01-27 06:51:08.23	7.89	7.82	-28.5	-29.2	12.0	3.10e-04	0	42	0	72351744	18	3918
2026-01-27 06:51:09.23	7.78	7.88	-28.3	-29.2	12.3	2.13e-04	0	42	0	79691776	17	4010
2026-01-27 06:51:10.24	7.67	7.94	-28.3	-29.2	12.3	1.19e-04	0	42	0	87031808	17	4024
2026-01-27 06:51:11.24	7.56	8.00	-28.3	-29.4	12.2	1.51e-04	0	42	0	94371840	17	4059
2026-01-27 06:51:12.24	7.45	8.06	-28.4	-29.6	12.1	3.38e-04	0	42	0	101711872	17	4110
2026-01-27 06:51:13.25	7.34	8.12	-28.2	-29.0	12.5	9.72e-05	0	42	0	108003328	17	3949
2026-01-27 06:51:14.26	7.23	8.19	-27.9	-28.5	12.8	6.52e-05	0	42	0	115343360	17	3816
2026-01-27 06:51:15.27	7.12	8.25	-27.9	-28.9	12.8	4.00e-05	0	42	0	123731968	16	4019
2026-01-27 06:51:16.27	7.00	8.31	-27.9	-28.9	12.8	4.11e-05	0	42	0	130023424	16	4038
2026-01-27 06:51:17.28	6.89	8.37	-28.0	-29.1	12.7	6.40e-05	0	42	0	137363456	16	4075
2026-01-27 06:51:18.28	6.78	8.43	-27.9	-29.0	12.8	4.46e-05	0	42	0	144703488	16	4046
2026-01-27 06:51:19.28	6.66	8.49	-28.0	-29.1	12.7	5.72e-05	0	42	0	152043520	16	4089
2026-01-27 06:51:20.28	6.55	8.55	-28.1	-29.3	12.6	4.00e-05	0	42	0	159383552	16	4129
2026-01-27 06:51:21.28	6.43	8.61	-28.1	-29.3	12.6	6.75e-05	0	42	0	166723584	16	4126
2026-01-27 06:51:22.29	6.32	8.67	-28.0	-29.1	12.7	6.86e-05	0	42	0	174063616	16	4086
2026-01-27 06:51:23.29	6.20	8.73	-28.0	-29.1	12.7	5.37e-05	0	42	0	181403648	16	4070
2026-01-27 06:51:24.30	6.09	8.79	-27.8	-29.2	12.8	6.06e-05	0	42	0	188743680	15	4217
2026-01-27 06:51:25.30	5.97	8.85	-27.6	-28.6	13.1	3.66e-05	0	42	0	195035136	15	4061
2026-01-27 06:51:26.31	5.85	8.92	-27.5	-28.4	13.2	2.28e-05	0	42	0	202375168	15	4008
2026-01-27 06:51:27.31	5.73	8.98	-27.4	-28.3	13.3	1.83e-05	0	42	0	209715200	15	3971
2026-01-27 06:51:28.31	5.61	9.04	-27.5	-28.9	13.3	2.51e-05	0	42	0	217055232	14	4235
2026-01-27 06:51:29.31	5.50	9.10	-27.4	-28.8	13.4	1.48e-05	0	42	0	224395264	14	4215
2026-01-27 06:51:30.32	5.38	9.16	-27.4	-28.8	13.3	1.48e-05	0	42	0	231735296	14	4214
2026-01-27 06:51:31.32	5.26	9.22	-27.5	-28.5	13.2	2.05e-05	0	42	0	239075328	15	4035
2026-01-27 06:51:32.33	5.14	9.28	-27.4	-28.3	13.4	1.25e-05	0	42	0	246415360	15	3966
2026-01-27 06:51:33.33	5.01	9.34	-27.5	-28.5	13.2	1.83e-05	0	42	0	253755392	15	4016
2026-01-27 06:51:34.33	4.89	9.40	-27.4	-28.7	13.4	1.02e-05	0	43	0	261095424	14	4184
2026-01-27 06:51:35.33	4.77	9.46	-27.5	-28.9	13.3	1.02e-05	0	42	0	268435456	14	4236
2026-01-27 06:51:36.33	4.65	9.53	-27.3	-28.6	13.5	6.80e-06	0	43	0	274726912	14	4154
2026-01-27 06:51:37.34	4.53	9.59	-27.4	-28.7	13.4	9.10e-06	0	42	0	282066944	14	4185
2026-01-27 06:51:38.34	4.40	9.65	-27.4	-28.6	13.4	8.00e-06	0	42	0	289406976	14	4168
2026-01-27 06:51:39.35	4.28	9.71	-27.4	-28.7	13.5	1.10e-06	0	43	0	296747008	14	4179
2026-01-27 06:51:40.35	4.15	9.77	-27.4	-28.7	13.5	1.02e-05	0	42	0	304087040	14	4173
2026-01-27 06:51:41.35	4.03	9.83	-27.6	-29.2	13.1	1.02e-05	0	43	0	311427072	14	4311
2026-01-27 06:51:42.35	3.90	9.89	-27.5	-28.9	13.4	5.70e-06	0	43	0	318767104	14	4230
2026-01-27 06:51:43.36	3.78	9.96	-27.5	-28.9	13.3	1.94e-05	0	43	0	326107136	14	4247
2026-01-27 06:51:44.36	3.65	10.02	-27.6	-28.7	13.2	2.97e-05	0	43	0	333447168	15	4073
2026-01-27 06:51:45.37	3.52	10.08	-27.7	-28.9	13.1	3.20e-05	0	42	0	339738624	15	4125
2026-01-27 06:51:46.37	3.39	10.14	-27.7	-29.0	13.0	4.11e-05	0	43	0	348127232	15	4150
2026-01-27 06:51:47.38	3.26	10.20	-27.6	-28.7	13.1	2.51e-05	0	43	0	355467264	15	4087
2026-01-27 06:51:48.38	3.13	10.26	-27.6	-28.7	13.2	2.63e-05	0	43	0	361758720	15	4067
2026-01-27 06:51:49.39	3.00	10.32	-27.6	-28.6	13.2	1.71e-05	0	43	0	369098752	15	4056
2026-01-27 06:51:50.39	2.87	10.39	-27.6	-28.7	13.2	1.71e-05	0	43	0	376438784	15	4067
2026-01-27 06:51:51.40	2.74	10.45	-27.4	-28.3	13.4	5.70e-06	0	43	0	383778816	15	3970
2026-01-27 06:51:52.40	2.61	10.51	-27.5	-28.5	13.4	1.83e-05	0	43	0	391118848	15	4024
2026-01-27 06:51:53.40	2.48	10.57	-27.5	-28.5	13.3	1.25e-05	0	43	0	398458880	15	4027
2026-01-27 06:51:54.40	2.35	10.63	-27.3	-28.0	13.6	9.10e-06	0	43	0	405798912	15	3892
2026-01-27 06:51:55.40	2.22	10.69	-27.1	-27.6	13.8	4.50e-06	0	43	0	413138944	15	3813
2026-01-27 06:51:56.41	2.08	10.75	-27.0	-27.3	14.0	1.10e-06	0	43	0	420478976	15	3725
2026-01-27 06:51:57.41	1.95	10.82	-27.1	-27.5	13.9	3.40e-06	0	43	0	426770432	15	3762
2026-01-27 06:51:58.42	1.81	10.88	-26.9	-27.1	14.1	0.00e+00	0	43	0	435159040	15	3676
2026-01-27 06:51:59.42	1.68	10.94	-26.8	-27.4	14.3	0.00e+00	0	43	0	442499072	14	3846
2026-01-27 06:52:00.43	1.54	11.00	-26.7	-27.2	14.4	0.00e+00	0	43	0	448790528	14	3798
2026-01-27 06:52:01.43	1.40	11.06	-26.8	-27.3	14.3	0.00e+00	0	43	0	456130560	14	3811
2026-01-27 06:52:02.43	1.27	11.12	-26.7	-27.1	14.4	0.00e+00	0	43	0	463470592	14	3776
2026-01-27 06:52:03.44	1.13	11.19	-26.7	-27.2	14.4	0.00e+00	0	43	0	470810624	14	3784
2026-01-27 06:52:04.44	0.99	11.25	-26.8	-27.8	14.3	2.20e-06	0	43	0	478150656	13	4061
2026-01-27 06:52:05.45	0.85	11.31	-26.8	-27.9	14.3	0.00e+00	0	43	0	485490688	13	4080
2026-01-27 06:52:06.46	0.71	11.37	-26.9	-28.1	14.1	2.20e-06	0	43	0	492830720	13	4136
2026-01-27 06:52:07.45	0.57	11.43	-27.1	-28.4	14.0	2.20e-06	0	43	0	500170752	13	4220
2026-01-27 06:52:08.45	0.43	11.49	-27.1	-27.9	14.0	2.20e-06	0	43	0	506462208	14	3981
2026-01-27 06:52:09.46	0.29	11.55	-27.2	-28.2	13.9	2.20e-06	0	43	0	513802240	14	4033
2026-01-27 06:52:10.46	0.15	11.62	-27.1	-27.9	14.0	3.40e-06	0	43	0	521142272	14	3972
2026-01-27 06:52:11.46	0.00	11.68	-27.0	-27.8	14.1	1.10e-06	0	43	0	528482304	14	3950
2026-01-27 06:52:12.47	359.86	11.74	-27.1	-27.9	13.7	1.10e-06	0	43	0	535822336	14	3976
2026-01-27 06:52:13.47	359.72	11.80	-27.1	-28.1	14.0	1.10e-06	0	43	0	543162368	14	4017
2026-01-27 06:52:14.48	359.57	11.86	-27.0	-27.8	14.1	0.00e+00	0	43	0	550502400	14	3941
2026-01-27 06:52:15.48	359.43	11.92	-26.9	-28.0	14.3	0.00e+00	0	43	0	557842432	13	4095
2026-01-27 06:52:16.49	359.28	11.98	-26.9	-28.0	14.2	1.10e-06	0	43	0	565182464	13	4103
2026-01-27 06:52:17.49	359.13	12.04	-26.8	-27.8	14.4	1.10e-06	0	43	0	572522496	13	4047
2026-01-27 06:52:18.49	358.99	12.11	-26.7	-27.6	14.5	0.00e+00	0	43	0	579862528	13	4006
2026-01-27 06:52:19.50	358.84	12.17	-26.7	-27.6	14.5	0.00e+00	0	43	0	587202560	13	3994
2026-01-27 06:52:20.49	358.69	12.23	-26.8	-27.7	14.4	0.00e+00	0	43	0	593494016	13	4026
2026-01-27 06:52:21.50	358.54	12.29	-26.6	-27.4	14.6	2.54e-04	0	43	0	600834048	13	3939
2026-01-27 06:52:22.51	358.39	12.35	-26.4	-27.0	14.8	0.00e+00	0	43	0	608174080	13	3851
2026-01-27 06:52:23.51	358.24	12.41	-26.3	-26.8	14.9	0.00e+00	0	43	0	615514112	13	3787
2026-01-27 06:52:24.52	358.09	12.47	-26.3	-27.1	15.0	2.83e-04	0	43	0	622854144	12	3982
2026-01-27 06:52:25.52	357.94	12.53	-26.2	-27.1	15.1	1.10e-06	0	43	0	630194176	12	3957
2026-01-27 06:52:26.53	357.79	12.59	-26.2	-27.0	15.1	3.16e-04	0	43	0	637534208	12	3953
2026-01-27 06:52:27.53	357.64	12.66	-26.3	-27.3	15.0	0.00e+00	0	43	0	644874240	12	4015
2026-01-27 06:52:28.54	357.48	12.72	-26.2	-27.1	15.1	0.00e+00	0	43	0	652214272	12	3959
2026-01-27 06:52:29.54	357.33	12.78	-26.3	-27.2	15.0	3.47e-04	0	43	0	659554304	12	3996
2026-01-27 06:52:30.55	357.17	12.84	-26.4	-27.4	14.9	0.00e+00	0	43	0	666894336	12	4038
2026-01-27 06:52:31.55	357.02	12.90	-26.3	-27.2	15.0	0.00e+00	0	43	0	674234368	12	3991
2026-01-27 06:52:32.56	356.86	12.96	-26.3	-27.2	15.0	2.59e-04	0	43	0	680525824	12	3994
2026-01-27 06:52:33.56	356.70	13.02	-26.4	-27.4	14.9	2.59e-04	0	43	0	687865856	12	4045
2026-01-27 06:52:34.55	356.55	13.08	-26.5	-27.6	14.8	0.00e+00	0	43	0	695205888	12	4112
2026-01-27 06:52:35.55	356.39	13.14	-26.5	-27.7	14.8	3.76e-04	0	43	0	702545920	12	4114
2026-01-27 06:52:36.56	356.23	13.20	-26.6	-27.8	14.7	4.08e-04	0	43	0	709885952	12	4150
2026-01-27 06:52:37.57	356.07	13.26	-26.5	-27.7	14.8	0.00e+00	0	43	0	717225984	12	4127
2026-01-27 06:52:38.57	355.91	13.32	-26.6	-27.4	14.7	4.23e-04	0	43	0	724566016	13	3941
2026-01-27 06:52:39.58	355.75	13.38	-26.6	-27.4	14.7	4.04e-04	0	43	0	731906048	13	3948
2026-01-27 06:52:40.58	355.59	13.44	-26.6	-27.3	14.7	0.00e+00	0	44	0	739246080	13	3930
2026-01-27 06:52:41.58	355.43	13.50	-26.5	-27.6	14.8	4.47e-04	0	43	0	746586112	12	4098
2026-01-27 06:52:42.58	355.27	13.56	-26.5	-27.6	14.8	0.00e+00	0	43	0	753926144	12	4113
2026-01-27 06:52:43.59	355.10	13.62	-26.7	-27.5	14.6	1.10e-06	0	43	0	760217600	13	3976
2026-01-27 06:52:44.59	354.94	13.68	-26.9	-28.0	14.3	4.11e-04	0	43	0	767557632	13	4102
2026-01-27 06:52:45.59	354.78	13.74	-26.9	-28.0	14.4	1.10e-06	0	43	0	774897664	13	4091
2026-01-27 06:52:46.59	354.61	13.80	-26.5	-27.2	14.8	0.00e+00	0	43	0	782237696	13	3900
2026-01-27 06:52:47.59	354.45	13.86	-26.3	-27.2	15.0	0.00e+00	0	43	0	789577728	12	4003
2026-01-27 06:52:48.60	354.28	13.92	-26.3	-27.3	15.0	1.10e-06	0	43	0	796917760	12	4009
2026-01-27 06:52:49.60	354.11	13.98	-26.5	-27.6	14.8	0.00e+00	0	43	0	804257792	12	4093
2026-01-27 06:52:50.61	353.94	14.04	-26.6	-27.3	14.8	0.00e+00	0	43	0	811597824	13	3915
2026-01-27 06:52:51.60	353.78	14.09	-26.7	-27.7	14.6	3.25e-04	0	43	0	818937856	13	4016
2026-01-27 06:52:52.61	353.61	14.15	-26.8	-27.7	14.5	0.00e+00	0	43	0	825229312	13	4016
2026-01-27 06:52:53.61	353.44	14.21	-26.5	-27.3	14.8	0.00e+00	0	43	0	832569344	13	3907
2026-01-27 06:52:54.62	353.26	14.27	-26.4	-27.5	14.9	1.10e-06	0	43	0	840957952	12	4083
2026-01-27 06:52:55.62	353.09	14.33	-26.5	-27.5	14.9	0.00e+00	0	43	0	847249408	12	4076
2026-01-27 06:52:56.62	352.92	14.39	-26.5	-27.6	14.9	0.00e+00	0	43	0	854589440	12	4087
2026-01-27 06:52:57.63	352.75	14.45	-26.4	-27.5	15.0	0.00e+00	0	43	0	861929472	12	4062
2026-01-27 06:52:58.63	352.57	14.50	-26.4	-27.3	15.0	0.00e+00	0	43	0	869269504	12	4033
2026-01-27 06:52:59.62	352.40	14.56	-26.4	-27.4	15.0	0.00e+00	0	43	0	876609536	12	4058
2026-01-27 06:53:00.63	352.23	14.62	-26.3	-27.2	15.1	0.00e+00	0	43	0	883949568	12	4005
2026-01-27 06:53:01.63	352.05	14.68	-26.1	-26.8	15.4	0.00e+00	0	44	0	891289600	12	3885
2026-01-27 06:53:02.63	351.88	14.73	-26.1	-26.8	15.3	0.00e+00	0	43	0	898629632	12	3901
2026-01-27 06:53:03.63	351.70	14.79	-26.1	-26.7	15.4	0.00e+00	0	43	0	904921088	12	3880
2026-01-27 06:53:04.63	351.52	14.85	-26.0	-26.6	15.5	0.00e+00	0	43	0	912261120	12	3852
2026-01-27 06:53:05.64	351.34	14.91	-26.3	-27.2	15.2	0.00e+00	0	43	0	919601152	12	3980
2026-01-27 06:53:06.65	351.16	14.96	-26.2	-26.9	15.3	0.00e+00	0	44	0	926941184	12	3923
2026-01-27 06:53:07.65	350.98	15.02	-26.0	-26.5	15.5	0.00e+00	0	43	0	934281216	12	3827
2026-01-27 06:53:08.65	350.80	15.08	-25.9	-26.4	15.6	0.00e+00	0	43	0	941621248	12	3791
2026-01-27 06:53:09.66	350.62	15.13	-25.9	-26.9	15.7	0.00e+00	0	43	0	948961280	11	4013
2026-01-27 06:53:10.67	350.44	15.19	-25.9	-26.9	15.7	0.00e+00	0	43	0	956301312	11	4018
2026-01-27 06:53:11.67	350.26	15.25	-25.9	-26.9	15.7	0.00e+00	0	44	0	963641344	11	4015
2026-01-27 06:53:12.67	350.07	15.30	-25.9	-26.9	15.7	0.00e+00	0	43	0	970981376	11	4013
2026-01-27 06:53:13.68	349.89	15.36	-25.9	-26.7	15.7	0.00e+00	0	43	0	978321408	11	3976
2026-01-27 06:53:14.68	349.71	15.42	-25.8	-26.6	15.8	0.00e+00	0	43	0	985661440	11	3940
2026-01-27 06:53:15.68	349.52	15.47	-25.8	-26.6	15.8	1.10e-06	0	43	0	991952896	11	3938
2026-01-27 06:53:16.69	349.33	15.53	-25.8	-26.5	15.9	0.00e+00	0	43	0	999292928	11	3922
2026-01-27 06:53:17.70	349.15	15.58	-25.6	-26.1	16.1	0.00e+00	0	43	0	1006632960	11	3826
2026-01-27 06:53:18.70	348.96	15.64	-25.6	-26.2	16.0	0.00e+00	0	43	0	1013972992	11	3855
2026-01-27 06:53:19.71	348.77	15.69	-25.8	-26.5	15.9	0.00e+00	0	44	0	1021313024	11	3919
2026-01-27 06:53:20.71	348.58	15.75	-25.8	-26.6	15.9	0.00e+00	0	44	0	1028653056	11	3941
2026-01-27 06:53:21.71	348.39	15.80	-25.8	-26.5	15.9	0.00e+00	0	44	0	1035993088	11	3914
2026-01-27 06:53:22.71	348.20	15.86	-25.8	-26.6	15.8	0.00e+00	0	44	0	1043333120	11	3960
2026-01-27 06:53:23.72	348.01	15.91	-25.8	-26.7	15.8	0.00e+00	0	44	0	1050673152	11	3965
2026-01-27 06:53:24.72	347.82	15.96	-25.8	-26.6	15.8	0.00e+00	0	44	0	1058013184	11	3954
2026-01-27 06:53:25.73	347.63	16.02	-26.0	-27.0	15.6	0.00e+00	0	44	0	1065353216	11	4035
2026-01-27 06:53:26.74	347.43	16.07	-25.9	-26.8	15.8	0.00e+00	0	44	0	1072693248	11	3985
2026-01-27 06:53:27.75	347.24	16.13	-25.7	-26.4	15.9	0.00e+00	0	44	0	1078984704	11	3908
2026-01-27 06:53:28.75	347.04	16.18	-25.7	-26.4	16.0	0.00e+00	0	44	0	1086324736	11	3895
2026-01-27 06:53:29.76	346.85	16.23	-25.7	-26.3	16.0	0.00e+00	0	44	0	1093664768	11	3867
2026-01-27 06:53:30.76	346.65	16.28	-25.7	-26.4	16.0	0.00e+00	0	44	0	1101004800	11	3887
2026-01-27 06:53:31.77	346.45	16.34	-25.6	-26.2	16.1	0.00e+00	0	44	0	1108344832	11	3855
2026-01-27 06:53:32.77	346.26	16.39	-25.9	-26.7	15.8	0.00e+00	0	44	0	1115684864	11	3979
2026-01-27 06:53:33.78	346.06	16.44	-25.7	-26.4	15.9	0.00e+00	0	44	0	1123024896	11	3904
2026-01-27 06:53:34.78	345.86	16.49	-25.5	-26.1	16.2	0.00e+00	0	44	0	1130364928	11	3817
2026-01-27 06:53:35.79	345.66	16.54	-25.5	-25.8	16.3	0.00e+00	0	44	0	1137704960	11	3765
2026-01-27 06:53:36.80	345.46	16.60	-25.5	-25.9	16.3	0.00e+00	0	44	0	1145044992	11	3776
2026-01-27 06:53:37.80	345.26	16.65	-25.5	-26.0	16.2	0.00e+00	0	44	0	1152385024	11	3794
2026-01-27 06:53:38.80	345.05	16.70	-25.6	-26.1	16.1	0.00e+00	0	44	0	1158676480	11	3832
2026-01-27 06:53:39.80	344.85	16.75	-25.5	-26.0	16.2	0.00e+00	0	44	0	1166016512	11	3804
2026-01-27 06:53:40.81	344.65	16.80	-25.5	-25.9	16.2	0.00e+00	0	44	0	1173356544	11	3773
2026-01-27 06:53:41.81	344.45	16.85	-25.7	-26.3	16.0	0.00e+00	0	44	0	1180696576	11	3872
2026-01-27 06:53:42.82	344.24	16.90	-25.5	-25.9	16.2	0.00e+00	0	44	0	1188036608	11	3781
2026-01-27 06:53:43.82	344.04	16.95	-25.3	-25.6	16.0	0.00e+00	0	44	0	1195376640	11	3706
2026-01-27 06:53:44.83	343.83	17.00	-25.3	-25.6	16.3	0.00e+00	0	44	0	1202716672	11	3703
2026-01-27 06:53:45.83	343.62	17.04	-25.5	-26.0	16.2	0.00e+00	0	44	0	1210056704	11	3795
2026-01-27 06:53:46.84	343.42	17.09	-25.5	-26.0	16.2	0.00e+00	0	43	0	1217396736	11	3799
2026-01-27 06:53:47.85	343.21	17.14	-25.5	-25.9	16.2	0.00e+00	0	44	0	1224736768	11	3776
2026-01-27 06:53:48.85	343.00	17.19	-25.6	-26.1	16.2	0.00e+00	0	44	0	1232076800	11	3818
2026-01-27 06:53:49.85	342.79	17.24	-25.5	-25.9	16.2	0.00e+00	0	44	0	1239416832	11	3785
2026-01-27 06:53:50.85	342.58	17.28	-25.5	-25.9	16.2	0.00e+00	0	44	0	1245708288	11	3789
2026-01-27 06:53:51.85	342.37	17.33	-25.5	-25.9	16.2	0.00e+00	0	44	0	1253048320	11	3777
2026-01-27 06:53:52.86	342.16	17.38	-25.7	-26.4	16.0	0.00e+00	0	44	0	1260388352	11	3908
2026-01-27 06:53:53.86	341.95	17.42	-25.5	-25.9	16.2	0.00e+00	0	44	0	1267728384	11	3768
2026-01-27 06:53:54.87	341.73	17.47	-25.3	-25.4	16.5	0.00e+00	0	44	0	1275068416	11	3666
2026-01-27 06:53:55.87	341.52	17.52	-25.2	-25.3	16.6	4.50e-06	0	44	0	1282408448	11	3647
2026-01-27 06:53:56.88	341.31	17.56	-25.2	-25.4	16.6	7.78e-05	0	44	0	1289748480	11	3653
2026-01-27 06:53:57.88	341.09	17.61	-25.2	-25.3	16.6	0.00e+00	0	44	0	1297088512	11	3643
2026-01-27 06:53:58.88	340.88	17.65	-25.3	-26.1	16.4	1.38e-04	0	44	0	1304428544	10	3924
2026-01-27 06:53:59.89	340.66	17.70	-25.3	-25.9	16.5	9.72e-05	0	44	0	1311768576	10	3890
2026-01-27 06:54:00.89	340.45	17.74	-25.3	-26.0	16.5	0.00e+00	0	44	0	1319108608	10	3898
2026-01-27 06:54:01.89	340.23	17.78	-25.2	-25.9	16.5	1.10e-06	0	44	0	1325400064	10	3886
2026-01-27 06:54:02.90	340.01	17.83	-25.3	-26.1	16.4	0.00e+00	0	44	0	1332740096	10	3927
2026-01-27 06:54:03.91	339.79	17.87	-25.2	-25.8	16.6	0.00e+00	0	44	0	1340080128	10	3846
2026-01-27 06:54:04.91	339.57	17.91	-25.1	-25.5	16.8	0.00e+00	0	44	0	1347420160	10	3781
2026-01-27 06:54:05.91	339.36	17.96	-25.2	-25.7	16.6	0.00e+00	0	44	0	1354760192	10	3834
2026-01-27 06:54:06.92	339.13	18.00	-24.9	-25.3	16.9	0.00e+00	0	44	0	1362100224	10	3732
2026-01-27 06:54:07.92	338.91	18.04	-24.9	-25.1	17.0	0.00e+00	0	44	0	1369440256	10	3690
2026-01-27 06:54:08.93	338.69	18.08	-24.9	-25.2	16.9	1.68e-04	0	44	0	1376780288	10	3714
2026-01-27 06:54:09.93	338.47	18.12	-24.8	-24.9	17.1	0.00e+00	0	44	0	1384120320	10	3661
2026-01-27 06:54:10.93	338.25	18.16	-24.9	-25.6	16.9	3.44e-04	0	44	0	1391460352	9	3905
2026-01-27 06:54:11.94	338.02	18.20	-24.8	-25.4	17.0	3.50e-04	0	44	0	1398800384	9	3870
2026-01-27 06:54:12.94	337.80	18.24	-24.7	-25.3	17.1	0.00e+00	0	44	0	1406140416	9	3840
2026-01-27 06:54:13.94	337.58	18.28	-24.8	-25.5	17.0	2.94e-04	0	44	0	1412431872	9	3890
2026-01-27 06:54:14.94	337.35	18.32	-24.8	-25.5	17.0	1.48e-04	0	44	0	1419771904	9	3900
2026-01-27 06:54:15.95	337.13	18.36	-24.7	-25.3	17.1	0.00e+00	0	44	0	1427111936	9	3837
2026-01-27 06:54:16.95	336.90	18.40	-24.7	-25.2	17.2	0.00e+00	0	44	0	1434451968	9	3809
2026-01-27 06:54:17.96	336.67	18.43	-24.7	-25.2	17.1	0.00e+00	0	44	0	1441792000	9	3822
2026-01-27 06:54:18.96	336.45	18.47	-24.7	-25.1	17.2	0.00e+00	0	44	0	1449132032	9	3801
2026-01-27 06:54:19.97	336.22	18.51	-24.7	-25.2	17.1	0.00e+00	0	44	0	1456472064	9	3828
2026-01-27 06:54:20.97	335.99	18.54	-24.6	-25.0	17.3	0.00e+00	0	44	0	1463812096	9	3779
2026-01-27 06:54:21.98	335.76	18.58	-24.7	-25.1	17.2	0.00e+00	0	44	0	1471152128	9	3805
2026-01-27 06:54:22.97	335.53	18.62	-24.8	-25.5	17.0	0.00e+00	0	44	0	1478492160	9	3891
2026-01-27 06:54:23.98	335.30	18.65	-24.7	-25.1	17.2	0.00e+00	0	44	0	1485832192	9	3808
2026-01-27 06:54:24.98	335.07	18.69	-24.6	-25.0	17.3	0.00e+00	0	43	0	1493172224	9	3785
2026-01-27 06:54:25.98	334.84	18.72	-24.7	-25.3	17.2	0.00e+00	0	44	0	1499463680	9	3836
2026-01-27 06:54:26.99	334.61	18.75	-24.5	-24.9	17.3	0.00e+00	0	44	0	1506803712	9	3754
2026-01-27 06:54:28.00	334.38	18.79	-24.5	-24.8	17.4	0.00e+00	0	44	0	1514143744	9	3724
2026-01-27 06:54:29.00	334.14	18.82	-24.6	-25.0	17.3	0.00e+00	0	44	0	1521483776	9	3784
2026-01-27 06:54:30.00	333.91	18.85	-24.4	-24.7	17.4	0.00e+00	0	44	0	1528823808	9	3712
2026-01-27 06:54:31.00	333.68	18.89	-24.4	-24.7	17.5	0.00e+00	0	44	0	1536163840	9	3694
2026-01-27 06:54:32.01	333.44	18.92	-24.5	-24.8	17.4	1.10e-06	0	44	0	1543503872	9	3720
2026-01-27 06:54:33.01	333.21	18.95	-24.4	-25.2	17.4	0.00e+00	0	44	0	1550843904	8	3927
2026-01-27 06:54:34.01	332.97	18.98	-24.7	-25.2	17.2	0.00e+00	0	44	0	1557135360	9	3821
2026-01-27 06:54:35.02	332.74	19.01	-24.6	-25.0	17.3	0.00e+00	0	44	0	1565523968	9	3777
2026-01-27 06:54:36.02	332.50	19.04	-24.7	-25.2	17.2	0.00e+00	0	44	0	1572864000	9	3818
2026-01-27 06:54:37.03	332.26	19.07	-24.8	-25.4	17.1	0.00e+00	0	44	0	1579155456	9	3856
2026-01-27 06:54:38.03	332.03	19.10	-24.8	-25.4	17.1	0.00e+00	0	44	0	1586495488	9	3864
2026-01-27 06:54:39.04	331.79	19.13	-24.8	-25.4	17.1	0.00e+00	0	44	0	1593835520	9	3862
2026-01-27 06:54:40.04	331.55	19.15	-24.8	-25.4	17.1	0.00e+00	0	44	0	1601175552	9	3864
2026-01-27 06:54:41.04	331.31	19.18	-24.9	-25.6	17.0	0.00e+00	0	44	0	1608515584	9	3907
2026-01-27 06:54:42.04	331.08	19.21	-25.0	-25.8	16.8	0.00e+00	0	44	0	1615855616	9	3973
2026-01-27 06:54:43.04	330.84	19.24	-24.8	-25.4	17.1	0.00e+00	0	44	0	1623195648	9	3858
2026-01-27 06:54:44.04	330.60	19.26	-24.7	-25.2	17.2	0.00e+00	0	44	0	1630535680	9	3821
2026-01-27 06:54:45.04	330.36	19.29	-24.7	-25.2	17.2	0.00e+00	0	44	0	1637875712	9	3825
2026-01-27 06:54:46.05	330.12	19.31	-24.6	-25.1	17.2	0.00e+00	0	44	0	1644167168	9	3792
2026-01-27 06:54:47.05	329.88	19.34	-24.7	-25.3	17.1	0.00e+00	0	44	0	1651507200	9	3847
2026-01-27 06:54:48.06	329.64	19.36	-24.6	-24.9	17.4	0.00e+00	0	44	0	1658847232	9	3753
2026-01-27 06:54:49.06	329.39	19.38	-24.5	-24.8	17.4	0.00e+00	0	44	0	1666187264	9	3722
2026-01-27 06:54:50.07	329.15	19.41	-24.6	-25.1	17.3	0.00e+00	0	44	0	1673527296	9	3793
2026-01-27 06:54:51.07	328.91	19.43	-24.5	-25.2	17.4	0.00e+00	0	44	0	1680867328	8	3936
2026-01-27 06:54:52.08	328.67	19.45	-24.7	-25.1	17.2	0.00e+00	0	44	0	1688207360	9	3808
2026-01-27 06:54:53.08	328.42	19.47	-24.7	-25.3	17.2	0.00e+00	0	44	0	1695547392	9	3836
2026-01-27 06:54:54.09	328.18	19.49	-24.6	-25.1	17.2	0.00e+00	0	44	0	1702887424	9	3799
2026-01-27 06:54:55.08	327.94	19.51	-24.7	-25.3	17.1	0.00e+00	0	44	0	1710227456	9	3851
2026-01-27 06:54:56.09	327.69	19.53	-24.9	-25.7	17.0	0.00e+00	0	44	0	1717567488	9	3929
2026-01-27 06:54:57.09	327.45	19.55	-24.8	-25.4	17.1	0.00e+00	0	44	0	1724907520	9	3867
2026-01-27 06:54:58.09	327.20	19.57	-24.7	-25.3	17.1	0.00e+00	0	44	0	1731198976	9	3857
2026-01-27 06:54:59.09	326.96	19.59	-24.7	-25.3	17.2	0.00e+00	0	44	0	1738539008	9	3841
2026-01-27 06:55:00.10	326.71	19.61	-24.7	-25.2	17.2	0.00e+00	0	44	0	1745879040	9	3811
2026-01-27 06:55:01.10	326.47	19.62	-24.9	-25.6	17.0	0.00e+00	0	44	0	1753219072	9	3901
2026-01-27 06:55:02.10	326.22	19.64	-24.6	-24.9	17.3	0.00e+00	0	44	0	1760559104	9	3758
2026-01-27 06:55:03.10	325.98	19.66	-24.5	-24.8	17.4	0.00e+00	0	44	0	1767899136	9	3731
2026-01-27 06:55:04.11	325.73	19.67	-24.5	-24.7	17.5	0.00e+00	0	44	0	1775239168	9	3714
2026-01-27 06:55:05.11	325.48	19.69	-24.5	-24.9	17.3	0.00e+00	0	44	0	1782579200	9	3754
2026-01-27 06:55:06.12	325.24	19.70	-24.4	-24.7	17.5	0.00e+00	0	44	0	1789919232	9	3708
2026-01-27 06:55:07.12	324.99	19.72	-24.5	-24.8	17.5	0.00e+00	0	44	0	1797259264	9	3720
2026-01-27 06:55:08.13	324.74	19.73	-24.4	-24.7	17.5	0.00e+00	0	44	0	1804599296	9	3696
2026-01-27 06:55:09.13	324.49	19.74	-24.5	-24.8	17.4	0.00e+00	0	44	0	1810890752	9	3716
2026-01-27 06:55:10.14	324.24	19.75	-24.4	-24.6	17.5	0.00e+00	0	44	0	1818230784	9	3693
2026-01-27 06:55:11.15	324.00	19.77	-24.5	-24.8	17.4	0.00e+00	0	44	0	1825570816	9	3731
2026-01-27 06:55:12.15	323.75	19.78	-24.4	-24.6	17.5	0.00e+00	0	44	0	1832910848	9	3687
2026-01-27 06:55:13.15	323.50	19.79	-24.4	-24.7	17.5	0.00e+00	0	44	0	1840250880	9	3696
2026-01-27 06:55:14.16	323.25	19.80	-24.4	-24.6	17.5	0.00e+00	0	44	0	1847590912	9	3675
2026-01-27 06:55:15.16	323.00	19.81	-24.4	-25.2	17.5	0.00e+00	0	44	0	1854930944	8	3921
2026-01-27 06:55:16.17	322.75	19.82	-24.3	-25.0	17.6	0.00e+00	0	44	0	1862270976	8	3892
2026-01-27 06:55:17.17	322.50	19.82	-24.4	-25.0	17.5	0.00e+00	0	44	0	1869611008	8	3885
2026-01-27 06:55:18.17	322.26	19.83	-24.5	-25.4	17.4	0.00e+00	0	44	0	1876951040	8	3970
2026-01-27 06:55:19.17	322.01	19.84	-24.4	-25.0	17.5	0.00e+00	0	44	0	1884291072	8	3885
2026-01-27 06:55:20.17	321.76	19.85	-24.3	-24.9	17.6	0.00e+00	0	44	0	1891631104	8	3864
2026-01-27 06:55:21.17	321.51	19.85	-24.4	-25.1	17.5	0.00e+00	0	44	0	1897922560	8	3900
2026-01-27 06:55:22.18	321.26	19.86	-24.4	-25.2	17.5	0.00e+00	0	44	0	1905262592	8	3916
2026-01-27 06:55:23.18	321.01	19.86	-24.3	-25.0	17.6	0.00e+00	0	44	0	1912602624	8	3866
2026-01-27 06:55:24.19	320.76	19.87	-24.3	-25.0	17.6	0.00e+00	0	44	0	1919942656	8	3869
2026-01-27 06:55:25.19	320.51	19.87	-24.4	-25.1	17.5	0.00e+00	0	44	0	1927282688	8	3914
2026-01-27 06:55:26.20	320.26	19.87	-24.2	-24.7	17.7	0.00e+00	0	44	0	1934622720	8	3815
2026-01-27 06:55:27.21	320.01	19.88	-24.3	-24.8	17.7	0.00e+00	0	44	0	1941962752	8	3836
2026-01-27 06:55:28.21	319.76	19.88	-24.4	-25.1	17.5	0.00e+00	0	44	0	1949302784	8	3892
2026-01-27 06:55:29.22	319.51	19.88	-24.4	-25.0	17.5	0.00e+00	0	44	0	1956642816	8	3877
2026-01-27 06:55:30.23	319.25	19.88	-24.4	-25.0	17.5	0.00e+00	0	44	0	1963982848	8	3886
2026-01-27 06:55:31.23	319.01	19.88	-24.3	-24.9	17.6	0.00e+00	0	44	0	1971322880	8	3866
2026-01-27 06:55:32.24	318.75	19.88	-24.3	-25.0	17.6	8.92e-05	0	44	0	1977614336	8	3877
2026-01-27 06:55:33.24	318.50	19.88	-24.3	-24.9	17.6	0.00e+00	0	44	0	1984954368	8	3865
2026-01-27 06:55:34.24	318.26	19.88	-24.3	-25.0	17.6	3.75e-04	0	44	0	1992294400	8	3876
2026-01-27 06:55:35.23	318.01	19.88	-24.4	-25.0	17.6	0.00e+00	0	44	0	1999634432	8	3880
2026-01-27 06:55:36.24	317.76	19.87	-24.5	-25.4	17.3	0.00e+00	0	44	0	2006974464	8	3969
2026-01-27 06:55:37.24	317.51	19.87	-24.3	-25.0	17.6	8.41e-04	0	44	0	2014314496	8	3871
2026-01-27 06:55:38.23	317.26	19.87	-24.2	-24.8	17.7	0.00e+00	0	44	0	2021654528	8	3826
2026-01-27 06:55:39.24	317.01	19.86	-24.2	-24.7	17.7	0.00e+00	0	44	0	2028994560	8	3820
2026-01-27 06:55:40.24	316.76	19.86	-24.2	-24.8	17.7	8.81e-04	0	44	0	2036334592	8	3824
2026-01-27 06:55:41.25	316.51	19.85	-24.4	-25.0	17.6	9.47e-04	0	44	0	2042626048	8	3880
2026-01-27 06:55:42.25	316.26	19.85	-24.4	-25.0	17.5	0.00e+00	0	44	0	2049966080	8	3887
2026-01-27 06:55:43.26	316.01	19.84	-24.4	-25.2	17.5	0.00e+00	0	44	0	2057306112	8	3918
2026-01-27 06:55:44.26	315.76	19.83	-24.5	-25.3	17.4	9.74e-04	0	44	0	2064646144	8	3943
2026-01-27 06:55:45.26	315.51	19.83	-24.5	-25.3	17.4	0.00e+00	0	44	0	2071986176	8	3955
2026-01-27 06:55:46.25	315.27	19.82	-24.5	-25.4	17.4	8.67e-04	0	44	0	2079326208	8	3971
2026-01-27 06:55:47.26	315.02	19.81	-24.6	-25.1	17.3	8.37e-04	0	44	0	2086666240	9	3792
2026-01-27 06:55:48.26	314.77	19.80	-24.8	-25.5	17.0	0.00e+00	0	44	0	2094006272	9	3897
2026-01-27 06:55:49.27	314.52	19.79	-24.9	-25.6	17.0	7.60e-04	0	44	0	2101346304	9	3918
2026-01-27 06:55:50.27	314.27	19.78	-24.6	-25.0	17.3	0.00e+00	0	44	0	2108686336	9	3761
2026-01-27 06:55:51.27	314.02	19.77	-24.4	-24.7	17.5	0.00e+00	0	44	0	2116026368	9	3699
2026-01-27 06:55:52.28	313.77	19.76	-24.4	-25.1	17.5	8.72e-04	0	44	0	2123366400	8	3890
2026-01-27 06:55:53.28	313.53	19.75	-24.4	-25.2	17.5	0.00e+00	0	44	0	2129657856	8	3921
2026-01-27 06:55:54.28	313.28	19.73	-24.4	-25.2	17.4	0.00e+00	0	44	0	2136997888	8	3921
2026-01-27 06:55:55.29	313.03	19.72	-24.3	-25.0	17.6	0.00e+00	0	44	0	2144337920	8	3870
2026-01-27 06:55:56.29	312.78	19.71	-24.3	-24.9	17.6	9.93e-04	0	44	0	2151677952	8	3860
2026-01-27 06:55:57.30	312.53	19.69	-24.3	-25.0	17.6	0.00e+00	0	44	0	2159017984	8	3867
2026-01-27 06:55:58.31	312.29	19.68	-24.5	-25.2	17.4	0.00e+00	0	44	0	2166358016	8	3926
2026-01-27 06:55:59.31	312.04	19.66	-24.3	-24.9	17.6	9.05e-04	0	44	0	2173698048	8	3846
2026-01-27 06:56:00.32	311.79	19.65	-24.2	-24.6	17.7	0.00e+00	0	44	0	2181038080	8	3793
2026-01-27 06:56:01.32	311.55	19.63	-24.3	-24.9	17.6	0.00e+00	0	44	0	2188378112	8	3845
2026-01-27 06:56:02.33	311.30	19.61	-24.3	-24.9	17.6	0.00e+00	0	44	0	2195718144	8	3857
2026-01-27 06:56:03.33	311.05	19.59	-24.2	-24.6	17.8	0.00e+00	0	44	0	2203058176	8	3782
2026-01-27 06:56:04.33	310.81	19.58	-24.3	-24.8	17.7	6.02e-04	0	44	0	2209349632	8	3832
2026-01-27 06:56:05.33	310.57	19.56	-24.3	-24.9	17.6	0.00e+00	0	44	0	2216689664	8	3864
2026-01-27 06:56:06.33	310.32	19.54	-24.5	-25.3	17.4	0.00e+00	0	44	0	2224029696	8	3938
2026-01-27 06:56:07.34	310.08	19.52	-24.5	-25.3	17.4	0.00e+00	0	44	0	2231369728	8	3942
2026-01-27 06:56:08.34	309.83	19.50	-24.7	-25.2	17.2	0.00e+00	0	44	0	2238709760	9	3808
2026-01-27 06:56:09.34	309.59	19.48	-24.7	-25.3	17.1	0.00e+00	0	44	0	2246049792	9	3837
2026-01-27 06:56:10.35	309.34	19.46	-24.5	-25.3	17.4	0.00e+00	0	44	0	2253389824	8	3943
2026-01-27 06:56:11.35	309.10	19.43	-24.3	-25.0	17.5	0.00e+00	0	44	0	2260729856	8	3869
2026-01-27 06:56:12.35	308.86	19.41	-24.3	-24.9	17.6	0.00e+00	0	44	0	2268069888	8	3856
2026-01-27 06:56:13.35	308.62	19.39	-24.4	-25.0	17.5	0.00e+00	0	44	0	2274361344	8	3881
2026-01-27 06:56:14.35	308.38	19.37	-24.2	-24.7	17.7	0.00e+00	0	44	0	2281701376	8	3804
2026-01-27 06:56:15.36	308.13	19.34	-24.2	-24.8	17.6	0.00e+00	0	44	0	2289041408	8	3829
2026-01-27 06:56:16.36	307.89	19.32	-24.2	-24.8	17.6	0.00e+00	0	44	0	2296381440	8	3825
2026-01-27 06:56:17.37	307.65	19.29	-24.2	-24.7	17.7	0.00e+00	0	44	0	2303721472	8	3808
2026-01-27 06:56:18.36	307.41	19.27	-24.2	-24.7	17.6	0.00e+00	0	44	0	2311061504	8	3816
2026-01-27 06:56:19.37	307.17	19.24	-24.3	-24.8	17.6	0.00e+00	0	44	0	2318401536	8	3842
2026-01-27 06:56:20.37	306.93	19.22	-24.3	-24.8	17.6	0.00e+00	0	44	0	2325741568	8	3829
2026-01-27 06:56:21.38	306.69	19.19	-24.3	-24.8	17.6	0.00e+00	0	44	0	2333081600	8	3838
2026-01-27 06:56:22.38	306.45	19.16	-24.3	-24.8	17.6	0.00e+00	0	44	0	2340421632	8	3838
2026-01-27 06:56:23.38	306.22	19.13	-24.3	-24.8	17.6	0.00e+00	0	44	0	2347761664	8	3835
2026-01-27 06:56:24.39	305.98	19.11	-24.1	-24.5	17.8	0.00e+00	0	44	0	2355101696	8	3766
2026-01-27 06:56:25.39	305.74	19.08	-24.1	-24.5	17.7	0.00e+00	0	44	0	2361393152	8	3775
2026-01-27 06:56:26.39	305.50	19.05	-24.2	-24.6	17.7	0.00e+00	0	44	0	2368733184	8	3780
2026-01-27 06:56:27.40	305.27	19.02	-24.2	-24.7	17.7	0.00e+00	0	44	0	2376073216	8	3803
2026-01-27 06:56:28.40	305.03	18.99	-24.3	-24.8	17.6	0.00e+00	0	44	0	2383413248	8	3834
2026-01-27 06:56:29.41	304.79	18.96	-24.4	-25.0	17.5	0.00e+00	0	44	0	2390753280	8	3878
2026-01-27 06:56:30.41	304.56	18.93	-24.4	-25.1	17.5	0.00e+00	0	44	0	2398093312	8	3894
2026-01-27 06:56:31.42	304.32	18.89	-24.4	-25.0	17.5	0.00e+00	0	44	0	2405433344	8	3887
2026-01-27 06:56:32.43	304.09	18.86	-24.4	-25.1	17.4	0.00e+00	0	44	0	2412773376	8	3894
2026-01-27 06:56:33.43	303.85	18.83	-24.3	-24.9	17.5	0.00e+00	0	44	0	2420113408	8	3865
2026-01-27 06:56:34.44	303.62	18.80	-24.4	-25.1	17.4	0.00e+00	0	44	0	2427453440	8	3901
2026-01-27 06:56:35.44	303.39	18.76	-24.5	-25.2	17.4	0.00e+00	0	44	0	2434793472	8	3932
2026-01-27 06:56:36.45	303.15	18.73	-24.5	-25.3	17.3	0.00e+00	0	44	0	2441084928	8	3943
2026-01-27 06:56:37.45	302.92	18.69	-24.6	-25.5	17.2	0.00e+00	0	44	0	2448424960	8	3997
2026-01-27 06:56:38.46	302.69	18.66	-24.7	-25.2	17.1	0.00e+00	0	44	0	2455764992	9	3812
2026-01-27 06:56:39.47	302.46	18.62	-24.9	-25.1	16.8	0.00e+00	0	44	0	2463105024	10	3702
2026-01-27 06:56:40.47	302.23	18.59	-25.1	-25.6	16.7	0.00e+00	0	44	0	2470445056	10	3807
2026-01-27 06:56:41.48	302.00	18.55	-25.2	-25.8	16.6	0.00e+00	0	44	0	2477785088	10	3850
2026-01-27 06:56:42.49	301.77	18.52	-25.2	-25.9	16.5	0.00e+00	0	44	0	2485125120	10	3876
2026-01-27 06:56:43.49	301.54	18.48	-25.1	-25.5	16.7	0.00e+00	0	44	0	2492465152	10	3788
2026-01-27 06:56:44.50	301.31	18.44	-25.0	-25.3	16.8	0.00e+00	0	44	0	2499805184	10	3749
2026-01-27 06:56:45.49	301.09	18.40	-24.8	-24.9	17.0	0.00e+00	0	44	0	2507145216	10	3661
2026-01-27 06:56:46.50	300.86	18.37	-24.8	-24.9	17.0	0.00e+00	0	44	0	2514485248	10	3646
2026-01-27 06:56:47.51	300.63	18.33	-24.8	-24.8	17.0	0.00e+00	0	44	0	2521825280	10	3637
2026-01-27 06:56:48.51	300.41	18.29	-24.6	-24.6	17.2	0.00e+00	0	44	0	2528116736	10	3581
2026-01-27 06:56:49.51	300.18	18.25	-24.5	-24.4	17.2	0.00e+00	0	44	0	2535456768	10	3544
2026-01-27 06:56:50.52	299.96	18.21	-24.6	-24.5	17.2	0.00e+00	0	44	0	2543845376	10	3566
2026-01-27 06:56:51.52	299.73	18.17	-24.6	-24.6	17.2	0.00e+00	0	44	0	2550136832	10	3580
2026-01-27 06:56:52.52	299.51	18.13	-24.7	-24.7	17.1	0.00e+00	0	44	0	2557476864	10	3605
2026-01-27 06:56:53.53	299.29	18.09	-24.7	-24.8	17.0	0.00e+00	0	44	0	2564816896	10	3640
2026-01-27 06:56:54.53	299.06	18.05	-24.8	-24.9	17.0	0.00e+00	0	44	0	2572156928	10	3660
2026-01-27 06:56:55.54	298.84	18.00	-24.9	-25.1	16.9	0.00e+00	0	44	0	2579496960	10	3703
2026-01-27 06:56:56.54	298.62	17.96	-24.9	-25.1	16.9	0.00e+00	0	44	0	2586836992	10	3700
2026-01-27 06:56:57.55	298.40	17.92	-24.8	-25.0	16.9	0.00e+00	0	44	0	2594177024	10	3668
2026-01-27 06:56:58.55	298.18	17.88	-24.8	-25.5	16.9	0.00e+00	0	44	0	2601517056	9	3891
2026-01-27 06:56:59.55	297.96	17.83	-24.8	-25.5	16.8	0.00e+00	0	44	0	2607808512	9	3898
2026-01-27 06:57:00.56	297.74	17.79	-24.8	-25.5	16.8	0.00e+00	0	44	0	2615148544	9	3894
2026-01-27 06:57:01.57	297.52	17.75	-24.9	-25.6	16.8	0.00e+00	0	44	0	2623537152	9	3914
2026-01-27 06:57:02.57	297.31	17.70	-24.8	-25.4	16.9	0.00e+00	0	44	0	2629828608	9	3873
2026-01-27 06:57:03.58	297.09	17.66	-24.8	-25.4	16.9	0.00e+00	0	44	0	2637168640	9	3871
2026-01-27 06:57:04.58	296.87	17.61	-24.8	-25.5	16.9	0.00e+00	0	44	0	2644508672	9	3907
2026-01-27 06:57:05.59	296.66	17.57	-24.8	-25.5	16.9	0.00e+00	0	44	0	2651848704	9	3896
2026-01-27 06:57:06.59	296.44	17.52	-24.7	-25.2	15.7	0.00e+00	0	44	0	2659188736	9	3829
2026-01-27 06:57:07.59	296.23	17.48	-24.7	-25.3	15.9	0.00e+00	0	44	0	2666528768	9	3847
2026-01-27 06:57:08.60	296.02	17.43	-24.8	-25.5	16.9	0.00e+00	0	44	0	2673868800	9	3891
2026-01-27 06:57:09.61	295.80	17.38	-24.8	-25.4	16.9	0.00e+00	0	44	0	2681208832	9	3862
2026-01-27 06:57:10.62	295.59	17.34	-24.9	-25.7	16.8	0.00e+00	0	44	0	2688548864	9	3940
2026-01-27 06:57:11.62	295.38	17.29	-24.8	-25.6	16.8	0.00e+00	0	44	0	2695888896	9	3912
2026-01-27 06:57:12.63	295.17	17.24	-24.8	-25.4	16.9	0.00e+00	0	44	0	2703228928	9	3873
2026-01-27 06:57:13.63	294.96	17.19	-24.8	-25.5	16.8	1.64e-04	0	44	0	2710568960	9	3895
2026-01-27 06:57:14.64	294.75	17.15	-24.8	-25.4	16.9	0.00e+00	0	44	0	2716860416	9	3879
2026-01-27 06:57:15.64	294.54	17.10	-24.8	-25.4	16.9	2.61e-04	0	44	0	2724200448	9	3858
2026-01-27 06:57:16.64	294.33	17.05	-24.8	-25.5	16.8	0.00e+00	0	44	0	2731540480	9	3891
2026-01-27 06:57:17.64	294.13	17.00	-24.8	-25.4	16.9	0.00e+00	0	44	0	2738880512	9	3878
2026-01-27 06:57:18.65	293.92	16.95	-24.7	-25.3	16.9	0.00e+00	0	44	0	2746220544	9	3861
2026-01-27 06:57:19.65	293.71	16.90	-24.8	-25.4	16.9	0.00e+00	0	44	0	2753560576	9	3863
2026-01-27 06:57:20.65	293.51	16.85	-24.8	-25.4	16.9	0.00e+00	0	44	0	2760900608	9	3880
2026-01-27 06:57:21.65	293.31	16.80	-24.8	-25.5	16.8	8.44e-04	0	44	0	2768240640	9	3907
2026-01-27 06:57:22.66	293.10	16.75	-24.9	-25.7	16.7	0.00e+00	0	44	0	2775580672	9	3934
2026-01-27 06:57:23.66	292.90	16.70	-24.9	-25.7	16.7	0.00e+00	0	44	0	2781872128	9	3942
2026-01-27 06:57:24.67	292.69	16.65	-24.9	-25.7	16.7	0.00e+00	0	44	0	2790260736	9	3949
2026-01-27 06:57:25.67	292.49	16.60	-25.0	-25.9	16.6	9.61e-04	0	44	0	2797600768	9	3980
2026-01-27 06:57:26.68	292.29	16.55	-25.1	-25.6	16.5	0.00e+00	0	44	0	2803892224	10	3817
2026-01-27 06:57:27.68	292.09	16.50	-25.3	-26.1	16.2	9.33e-04	0	44	0	2811232256	10	3938
2026-01-27 06:57:28.68	291.89	16.45	-25.4	-26.2	16.2	8.86e-04	0	44	0	2818572288	10	3964
2026-01-27 06:57:29.68	291.69	16.39	-25.4	-26.2	16.2	0.00e+00	0	44	0	2825912320	10	3951
2026-01-27 06:57:30.68	291.50	16.34	-25.5	-26.4	16.1	4.95e-04	0	44	0	2833252352	10	4008
2026-01-27 06:57:31.68	291.30	16.29	-25.5	-26.4	16.1	3.43e-04	0	44	0	2840592384	10	3997
2026-01-27 06:57:32.69	291.10	16.24	-25.6	-26.6	16.0	0.00e+00	0	44	0	2847932416	10	4059
2026-01-27 06:57:33.69	290.91	16.18	-25.9	-26.8	15.6	8.01e-05	0	44	0	2855272448	11	3989
2026-01-27 06:57:34.69	290.71	16.13	-25.9	-26.8	15.6	0.00e+00	0	44	0	2861563904	11	4007
2026-01-27 06:57:35.70	290.52	16.08	-26.1	-26.7	15.3	0.00e+00	0	44	0	2868903936	12	3884
2026-01-27 06:57:36.70	290.32	16.02	-26.0	-26.7	15.3	0.00e+00	0	44	0	2876243968	12	3865
2026-01-27 06:57:37.70	290.13	15.97	-25.7	-25.9	15.7	0.00e+00	0	44	0	2883584000	12	3696
2026-01-27 06:57:38.70	289.94	15.92	-25.5	-25.5	15.9	0.00e+00	0	44	0	2890924032	12	3606
2026-01-27 06:57:39.71	289.74	15.86	-25.4	-25.2	16.1	0.00e+00	0	44	0	2898264064	12	3530
2026-01-27 06:57:40.70	289.56	15.81	-25.5	-26.0	16.0	3.31e-05	0	44	0	2905604096	11	3817
2026-01-27 06:57:41.70	289.37	15.75	-25.7	-26.5	15.7	0.00e+00	0	44	0	2912944128	11	3917
2026-01-27 06:57:42.70	289.18	15.70	-25.6	-26.2	15.9	1.10e-06	0	44	0	2920284160	11	3844
2026-01-27 06:57:43.69	288.99	15.64	-25.4	-26.4	16.0	4.91e-04	0	44	0	2926575616	10	4003
2026-01-27 06:57:44.70	288.80	15.59	-25.4	-26.4	16.0	0.00e+00	0	44	0	2933915648	10	4001
2026-01-27 06:57:45.70	288.61	15.53	-25.7	-26.3	15.8	8.88e-04	0	44	0	2941255680	11	3887
2026-01-27 06:57:46.71	288.42	15.48	-26.0	-27.0	15.4	1.02e-03	0	44	0	2948595712	11	4045
2026-01-27 06:57:47.71	288.24	15.42	-25.8	-26.1	15.5	0.00e+00	0	44	0	2955935744	12	3728
2026-01-27 06:57:48.70	288.06	15.37	-25.9	-26.8	15.5	8.56e-04	0	44	0	2963275776	11	3998
2026-01-27 06:57:49.70	287.87	15.31	-25.8	-26.6	15.6	0.00e+00	0	44	0	2970615808	11	3958
2026-01-27 06:57:50.70	287.69	15.26	-25.7	-26.3	15.7	0.00e+00	0	44	0	2977955840	11	3888
2026-01-27 06:57:51.70	287.50	15.20	-25.6	-26.1	15.9	7.45e-04	0	44	0	2984247296	11	3830
2026-01-27 06:57:52.71	287.32	15.14	-25.6	-26.2	15.8	0.00e+00	0	44	0	2991587328	11	3861
2026-01-27 06:57:53.71	287.14	15.09	-25.7	-26.4	15.7	0.00e+00	0	44	0	2998927360	11	3900
2026-01-27 06:57:54.72	286.96	15.03	-26.0	-27.0	15.4	0.00e+00	0	44	0	3006267392	11	4053
2026-01-27 06:57:55.73	286.77	14.97	-25.9	-26.9	15.5	0.00e+00	0	44	0	3013607424	11	4020
2026-01-27 06:57:56.74	286.59	14.91	-25.7	-26.4	15.7	0.00e+00	0	44	0	3020947456	11	3894
2026-01-27 06:57:57.74	286.41	14.86	-25.6	-26.1	15.9	0.00e+00	0	44	0	3028287488	11	3842
2026-01-27 06:57:58.74	286.24	14.80	-25.6	-26.6	15.9	1.07e-03	0	44	0	3035627520	10	4061
2026-01-27 06:57:59.74	286.06	14.74	-25.5	-26.5	15.9	0.00e+00	0	44	0	3042967552	10	4025
2026-01-27 06:58:00.75	285.88	14.68	-25.5	-26.5	15.9	0.00e+00	0	44	0	3050307584	10	4031
2026-01-27 06:58:01.75	285.70	14.63	-25.6	-26.6	15.9	0.00e+00	0	44	0	3057647616	10	4062
2026-01-27 06:58:02.75	285.53	14.57	-25.5	-26.0	16.0	0.00e+00	0	44	0	3064987648	11	3799
2026-01-27 06:58:03.75	285.36	14.51	-25.4	-26.2	16.1	0.00e+00	0	44	0	3071279104	10	3968
2026-01-27 06:58:04.75	285.18	14.45	-25.4	-26.2	16.1	0.00e+00	0	44	0	3078619136	10	3964
2026-01-27 06:58:05.75	285.01	14.39	-25.4	-26.3	16.1	0.00e+00	0	44	0	3085959168	10	3974
2026-01-27 06:58:06.75	284.84	14.33	-25.5	-26.4	15.9	0.00e+00	0	44	0	3093299200	10	4013
2026-01-27 06:58:07.76	284.66	14.28	-25.4	-26.3	16.0	0.00e+00	0	44	0	3100639232	10	3989
2026-01-27 06:58:08.76	284.49	14.22	-25.4	-26.4	16.0	0.00e+00	0	44	0	3107979264	10	4007
2026-01-27 06:58:09.76	284.32	14.16	-25.4	-26.4	16.0	0.00e+00	0	44	0	3115319296	10	4007
2026-01-27 06:58:10.77	284.15	14.10	-25.5	-26.4	16.0	0.00e+00	0	44	0	3122659328	10	4011
2026-01-27 06:58:11.78	283.98	14.04	-25.7	-26.3	15.7	0.00e+00	0	44	0	3129999360	11	3887
2026-01-27 06:58:12.78	283.81	13.98	-25.9	-26.8	15.4	0.00e+00	0	44	0	3137339392	11	4017
2026-01-27 06:58:13.79	283.64	13.92	-26.0	-27.1	15.3	0.00e+00	0	44	0	3144679424	11	4093
2026-01-27 06:58:14.79	283.47	13.86	-25.9	-26.5	15.2	0.00e+00	0	44	0	3152019456	12	3827
2026-01-27 06:58:15.80	283.31	13.80	-26.0	-27.0	15.3	0.00e+00	0	44	0	3158310912	11	4062
2026-01-27 06:58:16.79	283.14	13.74	-26.0	-27.1	15.3	0.00e+00	0	44	0	3165650944	11	4082
2026-01-27 06:58:17.80	282.97	13.68	-26.0	-27.1	15.3	1.10e-06	0	44	0	3172990976	11	4070
2026-01-27 06:58:18.80	282.81	13.62	-26.0	-27.1	15.2	0.00e+00	0	44	0	3180331008	11	4073
2026-01-27 06:58:19.81	282.64	13.56	-26.1	-27.3	15.2	0.00e+00	0	44	0	3187671040	11	4123
2026-01-27 06:58:20.81	282.48	13.50	-25.8	-26.7	15.5	0.00e+00	0	44	0	3195011072	11	3978
2026-01-27 06:58:21.81	282.32	13.44	-25.6	-26.3	15.7	0.00e+00	0	44	0	3202351104	11	3875
2026-01-27 06:58:22.81	282.16	13.38	-25.5	-26.6	15.8	0.00e+00	0	44	0	3209691136	10	4060
2026-01-27 06:58:23.81	282.00	13.32	-25.6	-26.2	15.7	0.00e+00	0	44	0	3215982592	11	3862
2026-01-27 06:58:24.82	281.83	13.26	-25.7	-26.5	15.6	0.00e+00	0	44	0	3224371200	11	3935
2026-01-27 06:58:25.82	281.68	13.20	-25.7	-26.4	15.6	0.00e+00	0	44	0	3231711232	11	3903
2026-01-27 06:58:26.83	281.51	13.14	-25.7	-26.5	15.6	0.00e+00	0	44	0	3238002688	11	3931
2026-01-27 06:58:27.83	281.36	13.08	-25.8	-26.6	15.5	0.00e+00	0	44	0	3245342720	11	3953
2026-01-27 06:58:28.84	281.20	13.02	-25.8	-26.7	15.5	0.00e+00	0	44	0	3252682752	11	3975
2026-01-27 06:58:29.84	281.04	12.96	-25.8	-26.7	15.4	0.00e+00	0	44	0	3260022784	11	3990
2026-01-27 06:58:30.84	280.88	12.90	-25.9	-26.8	15.4	0.00e+00	0	44	0	3267362816	11	4001
2026-01-27 06:58:31.84	280.73	12.84	-26.0	-27.1	15.3	0.00e+00	0	44	0	3274702848	11	4074
2026-01-27 06:58:32.85	280.57	12.78	-26.1	-26.9	15.0	0.00e+00	0	44	0	3282042880	12	3920
2026-01-27 06:58:33.85	280.42	12.72	-26.4	-27.5	14.6	0.00e+00	0	44	0	3289382912	12	4082
2026-01-27 06:58:34.85	280.26	12.66	-26.3	-27.3	14.7	0.00e+00	0	44	0	3296722944	12	4043
2026-01-27 06:58:35.85	280.11	12.59	-26.2	-26.9	14.9	0.00e+00	0	44	0	3303014400	12	3938
2026-01-27 06:58:36.86	279.96	12.53	-26.1	-26.9	15.0	0.00e+00	0	44	0	3310354432	12	3942
2026-01-27 06:58:37.86	279.80	12.47	-26.2	-27.1	14.9	0.00e+00	0	44	0	3317694464	12	3981
2026-01-27 06:58:38.87	279.65	12.41	-26.1	-26.9	15.0	0.00e+00	0	44	0	3325034496	12	3928
2026-01-27 06:58:39.87	279.50	12.35	-26.2	-27.1	14.8	0.00e+00	0	44	0	3332374528	12	3995
2026-01-27 06:58:40.87	279.35	12.29	-26.0	-26.7	15.0	0.00e+00	0	44	0	3339714560	12	3889
2026-01-27 06:58:41.88	279.20	12.23	-25.9	-26.3	15.2	0.00e+00	0	44	0	3347054592	12	3793
2026-01-27 06:58:42.88	279.05	12.17	-25.8	-26.6	15.4	0.00e+00	0	44	0	3354394624	11	3958
2026-01-27 06:58:43.89	278.90	12.10	-25.7	-26.4	15.5	0.00e+00	0	44	0	3361734656	11	3917
2026-01-27 06:58:44.89	278.75	12.04	-25.7	-26.5	15.5	0.00e+00	0	44	0	3369074688	11	3934
2026-01-27 06:58:45.90	278.61	11.98	-25.9	-26.8	15.3	0.00e+00	0	44	0	3376414720	11	4018
2026-01-27 06:58:46.90	278.46	11.92	-26.0	-27.0	15.2	0.00e+00	0	44	0	3382706176	11	4053
2026-01-27 06:58:47.90	278.31	11.86	-25.9	-27.0	15.2	0.00e+00	0	44	0	3390046208	11	4056
2026-01-27 06:58:48.90	278.17	11.80	-26.0	-26.7	15.0	0.00e+00	0	44	0	3397386240	12	3882
2026-01-27 06:58:49.91	278.02	11.74	-26.3	-27.2	14.7	0.00e+00	0	44	0	3404726272	12	4010
2026-01-27 06:58:50.92	277.88	11.67	-26.3	-27.2	14.7	0.00e+00	0	44	0	3412066304	12	4008
2026-01-27 06:58:51.92	277.73	11.61	-26.5	-27.7	14.5	0.00e+00	0	44	0	3419406336	12	4128
2026-01-27 06:58:52.93	277.59	11.55	-26.4	-27.4	14.6	0.00e+00	0	44	0	3426746368	12	4066
2026-01-27 06:58:53.92	277.45	11.49	-26.3	-27.4	14.6	0.00e+00	0	44	0	3434086400	12	4052
2026-01-27 06:58:54.92	277.31	11.43	-26.4	-27.6	14.5	0.00e+00	0	44	0	3441426432	12	4109
2026-01-27 06:58:55.93	277.17	11.37	-26.3	-27.2	14.7	0.00e+00	0	44	0	3448766464	12	4015
2026-01-27 06:58:56.93	277.03	11.30	-26.3	-27.2	14.7	1.10e-06	0	44	0	3456106496	12	4020
2026-01-27 06:58:57.94	276.89	11.24	-26.3	-27.3	14.6	0.00e+00	0	44	0	3463446528	12	4033
2026-01-27 06:58:58.93	276.75	11.18	-26.5	-27.7	14.4	0.00e+00	0	44	0	3469737984	12	4149
2026-01-27 06:58:59.94	276.61	11.12	-26.3	-27.3	14.6	0.00e+00	0	44	0	3477078016	12	4046
2026-01-27 06:59:00.94	276.47	11.06	-26.2	-27.0	14.8	0.00e+00	0	44	0	3484418048	12	3961
2026-01-27 06:59:01.94	276.33	11.00	-26.1	-26.8	14.9	0.00e+00	0	44	0	3491758080	12	3912
2026-01-27 06:59:02.95	276.20	10.93	-25.8	-26.6	14.6	0.00e+00	0	44	0	3499098112	12	3957
2026-01-27 06:59:03.95	276.06	10.87	-25.3	-26.0	13.8	0.00e+00	0	44	0	3506438144	12	3921
2026-01-27 06:59:04.96	275.92	10.81	-26.1	-26.8	14.9	0.00e+00	0	44	0	3513778176	12	3919
2026-01-27 06:59:05.96	275.79	10.75	-26.1	-26.8	14.6	3.43e-05	0	44	0	3521118208	12	3915
2026-01-27 06:59:06.97	275.65	10.69	-26.2	-27.0	14.8	1.10e-06	0	44	0	3528458240	12	3956
2026-01-27 06:59:07.97	275.52	10.63	-26.1	-26.8	14.9	0.00e+00	0	44	0	3535798272	12	3904
2026-01-27 06:59:08.98	275.38	10.56	-26.0	-26.7	14.9	0.00e+00	0	44	0	3543138304	12	3888
2026-01-27 06:59:09.97	275.25	10.50	-26.1	-26.8	14.8	0.00e+00	0	44	0	3550478336	12	3914
2026-01-27 06:59:10.97	275.12	10.44	-26.2	-27.0	14.8	0.00e+00	0	44	0	3556769792	12	3963
2026-01-27 06:59:11.97	274.99	10.38	-26.1	-26.7	14.9	1.10e-06	0	44	0	3564109824	12	3891
2026-01-27 06:59:12.97	274.86	10.32	-26.1	-26.9	14.8	2.83e-04	0	44	0	3571449856	12	3939
2026-01-27 06:59:13.97	274.73	10.26	-26.1	-26.8	14.9	0.00e+00	0	44	0	3578789888	12	3914
2026-01-27 06:59:14.98	274.60	10.20	-26.1	-26.8	14.8	0.00e+00	0	44	0	3586129920	12	3923
2026-01-27 06:59:15.99	274.47	10.13	-26.3	-27.3	14.6	1.09e-03	0	44	0	3593469952	12	4037
2026-01-27 06:59:16.99	274.34	10.07	-26.2	-27.2	14.6	0.00e+00	0	44	0	3600809984	12	4017
2026-01-27 06:59:18.00	274.21	10.01	-26.3	-27.4	14.5	1.17e-03	0	44	0	3608150016	12	4071
2026-01-27 06:59:19.00	274.08	9.95	-26.5	-27.7	14.3	1.22e-03	0	44	0	3614441472	12	4153
2026-01-27 06:59:20.01	273.95	9.89	-26.5	-27.7	14.3	0.00e+00	0	44	0	3621781504	12	4145
2026-01-27 06:59:21.01	273.83	9.82	-26.7	-27.6	14.1	1.37e-03	0	44	0	3629121536	13	4016
2026-01-27 06:59:22.01	273.70	9.76	-27.0	-28.3	13.7	2.20e-06	0	44	0	3636461568	13	4197
2026-01-27 06:59:23.01	273.58	9.70	-26.8	-28.0	13.8	4.50e-06	0	44	0	3643801600	13	4108
2026-01-27 06:59:24.02	273.45	9.64	-27.0	-28.3	13.6	1.80e-03	0	44	0	3651141632	13	4208
2026-01-27 06:59:25.02	273.32	9.58	-26.9	-28.2	13.7	1.76e-03	0	44	0	3658481664	13	4169
2026-01-27 06:59:26.02	273.20	9.52	-26.9	-28.1	13.8	3.40e-06	0	44	0	3665821696	13	4142
2026-01-27 06:59:27.02	273.08	9.46	-26.9	-28.1	13.8	1.22e-03	0	44	0	3673161728	13	4147
2026-01-27 06:59:28.02	272.96	9.40	-27.0	-28.4	13.6	1.99e-03	0	44	0	3680501760	13	4220
2026-01-27 06:59:29.02	272.83	9.33	-26.8	-28.0	13.8	4.50e-06	0	44	0	3687841792	13	4129
2026-01-27 06:59:30.03	272.71	9.27	-26.8	-27.9	13.8	1.89e-03	0	44	0	3695181824	13	4100
2026-01-27 06:59:31.04	272.59	9.21	-26.8	-28.0	13.8	1.83e-03	0	44	0	3701473280	13	4123
2026-01-27 06:59:32.04	272.47	9.15	-26.9	-28.1	13.7	5.70e-06	0	44	0	3708813312	13	4132
2026-01-27 06:59:33.04	272.35	9.09	-26.7	-27.7	14.0	1.82e-03	0	44	0	3716153344	13	4029
2026-01-27 06:59:34.04	272.23	9.03	-26.6	-27.5	14.1	1.91e-03	0	44	0	3723493376	13	3979
2026-01-27 06:59:35.05	272.11	8.97	-26.6	-27.6	14.0	1.10e-06	0	44	0	3730833408	13	4005
2026-01-27 06:59:36.06	271.99	8.90	-26.7	-27.6	14.0	1.84e-03	0	44	0	3738173440	13	4023
2026-01-27 06:59:37.06	271.87	8.84	-26.6	-27.6	14.0	2.20e-06	0	44	0	3745513472	13	4004
2026-01-27 06:59:38.06	271.75	8.78	-26.6	-27.5	14.0	0.00e+00	0	44	0	3752853504	13	4003
2026-01-27 06:59:39.07	271.63	8.72	-26.7	-27.8	13.8	3.40e-06	0	44	0	3760193536	13	4071
2026-01-27 06:59:40.07	271.52	8.66	-26.6	-27.5	14.1	3.40e-06	0	44	0	3767533568	13	3996
2026-01-27 06:59:41.07	271.40	8.60	-26.5	-27.3	14.2	0.00e+00	0	44	0	3774873600	13	3935
2026-01-27 06:59:42.08	271.28	8.54	-26.5	-27.4	14.1	3.40e-06	0	44	0	3782213632	13	3956
2026-01-27 06:59:43.08	271.17	8.48	-26.4	-27.6	14.2	6.41e-04	0	44	0	3788505088	12	4123
2026-01-27 06:59:44.08	271.05	8.42	-26.5	-27.7	14.2	1.10e-06	0	44	0	3795845120	12	4156
2026-01-27 06:59:45.08	270.94	8.36	-26.7	-27.6	13.9	2.20e-06	0	44	0	3803185152	13	4026
2026-01-27 06:59:46.09	270.83	8.29	-26.9	-28.2	13.5	4.59e-04	0	44	0	3810525184	13	4186
2026-01-27 06:59:47.09	270.71	8.23	-26.7	-27.7	13.8	2.20e-06	0	44	0	3817865216	13	4054
2026-01-27 06:59:48.09	270.60	8.17	-26.7	-27.8	13.8	4.50e-06	0	44	0	3825205248	13	4069
2026-01-27 06:59:49.10	270.49	8.11	-26.9	-28.1	13.6	9.10e-06	0	44	0	3832545280	13	4163
2026-01-27 06:59:50.09	270.38	8.05	-26.9	-28.1	13.6	3.40e-06	0	44	0	3839885312	13	4160
2026-01-27 06:59:51.10	270.26	7.99	-27.0	-28.4	13.4	1.01e-03	0	44	0	3846176768	13	4247
2026-01-27 06:59:52.11	270.15	7.93	-26.9	-28.2	13.5	1.14e-05	0	44	0	3853516800	13	4187
2026-01-27 06:59:53.12	270.04	7.87	-27.0	-28.4	13.4	8.00e-06	0	44	0	3860856832	13	4227
2026-01-27 06:59:54.12	269.93	7.81	-27.0	-28.4	13.4	9.10e-06	0	44	0	3868196864	13	4242
2026-01-27 06:59:55.12	269.82	7.75	-27.3	-28.6	13.0	1.48e-05	0	44	0	3875536896	14	4192
2026-01-27 06:59:56.12	269.71	7.69	-27.6	-28.9	12.5	1.10e-04	0	44	0	3882876928	15	4152
2026-01-27 06:59:57.13	269.60	7.63	-27.2	-28.4	13.1	4.23e-05	0	44	0	3890216960	14	4133
2026-01-27 06:59:58.13	269.50	7.57	-26.9	-28.2	13.5	1.83e-05	0	44	0	3897556992	13	4172
2026-01-27 06:59:59.14	269.39	7.51	-26.7	-27.7	13.8	2.20e-06	0	44	0	3904897024	13	4041
2026-01-27 07:00:00.14	269.28	7.45	-26.6	-27.6	13.8	2.20e-06	0	44	0	3912237056	13	4026
2026-01-27 07:00:01.15	269.17	7.39	-26.8	-27.9	13.7	5.70e-06	0	44	0	3919577088	13	4085
2026-01-27 07:00:02.15	269.07	7.33	-26.9	-28.2	13.5	1.37e-05	0	44	0	3926917120	13	4183
2026-01-27 07:00:03.15	268.96	7.27	-26.8	-28.1	13.5	6.80e-06	0	44	0	3933208576	13	4152
2026-01-27 07:00:04.15	268.86	7.21	-26.9	-28.3	13.4	1.02e-05	0	44	0	3940548608	13	4216
2026-01-27 07:00:05.15	268.75	7.15	-27.0	-28.4	13.4	1.60e-05	0	44	0	3947888640	13	4235
2026-01-27 07:00:06.16	268.65	7.09	-27.3	-28.6	12.9	2.17e-05	0	44	0	3955228672	14	4197
2026-01-27 07:00:07.16	268.54	7.03	-33.4	-43.1	3.8	8.46e-01	0	44	104	3957325824	26	11044
2026-01-27 07:00:08.17	268.44	6.97	-33.8	-43.5	3.8	8.45e-01	0	44	104	3957325824	27	10928
2026-01-27 07:00:09.18	268.33	6.91	-34.0	-43.4	3.8	8.46e-01	0	44	104	3957325824	28	10644

#Closed at: 2026-01-27 07:00:09
#Recorded file [3957 MB]: D:/data/31010_260127_095058.dat