passes_logs/2026/01/27/R2M6_AANII_01/R2M6_AANII_01__20260127_074608_NOAA_20_JPSS-1_rec.log

#Pass ID: 20260127_074608_NOAA 20 (JPSS-1)
#Satellite: NOAA 20 (JPSS-1)
#Configuration: NOAA 20
#almurnet v.1.7.20240730
#Start time: 2026-01-27 07:46:07

#Version: 2.2.20231116
#Station: R2M6_AANII_01
#Location: 30.233357 lon 59.946436 lat
#TLE: 1 43013U 17073A   26026.81907703  .00000149  00000+0  91399-4 0  9998
#TLE: 2 43013  98.7647 327.6343 0000991  22.4130 337.7089 14.19540778424411

#Time	Az	El	Level	Level2	SNR	BER	BlckErr	Temp	State	Recorded	gain1	gain2
2026-01-27 07:46:07.81	80.68	6.97	-32.9	-43.1	3.9	1.48e+00	0	41	0	0	27	11647
2026-01-27 07:46:08.81	80.57	7.02	-32.2	-39.1	4.7	1.27e+00	0	41	104	0	25	7928
2026-01-27 07:46:09.80	80.45	7.07	-32.2	-38.8	6.9	1.79e-01	0	41	0	0	25	7706
2026-01-27 07:46:10.80	80.34	7.13	-32.2	-39.0	6.7	1.85e-01	0	41	0	1048576	25	7847
2026-01-27 07:46:11.81	80.22	7.18	-32.2	-38.6	7.1	1.56e-01	0	41	0	3145728	25	7521
2026-01-27 07:46:12.82	80.10	7.24	-32.1	-38.4	7.2	1.44e-01	0	41	0	5242880	25	7400
2026-01-27 07:46:13.83	79.98	7.29	-32.1	-38.2	7.4	1.30e-01	0	41	0	7340032	25	7282
2026-01-27 07:46:14.83	79.86	7.34	-32.1	-38.4	7.2	1.35e-01	0	41	0	9437184	25	7424
2026-01-27 07:46:15.83	79.74	7.40	-32.1	-38.2	7.3	1.27e-01	0	41	0	10485760	25	7267
2026-01-27 07:46:16.84	79.62	7.45	-32.0	-37.5	7.9	1.12e-01	0	41	0	12582912	25	6821
2026-01-27 07:46:17.84	79.50	7.51	-31.9	-37.0	8.4	5.12e-02	0	41	0	14680064	25	6481
2026-01-27 07:46:18.85	79.38	7.56	-31.7	-36.7	9.0	3.34e-02	0	41	0	16777216	24	6436
2026-01-27 07:46:19.85	79.26	7.62	-31.5	-36.1	9.4	1.86e-02	0	41	0	17825792	24	6092
2026-01-27 07:46:20.85	79.14	7.67	-31.4	-35.7	9.8	1.06e-02	0	41	0	19922944	24	5885
2026-01-27 07:46:21.85	79.02	7.72	-31.3	-35.3	10.1	7.70e-03	0	41	0	22020096	24	5687
2026-01-27 07:46:22.85	78.90	7.78	-31.3	-35.2	10.2	6.82e-03	0	41	0	24117248	24	5653
2026-01-27 07:46:23.86	78.77	7.83	-31.3	-35.2	10.2	6.31e-03	0	41	0	26214400	24	5642
2026-01-27 07:46:24.87	78.65	7.89	-31.3	-35.8	10.1	6.03e-03	0	42	0	28311552	23	6017
2026-01-27 07:46:25.86	78.53	7.94	-31.3	-35.6	10.3	5.39e-03	0	42	0	29360128	23	5920
2026-01-27 07:46:26.86	78.40	7.99	-31.3	-35.6	10.3	5.02e-03	0	42	0	31457280	23	5922
2026-01-27 07:46:27.87	78.28	8.05	-31.3	-35.5	10.4	4.77e-03	0	42	0	33554432	23	5897
2026-01-27 07:46:28.86	78.15	8.10	-31.4	-35.8	10.2	5.90e-03	0	41	0	35651584	23	6029
2026-01-27 07:46:29.87	78.03	8.16	-31.3	-35.5	10.4	5.80e-03	0	42	0	36700160	23	5861
2026-01-27 07:46:30.88	77.90	8.21	-31.3	-35.5	10.4	4.45e-03	0	42	0	38797312	23	5890
2026-01-27 07:46:31.88	77.77	8.26	-31.3	-35.6	10.3	5.26e-03	0	42	0	40894464	23	5909
2026-01-27 07:46:32.88	77.65	8.32	-31.4	-36.2	9.9	6.72e-03	0	42	0	42991616	23	6231
2026-01-27 07:46:33.88	77.52	8.37	-31.4	-36.0	10.1	9.22e-03	0	42	0	45088768	23	6092
2026-01-27 07:46:34.89	77.39	8.43	-31.5	-36.3	9.8	9.05e-03	0	42	0	46137344	23	6268
2026-01-27 07:46:35.89	77.26	8.48	-31.4	-35.8	10.2	8.08e-03	0	42	0	48234496	23	6014
2026-01-27 07:46:36.89	77.13	8.53	-31.3	-35.5	10.4	4.77e-03	0	42	0	50331648	23	5874
2026-01-27 07:46:37.90	77.00	8.59	-31.2	-35.1	10.7	3.40e-03	0	42	0	52428800	23	5693
2026-01-27 07:46:38.90	76.87	8.64	-31.2	-35.2	10.7	3.32e-03	0	42	0	54525952	23	5698
2026-01-27 07:46:39.91	76.74	8.70	-31.2	-35.3	10.6	3.44e-03	0	42	0	55574528	23	5760
2026-01-27 07:46:40.91	76.61	8.75	-31.2	-35.1	10.7	2.81e-03	0	42	0	57671680	23	5678
2026-01-27 07:46:41.92	76.48	8.80	-31.2	-35.2	10.7	2.41e-03	0	42	0	59768832	23	5722
2026-01-27 07:46:42.93	76.34	8.86	-31.2	-35.2	10.7	2.67e-03	0	42	0	61865984	23	5733
2026-01-27 07:46:43.92	76.21	8.91	-31.3	-35.5	10.5	3.23e-03	0	42	0	63963136	23	5859
2026-01-27 07:46:44.93	76.08	8.97	-31.3	-35.5	10.5	3.93e-03	0	42	0	65011712	23	5827
2026-01-27 07:46:45.93	75.95	9.02	-31.2	-35.3	10.7	2.85e-03	0	42	0	67108864	23	5749
2026-01-27 07:46:46.93	75.81	9.07	-31.2	-35.3	10.7	2.99e-03	0	42	0	69206016	23	5769
2026-01-27 07:46:47.94	75.68	9.13	-31.3	-35.7	10.4	4.03e-03	0	42	0	71303168	23	5947
2026-01-27 07:46:48.94	75.54	9.18	-31.2	-35.3	10.7	4.09e-03	0	42	0	73400320	23	5773
2026-01-27 07:46:49.94	75.41	9.23	-31.2	-35.2	10.8	2.77e-03	0	42	0	74448896	23	5682
2026-01-27 07:46:50.95	75.27	9.29	-31.2	-35.0	10.9	2.53e-03	0	42	0	76546048	23	5628
2026-01-27 07:46:51.95	75.13	9.34	-31.2	-35.1	10.9	2.27e-03	0	42	0	78643200	23	5661
2026-01-27 07:46:52.96	75.00	9.39	-31.1	-34.8	11.1	2.02e-03	0	42	0	80740352	23	5532
2026-01-27 07:46:53.95	74.86	9.45	-31.2	-35.0	11.0	1.87e-03	0	42	0	81788928	23	5585
2026-01-27 07:46:54.96	74.72	9.50	-31.2	-35.1	10.9	2.13e-03	0	42	0	83886080	23	5654
2026-01-27 07:46:55.95	74.59	9.55	-31.2	-35.1	11.0	1.95e-03	0	42	0	85983232	23	5615
2026-01-27 07:46:56.96	74.45	9.61	-31.2	-35.1	11.0	1.89e-03	0	42	0	88080384	23	5613
2026-01-27 07:46:57.96	74.31	9.66	-31.3	-35.4	10.8	2.55e-03	0	42	0	90177536	23	5772
2026-01-27 07:46:58.96	74.17	9.71	-31.2	-35.2	10.9	2.24e-03	0	42	0	91226112	23	5667
2026-01-27 07:46:59.97	74.02	9.77	-31.2	-35.0	11.0	1.88e-03	0	42	0	93323264	23	5609
2026-01-27 07:47:00.97	73.88	9.82	-31.2	-35.1	10.9	2.04e-03	0	42	0	95420416	23	5660
2026-01-27 07:47:01.97	73.74	9.87	-31.2	-35.1	11.0	2.10e-03	0	43	0	97517568	23	5620
2026-01-27 07:47:02.98	73.60	9.93	-31.2	-35.1	11.0	1.89e-03	0	42	0	99614720	23	5623
2026-01-27 07:47:03.98	73.46	9.98	-31.2	-35.0	11.0	1.77e-03	0	42	0	100663296	23	5586
2026-01-27 07:47:04.99	73.31	10.03	-31.2	-35.2	10.9	2.05e-03	0	42	0	102760448	23	5664
2026-01-27 07:47:06.00	73.17	10.08	-31.2	-35.1	10.9	2.24e-03	0	43	0	104857600	23	5659
2026-01-27 07:47:07.00	73.02	10.14	-31.4	-35.6	10.6	2.37e-03	0	43	0	106954752	23	5878
2026-01-27 07:47:08.00	72.88	10.19	-31.3	-35.4	10.8	2.74e-03	0	42	0	109051904	23	5751
2026-01-27 07:47:09.00	72.73	10.24	-31.4	-35.8	10.5	3.37e-03	0	42	0	110100480	23	5948
2026-01-27 07:47:10.01	72.59	10.29	-31.3	-35.3	10.9	3.19e-03	0	43	0	112197632	23	5716
2026-01-27 07:47:11.02	72.44	10.35	-31.3	-35.3	10.9	2.19e-03	0	43	0	114294784	23	5713
2026-01-27 07:47:12.02	72.29	10.40	-31.2	-35.1	11.0	1.89e-03	0	43	0	116391936	23	5645
2026-01-27 07:47:13.01	72.15	10.45	-31.3	-35.4	10.8	2.16e-03	0	42	0	118489088	23	5781
2026-01-27 07:47:14.01	72.00	10.50	-31.2	-35.1	11.0	2.34e-03	0	43	0	119537664	23	5625
2026-01-27 07:47:15.02	71.85	10.56	-31.2	-35.0	11.1	1.53e-03	0	43	0	121634816	23	5576
2026-01-27 07:47:16.02	71.70	10.61	-31.3	-35.3	10.9	1.92e-03	0	43	0	123731968	23	5724
2026-01-27 07:47:17.02	71.55	10.66	-31.2	-34.9	11.2	1.69e-03	0	43	0	125829120	23	5551
2026-01-27 07:47:18.03	71.40	10.71	-31.1	-34.5	11.4	1.22e-03	0	43	0	127926272	23	5378
2026-01-27 07:47:19.03	71.25	10.76	-31.1	-34.6	11.4	9.42e-04	0	43	0	128974848	23	5399
2026-01-27 07:47:20.04	71.10	10.81	-31.1	-34.8	11.3	1.02e-03	0	43	0	131072000	23	5474
2026-01-27 07:47:21.05	70.95	10.87	-31.0	-34.4	11.6	9.73e-04	0	43	0	133169152	23	5324
2026-01-27 07:47:22.05	70.79	10.92	-31.0	-34.4	11.6	7.22e-04	0	43	0	135266304	23	5296
2026-01-27 07:47:23.05	70.64	10.97	-31.0	-34.3	11.7	6.65e-04	0	43	0	136314880	23	5259
2026-01-27 07:47:24.06	70.49	11.02	-31.1	-34.7	11.4	7.21e-04	0	43	0	138412032	23	5441
2026-01-27 07:47:25.07	70.33	11.07	-31.2	-35.1	11.1	1.60e-03	0	43	0	140509184	23	5596
2026-01-27 07:47:26.07	70.18	11.12	-31.0	-34.5	11.5	8.74e-04	0	43	0	142606336	23	5351
2026-01-27 07:47:27.07	70.02	11.17	-30.9	-34.1	11.9	6.02e-04	0	43	0	144703488	23	5177
2026-01-27 07:47:28.07	69.87	11.23	-30.8	-33.6	12.1	3.85e-04	0	43	0	146800640	23	5008
2026-01-27 07:47:29.07	69.71	11.28	-30.8	-34.1	12.1	2.88e-04	0	43	0	147849216	22	5303
2026-01-27 07:47:30.08	69.56	11.33	-30.7	-33.9	12.3	1.85e-04	0	43	0	149946368	22	5221
2026-01-27 07:47:31.08	69.40	11.38	-30.7	-33.8	12.4	1.42e-04	0	43	0	152043520	22	5164
2026-01-27 07:47:32.09	69.24	11.43	-30.7	-33.9	12.3	1.40e-04	0	43	0	154140672	22	5203
2026-01-27 07:47:33.09	69.08	11.48	-30.6	-33.6	12.5	1.04e-04	0	43	0	155189248	22	5104
2026-01-27 07:47:34.10	68.92	11.53	-30.6	-33.6	12.6	9.15e-05	0	43	0	157286400	22	5086
2026-01-27 07:47:35.11	68.76	11.58	-30.6	-33.6	12.5	1.07e-04	0	43	0	159383552	22	5093
2026-01-27 07:47:36.11	68.60	11.63	-30.5	-33.3	12.8	7.09e-05	0	43	0	161480704	22	4972
2026-01-27 07:47:37.11	68.44	11.68	-30.5	-33.4	12.7	6.56e-05	0	43	0	163577856	22	5000
2026-01-27 07:47:38.11	68.28	11.73	-30.6	-33.6	12.6	5.95e-05	0	43	0	164626432	22	5071
2026-01-27 07:47:39.12	68.12	11.78	-30.7	-33.7	12.5	1.17e-04	0	43	0	166723584	22	5135
2026-01-27 07:47:40.12	67.96	11.83	-30.6	-33.7	12.5	1.21e-04	0	43	0	168820736	22	5144
2026-01-27 07:47:41.12	67.79	11.88	-30.7	-33.9	12.4	1.12e-04	0	43	0	170917888	22	5197
2026-01-27 07:47:42.12	67.63	11.93	-30.8	-34.0	12.3	1.66e-04	0	43	0	173015040	22	5249
2026-01-27 07:47:43.13	67.47	11.98	-30.6	-33.7	12.6	1.26e-04	0	43	0	174063616	22	5108
2026-01-27 07:47:44.13	67.30	12.03	-30.5	-33.4	12.7	9.30e-05	0	43	0	176160768	22	5011
2026-01-27 07:47:45.13	67.14	12.08	-30.5	-33.4	12.7	6.86e-05	0	43	0	178257920	22	4991
2026-01-27 07:47:46.13	66.97	12.12	-30.5	-33.4	12.7	7.55e-05	0	43	0	180355072	22	5004
2026-01-27 07:47:47.13	66.81	12.17	-30.6	-33.5	12.7	7.17e-05	0	43	0	182452224	22	5029
2026-01-27 07:47:48.13	66.64	12.22	-30.6	-33.6	12.6	6.02e-05	0	43	0	183500800	22	5095
2026-01-27 07:47:49.14	66.47	12.27	-30.8	-34.0	12.3	1.60e-04	0	43	0	185597952	22	5249
2026-01-27 07:47:50.14	66.30	12.32	-30.6	-33.4	12.7	9.15e-05	0	43	0	187695104	22	4999
2026-01-27 07:47:51.15	66.13	12.37	-30.3	-32.8	13.2	4.11e-05	0	43	0	189792256	22	4793
2026-01-27 07:47:52.15	65.97	12.41	-30.3	-33.1	13.3	1.52e-05	0	43	0	191889408	21	5002
2026-01-27 07:47:53.16	65.80	12.46	-30.4	-33.5	13.0	2.82e-05	0	43	0	192937984	21	5135
2026-01-27 07:47:54.17	65.62	12.51	-30.4	-33.4	13.1	3.89e-05	0	43	0	195035136	21	5105
2026-01-27 07:47:55.17	65.45	12.56	-30.3	-33.2	13.2	3.28e-05	0	43	0	197132288	21	5022
2026-01-27 07:47:56.18	65.28	12.61	-30.3	-33.2	13.3	2.51e-05	0	43	0	199229440	21	5037
2026-01-27 07:47:57.18	65.11	12.65	-30.3	-33.1	13.3	1.98e-05	0	43	0	201326592	21	4990
2026-01-27 07:47:58.19	64.94	12.70	-30.2	-33.0	13.4	1.29e-05	0	43	0	202375168	21	4928
2026-01-27 07:47:59.19	64.77	12.75	-30.2	-32.7	13.6	5.30e-06	0	43	0	204472320	21	4854
2026-01-27 07:48:00.20	64.59	12.79	-30.2	-32.8	13.5	9.90e-06	0	43	0	206569472	21	4891
2026-01-27 07:48:01.20	64.42	12.84	-30.1	-32.7	13.6	1.22e-05	0	43	0	208666624	21	4849
2026-01-27 07:48:02.20	64.24	12.89	-30.2	-32.9	13.5	1.06e-05	0	43	0	209715200	21	4901
2026-01-27 07:48:03.21	64.07	12.93	-30.0	-32.5	13.7	6.80e-06	0	43	0	211812352	21	4758
2026-01-27 07:48:04.21	63.89	12.98	-30.1	-32.6	13.7	9.10e-06	0	43	0	213909504	21	4799
2026-01-27 07:48:05.22	63.71	13.02	-30.1	-32.7	13.6	6.80e-06	0	43	0	216006656	21	4828
2026-01-27 07:48:06.22	63.54	13.07	-30.1	-32.6	13.6	8.30e-06	0	43	0	218103808	21	4820
2026-01-27 07:48:07.23	63.36	13.12	-30.2	-32.8	13.5	5.30e-06	0	43	0	220200960	21	4883
2026-01-27 07:48:08.23	63.18	13.16	-30.1	-32.7	13.6	1.22e-05	0	43	0	221249536	21	4835
2026-01-27 07:48:09.24	63.00	13.21	-30.2	-32.9	13.5	6.80e-06	0	43	0	223346688	21	4920
2026-01-27 07:48:10.24	62.82	13.25	-30.3	-33.1	13.4	1.29e-05	0	43	0	225443840	21	4985
2026-01-27 07:48:11.25	62.64	13.30	-30.3	-33.3	13.2	1.52e-05	0	43	0	227540992	21	5053
2026-01-27 07:48:12.25	62.46	13.34	-30.4	-33.4	13.2	2.67e-05	0	43	0	228589568	21	5089
2026-01-27 07:48:13.25	62.28	13.38	-30.3	-33.3	13.2	1.83e-05	0	43	0	230686720	21	5058
2026-01-27 07:48:14.25	62.10	13.43	-30.4	-33.4	13.1	2.74e-05	0	43	0	232783872	21	5105
2026-01-27 07:48:15.26	61.92	13.47	-30.5	-33.6	13.0	2.97e-05	0	43	0	234881024	21	5189
2026-01-27 07:48:16.26	61.74	13.52	-30.5	-33.7	13.0	3.66e-05	0	43	0	236978176	21	5217
2026-01-27 07:48:17.26	61.56	13.56	-30.5	-33.8	12.9	4.50e-05	0	43	0	238026752	21	5239
2026-01-27 07:48:18.27	61.37	13.60	-30.4	-33.5	13.1	2.89e-05	0	43	0	240123904	21	5150
2026-01-27 07:48:19.27	61.19	13.65	-30.5	-33.7	13.0	3.50e-05	0	43	0	242221056	21	5220
2026-01-27 07:48:20.28	61.00	13.69	-30.5	-33.9	12.9	5.34e-05	0	43	0	244318208	21	5267
2026-01-27 07:48:21.28	60.82	13.73	-30.5	-33.8	12.9	3.73e-05	0	43	0	246415360	21	5261
2026-01-27 07:48:22.29	60.63	13.77	-30.6	-34.0	12.8	6.71e-05	0	43	0	247463936	21	5307
2026-01-27 07:48:23.29	60.45	13.82	-30.5	-33.7	13.0	4.42e-05	0	43	0	249561088	21	5198
2026-01-27 07:48:24.30	60.26	13.86	-30.4	-33.4	13.2	2.59e-05	0	43	0	251658240	21	5105
2026-01-27 07:48:25.30	60.07	13.90	-30.4	-33.4	13.2	1.98e-05	0	43	0	253755392	21	5087
2026-01-27 07:48:26.30	59.89	13.94	-30.4	-33.5	13.1	2.05e-05	0	43	0	255852544	21	5128
2026-01-27 07:48:27.30	59.70	13.98	-30.5	-33.7	13.1	4.19e-05	0	43	0	256901120	21	5183
2026-01-27 07:48:28.31	59.51	14.02	-30.5	-33.7	13.0	4.11e-05	0	43	0	258998272	21	5217
2026-01-27 07:48:29.31	59.32	14.06	-30.4	-33.5	13.2	2.97e-05	0	43	0	261095424	21	5100
2026-01-27 07:48:30.32	59.13	14.10	-30.4	-33.3	13.3	1.67e-05	0	43	0	263192576	21	5030
2026-01-27 07:48:31.32	58.94	14.14	-30.4	-33.3	13.3	1.52e-05	0	43	0	265289728	21	5028
2026-01-27 07:48:32.33	58.75	14.19	-30.4	-33.4	13.2	1.52e-05	0	43	0	266338304	21	5066
2026-01-27 07:48:33.33	58.56	14.22	-30.4	-33.4	13.3	1.83e-05	0	43	0	268435456	21	5068
2026-01-27 07:48:34.33	58.37	14.26	-30.5	-33.6	13.2	2.59e-05	0	43	0	270532608	21	5145
2026-01-27 07:48:35.33	58.18	14.30	-30.4	-33.4	13.2	2.67e-05	0	43	0	272629760	21	5091
2026-01-27 07:48:36.34	57.98	14.34	-30.4	-33.5	13.2	2.13e-05	0	43	0	274726912	21	5123
2026-01-27 07:48:37.34	57.79	14.38	-30.4	-33.5	13.2	2.67e-05	0	43	0	275775488	21	5125
2026-01-27 07:48:38.34	57.60	14.42	-30.3	-33.2	13.3	2.13e-05	0	43	0	277872640	21	5019
2026-01-27 07:48:39.35	57.40	14.46	-30.2	-32.9	13.6	1.06e-05	0	43	0	279969792	21	4896
2026-01-27 07:48:40.35	57.21	14.50	-30.2	-32.7	13.7	5.30e-06	0	43	0	282066944	21	4826
2026-01-27 07:48:41.36	57.01	14.53	-30.2	-32.8	13.7	6.10e-06	0	43	0	283115520	21	4862
2026-01-27 07:48:42.36	56.81	14.57	-30.3	-32.9	13.6	1.29e-05	0	43	0	285212672	21	4906
2026-01-27 07:48:43.37	56.62	14.61	-30.3	-33.1	13.5	4.50e-06	0	43	0	287309824	21	4960
2026-01-27 07:48:44.37	56.42	14.64	-30.4	-33.2	13.4	1.98e-05	0	43	0	289406976	21	5016
2026-01-27 07:48:45.37	56.22	14.68	-30.2	-32.7	13.7	7.60e-06	0	43	0	291504128	21	4830
2026-01-27 07:48:46.37	56.03	14.72	-30.0	-32.3	14.0	2.20e-06	0	43	0	293601280	21	4681
2026-01-27 07:48:47.38	55.83	14.75	-30.0	-32.3	14.0	1.50e-06	0	43	0	294649856	21	4686
2026-01-27 07:48:48.38	55.63	14.79	-30.0	-32.3	14.0	3.00e-06	0	43	0	296747008	21	4690
2026-01-27 07:48:49.38	55.43	14.82	-30.0	-32.3	14.1	2.20e-06	0	43	0	298844160	21	4668
2026-01-27 07:48:50.38	55.23	14.86	-29.9	-32.1	14.2	3.00e-06	0	43	0	300941312	21	4613
2026-01-27 07:48:51.39	55.03	14.89	-29.9	-32.1	14.1	0.00e+00	0	43	0	301989888	21	4602
2026-01-27 07:48:52.40	54.83	14.93	-30.0	-32.3	14.0	1.50e-06	0	43	0	304087040	21	4683
2026-01-27 07:48:53.40	54.63	14.96	-30.1	-32.5	13.9	7.00e-07	0	43	0	306184192	21	4758
2026-01-27 07:48:54.41	54.42	15.00	-30.0	-32.2	14.1	1.50e-06	0	43	0	308281344	21	4654
2026-01-27 07:48:55.41	54.22	15.03	-29.9	-32.0	14.2	1.50e-06	0	43	0	310378496	21	4597
2026-01-27 07:48:56.41	54.02	15.06	-29.9	-32.0	14.2	7.00e-07	0	44	0	312475648	21	4588
2026-01-27 07:48:57.42	53.82	15.10	-29.9	-32.0	14.2	2.20e-06	0	43	0	313524224	21	4574
2026-01-27 07:48:58.42	53.61	15.13	-29.9	-32.0	14.2	0.00e+00	0	43	0	315621376	21	4577
2026-01-27 07:48:59.43	53.41	15.16	-30.0	-32.2	14.1	2.20e-06	0	43	0	317718528	21	4634
2026-01-27 07:49:00.43	53.21	15.19	-30.1	-32.4	14.0	3.80e-06	0	43	0	319815680	21	4706
2026-01-27 07:49:01.44	53.00	15.23	-30.0	-32.4	14.0	3.00e-06	0	43	0	320864256	21	4701
2026-01-27 07:49:02.45	52.79	15.26	-30.0	-32.2	14.1	1.50e-06	0	44	0	322961408	21	4646
2026-01-27 07:49:03.45	52.59	15.29	-30.0	-32.2	14.1	3.00e-06	0	43	0	325058560	21	4629
2026-01-27 07:49:04.44	52.39	15.32	-29.9	-32.1	14.2	2.20e-06	0	44	0	327155712	21	4614
2026-01-27 07:49:05.45	52.18	15.35	-30.0	-32.3	14.1	2.20e-06	0	43	0	329252864	21	4676
2026-01-27 07:49:06.45	51.97	15.38	-30.2	-32.7	13.8	3.00e-06	0	43	0	330301440	21	4830
2026-01-27 07:49:07.45	51.77	15.41	-30.2	-32.7	13.8	5.30e-06	0	44	0	332398592	21	4818
2026-01-27 07:49:08.46	51.56	15.44	-30.2	-32.8	13.7	3.00e-06	0	43	0	334495744	21	4847
2026-01-27 07:49:09.47	51.35	15.47	-30.2	-32.8	13.7	3.00e-06	0	43	0	336592896	21	4859
2026-01-27 07:49:10.46	51.14	15.49	-30.3	-32.9	13.6	9.10e-06	0	44	0	338690048	21	4900
2026-01-27 07:49:11.47	50.93	15.52	-30.3	-33.0	13.6	6.10e-06	0	43	0	339738624	21	4920
2026-01-27 07:49:12.48	50.72	15.55	-30.3	-33.1	13.6	1.14e-05	0	43	0	341835776	21	4950
2026-01-27 07:49:13.48	50.51	15.58	-30.3	-32.9	13.7	6.10e-06	0	43	0	343932928	21	4895
2026-01-27 07:49:14.49	50.30	15.61	-30.4	-33.2	13.5	6.10e-06	0	43	0	346030080	21	4992
2026-01-27 07:49:15.50	50.09	15.63	-30.3	-33.0	13.6	7.60e-06	0	43	0	348127232	21	4923
2026-01-27 07:49:16.50	49.88	15.66	-30.2	-32.9	13.7	9.10e-06	0	43	0	349175808	21	4868
2026-01-27 07:49:17.50	49.67	15.68	-30.3	-33.1	13.5	9.90e-06	0	44	0	351272960	21	4962
2026-01-27 07:49:18.50	49.46	15.71	-30.4	-33.3	13.4	1.37e-05	0	43	0	353370112	21	5011
2026-01-27 07:49:19.51	49.24	15.74	-30.4	-33.2	13.4	9.90e-06	0	43	0	355467264	21	5002
2026-01-27 07:49:20.50	49.03	15.76	-30.5	-33.5	13.3	1.90e-05	0	43	0	357564416	21	5100
2026-01-27 07:49:21.50	48.82	15.79	-30.5	-33.6	13.2	2.59e-05	0	43	0	358612992	21	5153
2026-01-27 07:49:22.50	48.61	15.81	-30.5	-33.5	13.3	2.97e-05	0	43	0	360710144	21	5095
2026-01-27 07:49:23.51	48.40	15.83	-30.5	-33.7	13.2	2.36e-05	0	44	0	362807296	21	5160
2026-01-27 07:49:24.50	48.18	15.86	-30.6	-33.7	13.1	3.50e-05	0	43	0	364904448	21	5200
2026-01-27 07:49:25.51	47.97	15.88	-30.6	-33.9	13.0	2.97e-05	0	44	0	365953024	21	5277
2026-01-27 07:49:26.51	47.76	15.90	-30.6	-33.8	13.1	4.42e-05	0	43	0	368050176	21	5220
2026-01-27 07:49:27.52	47.54	15.92	-30.5	-33.5	13.3	3.35e-05	0	43	0	370147328	21	5109
2026-01-27 07:49:28.52	47.33	15.95	-30.4	-33.4	13.4	1.52e-05	0	43	0	372244480	21	5049
2026-01-27 07:49:29.53	47.11	15.97	-30.4	-33.4	13.4	1.75e-05	0	43	0	374341632	21	5048
2026-01-27 07:49:30.53	46.89	15.99	-30.4	-33.3	13.4	9.90e-06	0	43	0	375390208	21	5023
2026-01-27 07:49:31.53	46.68	16.01	-30.3	-33.1	13.6	6.10e-06	0	43	0	377487360	21	4938
2026-01-27 07:49:32.54	46.46	16.03	-30.3	-32.9	13.7	1.22e-05	0	44	0	379584512	21	4872
2026-01-27 07:49:33.54	46.25	16.05	-30.4	-33.2	13.5	6.80e-06	0	44	0	381681664	21	4988
2026-01-27 07:49:34.55	46.03	16.07	-30.4	-33.4	13.3	1.44e-05	0	43	0	383778816	21	5073
2026-01-27 07:49:35.55	45.81	16.09	-30.5	-33.6	13.2	1.98e-05	0	43	0	384827392	21	5144
2026-01-27 07:49:36.55	45.60	16.11	-30.5	-33.7	13.2	2.05e-05	0	43	0	386924544	21	5185
2026-01-27 07:49:37.56	45.38	16.13	-30.5	-33.5	13.3	1.52e-05	0	43	0	389021696	21	5116
2026-01-27 07:49:38.56	45.16	16.14	-30.4	-33.3	13.4	1.83e-05	0	43	0	391118848	21	5051
2026-01-27 07:49:39.56	44.94	16.16	-30.5	-33.5	13.3	2.13e-05	0	43	0	393216000	21	5094
2026-01-27 07:49:40.56	44.72	16.18	-30.5	-33.6	13.2	2.28e-05	0	43	0	394264576	21	5138
2026-01-27 07:49:41.56	44.51	16.20	-30.7	-34.0	13.0	2.13e-05	0	43	0	396361728	21	5292
2026-01-27 07:49:42.56	44.29	16.21	-30.7	-34.0	13.0	6.33e-05	0	43	0	398458880	21	5302
2026-01-27 07:49:43.56	44.07	16.23	-30.5	-33.5	13.3	2.36e-05	0	43	0	400556032	21	5090
2026-01-27 07:49:44.57	43.85	16.24	-30.4	-33.3	13.4	1.14e-05	0	44	0	402653184	21	5035
2026-01-27 07:49:45.56	43.63	16.26	-30.4	-33.4	13.4	1.60e-05	0	44	0	403701760	21	5076
2026-01-27 07:49:46.56	43.41	16.27	-30.6	-33.7	13.2	1.52e-05	0	43	0	405798912	21	5195
2026-01-27 07:49:47.57	43.19	16.29	-30.6	-33.8	13.1	2.97e-05	0	43	0	407896064	21	5221
2026-01-27 07:49:48.57	42.97	16.30	-30.6	-33.8	13.1	1.67e-05	0	44	0	409993216	21	5226
2026-01-27 07:49:49.58	42.75	16.31	-30.6	-33.8	13.1	3.12e-05	0	43	0	412090368	21	5205
2026-01-27 07:49:50.58	42.53	16.33	-30.5	-33.5	13.3	2.13e-05	0	44	0	413138944	21	5091
2026-01-27 07:49:51.58	42.31	16.34	-30.5	-33.5	13.2	2.28e-05	0	44	0	415236096	21	5119
2026-01-27 07:49:52.59	42.09	16.35	-30.5	-33.7	13.2	1.22e-05	0	44	0	417333248	21	5178
2026-01-27 07:49:53.59	41.87	16.36	-30.5	-33.7	13.1	3.05e-05	0	44	0	419430400	21	5196
2026-01-27 07:49:54.59	41.65	16.38	-30.6	-33.9	13.0	3.12e-05	0	43	0	420478976	21	5250
2026-01-27 07:49:55.60	41.43	16.39	-30.6	-33.9	13.0	4.11e-05	0	44	0	422576128	21	5248
2026-01-27 07:49:56.60	41.21	16.40	-30.5	-33.7	13.2	2.82e-05	0	43	0	424673280	21	5166
2026-01-27 07:49:57.60	40.99	16.41	-30.5	-33.7	13.2	4.27e-05	0	44	0	426770432	21	5172
2026-01-27 07:49:58.60	40.76	16.42	-30.5	-33.5	13.3	1.52e-05	0	44	0	428867584	21	5095
2026-01-27 07:49:59.60	40.54	16.42	-30.5	-33.6	13.2	3.20e-05	0	44	0	429916160	21	5158
2026-01-27 07:50:00.60	40.32	16.43	-30.6	-33.8	13.1	3.58e-05	0	44	0	432013312	21	5229
2026-01-27 07:50:01.61	40.10	16.44	-30.6	-33.9	13.0	2.36e-05	0	44	0	434110464	21	5259
2026-01-27 07:50:02.61	39.88	16.45	-30.6	-33.9	13.0	3.50e-05	0	44	0	436207616	21	5246
2026-01-27 07:50:03.62	39.65	16.46	-30.6	-34.0	13.0	3.58e-05	0	43	0	438304768	21	5284
2026-01-27 07:50:04.63	39.43	16.46	-30.7	-34.2	12.8	5.49e-05	0	44	0	439353344	21	5375
2026-01-27 07:50:05.63	39.21	16.47	-30.7	-34.1	12.9	6.10e-05	0	43	0	441450496	21	5340
2026-01-27 07:50:06.64	38.98	16.48	-30.8	-34.3	12.7	4.42e-05	0	44	0	443547648	21	5422
2026-01-27 07:50:07.65	38.76	16.48	-30.7	-34.2	12.8	6.17e-05	0	43	0	445644800	21	5379
2026-01-27 07:50:08.65	38.54	16.49	-30.8	-34.5	12.6	5.41e-05	0	43	0	447741952	21	5481
2026-01-27 07:50:09.65	38.31	16.49	-30.8	-34.4	12.7	1.03e-04	0	43	0	448790528	21	5459
2026-01-27 07:50:10.66	38.09	16.50	-30.7	-34.1	12.9	5.64e-05	0	43	0	450887680	21	5339
2026-01-27 07:50:11.66	37.87	16.50	-30.7	-34.1	12.9	4.80e-05	0	43	0	452984832	21	5320
2026-01-27 07:50:12.67	37.64	16.50	-30.7	-34.2	12.8	5.95e-05	0	44	0	455081984	21	5387
2026-01-27 07:50:13.67	37.42	16.51	-30.8	-34.6	12.6	6.56e-05	0	44	0	457179136	21	5543
2026-01-27 07:50:14.67	37.20	16.51	-30.8	-34.5	12.6	1.05e-04	0	44	0	458227712	21	5503
2026-01-27 07:50:15.67	36.98	16.51	-30.8	-34.5	12.6	7.40e-05	0	44	0	460324864	21	5516
2026-01-27 07:50:16.67	36.75	16.51	-30.9	-34.8	12.4	1.07e-04	0	44	0	462422016	21	5626
2026-01-27 07:50:17.68	36.53	16.51	-30.8	-34.0	12.6	1.22e-04	0	44	0	464519168	22	5183
2026-01-27 07:50:18.68	36.31	16.51	-30.6	-33.2	13.1	3.50e-05	0	44	0	466616320	22	4896
2026-01-27 07:50:19.68	36.08	16.52	-30.4	-32.8	13.4	2.05e-05	0	44	0	467664896	22	4757
2026-01-27 07:50:20.69	35.86	16.52	-30.4	-32.7	13.5	1.75e-05	0	43	0	469762048	22	4708
2026-01-27 07:50:21.69	35.64	16.51	-30.4	-32.8	13.4	1.06e-05	0	43	0	471859200	22	4759
2026-01-27 07:50:22.69	35.41	16.51	-30.5	-33.0	13.3	1.83e-05	0	44	0	473956352	22	4830
2026-01-27 07:50:23.70	35.19	16.51	-30.5	-33.1	13.3	2.21e-05	0	44	0	476053504	22	4838
2026-01-27 07:50:24.70	34.97	16.51	-30.5	-33.1	13.3	1.67e-05	0	44	0	477102080	22	4840
2026-01-27 07:50:25.70	34.74	16.51	-30.5	-33.1	13.2	1.98e-05	0	44	0	479199232	22	4857
2026-01-27 07:50:26.70	34.52	16.51	-30.6	-33.4	13.1	2.05e-05	0	44	0	481296384	22	4958
2026-01-27 07:50:27.70	34.30	16.50	-30.5	-33.1	13.2	2.36e-05	0	43	0	483393536	22	4852
2026-01-27 07:50:28.70	34.08	16.50	-30.4	-32.8	13.4	1.60e-05	0	44	0	484442112	22	4758
2026-01-27 07:50:29.70	33.86	16.49	-30.4	-32.7	13.5	1.22e-05	0	44	0	486539264	22	4689
2026-01-27 07:50:30.70	33.63	16.49	-30.4	-32.8	13.4	9.90e-06	0	44	0	488636416	22	4760
2026-01-27 07:50:31.71	33.41	16.48	-30.4	-32.9	13.4	1.52e-05	0	44	0	490733568	22	4777
2026-01-27 07:50:32.71	33.19	16.48	-30.4	-32.9	13.3	1.29e-05	0	44	0	492830720	22	4776
2026-01-27 07:50:33.71	32.96	16.47	-30.4	-32.8	13.4	1.14e-05	0	43	0	493879296	22	4738
2026-01-27 07:50:34.70	32.75	16.47	-30.5	-33.0	13.3	1.90e-05	0	44	0	495976448	22	4804
2026-01-27 07:50:35.71	32.52	16.46	-30.3	-32.6	13.6	1.22e-05	0	44	0	498073600	22	4688
2026-01-27 07:50:36.72	32.30	16.45	-30.2	-32.8	13.8	9.90e-06	0	44	0	500170752	21	4854
2026-01-27 07:50:37.72	32.08	16.45	-30.2	-32.9	13.7	1.06e-05	0	44	0	502267904	21	4869
2026-01-27 07:50:38.73	31.85	16.44	-30.3	-33.1	13.5	9.90e-06	0	43	0	503316480	21	4972
2026-01-27 07:50:39.73	31.63	16.43	-30.4	-33.2	13.5	1.06e-05	0	44	0	505413632	21	4996
2026-01-27 07:50:40.74	31.41	16.42	-30.5	-33.4	13.3	1.75e-05	0	43	0	507510784	21	5083
2026-01-27 07:50:41.74	31.19	16.41	-30.4	-33.4	13.4	1.37e-05	0	43	0	509607936	21	5050
2026-01-27 07:50:42.74	30.97	16.40	-30.3	-33.1	13.6	9.90e-06	0	43	0	511705088	21	4946
2026-01-27 07:50:43.74	30.75	16.39	-30.3	-33.1	13.6	6.80e-06	0	44	0	512753664	21	4965
2026-01-27 07:50:44.75	30.52	16.38	-30.3	-33.0	13.6	9.90e-06	0	44	0	514850816	21	4900
2026-01-27 07:50:45.74	30.30	16.37	-30.3	-33.2	13.5	8.30e-06	0	44	0	516947968	21	4977
2026-01-27 07:50:46.74	30.08	16.36	-30.3	-33.0	13.6	1.44e-05	0	44	0	519045120	21	4908
2026-01-27 07:50:47.75	29.86	16.35	-30.2	-32.7	13.8	4.50e-06	0	44	0	521142272	21	4805
2026-01-27 07:50:48.75	29.64	16.33	-30.1	-32.4	14.0	3.00e-06	0	44	0	522190848	21	4720
2026-01-27 07:50:49.75	29.42	16.32	-30.1	-32.5	14.0	3.80e-06	0	44	0	524288000	21	4735
2026-01-27 07:50:50.76	29.20	16.31	-30.0	-32.3	14.1	1.50e-06	0	44	0	526385152	21	4665
2026-01-27 07:50:51.76	28.98	16.29	-30.0	-32.2	14.1	7.00e-07	0	43	0	528482304	21	4657
2026-01-27 07:50:52.76	28.76	16.28	-30.0	-32.2	14.1	7.00e-07	0	44	0	530579456	21	4635
2026-01-27 07:50:53.76	28.54	16.27	-30.1	-32.5	14.0	2.20e-06	0	43	0	531628032	21	4738
2026-01-27 07:50:54.76	28.33	16.25	-30.0	-32.3	14.1	2.20e-06	0	44	0	533725184	21	4663
2026-01-27 07:50:55.77	28.11	16.24	-29.9	-32.0	14.3	1.50e-06	0	44	0	535822336	21	4572
2026-01-27 07:50:56.77	27.89	16.22	-29.9	-31.9	14.3	0.00e+00	0	43	0	537919488	21	4551
2026-01-27 07:50:57.77	27.67	16.20	-30.0	-32.1	14.2	1.50e-06	0	44	0	538968064	21	4605
2026-01-27 07:50:58.78	27.45	16.19	-30.0	-32.1	14.2	1.50e-06	0	43	0	541065216	21	4605
2026-01-27 07:50:59.78	27.23	16.17	-29.9	-32.1	14.2	0.00e+00	0	43	0	543162368	21	4602
2026-01-27 07:51:00.78	27.01	16.15	-30.0	-32.2	14.1	7.00e-07	0	44	0	545259520	21	4629
2026-01-27 07:51:01.77	26.80	16.14	-30.0	-32.2	14.1	7.00e-07	0	44	0	547356672	21	4633
2026-01-27 07:51:02.77	26.58	16.12	-30.0	-32.1	14.1	3.00e-06	0	44	0	548405248	21	4603
2026-01-27 07:51:03.78	26.37	16.10	-30.1	-32.6	13.9	2.20e-06	0	44	0	550502400	21	4770
2026-01-27 07:51:04.78	26.15	16.08	-30.1	-32.4	14.0	4.50e-06	0	43	0	552599552	21	4725
2026-01-27 07:51:05.78	25.93	16.06	-30.1	-32.4	14.0	3.00e-06	0	43	0	554696704	21	4706
2026-01-27 07:51:06.79	25.72	16.04	-30.1	-32.6	13.8	5.30e-06	0	44	0	556793856	21	4782
2026-01-27 07:51:07.79	25.50	16.02	-30.2	-32.7	13.8	3.00e-06	0	44	0	557842432	21	4811
2026-01-27 07:51:08.79	25.29	16.00	-30.2	-32.8	13.7	5.30e-06	0	44	0	559939584	21	4857
2026-01-27 07:51:09.80	25.07	15.98	-30.2	-32.9	13.7	7.60e-06	0	44	0	562036736	21	4867
2026-01-27 07:51:10.80	24.85	15.96	-30.2	-32.9	13.7	2.20e-06	0	44	0	564133888	21	4868
2026-01-27 07:51:11.80	24.64	15.94	-30.3	-32.9	13.6	4.50e-06	0	44	0	566231040	21	4892
2026-01-27 07:51:12.81	24.42	15.91	-30.1	-32.5	13.7	5.30e-06	0	43	0	567279616	21	4763
2026-01-27 07:51:13.81	24.21	15.89	-30.0	-32.3	13.9	2.20e-06	0	44	0	569376768	21	4682
2026-01-27 07:51:14.82	24.00	15.87	-30.0	-32.3	13.9	3.00e-06	0	43	0	571473920	21	4692
2026-01-27 07:51:15.82	23.78	15.85	-30.0	-32.3	14.0	1.50e-06	0	44	0	573571072	21	4663
2026-01-27 07:51:16.82	23.57	15.82	-30.0	-32.4	13.9	5.30e-06	0	44	0	575668224	21	4694
2026-01-27 07:51:17.83	23.36	15.80	-30.0	-32.4	13.9	1.50e-06	0	44	0	576716800	21	4695
2026-01-27 07:51:18.84	23.14	15.77	-30.2	-32.7	13.7	7.60e-06	0	44	0	578813952	21	4828
2026-01-27 07:51:19.84	22.93	15.75	-30.3	-33.0	13.5	9.90e-06	0	43	0	580911104	21	4922
2026-01-27 07:51:20.84	22.72	15.72	-30.4	-33.2	13.4	1.22e-05	0	44	0	583008256	21	4997
2026-01-27 07:51:21.84	22.51	15.70	-30.4	-33.4	13.3	2.21e-05	0	44	0	584056832	21	5045
2026-01-27 07:51:22.84	22.30	15.67	-30.5	-33.5	13.3	2.28e-05	0	44	0	586153984	21	5091
2026-01-27 07:51:23.84	22.09	15.65	-30.6	-33.9	13.0	2.05e-05	0	44	0	588251136	21	5250
2026-01-27 07:51:24.85	21.88	15.62	-30.5	-33.6	13.2	1.60e-05	0	43	0	590348288	21	5125
2026-01-27 07:51:25.85	21.67	15.59	-30.4	-33.3	13.4	2.05e-05	0	44	0	592445440	21	5031
2026-01-27 07:51:26.86	21.46	15.57	-30.4	-33.4	13.3	1.22e-05	0	43	0	593494016	21	5085
2026-01-27 07:51:27.86	21.25	15.54	-30.3	-33.1	13.5	1.75e-05	0	44	0	595591168	21	4959
2026-01-27 07:51:28.86	21.04	15.51	-30.4	-33.2	13.5	1.06e-05	0	43	0	597688320	21	4991
2026-01-27 07:51:29.87	20.83	15.48	-30.4	-33.3	13.4	9.90e-06	0	44	0	599785472	21	5010
2026-01-27 07:51:30.87	20.63	15.45	-30.4	-33.3	13.3	1.83e-05	0	44	0	601882624	21	5028
2026-01-27 07:51:31.87	20.42	15.42	-30.4	-33.3	13.4	2.13e-05	0	44	0	602931200	21	5016
2026-01-27 07:51:32.88	20.21	15.39	-30.4	-33.3	13.3	2.21e-05	0	44	0	605028352	21	5033
2026-01-27 07:51:33.88	20.01	15.36	-30.4	-33.3	13.1	2.28e-05	0	44	0	607125504	21	5038
2026-01-27 07:51:34.88	19.80	15.33	-30.4	-33.3	13.0	3.58e-05	0	44	0	609222656	21	5052
2026-01-27 07:51:35.89	19.59	15.30	-30.4	-33.4	12.9	3.81e-05	0	44	0	611319808	21	5077
2026-01-27 07:51:36.89	19.39	15.27	-30.3	-33.1	13.0	3.35e-05	0	44	0	612368384	21	4961
2026-01-27 07:51:37.89	19.18	15.24	-30.2	-33.0	13.2	2.51e-05	0	44	0	614465536	21	4925
2026-01-27 07:51:38.90	18.98	15.21	-30.2	-32.9	13.2	2.82e-05	0	44	0	616562688	21	4891
2026-01-27 07:51:39.91	18.77	15.18	-30.3	-33.2	12.9	3.89e-05	0	44	0	618659840	21	5006
2026-01-27 07:51:40.91	18.57	15.15	-30.2	-32.8	13.1	3.81e-05	0	44	0	620756992	21	4869
2026-01-27 07:51:41.92	18.37	15.11	-30.1	-32.6	13.2	3.05e-05	0	44	0	621805568	21	4798
2026-01-27 07:51:42.92	18.16	15.08	-30.1	-32.5	13.2	2.59e-05	0	44	0	623902720	21	4783
2026-01-27 07:51:43.92	17.96	15.05	-30.1	-32.7	13.1	1.60e-05	0	43	0	625999872	21	4845
2026-01-27 07:51:44.93	17.76	15.02	-30.2	-32.8	13.1	3.58e-05	0	44	0	628097024	21	4876
2026-01-27 07:51:45.93	17.56	14.98	-30.2	-32.9	13.2	1.75e-05	0	44	0	630194176	21	4895
2026-01-27 07:51:46.93	17.36	14.95	-30.3	-33.0	13.3	1.37e-05	0	43	0	631242752	21	4938
2026-01-27 07:51:47.94	17.16	14.91	-30.3	-33.0	13.4	1.06e-05	0	43	0	633339904	21	4943
2026-01-27 07:51:48.94	16.96	14.88	-30.4	-33.4	13.2	1.44e-05	0	44	0	635437056	21	5069
2026-01-27 07:51:49.95	16.76	14.84	-30.3	-33.2	13.2	2.67e-05	0	44	0	637534208	21	5004
2026-01-27 07:51:50.95	16.56	14.81	-30.4	-33.5	12.9	3.50e-05	0	44	0	639631360	21	5121
2026-01-27 07:51:51.95	16.36	14.77	-30.4	-33.4	12.8	4.57e-05	0	43	0	640679936	21	5102
2026-01-27 07:51:52.96	16.16	14.74	-30.4	-33.4	12.8	5.49e-05	0	44	0	642777088	21	5085
2026-01-27 07:51:53.96	15.97	14.70	-30.5	-33.6	12.9	5.87e-05	0	44	0	644874240	21	5155
2026-01-27 07:51:54.96	15.77	14.67	-30.5	-33.7	12.9	4.42e-05	0	44	0	646971392	21	5207
2026-01-27 07:51:55.96	15.57	14.63	-30.4	-33.3	13.3	2.13e-05	0	43	0	649068544	21	5023
2026-01-27 07:51:56.97	15.38	14.59	-30.2	-32.8	13.6	1.37e-05	0	44	0	650117120	21	4870
2026-01-27 07:51:57.97	15.18	14.55	-30.2	-32.7	13.6	6.10e-06	0	44	0	652214272	21	4814
2026-01-27 07:51:58.97	14.99	14.52	-30.2	-32.7	13.5	1.44e-05	0	44	0	654311424	21	4821
2026-01-27 07:51:59.98	14.79	14.48	-30.2	-32.9	13.4	1.22e-05	0	44	0	656408576	21	4910
2026-01-27 07:52:00.98	14.60	14.44	-30.2	-32.8	13.5	1.60e-05	0	44	0	658505728	21	4873
2026-01-27 07:52:01.98	14.40	14.40	-30.2	-32.7	13.6	1.22e-05	0	44	0	659554304	21	4833
2026-01-27 07:52:02.98	14.21	14.37	-30.3	-33.1	13.5	1.37e-05	0	43	0	661651456	21	4943
2026-01-27 07:52:03.99	14.02	14.33	-30.3	-33.0	13.5	1.22e-05	0	43	0	663748608	21	4933
2026-01-27 07:52:05.00	13.83	14.29	-30.4	-33.2	13.4	1.29e-05	0	43	0	665845760	21	5009
2026-01-27 07:52:06.00	13.63	14.25	-30.3	-33.1	13.4	5.30e-06	0	44	0	666894336	21	4964
2026-01-27 07:52:07.01	13.44	14.21	-30.4	-33.2	13.4	9.90e-06	0	44	0	668991488	21	5007
2026-01-27 07:52:08.02	13.25	14.17	-30.4	-33.4	13.2	1.29e-05	0	44	0	671088640	21	5062
2026-01-27 07:52:09.02	13.06	14.13	-30.3	-32.9	13.5	1.29e-05	0	43	0	673185792	21	4906
2026-01-27 07:52:10.02	12.87	14.09	-30.2	-32.7	13.7	6.80e-06	0	44	0	675282944	21	4827
2026-01-27 07:52:11.02	12.68	14.05	-30.2	-32.8	13.6	5.30e-06	0	44	0	676331520	21	4850
2026-01-27 07:52:12.03	12.50	14.01	-30.2	-32.8	13.6	3.80e-06	0	44	0	678428672	21	4858
2026-01-27 07:52:13.03	12.31	13.97	-30.3	-33.0	13.5	6.80e-06	0	44	0	680525824	21	4943
2026-01-27 07:52:14.04	12.12	13.92	-30.4	-33.3	13.3	1.14e-05	0	44	0	682622976	21	5052
2026-01-27 07:52:15.04	11.93	13.88	-30.5	-33.6	13.1	2.13e-05	0	43	0	684720128	21	5131
2026-01-27 07:52:16.04	11.75	13.84	-30.5	-33.6	13.1	3.66e-05	0	43	0	685768704	21	5162
2026-01-27 07:52:17.05	11.56	13.80	-30.6	-33.8	12.9	4.04e-05	0	44	0	687865856	21	5243
2026-01-27 07:52:18.05	11.38	13.76	-30.6	-33.8	13.0	4.34e-05	0	44	0	689963008	21	5227
2026-01-27 07:52:19.06	11.19	13.71	-30.6	-33.9	12.9	5.34e-05	0	43	0	692060160	21	5258
2026-01-27 07:52:20.06	11.01	13.67	-30.7	-34.1	12.7	4.42e-05	0	43	0	694157312	21	5368
2026-01-27 07:52:21.07	10.82	13.63	-30.6	-34.0	12.8	6.40e-05	0	44	0	695205888	21	5307
2026-01-27 07:52:22.08	10.64	13.59	-30.7	-34.2	12.7	6.25e-05	0	43	0	697303040	21	5385
2026-01-27 07:52:23.08	10.46	13.54	-30.8	-34.5	12.4	1.59e-04	0	44	0	699400192	21	5529
2026-01-27 07:52:24.08	10.28	13.50	-30.8	-34.4	12.5	9.84e-05	0	44	0	701497344	21	5477
2026-01-27 07:52:25.09	10.09	13.45	-30.7	-34.3	12.6	9.38e-05	0	44	0	703594496	21	5435
2026-01-27 07:52:26.09	9.91	13.41	-30.8	-34.6	12.4	1.30e-04	0	44	0	704643072	21	5560
2026-01-27 07:52:27.09	9.73	13.37	-30.8	-34.5	12.5	1.30e-04	0	44	0	706740224	21	5529
2026-01-27 07:52:28.09	9.55	13.32	-30.9	-34.7	12.3	1.45e-04	0	44	0	708837376	21	5588
2026-01-27 07:52:29.09	9.38	13.28	-31.0	-34.7	11.9	2.13e-04	0	44	0	710934528	22	5513
2026-01-27 07:52:30.09	9.20	13.23	-31.0	-34.6	12.1	3.00e-04	0	43	0	713031680	22	5437
2026-01-27 07:52:31.09	9.02	13.19	-31.0	-34.6	12.0	2.66e-04	0	44	0	714080256	22	5463
2026-01-27 07:52:32.10	8.84	13.14	-31.1	-34.9	11.7	4.23e-04	0	44	0	716177408	22	5566
2026-01-27 07:52:33.10	8.67	13.10	-31.0	-34.8	11.7	5.48e-04	0	44	0	718274560	22	5541
2026-01-27 07:52:34.10	8.49	13.05	-31.1	-34.9	11.6	6.35e-04	0	44	0	720371712	22	5594
2026-01-27 07:52:35.10	8.31	13.01	-31.2	-35.2	11.5	7.29e-04	0	44	0	721420288	22	5723
2026-01-27 07:52:36.10	8.14	12.96	-31.2	-35.2	11.5	7.81e-04	0	44	0	723517440	22	5722
2026-01-27 07:52:37.11	7.96	12.92	-31.3	-35.4	11.4	8.81e-04	0	43	0	725614592	22	5809
2026-01-27 07:52:38.11	7.79	12.87	-31.2	-35.4	11.5	9.38e-04	0	44	0	727711744	22	5805
2026-01-27 07:52:39.12	7.62	12.82	-31.4	-35.7	11.2	9.55e-04	0	44	0	729808896	22	5956
2026-01-27 07:52:40.12	7.44	12.78	-31.5	-36.1	11.0	1.78e-03	0	44	0	731906048	22	6128
2026-01-27 07:52:41.12	7.27	12.73	-31.3	-35.5	11.4	1.31e-03	0	44	0	732954624	22	5841
2026-01-27 07:52:42.12	7.10	12.68	-31.1	-35.0	11.7	7.33e-04	0	44	0	735051776	22	5621
2026-01-27 07:52:43.12	6.93	12.64	-31.1	-34.8	11.9	4.74e-04	0	43	0	737148928	22	5555
2026-01-27 07:52:44.13	6.76	12.59	-31.1	-35.0	11.7	4.63e-04	0	44	0	739246080	22	5604
2026-01-27 07:52:45.13	6.59	12.54	-31.1	-35.0	11.6	5.64e-04	0	43	0	740294656	22	5641
2026-01-27 07:52:46.13	6.42	12.50	-31.2	-35.4	11.4	7.01e-04	0	44	0	742391808	22	5793
2026-01-27 07:52:47.14	6.25	12.45	-31.3	-35.7	11.2	1.11e-03	0	44	0	744488960	22	5944
2026-01-27 07:52:48.14	6.08	12.40	-31.4	-36.1	10.9	1.73e-03	0	44	0	746586112	22	6119
2026-01-27 07:52:49.14	5.91	12.35	-31.4	-35.6	10.9	2.26e-03	0	44	0	748683264	23	5786
2026-01-27 07:52:50.15	5.74	12.30	-31.5	-35.7	10.8	2.39e-03	0	44	0	749731840	23	5866
2026-01-27 07:52:51.15	5.58	12.26	-31.6	-35.9	10.6	2.52e-03	0	44	0	751828992	23	5963
2026-01-27 07:52:52.15	5.41	12.21	-31.5	-35.8	10.8	2.69e-03	0	44	0	753926144	23	5871
2026-01-27 07:52:53.16	5.25	12.16	-31.4	-35.5	11.0	1.90e-03	0	44	0	756023296	23	5750
2026-01-27 07:52:54.16	5.08	12.11	-31.5	-35.6	10.9	2.38e-03	0	44	0	758120448	23	5825
2026-01-27 07:52:55.16	4.92	12.06	-31.5	-35.7	10.8	2.38e-03	0	44	0	759169024	23	5863
2026-01-27 07:52:56.17	4.75	12.01	-31.5	-35.8	10.7	2.73e-03	0	44	0	761266176	23	5920
2026-01-27 07:52:57.17	4.59	11.96	-31.6	-36.0	10.6	3.60e-03	0	44	0	763363328	23	6018
2026-01-27 07:52:58.17	4.43	11.91	-31.6	-36.2	10.4	4.16e-03	0	44	0	765460480	23	6118
2026-01-27 07:52:59.18	4.26	11.86	-31.5	-35.9	10.6	4.06e-03	0	44	0	767557632	23	5949
2026-01-27 07:53:00.18	4.10	11.82	-31.6	-36.1	10.5	4.03e-03	0	44	0	768606208	23	6056
2026-01-27 07:53:01.18	3.94	11.77	-31.7	-36.4	10.3	5.17e-03	0	44	0	770703360	23	6199
2026-01-27 07:53:02.18	3.78	11.72	-31.6	-36.1	10.5	4.52e-03	0	44	0	772800512	23	6043
2026-01-27 07:53:03.18	3.62	11.67	-31.5	-35.9	10.6	3.34e-03	0	44	0	774897664	23	5960
2026-01-27 07:53:04.19	3.46	11.62	-31.5	-36.0	10.6	3.31e-03	0	44	0	776994816	23	5982
2026-01-27 07:53:05.19	3.30	11.57	-31.5	-35.9	10.6	3.35e-03	0	44	0	778043392	23	5964
2026-01-27 07:53:06.19	3.14	11.52	-31.6	-36.1	10.4	3.79e-03	0	44	0	780140544	23	6067
2026-01-27 07:53:07.19	2.99	11.47	-31.5	-35.8	10.7	3.03e-03	0	44	0	782237696	23	5904
2026-01-27 07:53:08.19	2.83	11.42	-31.4	-35.5	10.8	2.76e-03	0	44	0	784334848	23	5780
2026-01-27 07:53:09.19	2.67	11.37	-31.4	-35.6	10.8	2.41e-03	0	44	0	785383424	23	5836
2026-01-27 07:53:10.20	2.51	11.32	-31.6	-36.1	10.5	3.27e-03	0	44	0	787480576	23	6040
2026-01-27 07:53:11.21	2.36	11.26	-31.5	-35.9	10.6	3.49e-03	0	44	0	789577728	23	5962
2026-01-27 07:53:12.20	2.20	11.21	-31.6	-36.3	10.2	5.04e-03	0	44	0	791674880	23	6175
2026-01-27 07:53:13.21	2.05	11.16	-31.7	-36.4	10.2	5.76e-03	0	44	0	793772032	23	6218
2026-01-27 07:53:14.21	1.90	11.11	-31.7	-36.5	10.1	6.36e-03	0	44	0	794820608	23	6257
2026-01-27 07:53:15.21	1.74	11.06	-31.6	-36.3	10.2	6.09e-03	0	44	0	796917760	23	6191
2026-01-27 07:53:16.22	1.59	11.01	-31.7	-36.6	10.0	6.56e-03	0	44	0	799014912	23	6326
2026-01-27 07:53:17.22	1.44	10.96	-31.8	-36.8	9.9	7.94e-03	0	44	0	801112064	23	6425
2026-01-27 07:53:18.23	1.28	10.91	-31.8	-37.0	9.7	1.10e-02	0	44	0	803209216	23	6520
2026-01-27 07:53:19.24	1.13	10.86	-31.6	-36.3	10.3	7.59e-03	0	44	0	804257792	23	6146
2026-01-27 07:53:20.24	0.98	10.80	-31.5	-35.8	10.6	4.06e-03	0	44	0	806354944	23	5937
2026-01-27 07:53:21.23	0.83	10.75	-31.5	-35.7	10.7	2.96e-03	0	44	0	808452096	23	5890
2026-01-27 07:53:22.24	0.68	10.70	-31.5	-35.7	10.7	3.12e-03	0	44	0	810549248	23	5889
2026-01-27 07:53:23.24	0.53	10.65	-31.4	-35.5	10.8	3.03e-03	0	44	0	812646400	23	5790
2026-01-27 07:53:24.24	0.38	10.60	-31.5	-35.7	10.6	3.22e-03	0	44	0	813694976	23	5896
2026-01-27 07:53:25.24	0.24	10.55	-31.4	-35.7	10.7	3.03e-03	0	44	0	815792128	23	5861
2026-01-27 07:53:26.25	0.09	10.49	-31.5	-36.0	10.4	3.50e-03	0	44	0	817889280	23	6043
2026-01-27 07:53:27.25	359.94	10.44	-31.7	-36.6	9.9	6.47e-03	0	44	0	819986432	23	6353
2026-01-27 07:53:28.25	359.80	10.39	-31.5	-35.9	10.5	5.06e-03	0	44	0	822083584	23	5983
2026-01-27 07:53:29.25	359.65	10.34	-31.3	-35.2	11.0	2.77e-03	0	44	0	823132160	23	5648
2026-01-27 07:53:30.26	359.50	10.29	-31.1	-34.7	11.3	1.50e-03	0	44	0	825229312	23	5434
2026-01-27 07:53:31.26	359.36	10.23	-31.0	-34.5	11.5	8.18e-04	0	44	0	827326464	23	5333
2026-01-27 07:53:32.27	359.21	10.18	-31.0	-34.3	11.6	6.39e-04	0	44	0	829423616	23	5283
2026-01-27 07:53:33.27	359.07	10.13	-31.0	-34.3	11.7	6.24e-04	0	44	0	831520768	23	5245
2026-01-27 07:53:34.27	358.93	10.08	-30.9	-34.1	11.8	4.90e-04	0	44	0	832569344	23	5171
2026-01-27 07:53:35.27	358.78	10.02	-30.9	-34.1	11.8	4.75e-04	0	44	0	834666496	23	5202
2026-01-27 07:53:36.28	358.64	9.97	-31.0	-34.3	11.6	6.87e-04	0	44	0	836763648	23	5281
2026-01-27 07:53:37.27	358.50	9.92	-30.8	-33.7	12.0	5.44e-04	0	44	0	838860800	23	5036
2026-01-27 07:53:38.28	358.36	9.86	-30.9	-33.9	11.9	3.67e-04	0	44	0	839909376	23	5106
2026-01-27 07:53:39.29	358.22	9.81	-30.8	-34.2	12.0	3.60e-04	0	44	0	842006528	22	5336
2026-01-27 07:53:40.29	358.08	9.76	-30.8	-34.4	11.9	3.45e-04	0	44	0	844103680	22	5419
2026-01-27 07:53:41.30	357.94	9.71	-30.8	-34.3	11.9	3.29e-04	0	44	0	846200832	22	5379
2026-01-27 07:53:42.31	357.80	9.65	-30.8	-34.3	11.9	3.50e-04	0	44	0	848297984	22	5393
2026-01-27 07:53:43.31	357.66	9.60	-30.9	-34.5	11.8	5.09e-04	0	44	0	850395136	22	5447
2026-01-27 07:53:44.32	357.52	9.55	-30.7	-33.9	12.2	2.69e-04	0	44	0	851443712	22	5202
2026-01-27 07:53:45.32	357.38	9.49	-30.6	-33.7	12.3	1.92e-04	0	44	0	853540864	22	5152
2026-01-27 07:53:46.33	357.24	9.44	-30.5	-33.5	12.5	1.36e-04	0	44	0	855638016	22	5066
2026-01-27 07:53:47.33	357.11	9.39	-30.6	-33.6	12.4	9.76e-05	0	44	0	857735168	22	5102
2026-01-27 07:53:48.33	356.97	9.33	-30.6	-33.5	12.4	1.69e-04	0	44	0	858783744	22	5081
2026-01-27 07:53:49.34	356.84	9.28	-30.5	-33.4	12.5	1.20e-04	0	44	0	860880896	22	5019
2026-01-27 07:53:50.34	356.70	9.23	-30.5	-33.3	12.5	1.16e-04	0	44	0	862978048	22	4998
2026-01-27 07:53:51.34	356.57	9.17	-30.4	-33.1	12.7	9.23e-05	0	44	0	865075200	22	4896
2026-01-27 07:53:52.34	356.43	9.12	-30.5	-33.5	12.4	1.21e-04	0	44	0	867172352	22	5062
2026-01-27 07:53:53.35	356.30	9.07	-30.4	-33.1	12.7	1.17e-04	0	44	0	868220928	22	4922
2026-01-27 07:53:54.35	356.17	9.01	-30.4	-33.1	12.7	6.63e-05	0	44	0	870318080	22	4905
2026-01-27 07:53:55.35	356.03	8.96	-30.4	-33.1	12.7	8.62e-05	0	44	0	872415232	22	4922
2026-01-27 07:53:56.35	355.90	8.91	-30.4	-33.2	12.6	7.40e-05	0	44	0	874512384	22	4935
2026-01-27 07:53:57.35	355.77	8.85	-30.4	-33.0	12.7	9.38e-05	0	44	0	876609536	22	4895
2026-01-27 07:53:58.36	355.64	8.80	-30.4	-33.3	12.6	1.46e-04	0	44	0	877658112	22	4978
2026-01-27 07:53:59.36	355.51	8.74	-30.4	-33.0	12.7	7.55e-05	0	44	0	879755264	22	4884
2026-01-27 07:54:00.36	355.38	8.69	-30.4	-33.0	12.7	9.15e-05	0	44	0	881852416	22	4898
2026-01-27 07:54:01.37	355.25	8.64	-30.3	-32.9	12.7	5.72e-05	0	44	0	883949568	22	4861
2026-01-27 07:54:02.38	355.12	8.58	-30.5	-33.3	12.5	1.06e-04	0	44	0	886046720	22	5008
2026-01-27 07:54:03.38	354.99	8.53	-30.5	-33.3	12.5	1.14e-04	0	44	0	887095296	22	5008
2026-01-27 07:54:04.38	354.86	8.48	-30.4	-33.3	12.5	1.41e-04	0	44	0	889192448	22	4995
2026-01-27 07:54:05.38	354.74	8.42	-30.3	-32.9	12.7	7.01e-05	0	44	0	891289600	22	4869
2026-01-27 07:54:06.38	354.61	8.37	-30.5	-33.3	12.4	1.33e-04	0	44	0	893386752	22	5018
2026-01-27 07:54:07.39	354.48	8.31	-30.5	-33.4	12.4	1.10e-04	0	44	0	895483904	22	5030
2026-01-27 07:54:08.38	354.36	8.26	-30.5	-33.6	12.2	2.03e-04	0	44	0	896532480	22	5114
2026-01-27 07:54:09.38	354.23	8.21	-30.3	-33.4	12.7	6.02e-05	0	44	0	898629632	21	5151
2026-01-27 07:54:10.39	354.11	8.15	-30.4	-33.8	12.4	1.47e-04	0	44	0	900726784	21	5315
2026-01-27 07:54:11.39	353.98	8.10	-30.5	-34.0	12.2	1.83e-04	0	44	0	902823936	21	5397
2026-01-27 07:54:12.39	353.86	8.05	-30.5	-33.9	12.3	2.24e-04	0	44	0	903872512	21	5332
2026-01-27 07:54:13.39	353.73	7.99	-30.4	-33.7	12.4	1.33e-04	0	44	0	905969664	21	5255
2026-01-27 07:54:14.40	353.61	7.94	-30.4	-33.7	12.5	9.53e-05	0	44	0	908066816	21	5260
2026-01-27 07:54:15.40	353.49	7.88	-30.5	-34.0	12.2	1.98e-04	0	44	0	910163968	21	5404
2026-01-27 07:54:16.40	353.37	7.83	-30.5	-34.1	12.2	1.86e-04	0	44	0	912261120	21	5422
2026-01-27 07:54:17.40	353.24	7.78	-30.7	-34.5	11.9	2.49e-04	0	44	0	913309696	21	5613
2026-01-27 07:54:18.40	353.12	7.72	-30.7	-34.7	11.7	7.34e-04	0	44	0	915406848	21	5705
2026-01-27 07:54:19.41	353.00	7.67	-30.7	-34.6	11.8	5.05e-04	0	44	0	917504000	21	5668
2026-01-27 07:54:20.42	352.88	7.61	-30.7	-34.7	11.6	7.11e-04	0	44	0	919601152	21	5724
2026-01-27 07:54:21.42	352.76	7.56	-30.6	-34.4	11.9	4.12e-04	0	44	0	921698304	21	5570
2026-01-27 07:54:22.42	352.64	7.51	-30.6	-34.3	12.0	3.34e-04	0	44	0	922746880	21	5529
2026-01-27 07:54:23.42	352.52	7.45	-30.6	-34.3	12.0	3.71e-04	0	44	0	924844032	21	5525
2026-01-27 07:54:24.41	352.40	7.40	-30.6	-34.2	12.0	3.60e-04	0	44	0	926941184	21	5505
2026-01-27 07:54:25.41	352.29	7.34	-30.7	-34.6	11.8	4.68e-04	0	44	0	929038336	21	5645
2026-01-27 07:54:26.42	352.17	7.29	-30.5	-34.2	12.0	3.80e-04	0	44	0	931135488	21	5501
2026-01-27 07:54:27.42	352.05	7.24	-30.6	-34.4	11.9	2.94e-04	0	44	0	932184064	21	5577
2026-01-27 07:54:28.43	351.93	7.18	-30.6	-34.3	11.9	5.39e-04	0	44	0	934281216	21	5550
2026-01-27 07:54:29.43	351.82	7.13	-30.4	-33.9	12.1	2.89e-04	0	44	0	936378368	21	5388
2026-01-27 07:54:30.43	351.70	7.07	-33.3	-46.2	4.1	2.41e-04	0	44	0	938475520	26	15904
2026-01-27 07:54:31.43	351.59	7.02	-33.7	-48.0	3.8	1.49e+00	0	44	104	938475520	27	18604
2026-01-27 07:54:32.44	351.47	6.97	-33.9	-48.4	3.8	1.49e+00	0	44	104	938475520	27	19085

#Closed at: 2026-01-27 07:54:33
#Recorded file [938 MB]: D:/data/31010_260127_104609.dat