passes_logs/2026/01/27/R2M6_AANII_01/R2M6_AANII_01__20260127_050818_FENGYUN_3D_rec.log

#Pass ID: 20260127_050818_FENGYUN 3D
#Satellite: FENGYUN 3D
#Configuration: FENGYUN 3D
#almurnet v.1.7.20240730
#Start time: 2026-01-27 05:08:19

#Version: 2.2.20231116
#Station: R2M6_AANII_01
#Location: 30.233357 lon 59.946436 lat
#TLE: 1 43010U 17072A   26026.91415486  .00000072  00000+0  55983-4 0  9991
#TLE: 2 43010  98.9962 358.9161 0002508  89.0320 271.1142 14.19700283424949

#Time	Az	El	Level	Level2	SNR	BER	BlckErr	Temp	State	Recorded	gain1	gain2
2026-01-27 05:08:19.16	8.88	7.03	-31.6	-36.4	4.6	8.13e-01	0	40	0	0	24	6251
2026-01-27 05:08:20.16	8.77	7.08	-31.1	-35.7	4.9	7.95e-01	0	40	104	0	22	6057
2026-01-27 05:08:21.16	8.65	7.13	-31.2	-35.7	7.4	9.73e-02	0	40	0	0	22	6060
2026-01-27 05:08:22.16	8.53	7.19	-31.2	-35.8	7.4	1.02e-01	0	40	0	5242880	22	6071
2026-01-27 05:08:23.17	8.41	7.24	-31.2	-35.8	7.3	9.80e-02	0	40	0	11534336	22	6103
2026-01-27 05:08:24.17	8.29	7.29	-31.2	-35.8	7.3	1.07e-01	0	40	0	16777216	22	6095
2026-01-27 05:08:25.18	8.16	7.34	-31.4	-36.2	7.1	1.16e-01	0	40	0	22020096	22	6278
2026-01-27 05:08:26.18	8.04	7.40	-31.5	-36.3	6.7	1.91e-01	0	41	0	28311552	23	6229
2026-01-27 05:08:27.18	7.92	7.45	-31.2	-35.1	7.5	1.10e-01	0	41	0	33554432	23	5650
2026-01-27 05:08:28.18	7.80	7.50	-30.7	-34.1	8.6	4.01e-02	0	41	0	38797312	22	5303
2026-01-27 05:08:29.19	7.68	7.55	-30.2	-33.0	9.6	1.42e-02	0	41	0	45088768	21	4972
2026-01-27 05:08:30.19	7.55	7.61	-29.7	-32.2	10.6	4.50e-03	0	41	0	50331648	20	4791
2026-01-27 05:08:31.19	7.43	7.66	-29.2	-31.3	11.5	9.21e-04	0	41	0	55574528	19	4593
2026-01-27 05:08:32.20	7.31	7.71	-28.8	-30.2	12.2	2.70e-04	0	41	0	61865984	19	4261
2026-01-27 05:08:33.20	7.18	7.76	-28.4	-29.8	12.8	4.34e-05	0	41	0	67108864	18	4247
2026-01-27 05:08:34.20	7.06	7.82	-28.1	-29.6	13.3	9.26e-05	0	41	0	73400320	17	4284
2026-01-27 05:08:35.21	6.93	7.87	-27.8	-28.9	13.7	4.50e-06	0	41	0	78643200	17	4104
2026-01-27 05:08:36.21	6.80	7.92	-27.6	-29.0	14.0	3.40e-06	0	41	0	83886080	16	4223
2026-01-27 05:08:37.21	6.68	7.97	-27.5	-28.8	14.1	0.00e+00	0	41	0	90177536	16	4153
2026-01-27 05:08:38.21	6.55	8.03	-27.6	-28.9	14.1	1.10e-04	0	41	0	95420416	16	4189
2026-01-27 05:08:39.21	6.43	8.08	-27.6	-29.0	14.0	1.10e-06	0	41	0	100663296	16	4206
2026-01-27 05:08:40.21	6.30	8.13	-27.5	-28.6	14.2	1.94e-05	0	41	0	106954752	16	4107
2026-01-27 05:08:41.21	6.17	8.18	-27.7	-29.1	13.9	3.40e-06	0	41	0	112197632	16	4248
2026-01-27 05:08:42.22	6.04	8.24	-27.9	-29.7	13.6	0.00e+00	0	41	0	118489088	16	4412
2026-01-27 05:08:43.22	5.91	8.29	-27.7	-29.2	13.9	1.11e-04	0	41	0	123731968	16	4286
2026-01-27 05:08:44.22	5.78	8.34	-27.6	-28.9	14.1	2.20e-06	0	41	0	128974848	16	4190
2026-01-27 05:08:45.23	5.65	8.39	-27.6	-28.8	14.1	2.20e-06	0	41	0	135266304	16	4166
2026-01-27 05:08:46.23	5.52	8.44	-27.4	-29.0	14.2	5.70e-06	0	41	0	140509184	15	4320
2026-01-27 05:08:47.24	5.39	8.50	-27.5	-29.2	14.0	1.10e-06	0	41	0	146800640	15	4387
2026-01-27 05:08:48.24	5.26	8.55	-27.6	-29.4	13.9	5.70e-06	0	41	0	152043520	15	4444
2026-01-27 05:08:49.24	5.13	8.60	-27.4	-29.0	14.2	0.00e+00	0	41	0	157286400	15	4334
2026-01-27 05:08:50.25	4.99	8.65	-27.4	-29.0	14.2	1.70e-04	0	41	0	163577856	15	4333
2026-01-27 05:08:51.25	4.86	8.70	-27.4	-29.0	14.2	2.20e-06	0	41	0	168820736	15	4334
2026-01-27 05:08:52.26	4.72	8.76	-27.5	-29.2	14.0	1.10e-06	0	41	0	174063616	15	4398
2026-01-27 05:08:53.26	4.59	8.81	-27.4	-29.0	14.2	1.10e-06	0	41	0	180355072	15	4326
2026-01-27 05:08:54.27	4.46	8.86	-27.5	-29.3	14.0	2.20e-06	0	41	0	185597952	15	4405
2026-01-27 05:08:55.27	4.32	8.91	-27.4	-28.9	14.2	0.00e+00	0	41	0	191889408	15	4317
2026-01-27 05:08:56.27	4.19	8.96	-27.3	-28.8	14.4	0.00e+00	0	41	0	197132288	15	4259
2026-01-27 05:08:57.27	4.05	9.02	-27.3	-28.7	14.3	1.10e-06	0	41	0	202375168	15	4250
2026-01-27 05:08:58.27	3.91	9.07	-27.2	-28.6	14.5	0.00e+00	0	41	0	208666624	15	4209
2026-01-27 05:08:59.27	3.78	9.12	-27.2	-28.5	14.5	0.00e+00	0	41	0	213909504	15	4199
2026-01-27 05:09:00.27	3.64	9.17	-27.1	-28.3	14.6	0.00e+00	0	41	0	220200960	15	4135
2026-01-27 05:09:01.28	3.50	9.22	-27.0	-28.1	14.8	2.20e-06	0	41	0	225443840	15	4092
2026-01-27 05:09:02.29	3.36	9.27	-27.1	-28.3	14.6	0.00e+00	0	42	0	230686720	15	4132
2026-01-27 05:09:03.29	3.22	9.33	-27.1	-28.4	14.6	0.00e+00	0	41	0	236978176	15	4160
2026-01-27 05:09:04.29	3.08	9.38	-27.2	-28.6	14.5	1.10e-06	0	42	0	242221056	15	4204
2026-01-27 05:09:05.30	2.94	9.43	-27.4	-28.9	14.3	6.80e-06	0	42	0	247463936	15	4311
2026-01-27 05:09:06.30	2.80	9.48	-27.2	-28.6	14.4	1.10e-06	0	41	0	253755392	15	4224
2026-01-27 05:09:07.31	2.66	9.53	-27.2	-29.0	14.5	1.60e-05	0	42	0	258998272	14	4440
2026-01-27 05:09:08.32	2.52	9.58	-27.2	-29.1	14.5	1.10e-06	0	42	0	265289728	14	4483
2026-01-27 05:09:09.32	2.38	9.63	-27.3	-29.2	14.4	0.00e+00	0	42	0	270532608	14	4503
2026-01-27 05:09:10.33	2.23	9.68	-27.1	-28.9	14.6	1.10e-06	0	42	0	275775488	14	4405
2026-01-27 05:09:11.33	2.09	9.74	-27.2	-29.0	14.5	0.00e+00	0	42	0	282066944	14	4450
2026-01-27 05:09:12.34	1.94	9.79	-27.2	-28.9	14.6	0.00e+00	0	42	0	287309824	14	4416
2026-01-27 05:09:13.34	1.80	9.84	-27.0	-28.7	14.8	1.10e-06	0	42	0	293601280	14	4350
2026-01-27 05:09:14.35	1.66	9.89	-27.1	-28.9	14.6	0.00e+00	0	42	0	298844160	14	4399
2026-01-27 05:09:15.35	1.51	9.94	-27.0	-28.7	14.8	1.10e-06	0	42	0	304087040	14	4338
2026-01-27 05:09:16.35	1.37	9.99	-27.1	-28.7	14.7	0.00e+00	0	42	0	310378496	14	4354
2026-01-27 05:09:17.35	1.22	10.04	-27.0	-28.5	14.9	0.00e+00	0	42	0	315621376	14	4294
2026-01-27 05:09:18.36	1.07	10.09	-26.9	-28.4	14.9	0.00e+00	0	42	0	320864256	14	4269
2026-01-27 05:09:19.37	0.92	10.14	-26.9	-28.4	14.9	0.00e+00	0	42	0	327155712	14	4263
2026-01-27 05:09:20.37	0.78	10.19	-27.0	-28.6	14.8	0.00e+00	0	42	0	332398592	14	4339
2026-01-27 05:09:21.37	0.63	10.24	-27.0	-28.7	14.8	0.00e+00	0	42	0	338690048	14	4354
2026-01-27 05:09:22.38	0.48	10.29	-27.0	-28.6	14.8	0.00e+00	0	42	0	343932928	14	4311
2026-01-27 05:09:23.39	0.33	10.34	-26.8	-28.2	15.0	0.00e+00	0	42	0	349175808	14	4222
2026-01-27 05:09:24.39	0.18	10.39	-26.8	-28.1	15.1	0.00e+00	0	42	0	355467264	14	4186
2026-01-27 05:09:25.39	0.03	10.44	-26.9	-28.3	15.0	0.00e+00	0	42	0	360710144	14	4234
2026-01-27 05:09:26.40	359.88	10.49	-26.7	-28.0	15.2	0.00e+00	0	42	0	367001600	14	4151
2026-01-27 05:09:27.40	359.73	10.54	-26.8	-28.1	15.1	0.00e+00	0	42	0	372244480	14	4197
2026-01-27 05:09:28.40	359.57	10.59	-26.7	-27.9	15.2	0.00e+00	0	42	0	377487360	14	4143
2026-01-27 05:09:29.41	359.42	10.64	-26.6	-27.7	15.4	0.00e+00	0	42	0	383778816	14	4078
2026-01-27 05:09:30.42	359.27	10.69	-26.6	-27.6	15.4	0.00e+00	0	42	0	389021696	14	4056
2026-01-27 05:09:31.42	359.11	10.74	-26.6	-28.1	15.4	0.00e+00	0	42	0	395313152	13	4287
2026-01-27 05:09:32.42	358.96	10.79	-26.6	-28.1	15.4	0.00e+00	0	42	0	400556032	13	4290
2026-01-27 05:09:33.42	358.81	10.84	-26.6	-28.1	15.4	0.00e+00	0	42	0	405798912	13	4287
2026-01-27 05:09:34.42	358.65	10.88	-26.7	-28.4	14.7	0.00e+00	0	42	0	412090368	13	4370
2026-01-27 05:09:35.42	358.50	10.93	-26.6	-28.2	15.3	2.20e-06	0	42	0	417333248	13	4322
2026-01-27 05:09:36.41	358.34	10.98	-26.6	-28.3	15.3	0.00e+00	0	42	0	422576128	13	4341
2026-01-27 05:09:37.42	358.18	11.03	-26.7	-28.5	15.2	0.00e+00	0	42	0	428867584	13	4399
2026-01-27 05:09:38.43	358.03	11.08	-26.7	-28.4	15.2	0.00e+00	0	42	0	434110464	13	4373
2026-01-27 05:09:39.43	357.87	11.13	-26.7	-28.5	15.2	0.00e+00	0	42	0	440401920	13	4404
2026-01-27 05:09:40.44	357.71	11.18	-26.6	-28.2	15.4	1.62e-04	0	42	0	445644800	13	4318
2026-01-27 05:09:41.44	357.55	11.22	-26.6	-28.1	15.4	0.00e+00	0	42	0	450887680	13	4296
2026-01-27 05:09:42.45	357.39	11.27	-26.6	-28.1	15.4	2.20e-04	0	42	0	457179136	13	4299
2026-01-27 05:09:43.45	357.23	11.32	-26.5	-27.9	15.5	0.00e+00	0	42	0	462422016	13	4246
2026-01-27 05:09:44.45	357.07	11.37	-26.5	-27.9	15.5	0.00e+00	0	42	0	467664896	13	4235
2026-01-27 05:09:45.46	356.91	11.42	-26.5	-27.8	15.6	0.00e+00	0	42	0	473956352	13	4218
2026-01-27 05:09:46.46	356.75	11.46	-26.5	-27.9	15.5	0.00e+00	0	42	0	479199232	13	4243
2026-01-27 05:09:47.47	356.58	11.51	-26.5	-27.9	15.5	0.00e+00	0	42	0	485490688	13	4237
2026-01-27 05:09:48.46	356.42	11.56	-26.5	-28.0	15.5	0.00e+00	0	42	0	490733568	13	4268
2026-01-27 05:09:49.46	356.26	11.60	-26.4	-27.8	15.6	2.02e-04	0	42	0	495976448	13	4209
2026-01-27 05:09:50.47	356.10	11.65	-26.5	-27.8	15.6	0.00e+00	0	42	0	502267904	13	4227
2026-01-27 05:09:51.46	355.93	11.70	-26.5	-27.9	15.6	0.00e+00	0	42	0	507510784	13	4231
2026-01-27 05:09:52.47	355.77	11.74	-26.4	-27.7	15.7	2.14e-04	0	42	0	513802240	13	4180
2026-01-27 05:09:53.46	355.60	11.79	-26.3	-27.6	15.8	0.00e+00	0	42	0	519045120	13	4145
2026-01-27 05:09:54.47	355.44	11.84	-26.3	-27.9	15.8	3.50e-04	0	42	0	524288000	12	4357
2026-01-27 05:09:55.48	355.27	11.88	-26.3	-28.0	15.8	0.00e+00	0	42	0	530579456	12	4380
2026-01-27 05:09:56.49	355.10	11.93	-26.4	-28.1	15.7	0.00e+00	0	42	0	535822336	12	4402
2026-01-27 05:09:57.49	354.94	11.98	-26.3	-28.0	15.8	2.97e-04	0	42	0	541065216	12	4373
2026-01-27 05:09:58.50	354.77	12.02	-26.3	-28.1	15.7	2.41e-04	0	42	0	547356672	12	4391
2026-01-27 05:09:59.50	354.60	12.07	-26.3	-28.1	15.7	0.00e+00	0	42	0	552599552	12	4392
2026-01-27 05:10:00.51	354.43	12.11	-26.3	-28.0	15.8	0.00e+00	0	42	0	557842432	12	4383
2026-01-27 05:10:01.51	354.26	12.16	-26.3	-28.0	15.8	2.30e-04	0	42	0	564133888	12	4386
2026-01-27 05:10:02.51	354.09	12.20	-26.3	-27.9	15.8	0.00e+00	0	42	0	569376768	12	4350
2026-01-27 05:10:03.51	353.92	12.25	-26.3	-27.9	15.9	1.99e-04	0	43	0	575668224	12	4340
2026-01-27 05:10:04.52	353.75	12.29	-26.3	-27.9	15.9	1.86e-04	0	42	0	580911104	12	4343
2026-01-27 05:10:05.52	353.58	12.34	-26.2	-27.8	15.9	0.00e+00	0	42	0	587202560	12	4328
2026-01-27 05:10:06.52	353.40	12.38	-26.2	-27.9	15.9	1.74e-04	0	42	0	592445440	12	4337
2026-01-27 05:10:07.53	353.23	12.43	-26.2	-27.9	15.9	0.00e+00	0	42	0	597688320	12	4335
2026-01-27 05:10:08.53	353.06	12.47	-26.3	-28.1	15.8	0.00e+00	0	42	0	603979776	12	4404
2026-01-27 05:10:09.54	352.88	12.51	-26.4	-28.1	15.7	0.00e+00	0	42	0	609222656	12	4413
2026-01-27 05:10:10.54	352.71	12.56	-26.4	-28.2	15.7	2.09e-04	0	42	0	614465536	12	4433
2026-01-27 05:10:11.54	352.53	12.60	-26.4	-28.2	15.7	0.00e+00	0	42	0	620756992	12	4439
2026-01-27 05:10:12.55	352.36	12.65	-26.3	-28.1	15.8	2.09e-04	0	42	0	625999872	12	4394
2026-01-27 05:10:13.56	352.18	12.69	-26.3	-27.9	15.9	2.46e-04	0	42	0	632291328	12	4354
2026-01-27 05:10:14.57	352.00	12.73	-26.2	-27.8	15.9	0.00e+00	0	42	0	637534208	12	4320
2026-01-27 05:10:15.57	351.83	12.77	-26.2	-27.7	16.0	2.54e-04	0	42	0	642777088	12	4300
2026-01-27 05:10:16.57	351.65	12.82	-26.1	-27.5	16.1	0.00e+00	0	42	0	649068544	12	4251
2026-01-27 05:10:17.58	351.47	12.86	-26.1	-27.5	16.1	0.00e+00	0	42	0	654311424	12	4235
2026-01-27 05:10:18.58	351.29	12.90	-26.1	-27.5	16.1	0.00e+00	0	43	0	660602880	12	4241
2026-01-27 05:10:19.58	351.11	12.94	-26.1	-27.5	16.1	0.00e+00	0	42	0	665845760	12	4235
2026-01-27 05:10:20.59	350.93	12.99	-26.1	-27.6	16.1	0.00e+00	0	42	0	671088640	12	4259
2026-01-27 05:10:21.60	350.75	13.03	-26.2	-27.7	16.0	0.00e+00	0	42	0	677380096	12	4293
2026-01-27 05:10:22.60	350.57	13.07	-26.3	-27.9	15.9	2.27e-04	0	42	0	682622976	12	4359
2026-01-27 05:10:23.60	350.39	13.11	-26.3	-28.0	15.8	0.00e+00	0	42	0	687865856	12	4379
2026-01-27 05:10:24.61	350.21	13.15	-26.4	-28.1	15.8	0.00e+00	0	42	0	694157312	12	4404
2026-01-27 05:10:25.60	350.03	13.19	-26.4	-28.1	15.8	0.00e+00	0	42	0	699400192	12	4411
2026-01-27 05:10:26.61	349.84	13.23	-26.3	-28.0	15.8	0.00e+00	0	42	0	704643072	12	4376
2026-01-27 05:10:27.61	349.66	13.27	-26.3	-27.9	15.9	1.10e-06	0	42	0	710934528	12	4348
2026-01-27 05:10:28.62	349.48	13.31	-26.3	-27.9	15.9	0.00e+00	0	42	0	716177408	12	4350
2026-01-27 05:10:29.63	349.29	13.35	-26.2	-27.8	16.0	0.00e+00	0	43	0	722468864	12	4325
2026-01-27 05:10:30.63	349.11	13.39	-26.2	-27.7	16.0	0.00e+00	0	42	0	727711744	12	4299
2026-01-27 05:10:31.64	348.92	13.43	-26.1	-27.5	16.1	2.20e-06	0	42	0	734003200	12	4246
2026-01-27 05:10:32.64	348.74	13.47	-26.0	-27.3	16.3	0.00e+00	0	42	0	739246080	12	4188
2026-01-27 05:10:33.64	348.55	13.51	-26.0	-27.3	16.3	1.10e-06	0	42	0	744488960	12	4184
2026-01-27 05:10:34.65	348.36	13.55	-26.0	-27.2	16.3	0.00e+00	0	42	0	750780416	12	4164
2026-01-27 05:10:35.65	348.18	13.59	-25.8	-27.0	16.4	1.10e-06	0	42	0	756023296	12	4105
2026-01-27 05:10:36.65	347.99	13.62	-25.9	-27.1	16.4	0.00e+00	0	43	0	761266176	12	4129
2026-01-27 05:10:37.66	347.80	13.66	-25.9	-27.0	16.4	0.00e+00	0	42	0	767557632	12	4120
2026-01-27 05:10:38.65	347.61	13.70	-25.8	-27.0	16.4	0.00e+00	0	43	0	772800512	12	4102
2026-01-27 05:10:39.66	347.42	13.74	-25.9	-27.0	16.4	0.00e+00	0	42	0	778043392	12	4105
2026-01-27 05:10:40.66	347.23	13.77	-26.0	-27.3	16.3	1.10e-06	0	42	0	784334848	12	4180
2026-01-27 05:10:41.67	347.04	13.81	-26.0	-27.2	16.3	1.10e-06	0	42	0	789577728	12	4170
2026-01-27 05:10:42.67	346.85	13.85	-25.8	-26.8	16.5	0.00e+00	0	42	0	795869184	12	4068
2026-01-27 05:10:43.67	346.66	13.88	-25.8	-27.3	16.6	0.00e+00	0	42	0	801112064	11	4288
2026-01-27 05:10:44.68	346.47	13.92	-25.7	-27.0	16.8	0.00e+00	0	42	0	807403520	11	4227
2026-01-27 05:10:45.68	346.28	13.96	-25.6	-26.9	16.8	0.00e+00	0	42	0	812646400	11	4175
2026-01-27 05:10:46.68	346.09	13.99	-25.6	-26.8	16.9	0.00e+00	0	42	0	817889280	11	4168
2026-01-27 05:10:47.68	345.89	14.03	-25.5	-26.8	16.9	1.10e-06	0	43	0	824180736	11	4166
2026-01-27 05:10:48.69	345.70	14.06	-25.5	-26.8	16.9	0.00e+00	0	42	0	829423616	11	4155
2026-01-27 05:10:49.68	345.51	14.10	-25.6	-27.0	16.8	1.10e-06	0	42	0	834666496	11	4211
2026-01-27 05:10:50.69	345.31	14.13	-25.7	-27.3	16.6	1.10e-06	0	42	0	840957952	11	4288
2026-01-27 05:10:51.69	345.12	14.17	-25.8	-27.4	16.6	0.00e+00	0	42	0	846200832	11	4315
2026-01-27 05:10:52.69	344.92	14.20	-25.7	-27.3	16.6	0.00e+00	0	42	0	851443712	11	4287
2026-01-27 05:10:53.70	344.72	14.23	-25.7	-27.1	16.7	0.00e+00	0	43	0	857735168	11	4247
2026-01-27 05:10:54.69	344.53	14.27	-25.7	-27.1	16.7	0.00e+00	0	42	0	862978048	11	4245
2026-01-27 05:10:55.70	344.33	14.30	-25.6	-26.9	16.8	0.00e+00	0	42	0	869269504	11	4183
2026-01-27 05:10:56.70	344.14	14.33	-25.5	-26.6	17.0	0.00e+00	0	42	0	874512384	11	4114
2026-01-27 05:10:57.71	343.94	14.37	-25.6	-26.9	16.9	0.00e+00	0	42	0	879755264	11	4186
2026-01-27 05:10:58.71	343.74	14.40	-25.7	-27.1	16.7	0.00e+00	0	42	0	886046720	11	4243
2026-01-27 05:10:59.71	343.54	14.43	-25.7	-27.2	16.6	0.00e+00	0	42	0	891289600	11	4277
2026-01-27 05:11:00.72	343.34	14.46	-25.7	-27.3	16.6	0.00e+00	0	43	0	897581056	11	4284
2026-01-27 05:11:01.72	343.14	14.49	-25.7	-27.2	16.7	0.00e+00	0	42	0	902823936	11	4266
2026-01-27 05:11:02.73	342.94	14.52	-25.7	-27.1	16.7	0.00e+00	0	42	0	908066816	11	4251
2026-01-27 05:11:03.73	342.74	14.55	-25.8	-27.3	16.6	0.00e+00	0	43	0	914358272	11	4292
2026-01-27 05:11:04.73	342.54	14.58	-25.6	-27.0	16.7	0.00e+00	0	43	0	919601152	11	4207
2026-01-27 05:11:05.74	342.34	14.61	-25.6	-27.0	16.8	0.00e+00	0	43	0	924844032	11	4205
2026-01-27 05:11:06.74	342.14	14.64	-25.8	-27.3	16.6	0.00e+00	0	42	0	931135488	11	4284
2026-01-27 05:11:07.74	341.94	14.67	-25.7	-27.2	16.7	0.00e+00	0	42	0	936378368	11	4274
2026-01-27 05:11:08.75	341.74	14.70	-25.8	-27.5	15.6	0.00e+00	0	43	0	942669824	11	4340
2026-01-27 05:11:09.75	341.53	14.73	-25.8	-27.4	15.9	0.00e+00	0	43	0	947912704	11	4316
2026-01-27 05:11:10.76	341.33	14.76	-25.7	-27.1	16.7	0.00e+00	0	43	0	953155584	11	4241
2026-01-27 05:11:11.76	341.13	14.79	-25.7	-27.2	16.7	0.00e+00	0	43	0	959447040	11	4260
2026-01-27 05:11:12.76	340.92	14.82	-25.7	-27.1	16.7	1.04e-04	0	42	0	964689920	11	4234
2026-01-27 05:11:13.77	340.72	14.84	-25.6	-27.0	16.8	0.00e+00	0	43	0	970981376	11	4214
2026-01-27 05:11:14.77	340.51	14.87	-25.7	-27.1	16.7	2.05e-05	0	43	0	976224256	11	4231
2026-01-27 05:11:15.77	340.31	14.90	-25.7	-27.0	16.7	0.00e+00	0	43	0	981467136	11	4229
2026-01-27 05:11:16.78	340.10	14.92	-25.7	-27.2	16.7	0.00e+00	0	43	0	987758592	11	4260
2026-01-27 05:11:17.78	339.90	14.95	-25.6	-27.0	16.8	0.00e+00	0	43	0	993001472	11	4219
2026-01-27 05:11:18.78	339.69	14.97	-25.7	-27.3	16.6	0.00e+00	0	43	0	999292928	11	4282
2026-01-27 05:11:19.79	339.49	15.00	-25.6	-26.9	16.8	0.00e+00	0	43	0	1004535808	11	4193
2026-01-27 05:11:20.80	339.28	15.03	-25.4	-26.6	17.0	1.10e-06	0	42	0	1009778688	11	4096
2026-01-27 05:11:21.80	339.07	15.05	-25.4	-26.4	17.1	1.69e-04	0	42	0	1016070144	11	4064
2026-01-27 05:11:22.81	338.86	15.07	-25.5	-26.6	17.0	0.00e+00	0	42	0	1021313024	11	4120
2026-01-27 05:11:23.81	338.65	15.10	-25.3	-26.3	17.1	0.00e+00	0	43	0	1026555904	11	4040
2026-01-27 05:11:24.81	338.45	15.12	-25.2	-26.6	17.2	2.33e-04	0	43	0	1032847360	10	4225
2026-01-27 05:11:25.81	338.24	15.15	-25.3	-26.8	17.2	0.00e+00	0	43	0	1038090240	10	4266
2026-01-27 05:11:26.81	338.03	15.17	-25.4	-27.1	17.0	2.14e-04	0	43	0	1044381696	10	4360
2026-01-27 05:11:27.82	337.82	15.19	-25.5	-27.1	16.9	0.00e+00	0	43	0	1049624576	10	4365
2026-01-27 05:11:28.83	337.61	15.21	-25.5	-26.8	16.9	0.00e+00	0	43	0	1054867456	11	4167
2026-01-27 05:11:29.83	337.40	15.24	-25.6	-27.0	16.8	0.00e+00	0	42	0	1061158912	11	4208
2026-01-27 05:11:30.84	337.19	15.26	-25.5	-26.8	16.9	0.00e+00	0	43	0	1066401792	11	4154
2026-01-27 05:11:31.84	336.98	15.28	-25.4	-26.5	17.0	0.00e+00	0	43	0	1072693248	11	4086
2026-01-27 05:11:32.84	336.77	15.30	-25.3	-26.3	17.1	0.00e+00	0	43	0	1077936128	11	4046
2026-01-27 05:11:33.84	336.56	15.32	-25.4	-26.5	17.1	5.95e-05	0	43	0	1083179008	11	4079
2026-01-27 05:11:34.85	336.35	15.34	-25.3	-26.3	17.1	0.00e+00	0	43	0	1089470464	11	4044
2026-01-27 05:11:35.85	336.14	15.36	-25.5	-26.6	16.9	2.52e-04	0	43	0	1094713344	11	4122
2026-01-27 05:11:36.86	335.92	15.38	-25.3	-26.9	17.1	2.95e-04	0	43	0	1099956224	10	4296
2026-01-27 05:11:37.86	335.71	15.40	-25.5	-27.1	17.0	0.00e+00	0	43	0	1106247680	10	4356
2026-01-27 05:11:38.86	335.50	15.41	-25.3	-26.3	17.2	3.36e-04	0	43	0	1111490560	11	4035
2026-01-27 05:11:39.86	335.29	15.43	-25.2	-26.5	17.3	0.00e+00	0	43	0	1116733440	10	4208
2026-01-27 05:11:40.85	335.08	15.45	-25.3	-26.7	17.2	0.00e+00	0	43	0	1123024896	10	4258
2026-01-27 05:11:41.85	334.87	15.47	-25.4	-27.0	17.0	2.01e-04	0	42	0	1128267776	10	4334
2026-01-27 05:11:42.85	334.65	15.48	-25.5	-27.2	16.9	1.34e-04	0	43	0	1134559232	10	4370
2026-01-27 05:11:43.86	334.44	15.50	-25.6	-27.0	16.7	0.00e+00	0	43	0	1139802112	11	4219
2026-01-27 05:11:44.86	334.22	15.52	-25.9	-27.5	16.5	2.20e-06	0	43	0	1146093568	11	4347
2026-01-27 05:11:45.86	334.01	15.53	-25.6	-27.0	16.7	6.63e-05	0	42	0	1151336448	11	4223
2026-01-27 05:11:46.87	333.79	15.55	-25.4	-26.4	17.1	0.00e+00	0	42	0	1156579328	11	4068
2026-01-27 05:11:47.87	333.58	15.56	-25.2	-26.0	17.3	2.24e-04	0	43	0	1162870784	11	3969
2026-01-27 05:11:48.87	333.37	15.58	-25.1	-25.9	17.3	0.00e+00	0	43	0	1168113664	11	3938
2026-01-27 05:11:49.88	333.15	15.59	-25.2	-26.0	17.3	0.00e+00	0	43	0	1173356544	11	3969
2026-01-27 05:11:50.88	332.94	15.61	-25.1	-26.3	17.4	0.00e+00	0	43	0	1179648000	10	4150
2026-01-27 05:11:51.89	332.72	15.62	-25.0	-26.1	17.5	0.00e+00	0	43	0	1184890880	10	4108
2026-01-27 05:11:52.89	332.50	15.63	-25.0	-26.2	17.4	0.00e+00	0	43	0	1190133760	10	4134
2026-01-27 05:11:53.89	332.29	15.64	-25.2	-26.5	17.3	0.00e+00	0	43	0	1196425216	10	4193
2026-01-27 05:11:54.90	332.07	15.66	-25.0	-26.1	17.5	1.62e-04	0	43	0	1201668096	10	4093
2026-01-27 05:11:55.90	331.86	15.67	-24.9	-25.9	17.6	1.10e-06	0	43	0	1207959552	10	4042
2026-01-27 05:11:56.90	331.64	15.68	-25.0	-26.1	17.5	0.00e+00	0	43	0	1213202432	10	4086
2026-01-27 05:11:57.90	331.42	15.69	-24.9	-26.5	17.5	0.00e+00	0	43	0	1219493888	9	4314
2026-01-27 05:11:58.90	331.21	15.70	-25.2	-26.5	17.3	0.00e+00	0	43	0	1224736768	10	4197
2026-01-27 05:11:59.91	330.99	15.71	-25.1	-26.4	17.3	0.00e+00	0	43	0	1229979648	10	4177
2026-01-27 05:12:00.91	330.77	15.72	-25.1	-26.4	17.3	0.00e+00	0	43	0	1236271104	10	4166
2026-01-27 05:12:01.91	330.56	15.73	-25.2	-26.5	17.3	0.00e+00	0	43	0	1241513984	10	4194
2026-01-27 05:12:02.92	330.34	15.74	-25.3	-26.7	17.2	0.00e+00	0	43	0	1246756864	10	4241
2026-01-27 05:12:03.93	330.12	15.75	-25.1	-26.3	17.4	0.00e+00	0	43	0	1253048320	10	4152
2026-01-27 05:12:04.93	329.90	15.76	-25.0	-26.2	17.4	0.00e+00	0	43	0	1258291200	10	4124
2026-01-27 05:12:05.93	329.69	15.76	-25.2	-26.5	17.2	0.00e+00	0	43	0	1263534080	10	4199
2026-01-27 05:12:06.93	329.47	15.77	-25.1	-26.3	17.3	0.00e+00	0	43	0	1269825536	10	4153
2026-01-27 05:12:07.94	329.25	15.78	-25.0	-26.2	17.4	0.00e+00	0	43	0	1275068416	10	4128
2026-01-27 05:12:08.95	329.03	15.78	-25.1	-26.3	17.4	0.00e+00	0	43	0	1281359872	10	4150
2026-01-27 05:12:09.95	328.81	15.79	-25.2	-26.5	17.2	0.00e+00	0	43	0	1286602752	10	4203
2026-01-27 05:12:10.95	328.60	15.79	-25.3	-26.8	17.1	0.00e+00	0	43	0	1292894208	10	4266
2026-01-27 05:12:11.96	328.38	15.80	-25.1	-26.3	17.3	0.00e+00	0	42	0	1298137088	10	4146
2026-01-27 05:12:12.96	328.16	15.80	-24.9	-26.0	17.5	0.00e+00	0	43	0	1303379968	10	4068
2026-01-27 05:12:13.96	327.94	15.81	-25.0	-26.2	17.4	0.00e+00	0	43	0	1309671424	10	4110
2026-01-27 05:12:14.97	327.72	15.81	-25.0	-26.2	17.4	0.00e+00	0	43	0	1314914304	10	4119
2026-01-27 05:12:15.97	327.50	15.82	-25.1	-26.4	17.3	0.00e+00	0	42	0	1320157184	10	4162
2026-01-27 05:12:16.97	327.29	15.82	-25.0	-26.2	17.4	0.00e+00	0	43	0	1326448640	10	4130
2026-01-27 05:12:17.97	327.07	15.82	-25.0	-26.2	17.4	0.00e+00	0	43	0	1331691520	10	4124
2026-01-27 05:12:18.97	326.85	15.82	-25.0	-26.2	17.4	0.00e+00	0	43	0	1336934400	10	4119
2026-01-27 05:12:19.98	326.63	15.83	-25.1	-26.4	17.3	0.00e+00	0	43	0	1343225856	10	4168
2026-01-27 05:12:20.98	326.41	15.83	-25.3	-26.8	17.1	0.00e+00	0	43	0	1348468736	10	4272
2026-01-27 05:12:21.98	326.20	15.83	-25.1	-26.3	17.3	0.00e+00	0	43	0	1354760192	10	4152
2026-01-27 05:12:22.98	325.98	15.83	-24.9	-25.9	17.6	0.00e+00	0	43	0	1360003072	10	4036
2026-01-27 05:12:23.99	325.76	15.83	-24.9	-26.0	17.5	0.00e+00	0	43	0	1365245952	10	4068
2026-01-27 05:12:24.99	325.54	15.83	-24.9	-26.0	17.5	0.00e+00	0	43	0	1371537408	10	4068
2026-01-27 05:12:26.00	325.32	15.83	-25.1	-26.3	17.3	0.00e+00	0	43	0	1376780288	10	4140
2026-01-27 05:12:27.01	325.10	15.83	-25.0	-26.2	17.3	0.00e+00	0	43	0	1383071744	10	4134
2026-01-27 05:12:28.01	324.88	15.82	-25.1	-26.4	17.3	0.00e+00	0	43	0	1388314624	10	4186
2026-01-27 05:12:29.01	324.66	15.82	-25.3	-26.7	17.1	0.00e+00	0	43	0	1393557504	10	4256
2026-01-27 05:12:30.01	324.45	15.82	-25.2	-26.7	17.1	0.00e+00	0	43	0	1399848960	10	4245
2026-01-27 05:12:31.02	324.23	15.82	-25.3	-26.9	17.1	0.00e+00	0	43	0	1405091840	10	4293
2026-01-27 05:12:32.03	324.01	15.81	-25.4	-27.1	16.9	0.00e+00	0	43	0	1410334720	10	4349
2026-01-27 05:12:33.03	323.79	15.81	-25.2	-26.6	17.2	0.00e+00	0	43	0	1416626176	10	4225
2026-01-27 05:12:34.03	323.57	15.81	-25.2	-26.5	17.3	0.00e+00	0	43	0	1421869056	10	4189
2026-01-27 05:12:35.04	323.35	15.80	-25.2	-26.5	17.2	0.00e+00	0	43	0	1428160512	10	4201
2026-01-27 05:12:36.04	323.13	15.80	-25.1	-26.4	17.3	0.00e+00	0	43	0	1433403392	10	4170
2026-01-27 05:12:37.04	322.91	15.79	-25.2	-26.5	17.2	0.00e+00	0	43	0	1438646272	10	4211
2026-01-27 05:12:38.04	322.70	15.79	-25.2	-26.5	17.2	0.00e+00	0	43	0	1444937728	10	4194
2026-01-27 05:12:39.04	322.48	15.78	-25.3	-26.8	17.1	0.00e+00	0	43	0	1450180608	10	4271
2026-01-27 05:12:40.05	322.26	15.77	-25.1	-26.3	17.4	0.00e+00	0	43	0	1455423488	10	4142
2026-01-27 05:12:41.05	322.04	15.77	-25.0	-26.1	17.4	0.00e+00	0	43	0	1461714944	10	4099
2026-01-27 05:12:42.06	321.82	15.76	-25.0	-26.1	17.1	0.00e+00	0	43	0	1466957824	10	4098
2026-01-27 05:12:43.06	321.61	15.75	-25.0	-26.2	17.4	0.00e+00	0	43	0	1473249280	10	4128
2026-01-27 05:12:44.06	321.39	15.74	-25.1	-26.3	17.3	0.00e+00	0	43	0	1478492160	10	4140
2026-01-27 05:12:45.06	321.17	15.73	-25.0	-26.1	17.4	0.00e+00	0	43	0	1483735040	10	4106
2026-01-27 05:12:46.05	320.96	15.72	-25.1	-26.3	17.3	0.00e+00	0	43	0	1490026496	10	4141
2026-01-27 05:12:47.06	320.74	15.71	-24.9	-26.0	17.5	0.00e+00	0	43	0	1495269376	10	4068
2026-01-27 05:12:48.06	320.52	15.70	-24.9	-26.0	17.5	0.00e+00	0	43	0	1501560832	10	4082
2026-01-27 05:12:49.07	320.31	15.69	-25.1	-26.4	17.3	0.00e+00	0	43	0	1506803712	10	4163
2026-01-27 05:12:50.06	320.09	15.68	-25.1	-26.3	17.3	0.00e+00	0	43	0	1512046592	10	4141
2026-01-27 05:12:51.07	319.87	15.67	-25.1	-26.4	17.3	0.00e+00	0	43	0	1518338048	10	4171
2026-01-27 05:12:52.07	319.66	15.66	-25.2	-26.6	17.2	0.00e+00	0	43	0	1523580928	10	4225
2026-01-27 05:12:53.08	319.44	15.65	-25.1	-26.4	17.2	1.10e-06	0	43	0	1528823808	10	4186
2026-01-27 05:12:54.08	319.23	15.64	-25.1	-26.4	17.3	1.86e-04	0	43	0	1535115264	10	4172
2026-01-27 05:12:55.08	319.01	15.62	-25.2	-26.6	17.2	0.00e+00	0	43	0	1540358144	10	4224
2026-01-27 05:12:56.08	318.80	15.61	-25.1	-26.4	17.3	0.00e+00	0	43	0	1545601024	10	4170
2026-01-27 05:12:57.08	318.58	15.60	-25.1	-26.4	17.3	1.25e-04	0	43	0	1551892480	10	4172
2026-01-27 05:12:58.08	318.37	15.58	-25.1	-26.4	17.2	0.00e+00	0	43	0	1557135360	10	4182
2026-01-27 05:12:59.09	318.15	15.57	-25.2	-26.6	17.2	0.00e+00	0	43	0	1563426816	10	4218
2026-01-27 05:13:00.10	317.93	15.55	-25.0	-26.3	17.3	0.00e+00	0	43	0	1568669696	10	4137
2026-01-27 05:13:01.10	317.72	15.54	-25.0	-26.2	17.4	0.00e+00	0	43	0	1574961152	10	4123
2026-01-27 05:13:02.11	317.50	15.52	-25.0	-26.3	17.3	0.00e+00	0	43	0	1580204032	10	4145
2026-01-27 05:13:03.11	317.29	15.51	-25.1	-26.4	17.3	0.00e+00	0	43	0	1585446912	10	4166
2026-01-27 05:13:04.12	317.08	15.49	-25.0	-26.2	17.3	0.00e+00	0	43	0	1591738368	10	4127
2026-01-27 05:13:05.12	316.86	15.47	-25.2	-26.5	17.2	0.00e+00	0	43	0	1596981248	10	4199
2026-01-27 05:13:06.13	316.65	15.46	-25.0	-26.2	17.4	4.34e-05	0	43	0	1602224128	10	4124
2026-01-27 05:13:07.13	316.43	15.44	-24.9	-26.0	17.5	0.00e+00	0	43	0	1608515584	10	4071
2026-01-27 05:13:08.14	316.22	15.42	-24.9	-26.0	17.4	9.26e-05	0	43	0	1613758464	10	4077
2026-01-27 05:13:09.14	316.01	15.40	-25.0	-26.2	17.3	2.97e-05	0	43	0	1619001344	10	4130
2026-01-27 05:13:10.14	315.80	15.38	-24.9	-26.0	17.5	0.00e+00	0	43	0	1625292800	10	4066
2026-01-27 05:13:11.15	315.58	15.36	-24.9	-26.0	17.5	0.00e+00	0	43	0	1630535680	10	4067
2026-01-27 05:13:12.14	315.37	15.35	-25.0	-26.1	17.4	0.00e+00	0	43	0	1636827136	10	4105
2026-01-27 05:13:13.14	315.16	15.33	-24.8	-25.8	17.6	0.00e+00	0	43	0	1642070016	10	4022
2026-01-27 05:13:14.15	314.95	15.31	-24.9	-25.8	17.5	0.00e+00	0	43	0	1647312896	10	4029
2026-01-27 05:13:15.15	314.74	15.28	-25.0	-26.3	17.3	2.86e-05	0	43	0	1653604352	10	4138
2026-01-27 05:13:16.15	314.53	15.26	-25.1	-26.4	17.2	0.00e+00	0	43	0	1658847232	10	4181
2026-01-27 05:13:17.16	314.32	15.24	-25.3	-26.8	17.0	1.68e-04	0	43	0	1665138688	10	4285
2026-01-27 05:13:18.16	314.11	15.22	-25.4	-27.0	16.9	2.73e-04	0	43	0	1670381568	10	4339
2026-01-27 05:13:19.16	313.90	15.20	-25.3	-26.8	17.0	0.00e+00	0	43	0	1675624448	10	4279
2026-01-27 05:13:20.16	313.69	15.18	-25.2	-26.6	17.1	3.92e-04	0	43	0	1681915904	10	4223
2026-01-27 05:13:21.17	313.48	15.15	-25.2	-26.6	17.1	0.00e+00	0	43	0	1687158784	10	4228
2026-01-27 05:13:22.17	313.27	15.13	-25.2	-26.6	17.1	0.00e+00	0	43	0	1692401664	10	4237
2026-01-27 05:13:23.17	313.06	15.11	-25.1	-26.4	17.2	2.72e-04	0	43	0	1698693120	10	4166
2026-01-27 05:13:24.17	312.86	15.08	-25.3	-26.8	17.0	2.13e-04	0	43	0	1703936000	10	4272
2026-01-27 05:13:25.17	312.65	15.06	-25.1	-26.5	17.2	0.00e+00	0	43	0	1710227456	10	4201
2026-01-27 05:13:26.17	312.44	15.03	-25.1	-26.4	17.2	0.00e+00	0	43	0	1715470336	10	4169
2026-01-27 05:13:27.18	312.23	15.01	-25.1	-26.4	17.2	1.77e-04	0	43	0	1720713216	10	4179
2026-01-27 05:13:28.19	312.03	14.98	-25.1	-26.3	17.3	0.00e+00	0	43	0	1727004672	10	4144
2026-01-27 05:13:29.18	311.82	14.96	-25.1	-26.5	17.2	1.98e-04	0	43	0	1732247552	10	4187
2026-01-27 05:13:30.18	311.62	14.93	-25.3	-26.9	16.9	2.59e-04	0	43	0	1737490432	10	4312
2026-01-27 05:13:31.19	311.41	14.91	-25.6	-26.9	16.7	0.00e+00	0	43	0	1743781888	11	4194
2026-01-27 05:13:32.20	311.20	14.88	-25.8	-27.4	16.4	3.33e-04	0	43	0	1749024768	11	4336
2026-01-27 05:13:33.20	311.00	14.85	-25.6	-26.9	16.6	0.00e+00	0	43	0	1755316224	11	4189
2026-01-27 05:13:34.21	310.79	14.82	-25.4	-26.6	16.8	0.00e+00	0	43	0	1760559104	11	4108
2026-01-27 05:13:35.21	310.59	14.80	-25.3	-26.9	16.9	0.00e+00	0	43	0	1765801984	10	4301
2026-01-27 05:13:36.21	310.39	14.77	-25.3	-26.9	16.9	6.84e-04	0	43	0	1772093440	10	4304
2026-01-27 05:13:37.21	310.18	14.74	-25.2	-26.6	17.1	0.00e+00	0	43	0	1777336320	10	4219
2026-01-27 05:13:38.21	309.98	14.71	-25.2	-26.6	17.1	0.00e+00	0	43	0	1783627776	10	4229
2026-01-27 05:13:39.22	309.78	14.68	-25.4	-26.9	16.9	0.00e+00	0	43	0	1788870656	10	4318
2026-01-27 05:13:40.22	309.57	14.65	-25.4	-27.0	16.8	0.00e+00	0	43	0	1794113536	10	4344
2026-01-27 05:13:41.23	309.37	14.62	-25.5	-26.7	16.8	7.51e-04	0	43	0	1800404992	11	4143
2026-01-27 05:13:42.23	309.17	14.59	-25.5	-26.7	16.8	0.00e+00	0	43	0	1805647872	11	4131
2026-01-27 05:13:43.23	308.97	14.56	-25.5	-26.8	16.7	0.00e+00	0	43	0	1810890752	11	4161
2026-01-27 05:13:44.23	308.77	14.53	-25.7	-27.1	16.6	0.00e+00	0	43	0	1817182208	11	4239
2026-01-27 05:13:45.23	308.57	14.50	-25.7	-27.1	16.5	0.00e+00	0	43	0	1822425088	11	4247
2026-01-27 05:13:46.24	308.37	14.47	-25.9	-27.5	16.3	0.00e+00	0	43	0	1827667968	11	4363
2026-01-27 05:13:47.24	308.17	14.44	-25.9	-27.6	16.3	0.00e+00	0	43	0	1833959424	11	4387
2026-01-27 05:13:48.25	307.97	14.41	-25.9	-27.2	16.1	3.13e-04	0	43	0	1839202304	12	4167
2026-01-27 05:13:49.25	307.77	14.38	-25.8	-26.8	16.3	0.00e+00	0	43	0	1845493760	12	4069
2026-01-27 05:13:50.25	307.57	14.34	-25.7	-26.6	16.4	0.00e+00	0	43	0	1850736640	12	4014
2026-01-27 05:13:51.24	307.38	14.31	-25.6	-27.0	16.6	0.00e+00	0	43	0	1855979520	11	4220
2026-01-27 05:13:52.25	307.18	14.28	-25.6	-26.9	16.6	0.00e+00	0	43	0	1862270976	11	4198
2026-01-27 05:13:53.25	306.98	14.25	-25.8	-27.4	16.3	0.00e+00	0	43	0	1867513856	11	4325
2026-01-27 05:13:54.25	306.79	14.21	-25.6	-27.0	16.6	0.00e+00	0	43	0	1873805312	11	4218
2026-01-27 05:13:55.25	306.59	14.18	-25.6	-26.9	16.6	0.00e+00	0	43	0	1879048192	11	4196
2026-01-27 05:13:56.25	306.40	14.14	-25.6	-26.9	16.6	0.00e+00	0	43	0	1884291072	11	4210
2026-01-27 05:13:57.25	306.20	14.11	-25.6	-26.9	16.6	0.00e+00	0	43	0	1889533952	11	4192
2026-01-27 05:13:58.26	306.01	14.07	-25.4	-26.6	16.7	0.00e+00	0	43	0	1895825408	11	4125
2026-01-27 05:13:59.26	305.81	14.04	-25.4	-26.5	16.8	0.00e+00	0	43	0	1901068288	11	4082
2026-01-27 05:14:00.26	305.62	14.00	-25.4	-26.6	16.7	0.00e+00	0	43	0	1907359744	11	4130
2026-01-27 05:14:01.26	305.43	13.97	-25.6	-26.9	16.6	0.00e+00	0	43	0	1912602624	11	4189
2026-01-27 05:14:02.26	305.24	13.93	-25.5	-26.7	16.7	0.00e+00	0	43	0	1918894080	11	4140
2026-01-27 05:14:03.27	305.04	13.90	-25.4	-26.6	16.7	0.00e+00	0	43	0	1924136960	11	4116
2026-01-27 05:14:04.27	304.85	13.86	-25.5	-26.7	16.7	0.00e+00	0	43	0	1929379840	11	4136
2026-01-27 05:14:05.27	304.66	13.82	-25.5	-26.8	16.6	2.20e-06	0	43	0	1935671296	11	4158
2026-01-27 05:14:06.28	304.47	13.79	-25.6	-27.0	16.5	0.00e+00	0	43	0	1940914176	11	4228
2026-01-27 05:14:07.28	304.28	13.75	-25.7	-27.2	16.4	0.00e+00	0	43	0	1946157056	11	4286
2026-01-27 05:14:08.28	304.09	13.71	-25.6	-27.0	16.5	1.10e-06	0	43	0	1952448512	11	4229
2026-01-27 05:14:09.28	303.90	13.68	-25.6	-27.0	16.5	0.00e+00	0	43	0	1957691392	11	4234
2026-01-27 05:14:10.28	303.71	13.64	-25.7	-27.2	16.4	0.00e+00	0	43	0	1963982848	11	4272
2026-01-27 05:14:11.29	303.52	13.60	-25.7	-27.1	16.5	0.00e+00	0	43	0	1969225728	11	4248
2026-01-27 05:14:12.29	303.34	13.56	-25.7	-27.3	16.4	0.00e+00	0	43	0	1974468608	11	4298
2026-01-27 05:14:13.29	303.15	13.52	-25.9	-27.6	16.2	0.00e+00	0	43	0	1980760064	11	4374
2026-01-27 05:14:14.29	302.96	13.48	-25.9	-27.6	16.2	1.10e-06	0	43	0	1986002944	11	4400
2026-01-27 05:14:15.30	302.78	13.44	-25.9	-27.6	16.2	0.00e+00	0	43	0	1991245824	11	4398
2026-01-27 05:14:16.30	302.59	13.41	-25.8	-27.5	16.2	0.00e+00	0	43	0	1997537280	11	4361
2026-01-27 05:14:17.30	302.41	13.37	-25.8	-27.5	16.2	0.00e+00	0	43	0	2002780160	11	4357
2026-01-27 05:14:18.30	302.22	13.33	-25.8	-27.5	16.2	0.00e+00	0	43	0	2008023040	11	4352
2026-01-27 05:14:19.30	302.04	13.29	-25.8	-27.4	16.3	0.00e+00	0	42	0	2014314496	11	4326
2026-01-27 05:14:20.31	301.85	13.25	-25.9	-27.6	16.2	0.00e+00	0	43	0	2019557376	11	4374
2026-01-27 05:14:21.31	301.67	13.21	-25.6	-27.0	16.5	0.00e+00	0	43	0	2025848832	11	4231
2026-01-27 05:14:22.32	301.49	13.16	-25.6	-26.9	16.5	0.00e+00	0	43	0	2031091712	11	4198
2026-01-27 05:14:23.33	301.30	13.12	-25.6	-26.9	16.5	0.00e+00	0	43	0	2037383168	11	4194
2026-01-27 05:14:24.33	301.12	13.08	-25.6	-27.1	16.4	0.00e+00	0	43	0	2042626048	11	4244
2026-01-27 05:14:25.34	300.94	13.04	-25.8	-27.4	16.2	0.00e+00	0	43	0	2047868928	11	4335
2026-01-27 05:14:26.33	300.76	13.00	-25.9	-27.6	16.1	0.00e+00	0	43	0	2054160384	11	4389
2026-01-27 05:14:27.33	300.58	12.96	-25.8	-27.4	16.2	0.00e+00	0	43	0	2059403264	11	4337
2026-01-27 05:14:28.33	300.40	12.92	-25.8	-27.4	16.3	0.00e+00	0	43	0	2064646144	11	4323
2026-01-27 05:14:29.34	300.22	12.87	-25.9	-27.5	16.2	0.00e+00	0	43	0	2070937600	11	4369
2026-01-27 05:14:30.34	300.04	12.83	-25.8	-27.5	16.2	0.00e+00	0	43	0	2076180480	11	4361
2026-01-27 05:14:31.34	299.86	12.79	-25.9	-27.5	16.1	0.00e+00	0	43	0	2081423360	11	4371
2026-01-27 05:14:32.34	299.69	12.75	-25.7	-27.2	16.3	0.00e+00	0	43	0	2087714816	11	4290
2026-01-27 05:14:33.35	299.51	12.70	-25.7	-27.2	16.3	0.00e+00	0	43	0	2092957696	11	4283
2026-01-27 05:14:34.35	299.33	12.66	-25.7	-27.2	16.4	0.00e+00	0	43	0	2099249152	11	4275
2026-01-27 05:14:35.36	299.15	12.62	-25.6	-27.0	16.4	0.00e+00	0	43	0	2104492032	11	4224
2026-01-27 05:14:36.36	298.98	12.57	-25.6	-27.1	16.4	0.00e+00	0	43	0	2110783488	11	4245
2026-01-27 05:14:37.37	298.80	12.53	-25.6	-27.1	16.4	0.00e+00	0	43	0	2116026368	11	4248
2026-01-27 05:14:38.37	298.63	12.48	-25.7	-27.2	16.3	0.00e+00	0	43	0	2121269248	11	4288
2026-01-27 05:14:39.37	298.46	12.44	-25.8	-27.3	16.2	0.00e+00	0	43	0	2127560704	11	4316
2026-01-27 05:14:40.38	298.28	12.40	-25.4	-27.0	14.7	0.00e+00	0	43	0	2132803584	11	4327
2026-01-27 05:14:41.38	298.11	12.35	-25.7	-27.1	13.6	0.00e+00	0	43	0	2138046464	11	4253
2026-01-27 05:14:42.38	297.94	12.31	-25.7	-27.1	16.4	0.00e+00	0	43	0	2144337920	11	4246
2026-01-27 05:14:43.38	297.77	12.26	-25.7	-27.1	16.3	0.00e+00	0	43	0	2149580800	11	4250
2026-01-27 05:14:44.39	297.59	12.22	-25.7	-27.2	16.2	0.00e+00	0	43	0	2154823680	11	4279
2026-01-27 05:14:45.39	297.42	12.17	-25.8	-27.5	16.1	0.00e+00	0	43	0	2161115136	11	4356
2026-01-27 05:14:46.39	297.25	12.13	-25.9	-27.7	16.0	0.00e+00	0	43	0	2166358016	11	4405
2026-01-27 05:14:47.40	297.08	12.08	-26.0	-27.8	15.9	0.00e+00	0	43	0	2172649472	11	4449
2026-01-27 05:14:48.40	296.91	12.04	-26.0	-27.4	15.8	0.00e+00	0	43	0	2177892352	12	4234
2026-01-27 05:14:49.41	296.74	11.99	-26.0	-27.4	15.8	7.59e-04	0	43	0	2184183808	12	4233
2026-01-27 05:14:50.41	296.58	11.94	-26.0	-27.8	15.9	0.00e+00	0	43	0	2189426688	11	4449
2026-01-27 05:14:51.41	296.41	11.90	-25.9	-27.6	16.0	0.00e+00	0	43	0	2194669568	11	4399
2026-01-27 05:14:52.42	296.24	11.85	-25.9	-27.6	16.1	7.90e-04	0	43	0	2200961024	11	4382
2026-01-27 05:14:53.42	296.07	11.81	-25.9	-27.6	16.0	0.00e+00	0	43	0	2206203904	11	4389
2026-01-27 05:14:54.42	295.91	11.76	-25.8	-27.5	16.1	0.00e+00	0	43	0	2211446784	11	4369
2026-01-27 05:14:55.43	295.74	11.71	-25.9	-27.7	16.0	0.00e+00	0	43	0	2217738240	11	4425
2026-01-27 05:14:56.44	295.57	11.67	-25.9	-27.2	15.9	5.58e-04	0	43	0	2222981120	12	4171
2026-01-27 05:14:57.43	295.41	11.62	-25.8	-27.0	16.0	0.00e+00	0	43	0	2228224000	12	4136
2026-01-27 05:14:58.43	295.25	11.57	-25.9	-27.7	16.0	0.00e+00	0	43	0	2234515456	11	4416
2026-01-27 05:14:59.44	295.08	11.52	-26.0	-27.8	15.9	5.76e-04	0	43	0	2239758336	11	4442
2026-01-27 05:15:00.45	294.92	11.48	-26.0	-27.8	15.9	1.10e-06	0	43	0	2246049792	11	4453
2026-01-27 05:15:01.45	294.76	11.43	-26.1	-27.6	15.6	7.52e-04	0	43	0	2251292672	12	4289
2026-01-27 05:15:02.45	294.60	11.38	-26.2	-27.9	15.5	0.00e+00	0	43	0	2256535552	12	4356
2026-01-27 05:15:03.45	294.44	11.33	-26.1	-27.5	15.7	0.00e+00	0	43	0	2262827008	12	4267
2026-01-27 05:15:04.46	294.27	11.29	-26.0	-27.5	15.7	8.33e-04	0	43	0	2268069888	12	4248
2026-01-27 05:15:05.46	294.11	11.24	-26.1	-27.6	15.6	8.62e-04	0	43	0	2274361344	12	4298
2026-01-27 05:15:06.46	293.96	11.19	-26.1	-27.7	15.6	0.00e+00	0	43	0	2279604224	12	4301
2026-01-27 05:15:07.47	293.80	11.14	-26.1	-27.5	15.6	0.00e+00	0	43	0	2284847104	12	4272
2026-01-27 05:15:08.47	293.64	11.09	-26.1	-27.5	15.6	9.01e-04	0	43	0	2291138560	12	4266
2026-01-27 05:15:09.47	293.48	11.04	-26.0	-27.5	15.6	0.00e+00	0	43	0	2296381440	12	4248
2026-01-27 05:15:10.48	293.32	11.00	-26.0	-27.5	15.7	9.77e-04	0	43	0	2301624320	12	4260
2026-01-27 05:15:11.48	293.16	10.95	-26.1	-27.6	15.6	1.13e-03	0	43	0	2307915776	12	4270
2026-01-27 05:15:12.49	293.01	10.90	-26.1	-27.6	15.6	0.00e+00	0	43	0	2313158656	12	4295
2026-01-27 05:15:13.49	292.85	10.85	-26.1	-27.7	15.5	1.13e-03	0	43	0	2319450112	12	4301
2026-01-27 05:15:14.49	292.70	10.80	-26.1	-27.6	15.6	1.10e-03	0	43	0	2324692992	12	4290
2026-01-27 05:15:15.49	292.54	10.75	-26.1	-27.6	15.6	0.00e+00	0	43	0	2329935872	12	4286
2026-01-27 05:15:16.49	292.39	10.70	-26.1	-27.6	15.6	9.20e-04	0	43	0	2336227328	12	4292
2026-01-27 05:15:17.50	292.23	10.65	-26.0	-27.4	15.7	8.75e-04	0	43	0	2341470208	12	4227
2026-01-27 05:15:18.50	292.08	10.60	-26.0	-27.4	15.7	0.00e+00	0	43	0	2346713088	12	4219
2026-01-27 05:15:19.51	291.93	10.55	-26.0	-27.3	15.7	6.06e-04	0	43	0	2353004544	12	4212
2026-01-27 05:15:20.51	291.77	10.50	-26.0	-27.4	15.7	3.26e-04	0	43	0	2358247424	12	4226
2026-01-27 05:15:21.51	291.62	10.45	-26.0	-27.5	15.6	0.00e+00	0	43	0	2364538880	12	4268
2026-01-27 05:15:22.51	291.47	10.40	-26.1	-27.7	15.5	2.18e-04	0	43	0	2369781760	12	4314
2026-01-27 05:15:23.51	291.32	10.35	-26.2	-27.8	15.4	0.00e+00	0	43	0	2375024640	12	4336
2026-01-27 05:15:24.52	291.17	10.30	-26.2	-27.8	15.4	0.00e+00	0	43	0	2381316096	12	4334
2026-01-27 05:15:25.52	291.02	10.25	-26.2	-27.9	15.4	3.48e-04	0	43	0	2386558976	12	4365
2026-01-27 05:15:26.52	290.87	10.20	-26.3	-28.0	15.3	2.97e-05	0	43	0	2392850432	12	4411
2026-01-27 05:15:27.52	290.72	10.15	-26.2	-28.0	15.3	0.00e+00	0	43	0	2398093312	12	4388
2026-01-27 05:15:28.53	290.58	10.10	-26.2	-27.8	15.4	0.00e+00	0	43	0	2403336192	12	4341
2026-01-27 05:15:29.54	290.43	10.05	-26.3	-28.1	15.2	5.85e-04	0	43	0	2409627648	12	4426
2026-01-27 05:15:30.54	290.28	10.00	-26.3	-28.2	15.2	0.00e+00	0	43	0	2414870528	12	4433
2026-01-27 05:15:31.55	290.13	9.95	-26.4	-28.4	15.0	6.92e-04	0	43	0	2420113408	12	4515
2026-01-27 05:15:32.55	289.99	9.90	-26.6	-28.2	14.9	5.43e-04	0	43	0	2426404864	13	4337
2026-01-27 05:15:33.56	289.84	9.85	-26.7	-28.5	14.7	0.00e+00	0	43	0	2431647744	13	4425
2026-01-27 05:15:34.56	289.70	9.80	-26.7	-28.5	14.7	0.00e+00	0	43	0	2437939200	13	4432
2026-01-27 05:15:35.57	289.55	9.75	-26.7	-28.4	14.7	1.10e-06	0	43	0	2443182080	13	4415
2026-01-27 05:15:36.57	289.41	9.70	-26.6	-28.3	14.8	0.00e+00	0	43	0	2448424960	13	4370
2026-01-27 05:15:37.57	289.26	9.65	-26.7	-28.6	14.6	0.00e+00	0	43	0	2454716416	13	4445
2026-01-27 05:15:38.58	289.12	9.59	-26.7	-28.6	14.6	0.00e+00	0	43	0	2459959296	13	4451
2026-01-27 05:15:39.58	288.98	9.54	-26.7	-28.5	14.6	0.00e+00	0	43	0	2466250752	13	4446
2026-01-27 05:15:40.58	288.84	9.49	-26.8	-28.8	14.4	0.00e+00	0	43	0	2471493632	13	4533
2026-01-27 05:15:41.58	288.69	9.44	-26.8	-28.6	14.5	0.00e+00	0	43	0	2476736512	13	4478
2026-01-27 05:15:42.58	288.55	9.39	-26.7	-28.6	14.6	0.00e+00	0	43	0	2483027968	13	4455
2026-01-27 05:15:43.58	288.41	9.34	-26.8	-28.7	14.5	9.38e-05	0	43	0	2488270848	13	4490
2026-01-27 05:15:44.58	288.27	9.29	-26.7	-28.6	14.5	1.10e-06	0	43	0	2493513728	13	4472
2026-01-27 05:15:45.58	288.14	9.24	-26.8	-28.7	14.5	0.00e+00	0	43	0	2499805184	13	4495
2026-01-27 05:15:46.59	288.00	9.18	-26.5	-28.1	14.8	0.00e+00	0	43	0	2505048064	13	4321
2026-01-27 05:15:47.59	287.86	9.13	-26.4	-28.4	14.9	0.00e+00	0	43	0	2510290944	12	4517
2026-01-27 05:15:48.59	287.72	9.08	-26.4	-28.4	14.9	0.00e+00	0	43	0	2516582400	12	4515
2026-01-27 05:15:49.59	287.58	9.03	-26.5	-28.2	14.7	0.00e+00	0	43	0	2521825280	13	4342
2026-01-27 05:15:50.59	287.45	8.98	-26.7	-28.6	14.5	0.00e+00	0	43	0	2528116736	13	4460
2026-01-27 05:15:51.59	287.31	8.93	-26.8	-28.7	14.4	0.00e+00	0	43	0	2533359616	13	4506
2026-01-27 05:15:52.60	287.17	8.87	-26.8	-28.7	14.4	0.00e+00	0	43	0	2538602496	13	4492
2026-01-27 05:15:53.60	287.04	8.82	-26.9	-28.9	14.2	0.00e+00	0	43	0	2544893952	13	4565
2026-01-27 05:15:54.61	286.90	8.77	-26.9	-28.5	14.2	0.00e+00	0	43	0	2550136832	14	4336
2026-01-27 05:15:55.61	286.77	8.72	-26.7	-28.5	14.5	1.10e-06	0	43	0	2556428288	13	4458
2026-01-27 05:15:56.61	286.63	8.67	-26.8	-28.8	14.3	0.00e+00	0	43	0	2561671168	13	4520
2026-01-27 05:15:57.61	286.50	8.61	-26.7	-28.5	14.5	0.00e+00	0	43	0	2566914048	13	4432
2026-01-27 05:15:58.62	286.37	8.56	-26.6	-28.3	14.6	0.00e+00	0	43	0	2573205504	13	4385
2026-01-27 05:15:59.62	286.24	8.51	-26.7	-28.5	14.4	0.00e+00	0	43	0	2578448384	13	4448
2026-01-27 05:16:00.63	286.10	8.46	-26.8	-28.7	14.4	1.10e-06	0	43	0	2583691264	13	4504
2026-01-27 05:16:01.63	285.97	8.40	-26.9	-29.0	14.2	2.20e-06	0	43	0	2589982720	13	4577
2026-01-27 05:16:02.64	285.84	8.35	-26.9	-29.1	14.1	1.10e-06	0	43	0	2595225600	13	4634
2026-01-27 05:16:03.64	285.71	8.30	-27.0	-29.3	14.0	2.20e-06	0	43	0	2601517056	13	4672
2026-01-27 05:16:04.65	285.58	8.25	-27.3	-29.4	13.6	3.40e-06	0	43	0	2606759936	14	4603
2026-01-27 05:16:05.64	285.45	8.20	-27.2	-29.2	13.8	6.80e-06	0	43	0	2612002816	14	4532
2026-01-27 05:16:06.65	285.32	8.14	-27.0	-28.7	14.0	3.40e-06	0	43	0	2618294272	14	4395
2026-01-27 05:16:07.65	285.19	8.09	-26.9	-29.1	14.1	0.00e+00	0	43	0	2623537152	13	4617
2026-01-27 05:16:08.66	285.06	8.04	-26.9	-29.1	14.1	3.40e-06	0	43	0	2629828608	13	4617
2026-01-27 05:16:09.66	284.93	7.98	-26.9	-29.1	14.1	2.20e-06	0	43	0	2635071488	13	4609
2026-01-27 05:16:10.67	284.81	7.93	-27.0	-28.7	14.0	0.00e+00	0	43	0	2640314368	14	4383
2026-01-27 05:16:11.67	284.68	7.88	-27.0	-29.2	14.0	2.20e-06	0	43	0	2646605824	13	4654
2026-01-27 05:16:12.68	284.55	7.83	-27.0	-29.2	13.9	1.10e-06	0	43	0	2651848704	13	4665
2026-01-27 05:16:13.68	284.43	7.77	-27.1	-28.9	13.8	4.50e-06	0	43	0	2657091584	14	4459
2026-01-27 05:16:14.69	284.30	7.72	-27.2	-29.3	13.6	4.50e-06	0	43	0	2663383040	14	4582
2026-01-27 05:16:15.70	284.18	7.67	-27.2	-29.2	13.7	4.50e-06	0	43	0	2668625920	14	4549
2026-01-27 05:16:16.70	284.05	7.62	-27.2	-29.2	13.7	6.80e-06	0	43	0	2674917376	14	4552
2026-01-27 05:16:17.71	283.93	7.56	-27.4	-29.7	13.4	3.40e-06	0	43	0	2680160256	14	4698
2026-01-27 05:16:18.72	283.80	7.51	-27.3	-29.0	13.5	1.37e-05	0	43	0	2686451712	15	4388
2026-01-27 05:16:19.73	283.68	7.46	-27.2	-29.3	13.6	5.70e-06	0	43	0	2691694592	14	4565
2026-01-27 05:16:20.74	283.55	7.40	-27.1	-29.0	13.8	3.40e-06	0	43	0	2696937472	14	4486
2026-01-27 05:16:21.74	283.43	7.35	-27.0	-28.8	13.9	3.40e-06	0	43	0	2703228928	14	4409
2026-01-27 05:16:22.73	283.31	7.30	-27.0	-28.8	13.9	2.20e-06	0	43	0	2708471808	14	4428
2026-01-27 05:16:23.74	283.19	7.25	-27.1	-28.9	13.9	0.00e+00	0	43	0	2713714688	14	4452
2026-01-27 05:16:24.74	283.07	7.19	-27.3	-29.4	13.5	4.50e-06	0	43	0	2720006144	14	4610
2026-01-27 05:16:25.74	282.95	7.14	-27.3	-29.4	13.5	1.94e-05	0	43	0	2725249024	14	4602
2026-01-27 05:16:26.74	282.83	7.09	-27.2	-29.2	13.7	5.70e-06	0	43	0	2730491904	14	4529
2026-01-27 05:16:27.75	282.71	7.03	-32.8	-43.5	3.8	6.62e-01	0	43	104	2734686208	25	12403
2026-01-27 05:16:28.75	282.59	6.98	-33.1	-44.1	3.8	8.45e-01	0	43	104	2734686208	27	12789

#Closed at: 2026-01-27 05:16:29
#Recorded file [2734 MB]: D:/data/31010_260127_080821.dat