passes_logs/2026/01/27/R2M6_AANII_01/R2M6_AANII_01__20260127_231148_NOAA_20_JPSS-1_rec.log

#Pass ID: 20260127_231148_NOAA 20 (JPSS-1)
#Satellite: NOAA 20 (JPSS-1)
#Configuration: NOAA 20
#almurnet v.1.7.20240730
#Start time: 2026-01-27 23:11:48

#Version: 2.2.20231116
#Station: R2M6_AANII_01
#Location: 30.233357 lon 59.946436 lat
#TLE: 1 43013U 17073A   26027.45344144  .00000161  00000+0  97205-4 0  9999
#TLE: 2 43013  98.7647 328.2621 0000962  21.7793 338.3424 14.19541101424503

#Time	Az	El	Level	Level2	SNR	BER	BlckErr	Temp	State	Recorded	gain1	gain2
2026-01-27 23:11:48.97	25.61	7.00	-31.8	-37.5	5.2	1.22e+00	0	40	0	0	23	6980
2026-01-27 23:11:49.96	25.68	7.07	-32.4	-40.2	4.7	1.34e+00	0	41	104	0	24	8848
2026-01-27 23:11:50.97	25.75	7.14	-32.3	-39.5	6.9	2.10e-01	0	40	0	0	24	8189
2026-01-27 23:11:51.98	25.82	7.21	-32.4	-40.1	6.5	1.92e-01	0	40	0	1048576	24	8677
2026-01-27 23:11:52.98	25.89	7.29	-32.3	-39.1	7.2	1.71e-01	0	41	0	3145728	24	7902
2026-01-27 23:11:53.98	25.96	7.36	-32.2	-38.5	7.8	9.94e-02	0	41	0	5242880	24	7463
2026-01-27 23:11:54.98	26.03	7.43	-32.0	-37.8	8.3	5.47e-02	0	41	0	7340032	24	6991
2026-01-27 23:11:55.98	26.10	7.50	-31.8	-37.0	9.0	3.10e-02	0	41	0	9437184	24	6508
2026-01-27 23:11:56.98	26.17	7.57	-31.6	-36.3	9.5	1.84e-02	0	41	0	10485760	24	6136
2026-01-27 23:11:57.99	26.24	7.64	-31.5	-36.0	10.2	9.92e-03	0	41	0	12582912	23	6096
2026-01-27 23:11:58.99	26.31	7.71	-31.4	-35.7	10.4	5.60e-03	0	41	0	14680064	23	5915
2026-01-27 23:11:59.99	26.38	7.78	-29.9	-34.2	10.7	3.28e-03	0	41	0	16777216	22	5971
2026-01-27 23:12:00.99	26.45	7.85	-31.2	-35.5	10.9	2.90e-03	0	41	0	17825792	22	5939
2026-01-27 23:12:02.00	26.53	7.93	-31.3	-35.9	10.7	2.69e-03	0	41	0	19922944	22	6134
2026-01-27 23:12:03.00	26.60	8.00	-31.2	-35.5	10.8	2.06e-03	0	41	0	22020096	22	5923
2026-01-27 23:12:04.01	26.67	8.07	-31.1	-35.3	11.1	1.52e-03	0	41	0	24117248	22	5831
2026-01-27 23:12:05.01	26.75	8.14	-31.1	-35.1	11.4	1.55e-03	0	41	0	26214400	22	5731
2026-01-27 23:12:06.01	26.82	8.21	-31.1	-35.2	11.2	1.44e-03	0	41	0	27262976	22	5799
2026-01-27 23:12:07.01	26.89	8.29	-31.0	-35.4	11.4	1.09e-03	0	41	0	29360128	21	5991
2026-01-27 23:12:08.02	26.97	8.36	-31.0	-35.0	11.4	1.16e-03	0	41	0	31457280	22	5686
2026-01-27 23:12:09.01	27.04	8.43	-31.0	-35.0	11.4	1.34e-03	0	41	0	33554432	22	5684
2026-01-27 23:12:10.02	27.12	8.51	-31.1	-35.1	11.3	1.07e-03	0	41	0	35651584	22	5744
2026-01-27 23:12:11.02	27.19	8.58	-31.0	-35.0	11.5	1.21e-03	0	41	0	36700160	22	5664
2026-01-27 23:12:12.02	27.27	8.65	-31.1	-35.1	11.3	1.36e-03	0	41	0	38797312	22	5734
2026-01-27 23:12:13.02	27.34	8.73	-31.2	-35.5	11.1	1.17e-03	0	41	0	40894464	22	5898
2026-01-27 23:12:14.02	27.42	8.80	-31.0	-34.9	11.5	1.18e-03	0	41	0	42991616	22	5655
2026-01-27 23:12:15.02	27.50	8.87	-31.0	-34.8	11.6	6.78e-04	0	41	0	45088768	22	5573
2026-01-27 23:12:16.02	27.57	8.95	-30.9	-35.0	11.8	7.83e-04	0	41	0	46137344	21	5796
2026-01-27 23:12:17.02	27.65	9.02	-30.9	-35.1	11.7	5.88e-04	0	41	0	48234496	21	5832
2026-01-27 23:12:17.94	27.72	9.09	-30.8	-34.8	12.0	4.13e-04	0	41	0	50331648	21	5683
2026-01-27 23:12:18.94	27.80	9.16	-30.8	-34.8	12.0	6.63e-04	0	41	0	52428800	21	5688
2026-01-27 23:12:19.93	27.88	9.24	-30.7	-34.3	12.3	2.01e-04	0	42	0	54525952	21	5487
2026-01-27 23:12:20.94	27.96	9.31	-30.6	-34.0	12.5	1.40e-04	0	41	0	55574528	21	5358
2026-01-27 23:12:21.94	28.04	9.39	-30.6	-34.2	12.4	1.31e-04	0	41	0	57671680	21	5441
2026-01-27 23:12:22.94	28.11	9.46	-30.7	-34.4	12.3	1.56e-04	0	41	0	59768832	21	5520
2026-01-27 23:12:23.95	28.20	9.54	-30.6	-34.1	12.5	1.35e-04	0	41	0	61865984	21	5376
2026-01-27 23:12:24.96	28.28	9.62	-30.5	-33.9	12.6	9.91e-05	0	42	0	62914560	21	5299
2026-01-27 23:12:25.96	28.36	9.69	-30.6	-34.0	12.6	1.17e-04	0	41	0	65011712	21	5334
2026-01-27 23:12:26.96	28.44	9.77	-30.6	-34.2	12.5	4.21e-04	0	42	0	67108864	21	5406
2026-01-27 23:12:27.97	28.52	9.85	-30.7	-34.5	12.2	1.58e-04	0	42	0	69206016	21	5572
2026-01-27 23:12:28.97	28.60	9.92	-30.6	-34.1	12.5	1.78e-04	0	42	0	71303168	21	5375
2026-01-27 23:12:29.97	28.68	10.00	-30.5	-33.8	12.8	3.76e-04	0	42	0	72351744	21	5249
2026-01-27 23:12:30.98	28.77	10.08	-30.5	-34.2	12.9	3.93e-04	0	42	0	74448896	20	5515
2026-01-27 23:12:31.98	28.85	10.15	-30.5	-33.7	12.8	6.63e-05	0	42	0	76546048	21	5233
2026-01-27 23:12:32.98	28.93	10.23	-30.5	-33.7	12.8	3.83e-04	0	42	0	78643200	21	5208
2026-01-27 23:12:33.98	29.02	10.31	-30.4	-34.0	12.9	4.20e-04	0	42	0	80740352	20	5458
2026-01-27 23:12:34.99	29.10	10.39	-30.4	-33.9	13.0	4.73e-05	0	42	0	81788928	20	5407
2026-01-27 23:12:35.99	29.19	10.46	-30.3	-33.8	12.8	4.10e-04	0	42	0	83886080	20	5376
2026-01-27 23:12:37.00	29.27	10.54	-30.3	-33.8	12.8	4.39e-04	0	42	0	85983232	20	5379
2026-01-27 23:12:38.00	29.36	10.62	-30.4	-34.0	12.9	3.20e-05	0	42	0	88080384	20	5446
2026-01-27 23:12:39.00	29.45	10.70	-30.3	-33.8	12.9	3.35e-05	0	42	0	90177536	20	5356
2026-01-27 23:12:40.01	29.53	10.78	-30.4	-34.0	12.8	4.32e-04	0	42	0	91226112	20	5439
2026-01-27 23:12:41.01	29.62	10.86	-30.3	-33.7	13.2	2.59e-05	0	42	0	93323264	20	5336
2026-01-27 23:12:42.02	29.71	10.94	-30.4	-34.1	12.9	4.13e-04	0	42	0	95420416	20	5489
2026-01-27 23:12:43.02	29.80	11.02	-30.4	-34.0	13.0	4.13e-04	0	42	0	97517568	20	5454
2026-01-27 23:12:44.03	29.89	11.10	-30.4	-34.0	13.0	3.35e-05	0	42	0	99614720	20	5444
2026-01-27 23:12:45.02	29.97	11.18	-30.4	-34.1	13.0	3.98e-04	0	42	0	100663296	20	5463
2026-01-27 23:12:46.03	30.06	11.26	-30.4	-34.0	13.0	3.71e-04	0	42	0	102760448	20	5448
2026-01-27 23:12:47.03	30.15	11.34	-30.5	-33.7	12.9	3.89e-05	0	42	0	104857600	21	5220
2026-01-27 23:12:48.03	30.24	11.42	-30.6	-34.1	12.7	4.13e-04	0	42	0	106954752	21	5360
2026-01-27 23:12:49.02	30.33	11.50	-30.7	-34.2	12.6	4.52e-04	0	42	0	109051904	21	5414
2026-01-27 23:12:50.03	30.43	11.58	-30.5	-33.9	12.8	6.48e-05	0	42	0	110100480	21	5267
2026-01-27 23:12:51.03	30.52	11.66	-30.4	-33.9	13.1	3.84e-04	0	42	0	112197632	20	5416
2026-01-27 23:12:52.04	30.61	11.74	-30.3	-33.7	13.3	3.81e-04	0	42	0	114294784	20	5313
2026-01-27 23:12:53.04	30.70	11.82	-30.4	-33.9	13.2	2.82e-05	0	42	0	116391936	20	5404
2026-01-27 23:12:54.04	30.80	11.90	-30.3	-33.6	13.4	3.75e-04	0	42	0	118489088	20	5273
2026-01-27 23:12:55.04	30.89	11.98	-30.2	-33.4	13.5	3.35e-04	0	42	0	119537664	20	5183
2026-01-27 23:12:56.04	30.98	12.06	-30.3	-33.5	13.4	1.52e-05	0	42	0	121634816	20	5246
2026-01-27 23:12:57.04	31.08	12.15	-30.2	-33.5	13.4	6.81e-04	0	42	0	123731968	20	5246
2026-01-27 23:12:58.05	31.17	12.23	-30.3	-33.6	13.4	2.88e-04	0	42	0	125829120	20	5277
2026-01-27 23:12:59.05	31.27	12.31	-30.3	-33.6	13.3	2.13e-05	0	42	0	126877696	20	5271
2026-01-27 23:13:00.04	31.36	12.39	-30.3	-33.8	13.3	3.42e-04	0	42	0	128974848	20	5358
2026-01-27 23:13:01.04	31.46	12.48	-30.4	-33.8	13.2	5.62e-04	0	42	0	131072000	20	5365
2026-01-27 23:13:02.05	31.56	12.56	-30.4	-33.8	13.3	1.83e-05	0	42	0	133169152	20	5367
2026-01-27 23:13:03.05	31.66	12.64	-30.4	-33.8	13.3	1.38e-04	0	42	0	135266304	20	5365
2026-01-27 23:13:04.06	31.76	12.73	-30.3	-33.6	13.4	4.27e-05	0	42	0	136314880	20	5266
2026-01-27 23:13:05.06	31.85	12.81	-30.3	-33.8	13.3	1.29e-05	0	42	0	138412032	20	5334
2026-01-27 23:13:06.07	31.95	12.90	-30.4	-33.9	13.2	2.83e-04	0	42	0	140509184	20	5375
2026-01-27 23:13:07.07	32.05	12.98	-30.4	-34.0	13.2	1.90e-05	0	42	0	142606336	20	5414
2026-01-27 23:13:08.08	32.16	13.07	-30.3	-33.6	13.4	8.30e-06	0	42	0	144703488	20	5257
2026-01-27 23:13:09.08	32.26	13.15	-30.2	-33.2	13.6	2.55e-04	0	42	0	145752064	20	5127
2026-01-27 23:13:10.08	32.36	13.24	-30.2	-33.3	13.6	5.56e-05	0	42	0	147849216	20	5137
2026-01-27 23:13:11.09	32.46	13.32	-30.2	-33.3	13.7	6.80e-06	0	42	0	149946368	20	5150
2026-01-27 23:13:12.09	32.56	13.41	-30.2	-33.4	13.6	2.59e-04	0	42	0	152043520	20	5179
2026-01-27 23:13:13.09	32.67	13.49	-30.1	-33.1	13.8	1.05e-04	0	42	0	154140672	20	5064
2026-01-27 23:13:14.10	32.77	13.58	-30.1	-33.1	13.8	3.80e-06	0	42	0	155189248	20	5074
2026-01-27 23:13:15.10	32.88	13.66	-30.1	-33.0	13.9	3.73e-05	0	42	0	157286400	20	5025
2026-01-27 23:13:16.10	32.98	13.75	-30.1	-33.1	13.8	2.46e-04	0	42	0	159383552	20	5063
2026-01-27 23:13:17.11	33.09	13.84	-30.3	-33.5	13.5	9.10e-06	0	42	0	161480704	20	5224
2026-01-27 23:13:18.11	33.19	13.92	-30.1	-33.1	13.8	8.85e-05	0	42	0	163577856	20	5092
2026-01-27 23:13:19.11	33.30	14.01	-30.3	-33.6	13.4	3.05e-04	0	42	0	164626432	20	5254
2026-01-27 23:13:20.12	33.41	14.10	-30.4	-34.0	13.2	1.83e-05	0	42	0	166723584	20	5412
2026-01-27 23:13:21.13	33.52	14.19	-30.4	-33.7	13.4	1.46e-04	0	42	0	168820736	20	5317
2026-01-27 23:13:22.12	33.62	14.27	-30.3	-33.7	13.5	2.21e-04	0	42	0	170917888	20	5280
2026-01-27 23:13:23.13	33.73	14.36	-30.4	-33.7	13.4	1.75e-05	0	42	0	173015040	20	5306
2026-01-27 23:13:24.14	33.84	14.45	-30.4	-33.9	13.3	2.75e-04	0	42	0	174063616	20	5368
2026-01-27 23:13:25.14	33.95	14.54	-30.6	-33.9	13.0	2.22e-04	0	42	0	176160768	21	5261
2026-01-27 23:13:26.14	34.07	14.63	-30.7	-34.2	12.8	4.42e-05	0	42	0	178257920	21	5399
2026-01-27 23:13:27.14	34.18	14.72	-30.5	-33.8	13.1	2.08e-04	0	42	0	180355072	21	5208
2026-01-27 23:13:28.14	34.29	14.81	-30.4	-33.4	13.3	1.89e-04	0	42	0	181403648	21	5083
2026-01-27 23:13:29.14	34.40	14.89	-30.4	-33.3	13.5	1.75e-05	0	42	0	183500800	21	5025
2026-01-27 23:13:30.13	34.51	14.98	-30.5	-33.5	13.3	1.98e-05	0	42	0	185597952	21	5105
2026-01-27 23:13:31.14	34.63	15.07	-30.6	-33.8	13.0	2.55e-04	0	42	0	187695104	21	5226
2026-01-27 23:13:32.14	34.74	15.16	-30.5	-33.7	13.1	2.51e-05	0	42	0	189792256	21	5181
2026-01-27 23:13:33.14	34.86	15.25	-30.6	-34.0	13.0	2.05e-04	0	42	0	190840832	21	5282
2026-01-27 23:13:34.14	34.98	15.34	-30.6	-33.7	13.1	1.38e-04	0	43	0	192937984	21	5191
2026-01-27 23:13:35.14	35.09	15.43	-30.7	-34.1	12.9	3.58e-05	0	42	0	195035136	21	5347
2026-01-27 23:13:36.13	35.21	15.52	-30.8	-34.4	12.8	7.93e-05	0	42	0	197132288	21	5434
2026-01-27 23:13:37.14	35.33	15.61	-30.8	-34.4	12.7	7.09e-05	0	42	0	199229440	21	5461
2026-01-27 23:13:38.14	35.45	15.71	-30.9	-34.7	12.5	1.08e-04	0	42	0	200278016	21	5571
2026-01-27 23:13:39.14	35.57	15.80	-31.0	-34.6	12.3	1.64e-04	0	42	0	202375168	22	5407
2026-01-27 23:13:40.14	35.69	15.89	-30.9	-34.2	12.5	1.34e-04	0	43	0	204472320	22	5281
2026-01-27 23:13:41.14	35.81	15.98	-30.8	-33.8	12.8	6.56e-05	0	42	0	206569472	22	5112
2026-01-27 23:13:42.15	35.93	16.07	-30.8	-33.9	12.8	6.71e-05	0	43	0	208666624	22	5136
2026-01-27 23:13:43.15	36.05	16.17	-30.8	-33.8	12.9	5.49e-05	0	42	0	209715200	22	5105
2026-01-27 23:13:44.15	36.18	16.26	-30.8	-33.9	12.8	5.72e-05	0	42	0	211812352	22	5160
2026-01-27 23:13:45.16	36.30	16.35	-31.0	-34.4	12.4	1.04e-04	0	42	0	213909504	22	5321
2026-01-27 23:13:46.16	36.43	16.44	-30.8	-34.0	12.7	9.30e-05	0	43	0	216006656	22	5170
2026-01-27 23:13:47.16	36.55	16.54	-30.9	-34.2	12.6	8.16e-05	0	42	0	217055232	22	5247
2026-01-27 23:13:48.16	36.68	16.63	-31.0	-34.4	12.4	1.07e-04	0	42	0	219152384	22	5347
2026-01-27 23:13:49.16	36.80	16.73	-31.1	-34.6	12.3	1.94e-04	0	42	0	221249536	22	5437
2026-01-27 23:13:50.17	36.93	16.82	-31.0	-34.3	12.5	1.50e-04	0	43	0	223346688	22	5301
2026-01-27 23:13:51.16	37.06	16.91	-31.0	-34.4	12.5	9.99e-05	0	43	0	225443840	22	5319
2026-01-27 23:13:52.17	37.19	17.01	-31.0	-34.6	12.4	1.42e-04	0	43	0	226492416	22	5405
2026-01-27 23:13:53.17	37.32	17.10	-31.2	-35.0	12.0	2.72e-04	0	42	0	228589568	22	5586
2026-01-27 23:13:54.17	37.45	17.20	-31.0	-34.4	12.4	2.10e-04	0	43	0	230686720	22	5333
2026-01-27 23:13:55.18	37.59	17.29	-30.9	-34.0	12.8	8.01e-05	0	42	0	232783872	22	5181
2026-01-27 23:13:56.18	37.72	17.39	-30.8	-33.8	12.9	5.49e-05	0	43	0	234881024	22	5112
2026-01-27 23:13:57.19	37.85	17.49	-30.8	-33.9	12.8	3.81e-05	0	43	0	235929600	22	5144
2026-01-27 23:13:58.19	37.99	17.58	-30.9	-34.1	12.7	7.01e-05	0	43	0	238026752	22	5208
2026-01-27 23:13:59.20	38.12	17.68	-30.9	-34.2	12.7	7.62e-05	0	42	0	240123904	22	5246
2026-01-27 23:14:00.20	38.26	17.77	-31.0	-34.4	12.5	1.13e-04	0	43	0	242221056	22	5323
2026-01-27 23:14:01.21	38.40	17.87	-31.0	-34.3	12.5	1.17e-04	0	43	0	244318208	22	5303
2026-01-27 23:14:02.21	38.53	17.97	-31.1	-34.7	12.3	1.41e-04	0	43	0	245366784	22	5457
2026-01-27 23:14:03.21	38.67	18.07	-31.2	-34.9	12.2	2.01e-04	0	43	0	247463936	22	5519
2026-01-27 23:14:04.21	38.81	18.16	-31.0	-34.3	12.7	1.55e-04	0	43	0	249561088	22	5284
2026-01-27 23:14:05.21	38.95	18.26	-30.9	-34.0	12.9	5.49e-05	0	43	0	251658240	22	5170
2026-01-27 23:14:06.21	39.09	18.36	-30.8	-33.8	13.0	4.50e-05	0	42	0	253755392	22	5080
2026-01-27 23:14:07.21	39.23	18.45	-30.8	-33.8	13.0	5.49e-05	0	42	0	254803968	22	5088
2026-01-27 23:14:08.22	39.38	18.55	-30.8	-33.9	13.0	3.73e-05	0	43	0	256901120	22	5108
2026-01-27 23:14:09.22	39.52	18.65	-30.8	-33.9	12.9	5.11e-05	0	43	0	258998272	22	5139
2026-01-27 23:14:10.23	39.67	18.75	-30.8	-33.8	13.0	3.73e-05	0	43	0	261095424	22	5098
2026-01-27 23:14:11.23	39.81	18.85	-30.8	-33.9	13.0	3.96e-05	0	42	0	263192576	22	5110
2026-01-27 23:14:12.22	39.96	18.95	-30.9	-34.0	12.9	7.01e-05	0	43	0	264241152	22	5157
2026-01-27 23:14:13.23	40.10	19.05	-30.8	-33.7	13.1	3.05e-05	0	43	0	266338304	22	5040
2026-01-27 23:14:14.24	40.25	19.15	-30.7	-33.6	13.2	1.75e-05	0	42	0	268435456	22	4994
2026-01-27 23:14:15.25	40.40	19.25	-30.7	-33.5	13.2	2.28e-05	0	43	0	270532608	22	4971
2026-01-27 23:14:16.25	40.55	19.35	-30.7	-33.5	13.2	3.28e-05	0	42	0	272629760	22	4969
2026-01-27 23:14:17.26	40.71	19.45	-30.5	-33.0	13.6	1.60e-05	0	43	0	273678336	22	4790
2026-01-27 23:14:18.26	40.86	19.55	-30.5	-33.1	13.5	9.10e-06	0	43	0	275775488	22	4817
2026-01-27 23:14:19.26	41.01	19.65	-30.6	-33.1	13.4	1.37e-05	0	43	0	277872640	22	4830
2026-01-27 23:14:20.26	41.17	19.75	-30.6	-33.1	13.5	1.06e-05	0	43	0	279969792	22	4834
2026-01-27 23:14:21.26	41.32	19.85	-30.7	-33.4	13.3	1.37e-05	0	43	0	281018368	22	4935
2026-01-27 23:14:22.26	41.48	19.95	-30.6	-33.3	13.4	1.83e-05	0	43	0	283115520	22	4892
2026-01-27 23:14:23.26	41.63	20.05	-30.6	-33.1	13.5	8.30e-06	0	42	0	285212672	22	4842
2026-01-27 23:14:24.26	41.79	20.16	-30.6	-33.8	13.4	7.60e-06	0	43	0	287309824	21	5182
2026-01-27 23:14:25.27	41.95	20.26	-30.6	-33.7	13.4	1.90e-05	0	42	0	289406976	21	5155
2026-01-27 23:14:26.27	42.11	20.36	-30.4	-33.2	13.8	6.80e-06	0	43	0	290455552	21	4962
2026-01-27 23:14:27.27	42.27	20.46	-30.3	-33.3	14.0	4.50e-06	0	43	0	292552704	20	5128
2026-01-27 23:14:28.28	42.44	20.57	-30.3	-33.4	13.9	3.80e-06	0	43	0	294649856	20	5151
2026-01-27 23:14:29.28	42.60	20.67	-30.3	-33.4	13.9	2.20e-06	0	43	0	296747008	20	5152
2026-01-27 23:14:30.28	42.76	20.77	-30.2	-33.1	14.1	3.80e-06	0	43	0	298844160	20	5028
2026-01-27 23:14:31.28	42.93	20.87	-30.2	-33.2	14.1	7.00e-07	0	43	0	299892736	20	5070
2026-01-27 23:14:32.28	43.09	20.98	-30.2	-33.1	14.1	3.80e-06	0	43	0	301989888	20	5029
2026-01-27 23:14:33.29	43.26	21.08	-30.2	-33.1	14.2	1.50e-06	0	42	0	304087040	20	5026
2026-01-27 23:14:34.28	43.43	21.18	-30.2	-33.2	14.1	0.00e+00	0	43	0	306184192	20	5057
2026-01-27 23:14:35.28	43.60	21.29	-30.1	-32.8	14.4	1.46e-04	0	42	0	308281344	20	4909
2026-01-27 23:14:36.29	43.77	21.39	-30.0	-32.6	14.5	7.00e-07	0	43	0	309329920	20	4854
2026-01-27 23:14:37.29	43.94	21.50	-29.9	-32.4	14.6	7.00e-07	0	43	0	311427072	20	4791
2026-01-27 23:14:38.30	44.12	21.60	-30.0	-32.7	14.5	0.00e+00	0	43	0	313524224	20	4884
2026-01-27 23:14:39.30	44.29	21.70	-30.0	-32.5	14.6	1.50e-06	0	43	0	315621376	20	4804
2026-01-27 23:14:40.30	44.47	21.81	-29.8	-32.0	14.9	0.00e+00	0	43	0	317718528	20	4641
2026-01-27 23:14:41.30	44.64	21.91	-29.8	-32.1	14.8	0.00e+00	0	43	0	318767104	20	4668
2026-01-27 23:14:42.31	44.82	22.02	-29.9	-32.3	14.7	6.80e-06	0	43	0	320864256	20	4739
2026-01-27 23:14:43.31	45.00	22.12	-30.0	-32.5	14.5	0.00e+00	0	43	0	322961408	20	4824
2026-01-27 23:14:44.31	45.18	22.23	-29.8	-32.1	14.8	0.00e+00	0	43	0	325058560	20	4680
2026-01-27 23:14:45.32	45.36	22.34	-29.8	-32.6	14.9	2.13e-04	0	43	0	326107136	19	4970
2026-01-27 23:14:46.32	45.55	22.44	-29.9	-32.7	14.8	7.00e-07	0	43	0	328204288	19	4985
2026-01-27 23:14:47.32	45.73	22.55	-29.9	-32.3	14.7	0.00e+00	0	43	0	330301440	20	4735
2026-01-27 23:14:48.33	45.92	22.65	-29.6	-31.6	15.1	2.97e-05	0	43	0	332398592	20	4529
2026-01-27 23:14:49.34	46.10	22.76	-29.4	-31.2	15.4	0.00e+00	0	43	0	334495744	20	4390
2026-01-27 23:14:50.34	46.29	22.87	-29.3	-30.9	15.6	0.00e+00	0	43	0	335544320	20	4313
2026-01-27 23:14:51.34	46.48	22.97	-29.4	-31.0	15.5	0.00e+00	0	43	0	337641472	20	4329
2026-01-27 23:14:52.34	46.67	23.08	-29.3	-30.9	15.5	0.00e+00	0	43	0	339738624	20	4322
2026-01-27 23:14:53.34	46.86	23.19	-29.4	-31.5	15.5	0.00e+00	0	43	0	341835776	19	4598
2026-01-27 23:14:54.34	47.05	23.29	-29.4	-31.6	15.5	0.00e+00	0	43	0	343932928	19	4615
2026-01-27 23:14:55.35	47.25	23.40	-29.2	-30.9	15.9	0.00e+00	0	43	0	344981504	19	4419
2026-01-27 23:14:56.35	47.44	23.51	-29.0	-30.6	16.1	0.00e+00	0	43	0	347078656	19	4329
2026-01-27 23:14:57.35	47.64	23.61	-28.9	-30.4	16.2	0.00e+00	0	43	0	349175808	19	4260
2026-01-27 23:14:58.35	47.84	23.72	-28.9	-30.4	16.2	0.00e+00	0	43	0	351272960	19	4255
2026-01-27 23:14:59.36	48.04	23.83	-29.0	-30.5	16.1	0.00e+00	0	43	0	353370112	19	4297
2026-01-27 23:15:00.36	48.24	23.94	-29.0	-30.5	16.1	0.00e+00	0	43	0	354418688	19	4287
2026-01-27 23:15:01.36	48.44	24.04	-28.8	-30.2	16.3	0.00e+00	0	43	0	356515840	19	4194
2026-01-27 23:15:02.36	48.64	24.15	-28.9	-30.2	16.3	0.00e+00	0	42	0	358612992	19	4210
2026-01-27 23:15:03.37	48.85	24.26	-29.0	-30.4	16.2	0.00e+00	0	43	0	360710144	19	4271
2026-01-27 23:15:04.37	49.05	24.37	-29.1	-30.8	16.0	0.00e+00	0	43	0	362807296	19	4363
2026-01-27 23:15:05.38	49.26	24.47	-29.2	-31.1	15.8	6.48e-05	0	43	0	363855872	19	4462
2026-01-27 23:15:06.38	49.47	24.58	-29.3	-31.3	15.6	7.32e-05	0	42	0	365953024	19	4542
2026-01-27 23:15:07.39	49.68	24.69	-29.3	-31.4	15.7	0.00e+00	0	43	0	368050176	19	4543
2026-01-27 23:15:08.39	49.89	24.80	-29.3	-31.3	15.8	0.00e+00	0	43	0	370147328	19	4518
2026-01-27 23:15:09.40	50.11	24.91	-29.3	-31.3	15.7	0.00e+00	0	43	0	372244480	19	4530
2026-01-27 23:15:10.40	50.32	25.01	-29.4	-31.5	15.6	0.00e+00	0	43	0	373293056	19	4573
2026-01-27 23:15:11.41	50.54	25.12	-29.3	-31.4	15.6	0.00e+00	0	43	0	375390208	19	4555
2026-01-27 23:15:12.41	50.75	25.23	-29.2	-31.0	15.9	0.00e+00	0	43	0	377487360	19	4429
2026-01-27 23:15:13.41	50.97	25.34	-29.2	-31.0	15.9	0.00e+00	0	43	0	379584512	19	4425
2026-01-27 23:15:14.42	51.20	25.45	-29.3	-31.3	15.7	0.00e+00	0	43	0	380633088	19	4538
2026-01-27 23:15:15.42	51.42	25.56	-29.4	-31.6	15.5	0.00e+00	0	43	0	382730240	19	4630
2026-01-27 23:15:16.43	51.64	25.66	-29.6	-32.1	15.3	0.00e+00	0	42	0	384827392	19	4775
2026-01-27 23:15:17.44	51.87	25.77	-29.7	-32.4	15.1	0.00e+00	0	43	0	386924544	19	4871
2026-01-27 23:15:18.44	52.09	25.88	-29.8	-32.5	15.0	3.80e-06	0	43	0	389021696	19	4910
2026-01-27 23:15:19.44	52.32	25.99	-29.8	-32.5	15.0	0.00e+00	0	43	0	391118848	19	4908
2026-01-27 23:15:20.44	52.55	26.10	-29.9	-32.8	14.8	0.00e+00	0	43	0	392167424	19	5006
2026-01-27 23:15:21.44	52.78	26.20	-30.0	-32.6	14.6	0.00e+00	0	43	0	394264576	20	4830
2026-01-27 23:15:22.44	53.01	26.31	-30.2	-33.0	14.3	0.00e+00	0	43	0	396361728	20	4995
2026-01-27 23:15:23.45	53.25	26.42	-30.3	-33.3	14.1	7.93e-05	0	43	0	398458880	20	5102
2026-01-27 23:15:24.45	53.48	26.53	-30.5	-33.8	13.9	1.96e-04	0	42	0	399507456	20	5261
2026-01-27 23:15:25.46	53.72	26.64	-30.6	-33.6	13.7	6.10e-06	0	43	0	401604608	21	5084
2026-01-27 23:15:26.46	53.96	26.74	-30.5	-33.5	13.7	1.29e-05	0	42	0	403701760	21	5066
2026-01-27 23:15:27.46	54.20	26.85	-30.7	-33.9	13.5	1.37e-05	0	43	0	405798912	21	5206
2026-01-27 23:15:28.47	54.44	26.96	-30.7	-34.0	13.3	1.29e-05	0	42	0	407896064	21	5240
2026-01-27 23:15:29.46	54.68	27.07	-30.9	-34.4	13.1	2.59e-05	0	43	0	408944640	21	5394
2026-01-27 23:15:30.47	54.93	27.17	-30.8	-34.3	13.1	3.89e-05	0	43	0	411041792	21	5365
2026-01-27 23:15:31.47	55.18	27.28	-30.8	-34.2	13.2	2.36e-05	0	43	0	413138944	21	5325
2026-01-27 23:15:32.48	55.43	27.39	-30.9	-34.5	13.1	2.74e-05	0	43	0	415236096	21	5446
2026-01-27 23:15:33.48	55.68	27.49	-31.0	-34.3	12.8	5.79e-05	0	43	0	417333248	22	5261
2026-01-27 23:15:34.48	55.93	27.60	-31.1	-34.6	12.7	9.07e-05	0	43	0	418381824	22	5364
2026-01-27 23:15:35.49	56.18	27.71	-31.2	-34.9	12.5	7.62e-05	0	43	0	420478976	22	5492
2026-01-27 23:15:36.49	56.44	27.81	-31.3	-35.1	12.3	1.50e-04	0	43	0	422576128	22	5557
2026-01-27 23:15:37.50	56.69	27.92	-31.3	-35.2	12.2	1.54e-04	0	43	0	424673280	22	5620
2026-01-27 23:15:38.51	56.96	28.03	-31.2	-34.8	12.5	2.11e-04	0	43	0	426770432	22	5455
2026-01-27 23:15:39.51	57.21	28.13	-31.1	-34.4	12.8	9.00e-05	0	43	0	427819008	22	5277
2026-01-27 23:15:40.51	57.48	28.24	-31.0	-34.3	12.9	6.10e-05	0	43	0	429916160	22	5267
2026-01-27 23:15:41.52	57.74	28.34	-31.1	-34.6	12.7	5.34e-05	0	43	0	432013312	22	5350
2026-01-27 23:15:42.52	58.01	28.45	-31.3	-35.0	12.4	9.23e-05	0	43	0	434110464	22	5530
2026-01-27 23:15:43.53	58.27	28.56	-31.3	-35.2	12.3	1.65e-04	0	43	0	436207616	22	5596
2026-01-27 23:15:44.53	58.54	28.66	-31.5	-35.6	12.0	2.23e-04	0	43	0	437256192	22	5769
2026-01-27 23:15:45.53	58.81	28.76	-31.7	-35.8	11.5	4.65e-04	0	43	0	439353344	23	5754
2026-01-27 23:15:46.53	59.08	28.87	-31.8	-36.0	11.3	1.02e-03	0	43	0	441450496	23	5869
2026-01-27 23:15:47.52	59.35	28.97	-32.0	-36.7	10.9	1.77e-03	0	43	0	443547648	23	6191
2026-01-27 23:15:48.53	59.63	29.07	-32.1	-36.7	10.5	3.34e-03	0	43	0	445644800	24	6084
2026-01-27 23:15:49.53	59.91	29.18	-32.2	-37.1	10.2	5.62e-03	0	43	0	446693376	24	6303
2026-01-27 23:15:50.54	60.19	29.28	-32.3	-37.4	10.0	7.22e-03	0	43	0	448790528	24	6452
2026-01-27 23:15:51.54	60.47	29.38	-32.3	-37.5	9.9	8.59e-03	0	43	0	450887680	24	6489
2026-01-27 23:15:52.55	60.75	29.48	-32.3	-37.2	10.1	9.59e-03	0	43	0	452984832	24	6366
2026-01-27 23:15:53.55	61.04	29.59	-32.2	-37.0	10.3	6.12e-03	0	43	0	454033408	24	6250
2026-01-27 23:15:54.55	61.32	29.69	-32.2	-37.0	10.2	5.95e-03	0	43	0	456130560	24	6256
2026-01-27 23:15:55.56	61.61	29.79	-32.3	-37.5	9.9	7.22e-03	0	43	0	458227712	24	6494
2026-01-27 23:15:56.56	61.90	29.89	-32.5	-37.9	9.5	1.25e-02	0	43	0	460324864	24	6744
2026-01-27 23:15:57.57	62.19	29.99	-32.7	-38.2	9.0	1.92e-02	0	42	0	462422016	25	6770
2026-01-27 23:15:58.57	62.49	30.09	-32.7	-38.3	8.9	2.76e-02	0	43	0	463470592	25	6864
2026-01-27 23:15:59.57	62.78	30.19	-32.9	-39.0	8.3	3.48e-02	0	43	0	465567744	25	7273
2026-01-27 23:16:00.58	63.08	30.29	-32.9	-39.1	8.2	5.67e-02	0	43	0	467664896	25	7374
2026-01-27 23:16:01.59	63.38	30.38	-32.8	-38.8	8.5	4.81e-02	0	43	0	469762048	25	7152
2026-01-27 23:16:02.59	63.68	30.48	-32.8	-38.6	8.7	4.22e-02	0	43	0	471859200	25	7053
2026-01-27 23:16:03.59	63.98	30.58	-32.6	-38.1	9.0	2.75e-02	0	43	0	472907776	25	6764
2026-01-27 23:16:04.60	64.29	30.68	-31.8	-37.1	9.3	2.02e-02	0	43	0	475004928	25	6575
2026-01-27 23:16:05.61	64.60	30.77	-32.5	-37.4	9.5	1.58e-02	0	43	0	477102080	25	6387
2026-01-27 23:16:06.61	64.90	30.87	-32.5	-37.6	9.4	1.46e-02	0	43	0	479199232	25	6476
2026-01-27 23:16:07.61	65.21	30.96	-32.5	-37.6	9.4	1.84e-02	0	43	0	481296384	25	6469
2026-01-27 23:16:08.61	65.52	31.06	-32.6	-38.1	9.1	1.57e-02	0	43	0	482344960	25	6725
2026-01-27 23:16:09.62	65.84	31.15	-32.6	-38.1	9.0	2.58e-02	0	43	0	484442112	25	6766
2026-01-27 23:16:10.62	66.15	31.24	-32.7	-38.2	9.0	2.50e-02	0	43	0	486539264	25	6832
2026-01-27 23:16:11.62	66.47	31.33	-32.5	-37.5	9.5	2.43e-02	0	43	0	488636416	25	6423
2026-01-27 23:16:12.62	66.78	31.43	-32.2	-36.5	10.3	1.04e-02	0	43	0	490733568	25	5908
2026-01-27 23:16:13.63	67.11	31.52	-31.9	-35.5	10.9	2.84e-03	0	43	0	491782144	25	5457
2026-01-27 23:16:14.63	67.43	31.61	-31.7	-35.4	11.4	1.31e-03	0	43	0	493879296	24	5489
2026-01-27 23:16:15.63	67.75	31.70	-31.6	-34.9	11.8	6.23e-04	0	43	0	495976448	24	5281
2026-01-27 23:16:16.63	68.07	31.79	-31.4	-34.3	12.2	2.46e-04	0	43	0	498073600	24	5032
2026-01-27 23:16:17.64	68.40	31.87	-31.2	-34.4	12.6	1.07e-04	0	43	0	500170752	23	5163
2026-01-27 23:16:18.65	68.73	31.96	-31.4	-34.7	12.3	1.17e-04	0	43	0	501219328	23	5304
2026-01-27 23:16:19.65	69.06	32.05	-31.4	-34.7	12.3	2.14e-04	0	43	0	503316480	23	5301
2026-01-27 23:16:20.64	69.39	32.13	-31.3	-34.5	12.5	2.84e-04	0	43	0	505413632	23	5220
2026-01-27 23:16:21.65	69.73	32.22	-31.3	-34.5	12.4	1.58e-04	0	43	0	507510784	23	5222
2026-01-27 23:16:22.65	70.06	32.30	-31.3	-34.5	12.5	1.50e-04	0	43	0	509607936	23	5191
2026-01-27 23:16:23.65	70.40	32.39	-31.3	-34.5	12.4	1.88e-04	0	43	0	510656512	23	5226
2026-01-27 23:16:24.66	70.74	32.47	-31.3	-34.7	12.3	1.57e-04	0	43	0	512753664	23	5275
2026-01-27 23:16:25.66	71.08	32.55	-31.2	-34.2	12.7	1.31e-04	0	43	0	514850816	23	5084
2026-01-27 23:16:26.66	71.42	32.63	-30.9	-33.5	13.1	2.56e-04	0	43	0	516947968	23	4820
2026-01-27 23:16:27.67	71.77	32.71	-30.8	-33.2	13.3	2.67e-05	0	43	0	517996544	23	4722
2026-01-27 23:16:28.67	72.11	32.79	-30.9	-33.9	13.2	1.83e-05	0	43	0	520093696	22	5104
2026-01-27 23:16:29.68	72.46	32.87	-30.9	-34.0	13.2	3.05e-05	0	43	0	522190848	22	5115
2026-01-27 23:16:30.68	72.81	32.95	-31.0	-34.2	13.0	2.89e-05	0	43	0	524288000	22	5194
2026-01-27 23:16:31.68	73.16	33.02	-31.0	-34.1	13.1	9.91e-05	0	43	0	526385152	22	5152
2026-01-27 23:16:32.69	73.52	33.10	-30.9	-33.9	13.2	1.83e-05	0	43	0	527433728	22	5084
2026-01-27 23:16:33.69	73.87	33.17	-31.0	-34.3	12.9	2.97e-05	0	43	0	529530880	22	5232
2026-01-27 23:16:34.69	74.23	33.24	-31.1	-34.5	12.8	4.65e-05	0	43	0	531628032	22	5302
2026-01-27 23:16:35.69	74.58	33.32	-31.2	-34.8	12.6	7.78e-05	0	43	0	533725184	22	5439
2026-01-27 23:16:36.69	74.94	33.39	-31.3	-35.0	12.5	1.08e-04	0	43	0	535822336	22	5540
2026-01-27 23:16:37.70	75.30	33.46	-31.3	-35.1	12.4	1.04e-04	0	43	0	536870912	22	5566
2026-01-27 23:16:38.70	75.66	33.52	-31.4	-35.3	12.2	1.46e-04	0	43	0	538968064	22	5666
2026-01-27 23:16:39.71	76.03	33.59	-31.5	-35.7	12.0	2.33e-04	0	43	0	541065216	22	5840
2026-01-27 23:16:40.72	76.40	33.66	-31.7	-35.7	11.6	4.84e-04	0	43	0	543162368	23	5721
2026-01-27 23:16:41.72	76.76	33.73	-31.9	-36.4	11.0	1.42e-03	0	43	0	545259520	23	6055
2026-01-27 23:16:42.73	77.13	33.79	-32.0	-36.5	10.7	2.21e-03	0	43	0	546308096	24	5981
2026-01-27 23:16:43.73	77.50	33.85	-32.3	-37.2	10.2	4.82e-03	0	43	0	548405248	24	6357
2026-01-27 23:16:44.74	77.88	33.92	-32.3	-37.4	10.0	7.22e-03	0	43	0	550502400	24	6455
2026-01-27 23:16:45.75	78.25	33.98	-32.3	-37.4	10.0	7.83e-03	0	43	0	552599552	24	6452
2026-01-27 23:16:46.75	78.62	34.04	-32.2	-36.9	10.3	5.66e-03	0	43	0	554696704	24	6192
2026-01-27 23:16:47.76	79.00	34.09	-32.0	-36.5	10.6	3.85e-03	0	43	0	555745280	24	5984
2026-01-27 23:16:48.76	79.38	34.15	-32.0	-36.3	10.8	2.40e-03	0	43	0	557842432	24	5884
2026-01-27 23:16:49.77	79.76	34.21	-32.2	-36.8	10.4	3.39e-03	0	43	0	559939584	24	6176
2026-01-27 23:16:50.77	80.13	34.26	-32.0	-36.3	10.7	4.02e-03	0	43	0	562036736	24	5929
2026-01-27 23:16:51.78	80.52	34.32	-32.1	-36.8	10.5	3.12e-03	0	43	0	564133888	24	6139
2026-01-27 23:16:52.78	80.90	34.37	-32.1	-36.8	10.4	5.43e-03	0	43	0	565182464	24	6167
2026-01-27 23:16:53.78	81.28	34.42	-32.2	-37.0	10.2	5.20e-03	0	43	0	567279616	24	6246
2026-01-27 23:16:54.78	81.66	34.47	-32.1	-36.5	10.6	4.97e-03	0	43	0	569376768	24	6010
2026-01-27 23:16:55.79	82.05	34.52	-31.9	-35.8	11.1	3.30e-03	0	43	0	571473920	24	5658
2026-01-27 23:16:56.79	82.43	34.56	-31.6	-35.5	11.7	6.69e-04	0	43	0	573571072	23	5636
2026-01-27 23:16:57.80	82.82	34.61	-31.5	-35.1	12.0	3.46e-04	0	43	0	574619648	23	5457
2026-01-27 23:16:58.81	83.21	34.65	-31.6	-35.5	11.7	4.20e-04	0	43	0	576716800	23	5621
2026-01-27 23:16:59.81	83.60	34.70	-31.6	-35.4	11.8	5.65e-04	0	43	0	578813952	23	5574
2026-01-27 23:17:00.81	83.99	34.74	-31.6	-35.3	11.8	5.03e-04	0	43	0	580911104	23	5568
2026-01-27 23:17:01.82	84.38	34.78	-32.0	-36.6	11.0	9.90e-04	0	43	0	583008256	23	6143
2026-01-27 23:17:02.82	84.77	34.81	-32.0	-36.2	10.9	2.71e-03	0	43	0	584056832	24	5847
2026-01-27 23:17:03.83	85.17	34.85	-31.8	-35.7	11.2	1.64e-03	0	43	0	586153984	24	5639
2026-01-27 23:17:04.83	85.56	34.89	-31.7	-35.4	11.4	1.06e-03	0	43	0	588251136	24	5494
2026-01-27 23:17:05.83	85.96	34.92	-31.7	-35.2	11.6	9.72e-04	0	43	0	590348288	24	5404
2026-01-27 23:17:06.84	86.35	34.95	-31.8	-35.6	11.3	1.08e-03	0	43	0	592445440	24	5553
2026-01-27 23:17:07.84	86.75	34.99	-31.7	-35.9	11.4	9.23e-04	0	43	0	593494016	23	5806
2026-01-27 23:17:08.85	87.15	35.02	-31.9	-36.5	11.0	1.65e-03	0	43	0	595591168	23	6079
2026-01-27 23:17:09.85	87.55	35.04	-31.8	-36.1	11.3	1.66e-03	0	43	0	597688320	23	5918
2026-01-27 23:17:10.86	87.95	35.07	-31.6	-35.3	11.8	6.10e-04	0	43	0	599785472	23	5549
2026-01-27 23:17:11.86	88.34	35.10	-31.5	-35.1	12.0	3.39e-04	0	43	0	601882624	23	5444
2026-01-27 23:17:12.86	88.74	35.12	-31.5	-35.0	12.0	2.79e-04	0	43	0	602931200	23	5436
2026-01-27 23:17:13.86	89.14	35.14	-31.6	-35.6	11.7	4.95e-04	0	43	0	605028352	23	5655
2026-01-27 23:17:14.86	89.54	35.16	-32.0	-36.6	10.9	1.29e-03	0	43	0	607125504	23	6153
2026-01-27 23:17:15.86	89.94	35.18	-32.1	-36.5	10.7	3.13e-03	0	43	0	609222656	24	5989
2026-01-27 23:17:16.86	90.34	35.20	-32.1	-36.6	10.5	3.49e-03	0	43	0	610271232	24	6040
2026-01-27 23:17:17.87	90.75	35.21	-32.1	-36.5	10.7	3.64e-03	0	43	0	612368384	24	5966
2026-01-27 23:17:18.87	91.15	35.23	-31.8	-35.6	11.3	1.72e-03	0	43	0	614465536	24	5560
2026-01-27 23:17:19.88	91.55	35.24	-31.7	-35.4	11.4	1.16e-03	0	43	0	616562688	24	5492
2026-01-27 23:17:20.88	91.96	35.25	-31.8	-35.7	11.3	1.06e-03	0	43	0	618659840	24	5598
2026-01-27 23:17:21.89	92.36	35.26	-31.5	-34.6	12.0	6.04e-04	0	43	0	619708416	24	5145
2026-01-27 23:17:22.89	92.76	35.27	-31.5	-34.6	12.1	2.87e-04	0	43	0	621805568	24	5150
2026-01-27 23:17:23.89	93.17	35.28	-31.5	-34.8	11.9	3.28e-04	0	43	0	623902720	24	5227
2026-01-27 23:17:24.89	93.57	35.28	-31.4	-34.5	12.1	2.51e-04	0	43	0	625999872	24	5100
2026-01-27 23:17:25.89	93.97	35.29	-31.4	-34.2	12.3	2.26e-04	0	43	0	628097024	24	5005
2026-01-27 23:17:26.90	94.38	35.29	-31.6	-34.9	11.8	2.91e-04	0	43	0	629145600	24	5290
2026-01-27 23:17:27.90	94.78	35.29	-31.5	-34.6	12.0	3.36e-04	0	43	0	631242752	24	5147
2026-01-27 23:17:28.90	95.18	35.29	-31.4	-34.3	12.2	2.32e-04	0	43	0	633339904	24	5035
2026-01-27 23:17:29.90	95.59	35.29	-31.2	-34.4	12.5	1.55e-04	0	43	0	635437056	23	5164
2026-01-27 23:17:30.90	95.99	35.28	-31.2	-34.3	12.5	9.30e-05	0	43	0	637534208	23	5144
2026-01-27 23:17:31.91	96.40	35.28	-31.2	-34.2	12.7	6.71e-05	0	43	0	638582784	23	5084
2026-01-27 23:17:32.91	96.80	35.27	-31.1	-34.1	12.7	7.32e-05	0	43	0	640679936	23	5058
2026-01-27 23:17:33.92	97.21	35.26	-31.6	-35.6	11.7	1.52e-04	0	43	0	642777088	23	5662
2026-01-27 23:17:34.92	97.61	35.25	-31.8	-36.1	11.3	1.01e-03	0	43	0	644874240	23	5919
2026-01-27 23:17:35.92	98.01	35.24	-32.0	-36.6	10.9	1.85e-03	0	43	0	646971392	23	6172
2026-01-27 23:17:36.92	98.41	35.22	-31.6	-35.4	11.8	1.44e-03	0	43	0	648019968	23	5574
2026-01-27 23:17:37.93	98.82	35.21	-31.0	-33.7	12.9	1.14e-04	0	43	0	650117120	23	4909
2026-01-27 23:17:38.93	99.22	35.19	-30.6	-33.1	13.7	1.44e-05	0	43	0	652214272	22	4788
2026-01-27 23:17:39.93	99.62	35.17	-30.6	-33.0	13.7	4.50e-06	0	43	0	654311424	22	4759
2026-01-27 23:17:40.93	100.02	35.15	-30.7	-33.4	13.4	1.37e-05	0	43	0	656408576	22	4919
2026-01-27 23:17:41.93	100.42	35.13	-30.9	-34.1	13.0	1.98e-05	0	43	0	657457152	22	5160
2026-01-27 23:17:42.93	100.82	35.11	-31.4	-35.5	12.0	1.17e-04	0	43	0	659554304	22	5730
2026-01-27 23:17:43.93	101.22	35.09	-31.8	-36.0	11.3	5.71e-04	0	43	0	661651456	23	5859
2026-01-27 23:17:44.93	101.61	35.06	-32.0	-36.6	10.8	2.00e-03	0	43	0	663748608	23	6171
2026-01-27 23:17:45.94	102.02	35.03	-32.0	-36.4	10.7	3.00e-03	0	43	0	664797184	24	5956
2026-01-27 23:17:46.94	102.41	35.00	-32.1	-36.7	10.5	3.32e-03	0	43	0	666894336	24	6107
2026-01-27 23:17:47.94	102.81	34.97	-32.3	-37.2	10.0	6.12e-03	0	43	0	668991488	24	6361
2026-01-27 23:17:48.95	103.21	34.94	-32.4	-37.9	9.5	1.17e-02	0	43	0	671088640	24	6764
2026-01-27 23:17:49.96	103.61	34.91	-32.5	-37.5	9.5	1.76e-02	0	43	0	673185792	25	6398
2026-01-27 23:17:50.96	104.00	34.87	-32.2	-36.3	10.2	1.26e-02	0	43	0	674234368	25	5833
2026-01-27 23:17:51.97	104.40	34.84	-32.0	-35.7	10.8	3.24e-03	0	43	0	676331520	25	5527
2026-01-27 23:17:52.97	104.79	34.80	-32.0	-35.6	10.8	2.15e-03	0	43	0	678428672	25	5505
2026-01-27 23:17:53.98	105.18	34.76	-32.0	-35.8	10.6	2.37e-03	0	43	0	680525824	25	5584
2026-01-27 23:17:54.98	105.57	34.72	-31.9	-35.4	11.0	2.12e-03	0	43	0	682622976	25	5403
2026-01-27 23:17:55.98	105.96	34.68	-31.9	-35.5	10.9	1.72e-03	0	43	0	683671552	25	5425
2026-01-27 23:17:56.98	106.35	34.64	-31.9	-35.4	10.9	2.01e-03	0	43	0	685768704	25	5420
2026-01-27 23:17:57.99	106.74	34.59	-31.7	-35.2	11.4	9.67e-04	0	43	0	687865856	24	5421
2026-01-27 23:17:58.99	107.13	34.54	-31.6	-35.1	11.6	6.54e-04	0	43	0	689963008	24	5357
2026-01-27 23:17:59.99	107.51	34.50	-31.7	-35.4	11.3	8.44e-04	0	43	0	692060160	24	5507
2026-01-27 23:18:00.99	107.90	34.45	-32.0	-36.2	10.8	1.59e-03	0	43	0	693108736	24	5856
2026-01-27 23:18:02.00	108.28	34.40	-32.1	-36.5	10.5	3.41e-03	0	43	0	695205888	24	6018
2026-01-27 23:18:03.00	108.66	34.35	-32.1	-36.6	10.4	4.33e-03	0	43	0	697303040	24	6076
2026-01-27 23:18:04.01	109.05	34.29	-31.7	-35.2	11.4	2.38e-03	0	43	0	699400192	24	5435
2026-01-27 23:18:05.01	109.43	34.24	-31.3	-34.5	12.3	2.55e-04	0	43	0	701497344	23	5246
2026-01-27 23:18:06.02	109.81	34.18	-31.1	-34.0	12.6	1.04e-04	0	43	0	702545920	23	5054
2026-01-27 23:18:07.02	110.19	34.13	-31.3	-34.8	12.1	1.27e-04	0	43	0	704643072	23	5342
2026-01-27 23:18:08.02	110.56	34.07	-31.6	-35.7	11.5	4.47e-04	0	43	0	706740224	23	5725
2026-01-27 23:18:09.03	110.94	34.01	-31.6	-35.6	11.4	1.09e-03	0	43	0	708837376	23	5705
2026-01-27 23:18:10.03	111.31	33.95	-31.5	-35.2	11.7	6.25e-04	0	43	0	710934528	23	5542
2026-01-27 23:18:11.04	111.69	33.89	-31.3	-34.6	12.2	4.05e-04	0	43	0	711983104	23	5277
2026-01-27 23:18:12.04	112.06	33.83	-31.3	-34.5	12.3	1.63e-04	0	43	0	714080256	23	5228
2026-01-27 23:18:13.04	112.42	33.76	-31.4	-34.8	12.0	2.82e-04	0	43	0	716177408	23	5362
2026-01-27 23:18:14.04	112.79	33.70	-31.2	-34.3	12.4	2.30e-04	0	43	0	718274560	23	5135
2026-01-27 23:18:15.05	113.16	33.63	-31.2	-34.4	12.3	2.20e-04	0	43	0	720371712	23	5199
2026-01-27 23:18:16.05	113.53	33.56	-31.1	-34.2	12.4	1.51e-04	0	43	0	721420288	23	5123
2026-01-27 23:18:17.06	113.89	33.50	-31.2	-34.5	12.2	1.68e-04	0	43	0	723517440	23	5251
2026-01-27 23:18:18.06	114.25	33.43	-31.4	-35.0	11.9	2.63e-04	0	43	0	725614592	23	5429
2026-01-27 23:18:19.07	114.62	33.36	-31.6	-35.5	11.5	5.14e-04	0	43	0	727711744	23	5677
2026-01-27 23:18:20.07	114.97	33.28	-31.7	-36.0	11.2	1.00e-03	0	43	0	728760320	23	5887
2026-01-27 23:18:21.07	115.33	33.21	-32.0	-36.8	10.6	2.61e-03	0	43	0	730857472	23	6302
2026-01-27 23:18:22.08	115.69	33.14	-31.6	-35.6	11.4	1.51e-03	0	43	0	732954624	23	5711
2026-01-27 23:18:23.08	116.04	33.06	-31.2	-34.5	12.2	4.25e-04	0	43	0	735051776	23	5239
2026-01-27 23:18:24.09	116.40	32.99	-31.0	-33.9	12.6	1.65e-04	0	43	0	737148928	23	5019
2026-01-27 23:18:25.09	116.75	32.91	-31.1	-34.0	12.6	9.99e-05	0	43	0	738197504	23	5042
2026-01-27 23:18:26.10	117.10	32.83	-31.1	-34.1	12.5	8.46e-05	0	43	0	740294656	23	5106
2026-01-27 23:18:27.10	117.45	32.75	-31.0	-33.9	12.6	1.20e-04	0	43	0	742391808	23	5004
2026-01-27 23:18:28.10	117.79	32.67	-30.9	-33.6	12.8	8.16e-05	0	43	0	744488960	23	4893
2026-01-27 23:18:29.10	118.14	32.59	-30.7	-33.6	13.1	4.27e-05	0	43	0	746586112	22	5022
2026-01-27 23:18:30.10	118.48	32.51	-30.9	-34.0	12.8	4.04e-05	0	43	0	747634688	22	5168
2026-01-27 23:18:31.11	118.82	32.43	-31.1	-34.6	12.5	9.00e-05	0	43	0	749731840	22	5395
2026-01-27 23:18:32.11	119.16	32.35	-31.4	-35.4	11.9	3.22e-04	0	43	0	751828992	22	5757
2026-01-27 23:18:33.11	119.50	32.26	-31.4	-35.5	11.8	4.56e-04	0	43	0	753926144	22	5805
2026-01-27 23:18:34.11	119.83	32.18	-31.3	-35.2	12.0	3.45e-04	0	43	0	756023296	22	5666
2026-01-27 23:18:35.12	120.17	32.09	-31.2	-34.9	12.2	2.34e-04	0	43	0	757071872	22	5537
2026-01-27 23:18:36.11	120.50	32.01	-31.2	-34.9	12.2	1.64e-04	0	43	0	759169024	22	5521
2026-01-27 23:18:37.11	120.83	31.92	-31.5	-35.3	11.6	3.68e-04	0	43	0	761266176	23	5601
2026-01-27 23:18:38.12	121.16	31.83	-31.9	-36.8	10.5	1.34e-03	0	43	0	763363328	23	6275
2026-01-27 23:18:39.13	121.49	31.74	-32.2	-37.2	9.8	8.35e-03	0	43	0	765460480	24	6433
2026-01-27 23:18:40.13	121.81	31.65	-32.1	-36.9	10.1	1.07e-02	0	43	0	766509056	24	6240
2026-01-27 23:18:41.14	122.14	31.56	-31.5	-34.9	11.4	3.43e-03	0	43	0	768606208	24	5338
2026-01-27 23:18:42.14	122.46	31.47	-31.1	-34.1	12.5	2.01e-04	0	43	0	770703360	23	5087
2026-01-27 23:18:43.14	122.78	31.38	-31.0	-33.9	12.5	9.76e-05	0	43	0	772800512	23	5030
2026-01-27 23:18:44.14	123.10	31.29	-31.3	-34.7	12.0	2.29e-04	0	43	0	774897664	23	5341
2026-01-27 23:18:45.14	123.41	31.19	-31.5	-35.6	11.4	7.20e-04	0	43	0	775946240	23	5730
2026-01-27 23:18:46.15	123.73	31.10	-31.7	-35.9	11.1	1.74e-03	0	43	0	778043392	23	5877
2026-01-27 23:18:47.15	124.04	31.01	-31.4	-35.0	11.8	8.73e-04	0	43	0	780140544	23	5465
2026-01-27 23:18:48.15	124.35	30.91	-31.0	-33.9	12.6	2.62e-04	0	43	0	782237696	23	5018
2026-01-27 23:18:49.16	124.67	30.81	-30.8	-33.3	12.9	5.87e-05	0	43	0	783286272	23	4797
2026-01-27 23:18:50.16	124.97	30.72	-31.1	-34.1	12.3	9.61e-05	0	43	0	785383424	23	5120
2026-01-27 23:18:51.17	125.28	30.62	-31.4	-35.1	11.7	2.98e-04	0	43	0	787480576	23	5496
2026-01-27 23:18:52.17	125.59	30.52	-31.9	-36.9	10.4	3.15e-03	0	43	0	789577728	23	6362
2026-01-27 23:18:53.18	125.89	30.43	-32.0	-36.7	10.1	7.43e-03	0	43	0	791674880	24	6177
2026-01-27 23:18:54.18	126.19	30.33	-31.8	-35.8	10.8	3.76e-03	0	43	0	793772032	24	5723
2026-01-27 23:18:55.18	126.49	30.23	-31.3	-34.5	11.8	6.70e-04	0	43	0	794820608	24	5155
2026-01-27 23:18:56.18	126.78	30.13	-31.3	-34.9	11.8	3.66e-04	0	43	0	796917760	23	5413
2026-01-27 23:18:57.18	127.08	30.03	-31.7	-36.2	10.9	9.83e-04	0	43	0	799014912	23	6008
2026-01-27 23:18:58.19	127.37	29.93	-32.1	-37.1	9.9	4.15e-03	0	43	0	801112064	24	6357
2026-01-27 23:18:59.18	127.66	29.83	-32.4	-38.0	9.1	1.76e-02	0	43	0	802160640	24	6882
2026-01-27 23:19:00.19	127.95	29.73	-32.0	-36.7	10.1	1.71e-02	0	43	0	804257792	24	6158
2026-01-27 23:19:01.19	128.24	29.63	-31.2	-34.5	12.0	1.98e-03	0	43	0	806354944	23	5281
2026-01-27 23:19:02.19	128.53	29.53	-30.5	-33.1	13.3	2.97e-05	0	43	0	808452096	22	4830
2026-01-27 23:19:03.19	128.81	29.42	-30.5	-32.9	13.5	6.10e-06	0	43	0	810549248	22	4756
2026-01-27 23:19:04.20	129.10	29.32	-30.9	-34.0	12.7	3.73e-05	0	43	0	811597824	22	5190
2026-01-27 23:19:05.20	129.38	29.22	-31.3	-35.3	11.9	1.68e-04	0	43	0	813694976	22	5713
2026-01-27 23:19:06.20	129.65	29.11	-31.6	-35.8	11.2	1.26e-03	0	43	0	815792128	23	5817
2026-01-27 23:19:07.21	129.93	29.01	-31.2	-34.4	12.1	7.45e-04	0	43	0	817889280	23	5232
2026-01-27 23:19:08.21	130.21	28.91	-30.8	-33.4	12.9	1.08e-04	0	43	0	819986432	23	4827
2026-01-27 23:19:09.21	130.48	28.80	-30.6	-33.4	13.2	2.97e-05	0	43	0	821035008	22	4931
2026-01-27 23:19:10.22	130.76	28.70	-30.7	-33.5	13.0	2.67e-05	0	43	0	823132160	22	5003
2026-01-27 23:19:11.22	131.03	28.59	-31.2	-35.0	12.0	1.02e-04	0	43	0	825229312	22	5579
2026-01-27 23:19:12.22	131.29	28.49	-31.7	-36.3	10.7	7.90e-04	0	43	0	827326464	23	6108
2026-01-27 23:19:13.22	131.56	28.38	-32.1	-37.0	9.8	8.95e-03	0	43	0	828375040	24	6324
2026-01-27 23:19:14.23	131.83	28.28	-31.7	-35.7	10.8	6.29e-03	0	43	0	830472192	24	5701
2026-01-27 23:19:15.23	132.09	28.17	-31.2	-34.7	11.9	1.22e-03	0	43	0	832569344	23	5346
2026-01-27 23:19:16.23	132.35	28.06	-31.0	-34.0	12.4	1.86e-04	0	43	0	834666496	23	5086
2026-01-27 23:19:17.24	132.61	27.96	-31.1	-34.3	12.1	1.56e-04	0	43	0	836763648	23	5206
2026-01-27 23:19:18.24	132.87	27.85	-31.5	-35.5	11.3	6.43e-04	0	43	0	838860800	23	5689
2026-01-27 23:19:19.24	133.13	27.74	-31.6	-35.9	10.9	1.67e-03	0	43	0	839909376	23	5929
2026-01-27 23:19:20.25	133.39	27.64	-31.7	-36.5	10.5	3.43e-03	0	43	0	842006528	23	6225
2026-01-27 23:19:21.24	133.64	27.53	-31.4	-35.6	11.1	3.28e-03	0	43	0	844103680	23	5796
2026-01-27 23:19:22.24	133.89	27.42	-30.9	-33.9	12.3	7.16e-04	0	43	0	846200832	23	5079
2026-01-27 23:19:23.24	134.14	27.32	-30.5	-33.3	13.0	5.34e-05	0	43	0	847249408	22	4970
2026-01-27 23:19:24.25	134.39	27.21	-30.5	-33.2	13.1	3.12e-05	0	43	0	849346560	22	4923
2026-01-27 23:19:25.25	134.63	27.10	-30.7	-33.8	12.7	4.34e-05	0	43	0	851443712	22	5174
2026-01-27 23:19:26.25	134.88	26.99	-30.9	-35.2	12.0	1.63e-04	0	43	0	853540864	21	5879
2026-01-27 23:19:27.26	135.12	26.88	-31.4	-36.2	11.0	1.50e-03	0	43	0	855638016	22	6239
2026-01-27 23:19:28.26	135.37	26.77	-31.3	-36.0	11.1	1.89e-03	0	43	0	856686592	22	6147
2026-01-27 23:19:29.26	135.61	26.67	-31.2	-35.6	11.4	1.34e-03	0	43	0	858783744	22	5966
2026-01-27 23:19:30.27	135.85	26.56	-30.5	-34.7	11.6	6.63e-04	0	43	0	860880896	22	5804
2026-01-27 23:19:31.27	136.08	26.45	-31.1	-34.9	11.8	7.64e-04	0	43	0	862978048	22	5627
2026-01-27 23:19:32.28	136.32	26.34	-30.8	-34.2	12.4	2.27e-04	0	43	0	865075200	22	5304
2026-01-27 23:19:33.29	136.56	26.23	-31.0	-34.8	12.0	2.33e-04	0	43	0	866123776	22	5533
2026-01-27 23:19:34.29	136.79	26.12	-31.3	-35.7	11.4	6.97e-04	0	43	0	868220928	22	5937
2026-01-27 23:19:35.30	137.02	26.01	-31.4	-35.9	11.2	1.12e-03	0	43	0	870318080	22	6057
2026-01-27 23:19:36.30	137.25	25.90	-31.3	-35.6	11.3	1.45e-03	0	43	0	872415232	22	5925
2026-01-27 23:19:37.31	137.48	25.79	-30.9	-34.5	12.2	4.55e-04	0	43	0	874512384	22	5413
2026-01-27 23:19:38.31	137.70	25.69	-30.5	-33.4	12.9	1.16e-04	0	43	0	875560960	22	5021
2026-01-27 23:19:39.31	137.93	25.58	-30.3	-32.9	13.2	3.20e-05	0	43	0	877658112	22	4822
2026-01-27 23:19:40.32	138.15	25.47	-30.4	-33.5	13.1	1.87e-04	0	43	0	879755264	21	5154
2026-01-27 23:19:41.32	138.38	25.36	-30.5	-33.8	12.9	4.34e-05	0	43	0	881852416	21	5275
2026-01-27 23:19:42.33	138.60	25.25	-30.8	-34.5	12.5	4.27e-05	0	43	0	883949568	21	5546
2026-01-27 23:19:43.33	138.82	25.14	-31.0	-34.6	12.1	9.08e-04	0	43	0	884998144	22	5477
2026-01-27 23:19:44.33	139.03	25.03	-30.7	-33.7	12.7	1.25e-04	0	43	0	887095296	22	5084
2026-01-27 23:19:45.34	139.25	24.92	-30.2	-32.8	13.6	3.12e-05	0	43	0	889192448	21	4855
2026-01-27 23:19:46.34	139.46	24.81	-29.6	-32.3	14.7	5.58e-04	0	43	0	891289600	19	4882
2026-01-27 23:19:47.34	139.68	24.71	-29.2	-31.1	15.3	0.00e+00	0	43	0	893386752	19	4502
2026-01-27 23:19:48.35	139.89	24.60	-28.9	-30.9	15.8	7.00e-07	0	43	0	894435328	18	4538
2026-01-27 23:19:49.35	140.10	24.49	-28.9	-30.9	15.8	0.00e+00	0	43	0	896532480	18	4550
2026-01-27 23:19:50.36	140.31	24.38	-29.1	-31.6	15.3	0.00e+00	0	42	0	898629632	18	4779
2026-01-27 23:19:51.36	140.52	24.27	-29.4	-32.2	15.0	1.17e-04	0	43	0	900726784	18	4985
2026-01-27 23:19:52.36	140.72	24.16	-29.5	-32.0	14.8	0.00e+00	0	43	0	902823936	19	4804
2026-01-27 23:19:53.36	140.93	24.05	-29.5	-32.0	14.7	0.00e+00	0	43	0	903872512	19	4823
2026-01-27 23:19:54.37	141.13	23.94	-29.2	-31.8	15.2	1.76e-03	0	43	0	905969664	18	4851
2026-01-27 23:19:55.37	141.33	23.84	-28.9	-31.1	15.6	0.00e+00	0	43	0	908066816	18	4622
2026-01-27 23:19:56.37	141.53	23.73	-28.7	-30.5	16.0	0.00e+00	0	43	0	910163968	18	4434
2026-01-27 23:19:57.37	141.73	23.62	-28.7	-30.9	16.0	1.88e-03	0	43	0	911212544	17	4673
2026-01-27 23:19:58.37	141.93	23.51	-28.6	-30.8	16.0	2.03e-03	0	43	0	913309696	17	4642
2026-01-27 23:19:59.37	142.13	23.41	-28.8	-31.2	15.8	0.00e+00	0	43	0	915406848	17	4748
2026-01-27 23:20:00.38	142.32	23.30	-28.9	-31.6	15.5	1.87e-03	0	43	0	917504000	17	4903
2026-01-27 23:20:01.37	142.51	23.19	-29.1	-31.5	15.4	1.79e-03	0	43	0	919601152	18	4736
2026-01-27 23:20:02.37	142.71	23.08	-29.2	-31.9	15.1	0.00e+00	0	43	0	920649728	18	4876
2026-01-27 23:20:03.36	142.89	22.98	-29.1	-31.6	15.3	1.74e-03	0	43	0	922746880	18	4781
2026-01-27 23:20:04.37	143.09	22.87	-29.3	-32.0	15.0	1.69e-03	0	43	0	924844032	18	4919
2026-01-27 23:20:05.38	143.28	22.76	-29.3	-32.2	14.9	0.00e+00	0	43	0	926941184	18	4987
2026-01-27 23:20:06.38	143.46	22.66	-29.3	-32.1	14.9	4.50e-06	0	43	0	929038336	18	4950
2026-01-27 23:20:07.38	143.65	22.55	-29.5	-32.5	14.7	1.93e-03	0	43	0	930086912	18	5080
2026-01-27 23:20:08.39	143.84	22.44	-29.5	-32.2	14.5	0.00e+00	0	43	0	932184064	19	4876
2026-01-27 23:20:09.39	144.02	22.33	-29.5	-32.5	14.6	1.85e-03	0	43	0	934281216	18	5098
2026-01-27 23:20:10.39	144.20	22.23	-29.7	-32.6	14.3	1.69e-03	0	43	0	936378368	19	5043
2026-01-27 23:20:11.39	144.38	22.12	-29.9	-33.2	13.8	3.00e-06	0	43	0	938475520	19	5267
2026-01-27 23:20:12.39	144.56	22.02	-30.0	-33.0	13.6	1.68e-03	0	43	0	939524096	20	5084
2026-01-27 23:20:13.40	144.74	21.91	-30.3	-33.9	12.9	1.69e-03	0	43	0	941621248	20	5446
2026-01-27 23:20:14.39	144.92	21.81	-30.3	-33.9	13.0	6.86e-05	0	43	0	943718400	20	5432
2026-01-27 23:20:15.39	145.09	21.70	-29.9	-32.7	13.7	1.83e-03	0	43	0	945815552	20	4993
2026-01-27 23:20:16.40	145.27	21.59	-29.6	-32.4	14.3	2.08e-03	0	43	0	947912704	19	4972
2026-01-27 23:20:17.40	145.44	21.49	-29.3	-31.6	14.8	7.00e-07	0	43	0	948961280	19	4705
2026-01-27 23:20:18.41	145.62	21.38	-29.2	-31.7	15.1	2.21e-03	0	43	0	951058432	18	4835
2026-01-27 23:20:19.41	145.79	21.28	-29.2	-31.9	15.0	2.08e-03	0	43	0	953155584	18	4895
2026-01-27 23:20:20.42	145.96	21.17	-29.2	-31.9	15.0	0.00e+00	0	43	0	955252736	18	4877
2026-01-27 23:20:21.43	146.13	21.07	-29.1	-31.6	15.2	2.14e-03	0	43	0	957349888	18	4795
2026-01-27 23:20:22.43	146.30	20.96	-29.3	-32.1	14.8	1.93e-03	0	43	0	958398464	18	4959
2026-01-27 23:20:23.43	146.47	20.86	-29.3	-32.0	14.9	0.00e+00	0	43	0	960495616	18	4942
2026-01-27 23:20:24.43	146.64	20.76	-29.2	-31.7	15.1	1.93e-03	0	43	0	962592768	18	4841
2026-01-27 23:20:25.44	146.80	20.65	-29.1	-31.7	15.1	2.19e-03	0	43	0	964689920	18	4814
2026-01-27 23:20:26.45	146.97	20.55	-29.1	-31.6	15.1	0.00e+00	0	43	0	965738496	18	4784
2026-01-27 23:20:27.45	147.13	20.44	-29.2	-31.9	14.9	0.00e+00	0	43	0	967835648	18	4907
2026-01-27 23:20:28.44	147.29	20.34	-29.2	-31.8	14.9	2.13e-03	0	43	0	969932800	18	4856
2026-01-27 23:20:29.44	147.45	20.24	-29.2	-31.9	14.9	0.00e+00	0	43	0	972029952	18	4905
2026-01-27 23:20:30.45	147.61	20.14	-29.4	-32.3	14.6	7.00e-07	0	43	0	974127104	18	5045
2026-01-27 23:20:31.45	147.77	20.03	-29.5	-32.6	14.4	0.00e+00	0	43	0	975175680	18	5153
2026-01-27 23:20:32.45	147.93	19.93	-29.8	-32.8	13.9	3.80e-06	0	43	0	977272832	19	5131
2026-01-27 23:20:33.45	148.09	19.83	-29.9	-33.1	13.7	2.02e-03	0	43	0	979369984	19	5235
2026-01-27 23:20:34.45	148.24	19.73	-29.7	-32.6	14.1	1.50e-06	0	43	0	981467136	19	5053
2026-01-27 23:20:35.45	148.40	19.63	-29.6	-32.5	14.2	2.20e-06	0	43	0	983564288	19	5003
2026-01-27 23:20:36.46	148.55	19.52	-29.4	-32.0	14.5	2.24e-03	0	43	0	984612864	19	4815
2026-01-27 23:20:37.47	148.71	19.42	-29.5	-32.5	14.5	0.00e+00	0	43	0	986710016	18	5116
2026-01-27 23:20:38.47	148.86	19.32	-29.4	-32.3	14.6	7.00e-07	0	43	0	988807168	18	5049
2026-01-27 23:20:39.48	149.01	19.22	-29.3	-32.1	14.7	2.10e-03	0	43	0	990904320	18	4969
2026-01-27 23:20:40.48	149.16	19.12	-29.4	-32.3	14.6	7.00e-07	0	43	0	993001472	18	5034
2026-01-27 23:20:41.49	149.31	19.02	-29.6	-32.3	14.3	7.00e-07	0	43	0	994050048	19	4929
2026-01-27 23:20:42.50	149.46	18.92	-29.8	-32.9	13.9	0.00e+00	0	43	0	996147200	19	5156
2026-01-27 23:20:43.50	149.61	18.82	-30.0	-33.5	13.5	2.27e-03	0	43	0	998244352	19	5376
2026-01-27 23:20:44.51	149.75	18.72	-30.1	-33.3	13.2	1.52e-05	0	43	0	1000341504	20	5225
2026-01-27 23:20:45.51	149.90	18.62	-30.1	-33.5	13.0	3.05e-05	0	43	0	1002438656	20	5286
2026-01-27 23:20:46.51	150.04	18.52	-30.1	-33.5	13.1	2.37e-03	0	43	0	1003487232	20	5287
2026-01-27 23:20:47.51	150.18	18.42	-30.1	-33.4	13.1	3.28e-05	0	43	0	1005584384	20	5264
2026-01-27 23:20:48.51	150.33	18.32	-30.0	-33.2	13.2	2.21e-05	0	43	0	1007681536	20	5174
2026-01-27 23:20:49.52	150.47	18.22	-30.1	-33.4	13.1	3.05e-05	0	43	0	1009778688	20	5263
2026-01-27 23:20:50.52	150.61	18.12	-30.1	-33.3	13.0	2.33e-04	0	43	0	1010827264	20	5250
2026-01-27 23:20:51.52	150.75	18.03	-29.9	-33.0	13.3	2.05e-05	0	43	0	1012924416	20	5114
2026-01-27 23:20:52.53	150.89	17.93	-30.0	-33.2	13.1	1.14e-05	0	43	0	1015021568	20	5202
2026-01-27 23:20:53.53	151.03	17.83	-30.2	-33.7	12.8	5.26e-05	0	43	0	1017118720	20	5411
2026-01-27 23:20:54.54	151.17	17.73	-30.3	-34.1	12.5	8.77e-05	0	43	0	1019215872	20	5575
2026-01-27 23:20:55.54	151.30	17.63	-30.6	-34.3	12.0	2.19e-04	0	43	0	1021313024	21	5530
2026-01-27 23:20:56.55	151.44	17.54	-30.6	-34.4	11.9	3.71e-04	0	43	0	1022361600	21	5593
2026-01-27 23:20:57.55	151.57	17.44	-30.7	-34.8	11.7	5.28e-04	0	43	0	1024458752	21	5740
2026-01-27 23:20:58.56	151.71	17.34	-30.7	-34.7	11.7	6.00e-04	0	43	0	1026555904	21	5728
2026-01-27 23:20:59.56	151.84	17.25	-30.7	-34.6	11.7	4.34e-04	0	43	0	1028653056	21	5690
2026-01-27 23:21:00.57	151.97	17.15	-30.7	-34.9	11.5	5.42e-04	0	43	0	1029701632	21	5805
2026-01-27 23:21:01.57	152.11	17.05	-30.5	-34.3	11.9	6.53e-04	0	43	0	1031798784	21	5567
2026-01-27 23:21:02.57	152.24	16.96	-30.2	-33.4	12.6	1.74e-04	0	43	0	1033895936	21	5184
2026-01-27 23:21:03.57	152.37	16.86	-30.1	-33.4	12.9	6.63e-05	0	43	0	1035993088	20	5299
2026-01-27 23:21:04.57	152.49	16.77	-29.9	-32.9	13.3	2.51e-05	0	43	0	1038090240	20	5091
2026-01-27 23:21:05.58	152.62	16.67	-29.9	-33.0	13.2	2.82e-05	0	43	0	1039138816	20	5135
2026-01-27 23:21:06.58	152.75	16.58	-29.9	-33.1	13.1	2.82e-05	0	43	0	1041235968	20	5173
2026-01-27 23:21:07.58	152.88	16.48	-30.0	-33.3	12.9	3.05e-05	0	43	0	1043333120	20	5261
2026-01-27 23:21:08.58	153.00	16.39	-30.1	-33.6	12.7	6.63e-05	0	43	0	1045430272	20	5364
2026-01-27 23:21:09.59	153.13	16.30	-30.2	-33.8	12.6	7.70e-05	0	43	0	1047527424	20	5449
2026-01-27 23:21:10.59	153.25	16.20	-30.1	-33.7	12.7	1.17e-04	0	43	0	1048576000	20	5428
2026-01-27 23:21:11.60	153.38	16.11	-29.4	-33.0	12.6	1.04e-04	0	43	0	1050673152	20	5498
2026-01-27 23:21:12.61	153.50	16.01	-29.0	-33.1	12.6	1.01e-04	0	43	0	1052770304	19	5716
2026-01-27 23:21:13.61	153.62	15.92	-30.1	-33.7	12.4	1.07e-04	0	43	0	1054867456	20	5479
2026-01-27 23:21:14.62	153.75	15.83	-30.0	-33.6	11.6	8.62e-05	0	43	0	1056964608	20	5416
2026-01-27 23:21:15.62	153.87	15.74	-30.0	-33.4	11.9	4.57e-05	0	43	0	1058013184	20	5341
2026-01-27 23:21:16.61	153.99	15.64	-30.0	-33.4	12.8	5.56e-05	0	43	0	1060110336	20	5313
2026-01-27 23:21:17.62	154.11	15.55	-29.9	-33.6	12.9	6.86e-05	0	43	0	1062207488	19	5514
2026-01-27 23:21:18.63	154.23	15.46	-29.7	-33.1	13.3	2.21e-05	0	43	0	1064304640	19	5312
2026-01-27 23:21:19.62	154.34	15.37	-29.8	-33.2	13.3	1.37e-05	0	43	0	1066401792	19	5364
2026-01-27 23:21:20.62	154.46	15.28	-29.8	-33.2	13.3	1.98e-05	0	43	0	1067450368	19	5354
2026-01-27 23:21:21.63	154.58	15.19	-29.9	-33.6	13.0	2.30e-03	0	43	0	1069547520	19	5519
2026-01-27 23:21:22.63	154.69	15.09	-29.9	-33.1	12.9	5.41e-05	0	43	0	1071644672	20	5193
2026-01-27 23:21:23.63	154.81	15.00	-30.0	-33.7	13.0	3.66e-05	0	43	0	1073741824	19	5498
2026-01-27 23:21:24.64	154.92	14.91	-30.1	-33.4	12.8	2.18e-03	0	43	0	1075838976	20	5291
2026-01-27 23:21:25.64	155.04	14.82	-30.2	-33.7	12.6	8.39e-05	0	43	0	1076887552	20	5419
2026-01-27 23:21:26.64	155.15	14.73	-30.2	-33.8	12.6	9.30e-05	0	43	0	1078984704	20	5436
2026-01-27 23:21:27.64	155.26	14.64	-30.4	-34.3	12.2	1.14e-04	0	43	0	1081081856	20	5663
2026-01-27 23:21:28.65	155.37	14.55	-30.3	-34.0	12.4	4.04e-04	0	43	0	1083179008	20	5544
2026-01-27 23:21:29.65	155.49	14.46	-30.3	-34.1	12.4	1.43e-04	0	43	0	1084227584	20	5550
2026-01-27 23:21:30.66	155.60	14.37	-30.4	-34.5	12.1	1.40e-04	0	43	0	1086324736	20	5723
2026-01-27 23:21:31.66	155.71	14.29	-30.3	-34.1	12.4	3.63e-04	0	43	0	1088421888	20	5558
2026-01-27 23:21:32.66	155.82	14.20	-30.2	-33.9	12.5	1.01e-03	0	43	0	1090519040	20	5474
2026-01-27 23:21:33.66	155.92	14.11	-30.2	-33.7	12.6	7.55e-05	0	43	0	1092616192	20	5388
2026-01-27 23:21:34.66	156.03	14.02	-30.2	-33.7	12.6	6.25e-05	0	43	0	1093664768	20	5399
2026-01-27 23:21:35.67	156.14	13.93	-30.1	-33.6	12.7	2.18e-03	0	43	0	1095761920	20	5355
2026-01-27 23:21:36.67	156.25	13.85	-30.0	-33.1	13.0	6.63e-05	0	43	0	1097859072	20	5183
2026-01-27 23:21:37.67	156.35	13.76	-29.9	-33.0	13.0	3.20e-05	0	43	0	1099956224	20	5151
2026-01-27 23:21:38.68	156.46	13.67	-29.9	-33.6	13.1	2.28e-03	0	43	0	1102053376	19	5478
2026-01-27 23:21:39.68	156.56	13.58	-29.8	-33.4	13.2	2.19e-03	0	43	0	1103101952	19	5401
2026-01-27 23:21:40.68	156.67	13.50	-29.8	-33.4	13.1	2.36e-05	0	43	0	1105199104	19	5441
2026-01-27 23:21:41.68	156.77	13.41	-29.8	-33.4	13.1	2.23e-03	0	43	0	1107296256	19	5444
2026-01-27 23:21:42.69	156.88	13.32	-29.9	-33.7	12.9	1.99e-03	0	43	0	1109393408	19	5549
2026-01-27 23:21:43.69	156.98	13.24	-29.9	-33.8	12.8	5.49e-05	0	43	0	1111490560	19	5591
2026-01-27 23:21:44.70	157.08	13.15	-30.0	-33.9	12.7	7.01e-05	0	43	0	1112539136	19	5659
2026-01-27 23:21:45.70	157.18	13.07	-30.0	-33.5	12.6	2.38e-03	0	43	0	1114636288	20	5384
2026-01-27 23:21:46.70	157.28	12.98	-30.1	-33.8	12.4	1.33e-04	0	43	0	1116733440	20	5518
2026-01-27 23:21:47.70	157.38	12.89	-30.1	-33.9	12.3	1.72e-04	0	43	0	1118830592	20	5566
2026-01-27 23:21:48.70	157.48	12.81	-30.2	-34.0	12.2	2.46e-03	0	43	0	1120927744	20	5591
2026-01-27 23:21:49.69	157.58	12.73	-30.2	-34.2	12.1	2.58e-04	0	43	0	1121976320	20	5672
2026-01-27 23:21:50.70	157.68	12.64	-30.2	-34.2	12.1	2.53e-03	0	43	0	1124073472	20	5686
2026-01-27 23:21:51.69	157.78	12.56	-30.2	-34.1	12.1	3.08e-04	0	43	0	1126170624	20	5655
2026-01-27 23:21:52.70	157.88	12.47	-30.2	-34.2	12.1	2.68e-04	0	43	0	1128267776	20	5660
2026-01-27 23:21:53.70	157.97	12.39	-30.3	-34.3	12.0	2.36e-03	0	43	0	1129316352	20	5718
2026-01-27 23:21:54.70	158.07	12.31	-30.3	-34.3	12.0	3.69e-04	0	43	0	1131413504	20	5712
2026-01-27 23:21:55.70	158.17	12.22	-30.2	-34.1	12.1	2.33e-04	0	43	0	1133510656	20	5631
2026-01-27 23:21:56.71	158.26	12.14	-30.4	-34.5	11.9	2.59e-03	0	43	0	1135607808	20	5790
2026-01-27 23:21:57.70	158.36	12.06	-30.2	-34.1	12.1	2.62e-03	0	43	0	1137704960	20	5628
2026-01-27 23:21:58.71	158.45	11.97	-30.2	-33.9	12.3	2.22e-04	0	43	0	1138753536	20	5533
2026-01-27 23:21:59.71	158.55	11.89	-30.2	-33.8	12.4	2.34e-03	0	43	0	1140850688	20	5491
2026-01-27 23:22:00.70	158.64	11.81	-30.2	-33.9	12.3	2.18e-03	0	43	0	1142947840	20	5528
2026-01-27 23:22:01.71	158.73	11.73	-30.2	-33.9	12.3	1.80e-04	0	43	0	1145044992	20	5530
2026-01-27 23:22:02.71	158.82	11.64	-30.2	-34.1	12.2	2.26e-03	0	43	0	1147142144	20	5593
2026-01-27 23:22:03.72	158.92	11.56	-30.1	-33.7	12.4	2.35e-03	0	43	0	1148190720	20	5445
2026-01-27 23:22:04.72	159.01	11.48	-30.1	-33.7	12.5	1.50e-04	0	43	0	1150287872	20	5426
2026-01-27 23:22:05.73	159.10	11.40	-30.1	-33.6	12.5	2.24e-03	0	43	0	1152385024	20	5419
2026-01-27 23:22:06.73	159.19	11.32	-30.2	-34.0	12.2	2.30e-03	0	43	0	1154482176	20	5593
2026-01-27 23:22:07.74	159.28	11.24	-30.2	-33.9	12.3	2.53e-04	0	43	0	1156579328	20	5550
2026-01-27 23:22:08.74	159.37	11.16	-30.1	-33.8	12.3	1.87e-04	0	43	0	1157627904	20	5524
2026-01-27 23:22:09.74	159.46	11.07	-30.1	-33.9	12.2	2.30e-03	0	43	0	1159725056	20	5579
2026-01-27 23:22:10.74	159.55	10.99	-30.1	-33.9	12.1	2.45e-04	0	43	0	1161822208	20	5606
2026-01-27 23:22:11.75	159.64	10.91	-30.1	-33.9	12.1	2.23e-03	0	43	0	1163919360	20	5596
2026-01-27 23:22:12.75	159.73	10.83	-30.2	-34.4	11.8	6.68e-04	0	43	0	1166016512	20	5812
2026-01-27 23:22:13.76	159.81	10.75	-30.2	-34.2	11.9	4.91e-04	0	43	0	1167065088	20	5745
2026-01-27 23:22:14.76	159.90	10.67	-30.1	-33.9	12.0	2.80e-03	0	43	0	1169162240	20	5632
2026-01-27 23:22:15.76	159.99	10.60	-30.2	-34.2	11.9	3.76e-04	0	43	0	1171259392	20	5748
2026-01-27 23:22:16.77	160.07	10.52	-30.1	-34.1	12.0	3.63e-04	0	43	0	1173356544	20	5688
2026-01-27 23:22:17.78	160.16	10.44	-30.1	-34.1	12.0	2.65e-03	0	43	0	1175453696	20	5676
2026-01-27 23:22:18.78	160.24	10.36	-30.2	-34.4	11.8	4.48e-04	0	43	0	1176502272	20	5788
2026-01-27 23:22:19.79	160.33	10.28	-30.3	-34.4	11.7	5.55e-04	0	43	0	1178599424	20	5813
2026-01-27 23:22:20.79	160.41	10.20	-30.3	-34.6	11.6	2.89e-03	0	43	0	1180696576	20	5875
2026-01-27 23:22:21.80	160.50	10.12	-30.3	-34.6	11.6	3.19e-03	0	43	0	1182793728	20	5898
2026-01-27 23:22:22.80	160.58	10.04	-30.4	-34.8	11.4	8.33e-04	0	43	0	1184890880	20	6001
2026-01-27 23:22:23.80	160.66	9.97	-30.4	-34.7	11.5	3.31e-03	0	43	0	1185939456	20	5959
2026-01-27 23:22:24.81	160.75	9.89	-30.3	-34.8	11.4	3.28e-03	0	43	0	1188036608	20	5982
2026-01-27 23:22:25.81	160.83	9.81	-30.4	-34.9	11.3	1.04e-03	0	43	0	1190133760	20	6046
2026-01-27 23:22:26.81	160.91	9.73	-30.5	-35.0	10.8	1.95e-03	0	43	0	1192230912	21	6022
2026-01-27 23:22:27.81	160.99	9.66	-30.4	-35.1	11.1	4.43e-03	0	43	0	1193279488	20	6181
2026-01-27 23:22:28.81	161.07	9.58	-30.4	-35.4	10.8	1.85e-03	0	43	0	1195376640	20	6382
2026-01-27 23:22:29.81	161.15	9.50	-30.4	-35.5	10.7	3.44e-03	0	43	0	1197473792	20	6465
2026-01-27 23:22:30.82	161.23	9.43	-30.5	-35.6	10.6	3.00e-03	0	43	0	1199570944	20	6505
2026-01-27 23:22:31.82	161.31	9.35	-30.6	-35.3	10.5	3.38e-03	0	43	0	1201668096	21	6248
2026-01-27 23:22:32.83	161.39	9.27	-30.6	-35.7	10.1	5.82e-03	0	43	0	1202716672	21	6481
2026-01-27 23:22:33.83	161.47	9.20	-30.6	-35.5	10.3	5.67e-03	0	43	0	1204813824	21	6343
2026-01-27 23:22:34.83	161.55	9.12	-30.6	-35.4	10.4	5.12e-03	0	43	0	1206910976	21	6300
2026-01-27 23:22:35.84	161.63	9.05	-30.7	-35.6	10.2	5.19e-03	0	43	0	1209008128	21	6376
2026-01-27 23:22:36.84	161.71	8.97	-30.8	-36.1	9.9	6.82e-03	0	43	0	1211105280	21	6619
2026-01-27 23:22:37.84	161.78	8.90	-30.7	-35.8	10.2	7.51e-03	0	43	0	1212153856	21	6422
2026-01-27 23:22:38.85	161.86	8.82	-30.7	-35.6	10.3	8.19e-03	0	43	0	1214251008	21	6329
2026-01-27 23:22:39.85	161.94	8.75	-30.8	-35.9	10.1	5.72e-03	0	43	0	1216348160	21	6443
2026-01-27 23:22:40.85	162.01	8.67	-30.8	-35.9	10.2	6.23e-03	0	43	0	1218445312	21	6420
2026-01-27 23:22:41.85	162.09	8.60	-30.8	-35.8	10.2	8.84e-03	0	43	0	1220542464	21	6371
2026-01-27 23:22:42.86	162.17	8.52	-30.9	-36.1	10.0	7.40e-03	0	43	0	1221591040	21	6517
2026-01-27 23:22:43.86	162.24	8.45	-30.8	-35.8	10.2	7.36e-03	0	43	0	1223688192	21	6377
2026-01-27 23:22:44.87	162.32	8.37	-30.8	-35.8	10.2	6.18e-03	0	43	0	1225785344	21	6391
2026-01-27 23:22:45.86	162.39	8.30	-30.8	-35.8	10.1	8.77e-03	0	43	0	1227882496	21	6407
2026-01-27 23:22:46.87	162.46	8.23	-30.9	-36.2	9.9	7.66e-03	0	43	0	1229979648	21	6605
2026-01-27 23:22:47.87	162.54	8.15	-30.9	-36.2	9.8	9.20e-03	0	43	0	1231028224	21	6650
2026-01-27 23:22:48.87	162.61	8.08	-30.9	-36.3	9.7	9.93e-03	0	43	0	1233125376	21	6693
2026-01-27 23:22:49.87	162.68	8.01	-31.0	-36.5	9.6	1.15e-02	0	43	0	1235222528	21	6782
2026-01-27 23:22:50.88	162.76	7.94	-30.8	-36.1	9.8	1.18e-02	0	43	0	1237319680	21	6614
2026-01-27 23:22:51.88	162.83	7.86	-30.8	-36.0	9.9	9.61e-03	0	43	0	1239416832	21	6555
2026-01-27 23:22:52.89	162.90	7.79	-30.9	-36.2	9.7	9.86e-03	0	43	0	1240465408	21	6680
2026-01-27 23:22:53.88	162.97	7.72	-30.8	-36.2	9.7	1.06e-02	0	43	0	1242562560	21	6697
2026-01-27 23:22:54.89	163.04	7.65	-30.9	-36.4	9.5	1.17e-02	0	43	0	1244659712	21	6802
2026-01-27 23:22:55.89	163.11	7.57	-30.8	-36.3	9.5	1.29e-02	0	43	0	1246756864	21	6758
2026-01-27 23:22:56.89	163.18	7.50	-30.7	-35.9	9.8	1.12e-02	0	43	0	1248854016	21	6559
2026-01-27 23:22:57.89	163.26	7.43	-30.6	-35.8	9.9	9.11e-03	0	43	0	1249902592	21	6514
2026-01-27 23:22:58.89	163.32	7.36	-30.8	-36.2	9.5	1.22e-02	0	43	0	1251999744	21	6770
2026-01-27 23:22:59.89	163.39	7.29	-30.7	-36.1	9.6	1.37e-02	0	43	0	1254096896	21	6680
2026-01-27 23:23:00.90	163.46	7.22	-30.7	-36.0	9.6	1.20e-02	0	43	0	1256194048	21	6650
2026-01-27 23:23:01.90	163.53	7.15	-30.7	-36.0	9.7	1.24e-02	0	43	0	1257242624	21	6628
2026-01-27 23:23:02.90	163.60	7.08	-32.7	-46.9	3.8	7.89e-01	0	43	104	1258291200	25	18526
2026-01-27 23:23:03.90	163.67	7.00	-33.0	-47.1	3.9	1.49e+00	0	43	104	1258291200	26	18360
2026-01-27 23:23:04.91	163.74	6.93	-33.7	-48.1	3.8	1.49e+00	0	43	104	1258291200	27	18879

#Closed at: 2026-01-27 23:23:05
#Recorded file [1258 MB]: D:/data/31010_260128_021150.dat