passes_logs/2026/01/27/R2M6_AANII_01/R2M6_AANII_01__20260127_112846_AQUA_rec.log

#Pass ID: 20260127_112846_AQUA
#Satellite: AQUA
#Configuration: AQUA
#almurnet v.1.7.20240730
#Start time: 2026-01-27 11:28:48

#Version: 2.2.20231116
#Station: R2M6_AANII_01
#Location: 30.233357 lon 59.946436 lat
#TLE: 1 27424U 02022A   26026.85810808  .00001813  00000+0  37258-3 0  9999
#TLE: 2 27424  98.4101 353.4861 0001866  64.3332 317.5249 14.61864179262622

#Time	Az	El	Level	Level2	SNR	BER	BlckErr	Temp	State	Recorded	gain1	gain2
2026-01-27 11:28:48.02	140.46	7.10	-32.1	-39.8	4.9	7.15e-01	0	41	0	0	26	8737
2026-01-27 11:28:49.02	140.42	7.18	-32.1	-39.9	4.9	7.10e-01	0	41	104	0	26	8821
2026-01-27 11:28:50.02	140.39	7.26	-32.2	-39.5	11.4	6.17e-01	0	41	0	0	26	8391
2026-01-27 11:28:51.02	140.35	7.34	-32.2	-39.8	11.2	6.17e-01	0	42	0	1572864	26	8637
2026-01-27 11:28:52.02	140.31	7.42	-32.1	-39.0	11.9	6.10e-01	0	41	0	3670016	26	7980
2026-01-27 11:28:53.03	140.27	7.50	-32.0	-38.5	12.4	6.10e-01	0	41	0	5242880	26	7592
2026-01-27 11:28:54.03	140.23	7.58	-32.0	-38.2	12.7	6.11e-01	0	42	0	7340032	26	7393
2026-01-27 11:28:55.04	140.19	7.67	-31.9	-37.9	13.0	6.09e-01	0	42	0	9437184	26	7119
2026-01-27 11:28:56.04	140.15	7.75	-31.9	-37.6	13.3	6.07e-01	0	41	0	11010048	26	6961
2026-01-27 11:28:57.05	140.11	7.83	-32.0	-37.8	13.1	6.10e-01	0	42	0	13107200	26	7064
2026-01-27 11:28:58.05	140.07	7.92	-31.8	-37.7	13.5	6.08e-01	0	42	0	14680064	25	7077
2026-01-27 11:28:59.05	140.03	8.00	-31.7	-37.0	14.2	6.07e-01	0	42	0	16777216	25	6651
2026-01-27 11:29:00.05	139.99	8.09	-31.4	-36.1	14.8	6.07e-01	0	42	0	18350080	25	6178
2026-01-27 11:29:01.06	139.95	8.17	-31.2	-35.8	15.5	6.07e-01	0	42	0	20447232	24	6090
2026-01-27 11:29:02.06	139.91	8.26	-30.9	-34.8	16.2	6.10e-01	0	42	0	22544384	24	5637
2026-01-27 11:29:03.07	139.86	8.34	-30.6	-34.4	16.8	6.06e-01	0	42	0	24117248	23	5558
2026-01-27 11:29:04.07	139.82	8.43	-30.4	-33.8	17.2	6.06e-01	0	42	0	26214400	23	5331
2026-01-27 11:29:05.08	139.78	8.51	-30.4	-34.0	17.1	6.07e-01	0	42	0	28311552	23	5396
2026-01-27 11:29:06.08	139.74	8.60	-30.4	-34.3	17.2	6.07e-01	0	42	0	29884416	22	5644
2026-01-27 11:29:07.08	139.70	8.68	-30.3	-34.2	17.2	6.07e-01	0	42	0	31981568	22	5658
2026-01-27 11:29:08.08	139.65	8.77	-30.3	-34.1	17.3	6.06e-01	0	42	0	33554432	22	5589
2026-01-27 11:29:09.09	139.61	8.86	-30.2	-34.0	17.4	6.08e-01	0	42	0	35651584	22	5546
2026-01-27 11:29:10.09	139.57	8.95	-30.3	-34.0	17.4	6.07e-01	0	42	0	37224448	22	5550
2026-01-27 11:29:11.09	139.52	9.03	-30.3	-34.2	17.2	6.07e-01	0	42	0	39321600	22	5623
2026-01-27 11:29:12.09	139.48	9.12	-30.2	-34.0	17.4	6.06e-01	0	42	0	41418752	22	5531
2026-01-27 11:29:13.10	139.43	9.21	-30.1	-33.6	17.7	6.07e-01	0	42	0	42991616	22	5395
2026-01-27 11:29:14.10	139.39	9.30	-30.2	-33.9	17.4	6.04e-01	0	42	0	45088768	22	5522
2026-01-27 11:29:15.11	139.34	9.39	-30.3	-34.3	17.1	6.05e-01	0	42	0	46661632	22	5692
2026-01-27 11:29:16.10	139.30	9.48	-30.2	-33.8	17.5	6.07e-01	0	42	0	48758784	22	5466
2026-01-27 11:29:17.10	139.25	9.57	-30.1	-33.5	17.8	6.05e-01	0	42	0	50331648	22	5309
2026-01-27 11:29:18.11	139.20	9.66	-30.1	-33.5	17.8	6.05e-01	0	42	0	52428800	22	5313
2026-01-27 11:29:19.11	139.16	9.75	-30.1	-33.4	17.8	6.07e-01	0	42	0	54525952	22	5286
2026-01-27 11:29:20.12	139.11	9.84	-30.1	-33.4	17.9	6.06e-01	0	42	0	56098816	22	5253
2026-01-27 11:29:21.13	139.06	9.93	-30.1	-33.5	17.8	6.07e-01	0	42	0	58195968	22	5305
2026-01-27 11:29:22.12	139.02	10.02	-30.2	-33.7	17.7	6.05e-01	0	42	0	59768832	22	5372
2026-01-27 11:29:23.13	138.97	10.11	-30.2	-33.5	17.9	6.05e-01	0	42	0	61865984	22	5277
2026-01-27 11:29:24.13	138.92	10.20	-30.1	-33.3	18.1	6.04e-01	0	42	0	63963136	22	5195
2026-01-27 11:29:25.14	138.87	10.30	-30.1	-33.3	18.0	6.05e-01	0	42	0	65536000	22	5198
2026-01-27 11:29:26.14	138.82	10.39	-30.1	-33.2	18.1	6.06e-01	0	42	0	67633152	22	5163
2026-01-27 11:29:27.15	138.77	10.48	-30.1	-33.2	18.1	6.07e-01	0	42	0	69206016	22	5153
2026-01-27 11:29:28.15	138.72	10.58	-30.1	-33.2	18.1	6.07e-01	0	42	0	71303168	22	5184
2026-01-27 11:29:29.15	138.67	10.67	-30.0	-32.9	18.3	6.08e-01	0	42	0	73400320	22	5045
2026-01-27 11:29:30.16	138.62	10.76	-30.0	-33.1	18.2	6.05e-01	0	43	0	74973184	22	5116
2026-01-27 11:29:31.15	138.57	10.86	-30.0	-33.1	18.2	6.05e-01	0	42	0	77070336	22	5139
2026-01-27 11:29:32.16	138.52	10.95	-30.0	-33.0	18.2	6.07e-01	0	42	0	78643200	22	5095
2026-01-27 11:29:33.16	138.47	11.05	-30.1	-33.4	18.0	6.07e-01	0	42	0	80740352	22	5256
2026-01-27 11:29:34.16	138.42	11.15	-30.2	-33.4	18.0	6.05e-01	0	43	0	82313216	22	5206
2026-01-27 11:29:35.16	138.37	11.24	-30.3	-33.9	17.7	6.05e-01	0	43	0	84410368	22	5409
2026-01-27 11:29:36.17	138.31	11.34	-30.3	-33.6	17.9	6.06e-01	0	42	0	86507520	22	5305
2026-01-27 11:29:37.17	138.26	11.44	-30.3	-33.7	17.9	6.05e-01	0	43	0	88080384	22	5312
2026-01-27 11:29:38.16	138.21	11.53	-30.3	-33.5	18.0	6.05e-01	0	43	0	90177536	22	5210
2026-01-27 11:29:39.17	138.15	11.63	-30.2	-33.2	18.3	6.05e-01	0	43	0	91750400	22	5085
2026-01-27 11:29:40.18	138.10	11.73	-30.1	-33.0	18.4	6.07e-01	0	43	0	93847552	22	5004
2026-01-27 11:29:41.19	138.04	11.83	-30.2	-33.3	18.1	6.08e-01	0	43	0	95944704	22	5134
2026-01-27 11:29:42.19	137.99	11.93	-30.1	-33.0	18.3	6.07e-01	0	43	0	97517568	22	5037
2026-01-27 11:29:43.20	137.93	12.03	-30.2	-33.4	18.0	6.07e-01	0	43	0	99614720	22	5202
2026-01-27 11:29:44.20	137.88	12.13	-29.9	-32.6	18.6	6.05e-01	0	43	0	101187584	22	4886
2026-01-27 11:29:45.21	137.82	12.23	-29.8	-32.8	18.7	6.05e-01	0	43	0	103284736	21	5089
2026-01-27 11:29:46.21	137.76	12.33	-29.7	-32.5	18.9	6.06e-01	0	43	0	104857600	21	4978
2026-01-27 11:29:47.22	137.71	12.43	-29.7	-32.6	18.9	6.07e-01	0	43	0	106954752	21	5049
2026-01-27 11:29:48.23	137.65	12.53	-29.8	-33.1	18.5	6.05e-01	0	43	0	109051904	21	5248
2026-01-27 11:29:49.24	137.59	12.64	-29.9	-33.3	18.4	6.06e-01	0	43	0	110624768	21	5324
2026-01-27 11:29:50.23	137.53	12.74	-29.8	-33.1	18.5	6.07e-01	0	43	0	112721920	21	5262
2026-01-27 11:29:51.23	137.47	12.84	-29.8	-33.1	18.5	6.04e-01	0	43	0	114819072	21	5248
2026-01-27 11:29:52.24	137.41	12.95	-29.9	-33.1	18.5	6.07e-01	0	43	0	116391936	21	5235
2026-01-27 11:29:53.24	137.35	13.05	-30.0	-33.4	18.4	6.05e-01	0	43	0	118489088	21	5308
2026-01-27 11:29:54.25	137.29	13.15	-29.9	-33.1	18.6	6.07e-01	0	43	0	120061952	21	5197
2026-01-27 11:29:55.25	137.23	13.26	-29.9	-32.8	18.9	6.04e-01	0	43	0	122159104	21	5042
2026-01-27 11:29:56.25	137.17	13.36	-29.9	-32.8	18.9	6.05e-01	0	43	0	123731968	21	5025
2026-01-27 11:29:57.25	137.11	13.47	-29.9	-32.8	19.0	6.07e-01	0	43	0	125829120	21	5014
2026-01-27 11:29:58.26	137.05	13.58	-29.9	-32.8	19.0	6.03e-01	0	43	0	127926272	21	5013
2026-01-27 11:29:59.26	136.98	13.68	-30.0	-33.0	18.9	6.05e-01	0	43	0	129499136	21	5080
2026-01-27 11:30:00.26	136.92	13.79	-30.0	-32.9	19.0	6.06e-01	0	43	0	131596288	21	5048
2026-01-27 11:30:01.26	136.86	13.90	-29.9	-32.7	19.1	6.04e-01	0	43	0	133169152	21	4967
2026-01-27 11:30:02.26	136.79	14.01	-29.9	-32.8	19.0	6.06e-01	0	43	0	135266304	21	5027
2026-01-27 11:30:03.27	136.73	14.12	-30.0	-33.0	18.8	6.05e-01	0	43	0	136839168	21	5107
2026-01-27 11:30:04.27	136.66	14.23	-29.9	-32.8	18.9	6.06e-01	0	43	0	138936320	21	5044
2026-01-27 11:30:05.27	136.60	14.33	-29.8	-32.7	19.1	6.08e-01	0	43	0	141033472	21	4993
2026-01-27 11:30:06.27	136.53	14.44	-29.9	-32.8	19.0	6.05e-01	0	43	0	142606336	21	5032
2026-01-27 11:30:07.27	136.46	14.56	-29.9	-32.8	19.0	6.05e-01	0	43	0	144703488	21	5025
2026-01-27 11:30:08.28	136.39	14.67	-29.9	-32.9	19.0	6.05e-01	0	43	0	146800640	21	5040
2026-01-27 11:30:09.27	136.33	14.78	-30.0	-33.0	18.9	6.05e-01	0	43	0	148373504	21	5098
2026-01-27 11:30:10.28	136.26	14.89	-29.9	-32.6	19.2	6.05e-01	0	43	0	150470656	21	4953
2026-01-27 11:30:11.29	136.19	15.01	-29.8	-32.3	19.4	6.07e-01	0	43	0	152043520	21	4828
2026-01-27 11:30:12.29	136.12	15.12	-29.8	-32.3	19.4	6.06e-01	0	43	0	154140672	21	4826
2026-01-27 11:30:13.30	136.05	15.23	-29.8	-32.4	19.4	6.04e-01	0	43	0	155713536	21	4849
2026-01-27 11:30:14.31	135.97	15.35	-29.8	-32.3	19.5	6.07e-01	0	43	0	157810688	21	4798
2026-01-27 11:30:15.31	135.90	15.46	-29.8	-32.3	19.5	6.06e-01	0	43	0	159907840	21	4826
2026-01-27 11:30:16.32	135.83	15.58	-29.7	-32.2	19.5	6.05e-01	0	43	0	161480704	21	4799
2026-01-27 11:30:17.32	135.76	15.70	-29.7	-32.1	19.6	6.06e-01	0	43	0	163577856	21	4764
2026-01-27 11:30:18.32	135.68	15.81	-29.7	-32.2	19.5	6.07e-01	0	43	0	165150720	21	4801
2026-01-27 11:30:19.32	135.61	15.93	-29.8	-32.3	19.4	6.06e-01	0	43	0	167247872	21	4823
2026-01-27 11:30:20.33	135.53	16.05	-29.8	-32.5	19.3	6.06e-01	0	43	0	169345024	21	4900
2026-01-27 11:30:21.33	135.46	16.17	-29.8	-32.5	19.2	6.07e-01	0	43	0	170917888	21	4916
2026-01-27 11:30:22.32	135.38	16.29	-29.8	-32.4	19.3	6.06e-01	0	43	0	173015040	21	4876
2026-01-27 11:30:23.32	135.31	16.40	-29.9	-32.5	19.3	6.08e-01	0	43	0	174587904	21	4897
2026-01-27 11:30:24.32	135.23	16.53	-30.1	-33.0	19.0	6.06e-01	0	43	0	176685056	21	5071
2026-01-27 11:30:25.32	135.15	16.65	-29.9	-32.6	19.3	6.06e-01	0	43	0	178782208	21	4895
2026-01-27 11:30:26.32	135.07	16.77	-29.8	-32.4	19.4	6.10e-01	0	43	0	180355072	21	4853
2026-01-27 11:30:27.33	134.99	16.89	-30.0	-32.7	19.3	6.06e-01	0	43	0	182452224	21	4951
2026-01-27 11:30:28.34	134.91	17.01	-30.0	-32.7	19.3	6.05e-01	0	43	0	184025088	21	4951
2026-01-27 11:30:29.34	134.83	17.14	-30.0	-33.0	19.1	6.05e-01	0	43	0	186122240	21	5044
2026-01-27 11:30:30.34	134.75	17.26	-30.0	-32.9	19.2	6.05e-01	0	43	0	187695104	21	5000
2026-01-27 11:30:31.35	134.66	17.39	-30.1	-33.2	19.0	6.05e-01	0	43	0	189792256	21	5118
2026-01-27 11:30:32.36	134.58	17.51	-30.0	-32.7	19.3	6.06e-01	0	43	0	191889408	21	4959
2026-01-27 11:30:33.36	134.50	17.64	-30.0	-32.7	19.4	6.07e-01	0	43	0	193462272	21	4930
2026-01-27 11:30:34.37	134.41	17.77	-30.0	-32.7	19.4	6.06e-01	0	43	0	195559424	21	4927
2026-01-27 11:30:35.38	134.32	17.89	-30.0	-32.7	19.5	6.09e-01	0	43	0	197132288	21	4928
2026-01-27 11:30:36.39	134.24	18.02	-30.0	-32.8	19.5	6.07e-01	0	43	0	199229440	21	4944
2026-01-27 11:30:37.39	134.15	18.15	-30.1	-32.9	19.4	6.07e-01	0	43	0	201326592	21	4981
2026-01-27 11:30:38.39	134.06	18.28	-30.0	-32.6	19.5	6.06e-01	0	43	0	202899456	21	4896
2026-01-27 11:30:39.40	133.97	18.41	-30.0	-32.6	19.5	6.05e-01	0	43	0	204996608	21	4906
2026-01-27 11:30:40.40	133.88	18.54	-29.9	-32.6	19.5	6.05e-01	0	43	0	206569472	21	4885
2026-01-27 11:30:41.40	133.79	18.67	-29.9	-32.5	19.6	6.05e-01	0	43	0	208666624	21	4852
2026-01-27 11:30:42.41	133.70	18.81	-29.9	-32.6	19.5	6.06e-01	0	43	0	210239488	21	4889
2026-01-27 11:30:43.41	133.61	18.94	-29.9	-32.5	19.5	6.05e-01	0	43	0	212336640	21	4885
2026-01-27 11:30:44.42	133.51	19.07	-29.7	-32.1	19.8	6.06e-01	0	43	0	214433792	21	4719
2026-01-27 11:30:45.42	133.42	19.21	-29.6	-31.8	20.0	6.06e-01	0	43	0	216006656	21	4640
2026-01-27 11:30:46.43	133.32	19.34	-29.7	-32.0	19.9	6.07e-01	0	43	0	218103808	21	4675
2026-01-27 11:30:47.44	133.23	19.48	-29.7	-32.0	20.0	6.07e-01	0	43	0	220200960	21	4669
2026-01-27 11:30:48.44	133.13	19.62	-29.7	-32.0	20.0	6.07e-01	0	43	0	221773824	21	4660
2026-01-27 11:30:49.44	133.03	19.75	-29.8	-32.1	19.9	6.06e-01	0	43	0	223870976	21	4712
2026-01-27 11:30:50.45	132.93	19.89	-29.9	-32.3	19.9	6.08e-01	0	43	0	225443840	21	4768
2026-01-27 11:30:51.45	132.83	20.03	-29.9	-32.5	19.7	6.05e-01	0	43	0	227540992	21	4837
2026-01-27 11:30:52.45	132.73	20.17	-30.0	-32.7	19.6	6.08e-01	0	44	0	229113856	21	4911
2026-01-27 11:30:53.45	132.63	20.31	-30.0	-32.8	19.6	6.09e-01	0	43	0	231211008	21	4947
2026-01-27 11:30:54.45	132.53	20.45	-30.1	-32.9	19.4	6.06e-01	0	43	0	233308160	21	4996
2026-01-27 11:30:55.45	132.43	20.59	-30.1	-33.0	19.4	6.06e-01	0	43	0	234881024	21	5026
2026-01-27 11:30:56.45	132.32	20.73	-30.1	-33.1	19.3	6.08e-01	0	43	0	236978176	21	5062
2026-01-27 11:30:57.45	132.22	20.88	-30.1	-33.0	19.4	6.06e-01	0	44	0	238551040	21	5049
2026-01-27 11:30:58.46	132.11	21.02	-30.1	-33.0	19.4	6.05e-01	0	43	0	240648192	21	5045
2026-01-27 11:30:59.46	132.00	21.17	-30.1	-32.9	19.5	6.07e-01	0	44	0	242221056	21	5016
2026-01-27 11:31:00.46	131.89	21.31	-30.0	-32.8	19.6	6.05e-01	0	43	0	244318208	21	4958
2026-01-27 11:31:01.47	131.78	21.46	-30.0	-32.8	19.6	6.06e-01	0	43	0	246415360	21	4965
2026-01-27 11:31:02.47	131.67	21.61	-30.0	-32.8	19.6	6.07e-01	0	43	0	247988224	21	4955
2026-01-27 11:31:03.47	131.56	21.76	-30.0	-32.6	19.7	6.08e-01	0	43	0	250085376	21	4866
2026-01-27 11:31:04.48	131.44	21.91	-30.0	-32.6	19.7	6.07e-01	0	43	0	252182528	21	4890
2026-01-27 11:31:05.48	131.33	22.06	-30.1	-32.9	19.6	6.07e-01	0	43	0	253755392	21	4961
2026-01-27 11:31:06.49	131.21	22.21	-30.1	-32.8	19.6	6.07e-01	0	43	0	255852544	21	4949
2026-01-27 11:31:07.49	131.09	22.36	-30.0	-32.8	19.7	6.05e-01	0	43	0	257425408	21	4931
2026-01-27 11:31:08.50	130.97	22.51	-30.1	-33.0	19.5	6.07e-01	0	43	0	259522560	21	4996
2026-01-27 11:31:09.50	130.85	22.66	-30.1	-33.0	19.5	6.05e-01	0	44	0	261095424	21	5026
2026-01-27 11:31:10.51	130.73	22.82	-30.2	-33.3	19.4	6.06e-01	0	43	0	263192576	21	5105
2026-01-27 11:31:11.51	130.61	22.97	-30.3	-33.4	19.4	6.08e-01	0	43	0	265289728	21	5142
2026-01-27 11:31:12.51	130.49	23.13	-30.3	-33.5	19.3	6.06e-01	0	44	0	266862592	21	5171
2026-01-27 11:31:13.51	130.36	23.29	-30.3	-33.3	19.4	6.09e-01	0	44	0	268959744	21	5100
2026-01-27 11:31:14.51	130.24	23.44	-30.2	-33.2	19.5	6.06e-01	0	44	0	270532608	21	5082
2026-01-27 11:31:15.52	130.11	23.60	-30.3	-33.5	19.3	6.06e-01	0	43	0	272629760	21	5179
2026-01-27 11:31:16.52	129.98	23.76	-30.3	-33.3	19.4	6.07e-01	0	43	0	274726912	21	5109
2026-01-27 11:31:17.53	129.85	23.92	-30.1	-33.0	19.6	6.07e-01	0	44	0	276299776	21	5016
2026-01-27 11:31:18.53	129.72	24.09	-30.1	-32.9	19.7	6.09e-01	0	43	0	278396928	21	4965
2026-01-27 11:31:19.54	129.58	24.25	-30.2	-33.0	19.6	6.06e-01	0	43	0	279969792	21	5022
2026-01-27 11:31:20.54	129.45	24.41	-30.2	-33.1	19.6	6.06e-01	0	43	0	282066944	21	5038
2026-01-27 11:31:21.55	129.31	24.58	-30.1	-32.9	19.7	6.06e-01	0	44	0	283639808	21	4974
2026-01-27 11:31:22.55	129.17	24.74	-30.1	-32.9	19.7	6.07e-01	0	43	0	285736960	21	4957
2026-01-27 11:31:23.56	129.03	24.91	-30.1	-32.9	19.7	6.06e-01	0	44	0	287834112	21	4971
2026-01-27 11:31:24.56	128.89	25.08	-30.2	-33.2	19.5	6.09e-01	0	44	0	289406976	21	5055
2026-01-27 11:31:25.57	128.75	25.24	-30.2	-33.0	19.6	6.05e-01	0	43	0	291504128	21	4998
2026-01-27 11:31:26.57	128.60	25.41	-29.9	-32.4	20.0	6.06e-01	0	44	0	293076992	21	4776
2026-01-27 11:31:27.58	128.46	25.58	-29.8	-32.1	20.2	6.07e-01	0	44	0	295174144	21	4695
2026-01-27 11:31:28.58	128.31	25.76	-29.8	-32.2	20.2	6.07e-01	0	43	0	297271296	21	4710
2026-01-27 11:31:29.59	128.16	25.93	-29.9	-32.3	20.1	6.05e-01	0	43	0	298844160	21	4752
2026-01-27 11:31:30.59	128.01	26.10	-29.9	-32.4	20.1	6.09e-01	0	43	0	300941312	21	4777
2026-01-27 11:31:31.60	127.85	26.28	-30.0	-32.6	20.0	6.07e-01	0	44	0	302514176	21	4853
2026-01-27 11:31:32.60	127.70	26.45	-30.1	-32.8	19.9	6.07e-01	0	44	0	304611328	21	4903
2026-01-27 11:31:33.61	127.54	26.63	-30.1	-32.9	19.8	6.09e-01	0	44	0	306708480	21	4949
2026-01-27 11:31:34.61	127.38	26.80	-30.1	-32.9	19.8	6.06e-01	0	43	0	308281344	21	4957
2026-01-27 11:31:35.61	127.22	26.98	-30.0	-32.6	20.0	6.05e-01	0	44	0	310378496	21	4860
2026-01-27 11:31:36.62	127.06	27.16	-30.0	-32.5	20.0	6.07e-01	0	44	0	311951360	21	4813
2026-01-27 11:31:37.62	126.90	27.34	-29.9	-32.2	20.2	6.07e-01	0	44	0	314048512	21	4701
2026-01-27 11:31:38.63	126.73	27.52	-30.0	-32.6	20.0	6.08e-01	0	44	0	316145664	21	4832
2026-01-27 11:31:39.63	126.56	27.70	-29.9	-32.4	20.1	6.06e-01	0	44	0	317718528	21	4759
2026-01-27 11:31:40.63	126.39	27.89	-29.9	-32.1	20.3	6.05e-01	0	44	0	319815680	21	4684
2026-01-27 11:31:41.64	126.22	28.07	-29.7	-31.8	20.5	6.06e-01	0	44	0	321388544	21	4587
2026-01-27 11:31:42.63	126.05	28.26	-29.8	-32.0	20.4	6.07e-01	0	43	0	323485696	21	4636
2026-01-27 11:31:43.63	125.87	28.44	-29.7	-31.8	20.5	6.06e-01	0	44	0	325582848	21	4578
2026-01-27 11:31:44.64	125.69	28.63	-29.8	-32.0	20.5	6.05e-01	0	44	0	327155712	21	4628
2026-01-27 11:31:45.64	125.51	28.82	-29.9	-32.2	20.3	6.06e-01	0	43	0	329252864	21	4710
2026-01-27 11:31:46.63	125.33	29.00	-29.9	-32.2	20.3	6.05e-01	0	44	0	330825728	21	4716
2026-01-27 11:31:47.64	125.14	29.20	-30.1	-32.8	20.0	6.07e-01	0	44	0	332922880	21	4910
2026-01-27 11:31:48.64	124.96	29.39	-30.0	-32.5	20.1	6.06e-01	0	44	0	334495744	21	4807
2026-01-27 11:31:49.64	124.77	29.58	-29.7	-31.9	20.4	6.04e-01	0	44	0	336592896	21	4616
2026-01-27 11:31:50.64	124.58	29.77	-29.7	-31.6	20.6	6.07e-01	0	44	0	338690048	21	4531
2026-01-27 11:31:51.64	124.38	29.96	-29.6	-31.5	20.7	6.07e-01	0	44	0	340262912	21	4497
2026-01-27 11:31:52.65	124.18	30.16	-29.7	-31.7	20.7	6.06e-01	0	44	0	342360064	21	4527
2026-01-27 11:31:53.65	123.99	30.36	-29.6	-31.5	20.7	6.07e-01	0	44	0	343932928	21	4488
2026-01-27 11:31:54.66	123.78	30.56	-29.4	-31.1	21.0	6.03e-01	0	44	0	346030080	21	4360
2026-01-27 11:31:55.66	123.58	30.76	-29.5	-31.2	20.9	6.04e-01	0	44	0	347602944	21	4398
2026-01-27 11:31:56.66	123.37	30.95	-29.6	-31.5	20.8	6.06e-01	0	44	0	349700096	21	4473
2026-01-27 11:31:57.67	123.16	31.16	-29.7	-31.8	20.6	6.06e-01	0	44	0	351797248	21	4576
2026-01-27 11:31:58.66	122.95	31.36	-29.7	-31.7	20.6	6.09e-01	0	43	0	353370112	21	4559
2026-01-27 11:31:59.66	122.73	31.56	-29.7	-31.7	20.7	6.04e-01	0	44	0	355467264	21	4540
2026-01-27 11:32:00.67	122.51	31.76	-29.7	-31.8	20.6	6.06e-01	0	44	0	357040128	21	4572
2026-01-27 11:32:01.67	122.29	31.97	-29.8	-31.9	20.5	6.07e-01	0	44	0	359137280	21	4604
2026-01-27 11:32:02.68	122.07	32.18	-29.8	-32.1	20.4	6.07e-01	0	44	0	361234432	21	4671
2026-01-27 11:32:03.69	121.84	32.38	-29.7	-31.8	20.6	6.06e-01	0	44	0	362807296	21	4584
2026-01-27 11:32:04.69	121.61	32.59	-29.6	-31.4	20.8	6.07e-01	0	44	0	364904448	21	4456
2026-01-27 11:32:05.69	121.38	32.80	-29.6	-31.4	20.8	6.05e-01	0	44	0	366477312	21	4463
2026-01-27 11:32:06.69	121.14	33.01	-29.6	-31.6	20.7	6.07e-01	0	44	0	368574464	21	4503
2026-01-27 11:32:07.69	120.90	33.22	-29.8	-31.9	20.5	6.06e-01	0	44	0	370671616	21	4619
2026-01-27 11:32:08.70	120.66	33.43	-30.0	-32.6	20.2	6.07e-01	0	44	0	372244480	21	4829
2026-01-27 11:32:09.71	120.41	33.65	-30.2	-33.0	19.9	6.07e-01	0	43	0	374341632	21	4959
2026-01-27 11:32:10.72	120.16	33.86	-30.1	-32.7	20.0	6.06e-01	0	44	0	375914496	21	4873
2026-01-27 11:32:11.73	119.90	34.08	-30.0	-32.4	20.3	6.07e-01	0	44	0	378011648	21	4765
2026-01-27 11:32:12.73	119.65	34.30	-30.0	-32.5	20.2	6.07e-01	0	44	0	380108800	21	4784
2026-01-27 11:32:13.73	119.39	34.51	-30.0	-32.5	20.2	6.05e-01	0	44	0	381681664	21	4797
2026-01-27 11:32:14.73	119.12	34.73	-30.2	-33.1	19.9	6.06e-01	0	44	0	383778816	21	4997
2026-01-27 11:32:15.74	118.85	34.95	-30.3	-33.2	19.8	6.07e-01	0	44	0	385351680	21	5044
2026-01-27 11:32:16.74	118.58	35.17	-30.5	-33.8	19.5	6.07e-01	0	44	0	387448832	21	5257
2026-01-27 11:32:17.74	118.31	35.39	-30.7	-33.7	19.2	6.08e-01	0	44	0	389021696	22	5105
2026-01-27 11:32:18.74	118.03	35.61	-30.6	-33.5	19.4	6.07e-01	0	44	0	391118848	22	5020
2026-01-27 11:32:19.74	117.75	35.83	-30.7	-33.6	19.3	6.04e-01	0	44	0	393216000	22	5064
2026-01-27 11:32:20.75	117.46	36.06	-30.6	-33.5	19.4	6.06e-01	0	44	0	394788864	22	5022
2026-01-27 11:32:21.74	117.17	36.28	-30.6	-33.4	19.5	6.08e-01	0	44	0	396886016	22	4969
2026-01-27 11:32:22.75	116.88	36.51	-30.7	-33.8	19.2	6.06e-01	0	44	0	398458880	22	5123
2026-01-27 11:32:23.75	116.58	36.73	-30.9	-34.2	19.0	6.06e-01	0	44	0	400556032	22	5274
2026-01-27 11:32:24.75	116.27	36.96	-31.1	-34.3	18.6	6.05e-01	0	44	0	402653184	23	5210
2026-01-27 11:32:25.76	115.96	37.18	-31.2	-34.4	18.5	6.06e-01	0	44	0	404226048	23	5249
2026-01-27 11:32:26.76	115.65	37.41	-31.2	-34.5	18.5	6.06e-01	0	44	0	406323200	23	5264
2026-01-27 11:32:27.76	115.34	37.64	-31.2	-34.6	18.5	6.05e-01	0	44	0	407896064	23	5297
2026-01-27 11:32:28.77	115.01	37.87	-31.2	-34.5	18.5	6.09e-01	0	44	0	409993216	23	5265
2026-01-27 11:32:29.77	114.69	38.10	-31.3	-34.9	18.3	6.06e-01	0	44	0	412090368	23	5439
2026-01-27 11:32:30.77	114.36	38.33	-31.6	-35.6	17.8	6.06e-01	0	44	0	413663232	23	5729
2026-01-27 11:32:31.77	114.02	38.56	-32.0	-36.3	17.1	6.06e-01	0	44	0	415760384	24	5917
2026-01-27 11:32:32.78	113.68	38.79	-31.7	-35.3	17.6	6.07e-01	0	44	0	417333248	24	5496
2026-01-27 11:32:33.78	113.33	39.02	-31.7	-35.4	17.7	6.06e-01	0	44	0	419430400	24	5517
2026-01-27 11:32:34.79	112.98	39.26	-31.4	-34.7	18.1	6.08e-01	0	44	0	421003264	24	5230
2026-01-27 11:32:35.79	112.62	39.49	-31.3	-34.3	18.4	6.06e-01	0	44	0	423100416	24	5061
2026-01-27 11:32:36.79	112.26	39.72	-31.4	-34.6	18.2	6.08e-01	0	44	0	425197568	24	5185
2026-01-27 11:32:37.79	111.90	39.96	-31.6	-35.1	17.9	6.06e-01	0	43	0	426770432	24	5386
2026-01-27 11:32:38.79	111.53	40.19	-31.6	-35.2	17.8	6.05e-01	0	44	0	428867584	24	5416
2026-01-27 11:32:39.79	111.15	40.42	-31.6	-35.2	17.8	6.07e-01	0	44	0	430440448	24	5447
2026-01-27 11:32:40.79	110.77	40.66	-31.3	-34.3	18.4	6.07e-01	0	44	0	432537600	24	5096
2026-01-27 11:32:41.80	110.38	40.89	-31.1	-33.6	18.8	6.07e-01	0	44	0	434110464	24	4832
2026-01-27 11:32:42.79	109.99	41.13	-31.3	-34.2	18.5	6.05e-01	0	44	0	436207616	24	5038
2026-01-27 11:32:43.80	109.58	41.36	-31.2	-34.1	18.6	6.08e-01	0	44	0	438304768	24	4984
2026-01-27 11:32:44.80	109.18	41.60	-31.4	-34.4	18.4	6.04e-01	0	44	0	439877632	24	5123
2026-01-27 11:32:45.81	108.76	41.83	-31.2	-33.9	18.7	6.05e-01	0	44	0	441974784	24	4912
2026-01-27 11:32:46.81	108.34	42.07	-30.9	-33.3	19.1	6.04e-01	0	44	0	443547648	24	4700
2026-01-27 11:32:47.81	107.92	42.30	-31.3	-34.1	18.6	6.04e-01	0	44	0	445644800	24	5008
2026-01-27 11:32:48.81	107.49	42.53	-31.3	-34.3	18.4	6.06e-01	0	44	0	447741952	24	5077
2026-01-27 11:32:49.81	107.05	42.77	-31.2	-33.9	18.7	6.06e-01	0	44	0	449314816	24	4919
2026-01-27 11:32:50.82	106.60	43.00	-30.9	-33.2	19.1	6.07e-01	0	44	0	451411968	24	4691
2026-01-27 11:32:51.83	106.15	43.24	-30.9	-33.2	19.1	6.06e-01	0	44	0	452984832	24	4698
2026-01-27 11:32:52.83	105.69	43.47	-30.9	-33.2	19.1	6.05e-01	0	44	0	455081984	24	4676
2026-01-27 11:32:53.84	105.22	43.70	-30.9	-33.1	19.1	6.07e-01	0	44	0	457179136	24	4657
2026-01-27 11:32:54.83	104.76	43.93	-30.9	-33.3	19.0	6.05e-01	0	44	0	458752000	24	4710
2026-01-27 11:32:55.83	104.28	44.16	-30.9	-33.4	19.2	6.06e-01	0	44	0	460849152	23	4850
2026-01-27 11:32:56.83	103.80	44.39	-30.8	-33.3	19.3	6.06e-01	0	44	0	462422016	23	4824
2026-01-27 11:32:57.83	103.30	44.62	-30.9	-33.6	19.2	6.08e-01	0	44	0	464519168	23	4911
2026-01-27 11:32:58.84	102.80	44.85	-30.8	-33.5	19.3	6.08e-01	0	44	0	466092032	23	4874
2026-01-27 11:32:59.84	102.29	45.07	-31.1	-34.2	18.8	6.08e-01	0	44	0	468189184	23	5134
2026-01-27 11:33:00.83	101.79	45.30	-30.9	-33.7	19.1	6.08e-01	0	44	0	470286336	23	4974
2026-01-27 11:33:01.83	101.27	45.52	-30.8	-33.4	19.3	6.07e-01	0	44	0	471859200	23	4841
2026-01-27 11:33:02.84	100.73	45.74	-31.0	-33.9	19.1	6.05e-01	0	44	0	473956352	23	5010
2026-01-27 11:33:03.84	100.20	45.96	-31.2	-34.3	18.8	6.06e-01	0	44	0	475529216	23	5185
2026-01-27 11:33:04.84	99.65	46.18	-31.3	-34.7	18.5	6.06e-01	0	44	0	477626368	23	5343
2026-01-27 11:33:05.84	99.10	46.40	-31.1	-34.3	18.8	6.05e-01	0	44	0	479723520	23	5166
2026-01-27 11:33:06.85	98.54	46.62	-31.2	-34.4	18.8	6.06e-01	0	43	0	481296384	23	5195
2026-01-27 11:33:07.85	97.97	46.83	-31.5	-35.2	18.2	6.03e-01	0	43	0	483393536	23	5532
2026-01-27 11:33:08.85	97.39	47.05	-31.5	-35.3	18.2	6.06e-01	0	44	0	484966400	23	5543
2026-01-27 11:33:09.85	96.81	47.26	-31.1	-34.3	18.8	6.08e-01	0	44	0	487063552	23	5163
2026-01-27 11:33:10.86	96.21	47.47	-31.2	-34.3	18.8	6.05e-01	0	44	0	488636416	23	5176
2026-01-27 11:33:11.86	95.61	47.67	-31.3	-34.7	18.6	6.06e-01	0	44	0	490733568	23	5334
2026-01-27 11:33:12.86	95.01	47.88	-31.1	-34.2	18.9	6.05e-01	0	44	0	492830720	23	5121
2026-01-27 11:33:13.87	94.39	48.08	-31.0	-33.9	19.1	6.08e-01	0	43	0	494403584	23	5019
2026-01-27 11:33:14.87	93.76	48.28	-31.1	-34.1	19.0	6.06e-01	0	44	0	496500736	23	5094
2026-01-27 11:33:15.88	93.12	48.47	-31.0	-33.8	19.2	6.07e-01	0	44	0	498073600	23	4987
2026-01-27 11:33:16.89	92.48	48.67	-31.3	-34.7	18.6	6.08e-01	0	44	0	500170752	23	5319
2026-01-27 11:33:17.89	91.83	48.86	-30.9	-33.5	19.3	6.06e-01	0	44	0	502267904	23	4883
2026-01-27 11:33:18.90	91.17	49.04	-31.1	-34.2	18.9	6.05e-01	0	44	0	503840768	23	5146
2026-01-27 11:33:19.90	90.50	49.23	-31.0	-34.0	19.0	6.07e-01	0	44	0	505937920	23	5073
2026-01-27 11:33:20.90	89.83	49.41	-30.9	-33.7	19.2	6.07e-01	0	44	0	507510784	23	4941
2026-01-27 11:33:21.90	89.15	49.58	-31.2	-34.4	18.8	6.07e-01	0	44	0	509607936	23	5220
2026-01-27 11:33:22.90	88.46	49.76	-31.2	-34.4	18.8	6.04e-01	0	44	0	511180800	23	5203
2026-01-27 11:33:23.90	87.77	49.92	-31.0	-33.8	19.2	6.05e-01	0	44	0	513277952	23	4979
2026-01-27 11:33:24.90	87.07	50.09	-31.4	-35.1	18.4	6.08e-01	0	44	0	515375104	23	5470
2026-01-27 11:33:25.90	86.35	50.25	-31.1	-34.3	18.9	6.06e-01	0	44	0	516947968	23	5156
2026-01-27 11:33:26.90	85.64	50.41	-31.2	-34.4	18.8	6.05e-01	0	44	0	519045120	23	5202
2026-01-27 11:33:27.90	84.91	50.56	-31.1	-34.0	19.1	6.04e-01	0	44	0	520617984	23	5053
2026-01-27 11:33:28.91	84.17	50.71	-30.9	-33.6	19.3	6.08e-01	0	44	0	522715136	23	4927
2026-01-27 11:33:29.92	83.42	50.85	-30.9	-33.5	19.4	6.07e-01	0	44	0	524812288	23	4865
2026-01-27 11:33:30.92	82.67	50.99	-31.1	-34.2	19.0	6.06e-01	0	44	0	526385152	23	5120
2026-01-27 11:33:31.92	81.92	51.13	-31.2	-43.5	3.8	7.42e-01	0	44	104	526909440	23	14896
2026-01-27 11:33:32.92	81.16	51.25	-31.0	-43.1	3.8	7.42e-01	0	44	104	526909440	23	14559
2026-01-27 11:33:33.92	80.39	51.38	-30.9	-43.0	3.8	7.44e-01	0	44	104	526909440	23	14499
2026-01-27 11:33:34.93	79.61	51.50	-31.0	-43.0	3.8	7.44e-01	0	44	104	526909440	23	14427
2026-01-27 11:33:35.93	78.83	51.61	-31.1	-43.6	3.8	7.47e-01	0	44	104	526909440	23	15027
2026-01-27 11:33:36.93	78.04	51.72	-31.3	-44.0	3.8	7.47e-01	0	44	104	526909440	23	15558
2026-01-27 11:33:37.93	77.25	51.83	-31.6	-44.4	3.8	7.43e-01	0	44	104	526909440	24	15548
2026-01-27 11:33:38.94	76.44	51.92	-31.8	-44.7	3.8	7.41e-01	0	44	104	526909440	24	16015
2026-01-27 11:33:39.95	75.63	52.02	-31.7	-44.5	3.8	7.43e-01	0	44	104	526909440	24	15686
2026-01-27 11:33:40.95	74.82	52.10	-32.0	-45.3	3.8	7.44e-01	0	44	104	526909440	24	16687
2026-01-27 11:33:41.96	74.00	52.19	-32.3	-45.7	3.8	7.44e-01	0	44	104	526909440	25	16768
2026-01-27 11:33:42.96	73.19	52.26	-31.9	-44.4	3.7	7.47e-01	0	44	104	526909440	25	15106
2026-01-27 11:33:43.96	72.37	52.33	-31.7	-44.0	3.7	7.49e-01	0	44	104	526909440	25	14789
2026-01-27 11:33:44.96	71.54	52.39	-31.6	-43.7	4.2	7.30e-01	0	44	104	526909440	25	14376
2026-01-27 11:33:45.96	70.71	52.45	-32.0	-44.6	3.7	7.49e-01	0	44	104	526909440	25	15425
2026-01-27 11:33:46.97	69.88	52.50	-32.3	-45.6	3.8	7.46e-01	0	44	104	526909440	25	16607
2026-01-27 11:33:47.98	69.03	52.55	-32.9	-46.9	3.8	7.51e-01	0	44	104	526909440	26	18139
2026-01-27 11:33:48.98	68.20	52.58	-33.2	-47.3	3.8	7.45e-01	0	44	104	526909440	27	18278
2026-01-27 11:33:49.98	67.36	52.62	-33.6	-48.8	3.8	7.45e-01	0	44	104	526909440	27	20771
2026-01-27 11:33:50.99	66.51	52.64	-33.7	-48.9	3.8	7.41e-01	0	44	104	526909440	28	20733
2026-01-27 11:33:51.99	65.67	52.66	-33.7	-49.1	3.8	7.45e-01	0	44	104	526909440	28	21088
2026-01-27 11:33:52.99	64.83	52.68	-33.7	-49.2	3.8	7.46e-01	0	44	104	526909440	28	21322
2026-01-27 11:33:54.00	63.98	52.68	-33.7	-49.0	3.8	7.48e-01	0	44	104	526909440	28	20876
2026-01-27 11:33:55.00	63.14	52.68	-33.9	-49.4	3.8	7.44e-01	0	44	104	526909440	28	21575
2026-01-27 11:33:56.01	62.29	52.68	-33.9	-49.8	3.8	7.44e-01	0	44	104	526909440	28	22398
2026-01-27 11:33:57.01	61.44	52.67	-34.0	-50.1	3.8	7.45e-01	0	44	104	526909440	28	22943
2026-01-27 11:33:58.02	60.60	52.65	-34.0	-50.2	3.8	7.46e-01	0	44	104	526909440	28	23099
2026-01-27 11:33:59.02	59.76	52.62	-34.2	-50.3	3.8	7.42e-01	0	44	104	526909440	29	23150
2026-01-27 11:34:00.03	58.91	52.59	-34.1	-49.9	3.8	7.42e-01	0	44	104	526909440	29	22124
2026-01-27 11:34:01.03	58.07	52.55	-34.0	-49.6	3.8	7.45e-01	0	44	104	526909440	29	21760
2026-01-27 11:34:02.03	57.24	52.51	-33.9	-49.1	3.8	7.46e-01	0	44	104	526909440	29	20674
2026-01-27 11:34:03.04	56.40	52.46	-33.8	-48.5	3.8	7.45e-01	0	44	104	526909440	29	19740
2026-01-27 11:34:04.05	55.57	52.40	-33.9	-49.2	3.8	7.42e-01	0	44	104	526909440	29	20917
2026-01-27 11:34:05.05	54.74	52.34	-34.1	-50.0	3.8	7.42e-01	0	44	104	526909440	29	22384
2026-01-27 11:34:06.06	53.91	52.27	-34.2	-50.5	3.8	7.47e-01	0	44	104	526909440	29	23611
2026-01-27 11:34:07.06	53.10	52.20	-34.1	-49.7	3.8	7.43e-01	0	44	104	526909440	29	21858
2026-01-27 11:34:08.07	52.28	52.12	-33.9	-49.2	3.8	7.42e-01	0	44	104	526909440	29	21011
2026-01-27 11:34:09.08	51.46	52.03	-33.7	-48.4	3.8	7.46e-01	0	44	104	526909440	29	19546
2026-01-27 11:34:10.08	50.66	51.94	-33.5	-47.9	3.8	7.45e-01	0	44	104	526909440	29	18776
2026-01-27 11:34:11.09	49.85	51.84	-33.2	-47.0	3.8	7.44e-01	0	44	104	526909440	28	17650
2026-01-27 11:34:12.09	49.06	51.74	-33.0	-46.5	3.8	7.44e-01	0	44	104	526909440	28	16970
2026-01-27 11:34:13.10	48.26	51.63	-32.9	-46.3	3.8	7.46e-01	0	44	104	526909440	27	16980
2026-01-27 11:34:14.10	47.48	51.52	-32.6	-45.4	3.8	7.44e-01	0	44	104	526909440	27	15762
2026-01-27 11:34:15.11	46.70	51.40	-32.4	-44.9	3.8	7.46e-01	0	44	104	526909440	27	15156
2026-01-27 11:34:16.12	45.93	51.28	-32.3	-45.0	3.8	7.48e-01	0	44	104	526909440	26	15618
2026-01-27 11:34:17.12	45.17	51.15	-31.8	-44.5	3.8	7.44e-01	0	44	104	526909440	25	15517
2026-01-27 11:34:18.13	44.40	51.01	-31.2	-43.0	3.8	7.47e-01	0	44	104	526909440	24	13990
2026-01-27 11:34:19.13	43.66	50.87	-30.8	-42.5	3.8	7.45e-01	0	44	104	526909440	23	13844
2026-01-27 11:34:20.13	42.91	50.73	-30.9	-43.1	3.8	7.43e-01	0	44	104	526909440	23	14754
2026-01-27 11:34:21.13	42.18	50.59	-30.5	-41.9	3.8	7.47e-01	0	44	104	526909440	23	13357
2026-01-27 11:34:22.14	41.45	50.43	-30.2	-41.6	3.8	7.45e-01	0	44	104	526909440	22	13304
2026-01-27 11:34:23.14	40.73	50.28	-30.2	-41.6	3.8	7.45e-01	0	44	104	526909440	22	13464
2026-01-27 11:34:24.15	40.01	50.12	-30.3	-41.7	3.8	7.45e-01	0	44	104	526909440	22	13507
2026-01-27 11:34:25.16	39.30	49.95	-30.3	-42.0	3.8	7.42e-01	0	44	104	526909440	22	13882
2026-01-27 11:34:26.16	38.61	49.78	-30.2	-41.5	3.8	7.45e-01	0	44	104	526909440	22	13279
2026-01-27 11:34:27.17	37.91	49.61	-30.5	-42.5	3.8	7.45e-01	0	44	104	526909440	22	14292
2026-01-27 11:34:28.17	37.23	49.43	-30.9	-43.5	3.8	7.43e-01	0	44	104	526909440	22	15371
2026-01-27 11:34:29.18	36.55	49.25	-30.7	-42.8	3.8	7.44e-01	0	44	104	526909440	22	14434
2026-01-27 11:34:30.18	35.89	49.07	-30.7	-43.1	3.9	7.43e-01	0	44	104	526909440	22	14923
2026-01-27 11:34:31.19	35.23	48.88	-30.7	-42.6	3.8	7.47e-01	0	44	104	526909440	22	14192
2026-01-27 11:34:32.19	34.58	48.70	-30.8	-43.2	3.8	7.46e-01	0	44	104	526909440	22	15005
2026-01-27 11:34:33.19	33.94	48.50	-31.0	-43.8	3.8	7.45e-01	0	44	104	526909440	22	15710
2026-01-27 11:34:34.19	33.31	48.31	-31.2	-43.6	3.8	7.41e-01	0	44	104	526909440	23	14979
2026-01-27 11:34:35.20	32.68	48.11	-31.6	-44.7	3.8	7.44e-01	0	44	104	526909440	23	16250
2026-01-27 11:34:36.21	32.06	47.91	-32.0	-45.3	3.8	7.44e-01	0	44	104	526909440	24	16641
2026-01-27 11:34:37.22	31.45	47.71	-32.3	-45.9	3.8	7.46e-01	0	44	104	526909440	25	17093
2026-01-27 11:34:38.21	30.85	47.50	-32.6	-46.0	3.8	7.44e-01	0	44	104	526909440	26	16789
2026-01-27 11:34:39.21	30.26	47.30	-33.0	-47.3	3.8	7.49e-01	0	44	104	526909440	26	18703
2026-01-27 11:34:40.22	29.67	47.08	-33.4	-48.3	3.8	7.46e-01	0	44	104	526909440	27	20004
2026-01-27 11:34:41.23	29.09	46.87	-33.6	-48.6	3.8	7.41e-01	0	44	104	526909440	28	20183
2026-01-27 11:34:42.23	28.53	46.66	-33.7	-48.9	3.8	7.45e-01	0	44	104	526909440	28	20701
2026-01-27 11:34:43.23	27.97	46.44	-33.7	-49.1	3.8	7.40e-01	0	44	104	526909440	28	20977
2026-01-27 11:34:44.24	27.41	46.22	-33.9	-49.7	3.8	7.42e-01	0	44	104	526909440	28	22182
2026-01-27 11:34:45.25	26.86	46.00	-34.0	-50.1	3.8	7.47e-01	0	44	104	526909440	28	23152
2026-01-27 11:34:46.24	26.33	45.79	-34.0	-50.3	3.8	7.47e-01	0	44	104	526909440	28	23476
2026-01-27 11:34:47.24	25.80	45.56	-34.0	-50.3	3.8	7.46e-01	0	44	104	526909440	28	23328
2026-01-27 11:34:48.25	25.28	45.34	-34.1	-50.3	3.8	7.45e-01	0	44	104	526909440	29	23042
2026-01-27 11:34:49.25	24.77	45.12	-34.2	-50.7	3.8	7.49e-01	0	44	104	526909440	29	24162
2026-01-27 11:34:50.25	24.26	44.89	-34.1	-50.3	3.8	7.48e-01	0	44	104	526909440	29	23140
2026-01-27 11:34:51.26	23.76	44.66	-34.0	-49.7	3.8	7.48e-01	0	44	104	526909440	29	22010
2026-01-27 11:34:52.27	23.26	44.43	-33.9	-49.5	3.8	7.41e-01	0	44	104	526909440	29	21580
2026-01-27 11:34:53.27	22.78	44.20	-33.9	-49.4	3.8	7.43e-01	0	44	104	526909440	29	21350
2026-01-27 11:34:54.28	22.29	43.97	-34.0	-49.5	3.8	7.44e-01	0	44	104	526909440	29	21576
2026-01-27 11:34:55.28	21.82	43.74	-33.9	-49.3	3.8	7.46e-01	0	44	104	526909440	29	21218
2026-01-27 11:34:56.28	21.36	43.51	-33.8	-49.1	3.8	7.44e-01	0	44	104	526909440	29	20929
2026-01-27 11:34:57.29	20.90	43.28	-33.7	-48.5	3.8	7.47e-01	0	44	104	526909440	29	19815
2026-01-27 11:34:58.29	20.45	43.05	-33.5	-47.9	3.8	7.44e-01	0	44	104	526909440	29	18869
2026-01-27 11:34:59.29	20.01	42.82	-33.3	-47.7	3.8	7.42e-01	0	44	104	526909440	28	18839
2026-01-27 11:35:00.30	19.57	42.58	-33.2	-47.1	3.8	7.45e-01	0	44	104	526909440	28	17954
2026-01-27 11:35:01.30	19.14	42.35	-32.9	-46.4	3.8	7.45e-01	0	44	104	526909440	28	16937
2026-01-27 11:35:02.30	18.71	42.12	-32.8	-46.2	3.8	7.45e-01	0	44	104	526909440	27	16818
2026-01-27 11:35:03.31	18.29	41.88	-32.7	-46.0	3.8	7.48e-01	0	44	104	526909440	27	16665
2026-01-27 11:35:04.31	17.88	41.65	-32.6	-45.3	3.8	7.45e-01	0	44	104	526909440	27	15698
2026-01-27 11:35:05.32	17.47	41.41	-32.5	-45.2	3.8	7.44e-01	0	44	104	526909440	27	15479
2026-01-27 11:35:06.32	17.07	41.18	-32.5	-45.3	3.8	7.45e-01	0	44	104	526909440	27	15816
2026-01-27 11:35:07.32	16.68	40.95	-32.1	-44.8	3.8	7.47e-01	0	44	104	526909440	26	15632
2026-01-27 11:35:08.33	16.29	40.71	-31.6	-43.7	3.8	7.43e-01	0	44	104	526909440	25	14501
2026-01-27 11:35:09.33	15.91	40.48	-31.3	-43.3	3.8	7.45e-01	0	44	104	526909440	24	14316
2026-01-27 11:35:10.34	15.53	40.24	-31.2	-43.4	3.8	7.44e-01	0	44	104	526909440	24	14761
2026-01-27 11:35:11.35	15.15	40.01	-31.0	-42.8	3.8	7.45e-01	0	44	104	526909440	24	13951
2026-01-27 11:35:12.35	14.79	39.78	-31.0	-42.7	3.8	7.44e-01	0	44	104	526909440	24	13804
2026-01-27 11:35:13.36	14.43	39.54	-31.1	-43.2	3.8	7.44e-01	0	44	104	526909440	24	14435
2026-01-27 11:35:14.36	14.07	39.31	-31.1	-42.9	3.8	7.47e-01	0	44	104	526909440	24	14006
2026-01-27 11:35:15.37	13.72	39.08	-31.0	-42.3	3.8	7.41e-01	0	44	104	526909440	24	13280
2026-01-27 11:35:16.37	13.37	38.85	-31.1	-43.0	3.8	7.44e-01	0	44	104	526909440	24	14268
2026-01-27 11:35:17.38	13.03	38.62	-31.2	-43.5	3.8	7.45e-01	0	44	104	526909440	24	14822
2026-01-27 11:35:18.38	12.70	38.39	-31.3	-43.1	3.8	7.45e-01	0	44	104	526909440	24	14110
2026-01-27 11:35:19.38	12.37	38.16	-31.4	-43.6	3.8	7.43e-01	0	44	104	526909440	24	14690
2026-01-27 11:35:20.39	12.04	37.93	-31.8	-45.1	3.8	7.42e-01	0	44	104	526909440	24	16642
2026-01-27 11:35:21.40	11.72	37.70	-32.1	-45.8	3.8	7.46e-01	0	44	104	526909440	24	17548
2026-01-27 11:35:22.40	11.40	37.47	-32.3	-45.5	3.8	7.43e-01	0	44	104	526909440	25	16489
2026-01-27 11:35:23.41	11.09	37.24	-32.7	-46.3	3.8	7.45e-01	0	44	104	526909440	26	17266
2026-01-27 11:35:24.42	10.78	37.01	-33.2	-47.7	3.8	7.45e-01	0	44	104	526909440	27	19293
2026-01-27 11:35:25.43	10.47	36.79	-33.4	-48.4	3.8	7.47e-01	0	44	104	526909440	27	20240
2026-01-27 11:35:26.44	10.17	36.56	-33.4	-48.4	3.8	7.47e-01	0	44	104	526909440	27	20096
2026-01-27 11:35:27.44	9.88	36.34	-33.5	-48.9	3.8	7.46e-01	0	44	104	526909440	27	21160
2026-01-27 11:35:28.44	9.59	36.12	-33.6	-48.9	3.8	7.45e-01	0	44	104	526909440	28	20970
2026-01-27 11:35:29.45	9.30	35.89	-33.7	-49.0	3.8	7.43e-01	0	44	104	526909440	28	21003
2026-01-27 11:35:30.45	9.02	35.67	-33.8	-49.3	3.8	7.46e-01	0	44	104	526909440	28	21546
2026-01-27 11:35:31.46	8.74	35.45	-33.9	-50.3	3.8	7.45e-01	0	44	104	526909440	28	23631
2026-01-27 11:35:32.46	8.47	35.23	-34.0	-51.0	3.8	7.43e-01	0	44	104	526909440	28	25428
2026-01-27 11:35:33.46	8.20	35.01	-34.1	-50.6	3.8	7.43e-01	0	44	104	526909440	29	24147
2026-01-27 11:35:34.46	7.93	34.79	-34.1	-50.5	3.8	7.44e-01	0	44	104	526909440	29	23657
2026-01-27 11:35:35.46	7.67	34.58	-34.2	-50.7	3.8	7.45e-01	0	44	104	526909440	29	24226
2026-01-27 11:35:36.47	7.41	34.36	-34.2	-51.0	3.8	7.44e-01	0	44	104	526909440	29	24880
2026-01-27 11:35:37.48	7.15	34.14	-34.2	-51.0	3.8	7.47e-01	0	44	104	526909440	29	25004
2026-01-27 11:35:38.48	6.90	33.93	-34.3	-51.3	3.8	7.46e-01	0	44	104	526909440	29	25527
2026-01-27 11:35:39.48	6.65	33.72	-34.3	-51.3	3.8	7.49e-01	0	44	104	526909440	29	25662
2026-01-27 11:35:40.49	6.40	33.50	-34.1	-50.9	3.8	7.44e-01	0	44	104	526909440	29	24847
2026-01-27 11:35:41.50	6.16	33.29	-34.0	-50.5	3.8	7.43e-01	0	44	104	526909440	29	23961
2026-01-27 11:35:42.50	5.92	33.08	-33.9	-49.9	3.8	7.44e-01	0	44	104	526909440	29	22542
2026-01-27 11:35:43.51	5.68	32.87	-33.8	-49.4	3.8	7.41e-01	0	44	104	526909440	29	21611
2026-01-27 11:35:44.51	5.45	32.66	-33.8	-49.1	3.8	7.43e-01	0	44	104	526909440	29	21106
2026-01-27 11:35:45.52	5.22	32.45	-33.6	-48.7	3.8	7.43e-01	0	44	104	526909440	29	20373
2026-01-27 11:35:46.52	4.99	32.25	-33.4	-47.8	3.8	7.44e-01	0	44	104	526909440	29	18911
2026-01-27 11:35:47.53	4.77	32.04	-33.2	-47.2	3.8	7.46e-01	0	44	104	526909440	28	18074
2026-01-27 11:35:48.54	4.55	31.84	-32.9	-46.6	3.8	7.47e-01	0	44	104	526909440	27	17424
2026-01-27 11:35:49.55	4.33	31.63	-32.6	-45.7	3.8	7.42e-01	0	44	104	526909440	27	16231
2026-01-27 11:35:50.55	4.11	31.43	-32.3	-45.4	3.8	7.43e-01	0	44	104	526909440	26	16334
2026-01-27 11:35:51.55	3.90	31.23	-32.0	-44.6	3.8	7.44e-01	0	44	104	526909440	26	15412
2026-01-27 11:35:52.56	3.69	31.03	-31.8	-44.5	3.8	7.45e-01	0	44	104	526909440	25	15534
2026-01-27 11:35:53.56	3.49	30.83	-31.6	-43.8	3.8	7.39e-01	0	44	104	526909440	25	14794
2026-01-27 11:35:54.57	3.28	30.63	-31.4	-43.5	3.8	7.43e-01	0	44	104	526909440	25	14381
2026-01-27 11:35:55.57	3.08	30.43	-31.4	-43.4	3.8	7.45e-01	0	44	104	526909440	25	14342
2026-01-27 11:35:56.58	2.88	30.24	-31.1	-43.3	3.8	7.44e-01	0	44	104	526909440	24	14540
2026-01-27 11:35:57.59	2.68	30.04	-30.7	-42.6	3.8	7.44e-01	0	44	104	526909440	23	14235
2026-01-27 11:35:58.59	2.49	29.85	-30.4	-42.1	3.8	7.44e-01	0	44	104	526909440	22	13969
2026-01-27 11:35:59.60	2.29	29.65	-30.1	-41.4	3.9	7.43e-01	0	44	104	526909440	22	13320
2026-01-27 11:36:00.60	2.11	29.46	-30.1	-41.6	3.8	7.45e-01	0	44	104	526909440	22	13521
2026-01-27 11:36:01.61	1.92	29.27	-30.4	-42.6	3.9	7.45e-01	0	44	104	526909440	22	14512
2026-01-27 11:36:02.61	1.73	29.08	-30.6	-43.2	3.8	7.46e-01	0	44	104	526909440	22	15212
2026-01-27 11:36:03.62	1.55	28.89	-30.8	-43.5	3.8	7.42e-01	0	44	104	526909440	22	15549
2026-01-27 11:36:04.62	1.37	28.71	-30.8	-43.4	3.8	7.45e-01	0	44	104	526909440	22	15396
2026-01-27 11:36:05.62	1.19	28.52	-30.7	-43.0	3.8	7.47e-01	0	44	104	526909440	22	14835
2026-01-27 11:36:06.63	1.02	28.33	-30.7	-43.0	3.8	7.44e-01	0	44	104	526909440	22	14911
2026-01-27 11:36:07.63	0.85	28.15	-30.8	-43.4	3.8	7.42e-01	0	44	104	526909440	22	15387
2026-01-27 11:36:08.64	0.67	27.96	-31.1	-44.2	3.8	7.45e-01	0	44	104	526909440	22	16337
2026-01-27 11:36:09.64	0.50	27.78	-31.5	-44.7	3.8	7.44e-01	0	44	104	526909440	23	16588
2026-01-27 11:36:10.65	0.34	27.60	-31.9	-45.5	3.8	7.46e-01	0	44	104	526909440	24	17138
2026-01-27 11:36:11.65	0.17	27.42	-32.4	-46.2	3.8	7.45e-01	0	44	104	526909440	25	17760
2026-01-27 11:36:12.65	0.01	27.24	-32.8	-47.1	3.8	7.44e-01	0	44	104	526909440	26	18605
2026-01-27 11:36:13.65	359.85	27.06	-33.2	-47.8	3.8	7.47e-01	0	44	104	526909440	27	19338
2026-01-27 11:36:14.65	359.69	26.89	-33.4	-48.7	3.8	7.49e-01	0	44	104	526909440	27	20955
2026-01-27 11:36:15.65	359.53	26.71	-33.5	-49.2	3.8	7.50e-01	0	44	104	526909440	27	21840
2026-01-27 11:36:16.66	359.37	26.54	-33.5	-49.3	3.8	7.47e-01	0	44	104	526909440	27	21988
2026-01-27 11:36:17.66	359.22	26.36	-33.5	-49.0	3.8	7.43e-01	0	44	104	526909440	28	21283
2026-01-27 11:36:18.66	359.07	26.19	-33.6	-49.3	3.8	7.44e-01	0	44	104	526909440	28	21980
2026-01-27 11:36:19.67	358.92	26.02	-33.7	-49.8	3.8	7.46e-01	0	44	104	526909440	28	23053
2026-01-27 11:36:20.68	358.77	25.84	-33.8	-50.3	3.8	7.44e-01	0	44	104	526909440	28	24010
2026-01-27 11:36:21.68	358.62	25.67	-33.9	-50.6	3.8	7.43e-01	0	44	104	526909440	28	24815
2026-01-27 11:36:22.67	358.48	25.51	-33.9	-50.8	3.8	7.44e-01	0	44	104	526909440	28	25251
2026-01-27 11:36:23.68	358.33	25.34	-34.0	-51.1	3.8	7.44e-01	0	44	104	526909440	28	25712
2026-01-27 11:36:24.68	358.19	25.17	-34.0	-50.9	3.8	7.48e-01	0	44	104	526909440	28	25293
2026-01-27 11:36:25.68	358.05	25.01	-33.9	-50.6	3.8	7.48e-01	0	44	104	526909440	28	24630
2026-01-27 11:36:26.69	357.91	24.84	-33.8	-50.3	3.8	7.45e-01	0	44	104	526909440	28	23957
2026-01-27 11:36:27.70	357.77	24.67	-33.9	-50.6	3.8	7.45e-01	0	44	104	526909440	28	24626
2026-01-27 11:36:28.70	357.64	24.51	-34.0	-51.2	3.8	7.49e-01	0	44	104	526909440	28	26048
2026-01-27 11:36:29.71	357.50	24.35	-33.9	-51.0	3.8	7.48e-01	0	44	104	526909440	28	25632
2026-01-27 11:36:30.72	357.37	24.18	-33.8	-50.4	3.8	7.44e-01	0	44	104	526909440	28	24353
2026-01-27 11:36:31.72	357.24	24.02	-33.8	-50.0	3.8	7.45e-01	0	44	104	526909440	28	23268
2026-01-27 11:36:32.73	357.11	23.86	-33.7	-49.6	3.8	7.44e-01	0	44	104	526909440	28	22489
2026-01-27 11:36:33.73	356.98	23.70	-33.6	-49.1	3.8	7.47e-01	0	44	104	526909440	28	21616
2026-01-27 11:36:34.73	356.85	23.55	-33.4	-48.6	3.8	7.47e-01	0	44	104	526909440	28	20719
2026-01-27 11:36:35.73	356.73	23.39	-33.2	-48.0	3.8	7.49e-01	0	44	104	526909440	28	19604
2026-01-27 11:36:36.73	356.60	23.23	-33.0	-47.1	3.8	7.49e-01	0	44	104	526909440	28	18211
2026-01-27 11:36:37.74	356.48	23.08	-32.8	-46.8	3.8	7.45e-01	0	44	104	526909440	27	18033
2026-01-27 11:36:38.75	356.36	22.92	-32.5	-45.8	3.8	7.47e-01	0	44	104	526909440	27	16701
2026-01-27 11:36:39.76	356.24	22.77	-32.2	-45.3	3.8	7.47e-01	0	44	104	526909440	26	16294
2026-01-27 11:36:40.76	356.12	22.61	-31.9	-44.4	3.8	7.42e-01	0	44	104	526909440	26	15164
2026-01-27 11:36:41.77	356.00	22.46	-31.6	-44.1	3.8	7.46e-01	0	44	104	526909440	25	15158
2026-01-27 11:36:42.77	355.88	22.31	-31.5	-43.7	3.8	7.44e-01	0	44	104	526909440	25	14673
2026-01-27 11:36:43.77	355.77	22.16	-31.3	-43.8	3.8	7.45e-01	0	44	104	526909440	24	15194
2026-01-27 11:36:44.77	355.65	22.01	-31.3	-43.7	3.8	7.44e-01	0	44	104	526909440	24	15045
2026-01-27 11:36:45.78	355.54	21.86	-31.3	-43.8	3.8	7.49e-01	0	44	104	526909440	24	15131
2026-01-27 11:36:46.79	355.43	21.71	-31.1	-43.3	3.8	7.45e-01	0	44	104	526909440	24	14601
2026-01-27 11:36:47.79	355.32	21.57	-30.8	-43.0	3.8	7.48e-01	0	44	104	526909440	23	14579
2026-01-27 11:36:48.80	355.21	21.42	-30.9	-43.2	3.8	7.45e-01	0	44	104	526909440	23	14820
2026-01-27 11:36:49.80	355.10	21.28	-31.2	-44.0	3.8	7.43e-01	0	44	104	526909440	23	15657
2026-01-27 11:36:50.80	354.99	21.13	-31.6	-45.0	3.8	7.46e-01	0	44	104	526909440	23	16796
2026-01-27 11:36:51.81	354.88	20.99	-32.0	-45.6	3.8	7.46e-01	0	44	104	526909440	24	17304
2026-01-27 11:36:52.81	354.78	20.84	-32.2	-45.7	3.8	7.44e-01	0	44	104	526909440	25	17120
2026-01-27 11:36:53.82	354.67	20.70	-32.3	-46.1	3.8	7.43e-01	0	44	104	526909440	25	17679
2026-01-27 11:36:54.83	354.57	20.56	-32.2	-45.9	3.8	7.42e-01	0	44	104	526909440	25	17464
2026-01-27 11:36:55.83	354.47	20.42	-32.1	-45.7	3.8	7.46e-01	0	44	104	526909440	25	17170
2026-01-27 11:36:56.83	354.37	20.28	-32.1	-45.5	3.8	7.42e-01	0	44	104	526909440	25	16908
2026-01-27 11:36:57.84	354.27	20.14	-32.1	-45.6	3.8	7.44e-01	0	44	104	526909440	25	17076
2026-01-27 11:36:58.85	354.17	20.00	-32.4	-46.6	3.8	7.45e-01	0	44	104	526909440	25	18383
2026-01-27 11:36:59.85	354.07	19.86	-32.8	-47.2	3.8	7.46e-01	0	44	104	526909440	26	18963
2026-01-27 11:37:00.86	353.97	19.73	-33.1	-48.3	3.8	7.43e-01	0	44	104	526909440	26	20831
2026-01-27 11:37:01.86	353.87	19.59	-33.4	-49.0	3.8	7.44e-01	0	44	104	526909440	27	21600
2026-01-27 11:37:02.86	353.78	19.46	-33.6	-49.6	3.8	7.41e-01	0	44	104	526909440	27	22894
2026-01-27 11:37:03.86	353.69	19.32	-33.6	-49.6	3.8	7.41e-01	0	44	104	526909440	28	22590
2026-01-27 11:37:04.86	353.59	19.19	-33.6	-49.8	3.8	7.44e-01	0	44	104	526909440	28	23129
2026-01-27 11:37:05.87	353.50	19.05	-33.6	-49.8	3.8	7.47e-01	0	44	104	526909440	28	23065
2026-01-27 11:37:06.88	353.41	18.92	-33.6	-49.8	3.8	7.43e-01	0	44	104	526909440	28	23067
2026-01-27 11:37:07.88	353.32	18.79	-33.7	-49.9	3.8	7.42e-01	0	44	104	526909440	28	23290
2026-01-27 11:37:08.89	353.23	18.66	-33.7	-50.1	3.8	7.45e-01	0	44	104	526909440	28	23698
2026-01-27 11:37:09.89	353.14	18.53	-33.7	-50.4	3.8	7.46e-01	0	44	104	526909440	28	24464
2026-01-27 11:37:10.90	353.05	18.40	-33.8	-50.8	3.8	7.45e-01	0	44	104	526909440	28	25443
2026-01-27 11:37:11.90	352.96	18.27	-33.9	-51.1	3.8	7.45e-01	0	44	104	526909440	28	26217
2026-01-27 11:37:12.91	352.87	18.14	-33.8	-50.9	3.8	7.49e-01	0	44	104	526909440	28	25778
2026-01-27 11:37:13.91	352.79	18.01	-33.8	-50.7	3.8	7.41e-01	0	44	104	526909440	28	25141
2026-01-27 11:37:14.92	352.70	17.88	-33.7	-50.4	3.8	7.45e-01	0	44	104	526909440	28	24440
2026-01-27 11:37:15.93	352.62	17.76	-33.6	-49.9	3.8	7.46e-01	0	44	104	526909440	28	23416
2026-01-27 11:37:16.93	352.53	17.63	-33.5	-49.4	3.8	7.41e-01	0	44	104	526909440	28	22385
2026-01-27 11:37:17.94	352.45	17.51	-33.6	-49.8	3.8	7.46e-01	0	44	104	526909440	28	23326
2026-01-27 11:37:18.95	352.37	17.38	-33.7	-50.4	3.8	7.46e-01	0	44	104	526909440	28	24608
2026-01-27 11:37:19.95	352.29	17.26	-33.6	-49.9	3.8	7.44e-01	0	44	104	526909440	28	23485
2026-01-27 11:37:20.96	352.21	17.13	-33.5	-49.4	3.8	7.41e-01	0	44	104	526909440	28	22370
2026-01-27 11:37:21.96	352.13	17.01	-33.4	-48.9	3.8	7.44e-01	0	44	104	526909440	28	21417
2026-01-27 11:37:22.97	352.05	16.89	-33.3	-48.5	3.8	7.44e-01	0	44	104	526909440	28	20683
2026-01-27 11:37:23.97	351.97	16.77	-33.1	-47.8	3.8	7.46e-01	0	44	104	526909440	28	19492
2026-01-27 11:37:24.97	351.89	16.65	-32.9	-47.5	3.8	7.45e-01	0	44	104	526909440	27	19256
2026-01-27 11:37:25.98	351.81	16.53	-32.6	-46.5	3.8	7.50e-01	0	44	104	526909440	27	17762
2026-01-27 11:37:26.98	351.74	16.41	-32.3	-46.0	3.8	7.44e-01	0	44	104	526909440	26	17306
2026-01-27 11:37:27.99	351.66	16.29	-32.0	-44.9	3.8	7.43e-01	0	44	104	526909440	26	15961
2026-01-27 11:37:28.99	351.59	16.17	-31.7	-44.4	3.9	7.42e-01	0	44	104	526909440	25	15603
2026-01-27 11:37:29.99	351.51	16.05	-31.4	-43.7	3.8	7.46e-01	0	44	104	526909440	25	14867
2026-01-27 11:37:30.99	351.44	15.94	-31.1	-43.5	3.8	7.43e-01	0	44	104	526909440	24	14929
2026-01-27 11:37:31.99	351.37	15.82	-31.0	-43.0	3.8	7.44e-01	0	44	104	526909440	24	14374
2026-01-27 11:37:33.00	351.29	15.70	-30.8	-43.1	3.8	7.43e-01	0	44	104	526909440	23	14790
2026-01-27 11:37:34.00	351.22	15.59	-30.8	-43.0	3.8	7.45e-01	0	44	104	526909440	23	14662
2026-01-27 11:37:35.00	351.15	15.47	-30.8	-42.9	3.8	7.46e-01	0	44	104	526909440	23	14521
2026-01-27 11:37:36.00	351.08	15.36	-30.9	-43.2	3.8	7.41e-01	0	44	104	526909440	23	14809
2026-01-27 11:37:37.01	351.01	15.24	-31.1	-43.9	3.8	7.46e-01	0	44	104	526909440	23	15637
2026-01-27 11:37:38.02	350.94	15.13	-31.4	-44.6	3.8	7.46e-01	0	44	104	526909440	23	16508
2026-01-27 11:37:39.02	350.87	15.02	-31.8	-45.3	3.8	7.45e-01	0	44	104	526909440	24	17029
2026-01-27 11:37:40.03	350.80	14.91	-32.2	-45.9	3.8	7.45e-01	0	44	104	526909440	25	17539
2026-01-27 11:37:41.02	350.74	14.80	-32.5	-47.1	3.8	7.42e-01	0	44	104	526909440	25	19295
2026-01-27 11:37:42.02	350.67	14.68	-32.9	-47.8	3.8	7.44e-01	0	44	104	526909440	26	20150
2026-01-27 11:37:43.03	350.60	14.57	-33.0	-48.2	3.8	7.38e-01	0	44	104	526909440	26	20706
2026-01-27 11:37:44.04	350.54	14.46	-33.1	-48.7	3.8	7.44e-01	0	44	104	526909440	26	21629
2026-01-27 11:37:45.04	350.47	14.35	-33.0	-48.5	3.8	7.46e-01	0	44	104	526909440	26	21254
2026-01-27 11:37:46.04	350.41	14.24	-32.9	-47.9	3.8	7.42e-01	0	44	104	526909440	26	20299
2026-01-27 11:37:47.05	350.34	14.13	-32.9	-47.9	3.8	7.45e-01	0	44	104	526909440	26	20251
2026-01-27 11:37:48.06	350.28	14.03	-32.8	-47.7	3.8	7.46e-01	0	44	104	526909440	26	19938
2026-01-27 11:37:49.06	350.22	13.92	-33.1	-48.8	3.8	7.42e-01	0	44	104	526909440	26	21979
2026-01-27 11:37:50.07	350.15	13.81	-33.3	-49.1	3.8	7.45e-01	0	44	104	526909440	27	22214
2026-01-27 11:37:51.08	350.09	13.70	-33.4	-49.7	3.8	7.47e-01	0	44	104	526909440	27	23327
2026-01-27 11:37:52.08	350.03	13.60	-33.5	-50.0	3.8	7.44e-01	0	44	104	526909440	27	23960
2026-01-27 11:37:53.08	349.97	13.49	-33.6	-50.2	3.8	7.43e-01	0	44	104	526909440	27	24462
2026-01-27 11:37:54.09	349.91	13.39	-33.6	-50.3	3.8	7.43e-01	0	44	104	526909440	27	24712
2026-01-27 11:37:55.09	349.85	13.28	-33.5	-50.2	3.8	7.43e-01	0	44	104	526909440	27	24619
2026-01-27 11:37:56.10	349.79	13.18	-33.5	-50.2	3.8	7.47e-01	0	44	104	526909440	27	24527
2026-01-27 11:37:57.10	349.73	13.07	-33.5	-50.3	3.8	7.44e-01	0	44	104	526909440	27	24772
2026-01-27 11:37:58.10	349.67	12.97	-33.5	-50.5	3.8	7.46e-01	0	44	104	526909440	27	25222
2026-01-27 11:37:59.11	349.61	12.87	-33.6	-50.7	3.8	7.46e-01	0	44	104	526909440	27	25862
2026-01-27 11:38:00.12	349.55	12.77	-33.6	-50.5	3.8	7.47e-01	0	44	104	526909440	28	25274
2026-01-27 11:38:01.12	349.49	12.66	-33.6	-50.9	3.8	7.43e-01	0	44	104	526909440	28	26118
2026-01-27 11:38:02.13	349.44	12.56	-33.6	-50.6	3.8	7.44e-01	0	44	104	526909440	28	25494
2026-01-27 11:38:03.14	349.38	12.46	-33.5	-50.3	3.8	7.43e-01	0	44	104	526909440	28	24905
2026-01-27 11:38:04.14	349.32	12.36	-33.4	-49.9	3.8	7.42e-01	0	44	104	526909440	28	23986
2026-01-27 11:38:05.14	349.27	12.26	-33.3	-49.5	3.8	7.48e-01	0	44	104	526909440	28	23074
2026-01-27 11:38:06.14	349.21	12.16	-33.2	-48.9	3.8	7.45e-01	0	44	104	526909440	28	21980
2026-01-27 11:38:07.14	349.16	12.06	-33.1	-48.3	3.8	7.42e-01	0	44	104	526909440	28	20738
2026-01-27 11:38:08.14	349.11	11.96	-33.2	-48.9	3.8	7.43e-01	0	44	104	526909440	28	21845
2026-01-27 11:38:09.15	349.05	11.86	-33.3	-49.4	3.8	7.44e-01	0	44	104	526909440	28	22834
2026-01-27 11:38:10.15	349.00	11.77	-33.2	-48.8	3.8	7.44e-01	0	44	104	526909440	28	21644
2026-01-27 11:38:11.15	348.95	11.67	-33.0	-48.1	3.8	7.46e-01	0	44	104	526909440	28	20461
2026-01-27 11:38:12.16	348.89	11.57	-32.9	-47.6	3.8	7.47e-01	0	44	104	526909440	28	19448
2026-01-27 11:38:13.17	348.84	11.47	-32.8	-47.7	3.8	7.41e-01	0	44	104	526909440	27	19827
2026-01-27 11:38:14.17	348.79	11.38	-32.6	-46.8	3.8	7.45e-01	0	44	104	526909440	27	18370
2026-01-27 11:38:15.17	348.74	11.28	-32.3	-46.1	3.8	7.47e-01	0	44	104	526909440	26	17755
2026-01-27 11:38:16.18	348.69	11.18	-32.0	-45.3	3.8	7.46e-01	0	44	104	526909440	26	16539
2026-01-27 11:38:17.19	348.63	11.09	-31.7	-44.8	3.8	7.43e-01	0	44	104	526909440	25	16179
2026-01-27 11:38:18.19	348.58	10.99	-31.5	-44.2	3.8	7.46e-01	0	44	104	526909440	25	15487
2026-01-27 11:38:19.20	348.53	10.90	-31.8	-45.0	3.8	7.45e-01	0	44	104	526909440	25	16494
2026-01-27 11:38:20.21	348.48	10.80	-32.0	-45.7	3.8	7.43e-01	0	44	104	526909440	25	17401
2026-01-27 11:38:21.22	348.43	10.71	-31.9	-45.3	3.8	7.47e-01	0	44	104	526909440	25	16908
2026-01-27 11:38:22.22	348.39	10.62	-31.8	-45.0	3.8	7.45e-01	0	44	104	526909440	25	16468
2026-01-27 11:38:23.23	348.34	10.52	-31.7	-44.7	3.8	7.45e-01	0	44	104	526909440	25	16123
2026-01-27 11:38:24.23	348.29	10.43	-31.7	-44.9	3.8	7.48e-01	0	44	104	526909440	25	16347
2026-01-27 11:38:25.23	348.24	10.34	-31.8	-45.0	3.8	7.46e-01	0	44	104	526909440	25	16529
2026-01-27 11:38:26.24	348.19	10.25	-31.8	-45.3	3.8	7.45e-01	0	44	104	526909440	25	16895
2026-01-27 11:38:27.24	348.15	10.16	-32.2	-46.4	3.8	7.43e-01	0	44	104	526909440	25	18468
2026-01-27 11:38:28.24	348.10	10.06	-32.5	-47.5	3.8	7.44e-01	0	44	104	526909440	25	20230
2026-01-27 11:38:29.25	348.05	9.97	-32.7	-48.0	3.8	7.43e-01	0	44	104	526909440	26	20852
2026-01-27 11:38:30.25	348.01	9.88	-33.0	-48.9	3.8	7.45e-01	0	44	104	526909440	26	22592
2026-01-27 11:38:31.26	347.96	9.79	-33.2	-49.3	3.8	7.46e-01	0	44	104	526909440	27	23101
2026-01-27 11:38:32.26	347.92	9.70	-33.3	-49.9	3.8	7.46e-01	0	44	104	526909440	27	24149
2026-01-27 11:38:33.27	347.87	9.61	-33.4	-50.2	3.8	7.42e-01	0	44	104	526909440	27	24951
2026-01-27 11:38:34.28	347.83	9.52	-33.4	-50.4	3.8	7.43e-01	0	44	104	526909440	27	25461
2026-01-27 11:38:35.28	347.78	9.44	-33.3	-50.0	3.8	7.46e-01	0	44	104	526909440	27	24623
2026-01-27 11:38:36.29	347.74	9.35	-33.2	-49.7	3.8	7.43e-01	0	44	104	526909440	27	23811
2026-01-27 11:38:37.29	347.69	9.26	-33.2	-49.5	3.8	7.44e-01	0	44	104	526909440	27	23496
2026-01-27 11:38:38.30	347.65	9.17	-33.2	-49.6	3.8	7.46e-01	0	44	104	526909440	27	23892
2026-01-27 11:38:39.31	347.61	9.08	-33.3	-49.9	3.8	7.47e-01	0	44	104	526909440	27	24541
2026-01-27 11:38:40.31	347.56	9.00	-33.3	-50.1	3.8	7.45e-01	0	44	104	526909440	27	24837
2026-01-27 11:38:41.32	347.52	8.91	-33.3	-50.1	3.8	7.46e-01	0	44	104	526909440	27	24934
2026-01-27 11:38:42.32	347.48	8.82	-33.3	-50.2	3.8	7.44e-01	0	44	104	526909440	27	25162
2026-01-27 11:38:43.33	347.44	8.74	-33.3	-50.3	3.8	7.46e-01	0	44	104	526909440	27	25249
2026-01-27 11:38:44.33	347.40	8.65	-33.3	-50.1	3.8	7.46e-01	0	44	104	526909440	27	24847
2026-01-27 11:38:45.33	347.35	8.56	-33.3	-49.9	3.8	7.46e-01	0	44	104	526909440	27	24483
2026-01-27 11:38:46.34	347.31	8.48	-33.3	-49.9	3.8	7.44e-01	0	44	104	526909440	27	24462
2026-01-27 11:38:47.34	347.27	8.39	-33.3	-50.1	3.8	7.47e-01	0	44	104	526909440	27	24823
2026-01-27 11:38:48.35	347.23	8.31	-33.3	-50.1	3.8	7.46e-01	0	44	104	526909440	27	25020
2026-01-27 11:38:49.36	347.19	8.22	-33.3	-50.4	3.8	7.48e-01	0	44	104	526909440	27	25634
2026-01-27 11:38:50.36	347.15	8.14	-33.4	-50.6	3.8	7.47e-01	0	44	104	526909440	27	26222
2026-01-27 11:38:51.36	347.11	8.06	-33.4	-50.7	3.8	7.46e-01	0	44	104	526909440	27	26606
2026-01-27 11:38:52.37	347.07	7.97	-33.3	-50.4	3.8	7.47e-01	0	44	104	526909440	27	25774
2026-01-27 11:38:53.38	347.03	7.89	-33.2	-50.1	3.8	7.43e-01	0	44	104	526909440	27	25035
2026-01-27 11:38:54.38	346.99	7.81	-33.2	-49.6	3.8	7.45e-01	0	44	104	526909440	27	23956
2026-01-27 11:38:55.39	346.96	7.72	-33.0	-49.1	3.8	7.47e-01	0	44	104	526909440	27	22803
2026-01-27 11:38:56.39	346.92	7.64	-32.9	-48.4	3.8	7.47e-01	0	44	104	526909440	27	21430
2026-01-27 11:38:57.39	346.88	7.56	-32.8	-48.0	3.8	7.45e-01	0	44	104	526909440	27	20767
2026-01-27 11:38:58.40	346.84	7.48	-32.9	-48.5	3.8	7.45e-01	0	44	104	526909440	27	21677
2026-01-27 11:38:59.40	346.80	7.40	-32.9	-48.8	3.8	7.45e-01	0	44	104	526909440	27	22261
2026-01-27 11:39:00.41	346.77	7.32	-32.8	-48.2	3.8	7.41e-01	0	44	104	526909440	27	21234
2026-01-27 11:39:01.41	346.73	7.23	-32.7	-47.6	3.8	7.42e-01	0	44	104	526909440	27	20185
2026-01-27 11:39:02.41	346.69	7.15	-32.5	-46.9	3.8	7.45e-01	0	44	104	526909440	27	18971
2026-01-27 11:39:03.42	346.66	7.07	-33.4	-50.4	3.8	7.45e-01	0	44	104	526909440	27	25589
2026-01-27 11:39:04.42	346.62	6.99	-34.0	-53.0	3.8	7.45e-01	0	44	104	526909440	28	32145

#Closed at: 2026-01-27 11:39:04
#Recorded file [526 MB]: D:/data/31010_260127_142849.dat