passes_logs/2026/01/27/R2M6_AANII_01/R2M6_AANII_01__20260127_100220_FENGYUN_3D_rec.log

#Pass ID: 20260127_100220_FENGYUN 3D
#Satellite: FENGYUN 3D
#Configuration: FENGYUN 3D
#almurnet v.1.7.20240730
#Start time: 2026-01-27 10:02:20

#Version: 2.2.20231116
#Station: R2M6_AANII_01
#Location: 30.233357 lon 59.946436 lat
#TLE: 1 43010U 17072A   26026.91415486  .00000072  00000+0  55983-4 0  9991
#TLE: 2 43010  98.9962 358.9161 0002508  89.0320 271.1142 14.19700283424949

#Time	Az	El	Level	Level2	SNR	BER	BlckErr	Temp	State	Recorded	gain1	gain2
2026-01-27 10:02:20.20	87.41	6.96	-30.9	-34.1	5.1	7.94e-01	0	44	0	0	23	5259
2026-01-27 10:02:21.20	87.30	7.02	-29.4	-31.5	5.5	7.63e-01	0	43	104	0	20	4567
2026-01-27 10:02:22.21	87.19	7.08	-29.4	-31.8	11.2	2.02e-03	0	43	0	0	19	4792
2026-01-27 10:02:23.20	87.08	7.13	-29.4	-32.0	11.1	2.29e-03	0	43	0	5242880	19	4848
2026-01-27 10:02:24.21	86.97	7.19	-29.3	-31.7	11.3	1.52e-03	0	44	0	11534336	19	4736
2026-01-27 10:02:25.21	86.86	7.25	-29.4	-31.9	11.1	1.86e-03	0	43	0	16777216	19	4813
2026-01-27 10:02:26.22	86.75	7.31	-29.3	-31.7	11.3	1.83e-03	0	44	0	22020096	19	4736
2026-01-27 10:02:27.22	86.64	7.37	-29.3	-31.7	11.3	1.79e-03	0	43	0	28311552	19	4722
2026-01-27 10:02:28.22	86.53	7.42	-28.9	-30.7	12.0	8.98e-04	0	44	0	33554432	19	4416
2026-01-27 10:02:29.23	86.42	7.48	-28.5	-30.2	12.6	2.10e-04	0	44	0	38797312	18	4371
2026-01-27 10:02:30.24	86.31	7.54	-28.2	-29.9	13.0	8.58e-05	0	44	0	45088768	17	4388
2026-01-27 10:02:31.25	86.19	7.60	-27.8	-29.1	13.5	1.60e-05	0	43	0	50331648	17	4156
2026-01-27 10:02:32.25	86.08	7.66	-27.7	-29.3	13.7	1.14e-05	0	44	0	56623104	16	4329
2026-01-27 10:02:33.26	85.97	7.72	-27.7	-29.3	13.7	6.80e-06	0	43	0	61865984	16	4330
2026-01-27 10:02:34.25	85.86	7.78	-27.7	-29.2	13.8	1.02e-05	0	44	0	67108864	16	4282
2026-01-27 10:02:35.25	85.74	7.83	-27.8	-29.4	13.7	9.10e-06	0	44	0	73400320	16	4363
2026-01-27 10:02:36.26	85.63	7.89	-27.7	-29.3	13.7	1.25e-05	0	44	0	78643200	16	4328
2026-01-27 10:02:37.26	85.51	7.95	-27.7	-29.4	13.7	6.80e-06	0	44	0	84934656	16	4341
2026-01-27 10:02:38.26	85.40	8.01	-27.6	-29.1	13.9	1.02e-05	0	44	0	90177536	16	4277
2026-01-27 10:02:39.26	85.28	8.07	-27.7	-29.2	13.8	1.37e-05	0	44	0	95420416	16	4305
2026-01-27 10:02:40.27	85.16	8.13	-27.7	-29.3	13.8	8.00e-06	0	44	0	101711872	16	4312
2026-01-27 10:02:41.27	85.05	8.19	-27.7	-29.3	13.8	9.10e-06	0	44	0	106954752	16	4315
2026-01-27 10:02:42.27	84.93	8.24	-28.0	-29.9	13.4	1.37e-05	0	44	0	112197632	16	4500
2026-01-27 10:02:43.27	84.81	8.30	-27.8	-29.4	13.7	1.14e-05	0	44	0	118489088	16	4357
2026-01-27 10:02:44.28	84.69	8.36	-27.8	-29.5	13.7	1.02e-05	0	44	0	123731968	16	4371
2026-01-27 10:02:45.28	84.57	8.42	-27.7	-29.3	13.8	1.02e-05	0	43	0	128974848	16	4321
2026-01-27 10:02:46.29	84.45	8.48	-27.9	-29.6	13.6	1.48e-05	0	44	0	135266304	16	4420
2026-01-27 10:02:47.29	84.33	8.54	-28.0	-29.9	13.4	2.51e-05	0	44	0	140509184	16	4483
2026-01-27 10:02:48.29	84.21	8.60	-27.7	-29.2	13.8	9.10e-06	0	44	0	146800640	16	4292
2026-01-27 10:02:49.29	84.09	8.66	-27.5	-28.9	14.0	5.70e-06	0	44	0	152043520	16	4203
2026-01-27 10:02:50.30	83.97	8.72	-27.6	-29.1	13.9	2.20e-06	0	44	0	157286400	16	4252
2026-01-27 10:02:51.30	83.85	8.77	-27.6	-29.0	13.9	8.00e-06	0	44	0	163577856	16	4241
2026-01-27 10:02:52.30	83.73	8.83	-27.6	-28.9	14.1	3.40e-06	0	44	0	168820736	16	4211
2026-01-27 10:02:53.30	83.60	8.89	-27.6	-28.9	14.1	4.50e-06	0	44	0	175112192	16	4203
2026-01-27 10:02:54.30	83.48	8.95	-27.5	-28.7	14.2	4.50e-06	0	44	0	180355072	16	4140
2026-01-27 10:02:55.31	83.36	9.01	-27.3	-28.3	14.4	1.10e-06	0	44	0	185597952	16	4030
2026-01-27 10:02:56.31	83.23	9.07	-27.1	-28.3	14.5	1.10e-06	0	44	0	191889408	15	4162
2026-01-27 10:02:57.32	83.11	9.13	-27.1	-28.5	14.4	0.00e+00	0	44	0	197132288	15	4207
2026-01-27 10:02:58.32	82.98	9.19	-27.1	-28.5	14.4	0.00e+00	0	44	0	202375168	15	4194
2026-01-27 10:02:59.33	82.85	9.25	-27.0	-28.2	14.6	1.10e-06	0	44	0	208666624	15	4135
2026-01-27 10:03:00.33	82.73	9.30	-27.1	-28.4	14.5	0.00e+00	0	44	0	213909504	15	4188
2026-01-27 10:03:01.32	82.60	9.36	-26.9	-27.9	14.8	1.10e-06	0	44	0	220200960	15	4052
2026-01-27 10:03:02.33	82.47	9.42	-26.9	-28.0	14.8	0.00e+00	0	44	0	225443840	15	4072
2026-01-27 10:03:03.34	82.35	9.48	-27.0	-28.2	14.7	1.10e-06	0	44	0	230686720	15	4119
2026-01-27 10:03:04.35	82.22	9.54	-26.9	-27.9	14.8	0.00e+00	0	44	0	236978176	15	4049
2026-01-27 10:03:05.35	82.09	9.60	-26.8	-27.7	14.9	1.10e-06	0	44	0	242221056	15	3991
2026-01-27 10:03:06.35	81.96	9.66	-27.0	-28.6	14.7	0.00e+00	0	44	0	247463936	14	4331
2026-01-27 10:03:07.36	81.83	9.72	-26.9	-28.4	14.8	1.10e-06	0	44	0	253755392	14	4277
2026-01-27 10:03:08.37	81.70	9.78	-26.9	-28.5	14.8	1.10e-06	0	44	0	258998272	14	4323
2026-01-27 10:03:09.37	81.56	9.84	-27.1	-29.0	14.5	0.00e+00	0	44	0	265289728	14	4457
2026-01-27 10:03:10.38	81.43	9.89	-27.1	-29.0	14.5	0.00e+00	0	44	0	270532608	14	4446
2026-01-27 10:03:11.38	81.30	9.95	-27.2	-29.2	14.4	0.00e+00	0	44	0	275775488	14	4505
2026-01-27 10:03:12.39	81.17	10.01	-27.2	-29.2	14.3	1.10e-06	0	44	0	282066944	14	4525
2026-01-27 10:03:13.39	81.03	10.07	-27.0	-28.7	14.7	1.10e-06	0	44	0	287309824	14	4367
2026-01-27 10:03:14.40	80.90	10.13	-27.2	-29.1	14.4	0.00e+00	0	44	0	293601280	14	4480
2026-01-27 10:03:15.40	80.76	10.19	-27.1	-28.9	14.5	1.10e-06	0	44	0	298844160	14	4438
2026-01-27 10:03:16.40	80.63	10.25	-27.2	-29.2	14.4	1.10e-06	0	44	0	305135616	14	4516
2026-01-27 10:03:17.41	80.49	10.31	-27.2	-29.2	14.4	2.20e-06	0	44	0	310378496	14	4506
2026-01-27 10:03:18.41	80.36	10.37	-27.0	-28.7	14.7	2.20e-06	0	44	0	315621376	14	4367
2026-01-27 10:03:19.42	80.22	10.43	-26.9	-28.5	14.8	1.10e-06	0	44	0	321912832	14	4309
2026-01-27 10:03:20.42	80.08	10.48	-26.9	-28.4	14.8	0.00e+00	0	44	0	327155712	14	4294
2026-01-27 10:03:21.42	79.94	10.54	-26.9	-28.4	14.8	0.00e+00	0	44	0	332398592	14	4293
2026-01-27 10:03:22.42	79.81	10.60	-26.8	-28.2	15.0	1.10e-06	0	44	0	338690048	14	4241
2026-01-27 10:03:23.42	79.67	10.66	-27.0	-28.5	14.8	1.10e-06	0	44	0	343932928	14	4324
2026-01-27 10:03:24.43	79.53	10.72	-27.0	-28.6	14.7	2.20e-06	0	44	0	349175808	14	4354
2026-01-27 10:03:25.43	79.39	10.78	-26.9	-28.4	14.9	0.00e+00	0	44	0	355467264	14	4285
2026-01-27 10:03:26.43	79.25	10.84	-26.9	-28.4	14.9	0.00e+00	0	44	0	360710144	14	4274
2026-01-27 10:03:27.43	79.11	10.90	-26.8	-28.2	15.0	0.00e+00	0	44	0	367001600	14	4241
2026-01-27 10:03:28.43	78.96	10.95	-26.8	-28.2	15.0	1.10e-06	0	44	0	372244480	14	4217
2026-01-27 10:03:29.43	78.82	11.01	-26.8	-28.1	15.1	0.00e+00	0	44	0	377487360	14	4200
2026-01-27 10:03:30.43	78.68	11.07	-26.7	-28.0	15.1	0.00e+00	0	44	0	383778816	14	4186
2026-01-27 10:03:31.43	78.54	11.13	-26.7	-27.9	15.2	0.00e+00	0	44	0	389021696	14	4158
2026-01-27 10:03:32.43	78.39	11.19	-26.7	-27.9	15.2	0.00e+00	0	44	0	394264576	14	4149
2026-01-27 10:03:33.43	78.25	11.25	-26.6	-27.8	15.2	0.00e+00	0	44	0	400556032	14	4129
2026-01-27 10:03:34.44	78.10	11.30	-26.8	-28.1	15.1	0.00e+00	0	44	0	405798912	14	4193
2026-01-27 10:03:35.44	77.96	11.36	-26.8	-28.2	15.1	1.10e-06	0	44	0	411041792	14	4228
2026-01-27 10:03:36.44	77.81	11.42	-26.8	-28.1	15.1	0.00e+00	0	44	0	417333248	14	4201
2026-01-27 10:03:37.45	77.66	11.48	-26.8	-28.1	15.1	0.00e+00	0	44	0	422576128	14	4190
2026-01-27 10:03:38.45	77.51	11.54	-26.7	-27.9	15.2	0.00e+00	0	44	0	428867584	14	4143
2026-01-27 10:03:39.45	77.37	11.60	-26.8	-28.2	15.1	0.00e+00	0	44	0	434110464	14	4215
2026-01-27 10:03:40.45	77.22	11.65	-26.7	-28.0	15.1	0.00e+00	0	44	0	439353344	14	4169
2026-01-27 10:03:41.46	77.07	11.71	-26.6	-27.8	15.3	0.00e+00	0	44	0	445644800	14	4110
2026-01-27 10:03:42.46	76.92	11.77	-26.5	-27.5	15.4	0.00e+00	0	44	0	450887680	14	4047
2026-01-27 10:03:43.47	76.77	11.83	-26.5	-27.6	15.4	0.00e+00	0	44	0	457179136	14	4068
2026-01-27 10:03:44.47	76.61	11.89	-26.5	-27.5	15.4	0.00e+00	0	44	0	462422016	14	4054
2026-01-27 10:03:45.48	76.46	11.94	-26.5	-27.5	15.4	0.00e+00	0	44	0	467664896	14	4055
2026-01-27 10:03:46.48	76.31	12.00	-26.5	-27.5	15.4	0.00e+00	0	44	0	473956352	14	4053
2026-01-27 10:03:47.49	76.16	12.06	-26.5	-27.5	15.4	0.00e+00	0	44	0	479199232	14	4052
2026-01-27 10:03:48.49	76.00	12.12	-26.5	-27.5	15.5	0.00e+00	0	44	0	484442112	14	4039
2026-01-27 10:03:49.48	75.85	12.17	-26.4	-27.2	15.6	0.00e+00	0	44	0	490733568	14	3959
2026-01-27 10:03:50.49	75.69	12.23	-26.3	-27.1	15.7	0.00e+00	0	44	0	495976448	14	3946
2026-01-27 10:03:51.49	75.54	12.29	-26.4	-27.2	15.7	0.00e+00	0	44	0	502267904	14	3952
2026-01-27 10:03:52.50	75.38	12.35	-26.3	-27.1	15.7	0.00e+00	0	44	0	507510784	14	3941
2026-01-27 10:03:53.50	75.22	12.40	-26.5	-27.5	15.5	0.00e+00	0	44	0	513802240	14	4044
2026-01-27 10:03:54.51	75.07	12.46	-26.6	-27.7	15.3	0.00e+00	0	44	0	519045120	14	4102
2026-01-27 10:03:55.51	74.91	12.52	-26.6	-27.7	15.4	0.00e+00	0	44	0	524288000	14	4103
2026-01-27 10:03:56.52	74.75	12.58	-26.6	-27.8	15.3	0.00e+00	0	44	0	530579456	14	4105
2026-01-27 10:03:57.52	74.59	12.63	-26.7	-27.8	15.3	0.00e+00	0	44	0	535822336	14	4125
2026-01-27 10:03:58.53	74.43	12.69	-26.8	-28.1	15.2	0.00e+00	0	44	0	541065216	14	4204
2026-01-27 10:03:59.53	74.27	12.75	-26.7	-28.1	15.2	0.00e+00	0	44	0	547356672	14	4189
2026-01-27 10:04:00.53	74.11	12.80	-26.8	-28.3	15.1	0.00e+00	0	44	0	552599552	14	4243
2026-01-27 10:04:01.54	73.94	12.86	-26.8	-28.1	15.2	0.00e+00	0	44	0	557842432	14	4206
2026-01-27 10:04:02.53	73.78	12.92	-26.5	-27.4	15.5	0.00e+00	0	44	0	564133888	14	4028
2026-01-27 10:04:03.54	73.62	12.97	-26.3	-27.2	15.7	0.00e+00	0	44	0	569376768	14	3956
2026-01-27 10:04:04.54	73.46	13.03	-26.3	-27.5	15.8	0.00e+00	0	44	0	575668224	13	4153
2026-01-27 10:04:05.55	73.29	13.09	-26.1	-27.2	16.0	0.00e+00	0	44	0	580911104	13	4066
2026-01-27 10:04:06.55	73.13	13.14	-26.0	-26.9	16.1	1.10e-06	0	44	0	586153984	13	4004
2026-01-27 10:04:07.55	72.96	13.20	-26.0	-26.9	16.1	0.00e+00	0	44	0	592445440	13	3984
2026-01-27 10:04:08.55	72.79	13.25	-26.1	-27.1	16.0	0.00e+00	0	44	0	597688320	13	4053
2026-01-27 10:04:09.55	72.63	13.31	-26.0	-26.9	16.1	0.00e+00	0	44	0	602931200	13	3986
2026-01-27 10:04:10.56	72.46	13.37	-25.8	-26.6	16.3	0.00e+00	0	44	0	609222656	13	3908
2026-01-27 10:04:11.57	72.29	13.42	-25.7	-26.8	16.5	0.00e+00	0	44	0	614465536	12	4074
2026-01-27 10:04:12.57	72.12	13.48	-25.8	-26.9	16.4	1.10e-06	0	44	0	620756992	12	4101
2026-01-27 10:04:13.57	71.95	13.53	-25.8	-27.0	16.4	0.00e+00	0	44	0	625999872	12	4112
2026-01-27 10:04:14.57	71.78	13.59	-25.9	-27.1	16.3	0.00e+00	0	44	0	631242752	12	4143
2026-01-27 10:04:15.57	71.61	13.64	-25.9	-27.1	16.3	0.00e+00	0	44	0	637534208	12	4154
2026-01-27 10:04:16.57	71.44	13.70	-25.9	-27.2	16.3	0.00e+00	0	44	0	642777088	12	4169
2026-01-27 10:04:17.57	71.27	13.75	-25.9	-27.1	16.3	0.00e+00	0	44	0	649068544	12	4157
2026-01-27 10:04:18.58	71.10	13.81	-26.0	-27.3	16.3	0.00e+00	0	44	0	654311424	12	4191
2026-01-27 10:04:19.59	70.92	13.86	-26.0	-27.3	16.3	0.00e+00	0	44	0	659554304	12	4194
2026-01-27 10:04:20.60	70.75	13.92	-26.0	-27.2	16.3	0.00e+00	0	44	0	665845760	12	4163
2026-01-27 10:04:21.60	70.57	13.97	-26.0	-27.3	16.4	0.00e+00	0	44	0	671088640	12	4173
2026-01-27 10:04:22.61	70.40	14.02	-26.1	-27.6	16.2	0.00e+00	0	44	0	677380096	12	4258
2026-01-27 10:04:23.61	70.22	14.08	-26.1	-27.5	16.2	0.00e+00	0	44	0	682622976	12	4244
2026-01-27 10:04:24.61	70.04	14.13	-25.9	-27.1	16.4	0.00e+00	0	44	0	687865856	12	4127
2026-01-27 10:04:25.62	69.87	14.19	-25.9	-27.0	16.5	0.00e+00	0	44	0	694157312	12	4096
2026-01-27 10:04:26.61	69.69	14.24	-25.9	-27.0	16.5	0.00e+00	0	44	0	699400192	12	4104
2026-01-27 10:04:27.62	69.51	14.29	-25.9	-27.0	16.5	0.00e+00	0	44	0	704643072	12	4105
2026-01-27 10:04:28.62	69.33	14.35	-25.8	-26.9	16.6	0.00e+00	0	44	0	710934528	12	4081
2026-01-27 10:04:29.63	69.15	14.40	-25.9	-27.0	16.5	0.00e+00	0	44	0	716177408	12	4113
2026-01-27 10:04:30.64	68.97	14.45	-25.9	-27.1	16.4	0.00e+00	0	44	0	722468864	12	4138
2026-01-27 10:04:31.64	68.79	14.50	-26.0	-27.3	16.3	0.00e+00	0	44	0	727711744	12	4182
2026-01-27 10:04:32.64	68.61	14.56	-26.0	-27.3	16.3	0.00e+00	0	44	0	732954624	12	4183
2026-01-27 10:04:33.65	68.42	14.61	-25.9	-27.1	16.3	0.00e+00	0	44	0	739246080	12	4148
2026-01-27 10:04:34.65	68.24	14.66	-25.9	-27.1	16.3	0.00e+00	0	44	0	744488960	12	4146
2026-01-27 10:04:35.66	68.06	14.71	-25.9	-27.1	16.4	0.00e+00	0	44	0	750780416	12	4136
2026-01-27 10:04:36.66	67.87	14.77	-25.8	-26.9	16.5	0.00e+00	0	44	0	756023296	12	4085
2026-01-27 10:04:37.67	67.69	14.82	-25.7	-26.6	16.7	0.00e+00	0	44	0	761266176	12	4006
2026-01-27 10:04:38.67	67.50	14.87	-25.7	-26.7	16.7	0.00e+00	0	44	0	767557632	12	4023
2026-01-27 10:04:39.67	67.31	14.92	-25.7	-26.7	16.7	0.00e+00	0	44	0	772800512	12	4025
2026-01-27 10:04:40.68	67.13	14.97	-25.8	-26.9	16.6	0.00e+00	0	44	0	778043392	12	4083
2026-01-27 10:04:41.69	66.94	15.02	-25.8	-26.8	16.7	0.00e+00	0	44	0	784334848	12	4058
2026-01-27 10:04:42.70	66.75	15.07	-25.8	-26.8	16.7	0.00e+00	0	44	0	789577728	12	4047
2026-01-27 10:04:43.70	66.56	15.12	-25.7	-26.7	16.7	0.00e+00	0	44	0	795869184	12	4029
2026-01-27 10:04:44.71	66.37	15.17	-25.9	-27.1	16.5	0.00e+00	0	44	0	801112064	12	4138
2026-01-27 10:04:45.71	66.18	15.22	-25.9	-27.0	16.5	0.00e+00	0	44	0	807403520	12	4115
2026-01-27 10:04:46.72	65.99	15.27	-25.8	-27.0	16.6	0.00e+00	0	44	0	812646400	12	4099
2026-01-27 10:04:47.72	65.80	15.32	-25.9	-27.0	16.5	0.00e+00	0	44	0	817889280	12	4108
2026-01-27 10:04:48.73	65.60	15.37	-25.9	-27.0	16.6	0.00e+00	0	44	0	824180736	12	4104
2026-01-27 10:04:49.73	65.41	15.42	-25.9	-27.2	16.5	0.00e+00	0	44	0	829423616	12	4147
2026-01-27 10:04:50.73	65.22	15.47	-25.8	-26.9	16.7	0.00e+00	0	44	0	834666496	12	4067
2026-01-27 10:04:51.74	65.02	15.52	-25.7	-26.5	16.8	0.00e+00	0	44	0	840957952	12	3983
2026-01-27 10:04:52.74	64.83	15.57	-25.7	-26.6	16.8	0.00e+00	0	44	0	846200832	12	3993
2026-01-27 10:04:53.74	64.63	15.62	-25.6	-26.4	16.9	0.00e+00	0	44	0	851443712	12	3952
2026-01-27 10:04:54.75	64.44	15.66	-25.7	-26.6	16.8	0.00e+00	0	44	0	857735168	12	4000
2026-01-27 10:04:55.75	64.24	15.71	-25.6	-26.5	16.9	0.00e+00	0	44	0	862978048	12	3975
2026-01-27 10:04:56.76	64.04	15.76	-25.6	-26.3	17.0	0.00e+00	0	44	0	869269504	12	3938
2026-01-27 10:04:57.76	63.84	15.81	-25.6	-26.5	16.9	0.00e+00	0	44	0	874512384	12	3967
2026-01-27 10:04:58.76	63.65	15.85	-25.5	-26.3	17.0	0.00e+00	0	44	0	880803840	12	3918
2026-01-27 10:04:59.77	63.44	15.90	-25.5	-26.2	17.1	0.00e+00	0	44	0	886046720	12	3905
2026-01-27 10:05:00.77	63.25	15.95	-25.6	-26.4	16.9	0.00e+00	0	44	0	891289600	12	3956
2026-01-27 10:05:01.78	63.04	15.99	-25.7	-26.6	16.8	0.00e+00	0	44	0	897581056	12	3988
2026-01-27 10:05:02.78	62.84	16.04	-25.6	-26.3	17.0	0.00e+00	0	44	0	902823936	12	3934
2026-01-27 10:05:03.77	62.64	16.08	-25.7	-26.5	16.9	0.00e+00	0	44	0	908066816	12	3981
2026-01-27 10:05:04.78	62.44	16.13	-25.6	-26.4	17.0	0.00e+00	0	44	0	914358272	12	3939
2026-01-27 10:05:05.78	62.24	16.17	-25.6	-26.4	17.0	0.00e+00	0	44	0	919601152	12	3962
2026-01-27 10:05:06.78	62.04	16.22	-25.6	-26.5	16.9	0.00e+00	0	44	0	924844032	12	3976
2026-01-27 10:05:07.78	61.83	16.26	-25.5	-26.3	17.0	0.00e+00	0	44	0	931135488	12	3926
2026-01-27 10:05:08.79	61.63	16.31	-25.4	-25.9	17.3	0.00e+00	0	44	0	936378368	12	3828
2026-01-27 10:05:09.79	61.42	16.35	-25.4	-26.0	17.3	0.00e+00	0	44	0	942669824	12	3843
2026-01-27 10:05:10.80	61.21	16.39	-25.3	-26.3	17.4	0.00e+00	0	44	0	947912704	11	4014
2026-01-27 10:05:11.80	61.01	16.44	-25.3	-26.3	17.4	0.00e+00	0	44	0	954204160	11	4023
2026-01-27 10:05:12.80	60.80	16.48	-25.3	-26.1	17.5	0.00e+00	0	44	0	959447040	11	3988
2026-01-27 10:05:13.81	60.59	16.52	-25.2	-26.1	17.5	0.00e+00	0	44	0	964689920	11	3975
2026-01-27 10:05:14.81	60.38	16.57	-25.4	-26.4	17.4	0.00e+00	0	44	0	970981376	11	4047
2026-01-27 10:05:15.81	60.18	16.61	-25.4	-26.4	17.3	0.00e+00	0	44	0	976224256	11	4059
2026-01-27 10:05:16.82	59.97	16.65	-25.5	-26.6	17.2	0.00e+00	0	44	0	981467136	11	4114
2026-01-27 10:05:17.82	59.76	16.69	-25.4	-26.4	17.3	0.00e+00	0	44	0	987758592	11	4058
2026-01-27 10:05:18.83	59.54	16.73	-25.3	-26.3	17.4	0.00e+00	0	44	0	993001472	11	4026
2026-01-27 10:05:19.83	59.33	16.77	-25.4	-26.4	17.3	0.00e+00	0	44	0	999292928	11	4055
2026-01-27 10:05:20.83	59.12	16.81	-25.3	-26.2	17.4	0.00e+00	0	44	0	1004535808	11	4001
2026-01-27 10:05:21.83	58.91	16.85	-25.3	-26.3	17.4	0.00e+00	0	44	0	1009778688	11	4032
2026-01-27 10:05:22.83	58.70	16.89	-25.5	-26.8	17.1	0.00e+00	0	44	0	1016070144	11	4150
2026-01-27 10:05:23.82	58.49	16.93	-25.3	-26.3	17.4	0.00e+00	0	44	0	1021313024	11	4015
2026-01-27 10:05:24.83	58.27	16.97	-25.0	-25.5	17.8	0.00e+00	0	44	0	1026555904	11	3845
2026-01-27 10:05:25.83	58.06	17.01	-24.8	-25.2	18.0	0.00e+00	0	44	0	1032847360	11	3771
2026-01-27 10:05:26.84	57.84	17.05	-24.8	-25.3	18.0	0.00e+00	0	44	0	1038090240	11	3783
2026-01-27 10:05:27.84	57.63	17.09	-24.9	-25.3	17.9	0.00e+00	0	44	0	1043333120	11	3800
2026-01-27 10:05:28.84	57.41	17.12	-25.0	-25.7	17.7	0.00e+00	0	44	0	1049624576	11	3879
2026-01-27 10:05:29.84	57.20	17.16	-25.0	-25.7	17.8	0.00e+00	0	44	0	1054867456	11	3873
2026-01-27 10:05:30.84	56.98	17.20	-25.0	-25.7	17.8	0.00e+00	0	44	0	1061158912	11	3878
2026-01-27 10:05:31.85	56.76	17.23	-25.2	-26.1	17.5	0.00e+00	0	44	0	1066401792	11	3973
2026-01-27 10:05:32.85	56.54	17.27	-25.1	-25.9	17.6	0.00e+00	0	44	0	1072693248	11	3934
2026-01-27 10:05:33.86	56.32	17.31	-25.2	-26.0	17.6	0.00e+00	0	44	0	1077936128	11	3946
2026-01-27 10:05:34.86	56.10	17.34	-25.3	-26.2	17.5	0.00e+00	0	44	0	1083179008	11	3999
2026-01-27 10:05:35.86	55.88	17.38	-25.3	-26.2	17.5	0.00e+00	0	44	0	1089470464	11	4012
2026-01-27 10:05:36.86	55.66	17.41	-25.3	-26.1	17.5	0.00e+00	0	44	0	1094713344	11	3987
2026-01-27 10:05:37.86	55.44	17.45	-25.2	-26.1	17.5	0.00e+00	0	44	0	1099956224	11	3974
2026-01-27 10:05:38.87	55.22	17.48	-25.4	-26.5	17.4	0.00e+00	0	44	0	1106247680	11	4066
2026-01-27 10:05:39.87	55.00	17.51	-25.2	-26.0	17.6	0.00e+00	0	44	0	1111490560	11	3947
2026-01-27 10:05:40.87	54.78	17.55	-25.0	-25.6	17.8	0.00e+00	0	44	0	1116733440	11	3869
2026-01-27 10:05:41.88	54.55	17.58	-25.0	-25.6	17.8	0.00e+00	0	44	0	1123024896	11	3856
2026-01-27 10:05:42.88	54.33	17.61	-25.2	-25.9	17.6	0.00e+00	0	44	0	1128267776	11	3940
2026-01-27 10:05:43.89	54.10	17.64	-25.2	-26.0	17.6	0.00e+00	0	44	0	1134559232	11	3949
2026-01-27 10:05:44.89	53.88	17.67	-25.1	-25.9	17.7	0.00e+00	0	44	0	1139802112	11	3918
2026-01-27 10:05:45.89	53.66	17.71	-25.2	-26.0	17.6	0.00e+00	0	44	0	1145044992	11	3949
2026-01-27 10:05:46.89	53.43	17.74	-25.1	-25.8	17.7	0.00e+00	0	44	0	1151336448	11	3903
2026-01-27 10:05:47.89	53.21	17.77	-25.1	-25.8	17.7	0.00e+00	0	44	0	1156579328	11	3910
2026-01-27 10:05:48.89	52.98	17.80	-25.2	-25.9	17.6	0.00e+00	0	44	0	1161822208	11	3942
2026-01-27 10:05:49.90	52.75	17.83	-25.1	-25.7	17.8	0.00e+00	0	44	0	1168113664	11	3886
2026-01-27 10:05:50.90	52.53	17.85	-25.1	-25.8	17.7	0.00e+00	0	44	0	1173356544	11	3910
2026-01-27 10:05:51.90	52.30	17.88	-25.2	-26.0	17.6	0.00e+00	0	44	0	1179648000	11	3956
2026-01-27 10:05:52.91	52.07	17.91	-25.1	-25.8	17.7	0.00e+00	0	44	0	1184890880	11	3899
2026-01-27 10:05:53.91	51.84	17.94	-25.0	-25.6	17.8	0.00e+00	0	44	0	1190133760	11	3845
2026-01-27 10:05:54.91	51.62	17.97	-25.0	-25.7	17.8	0.00e+00	0	44	0	1196425216	11	3878
2026-01-27 10:05:55.92	51.38	17.99	-24.9	-25.3	18.0	0.00e+00	0	44	0	1201668096	11	3794
2026-01-27 10:05:56.91	51.16	18.02	-24.8	-25.6	18.1	0.00e+00	0	44	0	1207959552	10	3963
2026-01-27 10:05:57.91	50.93	18.04	-24.8	-25.6	18.1	0.00e+00	0	44	0	1213202432	10	3965
2026-01-27 10:05:58.92	50.70	18.07	-24.9	-25.9	17.9	0.00e+00	0	44	0	1218445312	10	4049
2026-01-27 10:05:59.91	50.47	18.09	-24.8	-25.7	18.0	0.00e+00	0	44	0	1224736768	10	3983
2026-01-27 10:06:00.91	50.24	18.12	-24.7	-25.4	18.2	0.00e+00	0	44	0	1229979648	10	3923
2026-01-27 10:06:01.91	50.01	18.14	-24.7	-25.5	18.1	0.00e+00	0	44	0	1235222528	10	3937
2026-01-27 10:06:02.92	49.77	18.17	-24.7	-25.4	18.2	0.00e+00	0	44	0	1241513984	10	3910
2026-01-27 10:06:03.92	49.54	18.19	-24.6	-25.3	18.2	0.00e+00	0	44	0	1246756864	10	3897
2026-01-27 10:06:04.92	49.31	18.21	-24.7	-25.5	18.1	0.00e+00	0	44	0	1251999744	10	3947
2026-01-27 10:06:05.93	49.08	18.23	-24.7	-25.4	18.2	0.00e+00	0	44	0	1258291200	10	3915
2026-01-27 10:06:06.93	48.84	18.26	-24.7	-25.5	18.2	0.00e+00	0	44	0	1263534080	10	3931
2026-01-27 10:06:07.94	48.61	18.28	-24.8	-25.6	18.1	0.00e+00	0	44	0	1269825536	10	3970
2026-01-27 10:06:08.94	48.38	18.30	-24.7	-25.5	18.1	0.00e+00	0	44	0	1275068416	10	3937
2026-01-27 10:06:09.95	48.14	18.32	-24.7	-25.6	18.1	0.00e+00	0	44	0	1281359872	10	3950
2026-01-27 10:06:10.95	47.91	18.34	-24.6	-25.2	18.3	0.00e+00	0	44	0	1286602752	10	3874
2026-01-27 10:06:11.95	47.67	18.36	-24.6	-25.2	18.3	0.00e+00	0	44	0	1291845632	10	3877
2026-01-27 10:06:12.96	47.44	18.38	-24.7	-25.5	18.2	0.00e+00	0	44	0	1298137088	10	3936
2026-01-27 10:06:13.96	47.20	18.40	-24.5	-25.1	18.3	0.00e+00	0	44	0	1303379968	10	3854
2026-01-27 10:06:14.97	46.96	18.41	-24.5	-25.0	18.4	0.00e+00	0	44	0	1308622848	10	3815
2026-01-27 10:06:15.97	46.73	18.43	-24.6	-25.2	18.3	0.00e+00	0	44	0	1314914304	10	3857
2026-01-27 10:06:16.98	46.49	18.45	-24.6	-25.2	18.3	0.00e+00	0	44	0	1320157184	10	3868
2026-01-27 10:06:17.98	46.25	18.46	-24.7	-25.5	18.2	0.00e+00	0	44	0	1325400064	10	3943
2026-01-27 10:06:18.99	46.02	18.48	-24.6	-25.4	18.3	0.00e+00	0	44	0	1331691520	10	3907
2026-01-27 10:06:19.99	45.78	18.50	-24.7	-25.4	18.2	0.00e+00	0	44	0	1336934400	10	3926
2026-01-27 10:06:20.99	45.54	18.51	-24.7	-25.5	18.1	0.00e+00	0	44	0	1343225856	10	3951
2026-01-27 10:06:21.99	45.31	18.52	-24.7	-25.5	18.2	0.00e+00	0	44	0	1348468736	10	3948
2026-01-27 10:06:23.00	45.07	18.54	-24.8	-25.7	18.1	0.00e+00	0	44	0	1353711616	10	3988
2026-01-27 10:06:24.00	44.83	18.55	-24.9	-25.8	18.0	0.00e+00	0	44	0	1360003072	10	4015
2026-01-27 10:06:25.00	44.59	18.57	-24.8	-25.6	18.1	0.00e+00	0	44	0	1365245952	10	3971
2026-01-27 10:06:26.01	44.35	18.58	-24.8	-25.7	18.0	0.00e+00	0	44	0	1371537408	10	4002
2026-01-27 10:06:27.01	44.12	18.59	-24.7	-25.5	18.1	0.00e+00	0	44	0	1376780288	10	3945
2026-01-27 10:06:28.02	43.88	18.60	-24.8	-25.7	18.0	0.00e+00	0	44	0	1382023168	10	3991
2026-01-27 10:06:29.02	43.64	18.61	-24.7	-25.5	18.1	0.00e+00	0	44	0	1388314624	10	3944
2026-01-27 10:06:30.02	43.40	18.62	-24.9	-25.9	17.9	0.00e+00	0	44	0	1393557504	10	4042
2026-01-27 10:06:31.02	43.16	18.63	-24.6	-25.3	18.2	0.00e+00	0	44	0	1398800384	10	3898
2026-01-27 10:06:32.03	42.92	18.64	-24.5	-25.0	18.4	0.00e+00	0	44	0	1405091840	10	3818
2026-01-27 10:06:33.03	42.68	18.65	-24.4	-24.9	18.4	0.00e+00	0	44	0	1410334720	10	3805
2026-01-27 10:06:34.03	42.44	18.66	-24.5	-25.2	18.3	0.00e+00	0	44	0	1416626176	10	3862
2026-01-27 10:06:35.03	42.20	18.67	-24.3	-24.7	18.6	0.00e+00	0	44	0	1421869056	10	3753
2026-01-27 10:06:36.03	41.96	18.67	-24.3	-24.7	18.6	0.00e+00	0	44	0	1427111936	10	3745
2026-01-27 10:06:37.04	41.72	18.68	-24.4	-24.9	18.4	0.00e+00	0	44	0	1433403392	10	3801
2026-01-27 10:06:38.04	41.48	18.69	-24.5	-25.1	18.4	0.00e+00	0	44	0	1438646272	10	3846
2026-01-27 10:06:39.04	41.24	18.69	-24.6	-25.3	18.3	0.00e+00	0	44	0	1443889152	10	3883
2026-01-27 10:06:40.05	41.00	18.70	-24.7	-25.4	18.2	0.00e+00	0	44	0	1450180608	10	3922
2026-01-27 10:06:41.05	40.76	18.70	-24.6	-25.4	18.2	0.00e+00	0	44	0	1455423488	10	3905
2026-01-27 10:06:42.06	40.52	18.71	-24.7	-25.5	18.1	0.00e+00	0	44	0	1461714944	10	3937
2026-01-27 10:06:43.06	40.28	18.71	-24.6	-25.3	18.2	0.00e+00	0	44	0	1466957824	10	3904
2026-01-27 10:06:44.07	40.04	18.71	-24.9	-25.9	17.9	0.00e+00	0	44	0	1472200704	10	4045
2026-01-27 10:06:45.07	39.80	18.72	-24.6	-25.3	18.2	0.00e+00	0	44	0	1478492160	10	3895
2026-01-27 10:06:46.07	39.56	18.72	-24.6	-25.3	18.3	0.00e+00	0	44	0	1483735040	10	3881
2026-01-27 10:06:47.07	39.32	18.72	-24.7	-25.4	18.2	0.00e+00	0	44	0	1490026496	10	3911
2026-01-27 10:06:48.08	39.08	18.72	-24.7	-25.5	18.1	0.00e+00	0	44	0	1495269376	10	3938
2026-01-27 10:06:49.08	38.84	18.72	-24.7	-25.5	18.1	0.00e+00	0	44	0	1500512256	10	3947
2026-01-27 10:06:50.08	38.60	18.72	-24.8	-25.7	18.0	0.00e+00	0	44	0	1506803712	10	3996
2026-01-27 10:06:51.08	38.36	18.72	-24.7	-25.6	18.1	0.00e+00	0	44	0	1512046592	10	3954
2026-01-27 10:06:52.09	38.12	18.72	-24.8	-25.6	18.0	0.00e+00	0	44	0	1517289472	10	3976
2026-01-27 10:06:53.09	37.88	18.72	-24.8	-25.6	18.1	0.00e+00	0	44	0	1523580928	10	3965
2026-01-27 10:06:54.09	37.64	18.72	-24.7	-25.6	18.1	0.00e+00	0	44	0	1528823808	10	3960
2026-01-27 10:06:55.09	37.40	18.71	-24.7	-25.5	18.1	0.00e+00	0	44	0	1534066688	10	3947
2026-01-27 10:06:56.09	37.16	18.71	-24.6	-25.2	18.3	0.00e+00	0	44	0	1540358144	10	3861
2026-01-27 10:06:57.10	36.92	18.71	-24.7	-25.4	18.1	0.00e+00	0	44	0	1545601024	10	3921
2026-01-27 10:06:58.10	36.68	18.70	-24.4	-24.8	18.5	0.00e+00	0	44	0	1551892480	10	3767
2026-01-27 10:06:59.11	36.43	18.70	-24.3	-24.6	18.6	0.00e+00	0	44	0	1557135360	10	3741
2026-01-27 10:07:00.11	36.19	18.69	-24.3	-24.7	18.5	0.00e+00	0	44	0	1563426816	10	3759
2026-01-27 10:07:01.12	35.95	18.69	-24.4	-24.8	18.5	0.00e+00	0	44	0	1568669696	10	3776
2026-01-27 10:07:02.12	35.71	18.68	-24.4	-24.8	18.5	0.00e+00	0	44	0	1573912576	10	3786
2026-01-27 10:07:03.12	35.47	18.67	-24.3	-25.0	18.6	0.00e+00	0	44	0	1580204032	9	3933
2026-01-27 10:07:04.12	35.24	18.67	-24.2	-24.9	18.7	0.00e+00	0	44	0	1585446912	9	3901
2026-01-27 10:07:05.12	35.00	18.66	-24.3	-25.2	18.5	0.00e+00	0	44	0	1590689792	9	3966
2026-01-27 10:07:06.12	34.76	18.65	-24.2	-24.9	18.7	0.00e+00	0	44	0	1596981248	9	3904
2026-01-27 10:07:07.12	34.52	18.64	-24.3	-25.2	18.5	0.00e+00	0	44	0	1602224128	9	3968
2026-01-27 10:07:08.13	34.28	18.63	-24.3	-25.2	18.5	0.00e+00	0	44	0	1607467008	9	3983
2026-01-27 10:07:09.13	34.04	18.62	-24.4	-25.3	18.4	0.00e+00	0	44	0	1613758464	9	4005
2026-01-27 10:07:10.13	33.80	18.61	-24.5	-25.6	18.3	0.00e+00	0	44	0	1619001344	9	4073
2026-01-27 10:07:11.13	33.56	18.60	-24.5	-25.5	18.4	0.00e+00	0	44	0	1625292800	9	4049
2026-01-27 10:07:12.13	33.33	18.59	-24.6	-25.8	18.2	0.00e+00	0	44	0	1630535680	9	4129
2026-01-27 10:07:13.13	33.09	18.58	-24.6	-25.8	18.2	0.00e+00	0	44	0	1635778560	9	4123
2026-01-27 10:07:14.14	32.85	18.56	-24.7	-26.0	18.1	0.00e+00	0	44	0	1642070016	9	4178
2026-01-27 10:07:15.14	32.61	18.55	-24.6	-25.7	18.2	0.00e+00	0	44	0	1647312896	9	4111
2026-01-27 10:07:16.14	32.38	18.54	-24.6	-25.8	18.2	0.00e+00	0	44	0	1652555776	9	4112
2026-01-27 10:07:17.14	32.14	18.52	-24.5	-25.5	18.4	0.00e+00	0	44	0	1658847232	9	4044
2026-01-27 10:07:18.15	31.90	18.51	-24.5	-25.6	18.3	0.00e+00	0	44	0	1664090112	9	4078
2026-01-27 10:07:19.15	31.66	18.49	-24.6	-25.8	18.2	0.00e+00	0	44	0	1669332992	9	4137
2026-01-27 10:07:20.15	31.43	18.48	-24.5	-25.5	18.3	0.00e+00	0	44	0	1675624448	9	4050
2026-01-27 10:07:21.15	31.19	18.46	-24.4	-25.4	18.4	0.00e+00	0	44	0	1680867328	9	4017
2026-01-27 10:07:22.15	30.96	18.45	-24.5	-25.5	18.3	0.00e+00	0	44	0	1687158784	9	4045
2026-01-27 10:07:23.15	30.72	18.43	-24.5	-25.5	18.3	0.00e+00	0	44	0	1692401664	9	4056
2026-01-27 10:07:24.16	30.48	18.41	-24.6	-25.8	18.2	0.00e+00	0	44	0	1698693120	9	4119
2026-01-27 10:07:25.16	30.25	18.39	-24.4	-25.4	18.4	0.00e+00	0	44	0	1703936000	9	4033
2026-01-27 10:07:26.17	30.01	18.38	-24.5	-25.6	18.3	0.00e+00	0	44	0	1709178880	9	4077
2026-01-27 10:07:27.17	29.78	18.36	-24.7	-25.9	18.2	0.00e+00	0	44	0	1715470336	9	4144
2026-01-27 10:07:28.17	29.54	18.34	-24.5	-25.5	18.4	0.00e+00	0	44	0	1720713216	9	4045
2026-01-27 10:07:29.18	29.31	18.32	-24.5	-25.4	18.4	0.00e+00	0	44	0	1725956096	9	4034
2026-01-27 10:07:30.18	29.08	18.30	-24.5	-25.6	18.3	0.00e+00	0	44	0	1732247552	9	4084
2026-01-27 10:07:31.19	28.84	18.28	-24.5	-25.4	18.4	0.00e+00	0	44	0	1737490432	9	4037
2026-01-27 10:07:32.20	28.61	18.26	-24.6	-25.7	18.3	0.00e+00	0	44	0	1742733312	9	4093
2026-01-27 10:07:33.20	28.37	18.23	-24.5	-25.6	18.3	0.00e+00	0	44	0	1749024768	9	4082
2026-01-27 10:07:34.20	28.14	18.21	-24.7	-26.0	18.1	0.00e+00	0	44	0	1754267648	9	4165
2026-01-27 10:07:35.21	27.91	18.19	-24.7	-26.0	18.1	0.00e+00	0	44	0	1760559104	9	4182
2026-01-27 10:07:36.21	27.68	18.17	-24.8	-26.2	18.0	0.00e+00	0	44	0	1765801984	9	4218
2026-01-27 10:07:37.21	27.45	18.14	-24.9	-26.5	17.8	0.00e+00	0	44	0	1772093440	9	4296
2026-01-27 10:07:38.22	27.21	18.12	-25.1	-26.3	17.7	0.00e+00	0	44	0	1777336320	10	4140
2026-01-27 10:07:39.23	26.98	18.09	-25.1	-26.4	17.6	0.00e+00	0	44	0	1782579200	10	4154
2026-01-27 10:07:40.23	26.75	18.07	-24.8	-25.6	18.0	0.00e+00	0	44	0	1788870656	10	3966
2026-01-27 10:07:41.23	26.52	18.04	-24.6	-25.3	18.2	0.00e+00	0	44	0	1794113536	10	3892
2026-01-27 10:07:42.23	26.29	18.02	-24.7	-25.4	18.2	0.00e+00	0	44	0	1799356416	10	3912
2026-01-27 10:07:43.23	26.06	17.99	-24.7	-25.5	18.1	0.00e+00	0	44	0	1805647872	10	3936
2026-01-27 10:07:44.24	25.83	17.96	-24.7	-25.5	18.1	0.00e+00	0	44	0	1810890752	10	3942
2026-01-27 10:07:45.24	25.61	17.94	-24.9	-25.9	17.9	0.00e+00	0	44	0	1816133632	10	4041
2026-01-27 10:07:46.24	25.38	17.91	-24.6	-25.4	18.2	0.00e+00	0	44	0	1822425088	10	3906
2026-01-27 10:07:47.25	25.15	17.88	-24.5	-25.1	18.3	0.00e+00	0	44	0	1827667968	10	3836
2026-01-27 10:07:48.26	24.92	17.85	-24.5	-25.0	18.3	0.00e+00	0	44	0	1833959424	10	3821
2026-01-27 10:07:49.27	24.69	17.82	-24.6	-25.2	18.2	0.00e+00	0	44	0	1839202304	10	3876
2026-01-27 10:07:50.27	24.47	17.79	-24.8	-25.6	18.0	0.00e+00	0	44	0	1845493760	10	3977
2026-01-27 10:07:51.28	24.24	17.76	-25.0	-26.0	17.8	0.00e+00	0	44	0	1850736640	10	4067
2026-01-27 10:07:52.28	24.02	17.73	-24.9	-25.8	17.9	0.00e+00	0	44	0	1855979520	10	4019
2026-01-27 10:07:53.28	23.79	17.70	-24.9	-26.0	17.8	0.00e+00	0	44	0	1862270976	10	4059
2026-01-27 10:07:54.28	23.57	17.67	-25.0	-26.1	17.8	0.00e+00	0	44	0	1867513856	10	4081
2026-01-27 10:07:55.29	23.34	17.64	-24.9	-25.9	17.9	0.00e+00	0	44	0	1872756736	10	4038
2026-01-27 10:07:56.29	23.12	17.61	-24.9	-25.9	17.8	0.00e+00	0	44	0	1879048192	10	4042
2026-01-27 10:07:57.30	22.90	17.58	-24.9	-25.9	17.8	0.00e+00	0	44	0	1884291072	10	4044
2026-01-27 10:07:58.31	22.67	17.54	-24.8	-25.8	17.9	0.00e+00	0	44	0	1890582528	10	4002
2026-01-27 10:07:59.31	22.45	17.51	-24.8	-25.7	17.9	0.00e+00	0	44	0	1895825408	10	3993
2026-01-27 10:08:00.31	22.23	17.48	-24.7	-25.5	18.0	0.00e+00	0	44	0	1901068288	10	3939
2026-01-27 10:08:01.31	22.01	17.44	-24.8	-25.7	18.0	0.00e+00	0	44	0	1907359744	10	3988
2026-01-27 10:08:02.31	21.79	17.41	-24.9	-25.9	17.8	0.00e+00	0	44	0	1912602624	10	4047
2026-01-27 10:08:03.31	21.57	17.37	-24.8	-25.8	17.9	0.00e+00	0	44	0	1918894080	10	4009
2026-01-27 10:08:04.31	21.35	17.34	-24.9	-25.9	17.9	0.00e+00	0	44	0	1924136960	10	4037
2026-01-27 10:08:05.32	21.13	17.30	-24.9	-25.9	17.8	0.00e+00	0	44	0	1929379840	10	4049
2026-01-27 10:08:06.31	20.92	17.27	-25.0	-26.0	17.7	0.00e+00	0	44	0	1935671296	10	4071
2026-01-27 10:08:07.31	20.70	17.23	-25.0	-26.0	17.8	0.00e+00	0	44	0	1940914176	10	4067
2026-01-27 10:08:08.32	20.48	17.20	-25.0	-26.0	17.8	0.00e+00	0	44	0	1946157056	10	4068
2026-01-27 10:08:09.32	20.26	17.16	-25.1	-26.3	17.6	0.00e+00	0	44	0	1952448512	10	4128
2026-01-27 10:08:10.31	20.05	17.12	-25.2	-26.5	17.5	0.00e+00	0	44	0	1957691392	10	4183
2026-01-27 10:08:11.32	19.83	17.08	-25.0	-26.0	17.8	0.00e+00	0	44	0	1963982848	10	4075
2026-01-27 10:08:12.32	19.62	17.05	-24.8	-25.7	17.9	0.00e+00	0	44	0	1969225728	10	3997
2026-01-27 10:08:13.33	19.40	17.01	-24.8	-25.7	17.9	0.00e+00	0	44	0	1974468608	10	3995
2026-01-27 10:08:14.33	19.19	16.97	-25.0	-26.0	17.8	0.00e+00	0	44	0	1980760064	10	4061
2026-01-27 10:08:15.33	18.98	16.93	-25.2	-26.5	17.5	0.00e+00	0	44	0	1986002944	10	4195
2026-01-27 10:08:16.33	18.76	16.89	-25.3	-26.7	17.4	0.00e+00	0	44	0	1991245824	10	4254
2026-01-27 10:08:17.34	18.55	16.85	-25.4	-27.0	17.2	0.00e+00	0	44	0	1997537280	10	4318
2026-01-27 10:08:18.34	18.34	16.81	-25.5	-26.6	17.2	0.00e+00	0	44	0	2002780160	11	4098
2026-01-27 10:08:19.35	18.13	16.77	-25.5	-26.7	17.2	0.00e+00	0	44	0	2009071616	11	4135
2026-01-27 10:08:20.35	17.92	16.73	-25.4	-26.6	17.2	0.00e+00	0	44	0	2014314496	11	4096
2026-01-27 10:08:21.36	17.71	16.69	-25.3	-26.3	17.4	0.00e+00	0	44	0	2019557376	11	4035
2026-01-27 10:08:22.36	17.50	16.65	-25.4	-26.4	17.3	0.00e+00	0	44	0	2025848832	11	4039
2026-01-27 10:08:23.37	17.29	16.61	-25.5	-26.6	17.2	0.00e+00	0	44	0	2031091712	11	4106
2026-01-27 10:08:24.37	17.08	16.56	-25.6	-26.8	17.1	0.00e+00	0	44	0	2037383168	11	4164
2026-01-27 10:08:25.38	16.87	16.52	-25.3	-26.3	17.3	0.00e+00	0	44	0	2042626048	11	4027
2026-01-27 10:08:26.38	16.66	16.48	-25.2	-25.9	17.5	0.00e+00	0	44	0	2047868928	11	3937
2026-01-27 10:08:27.38	16.46	16.44	-25.0	-25.7	17.6	0.00e+00	0	44	0	2054160384	11	3882
2026-01-27 10:08:28.39	16.25	16.39	-25.1	-25.8	17.6	0.00e+00	0	44	0	2059403264	11	3908
2026-01-27 10:08:29.39	16.05	16.35	-25.0	-25.7	17.6	0.00e+00	0	44	0	2064646144	11	3881
2026-01-27 10:08:30.39	15.84	16.31	-25.2	-26.0	17.5	0.00e+00	0	44	0	2070937600	11	3964
2026-01-27 10:08:31.40	15.64	16.26	-25.3	-26.3	17.3	0.00e+00	0	44	0	2076180480	11	4032
2026-01-27 10:08:32.40	15.43	16.22	-25.3	-26.2	17.4	0.00e+00	0	44	0	2082471936	11	3999
2026-01-27 10:08:33.41	15.23	16.17	-25.6	-26.9	17.0	0.00e+00	0	44	0	2087714816	11	4173
2026-01-27 10:08:34.41	15.03	16.13	-25.7	-27.2	16.8	0.00e+00	0	44	0	2092957696	11	4256
2026-01-27 10:08:35.41	14.83	16.08	-25.7	-27.1	16.9	0.00e+00	0	44	0	2099249152	11	4228
2026-01-27 10:08:36.42	14.62	16.04	-25.7	-27.2	16.8	0.00e+00	0	44	0	2104492032	11	4259
2026-01-27 10:08:37.42	14.42	15.99	-25.6	-27.0	16.9	0.00e+00	0	44	0	2110783488	11	4209
2026-01-27 10:08:38.43	14.22	15.94	-25.6	-27.0	16.9	0.00e+00	0	44	0	2116026368	11	4199
2026-01-27 10:08:39.43	14.03	15.90	-25.6	-26.9	16.9	0.00e+00	0	44	0	2121269248	11	4190
2026-01-27 10:08:40.43	13.83	15.85	-25.5	-26.7	17.1	0.00e+00	0	44	0	2127560704	11	4123
2026-01-27 10:08:41.43	13.63	15.80	-25.5	-26.8	17.0	0.00e+00	0	44	0	2132803584	11	4147
2026-01-27 10:08:42.43	13.43	15.76	-25.5	-26.8	17.1	0.00e+00	0	44	0	2138046464	11	4150
2026-01-27 10:08:43.43	13.24	15.71	-25.5	-26.7	17.1	0.00e+00	0	44	0	2144337920	11	4120
2026-01-27 10:08:44.43	13.04	15.66	-25.6	-26.8	17.0	0.00e+00	0	44	0	2149580800	11	4167
2026-01-27 10:08:45.44	12.85	15.62	-25.6	-26.9	17.0	0.00e+00	0	44	0	2154823680	11	4189
2026-01-27 10:08:46.44	12.65	15.57	-25.6	-26.8	17.0	0.00e+00	0	44	0	2161115136	11	4163
2026-01-27 10:08:47.44	12.46	15.52	-25.6	-26.9	17.0	0.00e+00	0	44	0	2166358016	11	4187
2026-01-27 10:08:48.44	12.27	15.47	-25.6	-26.9	17.0	0.00e+00	0	44	0	2172649472	11	4186
2026-01-27 10:08:49.45	12.07	15.42	-25.5	-26.7	17.1	0.00e+00	0	44	0	2177892352	11	4126
2026-01-27 10:08:50.45	11.88	15.37	-25.6	-26.8	17.0	0.00e+00	0	44	0	2183135232	11	4158
2026-01-27 10:08:51.45	11.69	15.32	-25.4	-26.6	17.1	0.00e+00	0	44	0	2189426688	11	4096
2026-01-27 10:08:52.45	11.50	15.27	-25.4	-26.6	17.1	0.00e+00	0	44	0	2194669568	11	4110
2026-01-27 10:08:53.46	11.31	15.22	-25.5	-26.8	17.0	0.00e+00	0	44	0	2200961024	11	4159
2026-01-27 10:08:54.47	11.12	15.17	-25.5	-26.7	17.0	0.00e+00	0	44	0	2206203904	11	4142
2026-01-27 10:08:55.47	10.93	15.12	-25.7	-27.0	16.9	0.00e+00	0	44	0	2211446784	11	4218
2026-01-27 10:08:56.47	10.74	15.07	-25.6	-27.0	16.9	0.00e+00	0	44	0	2217738240	11	4223
2026-01-27 10:08:57.48	10.55	15.02	-25.6	-26.9	16.9	0.00e+00	0	44	0	2222981120	11	4195
2026-01-27 10:08:58.48	10.36	14.97	-25.6	-27.0	16.9	0.00e+00	0	44	0	2228224000	11	4221
2026-01-27 10:08:59.49	10.18	14.92	-25.6	-27.1	16.8	0.00e+00	0	44	0	2234515456	11	4253
2026-01-27 10:09:00.50	9.99	14.87	-25.6	-27.0	16.8	0.00e+00	0	44	0	2239758336	11	4265
2026-01-27 10:09:01.50	9.81	14.82	-25.4	-26.9	16.8	0.00e+00	0	44	0	2246049792	11	4237
2026-01-27 10:09:02.50	9.62	14.77	-25.3	-26.6	16.9	0.00e+00	0	44	0	2251292672	11	4192
2026-01-27 10:09:03.51	9.44	14.72	-25.2	-26.4	17.0	0.00e+00	0	44	0	2257584128	11	4144
2026-01-27 10:09:04.51	9.25	14.66	-25.2	-26.6	16.8	0.00e+00	0	44	0	2262827008	11	4216
2026-01-27 10:09:05.52	9.07	14.61	-25.3	-26.8	16.7	0.00e+00	0	44	0	2268069888	11	4274
2026-01-27 10:09:06.52	8.89	14.56	-25.4	-26.8	16.8	0.00e+00	0	44	0	2274361344	11	4239
2026-01-27 10:09:07.53	8.71	14.51	-25.5	-26.9	16.9	0.00e+00	0	44	0	2279604224	11	4211
2026-01-27 10:09:08.53	8.53	14.45	-25.5	-26.8	16.9	0.00e+00	0	44	0	2284847104	11	4183
2026-01-27 10:09:09.54	8.35	14.40	-25.4	-26.6	17.1	0.00e+00	0	44	0	2291138560	11	4119
2026-01-27 10:09:10.55	8.17	14.35	-25.5	-26.6	17.1	0.00e+00	0	44	0	2296381440	11	4109
2026-01-27 10:09:11.55	7.99	14.30	-25.5	-26.8	16.9	0.00e+00	0	44	0	2302672896	11	4167
2026-01-27 10:09:12.56	7.81	14.24	-25.6	-26.9	16.9	0.00e+00	0	44	0	2307915776	11	4200
2026-01-27 10:09:13.57	7.63	14.19	-25.7	-27.1	16.8	0.00e+00	0	44	0	2313158656	11	4240
2026-01-27 10:09:14.57	7.45	14.13	-25.9	-27.6	16.5	0.00e+00	0	44	0	2319450112	11	4375
2026-01-27 10:09:15.58	7.28	14.08	-25.9	-27.6	16.5	0.00e+00	0	44	0	2324692992	11	4386
2026-01-27 10:09:16.58	7.10	14.03	-25.9	-27.5	16.5	0.00e+00	0	44	0	2330984448	11	4361
2026-01-27 10:09:17.59	6.93	13.97	-25.9	-27.6	16.5	0.00e+00	0	44	0	2336227328	11	4362
2026-01-27 10:09:18.59	6.75	13.92	-25.8	-27.4	16.6	0.00e+00	0	44	0	2341470208	11	4306
2026-01-27 10:09:19.60	6.58	13.86	-25.7	-27.1	16.8	0.00e+00	0	44	0	2347761664	11	4235
2026-01-27 10:09:20.60	6.41	13.81	-25.7	-27.1	16.7	0.00e+00	0	44	0	2353004544	11	4246
2026-01-27 10:09:21.60	6.24	13.75	-25.8	-27.4	16.6	0.00e+00	0	44	0	2359296000	11	4312
2026-01-27 10:09:22.61	6.06	13.70	-25.8	-27.4	16.6	0.00e+00	0	44	0	2364538880	11	4314
2026-01-27 10:09:23.62	5.89	13.64	-25.8	-27.3	16.6	0.00e+00	0	44	0	2369781760	11	4307
2026-01-27 10:09:24.62	5.72	13.59	-25.8	-27.4	16.6	0.00e+00	0	44	0	2376073216	11	4317
2026-01-27 10:09:25.63	5.55	13.53	-25.9	-27.5	16.5	0.00e+00	0	44	0	2381316096	11	4362
2026-01-27 10:09:26.64	5.38	13.48	-25.8	-27.4	16.6	0.00e+00	0	44	0	2386558976	11	4320
2026-01-27 10:09:27.65	5.21	13.42	-25.7	-27.2	16.7	0.00e+00	0	44	0	2392850432	11	4273
2026-01-27 10:09:28.65	5.05	13.37	-25.8	-27.4	16.6	0.00e+00	0	44	0	2398093312	11	4319
2026-01-27 10:09:29.65	4.88	13.31	-25.9	-27.5	16.5	0.00e+00	0	44	0	2404384768	11	4351
2026-01-27 10:09:30.65	4.71	13.26	-25.9	-27.2	16.3	0.00e+00	0	44	0	2409627648	12	4157
2026-01-27 10:09:31.66	4.55	13.20	-26.1	-27.5	16.2	0.00e+00	0	44	0	2415919104	12	4242
2026-01-27 10:09:32.67	4.38	13.14	-26.1	-27.5	16.2	0.00e+00	0	44	0	2421161984	12	4244
2026-01-27 10:09:33.66	4.22	13.09	-26.1	-27.5	16.2	0.00e+00	0	44	0	2426404864	12	4251
2026-01-27 10:09:34.67	4.05	13.03	-26.2	-27.7	16.0	0.00e+00	0	44	0	2432696320	12	4296
2026-01-27 10:09:35.67	3.89	12.98	-26.1	-27.6	16.1	0.00e+00	0	44	0	2437939200	12	4261
2026-01-27 10:09:36.67	3.73	12.92	-26.2	-27.7	16.0	0.00e+00	0	44	0	2443182080	12	4290
2026-01-27 10:09:37.67	3.57	12.86	-26.2	-27.8	16.0	1.10e-06	0	44	0	2449473536	12	4329
2026-01-27 10:09:38.68	3.41	12.81	-26.3	-27.9	15.9	0.00e+00	0	44	0	2454716416	12	4356
2026-01-27 10:09:39.68	3.25	12.75	-26.3	-28.1	15.8	0.00e+00	0	44	0	2459959296	12	4390
2026-01-27 10:09:40.69	3.08	12.69	-26.4	-28.3	15.7	0.00e+00	0	44	0	2466250752	12	4456
2026-01-27 10:09:41.69	2.93	12.64	-26.4	-28.2	15.7	0.00e+00	0	44	0	2471493632	12	4443
2026-01-27 10:09:42.69	2.77	12.58	-26.5	-28.4	15.6	0.00e+00	0	44	0	2477785088	12	4484
2026-01-27 10:09:43.70	2.61	12.52	-26.4	-27.6	15.8	0.00e+00	0	44	0	2483027968	13	4152
2026-01-27 10:09:44.71	2.45	12.47	-26.1	-27.1	16.0	0.00e+00	0	44	0	2489319424	13	4024
2026-01-27 10:09:45.71	2.29	12.41	-26.0	-26.9	16.2	0.00e+00	0	44	0	2494562304	13	3981
2026-01-27 10:09:46.72	2.14	12.35	-26.1	-27.0	16.1	0.00e+00	0	44	0	2499805184	13	3985
2026-01-27 10:09:47.72	1.98	12.29	-26.1	-27.0	16.1	0.00e+00	0	44	0	2506096640	13	4008
2026-01-27 10:09:48.72	1.83	12.24	-26.2	-27.2	16.0	0.00e+00	0	44	0	2511339520	13	4055
2026-01-27 10:09:49.73	1.67	12.18	-26.2	-27.3	16.0	0.00e+00	0	44	0	2516582400	13	4068
2026-01-27 10:09:50.73	1.52	12.12	-26.2	-27.3	16.0	0.00e+00	0	44	0	2522873856	13	4073
2026-01-27 10:09:51.73	1.37	12.06	-26.4	-27.6	15.8	0.00e+00	0	44	0	2528116736	13	4165
2026-01-27 10:09:52.74	1.21	12.01	-26.3	-27.4	15.9	0.00e+00	0	44	0	2533359616	13	4115
2026-01-27 10:09:53.74	1.06	11.95	-26.3	-27.4	15.9	0.00e+00	0	44	0	2539651072	13	4097
2026-01-27 10:09:54.74	0.91	11.89	-26.4	-27.6	15.8	0.00e+00	0	44	0	2544893952	13	4152
2026-01-27 10:09:55.75	0.76	11.83	-26.3	-27.6	15.8	0.00e+00	0	44	0	2551185408	13	4143
2026-01-27 10:09:56.75	0.61	11.78	-26.4	-27.7	15.7	0.00e+00	0	44	0	2556428288	13	4175
2026-01-27 10:09:57.75	0.46	11.72	-26.5	-27.9	15.6	0.00e+00	0	44	0	2562719744	13	4238
2026-01-27 10:09:58.75	0.31	11.66	-26.4	-27.7	15.7	0.00e+00	0	44	0	2567962624	13	4176
2026-01-27 10:09:59.76	0.16	11.60	-26.6	-28.2	15.4	0.00e+00	0	44	0	2573205504	13	4318
2026-01-27 10:10:00.76	0.02	11.54	-26.5	-28.0	15.6	0.00e+00	0	44	0	2579496960	13	4254
2026-01-27 10:10:01.76	359.87	11.49	-26.5	-27.9	15.6	0.00e+00	0	44	0	2584739840	13	4227
2026-01-27 10:10:02.76	359.72	11.43	-26.2	-27.3	16.0	0.00e+00	0	44	0	2589982720	13	4065
2026-01-27 10:10:03.77	359.58	11.37	-26.4	-27.6	15.7	0.00e+00	0	44	0	2596274176	13	4165
2026-01-27 10:10:04.77	359.43	11.31	-26.4	-27.7	15.7	0.00e+00	0	44	0	2601517056	13	4170
2026-01-27 10:10:05.77	359.29	11.25	-26.5	-27.8	15.6	0.00e+00	0	44	0	2606759936	13	4220
2026-01-27 10:10:06.78	359.14	11.19	-26.5	-27.8	15.6	0.00e+00	0	44	0	2613051392	13	4220
2026-01-27 10:10:07.78	359.00	11.14	-26.9	-28.7	15.1	0.00e+00	0	44	0	2618294272	13	4463
2026-01-27 10:10:08.78	358.86	11.08	-26.6	-28.2	15.4	0.00e+00	0	44	0	2624585728	13	4321
2026-01-27 10:10:09.79	358.71	11.02	-26.5	-28.0	15.5	0.00e+00	0	44	0	2629828608	13	4253
2026-01-27 10:10:10.79	358.57	10.96	-26.3	-27.5	15.7	0.00e+00	0	44	0	2635071488	13	4138
2026-01-27 10:10:11.80	358.43	10.90	-26.4	-27.8	15.6	0.00e+00	0	44	0	2641362944	13	4203
2026-01-27 10:10:12.80	358.29	10.84	-26.4	-27.6	15.7	0.00e+00	0	44	0	2646605824	13	4163
2026-01-27 10:10:13.81	358.15	10.79	-26.4	-27.7	15.6	0.00e+00	0	44	0	2652897280	13	4186
2026-01-27 10:10:14.81	358.01	10.73	-26.4	-27.7	15.6	0.00e+00	0	44	0	2658140160	13	4191
2026-01-27 10:10:15.82	357.87	10.67	-26.4	-27.8	15.6	0.00e+00	0	44	0	2663383040	13	4200
2026-01-27 10:10:16.83	357.73	10.61	-26.6	-28.1	15.4	0.00e+00	0	44	0	2669674496	13	4296
2026-01-27 10:10:17.83	357.60	10.55	-26.8	-28.5	15.2	0.00e+00	0	44	0	2674917376	13	4413
2026-01-27 10:10:18.84	357.46	10.49	-26.8	-28.6	15.2	0.00e+00	0	44	0	2680160256	13	4431
2026-01-27 10:10:19.84	357.32	10.43	-26.7	-28.4	15.3	1.10e-06	0	44	0	2686451712	13	4364
2026-01-27 10:10:20.84	357.19	10.37	-27.0	-29.0	14.9	0.00e+00	0	44	0	2691694592	13	4542
2026-01-27 10:10:21.85	357.05	10.31	-26.9	-28.3	15.0	0.00e+00	0	44	0	2697986048	14	4224
2026-01-27 10:10:22.85	356.91	10.26	-26.7	-27.9	15.2	1.10e-06	0	44	0	2703228928	14	4134
2026-01-27 10:10:23.86	356.78	10.20	-26.8	-28.0	15.1	1.10e-06	0	44	0	2709520384	14	4162
2026-01-27 10:10:24.86	356.65	10.14	-27.0	-28.6	14.8	1.10e-06	0	44	0	2714763264	14	4316
2026-01-27 10:10:25.86	356.51	10.08	-27.0	-28.6	14.8	0.00e+00	0	44	0	2720006144	14	4322
2026-01-27 10:10:26.87	356.38	10.02	-27.0	-28.6	14.8	1.10e-06	0	44	0	2726297600	14	4306
2026-01-27 10:10:27.86	356.25	9.96	-27.2	-29.1	14.5	0.00e+00	0	44	0	2731540480	14	4454
2026-01-27 10:10:28.87	356.12	9.90	-27.1	-28.8	14.7	2.20e-06	0	44	0	2736783360	14	4387
2026-01-27 10:10:29.87	355.99	9.84	-27.0	-28.5	14.9	1.10e-06	0	44	0	2743074816	14	4280
2026-01-27 10:10:30.87	355.86	9.79	-26.9	-28.4	14.9	1.10e-06	0	44	0	2748317696	14	4274
2026-01-27 10:10:31.87	355.73	9.73	-27.0	-28.5	14.8	0.00e+00	0	44	0	2753560576	14	4303
2026-01-27 10:10:32.88	355.60	9.67	-27.0	-28.6	14.8	0.00e+00	0	44	0	2759852032	14	4322
2026-01-27 10:10:33.88	355.47	9.61	-27.0	-28.5	14.8	1.10e-06	0	44	0	2765094912	14	4288
2026-01-27 10:10:34.89	355.34	9.55	-26.9	-28.4	14.9	0.00e+00	0	44	0	2771386368	14	4274
2026-01-27 10:10:35.89	355.21	9.49	-26.9	-28.4	14.9	0.00e+00	0	44	0	2776629248	14	4277
2026-01-27 10:10:36.90	355.08	9.43	-26.9	-28.2	15.0	1.10e-06	0	44	0	2781872128	14	4222
2026-01-27 10:10:37.90	354.96	9.37	-26.9	-28.4	14.9	2.20e-06	0	44	0	2788163584	14	4264
2026-01-27 10:10:38.90	354.83	9.32	-26.8	-28.1	15.1	0.00e+00	0	44	0	2793406464	14	4175
2026-01-27 10:10:39.90	354.71	9.26	-26.8	-28.2	15.0	0.00e+00	0	44	0	2799697920	14	4222
2026-01-27 10:10:40.90	354.58	9.20	-26.8	-28.2	15.0	0.00e+00	0	44	0	2804940800	14	4221
2026-01-27 10:10:41.90	354.46	9.14	-26.8	-28.2	15.0	0.00e+00	0	44	0	2810183680	14	4204
2026-01-27 10:10:42.90	354.33	9.08	-27.0	-28.6	14.8	0.00e+00	0	44	0	2816475136	14	4320
2026-01-27 10:10:43.91	354.21	9.02	-26.9	-28.3	14.9	0.00e+00	0	44	0	2821718016	14	4247
2026-01-27 10:10:44.92	354.08	8.96	-27.0	-28.5	14.8	0.00e+00	0	44	0	2826960896	14	4289
2026-01-27 10:10:45.93	353.96	8.90	-27.0	-28.5	14.8	2.20e-06	0	44	0	2833252352	14	4294
2026-01-27 10:10:46.93	353.84	8.84	-27.1	-28.8	14.6	1.10e-06	0	44	0	2838495232	14	4370
2026-01-27 10:10:47.94	353.72	8.79	-27.2	-29.0	14.5	0.00e+00	0	44	0	2844786688	14	4433
2026-01-27 10:10:48.94	353.60	8.73	-27.2	-28.9	14.5	2.20e-06	0	44	0	2850029568	14	4422
2026-01-27 10:10:49.94	353.48	8.67	-27.1	-28.9	14.5	1.10e-06	0	44	0	2855272448	14	4410
2026-01-27 10:10:50.95	353.35	8.61	-27.4	-29.4	14.2	5.70e-06	0	44	0	2861563904	14	4564
2026-01-27 10:10:51.95	353.24	8.55	-27.2	-29.1	14.4	1.10e-06	0	44	0	2866806784	14	4454
2026-01-27 10:10:52.95	353.12	8.49	-27.1	-28.9	14.5	2.20e-06	0	44	0	2873098240	14	4409
2026-01-27 10:10:53.96	353.00	8.43	-27.3	-29.2	14.3	2.20e-06	0	44	0	2878341120	14	4508
2026-01-27 10:10:54.97	352.88	8.37	-27.2	-29.0	14.5	1.10e-06	0	44	0	2883584000	14	4424
2026-01-27 10:10:55.97	352.76	8.32	-27.4	-29.5	14.2	1.10e-06	0	44	0	2889875456	14	4582
2026-01-27 10:10:56.98	352.64	8.26	-27.3	-29.3	14.3	2.20e-06	0	44	0	2895118336	14	4516
2026-01-27 10:10:57.98	352.53	8.20	-27.3	-29.3	14.3	1.10e-06	0	44	0	2900361216	14	4522
2026-01-27 10:10:58.97	352.41	8.14	-27.4	-29.6	14.1	2.20e-06	0	44	0	2906652672	14	4631
2026-01-27 10:10:59.98	352.30	8.08	-27.3	-29.2	14.3	2.20e-06	0	44	0	2911895552	14	4513
2026-01-27 10:11:00.98	352.18	8.02	-27.4	-29.4	14.1	1.10e-06	0	44	0	2918187008	14	4571
2026-01-27 10:11:01.99	352.07	7.96	-27.3	-29.3	14.2	3.40e-06	0	44	0	2923429888	14	4521
2026-01-27 10:11:03.00	351.95	7.91	-27.5	-29.3	14.0	4.50e-06	0	44	0	2928672768	15	4410
2026-01-27 10:11:04.00	351.84	7.85	-27.3	-28.8	14.2	4.50e-06	0	44	0	2934964224	15	4281
2026-01-27 10:11:05.00	351.72	7.79	-27.5	-29.2	14.0	5.70e-06	0	44	0	2940207104	15	4372
2026-01-27 10:11:06.00	351.61	7.73	-27.5	-29.1	14.0	3.40e-06	0	44	0	2946498560	15	4357
2026-01-27 10:11:07.01	351.50	7.67	-27.5	-29.2	14.0	8.00e-06	0	44	0	2951741440	15	4373
2026-01-27 10:11:08.01	351.39	7.61	-27.5	-29.2	14.0	0.00e+00	0	44	0	2956984320	15	4375
2026-01-27 10:11:09.02	351.27	7.56	-27.6	-29.6	13.7	8.00e-06	0	44	0	2963275776	15	4514
2026-01-27 10:11:10.03	351.16	7.50	-27.5	-29.3	13.9	5.70e-06	0	44	0	2968518656	15	4410
2026-01-27 10:11:11.03	351.05	7.44	-27.6	-29.5	13.8	5.70e-06	0	44	0	2973761536	15	4467
2026-01-27 10:11:12.04	350.94	7.38	-27.5	-29.3	13.9	1.14e-05	0	44	0	2980052992	15	4426
2026-01-27 10:11:13.03	350.83	7.32	-27.7	-29.7	13.7	1.60e-05	0	44	0	2985295872	15	4531
2026-01-27 10:11:14.04	350.72	7.26	-27.4	-29.1	14.0	8.00e-06	0	44	0	2991587328	15	4363
2026-01-27 10:11:15.04	350.62	7.21	-27.5	-29.2	13.9	8.00e-06	0	44	0	2996830208	15	4398
2026-01-27 10:11:16.04	350.51	7.15	-27.4	-28.9	14.1	6.80e-06	0	44	0	3002073088	15	4314
2026-01-27 10:11:17.04	350.40	7.09	-27.2	-28.7	14.2	0.00e+00	0	44	0	3008364544	15	4240
2026-01-27 10:11:18.04	350.29	7.03	-33.1	-41.4	3.9	8.44e-01	0	44	104	3010461696	26	9371
2026-01-27 10:11:19.05	350.19	6.97	-33.8	-44.7	3.8	8.46e-01	0	44	104	3010461696	27	12665
2026-01-27 10:11:20.05	350.08	6.92	-34.0	-45.1	3.8	8.45e-01	0	44	104	3010461696	28	12881
2026-01-27 10:11:21.06	349.97	6.86	-34.2	-45.5	3.8	8.47e-01	0	44	104	3010461696	28	13156

#Closed at: 2026-01-27 10:11:21
#Recorded file [3010 MB]: D:/data/31010_260127_130222.dat