passes_logs/2026/01/27/R2M6_AANII_01/R2M6_AANII_01__20260127_115504_NOAA_21_JPSS-2_rec.log

#Pass ID: 20260127_115504_NOAA 21 (JPSS-2)
#Satellite: NOAA 21 (JPSS-2)
#Configuration: NOAA 21
#almurnet v.1.7.20240730
#Start time: 2026-01-27 11:55:05

#Version: 2.2.20231116
#Station: R2M6_AANII_01
#Location: 30.233357 lon 59.946436 lat
#TLE: 1 54234U 22150A   26026.78373243  .00000177  00000+0  10458-3 0  9996
#TLE: 2 54234  98.7509 327.5416 0000822 208.1870 151.9262 14.19539807166482

#Time	Az	El	Level	Level2	SNR	BER	BlckErr	Temp	State	Recorded	gain1	gain2
2026-01-27 11:55:05.65	212.57	7.09	-29.5	-32.5	5.0	1.29e+00	0	42	0	0	20	5093
2026-01-27 11:55:06.65	212.67	7.15	-30.3	-34.0	4.8	1.36e+00	0	43	104	0	21	5564
2026-01-27 11:55:07.65	212.76	7.21	-30.4	-33.6	10.0	6.22e-03	0	43	0	0	21	5233
2026-01-27 11:55:08.66	212.86	7.28	-30.3	-33.3	10.3	6.23e-03	0	43	0	3145728	21	5105
2026-01-27 11:55:09.66	212.95	7.34	-29.9	-32.3	11.0	2.12e-03	0	42	0	6291456	21	4735
2026-01-27 11:55:10.66	213.05	7.41	-29.6	-32.0	11.5	1.01e-03	0	43	0	9437184	20	4722
2026-01-27 11:55:11.66	213.15	7.47	-29.4	-31.4	11.9	4.15e-04	0	43	0	12582912	20	4537
2026-01-27 11:55:12.67	213.24	7.54	-29.3	-31.5	12.3	2.06e-04	0	43	0	15728640	19	4658
2026-01-27 11:55:13.68	213.34	7.60	-29.2	-31.4	12.4	1.64e-04	0	42	0	18874368	19	4612
2026-01-27 11:55:14.69	213.44	7.67	-29.1	-31.1	12.5	1.17e-04	0	43	0	22020096	19	4536
2026-01-27 11:55:15.69	213.54	7.73	-29.0	-30.8	12.8	9.23e-05	0	43	0	24117248	19	4438
2026-01-27 11:55:16.69	213.64	7.79	-29.1	-31.0	12.7	8.23e-05	0	43	0	27262976	19	4480
2026-01-27 11:55:17.69	213.74	7.86	-29.1	-30.9	12.7	8.46e-05	0	43	0	30408704	19	4471
2026-01-27 11:55:18.69	213.83	7.92	-29.1	-31.1	12.6	8.85e-05	0	43	0	33554432	19	4516
2026-01-27 11:55:19.70	213.94	7.99	-29.0	-30.8	12.8	7.40e-05	0	43	0	36700160	19	4433
2026-01-27 11:55:20.70	214.04	8.05	-29.1	-30.9	12.7	6.71e-05	0	43	0	40894464	19	4472
2026-01-27 11:55:21.71	214.14	8.12	-29.2	-31.3	12.5	9.76e-05	0	43	0	44040192	19	4571
2026-01-27 11:55:22.71	214.24	8.18	-29.1	-31.0	12.7	8.39e-05	0	43	0	47185920	19	4494
2026-01-27 11:55:23.71	214.34	8.25	-28.9	-30.5	13.0	6.63e-05	0	43	0	49283072	19	4344
2026-01-27 11:55:24.71	214.44	8.31	-28.8	-30.3	13.1	3.43e-05	0	43	0	52428800	19	4279
2026-01-27 11:55:25.72	214.54	8.38	-28.7	-30.5	13.3	2.44e-05	0	43	0	55574528	18	4428
2026-01-27 11:55:26.72	214.65	8.45	-28.7	-30.4	13.4	1.60e-05	0	43	0	58720256	18	4404
2026-01-27 11:55:27.71	214.75	8.51	-28.8	-30.7	13.2	1.98e-05	0	43	0	61865984	18	4490
2026-01-27 11:55:28.72	214.85	8.58	-28.7	-30.5	13.3	1.60e-05	0	43	0	65011712	18	4433
2026-01-27 11:55:29.73	214.96	8.64	-28.7	-30.6	13.3	1.98e-05	0	43	0	68157440	18	4460
2026-01-27 11:55:30.73	215.06	8.71	-28.7	-30.4	13.4	1.83e-05	0	43	0	71303168	18	4405
2026-01-27 11:55:31.73	215.17	8.78	-28.8	-30.7	13.2	2.59e-05	0	43	0	74448896	18	4484
2026-01-27 11:55:32.74	215.27	8.84	-28.7	-30.6	13.3	2.13e-05	0	43	0	77594624	18	4471
2026-01-27 11:55:33.75	215.38	8.91	-28.7	-30.5	13.4	1.06e-05	0	43	0	80740352	18	4436
2026-01-27 11:55:34.75	215.49	8.97	-28.8	-30.7	13.2	1.06e-05	0	43	0	83886080	18	4500
2026-01-27 11:55:35.75	215.60	9.04	-28.8	-30.7	13.3	2.51e-05	0	44	0	87031808	18	4482
2026-01-27 11:55:36.76	215.70	9.11	-28.7	-30.5	13.4	1.37e-05	0	43	0	90177536	18	4428
2026-01-27 11:55:37.76	215.81	9.17	-28.6	-30.2	13.6	9.90e-06	0	43	0	93323264	18	4333
2026-01-27 11:55:38.76	215.92	9.24	-28.6	-30.3	13.6	8.30e-06	0	43	0	96468992	18	4359
2026-01-27 11:55:39.76	216.03	9.31	-28.5	-30.0	13.7	6.80e-06	0	43	0	99614720	18	4298
2026-01-27 11:55:40.76	216.14	9.37	-28.5	-30.0	13.7	5.30e-06	0	43	0	102760448	18	4272
2026-01-27 11:55:41.76	216.25	9.44	-28.6	-30.1	13.7	6.10e-06	0	43	0	105906176	18	4321
2026-01-27 11:55:42.77	216.36	9.51	-28.5	-30.0	13.7	6.10e-06	0	43	0	109051904	18	4283
2026-01-27 11:55:43.77	216.47	9.58	-28.4	-29.8	13.8	3.80e-06	0	43	0	112197632	18	4233
2026-01-27 11:55:44.77	216.58	9.64	-28.6	-30.2	13.6	5.30e-06	0	43	0	115343360	18	4355
2026-01-27 11:55:45.78	216.69	9.71	-28.4	-29.9	13.8	1.50e-06	0	43	0	118489088	18	4252
2026-01-27 11:55:46.78	216.80	9.78	-28.4	-29.8	13.8	4.50e-06	0	43	0	121634816	18	4233
2026-01-27 11:55:47.79	216.92	9.85	-28.5	-29.9	13.8	6.10e-06	0	43	0	124780544	18	4260
2026-01-27 11:55:48.79	217.03	9.91	-28.5	-30.0	13.8	6.80e-06	0	43	0	127926272	18	4269
2026-01-27 11:55:49.79	217.15	9.98	-28.4	-29.7	13.9	3.00e-06	0	43	0	131072000	18	4207
2026-01-27 11:55:50.79	217.26	10.05	-28.4	-29.6	14.0	3.80e-06	0	43	0	134217728	18	4173
2026-01-27 11:55:51.79	217.37	10.12	-28.4	-29.8	13.9	3.80e-06	0	44	0	137363456	18	4214
2026-01-27 11:55:52.79	217.49	10.18	-28.4	-29.8	13.9	5.30e-06	0	43	0	140509184	18	4206
2026-01-27 11:55:53.80	217.61	10.25	-28.4	-29.7	13.9	2.20e-06	0	43	0	143654912	18	4199
2026-01-27 11:55:54.80	217.72	10.32	-28.4	-29.9	13.9	3.00e-06	0	43	0	146800640	18	4235
2026-01-27 11:55:55.80	217.84	10.39	-28.3	-29.6	14.0	1.50e-06	0	43	0	149946368	18	4156
2026-01-27 11:55:56.80	217.96	10.46	-28.2	-29.7	14.2	0.00e+00	0	44	0	153092096	17	4290
2026-01-27 11:55:57.81	218.08	10.52	-28.2	-29.7	14.2	3.00e-06	0	44	0	156237824	17	4298
2026-01-27 11:55:58.81	218.19	10.59	-28.3	-30.0	14.0	1.50e-06	0	43	0	159383552	17	4396
2026-01-27 11:55:59.81	218.31	10.66	-28.2	-29.8	14.2	3.00e-06	0	43	0	162529280	17	4336
2026-01-27 11:56:00.81	218.43	10.73	-28.3	-30.1	14.0	2.20e-06	0	44	0	165675008	17	4401
2026-01-27 11:56:01.81	218.55	10.80	-28.2	-29.7	14.2	2.20e-06	0	43	0	168820736	17	4287
2026-01-27 11:56:02.83	218.67	10.87	-28.1	-29.5	14.4	0.00e+00	0	43	0	171966464	17	4229
2026-01-27 11:56:03.83	218.80	10.94	-28.1	-29.5	14.4	0.00e+00	0	44	0	175112192	17	4239
2026-01-27 11:56:04.83	218.92	11.01	-28.1	-29.5	14.4	0.00e+00	0	44	0	178257920	17	4231
2026-01-27 11:56:05.83	219.04	11.07	-28.1	-29.5	14.4	2.20e-06	0	43	0	181403648	17	4243
2026-01-27 11:56:06.83	219.16	11.14	-28.1	-29.5	14.4	7.00e-07	0	44	0	184549376	17	4240
2026-01-27 11:56:07.84	219.29	11.21	-28.1	-29.6	14.4	0.00e+00	0	44	0	187695104	17	4249
2026-01-27 11:56:08.84	219.41	11.28	-28.1	-29.5	14.4	1.50e-06	0	44	0	190840832	17	4231
2026-01-27 11:56:09.85	219.54	11.35	-28.2	-29.7	14.3	1.50e-06	0	44	0	193986560	17	4291
2026-01-27 11:56:10.84	219.66	11.42	-28.1	-29.5	14.5	1.50e-06	0	44	0	197132288	17	4221
2026-01-27 11:56:11.85	219.79	11.49	-28.1	-29.5	14.4	7.00e-07	0	44	0	200278016	17	4235
2026-01-27 11:56:12.84	219.91	11.56	-28.1	-29.4	14.5	7.00e-07	0	44	0	203423744	17	4212
2026-01-27 11:56:13.85	220.04	11.63	-28.2	-29.7	14.3	0.00e+00	0	44	0	206569472	17	4300
2026-01-27 11:56:14.85	220.17	11.70	-28.0	-29.3	14.6	1.50e-06	0	44	0	209715200	17	4182
2026-01-27 11:56:15.86	220.29	11.77	-28.0	-29.2	14.6	1.50e-06	0	44	0	212860928	17	4149
2026-01-27 11:56:16.86	220.42	11.84	-28.0	-29.2	14.6	1.50e-06	0	44	0	216006656	17	4156
2026-01-27 11:56:17.87	220.55	11.91	-28.0	-29.3	14.5	0.00e+00	0	44	0	219152384	17	4188
2026-01-27 11:56:18.87	220.68	11.98	-28.2	-29.8	14.3	0.00e+00	0	44	0	222298112	17	4322
2026-01-27 11:56:19.87	220.81	12.05	-28.2	-29.8	14.3	7.00e-07	0	44	0	225443840	17	4327
2026-01-27 11:56:20.87	220.94	12.12	-28.1	-29.6	14.4	1.50e-06	0	44	0	228589568	17	4257
2026-01-27 11:56:21.87	221.08	12.19	-28.2	-29.9	14.3	7.00e-07	0	44	0	231735296	17	4340
2026-01-27 11:56:22.87	221.21	12.26	-28.1	-29.5	14.5	1.50e-06	0	44	0	234881024	17	4228
2026-01-27 11:56:23.88	221.34	12.33	-28.1	-29.6	14.4	1.50e-06	0	44	0	238026752	17	4255
2026-01-27 11:56:24.87	221.47	12.40	-28.2	-29.6	14.4	0.00e+00	0	44	0	241172480	17	4267
2026-01-27 11:56:25.87	221.61	12.47	-28.0	-29.2	14.7	0.00e+00	0	44	0	244318208	17	4139
2026-01-27 11:56:26.87	221.74	12.54	-27.8	-28.8	14.9	1.50e-06	0	44	0	247463936	17	4047
2026-01-27 11:56:27.87	221.88	12.61	-27.7	-29.0	15.0	0.00e+00	0	43	0	250609664	16	4205
2026-01-27 11:56:28.86	222.01	12.68	-27.7	-29.1	15.0	0.00e+00	0	44	0	253755392	16	4228
2026-01-27 11:56:29.86	222.15	12.75	-27.7	-29.0	15.1	0.00e+00	0	44	0	256901120	16	4211
2026-01-27 11:56:30.86	222.28	12.82	-27.7	-29.1	15.1	0.00e+00	0	44	0	260046848	16	4214
2026-01-27 11:56:31.86	222.42	12.89	-27.7	-29.0	15.1	0.00e+00	0	44	0	263192576	16	4202
2026-01-27 11:56:32.86	222.56	12.96	-27.7	-29.0	15.1	0.00e+00	0	44	0	266338304	16	4203
2026-01-27 11:56:33.86	222.70	13.03	-27.8	-29.3	14.9	0.00e+00	0	44	0	269484032	16	4275
2026-01-27 11:56:34.86	222.84	13.10	-27.8	-29.2	15.0	0.00e+00	0	44	0	272629760	16	4258
2026-01-27 11:56:35.86	222.98	13.17	-27.9	-29.4	14.9	0.00e+00	0	44	0	275775488	16	4321
2026-01-27 11:56:36.86	223.12	13.24	-27.7	-29.1	15.0	0.00e+00	0	44	0	277872640	16	4237
2026-01-27 11:56:37.87	223.26	13.32	-27.7	-29.0	15.1	0.00e+00	0	44	0	281018368	16	4200
2026-01-27 11:56:38.88	223.41	13.39	-27.7	-29.1	15.1	0.00e+00	0	44	0	284164096	16	4210
2026-01-27 11:56:39.89	223.55	13.46	-27.6	-28.9	15.2	0.00e+00	0	44	0	287309824	16	4161
2026-01-27 11:56:40.88	223.69	13.53	-27.6	-28.9	15.2	0.00e+00	0	44	0	290455552	16	4161
2026-01-27 11:56:41.88	223.84	13.60	-27.7	-29.1	15.1	0.00e+00	0	44	0	293601280	16	4228
2026-01-27 11:56:42.88	223.98	13.67	-27.6	-28.9	15.2	0.00e+00	0	44	0	296747008	16	4163
2026-01-27 11:56:43.89	224.13	13.74	-27.6	-28.9	15.2	0.00e+00	0	44	0	299892736	16	4159
2026-01-27 11:56:44.89	224.27	13.82	-27.6	-28.7	15.3	0.00e+00	0	44	0	303038464	16	4121
2026-01-27 11:56:45.90	224.42	13.89	-27.7	-29.2	15.1	0.00e+00	0	44	0	306184192	16	4238
2026-01-27 11:56:46.89	224.57	13.96	-27.7	-29.0	15.1	7.00e-07	0	44	0	309329920	16	4192
2026-01-27 11:56:47.90	224.72	14.03	-27.7	-29.1	15.1	0.00e+00	0	44	0	312475648	16	4223
2026-01-27 11:56:48.90	224.87	14.10	-27.7	-28.9	15.2	0.00e+00	0	44	0	315621376	16	4172
2026-01-27 11:56:49.91	225.02	14.17	-27.7	-29.1	15.1	0.00e+00	0	44	0	318767104	16	4217
2026-01-27 11:56:50.92	225.17	14.25	-27.7	-29.1	15.1	0.00e+00	0	44	0	321912832	16	4222
2026-01-27 11:56:51.93	225.32	14.32	-27.8	-29.3	15.0	0.00e+00	0	44	0	325058560	16	4279
2026-01-27 11:56:52.93	225.47	14.39	-27.8	-29.2	15.0	0.00e+00	0	44	0	328204288	16	4254
2026-01-27 11:56:53.93	225.63	14.46	-27.9	-29.5	14.9	0.00e+00	0	44	0	331350016	16	4332
2026-01-27 11:56:54.93	225.78	14.53	-27.9	-29.5	14.9	0.00e+00	0	44	0	334495744	16	4319
2026-01-27 11:56:55.93	225.93	14.60	-27.9	-29.6	14.9	0.00e+00	0	44	0	337641472	16	4341
2026-01-27 11:56:56.93	226.09	14.68	-28.1	-29.9	14.7	7.00e-07	0	44	0	340787200	16	4434
2026-01-27 11:56:57.93	226.24	14.75	-28.0	-29.7	14.8	0.00e+00	0	44	0	343932928	16	4395
2026-01-27 11:56:58.93	226.40	14.82	-27.9	-29.4	15.0	0.00e+00	0	44	0	347078656	16	4308
2026-01-27 11:56:59.94	226.56	14.89	-27.8	-29.4	15.0	0.00e+00	0	44	0	350224384	16	4289
2026-01-27 11:57:00.94	226.71	14.96	-27.9	-29.5	14.9	0.00e+00	0	44	0	353370112	16	4319
2026-01-27 11:57:01.94	226.87	15.03	-27.9	-29.5	15.0	7.00e-07	0	44	0	356515840	16	4324
2026-01-27 11:57:02.93	227.03	15.10	-27.9	-29.6	14.9	0.00e+00	0	44	0	359661568	16	4346
2026-01-27 11:57:03.94	227.19	15.18	-27.9	-29.5	15.0	0.00e+00	0	44	0	362807296	16	4318
2026-01-27 11:57:04.94	227.35	15.25	-27.9	-29.4	15.0	0.00e+00	0	44	0	365953024	16	4304
2026-01-27 11:57:05.94	227.51	15.32	-27.9	-29.4	15.0	0.00e+00	0	44	0	369098752	16	4305
2026-01-27 11:57:06.93	227.67	15.39	-27.8	-29.2	15.1	0.00e+00	0	44	0	372244480	16	4240
2026-01-27 11:57:07.93	227.84	15.46	-27.8	-29.2	15.2	0.00e+00	0	44	0	375390208	16	4231
2026-01-27 11:57:08.93	228.00	15.53	-27.9	-29.5	15.0	0.00e+00	0	44	0	378535936	16	4317
2026-01-27 11:57:09.94	228.17	15.61	-27.8	-29.2	15.2	0.00e+00	0	44	0	381681664	16	4230
2026-01-27 11:57:10.94	228.33	15.68	-27.8	-29.3	15.1	0.00e+00	0	44	0	384827392	16	4259
2026-01-27 11:57:11.95	228.50	15.75	-28.0	-29.7	14.9	7.00e-07	0	44	0	387973120	16	4372
2026-01-27 11:57:12.96	228.67	15.82	-27.9	-29.5	15.0	0.00e+00	0	44	0	391118848	16	4331
2026-01-27 11:57:13.96	228.83	15.89	-27.9	-29.5	15.0	0.00e+00	0	44	0	394264576	16	4312
2026-01-27 11:57:14.97	229.00	15.97	-27.9	-29.6	15.0	0.00e+00	0	44	0	397410304	16	4347
2026-01-27 11:57:15.97	229.17	16.04	-28.1	-29.9	14.8	0.00e+00	0	44	0	400556032	16	4450
2026-01-27 11:57:16.98	229.34	16.11	-28.2	-30.2	14.6	0.00e+00	0	44	0	403701760	16	4512
2026-01-27 11:57:17.99	229.52	16.18	-28.1	-29.9	14.7	0.00e+00	0	44	0	406847488	16	4452
2026-01-27 11:57:18.99	229.69	16.25	-28.1	-30.0	14.7	0.00e+00	0	44	0	409993216	16	4485
2026-01-27 11:57:20.00	229.86	16.33	-28.3	-30.3	14.6	0.00e+00	0	44	0	413138944	16	4563
2026-01-27 11:57:21.00	230.03	16.40	-28.1	-30.0	14.7	7.00e-07	0	44	0	416284672	16	4483
2026-01-27 11:57:22.00	230.21	16.47	-28.1	-30.0	14.7	0.00e+00	0	44	0	419430400	16	4468
2026-01-27 11:57:23.00	230.38	16.54	-28.1	-30.0	14.7	0.00e+00	0	44	0	422576128	16	4468
2026-01-27 11:57:24.00	230.56	16.61	-28.4	-30.5	14.4	0.00e+00	0	44	0	425721856	16	4629
2026-01-27 11:57:25.00	230.73	16.68	-28.2	-30.1	14.7	7.00e-07	0	44	0	428867584	16	4484
2026-01-27 11:57:26.00	230.91	16.75	-28.1	-29.9	14.8	0.00e+00	0	44	0	432013312	16	4426
2026-01-27 11:57:27.00	231.09	16.83	-28.0	-29.7	14.9	7.00e-07	0	44	0	435159040	16	4380
2026-01-27 11:57:28.00	231.27	16.90	-28.1	-29.8	14.9	0.00e+00	0	44	0	438304768	16	4413
2026-01-27 11:57:29.00	231.44	16.97	-28.0	-29.8	14.9	7.00e-07	0	44	0	441450496	16	4403
2026-01-27 11:57:30.00	231.62	17.04	-28.1	-30.0	14.8	2.20e-06	0	44	0	444596224	16	4472
2026-01-27 11:57:31.00	231.81	17.11	-28.0	-29.7	15.0	7.00e-07	0	44	0	447741952	16	4367
2026-01-27 11:57:32.00	231.99	17.18	-28.0	-29.7	15.0	0.00e+00	0	44	0	450887680	16	4372
2026-01-27 11:57:32.99	232.17	17.25	-27.9	-29.4	15.1	0.00e+00	0	44	0	454033408	16	4287
2026-01-27 11:57:33.99	232.35	17.32	-27.9	-29.5	15.1	0.00e+00	0	44	0	457179136	16	4321
2026-01-27 11:57:34.99	232.54	17.39	-27.9	-29.4	15.1	2.20e-06	0	44	0	460324864	16	4286
2026-01-27 11:57:35.99	232.72	17.46	-27.8	-29.3	15.2	0.00e+00	0	44	0	463470592	16	4279
2026-01-27 11:57:36.99	232.91	17.53	-27.9	-29.6	15.0	0.00e+00	0	44	0	466616320	16	4337
2026-01-27 11:57:37.99	233.09	17.60	-27.9	-29.4	15.1	0.00e+00	0	44	0	469762048	16	4301
2026-01-27 11:57:38.99	233.28	17.67	-27.9	-29.5	15.1	0.00e+00	0	44	0	472907776	16	4316
2026-01-27 11:57:40.00	233.47	17.74	-28.0	-29.8	14.9	0.00e+00	0	44	0	476053504	16	4389
2026-01-27 11:57:41.00	233.66	17.81	-27.9	-29.4	15.1	0.00e+00	0	44	0	479199232	16	4306
2026-01-27 11:57:42.00	233.85	17.88	-27.7	-29.1	15.3	0.00e+00	0	44	0	482344960	16	4197
2026-01-27 11:57:43.00	234.04	17.95	-27.7	-29.0	15.4	0.00e+00	0	44	0	485490688	16	4173
2026-01-27 11:57:44.01	234.24	18.02	-27.7	-29.1	15.4	0.00e+00	0	44	0	488636416	16	4201
2026-01-27 11:57:45.01	234.43	18.09	-27.6	-28.8	15.5	0.00e+00	0	44	0	491782144	16	4115
2026-01-27 11:57:46.02	234.62	18.16	-27.6	-28.8	15.5	0.00e+00	0	44	0	494927872	16	4111
2026-01-27 11:57:47.02	234.82	18.23	-27.8	-29.1	15.3	0.00e+00	0	44	0	498073600	16	4202
2026-01-27 11:57:48.03	235.02	18.30	-27.7	-28.9	15.5	0.00e+00	0	44	0	501219328	16	4135
2026-01-27 11:57:49.03	235.21	18.37	-27.7	-28.9	15.4	0.00e+00	0	44	0	504365056	16	4157
2026-01-27 11:57:50.03	235.41	18.44	-27.7	-29.0	15.4	0.00e+00	0	44	0	506462208	16	4178
2026-01-27 11:57:51.03	235.61	18.51	-27.7	-29.0	15.4	0.00e+00	0	44	0	509607936	16	4175
2026-01-27 11:57:52.03	235.81	18.58	-27.7	-28.9	15.5	0.00e+00	0	44	0	512753664	16	4144
2026-01-27 11:57:53.04	236.01	18.65	-27.7	-29.0	15.4	0.00e+00	0	44	0	515899392	16	4166
2026-01-27 11:57:54.04	236.21	18.72	-27.6	-28.7	15.5	0.00e+00	0	44	0	519045120	16	4105
2026-01-27 11:57:55.05	236.41	18.78	-27.6	-28.7	15.6	0.00e+00	0	44	0	523239424	16	4107
2026-01-27 11:57:56.05	236.61	18.85	-27.7	-28.9	15.4	0.00e+00	0	44	0	525336576	16	4154
2026-01-27 11:57:57.05	236.82	18.92	-27.5	-28.4	15.7	0.00e+00	0	44	0	528482304	16	4020
2026-01-27 11:57:58.04	237.02	18.99	-27.6	-28.7	15.6	0.00e+00	0	44	0	531628032	16	4089
2026-01-27 11:57:59.04	237.22	19.05	-27.5	-28.5	15.7	0.00e+00	0	44	0	534773760	16	4053
2026-01-27 11:58:00.05	237.43	19.12	-27.5	-28.6	15.6	0.00e+00	0	44	0	537919488	16	4057
2026-01-27 11:58:01.04	237.64	19.19	-27.7	-29.0	15.4	0.00e+00	0	44	0	541065216	16	4176
2026-01-27 11:58:02.04	237.84	19.26	-27.7	-28.9	15.5	0.00e+00	0	44	0	544210944	16	4139
2026-01-27 11:58:03.04	238.05	19.32	-27.7	-29.0	15.5	0.00e+00	0	44	0	547356672	16	4163
2026-01-27 11:58:04.04	238.26	19.39	-27.7	-29.1	15.4	0.00e+00	0	44	0	550502400	16	4201
2026-01-27 11:58:05.04	238.47	19.46	-27.9	-29.5	15.2	0.00e+00	0	44	0	553648128	16	4314
2026-01-27 11:58:06.05	238.69	19.52	-27.8	-29.1	15.4	7.00e-07	0	44	0	556793856	16	4211
2026-01-27 11:58:07.05	238.90	19.59	-27.7	-29.1	15.4	0.00e+00	0	44	0	559939584	16	4196
2026-01-27 11:58:08.06	239.11	19.66	-27.8	-29.1	15.4	0.00e+00	0	44	0	563085312	16	4214
2026-01-27 11:58:09.06	239.33	19.72	-27.9	-29.3	15.3	0.00e+00	0	44	0	566231040	16	4254
2026-01-27 11:58:10.06	239.54	19.79	-27.7	-29.0	15.5	0.00e+00	0	44	0	569376768	16	4170
2026-01-27 11:58:11.06	239.76	19.85	-27.8	-29.2	15.3	0.00e+00	0	44	0	572522496	16	4236
2026-01-27 11:58:12.06	239.97	19.92	-27.7	-29.0	15.5	0.00e+00	0	44	0	575668224	16	4163
2026-01-27 11:58:13.06	240.19	19.98	-27.7	-29.0	15.5	0.00e+00	0	44	0	578813952	16	4165
2026-01-27 11:58:14.07	240.41	20.05	-27.8	-29.2	15.4	0.00e+00	0	44	0	581959680	16	4221
2026-01-27 11:58:15.07	240.63	20.11	-27.8	-29.3	15.3	0.00e+00	0	44	0	585105408	16	4244
2026-01-27 11:58:16.08	240.85	20.18	-28.0	-29.5	15.1	0.00e+00	0	44	0	588251136	16	4326
2026-01-27 11:58:17.08	241.07	20.24	-28.1	-29.8	15.0	7.00e-07	0	44	0	591396864	16	4402
2026-01-27 11:58:18.09	241.30	20.30	-28.0	-29.6	15.2	0.00e+00	0	44	0	594542592	16	4330
2026-01-27 11:58:19.09	241.52	20.37	-27.9	-29.4	15.3	0.00e+00	0	44	0	597688320	16	4284
2026-01-27 11:58:20.09	241.75	20.43	-27.9	-29.4	15.3	0.00e+00	0	44	0	600834048	16	4280
2026-01-27 11:58:21.09	241.97	20.49	-27.9	-29.5	15.2	0.00e+00	0	44	0	603979776	16	4299
2026-01-27 11:58:22.09	242.20	20.55	-27.7	-28.9	15.5	0.00e+00	0	44	0	607125504	16	4158
2026-01-27 11:58:23.09	242.42	20.62	-27.9	-29.3	15.3	0.00e+00	0	44	0	610271232	16	4259
2026-01-27 11:58:24.09	242.65	20.68	-27.7	-28.9	15.5	0.00e+00	0	44	0	613416960	16	4159
2026-01-27 11:58:25.10	242.88	20.74	-27.6	-28.8	15.6	7.00e-07	0	44	0	616562688	16	4106
2026-01-27 11:58:26.09	243.11	20.80	-27.7	-28.9	15.5	0.00e+00	0	44	0	619708416	16	4149
2026-01-27 11:58:27.10	243.34	20.86	-27.7	-28.9	15.5	0.00e+00	0	44	0	622854144	16	4145
2026-01-27 11:58:28.09	243.57	20.92	-27.8	-29.2	15.4	2.20e-06	0	44	0	625999872	16	4242
2026-01-27 11:58:29.09	243.80	20.98	-27.8	-29.3	15.3	0.00e+00	0	44	0	629145600	16	4247
2026-01-27 11:58:30.09	244.03	21.04	-28.0	-29.6	15.1	0.00e+00	0	44	0	632291328	16	4352
2026-01-27 11:58:31.09	244.26	21.10	-27.9	-29.3	15.3	3.80e-06	0	44	0	635437056	16	4272
2026-01-27 11:58:32.09	244.50	21.16	-27.7	-29.0	15.5	0.00e+00	0	44	0	638582784	16	4161
2026-01-27 11:58:33.09	244.73	21.22	-27.6	-28.7	15.6	0.00e+00	0	44	0	641728512	16	4090
2026-01-27 11:58:34.10	244.97	21.28	-27.6	-28.7	15.7	2.20e-06	0	44	0	644874240	16	4086
2026-01-27 11:58:35.10	245.21	21.34	-27.6	-28.8	15.6	0.00e+00	0	44	0	648019968	16	4109
2026-01-27 11:58:36.11	245.45	21.39	-27.5	-28.5	15.8	0.00e+00	0	44	0	651165696	16	4047
2026-01-27 11:58:37.11	245.69	21.45	-27.5	-28.6	15.7	0.00e+00	0	44	0	654311424	16	4065
2026-01-27 11:58:38.12	245.93	21.51	-27.4	-28.3	15.9	0.00e+00	0	44	0	657457152	16	3987
2026-01-27 11:58:39.12	246.17	21.57	-27.5	-28.5	15.8	0.00e+00	0	44	0	660602880	16	4035
2026-01-27 11:58:40.12	246.41	21.62	-27.6	-28.6	15.7	0.00e+00	0	44	0	663748608	16	4073
2026-01-27 11:58:41.12	246.65	21.68	-27.6	-28.8	15.6	0.00e+00	0	44	0	666894336	16	4114
2026-01-27 11:58:42.12	246.90	21.73	-27.5	-28.6	15.7	0.00e+00	0	44	0	670040064	16	4070
2026-01-27 11:58:43.13	247.14	21.79	-27.7	-28.9	15.6	0.00e+00	0	44	0	673185792	16	4158
2026-01-27 11:58:44.13	247.39	21.84	-27.5	-28.5	15.8	0.00e+00	0	44	0	676331520	16	4038
2026-01-27 11:58:45.13	247.63	21.90	-27.3	-28.1	16.0	0.00e+00	0	44	0	679477248	16	3942
2026-01-27 11:58:46.13	247.88	21.95	-27.1	-28.2	16.1	0.00e+00	0	44	0	682622976	15	4058
2026-01-27 11:58:47.14	248.13	22.01	-27.2	-28.3	16.1	0.00e+00	0	44	0	685768704	15	4095
2026-01-27 11:58:48.14	248.38	22.06	-27.1	-28.1	16.1	0.00e+00	0	44	0	688914432	15	4045
2026-01-27 11:58:49.15	248.63	22.11	-27.2	-28.4	16.0	0.00e+00	0	44	0	692060160	15	4119
2026-01-27 11:58:50.15	248.88	22.16	-27.2	-28.4	16.0	0.00e+00	0	44	0	695205888	15	4115
2026-01-27 11:58:51.15	249.13	22.22	-27.3	-28.6	15.8	0.00e+00	0	44	0	698351616	15	4188
2026-01-27 11:58:52.15	249.38	22.27	-27.3	-28.6	15.8	0.00e+00	0	44	0	701497344	15	4184
2026-01-27 11:58:53.15	249.63	22.32	-27.4	-28.7	15.8	0.00e+00	0	44	0	704643072	15	4212
2026-01-27 11:58:54.15	249.88	22.37	-27.3	-28.5	15.9	0.00e+00	0	44	0	707788800	15	4149
2026-01-27 11:58:55.15	250.14	22.42	-27.2	-28.3	16.1	0.00e+00	0	44	0	710934528	15	4094
2026-01-27 11:58:56.15	250.39	22.47	-27.2	-28.3	16.0	0.00e+00	0	44	0	714080256	15	4104
2026-01-27 11:58:57.14	250.65	22.52	-27.0	-27.9	16.3	0.00e+00	0	44	0	716177408	15	3994
2026-01-27 11:58:58.15	250.90	22.57	-27.0	-27.8	16.3	0.00e+00	0	44	0	719323136	15	3975
2026-01-27 11:58:59.15	251.16	22.61	-27.0	-27.9	16.3	0.00e+00	0	44	0	723517440	15	3981
2026-01-27 11:59:00.15	251.42	22.66	-26.9	-27.7	16.3	0.00e+00	0	44	0	726663168	15	3939
2026-01-27 11:59:01.15	251.68	22.71	-27.0	-27.9	16.3	0.00e+00	0	44	0	729808896	15	3984
2026-01-27 11:59:02.15	251.94	22.75	-27.0	-27.9	16.2	0.00e+00	0	44	0	732954624	15	4003
2026-01-27 11:59:03.15	252.20	22.80	-27.1	-28.2	16.1	0.00e+00	0	44	0	736100352	15	4074
2026-01-27 11:59:04.16	252.46	22.85	-27.2	-28.4	16.0	0.00e+00	0	44	0	738197504	15	4132
2026-01-27 11:59:05.15	252.72	22.89	-27.2	-28.2	16.1	0.00e+00	0	44	0	741343232	15	4079
2026-01-27 11:59:06.16	252.98	22.93	-27.2	-28.3	16.1	0.00e+00	0	44	0	744488960	15	4084
2026-01-27 11:59:07.17	253.25	22.98	-27.2	-28.3	16.0	0.00e+00	0	44	0	747634688	15	4105
2026-01-27 11:59:08.18	253.51	23.02	-27.2	-28.2	16.1	0.00e+00	0	44	0	750780416	15	4080
2026-01-27 11:59:09.18	253.78	23.07	-27.2	-28.4	16.0	0.00e+00	0	44	0	753926144	15	4111
2026-01-27 11:59:10.18	254.04	23.11	-27.3	-28.6	15.9	0.00e+00	0	44	0	757071872	15	4173
2026-01-27 11:59:11.19	254.31	23.15	-27.3	-28.7	15.9	0.00e+00	0	44	0	760217600	15	4193
2026-01-27 11:59:12.19	254.58	23.19	-27.4	-28.8	15.8	0.00e+00	0	44	0	763363328	15	4238
2026-01-27 11:59:13.19	254.84	23.23	-27.3	-28.5	15.9	0.00e+00	0	44	0	766509056	15	4150
2026-01-27 11:59:14.19	255.11	23.27	-27.2	-28.4	16.0	0.00e+00	0	44	0	769654784	15	4124
2026-01-27 11:59:15.20	255.38	23.31	-27.3	-28.5	16.0	0.00e+00	0	44	0	772800512	15	4135
2026-01-27 11:59:16.20	255.65	23.35	-27.2	-28.3	16.1	0.00e+00	0	44	0	775946240	15	4091
2026-01-27 11:59:17.20	255.92	23.39	-27.3	-28.6	15.9	0.00e+00	0	44	0	779091968	15	4182
2026-01-27 11:59:18.21	256.19	23.42	-27.4	-28.7	15.9	0.00e+00	0	44	0	782237696	15	4196
2026-01-27 11:59:19.21	256.46	23.46	-27.5	-29.1	15.6	0.00e+00	0	44	0	785383424	15	4313
2026-01-27 11:59:20.21	256.73	23.50	-27.5	-29.0	15.7	0.00e+00	0	44	0	788529152	15	4270
2026-01-27 11:59:21.21	257.01	23.53	-27.5	-29.1	15.6	0.00e+00	0	44	0	791674880	15	4320
2026-01-27 11:59:22.22	257.28	23.57	-27.3	-28.6	15.9	0.00e+00	0	44	0	794820608	15	4185
2026-01-27 11:59:23.21	257.55	23.60	-27.2	-28.3	16.0	0.00e+00	0	44	0	797966336	15	4102
2026-01-27 11:59:24.21	257.83	23.64	-27.2	-28.3	16.1	0.00e+00	0	44	0	801112064	15	4092
2026-01-27 11:59:25.21	258.10	23.67	-27.3	-28.6	15.9	0.00e+00	0	44	0	804257792	15	4182
2026-01-27 11:59:26.22	258.38	23.70	-27.2	-28.3	16.1	0.00e+00	0	44	0	807403520	15	4095
2026-01-27 11:59:27.21	258.65	23.73	-27.1	-28.2	16.1	0.00e+00	0	44	0	810549248	15	4058
2026-01-27 11:59:28.21	258.93	23.77	-27.1	-28.2	16.1	0.00e+00	0	44	0	813694976	15	4077
2026-01-27 11:59:29.22	259.21	23.80	-27.2	-28.4	16.0	0.00e+00	0	44	0	816840704	15	4118
2026-01-27 11:59:30.22	259.48	23.83	-27.1	-28.2	16.2	0.00e+00	0	44	0	819986432	15	4058
2026-01-27 11:59:31.21	259.76	23.86	-27.2	-28.2	16.1	0.00e+00	0	44	0	823132160	15	4082
2026-01-27 11:59:32.21	260.04	23.88	-27.2	-28.3	16.1	0.00e+00	0	44	0	826277888	15	4099
2026-01-27 11:59:33.22	260.32	23.91	-27.1	-28.1	16.2	7.60e-06	0	44	0	829423616	15	4058
2026-01-27 11:59:34.21	260.59	23.94	-27.2	-28.4	16.0	0.00e+00	0	44	0	832569344	15	4135
2026-01-27 11:59:35.21	260.87	23.97	-27.3	-28.6	15.9	0.00e+00	0	44	0	835715072	15	4190
2026-01-27 11:59:36.21	261.15	23.99	-27.1	-28.0	16.2	4.50e-06	0	44	0	838860800	15	4030
2026-01-27 11:59:37.21	261.43	24.02	-26.9	-27.8	16.3	0.00e+00	0	44	0	842006528	15	3960
2026-01-27 11:59:38.22	261.72	24.04	-26.9	-27.7	16.4	0.00e+00	0	44	0	845152256	15	3934
2026-01-27 11:59:39.22	262.00	24.07	-26.8	-27.4	16.5	1.50e-06	0	44	0	848297984	15	3878
2026-01-27 11:59:40.23	262.28	24.09	-27.0	-27.8	16.3	0.00e+00	0	44	0	851443712	15	3963
2026-01-27 11:59:41.23	262.56	24.11	-26.9	-27.7	16.4	0.00e+00	0	44	0	854589440	15	3942
2026-01-27 11:59:42.23	262.85	24.14	-27.0	-28.0	16.3	0.00e+00	0	44	0	857735168	15	4008
2026-01-27 11:59:43.24	263.13	24.16	-27.2	-28.3	16.0	0.00e+00	0	44	0	860880896	15	4094
2026-01-27 11:59:44.24	263.42	24.18	-27.0	-27.8	16.3	0.00e+00	0	44	0	864026624	15	3966
2026-01-27 11:59:45.24	263.70	24.20	-26.9	-27.6	16.4	0.00e+00	0	44	0	867172352	15	3929
2026-01-27 11:59:46.24	263.98	24.22	-26.9	-27.6	16.5	0.00e+00	0	44	0	870318080	15	3912
2026-01-27 11:59:47.25	264.27	24.23	-26.9	-27.6	16.4	0.00e+00	0	44	0	873463808	15	3926
2026-01-27 11:59:48.25	264.55	24.25	-26.8	-27.5	16.5	0.00e+00	0	44	0	876609536	15	3900
2026-01-27 11:59:49.26	264.84	24.27	-26.9	-27.7	16.4	0.00e+00	0	44	0	879755264	15	3947
2026-01-27 11:59:50.24	265.12	24.28	-26.8	-27.6	16.5	0.00e+00	0	44	0	882900992	15	3911
2026-01-27 11:59:51.25	265.41	24.30	-26.8	-27.4	16.5	0.00e+00	0	44	0	886046720	15	3875
2026-01-27 11:59:52.25	265.69	24.32	-26.8	-27.5	16.5	0.00e+00	0	44	0	889192448	15	3898
2026-01-27 11:59:53.26	265.98	24.33	-26.7	-27.8	16.6	0.00e+00	0	44	0	892338176	14	4072
2026-01-27 11:59:54.25	266.27	24.34	-26.9	-28.1	16.4	0.00e+00	0	44	0	895483904	14	4144
2026-01-27 11:59:55.26	266.56	24.35	-26.7	-27.8	16.6	0.00e+00	0	44	0	898629632	14	4080
2026-01-27 11:59:56.27	266.85	24.37	-26.8	-28.0	16.5	0.00e+00	0	44	0	901775360	14	4131
2026-01-27 11:59:57.27	267.13	24.38	-26.9	-28.1	16.4	0.00e+00	0	44	0	904921088	14	4143
2026-01-27 11:59:58.27	267.42	24.39	-26.8	-28.0	16.5	0.00e+00	0	44	0	908066816	14	4114
2026-01-27 11:59:59.27	267.71	24.40	-26.8	-27.9	16.5	0.00e+00	0	44	0	911212544	14	4098
2026-01-27 12:00:00.27	267.99	24.41	-26.7	-27.7	16.6	0.00e+00	0	44	0	914358272	14	4050
2026-01-27 12:00:01.28	268.28	24.41	-26.8	-28.0	16.5	0.00e+00	0	44	0	917504000	14	4117
2026-01-27 12:00:02.29	268.57	24.42	-27.1	-28.5	16.2	0.00e+00	0	44	0	920649728	14	4272
2026-01-27 12:00:03.29	268.86	24.43	-27.3	-29.1	15.9	0.00e+00	0	44	0	923795456	14	4423
2026-01-27 12:00:04.30	269.15	24.43	-27.3	-29.1	15.9	0.00e+00	0	44	0	926941184	14	4431
2026-01-27 12:00:05.30	269.44	24.44	-27.5	-29.4	15.7	0.00e+00	0	44	0	930086912	14	4517
2026-01-27 12:00:06.30	269.73	24.44	-27.3	-29.0	15.9	0.00e+00	0	44	0	933232640	14	4401
2026-01-27 12:00:07.30	270.02	24.45	-27.3	-29.0	15.9	0.00e+00	0	44	0	936378368	14	4406
2026-01-27 12:00:08.30	270.30	24.45	-27.4	-29.2	15.8	0.00e+00	0	44	0	939524096	14	4464
2026-01-27 12:00:09.30	270.59	24.45	-27.5	-29.4	15.7	0.00e+00	0	44	0	942669824	14	4514
2026-01-27 12:00:10.31	270.88	24.45	-27.7	-29.5	15.4	0.00e+00	0	44	0	945815552	15	4424
2026-01-27 12:00:11.31	271.17	24.46	-27.8	-29.8	15.3	7.00e-07	0	44	0	948961280	15	4497
2026-01-27 12:00:12.31	271.46	24.45	-27.3	-28.7	15.9	0.00e+00	0	44	0	952107008	15	4194
2026-01-27 12:00:13.32	271.75	24.45	-27.0	-27.8	16.3	0.00e+00	0	44	0	955252736	15	3963
2026-01-27 12:00:14.32	272.04	24.45	-26.8	-27.4	16.5	0.00e+00	0	44	0	958398464	15	3857
2026-01-27 12:00:15.32	272.33	24.45	-26.7	-27.7	16.7	0.00e+00	0	44	0	961544192	14	4047
2026-01-27 12:00:16.33	272.62	24.45	-26.8	-28.0	16.5	0.00e+00	0	44	0	964689920	14	4125
2026-01-27 12:00:17.33	272.90	24.44	-27.0	-28.3	16.3	0.00e+00	0	44	0	966787072	14	4218
2026-01-27 12:00:18.34	273.19	24.44	-27.0	-28.5	16.2	0.00e+00	0	44	0	969932800	14	4261
2026-01-27 12:00:19.34	273.48	24.43	-27.1	-28.6	16.1	0.00e+00	0	44	0	973078528	14	4297
2026-01-27 12:00:20.34	273.77	24.43	-27.0	-28.3	16.3	0.00e+00	0	44	0	976224256	14	4210
2026-01-27 12:00:21.34	274.06	24.42	-26.9	-28.2	16.4	0.00e+00	0	44	0	979369984	14	4185
2026-01-27 12:00:22.35	274.35	24.41	-27.0	-28.4	16.2	0.00e+00	0	44	0	982515712	14	4243
2026-01-27 12:00:23.35	274.63	24.40	-27.1	-28.5	16.2	1.50e-06	0	44	0	986710016	14	4266
2026-01-27 12:00:24.35	274.92	24.40	-27.1	-28.7	16.1	0.00e+00	0	44	0	989855744	14	4328
2026-01-27 12:00:25.36	275.21	24.39	-27.1	-28.6	16.2	0.00e+00	0	45	0	991952896	14	4291
2026-01-27 12:00:26.37	275.50	24.37	-27.1	-28.6	16.1	0.00e+00	0	44	0	995098624	14	4286
2026-01-27 12:00:27.37	275.79	24.36	-26.9	-28.3	16.3	0.00e+00	0	44	0	998244352	14	4204
2026-01-27 12:00:28.37	276.07	24.35	-26.9	-28.1	16.4	0.00e+00	0	44	0	1001390080	14	4157
2026-01-27 12:00:29.37	276.36	24.34	-26.9	-28.1	16.4	0.00e+00	0	44	0	1004535808	14	4142
2026-01-27 12:00:30.38	276.65	24.33	-26.8	-28.1	16.5	0.00e+00	0	44	0	1007681536	14	4141
2026-01-27 12:00:31.37	276.93	24.31	-26.9	-28.3	16.4	0.00e+00	0	44	0	1010827264	14	4189
2026-01-27 12:00:32.38	277.22	24.30	-27.0	-28.4	16.3	1.50e-06	0	44	0	1013972992	14	4225
2026-01-27 12:00:33.37	277.50	24.28	-26.8	-27.9	16.6	0.00e+00	0	44	0	1017118720	14	4097
2026-01-27 12:00:34.38	277.79	24.26	-26.7	-27.8	16.6	0.00e+00	0	44	0	1020264448	14	4065
2026-01-27 12:00:35.38	278.07	24.25	-26.7	-27.7	16.7	0.00e+00	0	44	0	1023410176	14	4030
2026-01-27 12:00:36.39	278.36	24.23	-26.6	-27.6	16.7	0.00e+00	0	44	0	1026555904	14	4010
2026-01-27 12:00:37.39	278.64	24.21	-26.7	-27.6	16.7	0.00e+00	0	44	0	1029701632	14	4028
2026-01-27 12:00:38.39	278.93	24.19	-26.7	-27.7	16.6	1.50e-06	0	44	0	1032847360	14	4052
2026-01-27 12:00:39.40	279.21	24.17	-26.6	-27.6	16.7	0.00e+00	0	44	0	1035993088	14	4016
2026-01-27 12:00:40.41	279.50	24.15	-26.7	-27.6	16.7	0.00e+00	0	44	0	1039138816	14	4029
2026-01-27 12:00:41.41	279.78	24.13	-26.7	-27.8	16.6	0.00e+00	0	44	0	1042284544	14	4080
2026-01-27 12:00:42.42	280.06	24.11	-26.9	-28.1	16.4	0.00e+00	0	44	0	1045430272	14	4150
2026-01-27 12:00:43.42	280.35	24.08	-27.0	-28.4	16.3	0.00e+00	0	44	0	1048576000	14	4226
2026-01-27 12:00:44.42	280.63	24.06	-27.0	-28.4	16.3	0.00e+00	0	44	0	1051721728	14	4240
2026-01-27 12:00:45.42	280.91	24.04	-27.0	-28.4	16.3	0.00e+00	0	44	0	1054867456	14	4227
2026-01-27 12:00:46.42	281.19	24.01	-26.9	-28.1	16.4	0.00e+00	0	44	0	1058013184	14	4157
2026-01-27 12:00:47.42	281.47	23.99	-26.9	-28.2	16.4	0.00e+00	0	44	0	1061158912	14	4175
2026-01-27 12:00:48.43	281.75	23.96	-26.9	-28.2	16.4	0.00e+00	0	44	0	1064304640	14	4177
2026-01-27 12:00:49.43	282.03	23.93	-26.9	-28.3	16.4	0.00e+00	0	44	0	1067450368	14	4188
2026-01-27 12:00:50.43	282.31	23.91	-27.0	-28.5	16.2	0.00e+00	0	45	0	1070596096	14	4246
2026-01-27 12:00:51.44	282.59	23.88	-26.8	-28.0	16.5	0.00e+00	0	45	0	1073741824	14	4123
2026-01-27 12:00:52.43	282.86	23.85	-26.8	-27.8	16.6	0.00e+00	0	44	0	1076887552	14	4081
2026-01-27 12:00:53.44	283.14	23.82	-26.7	-27.7	16.6	0.00e+00	0	45	0	1080033280	14	4047
2026-01-27 12:00:54.44	283.42	23.79	-26.7	-27.8	16.6	0.00e+00	0	44	0	1083179008	14	4070
2026-01-27 12:00:55.45	283.70	23.76	-26.9	-28.2	16.4	0.00e+00	0	45	0	1086324736	14	4170
2026-01-27 12:00:56.45	283.97	23.73	-26.9	-28.3	16.4	0.00e+00	0	44	0	1089470464	14	4190
2026-01-27 12:00:57.46	284.25	23.69	-26.8	-27.9	16.5	0.00e+00	0	44	0	1092616192	14	4110
2026-01-27 12:00:58.46	284.52	23.66	-26.8	-28.0	16.5	0.00e+00	0	45	0	1095761920	14	4120
2026-01-27 12:00:59.46	284.80	23.63	-26.8	-27.9	16.5	0.00e+00	0	45	0	1098907648	14	4109
2026-01-27 12:01:00.46	285.07	23.59	-26.8	-27.9	16.6	0.00e+00	0	45	0	1102053376	14	4084
2026-01-27 12:01:01.47	285.34	23.56	-26.8	-27.9	16.6	0.00e+00	0	45	0	1105199104	14	4083
2026-01-27 12:01:02.47	285.62	23.52	-26.7	-27.8	16.6	0.00e+00	0	44	0	1108344832	14	4072
2026-01-27 12:01:03.48	285.89	23.49	-26.8	-27.9	16.5	0.00e+00	0	45	0	1111490560	14	4106
2026-01-27 12:01:04.48	286.16	23.45	-26.9	-28.1	16.4	0.00e+00	0	45	0	1114636288	14	4158
2026-01-27 12:01:05.48	286.43	23.41	-26.8	-28.1	16.5	0.00e+00	0	44	0	1117782016	14	4136
2026-01-27 12:01:06.49	286.70	23.38	-26.9	-28.1	16.4	0.00e+00	0	44	0	1120927744	14	4153
2026-01-27 12:01:07.49	286.97	23.34	-26.9	-28.2	16.4	0.00e+00	0	45	0	1124073472	14	4175
2026-01-27 12:01:08.49	287.24	23.30	-26.9	-28.2	16.4	0.00e+00	0	45	0	1127219200	14	4182
2026-01-27 12:01:09.50	287.51	23.26	-27.0	-28.5	16.3	0.00e+00	0	45	0	1130364928	14	4247
2026-01-27 12:01:10.50	287.78	23.22	-27.0	-28.4	16.3	0.00e+00	0	44	0	1133510656	14	4217
2026-01-27 12:01:11.50	288.04	23.18	-26.8	-28.0	16.5	0.00e+00	0	45	0	1136656384	14	4129
2026-01-27 12:01:12.50	288.31	23.14	-26.8	-27.9	16.5	0.00e+00	0	45	0	1139802112	14	4100
2026-01-27 12:01:13.50	288.57	23.10	-26.7	-27.8	16.6	0.00e+00	0	44	0	1142947840	14	4082
2026-01-27 12:01:14.50	288.83	23.05	-26.8	-27.9	16.6	0.00e+00	0	45	0	1146093568	14	4088
2026-01-27 12:01:15.50	289.10	23.01	-26.8	-28.1	16.5	0.00e+00	0	45	0	1149239296	14	4137
2026-01-27 12:01:16.51	289.36	22.97	-27.1	-28.6	16.2	0.00e+00	0	44	0	1152385024	14	4275
2026-01-27 12:01:17.52	289.63	22.92	-27.1	-28.7	16.2	0.00e+00	0	45	0	1155530752	14	4302
2026-01-27 12:01:18.52	289.89	22.88	-27.2	-28.8	16.1	0.00e+00	0	44	0	1158676480	14	4341
2026-01-27 12:01:19.53	290.15	22.83	-27.3	-29.0	16.0	0.00e+00	0	44	0	1161822208	14	4402
2026-01-27 12:01:20.54	290.41	22.79	-27.4	-29.2	15.8	0.00e+00	0	45	0	1164967936	14	4454
2026-01-27 12:01:21.54	290.67	22.74	-27.3	-29.1	15.9	0.00e+00	0	45	0	1168113664	14	4428
2026-01-27 12:01:22.54	290.93	22.70	-27.5	-29.4	15.7	0.00e+00	0	45	0	1171259392	14	4517
2026-01-27 12:01:23.55	291.19	22.65	-27.4	-28.9	15.7	0.00e+00	0	45	0	1174405120	15	4246
2026-01-27 12:01:24.55	291.45	22.60	-27.1	-28.1	16.2	0.00e+00	0	45	0	1177550848	15	4044
2026-01-27 12:01:25.55	291.70	22.55	-27.0	-27.9	16.3	0.00e+00	0	45	0	1180696576	15	3997
2026-01-27 12:01:26.56	291.96	22.51	-27.0	-27.8	16.3	0.00e+00	0	45	0	1183842304	15	3979
2026-01-27 12:01:27.56	292.21	22.46	-27.0	-27.9	16.3	0.00e+00	0	45	0	1186988032	15	4005
2026-01-27 12:01:28.55	292.46	22.41	-27.0	-28.0	16.2	0.00e+00	0	45	0	1190133760	15	4025
2026-01-27 12:01:29.55	292.72	22.36	-27.1	-28.1	16.1	0.00e+00	0	44	0	1193279488	15	4055
2026-01-27 12:01:30.56	292.97	22.31	-27.2	-28.3	16.1	0.00e+00	0	45	0	1196425216	15	4100
2026-01-27 12:01:31.56	293.22	22.26	-27.3	-28.5	16.0	0.00e+00	0	45	0	1199570944	15	4151
2026-01-27 12:01:32.57	293.47	22.21	-27.3	-28.5	16.0	0.00e+00	0	45	0	1202716672	15	4149
2026-01-27 12:01:33.57	293.72	22.15	-27.3	-28.6	15.9	0.00e+00	0	45	0	1205862400	15	4169
2026-01-27 12:01:34.58	293.97	22.10	-27.4	-28.8	15.8	1.50e-06	0	44	0	1209008128	15	4215
2026-01-27 12:01:35.58	294.22	22.05	-27.4	-28.8	15.8	0.00e+00	0	45	0	1212153856	15	4225
2026-01-27 12:01:36.59	294.47	22.00	-27.4	-28.8	15.8	0.00e+00	0	44	0	1215299584	15	4225
2026-01-27 12:01:37.60	294.72	21.94	-27.4	-28.8	15.8	3.80e-06	0	45	0	1218445312	15	4229
2026-01-27 12:01:38.60	294.96	21.89	-27.3	-28.6	15.9	0.00e+00	0	45	0	1221591040	15	4179
2026-01-27 12:01:39.60	295.21	21.83	-27.4	-28.7	15.8	0.00e+00	0	45	0	1224736768	15	4205
2026-01-27 12:01:40.60	295.45	21.78	-27.5	-29.0	15.6	7.00e-07	0	45	0	1227882496	15	4298
2026-01-27 12:01:41.61	295.70	21.72	-27.5	-29.1	15.6	0.00e+00	0	45	0	1231028224	15	4325
2026-01-27 12:01:42.62	295.94	21.67	-27.5	-29.0	15.7	0.00e+00	0	45	0	1234173952	15	4290
2026-01-27 12:01:43.62	296.18	21.61	-27.6	-29.2	15.6	0.00e+00	0	45	0	1237319680	15	4337
2026-01-27 12:01:44.62	296.42	21.56	-27.5	-29.0	15.7	0.00e+00	0	45	0	1240465408	15	4289
2026-01-27 12:01:45.62	296.66	21.50	-27.4	-28.8	15.8	0.00e+00	0	44	0	1243611136	15	4245
2026-01-27 12:01:46.62	296.90	21.44	-27.4	-28.8	15.8	3.00e-06	0	45	0	1246756864	15	4228
2026-01-27 12:01:47.63	297.14	21.39	-27.4	-28.7	15.8	0.00e+00	0	45	0	1249902592	15	4207
2026-01-27 12:01:48.63	297.38	21.33	-27.5	-29.0	15.7	0.00e+00	0	44	0	1253048320	15	4276
2026-01-27 12:01:49.63	297.61	21.27	-27.5	-29.1	15.6	0.00e+00	0	45	0	1256194048	15	4306
2026-01-27 12:01:50.63	297.85	21.21	-27.4	-28.7	15.8	0.00e+00	0	45	0	1259339776	15	4211
2026-01-27 12:01:51.64	298.08	21.15	-27.3	-28.6	15.9	0.00e+00	0	45	0	1262485504	15	4175
2026-01-27 12:01:52.64	298.32	21.09	-27.3	-28.5	15.9	0.00e+00	0	45	0	1265631232	15	4151
2026-01-27 12:01:53.65	298.55	21.03	-27.3	-28.6	15.9	0.00e+00	0	45	0	1268776960	15	4171
2026-01-27 12:01:54.65	298.78	20.97	-27.3	-28.7	15.8	0.00e+00	0	45	0	1271922688	15	4190
2026-01-27 12:01:55.66	299.01	20.91	-27.4	-28.8	15.8	0.00e+00	0	44	0	1275068416	15	4217
2026-01-27 12:01:56.66	299.24	20.85	-27.3	-28.6	15.9	0.00e+00	0	45	0	1278214144	15	4175
2026-01-27 12:01:57.66	299.47	20.79	-27.4	-28.8	15.8	7.00e-07	0	45	0	1281359872	15	4237
2026-01-27 12:01:58.67	299.70	20.73	-27.3	-28.5	15.9	0.00e+00	0	45	0	1284505600	15	4161
2026-01-27 12:01:59.67	299.93	20.67	-27.1	-28.0	16.2	0.00e+00	0	45	0	1287651328	15	4025
2026-01-27 12:02:00.67	300.16	20.61	-27.0	-27.9	16.3	0.00e+00	0	45	0	1289748480	15	3985
2026-01-27 12:02:01.67	300.38	20.55	-27.0	-27.9	16.3	0.00e+00	0	45	0	1292894208	15	4001
2026-01-27 12:02:02.68	300.61	20.48	-27.0	-28.0	16.2	0.00e+00	0	45	0	1296039936	15	4006
2026-01-27 12:02:03.68	300.83	20.42	-27.1	-28.2	16.1	0.00e+00	0	45	0	1299185664	15	4065
2026-01-27 12:02:04.68	301.05	20.36	-27.2	-28.3	16.0	0.00e+00	0	45	0	1302331392	15	4107
2026-01-27 12:02:05.69	301.28	20.30	-27.3	-28.5	15.9	0.00e+00	0	45	0	1305477120	15	4144
2026-01-27 12:02:06.70	301.50	20.23	-27.3	-28.5	15.9	0.00e+00	0	45	0	1309671424	15	4158
2026-01-27 12:02:07.70	301.72	20.17	-27.3	-28.5	15.9	0.00e+00	0	44	0	1312817152	15	4161
2026-01-27 12:02:08.70	301.94	20.11	-27.3	-28.5	15.9	0.00e+00	0	45	0	1314914304	15	4150
2026-01-27 12:02:09.70	302.16	20.04	-27.3	-28.5	15.9	0.00e+00	0	45	0	1318060032	15	4155
2026-01-27 12:02:10.71	302.38	19.98	-27.2	-28.3	16.0	0.00e+00	0	45	0	1321205760	15	4108
2026-01-27 12:02:11.71	302.59	19.91	-27.1	-28.2	16.1	0.00e+00	0	44	0	1324351488	15	4072
2026-01-27 12:02:12.72	302.81	19.85	-27.2	-28.4	16.0	0.00e+00	0	45	0	1327497216	15	4128
2026-01-27 12:02:13.72	303.02	19.78	-27.3	-28.5	15.9	0.00e+00	0	45	0	1330642944	15	4146
2026-01-27 12:02:14.72	303.24	19.72	-27.3	-28.6	15.9	0.00e+00	0	45	0	1333788672	15	4172
2026-01-27 12:02:15.72	303.45	19.65	-27.3	-28.6	15.9	0.00e+00	0	45	0	1336934400	15	4164
2026-01-27 12:02:16.72	303.66	19.59	-27.4	-28.7	15.8	0.00e+00	0	45	0	1340080128	15	4214
2026-01-27 12:02:17.73	303.88	19.52	-27.4	-28.9	15.7	0.00e+00	0	45	0	1343225856	15	4258
2026-01-27 12:02:18.74	304.09	19.46	-27.5	-29.1	15.6	0.00e+00	0	45	0	1346371584	15	4307
2026-01-27 12:02:19.74	304.30	19.39	-27.6	-29.2	15.5	0.00e+00	0	45	0	1349517312	15	4354
2026-01-27 12:02:20.74	304.50	19.32	-27.5	-29.0	15.6	0.00e+00	0	44	0	1352663040	15	4297
2026-01-27 12:02:21.74	304.71	19.26	-27.5	-29.0	15.6	0.00e+00	0	45	0	1355808768	15	4289
2026-01-27 12:02:22.74	304.92	19.19	-27.4	-28.9	15.7	0.00e+00	0	45	0	1358954496	15	4252
2026-01-27 12:02:23.74	305.12	19.12	-27.5	-29.1	15.6	7.00e-07	0	44	0	1362100224	15	4300
2026-01-27 12:02:24.74	305.33	19.06	-27.5	-28.9	15.6	0.00e+00	0	44	0	1365245952	15	4267
2026-01-27 12:02:25.75	305.53	18.99	-27.4	-28.8	15.7	0.00e+00	0	45	0	1368391680	15	4239
2026-01-27 12:02:26.75	305.74	18.92	-27.4	-28.8	15.7	0.00e+00	0	45	0	1371537408	15	4235
2026-01-27 12:02:27.76	305.94	18.85	-27.4	-28.8	15.7	0.00e+00	0	45	0	1374683136	15	4236
2026-01-27 12:02:28.77	306.14	18.79	-27.4	-28.8	15.7	0.00e+00	0	45	0	1377828864	15	4231
2026-01-27 12:02:29.77	306.34	18.72	-27.4	-28.9	15.6	0.00e+00	0	45	0	1380974592	15	4252
2026-01-27 12:02:30.78	306.55	18.65	-27.3	-28.6	15.8	0.00e+00	0	45	0	1384120320	15	4170
2026-01-27 12:02:31.78	306.74	18.58	-27.3	-28.5	15.9	0.00e+00	0	45	0	1387266048	15	4158
2026-01-27 12:02:32.78	306.94	18.51	-27.4	-28.9	15.7	0.00e+00	0	45	0	1390411776	15	4262
2026-01-27 12:02:33.79	307.14	18.44	-27.4	-28.8	15.7	0.00e+00	0	45	0	1393557504	15	4242
2026-01-27 12:02:34.79	307.34	18.38	-27.4	-28.8	15.7	0.00e+00	0	45	0	1396703232	15	4236
2026-01-27 12:02:35.80	307.53	18.31	-27.5	-29.2	15.5	0.00e+00	0	44	0	1399848960	15	4330
2026-01-27 12:02:36.79	307.73	18.24	-27.5	-29.0	15.6	0.00e+00	0	45	0	1402994688	15	4278
2026-01-27 12:02:37.80	307.92	18.17	-27.5	-28.9	15.6	0.00e+00	0	44	0	1406140416	15	4272
2026-01-27 12:02:38.80	308.11	18.10	-27.6	-29.2	15.4	0.00e+00	0	45	0	1409286144	15	4346
2026-01-27 12:02:39.80	308.31	18.03	-27.5	-29.0	15.6	0.00e+00	0	44	0	1412431872	15	4282
2026-01-27 12:02:40.81	308.50	17.96	-27.5	-29.0	15.6	0.00e+00	0	44	0	1415577600	15	4288
2026-01-27 12:02:41.81	308.69	17.89	-27.6	-29.3	15.4	0.00e+00	0	44	0	1418723328	15	4361
2026-01-27 12:02:42.81	308.88	17.82	-27.5	-29.1	15.5	0.00e+00	0	45	0	1421869056	15	4323
2026-01-27 12:02:43.82	309.07	17.75	-27.5	-29.1	15.5	0.00e+00	0	45	0	1425014784	15	4312
2026-01-27 12:02:44.82	309.25	17.68	-27.5	-29.1	15.5	0.00e+00	0	44	0	1428160512	15	4315
2026-01-27 12:02:45.82	309.44	17.61	-27.6	-29.3	15.4	0.00e+00	0	45	0	1431306240	15	4383
2026-01-27 12:02:46.81	309.63	17.54	-27.6	-29.2	15.5	0.00e+00	0	45	0	1434451968	15	4345
2026-01-27 12:02:47.82	309.81	17.47	-27.7	-29.4	15.4	0.00e+00	0	44	0	1437597696	15	4397
2026-01-27 12:02:48.82	310.00	17.40	-27.7	-29.4	15.3	0.00e+00	0	45	0	1440743424	15	4405
2026-01-27 12:02:49.83	310.18	17.33	-27.7	-29.5	15.3	0.00e+00	0	44	0	1443889152	15	4439
2026-01-27 12:02:50.83	310.36	17.26	-27.7	-29.5	15.2	0.00e+00	0	45	0	1447034880	15	4445
2026-01-27 12:02:51.84	310.55	17.19	-27.8	-29.7	15.1	0.00e+00	0	45	0	1450180608	15	4504
2026-01-27 12:02:52.85	310.73	17.12	-27.8	-29.7	15.2	0.00e+00	0	45	0	1453326336	15	4483
2026-01-27 12:02:53.85	310.91	17.05	-27.8	-29.9	15.1	0.00e+00	0	44	0	1456472064	15	4539
2026-01-27 12:02:54.85	311.09	16.98	-27.7	-29.5	15.3	0.00e+00	0	44	0	1459617792	15	4441
2026-01-27 12:02:55.86	311.27	16.91	-27.7	-29.4	15.3	0.00e+00	0	44	0	1462763520	15	4409
2026-01-27 12:02:56.86	311.45	16.84	-27.7	-29.6	15.2	0.00e+00	0	44	0	1465909248	15	4460
2026-01-27 12:02:57.86	311.62	16.77	-27.6	-29.3	15.4	0.00e+00	0	45	0	1469054976	15	4360
2026-01-27 12:02:58.87	311.80	16.70	-27.5	-29.1	15.5	0.00e+00	0	44	0	1472200704	15	4327
2026-01-27 12:02:59.88	311.98	16.63	-27.6	-29.3	15.4	0.00e+00	0	45	0	1475346432	15	4379
2026-01-27 12:03:00.88	312.15	16.55	-27.6	-29.2	15.4	0.00e+00	0	44	0	1478492160	15	4342
2026-01-27 12:03:01.89	312.33	16.48	-27.7	-29.4	15.3	0.00e+00	0	45	0	1481637888	15	4404
2026-01-27 12:03:02.89	312.50	16.41	-27.6	-29.3	15.4	0.00e+00	0	45	0	1484783616	15	4359
2026-01-27 12:03:03.89	312.67	16.34	-27.6	-29.2	15.4	0.00e+00	0	44	0	1487929344	15	4336
2026-01-27 12:03:04.89	312.84	16.27	-27.5	-29.1	15.5	0.00e+00	0	44	0	1491075072	15	4325
2026-01-27 12:03:05.89	313.01	16.20	-27.5	-29.1	15.4	7.00e-07	0	45	0	1494220800	15	4321
2026-01-27 12:03:06.89	313.18	16.13	-27.6	-29.4	15.4	0.00e+00	0	45	0	1497366528	15	4390
2026-01-27 12:03:07.90	313.35	16.06	-27.8	-29.6	15.2	0.00e+00	0	45	0	1500512256	15	4475
2026-01-27 12:03:08.90	313.52	15.99	-27.8	-29.6	15.2	7.00e-07	0	44	0	1503657984	15	4470
2026-01-27 12:03:09.91	313.69	15.92	-27.9	-29.9	15.0	0.00e+00	0	45	0	1506803712	15	4547
2026-01-27 12:03:10.91	313.85	15.84	-27.8	-29.7	15.1	7.00e-07	0	45	0	1509949440	15	4484
2026-01-27 12:03:11.91	314.02	15.77	-27.9	-30.0	15.0	0.00e+00	0	44	0	1513095168	15	4576
2026-01-27 12:03:12.92	314.19	15.70	-27.7	-29.6	15.2	0.00e+00	0	44	0	1516240896	15	4446
2026-01-27 12:03:13.92	314.35	15.63	-27.9	-29.9	15.0	0.00e+00	0	45	0	1519386624	15	4545
2026-01-27 12:03:14.92	314.51	15.56	-27.7	-29.6	15.2	0.00e+00	0	44	0	1522532352	15	4453
2026-01-27 12:03:15.93	314.68	15.49	-27.6	-29.3	15.3	0.00e+00	0	44	0	1525678080	15	4379
2026-01-27 12:03:16.92	314.84	15.42	-27.7	-29.4	15.3	0.00e+00	0	44	0	1528823808	15	4400
2026-01-27 12:03:17.93	315.00	15.35	-27.7	-29.5	15.3	0.00e+00	0	45	0	1531969536	15	4423
2026-01-27 12:03:18.94	315.16	15.27	-27.7	-29.6	15.2	0.00e+00	0	44	0	1535115264	15	4461
2026-01-27 12:03:19.94	315.32	15.20	-27.9	-30.1	14.9	0.00e+00	0	45	0	1538260992	15	4596
2026-01-27 12:03:20.94	315.48	15.13	-27.9	-30.0	14.9	0.00e+00	0	44	0	1541406720	15	4579
2026-01-27 12:03:21.95	315.64	15.06	-28.2	-30.2	14.7	0.00e+00	0	45	0	1544552448	16	4524
2026-01-27 12:03:22.95	315.80	14.99	-28.2	-30.2	14.7	0.00e+00	0	44	0	1547698176	16	4503
2026-01-27 12:03:23.96	315.96	14.92	-28.3	-30.4	14.6	0.00e+00	0	45	0	1550843904	16	4583
2026-01-27 12:03:24.96	316.11	14.85	-28.6	-30.5	14.2	7.00e-07	0	44	0	1553989632	17	4497
2026-01-27 12:03:25.97	316.27	14.78	-28.4	-30.1	14.4	7.00e-07	0	44	0	1557135360	17	4384
2026-01-27 12:03:26.97	316.42	14.70	-28.5	-30.4	14.3	7.00e-07	0	44	0	1560281088	17	4478
2026-01-27 12:03:27.97	316.58	14.63	-28.4	-30.1	14.4	7.00e-07	0	45	0	1563426816	17	4389
2026-01-27 12:03:28.97	316.73	14.56	-28.4	-30.2	14.4	7.00e-07	0	44	0	1566572544	17	4399
2026-01-27 12:03:29.97	316.88	14.49	-28.5	-30.4	14.3	7.00e-07	0	44	0	1569718272	17	4458
2026-01-27 12:03:30.97	317.04	14.42	-28.5	-30.4	14.2	0.00e+00	0	44	0	1572864000	17	4480
2026-01-27 12:03:31.98	317.19	14.35	-28.6	-30.6	14.2	2.20e-06	0	44	0	1576009728	17	4529
2026-01-27 12:03:32.98	317.34	14.28	-28.8	-31.2	13.8	4.50e-06	0	45	0	1579155456	17	4704
2026-01-27 12:03:33.98	317.49	14.21	-28.6	-30.6	14.1	3.80e-06	0	44	0	1582301184	17	4538
2026-01-27 12:03:34.99	317.64	14.14	-28.5	-30.2	14.3	1.50e-06	0	44	0	1585446912	17	4418
2026-01-27 12:03:36.00	317.79	14.07	-28.4	-30.2	14.4	7.00e-07	0	44	0	1588592640	17	4409
2026-01-27 12:03:37.00	317.93	13.99	-28.5	-30.3	14.3	0.00e+00	0	45	0	1591738368	17	4452
2026-01-27 12:03:38.01	318.08	13.92	-28.7	-30.8	14.0	2.20e-06	0	45	0	1594884096	17	4577
2026-01-27 12:03:39.01	318.23	13.85	-28.7	-30.8	14.0	1.50e-06	0	45	0	1598029824	17	4585
2026-01-27 12:03:40.02	318.38	13.78	-28.8	-30.9	13.9	4.50e-06	0	45	0	1601175552	17	4628
2026-01-27 12:03:41.02	318.52	13.71	-28.7	-30.8	13.9	2.20e-06	0	45	0	1604321280	17	4601
2026-01-27 12:03:42.03	318.67	13.64	-28.7	-30.8	14.0	1.50e-06	0	45	0	1607467008	17	4585
2026-01-27 12:03:43.03	318.81	13.57	-28.8	-31.0	13.9	3.80e-06	0	44	0	1610612736	17	4657
2026-01-27 12:03:44.03	318.95	13.50	-28.6	-30.6	14.1	0.00e+00	0	44	0	1612709888	17	4530
2026-01-27 12:03:45.04	319.10	13.43	-28.8	-30.9	13.9	3.80e-06	0	45	0	1615855616	17	4629
2026-01-27 12:03:46.04	319.24	13.36	-28.5	-30.3	14.2	1.50e-06	0	45	0	1619001344	17	4448
2026-01-27 12:03:47.04	319.38	13.29	-28.4	-30.0	14.4	0.00e+00	0	45	0	1622147072	17	4357
2026-01-27 12:03:48.05	319.52	13.22	-28.3	-29.9	14.5	7.00e-07	0	44	0	1626341376	17	4327
2026-01-27 12:03:49.05	319.66	13.15	-28.4	-30.0	14.4	1.50e-06	0	45	0	1629487104	17	4357
2026-01-27 12:03:50.05	319.80	13.08	-28.4	-30.1	14.4	2.20e-06	0	44	0	1632632832	17	4384
2026-01-27 12:03:51.05	319.94	13.01	-28.5	-30.3	14.2	3.00e-06	0	45	0	1635778560	17	4453
2026-01-27 12:03:52.06	320.08	12.94	-28.7	-30.8	13.9	2.20e-06	0	44	0	1637875712	17	4603
2026-01-27 12:03:53.06	320.21	12.87	-28.6	-30.6	14.1	1.50e-06	0	45	0	1641021440	17	4542
2026-01-27 12:03:54.07	320.35	12.80	-28.6	-30.5	14.1	4.50e-06	0	44	0	1644167168	17	4502
2026-01-27 12:03:55.08	320.49	12.72	-28.6	-30.7	14.0	3.00e-06	0	45	0	1647312896	17	4561
2026-01-27 12:03:56.08	320.62	12.65	-28.7	-30.9	13.9	7.00e-07	0	44	0	1650458624	17	4614
2026-01-27 12:03:57.09	320.76	12.58	-28.8	-31.0	13.8	3.00e-06	0	44	0	1653604352	17	4670
2026-01-27 12:03:58.09	320.89	12.51	-28.8	-31.1	13.8	2.20e-06	0	45	0	1656750080	17	4671
2026-01-27 12:03:59.10	321.03	12.44	-28.9	-31.2	13.7	3.00e-06	0	44	0	1660944384	17	4726
2026-01-27 12:04:00.10	321.16	12.38	-28.8	-31.1	13.8	1.06e-05	0	44	0	1663041536	17	4680
2026-01-27 12:04:01.10	321.29	12.31	-28.9	-31.3	13.7	4.50e-06	0	45	0	1666187264	17	4729
2026-01-27 12:04:02.11	321.42	12.24	-28.9	-31.4	13.6	1.14e-05	0	44	0	1669332992	17	4779
2026-01-27 12:04:03.11	321.56	12.17	-28.8	-31.1	13.7	5.30e-06	0	44	0	1672478720	17	4680
2026-01-27 12:04:04.11	321.69	12.10	-28.9	-31.4	13.5	6.10e-06	0	45	0	1675624448	17	4779
2026-01-27 12:04:05.12	321.82	12.03	-29.0	-31.2	13.4	1.52e-05	0	44	0	1678770176	18	4597
2026-01-27 12:04:06.11	321.94	11.96	-29.3	-31.7	13.1	2.51e-05	0	44	0	1681915904	18	4781
2026-01-27 12:04:07.12	322.07	11.89	-29.1	-31.2	13.4	2.05e-05	0	44	0	1685061632	18	4597
2026-01-27 12:04:08.12	322.20	11.82	-28.8	-30.6	13.7	3.80e-06	0	44	0	1688207360	18	4426
2026-01-27 12:04:09.13	322.33	11.75	-28.8	-30.5	13.8	7.60e-06	0	45	0	1691353088	18	4399
2026-01-27 12:04:10.13	322.46	11.68	-28.6	-30.2	14.0	3.80e-06	0	44	0	1694498816	18	4300
2026-01-27 12:04:11.13	322.58	11.61	-28.8	-30.5	13.8	4.50e-06	0	45	0	1697644544	18	4399
2026-01-27 12:04:12.13	322.71	11.54	-28.8	-30.5	13.7	3.00e-06	0	45	0	1700790272	18	4403
2026-01-27 12:04:13.13	322.83	11.48	-29.0	-31.0	13.5	1.22e-05	0	45	0	1703936000	18	4558
2026-01-27 12:04:14.13	322.96	11.41	-28.9	-30.9	13.5	8.30e-06	0	45	0	1707081728	18	4516
2026-01-27 12:04:15.13	323.08	11.34	-29.1	-31.3	13.3	1.44e-05	0	44	0	1710227456	18	4652
2026-01-27 12:04:16.13	323.21	11.27	-29.0	-31.0	13.4	1.37e-05	0	45	0	1713373184	18	4560
2026-01-27 12:04:17.13	323.33	11.20	-28.9	-30.8	13.6	1.75e-05	0	45	0	1716518912	18	4482
2026-01-27 12:04:18.14	323.45	11.13	-29.0	-31.1	13.4	9.10e-06	0	44	0	1719664640	18	4586
2026-01-27 12:04:19.15	323.58	11.06	-29.1	-31.3	13.3	2.67e-05	0	45	0	1722810368	18	4640
2026-01-27 12:04:20.14	323.70	11.00	-29.0	-31.1	13.4	1.83e-05	0	45	0	1725956096	18	4577
2026-01-27 12:04:21.14	323.82	10.93	-28.9	-30.8	13.5	1.29e-05	0	44	0	1729101824	18	4504
2026-01-27 12:04:22.14	323.94	10.86	-29.1	-31.3	13.2	1.60e-05	0	44	0	1732247552	18	4639
2026-01-27 12:04:23.15	324.06	10.79	-29.0	-31.0	13.4	9.90e-06	0	45	0	1735393280	18	4543
2026-01-27 12:04:24.15	324.18	10.72	-28.9	-30.9	13.4	1.06e-05	0	45	0	1738539008	18	4535
2026-01-27 12:04:25.15	324.30	10.66	-29.0	-31.1	13.3	1.37e-05	0	45	0	1741684736	18	4596
2026-01-27 12:04:26.16	324.41	10.59	-29.1	-31.3	13.2	2.05e-05	0	44	0	1744830464	18	4654
2026-01-27 12:04:27.16	324.53	10.52	-29.3	-31.9	12.8	7.17e-05	0	45	0	1747976192	18	4852
2026-01-27 12:04:28.17	324.65	10.45	-29.1	-31.5	13.1	2.28e-05	0	44	0	1751121920	18	4697
2026-01-27 12:04:29.17	324.77	10.39	-29.1	-31.3	13.2	1.67e-05	0	44	0	1754267648	18	4655
2026-01-27 12:04:30.17	324.88	10.32	-29.0	-31.2	13.3	1.52e-05	0	44	0	1757413376	18	4612
2026-01-27 12:04:31.17	325.00	10.25	-29.1	-31.3	13.2	1.90e-05	0	45	0	1760559104	18	4639
2026-01-27 12:04:32.17	325.11	10.18	-29.2	-31.5	13.1	3.43e-05	0	44	0	1763704832	18	4712
2026-01-27 12:04:33.18	325.23	10.12	-29.3	-31.7	12.9	4.80e-05	0	45	0	1766850560	18	4791
2026-01-27 12:04:34.18	325.34	10.05	-29.1	-31.5	13.1	2.97e-05	0	45	0	1769996288	18	4705
2026-01-27 12:04:35.18	325.46	9.98	-29.1	-31.3	13.2	2.51e-05	0	44	0	1773142016	18	4654
2026-01-27 12:04:36.19	325.57	9.92	-29.0	-31.2	13.2	2.28e-05	0	44	0	1776287744	18	4624
2026-01-27 12:04:37.19	325.68	9.85	-29.1	-31.4	13.1	3.12e-05	0	44	0	1779433472	18	4680
2026-01-27 12:04:38.19	325.79	9.78	-29.1	-31.3	13.2	2.51e-05	0	45	0	1782579200	18	4658
2026-01-27 12:04:39.20	325.91	9.72	-29.2	-31.7	12.9	5.41e-05	0	44	0	1785724928	18	4767
2026-01-27 12:04:40.21	326.02	9.65	-29.1	-31.4	13.1	3.28e-05	0	44	0	1788870656	18	4669
2026-01-27 12:04:41.21	326.13	9.58	-28.9	-31.0	13.4	1.98e-05	0	45	0	1792016384	18	4541
2026-01-27 12:04:42.22	326.24	9.52	-28.9	-30.9	13.4	1.22e-05	0	45	0	1795162112	18	4539
2026-01-27 12:04:43.22	326.35	9.45	-28.9	-31.0	13.4	1.06e-05	0	45	0	1798307840	18	4546
2026-01-27 12:04:44.23	326.46	9.38	-28.9	-30.8	13.5	1.52e-05	0	44	0	1801453568	18	4481
2026-01-27 12:04:45.23	326.57	9.32	-29.0	-31.1	13.3	2.13e-05	0	45	0	1804599296	18	4588
2026-01-27 12:04:46.23	326.68	9.25	-29.0	-31.1	13.3	1.14e-05	0	45	0	1807745024	18	4573
2026-01-27 12:04:47.23	326.78	9.18	-29.0	-31.2	13.2	2.05e-05	0	44	0	1810890752	18	4611
2026-01-27 12:04:48.23	326.89	9.12	-29.1	-31.3	13.1	2.51e-05	0	45	0	1814036480	18	4659
2026-01-27 12:04:49.23	327.00	9.05	-29.1	-31.4	13.0	2.59e-05	0	45	0	1817182208	18	4690
2026-01-27 12:04:50.23	327.10	8.99	-29.3	-31.8	12.8	5.41e-05	0	45	0	1820327936	18	4808
2026-01-27 12:04:51.24	327.21	8.92	-29.1	-31.4	13.1	3.81e-05	0	44	0	1823473664	18	4675
2026-01-27 12:04:52.24	327.32	8.86	-29.1	-31.3	13.1	3.35e-05	0	44	0	1826619392	18	4663
2026-01-27 12:04:53.24	327.42	8.79	-29.0	-31.2	13.2	2.21e-05	0	45	0	1829765120	18	4619
2026-01-27 12:04:54.24	327.53	8.73	-29.0	-31.1	13.2	2.13e-05	0	45	0	1832910848	18	4593
2026-01-27 12:04:55.25	327.63	8.66	-28.9	-30.9	13.4	2.51e-05	0	45	0	1836056576	18	4519
2026-01-27 12:04:56.26	327.74	8.60	-29.0	-31.0	13.3	1.75e-05	0	45	0	1839202304	18	4572
2026-01-27 12:04:57.26	327.84	8.53	-28.9	-30.8	13.4	1.90e-05	0	44	0	1842348032	18	4513
2026-01-27 12:04:58.27	327.94	8.46	-28.9	-30.8	13.4	1.75e-05	0	44	0	1845493760	18	4492
2026-01-27 12:04:59.27	328.04	8.40	-28.9	-30.9	13.3	1.90e-05	0	44	0	1848639488	18	4528
2026-01-27 12:05:00.27	328.15	8.34	-28.9	-30.8	13.3	1.29e-05	0	44	0	1851785216	18	4510
2026-01-27 12:05:01.28	328.25	8.27	-28.9	-31.0	13.2	1.22e-05	0	44	0	1854930944	18	4556
2026-01-27 12:05:02.28	328.35	8.21	-28.9	-31.0	13.2	2.21e-05	0	45	0	1858076672	18	4561
2026-01-27 12:05:03.29	328.45	8.14	-28.9	-30.9	13.3	2.28e-05	0	44	0	1861222400	18	4546
2026-01-27 12:05:04.29	328.55	8.08	-29.0	-31.2	13.1	3.43e-05	0	44	0	1864368128	18	4630
2026-01-27 12:05:05.29	328.65	8.01	-29.0	-31.3	13.0	2.97e-05	0	44	0	1867513856	18	4645
2026-01-27 12:05:06.30	328.75	7.95	-29.1	-31.4	13.0	3.58e-05	0	44	0	1870659584	18	4685
2026-01-27 12:05:07.30	328.85	7.88	-29.2	-31.6	12.8	4.88e-05	0	44	0	1873805312	18	4749
2026-01-27 12:05:08.30	328.95	7.82	-29.1	-31.3	13.0	5.18e-05	0	45	0	1876951040	18	4662
2026-01-27 12:05:09.32	329.05	7.76	-29.1	-31.4	12.9	4.50e-05	0	44	0	1880096768	18	4710
2026-01-27 12:05:10.31	329.15	7.69	-29.2	-31.6	12.8	4.19e-05	0	44	0	1883242496	18	4770
2026-01-27 12:05:11.32	329.24	7.63	-29.1	-31.5	12.8	6.10e-05	0	44	0	1886388224	18	4730
2026-01-27 12:05:12.33	329.34	7.56	-29.2	-31.8	12.7	8.54e-05	0	44	0	1889533952	18	4823
2026-01-27 12:05:13.34	329.44	7.50	-29.2	-31.7	12.7	5.95e-05	0	44	0	1892679680	18	4807
2026-01-27 12:05:14.34	329.53	7.44	-29.3	-32.0	12.5	1.15e-04	0	44	0	1895825408	18	4907
2026-01-27 12:05:15.34	329.63	7.37	-29.4	-32.1	12.4	1.27e-04	0	44	0	1898971136	18	4953
2026-01-27 12:05:16.35	329.73	7.31	-29.4	-32.3	12.3	1.54e-04	0	44	0	1902116864	18	5009
2026-01-27 12:05:17.35	329.82	7.25	-29.3	-32.0	12.5	1.14e-04	0	44	0	1905262592	18	4911
2026-01-27 12:05:18.35	329.92	7.18	-29.3	-32.1	12.4	1.65e-04	0	44	0	1908408320	18	4940
2026-01-27 12:05:19.35	330.01	7.12	-29.3	-32.1	12.4	1.04e-04	0	44	0	1911554048	18	4927
2026-01-27 12:05:20.36	330.10	7.06	-31.4	-36.1	8.9	2.31e-04	0	44	0	1914699776	22	6132
2026-01-27 12:05:21.36	330.20	6.99	-33.9	-46.0	3.8	1.49e+00	0	44	104	1914699776	27	14605

#Closed at: 2026-01-27 12:05:22
#Recorded file [1914 MB]: D:/data/31010_260127_145507.dat