passes_logs/2026/01/27/R2M6_AANII_01/R2M6_AANII_01__20260127_023056_SUOMI_NPP_rec.log

#Pass ID: 20260127_023056_SUOMI NPP
#Satellite: SUOMI NPP
#Configuration: NPP
#almurnet v.1.7.20240730
#Start time: 2026-01-27 02:30:56

#Version: 2.2.20231116
#Station: R2M6_AANII_01
#Location: 30.233357 lon 59.946436 lat
#TLE: 1 37849U 11061A   26026.52266023  .00000173  00000+0  10323-3 0  9994
#TLE: 2 37849  98.7822 328.4727 0002140  43.9411 316.1934 14.19530258738341

#Time	Az	El	Level	Level2	SNR	BER	BlckErr	Temp	State	Recorded	gain1	gain2
2026-01-27 02:30:56.97	9.85	7.04	-32.0	-39.4	4.2	1.42e+00	0	42	0	0	24	8412
2026-01-27 02:30:57.97	9.75	7.10	-32.0	-39.1	4.3	1.39e+00	0	41	104	0	23	8220
2026-01-27 02:30:58.97	9.65	7.16	-31.9	-38.8	5.6	4.97e-01	0	41	0	0	23	7908
2026-01-27 02:30:59.98	9.55	7.22	-31.9	-38.7	5.7	4.27e-01	0	41	0	1048576	23	7847
2026-01-27 02:31:00.96	9.46	7.28	-32.0	-39.0	5.5	4.44e-01	0	42	0	3145728	23	8111
2026-01-27 02:31:01.97	9.36	7.34	-31.9	-38.5	5.8	4.15e-01	0	42	0	5242880	23	7714
2026-01-27 02:31:02.97	9.26	7.41	-31.9	-38.3	6.0	3.57e-01	0	42	0	7340032	23	7527
2026-01-27 02:31:03.98	9.16	7.47	-31.9	-38.3	6.1	3.32e-01	0	42	0	9437184	23	7477
2026-01-27 02:31:04.98	9.06	7.53	-31.9	-38.3	6.0	3.28e-01	0	42	0	10485760	23	7490
2026-01-27 02:31:05.98	8.96	7.59	-31.8	-37.3	6.7	2.65e-01	0	42	0	12582912	23	6842
2026-01-27 02:31:06.99	8.85	7.65	-31.5	-36.3	7.5	1.22e-01	0	42	0	14680064	23	6208
2026-01-27 02:31:07.99	8.75	7.72	-31.3	-35.2	8.3	6.45e-02	0	42	0	16777216	23	5654
2026-01-27 02:31:08.99	8.65	7.78	-31.1	-35.0	8.9	3.20e-02	0	42	0	17825792	22	5628
2026-01-27 02:31:10.00	8.55	7.84	-30.9	-34.1	9.6	1.83e-02	0	42	0	19922944	22	5202
2026-01-27 02:31:11.00	8.44	7.90	-30.6	-33.2	10.3	6.67e-03	0	42	0	22020096	22	4814
2026-01-27 02:31:12.00	8.34	7.97	-30.4	-33.1	10.8	3.74e-03	0	42	0	24117248	21	4858
2026-01-27 02:31:13.01	8.23	8.03	-30.5	-33.4	10.5	3.71e-03	0	42	0	26214400	21	4998
2026-01-27 02:31:14.01	8.13	8.09	-30.6	-33.6	10.3	4.78e-03	0	42	0	27262976	21	5086
2026-01-27 02:31:15.02	8.02	8.16	-30.5	-33.4	10.5	4.60e-03	0	42	0	29360128	21	4981
2026-01-27 02:31:16.02	7.92	8.22	-30.7	-33.8	10.2	4.27e-03	0	42	0	31457280	21	5150
2026-01-27 02:31:17.02	7.81	8.28	-30.8	-34.2	9.9	6.54e-03	0	42	0	33554432	21	5337
2026-01-27 02:31:18.03	7.71	8.34	-30.7	-33.9	10.1	6.61e-03	0	42	0	35651584	21	5211
2026-01-27 02:31:19.03	7.60	8.41	-30.8	-34.0	10.1	5.22e-03	0	42	0	36700160	21	5257
2026-01-27 02:31:20.03	7.49	8.47	-30.9	-34.5	9.3	9.68e-03	0	42	0	38797312	22	5418
2026-01-27 02:31:21.04	7.38	8.53	-30.9	-33.9	9.8	1.21e-02	0	42	0	40894464	22	5124
2026-01-27 02:31:22.04	7.27	8.60	-30.8	-33.5	10.2	7.39e-03	0	42	0	42991616	22	4917
2026-01-27 02:31:23.05	7.16	8.66	-30.8	-33.6	10.1	8.07e-03	0	42	0	45088768	22	4977
2026-01-27 02:31:24.06	7.05	8.72	-30.8	-33.6	10.1	6.55e-03	0	42	0	46137344	22	4986
2026-01-27 02:31:25.06	6.94	8.79	-31.0	-34.4	9.5	8.87e-03	0	42	0	48234496	22	5305
2026-01-27 02:31:26.06	6.83	8.85	-30.9	-34.1	9.8	9.93e-03	0	42	0	50331648	22	5166
2026-01-27 02:31:27.07	6.72	8.92	-30.9	-34.0	9.8	1.01e-02	0	42	0	52428800	22	5156
2026-01-27 02:31:28.08	6.61	8.98	-30.9	-34.0	9.9	1.18e-02	0	42	0	54525952	22	5126
2026-01-27 02:31:29.08	6.50	9.04	-31.0	-34.2	9.7	1.12e-02	0	43	0	55574528	22	5213
2026-01-27 02:31:30.09	6.38	9.11	-31.0	-34.4	9.5	1.35e-02	0	42	0	57671680	22	5321
2026-01-27 02:31:31.09	6.27	9.17	-31.0	-34.2	9.7	1.07e-02	0	42	0	59768832	22	5240
2026-01-27 02:31:32.09	6.16	9.23	-31.1	-34.7	9.3	1.44e-02	0	43	0	61865984	22	5454
2026-01-27 02:31:33.10	6.04	9.30	-31.0	-34.5	9.5	1.29e-02	0	42	0	63963136	22	5335
2026-01-27 02:31:34.10	5.93	9.36	-30.8	-34.0	10.3	7.37e-03	0	43	0	65011712	21	5210
2026-01-27 02:31:35.10	5.82	9.43	-30.7	-33.9	10.3	4.76e-03	0	43	0	67108864	21	5194
2026-01-27 02:31:36.11	5.70	9.49	-30.8	-34.1	10.2	6.24e-03	0	43	0	69206016	21	5245
2026-01-27 02:31:37.11	5.58	9.55	-30.6	-33.4	10.7	3.80e-03	0	42	0	71303168	21	4957
2026-01-27 02:31:38.11	5.47	9.62	-30.6	-33.3	10.8	2.83e-03	0	43	0	73400320	21	4921
2026-01-27 02:31:39.12	5.35	9.68	-30.5	-33.2	10.8	2.30e-03	0	43	0	74448896	21	4893
2026-01-27 02:31:40.12	5.23	9.75	-30.4	-33.3	11.1	1.74e-03	0	43	0	76546048	20	5025
2026-01-27 02:31:41.12	5.11	9.81	-30.6	-33.4	10.7	2.32e-03	0	43	0	78643200	21	4978
2026-01-27 02:31:42.13	4.99	9.88	-30.4	-32.9	11.1	1.95e-03	0	42	0	80740352	21	4771
2026-01-27 02:31:43.13	4.87	9.94	-30.4	-33.3	11.1	1.45e-03	0	43	0	82837504	20	5031
2026-01-27 02:31:44.13	4.75	10.00	-30.6	-33.4	10.7	3.07e-03	0	42	0	83886080	21	4960
2026-01-27 02:31:45.13	4.63	10.07	-30.6	-33.4	10.8	2.73e-03	0	43	0	85983232	21	4952
2026-01-27 02:31:46.13	4.51	10.13	-30.7	-33.7	10.5	3.78e-03	0	43	0	88080384	21	5094
2026-01-27 02:31:47.14	4.39	10.20	-30.7	-33.8	10.4	4.25e-03	0	43	0	90177536	21	5136
2026-01-27 02:31:48.13	4.27	10.26	-30.7	-33.8	10.4	4.62e-03	0	43	0	91226112	21	5117
2026-01-27 02:31:49.13	4.15	10.33	-30.8	-34.1	10.2	5.86e-03	0	43	0	93323264	21	5265
2026-01-27 02:31:50.14	4.03	10.39	-30.6	-33.4	10.8	4.19e-03	0	43	0	95420416	21	4956
2026-01-27 02:31:51.14	3.90	10.46	-30.5	-33.1	11.0	2.33e-03	0	43	0	97517568	21	4847
2026-01-27 02:31:52.14	3.78	10.52	-30.5	-33.1	11.0	2.41e-03	0	43	0	99614720	21	4852
2026-01-27 02:31:53.15	3.65	10.59	-30.5	-32.9	11.1	1.73e-03	0	43	0	100663296	21	4781
2026-01-27 02:31:54.15	3.53	10.65	-30.6	-33.2	10.9	2.10e-03	0	43	0	102760448	21	4880
2026-01-27 02:31:55.15	3.40	10.71	-30.5	-33.1	11.0	1.63e-03	0	43	0	104857600	21	4838
2026-01-27 02:31:56.15	3.27	10.78	-30.5	-33.0	11.1	1.59e-03	0	43	0	106954752	21	4808
2026-01-27 02:31:57.16	3.15	10.84	-30.6	-33.2	10.9	1.66e-03	0	43	0	109051904	21	4881
2026-01-27 02:31:58.17	3.02	10.91	-30.5	-33.1	11.0	1.90e-03	0	43	0	110100480	21	4831
2026-01-27 02:31:59.17	2.89	10.97	-30.5	-33.2	11.0	2.10e-03	0	43	0	112197632	21	4868
2026-01-27 02:32:00.18	2.76	11.04	-30.4	-32.8	11.3	1.99e-03	0	43	0	114294784	21	4716
2026-01-27 02:32:01.18	2.63	11.11	-30.3	-32.4	11.6	9.50e-04	0	43	0	116391936	21	4565
2026-01-27 02:32:02.18	2.50	11.17	-30.3	-32.3	11.6	7.72e-04	0	43	0	118489088	21	4551
2026-01-27 02:32:03.19	2.37	11.24	-30.3	-32.4	11.6	7.33e-04	0	43	0	119537664	21	4565
2026-01-27 02:32:04.19	2.24	11.30	-30.1	-31.8	12.0	4.32e-04	0	43	0	121634816	21	4374
2026-01-27 02:32:05.19	2.11	11.37	-30.1	-31.7	12.0	4.26e-04	0	43	0	123731968	21	4344
2026-01-27 02:32:06.20	1.97	11.43	-30.2	-32.0	11.9	3.33e-04	0	43	0	125829120	21	4422
2026-01-27 02:32:07.20	1.84	11.50	-30.3	-32.2	11.7	6.04e-04	0	43	0	127926272	21	4511
2026-01-27 02:32:08.21	1.71	11.56	-30.1	-32.4	12.0	7.05e-04	0	43	0	128974848	20	4650
2026-01-27 02:32:09.21	1.57	11.63	-30.3	-32.8	11.6	5.58e-04	0	43	0	131072000	20	4822
2026-01-27 02:32:10.21	1.44	11.69	-30.4	-33.0	11.5	1.03e-03	0	43	0	133169152	20	4894
2026-01-27 02:32:11.22	1.30	11.76	-30.2	-32.5	11.8	5.13e-04	0	43	0	135266304	20	4709
2026-01-27 02:32:12.22	1.17	11.82	-30.2	-32.7	11.7	5.12e-04	0	43	0	136314880	20	4779
2026-01-27 02:32:13.22	1.03	11.89	-30.3	-32.7	11.7	8.84e-04	0	43	0	138412032	20	4790
2026-01-27 02:32:14.22	0.89	11.95	-30.2	-32.6	11.7	5.65e-04	0	43	0	140509184	20	4751
2026-01-27 02:32:15.23	0.75	12.02	-30.2	-32.6	11.8	4.86e-04	0	43	0	142606336	20	4738
2026-01-27 02:32:16.23	0.62	12.08	-30.2	-32.5	11.9	8.27e-04	0	43	0	144703488	20	4695
2026-01-27 02:32:17.24	0.47	12.15	-30.2	-32.7	11.8	7.19e-04	0	43	0	146800640	20	4769
2026-01-27 02:32:18.24	0.34	12.21	-30.4	-33.2	11.4	1.03e-03	0	43	0	147849216	20	4980
2026-01-27 02:32:19.24	0.20	12.28	-30.3	-32.5	11.5	9.55e-04	0	43	0	149946368	21	4619
2026-01-27 02:32:20.25	0.05	12.35	-30.3	-32.4	11.6	8.59e-04	0	43	0	152043520	21	4581
2026-01-27 02:32:21.25	359.91	12.41	-30.4	-32.5	11.5	1.25e-03	0	43	0	154140672	21	4622
2026-01-27 02:32:22.25	359.77	12.48	-30.2	-32.7	11.8	6.41e-04	0	43	0	155189248	20	4766
2026-01-27 02:32:23.25	359.63	12.54	-30.3	-32.8	11.6	8.55e-04	0	43	0	157286400	20	4830
2026-01-27 02:32:24.26	359.48	12.61	-30.2	-32.7	11.7	6.83e-04	0	43	0	159383552	20	4784
2026-01-27 02:32:25.26	359.34	12.67	-30.2	-32.7	11.8	4.20e-04	0	43	0	161480704	20	4778
2026-01-27 02:32:26.27	359.19	12.74	-30.3	-32.8	11.8	6.83e-04	0	43	0	163577856	20	4820
2026-01-27 02:32:27.27	359.05	12.80	-30.2	-32.6	11.8	3.75e-04	0	43	0	164626432	20	4748
2026-01-27 02:32:28.27	358.90	12.87	-30.3	-32.9	11.6	6.19e-04	0	43	0	166723584	20	4846
2026-01-27 02:32:29.27	358.75	12.93	-30.2	-32.7	11.8	6.58e-04	0	43	0	168820736	20	4762
2026-01-27 02:32:30.27	358.61	13.00	-30.5	-32.9	11.3	9.05e-04	0	43	0	170917888	21	4747
2026-01-27 02:32:31.27	358.46	13.06	-30.3	-32.3	11.7	1.28e-03	0	43	0	173015040	21	4526
2026-01-27 02:32:32.27	358.31	13.13	-30.2	-32.5	12.0	4.03e-04	0	43	0	174063616	20	4687
2026-01-27 02:32:33.28	358.16	13.19	-30.3	-32.8	11.7	4.90e-04	0	43	0	176160768	20	4805
2026-01-27 02:32:34.28	358.01	13.26	-30.4	-33.0	11.5	9.65e-04	0	43	0	178257920	20	4888
2026-01-27 02:32:35.29	357.86	13.32	-30.2	-32.4	12.0	3.07e-04	0	43	0	180355072	20	4674
2026-01-27 02:32:36.29	357.71	13.39	-30.0	-32.1	12.2	2.43e-04	0	43	0	182452224	20	4552
2026-01-27 02:32:37.29	357.55	13.45	-29.9	-31.7	12.5	6.70e-04	0	43	0	183500800	20	4426
2026-01-27 02:32:38.30	357.40	13.52	-30.0	-31.9	12.3	2.10e-04	0	43	0	185597952	20	4497
2026-01-27 02:32:39.30	357.25	13.58	-30.1	-32.1	12.2	1.77e-04	0	43	0	187695104	20	4551
2026-01-27 02:32:40.30	357.09	13.65	-30.1	-32.2	12.1	2.10e-04	0	43	0	189792256	20	4596
2026-01-27 02:32:41.30	356.94	13.71	-30.2	-32.4	12.0	6.91e-04	0	43	0	191889408	20	4661
2026-01-27 02:32:42.31	356.78	13.78	-30.4	-33.1	11.5	4.45e-04	0	43	0	192937984	20	4928
2026-01-27 02:32:43.31	356.62	13.84	-30.3	-32.9	11.7	6.08e-04	0	43	0	195035136	20	4835
2026-01-27 02:32:44.31	356.47	13.91	-30.3	-32.9	11.7	5.36e-04	0	43	0	197132288	20	4831
2026-01-27 02:32:45.32	356.31	13.97	-30.3	-32.7	11.8	6.04e-04	0	43	0	199229440	20	4778
2026-01-27 02:32:46.32	356.15	14.04	-30.3	-32.9	11.7	7.00e-04	0	43	0	200278016	20	4848
2026-01-27 02:32:47.33	355.99	14.10	-30.4	-33.0	11.7	7.09e-04	0	43	0	202375168	20	4861
2026-01-27 02:32:48.33	355.83	14.17	-30.5	-32.8	11.4	8.52e-04	0	43	0	204472320	21	4738
2026-01-27 02:32:49.34	355.67	14.23	-30.5	-32.9	11.4	1.08e-03	0	43	0	206569472	21	4735
2026-01-27 02:32:50.34	355.51	14.30	-30.6	-33.1	11.2	8.84e-04	0	44	0	208666624	21	4844
2026-01-27 02:32:51.34	355.34	14.36	-30.6	-33.2	11.1	1.39e-03	0	43	0	209715200	21	4881
2026-01-27 02:32:52.35	355.18	14.43	-30.6	-33.2	11.1	1.46e-03	0	43	0	211812352	21	4872
2026-01-27 02:32:53.35	355.02	14.49	-30.6	-33.2	11.2	1.75e-03	0	43	0	213909504	21	4846
2026-01-27 02:32:54.35	354.85	14.56	-30.6	-33.2	11.2	1.58e-03	0	44	0	216006656	21	4846
2026-01-27 02:32:55.35	354.69	14.62	-30.6	-33.1	11.2	1.34e-03	0	43	0	218103808	21	4825
2026-01-27 02:32:56.35	354.52	14.68	-30.7	-33.5	11.0	1.74e-03	0	43	0	219152384	21	4952
2026-01-27 02:32:57.35	354.36	14.75	-30.8	-33.7	10.9	1.56e-03	0	44	0	221249536	21	5026
2026-01-27 02:32:58.36	354.19	14.81	-30.9	-34.0	10.6	2.72e-03	0	43	0	223346688	21	5185
2026-01-27 02:32:59.36	354.02	14.88	-30.9	-34.2	10.5	2.98e-03	0	44	0	225443840	21	5233
2026-01-27 02:33:00.37	353.85	14.94	-31.2	-34.5	10.0	6.05e-03	0	43	0	227540992	22	5272
2026-01-27 02:33:01.36	353.68	15.00	-30.1	-33.4	10.0	9.15e-03	0	44	0	228589568	22	5241
2026-01-27 02:33:02.36	353.51	15.07	-30.9	-33.6	10.6	4.13e-03	0	43	0	230686720	22	4931
2026-01-27 02:33:03.36	353.34	15.13	-30.7	-33.5	10.8	2.36e-03	0	44	0	232783872	21	4971
2026-01-27 02:33:04.37	353.17	15.19	-30.5	-32.9	11.1	9.46e-04	0	43	0	234881024	21	4752
2026-01-27 02:33:05.37	353.00	15.26	-30.5	-32.7	11.5	6.76e-04	0	44	0	236978176	21	4671
2026-01-27 02:33:06.37	352.82	15.32	-30.3	-32.7	11.9	6.35e-04	0	44	0	238026752	20	4769
2026-01-27 02:33:07.37	352.65	15.38	-30.5	-33.2	11.6	5.08e-04	0	43	0	240123904	20	4933
2026-01-27 02:33:08.38	352.47	15.45	-30.7	-33.3	11.1	9.98e-04	0	43	0	242221056	21	4904
2026-01-27 02:33:09.38	352.30	15.51	-30.7	-33.6	11.0	1.30e-03	0	44	0	244318208	21	4986
2026-01-27 02:33:10.39	352.12	15.57	-30.9	-33.9	10.7	2.48e-03	0	44	0	246415360	21	5135
2026-01-27 02:33:11.39	351.94	15.63	-30.9	-34.0	10.8	2.56e-03	0	44	0	247463936	21	5145
2026-01-27 02:33:12.39	351.77	15.70	-30.9	-34.2	10.6	4.68e-03	0	43	0	249561088	21	5226
2026-01-27 02:33:13.40	351.59	15.76	-30.9	-34.1	10.6	2.78e-03	0	44	0	251658240	21	5209
2026-01-27 02:33:14.40	351.41	15.82	-30.8	-33.8	10.9	3.02e-03	0	43	0	253755392	21	5084
2026-01-27 02:33:15.41	351.23	15.89	-30.9	-34.0	10.7	3.72e-03	0	44	0	254803968	21	5186
2026-01-27 02:33:16.41	351.05	15.95	-30.7	-33.6	11.0	2.58e-03	0	44	0	256901120	21	4989
2026-01-27 02:33:17.40	350.87	16.01	-30.9	-33.9	10.7	1.99e-03	0	44	0	258998272	21	5140
2026-01-27 02:33:18.41	350.68	16.07	-30.9	-34.1	10.6	2.40e-03	0	44	0	261095424	21	5205
2026-01-27 02:33:19.41	350.50	16.13	-31.0	-34.4	10.4	4.25e-03	0	44	0	263192576	21	5327
2026-01-27 02:33:20.41	350.32	16.19	-30.9	-33.5	10.7	3.56e-03	0	44	0	264241152	22	4848
2026-01-27 02:33:21.41	350.13	16.25	-30.6	-33.0	11.4	1.71e-03	0	44	0	266338304	21	4781
2026-01-27 02:33:22.41	349.95	16.32	-30.3	-32.3	12.0	7.84e-04	0	44	0	268435456	21	4519
2026-01-27 02:33:23.41	349.76	16.38	-30.1	-31.6	12.4	2.47e-04	0	43	0	270532608	21	4282
2026-01-27 02:33:24.41	349.57	16.44	-30.0	-31.8	12.6	9.38e-05	0	44	0	272629760	20	4440
2026-01-27 02:33:25.41	349.39	16.50	-30.1	-32.0	12.4	1.33e-04	0	43	0	273678336	20	4518
2026-01-27 02:33:26.41	349.20	16.56	-30.0	-31.8	12.6	9.00e-05	0	44	0	275775488	20	4448
2026-01-27 02:33:27.41	349.01	16.62	-30.0	-31.9	12.6	4.18e-04	0	44	0	277872640	20	4465
2026-01-27 02:33:28.41	348.82	16.68	-30.0	-31.9	12.5	1.67e-04	0	44	0	279969792	20	4491
2026-01-27 02:33:29.41	348.63	16.74	-29.9	-31.5	12.7	8.08e-05	0	44	0	282066944	20	4361
2026-01-27 02:33:30.41	348.44	16.80	-29.9	-32.0	12.8	2.81e-04	0	44	0	283115520	19	4604
2026-01-27 02:33:31.41	348.25	16.86	-29.8	-31.7	13.0	5.56e-05	0	44	0	285212672	19	4503
2026-01-27 02:33:32.42	348.05	16.92	-29.6	-31.3	13.3	2.59e-05	0	44	0	287309824	19	4380
2026-01-27 02:33:33.42	347.86	16.98	-29.5	-31.1	13.5	1.26e-04	0	44	0	289406976	19	4293
2026-01-27 02:33:34.42	347.67	17.04	-29.6	-31.2	13.4	1.17e-04	0	44	0	290455552	19	4337
2026-01-27 02:33:35.42	347.47	17.10	-29.7	-31.4	13.3	2.05e-05	0	44	0	292552704	19	4396
2026-01-27 02:33:36.42	347.27	17.15	-29.6	-31.2	13.4	7.93e-05	0	43	0	294649856	19	4336
2026-01-27 02:33:37.43	347.08	17.21	-29.7	-31.4	13.3	1.06e-04	0	44	0	296747008	19	4396
2026-01-27 02:33:38.42	346.88	17.27	-29.6	-31.2	13.4	2.05e-05	0	44	0	298844160	19	4328
2026-01-27 02:33:39.42	346.68	17.33	-29.6	-31.3	13.4	1.07e-04	0	44	0	299892736	19	4350
2026-01-27 02:33:40.42	346.48	17.39	-29.6	-31.1	13.5	1.36e-04	0	44	0	301989888	19	4310
2026-01-27 02:33:41.42	346.28	17.44	-29.4	-30.6	13.8	7.60e-06	0	44	0	304087040	19	4139
2026-01-27 02:33:42.42	346.08	17.50	-29.3	-30.3	14.0	0.00e+00	0	44	0	306184192	19	4048
2026-01-27 02:33:43.43	345.88	17.56	-29.4	-30.6	13.8	9.15e-05	0	44	0	308281344	19	4148
2026-01-27 02:33:44.43	345.68	17.62	-29.5	-30.8	13.7	9.10e-06	0	44	0	309329920	19	4192
2026-01-27 02:33:45.44	345.47	17.67	-29.4	-30.5	13.9	7.78e-05	0	44	0	311427072	19	4115
2026-01-27 02:33:46.44	345.27	17.73	-29.4	-30.7	13.7	2.89e-05	0	44	0	313524224	19	4170
2026-01-27 02:33:47.44	345.07	17.78	-29.5	-30.8	13.7	6.10e-06	0	44	0	315621376	19	4198
2026-01-27 02:33:48.45	344.86	17.84	-29.4	-30.6	13.8	3.50e-05	0	44	0	317718528	19	4130
2026-01-27 02:33:49.45	344.65	17.90	-29.4	-30.5	13.9	4.34e-05	0	44	0	318767104	19	4122
2026-01-27 02:33:50.46	344.44	17.95	-29.0	-29.6	14.4	1.50e-06	0	44	0	320864256	19	3852
2026-01-27 02:33:51.46	344.24	18.01	-28.9	-29.4	14.6	1.17e-04	0	44	0	322961408	19	3792
2026-01-27 02:33:52.47	344.03	18.06	-28.9	-29.9	14.5	1.14e-04	0	44	0	325058560	18	4028
2026-01-27 02:33:53.47	343.82	18.12	-29.2	-30.5	14.1	2.20e-06	0	44	0	327155712	18	4210
2026-01-27 02:33:54.48	343.61	18.17	-29.3	-30.8	14.0	1.17e-04	0	43	0	328204288	18	4295
2026-01-27 02:33:55.48	343.40	18.23	-29.4	-31.1	13.8	9.00e-05	0	44	0	330301440	18	4387
2026-01-27 02:33:56.48	343.18	18.28	-29.3	-31.0	13.8	3.80e-06	0	44	0	332398592	18	4343
2026-01-27 02:33:57.48	342.97	18.33	-29.2	-30.5	14.1	1.37e-05	0	44	0	334495744	18	4212
2026-01-27 02:33:58.49	342.76	18.39	-29.2	-30.7	14.1	7.00e-07	0	44	0	336592896	18	4252
2026-01-27 02:33:59.49	342.54	18.44	-29.1	-30.4	14.2	0.00e+00	0	44	0	337641472	18	4174
2026-01-27 02:34:00.49	342.33	18.49	-29.3	-30.8	14.0	1.50e-06	0	44	0	339738624	18	4301
2026-01-27 02:34:01.50	342.11	18.55	-29.5	-31.4	13.7	5.30e-06	0	44	0	341835776	18	4472
2026-01-27 02:34:02.50	341.90	18.60	-29.7	-31.6	13.2	1.06e-05	0	44	0	343932928	19	4446
2026-01-27 02:34:03.50	341.68	18.65	-29.7	-31.5	13.2	2.28e-05	0	44	0	346030080	19	4424
2026-01-27 02:34:04.50	341.46	18.70	-29.6	-31.1	13.5	1.29e-05	0	44	0	347078656	19	4293
2026-01-27 02:34:05.51	341.24	18.75	-29.5	-30.9	13.7	9.90e-06	0	44	0	349175808	19	4228
2026-01-27 02:34:06.51	341.02	18.80	-29.3	-30.2	14.1	1.50e-06	0	44	0	351272960	19	4026
2026-01-27 02:34:07.52	340.80	18.85	-29.4	-30.5	14.0	2.20e-06	0	44	0	353370112	19	4106
2026-01-27 02:34:08.52	340.58	18.90	-29.2	-30.1	14.2	1.50e-06	0	44	0	354418688	19	3975
2026-01-27 02:34:09.53	340.36	18.95	-29.2	-30.1	14.2	1.01e-04	0	44	0	356515840	19	3987
2026-01-27 02:34:10.53	340.14	19.00	-29.3	-30.4	14.0	4.50e-06	0	44	0	358612992	19	4067
2026-01-27 02:34:11.53	339.91	19.05	-29.4	-30.7	13.8	3.00e-06	0	44	0	360710144	19	4179
2026-01-27 02:34:12.53	339.69	19.10	-29.4	-30.6	13.9	5.56e-05	0	44	0	362807296	19	4141
2026-01-27 02:34:13.54	339.47	19.15	-29.1	-29.8	14.4	7.00e-07	0	44	0	363855872	19	3902
2026-01-27 02:34:14.54	339.24	19.20	-28.8	-29.0	14.9	0.00e+00	0	44	0	365953024	19	3691
2026-01-27 02:34:15.55	339.01	19.24	-28.6	-28.9	15.2	7.00e-07	0	44	0	368050176	18	3756
2026-01-27 02:34:16.55	338.79	19.29	-28.7	-29.1	15.1	0.00e+00	0	44	0	370147328	18	3810
2026-01-27 02:34:17.55	338.56	19.34	-28.7	-29.2	15.1	0.00e+00	0	44	0	372244480	18	3814
2026-01-27 02:34:18.56	338.33	19.38	-28.5	-28.8	15.3	0.00e+00	0	44	0	373293056	18	3715
2026-01-27 02:34:19.56	338.10	19.43	-28.6	-29.4	15.2	2.88e-04	0	44	0	375390208	17	3974
2026-01-27 02:34:20.56	337.87	19.48	-28.8	-30.0	14.9	0.00e+00	0	44	0	377487360	17	4130
2026-01-27 02:34:21.57	337.64	19.52	-28.9	-30.3	14.7	0.00e+00	0	44	0	379584512	17	4233
2026-01-27 02:34:22.57	337.41	19.57	-28.9	-30.3	14.7	0.00e+00	0	44	0	381681664	17	4220
2026-01-27 02:34:23.57	337.18	19.61	-28.8	-30.1	14.9	0.00e+00	0	44	0	382730240	17	4156
2026-01-27 02:34:24.56	336.95	19.65	-28.7	-29.8	15.0	0.00e+00	0	44	0	384827392	17	4091
2026-01-27 02:34:25.57	336.72	19.70	-28.7	-29.7	15.1	0.00e+00	0	44	0	386924544	17	4053
2026-01-27 02:34:26.57	336.48	19.74	-28.9	-30.3	14.8	0.00e+00	0	44	0	389021696	17	4208
2026-01-27 02:34:27.58	336.25	19.78	-29.0	-30.0	14.7	7.00e-07	0	44	0	391118848	18	4030
2026-01-27 02:34:28.58	336.01	19.83	-29.1	-30.2	14.5	0.00e+00	0	44	0	392167424	18	4093
2026-01-27 02:34:29.58	335.78	19.87	-29.1	-30.2	14.5	7.00e-07	0	44	0	394264576	18	4099
2026-01-27 02:34:30.59	335.54	19.91	-29.1	-30.2	14.5	7.00e-07	0	44	0	396361728	18	4101
2026-01-27 02:34:31.59	335.31	19.95	-28.9	-29.8	14.8	7.00e-07	0	44	0	398458880	18	3988
2026-01-27 02:34:32.60	335.07	19.99	-28.9	-29.8	14.8	0.00e+00	0	44	0	400556032	18	3970
2026-01-27 02:34:33.60	334.83	20.03	-28.7	-29.8	15.0	0.00e+00	0	44	0	401604608	17	4077
2026-01-27 02:34:34.60	334.59	20.07	-28.8	-30.1	14.9	0.00e+00	0	44	0	403701760	17	4149
2026-01-27 02:34:35.61	334.35	20.11	-28.8	-30.0	14.9	0.00e+00	0	44	0	405798912	17	4132
2026-01-27 02:34:36.61	334.11	20.15	-28.8	-30.0	15.0	0.00e+00	0	44	0	407896064	17	4122
2026-01-27 02:34:37.61	333.87	20.19	-28.8	-30.1	14.9	0.00e+00	0	44	0	408944640	17	4149
2026-01-27 02:34:38.62	333.63	20.22	-28.6	-29.6	15.2	0.00e+00	0	44	0	411041792	17	4009
2026-01-27 02:34:39.62	333.39	20.26	-28.6	-29.5	15.2	0.00e+00	0	44	0	413138944	17	4004
2026-01-27 02:34:40.63	333.14	20.30	-28.5	-29.2	15.4	0.00e+00	0	44	0	415236096	17	3912
2026-01-27 02:34:41.63	332.90	20.33	-28.5	-29.1	15.5	0.00e+00	0	44	0	417333248	17	3884
2026-01-27 02:34:42.64	332.66	20.37	-28.3	-28.8	15.7	0.00e+00	0	44	0	419430400	17	3802
2026-01-27 02:34:43.64	332.41	20.41	-28.5	-29.2	15.4	0.00e+00	0	44	0	420478976	17	3917
2026-01-27 02:34:44.65	332.17	20.44	-28.5	-29.5	14.9	0.00e+00	0	44	0	422576128	17	4017
2026-01-27 02:34:45.65	331.92	20.48	-28.8	-29.9	14.3	0.00e+00	0	44	0	424673280	17	4094
2026-01-27 02:34:46.66	331.67	20.51	-28.7	-29.7	15.1	0.00e+00	0	44	0	426770432	17	4050
2026-01-27 02:34:47.66	331.43	20.54	-28.4	-29.4	14.7	0.00e+00	0	44	0	427819008	16	4059
2026-01-27 02:34:48.66	331.18	20.58	-28.4	-29.5	14.8	0.00e+00	0	44	0	429916160	16	4075
2026-01-27 02:34:49.66	330.93	20.61	-28.4	-29.0	15.6	0.00e+00	0	44	0	432013312	17	3842
2026-01-27 02:34:50.66	330.69	20.64	-28.5	-29.3	15.3	1.36e-03	0	44	0	434110464	17	3924
2026-01-27 02:34:51.66	330.44	20.67	-28.7	-29.6	15.2	0.00e+00	0	44	0	436207616	17	4026
2026-01-27 02:34:52.67	330.19	20.70	-28.8	-29.9	15.0	0.00e+00	0	44	0	437256192	17	4101
2026-01-27 02:34:53.67	329.94	20.73	-29.1	-30.2	14.4	7.00e-07	0	44	0	439353344	18	4092
2026-01-27 02:34:54.66	329.69	20.76	-29.3	-30.8	14.2	1.50e-06	0	44	0	441450496	18	4264
2026-01-27 02:34:55.67	329.44	20.79	-29.4	-31.0	14.1	7.00e-07	0	44	0	443547648	18	4320
2026-01-27 02:34:56.67	329.19	20.82	-29.4	-31.0	14.1	0.00e+00	0	44	0	445644800	18	4327
2026-01-27 02:34:57.67	328.94	20.85	-29.4	-31.0	14.1	7.98e-04	0	44	0	446693376	18	4315
2026-01-27 02:34:58.68	328.69	20.87	-29.3	-30.8	14.2	1.50e-06	0	44	0	448790528	18	4256
2026-01-27 02:34:59.68	328.44	20.90	-29.4	-30.9	14.1	3.00e-06	0	44	0	450887680	18	4314
2026-01-27 02:35:00.68	328.18	20.93	-29.4	-31.1	14.0	4.49e-04	0	44	0	452984832	18	4368
2026-01-27 02:35:01.69	327.93	20.95	-29.6	-31.2	13.6	5.30e-06	0	44	0	455081984	19	4295
2026-01-27 02:35:02.70	327.67	20.98	-29.8	-31.5	13.4	7.60e-06	0	44	0	456130560	19	4414
2026-01-27 02:35:03.70	327.42	21.00	-29.8	-31.7	13.2	1.44e-05	0	44	0	458227712	19	4467
2026-01-27 02:35:04.71	327.16	21.03	-29.7	-31.4	13.4	1.29e-05	0	44	0	460324864	19	4373
2026-01-27 02:35:05.71	326.91	21.05	-29.6	-31.0	13.7	1.29e-05	0	44	0	462422016	19	4248
2026-01-27 02:35:06.71	326.66	21.07	-29.6	-30.9	13.8	8.30e-06	0	44	0	464519168	19	4211
2026-01-27 02:35:07.71	326.40	21.09	-29.6	-31.1	13.7	6.10e-06	0	44	0	465567744	19	4261
2026-01-27 02:35:08.72	326.14	21.12	-29.4	-30.5	14.0	3.66e-04	0	44	0	467664896	19	4105
2026-01-27 02:35:09.72	325.89	21.14	-29.4	-31.1	14.0	2.20e-06	0	44	0	469762048	18	4363
2026-01-27 02:35:10.72	325.63	21.16	-29.6	-31.0	13.7	1.50e-06	0	44	0	471859200	19	4255
2026-01-27 02:35:11.73	325.37	21.18	-29.7	-31.4	13.5	2.66e-04	0	44	0	473956352	19	4365
2026-01-27 02:35:12.73	325.12	21.20	-30.0	-31.8	12.8	2.12e-04	0	44	0	475004928	20	4406
2026-01-27 02:35:13.73	324.86	21.22	-30.2	-32.4	12.4	8.01e-05	0	44	0	477102080	20	4616
2026-01-27 02:35:14.74	324.60	21.23	-30.3	-32.7	12.1	2.31e-04	0	44	0	479199232	20	4741
2026-01-27 02:35:15.74	324.34	21.25	-30.3	-32.7	12.1	2.26e-04	0	44	0	481296384	20	4734
2026-01-27 02:35:16.75	324.08	21.27	-30.0	-31.8	12.8	2.48e-04	0	44	0	482344960	20	4404
2026-01-27 02:35:17.75	323.82	21.28	-29.6	-30.7	13.4	1.90e-05	0	44	0	484442112	20	4082
2026-01-27 02:35:18.76	323.56	21.30	-29.3	-29.9	14.0	3.20e-05	0	44	0	486539264	20	3837
2026-01-27 02:35:19.76	323.30	21.32	-29.4	-30.1	13.9	3.00e-06	0	44	0	488636416	20	3894
2026-01-27 02:35:20.77	323.04	21.33	-29.5	-30.4	13.7	2.20e-06	0	44	0	490733568	20	3984
2026-01-27 02:35:21.78	322.78	21.34	-29.8	-31.1	13.2	1.90e-05	0	44	0	492830720	20	4187
2026-01-27 02:35:22.79	322.52	21.36	-29.9	-31.4	13.1	2.59e-05	0	44	0	493879296	20	4274
2026-01-27 02:35:23.79	322.26	21.37	-30.0	-31.6	12.8	4.95e-05	0	44	0	495976448	20	4367
2026-01-27 02:35:24.80	322.00	21.38	-29.8	-31.1	13.3	1.38e-04	0	44	0	498073600	20	4194
2026-01-27 02:35:25.80	321.74	21.39	-29.6	-30.5	13.6	8.30e-06	0	44	0	500170752	20	4013
2026-01-27 02:35:26.80	321.48	21.40	-29.5	-30.9	13.7	1.50e-04	0	44	0	501219328	19	4218
2026-01-27 02:35:27.81	321.21	21.41	-29.4	-30.5	14.0	1.20e-04	0	44	0	503316480	19	4102
2026-01-27 02:35:28.81	320.95	21.42	-29.5	-30.8	13.8	5.30e-06	0	44	0	505413632	19	4168
2026-01-27 02:35:29.81	320.69	21.43	-29.5	-30.9	13.7	2.17e-04	0	44	0	507510784	19	4219
2026-01-27 02:35:30.81	320.43	21.44	-29.9	-31.9	13.1	3.76e-04	0	44	0	509607936	19	4552
2026-01-27 02:35:31.82	320.17	21.45	-30.0	-32.1	12.8	4.11e-05	0	44	0	510656512	19	4630
2026-01-27 02:35:32.83	319.90	21.45	-30.2	-32.4	12.2	1.03e-03	0	44	0	512753664	20	4647
2026-01-27 02:35:33.83	319.64	21.46	-30.3	-32.6	12.2	1.21e-03	0	44	0	514850816	20	4703
2026-01-27 02:35:34.83	319.38	21.47	-30.3	-32.8	12.0	3.26e-04	0	44	0	516947968	20	4797
2026-01-27 02:35:35.84	319.12	21.47	-30.3	-32.7	12.0	1.09e-03	0	44	0	519045120	20	4751
2026-01-27 02:35:36.85	318.85	21.48	-30.5	-32.8	11.6	1.12e-03	0	44	0	520093696	21	4699
2026-01-27 02:35:37.85	318.59	21.48	-30.6	-33.0	11.5	6.38e-04	0	44	0	522190848	21	4770
2026-01-27 02:35:38.86	318.33	21.48	-30.3	-32.6	12.1	1.17e-03	0	44	0	524288000	20	4700
2026-01-27 02:35:39.86	318.06	21.49	-30.1	-32.1	12.5	1.42e-03	0	44	0	526385152	20	4523
2026-01-27 02:35:40.87	317.80	21.49	-29.9	-31.6	12.8	9.99e-05	0	44	0	528482304	20	4373
2026-01-27 02:35:41.87	317.54	21.49	-29.9	-31.5	12.9	5.56e-05	0	44	0	529530880	20	4340
2026-01-27 02:35:42.87	317.28	21.49	-30.0	-31.9	12.7	1.92e-03	0	44	0	531628032	20	4440
2026-01-27 02:35:43.87	317.02	21.49	-29.9	-31.5	12.9	4.34e-05	0	44	0	533725184	20	4329
2026-01-27 02:35:44.88	316.75	21.49	-29.8	-31.6	13.3	1.67e-05	0	44	0	535822336	19	4440
2026-01-27 02:35:45.88	316.49	21.49	-29.7	-31.3	13.4	1.29e-05	0	44	0	537919488	19	4347
2026-01-27 02:35:46.88	316.23	21.48	-29.7	-31.4	13.4	1.60e-05	0	44	0	538968064	19	4367
2026-01-27 02:35:47.88	315.97	21.48	-29.5	-30.9	13.7	8.30e-06	0	44	0	541065216	19	4211
2026-01-27 02:35:48.88	315.70	21.48	-29.3	-30.8	14.0	1.50e-06	0	44	0	543162368	18	4285
2026-01-27 02:35:49.89	315.44	21.47	-29.4	-31.0	13.9	3.80e-06	0	44	0	545259520	18	4346
2026-01-27 02:35:50.90	315.18	21.47	-29.4	-31.1	13.9	1.82e-03	0	44	0	547356672	18	4374
2026-01-27 02:35:51.90	314.91	21.46	-29.4	-31.0	14.0	3.80e-06	0	44	0	548405248	18	4330
2026-01-27 02:35:52.91	314.65	21.46	-29.3	-30.8	14.1	3.80e-06	0	44	0	550502400	18	4268
2026-01-27 02:35:53.91	314.39	21.45	-29.5	-31.2	13.8	1.33e-03	0	44	0	552599552	18	4417
2026-01-27 02:35:54.92	314.12	21.44	-29.6	-31.1	13.6	6.10e-06	0	44	0	554696704	19	4279
2026-01-27 02:35:55.92	313.86	21.44	-29.9	-32.0	13.0	3.05e-05	0	44	0	555745280	19	4562
2026-01-27 02:35:56.92	313.60	21.43	-30.0	-31.8	12.9	4.50e-05	0	44	0	557842432	20	4426
2026-01-27 02:35:57.93	313.34	21.42	-30.0	-31.9	12.6	5.34e-05	0	44	0	559939584	20	4455
2026-01-27 02:35:58.93	313.08	21.41	-29.9	-31.4	13.0	6.25e-05	0	44	0	562036736	20	4312
2026-01-27 02:35:59.92	312.82	21.40	-29.8	-31.7	13.2	3.05e-05	0	44	0	564133888	19	4462
2026-01-27 02:36:00.92	312.56	21.39	-29.7	-31.3	13.4	1.42e-03	0	44	0	565182464	19	4349
2026-01-27 02:36:01.92	312.30	21.38	-29.4	-30.6	13.9	3.80e-06	0	44	0	567279616	19	4126
2026-01-27 02:36:02.92	312.04	21.37	-29.5	-30.8	13.8	3.80e-06	0	44	0	569376768	19	4180
2026-01-27 02:36:03.92	311.78	21.35	-29.0	-29.5	14.6	1.50e-06	0	44	0	571473920	19	3797
2026-01-27 02:36:04.93	311.52	21.34	-29.0	-29.5	14.6	0.00e+00	0	44	0	573571072	19	3803
2026-01-27 02:36:05.94	311.26	21.32	-29.1	-29.6	14.6	0.00e+00	0	44	0	574619648	19	3848
2026-01-27 02:36:06.94	311.00	21.31	-28.9	-29.3	14.7	0.00e+00	0	44	0	576716800	19	3760
2026-01-27 02:36:07.95	310.74	21.29	-28.9	-29.3	14.8	0.00e+00	0	44	0	578813952	19	3745
2026-01-27 02:36:08.95	310.48	21.28	-29.0	-29.9	14.6	0.00e+00	0	44	0	580911104	18	4016
2026-01-27 02:36:09.95	310.22	21.26	-29.0	-30.0	14.6	0.00e+00	0	44	0	583008256	18	4044
2026-01-27 02:36:10.95	309.96	21.25	-28.7	-29.3	15.0	0.00e+00	0	44	0	584056832	18	3842
2026-01-27 02:36:11.95	309.70	21.23	-28.6	-29.4	15.2	0.00e+00	0	44	0	586153984	17	3976
2026-01-27 02:36:12.96	309.44	21.21	-28.5	-29.3	15.3	0.00e+00	0	44	0	588251136	17	3943
2026-01-27 02:36:13.95	309.19	21.19	-28.6	-29.4	15.3	0.00e+00	0	44	0	590348288	17	3959
2026-01-27 02:36:14.96	308.93	21.17	-28.6	-29.4	15.3	0.00e+00	0	44	0	592445440	17	3959
2026-01-27 02:36:15.96	308.67	21.15	-28.7	-29.7	15.1	0.00e+00	0	44	0	593494016	17	4038
2026-01-27 02:36:16.97	308.42	21.13	-28.6	-29.4	15.2	0.00e+00	0	44	0	595591168	17	3976
2026-01-27 02:36:17.97	308.16	21.11	-28.5	-29.3	15.4	0.00e+00	0	44	0	597688320	17	3925
2026-01-27 02:36:18.96	307.91	21.09	-28.6	-29.4	15.3	0.00e+00	0	44	0	599785472	17	3959
2026-01-27 02:36:19.97	307.65	21.06	-28.3	-28.7	15.6	0.00e+00	0	44	0	600834048	17	3790
2026-01-27 02:36:20.97	307.40	21.04	-28.1	-28.3	15.9	0.00e+00	0	44	0	602931200	17	3672
2026-01-27 02:36:21.98	307.14	21.02	-28.3	-28.9	15.6	0.00e+00	0	44	0	605028352	17	3819
2026-01-27 02:36:22.98	306.88	20.99	-28.4	-29.0	15.5	0.00e+00	0	44	0	607125504	17	3860
2026-01-27 02:36:23.98	306.63	20.97	-28.4	-29.1	15.5	0.00e+00	0	44	0	609222656	17	3878
2026-01-27 02:36:24.99	306.38	20.94	-28.5	-29.2	15.4	7.00e-07	0	44	0	611319808	17	3908
2026-01-27 02:36:25.98	306.13	20.92	-28.6	-29.4	15.0	0.00e+00	0	44	0	612368384	17	3956
2026-01-27 02:36:26.99	305.87	20.89	-28.7	-29.7	15.0	7.00e-07	0	44	0	614465536	17	4041
2026-01-27 02:36:27.99	305.62	20.86	-28.8	-30.1	14.9	7.00e-07	0	44	0	616562688	17	4153
2026-01-27 02:36:28.99	305.37	20.84	-29.1	-30.4	14.4	0.00e+00	0	44	0	618659840	18	4150
2026-01-27 02:36:29.99	305.12	20.81	-28.9	-29.8	14.8	0.00e+00	0	44	0	619708416	18	3969
2026-01-27 02:36:30.99	304.87	20.78	-28.9	-29.7	14.8	0.00e+00	0	44	0	621805568	18	3942
2026-01-27 02:36:32.00	304.61	20.75	-28.9	-29.6	14.8	7.00e-07	0	44	0	623902720	18	3933
2026-01-27 02:36:33.00	304.36	20.72	-29.1	-30.2	14.5	0.00e+00	0	44	0	625999872	18	4091
2026-01-27 02:36:34.00	304.12	20.69	-28.8	-29.6	14.9	0.00e+00	0	44	0	628097024	18	3913
2026-01-27 02:36:35.00	303.87	20.66	-28.5	-28.6	15.5	0.00e+00	0	44	0	629145600	18	3669
2026-01-27 02:36:36.01	303.62	20.63	-28.4	-28.5	15.5	7.62e-05	0	44	0	631242752	18	3636
2026-01-27 02:36:37.01	303.37	20.60	-28.3	-28.6	15.7	0.00e+00	0	44	0	633339904	17	3759
2026-01-27 02:36:38.01	303.12	20.56	-28.1	-28.3	15.9	0.00e+00	0	44	0	635437056	17	3686
2026-01-27 02:36:39.01	302.88	20.53	-28.5	-29.1	15.4	0.00e+00	0	44	0	637534208	17	3889
2026-01-27 02:36:40.01	302.63	20.50	-28.6	-29.5	15.2	0.00e+00	0	44	0	638582784	17	3996
2026-01-27 02:36:41.01	302.38	20.46	-29.0	-30.4	14.6	0.00e+00	0	44	0	640679936	17	4257
2026-01-27 02:36:42.02	302.14	20.43	-29.1	-30.4	14.3	1.50e-06	0	44	0	642777088	18	4151
2026-01-27 02:36:43.02	301.89	20.39	-29.5	-30.9	13.7	7.00e-07	0	44	0	644874240	19	4219
2026-01-27 02:36:44.03	301.65	20.36	-29.4	-30.6	13.9	3.00e-06	0	44	0	646971392	19	4129
2026-01-27 02:36:45.03	301.40	20.32	-29.4	-30.5	14.0	6.10e-06	0	44	0	648019968	19	4090
2026-01-27 02:36:46.03	301.16	20.29	-29.3	-30.4	14.0	7.00e-07	0	44	0	650117120	19	4065
2026-01-27 02:36:47.03	300.92	20.25	-29.3	-30.4	14.1	2.20e-06	0	44	0	652214272	19	4059
2026-01-27 02:36:48.04	300.68	20.21	-29.3	-30.3	14.1	1.50e-06	0	44	0	654311424	19	4038
2026-01-27 02:36:49.04	300.43	20.17	-29.3	-30.3	14.1	0.00e+00	0	44	0	656408576	19	4037
2026-01-27 02:36:50.04	300.19	20.14	-30.0	-31.7	13.8	6.30e-04	0	44	0	657457152	19	4360
2026-01-27 02:36:51.04	299.96	20.10	-29.4	-31.2	13.8	2.20e-06	0	44	0	659554304	18	4402
2026-01-27 02:36:52.05	299.71	20.06	-29.7	-31.3	13.4	1.06e-05	0	44	0	661651456	19	4349
2026-01-27 02:36:53.05	299.48	20.02	-30.0	-31.9	12.7	2.39e-04	0	44	0	663748608	20	4450
2026-01-27 02:36:54.06	299.24	19.98	-29.9	-31.6	12.8	7.78e-05	0	44	0	664797184	20	4345
2026-01-27 02:36:55.05	299.00	19.94	-30.1	-31.9	12.6	6.25e-05	0	44	0	666894336	20	4463
2026-01-27 02:36:56.05	298.76	19.90	-30.1	-32.1	12.5	1.07e-04	0	44	0	668991488	20	4519
2026-01-27 02:36:57.06	298.53	19.85	-30.1	-32.0	12.5	1.12e-04	0	44	0	671088640	20	4500
2026-01-27 02:36:58.06	298.29	19.81	-30.0	-31.8	12.7	1.17e-04	0	44	0	673185792	20	4433
2026-01-27 02:36:59.06	298.06	19.77	-29.9	-31.6	12.8	5.49e-05	0	44	0	674234368	20	4369
2026-01-27 02:37:00.07	297.82	19.73	-30.0	-31.9	12.7	9.23e-05	0	44	0	676331520	20	4444
2026-01-27 02:37:01.07	297.59	19.68	-29.7	-30.9	13.3	3.50e-05	0	44	0	678428672	20	4126
2026-01-27 02:37:02.07	297.35	19.64	-29.5	-30.4	13.6	6.10e-06	0	44	0	680525824	20	3975
2026-01-27 02:37:03.08	297.12	19.60	-29.4	-30.5	13.9	5.30e-06	0	44	0	682622976	19	4084
2026-01-27 02:37:04.08	296.89	19.55	-29.5	-30.6	14.0	5.30e-06	0	44	0	683671552	19	4090
2026-01-27 02:37:05.09	296.66	19.51	-29.3	-30.1	14.3	2.20e-06	0	44	0	685768704	19	3946
2026-01-27 02:37:06.09	296.43	19.46	-29.3	-30.3	14.2	2.20e-06	0	44	0	687865856	19	4028
2026-01-27 02:37:07.10	296.20	19.41	-29.5	-30.8	13.9	4.50e-06	0	44	0	689963008	19	4159
2026-01-27 02:37:08.10	295.97	19.37	-29.5	-30.7	13.9	4.50e-06	0	44	0	692060160	19	4126
2026-01-27 02:37:09.10	295.74	19.32	-29.5	-30.7	13.9	3.00e-06	0	44	0	693108736	19	4135
2026-01-27 02:37:10.11	295.51	19.27	-29.5	-30.7	13.9	1.50e-06	0	44	0	695205888	19	4143
2026-01-27 02:37:11.11	295.28	19.23	-29.3	-30.2	14.2	1.86e-04	0	44	0	697303040	19	3979
2026-01-27 02:37:12.11	295.06	19.18	-29.2	-30.5	14.3	3.10e-04	0	44	0	699400192	18	4173
2026-01-27 02:37:13.11	294.83	19.13	-29.2	-30.4	14.4	7.00e-07	0	44	0	701497344	18	4142
2026-01-27 02:37:14.11	294.61	19.08	-29.3	-30.6	14.3	6.98e-04	0	44	0	702545920	18	4197
2026-01-27 02:37:15.12	294.38	19.03	-29.0	-29.9	14.6	9.22e-04	0	44	0	704643072	18	4005
2026-01-27 02:37:16.12	294.16	18.98	-28.9	-29.6	14.9	0.00e+00	0	44	0	706740224	18	3926
2026-01-27 02:37:17.12	293.94	18.93	-28.7	-29.6	15.1	1.09e-03	0	44	0	708837376	17	3996
2026-01-27 02:37:18.12	293.72	18.89	-28.7	-29.6	15.1	5.68e-04	0	44	0	710934528	17	4010
2026-01-27 02:37:19.13	293.49	18.83	-28.8	-29.9	14.9	7.00e-07	0	44	0	711983104	17	4100
2026-01-27 02:37:20.14	293.27	18.78	-28.8	-30.0	14.8	4.88e-05	0	44	0	714080256	17	4131
2026-01-27 02:37:21.14	293.05	18.73	-28.9	-30.3	14.7	0.00e+00	0	44	0	716177408	17	4207
2026-01-27 02:37:22.15	292.83	18.68	-29.0	-30.0	14.7	0.00e+00	0	44	0	718274560	18	4014
2026-01-27 02:37:23.14	292.62	18.63	-29.2	-30.5	14.3	1.50e-06	0	44	0	720371712	18	4173
2026-01-27 02:37:24.14	292.40	18.58	-29.5	-30.8	13.8	3.80e-06	0	44	0	721420288	19	4164
2026-01-27 02:37:25.14	292.18	18.53	-29.9	-31.9	13.1	1.83e-05	0	44	0	723517440	19	4515
2026-01-27 02:37:26.14	291.97	18.47	-30.2	-32.4	12.3	1.88e-04	0	44	0	725614592	20	4593
2026-01-27 02:37:27.14	291.75	18.42	-30.5	-33.0	11.9	4.84e-04	0	44	0	727711744	20	4839
2026-01-27 02:37:28.14	291.54	18.37	-30.3	-32.0	12.2	2.64e-04	0	44	0	728760320	21	4383
2026-01-27 02:37:29.14	291.33	18.31	-30.3	-32.0	12.2	4.45e-04	0	44	0	730857472	21	4383
2026-01-27 02:37:30.15	291.11	18.26	-30.2	-32.2	12.5	1.27e-04	0	44	0	732954624	20	4547
2026-01-27 02:37:31.16	290.90	18.21	-30.2	-32.3	12.3	1.49e-04	0	44	0	735051776	20	4587
2026-01-27 02:37:32.16	290.69	18.15	-30.2	-32.2	12.5	5.32e-04	0	44	0	737148928	20	4533
2026-01-27 02:37:33.17	290.48	18.10	-30.6	-32.8	11.6	6.43e-04	0	44	0	738197504	21	4680
2026-01-27 02:37:34.18	290.26	18.04	-30.6	-33.0	11.5	7.09e-04	0	44	0	740294656	21	4723
2026-01-27 02:37:35.18	290.06	17.99	-30.9	-33.9	10.8	1.92e-03	0	44	0	742391808	21	5085
2026-01-27 02:37:36.19	289.85	17.93	-31.0	-33.8	10.6	2.38e-03	0	44	0	744488960	22	4972
2026-01-27 02:37:37.19	289.64	17.88	-31.1	-34.1	10.4	3.66e-03	0	44	0	746586112	22	5076
2026-01-27 02:37:38.18	289.43	17.82	-30.9	-33.3	10.9	4.07e-03	0	44	0	747634688	22	4765
2026-01-27 02:37:39.18	289.23	17.76	-30.8	-33.1	11.1	2.28e-03	0	44	0	749731840	22	4678
2026-01-27 02:37:40.19	289.02	17.71	-30.5	-32.1	11.7	6.62e-04	0	44	0	751828992	22	4341
2026-01-27 02:37:41.19	288.82	17.65	-30.0	-31.1	12.7	1.75e-04	0	44	0	753926144	21	4102
2026-01-27 02:37:42.19	288.61	17.59	-29.9	-30.8	12.9	2.04e-04	0	44	0	756023296	21	4019
2026-01-27 02:37:43.19	288.41	17.54	-29.7	-30.8	13.3	2.59e-05	0	44	0	757071872	20	4112
2026-01-27 02:37:44.19	288.21	17.48	-29.4	-30.0	13.8	4.50e-06	0	44	0	759169024	20	3879
2026-01-27 02:37:45.20	288.01	17.42	-29.4	-30.0	13.8	5.30e-06	0	44	0	761266176	20	3869
2026-01-27 02:37:46.20	287.81	17.36	-29.5	-30.3	13.6	3.00e-06	0	44	0	763363328	20	3956
2026-01-27 02:37:47.21	287.61	17.31	-29.4	-30.6	13.8	3.00e-06	0	44	0	765460480	19	4123
2026-01-27 02:37:48.21	287.41	17.25	-29.5	-30.8	13.6	1.14e-05	0	44	0	766509056	19	4173
2026-01-27 02:37:49.22	287.21	17.19	-29.4	-30.6	13.8	8.30e-06	0	44	0	768606208	19	4128
2026-01-27 02:37:50.22	287.01	17.13	-29.6	-30.9	13.6	1.50e-06	0	44	0	770703360	19	4214
2026-01-27 02:37:51.22	286.81	17.07	-29.8	-31.6	13.2	1.37e-05	0	44	0	772800512	19	4424
2026-01-27 02:37:52.22	286.62	17.01	-30.0	-31.7	12.7	4.04e-05	0	44	0	773849088	20	4366
2026-01-27 02:37:53.22	286.42	16.95	-30.0	-31.6	12.7	7.85e-05	0	44	0	775946240	20	4352
2026-01-27 02:37:54.22	286.23	16.89	-29.9	-31.4	12.8	4.95e-05	0	44	0	778043392	20	4272
2026-01-27 02:37:55.22	286.04	16.83	-29.7	-31.0	13.1	5.64e-05	0	44	0	780140544	20	4148
2026-01-27 02:37:56.22	285.85	16.77	-29.7	-30.9	13.2	2.21e-05	0	44	0	782237696	20	4114
2026-01-27 02:37:57.23	285.65	16.71	-29.7	-31.0	13.2	1.83e-05	0	44	0	783286272	20	4155
2026-01-27 02:37:58.23	285.46	16.65	-29.6	-30.6	13.4	1.37e-05	0	44	0	785383424	20	4043
2026-01-27 02:37:59.24	285.27	16.59	-29.5	-30.3	13.6	8.30e-06	0	44	0	787480576	20	3943
2026-01-27 02:38:00.24	285.08	16.53	-29.7	-30.9	13.2	3.58e-05	0	44	0	789577728	20	4129
2026-01-27 02:38:01.24	284.89	16.47	-29.7	-30.8	13.3	1.75e-05	0	44	0	791674880	20	4087
2026-01-27 02:38:02.25	284.70	16.41	-29.9	-31.5	12.6	4.57e-05	0	44	0	792723456	20	4321
2026-01-27 02:38:03.25	284.51	16.35	-30.4	-32.8	12.0	1.30e-04	0	44	0	794820608	20	4746
2026-01-27 02:38:04.25	284.33	16.29	-30.5	-32.8	11.6	4.53e-04	0	44	0	796917760	21	4675
2026-01-27 02:38:05.26	284.14	16.23	-30.7	-33.3	11.2	1.20e-03	0	44	0	799014912	21	4839
2026-01-27 02:38:06.27	283.95	16.16	-31.0	-34.2	10.6	2.80e-03	0	44	0	801112064	21	5214
2026-01-27 02:38:07.27	283.77	16.10	-30.8	-33.6	11.0	3.04e-03	0	44	0	802160640	21	4984
2026-01-27 02:38:08.28	283.59	16.04	-30.6	-33.1	11.3	1.24e-03	0	44	0	804257792	21	4804
2026-01-27 02:38:09.29	283.40	15.98	-30.4	-32.4	11.8	6.36e-04	0	44	0	806354944	21	4529
2026-01-27 02:38:10.28	283.22	15.92	-30.4	-32.3	11.8	3.95e-04	0	44	0	808452096	21	4511
2026-01-27 02:38:11.29	283.04	15.85	-30.2	-32.3	12.2	2.22e-04	0	44	0	810549248	20	4593
2026-01-27 02:38:12.29	282.86	15.79	-30.0	-31.7	12.6	9.68e-05	0	44	0	811597824	20	4372
2026-01-27 02:38:13.30	282.68	15.73	-30.0	-31.9	12.5	1.08e-04	0	44	0	813694976	20	4453
2026-01-27 02:38:14.29	282.50	15.67	-29.9	-31.4	12.8	6.40e-05	0	44	0	815792128	20	4299
2026-01-27 02:38:15.30	282.32	15.60	-29.8	-31.8	13.0	5.03e-05	0	44	0	817889280	19	4486
2026-01-27 02:38:16.30	282.14	15.54	-30.0	-32.1	12.7	6.25e-05	0	44	0	819986432	19	4609
2026-01-27 02:38:17.30	281.97	15.48	-30.0	-31.9	12.5	1.11e-04	0	44	0	821035008	20	4440
2026-01-27 02:38:18.31	281.79	15.41	-30.2	-32.2	12.2	2.14e-04	0	44	0	823132160	20	4570
2026-01-27 02:38:19.31	281.62	15.35	-30.2	-32.4	12.1	2.84e-04	0	44	0	825229312	20	4625
2026-01-27 02:38:20.32	281.44	15.29	-29.2	-31.3	12.2	2.36e-04	0	44	0	827326464	20	4583
2026-01-27 02:38:21.32	281.27	15.22	-30.2	-32.5	12.0	2.40e-04	0	44	0	828375040	20	4645
2026-01-27 02:38:22.32	281.09	15.16	-30.3	-32.7	11.5	3.06e-04	0	44	0	830472192	20	4727
2026-01-27 02:38:23.32	280.92	15.10	-30.4	-32.8	11.2	4.65e-04	0	44	0	832569344	20	4788
2026-01-27 02:38:24.32	280.75	15.03	-30.5	-32.9	11.3	1.14e-03	0	44	0	834666496	21	4725
2026-01-27 02:38:25.32	280.58	14.97	-30.4	-33.1	11.6	8.81e-04	0	44	0	836763648	20	4906
2026-01-27 02:38:26.33	280.41	14.90	-30.5	-32.8	11.4	6.13e-04	0	44	0	838860800	21	4700
2026-01-27 02:38:27.33	280.24	14.84	-30.5	-32.9	11.4	9.36e-04	0	44	0	839909376	21	4710
2026-01-27 02:38:28.34	280.07	14.78	-30.7	-33.3	11.1	1.33e-03	0	44	0	842006528	21	4871
2026-01-27 02:38:29.34	279.90	14.71	-30.6	-33.3	11.1	2.08e-03	0	44	0	844103680	21	4867
2026-01-27 02:38:30.35	279.73	14.65	-30.4	-32.4	11.7	9.73e-04	0	44	0	846200832	21	4536
2026-01-27 02:38:31.35	279.57	14.58	-30.4	-33.0	11.6	7.55e-04	0	44	0	847249408	20	4872
2026-01-27 02:38:32.35	279.40	14.52	-30.5	-32.7	11.4	8.50e-04	0	44	0	849346560	21	4670
2026-01-27 02:38:33.35	279.24	14.45	-30.3	-32.3	11.6	6.77e-04	0	44	0	851443712	21	4533
2026-01-27 02:38:34.36	279.07	14.39	-30.3	-32.2	11.8	5.25e-04	0	44	0	853540864	21	4465
2026-01-27 02:38:35.36	278.91	14.33	-30.4	-32.7	11.5	8.49e-04	0	44	0	855638016	21	4642
2026-01-27 02:38:36.37	278.75	14.26	-30.4	-32.7	11.5	9.32e-04	0	44	0	856686592	21	4663
2026-01-27 02:38:37.38	278.58	14.20	-30.6	-33.1	11.1	1.79e-03	0	44	0	858783744	21	4817
2026-01-27 02:38:38.38	278.42	14.13	-30.7	-33.5	10.9	3.86e-03	0	44	0	860880896	21	4957
2026-01-27 02:38:39.39	278.26	14.07	-30.5	-32.8	11.4	1.44e-03	0	44	0	862978048	21	4689
2026-01-27 02:38:40.40	278.10	14.00	-30.3	-32.7	11.8	8.90e-04	0	44	0	865075200	20	4746
2026-01-27 02:38:41.40	277.94	13.94	-30.0	-31.9	12.3	1.42e-03	0	44	0	866123776	20	4478
2026-01-27 02:38:42.41	277.78	13.87	-29.9	-31.6	12.4	1.39e-04	0	44	0	868220928	20	4383
2026-01-27 02:38:43.41	277.62	13.80	-29.7	-31.5	13.0	7.01e-05	0	44	0	870318080	19	4431
2026-01-27 02:38:44.41	277.47	13.74	-29.7	-31.3	13.1	1.18e-03	0	44	0	872415232	19	4371
2026-01-27 02:38:45.41	277.31	13.68	-29.7	-31.3	13.1	3.20e-05	0	44	0	874512384	19	4368
2026-01-27 02:38:46.42	277.15	13.61	-29.6	-31.2	13.2	4.57e-05	0	44	0	875560960	19	4309
2026-01-27 02:38:47.42	277.00	13.54	-29.5	-31.3	13.5	1.90e-05	0	44	0	877658112	18	4448
2026-01-27 02:38:48.42	276.85	13.48	-29.4	-31.2	13.5	1.83e-05	0	44	0	879755264	18	4413
2026-01-27 02:38:49.42	276.69	13.41	-29.4	-31.2	13.5	1.51e-03	0	44	0	881852416	18	4411
2026-01-27 02:38:50.42	276.54	13.35	-29.3	-30.8	13.8	3.80e-06	0	44	0	883949568	18	4287
2026-01-27 02:38:51.42	276.39	13.28	-29.3	-30.9	13.7	7.60e-06	0	44	0	884998144	18	4317
2026-01-27 02:38:52.43	276.24	13.22	-29.3	-31.0	13.6	2.26e-03	0	44	0	887095296	18	4347
2026-01-27 02:38:53.43	276.08	13.15	-29.3	-30.8	13.7	2.27e-03	0	44	0	889192448	18	4280
2026-01-27 02:38:54.44	275.93	13.09	-29.0	-30.2	14.1	3.00e-06	0	44	0	891289600	18	4100
2026-01-27 02:38:55.44	275.78	13.02	-28.9	-30.2	14.3	2.34e-03	0	44	0	893386752	17	4220
2026-01-27 02:38:56.44	275.64	12.96	-28.9	-30.3	14.4	2.35e-03	0	44	0	894435328	17	4232
2026-01-27 02:38:57.44	275.49	12.89	-28.9	-30.3	14.4	0.00e+00	0	44	0	896532480	17	4225
2026-01-27 02:38:58.44	275.34	12.83	-29.0	-30.6	14.2	2.48e-03	0	44	0	898629632	17	4318
2026-01-27 02:38:59.45	275.19	12.76	-29.3	-30.9	13.7	2.45e-03	0	44	0	900726784	18	4313
2026-01-27 02:39:00.45	275.05	12.70	-29.5	-30.8	13.3	1.67e-05	0	44	0	901775360	19	4206
2026-01-27 02:39:01.46	274.90	12.63	-29.4	-30.8	13.4	2.38e-03	0	44	0	903872512	19	4193
2026-01-27 02:39:02.46	274.76	12.56	-29.6	-31.1	13.2	2.26e-03	0	44	0	905969664	19	4303
2026-01-27 02:39:03.47	274.61	12.50	-29.7	-31.6	12.9	4.88e-05	0	44	0	908066816	19	4456
2026-01-27 02:39:04.46	274.47	12.43	-29.5	-31.1	13.2	2.06e-03	0	44	0	910163968	19	4304
2026-01-27 02:39:05.47	274.32	12.37	-29.6	-31.1	13.2	1.78e-03	0	44	0	911212544	19	4302
2026-01-27 02:39:06.47	274.18	12.30	-29.5	-31.0	13.2	2.97e-05	0	44	0	913309696	19	4278
2026-01-27 02:39:07.48	274.04	12.24	-29.6	-31.2	13.1	1.30e-03	0	44	0	915406848	19	4345
2026-01-27 02:39:08.49	273.90	12.17	-29.5	-31.0	13.2	1.12e-03	0	44	0	917504000	19	4269
2026-01-27 02:39:09.49	273.76	12.10	-29.4	-30.7	13.4	8.30e-06	0	44	0	919601152	19	4189
2026-01-27 02:39:10.49	273.62	12.04	-29.3	-31.0	13.5	4.48e-04	0	44	0	920649728	18	4376
2026-01-27 02:39:11.49	273.48	11.97	-29.2	-30.7	13.7	1.06e-05	0	44	0	922746880	18	4279
2026-01-27 02:39:12.49	273.34	11.91	-29.1	-30.3	14.0	3.00e-06	0	44	0	924844032	18	4149
2026-01-27 02:39:13.50	273.20	11.84	-28.8	-29.7	14.3	3.80e-06	0	44	0	926941184	18	3978
2026-01-27 02:39:14.50	273.07	11.78	-28.9	-29.8	14.3	4.57e-04	0	44	0	929038336	18	3990
2026-01-27 02:39:15.50	272.93	11.71	-28.9	-29.9	14.3	1.50e-06	0	44	0	930086912	18	4025
2026-01-27 02:39:16.50	272.79	11.65	-29.0	-30.0	14.2	1.39e-03	0	44	0	932184064	18	4069
2026-01-27 02:39:17.50	272.66	11.58	-29.1	-30.4	13.9	1.32e-03	0	44	0	934281216	18	4172
2026-01-27 02:39:18.50	272.52	11.52	-29.2	-30.6	13.7	6.10e-06	0	44	0	936378368	18	4250
2026-01-27 02:39:19.50	272.39	11.45	-29.3	-30.8	13.6	4.86e-04	0	44	0	938475520	18	4304
2026-01-27 02:39:20.50	272.26	11.39	-29.3	-31.1	13.4	3.12e-04	0	44	0	939524096	18	4390
2026-01-27 02:39:21.50	272.12	11.32	-29.4	-31.3	13.3	1.06e-05	0	44	0	941621248	18	4480
2026-01-27 02:39:22.51	271.99	11.26	-29.6	-31.4	12.9	3.81e-05	0	44	0	943718400	19	4409
2026-01-27 02:39:23.52	271.86	11.19	-29.8	-31.7	12.7	1.84e-03	0	44	0	945815552	19	4497
2026-01-27 02:39:24.52	271.73	11.13	-29.8	-31.9	12.6	7.78e-05	0	44	0	946864128	19	4575
2026-01-27 02:39:25.52	271.60	11.06	-29.9	-32.0	12.5	1.41e-04	0	44	0	948961280	19	4614
2026-01-27 02:39:26.52	271.47	11.00	-30.0	-32.4	12.2	2.43e-03	0	44	0	951058432	19	4765
2026-01-27 02:39:27.54	271.34	10.93	-30.2	-32.6	11.6	3.13e-04	0	44	0	953155584	20	4750
2026-01-27 02:39:28.54	271.21	10.86	-30.2	-32.5	11.7	7.48e-04	0	44	0	955252736	20	4702
2026-01-27 02:39:29.55	271.08	10.80	-30.1	-32.4	11.8	4.90e-04	0	44	0	957349888	20	4689
2026-01-27 02:39:30.55	270.95	10.73	-30.2	-32.5	11.7	6.64e-04	0	44	0	958398464	20	4699
2026-01-27 02:39:31.55	270.82	10.67	-29.9	-31.7	12.2	2.71e-03	0	44	0	960495616	20	4432
2026-01-27 02:39:32.56	270.70	10.60	-29.8	-31.9	12.5	1.33e-04	0	44	0	962592768	19	4583
2026-01-27 02:39:33.57	270.57	10.54	-29.8	-31.8	12.5	1.56e-04	0	44	0	964689920	19	4534
2026-01-27 02:39:34.57	270.44	10.47	-29.5	-31.2	13.0	1.60e-03	0	44	0	965738496	19	4340
2026-01-27 02:39:35.58	270.32	10.41	-29.6	-31.3	12.9	2.89e-05	0	44	0	967835648	19	4367
2026-01-27 02:39:36.58	270.19	10.34	-29.4	-30.8	13.2	2.89e-05	0	44	0	969932800	19	4214
2026-01-27 02:39:37.59	270.07	10.28	-29.1	-30.0	13.7	6.00e-04	0	44	0	972029952	19	3986
2026-01-27 02:39:38.59	269.95	10.21	-28.9	-30.0	14.0	6.10e-06	0	44	0	974127104	18	4067
2026-01-27 02:39:39.60	269.82	10.15	-28.9	-30.0	14.1	3.00e-06	0	44	0	975175680	18	4060
2026-01-27 02:39:40.60	269.70	10.08	-29.0	-30.3	13.8	3.00e-06	0	44	0	977272832	18	4157
2026-01-27 02:39:41.61	269.58	10.02	-29.1	-30.4	13.8	5.80e-04	0	44	0	979369984	18	4201
2026-01-27 02:39:42.61	269.46	9.95	-29.4	-31.4	13.1	1.29e-05	0	44	0	981467136	18	4503
2026-01-27 02:39:43.61	269.34	9.89	-29.6	-31.3	12.8	5.34e-05	0	44	0	983564288	19	4401
2026-01-27 02:39:44.61	269.22	9.83	-29.8	-32.0	12.3	1.34e-04	0	44	0	984612864	19	4633
2026-01-27 02:39:45.61	269.10	9.76	-30.0	-32.5	12.0	2.38e-04	0	44	0	986710016	19	4790
2026-01-27 02:39:46.62	268.98	9.70	-30.1	-32.5	11.6	3.75e-04	0	44	0	988807168	20	4710
2026-01-27 02:39:47.61	268.86	9.63	-30.0	-32.2	11.7	1.03e-03	0	44	0	990904320	20	4641
2026-01-27 02:39:48.62	268.74	9.57	-29.9	-31.8	12.0	4.91e-04	0	44	0	993001472	20	4471
2026-01-27 02:39:49.62	268.63	9.50	-29.9	-31.9	11.9	3.68e-04	0	44	0	994050048	20	4520
2026-01-27 02:39:50.63	268.51	9.44	-30.0	-32.5	11.9	2.97e-04	0	44	0	996147200	19	4813
2026-01-27 02:39:51.63	268.39	9.38	-30.1	-32.4	11.6	4.10e-04	0	44	0	998244352	20	4703
2026-01-27 02:39:52.64	268.28	9.31	-30.0	-32.0	11.8	5.89e-04	0	44	0	1000341504	20	4554
2026-01-27 02:39:53.64	268.16	9.25	-29.8	-32.1	12.2	2.86e-04	0	44	0	1002438656	19	4663
2026-01-27 02:39:54.65	268.05	9.18	-29.7	-31.8	12.4	1.40e-04	0	44	0	1003487232	19	4572
2026-01-27 02:39:55.66	267.93	9.12	-29.6	-31.5	12.6	9.61e-05	0	44	0	1005584384	19	4475
2026-01-27 02:39:56.66	267.82	9.05	-29.6	-31.4	12.7	8.23e-05	0	44	0	1007681536	19	4430
2026-01-27 02:39:57.66	267.71	8.99	-29.6	-31.5	12.5	9.99e-05	0	44	0	1009778688	19	4483
2026-01-27 02:39:58.66	267.59	8.93	-29.7	-31.7	12.4	1.31e-04	0	44	0	1011875840	19	4545
2026-01-27 02:39:59.66	267.48	8.86	-29.6	-31.6	12.5	1.07e-04	0	44	0	1012924416	19	4490
2026-01-27 02:40:00.66	267.37	8.80	-29.8	-32.1	12.2	1.30e-04	0	44	0	1015021568	19	4682
2026-01-27 02:40:01.67	267.26	8.74	-29.8	-32.2	12.1	3.69e-04	0	44	0	1017118720	19	4706
2026-01-27 02:40:02.67	267.15	8.67	-29.6	-31.5	12.5	1.17e-04	0	44	0	1019215872	19	4465
2026-01-27 02:40:03.68	267.04	8.61	-29.7	-31.7	12.4	1.23e-04	0	44	0	1021313024	19	4530
2026-01-27 02:40:04.68	266.93	8.55	-29.7	-31.8	12.3	1.46e-04	0	44	0	1022361600	19	4563
2026-01-27 02:40:05.68	266.82	8.48	-29.8	-31.9	12.2	1.69e-04	0	44	0	1024458752	19	4628
2026-01-27 02:40:06.69	266.71	8.42	-29.8	-32.0	12.1	2.00e-04	0	44	0	1026555904	19	4659
2026-01-27 02:40:07.69	266.60	8.36	-29.8	-32.2	12.0	2.94e-04	0	44	0	1028653056	19	4720
2026-01-27 02:40:08.69	266.50	8.29	-29.9	-32.4	11.9	4.24e-04	0	44	0	1030750208	19	4801
2026-01-27 02:40:09.70	266.39	8.23	-29.9	-32.1	11.7	4.76e-04	0	44	0	1031798784	20	4598
2026-01-27 02:40:10.70	266.28	8.17	-30.1	-32.4	11.4	6.42e-04	0	44	0	1033895936	20	4724
2026-01-27 02:40:11.70	266.18	8.10	-30.0	-32.1	11.7	6.78e-04	0	44	0	1035993088	20	4603
2026-01-27 02:40:12.71	266.07	8.04	-30.1	-32.4	11.4	3.13e-03	0	44	0	1038090240	20	4726
2026-01-27 02:40:13.71	265.96	7.98	-30.0	-32.2	11.5	1.10e-03	0	44	0	1039138816	20	4652
2026-01-27 02:40:14.72	265.86	7.91	-29.9	-31.9	11.8	7.52e-04	0	44	0	1041235968	20	4535
2026-01-27 02:40:15.71	265.75	7.85	-30.0	-32.2	11.6	5.98e-04	0	44	0	1043333120	20	4646
2026-01-27 02:40:16.72	265.65	7.79	-30.0	-32.6	11.7	5.76e-04	0	44	0	1045430272	19	4860
2026-01-27 02:40:17.72	265.55	7.73	-29.9	-32.0	11.7	5.00e-04	0	44	0	1047527424	20	4567
2026-01-27 02:40:18.73	265.44	7.66	-29.9	-32.5	11.8	6.26e-04	0	44	0	1048576000	19	4824
2026-01-27 02:40:19.74	265.34	7.60	-30.0	-32.3	11.5	1.85e-03	0	44	0	1050673152	20	4672
2026-01-27 02:40:20.74	265.24	7.54	-30.1	-32.5	11.3	9.91e-04	0	44	0	1052770304	20	4773
2026-01-27 02:40:21.74	265.14	7.48	-30.1	-32.7	11.1	9.69e-04	0	44	0	1054867456	20	4847
2026-01-27 02:40:22.74	265.04	7.41	-30.3	-33.1	10.9	2.44e-03	0	44	0	1056964608	20	5007
2026-01-27 02:40:23.74	264.93	7.35	-30.3	-33.2	10.8	2.99e-03	0	44	0	1058013184	20	5034
2026-01-27 02:40:24.74	264.83	7.29	-30.4	-33.6	10.4	3.89e-03	0	44	0	1060110336	20	5221
2026-01-27 02:40:25.75	264.73	7.23	-30.6	-33.7	10.0	4.98e-03	0	44	0	1062207488	21	5170
2026-01-27 02:40:26.75	264.64	7.17	-30.6	-33.9	9.8	8.00e-03	0	44	0	1064304640	21	5254
2026-01-27 02:40:27.75	264.54	7.10	-30.7	-34.1	9.7	1.02e-02	0	44	0	1066401792	21	5348
2026-01-27 02:40:28.75	264.44	7.04	-32.7	-44.8	3.8	2.03e-01	0	44	104	1067450368	25	14610
2026-01-27 02:40:29.76	264.34	6.98	-33.1	-45.5	3.8	1.49e+00	0	44	104	1067450368	26	14973
2026-01-27 02:40:30.76	264.24	6.92	-33.5	-46.1	3.8	1.49e+00	0	44	104	1067450368	26	15483

#Closed at: 2026-01-27 02:40:31
#Recorded file [1067 MB]: D:/data/31010_260127_053058.dat