passes_logs/2026/01/27/R2M6_AANII_01/R2M6_AANII_01__20260127_130639_AQUA_rec.log

#Pass ID: 20260127_130639_AQUA
#Satellite: AQUA
#Configuration: AQUA
#almurnet v.1.7.20240730
#Start time: 2026-01-27 13:06:41

#Version: 2.2.20231116
#Station: R2M6_AANII_01
#Location: 30.233357 lon 59.946436 lat
#TLE: 1 27424U 02022A   26026.85810808  .00001813  00000+0  37258-3 0  9999
#TLE: 2 27424  98.4101 353.4861 0001866  64.3332 317.5249 14.61864179262622

#Time	Az	El	Level	Level2	SNR	BER	BlckErr	Temp	State	Recorded	gain1	gain2
2026-01-27 13:06:41.30	195.91	7.13	-30.9	-35.7	5.2	7.08e-01	0	41	0	0	23	6284
2026-01-27 13:06:42.30	195.99	7.20	-31.3	-36.6	5.2	7.09e-01	0	41	0	0	24	6599
2026-01-27 13:06:43.31	196.07	7.28	-31.4	-36.7	5.2	7.10e-01	0	41	0	0	24	6694
2026-01-27 13:06:44.30	196.15	7.35	-31.1	-35.9	5.2	7.10e-01	0	41	0	0	24	6229
2026-01-27 13:06:45.31	196.23	7.43	-30.9	-35.1	5.2	7.10e-01	0	41	0	0	24	5847
2026-01-27 13:06:46.31	196.31	7.51	-30.8	-35.3	5.2	7.10e-01	0	41	0	0	23	6018
2026-01-27 13:06:47.32	196.39	7.58	-31.0	-35.8	5.2	7.06e-01	0	41	0	0	23	6296
2026-01-27 13:06:48.32	196.47	7.66	-31.0	-35.9	5.2	7.09e-01	0	41	0	0	23	6333
2026-01-27 13:06:49.32	196.55	7.74	-31.0	-36.0	5.2	7.08e-01	0	41	0	0	23	6356
2026-01-27 13:06:50.33	196.63	7.82	-31.0	-36.0	5.2	7.09e-01	0	41	0	0	23	6368
2026-01-27 13:06:51.34	196.71	7.89	-30.9	-35.6	5.2	7.07e-01	0	41	0	0	23	6161
2026-01-27 13:06:52.34	196.79	7.97	-30.9	-35.5	5.2	7.07e-01	0	41	0	0	23	6143
2026-01-27 13:06:53.35	196.87	8.05	-30.8	-35.4	5.2	7.08e-01	0	41	0	0	23	6053
2026-01-27 13:06:54.36	196.96	8.13	-30.9	-35.6	5.2	7.02e-01	0	41	0	0	23	6161
2026-01-27 13:06:55.36	197.04	8.21	-31.0	-35.8	5.2	7.07e-01	0	41	0	0	23	6275
2026-01-27 13:06:56.37	197.13	8.28	-30.8	-35.1	5.2	7.11e-01	0	41	0	0	23	5930
2026-01-27 13:06:57.37	197.21	8.36	-30.5	-34.3	5.2	7.06e-01	0	41	0	0	23	5577
2026-01-27 13:06:58.38	197.30	8.44	-30.3	-34.2	5.3	7.07e-01	0	41	0	0	22	5641
2026-01-27 13:06:59.38	197.38	8.52	-30.3	-34.3	5.3	7.07e-01	0	41	0	0	22	5672
2026-01-27 13:07:00.38	197.47	8.60	-30.4	-34.4	5.3	7.05e-01	0	41	0	0	22	5709
2026-01-27 13:07:01.39	197.55	8.68	-30.2	-34.0	5.3	7.08e-01	0	41	0	0	22	5553
2026-01-27 13:07:02.39	197.64	8.76	-30.3	-34.3	5.3	7.07e-01	0	41	0	0	22	5666
2026-01-27 13:07:03.39	197.73	8.84	-30.3	-34.2	5.3	7.07e-01	0	41	0	0	22	5645
2026-01-27 13:07:04.40	197.81	8.92	-30.2	-34.0	5.3	7.07e-01	0	41	0	0	22	5547
2026-01-27 13:07:05.40	197.90	9.00	-30.2	-34.0	5.3	7.06e-01	0	41	0	0	22	5545
2026-01-27 13:07:06.40	197.99	9.08	-30.3	-34.2	5.3	7.06e-01	0	41	0	0	22	5626
2026-01-27 13:07:07.41	198.08	9.16	-30.3	-34.2	5.3	7.06e-01	0	41	0	0	22	5619
2026-01-27 13:07:08.41	198.17	9.24	-30.3	-34.0	5.3	7.08e-01	0	41	0	0	22	5565
2026-01-27 13:07:09.42	198.26	9.33	-30.3	-34.1	5.3	7.05e-01	0	41	0	0	22	5571
2026-01-27 13:07:10.42	198.35	9.41	-30.4	-34.5	5.3	7.04e-01	0	41	0	0	22	5766
2026-01-27 13:07:11.42	198.44	9.49	-30.5	-34.7	5.3	7.04e-01	0	41	0	0	22	5846
2026-01-27 13:07:12.43	198.54	9.57	-30.3	-34.2	5.3	7.07e-01	0	41	0	0	22	5642
2026-01-27 13:07:13.43	198.63	9.66	-30.2	-33.9	5.3	7.07e-01	0	41	0	0	22	5516
2026-01-27 13:07:14.43	198.72	9.74	-30.1	-33.7	5.3	7.05e-01	0	42	0	0	22	5427
2026-01-27 13:07:15.44	198.82	9.82	-30.1	-33.7	5.3	7.08e-01	0	42	0	0	22	5416
2026-01-27 13:07:16.44	198.91	9.90	-30.2	-33.8	5.3	7.06e-01	0	41	0	0	22	5459
2026-01-27 13:07:17.44	199.00	9.99	-30.1	-33.6	5.3	7.06e-01	0	42	0	0	22	5362
2026-01-27 13:07:18.45	199.10	10.07	-30.1	-33.6	5.3	7.08e-01	0	41	0	0	22	5369
2026-01-27 13:07:19.45	199.20	10.16	-30.1	-33.6	5.3	7.09e-01	0	41	0	0	22	5360
2026-01-27 13:07:20.45	199.29	10.24	-30.1	-33.6	5.3	7.07e-01	0	41	0	0	22	5379
2026-01-27 13:07:21.45	199.39	10.32	-30.1	-33.6	5.3	7.07e-01	0	42	0	0	22	5360
2026-01-27 13:07:22.46	199.49	10.41	-30.1	-33.7	5.3	7.05e-01	0	41	0	0	22	5401
2026-01-27 13:07:23.47	199.58	10.50	-30.1	-33.5	5.3	7.06e-01	0	41	0	0	22	5355
2026-01-27 13:07:24.48	199.68	10.58	-30.1	-33.7	5.3	7.07e-01	0	41	0	0	22	5403
2026-01-27 13:07:25.48	199.78	10.67	-30.2	-33.8	5.3	7.06e-01	0	42	0	0	22	5450
2026-01-27 13:07:26.48	199.88	10.75	-30.2	-33.7	5.3	7.04e-01	0	41	0	0	22	5431
2026-01-27 13:07:27.49	199.98	10.84	-30.2	-33.8	5.3	7.06e-01	0	42	0	0	22	5458
2026-01-27 13:07:28.50	200.09	10.93	-30.2	-33.9	5.3	7.09e-01	0	42	0	0	22	5497
2026-01-27 13:07:29.50	200.19	11.01	-30.1	-33.6	5.3	7.09e-01	0	42	0	0	22	5353
2026-01-27 13:07:30.51	200.29	11.10	-30.0	-33.3	5.3	7.05e-01	0	42	0	0	22	5246
2026-01-27 13:07:31.51	200.39	11.19	-29.9	-33.1	5.3	7.06e-01	0	42	0	0	22	5178
2026-01-27 13:07:32.52	200.50	11.27	-30.0	-33.3	5.3	7.06e-01	0	41	0	0	22	5247
2026-01-27 13:07:33.52	200.60	11.36	-30.0	-33.2	5.3	7.09e-01	0	42	0	0	22	5200
2026-01-27 13:07:34.52	200.71	11.45	-29.8	-33.3	5.3	7.06e-01	0	42	0	0	21	5361
2026-01-27 13:07:35.52	200.81	11.54	-29.9	-33.4	5.3	7.07e-01	0	42	0	0	21	5423
2026-01-27 13:07:36.53	200.92	11.63	-29.9	-33.6	5.3	7.05e-01	0	42	0	0	21	5483
2026-01-27 13:07:37.54	201.03	11.72	-29.9	-33.5	5.3	7.06e-01	0	42	0	0	21	5441
2026-01-27 13:07:38.54	201.13	11.80	-30.0	-33.8	5.3	7.03e-01	0	42	0	0	21	5558
2026-01-27 13:07:39.54	201.24	11.89	-30.0	-33.8	5.3	7.05e-01	0	42	0	0	21	5553
2026-01-27 13:07:40.55	201.35	11.98	-29.9	-33.5	5.3	7.04e-01	0	42	0	0	21	5440
2026-01-27 13:07:41.56	201.46	12.07	-29.9	-33.4	5.3	7.06e-01	0	42	0	0	21	5411
2026-01-27 13:07:42.56	201.57	12.16	-29.9	-33.6	5.3	7.06e-01	0	42	0	0	21	5469
2026-01-27 13:07:43.57	201.68	12.26	-30.0	-33.8	5.3	7.05e-01	0	42	0	0	21	5575
2026-01-27 13:07:44.57	201.80	12.35	-30.0	-33.6	5.3	7.05e-01	0	42	0	0	21	5487
2026-01-27 13:07:45.57	201.91	12.44	-29.9	-33.4	5.3	7.04e-01	0	42	0	0	21	5412
2026-01-27 13:07:46.58	202.02	12.53	-29.9	-33.4	5.3	7.09e-01	0	42	0	0	21	5414
2026-01-27 13:07:47.58	202.14	12.62	-29.8	-33.3	5.3	7.06e-01	0	42	0	0	21	5360
2026-01-27 13:07:48.58	202.25	12.71	-29.8	-33.2	5.3	7.05e-01	0	42	0	0	21	5320
2026-01-27 13:07:49.59	202.37	12.80	-29.8	-33.2	5.3	7.06e-01	0	42	0	0	21	5318
2026-01-27 13:07:50.60	202.48	12.90	-29.8	-33.1	5.3	7.06e-01	0	42	0	0	21	5301
2026-01-27 13:07:51.60	202.60	12.99	-29.7	-33.0	5.3	7.08e-01	0	42	0	0	21	5253
2026-01-27 13:07:52.61	202.72	13.08	-29.6	-32.7	5.3	7.08e-01	0	42	0	0	21	5127
2026-01-27 13:07:53.61	202.84	13.18	-29.6	-32.8	5.3	7.08e-01	0	42	0	0	21	5151
2026-01-27 13:07:54.62	202.96	13.27	-29.6	-32.7	5.3	7.07e-01	0	42	0	0	21	5138
2026-01-27 13:07:55.62	203.08	13.36	-29.6	-32.6	5.3	7.06e-01	0	42	0	0	21	5087
2026-01-27 13:07:56.63	203.20	13.46	-29.7	-32.9	5.3	7.05e-01	0	42	0	0	21	5207
2026-01-27 13:07:57.62	203.32	13.55	-29.7	-33.0	5.3	7.06e-01	0	42	0	0	21	5223
2026-01-27 13:07:58.62	203.44	13.65	-29.7	-32.8	5.3	7.06e-01	0	42	0	0	21	5145
2026-01-27 13:07:59.63	203.57	13.74	-29.7	-32.9	5.3	7.07e-01	0	42	0	0	21	5180
2026-01-27 13:08:00.62	203.69	13.84	-29.7	-32.8	5.3	7.06e-01	0	42	0	0	21	5152
2026-01-27 13:08:01.63	203.81	13.93	-29.7	-32.8	5.3	7.06e-01	0	42	0	0	21	5152
2026-01-27 13:08:02.63	203.94	14.03	-29.6	-32.7	5.3	7.08e-01	0	42	0	0	21	5116
2026-01-27 13:08:03.63	204.07	14.13	-29.6	-32.6	5.3	7.05e-01	0	42	0	0	21	5092
2026-01-27 13:08:04.64	204.19	14.22	-29.7	-32.8	5.3	7.06e-01	0	42	0	0	21	5149
2026-01-27 13:08:05.64	204.32	14.32	-29.6	-32.7	5.3	7.08e-01	0	42	0	0	21	5138
2026-01-27 13:08:06.64	204.45	14.42	-29.6	-32.5	5.3	7.05e-01	0	42	0	0	21	5057
2026-01-27 13:08:07.65	204.58	14.51	-29.6	-32.6	5.3	7.06e-01	0	42	0	0	21	5075
2026-01-27 13:08:08.65	204.71	14.61	-29.6	-32.6	5.3	7.03e-01	0	42	0	0	21	5078
2026-01-27 13:08:09.66	204.85	14.71	-29.6	-32.6	5.3	7.02e-01	0	42	0	0	21	5081
2026-01-27 13:08:10.66	204.98	14.81	-29.7	-32.8	5.3	7.07e-01	0	42	0	0	21	5144
2026-01-27 13:08:11.67	205.11	14.91	-29.6	-32.6	5.3	7.09e-01	0	42	0	0	21	5072
2026-01-27 13:08:12.68	205.25	15.01	-29.5	-32.3	5.3	7.04e-01	0	42	0	0	21	4999
2026-01-27 13:08:13.68	205.38	15.11	-29.5	-32.4	5.3	7.05e-01	0	42	0	0	21	5021
2026-01-27 13:08:14.69	205.52	15.21	-29.5	-32.4	5.3	7.06e-01	0	42	0	0	21	5017
2026-01-27 13:08:15.70	205.66	15.31	-29.6	-32.5	5.3	7.06e-01	0	42	0	0	21	5060
2026-01-27 13:08:16.71	205.80	15.41	-29.6	-32.5	5.4	7.07e-01	0	42	0	0	21	5050
2026-01-27 13:08:17.72	205.94	15.51	-29.6	-32.5	5.3	7.06e-01	0	42	0	0	21	5053
2026-01-27 13:08:18.72	206.08	15.61	-29.7	-32.9	5.3	7.06e-01	0	42	0	0	21	5206
2026-01-27 13:08:19.73	206.22	15.71	-29.6	-32.6	5.3	7.06e-01	0	42	0	0	21	5092
2026-01-27 13:08:20.73	206.36	15.81	-29.5	-32.5	5.3	7.06e-01	0	42	0	0	21	5037
2026-01-27 13:08:21.74	206.51	15.92	-29.6	-32.6	5.3	7.06e-01	0	42	0	0	21	5077
2026-01-27 13:08:22.74	206.65	16.02	-29.6	-32.6	5.3	7.05e-01	0	42	0	0	21	5097
2026-01-27 13:08:23.75	206.80	16.12	-29.6	-32.7	5.3	7.08e-01	0	42	0	0	21	5105
2026-01-27 13:08:24.75	206.94	16.22	-29.6	-32.7	5.3	7.09e-01	0	42	0	0	21	5126
2026-01-27 13:08:25.76	207.09	16.33	-29.7	-32.8	5.3	7.08e-01	0	42	0	0	21	5140
2026-01-27 13:08:26.77	207.24	16.43	-29.9	-33.3	5.3	7.04e-01	0	42	0	0	21	5327
2026-01-27 13:08:27.78	207.39	16.54	-29.7	-33.0	5.3	7.08e-01	0	42	0	0	21	5222
2026-01-27 13:08:28.78	207.54	16.64	-29.5	-32.4	5.3	7.06e-01	0	42	0	0	21	5025
2026-01-27 13:08:29.79	207.70	16.75	-29.5	-32.3	5.3	7.07e-01	0	42	0	0	21	4984
2026-01-27 13:08:30.80	207.85	16.85	-29.5	-32.4	5.3	7.04e-01	0	42	0	0	21	5003
2026-01-27 13:08:31.80	208.00	16.96	-29.5	-32.4	5.3	7.05e-01	0	42	0	0	21	5019
2026-01-27 13:08:32.81	208.16	17.06	-29.5	-32.3	5.3	7.06e-01	0	42	0	0	21	4983
2026-01-27 13:08:33.81	208.32	17.17	-29.4	-32.2	5.3	7.06e-01	0	42	0	0	21	4933
2026-01-27 13:08:34.81	208.47	17.27	-29.4	-32.1	5.4	7.08e-01	0	42	0	0	21	4908
2026-01-27 13:08:35.82	208.63	17.38	-29.5	-32.4	5.3	7.05e-01	0	42	0	0	21	5004
2026-01-27 13:08:36.82	208.79	17.49	-29.6	-32.5	5.3	7.07e-01	0	42	0	0	21	5026
2026-01-27 13:08:37.83	208.95	17.59	-29.7	-32.8	5.3	7.10e-01	0	42	0	0	21	5136
2026-01-27 13:08:38.83	209.12	17.70	-29.7	-32.9	5.3	7.04e-01	0	42	0	0	21	5183
2026-01-27 13:08:39.83	209.28	17.81	-29.7	-32.8	5.3	7.08e-01	0	42	0	0	21	5135
2026-01-27 13:08:40.83	209.44	17.92	-29.6	-32.6	5.3	7.04e-01	0	42	0	0	21	5093
2026-01-27 13:08:41.83	209.61	18.02	-29.7	-32.7	5.3	7.09e-01	0	42	0	0	21	5131
2026-01-27 13:08:42.84	209.78	18.13	-29.6	-32.6	5.3	7.04e-01	0	42	0	0	21	5090
2026-01-27 13:08:43.84	209.94	18.24	-29.6	-32.5	5.3	7.04e-01	0	42	0	0	21	5057
2026-01-27 13:08:44.85	210.11	18.35	-29.6	-32.6	5.3	7.04e-01	0	42	0	0	21	5093
2026-01-27 13:08:45.85	210.28	18.46	-29.8	-33.1	5.3	7.08e-01	0	42	0	0	21	5263
2026-01-27 13:08:46.86	210.46	18.57	-29.6	-32.6	5.3	7.07e-01	0	42	0	0	21	5074
2026-01-27 13:08:47.86	210.63	18.68	-29.5	-32.2	5.3	7.07e-01	0	43	0	0	21	4930
2026-01-27 13:08:48.87	210.80	18.79	-29.4	-32.2	5.3	7.07e-01	0	42	0	0	21	4921
2026-01-27 13:08:49.88	210.98	18.90	-29.5	-32.3	5.3	7.07e-01	0	42	0	0	21	4957
2026-01-27 13:08:50.89	211.16	19.01	-29.5	-32.3	5.3	7.06e-01	0	42	0	0	21	4959
2026-01-27 13:08:51.89	211.34	19.12	-29.6	-32.5	5.4	7.06e-01	0	42	0	0	21	5032
2026-01-27 13:08:52.90	211.52	19.24	-29.5	-32.3	5.3	7.07e-01	0	42	0	0	21	4963
2026-01-27 13:08:53.90	211.70	19.35	-29.5	-32.2	5.3	7.02e-01	0	42	0	0	21	4918
2026-01-27 13:08:54.91	211.88	19.46	-29.4	-32.1	5.3	7.06e-01	0	42	0	0	21	4877
2026-01-27 13:08:55.92	212.07	19.57	-29.5	-32.3	5.3	7.07e-01	0	42	0	0	21	4968
2026-01-27 13:08:56.92	212.25	19.68	-29.5	-32.2	5.4	7.06e-01	0	42	0	0	21	4945
2026-01-27 13:08:57.93	212.44	19.80	-29.6	-32.4	5.3	7.06e-01	0	42	0	0	21	5015
2026-01-27 13:08:58.93	212.63	19.91	-29.6	-32.6	5.3	7.04e-01	0	42	0	0	21	5062
2026-01-27 13:08:59.93	212.82	20.02	-29.5	-32.4	5.3	7.06e-01	0	42	0	0	21	4998
2026-01-27 13:09:00.94	213.01	20.14	-29.5	-32.3	5.3	7.05e-01	0	42	0	0	21	4983
2026-01-27 13:09:01.94	213.20	20.25	-29.5	-32.4	5.3	7.04e-01	0	42	0	0	21	4989
2026-01-27 13:09:02.94	213.40	20.36	-29.8	-33.0	5.3	7.06e-01	0	43	0	0	21	5234
2026-01-27 13:09:03.94	213.59	20.48	-29.7	-32.8	5.3	7.04e-01	0	42	0	0	21	5160
2026-01-27 13:09:04.95	213.79	20.59	-29.8	-33.1	5.3	7.06e-01	0	42	0	0	21	5271
2026-01-27 13:09:05.95	213.99	20.71	-29.7	-32.8	5.3	7.08e-01	0	42	0	0	21	5144
2026-01-27 13:09:06.96	214.19	20.82	-29.6	-32.5	5.3	7.07e-01	0	42	0	0	21	5028
2026-01-27 13:09:07.96	214.39	20.94	-29.5	-32.4	5.3	7.07e-01	0	42	0	0	21	4999
2026-01-27 13:09:08.97	214.59	21.06	-29.6	-32.5	5.4	7.04e-01	0	42	0	0	21	5033
2026-01-27 13:09:09.97	214.80	21.17	-29.7	-32.7	5.3	7.07e-01	0	43	0	0	21	5118
2026-01-27 13:09:10.98	215.00	21.29	-29.9	-33.3	5.3	7.06e-01	0	42	0	0	21	5328
2026-01-27 13:09:11.98	215.21	21.40	-29.8	-33.0	5.3	7.06e-01	0	42	0	0	21	5238
2026-01-27 13:09:12.99	215.42	21.52	-29.6	-32.7	5.3	7.10e-01	0	42	0	0	21	5086
2026-01-27 13:09:13.99	215.63	21.64	-29.5	-32.4	5.3	7.05e-01	0	42	0	0	21	5003
2026-01-27 13:09:15.00	215.85	21.76	-29.5	-32.3	5.3	7.06e-01	0	42	0	0	21	4959
2026-01-27 13:09:16.01	216.06	21.87	-29.7	-32.7	5.3	7.05e-01	0	42	0	0	21	5096
2026-01-27 13:09:17.02	216.28	21.99	-29.5	-32.4	5.3	7.09e-01	0	42	0	0	21	4998
2026-01-27 13:09:18.02	216.50	22.11	-29.7	-32.7	5.3	7.04e-01	0	42	0	0	21	5093
2026-01-27 13:09:19.03	216.72	22.23	-29.8	-33.1	5.3	7.04e-01	0	42	0	0	21	5248
2026-01-27 13:09:20.03	216.94	22.34	-29.6	-32.5	5.3	7.08e-01	0	42	0	0	21	5040
2026-01-27 13:09:21.04	217.16	22.46	-29.6	-32.5	5.3	7.05e-01	0	42	0	0	21	5042
2026-01-27 13:09:22.04	217.39	22.58	-29.8	-32.9	5.3	7.08e-01	0	42	0	0	21	5162
2026-01-27 13:09:23.04	217.61	22.70	-29.7	-32.7	5.3	7.09e-01	0	42	0	0	21	5095
2026-01-27 13:09:24.05	217.84	22.82	-29.7	-32.8	5.3	7.04e-01	0	42	0	0	21	5122
2026-01-27 13:09:25.05	218.07	22.94	-29.6	-32.6	5.3	7.07e-01	0	42	0	0	21	5048
2026-01-27 13:09:26.05	218.30	23.05	-29.8	-32.9	5.3	7.06e-01	0	42	0	0	21	5174
2026-01-27 13:09:27.06	218.54	23.17	-29.7	-32.8	5.3	7.04e-01	0	42	0	0	21	5145
2026-01-27 13:09:28.07	218.77	23.29	-29.8	-33.0	5.3	7.08e-01	0	42	0	0	21	5227
2026-01-27 13:09:29.07	219.01	23.41	-29.7	-32.7	5.3	7.07e-01	0	42	0	0	21	5086
2026-01-27 13:09:30.07	219.25	23.53	-29.7	-32.7	5.3	7.07e-01	0	42	0	0	21	5097
2026-01-27 13:09:31.08	219.49	23.65	-29.9	-33.2	5.3	7.09e-01	0	42	0	0	21	5273
2026-01-27 13:09:32.08	219.73	23.77	-29.8	-33.1	5.3	7.08e-01	0	43	0	0	21	5244
2026-01-27 13:09:33.08	219.98	23.89	-29.7	-32.7	5.3	7.08e-01	0	42	0	0	21	5093
2026-01-27 13:09:34.08	220.22	24.01	-29.5	-32.2	5.3	7.06e-01	0	43	0	0	21	4934
2026-01-27 13:09:35.09	220.47	24.13	-29.6	-32.5	5.3	7.07e-01	0	43	0	0	21	5026
2026-01-27 13:09:36.09	220.72	24.25	-29.7	-32.7	5.3	7.08e-01	0	42	0	0	21	5082
2026-01-27 13:09:37.10	220.98	24.37	-29.8	-32.9	5.3	7.09e-01	0	42	0	0	21	5162
2026-01-27 13:09:38.11	221.23	24.49	-29.6	-32.4	5.3	7.06e-01	0	43	0	0	21	5000
2026-01-27 13:09:39.11	221.49	24.61	-29.6	-32.4	5.3	7.09e-01	0	42	0	0	21	4990
2026-01-27 13:09:40.11	221.75	24.73	-29.7	-32.8	5.3	7.05e-01	0	42	0	0	21	5151
2026-01-27 13:09:41.12	222.01	24.85	-29.7	-32.8	5.3	7.08e-01	0	42	0	0	21	5124
2026-01-27 13:09:42.13	222.27	24.97	-29.7	-32.7	5.3	7.10e-01	0	43	0	0	21	5114
2026-01-27 13:09:43.12	222.53	25.09	-29.8	-32.9	5.3	7.09e-01	0	42	0	0	21	5188
2026-01-27 13:09:44.13	222.80	25.21	-30.1	-33.8	5.3	7.05e-01	0	43	0	0	21	5508
2026-01-27 13:09:45.13	223.07	25.33	-30.2	-34.1	5.3	7.12e-01	0	43	0	0	21	5655
2026-01-27 13:09:46.13	223.34	25.45	-30.2	-33.9	5.3	7.07e-01	0	42	0	0	21	5565
2026-01-27 13:09:47.14	223.62	25.57	-30.1	-33.9	5.3	7.08e-01	0	42	0	0	21	5549
2026-01-27 13:09:48.14	223.89	25.69	-30.2	-34.1	5.3	7.09e-01	0	42	0	0	21	5618
2026-01-27 13:09:49.15	224.17	25.81	-30.2	-34.1	5.3	7.08e-01	0	42	0	0	21	5629
2026-01-27 13:09:50.15	224.45	25.93	-30.3	-34.3	5.3	7.06e-01	0	42	0	0	21	5728
2026-01-27 13:09:51.16	224.73	26.05	-30.2	-33.9	5.3	7.08e-01	0	42	0	0	21	5561
2026-01-27 13:09:52.16	225.01	26.17	-30.4	-34.6	5.3	7.05e-01	0	43	0	0	21	5843
2026-01-27 13:09:53.16	225.30	26.29	-30.2	-34.0	5.3	7.10e-01	0	43	0	0	21	5567
2026-01-27 13:09:54.17	225.59	26.40	-29.9	-33.3	5.3	7.07e-01	0	42	0	0	21	5325
2026-01-27 13:09:55.18	225.88	26.52	-29.7	-32.8	5.3	7.08e-01	0	42	0	0	21	5116
2026-01-27 13:09:56.18	226.17	26.64	-29.6	-32.5	5.3	7.06e-01	0	43	0	0	21	5021
2026-01-27 13:09:57.18	226.46	26.76	-29.6	-32.5	5.3	7.07e-01	0	43	0	0	21	5024
2026-01-27 13:09:58.19	226.76	26.88	-29.7	-32.6	5.3	7.06e-01	0	43	0	0	21	5056
2026-01-27 13:09:59.19	227.06	27.00	-29.6	-32.5	5.3	7.07e-01	0	43	0	0	21	5015
2026-01-27 13:10:00.19	227.36	27.11	-29.6	-32.5	5.3	7.10e-01	0	42	0	0	21	5010
2026-01-27 13:10:01.20	227.67	27.23	-29.7	-32.7	5.3	7.08e-01	0	43	0	0	21	5089
2026-01-27 13:10:02.20	227.97	27.35	-29.7	-32.5	5.3	7.09e-01	0	43	0	0	21	5017
2026-01-27 13:10:03.21	228.28	27.47	-29.7	-32.7	5.3	7.09e-01	0	43	0	0	21	5084
2026-01-27 13:10:04.20	228.59	27.58	-29.7	-32.7	5.3	7.04e-01	0	43	0	0	21	5066
2026-01-27 13:10:05.21	228.90	27.70	-29.7	-32.7	5.3	7.06e-01	0	43	0	0	21	5077
2026-01-27 13:10:06.21	229.22	27.81	-29.7	-32.8	5.3	7.06e-01	0	43	0	0	21	5099
2026-01-27 13:10:07.21	229.53	27.93	-29.8	-32.9	5.3	7.08e-01	0	43	0	0	21	5145
2026-01-27 13:10:08.21	229.85	28.04	-29.9	-33.1	5.3	7.07e-01	0	43	0	0	21	5229
2026-01-27 13:10:09.22	230.18	28.16	-29.8	-32.8	5.3	7.07e-01	0	42	0	0	21	5108
2026-01-27 13:10:10.22	230.50	28.27	-29.8	-32.8	5.3	7.11e-01	0	43	0	0	21	5114
2026-01-27 13:10:11.23	230.83	28.38	-30.0	-33.4	5.3	7.07e-01	0	43	0	0	21	5346
2026-01-27 13:10:12.23	231.16	28.50	-29.8	-33.0	5.3	7.08e-01	0	42	0	0	21	5174
2026-01-27 13:10:13.23	231.49	28.61	-30.0	-33.4	5.3	7.08e-01	0	43	0	0	21	5334
2026-01-27 13:10:14.24	231.82	28.72	-30.2	-33.9	5.3	7.08e-01	0	43	0	0	21	5532
2026-01-27 13:10:15.24	232.16	28.83	-29.9	-33.3	5.3	7.06e-01	0	42	0	0	21	5280
2026-01-27 13:10:16.25	232.50	28.94	-29.8	-32.9	5.3	7.08e-01	0	43	0	0	21	5149
2026-01-27 13:10:17.25	232.84	29.05	-29.7	-32.7	5.3	7.09e-01	0	43	0	0	21	5078
2026-01-27 13:10:18.26	233.18	29.17	-29.7	-32.6	5.3	7.07e-01	0	43	0	0	21	5018
2026-01-27 13:10:19.27	233.53	29.27	-29.7	-32.5	5.3	7.10e-01	0	43	0	0	21	4996
2026-01-27 13:10:20.28	233.88	29.38	-29.8	-33.0	5.3	7.09e-01	0	43	0	0	21	5147
2026-01-27 13:10:21.28	234.23	29.49	-29.8	-32.9	5.3	7.07e-01	0	43	0	0	21	5116
2026-01-27 13:10:22.28	234.58	29.60	-29.8	-32.8	5.3	7.08e-01	0	43	0	0	21	5103
2026-01-27 13:10:23.28	234.94	29.70	-29.6	-32.3	5.3	7.06e-01	0	42	0	0	21	4909
2026-01-27 13:10:24.28	235.29	29.81	-29.7	-32.7	5.3	7.07e-01	0	43	0	0	21	5044
2026-01-27 13:10:25.28	235.65	29.91	-29.8	-32.8	5.3	7.07e-01	0	43	0	0	21	5097
2026-01-27 13:10:26.29	236.02	30.02	-29.6	-32.3	5.3	7.08e-01	0	43	0	0	21	4923
2026-01-27 13:10:27.29	236.38	30.12	-29.7	-32.5	5.3	7.07e-01	0	43	0	0	21	4978
2026-01-27 13:10:28.30	236.75	30.22	-29.8	-32.8	5.3	7.05e-01	0	43	0	0	21	5090
2026-01-27 13:10:29.31	237.12	30.33	-29.7	-32.5	5.3	7.04e-01	0	43	0	0	21	4983
2026-01-27 13:10:30.31	237.49	30.43	-29.7	-32.5	5.3	7.04e-01	0	43	0	0	21	4980
2026-01-27 13:10:31.32	237.87	30.53	-29.7	-32.5	5.3	7.06e-01	0	42	0	0	21	4976
2026-01-27 13:10:32.32	238.25	30.63	-29.7	-32.4	5.3	7.06e-01	0	43	0	0	21	4953
2026-01-27 13:10:33.33	238.63	30.72	-29.8	-32.9	5.3	7.04e-01	0	42	0	0	21	5106
2026-01-27 13:10:34.33	239.01	30.82	-29.5	-32.1	5.3	7.07e-01	0	43	0	0	21	4845
2026-01-27 13:10:35.34	239.39	30.92	-29.6	-32.2	5.3	7.04e-01	0	43	0	0	21	4883
2026-01-27 13:10:36.34	239.78	31.01	-29.8	-32.7	5.3	7.07e-01	0	42	0	0	21	5051
2026-01-27 13:10:37.35	240.17	31.11	-29.6	-32.3	5.3	7.07e-01	0	43	0	0	21	4904
2026-01-27 13:10:38.35	240.56	31.20	-29.6	-32.2	5.3	7.06e-01	0	42	0	0	21	4872
2026-01-27 13:10:39.35	240.95	31.29	-29.6	-32.3	5.3	7.07e-01	0	42	0	0	21	4916
2026-01-27 13:10:40.36	241.35	31.38	-29.8	-32.7	5.3	7.04e-01	0	43	0	0	21	5052
2026-01-27 13:10:41.36	241.74	31.47	-29.6	-32.3	5.3	7.09e-01	0	43	0	0	21	4900
2026-01-27 13:10:42.37	242.14	31.56	-29.6	-32.3	5.3	7.08e-01	0	42	0	0	21	4892
2026-01-27 13:10:43.38	242.55	31.65	-29.6	-32.2	5.3	7.05e-01	0	43	0	0	21	4869
2026-01-27 13:10:44.38	242.95	31.73	-29.6	-32.2	5.3	7.06e-01	0	43	0	0	21	4860
2026-01-27 13:10:45.38	243.35	31.82	-29.6	-32.4	5.3	7.07e-01	0	43	0	0	21	4948
2026-01-27 13:10:46.39	243.76	31.90	-29.7	-32.4	5.3	7.07e-01	0	43	0	0	21	4951
2026-01-27 13:10:47.39	244.17	31.98	-29.6	-32.2	5.3	7.07e-01	0	43	0	0	21	4882
2026-01-27 13:10:48.39	244.58	32.06	-29.5	-32.1	5.3	7.08e-01	0	43	0	0	21	4834
2026-01-27 13:10:49.40	245.00	32.14	-29.6	-32.2	5.3	7.07e-01	0	42	0	0	21	4862
2026-01-27 13:10:50.40	245.42	32.22	-29.5	-32.0	5.3	7.07e-01	0	43	0	0	21	4805
2026-01-27 13:10:51.40	245.83	32.30	-29.5	-32.0	5.3	7.09e-01	0	43	0	0	21	4815
2026-01-27 13:10:52.41	246.26	32.37	-29.7	-32.5	5.3	7.05e-01	0	42	0	0	21	4968
2026-01-27 13:10:53.41	246.68	32.44	-29.5	-32.1	5.3	7.09e-01	0	43	0	0	21	4837
2026-01-27 13:10:54.41	247.10	32.52	-29.4	-31.8	5.3	7.06e-01	0	42	0	0	21	4747
2026-01-27 13:10:55.42	247.53	32.59	-29.6	-32.2	5.3	7.07e-01	0	43	0	0	21	4883
2026-01-27 13:10:56.43	247.96	32.66	-29.5	-32.0	5.3	7.07e-01	0	43	0	0	21	4800
2026-01-27 13:10:57.43	248.39	32.72	-29.6	-32.2	5.3	7.08e-01	0	43	0	0	21	4858
2026-01-27 13:10:58.43	248.82	32.79	-29.6	-32.2	5.3	7.10e-01	0	43	0	0	21	4881
2026-01-27 13:10:59.44	249.25	32.85	-29.6	-32.1	5.3	7.07e-01	0	43	0	0	21	4852
2026-01-27 13:11:00.44	249.68	32.92	-29.4	-32.2	5.3	7.07e-01	0	43	0	0	20	4973
2026-01-27 13:11:01.45	250.12	32.98	-29.5	-32.5	5.3	7.06e-01	0	42	0	0	20	5078
2026-01-27 13:11:02.45	250.56	33.04	-29.6	-32.7	5.3	7.05e-01	0	43	0	0	20	5153
2026-01-27 13:11:03.46	251.00	33.09	-29.5	-32.5	5.3	7.07e-01	0	42	0	0	20	5083
2026-01-27 13:11:04.46	251.44	33.15	-29.4	-32.2	5.3	7.08e-01	0	42	0	0	20	5001
2026-01-27 13:11:05.46	251.88	33.20	-29.5	-32.6	5.3	7.06e-01	0	43	0	0	20	5131
2026-01-27 13:11:06.47	252.33	33.26	-29.5	-32.5	5.3	7.06e-01	0	43	0	0	20	5082
2026-01-27 13:11:07.47	252.78	33.31	-29.5	-32.5	5.3	7.06e-01	0	42	0	0	20	5090
2026-01-27 13:11:08.48	253.23	33.36	-29.6	-32.6	5.3	7.07e-01	0	43	0	0	20	5142
2026-01-27 13:11:09.49	253.68	33.40	-29.4	-32.3	5.3	7.11e-01	0	43	0	0	20	5007
2026-01-27 13:11:10.49	254.13	33.45	-29.4	-32.3	5.3	7.03e-01	0	42	0	0	20	5034
2026-01-27 13:11:11.49	254.57	33.49	-29.5	-32.6	5.3	7.06e-01	0	42	0	0	20	5132
2026-01-27 13:11:12.49	255.02	33.53	-29.4	-32.4	5.3	7.10e-01	0	42	0	0	20	5037
2026-01-27 13:11:13.50	255.48	33.57	-29.5	-32.6	5.3	7.09e-01	0	42	0	0	20	5116
2026-01-27 13:11:14.50	255.93	33.61	-29.6	-32.7	5.3	7.07e-01	0	42	0	0	20	5162
2026-01-27 13:11:15.51	256.39	33.65	-29.6	-32.8	5.3	7.06e-01	0	43	0	0	20	5201
2026-01-27 13:11:16.51	256.85	33.68	-29.8	-33.2	5.3	7.10e-01	0	42	0	0	20	5331
2026-01-27 13:11:17.53	257.31	33.72	-29.7	-33.1	5.3	7.10e-01	0	43	0	0	20	5297
2026-01-27 13:11:18.53	257.77	33.75	-29.5	-32.4	5.3	7.03e-01	0	43	0	0	20	5058
2026-01-27 13:11:19.54	258.23	33.77	-29.5	-32.4	5.3	7.08e-01	0	43	0	0	20	5059
2026-01-27 13:11:20.54	258.69	33.80	-29.3	-32.0	5.3	7.07e-01	0	43	0	0	20	4917
2026-01-27 13:11:21.55	259.15	33.83	-29.6	-32.7	5.3	7.08e-01	0	43	0	0	20	5148
2026-01-27 13:11:22.55	259.61	33.85	-29.5	-32.4	5.3	7.05e-01	0	42	0	0	20	5047
2026-01-27 13:11:23.55	260.07	33.87	-29.3	-32.1	5.3	7.11e-01	0	43	0	0	20	4943
2026-01-27 13:11:24.56	260.54	33.89	-29.5	-32.6	5.3	7.07e-01	0	43	0	0	20	5112
2026-01-27 13:11:25.56	261.00	33.90	-29.6	-32.8	5.3	7.05e-01	0	43	0	0	20	5195
2026-01-27 13:11:26.56	261.46	33.92	-29.6	-32.8	5.3	7.04e-01	0	43	0	0	20	5203
2026-01-27 13:11:27.55	261.92	33.93	-29.6	-32.9	5.3	7.08e-01	0	43	0	0	20	5214
2026-01-27 13:11:28.56	262.38	33.94	-29.7	-33.1	5.3	7.07e-01	0	43	0	0	20	5285
2026-01-27 13:11:29.56	262.85	33.95	-29.6	-32.8	5.3	7.08e-01	0	43	0	0	20	5212
2026-01-27 13:11:30.56	263.31	33.95	-29.7	-32.9	5.3	7.07e-01	0	43	0	0	20	5219
2026-01-27 13:11:31.56	263.77	33.96	-29.6	-32.9	5.3	7.08e-01	0	43	0	0	20	5214
2026-01-27 13:11:32.57	264.24	33.96	-29.6	-32.7	5.3	7.07e-01	0	43	0	0	20	5149
2026-01-27 13:11:33.57	264.70	33.96	-29.6	-32.8	5.3	7.09e-01	0	43	0	0	20	5178
2026-01-27 13:11:34.56	265.16	33.96	-29.7	-33.0	5.3	7.06e-01	0	43	0	0	20	5277
2026-01-27 13:11:35.57	265.63	33.96	-29.9	-33.4	5.3	7.08e-01	0	42	0	0	20	5413
2026-01-27 13:11:36.57	266.09	33.95	-29.8	-33.2	5.3	7.05e-01	0	42	0	0	20	5318
2026-01-27 13:11:37.57	266.55	33.94	-29.5	-32.5	5.3	7.06e-01	0	42	0	0	20	5086
2026-01-27 13:11:38.58	267.02	33.93	-29.3	-32.0	5.3	7.05e-01	0	43	0	0	20	4924
2026-01-27 13:11:39.58	267.48	33.92	-29.4	-32.4	5.3	7.06e-01	0	43	0	0	20	5036
2026-01-27 13:11:40.59	267.95	33.91	-29.3	-32.1	5.3	7.07e-01	0	43	0	0	20	4942
2026-01-27 13:11:41.58	268.40	33.89	-29.4	-32.2	5.3	7.08e-01	0	43	0	0	20	4979
2026-01-27 13:11:42.59	268.87	33.87	-29.3	-31.9	5.3	7.05e-01	0	43	0	0	20	4895
2026-01-27 13:11:43.59	269.33	33.86	-29.3	-31.9	5.3	7.07e-01	0	43	0	0	20	4884
2026-01-27 13:11:44.59	269.79	33.83	-29.3	-32.0	5.3	7.08e-01	0	43	0	0	20	4914
2026-01-27 13:11:45.60	270.25	33.81	-29.5	-32.4	5.3	7.10e-01	0	43	0	0	20	5048
2026-01-27 13:11:46.60	270.71	33.78	-29.4	-32.1	5.3	7.07e-01	0	43	0	0	20	4964
2026-01-27 13:11:47.61	271.17	33.76	-29.3	-32.1	5.3	7.03e-01	0	43	0	0	20	4950
2026-01-27 13:11:48.61	271.63	33.73	-29.3	-31.9	5.3	7.09e-01	0	43	0	0	20	4871
2026-01-27 13:11:49.61	272.08	33.70	-29.3	-32.1	5.3	7.08e-01	0	43	0	0	20	4935
2026-01-27 13:11:50.62	272.54	33.66	-29.5	-32.5	5.3	7.07e-01	0	43	0	0	20	5079
2026-01-27 13:11:51.63	273.00	33.63	-29.4	-32.3	5.3	7.09e-01	0	43	0	0	20	5015
2026-01-27 13:11:52.63	273.45	33.59	-29.4	-32.3	5.3	7.08e-01	0	43	0	0	20	5019
2026-01-27 13:11:53.64	273.91	33.55	-29.4	-32.3	5.3	7.08e-01	0	43	0	0	20	5009
2026-01-27 13:11:54.64	274.36	33.51	-29.3	-32.1	5.3	7.07e-01	0	43	0	0	20	4928
2026-01-27 13:11:55.64	274.81	33.47	-29.5	-32.4	5.3	7.06e-01	0	43	0	0	20	5069
2026-01-27 13:11:56.64	275.26	33.42	-29.4	-32.2	5.3	7.07e-01	0	43	0	0	20	4976
2026-01-27 13:11:57.63	275.70	33.38	-29.5	-32.6	5.3	7.06e-01	0	43	0	0	20	5109
2026-01-27 13:11:58.64	276.15	33.33	-29.5	-32.4	5.3	7.03e-01	0	43	0	0	20	5060
2026-01-27 13:11:59.64	276.59	33.28	-29.4	-32.3	5.3	7.07e-01	0	43	0	0	20	5022
2026-01-27 13:12:00.65	277.04	33.23	-29.4	-32.3	5.3	7.06e-01	0	43	0	0	20	5016
2026-01-27 13:12:01.65	277.48	33.17	-29.4	-32.1	5.3	7.05e-01	0	43	0	0	20	4954
2026-01-27 13:12:02.66	277.92	33.12	-29.4	-32.2	5.3	7.09e-01	0	43	0	0	20	4992
2026-01-27 13:12:03.66	278.36	33.06	-29.4	-32.3	5.3	7.09e-01	0	43	0	0	20	5012
2026-01-27 13:12:04.67	278.80	33.00	-29.6	-32.7	5.3	7.09e-01	0	43	0	0	20	5151
2026-01-27 13:12:05.67	279.24	32.94	-29.4	-32.3	5.3	7.07e-01	0	43	0	0	20	5016
2026-01-27 13:12:06.68	279.67	32.88	-29.1	-31.6	5.3	7.05e-01	0	43	0	0	20	4785
2026-01-27 13:12:07.68	280.11	32.82	-29.1	-31.6	5.3	7.08e-01	0	43	0	0	20	4790
2026-01-27 13:12:08.69	280.54	32.75	-29.2	-31.8	5.3	7.08e-01	0	43	0	0	20	4832
2026-01-27 13:12:09.69	280.97	32.69	-29.3	-32.0	5.3	7.06e-01	0	43	0	0	20	4921
2026-01-27 13:12:10.70	281.40	32.62	-29.2	-31.8	5.3	7.05e-01	0	43	0	0	20	4830
2026-01-27 13:12:11.70	281.82	32.55	-29.2	-31.7	5.3	7.05e-01	0	43	0	0	20	4801
2026-01-27 13:12:12.71	282.25	32.48	-29.1	-31.5	5.3	7.10e-01	0	43	0	0	20	4756
2026-01-27 13:12:13.71	282.67	32.40	-29.1	-31.6	5.3	7.06e-01	0	43	0	0	20	4779
2026-01-27 13:12:14.72	283.09	32.33	-29.4	-32.1	5.3	7.07e-01	0	43	0	0	20	4956
2026-01-27 13:12:15.72	283.51	32.25	-29.3	-32.1	5.3	7.04e-01	0	43	0	0	20	4949
2026-01-27 13:12:16.73	283.93	32.18	-29.6	-41.5	3.8	7.44e-01	0	43	104	0	20	14101
2026-01-27 13:12:17.73	284.34	32.10	-29.8	-41.9	3.8	7.43e-01	0	43	104	0	20	14423
2026-01-27 13:12:18.73	284.75	32.02	-30.1	-42.2	3.8	7.47e-01	0	43	104	0	21	14487
2026-01-27 13:12:19.74	285.16	31.94	-30.5	-43.1	3.8	7.41e-01	0	43	104	0	21	15369
2026-01-27 13:12:20.74	285.57	31.85	-31.1	-44.2	3.8	7.43e-01	0	43	104	0	22	16270
2026-01-27 13:12:21.74	285.97	31.77	-31.5	-44.9	3.8	7.46e-01	0	43	104	0	23	16870
2026-01-27 13:12:22.75	286.38	31.69	-31.7	-44.7	3.8	7.41e-01	0	43	104	0	24	16139
2026-01-27 13:12:23.76	286.78	31.60	-31.8	-45.1	3.8	7.44e-01	0	43	104	0	24	16690
2026-01-27 13:12:24.76	287.18	31.51	-32.0	-45.7	3.8	7.44e-01	0	43	104	0	24	17455
2026-01-27 13:12:25.76	287.57	31.42	-32.3	-45.9	3.8	7.45e-01	0	43	104	0	25	17364
2026-01-27 13:12:26.77	287.97	31.33	-32.5	-46.8	3.8	7.43e-01	0	43	104	0	25	18690
2026-01-27 13:12:27.78	288.37	31.24	-32.5	-46.2	3.8	7.46e-01	0	43	104	0	26	17463
2026-01-27 13:12:28.79	288.76	31.15	-32.7	-46.9	3.8	7.47e-01	0	43	104	0	26	18410
2026-01-27 13:12:29.79	289.15	31.06	-33.1	-48.2	3.8	7.45e-01	0	43	104	0	26	20447
2026-01-27 13:12:30.79	289.53	30.96	-33.4	-48.8	3.8	7.42e-01	0	43	104	0	27	21231
2026-01-27 13:12:31.80	289.92	30.87	-33.6	-49.1	3.8	7.47e-01	0	43	104	0	28	21510
2026-01-27 13:12:32.80	290.29	30.77	-33.5	-48.6	3.8	7.43e-01	0	43	104	0	28	20623
2026-01-27 13:12:33.81	290.68	30.67	-33.2	-47.8	3.8	7.45e-01	0	43	104	0	28	19358
2026-01-27 13:12:34.81	291.05	30.58	-33.0	-46.9	3.8	7.42e-01	0	43	104	0	28	17890
2026-01-27 13:12:35.81	291.42	30.48	-33.0	-47.2	3.8	7.50e-01	0	43	104	0	27	18525
2026-01-27 13:12:36.82	291.80	30.38	-32.8	-46.7	3.8	7.45e-01	0	43	104	0	27	17762
2026-01-27 13:12:37.82	292.16	30.28	-32.7	-46.4	3.8	7.47e-01	0	43	104	0	27	17364
2026-01-27 13:12:38.82	292.53	30.18	-32.7	-46.2	3.8	7.44e-01	0	43	104	0	27	17093
2026-01-27 13:12:39.83	292.90	30.07	-32.7	-46.2	3.8	7.43e-01	0	43	104	0	27	16953
2026-01-27 13:12:40.84	293.26	29.97	-32.8	-46.5	3.8	7.47e-01	0	43	104	0	27	17504
2026-01-27 13:12:41.84	293.62	29.87	-32.5	-45.9	3.8	7.46e-01	0	43	104	0	27	16768
2026-01-27 13:12:42.84	293.98	29.76	-32.1	-45.0	3.8	7.45e-01	0	43	104	0	26	15813
2026-01-27 13:12:43.85	294.33	29.66	-31.6	-44.0	3.8	7.41e-01	0	43	104	0	25	14898
2026-01-27 13:12:44.85	294.68	29.55	-31.2	-43.4	3.8	7.44e-01	0	43	104	0	24	14702
2026-01-27 13:12:45.86	295.04	29.44	-30.8	-42.8	3.8	7.49e-01	0	43	104	0	23	14389
2026-01-27 13:12:46.86	295.38	29.34	-30.5	-42.0	3.8	7.43e-01	0	43	104	0	23	13593
2026-01-27 13:12:47.87	295.73	29.23	-30.6	-42.3	3.8	7.45e-01	0	43	104	0	23	13870
2026-01-27 13:12:48.88	296.08	29.12	-30.9	-43.1	3.8	7.48e-01	0	43	104	0	23	14679
2026-01-27 13:12:49.88	296.42	29.01	-31.2	-44.0	3.8	7.46e-01	0	43	104	0	23	15742
2026-01-27 13:12:50.89	296.76	28.90	-31.6	-44.6	3.8	7.42e-01	0	43	104	0	24	16016
2026-01-27 13:12:51.89	297.09	28.79	-31.4	-43.7	3.8	7.46e-01	0	43	104	0	24	14923
2026-01-27 13:12:52.90	297.43	28.67	-31.0	-42.8	3.8	7.45e-01	0	43	104	0	24	14055
2026-01-27 13:12:53.90	297.76	28.56	-30.8	-42.8	3.8	7.44e-01	0	43	104	0	23	14441
2026-01-27 13:12:54.90	298.08	28.45	-30.6	-42.6	3.8	7.43e-01	0	43	104	0	23	14288
2026-01-27 13:12:55.90	298.41	28.34	-30.6	-42.3	3.8	7.45e-01	0	43	104	0	23	13819
2026-01-27 13:12:56.90	298.73	28.23	-30.6	-42.1	3.8	7.44e-01	0	43	104	0	23	13533
2026-01-27 13:12:57.91	299.06	28.11	-30.6	-42.3	3.8	7.44e-01	0	43	104	0	23	13893
2026-01-27 13:12:58.90	299.37	28.00	-30.6	-42.4	3.8	7.42e-01	0	43	104	0	23	14020
2026-01-27 13:12:59.90	299.69	27.89	-30.4	-41.9	3.8	7.47e-01	0	43	104	0	23	13488
2026-01-27 13:13:00.91	300.01	27.77	-30.2	-41.9	3.8	7.44e-01	0	43	104	0	22	13842
2026-01-27 13:13:01.91	300.32	27.66	-30.1	-41.6	3.8	7.43e-01	0	43	104	0	22	13554
2026-01-27 13:13:02.92	300.63	27.54	-30.1	-41.6	3.8	7.47e-01	0	43	104	0	22	13557
2026-01-27 13:13:03.93	300.94	27.42	-30.1	-41.6	3.8	7.45e-01	0	43	104	0	22	13583
2026-01-27 13:13:04.93	301.24	27.31	-30.2	-41.8	3.8	7.45e-01	0	42	104	0	22	13671
2026-01-27 13:13:05.94	301.55	27.19	-30.4	-42.3	3.8	7.45e-01	0	43	104	0	22	14114
2026-01-27 13:13:06.94	301.85	27.07	-30.7	-43.1	3.8	7.45e-01	0	43	104	0	22	14982
2026-01-27 13:13:07.94	302.15	26.96	-31.0	-44.0	3.8	7.42e-01	0	43	104	0	22	16105
2026-01-27 13:13:08.95	302.45	26.84	-31.3	-44.4	3.8	7.42e-01	0	43	104	0	23	16277
2026-01-27 13:13:09.96	302.74	26.72	-31.7	-44.9	3.8	7.44e-01	0	43	104	0	24	16379
2026-01-27 13:13:10.96	303.03	26.61	-32.2	-45.6	3.8	7.46e-01	0	43	104	0	25	16927
2026-01-27 13:13:11.97	303.32	26.49	-32.6	-46.9	3.8	7.41e-01	0	43	104	0	25	18769
2026-01-27 13:13:12.98	303.61	26.37	-32.8	-47.1	3.8	7.48e-01	0	43	104	0	26	18697
2026-01-27 13:13:13.98	303.90	26.25	-33.0	-47.8	3.8	7.47e-01	0	43	104	0	26	19801
2026-01-27 13:13:14.99	304.18	26.13	-33.2	-48.1	3.8	7.42e-01	0	43	104	0	27	19946
2026-01-27 13:13:15.99	304.46	26.01	-33.0	-47.5	3.8	7.47e-01	0	43	104	0	27	19042
2026-01-27 13:13:16.99	304.74	25.90	-32.8	-46.8	3.8	7.45e-01	0	43	104	0	27	18018
2026-01-27 13:13:18.00	305.02	25.78	-32.7	-46.4	3.8	7.47e-01	0	43	104	0	27	17374
2026-01-27 13:13:19.01	305.30	25.66	-33.0	-47.4	3.8	7.42e-01	0	43	104	0	27	18911
2026-01-27 13:13:20.01	305.57	25.54	-33.3	-48.6	3.8	7.41e-01	0	43	104	0	27	20845
2026-01-27 13:13:21.02	305.84	25.42	-33.6	-49.6	3.8	7.43e-01	0	43	104	0	27	22767
2026-01-27 13:13:22.02	306.11	25.30	-33.7	-49.7	3.8	7.48e-01	0	43	104	0	28	22767
2026-01-27 13:13:23.02	306.37	25.18	-33.5	-48.9	3.8	7.42e-01	0	43	104	0	28	21180
2026-01-27 13:13:24.02	306.64	25.06	-33.2	-47.9	3.8	7.41e-01	0	43	104	0	28	19502
2026-01-27 13:13:25.02	306.90	24.94	-33.1	-47.6	3.8	7.42e-01	0	43	104	0	28	19017
2026-01-27 13:13:26.03	307.16	24.82	-33.1	-47.5	3.8	7.46e-01	0	43	104	0	28	18830
2026-01-27 13:13:27.04	307.42	24.70	-33.1	-47.3	3.8	7.46e-01	0	43	104	0	28	18605
2026-01-27 13:13:28.04	307.68	24.59	-33.1	-47.3	3.8	7.46e-01	0	43	104	0	28	18517
2026-01-27 13:13:29.04	307.93	24.47	-33.0	-47.0	3.8	7.47e-01	0	43	104	0	28	18176
2026-01-27 13:13:30.04	308.18	24.35	-32.8	-47.0	3.8	7.48e-01	0	43	104	0	27	18464
2026-01-27 13:13:31.05	308.43	24.23	-32.7	-46.7	3.8	7.46e-01	0	43	104	0	27	18121
2026-01-27 13:13:32.05	308.68	24.11	-32.5	-46.2	3.8	7.46e-01	0	43	104	0	27	17339
2026-01-27 13:13:33.06	308.93	23.99	-32.5	-45.9	3.8	7.46e-01	0	43	104	0	27	16870
2026-01-27 13:13:34.06	309.17	23.87	-32.2	-45.4	3.8	7.48e-01	0	43	104	0	26	16499
2026-01-27 13:13:35.07	309.42	23.75	-31.8	-44.9	3.8	7.46e-01	0	43	104	0	25	16212
2026-01-27 13:13:36.07	309.66	23.64	-31.6	-44.2	3.8	7.45e-01	0	43	104	0	25	15439
2026-01-27 13:13:37.07	309.90	23.52	-31.4	-43.6	3.8	7.44e-01	0	43	104	0	25	14691
2026-01-27 13:13:38.08	310.14	23.40	-31.7	-44.4	3.8	7.48e-01	0	43	104	0	25	15480
2026-01-27 13:13:39.08	310.37	23.28	-32.0	-45.2	3.8	7.43e-01	0	43	104	0	25	16457
2026-01-27 13:13:40.08	310.60	23.16	-31.7	-44.2	3.8	7.44e-01	0	43	104	0	25	15300
2026-01-27 13:13:41.08	310.83	23.04	-31.3	-43.9	3.8	7.43e-01	0	43	104	0	24	15227
2026-01-27 13:13:42.09	311.07	22.93	-31.1	-43.2	3.8	7.43e-01	0	43	104	0	24	14540
2026-01-27 13:13:43.09	311.29	22.81	-31.0	-43.0	3.8	7.46e-01	0	43	104	0	24	14321
2026-01-27 13:13:44.09	311.52	22.69	-30.7	-42.6	3.8	7.44e-01	0	43	104	0	23	14255
2026-01-27 13:13:45.10	311.74	22.57	-30.5	-42.3	3.8	7.45e-01	0	43	104	0	23	13958
2026-01-27 13:13:46.10	311.97	22.46	-30.3	-42.3	3.8	7.43e-01	0	43	104	0	22	14254
2026-01-27 13:13:47.10	312.19	22.34	-30.3	-42.2	3.8	7.44e-01	0	43	104	0	22	14139
2026-01-27 13:13:48.10	312.41	22.22	-30.3	-42.2	3.8	7.45e-01	0	43	104	0	22	14145
2026-01-27 13:13:49.11	312.62	22.11	-30.4	-42.5	3.8	7.46e-01	0	43	104	0	22	14397
2026-01-27 13:13:50.12	312.84	21.99	-30.3	-42.1	3.8	7.45e-01	0	43	104	0	22	14080
2026-01-27 13:13:51.12	313.06	21.87	-30.3	-42.1	3.8	7.40e-01	0	43	104	0	22	14052
2026-01-27 13:13:52.12	313.27	21.76	-30.4	-42.3	3.8	7.42e-01	0	43	104	0	22	14231
2026-01-27 13:13:53.12	313.48	21.64	-30.5	-42.7	3.8	7.42e-01	0	43	104	0	22	14631
2026-01-27 13:13:54.13	313.69	21.53	-30.8	-43.4	3.8	7.44e-01	0	43	104	0	22	15375
2026-01-27 13:13:55.13	313.90	21.41	-31.0	-44.1	3.8	7.42e-01	0	43	104	0	22	16228
2026-01-27 13:13:56.14	314.10	21.29	-31.3	-44.3	3.8	7.45e-01	0	43	104	0	23	16016
2026-01-27 13:13:57.14	314.31	21.18	-31.5	-44.8	3.8	7.44e-01	0	43	104	0	23	16731
2026-01-27 13:13:58.15	314.51	21.06	-31.9	-45.4	3.8	7.44e-01	0	43	104	0	24	17084
2026-01-27 13:13:59.15	314.71	20.95	-32.2	-45.9	3.8	7.45e-01	0	43	104	0	25	17470
2026-01-27 13:14:00.15	314.91	20.84	-32.5	-47.0	3.8	7.41e-01	0	43	104	0	25	19112
2026-01-27 13:14:01.16	315.11	20.72	-32.8	-47.6	3.8	7.47e-01	0	43	104	0	26	19798
2026-01-27 13:14:02.16	315.31	20.61	-33.1	-48.3	3.9	7.46e-01	0	43	104	0	27	20541
2026-01-27 13:14:03.17	315.51	20.49	-33.2	-48.7	3.8	7.44e-01	0	43	104	0	27	21246
2026-01-27 13:14:04.17	315.70	20.38	-33.1	-47.9	3.8	7.46e-01	0	43	104	0	27	19937
2026-01-27 13:14:05.18	315.89	20.27	-32.9	-47.3	3.8	7.43e-01	0	43	104	0	27	18869
2026-01-27 13:14:06.18	316.08	20.15	-32.7	-46.8	3.8	7.44e-01	0	43	104	0	27	18073
2026-01-27 13:14:07.19	316.28	20.04	-32.6	-46.4	3.8	7.44e-01	0	43	104	0	27	17509
2026-01-27 13:14:08.19	316.46	19.93	-32.6	-46.2	3.8	7.44e-01	0	43	104	0	27	17305
2026-01-27 13:14:09.20	316.65	19.82	-32.9	-47.3	3.8	7.42e-01	0	43	104	0	27	18956
2026-01-27 13:14:10.20	316.84	19.70	-33.2	-48.3	3.8	7.45e-01	0	43	104	0	27	20459
2026-01-27 13:14:11.21	317.02	19.59	-33.4	-49.0	3.8	7.45e-01	0	43	104	0	27	21718
2026-01-27 13:14:12.21	317.20	19.48	-33.5	-49.4	3.8	7.45e-01	0	43	104	0	27	22594
2026-01-27 13:14:13.22	317.39	19.37	-33.3	-48.8	3.8	7.45e-01	0	43	104	0	27	21360
2026-01-27 13:14:14.22	317.57	19.26	-33.1	-48.1	3.8	7.44e-01	0	43	104	0	27	20166
2026-01-27 13:14:15.22	317.74	19.15	-33.1	-47.9	3.8	7.41e-01	0	43	104	0	27	19955
2026-01-27 13:14:16.22	317.92	19.04	-33.1	-48.0	3.8	7.46e-01	0	43	104	0	27	20090
2026-01-27 13:14:17.23	318.10	18.93	-33.1	-48.0	3.8	7.45e-01	0	43	104	0	27	20131
2026-01-27 13:14:18.23	318.27	18.82	-33.2	-48.4	3.8	7.44e-01	0	43	104	0	27	20782
2026-01-27 13:14:19.23	318.44	18.71	-33.3	-48.8	3.8	7.43e-01	0	43	104	0	27	21407
2026-01-27 13:14:20.24	318.62	18.60	-33.4	-49.3	3.8	7.48e-01	0	43	104	0	27	22536
2026-01-27 13:14:21.25	318.79	18.49	-33.5	-49.6	3.8	7.44e-01	0	43	104	0	27	23019
2026-01-27 13:14:22.26	318.96	18.38	-33.3	-48.9	3.8	7.44e-01	0	43	104	0	27	21705
2026-01-27 13:14:23.27	319.13	18.27	-33.0	-47.7	3.8	7.47e-01	0	43	104	0	27	19554
2026-01-27 13:14:24.28	319.30	18.17	-32.7	-46.6	3.8	7.46e-01	0	43	104	0	27	17772
2026-01-27 13:14:25.28	319.46	18.06	-32.4	-45.4	3.8	7.44e-01	0	43	104	0	27	16186
2026-01-27 13:14:26.28	319.63	17.95	-32.1	-45.1	3.8	7.45e-01	0	43	104	0	26	16062
2026-01-27 13:14:27.28	319.79	17.85	-31.8	-44.7	3.8	7.42e-01	0	43	104	0	25	15954
2026-01-27 13:14:28.28	319.95	17.74	-31.5	-43.9	3.8	7.47e-01	0	43	104	0	25	15012
2026-01-27 13:14:29.29	320.12	17.63	-31.2	-43.7	3.8	7.44e-01	0	43	104	0	24	15194
2026-01-27 13:14:30.30	320.28	17.53	-31.0	-43.2	3.8	7.45e-01	0	43	104	0	24	14677
2026-01-27 13:14:31.31	320.44	17.42	-30.9	-42.9	3.8	7.45e-01	0	43	104	0	24	14380
2026-01-27 13:14:32.31	320.59	17.31	-30.9	-43.3	3.8	7.42e-01	0	43	104	0	23	15059
2026-01-27 13:14:33.32	320.75	17.21	-30.8	-43.0	3.8	7.45e-01	0	43	104	0	23	14727
2026-01-27 13:14:34.32	320.91	17.10	-30.4	-42.2	3.8	7.43e-01	0	43	104	0	23	13922
2026-01-27 13:14:35.33	321.06	17.00	-30.2	-42.1	3.8	7.46e-01	0	43	104	0	22	14147
2026-01-27 13:14:36.34	321.22	16.89	-30.1	-41.7	3.8	7.43e-01	0	43	104	0	22	13687
2026-01-27 13:14:37.35	321.37	16.79	-30.0	-41.5	3.8	7.46e-01	0	43	104	0	22	13522
2026-01-27 13:14:38.36	321.52	16.69	-30.1	-41.8	3.8	7.42e-01	0	43	104	0	22	13807
2026-01-27 13:14:39.36	321.67	16.58	-30.3	-42.2	3.8	7.46e-01	0	43	104	0	22	14184
2026-01-27 13:14:40.36	321.82	16.48	-30.4	-42.4	3.8	7.49e-01	0	43	104	0	22	14330
2026-01-27 13:14:41.37	321.97	16.38	-30.6	-42.8	3.8	7.42e-01	0	43	104	0	22	14829
2026-01-27 13:14:42.37	322.11	16.28	-30.8	-43.4	3.8	7.45e-01	0	43	104	0	22	15440
2026-01-27 13:14:43.37	322.26	16.17	-31.0	-44.2	3.8	7.44e-01	0	43	104	0	22	16356
2026-01-27 13:14:44.37	322.40	16.07	-31.4	-44.7	3.8	7.47e-01	0	43	104	0	23	16641
2026-01-27 13:14:45.38	322.55	15.97	-31.5	-45.0	3.8	7.43e-01	0	43	104	0	23	17058
2026-01-27 13:14:46.38	322.69	15.87	-31.3	-44.6	3.8	7.41e-01	0	43	104	0	23	16582
2026-01-27 13:14:47.38	322.83	15.77	-31.6	-45.4	3.8	7.45e-01	0	43	104	0	23	17610
2026-01-27 13:14:48.37	322.97	15.67	-32.0	-45.9	3.8	7.43e-01	0	43	104	0	24	17992
2026-01-27 13:14:49.37	323.11	15.57	-32.3	-46.5	3.8	7.44e-01	0	43	104	0	25	18399
2026-01-27 13:14:50.37	323.25	15.47	-32.6	-47.4	3.8	7.46e-01	0	43	104	0	25	19842
2026-01-27 13:14:51.37	323.39	15.37	-32.9	-48.0	3.8	7.45e-01	0	43	104	0	26	20580
2026-01-27 13:14:52.38	323.52	15.27	-33.0	-48.5	3.8	7.44e-01	0	43	104	0	26	21297
2026-01-27 13:14:53.38	323.66	15.17	-32.9	-47.9	3.8	7.42e-01	0	43	104	0	26	20374
2026-01-27 13:14:54.39	323.80	15.08	-32.8	-47.4	3.8	7.44e-01	0	43	104	0	26	19538
2026-01-27 13:14:55.39	323.93	14.98	-32.6	-47.0	3.8	7.45e-01	0	43	104	0	26	18887
2026-01-27 13:14:56.40	324.06	14.88	-32.6	-46.9	3.8	7.44e-01	0	43	104	0	26	18766
2026-01-27 13:14:57.41	324.20	14.78	-32.5	-46.7	3.8	7.44e-01	0	43	104	0	26	18464
2026-01-27 13:14:58.41	324.33	14.68	-32.7	-47.2	3.8	7.41e-01	0	43	104	0	26	19221
2026-01-27 13:14:59.41	324.46	14.59	-32.9	-48.2	3.8	7.47e-01	0	43	104	0	26	20907
2026-01-27 13:15:00.41	324.59	14.49	-33.2	-48.6	3.8	7.44e-01	0	43	104	0	27	21209
2026-01-27 13:15:01.41	324.72	14.39	-33.3	-49.2	3.8	7.42e-01	0	43	104	0	27	22554
2026-01-27 13:15:02.42	324.85	14.30	-33.3	-49.3	3.8	7.42e-01	0	43	104	0	27	22620
2026-01-27 13:15:03.43	324.97	14.20	-33.2	-48.8	3.8	7.41e-01	0	43	104	0	27	21758
2026-01-27 13:15:04.43	325.10	14.11	-33.1	-48.4	3.8	7.45e-01	0	43	104	0	27	21002
2026-01-27 13:15:05.43	325.22	14.01	-33.1	-48.5	3.8	7.47e-01	0	43	104	0	27	21270
2026-01-27 13:15:06.44	325.35	13.92	-33.2	-48.8	3.8	7.47e-01	0	43	104	0	27	21789
2026-01-27 13:15:07.44	325.47	13.82	-33.3	-49.2	3.8	7.44e-01	0	43	104	0	27	22564
2026-01-27 13:15:08.45	325.60	13.73	-33.4	-49.8	3.8	7.43e-01	0	43	104	0	27	23721
2026-01-27 13:15:09.45	325.72	13.63	-33.4	-49.8	3.8	7.45e-01	0	43	104	0	27	23788
2026-01-27 13:15:10.46	325.84	13.54	-33.3	-49.3	3.8	7.52e-01	0	43	104	0	27	22802
2026-01-27 13:15:11.46	325.96	13.44	-33.2	-48.7	3.8	7.41e-01	0	43	104	0	27	21607
2026-01-27 13:15:12.46	326.08	13.35	-32.9	-47.8	3.8	7.40e-01	0	43	104	0	27	19974
2026-01-27 13:15:13.47	326.20	13.26	-32.6	-46.7	3.8	7.45e-01	0	43	104	0	27	18127
2026-01-27 13:15:14.47	326.32	13.17	-32.3	-46.0	3.8	7.48e-01	0	43	104	0	26	17489
2026-01-27 13:15:15.48	326.44	13.07	-31.9	-44.9	3.8	7.43e-01	0	43	104	0	26	16003
2026-01-27 13:15:16.48	326.55	12.98	-31.6	-44.4	3.8	7.43e-01	0	43	104	0	25	15620
2026-01-27 13:15:17.48	326.67	12.89	-31.4	-43.7	3.8	7.45e-01	0	43	104	0	25	14823
2026-01-27 13:15:18.48	326.79	12.80	-31.3	-43.9	3.8	7.45e-01	0	43	104	0	24	15384
2026-01-27 13:15:19.48	326.90	12.71	-31.2	-43.5	3.8	7.46e-01	0	43	104	0	24	14954
2026-01-27 13:15:20.49	327.01	12.62	-31.2	-43.7	3.8	7.45e-01	0	43	104	0	24	15153
2026-01-27 13:15:21.49	327.13	12.53	-31.3	-43.8	3.8	7.46e-01	0	43	104	0	24	15287
2026-01-27 13:15:22.50	327.24	12.44	-31.4	-44.1	3.8	7.45e-01	0	43	104	0	24	15575
2026-01-27 13:15:23.51	327.35	12.34	-31.3	-43.9	3.8	7.43e-01	0	43	104	0	24	15447
2026-01-27 13:15:24.51	327.46	12.26	-31.0	-43.2	3.8	7.45e-01	0	43	104	0	24	14581
2026-01-27 13:15:25.52	327.57	12.17	-30.7	-42.9	3.8	7.46e-01	0	43	104	0	23	14618
2026-01-27 13:15:26.52	327.68	12.08	-30.6	-42.4	3.8	7.44e-01	0	43	104	0	23	14103
2026-01-27 13:15:27.52	327.79	11.99	-30.6	-42.5	3.8	7.41e-01	0	43	104	0	23	14163
2026-01-27 13:15:28.52	327.90	11.90	-30.8	-43.0	3.8	7.47e-01	0	43	104	0	23	14822
2026-01-27 13:15:29.52	328.01	11.81	-31.0	-43.7	3.8	7.43e-01	0	43	104	0	23	15517
2026-01-27 13:15:30.53	328.11	11.72	-31.2	-44.3	3.8	7.44e-01	0	43	104	0	23	16227
2026-01-27 13:15:31.54	328.22	11.63	-31.5	-45.1	3.8	7.43e-01	0	43	104	0	23	17211
2026-01-27 13:15:32.54	328.33	11.55	-31.8	-45.5	3.8	7.42e-01	0	43	104	0	24	17547
2026-01-27 13:15:33.55	328.43	11.46	-31.8	-45.5	3.8	7.45e-01	0	43	104	0	24	17548
2026-01-27 13:15:34.56	328.54	11.37	-31.5	-44.7	3.8	7.47e-01	0	43	104	0	24	16466
2026-01-27 13:15:35.57	328.64	11.28	-31.2	-43.9	3.8	7.45e-01	0	43	104	0	24	15574
2026-01-27 13:15:36.57	328.75	11.20	-31.3	-44.2	3.8	7.41e-01	0	43	104	0	24	15925
2026-01-27 13:15:37.57	328.85	11.11	-31.6	-45.2	3.8	7.45e-01	0	43	104	0	24	17084
2026-01-27 13:15:38.58	328.95	11.03	-31.9	-46.1	3.8	7.48e-01	0	43	104	0	24	18419
2026-01-27 13:15:39.58	329.05	10.94	-32.3	-46.8	3.8	7.48e-01	0	43	104	0	25	19094
2026-01-27 13:15:40.58	329.15	10.86	-32.5	-47.7	3.8	7.47e-01	0	43	104	0	25	20637
2026-01-27 13:15:41.59	329.25	10.77	-32.8	-48.2	3.8	7.45e-01	0	43	104	0	26	21163
2026-01-27 13:15:42.59	329.35	10.69	-32.9	-48.5	3.8	7.46e-01	0	43	104	0	26	21780
2026-01-27 13:15:43.60	329.45	10.60	-32.8	-48.2	3.8	7.44e-01	0	43	104	0	26	21106
2026-01-27 13:15:44.60	329.55	10.52	-32.7	-48.0	3.8	7.46e-01	0	43	104	0	26	20760
2026-01-27 13:15:45.61	329.65	10.43	-32.7	-47.7	3.8	7.45e-01	0	43	104	0	26	20364
2026-01-27 13:15:46.61	329.74	10.35	-32.7	-47.8	3.8	7.44e-01	0	43	104	0	26	20480
2026-01-27 13:15:47.61	329.84	10.26	-32.7	-47.9	3.8	7.44e-01	0	43	104	0	26	20547
2026-01-27 13:15:48.62	329.94	10.18	-32.9	-48.7	3.8	7.44e-01	0	43	104	0	26	22011
2026-01-27 13:15:49.63	330.03	10.10	-33.1	-49.0	3.8	7.45e-01	0	43	104	0	27	22373
2026-01-27 13:15:50.63	330.13	10.01	-33.2	-49.5	3.8	7.44e-01	0	43	104	0	27	23479
2026-01-27 13:15:51.64	330.22	9.93	-33.3	-50.0	3.8	7.42e-01	0	43	104	0	27	24401
2026-01-27 13:15:52.65	330.32	9.85	-33.3	-49.9	3.8	7.45e-01	0	43	104	0	27	24248
2026-01-27 13:15:53.66	330.41	9.77	-33.2	-49.4	3.8	7.45e-01	0	43	104	0	27	23334
2026-01-27 13:15:54.66	330.50	9.68	-33.2	-49.4	3.8	7.48e-01	0	43	104	0	27	23215
2026-01-27 13:15:55.67	330.59	9.60	-33.3	-49.8	3.8	7.47e-01	0	43	104	0	27	24079
2026-01-27 13:15:56.67	330.69	9.52	-33.3	-50.1	3.8	7.47e-01	0	43	104	0	27	24737
2026-01-27 13:15:57.67	330.78	9.44	-33.3	-50.1	3.8	7.44e-01	0	43	104	0	27	24833
2026-01-27 13:15:58.68	330.87	9.36	-33.2	-49.7	3.8	7.47e-01	0	43	104	0	27	23888
2026-01-27 13:15:59.68	330.96	9.28	-33.2	-49.4	3.8	7.44e-01	0	43	104	0	27	23247
2026-01-27 13:16:00.69	331.05	9.20	-33.1	-49.1	3.8	7.47e-01	0	43	104	0	27	22747
2026-01-27 13:16:01.69	331.14	9.12	-33.0	-48.8	3.8	7.42e-01	0	43	104	0	27	22066
2026-01-27 13:16:02.70	331.23	9.04	-32.8	-47.9	3.8	7.44e-01	0	43	104	0	27	20370
2026-01-27 13:16:03.71	331.31	8.96	-32.6	-47.0	3.8	7.46e-01	0	43	104	0	27	18863
2026-01-27 13:16:04.71	331.40	8.88	-32.3	-46.5	3.8	7.43e-01	0	43	104	0	26	18373
2026-01-27 13:16:05.71	331.49	8.80	-32.1	-45.5	3.8	7.42e-01	0	43	104	0	26	16844
2026-01-27 13:16:06.71	331.57	8.72	-31.7	-44.9	3.8	7.43e-01	0	43	104	0	25	16450
2026-01-27 13:16:07.71	331.66	8.64	-31.7	-44.8	3.8	7.45e-01	0	43	104	0	25	16338
2026-01-27 13:16:08.71	331.75	8.56	-31.7	-44.8	3.8	7.44e-01	0	43	104	0	25	16347
2026-01-27 13:16:09.72	331.83	8.48	-31.7	-45.1	3.8	7.44e-01	0	43	104	0	25	16675
2026-01-27 13:16:10.72	331.92	8.41	-31.9	-45.4	3.8	7.45e-01	0	43	104	0	25	17160
2026-01-27 13:16:11.73	332.00	8.33	-32.0	-46.1	3.8	7.47e-01	0	43	104	0	25	18104
2026-01-27 13:16:12.73	332.08	8.25	-32.2	-46.8	3.8	7.43e-01	0	43	104	0	25	19136
2026-01-27 13:16:13.74	332.17	8.17	-32.1	-46.3	3.8	7.41e-01	0	43	104	0	25	18440
2026-01-27 13:16:14.75	332.25	8.09	-31.8	-45.4	3.8	7.42e-01	0	43	104	0	25	17171
2026-01-27 13:16:15.75	332.33	8.02	-31.6	-44.7	3.8	7.43e-01	0	43	104	0	25	16366
2026-01-27 13:16:16.76	332.42	7.94	-31.5	-44.3	3.8	7.48e-01	0	43	104	0	25	15849
2026-01-27 13:16:17.77	332.50	7.86	-31.5	-44.6	3.8	7.46e-01	0	43	104	0	25	16173
2026-01-27 13:16:18.77	332.58	7.79	-31.8	-45.4	3.8	7.47e-01	0	43	104	0	25	17243
2026-01-27 13:16:19.78	332.66	7.71	-31.9	-45.8	3.8	7.47e-01	0	43	104	0	25	17899
2026-01-27 13:16:20.77	332.74	7.64	-32.2	-46.7	3.8	7.45e-01	0	43	104	0	25	19131
2026-01-27 13:16:21.78	332.82	7.56	-32.1	-46.6	3.8	7.45e-01	0	43	104	0	25	19150
2026-01-27 13:16:22.78	332.90	7.48	-32.0	-46.1	3.8	7.43e-01	0	43	104	0	25	18236
2026-01-27 13:16:23.79	332.98	7.41	-31.7	-45.3	3.8	7.45e-01	0	43	104	0	25	17186
2026-01-27 13:16:24.79	333.06	7.33	-31.6	-44.8	3.8	7.43e-01	0	43	104	0	25	16579
2026-01-27 13:16:25.80	333.13	7.26	-31.5	-44.6	3.8	7.42e-01	0	43	104	0	25	16200
2026-01-27 13:16:26.79	333.21	7.18	-31.6	-44.8	3.8	7.43e-01	0	43	104	0	25	16535
2026-01-27 13:16:27.80	333.29	7.11	-31.7	-45.0	3.8	7.44e-01	0	43	104	0	25	16717
2026-01-27 13:16:28.80	333.37	7.03	-33.8	-53.0	3.8	7.44e-01	0	43	104	0	28	32675
2026-01-27 13:16:29.80	333.44	6.96	-34.3	-53.5	3.8	7.47e-01	0	43	104	0	29	33189

#Closed at: 2026-01-27 13:16:30
#Recorded file [0 MB]: D:/data/31010_260127_161216.dat