passes_logs/2026/01/08/R4.6S_Anadyr/R4.6S_Anadyr__20260108_013020_SUOMI_NPP_rec.log

#Pass ID: 20260108_013020_SUOMI NPP
#Satellite: SUOMI NPP
#Configuration: NPP
#almurnet v.1.7.20251203
#Start time: 2026-01-08 01:30:22

#Version: 2.2.20231116
#Station: R4.6S_Anadyr
#Location: 177.4865 lon 64.73178 lat
#TLE: 1 37849U 11061A   26004.95404768  .00000136  00000+0  85334-4 0  9991
#TLE: 2 37849  98.7801 307.0898 0002575  80.6707 279.4760 14.19522289735281

#Time	Az	El	Level	Level2	SNR	BER	BlckErr	Temp	State	Recorded	gain1	gain2
2026-01-08 01:30:22.57	187.27	0.11	-49.3	-61.8	3.4	1.52e+00	0	36	0	0	60	43310
2026-01-08 01:30:23.58	187.31	0.17	-49.3	-64.5	3.6	1.51e+00	0	37	104	0	60	60591
2026-01-08 01:30:24.59	187.35	0.23	-49.2	-64.5	3.6	1.51e+00	0	37	104	0	60	60697
2026-01-08 01:30:25.60	187.39	0.29	-49.3	-64.5	3.6	1.51e+00	0	37	104	0	60	60719
2026-01-08 01:30:26.61	187.43	0.35	-49.3	-64.5	3.6	1.51e+00	0	37	104	0	60	60807
2026-01-08 01:30:27.62	187.47	0.40	-49.3	-64.6	3.6	1.51e+00	0	37	104	0	60	61181
2026-01-08 01:30:28.63	187.51	0.46	-49.3	-64.5	3.6	1.51e+00	0	37	104	0	60	60785
2026-01-08 01:30:29.64	187.55	0.52	-49.3	-64.5	3.6	1.51e+00	0	37	104	0	60	60914
2026-01-08 01:30:30.65	187.59	0.58	-49.3	-64.5	3.6	1.51e+00	0	37	104	0	60	60781
2026-01-08 01:30:31.66	187.63	0.64	-49.2	-64.5	3.6	1.51e+00	0	37	104	0	60	60637
2026-01-08 01:30:32.67	187.68	0.70	-49.2	-64.4	3.6	1.51e+00	0	37	104	0	60	60186
2026-01-08 01:30:33.68	187.72	0.76	-49.2	-64.4	3.6	1.51e+00	0	37	104	0	60	59773
2026-01-08 01:30:34.69	187.76	0.82	-49.0	-64.1	3.6	1.51e+00	0	37	104	0	60	58266
2026-01-08 01:30:35.70	187.80	0.87	-48.8	-64.0	3.6	1.51e+00	0	37	104	0	60	56960
2026-01-08 01:30:36.71	187.84	0.93	-48.4	-63.6	3.6	1.51e+00	0	37	104	0	60	54918
2026-01-08 01:30:37.71	187.89	0.99	-48.0	-63.2	3.6	1.51e+00	0	37	104	0	60	51978
2026-01-08 01:30:38.72	187.93	1.05	-48.0	-63.1	3.6	1.51e+00	0	37	104	0	60	51814
2026-01-08 01:30:39.73	187.97	1.11	-48.0	-63.2	3.6	1.51e+00	0	37	104	0	60	52125
2026-01-08 01:30:40.74	188.01	1.17	-48.0	-63.2	3.6	1.51e+00	0	37	104	0	60	52035
2026-01-08 01:30:41.75	188.06	1.23	-48.0	-63.1	3.6	1.51e+00	0	37	104	0	60	51841
2026-01-08 01:30:42.76	188.10	1.29	-48.0	-63.2	3.6	1.51e+00	0	37	104	0	60	52127
2026-01-08 01:30:43.77	188.14	1.35	-48.0	-63.2	3.6	1.51e+00	0	37	104	0	60	52187
2026-01-08 01:30:44.78	188.19	1.41	-48.0	-63.1	3.6	1.51e+00	0	37	104	0	60	51889
2026-01-08 01:30:45.79	188.23	1.47	-48.0	-63.2	3.6	1.51e+00	0	37	104	0	60	52247
2026-01-08 01:30:46.80	188.28	1.53	-48.0	-63.2	3.6	1.51e+00	0	37	104	0	60	51959
2026-01-08 01:30:47.81	188.32	1.59	-48.0	-63.1	3.6	1.51e+00	0	37	104	0	60	51841
2026-01-08 01:30:48.82	188.36	1.65	-48.0	-63.1	3.6	1.51e+00	0	37	104	0	60	51733
2026-01-08 01:30:49.83	188.41	1.72	-48.0	-63.1	3.6	1.51e+00	0	37	104	0	60	51425
2026-01-08 01:30:50.84	188.45	1.78	-48.0	-63.0	3.6	1.51e+00	0	37	104	0	60	51151
2026-01-08 01:30:51.85	188.50	1.84	-48.0	-63.1	3.6	1.51e+00	0	37	104	0	60	51507
2026-01-08 01:30:52.86	188.54	1.90	-48.0	-63.1	3.6	1.51e+00	0	37	104	0	60	51540
2026-01-08 01:30:53.87	188.59	1.96	-48.0	-63.1	3.6	1.51e+00	0	37	104	0	60	51373
2026-01-08 01:30:54.88	188.63	2.02	-48.0	-63.1	3.6	1.51e+00	0	37	104	0	60	51834
2026-01-08 01:30:55.89	188.68	2.08	-48.0	-63.2	3.6	1.51e+00	0	37	104	0	60	52056
2026-01-08 01:30:56.90	188.72	2.14	-48.0	-63.2	3.6	1.51e+00	0	37	104	0	60	52037
2026-01-08 01:30:57.91	188.77	2.21	-48.0	-63.1	3.6	1.51e+00	0	38	104	0	60	51926
2026-01-08 01:30:58.92	188.82	2.27	-48.0	-63.2	3.6	1.51e+00	0	37	104	0	60	51970
2026-01-08 01:30:59.93	188.86	2.33	-48.0	-63.2	3.6	1.51e+00	0	38	104	0	60	51991
2026-01-08 01:31:00.94	188.91	2.39	-48.0	-63.2	3.6	1.51e+00	0	38	104	0	60	52128
2026-01-08 01:31:01.95	188.96	2.45	-48.0	-63.1	3.6	1.51e+00	0	38	104	0	60	51499
2026-01-08 01:31:02.96	189.00	2.52	-48.0	-62.9	3.6	1.51e+00	0	37	104	0	60	50255
2026-01-08 01:31:03.97	189.05	2.58	-48.0	-62.7	3.6	1.51e+00	0	38	104	0	60	49405
2026-01-08 01:31:04.98	189.10	2.64	-48.0	-62.7	3.6	1.51e+00	0	38	104	0	60	49208
2026-01-08 01:31:05.99	189.14	2.70	-48.0	-62.8	3.6	1.51e+00	0	38	104	0	60	50085
2026-01-08 01:31:07.00	189.19	2.77	-48.0	-62.8	3.6	1.51e+00	0	38	104	0	60	49729
2026-01-08 01:31:08.01	189.24	2.83	-47.9	-61.4	3.6	1.51e+00	0	38	104	0	60	42640
2026-01-08 01:31:09.02	189.29	2.89	-47.7	-58.5	4.5	1.50e+00	91	38	104	0	60	30462
2026-01-08 01:31:10.03	189.34	2.96	-47.3	-54.5	6.9	3.49e-01	0	38	0	0	60	19199
2026-01-08 01:31:11.04	189.38	3.02	-46.7	-52.1	9.7	4.93e-02	91	38	0	2097152	60	14556
2026-01-08 01:31:12.05	189.43	3.08	-45.8	-49.8	12.2	3.26e-03	0	38	0	4194304	60	11174
2026-01-08 01:31:13.06	189.48	3.15	-44.7	-47.8	14.4	1.29e-05	92	38	0	6291456	60	8870
2026-01-08 01:31:14.07	189.53	3.21	-44.1	-46.8	15.5	0.00e+00	73	38	0	7340032	60	7898
2026-01-08 01:31:15.08	189.58	3.27	-43.3	-45.6	16.6	0.00e+00	92	38	0	9437184	60	6869
2026-01-08 01:31:16.09	189.63	3.34	-43.1	-45.2	16.9	0.00e+00	91	38	0	11534336	60	6605
2026-01-08 01:31:17.10	189.68	3.40	-42.9	-44.9	17.2	0.00e+00	0	38	0	13631488	60	6376
2026-01-08 01:31:18.11	189.73	3.47	-42.8	-44.9	17.2	0.00e+00	90	38	0	15728640	60	6318
2026-01-08 01:31:19.12	189.78	3.53	-43.4	-45.6	16.5	0.00e+00	0	38	0	16777216	60	6893
2026-01-08 01:31:20.13	189.83	3.60	-44.0	-46.6	15.4	0.00e+00	91	38	0	18874368	60	7768
2026-01-08 01:31:21.14	189.88	3.66	-46.1	-50.3	12.1	0.00e+00	92	38	0	20971520	60	11898
2026-01-08 01:31:22.15	189.93	3.73	-43.8	-46.2	16.4	1.37e-05	92	38	0	23068672	60	7374
2026-01-08 01:31:23.16	189.98	3.79	-48.0	-63.0	3.6	6.74e-01	0	38	104	24117248	60	51162
2026-01-08 01:31:24.17	190.03	3.86	-47.8	-61.0	3.8	1.51e+00	0	38	104	24117248	60	40738
2026-01-08 01:31:25.18	190.08	3.92	-45.4	-48.7	13.4	1.13e-02	90	38	0	24117248	60	9860
2026-01-08 01:31:26.19	190.13	3.99	-43.3	-45.4	17.0	0.00e+00	0	38	0	26214400	60	6725
2026-01-08 01:31:27.20	190.18	4.05	-43.0	-45.1	17.1	0.00e+00	90	38	0	28311552	60	6482
2026-01-08 01:31:28.21	190.23	4.12	-42.9	-44.8	17.4	0.00e+00	0	38	0	30408704	60	6287
2026-01-08 01:31:29.22	190.29	4.18	-42.9	-44.8	17.3	0.00e+00	92	38	0	31457280	58	7073
2026-01-08 01:31:30.23	190.34	4.25	-42.8	-44.8	17.5	0.00e+00	92	38	0	33554432	58	7041
2026-01-08 01:31:31.24	190.39	4.32	-42.7	-44.6	17.6	0.00e+00	0	38	0	35651584	58	6915
2026-01-08 01:31:32.25	190.44	4.38	-42.5	-44.3	17.8	0.00e+00	92	38	0	37748736	58	6663
2026-01-08 01:31:33.26	190.50	4.45	-42.5	-44.3	17.8	0.00e+00	0	38	0	39845888	58	6637
2026-01-08 01:31:34.27	190.55	4.51	-42.3	-44.0	18.1	0.00e+00	92	38	0	40894464	58	6444
2026-01-08 01:31:35.28	190.60	4.58	-42.2	-44.0	18.1	0.00e+00	0	38	0	42991616	58	6392
2026-01-08 01:31:36.28	190.66	4.65	-41.8	-43.4	18.7	0.00e+00	92	38	0	45088768	58	5995
2026-01-08 01:31:37.30	190.71	4.71	-41.8	-43.4	18.8	0.00e+00	92	38	0	47185920	56	6767
2026-01-08 01:31:38.31	190.76	4.78	-41.6	-43.2	19.0	0.00e+00	16	38	0	49283072	56	6553
2026-01-08 01:31:39.32	190.82	4.85	-41.8	-43.3	18.9	0.00e+00	92	38	0	50331648	56	6668
2026-01-08 01:31:40.32	190.87	4.92	-41.7	-43.3	19.0	0.00e+00	0	38	0	52428800	56	6639
2026-01-08 01:31:41.33	190.93	4.98	-41.7	-43.3	19.0	0.00e+00	92	38	0	54525952	56	6640
2026-01-08 01:31:42.34	190.98	5.05	-41.6	-43.1	19.1	0.00e+00	0	38	0	56623104	56	6503
2026-01-08 01:31:43.35	191.04	5.12	-41.5	-43.0	19.3	0.00e+00	92	38	0	58720256	56	6427
2026-01-08 01:31:44.36	191.09	5.19	-41.5	-43.0	19.3	0.00e+00	92	38	0	59768832	56	6394
2026-01-08 01:31:45.37	191.15	5.26	-41.7	-43.2	19.1	0.00e+00	92	38	0	61865984	56	6570
2026-01-08 01:31:46.38	191.20	5.32	-41.3	-42.7	19.5	0.00e+00	92	38	0	63963136	56	6226
2026-01-08 01:31:47.39	191.26	5.39	-41.7	-43.2	19.2	0.00e+00	0	38	0	66060288	56	6562
2026-01-08 01:31:48.40	191.32	5.46	-41.6	-43.1	19.3	0.00e+00	92	38	0	68157440	56	6517
2026-01-08 01:31:49.41	191.37	5.53	-41.5	-43.0	19.4	0.00e+00	0	38	0	69206016	56	6401
2026-01-08 01:31:50.42	191.43	5.60	-41.4	-42.9	19.4	0.00e+00	92	38	0	71303168	56	6343
2026-01-08 01:31:51.43	191.49	5.67	-41.4	-42.8	19.4	0.00e+00	59	38	0	73400320	56	6302
2026-01-08 01:31:52.44	191.54	5.74	-41.3	-42.7	19.6	0.00e+00	18	38	0	75497472	56	6204
2026-01-08 01:31:53.45	191.60	5.81	-41.2	-42.6	19.6	0.00e+00	90	38	0	77594624	56	6167
2026-01-08 01:31:54.45	191.66	5.88	-41.2	-42.7	19.6	0.00e+00	0	38	0	78643200	56	6191
2026-01-08 01:31:55.47	191.72	5.95	-41.3	-42.8	19.5	0.00e+00	90	38	0	80740352	56	6265
2026-01-08 01:31:56.47	191.78	6.02	-41.4	-42.8	19.6	0.00e+00	0	38	0	82837504	56	6297
2026-01-08 01:31:57.48	191.83	6.09	-41.6	-43.0	19.3	0.00e+00	92	38	0	84934656	56	6464
2026-01-08 01:31:58.49	191.89	6.16	-41.3	-42.7	19.6	0.00e+00	30	38	0	87031808	56	6218
2026-01-08 01:31:59.50	191.95	6.23	-41.1	-42.5	19.9	0.00e+00	92	38	0	89128960	56	6071
2026-01-08 01:32:00.51	192.01	6.30	-41.3	-42.7	19.7	0.00e+00	90	38	0	90177536	56	6194
2026-01-08 01:32:01.52	192.07	6.37	-41.1	-42.5	19.8	0.00e+00	0	38	0	92274688	56	6103
2026-01-08 01:32:02.53	192.13	6.44	-41.3	-42.7	19.8	0.00e+00	90	38	0	94371840	56	6195
2026-01-08 01:32:03.54	192.19	6.51	-41.2	-42.7	19.8	0.00e+00	0	38	0	96468992	56	6186
2026-01-08 01:32:04.55	192.25	6.58	-41.3	-42.8	19.7	0.00e+00	90	38	0	98566144	56	6252
2026-01-08 01:32:05.55	192.31	6.65	-41.2	-42.6	19.8	0.00e+00	0	38	0	99614720	56	6124
2026-01-08 01:32:06.57	192.37	6.72	-41.1	-42.5	19.8	0.00e+00	90	38	0	101711872	56	6095
2026-01-08 01:32:07.57	192.44	6.80	-41.1	-42.6	19.8	0.00e+00	92	38	0	103809024	56	6108
2026-01-08 01:32:08.58	192.50	6.87	-41.2	-42.6	19.9	0.00e+00	0	38	0	105906176	56	6105
2026-01-08 01:32:09.59	192.56	6.94	-41.1	-42.5	19.9	0.00e+00	92	38	0	108003328	56	6082
2026-01-08 01:32:10.60	192.62	7.01	-41.3	-42.7	19.7	0.00e+00	0	38	0	109051904	56	6227
2026-01-08 01:32:11.61	192.68	7.08	-41.3	-42.7	19.7	0.00e+00	92	38	0	111149056	56	6225
2026-01-08 01:32:12.62	192.75	7.16	-41.3	-42.7	19.7	0.00e+00	0	38	0	113246208	56	6238
2026-01-08 01:32:13.63	192.81	7.23	-41.2	-42.7	19.8	0.00e+00	91	38	0	115343360	56	6175
2026-01-08 01:32:14.64	192.87	7.30	-41.2	-42.6	19.8	0.00e+00	91	38	0	117440512	56	6143
2026-01-08 01:32:15.64	192.94	7.38	-41.2	-42.6	19.8	0.00e+00	0	38	0	118489088	56	6172
2026-01-08 01:32:16.66	193.00	7.45	-41.0	-42.3	20.1	0.00e+00	92	38	0	120586240	56	5961
2026-01-08 01:32:17.67	193.07	7.52	-41.0	-42.4	19.9	0.00e+00	0	38	0	122683392	56	5995
2026-01-08 01:32:18.68	193.13	7.60	-41.1	-42.4	20.0	0.00e+00	92	38	0	124780544	56	6028
2026-01-08 01:32:19.69	193.20	7.67	-41.3	-42.7	19.8	0.00e+00	9	38	0	126877696	56	6195
2026-01-08 01:32:20.70	193.26	7.75	-41.3	-42.7	19.7	0.00e+00	91	38	0	127926272	56	6184
2026-01-08 01:32:21.70	193.33	7.82	-41.3	-42.7	19.7	0.00e+00	91	38	0	130023424	56	6215
2026-01-08 01:32:22.71	193.39	7.89	-41.1	-42.4	20.1	0.00e+00	12	38	0	132120576	56	6023
2026-01-08 01:32:23.72	193.46	7.97	-40.8	-42.2	20.3	0.00e+00	91	38	0	134217728	56	5838
2026-01-08 01:32:24.73	193.52	8.04	-41.0	-42.3	20.3	0.00e+00	0	38	0	136314880	56	5942
2026-01-08 01:32:25.74	193.59	8.12	-41.0	-42.3	20.1	0.00e+00	71	38	0	137363456	56	5924
2026-01-08 01:32:26.75	193.66	8.19	-40.6	-41.9	20.5	0.00e+00	0	38	0	139460608	54	6350
2026-01-08 01:32:27.76	193.73	8.27	-40.7	-42.0	20.4	0.00e+00	92	38	0	141557760	54	6391
2026-01-08 01:32:28.77	193.79	8.35	-40.6	-41.9	20.5	0.00e+00	92	38	0	143654912	54	6327
2026-01-08 01:32:29.78	193.86	8.42	-40.5	-41.8	20.6	0.00e+00	92	38	0	145752064	54	6268
2026-01-08 01:32:30.79	193.93	8.50	-40.5	-41.7	20.6	0.00e+00	92	38	0	146800640	54	6235
2026-01-08 01:32:31.80	194.00	8.57	-40.5	-41.8	20.5	0.00e+00	0	38	0	148897792	54	6254
2026-01-08 01:32:32.81	194.07	8.65	-40.6	-41.9	20.5	0.00e+00	92	38	0	150994944	54	6350
2026-01-08 01:32:33.82	194.14	8.73	-40.4	-41.7	20.7	0.00e+00	0	38	0	153092096	54	6202
2026-01-08 01:32:34.82	194.21	8.80	-40.5	-41.7	20.7	0.00e+00	92	38	0	155189248	54	6209
2026-01-08 01:32:35.84	194.28	8.88	-40.4	-41.6	20.9	0.00e+00	92	38	0	157286400	54	6117
2026-01-08 01:32:36.84	194.35	8.96	-40.1	-41.3	21.1	0.00e+00	92	38	0	158334976	54	5944
2026-01-08 01:32:37.85	194.42	9.03	-40.3	-41.5	20.9	0.00e+00	92	38	0	160432128	54	6079
2026-01-08 01:32:38.86	194.49	9.11	-40.4	-41.6	20.8	0.00e+00	0	38	0	162529280	54	6128
2026-01-08 01:32:39.87	194.56	9.19	-40.6	-41.8	20.7	0.00e+00	92	38	0	164626432	54	6300
2026-01-08 01:32:40.88	194.63	9.27	-40.6	-41.8	20.5	0.00e+00	0	38	0	165675008	54	6293
2026-01-08 01:32:41.89	194.71	9.35	-40.5	-41.7	20.7	0.00e+00	92	38	0	167772160	54	6225
2026-01-08 01:32:42.90	194.78	9.43	-40.5	-41.7	20.7	0.00e+00	0	38	0	169869312	54	6213
2026-01-08 01:32:43.91	194.85	9.50	-40.2	-41.4	21.0	0.00e+00	92	38	0	171966464	54	5983
2026-01-08 01:32:44.92	194.93	9.58	-40.1	-41.3	21.2	0.00e+00	90	38	0	174063616	54	5921
2026-01-08 01:32:45.93	195.00	9.66	-40.2	-41.4	21.0	0.00e+00	0	38	0	175112192	54	6028
2026-01-08 01:32:46.94	195.08	9.74	-40.1	-41.3	21.1	0.00e+00	90	38	0	177209344	54	5907
2026-01-08 01:32:47.95	195.15	9.82	-40.1	-41.3	21.1	0.00e+00	0	38	0	179306496	54	5902
2026-01-08 01:32:48.96	195.22	9.90	-40.0	-41.1	21.3	0.00e+00	90	38	0	181403648	54	5802
2026-01-08 01:32:49.97	195.30	9.98	-40.1	-41.3	21.1	0.00e+00	0	38	0	183500800	54	5914
2026-01-08 01:32:50.97	195.38	10.06	-40.1	-41.3	21.0	0.00e+00	92	38	0	185597952	54	5940
2026-01-08 01:32:51.98	195.45	10.14	-39.9	-41.0	21.3	0.00e+00	92	38	0	186646528	52	6450
2026-01-08 01:32:52.99	195.53	10.22	-40.1	-41.3	21.2	0.00e+00	0	38	0	188743680	52	6648
2026-01-08 01:32:54.00	195.61	10.30	-39.7	-40.8	21.6	0.00e+00	77	38	0	190840832	52	6292
2026-01-08 01:32:55.00	195.68	10.38	-39.4	-40.5	21.9	0.00e+00	0	38	0	192937984	52	6073
2026-01-08 01:32:56.01	195.76	10.46	-39.3	-40.4	22.0	0.00e+00	92	38	0	195035136	52	6002
2026-01-08 01:32:57.02	195.84	10.55	-39.1	-40.1	22.1	0.00e+00	0	38	0	196083712	52	5823
2026-01-08 01:32:58.03	195.92	10.63	-39.2	-40.2	22.1	0.00e+00	91	38	0	198180864	52	5858
2026-01-08 01:32:59.04	196.00	10.71	-38.8	-39.7	22.3	0.00e+00	74	38	0	200278016	52	5560
2026-01-08 01:33:00.05	196.08	10.79	-38.8	-39.8	22.4	0.00e+00	38	38	0	202375168	50	6254
2026-01-08 01:33:01.06	196.16	10.87	-38.7	-39.6	22.6	0.00e+00	92	38	0	204472320	50	6166
2026-01-08 01:33:02.07	196.24	10.96	-38.8	-39.8	22.4	0.00e+00	0	38	0	205520896	50	6292
2026-01-08 01:33:03.08	196.32	11.04	-38.9	-39.9	22.4	0.00e+00	90	38	0	207618048	50	6332
2026-01-08 01:33:04.09	196.40	11.12	-38.7	-39.6	22.5	0.00e+00	0	38	0	209715200	50	6169
2026-01-08 01:33:05.10	196.48	11.21	-38.6	-39.5	22.6	0.00e+00	92	38	0	211812352	50	6084
2026-01-08 01:33:06.11	196.56	11.29	-38.6	-39.5	22.7	0.00e+00	5	38	0	213909504	50	6089
2026-01-08 01:33:07.12	196.65	11.37	-38.6	-39.5	22.7	0.00e+00	26	38	0	214958080	50	6083
2026-01-08 01:33:08.13	196.73	11.46	-38.6	-39.6	22.6	0.00e+00	91	38	0	217055232	50	6146
2026-01-08 01:33:09.14	196.81	11.54	-38.4	-39.4	22.8	0.00e+00	0	38	0	219152384	50	5992
2026-01-08 01:33:10.14	196.89	11.63	-38.6	-39.6	22.5	0.00e+00	92	38	0	221249536	50	6163
2026-01-08 01:33:11.16	196.98	11.71	-38.5	-39.5	22.7	0.00e+00	0	38	0	223346688	50	6083
2026-01-08 01:33:12.17	197.07	11.80	-38.3	-39.2	22.8	0.00e+00	61	38	0	224395264	50	5881
2026-01-08 01:33:13.17	197.15	11.88	-38.3	-39.3	22.8	0.00e+00	41	38	0	226492416	50	5904
2026-01-08 01:33:14.18	197.24	11.97	-38.2	-39.2	23.0	0.00e+00	90	38	0	228589568	50	5844
2026-01-08 01:33:15.19	197.32	12.05	-38.3	-39.3	22.9	0.00e+00	92	38	0	230686720	50	5902
2026-01-08 01:33:16.20	197.41	12.14	-38.6	-39.5	22.6	0.00e+00	0	38	0	232783872	50	6094
2026-01-08 01:33:17.21	197.50	12.23	-38.4	-39.3	22.7	0.00e+00	92	38	0	233832448	50	5959
2026-01-08 01:33:18.22	197.58	12.31	-38.4	-39.4	22.8	0.00e+00	65	38	0	235929600	50	5975
2026-01-08 01:33:19.23	197.67	12.40	-38.5	-39.4	22.8	0.00e+00	92	38	0	238026752	50	6019
2026-01-08 01:33:20.24	197.76	12.49	-38.4	-39.4	22.8	0.00e+00	9	38	0	240123904	50	5993
2026-01-08 01:33:21.25	197.85	12.57	-38.3	-39.3	22.8	0.00e+00	92	38	0	242221056	50	5928
2026-01-08 01:33:22.26	197.94	12.66	-38.2	-39.2	22.9	0.00e+00	92	38	0	243269632	50	5844
2026-01-08 01:33:23.27	198.03	12.75	-38.4	-39.3	22.8	0.00e+00	0	38	0	245366784	50	5938
2026-01-08 01:33:24.28	198.12	12.84	-38.4	-39.3	22.9	0.00e+00	92	38	0	247463936	50	5940
2026-01-08 01:33:25.29	198.21	12.93	-38.3	-39.2	23.0	0.00e+00	33	38	0	249561088	50	5874
2026-01-08 01:33:26.29	198.30	13.01	-38.4	-39.3	22.9	0.00e+00	92	38	0	251658240	50	5956
2026-01-08 01:33:27.30	198.40	13.10	-38.5	-39.5	22.7	0.00e+00	0	38	0	253755392	50	6040
2026-01-08 01:33:28.32	198.49	13.19	-38.4	-39.3	22.9	0.00e+00	90	38	0	254803968	50	5938
2026-01-08 01:33:29.32	198.58	13.28	-38.4	-39.4	22.8	0.00e+00	92	38	0	256901120	50	5977
2026-01-08 01:33:30.33	198.68	13.37	-38.5	-39.4	22.7	0.00e+00	0	38	0	258998272	50	6023
2026-01-08 01:33:31.34	198.77	13.46	-38.4	-39.3	22.8	0.00e+00	92	38	0	261095424	50	5953
2026-01-08 01:33:32.35	198.87	13.55	-38.6	-39.6	22.6	0.00e+00	0	38	0	263192576	50	6136
2026-01-08 01:33:33.36	198.96	13.64	-38.7	-39.7	22.6	0.00e+00	92	38	0	264241152	50	6179
2026-01-08 01:33:34.37	199.06	13.73	-38.7	-39.7	22.5	0.00e+00	0	38	0	266338304	50	6217
2026-01-08 01:33:35.38	199.15	13.82	-39.0	-40.0	22.4	0.00e+00	92	38	0	268435456	50	6443
2026-01-08 01:33:36.39	199.25	13.91	-38.6	-39.5	22.7	0.00e+00	92	38	0	270532608	50	6100
2026-01-08 01:33:37.40	199.35	14.01	-38.5	-39.5	22.7	0.00e+00	92	38	0	272629760	50	6059
2026-01-08 01:33:38.40	199.45	14.10	-38.7	-39.7	22.5	0.00e+00	90	38	0	273678336	50	6224
2026-01-08 01:33:39.41	199.55	14.19	-38.7	-39.6	22.6	0.00e+00	0	38	0	275775488	50	6172
2026-01-08 01:33:40.42	199.65	14.28	-38.8	-39.7	22.6	0.00e+00	82	38	0	277872640	50	6238
2026-01-08 01:33:41.43	199.75	14.37	-38.6	-39.5	22.8	0.00e+00	0	38	0	279969792	50	6085
2026-01-08 01:33:42.44	199.85	14.47	-38.5	-39.5	22.9	0.00e+00	92	38	0	282066944	50	6046
2026-01-08 01:33:43.45	199.95	14.56	-38.1	-39.0	22.9	0.00e+00	77	38	0	283115520	50	5760
2026-01-08 01:33:44.46	200.05	14.65	-38.4	-39.4	22.8	0.00e+00	92	38	0	285212672	50	5971
2026-01-08 01:33:45.47	200.15	14.75	-38.4	-39.3	22.9	0.00e+00	91	38	0	287309824	50	5915
2026-01-08 01:33:46.48	200.26	14.84	-38.3	-39.2	23.0	0.00e+00	0	38	0	289406976	50	5848
2026-01-08 01:33:47.49	200.36	14.93	-38.3	-39.2	23.0	0.00e+00	91	38	0	291504128	50	5844
2026-01-08 01:33:48.50	200.47	15.03	-38.3	-39.2	22.9	0.00e+00	0	38	0	292552704	50	5853
2026-01-08 01:33:49.51	200.57	15.12	-38.4	-39.4	22.9	0.00e+00	91	38	0	294649856	50	5987
2026-01-08 01:33:50.51	200.68	15.22	-38.4	-39.4	23.1	0.00e+00	0	38	0	296747008	50	5993
2026-01-08 01:33:51.52	200.78	15.31	-38.4	-39.3	22.8	0.00e+00	90	38	0	298844160	50	5954
2026-01-08 01:33:52.53	200.89	15.41	-38.5	-39.5	22.9	0.00e+00	91	38	0	300941312	50	6057
2026-01-08 01:33:53.53	201.00	15.50	-38.5	-39.5	22.7	0.00e+00	0	38	0	301989888	50	6037
2026-01-08 01:33:54.54	201.11	15.60	-38.7	-39.6	22.7	0.00e+00	91	38	0	304087040	50	6168
2026-01-08 01:33:55.55	201.21	15.70	-38.7	-39.6	22.5	0.00e+00	0	38	0	306184192	50	6166
2026-01-08 01:33:56.56	201.32	15.79	-38.5	-39.5	22.8	0.00e+00	91	38	0	308281344	50	6060
2026-01-08 01:33:57.57	201.44	15.89	-38.4	-39.4	22.8	0.00e+00	0	38	0	310378496	50	5967
2026-01-08 01:33:58.57	201.55	15.99	-38.4	-39.4	22.9	0.00e+00	92	38	0	311427072	50	5988
2026-01-08 01:33:59.58	201.66	16.09	-38.3	-39.2	22.8	0.00e+00	92	38	0	313524224	50	5862
2026-01-08 01:34:00.59	201.77	16.18	-38.0	-38.9	23.2	0.00e+00	33	38	0	315621376	50	5684
2026-01-08 01:34:01.60	201.88	16.28	-38.0	-38.9	23.2	0.00e+00	84	38	0	317718528	50	5665
2026-01-08 01:34:02.61	202.00	16.38	-38.0	-38.9	23.2	0.00e+00	0	38	0	319815680	50	5639
2026-01-08 01:34:03.62	202.11	16.48	-38.1	-39.0	23.1	0.00e+00	90	38	0	320864256	50	5740
2026-01-08 01:34:04.62	202.23	16.58	-38.1	-39.0	23.2	0.00e+00	0	38	0	322961408	50	5760
2026-01-08 01:34:05.63	202.34	16.68	-38.3	-39.2	23.0	0.00e+00	92	38	0	325058560	50	5859
2026-01-08 01:34:06.64	202.46	16.78	-38.2	-39.2	23.1	0.00e+00	71	38	0	327155712	50	5838
2026-01-08 01:34:07.65	202.58	16.88	-38.5	-39.4	23.0	0.00e+00	92	38	0	329252864	50	6006
2026-01-08 01:34:08.66	202.70	16.98	-38.3	-39.3	23.0	0.00e+00	92	38	0	330301440	50	5901
2026-01-08 01:34:09.67	202.82	17.08	-38.8	-39.7	22.6	0.00e+00	0	38	0	332398592	50	6243
2026-01-08 01:34:10.68	202.94	17.18	-38.9	-39.9	22.5	0.00e+00	92	38	0	334495744	50	6358
2026-01-08 01:34:11.69	203.06	17.28	-38.6	-39.5	22.7	0.00e+00	0	38	0	336592896	50	6081
2026-01-08 01:34:12.70	203.18	17.38	-38.8	-39.8	22.6	0.00e+00	92	38	0	338690048	50	6275
2026-01-08 01:34:13.71	203.30	17.48	-38.8	-39.7	22.5	0.00e+00	0	38	0	339738624	50	6226
2026-01-08 01:34:14.72	203.42	17.59	-38.6	-39.6	22.6	0.00e+00	92	38	0	341835776	50	6114
2026-01-08 01:34:15.73	203.55	17.69	-38.9	-39.9	22.5	0.00e+00	92	38	0	343932928	50	6375
2026-01-08 01:34:16.73	203.67	17.79	-39.0	-40.0	22.4	0.00e+00	0	38	0	346030080	50	6445
2026-01-08 01:34:17.74	203.80	17.89	-39.0	-40.0	22.5	0.00e+00	92	38	0	348127232	50	6418
2026-01-08 01:34:18.75	203.92	18.00	-38.8	-39.8	22.6	0.00e+00	0	38	0	350224384	50	6268
2026-01-08 01:34:19.76	204.05	18.10	-38.9	-39.9	22.4	0.00e+00	92	38	0	351272960	50	6372
2026-01-08 01:34:20.77	204.18	18.20	-39.1	-40.1	22.2	0.00e+00	0	38	0	353370112	50	6532
2026-01-08 01:34:21.78	204.31	18.31	-38.9	-39.9	22.4	0.00e+00	92	38	0	355467264	50	6368
2026-01-08 01:34:22.79	204.44	18.41	-39.0	-40.0	22.4	0.00e+00	92	38	0	357564416	50	6451
2026-01-08 01:34:23.80	204.57	18.52	-39.1	-40.2	22.3	0.00e+00	0	38	0	359661568	50	6559
2026-01-08 01:34:24.81	204.70	18.62	-39.5	-40.6	22.0	0.00e+00	88	38	0	360710144	50	6904
2026-01-08 01:34:25.82	204.83	18.73	-39.2	-40.2	22.3	0.00e+00	0	38	0	362807296	50	6597
2026-01-08 01:34:26.83	204.97	18.83	-39.3	-40.3	22.2	0.00e+00	92	38	0	364904448	50	6646
2026-01-08 01:34:27.84	205.10	18.94	-39.5	-40.6	22.0	0.00e+00	9	38	0	367001600	50	6883
2026-01-08 01:34:28.85	205.24	19.05	-39.2	-40.2	22.3	0.00e+00	92	38	0	369098752	50	6596
2026-01-08 01:34:29.86	205.37	19.15	-39.5	-40.5	22.0	0.00e+00	92	38	0	370147328	50	6827
2026-01-08 01:34:30.87	205.51	19.26	-38.9	-39.9	22.7	0.00e+00	0	38	0	372244480	50	6354
2026-01-08 01:34:31.88	205.65	19.37	-38.9	-39.9	22.4	0.00e+00	92	38	0	374341632	50	6379
2026-01-08 01:34:32.89	205.79	19.47	-38.9	-39.9	22.5	0.00e+00	0	38	0	376438784	50	6340
2026-01-08 01:34:33.89	205.92	19.58	-39.0	-39.9	22.4	0.00e+00	92	38	0	378535936	50	6383
2026-01-08 01:34:34.90	206.07	19.69	-39.3	-40.3	22.3	0.00e+00	0	38	0	379584512	50	6678
2026-01-08 01:34:35.91	206.21	19.80	-39.3	-40.3	22.3	0.00e+00	92	38	0	381681664	50	6668
2026-01-08 01:34:36.92	206.35	19.91	-39.2	-40.2	22.2	0.00e+00	90	38	0	383778816	50	6552
2026-01-08 01:34:37.92	206.49	20.02	-38.9	-39.8	22.7	0.00e+00	16	38	0	385875968	50	6310
2026-01-08 01:34:38.93	206.64	20.12	-38.9	-39.9	22.6	0.00e+00	90	38	0	387973120	50	6333
2026-01-08 01:34:39.94	206.78	20.23	-39.0	-40.0	22.4	0.00e+00	33	38	0	389021696	50	6425
2026-01-08 01:34:40.95	206.93	20.34	-39.1	-40.1	22.4	0.00e+00	89	38	0	391118848	50	6533
2026-01-08 01:34:41.97	207.08	20.46	-39.3	-40.3	22.4	0.00e+00	0	38	0	393216000	50	6653
2026-01-08 01:34:42.97	207.23	20.57	-39.2	-40.2	22.2	0.00e+00	90	38	0	395313152	50	6610
2026-01-08 01:34:43.98	207.38	20.68	-39.1	-40.2	22.3	0.00e+00	78	38	0	397410304	50	6552
2026-01-08 01:34:44.99	207.53	20.79	-39.4	-40.5	22.2	0.00e+00	58	38	0	398458880	50	6788
2026-01-08 01:34:46.00	207.68	20.90	-39.5	-40.6	21.9	0.00e+00	92	38	0	400556032	50	6878
2026-01-08 01:34:47.01	207.83	21.01	-39.5	-40.5	22.0	0.00e+00	0	38	0	402653184	50	6842
2026-01-08 01:34:48.02	207.99	21.12	-39.2	-40.2	22.3	0.00e+00	86	38	0	404750336	50	6609
2026-01-08 01:34:49.03	208.14	21.24	-39.1	-40.1	22.2	0.00e+00	0	38	0	406847488	50	6502
2026-01-08 01:34:50.04	208.30	21.35	-39.1	-40.1	22.4	0.00e+00	92	38	0	407896064	50	6509
2026-01-08 01:34:51.05	208.45	21.46	-38.6	-39.5	22.5	0.00e+00	60	38	0	409993216	50	6079
2026-01-08 01:34:52.05	208.61	21.57	-38.6	-39.6	22.8	0.00e+00	92	38	0	412090368	50	6117
2026-01-08 01:34:53.07	208.77	21.69	-38.5	-39.4	22.9	0.00e+00	90	38	0	414187520	50	6002
2026-01-08 01:34:54.08	208.93	21.80	-38.2	-39.2	23.2	0.00e+00	0	38	0	416284672	50	5836
2026-01-08 01:34:55.09	209.10	21.92	-38.1	-39.0	23.2	0.00e+00	47	38	0	418381824	50	5724
2026-01-08 01:34:56.10	209.26	22.03	-38.1	-39.1	23.1	0.00e+00	0	38	0	419430400	50	5766
2026-01-08 01:34:57.11	209.42	22.15	-38.1	-39.0	23.1	0.00e+00	92	38	0	421527552	50	5737
2026-01-08 01:34:58.12	209.59	22.26	-38.0	-38.9	23.2	0.00e+00	45	38	0	423624704	50	5641
2026-01-08 01:34:59.13	209.76	22.38	-38.0	-38.9	23.2	0.00e+00	92	38	0	425721856	50	5666
2026-01-08 01:35:00.14	209.92	22.49	-38.1	-39.0	23.2	0.00e+00	90	38	0	427819008	50	5747
2026-01-08 01:35:01.15	210.09	22.61	-38.2	-39.1	23.1	0.00e+00	0	38	0	428867584	50	5807
2026-01-08 01:35:02.16	210.26	22.72	-38.4	-39.4	23.0	0.00e+00	90	38	0	430964736	50	5995
2026-01-08 01:35:03.17	210.43	22.84	-38.4	-39.4	22.9	0.00e+00	0	38	0	433061888	50	6002
2026-01-08 01:35:04.18	210.61	22.96	-38.9	-39.9	22.5	0.00e+00	40	38	0	435159040	50	6384
2026-01-08 01:35:05.19	210.78	23.07	-39.0	-40.0	22.5	0.00e+00	75	38	0	437256192	50	6429
2026-01-08 01:35:06.19	210.95	23.19	-39.1	-40.1	22.4	0.00e+00	92	38	0	438304768	50	6526
2026-01-08 01:35:07.20	211.13	23.31	-39.1	-40.2	22.1	0.00e+00	92	38	0	440401920	50	6542
2026-01-08 01:35:08.21	211.31	23.43	-39.1	-40.1	22.3	0.00e+00	0	38	0	442499072	50	6506
2026-01-08 01:35:09.22	211.49	23.54	-39.0	-40.0	22.5	0.00e+00	35	38	0	444596224	50	6417
2026-01-08 01:35:10.23	211.67	23.66	-38.6	-39.6	22.7	0.00e+00	0	38	0	446693376	50	6128
2026-01-08 01:35:11.24	211.85	23.78	-38.4	-39.3	22.9	0.00e+00	92	38	0	447741952	50	5944
2026-01-08 01:35:12.26	212.04	23.90	-38.1	-39.0	23.2	0.00e+00	33	38	0	449839104	50	5737
2026-01-08 01:35:13.27	212.22	24.02	-38.1	-39.0	23.2	0.00e+00	92	38	0	451936256	50	5744
2026-01-08 01:35:14.28	212.41	24.14	-38.3	-39.2	23.1	0.00e+00	90	38	0	454033408	50	5854
2026-01-08 01:35:15.29	212.59	24.26	-38.0	-38.9	23.4	0.00e+00	0	38	0	456130560	50	5631
2026-01-08 01:35:16.29	212.78	24.38	-38.2	-39.2	23.2	0.00e+00	78	38	0	457179136	50	5840
2026-01-08 01:35:17.30	212.97	24.50	-38.1	-39.1	23.3	0.00e+00	0	38	0	459276288	50	5766
2026-01-08 01:35:18.31	213.16	24.62	-38.2	-39.1	23.0	0.00e+00	92	38	0	461373440	50	5787
2026-01-08 01:35:19.32	213.35	24.74	-38.4	-39.3	23.0	0.00e+00	0	38	0	463470592	50	5940
2026-01-08 01:35:20.33	213.55	24.86	-38.4	-39.3	23.1	0.00e+00	92	38	0	465567744	50	5955
2026-01-08 01:35:21.34	213.75	24.98	-38.2	-39.1	23.2	0.00e+00	92	38	0	466616320	50	5811
2026-01-08 01:35:22.35	213.94	25.10	-38.0	-38.9	23.2	0.00e+00	0	38	0	468713472	50	5661
2026-01-08 01:35:23.36	214.14	25.22	-37.7	-38.6	23.5	0.00e+00	92	38	0	470810624	48	6108
2026-01-08 01:35:24.37	214.34	25.34	-37.6	-38.5	23.7	0.00e+00	0	38	0	472907776	48	6056
2026-01-08 01:35:25.37	214.54	25.46	-37.3	-38.1	24.0	0.00e+00	92	38	0	475004928	48	5795
2026-01-08 01:35:26.38	214.74	25.58	-37.2	-38.0	23.3	0.00e+00	0	38	0	476053504	48	5758
2026-01-08 01:35:27.39	214.95	25.71	-37.3	-38.1	23.8	0.00e+00	91	38	0	478150656	48	5791
2026-01-08 01:35:28.40	215.16	25.83	-37.4	-38.3	23.7	0.00e+00	79	38	0	480247808	48	5937
2026-01-08 01:35:29.41	215.36	25.95	-37.6	-38.4	23.6	0.00e+00	86	38	0	482344960	48	6020
2026-01-08 01:35:30.37	215.56	26.07	-37.9	-38.8	23.3	0.00e+00	92	38	0	484442112	48	6282
2026-01-08 01:35:31.38	215.77	26.19	-38.3	-39.3	23.0	0.00e+00	0	38	0	485490688	48	6670
2026-01-08 01:35:32.39	215.99	26.31	-38.4	-39.4	22.9	0.00e+00	91	38	0	487587840	48	6729
2026-01-08 01:35:33.40	216.20	26.44	-38.5	-39.5	22.9	0.00e+00	0	38	0	489684992	48	6827
2026-01-08 01:35:34.41	216.42	26.56	-38.5	-39.5	22.9	0.00e+00	91	38	0	491782144	48	6792
2026-01-08 01:35:35.42	216.63	26.68	-38.4	-39.3	23.0	0.00e+00	17	38	0	493879296	48	6658
2026-01-08 01:35:36.43	216.85	26.80	-38.2	-39.1	23.1	0.00e+00	90	38	0	495976448	48	6470
2026-01-08 01:35:37.43	217.07	26.93	-38.3	-39.3	22.9	0.00e+00	92	38	0	497025024	48	6642
2026-01-08 01:35:38.44	217.29	27.05	-38.6	-39.5	22.8	0.00e+00	0	38	0	499122176	48	6827
2026-01-08 01:35:39.45	217.52	27.17	-38.7	-39.6	22.6	0.00e+00	91	38	0	501219328	48	6913
2026-01-08 01:35:40.46	217.74	27.30	-38.7	-39.7	22.7	0.00e+00	0	38	0	503316480	50	6194
2026-01-08 01:35:41.47	217.97	27.42	-39.2	-40.3	22.3	0.00e+00	69	38	0	504365056	50	6623
2026-01-08 01:35:42.48	218.20	27.55	-39.1	-40.2	22.3	0.00e+00	0	38	0	506462208	50	6544
2026-01-08 01:35:43.49	218.43	27.67	-39.3	-40.3	22.3	0.00e+00	92	38	0	508559360	50	6648
2026-01-08 01:35:44.50	218.67	27.79	-39.3	-40.4	22.2	0.00e+00	92	38	0	510656512	50	6711
2026-01-08 01:35:45.51	218.90	27.92	-38.9	-39.9	22.6	0.00e+00	0	38	0	512753664	50	6335
2026-01-08 01:35:46.52	219.14	28.04	-39.0	-40.0	22.7	0.00e+00	90	38	0	514850816	50	6427
2026-01-08 01:35:47.53	219.37	28.17	-39.1	-40.1	22.4	0.00e+00	0	38	0	515899392	50	6478
2026-01-08 01:35:48.53	219.61	28.29	-38.8	-39.7	22.7	0.00e+00	85	38	0	517996544	50	6226
2026-01-08 01:35:49.54	219.85	28.41	-38.5	-39.4	23.0	0.00e+00	0	38	0	520093696	50	6002
2026-01-08 01:35:50.55	220.10	28.54	-38.9	-40.0	22.5	0.00e+00	92	38	0	522190848	50	6397
2026-01-08 01:35:51.57	220.35	28.66	-38.7	-39.7	22.7	0.00e+00	80	38	0	524288000	50	6179
2026-01-08 01:35:52.57	220.59	28.79	-39.2	-40.2	22.3	0.00e+00	60	38	0	525336576	50	6583
2026-01-08 01:35:53.58	220.84	28.91	-39.0	-40.0	22.4	0.00e+00	92	38	0	527433728	50	6421
2026-01-08 01:35:54.59	221.09	29.04	-39.0	-40.0	22.5	0.00e+00	0	38	0	529530880	50	6434
2026-01-08 01:35:55.61	221.35	29.16	-39.0	-40.0	22.5	0.00e+00	92	38	0	531628032	50	6418
2026-01-08 01:35:56.61	221.60	29.28	-38.6	-39.6	22.7	0.00e+00	0	38	0	533725184	50	6127
2026-01-08 01:35:57.62	221.86	29.41	-38.6	-39.5	23.0	0.00e+00	92	38	0	534773760	50	6082
2026-01-08 01:35:58.63	222.11	29.53	-38.5	-39.5	22.8	0.00e+00	30	38	0	536870912	50	6062
2026-01-08 01:35:59.64	222.38	29.66	-38.7	-39.7	22.9	0.00e+00	2	38	0	538968064	50	6236
2026-01-08 01:36:00.65	222.64	29.78	-38.5	-39.5	22.8	0.00e+00	90	38	0	541065216	50	6071
2026-01-08 01:36:01.66	222.90	29.90	-38.7	-39.7	22.7	0.00e+00	0	38	0	543162368	50	6212
2026-01-08 01:36:02.67	223.17	30.03	-39.0	-40.0	22.5	0.00e+00	78	38	0	544210944	50	6414
2026-01-08 01:36:03.68	223.44	30.15	-38.9	-39.9	22.6	0.00e+00	0	38	0	546308096	50	6340
2026-01-08 01:36:04.69	223.71	30.27	-39.2	-40.3	22.2	0.00e+00	90	38	0	548405248	50	6643
2026-01-08 01:36:05.70	223.98	30.40	-39.9	-41.1	21.5	0.00e+00	0	38	0	550502400	52	6509
2026-01-08 01:36:06.71	224.26	30.52	-40.4	-41.6	21.1	0.00e+00	92	38	0	552599552	52	6896
2026-01-08 01:36:07.72	224.53	30.64	-40.4	-41.6	21.2	0.00e+00	92	38	0	553648128	52	6924
2026-01-08 01:36:08.72	224.81	30.76	-40.2	-41.4	21.3	0.00e+00	0	38	0	555745280	52	6747
2026-01-08 01:36:09.73	225.09	30.89	-40.3	-41.5	21.5	0.00e+00	84	38	0	557842432	52	6785
2026-01-08 01:36:10.74	225.37	31.01	-40.0	-41.2	21.6	0.00e+00	0	38	0	559939584	52	6556
2026-01-08 01:36:11.75	225.66	31.13	-39.8	-40.9	21.7	0.00e+00	92	38	0	562036736	52	6378
2026-01-08 01:36:12.76	225.95	31.25	-40.1	-41.3	21.5	0.00e+00	0	38	0	563085312	52	6645
2026-01-08 01:36:13.77	226.24	31.37	-40.4	-41.6	21.1	0.00e+00	91	38	0	565182464	52	6882
2026-01-08 01:36:14.78	226.53	31.50	-40.9	-42.2	20.5	0.00e+00	92	38	0	567279616	54	6549
2026-01-08 01:36:15.79	226.82	31.62	-41.4	-42.8	20.2	0.00e+00	0	38	0	569376768	54	7019
2026-01-08 01:36:16.80	227.12	31.74	-41.5	-43.0	20.1	0.00e+00	78	38	0	571473920	56	6398
2026-01-08 01:36:17.81	227.42	31.86	-41.6	-43.0	19.8	0.00e+00	0	38	0	572522496	56	6427
2026-01-08 01:36:18.82	227.72	31.98	-42.4	-44.1	18.9	0.00e+00	92	38	0	574619648	56	7267
2026-01-08 01:36:19.83	228.02	32.10	-43.1	-44.9	18.2	0.00e+00	17	38	0	576716800	58	7139
2026-01-08 01:36:20.84	228.32	32.21	-42.9	-44.6	18.4	0.00e+00	92	38	0	578813952	58	6891
2026-01-08 01:36:21.85	228.63	32.33	-42.6	-44.3	18.8	0.00e+00	90	38	0	580911104	58	6645
2026-01-08 01:36:22.86	228.94	32.45	-42.4	-44.1	19.0	0.00e+00	0	38	0	583008256	58	6497
2026-01-08 01:36:23.87	229.25	32.57	-42.0	-43.5	19.5	0.00e+00	78	38	0	584056832	58	6077
2026-01-08 01:36:24.88	229.56	32.69	-41.6	-43.0	19.9	0.00e+00	0	38	0	586153984	56	6430
2026-01-08 01:36:25.89	229.88	32.80	-42.0	-43.5	19.7	0.00e+00	91	38	0	588251136	56	6780
2026-01-08 01:36:26.90	230.20	32.92	-42.8	-44.4	18.4	0.00e+00	0	38	0	590348288	56	7574
2026-01-08 01:36:27.91	230.52	33.04	-43.1	-44.8	18.3	0.00e+00	91	38	0	592445440	58	7069
2026-01-08 01:36:28.92	230.84	33.15	-43.1	-44.8	18.1	0.00e+00	81	38	0	593494016	58	7048
2026-01-08 01:36:29.92	231.16	33.26	-43.7	-45.8	17.4	0.00e+00	32	38	0	595591168	60	7017
2026-01-08 01:36:30.93	231.49	33.38	-43.8	-45.9	17.3	0.00e+00	90	38	0	597688320	60	7154
2026-01-08 01:36:31.94	231.82	33.49	-44.1	-46.2	17.1	0.00e+00	0	38	0	599785472	60	7393
2026-01-08 01:36:32.95	232.15	33.60	-43.3	-45.1	17.9	0.00e+00	92	38	0	601882624	60	6535
2026-01-08 01:36:33.96	232.48	33.72	-43.2	-45.0	18.4	0.00e+00	0	38	0	602931200	60	6416
2026-01-08 01:36:34.97	232.82	33.83	-43.0	-44.8	18.4	0.00e+00	92	38	0	605028352	60	6261
2026-01-08 01:36:35.98	233.15	33.94	-42.8	-44.4	18.6	0.00e+00	81	38	0	607125504	58	6753
2026-01-08 01:36:36.99	233.49	34.05	-43.4	-45.3	18.0	0.00e+00	92	38	0	609222656	58	7452
2026-01-08 01:36:38.00	233.84	34.16	-43.9	-45.9	17.3	0.00e+00	92	38	0	611319808	60	7150
2026-01-08 01:36:39.01	234.18	34.27	-44.1	-46.2	17.0	0.00e+00	0	38	0	612368384	60	7403
2026-01-08 01:36:40.02	234.53	34.38	-44.3	-46.6	16.7	0.00e+00	92	38	0	614465536	60	7717
2026-01-08 01:36:41.03	234.88	34.48	-44.1	-46.3	17.0	0.00e+00	0	38	0	616562688	60	7427
2026-01-08 01:36:42.04	235.23	34.59	-44.2	-46.3	17.1	0.00e+00	91	38	0	618659840	60	7472
2026-01-08 01:36:43.05	235.58	34.69	-43.5	-45.4	17.8	0.00e+00	0	38	0	620756992	60	6743
2026-01-08 01:36:44.06	235.94	34.80	-43.1	-44.9	18.4	0.00e+00	92	38	0	621805568	60	6332
2026-01-08 01:36:45.07	236.30	34.90	-43.2	-45.0	18.4	0.00e+00	92	38	0	623902720	60	6438
2026-01-08 01:36:46.07	236.66	35.00	-42.9	-44.6	18.6	0.00e+00	0	38	0	625999872	60	6108
2026-01-08 01:36:47.08	237.02	35.11	-42.9	-44.5	18.7	0.00e+00	48	38	0	628097024	58	6814
2026-01-08 01:36:48.09	237.38	35.21	-43.1	-44.9	18.4	0.00e+00	0	38	0	630194176	58	7105
2026-01-08 01:36:49.11	237.75	35.31	-42.9	-44.6	18.4	0.00e+00	90	38	0	631242752	58	6878
2026-01-08 01:36:50.11	238.12	35.41	-43.4	-45.3	17.5	0.00e+00	0	38	0	633339904	58	7430
2026-01-08 01:36:51.12	238.49	35.51	-42.9	-44.6	18.3	0.00e+00	92	38	0	635437056	58	6856
2026-01-08 01:36:52.13	238.86	35.60	-42.4	-43.9	19.3	0.00e+00	92	38	0	637534208	58	6340
2026-01-08 01:36:53.14	239.24	35.70	-41.9	-43.3	19.8	0.00e+00	0	38	0	639631360	56	6650
2026-01-08 01:36:54.15	239.62	35.79	-40.8	-42.0	20.8	0.00e+00	77	39	0	640679936	56	5717
2026-01-08 01:36:55.16	240.00	35.89	-40.2	-41.3	21.6	0.00e+00	0	38	0	642777088	54	5918
2026-01-08 01:36:56.17	240.38	35.98	-40.2	-41.3	21.5	0.00e+00	91	39	0	644874240	54	5959
2026-01-08 01:36:57.17	240.76	36.07	-40.3	-41.5	21.1	0.00e+00	0	38	0	646971392	54	6059
2026-01-08 01:36:58.18	241.15	36.16	-40.7	-41.8	21.1	0.00e+00	91	38	0	649068544	54	6308
2026-01-08 01:36:59.19	241.54	36.25	-40.2	-41.3	21.3	0.00e+00	76	38	0	651165696	54	5935
2026-01-08 01:37:00.20	241.93	36.34	-39.5	-40.5	22.3	0.00e+00	0	38	0	652214272	52	6036
2026-01-08 01:37:01.21	242.32	36.43	-39.2	-40.2	22.5	0.00e+00	74	38	0	654311424	52	5841
2026-01-08 01:37:02.22	242.72	36.51	-38.9	-39.8	22.2	0.00e+00	33	38	0	656408576	52	5626
2026-01-08 01:37:03.23	243.11	36.59	-39.1	-40.1	22.5	0.00e+00	92	38	0	658505728	52	5800
2026-01-08 01:37:04.23	243.51	36.68	-39.2	-40.3	22.6	0.00e+00	0	38	0	660602880	52	5902
2026-01-08 01:37:05.24	243.91	36.76	-39.2	-40.2	22.4	0.00e+00	90	38	0	661651456	50	6578
2026-01-08 01:37:06.25	244.31	36.84	-39.2	-40.2	22.4	0.00e+00	81	38	0	663748608	50	6580
2026-01-08 01:37:07.26	244.72	36.92	-39.5	-40.5	22.2	0.00e+00	0	39	0	665845760	50	6820
2026-01-08 01:37:08.27	245.12	37.00	-39.2	-40.1	22.4	0.00e+00	92	38	0	667942912	50	6515
2026-01-08 01:37:09.28	245.53	37.07	-39.3	-40.3	22.5	0.00e+00	0	38	0	670040064	50	6664
2026-01-08 01:37:10.29	245.94	37.15	-38.9	-39.9	22.6	0.00e+00	81	38	0	671088640	50	6352
2026-01-08 01:37:11.30	246.36	37.22	-38.4	-39.3	23.1	0.00e+00	0	38	0	673185792	50	5943
2026-01-08 01:37:12.31	246.77	37.29	-38.2	-39.1	23.3	0.00e+00	92	38	0	675282944	50	5776
2026-01-08 01:37:13.32	247.19	37.36	-38.3	-39.3	23.2	0.00e+00	0	38	0	677380096	50	5900
2026-01-08 01:37:14.33	247.60	37.43	-38.8	-39.7	22.8	0.00e+00	52	38	0	679477248	50	6211
2026-01-08 01:37:15.34	248.02	37.50	-39.3	-40.3	22.2	0.00e+00	90	38	0	680525824	50	6659
2026-01-08 01:37:16.34	248.44	37.56	-39.7	-40.8	22.0	0.00e+00	0	38	0	682622976	52	6282
2026-01-08 01:37:17.36	248.87	37.63	-39.3	-40.2	22.4	0.00e+00	81	38	0	684720128	52	5892
2026-01-08 01:37:18.36	249.29	37.69	-39.4	-40.4	22.3	0.00e+00	0	38	0	686817280	52	5985
2026-01-08 01:37:19.37	249.71	37.75	-39.9	-40.9	21.9	0.00e+00	92	38	0	688914432	52	6379
2026-01-08 01:37:20.38	250.14	37.81	-40.5	-41.7	21.1	0.00e+00	57	38	0	689963008	52	6971
2026-01-08 01:37:21.39	250.57	37.87	-40.3	-41.5	21.4	0.00e+00	92	38	0	692060160	52	6821
2026-01-08 01:37:22.40	251.00	37.92	-39.5	-40.6	22.1	0.00e+00	92	38	0	694157312	52	6132
2026-01-08 01:37:23.41	251.43	37.98	-38.9	-39.9	22.8	0.00e+00	0	38	0	696254464	52	5639
2026-01-08 01:37:24.42	251.86	38.03	-38.6	-39.5	23.1	0.00e+00	64	38	0	698351616	50	6088
2026-01-08 01:37:25.43	252.30	38.08	-38.4	-39.3	23.0	0.00e+00	0	38	0	699400192	50	5944
2026-01-08 01:37:26.44	252.73	38.13	-38.7	-39.6	22.9	0.00e+00	92	38	0	701497344	50	6156
2026-01-08 01:37:27.44	253.17	38.17	-39.0	-40.0	22.7	0.00e+00	17	38	0	703594496	50	6418
2026-01-08 01:37:28.45	253.61	38.22	-39.4	-40.4	22.3	0.00e+00	92	38	0	705691648	50	6744
2026-01-08 01:37:29.46	254.05	38.26	-39.7	-40.7	22.1	0.00e+00	92	38	0	707788800	50	7006
2026-01-08 01:37:30.47	254.49	38.30	-39.6	-40.7	22.2	0.00e+00	0	38	0	708837376	52	6213
2026-01-08 01:37:31.48	254.93	38.34	-40.0	-41.1	21.8	0.00e+00	74	38	0	710934528	52	6479
2026-01-08 01:37:32.49	255.37	38.38	-40.0	-41.1	21.6	0.00e+00	0	38	0	713031680	52	6489
2026-01-08 01:37:33.50	255.81	38.42	-39.6	-40.6	22.1	0.00e+00	90	38	0	715128832	52	6150
2026-01-08 01:37:34.51	256.26	38.45	-39.0	-40.0	22.6	0.00e+00	0	38	0	717225984	52	5709
2026-01-08 01:37:35.52	256.70	38.49	-38.4	-39.3	23.3	0.00e+00	92	38	0	718274560	50	5933
2026-01-08 01:37:36.53	257.15	38.52	-38.1	-39.0	23.5	0.00e+00	92	38	0	720371712	50	5738
2026-01-08 01:37:37.54	257.60	38.55	-38.4	-39.3	23.0	0.00e+00	0	38	0	722468864	50	5958
2026-01-08 01:37:38.55	258.05	38.57	-38.9	-39.9	22.6	0.00e+00	77	38	0	724566016	50	6321
2026-01-08 01:37:39.56	258.49	38.60	-39.3	-40.4	22.2	0.00e+00	33	38	0	726663168	50	6741
2026-01-08 01:37:40.57	258.94	38.62	-39.6	-40.7	22.1	0.00e+00	79	38	0	727711744	50	6948
2026-01-08 01:37:41.58	259.39	38.64	-39.9	-41.1	21.5	0.00e+00	0	38	0	729808896	52	6471
2026-01-08 01:37:42.59	259.84	38.66	-40.4	-41.5	21.2	0.00e+00	92	38	0	731906048	52	6844
2026-01-08 01:37:43.60	260.29	38.68	-40.1	-41.3	21.5	0.00e+00	90	38	0	734003200	52	6618
2026-01-08 01:37:44.61	260.75	38.69	-39.8	-40.8	22.0	0.00e+00	0	38	0	736100352	52	6300
2026-01-08 01:37:45.62	261.20	38.71	-39.2	-40.2	22.5	0.00e+00	92	38	0	737148928	52	5834
2026-01-08 01:37:46.63	261.65	38.72	-39.6	-40.6	22.1	0.00e+00	0	38	0	739246080	52	6129
2026-01-08 01:37:47.64	262.10	38.73	-39.7	-40.8	22.0	0.00e+00	92	38	0	741343232	52	6258
2026-01-08 01:37:48.65	262.55	38.73	-39.7	-40.7	22.1	0.00e+00	0	38	0	743440384	52	6215
2026-01-08 01:37:49.66	263.01	38.74	-39.5	-40.5	22.1	0.00e+00	92	38	0	745537536	52	6069
2026-01-08 01:37:50.67	263.46	38.74	-40.4	-41.6	21.2	0.00e+00	0	38	0	747634688	52	6867
2026-01-08 01:37:51.68	263.91	38.74	-42.1	-43.6	19.4	0.00e+00	31	38	0	748683264	54	7687
2026-01-08 01:37:52.68	264.36	38.74	-43.4	-45.3	18.0	0.00e+00	65	38	0	750780416	58	7452
2026-01-08 01:37:53.69	264.81	38.74	-42.9	-44.6	18.6	0.00e+00	0	38	0	752877568	58	6919
2026-01-08 01:37:54.70	265.27	38.74	-41.2	-42.5	20.6	0.00e+00	92	38	0	754974720	56	6086
2026-01-08 01:37:55.71	265.72	38.73	-39.8	-40.9	21.9	0.00e+00	0	38	0	757071872	54	5679
2026-01-08 01:37:56.72	266.17	38.72	-39.1	-40.1	22.5	0.00e+00	90	38	0	758120448	52	5762
2026-01-08 01:37:57.73	266.62	38.71	-38.8	-39.8	22.6	0.00e+00	80	38	0	760217600	52	5599
2026-01-08 01:37:58.74	267.08	38.70	-38.5	-39.4	23.0	0.00e+00	27	38	0	762314752	50	6023
2026-01-08 01:37:59.75	267.53	38.69	-38.2	-39.1	23.3	0.00e+00	92	38	0	764411904	50	5807
2026-01-08 01:38:00.76	267.98	38.67	-37.8	-38.7	22.6	0.00e+00	0	38	0	766509056	50	5556
2026-01-08 01:38:01.77	268.43	38.65	-38.0	-38.9	23.4	0.00e+00	67	38	0	767557632	50	5679
2026-01-08 01:38:02.78	268.88	38.63	-38.4	-39.3	23.1	0.00e+00	0	38	0	769654784	50	5957
2026-01-08 01:38:03.79	269.33	38.61	-38.6	-39.6	23.2	0.00e+00	92	38	0	771751936	50	6124
2026-01-08 01:38:04.79	269.77	38.59	-38.2	-39.1	23.4	0.00e+00	0	38	0	773849088	50	5767
2026-01-08 01:38:05.80	270.22	38.56	-37.9	-38.8	23.4	0.00e+00	80	38	0	775946240	50	5574
2026-01-08 01:38:06.81	270.67	38.53	-38.4	-39.3	23.1	0.00e+00	90	38	0	776994816	50	5954
2026-01-08 01:38:07.82	271.11	38.50	-38.7	-39.6	22.9	0.00e+00	0	39	0	779091968	50	6136
2026-01-08 01:38:08.83	271.56	38.47	-38.5	-39.4	23.2	0.00e+00	18	38	0	781189120	50	5979
2026-01-08 01:38:09.84	272.00	38.44	-37.9	-38.8	23.5	0.00e+00	0	39	0	783286272	50	5577
2026-01-08 01:38:10.85	272.45	38.40	-37.9	-38.8	23.5	0.00e+00	80	38	0	785383424	50	5573
2026-01-08 01:38:11.86	272.89	38.37	-38.0	-38.9	23.5	0.00e+00	0	38	0	786432000	50	5680
2026-01-08 01:38:12.88	273.34	38.33	-37.7	-38.6	23.6	0.00e+00	90	38	0	788529152	48	6116
2026-01-08 01:38:13.89	273.78	38.29	-37.6	-38.4	23.8	0.00e+00	91	38	0	790626304	48	6000
2026-01-08 01:38:14.89	274.21	38.24	-37.8	-38.6	23.7	0.00e+00	0	38	0	792723456	48	6157
2026-01-08 01:38:15.90	274.65	38.20	-38.4	-39.3	23.1	0.00e+00	92	38	0	794820608	48	6659
2026-01-08 01:38:16.91	275.09	38.15	-39.1	-40.1	22.2	0.00e+00	0	38	0	795869184	50	6520
2026-01-08 01:38:17.92	275.52	38.11	-39.3	-40.3	22.4	0.00e+00	92	38	0	797966336	50	6666
2026-01-08 01:38:18.93	275.96	38.06	-39.0	-40.0	22.5	0.00e+00	0	38	0	800063488	50	6460
2026-01-08 01:38:19.94	276.39	38.01	-38.8	-39.7	22.9	0.00e+00	92	38	0	802160640	50	6231
2026-01-08 01:38:20.95	276.82	37.95	-39.0	-40.1	22.5	0.00e+00	0	38	0	804257792	50	6474
2026-01-08 01:38:21.96	277.25	37.90	-39.3	-40.4	22.3	0.00e+00	0	38	0	805306368	50	6696
2026-01-08 01:38:22.97	277.68	37.84	-39.5	-40.6	22.2	0.00e+00	91	38	0	807403520	50	6852
2026-01-08 01:38:23.97	278.11	37.78	-39.0	-40.0	22.7	0.00e+00	0	38	0	809500672	50	6424
2026-01-08 01:38:24.98	278.53	37.72	-38.6	-39.6	23.0	0.00e+00	78	38	0	811597824	50	6107
2026-01-08 01:38:25.99	278.96	37.66	-39.4	-40.5	22.1	0.00e+00	0	38	0	813694976	50	6773
2026-01-08 01:38:27.00	279.38	37.60	-40.6	-41.9	21.0	0.00e+00	90	38	0	815792128	52	7108
2026-01-08 01:38:28.01	279.80	37.54	-41.1	-42.4	20.6	0.00e+00	25	38	0	816840704	54	6766
2026-01-08 01:38:29.02	280.22	37.47	-40.0	-41.2	21.7	0.00e+00	0	38	0	818937856	54	5843
2026-01-08 01:38:30.03	280.64	37.40	-38.8	-39.8	22.9	0.00e+00	92	38	0	821035008	52	5599
2026-01-08 01:38:31.04	281.06	37.33	-38.1	-39.1	23.3	0.00e+00	0	38	0	823132160	50	5764
2026-01-08 01:38:32.05	281.47	37.26	-38.4	-39.4	23.0	0.00e+00	56	38	0	825229312	50	5966
2026-01-08 01:38:33.06	281.88	37.19	-38.9	-39.9	22.7	0.00e+00	0	38	0	826277888	50	6374
2026-01-08 01:38:34.07	282.29	37.12	-38.8	-39.8	22.8	0.00e+00	92	38	0	828375040	50	6264
2026-01-08 01:38:35.08	282.70	37.04	-38.2	-39.1	23.5	0.00e+00	0	38	0	830472192	50	5763
2026-01-08 01:38:36.09	283.11	36.97	-38.1	-39.0	23.3	0.00e+00	0	38	0	832569344	50	5749
2026-01-08 01:38:37.10	283.51	36.89	-38.9	-39.9	22.6	0.00e+00	90	38	0	834666496	50	6346
2026-01-08 01:38:38.11	283.92	36.81	-39.6	-40.7	22.0	0.00e+00	0	38	0	835715072	50	6928
2026-01-08 01:38:39.12	284.32	36.73	-40.4	-41.5	21.3	0.00e+00	46	38	0	837812224	52	6816
2026-01-08 01:38:40.13	284.72	36.65	-39.9	-41.0	21.8	0.00e+00	0	38	0	839909376	52	6415
2026-01-08 01:38:41.14	285.12	36.56	-39.2	-40.2	22.6	0.00e+00	91	38	0	842006528	52	5852
2026-01-08 01:38:42.15	285.51	36.48	-38.2	-39.1	23.2	0.00e+00	0	38	0	844103680	50	5824
2026-01-08 01:38:43.16	285.90	36.39	-38.4	-39.3	23.2	0.00e+00	91	38	0	845152256	50	5911
2026-01-08 01:38:44.16	286.29	36.31	-38.1	-39.0	23.3	0.00e+00	92	38	0	847249408	50	5742
2026-01-08 01:38:45.17	286.68	36.22	-38.6	-39.5	23.0	0.00e+00	0	38	0	849346560	50	6072
2026-01-08 01:38:46.18	287.07	36.13	-38.3	-39.2	23.2	0.00e+00	76	38	0	851443712	50	5873
2026-01-08 01:38:47.19	287.45	36.04	-37.6	-38.5	23.7	0.00e+00	0	38	0	853540864	48	6068
2026-01-08 01:38:48.20	287.84	35.95	-37.1	-37.9	24.1	0.00e+00	92	38	0	854589440	48	5694
2026-01-08 01:38:49.21	288.22	35.85	-37.1	-38.0	24.1	0.00e+00	33	38	0	856686592	46	6402
2026-01-08 01:38:50.22	288.59	35.76	-37.6	-38.5	23.7	0.00e+00	92	38	0	858783744	46	6820
2026-01-08 01:38:51.23	288.97	35.66	-37.9	-38.8	23.3	0.00e+00	92	38	0	860880896	48	6281
2026-01-08 01:38:52.24	289.34	35.57	-38.4	-39.3	23.2	0.00e+00	0	38	0	862978048	48	6670
2026-01-08 01:38:53.25	289.72	35.47	-38.4	-39.3	23.2	0.00e+00	80	38	0	864026624	48	6634
2026-01-08 01:38:54.26	290.09	35.37	-38.3	-39.2	22.8	0.00e+00	0	38	0	866123776	48	6573
2026-01-08 01:38:55.27	290.45	35.27	-38.4	-39.3	23.1	0.00e+00	92	38	0	868220928	48	6683
2026-01-08 01:38:56.28	290.82	35.17	-39.6	-40.6	21.9	0.00e+00	0	38	0	870318080	50	6896
2026-01-08 01:38:57.29	291.18	35.07	-40.8	-42.0	20.9	0.00e+00	90	38	0	872415232	52	7232
2026-01-08 01:38:58.30	291.54	34.97	-42.3	-43.8	19.3	0.00e+00	76	39	0	873463808	56	7035
2026-01-08 01:38:59.31	291.90	34.87	-42.4	-44.0	19.2	0.00e+00	0	38	0	875560960	56	7196
2026-01-08 01:39:00.31	292.25	34.77	-42.0	-43.5	19.7	0.00e+00	36	38	0	877658112	56	6790
2026-01-08 01:39:01.33	292.61	34.66	-41.2	-42.5	20.7	0.00e+00	0	38	0	879755264	56	6056
2026-01-08 01:39:02.34	292.96	34.55	-40.8	-42.0	20.8	0.00e+00	80	38	0	881852416	54	6399
2026-01-08 01:39:03.35	293.31	34.45	-41.5	-42.8	20.0	0.00e+00	0	38	0	883949568	54	7079
2026-01-08 01:39:04.35	293.66	34.34	-42.5	-44.1	18.9	0.00e+00	91	38	0	884998144	56	7257
2026-01-08 01:39:05.36	294.00	34.23	-42.7	-44.2	18.9	0.00e+00	0	38	0	887095296	58	6605
2026-01-08 01:39:06.37	294.35	34.13	-41.6	-42.9	20.3	0.00e+00	0	38	0	889192448	56	6364
2026-01-08 01:39:07.38	294.69	34.02	-39.7	-40.8	22.0	0.00e+00	21	38	0	891289600	52	6261
2026-01-08 01:39:08.39	295.03	33.91	-39.3	-40.3	22.5	0.00e+00	0	38	0	893386752	52	5937
2026-01-08 01:39:09.40	295.36	33.80	-40.1	-41.3	21.3	0.00e+00	79	38	0	894435328	52	6633
2026-01-08 01:39:10.41	295.70	33.68	-41.8	-43.2	19.6	0.00e+00	0	38	0	896532480	54	7397
2026-01-08 01:39:11.42	296.03	33.57	-43.1	-44.8	18.2	0.00e+00	91	38	0	898629632	58	7050
2026-01-08 01:39:12.43	296.36	33.46	-43.8	-45.9	17.4	0.00e+00	0	38	0	900726784	60	7100
2026-01-08 01:39:13.44	296.68	33.35	-43.3	-45.2	18.2	0.00e+00	0	38	0	902823936	60	6553
2026-01-08 01:39:14.45	297.01	33.23	-41.0	-42.2	20.9	0.00e+00	92	38	0	903872512	56	5861
2026-01-08 01:39:15.45	297.33	33.12	-39.8	-40.9	21.9	0.00e+00	0	38	0	905969664	54	5667
2026-01-08 01:39:16.46	297.65	33.00	-39.9	-41.0	21.8	0.00e+00	41	38	0	908066816	52	6431
2026-01-08 01:39:17.47	297.97	32.89	-40.7	-41.9	21.0	0.00e+00	0	38	0	910163968	52	7125
2026-01-08 01:39:18.49	298.29	32.77	-41.8	-43.1	19.9	0.00e+00	92	38	0	912261120	54	7313
2026-01-08 01:39:19.49	298.60	32.66	-41.3	-42.6	20.5	0.00e+00	0	38	0	913309696	56	6155
2026-01-08 01:39:20.50	298.91	32.54	-39.8	-40.8	22.0	0.00e+00	27	38	0	915406848	54	5625
2026-01-08 01:39:21.51	299.22	32.42	-39.1	-40.1	22.5	0.00e+00	92	38	0	917504000	52	5783
2026-01-08 01:39:22.52	299.52	32.31	-38.4	-39.3	23.1	0.00e+00	0	38	0	919601152	50	5948
2026-01-08 01:39:23.53	299.83	32.19	-38.8	-39.8	22.6	0.00e+00	74	38	0	921698304	50	6263
2026-01-08 01:39:24.54	300.13	32.07	-39.7	-40.8	21.9	0.00e+00	0	38	0	922746880	50	7053
2026-01-08 01:39:25.54	300.43	31.95	-40.4	-41.6	21.3	0.00e+00	90	38	0	924844032	52	6860
2026-01-08 01:39:26.55	300.73	31.83	-40.7	-41.9	21.0	0.00e+00	0	38	0	926941184	52	7109
2026-01-08 01:39:27.56	301.02	31.71	-40.1	-41.2	21.7	0.00e+00	86	38	0	929038336	52	6595
2026-01-08 01:39:28.57	301.32	31.59	-39.1	-40.1	22.5	0.00e+00	74	38	0	931135488	52	5768
2026-01-08 01:39:29.58	301.61	31.47	-39.1	-40.2	22.4	0.00e+00	0	38	0	932184064	52	5833
2026-01-08 01:39:30.58	301.90	31.35	-38.9	-39.8	22.7	0.00e+00	77	38	0	934281216	52	5621
2026-01-08 01:39:31.59	302.18	31.23	-38.9	-39.9	22.5	0.00e+00	0	38	0	936378368	52	5688
2026-01-08 01:39:32.60	302.47	31.11	-38.9	-39.8	22.8	0.00e+00	84	38	0	938475520	50	6300
2026-01-08 01:39:33.61	302.75	30.99	-37.7	-38.6	23.7	0.00e+00	0	38	0	940572672	50	5477
2026-01-08 01:39:34.62	303.04	30.87	-36.7	-37.5	24.4	0.00e+00	75	38	0	941621248	48	5421
2026-01-08 01:39:35.63	303.32	30.75	-36.2	-37.0	24.7	0.00e+00	76	38	0	943718400	46	5740
2026-01-08 01:39:36.64	303.59	30.62	-36.6	-37.4	24.5	0.00e+00	0	38	0	945815552	46	5987
2026-01-08 01:39:37.65	303.87	30.50	-37.7	-38.5	23.7	0.00e+00	77	38	0	947912704	46	6818
2026-01-08 01:39:38.66	304.14	30.38	-38.6	-39.6	22.9	0.00e+00	0	38	0	950009856	48	6868
2026-01-08 01:39:39.66	304.41	30.26	-39.4	-40.5	22.2	0.00e+00	77	38	0	951058432	50	6772
2026-01-08 01:39:40.68	304.68	30.13	-39.1	-40.2	22.5	0.00e+00	0	38	0	953155584	52	5832
2026-01-08 01:39:41.68	304.95	30.01	-37.8	-38.7	23.6	0.00e+00	76	38	0	955252736	50	5551
2026-01-08 01:39:42.69	305.21	29.89	-37.9	-38.8	23.5	0.00e+00	9	38	0	957349888	48	6259
2026-01-08 01:39:43.70	305.47	29.77	-37.8	-38.7	23.5	0.00e+00	0	38	0	959447040	48	6187
2026-01-08 01:39:44.71	305.74	29.64	-38.0	-38.9	23.4	0.00e+00	90	38	0	960495616	48	6364
2026-01-08 01:39:45.71	305.99	29.52	-39.0	-40.0	22.5	0.00e+00	0	38	0	962592768	50	6434
2026-01-08 01:39:46.72	306.25	29.40	-39.2	-40.2	22.3	0.00e+00	92	38	0	964689920	50	6590
2026-01-08 01:39:47.73	306.51	29.27	-39.3	-40.4	22.3	0.00e+00	0	38	0	966787072	50	6722
2026-01-08 01:39:48.74	306.76	29.15	-38.7	-39.7	22.8	0.00e+00	90	38	0	968884224	50	6210
2026-01-08 01:39:49.75	307.01	29.03	-37.9	-38.8	23.5	0.00e+00	0	38	0	969932800	50	5620
2026-01-08 01:39:50.76	307.26	28.90	-37.7	-38.6	23.7	0.00e+00	0	38	0	972029952	48	6140
2026-01-08 01:39:51.77	307.51	28.78	-37.0	-37.8	24.2	0.00e+00	91	38	0	974127104	48	5620
2026-01-08 01:39:52.78	307.75	28.66	-37.5	-38.3	23.7	0.00e+00	0	38	0	976224256	48	5940
2026-01-08 01:39:53.78	308.00	28.53	-38.6	-39.5	22.8	0.00e+00	60	38	0	978321408	48	6819
2026-01-08 01:39:54.79	308.24	28.41	-39.4	-40.5	22.1	0.00e+00	0	38	0	980418560	50	6771
2026-01-08 01:39:55.80	308.48	28.29	-38.9	-40.0	22.5	0.00e+00	85	38	0	981467136	50	6397
2026-01-08 01:39:56.81	308.72	28.16	-38.3	-39.2	23.1	0.00e+00	0	38	0	983564288	50	5887
2026-01-08 01:39:57.82	308.95	28.04	-38.1	-39.0	23.2	0.00e+00	0	38	0	985661440	50	5741
2026-01-08 01:39:58.83	309.19	27.92	-37.6	-38.5	23.7	0.00e+00	92	38	0	987758592	48	6063
2026-01-08 01:39:59.84	309.42	27.79	-38.4	-39.3	22.9	0.00e+00	0	38	0	989855744	48	6675
2026-01-08 01:40:00.85	309.65	27.67	-39.1	-40.2	22.4	0.00e+00	0	38	0	990904320	50	6554
2026-01-08 01:40:01.86	309.88	27.55	-38.9	-39.9	22.5	0.00e+00	0	38	0	993001472	50	6376
2026-01-08 01:40:02.87	310.11	27.42	-38.4	-39.4	23.0	0.00e+00	84	38	0	995098624	50	5997
2026-01-08 01:40:03.88	310.34	27.30	-37.0	-37.8	24.2	0.00e+00	0	38	0	997195776	48	5602
2026-01-08 01:40:04.89	310.56	27.18	-36.0	-36.8	25.0	0.00e+00	80	38	0	999292928	46	5576
2026-01-08 01:40:05.90	310.79	27.05	-35.7	-36.5	25.0	0.00e+00	67	38	0	1000341504	44	6045
2026-01-08 01:40:06.91	311.01	26.93	-35.6	-36.3	25.2	0.00e+00	0	38	0	1002438656	44	5948
2026-01-08 01:40:07.91	311.22	26.81	-36.4	-37.2	24.6	0.00e+00	72	38	0	1004535808	44	6580
2026-01-08 01:40:08.92	311.44	26.69	-37.3	-38.1	24.0	0.00e+00	0	38	0	1006632960	46	6519
2026-01-08 01:40:09.93	311.66	26.57	-38.0	-38.9	23.1	0.00e+00	71	38	0	1008730112	48	6387
2026-01-08 01:40:10.94	311.87	26.44	-38.6	-39.6	22.7	0.00e+00	0	38	0	1009778688	48	6866
2026-01-08 01:40:11.95	312.09	26.32	-38.6	-39.5	23.0	0.00e+00	91	38	0	1011875840	50	6103
2026-01-08 01:40:12.96	312.30	26.20	-38.1	-39.0	23.1	0.00e+00	0	38	0	1013972992	50	5737
2026-01-08 01:40:13.96	312.51	26.08	-37.3	-38.1	24.0	0.00e+00	0	38	0	1016070144	48	5807
2026-01-08 01:40:14.97	312.71	25.96	-36.7	-37.5	24.5	0.00e+00	81	38	0	1018167296	46	6041
2026-01-08 01:40:15.98	312.92	25.84	-36.3	-37.1	24.7	0.00e+00	0	38	0	1019215872	46	5794
2026-01-08 01:40:16.99	313.13	25.71	-36.3	-37.1	24.7	0.00e+00	79	38	0	1021313024	46	5809
2026-01-08 01:40:18.00	313.33	25.59	-36.6	-37.4	24.4	0.00e+00	0	38	0	1023410176	46	5980
2026-01-08 01:40:19.01	313.53	25.47	-37.2	-38.1	24.0	0.00e+00	83	38	0	1025507328	46	6500
2026-01-08 01:40:20.01	313.73	25.35	-37.6	-38.5	23.7	0.00e+00	0	38	0	1027604480	46	6771
2026-01-08 01:40:21.02	313.93	25.23	-37.4	-38.3	23.9	0.00e+00	0	38	0	1028653056	46	6620
2026-01-08 01:40:22.03	314.13	25.11	-37.1	-38.0	24.0	0.00e+00	92	38	0	1030750208	46	6414
2026-01-08 01:40:23.04	314.33	24.99	-36.8	-37.6	24.2	0.00e+00	0	38	0	1032847360	46	6127
2026-01-08 01:40:24.05	314.52	24.87	-36.4	-37.2	24.5	0.00e+00	39	38	0	1034944512	46	5874
2026-01-08 01:40:25.06	314.71	24.75	-36.0	-36.7	24.9	0.00e+00	0	38	0	1037041664	46	5544
2026-01-08 01:40:26.06	314.90	24.63	-35.7	-36.4	25.1	0.00e+00	92	38	0	1038090240	44	6016
2026-01-08 01:40:27.07	315.09	24.51	-35.8	-36.6	24.6	0.00e+00	0	38	0	1040187392	44	6151
2026-01-08 01:40:28.08	315.28	24.39	-36.2	-37.0	24.6	0.00e+00	0	38	0	1042284544	44	6459
2026-01-08 01:40:29.09	315.47	24.28	-36.3	-37.2	24.5	0.00e+00	52	38	0	1044381696	44	6543
2026-01-08 01:40:30.10	315.66	24.16	-37.0	-37.8	23.8	0.00e+00	0	38	0	1046478848	46	6303
2026-01-08 01:40:31.11	315.84	24.04	-37.1	-37.9	23.5	0.00e+00	79	38	0	1047527424	46	6361
2026-01-08 01:40:32.12	316.03	23.92	-36.9	-37.8	24.0	0.00e+00	0	38	0	1049624576	46	6262
2026-01-08 01:40:33.13	316.21	23.80	-36.8	-37.6	24.3	0.00e+00	92	38	0	1051721728	46	6147
2026-01-08 01:40:34.13	316.39	23.69	-36.2	-37.0	24.6	0.00e+00	0	38	0	1053818880	46	5757
2026-01-08 01:40:35.15	316.57	23.57	-35.7	-36.5	24.8	0.00e+00	90	38	0	1055916032	46	5428
2026-01-08 01:40:36.16	316.75	23.45	-35.6	-36.3	25.0	0.00e+00	73	38	0	1056964608	44	5937
2026-01-08 01:40:37.17	316.93	23.33	-35.5	-36.3	25.2	0.00e+00	0	38	0	1059061760	44	5903
2026-01-08 01:40:38.17	317.10	23.22	-35.5	-36.2	25.1	0.00e+00	73	38	0	1061158912	44	5883
2026-01-08 01:40:39.19	317.28	23.10	-35.8	-36.6	24.9	0.00e+00	0	38	0	1063256064	44	6132
2026-01-08 01:40:40.19	317.45	22.99	-36.0	-36.7	24.8	0.00e+00	91	38	0	1065353216	44	6245
2026-01-08 01:40:41.20	317.62	22.87	-36.0	-36.9	24.8	0.00e+00	0	38	0	1066401792	44	6322
2026-01-08 01:40:42.21	317.79	22.75	-36.4	-37.2	24.5	0.00e+00	74	38	0	1068498944	44	6602
2026-01-08 01:40:43.22	317.96	22.64	-36.4	-37.2	24.6	0.00e+00	0	38	0	1070596096	44	6576
2026-01-08 01:40:44.23	318.13	22.52	-36.5	-37.3	24.5	0.00e+00	0	38	0	1072693248	44	6659
2026-01-08 01:40:45.24	318.30	22.41	-36.3	-37.2	24.5	0.00e+00	56	38	0	1074790400	44	6551
2026-01-08 01:40:46.25	318.46	22.29	-36.4	-37.2	24.5	0.00e+00	0	38	0	1076887552	44	6580
2026-01-08 01:40:47.26	318.63	22.18	-36.3	-37.1	24.6	0.00e+00	91	38	0	1077936128	44	6478
2026-01-08 01:40:48.26	318.79	22.07	-36.1	-36.9	24.7	0.00e+00	0	38	0	1080033280	44	6335
2026-01-08 01:40:49.27	318.95	21.95	-36.0	-36.8	24.7	0.00e+00	92	38	0	1082130432	44	6311
2026-01-08 01:40:50.28	319.11	21.84	-36.0	-36.8	24.6	0.00e+00	9	38	0	1084227584	44	6310
2026-01-08 01:40:51.29	319.27	21.73	-36.1	-36.9	24.6	0.00e+00	0	38	0	1086324736	44	6370
2026-01-08 01:40:52.30	319.43	21.61	-36.1	-36.9	24.7	0.00e+00	92	38	0	1087373312	44	6373
2026-01-08 01:40:53.31	319.59	21.50	-36.3	-37.1	24.6	0.00e+00	0	38	0	1089470464	44	6503
2026-01-08 01:40:54.32	319.75	21.39	-36.6	-37.4	24.4	0.00e+00	76	38	0	1091567616	44	6731
2026-01-08 01:40:55.33	319.90	21.28	-36.3	-37.2	24.5	0.00e+00	0	38	0	1093664768	44	6542
2026-01-08 01:40:56.34	320.06	21.17	-36.3	-37.1	24.5	0.00e+00	90	38	0	1095761920	44	6532
2026-01-08 01:40:57.35	320.21	21.05	-36.2	-37.1	24.6	0.00e+00	0	38	0	1096810496	44	6476
2026-01-08 01:40:58.36	320.36	20.94	-36.3	-37.1	24.5	0.00e+00	0	38	0	1098907648	44	6521
2026-01-08 01:40:59.37	320.51	20.83	-36.4	-37.2	24.4	0.00e+00	92	38	0	1101004800	44	6593
2026-01-08 01:41:00.38	320.66	20.72	-36.1	-36.9	24.6	0.00e+00	0	38	0	1103101952	44	6359
2026-01-08 01:41:01.39	320.81	20.61	-36.3	-37.1	24.5	0.00e+00	85	38	0	1105199104	44	6494
2026-01-08 01:41:02.40	320.96	20.50	-36.3	-37.1	24.5	0.00e+00	0	38	0	1106247680	44	6510
2026-01-08 01:41:03.41	321.11	20.39	-36.3	-37.2	24.6	0.00e+00	0	38	0	1108344832	44	6544
2026-01-08 01:41:04.42	321.26	20.28	-36.6	-37.4	24.3	0.00e+00	0	38	0	1110441984	44	6760
2026-01-08 01:41:05.43	321.40	20.17	-36.5	-37.4	24.3	0.00e+00	0	38	0	1112539136	44	6709
2026-01-08 01:41:06.44	321.55	20.07	-36.6	-37.4	24.1	0.00e+00	11	38	0	1114636288	46	6004
2026-01-08 01:41:07.45	321.69	19.96	-36.9	-37.7	24.0	0.00e+00	0	38	0	1115684864	46	6226
2026-01-08 01:41:08.45	321.83	19.85	-36.7	-37.5	24.2	0.00e+00	61	38	0	1117782016	46	6085
2026-01-08 01:41:09.46	321.97	19.74	-36.9	-37.7	24.1	0.00e+00	0	38	0	1119879168	46	6227
2026-01-08 01:41:10.47	322.11	19.64	-36.9	-37.8	24.0	0.00e+00	0	38	0	1121976320	46	6270
2026-01-08 01:41:11.48	322.25	19.53	-37.1	-38.0	23.8	0.00e+00	0	38	0	1124073472	46	6431
2026-01-08 01:41:12.49	322.39	19.42	-37.8	-38.7	23.3	0.00e+00	0	38	0	1125122048	48	6239
2026-01-08 01:41:13.50	322.53	19.32	-37.8	-38.7	23.3	0.00e+00	12	38	0	1127219200	48	6227
2026-01-08 01:41:14.51	322.66	19.21	-38.0	-39.0	23.2	0.00e+00	0	38	0	1129316352	48	6396
2026-01-08 01:41:15.51	322.80	19.10	-38.2	-39.2	23.0	0.00e+00	52	38	0	1131413504	48	6567
2026-01-08 01:41:16.52	322.93	19.00	-38.0	-39.0	23.1	0.00e+00	0	38	0	1133510656	48	6415
2026-01-08 01:41:17.53	323.07	18.89	-38.3	-39.3	22.9	0.00e+00	0	38	0	1134559232	48	6660
2026-01-08 01:41:18.54	323.20	18.79	-38.0	-39.0	23.1	0.00e+00	0	38	0	1136656384	48	6399
2026-01-08 01:41:19.55	323.33	18.68	-37.9	-38.9	23.1	0.00e+00	0	38	0	1138753536	48	6331
2026-01-08 01:41:20.56	323.46	18.58	-38.1	-39.0	23.1	0.00e+00	0	38	0	1140850688	48	6439
2026-01-08 01:41:21.57	323.59	18.47	-38.0	-38.9	23.1	0.00e+00	0	38	0	1142947840	48	6368
2026-01-08 01:41:22.58	323.72	18.37	-38.2	-39.1	22.9	0.00e+00	63	38	0	1143996416	48	6529
2026-01-08 01:41:23.59	323.85	18.27	-38.5	-39.5	22.8	0.00e+00	0	38	0	1146093568	48	6835
2026-01-08 01:41:24.60	323.98	18.16	-38.4	-39.3	22.7	0.00e+00	0	38	0	1148190720	48	6671
2026-01-08 01:41:25.61	324.11	18.06	-38.7	-39.7	22.4	0.00e+00	0	38	0	1150287872	50	6239
2026-01-08 01:41:26.61	324.23	17.96	-39.0	-40.1	22.2	0.00e+00	0	38	0	1152385024	50	6465
2026-01-08 01:41:27.62	324.36	17.86	-39.4	-40.5	21.9	0.00e+00	0	38	0	1153433600	50	6799
2026-01-08 01:41:28.63	324.48	17.76	-39.4	-40.6	21.8	0.00e+00	0	38	0	1155530752	50	6863
2026-01-08 01:41:29.64	324.61	17.65	-39.5	-40.7	21.7	0.00e+00	70	38	0	1157627904	50	6948
2026-01-08 01:41:30.65	324.73	17.55	-39.4	-40.6	21.8	0.00e+00	0	38	0	1159725056	50	6880
2026-01-08 01:41:31.66	324.85	17.45	-39.0	-40.1	22.2	0.00e+00	88	38	0	1161822208	50	6497
2026-01-08 01:41:32.67	324.97	17.35	-38.9	-40.0	22.3	0.00e+00	0	38	0	1162870784	50	6427
2026-01-08 01:41:33.68	325.09	17.25	-38.6	-39.6	22.5	0.00e+00	0	38	0	1164967936	50	6167
2026-01-08 01:41:34.69	325.21	17.15	-38.2	-39.2	22.9	0.00e+00	0	38	0	1167065088	50	5844
2026-01-08 01:41:35.70	325.33	17.05	-37.9	-38.9	23.2	0.00e+00	0	38	0	1169162240	50	5640
2026-01-08 01:41:36.71	325.45	16.95	-37.7	-38.7	23.4	0.00e+00	39	38	0	1171259392	48	6180
2026-01-08 01:41:37.72	325.57	16.85	-37.7	-38.6	23.3	0.00e+00	0	38	0	1173356544	48	6133
2026-01-08 01:41:38.73	325.69	16.75	-37.7	-38.6	23.3	0.00e+00	92	38	0	1174405120	48	6147
2026-01-08 01:41:39.74	325.80	16.65	-37.8	-38.8	23.3	0.00e+00	0	38	0	1176502272	48	6272
2026-01-08 01:41:40.75	325.92	16.55	-37.8	-38.8	23.1	0.00e+00	0	38	0	1178599424	48	6271
2026-01-08 01:41:41.75	326.03	16.46	-37.9	-38.9	23.0	0.00e+00	0	38	0	1180696576	48	6332
2026-01-08 01:41:42.76	326.15	16.36	-38.1	-39.1	22.7	0.00e+00	0	38	0	1182793728	48	6466
2026-01-08 01:41:43.77	326.26	16.26	-38.1	-39.1	22.8	0.00e+00	0	38	0	1183842304	48	6486
2026-01-08 01:41:44.78	326.37	16.16	-38.3	-39.3	22.8	0.00e+00	0	38	0	1185939456	48	6624
2026-01-08 01:41:45.79	326.48	16.07	-38.1	-39.0	23.0	0.00e+00	82	38	0	1188036608	48	6439
2026-01-08 01:41:46.80	326.59	15.97	-38.2	-39.2	22.9	0.00e+00	0	38	0	1190133760	48	6551
2026-01-08 01:41:47.81	326.71	15.87	-38.2	-39.2	22.9	0.00e+00	0	38	0	1192230912	48	6560
2026-01-08 01:41:48.82	326.82	15.78	-37.8	-38.8	23.2	0.00e+00	0	38	0	1193279488	48	6275
2026-01-08 01:41:49.83	326.92	15.68	-37.8	-38.7	23.3	0.00e+00	0	38	0	1195376640	48	6212
2026-01-08 01:41:50.84	327.03	15.59	-37.7	-38.6	23.3	0.00e+00	0	38	0	1197473792	48	6158
2026-01-08 01:41:51.85	327.14	15.49	-37.7	-38.7	23.2	0.00e+00	0	38	0	1199570944	48	6178
