passes_logs/2026/01/08/R4.6S_Anadyr/R4.6S_Anadyr__20260108_121541_NOAA_20_JPSS-1_rec.log

#Pass ID: 20260108_121541_NOAA 20 (JPSS-1)
#Satellite: NOAA 20 (JPSS-1)
#Configuration: NOAA 20
#almurnet v.1.7.20251203
#Start time: 2026-01-08 12:15:42

#Version: 2.2.20231116
#Station: R4.6S_Anadyr
#Location: 177.4865 lon 64.73178 lat
#TLE: 1 43013U 17073A   26007.92906311  .00000097  00000+0  67117-4 0  9996
#TLE: 2 43013  98.7630 308.9434 0001752  49.5597 310.5732 14.19534161421734

#Time	Az	El	Level	Level2	SNR	BER	BlckErr	Temp	State	Recorded	gain1	gain2
2026-01-08 12:15:42.97	19.26	0.07	-48.4	-63.3	3.6	1.51e+00	0	31	0	0	60	53148
2026-01-08 12:15:43.98	19.34	0.12	-48.5	-63.7	3.6	1.51e+00	0	32	104	0	60	55101
2026-01-08 12:15:44.98	19.41	0.17	-48.5	-63.7	3.6	1.51e+00	0	32	104	0	60	55415
2026-01-08 12:15:45.99	19.49	0.22	-48.6	-63.7	3.6	1.51e+00	0	32	104	0	60	55573
2026-01-08 12:15:47.00	19.57	0.27	-48.6	-63.7	3.6	1.51e+00	0	32	104	0	60	55588
2026-01-08 12:15:48.01	19.65	0.31	-48.5	-63.8	3.6	1.51e+00	0	32	104	0	60	56096
2026-01-08 12:15:49.02	19.73	0.36	-48.6	-63.8	3.6	1.51e+00	0	32	104	0	60	56074
2026-01-08 12:15:50.03	19.81	0.41	-48.6	-63.8	3.6	1.51e+00	0	32	104	0	60	55793
2026-01-08 12:15:51.04	19.89	0.46	-48.6	-63.8	3.6	1.51e+00	0	32	104	0	60	56009
2026-01-08 12:15:52.05	19.97	0.51	-48.5	-63.7	3.6	1.51e+00	0	32	104	0	60	55544
2026-01-08 12:15:53.06	20.05	0.56	-48.5	-63.7	3.6	1.51e+00	0	32	104	0	60	55498
2026-01-08 12:15:54.07	20.13	0.60	-48.4	-63.6	3.6	1.51e+00	0	32	104	0	60	54764
2026-01-08 12:15:55.08	20.21	0.65	-48.3	-63.5	3.6	1.51e+00	0	32	104	0	60	54131
2026-01-08 12:15:56.09	20.29	0.70	-48.1	-63.4	3.6	1.51e+00	0	32	104	0	60	53168
2026-01-08 12:15:57.09	20.37	0.75	-48.0	-63.2	3.6	1.51e+00	0	32	104	0	60	52369
2026-01-08 12:15:58.11	20.45	0.80	-47.8	-62.9	3.6	1.51e+00	0	32	104	0	60	50762
2026-01-08 12:15:59.12	20.53	0.85	-47.5	-62.6	3.6	1.51e+00	0	32	104	0	60	48673
2026-01-08 12:16:00.12	20.61	0.90	-47.0	-62.1	3.6	1.51e+00	0	32	104	0	60	46128
2026-01-08 12:16:01.13	20.69	0.94	-46.9	-62.1	3.6	1.51e+00	0	32	104	0	60	46018
2026-01-08 12:16:02.15	20.78	0.99	-46.9	-62.1	3.6	1.51e+00	0	32	104	0	60	45828
2026-01-08 12:16:03.15	20.86	1.04	-46.9	-62.1	3.6	1.51e+00	0	32	104	0	60	46040
2026-01-08 12:16:04.16	20.94	1.09	-46.9	-62.1	3.6	1.51e+00	0	32	104	0	60	45954
2026-01-08 12:16:05.17	21.02	1.14	-46.9	-62.1	3.6	1.51e+00	0	32	104	0	60	45848
2026-01-08 12:16:06.18	21.11	1.19	-46.9	-62.1	3.6	1.51e+00	0	32	104	0	60	46002
2026-01-08 12:16:07.19	21.19	1.24	-46.9	-62.1	3.6	1.51e+00	0	32	104	0	60	45829
2026-01-08 12:16:08.20	21.27	1.29	-46.9	-62.1	3.6	1.51e+00	0	32	104	0	60	45809
2026-01-08 12:16:09.21	21.36	1.34	-46.9	-62.1	3.6	1.51e+00	0	32	104	0	60	45882
2026-01-08 12:16:10.22	21.44	1.39	-46.9	-62.1	3.6	1.51e+00	0	32	104	0	60	45836
2026-01-08 12:16:11.23	21.53	1.43	-46.9	-62.1	3.6	1.51e+00	0	32	104	0	60	46093
2026-01-08 12:16:12.24	21.61	1.48	-46.9	-62.1	3.6	1.51e+00	0	32	104	0	60	46042
2026-01-08 12:16:13.24	21.70	1.53	-46.9	-62.1	3.6	1.51e+00	0	32	104	0	60	45859
2026-01-08 12:16:14.26	21.78	1.58	-46.9	-62.1	3.6	1.51e+00	0	32	104	0	60	45974
2026-01-08 12:16:15.27	21.87	1.63	-46.9	-62.1	3.6	1.51e+00	0	32	104	0	60	46118
2026-01-08 12:16:16.27	21.95	1.68	-46.9	-62.1	3.6	1.51e+00	0	32	104	0	60	45928
2026-01-08 12:16:17.29	22.04	1.73	-46.9	-62.1	3.6	1.51e+00	0	32	104	0	60	46219
2026-01-08 12:16:18.29	22.12	1.78	-46.9	-62.1	3.6	1.51e+00	0	32	104	0	60	45808
2026-01-08 12:16:19.30	22.21	1.83	-46.9	-62.0	3.6	1.51e+00	0	32	104	0	60	45751
2026-01-08 12:16:20.31	22.30	1.88	-46.9	-62.0	3.6	1.51e+00	0	32	104	0	60	45335
2026-01-08 12:16:21.32	22.38	1.93	-46.9	-62.0	3.6	1.51e+00	0	32	104	0	60	45378
2026-01-08 12:16:22.33	22.47	1.98	-46.9	-62.0	3.6	1.51e+00	0	33	104	0	60	45462
2026-01-08 12:16:23.34	22.56	2.03	-46.9	-62.0	3.6	1.51e+00	0	33	104	0	60	45734
2026-01-08 12:16:24.35	22.65	2.08	-46.9	-62.0	3.6	1.51e+00	0	32	104	0	60	45741
2026-01-08 12:16:25.36	22.74	2.13	-46.9	-62.0	3.6	1.51e+00	0	32	104	0	60	45591
2026-01-08 12:16:26.37	22.82	2.18	-46.9	-62.0	3.6	1.51e+00	0	32	104	0	60	45706
2026-01-08 12:16:27.38	22.91	2.23	-46.9	-62.0	3.6	1.51e+00	0	33	104	0	60	45724
2026-01-08 12:16:28.39	23.00	2.28	-46.9	-62.0	3.6	1.51e+00	0	33	104	0	60	45691
2026-01-08 12:16:29.40	23.09	2.33	-46.9	-61.7	3.6	1.51e+00	0	33	104	0	60	44049
2026-01-08 12:16:30.41	23.18	2.38	-46.9	-61.1	3.6	1.51e+00	0	33	104	0	60	41177
2026-01-08 12:16:31.41	23.27	2.42	-46.9	-61.0	3.6	1.51e+00	0	33	104	0	60	40790
2026-01-08 12:16:32.42	23.36	2.47	-46.9	-61.4	3.6	1.51e+00	0	33	104	0	60	42226
2026-01-08 12:16:33.43	23.45	2.52	-46.8	-60.4	3.6	1.51e+00	0	33	104	0	60	37690
2026-01-08 12:16:34.45	23.54	2.58	-46.5	-56.2	5.4	8.57e-01	0	33	104	0	60	23355
2026-01-08 12:16:35.45	23.63	2.62	-45.8	-51.7	9.0	1.03e-01	0	33	0	1048576	60	13864
2026-01-08 12:16:36.46	23.72	2.67	-44.5	-48.2	13.0	1.96e-03	92	33	0	3145728	60	9329
2026-01-08 12:16:37.47	23.82	2.72	-43.2	-46.0	15.3	6.10e-06	0	33	0	5242880	60	7187
2026-01-08 12:16:38.48	23.91	2.77	-42.2	-44.3	16.8	0.00e+00	90	33	0	6291456	58	6674
2026-01-08 12:16:39.49	24.00	2.83	-41.8	-43.8	17.0	0.00e+00	45	33	0	8388608	58	6268
2026-01-08 12:16:40.50	24.09	2.88	-41.8	-43.8	17.2	0.00e+00	45	33	0	10485760	56	7032
2026-01-08 12:16:41.51	24.19	2.93	-42.3	-44.5	16.4	0.00e+00	6	33	0	11534336	56	7611
2026-01-08 12:16:42.52	24.28	2.98	-43.1	-45.8	15.0	0.00e+00	0	33	0	13631488	58	7889
2026-01-08 12:16:43.53	24.37	3.03	-44.6	-48.5	12.3	3.80e-06	42	33	0	15728640	60	9622
2026-01-08 12:16:44.54	24.47	3.08	-43.8	-46.9	14.4	8.55e-04	40	33	0	17825792	60	7969
2026-01-08 12:16:45.55	24.56	3.13	-41.7	-43.7	17.5	0.00e+00	90	32	0	19922944	58	6211
2026-01-08 12:16:46.56	24.65	3.18	-45.9	-52.6	6.5	0.00e+00	45	33	0	20971520	60	15384
2026-01-08 12:16:47.57	24.75	3.23	-46.8	-60.2	3.6	1.51e+00	0	33	104	22020096	60	36912
2026-01-08 12:16:48.58	24.84	3.28	-41.7	-43.7	17.4	7.48e-01	40	33	104	22020096	60	5518
2026-01-08 12:16:49.59	24.94	3.33	-43.3	-45.9	15.8	5.46e-04	0	33	0	23068672	60	7134
2026-01-08 12:16:50.60	25.04	3.38	-42.2	-44.3	16.8	0.00e+00	22	33	0	25165824	58	6683
2026-01-08 12:16:51.61	25.13	3.43	-42.3	-44.4	17.3	0.00e+00	7	33	0	27262976	58	6705
2026-01-08 12:16:52.62	25.23	3.48	-41.8	-43.8	17.3	0.00e+00	92	33	0	29360128	58	6258
2026-01-08 12:16:53.63	25.32	3.53	-42.0	-44.0	17.3	0.00e+00	40	33	0	30408704	58	6439
2026-01-08 12:16:54.64	25.42	3.58	-41.9	-43.9	17.2	0.00e+00	92	33	0	32505856	58	6318
2026-01-08 12:16:55.65	25.52	3.63	-42.1	-44.0	17.8	0.00e+00	0	33	0	34603008	58	6462
2026-01-08 12:16:56.66	25.62	3.68	-41.5	-43.3	18.0	0.00e+00	0	33	0	36700160	56	6657
2026-01-08 12:16:57.67	25.71	3.73	-41.6	-43.4	18.3	0.00e+00	0	33	0	38797312	56	6718
2026-01-08 12:16:58.68	25.81	3.78	-41.4	-43.1	18.0	0.00e+00	6	33	0	40894464	56	6488
2026-01-08 12:16:59.69	25.91	3.83	-41.4	-43.1	18.3	0.00e+00	92	32	0	41943040	56	6539
2026-01-08 12:17:00.70	26.01	3.89	-41.0	-42.6	18.8	0.00e+00	42	33	0	44040192	56	6164
2026-01-08 12:17:01.71	26.11	3.94	-40.8	-42.4	19.0	0.00e+00	92	32	0	46137344	56	5979
2026-01-08 12:17:02.72	26.21	3.99	-40.6	-42.1	19.2	0.00e+00	0	33	0	48234496	54	6484
2026-01-08 12:17:03.73	26.31	4.04	-40.6	-42.2	19.0	0.00e+00	0	33	0	50331648	54	6563
2026-01-08 12:17:04.74	26.41	4.09	-40.5	-42.0	19.3	0.00e+00	37	33	0	51380224	54	6433
2026-01-08 12:17:05.75	26.51	4.14	-40.6	-42.1	19.3	0.00e+00	37	33	0	53477376	54	6509
2026-01-08 12:17:06.76	26.61	4.19	-40.6	-42.1	19.4	0.00e+00	91	33	0	55574528	54	6473
2026-01-08 12:17:07.77	26.71	4.24	-40.2	-41.7	19.7	0.00e+00	43	33	0	57671680	54	6184
2026-01-08 12:17:08.78	26.81	4.29	-40.3	-41.7	19.6	0.00e+00	91	33	0	59768832	54	6208
2026-01-08 12:17:09.78	26.91	4.34	-40.3	-41.7	19.7	0.00e+00	34	33	0	60817408	54	6207
2026-01-08 12:17:10.79	27.01	4.39	-40.3	-41.8	19.6	0.00e+00	35	33	0	62914560	54	6256
2026-01-08 12:17:11.80	27.12	4.45	-40.3	-41.7	19.7	0.00e+00	35	33	0	65011712	54	6231
2026-01-08 12:17:12.81	27.22	4.50	-40.0	-41.4	20.1	0.00e+00	2	33	0	67108864	54	5976
2026-01-08 12:17:13.82	27.32	4.55	-40.0	-41.3	20.0	0.00e+00	32	33	0	69206016	54	5951
2026-01-08 12:17:14.83	27.42	4.60	-39.9	-41.3	20.2	0.00e+00	41	33	0	70254592	54	5904
2026-01-08 12:17:15.84	27.53	4.65	-39.7	-41.0	20.4	0.00e+00	92	33	0	72351744	52	6444
2026-01-08 12:17:16.84	27.63	4.70	-39.6	-40.9	20.6	0.00e+00	0	33	0	74448896	52	6358
2026-01-08 12:17:17.85	27.74	4.75	-39.7	-41.0	20.4	0.00e+00	11	33	0	76546048	52	6444
2026-01-08 12:17:18.86	27.84	4.80	-39.7	-41.0	20.4	0.00e+00	0	33	0	78643200	52	6449
2026-01-08 12:17:19.87	27.95	4.85	-39.7	-41.0	20.4	0.00e+00	2	33	0	79691776	52	6462
2026-01-08 12:17:20.88	28.05	4.91	-39.7	-41.0	20.5	0.00e+00	0	33	0	81788928	52	6459
2026-01-08 12:17:21.89	28.16	4.96	-39.8	-41.1	20.4	0.00e+00	0	33	0	83886080	52	6524
2026-01-08 12:17:22.90	28.26	5.01	-39.7	-41.0	20.5	0.00e+00	92	33	0	85983232	52	6416
2026-01-08 12:17:23.91	28.37	5.06	-39.7	-41.0	20.5	0.00e+00	0	33	0	88080384	52	6437
2026-01-08 12:17:24.92	28.48	5.11	-39.7	-41.0	20.5	0.00e+00	92	33	0	89128960	52	6402
2026-01-08 12:17:25.93	28.58	5.16	-39.7	-41.0	20.4	0.00e+00	47	33	0	91226112	52	6413
2026-01-08 12:17:26.94	28.69	5.21	-39.8	-41.1	20.4	0.00e+00	44	33	0	93323264	52	6467
2026-01-08 12:17:27.95	28.80	5.27	-39.8	-41.1	20.4	0.00e+00	37	33	0	95420416	52	6476
2026-01-08 12:17:28.96	28.91	5.32	-39.7	-40.9	20.6	0.00e+00	45	33	0	97517568	52	6366
2026-01-08 12:17:29.97	29.02	5.37	-39.8	-41.0	20.5	0.00e+00	58	33	0	98566144	52	6464
2026-01-08 12:17:30.97	29.13	5.42	-39.6	-40.8	20.6	0.00e+00	3	33	0	100663296	52	6298
2026-01-08 12:17:31.98	29.24	5.47	-39.5	-40.8	20.8	0.00e+00	92	33	0	102760448	52	6266
2026-01-08 12:17:32.99	29.34	5.52	-39.6	-40.8	20.1	0.00e+00	0	33	0	104857600	52	6299
2026-01-08 12:17:34.00	29.46	5.57	-39.6	-40.9	20.2	0.00e+00	37	33	0	106954752	52	6358
2026-01-08 12:17:35.01	29.57	5.63	-39.6	-40.8	20.5	0.00e+00	36	33	0	109051904	52	6309
2026-01-08 12:17:36.02	29.68	5.68	-39.5	-40.7	20.8	0.00e+00	35	33	0	110100480	52	6225
2026-01-08 12:17:37.03	29.79	5.73	-39.5	-40.7	20.8	0.00e+00	33	33	0	112197632	52	6193
2026-01-08 12:17:38.04	29.90	5.78	-39.4	-40.6	21.0	0.00e+00	0	33	0	114294784	52	6127
2026-01-08 12:17:39.05	30.01	5.83	-39.4	-40.6	20.9	0.00e+00	90	33	0	116391936	52	6143
2026-01-08 12:17:40.06	30.12	5.88	-39.4	-40.6	21.0	0.00e+00	0	33	0	118489088	52	6158
2026-01-08 12:17:41.07	30.24	5.94	-39.4	-40.7	20.9	0.00e+00	20	33	0	119537664	52	6190
2026-01-08 12:17:42.08	30.35	5.99	-39.3	-40.5	21.1	0.00e+00	0	33	0	121634816	52	6041
2026-01-08 12:17:43.09	30.46	6.04	-39.4	-40.6	21.0	0.00e+00	0	33	0	123731968	52	6111
2026-01-08 12:17:44.10	30.58	6.09	-39.3	-40.4	21.2	0.00e+00	0	33	0	125829120	52	6032
2026-01-08 12:17:45.11	30.69	6.14	-39.2	-40.4	21.2	0.00e+00	0	33	0	127926272	52	5966
2026-01-08 12:17:46.12	30.81	6.19	-39.3	-40.5	21.1	0.00e+00	91	33	0	128974848	52	6062
2026-01-08 12:17:47.13	30.92	6.25	-39.0	-40.2	21.4	0.00e+00	0	33	0	131072000	52	5857
2026-01-08 12:17:48.14	31.04	6.30	-39.0	-40.1	21.4	0.00e+00	91	33	0	133169152	52	5795
2026-01-08 12:17:49.14	31.15	6.35	-38.9	-40.0	21.5	0.00e+00	48	33	0	135266304	52	5759
2026-01-08 12:17:50.15	31.27	6.40	-38.9	-40.0	21.6	0.00e+00	34	33	0	137363456	52	5710
2026-01-08 12:17:51.16	31.39	6.45	-38.8	-39.9	21.6	0.00e+00	47	33	0	138412032	52	5690
2026-01-08 12:17:52.17	31.50	6.50	-38.9	-40.0	21.6	0.00e+00	34	33	0	140509184	52	5708
2026-01-08 12:17:53.18	31.62	6.56	-38.9	-40.0	21.6	0.00e+00	91	33	0	142606336	52	5731
2026-01-08 12:17:54.19	31.74	6.61	-38.8	-39.9	21.7	0.00e+00	0	33	0	144703488	52	5686
2026-01-08 12:17:55.20	31.86	6.66	-38.9	-40.0	21.7	0.00e+00	92	33	0	146800640	52	5699
2026-01-08 12:17:56.21	31.98	6.71	-38.7	-39.9	21.7	0.00e+00	40	33	0	147849216	50	6318
2026-01-08 12:17:57.22	32.09	6.76	-38.8	-39.9	21.7	0.00e+00	52	33	0	149946368	50	6332
2026-01-08 12:17:58.23	32.21	6.81	-38.8	-39.9	21.6	0.00e+00	0	33	0	152043520	50	6373
2026-01-08 12:17:59.24	32.33	6.87	-38.7	-39.8	21.7	0.00e+00	0	33	0	154140672	50	6304
2026-01-08 12:18:00.25	32.45	6.92	-38.8	-39.9	21.8	0.00e+00	0	33	0	156237824	50	6320
2026-01-08 12:18:01.26	32.58	6.97	-38.8	-39.9	21.7	0.00e+00	0	33	0	157286400	50	6349
2026-01-08 12:18:02.27	32.70	7.02	-38.7	-39.8	21.8	0.00e+00	92	33	0	159383552	50	6281
2026-01-08 12:18:03.27	32.82	7.07	-38.8	-39.9	21.8	0.00e+00	0	33	0	161480704	50	6324
2026-01-08 12:18:04.28	32.94	7.12	-38.8	-39.9	21.8	0.00e+00	11	33	0	163577856	50	6341
2026-01-08 12:18:05.29	33.06	7.18	-38.8	-39.9	21.7	0.00e+00	47	33	0	165675008	50	6377
2026-01-08 12:18:06.30	33.18	7.23	-38.7	-39.8	21.8	0.00e+00	0	33	0	166723584	50	6277
2026-01-08 12:18:07.30	33.31	7.28	-38.7	-39.8	21.8	0.00e+00	0	33	0	168820736	50	6264
2026-01-08 12:18:08.31	33.43	7.33	-38.8	-39.9	21.8	0.00e+00	0	33	0	170917888	50	6355
2026-01-08 12:18:09.32	33.55	7.38	-38.7	-39.8	21.9	0.00e+00	90	33	0	173015040	50	6316
2026-01-08 12:18:10.33	33.68	7.43	-38.8	-39.9	21.7	0.00e+00	2	33	0	175112192	50	6390
2026-01-08 12:18:11.34	33.80	7.49	-38.9	-40.0	21.7	0.00e+00	89	33	0	177209344	50	6433
2026-01-08 12:18:12.35	33.93	7.54	-38.9	-40.0	21.6	0.00e+00	41	33	0	178257920	50	6443
2026-01-08 12:18:13.36	34.06	7.59	-38.9	-40.0	21.6	0.00e+00	35	33	0	180355072	50	6430
2026-01-08 12:18:14.37	34.18	7.64	-39.1	-40.2	21.5	0.00e+00	45	33	0	182452224	50	6573
2026-01-08 12:18:15.37	34.31	7.69	-38.9	-40.0	21.7	0.00e+00	47	33	0	184549376	50	6428
2026-01-08 12:18:16.38	34.43	7.74	-38.9	-40.0	21.6	0.00e+00	92	33	0	186646528	50	6439
2026-01-08 12:18:17.39	34.56	7.80	-38.9	-40.0	21.7	0.00e+00	35	33	0	187695104	50	6425
2026-01-08 12:18:18.40	34.69	7.85	-38.9	-40.0	21.7	0.00e+00	91	33	0	189792256	50	6433
2026-01-08 12:18:19.41	34.82	7.90	-38.8	-39.9	21.7	0.00e+00	5	33	0	191889408	50	6383
2026-01-08 12:18:20.41	34.95	7.95	-38.8	-39.9	21.8	0.00e+00	6	33	0	193986560	50	6379
2026-01-08 12:18:21.42	35.07	8.00	-38.7	-39.8	21.9	0.00e+00	7	33	0	195035136	50	6257
2026-01-08 12:18:22.43	35.20	8.05	-38.7	-39.8	21.8	0.00e+00	0	33	0	197132288	50	6286
2026-01-08 12:18:23.44	35.33	8.10	-38.7	-39.8	21.9	0.00e+00	2	33	0	199229440	50	6268
2026-01-08 12:18:24.45	35.47	8.16	-38.7	-39.8	21.9	0.00e+00	0	33	0	201326592	50	6285
2026-01-08 12:18:25.46	35.60	8.21	-38.7	-39.8	21.9	0.00e+00	92	33	0	203423744	50	6270
2026-01-08 12:18:26.47	35.73	8.26	-38.7	-39.8	21.9	0.00e+00	0	33	0	205520896	50	6260
2026-01-08 12:18:27.48	35.86	8.31	-38.6	-39.7	21.9	0.00e+00	0	33	0	206569472	50	6220
2026-01-08 12:18:28.49	35.99	8.36	-38.6	-39.6	22.1	0.00e+00	0	33	0	208666624	50	6156
2026-01-08 12:18:29.50	36.12	8.41	-38.5	-39.5	22.2	0.00e+00	0	33	0	210763776	50	6092
2026-01-08 12:18:30.51	36.26	8.47	-38.6	-39.6	22.1	0.00e+00	0	33	0	212860928	50	6141
2026-01-08 12:18:31.52	36.39	8.52	-38.6	-39.6	22.0	0.00e+00	46	33	0	214958080	50	6161
2026-01-08 12:18:32.53	36.53	8.57	-38.5	-39.5	22.2	0.00e+00	92	33	0	216006656	50	6101
2026-01-08 12:18:33.54	36.66	8.62	-38.3	-39.3	22.4	0.00e+00	6	33	0	218103808	50	5944
2026-01-08 12:18:34.55	36.80	8.67	-38.2	-39.2	22.5	0.00e+00	92	33	0	220200960	50	5893
2026-01-08 12:18:35.56	36.93	8.72	-38.3	-39.3	22.4	0.00e+00	44	33	0	222298112	50	5903
2026-01-08 12:18:36.56	37.07	8.77	-38.1	-39.1	22.6	0.00e+00	46	33	0	224395264	50	5811
2026-01-08 12:18:37.57	37.20	8.82	-38.1	-39.0	22.7	0.00e+00	47	33	0	225443840	50	5756
2026-01-08 12:18:38.58	37.34	8.88	-38.0	-39.0	22.6	0.00e+00	40	33	0	227540992	50	5758
2026-01-08 12:18:39.59	37.48	8.93	-38.0	-39.0	22.7	0.00e+00	27	33	0	229638144	50	5729
2026-01-08 12:18:40.60	37.61	8.98	-38.0	-39.0	22.8	0.00e+00	7	33	0	231735296	50	5699
2026-01-08 12:18:41.61	37.75	9.03	-37.9	-38.9	22.8	0.00e+00	92	33	0	233832448	50	5659
2026-01-08 12:18:42.62	37.89	9.08	-37.9	-38.9	22.9	0.00e+00	6	33	0	234881024	50	5640
2026-01-08 12:18:43.62	38.03	9.13	-37.9	-38.8	22.9	0.00e+00	41	33	0	236978176	50	5620
2026-01-08 12:18:44.63	38.17	9.18	-37.9	-38.9	22.8	0.00e+00	0	33	0	239075328	50	5667
2026-01-08 12:18:45.64	38.31	9.23	-37.9	-38.8	22.9	0.00e+00	6	33	0	241172480	50	5623
2026-01-08 12:18:46.65	38.45	9.28	-38.0	-39.0	22.8	0.00e+00	2	33	0	243269632	50	5710
2026-01-08 12:18:47.66	38.59	9.33	-37.7	-38.6	23.0	0.00e+00	7	33	0	244318208	48	6171
2026-01-08 12:18:48.67	38.73	9.38	-37.7	-38.7	23.0	0.00e+00	90	33	0	246415360	48	6216
2026-01-08 12:18:49.68	38.88	9.44	-37.7	-38.7	23.0	0.00e+00	47	33	0	248512512	48	6193
2026-01-08 12:18:50.69	39.02	9.49	-37.5	-38.4	23.2	0.00e+00	92	33	0	250609664	48	6025
2026-01-08 12:18:51.70	39.16	9.54	-37.6	-38.5	23.2	0.00e+00	0	33	0	252706816	48	6097
2026-01-08 12:18:52.71	39.30	9.59	-37.5	-38.4	23.2	0.00e+00	47	33	0	253755392	48	5999
2026-01-08 12:18:53.72	39.45	9.64	-37.5	-38.4	23.2	0.00e+00	30	33	0	255852544	48	6004
2026-01-08 12:18:54.72	39.59	9.69	-37.6	-38.6	23.2	0.00e+00	48	33	0	257949696	48	6118
2026-01-08 12:18:55.73	39.74	9.74	-37.5	-38.5	23.2	0.00e+00	91	33	0	260046848	48	6037
2026-01-08 12:18:56.74	39.88	9.79	-37.6	-38.5	22.9	0.00e+00	47	33	0	262144000	48	6080
2026-01-08 12:18:57.75	40.03	9.84	-37.6	-38.6	23.1	0.00e+00	90	33	0	263192576	48	6124
2026-01-08 12:18:58.75	40.17	9.89	-37.6	-38.6	23.1	0.00e+00	47	33	0	265289728	48	6120
2026-01-08 12:18:59.76	40.32	9.94	-37.7	-38.7	23.0	0.00e+00	31	33	0	267386880	48	6203
2026-01-08 12:19:00.77	40.47	9.99	-37.6	-38.6	23.1	0.00e+00	49	33	0	269484032	48	6122
2026-01-08 12:19:01.78	40.62	10.04	-37.8	-38.7	23.0	0.00e+00	48	33	0	271581184	48	6222
2026-01-08 12:19:02.79	40.76	10.09	-37.7	-38.7	23.0	0.00e+00	28	33	0	273678336	48	6181
2026-01-08 12:19:03.80	40.91	10.14	-37.7	-38.6	23.2	0.00e+00	0	33	0	274726912	48	6161
2026-01-08 12:19:04.81	41.06	10.19	-37.9	-38.8	23.0	0.00e+00	92	33	0	276824064	48	6317
2026-01-08 12:19:05.82	41.21	10.24	-37.5	-38.5	23.1	0.00e+00	33	33	0	278921216	48	6035
2026-01-08 12:19:06.83	41.36	10.29	-37.7	-38.6	23.1	0.00e+00	58	33	0	281018368	48	6135
2026-01-08 12:19:07.84	41.51	10.34	-37.7	-38.6	23.0	0.00e+00	2	33	0	283115520	48	6157
2026-01-08 12:19:08.85	41.67	10.39	-37.6	-38.6	23.1	0.00e+00	0	33	0	284164096	48	6125
2026-01-08 12:19:09.86	41.82	10.44	-37.6	-38.5	23.3	0.00e+00	0	33	0	286261248	48	6060
2026-01-08 12:19:10.87	41.97	10.49	-37.6	-38.5	23.2	0.00e+00	0	33	0	288358400	48	6092
2026-01-08 12:19:11.88	42.12	10.54	-37.7	-38.6	23.1	0.00e+00	92	33	0	290455552	48	6165
2026-01-08 12:19:12.89	42.28	10.59	-37.7	-38.7	23.0	0.00e+00	42	33	0	292552704	48	6204
2026-01-08 12:19:13.90	42.43	10.64	-37.7	-38.6	23.2	0.00e+00	93	33	0	293601280	48	6136
2026-01-08 12:19:14.91	42.58	10.68	-37.7	-38.7	23.0	0.00e+00	0	33	0	295698432	48	6203
2026-01-08 12:19:15.91	42.74	10.73	-37.6	-38.6	23.2	0.00e+00	0	33	0	297795584	48	6114
2026-01-08 12:19:16.92	42.89	10.78	-37.6	-38.5	23.1	0.00e+00	0	33	0	299892736	48	6068
2026-01-08 12:19:17.93	43.05	10.83	-37.5	-38.4	23.3	0.00e+00	0	33	0	301989888	48	6010
2026-01-08 12:19:18.94	43.20	10.88	-37.7	-38.6	23.2	0.00e+00	92	33	0	303038464	48	6131
2026-01-08 12:19:19.95	43.36	10.93	-37.5	-38.4	23.4	0.00e+00	33	33	0	305135616	48	5980
2026-01-08 12:19:20.96	43.52	10.98	-37.5	-38.5	23.3	0.00e+00	90	33	0	307232768	48	6045
2026-01-08 12:19:21.97	43.68	11.03	-37.5	-38.4	23.3	0.00e+00	46	33	0	309329920	48	6012
2026-01-08 12:19:22.98	43.84	11.07	-37.6	-38.5	23.2	0.00e+00	0	33	0	311427072	48	6076
2026-01-08 12:19:23.98	43.99	11.12	-37.7	-38.6	23.1	0.00e+00	0	33	0	312475648	48	6153
2026-01-08 12:19:24.99	44.15	11.17	-37.8	-38.8	23.1	0.00e+00	32	33	0	314572800	48	6252
2026-01-08 12:19:26.00	44.31	11.22	-37.7	-38.6	23.1	0.00e+00	92	33	0	316669952	48	6163
2026-01-08 12:19:27.01	44.47	11.27	-37.7	-38.7	23.1	0.00e+00	0	33	0	318767104	48	6174
2026-01-08 12:19:28.02	44.63	11.31	-37.8	-38.7	23.1	0.00e+00	92	33	0	320864256	48	6215
2026-01-08 12:19:29.03	44.80	11.36	-37.7	-38.7	23.1	0.00e+00	34	33	0	321912832	48	6200
2026-01-08 12:19:30.04	44.96	11.41	-37.7	-38.7	23.1	0.00e+00	90	33	0	324009984	48	6202
2026-01-08 12:19:31.05	45.12	11.46	-37.6	-38.5	23.3	0.00e+00	0	33	0	326107136	48	6103
2026-01-08 12:19:32.05	45.28	11.50	-37.7	-38.7	23.2	0.00e+00	0	33	0	328204288	48	6175
2026-01-08 12:19:33.07	45.45	11.55	-37.7	-38.7	23.1	0.00e+00	0	33	0	330301440	48	6180
2026-01-08 12:19:34.07	45.61	11.60	-37.8	-38.7	23.1	0.00e+00	0	33	0	331350016	48	6236
2026-01-08 12:19:35.08	45.77	11.65	-37.8	-38.7	23.0	0.00e+00	92	33	0	333447168	48	6242
2026-01-08 12:19:36.09	45.94	11.69	-37.9	-38.9	22.9	0.00e+00	0	33	0	335544320	48	6337
2026-01-08 12:19:37.10	46.10	11.74	-37.9	-38.9	22.9	0.00e+00	92	33	0	337641472	48	6327
2026-01-08 12:19:38.11	46.27	11.79	-38.0	-39.0	22.8	0.00e+00	0	33	0	339738624	48	6411
2026-01-08 12:19:39.11	46.43	11.83	-38.1	-39.0	22.8	0.00e+00	2	33	0	340787200	48	6464
2026-01-08 12:19:40.12	46.60	11.88	-38.1	-39.1	22.8	0.00e+00	0	33	0	342884352	48	6472
2026-01-08 12:19:41.13	46.77	11.93	-38.1	-39.1	22.8	0.00e+00	37	33	0	344981504	48	6505
2026-01-08 12:19:42.14	46.94	11.97	-38.3	-39.3	22.6	0.00e+00	92	33	0	347078656	48	6638
2026-01-08 12:19:43.15	47.11	12.02	-38.2	-39.2	22.7	0.00e+00	36	33	0	349175808	48	6589
2026-01-08 12:19:44.16	47.28	12.07	-38.3	-39.3	22.5	0.00e+00	92	33	0	350224384	48	6683
2026-01-08 12:19:45.17	47.44	12.11	-38.3	-39.3	22.7	0.00e+00	44	33	0	352321536	48	6636
2026-01-08 12:19:46.17	47.61	12.16	-38.3	-39.3	22.6	0.00e+00	40	33	0	354418688	48	6684
2026-01-08 12:19:47.18	47.78	12.20	-38.4	-39.4	22.5	0.00e+00	0	33	0	356515840	48	6747
2026-01-08 12:19:48.19	47.96	12.25	-38.4	-39.4	22.5	0.00e+00	33	33	0	358612992	48	6746
2026-01-08 12:19:49.20	48.13	12.29	-38.5	-39.6	22.2	0.00e+00	74	33	0	359661568	48	6869
2026-01-08 12:19:50.21	48.30	12.34	-38.7	-39.7	22.2	0.00e+00	32	33	0	361758720	48	6978
2026-01-08 12:19:51.22	48.47	12.38	-38.9	-39.9	22.0	0.00e+00	92	33	0	363855872	50	6381
2026-01-08 12:19:52.23	48.64	12.43	-38.9	-40.0	22.0	0.00e+00	0	33	0	365953024	50	6392
2026-01-08 12:19:53.24	48.82	12.47	-38.9	-40.0	21.9	0.00e+00	92	33	0	368050176	50	6426
2026-01-08 12:19:54.25	48.99	12.52	-39.0	-40.1	21.8	0.00e+00	2	33	0	370147328	50	6524
2026-01-08 12:19:55.26	49.17	12.56	-39.0	-40.1	21.6	0.00e+00	0	33	0	371195904	50	6511
2026-01-08 12:19:56.27	49.34	12.61	-39.1	-40.2	21.5	0.00e+00	0	33	0	373293056	50	6555
2026-01-08 12:19:57.28	49.52	12.65	-39.2	-40.3	21.7	0.00e+00	0	33	0	375390208	50	6616
2026-01-08 12:19:58.29	49.70	12.69	-39.1	-40.2	21.9	0.00e+00	92	33	0	377487360	50	6568
2026-01-08 12:19:59.30	49.87	12.74	-39.0	-40.0	22.0	0.00e+00	0	33	0	379584512	50	6455
2026-01-08 12:20:00.30	50.05	12.78	-39.0	-40.1	21.9	0.00e+00	90	33	0	380633088	50	6478
2026-01-08 12:20:01.31	50.23	12.82	-39.2	-40.3	21.7	0.00e+00	47	33	0	382730240	50	6633
2026-01-08 12:20:02.32	50.40	12.87	-39.1	-40.2	21.8	0.00e+00	0	33	0	384827392	50	6579
2026-01-08 12:20:03.33	50.58	12.91	-39.2	-40.3	21.7	0.00e+00	0	33	0	386924544	50	6640
2026-01-08 12:20:04.34	50.76	12.95	-39.3	-40.5	21.5	0.00e+00	33	33	0	389021696	50	6775
2026-01-08 12:20:05.35	50.94	13.00	-39.3	-40.4	21.6	0.00e+00	48	33	0	390070272	50	6751
2026-01-08 12:20:06.36	51.12	13.04	-39.3	-40.5	21.6	0.00e+00	35	33	0	392167424	50	6791
2026-01-08 12:20:07.37	51.30	13.08	-39.4	-40.5	21.5	0.00e+00	90	33	0	394264576	50	6810
2026-01-08 12:20:08.38	51.48	13.12	-39.3	-40.4	21.6	0.00e+00	38	33	0	396361728	50	6741
2026-01-08 12:20:09.39	51.67	13.17	-39.4	-40.5	21.5	0.00e+00	89	33	0	398458880	50	6805
2026-01-08 12:20:10.40	51.85	13.21	-39.3	-40.4	21.6	0.00e+00	0	33	0	399507456	50	6746
2026-01-08 12:20:11.41	52.03	13.25	-39.3	-40.4	21.6	0.00e+00	6	33	0	401604608	50	6736
2026-01-08 12:20:12.42	52.22	13.29	-39.3	-40.4	21.4	0.00e+00	50	33	0	403701760	50	6764
2026-01-08 12:20:13.43	52.40	13.33	-39.3	-40.3	21.6	0.00e+00	5	33	0	405798912	50	6691
2026-01-08 12:20:14.43	52.58	13.37	-39.3	-40.4	21.6	0.00e+00	91	33	0	407896064	50	6731
2026-01-08 12:20:15.44	52.77	13.41	-39.2	-40.3	21.7	0.00e+00	5	33	0	408944640	50	6687
2026-01-08 12:20:16.45	52.95	13.45	-39.4	-40.5	21.6	0.00e+00	38	33	0	411041792	50	6786
2026-01-08 12:20:17.46	53.14	13.49	-39.4	-40.6	21.4	0.00e+00	0	33	0	413138944	50	6873
2026-01-08 12:20:18.47	53.32	13.53	-39.7	-40.8	21.3	0.00e+00	7	33	0	415236096	50	7056
2026-01-08 12:20:19.48	53.51	13.57	-39.8	-41.0	21.0	0.00e+00	0	33	0	417333248	50	7182
2026-01-08 12:20:20.49	53.70	13.61	-39.8	-41.0	21.1	0.00e+00	48	33	0	418381824	52	6429
2026-01-08 12:20:21.50	53.89	13.65	-39.9	-41.1	21.0	0.00e+00	92	33	0	420478976	52	6493
2026-01-08 12:20:22.51	54.08	13.69	-39.9	-41.1	21.0	0.00e+00	48	33	0	422576128	52	6475
2026-01-08 12:20:23.52	54.26	13.73	-40.0	-41.2	20.9	0.00e+00	92	33	0	424673280	52	6612
2026-01-08 12:20:24.53	54.45	13.77	-39.8	-41.0	21.1	0.00e+00	49	33	0	426770432	52	6450
2026-01-08 12:20:25.54	54.64	13.81	-39.8	-41.0	21.2	0.00e+00	0	33	0	427819008	52	6400
2026-01-08 12:20:26.55	54.83	13.85	-39.6	-40.8	21.3	0.00e+00	49	33	0	429916160	52	6272
2026-01-08 12:20:27.56	55.02	13.89	-39.8	-41.0	21.0	0.00e+00	40	33	0	432013312	52	6408
2026-01-08 12:20:28.57	55.22	13.92	-39.5	-40.6	21.4	0.00e+00	40	33	0	434110464	52	6148
2026-01-08 12:20:29.58	55.41	13.96	-39.2	-40.3	21.8	0.00e+00	47	33	0	436207616	52	5913
2026-01-08 12:20:30.59	55.60	14.00	-39.2	-40.2	21.9	0.00e+00	92	33	0	438304768	52	5895
2026-01-08 12:20:31.59	55.79	14.04	-39.2	-40.3	21.8	0.00e+00	40	33	0	439353344	52	5921
2026-01-08 12:20:32.60	55.98	14.07	-39.1	-40.2	21.8	0.00e+00	92	33	0	441450496	52	5882
2026-01-08 12:20:33.61	56.18	14.11	-39.2	-40.3	21.8	0.00e+00	7	33	0	443547648	52	5912
2026-01-08 12:20:34.62	56.37	14.15	-39.2	-40.3	21.9	0.00e+00	6	33	0	445644800	52	5906
2026-01-08 12:20:35.63	56.57	14.18	-39.1	-40.2	21.9	0.00e+00	40	33	0	446693376	52	5883
2026-01-08 12:20:36.64	56.76	14.22	-39.2	-40.3	21.9	0.00e+00	6	33	0	448790528	52	5913
2026-01-08 12:20:37.65	56.96	14.26	-39.2	-40.3	21.7	0.00e+00	92	33	0	450887680	52	5940
2026-01-08 12:20:38.66	57.15	14.29	-39.1	-40.2	21.9	0.00e+00	0	33	0	452984832	52	5882
2026-01-08 12:20:39.67	57.35	14.33	-39.0	-40.0	22.0	0.00e+00	91	33	0	455081984	52	5744
2026-01-08 12:20:40.68	57.55	14.36	-38.9	-39.9	22.1	0.00e+00	7	33	0	456130560	52	5683
2026-01-08 12:20:41.69	57.74	14.40	-38.9	-40.0	22.0	0.00e+00	43	33	0	458227712	52	5720
2026-01-08 12:20:42.70	57.94	14.43	-38.4	-39.4	21.9	0.00e+00	0	33	0	460324864	50	6028
2026-01-08 12:20:43.71	58.14	14.47	-38.4	-39.4	22.6	0.00e+00	0	33	0	462422016	50	5970
2026-01-08 12:20:44.72	58.34	14.50	-38.1	-39.0	22.9	0.00e+00	92	33	0	464519168	50	5737
2026-01-08 12:20:45.72	58.54	14.53	-37.9	-38.9	23.1	0.00e+00	0	33	0	466616320	50	5631
2026-01-08 12:20:46.73	58.73	14.57	-37.7	-38.7	23.2	0.00e+00	91	33	0	467664896	50	5530
2026-01-08 12:20:47.74	58.93	14.60	-37.8	-38.8	23.2	0.00e+00	45	33	0	469762048	48	6267
2026-01-08 12:20:48.75	59.14	14.63	-37.7	-38.6	23.4	0.00e+00	50	33	0	471859200	48	6122
2026-01-08 12:20:49.76	59.34	14.67	-37.8	-38.7	23.2	0.00e+00	32	33	0	473956352	48	6205
2026-01-08 12:20:50.77	59.54	14.70	-37.9	-38.8	23.1	0.00e+00	49	33	0	476053504	48	6304
2026-01-08 12:20:51.78	59.74	14.73	-37.7	-38.7	23.2	0.00e+00	33	33	0	477102080	48	6186
2026-01-08 12:20:52.79	59.94	14.76	-37.8	-38.8	23.1	0.00e+00	4	33	0	479199232	48	6257
2026-01-08 12:20:53.80	60.14	14.79	-37.8	-38.8	23.1	0.00e+00	92	33	0	481296384	48	6260
2026-01-08 12:20:54.81	60.35	14.82	-37.7	-38.7	23.3	0.00e+00	33	33	0	483393536	48	6176
2026-01-08 12:20:55.81	60.55	14.86	-37.8	-38.7	23.1	0.00e+00	91	33	0	485490688	48	6228
2026-01-08 12:20:56.82	60.75	14.89	-37.7	-38.6	23.2	0.00e+00	31	33	0	486539264	48	6172
2026-01-08 12:20:57.83	60.96	14.92	-37.8	-38.8	23.1	0.00e+00	3	33	0	488636416	48	6262
2026-01-08 12:20:58.84	61.16	14.95	-37.8	-38.7	23.2	0.00e+00	0	33	0	490733568	48	6219
2026-01-08 12:20:59.85	61.37	14.98	-37.9	-38.8	23.1	0.00e+00	0	33	0	492830720	48	6279
2026-01-08 12:21:00.86	61.57	15.01	-37.8	-38.7	23.2	0.00e+00	90	33	0	494927872	48	6240
2026-01-08 12:21:01.87	61.78	15.03	-37.8	-38.7	23.2	0.00e+00	0	33	0	495976448	48	6202
2026-01-08 12:21:02.88	61.98	15.06	-37.7	-38.7	23.2	0.00e+00	91	33	0	498073600	48	6178
2026-01-08 12:21:03.89	62.19	15.09	-37.8	-38.7	23.2	0.00e+00	0	33	0	500170752	48	6217
2026-01-08 12:21:04.90	62.40	15.12	-37.9	-38.8	23.1	0.00e+00	0	33	0	502267904	48	6290
2026-01-08 12:21:05.91	62.60	15.15	-38.0	-38.9	23.0	0.00e+00	30	33	0	504365056	48	6366
2026-01-08 12:21:06.92	62.81	15.18	-38.0	-38.9	23.0	0.00e+00	0	33	0	505413632	48	6379
2026-01-08 12:21:07.93	63.02	15.20	-38.2	-39.1	22.8	0.00e+00	92	33	0	507510784	48	6525
2026-01-08 12:21:08.94	63.23	15.23	-38.3	-39.3	22.7	0.00e+00	43	33	0	509607936	48	6643
2026-01-08 12:21:09.95	63.44	15.26	-38.3	-39.3	22.6	0.00e+00	92	33	0	511705088	48	6639
2026-01-08 12:21:10.95	63.65	15.28	-38.4	-39.4	22.3	0.00e+00	39	33	0	513802240	48	6710
2026-01-08 12:21:11.96	63.85	15.31	-38.3	-39.3	22.6	0.00e+00	43	33	0	514850816	48	6666
2026-01-08 12:21:12.97	64.06	15.33	-38.5	-39.5	22.5	0.00e+00	43	33	0	516947968	48	6793
2026-01-08 12:21:13.98	64.28	15.36	-38.5	-39.5	22.4	0.00e+00	38	33	0	519045120	48	6821
2026-01-08 12:21:14.99	64.49	15.38	-38.5	-39.5	22.4	0.00e+00	4	33	0	521142272	48	6842
2026-01-08 12:21:16.00	64.70	15.41	-38.5	-39.5	22.4	0.00e+00	2	33	0	523239424	48	6842
2026-01-08 12:21:17.01	64.91	15.43	-38.6	-39.6	22.4	0.00e+00	90	33	0	524288000	48	6881
2026-01-08 12:21:18.02	65.12	15.46	-38.6	-39.6	22.3	0.00e+00	0	33	0	526385152	48	6925
2026-01-08 12:21:19.03	65.33	15.48	-38.6	-39.6	22.4	0.00e+00	92	33	0	528482304	48	6923
2026-01-08 12:21:20.03	65.54	15.50	-38.5	-39.5	22.5	0.00e+00	0	33	0	530579456	48	6834
2026-01-08 12:21:21.04	65.75	15.53	-38.6	-39.6	22.5	0.00e+00	0	33	0	532676608	48	6871
2026-01-08 12:21:22.05	65.97	15.55	-38.6	-39.6	22.4	0.00e+00	0	33	0	534773760	48	6924
2026-01-08 12:21:23.06	66.18	15.57	-38.5	-39.5	22.4	0.00e+00	0	33	0	535822336	48	6827
2026-01-08 12:21:24.07	66.39	15.59	-38.5	-39.5	22.5	0.00e+00	92	33	0	537919488	48	6804
2026-01-08 12:21:25.08	66.61	15.61	-38.6	-39.6	22.5	0.00e+00	49	33	0	540016640	48	6887
2026-01-08 12:21:26.09	66.82	15.64	-38.3	-39.3	22.6	0.00e+00	92	33	0	542113792	48	6654
2026-01-08 12:21:27.10	67.04	15.66	-38.3	-39.2	22.7	0.00e+00	49	33	0	544210944	48	6607
2026-01-08 12:21:28.11	67.25	15.68	-38.3	-39.3	22.7	0.00e+00	49	33	0	545259520	48	6622
2026-01-08 12:21:29.12	67.47	15.70	-38.2	-39.2	22.7	0.00e+00	0	33	0	547356672	48	6589
2026-01-08 12:21:30.13	67.68	15.72	-38.4	-39.4	22.5	0.00e+00	0	33	0	549453824	48	6766
2026-01-08 12:21:31.14	67.90	15.74	-38.4	-39.4	22.5	0.00e+00	92	33	0	551550976	48	6759
2026-01-08 12:21:32.15	68.11	15.75	-38.4	-39.4	22.6	0.00e+00	31	33	0	553648128	48	6755
2026-01-08 12:21:33.16	68.33	15.77	-38.5	-39.5	22.4	0.00e+00	91	33	0	554696704	48	6837
2026-01-08 12:21:34.17	68.55	15.79	-38.3	-39.3	22.7	0.00e+00	31	33	0	556793856	48	6668
2026-01-08 12:21:35.18	68.76	15.81	-38.2	-39.2	22.8	0.00e+00	32	33	0	558891008	48	6580
2026-01-08 12:21:36.19	68.98	15.83	-38.1	-39.2	22.7	0.00e+00	31	33	0	560988160	48	6543
2026-01-08 12:21:37.19	69.20	15.84	-38.2	-39.2	22.7	0.00e+00	32	33	0	563085312	48	6588
2026-01-08 12:21:38.20	69.41	15.86	-38.0	-39.0	22.9	0.00e+00	42	33	0	564133888	48	6418
2026-01-08 12:21:39.21	69.63	15.88	-38.0	-39.0	22.9	0.00e+00	0	33	0	566231040	48	6437
2026-01-08 12:21:40.22	69.85	15.89	-38.1	-39.1	22.8	0.00e+00	91	33	0	568328192	48	6510
2026-01-08 12:21:41.23	70.07	15.91	-38.2	-39.2	22.8	0.00e+00	0	33	0	570425344	48	6576
2026-01-08 12:21:42.24	70.29	15.92	-38.2	-39.2	22.8	0.00e+00	40	33	0	572522496	48	6582
2026-01-08 12:21:43.25	70.50	15.94	-38.1	-39.0	22.9	0.00e+00	0	33	0	573571072	48	6455
2026-01-08 12:21:44.26	70.72	15.95	-38.1	-39.1	22.9	0.00e+00	0	33	0	575668224	48	6478
2026-01-08 12:21:45.26	70.94	15.97	-38.1	-39.1	22.9	0.00e+00	0	33	0	577765376	48	6497
2026-01-08 12:21:46.27	71.16	15.98	-38.2	-39.2	22.8	0.00e+00	0	33	0	579862528	48	6557
2026-01-08 12:21:47.28	71.38	15.99	-38.1	-39.1	22.8	0.00e+00	92	33	0	581959680	48	6514
2026-01-08 12:21:48.29	71.60	16.01	-38.2	-39.2	22.7	0.00e+00	0	33	0	583008256	48	6596
2026-01-08 12:21:49.30	71.82	16.02	-38.3	-39.2	22.7	0.00e+00	92	33	0	585105408	48	6613
2026-01-08 12:21:50.31	72.04	16.03	-38.3	-39.3	22.7	0.00e+00	0	33	0	587202560	48	6646
2026-01-08 12:21:51.32	72.26	16.04	-38.3	-39.3	22.6	0.00e+00	48	33	0	589299712	48	6672
2026-01-08 12:21:52.33	72.48	16.05	-38.1	-39.1	22.8	0.00e+00	48	33	0	591396864	48	6500
2026-01-08 12:21:53.34	72.70	16.07	-38.2	-39.1	22.9	0.00e+00	47	33	0	592445440	48	6522
2026-01-08 12:21:54.35	72.92	16.08	-38.1	-39.1	22.8	0.00e+00	92	33	0	594542592	48	6492
2026-01-08 12:21:55.36	73.14	16.09	-38.1	-39.1	22.8	0.00e+00	0	33	0	596639744	48	6513
2026-01-08 12:21:56.37	73.36	16.10	-38.1	-39.1	22.8	0.00e+00	92	33	0	598736896	48	6523
2026-01-08 12:21:57.38	73.58	16.11	-38.2	-39.2	22.8	0.00e+00	33	33	0	600834048	48	6562
2026-01-08 12:21:58.39	73.80	16.11	-38.2	-39.1	22.9	0.00e+00	6	33	0	602931200	48	6523
2026-01-08 12:21:59.40	74.02	16.12	-38.1	-39.1	22.8	0.00e+00	34	33	0	603979776	48	6515
2026-01-08 12:22:00.41	74.25	16.13	-37.9	-38.9	23.1	0.00e+00	5	33	0	606076928	48	6342
2026-01-08 12:22:01.42	74.47	16.14	-38.0	-38.9	23.0	0.00e+00	47	33	0	608174080	48	6370
2026-01-08 12:22:02.43	74.69	16.15	-38.0	-38.9	22.9	0.00e+00	0	33	0	610271232	48	6367
2026-01-08 12:22:03.44	74.91	16.15	-38.0	-38.9	23.0	0.00e+00	90	33	0	612368384	48	6387
2026-01-08 12:22:04.45	75.13	16.16	-38.1	-39.0	22.9	0.00e+00	0	33	0	613416960	48	6463
2026-01-08 12:22:05.45	75.35	16.17	-38.1	-39.1	22.9	0.00e+00	61	33	0	615514112	48	6479
2026-01-08 12:22:06.47	75.58	16.17	-38.2	-39.1	22.8	0.00e+00	7	33	0	617611264	48	6530
2026-01-08 12:22:07.48	75.80	16.18	-38.1	-39.1	22.9	0.00e+00	0	33	0	619708416	48	6484
2026-01-08 12:22:08.49	76.02	16.18	-38.2	-39.2	22.8	0.00e+00	0	33	0	621805568	48	6574
2026-01-08 12:22:09.50	76.24	16.19	-38.1	-39.1	22.9	0.00e+00	0	33	0	622854144	48	6505
2026-01-08 12:22:10.51	76.47	16.19	-38.1	-39.1	22.9	0.00e+00	92	33	0	624951296	48	6496
2026-01-08 12:22:11.52	76.69	16.19	-37.8	-38.8	23.1	0.00e+00	42	33	0	627048448	48	6286
2026-01-08 12:22:12.52	76.91	16.20	-37.8	-38.7	23.1	0.00e+00	92	33	0	629145600	48	6243
2026-01-08 12:22:13.53	77.13	16.20	-37.6	-38.5	23.4	0.00e+00	44	33	0	631242752	48	6065
2026-01-08 12:22:14.54	77.35	16.20	-37.5	-38.4	23.3	0.00e+00	45	33	0	632291328	48	6032
2026-01-08 12:22:15.55	77.58	16.21	-37.5	-38.4	23.5	0.00e+00	44	33	0	634388480	48	5990
2026-01-08 12:22:16.56	77.80	16.21	-37.5	-38.5	23.4	0.00e+00	44	33	0	636485632	48	6055
2026-01-08 12:22:17.57	78.02	16.21	-37.6	-38.5	23.4	0.00e+00	48	33	0	638582784	48	6100
2026-01-08 12:22:18.58	78.25	16.21	-37.6	-38.6	23.3	0.00e+00	48	33	0	640679936	48	6104
2026-01-08 12:22:19.59	78.47	16.21	-37.8	-38.7	23.2	0.00e+00	91	33	0	641728512	48	6244
2026-01-08 12:22:20.60	78.69	16.21	-37.9	-38.8	23.1	0.00e+00	7	33	0	643825664	48	6317
2026-01-08 12:22:21.61	78.91	16.21	-37.9	-38.8	23.2	0.00e+00	62	33	0	645922816	48	6300
2026-01-08 12:22:22.62	79.14	16.21	-37.8	-38.7	23.2	0.00e+00	39	33	0	648019968	48	6237
2026-01-08 12:22:23.63	79.36	16.21	-37.7	-38.7	23.2	0.00e+00	7	33	0	650117120	48	6191
2026-01-08 12:22:24.63	79.58	16.21	-37.6	-38.6	23.3	0.00e+00	7	33	0	651165696	48	6120
2026-01-08 12:22:25.64	79.80	16.20	-37.6	-38.6	23.2	0.00e+00	7	33	0	653262848	48	6119
2026-01-08 12:22:26.65	80.03	16.20	-37.6	-38.5	23.4	0.00e+00	92	33	0	655360000	48	6085
2026-01-08 12:22:27.66	80.25	16.20	-37.6	-38.5	23.2	0.00e+00	8	33	0	657457152	48	6066
2026-01-08 12:22:28.67	80.47	16.20	-37.6	-38.5	23.4	0.00e+00	92	33	0	659554304	48	6101
2026-01-08 12:22:29.68	80.69	16.19	-37.6	-38.5	23.2	0.00e+00	7	33	0	660602880	48	6092
2026-01-08 12:22:30.69	80.92	16.19	-37.6	-38.6	23.4	0.00e+00	0	33	0	662700032	48	6108
2026-01-08 12:22:31.70	81.14	16.18	-37.6	-38.5	23.5	0.00e+00	0	33	0	664797184	48	6056
2026-01-08 12:22:32.71	81.36	16.18	-37.6	-38.5	23.4	0.00e+00	47	33	0	666894336	48	6063
2026-01-08 12:22:33.72	81.58	16.17	-37.7	-38.7	23.3	0.00e+00	92	33	0	668991488	48	6180
2026-01-08 12:22:34.73	81.80	16.17	-37.7	-38.6	23.3	0.00e+00	0	33	0	670040064	48	6149
2026-01-08 12:22:35.73	82.02	16.16	-37.8	-38.7	23.3	0.00e+00	92	33	0	672137216	48	6204
2026-01-08 12:22:36.74	82.25	16.16	-37.8	-38.8	23.2	0.00e+00	34	33	0	674234368	48	6246
2026-01-08 12:22:37.75	82.47	16.15	-37.8	-38.8	23.2	0.00e+00	34	33	0	676331520	48	6257
2026-01-08 12:22:38.75	82.69	16.14	-38.0	-38.9	23.0	0.00e+00	39	33	0	678428672	48	6362
2026-01-08 12:22:39.76	82.91	16.13	-37.9	-38.8	23.1	0.00e+00	38	33	0	679477248	48	6301
2026-01-08 12:22:40.77	83.13	16.13	-37.9	-38.8	23.1	0.00e+00	40	33	0	681574400	48	6283
2026-01-08 12:22:41.78	83.35	16.12	-37.8	-38.8	23.2	0.00e+00	2	33	0	683671552	48	6263
2026-01-08 12:22:42.79	83.58	16.11	-37.8	-38.7	23.2	0.00e+00	90	33	0	685768704	48	6223
2026-01-08 12:22:43.80	83.80	16.10	-37.5	-38.4	23.5	0.00e+00	38	33	0	687865856	48	6023
2026-01-08 12:22:44.81	84.02	16.09	-37.2	-38.1	23.7	0.00e+00	87	33	0	688914432	48	5827
2026-01-08 12:22:45.82	84.24	16.08	-37.3	-38.2	23.8	0.00e+00	37	33	0	691011584	48	5848
2026-01-08 12:22:46.83	84.46	16.07	-37.3	-38.2	23.7	0.00e+00	0	33	0	693108736	48	5855
2026-01-08 12:22:47.84	84.68	16.06	-37.4	-38.3	23.6	0.00e+00	0	33	0	695205888	48	5917
2026-01-08 12:22:48.85	84.90	16.05	-37.5	-38.5	23.5	0.00e+00	0	33	0	697303040	48	6063
2026-01-08 12:22:49.86	85.12	16.04	-37.5	-38.5	23.5	0.00e+00	92	33	0	699400192	48	6049
2026-01-08 12:22:50.87	85.34	16.02	-37.5	-38.5	23.3	0.00e+00	0	33	0	700448768	48	6058
2026-01-08 12:22:51.87	85.56	16.01	-37.4	-38.3	23.5	0.00e+00	90	33	0	702545920	48	5927
2026-01-08 12:22:52.88	85.78	16.00	-37.3	-38.3	23.6	0.00e+00	0	33	0	704643072	48	5900
2026-01-08 12:22:53.89	86.00	15.99	-37.5	-38.4	23.4	0.00e+00	48	33	0	706740224	48	6005
2026-01-08 12:22:54.90	86.22	15.97	-37.3	-38.2	23.6	0.00e+00	0	33	0	708837376	48	5860
2026-01-08 12:22:55.91	86.44	15.96	-37.4	-38.3	23.6	0.00e+00	0	33	0	709885952	48	5948
2026-01-08 12:22:56.92	86.66	15.94	-37.3	-38.2	23.6	0.00e+00	90	33	0	711983104	48	5887
2026-01-08 12:22:57.93	86.88	15.93	-37.2	-38.1	23.7	0.00e+00	0	33	0	714080256	48	5817
2026-01-08 12:22:58.94	87.10	15.91	-37.5	-38.4	23.4	0.00e+00	92	33	0	716177408	48	6011
2026-01-08 12:22:59.95	87.31	15.90	-37.3	-38.2	23.7	0.00e+00	48	33	0	718274560	48	5849
2026-01-08 12:23:00.96	87.53	15.88	-37.3	-38.2	23.7	0.00e+00	81	33	0	719323136	48	5839
2026-01-08 12:23:01.97	87.75	15.87	-37.3	-38.2	23.7	0.00e+00	33	33	0	721420288	48	5837
2026-01-08 12:23:02.98	87.97	15.85	-37.3	-38.2	23.7	0.00e+00	33	33	0	723517440	48	5854
2026-01-08 12:23:03.99	88.19	15.83	-37.2	-38.1	23.7	0.00e+00	12	33	0	725614592	48	5821
2026-01-08 12:23:04.99	88.40	15.81	-37.0	-37.9	23.9	0.00e+00	0	33	0	727711744	48	5667
2026-01-08 12:23:06.01	88.62	15.80	-37.1	-38.0	23.8	0.00e+00	92	33	0	728760320	48	5707
2026-01-08 12:23:07.01	88.84	15.78	-37.0	-37.9	23.9	0.00e+00	0	33	0	730857472	48	5656
2026-01-08 12:23:08.02	89.05	15.76	-37.0	-37.9	23.9	0.00e+00	92	33	0	732954624	48	5655
2026-01-08 12:23:09.03	89.27	15.74	-37.0	-37.8	23.9	0.00e+00	0	33	0	735051776	48	5630
2026-01-08 12:23:10.04	89.48	15.72	-37.0	-37.9	24.0	0.00e+00	0	33	0	737148928	48	5684
2026-01-08 12:23:11.05	89.70	15.70	-36.9	-37.8	24.0	0.00e+00	0	33	0	738197504	48	5583
2026-01-08 12:23:12.06	89.92	15.68	-36.8	-37.7	24.1	0.00e+00	0	33	0	740294656	48	5532
2026-01-08 12:23:13.07	90.13	15.66	-36.8	-37.6	24.2	0.00e+00	92	33	0	742391808	48	5485
2026-01-08 12:23:14.08	90.35	15.64	-36.9	-37.8	23.9	0.00e+00	0	33	0	744488960	46	6256
2026-01-08 12:23:15.09	90.56	15.62	-37.0	-37.8	24.0	0.00e+00	92	33	0	746586112	46	6305
2026-01-08 12:23:16.10	90.78	15.60	-37.1	-38.0	23.8	0.00e+00	0	33	0	747634688	46	6423
2026-01-08 12:23:17.11	90.99	15.58	-37.2	-38.1	23.8	0.00e+00	49	33	0	749731840	46	6533
2026-01-08 12:23:18.12	91.20	15.55	-37.4	-38.4	23.4	0.00e+00	41	33	0	751828992	46	6706
2026-01-08 12:23:19.13	91.42	15.53	-37.2	-38.1	23.7	0.00e+00	0	33	0	753926144	46	6521
2026-01-08 12:23:20.14	91.63	15.51	-37.2	-38.1	23.7	0.00e+00	90	33	0	756023296	46	6496
2026-01-08 12:23:21.15	91.84	15.49	-36.9	-37.8	23.9	0.00e+00	49	33	0	757071872	46	6269
2026-01-08 12:23:22.15	92.05	15.46	-36.8	-37.6	24.1	0.00e+00	90	33	0	759169024	46	6168
2026-01-08 12:23:23.16	92.27	15.44	-36.9	-37.7	24.1	0.00e+00	0	33	0	761266176	46	6232
2026-01-08 12:23:24.17	92.48	15.41	-36.6	-37.4	24.3	0.00e+00	46	33	0	763363328	46	6003
2026-01-08 12:23:25.18	92.69	15.39	-36.5	-37.3	24.5	0.00e+00	0	33	0	765460480	46	5929
2026-01-08 12:23:26.19	92.90	15.37	-36.5	-37.3	24.5	0.00e+00	0	33	0	767557632	46	5938
2026-01-08 12:23:27.20	93.11	15.34	-36.3	-37.1	24.6	0.00e+00	90	33	0	768606208	46	5803
2026-01-08 12:23:28.21	93.32	15.31	-36.2	-37.1	24.7	0.00e+00	0	33	0	770703360	46	5770
2026-01-08 12:23:29.22	93.53	15.29	-36.1	-36.9	24.7	0.00e+00	92	33	0	772800512	46	5677
2026-01-08 12:23:30.23	93.74	15.26	-36.2	-37.0	24.6	0.00e+00	0	33	0	774897664	46	5754
2026-01-08 12:23:31.24	93.95	15.24	-36.2	-37.0	24.7	0.00e+00	1	33	0	776994816	46	5715
2026-01-08 12:23:32.25	94.16	15.21	-36.2	-37.1	24.6	0.00e+00	0	33	0	778043392	46	5772
2026-01-08 12:23:33.26	94.37	15.18	-36.4	-37.2	24.4	0.00e+00	0	33	0	780140544	46	5870
2026-01-08 12:23:34.27	94.58	15.15	-36.4	-37.2	24.5	0.00e+00	0	33	0	782237696	46	5876
2026-01-08 12:23:35.28	94.79	15.13	-36.3	-37.2	24.5	0.00e+00	2	33	0	784334848	46	5831
2026-01-08 12:23:36.29	94.99	15.10	-36.4	-37.2	24.4	0.00e+00	90	33	0	786432000	46	5894
2026-01-08 12:23:37.29	95.20	15.07	-36.6	-37.4	24.2	0.00e+00	47	33	0	787480576	46	6018
2026-01-08 12:23:38.30	95.41	15.04	-36.6	-37.4	24.3	0.00e+00	92	33	0	789577728	46	6001
2026-01-08 12:23:39.31	95.61	15.01	-36.6	-37.4	24.3	0.00e+00	0	33	0	791674880	46	6004
2026-01-08 12:23:40.32	95.82	14.98	-36.5	-37.3	24.4	0.00e+00	2	33	0	793772032	46	5939
2026-01-08 12:23:41.33	96.02	14.95	-36.2	-37.0	24.7	0.00e+00	41	33	0	795869184	46	5751
2026-01-08 12:23:42.34	96.23	14.92	-36.2	-37.0	24.6	0.00e+00	39	33	0	796917760	46	5756
2026-01-08 12:23:43.35	96.43	14.89	-36.1	-36.9	24.7	0.00e+00	76	33	0	799014912	46	5652
2026-01-08 12:23:44.36	96.64	14.86	-36.1	-36.9	24.7	0.00e+00	41	33	0	801112064	46	5668
2026-01-08 12:23:45.37	96.84	14.83	-36.1	-36.9	24.8	0.00e+00	92	33	0	803209216	46	5647
2026-01-08 12:23:46.38	97.05	14.80	-36.1	-36.9	24.7	0.00e+00	0	33	0	805306368	46	5682
2026-01-08 12:23:47.39	97.25	14.77	-36.0	-36.8	24.7	0.00e+00	0	33	0	806354944	46	5623
2026-01-08 12:23:48.40	97.45	14.74	-36.1	-37.0	24.7	0.00e+00	34	33	0	808452096	46	5708
2026-01-08 12:23:49.41	97.66	14.70	-36.3	-37.2	24.6	0.00e+00	33	33	0	810549248	46	5850
2026-01-08 12:23:50.42	97.86	14.67	-36.6	-37.5	24.3	0.00e+00	44	33	0	812646400	46	6037
2026-01-08 12:23:51.42	98.06	14.64	-36.8	-37.7	24.1	0.00e+00	6	33	0	814743552	46	6210
2026-01-08 12:23:52.43	98.26	14.61	-37.0	-37.9	23.9	0.00e+00	90	33	0	815792128	46	6358
2026-01-08 12:23:53.44	98.46	14.57	-37.0	-37.9	23.9	0.00e+00	7	33	0	817889280	46	6365
2026-01-08 12:23:54.45	98.66	14.54	-37.1	-38.0	23.9	0.00e+00	2	33	0	819986432	46	6448
2026-01-08 12:23:55.46	98.86	14.50	-37.2	-38.1	23.8	0.00e+00	0	33	0	822083584	46	6484
2026-01-08 12:23:56.47	99.06	14.47	-37.2	-38.1	23.8	0.00e+00	6	33	0	824180736	46	6485
2026-01-08 12:23:57.48	99.26	14.44	-36.9	-37.8	23.7	0.00e+00	6	33	0	825229312	46	6280
2026-01-08 12:23:58.49	99.46	14.40	-36.9	-37.8	24.0	0.00e+00	0	33	0	827326464	46	6273
2026-01-08 12:23:59.50	99.65	14.37	-37.0	-37.9	23.8	0.00e+00	92	33	0	829423616	46	6318
2026-01-08 12:24:00.51	99.85	14.33	-37.1	-38.0	23.8	0.00e+00	46	33	0	831520768	46	6391
2026-01-08 12:24:01.52	100.05	14.30	-37.2	-38.1	23.7	0.00e+00	92	33	0	833617920	46	6470
2026-01-08 12:24:02.53	100.25	14.26	-37.1	-37.9	23.8	0.00e+00	0	33	0	834666496	46	6376
2026-01-08 12:24:03.54	100.44	14.22	-37.2	-38.0	23.7	0.00e+00	46	33	0	836763648	46	6460
2026-01-08 12:24:04.55	100.64	14.19	-37.1	-38.0	23.8	0.00e+00	46	33	0	838860800	46	6413
2026-01-08 12:24:05.55	100.83	14.15	-37.1	-37.9	23.9	0.00e+00	38	33	0	840957952	46	6383
2026-01-08 12:24:06.56	101.03	14.12	-36.9	-37.8	24.0	0.00e+00	91	33	0	843055104	46	6254
2026-01-08 12:24:07.57	101.22	14.08	-36.9	-37.8	23.9	0.00e+00	45	33	0	844103680	46	6291
2026-01-08 12:24:08.58	101.41	14.04	-37.2	-38.1	23.7	0.00e+00	92	33	0	846200832	46	6536
2026-01-08 12:24:09.59	101.61	14.00	-37.5	-38.4	23.4	0.00e+00	0	33	0	848297984	46	6711
2026-01-08 12:24:10.60	101.80	13.97	-37.6	-38.5	23.3	0.00e+00	44	33	0	850395136	46	6839
2026-01-08 12:24:11.61	101.99	13.93	-37.9	-38.8	22.9	0.00e+00	45	33	0	852492288	48	6299
2026-01-08 12:24:12.61	102.18	13.89	-38.1	-39.1	22.5	0.00e+00	7	33	0	853540864	48	6521
2026-01-08 12:24:13.62	102.38	13.85	-38.4	-39.4	22.4	0.00e+00	0	33	0	855638016	48	6744
2026-01-08 12:24:14.63	102.57	13.81	-38.7	-39.8	22.1	0.00e+00	6	33	0	857735168	48	7030
2026-01-08 12:24:15.64	102.76	13.77	-38.8	-39.9	22.0	0.00e+00	92	33	0	859832320	50	6337
2026-01-08 12:24:16.65	102.95	13.73	-38.9	-40.0	21.9	0.00e+00	0	33	0	861929472	50	6420
2026-01-08 12:24:17.65	103.14	13.70	-38.9	-40.0	22.0	0.00e+00	92	33	0	864026624	50	6438
2026-01-08 12:24:18.66	103.32	13.66	-39.0	-40.2	21.7	0.00e+00	7	33	0	865075200	50	6567
2026-01-08 12:24:19.67	103.51	13.62	-39.0	-40.1	21.8	0.00e+00	6	33	0	867172352	50	6531
2026-01-08 12:24:20.68	103.70	13.58	-39.1	-40.3	21.7	0.00e+00	6	33	0	869269504	50	6634
2026-01-08 12:24:21.69	103.89	13.54	-39.1	-40.3	21.7	0.00e+00	46	33	0	871366656	50	6631
2026-01-08 12:24:22.70	104.08	13.50	-39.3	-40.5	21.5	0.00e+00	92	33	0	873463808	50	6774
2026-01-08 12:24:23.71	104.26	13.46	-39.0	-40.2	21.7	0.00e+00	46	33	0	874512384	50	6552
2026-01-08 12:24:24.72	104.45	13.41	-39.0	-40.1	21.8	0.00e+00	92	33	0	876609536	50	6510
2026-01-08 12:24:25.73	104.63	13.37	-38.8	-39.9	21.9	0.00e+00	46	33	0	878706688	50	6369
2026-01-08 12:24:26.74	104.82	13.33	-38.6	-39.7	22.3	0.00e+00	47	33	0	880803840	50	6195
2026-01-08 12:24:27.75	105.00	13.29	-38.6	-39.7	22.3	0.00e+00	35	33	0	882900992	50	6178
2026-01-08 12:24:28.76	105.19	13.25	-38.3	-39.3	22.6	0.00e+00	36	33	0	883949568	50	5931
2026-01-08 12:24:29.77	105.37	13.21	-38.4	-39.4	22.5	0.00e+00	92	33	0	886046720	50	6005
2026-01-08 12:24:30.78	105.56	13.17	-38.3	-39.3	22.5	0.00e+00	37	33	0	888143872	50	5954
2026-01-08 12:24:31.79	105.74	13.12	-38.5	-39.5	22.3	0.00e+00	92	33	0	890241024	50	6076
2026-01-08 12:24:32.79	105.92	13.08	-38.6	-39.7	22.2	0.00e+00	2	33	0	892338176	50	6174
2026-01-08 12:24:33.80	106.10	13.04	-38.7	-39.8	22.2	0.00e+00	0	33	0	893386752	50	6248
2026-01-08 12:24:34.81	106.28	13.00	-38.9	-39.9	22.1	0.00e+00	36	33	0	895483904	50	6387
2026-01-08 12:24:35.82	106.46	12.95	-39.0	-40.1	21.9	0.00e+00	36	33	0	897581056	50	6484
2026-01-08 12:24:36.83	106.64	12.91	-39.2	-40.3	21.6	0.00e+00	2	33	0	899678208	50	6685
2026-01-08 12:24:37.84	106.82	12.87	-39.4	-40.5	21.5	0.00e+00	0	33	0	901775360	50	6803
2026-01-08 12:24:38.85	107.00	12.82	-39.5	-40.7	21.3	0.00e+00	92	33	0	902823936	50	6960
2026-01-08 12:24:39.86	107.18	12.78	-39.5	-40.7	21.3	0.00e+00	0	33	0	904921088	50	6954
2026-01-08 12:24:40.87	107.36	12.73	-39.5	-40.6	21.3	0.00e+00	92	33	0	907018240	50	6906
2026-01-08 12:24:41.88	107.54	12.69	-39.4	-40.5	21.4	0.00e+00	2	33	0	909115392	50	6827
2026-01-08 12:24:42.89	107.71	12.65	-39.3	-40.4	21.5	0.00e+00	4	33	0	911212544	50	6748
2026-01-08 12:24:43.90	107.89	12.60	-39.1	-40.2	21.6	0.00e+00	0	33	0	912261120	50	6590
2026-01-08 12:24:44.91	108.07	12.56	-39.2	-40.3	21.7	0.00e+00	40	33	0	914358272	50	6647
2026-01-08 12:24:45.91	108.24	12.51	-39.3	-40.5	21.6	0.00e+00	90	33	0	916455424	50	6775
2026-01-08 12:24:46.92	108.41	12.47	-38.9	-39.9	22.0	0.00e+00	46	33	0	918552576	50	6371
2026-01-08 12:24:47.93	108.59	12.42	-39.1	-40.1	21.8	0.00e+00	92	33	0	920649728	50	6538
2026-01-08 12:24:48.94	108.76	12.38	-39.2	-40.3	21.7	0.00e+00	36	33	0	921698304	50	6631
2026-01-08 12:24:49.95	108.94	12.33	-38.9	-39.9	21.9	0.00e+00	38	33	0	923795456	50	6384
2026-01-08 12:24:50.96	109.11	12.29	-38.9	-40.0	21.9	0.00e+00	3	33	0	925892608	50	6398
2026-01-08 12:24:51.97	109.28	12.24	-38.9	-40.0	21.9	0.00e+00	45	33	0	927989760	50	6404
2026-01-08 12:24:52.98	109.45	12.20	-38.8	-39.8	21.9	0.00e+00	22	33	0	930086912	50	6315
2026-01-08 12:24:53.98	109.62	12.15	-38.5	-39.5	22.3	0.00e+00	36	33	0	932184064	50	6096
2026-01-08 12:24:54.99	109.79	12.10	-38.3	-39.3	22.5	0.00e+00	90	33	0	933232640	50	5941
2026-01-08 12:24:56.00	109.97	12.06	-37.9	-38.9	22.9	0.00e+00	2	33	0	935329792	50	5659
2026-01-08 12:24:57.01	110.14	12.01	-37.8	-38.7	23.0	0.00e+00	35	33	0	937426944	50	5566
2026-01-08 12:24:58.02	110.30	11.97	-37.9	-38.9	22.9	0.00e+00	2	33	0	939524096	50	5641
2026-01-08 12:24:59.03	110.47	11.92	-38.0	-39.0	22.8	0.00e+00	0	33	0	940572672	50	5715
2026-01-08 12:25:00.04	110.64	11.87	-38.2	-39.2	22.6	0.00e+00	0	33	0	942669824	50	5850
2026-01-08 12:25:01.05	110.81	11.83	-38.3	-39.3	22.4	0.00e+00	0	33	0	944766976	50	5945
2026-01-08 12:25:02.06	110.98	11.78	-38.3	-39.3	22.4	0.00e+00	92	33	0	946864128	50	5956
2026-01-08 12:25:03.06	111.14	11.73	-38.5	-39.6	22.2	0.00e+00	0	33	0	948961280	50	6116
2026-01-08 12:25:04.07	111.31	11.68	-38.4	-39.5	22.2	0.00e+00	92	33	0	950009856	50	6064
2026-01-08 12:25:05.08	111.47	11.64	-38.5	-39.6	22.1	0.00e+00	46	33	0	952107008	50	6150
2026-01-08 12:25:06.09	111.64	11.59	-38.5	-39.7	21.9	0.00e+00	0	33	0	954204160	50	6174
2026-01-08 12:25:07.10	111.80	11.54	-38.6	-39.8	21.9	0.00e+00	0	33	0	956301312	50	6260
2026-01-08 12:25:08.11	111.97	11.49	-38.8	-39.9	21.9	0.00e+00	0	33	0	958398464	50	6319
2026-01-08 12:25:09.12	112.13	11.45	-38.8	-39.9	21.9	0.00e+00	90	33	0	960495616	50	6342
2026-01-08 12:25:10.12	112.29	11.40	-38.9	-40.0	21.8	0.00e+00	41	33	0	961544192	50	6431
2026-01-08 12:25:11.13	112.46	11.35	-38.7	-39.8	21.9	0.00e+00	92	33	0	963641344	50	6270
2026-01-08 12:25:12.14	112.62	11.30	-38.5	-39.6	22.3	0.00e+00	40	33	0	965738496	50	6140
2026-01-08 12:25:13.15	112.78	11.25	-38.3	-39.3	22.5	0.00e+00	40	33	0	967835648	50	5947
2026-01-08 12:25:14.16	112.94	11.21	-37.9	-38.9	22.8	0.00e+00	0	33	0	969932800	50	5661
2026-01-08 12:25:15.17	113.10	11.16	-37.9	-38.8	22.9	0.00e+00	0	33	0	970981376	50	5610
2026-01-08 12:25:16.18	113.26	11.11	-37.7	-38.7	23.0	0.00e+00	0	33	0	973078528	50	5518
2026-01-08 12:25:17.19	113.42	11.06	-37.5	-38.4	23.3	0.00e+00	0	33	0	975175680	48	5998
2026-01-08 12:25:18.20	113.58	11.01	-37.3	-38.3	23.3	0.00e+00	92	33	0	977272832	48	5898
2026-01-08 12:25:19.21	113.74	10.96	-37.3	-38.3	23.3	0.00e+00	36	33	0	979369984	48	5897
2026-01-08 12:25:20.22	113.90	10.91	-37.5	-38.4	23.2	0.00e+00	92	33	0	980418560	48	5995
2026-01-08 12:25:21.23	114.05	10.86	-37.6	-38.5	23.0	0.00e+00	37	33	0	982515712	48	6103
2026-01-08 12:25:22.24	114.21	10.81	-37.8	-38.7	22.9	0.00e+00	2	33	0	984612864	48	6238
2026-01-08 12:25:23.25	114.37	10.77	-37.9	-38.9	22.8	0.00e+00	0	33	0	986710016	48	6351
2026-01-08 12:25:24.25	114.52	10.72	-38.0	-38.9	22.7	0.00e+00	0	33	0	988807168	48	6383
2026-01-08 12:25:25.26	114.68	10.67	-37.9	-38.9	22.8	0.00e+00	92	33	0	989855744	48	6359
2026-01-08 12:25:26.27	114.83	10.62	-38.0	-39.0	22.7	0.00e+00	0	33	0	991952896	48	6405
2026-01-08 12:25:27.28	114.99	10.57	-37.7	-38.7	22.9	0.00e+00	92	33	0	994050048	48	6208
2026-01-08 12:25:28.29	115.14	10.52	-37.8	-38.8	22.9	0.00e+00	0	33	0	996147200	48	6257
2026-01-08 12:25:29.30	115.30	10.47	-37.7	-38.6	23.0	0.00e+00	44	33	0	998244352	48	6153
2026-01-08 12:25:30.30	115.45	10.42	-37.7	-38.7	23.0	0.00e+00	0	33	0	999292928	48	6177
2026-01-08 12:25:31.32	115.60	10.37	-37.8	-38.8	22.9	0.00e+00	0	33	0	1001390080	48	6284
2026-01-08 12:25:32.32	115.75	10.32	-38.0	-39.0	22.7	0.00e+00	90	33	0	1003487232	48	6448
2026-01-08 12:25:33.34	115.90	10.27	-38.0	-39.0	22.8	0.00e+00	45	33	0	1005584384	48	6413
2026-01-08 12:25:34.35	116.06	10.22	-37.8	-38.7	22.9	0.00e+00	90	33	0	1007681536	48	6245
2026-01-08 12:25:35.36	116.21	10.17	-37.8	-38.8	22.9	0.00e+00	44	33	0	1008730112	48	6282
2026-01-08 12:25:36.37	116.36	10.12	-37.8	-38.8	22.9	0.00e+00	38	33	0	1010827264	48	6281
2026-01-08 12:25:37.37	116.50	10.07	-37.7	-38.6	23.0	0.00e+00	39	33	0	1012924416	48	6159
2026-01-08 12:25:38.38	116.65	10.02	-37.7	-38.6	23.0	0.00e+00	0	33	0	1015021568	48	6144
2026-01-08 12:25:39.39	116.80	9.97	-37.5	-38.4	23.2	0.00e+00	27	33	0	1017118720	48	6005
2026-01-08 12:25:40.40	116.95	9.92	-37.4	-38.4	23.2	0.00e+00	42	33	0	1018167296	48	5974
2026-01-08 12:25:41.40	117.10	9.87	-37.5	-38.5	23.1	0.00e+00	92	33	0	1020264448	48	6050
2026-01-08 12:25:42.42	117.24	9.82	-37.7	-38.7	22.9	0.00e+00	5	33	0	1022361600	48	6190
2026-01-08 12:25:43.42	117.39	9.76	-37.7	-38.7	22.9	0.00e+00	90	33	0	1024458752	48	6197
2026-01-08 12:25:44.44	117.54	9.71	-37.9	-38.9	22.7	0.00e+00	0	33	0	1026555904	48	6381
2026-01-08 12:25:45.44	117.68	9.66	-38.0	-39.0	22.6	0.00e+00	0	33	0	1028653056	48	6433
2026-01-08 12:25:46.46	117.83	9.61	-38.2	-39.2	22.5	0.00e+00	5	33	0	1029701632	48	6559
2026-01-08 12:25:47.46	117.97	9.56	-38.1	-39.2	22.4	0.00e+00	0	33	0	1031798784	48	6553
2026-01-08 12:25:48.47	118.11	9.51	-38.1	-39.2	22.5	0.00e+00	91	33	0	1033895936	48	6548
2026-01-08 12:25:49.48	118.26	9.46	-38.1	-39.1	22.5	0.00e+00	0	33	0	1035993088	48	6508
2026-01-08 12:25:50.49	118.40	9.41	-38.2	-39.2	22.5	0.00e+00	92	33	0	1038090240	48	6597
2026-01-08 12:25:51.50	118.54	9.36	-37.8	-38.8	22.8	0.00e+00	0	33	0	1039138816	48	6288
2026-01-08 12:25:52.51	118.69	9.31	-37.7	-38.7	22.9	0.00e+00	0	33	0	1041235968	48	6210
2026-01-08 12:25:53.52	118.83	9.25	-37.9	-38.9	22.8	0.00e+00	0	33	0	1043333120	48	6348
2026-01-08 12:25:54.53	118.97	9.20	-37.8	-38.8	22.9	0.00e+00	0	33	0	1045430272	48	6246
2026-01-08 12:25:55.54	119.11	9.15	-37.7	-38.7	22.9	0.00e+00	57	33	0	1047527424	48	6198
2026-01-08 12:25:56.55	119.25	9.10	-37.9	-38.9	22.7	0.00e+00	43	33	0	1048576000	48	6364
2026-01-08 12:25:57.56	119.39	9.05	-38.1	-39.2	22.5	0.00e+00	90	33	0	1050673152	48	6547
2026-01-08 12:25:58.57	119.53	9.00	-38.3	-39.4	22.3	0.00e+00	42	33	0	1052770304	48	6699
2026-01-08 12:25:59.57	119.67	8.95	-38.3	-39.4	22.2	0.00e+00	90	33	0	1054867456	48	6728
2026-01-08 12:26:00.58	119.81	8.89	-38.4	-39.5	22.2	0.00e+00	42	33	0	1056964608	48	6809
2026-01-08 12:26:01.59	119.94	8.84	-38.5	-39.5	22.1	0.00e+00	0	33	0	1058013184	48	6835
2026-01-08 12:26:02.60	120.08	8.79	-38.3	-39.3	22.3	0.00e+00	79	33	0	1060110336	48	6681
2026-01-08 12:26:03.61	120.22	8.74	-38.2	-39.2	22.4	0.00e+00	42	33	0	1062207488	48	6596
2026-01-08 12:26:04.62	120.35	8.69	-38.2	-39.2	22.5	0.00e+00	92	33	0	1064304640	48	6604
2026-01-08 12:26:05.63	120.49	8.64	-37.9	-38.9	22.6	0.00e+00	6	33	0	1066401792	48	6374
2026-01-08 12:26:06.64	120.63	8.58	-37.9	-38.8	22.7	0.00e+00	89	33	0	1067450368	48	6312
2026-01-08 12:26:07.65	120.76	8.53	-37.9	-38.9	22.7	0.00e+00	0	33	0	1069547520	48	6343
2026-01-08 12:26:08.66	120.90	8.48	-37.9	-38.9	22.7	0.00e+00	0	33	0	1071644672	48	6339
2026-01-08 12:26:09.67	121.03	8.43	-38.1	-39.1	22.5	0.00e+00	5	33	0	1073741824	48	6477
2026-01-08 12:26:10.68	121.16	8.38	-38.3	-39.3	22.3	0.00e+00	0	33	0	1075838976	48	6638
2026-01-08 12:26:11.68	121.30	8.33	-38.3	-39.3	22.2	0.00e+00	91	33	0	1076887552	48	6647
2026-01-08 12:26:12.69	121.43	8.27	-38.4	-39.5	22.1	0.00e+00	0	33	0	1078984704	48	6805
2026-01-08 12:26:13.70	121.56	8.22	-38.5	-39.6	22.0	0.00e+00	92	33	0	1081081856	48	6854
2026-01-08 12:26:14.71	121.69	8.17	-38.7	-39.8	21.8	0.00e+00	39	33	0	1083179008	48	7028
2026-01-08 12:26:15.72	121.82	8.12	-38.6	-39.6	21.9	0.00e+00	67	33	0	1085276160	48	6923
2026-01-08 12:26:16.73	121.95	8.07	-38.6	-39.6	21.9	0.00e+00	42	33	0	1086324736	48	6927
2026-01-08 12:26:17.74	122.09	8.01	-38.6	-39.7	22.0	0.00e+00	43	33	0	1088421888	48	6938
2026-01-08 12:26:18.75	122.22	7.96	-38.5	-39.5	22.0	0.00e+00	43	33	0	1090519040	48	6821
2026-01-08 12:26:19.76	122.35	7.91	-38.5	-39.6	22.0	0.00e+00	42	33	0	1092616192	48	6896
2026-01-08 12:26:20.77	122.47	7.86	-38.6	-39.6	21.9	0.00e+00	91	33	0	1094713344	48	6916
2026-01-08 12:26:21.78	122.60	7.81	-38.5	-39.6	21.9	0.00e+00	38	33	0	1095761920	48	6883
2026-01-08 12:26:22.79	122.73	7.75	-38.8	-39.9	21.7	0.00e+00	48	33	0	1097859072	48	7105
2026-01-08 12:26:23.80	122.86	7.70	-38.8	-39.9	21.7	0.00e+00	2	33	0	1099956224	50	6372
2026-01-08 12:26:24.81	122.99	7.65	-39.0	-40.1	21.4	0.00e+00	37	33	0	1102053376	50	6524
2026-01-08 12:26:25.81	123.11	7.60	-39.1	-40.3	21.4	0.00e+00	0	33	0	1104150528	50	6655
2026-01-08 12:26:26.82	123.24	7.55	-39.1	-40.2	21.3	0.00e+00	0	33	0	1105199104	50	6579
2026-01-08 12:26:27.83	123.37	7.49	-39.1	-40.3	21.3	0.00e+00	92	33	0	1107296256	50	6629
2026-01-08 12:26:28.84	123.49	7.44	-39.1	-40.3	21.4	0.00e+00	0	33	0	1109393408	50	6618
2026-01-08 12:26:29.85	123.62	7.39	-39.1	-40.3	21.2	0.00e+00	92	33	0	1111490560	50	6652
2026-01-08 12:26:30.86	123.74	7.34	-39.1	-40.3	21.1	0.00e+00	0	33	0	1113587712	50	6623
2026-01-08 12:26:31.87	123.87	7.28	-39.0	-40.1	21.2	0.00e+00	0	33	0	1114636288	50	6506
2026-01-08 12:26:32.88	123.99	7.23	-39.0	-40.2	21.3	0.00e+00	0	33	0	1116733440	50	6568
2026-01-08 12:26:33.89	124.11	7.18	-39.1	-40.2	21.3	0.00e+00	0	33	0	1118830592	50	6611
2026-01-08 12:26:34.90	124.24	7.13	-39.1	-40.3	21.2	0.00e+00	92	33	0	1120927744	50	6658
2026-01-08 12:26:35.91	124.36	7.08	-39.2	-40.4	21.1	0.00e+00	43	33	0	1123024896	50	6718
2026-01-08 12:26:36.92	124.48	7.02	-39.3	-40.5	21.1	0.00e+00	90	33	0	1125122048	50	6831
2026-01-08 12:26:37.93	124.60	6.97	-39.4	-40.6	20.9	0.00e+00	44	33	0	1126170624	50	6895
2026-01-08 12:26:38.94	124.72	6.92	-39.6	-40.8	20.4	0.00e+00	37	33	0	1128267776	50	7065
2026-01-08 12:26:39.95	124.85	6.87	-39.5	-40.7	20.7	0.00e+00	43	33	0	1130364928	50	6976
2026-01-08 12:26:40.96	124.97	6.81	-39.6	-40.9	20.6	0.00e+00	45	33	0	1132462080	50	7119
2026-01-08 12:26:41.97	125.09	6.76	-39.7	-41.0	20.6	0.00e+00	92	33	0	1134559232	50	7193
2026-01-08 12:26:42.98	125.21	6.71	-39.6	-40.8	20.7	0.00e+00	0	33	0	1135607808	50	7068
2026-01-08 12:26:43.99	125.33	6.66	-39.5	-40.8	20.7	0.00e+00	92	33	0	1137704960	50	7015
2026-01-08 12:26:44.99	125.44	6.61	-39.6	-40.9	20.6	0.00e+00	2	33	0	1139802112	50	7104
2026-01-08 12:26:46.00	125.56	6.55	-39.4	-40.7	20.8	0.00e+00	67	33	0	1141899264	50	6959
2026-01-08 12:26:47.01	125.68	6.50	-39.4	-40.6	20.9	0.00e+00	2	33	0	1143996416	50	6927
2026-01-08 12:26:48.02	125.80	6.45	-39.4	-40.6	20.8	0.00e+00	0	33	0	1145044992	50	6920
2026-01-08 12:26:49.03	125.92	6.40	-39.3	-40.5	20.9	0.00e+00	0	33	0	1147142144	50	6787
2026-01-08 12:26:50.04	126.03	6.34	-39.2	-40.4	21.0	0.00e+00	0	33	0	1149239296	50	6753
2026-01-08 12:26:51.05	126.15	6.29	-39.2	-40.5	20.9	0.00e+00	90	33	0	1151336448	50	6784
2026-01-08 12:26:52.06	126.27	6.24	-39.4	-40.6	20.9	0.00e+00	0	33	0	1153433600	50	6918
2026-01-08 12:26:53.07	126.38	6.19	-39.4	-40.6	20.8	0.00e+00	92	33	0	1154482176	50	6894
2026-01-08 12:26:54.07	126.50	6.14	-39.5	-40.8	20.7	0.00e+00	0	33	0	1156579328	50	7018
2026-01-08 12:26:55.09	126.61	6.08	-39.6	-40.9	20.5	0.00e+00	42	33	0	1158676480	50	7146
2026-01-08 12:26:56.09	126.72	6.03	-39.8	-41.1	20.4	0.00e+00	0	33	0	1160773632	52	6502
2026-01-08 12:26:57.10	126.84	5.98	-39.9	-41.2	20.2	0.00e+00	0	33	0	1162870784	52	6584
2026-01-08 12:26:58.11	126.95	5.93	-40.0	-41.4	20.1	0.00e+00	92	33	0	1163919360	52	6693
2026-01-08 12:26:59.12	127.07	5.88	-40.0	-41.3	20.1	0.00e+00	0	33	0	1166016512	52	6684
2026-01-08 12:27:00.13	127.18	5.82	-40.0	-41.4	20.1	0.00e+00	92	33	0	1168113664	52	6707
2026-01-08 12:27:01.14	127.29	5.77	-40.0	-41.4	20.1	0.00e+00	43	33	0	1170210816	52	6703
2026-01-08 12:27:02.15	127.40	5.72	-39.9	-41.2	20.3	0.00e+00	66	33	0	1172307968	52	6564
2026-01-08 12:27:03.16	127.52	5.67	-40.0	-41.4	20.1	0.00e+00	39	33	0	1173356544	52	6706
2026-01-08 12:27:04.17	127.63	5.61	-40.0	-41.3	20.2	0.00e+00	45	33	0	1175453696	52	6659
2026-01-08 12:27:05.18	127.74	5.56	-40.0	-41.3	20.1	0.00e+00	0	33	0	1177550848	52	6681
2026-01-08 12:27:06.19	127.85	5.51	-39.9	-41.2	20.2	0.00e+00	0	33	0	1179648000	52	6573
2026-01-08 12:27:07.20	127.96	5.46	-39.9	-41.3	20.2	0.00e+00	92	33	0	1181745152	52	6627
2026-01-08 12:27:08.20	128.07	5.41	-39.9	-41.2	20.2	0.00e+00	2	33	0	1182793728	52	6580
2026-01-08 12:27:09.21	128.18	5.36	-40.0	-41.4	20.0	0.00e+00	80	33	0	1184890880	52	6742
2026-01-08 12:27:10.22	128.29	5.30	-40.2	-41.6	19.9	0.00e+00	0	33	0	1186988032	52	6850
2026-01-08 12:27:11.23	128.40	5.25	-40.3	-41.7	19.7	0.00e+00	0	33	0	1189085184	52	6997
2026-01-08 12:27:12.24	128.50	5.20	-40.2	-41.6	19.8	0.00e+00	0	33	0	1191182336	52	6908
2026-01-08 12:27:13.25	128.61	5.15	-40.2	-41.6	19.8	0.00e+00	2	33	0	1193279488	52	6921
2026-01-08 12:27:14.26	128.72	5.10	-40.2	-41.7	19.7	0.00e+00	92	33	0	1194328064	52	6953
2026-01-08 12:27:15.27	128.83	5.04	-40.2	-41.7	19.7	0.00e+00	0	33	0	1196425216	52	6931
2026-01-08 12:27:16.28	128.93	4.99	-40.2	-41.7	19.7	0.00e+00	92	33	0	1198522368	52	6954
2026-01-08 12:27:17.29	129.04	4.94	-40.3	-41.7	19.6	0.00e+00	41	33	0	1200619520	52	6964
2026-01-08 12:27:18.30	129.15	4.89	-40.4	-41.8	19.6	0.00e+00	0	33	0	1202716672	52	7066
2026-01-08 12:27:19.31	129.25	4.84	-40.2	-41.5	19.8	0.00e+00	0	33	0	1203765248	52	6848
2026-01-08 12:27:20.32	129.36	4.78	-40.0	-41.4	19.9	0.00e+00	40	33	0	1205862400	52	6718
