passes_logs/2026/01/08/R4.6S_Anadyr/R4.6S_Anadyr__20260108_015133_NOAA_20_JPSS-1_rec.log

#Pass ID: 20260108_015133_NOAA 20 (JPSS-1)
#Satellite: NOAA 20 (JPSS-1)
#Configuration: NOAA 20
#almurnet v.1.7.20251203
#Start time: 2026-01-08 01:51:34

#Version: 2.2.20231116
#Station: R4.6S_Anadyr
#Location: 177.4865 lon 64.73178 lat
#TLE: 1 43013U 17073A   26005.46207808  .00000128  00000+0  81791-4 0  9997
#TLE: 2 43013  98.7627 306.5027 0001826  53.0458 307.0885 14.19533487421381

#Time	Az	El	Level	Level2	SNR	BER	BlckErr	Temp	State	Recorded	gain1	gain2
2026-01-08 01:51:34.62	198.50	0.06	-49.1	-64.0	3.5	1.51e+00	0	36	0	0	60	57605
2026-01-08 01:51:35.63	198.55	0.12	-49.0	-64.2	3.6	1.51e+00	0	37	104	0	60	58776
2026-01-08 01:51:36.64	198.60	0.17	-49.1	-64.4	3.6	1.51e+00	0	37	104	0	60	60246
2026-01-08 01:51:37.65	198.66	0.23	-49.1	-64.3	3.6	1.51e+00	0	37	104	0	60	59433
2026-01-08 01:51:38.66	198.71	0.29	-49.1	-64.3	3.6	1.51e+00	0	37	104	0	60	59479
2026-01-08 01:51:39.67	198.76	0.34	-49.1	-64.3	3.6	1.51e+00	0	37	104	0	60	59434
2026-01-08 01:51:40.68	198.82	0.40	-49.1	-64.2	3.6	1.51e+00	0	37	104	0	60	58895
2026-01-08 01:51:41.69	198.87	0.45	-49.1	-64.3	3.6	1.51e+00	0	37	104	0	60	59364
2026-01-08 01:51:42.70	198.93	0.51	-49.1	-64.3	3.6	1.51e+00	0	37	104	0	60	59050
2026-01-08 01:51:43.71	198.98	0.57	-48.9	-64.2	3.6	1.51e+00	0	37	104	0	60	58692
2026-01-08 01:51:44.72	199.04	0.62	-49.0	-64.2	3.6	1.51e+00	0	37	104	0	60	58735
2026-01-08 01:51:45.73	199.09	0.68	-48.8	-64.1	3.6	1.51e+00	0	37	104	0	60	57936
2026-01-08 01:51:46.74	199.15	0.74	-48.7	-63.9	3.6	1.51e+00	0	37	104	0	60	56339
2026-01-08 01:51:47.75	199.20	0.79	-48.6	-63.7	3.6	1.51e+00	0	37	104	0	60	55183
2026-01-08 01:51:48.76	199.26	0.85	-48.4	-63.6	3.6	1.51e+00	0	37	104	0	60	54724
2026-01-08 01:51:49.77	199.31	0.91	-48.2	-63.4	3.6	1.51e+00	0	37	104	0	60	53489
2026-01-08 01:51:50.78	199.37	0.96	-47.7	-62.9	3.6	1.51e+00	0	37	104	0	60	50414
2026-01-08 01:51:51.79	199.43	1.02	-47.6	-62.7	3.6	1.51e+00	0	37	104	0	60	49584
2026-01-08 01:51:52.80	199.48	1.08	-47.6	-62.7	3.6	1.51e+00	0	37	104	0	60	49434
2026-01-08 01:51:53.81	199.54	1.13	-47.6	-62.8	3.6	1.51e+00	0	37	104	0	60	49667
2026-01-08 01:51:54.82	199.60	1.19	-47.6	-62.8	3.6	1.51e+00	0	37	104	0	60	49701
2026-01-08 01:51:55.82	199.65	1.25	-47.6	-62.8	3.6	1.51e+00	0	37	104	0	60	49848
2026-01-08 01:51:56.83	199.71	1.31	-47.6	-62.8	3.6	1.51e+00	0	37	104	0	60	49698
2026-01-08 01:51:57.85	199.77	1.36	-47.6	-62.8	3.6	1.51e+00	0	37	104	0	60	50039
2026-01-08 01:51:58.86	199.82	1.42	-47.6	-62.8	3.6	1.51e+00	0	37	104	0	60	49915
2026-01-08 01:51:59.86	199.88	1.48	-47.6	-62.8	3.6	1.51e+00	0	37	104	0	60	49728
2026-01-08 01:52:00.86	199.94	1.54	-47.6	-62.8	3.6	1.51e+00	0	37	104	0	60	49851
2026-01-08 01:52:01.87	200.00	1.59	-47.6	-62.8	3.6	1.51e+00	0	37	104	0	60	49939
2026-01-08 01:52:02.88	200.06	1.65	-47.6	-62.8	3.6	1.51e+00	0	38	104	0	60	49805
2026-01-08 01:52:03.89	200.11	1.71	-47.6	-62.8	3.6	1.51e+00	0	37	104	0	60	49713
2026-01-08 01:52:04.90	200.17	1.77	-47.6	-62.7	3.6	1.51e+00	0	37	104	0	60	49557
2026-01-08 01:52:05.91	200.23	1.83	-47.6	-62.7	3.6	1.51e+00	0	38	104	0	60	49369
2026-01-08 01:52:06.92	200.29	1.88	-47.6	-62.7	3.6	1.51e+00	0	37	104	0	60	49178
2026-01-08 01:52:07.93	200.35	1.94	-47.6	-62.8	3.6	1.51e+00	0	37	104	0	60	49660
2026-01-08 01:52:08.94	200.41	2.00	-47.6	-62.7	3.6	1.51e+00	0	37	104	0	60	49419
2026-01-08 01:52:09.95	200.47	2.06	-47.6	-62.8	3.6	1.51e+00	0	38	104	0	60	49645
2026-01-08 01:52:10.96	200.53	2.12	-47.6	-62.7	3.6	1.51e+00	0	38	104	0	60	49526
2026-01-08 01:52:11.97	200.59	2.18	-47.6	-62.7	3.6	1.51e+00	0	38	104	0	60	49567
2026-01-08 01:52:12.98	200.65	2.24	-47.6	-62.8	3.6	1.51e+00	0	38	104	0	60	49771
2026-01-08 01:52:13.99	200.71	2.30	-47.6	-62.8	3.6	1.51e+00	0	37	104	0	60	49632
2026-01-08 01:52:15.00	200.77	2.35	-47.6	-62.6	3.6	1.51e+00	0	37	104	0	60	48677
2026-01-08 01:52:16.01	200.84	2.41	-47.6	-62.2	3.6	1.51e+00	0	38	104	0	60	46331
2026-01-08 01:52:17.02	200.90	2.47	-47.5	-61.5	3.6	1.51e+00	0	38	104	0	60	43083
2026-01-08 01:52:18.03	200.96	2.53	-47.5	-61.2	3.6	1.51e+00	0	38	104	0	60	41714
2026-01-08 01:52:19.04	201.02	2.59	-47.6	-61.5	3.6	1.51e+00	0	38	104	0	60	43039
2026-01-08 01:52:20.05	201.08	2.65	-47.6	-62.3	3.6	1.51e+00	0	38	104	0	60	46933
2026-01-08 01:52:21.06	201.15	2.71	-47.6	-62.5	3.6	1.51e+00	0	38	104	0	60	48312
2026-01-08 01:52:22.07	201.21	2.77	-47.5	-59.8	4.0	1.50e+00	0	38	104	0	60	35298
2026-01-08 01:52:23.08	201.27	2.83	-47.0	-55.1	6.0	7.61e-01	92	38	0	0	60	20468
2026-01-08 01:52:24.09	201.34	2.89	-46.2	-51.5	9.9	7.98e-02	72	38	0	2097152	60	13660
2026-01-08 01:52:25.10	201.40	2.95	-45.4	-49.5	12.2	6.29e-04	92	38	0	4194304	60	10739
2026-01-08 01:52:26.11	201.46	3.01	-44.4	-47.5	14.4	1.83e-05	92	38	0	6291456	60	8611
2026-01-08 01:52:27.12	201.53	3.07	-43.7	-46.3	15.6	0.00e+00	92	38	0	7340032	60	7446
2026-01-08 01:52:28.13	201.59	3.13	-43.1	-45.4	16.5	0.00e+00	92	38	0	9437184	60	6723
2026-01-08 01:52:29.14	201.66	3.19	-43.1	-45.4	16.5	0.00e+00	82	38	0	11534336	60	6704
2026-01-08 01:52:30.15	201.72	3.25	-43.2	-45.6	16.2	0.00e+00	92	38	0	13631488	60	6883
2026-01-08 01:52:31.16	201.79	3.31	-43.8	-46.5	15.3	0.00e+00	0	38	0	15728640	60	7626
2026-01-08 01:52:32.16	201.85	3.38	-44.3	-47.2	14.7	0.00e+00	92	38	0	16777216	60	8278
2026-01-08 01:52:33.17	201.92	3.44	-47.2	-55.0	7.2	3.92e-02	90	38	0	18874368	60	20263
2026-01-08 01:52:34.18	201.98	3.50	-43.8	-46.3	16.3	9.42e-04	92	38	0	20971520	60	7494
2026-01-08 01:52:35.19	202.05	3.56	-47.5	-62.4	3.6	1.19e+00	0	38	104	22020096	60	47923
2026-01-08 01:52:36.20	202.11	3.62	-47.4	-59.5	3.9	1.51e+00	0	38	104	22020096	60	34304
2026-01-08 01:52:37.21	202.18	3.68	-44.7	-47.9	13.9	1.34e+00	92	38	104	22020096	60	8939
2026-01-08 01:52:38.22	202.25	3.74	-42.6	-44.5	17.4	0.00e+00	71	38	0	23068672	58	6819
2026-01-08 01:52:39.23	202.31	3.80	-42.5	-44.5	17.6	0.00e+00	90	38	0	24117248	58	6778
2026-01-08 01:52:40.24	202.38	3.87	-42.3	-44.1	17.9	0.00e+00	92	38	0	26214400	58	6516
2026-01-08 01:52:41.24	202.45	3.93	-42.1	-43.9	18.1	0.00e+00	92	38	0	28311552	58	6368
2026-01-08 01:52:42.26	202.52	3.99	-42.2	-44.0	18.0	0.00e+00	92	38	0	30408704	58	6402
2026-01-08 01:52:43.27	202.58	4.05	-42.0	-43.8	18.3	0.00e+00	92	38	0	32505856	58	6253
2026-01-08 01:52:44.27	202.65	4.11	-41.9	-43.5	18.5	0.00e+00	90	38	0	33554432	58	6099
2026-01-08 01:52:45.27	202.72	4.18	-41.9	-43.6	18.4	0.00e+00	88	38	0	35651584	58	6140
2026-01-08 01:52:46.28	202.79	4.24	-41.9	-43.7	18.5	0.00e+00	92	38	0	37748736	58	6177
2026-01-08 01:52:47.29	202.86	4.30	-41.8	-43.4	18.7	0.00e+00	22	38	0	39845888	58	6029
2026-01-08 01:52:48.30	202.93	4.36	-41.7	-43.3	18.8	0.00e+00	92	38	0	41943040	56	6670
2026-01-08 01:52:49.31	203.00	4.43	-41.8	-43.4	18.8	0.00e+00	92	37	0	42991616	56	6708
2026-01-08 01:52:50.32	203.07	4.49	-41.6	-43.2	18.9	0.00e+00	90	38	0	45088768	56	6585
2026-01-08 01:52:51.33	203.14	4.55	-41.6	-43.2	19.0	0.00e+00	91	38	0	47185920	56	6566
2026-01-08 01:52:52.34	203.21	4.61	-41.7	-43.3	18.9	0.00e+00	73	38	0	49283072	56	6647
2026-01-08 01:52:53.35	203.28	4.68	-41.6	-43.2	19.0	0.00e+00	91	38	0	51380224	56	6599
2026-01-08 01:52:54.36	203.35	4.74	-41.6	-43.2	19.0	0.00e+00	0	38	0	53477376	56	6586
2026-01-08 01:52:55.37	203.42	4.80	-41.8	-43.4	18.8	0.00e+00	90	38	0	54525952	56	6761
2026-01-08 01:52:56.37	203.49	4.87	-41.5	-43.1	19.1	0.00e+00	91	38	0	56623104	56	6484
2026-01-08 01:52:57.38	203.57	4.93	-41.6	-43.2	19.1	0.00e+00	90	38	0	58720256	56	6553
2026-01-08 01:52:58.39	203.64	4.99	-41.6	-43.2	19.1	0.00e+00	91	38	0	60817408	56	6552
2026-01-08 01:52:59.40	203.71	5.06	-41.8	-43.4	19.0	0.00e+00	0	38	0	62914560	56	6695
2026-01-08 01:53:00.41	203.78	5.12	-41.8	-43.4	18.8	0.00e+00	92	38	0	63963136	56	6744
2026-01-08 01:53:01.42	203.86	5.19	-41.7	-43.3	19.2	0.00e+00	80	38	0	66060288	56	6623
2026-01-08 01:53:02.43	203.93	5.25	-41.3	-42.7	19.6	0.00e+00	90	38	0	68157440	56	6223
2026-01-08 01:53:03.44	204.01	5.32	-41.4	-42.9	19.4	0.00e+00	80	38	0	70254592	56	6363
2026-01-08 01:53:04.45	204.08	5.38	-41.4	-42.9	19.5	0.00e+00	92	38	0	72351744	56	6342
2026-01-08 01:53:05.45	204.15	5.44	-41.3	-42.8	19.6	0.00e+00	92	38	0	73400320	56	6265
2026-01-08 01:53:06.46	204.23	5.51	-41.1	-42.5	19.7	0.00e+00	90	38	0	75497472	56	6099
2026-01-08 01:53:07.47	204.30	5.57	-41.2	-42.6	19.7	0.00e+00	92	38	0	77594624	56	6135
2026-01-08 01:53:08.48	204.38	5.64	-41.3	-42.8	19.5	0.00e+00	0	38	0	79691776	56	6248
2026-01-08 01:53:09.49	204.46	5.70	-41.1	-42.5	19.9	0.00e+00	92	38	0	81788928	56	6048
2026-01-08 01:53:10.50	204.53	5.77	-41.0	-42.4	19.9	0.00e+00	6	38	0	82837504	56	6015
2026-01-08 01:53:11.51	204.61	5.83	-40.9	-42.3	20.0	0.00e+00	92	38	0	84934656	56	5945
2026-01-08 01:53:12.52	204.68	5.90	-41.0	-42.4	19.9	0.00e+00	92	38	0	87031808	56	6022
2026-01-08 01:53:13.53	204.76	5.97	-40.9	-42.3	20.0	0.00e+00	90	38	0	89128960	56	5925
2026-01-08 01:53:14.54	204.84	6.03	-40.9	-42.3	20.1	0.00e+00	92	38	0	91226112	56	5932
2026-01-08 01:53:15.55	204.92	6.10	-40.9	-42.3	20.0	0.00e+00	10	38	0	92274688	56	5944
2026-01-08 01:53:16.55	204.99	6.16	-40.8	-42.2	20.2	0.00e+00	92	38	0	94371840	56	5855
2026-01-08 01:53:17.56	205.07	6.23	-40.9	-42.2	20.1	0.00e+00	0	38	0	96468992	56	5883
2026-01-08 01:53:18.57	205.15	6.29	-40.8	-42.1	20.3	0.00e+00	92	38	0	98566144	56	5820
2026-01-08 01:53:19.58	205.23	6.36	-40.5	-41.7	20.5	0.00e+00	67	38	0	100663296	54	6241
2026-01-08 01:53:20.59	205.31	6.43	-40.5	-41.8	20.5	0.00e+00	92	38	0	101711872	54	6280
2026-01-08 01:53:21.60	205.39	6.49	-40.4	-41.7	20.5	0.00e+00	92	38	0	103809024	54	6219
2026-01-08 01:53:22.61	205.47	6.56	-40.4	-41.7	20.6	0.00e+00	92	38	0	105906176	54	6189
2026-01-08 01:53:23.62	205.55	6.63	-40.3	-41.6	20.8	0.00e+00	92	38	0	108003328	54	6113
2026-01-08 01:53:24.63	205.63	6.69	-40.2	-41.4	20.9	0.00e+00	86	38	0	110100480	54	6000
2026-01-08 01:53:25.64	205.71	6.76	-40.3	-41.5	20.8	0.00e+00	92	38	0	111149056	54	6083
2026-01-08 01:53:26.65	205.80	6.83	-40.4	-41.6	20.7	0.00e+00	75	38	0	113246208	54	6170
2026-01-08 01:53:27.66	205.88	6.90	-40.4	-41.6	20.7	0.00e+00	90	38	0	115343360	54	6162
2026-01-08 01:53:28.67	205.96	6.96	-40.3	-41.5	20.9	0.00e+00	92	38	0	117440512	54	6051
2026-01-08 01:53:29.68	206.04	7.03	-40.2	-41.5	21.0	0.00e+00	92	38	0	119537664	54	6052
2026-01-08 01:53:30.69	206.13	7.10	-39.8	-40.9	21.4	0.00e+00	92	38	0	121634816	54	5688
2026-01-08 01:53:31.70	206.21	7.17	-39.8	-41.0	21.4	0.00e+00	6	38	0	122683392	52	6391
2026-01-08 01:53:32.71	206.29	7.24	-39.7	-40.8	21.6	0.00e+00	92	38	0	124780544	52	6270
2026-01-08 01:53:33.72	206.38	7.30	-39.6	-40.7	21.7	0.00e+00	11	38	0	126877696	52	6183
2026-01-08 01:53:34.73	206.46	7.37	-39.5	-40.6	21.7	0.00e+00	91	38	0	128974848	52	6171
2026-01-08 01:53:35.73	206.55	7.44	-39.5	-40.7	21.7	0.00e+00	90	38	0	130023424	52	6174
2026-01-08 01:53:36.74	206.63	7.51	-39.6	-40.7	21.8	0.00e+00	91	38	0	132120576	52	6222
2026-01-08 01:53:37.75	206.72	7.58	-39.4	-40.5	21.9	0.00e+00	91	38	0	134217728	52	6043
2026-01-08 01:53:38.76	206.80	7.65	-39.3	-40.4	22.0	0.00e+00	14	38	0	136314880	52	6003
2026-01-08 01:53:39.77	206.89	7.71	-39.3	-40.4	22.0	0.00e+00	90	38	0	138412032	52	5982
2026-01-08 01:53:40.78	206.98	7.78	-39.3	-40.4	22.0	0.00e+00	12	38	0	139460608	52	5989
2026-01-08 01:53:41.79	207.06	7.85	-39.3	-40.3	22.0	0.00e+00	92	38	0	141557760	52	5964
2026-01-08 01:53:42.80	207.15	7.92	-39.2	-40.2	22.2	0.00e+00	92	38	0	143654912	52	5878
2026-01-08 01:53:43.81	207.24	7.99	-39.2	-40.2	22.1	0.00e+00	92	38	0	145752064	52	5885
2026-01-08 01:53:44.82	207.33	8.06	-39.2	-40.2	22.1	0.00e+00	92	38	0	147849216	52	5869
2026-01-08 01:53:45.83	207.42	8.13	-39.2	-40.3	22.1	0.00e+00	92	38	0	149946368	52	5917
2026-01-08 01:53:46.84	207.51	8.20	-39.1	-40.2	22.1	0.00e+00	92	38	0	150994944	52	5851
2026-01-08 01:53:47.85	207.60	8.27	-39.2	-40.2	22.2	0.00e+00	0	38	0	153092096	52	5858
2026-01-08 01:53:48.86	207.69	8.34	-39.3	-40.4	22.0	0.00e+00	92	38	0	155189248	52	5973
2026-01-08 01:53:49.86	207.78	8.41	-39.0	-40.0	22.3	0.00e+00	92	38	0	157286400	52	5735
2026-01-08 01:53:50.88	207.87	8.48	-39.1	-40.2	22.3	0.00e+00	92	38	0	159383552	52	5844
2026-01-08 01:53:51.89	207.96	8.55	-39.0	-40.0	22.4	0.00e+00	92	38	0	160432128	52	5720
2026-01-08 01:53:52.89	208.05	8.62	-39.0	-40.0	22.4	0.00e+00	92	38	0	162529280	52	5717
2026-01-08 01:53:53.90	208.14	8.69	-39.0	-40.0	22.4	0.00e+00	91	38	0	164626432	52	5736
2026-01-08 01:53:54.91	208.23	8.76	-38.9	-40.0	22.5	0.00e+00	4	38	0	166723584	52	5698
2026-01-08 01:53:55.92	208.33	8.83	-39.1	-40.1	22.4	0.00e+00	92	38	0	168820736	52	5790
2026-01-08 01:53:56.93	208.42	8.91	-39.1	-40.1	22.3	0.00e+00	0	38	0	169869312	52	5814
2026-01-08 01:53:57.94	208.51	8.98	-38.9	-39.9	22.5	0.00e+00	92	38	0	171966464	52	5676
2026-01-08 01:53:58.95	208.61	9.05	-38.8	-39.8	22.6	0.00e+00	92	38	0	174063616	52	5572
2026-01-08 01:53:59.95	208.70	9.12	-38.8	-39.8	22.6	0.00e+00	90	38	0	176160768	52	5616
2026-01-08 01:54:00.96	208.80	9.19	-38.7	-39.7	22.6	0.00e+00	92	38	0	178257920	50	6233
2026-01-08 01:54:01.97	208.89	9.26	-38.7	-39.7	22.7	0.00e+00	92	38	0	179306496	50	6231
2026-01-08 01:54:02.98	208.99	9.34	-38.7	-39.7	22.7	0.00e+00	92	38	0	181403648	50	6195
2026-01-08 01:54:03.99	209.09	9.41	-38.7	-39.6	22.6	0.00e+00	79	38	0	183500800	50	6169
2026-01-08 01:54:05.00	209.18	9.48	-38.5	-39.5	22.9	0.00e+00	92	38	0	185597952	50	6074
2026-01-08 01:54:06.01	209.28	9.55	-38.6	-39.6	22.8	0.00e+00	90	38	0	187695104	50	6107
2026-01-08 01:54:07.01	209.38	9.62	-38.5	-39.5	22.9	0.00e+00	92	38	0	188743680	50	6059
2026-01-08 01:54:08.02	209.48	9.70	-38.5	-39.5	22.9	0.00e+00	90	38	0	190840832	50	6051
2026-01-08 01:54:09.03	209.58	9.77	-38.6	-39.6	22.8	0.00e+00	92	38	0	192937984	50	6116
2026-01-08 01:54:10.04	209.68	9.84	-38.5	-39.5	22.9	0.00e+00	92	38	0	195035136	50	6055
2026-01-08 01:54:11.05	209.78	9.92	-38.6	-39.5	22.9	0.00e+00	0	38	0	197132288	50	6089
2026-01-08 01:54:12.06	209.88	9.99	-38.5	-39.5	23.0	0.00e+00	92	38	0	198180864	50	6041
2026-01-08 01:54:13.07	209.98	10.06	-38.5	-39.5	22.9	0.00e+00	0	38	0	200278016	50	6051
2026-01-08 01:54:14.08	210.08	10.14	-38.5	-39.5	22.9	0.00e+00	92	38	0	202375168	50	6051
2026-01-08 01:54:15.09	210.18	10.21	-38.5	-39.4	23.0	0.00e+00	92	38	0	204472320	50	6008
2026-01-08 01:54:16.10	210.28	10.29	-38.5	-39.5	22.9	0.00e+00	90	38	0	206569472	50	6037
2026-01-08 01:54:17.11	210.38	10.36	-38.5	-39.4	23.0	0.00e+00	92	38	0	207618048	50	6023
2026-01-08 01:54:18.12	210.49	10.43	-38.5	-39.5	23.0	0.00e+00	2	38	0	209715200	50	6059
2026-01-08 01:54:19.13	210.59	10.51	-38.4	-39.3	23.1	0.00e+00	91	38	0	211812352	50	5943
2026-01-08 01:54:20.14	210.70	10.58	-38.4	-39.4	23.1	0.00e+00	0	38	0	213909504	50	5975
2026-01-08 01:54:21.14	210.80	10.66	-38.4	-39.3	23.1	0.00e+00	92	38	0	216006656	50	5949
2026-01-08 01:54:22.15	210.91	10.73	-38.4	-39.4	23.0	0.00e+00	90	38	0	218103808	50	5976
2026-01-08 01:54:23.16	211.01	10.81	-38.3	-39.3	23.1	0.00e+00	91	38	0	219152384	50	5918
2026-01-08 01:54:24.17	211.12	10.88	-38.3	-39.2	23.2	0.00e+00	91	38	0	221249536	50	5879
2026-01-08 01:54:25.17	211.22	10.96	-38.3	-39.2	23.2	0.00e+00	91	38	0	223346688	50	5864
2026-01-08 01:54:26.18	211.33	11.03	-38.2	-39.1	23.3	0.00e+00	92	38	0	225443840	50	5828
2026-01-08 01:54:27.19	211.44	11.11	-38.2	-39.2	23.3	0.00e+00	0	38	0	227540992	50	5832
2026-01-08 01:54:28.20	211.55	11.18	-38.3	-39.2	23.2	0.00e+00	91	38	0	228589568	50	5862
2026-01-08 01:54:29.21	211.66	11.26	-38.2	-39.2	23.2	0.00e+00	90	38	0	230686720	50	5847
2026-01-08 01:54:30.21	211.77	11.33	-38.1	-39.0	23.4	0.00e+00	92	38	0	232783872	50	5728
2026-01-08 01:54:31.22	211.88	11.41	-38.1	-39.0	23.4	0.00e+00	92	38	0	234881024	50	5740
2026-01-08 01:54:32.24	211.99	11.49	-38.0	-38.9	23.5	0.00e+00	92	38	0	235929600	50	5679
2026-01-08 01:54:33.24	212.10	11.56	-38.0	-38.9	23.5	0.00e+00	92	38	0	238026752	50	5682
2026-01-08 01:54:34.25	212.21	11.64	-38.0	-38.9	23.5	0.00e+00	0	38	0	240123904	50	5680
2026-01-08 01:54:35.26	212.32	11.72	-38.0	-39.0	23.4	0.00e+00	90	38	0	242221056	50	5711
2026-01-08 01:54:36.27	212.43	11.79	-38.0	-39.0	23.4	0.00e+00	0	38	0	244318208	50	5702
2026-01-08 01:54:37.28	212.55	11.87	-38.0	-38.9	23.5	0.00e+00	92	38	0	246415360	50	5648
2026-01-08 01:54:38.29	212.66	11.95	-38.1	-39.0	23.4	0.00e+00	92	38	0	247463936	50	5722
2026-01-08 01:54:39.30	212.78	12.02	-38.0	-38.9	23.5	0.00e+00	92	38	0	249561088	50	5695
2026-01-08 01:54:40.31	212.89	12.10	-38.2	-39.1	23.2	0.00e+00	92	38	0	251658240	50	5818
2026-01-08 01:54:41.32	213.01	12.18	-38.2	-39.1	23.4	0.00e+00	92	38	0	253755392	50	5811
2026-01-08 01:54:42.33	213.12	12.26	-38.3	-39.3	23.2	0.00e+00	92	38	0	255852544	50	5926
2026-01-08 01:54:43.33	213.24	12.33	-38.0	-38.9	23.4	0.00e+00	0	38	0	256901120	50	5684
2026-01-08 01:54:44.34	213.36	12.41	-38.2	-39.1	23.3	0.00e+00	92	38	0	258998272	50	5796
2026-01-08 01:54:45.35	213.48	12.49	-38.2	-39.1	23.4	0.00e+00	92	38	0	261095424	50	5794
2026-01-08 01:54:46.36	213.60	12.57	-38.2	-39.2	23.3	0.00e+00	92	38	0	263192576	50	5829
2026-01-08 01:54:47.37	213.71	12.65	-38.3	-39.2	23.3	0.00e+00	90	38	0	265289728	50	5887
2026-01-08 01:54:48.38	213.83	12.72	-38.3	-39.3	23.2	0.00e+00	92	38	0	266338304	50	5909
2026-01-08 01:54:49.39	213.96	12.80	-38.3	-39.3	23.1	0.00e+00	90	38	0	268435456	50	5912
2026-01-08 01:54:50.40	214.08	12.88	-38.4	-39.3	23.2	0.00e+00	0	38	0	270532608	50	5957
2026-01-08 01:54:51.41	214.20	12.96	-38.5	-39.4	23.1	0.00e+00	90	38	0	272629760	50	6010
2026-01-08 01:54:52.42	214.32	13.04	-38.4	-39.3	23.1	0.00e+00	12	38	0	274726912	50	5950
2026-01-08 01:54:53.43	214.44	13.12	-38.4	-39.3	23.1	0.00e+00	92	38	0	275775488	50	5951
2026-01-08 01:54:54.44	214.57	13.20	-38.4	-39.3	23.2	0.00e+00	92	38	0	277872640	50	5932
2026-01-08 01:54:55.44	214.69	13.28	-38.5	-39.4	23.1	0.00e+00	92	38	0	279969792	50	6023
2026-01-08 01:54:56.45	214.82	13.36	-38.4	-39.3	23.1	0.00e+00	92	38	0	282066944	50	5956
2026-01-08 01:54:57.47	214.94	13.44	-38.2	-39.2	23.3	0.00e+00	92	38	0	284164096	50	5838
2026-01-08 01:54:58.47	215.07	13.52	-38.4	-39.3	23.1	0.00e+00	92	38	0	285212672	50	5929
2026-01-08 01:54:59.48	215.20	13.60	-38.3	-39.2	23.3	0.00e+00	0	38	0	287309824	50	5887
2026-01-08 01:55:00.49	215.32	13.68	-38.4	-39.3	23.2	0.00e+00	92	38	0	289406976	50	5949
2026-01-08 01:55:01.50	215.45	13.76	-38.4	-39.4	23.1	0.00e+00	92	38	0	291504128	50	5992
2026-01-08 01:55:02.51	215.58	13.84	-38.2	-39.1	23.3	0.00e+00	92	38	0	293601280	50	5806
2026-01-08 01:55:03.52	215.71	13.92	-38.3	-39.2	23.3	0.00e+00	90	38	0	294649856	50	5857
2026-01-08 01:55:04.53	215.84	14.00	-38.3	-39.2	23.3	0.00e+00	92	38	0	296747008	50	5890
2026-01-08 01:55:05.54	215.97	14.08	-38.3	-39.2	23.3	0.00e+00	90	38	0	298844160	50	5871
2026-01-08 01:55:06.55	216.10	14.16	-38.4	-39.4	23.1	0.00e+00	81	38	0	300941312	50	5996
2026-01-08 01:55:07.56	216.24	14.24	-38.3	-39.3	23.2	0.00e+00	92	38	0	303038464	50	5904
2026-01-08 01:55:08.57	216.37	14.32	-38.4	-39.3	23.2	0.00e+00	70	38	0	304087040	50	5951
2026-01-08 01:55:09.57	216.50	14.40	-38.3	-39.2	23.2	0.00e+00	92	38	0	306184192	50	5896
2026-01-08 01:55:10.58	216.64	14.49	-38.4	-39.4	23.1	0.00e+00	92	38	0	308281344	50	5983
2026-01-08 01:55:11.59	216.77	14.57	-38.3	-39.2	23.3	0.00e+00	90	38	0	310378496	50	5867
2026-01-08 01:55:12.60	216.91	14.65	-38.4	-39.3	23.1	0.00e+00	92	38	0	312475648	50	5950
2026-01-08 01:55:13.61	217.04	14.73	-38.3	-39.2	23.3	0.00e+00	0	38	0	314572800	50	5887
2026-01-08 01:55:14.62	217.18	14.81	-38.3	-39.2	23.3	0.00e+00	92	38	0	315621376	50	5874
2026-01-08 01:55:15.63	217.32	14.89	-38.3	-39.2	23.3	0.00e+00	0	38	0	317718528	50	5846
2026-01-08 01:55:16.64	217.46	14.98	-38.4	-39.4	23.1	0.00e+00	91	38	0	319815680	50	5968
2026-01-08 01:55:17.64	217.60	15.06	-38.4	-39.3	23.2	0.00e+00	90	38	0	321912832	50	5941
2026-01-08 01:55:18.65	217.74	15.14	-38.5	-39.5	23.1	0.00e+00	92	38	0	324009984	50	6049
2026-01-08 01:55:19.66	217.88	15.22	-38.5	-39.4	23.1	0.00e+00	90	38	0	325058560	50	5994
2026-01-08 01:55:20.67	218.02	15.31	-38.5	-39.4	23.0	0.00e+00	92	38	0	327155712	50	6017
2026-01-08 01:55:21.68	218.16	15.39	-38.4	-39.4	23.1	0.00e+00	91	38	0	329252864	50	5986
2026-01-08 01:55:22.69	218.31	15.47	-38.4	-39.4	23.2	0.00e+00	2	38	0	331350016	50	5967
2026-01-08 01:55:23.70	218.45	15.56	-38.4	-39.3	23.1	0.00e+00	91	38	0	333447168	50	5961
2026-01-08 01:55:24.71	218.60	15.64	-38.4	-39.3	23.2	0.00e+00	92	38	0	334495744	50	5930
2026-01-08 01:55:25.72	218.74	15.72	-38.5	-39.4	23.2	0.00e+00	91	38	0	336592896	50	6008
2026-01-08 01:55:26.73	218.89	15.81	-38.4	-39.3	23.2	0.00e+00	92	38	0	338690048	50	5931
2026-01-08 01:55:27.74	219.04	15.89	-38.4	-39.3	23.2	0.00e+00	92	38	0	340787200	50	5938
2026-01-08 01:55:28.75	219.18	15.97	-38.3	-39.2	23.3	0.00e+00	90	38	0	342884352	50	5893
2026-01-08 01:55:29.76	219.33	16.06	-38.2	-39.2	23.4	0.00e+00	75	38	0	343932928	50	5838
2026-01-08 01:55:30.77	219.48	16.14	-38.3	-39.2	23.2	0.00e+00	91	38	0	346030080	50	5883
2026-01-08 01:55:31.78	219.63	16.22	-38.3	-39.2	23.3	0.00e+00	92	38	0	348127232	50	5879
2026-01-08 01:55:32.79	219.79	16.31	-38.3	-39.3	23.2	0.00e+00	92	38	0	350224384	50	5899
2026-01-08 01:55:33.80	219.94	16.39	-38.3	-39.3	23.3	0.00e+00	92	38	0	352321536	50	5902
2026-01-08 01:55:34.81	220.09	16.48	-38.3	-39.2	23.3	0.00e+00	92	38	0	353370112	50	5868
2026-01-08 01:55:35.81	220.24	16.56	-38.4	-39.3	23.1	0.00e+00	92	38	0	355467264	50	5941
2026-01-08 01:55:36.82	220.40	16.65	-38.4	-39.4	23.0	0.00e+00	2	38	0	357564416	50	5987
2026-01-08 01:55:37.83	220.55	16.73	-38.4	-39.3	23.1	0.00e+00	92	38	0	359661568	50	5959
2026-01-08 01:55:38.84	220.71	16.81	-38.6	-39.6	23.0	0.00e+00	85	38	0	361758720	50	6143
2026-01-08 01:55:39.85	220.87	16.90	-38.5	-39.4	23.2	0.00e+00	92	38	0	362807296	50	6006
2026-01-08 01:55:40.86	221.03	16.98	-38.4	-39.4	23.2	0.00e+00	92	38	0	364904448	50	5990
2026-01-08 01:55:41.87	221.18	17.07	-38.4	-39.4	23.1	0.00e+00	92	38	0	367001600	50	5992
2026-01-08 01:55:42.88	221.34	17.15	-38.5	-39.5	23.1	0.00e+00	92	38	0	369098752	50	6034
2026-01-08 01:55:43.89	221.51	17.24	-38.1	-39.0	23.6	0.00e+00	10	38	0	371195904	50	5740
2026-01-08 01:55:44.90	221.67	17.32	-38.1	-39.1	23.5	0.00e+00	92	38	0	372244480	50	5768
2026-01-08 01:55:45.91	221.83	17.41	-38.0	-39.0	23.6	0.00e+00	10	38	0	374341632	50	5696
2026-01-08 01:55:46.92	221.99	17.50	-37.9	-38.8	23.8	0.00e+00	92	38	0	376438784	50	5598
2026-01-08 01:55:47.93	222.16	17.58	-37.9	-38.8	23.7	0.00e+00	92	38	0	378535936	50	5602
2026-01-08 01:55:48.94	222.32	17.67	-37.8	-38.7	23.8	0.00e+00	92	38	0	380633088	50	5551
2026-01-08 01:55:49.95	222.49	17.75	-37.8	-38.6	23.8	0.00e+00	92	38	0	382730240	48	6172
2026-01-08 01:55:50.96	222.66	17.84	-37.7	-38.5	23.9	0.00e+00	77	38	0	383778816	48	6094
2026-01-08 01:55:51.96	222.82	17.92	-37.4	-38.3	24.2	0.00e+00	92	38	0	385875968	48	5910
2026-01-08 01:55:52.97	222.99	18.01	-37.4	-38.3	24.2	0.00e+00	13	38	0	387973120	48	5908
2026-01-08 01:55:53.98	223.16	18.09	-37.3	-38.1	24.2	0.00e+00	92	38	0	390070272	48	5806
2026-01-08 01:55:54.99	223.33	18.18	-37.1	-38.0	24.4	0.00e+00	92	38	0	392167424	48	5703
2026-01-08 01:55:56.00	223.50	18.27	-37.1	-37.9	24.4	0.00e+00	90	38	0	393216000	48	5682
2026-01-08 01:55:57.01	223.68	18.35	-37.0	-37.8	24.5	0.00e+00	92	38	0	395313152	48	5609
2026-01-08 01:55:58.02	223.85	18.44	-37.0	-37.9	24.5	0.00e+00	92	38	0	397410304	48	5631
2026-01-08 01:55:59.03	224.02	18.52	-37.1	-37.9	24.5	0.00e+00	92	38	0	399507456	48	5695
2026-01-08 01:56:00.04	224.20	18.61	-37.0	-37.9	24.4	0.00e+00	0	38	0	401604608	48	5642
2026-01-08 01:56:01.05	224.38	18.70	-37.1	-37.9	24.5	0.00e+00	92	38	0	402653184	48	5662
2026-01-08 01:56:02.06	224.55	18.78	-37.0	-37.8	24.5	0.00e+00	90	38	0	404750336	48	5608
2026-01-08 01:56:03.07	224.73	18.87	-36.9	-37.7	24.6	0.00e+00	92	38	0	406847488	48	5550
2026-01-08 01:56:04.07	224.91	18.95	-37.0	-37.9	24.6	0.00e+00	92	38	0	408944640	48	5631
2026-01-08 01:56:05.08	225.09	19.04	-36.9	-37.8	24.5	0.00e+00	92	38	0	411041792	48	5571
2026-01-08 01:56:06.09	225.27	19.13	-37.1	-37.9	24.5	0.00e+00	92	38	0	412090368	48	5677
2026-01-08 01:56:07.10	225.45	19.21	-37.1	-37.9	24.5	0.00e+00	16	38	0	414187520	48	5678
2026-01-08 01:56:08.11	225.64	19.30	-37.2	-38.1	24.3	0.00e+00	92	38	0	416284672	48	5773
2026-01-08 01:56:09.12	225.82	19.39	-37.0	-37.9	24.4	0.00e+00	8	38	0	418381824	48	5646
2026-01-08 01:56:10.12	226.01	19.47	-37.2	-38.0	24.4	0.00e+00	92	38	0	420478976	48	5731
2026-01-08 01:56:11.13	226.19	19.56	-37.1	-37.9	24.6	0.00e+00	92	38	0	421527552	48	5681
2026-01-08 01:56:12.14	226.38	19.64	-37.1	-37.9	24.5	0.00e+00	92	38	0	423624704	48	5649
2026-01-08 01:56:13.15	226.57	19.73	-36.9	-37.7	24.6	0.00e+00	92	38	0	425721856	48	5564
2026-01-08 01:56:14.16	226.76	19.82	-36.8	-37.6	24.8	0.00e+00	92	38	0	427819008	46	6137
2026-01-08 01:56:15.17	226.95	19.90	-36.8	-37.7	24.7	0.00e+00	92	38	0	429916160	46	6175
2026-01-08 01:56:16.17	227.14	19.99	-36.8	-37.6	24.8	0.00e+00	12	38	0	430964736	46	6140
2026-01-08 01:56:17.18	227.33	20.08	-36.8	-37.6	24.7	0.00e+00	92	38	0	433061888	46	6136
2026-01-08 01:56:18.19	227.52	20.16	-36.8	-37.6	24.8	0.00e+00	92	38	0	435159040	46	6132
2026-01-08 01:56:19.20	227.72	20.25	-37.0	-37.8	24.6	0.00e+00	92	38	0	437256192	46	6286
2026-01-08 01:56:20.21	227.92	20.33	-36.9	-37.7	24.7	0.00e+00	92	38	0	439353344	46	6188
2026-01-08 01:56:21.22	228.11	20.42	-36.6	-37.4	24.8	0.00e+00	91	38	0	440401920	46	6014
2026-01-08 01:56:22.23	228.31	20.51	-36.5	-37.2	25.0	0.00e+00	91	38	0	442499072	46	5896
2026-01-08 01:56:23.24	228.51	20.59	-36.5	-37.2	25.1	0.00e+00	7	38	0	444596224	46	5896
2026-01-08 01:56:24.25	228.71	20.68	-36.3	-37.1	25.2	0.00e+00	90	38	0	446693376	46	5807
2026-01-08 01:56:25.26	228.91	20.77	-36.2	-37.0	25.3	0.00e+00	0	38	0	448790528	46	5744
2026-01-08 01:56:26.27	229.11	20.85	-36.2	-37.0	25.3	0.00e+00	92	38	0	449839104	46	5725
2026-01-08 01:56:27.28	229.32	20.94	-36.2	-36.9	25.3	0.00e+00	91	38	0	451936256	46	5685
2026-01-08 01:56:28.28	229.52	21.02	-36.1	-36.9	25.4	0.00e+00	92	38	0	454033408	46	5664
2026-01-08 01:56:29.29	229.72	21.11	-36.1	-36.8	25.4	0.00e+00	91	38	0	456130560	46	5611
2026-01-08 01:56:30.30	229.93	21.19	-35.9	-36.7	25.5	0.00e+00	0	38	0	458227712	46	5535
2026-01-08 01:56:31.31	230.14	21.28	-36.0	-36.7	25.3	0.00e+00	92	38	0	459276288	46	5553
2026-01-08 01:56:32.32	230.35	21.37	-35.9	-36.6	25.6	0.00e+00	0	38	0	461373440	46	5492
2026-01-08 01:56:33.33	230.56	21.45	-35.8	-36.6	25.6	0.00e+00	92	38	0	463470592	46	5457
2026-01-08 01:56:34.34	230.77	21.54	-35.7	-36.4	25.7	0.00e+00	92	38	0	465567744	44	6022
2026-01-08 01:56:35.35	230.98	21.62	-35.8	-36.6	25.6	0.00e+00	67	38	0	467664896	44	6131
2026-01-08 01:56:36.36	231.20	21.71	-35.7	-36.5	25.7	0.00e+00	92	38	0	468713472	44	6059
2026-01-08 01:56:37.37	231.41	21.79	-36.0	-36.7	25.5	0.00e+00	92	38	0	470810624	44	6231
2026-01-08 01:56:38.38	231.63	21.88	-36.0	-36.8	25.4	0.00e+00	92	38	0	472907776	44	6287
2026-01-08 01:56:39.39	231.84	21.96	-36.2	-37.0	25.3	0.00e+00	0	38	0	475004928	44	6433
2026-01-08 01:56:40.40	232.06	22.05	-36.2	-37.0	25.2	0.00e+00	92	38	0	477102080	44	6443
2026-01-08 01:56:41.41	232.28	22.13	-36.4	-37.2	25.1	0.00e+00	85	38	0	479199232	44	6581
2026-01-08 01:56:42.41	232.50	22.21	-36.6	-37.4	24.9	0.00e+00	92	38	0	480247808	44	6707
2026-01-08 01:56:43.42	232.72	22.30	-36.6	-37.4	25.0	0.00e+00	92	38	0	482344960	44	6720
2026-01-08 01:56:44.43	232.94	22.38	-36.7	-37.5	24.8	0.00e+00	68	38	0	484442112	44	6794
2026-01-08 01:56:45.44	233.17	22.47	-36.7	-37.6	24.8	0.00e+00	92	38	0	486539264	46	6113
2026-01-08 01:56:46.45	233.39	22.55	-36.8	-37.6	24.9	0.00e+00	0	38	0	488636416	46	6145
2026-01-08 01:56:47.46	233.62	22.63	-36.7	-37.5	24.9	0.00e+00	92	38	0	489684992	46	6044
2026-01-08 01:56:48.47	233.85	22.72	-36.8	-37.6	24.9	0.00e+00	0	38	0	491782144	46	6118
2026-01-08 01:56:49.48	234.08	22.80	-36.7	-37.5	24.9	0.00e+00	92	38	0	493879296	46	6088
2026-01-08 01:56:50.49	234.31	22.88	-36.9	-37.7	24.7	0.00e+00	92	38	0	495976448	46	6193
2026-01-08 01:56:51.50	234.54	22.97	-36.8	-37.6	24.8	0.00e+00	92	38	0	498073600	46	6142
2026-01-08 01:56:52.51	234.77	23.05	-36.9	-37.7	24.7	0.00e+00	92	38	0	499122176	46	6214
2026-01-08 01:56:53.52	235.00	23.13	-36.7	-37.5	24.9	0.00e+00	92	38	0	501219328	46	6066
2026-01-08 01:56:54.53	235.24	23.21	-36.8	-37.6	24.9	0.00e+00	92	38	0	503316480	46	6133
2026-01-08 01:56:55.53	235.47	23.29	-36.8	-37.6	24.9	0.00e+00	0	38	0	505413632	46	6122
2026-01-08 01:56:56.54	235.71	23.38	-36.8	-37.6	24.8	0.00e+00	92	38	0	507510784	46	6149
2026-01-08 01:56:57.56	235.95	23.46	-36.9	-37.7	24.7	0.00e+00	92	38	0	508559360	46	6207
2026-01-08 01:56:58.56	236.19	23.54	-37.1	-37.9	24.6	0.00e+00	92	38	0	510656512	46	6346
2026-01-08 01:56:59.57	236.43	23.62	-37.0	-37.8	24.7	0.00e+00	92	38	0	512753664	46	6289
2026-01-08 01:57:00.58	236.67	23.70	-37.0	-37.8	24.7	0.00e+00	79	38	0	514850816	46	6275
2026-01-08 01:57:01.59	236.91	23.78	-37.0	-37.9	24.6	0.00e+00	90	38	0	516947968	46	6320
2026-01-08 01:57:02.60	237.16	23.86	-37.1	-37.9	24.6	0.00e+00	0	38	0	517996544	46	6345
2026-01-08 01:57:03.61	237.40	23.94	-37.1	-38.0	24.5	0.00e+00	92	38	0	520093696	46	6404
2026-01-08 01:57:04.62	237.65	24.02	-37.3	-38.1	24.3	0.00e+00	85	38	0	522190848	46	6497
2026-01-08 01:57:05.63	237.90	24.10	-37.3	-38.1	24.4	0.00e+00	92	38	0	524288000	46	6529
2026-01-08 01:57:06.64	238.15	24.18	-37.5	-38.3	24.2	0.00e+00	92	38	0	526385152	46	6654
2026-01-08 01:57:07.65	238.40	24.26	-37.5	-38.3	24.2	0.00e+00	59	38	0	527433728	46	6691
2026-01-08 01:57:08.66	238.65	24.34	-37.5	-38.4	24.2	0.00e+00	92	38	0	529530880	46	6715
2026-01-08 01:57:09.67	238.90	24.41	-37.6	-38.4	23.5	0.00e+00	60	38	0	531628032	46	6746
2026-01-08 01:57:10.68	239.15	24.49	-37.4	-38.2	24.3	0.00e+00	92	38	0	533725184	46	6591
2026-01-08 01:57:11.69	239.41	24.57	-37.5	-38.3	24.1	0.00e+00	2	38	0	535822336	46	6676
2026-01-08 01:57:12.70	239.67	24.65	-37.4	-38.2	24.3	0.00e+00	92	38	0	536870912	46	6603
2026-01-08 01:57:13.71	239.92	24.72	-37.4	-38.2	24.3	0.00e+00	92	38	0	538968064	46	6610
2026-01-08 01:57:14.72	240.18	24.80	-37.5	-38.4	24.1	0.00e+00	92	38	0	541065216	46	6717
2026-01-08 01:57:15.73	240.44	24.87	-37.3	-38.1	24.4	0.00e+00	92	38	0	543162368	46	6528
2026-01-08 01:57:16.73	240.70	24.95	-37.5	-38.3	24.2	0.00e+00	48	38	0	545259520	46	6685
2026-01-08 01:57:17.74	240.97	25.02	-37.7	-38.6	24.0	0.00e+00	92	38	0	547356672	46	6861
2026-01-08 01:57:18.75	241.23	25.10	-37.8	-38.7	23.9	0.00e+00	82	38	0	548405248	48	6214
2026-01-08 01:57:19.76	241.49	25.17	-37.9	-38.8	23.9	0.00e+00	92	38	0	550502400	48	6271
2026-01-08 01:57:20.77	241.76	25.25	-38.0	-38.9	23.7	0.00e+00	90	38	0	552599552	48	6355
2026-01-08 01:57:21.78	242.03	25.32	-38.1	-39.0	23.7	0.00e+00	92	38	0	554696704	48	6392
2026-01-08 01:57:22.79	242.30	25.39	-38.0	-38.9	23.8	0.00e+00	90	38	0	556793856	48	6363
2026-01-08 01:57:23.80	242.57	25.46	-38.0	-38.9	23.7	0.00e+00	76	38	0	557842432	48	6366
2026-01-08 01:57:24.81	242.84	25.54	-38.3	-39.2	23.4	0.00e+00	90	38	0	559939584	48	6566
2026-01-08 01:57:25.81	243.11	25.61	-38.5	-39.4	23.2	0.00e+00	0	38	0	562036736	48	6768
2026-01-08 01:57:26.82	243.38	25.68	-38.7	-39.7	23.1	0.00e+00	90	38	0	564133888	48	6961
2026-01-08 01:57:27.83	243.66	25.75	-38.9	-39.9	22.9	0.00e+00	80	38	0	565182464	50	6330
2026-01-08 01:57:28.85	243.94	25.82	-39.0	-39.9	22.8	0.00e+00	90	38	0	567279616	50	6388
2026-01-08 01:57:29.86	244.21	25.89	-39.0	-40.0	22.7	0.00e+00	92	38	0	569376768	50	6438
2026-01-08 01:57:30.87	244.49	25.96	-39.2	-40.2	22.6	0.00e+00	86	38	0	571473920	50	6588
2026-01-08 01:57:31.88	244.77	26.03	-39.2	-40.2	22.6	0.00e+00	91	38	0	573571072	50	6607
2026-01-08 01:57:32.88	245.05	26.09	-39.3	-40.3	22.5	0.00e+00	0	38	0	575668224	50	6657
2026-01-08 01:57:33.89	245.33	26.16	-39.4	-40.4	22.4	0.00e+00	92	38	0	576716800	50	6717
2026-01-08 01:57:34.90	245.61	26.23	-39.4	-40.4	22.4	0.00e+00	16	38	0	578813952	50	6761
2026-01-08 01:57:35.91	245.90	26.29	-39.3	-40.3	22.5	0.00e+00	92	38	0	580911104	50	6628
2026-01-08 01:57:36.92	246.18	26.36	-39.3	-40.3	22.4	0.00e+00	91	38	0	583008256	50	6660
2026-01-08 01:57:37.93	246.47	26.42	-39.5	-40.5	22.3	0.00e+00	92	38	0	585105408	50	6806
2026-01-08 01:57:38.94	246.76	26.49	-39.6	-40.7	22.2	0.00e+00	92	38	0	586153984	50	6938
2026-01-08 01:57:39.95	247.04	26.55	-39.6	-40.6	22.1	0.00e+00	18	38	0	588251136	50	6918
2026-01-08 01:57:40.96	247.33	26.61	-39.7	-40.7	21.0	0.00e+00	92	38	0	590348288	50	6999
2026-01-08 01:57:41.97	247.63	26.68	-39.8	-40.8	21.4	0.00e+00	72	38	0	592445440	52	6297
2026-01-08 01:57:42.98	247.92	26.74	-39.8	-40.8	22.0	0.00e+00	92	38	0	594542592	52	6291
2026-01-08 01:57:43.99	248.21	26.80	-39.6	-40.6	22.3	0.00e+00	92	38	0	595591168	52	6132
2026-01-08 01:57:45.00	248.50	26.86	-39.6	-40.6	22.2	0.00e+00	92	38	0	597688320	52	6134
2026-01-08 01:57:46.01	248.80	26.92	-39.4	-40.4	22.4	0.00e+00	92	38	0	599785472	52	6016
2026-01-08 01:57:47.02	249.10	26.98	-39.5	-40.5	22.4	0.00e+00	0	38	0	601882624	52	6081
2026-01-08 01:57:48.03	249.39	27.04	-39.4	-40.5	22.4	0.00e+00	91	38	0	603979776	52	6044
2026-01-08 01:57:49.04	249.69	27.10	-39.6	-40.6	22.2	0.00e+00	7	38	0	605028352	52	6148
2026-01-08 01:57:50.05	249.99	27.15	-39.5	-40.5	22.3	0.00e+00	92	38	0	607125504	52	6083
2026-01-08 01:57:51.06	250.29	27.21	-39.6	-40.6	22.3	0.00e+00	88	38	0	609222656	52	6156
2026-01-08 01:57:52.07	250.59	27.26	-39.5	-40.5	22.4	0.00e+00	92	38	0	611319808	52	6055
2026-01-08 01:57:53.08	250.90	27.32	-39.3	-40.3	22.5	0.00e+00	92	38	0	613416960	52	5907
2026-01-08 01:57:54.09	251.20	27.37	-39.5	-40.6	22.3	0.00e+00	92	38	0	614465536	52	6114
2026-01-08 01:57:55.09	251.50	27.43	-39.6	-40.6	22.2	0.00e+00	92	38	0	616562688	52	6159
2026-01-08 01:57:56.10	251.81	27.48	-39.7	-40.7	22.1	0.00e+00	6	38	0	618659840	52	6226
2026-01-08 01:57:57.11	252.12	27.53	-40.0	-41.1	22.1	0.00e+00	92	38	0	620756992	52	6469
2026-01-08 01:57:58.12	252.42	27.58	-39.7	-40.8	22.1	0.00e+00	7	38	0	622854144	52	6276
2026-01-08 01:57:59.13	252.73	27.63	-39.9	-41.0	21.8	0.00e+00	92	38	0	623902720	52	6449
2026-01-08 01:58:00.14	253.04	27.68	-40.3	-41.5	21.6	0.00e+00	92	38	0	625999872	52	6790
2026-01-08 01:58:01.15	253.35	27.73	-40.3	-41.5	21.4	0.00e+00	92	38	0	628097024	52	6803
2026-01-08 01:58:02.15	253.66	27.78	-39.7	-40.8	22.1	0.00e+00	92	38	0	630194176	52	6264
2026-01-08 01:58:03.16	253.97	27.83	-39.3	-40.3	22.5	0.00e+00	6	38	0	632291328	52	5956
2026-01-08 01:58:04.17	254.29	27.87	-39.4	-40.4	22.4	0.00e+00	92	38	0	633339904	52	6008
2026-01-08 01:58:05.18	254.60	27.92	-39.8	-40.9	22.0	0.00e+00	17	38	0	635437056	52	6330
2026-01-08 01:58:06.19	254.91	27.96	-40.3	-41.4	21.4	0.00e+00	92	38	0	637534208	52	6740
2026-01-08 01:58:07.20	255.23	28.01	-40.7	-41.9	21.0	0.00e+00	92	38	0	639631360	52	7151
2026-01-08 01:58:08.21	255.55	28.05	-41.0	-42.3	20.6	0.00e+00	92	38	0	641728512	54	6667
2026-01-08 01:58:09.22	255.86	28.09	-41.3	-42.6	20.4	0.00e+00	92	38	0	643825664	54	6881
2026-01-08 01:58:10.23	256.18	28.13	-41.3	-42.6	20.3	0.00e+00	0	38	0	644874240	54	6919
2026-01-08 01:58:11.24	256.50	28.17	-41.3	-42.6	20.5	0.00e+00	92	38	0	646971392	54	6861
2026-01-08 01:58:12.25	256.82	28.21	-40.9	-42.2	20.7	0.00e+00	0	38	0	649068544	54	6547
2026-01-08 01:58:13.26	257.14	28.25	-40.8	-42.0	20.9	0.00e+00	90	38	0	651165696	54	6440
2026-01-08 01:58:14.27	257.46	28.29	-40.9	-42.1	20.8	0.00e+00	79	38	0	653262848	54	6528
2026-01-08 01:58:15.28	257.78	28.33	-40.5	-41.6	21.3	0.00e+00	92	38	0	654311424	54	6157
2026-01-08 01:58:16.29	258.11	28.36	-40.2	-41.4	21.6	0.00e+00	92	38	0	656408576	54	5970
2026-01-08 01:58:17.30	258.43	28.40	-40.3	-41.4	21.5	0.00e+00	48	38	0	658505728	54	5994
2026-01-08 01:58:18.31	258.76	28.43	-39.9	-41.0	21.8	0.00e+00	90	38	0	660602880	54	5748
2026-01-08 01:58:19.32	259.08	28.46	-39.9	-40.9	21.9	0.00e+00	4	38	0	662700032	54	5692
2026-01-08 01:58:20.33	259.41	28.50	-40.0	-41.1	21.8	0.00e+00	90	38	0	663748608	54	5767
2026-01-08 01:58:21.34	259.73	28.53	-40.0	-41.1	21.8	0.00e+00	6	38	0	665845760	54	5794
2026-01-08 01:58:22.34	260.05	28.56	-40.1	-41.2	21.7	0.00e+00	92	38	0	667942912	54	5834
2026-01-08 01:58:23.35	260.38	28.59	-40.1	-41.2	21.7	0.00e+00	92	38	0	670040064	54	5873
2026-01-08 01:58:24.36	260.71	28.62	-40.3	-41.5	21.4	0.00e+00	90	38	0	672137216	54	6043
2026-01-08 01:58:25.37	261.04	28.64	-40.5	-41.7	21.2	0.00e+00	92	38	0	673185792	54	6222
2026-01-08 01:58:26.38	261.37	28.67	-40.5	-41.7	21.2	0.00e+00	0	38	0	675282944	54	6200
2026-01-08 01:58:27.39	261.70	28.70	-40.6	-41.8	21.2	0.00e+00	92	38	0	677380096	54	6302
2026-01-08 01:58:28.40	262.03	28.72	-40.6	-41.8	21.0	0.00e+00	77	38	0	679477248	54	6269
2026-01-08 01:58:29.41	262.36	28.74	-40.7	-41.9	21.1	0.00e+00	92	38	0	681574400	54	6322
2026-01-08 01:58:30.42	262.69	28.77	-40.7	-41.9	21.3	0.00e+00	92	38	0	682622976	54	6336
2026-01-08 01:58:31.43	263.02	28.79	-40.5	-41.6	21.2	0.00e+00	92	38	0	684720128	54	6173
2026-01-08 01:58:32.44	263.35	28.81	-40.5	-41.7	21.2	0.00e+00	92	38	0	686817280	54	6215
2026-01-08 01:58:33.45	263.68	28.83	-40.2	-41.3	21.7	0.00e+00	2	38	0	688914432	54	5938
2026-01-08 01:58:34.46	264.02	28.85	-40.2	-41.3	21.6	0.00e+00	90	38	0	691011584	54	5940
2026-01-08 01:58:35.47	264.35	28.86	-40.2	-41.4	21.6	0.00e+00	12	38	0	692060160	54	5967
2026-01-08 01:58:36.48	264.68	28.88	-40.0	-41.1	21.8	0.00e+00	90	38	0	694157312	54	5767
2026-01-08 01:58:37.49	265.01	28.89	-39.9	-41.0	21.8	0.00e+00	64	38	0	696254464	54	5733
2026-01-08 01:58:38.50	265.35	28.91	-39.8	-40.8	22.0	0.00e+00	92	38	0	698351616	54	5622
2026-01-08 01:58:39.51	265.68	28.92	-39.7	-40.8	22.0	0.00e+00	92	38	0	700448768	52	6287
2026-01-08 01:58:40.52	266.02	28.93	-39.8	-40.9	22.0	0.00e+00	92	38	0	701497344	52	6362
2026-01-08 01:58:41.53	266.35	28.95	-39.6	-40.7	22.2	0.00e+00	92	38	0	703594496	52	6195
2026-01-08 01:58:42.54	266.69	28.96	-39.9	-41.0	21.9	0.00e+00	16	38	0	705691648	52	6431
2026-01-08 01:58:43.55	267.02	28.96	-40.1	-41.2	21.7	0.00e+00	92	38	0	707788800	52	6613
2026-01-08 01:58:44.56	267.36	28.97	-39.9	-40.9	22.0	0.00e+00	0	38	0	709885952	52	6385
2026-01-08 01:58:45.57	267.69	28.98	-39.7	-40.8	22.1	0.00e+00	92	38	0	711983104	52	6287
2026-01-08 01:58:46.58	268.03	28.99	-39.4	-40.4	22.4	0.00e+00	92	38	0	713031680	52	5979
2026-01-08 01:58:47.59	268.36	28.99	-38.9	-39.8	23.0	0.00e+00	90	38	0	715128832	52	5621
2026-01-08 01:58:48.60	268.70	28.99	-38.7	-39.7	23.0	0.00e+00	92	38	0	717225984	50	6176
2026-01-08 01:58:49.61	269.03	29.00	-39.0	-40.0	22.8	0.00e+00	0	38	0	719323136	50	6429
2026-01-08 01:58:50.62	269.37	29.00	-39.4	-40.4	22.4	0.00e+00	92	38	0	721420288	50	6732
2026-01-08 01:58:51.62	269.70	29.00	-39.8	-40.9	22.0	0.00e+00	71	38	0	722468864	50	7114
2026-01-08 01:58:52.64	270.04	29.00	-40.2	-41.3	21.6	0.00e+00	92	38	0	724566016	52	6655
2026-01-08 01:58:53.65	270.38	29.00	-40.2	-41.3	21.6	0.00e+00	92	38	0	726663168	52	6673
2026-01-08 01:58:54.66	270.71	29.00	-40.0	-41.1	21.8	0.00e+00	92	38	0	728760320	52	6492
2026-01-08 01:58:55.66	271.04	28.99	-39.7	-40.7	22.0	0.00e+00	92	38	0	730857472	52	6242
2026-01-08 01:58:56.67	271.38	28.99	-39.6	-40.6	22.2	0.00e+00	59	38	0	731906048	52	6143
2026-01-08 01:58:57.68	271.71	28.98	-39.2	-40.2	22.6	0.00e+00	92	38	0	734003200	52	5872
2026-01-08 01:58:58.69	272.05	28.98	-38.8	-39.7	23.0	0.00e+00	12	38	0	736100352	52	5551
2026-01-08 01:58:59.70	272.38	28.97	-38.4	-39.4	23.4	0.00e+00	92	38	0	738197504	50	5968
2026-01-08 01:59:00.71	272.72	28.96	-38.6	-39.5	23.2	0.00e+00	54	38	0	740294656	50	6103
2026-01-08 01:59:01.72	273.05	28.95	-38.7	-39.7	23.0	0.00e+00	92	38	0	741343232	50	6185
2026-01-08 01:59:02.73	273.39	28.94	-38.8	-39.8	23.0	0.00e+00	90	38	0	743440384	50	6247
2026-01-08 01:59:03.74	273.72	28.93	-39.0	-40.0	22.7	0.00e+00	87	38	0	745537536	50	6396
2026-01-08 01:59:04.75	274.06	28.91	-39.3	-40.4	22.5	0.00e+00	92	38	0	747634688	50	6695
2026-01-08 01:59:05.76	274.39	28.90	-39.5	-40.6	22.3	0.00e+00	77	38	0	749731840	50	6860
2026-01-08 01:59:06.77	274.72	28.89	-39.4	-40.4	22.4	0.00e+00	92	38	0	750780416	50	6744
2026-01-08 01:59:07.78	275.06	28.87	-39.1	-40.1	22.7	0.00e+00	0	38	0	752877568	50	6524
2026-01-08 01:59:08.79	275.39	28.85	-38.8	-39.8	23.0	0.00e+00	90	38	0	754974720	50	6264
2026-01-08 01:59:09.80	275.72	28.84	-38.8	-39.7	23.1	0.00e+00	92	38	0	757071872	50	6226
2026-01-08 01:59:10.81	276.05	28.82	-38.7	-39.6	23.1	0.00e+00	90	38	0	759169024	50	6147
2026-01-08 01:59:11.82	276.38	28.80	-38.8	-39.7	23.0	0.00e+00	90	38	0	760217600	50	6242
2026-01-08 01:59:12.83	276.72	28.78	-39.1	-40.1	22.6	0.00e+00	0	38	0	762314752	50	6471
2026-01-08 01:59:13.84	277.05	28.75	-39.5	-40.6	22.3	0.00e+00	90	38	0	764411904	50	6855
2026-01-08 01:59:14.85	277.38	28.73	-39.9	-41.0	21.8	0.00e+00	0	38	0	766509056	52	6445
2026-01-08 01:59:15.86	277.71	28.71	-40.2	-41.3	21.7	0.00e+00	90	38	0	768606208	52	6650
2026-01-08 01:59:16.87	278.04	28.68	-40.1	-41.2	21.8	0.00e+00	92	38	0	769654784	52	6595
2026-01-08 01:59:17.88	278.36	28.66	-39.9	-41.0	22.0	0.00e+00	92	38	0	771751936	52	6442
2026-01-08 01:59:18.89	278.69	28.63	-39.8	-40.9	21.9	0.00e+00	92	38	0	773849088	52	6370
2026-01-08 01:59:19.89	279.02	28.60	-39.4	-40.4	22.5	0.00e+00	17	38	0	775946240	52	6015
2026-01-08 01:59:20.90	279.34	28.57	-39.3	-40.3	22.5	0.00e+00	92	38	0	778043392	52	5953
2026-01-08 01:59:21.91	279.67	28.54	-39.7	-40.8	21.9	0.00e+00	16	38	0	780140544	52	6253
2026-01-08 01:59:22.92	280.00	28.51	-40.3	-41.5	21.4	0.00e+00	92	38	0	781189120	52	6794
2026-01-08 01:59:23.93	280.32	28.48	-40.9	-42.2	20.7	0.00e+00	17	38	0	783286272	54	6542
2026-01-08 01:59:24.94	280.65	28.45	-41.6	-43.0	20.0	0.00e+00	90	38	0	785383424	54	7252
2026-01-08 01:59:25.95	280.97	28.41	-42.2	-43.7	19.3	0.00e+00	92	38	0	787480576	56	7005
2026-01-08 01:59:26.96	281.29	28.38	-41.7	-43.1	20.0	0.00e+00	66	38	0	789577728	56	6495
2026-01-08 01:59:27.97	281.62	28.35	-40.7	-42.0	21.0	0.00e+00	92	38	0	790626304	56	5703
2026-01-08 01:59:28.98	281.94	28.31	-40.1	-41.2	21.7	0.00e+00	13	38	0	792723456	54	5860
2026-01-08 01:59:29.98	282.26	28.27	-40.0	-41.1	21.7	0.00e+00	92	38	0	794820608	54	5822
2026-01-08 01:59:30.99	282.58	28.23	-39.7	-40.7	22.2	0.00e+00	0	38	0	796917760	52	6225
2026-01-08 01:59:32.00	282.90	28.19	-39.5	-40.5	22.4	0.00e+00	91	38	0	799014912	52	6076
2026-01-08 01:59:33.01	283.21	28.16	-39.5	-40.5	22.2	0.00e+00	90	38	0	800063488	52	6094
2026-01-08 01:59:34.02	283.53	28.11	-39.6	-40.7	22.1	0.00e+00	92	38	0	802160640	52	6201
2026-01-08 01:59:35.03	283.85	28.07	-39.6	-40.6	22.3	0.00e+00	90	38	0	804257792	52	6153
2026-01-08 01:59:36.04	284.17	28.03	-39.3	-40.3	22.7	0.00e+00	0	38	0	806354944	52	5926
2026-01-08 01:59:37.05	284.48	27.99	-39.1	-40.1	22.7	0.00e+00	92	38	0	808452096	52	5784
2026-01-08 01:59:38.06	284.80	27.94	-38.9	-39.9	22.9	0.00e+00	8	38	0	809500672	52	5674
2026-01-08 01:59:39.06	285.11	27.90	-39.0	-40.0	22.7	0.00e+00	92	38	0	811597824	52	5702
2026-01-08 01:59:40.07	285.42	27.85	-39.1	-40.1	22.7	0.00e+00	92	38	0	813694976	52	5779
2026-01-08 01:59:41.08	285.73	27.81	-39.3	-40.3	22.4	0.00e+00	92	38	0	815792128	52	5932
2026-01-08 01:59:42.09	286.04	27.76	-39.3	-40.3	22.5	0.00e+00	92	38	0	817889280	52	5962
2026-01-08 01:59:43.10	286.35	27.71	-39.1	-40.1	22.7	0.00e+00	10	38	0	818937856	52	5790
2026-01-08 01:59:44.11	286.66	27.66	-39.1	-40.1	22.7	0.00e+00	92	38	0	821035008	52	5771
2026-01-08 01:59:45.12	286.97	27.61	-38.6	-39.5	23.2	0.00e+00	10	38	0	823132160	50	6088
2026-01-08 01:59:46.13	287.28	27.56	-38.1	-39.0	23.6	0.00e+00	92	38	0	825229312	50	5751
2026-01-08 01:59:47.14	287.58	27.51	-38.0	-38.9	23.7	0.00e+00	92	38	0	827326464	50	5647
2026-01-08 01:59:48.15	287.89	27.46	-37.8	-38.7	23.9	0.00e+00	53	38	0	828375040	50	5537
2026-01-08 01:59:49.16	288.19	27.40	-37.7	-38.5	24.0	0.00e+00	92	38	0	830472192	48	6074
2026-01-08 01:59:50.17	288.50	27.35	-37.5	-38.3	24.3	0.00e+00	12	38	0	832569344	48	5950
2026-01-08 01:59:51.18	288.80	27.30	-37.5	-38.4	24.2	0.00e+00	92	38	0	834666496	48	5988
2026-01-08 01:59:52.19	289.10	27.24	-37.4	-38.2	24.3	0.00e+00	18	38	0	836763648	48	5862
2026-01-08 01:59:53.20	289.40	27.18	-37.3	-38.2	24.4	0.00e+00	90	38	0	837812224	48	5853
2026-01-08 01:59:54.21	289.70	27.13	-37.5	-38.4	24.2	0.00e+00	0	38	0	839909376	48	5974
2026-01-08 01:59:55.21	290.00	27.07	-37.6	-38.4	24.1	0.00e+00	92	38	0	842006528	48	6015
2026-01-08 01:59:56.22	290.29	27.01	-37.7	-38.6	23.9	0.00e+00	92	38	0	844103680	48	6129
2026-01-08 01:59:57.23	290.59	26.96	-37.8	-38.6	23.9	0.00e+00	0	38	0	846200832	48	6158
2026-01-08 01:59:58.24	290.88	26.90	-37.7	-38.6	23.9	0.00e+00	92	38	0	848297984	48	6157
2026-01-08 01:59:59.25	291.18	26.84	-37.6	-38.4	24.1	0.00e+00	1	38	0	849346560	48	6000
2026-01-08 02:00:00.26	291.47	26.78	-37.5	-38.3	24.1	0.00e+00	92	38	0	851443712	48	5958
2026-01-08 02:00:01.27	291.76	26.71	-37.7	-38.6	23.6	0.00e+00	0	38	0	853540864	48	6108
2026-01-08 02:00:02.28	292.05	26.65	-37.6	-38.5	24.1	0.00e+00	92	38	0	855638016	48	6071
2026-01-08 02:00:03.29	292.34	26.59	-37.6	-38.5	24.0	0.00e+00	92	38	0	857735168	48	6060
2026-01-08 02:00:04.30	292.63	26.53	-37.7	-38.6	24.0	0.00e+00	16	38	0	858783744	48	6108
2026-01-08 02:00:05.31	292.92	26.46	-37.7	-38.6	24.0	0.00e+00	92	38	0	860880896	48	6142
2026-01-08 02:00:06.32	293.20	26.40	-37.7	-38.6	24.0	0.00e+00	14	38	0	862978048	48	6113
2026-01-08 02:00:07.33	293.49	26.33	-37.8	-38.7	23.8	0.00e+00	90	38	0	865075200	48	6222
2026-01-08 02:00:08.33	293.77	26.27	-37.9	-38.8	23.8	0.00e+00	17	38	0	866123776	48	6305
2026-01-08 02:00:09.34	294.05	26.20	-38.0	-38.9	23.7	0.00e+00	90	38	0	868220928	48	6348
2026-01-08 02:00:10.35	294.33	26.14	-37.7	-38.6	23.9	0.00e+00	0	38	0	870318080	48	6150
2026-01-08 02:00:11.36	294.61	26.07	-37.9	-38.8	23.6	0.00e+00	0	38	0	872415232	48	6262
2026-01-08 02:00:12.37	294.89	26.00	-37.9	-38.8	23.9	0.00e+00	91	38	0	874512384	48	6258
2026-01-08 02:00:13.38	295.17	25.93	-37.8	-38.7	23.9	0.00e+00	65	38	0	876609536	48	6220
2026-01-08 02:00:14.39	295.45	25.86	-38.0	-38.9	23.8	0.00e+00	90	38	0	877658112	48	6336
2026-01-08 02:00:15.40	295.72	25.80	-38.0	-38.9	23.7	0.00e+00	66	38	0	879755264	48	6377
2026-01-08 02:00:16.41	296.00	25.73	-38.2	-39.1	23.4	0.00e+00	90	38	0	881852416	48	6511
2026-01-08 02:00:17.42	296.27	25.66	-38.2	-39.2	23.5	0.00e+00	68	38	0	883949568	48	6541
2026-01-08 02:00:18.43	296.54	25.58	-38.4	-39.3	23.4	0.00e+00	59	38	0	886046720	48	6649
2026-01-08 02:00:19.44	296.81	25.51	-38.2	-39.1	23.5	0.00e+00	91	38	0	887095296	48	6491
2026-01-08 02:00:20.45	297.08	25.44	-38.1	-38.9	23.7	0.00e+00	5	38	0	889192448	48	6390
2026-01-08 02:00:21.46	297.35	25.37	-37.6	-38.5	24.1	0.00e+00	92	38	0	891289600	48	6038
2026-01-08 02:00:22.47	297.62	25.30	-37.5	-38.3	24.2	0.00e+00	0	38	0	893386752	48	5948
2026-01-08 02:00:23.47	297.88	25.22	-37.5	-38.3	24.1	0.00e+00	92	38	0	895483904	48	5943
2026-01-08 02:00:24.48	298.15	25.15	-37.7	-38.5	24.0	0.00e+00	3	38	0	896532480	48	6096
2026-01-08 02:00:25.49	298.41	25.08	-37.8	-38.7	23.8	0.00e+00	92	38	0	898629632	48	6220
2026-01-08 02:00:26.50	298.67	25.00	-38.1	-39.0	23.6	0.00e+00	48	38	0	900726784	48	6413
2026-01-08 02:00:27.50	298.93	24.93	-38.2	-39.1	23.5	0.00e+00	6	38	0	902823936	48	6503
2026-01-08 02:00:28.51	299.19	24.85	-38.2	-39.2	23.4	0.00e+00	92	38	0	904921088	48	6541
2026-01-08 02:00:29.52	299.45	24.78	-38.4	-39.3	23.3	0.00e+00	6	38	0	905969664	48	6658
2026-01-08 02:00:30.53	299.71	24.70	-38.5	-39.4	23.2	0.00e+00	90	38	0	908066816	48	6718
2026-01-08 02:00:31.54	299.97	24.63	-38.5	-39.4	23.3	0.00e+00	15	38	0	910163968	48	6721
2026-01-08 02:00:32.55	300.22	24.55	-38.4	-39.3	23.4	0.00e+00	95	38	0	912261120	48	6642
2026-01-08 02:00:33.56	300.47	24.47	-38.2	-39.1	23.5	0.00e+00	0	38	0	914358272	48	6492
2026-01-08 02:00:34.57	300.73	24.40	-38.1	-39.1	23.5	0.00e+00	70	38	0	915406848	48	6465
2026-01-08 02:00:35.58	300.98	24.32	-38.0	-38.9	23.7	0.00e+00	92	38	0	917504000	48	6366
2026-01-08 02:00:36.59	301.23	24.24	-37.7	-38.5	24.1	0.00e+00	71	38	0	919601152	48	6083
2026-01-08 02:00:37.60	301.48	24.16	-37.5	-38.4	24.1	0.00e+00	93	38	0	921698304	48	5995
2026-01-08 02:00:38.61	301.73	24.08	-37.6	-38.4	24.2	0.00e+00	72	38	0	923795456	48	6008
2026-01-08 02:00:39.62	301.97	24.00	-37.5	-38.3	24.2	0.00e+00	92	38	0	924844032	48	5956
2026-01-08 02:00:40.63	302.22	23.93	-37.4	-38.2	24.3	0.00e+00	70	38	0	926941184	48	5875
2026-01-08 02:00:41.64	302.46	23.85	-37.3	-38.2	24.4	0.00e+00	7	38	0	929038336	48	5830
2026-01-08 02:00:42.65	302.70	23.77	-37.3	-38.2	24.3	0.00e+00	92	38	0	931135488	48	5831
2026-01-08 02:00:43.65	302.94	23.69	-37.4	-38.3	24.1	0.00e+00	2	38	0	933232640	48	5907
2026-01-08 02:00:44.66	303.18	23.61	-37.7	-38.6	24.1	0.00e+00	92	38	0	934281216	48	6120
2026-01-08 02:00:45.67	303.42	23.53	-37.9	-38.8	23.8	0.00e+00	2	38	0	936378368	48	6293
2026-01-08 02:00:46.68	303.66	23.45	-38.0	-38.9	23.6	0.00e+00	92	38	0	938475520	48	6370
2026-01-08 02:00:47.69	303.90	23.36	-38.1	-39.0	23.6	0.00e+00	4	38	0	940572672	48	6424
2026-01-08 02:00:48.70	304.13	23.28	-37.9	-38.8	23.9	0.00e+00	92	38	0	942669824	48	6296
2026-01-08 02:00:49.71	304.37	23.20	-37.5	-38.3	24.2	0.00e+00	51	38	0	944766976	48	5946
2026-01-08 02:00:50.72	304.60	23.12	-37.4	-38.2	24.3	0.00e+00	4	38	0	945815552	48	5886
2026-01-08 02:00:51.73	304.83	23.04	-37.3	-38.1	24.4	0.00e+00	93	38	0	947912704	48	5791
2026-01-08 02:00:52.74	305.07	22.96	-37.3	-38.1	24.3	0.00e+00	15	38	0	950009856	48	5781
2026-01-08 02:00:53.75	305.30	22.87	-37.5	-38.3	24.2	0.00e+00	92	38	0	952107008	48	5942
2026-01-08 02:00:54.76	305.52	22.79	-37.8	-38.6	23.9	0.00e+00	66	38	0	954204160	48	6169
2026-01-08 02:00:55.77	305.75	22.71	-37.9	-38.8	23.8	0.00e+00	92	38	0	955252736	48	6269
2026-01-08 02:00:56.78	305.98	22.63	-37.8	-38.7	23.9	0.00e+00	13	38	0	957349888	48	6216
2026-01-08 02:00:57.79	306.20	22.54	-37.5	-38.4	24.2	0.00e+00	0	38	0	959447040	48	5981
2026-01-08 02:00:58.80	306.43	22.46	-37.5	-38.3	24.1	0.00e+00	92	38	0	961544192	48	5941
2026-01-08 02:00:59.81	306.65	22.38	-37.5	-38.4	23.8	0.00e+00	66	38	0	963641344	48	5999
2026-01-08 02:01:00.82	306.87	22.29	-37.9	-38.8	23.9	0.00e+00	92	38	0	964689920	48	6278
2026-01-08 02:01:01.83	307.09	22.21	-38.3	-39.3	23.4	0.00e+00	0	38	0	966787072	48	6626
2026-01-08 02:01:02.84	307.31	22.12	-38.9	-39.9	22.8	0.00e+00	91	38	0	968884224	50	6321
2026-01-08 02:01:03.84	307.53	22.04	-39.2	-40.2	22.5	0.00e+00	2	38	0	970981376	50	6571
2026-01-08 02:01:04.85	307.74	21.96	-39.0	-40.0	22.7	0.00e+00	92	38	0	973078528	50	6462
2026-01-08 02:01:05.86	307.96	21.87	-38.9	-39.9	22.8	0.00e+00	92	38	0	974127104	50	6354
2026-01-08 02:01:06.87	308.17	21.79	-38.8	-39.7	23.0	0.00e+00	2	38	0	976224256	50	6235
2026-01-08 02:01:07.88	308.39	21.70	-38.3	-39.3	23.4	0.00e+00	91	38	0	978321408	50	5901
2026-01-08 02:01:08.90	308.60	21.62	-38.4	-39.3	23.2	0.00e+00	0	38	0	980418560	50	5959
2026-01-08 02:01:09.91	308.81	21.53	-38.8	-39.8	22.9	0.00e+00	93	38	0	982515712	50	6251
2026-01-08 02:01:10.92	309.02	21.45	-39.2	-40.2	22.6	0.00e+00	2	38	0	983564288	50	6580
2026-01-08 02:01:11.92	309.23	21.36	-39.6	-40.6	22.0	0.00e+00	92	38	0	985661440	50	6893
2026-01-08 02:01:12.93	309.44	21.28	-39.6	-40.7	22.2	0.00e+00	0	38	0	987758592	50	6932
2026-01-08 02:01:13.95	309.64	21.19	-39.5	-40.5	22.2	0.00e+00	15	38	0	989855744	50	6824
2026-01-08 02:01:14.96	309.85	21.11	-39.3	-40.3	22.4	0.00e+00	92	38	0	991952896	50	6680
2026-01-08 02:01:15.97	310.05	21.02	-38.9	-39.9	22.8	0.00e+00	16	38	0	993001472	50	6326
2026-01-08 02:01:16.98	310.26	20.94	-38.7	-39.6	23.0	0.00e+00	92	38	0	995098624	50	6151
2026-01-08 02:01:17.99	310.46	20.85	-38.5	-39.4	23.2	0.00e+00	0	38	0	997195776	50	6008
2026-01-08 02:01:19.00	310.66	20.77	-38.7	-39.7	22.9	0.00e+00	91	38	0	999292928	50	6213
2026-01-08 02:01:20.00	310.86	20.68	-39.0	-40.0	22.7	0.00e+00	10	38	0	1001390080	50	6436
2026-01-08 02:01:21.01	311.06	20.60	-39.2	-40.2	22.6	0.00e+00	67	38	0	1002438656	50	6593
2026-01-08 02:01:22.02	311.26	20.51	-39.1	-40.1	22.6	0.00e+00	90	38	0	1004535808	50	6524
2026-01-08 02:01:23.03	311.45	20.43	-39.1	-40.1	22.7	0.00e+00	0	38	0	1006632960	50	6512
2026-01-08 02:01:24.04	311.65	20.34	-38.2	-39.1	23.5	0.00e+00	90	38	0	1008730112	50	5771
2026-01-08 02:01:25.05	311.84	20.25	-37.9	-38.8	23.8	0.00e+00	0	38	0	1010827264	50	5586
2026-01-08 02:01:26.06	312.04	20.17	-37.8	-38.6	23.9	0.00e+00	92	38	0	1012924416	48	6153
2026-01-08 02:01:27.07	312.23	20.08	-37.9	-38.8	23.7	0.00e+00	0	38	0	1013972992	48	6299
2026-01-08 02:01:28.07	312.42	20.00	-38.3	-39.2	23.3	0.00e+00	92	38	0	1016070144	48	6597
2026-01-08 02:01:29.08	312.61	19.91	-38.9	-39.9	22.8	0.00e+00	64	38	0	1018167296	50	6333
2026-01-08 02:01:30.09	312.80	19.83	-39.4	-40.4	22.3	0.00e+00	2	38	0	1020264448	50	6767
2026-01-08 02:01:31.10	312.99	19.74	-39.4	-40.5	22.2	0.00e+00	92	38	0	1022361600	50	6803
2026-01-08 02:01:32.11	313.18	19.66	-39.4	-40.5	22.2	0.00e+00	0	38	0	1023410176	50	6777
2026-01-08 02:01:33.12	313.36	19.57	-39.1	-40.1	22.6	0.00e+00	92	38	0	1025507328	50	6510
2026-01-08 02:01:34.13	313.55	19.48	-38.6	-39.5	23.1	0.00e+00	14	38	0	1027604480	50	6077
2026-01-08 02:01:35.14	313.73	19.40	-38.6	-39.5	23.3	0.00e+00	92	38	0	1029701632	50	6063
2026-01-08 02:01:36.15	313.91	19.31	-38.4	-39.3	23.3	0.00e+00	90	38	0	1031798784	50	5926
2026-01-08 02:01:37.16	314.10	19.23	-38.3	-39.2	23.4	0.00e+00	14	38	0	1032847360	50	5847
2026-01-08 02:01:38.17	314.28	19.14	-38.6	-39.5	23.0	0.00e+00	92	38	0	1034944512	50	6092
2026-01-08 02:01:39.18	314.46	19.06	-39.0	-40.0	22.6	0.00e+00	0	38	0	1037041664	50	6461
2026-01-08 02:01:40.19	314.64	18.97	-39.4	-40.5	22.2	0.00e+00	92	38	0	1039138816	50	6801
2026-01-08 02:01:41.20	314.82	18.88	-39.4	-40.5	22.2	0.00e+00	0	38	0	1041235968	50	6819
2026-01-08 02:01:42.21	314.99	18.80	-39.2	-40.2	22.4	0.00e+00	92	38	0	1042284544	50	6601
2026-01-08 02:01:43.21	315.17	18.71	-39.0	-40.0	22.6	0.00e+00	0	38	0	1044381696	50	6443
2026-01-08 02:01:44.23	315.35	18.63	-38.8	-39.8	22.4	0.00e+00	0	38	0	1046478848	50	6283
2026-01-08 02:01:45.23	315.52	18.54	-38.8	-39.7	22.9	0.00e+00	90	38	0	1048576000	50	6229
2026-01-08 02:01:46.24	315.69	18.46	-38.5	-39.4	23.1	0.00e+00	0	38	0	1050673152	50	6007
2026-01-08 02:01:47.25	315.87	18.37	-38.4	-39.3	23.2	0.00e+00	92	38	0	1051721728	50	5954
2026-01-08 02:01:48.26	316.04	18.29	-38.2	-39.1	23.1	0.00e+00	0	38	0	1053818880	50	5776
2026-01-08 02:01:49.27	316.21	18.20	-38.4	-39.3	23.3	0.00e+00	90	38	0	1055916032	50	5918
2026-01-08 02:01:50.28	316.38	18.12	-38.5	-39.5	23.0	0.00e+00	0	38	0	1058013184	50	6047
2026-01-08 02:01:51.29	316.55	18.03	-38.6	-39.5	23.0	0.00e+00	13	38	0	1060110336	50	6096
2026-01-08 02:01:52.30	316.71	17.95	-38.3	-39.3	23.3	0.00e+00	90	38	0	1061158912	50	5897
2026-01-08 02:01:53.31	316.88	17.86	-38.2	-39.1	23.5	0.00e+00	11	38	0	1063256064	50	5812
2026-01-08 02:01:54.32	317.05	17.78	-38.2	-39.1	23.4	0.00e+00	92	38	0	1065353216	50	5772
2026-01-08 02:01:55.33	317.21	17.69	-38.0	-38.9	23.6	0.00e+00	0	38	0	1067450368	50	5681
2026-01-08 02:01:56.33	317.38	17.61	-38.0	-38.9	23.7	0.00e+00	92	38	0	1069547520	50	5631
2026-01-08 02:01:57.34	317.54	17.52	-38.1	-39.0	23.4	0.00e+00	69	38	0	1070596096	50	5719
2026-01-08 02:01:58.35	317.70	17.44	-38.3	-39.2	23.3	0.00e+00	90	38	0	1072693248	50	5861
2026-01-08 02:01:59.36	317.86	17.35	-38.5	-39.4	23.1	0.00e+00	92	38	0	1074790400	50	6026
2026-01-08 02:02:00.37	318.02	17.27	-38.6	-39.5	23.1	0.00e+00	67	38	0	1076887552	50	6081
2026-01-08 02:02:01.38	318.18	17.18	-38.6	-39.5	23.1	0.00e+00	92	38	0	1078984704	50	6072
2026-01-08 02:02:02.39	318.34	17.10	-38.6	-39.6	23.0	0.00e+00	0	38	0	1081081856	50	6128
2026-01-08 02:02:03.40	318.50	17.02	-38.3	-39.2	23.3	0.00e+00	0	38	0	1082130432	50	5888
2026-01-08 02:02:04.41	318.66	16.93	-38.1	-39.0	23.5	0.00e+00	0	38	0	1084227584	50	5736
2026-01-08 02:02:05.42	318.82	16.85	-38.3	-39.2	23.4	0.00e+00	68	38	0	1086324736	50	5853
2026-01-08 02:02:06.43	318.97	16.76	-37.8	-38.6	23.8	0.00e+00	0	38	0	1088421888	50	5500
2026-01-08 02:02:07.44	319.13	16.68	-37.7	-38.6	23.9	0.00e+00	0	38	0	1090519040	48	6116
2026-01-08 02:02:08.45	319.28	16.60	-37.6	-38.5	23.8	0.00e+00	92	38	0	1091567616	48	6078
2026-01-08 02:02:09.45	319.43	16.51	-37.7	-38.6	23.8	0.00e+00	0	38	0	1093664768	48	6139
2026-01-08 02:02:10.46	319.58	16.43	-37.7	-38.6	23.8	0.00e+00	6	38	0	1095761920	48	6106
2026-01-08 02:02:11.47	319.74	16.35	-37.8	-38.7	23.8	0.00e+00	5	38	0	1097859072	48	6178
2026-01-08 02:02:12.49	319.89	16.26	-37.9	-38.8	23.7	0.00e+00	0	38	0	1098907648	48	6255
2026-01-08 02:02:13.50	320.04	16.18	-37.9	-38.8	23.6	0.00e+00	4	38	0	1101004800	48	6303
2026-01-08 02:02:14.51	320.19	16.10	-37.9	-38.8	23.6	0.00e+00	7	38	0	1103101952	48	6290
2026-01-08 02:02:15.52	320.34	16.01	-37.8	-38.7	23.6	0.00e+00	90	38	0	1105199104	48	6231
2026-01-08 02:02:16.53	320.48	15.93	-38.0	-38.9	23.5	0.00e+00	12	38	0	1107296256	48	6368
2026-01-08 02:02:17.53	320.63	15.85	-38.0	-39.0	23.5	0.00e+00	92	38	0	1109393408	48	6396
2026-01-08 02:02:18.54	320.78	15.76	-37.8	-38.7	23.7	0.00e+00	13	38	0	1110441984	48	6242
2026-01-08 02:02:19.55	320.92	15.68	-37.8	-38.7	23.7	0.00e+00	9	38	0	1112539136	48	6231
2026-01-08 02:02:20.56	321.06	15.60	-37.8	-38.7	23.8	0.00e+00	73	38	0	1114636288	48	6212
2026-01-08 02:02:21.57	321.21	15.52	-37.7	-38.6	23.8	0.00e+00	73	38	0	1116733440	48	6166
2026-01-08 02:02:22.58	321.35	15.43	-37.7	-38.5	23.8	0.00e+00	0	38	0	1118830592	48	6094
2026-01-08 02:02:23.59	321.49	15.35	-37.7	-38.6	23.8	0.00e+00	74	38	0	1119879168	48	6119
2026-01-08 02:02:24.60	321.63	15.27	-37.8	-38.7	23.7	0.00e+00	92	38	0	1121976320	48	6231
2026-01-08 02:02:25.60	321.77	15.19	-37.8	-38.7	23.7	0.00e+00	0	38	0	1124073472	48	6196
2026-01-08 02:02:26.61	321.91	15.11	-37.8	-38.6	23.7	0.00e+00	76	38	0	1126170624	48	6173
2026-01-08 02:02:27.63	322.05	15.02	-37.9	-38.8	23.5	0.00e+00	0	38	0	1128267776	48	6280
2026-01-08 02:02:28.64	322.19	14.94	-38.1	-39.0	23.4	0.00e+00	76	38	0	1129316352	48	6449
2026-01-08 02:02:29.64	322.33	14.86	-38.2	-39.1	23.3	0.00e+00	0	38	0	1131413504	48	6501
2026-01-08 02:02:30.65	322.47	14.78	-38.2	-39.2	23.3	0.00e+00	0	38	0	1133510656	48	6565
2026-01-08 02:02:31.66	322.60	14.70	-38.4	-39.3	23.1	0.00e+00	92	38	0	1135607808	48	6656
2026-01-08 02:02:32.67	322.74	14.62	-38.3	-39.2	23.3	0.00e+00	0	38	0	1137704960	48	6570
2026-01-08 02:02:33.68	322.87	14.54	-38.3	-39.3	23.2	0.00e+00	92	38	0	1138753536	48	6639
2026-01-08 02:02:34.69	323.01	14.46	-38.4	-39.4	23.0	0.00e+00	11	38	0	1140850688	48	6721
2026-01-08 02:02:35.70	323.14	14.38	-38.3	-39.2	23.3	0.00e+00	6	38	0	1142947840	48	6576
2026-01-08 02:02:36.71	323.27	14.30	-38.2	-39.2	23.2	0.00e+00	5	38	0	1145044992	48	6560
2026-01-08 02:02:37.71	323.40	14.22	-38.3	-39.3	23.2	0.00e+00	13	38	0	1147142144	48	6632
2026-01-08 02:02:38.72	323.54	14.14	-38.3	-39.2	23.2	0.00e+00	91	38	0	1148190720	48	6606
2026-01-08 02:02:39.73	323.67	14.06	-38.3	-39.3	23.2	0.00e+00	8	38	0	1150287872	48	6642
2026-01-08 02:02:40.74	323.80	13.98	-38.4	-39.3	23.1	0.00e+00	90	38	0	1152385024	48	6663
2026-01-08 02:02:41.75	323.93	13.90	-38.4	-39.4	23.1	0.00e+00	11	38	0	1154482176	48	6714
2026-01-08 02:02:42.76	324.05	13.82	-38.4	-39.4	23.1	0.00e+00	11	38	0	1156579328	48	6711
2026-01-08 02:02:43.77	324.18	13.74	-38.5	-39.5	23.0	0.00e+00	69	38	0	1157627904	48	6808
2026-01-08 02:02:44.78	324.31	13.66	-38.4	-39.3	23.1	0.00e+00	70	38	0	1159725056	48	6679
2026-01-08 02:02:45.79	324.44	13.58	-38.3	-39.2	23.1	0.00e+00	8	38	0	1161822208	48	6590
2026-01-08 02:02:46.80	324.56	13.50	-38.2	-39.2	23.2	0.00e+00	0	38	0	1163919360	48	6544
2026-01-08 02:02:47.81	324.69	13.42	-38.3	-39.3	23.1	0.00e+00	92	38	0	1166016512	48	6639
2026-01-08 02:02:48.81	324.81	13.34	-38.3	-39.3	23.1	0.00e+00	70	38	0	1167065088	48	6657
2026-01-08 02:02:49.82	324.94	13.26	-38.3	-39.3	23.1	0.00e+00	92	38	0	1169162240	48	6649
2026-01-08 02:02:50.83	325.06	13.18	-38.4	-39.4	23.0	0.00e+00	70	38	0	1171259392	48	6715
2026-01-08 02:02:51.85	325.18	13.10	-38.5	-39.5	22.9	0.00e+00	2	38	0	1173356544	48	6801
2026-01-08 02:02:52.85	325.30	13.03	-38.7	-39.7	22.7	0.00e+00	0	38	0	1175453696	48	6957
2026-01-08 02:02:53.86	325.43	12.95	-38.8	-39.9	22.6	0.00e+00	0	38	0	1177550848	50	6321
2026-01-08 02:02:54.87	325.55	12.87	-39.0	-40.0	22.5	0.00e+00	92	38	0	1178599424	50	6418
2026-01-08 02:02:55.88	325.67	12.79	-39.2	-40.2	22.2	0.00e+00	0	38	0	1180696576	50	6612
2026-01-08 02:02:56.89	325.79	12.71	-39.3	-40.3	22.1	0.00e+00	92	38	0	1182793728	50	6681
2026-01-08 02:02:57.90	325.91	12.64	-39.4	-40.5	22.0	0.00e+00	11	38	0	1184890880	50	6826
2026-01-08 02:02:58.91	326.02	12.56	-39.7	-40.8	21.7	0.00e+00	0	38	0	1186988032	50	7016
2026-01-08 02:02:59.92	326.14	12.48	-39.7	-40.9	21.7	0.00e+00	0	38	0	1188036608	52	6323
2026-01-08 02:03:00.93	326.26	12.40	-40.0	-41.1	21.5	0.00e+00	10	38	0	1190133760	52	6520
2026-01-08 02:03:01.94	326.38	12.33	-39.9	-41.1	21.5	0.00e+00	77	38	0	1192230912	52	6490
2026-01-08 02:03:02.95	326.49	12.25	-40.1	-41.2	21.3	0.00e+00	72	38	0	1194328064	52	6599
