passes_logs/2026/01/08/R4.6S_Anadyr/R4.6S_Anadyr__20260108_151546_SUOMI_NPP_rec.log

#Pass ID: 20260108_151546_SUOMI NPP
#Satellite: SUOMI NPP
#Configuration: NPP
#almurnet v.1.7.20251203
#Start time: 2026-01-08 15:15:48

#Version: 2.2.20231116
#Station: R4.6S_Anadyr
#Location: 177.4865 lon 64.73178 lat
#TLE: 1 37849U 11061A   26005.94084933  .00000134  00000+0  84554-4 0  9990
#TLE: 2 37849  98.7803 308.0679 0002567  79.1029 281.0436 14.19522657735426

#Time	Az	El	Level	Level2	SNR	BER	BlckErr	Temp	State	Recorded	gain1	gain2
2026-01-08 15:15:48.88	21.63	0.13	-48.4	-60.9	3.4	1.52e+00	0	29	0	0	60	39110
2026-01-08 15:15:49.88	21.62	0.19	-48.3	-63.5	3.6	1.51e+00	0	30	104	0	60	54014
2026-01-08 15:15:50.89	21.61	0.25	-48.3	-63.5	3.6	1.51e+00	0	30	104	0	60	54173
2026-01-08 15:15:51.90	21.60	0.31	-48.4	-63.6	3.6	1.51e+00	0	30	104	0	60	54668
2026-01-08 15:15:52.91	21.59	0.38	-48.5	-63.6	3.6	1.51e+00	0	30	104	0	60	54977
2026-01-08 15:15:53.92	21.59	0.44	-48.5	-63.7	3.6	1.51e+00	0	31	104	0	60	55163
2026-01-08 15:15:54.93	21.58	0.50	-48.5	-63.7	3.6	1.51e+00	0	31	104	0	60	55225
2026-01-08 15:15:55.94	21.57	0.56	-48.5	-63.7	3.6	1.51e+00	0	31	104	0	60	55294
2026-01-08 15:15:56.95	21.56	0.62	-48.6	-63.8	3.6	1.51e+00	0	31	104	0	60	55734
2026-01-08 15:15:57.96	21.55	0.68	-48.6	-63.8	3.6	1.51e+00	0	31	104	0	60	55676
2026-01-08 15:15:58.96	21.54	0.74	-48.5	-63.7	3.6	1.51e+00	0	31	104	0	60	55540
2026-01-08 15:15:59.97	21.53	0.80	-48.5	-63.7	3.6	1.51e+00	0	31	104	0	60	55288
2026-01-08 15:16:00.98	21.52	0.86	-48.4	-63.6	3.6	1.51e+00	0	31	104	0	60	54867
2026-01-08 15:16:01.99	21.51	0.93	-48.3	-63.5	3.6	1.51e+00	0	31	104	0	60	54296
2026-01-08 15:16:03.00	21.50	0.99	-48.3	-63.5	3.6	1.51e+00	0	31	104	0	60	53856
2026-01-08 15:16:04.01	21.49	1.05	-48.0	-63.2	3.6	1.51e+00	0	31	104	0	60	52230
2026-01-08 15:16:05.02	21.48	1.11	-47.9	-63.1	3.6	1.51e+00	0	31	104	0	60	51641
2026-01-08 15:16:06.03	21.48	1.18	-47.7	-62.8	3.6	1.51e+00	0	31	104	0	60	50100
2026-01-08 15:16:07.04	21.47	1.24	-47.4	-62.6	3.6	1.51e+00	0	31	104	0	60	48641
2026-01-08 15:16:08.05	21.46	1.30	-47.1	-62.2	3.6	1.51e+00	0	31	104	0	60	46763
2026-01-08 15:16:09.06	21.45	1.36	-47.1	-62.2	3.6	1.51e+00	0	31	104	0	60	46456
2026-01-08 15:16:10.07	21.44	1.43	-47.1	-62.1	3.6	1.51e+00	0	31	104	0	60	46139
2026-01-08 15:16:11.08	21.43	1.49	-47.1	-61.9	3.6	1.51e+00	0	31	104	0	60	44974
2026-01-08 15:16:12.09	21.42	1.55	-47.1	-61.9	3.5	1.51e+00	0	31	104	0	60	44834
2026-01-08 15:16:13.10	21.41	1.62	-47.1	-61.9	3.6	1.51e+00	0	31	104	0	60	44797
2026-01-08 15:16:14.10	21.40	1.68	-47.0	-61.9	3.6	1.51e+00	0	31	104	0	60	44871
2026-01-08 15:16:15.11	21.39	1.74	-47.0	-61.9	3.6	1.51e+00	0	31	104	0	60	44861
2026-01-08 15:16:16.12	21.38	1.81	-47.0	-61.9	3.6	1.51e+00	0	31	104	0	60	45231
2026-01-08 15:16:17.13	21.37	1.87	-47.1	-62.0	3.6	1.51e+00	0	31	104	0	60	45677
2026-01-08 15:16:18.14	21.36	1.93	-47.1	-62.1	3.6	1.51e+00	0	31	104	0	60	46089
2026-01-08 15:16:19.15	21.35	2.00	-47.1	-62.2	3.6	1.51e+00	0	31	104	0	60	46535
2026-01-08 15:16:20.16	21.34	2.06	-47.1	-62.2	3.6	1.51e+00	0	31	104	0	60	46642
2026-01-08 15:16:21.17	21.33	2.13	-47.1	-62.2	3.6	1.51e+00	0	31	104	0	60	46699
2026-01-08 15:16:22.18	21.32	2.19	-47.1	-62.2	3.6	1.51e+00	0	31	104	0	60	46449
2026-01-08 15:16:23.19	21.30	2.26	-47.1	-62.1	3.6	1.51e+00	0	31	104	0	60	45910
2026-01-08 15:16:24.20	21.29	2.32	-47.0	-62.0	3.6	1.51e+00	0	31	104	0	60	45522
2026-01-08 15:16:25.21	21.28	2.39	-47.0	-61.9	3.6	1.51e+00	0	31	104	0	60	45019
2026-01-08 15:16:26.22	21.27	2.45	-47.0	-61.6	3.6	1.51e+00	0	31	104	0	60	43423
2026-01-08 15:16:27.23	21.26	2.52	-47.0	-61.2	3.6	1.51e+00	0	31	104	0	60	41598
2026-01-08 15:16:28.24	21.25	2.58	-47.0	-60.9	3.6	1.51e+00	0	31	104	0	60	40096
2026-01-08 15:16:29.25	21.24	2.65	-47.0	-60.7	3.6	1.51e+00	0	31	104	0	60	39210
2026-01-08 15:16:30.26	21.23	2.71	-47.0	-60.4	3.6	1.51e+00	0	31	104	0	60	38066
2026-01-08 15:16:31.27	21.22	2.78	-47.0	-60.6	3.6	1.51e+00	0	31	104	0	60	38625
2026-01-08 15:16:32.28	21.21	2.85	-47.0	-60.9	3.6	1.51e+00	0	31	104	0	60	40118
2026-01-08 15:16:33.29	21.20	2.91	-47.0	-61.0	3.6	1.51e+00	0	31	104	0	60	40369
2026-01-08 15:16:34.30	21.18	2.98	-46.9	-59.9	3.6	1.51e+00	0	31	104	0	60	35639
2026-01-08 15:16:35.31	21.17	3.05	-46.8	-57.3	4.0	1.43e+00	47	31	0	0	60	26613
2026-01-08 15:16:36.32	21.16	3.11	-46.6	-54.6	5.4	8.26e-01	0	31	0	1048576	60	19433
2026-01-08 15:16:37.33	21.15	3.18	-46.2	-52.7	7.5	1.56e-01	0	31	0	3145728	60	15660
2026-01-08 15:16:38.34	21.14	3.25	-45.8	-51.3	9.3	3.80e-02	92	31	0	5242880	60	13268
2026-01-08 15:16:39.35	21.13	3.31	-45.3	-49.9	11.0	7.28e-03	0	31	0	7340032	60	11361
2026-01-08 15:16:40.36	21.11	3.38	-44.8	-48.9	12.2	4.46e-04	0	31	0	9437184	60	10022
2026-01-08 15:16:41.37	21.10	3.45	-44.3	-47.9	13.2	4.65e-05	0	31	0	10485760	60	8967
2026-01-08 15:16:42.38	21.09	3.52	-44.2	-47.6	13.4	1.37e-05	0	31	0	12582912	60	8715
2026-01-08 15:16:43.39	21.08	3.58	-44.1	-47.4	13.7	7.60e-06	0	31	0	14680064	60	8436
2026-01-08 15:16:44.40	21.07	3.65	-44.1	-47.5	13.6	7.60e-06	0	31	0	16777216	60	8600
2026-01-08 15:16:45.41	21.06	3.72	-44.3	-47.8	13.1	1.06e-05	41	31	0	18874368	60	8900
2026-01-08 15:16:46.42	21.04	3.79	-44.6	-48.5	12.4	5.64e-05	0	31	0	19922944	60	9617
2026-01-08 15:16:47.43	21.03	3.86	-45.1	-49.6	11.4	6.96e-04	92	31	0	22020096	60	10922
2026-01-08 15:16:48.43	21.02	3.93	-46.5	-53.8	6.9	3.24e-01	0	31	0	24117248	60	17748
2026-01-08 15:16:49.44	21.01	3.99	-43.8	-46.8	13.9	3.02e-02	0	31	0	26214400	60	7904
2026-01-08 15:16:50.45	20.99	4.06	-46.8	-58.1	4.2	1.51e+00	0	31	104	26214400	60	28997
2026-01-08 15:16:51.46	20.98	4.13	-42.4	-44.6	15.4	6.69e-01	0	31	104	26214400	56	7712
2026-01-08 15:16:52.47	20.97	4.20	-46.7	-56.2	4.6	1.32e+00	0	31	104	26214400	60	23348
2026-01-08 15:16:53.48	20.96	4.27	-40.8	-42.5	17.7	1.20e-01	0	31	104	26214400	56	6052
2026-01-08 15:16:54.49	20.94	4.34	-40.6	-42.2	18.9	0.00e+00	90	31	0	27262976	54	6560
2026-01-08 15:16:55.50	20.93	4.41	-40.2	-41.7	19.3	0.00e+00	0	31	0	29360128	54	6224
2026-01-08 15:16:56.50	20.92	4.48	-40.3	-41.8	19.2	0.00e+00	0	31	0	31457280	54	6259
2026-01-08 15:16:57.51	20.90	4.55	-40.3	-41.8	19.2	0.00e+00	0	31	0	32505856	54	6305
2026-01-08 15:16:58.52	20.89	4.62	-40.3	-41.8	19.3	0.00e+00	0	31	0	34603008	54	6292
2026-01-08 15:16:59.53	20.88	4.69	-40.2	-41.7	19.4	0.00e+00	84	31	0	36700160	54	6195
2026-01-08 15:17:00.54	20.86	4.76	-40.2	-41.6	19.4	0.00e+00	0	31	0	38797312	54	6171
2026-01-08 15:17:01.55	20.85	4.83	-40.3	-41.7	19.4	0.00e+00	84	31	0	40894464	54	6243
2026-01-08 15:17:02.56	20.84	4.91	-40.4	-41.9	19.2	0.00e+00	0	31	0	41943040	54	6349
2026-01-08 15:17:03.57	20.82	4.98	-40.6	-42.1	19.2	0.00e+00	0	31	0	44040192	54	6502
2026-01-08 15:17:04.58	20.81	5.05	-40.4	-41.9	19.2	0.00e+00	0	31	0	46137344	54	6379
2026-01-08 15:17:05.59	20.80	5.12	-40.4	-41.9	19.1	0.00e+00	0	31	0	48234496	54	6364
2026-01-08 15:17:06.60	20.78	5.19	-40.6	-42.1	19.1	0.00e+00	0	31	0	50331648	54	6537
2026-01-08 15:17:07.61	20.77	5.26	-40.1	-41.6	19.7	0.00e+00	0	31	0	51380224	54	6121
2026-01-08 15:17:08.62	20.75	5.34	-39.9	-41.3	19.8	0.00e+00	87	31	0	53477376	54	5955
2026-01-08 15:17:09.63	20.74	5.41	-39.8	-41.2	19.9	0.00e+00	0	31	0	55574528	54	5872
2026-01-08 15:17:10.64	20.73	5.48	-39.8	-41.2	20.0	0.00e+00	20	31	0	57671680	52	6577
2026-01-08 15:17:11.64	20.71	5.55	-39.7	-41.0	20.2	0.00e+00	0	31	0	59768832	52	6449
2026-01-08 15:17:12.65	20.70	5.63	-39.8	-41.2	20.1	0.00e+00	0	31	0	60817408	52	6551
2026-01-08 15:17:13.67	20.68	5.70	-39.6	-40.9	20.3	0.00e+00	0	31	0	62914560	52	6375
2026-01-08 15:17:14.67	20.67	5.77	-39.6	-40.9	20.3	0.00e+00	0	31	0	65011712	52	6388
2026-01-08 15:17:15.68	20.65	5.85	-39.6	-40.9	20.3	0.00e+00	71	31	0	67108864	52	6345
2026-01-08 15:17:16.69	20.64	5.92	-39.5	-40.8	20.3	0.00e+00	0	31	0	69206016	52	6294
2026-01-08 15:17:17.70	20.62	6.00	-39.6	-40.9	20.5	0.00e+00	77	31	0	70254592	52	6335
2026-01-08 15:17:18.71	20.61	6.07	-39.5	-40.8	20.5	0.00e+00	0	31	0	72351744	52	6263
2026-01-08 15:17:19.72	20.59	6.15	-39.4	-40.7	20.5	0.00e+00	0	31	0	74448896	52	6199
2026-01-08 15:17:20.73	20.58	6.22	-39.5	-40.8	20.5	0.00e+00	0	31	0	76546048	52	6268
2026-01-08 15:17:21.74	20.56	6.30	-39.4	-40.7	20.6	0.00e+00	0	31	0	78643200	52	6184
2026-01-08 15:17:22.75	20.55	6.37	-39.3	-40.6	20.6	0.00e+00	90	31	0	79691776	52	6130
2026-01-08 15:17:23.76	20.53	6.45	-39.3	-40.5	20.7	0.00e+00	0	31	0	81788928	52	6087
2026-01-08 15:17:24.77	20.52	6.52	-39.3	-40.5	20.8	0.00e+00	88	31	0	83886080	52	6064
2026-01-08 15:17:25.78	20.50	6.60	-39.4	-40.6	20.6	0.00e+00	0	31	0	85983232	52	6139
2026-01-08 15:17:26.79	20.49	6.67	-39.4	-40.6	20.7	0.00e+00	0	31	0	88080384	52	6142
2026-01-08 15:17:27.80	20.47	6.75	-39.5	-40.8	20.5	0.00e+00	0	31	0	90177536	52	6269
2026-01-08 15:17:28.81	20.45	6.83	-39.2	-40.4	20.8	0.00e+00	0	31	0	91226112	52	6026
2026-01-08 15:17:29.82	20.44	6.90	-39.1	-40.3	21.0	0.00e+00	0	31	0	93323264	52	5955
2026-01-08 15:17:30.83	20.42	6.98	-39.3	-40.6	20.7	0.00e+00	0	31	0	95420416	52	6125
2026-01-08 15:17:31.84	20.40	7.06	-39.1	-40.3	20.9	0.00e+00	89	31	0	97517568	52	5960
2026-01-08 15:17:32.85	20.39	7.14	-39.0	-40.2	21.1	0.00e+00	0	31	0	99614720	52	5833
2026-01-08 15:17:33.85	20.37	7.21	-39.0	-40.1	21.1	0.00e+00	0	31	0	100663296	52	5817
2026-01-08 15:17:34.86	20.36	7.29	-39.1	-40.3	21.0	0.00e+00	0	31	0	102760448	52	5960
2026-01-08 15:17:35.87	20.34	7.37	-39.0	-40.1	21.1	0.00e+00	0	31	0	104857600	52	5826
2026-01-08 15:17:36.88	20.32	7.45	-38.9	-40.1	21.2	0.00e+00	0	31	0	106954752	52	5782
2026-01-08 15:17:37.89	20.30	7.53	-38.9	-40.0	21.3	0.00e+00	0	31	0	109051904	52	5734
2026-01-08 15:17:38.90	20.29	7.60	-39.1	-40.2	21.0	0.00e+00	58	31	0	110100480	52	5890
2026-01-08 15:17:39.91	20.27	7.68	-39.1	-40.3	21.1	0.00e+00	0	31	0	112197632	52	5903
2026-01-08 15:17:40.92	20.25	7.76	-39.1	-40.2	21.1	0.00e+00	0	31	0	114294784	52	5895
2026-01-08 15:17:41.93	20.24	7.84	-39.0	-40.2	21.2	0.00e+00	0	31	0	116391936	52	5853
2026-01-08 15:17:42.94	20.22	7.92	-38.9	-40.1	21.4	0.00e+00	0	31	0	118489088	52	5778
2026-01-08 15:17:43.95	20.20	8.00	-39.1	-40.3	21.1	0.00e+00	65	31	0	119537664	52	5904
2026-01-08 15:17:44.95	20.18	8.08	-38.6	-39.7	21.6	0.00e+00	0	31	0	121634816	50	6230
2026-01-08 15:17:45.96	20.16	8.16	-38.6	-39.7	21.6	0.00e+00	90	31	0	123731968	50	6187
2026-01-08 15:17:46.97	20.15	8.24	-38.5	-39.6	21.7	0.00e+00	0	31	0	125829120	50	6124
2026-01-08 15:17:47.98	20.13	8.33	-38.5	-39.6	21.6	0.00e+00	64	31	0	127926272	50	6167
2026-01-08 15:17:48.99	20.11	8.41	-38.4	-39.5	21.7	0.00e+00	0	31	0	128974848	50	6091
2026-01-08 15:17:50.00	20.09	8.49	-38.5	-39.6	21.7	0.00e+00	0	31	0	131072000	50	6123
2026-01-08 15:17:51.01	20.07	8.57	-38.5	-39.6	21.7	0.00e+00	0	31	0	133169152	50	6134
2026-01-08 15:17:52.02	20.05	8.65	-38.6	-39.7	21.6	0.00e+00	0	31	0	135266304	50	6227
2026-01-08 15:17:53.03	20.04	8.74	-38.6	-39.7	21.7	0.00e+00	88	31	0	137363456	50	6221
2026-01-08 15:17:54.04	20.02	8.82	-38.3	-39.3	21.9	0.00e+00	0	31	0	138412032	50	5961
2026-01-08 15:17:55.05	20.00	8.90	-38.3	-39.4	21.9	0.00e+00	65	31	0	140509184	50	5982
2026-01-08 15:17:56.06	19.98	8.98	-38.4	-39.5	21.9	0.00e+00	0	31	0	142606336	50	6084
2026-01-08 15:17:57.07	19.96	9.07	-38.3	-39.4	21.9	0.00e+00	0	31	0	144703488	50	5982
2026-01-08 15:17:58.08	19.94	9.15	-38.2	-39.3	22.0	0.00e+00	0	31	0	146800640	50	5921
2026-01-08 15:17:59.08	19.92	9.23	-38.3	-39.4	21.9	0.00e+00	0	31	0	147849216	50	5975
2026-01-08 15:18:00.09	19.90	9.32	-38.4	-39.5	21.8	0.00e+00	14	31	0	149946368	50	6047
2026-01-08 15:18:01.10	19.88	9.40	-38.3	-39.3	22.0	0.00e+00	0	31	0	152043520	50	5937
2026-01-08 15:18:02.11	19.86	9.49	-38.3	-39.3	22.0	0.00e+00	84	31	0	154140672	50	5960
2026-01-08 15:18:03.12	19.84	9.57	-38.3	-39.4	22.0	0.00e+00	0	31	0	156237824	50	5967
2026-01-08 15:18:04.13	19.82	9.66	-38.3	-39.4	22.0	0.00e+00	0	31	0	157286400	50	5981
2026-01-08 15:18:05.14	19.80	9.75	-38.3	-39.3	22.0	0.00e+00	0	31	0	159383552	50	5955
2026-01-08 15:18:06.15	19.78	9.83	-38.2	-39.3	22.0	0.00e+00	3	31	0	161480704	50	5911
2026-01-08 15:18:07.16	19.76	9.92	-38.1	-39.1	22.1	0.00e+00	64	31	0	163577856	50	5799
2026-01-08 15:18:08.17	19.74	10.00	-38.3	-39.4	22.0	0.00e+00	0	31	0	165675008	50	5966
2026-01-08 15:18:09.18	19.72	10.09	-38.2	-39.3	22.1	0.00e+00	92	31	0	166723584	50	5929
2026-01-08 15:18:10.19	19.69	10.18	-38.1	-39.2	22.1	0.00e+00	0	31	0	168820736	50	5843
2026-01-08 15:18:11.20	19.67	10.27	-38.2	-39.2	22.0	0.00e+00	0	31	0	170917888	50	5890
2026-01-08 15:18:12.21	19.65	10.35	-38.1	-39.1	22.2	0.00e+00	32	31	0	173015040	50	5812
2026-01-08 15:18:13.22	19.63	10.44	-38.1	-39.2	22.1	0.00e+00	2	31	0	175112192	50	5835
2026-01-08 15:18:14.23	19.61	10.53	-38.0	-39.1	22.2	0.00e+00	0	31	0	176160768	50	5779
2026-01-08 15:18:15.24	19.59	10.62	-38.2	-39.2	22.1	0.00e+00	0	31	0	178257920	50	5863
2026-01-08 15:18:16.25	19.56	10.71	-38.1	-39.2	22.2	0.00e+00	91	31	0	180355072	50	5836
2026-01-08 15:18:17.26	19.54	10.80	-38.0	-39.0	22.3	0.00e+00	0	31	0	182452224	50	5747
2026-01-08 15:18:18.27	19.52	10.89	-37.9	-38.9	22.4	0.00e+00	0	31	0	184549376	50	5632
2026-01-08 15:18:19.28	19.50	10.98	-38.0	-39.0	22.3	0.00e+00	0	31	0	186646528	50	5725
2026-01-08 15:18:20.28	19.47	11.07	-37.9	-38.9	22.4	0.00e+00	0	31	0	187695104	50	5672
2026-01-08 15:18:21.29	19.45	11.16	-37.9	-39.0	22.4	0.00e+00	0	31	0	189792256	50	5696
2026-01-08 15:18:22.30	19.43	11.25	-37.8	-38.9	22.5	0.00e+00	0	31	0	191889408	48	6327
2026-01-08 15:18:23.31	19.40	11.34	-37.7	-38.7	22.6	0.00e+00	72	31	0	193986560	48	6206
2026-01-08 15:18:24.31	19.38	11.43	-37.7	-38.7	22.7	0.00e+00	0	32	0	196083712	48	6199
2026-01-08 15:18:25.32	19.36	11.53	-37.7	-38.7	22.6	0.00e+00	7	31	0	197132288	48	6222
2026-01-08 15:18:26.33	19.33	11.62	-37.6	-38.6	22.7	0.00e+00	0	31	0	199229440	48	6124
2026-01-08 15:18:27.34	19.31	11.71	-37.8	-38.8	22.5	0.00e+00	0	32	0	201326592	48	6282
2026-01-08 15:18:28.35	19.28	11.80	-37.6	-38.6	22.6	0.00e+00	17	32	0	203423744	48	6162
2026-01-08 15:18:29.36	19.26	11.90	-37.6	-38.6	22.6	0.00e+00	0	32	0	205520896	48	6162
2026-01-08 15:18:30.37	19.24	11.99	-37.5	-38.5	22.7	0.00e+00	89	32	0	206569472	48	6051
2026-01-08 15:18:31.38	19.21	12.09	-37.5	-38.5	22.8	0.00e+00	0	32	0	208666624	48	6077
2026-01-08 15:18:32.39	19.19	12.18	-37.4	-38.4	22.9	0.00e+00	75	31	0	210763776	48	6012
2026-01-08 15:18:33.40	19.16	12.27	-37.4	-38.4	22.8	0.00e+00	0	31	0	212860928	48	5996
2026-01-08 15:18:34.41	19.14	12.37	-37.4	-38.4	22.8	0.00e+00	0	31	0	214958080	48	5975
2026-01-08 15:18:35.42	19.11	12.47	-37.4	-38.4	22.8	0.00e+00	0	32	0	216006656	48	5970
2026-01-08 15:18:36.42	19.08	12.56	-37.3	-38.3	22.9	0.00e+00	0	32	0	218103808	48	5912
2026-01-08 15:18:37.44	19.06	12.66	-37.4	-38.4	22.9	0.00e+00	92	32	0	220200960	48	6006
2026-01-08 15:18:38.44	19.03	12.75	-37.4	-38.3	22.9	0.00e+00	0	31	0	222298112	48	5955
2026-01-08 15:18:39.45	19.01	12.85	-37.2	-38.1	23.0	0.00e+00	92	32	0	224395264	48	5796
2026-01-08 15:18:40.46	18.98	12.95	-37.4	-38.3	22.9	0.00e+00	0	32	0	225443840	48	5959
2026-01-08 15:18:41.47	18.95	13.05	-37.2	-38.1	23.1	0.00e+00	0	31	0	227540992	48	5799
2026-01-08 15:18:42.48	18.93	13.15	-37.2	-38.2	23.0	0.00e+00	0	32	0	229638144	48	5843
2026-01-08 15:18:43.49	18.90	13.24	-37.3	-38.3	22.9	0.00e+00	0	32	0	231735296	48	5931
2026-01-08 15:18:44.50	18.87	13.34	-37.2	-38.2	23.0	0.00e+00	88	31	0	233832448	48	5852
2026-01-08 15:18:45.51	18.84	13.44	-37.1	-38.0	23.2	0.00e+00	0	32	0	234881024	48	5751
2026-01-08 15:18:46.52	18.82	13.54	-37.1	-38.1	23.1	0.00e+00	47	32	0	236978176	48	5769
2026-01-08 15:18:47.53	18.79	13.64	-37.1	-38.0	23.1	0.00e+00	0	32	0	239075328	48	5737
2026-01-08 15:18:48.54	18.76	13.74	-37.0	-38.0	23.1	0.00e+00	0	32	0	241172480	48	5696
2026-01-08 15:18:49.55	18.73	13.84	-36.9	-37.9	23.3	0.00e+00	0	32	0	243269632	48	5644
2026-01-08 15:18:50.56	18.70	13.95	-37.0	-38.0	23.1	0.00e+00	0	31	0	244318208	48	5718
2026-01-08 15:18:51.57	18.67	14.05	-36.9	-37.8	23.3	0.00e+00	0	32	0	246415360	48	5614
2026-01-08 15:18:52.58	18.64	14.15	-36.8	-37.7	23.4	0.00e+00	0	32	0	248512512	48	5535
2026-01-08 15:18:53.59	18.62	14.25	-36.8	-37.7	23.4	0.00e+00	88	32	0	250609664	48	5556
2026-01-08 15:18:54.60	18.59	14.36	-36.9	-37.8	23.2	0.00e+00	0	32	0	252706816	48	5589
2026-01-08 15:18:55.61	18.56	14.46	-36.7	-37.6	23.2	0.00e+00	0	32	0	254803968	46	6163
2026-01-08 15:18:56.62	18.53	14.56	-36.8	-37.7	23.2	0.00e+00	0	32	0	255852544	46	6198
2026-01-08 15:18:57.63	18.50	14.67	-36.6	-37.5	23.1	0.00e+00	0	32	0	257949696	46	6064
2026-01-08 15:18:58.64	18.47	14.77	-36.6	-37.6	23.0	0.00e+00	0	32	0	260046848	46	6104
2026-01-08 15:18:59.64	18.43	14.88	-36.6	-37.5	23.2	0.00e+00	0	32	0	262144000	46	6034
2026-01-08 15:19:00.66	18.40	14.99	-36.7	-37.6	23.5	0.00e+00	90	32	0	264241152	46	6155
2026-01-08 15:19:01.66	18.37	15.09	-36.6	-37.5	23.3	0.00e+00	0	32	0	265289728	46	6036
2026-01-08 15:19:02.67	18.34	15.20	-36.6	-37.5	23.6	0.00e+00	89	32	0	267386880	46	6094
2026-01-08 15:19:03.68	18.31	15.31	-36.4	-37.2	23.6	0.00e+00	0	32	0	269484032	46	5889
2026-01-08 15:19:04.69	18.28	15.41	-36.2	-37.1	23.8	0.00e+00	0	32	0	271581184	46	5791
2026-01-08 15:19:05.70	18.24	15.52	-36.2	-37.1	23.9	0.00e+00	65	32	0	273678336	46	5768
2026-01-08 15:19:06.71	18.21	15.63	-36.2	-37.1	23.9	0.00e+00	0	32	0	274726912	46	5767
2026-01-08 15:19:07.71	18.18	15.74	-36.1	-37.0	23.9	0.00e+00	8	32	0	276824064	46	5710
2026-01-08 15:19:08.72	18.15	15.85	-36.1	-37.0	24.0	0.00e+00	0	31	0	278921216	46	5728
2026-01-08 15:19:09.73	18.11	15.96	-36.0	-36.9	24.1	0.00e+00	80	31	0	281018368	46	5639
2026-01-08 15:19:10.74	18.08	16.07	-36.1	-36.9	24.1	0.00e+00	0	32	0	283115520	46	5667
2026-01-08 15:19:11.74	18.05	16.18	-36.0	-36.9	24.1	0.00e+00	0	32	0	284164096	46	5658
2026-01-08 15:19:12.75	18.01	16.29	-36.1	-37.0	24.0	0.00e+00	0	31	0	286261248	46	5712
2026-01-08 15:19:13.76	17.98	16.40	-35.9	-36.7	24.2	0.00e+00	0	31	0	288358400	46	5548
2026-01-08 15:19:14.77	17.94	16.51	-35.8	-36.7	24.2	0.00e+00	0	32	0	290455552	46	5518
2026-01-08 15:19:15.78	17.91	16.63	-35.9	-36.7	24.2	0.00e+00	0	32	0	292552704	46	5553
2026-01-08 15:19:16.79	17.87	16.74	-35.9	-36.7	24.2	0.00e+00	56	32	0	293601280	46	5563
2026-01-08 15:19:17.80	17.84	16.86	-35.9	-36.8	24.2	0.00e+00	0	32	0	295698432	44	6260
2026-01-08 15:19:18.81	17.80	16.97	-35.9	-36.7	24.2	0.00e+00	0	32	0	297795584	44	6206
2026-01-08 15:19:19.82	17.76	17.09	-35.9	-36.8	24.1	0.00e+00	0	31	0	299892736	44	6250
2026-01-08 15:19:20.83	17.73	17.20	-36.0	-36.8	24.1	0.00e+00	29	31	0	301989888	44	6311
2026-01-08 15:19:21.84	17.69	17.32	-35.9	-36.8	24.2	0.00e+00	2	31	0	303038464	44	6249
2026-01-08 15:19:22.85	17.65	17.43	-36.0	-36.9	24.1	0.00e+00	0	32	0	305135616	44	6326
2026-01-08 15:19:23.86	17.62	17.55	-36.1	-36.9	24.1	0.00e+00	77	32	0	307232768	44	6375
2026-01-08 15:19:24.87	17.58	17.67	-36.2	-37.1	24.0	0.00e+00	0	32	0	309329920	44	6502
2026-01-08 15:19:25.88	17.54	17.79	-36.2	-37.1	24.0	0.00e+00	0	32	0	311427072	44	6471
2026-01-08 15:19:26.89	17.50	17.91	-36.2	-37.1	24.0	0.00e+00	0	32	0	312475648	44	6480
2026-01-08 15:19:27.90	17.46	18.03	-36.0	-36.9	24.1	0.00e+00	0	32	0	314572800	44	6322
2026-01-08 15:19:28.91	17.42	18.15	-36.1	-37.0	24.1	0.00e+00	87	32	0	316669952	44	6416
2026-01-08 15:19:29.92	17.38	18.27	-36.1	-37.0	24.1	0.00e+00	0	32	0	318767104	44	6415
2026-01-08 15:19:30.93	17.34	18.39	-36.1	-37.0	24.0	0.00e+00	79	32	0	320864256	44	6392
2026-01-08 15:19:31.94	17.30	18.51	-36.1	-37.0	24.1	0.00e+00	0	32	0	321912832	44	6405
2026-01-08 15:19:32.95	17.26	18.63	-36.2	-37.1	24.1	0.00e+00	41	32	0	324009984	44	6488
2026-01-08 15:19:33.96	17.22	18.76	-36.1	-37.0	24.0	0.00e+00	0	32	0	326107136	44	6400
2026-01-08 15:19:34.96	17.18	18.88	-36.2	-37.1	24.1	0.00e+00	0	32	0	328204288	44	6471
2026-01-08 15:19:35.97	17.14	19.00	-36.1	-36.9	24.1	0.00e+00	0	32	0	330301440	44	6379
2026-01-08 15:19:36.98	17.10	19.13	-36.2	-37.0	24.1	0.00e+00	0	32	0	331350016	44	6455
2026-01-08 15:19:37.99	17.05	19.25	-36.2	-37.1	24.0	0.00e+00	92	32	0	333447168	44	6487
2026-01-08 15:19:39.00	17.01	19.38	-36.1	-36.9	24.0	0.00e+00	0	32	0	335544320	44	6374
2026-01-08 15:19:40.01	16.97	19.51	-36.2	-37.1	24.2	0.00e+00	90	32	0	337641472	44	6484
2026-01-08 15:19:41.02	16.92	19.63	-35.9	-36.7	24.3	0.00e+00	0	32	0	339738624	44	6214
2026-01-08 15:19:42.03	16.88	19.76	-36.0	-36.8	24.2	0.00e+00	0	32	0	340787200	44	6303
2026-01-08 15:19:43.04	16.84	19.89	-36.0	-36.8	24.3	0.00e+00	0	32	0	342884352	44	6283
2026-01-08 15:19:44.05	16.79	20.02	-35.7	-36.6	24.2	0.00e+00	0	32	0	344981504	44	6114
2026-01-08 15:19:45.06	16.75	20.15	-35.9	-36.8	24.2	0.00e+00	92	32	0	347078656	44	6266
2026-01-08 15:19:46.07	16.70	20.28	-36.0	-36.8	24.3	0.00e+00	0	32	0	349175808	44	6276
2026-01-08 15:19:47.08	16.65	20.41	-36.0	-36.8	24.1	0.00e+00	74	32	0	351272960	44	6292
2026-01-08 15:19:48.09	16.61	20.54	-35.8	-36.6	24.4	0.00e+00	0	32	0	352321536	44	6120
2026-01-08 15:19:49.10	16.56	20.68	-35.6	-36.4	24.5	0.00e+00	0	32	0	354418688	44	6003
2026-01-08 15:19:50.11	16.51	20.81	-35.8	-36.6	24.4	0.00e+00	0	32	0	356515840	44	6114
2026-01-08 15:19:51.12	16.47	20.94	-35.6	-36.4	24.5	0.00e+00	0	32	0	358612992	44	6003
2026-01-08 15:19:52.12	16.42	21.08	-35.8	-36.6	24.4	0.00e+00	0	32	0	360710144	44	6118
2026-01-08 15:19:53.13	16.37	21.21	-36.0	-36.8	24.3	0.00e+00	0	32	0	361758720	44	6272
2026-01-08 15:19:54.14	16.32	21.35	-35.6	-36.4	24.5	0.00e+00	92	32	0	363855872	44	6027
2026-01-08 15:19:55.15	16.27	21.49	-35.7	-36.5	24.5	0.00e+00	0	32	0	365953024	44	6045
2026-01-08 15:19:56.16	16.22	21.62	-35.6	-36.4	24.6	0.00e+00	0	32	0	368050176	44	5986
2026-01-08 15:19:57.17	16.17	21.76	-35.4	-36.2	24.8	0.00e+00	0	32	0	370147328	44	5833
2026-01-08 15:19:58.18	16.12	21.90	-35.7	-36.5	24.4	0.00e+00	0	31	0	371195904	44	6045
2026-01-08 15:19:59.19	16.07	22.04	-35.7	-36.5	24.5	0.00e+00	5	32	0	373293056	44	6100
2026-01-08 15:20:00.20	16.01	22.18	-35.7	-36.5	24.4	0.00e+00	0	32	0	375390208	44	6094
2026-01-08 15:20:01.20	15.96	22.32	-35.9	-36.7	24.3	0.00e+00	92	32	0	377487360	44	6211
2026-01-08 15:20:02.21	15.91	22.46	-36.1	-36.9	24.2	0.00e+00	0	31	0	379584512	44	6387
2026-01-08 15:20:03.23	15.85	22.61	-36.0	-36.8	24.3	0.00e+00	20	32	0	380633088	44	6277
2026-01-08 15:20:04.23	15.80	22.75	-36.1	-37.0	24.1	0.00e+00	0	32	0	382730240	44	6405
2026-01-08 15:20:05.24	15.75	22.89	-35.8	-36.7	24.4	0.00e+00	0	32	0	384827392	44	6174
2026-01-08 15:20:06.25	15.69	23.04	-35.9	-36.8	24.2	0.00e+00	79	32	0	386924544	44	6267
2026-01-08 15:20:07.26	15.64	23.18	-35.9	-36.7	24.3	0.00e+00	0	32	0	389021696	44	6235
2026-01-08 15:20:08.27	15.58	23.33	-35.7	-36.6	24.4	0.00e+00	89	32	0	390070272	44	6104
2026-01-08 15:20:09.28	15.52	23.48	-35.9	-36.7	24.4	0.00e+00	32	32	0	392167424	44	6204
2026-01-08 15:20:10.28	15.46	23.63	-35.7	-36.6	24.6	0.00e+00	90	32	0	394264576	44	6115
2026-01-08 15:20:11.29	15.41	23.77	-35.6	-36.4	24.6	0.00e+00	0	32	0	396361728	44	5980
2026-01-08 15:20:12.30	15.35	23.92	-35.7	-36.5	24.6	0.00e+00	0	32	0	398458880	44	6045
2026-01-08 15:20:13.31	15.29	24.08	-35.4	-36.2	24.6	0.00e+00	0	32	0	399507456	44	5848
2026-01-08 15:20:14.32	15.23	24.23	-35.7	-36.5	24.5	0.00e+00	0	32	0	401604608	44	6045
2026-01-08 15:20:15.33	15.17	24.38	-36.0	-36.9	24.2	0.00e+00	92	32	0	403701760	44	6328
2026-01-08 15:20:16.34	15.11	24.53	-36.2	-37.1	24.1	0.00e+00	0	32	0	405798912	44	6472
2026-01-08 15:20:17.34	15.05	24.69	-36.5	-37.4	23.9	0.00e+00	92	32	0	407896064	44	6735
2026-01-08 15:20:18.35	14.98	24.84	-36.5	-37.4	23.9	0.00e+00	0	32	0	408944640	44	6730
2026-01-08 15:20:19.36	14.92	25.00	-36.8	-37.7	23.7	0.00e+00	0	32	0	411041792	46	6225
2026-01-08 15:20:20.37	14.86	25.15	-37.0	-37.9	23.6	0.00e+00	5	32	0	413138944	46	6346
2026-01-08 15:20:21.38	14.79	25.31	-36.6	-37.5	23.7	0.00e+00	0	32	0	415236096	46	6047
2026-01-08 15:20:22.39	14.73	25.47	-37.0	-37.9	23.5	0.00e+00	2	32	0	417333248	46	6343
2026-01-08 15:20:23.40	14.66	25.63	-37.2	-38.1	23.4	0.00e+00	0	32	0	419430400	46	6488
2026-01-08 15:20:24.41	14.59	25.79	-37.2	-38.1	23.3	0.00e+00	71	32	0	420478976	46	6511
2026-01-08 15:20:25.42	14.53	25.95	-37.3	-38.2	23.4	0.00e+00	0	32	0	422576128	46	6585
2026-01-08 15:20:26.43	14.46	26.11	-36.8	-37.7	23.6	0.00e+00	0	32	0	424673280	46	6212
2026-01-08 15:20:27.44	14.39	26.28	-37.1	-38.0	23.4	0.00e+00	0	32	0	426770432	46	6463
2026-01-08 15:20:28.44	14.32	26.44	-37.4	-38.4	23.1	0.00e+00	0	32	0	428867584	46	6740
2026-01-08 15:20:29.45	14.25	26.60	-37.4	-38.4	23.1	0.00e+00	76	32	0	429916160	46	6724
2026-01-08 15:20:30.46	14.18	26.77	-37.8	-38.8	22.8	0.00e+00	0	32	0	432013312	48	6276
2026-01-08 15:20:31.47	14.11	26.94	-37.7	-38.7	22.9	0.00e+00	57	32	0	434110464	48	6181
2026-01-08 15:20:32.48	14.03	27.11	-38.5	-39.5	22.3	0.00e+00	0	32	0	436207616	48	6833
2026-01-08 15:20:33.49	13.96	27.27	-38.3	-39.3	22.3	0.00e+00	0	32	0	438304768	48	6675
2026-01-08 15:20:34.50	13.89	27.45	-38.2	-39.3	22.5	0.00e+00	0	32	0	439353344	48	6635
2026-01-08 15:20:35.51	13.81	27.62	-38.8	-40.0	21.9	0.00e+00	0	32	0	441450496	50	6396
2026-01-08 15:20:36.52	13.74	27.79	-39.1	-40.2	21.9	0.00e+00	81	32	0	443547648	50	6577
2026-01-08 15:20:37.53	13.66	27.96	-38.8	-39.9	21.9	0.00e+00	0	32	0	445644800	50	6355
2026-01-08 15:20:38.54	13.58	28.14	-39.1	-40.3	21.6	0.00e+00	60	32	0	447741952	50	6648
2026-01-08 15:20:39.55	13.50	28.31	-38.4	-39.5	22.3	0.00e+00	0	32	0	448790528	50	6037
2026-01-08 15:20:40.56	13.42	28.49	-38.2	-39.2	22.6	0.00e+00	46	32	0	450887680	50	5837
2026-01-08 15:20:41.56	13.34	28.66	-38.1	-39.1	22.5	0.00e+00	0	32	0	452984832	50	5822
2026-01-08 15:20:42.57	13.26	28.84	-37.7	-38.6	23.1	0.00e+00	0	32	0	455081984	50	5495
2026-01-08 15:20:43.58	13.18	29.02	-38.0	-39.0	22.7	0.00e+00	0	32	0	457179136	48	6438
2026-01-08 15:20:44.59	13.10	29.20	-38.0	-39.0	22.7	0.00e+00	0	32	0	458227712	48	6432
2026-01-08 15:20:45.59	13.01	29.38	-38.1	-39.1	22.6	0.00e+00	38	32	0	460324864	48	6529
2026-01-08 15:20:46.60	12.93	29.56	-38.4	-39.4	22.4	0.00e+00	0	32	0	462422016	48	6726
2026-01-08 15:20:47.61	12.84	29.75	-38.6	-39.7	22.1	0.00e+00	88	32	0	464519168	48	6970
2026-01-08 15:20:48.62	12.75	29.93	-38.8	-39.9	22.0	0.00e+00	0	32	0	466616320	48	7148
2026-01-08 15:20:49.62	12.67	30.12	-39.0	-40.1	21.7	0.00e+00	0	32	0	467664896	50	6494
2026-01-08 15:20:50.63	12.58	30.30	-38.6	-39.7	22.2	0.00e+00	0	32	0	469762048	50	6215
2026-01-08 15:20:51.64	12.49	30.49	-38.7	-39.8	22.1	0.00e+00	0	32	0	471859200	50	6267
2026-01-08 15:20:52.65	12.39	30.68	-38.8	-39.9	21.9	0.00e+00	92	32	0	473956352	50	6386
2026-01-08 15:20:53.66	12.30	30.87	-39.0	-40.1	21.6	0.00e+00	0	32	0	476053504	50	6519
2026-01-08 15:20:54.67	12.21	31.06	-38.7	-39.8	22.1	0.00e+00	92	32	0	477102080	50	6257
2026-01-08 15:20:55.67	12.11	31.25	-39.1	-40.3	21.7	0.00e+00	0	32	0	479199232	50	6653
2026-01-08 15:20:56.68	12.02	31.45	-39.0	-40.2	21.8	0.00e+00	0	32	0	481296384	50	6564
2026-01-08 15:20:57.69	11.92	31.64	-39.5	-40.6	21.5	0.00e+00	0	32	0	483393536	50	6888
2026-01-08 15:20:58.70	11.82	31.84	-39.1	-40.2	21.7	0.00e+00	0	32	0	485490688	50	6555
2026-01-08 15:20:59.71	11.72	32.04	-39.4	-40.5	21.6	0.00e+00	90	32	0	486539264	52	6093
2026-01-08 15:21:00.72	11.62	32.24	-39.9	-41.1	21.0	0.00e+00	0	32	0	488636416	52	6502
2026-01-08 15:21:01.73	11.52	32.44	-40.2	-41.3	21.1	0.00e+00	90	32	0	490733568	52	6687
2026-01-08 15:21:02.74	11.41	32.64	-39.9	-41.0	21.1	0.00e+00	0	32	0	492830720	52	6440
2026-01-08 15:21:03.75	11.31	32.84	-40.5	-41.8	20.9	0.00e+00	0	32	0	494927872	52	7008
2026-01-08 15:21:04.76	11.20	33.05	-40.0	-41.1	21.0	0.00e+00	0	32	0	495976448	52	6521
2026-01-08 15:21:05.77	11.09	33.25	-40.0	-41.1	21.0	0.00e+00	0	32	0	498073600	52	6492
2026-01-08 15:21:06.77	10.98	33.46	-39.8	-40.9	20.9	0.00e+00	57	32	0	500170752	52	6328
2026-01-08 15:21:07.78	10.87	33.66	-40.1	-41.2	20.8	0.00e+00	0	32	0	502267904	52	6614
2026-01-08 15:21:08.79	10.76	33.87	-40.8	-42.1	20.1	0.00e+00	90	32	0	504365056	52	7319
2026-01-08 15:21:09.80	10.65	34.08	-40.7	-41.9	20.4	0.00e+00	0	32	0	505413632	54	6374
2026-01-08 15:21:10.81	10.53	34.30	-40.9	-42.2	20.0	0.00e+00	0	32	0	507510784	54	6560
2026-01-08 15:21:11.82	10.41	34.51	-40.8	-42.1	20.2	0.00e+00	0	32	0	509607936	54	6492
2026-01-08 15:21:12.83	10.30	34.72	-40.7	-42.0	20.2	0.00e+00	0	32	0	511705088	54	6408
2026-01-08 15:21:13.84	10.18	34.94	-40.7	-42.0	20.2	0.00e+00	43	32	0	513802240	54	6458
2026-01-08 15:21:14.85	10.05	35.16	-39.6	-40.8	21.2	0.00e+00	0	32	0	515899392	52	6260
2026-01-08 15:21:15.86	9.93	35.37	-39.4	-40.5	21.6	0.00e+00	73	32	0	516947968	52	6054
2026-01-08 15:21:16.86	9.81	35.59	-39.5	-40.6	21.6	0.00e+00	0	32	0	519045120	52	6127
2026-01-08 15:21:17.87	9.68	35.81	-39.6	-40.7	21.4	0.00e+00	92	32	0	521142272	52	6181
2026-01-08 15:21:18.88	9.55	36.03	-39.8	-41.0	21.0	0.00e+00	0	32	0	523239424	52	6415
2026-01-08 15:21:19.89	9.42	36.26	-39.8	-40.9	21.4	0.00e+00	0	32	0	525336576	52	6385
2026-01-08 15:21:20.90	9.29	36.48	-40.7	-42.1	20.1	0.00e+00	12	32	0	526385152	52	7267
2026-01-08 15:21:21.91	9.15	36.71	-40.9	-42.3	20.2	0.00e+00	0	32	0	528482304	54	6620
2026-01-08 15:21:22.92	9.02	36.94	-40.4	-41.7	20.2	0.00e+00	92	32	0	530579456	54	6223
2026-01-08 15:21:23.93	8.88	37.17	-40.8	-42.1	20.2	0.00e+00	0	32	0	532676608	54	6530
2026-01-08 15:21:24.94	8.74	37.40	-40.2	-41.4	20.8	0.00e+00	86	32	0	534773760	54	6003
2026-01-08 15:21:25.95	8.60	37.63	-40.3	-41.5	20.6	0.00e+00	0	32	0	535822336	52	6845
2026-01-08 15:21:26.96	8.45	37.86	-39.7	-40.9	20.9	0.00e+00	0	32	0	537919488	52	6331
2026-01-08 15:21:27.98	8.30	38.10	-39.1	-40.1	21.8	0.00e+00	0	32	0	540016640	52	5802
2026-01-08 15:21:28.98	8.16	38.34	-39.4	-40.5	21.5	0.00e+00	0	32	0	542113792	52	6074
2026-01-08 15:21:29.99	8.01	38.57	-39.7	-40.8	21.4	0.00e+00	6	32	0	544210944	52	6293
2026-01-08 15:21:31.01	7.85	38.82	-40.1	-41.3	20.7	0.00e+00	0	32	0	545259520	52	6673
2026-01-08 15:21:32.01	7.70	39.05	-40.3	-41.6	20.5	0.00e+00	54	32	0	547356672	52	6851
2026-01-08 15:21:33.02	7.54	39.30	-40.7	-42.1	20.3	0.00e+00	0	32	0	549453824	54	6472
2026-01-08 15:21:34.03	7.38	39.54	-40.8	-42.2	20.2	0.00e+00	0	32	0	551550976	54	6568
2026-01-08 15:21:35.04	7.22	39.79	-40.5	-41.9	20.3	0.00e+00	0	32	0	553648128	54	6328
2026-01-08 15:21:36.05	7.05	40.03	-40.8	-42.3	20.1	0.00e+00	0	32	0	554696704	54	6625
2026-01-08 15:21:37.06	6.88	40.28	-40.4	-41.7	20.6	0.00e+00	0	32	0	556793856	54	6236
2026-01-08 15:21:38.07	6.71	40.53	-40.3	-41.7	20.5	0.00e+00	0	32	0	558891008	54	6181
2026-01-08 15:21:39.08	6.54	40.78	-39.9	-41.2	20.8	0.00e+00	90	32	0	560988160	54	5829
2026-01-08 15:21:40.09	6.36	41.03	-39.5	-40.7	21.2	0.00e+00	0	32	0	563085312	52	6204
2026-01-08 15:21:41.10	6.18	41.29	-39.3	-40.4	21.6	0.00e+00	0	32	0	564133888	52	6033
2026-01-08 15:21:42.11	6.00	41.54	-38.9	-40.0	22.0	0.00e+00	0	32	0	566231040	52	5722
2026-01-08 15:21:43.12	5.81	41.80	-38.5	-39.5	22.4	0.00e+00	0	32	0	568328192	50	6036
2026-01-08 15:21:44.12	5.63	42.06	-39.0	-40.0	22.2	0.00e+00	57	32	0	570425344	50	6447
2026-01-08 15:21:45.13	5.44	42.32	-38.6	-39.6	22.4	0.00e+00	0	32	0	572522496	50	6159
2026-01-08 15:21:46.14	5.24	42.58	-38.6	-39.6	22.4	0.00e+00	91	32	0	573571072	50	6167
2026-01-08 15:21:47.15	5.05	42.84	-38.6	-39.6	22.2	0.00e+00	0	32	0	575668224	50	6124
2026-01-08 15:21:48.16	4.85	43.10	-39.0	-40.1	21.8	0.00e+00	24	32	0	577765376	50	6491
2026-01-08 15:21:49.16	4.64	43.37	-39.4	-40.5	21.5	0.00e+00	0	32	0	579862528	50	6839
2026-01-08 15:21:50.17	4.44	43.63	-38.7	-39.7	22.2	0.00e+00	8	32	0	581959680	50	6219
2026-01-08 15:21:51.18	4.22	43.90	-38.6	-39.6	22.3	0.00e+00	0	32	0	583008256	50	6110
2026-01-08 15:21:52.19	4.01	44.17	-38.3	-39.3	22.5	0.00e+00	0	32	0	585105408	50	5915
2026-01-08 15:21:53.20	3.79	44.44	-37.8	-38.7	22.9	0.00e+00	30	32	0	587202560	48	6213
2026-01-08 15:21:54.21	3.57	44.72	-37.6	-38.5	23.4	0.00e+00	0	32	0	589299712	48	6095
2026-01-08 15:21:55.22	3.34	44.99	-37.1	-38.0	23.6	0.00e+00	92	32	0	591396864	48	5733
2026-01-08 15:21:56.23	3.11	45.27	-37.2	-38.0	23.4	0.00e+00	33	32	0	592445440	48	5757
2026-01-08 15:21:57.23	2.88	45.54	-37.3	-38.2	23.6	0.00e+00	0	32	0	594542592	48	5851
2026-01-08 15:21:58.24	2.64	45.82	-38.4	-39.4	22.4	0.00e+00	6	32	0	596639744	48	6749
2026-01-08 15:21:59.25	2.40	46.10	-38.4	-39.4	22.3	0.00e+00	0	32	0	598736896	48	6738
2026-01-08 15:22:00.26	2.15	46.38	-38.3	-39.3	22.4	0.00e+00	92	32	0	600834048	48	6627
2026-01-08 15:22:01.27	1.90	46.66	-38.5	-39.5	22.3	0.00e+00	0	32	0	601882624	48	6832
2026-01-08 15:22:02.28	1.64	46.94	-37.6	-38.5	23.2	0.00e+00	92	32	0	603979776	48	6102
2026-01-08 15:22:03.29	1.38	47.23	-37.8	-38.8	22.9	0.00e+00	0	32	0	606076928	48	6247
2026-01-08 15:22:04.30	1.11	47.52	-37.8	-38.8	22.9	0.00e+00	0	32	0	608174080	48	6259
2026-01-08 15:22:05.31	0.84	47.80	-38.6	-39.7	22.2	0.00e+00	0	32	0	610271232	48	6929
2026-01-08 15:22:06.32	0.57	48.09	-38.7	-39.8	22.1	0.00e+00	0	32	0	612368384	50	6271
2026-01-08 15:22:07.32	0.29	48.38	-38.3	-39.2	22.6	0.00e+00	6	32	0	613416960	50	5895
2026-01-08 15:22:08.33	360.00	48.67	-37.6	-38.5	23.2	0.00e+00	0	32	0	615514112	48	6042
2026-01-08 15:22:09.34	359.71	48.96	-37.2	-38.1	23.4	0.00e+00	81	32	0	617611264	48	5809
2026-01-08 15:22:10.35	359.41	49.25	-36.9	-37.7	23.7	0.00e+00	0	32	0	619708416	46	6212
2026-01-08 15:22:11.36	359.10	49.55	-37.4	-38.3	23.4	0.00e+00	0	32	0	621805568	46	6692
2026-01-08 15:22:12.37	358.79	49.84	-37.1	-37.9	23.6	0.00e+00	0	32	0	622854144	46	6375
2026-01-08 15:22:13.38	358.48	50.14	-36.3	-37.1	24.3	0.00e+00	0	32	0	624951296	46	5788
2026-01-08 15:22:14.39	358.16	50.44	-36.2	-37.1	24.4	0.00e+00	25	32	0	627048448	46	5764
2026-01-08 15:22:15.39	357.83	50.73	-35.9	-36.7	24.5	0.00e+00	0	32	0	629145600	46	5516
2026-01-08 15:22:16.40	357.49	51.03	-36.2	-37.0	24.3	0.00e+00	92	32	0	631242752	46	5733
2026-01-08 15:22:17.41	357.15	51.33	-36.3	-37.1	24.1	0.00e+00	0	32	0	632291328	46	5811
2026-01-08 15:22:18.42	356.80	51.63	-36.5	-37.4	23.6	0.00e+00	60	32	0	634388480	46	5982
2026-01-08 15:22:19.43	356.44	51.93	-37.0	-37.8	23.5	0.00e+00	0	32	0	636485632	46	6296
2026-01-08 15:22:20.43	356.08	52.23	-37.0	-37.8	23.8	0.00e+00	0	32	0	638582784	46	6311
2026-01-08 15:22:21.45	355.71	52.54	-37.2	-38.0	23.5	0.00e+00	1	32	0	640679936	46	6460
2026-01-08 15:22:22.45	355.33	52.84	-37.2	-38.0	23.5	0.00e+00	0	32	0	641728512	46	6447
2026-01-08 15:22:23.46	354.94	53.14	-37.1	-38.0	23.6	0.00e+00	81	32	0	643825664	46	6428
2026-01-08 15:22:24.47	354.55	53.45	-37.6	-38.6	21.9	0.00e+00	0	32	0	645922816	46	6879
2026-01-08 15:22:25.48	354.14	53.75	-37.8	-38.8	22.7	0.00e+00	92	32	0	648019968	48	6255
2026-01-08 15:22:26.49	353.73	54.06	-37.1	-38.0	23.6	0.00e+00	0	32	0	650117120	48	5750
2026-01-08 15:22:27.50	353.31	54.36	-36.9	-37.8	23.7	0.00e+00	0	32	0	651165696	46	6277
2026-01-08 15:22:28.51	352.88	54.67	-36.6	-37.4	24.0	0.00e+00	1	32	0	653262848	46	5985
2026-01-08 15:22:29.52	352.44	54.97	-37.2	-38.1	23.4	0.00e+00	0	32	0	655360000	46	6507
2026-01-08 15:22:30.52	351.99	55.28	-38.0	-39.0	22.8	0.00e+00	2	32	0	657457152	48	6405
2026-01-08 15:22:31.53	351.53	55.58	-38.2	-39.2	22.6	0.00e+00	0	32	0	659554304	48	6545
2026-01-08 15:22:32.54	351.06	55.89	-37.7	-38.6	23.1	0.00e+00	92	32	0	660602880	48	6142
2026-01-08 15:22:33.55	350.58	56.19	-38.0	-39.0	22.9	0.00e+00	0	32	0	662700032	48	6393
2026-01-08 15:22:34.56	350.09	56.50	-38.4	-39.4	22.4	0.00e+00	0	32	0	664797184	48	6763
2026-01-08 15:22:35.57	349.59	56.80	-39.5	-40.6	21.3	0.00e+00	0	32	0	666894336	50	6902
2026-01-08 15:22:36.58	349.07	57.11	-39.6	-40.8	21.3	0.00e+00	0	32	0	668991488	52	6273
2026-01-08 15:22:37.59	348.55	57.41	-39.6	-40.8	21.4	0.00e+00	3	32	0	670040064	52	6276
2026-01-08 15:22:38.60	348.01	57.71	-39.5	-40.6	21.6	0.00e+00	0	32	0	672137216	52	6158
2026-01-08 15:22:39.60	347.47	58.01	-38.6	-39.6	22.3	0.00e+00	92	32	0	674234368	52	5447
2026-01-08 15:22:40.61	346.90	58.31	-38.5	-39.5	22.4	0.00e+00	0	32	0	676331520	50	6060
2026-01-08 15:22:41.62	346.33	58.61	-37.9	-38.8	22.8	0.00e+00	0	32	0	678428672	50	5623
2026-01-08 15:22:42.63	345.74	58.91	-37.6	-38.6	23.1	0.00e+00	0	32	0	679477248	48	6109
2026-01-08 15:22:43.64	345.14	59.21	-38.0	-39.0	22.9	0.00e+00	0	32	0	681574400	48	6393
2026-01-08 15:22:44.65	344.52	59.50	-38.2	-39.3	22.4	0.00e+00	61	32	0	683671552	48	6628
2026-01-08 15:22:45.65	343.90	59.79	-38.7	-39.8	22.1	0.00e+00	0	32	0	685768704	50	6286
2026-01-08 15:22:46.66	343.26	60.09	-38.2	-39.2	22.6	0.00e+00	90	32	0	687865856	50	5887
2026-01-08 15:22:47.67	342.60	60.38	-38.4	-39.4	22.6	0.00e+00	0	32	0	688914432	50	5968
2026-01-08 15:22:48.68	341.92	60.66	-37.2	-38.1	23.5	0.00e+00	0	32	0	691011584	48	5779
2026-01-08 15:22:49.69	341.23	60.95	-36.5	-37.3	24.0	0.00e+00	0	32	0	693108736	46	5954
2026-01-08 15:22:50.70	340.53	61.23	-35.7	-36.5	24.5	0.00e+00	0	32	0	695205888	44	6075
2026-01-08 15:22:51.71	339.80	61.51	-35.2	-35.9	24.9	0.00e+00	56	32	0	697303040	44	5671
2026-01-08 15:22:52.72	339.07	61.79	-35.6	-36.3	24.7	0.00e+00	0	32	0	698351616	44	5958
2026-01-08 15:22:53.72	338.32	62.06	-35.8	-36.5	24.6	0.00e+00	88	32	0	700448768	44	6093
2026-01-08 15:22:54.73	337.55	62.33	-36.2	-37.0	24.2	0.00e+00	9	32	0	702545920	44	6439
2026-01-08 15:22:55.74	336.76	62.60	-36.3	-37.1	24.1	0.00e+00	81	32	0	704643072	44	6498
2026-01-08 15:22:56.75	335.95	62.86	-36.3	-37.2	23.1	0.00e+00	0	32	0	706740224	44	6579
2026-01-08 15:22:57.76	335.13	63.12	-36.1	-37.0	24.3	0.00e+00	0	32	0	708837376	44	6402
2026-01-08 15:22:58.76	334.29	63.38	-36.1	-37.0	24.2	0.00e+00	7	32	0	709885952	44	6427
2026-01-08 15:22:59.77	333.43	63.63	-36.2	-37.1	24.1	0.00e+00	0	32	0	711983104	44	6477
2026-01-08 15:23:00.78	332.55	63.88	-36.1	-37.0	24.1	0.00e+00	19	32	0	714080256	44	6422
2026-01-08 15:23:01.79	331.65	64.12	-35.9	-36.7	24.4	0.00e+00	0	32	0	716177408	44	6230
2026-01-08 15:23:02.80	330.73	64.36	-35.8	-36.6	24.5	0.00e+00	92	32	0	718274560	44	6136
2026-01-08 15:23:03.80	329.80	64.59	-36.3	-37.2	24.1	0.00e+00	0	32	0	719323136	44	6577
2026-01-08 15:23:04.81	328.85	64.81	-36.7	-37.5	23.8	0.00e+00	0	32	0	721420288	46	6091
2026-01-08 15:23:05.82	327.87	65.03	-36.0	-36.8	24.3	0.00e+00	0	32	0	723517440	46	5615
2026-01-08 15:23:06.83	326.88	65.25	-35.2	-36.0	24.8	0.00e+00	0	32	0	725614592	44	5709
2026-01-08 15:23:07.84	325.87	65.45	-35.0	-35.7	25.0	0.00e+00	91	32	0	727711744	44	5559
2026-01-08 15:23:08.85	324.83	65.66	-35.9	-36.7	24.5	0.00e+00	0	32	0	728760320	44	6224
2026-01-08 15:23:09.86	323.78	65.85	-36.7	-37.5	23.9	0.00e+00	47	32	0	730857472	44	6842
2026-01-08 15:23:10.86	322.72	66.04	-36.7	-37.6	23.7	0.00e+00	0	32	0	732954624	44	6860
2026-01-08 15:23:11.87	321.64	66.22	-36.9	-37.8	23.5	0.00e+00	0	32	0	735051776	46	6296
2026-01-08 15:23:12.88	320.53	66.39	-37.5	-38.4	23.1	0.00e+00	0	32	0	737148928	46	6712
2026-01-08 15:23:13.89	319.41	66.56	-38.7	-39.8	21.9	0.00e+00	0	32	0	738197504	48	7085
2026-01-08 15:23:14.90	318.26	66.71	-39.0	-40.2	21.8	0.00e+00	8	32	0	740294656	50	6547
2026-01-08 15:23:15.91	317.11	66.86	-37.8	-38.8	22.9	0.00e+00	0	32	0	742391808	50	5623
2026-01-08 15:23:16.92	315.93	67.00	-38.0	-39.2	22.2	0.00e+00	83	32	0	744488960	48	6558
2026-01-08 15:23:17.93	314.74	67.13	-39.5	-41.0	20.7	0.00e+00	0	32	0	746586112	50	7175
2026-01-08 15:23:18.94	313.54	67.26	-39.4	-40.6	21.4	0.00e+00	0	32	0	747634688	52	6158
2026-01-08 15:23:19.95	312.32	67.37	-38.6	-39.7	22.1	0.00e+00	0	32	0	749731840	50	6198
2026-01-08 15:23:20.96	311.09	67.47	-37.3	-38.2	23.3	0.00e+00	0	32	0	751828992	48	5848
2026-01-08 15:23:21.97	309.85	67.57	-36.5	-37.3	23.8	0.00e+00	9	32	0	753926144	46	5926
2026-01-08 15:23:22.98	308.60	67.65	-36.9	-37.7	23.6	0.00e+00	0	32	0	756023296	46	6229
2026-01-08 15:23:23.98	307.35	67.73	-36.9	-37.8	23.5	0.00e+00	75	32	0	757071872	46	6249
2026-01-08 15:23:24.99	306.08	67.79	-36.5	-37.3	23.9	0.00e+00	0	32	0	759169024	46	5953
2026-01-08 15:23:26.00	304.80	67.85	-37.3	-38.1	23.2	0.00e+00	79	32	0	761266176	46	6520
2026-01-08 15:23:27.01	303.51	67.89	-38.1	-39.0	22.7	0.00e+00	0	32	0	763363328	48	6448
2026-01-08 15:23:28.02	302.22	67.93	-37.8	-38.8	22.7	0.00e+00	0	32	0	765460480	48	6265
2026-01-08 15:23:29.03	300.93	67.95	-37.4	-38.2	23.2	0.00e+00	10	32	0	766509056	48	5883
2026-01-08 15:23:30.04	299.63	67.96	-37.6	-38.5	23.0	0.00e+00	0	32	0	768606208	48	6076
2026-01-08 15:23:31.05	298.34	67.97	-37.9	-38.9	22.7	0.00e+00	63	32	0	770703360	48	6326
2026-01-08 15:23:32.06	297.04	67.96	-38.3	-39.4	22.5	0.00e+00	0	32	0	772800512	48	6696
2026-01-08 15:23:33.07	295.74	67.94	-37.9	-38.9	22.7	0.00e+00	92	32	0	774897664	48	6335
2026-01-08 15:23:34.07	294.46	67.91	-37.4	-38.3	23.1	0.00e+00	0	32	0	775946240	48	5904
2026-01-08 15:23:35.08	293.17	67.88	-37.0	-37.9	23.5	0.00e+00	0	32	0	778043392	48	5660
2026-01-08 15:23:36.09	291.89	67.83	-37.5	-38.3	23.4	0.00e+00	0	32	0	780140544	48	5957
2026-01-08 15:23:37.10	290.62	67.77	-38.3	-39.3	22.3	0.00e+00	0	32	0	782237696	48	6631
2026-01-08 15:23:38.11	289.35	67.70	-38.9	-40.0	22.2	0.00e+00	69	32	0	784334848	50	6463
2026-01-08 15:23:39.12	288.09	67.62	-38.6	-39.7	22.2	0.00e+00	0	32	0	785383424	50	6195
2026-01-08 15:23:40.13	286.84	67.53	-38.1	-39.1	22.7	0.00e+00	39	32	0	787480576	50	5819
2026-01-08 15:23:41.14	285.60	67.43	-38.1	-39.1	22.4	0.00e+00	0	32	0	789577728	50	5794
2026-01-08 15:23:42.15	284.38	67.32	-39.2	-40.4	21.5	0.00e+00	0	32	0	791674880	50	6712
2026-01-08 15:23:43.16	283.16	67.21	-40.5	-41.9	20.2	0.00e+00	6	32	0	793772032	52	7118
2026-01-08 15:23:44.17	281.96	67.08	-40.2	-41.4	20.8	0.00e+00	0	32	0	794820608	52	6740
2026-01-08 15:23:45.18	280.78	66.95	-40.2	-41.4	20.7	0.00e+00	12	32	0	796917760	52	6727
2026-01-08 15:23:46.19	279.61	66.80	-40.0	-41.2	20.8	0.00e+00	0	32	0	799014912	52	6596
2026-01-08 15:23:47.20	278.46	66.65	-39.8	-41.0	21.0	0.00e+00	90	32	0	801112064	52	6394
2026-01-08 15:23:48.21	277.33	66.49	-38.9	-40.0	21.7	0.00e+00	0	32	0	803209216	52	5733
2026-01-08 15:23:49.22	276.21	66.32	-38.0	-39.0	22.9	0.00e+00	14	32	0	805306368	50	5696
2026-01-08 15:23:50.23	275.11	66.14	-36.7	-37.6	23.9	0.00e+00	4	32	0	806354944	48	5441
2026-01-08 15:23:51.24	274.03	65.96	-36.3	-37.2	24.0	0.00e+00	0	32	0	808452096	46	5844
2026-01-08 15:23:52.25	272.97	65.77	-37.3	-38.3	23.1	0.00e+00	0	32	0	810549248	46	6618
2026-01-08 15:23:53.25	271.93	65.57	-37.9	-38.9	22.6	0.00e+00	0	32	0	812646400	48	6376
2026-01-08 15:23:54.26	270.91	65.37	-36.6	-37.5	23.9	0.00e+00	74	32	0	814743552	48	5379
2026-01-08 15:23:55.27	269.90	65.16	-35.8	-36.5	24.6	0.00e+00	0	32	0	815792128	46	5439
2026-01-08 15:23:56.28	268.91	64.94	-35.6	-36.3	24.7	0.00e+00	65	32	0	817889280	44	5953
2026-01-08 15:23:57.29	267.94	64.72	-34.7	-35.4	25.3	0.00e+00	0	32	0	819986432	42	6025
2026-01-08 15:23:58.30	267.00	64.49	-34.8	-35.5	25.1	0.00e+00	0	32	0	822083584	42	6077
2026-01-08 15:23:59.31	266.07	64.25	-35.6	-36.4	24.5	0.00e+00	59	32	0	824180736	42	6715
2026-01-08 15:24:00.32	265.15	64.02	-35.7	-36.5	24.8	0.00e+00	0	32	0	825229312	42	6802
2026-01-08 15:24:01.33	264.26	63.77	-35.7	-36.5	24.3	0.00e+00	30	32	0	827326464	44	6100
2026-01-08 15:24:02.34	263.39	63.52	-35.6	-36.4	24.4	0.00e+00	0	32	0	829423616	44	6033
2026-01-08 15:24:03.35	262.53	63.27	-35.9	-36.7	24.4	0.00e+00	92	32	0	831520768	44	6194
2026-01-08 15:24:04.36	261.70	63.01	-36.6	-37.5	23.8	0.00e+00	0	32	0	833617920	44	6778
2026-01-08 15:24:05.37	260.88	62.75	-36.4	-37.2	24.2	0.00e+00	0	32	0	834666496	46	5871
2026-01-08 15:24:06.38	260.08	62.48	-36.3	-37.1	24.0	0.00e+00	0	32	0	836763648	46	5816
2026-01-08 15:24:07.39	259.30	62.21	-37.5	-38.5	23.1	0.00e+00	0	32	0	838860800	46	6821
2026-01-08 15:24:08.40	258.53	61.94	-37.9	-38.9	22.8	0.00e+00	90	32	0	840957952	48	6321
2026-01-08 15:24:09.40	257.79	61.67	-37.4	-38.3	23.4	0.00e+00	0	32	0	843055104	48	5961
2026-01-08 15:24:10.41	257.06	61.39	-37.4	-38.3	23.4	0.00e+00	92	32	0	844103680	48	5939
2026-01-08 15:24:11.42	256.34	61.10	-38.1	-39.1	22.6	0.00e+00	0	32	0	846200832	48	6497
2026-01-08 15:24:12.43	255.64	60.82	-37.9	-38.9	22.9	0.00e+00	0	32	0	848297984	48	6318
2026-01-08 15:24:13.44	254.96	60.53	-37.2	-38.0	23.1	0.00e+00	0	32	0	850395136	48	5759
2026-01-08 15:24:14.45	254.29	60.24	-37.3	-38.2	23.2	0.00e+00	0	32	0	852492288	46	6541
2026-01-08 15:24:15.46	253.64	59.95	-38.1	-39.1	22.3	0.00e+00	0	32	0	853540864	48	6505
2026-01-08 15:24:16.47	253.00	59.66	-39.0	-40.1	21.8	0.00e+00	0	32	0	855638016	50	6519
2026-01-08 15:24:17.48	252.37	59.36	-39.5	-40.7	21.5	0.00e+00	63	32	0	857735168	50	6945
2026-01-08 15:24:18.49	251.76	59.07	-38.4	-39.4	22.0	0.00e+00	0	32	0	859832320	50	5993
2026-01-08 15:24:19.50	251.17	58.77	-38.0	-39.0	22.8	0.00e+00	0	32	0	861929472	50	5706
2026-01-08 15:24:20.50	250.59	58.47	-37.7	-38.7	22.9	0.00e+00	0	32	0	862978048	50	5516
2026-01-08 15:24:21.51	250.02	58.17	-38.2	-39.2	22.2	0.00e+00	0	32	0	865075200	48	6564
2026-01-08 15:24:22.52	249.46	57.87	-38.6	-39.6	22.3	0.00e+00	81	32	0	867172352	50	6166
2026-01-08 15:24:23.53	248.92	57.57	-37.1	-37.9	23.6	0.00e+00	0	32	0	869269504	48	5644
2026-01-08 15:24:24.54	248.38	57.26	-36.3	-37.1	24.3	0.00e+00	39	32	0	871366656	46	5788
2026-01-08 15:24:25.55	247.86	56.96	-35.0	-35.8	25.0	0.00e+00	0	32	0	873463808	44	5568
2026-01-08 15:24:26.56	247.35	56.65	-35.5	-36.3	24.6	0.00e+00	0	32	0	874512384	44	5931
2026-01-08 15:24:27.57	246.86	56.35	-35.5	-36.3	24.7	0.00e+00	0	32	0	876609536	44	5939
2026-01-08 15:24:28.58	246.37	56.04	-36.0	-36.8	24.4	0.00e+00	0	32	0	878706688	44	6293
2026-01-08 15:24:29.59	245.89	55.73	-36.3	-37.2	24.1	0.00e+00	0	32	0	880803840	44	6543
2026-01-08 15:24:30.60	245.42	55.43	-36.5	-37.3	23.9	0.00e+00	0	32	0	882900992	44	6684
2026-01-08 15:24:31.61	244.97	55.12	-36.1	-36.9	24.3	0.00e+00	78	32	0	883949568	44	6326
2026-01-08 15:24:32.62	244.52	54.82	-36.0	-36.8	24.4	0.00e+00	0	32	0	886046720	44	6276
2026-01-08 15:24:33.62	244.09	54.51	-36.9	-37.8	23.7	0.00e+00	92	32	0	888143872	46	6258
2026-01-08 15:24:34.63	243.66	54.21	-36.4	-37.3	24.2	0.00e+00	0	32	0	890241024	46	5909
2026-01-08 15:24:35.64	243.24	53.90	-36.5	-37.3	23.9	0.00e+00	0	32	0	892338176	46	5952
2026-01-08 15:24:36.65	242.83	53.59	-37.0	-37.9	23.6	0.00e+00	3	32	0	893386752	46	6365
2026-01-08 15:24:37.66	242.43	53.29	-37.0	-37.9	23.6	0.00e+00	0	32	0	895483904	46	6347
2026-01-08 15:24:38.67	242.04	52.98	-36.2	-37.0	24.1	0.00e+00	58	32	0	897581056	46	5752
2026-01-08 15:24:39.68	241.65	52.68	-36.3	-37.1	24.0	0.00e+00	0	32	0	899678208	44	6484
2026-01-08 15:24:40.69	241.28	52.38	-37.6	-38.5	23.0	0.00e+00	92	32	0	901775360	46	6828
2026-01-08 15:24:41.70	240.91	52.07	-38.0	-38.9	22.8	0.00e+00	0	32	0	902823936	48	6383
2026-01-08 15:24:42.71	240.55	51.77	-37.4	-38.3	23.3	0.00e+00	0	32	0	904921088	48	5924
2026-01-08 15:24:43.72	240.19	51.47	-37.9	-38.9	22.8	0.00e+00	0	32	0	907018240	48	6337
2026-01-08 15:24:44.73	239.85	51.17	-38.0	-39.0	22.8	0.00e+00	0	32	0	909115392	48	6406
2026-01-08 15:24:45.74	239.51	50.87	-38.3	-39.3	22.6	0.00e+00	90	32	0	911212544	48	6680
2026-01-08 15:24:46.75	239.17	50.57	-38.0	-39.0	22.8	0.00e+00	0	32	0	912261120	48	6412
2026-01-08 15:24:47.76	238.85	50.27	-38.0	-38.9	23.1	0.00e+00	90	32	0	914358272	48	6381
2026-01-08 15:24:48.77	238.53	49.97	-37.6	-38.5	23.3	0.00e+00	0	32	0	916455424	48	6066
2026-01-08 15:24:49.78	238.21	49.67	-36.7	-37.6	23.8	0.00e+00	0	32	0	918552576	48	5447
2026-01-08 15:24:50.79	237.90	49.38	-35.9	-36.7	24.6	0.00e+00	0	32	0	920649728	46	5509
2026-01-08 15:24:51.80	237.60	49.08	-35.2	-36.0	24.8	0.00e+00	0	32	0	921698304	44	5704
2026-01-08 15:24:52.81	237.31	48.79	-35.8	-36.6	24.6	0.00e+00	1	32	0	923795456	44	6127
2026-01-08 15:24:53.82	237.02	48.50	-36.8	-37.7	23.9	0.00e+00	0	32	0	925892608	46	6209
2026-01-08 15:24:54.83	236.73	48.21	-36.6	-37.4	24.0	0.00e+00	92	32	0	927989760	46	6007
2026-01-08 15:24:55.83	236.45	47.92	-36.5	-37.3	24.1	0.00e+00	0	32	0	930086912	46	5933
2026-01-08 15:24:56.84	236.18	47.63	-36.9	-37.8	23.6	0.00e+00	0	32	0	931135488	46	6315
2026-01-08 15:24:57.85	235.91	47.34	-38.5	-39.6	22.3	0.00e+00	0	32	0	933232640	48	6884
2026-01-08 15:24:58.86	235.65	47.06	-39.9	-41.2	20.8	0.00e+00	29	32	0	935329792	52	6611
2026-01-08 15:24:59.87	235.39	46.77	-40.2	-41.5	20.7	0.00e+00	4	32	0	937426944	52	6821
2026-01-08 15:25:00.88	235.13	46.49	-40.1	-41.4	21.0	0.00e+00	0	32	0	939524096	54	5968
2026-01-08 15:25:01.89	234.88	46.21	-39.0	-40.1	21.9	0.00e+00	90	32	0	941621248	52	5821
2026-01-08 15:25:02.90	234.63	45.93	-37.8	-38.7	23.0	0.00e+00	0	32	0	942669824	50	5552
2026-01-08 15:25:03.91	234.39	45.65	-37.8	-38.7	23.0	0.00e+00	41	32	0	944766976	48	6206
2026-01-08 15:25:04.92	234.16	45.37	-38.2	-39.1	22.7	0.00e+00	0	32	0	946864128	48	6539
2026-01-08 15:25:05.93	233.92	45.09	-38.6	-39.6	22.2	0.00e+00	0	32	0	948961280	50	6164
2026-01-08 15:25:06.93	233.70	44.82	-37.8	-38.7	23.0	0.00e+00	45	32	0	950009856	50	5554
2026-01-08 15:25:07.94	233.47	44.54	-37.1	-38.0	23.6	0.00e+00	0	32	0	952107008	48	5703
2026-01-08 15:25:08.95	233.25	44.27	-36.8	-37.7	22.9	0.00e+00	92	32	0	954204160	48	5543
2026-01-08 15:25:09.96	233.03	44.00	-37.3	-38.2	23.5	0.00e+00	0	32	0	956301312	46	6579
2026-01-08 15:25:10.97	232.82	43.73	-37.8	-38.8	23.1	0.00e+00	64	32	0	958398464	46	7048
2026-01-08 15:25:11.98	232.61	43.46	-37.3	-38.2	23.4	0.00e+00	0	32	0	959447040	48	5890
2026-01-08 15:25:12.99	232.40	43.19	-37.9	-38.9	23.1	0.00e+00	0	32	0	961544192	48	6340
2026-01-08 15:25:14.00	232.20	42.93	-38.7	-39.8	22.1	0.00e+00	21	32	0	963641344	50	6255
2026-01-08 15:25:15.01	232.00	42.66	-40.9	-42.4	20.0	0.00e+00	0	32	0	965738496	54	6698
2026-01-08 15:25:16.01	231.81	42.40	-41.2	-42.7	19.5	0.00e+00	1	32	0	967835648	54	6943
2026-01-08 15:25:17.02	231.61	42.14	-41.9	-43.6	18.8	0.00e+00	0	32	0	969932800	54	7694
2026-01-08 15:25:18.03	231.42	41.88	-41.8	-43.4	19.1	0.00e+00	66	32	0	970981376	56	6728
2026-01-08 15:25:19.04	231.24	41.62	-41.6	-43.0	19.5	0.00e+00	0	32	0	973078528	56	6464
2026-01-08 15:25:20.05	231.05	41.37	-39.6	-40.7	21.6	0.00e+00	0	32	0	975175680	52	6185
2026-01-08 15:25:21.06	230.87	41.11	-39.6	-40.7	21.4	0.00e+00	0	32	0	977272832	52	6178
2026-01-08 15:25:22.07	230.69	40.86	-38.9	-39.9	21.5	0.00e+00	0	32	0	979369984	52	5644
2026-01-08 15:25:23.08	230.52	40.60	-38.6	-39.6	22.3	0.00e+00	0	32	0	980418560	50	6143
2026-01-08 15:25:24.09	230.34	40.35	-38.5	-39.4	22.4	0.00e+00	0	32	0	982515712	50	6025
2026-01-08 15:25:25.10	230.17	40.10	-39.3	-40.4	21.8	0.00e+00	21	32	0	984612864	50	6700
2026-01-08 15:25:26.11	230.01	39.86	-39.1	-40.1	22.0	0.00e+00	0	32	0	986710016	50	6518
2026-01-08 15:25:27.12	229.84	39.61	-39.6	-40.7	21.7	0.00e+00	0	32	0	988807168	50	6960
2026-01-08 15:25:28.13	229.68	39.36	-39.8	-41.0	21.2	0.00e+00	0	32	0	989855744	52	6433
2026-01-08 15:25:29.14	229.52	39.12	-40.6	-42.0	20.1	0.00e+00	0	32	0	991952896	52	7192
2026-01-08 15:25:30.15	229.36	38.88	-41.3	-42.9	19.6	0.00e+00	63	32	0	994050048	54	7128
2026-01-08 15:25:31.15	229.21	38.64	-41.2	-42.7	19.5	0.00e+00	0	32	0	996147200	54	6936
2026-01-08 15:25:32.17	229.06	38.40	-41.1	-42.6	19.6	0.00e+00	61	32	0	998244352	54	6871
2026-01-08 15:25:33.18	228.91	38.16	-41.2	-42.6	19.6	0.00e+00	0	32	0	999292928	54	6922
2026-01-08 15:25:34.19	228.76	37.92	-40.3	-41.6	20.4	0.00e+00	49	32	0	1001390080	54	6123
2026-01-08 15:25:35.20	228.61	37.69	-40.7	-42.0	20.0	0.00e+00	0	32	0	1003487232	54	6445
2026-01-08 15:25:36.20	228.47	37.46	-42.1	-43.8	18.7	0.00e+00	0	32	0	1005584384	56	7008
2026-01-08 15:25:37.21	228.33	37.22	-41.6	-43.1	19.3	0.00e+00	0	32	0	1007681536	56	6505
2026-01-08 15:25:38.22	228.19	36.99	-41.6	-43.1	19.6	0.00e+00	0	32	0	1008730112	56	6491
2026-01-08 15:25:39.23	228.05	36.76	-40.1	-41.2	20.8	0.00e+00	92	32	0	1010827264	54	5875
2026-01-08 15:25:40.24	227.91	36.54	-39.5	-40.5	21.7	0.00e+00	0	32	0	1012924416	52	6094
2026-01-08 15:25:41.25	227.78	36.31	-38.1	-39.0	22.9	0.00e+00	19	32	0	1015021568	48	6449
2026-01-08 15:25:42.26	227.65	36.08	-37.9	-38.8	22.9	0.00e+00	0	32	0	1017118720	48	6311
2026-01-08 15:25:43.27	227.52	35.86	-37.9	-38.8	22.9	0.00e+00	32	32	0	1018167296	48	6295
2026-01-08 15:25:44.28	227.39	35.64	-37.7	-38.6	23.2	0.00e+00	0	32	0	1020264448	48	6139
2026-01-08 15:25:45.29	227.26	35.42	-37.5	-38.4	23.2	0.00e+00	0	32	0	1022361600	48	5976
2026-01-08 15:25:46.30	227.14	35.20	-37.9	-38.8	22.8	0.00e+00	90	32	0	1024458752	48	6307
2026-01-08 15:25:47.31	227.02	34.98	-37.8	-38.8	23.0	0.00e+00	0	32	0	1026555904	48	6281
2026-01-08 15:25:48.32	226.89	34.76	-38.7	-39.8	21.9	0.00e+00	92	32	0	1027604480	48	7036
2026-01-08 15:25:49.33	226.77	34.55	-40.0	-41.3	20.6	0.00e+00	0	32	0	1029701632	52	6636
2026-01-08 15:25:50.34	226.66	34.33	-40.8	-42.3	19.9	0.00e+00	0	32	0	1031798784	54	6632
2026-01-08 15:25:51.35	226.54	34.12	-41.5	-43.1	19.1	0.00e+00	2	32	0	1033895936	54	7294
2026-01-08 15:25:52.36	226.42	33.91	-40.5	-41.7	20.5	0.00e+00	0	32	0	1035993088	54	6240
2026-01-08 15:25:53.37	226.31	33.70	-40.1	-41.3	21.0	0.00e+00	91	32	0	1038090240	54	5904
2026-01-08 15:25:54.38	226.20	33.49	-39.1	-40.1	21.8	0.00e+00	0	32	0	1039138816	52	5820
2026-01-08 15:25:55.38	226.09	33.28	-39.2	-40.3	21.7	0.00e+00	92	32	0	1041235968	50	6632
2026-01-08 15:25:56.39	225.98	33.08	-39.2	-40.3	21.5	0.00e+00	0	32	0	1043333120	50	6643
2026-01-08 15:25:57.40	225.87	32.87	-39.7	-40.9	21.2	0.00e+00	0	32	0	1045430272	50	7119
2026-01-08 15:25:58.41	225.77	32.67	-39.5	-40.7	21.4	0.00e+00	0	32	0	1047527424	52	6188
2026-01-08 15:25:59.42	225.66	32.46	-39.3	-40.5	21.5	0.00e+00	0	32	0	1048576000	52	6073
2026-01-08 15:26:00.43	225.56	32.26	-39.7	-40.9	21.1	0.00e+00	92	32	0	1050673152	52	6379
2026-01-08 15:26:01.44	225.46	32.06	-39.4	-40.6	21.4	0.00e+00	0	32	0	1052770304	52	6157
2026-01-08 15:26:02.45	225.35	31.86	-39.5	-40.8	21.3	0.00e+00	92	32	0	1054867456	52	6247
2026-01-08 15:26:03.46	225.25	31.67	-39.9	-41.2	20.6	0.00e+00	0	32	0	1056964608	52	6598
2026-01-08 15:26:04.47	225.16	31.47	-40.1	-41.4	20.9	0.00e+00	0	32	0	1058013184	52	6766
2026-01-08 15:26:05.48	225.06	31.27	-39.6	-40.9	21.2	0.00e+00	0	32	0	1060110336	52	6340
2026-01-08 15:26:06.48	224.96	31.08	-39.4	-40.6	21.6	0.00e+00	0	32	0	1062207488	52	6111
2026-01-08 15:26:07.49	224.87	30.89	-38.9	-39.9	22.3	0.00e+00	81	32	0	1064304640	52	5683
2026-01-08 15:26:08.50	224.77	30.70	-39.1	-40.3	21.6	0.00e+00	0	32	0	1066401792	52	5909
2026-01-08 15:26:09.51	224.68	30.51	-39.2	-40.3	21.7	0.00e+00	86	32	0	1067450368	52	5898
2026-01-08 15:26:10.52	224.59	30.32	-39.6	-40.8	21.2	0.00e+00	0	32	0	1069547520	52	6260
2026-01-08 15:26:11.53	224.50	30.13	-40.4	-41.8	20.3	0.00e+00	0	32	0	1071644672	52	7023
2026-01-08 15:26:12.54	224.41	29.94	-41.5	-43.1	19.1	0.00e+00	0	32	0	1073741824	54	7335
2026-01-08 15:26:13.55	224.32	29.76	-42.4	-44.3	18.4	0.00e+00	0	32	0	1075838976	56	7427
2026-01-08 15:26:14.56	224.23	29.57	-42.3	-44.2	18.1	0.00e+00	41	32	0	1076887552	56	7415
2026-01-08 15:26:15.57	224.15	29.39	-42.5	-44.5	18.9	0.00e+00	0	32	0	1078984704	56	7608
2026-01-08 15:26:16.57	224.06	29.21	-41.4	-43.0	19.4	0.00e+00	80	32	0	1081081856	56	6462
2026-01-08 15:26:17.58	223.98	29.02	-41.0	-42.5	19.8	0.00e+00	0	32	0	1083179008	56	6058
2026-01-08 15:26:18.59	223.90	28.84	-40.8	-42.2	20.1	0.00e+00	38	32	0	1085276160	56	5870
2026-01-08 15:26:19.60	223.81	28.66	-40.9	-42.3	19.8	0.00e+00	0	32	0	1086324736	54	6692
2026-01-08 15:26:20.61	223.73	28.49	-41.1	-42.6	19.6	0.00e+00	0	32	0	1088421888	54	6916
2026-01-08 15:26:21.62	223.65	28.31	-40.7	-42.2	19.9	0.00e+00	0	32	0	1090519040	54	6580
2026-01-08 15:26:22.63	223.57	28.13	-40.9	-42.3	19.8	0.00e+00	0	32	0	1092616192	54	6688
2026-01-08 15:26:23.64	223.49	27.96	-41.4	-43.1	19.3	0.00e+00	3	32	0	1094713344	54	7279
2026-01-08 15:26:24.65	223.42	27.78	-40.9	-42.4	19.8	0.00e+00	0	32	0	1095761920	54	6744
2026-01-08 15:26:25.65	223.34	27.61	-40.7	-42.1	20.1	0.00e+00	87	32	0	1097859072	54	6511
2026-01-08 15:26:26.66	223.26	27.44	-40.3	-41.7	20.4	0.00e+00	0	32	0	1099956224	54	6178
2026-01-08 15:26:27.67	223.19	27.27	-40.5	-42.0	20.2	0.00e+00	0	32	0	1102053376	54	6413
2026-01-08 15:26:28.68	223.11	27.10	-40.0	-41.4	20.8	0.00e+00	0	32	0	1104150528	54	5994
2026-01-08 15:26:29.69	223.04	26.93	-39.5	-40.8	21.2	0.00e+00	0	32	0	1106247680	52	6283
2026-01-08 15:26:30.70	222.97	26.76	-39.8	-41.1	21.0	0.00e+00	91	32	0	1107296256	52	6494
2026-01-08 15:26:31.71	222.90	26.59	-39.3	-40.5	21.3	0.00e+00	0	32	0	1109393408	52	6096
2026-01-08 15:26:32.72	222.83	26.43	-39.3	-40.5	21.3	0.00e+00	52	32	0	1111490560	52	6096
2026-01-08 15:26:33.73	222.75	26.26	-39.2	-40.5	21.4	0.00e+00	0	32	0	1113587712	52	6076
2026-01-08 15:26:34.74	222.69	26.10	-39.5	-40.8	21.2	0.00e+00	0	32	0	1114636288	52	6296
2026-01-08 15:26:35.75	222.62	25.94	-39.5	-40.9	21.1	0.00e+00	0	32	0	1116733440	52	6352
2026-01-08 15:26:36.76	222.55	25.77	-39.4	-40.7	21.1	0.00e+00	0	32	0	1118830592	52	6208
2026-01-08 15:26:37.76	222.48	25.61	-39.8	-41.2	20.8	0.00e+00	73	32	0	1120927744	52	6586
2026-01-08 15:26:38.77	222.41	25.45	-40.2	-41.7	20.2	0.00e+00	0	32	0	1123024896	52	6946
2026-01-08 15:26:39.78	222.35	25.29	-40.6	-42.2	19.8	0.00e+00	88	32	0	1124073472	52	7366
2026-01-08 15:26:40.79	222.28	25.14	-40.9	-42.6	19.6	0.00e+00	0	32	0	1126170624	54	6887
2026-01-08 15:26:41.80	222.22	24.98	-41.2	-43.0	19.3	0.00e+00	0	32	0	1128267776	54	7230
2026-01-08 15:26:42.81	222.15	24.82	-40.7	-42.4	19.6	0.00e+00	0	32	0	1130364928	54	6702
2026-01-08 15:26:43.81	222.09	24.67	-41.0	-42.7	20.0	0.00e+00	0	32	0	1132462080	54	6941
2026-01-08 15:26:44.82	222.03	24.51	-40.6	-42.2	20.1	0.00e+00	65	32	0	1134559232	54	6604
2026-01-08 15:26:45.83	221.97	24.36	-40.0	-41.5	20.6	0.00e+00	0	32	0	1135607808	54	6060
2026-01-08 15:26:46.84	221.91	24.20	-39.4	-40.7	21.2	0.00e+00	88	32	0	1137704960	52	6230
2026-01-08 15:26:47.85	221.85	24.05	-39.1	-40.3	21.7	0.00e+00	0	32	0	1139802112	52	5900
2026-01-08 15:26:48.86	221.79	23.90	-38.7	-39.9	21.9	0.00e+00	92	32	0	1141899264	50	6335
2026-01-08 15:26:49.87	221.73	23.75	-39.0	-40.2	21.7	0.00e+00	0	32	0	1143996416	50	6601
2026-01-08 15:26:50.88	221.67	23.60	-38.8	-40.0	21.9	0.00e+00	0	32	0	1145044992	50	6413
2026-01-08 15:26:51.89	221.61	23.45	-39.0	-40.2	21.6	0.00e+00	0	32	0	1147142144	50	6562
2026-01-08 15:26:52.89	221.55	23.30	-39.2	-40.4	21.6	0.00e+00	1	32	0	1149239296	50	6767
2026-01-08 15:26:53.90	221.49	23.16	-39.2	-40.4	21.4	0.00e+00	23	32	0	1151336448	50	6743
2026-01-08 15:26:54.92	221.44	23.01	-39.2	-40.4	21.5	0.00e+00	0	32	0	1153433600	50	6747
2026-01-08 15:26:55.92	221.38	22.86	-39.5	-40.8	21.1	0.00e+00	92	32	0	1154482176	50	7012
2026-01-08 15:26:56.93	221.33	22.72	-39.3	-40.5	21.4	0.00e+00	0	32	0	1156579328	50	6819
2026-01-08 15:26:57.94	221.27	22.57	-39.2	-40.4	21.5	0.00e+00	0	32	0	1158676480	50	6721
2026-01-08 15:26:58.95	221.22	22.43	-39.0	-40.2	21.5	0.00e+00	0	32	0	1160773632	50	6591
2026-01-08 15:26:59.96	221.16	22.29	-38.9	-40.1	21.8	0.00e+00	0	32	0	1162870784	50	6480
2026-01-08 15:27:00.97	221.11	22.15	-39.0	-40.2	21.9	0.00e+00	13	32	0	1163919360	50	6549
2026-01-08 15:27:01.98	221.06	22.01	-38.6	-39.7	22.2	0.00e+00	0	32	0	1166016512	50	6209
2026-01-08 15:27:02.99	221.00	21.86	-38.3	-39.4	22.3	0.00e+00	92	32	0	1168113664	50	5979
2026-01-08 15:27:04.00	220.95	21.73	-38.4	-39.5	22.2	0.00e+00	0	32	0	1170210816	50	6052
2026-01-08 15:27:05.01	220.90	21.59	-38.2	-39.2	22.5	0.00e+00	0	32	0	1172307968	50	5879
2026-01-08 15:27:06.01	220.85	21.45	-38.3	-39.3	22.4	0.00e+00	0	32	0	1173356544	50	5964
2026-01-08 15:27:07.03	220.80	21.31	-38.4	-39.5	22.2	0.00e+00	0	32	0	1175453696	50	6091
2026-01-08 15:27:08.03	220.75	21.18	-38.6	-39.7	22.1	0.00e+00	0	32	0	1177550848	50	6177
2026-01-08 15:27:09.04	220.70	21.04	-38.7	-39.9	22.0	0.00e+00	0	32	0	1179648000	50	6325
2026-01-08 15:27:10.05	220.65	20.90	-38.8	-39.9	21.8	0.00e+00	92	32	0	1181745152	50	6371
2026-01-08 15:27:11.06	220.60	20.77	-39.2	-40.3	21.5	0.00e+00	0	32	0	1182793728	50	6673
2026-01-08 15:27:12.07	220.55	20.63	-39.1	-40.3	21.7	0.00e+00	0	32	0	1184890880	50	6621
2026-01-08 15:27:13.08	220.51	20.50	-39.5	-40.7	21.1	0.00e+00	0	32	0	1186988032	50	6977
2026-01-08 15:27:14.09	220.46	20.37	-39.8	-41.0	20.9	0.00e+00	0	32	0	1189085184	50	7234
2026-01-08 15:27:15.10	220.41	20.24	-39.7	-41.0	21.0	0.00e+00	55	32	0	1191182336	52	6392
2026-01-08 15:27:16.11	220.37	20.11	-39.6	-40.8	21.3	0.00e+00	0	32	0	1192230912	52	6298
2026-01-08 15:27:17.12	220.32	19.98	-39.2	-40.3	21.5	0.00e+00	58	32	0	1194328064	52	5941
2026-01-08 15:27:18.13	220.27	19.85	-39.6	-40.8	21.3	0.00e+00	0	32	0	1196425216	52	6270
2026-01-08 15:27:19.14	220.23	19.72	-38.9	-40.0	21.9	0.00e+00	11	32	0	1198522368	52	5702
2026-01-08 15:27:20.15	220.18	19.59	-38.9	-40.0	21.9	0.00e+00	0	32	0	1200619520	50	6419
2026-01-08 15:27:21.15	220.14	19.46	-38.8	-39.9	21.9	0.00e+00	0	32	0	1202716672	50	6350
2026-01-08 15:27:22.17	220.10	19.33	-38.8	-39.8	21.9	0.00e+00	0	32	0	1203765248	50	6305
2026-01-08 15:27:23.18	220.05	19.21	-38.8	-39.8	21.7	0.00e+00	0	32	0	1205862400	50	6313
2026-01-08 15:27:24.19	220.01	19.08	-39.2	-40.4	21.6	0.00e+00	92	32	0	1207959552	50	6714
2026-01-08 15:27:25.20	219.97	18.95	-39.2	-40.3	21.6	0.00e+00	0	32	0	1210056704	50	6685
