passes_logs/2026/01/08/R4.6S_Anadyr/R4.6S_Anadyr__20260108_221123_TY-42_rec.log

#Pass ID: 20260108_221123_TY-42
#Satellite: TY-42
#Configuration: TY-42_900M
#almurnet v.1.7.20251203
#Start time: 2026-01-08 22:11:55

#Version: 2.2.20231116
#Station: R4.6S_Anadyr
#Location: 177.4865 lon 64.73178 lat
#TLE: 1 64048U 25103A   26008.20953704  .00008011  00000-0  38191-3 0 09994
#TLE: 2 64048 097.4112 083.7544 0001714 091.7459 055.1126 15.19173368 35784

#Time	Az	El	Level	Level2	SNR	BER	BlckErr	Temp	State	Recorded	gain1	gain2
2026-01-08 22:11:55.11	23.21	1.88	-48.1	-63.0	3.5	1.51e+00	0	31	0	0	60	51108
2026-01-08 22:11:56.11	23.29	1.95	-46.7	-49.2	6.1	0.00e+00	0	33	104	0	60	35301
2026-01-08 22:11:57.12	23.38	2.01	-46.7	-49.2	6.1	0.00e+00	0	33	104	0	60	35412
2026-01-08 22:11:58.13	23.46	2.07	-46.7	-49.2	6.0	0.00e+00	0	33	104	0	60	35475
2026-01-08 22:11:59.14	23.54	2.13	-46.7	-49.2	6.1	0.00e+00	0	33	104	0	60	35404
2026-01-08 22:12:00.15	23.62	2.20	-46.7	-49.1	6.1	0.00e+00	0	33	104	0	60	35072
2026-01-08 22:12:01.16	23.70	2.26	-46.7	-49.1	6.1	0.00e+00	0	33	104	0	60	34921
2026-01-08 22:12:02.17	23.79	2.32	-46.6	-49.1	6.1	0.00e+00	0	33	104	0	60	35094
2026-01-08 22:12:03.18	23.87	2.39	-46.6	-49.1	6.1	0.00e+00	0	33	104	0	60	34785
2026-01-08 22:12:04.19	23.95	2.45	-46.6	-49.1	6.1	0.00e+00	0	33	104	0	60	35046
2026-01-08 22:12:05.20	24.04	2.52	-46.6	-49.1	6.1	0.00e+00	0	33	104	0	60	35052
2026-01-08 22:12:06.21	24.12	2.58	-46.7	-49.1	6.1	0.00e+00	0	34	104	0	60	35040
2026-01-08 22:12:07.22	24.21	2.64	-46.7	-49.2	6.1	0.00e+00	0	34	104	0	60	35327
2026-01-08 22:12:08.23	24.29	2.71	-46.7	-49.2	6.1	0.00e+00	0	34	104	0	60	35238
2026-01-08 22:12:09.24	24.38	2.77	-46.7	-49.2	6.1	0.00e+00	0	34	104	0	60	35365
2026-01-08 22:12:10.24	24.47	2.84	-46.7	-49.2	6.1	0.00e+00	0	34	104	0	60	35249
2026-01-08 22:12:11.25	24.55	2.90	-46.7	-49.2	6.1	0.00e+00	0	34	104	0	60	35172
2026-01-08 22:12:12.26	24.64	2.97	-46.7	-49.1	6.1	0.00e+00	0	34	104	0	60	35077
2026-01-08 22:12:13.27	24.73	3.03	-46.7	-49.2	6.1	0.00e+00	0	34	104	0	60	35137
2026-01-08 22:12:14.28	24.82	3.10	-46.7	-49.2	6.1	0.00e+00	0	34	104	0	60	35240
2026-01-08 22:12:15.29	24.91	3.16	-46.7	-49.2	6.1	0.00e+00	0	34	104	0	60	35212
2026-01-08 22:12:16.30	25.00	3.23	-46.7	-49.1	6.1	0.00e+00	0	34	104	0	60	35082
2026-01-08 22:12:17.31	25.09	3.30	-46.7	-49.2	6.1	0.00e+00	0	34	104	0	60	35191
2026-01-08 22:12:18.32	25.18	3.36	-46.7	-49.1	6.1	0.00e+00	0	34	104	0	60	35090
2026-01-08 22:12:19.33	25.27	3.43	-46.7	-49.1	6.1	0.00e+00	0	34	104	0	60	34911
2026-01-08 22:12:20.34	25.36	3.49	-46.7	-49.1	6.1	0.00e+00	0	34	104	0	60	34991
2026-01-08 22:12:21.35	25.45	3.56	-28.3	-28.6	13.0	0.00e+00	1730	34	104	0	30	18556
2026-01-08 22:12:22.36	25.54	3.63	-30.8	-31.1	14.0	0.00e+00	0	34	0	58720256	34	19743
2026-01-08 22:12:23.37	25.64	3.69	-29.5	-29.9	15.2	4.12e-02	0	34	0	176160768	38	13542
2026-01-08 22:12:24.38	25.73	3.76	-32.2	-32.4	11.8	0.00e+00	3234	34	104	209715200	52	8108
2026-01-08 22:12:25.39	25.82	3.83	-42.5	-43.5	9.1	0.00e+00	0	34	104	209715200	60	18313
2026-01-08 22:12:26.39	25.92	3.89	-35.6	-35.8	11.9	5.22e-02	2602	34	0	218103808	50	13402
2026-01-08 22:12:27.41	26.01	3.96	-31.1	-31.5	13.9	5.22e-02	0	35	0	327155712	38	16332
2026-01-08 22:12:28.42	26.11	4.03	-46.1	-48.3	6.1	7.30e-02	0	34	104	352321536	60	31743
2026-01-08 22:12:29.43	26.20	4.10	-31.2	-31.4	14.0	3.11e-02	0	34	0	360710144	38	16154
2026-01-08 22:12:30.43	26.30	4.17	-31.4	-31.8	13.6	3.11e-02	0	35	0	469762048	38	16813
2026-01-08 22:12:31.45	26.40	4.23	-32.0	-32.4	13.5	4.59e-02	0	35	0	578813952	38	18033
2026-01-08 22:12:32.46	26.49	4.30	-29.9	-30.3	14.8	4.59e-02	0	35	0	696254464	36	15917
2026-01-08 22:12:33.47	26.59	4.37	-28.1	-28.5	15.4	4.59e-02	0	35	0	813694976	32	16265
2026-01-08 22:12:34.48	26.69	4.44	-27.5	-27.9	15.7	1.56e-02	0	35	0	922746880	30	17057
2026-01-08 22:12:35.48	26.79	4.51	-27.0	-27.4	15.9	1.56e-02	0	35	0	1040187392	30	16075
2026-01-08 22:12:36.49	26.89	4.58	-26.4	-26.8	16.1	1.56e-02	0	35	0	1149239296	28	16893
2026-01-08 22:12:37.50	26.99	4.65	-26.1	-26.5	16.1	6.81e-04	0	35	0	1258291200	28	16304
2026-01-08 22:12:38.51	27.09	4.72	-26.2	-26.6	16.2	6.81e-04	0	35	0	1375731712	28	16587
2026-01-08 22:12:39.52	27.19	4.79	-26.0	-26.3	16.3	1.47e-04	0	35	0	1493172224	28	16051
2026-01-08 22:12:40.53	27.30	4.86	-26.0	-26.4	16.3	1.47e-04	0	35	0	1602224128	28	16237
2026-01-08 22:12:41.54	27.40	4.93	-26.1	-26.5	16.3	1.47e-04	0	35	0	1719664640	28	16403
2026-01-08 22:12:42.55	27.50	5.00	-26.1	-26.5	16.3	2.12e-04	0	35	0	1828716544	28	16377
2026-01-08 22:12:43.56	27.61	5.07	-26.1	-26.5	16.2	2.12e-04	0	35	0	1946157056	28	16342
2026-01-08 22:12:44.57	27.71	5.14	-26.1	-26.5	16.2	2.56e-04	0	35	0	2063597568	28	16371
2026-01-08 22:12:45.58	27.81	5.21	-25.8	-26.2	16.3	2.56e-04	0	35	0	2172649472	28	15779
2026-01-08 22:12:46.59	27.92	5.28	-26.0	-26.4	16.3	1.69e-04	0	35	0	2290089984	28	16077
2026-01-08 22:12:47.60	28.03	5.35	-25.8	-26.2	16.3	1.69e-04	0	35	0	2399141888	26	17637
2026-01-08 22:12:48.60	28.13	5.42	-25.7	-26.1	16.3	2.07e-04	0	35	0	2508193792	26	17569
2026-01-08 22:12:49.61	28.24	5.49	-25.9	-26.3	16.3	2.07e-04	0	35	0	2625634304	26	17826
2026-01-08 22:12:50.62	28.35	5.56	-25.8	-26.2	16.3	1.52e-04	0	35	0	2743074816	26	17764
2026-01-08 22:12:51.64	28.46	5.64	-25.8	-26.2	16.4	1.52e-04	0	35	0	2852126720	26	17702
2026-01-08 22:12:52.65	28.57	5.71	-25.9	-26.3	16.4	1.52e-04	0	35	0	2969567232	26	18007
2026-01-08 22:12:53.65	28.68	5.78	-25.9	-26.3	16.4	1.74e-04	0	35	0	3078619136	26	17881
2026-01-08 22:12:54.67	28.79	5.85	-25.9	-26.3	16.4	1.74e-04	0	35	0	3196059648	26	17897
2026-01-08 22:12:55.67	28.90	5.92	-25.9	-26.3	16.4	2.07e-04	0	35	0	3313500160	26	17889
2026-01-08 22:12:56.68	29.01	6.00	-26.0	-26.4	16.3	2.07e-04	0	35	0	3422552064	26	18181
2026-01-08 22:12:57.69	29.13	6.07	-25.9	-26.3	16.3	1.91e-04	0	35	0	3531603968	26	18008
2026-01-08 22:12:58.70	29.24	6.14	-26.0	-26.4	16.3	1.91e-04	0	35	0	3649044480	26	18140
2026-01-08 22:12:59.71	29.35	6.22	-25.8	-26.2	16.4	1.96e-04	0	35	0	3758096384	26	17803
2026-01-08 22:13:00.72	29.47	6.29	-26.0	-26.4	16.3	1.96e-04	0	35	0	3875536896	26	18205
2026-01-08 22:13:01.73	29.58	6.36	-25.9	-26.3	16.3	1.42e-04	0	35	0	3992977408	26	17995
2026-01-08 22:13:02.74	29.70	6.44	-26.0	-26.4	16.4	1.42e-04	0	36	0	4102029312	26	18218
2026-01-08 22:13:03.75	29.82	6.51	-25.8	-26.3	16.4	1.42e-04	0	35	0	4219469824	26	17808
2026-01-08 22:13:04.76	29.93	6.59	-25.8	-26.3	16.4	2.29e-04	0	36	0	4328521728	26	17834
2026-01-08 22:13:05.77	30.05	6.66	-25.9	-26.3	16.4	2.29e-04	0	36	0	4437573632	26	17881
2026-01-08 22:13:06.77	30.17	6.73	-25.7	-26.1	16.4	1.31e-04	0	36	0	4555014144	26	17580
2026-01-08 22:13:07.78	30.29	6.81	-25.8	-26.2	16.3	1.31e-04	0	36	0	4672454656	26	17739
2026-01-08 22:13:08.80	30.41	6.89	-25.7	-26.1	16.3	1.69e-04	0	36	0	4781506560	26	17516
2026-01-08 22:13:09.80	30.53	6.96	-25.7	-26.1	16.3	1.69e-04	0	36	0	4898947072	26	17588
2026-01-08 22:13:10.81	30.66	7.04	-25.7	-26.1	16.4	1.63e-04	0	36	0	5007998976	26	17514
2026-01-08 22:13:11.82	30.78	7.11	-25.7	-26.1	16.4	1.63e-04	0	36	0	5125439488	26	17519
2026-01-08 22:13:12.83	30.90	7.19	-25.5	-25.9	16.5	1.47e-04	0	36	0	5242880000	26	17120
2026-01-08 22:13:13.84	31.03	7.26	-25.7	-26.1	16.5	1.47e-04	0	36	0	5351931904	26	17563
2026-01-08 22:13:14.85	31.15	7.34	-25.6	-26.1	16.5	1.47e-04	0	36	0	5460983808	26	17447
2026-01-08 22:13:15.86	31.28	7.42	-25.4	-25.8	16.5	1.47e-04	0	36	0	5578424320	26	16867
2026-01-08 22:13:16.87	31.41	7.49	-25.4	-25.8	16.6	1.47e-04	0	36	0	5695864832	26	16998
2026-01-08 22:13:17.88	31.53	7.57	-25.4	-25.8	16.5	5.44e-05	0	36	0	5804916736	26	16935
2026-01-08 22:13:18.89	31.66	7.65	-25.4	-25.8	16.5	5.44e-05	0	36	0	5922357248	26	16885
2026-01-08 22:13:19.90	31.79	7.72	-25.4	-25.8	16.5	6.53e-05	0	36	0	6031409152	26	16871
2026-01-08 22:13:20.91	31.92	7.80	-25.1	-25.6	16.6	6.53e-05	0	36	0	6148849664	26	16458
2026-01-08 22:13:21.92	32.05	7.88	-25.3	-25.7	16.6	5.99e-05	0	36	0	6266290176	26	16708
2026-01-08 22:13:22.93	32.18	7.96	-25.3	-25.8	16.5	5.99e-05	0	36	0	6375342080	26	16871
2026-01-08 22:13:23.94	32.32	8.04	-25.2	-25.6	16.6	4.90e-05	0	36	0	6484393984	26	16519
2026-01-08 22:13:24.95	32.45	8.11	-25.2	-25.6	16.6	4.90e-05	0	36	0	6601834496	26	16602
2026-01-08 22:13:25.96	32.58	8.19	-25.3	-25.8	16.6	4.90e-05	0	36	0	6710886400	26	16824
2026-01-08 22:13:26.96	32.72	8.27	-25.2	-25.6	16.6	4.35e-05	0	36	0	6828326912	26	16616
2026-01-08 22:13:27.97	32.85	8.35	-25.3	-25.7	16.6	4.35e-05	0	36	0	6945767424	26	16704
2026-01-08 22:13:28.99	32.99	8.43	-25.2	-25.6	16.7	4.35e-05	0	36	0	7054819328	26	16518
2026-01-08 22:13:29.99	33.13	8.51	-24.8	-25.3	16.7	4.35e-05	0	36	0	7172259840	26	15910
2026-01-08 22:13:31.00	33.27	8.59	-24.9	-25.4	16.7	1.63e-05	0	36	0	7281311744	26	16054
2026-01-08 22:13:32.01	33.41	8.67	-24.9	-25.3	16.7	1.63e-05	0	36	0	7390363648	26	16008
2026-01-08 22:13:33.02	33.55	8.75	-24.9	-25.4	16.7	2.17e-05	0	36	0	7507804160	26	16086
2026-01-08 22:13:34.03	33.69	8.83	-24.8	-25.2	16.5	2.17e-05	0	36	0	7625244672	24	17789
2026-01-08 22:13:35.04	33.83	8.91	-24.8	-25.2	16.3	2.17e-05	0	36	0	7734296576	24	17759
2026-01-08 22:13:36.05	33.98	8.99	-24.8	-25.3	16.3	8.17e-05	0	36	0	7851737088	24	17832
2026-01-08 22:13:37.05	34.12	9.07	-24.7	-25.2	16.2	8.17e-05	0	36	0	7960788992	24	17691
2026-01-08 22:13:38.06	34.26	9.15	-24.8	-25.3	16.2	1.14e-04	0	36	0	8078229504	24	17829
2026-01-08 22:13:39.07	34.41	9.23	-24.6	-25.1	16.2	1.14e-04	0	36	0	8195670016	24	17435
2026-01-08 22:13:40.08	34.56	9.32	-24.7	-25.1	16.3	1.14e-04	0	36	0	8304721920	24	17588
2026-01-08 22:13:41.08	34.71	9.40	-24.7	-25.1	16.5	1.96e-04	0	36	0	8413773824	24	17565
2026-01-08 22:13:42.09	34.85	9.48	-24.8	-25.2	16.5	1.96e-04	0	36	0	8531214336	24	17677
2026-01-08 22:13:43.10	35.00	9.56	-24.9	-25.4	16.5	5.44e-05	0	36	0	8640266240	24	18040
2026-01-08 22:13:44.11	35.16	9.64	-24.7	-25.2	16.7	5.44e-05	0	36	0	8757706752	24	17645
2026-01-08 22:13:45.12	35.31	9.73	-24.5	-25.0	16.8	2.17e-05	0	36	0	8875147264	24	17248
2026-01-08 22:13:46.13	35.46	9.81	-24.5	-24.9	16.8	2.17e-05	0	36	0	8984199168	24	17159
2026-01-08 22:13:47.14	35.62	9.89	-24.5	-25.0	16.8	2.17e-05	0	36	0	9101639680	24	17255
2026-01-08 22:13:48.15	35.77	9.98	-24.4	-24.9	16.8	2.17e-05	0	36	0	9210691584	24	17047
2026-01-08 22:13:49.16	35.93	10.06	-24.5	-24.9	16.8	2.17e-05	0	36	0	9319743488	24	17150
2026-01-08 22:13:50.17	36.09	10.14	-24.6	-25.0	16.7	2.17e-05	0	36	0	9437184000	24	17326
2026-01-08 22:13:51.18	36.24	10.23	-24.7	-25.2	16.7	2.17e-05	0	36	0	9554624512	24	17610
2026-01-08 22:13:52.19	36.40	10.31	-24.6	-25.0	16.8	2.17e-05	0	36	0	9663676416	24	17381
2026-01-08 22:13:53.20	36.56	10.40	-24.4	-24.9	16.8	2.72e-05	0	36	0	9781116928	24	17090
2026-01-08 22:13:54.20	36.73	10.48	-24.2	-24.7	16.9	2.72e-05	0	36	0	9890168832	24	16623
2026-01-08 22:13:55.21	36.89	10.57	-24.1	-24.6	16.9	0.00e+00	0	36	0	10007609344	24	16541
2026-01-08 22:13:56.22	37.05	10.65	-24.4	-24.8	16.8	0.00e+00	0	36	0	10125049856	24	16978
2026-01-08 22:13:57.23	37.22	10.74	-24.1	-24.6	16.8	2.17e-05	0	36	0	10234101760	24	16459
2026-01-08 22:13:58.24	37.38	10.82	-24.1	-24.5	16.8	2.17e-05	0	36	0	10343153664	24	16390
2026-01-08 22:13:59.25	37.55	10.91	-23.9	-24.3	16.9	5.40e-06	0	36	0	10460594176	24	16027
2026-01-08 22:14:00.26	37.72	10.99	-23.8	-24.3	17.0	5.40e-06	0	36	0	10569646080	24	15909
2026-01-08 22:14:01.27	37.89	11.08	-23.8	-24.3	17.0	5.40e-06	0	36	0	10687086592	24	15880
2026-01-08 22:14:02.28	38.06	11.17	-23.8	-24.3	17.0	5.40e-06	0	36	0	10804527104	22	17913
2026-01-08 22:14:03.29	38.23	11.25	-23.6	-24.1	17.0	5.40e-06	0	36	0	10913579008	22	17509
2026-01-08 22:14:04.30	38.41	11.34	-23.8	-24.2	17.0	0.00e+00	0	36	0	11031019520	22	17734
2026-01-08 22:14:05.30	38.58	11.42	-23.6	-24.1	17.0	0.00e+00	0	36	0	11140071424	22	17499
2026-01-08 22:14:06.31	38.76	11.51	-23.9	-24.3	17.0	0.00e+00	0	36	0	11249123328	22	17932
2026-01-08 22:14:07.32	38.93	11.60	-23.5	-24.0	17.0	0.00e+00	0	36	0	11374952448	22	17280
2026-01-08 22:14:08.33	39.11	11.69	-23.5	-23.9	17.1	5.40e-06	0	36	0	11484004352	22	17163
2026-01-08 22:14:09.33	39.29	11.77	-23.3	-23.7	17.1	5.40e-06	0	37	0	11593056256	22	16735
2026-01-08 22:14:10.34	39.47	11.86	-23.3	-23.8	17.1	0.00e+00	0	36	0	11710496768	22	16943
2026-01-08 22:14:11.35	39.65	11.95	-23.2	-23.7	17.0	0.00e+00	0	36	0	11819548672	22	16719
2026-01-08 22:14:12.36	39.84	12.04	-23.3	-23.8	17.0	0.00e+00	0	37	0	11936989184	22	16855
2026-01-08 22:14:13.36	40.02	12.13	-23.1	-23.6	16.9	0.00e+00	0	37	0	12046041088	22	16555
2026-01-08 22:14:14.37	40.20	12.21	-23.1	-23.6	16.7	0.00e+00	0	37	0	12163481600	22	16442
2026-01-08 22:14:15.38	40.39	12.30	-23.1	-23.6	16.7	0.00e+00	0	36	0	12272533504	22	16516
2026-01-08 22:14:16.39	40.58	12.39	-23.1	-23.6	16.7	5.40e-06	0	36	0	12389974016	22	16510
2026-01-08 22:14:17.40	40.77	12.48	-23.1	-23.6	16.8	5.40e-06	0	36	0	12499025920	22	16544
2026-01-08 22:14:18.41	40.96	12.57	-23.1	-23.5	17.0	5.40e-06	0	37	0	12616466432	22	16396
2026-01-08 22:14:19.42	41.16	12.66	-23.1	-23.6	17.1	0.00e+00	0	37	0	12733906944	22	16524
2026-01-08 22:14:20.43	41.35	12.75	-22.9	-23.4	17.2	0.00e+00	0	37	0	12842958848	22	16114
2026-01-08 22:14:21.44	41.54	12.84	-22.8	-23.3	17.2	0.00e+00	0	37	0	12960399360	22	15951
2026-01-08 22:14:22.45	41.74	12.93	-22.9	-23.3	17.1	0.00e+00	0	37	0	13069451264	22	15984
2026-01-08 22:14:23.46	41.94	13.02	-22.9	-23.4	17.1	0.00e+00	0	37	0	13178503168	22	16066
2026-01-08 22:14:24.47	42.14	13.11	-22.8	-23.3	17.1	5.40e-06	0	36	0	13295943680	22	15952
2026-01-08 22:14:25.47	42.34	13.20	-22.9	-23.4	17.2	5.40e-06	0	37	0	13413384192	22	16149
2026-01-08 22:14:26.48	42.54	13.29	-22.9	-23.4	17.2	5.40e-06	0	36	0	13522436096	22	16068
2026-01-08 22:14:27.49	42.75	13.38	-23.0	-23.5	17.2	0.00e+00	0	37	0	13639876608	22	16252
2026-01-08 22:14:28.50	42.95	13.47	-22.6	-23.1	17.2	0.00e+00	0	37	0	13748928512	20	17544
2026-01-08 22:14:29.51	43.16	13.57	-22.5	-23.0	17.3	0.00e+00	0	37	0	13866369024	20	17325
2026-01-08 22:14:30.52	43.37	13.66	-22.4	-22.9	17.3	0.00e+00	0	37	0	13983809536	20	17019
2026-01-08 22:14:31.53	43.58	13.75	-22.4	-22.9	17.3	0.00e+00	0	37	0	14092861440	20	17083
2026-01-08 22:14:32.54	43.79	13.84	-22.5	-23.0	17.2	0.00e+00	0	37	0	14201913344	20	17217
2026-01-08 22:14:33.55	44.00	13.93	-22.4	-22.9	17.1	0.00e+00	0	37	0	14319353856	20	17055
2026-01-08 22:14:34.56	44.22	14.02	-22.2	-22.7	17.2	0.00e+00	0	37	0	14428405760	20	16664
2026-01-08 22:14:35.57	44.43	14.12	-22.4	-22.9	17.2	0.00e+00	0	37	0	14545846272	20	17075
2026-01-08 22:14:36.58	44.65	14.21	-22.2	-22.7	17.2	0.00e+00	0	37	0	14663286784	20	16677
2026-01-08 22:14:37.59	44.87	14.30	-22.2	-22.7	17.2	0.00e+00	0	37	0	14772338688	20	16685
2026-01-08 22:14:38.60	45.09	14.39	-22.2	-22.7	17.2	0.00e+00	0	37	0	14889779200	20	16636
2026-01-08 22:14:39.61	45.31	14.49	-22.0	-22.5	17.3	0.00e+00	0	37	0	14998831104	20	16279
2026-01-08 22:14:40.62	45.54	14.58	-22.1	-22.6	17.3	0.00e+00	0	37	0	15116271616	20	16476
2026-01-08 22:14:41.63	45.76	14.67	-22.1	-22.6	17.3	0.00e+00	0	37	0	15233712128	20	16556
2026-01-08 22:14:42.64	45.99	14.76	-22.0	-22.5	17.3	0.00e+00	0	37	0	15342764032	20	16246
2026-01-08 22:14:43.65	46.22	14.86	-22.1	-22.6	17.2	0.00e+00	0	37	0	15451815936	20	16468
2026-01-08 22:14:44.66	46.45	14.95	-21.9	-22.4	17.3	0.00e+00	0	37	0	15569256448	20	16117
2026-01-08 22:14:45.67	46.68	15.04	-21.9	-22.4	17.3	0.00e+00	0	37	0	15686696960	20	16118
2026-01-08 22:14:46.68	46.92	15.14	-21.9	-22.4	17.3	0.00e+00	0	37	0	15795748864	20	16137
2026-01-08 22:14:47.69	47.15	15.23	-22.1	-22.6	17.3	0.00e+00	0	37	0	15913189376	20	16453
2026-01-08 22:14:48.70	47.39	15.32	-21.8	-22.3	17.3	0.00e+00	0	37	0	16022241280	20	15937
2026-01-08 22:14:49.70	47.63	15.42	-22.0	-22.5	17.2	0.00e+00	0	37	0	16131293184	20	16315
2026-01-08 22:14:50.71	47.87	15.51	-22.0	-22.5	17.3	0.00e+00	0	37	0	16248733696	20	16276
2026-01-08 22:14:51.72	48.11	15.60	-21.6	-22.1	17.4	0.00e+00	0	37	0	16366174208	18	17542
2026-01-08 22:14:52.73	48.36	15.70	-21.6	-22.1	17.4	0.00e+00	0	37	0	16475226112	18	17461
2026-01-08 22:14:53.74	48.60	15.79	-21.6	-22.1	17.4	0.00e+00	0	37	0	16592666624	18	17535
2026-01-08 22:14:54.75	48.85	15.88	-21.6	-22.1	17.4	0.00e+00	0	37	0	16701718528	18	17408
2026-01-08 22:14:55.76	49.10	15.98	-21.4	-21.9	17.4	0.00e+00	0	37	0	16819159040	18	17043
2026-01-08 22:14:56.77	49.35	16.07	-21.5	-22.0	17.4	0.00e+00	0	37	0	16936599552	18	17220
2026-01-08 22:14:57.78	49.61	16.16	-21.3	-21.8	17.4	0.00e+00	0	37	0	17045651456	18	16859
2026-01-08 22:14:58.79	49.86	16.26	-21.4	-21.9	17.4	0.00e+00	0	37	0	17163091968	18	17040
2026-01-08 22:14:59.80	50.12	16.35	-21.4	-21.9	17.4	0.00e+00	0	37	0	17272143872	18	17074
2026-01-08 22:15:00.80	50.37	16.44	-21.2	-21.7	17.4	0.00e+00	0	37	0	17381195776	18	16776
2026-01-08 22:15:01.81	50.64	16.54	-21.3	-21.8	17.4	0.00e+00	0	37	0	17498636288	18	16854
2026-01-08 22:15:02.82	50.90	16.63	-21.3	-21.8	17.4	0.00e+00	0	37	0	17616076800	18	16892
2026-01-08 22:15:03.83	51.16	16.72	-21.2	-21.6	17.4	0.00e+00	0	37	0	17725128704	18	16594
2026-01-08 22:15:04.84	51.43	16.82	-21.4	-21.9	17.4	5.40e-06	0	37	0	17842569216	18	17015
2026-01-08 22:15:05.85	51.70	16.91	-21.4	-21.9	17.4	5.40e-06	0	37	0	17951621120	18	17033
2026-01-08 22:15:06.86	51.97	17.00	-21.2	-21.7	17.4	5.40e-06	0	37	0	18060673024	18	16620
2026-01-08 22:15:07.87	52.24	17.10	-21.3	-21.8	17.3	0.00e+00	0	37	0	18186502144	18	16821
2026-01-08 22:15:08.88	52.51	17.19	-21.2	-21.7	17.3	0.00e+00	0	37	0	18295554048	18	16673
2026-01-08 22:15:09.89	52.79	17.28	-21.3	-21.8	17.4	0.00e+00	0	37	0	18404605952	18	16940
2026-01-08 22:15:10.90	53.07	17.37	-21.0	-21.5	17.3	0.00e+00	0	37	0	18522046464	18	16327
2026-01-08 22:15:11.91	53.35	17.47	-21.0	-21.5	17.3	0.00e+00	0	37	0	18631098368	18	16263
2026-01-08 22:15:12.92	53.63	17.56	-21.0	-21.5	17.2	0.00e+00	0	37	0	18748538880	18	16267
2026-01-08 22:15:13.93	53.91	17.65	-21.0	-21.5	17.2	0.00e+00	0	37	0	18865979392	18	16264
2026-01-08 22:15:14.94	54.20	17.74	-20.9	-21.4	17.3	0.00e+00	0	37	0	18975031296	18	16131
2026-01-08 22:15:15.94	54.48	17.83	-21.0	-21.4	17.3	0.00e+00	0	37	0	19084083200	18	16237
2026-01-08 22:15:16.95	54.77	17.93	-20.9	-21.4	17.3	0.00e+00	0	37	0	19201523712	18	16127
2026-01-08 22:15:17.96	55.07	18.02	-20.8	-21.3	17.3	0.00e+00	0	37	0	19310575616	18	15922
2026-01-08 22:15:18.97	55.36	18.11	-20.9	-21.4	17.3	0.00e+00	0	37	0	19428016128	18	16130
2026-01-08 22:15:19.98	55.66	18.20	-20.9	-21.4	17.3	0.00e+00	0	37	0	19545456640	18	16121
2026-01-08 22:15:20.99	55.95	18.29	-20.6	-21.1	17.3	0.00e+00	0	37	0	19654508544	16	17593
2026-01-08 22:15:22.00	56.25	18.38	-20.7	-21.2	17.3	0.00e+00	0	37	0	19771949056	16	17606
2026-01-08 22:15:23.01	56.56	18.47	-20.6	-21.1	17.3	0.00e+00	0	37	0	19881000960	16	17456
2026-01-08 22:15:24.02	56.86	18.56	-20.6	-21.1	17.0	0.00e+00	0	37	0	19998441472	16	17462
2026-01-08 22:15:25.03	57.17	18.65	-20.5	-21.0	16.8	0.00e+00	0	37	0	20115881984	16	17307
2026-01-08 22:15:26.04	57.47	18.74	-20.7	-21.2	16.8	0.00e+00	0	37	0	20224933888	16	17610
2026-01-08 22:15:27.05	57.78	18.83	-20.5	-21.0	17.1	0.00e+00	0	37	0	20333985792	16	17227
2026-01-08 22:15:28.05	58.09	18.92	-20.6	-21.1	17.4	0.00e+00	0	37	0	20451426304	16	17573
2026-01-08 22:15:29.06	58.41	19.01	-20.5	-21.0	17.3	0.00e+00	0	37	0	20560478208	16	17257
2026-01-08 22:15:30.07	58.72	19.10	-20.4	-20.9	17.4	0.00e+00	0	37	0	20677918720	16	17045
2026-01-08 22:15:31.08	59.04	19.18	-20.5	-21.0	17.3	0.00e+00	0	37	0	20795359232	16	17235
2026-01-08 22:15:32.09	59.36	19.27	-20.3	-20.8	17.3	0.00e+00	0	37	0	20904411136	16	16909
2026-01-08 22:15:33.10	59.68	19.36	-20.3	-20.8	17.1	0.00e+00	0	37	0	21021851648	16	16865
2026-01-08 22:15:34.11	60.01	19.44	-20.2	-20.6	16.9	5.40e-06	0	37	0	21130903552	16	16606
2026-01-08 22:15:35.12	60.34	19.53	-20.2	-20.7	17.2	5.40e-06	0	37	0	21248344064	16	16742
2026-01-08 22:15:36.13	60.66	19.61	-20.3	-20.8	17.3	5.40e-06	0	37	0	21357395968	16	16851
2026-01-08 22:15:37.14	61.00	19.70	-20.1	-20.6	17.3	0.00e+00	0	37	0	21474836480	16	16516
2026-01-08 22:15:38.15	61.33	19.78	-20.2	-20.7	17.3	0.00e+00	0	37	0	21583888384	16	16663
2026-01-08 22:15:39.16	61.66	19.87	-20.3	-20.8	17.3	0.00e+00	0	37	0	21701328896	16	16862
2026-01-08 22:15:40.17	62.00	19.95	-20.2	-20.7	17.4	0.00e+00	0	37	0	21818769408	16	16668
2026-01-08 22:15:41.18	62.34	20.04	-20.3	-20.8	17.4	0.00e+00	0	37	0	21927821312	16	16967
2026-01-08 22:15:42.19	62.68	20.12	-20.1	-20.6	17.3	0.00e+00	0	37	0	22045261824	16	16576
2026-01-08 22:15:43.20	63.02	20.20	-20.0	-20.6	17.4	0.00e+00	0	37	0	22154313728	16	16428
2026-01-08 22:15:44.21	63.37	20.28	-20.0	-20.5	17.4	0.00e+00	0	37	0	22263365632	16	16337
2026-01-08 22:15:45.22	63.72	20.36	-20.0	-20.5	17.4	0.00e+00	0	37	0	22380806144	16	16252
2026-01-08 22:15:46.23	64.07	20.44	-19.9	-20.4	17.4	0.00e+00	0	37	0	22498246656	16	16146
2026-01-08 22:15:47.24	64.42	20.52	-20.0	-20.4	17.4	0.00e+00	0	37	0	22607298560	16	16229
2026-01-08 22:15:48.24	64.77	20.60	-19.8	-20.3	17.4	0.00e+00	0	37	0	22724739072	16	15974
2026-01-08 22:15:49.25	65.12	20.68	-20.0	-20.4	17.3	0.00e+00	0	37	0	22833790976	16	16238
2026-01-08 22:15:50.26	65.48	20.75	-19.8	-20.3	16.9	0.00e+00	0	37	0	22951231488	16	15918
2026-01-08 22:15:51.27	65.84	20.83	-19.8	-20.2	17.0	0.00e+00	0	37	0	23068672000	14	17789
2026-01-08 22:15:52.28	66.20	20.91	-19.7	-20.2	17.2	0.00e+00	0	37	0	23177723904	14	17778
2026-01-08 22:15:53.29	66.57	20.98	-19.7	-20.1	17.4	0.00e+00	0	37	0	23286775808	14	17584
2026-01-08 22:15:54.30	66.93	21.06	-19.5	-20.0	17.4	0.00e+00	0	37	0	23404216320	14	17248
2026-01-08 22:15:55.31	67.30	21.13	-19.5	-19.9	17.3	0.00e+00	0	37	0	23513268224	14	17186
2026-01-08 22:15:56.32	67.67	21.20	-19.4	-19.9	17.4	0.00e+00	0	37	0	23630708736	14	17130
2026-01-08 22:15:57.32	68.04	21.27	-19.4	-19.9	17.5	0.00e+00	0	37	0	23748149248	14	17046
2026-01-08 22:15:58.33	68.41	21.34	-19.3	-19.8	17.5	0.00e+00	0	37	0	23857201152	14	16967
2026-01-08 22:15:59.34	68.79	21.41	-19.4	-19.8	17.5	0.00e+00	0	37	0	23974641664	14	16972
2026-01-08 22:16:00.35	69.16	21.48	-19.4	-19.9	17.5	0.00e+00	0	37	0	24083693568	14	17027
2026-01-08 22:16:01.35	69.54	21.55	-19.4	-19.9	17.4	0.00e+00	0	37	0	24192745472	14	17126
2026-01-08 22:16:02.37	69.92	21.62	-19.3	-19.8	17.4	0.00e+00	0	37	0	24310185984	14	16840
2026-01-08 22:16:03.38	70.31	21.69	-19.3	-19.8	17.4	0.00e+00	0	37	0	24427626496	14	16867
2026-01-08 22:16:04.39	70.69	21.75	-19.3	-19.8	17.4	0.00e+00	0	37	0	24536678400	14	16912
2026-01-08 22:16:05.40	71.08	21.82	-19.4	-19.9	17.4	0.00e+00	0	37	0	24654118912	14	17044
2026-01-08 22:16:06.41	71.47	21.88	-19.3	-19.7	17.5	0.00e+00	0	37	0	24763170816	14	16797
2026-01-08 22:16:07.42	71.86	21.94	-19.3	-19.8	17.5	0.00e+00	0	37	0	24880611328	14	16961
2026-01-08 22:16:08.43	72.25	22.00	-19.3	-19.8	17.4	0.00e+00	0	37	0	24998051840	14	16985
2026-01-08 22:16:09.44	72.64	22.06	-19.3	-19.8	17.3	0.00e+00	0	37	0	25107103744	14	16815
2026-01-08 22:16:10.45	73.04	22.12	-19.3	-19.7	17.2	0.00e+00	0	37	0	25216155648	14	16789
2026-01-08 22:16:11.46	73.43	22.18	-19.2	-19.7	17.1	0.00e+00	0	37	0	25333596160	14	16698
2026-01-08 22:16:12.47	73.83	22.24	-19.3	-19.8	17.2	0.00e+00	0	37	0	25451036672	14	16970
2026-01-08 22:16:13.48	74.23	22.30	-19.4	-19.8	17.3	0.00e+00	0	37	0	25560088576	14	16983
2026-01-08 22:16:14.49	74.63	22.35	-19.3	-19.8	17.4	0.00e+00	0	37	0	25677529088	14	16891
2026-01-08 22:16:15.50	75.04	22.40	-19.4	-19.9	17.4	0.00e+00	0	37	0	25786580992	14	17158
2026-01-08 22:16:16.51	75.44	22.46	-19.4	-19.9	17.4	0.00e+00	0	37	0	25904021504	14	17098
2026-01-08 22:16:17.52	75.85	22.51	-19.4	-19.9	17.4	0.00e+00	0	37	0	26021462016	14	17026
2026-01-08 22:16:18.53	76.26	22.56	-19.2	-19.7	17.4	0.00e+00	0	37	0	26130513920	14	16798
2026-01-08 22:16:19.53	76.66	22.61	-19.3	-19.8	17.4	0.00e+00	0	37	0	26239565824	14	16830
2026-01-08 22:16:20.54	77.07	22.65	-19.2	-19.7	17.4	0.00e+00	0	37	0	26357006336	14	16649
2026-01-08 22:16:21.55	77.48	22.70	-19.1	-19.6	17.4	0.00e+00	0	37	0	26466058240	14	16539
2026-01-08 22:16:22.56	77.90	22.74	-19.1	-19.6	17.4	0.00e+00	0	37	0	26583498752	14	16547
2026-01-08 22:16:23.57	78.31	22.79	-19.2	-19.7	17.4	0.00e+00	0	37	0	26700939264	14	16651
2026-01-08 22:16:24.58	78.73	22.83	-19.2	-19.6	17.4	0.00e+00	0	37	0	26809991168	14	16577
2026-01-08 22:16:25.59	79.15	22.87	-19.1	-19.6	17.4	0.00e+00	0	37	0	26927431680	14	16525
2026-01-08 22:16:26.60	79.56	22.91	-19.1	-19.6	17.4	0.00e+00	0	37	0	27036483584	14	16582
2026-01-08 22:16:27.61	79.98	22.95	-19.1	-19.6	17.3	0.00e+00	0	37	0	27145535488	14	16519
2026-01-08 22:16:28.62	80.40	22.99	-19.2	-19.7	17.2	0.00e+00	0	37	0	27262976000	14	16779
2026-01-08 22:16:29.62	80.82	23.02	-19.2	-19.6	17.1	0.00e+00	0	37	0	27380416512	14	16569
2026-01-08 22:16:30.64	81.25	23.06	-19.1	-19.5	17.1	0.00e+00	0	37	0	27489468416	14	16411
2026-01-08 22:16:31.64	81.67	23.09	-19.1	-19.5	17.2	0.00e+00	0	37	0	27606908928	14	16366
2026-01-08 22:16:32.65	82.09	23.12	-19.1	-19.6	17.3	0.00e+00	0	37	0	27715960832	14	16489
2026-01-08 22:16:33.66	82.52	23.15	-19.1	-19.6	17.3	0.00e+00	0	37	0	27833401344	14	16457
2026-01-08 22:16:34.67	82.95	23.18	-19.2	-19.7	17.3	0.00e+00	0	37	0	27950841856	14	16665
2026-01-08 22:16:35.68	83.38	23.21	-19.0	-19.5	17.3	0.00e+00	0	37	0	28059893760	14	16272
2026-01-08 22:16:36.69	83.80	23.23	-19.2	-19.6	17.3	0.00e+00	0	37	0	28168945664	14	16594
2026-01-08 22:16:37.70	84.23	23.26	-19.1	-19.6	17.3	0.00e+00	0	37	0	28286386176	14	16475
2026-01-08 22:16:38.71	84.66	23.28	-19.2	-19.7	17.3	0.00e+00	0	37	0	28395438080	14	16694
2026-01-08 22:16:39.72	85.09	23.30	-19.3	-19.8	17.3	0.00e+00	0	37	0	28512878592	14	16849
2026-01-08 22:16:40.73	85.52	23.32	-19.2	-19.7	17.2	0.00e+00	0	37	0	28630319104	14	16647
2026-01-08 22:16:41.74	85.96	23.34	-19.1	-19.6	17.3	0.00e+00	0	37	0	28739371008	14	16478
2026-01-08 22:16:42.75	86.39	23.35	-19.1	-19.6	17.2	0.00e+00	0	37	0	28856811520	14	16512
2026-01-08 22:16:43.75	86.82	23.37	-19.1	-19.5	17.2	0.00e+00	0	37	0	28965863424	14	16420
2026-01-08 22:16:44.76	87.25	23.38	-19.2	-19.7	17.2	0.00e+00	0	37	0	29074915328	14	16728
2026-01-08 22:16:45.77	87.69	23.39	-18.9	-19.4	17.3	0.00e+00	0	37	0	29192355840	14	16099
2026-01-08 22:16:46.78	88.12	23.40	-19.0	-19.4	17.2	0.00e+00	0	37	0	29309796352	14	16229
2026-01-08 22:16:47.79	88.55	23.41	-18.9	-19.4	17.2	0.00e+00	0	37	0	29418848256	14	16126
2026-01-08 22:16:48.80	88.99	23.42	-19.0	-19.5	17.2	0.00e+00	0	37	0	29536288768	14	16243
2026-01-08 22:16:49.81	89.42	23.43	-18.9	-19.3	17.1	0.00e+00	0	37	0	29645340672	14	15987
2026-01-08 22:16:50.82	89.86	23.43	-19.1	-19.5	17.1	0.00e+00	0	37	0	29762781184	14	16344
2026-01-08 22:16:51.83	90.29	23.43	-19.0	-19.4	17.0	0.00e+00	0	37	0	29880221696	14	16220
2026-01-08 22:16:52.84	90.73	23.43	-19.0	-19.4	17.1	0.00e+00	0	38	0	29989273600	14	16157
2026-01-08 22:16:53.84	91.16	23.43	-19.0	-19.5	17.2	0.00e+00	0	38	0	30098325504	14	16252
2026-01-08 22:16:54.85	91.60	23.43	-19.1	-19.6	17.2	0.00e+00	0	38	0	30215766016	14	16429
2026-01-08 22:16:55.86	92.03	23.43	-19.1	-19.5	17.2	0.00e+00	0	37	0	30324817920	14	16353
2026-01-08 22:16:56.87	92.47	23.42	-19.1	-19.5	17.2	0.00e+00	0	37	0	30442258432	14	16336
2026-01-08 22:16:57.88	92.90	23.42	-19.1	-19.6	17.1	0.00e+00	0	38	0	30559698944	14	16554
2026-01-08 22:16:58.88	93.33	23.41	-19.3	-19.7	17.1	0.00e+00	0	37	0	30668750848	14	16783
2026-01-08 22:16:59.89	93.77	23.40	-19.3	-19.7	17.1	0.00e+00	0	38	0	30786191360	14	16762
2026-01-08 22:17:00.90	94.20	23.39	-19.2	-19.6	17.1	0.00e+00	0	37	0	30895243264	14	16577
2026-01-08 22:17:01.91	94.63	23.37	-19.2	-19.7	17.1	0.00e+00	0	37	0	31004295168	14	16635
2026-01-08 22:17:02.92	95.07	23.36	-19.4	-19.8	17.1	0.00e+00	0	37	0	31121735680	14	16903
2026-01-08 22:17:03.93	95.50	23.34	-19.5	-19.9	17.1	0.00e+00	0	38	0	31239176192	14	17153
2026-01-08 22:17:04.94	95.93	23.33	-19.3	-19.8	17.0	0.00e+00	0	38	0	31348228096	14	16859
2026-01-08 22:17:05.95	96.37	23.31	-19.3	-19.8	17.1	0.00e+00	0	37	0	31465668608	14	16818
2026-01-08 22:17:06.96	96.80	23.29	-19.1	-19.6	17.0	0.00e+00	0	38	0	31574720512	14	16479
2026-01-08 22:17:07.96	97.22	23.26	-19.2	-19.6	17.0	0.00e+00	0	38	0	31692161024	14	16577
2026-01-08 22:17:08.97	97.65	23.24	-19.2	-19.7	17.1	0.00e+00	0	37	0	31809601536	14	16648
2026-01-08 22:17:09.98	98.08	23.22	-19.3	-19.8	17.1	0.00e+00	0	37	0	31918653440	14	16843
2026-01-08 22:17:10.99	98.51	23.19	-19.2	-19.6	17.1	0.00e+00	0	38	0	32027705344	14	16600
2026-01-08 22:17:11.99	98.93	23.16	-19.2	-19.6	17.1	0.00e+00	0	37	0	32145145856	14	16602
2026-01-08 22:17:13.00	99.36	23.13	-19.2	-19.7	17.1	0.00e+00	0	37	0	32254197760	14	16657
2026-01-08 22:17:14.01	99.79	23.10	-19.2	-19.6	17.1	0.00e+00	0	37	0	32371638272	14	16615
2026-01-08 22:17:15.02	100.21	23.07	-19.3	-19.7	17.1	0.00e+00	0	38	0	32480690176	14	16678
2026-01-08 22:17:16.03	100.64	23.04	-19.3	-19.7	17.1	0.00e+00	0	37	0	32598130688	14	16770
2026-01-08 22:17:17.04	101.06	23.00	-19.3	-19.7	17.1	0.00e+00	0	38	0	32715571200	14	16666
2026-01-08 22:17:18.05	101.48	22.96	-19.3	-19.7	17.2	0.00e+00	0	37	0	32824623104	14	16635
2026-01-08 22:17:19.06	101.90	22.93	-19.2	-19.6	17.1	0.00e+00	0	37	0	32933675008	14	16595
2026-01-08 22:17:20.07	102.32	22.89	-19.4	-19.8	17.1	0.00e+00	0	37	0	33051115520	14	16970
2026-01-08 22:17:21.08	102.74	22.85	-19.4	-19.8	17.1	0.00e+00	0	37	0	33168556032	14	16881
2026-01-08 22:17:22.08	103.16	22.80	-19.4	-19.8	17.1	0.00e+00	0	37	0	33277607936	14	16870
2026-01-08 22:17:23.09	103.57	22.76	-19.4	-19.9	17.2	0.00e+00	0	37	0	33395048448	14	17023
2026-01-08 22:17:24.10	103.99	22.72	-19.4	-19.8	17.1	0.00e+00	0	37	0	33504100352	14	16981
2026-01-08 22:17:25.11	104.40	22.67	-19.4	-19.9	17.2	0.00e+00	0	38	0	33621540864	14	17023
2026-01-08 22:17:26.12	104.81	22.62	-19.4	-19.8	17.2	0.00e+00	0	38	0	33738981376	14	16903
2026-01-08 22:17:27.12	105.22	22.58	-19.6	-20.0	17.2	0.00e+00	0	37	0	33848033280	14	17383
2026-01-08 22:17:28.13	105.63	22.53	-19.7	-20.1	17.2	0.00e+00	0	37	0	33957085184	14	17562
2026-01-08 22:17:29.14	106.04	22.47	-19.8	-20.2	17.2	0.00e+00	0	37	0	34074525696	14	17698
2026-01-08 22:17:30.15	106.44	22.42	-19.8	-20.2	17.2	0.00e+00	0	38	0	34183577600	14	17773
2026-01-08 22:17:31.16	106.85	22.37	-19.6	-20.0	17.3	0.00e+00	0	37	0	34301018112	14	17379
2026-01-08 22:17:32.17	107.25	22.31	-19.4	-19.9	17.3	0.00e+00	0	38	0	34418458624	14	17009
2026-01-08 22:17:33.18	107.65	22.26	-19.6	-20.0	17.2	0.00e+00	0	37	0	34527510528	14	17355
2026-01-08 22:17:34.19	108.05	22.20	-19.4	-19.8	17.2	0.00e+00	0	37	0	34644951040	14	16970
2026-01-08 22:17:35.20	108.45	22.14	-19.5	-19.9	17.3	0.00e+00	0	38	0	34754002944	14	17060
2026-01-08 22:17:36.21	108.85	22.08	-19.6	-20.0	17.2	0.00e+00	0	38	0	34863054848	14	17397
2026-01-08 22:17:37.22	109.25	22.02	-19.5	-19.9	17.3	0.00e+00	0	38	0	34980495360	14	17142
2026-01-08 22:17:38.23	109.64	21.96	-19.6	-20.0	17.2	0.00e+00	0	38	0	35097935872	14	17397
2026-01-08 22:17:39.24	110.03	21.90	-19.5	-19.9	17.3	0.00e+00	0	38	0	35206987776	14	17191
2026-01-08 22:17:40.25	110.42	21.84	-19.6	-20.0	17.3	0.00e+00	0	38	0	35324428288	14	17374
2026-01-08 22:17:41.26	110.81	21.77	-19.6	-20.0	17.3	0.00e+00	0	38	0	35433480192	14	17369
2026-01-08 22:17:42.27	111.20	21.71	-19.6	-20.0	17.4	0.00e+00	0	38	0	35550920704	14	17286
2026-01-08 22:17:43.28	111.58	21.64	-19.8	-20.2	17.3	0.00e+00	0	38	0	35668361216	14	17614
2026-01-08 22:17:44.28	111.96	21.57	-19.8	-20.2	17.4	0.00e+00	0	38	0	35777413120	14	17646
2026-01-08 22:17:45.29	112.34	21.51	-19.7	-20.1	17.4	0.00e+00	0	38	0	35886465024	14	17426
2026-01-08 22:17:46.30	112.72	21.44	-19.8	-20.2	17.4	0.00e+00	0	38	0	36003905536	14	17676
2026-01-08 22:17:47.31	113.10	21.37	-19.9	-20.4	17.4	0.00e+00	0	38	0	36112957440	14	18017
2026-01-08 22:17:48.32	113.47	21.29	-19.8	-20.2	17.4	0.00e+00	0	38	0	36230397952	14	17698
2026-01-08 22:17:49.33	113.85	21.22	-19.9	-20.3	17.4	0.00e+00	0	38	0	36347838464	14	17994
2026-01-08 22:17:50.34	114.22	21.15	-19.9	-20.3	17.5	0.00e+00	0	38	0	36456890368	14	17869
2026-01-08 22:17:51.35	114.59	21.08	-19.8	-20.2	17.5	0.00e+00	0	38	0	36574330880	14	17766
2026-01-08 22:17:52.36	114.96	21.00	-19.9	-20.3	17.4	0.00e+00	0	38	0	36683382784	14	17873
2026-01-08 22:17:53.37	115.32	20.93	-19.9	-20.3	17.5	0.00e+00	0	38	0	36800823296	14	17868
2026-01-08 22:17:54.38	115.69	20.85	-19.9	-20.3	17.5	0.00e+00	0	38	0	36909875200	14	17942
2026-01-08 22:17:55.39	116.05	20.77	-20.0	-20.4	17.5	0.00e+00	0	38	0	37027315712	14	18195
2026-01-08 22:17:56.40	116.41	20.70	-19.9	-20.3	17.5	0.00e+00	0	38	0	37136367616	14	17905
2026-01-08 22:17:57.41	116.77	20.62	-20.0	-20.5	17.5	0.00e+00	0	38	0	37253808128	14	18224
2026-01-08 22:17:58.42	117.12	20.54	-19.9	-20.4	17.5	0.00e+00	0	38	0	37371248640	14	18013
2026-01-08 22:17:59.43	117.48	20.46	-19.9	-20.3	17.6	0.00e+00	0	38	0	37480300544	14	17986
2026-01-08 22:18:00.44	117.83	20.38	-19.9	-20.3	17.6	0.00e+00	0	38	0	37597741056	14	17993
2026-01-08 22:18:01.45	118.18	20.30	-20.1	-20.5	17.6	0.00e+00	0	38	0	37706792960	14	18302
2026-01-08 22:18:02.46	118.52	20.22	-20.0	-20.4	17.6	0.00e+00	0	38	0	37815844864	14	18169
2026-01-08 22:18:03.47	118.87	20.13	-20.0	-20.4	17.6	0.00e+00	0	38	0	37933285376	14	18216
2026-01-08 22:18:04.48	119.21	20.05	-20.2	-20.6	17.7	0.00e+00	0	38	0	38050725888	14	18466
2026-01-08 22:18:05.48	119.55	19.97	-20.1	-20.5	17.7	0.00e+00	0	38	0	38159777792	14	18308
2026-01-08 22:18:06.49	119.89	19.89	-20.2	-20.6	17.6	0.00e+00	0	38	0	38277218304	14	18474
2026-01-08 22:18:07.50	120.23	19.80	-20.1	-20.6	17.7	0.00e+00	0	38	0	38386270208	14	18456
2026-01-08 22:18:08.51	120.56	19.72	-20.2	-20.6	17.7	0.00e+00	0	38	0	38503710720	14	18473
2026-01-08 22:18:09.52	120.90	19.63	-20.1	-20.5	17.7	0.00e+00	0	38	0	38621151232	14	18356
2026-01-08 22:18:10.53	121.23	19.54	-20.1	-20.5	17.7	0.00e+00	0	38	0	38730203136	14	18310
2026-01-08 22:18:11.54	121.56	19.46	-20.2	-20.6	17.7	0.00e+00	0	38	0	38839255040	14	18516
2026-01-08 22:18:12.55	121.88	19.37	-20.2	-20.6	17.7	0.00e+00	0	38	0	38956695552	14	18619
2026-01-08 22:18:13.56	122.21	19.28	-20.2	-20.6	17.7	0.00e+00	0	38	0	39065747456	14	18631
2026-01-08 22:18:14.57	122.53	19.20	-20.4	-20.9	17.7	0.00e+00	0	38	0	39183187968	14	19114
2026-01-08 22:18:15.58	122.85	19.11	-20.2	-20.6	17.7	0.00e+00	0	38	0	39300628480	14	18585
2026-01-08 22:18:16.59	123.17	19.02	-20.4	-20.8	17.7	0.00e+00	0	38	0	39409680384	14	18989
2026-01-08 22:18:17.60	123.49	18.93	-20.4	-20.8	17.8	0.00e+00	0	38	0	39527120896	14	18947
2026-01-08 22:18:18.61	123.80	18.84	-20.3	-20.8	17.7	0.00e+00	0	38	0	39636172800	14	18885
2026-01-08 22:18:19.62	124.11	18.75	-20.5	-20.9	17.7	0.00e+00	0	38	0	39753613312	14	19127
2026-01-08 22:18:20.63	124.42	18.66	-20.4	-20.9	17.7	0.00e+00	0	38	0	39871053824	14	19100
2026-01-08 22:18:21.64	124.73	18.57	-20.5	-20.9	17.7	0.00e+00	0	38	0	39980105728	14	19225
2026-01-08 22:18:22.64	125.03	18.48	-20.6	-21.0	17.7	1.08e-05	0	38	0	40089157632	14	19512
2026-01-08 22:18:23.65	125.34	18.39	-20.6	-21.1	17.7	1.08e-05	0	38	0	40206598144	14	19542
2026-01-08 22:18:24.66	125.64	18.30	-20.6	-21.0	17.7	1.08e-05	0	38	0	40315650048	14	19504
2026-01-08 22:18:25.67	125.94	18.21	-20.7	-21.1	17.7	0.00e+00	0	38	0	40433090560	14	19678
2026-01-08 22:18:26.68	126.24	18.12	-20.6	-21.0	17.7	0.00e+00	0	38	0	40550531072	14	19494
2026-01-08 22:18:27.69	126.53	18.02	-20.7	-21.1	17.7	0.00e+00	0	38	0	40659582976	14	19653
2026-01-08 22:18:28.70	126.83	17.93	-20.9	-21.3	17.7	0.00e+00	0	38	0	40768634880	16	17910
2026-01-08 22:18:29.71	127.12	17.84	-20.7	-21.2	17.7	0.00e+00	0	38	0	40886075392	16	17618
2026-01-08 22:18:30.71	127.41	17.75	-20.9	-21.3	17.7	0.00e+00	0	38	0	40995127296	16	17871
2026-01-08 22:18:31.73	127.70	17.66	-20.9	-21.3	17.7	0.00e+00	0	38	0	41112567808	16	17944
2026-01-08 22:18:32.74	127.98	17.56	-20.8	-21.2	17.7	0.00e+00	0	38	0	41230008320	16	17799
2026-01-08 22:18:33.74	128.27	17.47	-20.9	-21.3	17.7	0.00e+00	0	38	0	41339060224	16	17847
2026-01-08 22:18:34.75	128.55	17.38	-21.0	-21.4	17.7	0.00e+00	0	38	0	41456500736	16	18219
2026-01-08 22:18:35.76	128.83	17.28	-21.0	-21.4	17.7	0.00e+00	0	38	0	41565552640	16	18133
2026-01-08 22:18:36.77	129.11	17.19	-21.0	-21.4	17.7	0.00e+00	0	38	0	41682993152	16	18172
2026-01-08 22:18:37.78	129.38	17.10	-20.9	-21.4	17.7	0.00e+00	0	38	0	41792045056	16	18050
2026-01-08 22:18:38.79	129.66	17.00	-21.1	-21.5	17.7	0.00e+00	0	38	0	41909485568	16	18329
2026-01-08 22:18:39.80	129.93	16.91	-21.1	-21.5	17.7	0.00e+00	0	38	0	42018537472	16	18371
2026-01-08 22:18:40.81	130.20	16.82	-21.1	-21.5	17.7	0.00e+00	0	38	0	42135977984	16	18351
2026-01-08 22:18:41.82	130.47	16.72	-21.1	-21.5	17.7	0.00e+00	0	38	0	42253418496	16	18357
2026-01-08 22:18:42.83	130.73	16.63	-21.1	-21.6	17.7	0.00e+00	0	38	0	42362470400	16	18480
2026-01-08 22:18:43.84	131.00	16.53	-21.2	-21.7	17.7	0.00e+00	0	38	0	42479910912	16	18766
2026-01-08 22:18:44.84	131.26	16.44	-21.1	-21.6	17.7	0.00e+00	0	38	0	42588962816	16	18463
2026-01-08 22:18:45.85	131.52	16.35	-21.0	-21.5	17.7	0.00e+00	0	38	0	42698014720	16	18358
2026-01-08 22:18:46.86	131.78	16.25	-21.2	-21.7	17.7	0.00e+00	0	38	0	42815455232	16	18659
2026-01-08 22:18:47.87	132.03	16.16	-21.3	-21.7	17.7	0.00e+00	0	38	0	42932895744	16	18765
2026-01-08 22:18:48.88	132.29	16.06	-21.2	-21.6	17.7	0.00e+00	0	38	0	43041947648	16	18558
2026-01-08 22:18:49.89	132.54	15.97	-21.0	-21.4	17.7	0.00e+00	0	38	0	43159388160	16	18217
2026-01-08 22:18:50.90	132.80	15.87	-21.0	-21.5	17.7	0.00e+00	0	38	0	43268440064	16	18238
2026-01-08 22:18:51.91	133.05	15.78	-21.2	-21.6	17.7	0.00e+00	0	38	0	43385880576	16	18592
2026-01-08 22:18:52.92	133.29	15.69	-21.2	-21.6	17.7	0.00e+00	0	38	0	43503321088	16	18576
2026-01-08 22:18:53.93	133.54	15.59	-21.2	-21.6	17.7	0.00e+00	0	38	0	43612372992	16	18611
2026-01-08 22:18:54.94	133.78	15.50	-21.2	-21.6	17.7	0.00e+00	0	38	0	43729813504	16	18609
2026-01-08 22:18:55.95	134.03	15.40	-21.2	-21.7	17.7	0.00e+00	0	38	0	43838865408	16	18709
2026-01-08 22:18:56.96	134.27	15.31	-21.3	-21.7	17.6	0.00e+00	0	38	0	43947917312	16	18812
2026-01-08 22:18:57.96	134.50	15.22	-21.3	-21.8	17.6	0.00e+00	0	38	0	44065357824	16	18896
2026-01-08 22:18:58.97	134.74	15.12	-21.4	-21.9	17.6	0.00e+00	0	38	0	44182798336	16	19097
2026-01-08 22:18:59.98	134.98	15.03	-21.5	-21.9	17.6	0.00e+00	0	38	0	44291850240	16	19264
2026-01-08 22:19:00.99	135.21	14.93	-21.4	-21.9	17.6	0.00e+00	0	38	0	44409290752	16	19158
2026-01-08 22:19:02.00	135.44	14.84	-21.5	-22.0	17.6	0.00e+00	0	38	0	44518342656	16	19398
2026-01-08 22:19:03.01	135.68	14.75	-21.6	-22.1	17.5	0.00e+00	0	38	0	44627394560	16	19576
2026-01-08 22:19:04.02	135.90	14.65	-21.6	-22.0	17.5	0.00e+00	0	38	0	44744835072	16	19519
2026-01-08 22:19:05.02	136.13	14.56	-21.7	-22.1	17.5	0.00e+00	0	38	0	44862275584	16	19702
2026-01-08 22:19:06.03	136.36	14.47	-21.8	-22.3	17.5	0.00e+00	0	38	0	44971327488	18	17899
2026-01-08 22:19:07.04	136.58	14.37	-21.8	-22.3	17.5	0.00e+00	0	38	0	45088768000	18	17905
2026-01-08 22:19:08.05	136.80	14.28	-21.7	-22.2	17.5	0.00e+00	0	38	0	45197819904	18	17700
2026-01-08 22:19:09.06	137.02	14.19	-21.8	-22.3	17.5	0.00e+00	0	38	0	45315260416	18	17860
2026-01-08 22:19:10.07	137.24	14.09	-22.0	-22.4	17.4	0.00e+00	0	38	0	45432700928	18	18188
2026-01-08 22:19:11.08	137.46	14.00	-21.9	-22.4	17.4	0.00e+00	0	38	0	45541752832	18	18036
2026-01-08 22:19:12.09	137.68	13.91	-22.1	-22.5	17.4	0.00e+00	0	38	0	45650804736	18	18387
2026-01-08 22:19:13.10	137.89	13.82	-22.0	-22.5	17.4	0.00e+00	0	38	0	45768245248	18	18355
2026-01-08 22:19:14.11	138.10	13.72	-21.9	-22.4	17.4	0.00e+00	0	38	0	45877297152	18	18111
2026-01-08 22:19:15.11	138.31	13.63	-22.1	-22.5	17.4	0.00e+00	0	38	0	45994737664	18	18416
2026-01-08 22:19:16.12	138.52	13.54	-22.0	-22.5	17.4	0.00e+00	0	38	0	46112178176	18	18307
2026-01-08 22:19:17.13	138.73	13.45	-22.1	-22.5	17.3	0.00e+00	0	38	0	46221230080	18	18328
2026-01-08 22:19:18.14	138.94	13.36	-22.3	-22.7	17.3	0.00e+00	0	38	0	46338670592	18	18779
2026-01-08 22:19:19.15	139.14	13.26	-22.3	-22.8	17.3	0.00e+00	0	38	0	46447722496	18	18883
2026-01-08 22:19:20.16	139.35	13.17	-22.4	-22.9	17.3	0.00e+00	0	38	0	46556774400	18	19174
2026-01-08 22:19:21.17	139.55	13.08	-22.6	-23.1	17.2	0.00e+00	0	38	0	46682603520	18	19642
2026-01-08 22:19:22.18	139.75	12.99	-22.8	-23.2	17.2	0.00e+00	0	38	0	46791655424	18	19935
2026-01-08 22:19:23.19	139.95	12.90	-23.0	-23.5	17.1	0.00e+00	0	38	0	46900707328	20	18249
2026-01-08 22:19:24.20	140.15	12.81	-23.3	-23.7	17.1	0.00e+00	0	38	0	47018147840	20	18790
2026-01-08 22:19:25.21	140.35	12.72	-23.6	-24.1	17.0	0.00e+00	0	38	0	47127199744	20	19524
2026-01-08 22:19:26.22	140.54	12.63	-23.9	-24.4	16.9	0.00e+00	0	38	0	47244640256	22	18111
2026-01-08 22:19:27.23	140.74	12.54	-24.3	-24.7	16.8	0.00e+00	0	38	0	47362080768	22	18803
2026-01-08 22:19:28.24	140.93	12.45	-24.5	-25.0	16.7	1.08e-05	0	38	0	47471132672	22	19393
2026-01-08 22:19:29.25	141.12	12.36	-24.8	-25.2	16.7	1.08e-05	0	38	0	47580184576	24	17706
2026-01-08 22:19:30.26	141.31	12.27	-24.8	-25.3	16.7	5.40e-06	0	38	0	47697625088	24	17840
2026-01-08 22:19:31.27	141.50	12.18	-25.0	-25.4	16.6	5.40e-06	0	38	0	47815065600	24	18185
2026-01-08 22:19:32.28	141.69	12.09	-25.0	-25.4	16.6	1.08e-05	0	38	0	47924117504	24	18181
2026-01-08 22:19:33.29	141.87	12.00	-24.8	-25.2	16.6	1.08e-05	0	38	0	48041558016	24	17741
2026-01-08 22:19:34.30	142.06	11.91	-24.9	-25.3	16.6	1.08e-05	0	38	0	48150609920	24	17943
2026-01-08 22:19:35.31	142.24	11.82	-24.5	-24.9	16.8	2.72e-05	0	38	0	48268050432	24	17071
2026-01-08 22:19:36.32	142.42	11.73	-24.4	-24.8	16.8	2.72e-05	0	38	0	48385490944	24	16972
2026-01-08 22:19:37.33	142.60	11.64	-24.3	-24.7	16.8	1.08e-05	0	38	0	48494542848	24	16803
2026-01-08 22:19:38.34	142.78	11.55	-24.1	-24.5	16.9	1.08e-05	0	38	0	48611983360	24	16330
2026-01-08 22:19:39.35	142.96	11.47	-24.2	-24.7	16.9	1.08e-05	0	38	0	48721035264	24	16631
2026-01-08 22:19:40.36	143.14	11.38	-24.0	-24.5	16.9	1.08e-05	0	38	0	48830087168	24	16273
2026-01-08 22:19:41.37	143.31	11.29	-24.2	-24.6	16.9	5.40e-06	0	38	0	48947527680	24	16538
2026-01-08 22:19:42.37	143.49	11.20	-23.7	-24.1	17.0	5.40e-06	0	38	0	49064968192	22	17495
2026-01-08 22:19:43.38	143.66	11.12	-23.6	-24.1	17.0	5.40e-06	0	38	0	49174020096	22	17436
2026-01-08 22:19:44.39	143.83	11.03	-23.8	-24.2	17.0	5.40e-06	0	38	0	49291460608	22	17744
2026-01-08 22:19:45.40	144.00	10.94	-23.6	-24.0	17.0	5.40e-06	0	38	0	49400512512	22	17306
2026-01-08 22:19:46.41	144.17	10.86	-23.6	-24.0	17.0	5.40e-06	0	38	0	49509564416	22	17363
2026-01-08 22:19:47.42	144.34	10.77	-23.6	-24.0	16.9	5.40e-06	0	38	0	49635393536	22	17382
2026-01-08 22:19:48.43	144.51	10.68	-23.6	-24.1	16.9	5.40e-06	0	38	0	49744445440	22	17485
2026-01-08 22:19:49.44	144.67	10.60	-23.6	-24.0	16.9	5.40e-06	0	38	0	49853497344	22	17302
2026-01-08 22:19:50.45	144.84	10.51	-23.6	-24.1	17.0	0.00e+00	0	38	0	49970937856	22	17457
2026-01-08 22:19:51.46	145.00	10.43	-23.4	-23.8	17.0	0.00e+00	0	38	0	50079989760	22	16928
2026-01-08 22:19:52.47	145.16	10.34	-23.5	-23.9	17.0	0.00e+00	0	38	0	50197430272	22	17174
2026-01-08 22:19:53.48	145.33	10.25	-23.4	-23.8	17.0	0.00e+00	0	38	0	50314870784	22	16902
2026-01-08 22:19:54.49	145.49	10.17	-23.4	-23.8	17.0	0.00e+00	0	38	0	50423922688	22	16975
2026-01-08 22:19:55.50	145.65	10.09	-23.2	-23.7	17.0	0.00e+00	0	38	0	50541363200	22	16679
2026-01-08 22:19:56.51	145.80	10.00	-23.3	-23.8	17.0	5.40e-06	0	38	0	50650415104	22	16901
2026-01-08 22:19:57.52	145.96	9.92	-23.3	-23.7	17.0	5.40e-06	0	38	0	50759467008	22	16712
2026-01-08 22:19:58.52	146.12	9.83	-23.3	-23.7	17.0	5.40e-06	0	38	0	50876907520	22	16773
2026-01-08 22:19:59.53	146.27	9.75	-23.3	-23.8	17.0	5.40e-06	0	38	0	50994348032	22	16915
2026-01-08 22:20:00.54	146.42	9.67	-23.2	-23.6	17.0	5.40e-06	0	38	0	51103399936	22	16567
2026-01-08 22:20:01.55	146.58	9.58	-23.3	-23.7	17.0	0.00e+00	0	38	0	51220840448	22	16726
2026-01-08 22:20:02.56	146.73	9.50	-23.1	-23.5	17.0	0.00e+00	0	38	0	51329892352	22	16406
2026-01-08 22:20:03.56	146.88	9.42	-23.1	-23.5	17.0	0.00e+00	0	38	0	51438944256	22	16359
2026-01-08 22:20:04.57	147.03	9.33	-23.1	-23.6	17.0	0.00e+00	0	38	0	51564773376	22	16442
2026-01-08 22:20:05.58	147.18	9.25	-23.0	-23.5	17.0	0.00e+00	0	38	0	51673825280	22	16298
2026-01-08 22:20:06.59	147.33	9.17	-23.0	-23.5	17.0	0.00e+00	0	38	0	51782877184	22	16303
2026-01-08 22:20:07.60	147.47	9.09	-23.0	-23.5	17.0	0.00e+00	0	38	0	51900317696	22	16292
2026-01-08 22:20:08.61	147.62	9.00	-23.2	-23.6	17.0	0.00e+00	0	38	0	52009369600	22	16555
2026-01-08 22:20:09.62	147.76	8.92	-23.0	-23.5	17.0	0.00e+00	0	38	0	52126810112	22	16373
2026-01-08 22:20:10.63	147.91	8.84	-23.2	-23.6	16.9	0.00e+00	0	38	0	52244250624	22	16563
2026-01-08 22:20:11.64	148.05	8.76	-23.1	-23.6	17.0	5.40e-06	0	38	0	52353302528	22	16481
2026-01-08 22:20:12.65	148.19	8.68	-23.2	-23.7	17.0	5.40e-06	0	38	0	52470743040	22	16645
2026-01-08 22:20:13.65	148.33	8.60	-23.3	-23.7	17.0	5.40e-06	0	38	0	52579794944	22	16795
2026-01-08 22:20:14.66	148.47	8.52	-23.2	-23.7	16.9	5.40e-06	0	38	0	52688846848	22	16657
2026-01-08 22:20:15.67	148.61	8.44	-23.3	-23.8	16.9	5.40e-06	0	38	0	52806287360	22	16918
2026-01-08 22:20:16.68	148.75	8.36	-23.4	-23.9	16.9	5.40e-06	0	38	0	52923727872	22	17022
2026-01-08 22:20:17.69	148.89	8.28	-23.4	-23.8	16.9	0.00e+00	0	38	0	53032779776	22	16970
2026-01-08 22:20:18.70	149.03	8.20	-23.4	-23.9	16.9	0.00e+00	0	38	0	53150220288	22	17135
2026-01-08 22:20:19.71	149.16	8.12	-23.4	-23.8	16.9	0.00e+00	0	38	0	53259272192	22	17004
2026-01-08 22:20:20.72	149.30	8.04	-23.6	-24.0	16.9	0.00e+00	0	38	0	53376712704	22	17381
2026-01-08 22:20:21.73	149.43	7.96	-23.6	-24.1	16.9	0.00e+00	0	38	0	53494153216	22	17405
2026-01-08 22:20:22.73	149.56	7.88	-23.6	-24.1	16.9	2.17e-05	0	38	0	53603205120	22	17409
2026-01-08 22:20:23.74	149.69	7.80	-23.6	-24.1	16.9	2.17e-05	0	38	0	53712257024	22	17517
2026-01-08 22:20:24.75	149.83	7.73	-23.7	-24.2	16.9	1.63e-05	0	38	0	53829697536	22	17668
2026-01-08 22:20:25.76	149.96	7.65	-23.7	-24.2	16.9	1.63e-05	0	38	0	53938749440	22	17666
2026-01-08 22:20:26.77	150.09	7.57	-23.8	-24.2	16.9	0.00e+00	0	38	0	54056189952	22	17786
2026-01-08 22:20:27.78	150.21	7.49	-23.7	-24.2	16.9	0.00e+00	0	38	0	54173630464	22	17779
2026-01-08 22:20:28.79	150.34	7.41	-23.9	-24.4	16.8	5.40e-06	0	38	0	54282682368	22	18172
2026-01-08 22:20:29.80	150.47	7.34	-23.9	-24.4	16.8	5.40e-06	0	38	0	54400122880	22	18163
2026-01-08 22:20:30.81	150.60	7.26	-24.1	-24.5	16.8	2.72e-05	0	38	0	54509174784	22	18413
2026-01-08 22:20:31.82	150.72	7.18	-23.9	-24.4	16.8	2.72e-05	0	38	0	54626615296	22	18143
2026-01-08 22:20:32.83	150.85	7.11	-24.1	-24.6	16.8	2.72e-05	0	38	0	54735667200	22	18470
2026-01-08 22:20:33.84	150.97	7.03	-24.1	-24.6	16.8	1.63e-05	0	38	0	54853107712	22	18448
2026-01-08 22:20:34.85	151.09	6.95	-24.0	-24.5	16.8	1.63e-05	0	38	0	54962159616	22	18286
2026-01-08 22:20:35.86	151.22	6.88	-24.1	-24.6	16.8	2.72e-05	0	38	0	55079600128	22	18534
2026-01-08 22:20:36.87	151.34	6.80	-24.3	-24.8	16.8	2.72e-05	0	38	0	55188652032	22	18931
2026-01-08 22:20:37.88	151.46	6.72	-24.2	-24.6	16.8	2.72e-05	0	38	0	55306092544	22	18645
2026-01-08 22:20:38.89	151.58	6.65	-24.2	-24.7	16.8	5.44e-05	0	38	0	55423533056	22	18715
2026-01-08 22:20:39.89	151.70	6.57	-24.3	-24.8	16.8	5.44e-05	0	38	0	55532584960	22	18968
2026-01-08 22:20:40.90	151.82	6.50	-24.5	-24.9	16.7	2.72e-05	0	38	0	55641636864	22	19250
2026-01-08 22:20:41.91	151.94	6.42	-24.6	-25.1	16.7	2.72e-05	0	38	0	55759077376	22	19659
2026-01-08 22:20:42.92	152.05	6.35	-24.7	-25.2	16.7	3.26e-05	0	38	0	55876517888	24	17639
2026-01-08 22:20:43.93	152.17	6.27	-24.8	-25.2	16.7	3.26e-05	0	38	0	55985569792	24	17787
2026-01-08 22:20:44.94	152.28	6.20	-25.0	-25.5	16.6	3.26e-05	0	38	0	56103010304	24	18241
2026-01-08 22:20:45.95	152.40	6.13	-25.1	-25.6	16.6	6.53e-05	0	38	0	56212062208	24	18462
2026-01-08 22:20:46.96	152.51	6.05	-25.3	-25.7	16.6	6.53e-05	0	38	0	56329502720	24	18859
2026-01-08 22:20:47.97	152.63	5.98	-25.5	-26.0	16.5	1.69e-04	0	38	0	56446943232	24	19362
2026-01-08 22:20:48.98	152.74	5.91	-25.8	-26.2	16.4	1.69e-04	0	38	0	56555995136	24	19976
2026-01-08 22:20:49.99	152.85	5.83	-26.0	-26.5	16.3	2.51e-04	0	38	0	56665047040	26	18232
2026-01-08 22:20:51.00	152.97	5.76	-26.2	-26.7	16.3	2.51e-04	0	38	0	56782487552	26	18674
2026-01-08 22:20:52.01	153.08	5.69	-26.5	-27.0	16.1	5.07e-04	0	38	0	56891539456	26	19428
2026-01-08 22:20:53.02	153.19	5.61	-26.9	-27.4	15.9	5.07e-04	0	38	0	57008979968	28	18169
2026-01-08 22:20:54.03	153.30	5.54	-27.3	-27.8	15.7	5.07e-04	0	38	0	57126420480	28	18895
2026-01-08 22:20:55.04	153.41	5.47	-27.6	-28.1	15.5	1.58e-03	0	38	0	57235472384	28	19580
2026-01-08 22:20:56.05	153.51	5.40	-28.0	-28.4	15.4	1.58e-03	0	38	0	57352912896	30	18163
2026-01-08 22:20:57.06	153.62	5.32	-28.2	-28.7	15.2	1.58e-03	0	38	0	57461964800	30	18717
2026-01-08 22:20:58.07	153.73	5.25	-28.6	-29.0	15.0	4.31e-03	0	38	0	57579405312	30	19514
2026-01-08 22:20:59.08	153.84	5.18	-29.0	-29.5	14.8	8.00e-03	0	38	0	57688457216	32	18330
2026-01-08 22:21:00.09	153.94	5.11	-29.4	-29.9	14.6	8.00e-03	0	38	0	57805897728	32	19095
2026-01-08 22:21:01.10	154.05	5.04	-29.7	-30.1	14.5	8.00e-03	0	38	0	57914949632	32	19702
2026-01-08 22:21:02.10	154.15	4.97	-29.8	-30.3	14.3	1.42e-02	0	38	0	58032390144	34	17901
2026-01-08 22:21:03.12	154.25	4.90	-30.2	-30.7	14.0	1.42e-02	0	38	0	58141442048	34	18702
2026-01-08 22:21:04.12	154.36	4.83	-30.5	-31.0	13.8	2.78e-02	0	38	0	58258882560	34	19332
2026-01-08 22:21:05.13	154.46	4.76	-30.9	-31.4	13.6	2.78e-02	0	38	0	58376323072	36	18060
2026-01-08 22:21:06.14	154.56	4.69	-31.2	-31.6	13.4	4.49e-02	0	38	0	58485374976	36	18609
2026-01-08 22:21:07.15	154.66	4.62	-31.3	-31.8	13.3	4.49e-02	0	38	0	58594426880	36	18915
2026-01-08 22:21:08.16	154.76	4.55	-31.7	-32.1	13.1	4.49e-02	0	38	0	58711867392	36	19632
2026-01-08 22:21:09.17	154.87	4.48	-31.5	-32.0	13.2	6.11e-02	0	38	0	58829307904	38	17226
2026-01-08 22:21:10.18	154.96	4.41	-31.5	-31.9	13.3	6.77e-02	0	38	0	58938359808	38	17190
2026-01-08 22:21:11.19	155.06	4.34	-31.5	-31.9	13.4	6.77e-02	0	38	0	59055800320	38	17054
2026-01-08 22:21:12.20	155.16	4.27	-31.2	-31.6	13.2	6.77e-02	0	38	0	59164852224	38	16571
2026-01-08 22:21:13.20	155.26	4.20	-31.2	-31.6	13.5	5.66e-02	0	38	0	59282292736	38	16482
2026-01-08 22:21:14.21	155.36	4.13	-31.0	-31.4	13.6	5.66e-02	0	38	0	59391344640	38	16184
2026-01-08 22:21:15.22	155.45	4.06	-30.7	-31.1	13.8	4.42e-02	0	38	0	59508785152	36	17479
2026-01-08 22:21:16.24	155.55	3.99	-30.3	-30.8	14.0	4.42e-02	0	38	0	59617837056	36	16916
2026-01-08 22:21:17.24	155.65	3.92	-30.1	-30.6	14.2	4.42e-02	0	38	0	59735277568	36	16505
2026-01-08 22:21:18.25	155.74	3.86	-29.8	-30.3	14.3	2.96e-02	0	38	0	59844329472	34	17918
2026-01-08 22:21:19.26	155.84	3.79	-29.3	-29.7	14.7	2.96e-02	0	38	0	59961769984	34	16743
2026-01-08 22:21:20.27	155.93	3.72	-29.2	-29.7	14.7	1.84e-02	0	38	0	60079210496	34	16720
2026-01-08 22:21:21.28	156.03	3.65	-29.1	-29.6	14.8	1.84e-02	0	38	0	60188262400	34	16495
2026-01-08 22:21:22.29	156.12	3.59	-29.2	-29.6	14.8	1.25e-02	0	38	0	60305702912	34	16585
2026-01-08 22:21:23.30	156.21	3.52	-28.8	-29.3	14.9	1.25e-02	0	38	0	60414754816	34	15906
2026-01-08 22:21:24.31	156.30	3.45	-28.8	-29.3	14.9	1.07e-02	0	38	0	60523806720	32	17885
2026-01-08 22:21:25.32	156.40	3.38	-28.8	-29.2	15.0	1.07e-02	0	38	0	60641247232	32	17733
2026-01-08 22:21:26.33	156.49	3.32	-28.5	-29.0	15.1	8.77e-03	0	38	0	60758687744	32	17207
2026-01-08 22:21:27.34	156.58	3.25	-28.4	-28.8	15.0	8.77e-03	0	38	0	60867739648	32	16993
2026-01-08 22:21:28.34	156.67	3.18	-28.3	-28.7	15.1	7.37e-03	0	38	0	60985180160	32	16772
2026-01-08 22:21:29.35	156.76	3.12	-28.6	-29.1	15.0	7.37e-03	0	38	0	61094232064	32	17435
2026-01-08 22:21:30.36	156.85	3.05	-28.5	-29.0	15.0	7.37e-03	0	38	0	61211672576	32	17332
2026-01-08 22:21:31.37	156.93	2.99	-33.2	-33.9	10.8	8.31e-03	0	38	0	61329113088	32	30282
2026-01-08 22:21:32.38	157.02	2.92	-47.1	-49.6	6.1	8.31e-03	0	38	104	61329113088	60	36861
2026-01-08 22:21:33.40	157.11	2.85	-47.7	-50.2	6.1	2.73e-03	0	38	104	61329113088	60	39454
2026-01-08 22:21:34.40	157.20	2.79	-47.7	-50.1	6.1	2.73e-03	0	38	104	61329113088	60	39371
2026-01-08 22:21:35.41	157.28	2.72	-47.9	-50.4	6.1	2.73e-03	0	38	104	61329113088	60	40687
2026-01-08 22:21:36.42	157.37	2.66	-48.2	-50.7	6.1	2.73e-03	0	38	104	61329113088	60	41885
2026-01-08 22:21:37.44	157.46	2.59	-48.3	-50.8	6.1	2.73e-03	0	38	104	61329113088	60	42378
2026-01-08 22:21:38.45	157.54	2.53	-48.3	-50.8	6.1	2.73e-03	0	38	104	61329113088	60	42333
2026-01-08 22:21:39.46	157.63	2.46	-48.5	-51.0	6.1	2.73e-03	0	38	104	61329113088	60	43233
2026-01-08 22:21:40.47	157.71	2.40	-48.3	-50.8	6.1	2.73e-03	0	38	104	61329113088	60	42470
2026-01-08 22:21:41.48	157.80	2.33	-48.4	-50.9	6.1	2.73e-03	0	38	104	61329113088	60	42873
2026-01-08 22:21:42.48	157.88	2.27	-48.5	-50.9	6.1	0.00e+00	0	38	104	61329113088	60	43120
2026-01-08 22:21:43.49	157.96	2.21	-48.4	-50.9	6.1	0.00e+00	0	38	104	61329113088	60	43032
2026-01-08 22:21:44.50	158.05	2.14	-48.4	-50.9	6.1	0.00e+00	0	38	104	61329113088	60	42979
2026-01-08 22:21:45.51	158.13	2.08	-48.4	-50.9	6.1	0.00e+00	0	38	104	61329113088	60	43023
2026-01-08 22:21:46.53	158.21	2.01	-48.3	-50.7	6.1	0.00e+00	0	38	104	61329113088	60	42182
2026-01-08 22:21:47.54	158.29	1.95	-48.4	-50.8	6.1	0.00e+00	0	38	104	61329113088	60	42670
2026-01-08 22:21:48.55	158.37	1.89	-48.4	-50.8	6.1	0.00e+00	0	38	104	61329113088	60	42565
2026-01-08 22:21:49.56	158.45	1.82	-48.4	-50.8	6.1	0.00e+00	0	38	104	61329113088	60	42489
2026-01-08 22:21:50.57	158.53	1.76	-48.3	-50.8	6.1	0.00e+00	0	38	104	61329113088	60	42701
2026-01-08 22:21:51.58	158.61	1.70	-48.3	-50.8	6.1	0.00e+00	0	38	104	61329113088	60	42347
2026-01-08 22:21:52.59	158.69	1.63	-48.3	-50.8	6.1	0.00e+00	0	38	104	61329113088	60	42365
2026-01-08 22:21:53.60	158.77	1.57	-48.3	-50.8	6.1	0.00e+00	0	38	104	61329113088	60	42456
2026-01-08 22:21:54.61	158.85	1.51	-48.4	-50.8	6.1	0.00e+00	0	38	104	61329113088	60	42627
2026-01-08 22:21:55.62	158.93	1.45	-48.4	-50.9	6.1	0.00e+00	0	38	104	61329113088	60	42951
2026-01-08 22:21:56.63	159.01	1.39	-48.3	-50.8	6.1	0.00e+00	0	38	104	61329113088	60	42535
2026-01-08 22:21:57.64	159.08	1.32	-48.3	-50.8	6.1	0.00e+00	0	38	104	61329113088	60	42604
2026-01-08 22:21:58.65	159.16	1.26	-48.3	-50.8	6.1	0.00e+00	0	38	104	61329113088	60	42306
2026-01-08 22:21:59.66	159.24	1.20	-48.3	-50.8	6.1	0.00e+00	0	38	104	61329113088	60	42390
2026-01-08 22:22:00.67	159.31	1.14	-48.3	-50.7	6.1	0.00e+00	0	38	104	61329113088	60	42193
2026-01-08 22:22:01.68	159.39	1.08	-48.3	-50.7	6.1	0.00e+00	0	38	104	61329113088	60	42081
2026-01-08 22:22:02.69	159.47	1.01	-48.3	-50.7	6.1	0.00e+00	0	38	104	61329113088	60	42203
2026-01-08 22:22:03.70	159.54	0.95	-48.3	-50.8	6.1	0.00e+00	0	38	104	61329113088	60	42488
2026-01-08 22:22:04.71	159.62	0.89	-48.3	-50.7	6.1	0.00e+00	0	37	104	61329113088	60	42198
2026-01-08 22:22:05.72	159.69	0.83	-48.3	-50.8	6.1	0.00e+00	0	38	104	61329113088	60	42366
2026-01-08 22:22:06.72	159.76	0.77	-48.3	-50.8	6.1	0.00e+00	0	38	104	61329113088	60	42279
2026-01-08 22:22:07.74	159.84	0.71	-48.3	-50.8	6.1	0.00e+00	0	38	104	61329113088	60	42326
2026-01-08 22:22:08.75	159.91	0.65	-48.3	-50.8	6.1	0.00e+00	0	38	104	61329113088	60	42401
2026-01-08 22:22:09.76	159.98	0.59	-48.3	-50.8	6.1	0.00e+00	0	38	104	61329113088	60	42267
2026-01-08 22:22:10.77	160.06	0.53	-48.3	-50.8	6.1	0.00e+00	0	38	104	61329113088	60	42431
2026-01-08 22:22:11.78	160.13	0.47	-48.3	-50.8	6.1	0.00e+00	0	37	104	61329113088	60	42333
2026-01-08 22:22:12.78	160.20	0.41	-48.3	-50.7	6.1	0.00e+00	0	38	104	61329113088	60	42059
2026-01-08 22:22:13.79	160.27	0.35	-48.3	-50.8	6.1	0.00e+00	0	38	104	61329113088	60	42347
2026-01-08 22:22:14.80	160.34	0.29	-48.3	-50.8	6.1	0.00e+00	0	38	104	61329113088	60	42330
2026-01-08 22:22:15.81	160.41	0.23	-48.3	-50.8	6.1	0.00e+00	0	38	104	61329113088	60	42413
2026-01-08 22:22:16.82	160.48	0.17	-48.3	-50.8	6.1	0.00e+00	0	38	104	61329113088	60	42282
2026-01-08 22:22:17.83	160.55	0.11	-48.3	-50.7	6.1	0.00e+00	0	38	104	61329113088	60	42122
2026-01-08 22:22:18.84	160.62	0.05	-48.3	-50.8	6.1	0.00e+00	0	38	104	61329113088	60	42427
2026-01-08 22:22:19.85	160.69	-0.01	-48.3	-50.8	6.1	0.00e+00	0	38	104	61329113088	60	42245
2026-01-08 22:22:20.86	160.76	-0.07	-48.3	-50.8	6.1	0.00e+00	0	38	104	61329113088	60	42370
2026-01-08 22:22:21.87	160.83	-0.13	-48.3	-50.7	6.1	0.00e+00	0	38	104	61329113088	60	42142

#Closed at: 2026-01-08 22:22:22
#Recorded file [61329 MB]: D:/lorett/data/35029_260109_101155.dat