passes_logs/2026/01/08/R4.6S_Anadyr/R4.6S_Anadyr__20260108_165558_SUOMI_NPP_rec.log

#Pass ID: 20260108_165558_SUOMI NPP
#Satellite: SUOMI NPP
#Configuration: NPP
#almurnet v.1.7.20251203
#Start time: 2026-01-08 16:56:00

#Version: 2.2.20231116
#Station: R4.6S_Anadyr
#Location: 177.4865 lon 64.73178 lat
#TLE: 1 37849U 11061A   26008.05542337  .00000108  00000+0  71976-4 0  9997
#TLE: 2 37849  98.7805 310.1641 0002540  75.6410 284.5048 14.19523335735721

#Time	Az	El	Level	Level2	SNR	BER	BlckErr	Temp	State	Recorded	gain1	gain2
2026-01-08 16:56:00.21	28.26	0.09	-48.4	-60.0	3.5	8.45e-01	0	29	0	0	60	36265
2026-01-08 16:56:01.21	28.21	0.15	-48.4	-63.5	3.6	1.51e+00	0	30	104	0	60	54236
2026-01-08 16:56:02.22	28.16	0.21	-48.4	-63.5	3.6	1.51e+00	0	30	104	0	60	54259
2026-01-08 16:56:03.23	28.11	0.26	-48.4	-63.5	3.6	1.51e+00	0	30	104	0	60	54157
2026-01-08 16:56:04.24	28.06	0.32	-48.4	-63.5	3.6	1.51e+00	0	30	104	0	60	54330
2026-01-08 16:56:05.25	28.01	0.37	-48.4	-63.6	3.6	1.51e+00	0	30	104	0	60	54491
2026-01-08 16:56:06.26	27.96	0.43	-48.4	-63.6	3.6	1.51e+00	0	30	104	0	60	54445
2026-01-08 16:56:07.27	27.91	0.49	-48.4	-63.5	3.6	1.51e+00	0	30	104	0	60	54209
2026-01-08 16:56:08.28	27.86	0.54	-48.4	-63.6	3.6	1.51e+00	0	30	104	0	60	54458
2026-01-08 16:56:09.29	27.81	0.60	-48.4	-63.5	3.6	1.51e+00	0	30	104	0	60	54134
2026-01-08 16:56:10.30	27.76	0.66	-48.4	-63.5	3.6	1.51e+00	0	30	104	0	60	54392
2026-01-08 16:56:11.31	27.71	0.71	-48.4	-63.5	3.6	1.51e+00	0	30	104	0	60	54332
2026-01-08 16:56:12.32	27.66	0.77	-48.4	-63.5	3.6	1.51e+00	0	30	104	0	60	54386
2026-01-08 16:56:13.33	27.61	0.83	-48.4	-63.5	3.6	1.51e+00	0	30	104	0	60	54374
2026-01-08 16:56:14.34	27.55	0.89	-48.4	-63.5	3.6	1.51e+00	0	30	104	0	60	54361
2026-01-08 16:56:15.34	27.50	0.94	-48.4	-63.6	3.6	1.51e+00	0	30	104	0	60	54418
2026-01-08 16:56:16.35	27.45	1.00	-48.4	-63.6	3.6	1.51e+00	0	30	104	0	60	54574
2026-01-08 16:56:17.36	27.40	1.06	-48.4	-63.5	3.6	1.51e+00	0	31	104	0	60	54243
2026-01-08 16:56:18.37	27.35	1.11	-48.4	-63.5	3.6	1.51e+00	0	30	104	0	60	54247
2026-01-08 16:56:19.38	27.29	1.17	-48.4	-63.6	3.6	1.51e+00	0	31	104	0	60	54524
2026-01-08 16:56:20.39	27.24	1.23	-48.4	-63.5	3.6	1.51e+00	0	31	104	0	60	54372
2026-01-08 16:56:21.40	27.19	1.29	-48.4	-63.6	3.6	1.51e+00	0	30	104	0	60	54733
2026-01-08 16:56:22.41	27.13	1.35	-48.4	-63.5	3.6	1.51e+00	0	31	104	0	60	54306
2026-01-08 16:56:23.42	27.08	1.40	-48.4	-63.6	3.6	1.51e+00	0	31	104	0	60	54455
2026-01-08 16:56:24.43	27.03	1.46	-48.4	-63.6	3.5	1.51e+00	0	31	104	0	60	54415
2026-01-08 16:56:25.44	26.97	1.52	-48.4	-63.6	3.6	1.51e+00	0	31	104	0	60	54444
2026-01-08 16:56:26.44	26.92	1.58	-48.4	-63.6	3.6	1.51e+00	0	31	104	0	60	54820
2026-01-08 16:56:27.45	26.87	1.64	-48.4	-63.6	3.6	1.51e+00	0	31	104	0	60	54487
2026-01-08 16:56:28.46	26.81	1.69	-48.4	-63.6	3.6	1.51e+00	0	31	104	0	60	54646
2026-01-08 16:56:29.47	26.76	1.75	-48.4	-63.6	3.6	1.51e+00	0	31	104	0	60	54691
2026-01-08 16:56:30.48	26.70	1.81	-48.4	-63.6	3.6	1.51e+00	0	31	104	0	60	54433
2026-01-08 16:56:31.49	26.65	1.87	-48.4	-63.6	3.6	1.51e+00	0	31	104	0	60	54659
2026-01-08 16:56:32.50	26.59	1.93	-48.4	-63.6	3.6	1.51e+00	0	31	104	0	60	54638
2026-01-08 16:56:33.51	26.53	1.99	-48.4	-63.6	3.6	1.51e+00	0	31	104	0	60	54547
2026-01-08 16:56:34.52	26.48	2.05	-48.4	-63.5	3.6	1.51e+00	0	31	104	0	60	54249
2026-01-08 16:56:35.53	26.42	2.10	-48.4	-63.6	3.6	1.51e+00	0	31	104	0	60	54619
2026-01-08 16:56:36.54	26.37	2.16	-48.4	-63.6	3.6	1.51e+00	0	31	104	0	60	54811
2026-01-08 16:56:37.55	26.31	2.22	-48.4	-63.6	3.6	1.51e+00	0	31	104	0	60	54798
2026-01-08 16:56:38.55	26.25	2.28	-48.4	-63.6	3.6	1.51e+00	0	31	104	0	60	54578
2026-01-08 16:56:39.56	26.19	2.34	-48.4	-63.6	3.6	1.51e+00	0	31	104	0	60	54709
2026-01-08 16:56:40.57	26.14	2.40	-48.4	-63.6	3.6	1.51e+00	0	31	104	0	60	54417
2026-01-08 16:56:41.59	26.08	2.46	-48.4	-63.6	3.6	1.51e+00	0	31	104	0	60	54823
2026-01-08 16:56:42.59	26.02	2.52	-48.4	-63.6	3.6	1.51e+00	0	31	104	0	60	54529
2026-01-08 16:56:43.61	25.96	2.58	-48.4	-63.6	3.6	1.51e+00	0	31	104	0	60	54586
2026-01-08 16:56:44.61	25.90	2.64	-48.4	-63.6	3.6	1.51e+00	0	31	104	0	60	54707
2026-01-08 16:56:45.62	25.85	2.70	-48.4	-63.6	3.6	1.51e+00	0	31	104	0	60	54632
2026-01-08 16:56:46.63	25.79	2.76	-48.4	-63.6	3.6	1.51e+00	0	31	104	0	60	54592
2026-01-08 16:56:47.64	25.73	2.82	-48.4	-63.6	3.6	1.51e+00	0	31	104	0	60	54661
2026-01-08 16:56:48.65	25.67	2.88	-48.4	-63.6	3.6	1.51e+00	0	31	104	0	60	54423
2026-01-08 16:56:49.66	25.61	2.94	-48.4	-63.6	3.6	1.51e+00	0	31	104	0	60	54444
2026-01-08 16:56:50.67	25.55	3.00	-48.4	-63.6	3.6	1.51e+00	0	31	104	0	60	54424
2026-01-08 16:56:51.68	25.49	3.06	-48.4	-63.6	3.6	1.51e+00	0	31	104	0	60	54583
2026-01-08 16:56:52.69	25.43	3.12	-48.4	-63.6	3.6	1.51e+00	0	31	104	0	60	54654
2026-01-08 16:56:53.70	25.37	3.18	-48.4	-63.6	3.6	1.51e+00	0	31	104	0	60	54606
2026-01-08 16:56:54.71	25.31	3.24	-48.4	-63.6	3.6	1.51e+00	0	31	104	0	60	54559
2026-01-08 16:56:55.72	25.24	3.31	-48.4	-63.6	3.6	1.51e+00	0	31	104	0	60	54660
2026-01-08 16:56:56.73	25.18	3.37	-48.4	-63.6	3.6	1.51e+00	0	31	104	0	60	54683
2026-01-08 16:56:57.74	25.12	3.43	-48.4	-63.6	3.6	1.51e+00	0	31	104	0	60	54566
2026-01-08 16:56:58.75	25.06	3.49	-48.4	-63.5	3.6	1.51e+00	0	31	104	0	60	54348
2026-01-08 16:56:59.76	25.00	3.55	-48.4	-63.6	3.6	1.51e+00	0	31	104	0	60	54564
2026-01-08 16:57:00.76	24.93	3.61	-48.4	-63.6	3.6	1.51e+00	0	31	104	0	60	54594
2026-01-08 16:57:01.77	24.87	3.67	-48.4	-63.6	3.6	1.51e+00	0	31	104	0	60	54701
2026-01-08 16:57:02.79	24.81	3.74	-48.4	-63.6	3.6	1.51e+00	0	31	104	0	60	54600
2026-01-08 16:57:03.80	24.74	3.80	-48.4	-63.6	3.6	1.51e+00	0	31	104	0	60	54667
2026-01-08 16:57:04.80	24.68	3.86	-48.4	-63.6	3.6	1.51e+00	0	31	104	0	60	54535
2026-01-08 16:57:05.81	24.62	3.92	-48.4	-63.6	3.6	1.51e+00	0	31	104	0	60	54767
2026-01-08 16:57:06.82	24.55	3.98	-48.4	-63.5	3.6	1.51e+00	0	31	104	0	60	54384
2026-01-08 16:57:07.83	24.49	4.04	-48.4	-63.6	3.6	1.51e+00	0	31	104	0	60	54412
2026-01-08 16:57:08.84	24.42	4.11	-48.4	-63.6	3.6	1.51e+00	0	31	104	0	60	54649
2026-01-08 16:57:09.85	24.36	4.17	-48.4	-63.6	3.6	1.51e+00	0	31	104	0	60	54512
2026-01-08 16:57:10.86	24.29	4.23	-48.4	-63.6	3.6	1.51e+00	0	31	104	0	60	54589
2026-01-08 16:57:11.87	24.22	4.29	-48.4	-63.6	3.6	1.51e+00	0	31	104	0	60	54449
2026-01-08 16:57:12.88	24.16	4.36	-48.4	-63.6	3.6	1.51e+00	0	31	104	0	60	54432
2026-01-08 16:57:13.89	24.09	4.42	-48.4	-63.6	3.6	1.51e+00	0	31	104	0	60	54574
2026-01-08 16:57:14.90	24.02	4.48	-48.4	-63.6	3.6	1.51e+00	0	31	104	0	60	54470
2026-01-08 16:57:15.91	23.96	4.55	-48.4	-63.6	3.6	1.51e+00	0	31	104	0	60	54664
2026-01-08 16:57:16.92	23.89	4.61	-48.4	-63.6	3.6	1.51e+00	0	31	104	0	60	54806
2026-01-08 16:57:17.93	23.82	4.67	-48.4	-63.6	3.6	1.51e+00	0	31	104	0	60	54727
2026-01-08 16:57:18.94	23.75	4.74	-48.4	-63.6	3.6	1.51e+00	0	31	104	0	60	54919
2026-01-08 16:57:19.95	23.68	4.80	-48.4	-63.6	3.6	1.51e+00	0	31	104	0	60	54597
2026-01-08 16:57:20.96	23.62	4.86	-48.4	-63.6	3.6	1.51e+00	0	31	104	0	60	54678
2026-01-08 16:57:21.97	23.55	4.93	-48.4	-63.6	3.6	1.51e+00	0	31	104	0	60	54869
2026-01-08 16:57:22.98	23.48	4.99	-48.4	-63.6	3.6	1.51e+00	0	31	104	0	60	54653
2026-01-08 16:57:23.99	23.41	5.06	-48.4	-63.6	3.6	1.51e+00	0	31	104	0	60	54646
2026-01-08 16:57:25.00	23.34	5.12	-48.4	-63.6	3.6	1.51e+00	0	31	104	0	60	54775
2026-01-08 16:57:26.01	23.27	5.18	-48.4	-63.6	3.6	1.51e+00	0	31	104	0	60	54982
2026-01-08 16:57:27.02	23.20	5.25	-48.4	-63.6	3.6	1.51e+00	0	31	104	0	60	54780
2026-01-08 16:57:28.03	23.13	5.31	-48.4	-63.6	3.6	1.51e+00	0	31	104	0	60	54784
2026-01-08 16:57:29.03	23.06	5.38	-48.4	-63.6	3.6	1.51e+00	0	31	104	0	60	54436
2026-01-08 16:57:30.04	22.98	5.44	-48.4	-63.6	3.6	1.51e+00	0	31	104	0	60	54912
2026-01-08 16:57:31.05	22.91	5.51	-48.4	-63.6	3.6	1.51e+00	0	31	104	0	60	54626
2026-01-08 16:57:32.06	22.84	5.57	-48.4	-63.6	3.6	1.51e+00	0	31	104	0	60	54525
2026-01-08 16:57:33.07	22.77	5.64	-48.4	-63.6	3.6	1.51e+00	0	31	104	0	60	54864
2026-01-08 16:57:34.08	22.69	5.70	-48.4	-63.6	3.6	1.51e+00	0	31	104	0	60	54944
2026-01-08 16:57:35.09	22.62	5.77	-48.4	-63.6	3.6	1.51e+00	0	31	104	0	60	54592
2026-01-08 16:57:36.10	22.55	5.83	-48.4	-63.6	3.6	1.51e+00	0	31	104	0	60	54664
2026-01-08 16:57:37.11	22.47	5.90	-48.4	-63.6	3.6	1.51e+00	0	31	104	0	60	54683
2026-01-08 16:57:38.12	22.40	5.96	-48.4	-63.6	3.5	1.51e+00	0	31	104	0	60	54705
2026-01-08 16:57:39.13	22.32	6.03	-48.4	-63.6	3.6	1.51e+00	0	31	104	0	60	54555
2026-01-08 16:57:40.14	22.25	6.09	-48.4	-63.6	3.6	1.51e+00	0	31	104	0	60	54840
2026-01-08 16:57:41.15	22.17	6.16	-48.4	-63.6	3.6	1.51e+00	0	31	104	0	60	54809
2026-01-08 16:57:42.16	22.10	6.23	-48.4	-63.6	3.6	1.51e+00	0	31	104	0	60	54578
2026-01-08 16:57:43.17	22.02	6.29	-48.4	-63.6	3.6	1.51e+00	0	31	104	0	60	54794
2026-01-08 16:57:44.18	21.94	6.36	-48.4	-63.6	3.6	1.51e+00	0	31	104	0	60	54802
2026-01-08 16:57:45.19	21.87	6.43	-48.4	-63.6	3.6	1.51e+00	0	31	104	0	60	54672
2026-01-08 16:57:46.19	21.79	6.49	-48.4	-63.6	3.6	1.51e+00	0	31	104	0	60	54854
2026-01-08 16:57:47.20	21.71	6.56	-48.4	-63.6	3.6	1.51e+00	0	31	104	0	60	55008
2026-01-08 16:57:48.22	21.63	6.63	-48.4	-63.6	3.6	1.51e+00	0	31	104	0	60	54875
2026-01-08 16:57:49.22	21.56	6.69	-48.4	-63.6	3.6	1.51e+00	0	31	104	0	60	54902
2026-01-08 16:57:50.23	21.48	6.76	-48.4	-63.6	3.6	1.51e+00	0	31	104	0	60	54799
2026-01-08 16:57:51.24	21.40	6.83	-48.4	-63.6	3.6	1.51e+00	0	31	104	0	60	54612
2026-01-08 16:57:52.25	21.32	6.89	-48.4	-63.6	3.6	1.51e+00	0	31	104	0	60	54670
2026-01-08 16:57:53.26	21.24	6.96	-48.4	-63.6	3.6	1.51e+00	0	31	104	0	60	54970
2026-01-08 16:57:54.27	21.16	7.03	-48.4	-63.6	3.6	1.51e+00	0	31	104	0	60	54960
2026-01-08 16:57:55.28	21.08	7.10	-48.4	-63.6	3.6	1.51e+00	0	31	104	0	60	54761
2026-01-08 16:57:56.29	21.00	7.16	-48.4	-63.6	3.6	1.51e+00	0	31	104	0	60	54956
2026-01-08 16:57:57.30	20.91	7.23	-48.4	-63.6	3.6	1.51e+00	0	31	104	0	60	54657
2026-01-08 16:57:58.31	20.83	7.30	-48.4	-63.6	3.6	1.51e+00	0	31	104	0	60	54810
2026-01-08 16:57:59.32	20.75	7.37	-48.4	-63.7	3.6	1.51e+00	0	31	104	0	60	55103
2026-01-08 16:58:00.33	20.67	7.44	-48.4	-63.6	3.6	1.51e+00	0	31	104	0	60	54568
2026-01-08 16:58:01.34	20.58	7.50	-48.4	-63.6	3.6	1.51e+00	0	31	104	0	60	54661
2026-01-08 16:58:02.35	20.50	7.57	-48.4	-63.6	3.6	1.51e+00	0	31	104	0	60	54851
2026-01-08 16:58:03.35	20.42	7.64	-48.4	-63.6	3.6	1.51e+00	0	31	104	0	60	54664
2026-01-08 16:58:04.37	20.33	7.71	-48.4	-63.6	3.6	1.51e+00	0	31	104	0	60	54670
2026-01-08 16:58:05.37	20.25	7.78	-48.4	-63.6	3.6	1.51e+00	0	31	104	0	60	54825
2026-01-08 16:58:06.38	20.16	7.85	-48.4	-63.6	3.6	1.51e+00	0	31	104	0	60	54896
2026-01-08 16:58:07.39	20.08	7.92	-48.4	-63.6	3.6	1.51e+00	0	31	104	0	60	54836
2026-01-08 16:58:08.40	19.99	7.99	-48.4	-63.6	3.6	1.51e+00	0	31	104	0	60	54710
2026-01-08 16:58:09.41	19.91	8.06	-48.4	-63.6	3.6	1.51e+00	0	31	104	0	60	54569
2026-01-08 16:58:10.42	19.82	8.13	-48.4	-63.6	3.6	1.51e+00	0	31	104	0	60	54908
2026-01-08 16:58:11.43	19.73	8.19	-48.4	-63.7	3.6	1.51e+00	0	31	104	0	60	55054
2026-01-08 16:58:12.44	19.64	8.26	-48.4	-63.6	3.6	1.51e+00	0	31	104	0	60	54776
2026-01-08 16:58:13.45	19.56	8.33	-48.5	-63.7	3.6	1.51e+00	0	31	104	0	60	55088
2026-01-08 16:58:14.46	19.47	8.40	-48.4	-63.6	3.6	1.51e+00	0	31	104	0	60	54568
2026-01-08 16:58:15.47	19.38	8.47	-48.4	-63.6	3.6	1.51e+00	0	31	104	0	60	54851
2026-01-08 16:58:16.48	19.29	8.54	-48.4	-63.6	3.6	1.51e+00	0	31	104	0	60	54906
2026-01-08 16:58:17.49	19.20	8.62	-48.4	-63.6	3.6	1.51e+00	0	31	104	0	60	54732
2026-01-08 16:58:18.50	19.11	8.69	-48.4	-63.6	3.6	1.51e+00	0	31	104	0	60	54699
2026-01-08 16:58:19.51	19.02	8.76	-48.4	-63.6	3.6	1.51e+00	0	31	104	0	60	54546
2026-01-08 16:58:20.52	18.92	8.83	-48.4	-63.6	3.6	1.51e+00	0	31	104	0	60	54729
2026-01-08 16:58:21.52	18.83	8.90	-48.4	-63.6	3.6	1.51e+00	0	31	104	0	60	55025
2026-01-08 16:58:22.53	18.74	8.97	-48.4	-63.6	3.6	1.51e+00	0	31	104	0	60	54521
2026-01-08 16:58:23.54	18.65	9.04	-48.4	-63.6	3.5	1.51e+00	0	31	104	0	60	54796
2026-01-08 16:58:24.56	18.55	9.11	-48.4	-63.6	3.6	1.51e+00	0	31	104	0	60	54792
2026-01-08 16:58:25.57	18.46	9.18	-48.4	-63.6	3.6	1.51e+00	0	31	104	0	60	55011
2026-01-08 16:58:26.58	18.37	9.25	-48.4	-63.7	3.6	1.51e+00	0	31	104	0	60	55080
2026-01-08 16:58:27.59	18.27	9.33	-48.4	-63.6	3.6	1.51e+00	0	31	104	0	60	54829
2026-01-08 16:58:28.59	18.18	9.40	-48.4	-63.6	3.6	1.51e+00	0	31	104	0	60	54613
2026-01-08 16:58:29.60	18.08	9.47	-48.4	-63.6	3.6	1.51e+00	0	31	104	0	60	54842
2026-01-08 16:58:30.62	17.98	9.54	-48.4	-63.6	3.6	1.51e+00	0	31	104	0	60	54872
2026-01-08 16:58:31.63	17.89	9.61	-48.4	-63.6	3.6	1.51e+00	0	31	104	0	60	54747
2026-01-08 16:58:32.63	17.79	9.69	-48.4	-63.6	3.6	1.51e+00	0	31	104	0	60	54615
2026-01-08 16:58:33.65	17.69	9.76	-48.4	-63.6	3.6	1.51e+00	0	31	104	0	60	54615
2026-01-08 16:58:34.66	17.60	9.83	-48.4	-63.6	3.6	1.51e+00	0	31	104	0	60	54883
2026-01-08 16:58:35.67	17.50	9.90	-48.4	-63.6	3.6	1.51e+00	0	31	104	0	60	54731
2026-01-08 16:58:36.67	17.40	9.98	-48.4	-63.6	3.6	1.51e+00	0	31	104	0	60	54693
2026-01-08 16:58:37.68	17.30	10.05	-48.4	-63.6	3.6	1.51e+00	0	31	104	0	60	54856
2026-01-08 16:58:38.69	17.20	10.12	-48.4	-63.6	3.6	1.51e+00	0	31	104	0	60	54789
2026-01-08 16:58:39.70	17.10	10.20	-48.4	-63.6	3.6	1.51e+00	0	31	104	0	60	54840
2026-01-08 16:58:40.71	17.00	10.27	-48.4	-63.6	3.5	1.51e+00	0	31	104	0	60	54755
2026-01-08 16:58:41.72	16.89	10.34	-48.4	-63.6	3.6	1.51e+00	0	31	104	0	60	54966
2026-01-08 16:58:42.73	16.79	10.42	-48.4	-63.6	3.6	1.51e+00	0	31	104	0	60	54674
2026-01-08 16:58:43.74	16.69	10.49	-48.4	-63.6	3.6	1.51e+00	0	31	104	0	60	54878
2026-01-08 16:58:44.75	16.59	10.56	-48.4	-63.7	3.6	1.51e+00	0	31	104	0	60	55048
2026-01-08 16:58:45.76	16.48	10.64	-48.5	-63.6	3.6	1.51e+00	0	31	104	0	60	54774
2026-01-08 16:58:46.77	16.38	10.71	-48.5	-63.6	3.6	1.51e+00	0	31	104	0	60	54774
2026-01-08 16:58:47.78	16.27	10.79	-48.5	-63.6	3.6	1.51e+00	0	31	104	0	60	54755
2026-01-08 16:58:48.79	16.17	10.86	-48.5	-63.6	3.6	1.51e+00	0	31	104	0	60	54739
2026-01-08 16:58:49.80	16.06	10.94	-48.5	-63.6	3.6	1.51e+00	0	31	104	0	60	54933
2026-01-08 16:58:50.81	15.95	11.01	-48.5	-63.6	3.6	1.51e+00	0	31	104	0	60	54542
2026-01-08 16:58:51.82	15.85	11.09	-48.4	-63.6	3.5	1.51e+00	0	31	104	0	60	54628
2026-01-08 16:58:52.82	15.74	11.16	-48.4	-63.6	3.6	1.51e+00	0	31	104	0	60	54931
2026-01-08 16:58:53.83	15.63	11.23	-48.5	-63.6	3.6	1.51e+00	0	31	104	0	60	54809
2026-01-08 16:58:54.84	15.52	11.31	-48.5	-63.7	3.6	1.51e+00	0	31	104	0	60	55043
2026-01-08 16:58:55.85	15.41	11.39	-48.5	-63.6	3.6	1.51e+00	0	31	104	0	60	54809
2026-01-08 16:58:56.86	15.30	11.46	-48.5	-63.6	3.6	1.51e+00	0	31	104	0	60	54912
2026-01-08 16:58:57.87	15.19	11.54	-48.4	-63.6	3.6	1.51e+00	0	31	104	0	60	54601
2026-01-08 16:58:58.88	15.08	11.61	-48.4	-63.6	3.6	1.51e+00	0	31	104	0	60	54887
2026-01-08 16:58:59.89	14.97	11.69	-48.4	-63.6	3.6	1.51e+00	0	31	104	0	60	54692
2026-01-08 16:59:00.90	14.86	11.76	-48.4	-63.6	3.6	1.51e+00	0	31	104	0	60	54849
2026-01-08 16:59:01.90	14.74	11.84	-48.4	-63.6	3.6	1.51e+00	0	31	104	0	60	54713
2026-01-08 16:59:02.91	14.63	11.91	-48.4	-63.6	3.6	1.51e+00	0	31	104	0	60	54851
2026-01-08 16:59:03.92	14.52	11.99	-48.4	-63.6	3.6	1.51e+00	0	31	104	0	60	54907
2026-01-08 16:59:04.93	14.40	12.07	-48.4	-63.6	3.6	1.51e+00	0	31	104	0	60	54924
2026-01-08 16:59:05.94	14.29	12.14	-48.4	-63.6	3.6	1.51e+00	0	31	104	0	60	54727
2026-01-08 16:59:06.95	14.17	12.22	-48.4	-63.6	3.6	1.51e+00	0	31	104	0	60	54917
2026-01-08 16:59:07.96	14.05	12.30	-48.4	-63.6	3.6	1.51e+00	0	31	104	0	60	54909
2026-01-08 16:59:08.97	13.94	12.37	-48.5	-63.6	3.6	1.51e+00	0	31	104	0	60	54856
2026-01-08 16:59:09.98	13.82	12.45	-48.4	-63.6	3.6	1.51e+00	0	31	104	0	60	54655
2026-01-08 16:59:10.99	13.70	12.53	-48.4	-63.6	3.6	1.51e+00	0	31	104	0	60	54832
2026-01-08 16:59:12.00	13.58	12.61	-48.4	-63.6	3.6	1.51e+00	0	31	104	0	60	54781
2026-01-08 16:59:13.01	13.46	12.68	-48.4	-63.6	3.6	1.51e+00	0	31	104	0	60	54612
2026-01-08 16:59:14.02	13.34	12.76	-48.4	-63.6	3.6	1.51e+00	0	31	104	0	60	54804
2026-01-08 16:59:15.03	13.22	12.84	-48.4	-63.6	3.6	1.51e+00	0	31	104	0	60	54621
2026-01-08 16:59:16.04	13.10	12.92	-48.4	-63.6	3.6	1.51e+00	0	31	104	0	60	54997
2026-01-08 16:59:17.05	12.97	12.99	-48.4	-63.6	3.6	1.51e+00	0	31	104	0	60	54914
2026-01-08 16:59:18.06	12.85	13.07	-48.4	-63.6	3.6	1.51e+00	0	31	104	0	60	54591
2026-01-08 16:59:19.07	12.73	13.15	-48.4	-63.6	3.6	1.51e+00	0	31	104	0	60	54940
2026-01-08 16:59:20.08	12.60	13.23	-48.4	-63.6	3.6	1.51e+00	0	31	104	0	60	54717
2026-01-08 16:59:21.09	12.48	13.31	-48.4	-63.6	3.6	1.51e+00	0	31	104	0	60	54805
2026-01-08 16:59:22.10	12.35	13.39	-48.4	-63.6	3.6	1.51e+00	0	31	104	0	60	54816
2026-01-08 16:59:23.11	12.22	13.46	-48.4	-63.6	3.6	1.51e+00	0	31	104	0	60	54877
2026-01-08 16:59:24.12	12.10	13.54	-48.4	-63.6	3.6	1.51e+00	0	31	104	0	60	54760
2026-01-08 16:59:25.13	11.97	13.62	-48.4	-63.7	3.6	1.51e+00	0	31	104	0	60	55071
2026-01-08 16:59:26.14	11.84	13.70	-48.4	-63.6	3.6	1.51e+00	0	31	104	0	60	54975
2026-01-08 16:59:27.15	11.71	13.78	-48.4	-63.6	3.6	1.51e+00	0	31	104	0	60	54841
2026-01-08 16:59:28.16	11.58	13.86	-48.5	-63.6	3.6	1.51e+00	0	31	104	0	60	54792
2026-01-08 16:59:29.17	11.45	13.94	-48.5	-63.6	3.6	1.51e+00	0	31	104	0	60	54983
2026-01-08 16:59:30.18	11.32	14.02	-48.5	-63.6	3.6	1.51e+00	0	31	104	0	60	54957
2026-01-08 16:59:31.18	11.19	14.10	-48.4	-63.7	3.6	1.51e+00	0	31	104	0	60	55181
2026-01-08 16:59:32.19	11.05	14.17	-48.4	-63.7	3.6	1.51e+00	0	31	104	0	60	55115
2026-01-08 16:59:33.20	10.92	14.25	-48.4	-63.6	3.6	1.51e+00	0	31	104	0	60	54954
2026-01-08 16:59:34.21	10.78	14.33	-48.4	-63.6	3.6	1.51e+00	0	31	104	0	60	54672
2026-01-08 16:59:35.22	10.65	14.41	-48.4	-63.7	3.6	1.51e+00	0	31	104	0	60	55044
2026-01-08 16:59:36.23	10.51	14.49	-48.4	-63.6	3.6	1.51e+00	0	31	104	0	60	55019
2026-01-08 16:59:37.24	10.38	14.57	-48.4	-63.7	3.6	1.51e+00	0	31	104	0	60	55229
2026-01-08 16:59:38.25	10.24	14.65	-48.4	-63.6	3.6	1.51e+00	0	31	104	0	60	54780
2026-01-08 16:59:39.26	10.10	14.73	-48.5	-63.6	3.6	1.51e+00	0	32	104	0	60	54784
2026-01-08 16:59:40.27	9.96	14.81	-48.5	-63.6	3.6	1.51e+00	0	31	104	0	60	54934
2026-01-08 16:59:41.28	9.82	14.90	-48.5	-63.6	3.6	1.51e+00	0	31	104	0	60	54873
2026-01-08 16:59:42.29	9.68	14.98	-48.5	-63.6	3.6	1.51e+00	0	31	104	0	60	54930
2026-01-08 16:59:43.30	9.54	15.06	-48.4	-63.6	3.6	1.51e+00	0	31	104	0	60	54808
2026-01-08 16:59:44.31	9.40	15.14	-48.4	-63.6	3.6	1.51e+00	0	31	104	0	60	55010
2026-01-08 16:59:45.32	9.25	15.22	-48.4	-63.7	3.6	1.51e+00	0	31	104	0	60	55032
2026-01-08 16:59:46.33	9.11	15.30	-48.4	-63.6	3.6	1.51e+00	0	32	104	0	60	54749
2026-01-08 16:59:47.34	8.97	15.38	-48.5	-63.6	3.6	1.51e+00	0	31	104	0	60	54885
2026-01-08 16:59:48.35	8.82	15.46	-48.5	-63.6	3.6	1.51e+00	0	32	104	0	60	54993
2026-01-08 16:59:49.35	8.68	15.54	-48.4	-63.6	3.6	1.51e+00	0	32	104	0	60	54919
2026-01-08 16:59:50.36	8.53	15.62	-48.5	-63.6	3.6	1.51e+00	0	32	104	0	60	54873
2026-01-08 16:59:51.37	8.38	15.70	-48.5	-63.6	3.6	1.51e+00	0	31	104	0	60	54727
2026-01-08 16:59:52.37	8.23	15.78	-48.5	-63.6	3.6	1.51e+00	0	31	104	0	60	54824
2026-01-08 16:59:53.38	8.08	15.86	-48.5	-63.6	3.6	1.51e+00	0	31	104	0	60	54910
2026-01-08 16:59:54.39	7.93	15.95	-48.5	-63.6	3.6	1.51e+00	0	31	104	0	60	54937
2026-01-08 16:59:55.40	7.78	16.03	-48.5	-63.6	3.6	1.51e+00	0	31	104	0	60	54899
2026-01-08 16:59:56.41	7.63	16.11	-48.5	-63.6	3.6	1.51e+00	0	31	104	0	60	54815
2026-01-08 16:59:57.42	7.48	16.19	-48.5	-63.6	3.6	1.51e+00	0	32	104	0	60	54764
2026-01-08 16:59:58.43	7.32	16.27	-48.4	-63.6	3.6	1.51e+00	0	31	104	0	60	54794
2026-01-08 16:59:59.44	7.17	16.35	-48.4	-63.6	3.6	1.51e+00	0	31	104	0	60	54664
2026-01-08 17:00:00.45	7.01	16.44	-48.4	-63.6	3.6	1.51e+00	0	31	104	0	60	54928
2026-01-08 17:00:01.46	6.86	16.52	-48.4	-63.6	3.6	1.51e+00	0	32	104	0	60	54861
2026-01-08 17:00:02.47	6.70	16.60	-48.4	-63.6	3.6	1.51e+00	0	32	104	0	60	54882
2026-01-08 17:00:03.48	6.54	16.68	-48.4	-63.6	3.6	1.51e+00	0	31	104	0	60	54944
2026-01-08 17:00:04.49	6.38	16.76	-48.5	-63.7	3.6	1.51e+00	0	32	104	0	60	55183
2026-01-08 17:00:05.50	6.22	16.85	-48.5	-63.6	3.6	1.51e+00	0	32	104	0	60	54617
2026-01-08 17:00:06.51	6.06	16.93	-48.5	-63.6	3.6	1.51e+00	0	32	104	0	60	54968
2026-01-08 17:00:07.51	5.90	17.01	-48.5	-63.6	3.6	1.51e+00	0	32	104	0	60	55020
2026-01-08 17:00:08.53	5.74	17.09	-48.5	-63.6	3.6	1.51e+00	0	32	104	0	60	54956
2026-01-08 17:00:09.54	5.58	17.18	-48.5	-63.6	3.6	1.51e+00	0	32	104	0	60	54899
2026-01-08 17:00:10.54	5.41	17.26	-48.5	-63.6	3.6	1.51e+00	0	32	104	0	60	54963
2026-01-08 17:00:11.56	5.25	17.34	-48.5	-63.6	3.6	1.51e+00	0	32	104	0	60	54936
2026-01-08 17:00:12.56	5.08	17.42	-48.5	-63.6	3.6	1.51e+00	0	32	104	0	60	54651
2026-01-08 17:00:13.58	4.91	17.50	-48.5	-63.6	3.6	1.51e+00	0	31	104	0	60	54709
2026-01-08 17:00:14.59	4.75	17.59	-48.5	-63.7	3.6	1.51e+00	0	31	104	0	60	55070
2026-01-08 17:00:15.60	4.58	17.67	-48.5	-63.6	3.6	1.51e+00	0	32	104	0	60	54589
2026-01-08 17:00:16.60	4.41	17.75	-48.5	-63.7	3.6	1.51e+00	0	31	104	0	60	55363
2026-01-08 17:00:17.62	4.24	17.83	-48.5	-63.6	3.6	1.51e+00	0	32	104	0	60	54737
2026-01-08 17:00:18.63	4.06	17.92	-48.5	-63.6	3.6	1.51e+00	0	32	104	0	60	54955
2026-01-08 17:00:19.63	3.89	18.00	-48.5	-63.7	3.6	1.51e+00	0	32	104	0	60	55035
2026-01-08 17:00:20.65	3.72	18.08	-48.5	-63.6	3.6	1.51e+00	0	32	104	0	60	54883
2026-01-08 17:00:21.66	3.54	18.16	-48.5	-63.6	3.6	1.51e+00	0	32	104	0	60	54994
2026-01-08 17:00:22.67	3.37	18.25	-48.4	-63.6	3.6	1.51e+00	0	32	104	0	60	54867
2026-01-08 17:00:23.68	3.19	18.33	-48.5	-63.7	3.6	1.51e+00	0	31	104	0	60	55165
2026-01-08 17:00:24.69	3.01	18.41	-48.4	-63.6	3.6	1.51e+00	0	32	104	0	60	54818
2026-01-08 17:00:25.70	2.84	18.49	-48.4	-63.6	3.6	1.51e+00	0	32	104	0	60	54963
2026-01-08 17:00:26.71	2.66	18.58	-48.4	-63.6	3.6	1.51e+00	0	32	104	0	60	54963
2026-01-08 17:00:27.72	2.48	18.66	-48.4	-63.6	3.6	1.51e+00	0	31	104	0	60	54901
2026-01-08 17:00:28.73	2.29	18.74	-48.4	-63.6	3.6	1.51e+00	0	32	104	0	60	54849
2026-01-08 17:00:29.74	2.11	18.82	-48.4	-63.6	3.6	1.51e+00	0	31	104	0	60	54907
2026-01-08 17:00:30.75	1.93	18.91	-48.4	-63.7	3.6	1.51e+00	0	32	104	0	60	55083
2026-01-08 17:00:31.76	1.74	18.99	-48.4	-63.6	3.6	1.51e+00	0	32	104	0	60	54539
2026-01-08 17:00:32.76	1.56	19.07	-48.5	-63.6	3.6	1.51e+00	0	32	104	0	60	54836
2026-01-08 17:00:33.77	1.37	19.15	-48.4	-63.6	3.6	1.51e+00	0	32	104	0	60	54685
2026-01-08 17:00:34.78	1.19	19.23	-48.5	-63.6	3.6	1.51e+00	0	32	104	0	60	54670
2026-01-08 17:00:35.79	1.00	19.32	-48.4	-63.7	3.6	1.51e+00	0	31	104	0	60	55071
2026-01-08 17:00:36.80	0.81	19.40	-48.4	-63.6	3.6	1.51e+00	0	32	104	0	60	54871
2026-01-08 17:00:37.81	0.62	19.48	-48.4	-63.6	3.6	1.51e+00	0	32	104	0	60	54806
2026-01-08 17:00:38.82	0.42	19.56	-48.4	-63.6	3.5	1.51e+00	0	32	104	0	60	54816
2026-01-08 17:00:39.83	0.23	19.64	-48.4	-63.6	3.6	1.51e+00	0	31	104	0	60	54763
2026-01-08 17:00:40.84	0.04	19.73	-48.4	-63.6	3.6	1.51e+00	0	32	104	0	60	54891
2026-01-08 17:00:41.85	359.84	19.81	-48.4	-63.6	3.6	1.51e+00	0	31	104	0	60	54937
2026-01-08 17:00:42.86	359.65	19.89	-48.4	-63.7	3.6	1.51e+00	0	31	104	0	60	55041
2026-01-08 17:00:43.87	359.45	19.97	-48.4	-63.7	3.6	1.51e+00	0	31	104	0	60	55081
2026-01-08 17:00:44.87	359.25	20.05	-48.4	-63.6	3.6	1.51e+00	0	31	104	0	60	54593
2026-01-08 17:00:45.88	359.05	20.13	-48.4	-63.6	3.6	1.51e+00	0	32	104	0	60	54757
2026-01-08 17:00:46.89	358.85	20.21	-48.4	-63.6	3.6	1.51e+00	0	32	104	0	60	54830
2026-01-08 17:00:47.90	358.65	20.29	-48.4	-63.6	3.6	1.51e+00	0	32	104	0	60	54907
2026-01-08 17:00:48.91	358.45	20.38	-48.4	-63.6	3.6	1.51e+00	0	32	104	0	60	54919
2026-01-08 17:00:49.92	358.25	20.46	-48.4	-63.6	3.6	1.51e+00	0	32	104	0	60	54990
2026-01-08 17:00:50.93	358.04	20.54	-48.4	-63.6	3.5	1.51e+00	0	32	104	0	60	54768
2026-01-08 17:00:51.94	357.84	20.62	-48.4	-63.6	3.6	1.51e+00	0	31	104	0	60	54729
2026-01-08 17:00:52.95	357.63	20.70	-48.4	-63.6	3.6	1.51e+00	0	32	104	0	60	54932
2026-01-08 17:00:53.96	357.42	20.78	-48.4	-63.6	3.6	1.51e+00	0	32	104	0	60	54968
2026-01-08 17:00:54.97	357.21	20.86	-48.4	-63.6	3.6	1.51e+00	0	31	104	0	60	54538
2026-01-08 17:00:55.98	357.00	20.94	-48.4	-63.6	3.6	1.51e+00	0	32	104	0	60	54947
2026-01-08 17:00:56.98	356.79	21.02	-48.4	-63.6	3.6	1.51e+00	0	32	104	0	60	54608
2026-01-08 17:00:58.00	356.58	21.10	-48.4	-63.6	3.6	1.51e+00	0	32	104	0	60	54569
2026-01-08 17:00:59.00	356.37	21.18	-48.4	-63.6	3.6	1.51e+00	0	32	104	0	60	54750
2026-01-08 17:01:00.01	356.15	21.26	-48.4	-63.6	3.6	1.51e+00	0	32	104	0	60	54924
2026-01-08 17:01:01.02	355.94	21.34	-48.4	-63.6	3.6	1.51e+00	0	32	104	0	60	54729
2026-01-08 17:01:02.03	355.72	21.41	-48.4	-63.6	3.6	1.51e+00	0	32	104	0	60	54649
2026-01-08 17:01:03.04	355.50	21.49	-48.4	-63.6	3.6	1.51e+00	0	32	104	0	60	54909
2026-01-08 17:01:04.05	355.29	21.57	-48.4	-63.6	3.6	1.51e+00	0	32	104	0	60	54552
2026-01-08 17:01:05.06	355.07	21.65	-48.4	-63.6	3.6	1.51e+00	0	31	104	0	60	54574
2026-01-08 17:01:06.07	354.84	21.73	-48.4	-63.6	3.6	1.51e+00	0	32	104	0	60	54541
2026-01-08 17:01:07.08	354.62	21.81	-48.4	-63.6	3.6	1.51e+00	0	32	104	0	60	54959
2026-01-08 17:01:08.08	354.40	21.88	-48.4	-63.6	3.6	1.51e+00	0	32	104	0	60	54919
2026-01-08 17:01:09.09	354.18	21.96	-48.4	-63.6	3.6	1.51e+00	0	32	104	0	60	54753
2026-01-08 17:01:10.10	353.95	22.04	-48.4	-63.6	3.6	1.51e+00	0	32	104	0	60	54840
2026-01-08 17:01:11.11	353.72	22.11	-48.4	-63.6	3.6	1.51e+00	0	32	104	0	60	54697
2026-01-08 17:01:12.12	353.49	22.19	-48.4	-63.6	3.6	1.51e+00	0	32	104	0	60	54647
2026-01-08 17:01:13.13	353.27	22.27	-48.4	-63.6	3.6	1.51e+00	0	32	104	0	60	54799
2026-01-08 17:01:14.14	353.04	22.34	-48.4	-63.6	3.6	1.51e+00	0	32	104	0	60	54637
2026-01-08 17:01:15.15	352.80	22.42	-48.4	-63.6	3.6	1.51e+00	0	32	104	0	60	54540
2026-01-08 17:01:16.16	352.57	22.50	-48.4	-63.6	3.6	1.51e+00	0	31	104	0	60	54614
2026-01-08 17:01:17.17	352.34	22.57	-48.4	-63.6	3.6	1.51e+00	0	31	104	0	60	54635
2026-01-08 17:01:18.18	352.10	22.65	-48.4	-63.6	3.6	1.51e+00	0	31	104	0	60	54638
2026-01-08 17:01:19.19	351.87	22.72	-48.4	-63.6	3.6	1.51e+00	0	31	104	0	60	54582
2026-01-08 17:01:20.20	351.63	22.80	-48.4	-63.6	3.6	1.51e+00	0	31	104	0	60	54595
2026-01-08 17:01:21.21	351.39	22.87	-48.4	-63.6	3.6	1.51e+00	0	31	104	0	60	54683
2026-01-08 17:01:22.22	351.15	22.94	-48.4	-63.6	3.6	1.51e+00	0	31	104	0	60	54616
2026-01-08 17:01:23.23	350.91	23.02	-48.4	-63.6	3.6	1.51e+00	0	32	104	0	60	54890
2026-01-08 17:01:24.24	350.67	23.09	-48.4	-63.6	3.6	1.51e+00	0	31	104	0	60	54593
2026-01-08 17:01:25.25	350.43	23.16	-48.4	-63.6	3.5	1.51e+00	0	31	104	0	60	54529
2026-01-08 17:01:26.26	350.18	23.24	-48.4	-63.6	3.6	1.51e+00	0	32	104	0	60	54808
2026-01-08 17:01:27.26	349.94	23.31	-48.4	-63.6	3.6	1.51e+00	0	32	104	0	60	54447
2026-01-08 17:01:28.27	349.69	23.38	-48.4	-63.6	3.6	1.51e+00	0	32	104	0	60	54642
2026-01-08 17:01:29.28	349.44	23.45	-48.4	-63.6	3.6	1.51e+00	0	32	104	0	60	54751
2026-01-08 17:01:30.29	349.20	23.52	-48.4	-63.6	3.6	1.51e+00	0	32	104	0	60	54705
2026-01-08 17:01:31.30	348.95	23.59	-48.4	-63.5	3.6	1.51e+00	0	32	104	0	60	54309
2026-01-08 17:01:32.31	348.70	23.66	-48.4	-63.6	3.6	1.51e+00	0	32	104	0	60	54566
2026-01-08 17:01:33.32	348.44	23.73	-48.4	-63.6	3.6	1.51e+00	0	32	104	0	60	54962
2026-01-08 17:01:34.33	348.19	23.80	-48.4	-63.6	3.6	1.51e+00	0	32	104	0	60	54539
2026-01-08 17:01:35.34	347.94	23.87	-48.4	-63.5	3.6	1.51e+00	0	31	104	0	60	54270
2026-01-08 17:01:36.35	347.68	23.94	-48.4	-63.6	3.6	1.51e+00	0	32	104	0	60	54604
2026-01-08 17:01:37.36	347.42	24.01	-48.4	-63.5	3.6	1.51e+00	0	32	104	0	60	54394
2026-01-08 17:01:38.37	347.17	24.07	-48.4	-63.6	3.6	1.51e+00	0	32	104	0	60	54638
2026-01-08 17:01:39.38	346.91	24.14	-48.4	-63.6	3.6	1.51e+00	0	32	104	0	60	54577
2026-01-08 17:01:40.39	346.65	24.21	-48.4	-63.6	3.6	1.51e+00	0	32	104	0	60	54440
2026-01-08 17:01:41.40	346.39	24.27	-48.4	-63.5	3.6	1.51e+00	0	32	104	0	60	54324
2026-01-08 17:01:42.41	346.12	24.34	-48.4	-63.5	3.6	1.51e+00	0	32	104	0	60	54254
2026-01-08 17:01:43.42	345.86	24.41	-48.4	-63.5	3.6	1.51e+00	0	32	104	0	60	54192
2026-01-08 17:01:44.43	345.60	24.47	-48.4	-63.5	3.6	1.51e+00	0	32	104	0	60	54332
2026-01-08 17:01:45.44	345.33	24.53	-48.4	-63.6	3.6	1.51e+00	0	32	104	0	60	54416
2026-01-08 17:01:46.44	345.07	24.60	-48.4	-63.5	3.6	1.51e+00	0	32	104	0	60	54277
2026-01-08 17:01:47.45	344.80	24.66	-48.4	-63.5	3.6	1.51e+00	0	31	104	0	60	54316
2026-01-08 17:01:48.46	344.53	24.72	-48.4	-63.6	3.6	1.51e+00	0	32	104	0	60	54443
2026-01-08 17:01:49.47	344.26	24.78	-48.4	-63.5	3.6	1.51e+00	0	32	104	0	60	54137
2026-01-08 17:01:50.48	343.99	24.85	-48.4	-63.6	3.6	1.51e+00	0	31	104	0	60	54454
2026-01-08 17:01:51.49	343.72	24.91	-48.4	-63.6	3.6	1.51e+00	0	32	104	0	60	54445
2026-01-08 17:01:52.50	343.44	24.97	-48.4	-63.5	3.6	1.51e+00	0	32	104	0	60	54286
2026-01-08 17:01:53.51	343.17	25.03	-48.4	-63.5	3.6	1.51e+00	0	32	104	0	60	54309
2026-01-08 17:01:54.52	342.89	25.09	-48.4	-63.5	3.6	1.51e+00	0	32	104	0	60	54254
2026-01-08 17:01:55.53	342.62	25.15	-48.3	-63.5	3.6	1.51e+00	0	32	104	0	60	54145
2026-01-08 17:01:56.54	342.34	25.20	-48.4	-63.5	3.6	1.51e+00	0	32	104	0	60	54335
2026-01-08 17:01:57.55	342.06	25.26	-48.4	-63.5	3.6	1.51e+00	0	32	104	0	60	54249
2026-01-08 17:01:58.55	341.79	25.32	-48.4	-63.5	3.6	1.51e+00	0	32	104	0	60	54299
2026-01-08 17:01:59.56	341.51	25.37	-48.3	-63.5	3.6	1.51e+00	0	32	104	0	60	54173
2026-01-08 17:02:00.57	341.22	25.43	-48.3	-63.5	3.6	1.51e+00	0	31	104	0	60	54174
2026-01-08 17:02:01.58	340.94	25.48	-48.3	-63.5	3.6	1.51e+00	0	32	104	0	60	54127
2026-01-08 17:02:02.59	340.66	25.54	-48.3	-63.5	3.6	1.51e+00	0	31	104	0	60	54139
2026-01-08 17:02:03.60	340.37	25.59	-48.3	-63.5	3.6	1.51e+00	0	32	104	0	60	54025
2026-01-08 17:02:04.61	340.09	25.64	-48.3	-63.6	3.6	1.51e+00	0	31	104	0	60	54429
2026-01-08 17:02:05.62	339.80	25.70	-48.3	-63.5	3.6	1.51e+00	0	32	104	0	60	54023
2026-01-08 17:02:06.63	339.52	25.75	-48.3	-63.5	3.6	1.51e+00	0	32	104	0	60	54238
2026-01-08 17:02:07.64	339.23	25.80	-48.3	-63.5	3.6	1.51e+00	0	32	104	0	60	54343
2026-01-08 17:02:08.65	338.94	25.85	-48.3	-63.5	3.6	1.51e+00	0	32	104	0	60	54162
2026-01-08 17:02:09.66	338.65	25.90	-48.3	-63.5	3.6	1.51e+00	0	31	104	0	60	54257
2026-01-08 17:02:10.67	338.36	25.95	-48.3	-63.5	3.6	1.51e+00	0	31	104	0	60	53898
2026-01-08 17:02:11.68	338.07	26.00	-48.3	-63.5	3.6	1.51e+00	0	31	104	0	60	54177
2026-01-08 17:02:12.69	337.77	26.04	-48.3	-63.5	3.6	1.51e+00	0	32	104	0	60	54266
2026-01-08 17:02:13.69	337.48	26.09	-48.3	-63.5	3.6	1.51e+00	0	32	104	0	60	54158
2026-01-08 17:02:14.70	337.19	26.13	-48.3	-63.5	3.6	1.51e+00	0	32	104	0	60	54140
2026-01-08 17:02:15.71	336.89	26.18	-48.3	-63.5	3.6	1.51e+00	0	31	104	0	60	53939
2026-01-08 17:02:16.72	336.60	26.22	-48.3	-63.5	3.5	1.51e+00	0	31	104	0	60	53950
2026-01-08 17:02:17.73	336.30	26.27	-48.3	-63.5	3.6	1.51e+00	0	31	104	0	60	54278
2026-01-08 17:02:18.74	336.00	26.31	-48.3	-63.5	3.6	1.51e+00	0	32	104	0	60	53856
2026-01-08 17:02:19.75	335.70	26.35	-48.3	-63.5	3.6	1.51e+00	0	32	104	0	60	54123
2026-01-08 17:02:20.76	335.41	26.39	-48.3	-63.5	3.6	1.51e+00	0	32	104	0	60	53838
2026-01-08 17:02:21.77	335.11	26.43	-48.3	-63.5	3.6	1.51e+00	0	31	104	0	60	53876
2026-01-08 17:02:22.78	334.80	26.47	-48.3	-63.5	3.6	1.51e+00	0	32	104	0	60	53845
2026-01-08 17:02:23.79	334.50	26.51	-48.3	-63.4	3.6	1.51e+00	0	31	104	0	60	53694
2026-01-08 17:02:24.80	334.20	26.55	-48.3	-63.5	3.6	1.51e+00	0	32	104	0	60	54109
2026-01-08 17:02:25.80	333.90	26.59	-48.3	-63.5	3.6	1.51e+00	0	31	104	0	60	53899
2026-01-08 17:02:26.81	333.60	26.62	-48.3	-63.5	3.6	1.51e+00	0	31	104	0	60	53971
2026-01-08 17:02:27.82	333.29	26.66	-48.3	-63.4	3.6	1.51e+00	0	31	104	0	60	53636
2026-01-08 17:02:28.83	332.99	26.69	-48.3	-63.5	3.6	1.51e+00	0	32	104	0	60	53928
2026-01-08 17:02:29.84	332.68	26.73	-48.3	-63.5	3.6	1.51e+00	0	32	104	0	60	53813
2026-01-08 17:02:30.85	332.37	26.76	-48.3	-63.4	3.6	1.51e+00	0	32	104	0	60	53646
2026-01-08 17:02:31.86	332.07	26.79	-48.3	-63.4	3.6	1.51e+00	0	31	104	0	60	53772
2026-01-08 17:02:32.87	331.76	26.82	-48.3	-63.4	3.6	1.51e+00	0	32	104	0	60	53766
2026-01-08 17:02:33.88	331.45	26.85	-48.3	-63.4	3.6	1.51e+00	0	32	104	0	60	53619
2026-01-08 17:02:34.89	331.14	26.88	-48.3	-63.4	3.6	1.51e+00	0	32	104	0	60	53618
2026-01-08 17:02:35.90	330.83	26.91	-48.3	-63.5	3.6	1.51e+00	0	32	104	0	60	53828
2026-01-08 17:02:36.91	330.52	26.94	-48.3	-63.5	3.6	1.51e+00	0	32	104	0	60	54013
2026-01-08 17:02:37.92	330.21	26.96	-48.2	-63.5	3.6	1.51e+00	0	31	104	0	60	53911
2026-01-08 17:02:38.93	329.90	26.99	-48.3	-63.5	3.6	1.51e+00	0	31	104	0	60	53883
2026-01-08 17:02:39.94	329.59	27.01	-48.3	-63.5	3.6	1.51e+00	0	32	104	0	60	53792
2026-01-08 17:02:40.95	329.28	27.04	-48.3	-63.4	3.6	1.51e+00	0	31	104	0	60	53466
2026-01-08 17:02:41.95	328.97	27.06	-48.3	-63.4	3.6	1.51e+00	0	31	104	0	60	53528
2026-01-08 17:02:42.96	328.66	27.08	-48.3	-63.5	3.6	1.51e+00	0	32	104	0	60	53827
2026-01-08 17:02:43.97	328.34	27.10	-48.3	-63.4	3.6	1.51e+00	0	32	104	0	60	53577
2026-01-08 17:02:44.98	328.03	27.12	-48.3	-63.4	3.6	1.51e+00	0	32	104	0	60	53662
2026-01-08 17:02:45.99	327.71	27.14	-48.3	-63.4	3.6	1.51e+00	0	32	104	0	60	53651
2026-01-08 17:02:47.00	327.40	27.16	-48.3	-63.4	3.6	1.51e+00	0	31	104	0	60	53415
2026-01-08 17:02:48.01	327.08	27.18	-48.3	-63.4	3.6	1.51e+00	0	32	104	0	60	53385
2026-01-08 17:02:49.02	326.77	27.20	-48.3	-63.4	3.6	1.51e+00	0	32	104	0	60	53621
2026-01-08 17:02:50.03	326.45	27.21	-48.3	-63.5	3.6	1.51e+00	0	32	104	0	60	53898
2026-01-08 17:02:51.04	326.14	27.23	-48.3	-63.4	3.6	1.51e+00	0	32	104	0	60	53674
2026-01-08 17:02:52.05	325.82	27.24	-48.3	-63.4	3.6	1.51e+00	0	32	104	0	60	53375
2026-01-08 17:02:53.06	325.51	27.25	-48.2	-63.4	3.6	1.51e+00	0	32	104	0	60	53393
2026-01-08 17:02:54.07	325.19	27.26	-48.3	-63.4	3.6	1.51e+00	0	31	104	0	60	53543
2026-01-08 17:02:55.08	324.87	27.27	-48.3	-63.4	3.6	1.51e+00	0	32	104	0	60	53542
2026-01-08 17:02:56.09	324.55	27.28	-48.2	-63.4	3.6	1.51e+00	0	32	104	0	60	53416
2026-01-08 17:02:57.10	324.24	27.29	-48.2	-63.5	3.6	1.51e+00	0	32	104	0	60	53999
2026-01-08 17:02:58.11	323.92	27.30	-48.2	-63.4	3.6	1.51e+00	0	31	104	0	60	53579
2026-01-08 17:02:59.11	323.61	27.31	-48.2	-63.4	3.6	1.51e+00	0	32	104	0	60	53723
2026-01-08 17:03:00.12	323.29	27.31	-48.2	-63.4	3.6	1.51e+00	0	32	104	0	60	53568
2026-01-08 17:03:01.13	322.97	27.32	-48.2	-63.4	3.6	1.51e+00	0	31	104	0	60	53708
2026-01-08 17:03:02.14	322.65	27.32	-48.2	-63.4	3.6	1.51e+00	0	32	104	0	60	53412
2026-01-08 17:03:03.15	322.33	27.32	-48.2	-63.4	3.6	1.51e+00	0	32	104	0	60	53729
2026-01-08 17:03:04.16	322.02	27.33	-48.2	-63.4	3.6	1.51e+00	0	31	104	0	60	53598
2026-01-08 17:03:05.17	321.70	27.33	-48.2	-63.4	3.5	1.51e+00	0	32	104	0	60	53538
2026-01-08 17:03:06.17	321.38	27.33	-48.2	-63.4	3.6	1.51e+00	0	32	104	0	60	53494
2026-01-08 17:03:07.18	321.06	27.33	-48.2	-63.4	3.6	1.51e+00	0	32	104	0	60	53298
2026-01-08 17:03:08.19	320.75	27.32	-48.2	-63.4	3.6	1.51e+00	0	32	104	0	60	53326
2026-01-08 17:03:09.20	320.43	27.32	-48.2	-63.4	3.6	1.51e+00	0	32	104	0	60	53190
2026-01-08 17:03:10.21	320.11	27.32	-48.2	-63.4	3.6	1.51e+00	0	32	104	0	60	53461
2026-01-08 17:03:11.22	319.79	27.31	-48.2	-63.4	3.6	1.51e+00	0	31	104	0	60	53197
2026-01-08 17:03:12.23	319.47	27.31	-48.2	-63.3	3.6	1.51e+00	0	31	104	0	60	53118
2026-01-08 17:03:13.24	319.16	27.30	-48.2	-63.3	3.6	1.51e+00	0	31	104	0	60	53116
2026-01-08 17:03:14.25	318.84	27.29	-48.2	-63.4	3.6	1.51e+00	0	32	104	0	60	53204
2026-01-08 17:03:15.26	318.52	27.28	-48.2	-63.4	3.6	1.51e+00	0	32	104	0	60	53399
2026-01-08 17:03:16.27	318.21	27.27	-48.2	-63.4	3.6	1.51e+00	0	31	104	0	60	53675
2026-01-08 17:03:17.28	317.89	27.26	-48.2	-63.4	3.6	1.51e+00	0	31	104	0	60	53327
2026-01-08 17:03:18.29	317.57	27.25	-48.2	-63.4	3.6	1.51e+00	0	32	104	0	60	53176
2026-01-08 17:03:19.30	317.25	27.24	-48.2	-63.3	3.6	1.51e+00	0	32	104	0	60	53151
2026-01-08 17:03:20.31	316.94	27.22	-48.2	-63.3	3.6	1.51e+00	0	31	104	0	60	53147
2026-01-08 17:03:21.32	316.62	27.21	-48.2	-63.4	3.5	1.51e+00	0	32	104	0	60	53371
2026-01-08 17:03:22.32	316.31	27.19	-48.2	-63.4	3.6	1.51e+00	0	32	104	0	60	53285
2026-01-08 17:03:23.34	315.99	27.18	-48.2	-63.3	3.6	1.51e+00	0	31	104	0	60	53083
2026-01-08 17:03:24.34	315.68	27.16	-48.2	-63.4	3.6	1.51e+00	0	32	104	0	60	53338
2026-01-08 17:03:25.35	315.37	27.14	-48.2	-63.4	3.6	1.51e+00	0	32	104	0	60	53216
2026-01-08 17:03:26.36	315.05	27.12	-48.1	-63.3	3.6	1.51e+00	0	31	104	0	60	53146
2026-01-08 17:03:27.37	314.74	27.10	-48.1	-63.3	3.6	1.51e+00	0	32	104	0	60	53142
2026-01-08 17:03:28.38	314.42	27.08	-48.1	-63.3	3.6	1.51e+00	0	32	104	0	60	53042
2026-01-08 17:03:29.39	314.11	27.06	-48.1	-63.4	3.6	1.51e+00	0	32	104	0	60	53285
2026-01-08 17:03:30.40	313.80	27.03	-48.1	-63.3	3.6	1.51e+00	0	32	104	0	60	52952
2026-01-08 17:03:31.41	313.49	27.01	-48.1	-63.3	3.6	1.51e+00	0	31	104	0	60	53014
2026-01-08 17:03:32.42	313.17	26.99	-48.1	-63.3	3.6	1.51e+00	0	31	104	0	60	52874
2026-01-08 17:03:33.43	312.86	26.96	-48.1	-63.3	3.6	1.51e+00	0	31	104	0	60	52882
2026-01-08 17:03:34.44	312.55	26.93	-48.1	-63.3	3.6	1.51e+00	0	32	104	0	60	53046
2026-01-08 17:03:35.45	312.24	26.90	-48.1	-63.4	3.6	1.51e+00	0	31	104	0	60	53235
2026-01-08 17:03:36.46	311.93	26.88	-48.1	-63.3	3.6	1.51e+00	0	32	104	0	60	52974
2026-01-08 17:03:37.47	311.62	26.85	-48.1	-63.3	3.6	1.51e+00	0	32	104	0	60	52846
2026-01-08 17:03:38.48	311.31	26.82	-48.1	-63.3	3.6	1.51e+00	0	32	104	0	60	52907
2026-01-08 17:03:39.49	311.01	26.79	-48.1	-63.3	3.6	1.51e+00	0	32	104	0	60	52946
2026-01-08 17:03:40.49	310.70	26.75	-48.2	-63.3	3.6	1.51e+00	0	32	104	0	60	53051
2026-01-08 17:03:41.50	310.40	26.72	-48.2	-63.3	3.6	1.51e+00	0	32	104	0	60	53047
2026-01-08 17:03:42.51	310.09	26.69	-48.1	-63.3	3.6	1.51e+00	0	32	104	0	60	52677
2026-01-08 17:03:43.52	309.78	26.65	-48.1	-63.3	3.6	1.51e+00	0	32	104	0	60	53033
2026-01-08 17:03:44.53	309.48	26.62	-48.1	-63.3	3.6	1.51e+00	0	32	104	0	60	53049
2026-01-08 17:03:45.54	309.18	26.58	-48.1	-63.3	3.6	1.51e+00	0	32	104	0	60	53032
2026-01-08 17:03:46.55	308.87	26.54	-48.1	-63.3	3.6	1.51e+00	0	32	104	0	60	52918
2026-01-08 17:03:47.56	308.57	26.50	-48.1	-63.3	3.6	1.51e+00	0	32	104	0	60	52864
2026-01-08 17:03:48.56	308.27	26.47	-48.1	-63.3	3.6	1.51e+00	0	32	104	0	60	52725
2026-01-08 17:03:49.58	307.97	26.43	-48.1	-63.3	3.6	1.51e+00	0	32	104	0	60	52663
2026-01-08 17:03:50.58	307.67	26.39	-48.1	-63.3	3.6	1.51e+00	0	32	104	0	60	52722
2026-01-08 17:03:51.59	307.37	26.34	-48.1	-63.3	3.6	1.51e+00	0	32	104	0	60	52713
2026-01-08 17:03:52.60	307.07	26.30	-48.1	-63.2	3.6	1.51e+00	0	32	104	0	60	52507
2026-01-08 17:03:53.61	306.77	26.26	-48.1	-63.2	3.6	1.51e+00	0	32	104	0	60	52527
2026-01-08 17:03:54.62	306.48	26.22	-48.1	-63.2	3.6	1.51e+00	0	32	104	0	60	52453
2026-01-08 17:03:55.63	306.18	26.17	-48.1	-63.3	3.6	1.51e+00	0	32	104	0	60	52570
2026-01-08 17:03:56.64	305.88	26.13	-48.1	-63.2	3.6	1.51e+00	0	32	104	0	60	52423
2026-01-08 17:03:57.65	305.59	26.08	-48.1	-63.3	3.6	1.51e+00	0	32	104	0	60	52744
2026-01-08 17:03:58.66	305.30	26.03	-48.1	-63.2	3.6	1.51e+00	0	31	104	0	60	52461
2026-01-08 17:03:59.67	305.00	25.99	-48.1	-63.3	3.6	1.51e+00	0	31	104	0	60	52581
2026-01-08 17:04:00.68	304.71	25.94	-48.1	-63.2	3.6	1.51e+00	0	32	104	0	60	52494
2026-01-08 17:04:01.69	304.42	25.89	-48.1	-63.2	3.6	1.51e+00	0	32	104	0	60	52418
2026-01-08 17:04:02.70	304.13	25.84	-48.1	-63.2	3.6	1.51e+00	0	32	104	0	60	52399
2026-01-08 17:04:03.71	303.84	25.79	-48.0	-63.2	3.5	1.51e+00	0	32	104	0	60	52297
2026-01-08 17:04:04.71	303.56	25.74	-48.1	-63.2	3.6	1.51e+00	0	32	104	0	60	52307
2026-01-08 17:04:05.72	303.27	25.69	-48.1	-63.2	3.6	1.51e+00	0	32	104	0	60	52366
2026-01-08 17:04:06.73	302.98	25.63	-48.1	-63.2	3.6	1.51e+00	0	32	104	0	60	52452
2026-01-08 17:04:07.74	302.70	25.58	-48.0	-63.2	3.6	1.51e+00	0	32	104	0	60	52202
2026-01-08 17:04:08.75	302.41	25.53	-48.0	-63.2	3.6	1.51e+00	0	32	104	0	60	52380
2026-01-08 17:04:09.76	302.13	25.47	-48.1	-63.2	3.6	1.51e+00	0	32	104	0	60	52510
2026-01-08 17:04:10.77	301.85	25.42	-48.0	-63.2	3.6	1.51e+00	0	32	104	0	60	52383
2026-01-08 17:04:11.78	301.56	25.36	-48.1	-63.2	3.6	1.51e+00	0	32	104	0	60	52298
2026-01-08 17:04:12.79	301.28	25.31	-48.0	-63.2	3.6	1.51e+00	0	32	104	0	60	52192
2026-01-08 17:04:13.80	301.00	25.25	-48.0	-63.2	3.6	1.51e+00	0	32	104	0	60	52281
2026-01-08 17:04:14.81	300.73	25.19	-48.0	-63.1	3.6	1.51e+00	0	32	104	0	60	51918
2026-01-08 17:04:15.82	300.45	25.13	-48.0	-63.2	3.6	1.51e+00	0	32	104	0	60	52119
2026-01-08 17:04:16.83	300.17	25.07	-48.0	-63.2	3.6	1.51e+00	0	32	104	0	60	52256
2026-01-08 17:04:17.84	299.90	25.01	-48.0	-63.2	3.6	1.51e+00	0	32	104	0	60	52504
2026-01-08 17:04:18.85	299.62	24.95	-48.0	-63.2	3.6	1.51e+00	0	32	104	0	60	52036
2026-01-08 17:04:19.86	299.35	24.89	-48.0	-63.2	3.6	1.51e+00	0	32	104	0	60	52306
2026-01-08 17:04:20.87	299.08	24.83	-48.0	-63.2	3.6	1.51e+00	0	32	104	0	60	52509
2026-01-08 17:04:21.88	298.80	24.77	-48.0	-63.2	3.6	1.51e+00	0	32	104	0	60	52374
2026-01-08 17:04:22.89	298.53	24.71	-48.0	-63.2	3.6	1.51e+00	0	32	104	0	60	52220
2026-01-08 17:04:23.90	298.26	24.65	-48.0	-63.2	3.6	1.51e+00	0	32	104	0	60	51994
2026-01-08 17:04:24.91	298.00	24.58	-48.0	-63.2	3.6	1.51e+00	0	32	104	0	60	51972
2026-01-08 17:04:25.92	297.73	24.52	-48.0	-63.2	3.6	1.51e+00	0	32	104	0	60	52119
2026-01-08 17:04:26.93	297.46	24.45	-48.0	-63.2	3.6	1.51e+00	0	32	104	0	60	52076
2026-01-08 17:04:27.94	297.20	24.39	-48.0	-63.2	3.5	1.51e+00	0	32	104	0	60	52191
2026-01-08 17:04:28.95	296.94	24.32	-48.0	-63.1	3.6	1.51e+00	0	32	104	0	60	51895
2026-01-08 17:04:29.96	296.67	24.26	-48.0	-63.1	3.6	1.51e+00	0	32	104	0	60	51850
2026-01-08 17:04:30.97	296.41	24.19	-47.9	-63.2	3.6	1.51e+00	0	32	104	0	60	52262
2026-01-08 17:04:31.98	296.15	24.12	-47.9	-63.1	3.6	1.51e+00	0	32	104	0	60	51890
2026-01-08 17:04:32.99	295.89	24.06	-47.9	-63.1	3.6	1.51e+00	0	32	104	0	60	51905
2026-01-08 17:04:34.00	295.63	23.99	-47.9	-63.2	3.6	1.51e+00	0	32	104	0	60	52131
2026-01-08 17:04:35.01	295.38	23.92	-47.9	-63.2	3.6	1.51e+00	0	32	104	0	60	52198
2026-01-08 17:04:36.02	295.12	23.85	-47.9	-63.1	3.6	1.51e+00	0	32	104	0	60	51825
2026-01-08 17:04:37.03	294.87	23.78	-47.9	-63.1	3.6	1.51e+00	0	32	104	0	60	51900
2026-01-08 17:04:38.04	294.61	23.71	-48.0	-63.2	3.6	1.51e+00	0	32	104	0	60	52072
2026-01-08 17:04:39.05	294.36	23.64	-48.0	-63.2	3.6	1.51e+00	0	32	104	0	60	51981
2026-01-08 17:04:40.06	294.11	23.57	-48.0	-63.1	3.6	1.51e+00	0	32	104	0	60	51631
2026-01-08 17:04:41.06	293.86	23.50	-48.0	-63.1	3.6	1.51e+00	0	32	104	0	60	51502
2026-01-08 17:04:42.07	293.61	23.43	-48.0	-63.1	3.6	1.51e+00	0	32	104	0	60	51668
2026-01-08 17:04:43.09	293.36	23.36	-47.9	-63.1	3.6	1.51e+00	0	32	104	0	60	51734
2026-01-08 17:04:44.09	293.12	23.29	-47.9	-63.1	3.6	1.51e+00	0	32	104	0	60	51818
2026-01-08 17:04:45.10	292.87	23.22	-47.9	-63.1	3.6	1.51e+00	0	32	104	0	60	51628
2026-01-08 17:04:46.12	292.63	23.14	-47.9	-63.1	3.6	1.51e+00	0	32	104	0	60	51774
2026-01-08 17:04:47.13	292.38	23.07	-47.9	-63.1	3.6	1.51e+00	0	32	104	0	60	51716
2026-01-08 17:04:48.14	292.14	23.00	-47.9	-63.1	3.6	1.51e+00	0	32	104	0	60	51780
2026-01-08 17:04:49.15	291.90	22.92	-47.9	-63.1	3.6	1.51e+00	0	32	104	0	60	51901
2026-01-08 17:04:50.16	291.66	22.85	-47.9	-63.1	3.6	1.51e+00	0	32	104	0	60	51698
2026-01-08 17:04:51.17	291.42	22.77	-47.9	-63.1	3.6	1.51e+00	0	32	104	0	60	51667
2026-01-08 17:04:52.17	291.19	22.70	-47.9	-63.0	3.6	1.51e+00	0	32	104	0	60	51185
2026-01-08 17:04:53.18	290.95	22.62	-47.9	-63.1	3.6	1.51e+00	0	32	104	0	60	51731
2026-01-08 17:04:54.20	290.71	22.55	-47.9	-63.1	3.6	1.51e+00	0	32	104	0	60	51506
2026-01-08 17:04:55.20	290.48	22.47	-47.9	-63.2	3.6	1.51e+00	0	32	104	0	60	51967
2026-01-08 17:04:56.21	290.25	22.40	-47.9	-63.1	3.6	1.51e+00	0	32	104	0	60	51749
2026-01-08 17:04:57.22	290.01	22.32	-47.9	-63.1	3.6	1.51e+00	0	32	104	0	60	51533
2026-01-08 17:04:58.23	289.78	22.25	-47.9	-63.1	3.6	1.51e+00	0	32	104	0	60	51414
2026-01-08 17:04:59.24	289.55	22.17	-47.9	-63.0	3.5	1.51e+00	0	32	104	0	60	51332
2026-01-08 17:05:00.25	289.33	22.09	-47.9	-63.1	3.6	1.51e+00	0	32	104	0	60	51414
2026-01-08 17:05:01.26	289.10	22.01	-47.9	-63.0	3.6	1.51e+00	0	32	104	0	60	51278
2026-01-08 17:05:02.27	288.87	21.94	-47.9	-63.1	3.6	1.51e+00	0	32	104	0	60	51372
2026-01-08 17:05:03.28	288.65	21.86	-47.9	-63.1	3.6	1.51e+00	0	32	104	0	60	51380
2026-01-08 17:05:04.29	288.42	21.78	-47.9	-63.0	3.6	1.51e+00	0	32	104	0	60	51344
2026-01-08 17:05:05.30	288.20	21.70	-47.9	-63.1	3.6	1.51e+00	0	32	104	0	60	51673
2026-01-08 17:05:06.31	287.98	21.62	-47.9	-63.0	3.6	1.51e+00	0	32	104	0	60	51266
2026-01-08 17:05:07.32	287.76	21.55	-47.9	-63.1	3.6	1.51e+00	0	32	104	0	60	51584
2026-01-08 17:05:08.33	287.54	21.47	-47.9	-63.1	3.6	1.51e+00	0	32	104	0	60	51466
2026-01-08 17:05:09.34	287.32	21.39	-47.8	-63.0	3.6	1.51e+00	0	32	104	0	60	50988
2026-01-08 17:05:10.35	287.10	21.31	-47.9	-63.0	3.6	1.51e+00	0	32	104	0	60	50988
2026-01-08 17:05:11.36	286.89	21.23	-47.9	-63.0	3.6	1.51e+00	0	32	104	0	60	51235
2026-01-08 17:05:12.36	286.68	21.15	-47.9	-63.0	3.6	1.51e+00	0	32	104	0	60	51224
2026-01-08 17:05:13.38	286.46	21.07	-47.8	-63.0	3.6	1.51e+00	0	32	104	0	60	51301
2026-01-08 17:05:14.38	286.25	20.99	-47.8	-63.0	3.6	1.51e+00	0	32	104	0	60	51284
2026-01-08 17:05:15.39	286.04	20.91	-47.8	-63.0	3.6	1.51e+00	0	32	104	0	60	51128
2026-01-08 17:05:16.40	285.83	20.83	-47.8	-63.0	3.6	1.51e+00	0	32	104	0	60	51223
2026-01-08 17:05:17.41	285.62	20.75	-47.8	-63.0	3.6	1.51e+00	0	32	104	0	60	51238
2026-01-08 17:05:18.42	285.41	20.67	-47.8	-63.0	3.6	1.51e+00	0	31	104	0	60	51005
2026-01-08 17:05:19.43	285.20	20.59	-47.8	-63.0	3.6	1.51e+00	0	31	104	0	60	51043
2026-01-08 17:05:20.44	285.00	20.51	-47.8	-63.0	3.6	1.51e+00	0	32	104	0	60	50991
2026-01-08 17:05:21.45	284.79	20.43	-47.8	-63.0	3.6	1.51e+00	0	32	104	0	60	51008
2026-01-08 17:05:22.46	284.59	20.35	-47.8	-63.0	3.5	1.51e+00	0	32	104	0	60	51050
2026-01-08 17:05:23.47	284.38	20.26	-47.8	-63.0	3.6	1.51e+00	0	32	104	0	60	51125
2026-01-08 17:05:24.48	284.18	20.18	-47.8	-63.0	3.6	1.51e+00	0	32	104	0	60	50993
2026-01-08 17:05:25.49	283.98	20.10	-47.8	-63.0	3.6	1.51e+00	0	32	104	0	60	50936
2026-01-08 17:05:26.50	283.78	20.02	-47.8	-63.0	3.6	1.51e+00	0	32	104	0	60	50860
2026-01-08 17:05:27.51	283.58	19.94	-47.8	-62.9	3.6	1.51e+00	0	32	104	0	60	50689
2026-01-08 17:05:28.51	283.39	19.86	-47.8	-63.0	3.6	1.51e+00	0	32	104	0	60	50876
2026-01-08 17:05:29.52	283.19	19.78	-47.8	-62.9	3.6	1.51e+00	0	32	104	0	60	50738
2026-01-08 17:05:30.53	283.00	19.69	-47.8	-63.0	3.6	1.51e+00	0	32	104	0	60	50998
2026-01-08 17:05:31.54	282.80	19.61	-47.8	-62.9	3.6	1.51e+00	0	32	104	0	60	50664
2026-01-08 17:05:32.55	282.61	19.53	-47.8	-63.0	3.6	1.51e+00	0	32	104	0	60	50886
2026-01-08 17:05:33.56	282.42	19.45	-47.8	-62.9	3.6	1.51e+00	0	32	104	0	60	50638
2026-01-08 17:05:34.57	282.23	19.37	-47.8	-62.9	3.6	1.51e+00	0	32	104	0	60	50646
2026-01-08 17:05:35.58	282.04	19.28	-47.8	-63.0	3.6	1.51e+00	0	32	104	0	60	50790
2026-01-08 17:05:36.59	281.85	19.20	-47.8	-62.9	3.6	1.51e+00	0	32	104	0	60	50542
2026-01-08 17:05:37.60	281.66	19.12	-47.7	-62.9	3.6	1.51e+00	0	32	104	0	60	50510
2026-01-08 17:05:38.61	281.47	19.04	-47.7	-62.9	3.6	1.51e+00	0	32	104	0	60	50721
2026-01-08 17:05:39.62	281.29	18.95	-47.7	-62.9	3.6	1.51e+00	0	32	104	0	60	50473
2026-01-08 17:05:40.63	281.10	18.87	-47.7	-62.8	3.6	1.51e+00	0	32	104	0	60	50162
2026-01-08 17:05:41.64	280.92	18.79	-47.7	-62.9	3.6	1.51e+00	0	32	104	0	60	50449
2026-01-08 17:05:42.65	280.74	18.71	-47.7	-62.9	3.6	1.51e+00	0	32	104	0	60	50536
2026-01-08 17:05:43.66	280.55	18.62	-47.7	-62.9	3.6	1.51e+00	0	32	104	0	60	50465
2026-01-08 17:05:44.67	280.37	18.54	-47.7	-62.9	3.6	1.51e+00	0	32	104	0	60	50376
2026-01-08 17:05:45.68	280.19	18.46	-47.7	-62.9	3.6	1.51e+00	0	32	104	0	60	50369
2026-01-08 17:05:46.69	280.01	18.38	-47.7	-62.8	3.6	1.51e+00	0	32	104	0	60	50174
2026-01-08 17:05:47.70	279.84	18.29	-47.7	-62.9	3.6	1.51e+00	0	32	104	0	60	50185
2026-01-08 17:05:48.71	279.66	18.21	-47.7	-62.8	3.6	1.51e+00	0	32	104	0	60	49927
2026-01-08 17:05:49.72	279.48	18.13	-47.7	-62.8	3.6	1.51e+00	0	32	104	0	60	50125
2026-01-08 17:05:50.73	279.31	18.05	-47.7	-62.8	3.6	1.51e+00	0	32	104	0	60	50088
2026-01-08 17:05:51.74	279.13	17.96	-47.7	-62.9	3.6	1.51e+00	0	32	104	0	60	50349
2026-01-08 17:05:52.75	278.96	17.88	-47.7	-62.8	3.6	1.51e+00	0	32	104	0	60	50149
2026-01-08 17:05:53.76	278.79	17.80	-47.7	-62.8	3.6	1.51e+00	0	32	104	0	60	50109
2026-01-08 17:05:54.77	278.62	17.72	-47.7	-62.8	3.6	1.51e+00	0	32	104	0	60	50089
2026-01-08 17:05:55.78	278.45	17.63	-47.6	-62.8	3.6	1.51e+00	0	32	104	0	60	50077
2026-01-08 17:05:56.79	278.28	17.55	-47.6	-62.8	3.6	1.51e+00	0	32	104	0	60	49783
2026-01-08 17:05:57.80	278.11	17.47	-47.6	-62.8	3.6	1.51e+00	0	32	104	0	60	50046
2026-01-08 17:05:58.81	277.94	17.38	-47.6	-62.8	3.6	1.51e+00	0	32	104	0	60	50081
2026-01-08 17:05:59.82	277.77	17.30	-47.6	-62.8	3.6	1.51e+00	0	32	104	0	60	49971
2026-01-08 17:06:00.83	277.61	17.22	-47.6	-62.8	3.6	1.51e+00	0	32	104	0	60	49864
2026-01-08 17:06:01.84	277.44	17.14	-47.6	-62.8	3.6	1.51e+00	0	32	104	0	60	49824
2026-01-08 17:06:02.85	277.28	17.05	-47.6	-62.8	3.6	1.51e+00	0	32	104	0	60	49829
2026-01-08 17:06:03.86	277.12	16.97	-47.6	-62.8	3.6	1.51e+00	0	32	104	0	60	49801
2026-01-08 17:06:04.87	276.96	16.89	-47.6	-62.7	3.6	1.51e+00	0	31	104	0	60	49491
2026-01-08 17:06:05.88	276.79	16.81	-47.6	-62.8	3.6	1.51e+00	0	32	104	0	60	49644
2026-01-08 17:06:06.89	276.63	16.73	-47.6	-62.8	3.6	1.51e+00	0	32	104	0	60	49700
2026-01-08 17:06:07.90	276.48	16.64	-47.6	-62.7	3.6	1.51e+00	0	32	104	0	60	49459
2026-01-08 17:06:08.91	276.32	16.56	-47.6	-62.7	3.6	1.51e+00	0	32	104	0	60	49387
2026-01-08 17:06:09.92	276.16	16.48	-47.6	-62.7	3.6	1.51e+00	0	32	104	0	60	49463
2026-01-08 17:06:10.93	276.00	16.40	-47.6	-62.7	3.6	1.51e+00	0	32	104	0	60	49551
2026-01-08 17:06:11.94	275.85	16.31	-47.5	-62.7	3.6	1.51e+00	0	32	104	0	60	49455
2026-01-08 17:06:12.95	275.69	16.23	-47.5	-62.7	3.6	1.51e+00	0	32	104	0	60	49273
2026-01-08 17:06:13.95	275.54	16.15	-47.5	-62.7	3.6	1.51e+00	0	32	104	0	60	49475
2026-01-08 17:06:14.96	275.39	16.07	-47.5	-62.8	3.6	1.51e+00	0	31	104	0	60	49610
2026-01-08 17:06:15.97	275.23	15.99	-47.5	-62.7	3.6	1.51e+00	0	32	104	0	60	49085
2026-01-08 17:06:16.98	275.08	15.91	-47.5	-62.7	3.6	1.51e+00	0	32	104	0	60	49315
2026-01-08 17:06:17.99	274.93	15.82	-47.5	-62.7	3.6	1.51e+00	0	32	104	0	60	49268
2026-01-08 17:06:19.00	274.78	15.74	-47.5	-62.7	3.6	1.51e+00	0	32	104	0	60	49045
2026-01-08 17:06:20.01	274.63	15.66	-47.5	-62.7	3.6	1.51e+00	0	32	104	0	60	49465
2026-01-08 17:06:21.02	274.48	15.58	-47.4	-62.6	3.6	1.51e+00	0	32	104	0	60	48995
2026-01-08 17:06:22.03	274.34	15.50	-47.4	-62.7	3.6	1.51e+00	0	32	104	0	60	49243
2026-01-08 17:06:23.04	274.19	15.42	-47.4	-62.6	3.6	1.51e+00	0	32	104	0	60	48775
2026-01-08 17:06:24.05	274.04	15.34	-47.4	-62.7	3.6	1.51e+00	0	32	104	0	60	49099
2026-01-08 17:06:25.06	273.90	15.26	-47.4	-62.6	3.6	1.51e+00	0	32	104	0	60	48883
2026-01-08 17:06:26.06	273.76	15.17	-47.4	-62.6	3.6	1.51e+00	0	32	104	0	60	48981
2026-01-08 17:06:27.07	273.61	15.09	-47.4	-62.6	3.6	1.51e+00	0	32	104	0	60	48905
2026-01-08 17:06:28.08	273.47	15.01	-47.4	-62.6	3.6	1.51e+00	0	32	104	0	60	48821
2026-01-08 17:06:29.09	273.33	14.93	-47.4	-62.5	3.6	1.51e+00	0	32	104	0	60	48450
2026-01-08 17:06:30.10	273.19	14.85	-47.4	-62.6	3.6	1.51e+00	0	32	104	0	60	48801
2026-01-08 17:06:31.11	273.05	14.77	-47.4	-62.5	3.5	1.51e+00	0	32	104	0	60	48451
2026-01-08 17:06:32.12	272.91	14.69	-47.4	-62.6	3.6	1.51e+00	0	32	104	0	60	48554
2026-01-08 17:06:33.13	272.77	14.61	-47.4	-62.5	3.6	1.51e+00	0	32	104	0	60	48464
2026-01-08 17:06:34.14	272.63	14.53	-47.4	-62.6	3.6	1.51e+00	0	32	104	0	60	48595
2026-01-08 17:06:35.15	272.49	14.45	-47.4	-62.5	3.6	1.51e+00	0	32	104	0	60	48356
2026-01-08 17:06:36.16	272.36	14.37	-47.3	-62.6	3.6	1.51e+00	0	32	104	0	60	48673
2026-01-08 17:06:37.17	272.22	14.29	-47.3	-62.5	3.6	1.51e+00	0	32	104	0	60	48214
2026-01-08 17:06:38.18	272.09	14.21	-47.3	-62.5	3.6	1.51e+00	0	32	104	0	60	48078
2026-01-08 17:06:39.19	271.95	14.13	-47.3	-62.5	3.5	1.51e+00	0	32	104	0	60	48101
2026-01-08 17:06:40.20	271.82	14.05	-47.3	-62.5	3.6	1.51e+00	0	32	104	0	60	47935
2026-01-08 17:06:41.21	271.69	13.97	-47.3	-62.5	3.6	1.51e+00	0	32	104	0	60	48276
2026-01-08 17:06:42.22	271.55	13.89	-47.3	-62.5	3.6	1.51e+00	0	32	104	0	60	47973
2026-01-08 17:06:43.23	271.42	13.81	-47.3	-62.4	3.6	1.51e+00	0	32	104	0	60	47887
2026-01-08 17:06:44.24	271.29	13.73	-47.2	-62.4	3.6	1.51e+00	0	32	104	0	60	47887
2026-01-08 17:06:45.25	271.16	13.65	-47.2	-62.4	3.6	1.51e+00	0	32	104	0	60	47919
2026-01-08 17:06:46.26	271.03	13.57	-47.2	-62.4	3.6	1.51e+00	0	32	104	0	60	47624
2026-01-08 17:06:47.26	270.91	13.50	-47.2	-62.4	3.6	1.51e+00	0	32	104	0	60	47783
2026-01-08 17:06:48.27	270.78	13.42	-47.2	-62.4	3.6	1.51e+00	0	32	104	0	60	47472
2026-01-08 17:06:49.28	270.65	13.34	-47.2	-62.4	3.6	1.51e+00	0	32	104	0	60	47499
2026-01-08 17:06:50.29	270.52	13.26	-47.2	-62.4	3.6	1.51e+00	0	32	104	0	60	47466
2026-01-08 17:06:51.30	270.40	13.18	-47.2	-62.3	3.6	1.51e+00	0	32	104	0	60	47161
2026-01-08 17:06:52.31	270.27	13.10	-47.2	-62.3	3.6	1.51e+00	0	32	104	0	60	47249
2026-01-08 17:06:53.32	270.15	13.02	-47.1	-62.3	3.6	1.51e+00	0	32	104	0	60	46842
2026-01-08 17:06:54.33	270.03	12.95	-47.1	-62.3	3.6	1.51e+00	0	32	104	0	60	47276
2026-01-08 17:06:55.34	269.90	12.87	-47.1	-62.3	3.5	1.51e+00	0	32	104	0	60	46959
2026-01-08 17:06:56.34	269.78	12.79	-47.1	-62.3	3.6	1.51e+00	0	32	104	0	60	47100
2026-01-08 17:06:57.35	269.66	12.71	-47.1	-62.2	3.6	1.51e+00	0	32	104	0	60	46773
2026-01-08 17:06:58.36	269.54	12.64	-47.1	-62.2	3.6	1.51e+00	0	32	104	0	60	46801
2026-01-08 17:06:59.37	269.42	12.56	-47.0	-62.2	3.6	1.51e+00	0	32	104	0	60	46766
2026-01-08 17:07:00.38	269.30	12.48	-47.0	-62.2	3.6	1.51e+00	0	32	104	0	60	46454
2026-01-08 17:07:01.39	269.18	12.40	-47.0	-62.2	3.6	1.51e+00	0	32	104	0	60	46385
2026-01-08 17:07:02.40	269.06	12.33	-47.0	-62.2	3.6	1.51e+00	0	32	104	0	60	46415
2026-01-08 17:07:03.41	268.94	12.25	-47.0	-62.1	3.6	1.51e+00	0	32	104	0	60	46268
2026-01-08 17:07:04.42	268.82	12.17	-47.0	-62.1	3.6	1.51e+00	0	32	104	0	60	46090
2026-01-08 17:07:05.43	268.71	12.10	-46.9	-62.1	3.6	1.51e+00	0	32	104	0	60	46045
2026-01-08 17:07:06.44	268.59	12.02	-46.9	-62.1	3.5	1.51e+00	0	32	104	0	60	45950
2026-01-08 17:07:07.45	268.48	11.94	-47.2	-62.3	3.6	1.51e+00	0	32	104	0	60	47309
2026-01-08 17:07:08.46	268.36	11.87	-47.7	-62.9	3.6	1.51e+00	0	32	104	0	60	50631
2026-01-08 17:07:09.47	268.25	11.79	-48.0	-63.2	3.6	1.51e+00	0	32	104	0	60	52225
2026-01-08 17:07:10.48	268.13	11.71	-48.2	-63.4	3.6	1.51e+00	0	32	104	0	60	53553
2026-01-08 17:07:11.49	268.02	11.64	-48.4	-63.5	3.6	1.51e+00	0	32	104	0	60	54226
2026-01-08 17:07:12.50	267.91	11.56	-48.3	-63.6	3.6	1.51e+00	0	32	104	0	60	54972
2026-01-08 17:07:13.50	267.80	11.49	-48.5	-63.7	3.6	1.51e+00	0	32	104	0	60	55219
2026-01-08 17:07:14.51	267.69	11.41	-48.5	-63.7	3.6	1.51e+00	0	32	104	0	60	55597
2026-01-08 17:07:15.52	267.58	11.34	-48.5	-63.7	3.6	1.51e+00	0	32	104	0	60	55597
2026-01-08 17:07:16.53	267.47	11.26	-48.6	-63.8	3.6	1.51e+00	0	32	104	0	60	55711
2026-01-08 17:07:17.54	267.36	11.18	-48.5	-63.7	3.6	1.51e+00	0	32	104	0	60	55505
2026-01-08 17:07:18.55	267.25	11.11	-48.6	-63.8	3.6	1.51e+00	0	32	104	0	60	55836
2026-01-08 17:07:19.56	267.14	11.03	-48.5	-63.8	3.6	1.51e+00	0	32	104	0	60	55726
2026-01-08 17:07:20.58	267.03	10.96	-48.5	-63.7	3.6	1.51e+00	0	32	104	0	60	55569
2026-01-08 17:07:21.58	266.92	10.88	-48.5	-63.7	3.6	1.51e+00	0	32	104	0	60	55210
2026-01-08 17:07:22.59	266.82	10.81	-48.5	-63.7	3.6	1.51e+00	0	32	104	0	60	55307
2026-01-08 17:07:23.60	266.71	10.74	-48.5	-63.7	3.6	1.51e+00	0	32	104	0	60	55188
2026-01-08 17:07:24.61	266.61	10.66	-48.5	-63.6	3.6	1.51e+00	0	32	104	0	60	54939
2026-01-08 17:07:25.63	266.50	10.59	-48.5	-63.7	3.6	1.51e+00	0	32	104	0	60	55045
2026-01-08 17:07:26.63	266.40	10.51	-48.5	-63.6	3.5	1.51e+00	0	32	104	0	60	54885
2026-01-08 17:07:27.64	266.29	10.44	-48.5	-63.7	3.6	1.51e+00	0	32	104	0	60	55309
2026-01-08 17:07:28.65	266.19	10.36	-48.4	-63.7	3.6	1.51e+00	0	32	104	0	60	55453
2026-01-08 17:07:29.66	266.09	10.29	-48.3	-63.7	3.6	1.51e+00	0	32	104	0	60	55213
2026-01-08 17:07:30.67	265.98	10.22	-48.4	-63.8	3.6	1.51e+00	0	32	104	0	60	55666
2026-01-08 17:07:31.68	265.88	10.14	-48.6	-63.8	3.6	1.51e+00	0	32	104	0	60	56252
2026-01-08 17:07:32.69	265.78	10.07	-48.7	-63.9	3.6	1.51e+00	0	32	104	0	60	56359
2026-01-08 17:07:33.70	265.68	10.00	-48.7	-63.9	3.6	1.51e+00	0	32	104	0	60	56564
2026-01-08 17:07:34.71	265.58	9.92	-48.7	-63.9	3.6	1.51e+00	0	32	104	0	60	56483
2026-01-08 17:07:35.72	265.48	9.85	-48.6	-63.8	3.6	1.51e+00	0	32	104	0	60	56248
2026-01-08 17:07:36.73	265.38	9.78	-48.6	-63.8	3.6	1.51e+00	0	32	104	0	60	55971
2026-01-08 17:07:37.73	265.28	9.71	-48.5	-63.7	3.6	1.51e+00	0	32	104	0	60	55343
2026-01-08 17:07:38.74	265.19	9.63	-48.4	-63.6	3.6	1.51e+00	0	32	104	0	60	54552
2026-01-08 17:07:39.75	265.09	9.56	-48.2	-63.4	3.9	1.51e+00	0	32	104	0	60	53277
2026-01-08 17:07:40.76	264.99	9.49	-40.0	-41.2	20.6	0.00e+00	0	32	0	0	52	6572
2026-01-08 17:07:41.77	264.89	9.42	-44.4	-47.2	13.9	3.80e-06	92	32	0	1048576	60	8273
2026-01-08 17:07:42.78	264.80	9.34	-41.0	-42.5	19.0	0.00e+00	0	32	0	3145728	52	7654
2026-01-08 17:07:43.79	264.70	9.27	-47.7	-57.8	4.1	0.00e+00	0	31	0	5242880	60	28043
2026-01-08 17:07:44.80	264.61	9.20	-47.5	-55.4	5.6	1.26e+00	0	32	0	5242880	60	21356
2026-01-08 17:07:45.81	264.51	9.13	-41.9	-43.6	18.1	0.00e+00	0	32	0	7340032	54	7726
2026-01-08 17:07:46.82	264.42	9.06	-41.1	-42.5	19.4	0.00e+00	12	32	0	9437184	56	6089
2026-01-08 17:07:47.83	264.32	8.99	-41.3	-42.8	18.3	0.00e+00	0	32	0	11534336	56	6313
2026-01-08 17:07:48.84	264.23	8.91	-41.4	-42.9	18.9	0.00e+00	64	32	0	13631488	56	6357
2026-01-08 17:07:49.85	264.14	8.84	-40.9	-42.3	19.7	0.00e+00	0	32	0	14680064	56	5919
2026-01-08 17:07:50.86	264.05	8.77	-40.9	-42.4	19.6	0.00e+00	0	32	0	16777216	54	6718
2026-01-08 17:07:51.87	263.95	8.70	-40.7	-42.1	19.5	0.00e+00	0	32	0	18874368	54	6535
2026-01-08 17:07:52.87	263.86	8.63	-40.7	-42.1	19.5	0.00e+00	0	32	0	20971520	54	6527
2026-01-08 17:07:53.88	263.77	8.56	-40.8	-42.2	19.6	0.00e+00	7	32	0	23068672	54	6581
2026-01-08 17:07:54.89	263.68	8.49	-40.5	-41.8	19.9	0.00e+00	0	32	0	25165824	54	6290
2026-01-08 17:07:55.90	263.59	8.42	-40.6	-41.9	19.8	0.00e+00	79	31	0	26214400	54	6372
2026-01-08 17:07:56.91	263.50	8.35	-40.2	-41.6	20.2	0.00e+00	0	32	0	28311552	54	6113
2026-01-08 17:07:57.92	263.41	8.28	-40.2	-41.5	20.2	0.00e+00	0	32	0	30408704	54	6072
2026-01-08 17:07:58.93	263.32	8.21	-40.2	-41.6	20.2	0.00e+00	0	32	0	32505856	54	6104
2026-01-08 17:07:59.94	263.24	8.14	-40.1	-41.4	20.2	0.00e+00	0	32	0	34603008	54	6019
2026-01-08 17:08:00.95	263.15	8.07	-40.3	-41.6	20.1	0.00e+00	53	32	0	35651584	54	6156
2026-01-08 17:08:01.96	263.06	8.00	-40.2	-41.5	20.1	0.00e+00	0	31	0	37748736	54	6052
2026-01-08 17:08:02.97	262.97	7.93	-40.3	-41.7	20.1	0.00e+00	49	32	0	39845888	54	6179
2026-01-08 17:08:03.98	262.89	7.86	-40.3	-41.6	19.9	0.00e+00	0	32	0	41943040	54	6157
2026-01-08 17:08:04.98	262.80	7.79	-40.5	-41.9	19.8	0.00e+00	0	32	0	44040192	54	6357
2026-01-08 17:08:06.00	262.72	7.72	-40.6	-42.0	19.7	0.00e+00	0	32	0	45088768	54	6443
2026-01-08 17:08:07.01	262.63	7.65	-40.8	-42.3	19.4	0.00e+00	0	32	0	47185920	54	6645
2026-01-08 17:08:08.02	262.55	7.59	-40.9	-42.4	19.3	0.00e+00	0	32	0	49283072	54	6717
2026-01-08 17:08:09.03	262.46	7.52	-41.0	-42.5	19.2	0.00e+00	0	31	0	51380224	54	6831
2026-01-08 17:08:10.03	262.38	7.45	-41.1	-42.6	19.0	0.00e+00	71	31	0	53477376	54	6901
2026-01-08 17:08:11.04	262.29	7.38	-41.1	-42.6	18.9	0.00e+00	0	31	0	54525952	54	6880
2026-01-08 17:08:12.05	262.21	7.31	-41.1	-42.7	18.9	0.00e+00	77	31	0	56623104	54	6960
2026-01-08 17:08:13.06	262.13	7.24	-41.1	-42.6	19.0	0.00e+00	0	32	0	58720256	54	6900
2026-01-08 17:08:14.07	262.05	7.18	-41.2	-42.8	18.9	0.00e+00	0	31	0	60817408	54	7012
2026-01-08 17:08:15.08	261.96	7.11	-40.9	-42.4	19.2	0.00e+00	8	32	0	62914560	54	6761
2026-01-08 17:08:16.08	261.88	7.04	-40.7	-42.2	19.5	0.00e+00	8	31	0	63963136	54	6550
2026-01-08 17:08:17.09	261.80	6.97	-40.6	-42.1	19.6	0.00e+00	40	32	0	66060288	54	6481
2026-01-08 17:08:18.10	261.72	6.90	-40.6	-42.1	19.4	0.00e+00	0	31	0	68157440	54	6472
2026-01-08 17:08:19.11	261.64	6.84	-40.3	-41.7	19.9	0.00e+00	71	31	0	70254592	54	6232
2026-01-08 17:08:20.12	261.56	6.77	-40.0	-41.4	20.2	0.00e+00	0	31	0	72351744	54	5970
2026-01-08 17:08:21.13	261.48	6.70	-39.8	-41.1	20.4	0.00e+00	0	31	0	73400320	52	6467
2026-01-08 17:08:22.14	261.40	6.64	-39.5	-40.8	20.7	0.00e+00	0	32	0	75497472	52	6254
2026-01-08 17:08:23.15	261.32	6.57	-39.5	-40.8	20.8	0.00e+00	0	31	0	77594624	52	6264
2026-01-08 17:08:24.16	261.24	6.50	-39.4	-40.6	20.9	0.00e+00	9	31	0	79691776	52	6119
2026-01-08 17:08:25.17	261.16	6.43	-39.3	-40.5	20.9	0.00e+00	0	32	0	81788928	52	6075
