passes_logs/2026/01/08/R4.6S_Anadyr/R4.6S_Anadyr__20260108_144609_NOAA_21_JPSS-2_rec.log

#Pass ID: 20260108_144609_NOAA 21 (JPSS-2)
#Satellite: NOAA 21 (JPSS-2)
#Configuration: NOAA-21
#almurnet v.1.7.20251203
#Start time: 2026-01-08 14:46:11

#Version: 2.2.20231116
#Station: R4.6S_Anadyr
#Location: 177.4865 lon 64.73178 lat
#TLE: 1 54234U 22150A   26007.89369592  .00000099  00000+0  67922-4 0  9991
#TLE: 2 54234  98.7493 308.8796 0000921 330.6018  29.5106 14.19533030163804

#Time	Az	El	Level	Level2	SNR	BER	BlckErr	Temp	State	Recorded	gain1	gain2
2026-01-08 14:46:11.01	20.58	0.10	-48.7	-66.5	3.5	3.02e+01	0	29	0	0	60	80885
2026-01-08 14:46:12.01	20.59	0.16	-48.5	-61.4	3.5	1.52e+00	0	31	104	0	60	41059
2026-01-08 14:46:13.02	20.59	0.22	-48.5	-61.3	3.5	1.51e+00	0	31	104	0	60	40955
2026-01-08 14:46:14.03	20.59	0.28	-48.5	-61.4	3.5	1.52e+00	0	31	104	0	60	41130
2026-01-08 14:46:15.04	20.60	0.34	-48.5	-61.3	3.5	1.52e+00	0	31	104	0	60	40970
2026-01-08 14:46:16.05	20.60	0.40	-48.5	-61.4	3.5	1.52e+00	0	31	104	0	60	41317
2026-01-08 14:46:17.06	20.60	0.46	-48.6	-61.4	3.5	1.52e+00	0	31	104	0	60	41190
2026-01-08 14:46:18.07	20.61	0.53	-48.6	-61.4	3.5	1.52e+00	0	31	104	0	60	41224
2026-01-08 14:46:19.08	20.61	0.59	-48.5	-61.4	3.5	1.52e+00	0	31	104	0	60	41101
2026-01-08 14:46:20.09	20.61	0.65	-48.4	-61.2	3.5	1.52e+00	0	31	104	0	60	40516
2026-01-08 14:46:21.10	20.62	0.71	-48.3	-61.2	3.5	1.52e+00	0	31	104	0	60	40178
2026-01-08 14:46:22.11	20.62	0.77	-48.3	-61.1	3.5	1.52e+00	0	31	104	0	60	39737
2026-01-08 14:46:23.12	20.62	0.83	-48.0	-60.8	3.5	1.52e+00	0	31	104	0	60	38627
2026-01-08 14:46:24.13	20.62	0.90	-47.9	-60.7	3.5	1.52e+00	0	31	104	0	60	37851
2026-01-08 14:46:25.14	20.63	0.96	-47.6	-60.4	3.5	1.51e+00	0	31	104	0	60	36859
2026-01-08 14:46:26.15	20.63	1.02	-47.3	-60.2	3.5	1.52e+00	0	31	104	0	60	35814
2026-01-08 14:46:27.16	20.63	1.08	-47.1	-59.8	3.5	1.52e+00	0	31	104	0	60	34340
2026-01-08 14:46:28.17	20.64	1.14	-47.1	-59.9	3.5	1.52e+00	0	31	104	0	60	34538
2026-01-08 14:46:29.18	20.64	1.21	-47.1	-59.9	3.5	1.52e+00	0	31	104	0	60	34719
2026-01-08 14:46:30.19	20.64	1.27	-47.1	-59.8	3.5	1.52e+00	0	31	104	0	60	34468
2026-01-08 14:46:31.20	20.65	1.33	-47.1	-59.8	3.5	1.52e+00	0	31	104	0	60	34385
2026-01-08 14:46:32.20	20.65	1.39	-47.1	-59.7	3.5	1.52e+00	0	31	104	0	60	33881
2026-01-08 14:46:33.21	20.65	1.46	-47.0	-59.7	3.5	1.52e+00	0	31	104	0	60	33761
2026-01-08 14:46:34.22	20.65	1.52	-47.0	-59.6	3.5	1.51e+00	0	31	104	0	60	33463
2026-01-08 14:46:35.23	20.66	1.58	-47.0	-59.6	3.5	1.52e+00	0	31	104	0	60	33355
2026-01-08 14:46:36.24	20.66	1.65	-47.0	-59.6	3.5	1.52e+00	0	31	104	0	60	33581
2026-01-08 14:46:37.25	20.66	1.71	-47.0	-59.8	3.5	1.52e+00	0	31	104	0	60	34132
2026-01-08 14:46:38.26	20.67	1.78	-47.0	-59.8	3.5	1.52e+00	0	31	104	0	60	34202
2026-01-08 14:46:39.27	20.67	1.84	-47.0	-59.8	3.5	1.52e+00	0	31	104	0	60	34314
2026-01-08 14:46:40.28	20.67	1.90	-47.1	-59.9	3.5	1.52e+00	0	31	104	0	60	34585
2026-01-08 14:46:41.29	20.68	1.97	-47.0	-59.9	3.5	1.51e+00	0	31	104	0	60	34539
2026-01-08 14:46:42.30	20.68	2.03	-47.0	-59.8	3.5	1.52e+00	0	31	104	0	60	34406
2026-01-08 14:46:43.31	20.68	2.10	-47.0	-59.8	3.5	1.52e+00	0	31	104	0	60	34377
2026-01-08 14:46:44.32	20.68	2.16	-47.0	-59.7	3.5	1.51e+00	0	31	104	0	60	33962
2026-01-08 14:46:45.33	20.69	2.23	-47.0	-59.6	3.5	1.52e+00	0	31	104	0	60	33483
2026-01-08 14:46:46.34	20.69	2.29	-47.0	-59.4	3.5	1.52e+00	0	31	104	0	60	32797
2026-01-08 14:46:47.34	20.69	2.36	-47.0	-58.9	3.5	1.51e+00	0	31	104	0	60	30892
2026-01-08 14:46:48.36	20.70	2.42	-46.9	-58.4	3.5	1.51e+00	0	31	104	0	60	29326
2026-01-08 14:46:49.37	20.70	2.49	-46.9	-57.9	3.5	1.51e+00	0	32	104	0	60	27507
2026-01-08 14:46:50.38	20.70	2.55	-46.8	-57.4	3.8	1.49e+00	0	31	104	0	60	25899
2026-01-08 14:46:51.38	20.71	2.62	-46.8	-57.3	3.6	1.49e+00	0	31	104	0	60	25763
2026-01-08 14:46:52.39	20.71	2.68	-46.8	-57.3	3.8	1.50e+00	0	31	104	0	60	25783
2026-01-08 14:46:53.40	20.71	2.75	-46.8	-57.3	3.8	1.49e+00	0	32	104	0	60	25697
2026-01-08 14:46:54.41	20.71	2.82	-46.8	-56.9	4.0	1.47e+00	0	31	104	0	60	24608
2026-01-08 14:46:55.42	20.72	2.88	-46.5	-55.1	4.9	8.08e-01	122	32	104	0	60	19926
2026-01-08 14:46:56.43	20.72	2.95	-46.0	-52.8	6.6	3.62e-01	122	31	104	0	60	15404
2026-01-08 14:46:57.44	20.72	3.01	-45.2	-49.7	9.0	5.46e-02	123	32	0	2097152	60	10683
2026-01-08 14:46:58.45	20.73	3.08	-44.3	-47.7	11.2	3.21e-03	123	32	0	5242880	60	8553
2026-01-08 14:46:59.46	20.73	3.15	-43.4	-46.2	13.0	9.00e-05	123	32	0	8388608	60	7151
2026-01-08 14:47:00.47	20.73	3.22	-42.4	-44.7	14.4	4.50e-06	122	32	0	11534336	58	6740
2026-01-08 14:47:01.47	20.73	3.28	-41.6	-43.6	15.6	0.00e+00	120	32	0	14680064	56	6690
2026-01-08 14:47:02.48	20.74	3.35	-41.2	-43.1	16.1	0.00e+00	123	32	0	17825792	56	6298
2026-01-08 14:47:03.49	20.74	3.42	-40.6	-42.2	16.7	0.00e+00	120	32	0	20971520	54	6421
2026-01-08 14:47:04.50	20.74	3.49	-40.4	-42.1	17.0	0.00e+00	123	32	0	24117248	54	6302
2026-01-08 14:47:05.51	20.74	3.55	-40.6	-42.3	16.7	0.00e+00	121	32	0	27262976	54	6473
2026-01-08 14:47:06.52	20.75	3.62	-40.9	-42.7	16.3	0.00e+00	120	32	0	30408704	54	6769
2026-01-08 14:47:07.53	20.75	3.69	-41.4	-43.3	15.6	0.00e+00	122	32	0	33554432	54	7270
2026-01-08 14:47:08.54	20.75	3.76	-42.4	-44.7	14.3	0.00e+00	122	32	0	36700160	56	7579
2026-01-08 14:47:09.55	20.76	3.83	-41.0	-42.8	17.3	7.00e-07	123	32	0	39845888	56	6097
2026-01-08 14:47:10.56	20.76	3.90	-38.8	-40.2	18.5	0.00e+00	122	32	0	42991616	50	6383
2026-01-08 14:47:11.56	20.76	3.96	-41.0	-42.9	13.8	0.00e+00	120	32	0	46137344	52	7764
2026-01-08 14:47:12.57	20.76	4.03	-42.6	-45.4	5.0	1.43e+00	0	32	104	47185920	60	6512
2026-01-08 14:47:13.58	20.77	4.10	-41.3	-43.7	13.6	0.00e+00	123	32	104	47185920	50	9519
2026-01-08 14:47:14.59	20.77	4.17	-45.3	-50.6	4.6	1.51e+00	0	32	104	47185920	60	11958
2026-01-08 14:47:15.60	20.77	4.24	-40.0	-42.2	16.1	1.19e-02	123	32	104	47185920	52	7138
2026-01-08 14:47:16.61	20.77	4.31	-39.7	-41.4	16.7	1.26e-02	121	32	0	49283072	52	6553
2026-01-08 14:47:17.62	20.78	4.38	-39.9	-41.5	16.7	1.27e-02	121	32	0	52428800	52	6613
2026-01-08 14:47:18.63	20.78	4.45	-39.9	-41.6	16.9	5.49e-03	123	32	0	55574528	52	6696
2026-01-08 14:47:19.64	20.78	4.52	-40.3	-42.1	16.6	9.61e-03	122	32	0	58720256	52	7056
2026-01-08 14:47:20.65	20.79	4.59	-40.6	-42.3	16.8	1.16e-02	122	32	0	61865984	52	7208
2026-01-08 14:47:21.66	20.79	4.66	-40.8	-42.5	17.0	0.00e+00	122	32	0	65011712	54	6614
2026-01-08 14:47:22.67	20.79	4.73	-40.7	-42.5	16.5	0.00e+00	123	32	0	68157440	54	6585
2026-01-08 14:47:23.68	20.79	4.81	-39.3	-40.7	18.6	0.00e+00	124	32	0	71303168	52	6048
2026-01-08 14:47:24.69	20.80	4.88	-38.0	-39.3	20.0	0.00e+00	123	32	0	74448896	50	5731
2026-01-08 14:47:25.70	20.80	4.95	-37.2	-38.4	20.7	0.00e+00	122	32	0	77594624	48	5805
2026-01-08 14:47:26.70	20.80	5.02	-37.0	-38.2	20.9	0.00e+00	122	32	0	80740352	48	5681
2026-01-08 14:47:27.72	20.80	5.09	-36.9	-38.0	21.0	0.00e+00	122	32	0	83886080	48	5547
2026-01-08 14:47:28.72	20.81	5.16	-37.0	-38.1	20.9	0.00e+00	122	32	0	87031808	48	5629
2026-01-08 14:47:29.73	20.81	5.24	-37.0	-38.1	20.9	0.00e+00	123	32	0	90177536	48	5657
2026-01-08 14:47:30.74	20.81	5.31	-37.0	-38.2	20.9	0.00e+00	123	32	0	93323264	48	5668
2026-01-08 14:47:31.75	20.81	5.38	-36.8	-37.9	21.2	0.00e+00	121	32	0	96468992	46	6144
2026-01-08 14:47:32.76	20.82	5.45	-36.9	-38.0	21.1	0.00e+00	123	32	0	99614720	46	6277
2026-01-08 14:47:33.77	20.82	5.53	-36.8	-37.9	21.2	0.00e+00	123	32	0	102760448	46	6196
2026-01-08 14:47:34.78	20.82	5.60	-36.9	-38.0	21.2	0.00e+00	122	32	0	106954752	46	6226
2026-01-08 14:47:35.79	20.82	5.67	-36.7	-37.8	21.2	0.00e+00	123	32	0	109051904	46	6114
2026-01-08 14:47:36.80	20.83	5.75	-36.8	-37.9	21.2	0.00e+00	123	32	0	112197632	46	6153
2026-01-08 14:47:37.81	20.83	5.82	-36.9	-38.0	21.1	0.00e+00	122	32	0	115343360	46	6252
2026-01-08 14:47:38.82	20.83	5.90	-36.7	-37.8	21.4	0.00e+00	120	32	0	118489088	46	6111
2026-01-08 14:47:39.83	20.83	5.97	-36.6	-37.7	21.4	0.00e+00	123	32	0	122683392	46	6047
2026-01-08 14:47:40.83	20.84	6.04	-36.6	-37.7	21.5	0.00e+00	123	32	0	125829120	46	6003
2026-01-08 14:47:41.84	20.84	6.12	-36.6	-37.7	21.5	0.00e+00	122	32	0	128974848	46	6034
2026-01-08 14:47:42.85	20.84	6.19	-36.5	-37.6	21.5	0.00e+00	122	32	0	132120576	46	5978
2026-01-08 14:47:43.86	20.84	6.27	-36.7	-37.8	21.5	0.00e+00	122	32	0	134217728	46	6074
2026-01-08 14:47:44.87	20.85	6.35	-36.6	-37.7	21.4	0.00e+00	122	32	0	138412032	46	6026
2026-01-08 14:47:45.88	20.85	6.42	-36.7	-37.7	21.5	0.00e+00	124	32	0	141557760	46	6050
2026-01-08 14:47:46.89	20.85	6.50	-36.4	-37.5	21.7	0.00e+00	120	32	0	144703488	46	5861
2026-01-08 14:47:47.90	20.85	6.57	-36.4	-37.5	21.7	0.00e+00	123	32	0	147849216	46	5859
2026-01-08 14:47:48.91	20.86	6.65	-36.4	-37.5	21.7	0.00e+00	123	32	0	150994944	46	5873
2026-01-08 14:47:49.92	20.86	6.73	-36.3	-37.4	21.8	0.00e+00	123	32	0	154140672	46	5829
2026-01-08 14:47:50.93	20.86	6.80	-36.4	-37.5	21.7	0.00e+00	122	32	0	157286400	46	5860
2026-01-08 14:47:51.94	20.86	6.88	-36.2	-37.3	21.9	0.00e+00	123	32	0	160432128	46	5745
2026-01-08 14:47:52.95	20.87	6.96	-36.4	-37.4	21.7	0.00e+00	122	32	0	163577856	46	5844
2026-01-08 14:47:53.96	20.87	7.03	-36.4	-37.4	21.7	0.00e+00	120	32	0	166723584	46	5843
2026-01-08 14:47:54.97	20.87	7.11	-36.2	-37.2	22.0	0.00e+00	122	32	0	169869312	46	5720
2026-01-08 14:47:55.98	20.87	7.19	-36.1	-37.1	22.0	0.00e+00	123	32	0	173015040	46	5658
2026-01-08 14:47:56.99	20.87	7.27	-36.1	-37.2	22.0	0.00e+00	123	32	0	176160768	46	5679
2026-01-08 14:47:58.00	20.88	7.35	-36.0	-37.0	22.2	0.00e+00	122	32	0	179306496	46	5592
2026-01-08 14:47:59.00	20.88	7.42	-36.1	-37.1	22.2	0.00e+00	123	32	0	182452224	46	5618
2026-01-08 14:48:00.01	20.88	7.50	-35.9	-36.9	22.3	0.00e+00	123	32	0	185597952	46	5495
2026-01-08 14:48:01.02	20.88	7.58	-36.0	-37.0	22.2	0.00e+00	123	32	0	188743680	46	5590
2026-01-08 14:48:02.03	20.89	7.66	-35.9	-36.9	22.2	0.00e+00	123	32	0	191889408	46	5512
2026-01-08 14:48:03.04	20.89	7.74	-36.1	-37.1	22.2	0.00e+00	123	32	0	195035136	46	5623
2026-01-08 14:48:04.05	20.89	7.82	-35.7	-36.7	22.4	0.00e+00	122	32	0	198180864	44	6056
2026-01-08 14:48:05.06	20.89	7.90	-35.9	-36.9	22.3	0.00e+00	123	32	0	201326592	44	6150
2026-01-08 14:48:06.07	20.89	7.98	-35.7	-36.7	22.5	0.00e+00	120	32	0	204472320	44	6009
2026-01-08 14:48:07.08	20.90	8.06	-35.7	-36.7	22.4	0.00e+00	123	32	0	207618048	44	6030
2026-01-08 14:48:08.09	20.90	8.14	-35.7	-36.7	22.5	0.00e+00	123	32	0	210763776	44	6014
2026-01-08 14:48:09.10	20.90	8.23	-35.8	-36.8	22.4	0.00e+00	123	32	0	213909504	44	6089
2026-01-08 14:48:10.11	20.90	8.31	-35.9	-36.9	22.3	0.00e+00	123	32	0	217055232	44	6144
2026-01-08 14:48:11.11	20.91	8.39	-35.9	-36.9	22.3	0.00e+00	123	32	0	220200960	44	6205
2026-01-08 14:48:12.12	20.91	8.47	-35.8	-36.9	22.3	0.00e+00	123	32	0	223346688	44	6140
2026-01-08 14:48:13.13	20.91	8.55	-35.6	-36.6	22.6	0.00e+00	122	32	0	226492416	44	5960
2026-01-08 14:48:14.14	20.91	8.63	-35.5	-36.4	22.7	0.00e+00	120	32	0	229638144	44	5855
2026-01-08 14:48:15.15	20.91	8.72	-35.4	-36.4	22.8	0.00e+00	122	32	0	232783872	44	5831
2026-01-08 14:48:16.16	20.92	8.80	-35.5	-36.4	22.8	0.00e+00	122	32	0	235929600	44	5846
2026-01-08 14:48:17.17	20.92	8.88	-35.5	-36.4	22.7	0.00e+00	123	32	0	239075328	44	5841
2026-01-08 14:48:18.18	20.92	8.97	-35.3	-36.3	22.9	0.00e+00	122	32	0	242221056	44	5749
2026-01-08 14:48:19.19	20.92	9.05	-35.4	-36.4	22.8	0.00e+00	120	32	0	245366784	44	5834
2026-01-08 14:48:20.20	20.92	9.14	-35.4	-36.4	22.8	0.00e+00	122	32	0	248512512	44	5796
2026-01-08 14:48:21.21	20.93	9.22	-35.4	-36.3	22.9	0.00e+00	123	32	0	251658240	44	5788
2026-01-08 14:48:22.22	20.93	9.30	-35.2	-36.2	23.0	0.00e+00	123	32	0	254803968	44	5688
2026-01-08 14:48:23.23	20.93	9.39	-35.2	-36.2	22.9	0.00e+00	122	32	0	257949696	44	5694
2026-01-08 14:48:24.24	20.93	9.48	-35.2	-36.2	23.0	0.00e+00	122	32	0	261095424	44	5693
2026-01-08 14:48:25.25	20.93	9.56	-34.3	-36.1	20.4	3.41e-03	120	32	0	264241152	42	6298
2026-01-08 14:48:26.25	20.94	9.65	-34.5	-36.2	20.2	9.17e-03	122	32	0	267386880	42	6362
2026-01-08 14:48:27.26	20.94	9.73	-33.8	-36.2	18.7	1.75e-02	123	32	0	270532608	42	6379
2026-01-08 14:48:28.27	20.94	9.82	-32.8	-36.1	19.3	1.82e-02	122	32	0	273678336	40	7102
2026-01-08 14:48:29.28	20.94	9.91	-32.9	-36.0	18.2	2.54e-02	122	32	0	276824064	38	7848
2026-01-08 14:48:30.29	20.94	9.99	-32.3	-36.0	18.5	2.26e-02	123	32	0	279969792	38	7869
2026-01-08 14:48:31.30	20.94	10.08	-31.2	-36.2	17.9	2.40e-02	121	32	0	283115520	36	8986
2026-01-08 14:48:32.31	20.95	10.17	-35.0	-36.0	23.3	0.00e+00	120	32	0	286261248	42	6213
2026-01-08 14:48:33.32	20.95	10.26	-35.0	-36.0	23.2	0.00e+00	123	32	0	289406976	42	6249
2026-01-08 14:48:34.33	20.95	10.34	-35.0	-35.9	23.2	0.00e+00	122	32	0	292552704	42	6199
2026-01-08 14:48:35.34	20.95	10.43	-34.9	-35.9	23.3	0.00e+00	123	32	0	295698432	42	6171
2026-01-08 14:48:36.35	20.95	10.52	-35.1	-36.0	23.1	0.00e+00	121	32	0	298844160	42	6263
2026-01-08 14:48:37.36	20.96	10.61	-35.1	-36.1	23.1	0.00e+00	122	32	0	301989888	42	6290
2026-01-08 14:48:38.37	20.96	10.70	-35.0	-35.9	23.3	0.00e+00	120	32	0	305135616	42	6191
2026-01-08 14:48:39.38	20.96	10.79	-34.9	-35.8	23.4	0.00e+00	123	32	0	308281344	42	6127
2026-01-08 14:48:40.39	20.96	10.88	-34.9	-35.9	23.3	0.00e+00	120	32	0	311427072	42	6144
2026-01-08 14:48:41.40	20.96	10.97	-34.9	-35.8	23.4	0.00e+00	122	32	0	314572800	42	6134
2026-01-08 14:48:42.41	20.96	11.06	-34.7	-35.7	23.5	0.00e+00	120	32	0	317718528	42	6012
2026-01-08 14:48:43.41	20.97	11.15	-34.8	-35.7	23.5	0.00e+00	122	32	0	320864256	42	6031
2026-01-08 14:48:44.42	20.97	11.25	-34.8	-35.7	23.5	0.00e+00	122	32	0	324009984	42	6026
2026-01-08 14:48:45.43	20.97	11.34	-34.6	-35.6	23.6	0.00e+00	122	32	0	327155712	42	5942
2026-01-08 14:48:46.44	20.97	11.43	-34.7	-35.7	23.5	0.00e+00	121	32	0	330301440	42	6010
2026-01-08 14:48:47.45	20.97	11.52	-34.5	-35.4	23.7	0.00e+00	122	32	0	333447168	42	5858
2026-01-08 14:48:48.46	20.97	11.62	-34.6	-35.6	23.6	0.00e+00	122	32	0	336592896	42	5927
2026-01-08 14:48:49.47	20.97	11.71	-34.5	-35.5	23.7	0.00e+00	123	32	0	339738624	42	5873
2026-01-08 14:48:50.48	20.98	11.80	-34.5	-35.4	23.8	0.00e+00	123	32	0	342884352	42	5850
2026-01-08 14:48:51.49	20.98	11.90	-34.5	-35.4	23.8	0.00e+00	123	32	0	346030080	42	5809
2026-01-08 14:48:52.50	20.98	11.99	-34.5	-35.4	23.7	0.00e+00	122	32	0	349175808	42	5854
2026-01-08 14:48:53.51	20.98	12.09	-34.5	-35.4	23.8	0.00e+00	122	32	0	352321536	42	5823
2026-01-08 14:48:54.53	20.98	12.18	-34.5	-35.4	23.7	0.00e+00	122	32	0	355467264	42	5854
2026-01-08 14:48:55.54	20.98	12.28	-34.6	-35.5	23.7	0.00e+00	121	32	0	358612992	42	5874
2026-01-08 14:48:56.55	20.99	12.37	-34.6	-35.5	23.7	0.00e+00	123	32	0	361758720	42	5897
2026-01-08 14:48:57.56	20.99	12.47	-34.6	-35.5	23.7	0.00e+00	123	32	0	364904448	42	5883
2026-01-08 14:48:58.57	20.99	12.57	-34.4	-35.3	23.9	0.00e+00	122	32	0	368050176	42	5770
2026-01-08 14:48:59.57	20.99	12.66	-34.6	-35.5	23.7	0.00e+00	123	32	0	371195904	42	5885
2026-01-08 14:49:00.58	20.99	12.76	-34.4	-35.3	23.9	0.00e+00	123	32	0	374341632	42	5776
2026-01-08 14:49:01.60	20.99	12.86	-34.6	-35.5	23.8	0.00e+00	121	32	0	377487360	42	5878
2026-01-08 14:49:02.61	20.99	12.96	-34.3	-35.3	23.8	0.00e+00	123	32	0	380633088	42	5728
2026-01-08 14:49:03.61	20.99	13.06	-34.4	-35.3	23.9	0.00e+00	123	32	0	383778816	42	5773
2026-01-08 14:49:04.62	21.00	13.16	-34.3	-35.2	23.9	0.00e+00	123	32	0	386924544	42	5691
2026-01-08 14:49:05.63	21.00	13.26	-34.3	-35.2	24.0	0.00e+00	123	32	0	390070272	42	5683
2026-01-08 14:49:06.64	21.00	13.36	-34.4	-35.3	23.9	0.00e+00	121	32	0	393216000	42	5732
2026-01-08 14:49:07.65	21.00	13.46	-34.3	-35.3	23.9	0.00e+00	122	32	0	396361728	42	5734
2026-01-08 14:49:08.66	21.00	13.56	-34.3	-35.2	23.9	0.00e+00	123	32	0	399507456	42	5721
2026-01-08 14:49:09.67	21.00	13.66	-34.3	-35.3	23.9	0.00e+00	123	32	0	402653184	42	5726
2026-01-08 14:49:10.68	21.00	13.76	-34.2	-35.1	24.0	0.00e+00	120	32	0	405798912	42	5628
2026-01-08 14:49:11.69	21.00	13.86	-34.3	-35.2	24.0	0.00e+00	123	32	0	408944640	42	5672
2026-01-08 14:49:12.70	21.00	13.96	-34.2	-35.1	24.0	0.00e+00	122	32	0	412090368	42	5636
2026-01-08 14:49:13.71	21.01	14.07	-34.2	-35.1	24.1	0.00e+00	122	32	0	415236096	42	5657
2026-01-08 14:49:14.72	21.01	14.17	-34.2	-35.1	24.0	0.00e+00	123	32	0	418381824	42	5604
2026-01-08 14:49:15.72	21.01	14.27	-34.3	-35.2	24.0	0.00e+00	120	32	0	421527552	42	5685
2026-01-08 14:49:16.73	21.01	14.38	-34.3	-35.2	24.0	0.00e+00	127	32	0	424673280	42	5661
2026-01-08 14:49:17.74	21.01	14.48	-34.1	-35.0	24.2	0.00e+00	122	32	0	427819008	42	5553
2026-01-08 14:49:18.75	21.01	14.59	-34.3	-35.2	24.0	0.00e+00	122	32	0	430964736	42	5671
2026-01-08 14:49:19.76	21.01	14.69	-34.2	-35.2	24.0	0.00e+00	123	32	0	434110464	42	5663
2026-01-08 14:49:20.77	21.01	14.80	-34.1	-35.0	24.1	0.00e+00	123	32	0	437256192	42	5584
2026-01-08 14:49:21.78	21.01	14.91	-34.3	-35.2	23.9	0.00e+00	123	32	0	440401920	42	5697
2026-01-08 14:49:22.79	21.01	15.01	-34.1	-35.0	24.1	0.00e+00	122	32	0	443547648	42	5593
2026-01-08 14:49:23.80	21.02	15.12	-34.1	-35.0	24.2	0.00e+00	122	32	0	446693376	42	5558
2026-01-08 14:49:24.81	21.02	15.23	-34.2	-35.1	24.1	0.00e+00	123	32	0	449839104	42	5605
2026-01-08 14:49:25.82	21.02	15.34	-34.2	-35.1	24.1	0.00e+00	120	32	0	452984832	42	5613
2026-01-08 14:49:26.83	21.02	15.44	-34.1	-35.0	24.2	0.00e+00	123	32	0	456130560	42	5532
2026-01-08 14:49:27.83	21.02	15.55	-34.3	-35.2	24.0	0.00e+00	120	32	0	459276288	42	5682
2026-01-08 14:49:28.84	21.02	15.66	-34.2	-35.1	24.1	0.00e+00	122	32	0	462422016	42	5642
2026-01-08 14:49:29.85	21.02	15.77	-34.2	-35.1	24.0	0.00e+00	122	32	0	465567744	42	5638
2026-01-08 14:49:30.86	21.02	15.88	-34.1	-35.0	24.1	0.00e+00	122	32	0	468713472	42	5593
2026-01-08 14:49:31.87	21.02	16.00	-34.0	-34.9	24.2	0.00e+00	123	32	0	472907776	42	5491
2026-01-08 14:49:32.88	21.02	16.11	-34.1	-35.0	24.1	0.00e+00	122	32	0	475004928	42	5574
2026-01-08 14:49:33.89	21.02	16.22	-34.1	-35.0	24.1	0.00e+00	123	32	0	478150656	42	5573
2026-01-08 14:49:34.90	21.02	16.33	-34.1	-35.0	24.1	0.00e+00	123	32	0	481296384	42	5537
2026-01-08 14:49:35.91	21.02	16.45	-34.2	-35.1	24.1	0.00e+00	122	32	0	484442112	42	5624
2026-01-08 14:49:36.92	21.02	16.56	-34.1	-35.0	24.2	0.00e+00	123	32	0	487587840	42	5575
2026-01-08 14:49:37.93	21.02	16.68	-34.1	-35.0	24.1	0.00e+00	122	32	0	491782144	42	5583
2026-01-08 14:49:38.94	21.02	16.79	-34.2	-35.1	24.1	0.00e+00	123	32	0	494927872	42	5649
2026-01-08 14:49:39.95	21.02	16.91	-34.2	-35.1	24.1	0.00e+00	122	32	0	497025024	42	5630
2026-01-08 14:49:40.96	21.03	17.02	-34.3	-35.2	24.0	0.00e+00	123	32	0	500170752	42	5688
2026-01-08 14:49:41.97	21.03	17.14	-34.3	-35.2	24.0	0.00e+00	123	32	0	503316480	42	5696
2026-01-08 14:49:42.98	21.03	17.26	-34.3	-35.2	24.0	0.00e+00	123	32	0	507510784	42	5675
2026-01-08 14:49:43.99	21.03	17.37	-34.3	-35.2	24.0	0.00e+00	123	32	0	510656512	42	5688
2026-01-08 14:49:45.00	21.03	17.49	-34.2	-35.1	24.1	0.00e+00	123	32	0	513802240	42	5627
2026-01-08 14:49:46.01	21.03	17.61	-34.3	-35.2	24.0	0.00e+00	122	32	0	516947968	42	5681
2026-01-08 14:49:47.02	21.03	17.73	-34.4	-35.3	23.9	0.00e+00	121	32	0	520093696	42	5758
2026-01-08 14:49:48.02	21.03	17.85	-34.3	-35.2	24.0	0.00e+00	122	32	0	523239424	42	5718
2026-01-08 14:49:49.04	21.03	17.97	-34.3	-35.3	24.0	0.00e+00	123	32	0	526385152	42	5733
2026-01-08 14:49:50.04	21.03	18.09	-34.4	-35.3	24.0	0.00e+00	123	32	0	529530880	42	5758
2026-01-08 14:49:51.05	21.03	18.21	-34.3	-35.2	24.0	0.00e+00	123	32	0	532676608	42	5673
2026-01-08 14:49:52.06	21.03	18.34	-34.3	-35.2	24.0	0.00e+00	122	32	0	535822336	42	5711
2026-01-08 14:49:53.07	21.03	18.46	-34.3	-35.2	23.9	0.00e+00	123	32	0	538968064	42	5721
2026-01-08 14:49:54.08	21.03	18.58	-34.3	-35.2	24.0	0.00e+00	120	32	0	542113792	42	5682
2026-01-08 14:49:55.09	21.03	18.71	-34.3	-35.3	24.0	0.00e+00	123	32	0	545259520	42	5726
2026-01-08 14:49:56.10	21.03	18.83	-34.2	-35.2	24.1	0.00e+00	122	32	0	548405248	42	5665
2026-01-08 14:49:57.11	21.03	18.96	-34.2	-35.2	24.1	0.00e+00	123	32	0	551550976	42	5666
2026-01-08 14:49:58.12	21.03	19.09	-34.2	-35.1	24.1	0.00e+00	123	32	0	554696704	42	5634
2026-01-08 14:49:59.13	21.03	19.21	-34.3	-35.2	24.1	0.00e+00	122	32	0	557842432	42	5682
2026-01-08 14:50:00.14	21.03	19.34	-34.2	-35.1	24.0	0.00e+00	122	32	0	560988160	42	5647
2026-01-08 14:50:01.15	21.03	19.47	-34.2	-35.1	24.1	0.00e+00	122	32	0	564133888	42	5651
2026-01-08 14:50:02.15	21.03	19.60	-34.2	-35.1	24.0	0.00e+00	123	32	0	567279616	42	5634
2026-01-08 14:50:03.16	21.02	19.73	-34.1	-35.1	24.1	0.00e+00	120	32	0	570425344	42	5605
2026-01-08 14:50:04.17	21.02	19.86	-34.0	-34.9	24.3	0.00e+00	122	32	0	573571072	42	5495
2026-01-08 14:50:05.18	21.02	19.99	-34.1	-35.0	24.3	0.00e+00	122	32	0	576716800	42	5535
2026-01-08 14:50:06.19	21.02	20.12	-33.9	-34.8	24.4	0.00e+00	123	32	0	579862528	42	5436
2026-01-08 14:50:07.20	21.02	20.25	-34.0	-34.9	24.3	0.00e+00	120	32	0	583008256	42	5476
2026-01-08 14:50:08.21	21.02	20.38	-33.8	-34.7	24.4	0.00e+00	123	32	0	586153984	42	5375
2026-01-08 14:50:09.22	21.02	20.52	-33.8	-34.7	24.4	0.00e+00	122	32	0	589299712	40	6004
2026-01-08 14:50:10.23	21.02	20.65	-33.7	-34.6	24.5	0.00e+00	123	32	0	592445440	40	5962
2026-01-08 14:50:11.24	21.02	20.79	-33.7	-34.6	24.6	0.00e+00	123	32	0	595591168	40	5944
2026-01-08 14:50:12.25	21.02	20.92	-33.6	-34.5	24.5	0.00e+00	121	32	0	598736896	40	5905
2026-01-08 14:50:13.26	21.02	21.06	-33.6	-34.5	24.6	0.00e+00	122	32	0	601882624	40	5863
2026-01-08 14:50:14.27	21.02	21.20	-33.6	-34.5	24.6	0.00e+00	122	32	0	605028352	40	5918
2026-01-08 14:50:15.28	21.02	21.34	-33.4	-34.3	24.8	0.00e+00	122	32	0	608174080	40	5752
2026-01-08 14:50:16.28	21.02	21.47	-33.5	-34.4	24.7	0.00e+00	120	32	0	611319808	40	5826
2026-01-08 14:50:17.29	21.01	21.61	-33.4	-34.3	24.8	0.00e+00	123	32	0	614465536	40	5750
2026-01-08 14:50:18.30	21.01	21.75	-33.1	-34.0	24.9	0.00e+00	123	32	0	617611264	40	5573
2026-01-08 14:50:19.31	21.01	21.90	-33.3	-34.2	24.9	0.00e+00	120	32	0	620756992	40	5666
2026-01-08 14:50:20.31	21.01	22.04	-33.0	-33.9	25.0	0.00e+00	123	32	0	623902720	40	5501
2026-01-08 14:50:21.32	21.01	22.18	-33.1	-34.0	24.9	0.00e+00	123	32	0	627048448	40	5579
2026-01-08 14:50:22.33	21.01	22.32	-33.1	-33.9	24.9	0.00e+00	123	32	0	630194176	40	5527
2026-01-08 14:50:23.34	21.01	22.47	-32.9	-33.8	25.0	0.00e+00	123	32	0	633339904	40	5429
2026-01-08 14:50:24.35	21.01	22.61	-32.7	-33.6	25.2	0.00e+00	123	32	0	636485632	40	5316
2026-01-08 14:50:25.36	21.01	22.76	-32.7	-33.5	25.3	0.00e+00	123	32	0	639631360	38	5900
2026-01-08 14:50:26.37	21.00	22.91	-32.7	-33.6	25.2	0.00e+00	122	32	0	642777088	38	5933
2026-01-08 14:50:27.38	21.00	23.05	-32.9	-33.7	25.1	0.00e+00	123	32	0	645922816	38	6045
2026-01-08 14:50:28.38	21.00	23.20	-32.6	-33.5	25.2	0.00e+00	120	32	0	649068544	38	5896
2026-01-08 14:50:29.39	21.00	23.35	-32.6	-33.5	25.4	0.00e+00	122	32	0	652214272	38	5869
2026-01-08 14:50:30.40	21.00	23.50	-32.6	-33.5	25.3	0.00e+00	120	32	0	655360000	38	5871
2026-01-08 14:50:31.41	21.00	23.65	-32.5	-33.3	25.4	0.00e+00	123	32	0	658505728	38	5767
2026-01-08 14:50:32.42	20.99	23.81	-32.6	-33.5	25.4	0.00e+00	123	32	0	661651456	38	5880
2026-01-08 14:50:33.42	20.99	23.96	-32.6	-33.5	25.4	0.00e+00	122	32	0	664797184	38	5868
2026-01-08 14:50:34.43	20.99	24.11	-32.5	-33.3	25.4	0.00e+00	123	32	0	667942912	38	5784
2026-01-08 14:50:35.45	20.99	24.27	-32.6	-33.5	25.4	0.00e+00	122	32	0	671088640	38	5867
2026-01-08 14:50:36.45	20.99	24.42	-32.5	-33.4	25.4	0.00e+00	122	32	0	674234368	38	5820
2026-01-08 14:50:37.46	20.98	24.58	-32.8	-33.6	25.3	0.00e+00	123	32	0	677380096	38	5981
2026-01-08 14:50:38.47	20.98	24.74	-32.6	-33.4	25.4	0.00e+00	122	32	0	680525824	38	5848
2026-01-08 14:50:39.48	20.98	24.90	-32.7	-33.5	25.3	0.00e+00	122	32	0	683671552	38	5926
2026-01-08 14:50:40.49	20.98	25.05	-32.8	-33.6	25.1	0.00e+00	122	32	0	686817280	38	5967
2026-01-08 14:50:41.50	20.98	25.22	-32.8	-33.7	25.1	0.00e+00	123	32	0	689963008	38	6017
2026-01-08 14:50:42.51	20.97	25.38	-33.0	-33.8	25.1	0.00e+00	122	32	0	693108736	38	6108
2026-01-08 14:50:43.51	20.97	25.54	-32.9	-33.8	25.1	0.00e+00	120	32	0	696254464	38	6072
2026-01-08 14:50:44.52	20.97	25.70	-33.0	-33.9	25.0	0.00e+00	122	32	0	699400192	38	6165
2026-01-08 14:50:45.53	20.97	25.87	-33.0	-33.9	25.0	0.00e+00	122	32	0	702545920	38	6171
2026-01-08 14:50:46.54	20.96	26.03	-33.1	-34.0	25.0	0.00e+00	123	32	0	705691648	38	6247
2026-01-08 14:50:47.55	20.96	26.20	-33.2	-34.0	24.9	0.00e+00	122	32	0	708837376	38	6253
2026-01-08 14:50:48.56	20.96	26.37	-33.2	-34.1	24.9	0.00e+00	120	32	0	711983104	38	6317
2026-01-08 14:50:49.57	20.95	26.54	-33.4	-34.2	24.8	0.00e+00	123	32	0	715128832	38	6423
2026-01-08 14:50:50.57	20.95	26.70	-33.5	-34.4	24.6	0.00e+00	123	32	0	718274560	38	6528
2026-01-08 14:50:51.58	20.95	26.87	-33.7	-34.6	24.4	0.00e+00	122	32	0	721420288	38	6693
2026-01-08 14:50:52.59	20.95	27.05	-33.7	-34.6	24.4	0.00e+00	120	32	0	724566016	40	5931
2026-01-08 14:50:53.60	20.94	27.22	-33.9	-34.7	24.4	0.00e+00	123	32	0	727711744	40	6062
2026-01-08 14:50:54.61	20.94	27.39	-33.8	-34.7	24.4	0.00e+00	122	32	0	730857472	40	6025
2026-01-08 14:50:55.63	20.94	27.57	-33.9	-34.8	24.4	0.00e+00	123	32	0	734003200	40	6067
2026-01-08 14:50:56.63	20.93	27.75	-34.1	-35.0	24.3	0.00e+00	123	32	0	737148928	40	6220
2026-01-08 14:50:57.64	20.93	27.92	-34.1	-35.1	24.2	0.00e+00	122	32	0	740294656	40	6278
2026-01-08 14:50:58.66	20.93	28.10	-34.2	-35.2	24.1	0.00e+00	122	32	0	743440384	40	6357
2026-01-08 14:50:59.67	20.92	28.28	-34.3	-35.2	24.1	0.00e+00	122	32	0	746586112	40	6413
2026-01-08 14:51:00.68	20.92	28.46	-34.2	-35.1	24.2	0.00e+00	123	32	0	749731840	40	6336
2026-01-08 14:51:01.69	20.91	28.65	-34.3	-35.2	24.1	0.00e+00	122	32	0	752877568	40	6408
2026-01-08 14:51:02.70	20.91	28.83	-34.3	-35.2	24.1	0.00e+00	123	32	0	756023296	40	6391
2026-01-08 14:51:03.71	20.91	29.02	-34.2	-35.1	24.2	0.00e+00	123	32	0	759169024	40	6325
2026-01-08 14:51:04.71	20.90	29.20	-34.2	-35.1	24.2	0.00e+00	123	32	0	762314752	40	6319
2026-01-08 14:51:05.72	20.90	29.39	-34.4	-35.3	24.1	0.00e+00	122	32	0	765460480	40	6430
2026-01-08 14:51:06.73	20.89	29.57	-34.5	-35.4	24.0	0.00e+00	120	32	0	768606208	40	6567
2026-01-08 14:51:07.74	20.89	29.76	-34.2	-35.1	24.3	0.00e+00	122	32	0	771751936	40	6340
2026-01-08 14:51:08.75	20.88	29.96	-34.1	-35.0	24.4	0.00e+00	123	32	0	774897664	40	6242
2026-01-08 14:51:09.76	20.88	30.15	-34.1	-35.0	24.4	0.00e+00	122	32	0	778043392	40	6245
2026-01-08 14:51:10.76	20.87	30.34	-33.9	-34.8	24.6	0.00e+00	123	32	0	781189120	40	6118
2026-01-08 14:51:11.77	20.87	30.53	-33.6	-34.5	24.7	0.00e+00	120	32	0	784334848	40	5901
2026-01-08 14:51:12.78	20.87	30.73	-33.5	-34.4	24.8	0.00e+00	122	32	0	787480576	40	5804
2026-01-08 14:51:13.79	20.86	30.93	-33.5	-34.4	24.9	0.00e+00	123	32	0	790626304	40	5801
2026-01-08 14:51:14.80	20.85	31.13	-33.6	-34.5	24.8	0.00e+00	123	32	0	793772032	40	5911
2026-01-08 14:51:15.81	20.85	31.33	-33.8	-34.6	24.7	0.00e+00	122	32	0	796917760	40	5989
2026-01-08 14:51:16.82	20.84	31.53	-33.6	-34.4	24.7	0.00e+00	122	32	0	800063488	40	5847
2026-01-08 14:51:17.83	20.84	31.73	-33.5	-34.4	24.9	0.00e+00	123	32	0	803209216	40	5793
2026-01-08 14:51:18.84	20.83	31.94	-33.6	-34.5	24.7	0.00e+00	123	32	0	806354944	40	5879
2026-01-08 14:51:19.85	20.83	32.14	-33.2	-34.1	25.0	0.00e+00	123	32	0	809500672	40	5626
2026-01-08 14:51:20.86	20.82	32.35	-33.3	-34.2	25.0	0.00e+00	120	32	0	812646400	40	5687
2026-01-08 14:51:21.87	20.82	32.56	-33.5	-34.4	24.8	0.00e+00	121	32	0	815792128	40	5805
2026-01-08 14:51:22.88	20.81	32.77	-33.7	-34.5	24.7	0.00e+00	120	32	0	818937856	40	5926
2026-01-08 14:51:23.89	20.80	32.98	-33.9	-34.8	24.6	0.00e+00	121	32	0	822083584	40	6113
2026-01-08 14:51:24.89	20.80	33.19	-33.9	-34.8	24.5	0.00e+00	123	32	0	825229312	40	6077
2026-01-08 14:51:25.90	20.79	33.40	-34.1	-35.0	24.3	0.00e+00	120	32	0	828375040	40	6210
2026-01-08 14:51:26.91	20.78	33.62	-34.2	-35.1	24.2	0.00e+00	123	32	0	831520768	40	6305
2026-01-08 14:51:27.92	20.78	33.84	-34.3	-35.2	24.0	0.00e+00	123	32	0	834666496	40	6388
2026-01-08 14:51:28.93	20.77	34.06	-34.3	-35.2	24.1	0.00e+00	122	32	0	837812224	40	6411
2026-01-08 14:51:29.94	20.76	34.28	-34.6	-35.6	23.8	0.00e+00	123	32	0	840957952	40	6650
2026-01-08 14:51:30.95	20.76	34.50	-34.8	-35.7	23.7	0.00e+00	122	32	0	844103680	40	6774
2026-01-08 14:51:31.96	20.75	34.73	-35.0	-36.0	23.5	0.00e+00	123	32	0	847249408	42	6236
2026-01-08 14:51:32.96	20.74	34.95	-35.0	-36.0	23.6	0.00e+00	123	32	0	850395136	42	6233
2026-01-08 14:51:33.97	20.73	35.18	-35.4	-36.3	23.4	0.00e+00	123	32	0	853540864	42	6473
2026-01-08 14:51:34.98	20.72	35.40	-35.6	-36.6	23.1	0.00e+00	122	32	0	856686592	42	6671
2026-01-08 14:51:35.99	20.72	35.64	-35.7	-36.7	23.1	0.00e+00	123	32	0	859832320	44	5996
2026-01-08 14:51:37.00	20.71	35.87	-35.9	-36.9	22.9	0.00e+00	122	32	0	862978048	44	6179
2026-01-08 14:51:38.01	20.70	36.10	-36.1	-37.1	22.7	0.00e+00	122	32	0	866123776	44	6281
2026-01-08 14:51:39.02	20.69	36.34	-36.2	-37.2	22.6	0.00e+00	120	32	0	869269504	44	6358
2026-01-08 14:51:40.02	20.68	36.57	-36.3	-37.2	22.7	0.00e+00	122	32	0	872415232	44	6414
2026-01-08 14:51:41.03	20.67	36.81	-36.1	-37.1	22.7	0.00e+00	123	32	0	875560960	44	6341
2026-01-08 14:51:42.04	20.66	37.05	-36.0	-37.0	22.9	0.00e+00	123	32	0	878706688	44	6220
2026-01-08 14:51:43.05	20.65	37.29	-35.9	-36.8	23.0	0.00e+00	123	32	0	881852416	44	6118
2026-01-08 14:51:44.06	20.64	37.54	-35.6	-36.5	23.2	0.00e+00	123	32	0	884998144	44	5904
2026-01-08 14:51:45.07	20.64	37.79	-35.5	-36.5	23.2	0.00e+00	122	32	0	888143872	44	5864
2026-01-08 14:51:46.08	20.63	38.03	-35.5	-36.5	23.3	0.00e+00	123	32	0	891289600	44	5863
2026-01-08 14:51:47.09	20.61	38.28	-35.3	-36.2	23.4	0.00e+00	122	32	0	894435328	44	5679
2026-01-08 14:51:48.10	20.60	38.54	-35.3	-36.2	23.4	0.00e+00	122	32	0	897581056	44	5720
2026-01-08 14:51:49.11	20.59	38.79	-35.3	-36.2	23.4	0.00e+00	123	32	0	900726784	44	5693
2026-01-08 14:51:50.12	20.58	39.04	-35.2	-36.1	23.5	0.00e+00	122	32	0	903872512	44	5643
2026-01-08 14:51:51.13	20.57	39.30	-35.2	-36.1	23.2	0.00e+00	120	32	0	908066816	44	5628
2026-01-08 14:51:52.14	20.56	39.56	-35.2	-36.1	23.2	0.00e+00	123	32	0	910163968	44	5642
2026-01-08 14:51:53.14	20.55	39.82	-35.0	-36.0	23.4	0.00e+00	123	32	0	913309696	44	5552
2026-01-08 14:51:54.15	20.54	40.08	-35.1	-36.1	23.3	0.00e+00	123	32	0	916455424	44	5616
2026-01-08 14:51:55.16	20.52	40.35	-35.2	-36.1	23.4	0.00e+00	123	32	0	919601152	44	5653
2026-01-08 14:51:56.17	20.51	40.62	-35.3	-36.2	23.3	0.00e+00	123	32	0	923795456	44	5700
2026-01-08 14:51:57.18	20.50	40.89	-35.4	-36.3	23.3	0.00e+00	122	32	0	926941184	44	5769
2026-01-08 14:51:58.19	20.49	41.16	-35.5	-36.5	23.3	0.00e+00	120	32	0	930086912	44	5898
2026-01-08 14:51:59.20	20.47	41.43	-35.8	-36.7	23.1	0.00e+00	122	32	0	933232640	44	6061
2026-01-08 14:52:00.21	20.46	41.71	-36.0	-37.0	22.9	0.00e+00	120	32	0	935329792	44	6237
2026-01-08 14:52:01.22	20.45	41.98	-36.0	-37.0	22.8	0.00e+00	122	32	0	939524096	44	6263
2026-01-08 14:52:02.23	20.43	42.26	-36.2	-37.1	22.8	0.00e+00	123	32	0	942669824	44	6350
2026-01-08 14:52:03.24	20.42	42.54	-36.3	-37.3	22.7	0.00e+00	123	32	0	945815552	44	6449
2026-01-08 14:52:04.25	20.40	42.83	-36.4	-37.4	22.6	0.00e+00	122	32	0	948961280	44	6545
2026-01-08 14:52:05.26	20.39	43.12	-36.5	-37.5	22.5	0.00e+00	123	32	0	952107008	44	6603
2026-01-08 14:52:06.27	20.37	43.40	-36.2	-37.2	22.7	0.00e+00	123	32	0	955252736	44	6351
2026-01-08 14:52:07.27	20.36	43.69	-36.4	-37.4	22.4	0.00e+00	123	32	0	958398464	44	6553
2026-01-08 14:52:08.28	20.34	43.98	-36.3	-37.3	22.6	0.00e+00	123	32	0	961544192	44	6460
2026-01-08 14:52:09.29	20.32	44.28	-36.3	-37.3	22.5	0.00e+00	122	32	0	964689920	44	6471
2026-01-08 14:52:10.30	20.31	44.58	-36.6	-37.6	22.4	0.00e+00	120	32	0	967835648	44	6692
2026-01-08 14:52:11.31	20.29	44.88	-36.7	-37.7	22.2	0.00e+00	120	32	0	970981376	44	6790
2026-01-08 14:52:12.32	20.27	45.18	-37.0	-38.1	22.0	0.00e+00	123	32	0	974127104	46	6304
2026-01-08 14:52:13.33	20.25	45.48	-37.2	-38.3	21.8	0.00e+00	123	32	0	977272832	46	6469
2026-01-08 14:52:14.34	20.23	45.79	-37.1	-38.2	21.8	0.00e+00	120	32	0	980418560	46	6405
2026-01-08 14:52:15.35	20.22	46.10	-37.2	-38.3	21.7	0.00e+00	122	32	0	983564288	46	6444
2026-01-08 14:52:16.36	20.20	46.41	-36.8	-37.9	22.0	0.00e+00	120	32	0	986710016	46	6163
2026-01-08 14:52:17.37	20.18	46.72	-36.5	-37.5	22.4	0.00e+00	123	32	0	989855744	46	5921
2026-01-08 14:52:18.38	20.16	47.04	-36.3	-37.3	22.6	0.00e+00	122	32	0	993001472	46	5739
2026-01-08 14:52:19.39	20.13	47.35	-36.1	-37.2	22.7	0.00e+00	121	32	0	996147200	46	5664
2026-01-08 14:52:20.40	20.11	47.67	-35.7	-36.7	23.1	0.00e+00	120	32	0	999292928	46	5388
2026-01-08 14:52:21.41	20.09	48.00	-35.6	-36.6	23.2	0.00e+00	123	32	0	1002438656	44	5955
2026-01-08 14:52:22.42	20.07	48.32	-35.5	-36.4	23.3	0.00e+00	120	32	0	1005584384	44	5841
2026-01-08 14:52:23.43	20.05	48.65	-35.6	-36.5	23.3	0.00e+00	123	32	0	1008730112	44	5925
2026-01-08 14:52:24.44	20.02	48.98	-35.6	-36.5	23.4	0.00e+00	122	32	0	1011875840	44	5921
2026-01-08 14:52:25.45	20.00	49.31	-35.5	-36.4	23.3	0.00e+00	122	32	0	1015021568	44	5841
2026-01-08 14:52:26.46	19.97	49.65	-35.4	-36.4	23.5	0.00e+00	120	32	0	1018167296	44	5804
2026-01-08 14:52:27.46	19.95	49.98	-35.2	-36.1	23.7	0.00e+00	123	32	0	1021313024	44	5625
2026-01-08 14:52:28.47	19.92	50.32	-35.1	-36.0	23.6	0.00e+00	123	32	0	1024458752	44	5544
2026-01-08 14:52:29.48	19.89	50.67	-35.3	-36.2	23.5	0.00e+00	123	32	0	1027604480	44	5691
2026-01-08 14:52:30.50	19.87	51.02	-35.5	-36.4	23.3	0.00e+00	123	32	0	1030750208	44	5854
2026-01-08 14:52:31.50	19.84	51.36	-35.7	-36.6	23.1	0.00e+00	123	32	0	1033895936	44	5988
2026-01-08 14:52:32.51	19.81	51.71	-35.8	-36.7	23.1	0.00e+00	122	32	0	1037041664	44	6064
2026-01-08 14:52:33.52	19.78	52.06	-35.7	-36.7	23.1	0.00e+00	122	32	0	1040187392	44	6032
2026-01-08 14:52:34.53	19.75	52.42	-35.3	-36.2	23.6	0.00e+00	123	32	0	1043333120	44	5693
2026-01-08 14:52:35.54	19.72	52.78	-34.9	-35.8	23.7	0.00e+00	123	32	0	1046478848	44	5464
2026-01-08 14:52:36.55	19.68	53.14	-34.5	-35.4	24.2	0.00e+00	123	32	0	1049624576	42	5823
2026-01-08 14:52:37.56	19.65	53.50	-34.2	-35.1	24.3	0.00e+00	122	32	0	1052770304	42	5641
2026-01-08 14:52:38.57	19.62	53.87	-34.3	-35.2	24.4	0.00e+00	120	32	0	1055916032	42	5660
2026-01-08 14:52:39.58	19.58	54.24	-34.4	-35.3	24.2	0.00e+00	123	32	0	1059061760	42	5757
2026-01-08 14:52:40.58	19.54	54.61	-34.4	-35.2	24.2	0.00e+00	123	32	0	1062207488	42	5725
2026-01-08 14:52:41.59	19.51	54.98	-34.1	-35.0	24.4	0.00e+00	123	32	0	1065353216	42	5562
2026-01-08 14:52:42.60	19.47	55.36	-34.0	-34.8	24.6	0.00e+00	123	32	0	1068498944	42	5465
2026-01-08 14:52:43.61	19.43	55.74	-33.7	-34.5	24.8	0.00e+00	123	32	0	1071644672	40	5902
2026-01-08 14:52:44.62	19.39	56.12	-33.7	-34.5	24.6	0.00e+00	123	32	0	1074790400	40	5917
2026-01-08 14:52:45.63	19.35	56.50	-33.8	-34.7	24.7	0.00e+00	120	32	0	1077936128	40	6040
2026-01-08 14:52:46.64	19.30	56.89	-33.9	-34.8	24.5	0.00e+00	120	32	0	1081081856	40	6103
2026-01-08 14:52:47.65	19.26	57.28	-33.8	-34.7	24.7	0.00e+00	123	32	0	1084227584	40	6053
2026-01-08 14:52:48.66	19.21	57.67	-33.6	-34.5	24.8	0.00e+00	122	32	0	1087373312	40	5910
2026-01-08 14:52:49.67	19.16	58.07	-33.4	-34.3	24.8	0.00e+00	120	32	0	1090519040	40	5759
2026-01-08 14:52:50.68	19.11	58.47	-33.3	-34.2	24.9	0.00e+00	120	32	0	1093664768	40	5687
2026-01-08 14:52:51.69	19.06	58.87	-33.3	-34.1	25.0	0.00e+00	123	32	0	1096810496	40	5656
2026-01-08 14:52:52.70	19.01	59.27	-33.2	-34.0	25.2	0.00e+00	122	32	0	1099956224	40	5592
2026-01-08 14:52:53.71	18.96	59.68	-32.9	-33.7	25.2	0.00e+00	123	32	0	1103101952	40	5398
2026-01-08 14:52:54.72	18.90	60.09	-32.9	-33.8	25.3	0.00e+00	123	32	0	1106247680	40	5436
2026-01-08 14:52:55.72	18.84	60.49	-32.7	-33.6	25.4	0.00e+00	123	32	0	1109393408	38	5945
2026-01-08 14:52:56.73	18.78	60.91	-32.8	-33.7	25.3	0.00e+00	123	33	0	1112539136	38	6008
2026-01-08 14:52:57.74	18.72	61.32	-32.9	-33.8	24.9	0.00e+00	120	32	0	1115684864	38	6104
2026-01-08 14:52:58.75	18.66	61.74	-32.9	-33.7	24.8	0.00e+00	122	32	0	1118830592	38	6064
2026-01-08 14:52:59.75	18.59	62.16	-32.8	-33.7	24.8	0.00e+00	123	32	0	1121976320	38	6038
2026-01-08 14:53:00.76	18.52	62.58	-32.5	-33.3	25.3	0.00e+00	123	32	0	1125122048	38	5759
2026-01-08 14:53:01.77	18.45	63.01	-32.5	-33.3	25.3	0.00e+00	123	32	0	1128267776	38	5780
2026-01-08 14:53:02.78	18.37	63.44	-32.3	-33.1	25.3	0.00e+00	122	32	0	1131413504	38	5644
2026-01-08 14:53:03.79	18.29	63.87	-32.5	-33.3	25.1	0.00e+00	122	32	0	1134559232	38	5765
2026-01-08 14:53:04.80	18.21	64.31	-32.5	-33.3	25.2	0.00e+00	120	32	0	1137704960	38	5790
2026-01-08 14:53:05.81	18.13	64.75	-32.7	-33.6	25.1	0.00e+00	123	32	0	1140850688	38	5927
2026-01-08 14:53:06.82	18.04	65.19	-32.3	-33.1	25.4	0.00e+00	120	32	0	1143996416	38	5654
2026-01-08 14:53:07.83	17.95	65.63	-32.2	-33.0	25.7	0.00e+00	123	32	0	1147142144	38	5567
2026-01-08 14:53:08.84	17.85	66.07	-32.0	-32.9	25.9	0.00e+00	120	32	0	1150287872	38	5489
2026-01-08 14:53:09.85	17.76	66.52	-31.8	-32.6	26.1	0.00e+00	122	32	0	1153433600	38	5288
2026-01-08 14:53:10.86	17.65	66.97	-32.2	-33.0	25.7	0.00e+00	120	32	0	1156579328	38	5585
2026-01-08 14:53:11.87	17.54	67.42	-32.5	-33.4	25.6	0.00e+00	123	32	0	1159725056	38	5793
2026-01-08 14:53:12.88	17.43	67.87	-32.3	-33.2	25.7	0.00e+00	122	32	0	1162870784	38	5686
2026-01-08 14:53:13.89	17.31	68.33	-31.9	-32.8	26.0	0.00e+00	122	32	0	1166016512	38	5413
2026-01-08 14:53:14.90	17.19	68.79	-31.7	-32.5	25.9	0.00e+00	123	32	0	1169162240	36	5871
2026-01-08 14:53:15.91	17.05	69.25	-31.8	-32.7	25.8	0.00e+00	122	32	0	1172307968	36	6002
2026-01-08 14:53:16.92	16.92	69.71	-31.9	-32.8	25.7	0.00e+00	122	32	0	1175453696	36	6082
2026-01-08 14:53:17.92	16.77	70.18	-32.0	-32.9	25.8	0.00e+00	123	32	0	1178599424	36	6147
2026-01-08 14:53:18.93	16.62	70.64	-32.1	-32.9	25.8	0.00e+00	123	32	0	1181745152	36	6204
2026-01-08 14:53:19.94	16.46	71.11	-32.0	-32.8	25.9	0.00e+00	123	32	0	1184890880	36	6083
2026-01-08 14:53:20.95	16.29	71.58	-32.3	-33.2	25.2	0.00e+00	123	32	0	1188036608	36	6379
2026-01-08 14:53:21.96	16.11	72.06	-32.4	-33.3	25.4	0.00e+00	123	32	0	1191182336	36	6473
2026-01-08 14:53:22.97	15.92	72.53	-32.4	-33.2	25.5	0.00e+00	123	32	0	1194328064	36	6412
2026-01-08 14:53:23.97	15.72	73.01	-31.8	-32.7	26.0	0.00e+00	123	32	0	1197473792	36	5999
2026-01-08 14:53:24.99	15.51	73.49	-31.6	-32.5	25.8	0.00e+00	122	32	0	1200619520	36	5860
2026-01-08 14:53:26.00	15.28	73.97	-31.9	-32.7	25.7	0.00e+00	123	32	0	1203765248	36	6045
2026-01-08 14:53:27.00	15.04	74.45	-31.7	-32.6	25.8	0.00e+00	122	32	0	1206910976	36	5937
2026-01-08 14:53:28.01	14.78	74.93	-31.8	-32.6	25.8	0.00e+00	123	32	0	1210056704	36	5957
2026-01-08 14:53:29.02	14.51	75.42	-31.7	-32.5	25.9	0.00e+00	123	32	0	1213202432	36	5888
2026-01-08 14:53:30.03	14.21	75.90	-31.7	-32.5	26.0	0.00e+00	123	32	0	1216348160	36	5876
2026-01-08 14:53:31.04	13.89	76.39	-31.8	-32.6	25.9	0.00e+00	123	32	0	1219493888	36	5948
2026-01-08 14:53:32.05	13.55	76.88	-31.9	-32.7	25.9	0.00e+00	123	32	0	1222639616	36	6057
2026-01-08 14:53:33.06	13.17	77.37	-31.9	-32.7	25.7	0.00e+00	123	32	0	1225785344	36	6039
2026-01-08 14:53:34.06	12.77	77.86	-31.8	-32.6	25.7	0.00e+00	123	32	0	1228931072	36	5971
2026-01-08 14:53:35.07	12.34	78.35	-31.8	-32.6	25.9	0.00e+00	123	32	0	1232076800	36	5936
2026-01-08 14:53:36.08	11.86	78.85	-32.2	-33.0	25.7	0.00e+00	123	32	0	1235222528	36	6242
2026-01-08 14:53:37.09	11.33	79.34	-32.4	-33.3	25.6	0.00e+00	120	32	0	1238368256	36	6458
2026-01-08 14:53:38.10	10.76	79.83	-32.2	-33.0	25.7	0.00e+00	122	32	0	1241513984	36	6248
2026-01-08 14:53:39.11	10.12	80.33	-32.4	-33.3	25.4	0.00e+00	123	32	0	1244659712	36	6431
2026-01-08 14:53:40.12	9.42	80.82	-32.6	-33.4	25.5	0.00e+00	123	32	0	1247805440	36	6551
2026-01-08 14:53:41.13	8.63	81.32	-32.4	-33.2	25.7	0.00e+00	123	32	0	1250951168	36	6379
2026-01-08 14:53:42.13	7.75	81.80	-32.6	-33.4	25.5	0.00e+00	122	32	0	1254096896	36	6559
2026-01-08 14:53:43.14	6.75	82.30	-32.6	-33.5	25.2	0.00e+00	122	32	0	1257242624	36	6607
2026-01-08 14:53:44.15	5.62	82.79	-32.8	-33.6	25.3	0.00e+00	122	32	0	1260388352	38	5987
2026-01-08 14:53:45.16	4.31	83.27	-32.4	-33.2	25.6	0.00e+00	122	32	0	1263534080	38	5697
2026-01-08 14:53:46.17	2.80	83.76	-32.5	-33.4	25.2	0.00e+00	123	32	0	1266679808	38	5807
2026-01-08 14:53:47.18	1.04	84.24	-32.7	-33.6	24.9	0.00e+00	120	32	0	1269825536	38	5957
2026-01-08 14:53:48.19	358.95	84.71	-32.7	-33.6	24.8	0.00e+00	121	32	0	1272971264	38	5982
2026-01-08 14:53:49.20	356.45	85.18	-33.6	-34.5	24.4	0.00e+00	122	32	0	1276116992	38	6593
2026-01-08 14:53:50.21	353.42	85.64	-33.2	-34.1	24.8	0.00e+00	122	32	0	1279262720	38	6302
2026-01-08 14:53:51.21	349.73	86.07	-32.6	-33.5	25.3	0.00e+00	123	32	0	1282408448	38	5893
2026-01-08 14:53:52.23	345.04	86.50	-32.4	-33.2	25.6	0.00e+00	122	32	0	1285554176	38	5689
2026-01-08 14:53:53.23	339.23	86.89	-32.3	-33.1	25.7	0.00e+00	122	32	0	1288699904	38	5651
2026-01-08 14:53:54.25	331.70	87.24	-32.5	-33.4	25.3	0.00e+00	122	32	0	1291845632	38	5802
2026-01-08 14:53:55.25	322.37	87.53	-32.6	-33.5	25.4	0.00e+00	122	32	0	1294991360	38	5874
2026-01-08 14:53:56.27	310.72	87.74	-32.1	-32.9	25.7	0.00e+00	122	32	0	1298137088	38	5522
2026-01-08 14:53:57.27	297.62	87.84	-32.3	-33.1	25.6	0.00e+00	123	32	0	1301282816	38	5645
2026-01-08 14:53:58.28	283.89	87.82	-31.9	-32.7	25.9	0.00e+00	123	32	0	1304428544	38	5365
2026-01-08 14:53:59.29	271.12	87.68	-32.2	-33.0	25.4	0.00e+00	123	32	0	1307574272	38	5586
2026-01-08 14:54:00.30	260.26	87.44	-32.6	-33.5	25.3	0.00e+00	122	32	0	1310720000	38	5900
2026-01-08 14:54:01.31	251.52	87.13	-32.7	-33.5	25.3	0.00e+00	120	32	0	1313865728	38	5912
2026-01-08 14:54:02.32	244.62	86.76	-32.4	-33.2	25.3	0.00e+00	122	32	0	1318060032	38	5696
2026-01-08 14:54:03.33	239.19	86.36	-32.2	-33.0	25.7	0.00e+00	127	32	0	1320157184	38	5589
2026-01-08 14:54:04.34	234.87	85.93	-32.2	-33.0	25.7	0.00e+00	122	32	0	1323302912	38	5594
2026-01-08 14:54:05.35	231.39	85.48	-32.7	-33.6	25.4	0.00e+00	120	32	0	1326448640	38	5933
2026-01-08 14:54:06.36	228.56	85.02	-32.8	-33.7	25.3	0.00e+00	122	32	0	1329594368	38	6002
2026-01-08 14:54:07.37	226.21	84.55	-32.6	-33.4	25.4	0.00e+00	120	32	0	1332740096	38	5846
2026-01-08 14:54:08.38	224.23	84.08	-32.5	-33.3	25.6	0.00e+00	122	32	0	1336934400	38	5764
2026-01-08 14:54:09.39	222.56	83.60	-32.4	-33.3	25.3	0.00e+00	123	32	0	1340080128	38	5753
2026-01-08 14:54:10.40	221.12	83.11	-32.9	-33.8	25.2	0.00e+00	122	32	0	1343225856	38	6102
2026-01-08 14:54:11.41	219.88	82.62	-33.4	-34.3	24.9	0.00e+00	120	32	0	1345323008	38	6482
2026-01-08 14:54:12.42	218.79	82.13	-33.5	-34.4	25.0	0.00e+00	122	32	0	1348468736	38	6541
2026-01-08 14:54:13.43	217.83	81.64	-32.7	-33.6	25.1	0.00e+00	123	32	0	1352663040	38	5952
2026-01-08 14:54:14.44	216.98	81.14	-32.2	-33.1	25.4	0.00e+00	123	32	0	1355808768	38	5600
2026-01-08 14:54:15.45	216.22	80.65	-32.0	-32.8	25.8	0.00e+00	123	32	0	1358954496	38	5436
2026-01-08 14:54:16.45	215.55	80.16	-32.4	-33.2	25.7	0.00e+00	121	32	0	1362100224	38	5696
2026-01-08 14:54:17.46	214.93	79.66	-32.5	-33.4	25.5	0.00e+00	123	32	0	1365245952	38	5805
2026-01-08 14:54:18.47	214.37	79.17	-32.4	-33.2	25.6	0.00e+00	122	32	0	1368391680	38	5702
2026-01-08 14:54:19.48	213.86	78.68	-32.1	-33.0	25.6	0.00e+00	123	32	0	1371537408	38	5553
2026-01-08 14:54:20.49	213.40	78.18	-32.2	-33.1	25.3	0.00e+00	123	32	0	1374683136	38	5625
2026-01-08 14:54:21.50	212.97	77.69	-32.2	-33.1	25.5	0.00e+00	122	32	0	1377828864	38	5598
2026-01-08 14:54:22.51	212.58	77.20	-32.2	-33.1	25.8	0.00e+00	123	32	0	1380974592	38	5602
2026-01-08 14:54:23.52	212.22	76.71	-32.4	-33.3	25.4	0.00e+00	122	32	0	1384120320	38	5747
2026-01-08 14:54:24.53	211.88	76.22	-32.8	-33.7	25.1	0.00e+00	122	32	0	1387266048	38	6033
2026-01-08 14:54:25.54	211.57	75.73	-31.8	-32.6	25.3	0.00e+00	120	32	0	1390411776	38	5318
2026-01-08 14:54:26.55	211.28	75.24	-31.4	-32.2	25.0	0.00e+00	123	32	0	1393557504	36	5716
2026-01-08 14:54:27.56	211.01	74.76	-31.7	-32.5	25.4	0.00e+00	123	32	0	1396703232	36	5907
2026-01-08 14:54:28.57	210.76	74.27	-32.0	-32.9	25.6	0.00e+00	123	32	0	1399848960	36	6147
2026-01-08 14:54:29.58	210.52	73.79	-32.1	-32.9	25.8	0.00e+00	120	32	0	1402994688	36	6204
2026-01-08 14:54:30.59	210.30	73.31	-32.5	-33.4	25.4	0.00e+00	123	32	0	1406140416	36	6509
2026-01-08 14:54:31.60	210.09	72.83	-33.0	-33.9	25.2	0.00e+00	120	32	0	1409286144	38	6140
2026-01-08 14:54:32.60	209.90	72.36	-33.0	-33.9	24.6	0.00e+00	122	32	0	1412431872	38	6186
2026-01-08 14:54:33.61	209.71	71.88	-32.9	-33.8	24.9	0.00e+00	123	32	0	1415577600	38	6069
2026-01-08 14:54:34.62	209.53	71.41	-32.4	-33.2	25.6	0.00e+00	123	32	0	1418723328	38	5723
2026-01-08 14:54:35.63	209.37	70.94	-32.6	-33.5	25.5	0.00e+00	122	32	0	1421869056	38	5900
2026-01-08 14:54:36.64	209.21	70.47	-33.0	-33.9	25.0	0.00e+00	123	32	0	1425014784	38	6189
2026-01-08 14:54:37.65	209.06	70.00	-33.0	-33.9	24.8	0.00e+00	121	32	0	1428160512	38	6139
2026-01-08 14:54:38.66	208.92	69.53	-32.7	-33.6	25.5	0.00e+00	123	32	0	1431306240	38	5945
2026-01-08 14:54:39.67	208.78	69.07	-33.0	-33.8	25.2	0.00e+00	122	32	0	1434451968	38	6123
2026-01-08 14:54:40.68	208.65	68.61	-31.6	-32.4	25.5	0.00e+00	123	32	0	1437597696	36	5858
2026-01-08 14:54:41.69	208.53	68.15	-31.2	-32.0	25.7	0.00e+00	122	32	0	1440743424	36	5589
2026-01-08 14:54:42.70	208.41	67.69	-31.3	-32.1	26.0	0.00e+00	123	32	0	1443889152	36	5656
2026-01-08 14:54:43.71	208.30	67.24	-32.1	-32.9	25.8	0.00e+00	123	32	0	1447034880	36	6178
2026-01-08 14:54:44.72	208.20	66.79	-32.7	-33.5	25.1	0.00e+00	123	32	0	1450180608	36	6642
2026-01-08 14:54:45.73	208.09	66.34	-32.9	-33.8	25.3	0.00e+00	120	32	0	1453326336	38	6101
2026-01-08 14:54:46.74	207.99	65.89	-33.2	-34.1	24.7	0.00e+00	122	32	0	1456472064	38	6332
2026-01-08 14:54:47.75	207.90	65.44	-32.8	-33.6	25.1	0.00e+00	123	32	0	1459617792	38	5968
2026-01-08 14:54:48.76	207.81	65.00	-32.1	-33.0	25.0	0.00e+00	122	32	0	1462763520	38	5554
2026-01-08 14:54:49.77	207.72	64.56	-31.8	-32.6	25.1	0.00e+00	122	32	0	1465909248	38	5325
2026-01-08 14:54:50.77	207.64	64.13	-32.1	-32.9	25.1	0.00e+00	120	32	0	1469054976	36	6202
2026-01-08 14:54:51.78	207.56	63.70	-32.6	-33.4	25.4	0.00e+00	122	32	0	1472200704	36	6541
2026-01-08 14:54:52.79	207.48	63.26	-33.6	-34.5	24.6	0.00e+00	123	32	0	1475346432	38	6581
2026-01-08 14:54:53.80	207.41	62.83	-34.9	-35.9	23.4	0.00e+00	122	32	0	1478492160	42	6200
2026-01-08 14:54:54.81	207.34	62.41	-34.6	-35.6	23.3	0.00e+00	123	32	0	1481637888	42	5942
2026-01-08 14:54:55.82	207.27	61.98	-33.5	-34.4	23.4	0.00e+00	122	32	0	1484783616	40	5849
2026-01-08 14:54:56.83	207.20	61.56	-33.2	-34.1	24.0	0.00e+00	120	32	0	1487929344	40	5629
2026-01-08 14:54:57.84	207.14	61.14	-32.6	-33.5	24.7	0.00e+00	123	32	0	1491075072	38	5867
2026-01-08 14:54:58.85	207.08	60.72	-32.6	-33.4	25.3	0.00e+00	124	32	0	1494220800	38	5838
2026-01-08 14:54:59.85	207.02	60.31	-32.3	-33.1	25.7	0.00e+00	121	32	0	1497366528	38	5627
2026-01-08 14:55:00.85	206.96	59.91	-32.7	-33.6	25.5	0.00e+00	120	32	0	1500512256	38	5955
2026-01-08 14:55:01.86	206.91	59.50	-33.5	-34.4	24.7	0.00e+00	123	32	0	1503657984	38	6531
2026-01-08 14:55:02.87	206.85	59.09	-34.5	-35.4	24.0	0.00e+00	122	32	0	1506803712	40	6561
2026-01-08 14:55:03.88	206.80	58.69	-34.7	-35.7	23.7	0.00e+00	122	32	0	1509949440	42	6003
2026-01-08 14:55:04.89	206.75	58.29	-34.4	-35.4	23.2	0.00e+00	123	32	0	1513095168	42	5817
2026-01-08 14:55:05.90	206.70	57.89	-33.9	-34.9	23.5	0.00e+00	123	32	0	1516240896	42	5479
2026-01-08 14:55:06.91	206.65	57.49	-33.3	-34.2	24.5	0.00e+00	122	32	0	1519386624	40	5670
2026-01-08 14:55:07.91	206.61	57.10	-32.8	-33.7	25.0	0.00e+00	123	32	0	1522532352	40	5344
2026-01-08 14:55:08.92	206.56	56.71	-33.4	-34.2	24.8	0.00e+00	122	32	0	1525678080	40	5712
2026-01-08 14:55:09.93	206.52	56.33	-34.5	-35.4	23.9	0.00e+00	122	32	0	1528823808	40	6557
2026-01-08 14:55:10.94	206.48	55.94	-35.5	-36.4	23.4	0.00e+00	122	32	0	1531969536	42	6567
2026-01-08 14:55:11.95	206.44	55.56	-35.6	-36.6	23.2	0.00e+00	121	32	0	1535115264	42	6664
2026-01-08 14:55:12.96	206.40	55.18	-35.6	-36.6	23.0	0.00e+00	122	32	0	1538260992	42	6669
2026-01-08 14:55:13.97	206.36	54.80	-35.7	-36.7	22.7	0.00e+00	123	32	0	1541406720	42	6786
2026-01-08 14:55:14.98	206.32	54.43	-35.4	-36.5	22.0	0.00e+00	123	32	0	1544552448	44	5894
2026-01-08 14:55:15.99	206.29	54.06	-35.2	-36.3	22.0	0.00e+00	123	32	0	1547698176	44	5762
2026-01-08 14:55:17.00	206.25	53.69	-34.7	-35.7	23.5	0.00e+00	123	32	0	1550843904	42	6028
2026-01-08 14:55:18.01	206.22	53.32	-34.3	-35.2	24.2	0.00e+00	123	32	0	1553989632	42	5661
2026-01-08 14:55:19.02	206.18	52.96	-33.9	-34.8	24.8	0.00e+00	122	32	0	1557135360	42	5412
2026-01-08 14:55:20.03	206.15	52.60	-33.8	-34.7	24.6	0.00e+00	123	32	0	1560281088	40	6012
2026-01-08 14:55:21.04	206.12	52.24	-35.1	-36.0	23.6	0.00e+00	123	32	0	1563426816	42	6270
2026-01-08 14:55:22.04	206.09	51.89	-35.7	-36.7	23.0	0.00e+00	121	32	0	1566572544	42	6769
2026-01-08 14:55:23.05	206.06	51.53	-35.5	-36.4	23.3	0.00e+00	123	32	0	1569718272	44	5844
2026-01-08 14:55:24.06	206.03	51.18	-35.7	-36.6	22.8	0.00e+00	120	32	0	1572864000	44	5983
2026-01-08 14:55:25.07	206.00	50.83	-35.6	-36.6	22.5	0.00e+00	122	32	0	1576009728	44	5932
2026-01-08 14:55:26.07	205.98	50.49	-35.9	-36.9	22.4	0.00e+00	123	32	0	1579155456	44	6202
2026-01-08 14:55:27.08	205.95	50.15	-36.0	-37.0	22.3	0.00e+00	120	32	0	1582301184	44	6223
2026-01-08 14:55:28.09	205.92	49.81	-36.0	-37.0	21.7	0.00e+00	122	32	0	1585446912	44	6245
2026-01-08 14:55:29.10	205.90	49.47	-35.9	-37.0	21.6	0.00e+00	120	32	0	1588592640	44	6265
2026-01-08 14:55:30.11	205.87	49.14	-35.8	-36.8	21.9	0.00e+00	123	32	0	1591738368	44	6130
2026-01-08 14:55:31.12	205.85	48.80	-35.8	-36.8	22.6	0.00e+00	122	32	0	1594884096	44	6123
2026-01-08 14:55:32.14	205.82	48.47	-35.2	-36.2	23.4	0.00e+00	123	32	0	1598029824	44	5666
2026-01-08 14:55:33.15	205.80	48.14	-35.2	-36.2	23.5	0.00e+00	116	32	0	1601175552	44	5672
2026-01-08 14:55:34.15	205.78	47.82	-35.5	-36.4	23.3	0.00e+00	123	32	0	1604321280	44	5845
2026-01-08 14:55:35.16	205.76	47.50	-36.0	-37.0	22.8	0.00e+00	123	32	0	1607467008	44	6264
2026-01-08 14:55:36.17	205.73	47.18	-36.9	-38.0	22.0	0.00e+00	122	32	0	1610612736	46	6212
2026-01-08 14:55:37.18	205.71	46.86	-37.5	-38.6	21.3	0.00e+00	122	32	0	1613758464	46	6710
2026-01-08 14:55:38.19	205.69	46.54	-37.7	-38.9	20.8	0.00e+00	122	32	0	1616904192	46	6922
2026-01-08 14:55:39.20	205.67	46.23	-37.7	-38.9	20.5	0.00e+00	123	32	0	1620049920	46	6946
2026-01-08 14:55:40.21	205.65	45.92	-37.6	-38.8	20.9	0.00e+00	123	32	0	1623195648	46	6835
2026-01-08 14:55:41.22	205.63	45.61	-36.9	-38.0	22.0	0.00e+00	123	32	0	1626341376	46	6261
2026-01-08 14:55:42.23	205.61	45.30	-36.8	-37.8	22.0	0.00e+00	123	32	0	1629487104	46	6134
2026-01-08 14:55:43.24	205.60	45.00	-36.6	-37.6	22.2	0.00e+00	123	32	0	1632632832	46	5958
2026-01-08 14:55:44.25	205.58	44.70	-36.8	-37.9	21.9	0.00e+00	123	32	0	1635778560	46	6151
2026-01-08 14:55:45.26	205.56	44.40	-36.8	-37.8	21.7	0.00e+00	120	32	0	1638924288	46	6119
2026-01-08 14:55:46.27	205.54	44.10	-36.7	-37.8	21.5	0.00e+00	122	32	0	1642070016	46	6091
2026-01-08 14:55:47.28	205.53	43.80	-36.6	-37.7	21.6	0.00e+00	122	32	0	1645215744	46	6027
2026-01-08 14:55:48.29	205.51	43.51	-36.5	-37.6	22.2	0.00e+00	122	32	0	1648361472	46	5936
2026-01-08 14:55:49.30	205.49	43.22	-36.4	-37.4	22.5	0.00e+00	122	32	0	1651507200	46	5798
2026-01-08 14:55:50.31	205.48	42.93	-35.9	-36.9	23.0	0.00e+00	123	32	0	1654652928	46	5503
2026-01-08 14:55:51.32	205.46	42.65	-35.3	-36.2	23.5	0.00e+00	122	32	0	1657798656	44	5686
2026-01-08 14:55:52.33	205.45	42.36	-35.3	-36.3	23.3	0.00e+00	122	32	0	1660944384	44	5729
2026-01-08 14:55:53.34	205.43	42.08	-35.4	-36.4	23.3	0.00e+00	122	32	0	1664090112	44	5797
2026-01-08 14:55:54.35	205.42	41.80	-35.9	-36.9	22.8	0.00e+00	123	32	0	1667235840	44	6174
2026-01-08 14:55:55.36	205.41	41.52	-36.2	-37.2	22.7	0.00e+00	122	32	0	1670381568	44	6378
2026-01-08 14:55:56.37	205.39	41.25	-36.4	-37.5	22.5	0.00e+00	123	32	0	1673527296	44	6599
2026-01-08 14:55:57.38	205.38	40.97	-36.7	-37.7	22.3	0.00e+00	123	32	0	1676673024	44	6777
2026-01-08 14:55:58.39	205.37	40.70	-36.6	-37.6	22.3	0.00e+00	122	33	0	1679818752	44	6704
2026-01-08 14:55:59.40	205.35	40.43	-36.5	-37.6	22.3	0.00e+00	122	32	0	1682964480	44	6667
2026-01-08 14:56:00.41	205.34	40.17	-36.9	-38.0	21.9	0.00e+00	123	32	0	1686110208	46	6237
2026-01-08 14:56:01.41	205.33	39.90	-37.3	-38.5	21.6	0.00e+00	123	32	0	1689255936	46	6590
2026-01-08 14:56:02.42	205.32	39.64	-37.2	-38.3	21.8	0.00e+00	120	32	0	1692401664	46	6481
2026-01-08 14:56:03.43	205.30	39.38	-37.0	-38.1	21.9	0.00e+00	123	32	0	1695547392	46	6295
2026-01-08 14:56:04.44	205.29	39.12	-36.7	-37.8	22.1	0.00e+00	123	32	0	1698693120	46	6109
2026-01-08 14:56:05.45	205.28	38.86	-36.7	-37.7	22.3	0.00e+00	123	32	0	1701838848	46	6040
2026-01-08 14:56:06.46	205.27	38.61	-36.0	-37.0	23.0	0.00e+00	123	32	0	1704984576	46	5558
2026-01-08 14:56:07.47	205.26	38.35	-36.1	-37.1	22.9	0.00e+00	123	32	0	1708130304	46	5609
2026-01-08 14:56:08.48	205.25	38.10	-36.0	-37.0	22.7	0.00e+00	122	32	0	1711276032	46	5574
2026-01-08 14:56:09.48	205.24	37.85	-35.8	-36.8	22.8	0.00e+00	122	32	0	1714421760	46	5447
2026-01-08 14:56:10.49	205.23	37.60	-35.7	-36.7	23.1	0.00e+00	122	32	0	1717567488	44	6004
2026-01-08 14:56:11.51	205.22	37.36	-35.4	-36.4	23.2	0.00e+00	122	32	0	1720713216	44	5823
2026-01-08 14:56:12.51	205.21	37.11	-35.3	-36.3	23.4	0.00e+00	123	32	0	1723858944	44	5732
2026-01-08 14:56:13.52	205.20	36.87	-34.8	-35.7	23.7	0.00e+00	122	32	0	1728053248	44	5380
2026-01-08 14:56:14.53	205.19	36.63	-35.0	-35.9	23.4	0.00e+00	120	32	0	1731198976	44	5526
2026-01-08 14:56:15.54	205.18	36.39	-34.7	-35.6	23.9	0.00e+00	123	32	0	1733296128	42	5955
2026-01-08 14:56:16.55	205.17	36.15	-34.7	-35.6	23.9	0.00e+00	122	32	0	1736441856	42	5973
2026-01-08 14:56:17.56	205.16	35.92	-34.5	-35.4	24.1	0.00e+00	123	32	0	1739587584	42	5827
2026-01-08 14:56:18.57	205.15	35.68	-34.4	-35.3	24.2	0.00e+00	123	32	0	1743781888	42	5762
2026-01-08 14:56:19.58	205.14	35.45	-34.4	-35.3	24.2	0.00e+00	123	32	0	1746927616	42	5746
2026-01-08 14:56:20.59	205.14	35.22	-34.4	-35.3	24.0	0.00e+00	123	32	0	1750073344	42	5750
2026-01-08 14:56:21.60	205.13	34.99	-34.4	-35.3	23.9	0.00e+00	123	32	0	1753219072	42	5787
2026-01-08 14:56:22.61	205.12	34.76	-34.5	-35.4	23.8	0.00e+00	123	32	0	1755316224	42	5820
2026-01-08 14:56:23.62	205.11	34.54	-34.6	-35.5	23.8	0.00e+00	122	32	0	1758461952	42	5904
2026-01-08 14:56:24.63	205.10	34.31	-34.5	-35.4	24.0	0.00e+00	120	32	0	1762656256	42	5797
2026-01-08 14:56:25.63	205.10	34.09	-34.6	-35.5	23.9	0.00e+00	120	32	0	1765801984	42	5881
2026-01-08 14:56:26.64	205.09	33.87	-34.7	-35.7	23.8	0.00e+00	123	32	0	1768947712	42	5997
2026-01-08 14:56:27.65	205.08	33.65	-34.6	-35.5	23.9	0.00e+00	122	32	0	1772093440	42	5890
2026-01-08 14:56:28.66	205.07	33.44	-34.5	-35.5	24.1	0.00e+00	123	32	0	1775239168	42	5868
2026-01-08 14:56:29.67	205.07	33.22	-34.4	-35.3	24.1	0.00e+00	123	32	0	1778384896	42	5764
2026-01-08 14:56:30.68	205.06	33.01	-34.4	-35.3	24.2	0.00e+00	122	32	0	1781530624	42	5779
2026-01-08 14:56:31.69	205.05	32.79	-34.4	-35.3	24.2	0.00e+00	123	33	0	1784676352	42	5746
2026-01-08 14:56:32.70	205.05	32.58	-34.4	-35.3	24.2	0.00e+00	123	32	0	1787822080	42	5734
2026-01-08 14:56:33.71	205.04	32.37	-34.2	-35.1	24.3	0.00e+00	123	33	0	1790967808	42	5630
2026-01-08 14:56:34.72	205.03	32.16	-34.1	-35.0	24.4	0.00e+00	122	32	0	1794113536	42	5580
2026-01-08 14:56:35.73	205.03	31.95	-34.3	-35.2	24.2	0.00e+00	122	32	0	1797259264	42	5687
2026-01-08 14:56:36.73	205.02	31.75	-34.3	-35.2	24.2	0.00e+00	123	33	0	1800404992	42	5720
2026-01-08 14:56:37.74	205.02	31.55	-34.2	-35.1	24.3	0.00e+00	122	32	0	1803550720	42	5626
2026-01-08 14:56:38.75	205.01	31.34	-34.2	-35.1	24.3	0.00e+00	120	32	0	1806696448	42	5627
2026-01-08 14:56:39.76	205.01	31.14	-34.2	-35.1	24.4	0.00e+00	123	33	0	1809842176	42	5628
2026-01-08 14:56:40.77	205.00	30.94	-34.1	-35.0	24.4	0.00e+00	120	32	0	1812987904	42	5551
2026-01-08 14:56:41.78	204.99	30.74	-34.2	-35.0	24.3	0.00e+00	122	32	0	1816133632	42	5585
2026-01-08 14:56:42.79	204.99	30.54	-34.1	-35.0	24.3	0.00e+00	122	32	0	1819279360	42	5575
2026-01-08 14:56:43.80	204.98	30.35	-34.1	-35.1	24.2	0.00e+00	122	33	0	1822425088	42	5596
2026-01-08 14:56:44.81	204.98	30.15	-34.2	-35.1	24.2	0.00e+00	120	32	0	1825570816	42	5642
2026-01-08 14:56:45.82	204.97	29.96	-34.3	-35.2	24.1	0.00e+00	121	32	0	1828716544	42	5704
2026-01-08 14:56:46.83	204.97	29.77	-34.2	-35.1	24.1	0.00e+00	123	32	0	1831862272	42	5648
2026-01-08 14:56:47.84	204.96	29.58	-34.3	-35.2	24.0	0.00e+00	120	32	0	1835008000	42	5678
2026-01-08 14:56:48.85	204.96	29.39	-34.2	-35.1	24.1	0.00e+00	123	32	0	1838153728	42	5646
2026-01-08 14:56:49.86	204.95	29.20	-34.2	-35.1	23.9	0.00e+00	120	33	0	1841299456	42	5655
2026-01-08 14:56:50.87	204.95	29.01	-34.0	-34.9	24.1	0.00e+00	123	32	0	1844445184	42	5522
2026-01-08 14:56:51.88	204.94	28.83	-33.6	-34.5	24.2	0.00e+00	123	32	0	1847590912	40	5926
2026-01-08 14:56:52.89	204.94	28.64	-33.6	-34.5	24.1	0.00e+00	123	33	0	1850736640	40	5921
2026-01-08 14:56:53.90	204.94	28.46	-33.5	-34.4	24.1	0.00e+00	123	32	0	1853882368	40	5802
2026-01-08 14:56:54.91	204.93	28.27	-33.4	-34.3	24.1	0.00e+00	120	33	0	1857028096	40	5746
2026-01-08 14:56:55.92	204.93	28.09	-33.4	-34.4	24.0	0.00e+00	123	32	0	1860173824	40	5794
2026-01-08 14:56:56.93	204.92	27.91	-33.3	-34.2	23.9	0.00e+00	123	32	0	1863319552	40	5686
2026-01-08 14:56:57.94	204.92	27.73	-33.4	-34.3	23.7	0.00e+00	122	32	0	1866465280	40	5778
2026-01-08 14:56:58.95	204.92	27.56	-33.4	-34.3	23.8	0.00e+00	123	32	0	1869611008	40	5783
2026-01-08 14:56:59.96	204.91	27.38	-33.5	-34.5	23.6	0.00e+00	123	32	0	1872756736	40	5862
2026-01-08 14:57:00.97	204.91	27.21	-33.6	-34.5	23.7	0.00e+00	120	33	0	1875902464	40	5921
2026-01-08 14:57:01.97	204.90	27.03	-33.6	-34.6	23.8	0.00e+00	123	32	0	1879048192	40	5940
2026-01-08 14:57:02.98	204.90	26.86	-33.7	-34.6	23.9	0.00e+00	122	32	0	1882193920	40	5989
2026-01-08 14:57:03.99	204.90	26.69	-33.8	-34.7	23.8	0.00e+00	120	32	0	1885339648	40	6063
2026-01-08 14:57:05.00	204.89	26.52	-33.7	-34.6	23.8	0.00e+00	122	32	0	1888485376	40	5992
2026-01-08 14:57:06.01	204.89	26.35	-33.7	-34.7	23.8	0.00e+00	123	32	0	1891631104	40	6022
2026-01-08 14:57:07.02	204.89	26.18	-33.8	-34.8	23.8	0.00e+00	120	32	0	1894776832	40	6102
2026-01-08 14:57:08.03	204.88	26.01	-33.8	-34.7	23.9	0.00e+00	123	32	0	1897922560	40	6038
2026-01-08 14:57:09.04	204.88	25.84	-33.6	-34.5	24.1	0.00e+00	122	33	0	1901068288	40	5916
2026-01-08 14:57:10.05	204.88	25.68	-33.4	-34.4	24.4	0.00e+00	123	32	0	1904214016	40	5809
2026-01-08 14:57:11.05	204.87	25.51	-33.6	-34.5	24.4	0.00e+00	121	32	0	1907359744	40	5901
2026-01-08 14:57:12.06	204.87	25.35	-33.4	-34.3	24.6	0.00e+00	123	32	0	1910505472	40	5755
2026-01-08 14:57:13.07	204.87	25.19	-33.3	-34.2	24.7	0.00e+00	123	32	0	1913651200	40	5712
2026-01-08 14:57:14.08	204.87	25.03	-33.3	-34.2	24.7	0.00e+00	120	32	0	1916796928	40	5693
2026-01-08 14:57:15.09	204.86	24.87	-33.3	-34.2	24.8	0.00e+00	122	32	0	1919942656	40	5665
2026-01-08 14:57:16.10	204.86	24.71	-33.2	-34.1	24.8	0.00e+00	123	32	0	1923088384	40	5608
2026-01-08 14:57:17.11	204.86	24.55	-33.2	-34.1	24.9	0.00e+00	122	32	0	1926234112	40	5599
2026-01-08 14:57:18.12	204.86	24.39	-33.1	-34.0	25.0	0.00e+00	122	32	0	1929379840	40	5558
2026-01-08 14:57:19.13	204.85	24.23	-33.1	-34.0	25.0	0.00e+00	123	32	0	1932525568	40	5561
2026-01-08 14:57:20.14	204.85	24.08	-33.1	-33.9	25.0	0.00e+00	123	32	0	1935671296	40	5522
2026-01-08 14:57:21.15	204.85	23.92	-33.0	-33.8	25.1	0.00e+00	120	32	0	1938817024	40	5446
2026-01-08 14:57:22.16	204.85	23.77	-33.0	-33.9	25.1	0.00e+00	123	32	0	1941962752	40	5498
2026-01-08 14:57:23.17	204.84	23.61	-33.1	-34.0	25.1	0.00e+00	122	32	0	1945108480	40	5539
2026-01-08 14:57:24.18	204.84	23.46	-33.0	-33.9	25.1	0.00e+00	123	32	0	1948254208	40	5502
2026-01-08 14:57:25.19	204.84	23.31	-33.0	-33.8	25.2	0.00e+00	123	32	0	1951399936	40	5436
2026-01-08 14:57:26.20	204.84	23.16	-33.0	-33.9	25.1	0.00e+00	123	32	0	1954545664	40	5489
2026-01-08 14:57:27.21	204.84	23.01	-33.1	-33.9	25.1	0.00e+00	122	32	0	1957691392	40	5514
2026-01-08 14:57:28.21	204.83	22.86	-33.1	-33.9	25.1	0.00e+00	120	32	0	1960837120	40	5510
2026-01-08 14:57:29.23	204.83	22.71	-33.1	-34.0	25.0	0.00e+00	123	32	0	1963982848	40	5533
2026-01-08 14:57:30.24	204.83	22.57	-33.0	-33.9	25.1	0.00e+00	122	32	0	1967128576	40	5478
2026-01-08 14:57:31.25	204.83	22.42	-33.1	-33.9	25.1	0.00e+00	122	32	0	1970274304	40	5506
2026-01-08 14:57:32.25	204.83	22.28	-33.2	-34.1	24.9	0.00e+00	123	32	0	1973420032	40	5605
