passes_logs/2026/01/08/R4.6S_Anadyr/R4.6S_Anadyr__20260108_115459_SUOMI_NPP_rec.log

#Pass ID: 20260108_115459_SUOMI NPP
#Satellite: SUOMI NPP
#Configuration: NPP
#almurnet v.1.7.20251203
#Start time: 2026-01-08 11:55:00

#Version: 2.2.20231116
#Station: R4.6S_Anadyr
#Location: 177.4865 lon 64.73178 lat
#TLE: 1 37849U 11061A   26005.94084933  .00000134  00000+0  84554-4 0  9990
#TLE: 2 37849  98.7803 308.0679 0002567  79.1029 281.0436 14.19522657735426

#Time	Az	El	Level	Level2	SNR	BER	BlckErr	Temp	State	Recorded	gain1	gain2
2026-01-08 11:55:00.68	20.03	0.04	-48.4	-60.9	3.4	1.52e+00	0	32	0	0	60	39147
2026-01-08 11:55:01.68	20.12	0.08	-48.5	-63.7	3.6	1.51e+00	0	33	104	0	60	55224
2026-01-08 11:55:02.69	20.21	0.13	-48.6	-63.7	3.6	1.51e+00	0	33	104	0	60	55498
2026-01-08 11:55:03.70	20.30	0.17	-48.6	-63.8	3.6	1.51e+00	0	33	104	0	60	55673
2026-01-08 11:55:04.71	20.39	0.21	-48.6	-63.8	3.6	1.51e+00	0	34	104	0	60	56058
2026-01-08 11:55:05.72	20.48	0.26	-48.6	-63.8	3.6	1.51e+00	0	34	104	0	60	55839
2026-01-08 11:55:06.72	20.57	0.30	-48.7	-63.9	3.6	1.51e+00	0	34	104	0	60	56613
2026-01-08 11:55:07.73	20.66	0.34	-48.6	-63.8	3.6	1.51e+00	0	34	104	0	60	56072
2026-01-08 11:55:08.74	20.75	0.39	-48.6	-63.8	3.6	1.51e+00	0	34	104	0	60	55749
2026-01-08 11:55:09.75	20.84	0.43	-48.5	-63.7	3.6	1.51e+00	0	34	104	0	60	55391
2026-01-08 11:55:10.76	20.94	0.47	-48.5	-63.7	3.6	1.51e+00	0	34	104	0	60	55041
2026-01-08 11:55:11.77	21.03	0.52	-48.4	-63.6	3.6	1.51e+00	0	34	104	0	60	54611
2026-01-08 11:55:12.78	21.12	0.56	-48.3	-63.4	3.6	1.51e+00	0	34	104	0	60	53716
2026-01-08 11:55:13.79	21.21	0.61	-48.1	-63.3	3.6	1.51e+00	0	34	104	0	60	52883
2026-01-08 11:55:14.80	21.30	0.65	-47.9	-63.1	3.6	1.51e+00	0	34	104	0	60	51761
2026-01-08 11:55:15.81	21.40	0.69	-47.7	-62.8	3.6	1.51e+00	0	34	104	0	60	50047
2026-01-08 11:55:16.82	21.49	0.74	-47.2	-62.3	3.6	1.51e+00	0	34	104	0	60	47247
2026-01-08 11:55:17.83	21.58	0.78	-47.0	-62.1	3.6	1.51e+00	0	34	104	0	60	45863
2026-01-08 11:55:18.84	21.68	0.82	-47.0	-62.1	3.6	1.51e+00	0	34	104	0	60	45880
2026-01-08 11:55:19.85	21.77	0.87	-47.0	-62.1	3.6	1.51e+00	0	34	104	0	60	46122
2026-01-08 11:55:20.86	21.87	0.91	-47.0	-62.1	3.6	1.51e+00	0	34	104	0	60	45860
2026-01-08 11:55:21.87	21.96	0.95	-47.0	-62.1	3.6	1.51e+00	0	34	104	0	60	46081
2026-01-08 11:55:22.88	22.05	1.00	-47.0	-62.1	3.6	1.51e+00	0	34	104	0	60	45870
2026-01-08 11:55:23.89	22.15	1.04	-47.0	-62.1	3.6	1.51e+00	0	34	104	0	60	46198
2026-01-08 11:55:24.90	22.25	1.09	-47.0	-62.1	3.6	1.51e+00	0	34	104	0	60	45896
2026-01-08 11:55:25.91	22.34	1.13	-47.0	-62.2	3.6	1.51e+00	0	34	104	0	60	46429
2026-01-08 11:55:26.92	22.44	1.17	-47.0	-62.1	3.6	1.51e+00	0	34	104	0	60	45902
2026-01-08 11:55:27.93	22.53	1.22	-46.9	-62.1	3.6	1.51e+00	0	34	104	0	60	46155
2026-01-08 11:55:28.94	22.63	1.26	-47.0	-62.1	3.6	1.51e+00	0	34	104	0	60	46068
2026-01-08 11:55:29.95	22.73	1.30	-47.0	-62.1	3.6	1.51e+00	0	34	104	0	60	45900
2026-01-08 11:55:30.95	22.82	1.35	-46.9	-62.1	3.6	1.51e+00	0	34	104	0	60	46115
2026-01-08 11:55:31.96	22.92	1.39	-47.0	-62.1	3.6	1.51e+00	0	34	104	0	60	45780
2026-01-08 11:55:32.97	23.02	1.43	-47.0	-62.1	3.6	1.51e+00	0	34	104	0	60	46095
2026-01-08 11:55:33.98	23.11	1.48	-46.9	-62.1	3.5	1.51e+00	0	34	104	0	60	45899
2026-01-08 11:55:34.99	23.21	1.52	-46.9	-62.1	3.6	1.51e+00	0	34	104	0	60	45961
2026-01-08 11:55:36.00	23.31	1.57	-46.9	-62.1	3.6	1.51e+00	0	34	104	0	60	45932
2026-01-08 11:55:37.00	23.41	1.61	-46.9	-62.1	3.6	1.51e+00	0	34	104	0	60	45823
2026-01-08 11:55:38.01	23.51	1.65	-46.9	-62.1	3.6	1.51e+00	0	34	104	0	60	45859
2026-01-08 11:55:39.02	23.60	1.70	-46.9	-62.1	3.6	1.51e+00	0	34	104	0	60	46077
2026-01-08 11:55:40.03	23.70	1.74	-46.9	-62.0	3.5	1.51e+00	0	34	104	0	60	45717
2026-01-08 11:55:41.04	23.80	1.78	-46.9	-62.1	3.6	1.51e+00	0	34	104	0	60	45933
2026-01-08 11:55:42.05	23.90	1.83	-46.9	-62.1	3.6	1.51e+00	0	34	104	0	60	46113
2026-01-08 11:55:43.06	24.00	1.87	-46.9	-62.1	3.6	1.51e+00	0	34	104	0	60	45860
2026-01-08 11:55:44.07	24.10	1.91	-47.0	-62.1	3.6	1.51e+00	0	34	104	0	60	46019
2026-01-08 11:55:45.08	24.20	1.96	-46.9	-62.1	3.6	1.51e+00	0	34	104	0	60	46004
2026-01-08 11:55:46.09	24.30	2.00	-46.9	-62.1	3.6	1.51e+00	0	34	104	0	60	46021
2026-01-08 11:55:47.10	24.41	2.05	-46.9	-62.0	3.6	1.51e+00	0	34	104	0	60	45720
2026-01-08 11:55:48.11	24.51	2.09	-46.9	-62.0	3.6	1.51e+00	0	34	104	0	60	45538
2026-01-08 11:55:49.12	24.61	2.13	-46.9	-61.9	3.6	1.51e+00	0	34	104	0	60	44960
2026-01-08 11:55:50.13	24.71	2.18	-46.9	-61.9	3.6	1.51e+00	0	34	104	0	60	45198
2026-01-08 11:55:51.14	24.81	2.22	-46.9	-62.0	3.6	1.51e+00	0	34	104	0	60	45303
2026-01-08 11:55:52.15	24.92	2.26	-46.9	-62.0	3.6	1.51e+00	0	34	104	0	60	45600
2026-01-08 11:55:53.16	25.02	2.31	-46.9	-62.0	3.6	1.51e+00	0	34	104	0	60	45646
2026-01-08 11:55:54.17	25.12	2.35	-46.9	-62.0	3.6	1.51e+00	0	34	104	0	60	45474
2026-01-08 11:55:55.18	25.23	2.39	-46.9	-62.1	3.6	1.51e+00	0	34	104	0	60	45865
2026-01-08 11:55:56.18	25.33	2.44	-46.9	-62.0	3.6	1.51e+00	0	34	104	0	60	45699
2026-01-08 11:55:57.19	25.43	2.48	-46.9	-61.5	3.6	1.51e+00	0	34	104	0	60	43161
2026-01-08 11:55:58.20	25.54	2.53	-46.9	-61.0	3.5	1.51e+00	0	34	104	0	60	40429
2026-01-08 11:55:59.21	25.64	2.57	-46.9	-61.2	3.6	1.51e+00	0	34	104	0	60	41662
2026-01-08 11:56:00.22	25.75	2.61	-46.9	-61.6	3.6	1.51e+00	0	34	104	0	60	43431
2026-01-08 11:56:01.23	25.85	2.66	-46.7	-58.3	3.9	1.51e+00	0	34	104	0	60	29597
2026-01-08 11:56:02.24	25.96	2.70	-46.0	-53.0	8.0	6.54e-01	0	34	0	0	60	16194
2026-01-08 11:56:03.25	26.06	2.74	-44.4	-48.1	12.8	1.56e-03	92	34	0	1048576	60	9201
2026-01-08 11:56:04.26	26.17	2.79	-43.1	-45.8	15.2	7.00e-07	0	34	0	3145728	60	7023
2026-01-08 11:56:05.27	26.28	2.83	-41.9	-44.0	16.9	0.00e+00	49	34	0	5242880	58	6449
2026-01-08 11:56:06.28	26.38	2.87	-41.5	-43.4	17.6	0.00e+00	0	34	0	7340032	56	6751
2026-01-08 11:56:07.29	26.49	2.92	-41.7	-43.7	17.3	0.00e+00	0	34	0	9437184	56	6964
2026-01-08 11:56:08.29	26.60	2.96	-42.2	-44.4	16.5	0.00e+00	51	34	0	10485760	56	7551
2026-01-08 11:56:09.30	26.70	3.00	-43.6	-46.7	14.1	0.00e+00	0	34	0	12582912	58	8777
2026-01-08 11:56:10.31	26.81	3.05	-43.8	-46.9	14.9	1.90e-04	77	34	0	14680064	60	7990
2026-01-08 11:56:11.32	26.92	3.09	-41.4	-43.2	17.9	0.00e+00	0	34	0	16777216	56	6593
2026-01-08 11:56:12.33	27.03	3.14	-41.7	-43.7	16.7	0.00e+00	92	34	0	18874368	56	6959
2026-01-08 11:56:13.34	27.14	3.18	-46.9	-61.8	3.6	1.51e+00	0	34	104	18874368	60	44532
2026-01-08 11:56:14.35	27.25	3.22	-45.5	-51.2	5.9	1.50e+00	2	34	104	18874368	60	13101
2026-01-08 11:56:15.36	27.36	3.27	-43.7	-46.6	15.1	7.22e-01	0	34	104	18874368	60	7772
2026-01-08 11:56:16.37	27.47	3.31	-40.9	-42.6	18.4	0.00e+00	0	34	0	19922944	56	6140
2026-01-08 11:56:17.38	27.58	3.35	-40.9	-42.6	18.4	0.00e+00	60	34	0	22020096	56	6132
2026-01-08 11:56:18.39	27.69	3.40	-40.9	-42.5	18.8	0.00e+00	0	34	0	24117248	56	6058
2026-01-08 11:56:19.40	27.80	3.44	-40.5	-42.0	19.0	0.00e+00	72	34	0	26214400	54	6463
2026-01-08 11:56:20.41	27.91	3.48	-40.1	-41.6	19.4	0.00e+00	0	34	0	27262976	54	6109
2026-01-08 11:56:21.41	28.02	3.53	-40.1	-41.6	19.4	0.00e+00	0	34	0	29360128	54	6110
2026-01-08 11:56:22.42	28.13	3.57	-40.0	-41.5	19.5	0.00e+00	0	34	0	31457280	54	6052
2026-01-08 11:56:23.43	28.24	3.61	-40.0	-41.4	19.5	0.00e+00	0	34	0	33554432	54	6005
2026-01-08 11:56:24.44	28.36	3.66	-39.8	-41.2	19.7	0.00e+00	46	34	0	35651584	54	5858
2026-01-08 11:56:25.45	28.47	3.70	-40.1	-41.5	19.5	0.00e+00	0	34	0	36700160	54	6087
2026-01-08 11:56:26.46	28.58	3.74	-40.0	-41.5	19.7	0.00e+00	92	34	0	38797312	54	6035
2026-01-08 11:56:27.47	28.69	3.79	-39.8	-41.2	19.8	0.00e+00	0	34	0	40894464	54	5872
2026-01-08 11:56:28.47	28.81	3.83	-39.7	-41.1	19.9	0.00e+00	0	34	0	42991616	52	6492
2026-01-08 11:56:29.48	28.92	3.87	-39.6	-41.0	20.0	0.00e+00	0	34	0	44040192	52	6407
2026-01-08 11:56:30.49	29.03	3.91	-39.6	-40.9	20.2	0.00e+00	0	34	0	46137344	52	6359
2026-01-08 11:56:31.50	29.15	3.96	-39.4	-40.7	20.3	0.00e+00	47	34	0	48234496	52	6207
2026-01-08 11:56:32.51	29.26	4.00	-39.5	-40.8	20.2	0.00e+00	0	34	0	50331648	52	6292
2026-01-08 11:56:33.52	29.38	4.04	-39.4	-40.7	20.4	0.00e+00	58	34	0	52428800	52	6179
2026-01-08 11:56:34.53	29.50	4.09	-39.3	-40.6	20.4	0.00e+00	0	34	0	54525952	52	6140
2026-01-08 11:56:35.54	29.61	4.13	-39.4	-40.7	20.3	0.00e+00	74	34	0	55574528	52	6194
2026-01-08 11:56:36.55	29.73	4.17	-39.5	-40.8	20.4	0.00e+00	0	34	0	57671680	52	6276
2026-01-08 11:56:37.56	29.84	4.22	-39.3	-40.6	20.4	0.00e+00	0	34	0	59768832	52	6109
2026-01-08 11:56:38.57	29.96	4.26	-39.4	-40.7	20.4	0.00e+00	0	34	0	61865984	52	6241
2026-01-08 11:56:39.58	30.08	4.30	-39.4	-40.7	20.5	0.00e+00	0	34	0	63963136	52	6184
2026-01-08 11:56:40.59	30.20	4.35	-39.4	-40.7	20.4	0.00e+00	92	34	0	65011712	52	6205
2026-01-08 11:56:41.60	30.31	4.39	-39.4	-40.7	20.3	0.00e+00	0	34	0	67108864	52	6217
2026-01-08 11:56:42.61	30.43	4.43	-39.5	-40.8	20.2	0.00e+00	92	34	0	69206016	52	6300
2026-01-08 11:56:43.61	30.55	4.47	-39.5	-40.8	20.3	0.00e+00	0	34	0	71303168	52	6277
2026-01-08 11:56:44.62	30.67	4.52	-39.3	-40.5	20.5	0.00e+00	0	34	0	73400320	52	6099
2026-01-08 11:56:45.63	30.79	4.56	-39.6	-40.9	20.3	0.00e+00	0	34	0	74448896	52	6323
2026-01-08 11:56:46.64	30.91	4.60	-39.2	-40.4	20.7	0.00e+00	0	34	0	76546048	52	5993
2026-01-08 11:56:47.65	31.03	4.65	-39.3	-40.6	20.6	0.00e+00	92	34	0	78643200	52	6107
2026-01-08 11:56:48.66	31.15	4.69	-39.0	-40.2	20.9	0.00e+00	0	34	0	80740352	52	5858
2026-01-08 11:56:49.67	31.27	4.73	-39.0	-40.2	20.8	0.00e+00	92	34	0	82837504	52	5860
2026-01-08 11:56:50.68	31.39	4.77	-38.9	-40.1	21.0	0.00e+00	0	34	0	83886080	52	5812
2026-01-08 11:56:51.69	31.51	4.82	-39.1	-40.3	20.8	0.00e+00	0	34	0	85983232	52	5929
2026-01-08 11:56:52.70	31.63	4.86	-39.1	-40.3	20.8	0.00e+00	0	34	0	88080384	52	5905
2026-01-08 11:56:53.71	31.75	4.90	-39.1	-40.4	20.8	0.00e+00	0	34	0	90177536	52	5978
2026-01-08 11:56:54.72	31.87	4.94	-39.2	-40.4	20.8	0.00e+00	52	34	0	92274688	52	5988
2026-01-08 11:56:55.73	32.00	4.99	-39.2	-40.4	20.7	0.00e+00	0	34	0	93323264	52	6009
2026-01-08 11:56:56.74	32.12	5.03	-39.5	-40.8	20.4	0.00e+00	85	34	0	95420416	52	6270
2026-01-08 11:56:57.75	32.24	5.07	-39.5	-40.8	20.3	0.00e+00	0	34	0	97517568	52	6268
2026-01-08 11:56:58.75	32.36	5.11	-39.4	-40.7	20.5	0.00e+00	0	34	0	99614720	52	6182
2026-01-08 11:56:59.76	32.49	5.16	-39.3	-40.6	20.6	0.00e+00	0	34	0	101711872	52	6123
2026-01-08 11:57:00.77	32.61	5.20	-39.4	-40.7	20.6	0.00e+00	0	34	0	102760448	52	6210
2026-01-08 11:57:01.78	32.74	5.24	-39.4	-40.7	20.5	0.00e+00	51	34	0	104857600	52	6174
2026-01-08 11:57:02.79	32.86	5.28	-39.3	-40.5	20.7	0.00e+00	0	34	0	106954752	52	6078
2026-01-08 11:57:03.80	32.99	5.32	-39.4	-40.6	20.6	0.00e+00	66	34	0	109051904	52	6154
2026-01-08 11:57:04.81	33.11	5.37	-39.3	-40.5	20.6	0.00e+00	0	34	0	111149056	52	6070
2026-01-08 11:57:05.82	33.24	5.41	-39.3	-40.5	20.6	0.00e+00	0	34	0	112197632	52	6100
2026-01-08 11:57:06.83	33.37	5.45	-39.4	-40.7	20.5	0.00e+00	0	34	0	114294784	52	6182
2026-01-08 11:57:07.83	33.49	5.49	-39.2	-40.5	20.8	0.00e+00	0	34	0	116391936	52	6036
2026-01-08 11:57:08.84	33.62	5.53	-39.2	-40.5	20.8	0.00e+00	3	34	0	118489088	52	6034
2026-01-08 11:57:09.85	33.75	5.58	-39.2	-40.4	20.8	0.00e+00	0	34	0	120586240	52	6026
2026-01-08 11:57:10.86	33.87	5.62	-39.4	-40.6	20.7	0.00e+00	92	34	0	122683392	52	6166
2026-01-08 11:57:11.87	34.00	5.66	-39.4	-40.6	20.6	0.00e+00	0	34	0	123731968	52	6144
2026-01-08 11:57:12.88	34.13	5.70	-39.5	-40.7	20.5	0.00e+00	92	34	0	125829120	52	6225
2026-01-08 11:57:13.89	34.26	5.74	-39.5	-40.8	20.6	0.00e+00	0	34	0	127926272	52	6251
2026-01-08 11:57:14.90	34.39	5.78	-39.5	-40.8	20.5	0.00e+00	0	34	0	130023424	52	6285
2026-01-08 11:57:15.91	34.52	5.83	-39.6	-40.9	20.5	0.00e+00	54	34	0	132120576	52	6321
2026-01-08 11:57:16.91	34.65	5.87	-39.5	-40.7	20.6	0.00e+00	0	34	0	133169152	52	6222
2026-01-08 11:57:17.92	34.78	5.91	-39.6	-40.9	20.3	0.00e+00	50	34	0	135266304	52	6389
2026-01-08 11:57:18.93	34.91	5.95	-39.7	-41.1	20.2	0.00e+00	0	34	0	137363456	52	6469
2026-01-08 11:57:19.94	35.04	5.99	-39.8	-41.1	20.3	0.00e+00	92	34	0	139460608	52	6475
2026-01-08 11:57:20.95	35.17	6.03	-39.2	-40.4	20.9	0.00e+00	0	34	0	141557760	52	6032
2026-01-08 11:57:21.96	35.30	6.07	-39.3	-40.5	20.7	0.00e+00	0	35	0	142606336	52	6097
2026-01-08 11:57:22.97	35.43	6.12	-39.1	-40.3	21.0	0.00e+00	0	34	0	144703488	52	5957
2026-01-08 11:57:23.98	35.56	6.16	-39.1	-40.3	21.1	0.00e+00	0	34	0	146800640	52	5914
2026-01-08 11:57:24.98	35.70	6.20	-39.2	-40.4	20.9	0.00e+00	21	35	0	148897792	52	5986
2026-01-08 11:57:25.99	35.83	6.24	-39.2	-40.4	20.9	0.00e+00	0	34	0	150994944	52	6004
2026-01-08 11:57:27.00	35.96	6.28	-39.1	-40.3	21.0	0.00e+00	91	35	0	152043520	52	5936
2026-01-08 11:57:28.01	36.10	6.32	-39.2	-40.4	20.9	0.00e+00	0	34	0	154140672	52	6014
2026-01-08 11:57:29.02	36.23	6.36	-39.3	-40.5	20.7	0.00e+00	0	34	0	156237824	52	6062
2026-01-08 11:57:30.02	36.36	6.40	-39.3	-40.5	20.6	0.00e+00	0	35	0	158334976	52	6095
2026-01-08 11:57:31.04	36.50	6.44	-39.2	-40.5	20.7	0.00e+00	0	34	0	160432128	52	6052
2026-01-08 11:57:32.04	36.63	6.48	-39.2	-40.4	20.8	0.00e+00	45	34	0	161480704	52	6019
2026-01-08 11:57:33.05	36.77	6.52	-39.3	-40.5	20.8	0.00e+00	0	34	0	163577856	52	6096
2026-01-08 11:57:34.06	36.91	6.56	-39.3	-40.5	20.7	0.00e+00	37	35	0	165675008	52	6055
2026-01-08 11:57:35.07	37.04	6.60	-39.3	-40.5	20.8	0.00e+00	0	34	0	167772160	52	6058
2026-01-08 11:57:36.08	37.18	6.64	-39.3	-40.5	20.8	0.00e+00	0	35	0	169869312	52	6102
2026-01-08 11:57:37.09	37.32	6.68	-39.4	-40.7	20.7	0.00e+00	0	34	0	170917888	52	6182
2026-01-08 11:57:38.10	37.45	6.73	-39.4	-40.6	20.8	0.00e+00	0	34	0	173015040	52	6135
2026-01-08 11:57:39.11	37.59	6.77	-39.5	-40.8	20.6	0.00e+00	12	34	0	175112192	52	6270
2026-01-08 11:57:40.12	37.73	6.81	-39.6	-40.9	20.5	0.00e+00	33	34	0	177209344	52	6378
2026-01-08 11:57:41.13	37.87	6.85	-39.7	-41.0	20.4	0.00e+00	92	34	0	179306496	52	6455
2026-01-08 11:57:42.14	38.01	6.89	-39.6	-40.9	20.5	0.00e+00	0	35	0	180355072	52	6375
2026-01-08 11:57:43.15	38.15	6.92	-39.7	-41.0	20.4	0.00e+00	88	34	0	182452224	52	6435
2026-01-08 11:57:44.16	38.28	6.96	-39.8	-41.1	20.3	0.00e+00	0	35	0	184549376	52	6515
2026-01-08 11:57:45.17	38.42	7.00	-39.7	-40.9	20.5	0.00e+00	0	34	0	186646528	52	6390
2026-01-08 11:57:46.17	38.56	7.04	-39.6	-40.8	20.6	0.00e+00	0	35	0	188743680	52	6317
2026-01-08 11:57:47.18	38.70	7.08	-39.4	-40.7	20.8	0.00e+00	0	34	0	189792256	52	6179
2026-01-08 11:57:48.19	38.85	7.12	-39.4	-40.7	20.8	0.00e+00	92	35	0	191889408	52	6180
2026-01-08 11:57:49.20	38.99	7.16	-39.2	-40.4	20.9	0.00e+00	0	34	0	193986560	52	5999
2026-01-08 11:57:50.21	39.13	7.20	-39.3	-40.5	21.0	0.00e+00	50	34	0	196083712	52	6038
2026-01-08 11:57:51.22	39.27	7.24	-39.3	-40.5	20.8	0.00e+00	0	35	0	198180864	52	6091
2026-01-08 11:57:52.22	39.41	7.28	-39.3	-40.6	20.8	0.00e+00	0	35	0	199229440	52	6113
2026-01-08 11:57:53.24	39.56	7.32	-39.5	-40.7	20.6	0.00e+00	0	35	0	201326592	52	6207
2026-01-08 11:57:54.24	39.70	7.36	-39.6	-40.8	20.5	0.00e+00	0	35	0	203423744	52	6293
2026-01-08 11:57:55.25	39.84	7.40	-39.8	-41.1	20.4	0.00e+00	92	34	0	205520896	52	6494
2026-01-08 11:57:56.26	39.99	7.43	-39.7	-41.0	20.5	0.00e+00	0	35	0	207618048	52	6421
2026-01-08 11:57:57.27	40.13	7.47	-39.9	-41.2	20.3	0.00e+00	92	35	0	208666624	52	6604
2026-01-08 11:57:58.28	40.28	7.51	-39.9	-41.2	20.2	0.00e+00	0	34	0	210763776	52	6609
2026-01-08 11:57:59.29	40.42	7.55	-40.0	-41.4	20.1	0.00e+00	0	35	0	212860928	52	6718
2026-01-08 11:58:00.30	40.57	7.59	-39.8	-41.1	20.4	0.00e+00	0	35	0	214958080	52	6539
2026-01-08 11:58:01.31	40.71	7.63	-39.7	-41.0	20.5	0.00e+00	0	35	0	217055232	52	6451
2026-01-08 11:58:02.32	40.86	7.66	-39.7	-40.9	20.5	0.00e+00	19	35	0	219152384	52	6367
2026-01-08 11:58:03.33	41.00	7.70	-39.7	-40.9	20.7	0.00e+00	0	35	0	220200960	52	6368
2026-01-08 11:58:04.34	41.15	7.74	-39.4	-40.6	20.7	0.00e+00	92	35	0	222298112	52	6119
2026-01-08 11:58:05.35	41.30	7.78	-39.4	-40.7	20.9	0.00e+00	0	35	0	224395264	52	6178
2026-01-08 11:58:06.36	41.45	7.82	-39.5	-40.7	20.8	0.00e+00	0	35	0	226492416	52	6198
2026-01-08 11:58:07.37	41.59	7.85	-39.5	-40.7	20.7	0.00e+00	0	34	0	228589568	52	6210
2026-01-08 11:58:08.38	41.74	7.89	-39.3	-40.5	20.9	0.00e+00	0	35	0	229638144	52	6096
2026-01-08 11:58:09.39	41.89	7.93	-39.5	-40.7	20.8	0.00e+00	48	35	0	231735296	52	6215
2026-01-08 11:58:10.40	42.04	7.97	-39.5	-40.8	20.7	0.00e+00	0	35	0	233832448	52	6257
2026-01-08 11:58:11.41	42.19	8.00	-39.7	-41.0	20.6	0.00e+00	92	34	0	235929600	52	6414
2026-01-08 11:58:12.42	42.34	8.04	-39.7	-41.0	20.5	0.00e+00	0	34	0	238026752	52	6447
2026-01-08 11:58:13.42	42.49	8.08	-39.8	-41.1	20.4	0.00e+00	0	34	0	239075328	52	6512
2026-01-08 11:58:14.43	42.64	8.11	-39.9	-41.3	20.3	0.00e+00	0	35	0	241172480	52	6618
2026-01-08 11:58:15.44	42.79	8.15	-39.9	-41.2	20.3	0.00e+00	0	35	0	243269632	52	6605
2026-01-08 11:58:16.45	42.94	8.19	-39.8	-41.1	20.4	0.00e+00	48	35	0	245366784	52	6518
2026-01-08 11:58:17.47	43.10	8.22	-40.0	-41.3	20.3	0.00e+00	0	35	0	247463936	52	6655
2026-01-08 11:58:18.48	43.25	8.26	-40.1	-41.4	20.2	0.00e+00	46	34	0	248512512	52	6746
2026-01-08 11:58:19.48	43.40	8.30	-39.9	-41.2	20.4	0.00e+00	0	35	0	250609664	52	6591
2026-01-08 11:58:20.49	43.55	8.33	-40.0	-41.4	20.2	0.00e+00	71	34	0	252706816	52	6702
2026-01-08 11:58:21.50	43.71	8.37	-40.3	-41.7	20.0	0.00e+00	0	35	0	254803968	52	6929
2026-01-08 11:58:22.51	43.86	8.40	-40.2	-41.5	20.2	0.00e+00	0	35	0	256901120	52	6824
2026-01-08 11:58:23.52	44.01	8.44	-40.2	-41.6	20.0	0.00e+00	0	35	0	257949696	52	6874
2026-01-08 11:58:24.53	44.17	8.48	-40.2	-41.6	20.1	0.00e+00	0	34	0	260046848	52	6873
2026-01-08 11:58:25.54	44.32	8.51	-40.1	-41.5	20.2	0.00e+00	42	34	0	262144000	52	6772
2026-01-08 11:58:26.55	44.48	8.55	-40.1	-41.4	20.2	0.00e+00	0	35	0	264241152	52	6738
2026-01-08 11:58:27.56	44.63	8.58	-40.0	-41.2	20.4	0.00e+00	79	34	0	266338304	52	6609
2026-01-08 11:58:28.57	44.79	8.62	-39.8	-41.1	20.5	0.00e+00	0	35	0	267386880	52	6503
2026-01-08 11:58:29.58	44.95	8.65	-39.7	-40.9	20.6	0.00e+00	0	35	0	269484032	52	6380
2026-01-08 11:58:30.58	45.10	8.69	-39.7	-41.0	20.6	0.00e+00	0	34	0	271581184	52	6401
2026-01-08 11:58:31.59	45.26	8.72	-39.6	-40.8	20.8	0.00e+00	0	34	0	273678336	52	6301
2026-01-08 11:58:32.60	45.41	8.76	-39.5	-40.8	20.8	0.00e+00	53	35	0	275775488	52	6252
2026-01-08 11:58:33.61	45.57	8.79	-39.4	-40.6	20.9	0.00e+00	0	35	0	276824064	52	6164
2026-01-08 11:58:34.62	45.73	8.83	-39.4	-40.6	20.9	0.00e+00	74	34	0	278921216	52	6165
2026-01-08 11:58:35.63	45.89	8.86	-39.5	-40.7	20.7	0.00e+00	0	35	0	281018368	52	6181
2026-01-08 11:58:36.64	46.05	8.89	-39.4	-40.5	20.8	0.00e+00	0	35	0	283115520	52	6098
2026-01-08 11:58:37.65	46.21	8.93	-39.5	-40.7	20.8	0.00e+00	0	35	0	285212672	52	6243
2026-01-08 11:58:38.66	46.37	8.96	-39.5	-40.7	20.9	0.00e+00	0	34	0	287309824	52	6180
2026-01-08 11:58:39.67	46.53	8.99	-39.5	-40.7	20.8	0.00e+00	37	35	0	288358400	52	6235
2026-01-08 11:58:40.68	46.69	9.03	-39.7	-41.0	20.6	0.00e+00	0	35	0	290455552	52	6391
2026-01-08 11:58:41.68	46.84	9.06	-39.6	-40.8	20.8	0.00e+00	92	35	0	292552704	52	6270
2026-01-08 11:58:42.69	47.01	9.09	-39.8	-41.0	20.7	0.00e+00	0	35	0	294649856	52	6419
2026-01-08 11:58:43.70	47.17	9.13	-39.7	-40.9	20.6	0.00e+00	0	35	0	296747008	52	6386
2026-01-08 11:58:44.71	47.33	9.16	-39.8	-41.0	20.5	0.00e+00	0	35	0	297795584	52	6456
2026-01-08 11:58:45.72	47.49	9.19	-39.6	-40.8	20.8	0.00e+00	0	35	0	299892736	52	6268
2026-01-08 11:58:46.73	47.65	9.23	-39.5	-40.7	20.9	0.00e+00	0	35	0	301989888	52	6245
2026-01-08 11:58:47.74	47.82	9.26	-39.2	-40.3	21.3	0.00e+00	0	35	0	304087040	52	5948
2026-01-08 11:58:48.75	47.98	9.29	-39.1	-40.3	21.3	0.00e+00	58	35	0	306184192	52	5914
2026-01-08 11:58:49.76	48.14	9.32	-38.8	-39.9	21.6	0.00e+00	0	35	0	307232768	52	5676
2026-01-08 11:58:50.77	48.31	9.35	-38.7	-39.8	21.6	0.00e+00	0	35	0	309329920	50	6292
2026-01-08 11:58:51.78	48.47	9.39	-38.8	-39.9	21.7	0.00e+00	0	35	0	311427072	50	6362
2026-01-08 11:58:52.78	48.63	9.42	-38.8	-39.9	21.3	0.00e+00	0	35	0	313524224	50	6387
2026-01-08 11:58:53.79	48.80	9.45	-39.2	-40.4	21.2	0.00e+00	0	35	0	315621376	50	6707
2026-01-08 11:58:54.80	48.96	9.48	-39.4	-40.5	21.0	0.00e+00	0	35	0	316669952	50	6838
2026-01-08 11:58:55.81	49.13	9.51	-39.4	-40.6	21.0	0.00e+00	83	35	0	318767104	50	6890
2026-01-08 11:58:56.82	49.29	9.54	-39.4	-40.6	21.0	0.00e+00	0	35	0	320864256	50	6921
2026-01-08 11:58:57.83	49.46	9.57	-39.5	-40.7	20.9	0.00e+00	91	35	0	322961408	50	7003
2026-01-08 11:58:58.84	49.63	9.60	-39.3	-40.5	21.1	0.00e+00	0	35	0	325058560	50	6783
2026-01-08 11:58:59.85	49.79	9.63	-39.4	-40.6	20.9	0.00e+00	0	35	0	326107136	50	6878
2026-01-08 11:59:00.85	49.96	9.66	-39.5	-40.7	20.9	0.00e+00	0	35	0	328204288	50	6990
2026-01-08 11:59:01.87	50.13	9.69	-39.5	-40.7	20.9	0.00e+00	0	35	0	330301440	50	6974
2026-01-08 11:59:02.87	50.29	9.72	-39.4	-40.6	21.0	0.00e+00	73	35	0	332398592	50	6914
2026-01-08 11:59:03.88	50.46	9.75	-39.5	-40.6	21.0	0.00e+00	0	35	0	334495744	50	6907
2026-01-08 11:59:04.89	50.63	9.78	-39.5	-40.7	20.9	0.00e+00	57	35	0	335544320	50	6949
2026-01-08 11:59:05.90	50.80	9.81	-39.5	-40.7	21.0	0.00e+00	0	35	0	337641472	50	7001
2026-01-08 11:59:06.90	50.97	9.84	-39.4	-40.6	21.0	0.00e+00	0	35	0	339738624	50	6868
2026-01-08 11:59:07.92	51.14	9.87	-39.3	-40.5	21.0	0.00e+00	0	35	0	341835776	50	6826
2026-01-08 11:59:08.92	51.30	9.90	-39.2	-40.3	21.2	0.00e+00	0	35	0	343932928	50	6687
2026-01-08 11:59:09.94	51.48	9.93	-39.0	-40.1	21.5	0.00e+00	9	35	0	344981504	50	6477
2026-01-08 11:59:10.95	51.65	9.96	-39.0	-40.2	21.2	0.00e+00	0	35	0	347078656	50	6546
2026-01-08 11:59:11.96	51.82	9.99	-39.0	-40.1	21.4	0.00e+00	72	35	0	349175808	50	6523
2026-01-08 11:59:12.96	51.99	10.01	-38.9	-40.0	21.5	0.00e+00	0	34	0	351272960	50	6450
2026-01-08 11:59:13.97	52.16	10.04	-38.9	-40.0	21.6	0.00e+00	0	35	0	353370112	50	6401
2026-01-08 11:59:14.98	52.33	10.07	-38.8	-39.9	21.6	0.00e+00	0	35	0	354418688	50	6356
2026-01-08 11:59:15.99	52.50	10.10	-38.8	-39.9	21.6	0.00e+00	0	35	0	356515840	50	6381
2026-01-08 11:59:17.00	52.67	10.12	-39.1	-40.2	21.3	0.00e+00	2	35	0	358612992	50	6585
2026-01-08 11:59:18.01	52.85	10.15	-39.4	-40.6	21.1	0.00e+00	0	35	0	360710144	50	6872
2026-01-08 11:59:19.01	53.02	10.18	-39.7	-41.0	20.8	0.00e+00	55	35	0	362807296	50	7181
2026-01-08 11:59:20.02	53.19	10.20	-40.1	-41.4	20.3	0.00e+00	0	35	0	363855872	52	6718
2026-01-08 11:59:21.03	53.37	10.23	-40.1	-41.4	20.2	0.00e+00	0	35	0	365953024	52	6755
2026-01-08 11:59:22.04	53.54	10.26	-40.2	-41.5	20.2	0.00e+00	0	35	0	368050176	52	6780
2026-01-08 11:59:23.05	53.71	10.28	-40.1	-41.4	20.3	0.00e+00	0	35	0	370147328	52	6710
2026-01-08 11:59:24.06	53.89	10.31	-39.9	-41.1	20.6	0.00e+00	27	34	0	372244480	52	6530
2026-01-08 11:59:25.07	54.06	10.34	-39.4	-40.6	21.1	0.00e+00	0	34	0	373293056	52	6134
2026-01-08 11:59:26.08	54.24	10.36	-39.1	-40.3	21.3	0.00e+00	24	35	0	375390208	52	5904
2026-01-08 11:59:27.09	54.41	10.39	-39.0	-40.1	21.2	0.00e+00	33	35	0	377487360	52	5777
2026-01-08 11:59:28.10	54.59	10.41	-38.8	-39.9	21.3	0.00e+00	15	35	0	379584512	52	5663
2026-01-08 11:59:29.11	54.76	10.44	-38.9	-40.0	21.5	0.00e+00	0	35	0	381681664	52	5728
2026-01-08 11:59:30.12	54.94	10.46	-39.1	-40.3	21.3	0.00e+00	0	35	0	383778816	52	5924
2026-01-08 11:59:31.13	55.12	10.49	-39.2	-40.4	21.2	0.00e+00	0	35	0	384827392	52	5995
2026-01-08 11:59:32.14	55.29	10.51	-39.3	-40.5	21.1	0.00e+00	0	35	0	386924544	52	6044
2026-01-08 11:59:33.14	55.47	10.53	-39.3	-40.4	21.2	0.00e+00	55	35	0	389021696	52	6032
2026-01-08 11:59:34.15	55.65	10.56	-39.1	-40.2	21.4	0.00e+00	0	35	0	391118848	52	5882
2026-01-08 11:59:35.16	55.83	10.58	-38.9	-39.9	21.6	0.00e+00	92	35	0	393216000	52	5684
2026-01-08 11:59:36.17	56.00	10.60	-38.5	-39.6	21.9	0.00e+00	0	35	0	394264576	50	6111
2026-01-08 11:59:37.18	56.18	10.63	-38.3	-39.3	22.2	0.00e+00	0	35	0	396361728	50	5964
2026-01-08 11:59:38.19	56.36	10.65	-38.3	-39.4	22.1	0.00e+00	0	35	0	398458880	50	5975
2026-01-08 11:59:39.20	56.54	10.67	-38.2	-39.2	22.0	0.00e+00	0	34	0	400556032	50	5883
2026-01-08 11:59:40.21	56.72	10.70	-38.4	-39.5	22.0	0.00e+00	56	35	0	402653184	50	6047
2026-01-08 11:59:41.22	56.90	10.72	-38.7	-39.8	21.7	0.00e+00	0	35	0	403701760	50	6260
2026-01-08 11:59:42.23	57.08	10.74	-39.0	-40.1	21.4	0.00e+00	84	34	0	405798912	50	6493
2026-01-08 11:59:43.23	57.25	10.76	-39.2	-40.4	21.1	0.00e+00	8	35	0	407896064	50	6718
2026-01-08 11:59:44.24	57.43	10.78	-39.1	-40.3	21.2	0.00e+00	0	35	0	409993216	50	6624
2026-01-08 11:59:45.25	57.62	10.80	-39.1	-40.2	21.3	0.00e+00	0	35	0	412090368	50	6585
2026-01-08 11:59:46.26	57.80	10.83	-38.7	-39.8	21.7	0.00e+00	0	35	0	413138944	50	6271
2026-01-08 11:59:47.27	57.98	10.85	-38.8	-39.8	21.7	0.00e+00	25	35	0	415236096	50	6304
2026-01-08 11:59:48.28	58.16	10.87	-38.8	-39.9	21.6	0.00e+00	0	35	0	417333248	50	6339
2026-01-08 11:59:49.29	58.34	10.89	-39.1	-40.2	21.5	0.00e+00	84	35	0	419430400	50	6558
2026-01-08 11:59:50.30	58.52	10.91	-39.6	-40.8	20.9	0.00e+00	0	35	0	421527552	50	7033
2026-01-08 11:59:51.31	58.70	10.93	-39.9	-41.1	20.6	0.00e+00	0	35	0	422576128	52	6515
2026-01-08 11:59:52.32	58.89	10.95	-40.3	-41.6	20.2	0.00e+00	0	35	0	424673280	52	6921
2026-01-08 11:59:53.33	59.07	10.97	-40.3	-41.7	20.1	0.00e+00	0	35	0	426770432	52	6951
2026-01-08 11:59:54.33	59.25	10.99	-40.0	-41.3	20.4	0.00e+00	55	35	0	428867584	52	6633
2026-01-08 11:59:55.34	59.43	11.01	-39.8	-41.0	20.7	0.00e+00	0	35	0	430964736	52	6438
2026-01-08 11:59:56.35	59.61	11.02	-39.5	-40.7	21.2	0.00e+00	92	35	0	432013312	52	6175
2026-01-08 11:59:57.36	59.80	11.04	-39.3	-40.4	21.1	0.00e+00	0	35	0	434110464	52	6010
2026-01-08 11:59:58.37	59.98	11.06	-39.0	-40.1	21.4	0.00e+00	78	35	0	436207616	52	5780
2026-01-08 11:59:59.38	60.16	11.08	-39.1	-40.3	21.1	0.00e+00	0	35	0	438304768	52	5902
2026-01-08 12:00:00.39	60.35	11.10	-39.3	-40.5	21.1	0.00e+00	0	35	0	440401920	52	6049
2026-01-08 12:00:01.40	60.53	11.11	-39.6	-40.8	20.9	0.00e+00	0	35	0	441450496	52	6260
2026-01-08 12:00:02.41	60.72	11.13	-40.0	-41.2	20.6	0.00e+00	0	35	0	443547648	52	6608
2026-01-08 12:00:03.42	60.90	11.15	-40.0	-41.2	20.5	0.00e+00	65	35	0	445644800	52	6597
2026-01-08 12:00:04.43	61.09	11.17	-39.9	-41.1	20.5	0.00e+00	0	35	0	447741952	52	6531
2026-01-08 12:00:05.44	61.27	11.18	-39.8	-41.1	20.7	0.00e+00	89	35	0	449839104	52	6475
2026-01-08 12:00:06.45	61.46	11.20	-39.9	-41.2	20.6	0.00e+00	0	35	0	451936256	52	6571
2026-01-08 12:00:07.45	61.64	11.21	-40.2	-41.5	20.4	0.00e+00	0	35	0	452984832	52	6778
2026-01-08 12:00:08.47	61.83	11.23	-40.2	-41.5	20.2	0.00e+00	0	35	0	455081984	52	6833
2026-01-08 12:00:09.47	62.01	11.24	-40.5	-41.8	19.9	0.00e+00	0	35	0	457179136	52	7083
2026-01-08 12:00:10.48	62.20	11.26	-40.8	-42.2	19.6	0.00e+00	50	35	0	459276288	54	6569
2026-01-08 12:00:11.49	62.38	11.28	-41.3	-42.8	18.9	0.00e+00	0	35	0	461373440	54	7085
2026-01-08 12:00:12.50	62.57	11.29	-41.6	-43.3	18.6	0.00e+00	91	35	0	462422016	54	7455
2026-01-08 12:00:13.51	62.76	11.30	-41.7	-43.4	18.6	0.00e+00	0	35	0	464519168	54	7533
2026-01-08 12:00:14.52	62.94	11.32	-41.5	-43.1	18.7	0.00e+00	0	35	0	466616320	54	7301
2026-01-08 12:00:15.52	63.13	11.33	-41.3	-42.8	19.2	0.00e+00	0	35	0	468713472	54	7059
2026-01-08 12:00:16.53	63.32	11.35	-40.7	-42.1	19.8	0.00e+00	0	35	0	469762048	54	6501
2026-01-08 12:00:17.54	63.50	11.36	-40.2	-41.5	20.3	0.00e+00	23	35	0	471859200	54	6093
2026-01-08 12:00:18.55	63.69	11.37	-40.1	-41.4	20.5	0.00e+00	0	35	0	473956352	54	5967
2026-01-08 12:00:19.56	63.88	11.39	-39.8	-41.1	20.7	0.00e+00	92	35	0	476053504	54	5780
2026-01-08 12:00:20.57	64.07	11.40	-39.8	-41.1	20.6	0.00e+00	0	35	0	478150656	54	5766
2026-01-08 12:00:21.58	64.25	11.41	-40.0	-41.2	20.5	0.00e+00	0	35	0	480247808	54	5893
2026-01-08 12:00:22.59	64.44	11.42	-40.0	-41.2	20.5	0.00e+00	0	35	0	481296384	54	5878
2026-01-08 12:00:23.59	64.63	11.43	-39.9	-41.2	20.6	0.00e+00	0	35	0	483393536	54	5844
2026-01-08 12:00:24.60	64.82	11.45	-39.8	-41.0	20.8	0.00e+00	13	35	0	485490688	54	5722
2026-01-08 12:00:25.61	65.01	11.46	-39.6	-40.8	20.9	0.00e+00	0	35	0	487587840	52	6310
2026-01-08 12:00:26.62	65.19	11.47	-39.4	-40.5	21.1	0.00e+00	68	35	0	489684992	52	6081
2026-01-08 12:00:27.63	65.38	11.48	-39.3	-40.4	21.2	0.00e+00	0	35	0	490733568	52	6003
2026-01-08 12:00:28.64	65.57	11.49	-39.0	-40.1	21.4	0.00e+00	55	35	0	492830720	52	5773
2026-01-08 12:00:29.65	65.76	11.50	-38.8	-39.8	21.7	0.00e+00	0	35	0	494927872	52	5629
2026-01-08 12:00:30.66	65.95	11.51	-38.7	-39.7	21.7	0.00e+00	0	35	0	497025024	50	6236
2026-01-08 12:00:31.66	66.14	11.52	-38.8	-39.9	21.7	0.00e+00	5	35	0	499122176	50	6336
2026-01-08 12:00:32.67	66.33	11.53	-38.8	-39.9	21.6	0.00e+00	0	35	0	500170752	50	6323
2026-01-08 12:00:33.68	66.52	11.54	-38.9	-40.0	21.6	0.00e+00	44	35	0	502267904	50	6399
2026-01-08 12:00:34.69	66.71	11.55	-38.7	-39.8	21.8	0.00e+00	0	35	0	504365056	50	6287
2026-01-08 12:00:35.70	66.90	11.55	-38.6	-39.6	21.9	0.00e+00	1	35	0	506462208	50	6149
2026-01-08 12:00:36.71	67.09	11.56	-38.4	-39.5	22.0	0.00e+00	0	35	0	508559360	50	6053
2026-01-08 12:00:37.72	67.28	11.57	-38.3	-39.4	22.1	0.00e+00	0	35	0	509607936	50	5965
2026-01-08 12:00:38.73	67.47	11.58	-38.4	-39.4	22.0	0.00e+00	9	35	0	511705088	50	5995
2026-01-08 12:00:39.74	67.66	11.59	-38.4	-39.4	22.0	0.00e+00	0	35	0	513802240	50	5998
2026-01-08 12:00:40.75	67.85	11.59	-38.5	-39.6	21.9	0.00e+00	92	35	0	515899392	50	6130
2026-01-08 12:00:41.76	68.04	11.60	-38.8	-39.9	21.6	0.00e+00	0	35	0	517996544	50	6358
2026-01-08 12:00:42.77	68.23	11.61	-38.8	-39.9	21.7	0.00e+00	92	35	0	519045120	50	6342
2026-01-08 12:00:43.78	68.42	11.61	-38.9	-40.0	21.6	0.00e+00	0	35	0	521142272	50	6429
2026-01-08 12:00:44.79	68.61	11.62	-38.8	-39.9	21.6	0.00e+00	0	35	0	523239424	50	6379
2026-01-08 12:00:45.79	68.80	11.62	-38.7	-39.8	21.7	0.00e+00	0	35	0	525336576	50	6274
2026-01-08 12:00:46.81	68.99	11.63	-38.7	-39.8	21.8	0.00e+00	0	35	0	527433728	50	6247
2026-01-08 12:00:47.81	69.18	11.64	-38.5	-39.5	21.9	0.00e+00	41	35	0	528482304	50	6076
2026-01-08 12:00:48.82	69.37	11.64	-38.5	-39.5	22.0	0.00e+00	0	35	0	530579456	50	6079
2026-01-08 12:00:49.83	69.56	11.64	-38.6	-39.7	21.7	0.00e+00	91	35	0	532676608	50	6209
2026-01-08 12:00:50.84	69.75	11.65	-38.7	-39.8	21.7	0.00e+00	0	35	0	534773760	50	6301
2026-01-08 12:00:51.85	69.94	11.65	-38.6	-39.7	21.7	0.00e+00	0	35	0	536870912	50	6230
2026-01-08 12:00:52.86	70.13	11.66	-38.6	-39.7	21.8	0.00e+00	0	35	0	537919488	50	6201
2026-01-08 12:00:53.87	70.33	11.66	-38.6	-39.7	21.8	0.00e+00	0	35	0	540016640	50	6201
2026-01-08 12:00:54.88	70.52	11.66	-38.3	-39.3	22.2	0.00e+00	54	35	0	542113792	50	5936
2026-01-08 12:00:55.88	70.71	11.67	-38.3	-39.3	22.1	0.00e+00	0	35	0	544210944	50	5921
2026-01-08 12:00:56.90	70.90	11.67	-38.1	-39.1	22.2	0.00e+00	54	35	0	546308096	50	5827
2026-01-08 12:00:57.91	71.09	11.67	-38.2	-39.2	22.2	0.00e+00	0	35	0	548405248	50	5841
2026-01-08 12:00:58.91	71.28	11.67	-38.1	-39.1	22.2	0.00e+00	0	35	0	549453824	50	5819
2026-01-08 12:00:59.92	71.47	11.68	-38.3	-39.4	22.0	0.00e+00	0	35	0	551550976	50	5982
2026-01-08 12:01:00.93	71.66	11.68	-38.5	-39.6	22.0	0.00e+00	0	35	0	553648128	50	6104
2026-01-08 12:01:01.94	71.86	11.68	-38.5	-39.5	21.9	0.00e+00	52	35	0	555745280	50	6086
2026-01-08 12:01:02.95	72.05	11.68	-38.1	-39.2	22.3	0.00e+00	0	35	0	557842432	50	5840
2026-01-08 12:01:03.96	72.24	11.68	-38.0	-39.0	22.4	0.00e+00	50	35	0	558891008	50	5740
2026-01-08 12:01:04.96	72.43	11.68	-37.9	-38.9	22.4	0.00e+00	0	35	0	560988160	50	5694
2026-01-08 12:01:05.98	72.62	11.68	-37.8	-38.9	22.5	0.00e+00	19	35	0	563085312	50	5643
2026-01-08 12:01:06.99	72.81	11.68	-38.1	-39.1	22.4	0.00e+00	0	35	0	565182464	50	5819
2026-01-08 12:01:07.99	73.00	11.68	-38.1	-39.2	22.1	0.00e+00	0	35	0	567279616	50	5876
2026-01-08 12:01:09.00	73.19	11.68	-38.5	-39.6	22.0	0.00e+00	23	35	0	568328192	50	6119
2026-01-08 12:01:10.01	73.39	11.68	-38.5	-39.6	21.8	0.00e+00	0	35	0	570425344	50	6169
2026-01-08 12:01:11.02	73.58	11.68	-38.8	-40.0	21.7	0.00e+00	20	35	0	572522496	50	6396
2026-01-08 12:01:12.03	73.77	11.67	-38.5	-39.6	21.8	0.00e+00	0	35	0	574619648	50	6163
2026-01-08 12:01:13.04	73.96	11.67	-38.4	-39.5	22.0	0.00e+00	56	34	0	576716800	50	6083
2026-01-08 12:01:14.05	74.15	11.67	-38.4	-39.5	21.9	0.00e+00	0	35	0	577765376	50	6090
2026-01-08 12:01:15.06	74.34	11.67	-38.0	-39.1	22.3	0.00e+00	0	35	0	579862528	50	5781
2026-01-08 12:01:16.07	74.53	11.66	-37.5	-38.5	22.6	0.00e+00	0	35	0	581959680	48	6098
2026-01-08 12:01:17.08	74.73	11.66	-37.4	-38.4	22.9	0.00e+00	0	35	0	584056832	48	5983
2026-01-08 12:01:18.09	74.92	11.66	-37.4	-38.4	22.9	0.00e+00	21	35	0	586153984	48	5999
2026-01-08 12:01:19.10	75.11	11.65	-37.4	-38.4	22.8	0.00e+00	0	35	0	587202560	48	6022
2026-01-08 12:01:20.10	75.30	11.65	-37.5	-38.6	22.7	0.00e+00	92	35	0	589299712	48	6109
2026-01-08 12:01:21.11	75.49	11.65	-37.6	-38.6	22.7	0.00e+00	0	35	0	591396864	48	6162
2026-01-08 12:01:22.12	75.68	11.64	-37.7	-38.8	22.5	0.00e+00	0	35	0	593494016	48	6266
2026-01-08 12:01:23.13	75.87	11.64	-37.7	-38.7	22.6	0.00e+00	0	35	0	595591168	48	6214
2026-01-08 12:01:24.14	76.06	11.63	-37.4	-38.4	22.9	0.00e+00	0	35	0	596639744	48	6003
2026-01-08 12:01:25.15	76.25	11.63	-37.4	-38.3	22.8	0.00e+00	22	35	0	598736896	48	5963
2026-01-08 12:01:26.16	76.44	11.62	-37.1	-38.1	22.5	0.00e+00	0	35	0	600834048	48	5768
2026-01-08 12:01:27.17	76.63	11.62	-37.4	-38.3	22.9	0.00e+00	92	35	0	602931200	48	5963
2026-01-08 12:01:28.18	76.83	11.61	-37.4	-38.3	22.9	0.00e+00	0	35	0	605028352	48	5942
2026-01-08 12:01:29.19	77.02	11.60	-37.2	-38.2	23.0	0.00e+00	8	35	0	606076928	48	5852
2026-01-08 12:01:30.20	77.21	11.60	-37.4	-38.4	22.7	0.00e+00	0	35	0	608174080	48	5981
2026-01-08 12:01:31.21	77.40	11.59	-37.5	-38.5	22.7	0.00e+00	0	35	0	610271232	48	6060
2026-01-08 12:01:32.22	77.59	11.58	-37.6	-38.6	22.8	0.00e+00	0	35	0	612368384	48	6135
2026-01-08 12:01:33.23	77.78	11.57	-37.6	-38.5	22.7	0.00e+00	0	35	0	614465536	48	6103
2026-01-08 12:01:34.24	77.97	11.57	-37.5	-38.4	22.8	0.00e+00	91	35	0	615514112	48	5996
2026-01-08 12:01:35.24	78.16	11.56	-37.3	-38.3	22.9	0.00e+00	0	35	0	617611264	48	5903
2026-01-08 12:01:36.25	78.35	11.55	-37.2	-38.1	23.1	0.00e+00	3	35	0	619708416	48	5819
2026-01-08 12:01:37.26	78.54	11.54	-37.2	-38.1	23.0	0.00e+00	0	35	0	621805568	48	5815
2026-01-08 12:01:38.27	78.73	11.53	-37.0	-38.0	23.2	0.00e+00	0	35	0	623902720	48	5697
2026-01-08 12:01:39.28	78.92	11.52	-37.2	-38.1	23.2	0.00e+00	17	35	0	624951296	48	5811
2026-01-08 12:01:40.29	79.11	11.51	-37.4	-38.3	22.9	0.00e+00	0	35	0	627048448	48	5928
2026-01-08 12:01:41.30	79.30	11.50	-37.5	-38.4	22.8	0.00e+00	84	35	0	629145600	48	6030
2026-01-08 12:01:42.31	79.48	11.49	-37.8	-38.7	22.6	0.00e+00	0	35	0	631242752	48	6243
2026-01-08 12:01:43.32	79.67	11.48	-37.7	-38.7	22.6	0.00e+00	85	35	0	633339904	48	6192
2026-01-08 12:01:44.33	79.86	11.47	-37.7	-38.7	22.6	0.00e+00	0	35	0	634388480	48	6215
2026-01-08 12:01:45.33	80.05	11.46	-37.4	-38.3	22.9	0.00e+00	0	35	0	636485632	48	5925
2026-01-08 12:01:46.34	80.24	11.45	-37.5	-38.5	22.8	0.00e+00	9	35	0	638582784	48	6049
2026-01-08 12:01:47.35	80.43	11.44	-37.4	-38.4	22.9	0.00e+00	0	35	0	640679936	48	5977
2026-01-08 12:01:48.36	80.62	11.43	-37.6	-38.5	22.8	0.00e+00	92	35	0	642777088	48	6071
2026-01-08 12:01:49.37	80.80	11.42	-37.2	-38.1	23.0	0.00e+00	0	35	0	644874240	48	5828
2026-01-08 12:01:50.38	80.99	11.40	-37.3	-38.3	22.9	0.00e+00	90	35	0	645922816	48	5918
2026-01-08 12:01:51.39	81.18	11.39	-37.3	-38.2	23.0	0.00e+00	0	35	0	648019968	48	5863
2026-01-08 12:01:52.40	81.37	11.38	-37.3	-38.2	23.0	0.00e+00	0	35	0	650117120	48	5880
2026-01-08 12:01:53.41	81.56	11.36	-37.3	-38.3	22.9	0.00e+00	0	35	0	652214272	48	5903
2026-01-08 12:01:54.42	81.74	11.35	-37.3	-38.2	23.0	0.00e+00	0	35	0	654311424	48	5875
2026-01-08 12:01:55.42	81.93	11.34	-37.4	-38.3	22.8	0.00e+00	48	35	0	655360000	48	5938
2026-01-08 12:01:56.43	82.12	11.32	-37.4	-38.4	22.8	0.00e+00	0	35	0	657457152	48	5974
2026-01-08 12:01:57.44	82.30	11.31	-37.4	-38.3	22.8	0.00e+00	92	35	0	659554304	48	5947
2026-01-08 12:01:58.45	82.49	11.30	-37.4	-38.3	22.9	0.00e+00	0	35	0	661651456	48	5941
2026-01-08 12:01:59.45	82.68	11.28	-37.5	-38.4	22.7	0.00e+00	0	35	0	663748608	48	6030
2026-01-08 12:02:00.46	82.86	11.27	-37.5	-38.4	22.7	0.00e+00	0	35	0	664797184	48	6027
2026-01-08 12:02:01.47	83.05	11.25	-37.5	-38.5	22.7	0.00e+00	0	35	0	666894336	48	6034
2026-01-08 12:02:02.47	83.23	11.24	-37.6	-38.6	22.5	0.00e+00	48	35	0	668991488	48	6142
2026-01-08 12:02:03.49	83.42	11.22	-37.7	-38.6	22.5	0.00e+00	0	35	0	671088640	48	6173
2026-01-08 12:02:04.50	83.61	11.20	-37.7	-38.7	22.5	0.00e+00	89	35	0	673185792	48	6227
2026-01-08 12:02:05.50	83.79	11.19	-37.7	-38.7	22.5	0.00e+00	0	35	0	674234368	48	6236
2026-01-08 12:02:06.51	83.98	11.17	-37.6	-38.6	22.6	0.00e+00	44	35	0	676331520	48	6164
2026-01-08 12:02:07.52	84.16	11.15	-37.7	-38.7	22.6	0.00e+00	0	35	0	678428672	48	6187
2026-01-08 12:02:08.53	84.35	11.14	-37.5	-38.4	22.8	0.00e+00	0	35	0	680525824	48	6031
2026-01-08 12:02:09.54	84.53	11.12	-37.3	-38.2	22.9	0.00e+00	48	35	0	682622976	48	5883
2026-01-08 12:02:10.55	84.72	11.10	-37.1	-38.1	22.8	0.00e+00	0	35	0	683671552	48	5779
2026-01-08 12:02:11.56	84.90	11.09	-36.9	-37.8	23.3	0.00e+00	47	35	0	685768704	48	5607
2026-01-08 12:02:12.57	85.09	11.07	-36.8	-37.6	23.4	0.00e+00	0	35	0	687865856	48	5501
2026-01-08 12:02:13.58	85.27	11.05	-36.8	-37.7	23.5	0.00e+00	91	35	0	689963008	48	5507
2026-01-08 12:02:14.59	85.45	11.03	-36.9	-37.8	23.3	0.00e+00	0	35	0	692060160	46	6283
2026-01-08 12:02:15.60	85.64	11.01	-37.1	-38.0	23.2	0.00e+00	0	35	0	693108736	46	6410
2026-01-08 12:02:16.61	85.82	10.99	-36.8	-37.7	23.3	0.00e+00	0	35	0	695205888	46	6231
2026-01-08 12:02:17.62	86.00	10.97	-36.7	-37.6	23.4	0.00e+00	0	35	0	697303040	46	6163
2026-01-08 12:02:18.63	86.19	10.95	-36.7	-37.6	23.5	0.00e+00	45	35	0	699400192	46	6113
2026-01-08 12:02:19.64	86.37	10.93	-36.5	-37.4	23.6	0.00e+00	0	35	0	701497344	46	6002
2026-01-08 12:02:20.65	86.55	10.91	-36.5	-37.3	23.6	0.00e+00	75	35	0	702545920	46	5960
2026-01-08 12:02:21.66	86.73	10.89	-36.5	-37.4	23.6	0.00e+00	0	35	0	704643072	46	6002
2026-01-08 12:02:22.67	86.92	10.87	-36.6	-37.5	23.6	0.00e+00	0	35	0	706740224	46	6042
2026-01-08 12:02:23.68	87.10	10.85	-36.7	-37.6	23.4	0.00e+00	0	35	0	708837376	46	6161
2026-01-08 12:02:24.69	87.28	10.83	-36.9	-37.8	23.3	0.00e+00	0	35	0	710934528	46	6280
2026-01-08 12:02:25.70	87.46	10.81	-37.0	-37.9	23.2	0.00e+00	53	35	0	713031680	46	6330
2026-01-08 12:02:26.71	87.64	10.79	-37.1	-38.0	23.1	0.00e+00	0	35	0	714080256	46	6431
2026-01-08 12:02:27.72	87.82	10.77	-37.0	-38.0	23.1	0.00e+00	90	35	0	716177408	46	6394
2026-01-08 12:02:28.73	88.00	10.75	-37.1	-38.0	23.3	0.00e+00	0	35	0	718274560	46	6434
2026-01-08 12:02:29.74	88.18	10.72	-37.0	-37.9	23.2	0.00e+00	0	35	0	720371712	46	6321
2026-01-08 12:02:30.75	88.36	10.70	-36.9	-37.8	23.3	0.00e+00	0	35	0	722468864	46	6304
2026-01-08 12:02:31.76	88.54	10.68	-36.6	-37.5	23.5	0.00e+00	0	35	0	723517440	46	6095
2026-01-08 12:02:32.77	88.72	10.66	-36.6	-37.6	23.4	0.00e+00	51	35	0	725614592	46	6114
2026-01-08 12:02:33.78	88.90	10.63	-36.5	-37.5	23.6	0.00e+00	0	35	0	727711744	46	6043
2026-01-08 12:02:34.79	89.08	10.61	-36.5	-37.4	23.6	0.00e+00	92	35	0	729808896	46	6017
2026-01-08 12:02:35.80	89.26	10.59	-36.5	-37.5	23.6	0.00e+00	0	35	0	731906048	46	6050
2026-01-08 12:02:36.81	89.44	10.56	-36.6	-37.5	23.6	0.00e+00	0	35	0	732954624	46	6054
2026-01-08 12:02:37.82	89.61	10.54	-36.7	-37.6	23.5	0.00e+00	0	35	0	735051776	46	6137
2026-01-08 12:02:38.82	89.79	10.52	-36.8	-37.7	23.4	0.00e+00	0	35	0	737148928	46	6212
2026-01-08 12:02:39.83	89.97	10.49	-36.8	-37.7	23.4	0.00e+00	53	35	0	739246080	46	6226
2026-01-08 12:02:40.84	90.14	10.47	-36.6	-37.5	23.5	0.00e+00	0	35	0	741343232	46	6083
2026-01-08 12:02:41.85	90.32	10.44	-36.5	-37.4	23.5	0.00e+00	92	35	0	742391808	46	5997
2026-01-08 12:02:42.86	90.50	10.42	-36.4	-37.3	23.6	0.00e+00	0	35	0	744488960	46	5903
2026-01-08 12:02:43.87	90.67	10.39	-36.5	-37.4	23.6	0.00e+00	91	35	0	746586112	46	5972
2026-01-08 12:02:44.88	90.85	10.37	-36.5	-37.4	23.6	0.00e+00	0	35	0	748683264	46	6003
2026-01-08 12:02:45.89	91.03	10.34	-36.7	-37.5	23.4	0.00e+00	0	35	0	750780416	46	6099
2026-01-08 12:02:46.90	91.20	10.32	-36.6	-37.5	23.6	0.00e+00	0	35	0	751828992	46	6039
2026-01-08 12:02:47.91	91.38	10.29	-36.6	-37.5	23.5	0.00e+00	0	35	0	753926144	46	6085
2026-01-08 12:02:48.92	91.55	10.26	-36.9	-37.8	23.3	0.00e+00	91	35	0	756023296	46	6248
2026-01-08 12:02:49.92	91.72	10.24	-36.9	-37.8	23.3	0.00e+00	0	35	0	758120448	46	6283
2026-01-08 12:02:50.93	91.90	10.21	-36.9	-37.8	23.2	0.00e+00	90	35	0	760217600	46	6307
2026-01-08 12:02:51.94	92.07	10.18	-36.8	-37.7	23.4	0.00e+00	0	35	0	761266176	46	6187
2026-01-08 12:02:52.95	92.25	10.16	-37.0	-38.0	23.2	0.00e+00	0	35	0	763363328	46	6400
2026-01-08 12:02:53.96	92.42	10.13	-37.0	-37.9	23.2	0.00e+00	0	35	0	765460480	46	6345
2026-01-08 12:02:54.97	92.59	10.10	-36.9	-37.8	23.2	0.00e+00	0	35	0	767557632	46	6301
2026-01-08 12:02:55.98	92.76	10.07	-37.0	-37.9	23.1	0.00e+00	50	35	0	769654784	46	6353
2026-01-08 12:02:56.99	92.94	10.05	-37.1	-38.0	23.1	0.00e+00	0	35	0	770703360	46	6445
2026-01-08 12:02:58.00	93.11	10.02	-37.2	-38.1	22.9	0.00e+00	90	35	0	772800512	46	6520
2026-01-08 12:02:59.01	93.28	9.99	-37.3	-38.3	22.9	0.00e+00	0	35	0	774897664	46	6660
2026-01-08 12:03:00.01	93.45	9.96	-37.5	-38.5	22.7	0.00e+00	0	35	0	776994816	46	6812
2026-01-08 12:03:01.02	93.62	9.93	-37.7	-38.8	22.5	0.00e+00	0	35	0	779091968	46	7032
2026-01-08 12:03:02.03	93.79	9.91	-37.8	-38.8	22.4	0.00e+00	0	35	0	780140544	48	6314
2026-01-08 12:03:03.04	93.96	9.88	-38.1	-39.2	22.1	0.00e+00	20	35	0	782237696	48	6564
2026-01-08 12:03:04.05	94.13	9.85	-38.2	-39.3	22.1	0.00e+00	0	35	0	784334848	48	6651
2026-01-08 12:03:05.06	94.30	9.82	-38.3	-39.4	21.9	0.00e+00	92	35	0	786432000	48	6726
2026-01-08 12:03:06.07	94.47	9.79	-38.2	-39.3	22.1	0.00e+00	0	35	0	788529152	48	6616
2026-01-08 12:03:07.08	94.64	9.76	-38.1	-39.2	22.1	0.00e+00	0	35	0	789577728	48	6552
2026-01-08 12:03:08.09	94.81	9.73	-38.1	-39.2	22.2	0.00e+00	0	35	0	791674880	48	6587
2026-01-08 12:03:09.10	94.98	9.70	-38.2	-39.3	22.1	0.00e+00	0	35	0	793772032	48	6621
2026-01-08 12:03:10.11	95.15	9.67	-38.3	-39.4	22.0	0.00e+00	45	35	0	795869184	48	6742
2026-01-08 12:03:11.12	95.31	9.64	-38.3	-39.4	22.0	0.00e+00	0	35	0	797966336	48	6732
2026-01-08 12:03:12.13	95.48	9.61	-38.4	-39.5	21.9	0.00e+00	90	35	0	799014912	48	6804
2026-01-08 12:03:13.14	95.65	9.58	-38.3	-39.4	21.9	0.00e+00	0	35	0	801112064	48	6718
2026-01-08 12:03:14.14	95.81	9.55	-38.3	-39.3	21.9	0.00e+00	57	35	0	803209216	48	6669
2026-01-08 12:03:15.15	95.98	9.51	-38.5	-39.5	21.5	0.00e+00	0	35	0	805306368	48	6835
2026-01-08 12:03:16.16	96.15	9.48	-38.6	-39.7	21.6	0.00e+00	0	35	0	807403520	48	6952
2026-01-08 12:03:17.17	96.31	9.45	-38.8	-40.0	21.5	0.00e+00	47	35	0	809500672	48	7176
2026-01-08 12:03:18.18	96.48	9.42	-38.8	-39.9	21.5	0.00e+00	0	35	0	810549248	50	6388
2026-01-08 12:03:19.19	96.64	9.39	-39.1	-40.2	21.2	0.00e+00	73	35	0	812646400	50	6614
2026-01-08 12:03:20.20	96.81	9.36	-39.3	-40.5	20.8	0.00e+00	0	35	0	814743552	50	6832
2026-01-08 12:03:21.21	96.97	9.32	-39.6	-40.9	20.6	0.00e+00	92	35	0	816840704	52	6347
2026-01-08 12:03:22.22	97.14	9.29	-39.8	-41.1	20.5	0.00e+00	0	35	0	818937856	52	6530
2026-01-08 12:03:23.23	97.30	9.26	-39.7	-40.9	20.6	0.00e+00	0	35	0	819986432	52	6357
2026-01-08 12:03:24.24	97.46	9.23	-39.2	-40.4	21.1	0.00e+00	0	35	0	822083584	52	5983
2026-01-08 12:03:25.25	97.63	9.19	-39.2	-40.4	21.1	0.00e+00	0	35	0	824180736	52	5974
2026-01-08 12:03:26.26	97.79	9.16	-39.1	-40.3	21.1	0.00e+00	49	35	0	826277888	52	5902
2026-01-08 12:03:27.27	97.95	9.13	-39.2	-40.4	21.1	0.00e+00	0	35	0	828375040	52	6005
2026-01-08 12:03:28.28	98.11	9.10	-39.2	-40.4	21.1	0.00e+00	90	35	0	829423616	52	6026
2026-01-08 12:03:29.29	98.27	9.06	-39.6	-40.9	20.7	0.00e+00	0	35	0	831520768	52	6354
2026-01-08 12:03:30.30	98.44	9.03	-39.8	-41.1	20.5	0.00e+00	0	35	0	833617920	52	6503
2026-01-08 12:03:31.31	98.60	8.99	-40.0	-41.4	20.2	0.00e+00	0	35	0	835715072	52	6695
2026-01-08 12:03:32.32	98.76	8.96	-40.1	-41.5	20.1	0.00e+00	0	35	0	837812224	52	6841
2026-01-08 12:03:33.33	98.92	8.93	-40.2	-41.6	20.0	0.00e+00	5	35	0	838860800	52	6912
2026-01-08 12:03:34.34	99.08	8.89	-40.1	-41.4	20.1	0.00e+00	0	35	0	840957952	52	6763
2026-01-08 12:03:35.35	99.24	8.86	-39.8	-41.0	20.5	0.00e+00	92	35	0	843055104	52	6452
2026-01-08 12:03:36.36	99.40	8.82	-39.8	-41.1	20.5	0.00e+00	0	35	0	845152256	52	6469
2026-01-08 12:03:37.37	99.55	8.79	-39.7	-40.9	20.5	0.00e+00	0	35	0	847249408	52	6366
2026-01-08 12:03:38.38	99.71	8.75	-39.7	-40.9	20.5	0.00e+00	0	35	0	848297984	52	6382
2026-01-08 12:03:39.39	99.87	8.72	-39.5	-40.7	20.7	0.00e+00	0	35	0	850395136	52	6231
2026-01-08 12:03:40.39	100.03	8.69	-39.5	-40.8	20.6	0.00e+00	22	35	0	852492288	52	6278
2026-01-08 12:03:41.40	100.18	8.65	-39.7	-41.0	20.4	0.00e+00	0	35	0	854589440	52	6436
2026-01-08 12:03:42.41	100.34	8.62	-39.5	-40.7	20.8	0.00e+00	64	35	0	856686592	52	6233
2026-01-08 12:03:43.42	100.50	8.58	-39.7	-41.0	20.3	0.00e+00	0	35	0	857735168	52	6444
2026-01-08 12:03:44.43	100.65	8.54	-39.7	-40.9	20.5	0.00e+00	11	35	0	859832320	52	6387
2026-01-08 12:03:45.44	100.81	8.51	-39.8	-41.1	20.3	0.00e+00	0	35	0	861929472	52	6504
2026-01-08 12:03:46.45	100.96	8.47	-39.9	-41.2	20.3	0.00e+00	0	35	0	864026624	52	6563
2026-01-08 12:03:47.46	101.12	8.44	-40.0	-41.3	20.2	0.00e+00	36	35	0	866123776	52	6647
2026-01-08 12:03:48.47	101.27	8.40	-40.0	-41.3	20.2	0.00e+00	0	35	0	867172352	52	6661
2026-01-08 12:03:49.48	101.43	8.36	-39.8	-41.1	20.4	0.00e+00	89	35	0	869269504	52	6511
2026-01-08 12:03:50.49	101.58	8.33	-40.0	-41.3	20.2	0.00e+00	0	35	0	871366656	52	6679
2026-01-08 12:03:51.50	101.74	8.29	-40.1	-41.5	20.0	0.00e+00	14	35	0	873463808	52	6787
2026-01-08 12:03:52.51	101.89	8.26	-40.3	-41.7	19.9	0.00e+00	0	35	0	875560960	52	6935
2026-01-08 12:03:53.52	102.04	8.22	-40.1	-41.5	20.0	0.00e+00	0	35	0	877658112	52	6785
2026-01-08 12:03:54.53	102.19	8.18	-40.0	-41.4	20.2	0.00e+00	0	35	0	878706688	52	6719
2026-01-08 12:03:55.54	102.35	8.15	-40.1	-41.6	19.9	0.00e+00	0	35	0	880803840	52	6856
2026-01-08 12:03:56.54	102.50	8.11	-40.0	-41.5	20.1	0.00e+00	90	35	0	882900992	52	6770
2026-01-08 12:03:57.55	102.65	8.07	-39.9	-41.3	20.2	0.00e+00	0	35	0	884998144	52	6627
2026-01-08 12:03:58.56	102.80	8.03	-40.0	-41.4	20.1	0.00e+00	92	35	0	887095296	52	6700
2026-01-08 12:03:59.57	102.95	8.00	-40.1	-41.4	20.1	0.00e+00	0	35	0	888143872	52	6769
2026-01-08 12:04:00.58	103.10	7.96	-39.9	-41.3	20.3	0.00e+00	0	35	0	890241024	52	6616
2026-01-08 12:04:01.59	103.25	7.92	-39.9	-41.2	20.3	0.00e+00	54	35	0	892338176	52	6596
2026-01-08 12:04:02.60	103.40	7.88	-39.7	-41.0	20.4	0.00e+00	0	35	0	894435328	52	6425
2026-01-08 12:04:03.61	103.55	7.85	-39.8	-41.1	20.4	0.00e+00	44	35	0	896532480	52	6475
2026-01-08 12:04:04.62	103.70	7.81	-39.8	-41.0	20.5	0.00e+00	0	35	0	897581056	52	6462
2026-01-08 12:04:05.63	103.85	7.77	-39.7	-41.0	20.5	0.00e+00	92	35	0	899678208	52	6404
2026-01-08 12:04:06.64	103.99	7.73	-39.4	-40.6	20.8	0.00e+00	0	35	0	901775360	52	6123
2026-01-08 12:04:07.65	104.14	7.69	-39.1	-40.2	21.1	0.00e+00	0	35	0	903872512	52	5886
2026-01-08 12:04:08.66	104.29	7.66	-39.1	-40.2	21.1	0.00e+00	0	35	0	905969664	52	5889
2026-01-08 12:04:09.67	104.43	7.62	-38.9	-40.1	21.3	0.00e+00	0	35	0	907018240	52	5784
2026-01-08 12:04:10.67	104.58	7.58	-39.0	-40.1	21.2	0.00e+00	42	35	0	909115392	52	5798
2026-01-08 12:04:11.69	104.73	7.54	-39.0	-40.1	21.2	0.00e+00	0	35	0	911212544	52	5813
2026-01-08 12:04:12.70	104.87	7.50	-39.0	-40.1	21.2	0.00e+00	92	35	0	913309696	52	5801
2026-01-08 12:04:13.71	105.02	7.46	-39.0	-40.2	21.1	0.00e+00	0	35	0	915406848	52	5848
2026-01-08 12:04:14.72	105.16	7.42	-39.2	-40.4	21.0	0.00e+00	0	35	0	916455424	52	5985
2026-01-08 12:04:15.73	105.31	7.38	-39.4	-40.6	20.7	0.00e+00	0	35	0	918552576	52	6117
2026-01-08 12:04:16.73	105.45	7.35	-39.8	-41.1	20.4	0.00e+00	0	35	0	920649728	52	6468
2026-01-08 12:04:17.74	105.60	7.31	-39.7	-41.0	20.4	0.00e+00	47	35	0	922746880	52	6450
2026-01-08 12:04:18.75	105.74	7.27	-39.6	-40.9	20.3	0.00e+00	0	35	0	924844032	52	6345
2026-01-08 12:04:19.76	105.88	7.23	-39.9	-41.2	20.1	0.00e+00	92	35	0	925892608	52	6543
2026-01-08 12:04:20.77	106.02	7.19	-39.8	-41.1	20.4	0.00e+00	0	35	0	927989760	52	6496
2026-01-08 12:04:21.78	106.17	7.15	-39.6	-40.9	20.4	0.00e+00	0	35	0	930086912	52	6362
2026-01-08 12:04:22.79	106.31	7.11	-39.5	-40.8	20.6	0.00e+00	0	35	0	932184064	52	6274
2026-01-08 12:04:23.79	106.45	7.07	-39.5	-40.7	20.6	0.00e+00	0	35	0	934281216	52	6201
2026-01-08 12:04:24.80	106.59	7.03	-39.3	-40.5	20.8	0.00e+00	17	35	0	935329792	52	6060
2026-01-08 12:04:25.81	106.73	6.99	-39.0	-40.3	21.0	0.00e+00	0	35	0	937426944	52	5904
2026-01-08 12:04:26.82	106.87	6.95	-39.1	-40.5	20.7	0.00e+00	82	35	0	939524096	52	6060
2026-01-08 12:04:27.83	107.01	6.91	-39.1	-40.5	20.7	0.00e+00	0	35	0	941621248	52	6103
2026-01-08 12:04:28.84	107.15	6.87	-39.1	-40.5	20.8	0.00e+00	92	35	0	943718400	52	6044
2026-01-08 12:04:29.84	107.29	6.83	-39.2	-40.5	20.8	0.00e+00	0	35	0	945815552	52	6053
2026-01-08 12:04:30.85	107.43	6.79	-39.4	-40.6	20.7	0.00e+00	0	35	0	946864128	52	6158
2026-01-08 12:04:31.86	107.57	6.75	-39.2	-40.5	20.8	0.00e+00	0	35	0	948961280	52	6046
2026-01-08 12:04:32.87	107.71	6.71	-39.1	-40.4	20.9	0.00e+00	0	35	0	951058432	52	6002
2026-01-08 12:04:33.88	107.84	6.67	-39.0	-40.4	20.9	0.00e+00	48	35	0	953155584	52	5991
2026-01-08 12:04:34.89	107.98	6.63	-39.0	-40.4	20.7	0.00e+00	0	35	0	955252736	52	6007
2026-01-08 12:04:35.90	108.12	6.59	-39.1	-40.5	20.8	0.00e+00	92	35	0	956301312	52	6065
2026-01-08 12:04:36.91	108.26	6.55	-38.9	-40.1	21.2	0.00e+00	0	35	0	958398464	52	5824
2026-01-08 12:04:37.92	108.39	6.51	-38.8	-40.1	21.1	0.00e+00	0	35	0	960495616	52	5773
2026-01-08 12:04:38.93	108.53	6.46	-38.8	-40.1	21.1	0.00e+00	9	35	0	962592768	52	5774
2026-01-08 12:04:39.94	108.66	6.42	-38.7	-39.9	21.2	0.00e+00	0	35	0	964689920	50	6358
2026-01-08 12:04:40.95	108.80	6.38	-38.7	-39.9	21.2	0.00e+00	46	35	0	965738496	50	6362
2026-01-08 12:04:41.96	108.93	6.34	-38.9	-40.0	21.0	0.00e+00	0	35	0	967835648	50	6463
2026-01-08 12:04:42.97	109.07	6.30	-38.6	-39.8	21.3	0.00e+00	92	35	0	969932800	50	6284
2026-01-08 12:04:43.98	109.20	6.26	-38.7	-39.9	21.2	0.00e+00	0	35	0	972029952	50	6353
2026-01-08 12:04:44.99	109.34	6.22	-38.7	-39.9	21.2	0.00e+00	0	35	0	974127104	50	6376
2026-01-08 12:04:46.00	109.47	6.18	-38.7	-39.9	21.2	0.00e+00	0	35	0	975175680	50	6343
2026-01-08 12:04:47.01	109.60	6.14	-38.6	-39.8	21.3	0.00e+00	0	35	0	977272832	50	6276
2026-01-08 12:04:48.02	109.74	6.09	-38.5	-39.7	21.4	0.00e+00	10	35	0	979369984	50	6196
2026-01-08 12:04:49.03	109.87	6.05	-38.4	-39.5	21.6	0.00e+00	0	35	0	981467136	50	6095
2026-01-08 12:04:50.04	110.00	6.01	-38.4	-39.5	21.5	0.00e+00	72	35	0	983564288	50	6077
2026-01-08 12:04:51.05	110.13	5.97	-38.3	-39.4	21.6	0.00e+00	0	35	0	984612864	50	6021
2026-01-08 12:04:52.05	110.26	5.93	-38.3	-39.4	21.6	0.00e+00	0	35	0	986710016	50	6020
2026-01-08 12:04:53.06	110.39	5.89	-38.1	-39.2	21.8	0.00e+00	0	35	0	988807168	50	5883
2026-01-08 12:04:54.07	110.53	5.84	-38.2	-39.4	21.7	0.00e+00	0	35	0	990904320	50	5972
2026-01-08 12:04:55.08	110.66	5.80	-38.2	-39.3	21.6	0.00e+00	19	35	0	993001472	50	5960
2026-01-08 12:04:56.09	110.79	5.76	-38.4	-39.6	21.5	0.00e+00	0	35	0	994050048	50	6149
2026-01-08 12:04:57.09	110.91	5.72	-38.6	-39.8	21.3	0.00e+00	81	35	0	996147200	50	6254
2026-01-08 12:04:58.10	111.04	5.68	-38.7	-39.8	21.2	0.00e+00	0	35	0	998244352	50	6316
2026-01-08 12:04:59.11	111.17	5.63	-38.7	-39.9	21.0	0.00e+00	0	35	0	1000341504	50	6374
2026-01-08 12:05:00.12	111.30	5.59	-38.9	-40.1	21.0	0.00e+00	0	35	0	1002438656	50	6493
2026-01-08 12:05:01.12	111.43	5.55	-39.0	-40.2	20.8	0.00e+00	33	35	0	1003487232	50	6603
2026-01-08 12:05:02.13	111.56	5.51	-38.9	-40.1	20.9	0.00e+00	0	35	0	1005584384	50	6506
2026-01-08 12:05:03.14	111.68	5.47	-39.1	-40.3	20.8	0.00e+00	0	35	0	1007681536	50	6629
2026-01-08 12:05:04.15	111.81	5.42	-39.1	-40.3	20.7	0.00e+00	91	35	0	1009778688	50	6683
2026-01-08 12:05:05.16	111.94	5.38	-38.9	-40.1	20.9	0.00e+00	0	35	0	1011875840	50	6500
2026-01-08 12:05:06.17	112.06	5.34	-39.0	-40.2	20.8	0.00e+00	72	35	0	1012924416	50	6558
2026-01-08 12:05:07.18	112.19	5.30	-39.1	-40.4	20.6	0.00e+00	0	35	0	1015021568	50	6729
2026-01-08 12:05:08.19	112.32	5.25	-39.1	-40.3	20.8	0.00e+00	0	35	0	1017118720	50	6642
2026-01-08 12:05:09.20	112.44	5.21	-39.0	-40.3	20.8	0.00e+00	0	35	0	1019215872	50	6634
2026-01-08 12:05:10.21	112.57	5.17	-39.2	-40.5	20.6	0.00e+00	0	35	0	1021313024	50	6805
2026-01-08 12:05:11.21	112.69	5.13	-39.2	-40.5	20.5	0.00e+00	54	35	0	1022361600	50	6792
2026-01-08 12:05:12.22	112.81	5.08	-39.3	-40.6	20.4	0.00e+00	0	35	0	1024458752	50	6854
2026-01-08 12:05:13.23	112.94	5.04	-39.3	-40.5	20.5	0.00e+00	91	35	0	1026555904	50	6835
2026-01-08 12:05:14.24	113.06	5.00	-39.1	-40.4	20.7	0.00e+00	0	35	0	1028653056	50	6700
2026-01-08 12:05:15.25	113.18	4.95	-39.0	-40.3	20.7	0.00e+00	0	35	0	1030750208	50	6642
2026-01-08 12:05:16.26	113.31	4.91	-39.1	-40.4	20.5	0.00e+00	0	35	0	1031798784	50	6735
2026-01-08 12:05:17.27	113.43	4.87	-38.9	-40.1	20.8	0.00e+00	0	35	0	1033895936	50	6481
2026-01-08 12:05:18.28	113.55	4.83	-38.8	-40.0	21.0	0.00e+00	48	35	0	1035993088	50	6421
2026-01-08 12:05:19.29	113.67	4.78	-38.7	-39.8	21.1	0.00e+00	0	35	0	1038090240	50	6301
2026-01-08 12:05:20.30	113.79	4.74	-38.7	-39.9	21.1	0.00e+00	90	35	0	1040187392	50	6347
2026-01-08 12:05:21.31	113.92	4.70	-38.7	-39.9	21.0	0.00e+00	0	35	0	1042284544	50	6320
2026-01-08 12:05:22.32	114.04	4.65	-38.9	-40.2	20.7	0.00e+00	0	35	0	1043333120	50	6547
2026-01-08 12:05:23.33	114.16	4.61	-38.9	-40.1	20.8	0.00e+00	0	35	0	1045430272	50	6528
2026-01-08 12:05:24.34	114.28	4.57	-38.8	-40.0	20.9	0.00e+00	0	35	0	1047527424	50	6437
2026-01-08 12:05:25.35	114.40	4.52	-39.2	-40.4	20.5	0.00e+00	47	35	0	1049624576	50	6748
2026-01-08 12:05:26.36	114.52	4.48	-39.2	-40.4	20.5	0.00e+00	0	35	0	1051721728	50	6738
2026-01-08 12:05:27.37	114.64	4.44	-39.4	-40.7	20.2	0.00e+00	88	35	0	1052770304	50	6944
2026-01-08 12:05:28.38	114.75	4.39	-39.5	-40.8	20.1	0.00e+00	0	35	0	1054867456	50	7037
2026-01-08 12:05:29.39	114.87	4.35	-39.6	-41.0	19.8	0.00e+00	3	35	0	1056964608	50	7200
2026-01-08 12:05:30.40	114.99	4.31	-39.7	-41.1	19.8	0.00e+00	0	35	0	1059061760	50	7285
2026-01-08 12:05:31.41	115.11	4.26	-39.9	-41.4	19.4	0.00e+00	0	35	0	1061158912	52	6729
2026-01-08 12:05:32.42	115.23	4.22	-39.8	-41.3	19.6	0.00e+00	0	35	0	1062207488	52	6616
2026-01-08 12:05:33.42	115.34	4.18	-39.8	-41.3	19.6	0.00e+00	0	35	0	1064304640	52	6655
2026-01-08 12:05:34.44	115.46	4.13	-39.8	-41.3	19.5	0.00e+00	88	35	0	1066401792	52	6664
2026-01-08 12:05:35.44	115.58	4.09	-39.6	-41.1	19.7	0.00e+00	0	35	0	1068498944	52	6509
2026-01-08 12:05:36.46	115.69	4.05	-39.7	-41.2	19.6	0.00e+00	36	35	0	1070596096	52	6615
2026-01-08 12:05:37.46	115.81	4.00	-39.7	-41.3	19.7	0.00e+00	0	35	0	1071644672	52	6646
2026-01-08 12:05:38.48	115.92	3.96	-39.6	-41.1	19.8	0.00e+00	0	35	0	1073741824	52	6493
2026-01-08 12:05:39.49	116.04	3.92	-39.7	-41.1	19.7	0.00e+00	25	35	0	1075838976	52	6513
2026-01-08 12:05:40.49	116.15	3.87	-39.6	-40.9	19.8	0.00e+00	0	35	0	1077936128	52	6384
2026-01-08 12:05:41.50	116.27	3.83	-39.7	-41.1	19.6	0.00e+00	81	35	0	1080033280	52	6531
2026-01-08 12:05:42.51	116.38	3.79	-39.8	-41.2	19.7	0.00e+00	0	35	0	1081081856	52	6571
2026-01-08 12:05:43.52	116.50	3.74	-39.7	-41.1	19.7	0.00e+00	83	35	0	1083179008	52	6523
2026-01-08 12:05:44.53	116.61	3.70	-39.7	-41.1	19.7	0.00e+00	0	35	0	1085276160	52	6503
2026-01-08 12:05:45.54	116.72	3.65	-39.8	-41.3	19.4	0.00e+00	0	35	0	1087373312	52	6653
2026-01-08 12:05:46.55	116.84	3.61	-40.0	-41.5	19.3	0.00e+00	9	35	0	1089470464	52	6804
2026-01-08 12:05:47.56	116.95	3.57	-39.8	-41.2	19.5	0.00e+00	0	35	0	1090519040	52	6606
2026-01-08 12:05:48.57	117.06	3.52	-39.8	-41.3	19.4	0.00e+00	92	35	0	1092616192	52	6671
2026-01-08 12:05:49.58	117.17	3.48	-39.8	-41.3	19.5	0.00e+00	0	35	0	1094713344	52	6651
2026-01-08 12:05:50.59	117.28	3.44	-39.6	-41.1	19.7	0.00e+00	40	35	0	1096810496	52	6494
2026-01-08 12:05:51.60	117.40	3.39	-39.7	-41.2	19.6	0.00e+00	0	35	0	1098907648	52	6588
2026-01-08 12:05:52.60	117.51	3.35	-39.6	-41.1	19.6	0.00e+00	0	35	0	1099956224	52	6475
2026-01-08 12:05:53.61	117.62	3.30	-39.8	-41.4	19.4	0.00e+00	0	35	0	1102053376	52	6695
2026-01-08 12:05:54.62	117.73	3.26	-39.8	-41.3	19.4	0.00e+00	0	35	0	1104150528	52	6686
2026-01-08 12:05:55.63	117.84	3.22	-40.1	-41.7	19.0	0.00e+00	45	35	0	1106247680	52	6951
2026-01-08 12:05:56.65	117.95	3.17	-40.2	-41.8	18.9	0.00e+00	0	35	0	1108344832	52	7056
2026-01-08 12:05:57.65	118.06	3.13	-40.3	-41.9	18.8	0.00e+00	92	35	0	1110441984	52	7121
2026-01-08 12:05:58.66	118.16	3.08	-40.4	-42.0	18.7	0.00e+00	0	35	0	1111490560	52	7209
2026-01-08 12:05:59.67	118.27	3.04	-40.5	-42.2	18.5	0.00e+00	0	35	0	1113587712	52	7374
2026-01-08 12:06:00.68	118.38	3.00	-46.8	-62.4	3.6	0.00e+00	0	35	104	1114636288	60	47437
2026-01-08 12:06:01.69	118.49	2.95	-47.8	-63.0	3.6	1.51e+00	0	35	104	1114636288	60	50833
2026-01-08 12:06:02.70	118.60	2.91	-48.1	-63.3	3.6	1.51e+00	0	35	104	1114636288	60	52851
2026-01-08 12:06:03.71	118.70	2.87	-48.2	-63.5	3.6	1.51e+00	0	35	104	1114636288	60	53793
2026-01-08 12:06:04.72	118.81	2.82	-48.3	-63.6	3.6	1.51e+00	0	35	104	1114636288	60	54647
2026-01-08 12:06:05.73	118.92	2.78	-48.5	-63.7	3.6	1.51e+00	0	35	104	1114636288	60	55078
2026-01-08 12:06:06.74	119.03	2.73	-48.5	-63.7	3.6	1.51e+00	0	35	104	1114636288	60	55398
2026-01-08 12:06:07.75	119.13	2.69	-48.6	-63.8	3.6	1.51e+00	0	35	104	1114636288	60	55804
2026-01-08 12:06:08.76	119.24	2.64	-48.6	-63.8	3.6	1.51e+00	0	35	104	1114636288	60	55730
2026-01-08 12:06:09.77	119.34	2.60	-48.6	-63.8	3.6	1.51e+00	0	35	104	1114636288	60	55931
2026-01-08 12:06:10.77	119.45	2.56	-48.6	-63.8	3.6	1.51e+00	0	35	104	1114636288	60	55691
2026-01-08 12:06:11.78	119.55	2.51	-48.4	-63.7	3.6	1.51e+00	0	35	104	1114636288	60	55363
2026-01-08 12:06:12.79	119.66	2.47	-48.3	-63.7	3.6	1.51e+00	0	35	104	1114636288	60	55328
2026-01-08 12:06:13.80	119.76	2.42	-48.5	-63.7	3.6	1.51e+00	0	35	104	1114636288	60	55432
2026-01-08 12:06:14.81	119.87	2.38	-48.5	-63.7	3.6	1.51e+00	0	35	104	1114636288	60	55397
2026-01-08 12:06:15.82	119.97	2.34	-48.5	-63.7	3.6	1.51e+00	0	35	104	1114636288	60	55661
2026-01-08 12:06:16.83	120.07	2.29	-48.5	-63.7	3.6	1.51e+00	0	35	104	1114636288	60	55096
2026-01-08 12:06:17.84	120.18	2.25	-48.5	-63.7	3.6	1.51e+00	0	35	104	1114636288	60	55248
2026-01-08 12:06:18.85	120.28	2.20	-48.5	-63.6	3.6	1.51e+00	0	35	104	1114636288	60	55019
2026-01-08 12:06:19.86	120.38	2.16	-48.5	-63.7	3.6	1.51e+00	0	35	104	1114636288	60	55333
2026-01-08 12:06:20.87	120.49	2.12	-48.5	-63.6	3.6	1.51e+00	0	35	104	1114636288	60	54922
2026-01-08 12:06:21.88	120.59	2.07	-48.5	-63.6	3.5	1.51e+00	0	35	104	1114636288	60	54942
2026-01-08 12:06:22.89	120.69	2.03	-48.5	-63.6	3.6	1.51e+00	0	35	104	1114636288	60	54935
2026-01-08 12:06:23.90	120.79	1.98	-48.5	-63.6	3.6	1.51e+00	0	35	104	1114636288	60	54919
2026-01-08 12:06:24.91	120.89	1.94	-48.5	-63.6	3.6	1.51e+00	0	35	104	1114636288	60	54909
2026-01-08 12:06:25.92	120.99	1.90	-48.5	-63.6	3.6	1.51e+00	0	35	104	1114636288	60	54935
2026-01-08 12:06:26.93	121.09	1.85	-48.5	-63.6	3.6	1.51e+00	0	35	104	1114636288	60	54830
2026-01-08 12:06:27.93	121.19	1.81	-48.5	-63.7	3.6	1.51e+00	0	35	104	1114636288	60	55140
2026-01-08 12:06:28.94	121.29	1.76	-48.5	-63.6	3.5	1.51e+00	0	35	104	1114636288	60	54752
2026-01-08 12:06:29.95	121.39	1.72	-48.5	-63.6	3.6	1.51e+00	0	35	104	1114636288	60	54852
2026-01-08 12:06:30.96	121.49	1.68	-48.5	-63.6	3.6	1.51e+00	0	35	104	1114636288	60	54944
2026-01-08 12:06:31.97	121.59	1.63	-48.5	-63.7	3.6	1.51e+00	0	35	104	1114636288	60	55224
2026-01-08 12:06:32.98	121.69	1.59	-48.5	-63.7	3.6	1.51e+00	0	35	104	1114636288	60	55062
2026-01-08 12:06:33.99	121.79	1.54	-48.5	-63.6	3.6	1.51e+00	0	35	104	1114636288	60	54858
2026-01-08 12:06:35.00	121.89	1.50	-48.5	-63.7	3.6	1.51e+00	0	35	104	1114636288	60	55047
2026-01-08 12:06:36.01	121.99	1.45	-48.5	-63.7	3.6	1.51e+00	0	35	104	1114636288	60	55168
2026-01-08 12:06:37.02	122.08	1.41	-48.5	-63.7	3.6	1.51e+00	0	35	104	1114636288	60	55091
2026-01-08 12:06:38.03	122.18	1.37	-48.5	-63.7	3.6	1.51e+00	0	35	104	1114636288	60	55197
2026-01-08 12:06:39.04	122.28	1.32	-48.5	-63.6	3.6	1.51e+00	0	35	104	1114636288	60	54996
2026-01-08 12:06:40.05	122.38	1.28	-48.5	-63.7	3.6	1.51e+00	0	35	104	1114636288	60	55064
2026-01-08 12:06:41.06	122.47	1.23	-48.5	-63.6	3.6	1.51e+00	0	35	104	1114636288	60	54834
2026-01-08 12:06:42.07	122.57	1.19	-48.5	-63.7	3.6	1.51e+00	0	35	104	1114636288	60	55122
