passes_logs/2026/01/08/R4.6S_Anadyr/R4.6S_Anadyr__20260108_230135_NOAA_21_JPSS-2_rec.log

#Pass ID: 20260108_230135_NOAA 21 (JPSS-2)
#Satellite: NOAA 21 (JPSS-2)
#Configuration: NOAA-21
#almurnet v.1.7.20251203
#Start time: 2026-01-08 23:01:38

#Version: 2.2.20231116
#Station: R4.6S_Anadyr
#Location: 177.4865 lon 64.73178 lat
#TLE: 1 54234U 22150A   26008.31660796  .00000118  00000+0  76746-4 0  9995
#TLE: 2 54234  98.7494 309.2974 0000900 328.8845  31.2277 14.19533293163868

#Time	Az	El	Level	Level2	SNR	BER	BlckErr	Temp	State	Recorded	gain1	gain2
2026-01-08 23:01:38.27	127.11	0.19	-48.1	-59.5	3.3	1.54e+00	0	32	0	0	60	33243
2026-01-08 23:01:39.27	127.09	0.24	-48.3	-61.1	3.5	1.52e+00	0	32	104	0	60	39807
2026-01-08 23:01:40.28	127.06	0.30	-48.3	-61.2	3.5	1.52e+00	0	32	104	0	60	40230
2026-01-08 23:01:41.29	127.03	0.36	-48.4	-61.3	3.5	1.52e+00	0	32	104	0	60	40566
2026-01-08 23:01:42.30	127.00	0.42	-48.3	-61.2	3.5	1.52e+00	0	32	104	0	60	40425
2026-01-08 23:01:43.31	126.97	0.48	-48.3	-61.2	3.5	1.52e+00	0	32	104	0	60	40211
2026-01-08 23:01:44.32	126.94	0.54	-48.3	-61.2	3.5	1.51e+00	0	32	104	0	60	40087
2026-01-08 23:01:45.33	126.91	0.60	-48.2	-61.1	3.5	1.52e+00	0	32	104	0	60	39711
2026-01-08 23:01:46.33	126.88	0.66	-48.1	-61.0	3.5	1.52e+00	0	32	104	0	60	39437
2026-01-08 23:01:47.34	126.85	0.72	-47.8	-61.0	3.5	1.51e+00	0	32	104	0	60	39305
2026-01-08 23:01:48.35	126.82	0.78	-47.8	-60.9	3.5	1.52e+00	0	32	104	0	60	38751
2026-01-08 23:01:49.36	126.79	0.84	-47.8	-60.7	3.5	1.51e+00	0	32	104	0	60	38083
2026-01-08 23:01:50.37	126.76	0.91	-47.7	-60.5	3.5	1.52e+00	0	32	104	0	60	37276
2026-01-08 23:01:51.38	126.73	0.97	-47.4	-60.2	3.5	1.52e+00	0	32	104	0	60	35930
2026-01-08 23:01:52.39	126.69	1.03	-46.6	-59.6	3.5	1.52e+00	0	33	104	0	60	33631
2026-01-08 23:01:53.40	126.66	1.09	-46.2	-59.5	3.5	1.52e+00	0	33	104	0	60	33242
2026-01-08 23:01:54.41	126.63	1.15	-46.2	-59.5	3.5	1.52e+00	0	33	104	0	60	33069
2026-01-08 23:01:55.42	126.60	1.21	-46.2	-59.5	3.5	1.52e+00	0	33	104	0	60	33047
2026-01-08 23:01:56.43	126.57	1.27	-46.2	-59.4	3.5	1.52e+00	0	33	104	0	60	32787
2026-01-08 23:01:57.44	126.54	1.33	-46.2	-59.4	3.5	1.52e+00	0	33	104	0	60	32865
2026-01-08 23:01:58.45	126.51	1.40	-46.2	-59.5	3.5	1.52e+00	0	33	104	0	60	32966
2026-01-08 23:01:59.46	126.47	1.46	-46.2	-59.5	3.5	1.52e+00	0	33	104	0	60	33145
2026-01-08 23:02:00.47	126.44	1.52	-46.1	-59.5	3.5	1.52e+00	0	33	104	0	60	33007
2026-01-08 23:02:01.48	126.41	1.58	-46.2	-59.5	3.5	1.52e+00	0	33	104	0	60	33094
2026-01-08 23:02:02.48	126.38	1.64	-46.2	-59.5	3.5	1.52e+00	0	33	104	0	60	33218
2026-01-08 23:02:03.49	126.35	1.71	-46.2	-59.4	3.5	1.52e+00	0	33	104	0	60	32877
2026-01-08 23:02:04.50	126.31	1.77	-46.2	-59.4	3.5	1.52e+00	0	33	104	0	60	32763
2026-01-08 23:02:05.51	126.28	1.83	-46.1	-59.3	3.5	1.51e+00	0	33	104	0	60	32372
2026-01-08 23:02:06.52	126.25	1.89	-46.1	-59.2	3.5	1.52e+00	0	33	104	0	60	32021
2026-01-08 23:02:07.53	126.21	1.96	-46.1	-59.2	3.5	1.52e+00	0	33	104	0	60	32147
2026-01-08 23:02:08.54	126.18	2.02	-46.1	-59.2	3.5	1.52e+00	0	33	104	0	60	32086
2026-01-08 23:02:09.55	126.15	2.08	-46.1	-59.3	3.5	1.52e+00	0	33	104	0	60	32254
2026-01-08 23:02:10.56	126.11	2.15	-46.1	-59.4	3.5	1.51e+00	0	33	104	0	60	32607
2026-01-08 23:02:11.57	126.08	2.21	-46.1	-59.4	3.5	1.52e+00	0	33	104	0	60	32831
2026-01-08 23:02:12.58	126.05	2.27	-46.1	-59.5	3.5	1.52e+00	0	33	104	0	60	33091
2026-01-08 23:02:13.60	126.01	2.34	-46.1	-59.5	3.5	1.52e+00	0	33	104	0	60	33049
2026-01-08 23:02:14.61	125.98	2.40	-46.1	-59.4	3.5	1.52e+00	0	33	104	0	60	32913
2026-01-08 23:02:15.62	125.94	2.46	-46.2	-59.5	3.5	1.52e+00	0	33	104	0	60	33023
2026-01-08 23:02:16.63	125.91	2.53	-46.2	-59.3	3.5	1.52e+00	0	33	104	0	60	32292
2026-01-08 23:02:17.64	125.87	2.59	-46.1	-59.2	3.5	1.52e+00	0	33	104	0	60	32134
2026-01-08 23:02:18.65	125.84	2.66	-46.1	-59.1	3.5	1.52e+00	0	33	104	0	60	31532
2026-01-08 23:02:19.66	125.80	2.72	-46.1	-58.8	3.5	1.52e+00	0	33	104	0	60	30423
2026-01-08 23:02:20.66	125.77	2.78	-46.1	-58.6	3.5	1.52e+00	0	33	104	0	60	29864
2026-01-08 23:02:21.67	125.73	2.85	-46.1	-58.4	3.5	1.51e+00	0	33	104	0	60	29314
2026-01-08 23:02:22.68	125.70	2.91	-46.1	-58.9	3.5	1.52e+00	0	33	104	0	60	31006
2026-01-08 23:02:23.69	125.66	2.98	-46.1	-59.4	3.5	1.52e+00	0	33	104	0	60	32728
2026-01-08 23:02:24.70	125.63	3.04	-46.1	-59.3	3.5	1.51e+00	0	33	104	0	60	32280
2026-01-08 23:02:25.71	125.59	3.11	-45.9	-57.1	3.8	1.51e+00	0	33	104	0	60	25236
2026-01-08 23:02:26.72	125.56	3.17	-45.5	-53.8	5.4	7.84e-01	122	33	104	0	60	17282
2026-01-08 23:02:27.73	125.52	3.24	-44.8	-50.0	8.2	8.47e-02	123	33	0	2097152	60	11088
2026-01-08 23:02:28.74	125.48	3.31	-43.7	-47.6	11.0	4.40e-03	122	33	0	5242880	60	8403
2026-01-08 23:02:29.75	125.45	3.37	-42.6	-45.5	13.3	1.20e-04	122	33	0	8388608	58	7379
2026-01-08 23:02:30.76	125.41	3.44	-41.7	-44.1	14.6	0.00e+00	123	33	0	11534336	56	7119
2026-01-08 23:02:31.77	125.37	3.50	-40.8	-42.9	15.8	0.00e+00	122	33	0	14680064	56	6164
2026-01-08 23:02:32.78	125.33	3.57	-40.2	-42.1	16.6	0.00e+00	122	33	0	17825792	54	6281
2026-01-08 23:02:33.79	125.30	3.64	-43.5	-46.7	9.3	1.50e-06	123	33	0	20971520	56	9595
2026-01-08 23:02:34.80	125.26	3.70	-40.5	-42.3	17.2	8.30e-06	122	33	0	24117248	56	5739
2026-01-08 23:02:35.81	125.22	3.77	-44.6	-50.0	3.7	3.42e-02	123	33	0	27262976	56	13935
2026-01-08 23:02:36.82	125.18	3.84	-45.8	-52.9	3.9	1.50e+00	0	33	104	27262976	60	15475
2026-01-08 23:02:37.83	125.15	3.90	-40.6	-42.7	14.2	7.17e-05	122	33	0	27262976	52	7561
2026-01-08 23:02:38.84	125.11	3.97	-41.2	-43.2	15.8	2.49e-04	123	33	0	30408704	56	6380
2026-01-08 23:02:39.85	125.07	4.04	-40.6	-42.4	16.3	0.00e+00	123	33	0	33554432	54	6555
2026-01-08 23:02:40.86	125.03	4.11	-40.9	-42.9	15.9	0.00e+00	122	33	0	36700160	54	6912
2026-01-08 23:02:41.87	124.99	4.17	-40.4	-42.2	16.7	0.00e+00	122	33	0	39845888	54	6372
2026-01-08 23:02:42.88	124.95	4.24	-38.7	-40.1	18.7	0.00e+00	123	33	0	42991616	52	5618
2026-01-08 23:02:43.89	124.91	4.31	-37.6	-38.8	19.9	0.00e+00	122	33	0	46137344	48	6125
2026-01-08 23:02:44.90	124.87	4.38	-36.9	-38.1	20.6	0.00e+00	123	33	0	49283072	48	5650
2026-01-08 23:02:45.91	124.83	4.45	-36.4	-37.6	21.0	0.00e+00	123	33	0	52428800	46	5939
2026-01-08 23:02:46.92	124.79	4.51	-36.6	-37.7	20.9	0.00e+00	123	33	0	55574528	46	6037
2026-01-08 23:02:47.93	124.75	4.58	-36.7	-37.8	20.8	0.00e+00	123	33	0	58720256	46	6108
2026-01-08 23:02:48.94	124.71	4.65	-36.7	-37.8	20.9	0.00e+00	123	33	0	61865984	46	6102
2026-01-08 23:02:49.95	124.67	4.72	-36.5	-37.6	21.1	0.00e+00	121	33	0	65011712	46	5978
2026-01-08 23:02:50.96	124.63	4.79	-36.6	-37.7	21.0	0.00e+00	123	33	0	68157440	46	6033
2026-01-08 23:02:51.97	124.59	4.86	-36.5	-37.7	21.0	0.00e+00	120	33	0	71303168	46	6005
2026-01-08 23:02:52.98	124.55	4.93	-36.8	-37.9	20.8	0.00e+00	122	33	0	74448896	46	6172
2026-01-08 23:02:53.99	124.51	5.00	-36.5	-37.6	21.1	0.00e+00	123	33	0	77594624	46	5970
2026-01-08 23:02:54.99	124.47	5.07	-36.4	-37.5	21.2	0.00e+00	122	33	0	80740352	46	5883
2026-01-08 23:02:56.00	124.43	5.14	-36.5	-37.6	21.1	0.00e+00	120	33	0	83886080	46	5950
2026-01-08 23:02:57.01	124.38	5.21	-36.3	-37.4	21.3	0.00e+00	123	33	0	87031808	46	5847
2026-01-08 23:02:58.02	124.34	5.28	-36.5	-37.6	21.2	0.00e+00	120	33	0	90177536	46	5963
2026-01-08 23:02:59.03	124.30	5.35	-36.3	-37.4	21.4	0.00e+00	123	33	0	93323264	46	5817
2026-01-08 23:03:00.04	124.26	5.42	-36.4	-37.6	21.3	0.00e+00	121	33	0	96468992	46	5932
2026-01-08 23:03:01.05	124.21	5.49	-36.4	-37.6	21.1	0.00e+00	123	33	0	99614720	46	5949
2026-01-08 23:03:02.06	124.17	5.56	-36.1	-37.2	21.5	0.00e+00	123	33	0	102760448	46	5711
2026-01-08 23:03:03.07	124.13	5.63	-36.0	-37.1	21.5	0.00e+00	123	33	0	105906176	46	5654
2026-01-08 23:03:04.08	124.08	5.70	-36.2	-37.3	21.4	0.00e+00	122	34	0	109051904	46	5775
2026-01-08 23:03:05.09	124.04	5.77	-36.0	-37.1	21.6	0.00e+00	122	33	0	112197632	46	5657
2026-01-08 23:03:06.10	124.00	5.84	-36.2	-37.3	21.4	0.00e+00	123	33	0	115343360	46	5743
2026-01-08 23:03:07.11	123.95	5.92	-36.1	-37.2	21.5	0.00e+00	123	33	0	118489088	46	5722
2026-01-08 23:03:08.12	123.91	5.99	-36.1	-37.2	21.5	0.00e+00	121	33	0	121634816	46	5705
2026-01-08 23:03:09.13	123.86	6.06	-36.0	-37.1	21.6	0.00e+00	123	33	0	124780544	46	5654
2026-01-08 23:03:10.14	123.82	6.13	-35.9	-36.9	21.8	0.00e+00	120	33	0	127926272	46	5529
2026-01-08 23:03:11.15	123.77	6.21	-35.9	-37.0	21.8	0.00e+00	123	33	0	131072000	46	5572
2026-01-08 23:03:12.16	123.73	6.28	-35.9	-36.9	21.8	0.00e+00	123	33	0	134217728	46	5526
2026-01-08 23:03:13.17	123.68	6.35	-36.0	-37.0	21.8	0.00e+00	123	33	0	137363456	46	5591
2026-01-08 23:03:14.18	123.64	6.42	-35.8	-36.9	22.0	0.00e+00	120	33	0	140509184	46	5479
2026-01-08 23:03:15.19	123.59	6.50	-35.9	-37.0	21.8	0.00e+00	123	34	0	143654912	46	5541
2026-01-08 23:03:16.20	123.54	6.57	-35.8	-36.9	22.0	0.00e+00	123	33	0	146800640	46	5477
2026-01-08 23:03:17.20	123.50	6.64	-35.9	-37.0	21.9	0.00e+00	122	33	0	149946368	44	6215
2026-01-08 23:03:18.21	123.45	6.72	-35.9	-36.9	21.9	0.00e+00	122	33	0	153092096	44	6187
2026-01-08 23:03:19.22	123.40	6.79	-35.8	-36.9	22.0	0.00e+00	120	33	0	156237824	44	6135
2026-01-08 23:03:20.23	123.36	6.87	-35.8	-36.8	22.1	0.00e+00	122	34	0	159383552	44	6092
2026-01-08 23:03:21.24	123.31	6.94	-35.6	-36.6	22.1	0.00e+00	123	34	0	162529280	44	5973
2026-01-08 23:03:22.25	123.26	7.02	-35.4	-36.4	22.3	0.00e+00	120	33	0	165675008	44	5835
2026-01-08 23:03:23.25	123.21	7.09	-35.4	-36.4	22.3	0.00e+00	123	33	0	168820736	44	5853
2026-01-08 23:03:24.26	123.16	7.16	-35.4	-36.4	22.3	0.00e+00	122	33	0	171966464	44	5852
2026-01-08 23:03:25.27	123.12	7.24	-35.4	-36.4	22.3	0.00e+00	123	33	0	175112192	44	5854
2026-01-08 23:03:26.28	123.07	7.32	-35.4	-36.4	22.3	0.00e+00	123	33	0	178257920	44	5823
2026-01-08 23:03:27.29	123.02	7.39	-35.4	-36.4	22.3	0.00e+00	123	33	0	181403648	44	5804
2026-01-08 23:03:28.30	122.97	7.47	-35.3	-36.3	22.4	0.00e+00	120	34	0	184549376	44	5755
2026-01-08 23:03:29.31	122.92	7.54	-35.4	-36.4	22.4	0.00e+00	120	33	0	187695104	44	5855
2026-01-08 23:03:30.31	122.87	7.62	-35.4	-36.5	22.3	0.00e+00	122	34	0	190840832	44	5876
2026-01-08 23:03:31.32	122.82	7.69	-35.3	-36.3	22.4	0.00e+00	123	34	0	193986560	44	5782
2026-01-08 23:03:32.33	122.77	7.77	-35.3	-36.3	22.4	0.00e+00	123	34	0	197132288	44	5751
2026-01-08 23:03:33.34	122.72	7.85	-35.4	-36.4	22.4	0.00e+00	122	34	0	200278016	44	5825
2026-01-08 23:03:34.35	122.67	7.93	-35.4	-36.4	22.4	0.00e+00	123	33	0	203423744	44	5840
2026-01-08 23:03:35.36	122.61	8.00	-35.5	-36.5	22.3	0.00e+00	122	34	0	206569472	44	5873
2026-01-08 23:03:36.37	122.56	8.08	-35.2	-36.2	22.5	0.00e+00	122	34	0	209715200	44	5725
2026-01-08 23:03:37.38	122.51	8.16	-35.3	-36.3	22.4	0.00e+00	120	33	0	212860928	44	5753
2026-01-08 23:03:38.39	122.46	8.24	-35.4	-36.4	22.4	0.00e+00	123	33	0	216006656	44	5829
2026-01-08 23:03:39.40	122.41	8.31	-35.4	-36.4	22.4	0.00e+00	123	33	0	219152384	44	5855
2026-01-08 23:03:40.41	122.35	8.39	-35.3	-36.3	22.5	0.00e+00	120	34	0	222298112	44	5735
2026-01-08 23:03:41.42	122.30	8.47	-35.3	-36.3	22.5	0.00e+00	122	34	0	225443840	44	5749
2026-01-08 23:03:42.43	122.25	8.55	-35.2	-36.2	22.6	0.00e+00	122	34	0	228589568	44	5699
2026-01-08 23:03:43.44	122.19	8.63	-35.4	-36.5	22.4	0.00e+00	120	34	0	231735296	44	5860
2026-01-08 23:03:44.45	122.14	8.71	-35.2	-36.2	22.7	0.00e+00	120	34	0	234881024	44	5668
2026-01-08 23:03:45.46	122.08	8.79	-35.3	-36.3	22.6	0.00e+00	123	34	0	238026752	44	5750
2026-01-08 23:03:46.47	122.03	8.87	-35.3	-36.3	22.6	0.00e+00	123	34	0	241172480	44	5735
2026-01-08 23:03:47.47	121.97	8.95	-35.2	-36.2	22.7	0.00e+00	123	34	0	244318208	44	5720
2026-01-08 23:03:48.48	121.92	9.03	-35.2	-36.2	22.6	0.00e+00	123	34	0	247463936	44	5719
2026-01-08 23:03:49.49	121.86	9.11	-35.3	-36.3	22.7	0.00e+00	123	34	0	250609664	44	5733
2026-01-08 23:03:50.50	121.81	9.19	-35.2	-36.2	22.7	0.00e+00	122	34	0	253755392	44	5688
2026-01-08 23:03:51.51	121.75	9.27	-35.2	-36.2	22.7	0.00e+00	122	34	0	256901120	44	5717
2026-01-08 23:03:52.52	121.69	9.35	-35.2	-36.2	22.7	0.00e+00	123	34	0	260046848	44	5704
2026-01-08 23:03:53.53	121.64	9.43	-34.9	-35.8	23.0	0.00e+00	122	34	0	263192576	44	5463
2026-01-08 23:03:54.54	121.58	9.51	-34.9	-35.8	23.0	0.00e+00	122	34	0	266338304	44	5442
2026-01-08 23:03:55.55	121.52	9.59	-34.9	-35.9	23.1	0.00e+00	123	34	0	269484032	44	5468
2026-01-08 23:03:56.56	121.46	9.68	-34.9	-35.9	23.1	0.00e+00	120	34	0	272629760	44	5488
2026-01-08 23:03:57.57	121.40	9.76	-34.9	-35.9	23.0	0.00e+00	122	34	0	275775488	42	6149
2026-01-08 23:03:58.58	121.35	9.84	-34.9	-35.8	23.1	0.00e+00	122	34	0	278921216	42	6131
2026-01-08 23:03:59.59	121.29	9.92	-34.5	-35.5	23.4	0.00e+00	123	34	0	283115520	42	5886
2026-01-08 23:04:00.60	121.23	10.01	-34.5	-35.5	23.4	0.00e+00	121	34	0	286261248	42	5874
2026-01-08 23:04:01.61	121.17	10.09	-34.6	-35.5	23.3	0.00e+00	123	34	0	288358400	42	5894
2026-01-08 23:04:02.62	121.11	10.17	-34.5	-35.5	23.4	0.00e+00	123	34	0	291504128	42	5893
2026-01-08 23:04:03.63	121.05	10.26	-34.5	-35.4	23.5	0.00e+00	120	34	0	295698432	42	5827
2026-01-08 23:04:04.64	120.99	10.34	-34.3	-35.2	23.7	0.00e+00	123	34	0	298844160	42	5692
2026-01-08 23:04:05.65	120.92	10.43	-34.2	-35.1	23.6	0.00e+00	123	34	0	301989888	42	5647
2026-01-08 23:04:06.65	120.86	10.51	-34.3	-35.2	23.6	0.00e+00	123	34	0	305135616	42	5698
2026-01-08 23:04:07.66	120.80	10.59	-34.1	-35.0	23.8	0.00e+00	123	34	0	308281344	42	5581
2026-01-08 23:04:08.67	120.74	10.68	-34.2	-35.1	23.6	0.00e+00	122	34	0	310378496	42	5635
2026-01-08 23:04:09.68	120.68	10.77	-34.1	-35.0	23.7	0.00e+00	123	34	0	313524224	42	5573
2026-01-08 23:04:10.69	120.61	10.85	-34.2	-35.1	23.7	0.00e+00	120	34	0	317718528	42	5624
2026-01-08 23:04:11.70	120.55	10.94	-34.1	-35.0	23.7	0.00e+00	123	34	0	320864256	42	5581
2026-01-08 23:04:12.71	120.49	11.02	-34.2	-35.2	23.7	0.00e+00	123	34	0	324009984	42	5670
2026-01-08 23:04:13.72	120.42	11.11	-34.1	-35.1	23.7	0.00e+00	123	34	0	327155712	42	5604
2026-01-08 23:04:14.73	120.36	11.20	-34.1	-35.0	23.8	0.00e+00	123	34	0	330301440	42	5575
2026-01-08 23:04:15.74	120.29	11.28	-34.1	-35.0	23.7	0.00e+00	123	34	0	333447168	42	5571
2026-01-08 23:04:16.75	120.23	11.37	-34.1	-35.0	23.8	0.00e+00	123	34	0	336592896	42	5577
2026-01-08 23:04:17.75	120.16	11.46	-34.1	-35.0	23.8	0.00e+00	123	34	0	339738624	42	5567
2026-01-08 23:04:18.76	120.09	11.54	-34.0	-35.0	23.8	0.00e+00	123	34	0	342884352	42	5532
2026-01-08 23:04:19.77	120.03	11.63	-34.1	-35.0	23.8	0.00e+00	120	34	0	346030080	42	5561
2026-01-08 23:04:20.78	119.96	11.72	-34.2	-35.1	23.7	0.00e+00	122	34	0	349175808	42	5645
2026-01-08 23:04:21.79	119.89	11.81	-34.2	-35.2	23.7	0.00e+00	122	34	0	352321536	42	5688
2026-01-08 23:04:22.80	119.83	11.90	-34.1	-35.0	23.9	0.00e+00	120	34	0	355467264	42	5565
2026-01-08 23:04:23.81	119.76	11.99	-34.2	-35.1	23.7	0.00e+00	122	34	0	358612992	42	5652
2026-01-08 23:04:24.82	119.69	12.08	-34.2	-35.1	23.7	0.00e+00	121	34	0	361758720	42	5655
2026-01-08 23:04:25.83	119.62	12.17	-33.9	-34.9	24.0	0.00e+00	122	34	0	364904448	42	5470
2026-01-08 23:04:26.84	119.55	12.26	-33.9	-34.8	24.0	0.00e+00	122	34	0	368050176	42	5448
2026-01-08 23:04:27.85	119.48	12.35	-34.0	-35.0	23.9	0.00e+00	123	34	0	371195904	42	5547
2026-01-08 23:04:28.86	119.41	12.44	-33.8	-34.8	24.0	0.00e+00	120	34	0	374341632	42	5418
2026-01-08 23:04:29.87	119.34	12.53	-33.9	-34.8	24.0	0.00e+00	122	34	0	377487360	42	5436
2026-01-08 23:04:30.88	119.27	12.62	-33.7	-34.6	24.2	0.00e+00	122	34	0	380633088	40	5943
2026-01-08 23:04:31.89	119.19	12.71	-33.9	-34.8	24.1	0.00e+00	123	34	0	383778816	40	6099
2026-01-08 23:04:32.90	119.12	12.80	-33.7	-34.6	24.2	0.00e+00	120	34	0	386924544	40	5955
2026-01-08 23:04:33.91	119.05	12.89	-33.7	-34.6	24.2	0.00e+00	123	34	0	390070272	40	5938
2026-01-08 23:04:34.92	118.97	12.99	-33.6	-34.5	24.2	0.00e+00	121	34	0	393216000	40	5882
2026-01-08 23:04:35.93	118.90	13.08	-33.6	-34.5	24.2	0.00e+00	123	34	0	396361728	40	5896
2026-01-08 23:04:36.94	118.83	13.17	-33.7	-34.6	24.1	0.00e+00	123	34	0	399507456	40	5949
2026-01-08 23:04:37.95	118.75	13.27	-33.8	-34.7	24.0	0.00e+00	123	34	0	402653184	40	6029
2026-01-08 23:04:38.96	118.68	13.36	-33.8	-34.7	24.1	0.00e+00	122	34	0	405798912	40	6025
2026-01-08 23:04:39.97	118.60	13.45	-33.8	-34.7	24.0	0.00e+00	122	34	0	408944640	40	6051
2026-01-08 23:04:40.98	118.52	13.55	-33.7	-34.6	24.1	0.00e+00	122	34	0	412090368	40	5981
2026-01-08 23:04:41.99	118.45	13.64	-33.7	-34.6	24.1	0.00e+00	120	34	0	415236096	40	5985
2026-01-08 23:04:43.00	118.37	13.74	-33.8	-34.7	24.0	0.00e+00	122	34	0	418381824	40	6015
2026-01-08 23:04:44.01	118.29	13.83	-33.7	-34.7	24.0	0.00e+00	123	34	0	421527552	40	6009
2026-01-08 23:04:45.02	118.21	13.93	-33.9	-34.8	24.0	0.00e+00	120	34	0	424673280	40	6130
2026-01-08 23:04:46.02	118.14	14.02	-33.8	-34.7	24.1	0.00e+00	123	34	0	427819008	40	6060
2026-01-08 23:04:47.03	118.06	14.12	-33.7	-34.7	24.1	0.00e+00	123	34	0	430964736	40	6018
2026-01-08 23:04:48.04	117.98	14.21	-33.7	-34.7	24.1	0.00e+00	123	34	0	434110464	40	6005
2026-01-08 23:04:49.05	117.90	14.31	-33.8	-34.8	24.1	0.00e+00	122	34	0	437256192	40	6074
2026-01-08 23:04:50.06	117.81	14.41	-33.7	-34.7	24.2	0.00e+00	122	34	0	440401920	40	6026
2026-01-08 23:04:51.07	117.73	14.51	-33.8	-34.8	24.1	0.00e+00	122	34	0	443547648	40	6071
2026-01-08 23:04:52.07	117.65	14.60	-33.9	-34.9	24.1	0.00e+00	122	34	0	446693376	40	6155
2026-01-08 23:04:53.08	117.57	14.70	-33.9	-34.8	24.1	0.00e+00	123	34	0	449839104	40	6103
2026-01-08 23:04:54.09	117.49	14.80	-33.7	-34.6	24.2	0.00e+00	123	34	0	452984832	40	5964
2026-01-08 23:04:55.10	117.40	14.90	-33.8	-34.7	24.2	0.00e+00	122	34	0	456130560	40	6059
2026-01-08 23:04:56.11	117.32	15.00	-33.7	-34.7	24.3	0.00e+00	122	34	0	459276288	40	5996
2026-01-08 23:04:57.12	117.23	15.10	-33.6	-34.5	24.2	0.00e+00	123	34	0	462422016	40	5923
2026-01-08 23:04:58.13	117.15	15.20	-33.7	-34.6	24.2	0.00e+00	123	34	0	465567744	40	5943
2026-01-08 23:04:59.14	117.06	15.30	-33.5	-34.4	24.3	0.00e+00	123	34	0	468713472	40	5821
2026-01-08 23:05:00.15	116.97	15.40	-33.6	-34.5	24.3	0.00e+00	122	34	0	471859200	40	5906
2026-01-08 23:05:01.16	116.89	15.50	-33.6	-34.5	24.3	0.00e+00	120	34	0	475004928	40	5873
2026-01-08 23:05:02.17	116.80	15.60	-33.5	-34.4	24.4	0.00e+00	123	34	0	478150656	40	5852
2026-01-08 23:05:03.18	116.71	15.70	-33.5	-34.4	24.3	0.00e+00	120	34	0	481296384	40	5834
2026-01-08 23:05:04.19	116.62	15.80	-33.6	-34.5	24.3	0.00e+00	122	34	0	484442112	40	5876
2026-01-08 23:05:05.20	116.53	15.90	-33.5	-34.4	24.4	0.00e+00	122	34	0	487587840	40	5854
2026-01-08 23:05:06.21	116.44	16.01	-33.6	-34.5	24.2	0.00e+00	122	34	0	490733568	40	5920
2026-01-08 23:05:07.21	116.35	16.11	-33.5	-34.4	24.3	0.00e+00	123	34	0	493879296	40	5857
2026-01-08 23:05:08.22	116.26	16.21	-33.6	-34.5	24.3	0.00e+00	120	34	0	497025024	40	5907
2026-01-08 23:05:09.23	116.16	16.31	-33.8	-34.7	24.1	0.00e+00	123	34	0	500170752	40	6034
2026-01-08 23:05:10.25	116.07	16.42	-33.9	-34.8	24.1	0.00e+00	120	34	0	503316480	40	6087
2026-01-08 23:05:11.25	115.98	16.52	-33.9	-34.9	24.1	0.00e+00	123	34	0	506462208	40	6137
2026-01-08 23:05:12.26	115.88	16.63	-34.1	-35.1	23.8	0.00e+00	122	34	0	509607936	40	6298
2026-01-08 23:05:13.27	115.79	16.73	-33.8	-34.7	24.1	0.00e+00	120	34	0	512753664	40	6063
2026-01-08 23:05:14.28	115.69	16.84	-34.0	-34.9	24.0	0.00e+00	123	34	0	515899392	40	6191
2026-01-08 23:05:15.29	115.60	16.94	-33.9	-34.9	24.0	0.00e+00	123	34	0	519045120	40	6137
2026-01-08 23:05:16.30	115.50	17.05	-34.0	-34.9	24.0	0.00e+00	123	34	0	522190848	40	6187
2026-01-08 23:05:17.31	115.40	17.16	-34.0	-35.0	24.0	0.00e+00	122	34	0	525336576	40	6232
2026-01-08 23:05:18.32	115.30	17.26	-34.1	-35.0	23.9	0.00e+00	120	34	0	528482304	40	6252
2026-01-08 23:05:19.33	115.20	17.37	-34.1	-35.1	23.9	0.00e+00	123	34	0	531628032	40	6287
2026-01-08 23:05:20.34	115.10	17.48	-34.0	-34.9	24.1	0.00e+00	123	34	0	534773760	40	6186
2026-01-08 23:05:21.35	115.00	17.59	-34.1	-35.1	24.0	0.00e+00	123	34	0	537919488	40	6287
2026-01-08 23:05:22.36	114.90	17.69	-34.1	-35.0	24.0	0.00e+00	121	34	0	541065216	40	6248
2026-01-08 23:05:23.37	114.80	17.80	-34.3	-35.2	23.9	0.00e+00	123	34	0	544210944	40	6365
2026-01-08 23:05:24.38	114.69	17.91	-34.0	-34.9	24.1	0.00e+00	123	34	0	547356672	40	6185
2026-01-08 23:05:25.38	114.59	18.02	-34.1	-35.0	24.0	0.00e+00	123	34	0	550502400	40	6273
2026-01-08 23:05:26.39	114.49	18.13	-34.0	-34.9	24.1	0.00e+00	122	34	0	553648128	40	6164
2026-01-08 23:05:27.40	114.38	18.24	-33.9	-34.9	24.1	0.00e+00	123	34	0	556793856	40	6136
2026-01-08 23:05:28.41	114.28	18.35	-33.8	-34.7	24.2	0.00e+00	123	34	0	559939584	40	6049
2026-01-08 23:05:29.42	114.17	18.46	-34.0	-34.9	24.1	0.00e+00	120	34	0	563085312	40	6156
2026-01-08 23:05:30.43	114.06	18.57	-33.9	-34.9	24.1	0.00e+00	122	34	0	566231040	40	6141
2026-01-08 23:05:31.44	113.95	18.69	-33.8	-34.7	24.2	0.00e+00	122	34	0	569376768	40	6038
2026-01-08 23:05:32.45	113.84	18.80	-33.8	-34.7	24.2	0.00e+00	123	34	0	572522496	40	6029
2026-01-08 23:05:33.46	113.73	18.91	-33.8	-34.7	24.2	0.00e+00	123	34	0	575668224	40	6043
2026-01-08 23:05:34.47	113.62	19.02	-33.9	-34.8	24.1	0.00e+00	123	34	0	578813952	40	6097
2026-01-08 23:05:35.48	113.51	19.14	-33.8	-34.7	24.2	0.00e+00	123	34	0	581959680	40	6017
2026-01-08 23:05:36.49	113.40	19.25	-33.9	-34.8	24.2	0.00e+00	122	34	0	585105408	40	6081
2026-01-08 23:05:37.49	113.28	19.37	-33.7	-34.6	24.3	0.00e+00	123	34	0	588251136	40	5931
2026-01-08 23:05:38.50	113.17	19.48	-33.7	-34.7	24.3	0.00e+00	123	34	0	591396864	40	6000
2026-01-08 23:05:39.51	113.05	19.60	-33.5	-34.4	24.4	0.00e+00	122	34	0	594542592	40	5820
2026-01-08 23:05:40.52	112.94	19.71	-33.5	-34.4	24.5	0.00e+00	123	34	0	597688320	40	5846
2026-01-08 23:05:41.53	112.82	19.83	-33.4	-34.3	24.6	0.00e+00	123	34	0	600834048	40	5743
2026-01-08 23:05:42.54	112.70	19.94	-33.3	-34.2	24.7	0.00e+00	121	34	0	603979776	40	5664
2026-01-08 23:05:43.55	112.58	20.06	-33.2	-34.1	24.7	0.00e+00	123	34	0	607125504	40	5601
2026-01-08 23:05:44.56	112.46	20.18	-33.2	-34.1	24.7	0.00e+00	120	34	0	610271232	40	5640
2026-01-08 23:05:45.57	112.34	20.29	-33.1	-34.0	24.8	0.00e+00	123	34	0	613416960	40	5569
2026-01-08 23:05:46.58	112.22	20.41	-32.8	-33.6	25.0	0.00e+00	121	34	0	616562688	40	5328
2026-01-08 23:05:47.59	112.10	20.53	-32.8	-33.7	24.9	0.00e+00	122	34	0	619708416	38	5998
2026-01-08 23:05:48.60	111.97	20.65	-32.8	-33.7	24.9	0.00e+00	122	34	0	622854144	38	6023
2026-01-08 23:05:49.61	111.85	20.77	-32.8	-33.7	24.9	0.00e+00	120	34	0	625999872	38	6032
2026-01-08 23:05:50.62	111.72	20.89	-32.9	-33.8	24.9	0.00e+00	123	34	0	629145600	38	6099
2026-01-08 23:05:51.63	111.60	21.01	-32.7	-33.6	24.9	0.00e+00	120	34	0	632291328	38	5970
2026-01-08 23:05:52.63	111.47	21.13	-32.7	-33.6	24.9	0.00e+00	122	34	0	635437056	38	5956
2026-01-08 23:05:53.64	111.34	21.25	-32.6	-33.5	25.0	0.00e+00	123	34	0	638582784	38	5881
2026-01-08 23:05:54.65	111.21	21.37	-32.6	-33.5	25.1	0.00e+00	123	34	0	641728512	38	5868
2026-01-08 23:05:55.66	111.08	21.49	-32.6	-33.4	25.2	0.00e+00	122	34	0	644874240	38	5851
2026-01-08 23:05:56.67	110.95	21.61	-32.5	-33.4	25.2	0.00e+00	123	34	0	648019968	38	5804
2026-01-08 23:05:57.68	110.82	21.74	-32.3	-33.2	25.4	0.00e+00	123	34	0	651165696	38	5701
2026-01-08 23:05:58.69	110.68	21.86	-32.5	-33.3	25.4	0.00e+00	122	34	0	654311424	38	5770
2026-01-08 23:05:59.70	110.55	21.98	-32.3	-33.1	25.4	0.00e+00	122	34	0	657457152	38	5659
2026-01-08 23:06:00.71	110.41	22.11	-32.2	-33.1	25.5	0.00e+00	120	34	0	660602880	38	5598
2026-01-08 23:06:01.72	110.27	22.23	-32.3	-33.1	25.4	0.00e+00	122	34	0	663748608	38	5622
2026-01-08 23:06:02.73	110.13	22.36	-32.2	-33.1	25.5	0.00e+00	122	34	0	666894336	38	5611
2026-01-08 23:06:03.74	109.99	22.48	-32.2	-33.0	25.5	0.00e+00	123	34	0	671088640	38	5589
2026-01-08 23:06:04.75	109.85	22.61	-32.2	-33.1	25.3	0.00e+00	123	34	0	674234368	38	5620
2026-01-08 23:06:05.75	109.71	22.73	-32.2	-33.0	25.5	0.00e+00	123	34	0	676331520	38	5589
2026-01-08 23:06:06.76	109.57	22.86	-32.3	-33.2	25.4	0.00e+00	122	34	0	679477248	38	5660
2026-01-08 23:06:07.77	109.43	22.99	-32.3	-33.1	25.5	0.00e+00	123	34	0	682622976	38	5632
2026-01-08 23:06:08.78	109.28	23.11	-32.2	-33.0	25.4	0.00e+00	123	34	0	686817280	38	5589
2026-01-08 23:06:09.79	109.13	23.24	-32.2	-33.1	25.4	0.00e+00	123	34	0	689963008	38	5595
2026-01-08 23:06:10.80	108.99	23.37	-32.0	-32.9	25.6	0.00e+00	123	34	0	693108736	38	5486
2026-01-08 23:06:11.81	108.84	23.50	-32.1	-32.9	25.6	0.00e+00	121	34	0	696254464	38	5526
2026-01-08 23:06:12.82	108.69	23.63	-32.0	-32.9	25.6	0.00e+00	122	34	0	698351616	38	5494
2026-01-08 23:06:13.83	108.53	23.76	-32.1	-33.0	25.5	0.00e+00	120	34	0	702545920	38	5536
2026-01-08 23:06:14.84	108.38	23.89	-32.2	-33.1	25.4	0.00e+00	123	34	0	705691648	38	5621
2026-01-08 23:06:15.85	108.23	24.02	-32.3	-33.2	25.4	0.00e+00	122	34	0	708837376	38	5676
2026-01-08 23:06:16.86	108.07	24.15	-32.3	-33.2	25.4	0.00e+00	122	34	0	711983104	38	5674
2026-01-08 23:06:17.87	107.91	24.28	-32.2	-33.0	25.5	0.00e+00	123	34	0	715128832	38	5579
2026-01-08 23:06:18.88	107.76	24.41	-32.2	-33.0	25.5	0.00e+00	123	34	0	718274560	38	5590
2026-01-08 23:06:19.89	107.60	24.54	-32.2	-33.1	25.4	0.00e+00	123	34	0	721420288	38	5610
2026-01-08 23:06:20.89	107.44	24.67	-32.2	-33.0	25.5	0.00e+00	122	34	0	724566016	38	5584
2026-01-08 23:06:21.91	107.27	24.81	-32.2	-33.1	25.5	0.00e+00	123	34	0	727711744	38	5608
2026-01-08 23:06:22.91	107.11	24.94	-32.2	-33.1	25.4	0.00e+00	116	34	0	730857472	38	5608
2026-01-08 23:06:23.92	106.95	25.07	-32.4	-33.2	25.3	0.00e+00	123	34	0	734003200	38	5725
2026-01-08 23:06:24.93	106.78	25.21	-32.4	-33.3	25.3	0.00e+00	122	34	0	737148928	38	5756
2026-01-08 23:06:25.94	106.61	25.34	-32.7	-33.6	25.1	0.00e+00	123	34	0	740294656	38	5949
2026-01-08 23:06:26.95	106.44	25.48	-32.7	-33.6	25.0	0.00e+00	123	34	0	743440384	38	5959
2026-01-08 23:06:27.96	106.27	25.61	-32.8	-33.7	25.1	0.00e+00	123	34	0	746586112	38	5999
2026-01-08 23:06:28.97	106.10	25.75	-33.0	-33.9	24.9	0.00e+00	120	34	0	749731840	38	6141
2026-01-08 23:06:29.98	105.93	25.88	-33.1	-34.0	24.8	0.00e+00	122	34	0	752877568	38	6219
2026-01-08 23:06:30.99	105.75	26.02	-33.3	-34.2	24.7	0.00e+00	123	34	0	756023296	38	6374
2026-01-08 23:06:32.00	105.57	26.16	-33.4	-34.3	24.6	0.00e+00	120	34	0	759169024	38	6495
2026-01-08 23:06:33.01	105.39	26.29	-33.7	-34.6	24.5	0.00e+00	123	34	0	762314752	38	6675
2026-01-08 23:06:34.02	105.21	26.43	-33.7	-34.6	24.5	0.00e+00	120	34	0	765460480	38	6673
2026-01-08 23:06:35.03	105.03	26.57	-33.7	-34.6	24.4	0.00e+00	121	34	0	768606208	40	5983
2026-01-08 23:06:36.04	104.85	26.71	-33.8	-34.7	24.4	0.00e+00	123	34	0	771751936	40	6042
2026-01-08 23:06:37.05	104.66	26.85	-33.6	-34.5	24.5	0.00e+00	123	34	0	774897664	40	5907
2026-01-08 23:06:38.06	104.48	26.99	-33.7	-34.6	24.4	0.00e+00	122	34	0	778043392	40	5928
2026-01-08 23:06:39.07	104.29	27.12	-33.6	-34.5	24.5	0.00e+00	122	34	0	781189120	40	5860
2026-01-08 23:06:40.08	104.10	27.26	-33.7	-34.6	24.4	0.00e+00	122	34	0	784334848	40	5946
2026-01-08 23:06:41.09	103.91	27.41	-33.5	-34.4	24.6	0.00e+00	120	34	0	787480576	40	5801
2026-01-08 23:06:42.10	103.71	27.55	-33.7	-34.6	24.4	0.00e+00	122	34	0	790626304	40	5982
2026-01-08 23:06:43.11	103.52	27.69	-33.9	-34.8	24.2	0.00e+00	123	34	0	793772032	40	6133
2026-01-08 23:06:44.11	103.33	27.83	-33.9	-34.9	24.2	0.00e+00	123	34	0	796917760	40	6140
2026-01-08 23:06:45.12	103.13	27.97	-33.9	-34.9	24.3	0.00e+00	120	34	0	800063488	40	6144
2026-01-08 23:06:46.13	102.93	28.11	-34.0	-34.9	24.1	0.00e+00	120	34	0	803209216	40	6174
2026-01-08 23:06:47.14	102.72	28.25	-33.7	-34.6	24.4	0.00e+00	122	34	0	806354944	40	5955
2026-01-08 23:06:48.15	102.52	28.39	-33.6	-34.6	24.5	0.00e+00	121	34	0	809500672	40	5929
2026-01-08 23:06:49.16	102.31	28.54	-33.6	-34.5	24.5	0.00e+00	122	34	0	812646400	40	5895
2026-01-08 23:06:50.17	102.11	28.68	-33.9	-34.8	24.2	0.00e+00	123	34	0	815792128	40	6107
2026-01-08 23:06:51.18	101.90	28.82	-33.4	-34.3	24.6	0.00e+00	123	34	0	818937856	40	5726
2026-01-08 23:06:52.19	101.69	28.97	-33.3	-34.2	24.7	0.00e+00	120	34	0	822083584	40	5670
2026-01-08 23:06:53.20	101.47	29.11	-33.2	-34.1	24.8	0.00e+00	123	34	0	825229312	40	5609
2026-01-08 23:06:54.21	101.26	29.26	-33.3	-34.2	24.6	0.00e+00	122	34	0	828375040	40	5685
2026-01-08 23:06:55.22	101.04	29.40	-33.4	-34.3	24.6	0.00e+00	122	34	0	831520768	40	5780
2026-01-08 23:06:56.23	100.82	29.55	-33.4	-34.3	24.6	0.00e+00	120	34	0	834666496	40	5755
2026-01-08 23:06:57.23	100.60	29.69	-33.4	-34.3	24.6	0.00e+00	123	34	0	837812224	40	5741
2026-01-08 23:06:58.24	100.38	29.84	-33.2	-34.1	24.8	0.00e+00	121	34	0	840957952	40	5599
2026-01-08 23:06:59.25	100.15	29.98	-33.2	-34.1	24.9	0.00e+00	123	34	0	844103680	40	5595
2026-01-08 23:07:00.26	99.93	30.13	-33.0	-33.8	25.0	0.00e+00	123	34	0	847249408	40	5454
2026-01-08 23:07:01.27	99.70	30.27	-33.0	-33.8	25.0	0.00e+00	120	34	0	850395136	40	5462
2026-01-08 23:07:02.28	99.47	30.42	-32.9	-33.8	25.0	0.00e+00	122	34	0	853540864	40	5425
2026-01-08 23:07:03.29	99.23	30.57	-33.1	-34.0	24.8	0.00e+00	122	34	0	856686592	40	5537
2026-01-08 23:07:04.30	99.00	30.71	-33.1	-33.9	24.7	0.00e+00	122	34	0	859832320	40	5529
2026-01-08 23:07:05.31	98.76	30.86	-33.2	-34.1	24.6	0.00e+00	123	34	0	862978048	40	5645
2026-01-08 23:07:06.32	98.52	31.01	-33.1	-34.0	24.9	0.00e+00	122	34	0	866123776	40	5538
2026-01-08 23:07:07.33	98.28	31.16	-33.2	-34.1	24.7	0.00e+00	122	34	0	869269504	40	5600
2026-01-08 23:07:08.34	98.03	31.30	-33.0	-33.9	24.9	0.00e+00	122	34	0	872415232	40	5496
2026-01-08 23:07:09.35	97.78	31.45	-33.0	-33.9	25.0	0.00e+00	123	34	0	875560960	40	5477
2026-01-08 23:07:10.36	97.53	31.60	-33.0	-33.9	25.0	0.00e+00	123	34	0	878706688	40	5501
2026-01-08 23:07:11.37	97.28	31.75	-33.1	-33.9	24.9	0.00e+00	122	34	0	881852416	40	5529
2026-01-08 23:07:12.38	97.03	31.89	-33.1	-34.0	24.9	0.00e+00	120	34	0	884998144	40	5544
2026-01-08 23:07:13.38	96.78	32.04	-33.3	-34.2	24.7	0.00e+00	123	34	0	888143872	40	5663
2026-01-08 23:07:14.40	96.52	32.19	-33.2	-34.1	24.7	0.00e+00	123	34	0	891289600	40	5633
2026-01-08 23:07:15.41	96.25	32.34	-33.3	-34.2	24.7	0.00e+00	120	34	0	894435328	40	5672
2026-01-08 23:07:16.42	95.99	32.49	-33.3	-34.2	24.5	0.00e+00	123	34	0	897581056	40	5694
2026-01-08 23:07:17.43	95.73	32.64	-33.5	-34.4	24.4	0.00e+00	123	34	0	900726784	40	5813
2026-01-08 23:07:18.43	95.46	32.78	-33.6	-34.5	24.5	0.00e+00	123	34	0	903872512	40	5904
2026-01-08 23:07:19.44	95.19	32.93	-33.8	-34.7	24.4	0.00e+00	123	34	0	907018240	40	6000
2026-01-08 23:07:20.45	94.92	33.08	-33.9	-34.9	24.2	0.00e+00	122	34	0	910163968	40	6142
2026-01-08 23:07:21.46	94.64	33.23	-34.3	-35.2	24.0	0.00e+00	123	34	0	913309696	40	6397
2026-01-08 23:07:22.47	94.36	33.38	-34.5	-35.4	23.9	0.00e+00	123	34	0	916455424	40	6537
2026-01-08 23:07:23.48	94.08	33.52	-34.6	-35.5	23.8	0.00e+00	123	34	0	919601152	40	6591
2026-01-08 23:07:24.49	93.80	33.67	-34.4	-35.3	24.0	0.00e+00	122	34	0	922746880	40	6458
2026-01-08 23:07:25.50	93.51	33.82	-34.4	-35.4	23.9	0.00e+00	122	34	0	925892608	40	6499
2026-01-08 23:07:26.51	93.22	33.97	-34.4	-35.4	23.9	0.00e+00	122	34	0	929038336	40	6515
2026-01-08 23:07:27.52	92.93	34.12	-34.5	-35.4	23.9	0.00e+00	123	34	0	932184064	40	6533
2026-01-08 23:07:28.53	92.64	34.26	-34.5	-35.4	23.9	0.00e+00	120	34	0	935329792	40	6535
2026-01-08 23:07:29.54	92.34	34.41	-34.6	-35.5	23.9	0.00e+00	122	34	0	938475520	40	6598
2026-01-08 23:07:30.55	92.04	34.56	-34.3	-35.2	24.1	0.00e+00	122	34	0	941621248	40	6411
2026-01-08 23:07:31.55	91.74	34.70	-34.4	-35.3	24.0	0.00e+00	122	34	0	944766976	40	6451
2026-01-08 23:07:32.56	91.44	34.85	-34.4	-35.3	23.9	0.00e+00	120	34	0	947912704	40	6454
2026-01-08 23:07:33.57	91.13	35.00	-34.6	-35.5	23.8	0.00e+00	123	34	0	951058432	40	6624
2026-01-08 23:07:34.58	90.82	35.14	-35.0	-35.9	23.5	0.00e+00	123	34	0	954204160	42	6202
2026-01-08 23:07:35.59	90.51	35.29	-35.1	-36.1	23.4	0.00e+00	123	34	0	957349888	42	6290
2026-01-08 23:07:36.60	90.19	35.43	-35.1	-36.0	23.4	0.00e+00	120	34	0	960495616	42	6268
2026-01-08 23:07:37.61	89.87	35.58	-35.1	-36.1	23.4	0.00e+00	123	34	0	963641344	42	6290
2026-01-08 23:07:38.62	89.55	35.72	-35.2	-36.2	23.2	0.00e+00	123	34	0	966787072	42	6368
2026-01-08 23:07:39.63	89.23	35.87	-35.5	-36.5	23.1	0.00e+00	122	34	0	969932800	42	6585
2026-01-08 23:07:40.64	88.90	36.01	-35.7	-36.6	23.0	0.00e+00	123	34	0	973078528	42	6723
2026-01-08 23:07:41.65	88.57	36.16	-35.4	-36.4	23.1	0.00e+00	123	34	0	976224256	42	6567
2026-01-08 23:07:42.66	88.24	36.30	-35.3	-36.3	23.2	0.00e+00	123	34	0	979369984	42	6468
2026-01-08 23:07:43.67	87.90	36.44	-35.4	-36.3	23.2	0.00e+00	123	34	0	982515712	42	6493
2026-01-08 23:07:44.68	87.56	36.59	-35.3	-36.3	23.2	0.00e+00	122	34	0	985661440	42	6444
2026-01-08 23:07:45.69	87.22	36.73	-35.2	-36.2	23.3	0.00e+00	123	34	0	988807168	42	6396
2026-01-08 23:07:46.70	86.87	36.87	-35.2	-36.2	23.3	0.00e+00	123	34	0	991952896	42	6381
2026-01-08 23:07:47.71	86.53	37.01	-35.1	-36.0	23.4	0.00e+00	123	34	0	995098624	42	6276
2026-01-08 23:07:48.72	86.18	37.15	-35.2	-36.2	23.3	0.00e+00	122	34	0	998244352	42	6359
2026-01-08 23:07:49.72	85.82	37.29	-35.2	-36.1	23.3	0.00e+00	123	34	0	1001390080	42	6317
2026-01-08 23:07:50.73	85.47	37.43	-35.3	-36.2	23.2	0.00e+00	123	34	0	1004535808	42	6407
2026-01-08 23:07:51.74	85.11	37.56	-35.3	-36.3	23.2	0.00e+00	123	34	0	1007681536	42	6455
2026-01-08 23:07:52.75	84.74	37.70	-35.4	-36.4	23.2	0.00e+00	123	34	0	1010827264	42	6504
2026-01-08 23:07:53.76	84.38	37.84	-35.4	-36.4	23.2	0.00e+00	120	34	0	1013972992	42	6549
2026-01-08 23:07:54.77	84.01	37.97	-35.9	-36.9	23.3	0.00e+00	122	34	0	1017118720	42	6945
2026-01-08 23:07:55.78	83.64	38.11	-34.9	-35.9	23.4	0.00e+00	120	34	0	1020264448	44	5472
2026-01-08 23:07:56.79	83.26	38.24	-34.9	-35.9	23.4	0.00e+00	123	34	0	1023410176	44	5470
2026-01-08 23:07:57.80	82.88	38.37	-35.1	-36.1	23.3	0.00e+00	121	34	0	1026555904	44	5615
2026-01-08 23:07:58.81	82.50	38.51	-35.3	-36.3	23.1	0.00e+00	123	34	0	1029701632	44	5747
2026-01-08 23:07:59.82	82.11	38.64	-35.4	-36.3	23.1	0.00e+00	123	34	0	1032847360	44	5783
2026-01-08 23:08:00.83	81.73	38.77	-35.4	-36.4	23.1	0.00e+00	123	34	0	1035993088	44	5810
2026-01-08 23:08:01.84	81.34	38.90	-35.3	-36.3	23.2	0.00e+00	120	34	0	1039138816	44	5749
2026-01-08 23:08:02.85	80.94	39.02	-35.3	-36.2	23.2	0.00e+00	123	34	0	1042284544	44	5710
2026-01-08 23:08:03.86	80.54	39.15	-35.5	-36.5	23.0	0.00e+00	122	34	0	1045430272	44	5896
2026-01-08 23:08:04.87	80.14	39.28	-35.7	-36.7	22.8	0.00e+00	122	34	0	1048576000	44	6005
2026-01-08 23:08:05.88	79.74	39.40	-35.9	-36.9	22.6	0.00e+00	122	34	0	1051721728	44	6165
2026-01-08 23:08:06.89	79.33	39.53	-36.1	-37.1	22.4	0.00e+00	123	34	0	1055916032	44	6331
2026-01-08 23:08:07.90	78.92	39.65	-36.3	-37.3	22.4	0.00e+00	120	34	0	1059061760	44	6468
2026-01-08 23:08:08.91	78.51	39.77	-36.2	-37.2	22.6	0.00e+00	123	34	0	1062207488	44	6362
2026-01-08 23:08:09.91	78.10	39.89	-36.2	-37.2	22.4	0.00e+00	122	34	0	1064304640	44	6413
2026-01-08 23:08:10.93	77.67	40.01	-36.4	-37.5	22.1	0.00e+00	122	34	0	1067450368	44	6578
2026-01-08 23:08:11.94	77.25	40.12	-36.8	-37.9	21.8	0.00e+00	123	34	0	1071644672	44	6885
2026-01-08 23:08:12.95	76.83	40.24	-37.0	-38.1	21.8	0.00e+00	123	34	0	1074790400	46	6309
2026-01-08 23:08:13.95	76.40	40.35	-36.8	-37.9	22.0	0.00e+00	122	34	0	1077936128	46	6164
2026-01-08 23:08:14.96	75.97	40.46	-36.7	-37.8	22.0	0.00e+00	123	34	0	1081081856	46	6070
2026-01-08 23:08:15.97	75.54	40.58	-36.9	-38.0	21.9	0.00e+00	123	34	0	1084227584	46	6215
2026-01-08 23:08:16.98	75.10	40.69	-36.8	-37.9	21.9	0.00e+00	122	34	0	1087373312	46	6166
2026-01-08 23:08:17.99	74.66	40.79	-36.8	-37.8	22.0	0.00e+00	120	34	0	1090519040	46	6116
2026-01-08 23:08:19.00	74.22	40.90	-36.4	-37.4	22.3	0.00e+00	123	34	0	1093664768	46	5845
2026-01-08 23:08:20.01	73.77	41.00	-35.8	-36.8	22.8	0.00e+00	122	34	0	1096810496	46	5432
2026-01-08 23:08:21.02	73.32	41.11	-35.6	-36.6	22.9	0.00e+00	123	34	0	1099956224	44	5928
2026-01-08 23:08:22.03	72.87	41.21	-35.5	-36.5	23.0	0.00e+00	120	34	0	1103101952	44	5889
2026-01-08 23:08:23.04	72.42	41.31	-35.6	-36.6	22.9	0.00e+00	122	34	0	1106247680	44	5946
2026-01-08 23:08:24.05	71.96	41.41	-35.7	-36.6	22.9	0.00e+00	123	34	0	1109393408	44	5975
2026-01-08 23:08:25.06	71.50	41.50	-35.7	-36.7	22.9	0.00e+00	122	34	0	1112539136	44	6016
2026-01-08 23:08:26.07	71.04	41.60	-35.6	-36.5	23.0	0.00e+00	123	34	0	1115684864	44	5905
2026-01-08 23:08:27.08	70.57	41.69	-35.5	-36.5	23.0	0.00e+00	122	34	0	1118830592	44	5886
2026-01-08 23:08:28.09	70.10	41.78	-35.6	-36.6	22.9	0.00e+00	121	34	0	1121976320	44	5970
2026-01-08 23:08:29.09	69.64	41.87	-35.6	-36.5	23.1	0.00e+00	120	34	0	1125122048	44	5922
2026-01-08 23:08:30.10	69.16	41.95	-35.5	-36.5	23.0	0.00e+00	123	34	0	1128267776	44	5880
2026-01-08 23:08:31.11	68.69	42.04	-35.6	-36.6	22.9	0.00e+00	122	34	0	1131413504	44	5943
2026-01-08 23:08:32.12	68.21	42.12	-35.8	-36.7	22.8	0.00e+00	122	34	0	1134559232	44	6061
2026-01-08 23:08:33.13	67.73	42.20	-35.9	-36.9	22.8	0.00e+00	122	34	0	1137704960	44	6148
2026-01-08 23:08:34.14	67.25	42.28	-35.9	-36.9	22.8	0.00e+00	123	34	0	1140850688	44	6191
2026-01-08 23:08:35.15	66.76	42.35	-35.9	-36.8	22.8	0.00e+00	120	34	0	1143996416	44	6120
2026-01-08 23:08:36.16	66.27	42.43	-35.3	-36.2	23.3	0.00e+00	122	34	0	1147142144	44	5716
2026-01-08 23:08:37.17	65.78	42.50	-35.3	-36.3	23.1	0.00e+00	122	34	0	1150287872	44	5735
2026-01-08 23:08:38.18	65.29	42.57	-35.2	-36.2	23.2	0.00e+00	123	34	0	1153433600	44	5684
2026-01-08 23:08:39.19	64.80	42.64	-35.2	-36.2	23.3	0.00e+00	122	34	0	1156579328	44	5671
2026-01-08 23:08:40.20	64.30	42.70	-35.4	-36.3	23.1	0.00e+00	123	34	0	1159725056	44	5780
2026-01-08 23:08:41.21	63.80	42.76	-35.5	-36.4	23.1	0.00e+00	120	34	0	1162870784	44	5853
2026-01-08 23:08:42.22	63.30	42.82	-35.4	-36.3	23.0	0.00e+00	122	34	0	1166016512	44	5766
2026-01-08 23:08:43.23	62.80	42.88	-35.5	-36.5	22.7	0.00e+00	120	34	0	1169162240	44	5913
2026-01-08 23:08:44.24	62.30	42.94	-35.7	-36.7	22.5	0.00e+00	123	34	0	1172307968	44	6014
2026-01-08 23:08:45.25	61.79	42.99	-35.8	-36.8	22.5	0.00e+00	120	34	0	1175453696	44	6083
2026-01-08 23:08:46.26	61.29	43.04	-36.3	-37.3	22.1	0.00e+00	123	34	0	1178599424	44	6485
2026-01-08 23:08:47.27	60.78	43.09	-36.5	-37.6	22.0	0.00e+00	123	34	0	1181745152	44	6670
2026-01-08 23:08:48.28	60.27	43.13	-36.6	-37.7	22.0	0.00e+00	122	34	0	1184890880	44	6781
2026-01-08 23:08:49.29	59.76	43.18	-37.0	-38.1	21.7	0.00e+00	120	34	0	1188036608	46	6289
2026-01-08 23:08:50.30	59.25	43.22	-36.9	-38.0	21.9	0.00e+00	122	34	0	1191182336	46	6240
2026-01-08 23:08:51.30	58.74	43.25	-36.8	-37.8	22.0	0.00e+00	120	34	0	1194328064	46	6108
2026-01-08 23:08:52.31	58.22	43.29	-36.9	-38.0	22.0	0.00e+00	123	34	0	1197473792	46	6206
2026-01-08 23:08:53.33	57.70	43.32	-36.3	-37.3	22.4	0.00e+00	123	34	0	1200619520	46	5770
2026-01-08 23:08:54.34	57.18	43.35	-36.1	-37.0	22.7	0.00e+00	123	34	0	1203765248	46	5593
2026-01-08 23:08:55.34	56.67	43.38	-36.1	-37.0	22.7	0.00e+00	123	34	0	1206910976	46	5592
2026-01-08 23:08:56.35	56.15	43.40	-35.7	-36.6	22.9	0.00e+00	122	34	0	1210056704	44	5978
2026-01-08 23:08:57.36	55.63	43.43	-35.6	-36.6	22.9	0.00e+00	123	34	0	1213202432	44	5948
2026-01-08 23:08:58.37	55.11	43.45	-36.0	-36.9	22.7	0.00e+00	120	34	0	1216348160	44	6197
2026-01-08 23:08:59.38	54.59	43.46	-35.9	-36.8	22.8	0.00e+00	123	34	0	1219493888	44	6130
2026-01-08 23:09:00.39	54.07	43.48	-35.9	-36.9	22.7	0.00e+00	124	34	0	1222639616	44	6140
2026-01-08 23:09:01.40	53.55	43.49	-35.9	-36.9	22.7	0.00e+00	123	34	0	1225785344	44	6165
2026-01-08 23:09:02.41	53.03	43.50	-35.9	-36.9	22.6	0.00e+00	122	34	0	1228931072	44	6168
2026-01-08 23:09:03.42	52.50	43.51	-35.9	-36.9	22.6	0.00e+00	123	34	0	1232076800	44	6158
2026-01-08 23:09:04.43	51.98	43.51	-35.7	-36.6	22.9	0.00e+00	123	34	0	1235222528	44	5991
2026-01-08 23:09:05.44	51.46	43.51	-35.5	-36.5	23.1	0.00e+00	122	34	0	1238368256	44	5884
2026-01-08 23:09:06.45	50.94	43.51	-35.6	-36.5	23.0	0.00e+00	123	34	0	1241513984	44	5898
2026-01-08 23:09:07.46	50.41	43.50	-35.8	-36.8	22.9	0.00e+00	122	34	0	1244659712	44	6071
2026-01-08 23:09:08.47	49.89	43.50	-36.0	-37.0	22.7	0.00e+00	120	34	0	1247805440	44	6225
2026-01-08 23:09:09.47	49.37	43.49	-36.1	-37.1	22.6	0.00e+00	122	34	0	1250951168	44	6332
2026-01-08 23:09:10.48	48.85	43.48	-36.1	-37.1	22.6	0.00e+00	123	34	0	1254096896	44	6319
2026-01-08 23:09:11.49	48.33	43.46	-36.0	-37.0	22.5	0.00e+00	120	34	0	1257242624	44	6249
2026-01-08 23:09:12.50	47.81	43.44	-36.6	-37.6	22.1	0.00e+00	123	34	0	1260388352	44	6682
2026-01-08 23:09:13.51	47.29	43.42	-36.4	-37.4	22.2	0.00e+00	123	34	0	1263534080	44	6542
2026-01-08 23:09:14.52	46.77	43.40	-36.9	-37.9	21.9	0.00e+00	122	34	0	1266679808	46	6193
2026-01-08 23:09:15.53	46.25	43.37	-37.1	-38.2	21.7	0.00e+00	122	34	0	1269825536	46	6374
2026-01-08 23:09:16.54	45.74	43.35	-37.5	-38.6	21.3	0.00e+00	123	34	0	1272971264	46	6694
2026-01-08 23:09:17.55	45.22	43.32	-38.0	-39.2	20.8	0.00e+00	120	34	0	1276116992	48	6374
2026-01-08 23:09:18.56	44.70	43.28	-38.1	-39.3	20.5	0.00e+00	123	34	0	1279262720	48	6433
2026-01-08 23:09:19.57	44.19	43.25	-38.4	-39.6	20.3	0.00e+00	122	34	0	1282408448	48	6686
2026-01-08 23:09:20.58	43.68	43.21	-37.9	-39.1	20.9	0.00e+00	120	34	0	1285554176	48	6291
2026-01-08 23:09:21.59	43.16	43.17	-37.4	-38.5	21.3	0.00e+00	123	34	0	1288699904	48	5914
2026-01-08 23:09:22.60	42.65	43.12	-36.3	-37.3	22.3	0.00e+00	123	34	0	1291845632	46	5742
2026-01-08 23:09:23.61	42.14	43.08	-35.6	-36.6	22.7	0.00e+00	122	34	0	1294991360	44	5959
2026-01-08 23:09:24.62	41.64	43.03	-35.6	-36.6	22.7	0.00e+00	120	34	0	1298137088	44	5951
2026-01-08 23:09:25.63	41.13	42.98	-35.8	-36.8	22.6	0.00e+00	122	34	0	1301282816	44	6130
2026-01-08 23:09:26.64	40.63	42.92	-36.2	-37.2	22.4	0.00e+00	120	34	0	1304428544	44	6364
2026-01-08 23:09:27.65	40.12	42.87	-36.5	-37.5	22.2	0.00e+00	122	34	0	1307574272	44	6618
2026-01-08 23:09:28.66	39.62	42.81	-36.7	-37.7	22.1	0.00e+00	123	34	0	1310720000	44	6766
2026-01-08 23:09:29.67	39.12	42.75	-36.8	-37.9	21.7	0.00e+00	123	34	0	1313865728	46	6172
2026-01-08 23:09:30.68	38.63	42.69	-36.6	-37.7	21.8	0.00e+00	122	34	0	1317011456	46	6041
2026-01-08 23:09:31.69	38.13	42.62	-36.4	-37.5	21.9	0.00e+00	123	34	0	1320157184	46	5890
2026-01-08 23:09:32.70	37.64	42.56	-36.4	-37.5	22.1	0.00e+00	122	34	0	1323302912	46	5861
2026-01-08 23:09:33.71	37.15	42.49	-35.9	-36.8	22.8	0.00e+00	120	34	0	1326448640	46	5465
2026-01-08 23:09:34.72	36.66	42.41	-35.5	-36.4	23.2	0.00e+00	122	34	0	1329594368	44	5857
2026-01-08 23:09:35.72	36.18	42.34	-35.6	-36.6	23.0	0.00e+00	122	34	0	1332740096	44	5957
2026-01-08 23:09:36.73	35.69	42.26	-36.1	-37.1	22.6	0.00e+00	122	34	0	1335885824	44	6309
2026-01-08 23:09:37.74	35.21	42.19	-36.2	-37.2	22.6	0.00e+00	123	34	0	1339031552	44	6405
2026-01-08 23:09:38.75	34.73	42.11	-35.8	-36.8	22.7	0.00e+00	123	34	0	1342177280	44	6065
2026-01-08 23:09:39.76	34.26	42.02	-35.7	-36.7	22.6	0.00e+00	122	34	0	1345323008	44	6017
2026-01-08 23:09:40.77	33.78	41.94	-35.7	-36.7	22.5	0.00e+00	122	34	0	1348468736	44	6036
2026-01-08 23:09:41.78	33.31	41.85	-36.4	-37.4	22.2	0.00e+00	123	34	0	1351614464	44	6567
2026-01-08 23:09:42.79	32.84	41.76	-36.9	-38.0	21.8	0.00e+00	122	34	0	1354760192	46	6222
2026-01-08 23:09:43.80	32.37	41.67	-36.7	-37.7	22.1	0.00e+00	120	34	0	1357905920	46	6012
2026-01-08 23:09:44.80	31.91	41.58	-36.5	-37.5	22.1	0.00e+00	123	34	0	1361051648	46	5919
2026-01-08 23:09:45.81	31.45	41.49	-36.5	-37.5	22.2	0.00e+00	123	34	0	1364197376	46	5895
2026-01-08 23:09:46.83	30.99	41.39	-36.3	-37.3	22.5	0.00e+00	122	34	0	1367343104	46	5738
2026-01-08 23:09:47.83	30.54	41.29	-36.4	-37.5	22.2	0.00e+00	123	34	0	1370488832	46	5875
2026-01-08 23:09:48.84	30.08	41.19	-36.7	-37.8	22.0	0.00e+00	123	34	0	1373634560	46	6072
2026-01-08 23:09:49.85	29.63	41.09	-36.8	-37.8	22.1	0.00e+00	123	34	0	1376780288	46	6131
2026-01-08 23:09:50.86	29.19	40.99	-36.3	-37.3	22.4	0.00e+00	122	34	0	1379926016	46	5769
2026-01-08 23:09:51.86	28.75	40.88	-36.4	-37.4	22.3	0.00e+00	122	34	0	1383071744	46	5816
2026-01-08 23:09:52.87	28.30	40.78	-35.4	-36.4	23.0	0.00e+00	123	34	0	1386217472	44	5796
2026-01-08 23:09:53.88	27.87	40.67	-35.1	-36.1	23.3	0.00e+00	122	34	0	1389363200	44	5603
2026-01-08 23:09:54.89	27.43	40.56	-35.3	-36.3	23.0	0.00e+00	123	34	0	1392508928	44	5758
2026-01-08 23:09:55.90	27.00	40.45	-36.1	-37.0	22.6	0.00e+00	123	34	0	1395654656	44	6274
2026-01-08 23:09:56.91	26.57	40.34	-36.9	-37.9	21.9	0.00e+00	122	34	0	1398800384	46	6173
2026-01-08 23:09:57.92	26.14	40.22	-37.4	-38.5	21.2	0.00e+00	123	34	0	1401946112	46	6626
2026-01-08 23:09:58.93	25.72	40.11	-37.0	-38.1	21.3	0.00e+00	122	34	0	1405091840	46	6279
2026-01-08 23:09:59.94	25.30	39.99	-35.8	-36.8	22.2	0.00e+00	123	34	0	1408237568	46	5438
2026-01-08 23:10:00.95	24.88	39.87	-35.2	-36.2	22.7	0.00e+00	123	34	0	1411383296	44	5692
2026-01-08 23:10:01.96	24.46	39.75	-35.1	-36.0	23.2	0.00e+00	123	34	0	1414529024	44	5554
2026-01-08 23:10:02.97	24.05	39.63	-34.3	-35.1	24.2	0.00e+00	122	34	0	1417674752	42	5650
2026-01-08 23:10:03.98	23.65	39.51	-34.5	-35.4	23.8	0.00e+00	123	34	0	1420820480	42	5856
2026-01-08 23:10:04.98	23.24	39.39	-35.5	-36.4	23.1	0.00e+00	122	34	0	1425014784	42	6568
2026-01-08 23:10:05.99	22.84	39.26	-36.4	-37.4	22.3	0.00e+00	122	34	0	1427111936	44	6550
2026-01-08 23:10:07.00	22.44	39.14	-36.2	-37.2	22.5	0.00e+00	123	34	0	1430257664	44	6361
2026-01-08 23:10:08.02	22.04	39.01	-35.8	-36.8	22.9	0.00e+00	123	34	0	1433403392	44	6103
2026-01-08 23:10:09.03	21.65	38.88	-35.7	-36.7	22.9	0.00e+00	122	34	0	1436549120	44	6019
2026-01-08 23:10:10.04	21.26	38.75	-35.8	-36.7	22.9	0.00e+00	122	34	0	1440743424	44	6061
2026-01-08 23:10:11.05	20.87	38.62	-35.6	-36.6	22.7	0.00e+00	123	34	0	1443889152	44	5946
2026-01-08 23:10:12.06	20.49	38.49	-36.1	-37.1	22.1	0.00e+00	123	34	0	1447034880	44	6336
2026-01-08 23:10:13.07	20.11	38.36	-36.7	-37.8	21.9	0.00e+00	123	34	0	1450180608	44	6824
2026-01-08 23:10:14.08	19.73	38.23	-36.3	-37.3	22.4	0.00e+00	123	34	0	1452277760	46	5778
2026-01-08 23:10:15.09	19.36	38.09	-35.3	-36.3	22.9	0.00e+00	122	34	0	1456472064	44	5788
2026-01-08 23:10:16.09	18.99	37.96	-34.8	-35.8	23.5	0.00e+00	123	34	0	1459617792	44	5421
2026-01-08 23:10:17.10	18.62	37.82	-34.3	-35.2	24.3	0.00e+00	122	34	0	1462763520	42	5674
2026-01-08 23:10:18.11	18.26	37.69	-33.6	-34.5	24.6	0.00e+00	123	34	0	1465909248	40	5895
2026-01-08 23:10:19.12	17.90	37.55	-33.8	-34.7	24.1	0.00e+00	123	34	0	1469054976	40	6034
2026-01-08 23:10:20.13	17.54	37.41	-34.8	-35.7	23.3	0.00e+00	120	34	0	1472200704	40	6778
2026-01-08 23:10:21.14	17.18	37.28	-35.8	-36.9	22.4	0.00e+00	120	34	0	1475346432	44	6139
2026-01-08 23:10:22.15	16.83	37.14	-36.4	-37.5	22.0	0.00e+00	122	34	0	1478492160	44	6631
2026-01-08 23:10:23.16	16.48	37.00	-36.2	-37.3	22.2	0.00e+00	120	34	0	1481637888	44	6463
2026-01-08 23:10:24.17	16.13	36.86	-35.5	-36.5	22.7	0.00e+00	123	34	0	1484783616	44	5920
2026-01-08 23:10:25.18	15.79	36.72	-35.2	-36.1	23.2	0.00e+00	122	34	0	1487929344	44	5647
2026-01-08 23:10:26.19	15.45	36.57	-33.8	-34.7	24.6	0.00e+00	123	34	0	1491075072	42	5354
2026-01-08 23:10:27.20	15.11	36.43	-33.5	-34.4	24.7	0.00e+00	122	34	0	1494220800	40	5816
2026-01-08 23:10:28.21	14.78	36.29	-34.1	-34.9	24.3	0.00e+00	123	34	0	1497366528	40	6187
2026-01-08 23:10:29.22	14.45	36.15	-34.5	-35.4	24.0	0.00e+00	123	34	0	1500512256	40	6527
2026-01-08 23:10:30.23	14.12	36.00	-35.2	-36.1	23.4	0.00e+00	122	34	0	1503657984	42	6345
2026-01-08 23:10:31.24	13.79	35.86	-35.4	-36.4	23.1	0.00e+00	123	34	0	1506803712	42	6553
2026-01-08 23:10:32.25	13.47	35.72	-35.0	-36.0	23.2	0.00e+00	120	34	0	1509949440	42	6246
2026-01-08 23:10:33.26	13.15	35.57	-34.7	-35.7	23.3	0.00e+00	123	34	0	1513095168	42	6025
2026-01-08 23:10:34.27	12.83	35.43	-34.7	-35.6	23.3	0.00e+00	123	34	0	1516240896	42	5965
2026-01-08 23:10:35.28	12.52	35.28	-34.6	-35.5	23.5	0.00e+00	122	34	0	1519386624	42	5898
2026-01-08 23:10:36.29	12.20	35.14	-34.6	-35.5	23.7	0.00e+00	120	34	0	1522532352	42	5906
2026-01-08 23:10:37.30	11.90	34.99	-35.0	-35.9	23.5	0.00e+00	123	34	0	1525678080	42	6195
2026-01-08 23:10:38.31	11.59	34.84	-35.5	-36.4	23.2	0.00e+00	122	34	0	1528823808	42	6561
2026-01-08 23:10:39.32	11.29	34.70	-35.6	-36.5	23.1	0.00e+00	123	34	0	1531969536	42	6643
2026-01-08 23:10:40.33	10.99	34.55	-35.6	-36.6	22.9	0.00e+00	127	34	0	1535115264	42	6718
2026-01-08 23:10:41.34	10.69	34.40	-35.2	-36.1	23.2	0.00e+00	123	34	0	1538260992	42	6344
2026-01-08 23:10:42.35	10.39	34.26	-34.9	-35.8	23.6	0.00e+00	123	34	0	1541406720	42	6107
2026-01-08 23:10:43.36	10.10	34.11	-34.3	-35.2	24.1	0.00e+00	120	34	0	1544552448	42	5682
2026-01-08 23:10:44.37	9.81	33.96	-34.0	-34.9	24.4	0.00e+00	122	34	0	1547698176	42	5472
2026-01-08 23:10:45.38	9.52	33.82	-34.5	-35.4	24.1	0.00e+00	123	34	0	1550843904	42	5814
2026-01-08 23:10:46.39	9.24	33.67	-34.7	-35.6	23.7	0.00e+00	120	34	0	1553989632	42	5981
2026-01-08 23:10:47.39	8.96	33.52	-35.1	-36.0	23.4	0.00e+00	123	34	0	1557135360	42	6266
2026-01-08 23:10:48.40	8.68	33.37	-35.1	-36.0	23.4	0.00e+00	123	34	0	1560281088	42	6270
2026-01-08 23:10:49.41	8.40	33.23	-35.0	-36.0	23.4	0.00e+00	121	34	0	1563426816	42	6215
2026-01-08 23:10:50.42	8.13	33.08	-35.0	-35.9	23.5	0.00e+00	120	34	0	1566572544	42	6193
2026-01-08 23:10:51.43	7.86	32.93	-34.6	-35.5	24.0	0.00e+00	123	34	0	1569718272	42	5905
2026-01-08 23:10:52.44	7.59	32.78	-34.0	-34.9	24.3	0.00e+00	123	34	0	1572864000	42	5515
2026-01-08 23:10:53.44	7.32	32.64	-34.1	-35.0	24.3	0.00e+00	123	34	0	1576009728	42	5563
2026-01-08 23:10:54.45	7.06	32.49	-34.1	-35.0	24.3	0.00e+00	122	34	0	1579155456	42	5553
2026-01-08 23:10:55.46	6.80	32.34	-34.2	-35.1	24.2	0.00e+00	122	34	0	1582301184	42	5634
2026-01-08 23:10:56.47	6.54	32.19	-34.2	-35.1	24.2	0.00e+00	123	34	0	1585446912	42	5640
2026-01-08 23:10:57.48	6.28	32.05	-34.2	-35.1	24.2	0.00e+00	123	34	0	1588592640	42	5639
2026-01-08 23:10:58.48	6.03	31.90	-34.4	-35.3	24.0	0.00e+00	123	34	0	1591738368	42	5756
2026-01-08 23:10:59.50	5.77	31.75	-34.6	-35.6	23.7	0.00e+00	120	34	0	1594884096	42	5934
2026-01-08 23:11:00.50	5.53	31.61	-34.4	-35.4	23.8	0.00e+00	122	34	0	1598029824	42	5809
2026-01-08 23:11:01.51	5.28	31.46	-34.5	-35.5	23.7	0.00e+00	120	34	0	1601175552	42	5900
2026-01-08 23:11:02.52	5.03	31.31	-33.9	-34.8	24.2	0.00e+00	123	34	0	1604321280	42	5441
2026-01-08 23:11:03.53	4.79	31.16	-33.3	-34.1	24.7	0.00e+00	123	34	0	1607467008	40	5656
2026-01-08 23:11:04.54	4.55	31.02	-33.3	-34.1	24.9	0.00e+00	122	34	0	1610612736	40	5656
2026-01-08 23:11:05.55	4.31	30.87	-33.5	-34.4	24.6	0.00e+00	122	34	0	1613758464	40	5826
2026-01-08 23:11:06.56	4.07	30.72	-34.0	-34.9	24.2	0.00e+00	123	34	0	1616904192	40	6154
2026-01-08 23:11:07.57	3.84	30.58	-34.3	-35.3	23.9	0.00e+00	122	34	0	1620049920	40	6431
2026-01-08 23:11:08.58	3.60	30.43	-34.4	-35.4	23.9	0.00e+00	123	34	0	1623195648	40	6529
2026-01-08 23:11:09.59	3.37	30.29	-34.4	-35.4	23.9	0.00e+00	123	34	0	1626341376	40	6510
2026-01-08 23:11:10.60	3.15	30.14	-34.2	-35.1	24.1	0.00e+00	123	34	0	1629487104	40	6336
2026-01-08 23:11:11.61	2.92	30.00	-33.9	-34.8	24.4	0.00e+00	123	34	0	1632632832	40	6105
2026-01-08 23:11:12.62	2.70	29.85	-33.5	-34.4	24.7	0.00e+00	123	34	0	1635778560	40	5800
2026-01-08 23:11:13.62	2.48	29.71	-33.1	-34.0	24.9	0.00e+00	122	34	0	1638924288	40	5550
2026-01-08 23:11:14.63	2.26	29.56	-33.1	-34.0	24.9	0.00e+00	122	34	0	1642070016	40	5534
2026-01-08 23:11:15.64	2.04	29.42	-32.6	-33.4	25.4	0.00e+00	123	34	0	1645215744	38	5855
2026-01-08 23:11:16.65	1.82	29.27	-32.6	-33.5	25.2	0.00e+00	123	34	0	1648361472	38	5875
2026-01-08 23:11:17.66	1.61	29.13	-32.7	-33.6	25.2	0.00e+00	122	34	0	1651507200	38	5961
2026-01-08 23:11:18.67	1.40	28.99	-33.0	-33.8	25.1	0.00e+00	122	34	0	1654652928	38	6133
2026-01-08 23:11:19.68	1.19	28.84	-33.3	-34.1	24.9	0.00e+00	121	34	0	1657798656	38	6327
2026-01-08 23:11:20.69	0.98	28.70	-33.4	-34.3	24.7	0.00e+00	122	34	0	1660944384	38	6479
2026-01-08 23:11:21.70	0.77	28.56	-33.5	-34.4	24.6	0.00e+00	122	34	0	1664090112	38	6515
2026-01-08 23:11:22.71	0.57	28.42	-33.5	-34.4	24.6	0.00e+00	123	34	0	1667235840	38	6570
2026-01-08 23:11:23.72	0.36	28.27	-33.5	-34.4	24.6	0.00e+00	123	34	0	1670381568	38	6522
2026-01-08 23:11:24.73	0.16	28.13	-33.5	-34.5	24.6	0.00e+00	123	34	0	1673527296	38	6579
2026-01-08 23:11:25.74	359.96	27.99	-33.3	-34.1	24.7	0.00e+00	123	34	0	1676673024	38	6339
2026-01-08 23:11:26.75	359.77	27.85	-33.5	-34.4	24.6	0.00e+00	123	34	0	1679818752	38	6520
2026-01-08 23:11:27.76	359.57	27.71	-33.0	-33.9	24.9	0.00e+00	123	34	0	1682964480	38	6172
2026-01-08 23:11:28.77	359.38	27.57	-33.3	-34.2	24.7	0.00e+00	122	34	0	1686110208	38	6372
2026-01-08 23:11:29.78	359.18	27.43	-33.4	-34.3	24.6	0.00e+00	123	34	0	1689255936	38	6451
2026-01-08 23:11:30.79	358.99	27.29	-33.5	-34.4	24.6	0.00e+00	123	34	0	1692401664	38	6567
2026-01-08 23:11:31.80	358.80	27.15	-33.6	-34.5	24.5	0.00e+00	122	35	0	1695547392	38	6640
2026-01-08 23:11:32.81	358.62	27.01	-33.7	-34.6	24.5	0.00e+00	120	34	0	1698693120	40	5983
2026-01-08 23:11:33.82	358.43	26.87	-33.6	-34.5	24.5	0.00e+00	123	34	0	1701838848	40	5924
2026-01-08 23:11:34.83	358.25	26.73	-33.8	-34.7	24.4	0.00e+00	123	34	0	1704984576	40	6010
2026-01-08 23:11:35.83	358.07	26.60	-33.3	-34.2	24.7	0.00e+00	123	34	0	1708130304	40	5706
2026-01-08 23:11:36.84	357.89	26.46	-33.3	-34.2	24.6	0.00e+00	120	35	0	1711276032	40	5684
2026-01-08 23:11:37.85	357.71	26.32	-32.9	-33.7	25.0	0.00e+00	123	35	0	1714421760	40	5398
2026-01-08 23:11:38.86	357.53	26.19	-32.9	-33.8	25.1	0.00e+00	122	34	0	1717567488	40	5446
2026-01-08 23:11:39.87	357.35	26.05	-32.8	-33.7	25.2	0.00e+00	120	34	0	1720713216	40	5349
2026-01-08 23:11:40.88	357.18	25.91	-32.5	-33.4	25.3	0.00e+00	122	34	0	1723858944	38	5819
2026-01-08 23:11:41.89	357.01	25.78	-32.5	-33.4	25.3	0.00e+00	122	34	0	1727004672	38	5821
2026-01-08 23:11:42.90	356.83	25.64	-32.6	-33.5	25.3	0.00e+00	122	34	0	1730150400	38	5869
2026-01-08 23:11:43.91	356.66	25.51	-32.6	-33.5	25.2	0.00e+00	122	34	0	1733296128	38	5868
2026-01-08 23:11:44.92	356.50	25.37	-32.7	-33.6	25.1	0.00e+00	123	34	0	1736441856	38	5939
2026-01-08 23:11:45.93	356.33	25.24	-32.8	-33.6	25.1	0.00e+00	122	34	0	1739587584	38	5986
2026-01-08 23:11:46.94	356.16	25.11	-32.7	-33.6	25.1	0.00e+00	123	35	0	1742733312	38	5971
2026-01-08 23:11:47.95	356.00	24.97	-32.7	-33.6	25.1	0.00e+00	123	35	0	1745879040	38	5981
2026-01-08 23:11:48.96	355.84	24.84	-32.8	-33.7	25.0	0.00e+00	122	34	0	1749024768	38	6001
2026-01-08 23:11:49.97	355.68	24.71	-32.7	-33.6	24.9	0.00e+00	123	34	0	1752170496	38	5953
2026-01-08 23:11:50.98	355.52	24.58	-32.9	-33.8	24.7	0.00e+00	122	35	0	1755316224	38	6069
2026-01-08 23:11:51.99	355.36	24.45	-32.8	-33.6	24.9	0.00e+00	123	34	0	1758461952	38	5993
2026-01-08 23:11:52.99	355.20	24.32	-32.7	-33.6	25.0	0.00e+00	122	34	0	1761607680	38	5937
2026-01-08 23:11:54.00	355.05	24.19	-32.8	-33.7	24.9	0.00e+00	123	34	0	1764753408	38	6012
2026-01-08 23:11:55.01	354.89	24.06	-32.9	-33.8	24.8	0.00e+00	123	34	0	1767899136	38	6076
2026-01-08 23:11:56.02	354.74	23.93	-33.0	-33.9	24.9	0.00e+00	120	34	0	1771044864	38	6178
2026-01-08 23:11:57.03	354.59	23.80	-33.2	-34.1	24.8	0.00e+00	122	34	0	1774190592	38	6283
2026-01-08 23:11:58.04	354.43	23.67	-33.3	-34.2	24.8	0.00e+00	122	34	0	1777336320	38	6354
2026-01-08 23:11:59.05	354.28	23.54	-33.4	-34.3	24.7	0.00e+00	122	34	0	1780482048	38	6448
2026-01-08 23:12:00.06	354.14	23.41	-33.4	-34.4	24.6	0.00e+00	122	34	0	1783627776	38	6505
2026-01-08 23:12:01.07	353.99	23.28	-33.5	-34.4	24.5	0.00e+00	123	34	0	1786773504	38	6563
2026-01-08 23:12:02.08	353.84	23.16	-33.3	-34.2	24.7	0.00e+00	123	34	0	1789919232	38	6402
2026-01-08 23:12:03.09	353.70	23.03	-33.3	-34.2	24.7	0.00e+00	123	34	0	1793064960	38	6376
2026-01-08 23:12:04.10	353.56	22.90	-33.2	-34.1	24.7	0.00e+00	123	34	0	1796210688	38	6332
2026-01-08 23:12:05.11	353.41	22.78	-33.0	-33.9	25.0	0.00e+00	122	34	0	1799356416	38	6179
2026-01-08 23:12:06.12	353.27	22.65	-33.0	-33.9	24.9	0.00e+00	122	34	0	1802502144	38	6160
2026-01-08 23:12:07.13	353.13	22.53	-33.0	-33.9	25.0	0.00e+00	123	34	0	1805647872	38	6165
2026-01-08 23:12:08.13	352.99	22.40	-32.8	-33.7	25.2	0.00e+00	123	34	0	1809842176	38	6010
2026-01-08 23:12:09.14	352.86	22.28	-32.8	-33.7	25.1	0.00e+00	122	35	0	1812987904	38	5996
2026-01-08 23:12:10.15	352.72	22.16	-32.7	-33.6	25.2	0.00e+00	122	34	0	1815085056	38	5956
2026-01-08 23:12:11.16	352.59	22.03	-32.8	-33.6	25.2	0.00e+00	122	34	0	1818230784	38	5974
2026-01-08 23:12:12.16	352.45	21.91	-32.7	-33.6	25.2	0.00e+00	123	34	0	1821376512	38	5947
2026-01-08 23:12:13.17	352.32	21.79	-32.8	-33.6	25.2	0.00e+00	123	34	0	1824522240	38	5987
2026-01-08 23:12:14.18	352.19	21.67	-32.8	-33.6	25.2	0.00e+00	123	35	0	1828716544	38	5980
2026-01-08 23:12:15.19	352.06	21.54	-32.9	-33.7	25.1	0.00e+00	122	34	0	1831862272	38	6057
2026-01-08 23:12:16.20	351.93	21.42	-33.0	-33.9	25.0	0.00e+00	123	35	0	1835008000	38	6160
2026-01-08 23:12:17.21	351.80	21.30	-33.0	-33.9	25.0	0.00e+00	123	34	0	1837105152	38	6180
2026-01-08 23:12:18.22	351.67	21.18	-33.1	-34.0	24.9	0.00e+00	122	34	0	1840250880	38	6255
2026-01-08 23:12:19.23	351.54	21.06	-33.0	-33.9	24.8	0.00e+00	123	34	0	1844445184	38	6189
2026-01-08 23:12:20.24	351.42	20.94	-33.1	-34.0	24.9	0.00e+00	123	34	0	1847590912	38	6236
2026-01-08 23:12:21.25	351.29	20.82	-33.2	-34.1	24.8	0.00e+00	123	34	0	1850736640	38	6297
2026-01-08 23:12:22.26	351.17	20.70	-33.3	-34.2	24.6	0.00e+00	123	34	0	1853882368	38	6387
2026-01-08 23:12:23.27	351.04	20.59	-33.1	-34.0	24.7	0.00e+00	122	34	0	1857028096	38	6220
2026-01-08 23:12:24.28	350.92	20.47	-33.2	-34.1	24.6	0.00e+00	120	34	0	1860173824	38	6309
2026-01-08 23:12:25.29	350.80	20.35	-33.0	-33.9	24.8	0.00e+00	122	34	0	1863319552	38	6175
2026-01-08 23:12:26.30	350.68	20.23	-33.0	-33.9	24.8	0.00e+00	120	34	0	1866465280	38	6140
2026-01-08 23:12:27.31	350.56	20.12	-32.7	-33.6	24.9	0.00e+00	123	34	0	1869611008	38	5981
2026-01-08 23:12:28.32	350.44	20.00	-32.7	-33.6	25.0	0.00e+00	123	34	0	1872756736	38	5942
2026-01-08 23:12:29.33	350.33	19.88	-32.6	-33.5	25.1	0.00e+00	123	34	0	1875902464	38	5888
2026-01-08 23:12:30.33	350.21	19.77	-32.5	-33.4	25.3	0.00e+00	123	34	0	1879048192	38	5807
2026-01-08 23:12:31.34	350.10	19.65	-32.6	-33.5	25.1	0.00e+00	122	35	0	1882193920	38	5893
2026-01-08 23:12:32.35	349.98	19.54	-32.6	-33.5	25.2	0.00e+00	123	34	0	1885339648	38	5879
2026-01-08 23:12:33.36	349.87	19.43	-32.8	-33.6	25.2	0.00e+00	123	34	0	1888485376	38	5974
2026-01-08 23:12:34.37	349.75	19.31	-32.8	-33.7	25.1	0.00e+00	123	34	0	1891631104	38	5999
2026-01-08 23:12:35.38	349.64	19.20	-32.9	-33.8	24.9	0.00e+00	122	34	0	1894776832	38	6107
2026-01-08 23:12:36.39	349.53	19.09	-33.1	-34.0	24.8	0.00e+00	123	34	0	1897922560	38	6227
2026-01-08 23:12:37.40	349.42	18.97	-33.2	-34.1	24.8	0.00e+00	122	34	0	1901068288	38	6281
2026-01-08 23:12:38.41	349.31	18.86	-33.3	-34.2	24.6	0.00e+00	122	34	0	1904214016	38	6408
2026-01-08 23:12:39.42	349.20	18.75	-33.4	-34.3	24.6	0.00e+00	122	34	0	1907359744	38	6426
2026-01-08 23:12:40.43	349.09	18.64	-33.5	-34.4	24.6	0.00e+00	123	34	0	1910505472	38	6524
2026-01-08 23:12:41.44	348.99	18.53	-33.6	-34.5	24.4	0.00e+00	122	34	0	1913651200	38	6614
2026-01-08 23:12:42.45	348.88	18.42	-33.6	-34.5	24.4	0.00e+00	123	34	0	1916796928	38	6597
2026-01-08 23:12:43.46	348.78	18.30	-33.7	-34.6	24.4	0.00e+00	123	35	0	1919942656	38	6677
2026-01-08 23:12:44.47	348.67	18.19	-33.5	-34.4	24.5	0.00e+00	121	35	0	1923088384	38	6546
2026-01-08 23:12:45.48	348.57	18.09	-33.6	-34.5	24.4	0.00e+00	122	34	0	1926234112	38	6600
2026-01-08 23:12:46.49	348.46	17.98	-33.5	-34.4	24.3	0.00e+00	122	34	0	1929379840	38	6546
2026-01-08 23:12:47.50	348.36	17.87	-33.6	-34.4	24.4	0.00e+00	123	34	0	1932525568	38	6565
2026-01-08 23:12:48.51	348.26	17.76	-33.6	-34.4	24.4	0.00e+00	123	34	0	1935671296	38	6567
2026-01-08 23:12:49.52	348.16	17.65	-33.4	-34.3	24.5	0.00e+00	122	34	0	1938817024	38	6489
2026-01-08 23:12:50.53	348.06	17.54	-33.6	-34.5	24.4	0.00e+00	123	34	0	1941962752	38	6622
2026-01-08 23:12:51.54	347.96	17.44	-33.4	-34.3	24.6	0.00e+00	122	34	0	1945108480	38	6456
2026-01-08 23:12:52.55	347.86	17.33	-33.3	-34.2	24.7	0.00e+00	122	34	0	1948254208	38	6375
2026-01-08 23:12:53.56	347.76	17.22	-33.4	-34.3	24.6	0.00e+00	123	35	0	1951399936	38	6430
2026-01-08 23:12:54.57	347.67	17.12	-33.5	-34.4	24.5	0.00e+00	122	34	0	1954545664	38	6500
2026-01-08 23:12:55.58	347.57	17.01	-33.4	-34.3	24.5	0.00e+00	123	34	0	1957691392	38	6483
2026-01-08 23:12:56.59	347.47	16.91	-33.6	-34.4	24.3	0.00e+00	121	34	0	1960837120	38	6570
2026-01-08 23:12:57.60	347.38	16.80	-33.7	-34.6	24.4	0.00e+00	122	34	0	1963982848	38	6657
2026-01-08 23:12:58.61	347.28	16.70	-33.8	-34.7	24.1	0.00e+00	123	34	0	1967128576	40	6022
