passes_logs/2026/01/08/R4.6S_Anadyr/R4.6S_Anadyr__20260108_000226_TY-42_rec.log

#Pass ID: 20260108_000226_TY-42
#Satellite: TY-42
#Configuration: TY-42_900M
#almurnet v.1.7.20251203
#Start time: 2026-01-08 00:02:58

#Version: 2.2.20231116
#Station: R4.6S_Anadyr
#Location: 177.4865 lon 64.73178 lat
#TLE: 1 64048U 25103A   26005.68684028  .00008011  00000-0  38191-3 0 09993
#TLE: 2 64048 097.4106 081.2795 0001725 092.4682 306.5290 15.19173644 35407

#Time	Az	El	Level	Level2	SNR	BER	BlckErr	Temp	State	Recorded	gain1	gain2
2026-01-08 00:02:58.45	16.40	2.10	-49.5	-62.0	3.4	1.52e+00	0	36	0	0	60	44272
2026-01-08 00:02:59.45	16.38	2.17	-48.2	-50.7	6.1	0.00e+00	0	37	104	0	60	41970
2026-01-08 00:03:00.46	16.35	2.24	-48.3	-50.7	6.1	0.00e+00	0	37	104	0	60	42142
2026-01-08 00:03:01.47	16.33	2.31	-48.3	-50.7	6.1	0.00e+00	0	37	104	0	60	42054
2026-01-08 00:03:02.48	16.31	2.38	-48.2	-50.7	6.1	0.00e+00	0	37	104	0	60	42119
2026-01-08 00:03:03.49	16.28	2.45	-48.3	-50.7	6.1	0.00e+00	0	37	104	0	60	42112
2026-01-08 00:03:04.50	16.26	2.52	-48.3	-50.8	6.1	0.00e+00	0	37	104	0	60	42325
2026-01-08 00:03:05.50	16.23	2.59	-48.3	-50.8	6.1	0.00e+00	0	37	104	0	60	42360
2026-01-08 00:03:06.51	16.20	2.66	-48.3	-50.7	6.1	0.00e+00	0	38	104	0	60	42129
2026-01-08 00:03:07.52	16.18	2.74	-48.3	-50.7	6.1	0.00e+00	0	37	104	0	60	42111
2026-01-08 00:03:08.53	16.15	2.81	-48.3	-50.8	6.1	0.00e+00	0	38	104	0	60	42265
2026-01-08 00:03:09.54	16.13	2.88	-48.3	-50.7	6.1	0.00e+00	0	38	104	0	60	42175
2026-01-08 00:03:10.55	16.10	2.95	-48.3	-50.7	6.1	0.00e+00	0	37	104	0	60	42167
2026-01-08 00:03:11.56	16.08	3.03	-48.2	-50.8	6.1	0.00e+00	0	38	104	0	60	42259
2026-01-08 00:03:12.57	16.05	3.10	-48.3	-50.8	6.1	0.00e+00	0	38	104	0	60	42262
2026-01-08 00:03:13.58	16.02	3.17	-48.3	-50.7	6.1	0.00e+00	0	38	104	0	60	41941
2026-01-08 00:03:14.59	15.99	3.24	-48.3	-50.7	6.1	0.00e+00	0	38	104	0	60	42111
2026-01-08 00:03:15.60	15.97	3.32	-48.3	-50.8	6.1	0.00e+00	0	38	104	0	60	42361
2026-01-08 00:03:16.61	15.94	3.39	-48.3	-50.8	6.1	0.00e+00	0	38	104	0	60	42260
2026-01-08 00:03:17.62	15.91	3.47	-48.3	-50.8	6.1	0.00e+00	0	38	104	0	60	42408
2026-01-08 00:03:18.63	15.89	3.54	-48.3	-50.8	6.1	0.00e+00	0	38	104	0	60	42341
2026-01-08 00:03:19.64	15.86	3.62	-48.3	-50.8	6.1	0.00e+00	0	38	104	0	60	42234
2026-01-08 00:03:20.65	15.83	3.69	-48.3	-50.8	6.1	0.00e+00	0	38	104	0	60	42261
2026-01-08 00:03:21.66	15.80	3.77	-48.3	-50.7	6.1	0.00e+00	0	38	104	0	60	42195
2026-01-08 00:03:22.67	15.77	3.84	-48.3	-50.8	6.1	0.00e+00	0	38	104	0	60	42232
2026-01-08 00:03:23.68	15.74	3.92	-48.3	-50.7	6.1	0.00e+00	0	38	104	0	60	42131
2026-01-08 00:03:24.69	15.71	3.99	-48.3	-50.7	6.1	0.00e+00	0	38	104	0	60	42211
2026-01-08 00:03:25.70	15.69	4.07	-48.3	-50.7	6.1	0.00e+00	0	38	104	0	60	42128
2026-01-08 00:03:26.71	15.66	4.15	-48.3	-50.8	6.1	0.00e+00	0	38	104	0	60	42564
2026-01-08 00:03:27.72	15.63	4.22	-48.4	-50.9	6.1	0.00e+00	0	38	104	0	60	42863
2026-01-08 00:03:28.73	15.60	4.30	-48.3	-50.8	6.0	0.00e+00	0	38	104	0	60	42448
2026-01-08 00:03:29.74	15.57	4.38	-48.4	-50.9	6.1	0.00e+00	0	38	104	0	60	42965
2026-01-08 00:03:30.75	15.54	4.46	-48.3	-50.8	6.1	0.00e+00	0	38	104	0	60	42342
2026-01-08 00:03:31.76	15.51	4.53	-48.4	-50.9	6.1	0.00e+00	0	38	104	0	60	42898
2026-01-08 00:03:32.77	15.47	4.61	-48.3	-50.8	6.1	0.00e+00	0	38	104	0	60	42474
2026-01-08 00:03:33.78	15.44	4.69	-48.4	-50.9	6.1	0.00e+00	0	38	104	0	60	42900
2026-01-08 00:03:34.79	15.41	4.77	-48.4	-50.8	6.1	0.00e+00	0	38	104	0	60	42564
2026-01-08 00:03:35.80	15.38	4.85	-48.4	-50.9	6.1	0.00e+00	0	38	104	0	60	43141
2026-01-08 00:03:36.81	15.35	4.93	-48.4	-50.9	6.1	0.00e+00	0	38	104	0	60	42745
2026-01-08 00:03:37.82	15.32	5.01	-48.5	-51.0	6.1	0.00e+00	0	38	104	0	60	43467
2026-01-08 00:03:38.83	15.28	5.09	-48.4	-50.8	6.1	0.00e+00	0	38	104	0	60	42689
2026-01-08 00:03:39.83	15.25	5.17	-48.5	-51.0	6.1	0.00e+00	0	38	104	0	60	43355
2026-01-08 00:03:40.84	15.22	5.25	-48.4	-50.9	6.1	0.00e+00	0	38	104	0	60	43134
2026-01-08 00:03:41.85	15.19	5.33	-48.5	-51.1	6.1	0.00e+00	0	38	104	0	60	43761
2026-01-08 00:03:42.86	15.15	5.41	-48.4	-50.9	6.1	0.00e+00	0	38	104	0	60	43160
2026-01-08 00:03:43.87	15.12	5.49	-48.6	-51.1	6.1	0.00e+00	0	38	104	0	60	43792
2026-01-08 00:03:44.88	15.09	5.58	-48.5	-51.0	6.1	0.00e+00	0	38	104	0	60	43319
2026-01-08 00:03:45.89	15.05	5.66	-48.6	-51.1	6.1	0.00e+00	0	38	104	0	60	43799
2026-01-08 00:03:46.90	15.02	5.74	-48.5	-51.0	6.0	0.00e+00	0	38	104	0	60	43227
2026-01-08 00:03:47.91	14.98	5.82	-48.5	-51.0	6.1	0.00e+00	0	38	104	0	60	43618
2026-01-08 00:03:48.92	14.95	5.91	-48.5	-51.0	6.1	0.00e+00	0	38	104	0	60	43220
2026-01-08 00:03:49.93	14.91	5.99	-48.6	-51.1	6.1	0.00e+00	0	38	104	0	60	43868
2026-01-08 00:03:50.94	14.88	6.08	-48.5	-51.0	6.1	0.00e+00	0	38	104	0	60	43700
2026-01-08 00:03:51.95	14.84	6.16	-48.6	-51.1	6.1	0.00e+00	0	39	104	0	60	43864
2026-01-08 00:03:52.96	14.80	6.25	-48.6	-51.0	6.1	0.00e+00	0	38	104	0	60	43576
2026-01-08 00:03:53.96	14.77	6.33	-48.7	-51.1	6.1	0.00e+00	0	39	104	0	60	44202
2026-01-08 00:03:54.97	14.73	6.42	-48.4	-50.9	6.1	0.00e+00	0	39	104	0	60	43088
2026-01-08 00:03:55.98	14.70	6.50	-48.7	-51.1	6.1	0.00e+00	0	39	104	0	60	44128
2026-01-08 00:03:56.99	14.66	6.59	-48.6	-51.0	6.1	0.00e+00	0	39	104	0	60	43603
2026-01-08 00:03:58.00	14.62	6.67	-48.7	-51.2	6.1	0.00e+00	0	39	104	0	60	44531
2026-01-08 00:03:59.01	14.58	6.76	-48.6	-51.1	6.1	0.00e+00	0	39	104	0	60	43744
2026-01-08 00:04:00.02	14.54	6.85	-48.6	-51.1	6.1	0.00e+00	0	39	104	0	60	43888
2026-01-08 00:04:01.03	14.51	6.94	-48.6	-51.1	6.1	0.00e+00	0	39	104	0	60	44159
2026-01-08 00:04:02.04	14.47	7.02	-48.6	-51.1	6.1	0.00e+00	0	39	104	0	60	44010
2026-01-08 00:04:03.05	14.43	7.11	-38.8	-39.3	9.8	0.00e+00	5514	39	104	0	48	22431
2026-01-08 00:04:04.06	14.39	7.20	-33.0	-33.5	14.0	0.00e+00	0	39	0	75497472	42	16329
2026-01-08 00:04:05.07	14.35	7.29	-32.2	-32.6	14.5	2.13e-01	0	39	0	192937984	40	16615
2026-01-08 00:04:06.08	14.31	7.38	-31.9	-32.4	14.6	2.13e-01	0	39	0	301989888	40	16163
2026-01-08 00:04:07.09	14.27	7.47	-31.3	-31.7	14.7	1.52e-02	0	39	0	411041792	38	16793
2026-01-08 00:04:08.10	14.23	7.56	-31.2	-31.7	14.7	1.52e-02	0	39	0	528482304	38	16783
2026-01-08 00:04:09.11	14.19	7.65	-31.5	-32.0	14.7	1.16e-02	0	39	0	637534208	38	17279
2026-01-08 00:04:10.12	14.14	7.74	-30.9	-31.4	15.0	1.16e-02	0	39	0	754974720	38	16116
2026-01-08 00:04:11.13	14.10	7.84	-30.7	-31.2	15.3	8.07e-03	0	39	0	872415232	36	17712
2026-01-08 00:04:12.13	14.06	7.93	-30.4	-30.9	15.3	8.07e-03	0	39	0	981467136	36	17041
2026-01-08 00:04:13.14	14.02	8.02	-30.2	-30.7	15.3	4.53e-03	0	39	0	1098907648	36	16760
2026-01-08 00:04:14.15	13.97	8.11	-30.1	-30.6	15.5	4.53e-03	0	39	0	1207959552	36	16554
2026-01-08 00:04:15.16	13.93	8.21	-29.5	-30.0	15.6	4.53e-03	0	39	0	1325400064	34	17373
2026-01-08 00:04:16.17	13.89	8.30	-29.6	-30.1	15.6	3.04e-03	0	39	0	1442840576	34	17411
2026-01-08 00:04:17.18	13.84	8.40	-29.1	-29.6	15.8	3.04e-03	0	39	0	1551892480	34	16549
2026-01-08 00:04:18.19	13.80	8.49	-28.4	-28.9	16.0	1.73e-03	0	39	0	1660944384	32	17126
2026-01-08 00:04:19.20	13.75	8.59	-28.1	-28.6	16.1	5.07e-04	0	39	0	1778384896	32	16473
2026-01-08 00:04:20.21	13.71	8.68	-28.2	-28.8	16.0	5.07e-04	0	39	0	1895825408	32	16813
2026-01-08 00:04:21.22	13.66	8.78	-28.1	-28.6	16.1	5.07e-04	0	39	0	2004877312	32	16473
2026-01-08 00:04:22.23	13.62	8.88	-28.0	-28.5	16.1	3.49e-04	0	39	0	2122317824	32	16375
2026-01-08 00:04:23.24	13.57	8.97	-27.9	-28.4	16.2	3.49e-04	0	39	0	2231369728	32	16104
2026-01-08 00:04:24.25	13.52	9.07	-28.0	-28.5	16.1	4.47e-04	0	39	0	2348810240	32	16295
2026-01-08 00:04:25.25	13.48	9.17	-27.8	-28.4	16.2	4.47e-04	0	39	0	2457862144	32	16061
2026-01-08 00:04:26.26	13.43	9.27	-27.7	-28.2	16.2	3.00e-04	0	39	0	2575302656	30	17805
2026-01-08 00:04:27.27	13.38	9.37	-27.7	-28.2	16.3	3.00e-04	0	39	0	2684354560	30	17786
2026-01-08 00:04:28.28	13.33	9.47	-27.7	-28.2	16.3	2.56e-04	0	39	0	2801795072	30	17722
2026-01-08 00:04:29.29	13.28	9.57	-27.6	-28.1	16.3	2.56e-04	0	40	0	2910846976	30	17574
2026-01-08 00:04:30.30	13.23	9.67	-27.6	-28.1	16.3	2.18e-04	0	39	0	3028287488	30	17556
2026-01-08 00:04:31.31	13.18	9.77	-27.5	-27.8	16.3	2.18e-04	0	39	0	3145728000	30	16841
2026-01-08 00:04:32.32	13.13	9.87	-27.4	-27.9	16.3	2.18e-04	0	39	0	3254779904	30	17151
2026-01-08 00:04:33.33	13.08	9.97	-27.3	-27.9	16.3	1.52e-04	0	39	0	3372220416	30	17020
2026-01-08 00:04:34.34	13.03	10.08	-27.5	-28.0	16.3	1.52e-04	0	39	0	3481272320	30	17302
2026-01-08 00:04:35.35	12.98	10.18	-27.3	-27.8	16.3	1.42e-04	0	40	0	3590324224	30	16976
2026-01-08 00:04:36.36	12.92	10.28	-27.4	-28.0	16.2	1.42e-04	0	40	0	3707764736	30	17206
2026-01-08 00:04:37.37	12.87	10.39	-27.2	-27.7	16.2	2.34e-04	0	40	0	3825205248	30	16739
2026-01-08 00:04:38.38	12.82	10.49	-27.4	-27.9	16.2	2.34e-04	0	40	0	3934257152	30	17070
2026-01-08 00:04:39.39	12.76	10.60	-27.2	-27.7	16.3	1.96e-04	0	40	0	4051697664	30	16632
2026-01-08 00:04:40.40	12.71	10.71	-27.1	-27.6	16.4	1.96e-04	0	40	0	4160749568	30	16540
2026-01-08 00:04:41.40	12.66	10.81	-27.0	-27.5	16.4	1.52e-04	0	40	0	4278190080	30	16298
2026-01-08 00:04:42.41	12.60	10.92	-27.1	-27.6	16.4	1.52e-04	0	40	0	4395630592	30	16470
2026-01-08 00:04:43.42	12.54	11.03	-26.9	-27.4	16.4	9.26e-05	0	40	0	4504682496	30	16107
2026-01-08 00:04:44.44	12.49	11.14	-26.7	-27.3	16.5	9.26e-05	0	40	0	4613734400	30	15890
2026-01-08 00:04:45.44	12.43	11.25	-26.6	-27.1	16.6	4.90e-05	0	40	0	4731174912	28	17500
2026-01-08 00:04:46.46	12.37	11.36	-26.6	-27.2	16.5	4.90e-05	0	40	0	4840226816	28	17647
2026-01-08 00:04:47.47	12.31	11.47	-26.6	-27.1	16.6	4.90e-05	0	40	0	4957667328	28	17492
2026-01-08 00:04:48.47	12.26	11.58	-26.3	-26.8	16.6	7.08e-05	0	40	0	5075107840	28	16983
2026-01-08 00:04:49.48	12.20	11.69	-26.2	-26.7	16.6	7.08e-05	0	40	0	5184159744	28	16785
2026-01-08 00:04:50.49	12.14	11.80	-26.2	-26.7	16.6	1.63e-05	0	40	0	5301600256	28	16775
2026-01-08 00:04:51.50	12.08	11.92	-26.2	-26.7	16.6	1.63e-05	0	40	0	5410652160	28	16708
2026-01-08 00:04:52.51	12.01	12.03	-26.2	-26.7	16.7	1.63e-05	0	40	0	5528092672	28	16699
2026-01-08 00:04:53.52	11.95	12.14	-26.1	-26.6	16.6	2.17e-05	0	40	0	5637144576	28	16521
2026-01-08 00:04:54.53	11.89	12.26	-26.2	-26.7	16.7	2.17e-05	0	40	0	5754585088	28	16674
2026-01-08 00:04:55.54	11.83	12.37	-26.0	-26.5	16.7	2.17e-05	0	40	0	5863636992	28	16310
2026-01-08 00:04:56.55	11.76	12.49	-25.9	-26.4	16.7	2.17e-05	0	40	0	5981077504	28	16198
2026-01-08 00:04:57.56	11.70	12.61	-25.9	-26.5	16.6	2.17e-05	0	40	0	6098518016	28	16272
2026-01-08 00:04:58.57	11.63	12.73	-25.7	-26.2	16.7	2.17e-05	0	40	0	6207569920	26	17708
2026-01-08 00:04:59.58	11.57	12.85	-25.8	-26.3	16.7	1.08e-05	0	40	0	6325010432	26	17883
2026-01-08 00:05:00.59	11.50	12.97	-25.6	-26.2	16.8	1.08e-05	0	40	0	6434062336	26	17605
2026-01-08 00:05:01.60	11.43	13.09	-25.6	-26.1	16.8	1.08e-05	0	40	0	6543114240	26	17534
2026-01-08 00:05:02.61	11.37	13.21	-25.5	-26.1	16.9	5.40e-06	0	40	0	6660554752	26	17415
2026-01-08 00:05:03.61	11.30	13.33	-25.4	-25.9	16.8	5.40e-06	0	40	0	6777995264	26	17089
2026-01-08 00:05:04.62	11.23	13.45	-25.4	-25.9	16.9	0.00e+00	0	40	0	6887047168	26	17072
2026-01-08 00:05:05.63	11.16	13.57	-25.3	-25.9	16.8	0.00e+00	0	40	0	7004487680	26	17023
2026-01-08 00:05:06.64	11.09	13.70	-25.1	-25.7	16.9	5.40e-06	0	40	0	7113539584	26	16644
2026-01-08 00:05:07.65	11.02	13.82	-25.2	-25.7	16.9	5.40e-06	0	40	0	7230980096	26	16693
2026-01-08 00:05:08.65	10.95	13.95	-25.2	-25.8	16.9	0.00e+00	0	40	0	7340032000	26	16819
2026-01-08 00:05:09.66	10.87	14.07	-25.1	-25.6	16.9	0.00e+00	0	40	0	7457472512	26	16490
2026-01-08 00:05:10.67	10.80	14.20	-25.0	-25.5	16.9	0.00e+00	0	40	0	7566524416	26	16360
2026-01-08 00:05:11.67	10.73	14.33	-25.0	-25.5	16.9	1.08e-05	0	40	0	7683964928	26	16345
2026-01-08 00:05:12.69	10.65	14.46	-25.1	-25.6	16.8	1.08e-05	0	40	0	7793016832	26	16473
2026-01-08 00:05:13.70	10.57	14.59	-24.8	-25.3	16.9	5.40e-06	0	40	0	7910457344	24	17871
2026-01-08 00:05:14.71	10.50	14.72	-24.7	-25.2	16.9	5.40e-06	0	40	0	8019509248	24	17720
2026-01-08 00:05:15.72	10.42	14.85	-24.6	-25.1	16.9	0.00e+00	0	40	0	8136949760	24	17569
2026-01-08 00:05:16.73	10.34	14.98	-24.6	-25.1	16.9	0.00e+00	0	40	0	8254390272	24	17569
2026-01-08 00:05:17.73	10.26	15.11	-24.5	-25.1	17.0	0.00e+00	0	40	0	8363442176	24	17454
2026-01-08 00:05:18.74	10.18	15.25	-24.4	-24.9	17.0	0.00e+00	0	40	0	8472494080	24	17127
2026-01-08 00:05:19.75	10.10	15.38	-24.5	-25.0	17.0	0.00e+00	0	40	0	8589934592	24	17289
2026-01-08 00:05:20.76	10.02	15.52	-24.4	-24.9	17.1	0.00e+00	0	40	0	8707375104	24	17098
2026-01-08 00:05:21.77	9.94	15.65	-24.4	-24.9	17.0	0.00e+00	0	40	0	8816427008	24	17146
2026-01-08 00:05:22.78	9.85	15.79	-24.3	-24.8	17.0	0.00e+00	0	40	0	8933867520	24	16955
2026-01-08 00:05:23.79	9.77	15.93	-24.1	-24.6	17.0	0.00e+00	0	40	0	9042919424	24	16599
2026-01-08 00:05:24.80	9.68	16.07	-24.3	-24.9	17.0	0.00e+00	0	40	0	9160359936	24	17019
2026-01-08 00:05:25.81	9.59	16.21	-23.9	-24.5	16.9	0.00e+00	0	40	0	9277800448	24	16254
2026-01-08 00:05:26.82	9.51	16.35	-23.8	-24.4	16.9	0.00e+00	0	40	0	9386852352	24	16091
2026-01-08 00:05:27.83	9.42	16.49	-23.9	-24.4	16.9	0.00e+00	0	40	0	9495904256	24	16200
2026-01-08 00:05:28.84	9.33	16.64	-23.7	-24.2	16.9	0.00e+00	0	40	0	9613344768	24	15847
2026-01-08 00:05:29.85	9.24	16.78	-23.7	-24.2	16.9	0.00e+00	0	40	0	9722396672	22	17744
2026-01-08 00:05:30.86	9.14	16.93	-23.7	-24.2	17.0	0.00e+00	0	40	0	9839837184	22	17681
2026-01-08 00:05:31.87	9.05	17.07	-23.7	-24.2	17.0	0.00e+00	0	40	0	9957277696	22	17678
2026-01-08 00:05:32.88	8.96	17.22	-23.8	-24.3	17.0	0.00e+00	0	40	0	10066329600	22	17851
2026-01-08 00:05:33.89	8.86	17.37	-23.5	-24.0	17.0	0.00e+00	0	40	0	10183770112	22	17374
2026-01-08 00:05:34.90	8.76	17.52	-23.5	-24.0	17.1	0.00e+00	0	40	0	10292822016	22	17374
2026-01-08 00:05:35.91	8.67	17.67	-23.6	-24.1	17.1	0.00e+00	0	40	0	10401873920	22	17563
2026-01-08 00:05:36.91	8.57	17.82	-23.4	-23.9	17.1	0.00e+00	0	40	0	10527703040	22	17069
2026-01-08 00:05:37.93	8.47	17.98	-23.4	-23.9	17.1	0.00e+00	0	40	0	10636754944	22	17188
2026-01-08 00:05:38.93	8.37	18.13	-23.2	-23.7	17.1	0.00e+00	0	40	0	10745806848	22	16740
2026-01-08 00:05:39.94	8.26	18.29	-23.2	-23.7	17.0	0.00e+00	0	40	0	10863247360	22	16716
2026-01-08 00:05:40.95	8.16	18.44	-23.2	-23.7	17.1	0.00e+00	0	40	0	10972299264	22	16707
2026-01-08 00:05:41.96	8.05	18.60	-23.1	-23.6	17.1	0.00e+00	0	40	0	11089739776	22	16540
2026-01-08 00:05:42.97	7.95	18.76	-23.2	-23.7	17.1	0.00e+00	0	40	0	11207180288	22	16800
2026-01-08 00:05:43.98	7.84	18.92	-23.0	-23.5	17.2	0.00e+00	0	40	0	11316232192	22	16367
2026-01-08 00:05:44.99	7.73	19.08	-22.9	-23.4	17.3	0.00e+00	0	40	0	11425284096	22	16185
2026-01-08 00:05:46.00	7.62	19.24	-23.0	-23.5	17.3	0.00e+00	0	40	0	11542724608	22	16293
2026-01-08 00:05:47.01	7.51	19.41	-22.8	-23.3	17.3	0.00e+00	0	40	0	11660165120	22	16018
2026-01-08 00:05:48.02	7.40	19.57	-22.7	-23.2	17.4	0.00e+00	0	40	0	11769217024	20	17744
2026-01-08 00:05:49.03	7.28	19.74	-22.9	-23.4	17.4	0.00e+00	0	40	0	11886657536	20	18142
2026-01-08 00:05:50.04	7.16	19.91	-22.6	-23.1	17.4	0.00e+00	0	40	0	11995709440	20	17457
2026-01-08 00:05:51.05	7.05	20.08	-22.5	-23.0	17.4	0.00e+00	0	40	0	12113149952	20	17400
2026-01-08 00:05:52.06	6.93	20.25	-22.4	-22.9	17.4	0.00e+00	0	41	0	12230590464	20	17074
2026-01-08 00:05:53.07	6.81	20.42	-22.3	-22.9	17.4	0.00e+00	0	41	0	12339642368	20	17035
2026-01-08 00:05:54.08	6.68	20.59	-22.2	-22.7	17.4	0.00e+00	0	40	0	12457082880	20	16776
2026-01-08 00:05:55.09	6.56	20.77	-22.2	-22.8	17.4	0.00e+00	0	41	0	12566134784	20	16821
2026-01-08 00:05:56.10	6.43	20.94	-22.1	-22.6	17.4	0.00e+00	0	41	0	12675186688	20	16605
2026-01-08 00:05:57.11	6.30	21.12	-21.7	-22.3	17.4	0.00e+00	0	41	0	12792627200	18	17810
2026-01-08 00:05:58.12	6.18	21.30	-21.8	-22.3	17.4	0.00e+00	0	40	0	12910067712	18	18003
2026-01-08 00:05:59.12	6.05	21.48	-21.6	-22.2	17.4	0.00e+00	0	40	0	13019119616	18	17637
2026-01-08 00:06:00.13	5.91	21.66	-21.5	-22.0	17.4	0.00e+00	0	41	0	13136560128	18	17343
2026-01-08 00:06:01.15	5.78	21.85	-21.4	-22.0	17.4	0.00e+00	0	41	0	13245612032	18	17205
2026-01-08 00:06:02.16	5.64	22.03	-21.3	-21.9	17.4	0.00e+00	0	41	0	13354663936	18	17025
2026-01-08 00:06:03.17	5.50	22.22	-21.2	-21.7	17.5	0.00e+00	0	40	0	13480493056	18	16761
2026-01-08 00:06:04.18	5.36	22.40	-21.2	-21.7	17.5	0.00e+00	0	40	0	13589544960	18	16718
2026-01-08 00:06:05.18	5.22	22.59	-21.2	-21.7	17.5	0.00e+00	0	41	0	13698596864	18	16733
2026-01-08 00:06:06.19	5.08	22.78	-21.2	-21.7	17.5	0.00e+00	0	41	0	13816037376	18	16661
2026-01-08 00:06:07.20	4.93	22.97	-21.1	-21.6	17.5	0.00e+00	0	41	0	13925089280	18	16562
2026-01-08 00:06:08.22	4.78	23.17	-21.1	-21.6	17.5	0.00e+00	0	41	0	14042529792	18	16575
2026-01-08 00:06:09.22	4.63	23.36	-21.1	-21.6	17.6	0.00e+00	0	41	0	14159970304	18	16511
2026-01-08 00:06:10.23	4.48	23.56	-21.2	-21.7	17.6	0.00e+00	0	41	0	14269022208	18	16790
2026-01-08 00:06:11.24	4.32	23.76	-21.1	-21.6	17.6	0.00e+00	0	41	0	14386462720	18	16452
2026-01-08 00:06:12.25	4.16	23.96	-21.1	-21.6	17.6	0.00e+00	0	41	0	14495514624	18	16533
2026-01-08 00:06:13.26	4.00	24.16	-21.0	-21.5	17.6	0.00e+00	0	41	0	14612955136	18	16350
2026-01-08 00:06:14.27	3.84	24.37	-21.1	-21.6	17.7	0.00e+00	0	41	0	14722007040	18	16472
2026-01-08 00:06:15.28	3.68	24.57	-20.9	-21.4	17.7	0.00e+00	0	41	0	14839447552	18	16106
2026-01-08 00:06:16.29	3.51	24.78	-20.9	-21.4	17.6	0.00e+00	0	41	0	14948499456	18	16197
2026-01-08 00:06:17.30	3.34	24.99	-20.7	-21.2	17.6	0.00e+00	0	41	0	15065939968	16	17702
2026-01-08 00:06:18.31	3.17	25.20	-20.7	-21.2	17.5	0.00e+00	0	41	0	15183380480	16	17760
2026-01-08 00:06:19.32	2.99	25.41	-20.6	-21.2	17.5	0.00e+00	0	41	0	15292432384	16	17631
2026-01-08 00:06:20.33	2.82	25.63	-20.3	-20.8	17.4	0.00e+00	0	41	0	15409872896	16	16904
2026-01-08 00:06:21.34	2.64	25.84	-20.2	-20.7	17.5	0.00e+00	0	41	0	15518924800	16	16702
2026-01-08 00:06:22.35	2.45	26.06	-20.1	-20.6	17.5	0.00e+00	0	41	0	15627976704	16	16531
2026-01-08 00:06:23.36	2.27	26.28	-20.0	-20.5	17.6	0.00e+00	0	41	0	15745417216	16	16421
2026-01-08 00:06:24.37	2.08	26.50	-19.9	-20.4	17.6	0.00e+00	0	41	0	15862857728	16	16194
2026-01-08 00:06:25.38	1.89	26.73	-19.8	-20.3	17.7	0.00e+00	0	41	0	15971909632	16	16029
2026-01-08 00:06:26.39	1.69	26.95	-19.6	-20.1	17.7	0.00e+00	0	41	0	16089350144	14	17476
2026-01-08 00:06:27.40	1.50	27.18	-19.5	-20.1	17.7	0.00e+00	0	41	0	16198402048	14	17445
2026-01-08 00:06:28.41	1.29	27.41	-19.5	-20.1	17.6	0.00e+00	0	41	0	16315842560	14	17404
2026-01-08 00:06:29.41	1.09	27.64	-19.4	-19.9	17.6	0.00e+00	0	41	0	16433283072	14	17184
2026-01-08 00:06:30.42	0.88	27.87	-19.3	-19.8	17.7	0.00e+00	0	41	0	16542334976	14	16911
2026-01-08 00:06:31.43	0.67	28.11	-19.2	-19.7	17.6	0.00e+00	0	41	0	16651386880	14	16686
2026-01-08 00:06:32.44	0.46	28.35	-19.1	-19.6	17.7	0.00e+00	0	41	0	16768827392	14	16522
2026-01-08 00:06:33.45	0.24	28.59	-18.9	-19.4	17.7	0.00e+00	0	41	0	16877879296	14	16148
2026-01-08 00:06:34.46	0.02	28.83	-18.9	-19.4	17.7	0.00e+00	0	41	0	16995319808	14	16205
2026-01-08 00:06:35.47	359.79	29.07	-18.8	-19.3	17.7	0.00e+00	0	41	0	17112760320	14	15935
2026-01-08 00:06:36.48	359.56	29.32	-18.6	-19.1	17.7	0.00e+00	0	41	0	17221812224	12	17516
2026-01-08 00:06:37.49	359.33	29.57	-18.5	-18.9	17.6	0.00e+00	0	41	0	17339252736	12	17201
2026-01-08 00:06:38.50	359.09	29.82	-18.4	-18.9	17.7	0.00e+00	0	41	0	17448304640	12	17155
2026-01-08 00:06:39.51	358.85	30.07	-18.3	-18.8	17.6	0.00e+00	0	41	0	17565745152	12	16859
2026-01-08 00:06:40.52	358.61	30.32	-18.3	-18.8	17.7	0.00e+00	0	41	0	17674797056	12	16920
2026-01-08 00:06:41.53	358.36	30.58	-18.1	-18.6	17.7	0.00e+00	0	41	0	17792237568	12	16598
2026-01-08 00:06:42.54	358.10	30.84	-18.0	-18.5	17.7	0.00e+00	0	41	0	17901289472	12	16316
2026-01-08 00:06:43.55	357.84	31.10	-18.0	-18.5	17.7	0.00e+00	0	41	0	18018729984	12	16346
2026-01-08 00:06:44.56	357.58	31.36	-17.8	-18.3	17.7	0.00e+00	0	41	0	18136170496	12	15922
2026-01-08 00:06:45.56	357.32	31.62	-17.8	-18.3	17.7	0.00e+00	0	41	0	18245222400	12	15961
2026-01-08 00:06:46.57	357.04	31.89	-17.5	-18.0	17.7	0.00e+00	0	41	0	18362662912	10	17315
2026-01-08 00:06:47.58	356.77	32.16	-17.6	-18.0	17.7	0.00e+00	0	41	0	18471714816	10	17382
2026-01-08 00:06:48.59	356.48	32.43	-17.5	-17.9	17.7	0.00e+00	0	41	0	18580766720	10	17135
2026-01-08 00:06:49.60	356.20	32.70	-17.6	-18.0	17.7	0.00e+00	0	41	0	18698207232	10	17350
2026-01-08 00:06:50.61	355.90	32.98	-17.3	-17.8	17.7	0.00e+00	0	41	0	18815647744	10	16848
2026-01-08 00:06:51.62	355.60	33.25	-17.3	-17.7	17.7	0.00e+00	0	41	0	18924699648	10	16795
2026-01-08 00:06:52.63	355.30	33.53	-17.2	-17.6	17.8	0.00e+00	0	41	0	19042140160	10	16593
2026-01-08 00:06:53.64	354.99	33.81	-17.3	-17.7	17.7	0.00e+00	0	41	0	19151192064	10	16739
2026-01-08 00:06:54.65	354.67	34.10	-17.2	-17.7	17.8	0.00e+00	0	41	0	19268632576	10	16664
2026-01-08 00:06:55.66	354.35	34.38	-17.0	-17.4	17.8	0.00e+00	0	41	0	19386073088	10	16174
2026-01-08 00:06:56.67	354.02	34.67	-16.9	-17.4	17.8	0.00e+00	0	41	0	19495124992	10	16056
2026-01-08 00:06:57.68	353.69	34.96	-16.8	-17.3	17.8	0.00e+00	0	41	0	19604176896	10	15906
2026-01-08 00:06:58.68	353.35	35.25	-16.9	-17.3	17.8	0.00e+00	0	41	0	19721617408	10	15980
2026-01-08 00:06:59.70	353.00	35.55	-16.9	-17.3	17.8	0.00e+00	0	41	0	19830669312	10	16022
2026-01-08 00:07:00.70	352.65	35.84	-16.7	-17.1	17.8	0.00e+00	0	41	0	19948109824	8	17500
2026-01-08 00:07:01.72	352.29	36.14	-16.6	-17.1	17.8	0.00e+00	0	41	0	20065550336	8	17438
2026-01-08 00:07:02.73	351.92	36.44	-16.5	-16.9	17.8	0.00e+00	0	41	0	20174602240	8	17124
2026-01-08 00:07:03.73	351.55	36.74	-16.5	-16.9	17.8	0.00e+00	0	41	0	20292042752	8	17137
2026-01-08 00:07:04.74	351.16	37.04	-16.5	-16.9	17.9	0.00e+00	0	41	0	20401094656	8	17154
2026-01-08 00:07:05.75	350.77	37.35	-16.3	-16.8	17.9	0.00e+00	0	41	0	20510146560	8	16853
2026-01-08 00:07:06.76	350.37	37.66	-16.3	-16.7	17.9	0.00e+00	0	41	0	20635975680	8	16724
2026-01-08 00:07:07.77	349.97	37.97	-16.3	-16.7	17.9	0.00e+00	0	41	0	20745027584	8	16782
2026-01-08 00:07:08.78	349.55	38.28	-16.2	-16.6	17.8	0.00e+00	0	41	0	20854079488	8	16488
2026-01-08 00:07:09.79	349.13	38.59	-16.2	-16.6	17.8	0.00e+00	0	41	0	20971520000	8	16516
2026-01-08 00:07:10.80	348.69	38.90	-16.1	-16.5	17.8	0.00e+00	0	41	0	21080571904	8	16389
2026-01-08 00:07:11.81	348.25	39.22	-15.9	-16.3	17.9	0.00e+00	0	41	0	21198012416	8	16013
2026-01-08 00:07:12.82	347.80	39.53	-15.8	-16.2	17.8	0.00e+00	0	41	0	21315452928	8	15788
2026-01-08 00:07:13.83	347.34	39.85	-15.9	-16.4	17.8	0.00e+00	0	41	0	21424504832	8	16075
2026-01-08 00:07:14.84	346.87	40.17	-15.7	-16.1	17.8	0.00e+00	0	41	0	21533556736	6	17463
2026-01-08 00:07:15.85	346.40	40.49	-15.7	-16.1	17.8	0.00e+00	0	41	0	21650997248	6	17428
2026-01-08 00:07:16.85	345.91	40.81	-15.6	-16.0	17.8	0.00e+00	0	41	0	21760049152	6	17285
2026-01-08 00:07:17.86	345.41	41.13	-15.4	-15.8	17.8	0.00e+00	0	41	0	21877489664	6	16968
2026-01-08 00:07:18.87	344.90	41.45	-15.5	-16.0	17.7	0.00e+00	0	41	0	21994930176	6	17222
2026-01-08 00:07:19.88	344.38	41.78	-15.5	-15.9	17.8	0.00e+00	0	41	0	22103982080	6	17115
2026-01-08 00:07:20.89	343.85	42.10	-15.3	-15.7	17.8	0.00e+00	0	41	0	22221422592	6	16744
2026-01-08 00:07:21.90	343.30	42.43	-15.4	-15.8	17.7	0.00e+00	0	41	0	22330474496	6	16928
2026-01-08 00:07:22.91	342.75	42.75	-15.9	-16.3	17.7	0.00e+00	0	41	0	22447915008	6	17848
2026-01-08 00:07:23.92	342.18	43.08	-15.4	-15.9	17.7	0.00e+00	0	41	0	22565355520	6	17022
2026-01-08 00:07:24.93	341.60	43.40	-15.3	-15.7	17.7	0.00e+00	0	41	0	22674407424	6	16772
2026-01-08 00:07:25.94	341.01	43.73	-15.4	-15.8	17.7	0.00e+00	0	41	0	22783459328	6	16971
2026-01-08 00:07:26.95	340.41	44.05	-15.3	-15.8	17.7	0.00e+00	0	41	0	22900899840	6	16816
2026-01-08 00:07:27.96	339.79	44.38	-15.5	-15.9	17.7	0.00e+00	0	41	0	23018340352	6	17127
2026-01-08 00:07:28.97	339.16	44.70	-15.6	-16.0	17.7	0.00e+00	0	41	0	23127392256	6	17349
2026-01-08 00:07:29.98	338.52	45.03	-15.6	-16.1	17.7	0.00e+00	0	41	0	23244832768	6	17416
2026-01-08 00:07:30.98	337.87	45.34	-15.9	-16.3	17.7	0.00e+00	0	41	0	23353884672	6	17986
2026-01-08 00:07:31.99	337.19	45.67	-15.9	-16.3	17.7	0.00e+00	0	41	0	23462936576	6	17926
2026-01-08 00:07:33.00	336.51	45.98	-16.1	-16.5	17.7	0.00e+00	0	41	0	23580377088	6	18328
2026-01-08 00:07:34.01	335.81	46.30	-16.1	-16.5	17.7	0.00e+00	0	41	0	23697817600	6	18356
2026-01-08 00:07:35.02	335.09	46.62	-16.7	-17.1	17.7	0.00e+00	0	41	0	23806869504	6	19683
2026-01-08 00:07:36.03	334.36	46.93	-17.0	-17.4	17.7	0.00e+00	0	41	0	23924310016	8	18038
2026-01-08 00:07:37.04	333.62	47.24	-16.8	-17.2	17.7	0.00e+00	0	41	0	24033361920	8	17800
2026-01-08 00:07:38.05	332.86	47.55	-17.6	-18.0	17.7	0.00e+00	0	41	0	24150802432	8	19423
2026-01-08 00:07:39.06	332.08	47.86	-18.1	-18.5	17.6	0.00e+00	0	41	0	24268242944	10	18345
2026-01-08 00:07:40.07	331.29	48.16	-17.9	-18.3	17.6	0.00e+00	0	41	0	24377294848	12	15912
2026-01-08 00:07:41.08	330.48	48.46	-18.8	-19.2	17.5	0.00e+00	0	41	0	24494735360	12	17637
2026-01-08 00:07:42.09	329.65	48.75	-19.8	-20.2	17.5	0.00e+00	0	41	0	24603787264	12	19856
2026-01-08 00:07:43.10	328.81	49.04	-19.7	-20.1	17.5	0.00e+00	0	41	0	24712839168	14	17414
2026-01-08 00:07:44.11	327.95	49.33	-19.3	-19.7	17.5	0.00e+00	0	41	0	24830279680	14	16630
2026-01-08 00:07:45.11	327.09	49.60	-19.5	-19.9	17.5	0.00e+00	0	41	0	24947720192	14	17121
2026-01-08 00:07:46.13	326.19	49.88	-20.5	-20.9	17.4	0.00e+00	0	41	0	25056772096	14	19167
2026-01-08 00:07:47.14	325.28	50.15	-21.0	-21.3	17.4	0.00e+00	0	41	0	25174212608	16	18005
2026-01-08 00:07:48.15	324.36	50.42	-21.1	-21.5	17.4	0.00e+00	0	41	0	25283264512	16	18253
2026-01-08 00:07:49.15	323.43	50.67	-22.1	-22.5	17.3	0.00e+00	0	41	0	25392316416	18	18350
2026-01-08 00:07:50.16	322.47	50.92	-21.9	-22.3	17.3	0.00e+00	0	41	0	25518145536	18	17918
2026-01-08 00:07:51.17	321.50	51.17	-23.2	-23.6	17.3	0.00e+00	0	41	0	25627197440	20	18485
2026-01-08 00:07:52.18	320.51	51.40	-24.5	-24.9	17.0	0.00e+00	0	41	0	25736249344	22	19237
2026-01-08 00:07:53.19	319.50	51.63	-25.3	-25.7	17.0	0.00e+00	0	41	0	25853689856	26	16733
2026-01-08 00:07:54.20	318.48	51.86	-25.6	-26.0	16.9	0.00e+00	0	41	0	25962741760	22	21704
2026-01-08 00:07:55.21	317.45	52.07	-25.0	-25.3	17.0	5.40e-06	0	41	0	26080182272	24	17959
2026-01-08 00:07:56.22	316.39	52.27	-25.3	-25.7	16.9	5.40e-06	0	41	0	26197622784	26	16660
2026-01-08 00:07:57.23	315.33	52.47	-26.7	-27.0	16.6	5.40e-06	0	41	0	26306674688	28	17330
2026-01-08 00:07:58.24	314.25	52.66	-27.5	-27.8	16.7	5.40e-06	0	41	0	26424115200	28	19072
2026-01-08 00:07:59.25	313.15	52.83	-26.9	-27.2	16.6	7.08e-05	0	41	0	26533167104	28	17789
2026-01-08 00:08:00.26	312.04	53.00	-27.2	-27.6	16.3	7.08e-05	0	41	0	26650607616	30	16494
2026-01-08 00:08:01.27	310.92	53.15	-28.5	-28.9	16.0	7.08e-05	0	41	0	26759659520	30	19138
2026-01-08 00:08:02.28	309.79	53.30	-27.9	-28.3	16.3	1.52e-04	0	41	0	26877100032	32	15945
2026-01-08 00:08:03.29	308.65	53.44	-28.6	-28.9	16.1	1.52e-04	0	41	0	26986151936	32	17188
2026-01-08 00:08:04.30	307.49	53.56	-28.4	-28.8	16.1	5.01e-04	0	41	0	27103592448	34	15136
2026-01-08 00:08:05.31	306.33	53.67	-29.7	-30.1	15.6	5.01e-04	0	41	0	27221032960	34	17448
2026-01-08 00:08:06.32	305.16	53.77	-32.2	-32.6	15.1	8.77e-04	0	41	0	27330084864	38	18440
2026-01-08 00:08:07.33	303.98	53.86	-30.5	-30.9	15.5	8.77e-04	0	41	0	27447525376	36	17008
2026-01-08 00:08:08.34	302.79	53.94	-31.0	-31.3	15.2	3.91e-03	0	41	0	27556577280	38	16036
2026-01-08 00:08:09.35	301.60	54.00	-32.0	-32.3	15.1	3.91e-03	0	41	0	27665629184	38	17978
2026-01-08 00:08:10.36	300.40	54.05	-33.0	-33.3	14.8	6.92e-03	0	41	0	27783069696	38	20115
2026-01-08 00:08:11.36	299.21	54.09	-32.3	-32.6	14.4	6.92e-03	0	41	0	27900510208	40	16460
2026-01-08 00:08:12.37	298.00	54.12	-32.5	-32.9	14.0	1.42e-02	0	41	0	28009562112	40	17028
2026-01-08 00:08:13.38	296.79	54.14	-33.3	-33.7	14.6	1.42e-02	0	41	0	28127002624	42	16619
2026-01-08 00:08:14.39	295.59	54.14	-34.4	-34.8	14.2	1.42e-02	0	41	0	28236054528	42	18888
2026-01-08 00:08:15.40	294.38	54.13	-33.8	-34.1	14.9	1.77e-02	0	41	0	28353495040	42	17405
2026-01-08 00:08:16.41	293.17	54.11	-33.8	-34.0	14.8	1.77e-02	0	41	0	28462546944	40	19421
2026-01-08 00:08:17.42	291.97	54.07	-34.1	-34.5	14.1	1.72e-02	0	41	0	28579987456	42	18272
2026-01-08 00:08:18.42	290.78	54.02	-33.8	-34.1	14.4	1.72e-02	0	41	0	28689039360	42	17426
2026-01-08 00:08:19.43	289.58	53.96	-34.7	-35.0	14.5	2.11e-02	0	41	0	28806479872	42	19357
2026-01-08 00:08:20.44	288.39	53.89	-34.7	-35.0	13.8	2.11e-02	0	41	0	28915531776	42	19453
2026-01-08 00:08:21.45	287.21	53.81	-33.6	-34.0	14.5	2.11e-02	0	41	0	29032972288	40	19302
2026-01-08 00:08:22.46	286.03	53.71	-33.3	-33.6	14.5	1.85e-02	0	41	0	29150412800	40	18619
2026-01-08 00:08:23.47	284.86	53.60	-31.5	-31.9	15.3	1.85e-02	0	41	0	29259464704	40	15233
2026-01-08 00:08:24.48	283.71	53.48	-32.0	-32.3	15.4	1.85e-02	0	41	0	29376905216	40	16003
2026-01-08 00:08:25.49	282.56	53.35	-31.5	-31.8	15.4	6.96e-03	0	41	0	29485957120	40	15114
2026-01-08 00:08:26.50	281.42	53.21	-30.8	-31.1	15.8	6.14e-03	0	41	0	29595009024	36	17538
2026-01-08 00:08:27.51	280.29	53.06	-30.5	-30.9	15.9	6.14e-03	0	41	0	29712449536	38	15195
2026-01-08 00:08:28.52	279.18	52.89	-29.5	-29.9	15.7	2.14e-03	0	41	0	29829890048	34	17169
2026-01-08 00:08:29.53	278.08	52.72	-29.6	-30.0	16.1	2.14e-03	0	41	0	29938941952	36	15414
2026-01-08 00:08:30.54	276.99	52.54	-29.1	-29.5	16.5	2.14e-03	0	41	0	30056382464	34	16296
2026-01-08 00:08:31.55	275.92	52.35	-28.2	-28.6	16.5	1.20e-03	0	41	0	30165434368	32	16560
2026-01-08 00:08:32.55	274.87	52.15	-28.4	-28.8	16.6	1.20e-03	0	41	0	30282874880	32	16862
2026-01-08 00:08:33.56	273.83	51.94	-28.0	-28.4	16.5	3.43e-04	0	41	0	30400315392	30	18100
2026-01-08 00:08:34.57	272.80	51.72	-27.1	-27.4	17.1	3.43e-04	0	41	0	30509367296	30	16197
2026-01-08 00:08:35.58	271.79	51.49	-27.6	-28.0	16.5	5.44e-05	0	41	0	30618419200	28	19328
2026-01-08 00:08:36.59	270.79	51.25	-27.4	-27.8	16.9	5.44e-05	0	41	0	30735859712	28	19000
2026-01-08 00:08:37.60	269.81	51.01	-26.1	-26.5	17.3	1.63e-05	0	41	0	30844911616	26	18248
2026-01-08 00:08:38.62	268.83	50.76	-25.6	-26.0	17.1	1.63e-05	0	41	0	30962352128	26	17380
2026-01-08 00:08:39.62	267.90	50.51	-25.5	-25.8	17.2	0.00e+00	0	41	0	31079792640	24	19028
2026-01-08 00:08:40.63	266.96	50.24	-24.4	-24.7	17.3	0.00e+00	0	41	0	31188844544	24	16791
2026-01-08 00:08:41.64	266.05	49.98	-24.1	-24.4	17.3	0.00e+00	0	41	0	31306285056	24	16226
2026-01-08 00:08:42.65	265.15	49.70	-23.9	-24.3	17.3	0.00e+00	0	41	0	31415336960	22	17895
2026-01-08 00:08:43.66	264.27	49.42	-23.0	-23.4	17.4	0.00e+00	0	41	0	31532777472	22	16150
2026-01-08 00:08:44.67	263.40	49.14	-22.3	-22.7	17.5	0.00e+00	0	41	0	31641829376	20	16746
2026-01-08 00:08:45.68	262.55	48.85	-22.9	-23.3	17.4	0.00e+00	0	41	0	31759269888	20	17844
2026-01-08 00:08:46.69	261.72	48.55	-21.7	-22.1	17.6	0.00e+00	0	41	0	31868321792	20	15555
2026-01-08 00:08:47.70	260.91	48.26	-21.4	-21.7	17.6	0.00e+00	0	41	0	31985762304	18	16784
2026-01-08 00:08:48.71	260.11	47.95	-21.3	-21.7	17.6	0.00e+00	0	41	0	32094814208	16	18667
2026-01-08 00:08:49.71	259.33	47.65	-20.1	-20.5	17.7	0.00e+00	0	41	0	32212254720	16	16351
2026-01-08 00:08:50.72	258.56	47.34	-19.8	-20.2	17.7	0.00e+00	0	41	0	32329695232	14	17682
2026-01-08 00:08:51.73	257.81	47.03	-19.8	-20.2	17.7	0.00e+00	0	41	0	32438747136	14	17609
2026-01-08 00:08:52.74	257.07	46.72	-19.7	-20.1	17.7	0.00e+00	0	41	0	32547799040	14	17424
2026-01-08 00:08:53.75	256.35	46.40	-18.6	-19.0	17.8	0.00e+00	0	41	0	32665239552	12	17277
2026-01-08 00:08:54.76	255.64	46.09	-18.2	-18.6	17.8	0.00e+00	0	41	0	32782680064	12	16509
2026-01-08 00:08:55.77	254.95	45.77	-18.0	-18.4	17.8	0.00e+00	0	41	0	32891731968	12	16173
2026-01-08 00:08:56.78	254.27	45.45	-18.4	-18.8	17.8	0.00e+00	0	41	0	33009172480	12	16819
2026-01-08 00:08:57.79	253.61	45.12	-18.0	-18.4	17.8	0.00e+00	0	41	0	33118224384	10	18024
2026-01-08 00:08:58.80	252.96	44.80	-17.5	-17.9	17.8	0.00e+00	0	41	0	33235664896	10	17164
2026-01-08 00:08:59.81	252.32	44.47	-17.3	-17.7	17.9	0.00e+00	0	41	0	33344716800	10	16762
2026-01-08 00:09:00.81	251.70	44.15	-16.7	-17.0	17.9	0.00e+00	0	41	0	33462157312	8	17395
2026-01-08 00:09:01.82	251.09	43.83	-17.1	-17.5	17.9	0.00e+00	0	41	0	33571209216	8	18287
2026-01-08 00:09:02.83	250.49	43.50	-16.5	-16.9	17.9	0.00e+00	0	41	0	33688649728	8	17149
2026-01-08 00:09:03.84	249.91	43.17	-16.3	-16.7	17.9	0.00e+00	0	41	0	33797701632	8	16721
2026-01-08 00:09:04.85	249.34	42.85	-16.1	-16.5	17.9	0.00e+00	0	41	0	33915142144	8	16334
2026-01-08 00:09:05.86	248.78	42.52	-16.2	-16.6	17.9	0.00e+00	0	41	0	34032582656	8	16547
2026-01-08 00:09:06.87	248.23	42.19	-16.3	-16.7	17.9	0.00e+00	0	41	0	34141634560	8	16726
2026-01-08 00:09:07.89	247.68	41.87	-15.8	-16.2	17.9	0.00e+00	0	41	0	34259075072	8	15857
2026-01-08 00:09:08.89	247.16	41.54	-16.0	-16.4	17.9	0.00e+00	0	41	0	34368126976	8	16120
2026-01-08 00:09:09.91	246.64	41.22	-15.6	-16.0	17.9	0.00e+00	0	41	0	34477178880	6	17336
2026-01-08 00:09:10.92	246.14	40.89	-15.6	-16.0	17.9	0.00e+00	0	41	0	34594619392	6	17305
2026-01-08 00:09:11.93	245.64	40.57	-15.5	-15.8	17.9	0.00e+00	0	41	0	34712059904	6	16996
2026-01-08 00:09:12.94	245.16	40.25	-15.5	-15.9	18.0	0.00e+00	0	41	0	34821111808	6	17189
2026-01-08 00:09:13.95	244.69	39.93	-15.6	-16.0	18.0	0.00e+00	0	41	0	34938552320	6	17395
2026-01-08 00:09:14.96	244.22	39.61	-15.8	-16.2	17.9	0.00e+00	0	42	0	35047604224	6	17703
2026-01-08 00:09:15.97	243.77	39.29	-15.5	-15.9	18.0	0.00e+00	0	41	0	35165044736	6	17021
2026-01-08 00:09:16.97	243.33	38.97	-15.6	-16.0	17.9	0.00e+00	0	41	0	35282485248	6	17322
2026-01-08 00:09:17.98	242.89	38.66	-15.5	-15.9	18.0	0.00e+00	0	41	0	35391537152	6	17120
2026-01-08 00:09:18.99	242.46	38.35	-15.5	-15.9	18.0	0.00e+00	0	41	0	35500589056	6	17177
2026-01-08 00:09:20.00	242.04	38.03	-15.6	-16.0	18.0	0.00e+00	0	41	0	35618029568	6	17376
2026-01-08 00:09:21.01	241.63	37.72	-15.7	-16.2	18.0	0.00e+00	0	41	0	35735470080	6	17606
2026-01-08 00:09:22.02	241.23	37.41	-15.9	-16.3	18.0	0.00e+00	0	41	0	35844521984	6	17834
2026-01-08 00:09:23.03	240.84	37.11	-16.0	-16.4	18.0	0.00e+00	0	41	0	35961962496	6	18109
2026-01-08 00:09:24.04	240.45	36.80	-16.1	-16.5	18.0	0.00e+00	0	41	0	36071014400	6	18273
2026-01-08 00:09:25.05	240.07	36.50	-16.3	-16.7	18.0	0.00e+00	0	41	0	36188454912	6	18743
2026-01-08 00:09:26.06	239.70	36.19	-16.4	-16.8	17.9	0.00e+00	0	41	0	36305895424	6	19055
2026-01-08 00:09:27.07	239.33	35.90	-16.3	-16.7	18.0	0.00e+00	0	41	0	36414947328	6	18800
2026-01-08 00:09:28.08	238.98	35.60	-16.3	-16.7	17.9	0.00e+00	0	41	0	36523999232	6	18802
2026-01-08 00:09:29.09	238.63	35.30	-16.6	-17.0	17.9	0.00e+00	0	41	0	36641439744	6	19356
2026-01-08 00:09:30.10	238.28	35.01	-16.6	-17.0	17.9	0.00e+00	0	41	0	36750491648	6	19313
2026-01-08 00:09:31.11	237.94	34.72	-16.9	-17.3	17.9	0.00e+00	0	41	0	36867932160	8	17835
2026-01-08 00:09:32.12	237.61	34.43	-17.0	-17.4	17.9	0.00e+00	0	41	0	36985372672	8	18087
2026-01-08 00:09:33.13	237.29	34.14	-16.9	-17.3	17.8	0.00e+00	0	41	0	37094424576	8	17897
2026-01-08 00:09:34.14	236.97	33.85	-17.1	-17.5	17.9	0.00e+00	0	41	0	37211865088	8	18361
2026-01-08 00:09:35.15	236.66	33.57	-17.1	-17.5	17.8	0.00e+00	0	41	0	37320916992	8	18384
2026-01-08 00:09:36.16	236.35	33.29	-17.2	-17.6	17.8	0.00e+00	0	41	0	37438357504	8	18599
2026-01-08 00:09:37.17	236.05	33.01	-17.3	-17.7	17.8	0.00e+00	0	41	0	37555798016	8	18838
2026-01-08 00:09:38.18	235.75	32.73	-17.3	-17.7	17.8	0.00e+00	0	41	0	37664849920	8	18735
2026-01-08 00:09:39.19	235.46	32.46	-17.5	-17.9	17.8	0.00e+00	0	41	0	37773901824	8	19151
2026-01-08 00:09:40.20	235.18	32.18	-17.5	-17.9	17.8	0.00e+00	0	41	0	37891342336	8	19237
2026-01-08 00:09:41.21	234.90	31.91	-17.6	-17.9	17.8	0.00e+00	0	41	0	38000394240	8	19265
2026-01-08 00:09:42.21	234.62	31.65	-17.7	-18.1	17.8	0.00e+00	0	41	0	38117834752	8	19576
2026-01-08 00:09:43.22	234.35	31.38	-17.7	-18.1	17.7	0.00e+00	0	41	0	38235275264	10	17558
2026-01-08 00:09:44.23	234.09	31.12	-17.8	-18.2	17.7	0.00e+00	0	41	0	38344327168	10	17656
2026-01-08 00:09:45.24	233.83	30.85	-17.8	-18.2	17.7	0.00e+00	0	41	0	38453379072	10	17797
2026-01-08 00:09:46.25	233.57	30.59	-18.0	-18.4	17.7	0.00e+00	0	41	0	38570819584	10	18053
2026-01-08 00:09:47.26	233.32	30.34	-18.1	-18.5	17.7	0.00e+00	0	41	0	38688260096	10	18367
2026-01-08 00:09:48.27	233.07	30.08	-18.2	-18.6	17.7	0.00e+00	0	41	0	38797312000	10	18595
2026-01-08 00:09:49.28	232.83	29.83	-18.3	-18.7	6.0	0.00e+00	0	41	0	38914752512	10	18805
2026-01-08 00:09:50.29	232.59	29.58	-49.6	-52.1	6.1	0.00e+00	0	41	104	38914752512	60	49331
2026-01-08 00:09:51.30	232.35	29.33	-49.6	-52.0	6.1	0.00e+00	0	41	104	38914752512	60	48979
2026-01-08 00:09:52.31	232.12	29.08	-49.6	-52.1	6.1	0.00e+00	0	41	104	38914752512	60	49063
2026-01-08 00:09:53.32	231.90	28.83	-49.6	-52.1	6.1	0.00e+00	0	41	104	38914752512	60	49201
2026-01-08 00:09:54.33	231.67	28.59	-49.6	-52.1	6.1	0.00e+00	0	41	104	38914752512	60	49204
2026-01-08 00:09:55.34	231.45	28.35	-49.6	-52.1	6.1	0.00e+00	0	41	104	38914752512	60	49372
2026-01-08 00:09:56.35	231.24	28.11	-49.6	-52.1	6.1	0.00e+00	0	41	104	38914752512	60	49231
2026-01-08 00:09:57.35	231.02	27.88	-49.6	-52.0	6.1	0.00e+00	0	41	104	38914752512	60	49025
2026-01-08 00:09:58.36	230.81	27.64	-49.6	-52.1	6.1	0.00e+00	0	41	104	38914752512	60	49291
2026-01-08 00:09:59.38	230.61	27.40	-49.6	-52.1	6.1	0.00e+00	0	41	104	38914752512	60	49321
2026-01-08 00:10:00.38	230.41	27.18	-49.6	-52.1	6.1	0.00e+00	0	41	104	38914752512	60	49509
2026-01-08 00:10:01.39	230.21	26.95	-49.6	-52.1	6.1	0.00e+00	0	41	104	38914752512	60	49298
2026-01-08 00:10:02.40	230.01	26.72	-49.6	-52.1	6.1	0.00e+00	0	41	104	38914752512	60	49312
2026-01-08 00:10:03.41	229.82	26.49	-49.6	-52.0	6.1	0.00e+00	0	41	104	38914752512	60	48801
2026-01-08 00:10:04.43	229.62	26.27	-49.6	-52.1	6.1	0.00e+00	0	41	104	38914752512	60	49380
2026-01-08 00:10:05.43	229.44	26.05	-49.6	-52.1	6.1	0.00e+00	0	41	104	38914752512	60	49195
2026-01-08 00:10:06.45	229.25	25.83	-49.6	-52.0	6.1	0.00e+00	0	41	104	38914752512	60	48965
2026-01-08 00:10:07.46	229.07	25.61	-49.6	-52.1	6.1	0.00e+00	0	41	104	38914752512	60	49122
2026-01-08 00:10:08.47	228.89	25.39	-49.6	-52.0	6.1	0.00e+00	0	41	104	38914752512	60	49024
2026-01-08 00:10:09.48	228.72	25.18	-49.6	-52.1	6.1	0.00e+00	0	41	104	38914752512	60	49200
2026-01-08 00:10:10.49	228.54	24.97	-49.6	-52.1	6.1	0.00e+00	0	41	104	38914752512	60	49277
2026-01-08 00:10:11.50	228.37	24.76	-49.6	-52.1	6.1	0.00e+00	0	41	104	38914752512	60	49337
2026-01-08 00:10:12.51	228.20	24.55	-49.6	-52.0	6.1	0.00e+00	0	41	104	38914752512	60	48868
2026-01-08 00:10:13.52	228.04	24.34	-49.6	-52.1	6.1	0.00e+00	0	41	104	38914752512	60	49244
2026-01-08 00:10:14.53	227.87	24.14	-49.6	-52.0	6.1	0.00e+00	0	41	104	38914752512	60	48981
2026-01-08 00:10:15.54	227.71	23.93	-49.6	-52.1	6.1	0.00e+00	0	41	104	38914752512	60	49128
2026-01-08 00:10:16.55	227.55	23.73	-49.6	-52.0	6.1	0.00e+00	0	41	104	38914752512	60	48997
2026-01-08 00:10:17.55	227.40	23.53	-49.5	-52.0	6.1	0.00e+00	0	41	104	38914752512	60	48697
2026-01-08 00:10:18.57	227.24	23.33	-49.5	-52.0	6.1	0.00e+00	0	41	104	38914752512	60	48488
2026-01-08 00:10:19.57	227.09	23.14	-49.6	-52.0	6.1	0.00e+00	0	41	104	38914752512	60	48835
2026-01-08 00:10:20.58	226.94	22.94	-49.6	-52.1	6.1	0.00e+00	0	41	104	38914752512	60	49173
2026-01-08 00:10:21.59	226.80	22.75	-49.6	-52.0	6.1	0.00e+00	0	41	104	38914752512	60	48843
2026-01-08 00:10:22.60	226.65	22.56	-49.6	-52.1	6.1	0.00e+00	0	41	104	38914752512	60	49095
2026-01-08 00:10:23.61	226.51	22.37	-49.6	-52.0	6.1	0.00e+00	0	41	104	38914752512	60	49039
2026-01-08 00:10:24.62	226.36	22.18	-49.6	-52.1	6.1	0.00e+00	0	41	104	38914752512	60	49086
2026-01-08 00:10:25.63	226.23	21.99	-49.5	-52.0	6.1	0.00e+00	0	41	104	38914752512	60	48675
2026-01-08 00:10:26.64	226.09	21.80	-49.5	-52.0	6.1	0.00e+00	0	41	104	38914752512	60	48612
2026-01-08 00:10:27.65	225.95	21.62	-49.5	-52.0	6.1	0.00e+00	0	41	104	38914752512	60	48787
2026-01-08 00:10:28.66	225.82	21.44	-49.6	-52.0	6.1	0.00e+00	0	41	104	38914752512	60	48981
2026-01-08 00:10:29.67	225.69	21.26	-49.4	-51.9	6.1	0.00e+00	0	41	104	38914752512	60	48249
2026-01-08 00:10:30.68	225.55	21.08	-49.4	-51.9	6.1	0.00e+00	0	41	104	38914752512	60	48421
2026-01-08 00:10:31.69	225.43	20.90	-49.4	-52.0	6.1	0.00e+00	0	41	104	38914752512	60	48561
2026-01-08 00:10:32.70	225.30	20.72	-49.5	-52.0	6.1	0.00e+00	0	41	104	38914752512	60	48853
2026-01-08 00:10:33.71	225.17	20.54	-49.4	-51.9	6.1	0.00e+00	0	41	104	38914752512	60	48006
2026-01-08 00:10:34.72	225.05	20.37	-49.5	-52.0	6.1	0.00e+00	0	41	104	38914752512	60	48765
2026-01-08 00:10:35.73	224.93	20.20	-49.5	-52.0	6.1	0.00e+00	0	41	104	38914752512	60	48964
2026-01-08 00:10:36.73	224.81	20.03	-49.5	-52.0	6.1	0.00e+00	0	41	104	38914752512	60	48853
2026-01-08 00:10:37.74	224.69	19.86	-49.4	-51.9	6.1	0.00e+00	0	41	104	38914752512	60	48446
2026-01-08 00:10:38.75	224.57	19.69	-49.5	-52.0	6.1	0.00e+00	0	41	104	38914752512	60	48650
2026-01-08 00:10:39.76	224.46	19.52	-49.5	-52.0	6.1	0.00e+00	0	41	104	38914752512	60	48588
2026-01-08 00:10:40.77	224.34	19.35	-49.5	-52.0	6.1	0.00e+00	0	41	104	38914752512	60	48565
2026-01-08 00:10:41.78	224.23	19.19	-49.4	-51.9	6.1	0.00e+00	0	41	104	38914752512	60	48184
2026-01-08 00:10:42.79	224.12	19.03	-49.5	-52.0	6.1	0.00e+00	0	41	104	38914752512	60	48992
2026-01-08 00:10:43.80	224.01	18.86	-49.5	-52.0	6.1	0.00e+00	0	41	104	38914752512	60	48816
2026-01-08 00:10:44.81	223.90	18.70	-49.4	-51.9	6.1	0.00e+00	0	41	104	38914752512	60	48295
2026-01-08 00:10:45.82	223.79	18.54	-49.5	-51.9	6.1	0.00e+00	0	41	104	38914752512	60	48289
2026-01-08 00:10:46.83	223.68	18.38	-49.4	-52.0	6.1	0.00e+00	0	41	104	38914752512	60	48566
2026-01-08 00:10:47.84	223.58	18.23	-49.5	-52.0	6.1	0.00e+00	0	41	104	38914752512	60	48644
2026-01-08 00:10:48.85	223.48	18.07	-49.4	-51.9	6.1	0.00e+00	0	41	104	38914752512	60	48395
2026-01-08 00:10:49.86	223.37	17.91	-49.4	-51.9	6.1	0.00e+00	0	41	104	38914752512	60	48434
2026-01-08 00:10:50.86	223.27	17.76	-49.4	-51.9	6.1	0.00e+00	0	41	104	38914752512	60	48293
2026-01-08 00:10:51.87	223.17	17.61	-49.4	-51.9	6.1	0.00e+00	0	41	104	38914752512	60	48031
2026-01-08 00:10:52.88	223.08	17.46	-49.4	-52.0	6.1	0.00e+00	0	41	104	38914752512	60	48682
2026-01-08 00:10:53.89	222.98	17.31	-49.5	-52.0	6.1	0.00e+00	0	41	104	38914752512	60	48624
2026-01-08 00:10:54.90	222.88	17.16	-49.5	-51.9	6.1	0.00e+00	0	41	104	38914752512	60	48250
2026-01-08 00:10:55.91	222.79	17.01	-49.4	-51.9	6.1	0.00e+00	0	41	104	38914752512	60	48329
2026-01-08 00:10:56.92	222.69	16.86	-49.4	-51.9	6.1	0.00e+00	0	41	104	38914752512	60	48244
2026-01-08 00:10:57.93	222.60	16.71	-49.4	-51.9	6.1	0.00e+00	0	41	104	38914752512	60	48103
2026-01-08 00:10:58.94	222.51	16.57	-49.5	-51.9	6.1	0.00e+00	0	41	104	38914752512	60	48293
2026-01-08 00:10:59.95	222.42	16.42	-49.4	-51.9	6.1	0.00e+00	0	41	104	38914752512	60	48261
2026-01-08 00:11:00.96	222.33	16.28	-49.4	-51.9	6.1	0.00e+00	0	41	104	38914752512	60	48103
2026-01-08 00:11:01.97	222.24	16.14	-49.4	-51.9	6.1	0.00e+00	0	41	104	38914752512	60	48321
2026-01-08 00:11:02.98	222.15	16.00	-49.4	-51.9	6.1	0.00e+00	0	41	104	38914752512	60	48382
2026-01-08 00:11:03.99	222.06	15.86	-49.4	-51.9	6.1	0.00e+00	0	41	104	38914752512	60	48157
2026-01-08 00:11:05.00	221.98	15.72	-49.4	-51.9	6.1	0.00e+00	0	41	104	38914752512	60	48205
2026-01-08 00:11:06.01	221.89	15.58	-49.4	-51.9	6.1	0.00e+00	0	41	104	38914752512	60	48335
2026-01-08 00:11:07.01	221.81	15.44	-49.4	-51.9	6.1	0.00e+00	0	41	104	38914752512	60	48230
2026-01-08 00:11:08.02	221.73	15.31	-49.4	-51.9	6.1	0.00e+00	0	41	104	38914752512	60	48061
2026-01-08 00:11:09.03	221.64	15.17	-49.4	-51.9	6.1	0.00e+00	0	41	104	38914752512	60	47999
2026-01-08 00:11:10.04	221.56	15.04	-49.3	-51.8	6.1	0.00e+00	0	41	104	38914752512	60	47570
2026-01-08 00:11:11.05	221.48	14.90	-49.4	-51.8	6.1	0.00e+00	0	41	104	38914752512	60	47905
2026-01-08 00:11:12.06	221.40	14.77	-49.4	-51.8	6.1	0.00e+00	0	41	104	38914752512	60	47633
2026-01-08 00:11:13.07	221.32	14.64	-49.3	-51.8	6.0	0.00e+00	0	41	104	38914752512	60	47593
2026-01-08 00:11:14.07	221.25	14.51	-49.3	-51.8	6.1	0.00e+00	0	41	104	38914752512	60	47699
2026-01-08 00:11:15.08	221.17	14.38	-49.3	-51.8	6.1	0.00e+00	0	41	104	38914752512	60	47798
2026-01-08 00:11:16.09	221.09	14.25	-49.3	-51.8	6.1	0.00e+00	0	41	104	38914752512	60	47629
2026-01-08 00:11:17.10	221.02	14.12	-49.3	-51.8	6.1	0.00e+00	0	41	104	38914752512	60	47898
2026-01-08 00:11:18.11	220.94	13.99	-49.1	-51.6	6.1	0.00e+00	0	41	104	38914752512	60	46500
2026-01-08 00:11:19.12	220.87	13.86	-49.3	-51.8	6.1	0.00e+00	0	41	104	38914752512	60	47479
2026-01-08 00:11:20.13	220.80	13.74	-49.3	-51.8	6.1	0.00e+00	0	41	104	38914752512	60	47631
2026-01-08 00:11:21.14	220.73	13.61	-49.2	-51.7	6.1	0.00e+00	0	41	104	38914752512	60	47238
2026-01-08 00:11:22.15	220.65	13.49	-49.3	-51.8	6.1	0.00e+00	0	41	104	38914752512	60	47809
2026-01-08 00:11:23.16	220.58	13.36	-49.3	-51.8	6.1	0.00e+00	0	41	104	38914752512	60	47751
2026-01-08 00:11:24.17	220.51	13.24	-49.2	-51.7	6.1	0.00e+00	0	41	104	38914752512	60	47183
2026-01-08 00:11:25.18	220.44	13.12	-49.3	-51.8	6.1	0.00e+00	0	41	104	38914752512	60	47605
2026-01-08 00:11:26.19	220.38	13.00	-49.3	-51.8	6.1	0.00e+00	0	41	104	38914752512	60	47663
2026-01-08 00:11:27.20	220.31	12.88	-49.1	-51.6	6.1	0.00e+00	0	41	104	38914752512	60	46698
2026-01-08 00:11:28.21	220.24	12.76	-49.3	-51.7	6.1	0.00e+00	0	41	104	38914752512	60	47193
2026-01-08 00:11:29.22	220.18	12.64	-49.3	-51.7	6.1	0.00e+00	0	41	104	38914752512	60	47077
2026-01-08 00:11:30.22	220.11	12.52	-49.3	-51.7	6.1	0.00e+00	0	41	104	38914752512	60	47229
2026-01-08 00:11:31.23	220.04	12.40	-49.3	-51.8	6.1	0.00e+00	0	41	104	38914752512	60	47597
2026-01-08 00:11:32.24	219.98	12.28	-49.3	-51.7	6.1	0.00e+00	0	41	104	38914752512	60	47251
2026-01-08 00:11:33.25	219.92	12.17	-49.3	-51.7	6.1	0.00e+00	0	41	104	38914752512	60	47300
2026-01-08 00:11:34.26	219.85	12.05	-49.2	-51.7	6.1	0.00e+00	0	41	104	38914752512	60	47269
2026-01-08 00:11:35.27	219.79	11.94	-49.3	-51.8	6.1	0.00e+00	0	41	104	38914752512	60	47501
2026-01-08 00:11:36.28	219.73	11.82	-49.3	-51.7	6.1	0.00e+00	0	41	104	38914752512	60	47225
2026-01-08 00:11:37.28	219.67	11.71	-49.3	-51.7	6.1	0.00e+00	0	41	104	38914752512	60	47205
2026-01-08 00:11:38.29	219.61	11.60	-49.2	-51.6	6.1	0.00e+00	0	41	104	38914752512	60	46701
2026-01-08 00:11:39.30	219.55	11.49	-49.2	-51.7	6.1	0.00e+00	0	41	104	38914752512	60	47298
2026-01-08 00:11:40.31	219.49	11.37	-49.3	-51.7	6.1	0.00e+00	0	41	104	38914752512	60	47297
2026-01-08 00:11:41.32	219.43	11.26	-49.2	-51.6	6.1	0.00e+00	0	41	104	38914752512	60	46740
2026-01-08 00:11:42.32	219.37	11.15	-49.2	-51.7	6.1	0.00e+00	0	41	104	38914752512	60	46904
2026-01-08 00:11:43.33	219.31	11.04	-49.2	-51.7	6.1	0.00e+00	0	41	104	38914752512	60	47250
2026-01-08 00:11:44.34	219.26	10.93	-49.0	-51.5	6.1	0.00e+00	0	41	104	38914752512	60	46237
2026-01-08 00:11:45.35	219.20	10.83	-49.2	-51.7	6.1	0.00e+00	0	41	104	38914752512	60	46922
2026-01-08 00:11:46.36	219.14	10.72	-49.1	-51.6	6.1	0.00e+00	0	41	104	38914752512	60	46643
2026-01-08 00:11:47.37	219.09	10.61	-49.2	-51.6	6.1	0.00e+00	0	41	104	38914752512	60	46757
2026-01-08 00:11:48.38	219.03	10.50	-49.2	-51.7	6.1	0.00e+00	0	41	104	38914752512	60	47057
2026-01-08 00:11:49.39	218.98	10.40	-49.2	-51.6	6.1	0.00e+00	0	41	104	38914752512	60	46751
2026-01-08 00:11:50.40	218.92	10.29	-49.2	-51.7	6.1	0.00e+00	0	41	104	38914752512	60	46873
2026-01-08 00:11:51.40	218.87	10.19	-49.2	-51.7	6.1	0.00e+00	0	41	104	38914752512	60	47146
2026-01-08 00:11:52.41	218.82	10.08	-49.2	-51.7	6.1	0.00e+00	0	41	104	38914752512	60	46849
2026-01-08 00:11:53.42	218.76	9.98	-49.0	-51.5	6.1	0.00e+00	0	41	104	38914752512	60	46280
2026-01-08 00:11:54.43	218.71	9.87	-49.1	-51.6	6.1	0.00e+00	0	41	104	38914752512	60	46656
2026-01-08 00:11:55.43	218.66	9.77	-49.2	-51.7	6.1	0.00e+00	0	41	104	38914752512	60	46844
2026-01-08 00:11:56.44	218.61	9.67	-49.2	-51.7	6.1	0.00e+00	0	41	104	38914752512	60	46913
2026-01-08 00:11:57.45	218.56	9.57	-49.1	-51.6	6.1	0.00e+00	0	41	104	38914752512	60	46486
2026-01-08 00:11:58.46	218.51	9.47	-49.0	-51.5	6.1	0.00e+00	0	41	104	38914752512	60	46095
2026-01-08 00:11:59.47	218.46	9.37	-49.1	-51.6	6.1	0.00e+00	0	41	104	38914752512	60	46613
2026-01-08 00:12:00.48	218.41	9.27	-49.0	-51.6	6.1	0.00e+00	0	41	104	38914752512	60	46582
2026-01-08 00:12:01.49	218.36	9.17	-49.1	-51.6	6.1	0.00e+00	0	41	104	38914752512	60	46478
2026-01-08 00:12:02.50	218.31	9.07	-49.0	-51.5	6.0	0.00e+00	0	41	104	38914752512	60	45958
2026-01-08 00:12:03.51	218.26	8.97	-49.0	-51.5	6.1	0.00e+00	0	41	104	38914752512	60	46110
2026-01-08 00:12:04.52	218.21	8.87	-49.0	-51.5	6.1	0.00e+00	0	41	104	38914752512	60	45953
2026-01-08 00:12:05.53	218.17	8.77	-49.0	-51.5	6.1	0.00e+00	0	41	104	38914752512	60	46165
2026-01-08 00:12:06.53	218.12	8.68	-48.9	-51.4	6.1	0.00e+00	0	41	104	38914752512	60	45582
2026-01-08 00:12:07.54	218.07	8.58	-49.0	-51.5	6.1	0.00e+00	0	41	104	38914752512	60	46039
2026-01-08 00:12:08.55	218.03	8.48	-48.8	-51.4	6.1	0.00e+00	0	41	104	38914752512	60	45369
2026-01-08 00:12:09.56	217.98	8.39	-49.0	-51.5	6.1	0.00e+00	0	41	104	38914752512	60	46082
2026-01-08 00:12:10.57	217.94	8.29	-48.9	-51.4	6.1	0.00e+00	0	41	104	38914752512	60	45524
2026-01-08 00:12:11.58	217.89	8.20	-48.8	-51.3	6.1	0.00e+00	0	41	104	38914752512	60	45123
2026-01-08 00:12:12.59	217.85	8.10	-49.0	-51.4	6.1	0.00e+00	0	41	104	38914752512	60	45688
2026-01-08 00:12:13.60	217.80	8.01	-49.0	-51.4	6.1	0.00e+00	0	41	104	38914752512	60	45610
2026-01-08 00:12:14.61	217.76	7.92	-48.9	-51.4	6.0	0.00e+00	0	41	104	38914752512	60	45690
2026-01-08 00:12:15.61	217.72	7.82	-48.8	-51.3	6.1	0.00e+00	0	41	104	38914752512	60	44986
2026-01-08 00:12:16.63	217.67	7.73	-49.0	-51.5	6.1	0.00e+00	0	41	104	38914752512	60	45950
2026-01-08 00:12:17.64	217.63	7.64	-48.9	-51.4	6.1	0.00e+00	0	41	104	38914752512	60	45316
2026-01-08 00:12:18.65	217.59	7.55	-49.0	-51.4	6.1	0.00e+00	0	41	104	38914752512	60	45523
2026-01-08 00:12:19.66	217.55	7.45	-48.8	-51.3	6.1	0.00e+00	0	41	104	38914752512	60	45169
2026-01-08 00:12:20.67	217.50	7.36	-48.9	-51.4	6.1	0.00e+00	0	41	104	38914752512	60	45298
2026-01-08 00:12:21.68	217.46	7.27	-48.9	-51.3	6.1	0.00e+00	0	41	104	38914752512	60	45231
2026-01-08 00:12:22.69	217.42	7.18	-48.9	-51.4	6.1	0.00e+00	0	41	104	38914752512	60	45520
2026-01-08 00:12:23.70	217.38	7.09	-49.0	-51.5	6.1	0.00e+00	0	41	104	38914752512	60	45843
2026-01-08 00:12:24.71	217.34	7.00	-48.9	-51.3	6.1	0.00e+00	0	41	104	38914752512	60	45166
2026-01-08 00:12:25.72	217.30	6.92	-48.7	-51.2	6.1	0.00e+00	0	41	104	38914752512	60	44664
2026-01-08 00:12:26.73	217.26	6.83	-48.9	-51.4	6.1	0.00e+00	0	41	104	38914752512	60	45275
2026-01-08 00:12:27.74	217.22	6.74	-48.9	-51.4	6.0	0.00e+00	0	41	104	38914752512	60	45283
2026-01-08 00:12:28.75	217.18	6.65	-48.7	-51.2	6.1	0.00e+00	0	41	104	38914752512	60	44653
2026-01-08 00:12:29.75	217.15	6.56	-48.6	-51.1	6.1	0.00e+00	0	41	104	38914752512	60	43790
2026-01-08 00:12:30.76	217.11	6.48	-48.9	-51.3	6.1	0.00e+00	0	41	104	38914752512	60	44914
2026-01-08 00:12:31.77	217.07	6.39	-48.9	-51.3	6.1	0.00e+00	0	41	104	38914752512	60	44897
2026-01-08 00:12:32.78	217.03	6.30	-48.5	-51.1	6.1	0.00e+00	0	41	104	38914752512	60	43778
2026-01-08 00:12:33.79	216.99	6.22	-48.5	-51.0	6.1	0.00e+00	0	41	104	38914752512	60	43469
2026-01-08 00:12:34.80	216.96	6.13	-48.7	-51.2	6.1	0.00e+00	0	41	104	38914752512	60	44436
2026-01-08 00:12:35.80	216.92	6.05	-48.7	-51.2	6.1	0.00e+00	0	41	104	38914752512	60	44508
2026-01-08 00:12:36.81	216.88	5.96	-48.5	-51.0	6.1	0.00e+00	0	41	104	38914752512	60	43436
2026-01-08 00:12:37.83	216.85	5.88	-48.6	-51.1	6.1	0.00e+00	0	41	104	38914752512	60	43902
2026-01-08 00:12:38.83	216.81	5.80	-48.6	-51.1	6.1	0.00e+00	0	41	104	38914752512	60	44136
2026-01-08 00:12:39.84	216.78	5.71	-48.6	-51.1	6.1	0.00e+00	0	41	104	38914752512	60	44043
2026-01-08 00:12:40.85	216.74	5.63	-48.6	-51.1	6.1	0.00e+00	0	41	104	38914752512	60	43761
2026-01-08 00:12:41.86	216.70	5.55	-48.5	-51.0	6.1	0.00e+00	0	41	104	38914752512	60	43269
2026-01-08 00:12:42.87	216.67	5.46	-48.5	-51.1	6.1	0.00e+00	0	41	104	38914752512	60	43850
2026-01-08 00:12:43.88	216.64	5.38	-48.7	-51.2	6.0	0.00e+00	0	41	104	38914752512	60	44275
2026-01-08 00:12:44.89	216.60	5.30	-48.5	-51.0	6.1	0.00e+00	0	41	104	38914752512	60	43631
2026-01-08 00:12:45.90	216.57	5.22	-48.5	-51.0	6.1	0.00e+00	0	41	104	38914752512	60	43603
2026-01-08 00:12:46.91	216.53	5.14	-48.6	-51.1	6.1	0.00e+00	0	41	104	38914752512	60	43881
2026-01-08 00:12:47.91	216.50	5.05	-48.6	-51.1	6.1	0.00e+00	0	41	104	38914752512	60	44093
2026-01-08 00:12:48.93	216.47	4.97	-48.5	-51.0	6.1	0.00e+00	0	41	104	38914752512	60	43320
2026-01-08 00:12:49.93	216.43	4.89	-48.5	-51.0	6.1	0.00e+00	0	41	104	38914752512	60	43394
2026-01-08 00:12:50.94	216.40	4.81	-48.5	-51.0	6.1	0.00e+00	0	41	104	38914752512	60	43288
2026-01-08 00:12:51.94	216.37	4.73	-48.5	-51.0	6.1	0.00e+00	0	41	104	38914752512	60	43490
2026-01-08 00:12:52.95	216.34	4.65	-48.5	-51.0	6.1	0.00e+00	0	41	104	38914752512	60	43424
2026-01-08 00:12:53.96	216.30	4.58	-48.4	-50.9	6.1	0.00e+00	0	41	104	38914752512	60	43107
2026-01-08 00:12:54.97	216.27	4.50	-48.5	-51.0	6.1	0.00e+00	0	41	104	38914752512	60	43472
2026-01-08 00:12:55.98	216.24	4.42	-48.5	-51.0	6.1	0.00e+00	0	41	104	38914752512	60	43324
2026-01-08 00:12:56.99	216.21	4.34	-48.3	-50.8	6.1	0.00e+00	0	41	104	38914752512	60	42545
2026-01-08 00:12:57.99	216.18	4.26	-48.3	-50.8	6.0	0.00e+00	0	41	104	38914752512	60	42426
2026-01-08 00:12:59.00	216.15	4.18	-48.6	-51.1	6.1	0.00e+00	0	41	104	38914752512	60	43871
2026-01-08 00:13:00.01	216.12	4.11	-48.5	-51.0	6.1	0.00e+00	0	41	104	38914752512	60	43373
2026-01-08 00:13:01.02	216.09	4.03	-48.3	-50.7	6.1	0.00e+00	0	41	104	38914752512	60	42108
2026-01-08 00:13:02.03	216.06	3.95	-48.2	-50.7	6.1	0.00e+00	0	41	104	38914752512	60	41824
2026-01-08 00:13:03.04	216.03	3.88	-48.5	-51.0	6.1	0.00e+00	0	41	104	38914752512	60	43489
2026-01-08 00:13:04.05	216.00	3.80	-48.3	-50.8	6.1	0.00e+00	0	41	104	38914752512	60	42543
2026-01-08 00:13:05.05	215.97	3.73	-48.2	-50.7	6.1	0.00e+00	0	41	104	38914752512	60	42009
2026-01-08 00:13:06.06	215.94	3.65	-48.1	-50.6	6.1	0.00e+00	0	41	104	38914752512	60	41713
2026-01-08 00:13:07.07	215.91	3.57	-48.4	-50.9	6.1	0.00e+00	0	41	104	38914752512	60	42878
2026-01-08 00:13:08.08	215.88	3.50	-48.3	-50.8	6.1	0.00e+00	0	41	104	38914752512	60	42463
2026-01-08 00:13:09.09	215.85	3.42	-48.2	-50.6	6.1	0.00e+00	0	41	104	38914752512	60	41690
2026-01-08 00:13:10.10	215.82	3.35	-48.0	-50.5	6.1	0.00e+00	0	41	104	38914752512	60	41081
2026-01-08 00:13:11.11	215.79	3.27	-48.3	-50.8	6.1	0.00e+00	0	41	104	38914752512	60	42563
2026-01-08 00:13:12.12	215.77	3.20	-48.3	-50.7	6.1	0.00e+00	0	41	104	38914752512	60	41975
2026-01-08 00:13:13.13	215.74	3.13	-48.1	-50.5	6.0	0.00e+00	0	41	104	38914752512	60	41232
2026-01-08 00:13:14.14	215.71	3.05	-48.0	-50.4	6.1	0.00e+00	0	41	104	38914752512	60	40729
2026-01-08 00:13:15.15	215.68	2.98	-48.6	-51.0	6.1	0.00e+00	0	41	104	38914752512	60	43595
2026-01-08 00:13:16.16	215.65	2.91	-49.1	-51.6	6.1	0.00e+00	0	41	104	38914752512	60	46466
2026-01-08 00:13:17.17	215.63	2.83	-49.3	-51.8	6.1	0.00e+00	0	41	104	38914752512	60	47496
2026-01-08 00:13:18.18	215.60	2.76	-49.5	-52.0	6.1	0.00e+00	0	41	104	38914752512	60	48516
2026-01-08 00:13:19.19	215.57	2.69	-49.6	-52.0	6.1	0.00e+00	0	41	104	38914752512	60	48826
2026-01-08 00:13:20.20	215.55	2.62	-49.6	-52.0	6.1	0.00e+00	0	41	104	38914752512	60	48957
2026-01-08 00:13:21.21	215.52	2.54	-49.7	-52.2	6.1	0.00e+00	0	41	104	38914752512	60	50118
2026-01-08 00:13:22.22	215.49	2.47	-49.7	-52.2	6.1	0.00e+00	0	41	104	38914752512	60	50062
2026-01-08 00:13:23.23	215.47	2.40	-49.7	-52.2	6.1	0.00e+00	0	41	104	38914752512	60	49687
2026-01-08 00:13:24.24	215.44	2.33	-49.6	-52.1	6.1	0.00e+00	0	41	104	38914752512	60	49498
2026-01-08 00:13:25.25	215.42	2.26	-49.4	-51.9	6.1	0.00e+00	0	41	104	38914752512	60	48168
2026-01-08 00:13:26.25	215.39	2.19	-49.6	-52.1	6.1	0.00e+00	0	41	104	38914752512	60	49069
2026-01-08 00:13:27.26	215.37	2.12	-49.6	-52.0	6.1	0.00e+00	0	41	104	38914752512	60	49016
2026-01-08 00:13:28.27	215.34	2.05	-49.5	-52.0	6.1	0.00e+00	0	41	104	38914752512	60	49036
2026-01-08 00:13:29.28	215.32	1.98	-49.6	-52.1	6.1	0.00e+00	0	41	104	38914752512	60	49174
2026-01-08 00:13:30.29	215.29	1.91	-49.3	-51.9	6.1	0.00e+00	0	41	104	38914752512	60	47989
2026-01-08 00:13:31.31	215.27	1.84	-49.5	-52.0	6.1	0.00e+00	0	41	104	38914752512	60	48861
2026-01-08 00:13:32.32	215.24	1.77	-49.7	-52.2	6.1	0.00e+00	0	41	104	38914752512	60	49760
2026-01-08 00:13:33.32	215.22	1.70	-49.7	-52.2	6.1	0.00e+00	0	41	104	38914752512	60	49670
2026-01-08 00:13:34.33	215.19	1.63	-49.6	-52.1	6.1	0.00e+00	0	41	104	38914752512	60	49405
2026-01-08 00:13:35.34	215.17	1.56	-49.6	-52.1	6.1	0.00e+00	0	41	104	38914752512	60	49305
2026-01-08 00:13:36.35	215.15	1.49	-49.7	-52.1	6.1	0.00e+00	0	41	104	38914752512	60	49514
2026-01-08 00:13:37.36	215.12	1.42	-49.6	-52.1	6.1	0.00e+00	0	41	104	38914752512	60	49241
2026-01-08 00:13:38.37	215.10	1.36	-49.6	-52.1	6.1	0.00e+00	0	41	104	38914752512	60	49465
2026-01-08 00:13:39.39	215.07	1.29	-49.6	-52.1	6.1	0.00e+00	0	41	104	38914752512	60	49346
2026-01-08 00:13:40.40	215.05	1.22	-49.6	-52.1	6.1	0.00e+00	0	41	104	38914752512	60	49316
2026-01-08 00:13:41.41	215.03	1.15	-49.6	-52.1	6.1	0.00e+00	0	41	104	38914752512	60	49490
2026-01-08 00:13:42.42	215.01	1.08	-49.6	-52.0	6.1	0.00e+00	0	41	104	38914752512	60	48998
2026-01-08 00:13:43.43	214.98	1.02	-49.6	-52.1	6.1	0.00e+00	0	41	104	38914752512	60	49358
2026-01-08 00:13:44.44	214.96	0.95	-49.6	-52.1	6.1	0.00e+00	0	41	104	38914752512	60	49364
2026-01-08 00:13:45.45	214.94	0.88	-49.6	-52.1	6.1	0.00e+00	0	41	104	38914752512	60	49239
2026-01-08 00:13:46.46	214.92	0.82	-49.6	-52.1	6.1	0.00e+00	0	41	104	38914752512	60	49417
2026-01-08 00:13:47.47	214.89	0.75	-49.6	-52.0	6.1	0.00e+00	0	41	104	38914752512	60	49013
2026-01-08 00:13:48.48	214.87	0.68	-49.6	-52.1	6.1	0.00e+00	0	41	104	38914752512	60	49131
2026-01-08 00:13:49.49	214.85	0.62	-49.6	-52.0	6.1	0.00e+00	0	41	104	38914752512	60	48972
2026-01-08 00:13:50.50	214.83	0.55	-49.6	-52.1	6.1	0.00e+00	0	41	104	38914752512	60	49196
2026-01-08 00:13:51.51	214.81	0.49	-49.6	-52.1	6.1	0.00e+00	0	40	104	38914752512	60	49465
2026-01-08 00:13:52.52	214.78	0.42	-49.6	-52.1	6.1	0.00e+00	0	41	104	38914752512	60	49258
2026-01-08 00:13:53.53	214.76	0.35	-49.6	-52.1	6.1	0.00e+00	0	41	104	38914752512	60	49162
2026-01-08 00:13:54.54	214.74	0.29	-49.6	-52.1	6.1	0.00e+00	0	41	104	38914752512	60	49377
2026-01-08 00:13:55.55	214.72	0.22	-49.6	-52.0	6.1	0.00e+00	0	40	104	38914752512	60	48877
2026-01-08 00:13:56.56	214.70	0.16	-49.6	-52.1	6.1	0.00e+00	0	41	104	38914752512	60	49402
2026-01-08 00:13:57.56	214.68	0.10	-49.6	-52.0	6.1	0.00e+00	0	41	104	38914752512	60	49015
2026-01-08 00:13:58.57	214.66	0.03	-49.6	-52.1	6.1	0.00e+00	0	41	104	38914752512	60	49110
2026-01-08 00:13:59.58	214.64	-0.03	-49.6	-52.1	6.1	0.00e+00	0	41	104	38914752512	60	49297
2026-01-08 00:14:00.59	214.62	-0.10	-49.6	-52.1	6.1	0.00e+00	0	41	104	38914752512	60	49137

#Closed at: 2026-01-08 00:14:00
#Recorded file [38914 MB]: D:/lorett/data/35029_260108_120258.dat