passes_logs/2026/01/08/R4.6S_Anadyr/R4.6S_Anadyr__20260108_141827_AQUA_rec.log

#Pass ID: 20260108_141827_AQUA
#Satellite: AQUA
#Configuration: AQUA
#almurnet v.1.7.20251203
#Start time: 2026-01-08 14:18:30

#Version: 2.2.20231116
#Station: R4.6S_Anadyr
#Location: 177.4865 lon 64.73178 lat
#TLE: 1 27424U 02022A   26004.96787593  .00001598  00000+0  32997-3 0  9996
#TLE: 2 27424  98.4069 331.2279 0002002  90.2377   0.6092 14.61798176259425

#Time	Az	El	Level	Level2	SNR	BER	BlckErr	Temp	State	Recorded	gain1	gain2
2026-01-08 14:18:30.32	21.25	0.16	-48.8	-65.2	3.3	3.02e+01	0	31	0	0	60	70074
2026-01-08 14:18:31.33	21.33	0.21	-48.8	-66.7	3.5	3.02e+01	0	31	104	0	60	83449
2026-01-08 14:18:32.34	21.41	0.26	-48.9	-66.8	3.5	3.02e+01	0	31	104	0	60	83793
2026-01-08 14:18:33.35	21.49	0.31	-48.7	-66.8	3.5	3.02e+01	0	31	104	0	60	84058
2026-01-08 14:18:34.36	21.57	0.37	-48.8	-66.7	3.5	3.02e+01	0	31	104	0	60	83253
2026-01-08 14:18:35.37	21.65	0.42	-48.6	-66.7	3.5	3.02e+01	0	31	104	0	60	83111
2026-01-08 14:18:36.38	21.73	0.47	-48.6	-66.6	3.5	3.02e+01	0	31	104	0	60	82239
2026-01-08 14:18:37.38	21.81	0.52	-48.5	-66.5	3.5	3.02e+01	0	31	104	0	60	81190
2026-01-08 14:18:38.40	21.90	0.58	-48.5	-66.4	3.5	3.02e+01	0	31	104	0	60	80485
2026-01-08 14:18:39.41	21.98	0.63	-48.4	-66.3	3.5	3.02e+01	0	31	104	0	60	79565
2026-01-08 14:18:40.42	22.06	0.68	-48.2	-66.1	3.5	3.02e+01	0	31	104	0	60	77866
2026-01-08 14:18:41.42	22.14	0.73	-47.9	-65.9	3.5	3.02e+01	0	31	104	0	60	75887
2026-01-08 14:18:42.44	22.22	0.79	-47.6	-65.4	3.5	3.02e+01	0	31	104	0	60	72007
2026-01-08 14:18:43.44	22.31	0.84	-47.2	-65.0	3.5	3.02e+01	0	31	104	0	60	68129
2026-01-08 14:18:44.45	22.39	0.89	-47.2	-65.0	3.5	3.02e+01	0	31	104	0	60	68193
2026-01-08 14:18:45.46	22.47	0.94	-47.2	-65.0	3.5	3.02e+01	0	31	104	0	60	68630
2026-01-08 14:18:46.47	22.56	1.00	-47.2	-65.1	3.5	3.02e+01	0	31	104	0	60	69020
2026-01-08 14:18:47.48	22.64	1.05	-47.2	-65.1	3.5	3.02e+01	0	31	104	0	60	69090
2026-01-08 14:18:48.49	22.72	1.10	-47.2	-65.1	3.5	3.02e+01	0	31	104	0	60	69468
2026-01-08 14:18:49.50	22.81	1.16	-47.2	-65.1	3.5	3.02e+01	0	31	104	0	60	68971
2026-01-08 14:18:50.51	22.89	1.21	-47.2	-65.1	3.5	3.02e+01	0	31	104	0	60	68900
2026-01-08 14:18:51.52	22.98	1.26	-47.2	-64.9	3.5	3.02e+01	0	31	104	0	60	67826
2026-01-08 14:18:52.53	23.06	1.32	-47.2	-65.0	3.5	3.02e+01	0	31	104	0	60	68076
2026-01-08 14:18:53.54	23.15	1.37	-47.2	-64.9	3.5	3.02e+01	0	31	104	0	60	67998
2026-01-08 14:18:54.55	23.24	1.42	-47.2	-64.9	3.5	3.02e+01	0	31	104	0	60	67539
2026-01-08 14:18:55.55	23.32	1.48	-47.2	-64.9	3.5	3.02e+01	0	31	104	0	60	67566
2026-01-08 14:18:56.57	23.41	1.53	-47.2	-65.0	3.5	3.02e+01	0	32	104	0	60	68190
2026-01-08 14:18:57.57	23.50	1.58	-47.2	-65.0	3.5	3.02e+01	0	32	104	0	60	68622
2026-01-08 14:18:58.59	23.59	1.64	-47.2	-65.0	3.5	3.02e+01	0	31	104	0	60	68810
2026-01-08 14:18:59.59	23.67	1.69	-47.2	-65.1	3.5	3.02e+01	0	31	104	0	60	69443
2026-01-08 14:19:00.60	23.76	1.74	-47.2	-65.0	3.5	3.02e+01	0	31	104	0	60	68737
2026-01-08 14:19:01.61	23.85	1.80	-47.2	-65.0	3.5	3.02e+01	0	31	104	0	60	68291
2026-01-08 14:19:02.62	23.94	1.85	-47.2	-64.9	3.5	3.02e+01	0	32	104	0	60	67439
2026-01-08 14:19:03.63	24.03	1.91	-47.2	-64.7	3.5	3.02e+01	0	31	104	0	60	66182
2026-01-08 14:19:04.64	24.12	1.96	-47.2	-65.0	3.5	3.02e+01	0	31	104	0	60	68646
2026-01-08 14:19:05.65	24.21	2.01	-47.2	-65.1	3.5	3.02e+01	0	32	104	0	60	68991
2026-01-08 14:19:06.66	24.30	2.07	-47.2	-65.0	3.5	3.02e+01	0	31	104	0	60	68765
2026-01-08 14:19:07.67	24.39	2.12	-47.2	-65.1	3.5	3.02e+01	0	31	104	0	60	68878
2026-01-08 14:19:08.68	24.48	2.18	-47.2	-65.0	3.5	3.02e+01	0	31	104	0	60	68450
2026-01-08 14:19:09.69	24.57	2.23	-47.2	-65.1	3.5	3.02e+01	0	32	104	0	60	69079
2026-01-08 14:19:10.70	24.66	2.28	-47.2	-65.0	3.5	3.02e+01	0	32	104	0	60	68381
2026-01-08 14:19:11.70	24.75	2.34	-47.1	-64.8	3.5	3.02e+01	0	32	104	0	60	66580
2026-01-08 14:19:12.71	24.84	2.39	-47.1	-64.4	3.5	3.02e+01	0	32	104	0	60	64068
2026-01-08 14:19:13.72	24.94	2.45	-47.1	-64.4	3.5	3.02e+01	0	32	104	0	60	63875
2026-01-08 14:19:14.73	25.03	2.50	-47.0	-64.4	3.5	3.02e+01	0	32	104	0	60	63816
2026-01-08 14:19:15.74	25.12	2.56	-46.6	-62.3	3.5	3.02e+01	0	32	104	0	60	50129
2026-01-08 14:19:16.75	25.22	2.61	-45.1	-58.3	3.6	3.02e+01	0	32	104	0	60	31663
2026-01-08 14:19:17.76	25.31	2.67	-43.1	-54.7	3.5	3.02e+01	0	32	104	0	60	20978
2026-01-08 14:19:18.77	25.41	2.72	-41.2	-52.1	4.0	3.02e+01	0	31	104	0	58	17351
2026-01-08 14:19:19.78	25.50	2.78	-39.9	-50.5	4.0	3.02e+01	0	32	104	0	56	16262
2026-01-08 14:19:20.79	25.60	2.83	-38.9	-49.3	3.4	3.02e+01	0	32	104	0	52	17753
2026-01-08 14:19:21.80	25.69	2.89	-39.2	-49.7	4.0	3.02e+01	0	32	104	0	52	18662
2026-01-08 14:19:22.81	25.79	2.94	-39.8	-50.4	3.7	3.02e+01	0	32	104	0	52	20233
2026-01-08 14:19:23.82	25.88	3.00	-41.5	-52.4	4.0	3.02e+01	0	32	104	0	56	20284
2026-01-08 14:19:24.83	25.98	3.05	-43.5	-55.4	3.6	3.02e+01	0	32	104	0	60	22673
2026-01-08 14:19:25.84	26.08	3.11	-39.2	-49.9	3.5	3.02e+01	0	32	104	0	54	17048
2026-01-08 14:19:26.84	26.17	3.16	-46.8	-64.0	3.5	3.02e+01	0	32	104	0	60	60824
2026-01-08 14:19:27.85	26.27	3.22	-43.6	-55.6	3.5	3.02e+01	0	32	104	0	60	23253
2026-01-08 14:19:28.86	26.37	3.27	-42.8	-54.4	3.5	3.02e+01	0	32	104	0	60	20257
2026-01-08 14:19:29.87	26.47	3.33	-47.0	-64.6	3.5	3.02e+01	0	32	104	0	60	65009
2026-01-08 14:19:30.88	26.57	3.39	-43.6	-55.5	3.5	3.02e+01	0	32	104	0	60	23048
2026-01-08 14:19:31.89	26.67	3.44	-42.9	-54.4	3.5	3.02e+01	0	32	104	0	60	20192
2026-01-08 14:19:32.90	26.77	3.50	-43.3	-54.9	3.5	3.02e+01	0	32	104	0	60	21456
2026-01-08 14:19:33.91	26.87	3.55	-42.8	-54.3	3.5	3.02e+01	0	32	104	0	60	19897
2026-01-08 14:19:34.91	26.97	3.61	-38.9	-49.5	3.5	3.02e+01	0	32	104	0	52	18151
2026-01-08 14:19:35.93	27.07	3.66	-45.3	-58.5	3.5	3.02e+01	0	32	104	0	60	32505
2026-01-08 14:19:36.94	27.17	3.72	-47.0	-64.5	3.5	3.02e+01	0	32	104	0	60	64269
2026-01-08 14:19:37.94	27.27	3.78	-40.2	-51.0	3.5	3.02e+01	0	32	104	0	56	17170
2026-01-08 14:19:38.95	27.37	3.83	-47.1	-64.7	3.5	3.02e+01	0	32	104	0	60	66465
2026-01-08 14:19:39.96	27.47	3.89	-40.2	-51.1	3.5	3.02e+01	0	32	104	0	56	17399
2026-01-08 14:19:40.97	27.58	3.94	-39.6	-50.4	3.5	3.02e+01	0	32	104	0	54	17932
2026-01-08 14:19:41.98	27.68	4.00	-38.9	-49.5	3.5	3.02e+01	0	32	104	0	52	18160
2026-01-08 14:19:42.99	27.78	4.06	-38.3	-48.8	3.5	3.02e+01	0	32	104	0	52	16707
2026-01-08 14:19:43.99	27.89	4.11	-47.1	-63.7	3.5	3.02e+01	0	32	104	0	60	58703
2026-01-08 14:19:45.00	27.99	4.17	-38.4	-48.8	3.5	3.02e+01	0	32	104	0	52	16826
2026-01-08 14:19:46.01	28.10	4.23	-47.1	-64.8	3.5	3.02e+01	0	32	104	0	60	66794
2026-01-08 14:19:47.02	28.20	4.28	-46.7	-62.2	3.5	3.02e+01	0	32	104	0	60	49582
2026-01-08 14:19:48.03	28.31	4.34	-44.6	-57.1	3.5	3.02e+01	0	32	104	0	60	27594
2026-01-08 14:19:49.04	28.42	4.40	-38.5	-49.0	3.5	3.02e+01	0	32	104	0	52	17265
2026-01-08 14:19:50.05	28.52	4.45	-38.1	-48.6	3.5	3.02e+01	0	32	104	0	52	16458
2026-01-08 14:19:51.06	28.63	4.51	-38.1	-48.6	3.5	3.02e+01	0	32	104	0	52	16420
2026-01-08 14:19:52.07	28.74	4.57	-38.1	-48.6	3.5	3.02e+01	0	32	104	0	52	16348
2026-01-08 14:19:53.08	28.85	4.62	-41.1	-52.0	3.5	3.02e+01	0	32	104	0	54	21745
2026-01-08 14:19:54.09	28.95	4.68	-38.1	-48.6	3.5	3.02e+01	0	32	104	0	52	16361
2026-01-08 14:19:55.09	29.06	4.74	-47.3	-64.4	3.5	3.02e+01	0	32	104	0	60	64107
2026-01-08 14:19:56.10	29.17	4.79	-46.8	-62.9	3.5	3.02e+01	0	32	104	0	60	53957
2026-01-08 14:19:57.11	29.28	4.85	-45.7	-59.2	3.5	3.02e+01	0	32	104	0	60	35079
2026-01-08 14:19:58.12	29.39	4.91	-40.3	-51.0	3.5	3.02e+01	0	32	104	0	56	17197
2026-01-08 14:19:59.13	29.50	4.97	-40.4	-51.1	3.6	3.02e+01	0	32	104	0	56	17423
2026-01-08 14:20:00.13	29.61	5.02	-41.0	-51.8	3.5	3.02e+01	0	32	104	0	56	18854
2026-01-08 14:20:01.14	29.72	5.08	-41.4	-52.3	3.5	3.02e+01	0	32	104	0	56	20017
2026-01-08 14:20:02.15	29.84	5.14	-46.4	-60.6	3.5	3.02e+01	0	32	104	0	60	41108
2026-01-08 14:20:03.16	29.95	5.20	-37.9	-48.3	3.5	3.02e+01	0	32	104	0	52	15892
2026-01-08 14:20:04.17	30.06	5.25	-47.4	-64.6	3.5	3.02e+01	0	32	104	0	60	65433
2026-01-08 14:20:05.18	30.18	5.31	-46.8	-62.6	3.5	3.02e+01	0	32	104	0	60	52146
2026-01-08 14:20:06.19	30.29	5.37	-46.0	-59.7	3.5	3.02e+01	0	32	104	0	60	37319
2026-01-08 14:20:07.20	30.40	5.43	-40.4	-51.2	3.5	3.02e+01	0	32	104	0	56	17512
2026-01-08 14:20:08.21	30.52	5.48	-40.5	-51.3	3.5	3.02e+01	0	32	104	0	56	17846
2026-01-08 14:20:09.22	30.63	5.54	-40.0	-50.8	3.5	3.02e+01	0	32	104	0	54	18924
2026-01-08 14:20:10.23	30.75	5.60	-39.3	-49.9	3.5	3.02e+01	0	32	104	0	54	17002
2026-01-08 14:20:11.24	30.87	5.66	-37.7	-48.2	3.5	3.02e+01	0	32	104	0	50	17600
2026-01-08 14:20:12.24	30.98	5.72	-37.7	-48.2	3.5	3.02e+01	0	32	104	0	50	17561
2026-01-08 14:20:13.25	31.10	5.77	-47.5	-64.9	3.5	3.02e+01	0	32	104	0	60	67482
2026-01-08 14:20:14.26	31.22	5.83	-45.4	-58.6	3.5	3.02e+01	0	32	104	0	60	32623
2026-01-08 14:20:15.27	31.34	5.89	-45.4	-58.3	3.5	3.02e+01	0	32	104	0	60	31736
2026-01-08 14:20:16.28	31.45	5.95	-38.4	-48.8	3.5	3.02e+01	0	32	104	0	52	16817
2026-01-08 14:20:17.29	31.57	6.01	-38.0	-48.4	3.5	3.02e+01	0	32	104	0	52	16046
2026-01-08 14:20:18.30	31.69	6.07	-37.8	-48.2	3.5	3.02e+01	0	32	104	0	50	17586
2026-01-08 14:20:19.31	31.81	6.12	-37.7	-48.1	3.5	3.02e+01	0	32	104	0	50	17451
2026-01-08 14:20:20.32	31.93	6.18	-41.3	-52.4	3.5	3.02e+01	0	32	104	0	58	17906
2026-01-08 14:20:21.33	32.06	6.24	-37.5	-47.9	3.5	3.02e+01	0	32	104	0	50	17024
2026-01-08 14:20:22.34	32.18	6.30	-47.6	-65.0	3.5	3.02e+01	0	32	104	0	60	68430
2026-01-08 14:20:23.35	32.30	6.36	-44.7	-57.1	3.5	3.02e+01	0	32	104	0	60	27555
2026-01-08 14:20:24.35	32.42	6.42	-45.7	-58.7	3.5	3.02e+01	0	32	104	0	60	33242
2026-01-08 14:20:25.36	32.55	6.47	-40.3	-50.9	3.5	3.02e+01	0	32	104	0	56	17059
2026-01-08 14:20:26.37	32.67	6.53	-40.8	-51.7	3.5	3.02e+01	0	32	104	0	56	18545
2026-01-08 14:20:27.38	32.79	6.59	-41.2	-52.2	3.5	3.02e+01	0	32	104	0	56	19641
2026-01-08 14:20:28.39	32.92	6.65	-42.9	-54.3	3.5	3.02e+01	0	32	104	0	58	22378
2026-01-08 14:20:29.40	33.04	6.71	-44.0	-55.8	3.5	3.02e+01	0	32	104	0	60	23834
2026-01-08 14:20:30.41	33.17	6.77	-38.2	-48.6	3.5	3.02e+01	0	32	104	0	50	18333
2026-01-08 14:20:31.41	33.30	6.83	-47.7	-65.2	3.5	3.02e+01	0	32	104	0	60	69859
2026-01-08 14:20:32.43	33.42	6.89	-43.6	-55.4	3.7	3.02e+01	0	32	104	0	60	22692
2026-01-08 14:20:33.43	33.55	6.94	-45.9	-59.3	3.5	3.02e+01	0	32	104	0	60	35301
2026-01-08 14:20:34.44	33.68	7.00	-41.2	-52.0	3.5	3.02e+01	0	32	104	0	56	19293
2026-01-08 14:20:35.45	33.81	7.06	-40.9	-51.7	3.5	3.02e+01	0	32	104	0	56	18665
2026-01-08 14:20:36.46	33.94	7.12	-40.2	-50.9	3.5	3.02e+01	0	32	104	0	56	16967
2026-01-08 14:20:37.47	34.07	7.18	-42.3	-53.7	3.5	3.02e+01	0	32	104	0	56	23348
2026-01-08 14:20:38.48	34.20	7.24	-42.1	-53.4	3.5	3.02e+01	0	32	104	0	60	17982
2026-01-08 14:20:39.49	34.33	7.30	-38.5	-49.0	3.5	3.02e+01	0	32	104	0	50	19250
2026-01-08 14:20:40.49	34.46	7.36	-47.6	-64.8	3.5	3.02e+01	0	32	104	0	60	66934
2026-01-08 14:20:41.50	34.59	7.42	-38.9	-49.4	3.5	3.02e+01	0	32	104	0	60	11404
2026-01-08 14:20:42.51	34.72	7.48	-43.3	-54.7	3.5	3.02e+01	0	32	104	0	60	21026
2026-01-08 14:20:43.52	34.86	7.54	-38.2	-48.6	3.5	3.02e+01	0	32	104	0	50	18365
2026-01-08 14:20:44.53	34.99	7.60	-37.9	-48.2	3.5	3.02e+01	0	32	104	0	50	17685
2026-01-08 14:20:45.54	35.12	7.66	-37.2	-47.6	3.6	3.02e+01	0	32	104	0	50	16342
2026-01-08 14:20:46.55	35.26	7.72	-37.6	-48.0	3.5	3.02e+01	0	32	104	0	50	17102
2026-01-08 14:20:47.56	35.39	7.77	-38.8	-49.3	3.5	3.02e+01	0	32	104	0	56	14104
2026-01-08 14:20:48.57	35.53	7.83	-38.7	-49.1	3.5	3.02e+01	0	32	104	0	48	21903
2026-01-08 14:20:49.58	35.67	7.89	-47.5	-64.7	3.5	3.02e+01	0	32	104	0	60	66419
2026-01-08 14:20:50.58	35.80	7.95	-39.2	-49.7	3.6	3.02e+01	0	32	104	0	60	11725
2026-01-08 14:20:51.59	35.94	8.01	-43.7	-55.4	3.5	3.02e+01	0	32	104	0	60	22567
2026-01-08 14:20:52.60	36.08	8.07	-40.6	-51.4	3.5	3.02e+01	0	32	104	0	56	17922
2026-01-08 14:20:53.61	36.22	8.13	-41.2	-52.1	3.5	3.02e+01	0	32	104	0	56	19483
2026-01-08 14:20:54.62	36.36	8.19	-40.9	-51.8	3.5	3.02e+01	0	32	104	0	56	18749
2026-01-08 14:20:55.63	36.50	8.25	-38.5	-49.0	3.5	3.02e+01	0	32	104	0	52	17132
2026-01-08 14:20:56.64	36.64	8.31	-42.3	-53.3	3.5	3.02e+01	0	32	104	0	54	25231
2026-01-08 14:20:57.65	36.78	8.37	-41.4	-52.3	3.5	3.02e+01	0	32	104	0	56	20049
2026-01-08 14:20:58.66	36.92	8.43	-40.7	-51.5	3.5	3.02e+01	0	32	104	0	60	14478
2026-01-08 14:20:59.67	37.06	8.49	-44.4	-56.5	3.5	3.02e+01	0	32	104	0	56	32341
2026-01-08 14:21:00.68	37.21	8.55	-41.3	-52.2	3.5	3.02e+01	0	32	104	0	60	15754
2026-01-08 14:21:01.69	37.35	8.61	-37.4	-47.9	3.5	3.02e+01	0	32	104	0	50	17043
2026-01-08 14:21:02.69	37.50	8.67	-37.7	-48.2	3.5	3.02e+01	0	32	104	0	50	17552
2026-01-08 14:21:03.71	37.64	8.73	-37.2	-47.6	3.5	3.02e+01	0	32	104	0	50	16456
2026-01-08 14:21:04.71	37.79	8.79	-45.2	-57.9	3.5	3.02e+01	0	32	104	0	58	34101
2026-01-08 14:21:05.72	37.93	8.85	-39.7	-50.3	3.5	3.02e+01	0	32	104	0	60	12612
2026-01-08 14:21:06.73	38.08	8.91	-43.5	-55.5	3.5	3.02e+01	0	32	104	0	54	32478
2026-01-08 14:21:07.74	38.23	8.97	-45.2	-58.1	3.5	3.02e+01	0	32	104	0	60	30944
2026-01-08 14:21:08.75	38.38	9.03	-40.6	-51.3	3.9	3.02e+01	0	32	104	0	48	28343
2026-01-08 14:21:09.76	38.52	9.09	-38.9	-49.4	3.4	3.02e+01	0	32	104	0	54	16005
2026-01-08 14:21:10.77	38.67	9.15	-37.2	-47.5	3.5	3.02e+01	0	32	104	0	50	16189
2026-01-08 14:21:11.78	38.82	9.21	-37.1	-47.4	3.5	3.02e+01	0	32	104	0	50	15986
2026-01-08 14:21:12.79	38.97	9.27	-36.8	-47.1	3.5	3.02e+01	0	32	104	0	48	17361
2026-01-08 14:21:13.80	39.13	9.33	-38.2	-48.6	3.5	3.02e+01	0	32	104	0	48	20674
2026-01-08 14:21:14.80	39.28	9.39	-36.7	-47.0	3.5	3.02e+01	0	32	104	0	48	17125
2026-01-08 14:21:15.81	39.43	9.45	-47.1	-62.6	3.5	3.02e+01	0	32	104	0	60	51737
2026-01-08 14:21:16.82	39.58	9.51	-46.3	-60.6	3.5	3.02e+01	0	32	104	0	60	41343
2026-01-08 14:21:17.83	39.74	9.57	-42.0	-53.0	3.5	3.02e+01	0	32	104	0	52	27332
2026-01-08 14:21:18.84	39.89	9.63	-42.0	-52.9	3.5	3.02e+01	0	32	104	0	60	17038
2026-01-08 14:21:19.85	40.05	9.69	-41.2	-52.0	3.5	3.02e+01	0	32	104	0	56	19325
2026-01-08 14:21:20.86	40.20	9.75	-41.3	-52.2	3.6	3.02e+01	0	32	104	0	56	19685
2026-01-08 14:21:21.87	40.36	9.81	-42.4	-53.5	3.5	3.02e+01	0	32	104	0	58	20418
2026-01-08 14:21:22.88	40.52	9.87	-37.6	-48.0	3.6	3.02e+01	0	32	104	0	52	15352
2026-01-08 14:21:23.88	40.67	9.93	-46.3	-59.7	3.5	3.02e+01	0	32	104	0	60	37158
2026-01-08 14:21:24.89	40.83	9.99	-47.5	-63.7	3.5	3.02e+01	0	32	104	0	60	58809
2026-01-08 14:21:25.90	40.99	10.05	-37.5	-47.8	3.5	3.02e+01	0	32	104	0	50	16843
2026-01-08 14:21:26.91	41.15	10.11	-48.0	-65.4	3.5	3.02e+01	0	32	104	0	60	71422
2026-01-08 14:21:27.92	41.31	10.17	-37.8	-48.2	3.6	3.02e+01	0	32	104	0	52	15768
2026-01-08 14:21:28.93	41.48	10.22	-36.8	-47.1	3.5	3.02e+01	0	32	104	0	48	17354
2026-01-08 14:21:29.94	41.64	10.28	-36.6	-46.9	3.5	3.02e+01	0	32	104	0	48	17003
2026-01-08 14:21:30.95	41.80	10.34	-36.1	-46.3	3.6	3.02e+01	0	32	104	0	48	15942
2026-01-08 14:21:31.96	41.96	10.40	-47.1	-62.0	3.5	3.02e+01	0	32	104	0	60	48557
2026-01-08 14:21:32.97	42.13	10.46	-36.7	-46.9	3.5	3.02e+01	0	32	104	0	48	16978
2026-01-08 14:21:33.98	42.29	10.52	-48.0	-65.3	3.5	3.02e+01	0	32	104	0	60	70523
2026-01-08 14:21:34.99	42.46	10.58	-45.6	-58.4	3.5	3.02e+01	0	32	104	0	60	32126
2026-01-08 14:21:35.99	42.62	10.64	-45.9	-59.2	3.5	3.02e+01	0	32	104	0	60	35181
2026-01-08 14:21:37.00	42.79	10.70	-37.7	-48.0	3.5	3.02e+01	0	32	104	0	52	15403
2026-01-08 14:21:38.01	42.96	10.76	-37.1	-47.3	3.5	3.02e+01	0	32	104	0	50	15939
2026-01-08 14:21:39.02	43.13	10.82	-36.2	-46.4	3.5	3.02e+01	0	32	104	0	48	16030
2026-01-08 14:21:40.03	43.30	10.88	-36.1	-46.3	3.5	3.02e+01	0	32	104	0	48	15878
2026-01-08 14:21:41.04	43.47	10.94	-37.7	-48.2	3.6	3.02e+01	0	32	104	0	48	19645
2026-01-08 14:21:42.04	43.64	11.00	-36.3	-46.6	3.5	3.02e+01	0	32	104	0	48	16421
2026-01-08 14:21:43.05	43.81	11.06	-48.0	-65.0	3.5	3.02e+01	0	32	104	0	60	68665
2026-01-08 14:21:44.06	43.98	11.12	-46.5	-60.4	3.5	3.02e+01	0	32	104	0	60	40467
2026-01-08 14:21:45.07	44.15	11.17	-46.2	-60.2	3.5	3.02e+01	0	32	104	0	60	39432
2026-01-08 14:21:46.08	44.33	11.23	-41.0	-51.8	3.5	3.02e+01	0	32	104	0	58	16720
2026-01-08 14:21:47.09	44.50	11.29	-41.4	-52.3	3.5	3.02e+01	0	32	104	0	56	19894
2026-01-08 14:21:48.10	44.68	11.35	-41.3	-52.1	3.5	3.02e+01	0	32	104	0	58	17468
2026-01-08 14:21:49.11	44.85	11.41	-41.7	-52.7	3.5	3.02e+01	0	32	104	0	58	18626
2026-01-08 14:21:50.11	45.03	11.47	-47.1	-61.8	3.5	3.02e+01	0	32	104	0	60	47456
2026-01-08 14:21:51.12	45.20	11.53	-47.6	-63.6	3.5	3.02e+01	0	32	104	0	60	58095
2026-01-08 14:21:52.13	45.38	11.59	-46.5	-65.0	3.5	3.02e+01	0	32	104	0	60	68545
2026-01-08 14:21:53.14	45.56	11.64	-38.5	-48.9	3.5	3.02e+01	0	32	104	0	52	17081
2026-01-08 14:21:54.15	45.74	11.70	-46.3	-64.3	3.5	3.02e+01	0	32	104	0	60	62998
2026-01-08 14:21:55.16	45.92	11.76	-38.5	-49.0	3.5	3.02e+01	0	32	104	0	52	17137
2026-01-08 14:21:56.17	46.10	11.82	-38.5	-48.9	3.5	3.02e+01	0	32	104	0	52	17004
2026-01-08 14:21:57.18	46.28	11.88	-37.0	-47.2	3.5	3.02e+01	0	32	104	0	50	15693
2026-01-08 14:21:58.19	46.47	11.93	-36.1	-46.4	3.5	3.02e+01	0	32	104	0	48	15991
2026-01-08 14:21:59.20	46.65	11.99	-47.9	-64.8	3.5	3.02e+01	0	32	104	0	60	67101
2026-01-08 14:22:00.20	46.83	12.05	-35.9	-46.2	3.5	3.02e+01	0	32	104	0	48	15611
2026-01-08 14:22:01.21	47.02	12.11	-47.8	-64.7	3.5	3.02e+01	0	32	104	0	60	65792
2026-01-08 14:22:02.22	47.20	12.17	-45.0	-57.4	3.5	3.02e+01	0	32	104	0	60	28514
2026-01-08 14:22:03.23	47.39	12.22	-46.8	-61.1	3.5	3.02e+01	0	32	104	0	60	43470
2026-01-08 14:22:04.24	47.58	12.28	-37.1	-47.3	3.6	3.02e+01	0	32	104	0	50	15924
2026-01-08 14:22:05.25	47.76	12.34	-37.0	-47.3	3.6	3.02e+01	0	32	104	0	48	17840
2026-01-08 14:22:06.26	47.95	12.40	-36.0	-46.3	3.6	3.02e+01	0	32	104	0	48	15867
2026-01-08 14:22:07.27	48.14	12.45	-35.5	-45.8	3.6	3.02e+01	0	32	104	0	46	16820
2026-01-08 14:22:08.28	48.33	12.51	-39.6	-50.2	3.6	3.02e+01	0	32	104	0	54	17501
2026-01-08 14:22:09.29	48.52	12.57	-35.5	-45.8	3.5	3.02e+01	0	32	104	0	46	16712
2026-01-08 14:22:10.30	48.72	12.62	-47.6	-65.1	3.5	3.02e+01	0	32	104	0	60	68863
2026-01-08 14:22:11.31	48.91	12.68	-43.2	-54.7	3.6	3.02e+01	0	32	104	0	60	20977
2026-01-08 14:22:12.32	49.10	12.74	-46.7	-61.0	3.5	3.02e+01	0	32	104	0	60	43326
2026-01-08 14:22:13.33	49.30	12.79	-40.7	-51.4	3.5	3.02e+01	0	32	104	0	56	17913
2026-01-08 14:22:14.33	49.49	12.85	-41.5	-52.2	3.5	3.02e+01	0	32	104	0	56	19850
2026-01-08 14:22:15.34	49.68	12.90	-42.2	-53.2	3.5	3.02e+01	0	32	104	0	56	22147
2026-01-08 14:22:16.35	49.88	12.96	-40.4	-51.1	3.5	3.02e+01	0	32	104	0	58	15452
2026-01-08 14:22:17.36	50.08	13.02	-37.1	-47.3	3.6	3.02e+01	0	32	104	0	46	20046
2026-01-08 14:22:18.37	50.28	13.07	-45.8	-58.6	3.6	3.02e+01	0	32	104	0	60	32697
2026-01-08 14:22:19.38	50.47	13.13	-47.2	-62.4	3.5	3.02e+01	0	32	104	0	60	50640
2026-01-08 14:22:20.39	50.67	13.18	-38.3	-48.5	3.5	3.02e+01	0	32	104	0	52	16320
2026-01-08 14:22:21.40	50.87	13.24	-47.9	-65.0	3.5	3.02e+01	0	32	104	0	60	68787
2026-01-08 14:22:22.41	51.08	13.29	-38.0	-48.3	3.5	3.02e+01	0	32	104	0	52	15922
2026-01-08 14:22:23.42	51.28	13.35	-37.4	-47.6	3.5	3.02e+01	0	32	104	0	50	16486
2026-01-08 14:22:24.43	51.48	13.40	-36.1	-46.4	3.5	3.02e+01	0	32	104	0	48	16056
2026-01-08 14:22:25.44	51.68	13.46	-37.5	-48.0	3.5	3.02e+01	0	32	104	0	46	21579
2026-01-08 14:22:26.44	51.89	13.51	-45.5	-58.2	3.6	3.02e+01	0	32	104	0	60	31234
2026-01-08 14:22:27.46	52.09	13.56	-36.4	-46.7	3.5	3.02e+01	0	32	104	0	46	18626
2026-01-08 14:22:28.46	52.30	13.62	-46.9	-62.1	3.5	3.02e+01	0	32	104	0	60	48808
2026-01-08 14:22:29.47	52.50	13.67	-36.3	-46.5	3.2	3.02e+01	0	32	104	0	52	12927
2026-01-08 14:22:30.48	52.71	13.73	-43.9	-55.5	3.5	3.02e+01	0	32	104	0	60	22968
2026-01-08 14:22:31.49	52.92	13.78	-36.7	-47.0	3.5	3.02e+01	0	32	104	0	48	17226
2026-01-08 14:22:32.50	53.13	13.83	-35.8	-46.0	3.6	3.02e+01	0	32	104	0	46	17155
2026-01-08 14:22:33.50	53.34	13.88	-35.3	-45.6	3.5	3.02e+01	0	32	104	0	46	16354
2026-01-08 14:22:34.51	53.55	13.94	-35.6	-45.9	3.5	3.02e+01	0	32	104	0	46	16926
2026-01-08 14:22:35.52	53.76	13.99	-36.4	-46.7	3.5	3.02e+01	0	32	104	0	48	16599
2026-01-08 14:22:36.53	53.97	14.04	-37.0	-47.3	3.5	3.02e+01	0	32	104	0	46	19996
2026-01-08 14:22:37.54	54.18	14.09	-47.3	-62.3	3.5	3.02e+01	0	32	104	0	60	50413
2026-01-08 14:22:38.55	54.40	14.15	-36.7	-47.0	3.6	3.02e+01	0	32	104	0	52	13731
2026-01-08 14:22:39.56	54.61	14.20	-45.5	-58.1	3.6	3.02e+01	0	32	104	0	60	30929
2026-01-08 14:22:40.57	54.83	14.25	-41.1	-51.9	3.5	3.02e+01	0	32	104	0	56	19007
2026-01-08 14:22:41.58	55.04	14.30	-41.1	-51.9	3.5	3.02e+01	0	32	104	0	56	19101
2026-01-08 14:22:42.59	55.26	14.35	-41.5	-52.3	3.5	3.02e+01	0	32	104	0	58	17858
2026-01-08 14:22:43.60	55.48	14.40	-46.0	-58.9	3.5	3.02e+01	0	32	104	0	60	34036
2026-01-08 14:22:44.61	55.70	14.45	-47.4	-62.3	3.5	3.02e+01	0	32	104	0	60	50369
2026-01-08 14:22:45.62	55.91	14.50	-39.7	-50.3	3.5	3.02e+01	0	32	104	0	60	12615
2026-01-08 14:22:46.62	56.13	14.55	-42.8	-54.1	3.6	3.02e+01	0	32	104	0	60	19611
2026-01-08 14:22:47.63	56.35	14.60	-41.3	-52.2	3.5	3.02e+01	0	32	104	0	52	24956
2026-01-08 14:22:48.64	56.57	14.65	-42.4	-53.5	3.5	3.02e+01	0	32	104	0	60	18147
2026-01-08 14:22:49.65	56.80	14.70	-38.0	-48.4	3.5	3.02e+01	0	32	104	0	50	17927
2026-01-08 14:22:50.66	57.02	14.75	-36.3	-46.5	3.5	3.02e+01	0	32	104	0	48	16317
2026-01-08 14:22:51.67	57.24	14.80	-35.5	-45.8	3.5	3.02e+01	0	32	104	0	46	16750
2026-01-08 14:22:52.68	57.47	14.85	-39.5	-50.1	3.5	3.02e+01	0	32	104	0	46	27561
2026-01-08 14:22:53.68	57.69	14.89	-38.2	-48.7	3.5	3.02e+01	0	32	104	0	54	14823
2026-01-08 14:22:54.69	57.92	14.94	-42.2	-53.3	3.5	3.02e+01	0	32	104	0	52	28241
2026-01-08 14:22:55.70	58.14	14.99	-42.9	-54.3	3.5	3.02e+01	0	32	104	0	60	19879
2026-01-08 14:22:56.71	58.37	15.04	-37.3	-47.7	3.5	3.02e+01	0	32	104	0	46	20888
2026-01-08 14:22:57.72	58.60	15.08	-39.7	-50.3	3.6	3.02e+01	0	32	104	0	60	12552
2026-01-08 14:22:58.73	58.83	15.13	-36.3	-46.6	3.5	3.02e+01	0	32	104	0	48	16358
2026-01-08 14:22:59.74	59.06	15.18	-35.4	-45.7	3.5	3.02e+01	0	32	104	0	46	16636
2026-01-08 14:23:00.75	59.29	15.22	-35.1	-45.5	3.5	3.02e+01	0	32	104	0	46	16229
2026-01-08 14:23:01.76	59.52	15.27	-37.3	-47.9	3.5	3.02e+01	0	32	104	0	46	21409
2026-01-08 14:23:02.77	59.75	15.31	-36.6	-47.0	3.5	3.02e+01	0	32	104	0	48	17105
2026-01-08 14:23:03.78	59.98	15.36	-42.8	-55.3	3.5	3.02e+01	0	32	104	0	52	35543
2026-01-08 14:23:04.79	60.22	15.40	-43.2	-56.3	3.5	3.02e+01	0	32	104	0	60	25026
2026-01-08 14:23:05.80	60.45	15.45	-42.3	-53.4	3.5	3.02e+01	0	32	104	0	52	28652
2026-01-08 14:23:06.81	60.69	15.49	-42.2	-53.2	3.5	3.02e+01	0	32	104	0	60	17647
2026-01-08 14:23:07.81	60.92	15.53	-40.8	-51.8	3.5	3.02e+01	0	32	104	0	56	18908
2026-01-08 14:23:08.82	61.16	15.58	-40.1	-51.3	3.5	3.02e+01	0	32	104	0	56	17897
2026-01-08 14:23:09.83	61.39	15.62	-39.8	-51.6	3.5	3.02e+01	0	32	104	0	54	20782
2026-01-08 14:23:10.84	61.63	15.66	-36.2	-46.7	3.5	3.02e+01	0	32	104	0	48	16618
2026-01-08 14:23:11.85	61.87	15.70	-44.1	-60.4	3.5	3.02e+01	0	32	104	0	60	40236
2026-01-08 14:23:12.86	62.11	15.75	-42.8	-55.3	3.5	3.02e+01	0	32	104	0	56	28300
2026-01-08 14:23:13.87	62.35	15.79	-38.5	-48.9	3.5	3.02e+01	0	32	104	0	52	17060
2026-01-08 14:23:14.88	62.59	15.83	-46.2	-65.6	3.5	3.02e+01	0	32	104	0	60	73734
2026-01-08 14:23:15.89	62.83	15.87	-38.3	-48.7	3.5	3.02e+01	0	32	104	0	54	14867
2026-01-08 14:23:16.90	63.07	15.91	-37.9	-48.4	3.5	3.02e+01	0	32	104	0	50	17942
2026-01-08 14:23:17.91	63.32	15.95	-38.0	-48.3	3.5	3.02e+01	0	32	104	0	50	17860
2026-01-08 14:23:18.92	63.56	15.99	-37.9	-48.2	3.5	3.02e+01	0	32	104	0	50	17552
2026-01-08 14:23:19.93	63.80	16.03	-46.0	-59.7	3.5	3.02e+01	0	32	104	0	60	37071
2026-01-08 14:23:20.94	64.05	16.07	-36.0	-46.3	3.5	3.02e+01	0	32	104	0	48	15846
2026-01-08 14:23:21.95	64.29	16.11	-47.8	-65.7	3.5	3.02e+01	0	32	104	0	60	73984
2026-01-08 14:23:22.96	64.54	16.14	-44.2	-55.9	3.5	3.02e+01	0	32	104	0	60	24116
2026-01-08 14:23:23.97	64.79	16.18	-46.8	-60.5	3.5	3.02e+01	0	32	104	0	60	40981
2026-01-08 14:23:24.98	65.03	16.22	-37.4	-47.7	3.6	3.02e+01	0	32	104	0	52	14824
2026-01-08 14:23:25.98	65.28	16.25	-37.0	-47.3	3.5	3.02e+01	0	32	104	0	48	17838
2026-01-08 14:23:26.99	65.53	16.29	-37.4	-47.7	3.5	3.02e+01	0	32	104	0	48	18671
2026-01-08 14:23:28.00	65.78	16.33	-36.8	-47.1	3.5	3.02e+01	0	32	104	0	48	17315
2026-01-08 14:23:29.01	66.03	16.36	-35.7	-46.0	3.5	3.02e+01	0	32	104	0	46	17253
2026-01-08 14:23:30.02	66.28	16.40	-35.7	-46.0	3.5	3.02e+01	0	32	104	0	46	17287
2026-01-08 14:23:31.03	66.53	16.43	-48.0	-65.5	3.5	3.02e+01	0	32	104	0	60	72905
2026-01-08 14:23:32.04	66.78	16.47	-45.1	-57.8	3.5	3.02e+01	0	32	104	0	60	29825
2026-01-08 14:23:33.05	67.03	16.50	-45.9	-61.5	3.5	3.02e+01	0	32	104	0	60	45843
2026-01-08 14:23:34.06	67.29	16.53	-37.5	-47.9	3.5	3.02e+01	0	32	104	0	50	16916
2026-01-08 14:23:35.07	67.54	16.56	-37.2	-47.6	3.5	3.02e+01	0	32	104	0	50	16354
2026-01-08 14:23:36.08	67.79	16.60	-37.7	-48.2	3.5	3.02e+01	0	32	104	0	50	17490
2026-01-08 14:23:37.09	68.05	16.63	-37.4	-47.8	3.5	3.02e+01	0	32	104	0	50	16724
2026-01-08 14:23:38.10	68.30	16.66	-46.3	-59.5	3.5	3.02e+01	0	32	104	0	60	36507
2026-01-08 14:23:39.11	68.56	16.69	-35.6	-45.8	3.5	3.02e+01	0	32	104	0	46	16886
2026-01-08 14:23:40.12	68.81	16.72	-47.6	-65.3	3.5	3.02e+01	0	32	104	0	60	70782
2026-01-08 14:23:41.13	69.07	16.75	-45.2	-58.0	3.5	3.02e+01	0	32	104	0	60	30727
2026-01-08 14:23:42.13	69.33	16.78	-47.3	-62.2	3.5	3.02e+01	0	32	104	0	60	49379
2026-01-08 14:23:43.14	69.58	16.81	-37.5	-47.8	3.5	3.02e+01	0	32	104	0	50	16829
2026-01-08 14:23:44.15	69.84	16.84	-37.8	-48.2	3.5	3.02e+01	0	32	104	0	50	17582
2026-01-08 14:23:45.16	70.10	16.87	-37.4	-47.7	3.5	3.02e+01	0	32	104	0	50	16686
2026-01-08 14:23:46.17	70.36	16.89	-36.6	-46.9	3.5	3.02e+01	0	32	104	0	48	17041
2026-01-08 14:23:47.18	70.62	16.92	-36.5	-46.9	3.5	3.02e+01	0	32	104	0	46	19022
2026-01-08 14:23:48.19	70.88	16.95	-35.3	-45.7	3.5	3.02e+01	0	32	104	0	46	16538
2026-01-08 14:23:49.20	71.14	16.97	-47.9	-65.2	3.5	3.02e+01	0	32	104	0	60	70211
2026-01-08 14:23:50.21	71.40	17.00	-43.2	-55.2	3.6	3.02e+01	0	32	104	0	60	22264
2026-01-08 14:23:51.22	71.66	17.02	-45.8	-62.0	3.5	3.02e+01	0	32	104	0	60	48701
2026-01-08 14:23:52.23	71.93	17.05	-36.8	-47.1	3.5	3.02e+01	0	32	104	0	48	17381
2026-01-08 14:23:53.24	72.19	17.07	-36.7	-47.0	3.5	3.02e+01	0	32	104	0	48	17130
2026-01-08 14:23:54.25	72.45	17.09	-36.7	-46.9	3.5	3.02e+01	0	32	104	0	48	16990
2026-01-08 14:23:55.25	72.71	17.12	-36.1	-46.3	3.5	3.02e+01	0	32	104	0	48	15947
2026-01-08 14:23:56.26	72.98	17.14	-36.8	-47.0	3.5	3.02e+01	0	32	104	0	48	17238
2026-01-08 14:23:57.27	73.24	17.16	-35.3	-45.4	3.5	3.02e+01	0	32	104	0	46	16053
2026-01-08 14:23:58.28	73.51	17.18	-48.0	-65.4	3.5	3.02e+01	0	32	104	0	60	71510
2026-01-08 14:23:59.29	73.77	17.20	-41.3	-52.1	3.5	3.02e+01	0	32	104	0	60	15422
2026-01-08 14:24:00.30	74.04	17.22	-46.9	-61.0	3.5	3.02e+01	0	32	104	0	60	43404
2026-01-08 14:24:01.31	74.30	17.24	-37.2	-47.5	3.5	3.02e+01	0	32	104	0	50	16144
2026-01-08 14:24:02.32	74.57	17.26	-37.1	-47.5	3.5	3.02e+01	0	32	104	0	50	16147
2026-01-08 14:24:03.33	74.84	17.28	-37.4	-47.8	3.5	3.02e+01	0	32	104	0	48	18833
2026-01-08 14:24:04.34	75.10	17.30	-36.3	-46.5	3.6	3.02e+01	0	32	104	0	48	16202
2026-01-08 14:24:05.34	75.37	17.31	-35.8	-45.9	3.5	3.02e+01	0	32	104	0	46	17062
2026-01-08 14:24:06.35	75.63	17.33	-35.1	-45.3	3.5	3.02e+01	0	32	104	0	46	15889
2026-01-08 14:24:07.36	75.90	17.35	-48.3	-65.6	3.5	3.02e+01	0	32	104	0	60	73629
2026-01-08 14:24:08.37	76.17	17.36	-40.4	-51.2	3.5	3.02e+01	0	32	104	0	60	13984
2026-01-08 14:24:09.38	76.44	17.38	-46.8	-60.9	3.5	3.02e+01	0	32	104	0	60	42694
2026-01-08 14:24:10.39	76.71	17.39	-37.0	-47.3	3.5	3.02e+01	0	32	104	0	50	15871
2026-01-08 14:24:11.40	76.98	17.41	-36.6	-46.8	3.5	3.02e+01	0	32	104	0	48	16835
2026-01-08 14:24:12.41	77.25	17.42	-35.7	-46.0	3.5	3.02e+01	0	32	104	0	46	17228
2026-01-08 14:24:13.42	77.51	17.43	-35.5	-45.8	3.5	3.02e+01	0	32	104	0	46	16809
2026-01-08 14:24:14.43	77.78	17.44	-38.1	-48.6	3.5	3.02e+01	0	32	104	0	52	16430
2026-01-08 14:24:15.44	78.05	17.46	-35.9	-46.2	3.5	3.02e+01	0	32	104	0	46	17662
2026-01-08 14:24:16.45	78.32	17.47	-44.8	-59.8	3.5	3.02e+01	0	32	104	0	60	37737
2026-01-08 14:24:17.46	78.60	17.48	-35.5	-45.8	3.3	3.02e+01	0	32	104	0	50	13309
2026-01-08 14:24:18.47	78.87	17.49	-45.4	-59.5	3.5	3.02e+01	0	32	104	0	60	36347
2026-01-08 14:24:19.48	79.14	17.50	-36.4	-46.7	3.5	3.02e+01	0	32	104	0	48	16555
2026-01-08 14:24:20.49	79.41	17.50	-35.3	-45.5	3.5	3.02e+01	0	32	104	0	46	16293
2026-01-08 14:24:21.50	79.68	17.51	-34.9	-45.0	3.5	3.02e+01	0	32	104	0	44	17185
2026-01-08 14:24:22.51	79.95	17.52	-35.4	-45.6	3.5	3.02e+01	0	32	104	0	44	18448
2026-01-08 14:24:23.52	80.22	17.53	-37.3	-47.6	3.5	3.02e+01	0	32	104	0	52	14556
2026-01-08 14:24:24.53	80.49	17.53	-36.5	-46.7	3.5	3.02e+01	0	32	104	0	46	18695
2026-01-08 14:24:25.54	80.76	17.54	-46.3	-59.8	3.5	3.02e+01	0	32	104	0	60	37814
2026-01-08 14:24:26.54	81.03	17.54	-36.0	-46.2	3.5	3.02e+01	0	32	104	0	50	14015
2026-01-08 14:24:27.55	81.30	17.55	-44.1	-56.1	3.5	3.02e+01	0	32	104	0	60	24537
2026-01-08 14:24:28.56	81.58	17.55	-37.4	-47.8	3.5	3.02e+01	0	32	104	0	50	16802
2026-01-08 14:24:29.57	81.85	17.56	-37.4	-47.9	3.5	3.02e+01	0	32	104	0	50	16963
2026-01-08 14:24:30.58	82.12	17.56	-37.7	-48.0	3.5	3.02e+01	0	32	104	0	50	17143
2026-01-08 14:24:31.59	82.39	17.56	-40.3	-50.8	3.4	3.02e+01	0	32	104	0	52	21239
2026-01-08 14:24:32.60	82.67	17.56	-40.2	-50.9	3.6	3.02e+01	0	32	104	0	60	13437
2026-01-08 14:24:33.61	82.94	17.56	-37.3	-47.7	3.4	3.02e+01	0	32	104	0	46	20931
2026-01-08 14:24:34.62	83.21	17.56	-45.3	-57.8	3.6	3.02e+01	0	32	104	0	60	29743
2026-01-08 14:24:35.63	83.48	17.56	-35.6	-45.9	3.5	3.02e+01	0	32	104	0	48	15139
2026-01-08 14:24:36.64	83.75	17.56	-43.6	-55.1	3.6	3.02e+01	0	32	104	0	60	21890
2026-01-08 14:24:37.65	84.03	17.56	-37.4	-47.6	3.5	3.02e+01	0	32	104	0	50	16443
2026-01-08 14:24:38.66	84.30	17.56	-36.0	-46.1	3.6	3.02e+01	0	32	104	0	48	15542
2026-01-08 14:24:39.66	84.57	17.56	-36.0	-46.2	3.5	3.02e+01	0	32	104	0	46	17646
2026-01-08 14:24:40.67	84.84	17.55	-35.1	-45.4	3.5	3.02e+01	0	32	104	0	44	17974
2026-01-08 14:24:41.68	85.11	17.55	-35.6	-45.8	3.5	3.02e+01	0	32	104	0	46	16837
2026-01-08 14:24:42.69	85.38	17.55	-41.9	-52.7	3.5	3.02e+01	0	32	104	0	50	29688
2026-01-08 14:24:43.70	85.66	17.54	-41.4	-52.2	3.5	3.02e+01	0	32	104	0	60	15712
2026-01-08 14:24:44.71	85.93	17.54	-37.5	-47.9	3.5	3.02e+01	0	32	104	0	46	21314
2026-01-08 14:24:45.72	86.20	17.53	-39.8	-50.4	3.5	3.02e+01	0	32	104	0	60	12732
2026-01-08 14:24:46.73	86.47	17.52	-36.8	-46.9	3.5	3.02e+01	0	32	104	0	48	17017
2026-01-08 14:24:47.74	86.74	17.52	-36.6	-46.8	3.5	3.02e+01	0	32	104	0	48	16822
2026-01-08 14:24:48.75	87.01	17.51	-36.6	-47.0	3.5	3.02e+01	0	32	104	0	48	17270
2026-01-08 14:24:49.76	87.28	17.50	-35.0	-45.3	3.5	3.02e+01	0	32	104	0	44	17791
2026-01-08 14:24:50.77	87.56	17.49	-35.4	-45.6	3.5	3.02e+01	0	32	104	0	46	16348
2026-01-08 14:24:51.78	87.83	17.48	-43.3	-54.8	3.5	3.02e+01	0	32	104	0	52	33384
2026-01-08 14:24:52.79	88.10	17.47	-42.8	-54.0	3.5	3.02e+01	0	32	104	0	60	19383
2026-01-08 14:24:53.80	88.37	17.46	-42.7	-54.2	3.7	3.02e+01	0	32	104	0	52	31175
2026-01-08 14:24:54.81	88.64	17.45	-38.5	-48.9	3.4	3.02e+01	0	32	104	0	54	15123
2026-01-08 14:24:55.82	88.91	17.44	-37.4	-47.8	3.5	3.02e+01	0	32	104	0	48	18837
2026-01-08 14:24:56.82	89.18	17.42	-37.7	-48.1	3.5	3.02e+01	0	32	104	0	48	19439
2026-01-08 14:24:57.83	89.44	17.41	-36.9	-47.1	3.5	3.02e+01	0	32	104	0	48	17397
2026-01-08 14:24:58.84	89.71	17.40	-35.1	-45.3	3.5	3.02e+01	0	32	104	0	44	17767
2026-01-08 14:24:59.85	89.98	17.38	-35.8	-46.2	3.5	3.02e+01	0	32	104	0	44	19710
2026-01-08 14:25:00.86	90.25	17.37	-47.2	-62.3	3.5	3.02e+01	0	32	104	0	60	50145
2026-01-08 14:25:01.87	90.52	17.35	-43.3	-54.4	3.5	3.02e+01	0	32	104	0	60	20219
2026-01-08 14:25:02.88	90.79	17.34	-44.4	-56.1	3.5	3.02e+01	0	32	104	0	56	30891
2026-01-08 14:25:03.89	91.06	17.32	-38.1	-48.4	3.5	3.02e+01	0	32	104	0	52	16114
2026-01-08 14:25:04.90	91.32	17.30	-37.3	-47.6	3.5	3.02e+01	0	32	104	0	48	18526
2026-01-08 14:25:05.90	91.59	17.28	-35.9	-46.1	3.5	3.02e+01	0	32	104	0	46	17424
2026-01-08 14:25:06.91	91.86	17.27	-35.3	-45.4	3.5	3.02e+01	0	32	104	0	46	16034
2026-01-08 14:25:07.92	92.12	17.25	-38.8	-49.3	3.5	3.02e+01	0	32	104	0	50	20037
2026-01-08 14:25:08.93	92.39	17.23	-35.6	-45.8	3.5	3.02e+01	0	32	104	0	46	16808
2026-01-08 14:25:09.94	92.66	17.21	-48.4	-66.0	3.5	3.02e+01	0	32	104	0	60	76488
2026-01-08 14:25:10.95	92.92	17.19	-44.5	-56.5	3.5	3.02e+01	0	32	104	0	60	25712
2026-01-08 14:25:11.96	93.19	17.17	-45.1	-57.5	3.5	3.02e+01	0	32	104	0	56	36161
2026-01-08 14:25:12.97	93.45	17.14	-41.3	-52.2	3.5	3.02e+01	0	32	104	0	60	15641
2026-01-08 14:25:13.98	93.72	17.12	-41.1	-52.0	3.5	3.02e+01	0	32	104	0	56	19286
2026-01-08 14:25:14.99	93.98	17.10	-41.0	-51.8	3.5	3.02e+01	0	32	104	0	56	18757
2026-01-08 14:25:16.00	94.24	17.08	-41.8	-52.7	3.5	3.02e+01	0	32	104	0	56	20939
2026-01-08 14:25:17.01	94.51	17.05	-35.7	-45.9	3.5	3.02e+01	0	32	104	0	46	16938
2026-01-08 14:25:18.02	94.77	17.03	-47.6	-63.5	3.5	3.02e+01	0	32	104	0	60	57596
2026-01-08 14:25:19.03	95.03	17.00	-46.0	-59.0	3.5	3.02e+01	0	32	104	0	60	34369
2026-01-08 14:25:20.04	95.29	16.98	-38.4	-48.8	3.5	3.02e+01	0	32	104	0	52	16810
2026-01-08 14:25:21.05	95.56	16.95	-47.9	-64.5	3.5	3.02e+01	0	32	104	0	60	64546
2026-01-08 14:25:22.06	95.82	16.93	-37.9	-48.2	3.5	3.02e+01	0	32	104	0	52	15667
2026-01-08 14:25:23.06	96.07	16.90	-37.1	-47.5	3.5	3.02e+01	0	32	104	0	50	16216
2026-01-08 14:25:24.07	96.33	16.87	-35.8	-46.1	3.5	3.02e+01	0	32	104	0	46	17294
2026-01-08 14:25:25.08	96.59	16.84	-35.3	-45.5	3.5	3.02e+01	0	32	104	0	46	16246
2026-01-08 14:25:26.09	96.85	16.82	-42.0	-53.0	3.5	3.02e+01	0	32	104	0	58	19201
2026-01-08 14:25:27.10	97.11	16.79	-35.6	-45.8	3.5	3.02e+01	0	32	104	0	46	16838
2026-01-08 14:25:28.11	97.37	16.76	-48.0	-65.8	3.5	3.02e+01	0	32	104	0	60	74710
2026-01-08 14:25:29.12	97.63	16.73	-44.9	-57.0	3.5	3.02e+01	0	32	104	0	60	27353
2026-01-08 14:25:30.13	97.88	16.70	-47.3	-62.1	3.5	3.02e+01	0	32	104	0	60	48901
2026-01-08 14:25:31.14	98.14	16.67	-36.8	-47.2	3.6	3.02e+01	0	32	104	0	48	17606
2026-01-08 14:25:32.15	98.40	16.64	-37.0	-47.4	3.5	3.02e+01	0	32	104	0	48	18041
2026-01-08 14:25:33.16	98.65	16.60	-35.6	-45.9	3.5	3.02e+01	0	32	104	0	46	17074
2026-01-08 14:25:34.17	98.91	16.57	-35.1	-45.3	3.4	3.02e+01	0	32	104	0	46	15909
2026-01-08 14:25:35.18	99.16	16.54	-38.6	-49.1	3.6	3.02e+01	0	32	104	0	52	17321
2026-01-08 14:25:36.19	99.42	16.51	-34.7	-36.2	5.0	3.02e+01	0	32	104	0	46	5540
2026-01-08 14:25:37.19	99.67	16.47	-47.7	-63.0	3.8	3.02e+01	0	32	104	0	60	54311
2026-01-08 14:25:38.21	99.92	16.44	-43.0	-45.5	22.3	3.02e+01	0	32	0	1048576	60	7273
2026-01-08 14:25:39.21	100.17	16.40	-46.6	-53.4	12.8	3.02e+01	0	32	0	3145728	60	18036
2026-01-08 14:25:40.22	100.42	16.37	-39.4	-41.0	24.7	3.02e+01	0	32	0	5242880	54	6122
2026-01-08 14:25:41.23	100.67	16.33	-39.2	-40.8	24.7	3.02e+01	0	32	0	6815744	54	5948
2026-01-08 14:25:42.24	100.92	16.30	-40.1	-41.9	23.7	3.02e+01	0	32	0	8912896	54	6754
2026-01-08 14:25:43.25	101.17	16.26	-40.6	-42.4	23.4	3.02e+01	0	32	0	11010048	56	6391
2026-01-08 14:25:44.26	101.42	16.22	-41.6	-43.6	22.4	3.02e+01	0	32	0	12582912	56	7345
2026-01-08 14:25:45.27	101.67	16.19	-41.9	-44.1	21.0	3.02e+01	0	32	0	14680064	58	6896
2026-01-08 14:25:46.28	101.92	16.15	-42.0	-44.2	21.5	3.02e+01	0	32	0	16252928	58	6981
2026-01-08 14:25:47.29	102.16	16.11	-42.4	-44.7	21.2	3.02e+01	0	32	0	18350080	58	7382
2026-01-08 14:25:48.29	102.41	16.07	-42.8	-45.2	20.5	3.02e+01	0	32	0	20447232	60	6969
2026-01-08 14:25:49.30	102.65	16.04	-43.3	-45.9	20.0	3.02e+01	0	32	0	22020096	60	7612
2026-01-08 14:25:50.31	102.90	16.00	-42.4	-44.6	21.2	3.02e+01	0	32	0	24117248	60	6573
2026-01-08 14:25:51.32	103.14	15.96	-42.2	-44.4	20.7	3.02e+01	0	32	0	25690112	60	6419
2026-01-08 14:25:52.33	103.39	15.92	-42.5	-44.9	20.7	3.02e+01	0	32	0	27787264	60	6751
2026-01-08 14:25:53.34	103.63	15.88	-43.2	-45.7	20.7	3.02e+01	0	32	0	29884416	60	7457
2026-01-08 14:25:54.35	103.87	15.84	-41.4	-43.4	22.5	3.02e+01	0	32	0	31457280	58	6353
2026-01-08 14:25:55.36	104.11	15.79	-42.6	-44.9	21.2	3.02e+01	0	32	0	33554432	58	7614
2026-01-08 14:25:56.37	104.35	15.75	-42.7	-45.1	20.9	3.02e+01	0	32	0	35127296	58	7763
2026-01-08 14:25:57.38	104.60	15.71	-42.9	-45.4	20.6	3.02e+01	0	32	0	37224448	58	8052
2026-01-08 14:25:58.39	104.83	15.67	-42.6	-45.0	21.0	3.02e+01	0	32	0	39321600	60	6845
2026-01-08 14:25:59.40	105.07	15.63	-41.6	-43.6	21.1	3.02e+01	0	32	0	40894464	58	6525
2026-01-08 14:26:00.41	105.31	15.58	-41.6	-43.6	22.7	3.02e+01	0	32	0	42991616	58	6516
2026-01-08 14:26:01.42	105.55	15.54	-38.9	-40.4	25.3	3.02e+01	0	32	0	44564480	54	5716
2026-01-08 14:26:02.42	105.78	15.50	-37.2	-38.6	26.9	3.02e+01	0	32	0	46661632	50	5822
2026-01-08 14:26:03.43	106.02	15.45	-36.1	-37.4	27.9	3.02e+01	0	32	0	48758784	48	5690
2026-01-08 14:26:04.44	106.25	15.41	-35.9	-37.1	28.1	3.02e+01	0	32	0	50331648	46	6194
2026-01-08 14:26:05.45	106.49	15.36	-36.2	-37.5	27.7	3.02e+01	0	32	0	52428800	46	6479
2026-01-08 14:26:06.46	106.72	15.32	-36.4	-37.7	27.7	3.02e+01	0	32	0	54001664	46	6604
2026-01-08 14:26:07.47	106.96	15.27	-35.3	-36.6	28.7	3.02e+01	0	32	0	56098816	46	5815
2026-01-08 14:26:08.48	107.19	15.23	-34.6	-35.8	29.3	3.02e+01	0	32	0	58195968	44	5951
2026-01-08 14:26:09.49	107.42	15.18	-34.3	-35.5	29.6	3.02e+01	0	32	0	59768832	44	5753
2026-01-08 14:26:10.50	107.65	15.13	-34.4	-35.6	29.4	3.02e+01	0	32	0	61865984	44	5843
2026-01-08 14:26:11.51	107.88	15.09	-34.3	-35.5	29.5	3.02e+01	0	32	0	63963136	44	5764
2026-01-08 14:26:12.52	108.11	15.04	-34.2	-35.4	29.6	3.02e+01	0	32	0	65536000	44	5705
2026-01-08 14:26:13.53	108.34	14.99	-34.2	-35.4	29.6	3.02e+01	0	32	0	67633152	44	5663
2026-01-08 14:26:14.54	108.57	14.94	-34.1	-35.3	29.5	3.02e+01	0	32	0	69206016	44	5614
2026-01-08 14:26:15.55	108.79	14.90	-34.3	-35.5	29.4	3.02e+01	0	32	0	71303168	44	5786
2026-01-08 14:26:16.56	109.02	14.85	-34.0	-35.2	29.7	3.02e+01	0	32	0	73400320	44	5573
2026-01-08 14:26:17.56	109.24	14.80	-34.2	-35.4	29.5	3.02e+01	0	32	0	74973184	44	5673
2026-01-08 14:26:18.58	109.47	14.75	-34.2	-35.4	29.5	3.02e+01	0	32	0	77070336	44	5725
2026-01-08 14:26:19.58	109.69	14.70	-34.6	-35.8	29.2	3.02e+01	0	32	0	78643200	44	5949
2026-01-08 14:26:20.59	109.92	14.65	-34.3	-35.6	29.2	3.02e+01	0	32	0	80740352	44	5794
2026-01-08 14:26:21.60	110.14	14.60	-34.5	-35.7	29.4	3.02e+01	0	32	0	82837504	44	5887
2026-01-08 14:26:22.61	110.36	14.55	-34.3	-35.5	29.4	3.02e+01	0	32	0	84410368	44	5760
2026-01-08 14:26:23.62	110.58	14.50	-34.3	-35.5	29.4	3.02e+01	0	32	0	86507520	44	5780
2026-01-08 14:26:24.63	110.80	14.45	-34.3	-35.5	29.4	3.02e+01	0	32	0	88080384	44	5730
2026-01-08 14:26:25.64	111.02	14.40	-34.0	-35.2	29.6	3.02e+01	0	32	0	90177536	44	5537
2026-01-08 14:26:26.65	111.24	14.35	-34.0	-35.2	29.7	3.02e+01	0	32	0	92274688	44	5548
2026-01-08 14:26:27.66	111.46	14.30	-34.0	-35.2	29.7	3.02e+01	0	32	0	93847552	42	6229
2026-01-08 14:26:28.67	111.68	14.25	-34.1	-35.3	29.6	3.02e+01	0	32	0	95944704	42	6334
2026-01-08 14:26:29.67	111.89	14.20	-34.1	-35.3	29.6	3.02e+01	0	32	0	97517568	42	6331
2026-01-08 14:26:30.69	112.11	14.14	-34.2	-35.4	29.6	3.02e+01	0	32	0	99614720	42	6362
2026-01-08 14:26:31.69	112.32	14.09	-34.1	-35.3	29.5	3.02e+01	0	32	0	101711872	42	6336
2026-01-08 14:26:32.70	112.53	14.04	-34.1	-35.4	29.6	3.02e+01	0	32	0	103284736	42	6358
2026-01-08 14:26:33.71	112.75	13.99	-34.1	-35.4	29.5	3.02e+01	0	32	0	105381888	42	6351
2026-01-08 14:26:34.72	112.96	13.93	-34.2	-35.4	29.6	3.02e+01	0	32	0	107479040	42	6372
2026-01-08 14:26:35.73	113.17	13.88	-34.4	-35.6	29.4	3.02e+01	0	32	0	109051904	42	6537
2026-01-08 14:26:36.74	113.38	13.83	-34.1	-35.3	29.5	3.02e+01	0	32	0	111149056	42	6346
2026-01-08 14:26:37.75	113.59	13.78	-34.2	-35.4	29.5	3.02e+01	0	32	0	112721920	42	6416
2026-01-08 14:26:38.76	113.80	13.72	-34.2	-35.4	29.5	3.02e+01	0	32	0	114819072	42	6397
2026-01-08 14:26:39.77	114.01	13.67	-34.1	-35.3	29.6	3.02e+01	0	32	0	116916224	42	6307
2026-01-08 14:26:40.78	114.22	13.61	-34.2	-35.4	29.5	3.02e+01	0	32	0	118489088	42	6373
2026-01-08 14:26:41.79	114.42	13.56	-34.2	-35.4	29.6	3.02e+01	0	32	0	120586240	42	6371
2026-01-08 14:26:42.80	114.63	13.50	-34.4	-35.6	29.4	3.02e+01	0	32	0	122159104	42	6523
2026-01-08 14:26:43.81	114.84	13.45	-34.3	-35.5	29.5	3.02e+01	0	32	0	124256256	42	6433
2026-01-08 14:26:44.82	115.04	13.40	-34.4	-35.6	29.3	3.02e+01	0	32	0	126353408	42	6526
2026-01-08 14:26:45.83	115.24	13.34	-34.4	-35.6	29.4	3.02e+01	0	32	0	127926272	42	6519
2026-01-08 14:26:46.84	115.45	13.28	-34.2	-35.4	29.5	3.02e+01	0	32	0	130023424	42	6368
2026-01-08 14:26:47.84	115.65	13.23	-34.3	-35.5	29.5	3.02e+01	0	32	0	132120576	42	6460
2026-01-08 14:26:48.86	115.85	13.17	-34.2	-35.4	29.6	3.02e+01	0	32	0	133693440	42	6361
2026-01-08 14:26:49.86	116.05	13.12	-34.2	-35.5	29.5	3.02e+01	0	32	0	135790592	42	6425
2026-01-08 14:26:50.87	116.25	13.06	-34.4	-35.6	29.3	3.02e+01	0	32	0	137363456	42	6549
2026-01-08 14:26:51.88	116.45	13.01	-34.4	-35.6	29.3	3.02e+01	0	32	0	139460608	42	6565
2026-01-08 14:26:52.89	116.65	12.95	-34.2	-35.4	29.5	3.02e+01	0	32	0	141557760	42	6411
2026-01-08 14:26:53.90	116.84	12.89	-34.3	-35.5	29.5	3.02e+01	0	32	0	143130624	42	6442
2026-01-08 14:26:54.91	117.04	12.84	-34.2	-35.4	29.5	3.02e+01	0	32	0	145227776	42	6410
2026-01-08 14:26:55.92	117.24	12.78	-34.2	-35.4	29.6	3.02e+01	0	32	0	146800640	42	6360
2026-01-08 14:26:56.93	117.43	12.72	-34.2	-35.4	29.4	3.02e+01	0	32	0	148897792	42	6403
2026-01-08 14:26:57.93	117.62	12.67	-34.4	-35.6	29.4	3.02e+01	0	32	0	150470656	42	6514
2026-01-08 14:26:58.95	117.82	12.61	-34.3	-35.6	29.4	3.02e+01	0	32	0	152567808	42	6505
2026-01-08 14:26:59.96	118.01	12.55	-34.6	-35.8	29.2	3.02e+01	0	32	0	154664960	42	6699
2026-01-08 14:27:00.97	118.20	12.50	-34.3	-35.5	29.5	3.02e+01	0	32	0	156237824	42	6448
2026-01-08 14:27:01.98	118.40	12.44	-34.3	-35.6	29.4	3.02e+01	0	32	0	158334976	42	6503
2026-01-08 14:27:02.98	118.58	12.38	-34.4	-35.6	29.3	3.02e+01	0	32	0	160432128	42	6569
2026-01-08 14:27:03.99	118.77	12.32	-34.3	-35.5	29.4	3.02e+01	0	32	0	162004992	42	6488
2026-01-08 14:27:05.00	118.96	12.27	-34.5	-35.7	29.3	3.02e+01	0	32	0	164102144	42	6588
2026-01-08 14:27:06.01	119.15	12.21	-34.3	-35.5	29.5	3.02e+01	0	32	0	165675008	42	6464
2026-01-08 14:27:07.02	119.34	12.15	-34.5	-35.7	29.2	3.02e+01	0	32	0	167772160	42	6605
2026-01-08 14:27:08.03	119.53	12.09	-34.6	-35.8	29.2	3.02e+01	0	32	0	169869312	42	6684
2026-01-08 14:27:09.04	119.71	12.03	-34.5	-35.7	29.3	3.02e+01	0	32	0	171442176	42	6584
2026-01-08 14:27:10.04	119.89	11.98	-34.5	-35.7	29.3	3.02e+01	0	32	0	173539328	42	6592
2026-01-08 14:27:11.05	120.08	11.92	-34.4	-35.6	29.3	3.02e+01	0	32	0	175636480	42	6570
2026-01-08 14:27:12.06	120.26	11.86	-34.4	-35.6	29.4	3.02e+01	0	32	0	177209344	42	6502
2026-01-08 14:27:13.07	120.44	11.80	-34.4	-35.6	29.4	3.02e+01	0	32	0	179306496	42	6532
2026-01-08 14:27:14.08	120.63	11.74	-34.5	-35.7	29.2	3.02e+01	0	32	0	180879360	42	6629
2026-01-08 14:27:15.09	120.81	11.68	-34.5	-35.7	29.3	3.02e+01	0	32	0	182976512	42	6584
2026-01-08 14:27:16.09	120.99	11.63	-34.5	-35.7	29.3	3.02e+01	0	32	0	185073664	42	6597
2026-01-08 14:27:17.11	121.17	11.57	-34.5	-35.8	29.2	3.02e+01	0	32	0	186646528	42	6657
2026-01-08 14:27:18.12	121.35	11.51	-34.6	-35.8	29.2	3.02e+01	0	32	0	188743680	42	6667
2026-01-08 14:27:19.12	121.52	11.45	-34.6	-35.8	29.2	3.02e+01	0	32	0	190316544	42	6665
2026-01-08 14:27:20.13	121.70	11.39	-34.6	-35.9	29.1	3.02e+01	0	32	0	192413696	42	6735
2026-01-08 14:27:21.14	121.88	11.33	-34.6	-35.9	29.0	3.02e+01	0	32	0	194510848	42	6729
2026-01-08 14:27:22.15	122.05	11.27	-34.6	-35.9	29.1	3.02e+01	0	32	0	196083712	42	6731
2026-01-08 14:27:23.16	122.23	11.21	-34.6	-35.9	29.1	3.02e+01	0	32	0	198180864	42	6744
2026-01-08 14:27:24.17	122.40	11.15	-34.5	-35.7	29.2	3.02e+01	0	32	0	199753728	42	6625
2026-01-08 14:27:25.18	122.58	11.09	-34.5	-35.7	29.2	3.02e+01	0	32	0	201850880	42	6643
2026-01-08 14:27:26.19	122.75	11.03	-34.6	-35.8	29.0	3.02e+01	0	32	0	203948032	42	6709
2026-01-08 14:27:27.20	122.92	10.97	-34.6	-35.8	29.1	3.02e+01	0	32	0	205520896	42	6724
2026-01-08 14:27:28.21	123.09	10.91	-34.5	-35.8	29.2	3.02e+01	0	32	0	207618048	42	6657
2026-01-08 14:27:29.22	123.27	10.85	-34.5	-35.7	29.2	3.02e+01	0	32	0	209190912	42	6639
2026-01-08 14:27:30.23	123.44	10.79	-34.6	-35.9	29.1	3.02e+01	0	32	0	211288064	42	6733
2026-01-08 14:27:31.24	123.61	10.73	-34.7	-35.9	29.0	3.02e+01	0	32	0	213385216	42	6803
2026-01-08 14:27:32.25	123.77	10.67	-34.7	-35.9	29.1	3.02e+01	0	32	0	214958080	42	6755
2026-01-08 14:27:33.26	123.94	10.61	-34.8	-36.0	29.0	3.02e+01	0	32	0	217055232	42	6871
2026-01-08 14:27:34.26	124.11	10.55	-34.9	-36.2	28.9	3.02e+01	0	32	0	218628096	42	6968
2026-01-08 14:27:35.27	124.27	10.49	-34.7	-35.9	29.0	3.02e+01	0	32	0	220725248	42	6793
2026-01-08 14:27:36.28	124.44	10.43	-34.8	-36.0	28.9	3.02e+01	0	32	0	222822400	42	6862
2026-01-08 14:27:37.29	124.60	10.37	-34.7	-36.0	29.0	3.02e+01	0	32	0	224395264	42	6814
2026-01-08 14:27:38.30	124.77	10.31	-34.7	-36.0	29.0	3.02e+01	0	32	0	226492416	42	6818
2026-01-08 14:27:39.31	124.93	10.25	-34.8	-36.0	29.0	3.02e+01	0	32	0	228589568	42	6843
2026-01-08 14:27:40.32	125.10	10.19	-34.8	-36.0	29.0	3.02e+01	0	32	0	230162432	42	6836
2026-01-08 14:27:41.33	125.26	10.13	-34.7	-35.9	29.0	3.02e+01	0	32	0	232259584	42	6753
2026-01-08 14:27:42.34	125.42	10.07	-34.9	-36.1	28.9	3.02e+01	0	32	0	233832448	42	6944
2026-01-08 14:27:43.34	125.58	10.01	-34.8	-36.0	29.0	3.02e+01	0	32	0	235929600	42	6861
2026-01-08 14:27:44.36	125.74	9.95	-34.8	-36.0	28.9	3.02e+01	0	32	0	238026752	42	6882
2026-01-08 14:27:45.36	125.90	9.89	-34.9	-36.1	28.8	3.02e+01	0	32	0	239599616	42	6938
2026-01-08 14:27:46.37	126.06	9.83	-34.9	-36.2	28.8	3.02e+01	0	32	0	241696768	42	6977
2026-01-08 14:27:47.38	126.22	9.77	-35.1	-36.3	28.7	3.02e+01	0	32	0	243269632	44	6319
2026-01-08 14:27:48.39	126.37	9.71	-35.1	-36.3	28.6	3.02e+01	0	32	0	245366784	44	6329
2026-01-08 14:27:49.40	126.53	9.65	-35.0	-36.2	28.6	3.02e+01	0	32	0	247463936	44	6267
2026-01-08 14:27:50.41	126.69	9.59	-35.0	-36.2	28.7	3.02e+01	0	32	0	249036800	44	6263
2026-01-08 14:27:51.42	126.84	9.53	-35.0	-36.3	28.6	3.02e+01	0	32	0	251133952	44	6286
2026-01-08 14:27:52.43	127.00	9.47	-35.0	-36.3	28.6	3.02e+01	0	32	0	252706816	44	6316
2026-01-08 14:27:53.44	127.15	9.41	-35.1	-36.3	28.5	3.02e+01	0	32	0	254803968	44	6340
2026-01-08 14:27:54.45	127.30	9.35	-35.1	-36.3	28.6	3.02e+01	0	32	0	256901120	44	6334
2026-01-08 14:27:55.46	127.46	9.29	-34.9	-36.2	28.7	3.02e+01	0	32	0	258473984	44	6219
2026-01-08 14:27:56.47	127.61	9.23	-34.9	-36.1	28.7	3.02e+01	0	32	0	260571136	44	6202
2026-01-08 14:27:57.48	127.76	9.17	-35.0	-36.2	28.7	3.02e+01	0	32	0	262144000	44	6238
2026-01-08 14:27:58.49	127.91	9.11	-35.2	-36.4	28.5	3.02e+01	0	32	0	264241152	44	6410
2026-01-08 14:27:59.50	128.06	9.05	-35.0	-36.3	28.6	3.02e+01	0	32	0	266338304	44	6287
2026-01-08 14:28:00.51	128.21	8.99	-35.0	-36.2	28.7	3.02e+01	0	32	0	267911168	44	6235
2026-01-08 14:28:01.52	128.36	8.93	-35.0	-36.3	28.6	3.02e+01	0	32	0	270008320	44	6287
2026-01-08 14:28:02.53	128.51	8.87	-35.0	-36.3	28.6	3.02e+01	0	32	0	272105472	44	6299
2026-01-08 14:28:03.54	128.66	8.81	-35.1	-36.3	28.6	3.02e+01	0	32	0	273678336	44	6347
2026-01-08 14:28:04.55	128.80	8.74	-35.2	-36.4	28.5	3.02e+01	0	32	0	275775488	44	6397
2026-01-08 14:28:05.56	128.95	8.68	-35.2	-36.4	28.5	3.02e+01	0	32	0	277348352	44	6401
2026-01-08 14:28:06.56	129.09	8.62	-35.0	-36.3	28.6	3.02e+01	0	32	0	279445504	44	6312
2026-01-08 14:28:07.57	129.24	8.56	-35.1	-36.4	28.5	3.02e+01	0	32	0	281542656	44	6356
2026-01-08 14:28:08.58	129.38	8.50	-35.2	-36.4	28.5	3.02e+01	0	32	0	283115520	44	6391
2026-01-08 14:28:09.59	129.53	8.44	-35.3	-36.5	28.3	3.02e+01	0	32	0	285212672	44	6472
2026-01-08 14:28:10.60	129.67	8.38	-35.2	-36.5	28.4	3.02e+01	0	32	0	286785536	44	6444
2026-01-08 14:28:11.61	129.81	8.32	-35.2	-36.4	28.4	3.02e+01	0	32	0	288882688	44	6418
2026-01-08 14:28:12.62	129.95	8.26	-35.3	-36.5	28.3	3.02e+01	0	32	0	290979840	44	6491
2026-01-08 14:28:13.63	130.10	8.20	-35.3	-36.5	28.3	3.02e+01	0	32	0	292552704	44	6497
2026-01-08 14:28:14.63	130.23	8.14	-35.3	-36.5	28.3	3.02e+01	0	32	0	294649856	44	6486
2026-01-08 14:28:15.64	130.37	8.08	-35.3	-36.5	28.3	3.02e+01	0	32	0	296747008	44	6488
2026-01-08 14:28:16.65	130.51	8.02	-35.2	-36.4	28.4	3.02e+01	0	32	0	298319872	44	6399
2026-01-08 14:28:17.66	130.65	7.96	-35.3	-36.6	28.2	3.02e+01	0	32	0	300417024	44	6528
2026-01-08 14:28:18.67	130.79	7.90	-35.4	-36.7	28.2	3.02e+01	0	32	0	301989888	44	6612
2026-01-08 14:28:19.68	130.93	7.84	-35.4	-36.7	28.2	3.02e+01	0	32	0	304087040	44	6598
2026-01-08 14:28:20.69	131.07	7.78	-35.3	-36.6	28.3	3.02e+01	0	32	0	306184192	44	6507
2026-01-08 14:28:21.70	131.20	7.72	-35.4	-36.6	28.1	3.02e+01	0	32	0	307757056	44	6554
2026-01-08 14:28:22.71	131.34	7.66	-35.4	-36.7	28.2	3.02e+01	0	32	0	309854208	44	6588
2026-01-08 14:28:23.72	131.47	7.60	-35.5	-36.8	28.0	3.02e+01	0	32	0	311427072	44	6678
2026-01-08 14:28:24.73	131.61	7.54	-35.5	-36.7	28.2	3.02e+01	0	32	0	313524224	44	6638
2026-01-08 14:28:25.74	131.74	7.48	-35.5	-36.8	28.1	3.02e+01	0	32	0	315621376	44	6657
2026-01-08 14:28:26.75	131.88	7.42	-35.7	-37.0	27.9	3.02e+01	0	32	0	317194240	44	6820
2026-01-08 14:28:27.76	132.01	7.36	-35.5	-36.8	28.0	3.02e+01	0	32	0	319291392	44	6702
2026-01-08 14:28:28.77	132.14	7.30	-35.5	-36.9	28.0	3.02e+01	0	32	0	320864256	44	6744
2026-01-08 14:28:29.78	132.27	7.24	-35.6	-36.9	27.9	3.02e+01	0	32	0	322961408	44	6801
2026-01-08 14:28:30.79	132.41	7.18	-35.7	-37.0	27.9	3.02e+01	0	32	0	325058560	44	6822
2026-01-08 14:28:31.80	132.54	7.12	-35.7	-37.0	27.8	3.02e+01	0	32	0	326631424	44	6818
2026-01-08 14:28:32.81	132.67	7.06	-35.6	-36.9	27.9	3.02e+01	0	32	0	328728576	44	6754
2026-01-08 14:28:33.82	132.80	7.00	-35.7	-37.0	27.8	3.02e+01	0	32	0	330301440	44	6809
2026-01-08 14:28:34.82	132.92	6.94	-35.9	-37.2	27.7	3.02e+01	0	32	0	332398592	44	6977
2026-01-08 14:28:35.83	133.05	6.88	-35.8	-37.1	27.7	3.02e+01	0	32	0	334495744	44	6957
2026-01-08 14:28:36.84	133.18	6.82	-35.9	-37.3	27.6	3.02e+01	0	32	0	336068608	44	7047
2026-01-08 14:28:37.85	133.31	6.77	-35.8	-37.1	27.7	3.02e+01	0	32	0	338165760	46	6192
2026-01-08 14:28:38.86	133.43	6.71	-36.0	-37.3	27.5	3.02e+01	0	32	0	340262912	46	6313
2026-01-08 14:28:39.87	133.56	6.65	-35.9	-37.3	27.6	3.02e+01	0	32	0	341835776	46	6282
2026-01-08 14:28:40.88	133.69	6.59	-35.9	-37.3	27.6	3.02e+01	0	32	0	343932928	46	6278
2026-01-08 14:28:41.89	133.81	6.53	-35.9	-37.2	27.6	3.02e+01	0	32	0	345505792	46	6236
2026-01-08 14:28:42.90	133.94	6.47	-35.8	-37.1	27.7	3.02e+01	0	32	0	347602944	46	6204
2026-01-08 14:28:43.90	134.06	6.41	-35.8	-37.1	27.7	3.02e+01	0	32	0	349700096	46	6159
2026-01-08 14:28:44.91	134.18	6.35	-35.9	-37.2	27.6	3.02e+01	0	32	0	351272960	46	6226
2026-01-08 14:28:45.92	134.31	6.29	-35.8	-37.1	27.7	3.02e+01	0	32	0	353370112	46	6192
2026-01-08 14:28:46.93	134.43	6.23	-35.7	-37.0	27.8	3.02e+01	0	32	0	354942976	46	6117
2026-01-08 14:28:47.94	134.55	6.17	-35.8	-37.1	27.7	3.02e+01	0	32	0	357040128	46	6153
2026-01-08 14:28:48.95	134.67	6.11	-35.9	-37.2	27.5	3.02e+01	0	32	0	359137280	46	6263
2026-01-08 14:28:49.96	134.79	6.06	-35.8	-37.2	27.5	3.02e+01	0	32	0	360710144	46	6209
2026-01-08 14:28:50.97	134.91	6.00	-36.0	-37.4	27.4	3.02e+01	0	32	0	362807296	46	6354
2026-01-08 14:28:51.98	135.03	5.94	-36.0	-37.3	27.4	3.02e+01	0	32	0	364380160	46	6335
2026-01-08 14:28:52.98	135.15	5.88	-35.9	-37.2	27.5	3.02e+01	0	32	0	366477312	46	6238
2026-01-08 14:28:53.99	135.27	5.82	-35.9	-37.2	27.5	3.02e+01	0	32	0	368574464	46	6275
2026-01-08 14:28:55.01	135.39	5.76	-36.0	-37.4	27.4	3.02e+01	0	32	0	370147328	46	6355
2026-01-08 14:28:56.02	135.51	5.70	-36.1	-37.5	27.2	3.02e+01	0	32	0	372244480	46	6438
2026-01-08 14:28:57.02	135.63	5.64	-36.1	-37.5	27.2	3.02e+01	0	32	0	373817344	46	6443
2026-01-08 14:28:58.03	135.74	5.59	-36.1	-37.5	27.2	3.02e+01	0	32	0	375914496	46	6437
2026-01-08 14:28:59.04	135.86	5.53	-36.3	-37.6	27.1	3.02e+01	0	32	0	378011648	46	6550
2026-01-08 14:29:00.05	135.98	5.47	-36.4	-37.8	26.9	3.02e+01	0	32	0	379584512	46	6670
2026-01-08 14:29:01.06	136.09	5.41	-36.3	-37.6	27.1	3.02e+01	0	32	0	381681664	46	6542
2026-01-08 14:29:02.07	136.21	5.35	-36.4	-37.8	27.0	3.02e+01	0	32	0	383254528	46	6672
2026-01-08 14:29:03.08	136.32	5.29	-36.4	-37.8	27.0	3.02e+01	0	32	0	385351680	46	6674
2026-01-08 14:29:04.09	136.43	5.24	-36.3	-37.7	27.0	3.02e+01	0	32	0	387448832	46	6624
2026-01-08 14:29:05.10	136.55	5.18	-36.4	-37.7	27.0	3.02e+01	0	32	0	389021696	46	6640
2026-01-08 14:29:06.11	136.66	5.12	-36.4	-37.7	27.0	3.02e+01	0	32	0	391118848	46	6624
2026-01-08 14:29:07.12	136.77	5.06	-36.3	-37.7	27.0	3.02e+01	0	32	0	393216000	46	6581
2026-01-08 14:29:08.13	136.89	5.00	-36.3	-37.7	27.0	3.02e+01	0	32	0	394788864	46	6585
2026-01-08 14:29:09.14	137.00	4.95	-36.5	-37.9	26.8	3.02e+01	0	32	0	396886016	46	6739
2026-01-08 14:29:10.15	137.11	4.89	-36.5	-37.8	26.8	3.02e+01	0	32	0	398458880	46	6723
2026-01-08 14:29:11.16	137.22	4.83	-36.5	-37.8	26.8	3.02e+01	0	32	0	400556032	46	6719
2026-01-08 14:29:12.17	137.33	4.77	-36.4	-37.7	26.9	3.02e+01	0	32	0	402653184	46	6648
2026-01-08 14:29:13.17	137.44	4.71	-36.5	-37.9	26.7	3.02e+01	0	32	0	404226048	46	6769
2026-01-08 14:29:14.18	137.55	4.66	-36.4	-37.8	26.8	3.02e+01	0	32	0	406323200	46	6691
2026-01-08 14:29:15.19	137.66	4.60	-36.5	-37.8	26.7	3.02e+01	0	32	0	408420352	46	6726
2026-01-08 14:29:16.20	137.77	4.54	-36.5	-37.9	26.7	3.02e+01	0	32	0	409993216	46	6779
2026-01-08 14:29:17.21	137.88	4.48	-36.6	-38.0	26.6	3.02e+01	0	32	0	412090368	46	6824
2026-01-08 14:29:18.22	137.98	4.43	-36.6	-38.0	26.6	3.02e+01	0	32	0	413663232	46	6857
2026-01-08 14:29:19.23	138.09	4.37	-36.6	-38.0	26.5	3.02e+01	0	32	0	415760384	46	6850
2026-01-08 14:29:20.24	138.20	4.31	-36.7	-38.2	26.4	3.02e+01	0	32	0	417333248	46	6975
2026-01-08 14:29:21.25	138.30	4.25	-36.9	-38.3	26.2	3.02e+01	0	32	0	419430400	46	7079
2026-01-08 14:29:22.26	138.41	4.20	-37.0	-38.4	26.0	3.02e+01	0	32	0	421527552	48	6418
2026-01-08 14:29:23.26	138.51	4.14	-37.2	-38.6	25.8	3.02e+01	0	32	0	423100416	48	6564
2026-01-08 14:29:24.27	138.62	4.08	-37.4	-38.9	25.6	3.02e+01	0	32	0	425197568	48	6739
2026-01-08 14:29:25.28	138.72	4.03	-37.7	-39.2	25.2	3.02e+01	0	32	0	426770432	48	7022
2026-01-08 14:29:26.29	138.83	3.97	-38.0	-39.6	24.5	3.02e+01	0	32	0	428867584	48	7323
2026-01-08 14:29:27.30	138.93	3.91	-38.2	-39.8	24.5	3.02e+01	0	32	0	430964736	50	6710
2026-01-08 14:29:28.31	139.03	3.86	-38.6	-40.3	24.0	3.02e+01	0	32	0	432537600	50	7086
2026-01-08 14:29:29.32	139.14	3.80	-38.8	-40.6	23.5	3.02e+01	0	32	0	434634752	50	7350
2026-01-08 14:29:30.33	139.24	3.74	-39.1	-41.0	23.0	3.02e+01	0	32	0	436731904	52	6867
2026-01-08 14:29:31.34	139.34	3.69	-39.5	-41.5	22.4	3.02e+01	0	32	0	438304768	52	7285
2026-01-08 14:29:32.35	139.44	3.63	-39.9	-42.1	21.8	3.02e+01	0	32	0	440401920	52	7728
2026-01-08 14:29:33.36	139.55	3.57	-40.2	-42.4	21.4	3.02e+01	0	32	0	441974784	54	7187
2026-01-08 14:29:34.37	139.65	3.52	-40.5	-42.9	20.8	3.02e+01	0	32	0	444071936	54	7593
2026-01-08 14:29:35.38	139.75	3.46	-40.9	-43.4	20.2	3.02e+01	0	32	0	446169088	54	8052
2026-01-08 14:29:36.39	139.85	3.40	-41.3	-44.0	19.6	3.02e+01	0	32	0	447741952	56	7698
2026-01-08 14:29:37.40	139.95	3.35	-41.6	-44.6	19.0	3.02e+01	0	32	0	449839104	56	8233
2026-01-08 14:29:38.41	140.05	3.29	-41.9	-45.1	18.2	3.02e+01	0	32	0	451411968	58	7792
2026-01-08 14:29:39.42	140.14	3.24	-42.3	-45.8	17.5	3.02e+01	0	32	0	453509120	58	8434
2026-01-08 14:29:40.43	140.24	3.18	-42.6	-46.5	16.6	3.02e+01	0	32	0	455606272	58	9149
2026-01-08 14:29:41.44	140.34	3.12	-42.9	-47.1	15.9	3.02e+01	0	32	0	457179136	58	9817
2026-01-08 14:29:42.44	140.44	3.07	-43.2	-47.8	15.4	3.02e+01	0	32	0	459276288	60	9433
2026-01-08 14:29:43.45	140.53	3.01	-43.7	-49.2	9.5	3.02e+01	0	32	0	461373440	60	11089
2026-01-08 14:29:44.46	140.63	2.96	-47.5	-65.7	3.5	3.02e+01	0	32	104	461373440	60	74087
2026-01-08 14:29:45.47	140.73	2.90	-47.9	-66.0	3.5	3.02e+01	0	32	104	461373440	60	76924
2026-01-08 14:29:46.48	140.82	2.84	-48.4	-66.3	3.5	3.02e+01	0	32	104	461373440	60	79300
2026-01-08 14:29:47.49	140.92	2.79	-48.5	-66.5	3.5	3.02e+01	0	32	104	461373440	60	80883
2026-01-08 14:29:48.50	141.02	2.73	-48.5	-66.6	3.5	3.02e+01	0	32	104	461373440	60	82145
2026-01-08 14:29:49.51	141.11	2.68	-48.7	-66.6	3.5	3.02e+01	0	32	104	461373440	60	82468
2026-01-08 14:29:50.52	141.21	2.62	-48.8	-66.6	3.5	3.02e+01	0	32	104	461373440	60	82674
2026-01-08 14:29:51.53	141.30	2.57	-48.8	-66.7	3.5	3.02e+01	0	32	104	461373440	60	83105
2026-01-08 14:29:52.54	141.39	2.51	-48.8	-66.8	3.5	3.02e+01	0	32	104	461373440	60	83721
2026-01-08 14:29:53.55	141.49	2.46	-48.8	-66.7	3.5	3.02e+01	0	32	104	461373440	60	83045
2026-01-08 14:29:54.56	141.58	2.40	-48.8	-66.8	3.5	3.02e+01	0	32	104	461373440	60	83934
2026-01-08 14:29:55.57	141.67	2.35	-48.8	-66.6	3.5	3.02e+01	0	32	104	461373440	60	82732
2026-01-08 14:29:56.58	141.77	2.29	-48.8	-66.7	3.5	3.02e+01	0	32	104	461373440	60	82920
2026-01-08 14:29:57.59	141.86	2.24	-48.8	-66.7	3.5	3.02e+01	0	32	104	461373440	60	83030
2026-01-08 14:29:58.59	141.95	2.18	-48.7	-66.6	3.5	3.02e+01	0	32	104	461373440	60	82623
2026-01-08 14:29:59.60	142.04	2.13	-48.7	-66.6	3.5	3.02e+01	0	32	104	461373440	60	82737
2026-01-08 14:30:00.61	142.13	2.07	-48.7	-66.6	3.5	3.02e+01	0	32	104	461373440	60	82620
2026-01-08 14:30:01.62	142.22	2.02	-48.7	-66.6	3.5	3.02e+01	0	32	104	461373440	60	82561
2026-01-08 14:30:02.63	142.31	1.96	-48.7	-66.6	3.5	3.02e+01	0	32	104	461373440	60	82469
2026-01-08 14:30:03.64	142.40	1.91	-48.7	-66.6	3.5	3.02e+01	0	32	104	461373440	60	82370
2026-01-08 14:30:04.65	142.49	1.85	-48.7	-66.6	3.5	3.02e+01	0	32	104	461373440	60	82148
2026-01-08 14:30:05.66	142.58	1.80	-48.7	-66.6	3.5	3.02e+01	0	32	104	461373440	60	81922
2026-01-08 14:30:06.67	142.67	1.74	-48.7	-66.6	3.5	3.02e+01	0	32	104	461373440	60	82069
2026-01-08 14:30:07.68	142.76	1.69	-48.7	-66.6	3.5	3.02e+01	0	32	104	461373440	60	82635
2026-01-08 14:30:08.69	142.85	1.64	-48.7	-66.6	3.5	3.02e+01	0	32	104	461373440	60	82084
2026-01-08 14:30:09.69	142.93	1.58	-48.7	-66.6	3.5	3.02e+01	0	32	104	461373440	60	82448
2026-01-08 14:30:10.70	143.02	1.53	-48.7	-66.6	3.5	3.02e+01	0	32	104	461373440	60	82012
2026-01-08 14:30:11.71	143.11	1.47	-48.7	-66.6	3.5	3.02e+01	0	32	104	461373440	60	82189
2026-01-08 14:30:12.72	143.19	1.42	-48.7	-66.6	3.5	3.02e+01	0	32	104	461373440	60	82241
2026-01-08 14:30:13.73	143.28	1.37	-48.7	-66.6	3.5	3.02e+01	0	32	104	461373440	60	82373
2026-01-08 14:30:14.74	143.37	1.31	-48.7	-66.6	3.5	3.02e+01	0	32	104	461373440	60	82327
2026-01-08 14:30:15.75	143.45	1.26	-48.7	-66.6	3.5	3.02e+01	0	32	104	461373440	60	81972
2026-01-08 14:30:16.76	143.54	1.20	-48.7	-66.6	3.5	3.02e+01	0	32	104	461373440	60	82147
2026-01-08 14:30:17.77	143.62	1.15	-48.7	-66.6	3.5	3.02e+01	0	32	104	461373440	60	82164
2026-01-08 14:30:18.78	143.71	1.10	-48.7	-66.6	3.5	3.02e+01	0	32	104	461373440	60	81985
2026-01-08 14:30:19.79	143.79	1.04	-48.7	-66.6	3.5	3.02e+01	0	32	104	461373440	60	82435
2026-01-08 14:30:20.80	143.88	0.99	-48.7	-66.6	3.5	3.02e+01	0	32	104	461373440	60	82267
2026-01-08 14:30:21.81	143.96	0.94	-48.7	-66.6	3.5	3.02e+01	0	32	104	461373440	60	82404
2026-01-08 14:30:22.82	144.05	0.88	-48.7	-66.6	3.5	3.02e+01	0	32	104	461373440	60	82176
2026-01-08 14:30:23.83	144.13	0.83	-48.7	-66.6	3.5	3.02e+01	0	32	104	461373440	60	82354
2026-01-08 14:30:24.84	144.21	0.78	-48.7	-66.6	3.5	3.02e+01	0	32	104	461373440	60	82128
2026-01-08 14:30:25.85	144.30	0.72	-48.7	-66.5	3.5	3.02e+01	0	32	104	461373440	60	81773
2026-01-08 14:30:26.86	144.38	0.67	-48.7	-66.6	3.5	3.02e+01	0	32	104	461373440	60	81986
2026-01-08 14:30:27.87	144.46	0.62	-48.7	-66.6	3.5	3.02e+01	0	32	104	461373440	60	82306
2026-01-08 14:30:28.88	144.54	0.56	-48.7	-66.6	3.5	3.02e+01	0	32	104	461373440	60	82255
2026-01-08 14:30:29.89	144.62	0.51	-48.7	-66.6	3.5	3.02e+01	0	32	104	461373440	60	82743
2026-01-08 14:30:30.90	144.70	0.46	-48.7	-66.6	3.5	3.02e+01	0	32	104	461373440	60	82250
2026-01-08 14:30:31.91	144.79	0.40	-48.7	-66.6	3.5	3.02e+01	0	32	104	461373440	60	81819
2026-01-08 14:30:32.93	144.87	0.35	-48.7	-66.6	3.5	3.02e+01	0	32	104	461373440	60	82262
2026-01-08 14:30:33.93	144.95	0.30	-48.7	-66.6	3.5	3.02e+01	0	32	104	461373440	60	81917
2026-01-08 14:30:34.95	145.03	0.25	-48.7	-66.6	3.5	3.02e+01	0	32	104	461373440	60	82175
2026-01-08 14:30:35.95	145.11	0.19	-48.7	-66.6	3.5	3.02e+01	0	32	104	461373440	60	81868
2026-01-08 14:30:36.96	145.19	0.14	-48.7	-66.6	3.5	3.02e+01	0	32	104	461373440	60	81965
2026-01-08 14:30:37.97	145.26	0.09	-48.7	-66.6	3.5	3.02e+01	0	32	104	461373440	60	82422
