passes_logs/2026/01/08/R4.6S_Anadyr/R4.6S_Anadyr__20260108_212226_FENGYUN_3E_rec.log

#Pass ID: 20260108_212226_FENGYUN 3E
#Satellite: FENGYUN 3E
#Configuration: FENGYUN 3E
#almurnet v.1.7.20251203
#Start time: 2026-01-08 21:22:29

#Version: 2.2.20231116
#Station: R4.6S_Anadyr
#Location: 177.4865 lon 64.73178 lat
#TLE: 1 49008U 21062A   26008.31124991 -.00000020  00000+0  11209-4 0  9997
#TLE: 2 49008  98.7482  13.5177 0001702 150.1462 209.9812 14.19884205233892

#Time	Az	El	Level	Level2	SNR	BER	BlckErr	Temp	State	Recorded	gain1	gain2
2026-01-08 21:22:29.96	29.48	0.18	-48.0	-57.8	3.3	8.40e-01	0	33	0	0	60	27966
2026-01-08 21:22:30.96	29.42	0.24	-48.0	-59.3	3.6	8.46e-01	0	33	104	0	60	33354
2026-01-08 21:22:31.97	29.37	0.29	-48.0	-59.4	3.6	8.45e-01	0	33	104	0	60	33542
2026-01-08 21:22:32.98	29.31	0.35	-48.1	-59.3	3.6	8.45e-01	0	33	104	0	60	33488
2026-01-08 21:22:33.99	29.26	0.40	-47.9	-59.3	3.6	8.44e-01	0	33	104	0	60	33310
2026-01-08 21:22:35.00	29.21	0.46	-48.0	-59.3	3.6	8.46e-01	0	33	104	0	60	33314
2026-01-08 21:22:36.01	29.15	0.51	-47.9	-59.2	3.6	8.45e-01	0	33	104	0	60	32867
2026-01-08 21:22:37.02	29.10	0.57	-47.9	-59.2	3.6	8.45e-01	0	33	104	0	60	32846
2026-01-08 21:22:38.03	29.04	0.62	-47.7	-59.0	3.6	8.47e-01	0	33	104	0	60	32064
2026-01-08 21:22:39.04	28.98	0.68	-47.5	-58.8	3.5	8.46e-01	0	33	104	0	60	31571
2026-01-08 21:22:40.05	28.93	0.74	-46.7	-58.7	3.6	8.45e-01	0	33	104	0	60	31224
2026-01-08 21:22:41.06	28.87	0.79	-47.1	-58.5	3.6	8.45e-01	0	33	104	0	60	30525
2026-01-08 21:22:42.06	28.82	0.85	-46.9	-58.2	3.6	8.45e-01	0	33	104	0	60	29503
2026-01-08 21:22:43.07	28.76	0.90	-46.5	-57.8	3.6	8.45e-01	0	33	104	0	60	27917
2026-01-08 21:22:44.08	28.70	0.96	-46.3	-57.5	3.6	8.45e-01	0	33	104	0	60	27085
2026-01-08 21:22:45.09	28.65	1.02	-46.2	-57.5	3.6	8.45e-01	0	33	104	0	60	27034
2026-01-08 21:22:46.10	28.59	1.07	-46.2	-57.4	3.6	8.45e-01	0	33	104	0	60	26878
2026-01-08 21:22:47.11	28.53	1.13	-46.2	-57.5	3.6	8.45e-01	0	33	104	0	60	26971
2026-01-08 21:22:48.12	28.48	1.19	-46.2	-57.5	3.6	8.46e-01	0	33	104	0	60	27043
2026-01-08 21:22:49.13	28.42	1.24	-46.2	-57.4	3.6	8.44e-01	0	33	104	0	60	26798
2026-01-08 21:22:50.14	28.36	1.30	-46.2	-57.3	3.6	8.45e-01	0	34	104	0	60	26624
2026-01-08 21:22:51.15	28.30	1.36	-46.2	-57.4	3.6	8.46e-01	0	34	104	0	60	26650
2026-01-08 21:22:52.16	28.24	1.41	-46.2	-57.4	3.6	8.45e-01	0	34	104	0	60	26702
2026-01-08 21:22:53.17	28.18	1.47	-46.2	-57.4	3.6	8.44e-01	0	34	104	0	60	26803
2026-01-08 21:22:54.18	28.12	1.53	-46.2	-57.4	3.6	8.47e-01	0	34	104	0	60	26788
2026-01-08 21:22:55.19	28.07	1.58	-46.2	-57.5	3.6	8.45e-01	0	34	104	0	60	27185
2026-01-08 21:22:56.20	28.01	1.64	-46.2	-57.5	3.6	8.45e-01	0	34	104	0	60	27211
2026-01-08 21:22:57.22	27.95	1.70	-46.2	-57.5	3.6	8.45e-01	0	34	104	0	60	27224
2026-01-08 21:22:58.23	27.89	1.76	-46.2	-57.5	3.6	8.45e-01	0	34	104	0	60	27227
2026-01-08 21:22:59.23	27.83	1.81	-46.2	-57.5	3.6	8.45e-01	0	34	104	0	60	27201
2026-01-08 21:23:00.24	27.77	1.87	-46.2	-57.6	3.6	8.45e-01	0	34	104	0	60	27335
2026-01-08 21:23:01.25	27.70	1.93	-46.2	-57.5	3.6	8.46e-01	0	34	104	0	60	27124
2026-01-08 21:23:02.26	27.64	1.98	-46.2	-57.3	3.6	8.45e-01	0	34	104	0	60	26485
2026-01-08 21:23:03.27	27.58	2.04	-46.2	-57.0	3.6	8.45e-01	0	34	104	0	60	25553
2026-01-08 21:23:04.28	27.52	2.10	-46.1	-56.9	3.6	8.46e-01	0	34	104	0	60	25439
2026-01-08 21:23:05.29	27.46	2.16	-46.1	-56.9	3.6	8.45e-01	0	34	104	0	60	25235
2026-01-08 21:23:06.30	27.40	2.22	-46.1	-56.8	3.6	8.45e-01	0	34	104	0	60	24934
2026-01-08 21:23:07.31	27.33	2.27	-46.2	-57.3	3.6	8.44e-01	0	34	104	0	60	26340
2026-01-08 21:23:08.31	27.27	2.33	-46.2	-57.4	3.6	8.45e-01	0	34	104	0	60	26949
2026-01-08 21:23:09.33	27.21	2.39	-46.2	-57.5	3.6	8.45e-01	0	34	104	0	60	27211
2026-01-08 21:23:10.33	27.15	2.45	-46.2	-57.4	3.6	8.45e-01	0	34	104	0	60	26698
2026-01-08 21:23:11.34	27.08	2.51	-46.2	-57.3	3.6	8.45e-01	0	34	104	0	60	26639
2026-01-08 21:23:12.35	27.02	2.57	-46.2	-57.4	3.6	8.45e-01	0	34	104	0	60	26941
2026-01-08 21:23:13.36	26.96	2.62	-46.2	-57.5	3.6	8.46e-01	0	34	104	0	60	27157
2026-01-08 21:23:14.37	26.89	2.68	-46.2	-57.3	3.6	8.45e-01	0	34	104	0	60	26418
2026-01-08 21:23:15.38	26.83	2.74	-46.1	-56.5	3.6	8.46e-01	0	34	104	0	60	24254
2026-01-08 21:23:16.39	26.76	2.80	-46.1	-56.1	3.6	8.45e-01	0	34	104	0	60	23076
2026-01-08 21:23:17.40	26.70	2.86	-46.1	-56.2	3.6	8.45e-01	0	34	104	0	60	23295
2026-01-08 21:23:18.41	26.63	2.92	-46.2	-57.0	3.6	8.45e-01	0	34	104	0	60	25616
2026-01-08 21:23:19.42	26.57	2.98	-46.1	-57.0	3.6	8.45e-01	0	34	104	0	60	25522
2026-01-08 21:23:20.43	26.50	3.04	-45.8	-54.1	3.7	8.44e-01	0	34	104	0	60	18324
2026-01-08 21:23:21.44	26.43	3.10	-44.8	-49.3	6.7	2.79e-01	0	34	0	1048576	60	10560
2026-01-08 21:23:22.45	26.37	3.16	-43.5	-46.3	9.7	2.40e-02	0	34	0	8388608	60	7477
2026-01-08 21:23:23.46	26.30	3.22	-42.2	-44.3	11.9	1.42e-03	0	34	0	14680064	58	6680
2026-01-08 21:23:24.47	26.23	3.27	-41.3	-43.0	13.4	2.74e-05	0	34	0	22020096	56	6411
2026-01-08 21:23:25.48	26.17	3.33	-41.1	-42.7	13.6	3.40e-06	0	34	0	30408704	56	6220
2026-01-08 21:23:26.49	26.10	3.39	-43.1	-45.6	10.6	1.28e-01	0	34	0	36700160	60	6854
2026-01-08 21:23:27.50	26.03	3.45	-35.2	-35.9	21.1	0.00e+00	0	34	0	44040192	44	5658
2026-01-08 21:23:28.51	25.96	3.51	-46.1	-56.0	3.6	8.45e-01	0	34	104	47185920	60	22936
2026-01-08 21:23:29.51	25.90	3.57	-44.6	-48.6	11.0	3.66e-01	0	34	104	47185920	60	9742
2026-01-08 21:23:30.52	25.83	3.63	-39.0	-40.3	16.3	0.00e+00	0	34	0	51380224	50	6677
2026-01-08 21:23:31.53	25.76	3.69	-37.3	-38.4	18.1	2.20e-06	0	34	0	58720256	48	5981
2026-01-08 21:23:32.54	25.69	3.75	-36.7	-37.6	18.8	0.00e+00	0	34	0	66060288	46	6172
2026-01-08 21:23:33.55	25.62	3.81	-36.6	-37.5	19.1	0.00e+00	0	34	0	73400320	46	6076
2026-01-08 21:23:34.56	25.55	3.87	-35.7	-36.6	20.0	0.00e+00	0	34	0	80740352	46	5456
2026-01-08 21:23:35.57	25.48	3.94	-36.3	-37.2	19.5	0.00e+00	0	34	0	88080384	44	6566
2026-01-08 21:23:36.58	25.41	4.00	-36.1	-37.0	19.4	0.00e+00	0	34	0	95420416	44	6426
2026-01-08 21:23:37.58	25.34	4.06	-35.6	-36.4	20.2	0.00e+00	0	34	0	102760448	44	6011
2026-01-08 21:23:38.59	25.27	4.12	-35.9	-36.8	20.6	0.00e+00	0	34	0	110100480	44	6253
2026-01-08 21:23:39.61	25.20	4.18	-34.9	-35.6	21.0	0.00e+00	0	34	0	116391936	44	5501
2026-01-08 21:23:40.61	25.12	4.24	-34.8	-35.6	21.2	0.00e+00	0	34	0	123731968	44	5456
2026-01-08 21:23:41.62	25.05	4.30	-34.1	-34.9	21.8	0.00e+00	0	34	0	132120576	42	5652
2026-01-08 21:23:42.63	24.98	4.36	-33.9	-34.6	22.1	0.00e+00	0	34	0	138412032	42	5476
2026-01-08 21:23:43.64	24.91	4.42	-34.0	-34.7	22.3	0.00e+00	0	34	0	145752064	42	5536
2026-01-08 21:23:44.66	24.83	4.49	-34.1	-34.8	22.0	0.00e+00	0	34	0	153092096	42	5585
2026-01-08 21:23:45.67	24.76	4.55	-33.8	-34.5	22.3	0.00e+00	0	34	0	160432128	40	6084
2026-01-08 21:23:46.68	24.69	4.61	-33.9	-34.6	22.2	0.00e+00	0	34	0	167772160	40	6163
2026-01-08 21:23:47.69	24.61	4.67	-33.5	-34.2	22.5	0.00e+00	0	34	0	175112192	40	5891
2026-01-08 21:23:48.70	24.54	4.73	-33.5	-34.2	22.6	0.00e+00	0	34	0	182452224	40	5871
2026-01-08 21:23:49.71	24.46	4.79	-33.4	-34.1	22.7	0.00e+00	0	34	0	189792256	40	5802
2026-01-08 21:23:50.72	24.39	4.86	-33.3	-34.0	22.8	0.00e+00	0	34	0	197132288	40	5750
2026-01-08 21:23:51.73	24.31	4.92	-33.3	-34.0	22.8	0.00e+00	0	34	0	204472320	40	5696
2026-01-08 21:23:52.73	24.24	4.98	-33.4	-34.1	22.7	0.00e+00	0	34	0	211812352	40	5812
2026-01-08 21:23:53.74	24.16	5.04	-33.3	-34.0	22.8	0.00e+00	0	34	0	219152384	40	5719
2026-01-08 21:23:54.75	24.09	5.10	-33.3	-34.0	22.9	0.00e+00	0	34	0	226492416	40	5736
2026-01-08 21:23:55.76	24.01	5.17	-33.2	-33.8	23.0	0.00e+00	0	34	0	233832448	40	5617
2026-01-08 21:23:56.77	23.93	5.23	-33.2	-33.9	22.9	0.00e+00	0	34	0	241172480	40	5676
2026-01-08 21:23:57.78	23.85	5.29	-33.3	-34.0	22.8	0.00e+00	0	34	0	248512512	40	5748
2026-01-08 21:23:58.79	23.78	5.35	-33.7	-34.4	22.6	0.00e+00	0	34	0	255852544	40	5980
2026-01-08 21:23:59.80	23.70	5.42	-33.9	-34.6	22.5	0.00e+00	0	34	0	263192576	40	6123
2026-01-08 21:24:00.81	23.62	5.48	-33.6	-34.3	22.6	0.00e+00	0	34	0	269484032	40	5955
2026-01-08 21:24:01.82	23.54	5.54	-33.6	-34.3	22.6	0.00e+00	0	34	0	277872640	40	5956
2026-01-08 21:24:02.83	23.46	5.61	-33.3	-34.0	22.9	0.00e+00	0	34	0	285212672	40	5719
2026-01-08 21:24:03.84	23.38	5.67	-33.2	-33.9	23.1	0.00e+00	0	34	0	291504128	40	5632
2026-01-08 21:24:04.85	23.30	5.73	-33.0	-33.7	23.2	0.00e+00	0	34	0	298844160	40	5535
2026-01-08 21:24:05.85	23.22	5.80	-33.2	-33.9	23.0	0.00e+00	0	34	0	306184192	40	5662
2026-01-08 21:24:06.86	23.14	5.86	-33.0	-33.7	23.2	0.00e+00	0	34	0	313524224	40	5544
2026-01-08 21:24:07.87	23.06	5.92	-33.1	-33.8	23.1	0.00e+00	0	34	0	320864256	40	5591
2026-01-08 21:24:08.88	22.98	5.99	-33.0	-33.7	23.2	0.00e+00	0	34	0	328204288	40	5553
2026-01-08 21:24:09.89	22.90	6.05	-32.9	-33.6	23.4	0.00e+00	0	34	0	335544320	40	5449
2026-01-08 21:24:10.90	22.82	6.12	-33.0	-33.7	23.3	0.00e+00	0	34	0	342884352	40	5536
2026-01-08 21:24:11.91	22.73	6.18	-33.0	-33.6	23.3	0.00e+00	0	34	0	350224384	40	5501
2026-01-08 21:24:12.92	22.65	6.24	-33.1	-33.8	23.2	0.00e+00	0	34	0	357564416	40	5587
2026-01-08 21:24:13.93	22.57	6.31	-33.2	-33.9	23.2	0.00e+00	0	34	0	364904448	40	5642
2026-01-08 21:24:14.93	22.48	6.37	-33.1	-33.8	23.2	0.00e+00	0	34	0	372244480	40	5571
2026-01-08 21:24:15.94	22.40	6.44	-33.1	-33.8	23.3	0.00e+00	0	34	0	379584512	40	5575
2026-01-08 21:24:16.95	22.32	6.50	-33.1	-33.8	23.2	0.00e+00	0	34	0	386924544	40	5572
2026-01-08 21:24:17.96	22.23	6.57	-33.1	-33.8	23.2	0.00e+00	0	34	0	393216000	40	5595
2026-01-08 21:24:18.97	22.15	6.63	-33.0	-33.7	23.3	0.00e+00	0	34	0	401604608	40	5533
2026-01-08 21:24:19.98	22.06	6.70	-33.0	-33.7	23.4	0.00e+00	0	34	0	408944640	40	5513
2026-01-08 21:24:20.98	21.97	6.76	-32.9	-33.6	23.3	0.00e+00	0	34	0	415236096	38	6147
2026-01-08 21:24:21.99	21.89	6.82	-33.0	-33.6	23.5	0.00e+00	0	34	0	422576128	38	6166
2026-01-08 21:24:23.00	21.80	6.89	-32.8	-33.5	23.6	0.00e+00	0	34	0	429916160	38	6036
2026-01-08 21:24:24.01	21.71	6.96	-32.6	-33.3	23.8	0.00e+00	0	34	0	437256192	38	5940
2026-01-08 21:24:25.02	21.63	7.02	-32.7	-33.3	23.7	0.00e+00	0	34	0	444596224	38	5964
2026-01-08 21:24:26.03	21.54	7.09	-32.8	-33.5	23.6	0.00e+00	0	34	0	451936256	38	6039
2026-01-08 21:24:27.04	21.45	7.15	-32.5	-33.1	23.8	0.00e+00	0	34	0	459276288	38	5825
2026-01-08 21:24:28.05	21.36	7.22	-32.5	-33.2	23.9	0.00e+00	0	34	0	466616320	38	5846
2026-01-08 21:24:29.06	21.27	7.28	-32.3	-32.9	24.2	0.00e+00	0	34	0	473956352	38	5665
2026-01-08 21:24:30.06	21.18	7.35	-32.3	-33.0	24.1	0.00e+00	0	34	0	481296384	38	5731
2026-01-08 21:24:31.07	21.09	7.41	-32.1	-32.8	24.4	0.00e+00	0	34	0	488636416	38	5589
2026-01-08 21:24:32.09	21.00	7.48	-32.2	-32.8	24.2	0.00e+00	0	34	0	495976448	38	5621
2026-01-08 21:24:33.10	20.91	7.55	-32.2	-32.8	24.2	0.00e+00	0	34	0	503316480	38	5601
2026-01-08 21:24:34.11	20.82	7.61	-32.3	-32.9	24.1	0.00e+00	0	34	0	510656512	38	5672
2026-01-08 21:24:35.12	20.73	7.68	-32.2	-32.9	24.1	0.00e+00	0	34	0	517996544	38	5643
2026-01-08 21:24:36.13	20.63	7.75	-31.8	-32.5	24.5	0.00e+00	0	34	0	525336576	38	5381
2026-01-08 21:24:37.14	20.54	7.81	-32.1	-32.7	24.4	0.00e+00	0	34	0	532676608	38	5548
2026-01-08 21:24:38.14	20.45	7.88	-32.0	-32.6	24.4	0.00e+00	0	34	0	540016640	38	5484
2026-01-08 21:24:39.15	20.36	7.95	-32.2	-32.8	24.2	0.00e+00	0	34	0	546308096	38	5598
2026-01-08 21:24:40.16	20.26	8.01	-32.1	-32.8	24.3	0.00e+00	0	34	0	553648128	38	5573
2026-01-08 21:24:41.17	20.17	8.08	-32.3	-33.0	24.0	0.00e+00	0	34	0	562036736	38	5702
2026-01-08 21:24:42.18	20.07	8.15	-32.1	-32.8	24.3	0.00e+00	0	34	0	568328192	38	5599
2026-01-08 21:24:43.19	19.98	8.21	-32.3	-32.9	24.2	0.00e+00	0	34	0	575668224	38	5666
2026-01-08 21:24:44.20	19.88	8.28	-32.2	-32.9	24.2	0.00e+00	0	34	0	583008256	38	5645
2026-01-08 21:24:45.21	19.78	8.35	-32.1	-32.8	24.3	0.00e+00	0	34	0	590348288	38	5599
2026-01-08 21:24:46.22	19.69	8.42	-32.2	-32.9	24.3	0.00e+00	0	34	0	597688320	38	5653
2026-01-08 21:24:47.23	19.59	8.48	-32.3	-32.9	24.2	0.00e+00	0	34	0	605028352	38	5684
2026-01-08 21:24:48.24	19.49	8.55	-32.2	-32.8	24.3	0.00e+00	0	34	0	612368384	38	5626
2026-01-08 21:24:49.25	19.39	8.62	-32.1	-32.7	24.4	0.00e+00	0	34	0	619708416	38	5566
2026-01-08 21:24:50.25	19.30	8.69	-32.1	-32.8	24.4	0.00e+00	0	34	0	627048448	38	5597
2026-01-08 21:24:51.27	19.20	8.76	-32.1	-32.7	24.5	0.00e+00	0	34	0	634388480	38	5541
2026-01-08 21:24:52.27	19.10	8.82	-31.9	-32.6	24.5	0.00e+00	0	34	0	641728512	38	5458
2026-01-08 21:24:53.28	19.00	8.89	-32.0	-32.6	24.5	0.00e+00	0	34	0	649068544	38	5492
2026-01-08 21:24:54.29	18.90	8.96	-31.9	-32.6	24.6	0.00e+00	0	34	0	656408576	38	5458
2026-01-08 21:24:55.30	18.80	9.03	-32.0	-32.6	24.6	0.00e+00	0	34	0	663748608	38	5470
2026-01-08 21:24:56.31	18.69	9.10	-31.9	-32.6	24.6	0.00e+00	0	34	0	671088640	38	5459
2026-01-08 21:24:57.32	18.59	9.17	-31.9	-32.5	24.6	0.00e+00	0	34	0	678428672	38	5422
2026-01-08 21:24:58.33	18.49	9.23	-31.8	-32.4	24.7	0.00e+00	0	34	0	685768704	36	6001
2026-01-08 21:24:59.34	18.39	9.30	-31.7	-32.4	24.8	0.00e+00	0	34	0	693108736	36	5973
2026-01-08 21:25:00.35	18.28	9.37	-31.9	-32.5	24.6	0.00e+00	0	35	0	699400192	36	6083
2026-01-08 21:25:01.36	18.18	9.44	-31.9	-32.5	24.6	0.00e+00	0	34	0	706740224	36	6075
2026-01-08 21:25:02.37	18.07	9.51	-32.1	-32.7	24.5	0.00e+00	0	34	0	715128832	36	6217
2026-01-08 21:25:03.38	17.97	9.58	-32.1	-32.8	24.4	0.00e+00	0	35	0	721420288	36	6248
2026-01-08 21:25:04.39	17.86	9.65	-31.8	-32.4	24.7	0.00e+00	0	35	0	728760320	36	6011
2026-01-08 21:25:05.40	17.76	9.72	-31.9	-32.5	24.7	0.00e+00	0	34	0	736100352	36	6073
2026-01-08 21:25:06.41	17.65	9.79	-31.7	-32.4	24.8	0.00e+00	0	35	0	743440384	36	5986
2026-01-08 21:25:07.42	17.54	9.86	-31.7	-32.3	24.9	0.00e+00	0	34	0	750780416	36	5933
2026-01-08 21:25:08.42	17.44	9.93	-32.0	-32.6	24.6	0.00e+00	0	34	0	758120448	36	6137
2026-01-08 21:25:09.43	17.33	10.00	-32.0	-32.6	24.5	0.00e+00	0	34	0	765460480	36	6160
2026-01-08 21:25:10.44	17.22	10.07	-31.9	-32.5	24.7	0.00e+00	0	34	0	772800512	36	6089
2026-01-08 21:25:11.45	17.11	10.14	-32.0	-32.7	24.6	0.00e+00	0	34	0	780140544	36	6202
2026-01-08 21:25:12.46	17.00	10.21	-31.8	-32.5	24.8	0.00e+00	0	34	0	787480576	36	6060
2026-01-08 21:25:13.47	16.89	10.28	-31.8	-32.4	24.8	0.00e+00	0	34	0	794820608	36	6003
2026-01-08 21:25:14.48	16.78	10.35	-31.8	-32.5	24.8	0.00e+00	0	34	0	802160640	36	6037
2026-01-08 21:25:15.49	16.67	10.42	-31.9	-32.6	24.6	0.00e+00	0	35	0	809500672	36	6130
2026-01-08 21:25:16.50	16.55	10.49	-32.1	-32.7	24.5	0.00e+00	0	34	0	816840704	36	6220
2026-01-08 21:25:17.51	16.44	10.56	-31.9	-32.6	24.7	0.00e+00	0	34	0	823132160	36	6105
2026-01-08 21:25:18.52	16.33	10.63	-31.8	-32.4	24.8	0.00e+00	0	35	0	830472192	36	6033
2026-01-08 21:25:19.52	16.22	10.70	-31.6	-32.3	24.8	0.00e+00	0	34	0	838860800	36	5907
2026-01-08 21:25:20.53	16.10	10.77	-31.7	-32.3	24.9	0.00e+00	0	34	0	845152256	36	5929
2026-01-08 21:25:21.54	15.99	10.84	-31.6	-32.2	25.0	0.00e+00	0	34	0	852492288	36	5861
2026-01-08 21:25:22.55	15.87	10.91	-31.5	-32.1	25.0	0.00e+00	0	34	0	859832320	36	5819
2026-01-08 21:25:23.56	15.76	10.98	-31.3	-32.0	25.1	0.00e+00	0	35	0	867172352	36	5708
2026-01-08 21:25:24.58	15.64	11.05	-31.3	-31.9	25.2	0.00e+00	0	34	0	874512384	36	5657
2026-01-08 21:25:25.59	15.52	11.13	-31.4	-32.1	25.2	0.00e+00	0	34	0	881852416	36	5764
2026-01-08 21:25:26.60	15.40	11.20	-31.3	-31.9	25.3	0.00e+00	0	34	0	889192448	36	5676
2026-01-08 21:25:27.61	15.28	11.27	-31.3	-31.9	25.3	0.00e+00	0	34	0	896532480	36	5654
2026-01-08 21:25:28.62	15.16	11.34	-31.3	-32.0	25.3	0.00e+00	0	34	0	903872512	36	5701
2026-01-08 21:25:29.63	15.05	11.41	-31.4	-32.0	25.2	0.00e+00	0	34	0	911212544	36	5757
2026-01-08 21:25:30.64	14.92	11.48	-31.3	-31.9	25.3	0.00e+00	0	34	0	918552576	36	5649
2026-01-08 21:25:31.65	14.80	11.55	-31.4	-32.0	25.2	0.00e+00	0	34	0	925892608	36	5707
2026-01-08 21:25:32.66	14.68	11.63	-31.3	-31.9	25.4	0.00e+00	0	34	0	933232640	36	5649
2026-01-08 21:25:33.67	14.56	11.70	-31.3	-31.9	25.4	0.00e+00	0	34	0	940572672	36	5687
2026-01-08 21:25:34.68	14.44	11.77	-31.3	-31.9	25.3	0.00e+00	0	34	0	947912704	36	5664
2026-01-08 21:25:35.69	14.31	11.84	-31.3	-31.9	25.3	0.00e+00	0	34	0	955252736	36	5644
2026-01-08 21:25:36.70	14.19	11.91	-31.3	-32.0	25.3	0.00e+00	0	34	0	962592768	36	5709
2026-01-08 21:25:37.71	14.07	11.99	-31.3	-31.9	25.3	0.00e+00	0	34	0	969932800	36	5668
2026-01-08 21:25:38.72	13.94	12.06	-31.4	-32.0	25.1	0.00e+00	0	34	0	976224256	36	5740
2026-01-08 21:25:39.72	13.82	12.13	-31.2	-31.8	25.4	0.00e+00	0	34	0	984612864	36	5627
2026-01-08 21:25:40.73	13.69	12.20	-31.3	-31.9	25.3	0.00e+00	0	34	0	991952896	36	5693
2026-01-08 21:25:41.74	13.56	12.28	-31.3	-32.0	25.3	0.00e+00	0	34	0	998244352	36	5703
2026-01-08 21:25:42.75	13.43	12.35	-31.2	-31.8	25.4	0.00e+00	0	34	0	1005584384	36	5609
2026-01-08 21:25:43.76	13.31	12.42	-31.2	-31.9	25.4	0.00e+00	0	34	0	1012924416	36	5635
2026-01-08 21:25:44.77	13.18	12.49	-31.1	-31.8	25.4	0.00e+00	0	35	0	1020264448	36	5571
2026-01-08 21:25:45.78	13.05	12.57	-31.1	-31.7	25.4	0.00e+00	0	34	0	1027604480	36	5566
2026-01-08 21:25:46.79	12.92	12.64	-31.3	-31.9	25.3	0.00e+00	0	34	0	1034944512	36	5646
2026-01-08 21:25:47.80	12.79	12.71	-31.2	-31.8	25.4	0.00e+00	0	34	0	1042284544	36	5623
2026-01-08 21:25:48.81	12.65	12.79	-31.3	-32.0	25.2	0.00e+00	0	34	0	1049624576	36	5700
2026-01-08 21:25:49.82	12.52	12.86	-31.3	-32.0	25.4	0.00e+00	0	34	0	1056964608	36	5698
2026-01-08 21:25:50.83	12.39	12.93	-31.1	-31.7	25.6	0.00e+00	0	34	0	1064304640	36	5513
2026-01-08 21:25:51.83	12.26	13.01	-31.2	-31.8	25.5	0.00e+00	0	34	0	1071644672	36	5592
2026-01-08 21:25:52.84	12.12	13.08	-31.0	-31.6	25.6	0.00e+00	0	34	0	1078984704	36	5479
2026-01-08 21:25:53.85	11.99	13.15	-31.0	-31.6	25.7	0.00e+00	0	34	0	1086324736	36	5470
2026-01-08 21:25:54.86	11.85	13.23	-30.9	-31.6	25.7	0.00e+00	0	35	0	1093664768	36	5444
2026-01-08 21:25:55.87	11.71	13.30	-30.9	-31.5	25.7	0.00e+00	0	34	0	1101004800	36	5382
2026-01-08 21:25:56.88	11.58	13.37	-30.9	-31.5	25.8	0.00e+00	0	35	0	1108344832	36	5398
2026-01-08 21:25:57.89	11.44	13.45	-30.9	-31.5	25.8	0.00e+00	0	34	0	1115684864	36	5413
2026-01-08 21:25:58.90	11.30	13.52	-30.8	-31.4	25.8	0.00e+00	0	34	0	1121976320	36	5343
2026-01-08 21:25:59.91	11.16	13.59	-30.8	-31.4	25.9	0.00e+00	0	34	0	1129316352	34	6010
2026-01-08 21:26:00.92	11.02	13.67	-30.7	-31.4	25.9	0.00e+00	0	34	0	1137704960	34	5965
2026-01-08 21:26:01.93	10.88	13.74	-30.6	-31.2	26.0	0.00e+00	0	35	0	1143996416	34	5837
2026-01-08 21:26:02.94	10.74	13.81	-30.6	-31.2	26.1	0.00e+00	0	34	0	1151336448	34	5840
2026-01-08 21:26:03.95	10.60	13.89	-30.5	-31.1	26.0	0.00e+00	0	34	0	1158676480	34	5806
2026-01-08 21:26:04.96	10.45	13.96	-30.4	-31.0	26.1	0.00e+00	0	34	0	1166016512	34	5756
2026-01-08 21:26:05.97	10.31	14.04	-30.4	-31.0	26.1	0.00e+00	0	34	0	1173356544	34	5723
2026-01-08 21:26:06.98	10.17	14.11	-30.4	-31.0	26.2	0.00e+00	0	34	0	1180696576	34	5723
2026-01-08 21:26:07.98	10.02	14.18	-30.4	-31.0	26.1	0.00e+00	0	34	0	1188036608	34	5731
2026-01-08 21:26:08.99	9.88	14.26	-30.4	-31.0	26.0	0.00e+00	0	35	0	1195376640	34	5746
2026-01-08 21:26:10.00	9.73	14.33	-30.4	-31.0	26.0	0.00e+00	0	34	0	1202716672	34	5754
2026-01-08 21:26:11.01	9.58	14.41	-30.5	-31.1	26.0	0.00e+00	0	35	0	1210056704	34	5818
2026-01-08 21:26:12.02	9.43	14.48	-30.5	-31.1	26.0	0.00e+00	0	34	0	1217396736	34	5821
2026-01-08 21:26:13.03	9.29	14.56	-30.8	-31.4	25.8	0.00e+00	0	34	0	1224736768	34	6004
2026-01-08 21:26:14.04	9.14	14.63	-30.7	-31.3	25.9	0.00e+00	0	34	0	1232076800	34	5904
2026-01-08 21:26:15.05	8.99	14.70	-30.8	-31.4	25.7	0.00e+00	0	34	0	1239416832	34	5998
2026-01-08 21:26:16.05	8.84	14.78	-30.6	-31.2	25.9	0.00e+00	0	34	0	1246756864	34	5892
2026-01-08 21:26:17.06	8.68	14.85	-30.7	-31.3	26.0	0.00e+00	0	34	0	1253048320	34	5918
2026-01-08 21:26:18.07	8.53	14.93	-30.7	-31.3	25.9	0.00e+00	0	35	0	1261436928	34	5914
2026-01-08 21:26:19.08	8.38	15.00	-30.6	-31.2	26.0	0.00e+00	0	35	0	1268776960	34	5843
2026-01-08 21:26:20.09	8.22	15.08	-30.6	-31.2	26.0	0.00e+00	0	35	0	1275068416	34	5856
2026-01-08 21:26:21.10	8.07	15.15	-30.6	-31.2	26.0	0.00e+00	0	34	0	1282408448	34	5876
2026-01-08 21:26:22.11	7.91	15.22	-30.5	-31.2	26.1	0.00e+00	0	34	0	1289748480	34	5829
2026-01-08 21:26:23.12	7.76	15.30	-30.6	-31.2	26.0	0.00e+00	0	34	0	1297088512	34	5840
2026-01-08 21:26:24.13	7.60	15.37	-30.6	-31.2	26.0	0.00e+00	0	35	0	1304428544	34	5861
2026-01-08 21:26:25.14	7.44	15.45	-30.6	-31.2	26.0	0.00e+00	0	35	0	1311768576	34	5844
2026-01-08 21:26:26.15	7.28	15.52	-30.4	-31.0	26.1	0.00e+00	0	35	0	1319108608	34	5717
2026-01-08 21:26:27.16	7.12	15.60	-30.3	-30.9	26.2	0.00e+00	0	35	0	1326448640	34	5674
2026-01-08 21:26:28.17	6.96	15.67	-30.3	-30.9	26.3	0.00e+00	0	34	0	1333788672	34	5668
2026-01-08 21:26:29.17	6.80	15.75	-30.2	-30.9	26.3	0.00e+00	0	34	0	1341128704	34	5633
2026-01-08 21:26:30.18	6.64	15.82	-30.2	-30.8	26.4	0.00e+00	0	35	0	1348468736	34	5592
2026-01-08 21:26:31.19	6.47	15.89	-30.4	-31.0	26.3	0.00e+00	0	34	0	1355808768	34	5706
2026-01-08 21:26:32.20	6.31	15.97	-30.3	-30.9	26.3	0.00e+00	0	34	0	1363148800	34	5641
2026-01-08 21:26:33.21	6.15	16.04	-30.3	-30.8	26.3	0.00e+00	0	35	0	1370488832	34	5628
2026-01-08 21:26:34.22	5.98	16.12	-30.1	-30.7	26.4	0.00e+00	0	35	0	1377828864	34	5547
2026-01-08 21:26:35.23	5.81	16.19	-30.0	-30.6	26.6	0.00e+00	0	34	0	1385168896	34	5473
2026-01-08 21:26:36.24	5.65	16.27	-29.9	-30.5	26.7	0.00e+00	0	35	0	1392508928	34	5414
2026-01-08 21:26:37.25	5.48	16.34	-29.8	-30.4	26.7	0.00e+00	0	34	0	1398800384	34	5360
2026-01-08 21:26:38.26	5.31	16.42	-29.7	-30.3	26.9	0.00e+00	0	35	0	1406140416	32	5920
2026-01-08 21:26:39.27	5.14	16.49	-29.9	-30.5	26.7	0.00e+00	0	34	0	1414529024	32	6065
2026-01-08 21:26:40.28	4.97	16.56	-29.8	-30.4	26.7	0.00e+00	0	34	0	1420820480	32	5986
2026-01-08 21:26:41.29	4.80	16.64	-29.8	-30.4	26.7	0.00e+00	0	34	0	1428160512	32	6007
2026-01-08 21:26:42.30	4.62	16.71	-29.8	-30.4	26.7	0.00e+00	0	34	0	1435500544	32	5978
2026-01-08 21:26:43.31	4.45	16.79	-29.7	-30.3	26.8	0.00e+00	0	34	0	1442840576	32	5949
2026-01-08 21:26:44.31	4.28	16.86	-29.8	-30.4	26.8	0.00e+00	0	34	0	1450180608	32	5981
2026-01-08 21:26:45.33	4.10	16.94	-29.9	-30.5	26.6	0.00e+00	0	34	0	1457520640	32	6070
2026-01-08 21:26:46.33	3.93	17.01	-29.8	-30.4	26.7	0.00e+00	0	34	0	1464860672	32	6023
2026-01-08 21:26:47.35	3.75	17.08	-29.8	-30.4	26.8	0.00e+00	0	34	0	1472200704	32	5996
2026-01-08 21:26:48.36	3.57	17.16	-29.9	-30.5	26.7	0.00e+00	0	34	0	1479540736	32	6074
2026-01-08 21:26:49.37	3.39	17.23	-29.9	-30.5	26.8	0.00e+00	0	34	0	1486880768	32	6053
2026-01-08 21:26:50.37	3.21	17.30	-30.0	-30.6	26.7	0.00e+00	0	35	0	1494220800	32	6125
2026-01-08 21:26:51.38	3.03	17.38	-29.9	-30.5	26.8	0.00e+00	0	34	0	1501560832	32	6085
2026-01-08 21:26:52.39	2.85	17.45	-29.9	-30.5	26.7	0.00e+00	0	34	0	1508900864	32	6071
2026-01-08 21:26:53.40	2.67	17.52	-29.9	-30.5	26.7	0.00e+00	0	34	0	1516240896	32	6083
2026-01-08 21:26:54.41	2.49	17.60	-29.9	-30.5	26.7	0.00e+00	0	35	0	1523580928	32	6100
2026-01-08 21:26:55.42	2.30	17.67	-29.8	-30.4	26.9	0.00e+00	0	34	0	1530920960	32	5977
2026-01-08 21:26:56.43	2.12	17.75	-29.9	-30.5	26.8	0.00e+00	0	35	0	1538260992	32	6055
2026-01-08 21:26:57.44	1.93	17.82	-29.6	-30.2	26.9	0.00e+00	0	34	0	1545601024	32	5855
2026-01-08 21:26:58.45	1.74	17.89	-29.8	-30.3	26.8	0.00e+00	0	34	0	1551892480	32	5961
2026-01-08 21:26:59.45	1.56	17.96	-29.6	-30.2	26.7	0.00e+00	0	34	0	1559232512	32	5840
2026-01-08 21:27:00.46	1.37	18.04	-29.5	-30.1	26.8	0.00e+00	0	34	0	1566572544	32	5815
2026-01-08 21:27:01.47	1.18	18.11	-29.4	-30.0	27.0	0.00e+00	0	34	0	1573912576	32	5707
2026-01-08 21:27:02.48	0.99	18.18	-29.4	-30.0	27.1	0.00e+00	0	35	0	1581252608	32	5697
2026-01-08 21:27:03.49	0.80	18.25	-29.3	-29.9	27.1	0.00e+00	0	34	0	1588592640	32	5684
2026-01-08 21:27:04.50	0.61	18.33	-29.3	-29.9	27.2	0.00e+00	0	34	0	1595932672	32	5676
2026-01-08 21:27:05.51	0.41	18.40	-29.3	-29.9	27.1	0.00e+00	0	34	0	1603272704	32	5683
2026-01-08 21:27:06.52	0.22	18.47	-29.2	-29.8	27.1	0.00e+00	0	34	0	1610612736	32	5595
2026-01-08 21:27:07.53	0.02	18.54	-29.4	-30.0	26.9	0.00e+00	0	34	0	1617952768	32	5753
2026-01-08 21:27:08.54	359.83	18.62	-29.3	-29.9	27.0	0.00e+00	0	34	0	1625292800	32	5669
2026-01-08 21:27:09.55	359.63	18.69	-29.5	-30.1	27.0	0.00e+00	0	35	0	1632632832	32	5781
2026-01-08 21:27:10.56	359.43	18.76	-29.6	-30.2	26.9	0.00e+00	0	35	0	1639972864	32	5883
2026-01-08 21:27:11.57	359.23	18.83	-29.7	-30.3	26.9	0.00e+00	0	34	0	1647312896	32	5913
2026-01-08 21:27:12.57	359.03	18.90	-29.8	-30.4	26.7	0.00e+00	0	34	0	1654652928	32	5999
2026-01-08 21:27:13.59	358.83	18.97	-29.7	-30.3	26.8	0.00e+00	0	34	0	1661992960	32	5924
2026-01-08 21:27:14.60	358.63	19.04	-29.9	-30.5	26.6	0.00e+00	0	34	0	1669332992	32	6070
2026-01-08 21:27:15.61	358.43	19.11	-29.7	-30.3	26.8	0.00e+00	0	34	0	1676673024	32	5941
2026-01-08 21:27:16.61	358.23	19.18	-29.8	-30.4	26.7	0.00e+00	0	34	0	1682964480	32	6007
2026-01-08 21:27:17.62	358.02	19.26	-29.7	-30.3	26.9	0.00e+00	0	34	0	1691353088	32	5955
2026-01-08 21:27:18.63	357.82	19.33	-29.6	-30.2	26.9	0.00e+00	0	34	0	1697644544	32	5868
2026-01-08 21:27:19.64	357.61	19.40	-29.8	-30.4	27.0	0.00e+00	0	34	0	1704984576	32	5988
2026-01-08 21:27:20.65	357.40	19.47	-29.7	-30.3	26.9	0.00e+00	0	34	0	1712324608	32	5926
2026-01-08 21:27:21.66	357.19	19.54	-29.6	-30.2	27.1	0.00e+00	0	34	0	1719664640	32	5829
2026-01-08 21:27:22.66	356.99	19.60	-29.4	-30.0	27.1	0.00e+00	0	34	0	1727004672	32	5697
2026-01-08 21:27:23.67	356.77	19.67	-29.5	-30.1	27.0	0.00e+00	0	34	0	1734344704	32	5788
2026-01-08 21:27:24.68	356.56	19.74	-29.2	-29.8	27.3	0.00e+00	0	34	0	1741684736	32	5607
2026-01-08 21:27:25.69	356.35	19.81	-29.2	-29.8	27.3	0.00e+00	0	34	0	1749024768	32	5621
2026-01-08 21:27:26.70	356.14	19.88	-29.3	-29.9	27.2	0.00e+00	0	34	0	1756364800	32	5658
2026-01-08 21:27:27.71	355.92	19.95	-29.4	-30.0	27.1	0.00e+00	0	34	0	1763704832	32	5725
2026-01-08 21:27:28.72	355.71	20.02	-29.4	-29.9	27.2	0.00e+00	0	34	0	1771044864	32	5691
2026-01-08 21:27:29.73	355.49	20.08	-29.4	-30.0	27.0	0.00e+00	0	34	0	1778384896	32	5745
2026-01-08 21:27:30.74	355.27	20.15	-29.5	-30.1	27.1	0.00e+00	0	34	0	1785724928	32	5766
2026-01-08 21:27:31.75	355.06	20.22	-29.5	-30.1	27.0	0.00e+00	0	34	0	1793064960	32	5815
2026-01-08 21:27:32.75	354.84	20.29	-29.7	-30.3	26.9	0.00e+00	0	34	0	1800404992	32	5929
2026-01-08 21:27:33.76	354.62	20.35	-29.7	-30.3	27.0	0.00e+00	0	34	0	1806696448	32	5905
2026-01-08 21:27:34.77	354.40	20.42	-29.5	-30.1	27.1	0.00e+00	0	34	0	1815085056	32	5799
2026-01-08 21:27:35.79	354.17	20.49	-29.5	-30.1	27.1	0.00e+00	0	34	0	1822425088	32	5784
2026-01-08 21:27:36.80	353.95	20.55	-29.4	-30.0	27.1	0.00e+00	0	34	0	1828716544	32	5741
2026-01-08 21:27:37.80	353.73	20.62	-29.5	-30.1	27.0	0.00e+00	0	34	0	1836056576	32	5809
2026-01-08 21:27:38.82	353.50	20.68	-29.4	-29.9	27.2	0.00e+00	0	34	0	1843396608	32	5689
2026-01-08 21:27:39.83	353.28	20.75	-29.3	-29.8	27.2	0.00e+00	0	34	0	1850736640	32	5630
2026-01-08 21:27:40.84	353.05	20.81	-29.3	-29.9	27.3	0.00e+00	0	34	0	1858076672	32	5639
2026-01-08 21:27:41.85	352.82	20.88	-29.3	-29.9	27.2	0.00e+00	0	34	0	1865416704	32	5675
2026-01-08 21:27:42.86	352.59	20.94	-29.1	-29.7	27.4	0.00e+00	0	34	0	1872756736	32	5509
2026-01-08 21:27:43.86	352.36	21.01	-29.1	-29.7	27.5	0.00e+00	0	34	0	1880096768	32	5543
2026-01-08 21:27:44.87	352.13	21.07	-29.0	-29.6	27.4	0.00e+00	0	34	0	1887436800	32	5494
2026-01-08 21:27:45.88	351.90	21.13	-29.0	-29.6	27.6	0.00e+00	0	34	0	1894776832	32	5449
2026-01-08 21:27:46.89	351.67	21.20	-28.9	-29.4	27.6	0.00e+00	0	34	0	1902116864	32	5373
2026-01-08 21:27:47.90	351.43	21.26	-28.8	-29.4	27.6	0.00e+00	0	34	0	1909456896	32	5365
2026-01-08 21:27:48.91	351.20	21.32	-28.8	-29.3	27.7	0.00e+00	0	34	0	1916796928	32	5312
2026-01-08 21:27:49.92	350.96	21.38	-28.8	-29.4	27.6	0.00e+00	0	34	0	1924136960	30	6001
2026-01-08 21:27:50.93	350.73	21.44	-28.9	-29.5	27.5	0.00e+00	0	34	0	1931476992	30	6066
2026-01-08 21:27:51.94	350.49	21.50	-29.0	-29.5	27.5	0.00e+00	0	34	0	1938817024	30	6101
2026-01-08 21:27:52.95	350.25	21.57	-29.1	-29.6	27.4	0.00e+00	0	34	0	1946157056	30	6172
2026-01-08 21:27:53.96	350.01	21.63	-28.9	-29.5	27.6	0.00e+00	0	34	0	1953497088	30	6090
2026-01-08 21:27:54.97	349.77	21.69	-29.2	-29.7	27.4	0.00e+00	0	34	0	1959788544	30	6236
2026-01-08 21:27:55.98	349.53	21.74	-29.2	-29.8	27.3	0.00e+00	0	34	0	1968177152	30	6280
2026-01-08 21:27:56.99	349.29	21.80	-29.2	-29.8	27.3	0.00e+00	0	34	0	1975517184	30	6259
2026-01-08 21:27:58.00	349.04	21.86	-29.2	-29.8	27.4	0.00e+00	0	34	0	1981808640	30	6287
2026-01-08 21:27:59.01	348.80	21.92	-29.1	-29.7	27.3	0.00e+00	0	34	0	1989148672	30	6239
2026-01-08 21:28:00.02	348.56	21.98	-29.2	-29.8	27.3	0.00e+00	0	34	0	1996488704	30	6308
2026-01-08 21:28:01.03	348.31	22.04	-29.2	-29.7	27.4	0.00e+00	0	34	0	2003828736	30	6237
2026-01-08 21:28:02.03	348.06	22.09	-29.2	-29.8	27.4	0.00e+00	0	34	0	2011168768	30	6277
2026-01-08 21:28:03.04	347.82	22.15	-29.0	-29.6	27.5	0.00e+00	0	34	0	2018508800	30	6152
2026-01-08 21:28:04.05	347.57	22.21	-29.1	-29.7	27.4	0.00e+00	0	34	0	2025848832	30	6181
2026-01-08 21:28:05.06	347.32	22.26	-29.1	-29.7	27.5	0.00e+00	0	34	0	2033188864	30	6177
2026-01-08 21:28:06.07	347.07	22.32	-28.9	-29.5	27.6	0.00e+00	0	34	0	2040528896	30	6052
2026-01-08 21:28:07.08	346.82	22.37	-29.1	-29.7	27.5	0.00e+00	0	34	0	2047868928	30	6182
2026-01-08 21:28:08.09	346.56	22.43	-28.9	-29.5	27.6	0.00e+00	0	34	0	2055208960	30	6075
2026-01-08 21:28:09.10	346.31	22.48	-29.0	-29.6	27.6	0.00e+00	0	34	0	2062548992	30	6147
2026-01-08 21:28:10.10	346.06	22.53	-28.9	-29.5	27.6	0.00e+00	0	34	0	2069889024	30	6051
2026-01-08 21:28:11.11	345.80	22.58	-28.9	-29.5	27.6	0.00e+00	0	34	0	2077229056	30	6076
2026-01-08 21:28:12.13	345.55	22.64	-28.9	-29.5	27.6	0.00e+00	0	34	0	2084569088	30	6075
2026-01-08 21:28:13.14	345.29	22.69	-29.0	-29.6	27.5	0.00e+00	0	34	0	2091909120	30	6145
2026-01-08 21:28:14.14	345.03	22.74	-28.9	-29.5	27.5	0.00e+00	0	34	0	2099249152	30	6082
2026-01-08 21:28:15.15	344.78	22.79	-29.1	-29.7	27.4	0.00e+00	0	34	0	2105540608	30	6194
2026-01-08 21:28:16.16	344.52	22.84	-29.1	-29.7	27.5	0.00e+00	0	34	0	2112880640	30	6196
2026-01-08 21:28:17.17	344.26	22.89	-28.7	-29.3	27.7	0.00e+00	0	34	0	2121269248	30	5918
2026-01-08 21:28:18.18	344.00	22.94	-28.8	-29.4	27.7	0.00e+00	0	34	0	2127560704	30	5971
2026-01-08 21:28:19.19	343.73	22.99	-28.5	-29.1	27.8	0.00e+00	0	34	0	2134900736	30	5791
2026-01-08 21:28:20.20	343.47	23.04	-28.5	-29.1	27.9	0.00e+00	0	34	0	2142240768	30	5779
2026-01-08 21:28:21.21	343.21	23.08	-28.5	-29.1	27.9	0.00e+00	0	34	0	2149580800	30	5807
2026-01-08 21:28:22.22	342.94	23.13	-28.5	-29.1	27.9	0.00e+00	0	34	0	2156920832	30	5774
2026-01-08 21:28:23.23	342.68	23.18	-28.4	-28.9	28.0	0.00e+00	0	34	0	2164260864	30	5690
2026-01-08 21:28:24.24	342.41	23.22	-28.4	-28.9	28.0	0.00e+00	0	34	0	2171600896	30	5683
2026-01-08 21:28:25.25	342.15	23.27	-28.5	-29.0	27.9	0.00e+00	0	34	0	2178940928	30	5752
2026-01-08 21:28:26.26	341.88	23.31	-28.5	-29.1	27.9	0.00e+00	0	34	0	2186280960	30	5781
2026-01-08 21:28:27.27	341.61	23.36	-28.6	-29.2	27.8	0.00e+00	0	34	0	2193620992	30	5867
2026-01-08 21:28:28.28	341.34	23.40	-28.7	-29.3	27.7	0.00e+00	0	34	0	2200961024	30	5946
2026-01-08 21:28:29.29	341.07	23.44	-28.9	-29.4	27.7	0.00e+00	0	34	0	2208301056	30	6022
2026-01-08 21:28:30.30	340.80	23.48	-28.8	-29.3	27.7	0.00e+00	0	34	0	2215641088	30	5949
2026-01-08 21:28:31.31	340.53	23.52	-28.9	-29.5	27.5	0.00e+00	0	34	0	2222981120	30	6034
2026-01-08 21:28:32.32	340.26	23.57	-29.0	-29.6	27.5	0.00e+00	0	34	0	2230321152	30	6130
2026-01-08 21:28:33.33	339.98	23.61	-28.9	-29.5	27.5	0.00e+00	0	34	0	2237661184	30	6090
2026-01-08 21:28:34.34	339.71	23.65	-28.9	-29.5	27.6	0.00e+00	0	34	0	2245001216	30	6080
2026-01-08 21:28:35.35	339.44	23.68	-29.0	-29.5	27.5	0.00e+00	0	34	0	2252341248	30	6100
2026-01-08 21:28:36.36	339.16	23.72	-29.2	-29.8	27.4	0.00e+00	0	34	0	2258632704	30	6264
2026-01-08 21:28:37.37	338.89	23.76	-29.3	-29.9	27.4	0.00e+00	0	34	0	2265972736	30	6324
2026-01-08 21:28:38.38	338.61	23.80	-29.2	-29.8	27.3	0.00e+00	0	34	0	2274361344	30	6286
2026-01-08 21:28:39.39	338.33	23.83	-28.8	-29.4	27.7	0.00e+00	0	34	0	2280652800	30	6022
2026-01-08 21:28:40.40	338.06	23.87	-28.8	-29.4	27.6	0.00e+00	0	34	0	2287992832	30	6018
2026-01-08 21:28:41.41	337.78	23.90	-28.8	-29.4	27.7	0.00e+00	0	34	0	2295332864	30	5986
2026-01-08 21:28:42.42	337.50	23.94	-28.6	-29.2	27.8	0.00e+00	0	34	0	2302672896	30	5861
2026-01-08 21:28:43.43	337.22	23.97	-28.6	-29.2	27.7	0.00e+00	0	34	0	2310012928	30	5860
2026-01-08 21:28:44.44	336.94	24.00	-28.6	-29.2	27.7	0.00e+00	0	34	0	2317352960	30	5852
2026-01-08 21:28:45.45	336.66	24.04	-28.6	-29.2	27.7	0.00e+00	0	34	0	2324692992	30	5868
2026-01-08 21:28:46.46	336.38	24.07	-28.6	-29.1	27.8	0.00e+00	0	34	0	2332033024	30	5819
2026-01-08 21:28:47.47	336.10	24.10	-28.6	-29.2	27.8	0.00e+00	0	34	0	2339373056	30	5871
2026-01-08 21:28:48.48	335.82	24.13	-28.8	-29.4	27.6	0.00e+00	0	34	0	2346713088	30	6004
2026-01-08 21:28:49.49	335.53	24.16	-28.7	-29.3	27.7	0.00e+00	0	34	0	2354053120	30	5946
2026-01-08 21:28:50.49	335.25	24.19	-28.7	-29.3	27.7	0.00e+00	0	34	0	2361393152	30	5923
2026-01-08 21:28:51.50	334.97	24.21	-28.8	-29.4	27.7	0.00e+00	0	34	0	2368733184	30	6011
2026-01-08 21:28:52.51	334.69	24.24	-28.8	-29.4	27.6	0.00e+00	0	34	0	2376073216	30	5993
2026-01-08 21:28:53.52	334.40	24.27	-28.7	-29.2	27.8	0.00e+00	0	34	0	2383413248	30	5896
2026-01-08 21:28:54.53	334.12	24.29	-28.6	-29.2	27.7	0.00e+00	0	34	0	2390753280	30	5870
2026-01-08 21:28:55.54	333.83	24.32	-28.8	-29.4	27.7	0.00e+00	0	34	0	2398093312	30	5988
2026-01-08 21:28:56.55	333.54	24.34	-28.7	-29.3	27.7	0.00e+00	0	34	0	2404384768	30	5945
2026-01-08 21:28:57.56	333.26	24.36	-28.7	-29.3	27.7	0.00e+00	0	34	0	2411724800	30	5936
2026-01-08 21:28:58.57	332.97	24.39	-28.7	-29.3	27.7	0.00e+00	0	34	0	2420113408	30	5912
2026-01-08 21:28:59.58	332.68	24.41	-28.8	-29.4	27.6	0.00e+00	0	34	0	2426404864	30	6012
2026-01-08 21:29:00.59	332.40	24.43	-29.0	-29.6	27.5	0.00e+00	0	34	0	2433744896	30	6144
2026-01-08 21:29:01.60	332.11	24.45	-28.9	-29.5	27.6	0.00e+00	0	34	0	2441084928	30	6034
2026-01-08 21:29:02.61	331.82	24.47	-28.7	-29.2	27.7	0.00e+00	0	34	0	2448424960	30	5892
2026-01-08 21:29:03.61	331.53	24.49	-28.7	-29.3	27.7	0.00e+00	0	34	0	2455764992	30	5910
2026-01-08 21:29:04.62	331.24	24.51	-28.7	-29.3	27.7	0.00e+00	0	34	0	2463105024	30	5932
2026-01-08 21:29:05.64	330.95	24.52	-28.8	-29.3	27.7	0.00e+00	0	34	0	2470445056	30	5955
2026-01-08 21:29:06.64	330.66	24.54	-28.6	-29.2	27.8	0.00e+00	0	34	0	2477785088	30	5841
2026-01-08 21:29:07.65	330.37	24.56	-28.7	-29.3	27.7	0.00e+00	0	34	0	2485125120	30	5951
2026-01-08 21:29:08.66	330.08	24.57	-28.5	-29.1	27.9	0.00e+00	0	34	0	2492465152	30	5808
2026-01-08 21:29:09.67	329.79	24.58	-28.6	-29.2	27.7	0.00e+00	0	34	0	2499805184	30	5871
2026-01-08 21:29:10.68	329.50	24.60	-28.7	-29.3	27.8	0.00e+00	0	34	0	2507145216	30	5944
2026-01-08 21:29:11.69	329.21	24.61	-28.5	-29.0	28.0	0.00e+00	0	34	0	2514485248	30	5748
2026-01-08 21:29:12.70	328.92	24.62	-28.3	-28.9	28.0	0.00e+00	0	34	0	2521825280	30	5678
2026-01-08 21:29:13.71	328.63	24.63	-28.4	-29.0	28.0	0.00e+00	0	34	0	2529165312	30	5748
2026-01-08 21:29:14.72	328.34	24.64	-28.6	-29.2	27.8	0.00e+00	0	34	0	2536505344	30	5852
2026-01-08 21:29:15.73	328.04	24.65	-28.5	-29.1	27.9	0.00e+00	0	34	0	2543845376	30	5786
2026-01-08 21:29:16.74	327.75	24.66	-28.7	-29.3	27.8	0.00e+00	0	34	0	2551185408	30	5918
2026-01-08 21:29:17.75	327.46	24.67	-28.7	-29.3	27.7	0.00e+00	0	34	0	2557476864	30	5934
2026-01-08 21:29:18.76	327.17	24.67	-28.7	-29.3	27.7	0.00e+00	0	34	0	2564816896	30	5944
2026-01-08 21:29:19.77	326.87	24.68	-28.8	-29.4	27.7	0.00e+00	0	34	0	2573205504	30	5996
2026-01-08 21:29:20.78	326.58	24.69	-28.9	-29.5	27.5	0.00e+00	0	34	0	2579496960	30	6075
2026-01-08 21:29:21.79	326.29	24.69	-28.8	-29.4	27.6	0.00e+00	0	34	0	2586836992	30	6000
2026-01-08 21:29:22.80	326.00	24.69	-28.8	-29.4	27.7	0.00e+00	0	34	0	2594177024	30	6005
2026-01-08 21:29:23.81	325.70	24.70	-28.9	-29.4	27.7	0.00e+00	0	34	0	2601517056	30	6030
2026-01-08 21:29:24.82	325.41	24.70	-28.7	-29.3	27.7	0.00e+00	0	34	0	2608857088	30	5924
2026-01-08 21:29:25.82	325.12	24.70	-29.0	-29.5	27.6	0.00e+00	0	34	0	2616197120	30	6103
2026-01-08 21:29:26.83	324.83	24.70	-28.8	-29.4	27.7	0.00e+00	0	34	0	2623537152	30	5968
2026-01-08 21:29:27.84	324.53	24.70	-28.7	-29.2	27.8	0.00e+00	0	34	0	2630877184	30	5893
2026-01-08 21:29:28.85	324.24	24.70	-28.8	-29.4	27.7	0.00e+00	0	34	0	2638217216	30	5980
2026-01-08 21:29:29.86	323.95	24.69	-28.8	-29.4	27.7	0.00e+00	0	34	0	2645557248	30	5971
2026-01-08 21:29:30.87	323.66	24.69	-28.9	-29.4	27.7	0.00e+00	0	34	0	2652897280	30	6027
2026-01-08 21:29:31.88	323.36	24.69	-28.9	-29.5	27.6	0.00e+00	0	34	0	2660237312	30	6086
2026-01-08 21:29:32.89	323.07	24.68	-28.9	-29.5	27.6	0.00e+00	0	34	0	2667577344	30	6046
2026-01-08 21:29:33.90	322.78	24.68	-28.7	-29.2	27.8	0.00e+00	0	34	0	2674917376	30	5892
2026-01-08 21:29:34.91	322.48	24.67	-28.6	-29.2	27.8	0.00e+00	0	34	0	2681208832	30	5884
2026-01-08 21:29:35.92	322.19	24.66	-28.8	-29.4	27.8	0.00e+00	0	34	0	2688548864	30	6011
2026-01-08 21:29:36.93	321.90	24.66	-29.0	-29.6	27.5	0.00e+00	0	34	0	2696937472	30	6111
2026-01-08 21:29:37.94	321.61	24.65	-28.7	-29.2	27.7	0.00e+00	0	34	0	2703228928	30	5891
2026-01-08 21:29:38.95	321.31	24.64	-28.8	-29.4	27.8	0.00e+00	0	34	0	2710568960	30	5978
2026-01-08 21:29:39.96	321.02	24.63	-28.8	-29.3	27.7	0.00e+00	0	34	0	2717908992	30	5956
2026-01-08 21:29:40.96	320.73	24.62	-28.6	-29.2	27.7	0.00e+00	0	34	0	2725249024	30	5869
2026-01-08 21:29:41.98	320.44	24.60	-28.7	-29.3	27.7	0.00e+00	0	34	0	2732589056	30	5938
2026-01-08 21:29:42.98	320.15	24.59	-28.7	-29.3	27.7	0.00e+00	0	34	0	2739929088	30	5910
2026-01-08 21:29:43.99	319.86	24.58	-28.8	-29.4	27.5	0.00e+00	0	34	0	2747269120	30	5989
2026-01-08 21:29:45.00	319.57	24.56	-28.6	-29.2	27.8	0.00e+00	0	34	0	2754609152	30	5865
2026-01-08 21:29:46.01	319.28	24.55	-28.8	-29.4	27.5	0.00e+00	0	34	0	2761949184	30	5965
2026-01-08 21:29:47.03	318.99	24.53	-28.8	-29.4	27.6	0.00e+00	0	34	0	2769289216	30	5968
2026-01-08 21:29:48.03	318.70	24.52	-28.6	-29.2	27.7	0.00e+00	0	34	0	2776629248	30	5875
2026-01-08 21:29:49.04	318.41	24.50	-28.6	-29.2	27.6	0.00e+00	0	34	0	2783969280	30	5863
2026-01-08 21:29:50.05	318.12	24.48	-28.7	-29.3	27.7	0.00e+00	0	34	0	2791309312	30	5906
2026-01-08 21:29:51.06	317.83	24.46	-28.7	-29.3	27.8	0.00e+00	0	34	0	2798649344	30	5898
2026-01-08 21:29:52.07	317.54	24.44	-28.6	-29.2	27.8	0.00e+00	0	34	0	2805989376	30	5865
2026-01-08 21:29:53.08	317.25	24.42	-28.8	-29.4	27.8	0.00e+00	0	34	0	2813329408	30	5988
2026-01-08 21:29:54.09	316.97	24.40	-28.8	-29.4	27.7	0.00e+00	0	34	0	2820669440	30	6010
2026-01-08 21:29:55.10	316.68	24.38	-28.7	-29.3	27.7	0.00e+00	0	34	0	2828009472	30	5926
2026-01-08 21:29:56.11	316.39	24.35	-28.5	-29.1	27.8	0.00e+00	0	34	0	2834300928	30	5785
2026-01-08 21:29:57.12	316.11	24.33	-28.6	-29.2	27.8	0.00e+00	0	34	0	2842689536	30	5872
2026-01-08 21:29:58.13	315.82	24.31	-28.6	-29.1	27.9	0.00e+00	0	34	0	2850029568	30	5817
2026-01-08 21:29:59.14	315.53	24.28	-28.5	-29.1	27.9	0.00e+00	0	34	0	2856321024	30	5784
2026-01-08 21:30:00.15	315.25	24.26	-28.4	-29.0	28.0	0.00e+00	0	34	0	2863661056	30	5712
2026-01-08 21:30:01.16	314.96	24.23	-28.4	-28.9	28.0	0.00e+00	0	34	0	2871001088	30	5684
2026-01-08 21:30:02.17	314.68	24.20	-28.5	-29.1	27.9	0.00e+00	0	34	0	2878341120	30	5763
2026-01-08 21:30:03.18	314.40	24.17	-28.4	-29.0	28.0	0.00e+00	0	34	0	2885681152	30	5710
2026-01-08 21:30:04.19	314.11	24.14	-28.5	-29.1	28.0	0.00e+00	0	34	0	2893021184	30	5804
2026-01-08 21:30:05.20	313.83	24.11	-28.5	-29.1	27.9	0.00e+00	0	34	0	2900361216	30	5766
2026-01-08 21:30:06.20	313.55	24.08	-28.6	-29.1	27.9	0.00e+00	0	34	0	2907701248	30	5816
2026-01-08 21:30:07.21	313.27	24.05	-28.6	-29.2	27.9	0.00e+00	0	34	0	2915041280	30	5858
2026-01-08 21:30:08.22	312.99	24.02	-28.5	-29.1	27.9	0.00e+00	0	34	0	2922381312	30	5805
2026-01-08 21:30:09.24	312.70	23.99	-28.7	-29.3	27.8	0.00e+00	0	34	0	2929721344	30	5899
2026-01-08 21:30:10.24	312.43	23.96	-28.5	-29.1	27.9	0.00e+00	0	34	0	2937061376	30	5806
2026-01-08 21:30:11.25	312.15	23.92	-28.5	-29.0	28.0	0.00e+00	0	34	0	2944401408	30	5748
2026-01-08 21:30:12.26	311.87	23.89	-28.6	-29.2	27.8	0.00e+00	0	34	0	2951741440	30	5856
2026-01-08 21:30:13.27	311.59	23.85	-28.5	-29.0	27.9	0.00e+00	0	34	0	2959081472	30	5752
2026-01-08 21:30:14.28	311.31	23.82	-28.4	-29.0	27.9	0.00e+00	0	34	0	2966421504	30	5744
2026-01-08 21:30:15.29	311.04	23.78	-28.6	-29.2	27.9	0.00e+00	0	34	0	2973761536	30	5860
2026-01-08 21:30:16.30	310.76	23.74	-28.4	-29.0	28.0	0.00e+00	0	34	0	2980052992	30	5747
2026-01-08 21:30:17.31	310.49	23.71	-28.5	-29.1	27.9	0.00e+00	0	34	0	2987393024	30	5764
2026-01-08 21:30:18.32	310.21	23.67	-28.6	-29.1	27.8	0.00e+00	0	34	0	2994733056	30	5822
2026-01-08 21:30:19.33	309.94	23.63	-28.6	-29.2	27.9	0.00e+00	0	34	0	3002073088	30	5871
2026-01-08 21:30:20.34	309.66	23.59	-28.6	-29.2	27.9	0.00e+00	0	34	0	3009413120	30	5830
2026-01-08 21:30:21.34	309.39	23.55	-28.6	-29.2	27.8	0.00e+00	0	34	0	3016753152	30	5881
2026-01-08 21:30:22.35	309.12	23.51	-28.5	-29.0	28.0	0.00e+00	0	34	0	3024093184	30	5750
2026-01-08 21:30:23.36	308.85	23.46	-28.4	-29.0	28.0	0.00e+00	0	34	0	3031433216	30	5731
2026-01-08 21:30:24.38	308.58	23.42	-28.7	-29.2	27.8	0.00e+00	0	34	0	3038773248	30	5889
2026-01-08 21:30:25.39	308.31	23.38	-28.6	-29.2	27.8	0.00e+00	0	34	0	3046113280	30	5869
2026-01-08 21:30:26.40	308.04	23.34	-28.7	-29.3	27.7	0.00e+00	0	34	0	3053453312	30	5938
2026-01-08 21:30:27.40	307.77	23.29	-28.7	-29.3	27.7	0.00e+00	0	34	0	3060793344	30	5932
2026-01-08 21:30:28.41	307.50	23.25	-28.7	-29.3	27.9	0.00e+00	0	34	0	3068133376	30	5907
2026-01-08 21:30:29.42	307.24	23.20	-28.6	-29.2	27.9	0.00e+00	0	34	0	3075473408	30	5848
2026-01-08 21:30:30.43	306.97	23.15	-28.5	-29.1	27.9	0.00e+00	0	34	0	3082813440	30	5790
2026-01-08 21:30:31.44	306.71	23.11	-28.5	-29.1	27.8	0.00e+00	0	34	0	3090153472	30	5765
2026-01-08 21:30:32.45	306.44	23.06	-28.6	-29.2	27.8	0.00e+00	0	34	0	3097493504	30	5867
2026-01-08 21:30:33.46	306.18	23.01	-28.5	-29.1	27.9	0.00e+00	0	34	0	3104833536	30	5775
2026-01-08 21:30:34.47	305.91	22.97	-28.6	-29.2	27.8	0.00e+00	0	34	0	3112173568	30	5840
2026-01-08 21:30:35.48	305.65	22.92	-28.7	-29.2	27.9	0.00e+00	0	34	0	3119513600	30	5881
2026-01-08 21:30:36.49	305.39	22.87	-28.6	-29.2	27.9	0.00e+00	0	34	0	3125805056	30	5875
2026-01-08 21:30:37.50	305.13	22.82	-28.6	-29.2	27.8	0.00e+00	0	34	0	3133145088	30	5867
2026-01-08 21:30:38.51	304.87	22.77	-28.7	-29.2	27.9	0.00e+00	0	34	0	3140485120	30	5881
2026-01-08 21:30:39.52	304.61	22.72	-28.5	-29.1	27.9	0.00e+00	0	34	0	3147825152	30	5796
2026-01-08 21:30:40.52	304.36	22.66	-28.6	-29.2	27.8	0.00e+00	0	34	0	3155165184	30	5836
2026-01-08 21:30:41.53	304.10	22.61	-28.5	-29.1	27.9	0.00e+00	0	34	0	3162505216	30	5809
2026-01-08 21:30:42.54	303.84	22.56	-28.5	-29.1	27.9	0.00e+00	0	34	0	3169845248	30	5797
2026-01-08 21:30:43.55	303.59	22.51	-28.6	-29.2	27.8	0.00e+00	0	34	0	3177185280	30	5865
2026-01-08 21:30:44.56	303.34	22.45	-28.9	-29.5	27.6	0.00e+00	0	34	0	3184525312	30	6077
2026-01-08 21:30:45.57	303.08	22.40	-28.9	-29.5	27.6	0.00e+00	0	34	0	3191865344	30	6036
2026-01-08 21:30:46.58	302.83	22.34	-28.9	-29.5	27.6	0.00e+00	0	34	0	3199205376	30	6077
2026-01-08 21:30:47.59	302.58	22.29	-29.0	-29.6	27.5	0.00e+00	0	34	0	3206545408	30	6108
2026-01-08 21:30:48.60	302.33	22.23	-29.0	-29.5	27.6	0.00e+00	0	34	0	3213885440	30	6098
2026-01-08 21:30:49.61	302.08	22.18	-28.9	-29.5	27.7	0.00e+00	0	34	0	3221225472	30	6064
2026-01-08 21:30:50.61	301.83	22.12	-28.8	-29.4	27.7	0.00e+00	0	34	0	3228565504	30	6011
2026-01-08 21:30:51.62	301.58	22.07	-28.7	-29.2	27.8	0.00e+00	0	34	0	3235905536	30	5893
2026-01-08 21:30:52.63	301.34	22.01	-28.6	-29.1	27.7	0.00e+00	0	34	0	3243245568	30	5817
2026-01-08 21:30:53.64	301.09	21.95	-28.5	-29.1	27.9	0.00e+00	0	34	0	3250585600	30	5767
2026-01-08 21:30:54.65	300.84	21.89	-28.5	-29.1	27.9	0.00e+00	0	34	0	3256877056	30	5786
2026-01-08 21:30:55.66	300.60	21.83	-28.6	-29.2	27.9	0.00e+00	0	34	0	3264217088	30	5852
2026-01-08 21:30:56.67	300.36	21.77	-28.6	-29.1	27.9	0.00e+00	0	34	0	3272605696	30	5819
2026-01-08 21:30:57.68	300.11	21.71	-28.8	-29.4	27.6	0.00e+00	0	34	0	3278897152	30	5986
2026-01-08 21:30:58.69	299.87	21.66	-28.8	-29.4	27.7	0.00e+00	0	34	0	3286237184	30	6011
2026-01-08 21:30:59.70	299.63	21.59	-28.8	-29.3	27.6	0.00e+00	0	34	0	3293577216	30	5958
2026-01-08 21:31:00.70	299.39	21.53	-28.8	-29.4	27.8	0.00e+00	0	34	0	3300917248	30	5973
2026-01-08 21:31:01.71	299.15	21.47	-28.7	-29.3	27.8	0.00e+00	0	34	0	3308257280	30	5947
2026-01-08 21:31:02.72	298.92	21.41	-28.7	-29.3	27.5	0.00e+00	0	34	0	3315597312	30	5941
2026-01-08 21:31:03.73	298.68	21.35	-28.9	-29.5	27.6	0.00e+00	0	34	0	3322937344	30	6059
2026-01-08 21:31:04.74	298.44	21.29	-29.0	-29.6	27.5	0.00e+00	0	34	0	3330277376	30	6119
2026-01-08 21:31:05.75	298.21	21.23	-28.9	-29.5	27.5	0.00e+00	0	34	0	3337617408	30	6037
2026-01-08 21:31:06.76	297.98	21.16	-28.9	-29.5	27.6	0.00e+00	0	34	0	3344957440	30	6067
2026-01-08 21:31:07.77	297.74	21.10	-28.7	-29.3	27.7	0.00e+00	0	34	0	3352297472	30	5922
2026-01-08 21:31:08.78	297.51	21.04	-28.6	-29.2	27.8	0.00e+00	0	34	0	3359637504	30	5862
2026-01-08 21:31:09.79	297.28	20.97	-28.7	-29.3	27.7	0.00e+00	0	34	0	3366977536	30	5922
2026-01-08 21:31:10.80	297.05	20.91	-28.8	-29.4	27.7	0.00e+00	0	34	0	3374317568	30	5966
2026-01-08 21:31:11.81	296.82	20.84	-28.8	-29.3	27.7	0.00e+00	0	34	0	3381657600	30	5963
2026-01-08 21:31:12.82	296.59	20.78	-28.7	-29.3	27.8	0.00e+00	0	34	0	3388997632	30	5903
2026-01-08 21:31:13.83	296.36	20.71	-28.8	-29.4	27.7	0.00e+00	0	34	0	3396337664	30	5969
2026-01-08 21:31:14.84	296.14	20.65	-28.8	-29.4	27.7	0.00e+00	0	34	0	3403677696	30	5982
2026-01-08 21:31:15.85	295.91	20.58	-28.8	-29.4	27.6	0.00e+00	0	34	0	3409969152	30	5974
2026-01-08 21:31:16.86	295.69	20.52	-28.7	-29.3	27.7	0.00e+00	0	34	0	3417309184	30	5924
2026-01-08 21:31:17.88	295.46	20.45	-28.9	-29.5	27.6	0.00e+00	0	34	0	3425697792	30	6041
2026-01-08 21:31:18.88	295.24	20.38	-28.8	-29.4	27.6	0.00e+00	0	34	0	3431989248	30	5965
2026-01-08 21:31:19.89	295.02	20.32	-29.0	-29.6	27.5	0.00e+00	0	34	0	3439329280	30	6123
2026-01-08 21:31:20.90	294.80	20.25	-28.9	-29.5	27.5	0.00e+00	0	34	0	3446669312	30	6076
2026-01-08 21:31:21.91	294.58	20.18	-29.0	-29.6	27.5	0.00e+00	0	34	0	3454009344	30	6125
2026-01-08 21:31:22.93	294.36	20.11	-29.1	-29.7	27.5	0.00e+00	0	34	0	3461349376	30	6187
2026-01-08 21:31:23.94	294.14	20.05	-28.9	-29.7	24.1	0.00e+00	0	34	0	3468689408	30	6192
2026-01-08 21:31:24.95	293.93	19.98	-28.9	-29.7	24.0	0.00e+00	0	34	0	3476029440	30	6187
2026-01-08 21:31:25.95	293.71	19.91	-28.8	-29.6	24.1	0.00e+00	0	34	0	3483369472	30	6106
2026-01-08 21:31:26.97	293.50	19.84	-28.8	-29.6	24.1	0.00e+00	0	34	0	3490709504	30	6140
2026-01-08 21:31:27.97	293.28	19.77	-28.8	-29.6	24.1	0.00e+00	0	34	0	3498049536	30	6108
2026-01-08 21:31:28.98	293.07	19.70	-28.9	-29.7	24.1	0.00e+00	0	34	0	3505389568	30	6218
2026-01-08 21:31:29.99	292.86	19.63	-28.9	-29.7	24.1	0.00e+00	0	34	0	3512729600	30	6195
2026-01-08 21:31:31.00	292.65	19.56	-28.9	-29.7	24.0	0.00e+00	0	34	0	3520069632	30	6202
2026-01-08 21:31:32.01	292.44	19.49	-29.0	-29.8	23.9	0.00e+00	0	34	0	3527409664	30	6289
2026-01-08 21:31:33.02	292.23	19.42	-29.1	-29.8	23.8	0.00e+00	0	34	0	3534749696	30	6311
2026-01-08 21:31:34.03	292.02	19.35	-29.1	-29.8	23.8	0.00e+00	0	34	0	3542089728	30	6314
2026-01-08 21:31:35.04	291.82	19.28	-29.1	-29.8	23.8	0.00e+00	0	34	0	3549429760	30	6310
2026-01-08 21:31:36.05	291.61	19.21	-29.1	-29.9	23.8	0.00e+00	0	34	0	3556769792	30	6347
2026-01-08 21:31:37.06	291.41	19.14	-29.1	-29.9	23.8	0.00e+00	0	34	0	3563061248	30	6337
2026-01-08 21:31:38.06	291.20	19.07	-29.4	-30.1	23.7	0.00e+00	0	34	0	3570401280	30	6522
2026-01-08 21:31:39.07	291.00	19.00	-29.1	-29.9	23.8	0.00e+00	0	34	0	3577741312	30	6328
2026-01-08 21:31:40.08	290.80	18.93	-29.1	-29.9	23.8	0.00e+00	0	34	0	3585081344	30	6339
2026-01-08 21:31:41.09	290.60	18.86	-29.1	-29.9	24.0	0.00e+00	0	34	0	3592421376	30	6353
2026-01-08 21:31:42.10	290.40	18.79	-29.1	-29.9	23.9	0.00e+00	0	34	0	3599761408	30	6343
2026-01-08 21:31:43.11	290.20	18.71	-29.1	-29.9	24.0	0.00e+00	0	34	0	3607101440	30	6332
2026-01-08 21:31:44.12	290.00	18.64	-29.1	-29.8	24.0	0.00e+00	0	34	0	3614441472	30	6299
2026-01-08 21:31:45.13	289.80	18.57	-29.1	-29.9	24.1	0.00e+00	0	34	0	3621781504	30	6329
2026-01-08 21:31:46.14	289.61	18.50	-29.2	-29.9	24.1	0.00e+00	0	34	0	3629121536	30	6385
2026-01-08 21:31:47.15	289.41	18.43	-29.1	-29.9	24.1	0.00e+00	0	34	0	3636461568	30	6371
2026-01-08 21:31:48.16	289.22	18.35	-29.2	-29.9	24.1	0.00e+00	0	34	0	3643801600	30	6362
2026-01-08 21:31:49.17	289.02	18.28	-29.3	-30.1	24.0	0.00e+00	0	34	0	3651141632	30	6499
2026-01-08 21:31:50.18	288.83	18.21	-29.2	-30.0	24.0	0.00e+00	0	34	0	3658481664	30	6427
2026-01-08 21:31:51.19	288.64	18.14	-29.3	-30.1	23.9	0.00e+00	0	34	0	3665821696	30	6485
2026-01-08 21:31:52.20	288.45	18.06	-29.5	-30.2	23.8	0.00e+00	0	34	0	3673161728	30	6602
2026-01-08 21:31:53.21	288.26	17.99	-29.5	-30.3	23.8	0.00e+00	0	34	0	3680501760	30	6616
2026-01-08 21:31:54.22	288.07	17.92	-29.4	-30.2	23.7	0.00e+00	0	34	0	3687841792	30	6561
2026-01-08 21:31:55.23	287.88	17.84	-29.4	-30.2	23.8	0.00e+00	0	34	0	3695181824	30	6562
2026-01-08 21:31:56.24	287.69	17.77	-29.3	-30.0	23.9	0.00e+00	0	34	0	3702521856	30	6435
2026-01-08 21:31:57.25	287.51	17.70	-29.4	-30.2	24.0	0.00e+00	0	34	0	3708813312	30	6544
2026-01-08 21:31:58.25	287.32	17.62	-29.3	-30.0	24.1	0.00e+00	0	34	0	3716153344	30	6439
2026-01-08 21:31:59.26	287.14	17.55	-29.4	-30.2	24.1	0.00e+00	0	34	0	3723493376	30	6544
2026-01-08 21:32:00.27	286.96	17.48	-29.2	-30.0	24.2	0.00e+00	0	34	0	3730833408	30	6411
2026-01-08 21:32:01.28	286.77	17.40	-29.3	-30.1	24.2	0.00e+00	0	34	0	3738173440	30	6477
2026-01-08 21:32:02.29	286.59	17.33	-29.5	-30.2	24.0	0.00e+00	0	34	0	3745513472	30	6594
2026-01-08 21:32:03.30	286.41	17.25	-29.6	-30.4	23.9	0.00e+00	0	34	0	3752853504	30	6707
2026-01-08 21:32:04.31	286.23	17.18	-29.8	-30.5	23.9	0.00e+00	0	34	0	3760193536	30	6840
2026-01-08 21:32:05.32	286.05	17.11	-29.7	-30.5	23.8	0.00e+00	0	34	0	3767533568	32	6075
2026-01-08 21:32:06.33	285.87	17.03	-29.8	-30.6	23.8	0.00e+00	0	34	0	3774873600	32	6112
2026-01-08 21:32:07.34	285.70	16.96	-29.9	-30.6	23.8	0.00e+00	0	34	0	3782213632	32	6158
2026-01-08 21:32:08.35	285.52	16.88	-29.8	-30.6	23.7	0.00e+00	0	34	0	3789553664	32	6138
2026-01-08 21:32:09.36	285.34	16.81	-29.9	-30.7	23.7	0.00e+00	0	34	0	3796893696	32	6184
2026-01-08 21:32:10.37	285.17	16.73	-30.0	-30.7	23.7	0.00e+00	0	34	0	3804233728	32	6221
2026-01-08 21:32:11.38	285.00	16.66	-30.0	-30.8	23.6	0.00e+00	0	34	0	3811573760	32	6253
2026-01-08 21:32:12.38	284.82	16.59	-30.0	-30.8	23.6	0.00e+00	0	34	0	3818913792	32	6254
2026-01-08 21:32:13.39	284.65	16.51	-30.1	-30.9	23.6	0.00e+00	0	34	0	3826253824	32	6323
2026-01-08 21:32:14.40	284.48	16.44	-30.1	-30.9	23.5	0.00e+00	0	34	0	3833593856	32	6336
2026-01-08 21:32:15.41	284.31	16.36	-30.2	-31.0	23.4	0.00e+00	0	34	0	3839885312	32	6426
2026-01-08 21:32:16.42	284.14	16.29	-30.2	-31.0	23.5	0.00e+00	0	34	0	3848273920	32	6433
2026-01-08 21:32:17.43	283.97	16.21	-30.2	-30.9	23.4	0.00e+00	0	34	0	3855613952	32	6387
2026-01-08 21:32:18.44	283.81	16.14	-30.1	-30.9	23.4	0.00e+00	0	34	0	3861905408	32	6370
2026-01-08 21:32:19.45	283.64	16.06	-29.9	-30.7	23.5	0.00e+00	0	34	0	3869245440	32	6183
2026-01-08 21:32:20.46	283.47	15.99	-30.0	-30.8	23.3	0.00e+00	0	34	0	3876585472	32	6289
2026-01-08 21:32:21.47	283.31	15.91	-29.9	-30.6	23.4	0.00e+00	0	34	0	3883925504	32	6159
2026-01-08 21:32:22.48	283.14	15.84	-29.9	-30.7	23.4	0.00e+00	0	34	0	3891265536	32	6226
2026-01-08 21:32:23.49	282.98	15.76	-30.0	-30.7	23.4	0.00e+00	0	34	0	3898605568	32	6237
2026-01-08 21:32:24.50	282.82	15.69	-30.1	-30.9	23.2	0.00e+00	0	34	0	3905945600	32	6324
2026-01-08 21:32:25.50	282.66	15.62	-30.1	-30.9	23.3	0.00e+00	0	34	0	3913285632	32	6370
2026-01-08 21:32:26.51	282.50	15.54	-30.2	-31.0	23.3	0.00e+00	0	34	0	3920625664	32	6427
2026-01-08 21:32:27.52	282.34	15.47	-30.1	-30.9	23.4	0.00e+00	0	34	0	3927965696	32	6350
2026-01-08 21:32:28.53	282.18	15.39	-30.2	-31.0	23.3	0.00e+00	0	34	0	3935305728	32	6422
2026-01-08 21:32:29.54	282.02	15.32	-30.1	-30.9	23.4	0.00e+00	0	34	0	3942645760	32	6347
2026-01-08 21:32:30.55	281.86	15.24	-30.2	-31.0	23.3	0.00e+00	0	34	0	3949985792	32	6433
2026-01-08 21:32:31.56	281.70	15.17	-30.1	-30.9	23.5	0.00e+00	0	34	0	3957325824	32	6344
2026-01-08 21:32:32.57	281.55	15.09	-30.2	-31.0	23.3	0.00e+00	0	34	0	3964665856	32	6391
2026-01-08 21:32:33.58	281.39	15.02	-30.1	-30.9	23.3	0.00e+00	0	34	0	3972005888	32	6370
2026-01-08 21:32:34.59	281.24	14.94	-30.2	-31.0	23.3	0.00e+00	0	34	0	3979345920	32	6443
2026-01-08 21:32:35.60	281.08	14.87	-30.3	-31.1	23.2	0.00e+00	0	34	0	3985637376	32	6529
2026-01-08 21:32:36.61	280.93	14.79	-30.5	-31.3	23.1	0.00e+00	0	34	0	3992977408	32	6626
2026-01-08 21:32:37.61	280.78	14.72	-30.4	-31.2	23.1	0.00e+00	0	34	0	4000317440	32	6608
2026-01-08 21:32:38.62	280.63	14.65	-30.5	-31.3	23.1	0.00e+00	0	34	0	4007657472	32	6640
2026-01-08 21:32:39.63	280.48	14.57	-30.6	-31.4	23.0	0.00e+00	0	34	0	4014997504	32	6750
2026-01-08 21:32:40.64	280.33	14.50	-30.6	-31.4	23.1	0.00e+00	0	34	0	4022337536	34	5996
2026-01-08 21:32:41.65	280.18	14.42	-30.7	-31.5	23.1	0.00e+00	0	34	0	4029677568	34	6050
2026-01-08 21:32:42.66	280.03	14.35	-30.6	-31.4	23.1	0.00e+00	0	34	0	4037017600	34	6005
2026-01-08 21:32:43.67	279.88	14.27	-30.7	-31.5	23.0	0.00e+00	0	34	0	4044357632	34	6051
2026-01-08 21:32:44.68	279.73	14.20	-30.6	-31.4	23.0	0.00e+00	0	34	0	4051697664	34	5999
2026-01-08 21:32:45.69	279.59	14.12	-30.6	-31.4	23.1	0.00e+00	0	34	0	4059037696	34	6016
2026-01-08 21:32:46.70	279.44	14.05	-30.6	-31.4	23.1	0.00e+00	0	34	0	4066377728	34	5984
2026-01-08 21:32:47.71	279.30	13.98	-30.5	-31.3	23.1	0.00e+00	0	34	0	4073717760	34	5941
2026-01-08 21:32:48.72	279.15	13.90	-30.5	-31.3	23.2	0.00e+00	0	34	0	4081057792	34	5943
2026-01-08 21:32:49.73	279.01	13.83	-30.5	-31.3	23.2	0.00e+00	0	34	0	4088397824	34	5932
2026-01-08 21:32:50.73	278.87	13.75	-30.7	-31.5	23.2	0.00e+00	0	34	0	4095737856	34	6040
2026-01-08 21:32:51.74	278.73	13.68	-30.6	-31.4	23.0	0.00e+00	0	34	0	4103077888	34	5991
2026-01-08 21:32:52.75	278.59	13.61	-30.5	-31.3	23.2	0.00e+00	0	34	0	4110417920	34	5948
2026-01-08 21:32:53.76	278.45	13.53	-30.7	-31.5	23.2	0.00e+00	0	34	0	4116709376	34	6059
2026-01-08 21:32:54.77	278.31	13.46	-30.6	-31.4	23.2	0.00e+00	0	34	0	4125097984	34	5999
2026-01-08 21:32:55.78	278.17	13.38	-30.6	-31.4	23.0	0.00e+00	0	34	0	4132438016	34	6014
2026-01-08 21:32:56.79	278.03	13.31	-30.7	-31.5	23.2	0.00e+00	0	34	0	4138729472	34	6059
2026-01-08 21:32:57.80	277.89	13.24	-30.8	-31.6	23.0	0.00e+00	0	34	0	4146069504	34	6114
2026-01-08 21:32:58.81	277.75	13.16	-30.8	-31.6	23.0	0.00e+00	0	34	0	4153409536	34	6121
2026-01-08 21:32:59.82	277.62	13.09	-31.0	-31.8	22.8	0.00e+00	0	34	0	4160749568	34	6295
2026-01-08 21:33:00.83	277.48	13.02	-31.0	-31.8	22.8	0.00e+00	0	34	0	4168089600	34	6261
2026-01-08 21:33:01.84	277.35	12.94	-31.2	-32.0	22.7	0.00e+00	0	34	0	4175429632	34	6461
2026-01-08 21:33:02.85	277.21	12.87	-31.4	-32.2	22.5	0.00e+00	0	34	0	4182769664	34	6580
2026-01-08 21:33:03.86	277.08	12.79	-31.5	-32.3	22.5	0.00e+00	0	34	0	4190109696	34	6654
2026-01-08 21:33:04.87	276.95	12.72	-31.3	-32.2	22.4	0.00e+00	0	34	0	4197449728	34	6549
2026-01-08 21:33:05.88	276.82	12.65	-31.4	-32.2	22.4	0.00e+00	0	34	0	4204789760	34	6608
2026-01-08 21:33:06.88	276.69	12.58	-31.3	-32.2	22.4	0.00e+00	0	34	0	4212129792	34	6576
2026-01-08 21:33:07.89	276.55	12.50	-31.3	-32.2	22.4	0.00e+00	0	34	0	4219469824	34	6560
2026-01-08 21:33:08.90	276.42	12.43	-31.3	-32.1	22.4	0.00e+00	0	34	0	4226809856	34	6508
2026-01-08 21:33:09.91	276.29	12.36	-31.2	-32.0	22.6	0.00e+00	0	34	0	4234149888	34	6427
2026-01-08 21:33:10.92	276.17	12.28	-31.2	-32.0	22.6	0.00e+00	0	34	0	4241489920	34	6402
2026-01-08 21:33:11.93	276.04	12.21	-31.1	-31.9	22.7	0.00e+00	0	34	0	4248829952	34	6343
2026-01-08 21:33:12.94	275.91	12.14	-31.0	-31.8	22.9	0.00e+00	0	34	0	4256169984	34	6293
2026-01-08 21:33:13.95	275.78	12.07	-30.9	-31.7	22.9	0.00e+00	0	34	0	4262461440	34	6236
2026-01-08 21:33:14.96	275.66	11.99	-30.8	-31.6	23.0	0.00e+00	0	34	0	4269801472	34	6152
2026-01-08 21:33:15.97	275.53	11.92	-30.8	-31.6	23.0	0.00e+00	0	33	0	4277141504	34	6163
2026-01-08 21:33:16.98	275.41	11.85	-31.0	-31.8	22.8	0.00e+00	0	34	0	4284481536	34	6300
2026-01-08 21:33:17.99	275.28	11.78	-31.1	-32.0	22.7	0.00e+00	0	34	0	4291821568	34	6392
2026-01-08 21:33:19.00	275.16	11.70	-31.3	-32.1	22.6	0.00e+00	0	34	0	4299161600	34	6501
2026-01-08 21:33:20.01	275.04	11.63	-31.4	-32.3	22.4	0.00e+00	0	34	0	4306501632	34	6638
2026-01-08 21:33:21.02	274.91	11.56	-31.6	-32.5	22.2	0.00e+00	0	34	0	4313841664	34	6773
2026-01-08 21:33:22.02	274.79	11.49	-31.8	-32.7	22.1	0.00e+00	0	33	0	4321181696	36	6182
2026-01-08 21:33:23.03	274.67	11.42	-31.8	-32.7	21.7	0.00e+00	0	34	0	4328521728	36	6212
2026-01-08 21:33:24.04	274.55	11.34	-31.9	-32.8	21.9	0.00e+00	0	34	0	4335861760	36	6273
2026-01-08 21:33:25.05	274.43	11.27	-31.8	-32.7	22.1	0.00e+00	0	34	0	4343201792	36	6191
2026-01-08 21:33:26.06	274.31	11.20	-32.2	-33.0	22.0	0.00e+00	0	34	0	4350541824	36	6464
2026-01-08 21:33:27.07	274.19	11.13	-31.7	-32.5	22.2	0.00e+00	0	34	0	4357881856	36	6102
2026-01-08 21:33:28.08	274.07	11.06	-31.8	-32.6	22.2	0.00e+00	0	34	0	4365221888	36	6164
2026-01-08 21:33:29.09	273.96	10.99	-31.5	-32.3	22.4	0.00e+00	0	34	0	4372561920	36	5924
2026-01-08 21:33:30.09	273.84	10.91	-31.3	-32.1	22.5	0.00e+00	0	34	0	4379901952	36	5828
2026-01-08 21:33:31.10	273.72	10.84	-31.4	-32.2	22.5	0.00e+00	0	34	0	4387241984	36	5889
2026-01-08 21:33:32.11	273.61	10.77	-31.3	-32.1	22.6	0.00e+00	0	34	0	4393533440	36	5776
2026-01-08 21:33:33.12	273.49	10.70	-31.4	-32.2	22.6	0.00e+00	0	34	0	4401922048	36	5838
2026-01-08 21:33:34.13	273.38	10.63	-31.3	-32.1	22.6	0.00e+00	0	34	0	4409262080	36	5820
2026-01-08 21:33:35.14	273.26	10.56	-31.4	-32.3	22.5	0.00e+00	0	34	0	4415553536	36	5903
2026-01-08 21:33:36.15	273.15	10.49	-31.3	-32.1	22.7	0.00e+00	0	34	0	4422893568	36	5782
2026-01-08 21:33:37.16	273.04	10.42	-31.2	-32.0	22.7	0.00e+00	0	34	0	4430233600	36	5747
2026-01-08 21:33:38.17	272.92	10.35	-31.3	-32.1	22.7	0.00e+00	0	34	0	4437573632	36	5773
2026-01-08 21:33:39.18	272.81	10.28	-31.3	-32.1	22.8	0.00e+00	0	34	0	4444913664	36	5776
2026-01-08 21:33:40.19	272.70	10.21	-31.3	-32.1	22.7	0.00e+00	0	34	0	4452253696	36	5779
2026-01-08 21:33:41.20	272.59	10.14	-31.3	-32.1	22.8	0.00e+00	0	34	0	4459593728	36	5793
2026-01-08 21:33:42.20	272.48	10.07	-31.4	-32.2	22.7	0.00e+00	0	34	0	4466933760	36	5890
2026-01-08 21:33:43.21	272.37	10.00	-31.5	-32.3	22.6	0.00e+00	0	34	0	4474273792	36	5915
2026-01-08 21:33:44.22	272.26	9.93	-31.4	-32.2	22.6	0.00e+00	0	34	0	4481613824	36	5860
2026-01-08 21:33:45.23	272.15	9.86	-31.5	-32.3	22.6	0.00e+00	0	34	0	4488953856	36	5911
2026-01-08 21:33:46.24	272.04	9.79	-31.6	-32.4	22.6	0.00e+00	0	34	0	4496293888	36	5990
2026-01-08 21:33:47.25	271.94	9.72	-31.5	-32.3	22.5	0.00e+00	0	34	0	4503633920	36	5954
2026-01-08 21:33:48.26	271.83	9.65	-31.7	-32.5	22.5	0.00e+00	0	34	0	4510973952	36	6056
2026-01-08 21:33:49.27	271.72	9.58	-31.6	-32.5	22.4	0.00e+00	0	34	0	4518313984	36	6049
2026-01-08 21:33:50.28	271.62	9.51	-31.7	-32.6	22.3	0.00e+00	0	34	0	4525654016	36	6111
2026-01-08 21:33:51.29	271.51	9.44	-31.7	-32.6	22.3	0.00e+00	0	34	0	4532994048	36	6112
2026-01-08 21:33:52.30	271.41	9.37	-31.9	-32.7	22.2	0.00e+00	0	34	0	4539285504	36	6211
2026-01-08 21:33:53.31	271.30	9.30	-32.0	-32.8	22.1	0.00e+00	0	34	0	4546625536	36	6315
2026-01-08 21:33:54.32	271.20	9.23	-31.9	-32.7	22.3	0.00e+00	0	34	0	4553965568	36	6223
2026-01-08 21:33:55.33	271.09	9.16	-32.0	-32.9	22.2	0.00e+00	0	34	0	4561305600	36	6330
2026-01-08 21:33:56.33	270.99	9.09	-32.1	-33.0	22.1	0.00e+00	0	34	0	4568645632	36	6411
2026-01-08 21:33:57.34	270.89	9.02	-32.1	-32.9	22.1	0.00e+00	0	34	0	4575985664	36	6366
2026-01-08 21:33:58.35	270.79	8.96	-32.1	-33.0	22.0	0.00e+00	0	34	0	4583325696	36	6413
2026-01-08 21:33:59.36	270.69	8.89	-32.2	-33.1	22.0	0.00e+00	0	34	0	4590665728	36	6486
2026-01-08 21:34:00.37	270.58	8.82	-32.5	-33.4	21.8	0.00e+00	0	34	0	4598005760	36	6709
2026-01-08 21:34:01.38	270.48	8.75	-32.2	-33.1	21.8	0.00e+00	0	34	0	4605345792	36	6514
2026-01-08 21:34:02.39	270.38	8.68	-32.4	-33.3	21.8	0.00e+00	0	34	0	4612685824	36	6670
2026-01-08 21:34:03.40	270.28	8.61	-32.1	-33.0	21.9	0.00e+00	0	34	0	4620025856	36	6405
