passes_logs/2026/01/08/R4.6S_Anadyr/R4.6S_Anadyr__20260108_153631_NOAA_20_JPSS-1_rec.log

#Pass ID: 20260108_153631_NOAA 20 (JPSS-1)
#Satellite: NOAA 20 (JPSS-1)
#Configuration: NOAA 20
#almurnet v.1.7.20251203
#Start time: 2026-01-08 15:36:34

#Version: 2.2.20231116
#Station: R4.6S_Anadyr
#Location: 177.4865 lon 64.73178 lat
#TLE: 1 43013U 17073A   26008.28148939  .00000118  00000+0  77102-4 0  9999
#TLE: 2 43013  98.7631 309.2920 0001742  49.0100 311.1227 14.19534407421787

#Time	Az	El	Level	Level2	SNR	BER	BlckErr	Temp	State	Recorded	gain1	gain2
2026-01-08 15:36:34.72	22.79	0.21	-48.3	-62.1	3.3	1.54e+00	0	31	0	0	60	45988
2026-01-08 15:36:35.73	22.76	0.27	-48.5	-63.6	3.6	1.51e+00	0	31	104	0	60	54970
2026-01-08 15:36:36.74	22.74	0.33	-48.5	-63.7	3.6	1.51e+00	0	31	104	0	60	55396
2026-01-08 15:36:37.75	22.72	0.39	-48.5	-63.7	3.6	1.51e+00	0	31	104	0	60	55476
2026-01-08 15:36:38.76	22.70	0.45	-48.5	-63.7	3.6	1.51e+00	0	31	104	0	60	55331
2026-01-08 15:36:39.77	22.68	0.51	-48.5	-63.7	3.6	1.51e+00	0	31	104	0	60	55536
2026-01-08 15:36:40.78	22.66	0.57	-48.6	-63.7	3.6	1.51e+00	0	31	104	0	60	55543
2026-01-08 15:36:41.79	22.64	0.63	-48.5	-63.7	3.6	1.51e+00	0	31	104	0	60	55522
2026-01-08 15:36:42.79	22.62	0.69	-48.5	-63.7	3.6	1.51e+00	0	31	104	0	60	55340
2026-01-08 15:36:43.81	22.60	0.75	-48.4	-63.6	3.6	1.51e+00	0	31	104	0	60	54858
2026-01-08 15:36:44.82	22.58	0.81	-48.4	-63.5	3.6	1.51e+00	0	31	104	0	60	54214
2026-01-08 15:36:45.82	22.56	0.87	-48.2	-63.4	3.6	1.51e+00	0	31	104	0	60	53658
2026-01-08 15:36:46.83	22.54	0.93	-48.1	-63.2	3.6	1.51e+00	0	31	104	0	60	52399
2026-01-08 15:36:47.84	22.52	0.99	-47.9	-63.1	3.6	1.51e+00	0	31	104	0	60	51445
2026-01-08 15:36:48.85	22.49	1.06	-47.7	-62.9	3.6	1.51e+00	0	31	104	0	60	50424
2026-01-08 15:36:49.86	22.47	1.12	-47.4	-62.6	3.6	1.51e+00	0	31	104	0	60	48786
2026-01-08 15:36:50.87	22.45	1.18	-47.0	-62.2	3.6	1.51e+00	0	31	104	0	60	46504
2026-01-08 15:36:51.87	22.43	1.24	-47.0	-62.2	3.6	1.51e+00	0	31	104	0	60	46322
2026-01-08 15:36:52.88	22.41	1.30	-47.0	-62.1	3.6	1.51e+00	0	31	104	0	60	46169
2026-01-08 15:36:53.89	22.39	1.36	-47.0	-62.1	3.6	1.51e+00	0	31	104	0	60	46163
2026-01-08 15:36:54.90	22.36	1.43	-47.0	-62.1	3.6	1.51e+00	0	31	104	0	60	46081
2026-01-08 15:36:55.91	22.34	1.49	-47.0	-61.9	3.6	1.51e+00	0	31	104	0	60	45010
2026-01-08 15:36:56.92	22.32	1.55	-47.0	-61.8	3.6	1.51e+00	0	31	104	0	60	44703
2026-01-08 15:36:57.93	22.30	1.61	-47.0	-61.7	3.6	1.51e+00	0	31	104	0	60	44190
2026-01-08 15:36:58.94	22.27	1.68	-47.0	-61.7	3.6	1.51e+00	0	31	104	0	60	44043
2026-01-08 15:36:59.95	22.25	1.74	-47.0	-61.7	3.6	1.51e+00	0	31	104	0	60	44078
2026-01-08 15:37:00.96	22.23	1.80	-47.0	-61.8	3.6	1.51e+00	0	31	104	0	60	44254
2026-01-08 15:37:01.97	22.21	1.87	-47.0	-62.0	3.6	1.51e+00	0	31	104	0	60	45358
2026-01-08 15:37:02.98	22.18	1.93	-47.0	-62.1	3.6	1.51e+00	0	31	104	0	60	46114
2026-01-08 15:37:03.99	22.16	1.99	-47.0	-62.2	3.6	1.51e+00	0	31	104	0	60	46470
2026-01-08 15:37:05.00	22.14	2.06	-47.0	-62.1	3.6	1.51e+00	0	31	104	0	60	46257
2026-01-08 15:37:06.01	22.11	2.12	-47.0	-62.1	3.6	1.51e+00	0	31	104	0	60	45980
2026-01-08 15:37:07.02	22.09	2.18	-47.0	-62.0	3.6	1.51e+00	0	31	104	0	60	45388
2026-01-08 15:37:08.03	22.07	2.25	-47.0	-61.8	3.6	1.51e+00	0	31	104	0	60	44474
2026-01-08 15:37:09.04	22.04	2.31	-47.0	-61.7	3.5	1.51e+00	0	31	104	0	60	43756
2026-01-08 15:37:10.05	22.02	2.38	-47.0	-61.3	3.6	1.51e+00	0	31	104	0	60	41894
2026-01-08 15:37:11.06	22.00	2.44	-46.9	-61.0	3.6	1.51e+00	0	31	104	0	60	40598
2026-01-08 15:37:12.07	21.97	2.51	-46.9	-60.6	3.6	1.51e+00	0	31	104	0	60	38937
2026-01-08 15:37:13.08	21.95	2.57	-46.9	-60.3	3.7	1.51e+00	0	31	104	0	60	37344
2026-01-08 15:37:14.09	21.92	2.63	-46.9	-60.5	3.6	1.51e+00	0	31	104	0	60	38271
2026-01-08 15:37:15.10	21.90	2.70	-46.9	-60.8	3.6	1.51e+00	0	31	104	0	60	39566
2026-01-08 15:37:16.11	21.87	2.77	-47.0	-61.5	3.6	1.51e+00	0	31	104	0	60	42771
2026-01-08 15:37:17.11	21.85	2.83	-47.0	-61.7	3.6	1.51e+00	0	31	104	0	60	43900
2026-01-08 15:37:18.12	21.82	2.90	-46.9	-60.8	3.6	1.51e+00	0	31	104	0	60	39771
2026-01-08 15:37:19.13	21.80	2.96	-46.8	-58.2	4.2	1.48e+00	42	31	104	0	60	29448
2026-01-08 15:37:20.14	21.77	3.03	-46.4	-54.1	6.0	4.07e-01	92	31	0	1048576	60	18327
2026-01-08 15:37:21.15	21.75	3.09	-46.0	-52.2	8.3	1.06e-01	64	31	0	3145728	60	14706
2026-01-08 15:37:22.16	21.72	3.16	-45.4	-50.4	10.4	1.45e-02	2	31	0	5242880	60	11965
2026-01-08 15:37:23.17	21.70	3.22	-44.9	-49.0	12.0	1.64e-03	0	31	0	7340032	60	10142
2026-01-08 15:37:24.18	21.67	3.29	-44.4	-47.9	13.2	6.17e-05	0	31	0	8388608	60	8986
2026-01-08 15:37:25.19	21.65	3.36	-44.0	-47.3	13.8	6.80e-06	92	31	0	10485760	60	8356
2026-01-08 15:37:26.20	21.62	3.42	-43.9	-47.0	14.1	4.50e-06	16	31	0	12582912	60	8136
2026-01-08 15:37:27.21	21.60	3.49	-43.7	-46.7	14.5	7.00e-07	92	31	0	14680064	60	7823
2026-01-08 15:37:28.22	21.57	3.56	-43.9	-47.1	13.9	7.00e-07	17	31	0	16777216	60	8187
2026-01-08 15:37:29.23	21.54	3.62	-44.5	-48.4	12.1	4.50e-06	17	31	0	17825792	60	9481
2026-01-08 15:37:30.24	21.52	3.69	-46.9	-59.5	3.7	1.49e+00	0	31	104	18874368	60	34104
2026-01-08 15:37:31.25	21.49	3.76	-39.1	-40.3	20.5	0.00e+00	0	31	0	19922944	52	5957
2026-01-08 15:37:32.26	21.46	3.83	-46.9	-60.6	3.6	9.77e-01	0	31	104	19922944	60	38523
2026-01-08 15:37:33.27	21.44	3.89	-44.0	-47.2	15.9	3.25e-01	15	31	104	19922944	60	8299
2026-01-08 15:37:34.28	21.41	3.96	-46.1	-52.5	8.4	6.94e-02	92	31	0	20971520	60	15237
2026-01-08 15:37:35.29	21.38	4.03	-40.3	-41.7	19.4	0.00e+00	0	31	0	23068672	54	6243
2026-01-08 15:37:36.30	21.35	4.10	-40.3	-41.8	19.3	0.00e+00	81	31	0	24117248	54	6280
2026-01-08 15:37:37.31	21.33	4.17	-40.1	-41.6	19.7	0.00e+00	0	31	0	26214400	54	6115
2026-01-08 15:37:38.32	21.30	4.24	-39.5	-40.8	20.4	0.00e+00	0	31	0	28311552	52	6256
2026-01-08 15:37:39.33	21.27	4.30	-39.4	-40.7	20.5	0.00e+00	0	31	0	30408704	52	6181
2026-01-08 15:37:40.34	21.24	4.37	-38.9	-40.1	21.1	0.00e+00	58	31	0	32505856	52	5794
2026-01-08 15:37:41.35	21.22	4.44	-38.9	-40.1	21.2	0.00e+00	92	31	0	33554432	52	5792
2026-01-08 15:37:42.36	21.19	4.51	-38.7	-39.9	21.3	0.00e+00	0	31	0	35651584	52	5655
2026-01-08 15:37:43.37	21.16	4.58	-39.0	-40.2	21.1	0.00e+00	92	31	0	37748736	50	6598
2026-01-08 15:37:44.38	21.13	4.65	-38.8	-40.0	21.2	0.00e+00	59	31	0	39845888	50	6437
2026-01-08 15:37:45.39	21.10	4.72	-39.0	-40.1	21.2	0.00e+00	58	31	0	41943040	50	6525
2026-01-08 15:37:46.40	21.07	4.79	-38.7	-39.8	21.5	0.00e+00	0	31	0	42991616	50	6292
2026-01-08 15:37:47.41	21.04	4.86	-38.7	-39.9	21.4	0.00e+00	0	31	0	45088768	50	6324
2026-01-08 15:37:48.42	21.02	4.93	-38.8	-40.0	21.3	0.00e+00	92	31	0	47185920	50	6419
2026-01-08 15:37:49.43	20.99	5.00	-38.6	-39.7	21.5	0.00e+00	16	31	0	49283072	50	6235
2026-01-08 15:37:50.44	20.96	5.07	-38.5	-39.6	21.7	0.00e+00	92	31	0	51380224	50	6109
2026-01-08 15:37:51.45	20.93	5.14	-38.4	-39.5	21.8	0.00e+00	17	31	0	52428800	50	6037
2026-01-08 15:37:52.46	20.90	5.21	-38.3	-39.4	21.9	0.00e+00	6	31	0	54525952	50	5974
2026-01-08 15:37:53.47	20.87	5.28	-38.4	-39.5	21.9	0.00e+00	5	31	0	56623104	50	6038
2026-01-08 15:37:54.48	20.84	5.36	-38.4	-39.5	21.8	0.00e+00	0	31	0	58720256	50	6058
2026-01-08 15:37:55.49	20.81	5.43	-38.4	-39.4	21.9	0.00e+00	90	31	0	60817408	50	6032
2026-01-08 15:37:56.50	20.78	5.50	-38.3	-39.3	22.0	0.00e+00	0	31	0	61865984	50	5957
2026-01-08 15:37:57.51	20.75	5.57	-38.3	-39.3	21.9	0.00e+00	91	31	0	63963136	50	5940
2026-01-08 15:37:58.51	20.71	5.64	-38.3	-39.4	22.0	0.00e+00	0	31	0	66060288	50	5967
2026-01-08 15:37:59.52	20.68	5.71	-38.2	-39.3	22.0	0.00e+00	22	31	0	68157440	50	5929
2026-01-08 15:38:00.53	20.65	5.79	-38.2	-39.3	22.1	0.00e+00	7	31	0	70254592	50	5920
2026-01-08 15:38:01.54	20.62	5.86	-38.2	-39.3	22.1	0.00e+00	0	31	0	71303168	50	5926
2026-01-08 15:38:02.55	20.59	5.93	-38.3	-39.4	22.1	0.00e+00	0	31	0	73400320	50	5989
2026-01-08 15:38:03.56	20.56	6.00	-38.2	-39.3	22.1	0.00e+00	0	31	0	75497472	50	5902
2026-01-08 15:38:04.57	20.53	6.08	-38.2	-39.2	22.1	0.00e+00	92	31	0	77594624	50	5876
2026-01-08 15:38:05.58	20.49	6.15	-38.3	-39.3	22.0	0.00e+00	65	31	0	79691776	50	5951
2026-01-08 15:38:06.59	20.46	6.22	-38.3	-39.3	22.1	0.00e+00	82	31	0	80740352	50	5948
2026-01-08 15:38:07.59	20.43	6.30	-38.3	-39.4	22.0	0.00e+00	27	31	0	82837504	50	6005
2026-01-08 15:38:08.60	20.40	6.37	-38.2	-39.2	22.2	0.00e+00	24	31	0	84934656	50	5872
2026-01-08 15:38:09.61	20.36	6.45	-38.2	-39.3	22.2	0.00e+00	4	31	0	87031808	50	5923
2026-01-08 15:38:10.62	20.33	6.52	-38.3	-39.3	22.1	0.00e+00	26	31	0	89128960	50	5934
2026-01-08 15:38:11.63	20.30	6.60	-38.0	-39.0	22.4	0.00e+00	71	31	0	90177536	50	5747
2026-01-08 15:38:12.64	20.26	6.67	-38.1	-39.1	22.3	0.00e+00	6	31	0	92274688	50	5788
2026-01-08 15:38:13.65	20.23	6.75	-38.0	-39.0	22.5	0.00e+00	92	31	0	94371840	50	5722
2026-01-08 15:38:14.66	20.20	6.82	-38.0	-39.0	22.5	0.00e+00	27	31	0	96468992	50	5700
2026-01-08 15:38:15.67	20.16	6.90	-37.9	-38.9	22.6	0.00e+00	6	31	0	98566144	50	5638
2026-01-08 15:38:16.67	20.13	6.97	-38.1	-39.1	22.4	0.00e+00	5	31	0	99614720	50	5827
2026-01-08 15:38:17.68	20.10	7.05	-37.9	-38.9	22.6	0.00e+00	0	31	0	101711872	50	5643
2026-01-08 15:38:18.69	20.06	7.12	-37.8	-38.7	22.7	0.00e+00	91	31	0	103809024	48	6237
2026-01-08 15:38:19.70	20.03	7.20	-37.9	-38.9	22.6	0.00e+00	7	31	0	105906176	48	6348
2026-01-08 15:38:20.71	19.99	7.28	-37.8	-38.8	22.7	0.00e+00	90	31	0	108003328	48	6292
2026-01-08 15:38:21.71	19.96	7.35	-37.8	-38.7	22.8	0.00e+00	7	31	0	109051904	48	6228
2026-01-08 15:38:22.72	19.92	7.43	-37.7	-38.7	22.8	0.00e+00	90	31	0	111149056	48	6228
2026-01-08 15:38:23.73	19.89	7.51	-37.7	-38.6	22.8	0.00e+00	0	31	0	113246208	48	6173
2026-01-08 15:38:24.74	19.85	7.58	-37.8	-38.7	22.8	0.00e+00	0	31	0	115343360	48	6237
2026-01-08 15:38:25.75	19.81	7.66	-37.8	-38.8	22.7	0.00e+00	0	31	0	117440512	48	6255
2026-01-08 15:38:26.76	19.78	7.74	-37.7	-38.6	22.8	0.00e+00	0	31	0	119537664	48	6171
2026-01-08 15:38:27.77	19.74	7.82	-37.5	-38.5	23.0	0.00e+00	92	31	0	120586240	48	6069
2026-01-08 15:38:28.78	19.70	7.89	-37.7	-38.6	22.9	0.00e+00	0	32	0	122683392	48	6158
2026-01-08 15:38:29.79	19.67	7.97	-37.6	-38.6	22.9	0.00e+00	92	32	0	124780544	48	6139
2026-01-08 15:38:30.80	19.63	8.05	-37.6	-38.6	23.0	0.00e+00	15	31	0	126877696	48	6115
2026-01-08 15:38:31.81	19.59	8.13	-37.7	-38.7	22.8	0.00e+00	67	32	0	128974848	48	6203
2026-01-08 15:38:32.82	19.55	8.21	-37.6	-38.5	23.0	0.00e+00	15	31	0	130023424	48	6089
2026-01-08 15:38:33.83	19.52	8.29	-37.6	-38.5	23.0	0.00e+00	17	32	0	132120576	48	6090
2026-01-08 15:38:34.84	19.48	8.37	-37.6	-38.5	23.1	0.00e+00	92	32	0	134217728	48	6074
2026-01-08 15:38:35.85	19.44	8.45	-37.4	-38.3	23.2	0.00e+00	14	32	0	136314880	48	5929
2026-01-08 15:38:36.85	19.40	8.53	-37.4	-38.3	23.2	0.00e+00	92	31	0	138412032	48	5953
2026-01-08 15:38:37.86	19.36	8.61	-37.5	-38.4	23.1	0.00e+00	0	31	0	139460608	48	6018
2026-01-08 15:38:38.88	19.32	8.69	-37.4	-38.3	23.2	0.00e+00	0	32	0	141557760	48	5959
2026-01-08 15:38:39.88	19.29	8.77	-37.4	-38.3	23.2	0.00e+00	0	31	0	143654912	48	5952
2026-01-08 15:38:40.89	19.25	8.85	-37.5	-38.4	23.2	0.00e+00	0	31	0	145752064	48	5996
2026-01-08 15:38:41.90	19.21	8.93	-37.4	-38.3	23.2	0.00e+00	0	31	0	147849216	48	5951
2026-01-08 15:38:42.91	19.17	9.01	-37.4	-38.3	23.2	0.00e+00	0	31	0	148897792	48	5930
2026-01-08 15:38:43.92	19.13	9.10	-37.4	-38.3	23.3	0.00e+00	92	31	0	150994944	48	5925
2026-01-08 15:38:44.93	19.09	9.18	-37.3	-38.2	23.3	0.00e+00	0	32	0	153092096	48	5871
2026-01-08 15:38:45.94	19.05	9.26	-37.2	-38.2	23.4	0.00e+00	68	31	0	155189248	48	5836
2026-01-08 15:38:46.96	19.00	9.34	-37.3	-38.2	23.3	0.00e+00	61	31	0	157286400	48	5858
2026-01-08 15:38:47.97	18.96	9.43	-37.2	-38.1	23.4	0.00e+00	0	31	0	158334976	48	5811
2026-01-08 15:38:48.98	18.92	9.51	-37.2	-38.1	23.5	0.00e+00	0	31	0	160432128	48	5802
2026-01-08 15:38:49.99	18.88	9.59	-37.2	-38.1	23.5	0.00e+00	14	32	0	162529280	48	5797
2026-01-08 15:38:50.99	18.84	9.68	-37.2	-38.2	23.3	0.00e+00	91	31	0	164626432	48	5830
2026-01-08 15:38:52.01	18.80	9.76	-37.3	-38.2	23.4	0.00e+00	67	32	0	166723584	48	5862
2026-01-08 15:38:53.01	18.75	9.85	-37.3	-38.3	23.3	0.00e+00	92	31	0	167772160	48	5897
2026-01-08 15:38:54.03	18.71	9.93	-37.3	-38.2	23.4	0.00e+00	22	31	0	169869312	48	5895
2026-01-08 15:38:55.04	18.67	10.02	-37.2	-38.1	23.5	0.00e+00	2	31	0	171966464	48	5813
2026-01-08 15:38:56.04	18.62	10.10	-37.3	-38.3	23.3	0.00e+00	18	31	0	174063616	48	5899
2026-01-08 15:38:57.05	18.58	10.19	-37.2	-38.1	23.5	0.00e+00	2	31	0	176160768	48	5771
2026-01-08 15:38:58.06	18.54	10.27	-37.2	-38.2	23.5	0.00e+00	92	31	0	177209344	48	5835
2026-01-08 15:38:59.07	18.49	10.36	-37.1	-38.0	23.5	0.00e+00	0	31	0	179306496	48	5740
2026-01-08 15:39:00.08	18.45	10.44	-37.2	-38.1	23.5	0.00e+00	92	31	0	181403648	48	5791
2026-01-08 15:39:01.09	18.40	10.53	-37.2	-38.1	23.5	0.00e+00	0	31	0	183500800	48	5764
2026-01-08 15:39:02.10	18.36	10.62	-37.2	-38.1	23.5	0.00e+00	0	31	0	185597952	48	5779
2026-01-08 15:39:03.11	18.31	10.70	-37.2	-38.1	23.5	0.00e+00	0	31	0	187695104	48	5811
2026-01-08 15:39:04.12	18.27	10.79	-37.1	-38.0	23.6	0.00e+00	0	31	0	188743680	48	5751
2026-01-08 15:39:05.13	18.22	10.88	-37.2	-38.1	23.6	0.00e+00	0	32	0	190840832	48	5763
2026-01-08 15:39:06.14	18.18	10.97	-37.2	-38.1	23.6	0.00e+00	0	32	0	192937984	48	5802
2026-01-08 15:39:07.15	18.13	11.05	-37.2	-38.1	23.5	0.00e+00	92	31	0	195035136	48	5803
2026-01-08 15:39:08.15	18.08	11.14	-37.1	-38.0	23.7	0.00e+00	69	31	0	197132288	48	5700
2026-01-08 15:39:09.16	18.04	11.23	-37.1	-38.0	23.6	0.00e+00	92	31	0	198180864	48	5757
2026-01-08 15:39:10.17	17.99	11.32	-37.3	-38.2	23.5	0.00e+00	68	31	0	200278016	48	5860
2026-01-08 15:39:11.18	17.94	11.41	-37.2	-38.1	23.5	0.00e+00	0	32	0	202375168	48	5822
2026-01-08 15:39:12.19	17.89	11.50	-37.0	-37.9	23.7	0.00e+00	0	31	0	204472320	48	5658
2026-01-08 15:39:13.20	17.84	11.59	-37.1	-38.0	23.7	0.00e+00	14	31	0	206569472	48	5743
2026-01-08 15:39:14.21	17.80	11.68	-37.0	-37.9	23.8	0.00e+00	92	31	0	207618048	48	5631
2026-01-08 15:39:15.22	17.75	11.77	-37.0	-37.9	23.7	0.00e+00	0	32	0	209715200	48	5662
2026-01-08 15:39:16.23	17.70	11.86	-37.0	-37.9	23.7	0.00e+00	91	31	0	211812352	48	5670
2026-01-08 15:39:17.24	17.65	11.95	-37.1	-37.9	23.7	0.00e+00	0	32	0	213909504	48	5691
2026-01-08 15:39:18.25	17.60	12.04	-37.0	-37.9	23.7	0.00e+00	0	31	0	216006656	48	5668
2026-01-08 15:39:19.26	17.55	12.14	-37.0	-37.9	23.8	0.00e+00	19	31	0	217055232	48	5643
2026-01-08 15:39:20.27	17.50	12.23	-37.1	-38.0	23.7	0.00e+00	23	32	0	219152384	48	5751
2026-01-08 15:39:21.28	17.45	12.32	-37.1	-38.0	23.7	0.00e+00	92	32	0	221249536	48	5734
2026-01-08 15:39:22.29	17.39	12.41	-37.2	-38.1	23.6	0.00e+00	0	32	0	223346688	48	5827
2026-01-08 15:39:23.30	17.34	12.51	-36.8	-37.7	23.9	0.00e+00	91	32	0	225443840	48	5516
2026-01-08 15:39:24.30	17.29	12.60	-36.9	-37.8	23.9	0.00e+00	0	32	0	226492416	48	5571
2026-01-08 15:39:25.31	17.24	12.69	-36.9	-37.8	23.9	0.00e+00	0	32	0	228589568	48	5567
2026-01-08 15:39:26.32	17.19	12.79	-36.8	-37.7	24.0	0.00e+00	0	32	0	230686720	46	6220
2026-01-08 15:39:27.33	17.13	12.88	-36.9	-37.8	23.9	0.00e+00	0	32	0	232783872	46	6281
2026-01-08 15:39:28.34	17.08	12.98	-37.0	-37.9	23.9	0.00e+00	63	31	0	234881024	46	6326
2026-01-08 15:39:29.35	17.02	13.07	-36.9	-37.8	23.8	0.00e+00	0	32	0	235929600	46	6268
2026-01-08 15:39:30.36	16.97	13.17	-37.1	-38.0	23.7	0.00e+00	92	32	0	238026752	46	6415
2026-01-08 15:39:31.37	16.92	13.26	-36.8	-37.7	24.0	0.00e+00	0	32	0	240123904	46	6193
2026-01-08 15:39:32.38	16.86	13.36	-36.8	-37.7	24.0	0.00e+00	92	32	0	242221056	46	6196
2026-01-08 15:39:33.39	16.81	13.46	-36.9	-37.8	23.9	0.00e+00	19	32	0	244318208	46	6276
2026-01-08 15:39:34.40	16.75	13.55	-36.9	-37.8	24.0	0.00e+00	20	32	0	245366784	46	6292
2026-01-08 15:39:35.40	16.69	13.65	-36.8	-37.7	24.1	0.00e+00	48	32	0	247463936	46	6192
2026-01-08 15:39:36.41	16.64	13.75	-36.9	-37.7	24.0	0.00e+00	62	32	0	249561088	46	6218
2026-01-08 15:39:37.42	16.58	13.85	-36.8	-37.7	23.9	0.00e+00	92	32	0	251658240	46	6203
2026-01-08 15:39:38.43	16.52	13.94	-36.8	-37.7	24.0	0.00e+00	0	32	0	253755392	46	6192
2026-01-08 15:39:39.44	16.47	14.04	-36.8	-37.6	24.1	0.00e+00	6	32	0	255852544	46	6160
2026-01-08 15:39:40.45	16.41	14.14	-36.8	-37.7	24.1	0.00e+00	5	32	0	256901120	46	6177
2026-01-08 15:39:41.46	16.35	14.24	-36.8	-37.6	24.1	0.00e+00	14	32	0	258998272	46	6172
2026-01-08 15:39:42.47	16.29	14.34	-36.7	-37.6	24.2	0.00e+00	20	32	0	261095424	46	6117
2026-01-08 15:39:43.48	16.23	14.44	-36.8	-37.6	24.1	0.00e+00	20	32	0	263192576	46	6153
2026-01-08 15:39:44.49	16.17	14.54	-36.8	-37.6	24.1	0.00e+00	92	32	0	265289728	46	6166
2026-01-08 15:39:45.50	16.11	14.64	-36.8	-37.6	24.1	0.00e+00	0	32	0	266338304	46	6153
2026-01-08 15:39:46.51	16.05	14.75	-36.8	-37.7	24.1	0.00e+00	92	32	0	268435456	46	6204
2026-01-08 15:39:47.52	15.99	14.85	-36.8	-37.7	24.1	0.00e+00	0	32	0	270532608	46	6210
2026-01-08 15:39:48.53	15.93	14.95	-36.7	-37.5	24.2	0.00e+00	0	32	0	272629760	46	6092
2026-01-08 15:39:49.54	15.86	15.05	-36.7	-37.6	24.1	0.00e+00	68	32	0	274726912	46	6123
2026-01-08 15:39:50.55	15.80	15.16	-36.8	-37.7	24.1	0.00e+00	61	32	0	275775488	46	6191
2026-01-08 15:39:51.55	15.74	15.26	-36.8	-37.6	24.1	0.00e+00	5	32	0	277872640	46	6151
2026-01-08 15:39:52.57	15.67	15.36	-36.8	-37.6	24.1	0.00e+00	62	32	0	279969792	46	6172
2026-01-08 15:39:53.58	15.61	15.47	-36.8	-37.7	24.1	0.00e+00	92	32	0	282066944	46	6192
2026-01-08 15:39:54.59	15.55	15.57	-36.9	-37.8	24.1	0.00e+00	18	32	0	284164096	46	6247
2026-01-08 15:39:55.60	15.48	15.68	-37.0	-37.9	23.9	0.00e+00	66	32	0	285212672	46	6336
2026-01-08 15:39:56.60	15.42	15.78	-36.9	-37.8	24.0	0.00e+00	66	32	0	287309824	46	6287
2026-01-08 15:39:57.62	15.35	15.89	-37.0	-37.8	24.0	0.00e+00	69	32	0	289406976	46	6303
2026-01-08 15:39:58.63	15.28	15.99	-36.8	-37.6	24.1	0.00e+00	30	32	0	291504128	46	6139
2026-01-08 15:39:59.63	15.22	16.10	-36.9	-37.8	24.1	0.00e+00	25	32	0	293601280	46	6260
2026-01-08 15:40:00.64	15.15	16.21	-36.6	-37.5	24.2	0.00e+00	92	31	0	294649856	46	6044
2026-01-08 15:40:01.65	15.08	16.32	-36.8	-37.6	24.2	0.00e+00	7	32	0	296747008	46	6158
2026-01-08 15:40:02.66	15.01	16.42	-36.7	-37.6	24.1	0.00e+00	91	32	0	298844160	46	6118
2026-01-08 15:40:03.67	14.94	16.53	-36.8	-37.7	24.0	0.00e+00	6	32	0	300941312	46	6210
2026-01-08 15:40:04.68	14.87	16.64	-36.8	-37.6	24.1	0.00e+00	17	32	0	303038464	46	6158
2026-01-08 15:40:05.69	14.80	16.75	-36.8	-37.6	24.1	0.00e+00	5	32	0	304087040	46	6134
2026-01-08 15:40:06.69	14.73	16.86	-36.7	-37.5	24.2	0.00e+00	0	32	0	306184192	46	6077
2026-01-08 15:40:07.71	14.66	16.97	-36.7	-37.5	24.3	0.00e+00	92	32	0	308281344	46	6064
2026-01-08 15:40:08.72	14.59	17.08	-36.6	-37.5	24.3	0.00e+00	0	32	0	310378496	46	6037
2026-01-08 15:40:09.73	14.52	17.19	-36.6	-37.4	24.3	0.00e+00	92	32	0	312475648	46	6025
2026-01-08 15:40:10.73	14.45	17.30	-36.7	-37.6	24.3	0.00e+00	0	32	0	313524224	46	6112
2026-01-08 15:40:11.74	14.37	17.41	-36.7	-37.6	24.3	0.00e+00	70	32	0	315621376	46	6105
2026-01-08 15:40:12.75	14.30	17.53	-36.6	-37.4	24.3	0.00e+00	0	32	0	317718528	46	6012
2026-01-08 15:40:13.76	14.22	17.64	-36.6	-37.5	24.3	0.00e+00	70	32	0	319815680	46	6056
2026-01-08 15:40:14.77	14.15	17.75	-36.6	-37.5	24.4	0.00e+00	0	32	0	321912832	46	6045
2026-01-08 15:40:15.78	14.07	17.87	-36.6	-37.5	24.3	0.00e+00	0	32	0	322961408	46	6054
2026-01-08 15:40:16.79	14.00	17.98	-36.6	-37.5	24.3	0.00e+00	92	32	0	325058560	46	6040
2026-01-08 15:40:17.80	13.92	18.10	-36.6	-37.5	24.3	0.00e+00	69	32	0	327155712	46	6044
2026-01-08 15:40:18.81	13.84	18.21	-36.7	-37.5	24.4	0.00e+00	12	32	0	329252864	46	6079
2026-01-08 15:40:19.82	13.76	18.33	-36.6	-37.4	24.4	0.00e+00	71	32	0	331350016	46	6030
2026-01-08 15:40:20.83	13.69	18.44	-36.6	-37.4	24.4	0.00e+00	12	32	0	332398592	46	6023
2026-01-08 15:40:21.83	13.61	18.56	-36.5	-37.4	24.5	0.00e+00	11	32	0	334495744	46	5977
2026-01-08 15:40:22.84	13.53	18.68	-36.6	-37.5	24.3	0.00e+00	19	32	0	336592896	46	6058
2026-01-08 15:40:23.85	13.45	18.80	-36.7	-37.5	24.1	0.00e+00	90	32	0	338690048	46	6084
2026-01-08 15:40:24.86	13.37	18.91	-36.8	-37.7	24.2	0.00e+00	0	32	0	340787200	46	6216
2026-01-08 15:40:25.87	13.28	19.03	-36.6	-37.4	24.3	0.00e+00	92	32	0	341835776	46	6032
2026-01-08 15:40:26.88	13.20	19.15	-36.8	-37.7	24.3	0.00e+00	12	32	0	343932928	46	6174
2026-01-08 15:40:27.89	13.12	19.27	-36.5	-37.3	24.5	0.00e+00	0	32	0	346030080	46	5937
2026-01-08 15:40:28.89	13.03	19.39	-36.5	-37.3	24.5	0.00e+00	0	32	0	348127232	46	5927
2026-01-08 15:40:29.90	12.95	19.51	-36.6	-37.4	24.5	0.00e+00	0	32	0	350224384	46	5983
2026-01-08 15:40:30.91	12.86	19.63	-36.6	-37.4	24.4	0.00e+00	0	32	0	352321536	46	6000
2026-01-08 15:40:31.92	12.78	19.76	-36.6	-37.5	24.4	0.00e+00	0	32	0	353370112	46	6048
2026-01-08 15:40:32.93	12.69	19.88	-36.7	-37.6	24.3	0.00e+00	92	32	0	355467264	46	6115
2026-01-08 15:40:33.94	12.60	20.00	-36.6	-37.4	24.4	0.00e+00	70	32	0	357564416	46	6005
2026-01-08 15:40:34.95	12.51	20.12	-36.6	-37.4	24.3	0.00e+00	24	32	0	359661568	46	6013
2026-01-08 15:40:35.96	12.43	20.25	-36.7	-37.5	24.3	0.00e+00	0	32	0	361758720	46	6079
2026-01-08 15:40:36.96	12.34	20.37	-36.6	-37.5	24.4	0.00e+00	69	32	0	362807296	46	6034
2026-01-08 15:40:37.97	12.25	20.50	-36.7	-37.5	24.3	0.00e+00	0	32	0	364904448	46	6082
2026-01-08 15:40:38.98	12.15	20.62	-36.7	-37.5	24.3	0.00e+00	66	32	0	367001600	46	6078
2026-01-08 15:40:39.99	12.06	20.75	-36.8	-37.6	24.3	0.00e+00	90	32	0	369098752	46	6152
2026-01-08 15:40:41.00	11.97	20.88	-36.8	-37.6	24.2	0.00e+00	17	32	0	371195904	46	6165
2026-01-08 15:40:42.01	11.88	21.00	-36.7	-37.6	24.3	0.00e+00	92	31	0	372244480	46	6115
2026-01-08 15:40:43.02	11.78	21.13	-36.8	-37.6	23.9	0.00e+00	3	32	0	374341632	46	6154
2026-01-08 15:40:44.03	11.69	21.26	-36.8	-37.6	24.1	0.00e+00	11	32	0	376438784	46	6168
2026-01-08 15:40:45.04	11.59	21.39	-36.8	-37.6	24.2	0.00e+00	12	32	0	378535936	46	6165
2026-01-08 15:40:46.05	11.49	21.52	-36.8	-37.7	24.2	0.00e+00	15	32	0	380633088	46	6191
2026-01-08 15:40:47.06	11.39	21.65	-37.0	-37.9	24.1	0.00e+00	92	32	0	381681664	46	6320
2026-01-08 15:40:48.07	11.30	21.78	-36.9	-37.8	24.2	0.00e+00	17	32	0	383778816	46	6274
2026-01-08 15:40:49.08	11.20	21.91	-37.0	-37.9	24.1	0.00e+00	92	32	0	385875968	46	6324
2026-01-08 15:40:50.08	11.10	22.04	-37.1	-37.9	24.0	0.00e+00	11	32	0	387973120	46	6379
2026-01-08 15:40:51.09	10.99	22.17	-37.0	-37.9	24.1	0.00e+00	0	32	0	390070272	46	6342
2026-01-08 15:40:52.10	10.89	22.31	-37.2	-38.1	24.0	0.00e+00	2	32	0	391118848	46	6516
2026-01-08 15:40:53.11	10.79	22.44	-37.1	-38.0	24.0	0.00e+00	0	32	0	393216000	46	6420
2026-01-08 15:40:54.12	10.68	22.58	-37.2	-38.1	23.8	0.00e+00	41	32	0	395313152	46	6500
2026-01-08 15:40:55.13	10.58	22.71	-37.2	-38.1	23.9	0.00e+00	2	32	0	397410304	46	6482
2026-01-08 15:40:56.14	10.47	22.85	-37.3	-38.2	23.8	0.00e+00	92	32	0	399507456	46	6594
2026-01-08 15:40:57.15	10.37	22.98	-37.2	-38.1	23.9	0.00e+00	0	32	0	400556032	46	6512
2026-01-08 15:40:58.16	10.26	23.12	-37.4	-38.3	23.7	0.00e+00	40	32	0	402653184	46	6652
2026-01-08 15:40:59.17	10.15	23.26	-37.5	-38.5	23.6	0.00e+00	0	32	0	404750336	46	6771
2026-01-08 15:41:00.18	10.04	23.39	-37.6	-38.5	23.6	0.00e+00	71	32	0	406847488	46	6828
2026-01-08 15:41:01.19	9.93	23.53	-37.6	-38.5	23.6	0.00e+00	0	32	0	408944640	46	6819
2026-01-08 15:41:02.20	9.82	23.67	-37.7	-38.6	23.4	0.00e+00	11	32	0	409993216	48	6153
2026-01-08 15:41:03.21	9.70	23.81	-37.9	-38.8	23.2	0.00e+00	92	32	0	412090368	48	6305
2026-01-08 15:41:04.22	9.59	23.95	-38.1	-39.1	23.1	0.00e+00	66	32	0	414187520	48	6476
2026-01-08 15:41:05.22	9.48	24.09	-38.2	-39.2	22.9	0.00e+00	92	32	0	416284672	48	6570
2026-01-08 15:41:06.23	9.36	24.23	-38.2	-39.2	22.9	0.00e+00	0	32	0	418381824	48	6587
2026-01-08 15:41:07.24	9.24	24.38	-38.4	-39.4	22.8	0.00e+00	0	32	0	420478976	48	6738
2026-01-08 15:41:08.25	9.12	24.52	-38.5	-39.5	22.6	0.00e+00	2	32	0	421527552	48	6838
2026-01-08 15:41:09.26	9.00	24.66	-38.7	-39.7	22.3	0.00e+00	10	32	0	423624704	50	6224
2026-01-08 15:41:10.26	8.89	24.81	-38.8	-39.8	22.4	0.00e+00	92	32	0	425721856	50	6266
2026-01-08 15:41:11.27	8.76	24.95	-38.5	-39.5	22.6	0.00e+00	0	32	0	427819008	50	6049
2026-01-08 15:41:12.28	8.64	25.10	-38.6	-39.6	22.6	0.00e+00	92	32	0	428867584	50	6139
2026-01-08 15:41:13.29	8.52	25.24	-38.6	-39.6	22.6	0.00e+00	2	32	0	430964736	50	6121
2026-01-08 15:41:14.30	8.39	25.39	-38.7	-39.7	22.5	0.00e+00	0	32	0	433061888	50	6220
2026-01-08 15:41:15.31	8.26	25.54	-38.7	-39.7	22.6	0.00e+00	0	32	0	435159040	50	6211
2026-01-08 15:41:16.32	8.14	25.69	-38.6	-39.6	22.7	0.00e+00	2	32	0	437256192	50	6167
2026-01-08 15:41:17.33	8.01	25.84	-38.7	-39.7	22.6	0.00e+00	0	32	0	438304768	50	6235
2026-01-08 15:41:18.33	7.88	25.98	-38.8	-39.8	22.5	0.00e+00	0	32	0	440401920	50	6265
2026-01-08 15:41:19.35	7.75	26.14	-38.7	-39.7	22.5	0.00e+00	92	32	0	442499072	50	6219
2026-01-08 15:41:20.36	7.61	26.29	-39.0	-40.0	22.2	0.00e+00	64	32	0	444596224	50	6431
2026-01-08 15:41:21.37	7.48	26.44	-38.9	-39.9	22.3	0.00e+00	92	32	0	446693376	50	6368
2026-01-08 15:41:22.38	7.34	26.59	-38.9	-39.9	22.3	0.00e+00	0	32	0	448790528	50	6385
2026-01-08 15:41:23.38	7.21	26.74	-39.1	-40.2	22.2	0.00e+00	0	32	0	449839104	50	6548
2026-01-08 15:41:24.39	7.07	26.90	-39.2	-40.3	22.1	0.00e+00	70	32	0	451936256	50	6620
2026-01-08 15:41:25.40	6.93	27.05	-39.2	-40.2	22.1	0.00e+00	70	32	0	454033408	50	6595
2026-01-08 15:41:26.41	6.79	27.20	-39.5	-40.5	21.7	0.00e+00	91	32	0	456130560	50	6840
2026-01-08 15:41:27.42	6.65	27.36	-39.5	-40.6	21.7	0.00e+00	70	32	0	458227712	50	6872
2026-01-08 15:41:28.43	6.50	27.52	-39.5	-40.6	21.6	0.00e+00	92	32	0	459276288	50	6913
2026-01-08 15:41:29.44	6.36	27.67	-39.4	-40.5	21.8	0.00e+00	12	32	0	461373440	50	6787
2026-01-08 15:41:30.45	6.21	27.83	-39.4	-40.4	21.8	0.00e+00	6	32	0	463470592	50	6756
2026-01-08 15:41:31.46	6.06	27.99	-39.5	-40.6	21.5	0.00e+00	5	32	0	465567744	50	6883
2026-01-08 15:41:32.47	5.91	28.15	-39.5	-40.6	21.7	0.00e+00	11	32	0	467664896	50	6915
2026-01-08 15:41:33.48	5.76	28.31	-39.4	-40.5	21.8	0.00e+00	56	32	0	468713472	50	6809
2026-01-08 15:41:34.49	5.61	28.47	-39.4	-40.5	21.8	0.00e+00	5	32	0	470810624	50	6788
2026-01-08 15:41:35.50	5.46	28.63	-39.3	-40.4	21.9	0.00e+00	92	32	0	472907776	50	6710
2026-01-08 15:41:36.51	5.30	28.79	-39.4	-40.5	21.8	0.00e+00	5	32	0	475004928	50	6784
2026-01-08 15:41:37.51	5.14	28.95	-39.3	-40.3	22.0	0.00e+00	92	32	0	477102080	50	6686
2026-01-08 15:41:38.52	4.99	29.12	-39.2	-40.3	22.1	0.00e+00	0	32	0	478150656	50	6642
2026-01-08 15:41:39.53	4.82	29.28	-38.9	-39.9	22.4	0.00e+00	0	32	0	480247808	50	6343
2026-01-08 15:41:40.54	4.66	29.45	-38.8	-39.9	22.4	0.00e+00	7	32	0	482344960	50	6324
2026-01-08 15:41:41.55	4.50	29.61	-38.9	-39.9	22.4	0.00e+00	0	32	0	484442112	50	6374
2026-01-08 15:41:42.56	4.33	29.78	-39.1	-40.1	22.2	0.00e+00	92	32	0	486539264	50	6536
2026-01-08 15:41:43.57	4.16	29.95	-38.9	-39.9	22.4	0.00e+00	70	32	0	487587840	50	6331
2026-01-08 15:41:44.58	3.99	30.11	-38.8	-39.8	22.4	0.00e+00	91	32	0	489684992	50	6297
2026-01-08 15:41:45.59	3.82	30.28	-38.7	-39.7	22.6	0.00e+00	4	32	0	491782144	50	6199
2026-01-08 15:41:46.59	3.65	30.45	-38.7	-39.7	22.6	0.00e+00	71	32	0	493879296	50	6185
2026-01-08 15:41:47.60	3.48	30.62	-38.9	-39.9	22.3	0.00e+00	52	32	0	495976448	50	6334
2026-01-08 15:41:48.61	3.30	30.79	-39.1	-40.1	22.0	0.00e+00	71	32	0	497025024	50	6496
2026-01-08 15:41:49.62	3.12	30.96	-39.1	-40.1	22.2	0.00e+00	92	32	0	499122176	50	6503
2026-01-08 15:41:50.63	2.94	31.13	-39.2	-40.2	22.1	0.00e+00	70	32	0	501219328	50	6596
2026-01-08 15:41:51.64	2.76	31.30	-39.3	-40.4	22.0	0.00e+00	92	32	0	503316480	50	6702
2026-01-08 15:41:52.65	2.57	31.48	-39.3	-40.4	22.0	0.00e+00	15	32	0	505413632	50	6698
2026-01-08 15:41:53.66	2.39	31.65	-39.4	-40.4	21.9	0.00e+00	0	32	0	506462208	50	6768
2026-01-08 15:41:54.67	2.20	31.82	-39.4	-40.4	21.9	0.00e+00	5	32	0	508559360	50	6760
2026-01-08 15:41:55.68	2.01	32.00	-39.5	-40.5	21.8	0.00e+00	7	32	0	510656512	50	6843
2026-01-08 15:41:56.69	1.81	32.18	-39.6	-40.7	21.6	0.00e+00	92	32	0	512753664	50	6974
2026-01-08 15:41:57.69	1.62	32.35	-39.7	-40.9	21.5	0.00e+00	0	32	0	514850816	50	7100
2026-01-08 15:41:58.70	1.42	32.53	-39.7	-40.8	21.6	0.00e+00	92	32	0	516947968	52	6286
2026-01-08 15:41:59.71	1.22	32.71	-39.7	-40.9	21.5	0.00e+00	0	32	0	517996544	52	6343
2026-01-08 15:42:00.72	1.02	32.88	-39.9	-41.0	21.4	0.00e+00	91	32	0	520093696	52	6436
2026-01-08 15:42:01.73	0.82	33.06	-39.9	-41.0	21.4	0.00e+00	0	32	0	522190848	52	6451
2026-01-08 15:42:02.74	0.61	33.24	-39.9	-41.1	21.0	0.00e+00	0	32	0	524288000	52	6471
2026-01-08 15:42:03.75	0.40	33.42	-40.0	-41.1	20.6	0.00e+00	0	32	0	526385152	52	6519
2026-01-08 15:42:04.76	0.19	33.60	-40.1	-41.3	21.0	0.00e+00	72	32	0	527433728	52	6634
2026-01-08 15:42:05.77	359.98	33.79	-40.2	-41.4	21.0	0.00e+00	91	32	0	529530880	52	6698
2026-01-08 15:42:06.78	359.76	33.97	-40.2	-41.4	21.1	0.00e+00	0	32	0	531628032	52	6707
2026-01-08 15:42:07.79	359.55	34.15	-40.1	-41.3	21.2	0.00e+00	92	32	0	533725184	52	6620
2026-01-08 15:42:08.79	359.33	34.33	-39.9	-41.0	21.4	0.00e+00	13	32	0	535822336	52	6453
2026-01-08 15:42:09.80	359.10	34.52	-39.9	-41.0	21.3	0.00e+00	67	32	0	536870912	52	6445
2026-01-08 15:42:10.81	358.88	34.70	-40.0	-41.2	21.2	0.00e+00	15	32	0	538968064	52	6569
2026-01-08 15:42:11.82	358.65	34.89	-40.2	-41.4	21.0	0.00e+00	61	32	0	541065216	52	6732
2026-01-08 15:42:12.82	358.42	35.07	-40.0	-41.2	21.2	0.00e+00	92	32	0	543162368	52	6551
2026-01-08 15:42:13.83	358.19	35.26	-40.2	-41.4	21.0	0.00e+00	68	32	0	545259520	52	6714
2026-01-08 15:42:14.84	357.95	35.44	-40.1	-41.3	21.1	0.00e+00	92	32	0	546308096	52	6623
2026-01-08 15:42:15.85	357.71	35.63	-39.7	-40.9	21.6	0.00e+00	14	32	0	548405248	52	6325
2026-01-08 15:42:16.86	357.47	35.82	-39.6	-40.7	21.7	0.00e+00	0	32	0	550502400	52	6215
2026-01-08 15:42:17.87	357.22	36.01	-39.6	-40.8	21.7	0.00e+00	9	32	0	552599552	52	6251
2026-01-08 15:42:18.87	356.98	36.19	-39.4	-40.5	21.8	0.00e+00	9	32	0	554696704	52	6060
2026-01-08 15:42:19.88	356.73	36.38	-39.3	-40.4	21.9	0.00e+00	71	32	0	555745280	52	6003
2026-01-08 15:42:20.89	356.47	36.57	-39.1	-40.1	22.2	0.00e+00	0	32	0	557842432	52	5815
2026-01-08 15:42:21.90	356.22	36.76	-38.8	-39.8	22.5	0.00e+00	91	32	0	559939584	52	5619
2026-01-08 15:42:22.91	355.96	36.95	-38.9	-39.9	22.4	0.00e+00	2	32	0	562036736	52	5648
2026-01-08 15:42:23.92	355.70	37.14	-39.0	-40.0	22.3	0.00e+00	55	32	0	564133888	52	5727
2026-01-08 15:42:24.93	355.43	37.34	-39.0	-40.0	22.2	0.00e+00	0	32	0	565182464	52	5753
2026-01-08 15:42:25.94	355.16	37.53	-39.3	-40.4	21.9	0.00e+00	73	32	0	567279616	52	6015
2026-01-08 15:42:26.95	354.89	37.72	-39.6	-40.7	21.8	0.00e+00	0	32	0	569376768	52	6218
2026-01-08 15:42:27.96	354.61	37.91	-39.5	-40.6	21.8	0.00e+00	0	32	0	571473920	52	6110
2026-01-08 15:42:28.97	354.33	38.11	-39.3	-40.4	21.9	0.00e+00	92	32	0	573571072	52	6000
2026-01-08 15:42:29.98	354.05	38.30	-39.4	-40.5	21.7	0.00e+00	74	31	0	574619648	52	6100
2026-01-08 15:42:30.99	353.77	38.49	-39.5	-40.6	21.7	0.00e+00	92	32	0	576716800	52	6159
2026-01-08 15:42:32.00	353.48	38.69	-39.4	-40.5	21.8	0.00e+00	9	32	0	578813952	52	6087
2026-01-08 15:42:33.00	353.19	38.88	-39.5	-40.6	21.8	0.00e+00	9	32	0	580911104	52	6120
2026-01-08 15:42:34.01	352.89	39.07	-39.3	-40.4	22.0	0.00e+00	8	32	0	583008256	52	5999
2026-01-08 15:42:35.02	352.59	39.27	-39.3	-40.4	22.0	0.00e+00	4	32	0	584056832	52	5972
2026-01-08 15:42:36.03	352.29	39.46	-39.4	-40.5	21.9	0.00e+00	92	32	0	586153984	52	6067
2026-01-08 15:42:37.04	351.98	39.66	-39.6	-40.7	21.7	0.00e+00	0	32	0	588251136	52	6185
2026-01-08 15:42:38.05	351.67	39.85	-39.5	-40.6	21.7	0.00e+00	92	32	0	590348288	52	6163
2026-01-08 15:42:39.06	351.35	40.05	-39.5	-40.6	21.8	0.00e+00	0	32	0	592445440	52	6144
2026-01-08 15:42:40.07	351.03	40.24	-39.6	-40.7	21.8	0.00e+00	72	32	0	593494016	52	6190
2026-01-08 15:42:41.08	350.71	40.44	-39.1	-40.2	22.1	0.00e+00	13	32	0	595591168	52	5853
2026-01-08 15:42:42.09	350.39	40.63	-39.3	-40.4	22.0	0.00e+00	0	32	0	597688320	52	5980
2026-01-08 15:42:43.10	350.05	40.83	-39.3	-40.4	22.0	0.00e+00	0	32	0	599785472	52	5991
2026-01-08 15:42:44.10	349.72	41.02	-39.3	-40.4	22.0	0.00e+00	0	32	0	601882624	52	5985
2026-01-08 15:42:45.11	349.38	41.22	-39.3	-40.4	22.1	0.00e+00	91	32	0	602931200	52	5979
2026-01-08 15:42:46.12	349.04	41.41	-39.1	-40.1	22.2	0.00e+00	0	32	0	605028352	52	5798
2026-01-08 15:42:47.13	348.70	41.61	-39.1	-40.2	22.2	0.00e+00	36	32	0	607125504	52	5852
2026-01-08 15:42:48.14	348.34	41.80	-39.1	-40.2	22.2	0.00e+00	72	32	0	609222656	52	5840
2026-01-08 15:42:49.14	347.99	42.00	-39.3	-40.4	22.0	0.00e+00	73	32	0	611319808	52	5974
2026-01-08 15:42:50.15	347.63	42.19	-39.5	-40.6	21.8	0.00e+00	0	32	0	613416960	52	6145
2026-01-08 15:42:51.16	347.27	42.38	-40.0	-41.2	21.3	0.00e+00	0	32	0	614465536	52	6585
2026-01-08 15:42:52.17	346.90	42.58	-40.2	-41.4	21.1	0.00e+00	92	32	0	616562688	52	6721
2026-01-08 15:42:53.18	346.53	42.77	-40.4	-41.7	20.8	0.00e+00	0	32	0	618659840	52	6960
2026-01-08 15:42:54.18	346.15	42.96	-40.5	-41.7	20.8	0.00e+00	90	32	0	620756992	52	7006
2026-01-08 15:42:55.19	345.77	43.16	-40.5	-41.8	20.6	0.00e+00	8	32	0	622854144	52	7019
2026-01-08 15:42:56.20	345.38	43.35	-40.3	-41.5	21.0	0.00e+00	75	32	0	623902720	52	6833
2026-01-08 15:42:57.21	344.99	43.54	-39.9	-41.0	21.5	0.00e+00	8	32	0	625999872	52	6453
2026-01-08 15:42:58.22	344.59	43.73	-39.7	-40.8	21.7	0.00e+00	0	32	0	628097024	52	6296
2026-01-08 15:42:59.23	344.19	43.92	-39.5	-40.6	21.9	0.00e+00	74	32	0	630194176	52	6111
2026-01-08 15:43:00.24	343.79	44.11	-39.6	-40.8	21.7	0.00e+00	8	32	0	632291328	52	6262
2026-01-08 15:43:01.25	343.38	44.30	-39.8	-40.9	21.4	0.00e+00	90	32	0	633339904	52	6358
2026-01-08 15:43:02.26	342.96	44.49	-39.8	-41.0	21.4	0.00e+00	0	32	0	635437056	52	6432
2026-01-08 15:43:03.27	342.54	44.68	-40.0	-41.2	20.9	0.00e+00	0	32	0	637534208	52	6575
2026-01-08 15:43:04.28	342.11	44.86	-39.9	-41.0	21.4	0.00e+00	0	32	0	639631360	52	6445
2026-01-08 15:43:05.29	341.68	45.05	-40.0	-41.2	21.2	0.00e+00	0	32	0	641728512	52	6550
2026-01-08 15:43:06.30	341.25	45.23	-40.4	-41.6	20.8	0.00e+00	45	32	0	642777088	52	6917
2026-01-08 15:43:07.30	340.81	45.41	-40.8	-42.2	20.3	0.00e+00	0	32	0	644874240	54	6572
2026-01-08 15:43:08.31	340.36	45.60	-40.7	-42.0	20.4	0.00e+00	92	32	0	646971392	54	6442
2026-01-08 15:43:09.32	339.91	45.78	-40.1	-41.4	21.1	0.00e+00	0	32	0	649068544	54	5968
2026-01-08 15:43:10.33	339.45	45.96	-39.7	-40.8	21.6	0.00e+00	92	32	0	651165696	52	6299
2026-01-08 15:43:11.34	338.99	46.14	-39.2	-40.3	22.1	0.00e+00	65	32	0	652214272	52	5909
2026-01-08 15:43:12.35	338.52	46.32	-39.1	-40.2	22.2	0.00e+00	68	32	0	654311424	52	5853
2026-01-08 15:43:13.36	338.05	46.49	-38.8	-39.8	22.6	0.00e+00	0	32	0	656408576	52	5598
2026-01-08 15:43:14.37	337.57	46.67	-38.8	-39.8	22.6	0.00e+00	2	32	0	658505728	52	5582
2026-01-08 15:43:15.38	337.09	46.84	-38.5	-39.5	22.8	0.00e+00	92	32	0	660602880	50	6056
2026-01-08 15:43:16.39	336.60	47.01	-38.7	-39.7	22.6	0.00e+00	15	32	0	661651456	50	6209
2026-01-08 15:43:17.40	336.11	47.18	-38.7	-39.8	22.5	0.00e+00	92	32	0	663748608	50	6246
2026-01-08 15:43:18.40	335.61	47.35	-38.9	-40.0	22.3	0.00e+00	9	32	0	665845760	50	6408
2026-01-08 15:43:19.41	335.11	47.52	-39.1	-40.1	22.3	0.00e+00	9	32	0	667942912	50	6532
2026-01-08 15:43:20.42	334.60	47.68	-39.0	-40.1	22.2	0.00e+00	9	32	0	670040064	50	6498
2026-01-08 15:43:21.43	334.08	47.85	-38.8	-39.8	22.5	0.00e+00	10	32	0	671088640	50	6307
2026-01-08 15:43:22.44	333.56	48.01	-38.5	-39.5	22.8	0.00e+00	60	32	0	673185792	50	6052
2026-01-08 15:43:23.45	333.03	48.17	-38.2	-39.2	23.0	0.00e+00	0	32	0	675282944	50	5863
2026-01-08 15:43:24.46	332.50	48.32	-38.4	-39.4	22.9	0.00e+00	90	32	0	677380096	50	5974
2026-01-08 15:43:25.47	331.96	48.48	-38.3	-39.3	23.0	0.00e+00	5	32	0	679477248	50	5912
2026-01-08 15:43:26.48	331.42	48.63	-38.5	-39.5	22.8	0.00e+00	92	32	0	680525824	50	6052
2026-01-08 15:43:27.49	330.87	48.78	-38.8	-39.8	22.5	0.00e+00	6	32	0	682622976	50	6271
2026-01-08 15:43:28.49	330.32	48.93	-39.2	-40.2	22.1	0.00e+00	0	32	0	684720128	50	6594
2026-01-08 15:43:29.51	329.75	49.08	-39.4	-40.5	21.7	0.00e+00	0	32	0	686817280	50	6808
2026-01-08 15:43:30.52	329.19	49.22	-39.6	-40.7	21.6	0.00e+00	0	32	0	688914432	50	6981
2026-01-08 15:43:31.52	328.63	49.36	-39.7	-40.8	21.6	0.00e+00	92	32	0	689963008	52	6288
2026-01-08 15:43:32.53	328.05	49.50	-39.9	-41.1	21.2	0.00e+00	7	32	0	692060160	52	6482
2026-01-08 15:43:33.54	327.47	49.63	-40.2	-41.4	20.9	0.00e+00	92	32	0	694157312	52	6742
2026-01-08 15:43:34.55	326.88	49.76	-39.9	-41.1	21.4	0.00e+00	72	32	0	696254464	52	6508
2026-01-08 15:43:35.56	326.29	49.89	-39.5	-40.6	21.9	0.00e+00	73	32	0	698351616	52	6131
2026-01-08 15:43:36.57	325.70	50.02	-39.4	-40.4	21.9	0.00e+00	50	32	0	699400192	52	6026
2026-01-08 15:43:37.58	325.10	50.14	-39.4	-40.5	21.7	0.00e+00	5	32	0	701497344	52	6092
2026-01-08 15:43:38.59	324.49	50.26	-39.5	-40.6	21.8	0.00e+00	92	32	0	703594496	52	6117
2026-01-08 15:43:39.60	323.88	50.38	-39.4	-40.5	22.0	0.00e+00	20	32	0	705691648	52	6088
2026-01-08 15:43:40.61	323.27	50.50	-39.6	-40.7	21.8	0.00e+00	92	32	0	707788800	52	6189
2026-01-08 15:43:41.62	322.65	50.61	-39.8	-40.9	21.6	0.00e+00	18	32	0	709885952	52	6365
2026-01-08 15:43:42.63	322.02	50.72	-39.7	-40.9	21.6	0.00e+00	65	32	0	710934528	52	6340
2026-01-08 15:43:43.64	321.39	50.82	-39.8	-40.9	21.5	0.00e+00	5	32	0	713031680	52	6378
2026-01-08 15:43:44.65	320.76	50.92	-39.4	-40.5	21.9	0.00e+00	18	32	0	715128832	52	6094
2026-01-08 15:43:45.66	320.12	51.02	-39.3	-40.4	22.0	0.00e+00	53	32	0	717225984	52	6012
2026-01-08 15:43:46.67	319.48	51.11	-38.6	-39.7	22.6	0.00e+00	6	32	0	719323136	52	5537
2026-01-08 15:43:47.68	318.83	51.20	-38.4	-39.5	22.8	0.00e+00	92	32	0	720371712	50	6055
2026-01-08 15:43:48.68	318.19	51.29	-38.2	-39.2	23.0	0.00e+00	0	32	0	722468864	50	5881
2026-01-08 15:43:49.69	317.54	51.37	-38.2	-39.2	23.2	0.00e+00	91	32	0	724566016	50	5845
2026-01-08 15:43:50.70	316.88	51.45	-37.8	-38.7	23.4	0.00e+00	0	32	0	726663168	50	5566
2026-01-08 15:43:51.71	316.22	51.53	-37.1	-38.0	24.1	0.00e+00	0	32	0	728760320	48	5715
2026-01-08 15:43:52.72	315.56	51.60	-36.6	-37.4	24.7	0.00e+00	6	32	0	729808896	46	5997
2026-01-08 15:43:53.73	314.89	51.66	-35.8	-36.6	25.2	0.00e+00	0	32	0	731906048	46	5483
2026-01-08 15:43:54.74	314.22	51.73	-35.8	-36.6	25.2	0.00e+00	92	32	0	734003200	46	5458
2026-01-08 15:43:55.75	313.55	51.79	-35.6	-36.4	25.3	0.00e+00	0	32	0	736100352	44	5966
2026-01-08 15:43:56.76	312.87	51.84	-35.5	-36.3	25.3	0.00e+00	91	32	0	738197504	44	5940
2026-01-08 15:43:57.77	312.20	51.89	-35.1	-35.9	25.9	0.00e+00	0	32	0	739246080	44	5636
2026-01-08 15:43:58.78	311.52	51.94	-34.9	-35.7	26.1	0.00e+00	0	32	0	741343232	44	5514
2026-01-08 15:43:59.79	310.84	51.98	-34.9	-35.6	26.1	0.00e+00	18	32	0	743440384	42	6135
2026-01-08 15:44:00.80	310.15	52.02	-34.7	-35.4	26.2	0.00e+00	73	32	0	745537536	42	5990
2026-01-08 15:44:01.80	309.47	52.06	-34.5	-35.2	26.3	0.00e+00	92	32	0	747634688	42	5870
2026-01-08 15:44:02.81	308.79	52.09	-34.3	-35.0	26.6	0.00e+00	72	32	0	748683264	42	5714
2026-01-08 15:44:03.82	308.10	52.11	-34.5	-35.2	26.2	0.00e+00	92	32	0	750780416	42	5856
2026-01-08 15:44:04.83	307.41	52.14	-34.8	-35.5	26.1	0.00e+00	73	32	0	752877568	42	6088
2026-01-08 15:44:05.84	306.72	52.15	-34.9	-35.6	26.0	0.00e+00	0	32	0	754974720	42	6163
2026-01-08 15:44:06.85	306.03	52.17	-34.9	-35.6	26.1	0.00e+00	6	32	0	757071872	42	6119
2026-01-08 15:44:07.86	305.34	52.17	-35.1	-35.8	25.8	0.00e+00	8	32	0	758120448	42	6287
2026-01-08 15:44:08.87	304.65	52.18	-35.2	-35.9	25.9	0.00e+00	70	32	0	760217600	42	6362
2026-01-08 15:44:09.88	303.95	52.18	-35.1	-35.8	25.9	0.00e+00	0	32	0	762314752	42	6275
2026-01-08 15:44:10.89	303.26	52.18	-35.0	-35.7	25.9	0.00e+00	91	32	0	764411904	42	6204
2026-01-08 15:44:11.90	302.57	52.17	-35.2	-35.9	25.2	0.00e+00	0	32	0	766509056	42	6363
2026-01-08 15:44:12.91	301.88	52.15	-35.1	-35.9	25.7	0.00e+00	90	32	0	767557632	42	6327
2026-01-08 15:44:13.91	301.20	52.14	-35.2	-35.9	25.7	0.00e+00	0	32	0	769654784	42	6366
2026-01-08 15:44:14.92	300.51	52.12	-35.5	-36.2	25.5	0.00e+00	0	32	0	771751936	42	6597
2026-01-08 15:44:15.93	299.82	52.09	-35.4	-36.2	25.6	0.00e+00	0	32	0	773849088	42	6557
2026-01-08 15:44:16.95	299.12	52.06	-35.6	-36.4	25.5	0.00e+00	0	32	0	775946240	42	6727
2026-01-08 15:44:17.96	298.44	52.03	-35.5	-36.3	25.5	0.00e+00	92	32	0	778043392	42	6656
2026-01-08 15:44:18.97	297.75	51.99	-35.8	-36.5	25.3	0.00e+00	0	32	0	779091968	44	6098
2026-01-08 15:44:19.98	297.07	51.94	-35.8	-36.6	25.3	0.00e+00	92	32	0	781189120	44	6140
2026-01-08 15:44:20.99	296.39	51.90	-35.8	-36.5	25.3	0.00e+00	10	32	0	783286272	44	6098
2026-01-08 15:44:21.99	295.72	51.85	-36.0	-36.8	25.1	0.00e+00	74	32	0	785383424	44	6307
2026-01-08 15:44:23.00	295.05	51.79	-36.0	-36.8	25.1	0.00e+00	10	32	0	787480576	44	6252
2026-01-08 15:44:24.01	294.37	51.73	-35.7	-36.4	25.2	0.00e+00	74	32	0	788529152	44	6027
2026-01-08 15:44:25.02	293.70	51.67	-35.6	-36.4	25.4	0.00e+00	92	32	0	790626304	44	5980
2026-01-08 15:44:26.03	293.04	51.60	-35.5	-36.3	25.5	0.00e+00	73	32	0	792723456	44	5918
2026-01-08 15:44:27.04	292.37	51.53	-35.3	-36.1	25.5	0.00e+00	91	32	0	794820608	44	5777
2026-01-08 15:44:28.05	291.71	51.46	-35.5	-36.2	25.5	0.00e+00	10	32	0	796917760	44	5867
2026-01-08 15:44:29.06	291.05	51.38	-35.6	-36.4	25.3	0.00e+00	0	32	0	797966336	44	6005
2026-01-08 15:44:30.07	290.40	51.29	-36.1	-36.9	25.0	0.00e+00	8	32	0	800063488	44	6355
2026-01-08 15:44:31.08	289.75	51.21	-36.0	-36.8	25.0	0.00e+00	0	32	0	802160640	44	6268
2026-01-08 15:44:32.09	289.10	51.12	-35.9	-36.6	25.2	0.00e+00	91	32	0	804257792	44	6161
2026-01-08 15:44:33.10	288.46	51.02	-35.7	-36.5	25.4	0.00e+00	0	32	0	806354944	44	6043
2026-01-08 15:44:34.11	287.82	50.93	-35.7	-36.5	25.3	0.00e+00	92	32	0	807403520	44	6047
2026-01-08 15:44:35.12	287.19	50.83	-36.0	-36.8	25.0	0.00e+00	0	32	0	809500672	44	6300
2026-01-08 15:44:36.13	286.56	50.72	-36.3	-37.1	24.9	0.00e+00	90	32	0	811597824	44	6474
2026-01-08 15:44:37.14	285.93	50.61	-36.7	-37.6	24.4	0.00e+00	72	32	0	813694976	44	6861
2026-01-08 15:44:38.15	285.31	50.50	-37.1	-38.0	24.1	0.00e+00	0	32	0	815792128	46	6421
2026-01-08 15:44:39.15	284.70	50.39	-37.5	-38.4	23.8	0.00e+00	0	32	0	816840704	46	6706
2026-01-08 15:44:40.16	284.09	50.27	-37.7	-38.6	23.6	0.00e+00	68	32	0	818937856	46	6918
2026-01-08 15:44:41.17	283.48	50.15	-37.8	-38.7	23.3	0.00e+00	92	32	0	821035008	48	6245
2026-01-08 15:44:42.18	282.88	50.03	-38.0	-38.9	23.4	0.00e+00	0	32	0	823132160	48	6360
2026-01-08 15:44:43.19	282.28	49.90	-38.2	-39.2	23.1	0.00e+00	58	32	0	825229312	48	6543
2026-01-08 15:44:44.20	281.69	49.77	-38.2	-39.1	23.2	0.00e+00	13	32	0	826277888	48	6505
2026-01-08 15:44:45.21	281.11	49.64	-38.7	-39.7	22.7	0.00e+00	13	32	0	828375040	48	6968
2026-01-08 15:44:46.21	280.53	49.51	-39.2	-40.3	22.1	0.00e+00	68	32	0	830472192	50	6649
2026-01-08 15:44:47.22	279.95	49.37	-39.6	-40.8	21.7	0.00e+00	73	32	0	832569344	50	7013
2026-01-08 15:44:48.23	279.38	49.23	-39.6	-40.7	21.8	0.00e+00	91	32	0	834666496	52	6183
2026-01-08 15:44:49.24	278.82	49.08	-39.4	-40.5	22.1	0.00e+00	11	32	0	835715072	52	6065
2026-01-08 15:44:50.25	278.25	48.94	-39.3	-40.3	22.0	0.00e+00	91	32	0	837812224	52	5950
2026-01-08 15:44:51.26	277.70	48.79	-39.3	-40.4	22.0	0.00e+00	0	32	0	839909376	52	5995
2026-01-08 15:44:52.28	277.14	48.64	-39.4	-40.5	22.0	0.00e+00	92	32	0	842006528	52	6062
2026-01-08 15:44:53.29	276.60	48.48	-39.4	-40.4	22.0	0.00e+00	0	32	0	844103680	52	6028
2026-01-08 15:44:54.30	276.06	48.33	-39.4	-40.4	21.8	0.00e+00	0	32	0	846200832	52	6031
2026-01-08 15:44:55.30	275.53	48.17	-39.5	-40.6	21.7	0.00e+00	33	32	0	847249408	52	6150
2026-01-08 15:44:56.31	275.00	48.01	-39.4	-40.5	21.7	0.00e+00	0	32	0	849346560	52	6064
2026-01-08 15:44:57.32	274.48	47.85	-39.2	-40.2	22.3	0.00e+00	92	32	0	851443712	52	5871
2026-01-08 15:44:58.33	273.96	47.69	-38.8	-39.8	22.6	0.00e+00	2	32	0	853540864	52	5619
2026-01-08 15:44:59.34	273.45	47.52	-38.7	-39.7	22.7	0.00e+00	0	32	0	855638016	50	6209
2026-01-08 15:45:00.35	272.95	47.36	-38.6	-39.6	22.7	0.00e+00	71	32	0	856686592	50	6129
2026-01-08 15:45:01.36	272.44	47.19	-38.7	-39.7	22.6	0.00e+00	72	32	0	858783744	50	6193
2026-01-08 15:45:02.37	271.95	47.02	-39.0	-40.0	22.3	0.00e+00	0	32	0	860880896	50	6416
2026-01-08 15:45:03.37	271.46	46.85	-39.2	-40.2	22.1	0.00e+00	65	32	0	862978048	50	6586
2026-01-08 15:45:04.38	270.98	46.67	-39.1	-40.1	22.2	0.00e+00	92	32	0	864026624	50	6539
2026-01-08 15:45:05.39	270.50	46.50	-39.2	-40.3	22.2	0.00e+00	10	32	0	866123776	50	6636
2026-01-08 15:45:06.40	270.03	46.32	-39.3	-40.3	22.2	0.00e+00	92	32	0	868220928	50	6687
2026-01-08 15:45:07.41	269.56	46.14	-39.0	-40.0	22.5	0.00e+00	0	32	0	870318080	50	6433
2026-01-08 15:45:08.42	269.09	45.96	-38.5	-39.5	22.9	0.00e+00	71	32	0	872415232	50	6061
2026-01-08 15:45:09.43	268.64	45.78	-38.6	-39.6	22.7	0.00e+00	66	32	0	874512384	50	6107
2026-01-08 15:45:10.44	268.18	45.60	-38.9	-39.9	22.3	0.00e+00	17	32	0	875560960	50	6319
2026-01-08 15:45:11.44	267.74	45.42	-39.1	-40.1	22.2	0.00e+00	70	32	0	877658112	50	6511
2026-01-08 15:45:12.45	267.30	45.24	-39.1	-40.1	22.2	0.00e+00	5	32	0	879755264	50	6532
2026-01-08 15:45:13.46	266.86	45.05	-39.3	-40.3	22.0	0.00e+00	92	32	0	881852416	50	6665
2026-01-08 15:45:14.47	266.43	44.86	-39.6	-40.7	21.8	0.00e+00	0	32	0	883949568	50	6937
2026-01-08 15:45:15.48	266.00	44.68	-39.5	-40.6	21.8	0.00e+00	0	32	0	884998144	50	6907
2026-01-08 15:45:16.49	265.58	44.49	-39.3	-40.3	22.2	0.00e+00	0	32	0	887095296	50	6659
2026-01-08 15:45:17.50	265.16	44.30	-38.9	-40.0	22.4	0.00e+00	0	32	0	889192448	50	6398
2026-01-08 15:45:18.51	264.75	44.11	-38.8	-39.8	22.5	0.00e+00	0	32	0	891289600	50	6275
2026-01-08 15:45:19.52	264.34	43.92	-38.7	-39.7	22.6	0.00e+00	0	32	0	893386752	50	6195
2026-01-08 15:45:20.53	263.94	43.73	-38.9	-39.9	22.4	0.00e+00	92	32	0	894435328	50	6379
2026-01-08 15:45:21.54	263.54	43.54	-38.3	-39.2	23.1	0.00e+00	6	32	0	896532480	50	5868
2026-01-08 15:45:22.55	263.15	43.35	-38.2	-39.1	23.2	0.00e+00	0	32	0	898629632	50	5791
2026-01-08 15:45:23.56	262.76	43.15	-38.1	-39.0	23.3	0.00e+00	0	32	0	900726784	50	5707
2026-01-08 15:45:24.57	262.38	42.96	-38.0	-38.9	23.4	0.00e+00	0	32	0	902823936	50	5675
2026-01-08 15:45:25.58	262.00	42.77	-38.2	-39.2	23.0	0.00e+00	0	32	0	903872512	50	5835
2026-01-08 15:45:26.59	261.62	42.57	-38.6	-39.6	22.8	0.00e+00	69	32	0	905969664	50	6127
2026-01-08 15:45:27.59	261.26	42.38	-38.6	-39.6	22.6	0.00e+00	92	32	0	908066816	50	6126
2026-01-08 15:45:28.60	260.89	42.19	-38.5	-39.4	22.9	0.00e+00	14	32	0	910163968	50	6000
2026-01-08 15:45:29.61	260.53	41.99	-38.3	-39.3	23.0	0.00e+00	92	32	0	912261120	50	5914
2026-01-08 15:45:30.62	260.17	41.80	-38.5	-39.5	22.8	0.00e+00	70	32	0	913309696	50	6053
2026-01-08 15:45:31.63	259.82	41.60	-38.9	-39.9	22.3	0.00e+00	17	32	0	915406848	50	6386
2026-01-08 15:45:32.64	259.47	41.41	-39.1	-40.1	22.2	0.00e+00	5	32	0	917504000	50	6531
2026-01-08 15:45:33.65	259.13	41.21	-39.4	-40.4	21.8	0.00e+00	15	32	0	919601152	50	6764
2026-01-08 15:45:34.66	258.79	41.01	-39.9	-41.0	21.4	0.00e+00	40	32	0	921698304	52	6431
2026-01-08 15:45:35.67	258.45	40.82	-40.3	-41.6	20.8	0.00e+00	17	32	0	922746880	52	6865
2026-01-08 15:45:36.68	258.12	40.62	-40.5	-41.8	20.8	0.00e+00	92	32	0	924844032	52	7050
2026-01-08 15:45:37.68	257.80	40.43	-40.4	-41.7	20.8	0.00e+00	0	32	0	926941184	52	6950
2026-01-08 15:45:38.69	257.48	40.23	-40.4	-41.6	20.8	0.00e+00	7	32	0	929038336	52	6894
2026-01-08 15:45:39.70	257.16	40.04	-40.5	-41.8	20.8	0.00e+00	7	32	0	931135488	52	7056
2026-01-08 15:45:40.71	256.84	39.84	-40.4	-41.6	20.9	0.00e+00	7	32	0	932184064	52	6879
2026-01-08 15:45:41.72	256.53	39.64	-40.3	-41.5	21.1	0.00e+00	0	32	0	934281216	52	6825
2026-01-08 15:45:42.73	256.22	39.45	-40.2	-41.4	21.2	0.00e+00	0	32	0	936378368	52	6716
2026-01-08 15:45:43.74	255.92	39.25	-40.5	-41.7	20.7	0.00e+00	90	32	0	938475520	52	6997
2026-01-08 15:45:44.75	255.61	39.06	-40.9	-42.3	20.1	0.00e+00	66	32	0	940572672	54	6643
2026-01-08 15:45:45.76	255.32	38.86	-41.2	-42.6	19.9	0.00e+00	92	32	0	942669824	54	6921
2026-01-08 15:45:46.77	255.02	38.67	-41.0	-42.3	20.2	0.00e+00	0	32	0	943718400	54	6665
2026-01-08 15:45:47.78	254.73	38.47	-40.5	-41.8	20.7	0.00e+00	0	32	0	945815552	54	6264
2026-01-08 15:45:48.79	254.45	38.28	-40.4	-41.6	20.9	0.00e+00	49	32	0	947912704	54	6118
2026-01-08 15:45:49.79	254.17	38.09	-40.4	-41.6	20.8	0.00e+00	10	32	0	950009856	54	6171
2026-01-08 15:45:50.80	253.89	37.89	-40.5	-41.8	20.7	0.00e+00	92	32	0	952107008	54	6283
2026-01-08 15:45:51.81	253.61	37.70	-40.5	-41.7	20.7	0.00e+00	10	32	0	953155584	54	6234
2026-01-08 15:45:52.82	253.34	37.51	-40.4	-41.7	20.7	0.00e+00	92	32	0	955252736	54	6177
2026-01-08 15:45:53.83	253.07	37.32	-40.7	-42.0	20.5	0.00e+00	69	32	0	957349888	54	6456
2026-01-08 15:45:54.84	252.80	37.12	-41.0	-42.3	20.4	0.00e+00	0	32	0	959447040	54	6642
2026-01-08 15:45:55.85	252.54	36.93	-40.8	-42.1	20.4	0.00e+00	2	32	0	961544192	54	6493
2026-01-08 15:45:56.86	252.28	36.74	-40.7	-41.9	20.5	0.00e+00	11	32	0	962592768	54	6387
2026-01-08 15:45:57.87	252.02	36.55	-40.6	-41.9	20.6	0.00e+00	28	32	0	964689920	54	6356
2026-01-08 15:45:58.88	251.76	36.36	-40.6	-41.9	20.6	0.00e+00	11	32	0	966787072	54	6358
2026-01-08 15:45:59.89	251.51	36.17	-40.6	-41.9	20.6	0.00e+00	92	32	0	968884224	54	6365
2026-01-08 15:46:00.90	251.26	35.98	-40.4	-41.7	20.8	0.00e+00	0	32	0	970981376	54	6175
2026-01-08 15:46:01.91	251.02	35.79	-40.4	-41.7	20.6	0.00e+00	0	32	0	972029952	54	6178
2026-01-08 15:46:02.92	250.77	35.60	-40.2	-41.3	21.1	0.00e+00	0	32	0	974127104	54	5960
2026-01-08 15:46:03.93	250.53	35.41	-40.2	-41.4	21.0	0.00e+00	0	32	0	976224256	54	6027
2026-01-08 15:46:04.94	250.30	35.23	-40.2	-41.4	21.1	0.00e+00	0	32	0	978321408	54	5975
2026-01-08 15:46:05.95	250.06	35.04	-40.1	-41.3	21.1	0.00e+00	0	32	0	980418560	54	5911
2026-01-08 15:46:06.95	249.83	34.86	-39.7	-40.8	21.7	0.00e+00	92	32	0	981467136	52	6304
2026-01-08 15:46:07.96	249.60	34.67	-39.7	-40.8	21.6	0.00e+00	71	32	0	983564288	52	6247
2026-01-08 15:46:08.97	249.38	34.48	-39.9	-41.0	21.5	0.00e+00	92	32	0	985661440	52	6437
2026-01-08 15:46:09.98	249.15	34.30	-40.0	-41.2	21.3	0.00e+00	0	32	0	987758592	52	6584
2026-01-08 15:46:10.99	248.93	34.12	-40.1	-41.2	21.3	0.00e+00	0	32	0	989855744	52	6603
2026-01-08 15:46:12.00	248.71	33.93	-40.0	-41.2	21.3	0.00e+00	24	32	0	990904320	52	6575
2026-01-08 15:46:13.01	248.50	33.75	-39.9	-41.1	21.3	0.00e+00	64	32	0	993001472	52	6492
2026-01-08 15:46:14.02	248.28	33.57	-39.7	-40.8	21.6	0.00e+00	92	32	0	995098624	52	6300
2026-01-08 15:46:15.03	248.07	33.39	-39.3	-40.3	22.0	0.00e+00	64	32	0	997195776	52	5960
2026-01-08 15:46:16.04	247.86	33.20	-39.0	-40.0	22.4	0.00e+00	92	32	0	999292928	52	5724
2026-01-08 15:46:17.05	247.65	33.02	-39.0	-40.0	22.4	0.00e+00	0	32	0	1000341504	52	5714
2026-01-08 15:46:18.06	247.45	32.84	-38.8	-39.8	22.6	0.00e+00	0	32	0	1002438656	52	5588
2026-01-08 15:46:19.07	247.25	32.67	-38.9	-39.9	22.5	0.00e+00	0	32	0	1004535808	52	5679
2026-01-08 15:46:20.08	247.05	32.49	-39.0	-40.0	22.3	0.00e+00	12	32	0	1006632960	52	5735
2026-01-08 15:46:21.09	246.85	32.31	-39.5	-40.5	21.8	0.00e+00	90	32	0	1008730112	52	6091
2026-01-08 15:46:22.09	246.66	32.13	-39.7	-40.8	21.6	0.00e+00	0	32	0	1010827264	52	6297
2026-01-08 15:46:23.10	246.46	31.96	-39.9	-41.1	21.4	0.00e+00	92	32	0	1011875840	52	6502
2026-01-08 15:46:24.11	246.27	31.78	-40.0	-41.1	21.4	0.00e+00	2	32	0	1013972992	52	6515
2026-01-08 15:46:25.12	246.08	31.61	-40.0	-41.1	21.4	0.00e+00	91	32	0	1016070144	52	6523
2026-01-08 15:46:26.13	245.89	31.43	-39.8	-41.0	21.5	0.00e+00	0	32	0	1018167296	52	6392
2026-01-08 15:46:27.14	245.71	31.26	-39.7	-40.9	21.6	0.00e+00	0	32	0	1020264448	52	6334
2026-01-08 15:46:28.15	245.53	31.09	-39.7	-40.8	21.6	0.00e+00	0	32	0	1021313024	52	6279
2026-01-08 15:46:29.16	245.34	30.91	-39.7	-40.8	21.6	0.00e+00	0	32	0	1023410176	52	6310
2026-01-08 15:46:30.17	245.17	30.74	-39.8	-41.0	21.4	0.00e+00	92	32	0	1025507328	52	6419
2026-01-08 15:46:31.18	244.99	30.57	-39.9	-41.1	21.4	0.00e+00	0	32	0	1027604480	52	6491
2026-01-08 15:46:32.19	244.81	30.40	-39.8	-41.0	21.6	0.00e+00	92	32	0	1029701632	52	6406
2026-01-08 15:46:33.20	244.64	30.23	-39.8	-40.9	21.5	0.00e+00	14	32	0	1030750208	52	6389
2026-01-08 15:46:34.21	244.47	30.06	-39.7	-40.8	21.6	0.00e+00	0	32	0	1032847360	52	6275
2026-01-08 15:46:35.22	244.30	29.90	-39.8	-41.0	21.5	0.00e+00	0	32	0	1034944512	52	6399
2026-01-08 15:46:36.23	244.13	29.73	-39.8	-40.9	21.5	0.00e+00	69	32	0	1037041664	52	6360
2026-01-08 15:46:37.24	243.96	29.56	-39.6	-40.7	21.6	0.00e+00	90	32	0	1039138816	52	6205
2026-01-08 15:46:38.25	243.80	29.39	-39.7	-40.8	21.6	0.00e+00	12	32	0	1040187392	52	6302
2026-01-08 15:46:39.25	243.64	29.23	-39.5	-40.6	21.8	0.00e+00	92	32	0	1042284544	52	6136
2026-01-08 15:46:40.26	243.47	29.07	-39.4	-40.5	21.8	0.00e+00	17	32	0	1044381696	52	6080
2026-01-08 15:46:41.27	243.31	28.90	-39.6	-40.6	21.8	0.00e+00	92	32	0	1046478848	52	6170
2026-01-08 15:46:42.28	243.16	28.74	-39.2	-40.2	22.2	0.00e+00	0	32	0	1048576000	52	5888
2026-01-08 15:46:43.29	243.00	28.58	-38.9	-39.9	22.5	0.00e+00	0	32	0	1049624576	52	5676
2026-01-08 15:46:44.30	242.84	28.42	-38.8	-39.8	22.4	0.00e+00	92	32	0	1051721728	52	5606
2026-01-08 15:46:45.31	242.69	28.25	-38.7	-39.7	22.5	0.00e+00	0	32	0	1053818880	50	6208
2026-01-08 15:46:46.32	242.54	28.09	-38.7	-39.7	22.6	0.00e+00	92	32	0	1055916032	50	6214
2026-01-08 15:46:47.33	242.39	27.93	-38.4	-39.4	22.8	0.00e+00	0	32	0	1058013184	50	6004
2026-01-08 15:46:48.34	242.24	27.77	-38.4	-39.4	22.8	0.00e+00	68	32	0	1059061760	50	6003
2026-01-08 15:46:49.35	242.09	27.62	-38.2	-39.1	23.1	0.00e+00	0	32	0	1061158912	50	5781
2026-01-08 15:46:50.35	241.95	27.46	-38.2	-39.1	23.0	0.00e+00	0	32	0	1063256064	50	5792
2026-01-08 15:46:51.36	241.80	27.30	-38.3	-39.2	23.0	0.00e+00	0	32	0	1065353216	50	5862
2026-01-08 15:46:52.37	241.66	27.15	-38.3	-39.3	22.9	0.00e+00	68	32	0	1067450368	50	5907
2026-01-08 15:46:53.38	241.52	26.99	-38.4	-39.4	22.8	0.00e+00	92	32	0	1068498944	50	6008
2026-01-08 15:46:54.39	241.38	26.84	-38.6	-39.6	22.7	0.00e+00	69	32	0	1070596096	50	6138
2026-01-08 15:46:55.40	241.24	26.68	-38.8	-39.8	22.5	0.00e+00	91	32	0	1072693248	50	6279
2026-01-08 15:46:56.41	241.10	26.53	-38.8	-39.8	22.4	0.00e+00	68	32	0	1074790400	50	6316
2026-01-08 15:46:57.41	240.97	26.38	-38.9	-39.9	22.4	0.00e+00	75	32	0	1076887552	50	6351
2026-01-08 15:46:58.42	240.84	26.23	-38.6	-39.6	22.6	0.00e+00	0	32	0	1077936128	50	6124
2026-01-08 15:46:59.43	240.70	26.07	-38.4	-39.4	22.9	0.00e+00	0	32	0	1080033280	50	5988
2026-01-08 15:47:00.44	240.57	25.92	-38.3	-39.3	22.9	0.00e+00	91	32	0	1082130432	50	5909
2026-01-08 15:47:01.45	240.44	25.77	-38.2	-39.1	23.1	0.00e+00	14	32	0	1084227584	50	5806
2026-01-08 15:47:02.45	240.31	25.63	-38.2	-39.1	23.0	0.00e+00	91	32	0	1086324736	50	5799
2026-01-08 15:47:03.46	240.18	25.48	-38.0	-38.9	23.3	0.00e+00	15	32	0	1087373312	50	5691
2026-01-08 15:47:04.47	240.06	25.33	-38.0	-38.9	23.3	0.00e+00	67	32	0	1089470464	50	5646
2026-01-08 15:47:05.48	239.93	25.18	-38.1	-39.0	23.2	0.00e+00	14	32	0	1091567616	50	5740
2026-01-08 15:47:06.49	239.80	25.03	-38.0	-39.0	23.0	0.00e+00	0	32	0	1093664768	50	5701
2026-01-08 15:47:07.50	239.68	24.89	-37.9	-38.9	23.3	0.00e+00	0	31	0	1095761920	50	5632
2026-01-08 15:47:08.51	239.56	24.74	-37.9	-38.8	23.3	0.00e+00	5	31	0	1096810496	50	5605
2026-01-08 15:47:09.52	239.44	24.60	-38.0	-39.0	23.1	0.00e+00	90	32	0	1098907648	50	5705
2026-01-08 15:47:10.53	239.32	24.45	-38.1	-39.0	23.1	0.00e+00	0	31	0	1101004800	50	5741
2026-01-08 15:47:11.54	239.20	24.31	-38.2	-39.1	23.1	0.00e+00	92	32	0	1103101952	50	5796
2026-01-08 15:47:12.55	239.08	24.17	-38.2	-39.1	23.0	0.00e+00	0	32	0	1105199104	50	5825
2026-01-08 15:47:13.56	238.96	24.03	-38.2	-39.2	22.9	0.00e+00	6	32	0	1107296256	50	5866
2026-01-08 15:47:14.57	238.85	23.88	-38.2	-39.2	23.0	0.00e+00	0	31	0	1108344832	50	5866
2026-01-08 15:47:15.58	238.73	23.74	-38.3	-39.2	22.9	0.00e+00	0	32	0	1110441984	50	5873
2026-01-08 15:47:16.59	238.62	23.60	-38.2	-39.1	23.1	0.00e+00	92	32	0	1112539136	50	5816
2026-01-08 15:47:17.60	238.51	23.46	-38.1	-39.1	23.1	0.00e+00	19	32	0	1114636288	50	5789
2026-01-08 15:47:18.60	238.40	23.33	-38.1	-39.1	23.1	0.00e+00	92	32	0	1116733440	50	5773
2026-01-08 15:47:19.61	238.29	23.19	-38.1	-39.0	23.2	0.00e+00	19	32	0	1117782016	50	5750
2026-01-08 15:47:20.62	238.18	23.05	-38.1	-39.0	23.1	0.00e+00	66	32	0	1119879168	50	5757
2026-01-08 15:47:21.63	238.07	22.91	-38.1	-39.0	23.2	0.00e+00	6	32	0	1121976320	50	5735
2026-01-08 15:47:22.64	237.96	22.78	-38.2	-39.1	23.0	0.00e+00	19	32	0	1124073472	50	5805
2026-01-08 15:47:23.65	237.85	22.64	-38.0	-38.9	23.2	0.00e+00	92	32	0	1126170624	50	5682
2026-01-08 15:47:24.66	237.75	22.50	-38.1	-39.0	23.2	0.00e+00	20	32	0	1127219200	50	5734
2026-01-08 15:47:25.67	237.64	22.37	-38.1	-39.0	23.1	0.00e+00	91	32	0	1129316352	50	5726
2026-01-08 15:47:26.68	237.54	22.24	-38.1	-39.0	23.2	0.00e+00	21	32	0	1131413504	50	5735
2026-01-08 15:47:27.69	237.44	22.10	-38.0	-39.0	23.2	0.00e+00	49	32	0	1133510656	50	5715
2026-01-08 15:47:28.69	237.34	21.97	-38.0	-39.0	23.2	0.00e+00	6	32	0	1135607808	50	5714
2026-01-08 15:47:29.70	237.24	21.84	-37.9	-38.8	23.3	0.00e+00	0	32	0	1136656384	50	5609
2026-01-08 15:47:30.71	237.13	21.71	-37.9	-38.8	23.3	0.00e+00	0	32	0	1138753536	50	5585
2026-01-08 15:47:31.72	237.04	21.57	-37.9	-38.8	23.3	0.00e+00	7	32	0	1140850688	50	5602
2026-01-08 15:47:32.73	236.94	21.44	-37.9	-38.8	23.3	0.00e+00	91	32	0	1142947840	50	5584
2026-01-08 15:47:33.74	236.84	21.31	-37.9	-38.9	23.2	0.00e+00	66	32	0	1145044992	50	5635
2026-01-08 15:47:34.75	236.74	21.18	-38.1	-39.0	23.2	0.00e+00	92	32	0	1146093568	50	5721
2026-01-08 15:47:35.76	236.65	21.06	-37.9	-38.8	23.2	0.00e+00	0	32	0	1148190720	50	5627
2026-01-08 15:47:36.77	236.55	20.93	-38.0	-38.9	23.2	0.00e+00	0	32	0	1150287872	50	5647
2026-01-08 15:47:37.77	236.46	20.80	-37.9	-38.8	23.3	0.00e+00	0	32	0	1152385024	50	5620
2026-01-08 15:47:38.78	236.36	20.67	-37.9	-38.9	23.2	0.00e+00	0	32	0	1154482176	50	5644
2026-01-08 15:47:39.79	236.27	20.55	-37.9	-38.9	23.2	0.00e+00	90	32	0	1155530752	50	5646
2026-01-08 15:47:40.80	236.18	20.42	-38.0	-38.9	23.1	0.00e+00	60	32	0	1157627904	50	5682
2026-01-08 15:47:41.81	236.09	20.30	-38.0	-39.0	23.1	0.00e+00	90	32	0	1159725056	50	5702
2026-01-08 15:47:42.82	236.00	20.17	-38.0	-38.9	23.2	0.00e+00	60	32	0	1161822208	50	5694
2026-01-08 15:47:43.83	235.91	20.05	-38.1	-39.0	23.1	0.00e+00	62	32	0	1163919360	50	5736
2026-01-08 15:47:44.84	235.82	19.92	-38.0	-38.9	23.1	0.00e+00	20	32	0	1164967936	50	5680
2026-01-08 15:47:45.85	235.73	19.80	-38.0	-38.9	23.2	0.00e+00	19	32	0	1167065088	50	5655
2026-01-08 15:47:46.85	235.64	19.68	-38.1	-39.0	23.1	0.00e+00	92	32	0	1169162240	50	5728
2026-01-08 15:47:47.86	235.56	19.56	-37.9	-38.9	23.2	0.00e+00	2	32	0	1171259392	50	5640
2026-01-08 15:47:48.87	235.47	19.43	-37.9	-38.9	23.2	0.00e+00	92	32	0	1173356544	50	5645
2026-01-08 15:47:49.88	235.39	19.31	-38.0	-39.0	23.1	0.00e+00	14	32	0	1174405120	50	5711
2026-01-08 15:47:50.89	235.30	19.19	-38.0	-39.0	23.1	0.00e+00	55	32	0	1176502272	50	5724
2026-01-08 15:47:51.89	235.22	19.07	-38.1	-39.1	23.0	0.00e+00	2	32	0	1178599424	50	5772
2026-01-08 15:47:52.90	235.14	18.95	-38.3	-39.2	22.9	0.00e+00	0	32	0	1180696576	50	5880
2026-01-08 15:47:53.91	235.05	18.83	-38.3	-39.3	22.8	0.00e+00	0	32	0	1182793728	50	5899
2026-01-08 15:47:54.92	234.97	18.71	-38.3	-39.3	22.8	0.00e+00	0	32	0	1183842304	50	5918
2026-01-08 15:47:55.93	234.89	18.60	-38.4	-39.4	22.7	0.00e+00	92	32	0	1185939456	50	5979
2026-01-08 15:47:56.94	234.81	18.48	-38.5	-39.5	22.7	0.00e+00	0	32	0	1188036608	50	6043
2026-01-08 15:47:57.95	234.73	18.36	-38.5	-39.5	22.6	0.00e+00	91	32	0	1190133760	50	6077
2026-01-08 15:47:58.96	234.65	18.25	-38.6	-39.6	22.5	0.00e+00	0	32	0	1192230912	50	6105
2026-01-08 15:47:59.97	234.57	18.13	-38.7	-39.7	22.4	0.00e+00	65	32	0	1193279488	50	6231
2026-01-08 15:48:00.98	234.49	18.01	-38.6	-39.6	22.5	0.00e+00	0	32	0	1195376640	50	6152
2026-01-08 15:48:01.99	234.41	17.90	-38.6	-39.6	22.5	0.00e+00	64	32	0	1197473792	50	6153
2026-01-08 15:48:02.99	234.34	17.78	-38.5	-39.5	22.5	0.00e+00	91	32	0	1199570944	50	6091
2026-01-08 15:48:04.00	234.26	17.67	-38.5	-39.5	22.6	0.00e+00	16	32	0	1201668096	50	6079
2026-01-08 15:48:05.01	234.19	17.56	-38.5	-39.5	22.6	0.00e+00	91	32	0	1203765248	50	6071
2026-01-08 15:48:06.02	234.11	17.44	-38.5	-39.5	22.6	0.00e+00	16	32	0	1204813824	50	6065
2026-01-08 15:48:07.03	234.04	17.33	-38.3	-39.3	22.7	0.00e+00	18	32	0	1206910976	50	5954
2026-01-08 15:48:08.04	233.96	17.22	-38.3	-39.3	22.7	0.00e+00	18	32	0	1209008128	50	5929
