passes_logs/2026/01/08/R4.6S_Anadyr/R4.6S_Anadyr__20260108_155558_AQUA_rec.log

#Pass ID: 20260108_155558_AQUA
#Satellite: AQUA
#Configuration: AQUA
#almurnet v.1.7.20251203
#Start time: 2026-01-08 15:56:01

#Version: 2.2.20231116
#Station: R4.6S_Anadyr
#Location: 177.4865 lon 64.73178 lat
#TLE: 1 27424U 02022A   26004.96787593  .00001598  00000+0  32997-3 0  9996
#TLE: 2 27424  98.4069 331.2279 0002002  90.2377   0.6092 14.61798176259425

#Time	Az	El	Level	Level2	SNR	BER	BlckErr	Temp	State	Recorded	gain1	gain2
2026-01-08 15:56:01.43	19.62	0.20	-48.8	-65.2	3.3	3.02e+01	0	30	0	0	60	69820
2026-01-08 15:56:02.44	19.64	0.26	-48.8	-66.7	3.5	3.02e+01	0	31	104	0	60	83333
2026-01-08 15:56:03.45	19.66	0.33	-48.9	-66.7	3.5	3.02e+01	0	31	104	0	60	83513
2026-01-08 15:56:04.46	19.68	0.39	-48.9	-66.8	3.5	3.02e+01	0	31	104	0	60	83875
2026-01-08 15:56:05.47	19.70	0.45	-48.7	-66.8	3.5	3.02e+01	0	31	104	0	60	83935
2026-01-08 15:56:06.48	19.72	0.51	-48.9	-66.8	3.5	3.02e+01	0	31	104	0	60	83952
2026-01-08 15:56:07.49	19.74	0.58	-48.4	-66.7	3.5	3.02e+01	0	31	104	0	60	83510
2026-01-08 15:56:08.50	19.76	0.64	-48.7	-66.6	3.5	3.02e+01	0	31	104	0	60	82568
2026-01-08 15:56:09.51	19.79	0.70	-48.4	-66.5	3.5	3.02e+01	0	31	104	0	60	81089
2026-01-08 15:56:10.51	19.81	0.76	-48.4	-66.4	3.5	3.02e+01	0	31	104	0	60	80131
2026-01-08 15:56:11.52	19.83	0.83	-48.1	-66.1	3.5	3.02e+01	0	31	104	0	60	77807
2026-01-08 15:56:12.54	19.85	0.89	-48.1	-66.0	3.5	3.02e+01	0	31	104	0	60	76572
2026-01-08 15:56:13.55	19.87	0.95	-47.8	-65.6	3.5	3.02e+01	0	31	104	0	60	72981
2026-01-08 15:56:14.56	19.89	1.02	-47.5	-65.3	3.5	3.02e+01	0	31	104	0	60	70443
2026-01-08 15:56:15.57	19.91	1.08	-47.5	-65.1	3.5	3.02e+01	0	31	104	0	60	69143
2026-01-08 15:56:16.58	19.93	1.14	-47.4	-65.1	3.5	3.02e+01	0	31	104	0	60	69555
2026-01-08 15:56:17.59	19.95	1.21	-47.5	-65.2	3.5	3.02e+01	0	31	104	0	60	70383
2026-01-08 15:56:18.60	19.98	1.27	-47.5	-65.2	3.5	3.02e+01	0	31	104	0	60	69757
2026-01-08 15:56:19.61	20.00	1.34	-47.4	-65.2	3.5	3.02e+01	0	31	104	0	60	70258
2026-01-08 15:56:20.62	20.02	1.40	-47.4	-65.1	3.5	3.02e+01	0	31	104	0	60	69435
2026-01-08 15:56:21.63	20.04	1.47	-47.4	-65.1	3.5	3.02e+01	0	31	104	0	60	68856
2026-01-08 15:56:22.64	20.06	1.53	-47.4	-65.0	3.5	3.02e+01	0	31	104	0	60	68830
2026-01-08 15:56:23.65	20.08	1.60	-47.4	-64.9	3.5	3.02e+01	0	31	104	0	60	68031
2026-01-08 15:56:24.66	20.11	1.66	-47.4	-65.1	3.5	3.02e+01	0	31	104	0	60	68915
2026-01-08 15:56:25.67	20.13	1.73	-47.4	-65.2	3.5	3.02e+01	0	31	104	0	60	69695
2026-01-08 15:56:26.68	20.15	1.79	-47.4	-65.1	3.5	3.02e+01	0	31	104	0	60	69386
2026-01-08 15:56:27.69	20.17	1.86	-47.4	-65.1	3.5	3.02e+01	0	31	104	0	60	69308
2026-01-08 15:56:28.70	20.20	1.92	-47.4	-65.0	3.5	3.02e+01	0	31	104	0	60	68679
2026-01-08 15:56:29.71	20.22	1.99	-47.4	-64.9	3.5	3.02e+01	0	31	104	0	60	67838
2026-01-08 15:56:30.72	20.24	2.05	-47.4	-65.0	3.5	3.02e+01	0	31	104	0	60	68707
2026-01-08 15:56:31.73	20.26	2.12	-47.4	-65.2	3.5	3.02e+01	0	31	104	0	60	70250
2026-01-08 15:56:32.74	20.29	2.19	-47.4	-65.2	3.5	3.02e+01	0	31	104	0	60	70379
2026-01-08 15:56:33.75	20.31	2.25	-47.4	-64.8	3.5	3.02e+01	0	31	104	0	60	66723
2026-01-08 15:56:34.75	20.33	2.32	-47.4	-63.4	3.5	3.02e+01	0	31	104	0	60	56687
2026-01-08 15:56:35.76	20.35	2.39	-47.3	-61.7	3.7	3.02e+01	0	31	104	0	60	46850
2026-01-08 15:56:36.77	20.38	2.45	-47.2	-60.5	4.9	3.02e+01	0	31	104	0	60	40658
2026-01-08 15:56:37.78	20.40	2.52	-47.2	-58.9	5.6	3.02e+01	0	31	0	0	60	33747
2026-01-08 15:56:38.78	20.42	2.59	-47.1	-57.8	5.9	3.02e+01	43	31	0	1572864	60	29839
2026-01-08 15:56:39.80	20.45	2.66	-47.1	-59.2	3.9	3.02e+01	0	31	104	3145728	60	35290
2026-01-08 15:56:40.80	20.47	2.72	-47.1	-58.2	6.5	3.02e+01	90	31	0	3145728	60	31427
2026-01-08 15:56:41.81	20.49	2.79	-46.8	-55.2	8.8	3.02e+01	59	31	0	4718592	60	22220
2026-01-08 15:56:42.82	20.52	2.86	-46.0	-52.0	12.5	3.02e+01	62	31	0	6815744	60	15354
2026-01-08 15:56:43.83	20.54	2.93	-44.9	-49.1	15.6	3.02e+01	52	31	0	8388608	60	11005
2026-01-08 15:56:44.84	20.56	3.00	-43.6	-46.8	18.3	3.02e+01	63	31	0	10485760	60	8398
2026-01-08 15:56:45.85	20.59	3.07	-42.0	-44.4	20.5	3.02e+01	60	31	0	12582912	60	6406
2026-01-08 15:56:46.86	20.61	3.13	-40.9	-42.9	22.0	3.02e+01	58	31	0	14155776	56	6786
2026-01-08 15:56:47.87	20.64	3.20	-39.9	-41.7	23.1	3.02e+01	59	31	0	16252928	56	5900
2026-01-08 15:56:48.88	20.66	3.27	-39.0	-40.7	24.0	3.02e+01	37	31	0	17825792	54	5880
2026-01-08 15:56:49.89	20.68	3.34	-38.7	-40.4	24.4	3.02e+01	57	31	0	19922944	52	6353
2026-01-08 15:56:50.90	20.71	3.41	-38.8	-40.4	24.3	3.02e+01	60	31	0	22020096	52	6401
2026-01-08 15:56:51.91	20.73	3.48	-38.9	-40.6	24.1	3.02e+01	45	31	0	23592960	52	6522
2026-01-08 15:56:52.92	20.76	3.55	-39.5	-41.3	23.3	3.02e+01	57	31	0	25690112	52	7094
2026-01-08 15:56:53.93	20.78	3.62	-40.5	-42.5	22.1	3.02e+01	58	31	0	27262976	54	7236
2026-01-08 15:56:54.94	20.81	3.69	-42.2	-53.4	3.6	3.02e+01	0	31	104	27787264	58	20101
2026-01-08 15:56:55.95	20.83	3.76	-43.8	-55.7	3.6	3.02e+01	0	31	104	27787264	60	23366
2026-01-08 15:56:56.95	20.86	3.83	-38.9	-49.4	3.5	3.02e+01	0	31	104	27787264	54	16073
2026-01-08 15:56:57.96	20.88	3.90	-45.3	-58.6	3.5	3.02e+01	0	31	104	27787264	60	32885
2026-01-08 15:56:58.97	20.91	3.98	-47.3	-64.1	3.5	3.02e+01	0	31	104	27787264	60	61701
2026-01-08 15:56:59.98	20.93	4.05	-42.6	-53.8	3.6	3.02e+01	0	31	104	27787264	60	18931
2026-01-08 15:57:00.99	20.96	4.12	-47.3	-64.8	3.5	3.02e+01	0	31	104	27787264	60	66610
2026-01-08 15:57:02.00	20.98	4.19	-41.8	-52.8	3.4	3.02e+01	0	31	104	27787264	60	16892
2026-01-08 15:57:03.01	21.01	4.26	-41.3	-52.2	3.4	3.02e+01	0	31	104	27787264	58	17653
2026-01-08 15:57:04.02	21.04	4.33	-41.6	-52.5	3.6	3.02e+01	0	31	104	27787264	58	18203
2026-01-08 15:57:05.03	21.06	4.41	-41.9	-52.8	3.6	3.02e+01	0	31	104	27787264	58	18888
2026-01-08 15:57:06.04	21.09	4.48	-44.9	-57.6	3.5	3.02e+01	0	31	104	27787264	60	29054
2026-01-08 15:57:07.05	21.11	4.55	-39.9	-50.5	3.6	3.02e+01	0	31	104	27787264	52	20409
2026-01-08 15:57:08.06	21.14	4.63	-47.4	-65.1	3.5	3.02e+01	0	31	104	27787264	60	69336
2026-01-08 15:57:09.07	21.17	4.70	-41.5	-52.4	3.6	3.02e+01	0	31	104	27787264	58	18037
2026-01-08 15:57:10.08	21.19	4.77	-47.5	-64.3	3.5	3.02e+01	0	31	104	27787264	60	63302
2026-01-08 15:57:11.08	21.22	4.85	-39.2	-49.7	3.9	3.02e+01	0	31	104	27787264	54	16556
2026-01-08 15:57:12.10	21.25	4.92	-38.8	-49.2	3.8	3.02e+01	0	31	104	27787264	52	17547
2026-01-08 15:57:13.11	21.27	5.00	-38.7	-49.1	3.4	3.02e+01	0	31	104	27787264	52	17325
2026-01-08 15:57:14.12	21.30	5.07	-37.7	-48.0	4.1	3.02e+01	0	31	104	27787264	50	17243
2026-01-08 15:57:15.13	21.33	5.14	-40.0	-50.5	4.0	3.02e+01	0	31	104	27787264	54	18293
2026-01-08 15:57:16.14	21.35	5.22	-39.9	-50.5	4.0	3.02e+01	0	31	104	27787264	54	18141
2026-01-08 15:57:17.15	21.38	5.29	-47.6	-65.1	3.5	3.02e+01	0	31	104	27787264	60	69133
2026-01-08 15:57:18.15	21.41	5.37	-40.7	-51.5	3.5	3.02e+01	0	31	104	27787264	56	18167
2026-01-08 15:57:19.16	21.44	5.44	-47.5	-64.0	3.5	3.02e+01	0	31	104	27787264	60	61053
2026-01-08 15:57:20.17	21.46	5.52	-39.0	-49.6	3.5	3.02e+01	0	31	104	27787264	54	16352
2026-01-08 15:57:21.18	21.49	5.60	-38.3	-48.8	3.5	3.02e+01	0	31	104	27787264	52	16715
2026-01-08 15:57:22.19	21.52	5.67	-38.0	-48.5	3.5	3.02e+01	0	31	104	27787264	52	16258
2026-01-08 15:57:23.20	21.55	5.75	-37.4	-47.8	3.5	3.02e+01	0	31	104	27787264	50	16737
2026-01-08 15:57:24.21	21.58	5.83	-38.5	-49.0	3.5	3.02e+01	0	31	104	27787264	50	19224
2026-01-08 15:57:25.22	21.61	5.90	-39.1	-49.6	3.6	3.02e+01	0	31	104	27787264	54	16445
2026-01-08 15:57:26.23	21.63	5.98	-47.6	-65.2	3.5	3.02e+01	0	31	104	27787264	60	70411
2026-01-08 15:57:27.24	21.66	6.06	-39.9	-50.7	3.5	3.02e+01	0	31	104	27787264	56	16533
2026-01-08 15:57:28.25	21.69	6.14	-47.5	-63.7	3.5	3.02e+01	0	31	104	27787264	60	58658
2026-01-08 15:57:29.26	21.72	6.21	-38.8	-49.3	3.5	3.02e+01	0	31	104	27787264	52	17780
2026-01-08 15:57:30.26	21.75	6.29	-38.5	-48.9	3.5	3.02e+01	0	31	104	27787264	52	17046
2026-01-08 15:57:31.27	21.78	6.37	-37.8	-48.3	3.5	3.02e+01	0	31	104	27787264	50	17702
2026-01-08 15:57:32.28	21.81	6.45	-37.7	-48.0	3.5	3.02e+01	0	31	104	27787264	50	17229
2026-01-08 15:57:33.29	21.84	6.53	-40.2	-50.8	3.5	3.02e+01	0	31	104	27787264	54	18814
2026-01-08 15:57:34.30	21.87	6.61	-38.4	-48.9	3.5	3.02e+01	0	31	104	27787264	52	16919
2026-01-08 15:57:35.31	21.90	6.69	-47.8	-65.5	3.5	3.02e+01	0	31	104	27787264	60	72193
2026-01-08 15:57:36.32	21.93	6.77	-38.3	-48.7	3.5	3.02e+01	0	31	104	27787264	52	16616
2026-01-08 15:57:37.33	21.96	6.85	-47.4	-63.2	3.5	3.02e+01	0	31	104	27787264	60	55830
2026-01-08 15:57:38.34	21.99	6.93	-38.5	-49.0	3.5	3.02e+01	0	31	104	27787264	52	17180
2026-01-08 15:57:39.35	22.02	7.01	-38.3	-48.8	3.5	3.02e+01	0	31	104	27787264	52	16723
2026-01-08 15:57:40.36	22.05	7.09	-38.1	-48.5	3.5	3.02e+01	0	31	104	27787264	52	16191
2026-01-08 15:57:41.37	22.08	7.17	-37.2	-47.5	3.5	3.02e+01	0	31	104	27787264	50	16254
2026-01-08 15:57:42.38	22.11	7.25	-39.7	-50.4	3.5	3.02e+01	0	31	104	27787264	54	17899
2026-01-08 15:57:43.38	22.14	7.34	-38.3	-48.6	3.5	3.02e+01	0	31	104	27787264	52	16502
2026-01-08 15:57:44.39	22.17	7.42	-47.9	-65.7	3.5	3.02e+01	0	31	104	27787264	60	74487
2026-01-08 15:57:45.40	22.20	7.50	-37.7	-48.0	3.5	3.02e+01	0	31	104	27787264	50	17234
2026-01-08 15:57:46.41	22.24	7.58	-46.6	-60.6	3.5	3.02e+01	0	31	104	27787264	60	41049
2026-01-08 15:57:47.42	22.27	7.67	-38.5	-48.9	3.5	3.02e+01	0	31	104	27787264	52	17065
2026-01-08 15:57:48.42	22.30	7.75	-37.7	-48.0	3.5	3.02e+01	0	32	104	27787264	50	17284
2026-01-08 15:57:49.43	22.33	7.83	-37.3	-47.6	3.5	3.02e+01	0	31	104	27787264	50	16379
2026-01-08 15:57:50.44	22.36	7.92	-37.9	-48.3	3.5	3.02e+01	0	31	104	27787264	50	17795
2026-01-08 15:57:51.45	22.40	8.00	-41.3	-52.1	3.5	3.02e+01	0	31	104	27787264	60	15530
2026-01-08 15:57:52.46	22.43	8.09	-41.5	-52.4	3.5	3.02e+01	0	31	104	27787264	60	16114
2026-01-08 15:57:53.47	22.46	8.17	-47.0	-61.7	3.5	3.02e+01	0	31	104	27787264	60	46763
2026-01-08 15:57:54.48	22.49	8.26	-40.5	-51.2	3.5	3.02e+01	0	32	104	27787264	56	17584
2026-01-08 15:57:55.49	22.53	8.34	-47.7	-64.6	3.5	3.02e+01	0	31	104	27787264	60	65665
2026-01-08 15:57:56.50	22.56	8.43	-43.3	-54.7	3.5	3.02e+01	0	31	104	27787264	60	20834
2026-01-08 15:57:57.51	22.59	8.51	-42.3	-53.3	3.5	3.02e+01	0	32	104	27787264	60	17703
2026-01-08 15:57:58.52	22.63	8.60	-42.3	-53.3	3.5	3.02e+01	0	31	104	27787264	60	17873
2026-01-08 15:57:59.52	22.66	8.69	-39.1	-49.6	3.5	3.02e+01	0	31	104	27787264	52	18429
2026-01-08 15:58:00.53	22.70	8.77	-44.0	-55.7	3.6	3.02e+01	0	31	104	27787264	58	26351
2026-01-08 15:58:01.54	22.73	8.86	-41.9	-52.8	3.6	3.02e+01	0	32	104	27787264	60	16844
2026-01-08 15:58:02.55	22.76	8.95	-37.3	-47.7	3.5	3.02e+01	0	31	104	27787264	52	14781
2026-01-08 15:58:03.56	22.80	9.04	-40.9	-51.7	3.4	3.02e+01	0	31	104	27787264	48	29456
2026-01-08 15:58:04.57	22.83	9.13	-46.4	-60.0	3.6	3.02e+01	0	32	104	27787264	60	38674
2026-01-08 15:58:05.58	22.87	9.21	-37.1	-47.3	3.5	3.02e+01	0	32	104	27787264	48	17851
2026-01-08 15:58:06.59	22.90	9.30	-37.3	-47.6	3.5	3.02e+01	0	31	104	27787264	48	18525
2026-01-08 15:58:07.60	22.94	9.39	-36.3	-46.6	3.5	3.02e+01	0	31	104	27787264	48	16445
2026-01-08 15:58:08.60	22.98	9.48	-37.3	-47.7	3.5	3.02e+01	0	31	104	27787264	46	20800
2026-01-08 15:58:09.61	23.01	9.57	-36.1	-46.4	3.5	3.02e+01	0	32	104	27787264	48	16026
2026-01-08 15:58:10.62	23.05	9.66	-41.8	-52.7	3.5	3.02e+01	0	32	104	27787264	56	20956
2026-01-08 15:58:11.63	23.08	9.75	-42.6	-53.7	3.5	3.02e+01	0	31	104	27787264	60	18736
2026-01-08 15:58:12.64	23.12	9.85	-42.1	-53.2	3.5	3.02e+01	0	32	104	27787264	50	31137
2026-01-08 15:58:13.65	23.16	9.94	-41.2	-52.0	3.3	3.02e+01	0	32	104	27787264	60	15373
2026-01-08 15:58:14.66	23.19	10.03	-37.9	-48.3	3.5	3.02e+01	0	32	104	27787264	50	17866
2026-01-08 15:58:15.67	23.23	10.12	-37.1	-47.3	3.5	3.02e+01	0	32	104	27787264	50	15912
2026-01-08 15:58:16.68	23.27	10.22	-36.5	-46.8	3.5	3.02e+01	0	32	104	27787264	48	16811
2026-01-08 15:58:17.69	23.31	10.31	-44.7	-56.9	3.5	3.02e+01	0	32	104	27787264	56	33848
2026-01-08 15:58:18.70	23.34	10.40	-42.2	-53.3	3.5	3.02e+01	0	32	104	27787264	60	17834
2026-01-08 15:58:19.71	23.38	10.50	-47.6	-63.0	3.5	3.02e+01	0	31	104	27787264	60	54599
2026-01-08 15:58:20.72	23.42	10.59	-45.1	-57.5	3.5	3.02e+01	0	32	104	27787264	60	28845
2026-01-08 15:58:21.73	23.46	10.69	-44.6	-56.6	3.5	3.02e+01	0	31	104	27787264	58	29328
2026-01-08 15:58:22.73	23.50	10.78	-44.3	-56.0	3.5	3.02e+01	0	31	104	27787264	60	24413
2026-01-08 15:58:23.74	23.54	10.88	-42.3	-53.4	3.5	3.02e+01	0	31	104	27787264	60	17966
2026-01-08 15:58:24.75	23.58	10.97	-42.0	-52.9	3.5	3.02e+01	0	32	104	27787264	58	19078
2026-01-08 15:58:25.76	23.62	11.07	-41.7	-52.5	3.5	3.02e+01	0	32	104	27787264	58	18243
2026-01-08 15:58:26.77	23.66	11.17	-38.7	-49.1	3.5	3.02e+01	0	31	104	27787264	54	15581
2026-01-08 15:58:27.78	23.70	11.26	-47.0	-62.0	3.5	3.02e+01	0	31	104	27787264	60	48633
2026-01-08 15:58:28.79	23.74	11.36	-40.2	-50.9	3.5	3.02e+01	0	32	104	27787264	56	16988
2026-01-08 15:58:29.80	23.78	11.46	-35.7	-45.9	3.5	3.02e+01	0	32	104	27787264	46	16934
2026-01-08 15:58:30.81	23.82	11.56	-47.5	-65.5	3.5	3.02e+01	0	32	104	27787264	60	72716
2026-01-08 15:58:31.82	23.86	11.66	-39.0	-49.4	3.5	3.02e+01	0	32	104	27787264	56	14327
2026-01-08 15:58:32.83	23.90	11.76	-36.1	-46.3	3.5	3.02e+01	0	32	104	27787264	48	15896
2026-01-08 15:58:33.84	23.94	11.86	-36.1	-46.3	3.5	3.02e+01	0	32	104	27787264	46	17845
2026-01-08 15:58:34.84	23.98	11.95	-35.5	-45.7	3.5	3.02e+01	0	32	104	27787264	46	16540
2026-01-08 15:58:35.85	24.03	12.06	-47.5	-62.8	3.5	3.02e+01	0	32	104	27787264	60	53391
2026-01-08 15:58:36.86	24.07	12.16	-40.4	-51.0	3.5	3.02e+01	0	32	104	27787264	56	17253
2026-01-08 15:58:37.87	24.11	12.26	-48.0	-64.8	3.5	3.02e+01	0	32	104	27787264	60	66738
2026-01-08 15:58:38.88	24.15	12.36	-38.9	-49.4	3.4	3.02e+01	0	32	104	27787264	54	16103
2026-01-08 15:58:39.89	24.20	12.46	-47.5	-62.4	3.5	3.02e+01	0	32	104	27787264	60	51008
2026-01-08 15:58:40.90	24.24	12.57	-37.9	-48.4	3.5	3.02e+01	0	32	104	27787264	52	15981
2026-01-08 15:58:41.91	24.28	12.67	-37.3	-47.7	3.5	3.02e+01	0	32	104	27787264	50	16698
2026-01-08 15:58:42.92	24.33	12.77	-37.2	-47.6	3.5	3.02e+01	0	32	104	27787264	50	16371
2026-01-08 15:58:43.93	24.37	12.88	-37.2	-47.6	3.5	3.02e+01	0	32	104	27787264	50	16328
2026-01-08 15:58:44.94	24.42	12.98	-47.2	-61.8	3.5	3.02e+01	0	32	104	27787264	60	47331
2026-01-08 15:58:45.95	24.46	13.09	-40.0	-50.6	3.5	3.02e+01	0	32	104	27787264	56	16499
2026-01-08 15:58:46.96	24.51	13.20	-47.9	-64.5	3.5	3.02e+01	0	32	104	27787264	60	64484
2026-01-08 15:58:47.97	24.55	13.30	-42.6	-53.7	3.5	3.02e+01	0	32	104	27787264	60	18679
2026-01-08 15:58:48.98	24.60	13.41	-48.1	-65.0	3.5	3.02e+01	0	32	104	27787264	60	68599
2026-01-08 15:58:49.99	24.65	13.52	-39.9	-50.3	3.5	3.02e+01	0	32	104	27787264	56	15830
2026-01-08 15:58:51.00	24.69	13.62	-38.9	-49.3	3.4	3.02e+01	0	32	104	27787264	54	15827
2026-01-08 15:58:52.01	24.74	13.73	-37.5	-47.8	3.5	3.02e+01	0	32	104	27787264	50	16707
2026-01-08 15:58:53.02	24.79	13.84	-36.7	-47.0	3.5	3.02e+01	0	32	104	27787264	48	17148
2026-01-08 15:58:54.03	24.84	13.95	-47.5	-62.8	3.5	3.02e+01	0	32	104	27787264	60	53318
2026-01-08 15:58:55.04	24.88	14.06	-39.6	-50.1	3.5	3.02e+01	0	32	104	27787264	54	17481
2026-01-08 15:58:56.04	24.93	14.17	-48.0	-64.1	3.5	3.02e+01	0	32	104	27787264	60	61527
2026-01-08 15:58:57.06	24.98	14.28	-38.5	-48.9	3.5	3.02e+01	0	32	104	27787264	52	16954
2026-01-08 15:58:58.06	25.03	14.39	-48.0	-64.9	3.5	3.02e+01	0	32	104	27787264	60	67890
2026-01-08 15:58:59.07	25.08	14.51	-36.9	-47.2	3.5	3.02e+01	0	32	104	27787264	50	15642
2026-01-08 15:59:00.08	25.13	14.62	-36.6	-46.8	3.5	3.02e+01	0	32	104	27787264	48	16848
2026-01-08 15:59:01.10	25.18	14.73	-36.5	-46.8	3.5	3.02e+01	0	32	104	27787264	48	16711
2026-01-08 15:59:02.10	25.23	14.85	-36.5	-46.7	3.5	3.02e+01	0	32	104	27787264	48	16641
2026-01-08 15:59:03.11	25.28	14.96	-39.4	-50.0	3.5	3.02e+01	0	32	104	27787264	52	19216
2026-01-08 15:59:04.12	25.33	15.08	-39.5	-50.1	3.5	3.02e+01	0	32	104	27787264	52	19581
2026-01-08 15:59:05.13	25.39	15.19	-47.9	-64.1	3.5	3.02e+01	0	32	104	27787264	60	62041
2026-01-08 15:59:06.14	25.44	15.31	-38.4	-48.9	3.5	3.02e+01	0	32	104	27787264	52	16980
2026-01-08 15:59:07.15	25.49	15.43	-48.0	-64.1	3.5	3.02e+01	0	32	104	27787264	60	61896
2026-01-08 15:59:08.16	25.54	15.54	-36.8	-47.1	3.5	3.02e+01	0	32	104	27787264	48	17402
2026-01-08 15:59:09.16	25.60	15.66	-36.8	-47.1	3.5	3.02e+01	0	32	104	27787264	48	17363
2026-01-08 15:59:10.17	25.65	15.78	-35.9	-46.2	3.5	3.02e+01	0	31	104	27787264	48	15610
2026-01-08 15:59:11.18	25.70	15.90	-35.6	-45.7	3.6	3.02e+01	0	32	104	27787264	46	16687
2026-01-08 15:59:12.19	25.76	16.02	-35.8	-46.0	3.5	3.02e+01	0	32	104	27787264	44	19249
2026-01-08 15:59:13.20	25.81	16.14	-41.9	-52.9	3.6	3.02e+01	0	32	104	27787264	60	16924
2026-01-08 15:59:14.21	25.87	16.26	-48.4	-65.9	3.5	3.02e+01	0	32	104	27787264	60	76275
2026-01-08 15:59:15.22	25.93	16.38	-41.2	-52.0	3.5	3.02e+01	0	32	104	27787264	60	15299
2026-01-08 15:59:16.23	25.98	16.51	-47.9	-63.5	3.5	3.02e+01	0	32	104	27787264	60	57444
2026-01-08 15:59:17.23	26.04	16.63	-41.7	-52.5	3.5	3.02e+01	0	32	104	27787264	60	16232
2026-01-08 15:59:18.25	26.10	16.75	-40.5	-51.1	3.5	3.02e+01	0	31	104	27787264	56	17399
2026-01-08 15:59:19.26	26.15	16.88	-39.7	-50.2	3.6	3.02e+01	0	32	104	27787264	54	17517
2026-01-08 15:59:20.27	26.21	17.00	-38.8	-49.2	3.6	3.02e+01	0	32	104	27787264	52	17504
2026-01-08 15:59:21.28	26.27	17.13	-44.7	-56.6	3.5	3.02e+01	0	32	104	27787264	60	26022
2026-01-08 15:59:22.28	26.33	17.26	-37.7	-48.1	3.5	3.02e+01	0	32	104	27787264	52	15491
2026-01-08 15:59:23.29	26.39	17.38	-48.0	-64.2	3.5	3.02e+01	0	32	104	27787264	60	62501
2026-01-08 15:59:24.30	26.45	17.51	-36.9	-47.2	3.5	3.02e+01	0	32	104	27787264	50	15684
2026-01-08 15:59:25.31	26.51	17.64	-47.6	-63.7	3.6	3.02e+01	0	32	104	27787264	60	59173
2026-01-08 15:59:26.32	26.57	17.77	-36.6	-46.9	3.5	3.02e+01	0	32	104	27787264	48	16943
2026-01-08 15:59:27.33	26.63	17.90	-36.5	-46.7	3.5	3.02e+01	0	32	104	27787264	48	16587
2026-01-08 15:59:28.34	26.70	18.03	-36.5	-46.7	3.5	3.02e+01	0	32	104	27787264	48	16621
2026-01-08 15:59:29.35	26.76	18.16	-36.1	-46.3	3.5	3.02e+01	0	32	104	27787264	48	15949
2026-01-08 15:59:30.36	26.82	18.30	-40.7	-51.3	3.5	3.02e+01	0	32	104	27787264	56	17868
2026-01-08 15:59:31.37	26.89	18.43	-36.7	-47.0	3.4	3.02e+01	0	32	104	27787264	50	15308
2026-01-08 15:59:32.38	26.95	18.56	-48.1	-65.5	3.5	3.02e+01	0	32	104	27787264	60	72610
2026-01-08 15:59:33.38	27.01	18.70	-35.6	-45.8	3.6	3.02e+01	0	32	104	27787264	46	16775
2026-01-08 15:59:34.39	27.08	18.83	-46.7	-60.4	3.5	3.02e+01	0	32	104	27787264	60	40149
2026-01-08 15:59:35.40	27.15	18.97	-36.4	-46.6	3.5	3.02e+01	0	32	104	27787264	48	16464
2026-01-08 15:59:36.41	27.21	19.11	-35.7	-46.0	3.5	3.02e+01	0	32	104	27787264	46	17116
2026-01-08 15:59:37.42	27.28	19.24	-35.6	-45.8	3.5	3.02e+01	0	32	104	27787264	46	16749
2026-01-08 15:59:38.43	27.35	19.38	-35.1	-45.3	3.6	3.02e+01	0	32	104	27787264	46	15859
2026-01-08 15:59:39.44	27.42	19.52	-39.6	-50.2	3.6	3.02e+01	0	32	104	27787264	54	17517
2026-01-08 15:59:40.45	27.49	19.66	-37.0	-47.3	3.5	3.02e+01	0	32	104	27787264	50	15787
2026-01-08 15:59:41.46	27.56	19.81	-48.3	-65.4	3.5	3.02e+01	0	32	104	27787264	60	71343
2026-01-08 15:59:42.47	27.63	19.95	-39.1	-49.6	3.5	3.02e+01	0	32	104	27787264	56	14556
2026-01-08 15:59:43.48	27.70	20.09	-48.1	-64.1	3.5	3.02e+01	0	32	104	27787264	60	61740
2026-01-08 15:59:44.49	27.77	20.23	-42.3	-53.1	3.5	3.02e+01	0	32	104	27787264	60	17445
2026-01-08 15:59:45.50	27.84	20.38	-40.6	-51.1	3.5	3.02e+01	0	32	104	27787264	56	17424
2026-01-08 15:59:46.51	27.92	20.53	-39.9	-50.3	3.6	3.02e+01	0	32	104	27787264	54	17870
2026-01-08 15:59:47.52	27.99	20.67	-38.9	-49.2	3.5	3.02e+01	0	32	104	27787264	52	17604
2026-01-08 15:59:48.52	28.06	20.82	-39.2	-49.7	3.5	3.02e+01	0	32	104	27787264	52	18570
2026-01-08 15:59:49.53	28.14	20.97	-37.1	-47.4	3.4	3.02e+01	0	32	104	27787264	48	18085
2026-01-08 15:59:50.54	28.21	21.12	-48.2	-65.0	3.6	3.02e+01	0	32	104	27787264	60	68407
2026-01-08 15:59:51.55	28.29	21.27	-37.2	-47.5	3.5	3.02e+01	0	32	104	27787264	46	20532
2026-01-08 15:59:52.56	28.37	21.42	-43.4	-54.7	3.5	3.02e+01	0	32	104	27787264	60	20905
2026-01-08 15:59:53.57	28.45	21.57	-36.7	-46.9	3.5	3.02e+01	0	32	104	27787264	48	17060
2026-01-08 15:59:54.58	28.53	21.72	-36.8	-47.0	3.5	3.02e+01	0	32	104	27787264	48	17204
2026-01-08 15:59:55.59	28.61	21.88	-36.2	-46.4	3.5	3.02e+01	0	32	104	27787264	48	16033
2026-01-08 15:59:56.60	28.69	22.03	-36.0	-46.2	3.5	3.02e+01	0	32	104	27787264	46	17621
2026-01-08 15:59:57.61	28.77	22.19	-38.7	-49.1	3.5	3.02e+01	0	32	104	27787264	50	19550
2026-01-08 15:59:58.62	28.85	22.35	-41.2	-51.8	3.5	3.02e+01	0	32	104	27787264	48	29899
2026-01-08 15:59:59.63	28.93	22.50	-44.2	-55.9	3.6	3.02e+01	0	32	104	27787264	60	23882
2026-01-08 16:00:00.63	29.02	22.66	-38.0	-48.3	3.5	3.02e+01	0	32	104	27787264	46	22449
2026-01-08 16:00:01.64	29.10	22.82	-42.2	-53.2	3.5	3.02e+01	0	32	104	27787264	60	17574
2026-01-08 16:00:02.65	29.19	22.98	-36.4	-46.7	3.5	3.02e+01	0	32	104	27787264	48	16524
2026-01-08 16:00:03.66	29.27	23.14	-35.8	-46.0	3.5	3.02e+01	0	32	104	27787264	46	17254
2026-01-08 16:00:04.66	29.36	23.31	-35.3	-45.5	3.5	3.02e+01	0	32	104	27787264	46	16281
2026-01-08 16:00:05.67	29.45	23.47	-37.6	-48.0	3.5	3.02e+01	0	32	104	27787264	46	21568
2026-01-08 16:00:06.68	29.54	23.64	-40.8	-51.5	3.5	3.02e+01	0	32	104	27787264	56	18226
2026-01-08 16:00:07.69	29.63	23.80	-43.1	-54.2	3.5	3.02e+01	0	32	104	27787264	52	31376
2026-01-08 16:00:08.70	29.72	23.97	-44.1	-55.7	3.5	3.02e+01	0	32	104	27787264	60	23390
2026-01-08 16:00:09.71	29.81	24.14	-45.0	-56.9	3.5	3.02e+01	0	31	104	27787264	56	33719
2026-01-08 16:00:10.72	29.90	24.31	-44.4	-55.9	3.5	3.02e+01	0	32	104	27787264	60	23910
2026-01-08 16:00:11.73	30.00	24.48	-42.1	-52.9	3.5	3.02e+01	0	32	104	27787264	60	17006
2026-01-08 16:00:12.73	30.09	24.65	-42.5	-53.5	3.6	3.02e+01	0	32	104	27787264	60	18164
2026-01-08 16:00:13.74	30.19	24.82	-40.8	-51.4	3.4	3.02e+01	0	32	104	27787264	58	16060
2026-01-08 16:00:14.75	30.28	25.00	-37.8	-48.1	3.5	3.02e+01	0	32	104	27787264	52	15579
2026-01-08 16:00:15.76	30.38	25.17	-39.2	-49.7	3.5	3.02e+01	0	32	104	27787264	50	20977
2026-01-08 16:00:16.77	30.48	25.35	-48.1	-64.4	3.5	3.02e+01	0	31	104	27787264	60	63533
2026-01-08 16:00:17.78	30.58	25.53	-39.6	-50.1	3.5	3.02e+01	0	32	104	27787264	58	13871
2026-01-08 16:00:18.79	30.68	25.71	-44.9	-56.7	3.4	3.02e+01	0	32	104	27787264	56	32972
2026-01-08 16:00:19.80	30.79	25.89	-38.8	-49.1	3.5	3.02e+01	0	32	104	27787264	54	15463
2026-01-08 16:00:20.81	30.89	26.07	-37.0	-47.2	3.5	3.02e+01	0	32	104	27787264	48	17691
2026-01-08 16:00:21.81	31.00	26.25	-36.6	-46.8	3.5	3.02e+01	0	32	104	27787264	48	16860
2026-01-08 16:00:22.82	31.10	26.44	-36.4	-46.6	3.5	3.02e+01	0	32	104	27787264	48	16497
2026-01-08 16:00:23.83	31.21	26.62	-36.8	-47.2	3.5	3.02e+01	0	32	104	27787264	46	19705
2026-01-08 16:00:24.84	31.32	26.81	-37.6	-48.0	3.5	3.02e+01	0	32	104	27787264	46	21574
2026-01-08 16:00:25.85	31.43	27.00	-48.2	-64.4	3.5	3.02e+01	0	32	104	27787264	60	63654
2026-01-08 16:00:26.86	31.54	27.19	-38.6	-49.0	3.5	3.02e+01	0	32	104	27787264	52	17102
2026-01-08 16:00:27.87	31.65	27.38	-47.8	-62.9	3.5	3.02e+01	0	32	104	27787264	60	53813
2026-01-08 16:00:28.88	31.77	27.57	-38.2	-48.6	3.5	3.02e+01	0	32	104	27787264	54	14594
2026-01-08 16:00:29.89	31.88	27.76	-36.4	-46.7	3.5	3.02e+01	0	32	104	27787264	48	16610
2026-01-08 16:00:30.90	32.00	27.96	-36.2	-46.4	3.5	3.02e+01	0	32	104	27787264	48	16103
2026-01-08 16:00:31.91	32.12	28.15	-36.2	-46.4	3.5	3.02e+01	0	32	104	27787264	48	16051
2026-01-08 16:00:32.92	32.24	28.35	-42.4	-53.4	3.5	3.02e+01	0	32	104	27787264	56	22562
2026-01-08 16:00:33.93	32.36	28.55	-40.3	-51.0	3.5	3.02e+01	0	32	104	27787264	56	17152
2026-01-08 16:00:34.94	32.48	28.75	-48.1	-64.1	3.5	3.02e+01	0	31	104	27787264	60	61734
2026-01-08 16:00:35.94	32.61	28.95	-42.2	-53.2	3.5	3.02e+01	0	32	104	27787264	60	17592
2026-01-08 16:00:36.96	32.73	29.15	-48.4	-65.4	3.5	3.02e+01	0	32	104	27787264	60	71996
2026-01-08 16:00:37.96	32.86	29.36	-39.1	-49.5	3.5	3.02e+01	0	32	104	27787264	54	16269
2026-01-08 16:00:38.97	32.99	29.56	-37.8	-48.0	3.5	3.02e+01	0	32	104	27787264	50	17231
2026-01-08 16:00:39.98	33.12	29.77	-36.8	-47.0	3.5	3.02e+01	0	32	104	27787264	48	17249
2026-01-08 16:00:40.99	33.25	29.98	-36.6	-46.8	3.5	3.02e+01	0	32	104	27787264	48	16819
2026-01-08 16:00:42.00	33.39	30.19	-43.3	-54.6	3.5	3.02e+01	0	32	104	27787264	60	20597
2026-01-08 16:00:43.01	33.52	30.40	-40.0	-50.5	3.6	3.02e+01	0	32	104	27787264	56	16234
2026-01-08 16:00:44.02	33.66	30.62	-48.0	-63.8	3.5	3.02e+01	0	32	104	27787264	60	59755
2026-01-08 16:00:45.03	33.80	30.83	-38.7	-49.1	3.5	3.02e+01	0	32	104	27787264	52	17458
2026-01-08 16:00:46.04	33.94	31.05	-48.1	-63.7	3.5	3.02e+01	0	32	104	27787264	60	59215
2026-01-08 16:00:47.05	34.08	31.27	-36.6	-46.8	3.5	3.02e+01	0	32	104	27787264	48	16860
2026-01-08 16:00:48.06	34.23	31.49	-36.2	-46.3	3.5	3.02e+01	0	32	104	27787264	48	15918
2026-01-08 16:00:49.07	34.38	31.71	-35.3	-45.5	3.5	3.02e+01	0	32	104	27787264	46	16174
2026-01-08 16:00:50.08	34.53	31.93	-35.2	-45.4	3.6	3.02e+01	0	32	104	27787264	46	15959
2026-01-08 16:00:51.08	34.68	32.15	-37.8	-48.2	3.5	3.02e+01	0	32	104	27787264	48	19694
2026-01-08 16:00:52.09	34.83	32.38	-39.5	-50.1	3.5	3.02e+01	0	32	104	27787264	54	17297
2026-01-08 16:00:53.10	34.99	32.61	-48.2	-63.8	3.5	3.02e+01	0	32	104	27787264	60	59350
2026-01-08 16:00:54.11	35.14	32.84	-39.4	-49.8	3.5	3.02e+01	0	32	104	27787264	52	18886
2026-01-08 16:00:55.12	35.30	33.07	-48.1	-64.0	3.5	3.02e+01	0	32	104	27787264	60	60996
2026-01-08 16:00:56.13	35.47	33.30	-36.9	-47.2	3.5	3.02e+01	0	32	104	27787264	50	15672
2026-01-08 16:00:57.14	35.63	33.53	-37.3	-47.6	3.5	3.02e+01	0	32	104	27787264	48	18450
2026-01-08 16:00:58.15	35.80	33.77	-36.4	-46.6	3.5	3.02e+01	0	32	104	27787264	48	16489
2026-01-08 16:00:59.16	35.97	34.01	-36.5	-46.8	3.5	3.02e+01	0	32	104	27787264	48	16780
2026-01-08 16:01:00.16	36.14	34.25	-38.5	-48.8	3.5	3.02e+01	0	32	104	27787264	50	18828
2026-01-08 16:01:01.18	36.32	34.49	-39.8	-50.3	3.5	3.02e+01	0	32	104	27787264	54	17809
2026-01-08 16:01:02.19	36.49	34.73	-48.3	-64.2	3.5	3.02e+01	0	32	104	27787264	60	62661
2026-01-08 16:01:03.19	36.67	34.97	-42.5	-53.6	3.5	3.02e+01	0	32	104	27787264	60	18499
2026-01-08 16:01:04.20	36.86	35.22	-48.5	-65.7	3.5	3.02e+01	0	32	104	27787264	60	74526
2026-01-08 16:01:05.21	37.04	35.47	-42.9	-53.9	3.5	3.02e+01	0	32	104	27787264	60	19127
2026-01-08 16:01:06.22	37.23	35.72	-42.0	-52.9	3.5	3.02e+01	0	32	104	27787264	58	18987
2026-01-08 16:01:07.23	37.42	35.97	-41.8	-52.6	3.5	3.02e+01	0	32	104	27787264	58	18405
2026-01-08 16:01:08.24	37.62	36.22	-41.1	-51.7	3.6	3.02e+01	0	32	104	27787264	58	16565
2026-01-08 16:01:09.25	37.81	36.48	-38.8	-49.1	3.5	3.02e+01	0	32	104	27787264	50	19613
2026-01-08 16:01:10.26	38.01	36.74	-48.6	-66.0	3.5	3.02e+01	0	32	104	27787264	60	77135
2026-01-08 16:01:11.27	38.22	37.00	-43.8	-55.3	3.5	3.02e+01	0	32	104	27787264	60	22306
2026-01-08 16:01:12.28	38.42	37.26	-37.0	-47.3	3.5	3.02e+01	0	32	104	27787264	50	15910
2026-01-08 16:01:13.29	38.64	37.52	-48.3	-64.9	3.5	3.02e+01	0	32	104	27787264	60	67871
2026-01-08 16:01:14.30	38.85	37.78	-37.4	-47.7	3.5	3.02e+01	0	32	104	27787264	50	16622
2026-01-08 16:01:15.31	39.07	38.05	-37.2	-47.5	3.5	3.02e+01	0	32	104	27787264	50	16294
2026-01-08 16:01:16.32	39.29	38.32	-37.1	-47.5	3.5	3.02e+01	0	32	104	27787264	48	18122
2026-01-08 16:01:17.33	39.51	38.59	-36.9	-47.2	3.5	3.02e+01	0	32	104	27787264	48	17687
2026-01-08 16:01:18.34	39.74	38.86	-43.2	-54.5	3.5	3.02e+01	0	32	104	27787264	60	20428
2026-01-08 16:01:19.34	39.97	39.13	-43.0	-54.2	3.5	3.02e+01	0	32	104	27787264	60	19825
2026-01-08 16:01:20.35	40.21	39.40	-47.4	-63.7	3.5	3.02e+01	0	32	104	27787264	60	58938
2026-01-08 16:01:21.36	40.45	39.68	-38.0	-48.4	3.6	3.02e+01	0	32	104	27787264	52	16057
2026-01-08 16:01:22.37	40.69	39.96	-47.7	-64.6	3.5	3.02e+01	0	32	104	27787264	60	65106
2026-01-08 16:01:23.38	40.94	40.24	-40.4	-51.0	3.5	3.02e+01	0	32	104	27787264	56	17210
2026-01-08 16:01:24.39	41.19	40.52	-38.9	-49.3	3.5	3.02e+01	0	32	104	27787264	54	15902
2026-01-08 16:01:25.40	41.45	40.81	-37.6	-47.8	3.5	3.02e+01	0	32	104	27787264	50	16704
2026-01-08 16:01:26.41	41.71	41.09	-38.1	-48.4	3.5	3.02e+01	0	32	104	27787264	50	18072
2026-01-08 16:01:27.42	41.98	41.38	-47.5	-62.0	3.5	3.02e+01	0	32	104	27787264	60	48511
2026-01-08 16:01:28.43	42.25	41.67	-37.6	-47.8	3.5	3.02e+01	0	32	104	27787264	50	16852
2026-01-08 16:01:29.43	42.53	41.96	-48.5	-65.5	3.5	3.02e+01	0	32	104	27787264	60	72108
2026-01-08 16:01:30.44	42.81	42.25	-38.5	-49.0	3.5	3.02e+01	0	32	104	27787264	54	15381
2026-01-08 16:01:31.45	43.09	42.54	-48.0	-63.3	3.5	3.02e+01	0	32	104	27787264	60	56337
2026-01-08 16:01:32.46	43.39	42.84	-38.7	-49.1	3.5	3.02e+01	0	32	104	27787264	52	17304
2026-01-08 16:01:33.47	43.68	43.14	-37.7	-48.0	3.5	3.02e+01	0	32	104	27787264	52	15355
2026-01-08 16:01:34.48	43.99	43.44	-36.6	-46.8	3.5	3.02e+01	0	32	104	27787264	48	16852
2026-01-08 16:01:35.49	44.30	43.74	-37.1	-47.4	3.5	3.02e+01	0	32	104	27787264	48	17973
2026-01-08 16:01:36.50	44.61	44.04	-43.4	-54.8	3.6	3.02e+01	0	32	104	27787264	60	21042
2026-01-08 16:01:37.51	44.93	44.34	-36.7	-46.9	3.5	3.02e+01	0	32	104	27787264	46	19003
2026-01-08 16:01:38.52	45.26	44.65	-48.2	-64.3	3.5	3.02e+01	0	32	104	27787264	60	62953
2026-01-08 16:01:39.53	45.59	44.96	-34.9	-45.0	3.5	3.02e+01	0	32	104	27787264	46	15380
2026-01-08 16:01:40.54	45.93	45.27	-46.2	-58.9	3.5	3.02e+01	0	32	104	27787264	60	33835
2026-01-08 16:01:41.54	46.27	45.57	-35.9	-46.0	3.5	3.02e+01	0	32	104	27787264	46	17216
2026-01-08 16:01:42.55	46.63	45.88	-35.5	-45.6	3.5	3.02e+01	0	32	104	27787264	46	16493
2026-01-08 16:01:43.56	46.99	46.20	-34.5	-44.6	3.5	3.02e+01	0	32	104	27787264	44	16428
2026-01-08 16:01:44.57	47.36	46.51	-35.0	-45.1	3.5	3.02e+01	0	32	104	27787264	44	17398
2026-01-08 16:01:45.58	47.73	46.83	-38.9	-49.4	3.5	3.02e+01	0	32	104	27787264	50	20092
2026-01-08 16:01:46.59	48.11	47.14	-40.1	-50.5	3.7	3.02e+01	0	32	104	27787264	48	25600
2026-01-08 16:01:47.60	48.51	47.46	-42.0	-53.0	3.5	3.02e+01	0	32	104	27787264	60	17110
2026-01-08 16:01:48.61	48.90	47.78	-37.4	-47.7	3.5	3.02e+01	0	32	104	27787264	44	23591
2026-01-08 16:01:49.62	49.31	48.10	-45.3	-57.4	3.6	3.02e+01	0	32	104	27787264	60	28462
2026-01-08 16:01:50.63	49.73	48.42	-39.2	-49.6	3.6	3.02e+01	0	32	104	27787264	52	18359
2026-01-08 16:01:51.64	50.15	48.74	-39.7	-50.2	3.5	3.02e+01	0	32	104	27787264	54	17553
2026-01-08 16:01:52.64	50.58	49.06	-39.0	-49.4	3.5	3.02e+01	0	32	104	27787264	54	16115
2026-01-08 16:01:53.65	51.02	49.38	-40.9	-51.7	3.5	3.02e+01	0	32	104	27787264	54	20945
2026-01-08 16:01:54.66	51.48	49.71	-42.2	-53.0	3.5	3.02e+01	0	32	104	27787264	60	17288
2026-01-08 16:01:55.67	51.94	50.03	-41.4	-52.1	3.5	3.02e+01	0	32	104	27787264	50	27468
2026-01-08 16:01:56.68	52.41	50.36	-44.2	-55.9	3.5	3.02e+01	0	32	104	27787264	60	23901
2026-01-08 16:01:57.69	52.89	50.68	-40.6	-51.1	3.5	3.02e+01	0	32	104	27787264	50	24634
2026-01-08 16:01:58.70	53.38	51.01	-43.9	-55.2	3.5	3.02e+01	0	32	104	27787264	60	22181
2026-01-08 16:01:59.71	53.89	51.33	-41.8	-52.6	3.5	3.02e+01	0	32	104	27787264	56	20714
2026-01-08 16:02:00.72	54.40	51.66	-39.1	-49.6	3.5	3.02e+01	0	32	104	27787264	54	16358
2026-01-08 16:02:01.73	54.93	51.98	-37.6	-47.8	3.6	3.02e+01	0	32	104	27787264	50	16816
2026-01-08 16:02:02.74	55.47	52.31	-34.8	-45.1	3.5	3.02e+01	0	32	104	27787264	46	15532
2026-01-08 16:02:03.75	56.01	52.63	-38.0	-48.2	3.5	3.02e+01	0	32	104	27787264	46	22195
2026-01-08 16:02:04.76	56.58	52.96	-46.2	-59.0	3.4	3.02e+01	0	32	104	27787264	58	38399
2026-01-08 16:02:05.76	57.15	53.28	-39.7	-50.2	3.5	3.02e+01	0	32	104	27787264	54	17502
2026-01-08 16:02:06.77	57.73	53.60	-47.6	-62.1	3.4	3.02e+01	0	32	104	27787264	60	48860
2026-01-08 16:02:07.79	58.34	53.93	-36.2	-46.4	3.5	3.02e+01	0	32	104	27787264	50	14325
2026-01-08 16:02:08.80	58.95	54.25	-35.2	-45.2	3.5	3.02e+01	0	32	104	27787264	46	15740
2026-01-08 16:02:09.81	59.58	54.57	-34.7	-44.8	3.5	3.02e+01	0	32	104	27787264	44	16851
2026-01-08 16:02:10.82	60.22	54.89	-34.7	-44.8	3.5	3.02e+01	0	32	104	27787264	44	16707
2026-01-08 16:02:11.82	60.87	55.20	-48.4	-64.9	3.5	3.02e+01	0	32	104	27787264	60	67673
2026-01-08 16:02:12.83	61.55	55.52	-43.3	-54.5	3.5	3.02e+01	0	32	104	27787264	60	20499
2026-01-08 16:02:13.84	62.23	55.83	-48.1	-64.1	3.5	3.02e+01	0	32	104	27787264	60	61504
2026-01-08 16:02:14.85	62.94	56.14	-38.8	-49.2	3.5	3.02e+01	0	32	104	27787264	52	17573
2026-01-08 16:02:15.86	63.65	56.45	-47.0	-60.6	3.5	3.02e+01	0	32	104	27787264	60	41195
2026-01-08 16:02:16.87	64.39	56.76	-42.4	-53.2	3.6	3.02e+01	0	32	104	27787264	60	17671
2026-01-08 16:02:17.88	65.14	57.06	-40.8	-51.3	3.5	3.02e+01	0	32	104	27787264	56	17885
2026-01-08 16:02:18.89	65.91	57.36	-40.9	-51.6	3.5	3.02e+01	0	32	104	27787264	56	18508
2026-01-08 16:02:19.90	66.69	57.66	-40.1	-50.5	3.5	3.02e+01	0	32	104	27787264	54	18231
2026-01-08 16:02:20.91	67.49	57.95	-47.3	-61.4	3.5	3.02e+01	0	32	104	27787264	60	45125
2026-01-08 16:02:21.92	68.31	58.24	-42.7	-53.9	3.5	3.02e+01	0	32	104	27787264	60	19041
2026-01-08 16:02:22.93	69.15	58.53	-48.5	-65.4	3.5	3.02e+01	0	32	104	27787264	60	71863
2026-01-08 16:02:23.93	70.00	58.81	-43.0	-54.2	3.5	3.02e+01	0	32	104	27787264	60	19629
2026-01-08 16:02:24.94	70.87	59.08	-48.4	-65.1	3.5	3.02e+01	0	32	104	27787264	60	69224
2026-01-08 16:02:25.95	71.76	59.36	-43.1	-54.2	3.5	3.02e+01	0	32	104	27787264	60	19737
2026-01-08 16:02:26.96	72.68	59.62	-42.9	-53.9	3.5	3.02e+01	0	32	104	27787264	60	19053
2026-01-08 16:02:27.97	73.61	59.88	-41.2	-52.0	3.5	3.02e+01	0	32	104	27787264	58	17116
2026-01-08 16:02:28.98	74.55	60.14	-41.4	-52.2	3.5	3.02e+01	0	32	104	27787264	58	17569
2026-01-08 16:02:29.99	75.52	60.39	-45.0	-56.8	3.5	3.02e+01	0	32	104	27787264	60	26739
2026-01-08 16:02:31.00	76.51	60.63	-48.5	-65.4	3.5	3.02e+01	0	32	104	27787264	60	71340
2026-01-08 16:02:32.01	77.51	60.87	-43.5	-54.9	3.5	3.02e+01	0	32	104	27787264	58	23962
2026-01-08 16:02:33.02	78.54	61.10	-42.2	-53.0	3.5	3.02e+01	0	32	104	27787264	56	21586
2026-01-08 16:02:34.03	79.58	61.32	-48.5	-65.8	3.5	3.02e+01	0	32	104	27787264	60	75265
2026-01-08 16:02:35.04	80.64	61.54	-38.3	-48.5	3.5	3.02e+01	0	32	104	27787264	52	16258
2026-01-08 16:02:36.04	81.71	61.75	-38.4	-48.8	3.5	3.02e+01	0	32	104	27787264	52	16755
2026-01-08 16:02:37.05	82.81	61.95	-37.7	-47.8	3.5	3.02e+01	0	32	104	27787264	50	16876
2026-01-08 16:02:38.06	83.93	62.14	-37.7	-48.2	3.5	3.02e+01	0	32	104	27787264	50	17522
2026-01-08 16:02:39.07	85.06	62.32	-48.5	-65.5	3.5	3.02e+01	0	32	104	27787264	60	72781
2026-01-08 16:02:40.08	86.21	62.49	-42.2	-52.9	3.5	3.02e+01	0	32	104	27787264	60	17091
2026-01-08 16:02:41.09	87.38	62.66	-48.4	-65.1	3.5	3.02e+01	0	32	104	27787264	60	69270
2026-01-08 16:02:42.10	88.56	62.81	-43.1	-54.0	3.5	3.02e+01	0	32	104	27787264	58	21683
2026-01-08 16:02:43.11	89.75	62.96	-48.4	-65.0	3.5	3.02e+01	0	32	104	27787264	60	68208
2026-01-08 16:02:44.12	90.96	63.09	-42.0	-52.7	3.5	3.02e+01	0	32	104	27787264	60	16604
2026-01-08 16:02:45.13	92.19	63.21	-41.1	-51.8	3.5	3.02e+01	0	32	104	27787264	58	16881
2026-01-08 16:02:46.13	93.41	63.33	-39.4	-49.7	3.5	3.02e+01	0	32	104	27787264	54	16607
2026-01-08 16:02:47.14	94.66	63.43	-38.6	-49.1	3.5	3.02e+01	0	32	104	27787264	52	17452
2026-01-08 16:02:48.15	95.92	63.52	-43.8	-55.0	3.5	3.02e+01	0	32	104	27787264	60	21636
2026-01-08 16:02:49.16	97.18	63.60	-42.2	-53.2	3.5	3.02e+01	0	32	104	27787264	60	17687
2026-01-08 16:02:50.17	98.46	63.67	-48.5	-65.2	3.5	3.02e+01	0	32	104	27787264	60	69704
2026-01-08 16:02:51.18	99.74	63.73	-45.0	-57.0	3.5	3.02e+01	0	32	104	27787264	60	27254
2026-01-08 16:02:52.19	101.03	63.78	-48.6	-65.6	3.5	3.02e+01	0	32	104	27787264	60	73005
2026-01-08 16:02:53.20	102.32	63.81	-43.2	-54.4	3.5	3.02e+01	0	32	104	27787264	60	20223
2026-01-08 16:02:54.21	103.62	63.83	-40.7	-51.1	3.6	3.02e+01	0	32	104	27787264	58	15442
2026-01-08 16:02:55.22	104.91	63.84	-39.7	-50.3	3.5	3.02e+01	0	32	104	27787264	54	17864
2026-01-08 16:02:56.23	106.21	63.84	-38.8	-49.1	3.5	3.02e+01	0	32	104	27787264	54	15577
2026-01-08 16:02:57.24	107.51	63.83	-44.7	-56.6	3.5	3.02e+01	0	32	104	27787264	60	25960
2026-01-08 16:02:58.25	108.81	63.81	-39.7	-49.9	3.5	3.02e+01	0	32	104	27787264	56	15189
2026-01-08 16:02:59.26	110.10	63.77	-48.5	-65.3	3.5	3.02e+01	0	32	104	27787264	60	71042
2026-01-08 16:03:00.27	111.39	63.72	-40.9	-51.5	3.5	3.02e+01	0	32	104	27787264	60	14411
2026-01-08 16:03:01.28	112.67	63.66	-48.4	-64.9	3.5	3.02e+01	0	32	104	27787264	60	67540
2026-01-08 16:03:02.29	113.94	63.59	-38.2	-48.7	3.5	3.02e+01	0	32	104	27787264	52	16621
2026-01-08 16:03:03.30	115.21	63.51	-37.3	-47.4	3.5	3.02e+01	0	32	104	27787264	50	16055
2026-01-08 16:03:04.31	116.47	63.42	-37.3	-47.8	3.5	3.02e+01	0	32	104	27787264	50	16808
2026-01-08 16:03:05.32	117.71	63.31	-37.3	-47.4	3.5	3.02e+01	0	32	104	27787264	50	16011
2026-01-08 16:03:06.33	118.95	63.20	-42.5	-53.5	3.5	3.02e+01	0	32	104	27787264	60	18125
2026-01-08 16:03:07.34	120.17	63.07	-42.4	-53.4	3.5	3.02e+01	0	32	104	27787264	60	17953
2026-01-08 16:03:08.35	121.38	62.94	-47.7	-62.4	3.6	3.02e+01	0	32	104	27787264	60	50902
2026-01-08 16:03:09.36	122.58	62.79	-37.9	-48.3	3.5	3.02e+01	0	32	104	27787264	52	15823
2026-01-08 16:03:10.37	123.76	62.64	-48.4	-65.2	3.5	3.02e+01	0	32	104	27787264	60	69699
2026-01-08 16:03:11.38	124.92	62.47	-38.4	-48.8	3.5	3.02e+01	0	32	104	27787264	52	16709
2026-01-08 16:03:12.39	126.07	62.30	-37.8	-48.1	3.5	3.02e+01	0	32	104	27787264	50	17354
2026-01-08 16:03:13.40	127.20	62.11	-37.3	-47.5	3.5	3.02e+01	0	32	104	27787264	50	16321
2026-01-08 16:03:14.41	128.32	61.92	-38.1	-48.8	3.5	3.02e+01	0	32	104	27787264	50	18881
2026-01-08 16:03:15.42	129.41	61.72	-48.5	-65.4	3.5	3.02e+01	0	32	104	27787264	60	71849
2026-01-08 16:03:16.43	130.49	61.51	-37.1	-47.3	3.5	3.02e+01	0	32	104	27787264	50	15810
2026-01-08 16:03:17.44	131.55	61.29	-48.5	-65.8	3.5	3.02e+01	0	32	104	27787264	60	74934
2026-01-08 16:03:18.45	132.59	61.07	-38.4	-48.8	3.5	3.02e+01	0	32	104	27787264	56	13339
2026-01-08 16:03:19.46	133.62	60.84	-48.1	-64.4	3.6	3.02e+01	0	32	104	27787264	60	64023
2026-01-08 16:03:20.47	134.62	60.60	-40.6	-51.3	3.5	3.02e+01	0	32	104	27787264	56	17788
2026-01-08 16:03:21.48	135.61	60.35	-38.7	-49.2	3.5	3.02e+01	0	32	104	27787264	54	15590
2026-01-08 16:03:22.49	136.57	60.10	-37.5	-47.8	3.5	3.02e+01	0	32	104	27787264	50	16703
2026-01-08 16:03:23.50	137.52	59.84	-36.0	-46.4	3.5	3.02e+01	0	32	104	27787264	48	16041
2026-01-08 16:03:24.51	138.45	59.58	-37.5	-47.6	3.5	3.02e+01	0	32	104	27787264	50	16440
2026-01-08 16:03:25.52	139.36	59.31	-37.8	-48.2	3.5	3.02e+01	0	32	104	27787264	54	13967
2026-01-08 16:03:26.52	140.24	59.04	-46.9	-60.3	3.5	3.02e+01	0	32	104	27787264	60	39798
2026-01-08 16:03:27.54	141.12	58.76	-39.0	-49.4	3.6	3.02e+01	0	32	104	27787264	52	17954
2026-01-08 16:03:28.54	141.97	58.48	-46.4	-59.5	3.5	3.02e+01	0	32	104	27787264	60	36246
2026-01-08 16:03:29.56	142.81	58.19	-39.1	-40.8	22.8	3.02e+01	57	32	104	27787264	52	6717
2026-01-08 16:03:30.56	143.62	57.90	-37.1	-38.4	27.3	3.02e+01	60	32	0	29360128	50	5690
2026-01-08 16:03:31.57	144.42	57.61	-36.2	-37.5	28.2	3.02e+01	44	32	0	30932992	48	5754
2026-01-08 16:03:32.58	145.21	57.31	-36.5	-37.8	27.8	3.02e+01	63	32	0	33030144	48	5946
2026-01-08 16:03:33.59	145.97	57.01	-36.1	-37.4	28.3	3.02e+01	54	32	0	35127296	48	5676
2026-01-08 16:03:34.60	146.72	56.70	-34.5	-35.7	29.6	3.02e+01	45	32	0	36700160	44	5877
2026-01-08 16:03:35.61	147.46	56.39	-34.2	-35.3	30.0	3.02e+01	60	32	0	38797312	44	5643
2026-01-08 16:03:36.62	148.17	56.08	-34.7	-36.0	29.4	3.02e+01	61	32	0	40370176	44	6070
2026-01-08 16:03:37.63	148.87	55.77	-34.8	-36.0	29.4	3.02e+01	61	32	0	42467328	44	6113
2026-01-08 16:03:38.64	149.56	55.46	-34.9	-36.1	29.4	3.02e+01	60	32	0	44564480	44	6186
2026-01-08 16:03:39.65	150.23	55.14	-33.9	-35.1	30.3	3.02e+01	59	32	0	46137344	42	6146
2026-01-08 16:03:40.65	150.88	54.82	-34.4	-35.5	29.8	3.02e+01	60	32	0	48234496	42	6496
2026-01-08 16:03:41.67	151.53	54.50	-34.5	-35.7	29.7	3.02e+01	61	32	0	50331648	42	6595
2026-01-08 16:03:42.68	152.15	54.18	-34.3	-35.4	29.9	3.02e+01	45	32	0	51904512	42	6414
2026-01-08 16:03:43.68	152.76	53.86	-34.1	-35.3	30.1	3.02e+01	57	32	0	54001664	42	6321
2026-01-08 16:03:44.69	153.36	53.54	-34.2	-35.4	29.9	3.02e+01	57	32	0	55574528	42	6368
2026-01-08 16:03:45.70	153.95	53.21	-33.9	-35.1	30.2	3.02e+01	58	32	0	57671680	42	6162
2026-01-08 16:03:46.71	154.52	52.89	-34.5	-35.7	29.7	3.02e+01	57	32	0	59768832	42	6584
2026-01-08 16:03:47.72	155.08	52.56	-34.6	-35.8	29.5	3.02e+01	44	32	0	61341696	42	6668
2026-01-08 16:03:48.73	155.63	52.24	-34.5	-35.7	29.5	3.02e+01	54	32	0	63438848	42	6615
2026-01-08 16:03:49.74	156.17	51.91	-34.6	-35.8	29.6	3.02e+01	58	32	0	65011712	42	6680
2026-01-08 16:03:50.75	156.69	51.58	-34.3	-35.5	29.9	3.02e+01	46	32	0	67108864	42	6458
2026-01-08 16:03:51.76	157.20	51.26	-34.8	-36.0	29.4	3.02e+01	59	32	0	69206016	42	6847
2026-01-08 16:03:52.77	157.71	50.93	-34.7	-35.9	29.6	3.02e+01	52	31	0	70778880	42	6759
2026-01-08 16:03:53.77	158.19	50.61	-34.9	-36.1	29.3	3.02e+01	58	32	0	72876032	42	6938
2026-01-08 16:03:54.78	158.67	50.28	-34.9	-36.1	29.3	3.02e+01	59	32	0	74448896	44	6166
2026-01-08 16:03:55.80	159.15	49.95	-35.0	-36.2	29.2	3.02e+01	57	32	0	76546048	44	6220
2026-01-08 16:03:56.80	159.61	49.63	-34.9	-36.1	29.3	3.02e+01	59	31	0	78643200	44	6167
2026-01-08 16:03:57.81	160.06	49.30	-34.6	-35.8	29.6	3.02e+01	56	31	0	80216064	44	5955
2026-01-08 16:03:58.82	160.50	48.98	-35.2	-36.4	29.1	3.02e+01	62	32	0	82313216	44	6397
2026-01-08 16:03:59.83	160.93	48.66	-35.3	-36.5	28.9	3.02e+01	61	32	0	83886080	44	6454
2026-01-08 16:04:00.84	161.36	48.33	-35.0	-36.2	29.3	3.02e+01	58	32	0	85983232	44	6238
2026-01-08 16:04:01.85	161.77	48.01	-34.9	-36.1	29.3	3.02e+01	55	32	0	88080384	44	6174
2026-01-08 16:04:02.86	162.18	47.69	-35.0	-36.2	29.2	3.02e+01	59	32	0	89653248	44	6256
2026-01-08 16:04:03.87	162.58	47.37	-34.9	-36.1	29.3	3.02e+01	50	32	0	91750400	44	6160
2026-01-08 16:04:04.88	162.97	47.05	-34.9	-36.1	29.4	3.02e+01	58	32	0	93323264	44	6197
2026-01-08 16:04:05.89	163.35	46.74	-34.9	-36.1	29.3	3.02e+01	58	32	0	95420416	44	6192
2026-01-08 16:04:06.89	163.72	46.42	-35.2	-36.4	29.0	3.02e+01	59	32	0	97517568	44	6387
2026-01-08 16:04:07.90	164.09	46.11	-34.9	-36.1	29.3	3.02e+01	59	32	0	99090432	44	6194
2026-01-08 16:04:08.91	164.45	45.79	-34.9	-36.1	29.3	3.02e+01	45	32	0	101187584	44	6151
2026-01-08 16:04:09.92	164.80	45.48	-34.7	-35.9	29.5	3.02e+01	56	32	0	103284736	44	6020
2026-01-08 16:04:10.93	165.14	45.17	-34.8	-36.0	29.3	3.02e+01	58	32	0	104857600	44	6115
2026-01-08 16:04:11.94	165.48	44.86	-34.9	-36.1	29.3	3.02e+01	44	32	0	106954752	44	6180
2026-01-08 16:04:12.95	165.82	44.55	-34.7	-35.9	29.6	3.02e+01	59	32	0	108527616	44	6035
2026-01-08 16:04:13.96	166.14	44.25	-34.8	-36.1	29.4	3.02e+01	57	32	0	110624768	44	6143
2026-01-08 16:04:14.97	166.46	43.94	-34.8	-36.0	29.3	3.02e+01	58	32	0	112721920	44	6098
2026-01-08 16:04:15.98	166.78	43.64	-34.8	-36.0	29.4	3.02e+01	59	32	0	114294784	44	6120
2026-01-08 16:04:16.99	167.09	43.34	-34.9	-36.1	29.3	3.02e+01	52	32	0	116391936	44	6171
2026-01-08 16:04:18.00	167.39	43.04	-35.0	-36.2	29.1	3.02e+01	64	32	0	118489088	44	6242
2026-01-08 16:04:19.01	167.68	42.74	-34.9	-36.1	29.3	3.02e+01	58	32	0	120061952	44	6150
2026-01-08 16:04:20.02	167.98	42.44	-34.9	-36.1	29.3	3.02e+01	49	32	0	122159104	44	6186
2026-01-08 16:04:21.03	168.26	42.15	-34.9	-36.1	29.2	3.02e+01	63	32	0	123731968	44	6201
2026-01-08 16:04:22.04	168.54	41.85	-35.1	-36.4	29.1	3.02e+01	57	32	0	125829120	44	6361
2026-01-08 16:04:23.05	168.82	41.56	-35.1	-36.4	29.1	3.02e+01	62	32	0	127926272	44	6358
2026-01-08 16:04:24.06	169.09	41.27	-35.2	-36.4	29.1	3.02e+01	60	32	0	129499136	44	6407
2026-01-08 16:04:25.07	169.36	40.98	-35.2	-36.4	29.0	3.02e+01	53	32	0	131596288	44	6420
2026-01-08 16:04:26.08	169.62	40.70	-35.3	-36.5	29.0	3.02e+01	58	32	0	133169152	44	6498
2026-01-08 16:04:27.09	169.88	40.41	-35.5	-36.7	28.8	3.02e+01	62	32	0	135266304	44	6611
2026-01-08 16:04:28.10	170.13	40.13	-35.6	-36.8	28.7	3.02e+01	49	32	0	137363456	44	6707
2026-01-08 16:04:29.11	170.38	39.85	-35.6	-36.9	28.7	3.02e+01	57	32	0	138936320	44	6743
2026-01-08 16:04:30.12	170.62	39.57	-35.2	-36.4	29.0	3.02e+01	58	32	0	141033472	44	6402
2026-01-08 16:04:31.12	170.86	39.29	-35.3	-36.5	29.1	3.02e+01	61	32	0	142606336	44	6461
2026-01-08 16:04:32.13	171.09	39.02	-35.5	-36.7	28.8	3.02e+01	59	32	0	144703488	44	6648
2026-01-08 16:04:33.14	171.32	38.74	-35.8	-37.1	28.5	3.02e+01	54	32	0	146800640	44	6930
2026-01-08 16:04:34.15	171.55	38.47	-35.7	-37.0	28.6	3.02e+01	57	32	0	148373504	44	6806
2026-01-08 16:04:35.16	171.78	38.20	-35.7	-36.9	28.4	3.02e+01	60	32	0	150470656	44	6793
2026-01-08 16:04:36.17	172.00	37.93	-35.5	-36.8	28.6	3.02e+01	58	32	0	152043520	44	6658
2026-01-08 16:04:37.18	172.21	37.67	-35.0	-36.2	29.3	3.02e+01	49	32	0	154140672	44	6231
2026-01-08 16:04:38.19	172.43	37.40	-34.9	-36.1	29.4	3.02e+01	45	32	0	156237824	44	6173
2026-01-08 16:04:39.19	172.64	37.14	-34.7	-35.9	29.5	3.02e+01	56	32	0	157810688	44	6048
2026-01-08 16:04:40.20	172.84	36.88	-34.5	-35.7	29.7	3.02e+01	62	32	0	159907840	44	5912
2026-01-08 16:04:41.21	173.05	36.62	-34.5	-35.7	29.8	3.02e+01	44	32	0	161480704	44	5887
2026-01-08 16:04:42.22	173.25	36.36	-34.5	-35.7	29.7	3.02e+01	60	32	0	163577856	44	5884
2026-01-08 16:04:43.23	173.44	36.11	-34.6	-35.8	29.7	3.02e+01	59	32	0	165675008	44	5931
2026-01-08 16:04:44.24	173.64	35.85	-34.7	-35.9	29.5	3.02e+01	59	32	0	167247872	44	6053
2026-01-08 16:04:45.25	173.83	35.60	-34.5	-35.7	29.7	3.02e+01	60	32	0	169345024	44	5897
2026-01-08 16:04:46.26	174.02	35.35	-34.5	-35.7	29.6	3.02e+01	53	32	0	171442176	44	5890
2026-01-08 16:04:47.27	174.20	35.10	-34.3	-35.4	29.8	3.02e+01	58	32	0	173015040	44	5716
2026-01-08 16:04:48.28	174.38	34.85	-34.1	-35.3	29.9	3.02e+01	59	32	0	175112192	44	5603
2026-01-08 16:04:49.29	174.56	34.61	-33.9	-35.1	30.1	3.02e+01	44	32	0	176685056	44	5483
2026-01-08 16:04:50.30	174.74	34.36	-33.8	-35.0	30.3	3.02e+01	56	32	0	178782208	42	6096
2026-01-08 16:04:51.31	174.91	34.12	-33.7	-34.8	30.3	3.02e+01	62	32	0	180879360	42	5988
2026-01-08 16:04:52.32	175.09	33.88	-33.9	-35.1	30.2	3.02e+01	64	32	0	182452224	42	6146
2026-01-08 16:04:53.33	175.26	33.64	-34.0	-35.2	30.1	3.02e+01	58	32	0	184549376	42	6216
2026-01-08 16:04:54.34	175.42	33.41	-33.8	-34.9	30.2	3.02e+01	55	32	0	186122240	42	6054
2026-01-08 16:04:55.35	175.59	33.17	-33.8	-35.0	30.1	3.02e+01	57	31	0	188219392	42	6093
2026-01-08 16:04:56.36	175.75	32.94	-33.5	-34.7	30.5	3.02e+01	51	32	0	190316544	42	5864
2026-01-08 16:04:57.37	175.91	32.71	-33.6	-34.7	30.4	3.02e+01	51	32	0	191889408	42	5919
2026-01-08 16:04:58.38	176.07	32.48	-33.6	-34.7	30.3	3.02e+01	59	32	0	193986560	42	5909
2026-01-08 16:04:59.39	176.22	32.25	-33.7	-34.8	30.2	3.02e+01	58	32	0	195559424	42	5989
2026-01-08 16:05:00.40	176.37	32.02	-33.6	-34.7	30.4	3.02e+01	61	32	0	197656576	42	5903
2026-01-08 16:05:01.41	176.53	31.79	-33.4	-34.6	30.5	3.02e+01	60	32	0	199753728	42	5797
2026-01-08 16:05:02.42	176.67	31.57	-33.5	-34.6	30.4	3.02e+01	52	32	0	201326592	42	5837
2026-01-08 16:05:03.42	176.82	31.35	-33.4	-34.5	30.4	3.02e+01	59	32	0	203423744	42	5761
2026-01-08 16:05:04.44	176.97	31.13	-33.3	-34.4	30.3	3.02e+01	61	32	0	204996608	42	5725
2026-01-08 16:05:05.45	177.11	30.91	-33.3	-34.5	30.6	3.02e+01	49	32	0	207093760	42	5733
2026-01-08 16:05:06.46	177.25	30.69	-33.3	-34.4	30.7	3.02e+01	60	32	0	209190912	42	5709
2026-01-08 16:05:07.46	177.39	30.48	-33.3	-34.4	30.6	3.02e+01	56	32	0	210763776	42	5693
2026-01-08 16:05:08.47	177.53	30.27	-33.4	-34.6	30.5	3.02e+01	58	32	0	212860928	42	5805
2026-01-08 16:05:09.48	177.66	30.05	-33.4	-34.6	30.5	3.02e+01	57	32	0	214958080	42	5799
2026-01-08 16:05:10.49	177.80	29.84	-33.3	-34.5	30.6	3.02e+01	51	32	0	216530944	42	5746
2026-01-08 16:05:11.50	177.93	29.63	-33.4	-34.5	30.6	3.02e+01	60	32	0	218628096	42	5782
2026-01-08 16:05:12.51	178.06	29.42	-33.5	-34.6	30.6	3.02e+01	59	32	0	220200960	42	5858
2026-01-08 16:05:13.52	178.19	29.22	-33.8	-34.9	30.2	3.02e+01	54	31	0	222298112	42	6046
2026-01-08 16:05:14.53	178.31	29.01	-33.8	-35.0	30.1	3.02e+01	60	32	0	224395264	42	6071
2026-01-08 16:05:15.54	178.44	28.81	-34.0	-35.2	30.0	3.02e+01	38	31	0	225968128	42	6222
2026-01-08 16:05:16.54	178.56	28.61	-33.7	-34.9	30.2	3.02e+01	59	32	0	228065280	42	6051
2026-01-08 16:05:17.55	178.68	28.41	-33.8	-35.0	30.1	3.02e+01	58	32	0	229638144	42	6076
2026-01-08 16:05:18.56	178.81	28.21	-33.5	-34.7	30.3	3.02e+01	47	31	0	231735296	42	5886
2026-01-08 16:05:19.57	178.92	28.01	-33.7	-34.8	30.3	3.02e+01	57	31	0	233832448	42	5977
2026-01-08 16:05:20.58	179.04	27.81	-33.7	-34.8	30.3	3.02e+01	61	32	0	235405312	42	5967
2026-01-08 16:05:21.59	179.16	27.62	-33.7	-34.9	30.3	3.02e+01	59	32	0	237502464	42	6000
2026-01-08 16:05:22.60	179.27	27.42	-33.8	-35.0	30.2	3.02e+01	60	32	0	239599616	42	6099
2026-01-08 16:05:23.61	179.39	27.23	-33.9	-35.1	30.2	3.02e+01	47	32	0	241172480	42	6166
2026-01-08 16:05:24.62	179.50	27.04	-34.0	-35.2	30.0	3.02e+01	59	32	0	243269632	42	6247
2026-01-08 16:05:25.63	179.61	26.85	-34.1	-35.2	30.0	3.02e+01	56	32	0	244842496	42	6269
2026-01-08 16:05:26.64	179.72	26.66	-34.3	-35.4	29.8	3.02e+01	47	32	0	246939648	42	6409
2026-01-08 16:05:27.65	179.83	26.48	-34.3	-35.4	29.8	3.02e+01	57	32	0	249036800	42	6414
2026-01-08 16:05:28.66	179.94	26.29	-34.4	-35.6	29.7	3.02e+01	58	32	0	250609664	42	6513
2026-01-08 16:05:29.67	180.04	26.10	-34.4	-35.6	29.7	3.02e+01	55	32	0	252706816	42	6549
2026-01-08 16:05:30.68	180.15	25.92	-34.5	-35.7	29.6	3.02e+01	60	32	0	254279680	42	6636
2026-01-08 16:05:31.69	180.25	25.74	-34.4	-35.6	29.7	3.02e+01	58	32	0	256376832	42	6531
2026-01-08 16:05:32.70	180.35	25.56	-34.4	-35.6	29.7	3.02e+01	58	32	0	258473984	42	6560
2026-01-08 16:05:33.70	180.45	25.38	-34.5	-35.7	29.6	3.02e+01	60	32	0	260046848	42	6587
2026-01-08 16:05:34.71	180.55	25.20	-34.5	-35.7	29.6	3.02e+01	38	32	0	262144000	42	6629
2026-01-08 16:05:35.72	180.65	25.02	-34.6	-35.8	29.5	3.02e+01	58	31	0	263716864	42	6668
2026-01-08 16:05:36.73	180.75	24.85	-34.6	-35.8	29.5	3.02e+01	56	32	0	265814016	42	6675
2026-01-08 16:05:37.74	180.85	24.67	-34.5	-35.7	29.6	3.02e+01	60	32	0	267911168	42	6591
2026-01-08 16:05:38.75	180.94	24.50	-34.6	-35.8	29.5	3.02e+01	58	32	0	269484032	42	6712
2026-01-08 16:05:39.76	181.04	24.33	-34.7	-35.9	29.5	3.02e+01	58	31	0	271581184	42	6766
2026-01-08 16:05:40.77	181.13	24.16	-34.7	-35.9	29.4	3.02e+01	60	32	0	273154048	42	6769
2026-01-08 16:05:41.78	181.22	23.99	-34.6	-35.8	29.4	3.02e+01	60	32	0	275251200	42	6723
2026-01-08 16:05:42.78	181.31	23.82	-34.7	-36.0	29.4	3.02e+01	46	32	0	277348352	42	6812
2026-01-08 16:05:43.79	181.40	23.65	-34.8	-36.1	29.3	3.02e+01	59	32	0	278921216	42	6909
2026-01-08 16:05:44.80	181.49	23.48	-34.9	-36.1	29.2	3.02e+01	54	32	0	281018368	44	6186
2026-01-08 16:05:45.81	181.58	23.32	-34.7	-35.9	29.3	3.02e+01	60	32	0	283115520	44	6017
2026-01-08 16:05:46.82	181.67	23.15	-34.7	-35.9	29.3	3.02e+01	63	32	0	284688384	44	6042
2026-01-08 16:05:47.83	181.76	22.99	-34.4	-35.7	29.6	3.02e+01	56	32	0	286785536	44	5861
2026-01-08 16:05:48.84	181.84	22.83	-34.5	-35.7	29.5	3.02e+01	61	31	0	288358400	44	5901
2026-01-08 16:05:49.85	181.93	22.67	-34.5	-35.7	29.5	3.02e+01	61	32	0	290455552	44	5859
2026-01-08 16:05:50.86	182.01	22.51	-34.4	-35.5	29.7	3.02e+01	56	32	0	292552704	44	5791
2026-01-08 16:05:51.87	182.10	22.35	-34.3	-35.5	29.7	3.02e+01	63	32	0	294125568	44	5745
2026-01-08 16:05:52.89	182.18	22.19	-34.2	-35.4	29.7	3.02e+01	53	32	0	296222720	44	5698
2026-01-08 16:05:53.89	182.26	22.03	-34.2	-35.4	29.8	3.02e+01	61	32	0	297795584	44	5704
2026-01-08 16:05:54.90	182.34	21.87	-34.3	-35.5	29.8	3.02e+01	59	32	0	299892736	44	5742
2026-01-08 16:05:55.91	182.42	21.72	-34.3	-35.5	29.7	3.02e+01	46	32	0	301989888	44	5769
2026-01-08 16:05:56.92	182.50	21.56	-34.3	-35.5	29.7	3.02e+01	55	32	0	303562752	44	5754
2026-01-08 16:05:57.93	182.58	21.41	-34.3	-35.5	29.8	3.02e+01	58	32	0	305659904	44	5766
2026-01-08 16:05:58.94	182.66	21.26	-34.3	-35.5	29.7	3.02e+01	56	32	0	307232768	44	5773
2026-01-08 16:05:59.94	182.73	21.11	-34.4	-35.6	29.7	3.02e+01	59	32	0	309329920	44	5828
2026-01-08 16:06:00.95	182.81	20.96	-34.4	-35.6	29.6	3.02e+01	52	32	0	311427072	44	5819
2026-01-08 16:06:01.96	182.88	20.81	-34.5	-35.7	29.6	3.02e+01	58	32	0	312999936	44	5884
2026-01-08 16:06:02.97	182.96	20.66	-34.4	-35.6	29.6	3.02e+01	59	32	0	315097088	44	5833
2026-01-08 16:06:03.98	183.03	20.51	-34.6	-35.8	29.4	3.02e+01	47	32	0	316669952	44	5962
2026-01-08 16:06:04.99	183.11	20.36	-34.6	-35.8	29.5	3.02e+01	61	32	0	318767104	44	5965
2026-01-08 16:06:06.00	183.18	20.22	-34.5	-35.7	29.6	3.02e+01	59	31	0	320864256	44	5879
2026-01-08 16:06:07.01	183.25	20.07	-34.5	-35.7	29.5	3.02e+01	56	32	0	322437120	44	5874
2026-01-08 16:06:08.02	183.32	19.93	-34.5	-35.7	29.6	3.02e+01	56	32	0	324534272	44	5880
2026-01-08 16:06:09.03	183.39	19.79	-34.4	-35.6	29.6	3.02e+01	59	32	0	326107136	44	5829
2026-01-08 16:06:10.04	183.46	19.64	-34.4	-35.6	29.5	3.02e+01	60	32	0	328204288	44	5838
2026-01-08 16:06:11.05	183.53	19.50	-34.3	-35.5	29.6	3.02e+01	60	32	0	330301440	44	5777
2026-01-08 16:06:12.06	183.60	19.36	-34.3	-35.5	29.7	3.02e+01	47	32	0	331874304	44	5742
2026-01-08 16:06:13.07	183.67	19.22	-34.3	-35.5	29.6	3.02e+01	58	32	0	333971456	44	5780
2026-01-08 16:06:14.08	183.74	19.08	-34.3	-35.5	29.7	3.02e+01	58	32	0	336068608	44	5727
2026-01-08 16:06:15.09	183.80	18.94	-34.3	-35.5	29.6	3.02e+01	57	32	0	337641472	44	5743
2026-01-08 16:06:16.10	183.87	18.81	-34.2	-35.4	29.8	3.02e+01	55	32	0	339738624	44	5661
2026-01-08 16:06:17.11	183.93	18.67	-34.4	-35.6	29.6	3.02e+01	57	32	0	341311488	44	5819
2026-01-08 16:06:18.11	184.00	18.53	-34.2	-35.4	29.7	3.02e+01	59	32	0	343408640	44	5700
2026-01-08 16:06:19.12	184.06	18.40	-34.2	-35.4	29.8	3.02e+01	61	32	0	345505792	44	5685
2026-01-08 16:06:20.13	184.13	18.26	-34.4	-35.6	29.7	3.02e+01	45	32	0	347078656	44	5797
2026-01-08 16:06:21.14	184.19	18.13	-34.3	-35.5	29.7	3.02e+01	57	32	0	349175808	44	5743
2026-01-08 16:06:22.15	184.25	18.00	-34.1	-35.3	29.8	3.02e+01	48	32	0	350748672	44	5626
2026-01-08 16:06:23.16	184.32	17.87	-34.1	-35.3	29.8	3.02e+01	56	32	0	352845824	44	5646
2026-01-08 16:06:24.17	184.38	17.73	-34.0	-35.2	29.9	3.02e+01	59	32	0	354942976	44	5548
2026-01-08 16:06:25.18	184.44	17.60	-34.2	-35.3	29.8	3.02e+01	54	31	0	356515840	44	5648
2026-01-08 16:06:26.19	184.50	17.47	-34.2	-35.4	29.8	3.02e+01	60	32	0	358612992	44	5692
2026-01-08 16:06:27.20	184.56	17.34	-34.1	-35.3	29.8	3.02e+01	58	32	0	360710144	44	5647
2026-01-08 16:06:28.20	184.62	17.22	-34.1	-35.2	30.0	3.02e+01	60	32	0	362283008	44	5594
2026-01-08 16:06:29.21	184.68	17.09	-34.2	-35.4	29.7	3.02e+01	62	31	0	364380160	44	5698
2026-01-08 16:06:30.22	184.74	16.96	-34.3	-35.5	29.7	3.02e+01	48	31	0	365953024	44	5768
2026-01-08 16:06:31.23	184.79	16.84	-34.1	-35.3	29.9	3.02e+01	59	31	0	368050176	44	5616
2026-01-08 16:06:32.24	184.85	16.71	-34.3	-35.4	29.7	3.02e+01	60	32	0	369623040	44	5725
2026-01-08 16:06:33.25	184.91	16.59	-34.3	-35.5	29.7	3.02e+01	44	32	0	371720192	44	5764
2026-01-08 16:06:34.26	184.97	16.46	-34.1	-35.3	29.8	3.02e+01	58	31	0	373817344	44	5635
2026-01-08 16:06:35.27	185.02	16.34	-34.2	-35.4	29.8	3.02e+01	59	31	0	375390208	44	5685
2026-01-08 16:06:36.28	185.08	16.22	-34.2	-35.4	29.8	3.02e+01	61	32	0	377487360	44	5694
2026-01-08 16:06:37.29	185.13	16.09	-34.2	-35.4	29.7	3.02e+01	59	32	0	379584512	44	5690
2026-01-08 16:06:38.30	185.19	15.97	-34.1	-35.3	29.8	3.02e+01	53	32	0	381157376	44	5654
2026-01-08 16:06:39.30	185.24	15.85	-34.2	-35.4	29.7	3.02e+01	60	31	0	383254528	44	5663
2026-01-08 16:06:40.31	185.30	15.73	-34.1	-35.3	29.9	3.02e+01	60	32	0	384827392	44	5612
2026-01-08 16:06:41.32	185.35	15.61	-34.2	-35.4	29.7	3.02e+01	50	31	0	386924544	44	5691
2026-01-08 16:06:42.33	185.40	15.49	-34.1	-35.3	29.8	3.02e+01	59	31	0	389021696	44	5649
2026-01-08 16:06:43.34	185.46	15.37	-34.1	-35.4	29.7	3.02e+01	62	32	0	390594560	44	5662
2026-01-08 16:06:44.35	185.51	15.26	-34.1	-35.4	29.7	3.02e+01	58	31	0	392691712	44	5662
2026-01-08 16:06:45.36	185.56	15.14	-34.2	-35.4	29.7	3.02e+01	56	32	0	394264576	44	5686
2026-01-08 16:06:46.37	185.61	15.02	-34.3	-35.5	29.6	3.02e+01	61	31	0	396361728	44	5791
2026-01-08 16:06:47.38	185.66	14.91	-34.3	-35.5	29.6	3.02e+01	57	32	0	398458880	44	5775
2026-01-08 16:06:48.39	185.71	14.79	-34.3	-35.6	29.6	3.02e+01	57	32	0	400031744	44	5804
2026-01-08 16:06:49.40	185.76	14.68	-34.3	-35.5	29.6	3.02e+01	47	31	0	402128896	44	5764
2026-01-08 16:06:50.41	185.81	14.56	-34.2	-35.4	29.7	3.02e+01	60	32	0	404226048	44	5724
2026-01-08 16:06:51.42	185.86	14.45	-34.2	-35.5	29.6	3.02e+01	57	32	0	405798912	44	5735
2026-01-08 16:06:52.43	185.91	14.33	-34.3	-35.6	29.5	3.02e+01	58	32	0	407896064	44	5815
2026-01-08 16:06:53.43	185.96	14.22	-34.3	-35.5	29.5	3.02e+01	58	31	0	409468928	44	5764
2026-01-08 16:06:54.45	186.01	14.11	-34.4	-35.6	29.5	3.02e+01	50	32	0	411566080	44	5827
2026-01-08 16:06:55.46	186.06	14.00	-34.2	-35.5	29.6	3.02e+01	62	32	0	413663232	44	5732
2026-01-08 16:06:56.46	186.11	13.89	-34.4	-35.7	29.4	3.02e+01	58	32	0	415236096	44	5866
2026-01-08 16:06:57.47	186.15	13.78	-34.4	-35.6	29.5	3.02e+01	38	32	0	417333248	44	5803
2026-01-08 16:06:58.48	186.20	13.67	-34.4	-35.7	29.4	3.02e+01	59	31	0	418906112	44	5859
2026-01-08 16:06:59.49	186.25	13.56	-34.3	-35.5	29.5	3.02e+01	60	32	0	421003264	44	5752
2026-01-08 16:07:00.50	186.29	13.45	-34.5	-35.7	29.4	3.02e+01	61	31	0	423100416	44	5884
2026-01-08 16:07:01.51	186.34	13.34	-34.4	-35.6	29.5	3.02e+01	58	32	0	424673280	44	5827
2026-01-08 16:07:02.52	186.39	13.23	-34.4	-35.7	29.4	3.02e+01	52	32	0	426770432	44	5859
2026-01-08 16:07:03.53	186.43	13.13	-34.3	-35.5	29.5	3.02e+01	57	32	0	428343296	44	5744
2026-01-08 16:07:04.54	186.48	13.02	-34.4	-35.7	29.4	3.02e+01	58	31	0	430440448	44	5864
2026-01-08 16:07:05.55	186.52	12.91	-34.3	-35.5	29.5	3.02e+01	59	32	0	432537600	44	5767
2026-01-08 16:07:06.56	186.57	12.81	-34.3	-35.5	29.5	3.02e+01	62	31	0	434110464	44	5782
2026-01-08 16:07:07.57	186.61	12.70	-34.4	-35.6	29.4	3.02e+01	48	32	0	436207616	44	5842
2026-01-08 16:07:08.58	186.65	12.60	-34.4	-35.6	29.4	3.02e+01	60	32	0	437780480	44	5833
2026-01-08 16:07:09.59	186.70	12.49	-34.5	-35.7	29.3	3.02e+01	59	32	0	439877632	44	5890
2026-01-08 16:07:10.60	186.74	12.39	-34.5	-35.7	29.3	3.02e+01	45	32	0	441974784	44	5909
2026-01-08 16:07:11.61	186.78	12.29	-34.6	-35.8	29.2	3.02e+01	59	32	0	443547648	44	5972
2026-01-08 16:07:12.62	186.83	12.18	-34.6	-35.9	29.2	3.02e+01	58	32	0	445644800	44	6016
2026-01-08 16:07:13.63	186.87	12.08	-34.6	-35.9	29.2	3.02e+01	61	32	0	447217664	44	5995
2026-01-08 16:07:14.64	186.91	11.98	-34.5	-35.7	29.3	3.02e+01	56	31	0	449314816	44	5898
2026-01-08 16:07:15.65	186.95	11.88	-34.6	-35.8	29.2	3.02e+01	56	32	0	451411968	44	5968
2026-01-08 16:07:16.66	186.99	11.78	-34.5	-35.7	29.2	3.02e+01	52	32	0	452984832	44	5915
2026-01-08 16:07:17.67	187.04	11.68	-34.5	-35.7	29.2	3.02e+01	59	32	0	455081984	44	5923
2026-01-08 16:07:18.68	187.08	11.58	-34.5	-35.8	29.2	3.02e+01	51	31	0	457179136	44	5943
2026-01-08 16:07:19.69	187.12	11.48	-34.6	-35.9	29.2	3.02e+01	59	32	0	458752000	44	6018
2026-01-08 16:07:20.69	187.16	11.38	-34.5	-35.7	29.2	3.02e+01	59	32	0	460849152	44	5924
2026-01-08 16:07:21.70	187.20	11.28	-34.5	-35.7	29.2	3.02e+01	60	32	0	462422016	44	5916
2026-01-08 16:07:22.71	187.24	11.18	-34.6	-35.8	29.2	3.02e+01	59	32	0	464519168	44	5982
2026-01-08 16:07:23.72	187.28	11.08	-34.6	-35.8	29.2	3.02e+01	58	32	0	466616320	44	5946
2026-01-08 16:07:24.73	187.32	10.99	-34.7	-35.9	29.2	3.02e+01	58	32	0	468189184	44	6033
2026-01-08 16:07:25.74	187.36	10.89	-34.6	-35.9	29.2	3.02e+01	57	32	0	470286336	44	6005
2026-01-08 16:07:26.75	187.40	10.79	-34.6	-35.9	29.2	3.02e+01	45	32	0	472383488	44	6004
2026-01-08 16:07:27.76	187.43	10.70	-34.6	-35.8	29.2	3.02e+01	59	31	0	473956352	44	5978
2026-01-08 16:07:28.77	187.47	10.60	-34.7	-35.9	29.0	3.02e+01	61	32	0	476053504	44	6044
2026-01-08 16:07:29.78	187.51	10.51	-34.7	-36.0	29.0	3.02e+01	58	32	0	477626368	44	6077
2026-01-08 16:07:30.79	187.55	10.41	-34.8	-36.0	29.0	3.02e+01	58	32	0	479723520	44	6095
2026-01-08 16:07:31.80	187.59	10.32	-34.8	-36.0	29.1	3.02e+01	51	31	0	481820672	44	6081
2026-01-08 16:07:32.81	187.62	10.22	-34.7	-36.0	29.0	3.02e+01	57	32	0	483393536	44	6075
