passes_logs/2026/01/08/R4.6S_Anadyr/R4.6S_Anadyr__20260108_135606_NOAA_20_JPSS-1_rec.log

#Pass ID: 20260108_135606_NOAA 20 (JPSS-1)
#Satellite: NOAA 20 (JPSS-1)
#Configuration: NOAA 20
#almurnet v.1.7.20251203
#Start time: 2026-01-08 13:56:08

#Version: 2.2.20231116
#Station: R4.6S_Anadyr
#Location: 177.4865 lon 64.73178 lat
#TLE: 1 43013U 17073A   26007.92906311  .00000097  00000+0  67117-4 0  9996
#TLE: 2 43013  98.7630 308.9434 0001752  49.5597 310.5732 14.19534161421734

#Time	Az	El	Level	Level2	SNR	BER	BlckErr	Temp	State	Recorded	gain1	gain2
2026-01-08 13:56:08.51	19.31	0.14	-48.4	-63.3	3.5	1.51e+00	0	30	0	0	60	52688
2026-01-08 13:56:09.51	19.34	0.20	-48.4	-63.7	3.6	1.51e+00	0	31	104	0	60	55194
2026-01-08 13:56:10.52	19.36	0.26	-48.5	-63.6	3.6	1.51e+00	0	31	104	0	60	54981
2026-01-08 13:56:11.53	19.39	0.32	-48.5	-63.6	3.6	1.51e+00	0	31	104	0	60	55015
2026-01-08 13:56:12.54	19.42	0.38	-48.5	-63.7	3.6	1.51e+00	0	31	104	0	60	55198
2026-01-08 13:56:13.55	19.45	0.44	-48.5	-63.7	3.6	1.51e+00	0	31	104	0	60	55265
2026-01-08 13:56:14.56	19.48	0.50	-48.5	-63.7	3.6	1.51e+00	0	31	104	0	60	55272
2026-01-08 13:56:15.57	19.51	0.56	-48.5	-63.6	3.6	1.51e+00	0	31	104	0	60	54896
2026-01-08 13:56:16.58	19.54	0.62	-48.5	-63.6	3.6	1.51e+00	0	31	104	0	60	54645
2026-01-08 13:56:17.59	19.56	0.68	-48.4	-63.5	3.6	1.51e+00	0	32	104	0	60	54011
2026-01-08 13:56:18.60	19.59	0.74	-48.3	-63.4	3.6	1.51e+00	0	31	104	0	60	53427
2026-01-08 13:56:19.61	19.62	0.80	-48.1	-63.3	3.6	1.51e+00	0	32	104	0	60	53061
2026-01-08 13:56:20.62	19.65	0.86	-47.8	-63.1	3.6	1.51e+00	0	32	104	0	60	51578
2026-01-08 13:56:21.63	19.68	0.92	-47.8	-62.9	3.6	1.51e+00	0	32	104	0	60	50620
2026-01-08 13:56:22.64	19.71	0.98	-47.5	-62.6	3.6	1.51e+00	0	32	104	0	60	48986
2026-01-08 13:56:23.65	19.74	1.04	-47.1	-62.3	3.6	1.51e+00	0	32	104	0	60	46974
2026-01-08 13:56:24.66	19.77	1.10	-47.0	-62.2	3.6	1.51e+00	0	31	104	0	60	46487
2026-01-08 13:56:25.67	19.80	1.16	-47.0	-62.2	3.6	1.51e+00	0	32	104	0	60	46615
2026-01-08 13:56:26.68	19.83	1.22	-47.0	-62.2	3.6	1.51e+00	0	32	104	0	60	46399
2026-01-08 13:56:27.69	19.86	1.28	-47.0	-62.2	3.6	1.51e+00	0	32	104	0	60	46490
2026-01-08 13:56:28.70	19.89	1.34	-47.0	-62.2	3.6	1.51e+00	0	32	104	0	60	46372
2026-01-08 13:56:29.71	19.92	1.41	-47.0	-62.1	3.6	1.51e+00	0	32	104	0	60	46286
2026-01-08 13:56:30.72	19.95	1.47	-47.0	-62.1	3.6	1.51e+00	0	32	104	0	60	46179
2026-01-08 13:56:31.73	19.98	1.53	-47.0	-62.1	3.6	1.51e+00	0	32	104	0	60	46179
2026-01-08 13:56:32.74	20.01	1.59	-47.0	-62.1	3.6	1.51e+00	0	32	104	0	60	45837
2026-01-08 13:56:33.75	20.04	1.65	-47.0	-62.1	3.6	1.51e+00	0	32	104	0	60	46119
2026-01-08 13:56:34.76	20.07	1.71	-47.0	-62.2	3.6	1.51e+00	0	32	104	0	60	46313
2026-01-08 13:56:35.77	20.10	1.78	-47.0	-62.1	3.6	1.51e+00	0	32	104	0	60	46152
2026-01-08 13:56:36.78	20.13	1.84	-47.0	-62.1	3.6	1.51e+00	0	32	104	0	60	46207
2026-01-08 13:56:37.79	20.16	1.90	-47.0	-62.2	3.6	1.51e+00	0	32	104	0	60	46671
2026-01-08 13:56:38.79	20.19	1.96	-47.0	-62.1	3.6	1.51e+00	0	32	104	0	60	46095
2026-01-08 13:56:39.80	20.22	2.03	-47.0	-62.1	3.6	1.51e+00	0	32	104	0	60	46231
2026-01-08 13:56:40.81	20.26	2.09	-47.0	-62.1	3.5	1.51e+00	0	32	104	0	60	46277
2026-01-08 13:56:41.82	20.29	2.15	-47.0	-62.2	3.6	1.51e+00	0	32	104	0	60	46575
2026-01-08 13:56:42.83	20.32	2.22	-47.0	-62.1	3.6	1.51e+00	0	32	104	0	60	45877
2026-01-08 13:56:43.84	20.35	2.28	-47.0	-61.8	3.6	1.51e+00	0	32	104	0	60	44666
2026-01-08 13:56:44.85	20.38	2.34	-47.0	-61.4	3.6	1.51e+00	0	32	104	0	60	42600
2026-01-08 13:56:45.86	20.41	2.41	-47.0	-60.9	3.6	1.51e+00	0	32	104	0	60	40042
2026-01-08 13:56:46.87	20.44	2.47	-46.9	-60.6	3.6	1.51e+00	0	32	104	0	60	38727
2026-01-08 13:56:47.88	20.48	2.53	-46.9	-60.5	3.6	1.51e+00	0	32	104	0	60	38446
2026-01-08 13:56:48.90	20.51	2.60	-47.0	-60.9	3.6	1.51e+00	0	32	104	0	60	40115
2026-01-08 13:56:49.90	20.54	2.66	-47.0	-61.2	3.6	1.51e+00	0	32	104	0	60	41340
2026-01-08 13:56:50.91	20.57	2.73	-46.9	-60.2	3.6	1.51e+00	0	32	104	0	60	36968
2026-01-08 13:56:51.92	20.61	2.79	-46.7	-57.3	4.6	1.45e+00	0	32	104	0	60	26389
2026-01-08 13:56:52.93	20.64	2.85	-46.3	-53.1	7.2	2.22e-01	0	32	0	1048576	60	16381
2026-01-08 13:56:53.94	20.67	2.92	-45.6	-50.8	9.9	2.42e-02	0	32	0	3145728	60	12566
2026-01-08 13:56:54.95	20.70	2.98	-44.7	-48.5	12.6	9.27e-04	0	32	0	4194304	60	9636
2026-01-08 13:56:55.96	20.74	3.05	-43.7	-46.7	14.5	2.59e-05	0	32	0	6291456	60	7856
2026-01-08 13:56:56.97	20.77	3.11	-43.0	-45.5	15.8	0.00e+00	0	32	0	8388608	60	6780
2026-01-08 13:56:57.98	20.80	3.18	-42.2	-44.3	16.9	0.00e+00	0	32	0	10485760	58	6659
2026-01-08 13:56:58.99	20.84	3.24	-41.7	-43.5	17.6	0.00e+00	0	32	0	12582912	56	6845
2026-01-08 13:57:00.00	20.87	3.31	-41.3	-43.1	18.1	0.00e+00	0	32	0	13631488	56	6485
2026-01-08 13:57:01.01	20.90	3.38	-41.3	-43.1	18.0	0.00e+00	0	32	0	15728640	56	6517
2026-01-08 13:57:02.02	20.94	3.44	-41.6	-43.5	17.7	0.00e+00	0	32	0	17825792	56	6812
2026-01-08 13:57:03.03	20.97	3.51	-42.1	-44.1	17.1	0.00e+00	0	32	0	19922944	56	7297
2026-01-08 13:57:04.04	21.01	3.57	-42.8	-45.2	15.8	0.00e+00	0	32	0	22020096	56	8269
2026-01-08 13:57:05.05	21.04	3.64	-43.6	-46.6	14.3	0.00e+00	0	32	0	24117248	58	8679
2026-01-08 13:57:06.06	21.07	3.71	-44.6	-48.4	12.5	3.81e-05	0	32	0	25165824	60	9475
2026-01-08 13:57:07.07	21.11	3.77	-41.2	-42.9	18.3	0.00e+00	0	32	0	27262976	54	7113
2026-01-08 13:57:08.08	21.14	3.84	-41.7	-43.6	17.6	0.00e+00	0	32	0	29360128	54	7761
2026-01-08 13:57:09.09	21.18	3.91	-46.9	-61.2	3.6	3.79e-02	0	32	104	30408704	60	41485
2026-01-08 13:57:10.10	21.21	3.97	-43.6	-46.6	14.9	9.82e-02	0	32	0	30408704	60	7692
2026-01-08 13:57:11.11	21.25	4.04	-46.9	-56.7	4.5	2.04e-03	0	32	0	32505856	60	24686
2026-01-08 13:57:12.12	21.28	4.11	-41.0	-42.7	18.6	1.21e-02	0	32	0	34603008	56	6204
2026-01-08 13:57:13.13	21.32	4.18	-41.1	-42.8	18.6	0.00e+00	0	32	0	35651584	56	6252
2026-01-08 13:57:14.13	21.35	4.24	-41.1	-42.7	18.6	0.00e+00	0	32	0	37748736	56	6204
2026-01-08 13:57:15.14	21.39	4.31	-40.9	-42.5	18.8	0.00e+00	0	32	0	39845888	56	6084
2026-01-08 13:57:16.15	21.42	4.38	-40.6	-42.2	19.2	0.00e+00	0	32	0	41943040	54	6540
2026-01-08 13:57:17.16	21.46	4.45	-40.5	-42.0	19.2	0.00e+00	0	32	0	44040192	54	6445
2026-01-08 13:57:18.17	21.50	4.52	-40.5	-42.0	19.3	0.00e+00	0	32	0	45088768	54	6412
2026-01-08 13:57:19.18	21.53	4.58	-40.4	-41.9	19.3	0.00e+00	0	32	0	47185920	54	6378
2026-01-08 13:57:20.19	21.57	4.65	-40.3	-41.8	19.5	0.00e+00	0	32	0	49283072	54	6275
2026-01-08 13:57:21.20	21.60	4.72	-40.4	-41.8	19.5	0.00e+00	0	32	0	51380224	54	6302
2026-01-08 13:57:22.21	21.64	4.79	-40.3	-41.7	19.5	0.00e+00	0	32	0	53477376	54	6208
2026-01-08 13:57:23.22	21.68	4.86	-40.2	-41.6	19.7	0.00e+00	0	32	0	55574528	54	6168
2026-01-08 13:57:24.23	21.71	4.93	-40.1	-41.5	19.8	0.00e+00	0	32	0	56623104	54	6100
2026-01-08 13:57:25.24	21.75	5.00	-40.1	-41.6	19.8	0.00e+00	0	32	0	58720256	54	6104
2026-01-08 13:57:26.25	21.79	5.07	-40.3	-41.7	19.6	0.00e+00	0	32	0	60817408	54	6212
2026-01-08 13:57:27.26	21.83	5.14	-40.1	-41.5	19.9	0.00e+00	0	32	0	62914560	54	6069
2026-01-08 13:57:28.27	21.86	5.21	-40.2	-41.6	19.8	0.00e+00	0	32	0	63963136	54	6142
2026-01-08 13:57:29.28	21.90	5.28	-40.1	-41.5	19.9	0.00e+00	0	32	0	66060288	54	6072
2026-01-08 13:57:30.28	21.94	5.35	-40.1	-41.5	19.8	0.00e+00	0	32	0	68157440	54	6077
2026-01-08 13:57:31.29	21.98	5.42	-40.2	-41.6	19.8	0.00e+00	0	32	0	70254592	54	6152
2026-01-08 13:57:32.30	22.01	5.49	-40.0	-41.4	20.1	0.00e+00	0	32	0	72351744	54	5966
2026-01-08 13:57:33.31	22.05	5.56	-40.0	-41.4	20.1	0.00e+00	0	32	0	73400320	54	5965
2026-01-08 13:57:34.32	22.09	5.63	-40.0	-41.3	20.1	0.00e+00	0	32	0	75497472	54	5923
2026-01-08 13:57:35.33	22.13	5.70	-40.0	-41.3	20.1	0.00e+00	0	32	0	77594624	54	5944
2026-01-08 13:57:36.34	22.17	5.78	-40.0	-41.4	20.1	0.00e+00	0	32	0	79691776	54	5975
2026-01-08 13:57:37.35	22.21	5.85	-40.0	-41.4	20.1	0.00e+00	0	32	0	81788928	54	5978
2026-01-08 13:57:38.36	22.25	5.92	-39.8	-41.1	20.3	0.00e+00	0	32	0	83886080	54	5812
2026-01-08 13:57:39.37	22.29	5.99	-39.9	-41.2	20.3	0.00e+00	0	32	0	84934656	54	5877
2026-01-08 13:57:40.38	22.33	6.06	-39.9	-41.2	20.2	0.00e+00	0	32	0	87031808	54	5875
2026-01-08 13:57:41.39	22.37	6.14	-39.8	-41.1	20.4	0.00e+00	0	32	0	89128960	54	5778
2026-01-08 13:57:42.40	22.40	6.21	-39.8	-41.1	20.4	0.00e+00	0	32	0	91226112	52	6528
2026-01-08 13:57:43.41	22.44	6.28	-39.7	-41.0	20.5	0.00e+00	0	32	0	93323264	52	6441
2026-01-08 13:57:44.42	22.48	6.35	-39.7	-41.0	20.5	0.00e+00	0	32	0	94371840	52	6416
2026-01-08 13:57:45.42	22.52	6.43	-39.7	-40.9	20.6	0.00e+00	0	32	0	96468992	52	6383
2026-01-08 13:57:46.43	22.57	6.50	-39.7	-40.9	20.7	0.00e+00	0	32	0	98566144	52	6365
2026-01-08 13:57:47.45	22.61	6.57	-39.7	-40.9	20.7	0.00e+00	0	32	0	100663296	52	6368
2026-01-08 13:57:48.45	22.65	6.65	-39.8	-41.0	20.6	0.00e+00	0	32	0	102760448	52	6456
2026-01-08 13:57:49.46	22.69	6.72	-39.7	-41.0	20.6	0.00e+00	0	32	0	103809024	52	6405
2026-01-08 13:57:50.47	22.73	6.80	-39.7	-41.0	20.7	0.00e+00	0	32	0	105906176	52	6407
2026-01-08 13:57:51.48	22.77	6.87	-39.7	-40.9	20.7	0.00e+00	0	32	0	108003328	52	6364
2026-01-08 13:57:52.49	22.81	6.95	-39.5	-40.7	20.8	0.00e+00	0	32	0	110100480	52	6223
2026-01-08 13:57:53.50	22.85	7.02	-39.5	-40.7	20.9	0.00e+00	0	32	0	112197632	52	6210
2026-01-08 13:57:54.51	22.90	7.10	-39.5	-40.7	20.9	0.00e+00	0	32	0	113246208	52	6226
2026-01-08 13:57:55.52	22.94	7.17	-39.6	-40.8	20.8	0.00e+00	0	32	0	115343360	52	6306
2026-01-08 13:57:56.53	22.98	7.25	-39.5	-40.7	20.9	0.00e+00	0	32	0	117440512	52	6232
2026-01-08 13:57:57.54	23.02	7.32	-39.6	-40.8	20.8	0.00e+00	0	32	0	119537664	52	6295
2026-01-08 13:57:58.55	23.07	7.40	-39.5	-40.7	21.0	0.00e+00	0	32	0	121634816	52	6192
2026-01-08 13:57:59.56	23.11	7.47	-39.5	-40.7	21.0	0.00e+00	0	32	0	122683392	52	6228
2026-01-08 13:58:00.57	23.15	7.55	-39.5	-40.7	20.9	0.00e+00	0	32	0	124780544	52	6243
2026-01-08 13:58:01.58	23.20	7.63	-39.4	-40.6	21.0	0.00e+00	0	32	0	126877696	52	6113
2026-01-08 13:58:02.58	23.24	7.70	-39.4	-40.6	21.1	0.00e+00	0	32	0	128974848	52	6141
2026-01-08 13:58:03.59	23.28	7.78	-39.3	-40.5	21.1	0.00e+00	0	32	0	131072000	52	6076
2026-01-08 13:58:04.60	23.33	7.86	-39.3	-40.5	21.2	0.00e+00	0	32	0	132120576	52	6062
2026-01-08 13:58:05.62	23.37	7.94	-39.4	-40.6	21.0	0.00e+00	0	32	0	134217728	52	6157
2026-01-08 13:58:06.62	23.41	8.01	-39.2	-40.4	21.3	0.00e+00	0	32	0	136314880	52	5971
2026-01-08 13:58:07.63	23.46	8.09	-39.3	-40.5	21.2	0.00e+00	0	32	0	138412032	52	6068
2026-01-08 13:58:08.64	23.50	8.17	-39.1	-40.3	21.4	0.00e+00	0	32	0	140509184	52	5911
2026-01-08 13:58:09.65	23.55	8.25	-39.3	-40.4	21.3	0.00e+00	0	32	0	141557760	52	6010
2026-01-08 13:58:10.66	23.59	8.33	-39.2	-40.4	21.3	0.00e+00	0	32	0	143654912	52	5971
2026-01-08 13:58:11.66	23.64	8.40	-39.3	-40.4	21.3	0.00e+00	0	32	0	145752064	52	6004
2026-01-08 13:58:12.67	23.69	8.48	-39.1	-40.2	21.5	0.00e+00	0	32	0	147849216	52	5871
2026-01-08 13:58:13.68	23.73	8.56	-39.2	-40.4	21.3	0.00e+00	0	32	0	149946368	52	5975
2026-01-08 13:58:14.69	23.78	8.64	-39.2	-40.3	21.4	0.00e+00	0	32	0	152043520	52	5955
2026-01-08 13:58:15.70	23.82	8.72	-39.0	-40.2	21.5	0.00e+00	0	32	0	153092096	52	5836
2026-01-08 13:58:16.71	23.87	8.80	-39.2	-40.3	21.4	0.00e+00	0	32	0	155189248	52	5929
2026-01-08 13:58:17.71	23.92	8.88	-39.1	-40.2	21.5	0.00e+00	0	32	0	157286400	52	5866
2026-01-08 13:58:18.72	23.96	8.96	-39.0	-40.1	21.7	0.00e+00	0	32	0	159383552	52	5781
2026-01-08 13:58:19.73	24.01	9.04	-39.1	-40.3	21.5	0.00e+00	0	32	0	161480704	52	5913
2026-01-08 13:58:20.74	24.06	9.12	-39.1	-40.2	21.6	0.00e+00	0	32	0	162529280	52	5867
2026-01-08 13:58:21.75	24.11	9.21	-39.0	-40.1	21.7	0.00e+00	0	32	0	164626432	52	5766
2026-01-08 13:58:22.76	24.15	9.29	-39.0	-40.1	21.8	0.00e+00	0	32	0	166723584	52	5772
2026-01-08 13:58:23.77	24.20	9.37	-39.0	-40.1	21.7	0.00e+00	0	32	0	168820736	52	5811
2026-01-08 13:58:24.77	24.25	9.45	-38.8	-39.9	21.8	0.00e+00	0	32	0	170917888	52	5670
2026-01-08 13:58:25.78	24.30	9.53	-38.9	-40.0	21.8	0.00e+00	0	32	0	171966464	52	5710
2026-01-08 13:58:26.79	24.35	9.62	-38.8	-39.9	21.8	0.00e+00	0	32	0	174063616	52	5691
2026-01-08 13:58:27.80	24.40	9.70	-38.8	-39.9	21.9	0.00e+00	0	32	0	176160768	52	5678
2026-01-08 13:58:28.81	24.45	9.78	-38.8	-39.9	21.8	0.00e+00	0	32	0	178257920	50	6334
2026-01-08 13:58:29.82	24.50	9.86	-38.7	-39.8	22.0	0.00e+00	0	32	0	180355072	50	6283
2026-01-08 13:58:30.83	24.55	9.95	-38.8	-39.9	21.9	0.00e+00	0	32	0	181403648	50	6349
2026-01-08 13:58:31.84	24.60	10.03	-38.8	-39.8	22.0	0.00e+00	0	32	0	183500800	50	6317
2026-01-08 13:58:32.85	24.65	10.12	-38.7	-39.8	22.0	0.00e+00	0	32	0	185597952	50	6254
2026-01-08 13:58:33.85	24.70	10.20	-38.6	-39.7	22.0	0.00e+00	0	32	0	187695104	50	6208
2026-01-08 13:58:34.86	24.75	10.28	-38.6	-39.7	22.1	0.00e+00	0	32	0	189792256	50	6181
2026-01-08 13:58:35.87	24.80	10.37	-38.5	-39.6	22.2	0.00e+00	0	32	0	190840832	50	6127
2026-01-08 13:58:36.88	24.85	10.45	-38.6	-39.6	22.2	0.00e+00	0	32	0	192937984	50	6163
2026-01-08 13:58:37.89	24.90	10.54	-38.5	-39.5	22.2	0.00e+00	0	32	0	195035136	50	6099
2026-01-08 13:58:38.90	24.96	10.63	-38.4	-39.4	22.4	0.00e+00	0	32	0	197132288	50	6017
2026-01-08 13:58:39.90	25.01	10.71	-38.5	-39.5	22.2	0.00e+00	0	32	0	199229440	50	6087
2026-01-08 13:58:40.91	25.06	10.80	-38.5	-39.5	22.2	0.00e+00	0	32	0	200278016	50	6079
2026-01-08 13:58:41.92	25.11	10.88	-38.3	-39.3	22.4	0.00e+00	0	32	0	202375168	50	5933
2026-01-08 13:58:42.93	25.17	10.97	-38.4	-39.5	22.3	0.00e+00	0	32	0	204472320	50	6042
2026-01-08 13:58:43.94	25.22	11.06	-38.3	-39.3	22.5	0.00e+00	0	32	0	206569472	50	5897
2026-01-08 13:58:44.94	25.27	11.15	-38.2	-39.2	22.5	0.00e+00	0	32	0	208666624	50	5884
2026-01-08 13:58:45.95	25.33	11.23	-38.2	-39.2	22.6	0.00e+00	0	32	0	209715200	50	5854
2026-01-08 13:58:46.96	25.38	11.32	-38.2	-39.2	22.6	0.00e+00	0	32	0	211812352	50	5835
2026-01-08 13:58:47.97	25.44	11.41	-38.2	-39.2	22.6	0.00e+00	0	32	0	213909504	50	5863
2026-01-08 13:58:48.98	25.49	11.50	-38.1	-39.1	22.7	0.00e+00	0	32	0	216006656	50	5792
2026-01-08 13:58:49.99	25.55	11.59	-38.0	-39.0	22.7	0.00e+00	0	32	0	218103808	50	5743
2026-01-08 13:58:51.00	25.60	11.68	-38.1	-39.1	22.7	0.00e+00	0	32	0	219152384	50	5771
2026-01-08 13:58:52.01	25.66	11.77	-37.9	-38.9	22.9	0.00e+00	0	32	0	221249536	50	5658
2026-01-08 13:58:53.02	25.72	11.86	-38.1	-39.1	22.9	0.00e+00	0	32	0	223346688	50	5768
2026-01-08 13:58:54.03	25.77	11.95	-37.9	-38.8	23.0	0.00e+00	0	32	0	225443840	50	5618
2026-01-08 13:58:55.04	25.83	12.04	-37.9	-38.9	22.9	0.00e+00	0	32	0	227540992	50	5670
2026-01-08 13:58:56.05	25.89	12.13	-37.8	-38.7	23.1	0.00e+00	0	32	0	228589568	50	5543
2026-01-08 13:58:57.05	25.94	12.22	-37.7	-38.7	23.1	0.00e+00	0	32	0	230686720	48	6179
2026-01-08 13:58:58.06	26.00	12.31	-37.7	-38.6	23.1	0.00e+00	0	32	0	232783872	48	6159
2026-01-08 13:58:59.07	26.06	12.40	-37.7	-38.6	23.2	0.00e+00	0	32	0	234881024	48	6146
2026-01-08 13:59:00.08	26.12	12.49	-37.6	-38.6	23.2	0.00e+00	0	32	0	236978176	48	6122
2026-01-08 13:59:01.09	26.18	12.59	-37.7	-38.7	23.1	0.00e+00	0	32	0	238026752	48	6190
2026-01-08 13:59:02.10	26.24	12.68	-37.6	-38.5	23.3	0.00e+00	0	32	0	240123904	48	6078
2026-01-08 13:59:03.11	26.30	12.77	-37.5	-38.4	23.4	0.00e+00	0	32	0	242221056	48	5995
2026-01-08 13:59:04.12	26.36	12.87	-37.4	-38.3	23.4	0.00e+00	0	32	0	244318208	48	5947
2026-01-08 13:59:05.13	26.42	12.96	-37.4	-38.3	23.4	0.00e+00	0	32	0	246415360	48	5953
2026-01-08 13:59:06.14	26.48	13.05	-37.3	-38.2	23.5	0.00e+00	0	32	0	248512512	48	5854
2026-01-08 13:59:07.15	26.54	13.15	-37.4	-38.3	23.5	0.00e+00	0	32	0	249561088	48	5938
2026-01-08 13:59:08.16	26.60	13.24	-37.2	-38.1	23.6	0.00e+00	0	32	0	251658240	48	5786
2026-01-08 13:59:09.17	26.66	13.34	-37.2	-38.1	23.6	0.00e+00	0	32	0	253755392	48	5818
2026-01-08 13:59:10.18	26.72	13.43	-37.1	-38.0	23.7	0.00e+00	0	32	0	255852544	48	5727
2026-01-08 13:59:11.19	26.79	13.53	-37.2	-38.1	23.6	0.00e+00	0	32	0	257949696	48	5803
2026-01-08 13:59:12.20	26.85	13.63	-37.0	-37.9	23.9	0.00e+00	0	32	0	258998272	48	5636
2026-01-08 13:59:13.21	26.91	13.72	-37.0	-37.9	23.8	0.00e+00	0	32	0	261095424	48	5636
2026-01-08 13:59:14.22	26.98	13.82	-36.9	-37.7	24.0	0.00e+00	0	32	0	263192576	48	5555
2026-01-08 13:59:15.23	27.04	13.92	-36.9	-37.8	23.9	0.00e+00	0	32	0	265289728	48	5570
2026-01-08 13:59:16.24	27.10	14.01	-36.9	-37.8	23.9	0.00e+00	0	32	0	267386880	48	5611
2026-01-08 13:59:17.25	27.17	14.11	-36.9	-37.8	23.9	0.00e+00	0	32	0	268435456	48	5596
2026-01-08 13:59:18.26	27.23	14.21	-37.0	-37.9	23.9	0.00e+00	0	32	0	270532608	48	5647
2026-01-08 13:59:19.27	27.30	14.31	-36.8	-37.7	24.0	0.00e+00	0	32	0	272629760	48	5516
2026-01-08 13:59:20.28	27.37	14.41	-36.9	-37.7	24.0	0.00e+00	0	32	0	274726912	48	5546
2026-01-08 13:59:21.29	27.43	14.51	-36.8	-37.6	24.1	0.00e+00	0	32	0	276824064	48	5491
2026-01-08 13:59:22.29	27.50	14.61	-36.7	-37.6	24.2	0.00e+00	0	32	0	277872640	46	6112
2026-01-08 13:59:23.30	27.57	14.71	-36.8	-37.7	24.1	0.00e+00	0	32	0	279969792	46	6182
2026-01-08 13:59:24.31	27.63	14.81	-36.7	-37.6	24.2	0.00e+00	0	32	0	282066944	46	6116
2026-01-08 13:59:25.32	27.70	14.91	-36.8	-37.6	24.2	0.00e+00	0	32	0	284164096	46	6148
2026-01-08 13:59:26.33	27.77	15.01	-36.8	-37.6	24.1	0.00e+00	0	32	0	286261248	46	6145
2026-01-08 13:59:27.34	27.84	15.11	-36.8	-37.6	24.1	0.00e+00	0	32	0	287309824	46	6150
2026-01-08 13:59:28.35	27.91	15.21	-36.7	-37.6	24.1	0.00e+00	0	32	0	289406976	46	6130
2026-01-08 13:59:29.36	27.98	15.32	-36.7	-37.6	24.2	0.00e+00	0	32	0	291504128	46	6113
2026-01-08 13:59:30.37	28.05	15.42	-36.7	-37.6	24.1	0.00e+00	0	32	0	293601280	46	6111
2026-01-08 13:59:31.38	28.12	15.52	-36.8	-37.6	23.9	0.00e+00	0	32	0	295698432	46	6159
2026-01-08 13:59:32.39	28.19	15.63	-36.6	-37.5	24.2	0.00e+00	0	32	0	296747008	46	6061
2026-01-08 13:59:33.40	28.26	15.73	-36.6	-37.5	24.3	0.00e+00	0	32	0	298844160	46	6050
2026-01-08 13:59:34.40	28.33	15.83	-36.5	-37.4	24.4	0.00e+00	0	32	0	300941312	46	5980
2026-01-08 13:59:35.41	28.41	15.94	-36.6	-37.5	24.2	0.00e+00	0	32	0	303038464	46	6052
2026-01-08 13:59:36.42	28.48	16.04	-36.5	-37.4	24.3	0.00e+00	0	32	0	305135616	46	5975
2026-01-08 13:59:37.43	28.55	16.15	-36.6	-37.4	24.3	0.00e+00	0	32	0	306184192	46	6028
2026-01-08 13:59:38.44	28.63	16.26	-36.5	-37.4	24.4	0.00e+00	0	32	0	308281344	46	5978
2026-01-08 13:59:39.45	28.70	16.36	-36.6	-37.5	24.3	0.00e+00	0	32	0	310378496	46	6038
2026-01-08 13:59:40.46	28.78	16.47	-36.5	-37.3	24.4	0.00e+00	0	32	0	312475648	46	5924
2026-01-08 13:59:41.47	28.85	16.58	-36.6	-37.4	24.3	0.00e+00	0	32	0	314572800	46	6001
2026-01-08 13:59:42.48	28.93	16.69	-36.6	-37.4	24.3	0.00e+00	0	32	0	316669952	46	6027
2026-01-08 13:59:43.49	29.00	16.79	-36.4	-37.3	24.4	0.00e+00	0	32	0	317718528	46	5913
2026-01-08 13:59:44.50	29.08	16.90	-36.6	-37.4	24.4	0.00e+00	0	32	0	319815680	46	5996
2026-01-08 13:59:45.51	29.16	17.01	-36.5	-37.3	24.5	0.00e+00	0	32	0	321912832	46	5961
2026-01-08 13:59:46.52	29.24	17.12	-36.5	-37.3	24.5	0.00e+00	0	32	0	324009984	46	5960
2026-01-08 13:59:47.52	29.32	17.23	-36.5	-37.3	24.4	0.00e+00	0	32	0	326107136	46	5917
2026-01-08 13:59:48.53	29.40	17.34	-36.6	-37.5	24.3	0.00e+00	0	32	0	327155712	46	6050
2026-01-08 13:59:49.54	29.47	17.45	-36.4	-37.3	24.5	0.00e+00	0	32	0	329252864	46	5907
2026-01-08 13:59:50.55	29.56	17.57	-36.4	-37.2	24.5	0.00e+00	0	32	0	331350016	46	5843
2026-01-08 13:59:51.56	29.64	17.68	-36.3	-37.2	24.5	0.00e+00	0	32	0	333447168	46	5834
2026-01-08 13:59:52.56	29.72	17.79	-36.5	-37.3	24.4	0.00e+00	0	32	0	334495744	46	5934
2026-01-08 13:59:53.57	29.80	17.90	-36.4	-37.2	24.5	0.00e+00	0	32	0	336592896	46	5871
2026-01-08 13:59:54.58	29.88	18.01	-36.3	-37.1	24.6	0.00e+00	0	33	0	338690048	46	5785
2026-01-08 13:59:55.59	29.97	18.13	-36.3	-37.1	24.6	0.00e+00	0	32	0	340787200	46	5821
2026-01-08 13:59:56.60	30.05	18.24	-36.3	-37.1	24.7	0.00e+00	0	32	0	342884352	46	5812
2026-01-08 13:59:57.61	30.13	18.36	-36.4	-37.2	24.5	0.00e+00	0	32	0	344981504	46	5854
2026-01-08 13:59:58.61	30.22	18.47	-36.3	-37.1	24.6	0.00e+00	0	32	0	346030080	46	5801
2026-01-08 13:59:59.63	30.30	18.59	-36.4	-37.2	24.6	0.00e+00	0	32	0	348127232	46	5883
2026-01-08 14:00:00.64	30.39	18.71	-36.4	-37.3	24.5	0.00e+00	0	32	0	350224384	46	5901
2026-01-08 14:00:01.64	30.48	18.82	-36.4	-37.2	24.5	0.00e+00	0	32	0	352321536	46	5881
2026-01-08 14:00:02.65	30.56	18.94	-36.4	-37.2	24.6	0.00e+00	0	32	0	354418688	46	5890
2026-01-08 14:00:03.66	30.65	19.06	-36.5	-37.4	24.4	0.00e+00	0	32	0	355467264	46	5966
2026-01-08 14:00:04.67	30.74	19.17	-36.6	-37.4	24.4	0.00e+00	0	32	0	357564416	46	6016
2026-01-08 14:00:05.68	30.83	19.29	-36.6	-37.4	24.4	0.00e+00	0	32	0	359661568	46	6005
2026-01-08 14:00:06.69	30.92	19.41	-36.6	-37.4	24.4	0.00e+00	0	32	0	361758720	46	5992
2026-01-08 14:00:07.70	31.01	19.53	-36.6	-37.4	24.4	0.00e+00	0	32	0	363855872	46	5999
2026-01-08 14:00:08.71	31.10	19.65	-36.4	-37.3	24.5	0.00e+00	0	32	0	364904448	46	5905
2026-01-08 14:00:09.72	31.20	19.77	-36.4	-37.2	24.4	0.00e+00	0	32	0	367001600	46	5894
2026-01-08 14:00:10.73	31.29	19.89	-36.5	-37.3	24.5	0.00e+00	0	32	0	369098752	46	5956
2026-01-08 14:00:11.74	31.38	20.02	-36.3	-37.2	24.6	0.00e+00	0	32	0	371195904	46	5829
2026-01-08 14:00:12.75	31.48	20.14	-36.4	-37.2	24.5	0.00e+00	0	32	0	373293056	46	5890
2026-01-08 14:00:13.76	31.57	20.26	-36.4	-37.2	24.6	0.00e+00	0	32	0	374341632	46	5850
2026-01-08 14:00:14.76	31.67	20.38	-36.4	-37.2	24.5	0.00e+00	0	32	0	376438784	46	5844
2026-01-08 14:00:15.77	31.76	20.51	-36.4	-37.2	24.5	0.00e+00	0	32	0	378535936	46	5857
2026-01-08 14:00:16.78	31.86	20.63	-36.4	-37.2	24.5	0.00e+00	0	32	0	380633088	46	5884
2026-01-08 14:00:17.79	31.96	20.76	-36.4	-37.2	24.6	0.00e+00	0	32	0	382730240	46	5839
2026-01-08 14:00:18.80	32.06	20.88	-36.5	-37.3	24.5	0.00e+00	0	32	0	383778816	46	5928
2026-01-08 14:00:19.81	32.16	21.01	-36.4	-37.2	24.6	0.00e+00	0	32	0	385875968	46	5845
2026-01-08 14:00:20.82	32.26	21.14	-36.5	-37.3	24.4	0.00e+00	0	32	0	387973120	46	5937
2026-01-08 14:00:21.83	32.36	21.26	-36.4	-37.3	24.5	0.00e+00	0	32	0	390070272	46	5910
2026-01-08 14:00:22.84	32.46	21.39	-36.6	-37.4	24.4	0.00e+00	0	32	0	392167424	46	5987
2026-01-08 14:00:23.85	32.56	21.52	-36.5	-37.3	24.5	0.00e+00	0	32	0	393216000	46	5938
2026-01-08 14:00:24.85	32.66	21.65	-36.6	-37.4	24.5	0.00e+00	0	32	0	395313152	46	6012
2026-01-08 14:00:25.86	32.77	21.78	-36.5	-37.3	24.5	0.00e+00	0	32	0	397410304	46	5953
2026-01-08 14:00:26.87	32.87	21.91	-36.5	-37.3	24.6	0.00e+00	0	32	0	399507456	46	5933
2026-01-08 14:00:27.88	32.98	22.04	-36.4	-37.2	24.6	0.00e+00	0	32	0	401604608	46	5867
2026-01-08 14:00:28.89	33.09	22.17	-36.5	-37.3	24.5	0.00e+00	0	32	0	402653184	46	5935
2026-01-08 14:00:29.89	33.19	22.30	-36.5	-37.3	24.6	0.00e+00	0	32	0	404750336	46	5909
2026-01-08 14:00:30.90	33.30	22.43	-36.3	-37.1	24.6	0.00e+00	0	32	0	406847488	46	5799
2026-01-08 14:00:31.91	33.41	22.57	-36.4	-37.2	24.6	0.00e+00	0	32	0	408944640	46	5841
2026-01-08 14:00:32.92	33.52	22.70	-36.3	-37.1	24.6	0.00e+00	0	32	0	411041792	46	5819
2026-01-08 14:00:33.93	33.63	22.83	-36.3	-37.2	24.6	0.00e+00	0	32	0	413138944	46	5835
2026-01-08 14:00:34.94	33.75	22.97	-36.4	-37.3	24.5	0.00e+00	0	32	0	414187520	46	5905
2026-01-08 14:00:35.95	33.86	23.10	-36.5	-37.3	24.5	0.00e+00	0	32	0	416284672	46	5956
2026-01-08 14:00:36.96	33.97	23.24	-36.6	-37.4	24.4	0.00e+00	0	32	0	418381824	46	6005
2026-01-08 14:00:37.97	34.09	23.38	-36.6	-37.4	24.5	0.00e+00	0	32	0	420478976	46	5976
2026-01-08 14:00:38.98	34.20	23.51	-36.7	-37.5	24.3	0.00e+00	0	32	0	422576128	46	6065
2026-01-08 14:00:39.99	34.32	23.65	-36.7	-37.5	24.4	0.00e+00	0	32	0	423624704	46	6079
2026-01-08 14:00:40.99	34.44	23.79	-36.9	-37.8	24.2	0.00e+00	0	32	0	425721856	46	6270
2026-01-08 14:00:42.00	34.56	23.93	-36.8	-37.6	24.3	0.00e+00	0	32	0	427819008	46	6139
2026-01-08 14:00:43.01	34.68	24.07	-36.8	-37.6	24.2	0.00e+00	0	32	0	429916160	46	6161
2026-01-08 14:00:44.02	34.80	24.21	-36.6	-37.4	24.5	0.00e+00	0	32	0	432013312	46	6009
2026-01-08 14:00:45.03	34.92	24.35	-36.5	-37.3	24.1	0.00e+00	0	32	0	433061888	46	5962
2026-01-08 14:00:46.04	35.04	24.49	-36.5	-37.3	24.5	0.00e+00	0	32	0	435159040	46	5946
2026-01-08 14:00:47.05	35.17	24.63	-36.5	-37.3	24.5	0.00e+00	0	32	0	437256192	46	5963
2026-01-08 14:00:48.06	35.29	24.78	-36.4	-37.2	24.6	0.00e+00	0	32	0	439353344	46	5896
2026-01-08 14:00:49.07	35.42	24.92	-36.5	-37.3	24.6	0.00e+00	0	32	0	441450496	46	5915
2026-01-08 14:00:50.08	35.55	25.06	-36.6	-37.4	24.5	0.00e+00	0	32	0	442499072	46	6030
2026-01-08 14:00:51.09	35.68	25.21	-36.7	-37.5	24.4	0.00e+00	0	32	0	444596224	46	6067
2026-01-08 14:00:52.09	35.80	25.35	-36.7	-37.6	24.4	0.00e+00	0	32	0	446693376	46	6116
2026-01-08 14:00:53.10	35.94	25.50	-36.8	-37.7	24.3	0.00e+00	0	32	0	448790528	46	6182
2026-01-08 14:00:54.11	36.07	25.65	-37.0	-37.8	24.2	0.00e+00	0	32	0	450887680	46	6293
2026-01-08 14:00:55.12	36.20	25.79	-36.9	-37.8	24.1	0.00e+00	0	32	0	451936256	46	6268
2026-01-08 14:00:56.13	36.34	25.94	-36.9	-37.7	24.2	0.00e+00	0	32	0	454033408	46	6225
2026-01-08 14:00:57.14	36.47	26.09	-36.9	-37.7	24.2	0.00e+00	0	32	0	456130560	46	6212
2026-01-08 14:00:58.15	36.61	26.24	-36.9	-37.7	24.2	0.00e+00	0	32	0	458227712	46	6208
2026-01-08 14:00:59.16	36.75	26.39	-37.0	-37.8	24.2	0.00e+00	0	32	0	460324864	46	6281
2026-01-08 14:01:00.17	36.89	26.54	-36.9	-37.7	24.2	0.00e+00	0	32	0	461373440	46	6224
2026-01-08 14:01:01.18	37.03	26.69	-36.9	-37.7	24.2	0.00e+00	0	32	0	463470592	46	6234
2026-01-08 14:01:02.19	37.17	26.85	-36.9	-37.8	24.1	0.00e+00	0	32	0	465567744	46	6267
2026-01-08 14:01:03.19	37.31	27.00	-37.1	-38.0	24.1	0.00e+00	0	32	0	467664896	46	6402
2026-01-08 14:01:04.20	37.46	27.15	-37.1	-38.0	24.0	0.00e+00	0	32	0	469762048	46	6421
2026-01-08 14:01:05.21	37.60	27.31	-37.4	-38.3	23.8	0.00e+00	0	32	0	470810624	46	6623
2026-01-08 14:01:06.22	37.75	27.46	-37.5	-38.4	23.5	0.00e+00	0	32	0	472907776	46	6693
2026-01-08 14:01:07.22	37.90	27.61	-37.7	-38.6	23.5	0.00e+00	0	32	0	475004928	46	6884
2026-01-08 14:01:08.24	38.05	27.77	-37.8	-38.8	23.2	0.00e+00	0	32	0	477102080	48	6251
2026-01-08 14:01:09.25	38.20	27.93	-37.7	-38.7	23.4	0.00e+00	0	32	0	479199232	48	6179
2026-01-08 14:01:10.25	38.35	28.09	-37.8	-38.7	23.4	0.00e+00	0	32	0	480247808	48	6226
2026-01-08 14:01:11.26	38.51	28.24	-37.9	-38.8	23.2	0.00e+00	0	32	0	482344960	48	6284
2026-01-08 14:01:12.27	38.66	28.40	-38.0	-38.9	23.2	0.00e+00	0	32	0	484442112	48	6349
2026-01-08 14:01:13.28	38.82	28.56	-38.1	-39.0	23.1	0.00e+00	0	32	0	486539264	48	6435
2026-01-08 14:01:14.29	38.98	28.72	-38.1	-39.0	23.1	0.00e+00	0	32	0	488636416	48	6420
2026-01-08 14:01:15.30	39.14	28.88	-38.2	-39.2	23.0	0.00e+00	0	32	0	489684992	48	6561
2026-01-08 14:01:16.31	39.30	29.05	-38.4	-39.4	22.8	0.00e+00	0	32	0	491782144	48	6702
2026-01-08 14:01:17.32	39.47	29.21	-38.5	-39.4	22.7	0.00e+00	0	32	0	493879296	48	6765
2026-01-08 14:01:18.33	39.63	29.37	-38.6	-39.6	22.5	0.00e+00	0	32	0	495976448	48	6909
2026-01-08 14:01:19.33	39.80	29.54	-38.8	-39.8	22.4	0.00e+00	0	32	0	498073600	50	6282
2026-01-08 14:01:20.34	39.97	29.70	-38.9	-40.0	22.3	0.00e+00	0	32	0	499122176	50	6411
2026-01-08 14:01:21.35	40.14	29.87	-39.0	-40.0	22.2	0.00e+00	0	33	0	501219328	50	6464
2026-01-08 14:01:22.36	40.31	30.03	-39.2	-40.2	22.0	0.00e+00	0	32	0	503316480	50	6591
2026-01-08 14:01:23.37	40.49	30.20	-39.3	-40.4	22.0	0.00e+00	0	32	0	505413632	50	6727
2026-01-08 14:01:24.38	40.66	30.37	-39.3	-40.4	21.8	0.00e+00	0	32	0	507510784	50	6739
2026-01-08 14:01:25.39	40.84	30.53	-39.3	-40.4	21.9	0.00e+00	0	32	0	509607936	50	6747
2026-01-08 14:01:26.40	41.02	30.70	-39.5	-40.6	21.7	0.00e+00	0	32	0	510656512	50	6855
2026-01-08 14:01:27.41	41.20	30.87	-39.3	-40.3	22.0	0.00e+00	0	32	0	512753664	50	6685
2026-01-08 14:01:28.42	41.38	31.04	-39.2	-40.3	22.0	0.00e+00	0	32	0	514850816	50	6622
2026-01-08 14:01:29.43	41.57	31.21	-39.1	-40.2	22.1	0.00e+00	0	32	0	516947968	50	6574
2026-01-08 14:01:30.43	41.75	31.38	-39.1	-40.1	22.2	0.00e+00	0	32	0	519045120	50	6502
2026-01-08 14:01:31.44	41.94	31.56	-39.0	-40.0	22.3	0.00e+00	0	32	0	520093696	50	6449
2026-01-08 14:01:32.45	42.13	31.73	-38.9	-39.9	22.4	0.00e+00	0	32	0	522190848	50	6374
2026-01-08 14:01:33.46	42.33	31.90	-38.9	-40.0	22.3	0.00e+00	0	32	0	524288000	50	6398
2026-01-08 14:01:34.47	42.52	32.08	-38.9	-39.9	22.4	0.00e+00	0	32	0	526385152	50	6322
2026-01-08 14:01:35.48	42.72	32.25	-39.0	-40.0	22.3	0.00e+00	0	32	0	528482304	50	6423
2026-01-08 14:01:36.49	42.92	32.43	-39.1	-40.2	22.1	0.00e+00	0	32	0	529530880	50	6552
2026-01-08 14:01:37.50	43.12	32.60	-39.1	-40.1	22.2	0.00e+00	0	32	0	531628032	50	6512
2026-01-08 14:01:38.51	43.32	32.78	-38.9	-39.9	22.4	0.00e+00	0	32	0	533725184	50	6347
2026-01-08 14:01:39.52	43.53	32.96	-38.8	-39.8	22.5	0.00e+00	0	32	0	535822336	50	6292
2026-01-08 14:01:40.53	43.74	33.14	-38.7	-39.6	22.3	0.00e+00	0	32	0	537919488	50	6173
2026-01-08 14:01:41.53	43.94	33.31	-38.6	-39.6	22.7	0.00e+00	0	32	0	538968064	50	6113
2026-01-08 14:01:42.54	44.16	33.49	-38.2	-39.1	23.1	0.00e+00	0	32	0	541065216	50	5800
2026-01-08 14:01:43.55	44.37	33.67	-38.1	-39.0	23.2	0.00e+00	0	32	0	543162368	50	5748
2026-01-08 14:01:44.56	44.59	33.85	-37.9	-38.8	23.4	0.00e+00	0	32	0	545259520	50	5591
2026-01-08 14:01:45.57	44.81	34.04	-37.7	-38.6	23.5	0.00e+00	0	32	0	547356672	48	6153
2026-01-08 14:01:46.57	45.03	34.22	-37.9	-38.8	23.2	0.00e+00	0	32	0	548405248	48	6264
2026-01-08 14:01:47.58	45.25	34.40	-37.9	-38.8	23.4	0.00e+00	0	33	0	550502400	48	6272
2026-01-08 14:01:48.59	45.48	34.58	-37.8	-38.8	23.4	0.00e+00	0	32	0	552599552	48	6251
2026-01-08 14:01:49.60	45.71	34.77	-37.9	-38.9	23.3	0.00e+00	0	32	0	554696704	48	6335
2026-01-08 14:01:50.61	45.94	34.95	-37.6	-38.5	23.6	0.00e+00	0	32	0	556793856	48	6038
2026-01-08 14:01:51.62	46.17	35.14	-37.2	-38.0	24.1	0.00e+00	0	32	0	557842432	48	5748
2026-01-08 14:01:52.63	46.41	35.32	-37.4	-38.3	23.8	0.00e+00	0	32	0	559939584	48	5936
2026-01-08 14:01:53.64	46.65	35.51	-37.4	-38.3	23.8	0.00e+00	0	32	0	562036736	48	5919
2026-01-08 14:01:54.65	46.89	35.70	-37.5	-38.4	23.8	0.00e+00	0	32	0	564133888	48	5970
2026-01-08 14:01:55.66	47.13	35.88	-37.4	-38.3	23.8	0.00e+00	0	32	0	566231040	48	5902
2026-01-08 14:01:56.67	47.38	36.07	-37.1	-38.0	24.0	0.00e+00	0	32	0	567279616	48	5705
2026-01-08 14:01:57.68	47.63	36.26	-36.9	-37.8	24.3	0.00e+00	0	32	0	569376768	48	5588
2026-01-08 14:01:58.69	47.89	36.45	-36.3	-37.1	24.9	0.00e+00	0	32	0	571473920	46	5792
2026-01-08 14:01:59.70	48.14	36.64	-36.3	-37.0	24.8	0.00e+00	0	32	0	573571072	46	5760
2026-01-08 14:02:00.71	48.40	36.83	-36.2	-37.0	24.9	0.00e+00	0	32	0	575668224	46	5727
2026-01-08 14:02:01.72	48.66	37.02	-36.1	-36.9	25.0	0.00e+00	0	32	0	576716800	46	5634
2026-01-08 14:02:02.72	48.93	37.21	-36.3	-37.1	24.7	0.00e+00	0	32	0	578813952	46	5823
2026-01-08 14:02:03.73	49.20	37.40	-36.5	-37.3	24.5	0.00e+00	0	32	0	580911104	46	5937
2026-01-08 14:02:04.74	49.47	37.59	-36.8	-37.7	24.4	0.00e+00	0	32	0	583008256	46	6200
2026-01-08 14:02:05.75	49.74	37.78	-37.0	-37.9	24.2	0.00e+00	0	32	0	585105408	46	6330
2026-01-08 14:02:06.76	50.02	37.97	-36.9	-37.7	24.3	0.00e+00	0	32	0	586153984	46	6226
2026-01-08 14:02:07.77	50.30	38.17	-36.8	-37.6	24.4	0.00e+00	0	32	0	588251136	46	6169
2026-01-08 14:02:08.78	50.58	38.36	-36.6	-37.4	24.6	0.00e+00	0	32	0	590348288	46	5971
2026-01-08 14:02:09.78	50.87	38.55	-36.3	-37.1	24.8	0.00e+00	0	32	0	592445440	46	5779
2026-01-08 14:02:10.79	51.16	38.74	-36.6	-37.4	24.6	0.00e+00	0	32	0	594542592	46	5999
2026-01-08 14:02:11.80	51.45	38.94	-36.5	-37.3	24.7	0.00e+00	0	32	0	595591168	46	5928
2026-01-08 14:02:12.81	51.75	39.13	-36.6	-37.5	24.6	0.00e+00	0	32	0	597688320	46	6041
2026-01-08 14:02:13.82	52.05	39.33	-36.7	-37.6	24.4	0.00e+00	0	32	0	599785472	46	6106
2026-01-08 14:02:14.83	52.36	39.52	-36.9	-37.7	24.3	0.00e+00	0	32	0	601882624	46	6234
2026-01-08 14:02:15.84	52.67	39.72	-37.0	-37.9	23.9	0.00e+00	0	32	0	603979776	46	6333
2026-01-08 14:02:16.85	52.98	39.91	-37.1	-38.0	24.0	0.00e+00	0	32	0	606076928	46	6424
2026-01-08 14:02:17.86	53.30	40.11	-37.3	-38.2	23.9	0.00e+00	0	32	0	607125504	46	6595
2026-01-08 14:02:18.87	53.62	40.30	-37.3	-38.2	23.9	0.00e+00	0	32	0	609222656	46	6594
2026-01-08 14:02:19.88	53.94	40.50	-37.1	-37.9	24.1	0.00e+00	0	32	0	611319808	46	6385
2026-01-08 14:02:20.89	54.27	40.69	-37.0	-37.9	24.1	0.00e+00	0	32	0	613416960	46	6335
2026-01-08 14:02:21.90	54.60	40.89	-37.2	-38.1	24.2	0.00e+00	0	32	0	615514112	46	6488
2026-01-08 14:02:22.91	54.94	41.09	-36.9	-37.8	24.3	0.00e+00	0	32	0	616562688	46	6253
2026-01-08 14:02:23.92	55.27	41.28	-36.9	-37.7	24.3	0.00e+00	0	32	0	618659840	46	6231
2026-01-08 14:02:24.92	55.61	41.48	-37.1	-37.9	24.1	0.00e+00	0	32	0	620756992	46	6359
2026-01-08 14:02:25.93	55.96	41.67	-37.3	-38.2	23.9	0.00e+00	0	32	0	622854144	46	6574
2026-01-08 14:02:26.94	56.31	41.87	-37.5	-38.4	23.6	0.00e+00	0	32	0	624951296	46	6743
2026-01-08 14:02:27.95	56.67	42.06	-37.6	-38.4	23.7	0.00e+00	0	32	0	625999872	46	6766
2026-01-08 14:02:28.96	57.03	42.26	-37.6	-38.5	23.7	0.00e+00	0	32	0	628097024	46	6807
2026-01-08 14:02:29.97	57.40	42.45	-37.5	-38.4	23.8	0.00e+00	0	32	0	630194176	46	6703
2026-01-08 14:02:30.98	57.76	42.65	-37.1	-38.0	24.1	0.00e+00	0	32	0	632291328	46	6406
2026-01-08 14:02:31.99	58.14	42.84	-37.0	-37.9	24.2	0.00e+00	0	32	0	634388480	46	6340
2026-01-08 14:02:33.00	58.52	43.03	-37.0	-37.9	24.2	0.00e+00	0	32	0	635437056	46	6322
2026-01-08 14:02:34.01	58.90	43.23	-37.6	-38.5	23.6	0.00e+00	0	32	0	637534208	46	6818
2026-01-08 14:02:35.02	59.29	43.42	-37.9	-38.8	23.3	0.00e+00	0	32	0	639631360	48	6282
2026-01-08 14:02:36.03	59.68	43.61	-38.0	-38.9	23.3	0.00e+00	0	32	0	641728512	48	6353
2026-01-08 14:02:37.04	60.07	43.81	-37.9	-38.8	23.4	0.00e+00	0	32	0	643825664	48	6296
2026-01-08 14:02:38.05	60.48	44.00	-37.6	-38.5	23.6	0.00e+00	0	32	0	644874240	48	6093
2026-01-08 14:02:39.06	60.88	44.19	-37.1	-37.9	24.2	0.00e+00	0	33	0	646971392	48	5663
2026-01-08 14:02:40.06	61.29	44.38	-37.0	-37.8	24.3	0.00e+00	0	32	0	649068544	48	5616
2026-01-08 14:02:41.07	61.70	44.57	-37.3	-38.2	23.8	0.00e+00	0	32	0	651165696	48	5869
2026-01-08 14:02:42.08	62.13	44.76	-38.1	-39.0	23.0	0.00e+00	0	32	0	653262848	48	6452
2026-01-08 14:02:43.09	62.55	44.94	-38.7	-39.7	22.5	0.00e+00	0	32	0	654311424	48	6969
2026-01-08 14:02:44.10	62.98	45.13	-38.9	-39.9	22.4	0.00e+00	0	32	0	656408576	50	6366
2026-01-08 14:02:45.11	63.42	45.32	-38.9	-39.9	22.4	0.00e+00	0	32	0	658505728	50	6331
2026-01-08 14:02:46.12	63.86	45.50	-38.7	-39.7	22.6	0.00e+00	0	32	0	660602880	50	6217
2026-01-08 14:02:47.13	64.30	45.69	-38.3	-39.3	23.0	0.00e+00	0	32	0	662700032	50	5928
2026-01-08 14:02:48.14	64.75	45.87	-38.2	-39.1	23.0	0.00e+00	0	32	0	663748608	50	5821
2026-01-08 14:02:49.15	65.21	46.05	-38.3	-39.3	22.9	0.00e+00	0	32	0	665845760	50	5919
2026-01-08 14:02:50.16	65.67	46.24	-38.6	-39.6	22.5	0.00e+00	0	32	0	667942912	50	6137
2026-01-08 14:02:51.17	66.14	46.42	-38.7	-39.7	22.6	0.00e+00	0	32	0	670040064	50	6184
2026-01-08 14:02:52.18	66.61	46.60	-38.5	-39.5	22.7	0.00e+00	0	32	0	672137216	50	6075
2026-01-08 14:02:53.18	67.08	46.77	-38.5	-39.5	22.8	0.00e+00	0	33	0	674234368	50	6072
2026-01-08 14:02:54.19	67.57	46.95	-38.2	-39.2	23.1	0.00e+00	0	32	0	675282944	50	5844
2026-01-08 14:02:55.20	68.06	47.12	-37.9	-38.8	23.4	0.00e+00	0	32	0	677380096	50	5626
2026-01-08 14:02:56.21	68.55	47.29	-37.8	-38.7	23.5	0.00e+00	0	32	0	679477248	48	6196
2026-01-08 14:02:57.22	69.05	47.47	-38.0	-38.9	22.8	0.00e+00	0	32	0	681574400	48	6350
2026-01-08 14:02:58.23	69.55	47.64	-38.3	-39.3	22.9	0.00e+00	0	32	0	683671552	48	6660
2026-01-08 14:02:59.24	70.06	47.80	-38.4	-39.4	22.8	0.00e+00	0	32	0	684720128	48	6748
2026-01-08 14:03:00.25	70.58	47.97	-38.0	-39.0	23.3	0.00e+00	0	33	0	686817280	48	6401
2026-01-08 14:03:01.26	71.10	48.14	-37.8	-38.7	23.4	0.00e+00	0	32	0	688914432	48	6197
2026-01-08 14:03:02.27	71.63	48.30	-37.7	-38.6	23.6	0.00e+00	0	32	0	691011584	48	6141
2026-01-08 14:03:03.28	72.16	48.46	-37.3	-38.1	23.9	0.00e+00	0	33	0	693108736	48	5816
2026-01-08 14:03:04.29	72.70	48.62	-37.1	-38.0	23.2	0.00e+00	0	32	0	694157312	48	5701
2026-01-08 14:03:05.30	73.24	48.77	-37.2	-38.1	24.0	0.00e+00	0	32	0	696254464	48	5776
2026-01-08 14:03:06.31	73.79	48.93	-37.4	-38.3	23.8	0.00e+00	0	32	0	698351616	48	5922
2026-01-08 14:03:07.32	74.34	49.08	-37.5	-38.4	23.7	0.00e+00	0	33	0	700448768	48	5965
2026-01-08 14:03:08.33	74.90	49.23	-37.5	-38.3	23.8	0.00e+00	0	32	0	702545920	48	5962
2026-01-08 14:03:09.34	75.47	49.38	-36.9	-37.8	24.3	0.00e+00	0	32	0	703594496	48	5582
2026-01-08 14:03:10.34	76.03	49.52	-36.8	-37.6	24.4	0.00e+00	0	32	0	705691648	46	6159
2026-01-08 14:03:11.35	76.61	49.66	-37.2	-38.0	24.1	0.00e+00	0	33	0	707788800	46	6433
2026-01-08 14:03:12.36	77.19	49.80	-37.4	-38.3	23.8	0.00e+00	0	32	0	709885952	46	6664
2026-01-08 14:03:13.37	77.77	49.94	-37.8	-38.7	23.5	0.00e+00	0	32	0	711983104	48	6184
2026-01-08 14:03:14.38	78.36	50.08	-37.9	-38.9	23.3	0.00e+00	0	32	0	713031680	48	6333
2026-01-08 14:03:15.39	78.96	50.21	-38.0	-38.9	23.3	0.00e+00	0	32	0	715128832	48	6335
2026-01-08 14:03:16.40	79.56	50.34	-37.6	-38.5	23.6	0.00e+00	0	32	0	717225984	48	6091
2026-01-08 14:03:17.41	80.17	50.46	-37.6	-38.4	23.4	0.00e+00	0	32	0	719323136	48	6016
2026-01-08 14:03:18.42	80.78	50.59	-37.5	-38.3	23.8	0.00e+00	0	33	0	721420288	48	5955
2026-01-08 14:03:19.43	81.40	50.71	-38.0	-38.9	23.2	0.00e+00	0	33	0	722468864	48	6380
2026-01-08 14:03:20.44	82.02	50.82	-38.2	-39.2	23.1	0.00e+00	0	33	0	724566016	48	6564
2026-01-08 14:03:21.44	82.64	50.93	-38.3	-39.3	22.9	0.00e+00	0	32	0	726663168	48	6634
2026-01-08 14:03:22.45	83.27	51.04	-38.0	-38.9	23.3	0.00e+00	0	32	0	728760320	48	6369
2026-01-08 14:03:23.46	83.90	51.15	-37.9	-38.8	23.2	0.00e+00	0	33	0	730857472	48	6302
2026-01-08 14:03:24.47	84.54	51.25	-37.4	-38.3	23.9	0.00e+00	0	32	0	731906048	48	5913
2026-01-08 14:03:25.48	85.19	51.35	-37.6	-38.5	23.7	0.00e+00	0	33	0	734003200	48	6077
2026-01-08 14:03:26.49	85.84	51.45	-37.2	-38.1	24.0	0.00e+00	0	32	0	736100352	48	5780
2026-01-08 14:03:27.50	86.49	51.54	-37.4	-38.3	23.8	0.00e+00	0	32	0	738197504	48	5912
2026-01-08 14:03:28.51	87.15	51.63	-36.8	-37.6	24.4	0.00e+00	0	32	0	740294656	48	5502
2026-01-08 14:03:29.52	87.81	51.72	-36.7	-37.5	24.4	0.00e+00	0	32	0	742391808	46	6060
2026-01-08 14:03:30.53	88.47	51.80	-36.9	-37.7	24.3	0.00e+00	0	32	0	743440384	46	6227
2026-01-08 14:03:31.54	89.14	51.88	-37.4	-38.3	23.9	0.00e+00	0	32	0	745537536	46	6616
2026-01-08 14:03:32.55	89.81	51.95	-37.5	-38.4	23.7	0.00e+00	0	32	0	747634688	46	6744
2026-01-08 14:03:33.56	90.48	52.02	-37.3	-38.2	23.9	0.00e+00	0	32	0	749731840	46	6573
2026-01-08 14:03:34.56	91.15	52.09	-36.2	-37.0	24.9	0.00e+00	0	32	0	750780416	46	5749
2026-01-08 14:03:35.57	91.83	52.15	-36.0	-36.8	25.0	0.00e+00	0	32	0	752877568	46	5606
2026-01-08 14:03:36.58	92.52	52.21	-36.4	-37.2	24.7	0.00e+00	0	32	0	754974720	46	5847
2026-01-08 14:03:37.59	93.20	52.26	-36.8	-37.7	24.3	0.00e+00	0	32	0	757071872	46	6204
2026-01-08 14:03:38.60	93.89	52.31	-36.8	-37.7	24.4	0.00e+00	0	32	0	759169024	46	6191
2026-01-08 14:03:39.61	94.58	52.36	-36.7	-37.6	24.5	0.00e+00	0	32	0	760217600	46	6127
2026-01-08 14:03:40.61	95.27	52.40	-36.2	-37.0	25.0	0.00e+00	0	32	0	762314752	46	5700
2026-01-08 14:03:41.62	95.96	52.44	-36.0	-36.8	25.0	0.00e+00	0	32	0	764411904	46	5623
2026-01-08 14:03:42.63	96.66	52.47	-36.3	-37.1	24.9	0.00e+00	0	32	0	766509056	46	5808
2026-01-08 14:03:43.64	97.35	52.50	-36.5	-37.3	24.6	0.00e+00	0	32	0	768606208	46	5958
2026-01-08 14:03:44.65	98.05	52.52	-36.6	-37.4	24.5	0.00e+00	0	32	0	770703360	46	6015
2026-01-08 14:03:45.66	98.75	52.54	-36.5	-37.3	24.7	0.00e+00	0	32	0	771751936	46	5915
2026-01-08 14:03:46.67	99.45	52.56	-35.7	-36.5	25.4	0.00e+00	0	32	0	773849088	44	6058
2026-01-08 14:03:47.68	100.15	52.57	-36.0	-36.8	25.1	0.00e+00	0	32	0	775946240	44	6248
2026-01-08 14:03:48.69	100.86	52.58	-36.4	-37.2	24.7	0.00e+00	0	32	0	778043392	44	6599
2026-01-08 14:03:49.69	101.55	52.58	-36.2	-37.0	24.9	0.00e+00	0	32	0	780140544	44	6404
2026-01-08 14:03:50.70	102.25	52.58	-36.0	-36.8	25.1	0.00e+00	0	32	0	781189120	44	6296
2026-01-08 14:03:51.71	102.95	52.58	-35.8	-36.6	25.2	0.00e+00	0	32	0	783286272	44	6106
2026-01-08 14:03:52.72	103.66	52.57	-36.0	-36.8	24.9	0.00e+00	0	32	0	785383424	44	6304
2026-01-08 14:03:53.73	104.36	52.55	-36.4	-37.2	24.6	0.00e+00	0	32	0	787480576	44	6609
2026-01-08 14:03:54.74	105.06	52.53	-36.5	-37.3	24.6	0.00e+00	0	32	0	789577728	44	6683
2026-01-08 14:03:55.75	105.76	52.51	-36.2	-37.0	24.8	0.00e+00	0	32	0	790626304	44	6435
2026-01-08 14:03:56.76	106.45	52.48	-35.9	-36.7	25.1	0.00e+00	0	32	0	792723456	44	6187
2026-01-08 14:03:57.77	107.15	52.45	-35.8	-36.6	25.2	0.00e+00	0	32	0	794820608	44	6148
2026-01-08 14:03:58.77	107.84	52.42	-35.7	-36.4	25.4	0.00e+00	0	32	0	796917760	44	6029
2026-01-08 14:03:59.78	108.53	52.38	-35.7	-36.5	25.6	0.00e+00	0	32	0	799014912	44	6044
2026-01-08 14:04:00.79	109.22	52.33	-35.6	-36.4	25.4	0.00e+00	0	32	0	800063488	44	5999
2026-01-08 14:04:01.80	109.91	52.28	-35.2	-36.0	25.8	0.00e+00	0	32	0	802160640	44	5700
2026-01-08 14:04:02.81	110.60	52.23	-35.6	-36.4	25.4	0.00e+00	0	32	0	804257792	44	5972
2026-01-08 14:04:03.82	111.28	52.17	-35.9	-36.7	25.2	0.00e+00	0	32	0	806354944	44	6203
2026-01-08 14:04:04.83	111.97	52.11	-35.6	-36.4	25.3	0.00e+00	0	32	0	808452096	44	5985
2026-01-08 14:04:05.84	112.65	52.05	-35.5	-36.3	25.5	0.00e+00	0	32	0	809500672	44	5910
2026-01-08 14:04:06.85	113.32	51.98	-35.9	-36.7	25.1	0.00e+00	0	32	0	811597824	44	6214
2026-01-08 14:04:07.86	113.99	51.91	-36.6	-37.4	24.5	0.00e+00	0	32	0	813694976	44	6727
2026-01-08 14:04:08.87	114.66	51.83	-36.9	-37.7	24.3	0.00e+00	0	32	0	815792128	46	6202
2026-01-08 14:04:09.88	115.33	51.75	-36.4	-37.3	24.8	0.00e+00	0	32	0	817889280	46	5899
2026-01-08 14:04:10.89	115.99	51.67	-36.5	-37.3	24.6	0.00e+00	0	32	0	818937856	46	5932
2026-01-08 14:04:11.89	116.64	51.58	-37.1	-38.0	24.0	0.00e+00	0	32	0	821035008	46	6419
2026-01-08 14:04:12.90	117.30	51.49	-38.0	-39.0	23.3	0.00e+00	0	32	0	823132160	48	6401
2026-01-08 14:04:13.91	117.95	51.39	-38.1	-39.1	23.1	0.00e+00	0	32	0	825229312	48	6484
2026-01-08 14:04:14.92	118.60	51.29	-37.6	-38.5	23.6	0.00e+00	0	32	0	827326464	48	6055
2026-01-08 14:04:15.93	119.24	51.19	-37.9	-38.8	23.4	0.00e+00	0	32	0	828375040	48	6276
2026-01-08 14:04:16.94	119.88	51.09	-38.5	-39.4	22.6	0.00e+00	0	32	0	830472192	48	6752
2026-01-08 14:04:17.95	120.51	50.98	-39.1	-40.1	22.3	0.00e+00	0	33	0	832569344	50	6491
2026-01-08 14:04:18.96	121.14	50.87	-38.5	-39.5	22.9	0.00e+00	0	32	0	834666496	50	6093
2026-01-08 14:04:19.97	121.76	50.75	-37.5	-38.4	23.7	0.00e+00	0	32	0	836763648	48	6001
2026-01-08 14:04:20.98	122.38	50.63	-37.5	-38.3	23.8	0.00e+00	0	32	0	838860800	48	5940
2026-01-08 14:04:21.99	123.00	50.51	-37.9	-38.8	23.4	0.00e+00	0	32	0	839909376	48	6270
2026-01-08 14:04:23.00	123.61	50.38	-38.5	-39.5	22.7	0.00e+00	0	33	0	842006528	48	6794
2026-01-08 14:04:24.01	124.21	50.26	-38.8	-39.8	22.5	0.00e+00	0	33	0	844103680	50	6292
2026-01-08 14:04:25.02	124.81	50.13	-38.7	-39.7	22.6	0.00e+00	0	33	0	846200832	50	6187
2026-01-08 14:04:26.03	125.40	49.99	-37.8	-38.6	23.6	0.00e+00	0	32	0	848297984	50	5500
2026-01-08 14:04:27.04	125.99	49.86	-37.8	-38.7	23.4	0.00e+00	0	33	0	849346560	48	6233
2026-01-08 14:04:28.04	126.57	49.72	-39.1	-40.1	22.1	0.00e+00	0	32	0	851443712	50	6528
2026-01-08 14:04:29.05	127.15	49.58	-40.2	-41.4	21.0	0.00e+00	0	33	0	853540864	52	6697
2026-01-08 14:04:30.06	127.72	49.43	-40.3	-41.5	20.9	0.00e+00	0	32	0	855638016	52	6834
2026-01-08 14:04:31.07	128.29	49.28	-40.4	-41.6	20.9	0.00e+00	0	33	0	857735168	52	6868
2026-01-08 14:04:32.08	128.85	49.14	-41.2	-42.6	20.0	0.00e+00	0	33	0	858783744	54	6904
2026-01-08 14:04:33.09	129.41	48.98	-41.7	-43.3	19.4	0.00e+00	0	32	0	860880896	54	7427
2026-01-08 14:04:34.10	129.96	48.83	-41.4	-42.9	19.6	0.00e+00	0	32	0	862978048	54	7094
2026-01-08 14:04:35.10	130.50	48.67	-41.1	-42.5	20.0	0.00e+00	0	33	0	865075200	54	6786
2026-01-08 14:04:36.11	131.04	48.52	-40.7	-42.0	20.4	0.00e+00	0	32	0	867172352	54	6456
2026-01-08 14:04:37.12	131.58	48.36	-40.3	-41.5	21.0	0.00e+00	0	32	0	868220928	54	6067
2026-01-08 14:04:38.13	132.11	48.19	-40.6	-41.9	20.6	0.00e+00	0	33	0	870318080	54	6337
2026-01-08 14:04:39.14	132.63	48.03	-41.5	-42.9	19.5	0.00e+00	0	33	0	872415232	54	7143
2026-01-08 14:04:40.15	133.15	47.86	-41.4	-42.8	19.8	0.00e+00	0	32	0	874512384	54	7064
2026-01-08 14:04:41.16	133.66	47.70	-40.4	-41.7	20.7	0.00e+00	0	32	0	876609536	54	6202
2026-01-08 14:04:42.17	134.17	47.53	-39.9	-41.0	21.3	0.00e+00	0	32	0	877658112	54	5737
2026-01-08 14:04:43.17	134.67	47.36	-40.0	-41.2	21.2	0.00e+00	0	32	0	879755264	54	5836
2026-01-08 14:04:44.18	135.17	47.18	-40.6	-41.8	20.5	0.00e+00	0	33	0	881852416	54	6306
2026-01-08 14:04:45.19	135.66	47.01	-41.2	-42.6	19.8	0.00e+00	0	33	0	883949568	54	6922
2026-01-08 14:04:46.20	136.14	46.83	-41.8	-43.4	19.3	0.00e+00	0	32	0	886046720	56	6711
2026-01-08 14:04:47.22	136.63	46.65	-41.3	-42.8	19.8	0.00e+00	0	32	0	887095296	56	6267
2026-01-08 14:04:48.22	137.10	46.48	-40.3	-41.6	21.0	0.00e+00	0	33	0	889192448	54	6116
2026-01-08 14:04:49.23	137.57	46.30	-39.7	-40.8	21.7	0.00e+00	0	32	0	891289600	54	5619
2026-01-08 14:04:50.24	138.03	46.11	-39.8	-40.9	21.6	0.00e+00	0	32	0	893386752	52	6370
2026-01-08 14:04:51.25	138.49	45.93	-39.6	-40.7	21.8	0.00e+00	0	33	0	895483904	52	6240
2026-01-08 14:04:52.26	138.95	45.75	-38.9	-39.9	22.6	0.00e+00	0	32	0	896532480	52	5639
2026-01-08 14:04:53.27	139.40	45.56	-38.0	-38.9	23.5	0.00e+00	0	32	0	898629632	50	5655
2026-01-08 14:04:54.28	139.84	45.38	-37.6	-38.5	23.7	0.00e+00	0	32	0	900726784	48	6056
2026-01-08 14:04:55.29	140.28	45.19	-37.3	-38.2	23.9	0.00e+00	0	33	0	902823936	48	5834
2026-01-08 14:04:56.30	140.71	45.00	-37.6	-38.5	23.6	0.00e+00	0	32	0	904921088	48	6088
2026-01-08 14:04:57.31	141.14	44.81	-38.4	-39.3	22.9	0.00e+00	0	32	0	905969664	48	6655
2026-01-08 14:04:58.31	141.56	44.63	-39.1	-40.1	22.3	0.00e+00	0	33	0	908066816	50	6493
2026-01-08 14:04:59.32	141.98	44.44	-39.0	-40.0	22.3	0.00e+00	0	32	0	910163968	50	6444
2026-01-08 14:05:00.33	142.39	44.24	-38.5	-39.5	22.9	0.00e+00	0	32	0	912261120	50	6079
2026-01-08 14:05:01.35	142.80	44.05	-38.1	-39.0	23.2	0.00e+00	0	32	0	914358272	50	5733
2026-01-08 14:05:02.35	143.20	43.86	-38.1	-39.0	23.3	0.00e+00	0	33	0	915406848	50	5708
2026-01-08 14:05:03.37	143.61	43.67	-38.7	-39.6	22.7	0.00e+00	0	32	0	917504000	50	6158
2026-01-08 14:05:04.37	144.00	43.47	-39.1	-40.2	22.0	0.00e+00	0	32	0	919601152	50	6557
2026-01-08 14:05:05.38	144.39	43.28	-39.8	-41.0	21.4	0.00e+00	0	32	0	921698304	52	6404
2026-01-08 14:05:06.39	144.77	43.09	-39.4	-40.5	22.0	0.00e+00	0	32	0	923795456	52	6037
2026-01-08 14:05:07.40	145.15	42.89	-38.5	-39.5	22.7	0.00e+00	0	32	0	924844032	50	6055
2026-01-08 14:05:08.41	145.53	42.70	-38.3	-39.2	23.0	0.00e+00	0	32	0	926941184	50	5877
2026-01-08 14:05:09.42	145.90	42.50	-37.9	-38.8	23.5	0.00e+00	0	32	0	929038336	50	5588
2026-01-08 14:05:10.43	146.27	42.31	-38.2	-39.1	23.0	0.00e+00	0	32	0	931135488	50	5766
2026-01-08 14:05:11.44	146.63	42.11	-40.3	-41.5	20.9	0.00e+00	0	32	0	933232640	52	6845
2026-01-08 14:05:12.45	146.99	41.91	-42.1	-43.8	18.8	0.00e+00	0	32	0	935329792	56	7035
2026-01-08 14:05:13.46	147.34	41.72	-42.3	-43.9	18.8	0.00e+00	0	32	0	936378368	56	7166
2026-01-08 14:05:14.47	147.69	41.52	-40.8	-42.1	20.6	0.00e+00	0	33	0	938475520	56	5783
2026-01-08 14:05:15.48	148.04	41.33	-39.8	-40.9	21.5	0.00e+00	0	32	0	940572672	52	6362
2026-01-08 14:05:16.49	148.38	41.13	-39.6	-40.7	21.7	0.00e+00	0	33	0	942669824	52	6200
2026-01-08 14:05:17.50	148.72	40.93	-40.3	-41.5	21.0	0.00e+00	0	33	0	944766976	52	6773
2026-01-08 14:05:18.51	149.05	40.74	-41.7	-43.3	19.2	0.00e+00	0	32	0	945815552	54	7430
2026-01-08 14:05:19.52	149.38	40.54	-42.8	-44.7	17.9	0.00e+00	0	33	0	947912704	58	6955
2026-01-08 14:05:20.53	149.71	40.34	-41.7	-43.2	19.4	0.00e+00	0	33	0	950009856	58	5893
2026-01-08 14:05:21.54	150.03	40.15	-39.8	-40.9	21.5	0.00e+00	0	32	0	952107008	54	5669
2026-01-08 14:05:22.54	150.34	39.95	-39.5	-40.6	21.7	0.00e+00	0	33	0	954204160	52	6145
2026-01-08 14:05:23.55	150.66	39.76	-39.2	-40.2	22.2	0.00e+00	0	33	0	955252736	52	5871
2026-01-08 14:05:24.56	150.97	39.56	-40.2	-41.3	21.2	0.00e+00	0	32	0	957349888	52	6689
2026-01-08 14:05:25.57	151.28	39.37	-42.2	-43.9	18.3	0.00e+00	0	32	0	959447040	56	7136
2026-01-08 14:05:26.58	151.58	39.17	-45.1	-48.3	14.4	0.00e+00	0	32	0	961544192	60	9386
2026-01-08 14:05:27.59	151.88	38.97	-44.2	-46.7	16.3	0.00e+00	0	33	0	963641344	60	7841
2026-01-08 14:05:28.60	152.18	38.78	-42.0	-43.6	19.1	0.00e+00	0	33	0	964689920	58	6168
2026-01-08 14:05:29.61	152.47	38.58	-41.8	-43.3	19.4	0.00e+00	0	33	0	966787072	56	6625
2026-01-08 14:05:30.62	152.76	38.39	-40.3	-41.5	21.1	0.00e+00	0	32	0	968884224	54	6064
2026-01-08 14:05:31.62	153.04	38.20	-40.1	-41.2	21.2	0.00e+00	0	32	0	970981376	54	5868
2026-01-08 14:05:32.63	153.32	38.00	-40.9	-42.2	20.2	0.00e+00	0	32	0	973078528	54	6600
2026-01-08 14:05:33.64	153.60	37.81	-41.6	-43.0	19.5	0.00e+00	0	33	0	974127104	54	7242
2026-01-08 14:05:34.65	153.88	37.62	-41.9	-43.4	19.2	0.00e+00	0	32	0	976224256	56	6752
2026-01-08 14:05:35.66	154.15	37.43	-41.8	-43.3	19.3	0.00e+00	0	32	0	978321408	56	6649
2026-01-08 14:05:36.67	154.42	37.23	-41.0	-42.4	20.3	0.00e+00	0	33	0	980418560	56	5971
2026-01-08 14:05:37.68	154.69	37.04	-39.1	-40.1	22.4	0.00e+00	0	32	0	982515712	52	5810
2026-01-08 14:05:38.69	154.95	36.85	-38.0	-38.8	23.4	0.00e+00	0	32	0	983564288	50	5628
2026-01-08 14:05:39.69	155.21	36.66	-37.3	-38.2	23.9	0.00e+00	0	33	0	985661440	48	5857
2026-01-08 14:05:40.70	155.47	36.47	-37.8	-38.7	23.5	0.00e+00	0	32	0	987758592	48	6192
2026-01-08 14:05:41.71	155.72	36.28	-38.6	-39.6	22.7	0.00e+00	0	32	0	989855744	48	6886
2026-01-08 14:05:42.72	155.98	36.09	-39.8	-40.9	21.4	0.00e+00	0	32	0	991952896	50	7160
2026-01-08 14:05:43.73	156.22	35.90	-40.3	-41.5	20.9	0.00e+00	0	32	0	993001472	52	6810
2026-01-08 14:05:44.74	156.47	35.71	-40.2	-41.4	21.0	0.00e+00	0	32	0	995098624	52	6759
2026-01-08 14:05:45.74	156.71	35.53	-39.4	-40.5	21.9	0.00e+00	0	32	0	997195776	52	6076
2026-01-08 14:05:46.75	156.95	35.34	-38.7	-39.7	22.6	0.00e+00	0	32	0	999292928	52	5549
2026-01-08 14:05:47.76	157.19	35.15	-38.6	-39.5	22.7	0.00e+00	0	32	0	1001390080	50	6094
2026-01-08 14:05:48.77	157.43	34.97	-38.1	-39.0	23.0	0.00e+00	0	33	0	1003487232	50	5734
2026-01-08 14:05:49.78	157.66	34.78	-38.3	-39.2	23.0	0.00e+00	0	33	0	1004535808	50	5875
2026-01-08 14:05:50.79	157.89	34.60	-38.4	-39.4	22.8	0.00e+00	0	33	0	1006632960	50	5992
2026-01-08 14:05:51.80	158.12	34.41	-39.0	-40.0	22.3	0.00e+00	0	32	0	1008730112	50	6435
2026-01-08 14:05:52.81	158.34	34.23	-39.9	-41.1	21.2	0.00e+00	0	32	0	1010827264	52	6483
2026-01-08 14:05:53.82	158.57	34.05	-40.5	-41.8	20.7	0.00e+00	0	32	0	1012924416	52	7041
2026-01-08 14:05:54.82	158.78	33.86	-40.3	-41.6	20.9	0.00e+00	0	32	0	1013972992	52	6860
2026-01-08 14:05:55.83	159.00	33.68	-39.6	-40.8	21.7	0.00e+00	0	33	0	1016070144	52	6254
2026-01-08 14:05:56.85	159.22	33.50	-39.0	-40.1	22.3	0.00e+00	0	32	0	1018167296	52	5770
2026-01-08 14:05:57.85	159.43	33.32	-38.4	-39.4	22.8	0.00e+00	0	33	0	1020264448	50	5965
2026-01-08 14:05:58.87	159.64	33.14	-38.1	-39.1	23.2	0.00e+00	0	33	0	1021313024	50	5767
2026-01-08 14:05:59.87	159.85	32.96	-37.9	-38.8	23.3	0.00e+00	0	33	0	1023410176	50	5598
2026-01-08 14:06:00.88	160.06	32.78	-38.8	-39.9	22.4	0.00e+00	0	33	0	1025507328	50	6327
2026-01-08 14:06:01.89	160.26	32.60	-40.3	-41.6	20.8	0.00e+00	0	32	0	1027604480	52	6858
2026-01-08 14:06:02.90	160.46	32.43	-41.7	-43.2	19.3	0.00e+00	0	33	0	1029701632	54	7420
2026-01-08 14:06:03.91	160.66	32.25	-42.3	-44.1	18.4	0.00e+00	0	32	0	1031798784	56	7316
2026-01-08 14:06:04.92	160.86	32.07	-42.3	-44.0	18.7	0.00e+00	0	33	0	1032847360	56	7241
2026-01-08 14:06:05.93	161.06	31.90	-41.2	-42.6	20.0	0.00e+00	0	33	0	1034944512	56	6142
2026-01-08 14:06:06.94	161.25	31.72	-40.5	-41.8	20.7	0.00e+00	0	32	0	1037041664	54	6249
2026-01-08 14:06:07.95	161.44	31.55	-39.8	-40.9	21.5	0.00e+00	0	32	0	1039138816	54	5679
2026-01-08 14:06:08.96	161.63	31.38	-39.2	-40.3	22.1	0.00e+00	0	32	0	1041235968	52	5909
2026-01-08 14:06:09.97	161.82	31.20	-38.7	-39.7	22.6	0.00e+00	0	33	0	1042284544	52	5543
2026-01-08 14:06:10.98	162.01	31.03	-38.6	-39.6	22.6	0.00e+00	0	32	0	1044381696	50	6132
2026-01-08 14:06:11.99	162.19	30.86	-39.1	-40.1	22.2	0.00e+00	0	32	0	1046478848	50	6467
2026-01-08 14:06:13.00	162.37	30.69	-39.2	-40.3	22.0	0.00e+00	0	32	0	1048576000	50	6628
2026-01-08 14:06:14.01	162.55	30.52	-39.9	-41.1	21.3	0.00e+00	0	32	0	1050673152	52	6465
2026-01-08 14:06:15.02	162.73	30.35	-40.0	-41.2	21.2	0.00e+00	0	32	0	1051721728	52	6546
2026-01-08 14:06:16.03	162.91	30.18	-40.0	-41.1	21.3	0.00e+00	0	32	0	1053818880	52	6536
2026-01-08 14:06:17.03	163.08	30.02	-39.8	-40.9	21.5	0.00e+00	0	32	0	1055916032	52	6359
2026-01-08 14:06:18.04	163.25	29.85	-39.5	-40.5	21.8	0.00e+00	0	32	0	1058013184	52	6101
2026-01-08 14:06:19.05	163.42	29.68	-39.3	-40.4	22.0	0.00e+00	0	32	0	1060110336	52	5967
2026-01-08 14:06:20.06	163.59	29.52	-39.2	-40.2	22.2	0.00e+00	0	32	0	1061158912	52	5872
2026-01-08 14:06:21.07	163.76	29.35	-38.4	-39.3	22.9	0.00e+00	0	32	0	1063256064	50	5931
2026-01-08 14:06:22.08	163.93	29.19	-38.6	-39.5	22.6	0.00e+00	0	32	0	1065353216	50	6101
2026-01-08 14:06:23.09	164.09	29.02	-38.3	-39.2	23.0	0.00e+00	0	32	0	1067450368	50	5893
2026-01-08 14:06:24.10	164.26	28.86	-38.0	-38.9	23.3	0.00e+00	0	32	0	1069547520	50	5658
2026-01-08 14:06:25.11	164.42	28.70	-37.8	-38.7	23.4	0.00e+00	0	32	0	1070596096	50	5552
2026-01-08 14:06:26.11	164.58	28.54	-37.7	-38.6	23.5	0.00e+00	0	32	0	1072693248	48	6158
2026-01-08 14:06:27.13	164.74	28.38	-37.7	-38.6	23.5	0.00e+00	0	32	0	1074790400	48	6147
2026-01-08 14:06:28.13	164.89	28.22	-37.9	-38.8	23.4	0.00e+00	0	32	0	1076887552	48	6259
2026-01-08 14:06:29.14	165.05	28.06	-38.2	-39.2	22.9	0.00e+00	0	33	0	1078984704	48	6575
2026-01-08 14:06:30.15	165.20	27.90	-38.5	-39.5	22.6	0.00e+00	0	32	0	1080033280	48	6788
2026-01-08 14:06:31.16	165.35	27.74	-39.1	-40.1	22.1	0.00e+00	0	32	0	1082130432	50	6527
2026-01-08 14:06:32.17	165.50	27.58	-39.5	-40.7	21.6	0.00e+00	0	32	0	1084227584	50	6947
2026-01-08 14:06:33.18	165.65	27.43	-39.6	-40.7	21.6	0.00e+00	0	32	0	1086324736	50	6981
2026-01-08 14:06:34.19	165.80	27.27	-39.7	-40.9	21.4	0.00e+00	0	33	0	1088421888	50	7100
2026-01-08 14:06:35.20	165.95	27.12	-39.3	-40.4	21.8	0.00e+00	0	32	0	1089470464	50	6726
2026-01-08 14:06:36.21	166.09	26.96	-38.8	-39.9	22.4	0.00e+00	0	33	0	1091567616	50	6338
2026-01-08 14:06:37.22	166.24	26.81	-38.4	-39.4	22.8	0.00e+00	0	32	0	1093664768	50	5975
2026-01-08 14:06:38.23	166.38	26.66	-38.4	-39.4	22.9	0.00e+00	0	32	0	1095761920	50	5979
2026-01-08 14:06:39.24	166.52	26.50	-37.6	-38.5	23.6	0.00e+00	0	32	0	1097859072	48	6082
2026-01-08 14:06:40.25	166.66	26.35	-37.7	-38.6	23.5	0.00e+00	0	32	0	1099956224	48	6140
2026-01-08 14:06:41.25	166.80	26.20	-37.6	-38.5	23.5	0.00e+00	0	32	0	1101004800	48	6071
2026-01-08 14:06:42.26	166.93	26.05	-37.8	-38.7	23.4	0.00e+00	0	32	0	1103101952	48	6192
2026-01-08 14:06:43.27	167.07	25.90	-38.0	-39.0	23.1	0.00e+00	0	32	0	1105199104	48	6405
2026-01-08 14:06:44.28	167.20	25.75	-38.5	-39.5	22.7	0.00e+00	0	32	0	1107296256	48	6785
2026-01-08 14:06:45.29	167.34	25.60	-38.8	-39.8	22.3	0.00e+00	0	32	0	1109393408	48	7079
2026-01-08 14:06:46.30	167.47	25.46	-38.8	-39.9	22.3	0.00e+00	0	32	0	1110441984	50	6352
2026-01-08 14:06:47.31	167.60	25.31	-38.9	-40.0	22.2	0.00e+00	0	32	0	1112539136	50	6418
2026-01-08 14:06:48.32	167.73	25.16	-39.0	-40.0	22.2	0.00e+00	0	32	0	1114636288	50	6431
2026-01-08 14:06:49.33	167.86	25.02	-39.0	-40.0	22.2	0.00e+00	0	32	0	1116733440	50	6436
2026-01-08 14:06:50.34	167.99	24.87	-38.8	-39.8	22.4	0.00e+00	0	32	0	1118830592	50	6311
2026-01-08 14:06:51.35	168.12	24.73	-38.8	-39.8	22.4	0.00e+00	0	33	0	1119879168	50	6275
2026-01-08 14:06:52.36	168.24	24.58	-38.7	-39.7	22.5	0.00e+00	0	33	0	1121976320	50	6202
2026-01-08 14:06:53.36	168.36	24.44	-38.6	-39.6	22.6	0.00e+00	0	32	0	1124073472	50	6119
2026-01-08 14:06:54.38	168.49	24.30	-38.5	-39.5	22.7	0.00e+00	0	32	0	1126170624	50	6070
2026-01-08 14:06:55.38	168.61	24.16	-38.4	-39.4	22.7	0.00e+00	0	32	0	1128267776	50	6007
2026-01-08 14:06:56.39	168.73	24.02	-38.3	-39.3	22.9	0.00e+00	0	32	0	1129316352	50	5936
2026-01-08 14:06:57.40	168.85	23.88	-38.2	-39.2	22.9	0.00e+00	0	33	0	1131413504	50	5856
2026-01-08 14:06:58.41	168.97	23.74	-38.1	-39.0	23.1	0.00e+00	0	32	0	1133510656	50	5724
2026-01-08 14:06:59.42	169.09	23.60	-38.0	-38.9	23.2	0.00e+00	0	32	0	1135607808	50	5683
2026-01-08 14:07:00.43	169.21	23.46	-37.8	-38.7	23.4	0.00e+00	0	33	0	1137704960	50	5522
2026-01-08 14:07:01.44	169.32	23.32	-37.6	-38.5	23.4	0.00e+00	0	33	0	1138753536	48	6067
2026-01-08 14:07:02.45	169.44	23.18	-37.7	-38.6	23.4	0.00e+00	0	33	0	1140850688	48	6159
2026-01-08 14:07:03.46	169.55	23.04	-37.9	-38.8	23.3	0.00e+00	0	32	0	1142947840	48	6279
2026-01-08 14:07:04.47	169.66	22.91	-38.1	-39.1	23.0	0.00e+00	0	33	0	1145044992	48	6491
2026-01-08 14:07:05.48	169.78	22.77	-38.3	-39.3	22.9	0.00e+00	0	33	0	1147142144	48	6619
2026-01-08 14:07:06.49	169.89	22.64	-38.3	-39.3	22.8	0.00e+00	0	33	0	1148190720	48	6680
2026-01-08 14:07:07.50	170.00	22.50	-38.6	-39.7	22.5	0.00e+00	0	32	0	1150287872	48	6950
2026-01-08 14:07:08.51	170.11	22.37	-38.8	-39.8	22.3	0.00e+00	0	32	0	1152385024	50	6306
2026-01-08 14:07:09.52	170.22	22.24	-38.8	-39.8	22.3	0.00e+00	0	33	0	1154482176	50	6305
2026-01-08 14:07:10.53	170.33	22.10	-38.7	-39.8	22.4	0.00e+00	0	32	0	1156579328	50	6284
2026-01-08 14:07:11.53	170.43	21.97	-38.6	-39.7	22.5	0.00e+00	0	32	0	1157627904	50	6202
2026-01-08 14:07:12.54	170.54	21.84	-38.4	-39.4	22.7	0.00e+00	0	33	0	1159725056	50	6030
2026-01-08 14:07:13.55	170.64	21.71	-38.3	-39.3	22.9	0.00e+00	0	32	0	1161822208	50	5915
2026-01-08 14:07:14.56	170.75	21.58	-37.7	-38.6	23.5	0.00e+00	0	32	0	1163919360	48	6125
2026-01-08 14:07:15.57	170.85	21.45	-37.5	-38.4	23.6	0.00e+00	0	32	0	1166016512	48	5971
2026-01-08 14:07:16.58	170.95	21.32	-37.7	-38.6	23.4	0.00e+00	0	32	0	1168113664	48	6130
2026-01-08 14:07:17.59	171.05	21.19	-37.2	-38.0	23.9	0.00e+00	0	32	0	1169162240	48	5756
2026-01-08 14:07:18.60	171.16	21.06	-37.2	-38.0	23.9	0.00e+00	0	32	0	1171259392	48	5759
2026-01-08 14:07:19.61	171.26	20.94	-37.2	-38.0	23.9	0.00e+00	0	32	0	1173356544	48	5751
2026-01-08 14:07:20.62	171.35	20.81	-37.0	-37.9	24.0	0.00e+00	0	32	0	1175453696	48	5644
2026-01-08 14:07:21.63	171.45	20.68	-37.1	-38.0	23.9	0.00e+00	0	32	0	1177550848	48	5728
2026-01-08 14:07:22.64	171.55	20.56	-37.3	-38.2	23.6	0.00e+00	0	32	0	1178599424	48	5879
2026-01-08 14:07:23.64	171.65	20.43	-37.5	-38.4	23.6	0.00e+00	0	32	0	1180696576	48	5974
2026-01-08 14:07:24.65	171.74	20.31	-37.6	-38.5	23.4	0.00e+00	0	32	0	1182793728	48	6073
2026-01-08 14:07:25.66	171.84	20.18	-37.7	-38.6	23.4	0.00e+00	0	32	0	1184890880	48	6134
2026-01-08 14:07:26.67	171.93	20.06	-37.7	-38.6	23.4	0.00e+00	0	32	0	1186988032	48	6149
2026-01-08 14:07:27.68	172.03	19.94	-37.8	-38.7	23.2	0.00e+00	0	32	0	1188036608	48	6236
2026-01-08 14:07:28.69	172.12	19.82	-37.8	-38.8	23.2	0.00e+00	0	32	0	1190133760	48	6273
2026-01-08 14:07:29.70	172.21	19.69	-37.7	-38.7	23.3	0.00e+00	0	32	0	1192230912	48	6183
2026-01-08 14:07:30.71	172.31	19.57	-37.6	-38.6	23.3	0.00e+00	0	33	0	1194328064	48	6123
2026-01-08 14:07:31.72	172.40	19.45	-37.5	-38.5	23.5	0.00e+00	0	32	0	1196425216	48	6034
2026-01-08 14:07:32.73	172.49	19.33	-37.3	-38.2	23.7	0.00e+00	0	32	0	1197473792	48	5859
2026-01-08 14:07:33.74	172.58	19.21	-37.3	-38.2	23.7	0.00e+00	0	33	0	1199570944	48	5868
2026-01-08 14:07:34.74	172.67	19.09	-36.8	-37.7	24.1	0.00e+00	0	32	0	1201668096	48	5534
2026-01-08 14:07:35.75	172.76	18.97	-36.9	-37.8	24.1	0.00e+00	0	33	0	1203765248	48	5593
2026-01-08 14:07:36.76	172.84	18.86	-36.9	-37.7	24.1	0.00e+00	0	32	0	1205862400	48	5554
2026-01-08 14:07:37.77	172.93	18.74	-36.5	-37.3	24.5	0.00e+00	0	32	0	1206910976	46	5956
2026-01-08 14:07:38.78	173.02	18.62	-36.4	-37.2	24.5	0.00e+00	0	32	0	1209008128	46	5894
2026-01-08 14:07:39.79	173.10	18.50	-36.4	-37.2	24.6	0.00e+00	0	32	0	1211105280	46	5848
2026-01-08 14:07:40.80	173.19	18.39	-36.4	-37.2	24.5	0.00e+00	0	32	0	1213202432	46	5892
2026-01-08 14:07:41.81	173.27	18.27	-36.2	-36.9	24.8	0.00e+00	0	32	0	1215299584	46	5695
2026-01-08 14:07:42.82	173.36	18.16	-36.3	-37.1	24.7	0.00e+00	0	32	0	1216348160	46	5763
2026-01-08 14:07:43.82	173.44	18.04	-36.0	-36.8	24.8	0.00e+00	0	32	0	1218445312	46	5622
2026-01-08 14:07:44.84	173.53	17.93	-35.9	-36.7	25.0	0.00e+00	0	32	0	1220542464	46	5512
2026-01-08 14:07:45.84	173.61	17.81	-35.9	-36.7	24.9	0.00e+00	0	32	0	1222639616	46	5527
2026-01-08 14:07:46.85	173.69	17.70	-36.1	-36.9	24.8	0.00e+00	0	32	0	1224736768	46	5631
