passes_logs/2026/01/08/R4.6S_Anadyr/R4.6S_Anadyr__20260108_171635_NOAA_20_JPSS-1_rec.log

#Pass ID: 20260108_171635_NOAA 20 (JPSS-1)
#Satellite: NOAA 20 (JPSS-1)
#Configuration: NOAA 20
#almurnet v.1.7.20251203
#Start time: 2026-01-08 17:16:36

#Version: 2.2.20231116
#Station: R4.6S_Anadyr
#Location: 177.4865 lon 64.73178 lat
#TLE: 1 43013U 17073A   26008.28148939  .00000118  00000+0  77102-4 0  9999
#TLE: 2 43013  98.7631 309.2920 0001742  49.0100 311.1227 14.19534407421787

#Time	Az	El	Level	Level2	SNR	BER	BlckErr	Temp	State	Recorded	gain1	gain2
2026-01-08 17:16:36.62	30.83	0.04	-48.5	-63.3	3.5	1.51e+00	0	29	0	0	60	53066
2026-01-08 17:16:37.63	30.77	0.10	-48.5	-63.7	3.6	1.51e+00	0	30	104	0	60	55343
2026-01-08 17:16:38.64	30.71	0.15	-48.5	-63.8	3.6	1.51e+00	0	30	104	0	60	55773
2026-01-08 17:16:39.65	30.66	0.20	-48.6	-63.7	3.6	1.51e+00	0	30	104	0	60	55215
2026-01-08 17:16:40.66	30.60	0.26	-48.6	-63.7	3.6	1.51e+00	0	30	104	0	60	55632
2026-01-08 17:16:41.67	30.54	0.31	-48.6	-63.7	3.6	1.51e+00	0	30	104	0	60	55591
2026-01-08 17:16:42.68	30.48	0.37	-48.6	-63.8	3.6	1.51e+00	0	30	104	0	60	56151
2026-01-08 17:16:43.69	30.43	0.42	-48.6	-63.7	3.6	1.51e+00	0	30	104	0	60	55616
2026-01-08 17:16:44.70	30.37	0.48	-48.6	-63.7	3.6	1.51e+00	0	31	104	0	60	55523
2026-01-08 17:16:45.71	30.31	0.53	-48.5	-63.7	3.6	1.51e+00	0	31	104	0	60	55124
2026-01-08 17:16:46.72	30.25	0.59	-48.4	-63.7	3.6	1.51e+00	0	31	104	0	60	55049
2026-01-08 17:16:47.73	30.19	0.64	-48.3	-63.5	3.6	1.51e+00	0	31	104	0	60	54149
2026-01-08 17:16:48.74	30.13	0.70	-48.2	-63.4	3.6	1.51e+00	0	31	104	0	60	53301
2026-01-08 17:16:49.75	30.08	0.75	-48.1	-63.2	3.6	1.51e+00	0	30	104	0	60	52442
2026-01-08 17:16:50.76	30.02	0.81	-47.9	-63.1	3.6	1.51e+00	0	31	104	0	60	51672
2026-01-08 17:16:51.76	29.96	0.86	-47.7	-62.8	3.6	1.51e+00	0	31	104	0	60	49931
2026-01-08 17:16:52.77	29.90	0.92	-47.2	-62.4	3.6	1.51e+00	0	31	104	0	60	47631
2026-01-08 17:16:53.78	29.84	0.97	-47.0	-62.1	3.6	1.51e+00	0	31	104	0	60	46125
2026-01-08 17:16:54.79	29.78	1.03	-47.0	-62.1	3.6	1.51e+00	0	31	104	0	60	46109
2026-01-08 17:16:55.80	29.72	1.08	-47.0	-62.1	3.6	1.51e+00	0	31	104	0	60	45920
2026-01-08 17:16:56.81	29.66	1.14	-47.0	-62.0	3.6	1.51e+00	0	31	104	0	60	45688
2026-01-08 17:16:57.82	29.59	1.20	-47.0	-62.0	3.6	1.51e+00	0	31	104	0	60	45754
2026-01-08 17:16:58.83	29.53	1.25	-47.0	-62.0	3.6	1.51e+00	0	31	104	0	60	45658
2026-01-08 17:16:59.84	29.47	1.31	-47.0	-62.0	3.6	1.51e+00	0	31	104	0	60	45509
2026-01-08 17:17:00.85	29.41	1.36	-47.0	-62.0	3.6	1.51e+00	0	31	104	0	60	45540
2026-01-08 17:17:01.87	29.35	1.42	-47.0	-62.0	3.6	1.51e+00	0	31	104	0	60	45744
2026-01-08 17:17:02.87	29.29	1.48	-47.0	-62.1	3.6	1.51e+00	0	31	104	0	60	45940
2026-01-08 17:17:03.89	29.22	1.53	-47.0	-62.1	3.6	1.51e+00	0	31	104	0	60	45846
2026-01-08 17:17:04.90	29.16	1.59	-47.0	-62.1	3.6	1.51e+00	0	31	104	0	60	45883
2026-01-08 17:17:05.91	29.10	1.65	-47.0	-62.1	3.6	1.51e+00	0	31	104	0	60	46201
2026-01-08 17:17:06.92	29.03	1.70	-47.0	-62.1	3.6	1.51e+00	0	31	104	0	60	46146
2026-01-08 17:17:07.92	28.97	1.76	-47.0	-62.1	3.6	1.51e+00	0	31	104	0	60	46024
2026-01-08 17:17:08.93	28.91	1.81	-47.0	-62.2	3.6	1.51e+00	0	31	104	0	60	46380
2026-01-08 17:17:09.94	28.84	1.87	-47.0	-62.1	3.6	1.51e+00	0	31	104	0	60	46149
2026-01-08 17:17:10.95	28.78	1.93	-47.0	-62.1	3.6	1.51e+00	0	31	104	0	60	46085
2026-01-08 17:17:11.96	28.71	1.99	-47.0	-62.0	3.6	1.51e+00	0	31	104	0	60	45549
2026-01-08 17:17:12.97	28.65	2.04	-47.0	-61.9	3.6	1.51e+00	0	31	104	0	60	45192
2026-01-08 17:17:13.98	28.58	2.10	-47.0	-62.0	3.6	1.51e+00	0	31	104	0	60	45332
2026-01-08 17:17:14.99	28.52	2.16	-47.0	-62.0	3.6	1.51e+00	0	31	104	0	60	45325
2026-01-08 17:17:16.00	28.45	2.21	-47.0	-62.0	3.6	1.51e+00	0	31	104	0	60	45655
2026-01-08 17:17:17.01	28.39	2.27	-46.9	-62.1	3.6	1.51e+00	0	31	104	0	60	45932
2026-01-08 17:17:18.02	28.32	2.33	-47.0	-62.1	3.6	1.51e+00	0	31	104	0	60	46181
2026-01-08 17:17:19.03	28.26	2.39	-47.0	-62.0	3.6	1.51e+00	0	31	104	0	60	45740
2026-01-08 17:17:20.04	28.19	2.44	-46.9	-62.1	3.6	1.51e+00	0	31	104	0	60	45778
2026-01-08 17:17:21.05	28.12	2.50	-46.9	-62.1	3.6	1.51e+00	0	31	104	0	60	45978
2026-01-08 17:17:22.06	28.05	2.56	-47.0	-62.1	3.6	1.51e+00	0	31	104	0	60	46034
2026-01-08 17:17:23.07	27.99	2.62	-46.9	-62.0	3.6	1.51e+00	0	31	104	0	60	45624
2026-01-08 17:17:24.08	27.92	2.67	-46.9	-61.8	3.6	1.51e+00	0	31	104	0	60	44342
2026-01-08 17:17:25.09	27.85	2.73	-46.9	-61.5	3.6	1.51e+00	0	31	104	0	60	43189
2026-01-08 17:17:26.10	27.78	2.79	-46.9	-61.5	3.6	1.51e+00	0	31	104	0	60	42837
2026-01-08 17:17:27.11	27.71	2.85	-46.9	-61.8	3.6	1.51e+00	0	31	104	0	60	44473
2026-01-08 17:17:28.12	27.64	2.91	-46.9	-62.0	3.6	1.51e+00	0	31	104	0	60	45420
2026-01-08 17:17:29.13	27.58	2.96	-46.9	-60.7	3.6	1.51e+00	0	31	104	0	60	39081
2026-01-08 17:17:30.13	27.51	3.02	-46.7	-57.6	4.4	1.50e+00	92	31	104	0	60	27375
2026-01-08 17:17:31.15	27.44	3.08	-46.4	-54.0	6.1	4.30e-01	0	31	0	1048576	60	18080
2026-01-08 17:17:32.16	27.37	3.14	-46.0	-52.2	8.0	1.21e-01	41	31	0	3145728	60	14704
2026-01-08 17:17:33.17	27.30	3.20	-45.6	-51.1	9.5	3.22e-02	41	31	0	4194304	60	12962
2026-01-08 17:17:34.18	27.23	3.26	-45.4	-50.5	9.8	1.06e-02	42	31	0	6291456	60	12108
2026-01-08 17:17:35.19	27.15	3.31	-46.8	-57.2	3.8	1.03e+00	0	31	0	7340032	60	26063
2026-01-08 17:17:36.20	27.08	3.37	-46.8	-58.2	4.0	1.50e+00	0	31	104	7340032	60	29289
2026-01-08 17:17:37.21	27.01	3.43	-46.1	-53.4	8.2	1.01e+00	91	31	104	7340032	60	16872
2026-01-08 17:17:38.22	26.94	3.49	-41.3	-43.1	18.1	0.00e+00	0	31	0	8388608	56	6486
2026-01-08 17:17:39.23	26.87	3.55	-46.8	-61.1	3.6	1.44e+00	0	31	104	9437184	60	41254
2026-01-08 17:17:40.23	26.80	3.61	-41.5	-43.3	17.4	1.04e+00	0	31	104	9437184	56	6666
2026-01-08 17:17:41.24	26.72	3.67	-41.4	-43.1	18.1	0.00e+00	0	31	0	10485760	56	6509
2026-01-08 17:17:42.25	26.65	3.73	-41.3	-43.0	18.3	0.00e+00	0	31	0	12582912	56	6410
2026-01-08 17:17:43.26	26.58	3.79	-41.3	-43.0	18.4	0.00e+00	0	31	0	13631488	56	6407
2026-01-08 17:17:44.26	26.50	3.84	-41.2	-42.9	18.4	0.00e+00	92	31	0	15728640	56	6374
2026-01-08 17:17:45.27	26.43	3.90	-41.2	-42.8	18.5	0.00e+00	2	31	0	17825792	56	6311
2026-01-08 17:17:46.28	26.35	3.96	-41.1	-42.7	18.6	0.00e+00	0	31	0	19922944	56	6234
2026-01-08 17:17:47.29	26.28	4.02	-41.1	-42.8	18.6	0.00e+00	0	31	0	22020096	56	6247
2026-01-08 17:17:48.30	26.20	4.08	-41.0	-42.7	18.8	0.00e+00	40	31	0	23068672	56	6180
2026-01-08 17:17:49.31	26.13	4.14	-41.0	-42.7	18.7	0.00e+00	0	31	0	25165824	56	6175
2026-01-08 17:17:50.32	26.05	4.20	-41.2	-42.9	18.6	0.00e+00	40	31	0	27262976	56	6342
2026-01-08 17:17:51.32	25.98	4.26	-41.1	-42.8	18.6	0.00e+00	92	31	0	29360128	56	6262
2026-01-08 17:17:52.33	25.90	4.32	-41.1	-42.8	18.7	0.00e+00	41	31	0	31457280	56	6267
2026-01-08 17:17:53.34	25.83	4.38	-41.1	-42.8	18.5	0.00e+00	92	31	0	32505856	56	6277
2026-01-08 17:17:54.35	25.75	4.44	-41.0	-42.6	18.9	0.00e+00	2	31	0	34603008	56	6113
2026-01-08 17:17:55.36	25.67	4.50	-41.0	-42.6	18.9	0.00e+00	0	31	0	36700160	56	6104
2026-01-08 17:17:56.37	25.59	4.56	-40.9	-42.5	18.9	0.00e+00	42	31	0	38797312	56	6055
2026-01-08 17:17:57.38	25.52	4.62	-41.0	-42.6	18.9	0.00e+00	41	31	0	40894464	56	6135
2026-01-08 17:17:58.39	25.44	4.69	-41.0	-42.5	19.0	0.00e+00	36	31	0	41943040	56	6076
2026-01-08 17:17:59.40	25.36	4.75	-40.6	-42.1	19.3	0.00e+00	6	31	0	44040192	54	6491
2026-01-08 17:18:00.41	25.28	4.81	-40.7	-42.2	19.2	0.00e+00	90	31	0	46137344	54	6543
2026-01-08 17:18:01.42	25.20	4.87	-40.6	-42.1	19.3	0.00e+00	40	31	0	48234496	54	6497
2026-01-08 17:18:02.43	25.12	4.93	-40.6	-42.1	19.3	0.00e+00	0	31	0	50331648	54	6486
2026-01-08 17:18:03.43	25.04	4.99	-40.7	-42.2	19.3	0.00e+00	0	31	0	52428800	54	6577
2026-01-08 17:18:04.44	24.96	5.05	-40.6	-42.1	19.4	0.00e+00	6	31	0	53477376	54	6488
2026-01-08 17:18:05.45	24.88	5.11	-40.6	-42.0	19.4	0.00e+00	0	31	0	55574528	54	6463
2026-01-08 17:18:06.46	24.80	5.17	-40.7	-42.3	19.2	0.00e+00	7	31	0	57671680	54	6617
2026-01-08 17:18:07.47	24.72	5.23	-40.6	-42.1	19.4	0.00e+00	92	31	0	59768832	54	6478
2026-01-08 17:18:08.48	24.64	5.30	-40.6	-42.0	19.4	0.00e+00	0	31	0	60817408	54	6442
2026-01-08 17:18:09.49	24.55	5.36	-40.6	-42.1	19.4	0.00e+00	92	31	0	62914560	54	6514
2026-01-08 17:18:10.50	24.47	5.42	-40.6	-42.1	19.4	0.00e+00	36	31	0	65011712	54	6490
2026-01-08 17:18:11.51	24.39	5.48	-40.7	-42.1	19.3	0.00e+00	0	31	0	67108864	54	6535
2026-01-08 17:18:12.52	24.30	5.54	-40.6	-42.1	19.4	0.00e+00	0	31	0	69206016	54	6513
2026-01-08 17:18:13.52	24.22	5.60	-40.7	-42.2	19.3	0.00e+00	0	31	0	70254592	54	6607
2026-01-08 17:18:14.53	24.14	5.67	-40.8	-42.3	19.1	0.00e+00	92	31	0	72351744	54	6665
2026-01-08 17:18:15.54	24.05	5.73	-40.7	-42.2	19.4	0.00e+00	37	31	0	74448896	54	6603
2026-01-08 17:18:16.55	23.97	5.79	-40.7	-42.2	19.3	0.00e+00	90	31	0	76546048	54	6580
2026-01-08 17:18:17.56	23.88	5.85	-40.6	-42.1	19.4	0.00e+00	5	31	0	78643200	54	6504
2026-01-08 17:18:18.57	23.80	5.91	-40.8	-42.3	19.3	0.00e+00	42	31	0	80740352	54	6627
2026-01-08 17:18:19.58	23.71	5.98	-40.9	-42.5	19.1	0.00e+00	41	31	0	81788928	54	6772
2026-01-08 17:18:20.59	23.63	6.04	-40.8	-42.3	19.3	0.00e+00	45	31	0	83886080	54	6630
2026-01-08 17:18:21.60	23.54	6.10	-40.6	-42.0	19.6	0.00e+00	92	31	0	85983232	54	6439
2026-01-08 17:18:22.61	23.45	6.16	-40.5	-41.9	19.6	0.00e+00	6	31	0	88080384	54	6349
2026-01-08 17:18:23.62	23.36	6.23	-40.5	-41.9	19.7	0.00e+00	90	31	0	90177536	54	6339
2026-01-08 17:18:24.62	23.28	6.29	-40.5	-41.9	19.5	0.00e+00	6	31	0	91226112	54	6383
2026-01-08 17:18:25.63	23.19	6.35	-40.5	-41.9	19.6	0.00e+00	41	31	0	93323264	54	6344
2026-01-08 17:18:26.64	23.10	6.42	-40.5	-41.9	19.8	0.00e+00	6	31	0	95420416	54	6337
2026-01-08 17:18:27.65	23.01	6.48	-40.5	-41.9	19.8	0.00e+00	6	31	0	97517568	54	6321
2026-01-08 17:18:28.66	22.92	6.54	-40.4	-41.8	19.8	0.00e+00	0	31	0	99614720	54	6282
2026-01-08 17:18:29.67	22.83	6.60	-40.3	-41.7	19.9	0.00e+00	0	31	0	100663296	54	6217
2026-01-08 17:18:30.68	22.74	6.67	-40.4	-41.7	19.9	0.00e+00	90	31	0	102760448	54	6222
2026-01-08 17:18:31.69	22.65	6.73	-40.3	-41.7	19.9	0.00e+00	43	31	0	104857600	54	6217
2026-01-08 17:18:32.69	22.56	6.79	-40.4	-41.7	19.9	0.00e+00	92	31	0	106954752	54	6227
2026-01-08 17:18:33.70	22.47	6.86	-40.4	-41.7	19.9	0.00e+00	0	31	0	109051904	54	6243
2026-01-08 17:18:34.71	22.38	6.92	-40.4	-41.8	19.9	0.00e+00	0	31	0	110100480	54	6260
2026-01-08 17:18:35.72	22.29	6.99	-40.5	-41.8	19.8	0.00e+00	0	31	0	112197632	54	6312
2026-01-08 17:18:36.73	22.19	7.05	-40.3	-41.7	20.0	0.00e+00	43	31	0	114294784	54	6185
2026-01-08 17:18:37.74	22.10	7.11	-40.4	-41.7	20.0	0.00e+00	90	31	0	116391936	54	6239
2026-01-08 17:18:38.75	22.01	7.18	-40.4	-41.8	19.8	0.00e+00	37	31	0	118489088	54	6293
2026-01-08 17:18:39.76	21.91	7.24	-40.5	-41.9	19.8	0.00e+00	91	31	0	119537664	54	6325
2026-01-08 17:18:40.76	21.82	7.31	-40.4	-41.8	19.9	0.00e+00	36	31	0	121634816	54	6270
2026-01-08 17:18:41.78	21.72	7.37	-40.5	-41.9	19.9	0.00e+00	36	31	0	123731968	54	6378
2026-01-08 17:18:42.78	21.63	7.43	-40.5	-41.9	19.7	0.00e+00	43	31	0	125829120	54	6359
2026-01-08 17:18:43.80	21.53	7.50	-40.4	-41.8	20.0	0.00e+00	0	31	0	127926272	54	6307
2026-01-08 17:18:44.81	21.44	7.56	-40.4	-41.7	19.9	0.00e+00	17	31	0	128974848	54	6245
2026-01-08 17:18:45.81	21.34	7.63	-40.4	-41.7	19.9	0.00e+00	0	31	0	131072000	54	6240
2026-01-08 17:18:46.83	21.24	7.69	-40.5	-41.9	19.9	0.00e+00	90	31	0	133169152	54	6319
2026-01-08 17:18:47.83	21.14	7.76	-40.4	-41.8	20.0	0.00e+00	0	31	0	135266304	54	6259
2026-01-08 17:18:48.84	21.05	7.82	-40.4	-41.8	19.9	0.00e+00	45	31	0	137363456	54	6302
2026-01-08 17:18:49.85	20.95	7.89	-40.3	-41.7	20.1	0.00e+00	0	31	0	138412032	54	6176
2026-01-08 17:18:50.86	20.85	7.95	-40.3	-41.7	20.1	0.00e+00	2	31	0	140509184	54	6178
2026-01-08 17:18:51.87	20.75	8.02	-40.3	-41.7	20.1	0.00e+00	0	31	0	142606336	54	6184
2026-01-08 17:18:52.88	20.65	8.08	-40.4	-41.7	20.0	0.00e+00	0	31	0	144703488	54	6218
2026-01-08 17:18:53.89	20.55	8.15	-40.3	-41.6	20.1	0.00e+00	92	31	0	146800640	54	6146
2026-01-08 17:18:54.90	20.45	8.21	-40.2	-41.5	20.3	0.00e+00	44	31	0	148897792	54	6103
2026-01-08 17:18:55.91	20.35	8.28	-40.0	-41.3	20.5	0.00e+00	92	31	0	149946368	54	5937
2026-01-08 17:18:56.91	20.25	8.34	-40.1	-41.4	20.4	0.00e+00	43	31	0	152043520	54	5998
2026-01-08 17:18:57.92	20.15	8.41	-40.1	-41.3	20.4	0.00e+00	0	31	0	154140672	54	5955
2026-01-08 17:18:58.93	20.04	8.48	-39.9	-41.2	20.5	0.00e+00	5	31	0	156237824	54	5864
2026-01-08 17:18:59.94	19.94	8.54	-39.9	-41.2	20.5	0.00e+00	44	31	0	158334976	54	5855
2026-01-08 17:19:00.95	19.84	8.61	-39.9	-41.2	20.7	0.00e+00	90	31	0	159383552	54	5831
2026-01-08 17:19:01.96	19.73	8.67	-39.8	-41.1	20.6	0.00e+00	44	31	0	161480704	54	5762
2026-01-08 17:19:02.97	19.63	8.74	-39.7	-41.0	20.8	0.00e+00	92	31	0	163577856	54	5705
2026-01-08 17:19:03.98	19.52	8.81	-39.7	-40.9	20.7	0.00e+00	38	31	0	165675008	52	6349
2026-01-08 17:19:04.99	19.42	8.87	-39.8	-41.0	20.8	0.00e+00	2	31	0	167772160	52	6430
2026-01-08 17:19:06.00	19.31	8.94	-39.7	-41.0	20.9	0.00e+00	0	31	0	168820736	52	6391
2026-01-08 17:19:07.01	19.20	9.00	-39.7	-40.9	20.9	0.00e+00	0	31	0	170917888	52	6331
2026-01-08 17:19:08.02	19.10	9.07	-39.8	-41.0	20.8	0.00e+00	28	31	0	173015040	52	6427
2026-01-08 17:19:09.03	18.99	9.14	-39.8	-41.0	20.9	0.00e+00	0	31	0	175112192	52	6420
2026-01-08 17:19:10.03	18.88	9.20	-39.7	-41.0	20.9	0.00e+00	92	31	0	177209344	52	6392
2026-01-08 17:19:11.04	18.77	9.27	-39.8	-41.1	20.9	0.00e+00	0	31	0	178257920	52	6480
2026-01-08 17:19:12.05	18.66	9.34	-39.6	-40.8	21.1	0.00e+00	53	31	0	180355072	52	6310
2026-01-08 17:19:13.06	18.55	9.40	-39.6	-40.8	21.0	0.00e+00	2	31	0	182452224	52	6308
2026-01-08 17:19:14.07	18.44	9.47	-39.7	-40.9	21.0	0.00e+00	0	31	0	184549376	52	6318
2026-01-08 17:19:15.08	18.33	9.54	-39.6	-40.8	21.0	0.00e+00	0	31	0	186646528	52	6313
2026-01-08 17:19:16.09	18.22	9.60	-39.6	-40.8	21.0	0.00e+00	37	31	0	187695104	52	6295
2026-01-08 17:19:17.10	18.11	9.67	-39.6	-40.8	21.0	0.00e+00	92	31	0	189792256	52	6285
2026-01-08 17:19:18.11	18.00	9.74	-39.7	-40.9	21.0	0.00e+00	44	31	0	191889408	52	6343
2026-01-08 17:19:19.11	17.89	9.81	-39.8	-41.0	20.9	0.00e+00	92	31	0	193986560	52	6406
2026-01-08 17:19:20.12	17.77	9.87	-39.9	-41.1	20.8	0.00e+00	45	31	0	196083712	52	6486
2026-01-08 17:19:21.13	17.66	9.94	-39.9	-41.2	20.9	0.00e+00	44	31	0	197132288	52	6559
2026-01-08 17:19:22.14	17.55	10.01	-39.9	-41.2	20.7	0.00e+00	2	31	0	199229440	52	6542
2026-01-08 17:19:23.15	17.43	10.08	-39.9	-41.1	20.8	0.00e+00	0	31	0	201326592	52	6535
2026-01-08 17:19:24.16	17.31	10.14	-39.9	-41.1	20.8	0.00e+00	91	31	0	203423744	52	6527
2026-01-08 17:19:25.17	17.20	10.21	-39.8	-41.0	21.0	0.00e+00	44	31	0	205520896	52	6450
2026-01-08 17:19:26.18	17.08	10.28	-39.9	-41.1	20.8	0.00e+00	91	31	0	206569472	52	6495
2026-01-08 17:19:27.19	16.97	10.35	-39.9	-41.1	20.9	0.00e+00	38	31	0	208666624	52	6499
2026-01-08 17:19:28.20	16.85	10.41	-40.0	-41.2	20.7	0.00e+00	0	31	0	210763776	52	6578
2026-01-08 17:19:29.20	16.73	10.48	-39.7	-40.9	21.0	0.00e+00	0	31	0	212860928	52	6375
2026-01-08 17:19:30.21	16.61	10.55	-39.8	-41.0	21.0	0.00e+00	0	31	0	214958080	52	6415
2026-01-08 17:19:31.22	16.49	10.62	-39.8	-41.0	20.9	0.00e+00	0	31	0	216006656	52	6458
2026-01-08 17:19:32.23	16.37	10.69	-39.6	-40.7	21.1	0.00e+00	37	31	0	218103808	52	6236
2026-01-08 17:19:33.24	16.25	10.75	-39.6	-40.8	21.2	0.00e+00	92	31	0	220200960	52	6258
2026-01-08 17:19:34.25	16.13	10.82	-39.6	-40.8	21.1	0.00e+00	0	31	0	222298112	52	6264
2026-01-08 17:19:35.25	16.01	10.89	-39.5	-40.7	21.2	0.00e+00	92	31	0	224395264	52	6212
2026-01-08 17:19:36.26	15.89	10.96	-39.5	-40.7	21.2	0.00e+00	0	31	0	225443840	52	6201
2026-01-08 17:19:37.27	15.76	11.03	-39.5	-40.6	21.3	0.00e+00	2	31	0	227540992	52	6151
2026-01-08 17:19:38.28	15.64	11.10	-39.6	-40.8	21.2	0.00e+00	2	31	0	229638144	52	6247
2026-01-08 17:19:39.29	15.52	11.16	-39.5	-40.7	21.2	0.00e+00	0	31	0	231735296	52	6184
2026-01-08 17:19:40.30	15.39	11.23	-39.5	-40.6	21.4	0.00e+00	92	31	0	233832448	52	6156
2026-01-08 17:19:41.31	15.27	11.30	-39.5	-40.7	21.3	0.00e+00	0	31	0	234881024	52	6210
2026-01-08 17:19:42.32	15.14	11.37	-39.4	-40.6	21.4	0.00e+00	92	31	0	236978176	52	6126
2026-01-08 17:19:43.33	15.01	11.44	-39.4	-40.5	21.5	0.00e+00	0	31	0	239075328	52	6057
2026-01-08 17:19:44.34	14.89	11.51	-39.3	-40.4	21.6	0.00e+00	40	31	0	241172480	52	5983
2026-01-08 17:19:45.34	14.76	11.58	-39.1	-40.2	21.7	0.00e+00	42	31	0	243269632	52	5894
2026-01-08 17:19:46.35	14.63	11.65	-39.2	-40.3	21.7	0.00e+00	0	31	0	245366784	52	5930
2026-01-08 17:19:47.36	14.50	11.71	-39.2	-40.3	21.7	0.00e+00	92	31	0	246415360	52	5961
2026-01-08 17:19:48.37	14.37	11.78	-39.1	-40.3	21.7	0.00e+00	37	31	0	248512512	52	5902
2026-01-08 17:19:49.38	14.24	11.85	-39.1	-40.3	21.7	0.00e+00	92	31	0	250609664	52	5897
2026-01-08 17:19:50.39	14.11	11.92	-39.0	-40.1	21.8	0.00e+00	6	31	0	252706816	52	5820
2026-01-08 17:19:51.40	13.98	11.99	-39.2	-40.3	21.7	0.00e+00	92	31	0	254803968	52	5913
2026-01-08 17:19:52.41	13.85	12.06	-39.2	-40.3	21.7	0.00e+00	37	31	0	255852544	52	5913
2026-01-08 17:19:53.42	13.72	12.13	-39.2	-40.3	21.7	0.00e+00	6	31	0	257949696	52	5922
2026-01-08 17:19:54.43	13.58	12.20	-39.1	-40.2	21.7	0.00e+00	0	31	0	260046848	52	5882
2026-01-08 17:19:55.44	13.45	12.27	-39.2	-40.3	21.7	0.00e+00	5	31	0	262144000	52	5908
2026-01-08 17:19:56.45	13.31	12.34	-39.2	-40.3	21.6	0.00e+00	92	31	0	264241152	52	5960
2026-01-08 17:19:57.46	13.18	12.41	-39.1	-40.2	21.6	0.00e+00	0	31	0	265289728	52	5863
2026-01-08 17:19:58.46	13.04	12.48	-39.1	-40.3	21.7	0.00e+00	90	31	0	267386880	52	5899
2026-01-08 17:19:59.47	12.91	12.55	-39.1	-40.2	21.1	0.00e+00	0	31	0	269484032	52	5856
2026-01-08 17:20:00.48	12.77	12.62	-39.3	-40.5	21.6	0.00e+00	0	31	0	271581184	52	6051
2026-01-08 17:20:01.49	12.63	12.69	-39.1	-40.2	21.7	0.00e+00	0	31	0	273678336	52	5887
2026-01-08 17:20:02.50	12.49	12.76	-39.0	-40.1	21.9	0.00e+00	0	31	0	274726912	52	5806
2026-01-08 17:20:03.51	12.35	12.83	-39.1	-40.2	21.8	0.00e+00	90	31	0	276824064	52	5833
2026-01-08 17:20:04.52	12.21	12.90	-38.8	-39.9	22.1	0.00e+00	44	31	0	278921216	52	5660
2026-01-08 17:20:05.53	12.07	12.96	-38.8	-39.8	22.1	0.00e+00	92	31	0	281018368	50	6288
2026-01-08 17:20:06.54	11.93	13.03	-38.8	-39.9	22.1	0.00e+00	44	31	0	283115520	50	6340
2026-01-08 17:20:07.55	11.79	13.10	-38.7	-39.7	22.2	0.00e+00	41	31	0	284164096	50	6224
2026-01-08 17:20:08.56	11.65	13.17	-38.6	-39.6	22.4	0.00e+00	39	31	0	286261248	50	6119
2026-01-08 17:20:09.57	11.50	13.24	-38.6	-39.6	22.4	0.00e+00	5	31	0	288358400	50	6127
2026-01-08 17:20:10.58	11.36	13.31	-38.4	-39.4	22.5	0.00e+00	0	31	0	290455552	50	6023
2026-01-08 17:20:11.58	11.22	13.38	-38.5	-39.5	22.5	0.00e+00	42	31	0	292552704	50	6064
2026-01-08 17:20:12.59	11.07	13.45	-38.3	-39.3	22.6	0.00e+00	92	31	0	293601280	50	5963
2026-01-08 17:20:13.60	10.92	13.52	-38.3	-39.3	22.6	0.00e+00	6	31	0	295698432	50	5939
2026-01-08 17:20:14.61	10.78	13.59	-38.4	-39.4	22.6	0.00e+00	13	31	0	297795584	50	5997
2026-01-08 17:20:15.62	10.63	13.66	-38.5	-39.5	22.4	0.00e+00	43	31	0	299892736	50	6092
2026-01-08 17:20:16.63	10.48	13.73	-38.4	-39.4	22.6	0.00e+00	48	31	0	301989888	50	6010
2026-01-08 17:20:17.63	10.33	13.80	-38.4	-39.4	22.5	0.00e+00	2	31	0	303038464	50	6009
2026-01-08 17:20:18.64	10.18	13.87	-38.5	-39.5	22.5	0.00e+00	0	31	0	305135616	50	6047
2026-01-08 17:20:19.65	10.03	13.94	-38.5	-39.5	22.5	0.00e+00	92	31	0	307232768	50	6085
2026-01-08 17:20:20.66	9.88	14.01	-38.6	-39.7	22.4	0.00e+00	0	31	0	309329920	50	6177
2026-01-08 17:20:21.67	9.73	14.08	-38.6	-39.7	22.3	0.00e+00	92	31	0	311427072	50	6177
2026-01-08 17:20:22.68	9.58	14.15	-38.7	-39.7	22.3	0.00e+00	6	31	0	312475648	50	6236
2026-01-08 17:20:23.69	9.42	14.22	-38.6	-39.7	22.3	0.00e+00	0	31	0	314572800	50	6180
2026-01-08 17:20:24.69	9.27	14.29	-38.7	-39.7	22.3	0.00e+00	0	31	0	316669952	50	6240
2026-01-08 17:20:25.70	9.12	14.36	-38.8	-39.8	22.2	0.00e+00	0	31	0	318767104	50	6280
2026-01-08 17:20:26.71	8.96	14.43	-38.8	-39.8	22.1	0.00e+00	92	31	0	320864256	50	6310
2026-01-08 17:20:27.72	8.80	14.50	-38.8	-39.8	22.2	0.00e+00	0	31	0	321912832	50	6304
2026-01-08 17:20:28.72	8.65	14.57	-38.9	-39.9	22.1	0.00e+00	92	31	0	324009984	50	6384
2026-01-08 17:20:29.73	8.49	14.64	-39.0	-40.0	22.0	0.00e+00	45	31	0	326107136	50	6441
2026-01-08 17:20:30.74	8.33	14.71	-39.0	-40.1	21.9	0.00e+00	35	31	0	328204288	50	6465
2026-01-08 17:20:31.75	8.17	14.78	-38.9	-40.0	22.1	0.00e+00	36	31	0	330301440	50	6403
2026-01-08 17:20:32.76	8.01	14.85	-39.0	-40.1	22.0	0.00e+00	40	31	0	331350016	50	6484
2026-01-08 17:20:33.76	7.85	14.92	-38.9	-40.0	22.0	0.00e+00	20	31	0	333447168	50	6421
2026-01-08 17:20:34.77	7.69	14.99	-39.0	-40.0	22.0	0.00e+00	40	31	0	335544320	50	6436
2026-01-08 17:20:35.78	7.53	15.06	-39.1	-40.2	21.9	0.00e+00	90	31	0	337641472	50	6554
2026-01-08 17:20:36.79	7.37	15.13	-39.0	-40.1	22.0	0.00e+00	0	31	0	339738624	50	6493
2026-01-08 17:20:37.80	7.20	15.20	-39.2	-40.3	21.8	0.00e+00	91	32	0	341835776	50	6660
2026-01-08 17:20:38.80	7.04	15.27	-39.2	-40.3	21.8	0.00e+00	0	31	0	342884352	50	6685
2026-01-08 17:20:39.81	6.87	15.34	-39.2	-40.3	21.8	0.00e+00	0	31	0	344981504	50	6640
2026-01-08 17:20:40.82	6.71	15.41	-39.2	-40.3	21.8	0.00e+00	0	31	0	347078656	50	6644
2026-01-08 17:20:41.83	6.54	15.48	-39.1	-40.1	21.9	0.00e+00	0	31	0	349175808	50	6520
2026-01-08 17:20:42.84	6.37	15.55	-39.1	-40.2	21.8	0.00e+00	90	31	0	351272960	50	6559
2026-01-08 17:20:43.85	6.20	15.61	-39.0	-40.0	22.0	0.00e+00	0	31	0	352321536	50	6436
2026-01-08 17:20:44.86	6.03	15.68	-39.1	-40.2	21.9	0.00e+00	90	31	0	354418688	50	6571
2026-01-08 17:20:45.87	5.86	15.75	-39.1	-40.2	21.9	0.00e+00	0	31	0	356515840	50	6597
2026-01-08 17:20:46.88	5.69	15.82	-39.0	-40.1	22.0	0.00e+00	0	31	0	358612992	50	6508
2026-01-08 17:20:47.89	5.52	15.89	-38.9	-40.0	22.1	0.00e+00	32	31	0	360710144	50	6397
2026-01-08 17:20:48.90	5.35	15.96	-38.9	-39.9	22.1	0.00e+00	39	31	0	361758720	50	6386
2026-01-08 17:20:49.91	5.17	16.03	-39.0	-40.0	22.1	0.00e+00	21	31	0	363855872	50	6437
2026-01-08 17:20:50.92	5.00	16.10	-39.1	-40.2	22.0	0.00e+00	4	31	0	365953024	50	6555
2026-01-08 17:20:51.92	4.83	16.17	-39.0	-40.1	22.0	0.00e+00	92	31	0	368050176	50	6512
2026-01-08 17:20:52.93	4.65	16.24	-39.1	-40.2	21.9	0.00e+00	44	31	0	370147328	50	6588
2026-01-08 17:20:53.94	4.47	16.30	-39.1	-40.2	22.0	0.00e+00	47	31	0	371195904	50	6582
2026-01-08 17:20:54.95	4.29	16.37	-39.2	-40.2	21.9	0.00e+00	46	31	0	373293056	50	6596
2026-01-08 17:20:55.96	4.12	16.44	-39.1	-40.2	21.9	0.00e+00	36	31	0	375390208	50	6555
2026-01-08 17:20:56.97	3.94	16.51	-39.3	-40.4	21.9	0.00e+00	0	31	0	377487360	50	6722
2026-01-08 17:20:57.98	3.76	16.58	-39.4	-40.5	21.7	0.00e+00	40	31	0	379584512	50	6776
2026-01-08 17:20:58.99	3.58	16.65	-39.0	-40.0	22.1	0.00e+00	90	31	0	380633088	50	6461
2026-01-08 17:21:00.00	3.39	16.71	-39.1	-40.2	22.0	0.00e+00	0	32	0	382730240	50	6540
2026-01-08 17:21:01.01	3.21	16.78	-39.1	-40.1	22.1	0.00e+00	90	31	0	384827392	50	6519
2026-01-08 17:21:02.02	3.03	16.85	-39.2	-40.3	22.0	0.00e+00	0	31	0	386924544	50	6644
2026-01-08 17:21:03.03	2.84	16.92	-39.1	-40.2	22.0	0.00e+00	37	31	0	389021696	50	6579
2026-01-08 17:21:04.04	2.66	16.99	-39.2	-40.2	22.0	0.00e+00	2	31	0	390070272	50	6610
2026-01-08 17:21:05.05	2.47	17.05	-39.2	-40.2	21.9	0.00e+00	0	31	0	392167424	50	6598
2026-01-08 17:21:06.05	2.29	17.12	-39.1	-40.2	22.0	0.00e+00	92	31	0	394264576	50	6557
2026-01-08 17:21:07.06	2.10	17.19	-39.1	-40.2	22.1	0.00e+00	0	31	0	396361728	50	6549
2026-01-08 17:21:08.07	1.91	17.25	-38.9	-40.0	22.1	0.00e+00	92	32	0	398458880	50	6414
2026-01-08 17:21:09.08	1.72	17.32	-38.9	-39.9	22.2	0.00e+00	0	31	0	399507456	50	6354
2026-01-08 17:21:10.09	1.53	17.39	-38.9	-40.0	22.2	0.00e+00	0	31	0	401604608	50	6411
2026-01-08 17:21:11.10	1.34	17.45	-38.8	-39.8	22.4	0.00e+00	44	32	0	403701760	50	6260
2026-01-08 17:21:12.11	1.15	17.52	-38.6	-39.6	22.5	0.00e+00	42	31	0	405798912	50	6128
2026-01-08 17:21:13.12	0.95	17.59	-38.6	-39.6	22.5	0.00e+00	2	31	0	407896064	50	6125
2026-01-08 17:21:14.13	0.76	17.65	-38.4	-39.4	22.7	0.00e+00	0	31	0	408944640	50	5992
2026-01-08 17:21:15.13	0.57	17.72	-38.4	-39.4	22.6	0.00e+00	90	32	0	411041792	50	6017
2026-01-08 17:21:16.15	0.37	17.79	-38.2	-39.1	22.9	0.00e+00	35	32	0	413138944	50	5811
2026-01-08 17:21:17.15	0.18	17.85	-38.2	-39.2	23.0	0.00e+00	92	31	0	415236096	50	5836
2026-01-08 17:21:18.16	359.98	17.92	-37.9	-38.9	23.2	0.00e+00	48	31	0	417333248	50	5635
2026-01-08 17:21:19.17	359.78	17.98	-37.9	-38.8	23.3	0.00e+00	34	31	0	418381824	50	5611
2026-01-08 17:21:20.18	359.58	18.05	-38.0	-38.9	23.2	0.00e+00	35	31	0	420478976	50	5680
2026-01-08 17:21:21.18	359.38	18.11	-37.6	-38.5	23.5	0.00e+00	39	31	0	422576128	48	6060
2026-01-08 17:21:22.19	359.18	18.18	-37.7	-38.6	23.3	0.00e+00	92	31	0	424673280	48	6139
2026-01-08 17:21:23.20	358.98	18.24	-37.2	-38.1	23.9	0.00e+00	0	31	0	426770432	48	5764
2026-01-08 17:21:24.21	358.78	18.31	-37.2	-38.1	23.7	0.00e+00	92	32	0	427819008	48	5794
2026-01-08 17:21:25.22	358.57	18.37	-37.1	-37.9	24.0	0.00e+00	35	31	0	429916160	48	5685
2026-01-08 17:21:26.23	358.37	18.43	-37.0	-37.9	24.0	0.00e+00	0	31	0	432013312	48	5637
2026-01-08 17:21:27.24	358.17	18.50	-36.9	-37.8	24.1	0.00e+00	0	31	0	434110464	48	5570
2026-01-08 17:21:28.25	357.96	18.56	-37.0	-37.8	24.1	0.00e+00	0	32	0	436207616	48	5628
2026-01-08 17:21:29.26	357.75	18.62	-37.0	-37.9	24.1	0.00e+00	92	32	0	438304768	48	5655
2026-01-08 17:21:30.27	357.55	18.69	-36.8	-37.7	24.3	0.00e+00	0	32	0	439353344	48	5514
2026-01-08 17:21:31.28	357.34	18.75	-36.8	-37.6	24.2	0.00e+00	92	31	0	441450496	48	5481
2026-01-08 17:21:32.29	357.13	18.81	-36.7	-37.5	24.3	0.00e+00	45	31	0	443547648	46	6085
2026-01-08 17:21:33.30	356.92	18.88	-36.8	-37.6	24.3	0.00e+00	46	32	0	445644800	46	6152
2026-01-08 17:21:34.31	356.71	18.94	-36.7	-37.6	24.4	0.00e+00	0	32	0	447741952	46	6111
2026-01-08 17:21:35.32	356.49	19.00	-36.8	-37.6	24.2	0.00e+00	45	31	0	448790528	46	6142
2026-01-08 17:21:36.33	356.28	19.06	-36.8	-37.7	24.3	0.00e+00	41	31	0	450887680	46	6183
2026-01-08 17:21:37.34	356.07	19.12	-36.6	-37.5	24.4	0.00e+00	41	31	0	452984832	46	6046
2026-01-08 17:21:38.35	355.85	19.18	-36.9	-37.8	24.3	0.00e+00	92	31	0	455081984	46	6263
2026-01-08 17:21:39.36	355.64	19.24	-36.5	-37.3	24.1	0.00e+00	0	32	0	457179136	46	5947
2026-01-08 17:21:40.37	355.42	19.30	-36.6	-37.5	23.9	0.00e+00	91	31	0	458227712	46	6054
2026-01-08 17:21:41.38	355.20	19.36	-36.5	-37.3	24.5	0.00e+00	35	32	0	460324864	46	5908
2026-01-08 17:21:42.38	354.99	19.42	-36.6	-37.4	24.5	0.00e+00	38	31	0	462422016	46	5995
2026-01-08 17:21:43.39	354.77	19.48	-36.5	-37.3	24.6	0.00e+00	57	31	0	464519168	46	5921
2026-01-08 17:21:44.40	354.55	19.54	-36.5	-37.4	24.5	0.00e+00	41	31	0	466616320	46	5977
2026-01-08 17:21:45.41	354.33	19.60	-36.5	-37.3	24.6	0.00e+00	92	31	0	467664896	46	5916
2026-01-08 17:21:46.42	354.11	19.66	-36.3	-37.1	24.7	0.00e+00	0	31	0	469762048	46	5802
2026-01-08 17:21:47.43	353.88	19.72	-36.2	-37.0	24.8	0.00e+00	0	31	0	471859200	46	5713
2026-01-08 17:21:48.44	353.66	19.78	-36.2	-37.0	24.8	0.00e+00	5	32	0	473956352	46	5737
2026-01-08 17:21:49.45	353.44	19.84	-36.3	-37.1	24.8	0.00e+00	0	31	0	476053504	46	5769
2026-01-08 17:21:50.46	353.21	19.89	-36.3	-37.1	24.7	0.00e+00	0	32	0	477102080	46	5794
2026-01-08 17:21:51.47	352.98	19.95	-36.5	-37.3	24.5	0.00e+00	5	31	0	479199232	46	5910
2026-01-08 17:21:52.47	352.76	20.01	-36.7	-37.5	24.3	0.00e+00	92	31	0	481296384	46	6064
2026-01-08 17:21:53.48	352.53	20.06	-36.5	-37.4	24.5	0.00e+00	0	31	0	483393536	46	5974
2026-01-08 17:21:54.49	352.30	20.12	-36.7	-37.5	24.4	0.00e+00	92	32	0	485490688	46	6059
2026-01-08 17:21:55.50	352.07	20.17	-36.6	-37.5	24.5	0.00e+00	0	31	0	486539264	46	6040
2026-01-08 17:21:56.51	351.84	20.23	-36.5	-37.3	24.5	0.00e+00	61	32	0	488636416	46	5948
2026-01-08 17:21:57.52	351.61	20.29	-36.5	-37.3	24.6	0.00e+00	0	31	0	490733568	46	5954
2026-01-08 17:21:58.53	351.38	20.34	-36.6	-37.4	24.5	0.00e+00	0	31	0	492830720	46	5992
2026-01-08 17:21:59.54	351.15	20.39	-36.7	-37.5	24.4	0.00e+00	90	32	0	494927872	46	6080
2026-01-08 17:22:00.55	350.92	20.45	-36.8	-37.6	24.4	0.00e+00	41	32	0	495976448	46	6143
2026-01-08 17:22:01.56	350.68	20.50	-36.7	-37.5	24.4	0.00e+00	92	32	0	498073600	46	6099
2026-01-08 17:22:02.56	350.45	20.55	-36.7	-37.5	24.4	0.00e+00	42	32	0	500170752	46	6064
2026-01-08 17:22:03.58	350.21	20.61	-36.9	-37.7	24.2	0.00e+00	41	32	0	502267904	46	6227
2026-01-08 17:22:04.58	349.98	20.66	-36.7	-37.5	24.3	0.00e+00	46	31	0	504365056	46	6056
2026-01-08 17:22:05.60	349.74	20.71	-36.7	-37.5	24.4	0.00e+00	40	32	0	506462208	46	6081
2026-01-08 17:22:06.60	349.50	20.76	-36.8	-37.6	24.3	0.00e+00	46	32	0	507510784	46	6134
2026-01-08 17:22:07.61	349.26	20.81	-36.7	-37.6	24.4	0.00e+00	6	31	0	509607936	46	6115
2026-01-08 17:22:08.62	349.02	20.86	-36.7	-37.5	24.5	0.00e+00	92	32	0	511705088	46	6078
2026-01-08 17:22:09.63	348.78	20.91	-36.5	-37.3	24.7	0.00e+00	6	31	0	513802240	46	5916
2026-01-08 17:22:10.63	348.54	20.96	-36.5	-37.4	24.6	0.00e+00	90	32	0	515899392	46	5971
2026-01-08 17:22:11.65	348.30	21.01	-36.3	-37.1	24.9	0.00e+00	6	32	0	516947968	46	5782
2026-01-08 17:22:12.65	348.06	21.06	-36.3	-37.1	24.8	0.00e+00	0	32	0	519045120	46	5817
2026-01-08 17:22:13.66	347.81	21.11	-36.1	-36.9	24.9	0.00e+00	5	32	0	521142272	46	5671
2026-01-08 17:22:14.68	347.56	21.16	-36.2	-37.0	24.6	0.00e+00	6	32	0	523239424	46	5749
2026-01-08 17:22:15.68	347.32	21.21	-36.2	-37.0	24.8	0.00e+00	91	32	0	525336576	46	5732
2026-01-08 17:22:16.69	347.07	21.25	-36.1	-36.9	24.8	0.00e+00	0	32	0	526385152	46	5631
2026-01-08 17:22:17.70	346.83	21.30	-36.2	-37.0	24.9	0.00e+00	91	31	0	528482304	46	5702
2026-01-08 17:22:18.71	346.58	21.35	-36.1	-36.9	24.9	0.00e+00	0	32	0	530579456	46	5662
2026-01-08 17:22:19.72	346.33	21.39	-36.2	-37.0	24.8	0.00e+00	0	32	0	532676608	46	5751
2026-01-08 17:22:20.73	346.08	21.44	-36.1	-36.9	25.0	0.00e+00	46	31	0	534773760	46	5639
2026-01-08 17:22:21.74	345.83	21.48	-36.1	-36.9	24.9	0.00e+00	47	32	0	535822336	46	5669
2026-01-08 17:22:22.74	345.58	21.52	-36.0	-36.7	25.0	0.00e+00	0	32	0	537919488	46	5561
2026-01-08 17:22:23.75	345.33	21.57	-36.0	-36.8	25.0	0.00e+00	47	32	0	540016640	46	5577
2026-01-08 17:22:24.76	345.08	21.61	-35.9	-36.7	25.1	0.00e+00	92	32	0	542113792	46	5528
2026-01-08 17:22:25.77	344.83	21.65	-35.8	-36.5	25.1	0.00e+00	41	32	0	544210944	46	5427
2026-01-08 17:22:26.78	344.57	21.69	-35.6	-36.3	25.3	0.00e+00	0	32	0	545259520	44	5959
2026-01-08 17:22:27.79	344.32	21.74	-35.7	-36.4	25.3	0.00e+00	36	32	0	547356672	44	6019
2026-01-08 17:22:28.80	344.07	21.78	-35.6	-36.4	25.3	0.00e+00	2	32	0	549453824	44	6002
2026-01-08 17:22:29.81	343.81	21.82	-35.7	-36.5	25.2	0.00e+00	0	32	0	551550976	44	6065
2026-01-08 17:22:30.82	343.55	21.86	-35.7	-36.5	25.3	0.00e+00	35	32	0	553648128	44	6070
2026-01-08 17:22:31.83	343.30	21.90	-35.8	-36.5	25.2	0.00e+00	92	31	0	554696704	44	6091
2026-01-08 17:22:32.84	343.04	21.94	-35.8	-36.5	25.3	0.00e+00	0	32	0	556793856	44	6083
2026-01-08 17:22:33.85	342.78	21.97	-35.7	-36.5	25.3	0.00e+00	92	32	0	558891008	44	6062
2026-01-08 17:22:34.85	342.52	22.01	-35.8	-36.6	25.1	0.00e+00	0	31	0	560988160	44	6110
2026-01-08 17:22:35.86	342.27	22.05	-35.9	-36.7	24.9	0.00e+00	0	32	0	563085312	44	6221
2026-01-08 17:22:36.87	342.01	22.08	-36.1	-36.9	24.5	0.00e+00	0	32	0	564133888	44	6355
2026-01-08 17:22:37.88	341.74	22.12	-36.3	-37.1	24.8	0.00e+00	46	32	0	566231040	44	6465
2026-01-08 17:22:38.89	341.48	22.16	-36.3	-37.1	24.7	0.00e+00	90	31	0	568328192	44	6513
2026-01-08 17:22:39.90	341.22	22.19	-36.3	-37.1	24.7	0.00e+00	0	31	0	570425344	44	6487
2026-01-08 17:22:40.91	340.96	22.22	-36.2	-37.0	24.8	0.00e+00	92	32	0	572522496	44	6422
2026-01-08 17:22:41.92	340.70	22.26	-36.0	-36.8	25.0	0.00e+00	0	32	0	573571072	44	6296
2026-01-08 17:22:42.93	340.43	22.29	-36.1	-36.9	24.9	0.00e+00	4	31	0	575668224	44	6381
2026-01-08 17:22:43.94	340.17	22.32	-36.3	-37.1	24.7	0.00e+00	45	31	0	577765376	44	6538
2026-01-08 17:22:44.94	339.91	22.35	-36.5	-37.3	24.6	0.00e+00	36	32	0	579862528	44	6682
2026-01-08 17:22:45.95	339.64	22.39	-36.8	-37.6	24.3	0.00e+00	14	32	0	581959680	46	6133
2026-01-08 17:22:46.96	339.37	22.42	-37.0	-37.9	23.9	0.00e+00	46	31	0	583008256	46	6343
2026-01-08 17:22:47.97	339.11	22.45	-37.1	-38.0	24.0	0.00e+00	92	32	0	585105408	46	6425
2026-01-08 17:22:48.98	338.84	22.47	-37.3	-38.1	23.9	0.00e+00	41	32	0	587202560	46	6528
2026-01-08 17:22:49.99	338.57	22.50	-37.3	-38.2	23.9	0.00e+00	87	32	0	589299712	46	6541
2026-01-08 17:22:51.00	338.31	22.53	-37.4	-38.3	23.8	0.00e+00	0	32	0	591396864	46	6624
2026-01-08 17:22:52.01	338.04	22.56	-37.6	-38.5	23.6	0.00e+00	35	32	0	592445440	46	6790
2026-01-08 17:22:53.02	337.77	22.58	-37.7	-38.6	23.5	0.00e+00	0	32	0	594542592	46	6909
2026-01-08 17:22:54.02	337.50	22.61	-37.5	-38.4	23.6	0.00e+00	0	31	0	596639744	46	6750
2026-01-08 17:22:55.03	337.23	22.64	-37.7	-38.7	23.5	0.00e+00	92	31	0	598736896	48	6182
2026-01-08 17:22:56.05	336.96	22.66	-37.9	-38.8	23.3	0.00e+00	0	32	0	600834048	48	6276
2026-01-08 17:22:57.06	336.69	22.68	-37.8	-38.8	23.3	0.00e+00	92	32	0	602931200	48	6264
2026-01-08 17:22:58.07	336.42	22.71	-37.7	-38.7	23.4	0.00e+00	0	32	0	603979776	48	6174
2026-01-08 17:22:59.08	336.15	22.73	-37.5	-38.3	23.7	0.00e+00	0	32	0	606076928	48	5958
2026-01-08 17:23:00.08	335.88	22.75	-37.6	-38.5	23.5	0.00e+00	37	31	0	608174080	48	6063
2026-01-08 17:23:01.09	335.61	22.77	-37.6	-38.5	23.5	0.00e+00	0	32	0	610271232	48	6094
2026-01-08 17:23:02.10	335.33	22.79	-37.9	-38.8	23.3	0.00e+00	92	31	0	612368384	48	6268
2026-01-08 17:23:03.11	335.06	22.81	-38.0	-38.9	23.1	0.00e+00	48	31	0	613416960	48	6363
2026-01-08 17:23:04.12	334.79	22.83	-38.0	-39.0	23.1	0.00e+00	92	32	0	615514112	48	6411
2026-01-08 17:23:05.13	334.51	22.85	-38.2	-39.2	22.9	0.00e+00	0	31	0	617611264	48	6543
2026-01-08 17:23:06.14	334.24	22.87	-38.2	-39.2	22.9	0.00e+00	0	32	0	619708416	48	6580
2026-01-08 17:23:07.15	333.97	22.89	-38.4	-39.4	22.7	0.00e+00	0	31	0	621805568	48	6752
2026-01-08 17:23:08.15	333.69	22.90	-38.5	-39.5	22.7	0.00e+00	46	32	0	622854144	48	6839
2026-01-08 17:23:09.16	333.42	22.92	-38.4	-39.4	22.8	0.00e+00	26	31	0	624951296	48	6698
2026-01-08 17:23:10.17	333.14	22.93	-38.3	-39.3	22.8	0.00e+00	34	32	0	627048448	48	6667
2026-01-08 17:23:11.18	332.87	22.95	-38.3	-39.2	22.8	0.00e+00	92	32	0	629145600	48	6600
2026-01-08 17:23:12.19	332.59	22.96	-38.2	-39.2	23.0	0.00e+00	0	32	0	631242752	48	6547
2026-01-08 17:23:13.20	332.32	22.98	-38.2	-39.2	22.9	0.00e+00	92	31	0	632291328	48	6554
2026-01-08 17:23:14.21	332.04	22.99	-38.2	-39.2	23.0	0.00e+00	0	31	0	634388480	48	6540
2026-01-08 17:23:15.22	331.76	23.00	-38.2	-39.1	23.0	0.00e+00	0	31	0	636485632	48	6525
2026-01-08 17:23:16.23	331.49	23.01	-38.2	-39.2	23.0	0.00e+00	34	32	0	638582784	48	6563
2026-01-08 17:23:17.24	331.21	23.02	-37.8	-38.8	23.4	0.00e+00	0	32	0	640679936	48	6253
2026-01-08 17:23:18.25	330.93	23.03	-37.9	-38.9	23.2	0.00e+00	91	31	0	641728512	48	6324
2026-01-08 17:23:19.25	330.66	23.04	-38.1	-39.0	23.2	0.00e+00	0	31	0	643825664	48	6429
2026-01-08 17:23:20.27	330.38	23.05	-38.2	-39.1	23.0	0.00e+00	92	31	0	645922816	48	6522
2026-01-08 17:23:21.28	330.10	23.05	-38.2	-39.2	23.0	0.00e+00	0	31	0	648019968	48	6566
2026-01-08 17:23:22.29	329.83	23.06	-38.2	-39.1	23.0	0.00e+00	0	32	0	650117120	48	6504
2026-01-08 17:23:23.29	329.55	23.07	-38.2	-39.1	23.1	0.00e+00	0	32	0	651165696	48	6520
2026-01-08 17:23:24.30	329.27	23.07	-38.1	-39.1	23.1	0.00e+00	46	32	0	653262848	48	6488
2026-01-08 17:23:25.31	329.00	23.08	-37.9	-38.9	23.3	0.00e+00	56	32	0	655360000	48	6320
2026-01-08 17:23:26.32	328.72	23.08	-38.0	-38.9	23.3	0.00e+00	0	32	0	657457152	48	6345
2026-01-08 17:23:27.33	328.44	23.08	-37.9	-38.8	23.3	0.00e+00	91	31	0	659554304	48	6294
2026-01-08 17:23:28.34	328.16	23.08	-38.0	-38.9	23.2	0.00e+00	46	31	0	660602880	48	6363
2026-01-08 17:23:29.35	327.88	23.09	-37.8	-38.7	23.3	0.00e+00	91	31	0	662700032	48	6242
2026-01-08 17:23:30.36	327.61	23.09	-37.9	-38.9	23.3	0.00e+00	0	32	0	664797184	48	6322
2026-01-08 17:23:31.37	327.33	23.09	-37.8	-38.8	23.4	0.00e+00	0	31	0	666894336	48	6247
2026-01-08 17:23:32.38	327.05	23.09	-38.0	-38.9	23.2	0.00e+00	45	31	0	668991488	48	6360
2026-01-08 17:23:33.39	326.77	23.08	-37.9	-38.9	23.3	0.00e+00	5	31	0	671088640	48	6328
2026-01-08 17:23:34.40	326.49	23.08	-37.9	-38.9	23.2	0.00e+00	92	32	0	672137216	48	6331
2026-01-08 17:23:35.41	326.22	23.08	-38.0	-38.9	22.5	0.00e+00	6	31	0	674234368	48	6342
2026-01-08 17:23:36.42	325.94	23.08	-37.7	-38.6	23.4	0.00e+00	92	32	0	676331520	48	6162
2026-01-08 17:23:37.43	325.66	23.07	-37.4	-38.3	23.7	0.00e+00	6	32	0	678428672	48	5897
2026-01-08 17:23:38.44	325.38	23.07	-37.2	-38.1	24.0	0.00e+00	0	32	0	680525824	48	5765
2026-01-08 17:23:39.44	325.11	23.06	-37.4	-38.3	23.7	0.00e+00	5	31	0	681574400	48	5912
2026-01-08 17:23:40.45	324.83	23.05	-37.3	-38.2	23.9	0.00e+00	7	31	0	683671552	48	5843
2026-01-08 17:23:41.46	324.55	23.05	-37.4	-38.3	23.7	0.00e+00	91	32	0	685768704	48	5931
2026-01-08 17:23:42.47	324.28	23.04	-37.2	-38.1	24.0	0.00e+00	0	32	0	687865856	48	5778
2026-01-08 17:23:43.48	324.00	23.03	-37.2	-38.1	24.0	0.00e+00	92	31	0	689963008	48	5775
2026-01-08 17:23:44.49	323.72	23.02	-37.0	-37.9	24.2	0.00e+00	39	31	0	691011584	48	5631
2026-01-08 17:23:45.50	323.44	23.01	-36.9	-37.7	24.3	0.00e+00	6	32	0	693108736	48	5559
2026-01-08 17:23:46.51	323.17	23.00	-36.9	-37.7	24.3	0.00e+00	40	32	0	695205888	48	5543
2026-01-08 17:23:47.52	322.89	22.99	-36.9	-37.7	24.3	0.00e+00	0	31	0	697303040	48	5564
2026-01-08 17:23:48.53	322.62	22.98	-36.7	-37.5	24.5	0.00e+00	44	32	0	699400192	46	6054
2026-01-08 17:23:49.54	322.34	22.96	-36.8	-37.6	24.4	0.00e+00	41	31	0	700448768	46	6156
2026-01-08 17:23:50.55	322.06	22.95	-36.5	-37.3	24.6	0.00e+00	91	31	0	702545920	46	5926
2026-01-08 17:23:51.55	321.79	22.93	-36.6	-37.4	24.6	0.00e+00	41	31	0	704643072	46	5980
2026-01-08 17:23:52.56	321.52	22.92	-36.3	-37.2	24.8	0.00e+00	87	31	0	706740224	46	5829
2026-01-08 17:23:53.57	321.24	22.90	-36.1	-36.9	24.9	0.00e+00	0	32	0	708837376	46	5668
2026-01-08 17:23:54.58	320.97	22.89	-36.0	-36.8	24.8	0.00e+00	47	31	0	709885952	46	5567
2026-01-08 17:23:55.59	320.69	22.87	-35.8	-36.6	25.2	0.00e+00	0	31	0	711983104	46	5460
2026-01-08 17:23:56.60	320.42	22.85	-36.0	-36.8	25.1	0.00e+00	41	31	0	714080256	46	5591
2026-01-08 17:23:57.61	320.14	22.83	-35.9	-36.7	25.1	0.00e+00	90	32	0	716177408	46	5547
2026-01-08 17:23:58.62	319.87	22.81	-35.7	-36.5	25.3	0.00e+00	7	31	0	718274560	46	5391
2026-01-08 17:23:59.63	319.60	22.79	-35.5	-36.3	25.4	0.00e+00	92	32	0	719323136	44	5899
2026-01-08 17:24:00.64	319.32	22.77	-35.5	-36.3	25.6	0.00e+00	7	31	0	721420288	44	5907
2026-01-08 17:24:01.65	319.05	22.75	-35.4	-36.2	25.6	0.00e+00	7	31	0	723517440	44	5864
2026-01-08 17:24:02.66	318.78	22.73	-35.3	-36.1	25.7	0.00e+00	0	31	0	725614592	44	5792
2026-01-08 17:24:03.67	318.51	22.71	-35.4	-36.2	25.4	0.00e+00	0	31	0	727711744	44	5844
2026-01-08 17:24:04.68	318.24	22.68	-35.5	-36.3	25.4	0.00e+00	90	31	0	728760320	44	5933
2026-01-08 17:24:05.68	317.97	22.66	-35.5	-36.3	25.5	0.00e+00	0	31	0	730857472	44	5912
2026-01-08 17:24:06.69	317.70	22.64	-35.3	-36.1	25.5	0.00e+00	92	31	0	732954624	44	5762
2026-01-08 17:24:07.70	317.43	22.61	-35.1	-35.9	25.8	0.00e+00	46	31	0	735051776	44	5651
2026-01-08 17:24:08.71	317.16	22.59	-35.2	-35.9	25.7	0.00e+00	41	32	0	737148928	44	5695
2026-01-08 17:24:09.72	316.89	22.56	-35.2	-35.9	25.7	0.00e+00	41	31	0	738197504	44	5695
2026-01-08 17:24:10.73	316.62	22.53	-35.4	-36.1	25.6	0.00e+00	41	31	0	740294656	44	5806
2026-01-08 17:24:11.74	316.35	22.50	-35.4	-36.1	25.5	0.00e+00	92	32	0	742391808	44	5806
2026-01-08 17:24:12.75	316.09	22.47	-35.4	-36.2	25.5	0.00e+00	42	31	0	744488960	44	5864
2026-01-08 17:24:13.76	315.82	22.45	-35.5	-36.3	25.4	0.00e+00	92	32	0	746586112	44	5920
2026-01-08 17:24:14.77	315.55	22.42	-35.7	-36.5	25.3	0.00e+00	41	32	0	747634688	44	6047
2026-01-08 17:24:15.78	315.29	22.39	-35.8	-36.6	25.2	0.00e+00	92	31	0	749731840	44	6157
2026-01-08 17:24:16.79	315.02	22.35	-35.8	-36.6	25.2	0.00e+00	0	31	0	751828992	44	6107
2026-01-08 17:24:17.79	314.76	22.32	-35.6	-36.4	25.4	0.00e+00	2	31	0	753926144	44	6004
2026-01-08 17:24:18.80	314.49	22.29	-35.6	-36.4	25.5	0.00e+00	0	32	0	756023296	44	5979
2026-01-08 17:24:19.81	314.23	22.26	-35.7	-36.5	25.3	0.00e+00	35	32	0	757071872	44	6059
2026-01-08 17:24:20.82	313.97	22.22	-35.7	-36.5	25.3	0.00e+00	91	31	0	759169024	44	6070
2026-01-08 17:24:21.82	313.71	22.19	-35.9	-36.7	25.1	0.00e+00	0	31	0	761266176	44	6231
2026-01-08 17:24:22.83	313.44	22.16	-36.1	-36.9	25.0	0.00e+00	92	32	0	763363328	44	6337
2026-01-08 17:24:23.84	313.18	22.12	-36.2	-37.0	24.8	0.00e+00	0	31	0	765460480	44	6424
2026-01-08 17:24:24.85	312.92	22.08	-36.3	-37.1	24.8	0.00e+00	0	31	0	767557632	44	6509
2026-01-08 17:24:25.86	312.66	22.05	-36.4	-37.3	24.7	0.00e+00	0	32	0	768606208	44	6622
2026-01-08 17:24:26.86	312.40	22.01	-36.6	-37.4	24.6	0.00e+00	0	32	0	770703360	44	6713
2026-01-08 17:24:27.88	312.14	21.97	-36.7	-37.5	24.5	0.00e+00	92	32	0	772800512	44	6811
2026-01-08 17:24:28.88	311.89	21.94	-36.9	-37.7	24.3	0.00e+00	45	32	0	774897664	46	6224
2026-01-08 17:24:29.89	311.63	21.90	-37.0	-37.9	24.1	0.00e+00	91	32	0	776994816	46	6359
2026-01-08 17:24:30.90	311.37	21.86	-37.0	-37.8	24.2	0.00e+00	45	32	0	778043392	46	6290
2026-01-08 17:24:31.91	311.11	21.82	-37.1	-37.9	24.1	0.00e+00	45	32	0	780140544	46	6388
2026-01-08 17:24:32.92	310.86	21.78	-37.1	-37.9	24.1	0.00e+00	0	31	0	782237696	46	6373
2026-01-08 17:24:33.93	310.60	21.74	-37.1	-37.9	24.2	0.00e+00	43	32	0	784334848	46	6366
2026-01-08 17:24:34.94	310.35	21.70	-37.2	-38.0	24.1	0.00e+00	0	32	0	786432000	46	6445
2026-01-08 17:24:35.95	310.10	21.65	-37.1	-37.9	24.2	0.00e+00	37	31	0	787480576	46	6368
2026-01-08 17:24:36.96	309.84	21.61	-37.2	-38.0	24.0	0.00e+00	91	31	0	789577728	46	6444
2026-01-08 17:24:37.97	309.59	21.57	-37.2	-38.1	24.0	0.00e+00	38	31	0	791674880	46	6508
2026-01-08 17:24:38.98	309.34	21.52	-37.5	-38.3	23.8	0.00e+00	91	31	0	793772032	46	6685
2026-01-08 17:24:39.99	309.09	21.48	-37.6	-38.5	23.7	0.00e+00	40	31	0	795869184	46	6803
2026-01-08 17:24:41.00	308.84	21.44	-37.6	-38.5	23.6	0.00e+00	2	32	0	796917760	46	6842
2026-01-08 17:24:42.00	308.59	21.39	-37.7	-38.6	23.6	0.00e+00	41	32	0	799014912	46	6887
2026-01-08 17:24:43.01	308.34	21.34	-37.7	-38.6	23.6	0.00e+00	3	31	0	801112064	48	6104
2026-01-08 17:24:44.03	308.09	21.30	-37.5	-38.4	23.7	0.00e+00	91	32	0	803209216	48	6007
2026-01-08 17:24:45.03	307.85	21.25	-37.7	-38.6	23.4	0.00e+00	0	31	0	805306368	48	6127
2026-01-08 17:24:46.04	307.60	21.21	-37.7	-38.6	23.6	0.00e+00	92	31	0	806354944	48	6155
2026-01-08 17:24:47.05	307.35	21.16	-37.6	-38.5	23.5	0.00e+00	0	31	0	808452096	48	6091
2026-01-08 17:24:48.06	307.11	21.11	-37.7	-38.6	23.1	0.00e+00	0	32	0	810549248	48	6132
2026-01-08 17:24:49.07	306.86	21.06	-37.8	-38.7	23.4	0.00e+00	0	31	0	812646400	48	6193
2026-01-08 17:24:50.08	306.62	21.01	-37.8	-38.8	23.4	0.00e+00	0	32	0	814743552	48	6246
2026-01-08 17:24:51.09	306.38	20.96	-37.9	-38.9	23.3	0.00e+00	35	31	0	815792128	48	6318
2026-01-08 17:24:52.10	306.13	20.91	-38.0	-38.9	23.3	0.00e+00	45	31	0	817889280	48	6344
2026-01-08 17:24:53.11	305.89	20.86	-37.9	-38.9	23.3	0.00e+00	90	31	0	819986432	48	6319
2026-01-08 17:24:54.12	305.65	20.81	-38.0	-38.9	23.2	0.00e+00	0	32	0	822083584	48	6368
2026-01-08 17:24:55.13	305.41	20.76	-38.1	-39.0	23.2	0.00e+00	46	32	0	824180736	48	6433
2026-01-08 17:24:56.14	305.17	20.71	-38.1	-39.0	23.0	0.00e+00	41	31	0	825229312	48	6422
2026-01-08 17:24:57.15	304.94	20.66	-38.0	-38.9	23.2	0.00e+00	45	31	0	827326464	48	6346
2026-01-08 17:24:58.16	304.70	20.61	-38.0	-38.9	23.2	0.00e+00	0	31	0	829423616	48	6382
2026-01-08 17:24:59.17	304.46	20.55	-38.1	-39.0	23.1	0.00e+00	0	32	0	831520768	48	6418
2026-01-08 17:25:00.18	304.23	20.50	-37.7	-38.6	23.5	0.00e+00	92	32	0	833617920	48	6160
2026-01-08 17:25:01.19	303.99	20.45	-37.6	-38.5	23.6	0.00e+00	36	31	0	835715072	48	6095
2026-01-08 17:25:02.20	303.76	20.39	-37.8	-38.7	23.4	0.00e+00	92	32	0	836763648	48	6209
2026-01-08 17:25:03.20	303.53	20.34	-37.9	-38.8	23.4	0.00e+00	0	32	0	838860800	48	6302
2026-01-08 17:25:04.21	303.30	20.28	-38.1	-39.0	23.3	0.00e+00	36	32	0	840957952	48	6436
2026-01-08 17:25:05.22	303.06	20.23	-38.1	-39.1	23.1	0.00e+00	2	31	0	843055104	48	6490
2026-01-08 17:25:06.24	302.83	20.17	-38.1	-39.0	23.2	0.00e+00	0	32	0	845152256	48	6457
2026-01-08 17:25:07.24	302.60	20.12	-38.0	-38.9	23.2	0.00e+00	92	32	0	846200832	48	6344
2026-01-08 17:25:08.25	302.38	20.06	-37.8	-38.7	23.4	0.00e+00	2	31	0	848297984	48	6211
2026-01-08 17:25:09.26	302.15	20.00	-37.8	-38.7	23.4	0.00e+00	92	31	0	850395136	48	6191
2026-01-08 17:25:10.27	301.92	19.95	-37.7	-38.6	23.6	0.00e+00	0	31	0	852492288	48	6115
2026-01-08 17:25:11.28	301.69	19.89	-37.6	-38.5	23.5	0.00e+00	0	31	0	853540864	48	6081
2026-01-08 17:25:12.29	301.47	19.83	-37.8	-38.7	23.4	0.00e+00	37	31	0	855638016	48	6203
2026-01-08 17:25:13.30	301.24	19.77	-37.6	-38.5	23.6	0.00e+00	0	31	0	857735168	48	6071
2026-01-08 17:25:14.31	301.02	19.72	-37.7	-38.6	23.5	0.00e+00	18	31	0	859832320	48	6143
2026-01-08 17:25:15.32	300.80	19.66	-37.7	-38.6	23.6	0.00e+00	0	31	0	861929472	48	6119
2026-01-08 17:25:16.33	300.57	19.60	-37.8	-38.7	23.4	0.00e+00	90	31	0	864026624	48	6212
2026-01-08 17:25:17.34	300.35	19.54	-37.8	-38.7	23.4	0.00e+00	37	31	0	865075200	48	6232
2026-01-08 17:25:18.35	300.13	19.48	-37.8	-38.7	23.5	0.00e+00	92	31	0	867172352	48	6200
2026-01-08 17:25:19.36	299.91	19.42	-37.7	-38.6	23.5	0.00e+00	42	31	0	869269504	48	6141
2026-01-08 17:25:20.36	299.70	19.36	-37.7	-38.6	23.4	0.00e+00	38	31	0	871366656	48	6131
2026-01-08 17:25:21.37	299.48	19.30	-37.5	-38.4	23.7	0.00e+00	0	31	0	873463808	48	6008
2026-01-08 17:25:22.38	299.26	19.24	-37.6	-38.5	23.7	0.00e+00	6	31	0	874512384	48	6036
2026-01-08 17:25:23.39	299.05	19.18	-37.6	-38.5	23.6	0.00e+00	92	31	0	876609536	48	6077
2026-01-08 17:25:24.40	298.83	19.12	-37.6	-38.5	23.6	0.00e+00	39	31	0	878706688	48	6093
2026-01-08 17:25:25.41	298.62	19.06	-37.7	-38.6	23.5	0.00e+00	92	32	0	880803840	48	6127
2026-01-08 17:25:26.42	298.40	18.99	-37.6	-38.5	23.6	0.00e+00	38	31	0	882900992	48	6063
2026-01-08 17:25:27.43	298.19	18.93	-37.7	-38.6	23.4	0.00e+00	38	32	0	883949568	48	6149
2026-01-08 17:25:28.44	297.98	18.87	-37.5	-38.4	23.8	0.00e+00	0	31	0	886046720	48	5980
2026-01-08 17:25:29.45	297.77	18.81	-37.7	-38.6	23.5	0.00e+00	6	31	0	888143872	48	6134
2026-01-08 17:25:30.46	297.56	18.75	-37.7	-38.6	23.5	0.00e+00	75	31	0	890241024	48	6135
2026-01-08 17:25:31.47	297.35	18.68	-37.6	-38.5	23.6	0.00e+00	0	31	0	892338176	48	6095
2026-01-08 17:25:32.48	297.14	18.62	-37.6	-38.5	23.5	0.00e+00	92	31	0	893386752	48	6102
2026-01-08 17:25:33.49	296.93	18.56	-37.6	-38.5	23.6	0.00e+00	0	32	0	895483904	48	6070
2026-01-08 17:25:34.50	296.73	18.49	-37.6	-38.5	23.6	0.00e+00	0	32	0	897581056	48	6058
2026-01-08 17:25:35.51	296.52	18.43	-37.7	-38.6	23.5	0.00e+00	43	31	0	899678208	48	6153
2026-01-08 17:25:36.51	296.32	18.36	-37.7	-38.6	23.5	0.00e+00	42	31	0	901775360	48	6132
2026-01-08 17:25:37.52	296.12	18.30	-37.7	-38.6	23.6	0.00e+00	41	31	0	902823936	48	6148
2026-01-08 17:25:38.53	295.91	18.24	-37.5	-38.4	23.7	0.00e+00	37	31	0	904921088	48	6026
2026-01-08 17:25:39.54	295.71	18.17	-37.4	-38.3	23.8	0.00e+00	92	31	0	907018240	48	5951
2026-01-08 17:25:40.55	295.51	18.11	-37.5	-38.4	23.6	0.00e+00	37	32	0	909115392	48	5987
2026-01-08 17:25:41.56	295.31	18.04	-37.5	-38.4	23.7	0.00e+00	87	31	0	911212544	48	5990
2026-01-08 17:25:42.57	295.11	17.98	-37.6	-38.5	23.6	0.00e+00	50	32	0	912261120	48	6046
2026-01-08 17:25:43.58	294.91	17.91	-37.6	-38.5	23.5	0.00e+00	38	31	0	914358272	48	6103
2026-01-08 17:25:44.59	294.71	17.84	-37.6	-38.5	23.6	0.00e+00	77	31	0	916455424	48	6092
2026-01-08 17:25:45.60	294.52	17.78	-37.7	-38.6	23.5	0.00e+00	0	31	0	918552576	48	6169
2026-01-08 17:25:46.61	294.32	17.71	-37.9	-38.8	23.3	0.00e+00	92	31	0	920649728	48	6286
2026-01-08 17:25:47.62	294.13	17.65	-37.8	-38.7	23.3	0.00e+00	7	32	0	921698304	48	6211
2026-01-08 17:25:48.63	293.93	17.58	-37.9	-38.8	23.3	0.00e+00	92	31	0	923795456	48	6289
2026-01-08 17:25:49.64	293.74	17.51	-37.9	-38.8	23.3	0.00e+00	6	31	0	925892608	48	6315
2026-01-08 17:25:50.64	293.55	17.45	-38.0	-39.0	23.1	0.00e+00	0	32	0	927989760	48	6410
2026-01-08 17:25:51.65	293.36	17.38	-38.0	-39.0	23.0	0.00e+00	0	31	0	930086912	48	6404
2026-01-08 17:25:52.66	293.16	17.31	-38.0	-39.0	23.1	0.00e+00	0	31	0	932184064	48	6405
2026-01-08 17:25:53.67	292.97	17.25	-37.9	-38.8	23.3	0.00e+00	61	31	0	933232640	48	6288
2026-01-08 17:25:54.68	292.79	17.18	-38.0	-39.0	23.1	0.00e+00	0	32	0	935329792	48	6403
2026-01-08 17:25:55.69	292.60	17.11	-37.8	-38.7	23.3	0.00e+00	92	31	0	937426944	48	6199
2026-01-08 17:25:56.70	292.41	17.04	-37.9	-38.8	23.3	0.00e+00	43	32	0	939524096	48	6286
2026-01-08 17:25:57.71	292.22	16.98	-37.8	-38.8	23.3	0.00e+00	42	31	0	941621248	48	6247
2026-01-08 17:25:58.72	292.04	16.91	-37.9	-38.8	23.2	0.00e+00	43	32	0	942669824	48	6311
2026-01-08 17:25:59.73	291.85	16.84	-37.9	-38.9	23.3	0.00e+00	43	31	0	944766976	48	6339
2026-01-08 17:26:00.74	291.67	16.77	-37.8	-38.8	23.3	0.00e+00	91	32	0	946864128	48	6259
2026-01-08 17:26:01.75	291.48	16.70	-37.9	-38.9	23.2	0.00e+00	39	31	0	948961280	48	6325
2026-01-08 17:26:02.76	291.30	16.64	-37.9	-38.9	23.2	0.00e+00	92	31	0	951058432	48	6331
2026-01-08 17:26:03.77	291.12	16.57	-38.0	-38.9	23.1	0.00e+00	40	31	0	952107008	48	6350
2026-01-08 17:26:04.77	290.94	16.50	-38.0	-39.0	23.2	0.00e+00	92	32	0	954204160	48	6404
2026-01-08 17:26:05.78	290.76	16.43	-38.3	-39.3	22.9	0.00e+00	0	32	0	956301312	48	6631
2026-01-08 17:26:06.79	290.58	16.36	-38.0	-39.0	23.0	0.00e+00	40	32	0	958398464	48	6414
2026-01-08 17:26:07.80	290.40	16.29	-38.1	-39.0	23.0	0.00e+00	0	31	0	960495616	48	6448
2026-01-08 17:26:08.81	290.23	16.23	-37.9	-38.8	23.3	0.00e+00	0	31	0	961544192	48	6296
2026-01-08 17:26:09.82	290.05	16.16	-37.8	-38.7	23.3	0.00e+00	92	32	0	963641344	48	6240
2026-01-08 17:26:10.83	289.88	16.09	-37.7	-38.6	23.5	0.00e+00	0	31	0	965738496	48	6151
2026-01-08 17:26:11.84	289.70	16.02	-37.6	-38.5	23.5	0.00e+00	92	32	0	967835648	48	6080
2026-01-08 17:26:12.85	289.53	15.95	-37.6	-38.5	23.5	0.00e+00	0	31	0	969932800	48	6079
2026-01-08 17:26:13.86	289.35	15.88	-37.5	-38.4	23.6	0.00e+00	0	32	0	970981376	48	6030
2026-01-08 17:26:14.87	289.18	15.81	-37.6	-38.5	23.6	0.00e+00	0	32	0	973078528	48	6038
2026-01-08 17:26:15.88	289.01	15.74	-37.5	-38.4	23.7	0.00e+00	0	32	0	975175680	48	5968
2026-01-08 17:26:16.88	288.84	15.67	-37.5	-38.4	23.5	0.00e+00	92	31	0	977272832	48	5990
2026-01-08 17:26:17.89	288.67	15.60	-37.6	-38.5	23.5	0.00e+00	40	31	0	979369984	48	6080
2026-01-08 17:26:18.90	288.50	15.53	-37.6	-38.5	23.5	0.00e+00	92	31	0	980418560	48	6091
2026-01-08 17:26:19.91	288.33	15.46	-37.5	-38.4	23.6	0.00e+00	42	32	0	982515712	48	5987
2026-01-08 17:26:20.91	288.17	15.40	-37.6	-38.5	23.5	0.00e+00	42	31	0	984612864	48	6052
2026-01-08 17:26:21.92	288.00	15.33	-37.7	-38.6	23.4	0.00e+00	0	31	0	986710016	48	6157
2026-01-08 17:26:22.93	287.83	15.26	-37.5	-38.4	23.7	0.00e+00	42	32	0	988807168	48	5973
2026-01-08 17:26:23.94	287.67	15.19	-37.5	-38.4	23.5	0.00e+00	0	31	0	989855744	48	6023
2026-01-08 17:26:24.95	287.50	15.12	-37.5	-38.4	23.5	0.00e+00	39	31	0	991952896	48	5990
2026-01-08 17:26:25.96	287.34	15.05	-37.2	-38.1	23.8	0.00e+00	92	31	0	994050048	48	5796
2026-01-08 17:26:26.97	287.18	14.98	-37.0	-37.9	24.1	0.00e+00	4	31	0	996147200	48	5643
2026-01-08 17:26:27.98	287.01	14.91	-37.1	-37.9	24.0	0.00e+00	92	31	0	998244352	48	5687
2026-01-08 17:26:28.98	286.85	14.84	-37.0	-37.9	24.0	0.00e+00	0	31	0	1000341504	48	5648
2026-01-08 17:26:29.99	286.69	14.77	-36.9	-37.7	24.2	0.00e+00	0	31	0	1001390080	48	5542
2026-01-08 17:26:31.00	286.53	14.70	-36.9	-37.8	24.1	0.00e+00	44	32	0	1003487232	48	5587
2026-01-08 17:26:32.01	286.37	14.63	-36.8	-37.6	24.3	0.00e+00	2	31	0	1005584384	46	6139
2026-01-08 17:26:33.02	286.21	14.56	-36.9	-37.7	24.1	0.00e+00	92	31	0	1007681536	46	6215
2026-01-08 17:26:34.03	286.06	14.49	-36.8	-37.7	24.2	0.00e+00	2	31	0	1008730112	46	6201
2026-01-08 17:26:35.03	285.90	14.42	-36.8	-37.6	24.3	0.00e+00	91	31	0	1010827264	46	6169
2026-01-08 17:26:36.05	285.74	14.35	-36.8	-37.7	24.2	0.00e+00	0	32	0	1012924416	46	6203
2026-01-08 17:26:37.05	285.59	14.28	-36.9	-37.7	24.1	0.00e+00	0	32	0	1015021568	46	6228
2026-01-08 17:26:38.06	285.44	14.21	-36.9	-37.8	24.0	0.00e+00	0	31	0	1017118720	46	6268
2026-01-08 17:26:39.07	285.28	14.14	-36.9	-37.8	23.5	0.00e+00	0	32	0	1018167296	46	6262
2026-01-08 17:26:40.08	285.13	14.07	-36.8	-37.6	24.2	0.00e+00	78	32	0	1020264448	46	6151
2026-01-08 17:26:41.09	284.98	14.00	-36.7	-37.6	24.3	0.00e+00	36	31	0	1022361600	46	6113
2026-01-08 17:26:42.10	284.82	13.93	-36.7	-37.5	24.2	0.00e+00	91	31	0	1024458752	46	6097
2026-01-08 17:26:43.11	284.67	13.86	-36.7	-37.5	24.0	0.00e+00	0	31	0	1026555904	46	6083
2026-01-08 17:26:44.12	284.52	13.79	-36.8	-37.6	24.2	0.00e+00	37	31	0	1028653056	46	6169
2026-01-08 17:26:45.13	284.37	13.72	-36.8	-37.6	24.1	0.00e+00	36	31	0	1029701632	46	6162
2026-01-08 17:26:46.14	284.22	13.65	-36.8	-37.6	24.2	0.00e+00	44	32	0	1031798784	46	6156
2026-01-08 17:26:47.15	284.08	13.58	-36.9	-37.7	24.0	0.00e+00	0	32	0	1033895936	46	6235
2026-01-08 17:26:48.16	283.93	13.51	-36.9	-37.7	24.0	0.00e+00	43	31	0	1035993088	46	6232
2026-01-08 17:26:49.16	283.78	13.44	-36.9	-37.8	24.1	0.00e+00	92	31	0	1038090240	46	6268
2026-01-08 17:26:50.17	283.64	13.37	-36.9	-37.7	24.0	0.00e+00	0	32	0	1039138816	46	6238
2026-01-08 17:26:51.18	283.49	13.30	-37.0	-37.9	23.9	0.00e+00	92	31	0	1041235968	46	6350
2026-01-08 17:26:52.19	283.35	13.23	-36.9	-37.7	24.1	0.00e+00	38	31	0	1043333120	46	6243
2026-01-08 17:26:53.20	283.20	13.16	-36.9	-37.8	24.0	0.00e+00	41	31	0	1045430272	46	6273
2026-01-08 17:26:54.21	283.06	13.09	-36.9	-37.7	24.1	0.00e+00	0	31	0	1047527424	46	6238
2026-01-08 17:26:55.22	282.92	13.02	-37.0	-37.9	23.9	0.00e+00	2	32	0	1048576000	46	6363
2026-01-08 17:26:56.23	282.78	12.95	-36.9	-37.7	24.0	0.00e+00	92	32	0	1050673152	46	6241
2026-01-08 17:26:57.24	282.63	12.88	-36.9	-37.8	24.1	0.00e+00	0	32	0	1052770304	46	6291
2026-01-08 17:26:58.25	282.49	12.81	-37.0	-37.9	24.0	0.00e+00	92	32	0	1054867456	46	6330
2026-01-08 17:26:59.26	282.35	12.74	-37.1	-38.0	23.9	0.00e+00	0	32	0	1056964608	46	6434
2026-01-08 17:27:00.26	282.22	12.67	-37.2	-38.1	23.8	0.00e+00	0	32	0	1058013184	46	6528
2026-01-08 17:27:01.28	282.08	12.60	-37.2	-38.1	23.7	0.00e+00	0	32	0	1060110336	46	6498
2026-01-08 17:27:02.29	281.94	12.53	-37.3	-38.2	23.6	0.00e+00	0	31	0	1062207488	46	6559
2026-01-08 17:27:03.29	281.80	12.46	-37.5	-38.4	23.5	0.00e+00	24	32	0	1064304640	46	6736
2026-01-08 17:27:04.30	281.67	12.39	-37.5	-38.4	23.5	0.00e+00	40	32	0	1066401792	46	6742
2026-01-08 17:27:05.31	281.53	12.32	-37.5	-38.4	23.4	0.00e+00	92	31	0	1067450368	46	6764
2026-01-08 17:27:06.32	281.40	12.25	-37.5	-38.4	23.5	0.00e+00	0	31	0	1069547520	46	6699
2026-01-08 17:27:07.33	281.26	12.18	-37.4	-38.3	23.5	0.00e+00	0	32	0	1071644672	46	6688
2026-01-08 17:27:08.34	281.13	12.11	-37.5	-38.4	23.5	0.00e+00	49	31	0	1073741824	46	6729
2026-01-08 17:27:09.35	280.99	12.04	-37.4	-38.3	23.6	0.00e+00	35	31	0	1075838976	46	6636
2026-01-08 17:27:10.35	280.86	11.97	-37.3	-38.2	23.6	0.00e+00	15	31	0	1076887552	46	6611
2026-01-08 17:27:11.36	280.73	11.90	-37.3	-38.2	23.7	0.00e+00	47	31	0	1078984704	46	6573
2026-01-08 17:27:12.37	280.60	11.83	-37.3	-38.2	23.6	0.00e+00	92	31	0	1081081856	46	6590
2026-01-08 17:27:13.38	280.47	11.76	-37.3	-38.2	23.6	0.00e+00	5	31	0	1083179008	46	6564
2026-01-08 17:27:14.39	280.34	11.70	-37.3	-38.2	23.6	0.00e+00	81	31	0	1085276160	46	6586
2026-01-08 17:27:15.40	280.21	11.63	-37.3	-38.2	23.6	0.00e+00	0	31	0	1086324736	46	6606
2026-01-08 17:27:16.41	280.08	11.56	-37.5	-38.4	23.5	0.00e+00	5	31	0	1088421888	46	6709
2026-01-08 17:27:17.42	279.95	11.49	-37.5	-38.4	23.4	0.00e+00	42	31	0	1090519040	46	6744
2026-01-08 17:27:18.43	279.82	11.42	-37.6	-38.5	23.3	0.00e+00	0	31	0	1092616192	46	6835
2026-01-08 17:27:19.44	279.70	11.35	-37.7	-38.6	23.2	0.00e+00	92	31	0	1094713344	46	6919
2026-01-08 17:27:20.45	279.57	11.28	-37.8	-38.7	23.1	0.00e+00	0	32	0	1096810496	48	6231
2026-01-08 17:27:21.46	279.44	11.21	-37.8	-38.8	23.0	0.00e+00	92	31	0	1097859072	48	6255
2026-01-08 17:27:22.47	279.32	11.14	-37.9	-38.8	23.0	0.00e+00	0	32	0	1099956224	48	6298
2026-01-08 17:27:23.48	279.19	11.07	-37.9	-38.9	22.9	0.00e+00	0	32	0	1102053376	48	6350
2026-01-08 17:27:24.49	279.07	11.01	-37.9	-38.8	23.0	0.00e+00	0	31	0	1104150528	48	6315
2026-01-08 17:27:25.50	278.95	10.94	-37.9	-38.9	23.0	0.00e+00	40	31	0	1106247680	48	6345
2026-01-08 17:27:26.51	278.82	10.87	-38.0	-38.9	22.9	0.00e+00	83	31	0	1107296256	48	6381
2026-01-08 17:27:27.52	278.70	10.80	-37.9	-38.9	22.9	0.00e+00	0	31	0	1109393408	48	6356
2026-01-08 17:27:28.53	278.58	10.73	-38.0	-39.0	22.8	0.00e+00	92	32	0	1111490560	48	6421
2026-01-08 17:27:29.54	278.46	10.66	-38.0	-39.0	22.9	0.00e+00	0	31	0	1113587712	48	6428
2026-01-08 17:27:30.54	278.34	10.60	-38.1	-39.1	22.8	0.00e+00	39	32	0	1115684864	48	6492
2026-01-08 17:27:31.55	278.22	10.53	-38.0	-38.9	22.9	0.00e+00	37	32	0	1116733440	48	6382
2026-01-08 17:27:32.56	278.10	10.46	-38.1	-39.1	22.8	0.00e+00	46	31	0	1118830592	48	6480
2026-01-08 17:27:33.57	277.98	10.39	-38.1	-39.1	22.7	0.00e+00	22	32	0	1120927744	48	6504
2026-01-08 17:27:34.58	277.86	10.32	-38.2	-39.2	22.7	0.00e+00	54	31	0	1123024896	48	6567
2026-01-08 17:27:35.59	277.75	10.26	-38.3	-39.3	22.6	0.00e+00	92	32	0	1125122048	48	6669
2026-01-08 17:27:36.60	277.63	10.19	-38.3	-39.3	22.6	0.00e+00	48	32	0	1126170624	48	6617
2026-01-08 17:27:37.61	277.51	10.12	-38.3	-39.3	22.5	0.00e+00	78	32	0	1128267776	48	6659
2026-01-08 17:27:38.61	277.40	10.05	-38.3	-39.3	22.5	0.00e+00	7	32	0	1130364928	48	6667
2026-01-08 17:27:39.62	277.28	9.98	-38.4	-39.4	22.5	0.00e+00	7	32	0	1132462080	48	6715
2026-01-08 17:27:40.63	277.17	9.92	-38.4	-39.4	22.4	0.00e+00	0	32	0	1134559232	48	6764
2026-01-08 17:27:41.64	277.05	9.85	-38.5	-39.5	22.3	0.00e+00	0	31	0	1135607808	48	6830
2026-01-08 17:27:42.65	276.94	9.78	-38.5	-39.5	22.3	0.00e+00	91	31	0	1137704960	48	6816
2026-01-08 17:27:43.66	276.83	9.71	-38.7	-39.7	22.2	0.00e+00	0	31	0	1139802112	48	6963
2026-01-08 17:27:44.67	276.71	9.65	-38.5	-39.5	22.3	0.00e+00	91	31	0	1141899264	48	6831
2026-01-08 17:27:45.68	276.60	9.58	-38.6	-39.6	22.2	0.00e+00	0	31	0	1143996416	48	6903
2026-01-08 17:27:46.69	276.49	9.51	-38.7	-39.7	22.1	0.00e+00	0	31	0	1145044992	48	6983
2026-01-08 17:27:47.70	276.38	9.45	-38.7	-39.8	22.1	0.00e+00	33	32	0	1147142144	50	6251
2026-01-08 17:27:48.71	276.27	9.38	-38.8	-39.9	22.0	0.00e+00	0	32	0	1149239296	50	6360
2026-01-08 17:27:49.71	276.16	9.31	-38.8	-39.9	21.9	0.00e+00	44	31	0	1151336448	50	6360
2026-01-08 17:27:50.72	276.05	9.25	-38.9	-40.0	21.9	0.00e+00	0	31	0	1153433600	50	6408
2026-01-08 17:27:51.73	275.94	9.18	-38.9	-40.0	21.8	0.00e+00	92	32	0	1154482176	50	6457
2026-01-08 17:27:52.74	275.83	9.11	-39.1	-40.2	21.7	0.00e+00	43	32	0	1156579328	50	6576
2026-01-08 17:27:53.75	275.72	9.05	-39.0	-40.1	21.8	0.00e+00	73	32	0	1158676480	50	6505
2026-01-08 17:27:54.76	275.61	8.98	-38.9	-40.0	21.9	0.00e+00	38	31	0	1160773632	50	6430
2026-01-08 17:27:55.76	275.51	8.91	-38.8	-39.9	21.9	0.00e+00	43	32	0	1162870784	50	6341
2026-01-08 17:27:56.77	275.40	8.85	-38.9	-40.0	21.9	0.00e+00	17	32	0	1163919360	50	6399
2026-01-08 17:27:57.78	275.30	8.78	-38.8	-39.9	21.9	0.00e+00	44	31	0	1166016512	50	6358
2026-01-08 17:27:58.79	275.19	8.71	-38.8	-39.9	21.9	0.00e+00	92	31	0	1168113664	50	6351
2026-01-08 17:27:59.80	275.08	8.65	-38.8	-39.8	22.0	0.00e+00	44	31	0	1170210816	50	6303
2026-01-08 17:28:00.81	274.98	8.58	-38.8	-39.8	21.9	0.00e+00	92	31	0	1172307968	50	6314
2026-01-08 17:28:01.82	274.88	8.52	-38.9	-40.0	21.9	0.00e+00	44	31	0	1173356544	50	6394
2026-01-08 17:28:02.83	274.77	8.45	-38.8	-39.9	21.9	0.00e+00	0	32	0	1175453696	50	6328
2026-01-08 17:28:03.84	274.67	8.38	-38.9	-39.9	21.7	0.00e+00	0	31	0	1177550848	50	6381
2026-01-08 17:28:04.84	274.57	8.32	-39.0	-40.1	21.6	0.00e+00	0	31	0	1179648000	50	6508
2026-01-08 17:28:05.86	274.46	8.25	-39.2	-40.3	21.4	0.00e+00	92	31	0	1181745152	50	6664
2026-01-08 17:28:06.86	274.36	8.19	-39.5	-40.6	21.2	0.00e+00	0	31	0	1182793728	50	6904
2026-01-08 17:28:07.87	274.26	8.12	-39.4	-40.5	21.3	0.00e+00	92	31	0	1184890880	50	6818
2026-01-08 17:28:08.88	274.16	8.06	-39.4	-40.6	21.2	0.00e+00	0	32	0	1186988032	50	6896
2026-01-08 17:28:09.89	274.06	7.99	-39.5	-40.7	21.1	0.00e+00	0	31	0	1189085184	50	6972
2026-01-08 17:28:10.90	273.96	7.93	-39.6	-40.8	21.0	0.00e+00	0	32	0	1191182336	50	7065
