passes_logs/2026/01/08/R4.6S_Anadyr/R4.6S_Anadyr__20260108_173331_AQUA_rec.log

#Pass ID: 20260108_173331_AQUA
#Satellite: AQUA
#Configuration: AQUA
#almurnet v.1.7.20251203
#Start time: 2026-01-08 17:33:35

#Version: 2.2.20231116
#Station: R4.6S_Anadyr
#Location: 177.4865 lon 64.73178 lat
#TLE: 1 27424U 02022A   26004.96787593  .00001598  00000+0  32997-3 0  9996
#TLE: 2 27424  98.4069 331.2279 0002002  90.2377   0.6092 14.61798176259425

#Time	Az	El	Level	Level2	SNR	BER	BlckErr	Temp	State	Recorded	gain1	gain2
2026-01-08 17:33:35.14	21.70	0.19	-48.7	-65.1	3.3	3.02e+01	0	30	0	0	60	69418
2026-01-08 17:33:36.14	21.66	0.25	-48.8	-66.7	3.5	3.02e+01	0	31	104	0	60	83386
2026-01-08 17:33:37.15	21.63	0.32	-48.8	-66.7	3.5	3.02e+01	0	31	104	0	60	83580
2026-01-08 17:33:38.16	21.59	0.38	-48.9	-66.7	3.5	3.02e+01	0	31	104	0	60	83517
2026-01-08 17:33:39.17	21.56	0.44	-48.8	-66.8	3.5	3.02e+01	0	31	104	0	60	83874
2026-01-08 17:33:40.18	21.52	0.50	-48.9	-66.8	3.5	3.02e+01	0	31	104	0	60	84109
2026-01-08 17:33:41.19	21.48	0.56	-48.9	-66.8	3.5	3.02e+01	0	31	104	0	60	83887
2026-01-08 17:33:42.20	21.45	0.62	-48.9	-66.7	3.5	3.02e+01	0	31	104	0	60	83603
2026-01-08 17:33:43.21	21.41	0.68	-48.8	-66.7	3.5	3.02e+01	0	31	104	0	60	83021
2026-01-08 17:33:44.22	21.38	0.74	-48.8	-66.7	3.5	3.02e+01	0	31	104	0	60	82969
2026-01-08 17:33:45.23	21.34	0.81	-48.7	-66.5	3.5	3.02e+01	0	31	104	0	60	81496
2026-01-08 17:33:46.24	21.30	0.87	-48.6	-66.5	3.5	3.02e+01	0	31	104	0	60	81027
2026-01-08 17:33:47.25	21.27	0.93	-48.3	-66.3	3.5	3.02e+01	0	31	104	0	60	79283
2026-01-08 17:33:48.26	21.23	0.99	-48.2	-66.1	3.5	3.02e+01	0	31	104	0	60	77427
2026-01-08 17:33:49.27	21.19	1.05	-47.9	-65.8	3.5	3.02e+01	0	31	104	0	60	75243
2026-01-08 17:33:50.28	21.16	1.12	-47.6	-65.5	3.5	3.02e+01	0	31	104	0	60	72362
2026-01-08 17:33:51.29	21.12	1.18	-47.4	-65.3	3.5	3.02e+01	0	31	104	0	60	71162
2026-01-08 17:33:52.30	21.08	1.24	-47.4	-65.4	3.5	3.02e+01	0	31	104	0	60	71256
2026-01-08 17:33:53.31	21.04	1.30	-47.4	-65.3	3.5	3.02e+01	0	31	104	0	60	71054
2026-01-08 17:33:54.32	21.01	1.37	-47.4	-65.4	3.5	3.02e+01	0	31	104	0	60	71271
2026-01-08 17:33:55.33	20.97	1.43	-47.4	-65.3	3.5	3.02e+01	0	31	104	0	60	70879
2026-01-08 17:33:56.33	20.93	1.49	-47.4	-65.3	3.5	3.02e+01	0	31	104	0	60	71126
2026-01-08 17:33:57.34	20.89	1.56	-47.4	-65.4	3.5	3.02e+01	0	31	104	0	60	71301
2026-01-08 17:33:58.35	20.85	1.62	-47.4	-65.3	3.5	3.02e+01	0	31	104	0	60	70788
2026-01-08 17:33:59.36	20.81	1.68	-47.4	-65.3	3.5	3.02e+01	0	31	104	0	60	71002
2026-01-08 17:34:00.36	20.77	1.75	-47.4	-65.3	3.5	3.02e+01	0	31	104	0	60	71242
2026-01-08 17:34:01.38	20.73	1.81	-47.4	-65.3	3.5	3.02e+01	0	31	104	0	60	71083
2026-01-08 17:34:02.39	20.69	1.88	-47.4	-65.3	3.5	3.02e+01	0	31	104	0	60	70895
2026-01-08 17:34:03.39	20.66	1.94	-47.4	-65.2	3.5	3.02e+01	0	31	104	0	60	70284
2026-01-08 17:34:04.40	20.62	2.00	-47.4	-65.2	3.5	3.02e+01	0	31	104	0	60	70087
2026-01-08 17:34:05.41	20.57	2.07	-47.4	-65.2	3.5	3.02e+01	0	31	104	0	60	69955
2026-01-08 17:34:06.42	20.53	2.13	-47.4	-65.1	3.5	3.02e+01	0	31	104	0	60	69444
2026-01-08 17:34:07.44	20.49	2.20	-47.4	-65.2	3.5	3.02e+01	0	31	104	0	60	69790
2026-01-08 17:34:08.44	20.45	2.26	-47.4	-65.3	3.5	3.02e+01	0	31	104	0	60	70498
2026-01-08 17:34:09.45	20.41	2.33	-47.4	-65.3	3.5	3.02e+01	0	31	104	0	60	71016
2026-01-08 17:34:10.47	20.37	2.39	-47.4	-65.3	3.5	3.02e+01	0	31	104	0	60	71017
2026-01-08 17:34:11.47	20.33	2.46	-47.4	-65.3	3.5	3.02e+01	0	31	104	0	60	70759
2026-01-08 17:34:12.49	20.29	2.53	-47.4	-65.3	3.5	3.02e+01	0	31	104	0	60	70914
2026-01-08 17:34:13.50	20.24	2.59	-47.4	-65.2	3.5	3.02e+01	0	31	104	0	60	70334
2026-01-08 17:34:14.51	20.20	2.66	-47.4	-65.3	3.5	3.02e+01	0	31	104	0	60	70657
2026-01-08 17:34:15.52	20.16	2.72	-47.4	-65.1	3.5	3.02e+01	0	31	104	0	60	69446
2026-01-08 17:34:16.52	20.12	2.79	-47.4	-65.0	3.5	3.02e+01	0	31	104	0	60	68676
2026-01-08 17:34:17.53	20.07	2.85	-47.3	-64.9	3.5	3.02e+01	0	31	104	0	60	67705
2026-01-08 17:34:18.54	20.03	2.92	-47.3	-64.7	3.5	3.02e+01	0	31	104	0	60	66016
2026-01-08 17:34:19.55	19.99	2.99	-47.3	-64.7	3.5	3.02e+01	0	31	104	0	60	65963
2026-01-08 17:34:20.56	19.94	3.05	-47.4	-65.0	3.5	3.02e+01	0	31	104	0	60	68718
2026-01-08 17:34:21.57	19.90	3.12	-47.4	-65.3	3.5	3.02e+01	0	31	104	0	60	71140
2026-01-08 17:34:22.58	19.86	3.19	-47.4	-65.1	3.5	3.02e+01	0	31	104	0	60	69372
2026-01-08 17:34:23.59	19.81	3.26	-47.1	-63.7	3.5	3.02e+01	0	31	104	0	60	59134
2026-01-08 17:34:24.60	19.77	3.32	-46.5	-61.6	3.5	3.02e+01	0	31	104	0	60	46400
2026-01-08 17:34:25.61	19.72	3.39	-45.8	-59.6	3.5	3.02e+01	0	31	104	0	60	36700
2026-01-08 17:34:26.62	19.68	3.46	-45.0	-57.8	3.5	3.02e+01	0	31	104	0	60	30003
2026-01-08 17:34:27.63	19.63	3.53	-44.3	-56.6	3.5	3.02e+01	0	31	104	0	60	25919
2026-01-08 17:34:28.64	19.59	3.60	-44.0	-56.1	3.5	3.02e+01	0	31	104	0	60	24472
2026-01-08 17:34:29.65	19.54	3.66	-43.9	-56.0	3.5	3.02e+01	0	31	104	0	60	24144
2026-01-08 17:34:30.66	19.49	3.73	-47.1	-63.1	3.5	3.02e+01	0	31	104	0	60	54852
2026-01-08 17:34:31.67	19.45	3.80	-47.4	-64.4	3.5	3.02e+01	0	31	104	0	60	63573
2026-01-08 17:34:32.67	19.40	3.87	-44.9	-57.5	3.5	3.02e+01	0	31	104	0	60	29013
2026-01-08 17:34:33.68	19.35	3.94	-39.2	-49.9	3.5	3.02e+01	0	31	104	0	58	13437
2026-01-08 17:34:34.69	19.31	4.01	-47.2	-64.2	3.5	3.02e+01	0	31	104	0	60	62215
2026-01-08 17:34:35.70	19.26	4.08	-38.9	-49.4	3.5	3.02e+01	0	31	104	0	56	14314
2026-01-08 17:34:36.71	19.21	4.15	-37.4	-47.8	3.5	3.02e+01	0	31	104	0	50	16809
2026-01-08 17:34:37.72	19.16	4.22	-37.5	-47.9	3.5	3.02e+01	0	31	104	0	50	16979
2026-01-08 17:34:38.73	19.12	4.29	-37.4	-47.8	3.5	3.02e+01	0	31	104	0	50	16810
2026-01-08 17:34:39.74	19.07	4.36	-47.4	-63.8	3.5	3.02e+01	0	31	104	0	60	59754
2026-01-08 17:34:40.74	19.02	4.43	-39.6	-50.2	3.5	3.02e+01	0	31	104	0	56	15763
2026-01-08 17:34:41.75	18.97	4.50	-47.5	-65.2	3.5	3.02e+01	0	31	104	0	60	69859
2026-01-08 17:34:42.76	18.92	4.57	-45.2	-57.8	3.5	3.02e+01	0	31	104	0	60	30012
2026-01-08 17:34:43.77	18.87	4.64	-39.7	-50.4	3.5	3.02e+01	0	31	104	0	50	22598
2026-01-08 17:34:44.78	18.82	4.71	-38.1	-48.6	3.5	3.02e+01	0	31	104	0	52	16424
2026-01-08 17:34:45.79	18.77	4.78	-37.6	-48.0	3.5	3.02e+01	0	31	104	0	50	17176
2026-01-08 17:34:46.80	18.72	4.85	-37.7	-48.2	3.5	3.02e+01	0	31	104	0	50	17568
2026-01-08 17:34:47.81	18.67	4.92	-37.8	-48.3	3.5	3.02e+01	0	31	104	0	50	17717
2026-01-08 17:34:48.82	18.62	5.00	-38.6	-49.1	3.4	3.02e+01	0	31	104	0	50	19436
2026-01-08 17:34:49.83	18.57	5.07	-38.0	-48.4	3.6	3.02e+01	0	31	104	0	52	15981
2026-01-08 17:34:50.84	18.52	5.14	-47.6	-65.1	3.5	3.02e+01	0	31	104	0	60	69206
2026-01-08 17:34:51.85	18.46	5.21	-46.2	-52.4	11.9	3.02e+01	43	31	104	0	60	16053
2026-01-08 17:34:52.86	18.41	5.28	-43.3	-46.2	18.7	3.02e+01	59	31	0	1572864	58	8789
2026-01-08 17:34:53.87	18.36	5.36	-40.2	-42.0	23.0	3.02e+01	57	31	0	3145728	54	6863
2026-01-08 17:34:54.88	18.31	5.43	-39.8	-41.6	23.6	3.02e+01	58	31	0	5242880	54	6552
2026-01-08 17:34:55.89	18.25	5.50	-39.2	-40.8	24.2	3.02e+01	57	31	0	7340032	52	6693
2026-01-08 17:34:56.90	18.20	5.58	-38.7	-40.2	24.8	3.02e+01	44	31	0	8912896	52	6275
2026-01-08 17:34:57.91	18.15	5.65	-38.4	-40.0	24.9	3.02e+01	61	31	0	11010048	52	6094
2026-01-08 17:34:58.92	18.09	5.72	-38.2	-39.8	25.7	3.02e+01	59	31	0	12582912	52	5930
2026-01-08 17:34:59.92	18.04	5.80	-38.0	-39.6	25.0	3.02e+01	50	31	0	14680064	50	6504
2026-01-08 17:35:00.93	17.98	5.87	-38.2	-39.7	25.7	3.02e+01	56	31	0	16777216	50	6608
2026-01-08 17:35:01.94	17.93	5.95	-37.4	-38.9	26.0	3.02e+01	61	31	0	18350080	50	6008
2026-01-08 17:35:02.95	17.87	6.02	-37.2	-38.6	26.5	3.02e+01	56	31	0	20447232	50	5848
2026-01-08 17:35:03.96	17.82	6.10	-36.6	-37.9	27.0	3.02e+01	57	31	0	22544384	48	6045
2026-01-08 17:35:04.97	17.76	6.17	-36.4	-37.7	27.2	3.02e+01	52	31	0	24117248	48	5909
2026-01-08 17:35:05.98	17.70	6.25	-36.0	-37.4	27.5	3.02e+01	61	31	0	26214400	48	5671
2026-01-08 17:35:06.99	17.65	6.32	-36.0	-37.3	27.6	3.02e+01	57	31	0	27787264	48	5632
2026-01-08 17:35:08.00	17.59	6.40	-36.1	-37.4	27.6	3.02e+01	50	31	0	29884416	46	6405
2026-01-08 17:35:09.01	17.53	6.47	-36.0	-37.3	27.7	3.02e+01	58	31	0	31981568	46	6289
2026-01-08 17:35:10.02	17.47	6.55	-35.9	-37.2	27.7	3.02e+01	60	31	0	33554432	46	6266
2026-01-08 17:35:11.03	17.42	6.63	-35.8	-37.1	27.8	3.02e+01	59	31	0	35651584	46	6186
2026-01-08 17:35:12.04	17.36	6.70	-35.8	-37.1	27.9	3.02e+01	59	31	0	37224448	46	6146
2026-01-08 17:35:13.05	17.30	6.78	-35.8	-37.1	27.8	3.02e+01	46	31	0	39321600	46	6198
2026-01-08 17:35:14.06	17.24	6.86	-35.8	-37.1	27.9	3.02e+01	56	31	0	41418752	46	6136
2026-01-08 17:35:15.07	17.18	6.93	-35.8	-37.1	27.9	3.02e+01	58	31	0	42991616	46	6156
2026-01-08 17:35:16.08	17.12	7.01	-35.8	-37.1	27.9	3.02e+01	46	31	0	45088768	46	6180
2026-01-08 17:35:17.09	17.06	7.09	-35.6	-36.9	28.0	3.02e+01	59	31	0	46661632	46	6037
2026-01-08 17:35:18.10	17.00	7.17	-35.8	-37.1	27.9	3.02e+01	60	31	0	48758784	46	6149
2026-01-08 17:35:19.11	16.94	7.25	-35.5	-36.7	28.2	3.02e+01	56	31	0	50855936	46	5923
2026-01-08 17:35:20.11	16.88	7.32	-35.4	-36.7	28.2	3.02e+01	59	31	0	52428800	46	5902
2026-01-08 17:35:21.12	16.81	7.40	-35.6	-36.9	28.1	3.02e+01	54	31	0	54525952	46	6013
2026-01-08 17:35:22.13	16.75	7.48	-35.4	-36.6	28.3	3.02e+01	58	31	0	56098816	46	5857
2026-01-08 17:35:23.14	16.69	7.56	-35.4	-36.7	28.3	3.02e+01	58	31	0	58195968	46	5859
2026-01-08 17:35:24.15	16.63	7.64	-35.3	-36.6	28.4	3.02e+01	62	31	0	60293120	46	5824
2026-01-08 17:35:25.16	16.56	7.72	-35.5	-36.7	28.3	3.02e+01	58	31	0	61865984	46	5913
2026-01-08 17:35:26.17	16.50	7.80	-35.2	-36.4	28.6	3.02e+01	46	31	0	63963136	46	5721
2026-01-08 17:35:27.18	16.43	7.88	-35.1	-36.4	28.5	3.02e+01	60	31	0	65536000	46	5684
2026-01-08 17:35:28.19	16.37	7.96	-35.1	-36.4	28.6	3.02e+01	57	31	0	67633152	46	5687
2026-01-08 17:35:29.20	16.30	8.04	-35.2	-36.5	28.5	3.02e+01	45	31	0	69730304	46	5750
2026-01-08 17:35:30.21	16.24	8.12	-35.3	-36.5	28.5	3.02e+01	59	31	0	71303168	46	5786
2026-01-08 17:35:31.22	16.17	8.20	-35.3	-36.5	28.5	3.02e+01	57	31	0	73400320	46	5768
2026-01-08 17:35:32.21	16.11	8.28	-35.2	-36.4	28.6	3.02e+01	57	31	0	75497472	46	5706
2026-01-08 17:35:33.22	16.04	8.36	-35.1	-36.4	28.6	3.02e+01	61	31	0	77070336	46	5686
2026-01-08 17:35:34.23	15.97	8.45	-35.2	-36.4	28.6	3.02e+01	53	31	0	79167488	46	5693
2026-01-08 17:35:35.23	15.91	8.53	-35.2	-36.4	28.6	3.02e+01	59	31	0	80740352	46	5715
2026-01-08 17:35:36.24	15.84	8.61	-35.0	-36.3	28.7	3.02e+01	61	31	0	82837504	46	5618
2026-01-08 17:35:37.25	15.77	8.69	-35.1	-36.3	28.7	3.02e+01	55	31	0	84934656	46	5658
2026-01-08 17:35:38.26	15.70	8.78	-35.1	-36.3	28.8	3.02e+01	59	31	0	86507520	46	5628
2026-01-08 17:35:39.27	15.63	8.86	-35.1	-36.4	28.7	3.02e+01	60	31	0	88604672	46	5692
2026-01-08 17:35:40.28	15.56	8.94	-35.2	-36.4	28.6	3.02e+01	58	31	0	90177536	46	5715
2026-01-08 17:35:41.29	15.49	9.03	-35.3	-36.6	28.4	3.02e+01	63	31	0	92274688	46	5792
2026-01-08 17:35:42.30	15.42	9.11	-35.2	-36.4	28.6	3.02e+01	50	31	0	94371840	46	5719
2026-01-08 17:35:43.31	15.35	9.19	-35.3	-36.5	28.6	3.02e+01	59	31	0	95944704	46	5780
2026-01-08 17:35:44.32	15.28	9.28	-35.2	-36.4	28.6	3.02e+01	60	31	0	98041856	46	5721
2026-01-08 17:35:45.33	15.20	9.36	-35.2	-36.5	28.7	3.02e+01	55	31	0	99614720	46	5727
2026-01-08 17:35:46.34	15.13	9.45	-35.2	-36.4	28.6	3.02e+01	60	31	0	101711872	46	5721
2026-01-08 17:35:47.35	15.06	9.54	-35.4	-36.6	28.5	3.02e+01	57	31	0	103809024	46	5837
2026-01-08 17:35:48.36	14.98	9.62	-35.3	-36.5	28.5	3.02e+01	60	31	0	105381888	46	5790
2026-01-08 17:35:49.37	14.91	9.71	-35.5	-36.7	28.4	3.02e+01	61	31	0	107479040	46	5926
2026-01-08 17:35:50.38	14.84	9.79	-35.2	-36.4	28.6	3.02e+01	50	31	0	109051904	46	5721
2026-01-08 17:35:51.38	14.76	9.88	-35.3	-36.6	28.6	3.02e+01	59	31	0	111149056	46	5797
2026-01-08 17:35:52.39	14.69	9.97	-35.1	-36.3	28.7	3.02e+01	57	31	0	113246208	46	5643
2026-01-08 17:35:53.40	14.61	10.05	-35.2	-36.4	28.7	3.02e+01	50	31	0	114819072	46	5695
2026-01-08 17:35:54.41	14.53	10.14	-34.8	-36.1	28.9	3.02e+01	60	31	0	116916224	44	6137
2026-01-08 17:35:55.42	14.46	10.23	-35.0	-36.2	28.9	3.02e+01	57	31	0	119013376	44	6259
2026-01-08 17:35:56.43	14.38	10.32	-34.9	-36.1	28.9	3.02e+01	61	31	0	120586240	44	6197
2026-01-08 17:35:57.44	14.30	10.40	-34.7	-35.9	29.1	3.02e+01	60	31	0	122683392	44	6050
2026-01-08 17:35:58.45	14.22	10.49	-34.8	-36.1	29.0	3.02e+01	51	31	0	124256256	44	6155
2026-01-08 17:35:59.46	14.14	10.58	-34.7	-36.0	29.1	3.02e+01	56	31	0	126353408	44	6069
2026-01-08 17:36:00.47	14.06	10.67	-34.6	-35.9	29.2	3.02e+01	61	31	0	128450560	44	6000
2026-01-08 17:36:01.47	13.98	10.76	-34.8	-36.1	29.1	3.02e+01	50	31	0	130023424	44	6138
2026-01-08 17:36:02.48	13.90	10.85	-34.7	-35.9	29.1	3.02e+01	57	31	0	132120576	44	6042
2026-01-08 17:36:03.49	13.82	10.94	-34.6	-35.8	29.3	3.02e+01	46	31	0	133693440	44	5943
2026-01-08 17:36:04.50	13.74	11.03	-34.6	-35.8	29.3	3.02e+01	54	31	0	135790592	44	5966
2026-01-08 17:36:05.51	13.65	11.12	-34.7	-35.9	29.2	3.02e+01	58	31	0	137887744	44	6018
2026-01-08 17:36:06.52	13.57	11.21	-34.6	-35.8	29.3	3.02e+01	51	31	0	139460608	44	5947
2026-01-08 17:36:07.53	13.49	11.30	-34.7	-35.9	29.1	3.02e+01	55	31	0	141557760	44	6038
2026-01-08 17:36:08.54	13.40	11.40	-34.5	-35.8	29.3	3.02e+01	62	31	0	143654912	44	5929
2026-01-08 17:36:09.54	13.32	11.49	-34.5	-35.7	29.4	3.02e+01	62	31	0	145227776	44	5863
2026-01-08 17:36:10.55	13.23	11.58	-34.6	-35.8	29.3	3.02e+01	61	31	0	147324928	44	5955
2026-01-08 17:36:11.56	13.14	11.67	-34.5	-35.7	29.4	3.02e+01	46	31	0	148897792	44	5888
2026-01-08 17:36:12.57	13.06	11.77	-34.6	-35.8	29.2	3.02e+01	57	31	0	150994944	44	5992
2026-01-08 17:36:13.57	12.97	11.86	-34.6	-35.8	29.3	3.02e+01	57	31	0	152567808	44	5943
2026-01-08 17:36:14.58	12.88	11.95	-34.5	-35.7	29.4	3.02e+01	45	31	0	154664960	44	5897
2026-01-08 17:36:15.59	12.79	12.05	-34.6	-35.8	29.3	3.02e+01	60	31	0	156762112	44	5954
2026-01-08 17:36:16.60	12.70	12.14	-34.5	-35.7	29.3	3.02e+01	57	31	0	158334976	44	5925
2026-01-08 17:36:17.61	12.61	12.24	-34.5	-35.7	29.3	3.02e+01	57	31	0	160432128	44	5904
2026-01-08 17:36:18.62	12.52	12.33	-34.4	-35.6	29.4	3.02e+01	60	31	0	162004992	44	5858
2026-01-08 17:36:19.63	12.43	12.43	-34.6	-35.9	29.3	3.02e+01	57	31	0	164102144	44	5999
2026-01-08 17:36:20.64	12.34	12.52	-34.5	-35.7	29.4	3.02e+01	60	31	0	166199296	44	5879
2026-01-08 17:36:21.65	12.25	12.62	-34.3	-35.5	29.6	3.02e+01	61	31	0	167772160	44	5741
2026-01-08 17:36:22.66	12.15	12.72	-34.3	-35.5	29.5	3.02e+01	51	31	0	169869312	44	5762
2026-01-08 17:36:23.67	12.06	12.81	-34.2	-35.4	29.6	3.02e+01	59	31	0	171966464	44	5709
2026-01-08 17:36:24.68	11.96	12.91	-34.3	-35.4	29.6	3.02e+01	60	31	0	173539328	44	5722
2026-01-08 17:36:25.69	11.87	13.01	-34.1	-35.3	29.8	3.02e+01	62	31	0	175636480	44	5640
2026-01-08 17:36:26.69	11.77	13.10	-34.3	-35.5	29.6	3.02e+01	57	31	0	177209344	44	5745
2026-01-08 17:36:27.70	11.68	13.20	-34.2	-35.4	29.6	3.02e+01	55	31	0	179306496	44	5717
2026-01-08 17:36:28.71	11.58	13.30	-34.3	-35.5	29.6	3.02e+01	58	31	0	181403648	44	5746
2026-01-08 17:36:29.72	11.48	13.40	-34.2	-35.4	29.6	3.02e+01	59	31	0	182976512	44	5715
2026-01-08 17:36:30.73	11.38	13.50	-34.2	-35.4	29.7	3.02e+01	46	31	0	185073664	44	5678
2026-01-08 17:36:31.74	11.28	13.60	-34.2	-35.4	29.7	3.02e+01	61	31	0	187170816	44	5704
2026-01-08 17:36:32.75	11.18	13.70	-34.4	-35.6	29.6	3.02e+01	57	31	0	188743680	44	5794
2026-01-08 17:36:33.76	11.08	13.80	-34.3	-35.5	29.6	3.02e+01	59	31	0	190840832	44	5729
2026-01-08 17:36:34.77	10.98	13.90	-34.3	-35.5	29.6	3.02e+01	59	31	0	192413696	44	5746
2026-01-08 17:36:35.77	10.87	14.00	-34.2	-35.4	29.6	3.02e+01	57	31	0	194510848	44	5696
2026-01-08 17:36:36.78	10.77	14.10	-34.3	-35.5	29.6	3.02e+01	58	31	0	196083712	44	5770
2026-01-08 17:36:37.79	10.67	14.20	-34.1	-35.3	29.7	3.02e+01	59	31	0	198180864	44	5656
2026-01-08 17:36:38.80	10.56	14.31	-34.3	-35.5	29.6	3.02e+01	57	31	0	200278016	44	5738
2026-01-08 17:36:39.81	10.45	14.41	-34.1	-35.3	29.8	3.02e+01	61	31	0	201850880	44	5625
2026-01-08 17:36:40.82	10.35	14.51	-34.2	-35.4	29.7	3.02e+01	44	31	0	203948032	44	5706
2026-01-08 17:36:41.83	10.24	14.62	-34.0	-35.2	29.9	3.02e+01	56	31	0	205520896	44	5579
2026-01-08 17:36:42.84	10.13	14.72	-34.1	-35.3	29.8	3.02e+01	61	31	0	207618048	44	5628
2026-01-08 17:36:43.84	10.02	14.82	-34.1	-35.3	29.9	3.02e+01	46	31	0	209715200	44	5616
2026-01-08 17:36:44.85	9.91	14.93	-34.1	-35.3	29.8	3.02e+01	58	31	0	211288064	44	5638
2026-01-08 17:36:45.86	9.80	15.03	-34.0	-35.2	29.9	3.02e+01	55	31	0	213385216	44	5588
2026-01-08 17:36:46.87	9.69	15.14	-34.1	-35.3	29.8	3.02e+01	59	31	0	215482368	44	5621
2026-01-08 17:36:47.88	9.58	15.24	-34.1	-35.3	29.8	3.02e+01	57	31	0	217055232	44	5623
2026-01-08 17:36:48.89	9.46	15.35	-34.1	-35.3	29.8	3.02e+01	50	31	0	219152384	44	5642
2026-01-08 17:36:49.90	9.35	15.46	-34.1	-35.3	29.8	3.02e+01	55	31	0	220725248	44	5610
2026-01-08 17:36:50.91	9.23	15.56	-34.2	-35.4	29.8	3.02e+01	61	31	0	222822400	44	5662
2026-01-08 17:36:51.92	9.12	15.67	-34.0	-35.2	29.9	3.02e+01	47	31	0	224919552	44	5570
2026-01-08 17:36:52.93	9.00	15.78	-34.2	-35.4	29.7	3.02e+01	59	31	0	226492416	44	5690
2026-01-08 17:36:53.93	8.88	15.89	-34.1	-35.3	29.8	3.02e+01	57	31	0	228589568	44	5646
2026-01-08 17:36:54.94	8.76	16.00	-34.2	-35.4	29.8	3.02e+01	58	31	0	230162432	44	5683
2026-01-08 17:36:55.95	8.64	16.10	-34.1	-35.3	29.9	3.02e+01	58	31	0	232259584	44	5600
2026-01-08 17:36:56.96	8.52	16.21	-34.1	-35.3	29.8	3.02e+01	60	31	0	234356736	44	5627
2026-01-08 17:36:57.97	8.40	16.32	-34.1	-35.3	29.8	3.02e+01	60	31	0	235929600	44	5608
2026-01-08 17:36:58.98	8.27	16.43	-34.1	-35.3	29.9	3.02e+01	58	31	0	238026752	44	5613
2026-01-08 17:36:59.99	8.15	16.55	-34.2	-35.4	29.8	3.02e+01	47	31	0	240123904	44	5678
2026-01-08 17:37:01.00	8.02	16.66	-34.0	-35.2	29.9	3.02e+01	61	31	0	241696768	44	5576
2026-01-08 17:37:02.01	7.90	16.77	-34.2	-35.4	29.8	3.02e+01	61	31	0	243793920	44	5673
2026-01-08 17:37:03.02	7.77	16.88	-34.1	-35.3	29.9	3.02e+01	63	31	0	245366784	44	5620
2026-01-08 17:37:04.03	7.64	16.99	-34.0	-35.2	30.0	3.02e+01	61	31	0	247463936	44	5535
2026-01-08 17:37:05.04	7.51	17.11	-34.1	-35.3	29.9	3.02e+01	47	31	0	249561088	42	6291
2026-01-08 17:37:06.04	7.38	17.22	-34.1	-35.3	29.9	3.02e+01	56	31	0	251133952	42	6321
2026-01-08 17:37:07.06	7.25	17.33	-34.1	-35.3	30.0	3.02e+01	59	31	0	253231104	42	6284
2026-01-08 17:37:08.06	7.12	17.45	-33.9	-35.1	30.0	3.02e+01	43	31	0	254803968	42	6189
2026-01-08 17:37:09.08	6.99	17.56	-34.1	-35.2	30.0	3.02e+01	59	31	0	256901120	42	6277
2026-01-08 17:37:10.09	6.85	17.68	-34.1	-35.3	29.9	3.02e+01	60	31	0	258998272	42	6288
2026-01-08 17:37:11.10	6.71	17.79	-34.1	-35.3	29.9	3.02e+01	61	31	0	260571136	42	6318
2026-01-08 17:37:12.11	6.58	17.91	-33.9	-35.1	30.1	3.02e+01	56	31	0	262668288	42	6182
2026-01-08 17:37:13.12	6.44	18.03	-34.0	-35.2	30.0	3.02e+01	53	32	0	264241152	42	6237
2026-01-08 17:37:14.13	6.30	18.14	-34.1	-35.3	30.0	3.02e+01	62	31	0	266338304	42	6278
2026-01-08 17:37:15.13	6.16	18.26	-34.1	-35.3	30.0	3.02e+01	61	31	0	268435456	42	6297
2026-01-08 17:37:16.14	6.02	18.38	-33.9	-35.1	30.1	3.02e+01	60	31	0	270008320	42	6188
2026-01-08 17:37:17.15	5.88	18.49	-34.1	-35.3	30.0	3.02e+01	62	32	0	272105472	42	6291
2026-01-08 17:37:18.16	5.73	18.61	-34.0	-35.1	30.1	3.02e+01	44	31	0	273678336	42	6189
2026-01-08 17:37:19.17	5.59	18.73	-34.0	-35.1	30.1	3.02e+01	60	31	0	275775488	42	6205
2026-01-08 17:37:20.18	5.44	18.85	-34.1	-35.2	30.1	3.02e+01	59	31	0	277872640	42	6258
2026-01-08 17:37:21.19	5.29	18.97	-34.0	-35.2	30.0	3.02e+01	46	31	0	279445504	42	6261
2026-01-08 17:37:22.20	5.14	19.09	-34.1	-35.3	30.0	3.02e+01	60	31	0	281542656	42	6285
2026-01-08 17:37:23.21	4.99	19.21	-34.2	-35.4	29.9	3.02e+01	59	31	0	283639808	42	6357
2026-01-08 17:37:24.22	4.84	19.33	-34.3	-35.5	29.9	3.02e+01	54	32	0	285212672	42	6434
2026-01-08 17:37:25.23	4.69	19.46	-34.3	-35.5	29.9	3.02e+01	60	32	0	287309824	42	6437
2026-01-08 17:37:26.24	4.53	19.58	-34.4	-35.6	29.8	3.02e+01	61	31	0	288882688	42	6532
2026-01-08 17:37:27.25	4.38	19.70	-34.4	-35.6	29.7	3.02e+01	55	31	0	290979840	42	6545
2026-01-08 17:37:28.26	4.22	19.82	-34.5	-35.7	29.7	3.02e+01	59	31	0	293076992	42	6578
2026-01-08 17:37:29.26	4.06	19.95	-34.5	-35.7	29.7	3.02e+01	44	31	0	294649856	42	6619
2026-01-08 17:37:30.27	3.90	20.07	-34.5	-35.7	29.7	3.02e+01	54	31	0	296747008	42	6597
2026-01-08 17:37:31.28	3.74	20.19	-34.5	-35.6	29.7	3.02e+01	60	31	0	298319872	42	6571
2026-01-08 17:37:32.29	3.58	20.32	-34.3	-35.5	29.8	3.02e+01	60	31	0	300417024	42	6483
2026-01-08 17:37:33.30	3.42	20.44	-34.5	-35.7	29.7	3.02e+01	62	31	0	302514176	42	6578
2026-01-08 17:37:34.31	3.25	20.57	-34.4	-35.6	29.8	3.02e+01	48	31	0	304087040	42	6538
2026-01-08 17:37:35.32	3.08	20.70	-34.4	-35.6	29.7	3.02e+01	58	31	0	306184192	42	6532
2026-01-08 17:37:36.33	2.92	20.82	-34.5	-35.7	29.7	3.02e+01	56	31	0	307757056	42	6595
2026-01-08 17:37:37.34	2.75	20.95	-34.5	-35.7	29.7	3.02e+01	46	31	0	309854208	42	6609
2026-01-08 17:37:38.35	2.57	21.08	-34.6	-35.8	29.6	3.02e+01	59	31	0	311951360	42	6704
2026-01-08 17:37:39.35	2.40	21.20	-34.8	-36.0	29.4	3.02e+01	57	31	0	313524224	42	6814
2026-01-08 17:37:40.37	2.23	21.33	-34.5	-35.7	29.7	3.02e+01	61	31	0	315621376	42	6585
2026-01-08 17:37:41.38	2.05	21.46	-34.4	-35.6	29.7	3.02e+01	56	31	0	317194240	42	6557
2026-01-08 17:37:42.38	1.88	21.59	-34.4	-35.6	29.8	3.02e+01	49	31	0	319291392	42	6530
2026-01-08 17:37:43.39	1.70	21.72	-34.3	-35.5	29.9	3.02e+01	59	31	0	321388544	42	6470
2026-01-08 17:37:44.40	1.52	21.85	-34.2	-35.4	29.9	3.02e+01	60	31	0	322961408	42	6399
2026-01-08 17:37:45.41	1.33	21.98	-34.3	-35.5	29.8	3.02e+01	46	31	0	325058560	42	6464
2026-01-08 17:37:46.41	1.15	22.11	-34.3	-35.5	29.8	3.02e+01	58	31	0	326631424	42	6488
2026-01-08 17:37:47.42	0.96	22.24	-34.4	-35.6	29.8	3.02e+01	57	31	0	328728576	42	6505
2026-01-08 17:37:48.43	0.78	22.37	-34.4	-35.6	29.8	3.02e+01	59	32	0	330825728	42	6511
2026-01-08 17:37:49.44	0.59	22.51	-34.4	-35.6	29.8	3.02e+01	59	31	0	332398592	42	6545
2026-01-08 17:37:50.45	0.40	22.64	-34.4	-35.6	29.8	3.02e+01	50	31	0	334495744	42	6542
2026-01-08 17:37:51.45	0.21	22.77	-34.5	-35.6	29.7	3.02e+01	58	31	0	336592896	42	6573
2026-01-08 17:37:52.46	0.01	22.90	-34.6	-35.8	29.6	3.02e+01	60	31	0	338165760	42	6722
2026-01-08 17:37:53.47	359.82	23.04	-34.7	-35.9	29.5	3.02e+01	51	31	0	340262912	42	6728
2026-01-08 17:37:54.48	359.62	23.17	-34.7	-35.9	29.5	3.02e+01	60	31	0	341835776	42	6749
2026-01-08 17:37:55.49	359.42	23.31	-34.7	-35.9	29.6	3.02e+01	45	31	0	343932928	42	6761
2026-01-08 17:37:56.50	359.22	23.44	-34.8	-36.0	29.5	3.02e+01	62	31	0	346030080	42	6872
2026-01-08 17:37:57.51	359.01	23.58	-34.6	-35.8	29.6	3.02e+01	58	31	0	347602944	42	6666
2026-01-08 17:37:58.52	358.81	23.71	-34.5	-35.7	29.7	3.02e+01	46	31	0	349700096	42	6576
2026-01-08 17:37:59.53	358.60	23.85	-34.6	-35.8	29.7	3.02e+01	57	31	0	351272960	42	6658
2026-01-08 17:38:00.54	358.39	23.99	-34.6	-35.8	29.6	3.02e+01	58	32	0	353370112	42	6691
2026-01-08 17:38:01.55	358.18	24.12	-34.6	-35.7	29.6	3.02e+01	60	31	0	355467264	42	6642
2026-01-08 17:38:02.56	357.97	24.26	-34.5	-35.7	29.6	3.02e+01	59	31	0	357040128	42	6643
2026-01-08 17:38:03.57	357.75	24.40	-34.6	-35.8	29.6	3.02e+01	56	31	0	359137280	42	6683
2026-01-08 17:38:04.57	357.54	24.54	-34.6	-35.8	29.6	3.02e+01	56	31	0	360710144	42	6690
2026-01-08 17:38:05.58	357.32	24.67	-34.3	-35.5	29.9	3.02e+01	61	31	0	362807296	42	6428
2026-01-08 17:38:06.59	357.10	24.81	-34.3	-35.5	29.9	3.02e+01	51	31	0	364904448	42	6446
2026-01-08 17:38:07.60	356.87	24.95	-34.3	-35.5	29.8	3.02e+01	61	31	0	366477312	42	6488
2026-01-08 17:38:08.61	356.65	25.09	-34.4	-35.6	29.8	3.02e+01	60	31	0	368574464	42	6531
2026-01-08 17:38:09.61	356.42	25.23	-34.5	-35.6	29.7	3.02e+01	58	31	0	370147328	42	6564
2026-01-08 17:38:10.62	356.19	25.37	-34.5	-35.7	29.7	3.02e+01	59	31	0	372244480	42	6608
2026-01-08 17:38:11.63	355.96	25.51	-34.5	-35.7	29.7	3.02e+01	56	32	0	374341632	42	6639
2026-01-08 17:38:12.64	355.73	25.65	-34.5	-35.7	29.6	3.02e+01	58	31	0	375914496	42	6620
2026-01-08 17:38:13.65	355.49	25.79	-34.5	-35.7	29.8	3.02e+01	59	31	0	378011648	42	6603
2026-01-08 17:38:14.66	355.25	25.93	-34.5	-35.7	29.7	3.02e+01	51	31	0	380108800	42	6616
2026-01-08 17:38:15.67	355.01	26.08	-34.2	-35.4	30.0	3.02e+01	61	31	0	381681664	42	6396
2026-01-08 17:38:16.68	354.77	26.22	-34.1	-35.3	30.0	3.02e+01	60	31	0	383778816	42	6314
2026-01-08 17:38:17.69	354.53	26.36	-34.1	-35.3	30.1	3.02e+01	60	31	0	385351680	42	6302
2026-01-08 17:38:18.70	354.28	26.50	-34.2	-35.4	30.0	3.02e+01	60	31	0	387448832	42	6377
2026-01-08 17:38:19.71	354.03	26.64	-34.3	-35.5	29.8	3.02e+01	44	31	0	389545984	42	6451
2026-01-08 17:38:20.72	353.78	26.79	-34.2	-35.3	30.0	3.02e+01	58	31	0	391118848	42	6338
2026-01-08 17:38:21.73	353.52	26.93	-34.1	-35.3	30.1	3.02e+01	58	31	0	393216000	42	6308
2026-01-08 17:38:22.74	353.26	27.07	-34.0	-35.2	30.1	3.02e+01	57	31	0	394788864	42	6247
2026-01-08 17:38:23.75	353.00	27.22	-34.0	-35.2	30.1	3.02e+01	61	31	0	396886016	42	6248
2026-01-08 17:38:24.76	352.74	27.36	-34.2	-35.4	30.0	3.02e+01	58	31	0	398983168	42	6368
2026-01-08 17:38:25.77	352.48	27.50	-34.3	-35.4	29.9	3.02e+01	60	31	0	400556032	42	6407
2026-01-08 17:38:26.78	352.21	27.65	-34.2	-35.4	30.0	3.02e+01	63	31	0	402653184	42	6363
2026-01-08 17:38:27.79	351.94	27.79	-34.2	-35.4	30.0	3.02e+01	37	31	0	404750336	42	6355
2026-01-08 17:38:28.80	351.67	27.94	-34.1	-35.2	30.1	3.02e+01	62	31	0	406323200	42	6273
2026-01-08 17:38:29.80	351.40	28.08	-34.1	-35.3	30.0	3.02e+01	61	31	0	408420352	42	6298
2026-01-08 17:38:30.81	351.12	28.22	-34.0	-35.2	30.1	3.02e+01	57	31	0	409993216	42	6248
2026-01-08 17:38:31.83	350.84	28.37	-33.8	-35.0	30.3	3.02e+01	59	31	0	412090368	42	6084
2026-01-08 17:38:32.83	350.56	28.51	-33.9	-35.1	30.2	3.02e+01	44	32	0	414187520	42	6175
2026-01-08 17:38:33.84	350.27	28.66	-33.9	-35.1	30.2	3.02e+01	58	31	0	415760384	42	6176
2026-01-08 17:38:34.85	349.99	28.80	-33.8	-34.9	30.4	3.02e+01	59	31	0	417857536	42	6041
2026-01-08 17:38:35.86	349.70	28.94	-33.7	-34.9	30.5	3.02e+01	43	31	0	419430400	42	6012
2026-01-08 17:38:36.87	349.40	29.09	-33.7	-34.8	30.5	3.02e+01	59	31	0	421527552	42	5982
2026-01-08 17:38:37.88	349.11	29.23	-33.7	-34.9	30.5	3.02e+01	59	31	0	423100416	42	6037
2026-01-08 17:38:38.89	348.81	29.38	-33.8	-34.9	30.4	3.02e+01	61	32	0	425197568	42	6050
2026-01-08 17:38:39.90	348.51	29.52	-33.8	-34.9	30.5	3.02e+01	59	32	0	427294720	42	6042
2026-01-08 17:38:40.91	348.20	29.67	-33.7	-34.8	30.5	3.02e+01	59	31	0	428867584	42	5980
2026-01-08 17:38:41.91	347.90	29.81	-33.8	-35.0	30.4	3.02e+01	59	31	0	430964736	42	6076
2026-01-08 17:38:42.93	347.58	29.96	-33.6	-34.7	30.6	3.02e+01	59	31	0	433061888	42	5922
2026-01-08 17:38:43.93	347.27	30.10	-33.5	-34.7	30.7	3.02e+01	49	31	0	434634752	42	5888
2026-01-08 17:38:44.94	346.96	30.24	-33.6	-34.7	30.5	3.02e+01	62	31	0	436731904	42	5899
2026-01-08 17:38:45.95	346.64	30.38	-33.6	-34.7	30.6	3.02e+01	56	31	0	438304768	42	5894
2026-01-08 17:38:46.96	346.32	30.53	-33.6	-34.7	30.5	3.02e+01	59	31	0	440401920	42	5906
2026-01-08 17:38:47.97	345.99	30.67	-33.4	-34.6	30.7	3.02e+01	57	31	0	442499072	42	5832
2026-01-08 17:38:48.98	345.66	30.81	-33.5	-34.6	30.7	3.02e+01	53	31	0	444071936	42	5836
2026-01-08 17:38:49.99	345.33	30.96	-33.7	-34.8	30.5	3.02e+01	55	32	0	446169088	42	5974
2026-01-08 17:38:51.00	345.00	31.10	-33.7	-34.9	30.5	3.02e+01	59	32	0	448266240	42	6025
2026-01-08 17:38:52.01	344.66	31.24	-33.7	-34.9	30.5	3.02e+01	45	31	0	449839104	42	6005
2026-01-08 17:38:53.02	344.32	31.38	-33.5	-34.6	30.6	3.02e+01	60	31	0	451936256	42	5834
2026-01-08 17:38:54.03	343.98	31.52	-33.5	-34.6	30.7	3.02e+01	60	31	0	453509120	42	5827
2026-01-08 17:38:55.04	343.63	31.66	-33.3	-34.5	30.7	3.02e+01	59	31	0	455606272	42	5735
2026-01-08 17:38:56.04	343.28	31.80	-33.7	-34.8	30.6	3.02e+01	59	31	0	457703424	42	5967
2026-01-08 17:38:57.05	342.93	31.94	-33.7	-34.9	30.4	3.02e+01	56	31	0	459276288	42	6008
2026-01-08 17:38:58.06	342.58	32.08	-33.9	-35.1	30.2	3.02e+01	58	31	0	461373440	42	6178
2026-01-08 17:38:59.07	342.22	32.22	-34.0	-35.1	30.2	3.02e+01	58	31	0	462946304	42	6188
2026-01-08 17:39:00.08	341.85	32.36	-33.9	-35.0	30.4	3.02e+01	61	31	0	465043456	42	6134
2026-01-08 17:39:01.09	341.49	32.50	-33.5	-34.6	30.6	3.02e+01	59	31	0	467140608	42	5840
2026-01-08 17:39:02.10	341.12	32.63	-33.6	-34.7	30.6	3.02e+01	47	32	0	468713472	42	5913
2026-01-08 17:39:03.11	340.75	32.77	-33.8	-34.9	30.4	3.02e+01	60	31	0	470810624	42	6063
2026-01-08 17:39:04.12	340.37	32.90	-33.9	-35.1	30.4	3.02e+01	56	31	0	472383488	42	6152
2026-01-08 17:39:05.13	340.00	33.04	-33.8	-34.9	30.4	3.02e+01	53	31	0	474480640	42	6040
2026-01-08 17:39:06.14	339.61	33.17	-33.8	-35.0	30.4	3.02e+01	60	31	0	476577792	42	6065
2026-01-08 17:39:07.15	339.23	33.31	-33.9	-35.1	30.2	3.02e+01	59	31	0	478150656	42	6137
2026-01-08 17:39:08.16	338.84	33.44	-34.1	-35.3	30.2	3.02e+01	61	31	0	480247808	42	6314
2026-01-08 17:39:09.17	338.45	33.57	-34.1	-35.3	30.2	3.02e+01	60	32	0	481820672	42	6285
2026-01-08 17:39:10.18	338.05	33.70	-34.2	-35.4	30.1	3.02e+01	47	31	0	483917824	42	6369
2026-01-08 17:39:11.19	337.66	33.83	-33.9	-35.0	30.3	3.02e+01	59	32	0	486014976	42	6129
2026-01-08 17:39:12.20	337.26	33.96	-33.9	-35.0	30.4	3.02e+01	60	31	0	487587840	42	6124
2026-01-08 17:39:13.21	336.85	34.09	-34.2	-35.3	30.1	3.02e+01	44	31	0	489684992	42	6334
2026-01-08 17:39:14.21	336.45	34.21	-34.4	-35.6	29.9	3.02e+01	57	31	0	491257856	42	6520
2026-01-08 17:39:15.22	336.04	34.34	-34.5	-35.7	29.8	3.02e+01	57	31	0	493355008	42	6579
2026-01-08 17:39:16.23	335.62	34.46	-34.4	-35.5	29.9	3.02e+01	56	31	0	495452160	42	6482
2026-01-08 17:39:17.24	335.20	34.59	-34.2	-35.4	30.0	3.02e+01	61	31	0	497025024	42	6384
2026-01-08 17:39:18.25	334.78	34.71	-34.3	-35.5	30.0	3.02e+01	54	31	0	499122176	42	6470
2026-01-08 17:39:19.26	334.36	34.83	-34.4	-35.6	29.9	3.02e+01	58	31	0	501219328	42	6524
2026-01-08 17:39:20.27	333.93	34.95	-34.8	-36.0	29.5	3.02e+01	59	31	0	502792192	42	6833
2026-01-08 17:39:21.28	333.50	35.07	-34.7	-35.9	29.6	3.02e+01	53	31	0	504889344	42	6779
2026-01-08 17:39:22.29	333.07	35.18	-34.6	-35.8	29.7	3.02e+01	59	31	0	506462208	42	6657
2026-01-08 17:39:23.30	332.63	35.30	-34.7	-35.9	29.6	3.02e+01	62	31	0	508559360	42	6730
2026-01-08 17:39:24.30	332.19	35.41	-35.0	-36.2	29.4	3.02e+01	63	31	0	510656512	44	6254
2026-01-08 17:39:25.31	331.75	35.52	-35.3	-36.5	29.0	3.02e+01	57	31	0	512229376	44	6496
2026-01-08 17:39:26.32	331.30	35.64	-34.8	-36.0	29.5	3.02e+01	47	31	0	514326528	44	6112
2026-01-08 17:39:27.33	330.85	35.75	-34.7	-35.9	29.6	3.02e+01	61	31	0	515899392	44	6019
2026-01-08 17:39:28.34	330.40	35.85	-34.8	-36.0	29.5	3.02e+01	53	31	0	517996544	44	6070
2026-01-08 17:39:29.35	329.94	35.96	-35.1	-36.3	29.3	3.02e+01	47	31	0	520093696	44	6326
2026-01-08 17:39:30.36	329.49	36.06	-35.0	-36.2	29.2	3.02e+01	61	31	0	521666560	44	6263
2026-01-08 17:39:31.37	329.02	36.17	-35.0	-36.2	29.4	3.02e+01	59	31	0	523763712	44	6239
2026-01-08 17:39:32.38	328.56	36.27	-35.1	-36.3	29.2	3.02e+01	59	31	0	525336576	44	6330
2026-01-08 17:39:33.39	328.09	36.37	-35.1	-36.3	29.2	3.02e+01	59	31	0	527433728	44	6311
2026-01-08 17:39:34.40	327.62	36.47	-34.9	-36.1	29.4	3.02e+01	52	31	0	529530880	44	6205
2026-01-08 17:39:35.41	327.15	36.56	-35.0	-36.2	29.3	3.02e+01	58	31	0	531103744	44	6276
2026-01-08 17:39:36.42	326.67	36.66	-35.2	-36.4	29.2	3.02e+01	58	31	0	533200896	44	6365
2026-01-08 17:39:37.42	326.19	36.75	-35.1	-36.4	29.2	3.02e+01	48	31	0	534773760	44	6360
2026-01-08 17:39:38.43	325.71	36.84	-35.1	-36.3	29.3	3.02e+01	58	31	0	536870912	44	6301
2026-01-08 17:39:39.44	325.23	36.92	-35.2	-36.4	29.2	3.02e+01	44	31	0	538968064	44	6403
2026-01-08 17:39:40.45	324.74	37.01	-35.3	-36.6	29.0	3.02e+01	57	31	0	540540928	44	6516
2026-01-08 17:39:41.46	324.25	37.09	-35.3	-36.5	29.1	3.02e+01	60	31	0	542638080	44	6463
2026-01-08 17:39:42.47	323.76	37.18	-35.2	-36.5	29.1	3.02e+01	51	31	0	544735232	44	6430
2026-01-08 17:39:43.48	323.26	37.26	-35.3	-36.5	29.1	3.02e+01	56	32	0	546308096	44	6450
2026-01-08 17:39:44.49	322.76	37.33	-35.2	-36.5	29.1	3.02e+01	60	32	0	548405248	44	6442
2026-01-08 17:39:45.50	322.26	37.41	-35.2	-36.4	29.1	3.02e+01	61	31	0	549978112	44	6392
2026-01-08 17:39:46.51	321.76	37.48	-35.3	-36.5	29.1	3.02e+01	59	31	0	552075264	44	6434
2026-01-08 17:39:47.52	321.26	37.55	-35.5	-36.8	28.9	3.02e+01	46	31	0	554172416	44	6659
2026-01-08 17:39:48.53	320.75	37.62	-35.5	-36.7	28.9	3.02e+01	61	31	0	555745280	44	6614
2026-01-08 17:39:49.53	320.24	37.68	-35.4	-36.7	29.0	3.02e+01	57	32	0	557842432	44	6579
2026-01-08 17:39:50.54	319.73	37.75	-35.3	-36.5	29.1	3.02e+01	38	32	0	559415296	44	6476
2026-01-08 17:39:51.55	319.22	37.81	-35.5	-36.7	28.9	3.02e+01	59	31	0	561512448	44	6619
2026-01-08 17:39:52.56	318.71	37.87	-35.5	-36.7	28.9	3.02e+01	58	32	0	563609600	44	6621
2026-01-08 17:39:53.57	318.19	37.92	-35.6	-36.9	28.9	3.02e+01	61	31	0	565182464	44	6761
2026-01-08 17:39:54.58	317.67	37.98	-35.3	-36.6	29.1	3.02e+01	59	31	0	567279616	44	6502
2026-01-08 17:39:55.59	317.15	38.03	-35.5	-36.7	28.9	3.02e+01	57	31	0	569376768	44	6629
2026-01-08 17:39:56.60	316.63	38.07	-35.5	-36.7	28.9	3.02e+01	60	32	0	570949632	44	6645
2026-01-08 17:39:57.61	316.10	38.12	-35.5	-36.7	29.0	3.02e+01	56	31	0	573046784	44	6631
2026-01-08 17:39:58.62	315.58	38.16	-35.3	-36.6	29.1	3.02e+01	45	31	0	574619648	44	6505
2026-01-08 17:39:59.63	315.05	38.20	-35.2	-36.4	29.2	3.02e+01	57	31	0	576716800	44	6388
2026-01-08 17:40:00.63	314.53	38.24	-35.2	-36.4	29.2	3.02e+01	58	31	0	578289664	44	6415
2026-01-08 17:40:01.64	314.00	38.28	-35.4	-36.6	29.0	3.02e+01	62	31	0	580386816	44	6545
2026-01-08 17:40:02.65	313.47	38.31	-35.6	-36.8	28.8	3.02e+01	59	32	0	582483968	44	6703
2026-01-08 17:40:03.66	312.94	38.34	-35.6	-36.8	28.8	3.02e+01	57	32	0	584056832	44	6709
2026-01-08 17:40:04.67	312.40	38.36	-35.4	-36.6	29.0	3.02e+01	55	31	0	586153984	44	6539
2026-01-08 17:40:05.68	311.87	38.39	-35.2	-36.4	29.1	3.02e+01	58	31	0	587726848	44	6406
2026-01-08 17:40:06.69	311.34	38.41	-35.3	-36.6	29.0	3.02e+01	48	32	0	589824000	44	6501
2026-01-08 17:40:07.70	310.80	38.43	-35.2	-36.4	29.1	3.02e+01	58	31	0	591921152	44	6353
2026-01-08 17:40:08.71	310.27	38.44	-35.1	-36.2	29.2	3.02e+01	61	31	0	593494016	44	6277
2026-01-08 17:40:09.72	309.73	38.46	-35.7	-36.9	28.7	3.02e+01	59	31	0	595591168	44	6796
2026-01-08 17:40:10.72	309.20	38.47	-35.3	-36.5	29.2	3.02e+01	61	31	0	597688320	46	5781
2026-01-08 17:40:11.73	308.66	38.48	-35.0	-36.2	29.4	3.02e+01	58	31	0	599261184	46	5578
2026-01-08 17:40:12.74	308.13	38.48	-35.2	-36.4	29.1	3.02e+01	61	31	0	601358336	46	5722
2026-01-08 17:40:13.75	307.59	38.48	-35.3	-36.5	29.1	3.02e+01	61	32	0	602931200	46	5766
2026-01-08 17:40:14.76	307.05	38.48	-35.2	-36.4	29.2	3.02e+01	57	31	0	605028352	46	5680
2026-01-08 17:40:15.77	306.52	38.48	-35.6	-36.8	28.6	3.02e+01	59	31	0	607125504	46	5992
2026-01-08 17:40:16.78	305.98	38.47	-35.2	-36.4	29.1	3.02e+01	53	31	0	608698368	46	5715
2026-01-08 17:40:17.79	305.45	38.46	-35.3	-36.5	29.0	3.02e+01	60	31	0	610795520	46	5779
2026-01-08 17:40:18.80	304.91	38.45	-35.5	-36.8	28.8	3.02e+01	58	31	0	612892672	46	5937
2026-01-08 17:40:19.81	304.37	38.43	-35.6	-36.8	28.5	3.02e+01	53	31	0	614465536	46	5956
2026-01-08 17:40:20.81	303.84	38.42	-35.9	-37.2	28.1	3.02e+01	58	31	0	616562688	46	6250
2026-01-08 17:40:21.82	303.31	38.40	-36.1	-37.5	27.9	3.02e+01	59	31	0	618135552	46	6425
2026-01-08 17:40:22.83	302.78	38.37	-36.0	-37.3	28.3	3.02e+01	57	32	0	620232704	46	6287
2026-01-08 17:40:23.84	302.24	38.35	-35.7	-37.0	28.7	3.02e+01	59	31	0	622329856	44	6828
2026-01-08 17:40:24.85	301.71	38.32	-35.8	-37.1	28.6	3.02e+01	44	31	0	623902720	46	6151
2026-01-08 17:40:25.86	301.18	38.29	-35.6	-36.9	28.8	3.02e+01	55	31	0	625999872	44	6742
2026-01-08 17:40:26.87	300.65	38.25	-35.9	-37.2	28.5	3.02e+01	59	32	0	627572736	46	6232
2026-01-08 17:40:27.88	300.12	38.21	-35.5	-36.8	28.8	3.02e+01	45	31	0	629669888	44	6671
2026-01-08 17:40:28.89	299.59	38.18	-35.0	-36.2	29.2	3.02e+01	52	31	0	631767040	46	5542
2026-01-08 17:40:29.89	299.07	38.13	-34.8	-35.9	28.1	3.02e+01	57	31	0	633339904	46	5402
2026-01-08 17:40:30.90	298.55	38.09	-34.7	-35.8	27.0	3.02e+01	60	31	0	635437056	46	5335
2026-01-08 17:40:31.91	298.03	38.04	-35.2	-36.4	27.5	3.02e+01	58	31	0	637009920	46	5677
2026-01-08 17:40:32.92	297.50	37.99	-36.6	-38.0	24.8	3.02e+01	58	31	0	639107072	48	6082
2026-01-08 17:40:33.93	296.98	37.94	-36.1	-37.4	28.1	3.02e+01	57	31	0	641204224	46	6381
2026-01-08 17:40:34.94	296.47	37.88	-35.2	-36.4	29.0	3.02e+01	55	31	0	642777088	44	6409
2026-01-08 17:40:35.95	295.95	37.83	-35.2	-36.4	28.9	3.02e+01	49	31	0	644874240	46	5671
2026-01-08 17:40:36.96	295.44	37.76	-35.6	-36.8	28.1	3.02e+01	58	32	0	646447104	46	5965
2026-01-08 17:40:37.97	294.92	37.70	-36.1	-37.4	27.6	3.02e+01	57	31	0	648544256	46	6370
2026-01-08 17:40:38.98	294.41	37.64	-36.1	-37.4	28.2	3.02e+01	59	31	0	650641408	44	7166
2026-01-08 17:40:39.99	293.90	37.57	-35.9	-37.2	28.4	3.02e+01	60	32	0	652214272	44	7033
2026-01-08 17:40:41.00	293.40	37.50	-35.9	-37.2	28.3	3.02e+01	51	32	0	654311424	46	6273
2026-01-08 17:40:42.01	292.89	37.43	-35.7	-37.0	28.5	3.02e+01	57	32	0	655884288	44	6805
2026-01-08 17:40:43.02	292.39	37.35	-35.2	-36.4	29.0	3.02e+01	58	32	0	657981440	44	6359
2026-01-08 17:40:44.03	291.89	37.28	-35.1	-36.3	29.3	3.02e+01	47	32	0	660078592	44	6286
2026-01-08 17:40:45.04	291.40	37.20	-35.3	-36.5	28.9	3.02e+01	56	31	0	661651456	44	6474
2026-01-08 17:40:46.05	290.90	37.12	-36.1	-37.4	28.3	3.02e+01	60	32	0	663748608	46	6405
2026-01-08 17:40:47.05	290.42	37.03	-35.4	-36.6	29.0	3.02e+01	61	31	0	665845760	46	5858
2026-01-08 17:40:48.06	289.93	36.95	-34.9	-36.1	29.5	3.02e+01	58	32	0	667418624	46	5498
2026-01-08 17:40:49.07	289.44	36.86	-35.7	-37.0	28.7	3.02e+01	49	31	0	669515776	44	6832
2026-01-08 17:40:50.08	288.96	36.77	-35.8	-37.0	28.3	3.02e+01	58	31	0	671088640	44	6870
2026-01-08 17:40:51.09	288.48	36.68	-35.3	-36.5	28.8	3.02e+01	60	31	0	673185792	46	5778
2026-01-08 17:40:52.10	288.00	36.59	-35.0	-36.2	29.1	3.02e+01	61	32	0	675282944	46	5570
2026-01-08 17:40:53.11	287.52	36.49	-36.0	-37.3	28.1	3.02e+01	57	32	0	676855808	46	6315
2026-01-08 17:40:54.12	287.05	36.39	-35.2	-36.4	29.0	3.02e+01	59	32	0	678952960	44	6423
2026-01-08 17:40:55.12	286.58	36.30	-35.7	-36.9	28.6	3.02e+01	58	32	0	680525824	44	6787
2026-01-08 17:40:56.13	286.12	36.20	-36.1	-37.4	28.5	3.02e+01	59	32	0	682622976	46	6362
2026-01-08 17:40:57.14	285.65	36.09	-35.2	-36.4	29.1	3.02e+01	53	32	0	684720128	46	5703
2026-01-08 17:40:58.15	285.19	35.99	-35.2	-36.4	29.2	3.02e+01	59	31	0	686292992	46	5688
2026-01-08 17:40:59.16	284.74	35.88	-35.6	-36.8	28.9	3.02e+01	57	31	0	688390144	46	5967
2026-01-08 17:41:00.17	284.28	35.77	-35.9	-37.1	28.6	3.02e+01	62	32	0	689963008	46	6195
2026-01-08 17:41:01.18	283.83	35.66	-35.3	-36.5	29.0	3.02e+01	61	31	0	692060160	46	5773
2026-01-08 17:41:02.19	283.38	35.55	-36.1	-37.3	28.3	3.02e+01	44	31	0	694157312	46	6346
2026-01-08 17:41:03.20	282.94	35.44	-36.3	-37.6	27.9	3.02e+01	58	31	0	695730176	46	6571
2026-01-08 17:41:04.21	282.49	35.33	-35.1	-36.2	29.3	3.02e+01	61	31	0	697827328	46	5580
2026-01-08 17:41:05.22	282.05	35.21	-36.2	-37.5	27.7	3.02e+01	44	31	0	699400192	46	6496
2026-01-08 17:41:06.23	281.62	35.09	-35.2	-36.3	28.8	3.02e+01	59	32	0	701497344	44	6331
2026-01-08 17:41:07.24	281.19	34.98	-35.6	-36.8	28.7	3.02e+01	59	32	0	703594496	46	5987
2026-01-08 17:41:08.25	280.76	34.86	-36.1	-37.4	28.3	3.02e+01	58	32	0	705167360	46	6360
2026-01-08 17:41:09.26	280.33	34.74	-35.2	-36.4	29.1	3.02e+01	60	32	0	707264512	46	5692
2026-01-08 17:41:10.27	279.91	34.61	-36.5	-37.8	28.0	3.02e+01	52	32	0	709361664	46	6709
2026-01-08 17:41:11.28	279.49	34.49	-34.4	-35.6	29.6	3.02e+01	62	31	0	710934528	44	5801
2026-01-08 17:41:12.29	279.07	34.37	-36.3	-37.7	27.3	3.02e+01	59	32	0	713031680	46	6599
2026-01-08 17:41:13.29	278.66	34.24	-34.9	-36.0	28.7	3.02e+01	54	31	0	714604544	44	6109
2026-01-08 17:41:14.31	278.25	34.11	-36.1	-37.4	26.9	3.02e+01	60	32	0	716701696	46	6416
2026-01-08 17:41:15.31	277.85	33.99	-34.5	-35.7	28.7	3.02e+01	59	31	0	718798848	44	5888
2026-01-08 17:41:16.32	277.44	33.86	-35.9	-37.2	27.1	3.02e+01	61	32	0	720371712	46	6207
2026-01-08 17:41:17.33	277.04	33.73	-35.4	-36.7	28.1	3.02e+01	57	31	0	722468864	44	6579
2026-01-08 17:41:18.34	276.65	33.60	-35.6	-36.8	27.7	3.02e+01	51	31	0	724041728	46	5960
2026-01-08 17:41:19.35	276.25	33.47	-35.2	-36.4	28.3	3.02e+01	60	31	0	726138880	44	6391
2026-01-08 17:41:20.36	275.86	33.33	-35.7	-37.0	27.7	3.02e+01	55	31	0	728236032	46	6100
2026-01-08 17:41:21.37	275.48	33.20	-34.5	-35.6	29.0	3.02e+01	50	31	0	729808896	44	5826
2026-01-08 17:41:22.38	275.09	33.07	-36.6	-38.1	26.8	3.02e+01	59	31	0	731906048	46	6889
2026-01-08 17:41:23.38	274.72	32.93	-34.3	-35.4	29.5	3.02e+01	56	32	0	734003200	44	5708
2026-01-08 17:41:24.39	274.34	32.80	-35.9	-37.2	28.0	3.02e+01	56	31	0	735576064	44	7012
2026-01-08 17:41:25.40	273.97	32.66	-34.0	-35.1	29.9	3.02e+01	59	31	0	737673216	44	5500
2026-01-08 17:41:26.41	273.60	32.52	-35.6	-36.9	28.1	3.02e+01	52	32	0	739246080	44	6742
2026-01-08 17:41:27.42	273.23	32.39	-35.4	-36.6	27.9	3.02e+01	59	31	0	741343232	46	5839
2026-01-08 17:41:28.43	272.86	32.25	-35.0	-36.1	28.6	3.02e+01	59	31	0	742916096	44	6205
2026-01-08 17:41:29.44	272.50	32.11	-36.7	-38.0	27.1	3.02e+01	52	31	0	745013248	46	6881
2026-01-08 17:41:30.45	272.15	31.97	-35.6	-36.8	28.6	3.02e+01	58	31	0	747110400	46	5971
2026-01-08 17:41:31.46	271.79	31.83	-36.2	-37.5	28.0	3.02e+01	55	31	0	748683264	46	6450
2026-01-08 17:41:32.47	271.44	31.69	-36.0	-37.3	27.8	3.02e+01	54	31	0	750780416	46	6320
2026-01-08 17:41:33.48	271.09	31.55	-34.6	-35.7	29.6	3.02e+01	59	31	0	752353280	44	5893
2026-01-08 17:41:34.49	270.75	31.41	-35.8	-37.1	28.4	3.02e+01	45	31	0	754450432	44	6951
2026-01-08 17:41:35.50	270.40	31.26	-35.1	-36.3	28.9	3.02e+01	58	32	0	756547584	46	5655
2026-01-08 17:41:36.51	270.07	31.12	-34.3	-35.4	29.9	3.02e+01	63	31	0	758120448	44	5711
2026-01-08 17:41:37.52	269.73	30.98	-35.1	-36.3	29.1	3.02e+01	61	31	0	760217600	44	6318
2026-01-08 17:41:38.53	269.40	30.84	-35.3	-36.6	28.7	3.02e+01	61	31	0	762314752	44	6529
2026-01-08 17:41:39.53	269.07	30.69	-35.4	-36.6	29.0	3.02e+01	46	31	0	763887616	44	6562
2026-01-08 17:41:40.55	268.74	30.55	-35.6	-36.9	28.9	3.02e+01	57	32	0	765984768	44	6747
2026-01-08 17:41:41.56	268.42	30.41	-35.4	-36.7	28.7	3.02e+01	59	32	0	767557632	44	6594
2026-01-08 17:41:42.56	268.10	30.26	-35.3	-36.4	29.2	3.02e+01	45	32	0	769654784	44	6420
2026-01-08 17:41:43.57	267.78	30.12	-35.6	-36.8	29.0	3.02e+01	59	31	0	771751936	44	6704
2026-01-08 17:41:44.58	267.47	29.97	-35.6	-36.9	28.9	3.02e+01	57	31	0	773324800	44	6738
2026-01-08 17:41:45.59	267.15	29.83	-35.3	-36.6	28.9	3.02e+01	60	32	0	775421952	44	6503
2026-01-08 17:41:46.60	266.84	29.69	-34.6	-35.7	29.7	3.02e+01	56	31	0	777519104	44	5916
2026-01-08 17:41:47.61	266.54	29.54	-34.6	-35.7	29.7	3.02e+01	59	31	0	779091968	44	5918
2026-01-08 17:41:48.62	266.23	29.40	-34.9	-36.1	29.4	3.02e+01	56	32	0	781189120	44	6189
2026-01-08 17:41:49.63	265.93	29.25	-35.0	-36.3	29.2	3.02e+01	60	31	0	782761984	44	6285
2026-01-08 17:41:50.64	265.64	29.11	-34.9	-36.1	29.4	3.02e+01	52	31	0	784859136	44	6176
2026-01-08 17:41:51.65	265.34	28.96	-34.8	-35.9	29.6	3.02e+01	51	31	0	786956288	44	6048
2026-01-08 17:41:52.66	265.05	28.82	-34.7	-35.9	29.5	3.02e+01	59	31	0	788529152	44	6041
2026-01-08 17:41:53.66	264.76	28.67	-35.0	-36.2	29.2	3.02e+01	58	31	0	790626304	44	6265
2026-01-08 17:41:54.67	264.48	28.53	-34.9	-36.1	29.2	3.02e+01	57	31	0	792199168	44	6201
2026-01-08 17:41:55.69	264.19	28.38	-34.8	-36.0	29.5	3.02e+01	56	32	0	794296320	44	6067
2026-01-08 17:41:56.70	263.91	28.24	-34.8	-36.0	29.5	3.02e+01	56	32	0	796393472	44	6110
2026-01-08 17:41:57.70	263.63	28.09	-34.8	-36.1	29.4	3.02e+01	60	31	0	797966336	44	6136
2026-01-08 17:41:58.71	263.36	27.95	-34.9	-36.1	29.3	3.02e+01	45	31	0	800063488	44	6184
2026-01-08 17:41:59.72	263.08	27.80	-34.7	-35.9	29.5	3.02e+01	60	31	0	801636352	44	6015
2026-01-08 17:42:00.73	262.81	27.66	-34.9	-36.1	29.4	3.02e+01	60	31	0	803733504	44	6137
2026-01-08 17:42:01.74	262.54	27.51	-35.0	-36.2	29.3	3.02e+01	60	32	0	805830656	44	6236
2026-01-08 17:42:02.75	262.28	27.37	-35.1	-36.3	29.2	3.02e+01	61	31	0	807403520	44	6315
2026-01-08 17:42:03.76	262.01	27.23	-35.2	-36.4	29.2	3.02e+01	53	31	0	809500672	44	6371
2026-01-08 17:42:04.77	261.75	27.08	-35.2	-36.4	29.0	3.02e+01	59	32	0	811073536	44	6406
2026-01-08 17:42:05.78	261.49	26.94	-35.1	-36.3	29.3	3.02e+01	61	31	0	813170688	44	6318
2026-01-08 17:42:06.78	261.24	26.80	-35.0	-36.2	29.2	3.02e+01	46	32	0	815267840	44	6276
2026-01-08 17:42:07.79	260.99	26.65	-35.2	-36.4	29.2	3.02e+01	61	32	0	816840704	44	6386
2026-01-08 17:42:08.80	260.73	26.51	-34.9	-36.1	29.4	3.02e+01	44	31	0	818937856	44	6152
2026-01-08 17:42:09.81	260.49	26.37	-35.0	-36.2	29.3	3.02e+01	60	31	0	820510720	44	6220
2026-01-08 17:42:10.81	260.24	26.22	-34.9	-36.1	29.3	3.02e+01	62	31	0	822607872	44	6190
2026-01-08 17:42:11.82	260.00	26.08	-35.1	-36.3	29.2	3.02e+01	52	31	0	824705024	44	6350
2026-01-08 17:42:12.83	259.75	25.94	-35.1	-36.3	29.2	3.02e+01	61	31	0	826277888	44	6321
2026-01-08 17:42:13.84	259.51	25.80	-35.0	-36.2	29.2	3.02e+01	54	31	0	828375040	44	6231
2026-01-08 17:42:14.85	259.28	25.66	-35.0	-36.2	29.3	3.02e+01	57	31	0	830472192	44	6242
2026-01-08 17:42:15.86	259.04	25.52	-35.0	-36.2	29.3	3.02e+01	58	31	0	832045056	44	6253
2026-01-08 17:42:16.87	258.81	25.37	-35.2	-36.4	29.1	3.02e+01	42	31	0	834142208	44	6371
2026-01-08 17:42:17.88	258.58	25.23	-35.2	-36.5	29.1	3.02e+01	56	31	0	835715072	44	6428
2026-01-08 17:42:18.89	258.35	25.09	-35.0	-36.2	29.2	3.02e+01	58	31	0	837812224	44	6268
2026-01-08 17:42:19.90	258.12	24.95	-35.0	-36.2	29.3	3.02e+01	44	31	0	839909376	44	6236
2026-01-08 17:42:20.90	257.90	24.81	-35.0	-36.2	29.3	3.02e+01	61	31	0	841482240	44	6255
2026-01-08 17:42:21.91	257.68	24.68	-35.1	-36.3	29.2	3.02e+01	59	31	0	843579392	44	6290
2026-01-08 17:42:22.92	257.46	24.54	-34.9	-36.1	29.3	3.02e+01	58	31	0	845152256	44	6181
2026-01-08 17:42:23.93	257.24	24.40	-34.9	-36.1	29.4	3.02e+01	59	31	0	847249408	44	6165
2026-01-08 17:42:24.94	257.02	24.26	-35.0	-36.2	29.2	3.02e+01	57	31	0	849346560	44	6253
2026-01-08 17:42:25.95	256.81	24.12	-35.1	-36.3	29.2	3.02e+01	58	31	0	850919424	44	6283
2026-01-08 17:42:26.96	256.59	23.98	-35.2	-36.4	29.1	3.02e+01	61	31	0	853016576	44	6401
2026-01-08 17:42:27.97	256.38	23.85	-35.4	-36.6	28.9	3.02e+01	48	31	0	854589440	44	6544
2026-01-08 17:42:28.98	256.18	23.71	-35.3	-36.6	28.9	3.02e+01	58	32	0	856686592	44	6507
2026-01-08 17:42:29.99	255.97	23.57	-35.1	-36.3	29.1	3.02e+01	58	31	0	858783744	44	6336
2026-01-08 17:42:31.00	255.76	23.44	-35.1	-36.3	29.2	3.02e+01	64	32	0	860356608	44	6283
2026-01-08 17:42:32.01	255.56	23.30	-34.9	-36.1	29.4	3.02e+01	61	32	0	862453760	44	6153
2026-01-08 17:42:33.02	255.36	23.17	-35.0	-36.2	29.3	3.02e+01	53	31	0	864026624	44	6227
2026-01-08 17:42:34.03	255.16	23.03	-35.0	-36.2	29.2	3.02e+01	63	31	0	866123776	44	6277
2026-01-08 17:42:35.04	254.96	22.90	-35.2	-36.4	29.1	3.02e+01	56	31	0	868220928	44	6372
2026-01-08 17:42:36.05	254.77	22.76	-35.3	-36.6	28.9	3.02e+01	49	31	0	869793792	44	6523
2026-01-08 17:42:37.05	254.58	22.63	-35.1	-36.3	29.0	3.02e+01	58	32	0	871890944	44	6350
2026-01-08 17:42:38.06	254.38	22.50	-35.0	-36.2	29.2	3.02e+01	61	32	0	873988096	44	6271
2026-01-08 17:42:39.07	254.19	22.36	-35.0	-36.2	29.1	3.02e+01	56	31	0	875560960	44	6270
2026-01-08 17:42:40.08	254.01	22.23	-35.0	-36.2	29.3	3.02e+01	60	31	0	877658112	44	6211
2026-01-08 17:42:41.09	253.82	22.10	-35.0	-36.2	29.3	3.02e+01	53	31	0	879230976	44	6206
2026-01-08 17:42:42.10	253.63	21.97	-35.0	-36.2	29.2	3.02e+01	60	31	0	881328128	44	6250
2026-01-08 17:42:43.11	253.45	21.84	-35.1	-36.4	29.1	3.02e+01	58	31	0	883425280	44	6360
2026-01-08 17:42:44.12	253.27	21.71	-35.2	-36.5	29.0	3.02e+01	63	31	0	884998144	44	6431
2026-01-08 17:42:45.13	253.09	21.57	-35.2	-36.4	29.0	3.02e+01	61	31	0	887095296	44	6393
2026-01-08 17:42:46.14	252.91	21.45	-35.2	-36.4	29.0	3.02e+01	48	32	0	888668160	44	6416
2026-01-08 17:42:47.15	252.73	21.32	-35.0	-36.2	29.3	3.02e+01	59	32	0	890765312	44	6214
2026-01-08 17:42:48.16	252.56	21.19	-34.8	-36.0	29.3	3.02e+01	61	32	0	892862464	44	6130
2026-01-08 17:42:49.17	252.38	21.06	-34.9	-36.1	29.3	3.02e+01	54	32	0	894435328	44	6154
2026-01-08 17:42:50.18	252.21	20.93	-35.0	-36.3	29.1	3.02e+01	57	32	0	896532480	44	6288
2026-01-08 17:42:51.18	252.04	20.80	-35.0	-36.2	29.2	3.02e+01	58	31	0	898105344	44	6251
2026-01-08 17:42:52.19	251.87	20.68	-35.0	-36.2	29.1	3.02e+01	58	32	0	900202496	44	6257
2026-01-08 17:42:53.20	251.70	20.55	-35.0	-36.2	29.2	3.02e+01	56	31	0	902299648	44	6239
2026-01-08 17:42:54.21	251.54	20.42	-35.1	-36.3	29.1	3.02e+01	46	32	0	903872512	44	6289
2026-01-08 17:42:55.22	251.37	20.30	-34.9	-36.1	29.2	3.02e+01	58	31	0	905969664	44	6162
2026-01-08 17:42:56.23	251.21	20.17	-34.9	-36.1	29.2	3.02e+01	58	32	0	907542528	44	6180
2026-01-08 17:42:57.24	251.04	20.05	-34.9	-36.2	29.2	3.02e+01	45	32	0	909639680	44	6208
2026-01-08 17:42:58.25	250.88	19.92	-35.1	-36.3	29.0	3.02e+01	60	32	0	911736832	44	6317
2026-01-08 17:42:59.26	250.72	19.80	-35.0	-36.2	29.1	3.02e+01	59	31	0	913309696	44	6271
2026-01-08 17:43:00.27	250.57	19.67	-34.9	-36.1	29.2	3.02e+01	57	32	0	915406848	44	6172
2026-01-08 17:43:01.28	250.41	19.55	-34.8	-35.9	29.3	3.02e+01	59	31	0	916979712	44	6062
2026-01-08 17:43:02.29	250.25	19.43	-34.7	-35.9	29.3	3.02e+01	49	32	0	919076864	44	6030
2026-01-08 17:43:03.29	250.10	19.31	-34.8	-36.0	29.3	3.02e+01	61	32	0	921174016	44	6071
2026-01-08 17:43:04.30	249.95	19.19	-34.9	-36.1	29.3	3.02e+01	56	32	0	922746880	44	6166
2026-01-08 17:43:05.31	249.80	19.06	-34.9	-36.1	29.2	3.02e+01	45	32	0	924844032	44	6167
2026-01-08 17:43:06.32	249.65	18.94	-34.9	-36.1	29.2	3.02e+01	59	32	0	926941184	44	6195
2026-01-08 17:43:07.33	249.50	18.82	-34.8	-36.0	29.3	3.02e+01	60	32	0	928514048	44	6067
2026-01-08 17:43:08.33	249.35	18.70	-34.9	-36.1	29.2	3.02e+01	58	32	0	930611200	44	6136
2026-01-08 17:43:09.34	249.21	18.58	-34.7	-35.9	29.3	3.02e+01	57	32	0	932184064	44	6062
2026-01-08 17:43:10.35	249.06	18.47	-34.9	-36.1	29.3	3.02e+01	52	32	0	934281216	44	6151
2026-01-08 17:43:11.36	248.92	18.35	-35.0	-36.3	29.0	3.02e+01	61	32	0	936378368	44	6290
2026-01-08 17:43:12.37	248.77	18.23	-35.1	-36.3	29.0	3.02e+01	56	32	0	937951232	44	6326
2026-01-08 17:43:13.38	248.63	18.11	-35.1	-36.4	29.0	3.02e+01	47	32	0	940048384	44	6354
2026-01-08 17:43:14.39	248.49	17.99	-34.9	-36.1	29.1	3.02e+01	62	32	0	942145536	44	6192
2026-01-08 17:43:15.40	248.35	17.88	-34.9	-36.1	29.1	3.02e+01	57	32	0	943718400	44	6192
2026-01-08 17:43:16.41	248.21	17.76	-34.7	-35.9	29.3	3.02e+01	60	31	0	945815552	44	6050
2026-01-08 17:43:17.41	248.08	17.65	-34.9	-36.1	29.1	3.02e+01	60	32	0	947388416	44	6176
2026-01-08 17:43:18.42	247.94	17.53	-34.9	-36.1	29.2	3.02e+01	54	32	0	949485568	44	6160
2026-01-08 17:43:19.43	247.81	17.41	-35.1	-36.3	29.1	3.02e+01	61	32	0	951058432	44	6320
2026-01-08 17:43:20.44	247.67	17.30	-34.8	-36.0	29.4	3.02e+01	60	32	0	953155584	44	6077
2026-01-08 17:43:21.45	247.54	17.19	-34.9	-36.1	29.3	3.02e+01	57	32	0	955252736	44	6136
2026-01-08 17:43:22.46	247.41	17.07	-34.9	-36.1	29.2	3.02e+01	61	32	0	956825600	44	6136
2026-01-08 17:43:23.47	247.28	16.96	-34.8	-36.1	29.2	3.02e+01	57	32	0	958922752	44	6136
2026-01-08 17:43:24.48	247.15	16.85	-34.9	-36.1	29.2	3.02e+01	60	32	0	960495616	44	6180
2026-01-08 17:43:25.49	247.02	16.73	-34.9	-36.1	29.1	3.02e+01	61	32	0	962592768	44	6205
2026-01-08 17:43:26.50	246.90	16.62	-35.0	-36.2	29.1	3.02e+01	46	32	0	964689920	44	6260
2026-01-08 17:43:27.51	246.77	16.51	-35.1	-36.3	29.1	3.02e+01	62	32	0	966262784	44	6312
2026-01-08 17:43:28.52	246.64	16.40	-35.0	-36.2	29.1	3.02e+01	62	32	0	968359936	44	6263
2026-01-08 17:43:29.53	246.52	16.29	-35.0	-36.2	29.1	3.02e+01	60	32	0	970457088	44	6264
2026-01-08 17:43:30.54	246.40	16.18	-35.0	-36.2	29.1	3.02e+01	56	32	0	972029952	44	6240
2026-01-08 17:43:31.54	246.28	16.07	-34.9	-36.1	29.2	3.02e+01	47	32	0	974127104	44	6173
2026-01-08 17:43:32.55	246.15	15.96	-34.9	-36.1	29.2	3.02e+01	62	32	0	975699968	44	6183
2026-01-08 17:43:33.56	246.03	15.85	-34.8	-36.0	29.3	3.02e+01	51	32	0	977797120	44	6073
2026-01-08 17:43:34.57	245.92	15.74	-34.8	-36.0	29.3	3.02e+01	45	32	0	979894272	44	6084
2026-01-08 17:43:35.58	245.80	15.63	-34.9	-36.1	29.2	3.02e+01	59	32	0	981467136	44	6141
2026-01-08 17:43:36.59	245.68	15.52	-35.0	-36.2	29.1	3.02e+01	60	32	0	983564288	44	6226
2026-01-08 17:43:37.60	245.56	15.42	-35.1	-36.3	29.0	3.02e+01	57	32	0	985137152	44	6295
2026-01-08 17:43:38.61	245.45	15.31	-35.1	-36.3	29.0	3.02e+01	58	32	0	987234304	44	6326
2026-01-08 17:43:39.62	245.33	15.20	-35.1	-36.3	28.9	3.02e+01	55	32	0	989331456	44	6314
2026-01-08 17:43:40.63	245.22	15.10	-35.0	-36.2	29.0	3.02e+01	58	32	0	990904320	44	6251
2026-01-08 17:43:41.64	245.11	14.99	-35.0	-36.2	29.0	3.02e+01	59	32	0	993001472	44	6240
2026-01-08 17:43:42.65	244.99	14.88	-34.9	-36.1	29.0	3.02e+01	44	31	0	995098624	44	6182
2026-01-08 17:43:43.66	244.88	14.78	-34.8	-36.1	29.1	3.02e+01	58	32	0	996671488	44	6135
2026-01-08 17:43:44.67	244.77	14.67	-35.0	-36.2	29.0	3.02e+01	58	32	0	998768640	44	6235
2026-01-08 17:43:45.68	244.66	14.57	-35.0	-36.2	29.0	3.02e+01	58	32	0	1000341504	44	6251
2026-01-08 17:43:46.69	244.55	14.47	-35.0	-36.3	29.0	3.02e+01	59	32	0	1002438656	44	6280
2026-01-08 17:43:47.70	244.45	14.36	-35.2	-36.4	28.8	3.02e+01	56	32	0	1004535808	44	6390
2026-01-08 17:43:48.70	244.34	14.26	-35.3	-36.5	28.8	3.02e+01	59	32	0	1006108672	44	6462
2026-01-08 17:43:49.71	244.23	14.16	-35.3	-36.5	28.6	3.02e+01	60	32	0	1008205824	44	6496
2026-01-08 17:43:50.72	244.13	14.05	-35.3	-36.6	28.6	3.02e+01	47	32	0	1009778688	44	6515
2026-01-08 17:43:51.73	244.02	13.95	-35.2	-36.4	28.7	3.02e+01	58	32	0	1011875840	44	6405
2026-01-08 17:43:52.74	243.92	13.85	-35.2	-36.4	28.7	3.02e+01	61	32	0	1013972992	44	6390
2026-01-08 17:43:53.74	243.82	13.75	-35.2	-36.4	28.8	3.02e+01	60	31	0	1015545856	44	6386
2026-01-08 17:43:54.75	243.72	13.65	-35.1	-36.4	28.8	3.02e+01	59	32	0	1017643008	44	6365
2026-01-08 17:43:55.76	243.61	13.55	-35.2	-36.4	28.8	3.02e+01	51	32	0	1019215872	44	6389
2026-01-08 17:43:56.77	243.51	13.45	-35.2	-36.4	28.8	3.02e+01	63	31	0	1021313024	44	6380
2026-01-08 17:43:57.78	243.41	13.35	-35.3	-36.5	28.7	3.02e+01	57	32	0	1023410176	44	6487
2026-01-08 17:43:58.79	243.31	13.25	-35.3	-36.5	28.6	3.02e+01	59	31	0	1024983040	44	6489
2026-01-08 17:43:59.80	243.21	13.15	-35.4	-36.6	28.5	3.02e+01	59	31	0	1027080192	44	6555
2026-01-08 17:44:00.81	243.12	13.05	-35.4	-36.7	28.5	3.02e+01	54	31	0	1028653056	44	6596
2026-01-08 17:44:01.82	243.02	12.95	-35.6	-36.8	28.4	3.02e+01	59	32	0	1030750208	44	6691
2026-01-08 17:44:02.82	242.92	12.86	-35.6	-36.9	28.3	3.02e+01	60	31	0	1032847360	44	6745
2026-01-08 17:44:03.83	242.83	12.76	-35.7	-37.0	28.2	3.02e+01	52	32	0	1034420224	44	6823
2026-01-08 17:44:04.84	242.73	12.66	-35.8	-37.1	28.1	3.02e+01	59	32	0	1036517376	44	6887
2026-01-08 17:44:05.85	242.64	12.57	-36.0	-37.2	28.0	3.02e+01	59	32	0	1038614528	44	7043
2026-01-08 17:44:06.86	242.55	12.47	-36.1	-37.4	27.9	3.02e+01	59	32	0	1040187392	46	6380
2026-01-08 17:44:07.87	242.45	12.37	-36.1	-37.4	27.8	3.02e+01	63	32	0	1042284544	46	6404
2026-01-08 17:44:08.88	242.36	12.28	-36.3	-37.6	27.6	3.02e+01	46	32	0	1043857408	46	6525
2026-01-08 17:44:09.89	242.27	12.18	-36.4	-37.7	27.6	3.02e+01	60	32	0	1045954560	46	6617
2026-01-08 17:44:10.90	242.18	12.09	-36.3	-37.6	27.7	3.02e+01	60	32	0	1048051712	46	6517
2026-01-08 17:44:11.91	242.09	11.99	-36.2	-37.5	27.7	3.02e+01	50	32	0	1049624576	46	6487
2026-01-08 17:44:12.91	242.00	11.90	-36.4	-37.7	27.5	3.02e+01	59	32	0	1051721728	46	6625
2026-01-08 17:44:13.92	241.91	11.80	-36.5	-37.8	27.5	3.02e+01	61	32	0	1053294592	46	6680
2026-01-08 17:44:14.93	241.82	11.71	-36.6	-37.9	27.4	3.02e+01	61	32	0	1055391744	46	6771
2026-01-08 17:44:15.94	241.73	11.62	-36.7	-38.1	27.1	3.02e+01	60	32	0	1057488896	46	6891
2026-01-08 17:44:16.94	241.65	11.52	-36.7	-38.1	27.1	3.02e+01	58	32	0	1059061760	46	6916
2026-01-08 17:44:17.95	241.56	11.43	-36.9	-38.2	26.9	3.02e+01	61	32	0	1061158912	46	7037
2026-01-08 17:44:18.96	241.47	11.34	-37.0	-38.4	26.8	3.02e+01	60	32	0	1062731776	48	6376
2026-01-08 17:44:19.97	241.39	11.25	-37.1	-38.5	26.7	3.02e+01	50	32	0	1064828928	48	6480
2026-01-08 17:44:20.98	241.30	11.16	-37.2	-38.6	26.5	3.02e+01	59	32	0	1066926080	48	6545
2026-01-08 17:44:21.99	241.22	11.06	-37.3	-38.7	26.4	3.02e+01	59	32	0	1068498944	48	6646
2026-01-08 17:44:23.00	241.14	10.97	-37.4	-38.9	26.3	3.02e+01	62	32	0	1070596096	48	6735
2026-01-08 17:44:24.01	241.05	10.88	-37.6	-39.0	26.2	3.02e+01	63	32	0	1072168960	48	6840
2026-01-08 17:44:25.02	240.97	10.79	-37.6	-39.0	26.1	3.02e+01	53	32	0	1074266112	48	6853
2026-01-08 17:44:26.03	240.89	10.70	-37.7	-39.1	26.0	3.02e+01	63	32	0	1076363264	48	6931
2026-01-08 17:44:27.04	240.81	10.61	-37.9	-39.3	25.8	3.02e+01	60	32	0	1077936128	48	7119
2026-01-08 17:44:28.05	240.73	10.52	-37.9	-39.4	25.8	3.02e+01	45	32	0	1080033280	48	7133
2026-01-08 17:44:29.06	240.65	10.43	-38.1	-39.6	25.6	3.02e+01	60	32	0	1081606144	50	6509
2026-01-08 17:44:30.06	240.57	10.34	-38.2	-39.7	25.5	3.02e+01	60	32	0	1083703296	50	6635
2026-01-08 17:44:31.07	240.49	10.26	-38.3	-39.9	25.3	3.02e+01	58	32	0	1085800448	50	6732
2026-01-08 17:44:32.08	240.41	10.17	-38.6	-40.1	25.1	3.02e+01	60	32	0	1087373312	50	6912
2026-01-08 17:44:33.09	240.33	10.08	-38.7	-40.3	24.9	3.02e+01	50	32	0	1089470464	50	7050
2026-01-08 17:44:34.10	240.25	9.99	-38.9	-40.5	24.7	3.02e+01	50	32	0	1091567616	50	7237
2026-01-08 17:44:35.10	240.18	9.90	-39.1	-40.7	24.4	3.02e+01	57	32	0	1093140480	52	6626
2026-01-08 17:44:36.11	240.10	9.82	-39.3	-40.9	24.2	3.02e+01	47	32	0	1095237632	52	6795
2026-01-08 17:44:37.12	240.02	9.73	-39.4	-41.1	24.1	3.02e+01	61	32	0	1096810496	52	6940
2026-01-08 17:44:38.12	239.95	9.64	-39.6	-41.3	23.9	3.02e+01	59	32	0	1098907648	52	7108
2026-01-08 17:44:39.13	239.87	9.56	-39.7	-41.4	23.8	3.02e+01	58	32	0	1101004800	52	7193
2026-01-08 17:44:40.14	239.80	9.47	-39.8	-41.6	23.6	3.02e+01	58	32	0	1102577664	52	7343
2026-01-08 17:44:41.15	239.73	9.39	-40.0	-41.8	23.3	3.02e+01	50	32	0	1104674816	54	6715
2026-01-08 17:44:42.16	239.65	9.30	-40.0	-41.9	23.3	3.02e+01	61	32	0	1106247680	54	6733
2026-01-08 17:44:43.17	239.58	9.22	-40.1	-41.9	23.2	3.02e+01	60	32	0	1108344832	54	6799
2026-01-08 17:44:44.18	239.51	9.13	-40.3	-42.1	23.0	3.02e+01	64	32	0	1109917696	54	6955
2026-01-08 17:44:45.19	239.43	9.05	-40.3	-42.2	22.9	3.02e+01	60	32	0	1112014848	54	7036
2026-01-08 17:44:46.20	239.36	8.96	-40.5	-42.4	22.7	3.02e+01	54	32	0	1114112000	54	7191
2026-01-08 17:44:47.21	239.29	8.88	-40.6	-42.5	22.6	3.02e+01	58	32	0	1115684864	54	7275
2026-01-08 17:44:48.22	239.22	8.79	-40.7	-42.7	22.5	3.02e+01	59	32	0	1117782016	54	7412
2026-01-08 17:44:49.23	239.15	8.71	-40.9	-42.9	22.3	3.02e+01	47	32	0	1119879168	54	7557
2026-01-08 17:44:50.24	239.08	8.63	-41.1	-43.1	22.1	3.02e+01	61	32	0	1121452032	56	6943
2026-01-08 17:44:51.25	239.01	8.54	-41.3	-43.4	21.8	3.02e+01	58	32	0	1123549184	56	7151
2026-01-08 17:44:52.26	238.94	8.46	-41.5	-43.6	21.6	3.02e+01	59	32	0	1125122048	56	7324
2026-01-08 17:44:53.26	238.87	8.38	-41.7	-43.9	21.4	3.02e+01	61	32	0	1127219200	56	7573
2026-01-08 17:44:54.27	238.81	8.30	-41.8	-44.1	21.1	3.02e+01	58	32	0	1129316352	56	7764
2026-01-08 17:44:55.28	238.74	8.22	-41.9	-44.3	20.8	3.02e+01	60	32	0	1130889216	58	7076
2026-01-08 17:44:56.29	238.67	8.13	-42.1	-44.5	20.7	3.02e+01	57	32	0	1132986368	58	7260
2026-01-08 17:44:57.30	238.60	8.05	-42.2	-44.8	20.4	3.02e+01	53	32	0	1135083520	58	7466
2026-01-08 17:44:58.30	238.54	7.97	-42.3	-45.0	20.2	3.02e+01	58	32	0	1136656384	58	7650
2026-01-08 17:44:59.31	238.47	7.89	-42.5	-45.2	19.9	3.02e+01	55	32	0	1138753536	58	7877
2026-01-08 17:45:00.32	238.41	7.81	-42.7	-45.5	19.6	3.02e+01	60	32	0	1140326400	58	8158
2026-01-08 17:45:01.33	238.34	7.73	-42.9	-45.7	19.4	3.02e+01	60	32	0	1142423552	58	8333
2026-01-08 17:45:02.34	238.28	7.65	-43.1	-46.0	19.2	3.02e+01	52	32	0	1144520704	60	7696
2026-01-08 17:45:03.35	238.21	7.57	-43.3	-46.3	18.9	3.02e+01	56	32	0	1146093568	60	7912
2026-01-08 17:45:04.36	238.15	7.49	-43.5	-46.6	18.5	3.02e+01	57	32	0	1148190720	60	8200
2026-01-08 17:45:05.37	238.09	7.41	-43.7	-46.8	18.4	3.02e+01	45	32	0	1149763584	60	8392
2026-01-08 17:45:06.38	238.02	7.33	-43.9	-47.1	18.0	3.02e+01	60	32	0	1151860736	60	8685
2026-01-08 17:45:07.39	237.96	7.25	-44.0	-47.4	17.7	3.02e+01	57	32	0	1153957888	60	8988
2026-01-08 17:45:08.40	237.90	7.17	-44.2	-47.7	17.4	3.02e+01	59	32	0	1155530752	60	9303
