passes_logs/2026/01/08/R4.6S_Anadyr/R4.6S_Anadyr__20260108_031338_SUOMI_NPP_rec.log

#Pass ID: 20260108_031338_SUOMI NPP
#Satellite: SUOMI NPP
#Configuration: NPP
#almurnet v.1.7.20251203
#Start time: 2026-01-08 03:13:39

#Version: 2.2.20231116
#Station: R4.6S_Anadyr
#Location: 177.4865 lon 64.73178 lat
#TLE: 1 37849U 11061A   26004.95404768  .00000136  00000+0  85334-4 0  9991
#TLE: 2 37849  98.7801 307.0898 0002575  80.6707 279.4760 14.19522289735281

#Time	Az	El	Level	Level2	SNR	BER	BlckErr	Temp	State	Recorded	gain1	gain2
2026-01-08 03:13:39.81	235.22	0.06	-48.9	-60.6	3.5	8.47e-01	0	35	0	0	60	38605
2026-01-08 03:13:40.82	235.31	0.11	-48.8	-64.2	3.6	1.51e+00	0	36	104	0	60	58478
2026-01-08 03:13:41.83	235.40	0.15	-49.0	-64.2	3.6	1.51e+00	0	36	104	0	60	58494
2026-01-08 03:13:42.84	235.49	0.20	-48.9	-64.1	3.6	1.51e+00	0	36	104	0	60	58081
2026-01-08 03:13:43.85	235.58	0.24	-48.9	-64.2	3.6	1.51e+00	0	36	104	0	60	58378
2026-01-08 03:13:44.86	235.67	0.28	-48.9	-64.2	3.6	1.51e+00	0	36	104	0	60	58594
2026-01-08 03:13:45.87	235.77	0.33	-48.9	-64.2	3.6	1.51e+00	0	36	104	0	60	58393
2026-01-08 03:13:46.88	235.86	0.37	-48.9	-64.1	3.6	1.51e+00	0	36	104	0	60	58192
2026-01-08 03:13:47.89	235.95	0.42	-49.0	-64.2	3.6	1.51e+00	0	36	104	0	60	58338
2026-01-08 03:13:48.90	236.04	0.46	-49.0	-64.2	3.6	1.51e+00	0	36	104	0	60	58882
2026-01-08 03:13:49.91	236.13	0.50	-49.1	-64.4	3.6	1.51e+00	0	36	104	0	60	59800
2026-01-08 03:13:50.92	236.23	0.55	-49.1	-64.2	3.6	1.51e+00	0	36	104	0	60	58954
2026-01-08 03:13:51.93	236.32	0.59	-49.0	-64.2	3.6	1.51e+00	0	36	104	0	60	58769
2026-01-08 03:13:52.94	236.41	0.64	-49.0	-64.1	3.6	1.51e+00	0	36	104	0	60	58066
2026-01-08 03:13:53.95	236.51	0.68	-48.8	-64.0	3.6	1.51e+00	0	36	104	0	60	57257
2026-01-08 03:13:54.96	236.60	0.72	-48.3	-63.5	3.6	1.51e+00	0	36	104	0	60	54045
2026-01-08 03:13:55.97	236.69	0.77	-47.7	-62.9	3.6	1.51e+00	0	36	104	0	60	50203
2026-01-08 03:13:56.98	236.79	0.81	-46.8	-61.9	3.6	1.51e+00	0	36	104	0	60	45075
2026-01-08 03:13:57.99	236.88	0.86	-46.8	-61.9	3.6	1.51e+00	0	36	104	0	60	45114
2026-01-08 03:13:59.00	236.98	0.90	-46.8	-61.9	3.6	1.51e+00	0	36	104	0	60	45097
2026-01-08 03:14:00.01	237.07	0.94	-46.8	-61.9	3.6	1.51e+00	0	36	104	0	60	45127
2026-01-08 03:14:01.02	237.17	0.99	-46.8	-61.9	3.6	1.51e+00	0	36	104	0	60	45228
2026-01-08 03:14:02.03	237.26	1.03	-46.8	-61.9	3.6	1.51e+00	0	36	104	0	60	45089
2026-01-08 03:14:03.04	237.36	1.08	-46.8	-61.9	3.6	1.51e+00	0	36	104	0	60	44931
2026-01-08 03:14:04.05	237.45	1.12	-46.8	-61.9	3.6	1.51e+00	0	36	104	0	60	45003
2026-01-08 03:14:05.06	237.55	1.16	-46.8	-61.9	3.6	1.51e+00	0	36	104	0	60	45021
2026-01-08 03:14:06.07	237.65	1.21	-46.8	-61.9	3.6	1.51e+00	0	36	104	0	60	44805
2026-01-08 03:14:07.08	237.74	1.25	-46.8	-61.9	3.6	1.51e+00	0	36	104	0	60	44767
2026-01-08 03:14:08.09	237.84	1.30	-46.8	-61.9	3.6	1.51e+00	0	36	104	0	60	44952
2026-01-08 03:14:09.10	237.94	1.34	-46.8	-61.9	3.6	1.51e+00	0	37	104	0	60	44760
2026-01-08 03:14:10.11	238.04	1.38	-46.8	-61.9	3.6	1.51e+00	0	37	104	0	60	44791
2026-01-08 03:14:11.12	238.13	1.43	-46.8	-61.9	3.6	1.51e+00	0	37	104	0	60	45143
2026-01-08 03:14:12.13	238.23	1.47	-46.8	-61.8	3.6	1.51e+00	0	37	104	0	60	44560
2026-01-08 03:14:13.14	238.33	1.52	-46.8	-61.8	3.6	1.51e+00	0	37	104	0	60	44517
2026-01-08 03:14:14.15	238.43	1.56	-46.8	-61.9	3.6	1.51e+00	0	37	104	0	60	44918
2026-01-08 03:14:15.16	238.53	1.60	-46.8	-61.8	3.6	1.51e+00	0	36	104	0	60	44500
2026-01-08 03:14:16.17	238.63	1.65	-46.8	-61.9	3.6	1.51e+00	0	36	104	0	60	44833
2026-01-08 03:14:17.18	238.73	1.69	-46.8	-61.8	3.6	1.51e+00	0	37	104	0	60	44434
2026-01-08 03:14:18.19	238.83	1.74	-46.8	-61.9	3.6	1.51e+00	0	36	104	0	60	44779
2026-01-08 03:14:19.20	238.93	1.78	-46.8	-61.8	3.6	1.51e+00	0	37	104	0	60	44391
2026-01-08 03:14:20.21	239.03	1.83	-46.7	-61.7	3.6	1.51e+00	0	37	104	0	60	44184
2026-01-08 03:14:21.22	239.13	1.87	-46.8	-61.8	3.6	1.51e+00	0	37	104	0	60	44597
2026-01-08 03:14:22.23	239.23	1.91	-46.8	-61.8	3.6	1.51e+00	0	37	104	0	60	44467
2026-01-08 03:14:23.24	239.33	1.96	-46.8	-61.7	3.6	1.51e+00	0	37	104	0	60	44133
2026-01-08 03:14:24.25	239.43	2.00	-46.7	-61.8	3.6	1.51e+00	0	37	104	0	60	44230
2026-01-08 03:14:25.26	239.53	2.05	-46.8	-61.7	3.6	1.51e+00	0	37	104	0	60	44105
2026-01-08 03:14:26.27	239.64	2.09	-46.7	-61.7	3.6	1.51e+00	0	37	104	0	60	43831
2026-01-08 03:14:27.28	239.74	2.13	-46.8	-61.7	3.6	1.51e+00	0	37	104	0	60	43888
2026-01-08 03:14:28.29	239.84	2.18	-46.7	-61.5	3.6	1.51e+00	0	37	104	0	60	43067
2026-01-08 03:14:29.30	239.94	2.22	-46.7	-61.5	3.6	1.51e+00	0	37	104	0	60	42965
2026-01-08 03:14:30.31	240.05	2.27	-46.7	-61.4	3.6	1.51e+00	0	37	104	0	60	42311
2026-01-08 03:14:31.32	240.15	2.31	-46.7	-61.2	3.6	1.51e+00	0	37	104	0	60	41689
2026-01-08 03:14:32.33	240.26	2.35	-46.7	-61.1	3.6	1.51e+00	0	37	104	0	60	40924
2026-01-08 03:14:33.34	240.36	2.40	-46.7	-60.9	3.6	1.51e+00	0	37	104	0	60	39900
2026-01-08 03:14:34.35	240.46	2.44	-46.7	-60.6	3.6	1.51e+00	0	37	104	0	60	38557
2026-01-08 03:14:35.36	240.57	2.49	-46.7	-60.3	3.6	1.51e+00	0	37	104	0	60	37215
2026-01-08 03:14:36.37	240.67	2.53	-46.7	-60.1	3.6	1.51e+00	0	37	104	0	60	36419
2026-01-08 03:14:37.38	240.78	2.57	-46.6	-59.6	3.6	1.50e+00	0	37	104	0	60	34560
2026-01-08 03:14:38.39	240.89	2.62	-46.6	-59.5	3.6	1.49e+00	0	37	104	0	60	34159
2026-01-08 03:14:39.40	240.99	2.66	-46.6	-59.1	3.7	1.48e+00	0	37	104	0	60	32745
2026-01-08 03:14:40.41	241.10	2.71	-46.6	-58.5	3.8	1.45e+00	0	37	0	0	60	30483
2026-01-08 03:14:41.42	241.21	2.75	-46.6	-56.8	3.9	1.41e+00	0	37	0	0	60	25098
2026-01-08 03:14:42.42	241.31	2.79	-46.5	-56.4	4.1	1.36e+00	91	37	0	0	60	23752
2026-01-08 03:14:43.44	241.42	2.84	-46.5	-56.3	4.1	1.10e+00	8	37	0	2097152	60	23535
2026-01-08 03:14:44.44	241.53	2.88	-46.5	-56.0	4.2	9.77e-01	91	37	0	4194304	60	22767
2026-01-08 03:14:45.45	241.63	2.93	-46.5	-55.8	4.3	8.83e-01	84	37	0	6291456	60	22175
2026-01-08 03:14:46.46	241.74	2.97	-46.4	-55.6	4.4	8.39e-01	30	37	0	7340032	60	21743
2026-01-08 03:14:47.47	241.85	3.01	-46.4	-55.5	4.5	7.96e-01	91	37	0	9437184	60	21525
2026-01-08 03:14:48.48	241.96	3.06	-45.9	-51.9	8.2	7.35e-01	0	37	0	11534336	60	14168
2026-01-08 03:14:49.49	242.07	3.10	-46.4	-54.8	5.0	5.08e-01	91	37	0	13631488	60	19899
2026-01-08 03:14:50.50	242.18	3.14	-46.3	-55.1	4.5	1.51e+00	0	37	104	13631488	60	20615
2026-01-08 03:14:51.51	242.29	3.19	-46.2	-53.5	7.9	1.88e-01	91	37	104	13631488	60	17039
2026-01-08 03:14:52.52	242.40	3.23	-46.0	-52.0	7.9	4.02e-02	70	37	0	14680064	60	14417
2026-01-08 03:14:53.53	242.51	3.28	-46.1	-52.2	8.3	2.53e-01	0	37	0	16777216	60	14663
2026-01-08 03:14:54.53	242.62	3.32	-45.9	-51.6	8.9	2.05e-02	91	37	0	18874368	60	13814
2026-01-08 03:14:55.54	242.73	3.36	-45.9	-51.3	9.2	2.21e-02	0	37	0	20971520	60	13338
2026-01-08 03:14:56.55	242.84	3.41	-45.7	-50.9	10.0	2.05e-02	91	37	0	22020096	60	12672
2026-01-08 03:14:57.57	242.95	3.45	-45.2	-49.5	11.6	1.97e-03	0	37	0	24117248	60	10754
2026-01-08 03:14:58.57	243.06	3.49	-44.9	-48.9	12.1	2.75e-04	91	37	0	26214400	60	10126
2026-01-08 03:14:59.58	243.18	3.54	-44.8	-48.7	12.5	1.57e-04	92	37	0	28311552	60	9803
2026-01-08 03:15:00.59	243.29	3.58	-44.6	-48.3	13.0	8.85e-05	92	37	0	30408704	60	9375
2026-01-08 03:15:01.60	243.40	3.63	-44.5	-47.9	13.3	2.44e-05	92	37	0	32505856	60	8999
2026-01-08 03:15:02.61	243.51	3.67	-44.5	-47.9	13.3	1.52e-05	0	37	0	33554432	60	9014
2026-01-08 03:15:03.62	243.63	3.71	-44.6	-48.0	13.3	1.44e-05	92	37	0	35651584	60	9127
2026-01-08 03:15:04.63	243.74	3.76	-44.4	-47.7	13.6	1.22e-05	0	37	0	37748736	60	8732
2026-01-08 03:15:05.64	243.86	3.80	-44.4	-47.7	13.7	6.10e-06	92	37	0	39845888	60	8753
2026-01-08 03:15:06.65	243.97	3.84	-44.2	-47.4	14.0	4.50e-06	14	37	0	41943040	60	8425
2026-01-08 03:15:07.66	244.09	3.89	-44.2	-47.3	14.3	7.00e-07	92	37	0	42991616	60	8351
2026-01-08 03:15:08.67	244.20	3.93	-44.1	-47.1	14.3	7.00e-07	92	37	0	45088768	60	8170
2026-01-08 03:15:09.68	244.32	3.97	-44.0	-46.9	14.6	7.00e-07	0	37	0	47185920	60	8013
2026-01-08 03:15:10.69	244.43	4.02	-43.9	-46.7	14.8	7.00e-07	92	37	0	49283072	60	7821
2026-01-08 03:15:11.69	244.55	4.06	-43.9	-46.7	14.8	0.00e+00	0	37	0	51380224	60	7809
2026-01-08 03:15:12.71	244.67	4.10	-43.7	-46.3	15.2	0.00e+00	90	37	0	52428800	60	7506
2026-01-08 03:15:13.71	244.78	4.15	-43.5	-46.1	15.4	0.00e+00	22	37	0	54525952	60	7288
2026-01-08 03:15:14.72	244.90	4.19	-43.6	-46.1	15.5	0.00e+00	92	37	0	56623104	60	7328
2026-01-08 03:15:15.73	245.02	4.23	-43.3	-45.8	15.9	0.00e+00	92	37	0	58720256	60	7030
2026-01-08 03:15:16.74	245.13	4.28	-43.1	-45.5	16.3	0.00e+00	0	37	0	60817408	60	6782
2026-01-08 03:15:17.75	245.25	4.32	-43.2	-45.5	16.1	0.00e+00	79	37	0	61865984	60	6828
2026-01-08 03:15:18.76	245.37	4.36	-43.1	-45.4	16.3	0.00e+00	0	37	0	63963136	60	6699
2026-01-08 03:15:19.77	245.49	4.41	-42.8	-44.9	16.9	0.00e+00	92	37	0	66060288	60	6377
2026-01-08 03:15:20.78	245.61	4.45	-42.9	-45.1	16.5	0.00e+00	0	37	0	68157440	60	6465
2026-01-08 03:15:21.79	245.73	4.49	-42.8	-44.9	16.9	0.00e+00	92	37	0	70254592	60	6362
2026-01-08 03:15:22.80	245.85	4.54	-42.4	-44.4	17.3	0.00e+00	92	37	0	71303168	58	6736
2026-01-08 03:15:23.81	245.97	4.58	-42.2	-44.1	17.6	0.00e+00	0	37	0	73400320	58	6479
2026-01-08 03:15:24.82	246.09	4.62	-42.1	-44.0	17.7	0.00e+00	90	37	0	75497472	58	6430
2026-01-08 03:15:25.82	246.21	4.67	-42.0	-43.7	18.0	0.00e+00	0	37	0	77594624	58	6236
2026-01-08 03:15:26.84	246.33	4.71	-41.8	-43.5	18.2	0.00e+00	92	37	0	79691776	58	6090
2026-01-08 03:15:27.85	246.45	4.75	-41.8	-43.5	18.3	0.00e+00	0	37	0	80740352	58	6054
2026-01-08 03:15:28.86	246.57	4.79	-41.8	-43.5	18.4	0.00e+00	92	37	0	82837504	56	6807
2026-01-08 03:15:29.86	246.70	4.84	-41.6	-43.3	18.6	0.00e+00	23	37	0	84934656	56	6619
2026-01-08 03:15:30.87	246.82	4.88	-41.7	-43.3	18.5	0.00e+00	0	37	0	87031808	56	6665
2026-01-08 03:15:31.88	246.94	4.92	-41.4	-43.0	18.8	0.00e+00	92	37	0	89128960	56	6429
2026-01-08 03:15:32.89	247.06	4.97	-41.5	-43.1	18.7	0.00e+00	0	37	0	90177536	56	6526
2026-01-08 03:15:33.89	247.19	5.01	-41.4	-43.0	19.0	0.00e+00	91	37	0	92274688	56	6431
2026-01-08 03:15:34.90	247.31	5.05	-41.1	-42.5	19.3	0.00e+00	0	37	0	94371840	56	6085
2026-01-08 03:15:35.91	247.43	5.09	-40.9	-42.4	19.4	0.00e+00	91	37	0	96468992	56	5971
2026-01-08 03:15:36.92	247.56	5.14	-40.8	-42.2	19.6	0.00e+00	0	37	0	98566144	56	5852
2026-01-08 03:15:37.93	247.68	5.18	-40.3	-41.7	20.1	0.00e+00	90	37	0	100663296	54	6174
2026-01-08 03:15:38.94	247.81	5.22	-40.3	-41.6	20.1	0.00e+00	92	37	0	101711872	54	6164
2026-01-08 03:15:39.95	247.94	5.26	-40.2	-41.5	20.1	0.00e+00	0	37	0	103809024	54	6098
2026-01-08 03:15:40.96	248.06	5.31	-40.3	-41.7	20.2	0.00e+00	92	37	0	105906176	54	6174
2026-01-08 03:15:41.97	248.19	5.35	-40.3	-41.7	20.2	0.00e+00	0	37	0	108003328	54	6174
2026-01-08 03:15:42.98	248.31	5.39	-40.0	-41.3	20.4	0.00e+00	70	37	0	110100480	54	5935
2026-01-08 03:15:43.99	248.44	5.43	-39.9	-41.1	20.6	0.00e+00	0	37	0	111149056	54	5828
2026-01-08 03:15:45.00	248.57	5.48	-40.1	-41.4	20.4	0.00e+00	92	37	0	113246208	54	6002
2026-01-08 03:15:46.01	248.70	5.52	-40.1	-41.3	20.5	0.00e+00	90	37	0	115343360	54	5946
2026-01-08 03:15:47.02	248.83	5.56	-40.0	-41.2	20.6	0.00e+00	0	37	0	117440512	54	5877
2026-01-08 03:15:48.03	248.95	5.60	-40.0	-41.2	20.5	0.00e+00	83	37	0	119537664	54	5884
2026-01-08 03:15:49.04	249.08	5.64	-40.0	-41.2	20.6	0.00e+00	0	37	0	120586240	54	5891
2026-01-08 03:15:50.05	249.21	5.69	-39.9	-41.1	20.7	0.00e+00	80	37	0	122683392	52	6502
2026-01-08 03:15:51.06	249.34	5.73	-39.8	-41.1	20.8	0.00e+00	0	37	0	124780544	52	6471
2026-01-08 03:15:52.07	249.47	5.77	-39.7	-40.9	21.0	0.00e+00	92	37	0	126877696	52	6324
2026-01-08 03:15:53.08	249.60	5.81	-39.8	-41.0	20.9	0.00e+00	92	37	0	128974848	52	6437
2026-01-08 03:15:54.09	249.73	5.85	-39.7	-40.9	20.8	0.00e+00	0	37	0	130023424	52	6370
2026-01-08 03:15:55.10	249.86	5.89	-39.8	-41.0	21.0	0.00e+00	56	37	0	132120576	52	6438
2026-01-08 03:15:56.11	250.00	5.94	-39.8	-41.0	20.8	0.00e+00	0	37	0	134217728	52	6433
2026-01-08 03:15:57.12	250.13	5.98	-39.8	-41.0	20.8	0.00e+00	91	37	0	136314880	52	6397
2026-01-08 03:15:58.13	250.26	6.02	-39.8	-41.1	20.8	0.00e+00	0	37	0	138412032	52	6465
2026-01-08 03:15:59.13	250.39	6.06	-39.7	-40.9	21.0	0.00e+00	91	37	0	139460608	52	6327
2026-01-08 03:16:00.15	250.52	6.10	-39.6	-40.8	21.0	0.00e+00	91	37	0	141557760	52	6257
2026-01-08 03:16:01.16	250.66	6.14	-39.7	-40.9	21.0	0.00e+00	18	37	0	143654912	52	6326
2026-01-08 03:16:02.16	250.79	6.18	-39.8	-41.0	21.0	0.00e+00	90	37	0	145752064	52	6432
2026-01-08 03:16:03.17	250.92	6.23	-39.8	-41.0	20.8	0.00e+00	0	37	0	147849216	52	6463
2026-01-08 03:16:04.18	251.06	6.27	-39.7	-40.8	21.0	0.00e+00	91	37	0	148897792	52	6314
2026-01-08 03:16:05.19	251.19	6.31	-39.7	-40.9	20.8	0.00e+00	0	37	0	150994944	52	6345
2026-01-08 03:16:06.20	251.33	6.35	-39.8	-40.9	20.9	0.00e+00	90	37	0	153092096	52	6387
2026-01-08 03:16:07.21	251.46	6.39	-39.7	-40.9	21.0	0.00e+00	77	37	0	155189248	52	6329
2026-01-08 03:16:08.22	251.60	6.43	-39.6	-40.7	21.1	0.00e+00	78	37	0	157286400	52	6207
2026-01-08 03:16:09.23	251.74	6.47	-39.6	-40.8	21.1	0.00e+00	92	37	0	158334976	52	6277
2026-01-08 03:16:10.24	251.87	6.51	-39.6	-40.8	21.1	0.00e+00	0	37	0	160432128	52	6270
2026-01-08 03:16:11.25	252.01	6.55	-39.6	-40.8	21.2	0.00e+00	92	37	0	162529280	52	6287
2026-01-08 03:16:12.26	252.15	6.59	-39.8	-41.0	21.0	0.00e+00	0	37	0	164626432	52	6412
2026-01-08 03:16:13.27	252.28	6.63	-39.8	-41.0	20.9	0.00e+00	92	37	0	166723584	52	6410
2026-01-08 03:16:14.28	252.42	6.67	-39.8	-41.0	21.0	0.00e+00	74	37	0	168820736	52	6405
2026-01-08 03:16:15.29	252.56	6.71	-39.7	-40.9	21.0	0.00e+00	65	37	0	169869312	52	6363
2026-01-08 03:16:16.29	252.70	6.75	-39.8	-40.9	20.9	0.00e+00	92	37	0	171966464	52	6388
2026-01-08 03:16:17.30	252.84	6.79	-39.8	-40.9	21.0	0.00e+00	0	37	0	174063616	52	6385
2026-01-08 03:16:18.31	252.98	6.84	-39.9	-41.0	20.9	0.00e+00	75	37	0	176160768	52	6463
2026-01-08 03:16:19.32	253.12	6.88	-39.8	-41.0	20.9	0.00e+00	0	37	0	177209344	52	6418
2026-01-08 03:16:20.33	253.26	6.92	-39.8	-41.0	21.0	0.00e+00	91	37	0	179306496	52	6418
2026-01-08 03:16:21.33	253.40	6.95	-39.8	-40.9	21.1	0.00e+00	25	37	0	181403648	52	6390
2026-01-08 03:16:22.34	253.54	6.99	-39.7	-40.9	21.0	0.00e+00	91	37	0	183500800	52	6331
2026-01-08 03:16:23.35	253.68	7.03	-39.5	-40.6	21.3	0.00e+00	92	37	0	185597952	52	6164
2026-01-08 03:16:24.36	253.82	7.07	-39.5	-40.7	21.3	0.00e+00	0	37	0	186646528	52	6177
2026-01-08 03:16:25.37	253.96	7.11	-39.6	-40.7	21.2	0.00e+00	92	37	0	188743680	52	6209
2026-01-08 03:16:26.38	254.10	7.15	-39.5	-40.7	21.2	0.00e+00	0	37	0	190840832	52	6186
2026-01-08 03:16:27.39	254.25	7.19	-39.5	-40.6	21.3	0.00e+00	92	37	0	192937984	52	6164
2026-01-08 03:16:28.40	254.39	7.23	-39.6	-40.7	21.1	0.00e+00	19	37	0	195035136	52	6234
2026-01-08 03:16:29.41	254.53	7.27	-39.7	-40.8	21.1	0.00e+00	91	37	0	197132288	52	6302
2026-01-08 03:16:30.42	254.68	7.31	-39.8	-40.9	21.1	0.00e+00	90	37	0	198180864	52	6386
2026-01-08 03:16:31.43	254.82	7.35	-39.8	-40.9	21.1	0.00e+00	0	37	0	200278016	52	6382
2026-01-08 03:16:32.43	254.96	7.39	-39.7	-40.9	21.2	0.00e+00	92	37	0	202375168	52	6363
2026-01-08 03:16:33.44	255.11	7.43	-39.7	-40.9	21.1	0.00e+00	0	37	0	204472320	52	6334
2026-01-08 03:16:34.45	255.26	7.46	-39.5	-40.7	21.3	0.00e+00	90	37	0	206569472	52	6195
2026-01-08 03:16:35.46	255.40	7.50	-39.7	-40.8	21.2	0.00e+00	0	37	0	207618048	52	6308
2026-01-08 03:16:36.47	255.55	7.54	-39.7	-40.9	21.1	0.00e+00	92	37	0	209715200	52	6325
2026-01-08 03:16:37.48	255.69	7.58	-39.6	-40.7	21.3	0.00e+00	92	37	0	211812352	52	6211
2026-01-08 03:16:38.49	255.84	7.62	-39.7	-40.9	21.2	0.00e+00	92	37	0	213909504	52	6335
2026-01-08 03:16:39.50	255.99	7.66	-39.9	-41.1	21.0	0.00e+00	92	37	0	216006656	52	6471
2026-01-08 03:16:40.51	256.14	7.70	-39.8	-41.0	21.0	0.00e+00	12	37	0	217055232	52	6439
2026-01-08 03:16:41.52	256.28	7.73	-39.9	-41.0	21.0	0.00e+00	92	37	0	219152384	52	6459
2026-01-08 03:16:42.53	256.43	7.77	-40.0	-41.2	21.0	0.00e+00	0	37	0	221249536	52	6552
2026-01-08 03:16:43.54	256.58	7.81	-39.9	-41.1	20.8	0.00e+00	92	37	0	223346688	52	6536
2026-01-08 03:16:44.55	256.73	7.85	-39.8	-41.0	21.1	0.00e+00	21	37	0	225443840	52	6445
2026-01-08 03:16:45.55	256.88	7.88	-39.7	-40.9	21.2	0.00e+00	92	37	0	226492416	52	6322
2026-01-08 03:16:46.57	257.03	7.92	-39.7	-40.9	21.2	0.00e+00	91	37	0	228589568	52	6348
2026-01-08 03:16:47.57	257.18	7.96	-39.7	-40.8	21.3	0.00e+00	0	37	0	230686720	52	6290
2026-01-08 03:16:48.58	257.33	8.00	-39.5	-40.6	21.4	0.00e+00	91	37	0	232783872	52	6145
2026-01-08 03:16:49.59	257.48	8.03	-39.6	-40.8	21.3	0.00e+00	0	37	0	234881024	52	6263
2026-01-08 03:16:50.60	257.63	8.07	-39.7	-40.9	21.1	0.00e+00	92	37	0	235929600	52	6345
2026-01-08 03:16:51.61	257.78	8.11	-39.8	-40.9	21.1	0.00e+00	0	37	0	238026752	52	6383
2026-01-08 03:16:52.62	257.93	8.14	-39.8	-41.0	21.0	0.00e+00	92	37	0	240123904	52	6438
2026-01-08 03:16:53.63	258.09	8.18	-40.1	-41.4	20.7	0.00e+00	92	37	0	242221056	52	6700
2026-01-08 03:16:54.64	258.24	8.22	-40.3	-41.6	20.6	0.00e+00	0	37	0	244318208	52	6886
2026-01-08 03:16:55.65	258.39	8.25	-40.3	-41.5	20.6	0.00e+00	75	37	0	245366784	52	6808
2026-01-08 03:16:56.66	258.55	8.29	-40.4	-41.7	20.4	0.00e+00	0	37	0	247463936	52	6979
2026-01-08 03:16:57.67	258.70	8.33	-40.4	-41.6	20.6	0.00e+00	92	37	0	249561088	52	6904
2026-01-08 03:16:58.68	258.85	8.36	-40.3	-41.6	20.5	0.00e+00	18	37	0	251658240	52	6862
2026-01-08 03:16:59.69	259.01	8.40	-40.3	-41.5	20.6	0.00e+00	92	37	0	253755392	52	6818
2026-01-08 03:17:00.69	259.16	8.43	-40.1	-41.3	20.8	0.00e+00	92	37	0	254803968	52	6666
2026-01-08 03:17:01.70	259.32	8.47	-40.1	-41.3	20.8	0.00e+00	0	37	0	256901120	52	6623
2026-01-08 03:17:02.71	259.47	8.50	-40.2	-41.4	20.8	0.00e+00	64	37	0	258998272	52	6716
2026-01-08 03:17:03.72	259.63	8.54	-39.8	-41.0	21.1	0.00e+00	0	37	0	261095424	52	6432
2026-01-08 03:17:04.73	259.79	8.57	-39.7	-40.9	21.1	0.00e+00	92	37	0	263192576	52	6354
2026-01-08 03:17:05.74	259.94	8.61	-39.8	-41.0	21.1	0.00e+00	0	37	0	265289728	52	6429
2026-01-08 03:17:06.74	260.10	8.64	-40.0	-41.2	21.0	0.00e+00	92	37	0	266338304	52	6581
2026-01-08 03:17:07.75	260.26	8.68	-39.9	-41.1	21.0	0.00e+00	41	37	0	268435456	52	6505
2026-01-08 03:17:08.76	260.41	8.71	-40.0	-41.2	20.6	0.00e+00	0	37	0	270532608	52	6562
2026-01-08 03:17:09.77	260.57	8.75	-40.3	-41.5	20.8	0.00e+00	92	37	0	272629760	52	6812
2026-01-08 03:17:10.78	260.73	8.78	-40.3	-41.5	20.6	0.00e+00	0	37	0	274726912	52	6802
2026-01-08 03:17:11.79	260.89	8.82	-40.3	-41.5	20.7	0.00e+00	92	37	0	275775488	52	6835
2026-01-08 03:17:12.80	261.05	8.85	-40.4	-41.7	20.5	0.00e+00	0	37	0	277872640	52	6958
2026-01-08 03:17:13.81	261.21	8.89	-40.5	-41.7	20.4	0.00e+00	92	37	0	279969792	52	6997
2026-01-08 03:17:14.82	261.37	8.92	-40.6	-41.9	20.3	0.00e+00	74	37	0	282066944	52	7125
2026-01-08 03:17:15.83	261.53	8.95	-40.6	-41.8	20.4	0.00e+00	0	37	0	284164096	52	7070
2026-01-08 03:17:16.84	261.69	8.99	-40.6	-41.9	20.4	0.00e+00	92	37	0	285212672	52	7096
2026-01-08 03:17:17.85	261.85	9.02	-40.6	-41.9	20.4	0.00e+00	0	37	0	287309824	52	7148
2026-01-08 03:17:18.86	262.01	9.05	-40.6	-41.9	20.3	0.00e+00	80	37	0	289406976	52	7152
2026-01-08 03:17:19.87	262.17	9.09	-40.7	-42.0	20.3	0.00e+00	0	37	0	291504128	52	7175
2026-01-08 03:17:20.88	262.34	9.12	-40.7	-42.0	20.3	0.00e+00	92	37	0	293601280	54	6401
2026-01-08 03:17:21.89	262.50	9.15	-40.7	-42.0	20.2	0.00e+00	38	37	0	294649856	54	6449
2026-01-08 03:17:22.90	262.66	9.19	-40.7	-42.0	20.2	0.00e+00	91	37	0	296747008	54	6455
2026-01-08 03:17:23.91	262.83	9.22	-40.8	-42.2	20.1	0.00e+00	92	37	0	298844160	54	6548
2026-01-08 03:17:24.92	262.99	9.25	-40.5	-41.8	20.3	0.00e+00	0	37	0	300941312	54	6250
2026-01-08 03:17:25.93	263.15	9.28	-40.5	-41.7	20.4	0.00e+00	90	37	0	303038464	54	6228
2026-01-08 03:17:26.94	263.32	9.31	-40.2	-41.4	20.6	0.00e+00	0	37	0	304087040	54	6008
2026-01-08 03:17:27.95	263.48	9.35	-40.3	-41.5	20.6	0.00e+00	92	37	0	306184192	54	6071
2026-01-08 03:17:28.96	263.65	9.38	-40.1	-41.4	20.8	0.00e+00	17	37	0	308281344	54	5974
2026-01-08 03:17:29.97	263.81	9.41	-40.2	-41.4	20.8	0.00e+00	92	37	0	310378496	54	6025
2026-01-08 03:17:30.98	263.98	9.44	-39.9	-41.1	21.0	0.00e+00	92	37	0	312475648	54	5803
2026-01-08 03:17:31.99	264.14	9.47	-39.9	-41.1	21.1	0.00e+00	0	37	0	313524224	54	5769
2026-01-08 03:17:33.00	264.31	9.50	-39.9	-41.1	21.0	0.00e+00	92	37	0	315621376	52	6479
2026-01-08 03:17:34.01	264.48	9.53	-41.3	-42.7	20.4	0.00e+00	0	37	0	317718528	54	7004
2026-01-08 03:17:35.01	264.64	9.56	-40.1	-41.3	21.0	0.00e+00	62	37	0	319815680	54	5912
2026-01-08 03:17:36.03	264.81	9.59	-40.3	-41.5	20.9	0.00e+00	0	37	0	321912832	54	6068
2026-01-08 03:17:37.04	264.98	9.63	-40.2	-41.4	20.8	0.00e+00	92	37	0	322961408	54	5982
2026-01-08 03:17:38.05	265.15	9.66	-40.2	-41.4	20.8	0.00e+00	82	37	0	325058560	54	5996
2026-01-08 03:17:39.06	265.32	9.69	-40.2	-41.5	20.7	0.00e+00	0	37	0	327155712	54	6057
2026-01-08 03:17:40.07	265.48	9.71	-40.3	-41.5	20.7	0.00e+00	92	37	0	329252864	54	6084
2026-01-08 03:17:41.08	265.65	9.74	-40.3	-41.5	20.6	0.00e+00	0	37	0	331350016	54	6059
2026-01-08 03:17:42.09	265.82	9.77	-40.3	-41.5	20.7	0.00e+00	92	37	0	333447168	54	6100
2026-01-08 03:17:43.10	265.99	9.80	-39.9	-41.0	21.1	0.00e+00	0	37	0	334495744	54	5760
2026-01-08 03:17:44.10	266.16	9.83	-39.7	-40.9	21.2	0.00e+00	92	37	0	336592896	52	6336
2026-01-08 03:17:45.12	266.33	9.86	-39.5	-40.6	21.4	0.00e+00	92	37	0	338690048	52	6162
2026-01-08 03:17:46.13	266.50	9.89	-39.3	-40.3	21.7	0.00e+00	0	37	0	340787200	52	5955
2026-01-08 03:17:47.14	266.67	9.92	-39.2	-40.3	21.7	0.00e+00	90	37	0	342884352	52	5941
2026-01-08 03:17:48.15	266.85	9.95	-39.4	-40.5	21.6	0.00e+00	22	37	0	343932928	52	6048
2026-01-08 03:17:49.16	267.02	9.97	-39.5	-40.6	21.4	0.00e+00	92	37	0	346030080	52	6152
2026-01-08 03:17:50.16	267.19	10.00	-39.8	-40.9	21.2	0.00e+00	0	37	0	348127232	52	6368
2026-01-08 03:17:51.17	267.36	10.03	-40.0	-41.2	21.0	0.00e+00	92	37	0	350224384	52	6561
2026-01-08 03:17:52.18	267.53	10.06	-40.0	-41.2	21.0	0.00e+00	92	37	0	352321536	52	6596
2026-01-08 03:17:53.19	267.71	10.08	-40.1	-41.3	20.9	0.00e+00	13	37	0	353370112	52	6632
2026-01-08 03:17:54.20	267.88	10.11	-40.2	-41.4	20.9	0.00e+00	87	37	0	355467264	52	6724
2026-01-08 03:17:55.21	268.05	10.14	-40.0	-41.1	21.0	0.00e+00	0	38	0	357564416	52	6524
2026-01-08 03:17:56.22	268.23	10.17	-39.9	-41.0	21.1	0.00e+00	75	37	0	359661568	52	6463
2026-01-08 03:17:57.23	268.40	10.19	-39.9	-41.0	21.1	0.00e+00	0	37	0	361758720	52	6446
2026-01-08 03:17:58.24	268.57	10.22	-39.8	-40.9	21.3	0.00e+00	91	37	0	362807296	52	6371
2026-01-08 03:17:59.25	268.75	10.24	-39.9	-41.0	21.1	0.00e+00	90	37	0	364904448	52	6452
2026-01-08 03:18:00.26	268.92	10.27	-39.9	-41.1	20.8	0.00e+00	91	37	0	367001600	52	6480
2026-01-08 03:18:01.27	269.10	10.30	-39.8	-41.0	21.2	0.00e+00	91	37	0	369098752	52	6421
2026-01-08 03:18:02.28	269.28	10.32	-39.7	-40.9	21.2	0.00e+00	0	37	0	371195904	52	6324
2026-01-08 03:18:03.28	269.45	10.35	-39.7	-40.8	21.3	0.00e+00	92	37	0	372244480	52	6284
2026-01-08 03:18:04.29	269.63	10.37	-39.5	-40.6	21.5	0.00e+00	0	37	0	374341632	52	6114
2026-01-08 03:18:05.30	269.80	10.40	-39.6	-40.7	21.3	0.00e+00	92	37	0	376438784	52	6237
2026-01-08 03:18:06.31	269.98	10.42	-39.8	-41.0	21.2	0.00e+00	0	37	0	378535936	52	6406
2026-01-08 03:18:07.32	270.16	10.45	-39.9	-41.0	21.2	0.00e+00	92	37	0	380633088	52	6428
2026-01-08 03:18:08.33	270.33	10.47	-39.4	-40.4	21.7	0.00e+00	92	37	0	381681664	52	6030
2026-01-08 03:18:09.34	270.51	10.49	-39.4	-40.5	21.6	0.00e+00	0	37	0	383778816	52	6082
2026-01-08 03:18:10.35	270.69	10.52	-39.3	-40.3	21.7	0.00e+00	92	37	0	385875968	52	5950
2026-01-08 03:18:11.36	270.87	10.54	-39.6	-40.7	21.5	0.00e+00	0	37	0	387973120	52	6205
2026-01-08 03:18:12.37	271.05	10.56	-39.6	-40.7	21.3	0.00e+00	92	37	0	390070272	52	6232
2026-01-08 03:18:13.38	271.22	10.59	-39.9	-41.0	21.0	0.00e+00	11	37	0	391118848	52	6457
2026-01-08 03:18:14.39	271.40	10.61	-40.1	-41.3	20.8	0.00e+00	93	38	0	393216000	52	6679
2026-01-08 03:18:15.40	271.58	10.63	-40.3	-41.5	20.7	0.00e+00	92	37	0	395313152	52	6846
2026-01-08 03:18:16.41	271.76	10.66	-40.6	-41.8	20.4	0.00e+00	0	37	0	397410304	52	7065
2026-01-08 03:18:17.42	271.94	10.68	-40.4	-41.6	20.6	0.00e+00	92	37	0	399507456	52	6884
2026-01-08 03:18:18.43	272.12	10.70	-40.1	-41.3	20.9	0.00e+00	0	37	0	401604608	52	6617
2026-01-08 03:18:19.44	272.30	10.72	-39.9	-41.1	21.1	0.00e+00	92	37	0	402653184	52	6468
2026-01-08 03:18:20.45	272.48	10.74	-39.7	-40.8	21.4	0.00e+00	0	37	0	404750336	52	6283
2026-01-08 03:18:21.46	272.66	10.76	-39.4	-40.5	21.7	0.00e+00	90	37	0	406847488	52	6086
2026-01-08 03:18:22.47	272.84	10.78	-39.3	-40.3	21.7	0.00e+00	92	38	0	408944640	52	5948
2026-01-08 03:18:23.48	273.03	10.81	-39.4	-40.5	21.5	0.00e+00	0	37	0	411041792	52	6088
2026-01-08 03:18:24.49	273.21	10.83	-39.8	-40.9	21.2	0.00e+00	29	37	0	412090368	52	6364
2026-01-08 03:18:25.50	273.39	10.85	-39.8	-40.9	21.2	0.00e+00	0	37	0	414187520	52	6374
2026-01-08 03:18:26.51	273.57	10.87	-39.8	-41.0	21.2	0.00e+00	92	37	0	416284672	52	6398
2026-01-08 03:18:27.52	273.75	10.89	-39.6	-40.8	21.5	0.00e+00	0	37	0	418381824	52	6246
2026-01-08 03:18:28.53	273.94	10.91	-39.5	-40.6	21.5	0.00e+00	92	38	0	420478976	52	6151
2026-01-08 03:18:29.54	274.12	10.93	-39.2	-40.2	21.9	0.00e+00	20	38	0	421527552	52	5861
2026-01-08 03:18:30.55	274.30	10.94	-38.8	-39.8	22.2	0.00e+00	0	37	0	423624704	52	5594
2026-01-08 03:18:31.56	274.48	10.96	-38.6	-39.5	22.4	0.00e+00	92	38	0	425721856	50	6100
2026-01-08 03:18:32.57	274.67	10.98	-38.6	-39.6	22.1	0.00e+00	11	38	0	427819008	50	6156
2026-01-08 03:18:33.58	274.85	11.00	-38.8	-39.8	22.1	0.00e+00	91	37	0	429916160	50	6262
2026-01-08 03:18:34.59	275.04	11.02	-39.0	-40.0	21.9	0.00e+00	0	37	0	430964736	50	6450
2026-01-08 03:18:35.60	275.22	11.04	-39.3	-40.4	21.6	0.00e+00	92	37	0	433061888	50	6754
2026-01-08 03:18:36.61	275.40	11.05	-39.6	-40.7	21.3	0.00e+00	24	37	0	435159040	50	6973
2026-01-08 03:18:37.62	275.59	11.07	-39.8	-40.9	21.4	0.00e+00	92	37	0	437256192	52	6366
2026-01-08 03:18:38.63	275.77	11.09	-39.8	-41.0	21.2	0.00e+00	90	37	0	439353344	52	6419
2026-01-08 03:18:39.64	275.96	11.11	-39.5	-40.6	21.5	0.00e+00	0	37	0	440401920	52	6144
2026-01-08 03:18:40.65	276.14	11.12	-39.4	-40.5	21.6	0.00e+00	47	37	0	442499072	52	6067
2026-01-08 03:18:41.66	276.33	11.14	-39.3	-40.4	21.7	0.00e+00	0	37	0	444596224	52	6008
2026-01-08 03:18:42.66	276.51	11.15	-39.5	-40.7	21.5	0.00e+00	57	37	0	446693376	52	6176
2026-01-08 03:18:43.67	276.70	11.17	-40.0	-41.2	21.0	0.00e+00	0	37	0	448790528	52	6595
2026-01-08 03:18:44.68	276.88	11.19	-40.3	-41.5	20.6	0.00e+00	29	37	0	449839104	52	6825
2026-01-08 03:18:45.69	277.07	11.20	-40.7	-41.9	20.3	0.00e+00	92	37	0	451936256	52	7169
2026-01-08 03:18:46.70	277.26	11.22	-40.9	-42.2	20.1	0.00e+00	0	37	0	454033408	54	6585
2026-01-08 03:18:47.71	277.44	11.23	-40.7	-41.9	20.3	0.00e+00	92	37	0	456130560	54	6386
2026-01-08 03:18:48.72	277.63	11.25	-40.4	-41.6	20.7	0.00e+00	0	37	0	458227712	54	6150
2026-01-08 03:18:49.73	277.82	11.26	-40.2	-41.4	20.9	0.00e+00	90	37	0	459276288	54	6001
2026-01-08 03:18:50.74	278.00	11.27	-39.9	-41.1	21.1	0.00e+00	0	37	0	461373440	54	5779
2026-01-08 03:18:51.75	278.19	11.29	-39.5	-40.5	21.6	0.00e+00	92	37	0	463470592	52	6099
2026-01-08 03:18:52.76	278.38	11.30	-39.7	-40.8	21.3	0.00e+00	92	37	0	465567744	52	6275
2026-01-08 03:18:53.76	278.56	11.31	-39.8	-41.0	21.2	0.00e+00	0	37	0	467664896	52	6419
2026-01-08 03:18:54.77	278.75	11.33	-40.1	-41.3	20.9	0.00e+00	92	37	0	468713472	52	6658
2026-01-08 03:18:55.78	278.94	11.34	-40.6	-41.9	20.4	0.00e+00	0	37	0	470810624	52	7102
2026-01-08 03:18:56.79	279.13	11.35	-40.6	-41.8	20.4	0.00e+00	92	37	0	472907776	52	7060
2026-01-08 03:18:57.80	279.31	11.36	-40.6	-41.8	20.5	0.00e+00	0	37	0	475004928	52	7082
2026-01-08 03:18:58.81	279.50	11.38	-40.5	-41.7	20.5	0.00e+00	92	38	0	477102080	52	6984
2026-01-08 03:18:59.82	279.69	11.39	-40.3	-41.5	20.7	0.00e+00	91	37	0	478150656	52	6819
2026-01-08 03:19:00.83	279.88	11.40	-40.3	-41.5	20.6	0.00e+00	0	37	0	480247808	52	6848
2026-01-08 03:19:01.84	280.07	11.41	-40.6	-41.8	20.3	0.00e+00	92	37	0	482344960	52	7088
2026-01-08 03:19:02.85	280.26	11.42	-41.0	-42.4	19.8	0.00e+00	0	37	0	484442112	54	6744
2026-01-08 03:19:03.86	280.45	11.43	-41.2	-42.7	19.6	0.00e+00	56	37	0	486539264	54	6930
2026-01-08 03:19:04.87	280.63	11.44	-41.8	-43.3	19.0	0.00e+00	0	37	0	487587840	54	7494
2026-01-08 03:19:05.88	280.82	11.45	-42.1	-43.7	18.8	0.00e+00	92	37	0	489684992	56	6939
2026-01-08 03:19:06.89	281.01	11.46	-42.1	-43.7	18.9	0.00e+00	92	37	0	491782144	56	6955
2026-01-08 03:19:07.90	281.20	11.47	-41.7	-43.2	19.3	0.00e+00	0	37	0	493879296	56	6601
2026-01-08 03:19:08.91	281.39	11.48	-41.3	-42.8	19.8	0.00e+00	92	37	0	495976448	56	6247
2026-01-08 03:19:09.92	281.58	11.49	-41.0	-42.3	20.2	0.00e+00	0	37	0	498073600	56	5936
2026-01-08 03:19:10.93	281.77	11.50	-40.8	-42.1	20.3	0.00e+00	70	37	0	499122176	56	5779
2026-01-08 03:19:11.94	281.96	11.51	-40.3	-41.6	20.6	0.00e+00	0	37	0	501219328	54	6110
2026-01-08 03:19:12.95	282.15	11.52	-40.3	-41.5	20.6	0.00e+00	92	38	0	503316480	54	6100
2026-01-08 03:19:13.96	282.34	11.52	-40.5	-41.7	20.5	0.00e+00	26	37	0	505413632	54	6229
2026-01-08 03:19:14.97	282.53	11.53	-40.3	-41.6	20.6	0.00e+00	62	37	0	507510784	54	6121
2026-01-08 03:19:15.98	282.72	11.54	-40.3	-41.5	20.7	0.00e+00	92	37	0	508559360	54	6079
2026-01-08 03:19:16.99	282.91	11.54	-40.4	-41.6	20.6	0.00e+00	0	37	0	510656512	54	6134
2026-01-08 03:19:17.99	283.10	11.55	-40.1	-41.3	20.9	0.00e+00	92	37	0	512753664	54	5931
2026-01-08 03:19:19.00	283.29	11.56	-39.8	-41.0	21.2	0.00e+00	0	37	0	514850816	54	5709
2026-01-08 03:19:20.01	283.48	11.56	-39.7	-40.8	21.3	0.00e+00	77	37	0	516947968	52	6300
2026-01-08 03:19:21.02	283.67	11.57	-39.6	-40.8	21.4	0.00e+00	0	37	0	517996544	52	6252
2026-01-08 03:19:22.03	283.86	11.58	-39.5	-40.6	21.6	0.00e+00	29	37	0	520093696	52	6118
2026-01-08 03:19:23.04	284.05	11.58	-39.4	-40.5	21.6	0.00e+00	92	37	0	522190848	52	6037
2026-01-08 03:19:24.05	284.24	11.59	-39.3	-40.4	21.6	0.00e+00	0	37	0	524288000	52	6016
2026-01-08 03:19:25.06	284.43	11.59	-39.4	-40.6	21.6	0.00e+00	82	37	0	526385152	52	6106
2026-01-08 03:19:26.07	284.63	11.59	-39.3	-40.4	21.8	0.00e+00	0	37	0	527433728	52	5995
2026-01-08 03:19:27.08	284.82	11.60	-39.3	-40.4	21.7	0.00e+00	87	37	0	529530880	52	5966
2026-01-08 03:19:28.09	285.01	11.60	-39.1	-40.2	21.8	0.00e+00	23	37	0	531628032	52	5875
2026-01-08 03:19:29.10	285.20	11.61	-38.8	-39.9	22.1	7.00e-07	92	37	0	533725184	52	5644
2026-01-08 03:19:30.11	285.39	11.61	-38.8	-39.8	22.2	0.00e+00	82	37	0	535822336	52	5628
2026-01-08 03:19:31.12	285.58	11.61	-38.9	-39.9	22.1	0.00e+00	0	37	0	536870912	52	5682
2026-01-08 03:19:32.13	285.77	11.62	-38.8	-39.9	22.0	0.00e+00	92	37	0	538968064	52	5639
2026-01-08 03:19:33.14	285.96	11.62	-39.0	-40.1	22.0	0.00e+00	0	37	0	541065216	52	5786
2026-01-08 03:19:34.15	286.15	11.62	-39.1	-40.2	21.8	0.00e+00	92	37	0	543162368	52	5851
2026-01-08 03:19:35.16	286.35	11.62	-39.3	-40.3	21.8	0.00e+00	23	37	0	545259520	52	5952
2026-01-08 03:19:36.17	286.54	11.62	-39.2	-40.3	21.7	0.00e+00	92	37	0	546308096	52	5917
2026-01-08 03:19:37.18	286.73	11.62	-39.2	-40.3	21.8	0.00e+00	90	37	0	548405248	52	5932
2026-01-08 03:19:38.19	286.92	11.63	-39.2	-40.2	21.9	0.00e+00	9	37	0	550502400	52	5876
2026-01-08 03:19:39.20	287.11	11.63	-39.1	-40.1	21.8	0.00e+00	20	37	0	552599552	52	5805
2026-01-08 03:19:40.21	287.30	11.63	-39.0	-40.0	22.1	0.00e+00	0	37	0	554696704	52	5719
2026-01-08 03:19:41.22	287.49	11.63	-39.0	-40.1	21.9	0.00e+00	90	37	0	555745280	52	5787
2026-01-08 03:19:42.23	287.68	11.63	-39.1	-40.2	21.9	0.00e+00	0	37	0	557842432	52	5833
2026-01-08 03:19:43.24	287.88	11.63	-39.2	-40.3	21.8	0.00e+00	90	37	0	559939584	52	5897
2026-01-08 03:19:44.24	288.06	11.63	-39.2	-40.3	21.8	0.00e+00	91	37	0	562036736	52	5948
2026-01-08 03:19:45.25	288.26	11.62	-39.1	-40.2	21.8	0.00e+00	0	37	0	564133888	52	5852
2026-01-08 03:19:46.26	288.45	11.62	-39.1	-40.2	21.9	0.00e+00	90	37	0	566231040	52	5843
2026-01-08 03:19:47.27	288.64	11.62	-39.0	-40.1	22.0	0.00e+00	0	37	0	567279616	52	5764
2026-01-08 03:19:48.28	288.83	11.62	-38.9	-39.9	22.2	0.00e+00	85	37	0	569376768	52	5683
2026-01-08 03:19:49.29	289.02	11.62	-38.7	-39.8	22.2	0.00e+00	0	37	0	571473920	50	6263
2026-01-08 03:19:50.30	289.21	11.62	-38.6	-39.6	22.2	0.00e+00	92	37	0	573571072	50	6165
2026-01-08 03:19:51.31	289.40	11.61	-38.7	-39.7	22.3	0.00e+00	0	37	0	575668224	50	6225
2026-01-08 03:19:52.32	289.59	11.61	-38.9	-39.9	22.1	0.00e+00	40	37	0	576716800	50	6365
2026-01-08 03:19:53.33	289.78	11.61	-38.9	-40.0	22.0	0.00e+00	92	37	0	578813952	50	6412
2026-01-08 03:19:54.34	289.98	11.60	-38.8	-39.8	22.2	0.00e+00	0	37	0	580911104	50	6297
2026-01-08 03:19:55.35	290.17	11.60	-38.6	-39.6	22.3	0.00e+00	47	37	0	583008256	50	6163
2026-01-08 03:19:56.36	290.36	11.60	-38.5	-39.5	22.4	0.00e+00	0	37	0	585105408	50	6076
2026-01-08 03:19:57.37	290.55	11.59	-38.4	-39.4	22.4	0.00e+00	92	37	0	586153984	50	5966
2026-01-08 03:19:58.38	290.74	11.59	-38.5	-39.4	22.5	0.00e+00	19	37	0	588251136	50	6029
2026-01-08 03:19:59.38	290.93	11.58	-38.5	-39.5	21.9	0.00e+00	52	37	0	590348288	50	6053
2026-01-08 03:20:00.39	291.12	11.58	-38.7	-39.7	22.3	0.00e+00	92	37	0	592445440	50	6205
2026-01-08 03:20:01.40	291.31	11.57	-38.8	-39.8	22.0	0.00e+00	0	37	0	594542592	50	6314
2026-01-08 03:20:02.41	291.50	11.57	-38.9	-39.9	22.1	0.00e+00	46	37	0	595591168	50	6379
2026-01-08 03:20:03.42	291.69	11.56	-39.1	-40.2	21.7	0.00e+00	0	37	0	597688320	50	6558
2026-01-08 03:20:04.43	291.88	11.55	-39.2	-40.3	21.7	0.00e+00	92	37	0	599785472	50	6648
2026-01-08 03:20:05.44	292.07	11.55	-38.9	-39.9	22.1	0.00e+00	0	37	0	601882624	50	6375
2026-01-08 03:20:06.45	292.26	11.54	-38.7	-39.7	22.2	0.00e+00	92	37	0	603979776	50	6209
2026-01-08 03:20:07.46	292.45	11.53	-38.6	-39.6	22.4	0.00e+00	55	37	0	605028352	50	6111
2026-01-08 03:20:08.47	292.64	11.52	-38.3	-39.3	22.6	0.00e+00	0	37	0	607125504	50	5944
2026-01-08 03:20:09.48	292.83	11.52	-38.4	-39.4	22.5	0.00e+00	92	37	0	609222656	50	5967
2026-01-08 03:20:10.49	293.02	11.51	-38.2	-39.2	22.6	0.00e+00	0	37	0	611319808	50	5887
2026-01-08 03:20:11.50	293.21	11.50	-38.2	-39.2	22.5	0.00e+00	79	37	0	613416960	50	5876
2026-01-08 03:20:12.51	293.40	11.49	-38.4	-39.4	22.5	0.00e+00	0	37	0	614465536	50	6016
2026-01-08 03:20:13.52	293.59	11.48	-38.3	-39.4	22.4	0.00e+00	90	37	0	616562688	50	5966
2026-01-08 03:20:14.53	293.78	11.47	-38.5	-39.5	22.4	0.00e+00	92	38	0	618659840	50	6069
2026-01-08 03:20:15.54	293.97	11.46	-38.5	-39.5	22.4	0.00e+00	0	37	0	620756992	50	6068
2026-01-08 03:20:16.54	294.15	11.46	-38.5	-39.5	22.5	0.00e+00	91	37	0	622854144	50	6071
2026-01-08 03:20:17.55	294.34	11.45	-38.3	-39.3	22.6	0.00e+00	0	37	0	623902720	50	5934
2026-01-08 03:20:18.56	294.53	11.44	-38.0	-38.9	22.8	0.00e+00	69	37	0	625999872	50	5691
2026-01-08 03:20:19.57	294.72	11.42	-37.8	-38.8	23.0	0.00e+00	0	37	0	628097024	48	6249
2026-01-08 03:20:20.58	294.91	11.41	-37.9	-38.8	22.9	0.00e+00	90	38	0	630194176	48	6268
2026-01-08 03:20:21.59	295.10	11.40	-37.9	-38.9	22.9	0.00e+00	70	37	0	632291328	48	6332
2026-01-08 03:20:22.60	295.29	11.39	-38.1	-39.1	22.8	0.00e+00	0	38	0	634388480	48	6483
2026-01-08 03:20:23.61	295.47	11.38	-38.3	-39.3	22.5	0.00e+00	45	37	0	635437056	48	6665
2026-01-08 03:20:24.62	295.66	11.37	-38.3	-39.3	22.5	0.00e+00	0	37	0	637534208	48	6668
2026-01-08 03:20:25.63	295.85	11.36	-38.2	-39.2	22.7	0.00e+00	74	37	0	639631360	48	6552
2026-01-08 03:20:26.64	296.04	11.34	-38.1	-39.1	22.8	0.00e+00	0	37	0	641728512	48	6506
2026-01-08 03:20:27.65	296.23	11.33	-37.8	-38.8	23.0	0.00e+00	92	37	0	643825664	48	6263
2026-01-08 03:20:28.66	296.41	11.32	-37.7	-38.6	23.0	0.00e+00	23	38	0	644874240	48	6118
2026-01-08 03:20:29.67	296.60	11.31	-37.5	-38.4	23.2	0.00e+00	22	37	0	646971392	48	6027
2026-01-08 03:20:30.68	296.79	11.29	-37.7	-38.6	23.2	0.00e+00	92	37	0	649068544	48	6115
2026-01-08 03:20:31.69	296.97	11.28	-37.5	-38.4	23.3	0.00e+00	0	37	0	651165696	48	5985
2026-01-08 03:20:32.69	297.16	11.26	-37.6	-38.5	23.0	0.00e+00	79	38	0	653262848	48	6100
2026-01-08 03:20:33.70	297.34	11.25	-38.0	-39.0	22.9	0.00e+00	0	37	0	654311424	48	6420
2026-01-08 03:20:34.71	297.53	11.24	-38.0	-38.9	22.9	0.00e+00	82	37	0	656408576	48	6387
2026-01-08 03:20:35.72	297.72	11.22	-38.1	-39.1	22.7	0.00e+00	0	38	0	658505728	48	6487
2026-01-08 03:20:36.73	297.90	11.21	-38.2	-39.1	22.7	0.00e+00	0	37	0	660602880	48	6539
2026-01-08 03:20:37.74	298.09	11.19	-38.2	-39.2	22.7	0.00e+00	92	37	0	662700032	48	6544
2026-01-08 03:20:38.75	298.27	11.18	-38.1	-39.1	22.8	0.00e+00	0	37	0	663748608	48	6484
2026-01-08 03:20:39.76	298.46	11.16	-37.8	-38.8	23.0	0.00e+00	22	37	0	665845760	48	6257
2026-01-08 03:20:40.77	298.64	11.14	-37.8	-38.8	23.0	0.00e+00	0	38	0	667942912	48	6263
2026-01-08 03:20:41.79	298.83	11.13	-37.8	-38.8	23.1	0.00e+00	92	37	0	670040064	48	6249
2026-01-08 03:20:42.79	299.01	11.11	-37.8	-38.8	23.0	0.00e+00	9	37	0	672137216	48	6250
2026-01-08 03:20:43.80	299.20	11.09	-37.8	-38.7	22.8	0.00e+00	0	37	0	673185792	48	6199
2026-01-08 03:20:44.81	299.38	11.08	-37.9	-38.8	22.9	0.00e+00	92	37	0	675282944	48	6300
2026-01-08 03:20:45.82	299.57	11.06	-37.9	-38.8	22.9	0.00e+00	0	37	0	677380096	48	6289
2026-01-08 03:20:46.83	299.75	11.04	-37.9	-38.9	22.9	0.00e+00	92	37	0	679477248	48	6339
2026-01-08 03:20:47.84	299.94	11.02	-38.0	-39.0	22.7	0.00e+00	0	37	0	681574400	48	6440
2026-01-08 03:20:48.85	300.12	11.01	-38.1	-39.1	22.8	0.00e+00	92	37	0	682622976	48	6478
2026-01-08 03:20:49.86	300.30	10.99	-38.1	-39.1	22.7	0.00e+00	0	37	0	684720128	48	6510
2026-01-08 03:20:50.87	300.48	10.97	-38.2	-39.1	22.7	0.00e+00	73	37	0	686817280	48	6532
2026-01-08 03:20:51.88	300.67	10.95	-38.3	-39.3	22.5	0.00e+00	92	37	0	688914432	48	6651
2026-01-08 03:20:52.89	300.85	10.93	-38.3	-39.3	22.6	1.50e-06	0	37	0	691011584	48	6630
2026-01-08 03:20:53.90	301.03	10.91	-38.3	-39.3	22.6	0.00e+00	47	37	0	692060160	48	6678
2026-01-08 03:20:54.90	301.21	10.89	-38.4	-39.4	22.5	0.00e+00	0	37	0	694157312	48	6708
2026-01-08 03:20:55.92	301.40	10.87	-38.5	-39.5	22.5	0.00e+00	61	37	0	696254464	48	6776
2026-01-08 03:20:56.92	301.58	10.85	-38.6	-39.6	22.3	0.00e+00	0	37	0	698351616	48	6902
2026-01-08 03:20:57.93	301.76	10.83	-38.8	-39.8	22.2	0.00e+00	68	37	0	700448768	48	7056
2026-01-08 03:20:58.94	301.94	10.81	-38.8	-39.9	22.1	0.00e+00	25	37	0	702545920	50	6321
2026-01-08 03:20:59.95	302.12	10.79	-38.8	-39.9	22.1	0.00e+00	0	37	0	703594496	50	6322
2026-01-08 03:21:00.96	302.30	10.77	-38.4	-39.4	22.6	0.00e+00	38	37	0	705691648	50	6025
2026-01-08 03:21:01.97	302.48	10.75	-38.2	-39.2	22.7	0.00e+00	0	37	0	707788800	50	5873
2026-01-08 03:21:02.98	302.66	10.73	-38.2	-39.2	22.8	0.00e+00	92	37	0	709885952	50	5840
2026-01-08 03:21:03.99	302.84	10.71	-37.9	-38.9	22.9	0.00e+00	0	37	0	711983104	50	5655
2026-01-08 03:21:05.00	303.02	10.69	-37.7	-38.7	23.1	0.00e+00	44	38	0	713031680	50	5507
2026-01-08 03:21:06.01	303.20	10.66	-37.7	-38.6	23.1	0.00e+00	0	38	0	715128832	48	6146
2026-01-08 03:21:07.02	303.38	10.64	-37.7	-38.6	23.1	0.00e+00	0	37	0	717225984	48	6140
2026-01-08 03:21:08.03	303.56	10.62	-37.5	-38.4	23.3	0.00e+00	57	37	0	719323136	48	5998
2026-01-08 03:21:09.04	303.74	10.60	-37.6	-38.5	23.2	0.00e+00	0	37	0	721420288	48	6051
2026-01-08 03:21:10.05	303.91	10.57	-37.3	-38.2	23.4	0.00e+00	81	37	0	722468864	48	5869
2026-01-08 03:21:11.06	304.09	10.55	-37.3	-38.2	23.5	0.00e+00	0	37	0	724566016	48	5830
2026-01-08 03:21:12.07	304.27	10.53	-37.1	-38.0	23.6	0.00e+00	69	37	0	726663168	48	5696
2026-01-08 03:21:13.08	304.45	10.50	-36.9	-37.8	23.8	0.00e+00	22	37	0	728760320	48	5595
2026-01-08 03:21:14.08	304.62	10.48	-36.9	-37.7	23.6	0.00e+00	22	37	0	730857472	48	5551
2026-01-08 03:21:15.09	304.80	10.46	-37.1	-37.9	23.6	0.00e+00	80	37	0	731906048	48	5693
2026-01-08 03:21:16.10	304.98	10.43	-37.0	-37.8	23.6	0.00e+00	0	37	0	734003200	48	5629
2026-01-08 03:21:17.11	305.15	10.41	-37.1	-38.0	23.5	0.00e+00	84	37	0	736100352	48	5702
2026-01-08 03:21:18.12	305.33	10.38	-37.4	-38.3	23.2	0.00e+00	0	37	0	738197504	48	5933
2026-01-08 03:21:19.13	305.50	10.36	-37.5	-38.4	23.3	0.00e+00	92	37	0	740294656	48	6028
2026-01-08 03:21:20.14	305.68	10.33	-37.5	-38.4	23.2	0.00e+00	0	37	0	741343232	48	6029
2026-01-08 03:21:21.15	305.85	10.31	-37.7	-38.6	23.1	0.00e+00	8	37	0	743440384	48	6141
2026-01-08 03:21:22.16	306.03	10.28	-37.7	-38.7	23.0	0.00e+00	75	37	0	745537536	48	6190
2026-01-08 03:21:23.17	306.20	10.26	-37.8	-38.7	22.9	0.00e+00	0	37	0	747634688	48	6238
2026-01-08 03:21:24.18	306.38	10.23	-37.6	-38.5	23.0	0.00e+00	43	37	0	749731840	48	6061
2026-01-08 03:21:25.19	306.55	10.20	-37.7	-38.6	23.1	0.00e+00	0	37	0	750780416	48	6150
2026-01-08 03:21:26.20	306.73	10.18	-37.7	-38.6	23.1	0.00e+00	92	37	0	752877568	48	6125
2026-01-08 03:21:27.21	306.90	10.15	-37.5	-38.4	23.3	0.00e+00	0	37	0	754974720	48	6003
2026-01-08 03:21:28.22	307.07	10.12	-37.5	-38.5	23.1	0.00e+00	4	37	0	757071872	48	6044
2026-01-08 03:21:29.23	307.24	10.10	-37.6	-38.4	23.3	0.00e+00	92	37	0	759169024	48	6031
2026-01-08 03:21:30.24	307.42	10.07	-37.5	-38.4	23.2	0.00e+00	0	37	0	760217600	48	5980
2026-01-08 03:21:31.25	307.59	10.04	-37.6	-38.5	23.3	0.00e+00	31	38	0	762314752	48	6034
2026-01-08 03:21:32.26	307.76	10.02	-37.6	-38.5	23.1	0.00e+00	0	38	0	764411904	48	6046
2026-01-08 03:21:33.26	307.93	9.99	-37.8	-38.8	22.8	0.00e+00	92	37	0	766509056	48	6258
2026-01-08 03:21:34.27	308.10	9.96	-38.0	-38.9	22.9	0.00e+00	0	37	0	768606208	48	6358
2026-01-08 03:21:35.28	308.27	9.93	-37.8	-38.7	22.9	0.00e+00	70	37	0	770703360	48	6228
2026-01-08 03:21:36.29	308.44	9.90	-37.5	-38.4	23.1	0.00e+00	24	37	0	771751936	48	6003
2026-01-08 03:21:37.30	308.61	9.88	-37.3	-38.2	23.2	0.00e+00	0	37	0	773849088	48	5896
2026-01-08 03:21:38.31	308.78	9.85	-37.3	-38.2	23.4	0.00e+00	92	37	0	775946240	48	5855
2026-01-08 03:21:39.32	308.95	9.82	-36.9	-37.8	23.7	0.00e+00	0	37	0	778043392	48	5592
2026-01-08 03:21:40.33	309.12	9.79	-37.1	-37.9	23.4	0.00e+00	69	37	0	780140544	48	5689
2026-01-08 03:21:41.34	309.29	9.76	-37.2	-38.1	23.3	0.00e+00	0	37	0	781189120	48	5798
2026-01-08 03:21:42.34	309.46	9.73	-37.3	-38.2	23.3	0.00e+00	72	38	0	783286272	48	5851
2026-01-08 03:21:43.35	309.63	9.70	-37.4	-38.3	23.2	0.00e+00	25	37	0	785383424	48	5944
2026-01-08 03:21:44.36	309.79	9.67	-37.5	-38.5	22.9	0.00e+00	0	37	0	787480576	48	6051
2026-01-08 03:21:45.37	309.96	9.64	-37.7	-38.6	22.9	0.00e+00	92	37	0	788529152	48	6140
2026-01-08 03:21:46.38	310.13	9.61	-37.6	-38.5	23.0	0.00e+00	0	37	0	790626304	48	6067
2026-01-08 03:21:47.39	310.30	9.58	-37.6	-38.6	23.0	0.00e+00	73	37	0	792723456	48	6118
2026-01-08 03:21:48.40	310.46	9.55	-37.7	-38.6	22.6	0.00e+00	0	37	0	794820608	48	6148
2026-01-08 03:21:49.41	310.63	9.52	-37.7	-38.6	22.9	0.00e+00	57	37	0	796917760	48	6152
2026-01-08 03:21:50.42	310.79	9.49	-38.0	-39.0	22.7	0.00e+00	0	37	0	799014912	48	6396
2026-01-08 03:21:51.43	310.96	9.46	-38.0	-39.0	22.7	0.00e+00	0	37	0	800063488	48	6393
2026-01-08 03:21:52.44	311.12	9.43	-38.0	-38.9	22.7	0.00e+00	90	37	0	802160640	48	6386
2026-01-08 03:21:53.45	311.29	9.40	-38.0	-39.0	22.5	0.00e+00	0	37	0	804257792	48	6404
2026-01-08 03:21:54.46	311.45	9.37	-38.0	-39.0	22.6	0.00e+00	17	37	0	806354944	48	6423
2026-01-08 03:21:55.46	311.62	9.33	-38.2	-39.2	22.4	0.00e+00	0	37	0	808452096	48	6610
2026-01-08 03:21:56.47	311.78	9.30	-38.5	-39.6	22.1	0.00e+00	92	37	0	809500672	48	6856
2026-01-08 03:21:57.48	311.94	9.27	-38.9	-40.0	21.7	0.00e+00	0	38	0	811597824	50	6444
2026-01-08 03:21:58.49	312.11	9.24	-39.0	-40.1	21.7	0.00e+00	4	37	0	813694976	50	6526
2026-01-08 03:21:59.50	312.27	9.21	-39.2	-40.3	21.5	0.00e+00	92	37	0	815792128	50	6630
2026-01-08 03:22:00.51	312.43	9.17	-39.3	-40.4	21.3	0.00e+00	0	37	0	817889280	50	6767
2026-01-08 03:22:01.52	312.59	9.14	-39.6	-40.8	21.2	0.00e+00	56	38	0	818937856	50	7025
2026-01-08 03:22:02.54	312.76	9.11	-39.6	-40.7	21.2	0.00e+00	0	37	0	821035008	50	6988
2026-01-08 03:22:03.54	312.92	9.08	-39.6	-40.7	21.1	0.00e+00	92	37	0	823132160	50	6972
2026-01-08 03:22:04.55	313.08	9.04	-39.7	-40.9	21.2	0.00e+00	0	37	0	825229312	50	7125
2026-01-08 03:22:05.56	313.24	9.01	-39.7	-40.9	20.9	0.00e+00	30	37	0	827326464	52	6326
2026-01-08 03:22:06.57	313.40	8.98	-39.9	-41.1	20.9	0.00e+00	95	37	0	828375040	52	6539
2026-01-08 03:22:07.58	313.56	8.94	-39.8	-40.9	21.0	0.00e+00	0	37	0	830472192	52	6387
2026-01-08 03:22:08.59	313.72	8.91	-39.7	-40.9	20.9	0.00e+00	20	37	0	832569344	52	6323
2026-01-08 03:22:09.60	313.88	8.88	-39.5	-40.6	21.4	7.00e-07	0	37	0	834666496	52	6145
2026-01-08 03:22:10.61	314.04	8.84	-39.5	-40.7	21.3	0.00e+00	92	37	0	836763648	52	6211
2026-01-08 03:22:11.62	314.19	8.81	-39.3	-40.4	21.2	0.00e+00	0	37	0	837812224	52	5981
2026-01-08 03:22:12.63	314.35	8.77	-39.6	-40.7	21.3	7.00e-07	70	37	0	839909376	52	6222
2026-01-08 03:22:13.64	314.51	8.74	-39.5	-40.7	21.2	0.00e+00	21	37	0	842006528	52	6190
2026-01-08 03:22:14.64	314.67	8.71	-39.4	-40.6	21.3	0.00e+00	0	37	0	844103680	52	6107
2026-01-08 03:22:15.65	314.82	8.67	-39.6	-40.7	21.1	0.00e+00	77	37	0	846200832	52	6224
2026-01-08 03:22:16.66	314.98	8.64	-39.6	-40.8	21.1	0.00e+00	0	37	0	847249408	52	6281
2026-01-08 03:22:17.67	315.14	8.60	-39.8	-41.0	21.0	7.00e-07	92	37	0	849346560	52	6451
2026-01-08 03:22:18.68	315.29	8.57	-40.0	-41.2	20.7	0.00e+00	0	37	0	851443712	52	6591
2026-01-08 03:22:19.69	315.45	8.53	-40.1	-41.4	20.4	0.00e+00	91	37	0	853540864	52	6707
2026-01-08 03:22:20.70	315.60	8.50	-40.3	-41.5	20.7	0.00e+00	20	37	0	855638016	52	6844
2026-01-08 03:22:21.71	315.76	8.46	-40.2	-41.4	20.4	0.00e+00	0	37	0	856686592	52	6762
2026-01-08 03:22:22.72	315.91	8.43	-39.9	-41.1	20.9	0.00e+00	92	38	0	858783744	52	6500
2026-01-08 03:22:23.73	316.07	8.39	-39.9	-41.1	20.6	0.00e+00	0	37	0	860880896	52	6527
2026-01-08 03:22:24.74	316.22	8.35	-40.0	-41.2	20.7	0.00e+00	92	38	0	862978048	52	6603
2026-01-08 03:22:25.75	316.37	8.32	-40.0	-41.3	20.7	0.00e+00	0	37	0	865075200	52	6625
2026-01-08 03:22:26.75	316.53	8.28	-40.3	-41.5	20.5	0.00e+00	92	38	0	867172352	52	6841
2026-01-08 03:22:27.77	316.68	8.25	-40.6	-41.9	20.2	0.00e+00	0	38	0	868220928	52	7133
2026-01-08 03:22:28.78	316.83	8.21	-40.8	-42.1	20.0	0.00e+00	2	37	0	870318080	52	7337
2026-01-08 03:22:29.79	316.98	8.17	-41.0	-42.4	19.5	0.00e+00	69	37	0	872415232	54	6705
2026-01-08 03:22:30.80	317.14	8.14	-41.2	-42.6	19.4	0.00e+00	0	37	0	874512384	54	6906
2026-01-08 03:22:31.80	317.29	8.10	-41.5	-43.0	19.0	0.00e+00	90	37	0	876609536	54	7251
2026-01-08 03:22:32.82	317.44	8.06	-41.7	-43.3	18.9	0.00e+00	0	37	0	877658112	56	6644
2026-01-08 03:22:33.83	317.59	8.03	-41.7	-43.3	19.2	0.00e+00	0	37	0	879755264	56	6657
2026-01-08 03:22:34.83	317.74	7.99	-41.4	-42.9	19.4	0.00e+00	0	37	0	881852416	56	6332
2026-01-08 03:22:35.84	317.89	7.95	-41.1	-42.6	19.6	0.00e+00	0	37	0	883949568	56	6128
2026-01-08 03:22:36.85	318.04	7.92	-40.9	-42.3	19.8	0.00e+00	25	38	0	886046720	56	5950
2026-01-08 03:22:37.86	318.18	7.88	-40.8	-42.2	19.9	0.00e+00	0	37	0	887095296	54	6579
2026-01-08 03:22:38.87	318.33	7.84	-40.6	-42.0	19.8	0.00e+00	92	37	0	889192448	54	6412
2026-01-08 03:22:39.88	318.48	7.81	-40.7	-42.1	19.9	0.00e+00	0	37	0	891289600	54	6474
2026-01-08 03:22:40.89	318.63	7.77	-40.7	-42.1	20.0	0.00e+00	0	37	0	893386752	54	6494
2026-01-08 03:22:41.90	318.78	7.73	-40.7	-42.1	20.0	0.00e+00	0	37	0	895483904	54	6496
2026-01-08 03:22:42.91	318.92	7.69	-40.6	-42.0	19.9	0.00e+00	0	37	0	896532480	54	6432
2026-01-08 03:22:43.92	319.07	7.65	-40.7	-42.0	19.9	0.00e+00	24	38	0	898629632	54	6440
2026-01-08 03:22:44.93	319.22	7.62	-40.6	-41.9	20.1	0.00e+00	0	37	0	900726784	54	6376
2026-01-08 03:22:45.94	319.36	7.58	-40.5	-41.8	20.2	0.00e+00	91	37	0	902823936	54	6290
2026-01-08 03:22:46.94	319.51	7.54	-40.7	-42.0	19.9	0.00e+00	0	37	0	904921088	54	6449
2026-01-08 03:22:47.96	319.65	7.50	-40.7	-42.1	19.9	0.00e+00	0	37	0	905969664	54	6533
2026-01-08 03:22:48.97	319.80	7.46	-40.8	-42.2	19.8	0.00e+00	0	37	0	908066816	54	6590
2026-01-08 03:22:49.98	319.94	7.43	-41.2	-42.7	19.2	0.00e+00	0	38	0	910163968	54	6993
2026-01-08 03:22:50.98	320.09	7.39	-41.2	-42.7	19.1	0.00e+00	50	37	0	912261120	54	6967
2026-01-08 03:22:51.99	320.23	7.35	-41.3	-42.8	19.2	0.00e+00	0	38	0	914358272	54	7031
2026-01-08 03:22:53.00	320.37	7.31	-41.3	-42.9	19.2	0.00e+00	64	37	0	915406848	54	7105
2026-01-08 03:22:54.00	320.52	7.27	-41.3	-42.9	19.1	0.00e+00	0	38	0	917504000	54	7090
2026-01-08 03:22:55.01	320.66	7.23	-41.3	-42.8	19.2	0.00e+00	0	38	0	919601152	54	7081
2026-01-08 03:22:56.02	320.80	7.19	-41.1	-42.5	19.4	0.00e+00	0	38	0	921698304	54	6844
2026-01-08 03:22:57.03	320.94	7.15	-41.2	-42.6	19.4	0.00e+00	0	37	0	923795456	54	6911
2026-01-08 03:22:58.04	321.08	7.12	-41.0	-42.5	19.5	0.00e+00	41	37	0	924844032	54	6785
2026-01-08 03:22:59.05	321.23	7.08	-40.9	-42.4	19.5	0.00e+00	0	37	0	926941184	54	6703
2026-01-08 03:23:00.06	321.37	7.04	-40.9	-42.3	19.7	0.00e+00	0	38	0	929038336	54	6684
2026-01-08 03:23:01.06	321.51	7.00	-40.8	-42.2	19.8	0.00e+00	0	37	0	931135488	54	6548
2026-01-08 03:23:02.07	321.65	6.96	-40.8	-42.2	19.6	0.00e+00	31	37	0	933232640	54	6559
2026-01-08 03:23:03.08	321.79	6.92	-40.7	-42.0	20.0	0.00e+00	0	37	0	935329792	54	6448
2026-01-08 03:23:04.09	321.93	6.88	-40.6	-42.0	20.1	0.00e+00	0	37	0	936378368	54	6412
2026-01-08 03:23:05.10	322.06	6.84	-40.6	-42.0	19.9	0.00e+00	0	37	0	938475520	54	6418
2026-01-08 03:23:06.11	322.20	6.80	-40.5	-41.9	20.0	0.00e+00	19	37	0	940572672	54	6322
2026-01-08 03:23:07.12	322.34	6.76	-40.5	-41.8	19.9	0.00e+00	4	37	0	942669824	54	6316
2026-01-08 03:23:08.12	322.48	6.72	-40.3	-41.7	20.2	0.00e+00	0	37	0	943718400	54	6185
2026-01-08 03:23:09.13	322.62	6.68	-40.2	-41.5	20.0	0.00e+00	81	37	0	945815552	54	6071
2026-01-08 03:23:10.14	322.75	6.64	-40.2	-41.6	20.3	0.00e+00	0	37	0	947912704	54	6113
2026-01-08 03:23:11.15	322.89	6.60	-40.1	-41.3	20.3	0.00e+00	0	37	0	950009856	54	5964
2026-01-08 03:23:12.16	323.03	6.56	-40.1	-41.4	20.2	0.00e+00	21	37	0	952107008	54	6014
2026-01-08 03:23:13.17	323.16	6.52	-40.2	-41.5	20.3	0.00e+00	0	37	0	953155584	54	6071
2026-01-08 03:23:14.18	323.30	6.48	-40.1	-41.3	20.5	0.00e+00	19	37	0	955252736	54	5937
2026-01-08 03:23:15.19	323.43	6.44	-40.3	-41.6	20.1	0.00e+00	0	38	0	957349888	54	6166
2026-01-08 03:23:16.20	323.57	6.40	-40.1	-41.4	20.4	0.00e+00	92	37	0	959447040	54	5984
2026-01-08 03:23:17.21	323.70	6.36	-40.3	-41.6	20.2	0.00e+00	0	37	0	961544192	54	6142
2026-01-08 03:23:18.22	323.84	6.32	-40.1	-41.4	20.4	0.00e+00	23	37	0	963641344	54	5981
2026-01-08 03:23:19.23	323.97	6.28	-40.4	-41.7	20.2	0.00e+00	0	37	0	964689920	54	6202
2026-01-08 03:23:20.24	324.11	6.23	-40.4	-41.7	20.2	0.00e+00	0	37	0	966787072	54	6198
2026-01-08 03:23:21.25	324.24	6.19	-40.4	-41.8	20.0	0.00e+00	20	37	0	968884224	54	6268
2026-01-08 03:23:22.26	324.37	6.15	-40.4	-41.7	20.1	0.00e+00	0	37	0	970981376	54	6209
2026-01-08 03:23:23.27	324.50	6.11	-40.3	-41.7	19.9	0.00e+00	69	37	0	973078528	54	6176
2026-01-08 03:23:24.28	324.64	6.07	-40.3	-41.7	19.9	0.00e+00	0	37	0	974127104	54	6193
2026-01-08 03:23:25.29	324.77	6.03	-40.4	-41.8	20.0	0.00e+00	0	37	0	976224256	54	6275
2026-01-08 03:23:26.30	324.90	5.99	-40.4	-41.8	19.9	0.00e+00	0	37	0	978321408	54	6261
2026-01-08 03:23:27.31	325.03	5.95	-40.5	-41.9	20.0	0.00e+00	0	37	0	980418560	54	6336
2026-01-08 03:23:28.31	325.16	5.91	-40.3	-41.7	20.2	0.00e+00	21	37	0	982515712	54	6186
2026-01-08 03:23:29.32	325.29	5.87	-40.5	-41.9	19.9	0.00e+00	0	37	0	983564288	54	6362
2026-01-08 03:23:30.33	325.42	5.82	-40.5	-41.9	19.9	0.00e+00	92	37	0	985661440	54	6328
2026-01-08 03:23:31.34	325.55	5.78	-40.5	-41.9	20.0	0.00e+00	0	37	0	987758592	54	6345
2026-01-08 03:23:32.35	325.68	5.74	-40.5	-41.8	20.0	0.00e+00	52	37	0	989855744	54	6293
2026-01-08 03:23:33.36	325.81	5.70	-40.5	-41.9	19.8	0.00e+00	0	37	0	991952896	54	6380
2026-01-08 03:23:34.37	325.94	5.66	-40.5	-41.9	19.8	0.00e+00	0	37	0	993001472	54	6338
2026-01-08 03:23:35.38	326.07	5.62	-40.4	-41.8	20.0	0.00e+00	0	37	0	995098624	54	6255
2026-01-08 03:23:36.39	326.19	5.57	-40.1	-41.4	20.3	0.00e+00	0	37	0	997195776	54	6030
2026-01-08 03:23:37.40	326.32	5.53	-40.2	-41.5	20.1	0.00e+00	92	37	0	999292928	54	6091
2026-01-08 03:23:38.41	326.45	5.49	-39.8	-41.1	20.6	0.00e+00	0	37	0	1001390080	54	5786
2026-01-08 03:23:39.42	326.57	5.45	-39.8	-41.0	20.7	0.00e+00	88	37	0	1002438656	52	6449
2026-01-08 03:23:40.43	326.70	5.41	-39.7	-41.0	20.5	0.00e+00	0	37	0	1004535808	52	6391
2026-01-08 03:23:41.44	326.83	5.37	-39.6	-40.8	20.8	0.00e+00	0	37	0	1006632960	52	6272
2026-01-08 03:23:42.45	326.95	5.32	-39.6	-40.8	20.8	0.00e+00	0	37	0	1008730112	52	6259
2026-01-08 03:23:43.46	327.08	5.28	-39.5	-40.7	20.7	0.00e+00	0	37	0	1010827264	52	6180
2026-01-08 03:23:44.46	327.20	5.24	-39.6	-40.9	20.9	0.00e+00	14	37	0	1011875840	52	6336
2026-01-08 03:23:45.47	327.33	5.20	-39.7	-41.0	20.5	0.00e+00	0	37	0	1013972992	52	6392
2026-01-08 03:23:46.48	327.45	5.16	-39.8	-41.0	20.7	0.00e+00	90	37	0	1016070144	52	6438
2026-01-08 03:23:47.49	327.58	5.11	-39.7	-41.0	20.6	0.00e+00	0	37	0	1018167296	52	6401
2026-01-08 03:23:48.50	327.70	5.07	-39.8	-41.1	20.6	0.00e+00	0	37	0	1020264448	52	6518
2026-01-08 03:23:49.51	327.82	5.03	-39.5	-40.7	20.7	0.00e+00	0	37	0	1021313024	52	6207
2026-01-08 03:23:50.51	327.95	4.99	-39.9	-41.2	20.7	0.00e+00	0	37	0	1023410176	52	6546
2026-01-08 03:23:51.52	328.07	4.94	-39.8	-41.1	20.5	0.00e+00	18	37	0	1025507328	52	6486
2026-01-08 03:23:52.53	328.19	4.90	-39.5	-40.7	20.9	0.00e+00	0	37	0	1027604480	52	6231
2026-01-08 03:23:53.54	328.31	4.86	-39.5	-40.7	20.7	0.00e+00	92	37	0	1029701632	52	6212
2026-01-08 03:23:54.55	328.43	4.82	-39.5	-40.7	20.9	0.00e+00	0	37	0	1031798784	52	6180
2026-01-08 03:23:55.56	328.56	4.77	-39.4	-40.6	21.0	0.00e+00	0	37	0	1032847360	52	6116
2026-01-08 03:23:56.57	328.68	4.73	-39.3	-40.5	20.9	0.00e+00	0	37	0	1034944512	52	6073
2026-01-08 03:23:57.58	328.80	4.69	-39.4	-40.6	21.1	0.00e+00	0	37	0	1037041664	52	6124
2026-01-08 03:23:58.59	328.92	4.65	-39.5	-40.7	21.0	0.00e+00	21	37	0	1039138816	52	6196
2026-01-08 03:23:59.60	329.04	4.60	-39.5	-40.7	20.9	0.00e+00	0	37	0	1041235968	52	6245
2026-01-08 03:24:00.61	329.16	4.56	-39.5	-40.7	20.6	0.00e+00	92	37	0	1042284544	52	6195
2026-01-08 03:24:01.62	329.28	4.52	-39.7	-41.0	20.5	0.00e+00	0	37	0	1044381696	52	6412
2026-01-08 03:24:02.63	329.40	4.48	-39.9	-41.2	20.1	0.00e+00	0	37	0	1046478848	52	6587
2026-01-08 03:24:03.64	329.51	4.43	-39.9	-41.2	20.4	0.00e+00	0	37	0	1048576000	52	6587
2026-01-08 03:24:04.65	329.63	4.39	-39.9	-41.1	20.2	0.00e+00	0	37	0	1050673152	52	6532
2026-01-08 03:24:05.66	329.75	4.35	-40.0	-41.4	20.1	0.00e+00	18	37	0	1051721728	52	6704
2026-01-08 03:24:06.67	329.87	4.30	-39.8	-41.0	20.2	0.00e+00	0	37	0	1053818880	52	6450
2026-01-08 03:24:07.68	329.99	4.26	-39.9	-41.2	20.2	0.00e+00	92	37	0	1055916032	52	6599
2026-01-08 03:24:08.69	330.10	4.22	-39.8	-41.1	20.3	0.00e+00	0	37	0	1058013184	52	6536
2026-01-08 03:24:09.70	330.22	4.18	-39.7	-41.0	20.3	0.00e+00	79	37	0	1060110336	52	6425
2026-01-08 03:24:10.71	330.34	4.13	-40.0	-41.3	20.0	0.00e+00	0	37	0	1061158912	52	6682
2026-01-08 03:24:11.72	330.45	4.09	-39.7	-41.0	20.2	0.00e+00	0	37	0	1063256064	52	6412
2026-01-08 03:24:12.74	330.57	4.05	-39.8	-41.1	20.2	0.00e+00	9	37	0	1065353216	52	6534
2026-01-08 03:24:13.74	330.68	4.00	-40.1	-41.5	19.9	0.00e+00	0	37	0	1067450368	52	6818
2026-01-08 03:24:14.75	330.80	3.96	-40.3	-41.7	19.8	0.00e+00	91	37	0	1069547520	52	6943
2026-01-08 03:24:15.76	330.91	3.92	-40.6	-42.1	19.1	0.00e+00	0	37	0	1070596096	52	7264
2026-01-08 03:24:16.77	331.03	3.87	-40.7	-42.3	18.7	0.00e+00	90	37	0	1072693248	52	7463
2026-01-08 03:24:17.78	331.14	3.83	-40.8	-42.5	18.6	0.00e+00	0	37	0	1074790400	54	6779
2026-01-08 03:24:18.79	331.26	3.79	-41.3	-43.1	17.7	0.00e+00	0	37	0	1076887552	54	7323
2026-01-08 03:24:19.80	331.37	3.75	-41.4	-43.4	17.3	0.00e+00	0	37	0	1078984704	54	7538
2026-01-08 03:24:20.81	331.48	3.70	-41.9	-44.1	16.6	0.00e+00	0	37	0	1080033280	56	7256
2026-01-08 03:24:21.82	331.59	3.66	-42.2	-44.8	15.5	0.00e+00	79	37	0	1082130432	56	7886
2026-01-08 03:24:22.83	331.71	3.62	-42.6	-45.6	14.3	0.00e+00	0	37	0	1084227584	56	8629
2026-01-08 03:24:23.84	331.82	3.57	-42.8	-46.4	13.0	2.20e-06	92	37	0	1086324736	58	8467
2026-01-08 03:24:24.85	331.93	3.53	-43.0	-47.2	11.5	3.44e-04	0	37	0	1088421888	58	9329
2026-01-08 03:24:25.85	332.04	3.49	-43.4	-48.6	9.8	3.36e-03	0	37	0	1089470464	58	10935
2026-01-08 03:24:26.86	332.15	3.44	-43.6	-49.9	7.8	2.61e-02	0	37	0	1091567616	58	12691
2026-01-08 03:24:27.87	332.26	3.40	-43.6	-50.8	6.4	1.73e-01	0	38	0	1093664768	58	14059
2026-01-08 03:24:28.88	332.37	3.36	-43.7	-52.2	5.0	3.94e-01	22	37	0	1095761920	58	16479
2026-01-08 03:24:29.89	332.49	3.31	-43.8	-53.4	4.1	7.95e-01	6	37	0	1097859072	60	16998
2026-01-08 03:24:30.90	332.60	3.27	-43.8	-56.2	3.9	1.50e+00	0	37	104	1097859072	60	23328
2026-01-08 03:24:31.91	332.70	3.23	-43.8	-57.3	3.6	1.50e+00	0	37	104	1097859072	60	26485
2026-01-08 03:24:32.92	332.81	3.18	-43.8	-58.0	3.6	1.51e+00	0	37	104	1097859072	60	28650
2026-01-08 03:24:33.93	332.92	3.14	-43.8	-58.4	3.6	1.51e+00	0	38	104	1097859072	60	29979
2026-01-08 03:24:34.94	333.03	3.10	-43.8	-58.6	3.6	1.51e+00	0	38	104	1097859072	60	30707
2026-01-08 03:24:35.95	333.14	3.05	-43.8	-58.8	3.5	1.51e+00	0	38	104	1097859072	60	31363
2026-01-08 03:24:36.96	333.25	3.01	-43.8	-58.9	3.6	1.51e+00	0	38	104	1097859072	60	32016
2026-01-08 03:24:37.97	333.36	2.97	-47.3	-62.5	3.6	1.51e+00	0	38	104	1097859072	60	48037
2026-01-08 03:24:38.98	333.46	2.92	-48.2	-63.4	3.6	1.51e+00	0	38	104	1097859072	60	53373
2026-01-08 03:24:39.98	333.57	2.88	-48.5	-63.7	3.6	1.51e+00	0	37	104	1097859072	60	55411
2026-01-08 03:24:41.00	333.68	2.84	-48.8	-64.0	3.6	1.51e+00	0	38	104	1097859072	60	57000
2026-01-08 03:24:42.01	333.79	2.79	-48.9	-64.0	3.6	1.51e+00	0	38	104	1097859072	60	57425
2026-01-08 03:24:43.02	333.89	2.75	-49.0	-64.1	3.6	1.51e+00	0	38	104	1097859072	60	57967
2026-01-08 03:24:44.03	334.00	2.70	-49.0	-64.2	3.6	1.51e+00	0	38	104	1097859072	60	58724
2026-01-08 03:24:45.04	334.10	2.66	-49.1	-64.3	3.6	1.51e+00	0	38	104	1097859072	60	59071
2026-01-08 03:24:46.05	334.21	2.62	-49.0	-64.2	3.6	1.51e+00	0	38	104	1097859072	60	58531
2026-01-08 03:24:47.06	334.31	2.57	-49.0	-64.2	3.6	1.51e+00	0	38	104	1097859072	60	58648
2026-01-08 03:24:48.07	334.42	2.53	-48.8	-64.1	3.6	1.51e+00	0	38	104	1097859072	60	58276
2026-01-08 03:24:49.08	334.52	2.49	-48.8	-64.1	3.6	1.51e+00	0	38	104	1097859072	60	58017
2026-01-08 03:24:50.09	334.63	2.44	-49.0	-64.3	3.6	1.51e+00	0	38	104	1097859072	60	59207
2026-01-08 03:24:51.10	334.73	2.40	-49.0	-64.2	3.6	1.51e+00	0	38	104	1097859072	60	58585
2026-01-08 03:24:52.11	334.84	2.36	-48.9	-64.1	3.6	1.51e+00	0	38	104	1097859072	60	57760
2026-01-08 03:24:53.12	334.94	2.31	-48.9	-64.1	3.6	1.51e+00	0	38	104	1097859072	60	58193
2026-01-08 03:24:54.13	335.04	2.27	-49.2	-64.3	3.6	1.51e+00	0	38	104	1097859072	60	59603
2026-01-08 03:24:55.13	335.14	2.23	-49.0	-64.2	3.6	1.51e+00	0	37	104	1097859072	60	58768
2026-01-08 03:24:56.14	335.25	2.18	-49.0	-64.2	3.6	1.51e+00	0	38	104	1097859072	60	58813
2026-01-08 03:24:57.15	335.35	2.14	-49.0	-64.2	3.6	1.51e+00	0	38	104	1097859072	60	58594
2026-01-08 03:24:58.16	335.45	2.10	-49.0	-64.2	3.6	1.51e+00	0	38	104	1097859072	60	58379
2026-01-08 03:24:59.17	335.55	2.05	-49.0	-64.2	3.6	1.51e+00	0	38	104	1097859072	60	58587
2026-01-08 03:25:00.18	335.65	2.01	-49.0	-64.2	3.6	1.51e+00	0	38	104	1097859072	60	58561
2026-01-08 03:25:01.19	335.75	1.96	-49.0	-64.2	3.6	1.51e+00	0	38	104	1097859072	60	58563
2026-01-08 03:25:02.20	335.86	1.92	-49.0	-64.1	3.6	1.51e+00	0	38	104	1097859072	60	58234
2026-01-08 03:25:03.21	335.96	1.88	-49.0	-64.1	3.6	1.51e+00	0	38	104	1097859072	60	58266
2026-01-08 03:25:04.22	336.06	1.83	-49.0	-64.2	3.6	1.51e+00	0	38	104	1097859072	60	58289
2026-01-08 03:25:05.23	336.16	1.79	-49.0	-64.1	3.6	1.51e+00	0	38	104	1097859072	60	58151
2026-01-08 03:25:06.24	336.26	1.75	-49.0	-64.1	3.6	1.51e+00	0	38	104	1097859072	60	58008
2026-01-08 03:25:07.25	336.36	1.70	-49.0	-64.1	3.6	1.51e+00	0	38	104	1097859072	60	58114
2026-01-08 03:25:08.25	336.45	1.66	-49.0	-64.1	3.6	1.51e+00	0	38	104	1097859072	60	58224
2026-01-08 03:25:09.27	336.55	1.62	-49.0	-64.2	3.6	1.51e+00	0	38	104	1097859072	60	58466
2026-01-08 03:25:10.28	336.65	1.57	-49.0	-64.2	3.6	1.51e+00	0	38	104	1097859072	60	58373
2026-01-08 03:25:11.28	336.75	1.53	-49.0	-64.2	3.6	1.51e+00	0	38	104	1097859072	60	58405
2026-01-08 03:25:12.29	336.85	1.49	-49.0	-64.1	3.6	1.51e+00	0	38	104	1097859072	60	58219
2026-01-08 03:25:13.30	336.95	1.44	-49.0	-64.1	3.6	1.51e+00	0	38	104	1097859072	60	58170
2026-01-08 03:25:14.31	337.04	1.40	-49.0	-64.2	3.6	1.51e+00	0	38	104	1097859072	60	58338
