passes_logs/2026/01/08/R4.6S_Anadyr/R4.6S_Anadyr__20260108_010025_NOAA_21_JPSS-2_rec.log

#Pass ID: 20260108_010025_NOAA 21 (JPSS-2)
#Satellite: NOAA 21 (JPSS-2)
#Configuration: NOAA-21
#almurnet v.1.7.20251203
#Start time: 2026-01-08 01:00:31

#Version: 2.2.20231116
#Station: R4.6S_Anadyr
#Location: 177.4865 lon 64.73178 lat
#TLE: 1 54234U 22150A   26005.42670836  .00000142  00000+0  88292-4 0  9996
#TLE: 2 54234  98.7490 306.4427 0001045 340.6622  19.4514 14.19532269163451

#Time	Az	El	Level	Level2	SNR	BER	BlckErr	Temp	State	Recorded	gain1	gain2
2026-01-08 01:00:31.68	176.36	0.36	-49.6	-51.2	5.7	0.00e+00	0	36	0	0	60	44329
2026-01-08 01:00:32.66	176.39	0.42	-49.4	-62.3	3.5	1.52e+00	0	37	104	0	60	45795
2026-01-08 01:00:33.63	176.41	0.48	-49.4	-62.3	3.5	1.52e+00	0	37	104	0	60	45911
2026-01-08 01:00:34.61	176.44	0.54	-49.5	-62.3	3.5	1.52e+00	0	37	104	0	60	45824
2026-01-08 01:00:35.59	176.47	0.60	-49.5	-62.3	3.5	1.52e+00	0	37	104	0	60	45922
2026-01-08 01:00:36.57	176.49	0.65	-49.5	-62.3	3.5	1.52e+00	0	37	104	0	60	45835
2026-01-08 01:00:37.55	176.52	0.71	-49.3	-62.3	3.5	1.52e+00	0	37	104	0	60	45563
2026-01-08 01:00:38.52	176.55	0.77	-49.3	-62.3	3.5	1.52e+00	0	38	104	0	60	45637
2026-01-08 01:00:39.50	176.58	0.83	-49.3	-62.2	3.5	1.51e+00	0	37	104	0	60	45469
2026-01-08 01:00:40.49	176.60	0.89	-49.3	-62.2	3.5	1.52e+00	0	38	104	0	60	44992
2026-01-08 01:00:41.46	176.63	0.95	-49.2	-62.1	3.5	1.52e+00	0	38	104	0	60	44563
2026-01-08 01:00:42.44	176.66	1.01	-49.1	-62.0	3.5	1.52e+00	0	37	104	0	60	44022
2026-01-08 01:00:43.42	176.69	1.07	-48.9	-61.8	3.5	1.52e+00	0	38	104	0	60	43041
2026-01-08 01:00:44.40	176.72	1.13	-48.7	-61.5	3.5	1.52e+00	0	38	104	0	60	41562
2026-01-08 01:00:45.37	176.74	1.19	-48.1	-61.0	3.5	1.52e+00	0	38	104	0	60	39317
2026-01-08 01:00:46.35	176.77	1.25	-48.1	-60.9	3.5	1.52e+00	0	38	104	0	60	39022
2026-01-08 01:00:47.32	176.80	1.31	-48.1	-60.9	3.5	1.52e+00	0	38	104	0	60	38867
2026-01-08 01:00:48.30	176.83	1.37	-48.1	-60.9	3.5	1.52e+00	0	38	104	0	60	39100
2026-01-08 01:00:49.28	176.86	1.43	-48.1	-60.9	3.5	1.52e+00	0	38	104	0	60	39019
2026-01-08 01:00:50.26	176.89	1.49	-48.1	-60.9	3.5	1.52e+00	0	38	104	0	60	38995
2026-01-08 01:00:51.24	176.91	1.55	-48.1	-60.9	3.5	1.52e+00	0	38	104	0	60	39031
2026-01-08 01:00:52.21	176.94	1.61	-48.1	-60.9	3.5	1.52e+00	0	38	104	0	60	38728
2026-01-08 01:00:53.19	176.97	1.67	-48.1	-60.8	3.5	1.52e+00	0	38	104	0	60	38657
2026-01-08 01:00:54.17	177.00	1.73	-48.1	-60.8	3.5	1.52e+00	0	38	104	0	60	38671
2026-01-08 01:00:55.14	177.03	1.79	-48.1	-60.8	3.5	1.52e+00	0	38	104	0	60	38626
2026-01-08 01:00:56.12	177.06	1.85	-48.1	-60.8	3.5	1.52e+00	0	38	104	0	60	38596
2026-01-08 01:00:57.10	177.09	1.91	-48.1	-60.8	3.5	1.52e+00	0	38	104	0	60	38364
2026-01-08 01:00:58.07	177.12	1.97	-48.1	-60.8	3.5	1.52e+00	0	38	104	0	60	38647
2026-01-08 01:00:59.05	177.15	2.03	-48.1	-60.8	3.5	1.52e+00	0	38	104	0	60	38496
2026-01-08 01:01:00.03	177.18	2.10	-48.1	-60.9	3.5	1.51e+00	0	38	104	0	60	38754
2026-01-08 01:01:01.01	177.21	2.16	-48.1	-60.8	3.5	1.52e+00	0	38	104	0	60	38568
2026-01-08 01:01:01.99	177.24	2.22	-48.1	-60.8	3.5	1.52e+00	0	38	104	0	60	38353
2026-01-08 01:01:02.97	177.27	2.28	-48.1	-60.8	3.5	1.52e+00	0	38	104	0	60	38443
2026-01-08 01:01:03.95	177.30	2.34	-48.1	-60.9	3.5	1.52e+00	0	38	104	0	60	38915
2026-01-08 01:01:04.92	177.33	2.41	-48.1	-60.8	3.5	1.52e+00	0	38	104	0	60	38561
2026-01-08 01:01:05.90	177.36	2.47	-48.1	-60.6	3.5	1.52e+00	0	38	104	0	60	37766
2026-01-08 01:01:06.87	177.39	2.53	-48.0	-60.2	3.5	1.52e+00	0	38	104	0	60	35732
2026-01-08 01:01:07.85	177.42	2.59	-48.0	-59.5	3.5	1.51e+00	0	38	104	0	60	33020
2026-01-08 01:01:08.82	177.45	2.65	-47.9	-59.0	3.5	1.51e+00	0	38	104	0	60	31142
2026-01-08 01:01:09.80	177.48	2.72	-47.9	-58.8	3.7	1.50e+00	0	38	104	0	60	30714
2026-01-08 01:01:10.77	177.51	2.78	-47.9	-59.2	3.5	1.51e+00	0	38	104	0	60	31833
2026-01-08 01:01:11.75	177.54	2.84	-48.0	-60.0	3.5	1.51e+00	0	38	104	0	60	35057
2026-01-08 01:01:12.73	177.57	2.91	-48.0	-60.4	3.5	1.52e+00	0	38	104	0	60	36692
2026-01-08 01:01:13.70	177.60	2.97	-47.8	-57.7	3.6	1.51e+00	0	38	104	0	60	26820
2026-01-08 01:01:14.68	177.63	3.03	-47.2	-53.6	6.3	4.33e-01	0	38	0	0	60	16720
2026-01-08 01:01:15.66	177.67	3.10	-45.9	-49.9	10.1	1.93e-02	0	38	0	3145728	60	10919
2026-01-08 01:01:16.64	177.70	3.16	-44.3	-47.0	13.2	2.95e-04	0	38	0	6291456	60	7887
2026-01-08 01:01:17.61	177.73	3.22	-42.9	-44.9	15.4	0.00e+00	0	38	0	9437184	60	6203
2026-01-08 01:01:18.59	177.76	3.29	-41.5	-43.1	17.1	0.00e+00	0	38	0	12582912	56	6347
2026-01-08 01:01:19.57	177.79	3.35	-40.2	-41.6	18.5	0.00e+00	0	38	0	15728640	54	5936
2026-01-08 01:01:20.54	177.83	3.42	-39.4	-40.7	19.4	0.00e+00	0	38	0	17825792	52	5995
2026-01-08 01:01:21.52	177.86	3.48	-39.0	-40.2	19.7	0.00e+00	0	38	0	20971520	52	5690
2026-01-08 01:01:22.50	177.89	3.55	-38.5	-39.7	20.0	0.00e+00	0	38	0	24117248	50	6050
2026-01-08 01:01:23.48	177.92	3.61	-38.8	-40.1	19.8	0.00e+00	0	38	0	27262976	50	6301
2026-01-08 01:01:24.45	177.96	3.68	-38.9	-40.2	19.7	0.00e+00	0	38	0	30408704	50	6384
2026-01-08 01:01:25.43	177.99	3.74	-39.7	-41.0	18.9	0.00e+00	0	38	0	33554432	50	7014
2026-01-08 01:01:26.41	178.02	3.81	-39.3	-40.5	19.7	0.00e+00	0	38	0	36700160	52	5903
2026-01-08 01:01:27.38	178.05	3.87	-39.9	-41.3	18.7	0.00e+00	0	38	0	39845888	52	6454
2026-01-08 01:01:28.36	178.09	3.94	-39.1	-40.3	20.3	0.00e+00	0	38	0	42991616	54	5144
2026-01-08 01:01:29.34	178.12	4.00	-47.9	-59.9	3.5	1.52e+00	0	38	104	44040192	60	34814
2026-01-08 01:01:30.32	178.15	4.07	-44.7	-48.1	13.2	3.04e-01	0	38	104	44040192	60	8922
2026-01-08 01:01:31.29	178.19	4.13	-44.1	-46.6	14.1	1.50e-06	0	38	0	45088768	60	7494
2026-01-08 01:01:32.26	178.22	4.20	-40.4	-41.8	18.2	0.00e+00	0	38	0	48234496	54	6132
2026-01-08 01:01:33.24	178.25	4.27	-40.9	-42.4	17.5	0.00e+00	0	38	0	51380224	54	6572
2026-01-08 01:01:34.22	178.29	4.33	-41.0	-42.5	17.6	0.00e+00	0	38	0	54525952	54	6623
2026-01-08 01:01:35.20	178.32	4.40	-41.0	-42.6	17.7	0.00e+00	0	38	0	57671680	54	6652
2026-01-08 01:01:36.18	178.36	4.47	-40.8	-42.3	17.9	0.00e+00	0	38	0	60817408	54	6474
2026-01-08 01:01:37.16	178.39	4.53	-40.7	-42.2	18.0	0.00e+00	0	38	0	63963136	54	6384
2026-01-08 01:01:38.13	178.43	4.60	-40.4	-41.8	18.5	0.00e+00	0	38	0	66060288	54	6125
2026-01-08 01:01:39.11	178.46	4.67	-40.0	-41.3	19.0	0.00e+00	0	38	0	69206016	54	5772
2026-01-08 01:01:40.09	178.50	4.73	-39.6	-41.0	19.1	0.00e+00	0	38	0	72351744	52	6212
2026-01-08 01:01:41.06	178.53	4.80	-39.5	-40.8	19.4	0.00e+00	0	38	0	75497472	52	6102
2026-01-08 01:01:42.05	178.57	4.87	-39.2	-40.4	19.6	0.00e+00	0	38	0	78643200	52	5846
2026-01-08 01:01:43.02	178.60	4.94	-39.1	-40.3	20.0	0.00e+00	0	38	0	81788928	52	5769
2026-01-08 01:01:44.00	178.64	5.01	-38.4	-39.6	20.5	0.00e+00	0	38	0	84934656	50	5961
2026-01-08 01:01:44.98	178.67	5.07	-38.3	-39.4	20.6	0.00e+00	0	38	0	88080384	50	5831
2026-01-08 01:01:45.96	178.71	5.14	-37.9	-39.0	21.1	0.00e+00	0	38	0	91226112	50	5537
2026-01-08 01:01:46.93	178.74	5.21	-37.8	-39.0	21.1	0.00e+00	0	38	0	94371840	50	5531
2026-01-08 01:01:47.91	178.78	5.28	-37.9	-39.0	21.1	0.00e+00	0	38	0	97517568	50	5538
2026-01-08 01:01:48.89	178.82	5.35	-37.9	-39.0	21.0	0.00e+00	0	38	0	100663296	50	5544
2026-01-08 01:01:49.86	178.85	5.42	-37.7	-38.7	21.3	0.00e+00	0	38	0	103809024	48	6063
2026-01-08 01:01:50.85	178.89	5.49	-37.7	-38.8	21.2	0.00e+00	0	38	0	105906176	48	6101
2026-01-08 01:01:51.82	178.93	5.56	-37.6	-38.7	21.3	0.00e+00	0	38	0	109051904	48	6014
2026-01-08 01:01:52.80	178.96	5.63	-37.7	-38.7	21.3	0.00e+00	0	38	0	112197632	48	6062
2026-01-08 01:01:53.78	179.00	5.70	-37.6	-38.7	21.3	0.00e+00	0	38	0	115343360	48	6038
2026-01-08 01:01:54.76	179.04	5.77	-37.7	-38.8	21.3	0.00e+00	0	38	0	118489088	48	6119
2026-01-08 01:01:55.74	179.07	5.84	-37.6	-38.7	21.3	0.00e+00	0	38	0	121634816	48	6036
2026-01-08 01:01:56.71	179.11	5.91	-37.6	-38.7	21.4	0.00e+00	0	38	0	124780544	48	5998
2026-01-08 01:01:57.69	179.15	5.98	-37.5	-38.6	21.5	0.00e+00	0	38	0	127926272	48	5960
2026-01-08 01:01:58.67	179.19	6.05	-37.6	-38.7	21.3	0.00e+00	0	38	0	131072000	48	6053
2026-01-08 01:01:59.64	179.23	6.12	-37.6	-38.7	21.4	0.00e+00	0	38	0	134217728	48	6044
2026-01-08 01:02:00.62	179.26	6.19	-37.6	-38.7	21.4	0.00e+00	0	38	0	137363456	48	6019
2026-01-08 01:02:01.60	179.30	6.26	-37.7	-38.8	21.3	0.00e+00	0	38	0	140509184	48	6095
2026-01-08 01:02:02.58	179.34	6.33	-37.6	-38.7	21.4	0.00e+00	0	38	0	142606336	48	6032
2026-01-08 01:02:03.56	179.38	6.40	-37.5	-38.6	21.4	0.00e+00	0	38	0	145752064	48	5973
2026-01-08 01:02:04.53	179.42	6.47	-37.4	-38.4	21.7	0.00e+00	0	38	0	148897792	48	5857
2026-01-08 01:02:05.51	179.46	6.55	-37.5	-38.5	21.6	0.00e+00	0	38	0	152043520	48	5914
2026-01-08 01:02:06.49	179.50	6.62	-37.4	-38.5	21.6	0.00e+00	0	38	0	155189248	48	5874
2026-01-08 01:02:07.46	179.54	6.69	-37.4	-38.4	21.7	0.00e+00	0	38	0	158334976	48	5848
2026-01-08 01:02:08.44	179.57	6.76	-37.3	-38.3	21.7	0.00e+00	0	38	0	161480704	48	5773
2026-01-08 01:02:09.42	179.61	6.84	-37.2	-38.2	21.8	0.00e+00	0	38	0	164626432	48	5710
2026-01-08 01:02:10.40	179.65	6.91	-37.2	-38.3	21.8	0.00e+00	0	38	0	167772160	48	5738
2026-01-08 01:02:11.37	179.69	6.98	-37.2	-38.3	21.8	0.00e+00	0	38	0	170917888	48	5750
2026-01-08 01:02:12.35	179.73	7.06	-37.2	-38.3	21.8	0.00e+00	0	38	0	174063616	48	5749
2026-01-08 01:02:13.32	179.78	7.13	-37.1	-38.2	21.9	0.00e+00	0	38	0	176160768	48	5663
2026-01-08 01:02:14.30	179.82	7.20	-37.2	-38.3	21.8	0.00e+00	0	38	0	179306496	48	5739
2026-01-08 01:02:15.27	179.86	7.28	-37.3	-38.3	21.8	0.00e+00	0	38	0	182452224	48	5769
2026-01-08 01:02:16.25	179.90	7.35	-37.2	-38.2	21.9	0.00e+00	0	38	0	185597952	48	5713
2026-01-08 01:02:17.23	179.94	7.42	-36.9	-37.9	22.2	0.00e+00	0	38	0	188743680	48	5526
2026-01-08 01:02:18.20	179.98	7.50	-37.0	-38.1	22.0	0.00e+00	0	38	0	191889408	48	5597
2026-01-08 01:02:19.18	180.02	7.57	-36.9	-37.9	22.1	0.00e+00	0	38	0	195035136	48	5526
2026-01-08 01:02:20.16	180.06	7.65	-37.0	-38.0	22.2	0.00e+00	0	38	0	198180864	48	5588
2026-01-08 01:02:21.14	180.11	7.72	-36.8	-37.8	22.3	0.00e+00	0	38	0	201326592	48	5466
2026-01-08 01:02:22.11	180.15	7.80	-36.9	-38.0	22.2	0.00e+00	0	38	0	204472320	48	5533
2026-01-08 01:02:23.09	180.19	7.87	-36.7	-37.7	22.4	0.00e+00	0	38	0	206569472	46	6038
2026-01-08 01:02:24.06	180.23	7.95	-36.7	-37.7	22.4	0.00e+00	0	38	0	209715200	46	6052
2026-01-08 01:02:25.04	180.28	8.03	-36.7	-37.7	22.4	0.00e+00	0	38	0	212860928	46	6039
2026-01-08 01:02:26.01	180.32	8.10	-36.7	-37.6	22.5	0.00e+00	0	38	0	216006656	46	5993
2026-01-08 01:02:26.99	180.36	8.18	-36.6	-37.6	22.5	0.00e+00	0	38	0	219152384	46	5959
2026-01-08 01:02:27.97	180.41	8.25	-36.6	-37.6	22.5	0.00e+00	0	38	0	222298112	46	5965
2026-01-08 01:02:28.95	180.45	8.33	-36.5	-37.5	22.5	0.00e+00	0	38	0	225443840	46	5914
2026-01-08 01:02:29.93	180.49	8.41	-36.6	-37.6	22.5	0.00e+00	0	38	0	228589568	46	5948
2026-01-08 01:02:30.90	180.54	8.49	-36.5	-37.4	22.7	0.00e+00	0	38	0	231735296	46	5855
2026-01-08 01:02:31.88	180.58	8.56	-36.5	-37.5	22.6	0.00e+00	0	38	0	234881024	46	5874
2026-01-08 01:02:32.86	180.63	8.64	-36.4	-37.4	22.6	0.00e+00	0	38	0	238026752	46	5832
2026-01-08 01:02:33.83	180.67	8.72	-36.4	-37.4	22.7	0.00e+00	0	38	0	240123904	46	5816
2026-01-08 01:02:34.81	180.72	8.80	-36.5	-37.5	22.6	0.00e+00	0	38	0	243269632	46	5919
2026-01-08 01:02:35.79	180.76	8.88	-36.4	-37.3	22.8	0.00e+00	0	38	0	246415360	46	5781
2026-01-08 01:02:36.77	180.81	8.96	-36.4	-37.4	22.8	0.00e+00	0	38	0	249561088	46	5814
2026-01-08 01:02:37.75	180.85	9.03	-36.3	-37.3	22.7	0.00e+00	0	38	0	252706816	46	5761
2026-01-08 01:02:38.73	180.90	9.11	-36.4	-37.4	22.8	0.00e+00	0	38	0	255852544	46	5792
2026-01-08 01:02:39.71	180.94	9.19	-36.2	-37.2	22.9	0.00e+00	0	38	0	258998272	46	5671
2026-01-08 01:02:40.69	180.99	9.27	-36.3	-37.3	22.8	0.00e+00	0	38	0	262144000	46	5769
2026-01-08 01:02:41.67	181.04	9.35	-36.4	-37.4	22.7	0.00e+00	0	38	0	265289728	46	5835
2026-01-08 01:02:42.65	181.08	9.43	-36.3	-37.3	22.8	0.00e+00	0	38	0	268435456	46	5754
2026-01-08 01:02:43.63	181.13	9.51	-36.2	-37.2	22.9	0.00e+00	0	38	0	271581184	46	5663
2026-01-08 01:02:44.61	181.18	9.60	-36.2	-37.2	22.8	0.00e+00	0	38	0	274726912	46	5680
2026-01-08 01:02:45.58	181.23	9.68	-36.0	-36.9	23.0	0.00e+00	0	38	0	277872640	46	5525
2026-01-08 01:02:46.56	181.27	9.76	-36.0	-37.0	23.0	0.00e+00	0	38	0	279969792	46	5548
2026-01-08 01:02:47.54	181.32	9.84	-35.9	-36.8	23.1	0.00e+00	0	38	0	283115520	46	5467
2026-01-08 01:02:48.52	181.37	9.92	-36.0	-36.9	23.1	0.00e+00	0	38	0	286261248	46	5496
2026-01-08 01:02:49.50	181.42	10.00	-35.9	-36.8	23.1	0.00e+00	0	38	0	289406976	46	5458
2026-01-08 01:02:50.48	181.47	10.08	-36.0	-36.9	23.2	0.00e+00	0	38	0	292552704	46	5516
2026-01-08 01:02:51.45	181.52	10.17	-35.8	-36.7	23.2	0.00e+00	0	38	0	295698432	46	5390
2026-01-08 01:02:52.43	181.57	10.25	-35.9	-36.8	23.2	0.00e+00	0	38	0	298844160	46	5444
2026-01-08 01:02:53.42	181.62	10.33	-35.7	-36.6	23.3	0.00e+00	0	38	0	301989888	44	5976
2026-01-08 01:02:54.39	181.67	10.42	-35.7	-36.7	23.3	0.00e+00	0	38	0	305135616	44	6016
2026-01-08 01:02:55.37	181.72	10.50	-35.6	-36.5	23.4	0.00e+00	0	38	0	308281344	44	5883
2026-01-08 01:02:56.35	181.77	10.58	-35.7	-36.6	23.3	0.00e+00	0	38	0	311427072	44	5968
2026-01-08 01:02:57.33	181.82	10.67	-35.5	-36.4	23.5	0.00e+00	0	38	0	314572800	44	5845
2026-01-08 01:02:58.30	181.87	10.75	-35.6	-36.6	23.3	0.00e+00	0	38	0	317718528	44	5931
2026-01-08 01:02:59.28	181.92	10.84	-35.5	-36.4	23.5	0.00e+00	0	39	0	319815680	44	5858
2026-01-08 01:03:00.26	181.97	10.92	-35.4	-36.3	23.6	0.00e+00	0	38	0	322961408	44	5769
2026-01-08 01:03:01.24	182.02	11.01	-35.4	-36.3	23.6	0.00e+00	0	38	0	326107136	44	5772
2026-01-08 01:03:02.22	182.07	11.09	-35.3	-36.3	23.6	0.00e+00	0	39	0	329252864	44	5739
2026-01-08 01:03:03.20	182.13	11.18	-35.4	-36.3	23.5	0.00e+00	0	39	0	332398592	44	5748
2026-01-08 01:03:04.18	182.18	11.26	-35.3	-36.2	23.6	0.00e+00	0	39	0	335544320	44	5689
2026-01-08 01:03:05.15	182.23	11.35	-35.4	-36.3	23.6	0.00e+00	0	39	0	338690048	44	5779
2026-01-08 01:03:06.13	182.29	11.44	-35.3	-36.2	23.6	0.00e+00	0	39	0	341835776	44	5705
2026-01-08 01:03:07.11	182.34	11.52	-35.3	-36.2	23.7	0.00e+00	0	39	0	344981504	44	5686
2026-01-08 01:03:08.09	182.39	11.61	-35.3	-36.3	23.6	0.00e+00	0	39	0	348127232	44	5726
2026-01-08 01:03:09.06	182.45	11.70	-35.3	-36.3	23.7	0.00e+00	0	38	0	351272960	44	5730
2026-01-08 01:03:10.04	182.50	11.78	-35.4	-36.3	23.7	0.00e+00	0	39	0	353370112	44	5789
2026-01-08 01:03:11.02	182.56	11.87	-35.1	-36.1	23.8	0.00e+00	0	39	0	356515840	44	5596
2026-01-08 01:03:11.99	182.61	11.96	-35.2	-36.2	23.7	0.00e+00	0	39	0	359661568	44	5668
2026-01-08 01:03:12.97	182.67	12.05	-35.1	-36.1	23.8	0.00e+00	0	39	0	362807296	44	5601
2026-01-08 01:03:13.94	182.72	12.14	-35.2	-36.1	23.8	0.00e+00	0	39	0	365953024	44	5630
2026-01-08 01:03:14.92	182.78	12.23	-35.2	-36.1	23.8	0.00e+00	0	39	0	369098752	44	5650
2026-01-08 01:03:15.89	182.83	12.32	-35.3	-36.2	23.6	0.00e+00	0	39	0	372244480	44	5707
2026-01-08 01:03:16.87	182.89	12.41	-35.4	-36.3	23.6	0.00e+00	0	39	0	375390208	44	5764
2026-01-08 01:03:17.85	182.95	12.50	-35.1	-36.0	23.8	0.00e+00	0	39	0	378535936	44	5558
2026-01-08 01:03:18.82	183.00	12.59	-35.1	-36.0	23.8	0.00e+00	0	39	0	381681664	44	5567
2026-01-08 01:03:19.80	183.06	12.68	-35.2	-36.1	23.8	0.00e+00	0	38	0	384827392	44	5614
2026-01-08 01:03:20.78	183.12	12.77	-35.1	-36.0	23.8	0.00e+00	0	39	0	386924544	44	5569
2026-01-08 01:03:21.76	183.18	12.86	-35.1	-36.1	23.8	0.00e+00	0	39	0	390070272	44	5607
2026-01-08 01:03:22.74	183.24	12.95	-35.0	-35.9	23.9	0.00e+00	0	38	0	393216000	44	5508
2026-01-08 01:03:23.71	183.29	13.04	-35.0	-36.0	23.9	0.00e+00	0	39	0	396361728	44	5533
2026-01-08 01:03:24.69	183.35	13.13	-34.9	-35.8	24.0	0.00e+00	0	39	0	399507456	44	5462
2026-01-08 01:03:25.67	183.41	13.23	-35.0	-35.9	23.9	0.00e+00	0	39	0	402653184	44	5503
2026-01-08 01:03:26.65	183.47	13.32	-35.0	-36.0	23.9	0.00e+00	0	39	0	405798912	44	5532
2026-01-08 01:03:27.62	183.53	13.41	-35.0	-35.9	23.9	0.00e+00	0	38	0	408944640	44	5519
2026-01-08 01:03:28.60	183.59	13.51	-34.9	-35.8	24.0	0.00e+00	0	38	0	412090368	44	5447
2026-01-08 01:03:29.58	183.65	13.60	-35.0	-36.0	23.9	0.00e+00	0	39	0	415236096	44	5532
2026-01-08 01:03:30.56	183.72	13.70	-34.9	-35.8	24.0	0.00e+00	0	39	0	418381824	44	5456
2026-01-08 01:03:31.54	183.78	13.79	-34.9	-35.8	24.1	0.00e+00	0	39	0	420478976	44	5456
2026-01-08 01:03:32.52	183.84	13.89	-35.0	-36.0	24.0	0.00e+00	0	39	0	423624704	44	5549
2026-01-08 01:03:33.49	183.90	13.98	-35.1	-36.1	24.0	0.00e+00	0	39	0	426770432	44	5595
2026-01-08 01:03:34.47	183.96	14.08	-35.1	-36.0	23.9	0.00e+00	0	39	0	429916160	44	5568
2026-01-08 01:03:35.45	184.03	14.17	-34.9	-35.8	24.1	0.00e+00	0	39	0	433061888	44	5447
2026-01-08 01:03:36.42	184.09	14.27	-35.0	-35.9	24.1	0.00e+00	0	39	0	436207616	44	5506
2026-01-08 01:03:37.40	184.16	14.36	-35.0	-36.0	23.9	0.00e+00	0	39	0	439353344	44	5537
2026-01-08 01:03:38.38	184.22	14.46	-35.0	-36.0	24.1	0.00e+00	0	39	0	442499072	44	5535
2026-01-08 01:03:39.36	184.28	14.56	-35.0	-35.9	24.0	0.00e+00	0	39	0	445644800	44	5489
2026-01-08 01:03:40.33	184.35	14.66	-34.8	-35.7	24.2	0.00e+00	0	39	0	448790528	44	5374
2026-01-08 01:03:41.31	184.42	14.75	-34.8	-35.8	24.2	0.00e+00	0	39	0	451936256	44	5413
2026-01-08 01:03:42.29	184.48	14.85	-34.9	-35.8	24.1	0.00e+00	0	39	0	454033408	44	5415
2026-01-08 01:03:43.27	184.55	14.95	-35.0	-35.9	24.1	0.00e+00	0	39	0	457179136	44	5490
2026-01-08 01:03:44.25	184.62	15.05	-34.9	-35.8	24.1	0.00e+00	0	39	0	460324864	44	5452
2026-01-08 01:03:45.22	184.68	15.15	-34.8	-35.7	24.3	0.00e+00	0	39	0	463470592	42	6037
2026-01-08 01:03:46.20	184.75	15.25	-34.9	-35.8	24.2	0.00e+00	0	39	0	466616320	42	6116
2026-01-08 01:03:47.17	184.82	15.35	-34.8	-35.7	24.3	0.00e+00	0	39	0	469762048	42	6027
2026-01-08 01:03:48.15	184.89	15.45	-34.8	-35.7	24.2	0.00e+00	0	39	0	472907776	42	6043
2026-01-08 01:03:49.13	184.95	15.55	-34.7	-35.6	24.3	0.00e+00	0	39	0	476053504	42	5968
2026-01-08 01:03:50.10	185.02	15.65	-34.8	-35.7	24.3	0.00e+00	0	39	0	479199232	42	6021
2026-01-08 01:03:51.08	185.09	15.76	-34.7	-35.6	24.3	0.00e+00	0	39	0	482344960	42	5990
2026-01-08 01:03:52.06	185.16	15.86	-34.8	-35.7	24.3	0.00e+00	0	39	0	485490688	42	5996
2026-01-08 01:03:53.04	185.24	15.96	-34.7	-35.6	24.4	0.00e+00	0	38	0	488636416	42	5991
2026-01-08 01:03:54.01	185.31	16.06	-34.9	-35.8	24.2	0.00e+00	0	39	0	491782144	42	6115
2026-01-08 01:03:54.99	185.38	16.17	-34.8	-35.7	24.3	0.00e+00	0	39	0	493879296	42	6037
2026-01-08 01:03:55.97	185.45	16.27	-34.8	-35.7	24.2	0.00e+00	0	39	0	497025024	42	6062
2026-01-08 01:03:56.94	185.52	16.37	-34.7	-35.6	24.3	0.00e+00	0	39	0	500170752	42	5981
2026-01-08 01:03:57.91	185.59	16.48	-34.8	-35.7	24.3	0.00e+00	0	39	0	503316480	42	6059
2026-01-08 01:03:58.89	185.67	16.58	-34.9	-35.8	24.1	0.00e+00	0	39	0	506462208	42	6099
2026-01-08 01:03:59.87	185.74	16.69	-35.0	-35.9	24.1	0.00e+00	0	39	0	509607936	42	6179
2026-01-08 01:04:00.85	185.82	16.80	-34.9	-35.8	24.2	0.00e+00	0	39	0	512753664	42	6099
2026-01-08 01:04:01.83	185.89	16.90	-35.0	-35.9	24.1	0.00e+00	0	39	0	515899392	42	6136
2026-01-08 01:04:02.80	185.97	17.01	-35.0	-35.9	24.1	0.00e+00	0	39	0	519045120	42	6192
2026-01-08 01:04:03.78	186.04	17.12	-34.9	-35.9	24.2	0.00e+00	0	39	0	522190848	42	6142
2026-01-08 01:04:04.76	186.12	17.22	-35.0	-36.0	24.0	0.00e+00	0	39	0	525336576	42	6215
2026-01-08 01:04:05.74	186.20	17.33	-35.1	-36.0	24.0	0.00e+00	0	39	0	527433728	42	6264
2026-01-08 01:04:06.71	186.28	17.44	-35.0	-35.9	24.1	0.00e+00	0	39	0	530579456	42	6179
2026-01-08 01:04:07.69	186.35	17.55	-35.1	-36.0	24.0	0.00e+00	0	39	0	533725184	42	6243
2026-01-08 01:04:08.66	186.43	17.66	-34.9	-35.8	24.1	0.00e+00	0	39	0	536870912	42	6133
2026-01-08 01:04:09.64	186.51	17.77	-35.0	-35.9	24.1	0.00e+00	0	39	0	540016640	42	6149
2026-01-08 01:04:10.62	186.59	17.88	-34.9	-35.8	24.1	0.00e+00	0	39	0	543162368	42	6097
2026-01-08 01:04:11.60	186.67	17.99	-34.9	-35.8	24.1	0.00e+00	0	39	0	546308096	42	6119
2026-01-08 01:04:12.57	186.75	18.10	-35.0	-35.9	24.0	0.00e+00	0	39	0	549453824	42	6201
2026-01-08 01:04:13.55	186.83	18.21	-34.9	-35.8	24.2	0.00e+00	0	39	0	552599552	42	6116
2026-01-08 01:04:14.53	186.92	18.32	-35.0	-36.0	24.1	0.00e+00	0	39	0	555745280	42	6208
2026-01-08 01:04:15.51	187.00	18.43	-34.9	-35.8	24.2	0.00e+00	0	39	0	558891008	42	6133
2026-01-08 01:04:16.49	187.08	18.55	-35.0	-35.9	24.1	0.00e+00	0	39	0	560988160	42	6204
2026-01-08 01:04:17.47	187.17	18.66	-35.0	-35.9	24.1	0.00e+00	0	39	0	564133888	42	6182
2026-01-08 01:04:18.44	187.25	18.77	-35.2	-36.1	24.0	0.00e+00	0	39	0	567279616	42	6345
2026-01-08 01:04:19.42	187.34	18.89	-35.3	-36.2	23.9	0.00e+00	0	39	0	570425344	42	6372
2026-01-08 01:04:20.40	187.42	19.00	-35.1	-36.1	24.0	0.00e+00	0	39	0	573571072	42	6291
2026-01-08 01:04:21.38	187.51	19.12	-35.3	-36.3	23.8	0.00e+00	0	39	0	576716800	42	6430
2026-01-08 01:04:22.35	187.59	19.23	-35.1	-36.1	23.9	0.00e+00	0	39	0	579862528	42	6292
2026-01-08 01:04:23.33	187.68	19.35	-35.3	-36.2	23.9	0.00e+00	0	39	0	583008256	42	6391
2026-01-08 01:04:24.31	187.77	19.47	-35.3	-36.3	23.8	0.00e+00	0	39	0	586153984	42	6442
2026-01-08 01:04:25.29	187.86	19.58	-35.2	-36.1	23.9	0.00e+00	0	39	0	589299712	42	6317
2026-01-08 01:04:26.26	187.95	19.70	-35.0	-35.9	24.0	0.00e+00	0	39	0	592445440	42	6179
2026-01-08 01:04:27.23	188.04	19.82	-35.2	-36.1	23.9	0.00e+00	0	39	0	594542592	42	6320
2026-01-08 01:04:28.21	188.13	19.94	-35.0	-35.9	24.0	0.00e+00	0	39	0	597688320	42	6189
2026-01-08 01:04:29.19	188.22	20.06	-34.8	-35.7	24.2	0.00e+00	0	39	0	600834048	42	6000
2026-01-08 01:04:30.16	188.31	20.18	-34.9	-35.8	24.1	0.00e+00	0	39	0	603979776	42	6069
2026-01-08 01:04:31.14	188.41	20.30	-34.6	-35.5	24.3	0.00e+00	0	39	0	607125504	42	5892
2026-01-08 01:04:32.12	188.50	20.42	-34.7	-35.6	24.2	0.00e+00	0	39	0	610271232	42	5958
2026-01-08 01:04:33.10	188.59	20.54	-34.5	-35.4	24.3	0.00e+00	0	39	0	613416960	42	5813
2026-01-08 01:04:34.07	188.69	20.66	-34.6	-35.5	24.3	0.00e+00	0	39	0	616562688	42	5893
2026-01-08 01:04:35.05	188.78	20.78	-34.5	-35.4	24.4	0.00e+00	0	39	0	619708416	42	5823
2026-01-08 01:04:36.03	188.88	20.90	-34.7	-35.6	24.2	0.00e+00	0	39	0	622854144	42	5966
2026-01-08 01:04:37.01	188.98	21.03	-34.4	-35.2	24.5	0.00e+00	0	39	0	625999872	42	5716
2026-01-08 01:04:37.99	189.08	21.15	-34.4	-35.3	24.5	0.00e+00	0	39	0	629145600	42	5748
2026-01-08 01:04:38.97	189.17	21.28	-34.4	-35.3	24.4	0.00e+00	0	39	0	631242752	42	5754
2026-01-08 01:04:39.94	189.27	21.40	-34.3	-35.2	24.6	0.00e+00	0	39	0	634388480	42	5681
2026-01-08 01:04:40.92	189.37	21.53	-34.4	-35.3	24.4	0.00e+00	0	39	0	637534208	42	5740
2026-01-08 01:04:41.90	189.47	21.65	-34.4	-35.3	24.5	0.00e+00	0	39	0	640679936	42	5784
2026-01-08 01:04:42.88	189.58	21.78	-34.1	-35.0	24.6	0.00e+00	0	39	0	643825664	42	5580
2026-01-08 01:04:43.86	189.68	21.91	-34.2	-35.0	24.6	0.00e+00	0	39	0	646971392	42	5594
2026-01-08 01:04:44.84	189.78	22.03	-34.0	-34.8	24.8	0.00e+00	0	39	0	650117120	42	5460
2026-01-08 01:04:45.82	189.89	22.16	-33.9	-34.8	24.9	0.00e+00	0	39	0	653262848	42	5419
2026-01-08 01:04:46.79	189.99	22.29	-34.0	-34.8	24.8	0.00e+00	0	39	0	656408576	42	5466
2026-01-08 01:04:47.78	190.10	22.42	-33.7	-34.6	25.0	0.00e+00	0	39	0	659554304	40	5954
2026-01-08 01:04:48.76	190.21	22.55	-33.8	-34.7	24.9	0.00e+00	0	39	0	662700032	40	6011
2026-01-08 01:04:49.73	190.31	22.68	-33.8	-34.6	25.0	0.00e+00	0	39	0	665845760	40	5992
2026-01-08 01:04:50.71	190.42	22.81	-33.7	-34.6	25.1	0.00e+00	0	39	0	668991488	40	5943
2026-01-08 01:04:51.68	190.53	22.94	-33.7	-34.6	25.1	0.00e+00	0	39	0	671088640	40	5932
2026-01-08 01:04:52.66	190.64	23.07	-33.6	-34.4	25.2	0.00e+00	0	39	0	674234368	40	5846
2026-01-08 01:04:53.64	190.75	23.21	-33.7	-34.6	25.1	0.00e+00	0	39	0	677380096	40	5937
2026-01-08 01:04:54.62	190.86	23.34	-33.6	-34.4	25.2	0.00e+00	0	39	0	680525824	40	5851
2026-01-08 01:04:55.60	190.98	23.47	-33.6	-34.5	25.1	0.00e+00	0	39	0	683671552	40	5894
2026-01-08 01:04:56.58	191.09	23.61	-33.6	-34.5	25.2	0.00e+00	0	39	0	686817280	40	5896
2026-01-08 01:04:57.55	191.21	23.74	-33.6	-34.5	25.2	0.00e+00	0	39	0	689963008	40	5877
2026-01-08 01:04:58.53	191.32	23.88	-33.7	-34.6	25.2	0.00e+00	0	39	0	693108736	40	5935
2026-01-08 01:04:59.51	191.44	24.01	-33.5	-34.4	25.2	0.00e+00	0	39	0	696254464	40	5820
2026-01-08 01:05:00.48	191.56	24.15	-33.5	-34.3	25.3	0.00e+00	0	39	0	699400192	40	5773
2026-01-08 01:05:01.46	191.67	24.29	-33.5	-34.3	25.3	0.00e+00	0	39	0	702545920	40	5780
2026-01-08 01:05:02.44	191.79	24.43	-33.5	-34.4	25.2	0.00e+00	0	39	0	704643072	40	5821
2026-01-08 01:05:03.42	191.92	24.56	-33.6	-34.5	25.2	0.00e+00	0	39	0	707788800	40	5882
2026-01-08 01:05:04.39	192.04	24.70	-33.5	-34.3	25.3	0.00e+00	0	39	0	710934528	40	5788
2026-01-08 01:05:05.37	192.16	24.84	-33.5	-34.3	25.3	0.00e+00	0	39	0	714080256	40	5766
2026-01-08 01:05:06.35	192.28	24.98	-33.5	-34.3	25.4	0.00e+00	0	39	0	717225984	40	5771
2026-01-08 01:05:07.33	192.41	25.12	-33.5	-34.4	25.3	0.00e+00	0	39	0	720371712	40	5818
2026-01-08 01:05:08.30	192.53	25.27	-33.5	-34.4	25.3	0.00e+00	0	39	0	723517440	40	5800
2026-01-08 01:05:09.28	192.66	25.41	-33.6	-34.5	25.2	0.00e+00	0	39	0	726663168	40	5877
2026-01-08 01:05:10.26	192.79	25.55	-33.8	-34.6	25.2	0.00e+00	0	39	0	729808896	40	5979
2026-01-08 01:05:11.24	192.92	25.69	-33.9	-34.8	25.1	0.00e+00	0	39	0	732954624	40	6081
2026-01-08 01:05:12.22	193.05	25.84	-33.9	-34.8	25.0	0.00e+00	0	39	0	736100352	40	6104
2026-01-08 01:05:13.19	193.18	25.98	-34.1	-35.0	25.0	0.00e+00	0	39	0	739246080	40	6212
2026-01-08 01:05:14.17	193.31	26.13	-34.1	-35.0	25.0	0.00e+00	0	39	0	741343232	40	6216
2026-01-08 01:05:15.15	193.45	26.27	-34.1	-35.0	24.9	0.00e+00	0	39	0	744488960	40	6257
2026-01-08 01:05:16.13	193.58	26.42	-34.1	-35.0	24.9	0.00e+00	0	39	0	747634688	40	6236
2026-01-08 01:05:17.10	193.72	26.57	-34.2	-35.1	24.8	0.00e+00	0	39	0	750780416	40	6301
2026-01-08 01:05:18.08	193.86	26.71	-34.3	-35.2	24.8	0.00e+00	0	39	0	753926144	40	6394
2026-01-08 01:05:19.06	194.00	26.86	-34.3	-35.2	24.8	0.00e+00	0	39	0	757071872	40	6392
2026-01-08 01:05:20.03	194.14	27.01	-34.3	-35.2	24.8	0.00e+00	0	39	0	760217600	40	6354
2026-01-08 01:05:21.01	194.28	27.16	-34.3	-35.2	24.9	0.00e+00	0	39	0	763363328	40	6365
2026-01-08 01:05:21.98	194.42	27.31	-34.4	-35.3	24.8	0.00e+00	0	39	0	766509056	40	6457
2026-01-08 01:05:22.96	194.56	27.46	-34.4	-35.2	24.8	0.00e+00	0	39	0	769654784	40	6414
2026-01-08 01:05:23.94	194.71	27.61	-34.6	-35.4	24.6	0.00e+00	0	39	0	771751936	40	6555
2026-01-08 01:05:24.91	194.86	27.76	-34.6	-35.5	24.6	0.00e+00	0	39	0	774897664	40	6591
2026-01-08 01:05:25.89	195.00	27.92	-34.7	-35.6	24.5	0.00e+00	0	39	0	778043392	40	6701
2026-01-08 01:05:26.86	195.15	28.07	-34.8	-35.7	24.4	0.00e+00	0	39	0	781189120	42	6026
2026-01-08 01:05:27.84	195.30	28.22	-34.7	-35.6	24.4	0.00e+00	0	39	0	784334848	42	5944
2026-01-08 01:05:28.82	195.46	28.38	-34.7	-35.6	24.3	0.00e+00	0	39	0	787480576	42	5933
2026-01-08 01:05:29.80	195.61	28.54	-34.7	-35.6	24.2	0.00e+00	0	39	0	790626304	42	5988
2026-01-08 01:05:30.78	195.77	28.69	-34.7	-35.6	24.2	0.00e+00	0	39	0	793772032	42	5973
2026-01-08 01:05:31.76	195.92	28.85	-34.6	-35.5	24.4	0.00e+00	0	39	0	796917760	42	5905
2026-01-08 01:05:32.73	196.08	29.01	-34.7	-35.6	24.4	0.00e+00	0	39	0	800063488	42	5954
2026-01-08 01:05:33.71	196.24	29.16	-34.8	-35.7	24.4	0.00e+00	0	39	0	803209216	42	6039
2026-01-08 01:05:34.69	196.40	29.32	-34.9	-35.8	24.3	0.00e+00	0	39	0	805306368	42	6070
2026-01-08 01:05:35.67	196.56	29.48	-35.0	-35.9	24.2	0.00e+00	0	39	0	808452096	42	6204
2026-01-08 01:05:36.65	196.73	29.64	-35.0	-35.9	24.2	0.00e+00	0	39	0	811597824	42	6142
2026-01-08 01:05:37.62	196.89	29.80	-35.1	-36.0	24.2	0.00e+00	0	39	0	814743552	42	6225
2026-01-08 01:05:38.60	197.06	29.97	-35.2	-36.1	24.0	0.00e+00	0	39	0	817889280	42	6302
2026-01-08 01:05:39.58	197.23	30.13	-35.0	-35.9	24.1	0.00e+00	0	39	0	821035008	42	6168
2026-01-08 01:05:40.55	197.40	30.29	-35.1	-36.0	24.0	0.00e+00	0	39	0	824180736	42	6246
2026-01-08 01:05:41.53	197.57	30.45	-35.0	-35.9	24.0	0.00e+00	0	39	0	827326464	42	6169
2026-01-08 01:05:42.51	197.75	30.62	-34.7	-35.7	24.2	0.00e+00	0	39	0	830472192	42	5997
2026-01-08 01:05:43.49	197.93	30.78	-34.5	-35.4	24.4	0.00e+00	0	39	0	833617920	42	5833
2026-01-08 01:05:44.46	198.10	30.95	-34.5	-35.4	24.5	0.00e+00	0	39	0	836763648	42	5843
2026-01-08 01:05:45.44	198.28	31.11	-34.6	-35.5	24.6	0.00e+00	0	39	0	839909376	42	5896
2026-01-08 01:05:46.42	198.46	31.28	-34.6	-35.5	24.5	0.00e+00	0	39	0	843055104	42	5911
2026-01-08 01:05:47.39	198.65	31.45	-34.7	-35.6	24.5	0.00e+00	0	39	0	845152256	42	5949
2026-01-08 01:05:48.37	198.83	31.61	-34.8	-35.8	24.5	0.00e+00	0	39	0	848297984	42	6069
2026-01-08 01:05:49.35	199.02	31.78	-34.9	-35.8	24.4	0.00e+00	0	39	0	851443712	42	6089
2026-01-08 01:05:50.33	199.21	31.95	-34.9	-35.8	24.3	0.00e+00	0	39	0	854589440	42	6107
2026-01-08 01:05:51.31	199.40	32.12	-34.7	-35.6	24.5	0.00e+00	0	39	0	857735168	42	5945
2026-01-08 01:05:52.28	199.59	32.29	-34.9	-35.8	24.5	0.00e+00	0	39	0	860880896	42	6086
2026-01-08 01:05:53.26	199.78	32.46	-34.6	-35.4	24.6	0.00e+00	0	39	0	864026624	42	5848
2026-01-08 01:05:54.24	199.98	32.63	-34.6	-35.5	24.5	0.00e+00	0	39	0	867172352	42	5906
2026-01-08 01:05:55.22	200.18	32.81	-34.5	-35.4	24.8	0.00e+00	0	39	0	870318080	42	5795
2026-01-08 01:05:56.20	200.38	32.98	-34.7	-35.6	24.6	0.00e+00	0	39	0	873463808	42	5951
2026-01-08 01:05:57.18	200.59	33.15	-34.8	-35.7	24.4	0.00e+00	0	39	0	876609536	42	6041
2026-01-08 01:05:58.15	200.79	33.33	-35.0	-35.9	24.3	0.00e+00	0	39	0	879755264	42	6201
2026-01-08 01:05:59.13	201.00	33.50	-35.3	-36.2	24.1	0.00e+00	0	39	0	881852416	42	6364
2026-01-08 01:06:00.11	201.21	33.68	-35.5	-36.4	24.0	0.00e+00	0	39	0	884998144	42	6565
2026-01-08 01:06:01.08	201.42	33.85	-35.7	-36.6	23.8	0.00e+00	0	39	0	888143872	44	5964
2026-01-08 01:06:02.06	201.63	34.03	-35.7	-36.7	23.7	0.00e+00	0	39	0	891289600	44	6007
2026-01-08 01:06:03.04	201.85	34.21	-35.7	-36.7	23.7	0.00e+00	0	39	0	894435328	44	6005
2026-01-08 01:06:04.02	202.07	34.38	-35.7	-36.6	23.8	0.00e+00	0	39	0	897581056	44	5947
2026-01-08 01:06:05.00	202.29	34.56	-35.8	-36.7	23.8	0.00e+00	0	39	0	900726784	44	6022
2026-01-08 01:06:05.97	202.51	34.74	-35.8	-36.7	23.7	0.00e+00	0	39	0	903872512	44	6041
2026-01-08 01:06:06.95	202.74	34.92	-36.0	-37.0	23.5	0.00e+00	0	39	0	907018240	44	6217
2026-01-08 01:06:07.93	202.96	35.10	-36.1	-37.0	23.5	0.00e+00	0	39	0	910163968	44	6240
2026-01-08 01:06:08.91	203.20	35.28	-36.2	-37.2	23.3	0.00e+00	0	39	0	913309696	44	6374
2026-01-08 01:06:09.89	203.43	35.46	-36.5	-37.5	23.1	0.00e+00	0	39	0	915406848	44	6600
2026-01-08 01:06:10.87	203.66	35.64	-36.5	-37.5	23.1	0.00e+00	0	39	0	918552576	44	6620
2026-01-08 01:06:11.85	203.90	35.83	-36.5	-37.4	23.2	0.00e+00	0	39	0	921698304	44	6553
2026-01-08 01:06:12.82	204.14	36.01	-36.8	-37.8	22.9	0.00e+00	0	39	0	924844032	46	6106
2026-01-08 01:06:13.80	204.39	36.19	-37.0	-38.0	22.7	0.00e+00	0	39	0	927989760	46	6251
2026-01-08 01:06:14.78	204.63	36.37	-36.8	-37.8	22.9	0.00e+00	0	39	0	931135488	46	6112
2026-01-08 01:06:15.75	204.88	36.56	-36.8	-37.8	22.8	0.00e+00	0	39	0	934281216	46	6100
2026-01-08 01:06:16.73	205.13	36.74	-36.8	-37.8	22.9	0.00e+00	0	39	0	937426944	46	6102
2026-01-08 01:06:17.71	205.39	36.93	-36.7	-37.7	23.0	0.00e+00	0	39	0	940572672	46	6017
2026-01-08 01:06:18.69	205.65	37.11	-36.7	-37.6	23.0	0.00e+00	0	39	0	943718400	46	5981
2026-01-08 01:06:19.66	205.90	37.30	-36.6	-37.6	23.1	0.00e+00	0	39	0	946864128	46	5948
2026-01-08 01:06:20.64	206.17	37.48	-36.9	-37.9	22.9	0.00e+00	0	39	0	950009856	46	6193
2026-01-08 01:06:21.62	206.43	37.67	-36.9	-37.9	22.8	0.00e+00	0	39	0	952107008	46	6162
2026-01-08 01:06:22.60	206.70	37.85	-36.7	-37.7	23.0	0.00e+00	0	39	0	955252736	46	6018
2026-01-08 01:06:23.58	206.98	38.04	-36.3	-37.2	23.3	0.00e+00	0	39	0	958398464	46	5707
2026-01-08 01:06:24.55	207.25	38.23	-36.2	-37.2	23.3	0.00e+00	0	39	0	961544192	46	5675
2026-01-08 01:06:25.53	207.53	38.42	-36.4	-37.3	23.3	0.00e+00	0	39	0	964689920	46	5768
2026-01-08 01:06:26.51	207.81	38.60	-36.5	-37.5	23.1	0.00e+00	0	39	0	967835648	46	5859
2026-01-08 01:06:27.49	208.10	38.79	-36.7	-37.7	23.0	0.00e+00	0	39	0	970981376	46	6038
2026-01-08 01:06:28.46	208.38	38.98	-36.6	-37.6	23.1	0.00e+00	0	39	0	974127104	46	5942
2026-01-08 01:06:29.44	208.67	39.17	-36.5	-37.5	23.1	0.00e+00	0	39	0	977272832	46	5884
2026-01-08 01:06:30.41	208.96	39.36	-36.6	-37.5	23.1	0.00e+00	0	39	0	980418560	46	5909
2026-01-08 01:06:31.39	209.26	39.54	-36.7	-37.6	23.0	0.00e+00	0	39	0	982515712	46	5988
2026-01-08 01:06:32.37	209.57	39.73	-36.6	-37.5	23.1	0.00e+00	0	39	0	985661440	46	5915
2026-01-08 01:06:33.35	209.87	39.92	-36.7	-37.7	23.0	0.00e+00	0	39	0	988807168	46	6047
2026-01-08 01:06:34.33	210.18	40.11	-36.9	-37.9	22.7	0.00e+00	0	39	0	991952896	46	6145
2026-01-08 01:06:35.31	210.49	40.30	-37.1	-38.2	22.4	0.00e+00	0	39	0	995098624	46	6357
2026-01-08 01:06:36.29	210.81	40.49	-37.0	-38.0	22.5	0.00e+00	0	39	0	998244352	46	6275
2026-01-08 01:06:37.27	211.13	40.68	-36.9	-37.9	22.6	0.00e+00	0	39	0	1001390080	46	6162
2026-01-08 01:06:38.25	211.45	40.87	-36.8	-37.8	22.8	0.00e+00	0	39	0	1004535808	46	6067
2026-01-08 01:06:39.22	211.78	41.06	-36.9	-38.0	22.7	0.00e+00	0	39	0	1007681536	46	6207
2026-01-08 01:06:40.20	212.11	41.25	-37.1	-38.1	22.4	0.00e+00	0	39	0	1010827264	46	6328
2026-01-08 01:06:41.18	212.44	41.44	-37.2	-38.2	22.4	0.00e+00	0	39	0	1013972992	46	6417
2026-01-08 01:06:42.16	212.78	41.63	-37.2	-38.3	22.4	0.00e+00	0	39	0	1017118720	46	6431
2026-01-08 01:06:43.13	213.12	41.82	-37.3	-38.3	22.3	0.00e+00	0	39	0	1019215872	46	6452
2026-01-08 01:06:44.11	213.47	42.01	-37.4	-38.5	22.1	0.00e+00	0	39	0	1022361600	46	6599
2026-01-08 01:06:45.08	213.81	42.20	-37.6	-38.7	22.0	0.00e+00	0	39	0	1025507328	46	6739
2026-01-08 01:06:46.06	214.17	42.39	-37.6	-38.6	22.2	0.00e+00	0	39	0	1028653056	46	6690
2026-01-08 01:06:47.04	214.53	42.57	-37.3	-38.3	22.5	0.00e+00	0	39	0	1031798784	46	6473
2026-01-08 01:06:48.02	214.89	42.76	-37.3	-38.3	22.5	0.00e+00	0	39	0	1034944512	46	6429
2026-01-08 01:06:49.00	215.26	42.95	-37.4	-38.4	22.2	0.00e+00	0	39	0	1038090240	46	6569
2026-01-08 01:06:49.98	215.63	43.14	-38.0	-39.0	21.8	0.00e+00	0	39	0	1041235968	48	6243
2026-01-08 01:06:50.96	216.01	43.33	-38.3	-39.3	21.5	0.00e+00	0	39	0	1044381696	48	6480
2026-01-08 01:06:51.93	216.38	43.51	-38.4	-39.5	21.5	0.00e+00	0	39	0	1047527424	48	6629
2026-01-08 01:06:52.91	216.77	43.70	-38.1	-39.2	21.4	0.00e+00	0	39	0	1050673152	48	6388
2026-01-08 01:06:53.89	217.16	43.88	-38.0	-39.1	21.5	0.00e+00	0	39	0	1053818880	48	6302
2026-01-08 01:06:54.86	217.55	44.07	-37.8	-38.8	21.8	0.00e+00	0	39	0	1056964608	48	6127
2026-01-08 01:06:55.84	217.94	44.25	-37.5	-38.5	22.2	0.00e+00	0	39	0	1059061760	48	5905
2026-01-08 01:06:56.82	218.35	44.44	-37.4	-38.4	22.3	0.00e+00	0	39	0	1062207488	48	5856
2026-01-08 01:06:57.80	218.75	44.62	-37.6	-38.6	22.2	0.00e+00	0	39	0	1065353216	48	5962
2026-01-08 01:06:58.78	219.17	44.80	-37.7	-38.7	22.0	0.00e+00	0	39	0	1068498944	48	6049
2026-01-08 01:06:59.75	219.58	44.98	-37.8	-38.8	22.0	0.00e+00	0	39	0	1071644672	48	6120
2026-01-08 01:07:00.73	220.00	45.16	-37.9	-39.0	21.7	0.00e+00	0	39	0	1074790400	48	6247
2026-01-08 01:07:01.70	220.42	45.34	-37.8	-38.8	21.9	0.00e+00	0	39	0	1077936128	48	6129
2026-01-08 01:07:02.68	220.85	45.52	-37.8	-38.9	21.8	0.00e+00	0	39	0	1081081856	48	6154
2026-01-08 01:07:03.66	221.29	45.70	-37.7	-38.7	22.0	0.00e+00	0	39	0	1084227584	48	6019
2026-01-08 01:07:04.64	221.73	45.88	-37.7	-38.7	22.0	0.00e+00	0	39	0	1087373312	48	6059
2026-01-08 01:07:05.61	222.17	46.05	-37.8	-38.8	21.9	0.00e+00	0	39	0	1090519040	48	6131
2026-01-08 01:07:06.59	222.62	46.23	-37.8	-38.9	21.8	0.00e+00	0	39	0	1092616192	48	6183
2026-01-08 01:07:07.57	223.07	46.40	-37.8	-38.9	21.9	0.00e+00	0	39	0	1095761920	48	6182
2026-01-08 01:07:08.54	223.53	46.57	-37.7	-38.8	22.0	0.00e+00	0	39	0	1098907648	48	6082
2026-01-08 01:07:09.52	224.00	46.75	-37.5	-38.5	22.2	0.00e+00	0	39	0	1102053376	48	5908
2026-01-08 01:07:10.50	224.47	46.92	-37.4	-38.4	22.3	0.00e+00	0	39	0	1105199104	48	5842
2026-01-08 01:07:11.48	224.94	47.08	-37.4	-38.4	22.2	0.00e+00	0	39	0	1108344832	48	5847
2026-01-08 01:07:12.45	225.42	47.25	-37.3	-38.3	22.3	0.00e+00	0	39	0	1111490560	48	5740
2026-01-08 01:07:13.43	225.90	47.42	-37.3	-38.3	22.4	0.00e+00	0	39	0	1114636288	48	5787
2026-01-08 01:07:14.40	226.39	47.58	-37.2	-38.2	22.5	0.00e+00	0	39	0	1117782016	48	5697
2026-01-08 01:07:15.38	226.88	47.74	-37.2	-38.2	22.6	0.00e+00	0	39	0	1120927744	48	5696
2026-01-08 01:07:16.36	227.38	47.90	-36.9	-37.9	22.7	0.00e+00	0	39	0	1124073472	48	5509
2026-01-08 01:07:17.34	227.89	48.06	-37.0	-38.0	22.6	0.00e+00	0	39	0	1126170624	48	5578
2026-01-08 01:07:18.32	228.40	48.22	-37.1	-38.1	22.7	0.00e+00	0	39	0	1129316352	48	5600
2026-01-08 01:07:19.29	228.91	48.37	-37.1	-38.1	22.5	0.00e+00	0	39	0	1132462080	48	5645
2026-01-08 01:07:20.27	229.43	48.53	-37.3	-38.2	22.5	0.00e+00	0	39	0	1135607808	48	5722
2026-01-08 01:07:21.24	229.95	48.68	-37.1	-38.1	22.6	0.00e+00	0	39	0	1138753536	48	5636
2026-01-08 01:07:22.22	230.49	48.83	-37.0	-38.0	22.7	0.00e+00	0	39	0	1141899264	48	5567
2026-01-08 01:07:23.20	231.02	48.97	-36.6	-37.6	23.0	0.00e+00	0	39	0	1145044992	46	5957
2026-01-08 01:07:24.18	231.56	49.12	-36.7	-37.6	23.0	0.00e+00	0	39	0	1148190720	46	5976
2026-01-08 01:07:25.15	232.10	49.26	-36.8	-37.8	22.8	0.00e+00	0	39	0	1151336448	46	6098
2026-01-08 01:07:26.13	232.66	49.40	-36.9	-37.9	22.8	0.00e+00	0	39	0	1154482176	46	6154
2026-01-08 01:07:27.11	233.21	49.54	-36.6	-37.6	22.9	0.00e+00	0	39	0	1157627904	46	5960
2026-01-08 01:07:28.08	233.77	49.67	-36.6	-37.6	22.6	0.00e+00	0	39	0	1159725056	46	5936
2026-01-08 01:07:29.06	234.34	49.81	-36.9	-37.9	22.4	0.00e+00	0	39	0	1162870784	46	6166
2026-01-08 01:07:30.03	234.90	49.94	-37.1	-38.1	22.4	0.00e+00	0	39	0	1166016512	46	6345
2026-01-08 01:07:31.01	235.48	50.07	-36.9	-37.9	22.7	0.00e+00	0	39	0	1169162240	46	6170
2026-01-08 01:07:31.99	236.06	50.19	-37.0	-38.0	22.6	0.00e+00	0	39	0	1172307968	46	6223
2026-01-08 01:07:32.97	236.64	50.32	-36.9	-37.8	22.8	0.00e+00	0	39	0	1175453696	46	6118
2026-01-08 01:07:33.95	237.23	50.44	-37.0	-38.0	22.6	0.00e+00	0	39	0	1178599424	46	6233
2026-01-08 01:07:34.93	237.83	50.55	-37.0	-38.1	22.6	0.00e+00	0	39	0	1181745152	46	6280
2026-01-08 01:07:35.90	238.42	50.67	-36.7	-37.6	23.0	0.00e+00	0	39	0	1184890880	46	5983
2026-01-08 01:07:36.88	239.03	50.78	-36.5	-37.4	23.2	0.00e+00	0	39	0	1188036608	46	5845
2026-01-08 01:07:37.86	239.63	50.89	-36.1	-37.1	23.4	0.00e+00	0	39	0	1191182336	46	5597
2026-01-08 01:07:38.84	240.25	50.99	-36.2	-37.1	23.3	0.00e+00	0	39	0	1193279488	46	5635
2026-01-08 01:07:39.81	240.86	51.09	-36.3	-37.2	23.3	0.00e+00	0	39	0	1196425216	46	5715
2026-01-08 01:07:40.79	241.48	51.19	-36.3	-37.2	23.3	0.00e+00	0	39	0	1199570944	46	5695
2026-01-08 01:07:41.77	242.10	51.29	-36.1	-37.0	23.6	0.00e+00	0	39	0	1202716672	46	5591
2026-01-08 01:07:42.75	242.73	51.38	-36.1	-37.0	23.5	0.00e+00	0	39	0	1205862400	46	5561
2026-01-08 01:07:43.73	243.36	51.47	-36.4	-37.3	23.0	0.00e+00	0	39	0	1209008128	46	5787
2026-01-08 01:07:44.70	243.99	51.55	-36.5	-37.5	22.9	0.00e+00	0	39	0	1212153856	46	5883
2026-01-08 01:07:45.68	244.63	51.63	-36.6	-37.6	23.0	0.00e+00	0	39	0	1215299584	46	5980
2026-01-08 01:07:46.66	245.28	51.71	-36.4	-37.4	23.3	0.00e+00	0	39	0	1218445312	46	5814
2026-01-08 01:07:47.63	245.92	51.79	-36.2	-37.1	23.3	0.00e+00	0	39	0	1221591040	46	5653
2026-01-08 01:07:48.61	246.56	51.86	-36.2	-37.2	23.2	0.00e+00	0	39	0	1224736768	46	5662
2026-01-08 01:07:49.59	247.22	51.93	-36.2	-37.2	23.0	0.00e+00	0	39	0	1227882496	46	5679
2026-01-08 01:07:50.57	247.87	51.99	-36.5	-37.4	23.0	0.00e+00	0	39	0	1231028224	46	5848
2026-01-08 01:07:51.54	248.52	52.05	-35.9	-36.9	23.4	0.00e+00	0	39	0	1233125376	46	5487
2026-01-08 01:07:52.52	249.18	52.11	-35.8	-36.7	23.4	0.00e+00	0	39	0	1236271104	46	5372
2026-01-08 01:07:53.50	249.85	52.16	-35.7	-36.6	23.2	0.00e+00	0	39	0	1239416832	44	5987
2026-01-08 01:07:54.47	250.51	52.21	-36.2	-37.2	22.8	0.00e+00	0	39	0	1242562560	44	6398
2026-01-08 01:07:55.45	251.17	52.25	-36.6	-37.6	22.8	0.00e+00	0	39	0	1245708288	44	6694
2026-01-08 01:07:56.43	251.84	52.29	-36.6	-37.6	22.8	0.00e+00	0	39	0	1248854016	44	6676
2026-01-08 01:07:57.41	252.51	52.33	-36.5	-37.5	23.0	0.00e+00	0	39	0	1251999744	44	6644
2026-01-08 01:07:58.39	253.18	52.36	-36.2	-37.2	23.2	0.00e+00	0	39	0	1255145472	44	6383
2026-01-08 01:07:59.36	253.85	52.39	-36.3	-37.3	23.4	0.00e+00	0	39	0	1258291200	44	6433
2026-01-08 01:08:00.34	254.53	52.42	-35.9	-36.8	23.7	0.00e+00	0	39	0	1261436928	44	6087
2026-01-08 01:08:01.32	255.20	52.44	-35.9	-36.8	23.7	0.00e+00	0	39	0	1264582656	44	6089
2026-01-08 01:08:02.30	255.88	52.45	-35.7	-36.7	23.8	0.00e+00	0	39	0	1267728384	44	5997
2026-01-08 01:08:03.27	256.55	52.47	-35.9	-36.9	23.4	0.00e+00	0	39	0	1269825536	44	6144
2026-01-08 01:08:04.25	257.23	52.48	-36.0	-36.9	23.4	0.00e+00	0	39	0	1272971264	44	6199
2026-01-08 01:08:05.23	257.91	52.48	-35.7	-36.6	23.7	0.00e+00	0	39	0	1276116992	44	5980
2026-01-08 01:08:06.21	258.58	52.48	-35.8	-36.7	23.7	0.00e+00	0	39	0	1279262720	44	6017
2026-01-08 01:08:07.18	259.26	52.48	-35.3	-36.2	24.1	0.00e+00	0	39	0	1282408448	44	5706
2026-01-08 01:08:08.16	259.93	52.47	-35.7	-36.6	23.9	0.00e+00	0	39	0	1285554176	44	5960
2026-01-08 01:08:09.13	260.60	52.46	-35.7	-36.6	23.9	0.00e+00	0	39	0	1288699904	44	5960
2026-01-08 01:08:10.11	261.28	52.44	-35.6	-36.5	24.1	0.00e+00	0	39	0	1291845632	44	5894
2026-01-08 01:08:11.09	261.96	52.42	-35.4	-36.3	24.0	0.00e+00	0	39	0	1294991360	44	5752
2026-01-08 01:08:12.07	262.63	52.40	-35.5	-36.4	23.8	0.00e+00	0	39	0	1298137088	44	5834
2026-01-08 01:08:13.05	263.31	52.37	-35.3	-36.3	23.8	0.00e+00	0	39	0	1301282816	44	5730
2026-01-08 01:08:14.03	263.98	52.34	-35.4	-36.4	24.0	0.00e+00	0	39	0	1303379968	44	5810
2026-01-08 01:08:15.00	264.64	52.31	-35.4	-36.3	24.1	0.00e+00	0	39	0	1306525696	44	5781
2026-01-08 01:08:15.98	265.31	52.27	-35.6	-36.5	23.9	0.00e+00	0	39	0	1309671424	44	5920
2026-01-08 01:08:16.96	265.98	52.23	-36.1	-37.1	23.5	0.00e+00	0	39	0	1312817152	44	6303
2026-01-08 01:08:17.93	266.64	52.18	-36.5	-37.5	23.1	0.00e+00	0	39	0	1315962880	44	6631
2026-01-08 01:08:18.91	267.30	52.13	-36.3	-37.3	23.1	0.00e+00	0	39	0	1319108608	44	6485
2026-01-08 01:08:19.89	267.96	52.07	-36.0	-36.9	23.6	0.00e+00	0	39	0	1322254336	44	6180
2026-01-08 01:08:20.87	268.62	52.01	-36.1	-37.0	23.2	0.00e+00	0	39	0	1325400064	44	6242
2026-01-08 01:08:21.84	269.27	51.95	-36.8	-37.9	22.5	0.00e+00	0	39	0	1328545792	46	6147
2026-01-08 01:08:22.82	269.92	51.89	-37.5	-38.5	22.3	0.00e+00	0	39	0	1331691520	46	6646
2026-01-08 01:08:23.80	270.57	51.82	-37.1	-38.1	22.7	0.00e+00	0	39	0	1334837248	46	6341
2026-01-08 01:08:24.78	271.22	51.74	-36.9	-37.9	22.7	0.00e+00	0	39	0	1336934400	46	6149
2026-01-08 01:08:25.76	271.87	51.67	-37.1	-38.1	22.6	0.00e+00	0	39	0	1340080128	46	6318
2026-01-08 01:08:26.73	272.50	51.59	-36.7	-37.8	22.8	0.00e+00	0	39	0	1343225856	46	6083
2026-01-08 01:08:27.71	273.14	51.50	-36.8	-37.8	22.9	0.00e+00	0	39	0	1346371584	46	6104
2026-01-08 01:08:28.68	273.76	51.42	-36.3	-37.3	23.5	0.00e+00	0	39	0	1349517312	46	5742
2026-01-08 01:08:29.66	274.39	51.33	-36.0	-36.9	23.6	0.00e+00	0	39	0	1352663040	46	5504
2026-01-08 01:08:30.64	275.02	51.23	-36.3	-37.3	23.1	0.00e+00	0	39	0	1355808768	46	5764
2026-01-08 01:08:31.62	275.64	51.14	-36.6	-37.6	23.1	0.00e+00	0	39	0	1358954496	46	5955
2026-01-08 01:08:32.60	276.26	51.04	-36.1	-37.1	23.1	0.00e+00	0	39	0	1362100224	46	5635
2026-01-08 01:08:33.58	276.87	50.93	-36.2	-37.2	22.9	0.00e+00	0	39	0	1365245952	46	5682
2026-01-08 01:08:34.55	277.47	50.83	-36.2	-37.2	22.9	0.00e+00	0	39	0	1368391680	46	5712
2026-01-08 01:08:35.53	278.08	50.72	-36.6	-37.6	22.8	0.00e+00	0	39	0	1370488832	46	5945
2026-01-08 01:08:36.51	278.68	50.60	-36.9	-37.9	22.7	0.00e+00	0	39	0	1373634560	46	6195
2026-01-08 01:08:37.48	279.27	50.49	-37.0	-38.0	22.6	0.00e+00	0	39	0	1376780288	46	6267
2026-01-08 01:08:38.46	279.86	50.37	-37.3	-38.3	22.1	0.00e+00	0	39	0	1379926016	46	6455
2026-01-08 01:08:39.44	280.45	50.25	-37.4	-38.5	21.7	0.00e+00	0	39	0	1383071744	46	6624
2026-01-08 01:08:40.42	281.03	50.12	-37.4	-38.5	21.5	0.00e+00	0	39	0	1386217472	46	6646
2026-01-08 01:08:41.39	281.60	50.00	-37.3	-38.3	22.1	0.00e+00	0	39	0	1389363200	46	6471
2026-01-08 01:08:42.37	282.17	49.87	-36.7	-37.7	22.8	0.00e+00	0	39	0	1392508928	46	6001
2026-01-08 01:08:43.35	282.74	49.74	-36.5	-37.5	23.0	0.00e+00	0	39	0	1395654656	46	5874
2026-01-08 01:08:44.33	283.30	49.60	-36.6	-37.6	23.0	0.00e+00	0	39	0	1398800384	46	5953
2026-01-08 01:08:45.31	283.86	49.47	-36.8	-37.8	22.8	0.00e+00	0	39	0	1401946112	46	6086
2026-01-08 01:08:46.29	284.41	49.33	-37.1	-38.1	22.6	0.00e+00	0	39	0	1405091840	46	6285
2026-01-08 01:08:47.26	284.96	49.19	-37.1	-38.1	22.5	0.00e+00	0	39	0	1407188992	46	6328
2026-01-08 01:08:48.24	285.50	49.04	-37.0	-38.0	22.4	0.00e+00	0	39	0	1410334720	46	6236
2026-01-08 01:08:49.22	286.04	48.90	-36.8	-37.9	22.6	0.00e+00	0	39	0	1413480448	46	6147
2026-01-08 01:08:50.19	286.56	48.75	-36.5	-37.5	23.0	0.00e+00	0	39	0	1416626176	46	5890
2026-01-08 01:08:51.17	287.09	48.60	-36.6	-37.6	23.0	0.00e+00	0	39	0	1419771904	46	5937
2026-01-08 01:08:52.15	287.61	48.45	-37.2	-38.2	22.5	0.00e+00	0	39	0	1422917632	46	6367
2026-01-08 01:08:53.12	288.12	48.29	-37.4	-38.4	22.3	0.00e+00	0	39	0	1426063360	46	6548
2026-01-08 01:08:54.10	288.64	48.14	-37.6	-38.6	22.3	0.00e+00	0	39	0	1429209088	46	6684
2026-01-08 01:08:55.08	289.14	47.98	-37.6	-38.7	21.8	0.00e+00	0	39	0	1432354816	46	6747
2026-01-08 01:08:56.05	289.64	47.82	-37.5	-38.5	21.8	0.00e+00	0	39	0	1435500544	46	6642
2026-01-08 01:08:57.03	290.14	47.66	-37.5	-38.6	21.9	0.00e+00	0	39	0	1438646272	46	6693
2026-01-08 01:08:58.01	290.63	47.50	-37.3	-38.3	22.3	0.00e+00	0	39	0	1441792000	46	6435
2026-01-08 01:08:58.99	291.12	47.33	-37.4	-38.4	22.4	0.00e+00	0	39	0	1443889152	46	6525
2026-01-08 01:08:59.97	291.60	47.17	-37.3	-38.4	22.5	0.00e+00	0	39	0	1447034880	46	6503
2026-01-08 01:09:00.94	292.07	47.00	-37.5	-38.5	22.4	0.00e+00	0	39	0	1450180608	46	6596
2026-01-08 01:09:01.92	292.54	46.83	-37.4	-38.4	22.4	0.00e+00	0	39	0	1453326336	46	6545
2026-01-08 01:09:02.90	293.01	46.66	-37.4	-38.4	22.2	0.00e+00	0	39	0	1456472064	46	6561
2026-01-08 01:09:03.88	293.47	46.49	-37.8	-38.8	21.8	0.00e+00	0	39	0	1459617792	46	6853
2026-01-08 01:09:04.85	293.92	46.32	-37.6	-38.6	22.1	0.00e+00	0	39	0	1462763520	48	5956
2026-01-08 01:09:05.83	294.37	46.14	-37.6	-38.6	22.4	0.00e+00	0	39	0	1465909248	48	5974
2026-01-08 01:09:06.80	294.81	45.97	-36.8	-37.7	22.5	0.00e+00	0	39	0	1469054976	48	5403
2026-01-08 01:09:07.78	295.25	45.79	-36.8	-37.8	23.0	0.00e+00	0	39	0	1472200704	46	6073
2026-01-08 01:09:08.75	295.69	45.62	-36.4	-37.4	23.2	0.00e+00	0	39	0	1475346432	46	5807
2026-01-08 01:09:09.73	296.12	45.44	-36.7	-37.7	23.0	0.00e+00	0	39	0	1477443584	46	6010
2026-01-08 01:09:10.70	296.54	45.26	-36.8	-37.8	22.6	0.00e+00	0	39	0	1480589312	46	6117
2026-01-08 01:09:11.68	296.96	45.08	-37.1	-38.2	22.2	0.00e+00	0	39	0	1483735040	46	6357
2026-01-08 01:09:12.65	297.38	44.90	-37.4	-38.5	22.1	0.00e+00	0	39	0	1486880768	46	6629
2026-01-08 01:09:13.63	297.79	44.72	-37.3	-38.4	22.1	0.00e+00	0	39	0	1490026496	46	6522
2026-01-08 01:09:14.60	298.19	44.54	-37.4	-38.4	22.1	0.00e+00	0	39	0	1493172224	46	6552
2026-01-08 01:09:15.58	298.60	44.36	-37.4	-38.5	22.1	0.00e+00	0	39	0	1496317952	46	6588
2026-01-08 01:09:16.56	299.00	44.17	-37.4	-38.4	22.2	0.00e+00	0	39	0	1499463680	46	6548
2026-01-08 01:09:17.53	299.39	43.99	-37.9	-38.9	22.0	0.00e+00	0	39	0	1502609408	48	6163
2026-01-08 01:09:18.51	299.78	43.81	-38.3	-39.4	21.6	0.00e+00	0	39	0	1505755136	48	6505
2026-01-08 01:09:19.49	300.16	43.62	-38.7	-39.8	21.2	0.00e+00	0	39	0	1507852288	48	6872
2026-01-08 01:09:20.47	300.55	43.44	-39.3	-40.5	20.6	0.00e+00	0	39	0	1510998016	50	6597
2026-01-08 01:09:21.45	300.92	43.25	-39.1	-40.3	20.7	0.00e+00	0	39	0	1514143744	50	6492
2026-01-08 01:09:22.42	301.29	43.06	-38.7	-39.8	21.3	0.00e+00	0	39	0	1517289472	50	6085
2026-01-08 01:09:23.40	301.66	42.88	-38.3	-39.3	21.7	0.00e+00	0	39	0	1520435200	50	5758
2026-01-08 01:09:24.38	302.02	42.69	-38.0	-39.0	21.8	0.00e+00	0	39	0	1523580928	50	5569
2026-01-08 01:09:25.35	302.38	42.50	-37.7	-38.7	22.2	0.00e+00	0	39	0	1526726656	48	6030
2026-01-08 01:09:26.33	302.74	42.32	-37.4	-38.4	22.4	0.00e+00	0	39	0	1529872384	48	5804
2026-01-08 01:09:27.31	303.09	42.13	-37.6	-38.7	22.1	0.00e+00	0	39	0	1533018112	48	6008
2026-01-08 01:09:28.29	303.44	41.94	-37.6	-38.6	22.1	0.00e+00	0	39	0	1536163840	48	5956
2026-01-08 01:09:29.26	303.78	41.75	-37.3	-38.3	22.3	0.00e+00	0	39	0	1539309568	48	5780
2026-01-08 01:09:30.24	304.12	41.56	-37.0	-38.0	22.6	0.00e+00	0	39	0	1541406720	48	5565
2026-01-08 01:09:31.22	304.45	41.37	-36.7	-37.6	23.0	0.00e+00	0	39	0	1544552448	48	5332
2026-01-08 01:09:32.19	304.78	41.19	-36.5	-37.4	23.0	0.00e+00	0	39	0	1547698176	46	5858
2026-01-08 01:09:33.17	305.11	41.00	-36.6	-37.6	22.9	0.00e+00	0	39	0	1550843904	46	5980
2026-01-08 01:09:34.15	305.43	40.81	-37.0	-38.1	22.7	0.00e+00	0	39	0	1553989632	46	6281
2026-01-08 01:09:35.13	305.76	40.62	-37.2	-38.2	22.6	0.00e+00	0	39	0	1557135360	46	6409
2026-01-08 01:09:36.10	306.07	40.43	-37.7	-38.7	22.2	0.00e+00	0	39	0	1560281088	46	6764
2026-01-08 01:09:37.08	306.38	40.24	-38.1	-39.1	21.8	0.00e+00	0	39	0	1563426816	48	6348
2026-01-08 01:09:38.06	306.69	40.06	-38.2	-39.2	21.8	0.00e+00	0	39	0	1566572544	48	6423
2026-01-08 01:09:39.04	307.00	39.87	-38.2	-39.3	21.7	0.00e+00	0	39	0	1569718272	48	6465
2026-01-08 01:09:40.01	307.30	39.68	-37.9	-39.0	21.8	0.00e+00	0	39	0	1572864000	48	6218
2026-01-08 01:09:40.99	307.60	39.49	-37.6	-38.6	22.0	0.00e+00	0	39	0	1576009728	48	5979
2026-01-08 01:09:41.97	307.90	39.30	-37.3	-38.3	22.3	0.00e+00	0	39	0	1578106880	48	5763
2026-01-08 01:09:42.95	308.19	39.11	-37.4	-38.4	22.1	0.00e+00	0	39	0	1581252608	48	5853
2026-01-08 01:09:43.92	308.48	38.93	-37.3	-38.4	22.2	0.00e+00	0	39	0	1584398336	48	5813
2026-01-08 01:09:44.90	308.76	38.74	-37.2	-38.3	22.5	0.00e+00	0	39	0	1587544064	48	5731
2026-01-08 01:09:45.88	309.04	38.55	-37.0	-38.0	22.8	0.00e+00	0	39	0	1590689792	48	5583
2026-01-08 01:09:46.86	309.32	38.37	-36.8	-37.8	23.0	0.00e+00	0	39	0	1593835520	48	5433
2026-01-08 01:09:47.84	309.60	38.18	-36.8	-37.8	22.9	0.00e+00	0	39	0	1596981248	48	5420
2026-01-08 01:09:48.82	309.87	37.99	-36.7	-37.7	22.7	0.00e+00	0	39	0	1600126976	46	6035
2026-01-08 01:09:49.80	310.15	37.81	-36.8	-37.9	22.5	0.00e+00	0	39	0	1603272704	46	6135
2026-01-08 01:09:50.77	310.41	37.62	-37.1	-38.2	22.5	0.00e+00	0	39	0	1606418432	46	6376
2026-01-08 01:09:51.75	310.67	37.44	-37.1	-38.1	22.6	0.00e+00	0	39	0	1609564160	46	6315
2026-01-08 01:09:52.73	310.94	37.25	-36.8	-37.8	23.0	0.00e+00	0	39	0	1612709888	46	6107
2026-01-08 01:09:53.70	311.19	37.07	-36.2	-37.1	23.5	0.00e+00	0	39	0	1615855616	46	5635
2026-01-08 01:09:54.68	311.45	36.89	-36.1	-37.0	23.5	0.00e+00	0	39	0	1617952768	46	5548
2026-01-08 01:09:55.66	311.70	36.70	-35.9	-36.8	23.5	0.00e+00	0	39	0	1621098496	46	5424
2026-01-08 01:09:56.64	311.95	36.52	-35.7	-36.6	23.6	0.00e+00	0	39	0	1624244224	46	5337
2026-01-08 01:09:57.61	312.20	36.34	-35.9	-36.8	23.3	0.00e+00	0	39	0	1627389952	44	6113
2026-01-08 01:09:58.59	312.44	36.16	-36.0	-37.0	23.0	0.00e+00	0	39	0	1630535680	44	6228
2026-01-08 01:09:59.57	312.68	35.97	-36.4	-37.4	22.7	0.00e+00	0	39	0	1633681408	44	6551
2026-01-08 01:10:00.54	312.92	35.79	-36.6	-37.6	22.8	0.00e+00	0	39	0	1636827136	44	6679
2026-01-08 01:10:01.52	313.16	35.61	-36.4	-37.4	23.1	0.00e+00	0	39	0	1639972864	44	6537
2026-01-08 01:10:02.50	313.39	35.43	-36.3	-37.3	23.2	0.00e+00	0	39	0	1643118592	44	6465
2026-01-08 01:10:03.48	313.62	35.25	-36.2	-37.2	23.3	0.00e+00	0	39	0	1646264320	44	6393
2026-01-08 01:10:04.46	313.85	35.07	-36.1	-37.0	23.3	0.00e+00	0	39	0	1649410048	44	6250
2026-01-08 01:10:05.44	314.08	34.89	-36.3	-37.3	23.2	0.00e+00	0	39	0	1651507200	44	6429
2026-01-08 01:10:06.42	314.31	34.72	-36.2	-37.2	23.3	0.00e+00	0	39	0	1654652928	44	6375
2026-01-08 01:10:07.40	314.53	34.54	-36.4	-37.4	23.1	0.00e+00	0	39	0	1657798656	44	6534
2026-01-08 01:10:08.37	314.74	34.36	-36.7	-37.7	22.9	0.00e+00	0	39	0	1660944384	44	6745
2026-01-08 01:10:09.35	314.96	34.19	-36.9	-37.9	22.8	0.00e+00	0	39	0	1664090112	46	6193
2026-01-08 01:10:10.33	315.18	34.01	-36.9	-37.9	22.8	0.00e+00	0	39	0	1667235840	46	6197
2026-01-08 01:10:11.30	315.39	33.84	-36.8	-37.8	23.1	0.00e+00	0	39	0	1670381568	46	6076
2026-01-08 01:10:12.28	315.60	33.66	-36.5	-37.5	23.2	0.00e+00	0	39	0	1673527296	46	5864
2026-01-08 01:10:13.26	315.81	33.49	-36.2	-37.1	23.5	0.00e+00	0	39	0	1676673024	46	5629
2026-01-08 01:10:14.24	316.01	33.31	-36.0	-36.9	23.5	0.00e+00	0	39	0	1679818752	46	5528
2026-01-08 01:10:15.21	316.22	33.14	-35.5	-36.4	23.8	0.00e+00	0	39	0	1682964480	44	5834
2026-01-08 01:10:16.19	316.42	32.97	-35.6	-36.5	23.6	0.00e+00	0	39	0	1686110208	44	5915
2026-01-08 01:10:17.17	316.62	32.80	-35.6	-36.5	23.6	0.00e+00	0	39	0	1688207360	44	5898
2026-01-08 01:10:18.15	316.82	32.62	-35.5	-36.4	23.9	0.00e+00	0	39	0	1691353088	44	5848
2026-01-08 01:10:19.12	317.01	32.46	-35.5	-36.4	23.9	0.00e+00	0	39	0	1694498816	44	5844
2026-01-08 01:10:20.10	317.20	32.28	-35.1	-36.0	24.3	0.00e+00	0	39	0	1697644544	44	5533
2026-01-08 01:10:21.08	317.40	32.12	-34.7	-35.6	24.7	0.00e+00	0	39	0	1700790272	42	5932
2026-01-08 01:10:22.05	317.58	31.95	-34.7	-35.6	24.5	0.00e+00	0	39	0	1703936000	42	5957
2026-01-08 01:10:23.04	317.77	31.78	-34.7	-35.6	24.5	0.00e+00	0	39	0	1707081728	42	5948
2026-01-08 01:10:24.01	317.96	31.61	-34.7	-35.6	24.4	0.00e+00	0	39	0	1710227456	42	5985
2026-01-08 01:10:24.99	318.14	31.45	-34.7	-35.6	24.4	0.00e+00	0	39	0	1713373184	42	5969
2026-01-08 01:10:25.96	318.32	31.28	-34.8	-35.7	24.3	0.00e+00	0	39	0	1716518912	42	6055
2026-01-08 01:10:26.94	318.50	31.11	-34.8	-35.7	24.4	0.00e+00	0	39	0	1718616064	42	6026
2026-01-08 01:10:27.91	318.68	30.95	-35.0	-35.9	24.3	0.00e+00	0	39	0	1721761792	42	6145
2026-01-08 01:10:28.89	318.86	30.79	-34.9	-35.8	24.2	0.00e+00	0	39	0	1724907520	42	6133
2026-01-08 01:10:29.87	319.03	30.62	-34.7	-35.6	24.5	0.00e+00	0	39	0	1728053248	42	5951
2026-01-08 01:10:30.84	319.21	30.46	-34.6	-35.5	24.5	0.00e+00	0	39	0	1731198976	42	5906
2026-01-08 01:10:31.82	319.38	30.30	-34.5	-35.4	24.6	0.00e+00	0	39	0	1734344704	42	5805
2026-01-08 01:10:32.79	319.55	30.14	-34.4	-35.3	24.7	0.00e+00	0	39	0	1737490432	42	5730
2026-01-08 01:10:33.77	319.72	29.98	-34.4	-35.3	24.7	0.00e+00	0	39	0	1740636160	42	5732
2026-01-08 01:10:34.74	319.88	29.82	-34.3	-35.2	24.9	0.00e+00	0	39	0	1743781888	42	5688
2026-01-08 01:10:35.73	320.05	29.66	-34.5	-35.3	24.8	0.00e+00	0	39	0	1746927616	42	5773
2026-01-08 01:10:36.70	320.21	29.50	-34.3	-35.2	24.9	0.00e+00	0	39	0	1750073344	42	5685
2026-01-08 01:10:37.68	320.37	29.34	-34.5	-35.4	24.7	0.00e+00	0	39	0	1752170496	42	5825
2026-01-08 01:10:38.66	320.53	29.18	-34.8	-35.7	24.4	0.00e+00	0	39	0	1755316224	42	6009
2026-01-08 01:10:39.64	320.69	29.03	-35.1	-36.0	24.3	0.00e+00	0	39	0	1758461952	42	6247
2026-01-08 01:10:40.62	320.85	28.87	-35.3	-36.2	24.2	0.00e+00	0	39	0	1761607680	42	6391
2026-01-08 01:10:41.59	321.00	28.71	-35.1	-36.0	24.2	0.00e+00	0	39	0	1764753408	42	6276
2026-01-08 01:10:42.57	321.16	28.56	-35.2	-36.1	24.3	0.00e+00	0	39	0	1767899136	42	6313
2026-01-08 01:10:43.55	321.31	28.40	-35.2	-36.1	24.3	0.00e+00	0	39	0	1771044864	42	6321
2026-01-08 01:10:44.53	321.46	28.25	-35.0	-35.9	24.4	0.00e+00	0	39	0	1774190592	42	6192
2026-01-08 01:10:45.50	321.61	28.10	-34.8	-35.7	24.5	0.00e+00	0	39	0	1777336320	42	6060
2026-01-08 01:10:46.47	321.76	27.95	-34.7	-35.5	24.6	0.00e+00	0	39	0	1780482048	42	5911
2026-01-08 01:10:47.45	321.91	27.79	-34.6	-35.5	24.8	0.00e+00	0	39	0	1783627776	42	5881
2026-01-08 01:10:48.43	322.06	27.64	-34.3	-35.2	24.9	0.00e+00	0	39	0	1786773504	42	5662
2026-01-08 01:10:49.40	322.20	27.49	-34.3	-35.2	24.8	0.00e+00	0	39	0	1789919232	42	5691
2026-01-08 01:10:50.38	322.34	27.34	-34.3	-35.2	24.9	0.00e+00	0	39	0	1792016384	42	5685
2026-01-08 01:10:51.36	322.49	27.19	-34.3	-35.2	24.8	0.00e+00	0	39	0	1795162112	42	5684
2026-01-08 01:10:52.34	322.63	27.04	-34.4	-35.3	24.8	0.00e+00	0	39	0	1798307840	42	5763
2026-01-08 01:10:53.31	322.77	26.90	-34.3	-35.2	24.9	0.00e+00	0	39	0	1801453568	42	5678
2026-01-08 01:10:54.29	322.90	26.75	-34.3	-35.2	24.9	0.00e+00	0	39	0	1804599296	42	5688
2026-01-08 01:10:55.27	323.04	26.60	-34.1	-35.0	25.0	0.00e+00	0	39	0	1807745024	42	5567
2026-01-08 01:10:56.24	323.18	26.46	-34.1	-35.0	25.0	0.00e+00	0	39	0	1810890752	42	5564
2026-01-08 01:10:57.22	323.31	26.31	-34.2	-35.1	25.0	0.00e+00	0	39	0	1814036480	42	5613
2026-01-08 01:10:58.20	323.45	26.17	-34.1	-35.0	25.0	0.00e+00	0	39	0	1817182208	42	5531
2026-01-08 01:10:59.18	323.58	26.02	-34.1	-35.0	24.9	0.00e+00	0	39	0	1820327936	42	5565
2026-01-08 01:11:00.16	323.71	25.88	-34.1	-35.0	24.9	0.00e+00	0	39	0	1823473664	42	5542
2026-01-08 01:11:01.13	323.84	25.74	-34.1	-34.9	24.9	0.00e+00	0	39	0	1825570816	42	5522
2026-01-08 01:11:02.11	323.97	25.59	-34.1	-34.9	24.9	0.00e+00	0	39	0	1828716544	42	5525
2026-01-08 01:11:03.09	324.10	25.45	-34.2	-35.0	24.8	0.00e+00	0	39	0	1831862272	42	5590
2026-01-08 01:11:04.06	324.22	25.31	-34.2	-35.1	24.9	0.00e+00	0	39	0	1835008000	42	5613
2026-01-08 01:11:05.04	324.35	25.17	-34.3	-35.2	24.7	0.00e+00	0	39	0	1838153728	42	5700
2026-01-08 01:11:06.02	324.47	25.03	-34.4	-35.3	24.7	0.00e+00	0	39	0	1841299456	42	5747
2026-01-08 01:11:07.00	324.60	24.89	-34.4	-35.3	24.8	0.00e+00	0	39	0	1844445184	42	5749
2026-01-08 01:11:07.98	324.72	24.75	-34.4	-35.3	24.8	0.00e+00	0	39	0	1847590912	42	5752
2026-01-08 01:11:08.96	324.84	24.61	-34.6	-35.4	24.7	0.00e+00	0	39	0	1850736640	42	5853
2026-01-08 01:11:09.93	324.96	24.48	-34.5	-35.3	24.8	0.00e+00	0	39	0	1853882368	42	5774
2026-01-08 01:11:10.91	325.08	24.34	-34.5	-35.4	24.7	0.00e+00	0	39	0	1857028096	42	5831
2026-01-08 01:11:11.89	325.20	24.20	-34.5	-35.4	24.8	0.00e+00	0	39	0	1859125248	42	5836
2026-01-08 01:11:12.87	325.32	24.07	-34.5	-35.4	24.7	0.00e+00	0	39	0	1862270976	42	5806
2026-01-08 01:11:13.85	325.43	23.93	-34.6	-35.5	24.6	0.00e+00	0	39	0	1865416704	42	5919
2026-01-08 01:11:14.83	325.55	23.80	-34.6	-35.5	24.4	0.00e+00	0	39	0	1868562432	42	5910
2026-01-08 01:11:15.80	325.66	23.67	-34.8	-35.7	24.3	0.00e+00	0	39	0	1871708160	42	6004
2026-01-08 01:11:16.78	325.78	23.53	-34.8	-35.7	24.3	0.00e+00	0	39	0	1874853888	42	6021
2026-01-08 01:11:17.76	325.89	23.40	-34.9	-35.8	24.2	0.00e+00	0	39	0	1877999616	42	6125
2026-01-08 01:11:18.74	326.00	23.27	-34.9	-35.8	24.2	0.00e+00	0	39	0	1881145344	42	6096
2026-01-08 01:11:19.72	326.11	23.13	-35.0	-35.9	24.0	0.00e+00	0	39	0	1884291072	42	6201
2026-01-08 01:11:20.69	326.22	23.00	-34.9	-35.8	24.1	0.00e+00	0	39	0	1887436800	42	6122
2026-01-08 01:11:21.67	326.33	22.87	-34.9	-35.8	24.2	0.00e+00	0	39	0	1890582528	42	6112
2026-01-08 01:11:22.65	326.44	22.74	-34.9	-35.8	24.1	0.00e+00	0	39	0	1893728256	42	6131
2026-01-08 01:11:23.62	326.55	22.61	-34.9	-35.8	24.1	0.00e+00	0	39	0	1895825408	42	6116
2026-01-08 01:11:24.60	326.65	22.49	-34.9	-35.8	24.2	0.00e+00	0	39	0	1898971136	42	6120
2026-01-08 01:11:25.58	326.76	22.36	-34.8	-35.7	24.3	0.00e+00	0	39	0	1902116864	42	6039
2026-01-08 01:11:26.56	326.86	22.23	-34.9	-35.8	24.1	0.00e+00	0	39	0	1905262592	42	6103
2026-01-08 01:11:27.53	326.97	22.10	-34.8	-35.7	24.3	0.00e+00	0	39	0	1908408320	42	5997
2026-01-08 01:11:28.51	327.07	21.98	-34.8	-35.7	24.2	0.00e+00	0	39	0	1911554048	42	6003
2026-01-08 01:11:29.48	327.17	21.85	-34.6	-35.5	24.3	0.00e+00	0	39	0	1914699776	42	5894
2026-01-08 01:11:30.46	327.28	21.73	-34.7	-35.6	24.3	0.00e+00	0	39	0	1917845504	42	5949
2026-01-08 01:11:31.44	327.38	21.60	-34.6	-35.5	24.4	0.00e+00	0	39	0	1920991232	42	5920
2026-01-08 01:11:32.42	327.48	21.48	-34.7	-35.6	24.3	0.00e+00	0	39	0	1924136960	42	5936
2026-01-08 01:11:33.39	327.58	21.35	-34.6	-35.5	24.4	0.00e+00	0	39	0	1926234112	42	5893
2026-01-08 01:11:34.37	327.67	21.23	-34.6	-35.5	24.3	0.00e+00	0	39	0	1929379840	42	5926
2026-01-08 01:11:35.35	327.77	21.11	-34.6	-35.5	24.5	0.00e+00	0	39	0	1932525568	42	5879
2026-01-08 01:11:36.32	327.87	20.98	-34.7	-35.6	24.5	0.00e+00	0	39	0	1935671296	42	5964
2026-01-08 01:11:37.30	327.97	20.86	-34.7	-35.6	24.4	0.00e+00	0	39	0	1938817024	42	5943
2026-01-08 01:11:38.28	328.06	20.74	-34.8	-35.7	24.5	0.00e+00	0	39	0	1941962752	42	6038
2026-01-08 01:11:39.26	328.16	20.62	-34.8	-35.6	24.5	0.00e+00	0	39	0	1945108480	42	5993
2026-01-08 01:11:40.23	328.25	20.50	-34.6	-35.5	24.6	0.00e+00	0	39	0	1948254208	42	5913
