passes_logs/2026/01/08/R4.6S_Anadyr/R4.6S_Anadyr__20260108_133519_SUOMI_NPP_rec.log

#Pass ID: 20260108_133519_SUOMI NPP
#Satellite: SUOMI NPP
#Configuration: NPP
#almurnet v.1.7.20251203
#Start time: 2026-01-08 13:35:22

#Version: 2.2.20231116
#Station: R4.6S_Anadyr
#Location: 177.4865 lon 64.73178 lat
#TLE: 1 37849U 11061A   26005.94084933  .00000134  00000+0  84554-4 0  9990
#TLE: 2 37849  98.7803 308.0679 0002567  79.1029 281.0436 14.19522657735426

#Time	Az	El	Level	Level2	SNR	BER	BlckErr	Temp	State	Recorded	gain1	gain2
2026-01-08 13:35:22.11	19.01	0.14	-48.4	-60.8	3.4	1.52e+00	0	30	0	0	60	38486
2026-01-08 13:35:23.11	19.05	0.20	-48.4	-63.6	3.6	1.51e+00	0	31	104	0	60	55005
2026-01-08 13:35:24.12	19.09	0.25	-48.5	-63.7	3.6	1.51e+00	0	31	104	0	60	55314
2026-01-08 13:35:25.13	19.13	0.31	-48.5	-63.7	3.6	1.51e+00	0	31	104	0	60	55206
2026-01-08 13:35:26.14	19.17	0.37	-48.5	-63.7	3.6	1.51e+00	0	31	104	0	60	55521
2026-01-08 13:35:27.15	19.22	0.43	-48.6	-63.7	3.6	1.51e+00	0	31	104	0	60	55351
2026-01-08 13:35:28.16	19.26	0.48	-48.6	-63.7	3.6	1.51e+00	0	32	104	0	60	55494
2026-01-08 13:35:29.17	19.30	0.54	-48.5	-63.7	3.6	1.51e+00	0	32	104	0	60	55434
2026-01-08 13:35:30.18	19.34	0.60	-48.5	-63.7	3.6	1.51e+00	0	32	104	0	60	55074
2026-01-08 13:35:31.19	19.38	0.66	-48.4	-63.6	3.6	1.51e+00	0	31	104	0	60	54598
2026-01-08 13:35:31.97	19.42	0.70	-48.4	-63.5	3.6	1.51e+00	0	32	104	0	60	54179
2026-01-08 13:35:33.14	19.46	0.77	-48.3	-63.4	3.6	1.51e+00	0	32	104	0	60	53717
2026-01-08 13:35:34.00	19.50	0.82	-48.0	-63.2	3.6	1.51e+00	0	32	104	0	60	52191
2026-01-08 13:35:35.16	19.55	0.89	-47.8	-63.0	3.6	1.51e+00	0	32	104	0	60	51126
2026-01-08 13:35:36.02	19.59	0.94	-47.7	-62.8	3.6	1.51e+00	0	32	104	0	60	49997
2026-01-08 13:35:37.18	19.64	1.01	-47.3	-62.5	3.5	1.51e+00	0	32	104	0	60	47933
2026-01-08 13:35:38.04	19.67	1.06	-47.0	-62.2	3.6	1.51e+00	0	32	104	0	60	46449
2026-01-08 13:35:39.20	19.72	1.12	-47.0	-62.1	3.6	1.51e+00	0	32	104	0	60	46234
2026-01-08 13:35:40.06	19.76	1.17	-47.0	-62.2	3.6	1.51e+00	0	32	104	0	60	46516
2026-01-08 13:35:41.22	19.81	1.24	-47.0	-62.1	3.5	1.51e+00	0	32	104	0	60	46283
2026-01-08 13:35:42.09	19.85	1.29	-47.0	-62.1	3.6	1.51e+00	0	32	104	0	60	46239
2026-01-08 13:35:43.24	19.90	1.36	-47.0	-62.2	3.6	1.51e+00	0	32	104	0	60	46578
2026-01-08 13:35:44.10	19.93	1.41	-47.0	-62.2	3.6	1.51e+00	0	32	104	0	60	46393
2026-01-08 13:35:45.26	19.98	1.48	-47.0	-62.1	3.6	1.51e+00	0	32	104	0	60	46281
2026-01-08 13:35:46.13	20.02	1.53	-47.0	-62.1	3.6	1.51e+00	0	32	104	0	60	45919
2026-01-08 13:35:47.28	20.07	1.60	-47.0	-62.0	3.6	1.51e+00	0	32	104	0	60	45632
2026-01-08 13:35:48.14	20.11	1.65	-46.9	-62.0	3.6	1.51e+00	0	32	104	0	60	45493
2026-01-08 13:35:49.30	20.16	1.72	-47.0	-62.0	3.6	1.51e+00	0	32	104	0	60	45605
2026-01-08 13:35:50.16	20.20	1.77	-47.0	-62.0	3.6	1.51e+00	0	32	104	0	60	45579
2026-01-08 13:35:51.31	20.25	1.84	-47.0	-62.1	3.5	1.51e+00	0	32	104	0	60	45884
2026-01-08 13:35:52.18	20.29	1.89	-47.0	-62.1	3.6	1.51e+00	0	32	104	0	60	46108
2026-01-08 13:35:53.33	20.34	1.96	-47.0	-62.1	3.6	1.51e+00	0	32	104	0	60	46040
2026-01-08 13:35:54.20	20.38	2.01	-47.0	-62.2	3.6	1.51e+00	0	32	104	0	60	46299
2026-01-08 13:35:55.35	20.43	2.08	-47.0	-62.1	3.6	1.51e+00	0	32	104	0	60	46292
2026-01-08 13:35:56.22	20.47	2.14	-47.0	-62.1	3.6	1.51e+00	0	32	104	0	60	46151
2026-01-08 13:35:57.37	20.53	2.21	-47.0	-62.2	3.6	1.51e+00	0	32	104	0	60	46311
2026-01-08 13:35:58.24	20.57	2.26	-47.0	-62.1	3.6	1.51e+00	0	32	104	0	60	46139
2026-01-08 13:35:59.39	20.62	2.33	-47.0	-61.9	3.6	1.51e+00	0	32	104	0	60	45057
2026-01-08 13:36:00.26	20.66	2.38	-46.9	-61.6	3.6	1.51e+00	0	32	104	0	60	43683
2026-01-08 13:36:01.41	20.71	2.45	-46.9	-61.4	3.6	1.51e+00	0	32	104	0	60	42385
2026-01-08 13:36:02.27	20.75	2.50	-46.9	-61.3	3.6	1.51e+00	0	32	104	0	60	41866
2026-01-08 13:36:03.43	20.81	2.57	-46.9	-61.4	3.6	1.51e+00	0	32	104	0	60	42584
2026-01-08 13:36:04.30	20.85	2.63	-47.0	-62.0	3.6	1.51e+00	0	32	104	0	60	45276
2026-01-08 13:36:05.45	20.90	2.70	-47.0	-62.0	3.6	1.51e+00	0	32	104	0	60	45349
2026-01-08 13:36:06.31	20.94	2.75	-46.9	-60.2	3.6	1.51e+00	0	32	104	0	60	36845
2026-01-08 13:36:07.47	21.00	2.82	-46.6	-56.4	5.2	9.53e-01	0	32	104	0	60	23899
2026-01-08 13:36:08.33	21.04	2.88	-46.1	-52.6	7.7	2.19e-01	0	32	0	1048576	60	15413
2026-01-08 13:36:09.49	21.09	2.95	-45.2	-49.9	11.1	2.01e-02	0	32	0	3145728	60	11269
2026-01-08 13:36:10.35	21.13	3.00	-44.4	-48.1	13.0	1.09e-04	0	32	0	5242880	60	9233
2026-01-08 13:36:11.51	21.19	3.07	-43.3	-46.1	15.0	2.20e-06	0	32	0	7340032	60	7327
2026-01-08 13:36:12.37	21.23	3.13	-42.8	-45.3	15.8	0.00e+00	0	32	0	8388608	60	6689
2026-01-08 13:36:13.53	21.29	3.20	-42.0	-44.1	16.9	0.00e+00	0	32	0	10485760	58	6513
2026-01-08 13:36:14.39	21.33	3.25	-42.0	-44.1	16.9	0.00e+00	0	32	0	12582912	58	6499
2026-01-08 13:36:15.54	21.39	3.33	-42.0	-44.1	16.8	0.00e+00	0	32	0	14680064	58	6538
2026-01-08 13:36:16.41	21.43	3.38	-42.2	-44.4	16.6	0.00e+00	0	32	0	15728640	58	6726
2026-01-08 13:36:17.56	21.49	3.45	-43.0	-45.6	15.4	0.00e+00	0	32	0	18874368	58	7704
2026-01-08 13:36:18.42	21.53	3.51	-43.4	-46.4	14.4	0.00e+00	0	32	0	19922944	58	8457
2026-01-08 13:36:19.57	21.58	3.58	-44.6	-48.6	12.1	5.79e-05	0	32	0	22020096	60	9744
2026-01-08 13:36:20.44	21.63	3.63	-44.2	-47.6	15.0	1.11e-03	0	32	0	24117248	60	8709
2026-01-08 13:36:21.59	21.69	3.71	-43.6	-46.6	11.0	0.00e+00	0	32	0	26214400	56	9781
2026-01-08 13:36:22.45	21.73	3.76	-45.9	-52.5	9.5	1.25e+00	0	32	104	26214400	60	15262
2026-01-08 13:36:23.61	21.79	3.84	-45.8	-50.8	11.3	5.90e-01	0	32	0	27262976	60	12593
2026-01-08 13:36:24.47	21.83	3.89	-44.5	-48.2	12.3	1.81e-04	0	32	0	28311552	60	9238
2026-01-08 13:36:25.63	21.89	3.97	-46.7	-56.8	5.0	1.51e+00	0	32	104	28311552	60	24888
2026-01-08 13:36:26.50	21.93	4.02	-44.6	-48.5	12.2	8.87e-01	0	32	104	28311552	60	9627
2026-01-08 13:36:27.65	21.99	4.10	-44.6	-48.3	13.0	1.04e-04	0	32	0	29360128	60	9426
2026-01-08 13:36:28.52	22.04	4.15	-44.4	-48.0	13.7	2.44e-05	0	32	0	31457280	60	9057
2026-01-08 13:36:29.67	22.10	4.23	-44.7	-48.4	12.7	2.59e-05	0	32	0	33554432	60	9519
2026-01-08 13:36:30.53	22.14	4.28	-44.9	-49.0	12.6	7.40e-05	0	32	0	34603008	60	10133
2026-01-08 13:36:31.69	22.20	4.36	-43.5	-46.2	15.0	3.00e-06	0	32	0	37748736	60	7408
2026-01-08 13:36:32.55	22.25	4.41	-43.4	-46.1	15.3	0.00e+00	0	32	0	38797312	60	7289
2026-01-08 13:36:33.70	22.31	4.49	-43.4	-46.1	15.2	0.00e+00	0	32	0	40894464	60	7291
2026-01-08 13:36:34.57	22.35	4.54	-42.6	-44.9	16.3	0.00e+00	0	32	0	42991616	60	6353
2026-01-08 13:36:35.72	22.41	4.62	-42.6	-44.9	16.4	0.00e+00	0	32	0	45088768	58	7148
2026-01-08 13:36:36.59	22.46	4.68	-42.6	-44.9	16.6	0.00e+00	0	32	0	46137344	58	7094
2026-01-08 13:36:37.74	22.52	4.75	-42.7	-45.0	16.1	0.00e+00	0	32	0	48234496	58	7193
2026-01-08 13:36:38.60	22.57	4.81	-42.4	-44.5	16.8	0.00e+00	0	32	0	50331648	58	6837
2026-01-08 13:36:39.76	22.63	4.89	-41.7	-43.5	17.8	0.00e+00	0	32	0	52428800	56	6820
2026-01-08 13:36:40.62	22.68	4.94	-41.6	-43.5	17.8	0.00e+00	0	32	0	53477376	56	6798
2026-01-08 13:36:41.77	22.74	5.02	-41.6	-43.4	18.0	0.00e+00	0	32	0	56623104	56	6732
2026-01-08 13:36:42.64	22.79	5.08	-41.5	-43.4	17.9	0.00e+00	0	32	0	57671680	56	6696
2026-01-08 13:36:43.79	22.85	5.15	-41.5	-43.2	18.2	0.00e+00	0	32	0	59768832	56	6594
2026-01-08 13:36:44.66	22.90	5.21	-41.2	-42.8	18.6	0.00e+00	0	32	0	61865984	56	6306
2026-01-08 13:36:45.81	22.96	5.29	-41.4	-43.1	18.4	0.00e+00	0	32	0	63963136	56	6516
2026-01-08 13:36:46.68	23.01	5.35	-41.0	-42.7	18.7	0.00e+00	0	32	0	65011712	56	6187
2026-01-08 13:36:47.83	23.07	5.42	-41.1	-42.8	18.5	0.00e+00	0	32	0	67108864	56	6268
2026-01-08 13:36:48.69	23.12	5.48	-41.1	-42.7	18.7	0.00e+00	0	32	0	69206016	56	6210
2026-01-08 13:36:49.85	23.19	5.56	-40.7	-42.2	19.0	0.00e+00	0	32	0	71303168	54	6590
2026-01-08 13:36:50.71	23.23	5.62	-40.7	-42.3	19.1	0.00e+00	0	32	0	73400320	54	6621
2026-01-08 13:36:51.87	23.30	5.70	-40.6	-42.1	19.1	0.00e+00	0	32	0	75497472	54	6491
2026-01-08 13:36:52.73	23.35	5.76	-40.7	-42.2	19.1	0.00e+00	0	32	0	76546048	54	6608
2026-01-08 13:36:53.88	23.41	5.83	-40.6	-42.1	19.2	0.00e+00	0	32	0	78643200	54	6491
2026-01-08 13:36:54.75	23.46	5.89	-40.6	-42.1	19.2	0.00e+00	0	32	0	80740352	54	6490
2026-01-08 13:36:55.90	23.53	5.97	-40.4	-41.9	19.4	0.00e+00	0	32	0	82837504	54	6345
2026-01-08 13:36:56.77	23.58	6.03	-40.4	-41.9	19.4	0.00e+00	0	32	0	83886080	54	6365
2026-01-08 13:36:57.92	23.65	6.11	-40.3	-41.7	19.6	0.00e+00	0	32	0	85983232	54	6206
2026-01-08 13:36:58.79	23.70	6.17	-40.2	-41.6	19.7	0.00e+00	0	32	0	88080384	54	6114
2026-01-08 13:36:59.94	23.77	6.25	-40.3	-41.7	19.6	0.00e+00	0	32	0	90177536	54	6205
2026-01-08 13:37:00.81	23.82	6.31	-40.1	-41.5	19.8	0.00e+00	0	32	0	92274688	54	6067
2026-01-08 13:37:01.96	23.89	6.39	-40.1	-41.5	19.8	0.00e+00	0	32	0	94371840	54	6077
2026-01-08 13:37:02.82	23.94	6.45	-40.2	-41.7	19.6	0.00e+00	0	32	0	95420416	54	6181
2026-01-08 13:37:03.98	24.01	6.53	-40.1	-41.4	20.0	0.00e+00	0	32	0	97517568	54	6024
2026-01-08 13:37:04.84	24.06	6.59	-40.0	-41.4	19.9	0.00e+00	0	32	0	99614720	54	5991
2026-01-08 13:37:05.99	24.13	6.67	-40.0	-41.3	20.0	0.00e+00	0	32	0	101711872	54	5956
2026-01-08 13:37:06.86	24.18	6.73	-39.8	-41.1	20.1	0.00e+00	0	32	0	102760448	54	5799
2026-01-08 13:37:08.01	24.25	6.81	-39.9	-41.2	20.1	0.00e+00	0	32	0	104857600	52	6601
2026-01-08 13:37:08.88	24.30	6.88	-39.8	-41.0	20.3	0.00e+00	0	32	0	106954752	52	6463
2026-01-08 13:37:10.03	24.37	6.96	-39.8	-41.1	20.3	0.00e+00	0	32	0	109051904	52	6506
2026-01-08 13:37:10.90	24.43	7.02	-39.8	-41.1	20.2	0.00e+00	0	32	0	111149056	52	6510
2026-01-08 13:37:12.05	24.50	7.10	-39.5	-40.7	20.5	0.00e+00	0	32	0	113246208	52	6239
2026-01-08 13:37:12.92	24.55	7.16	-39.5	-40.7	20.6	0.00e+00	0	32	0	114294784	52	6212
2026-01-08 13:37:14.07	24.62	7.24	-39.4	-40.6	20.7	0.00e+00	0	32	0	116391936	52	6141
2026-01-08 13:37:14.94	24.68	7.31	-39.4	-40.7	20.7	0.00e+00	0	32	0	118489088	52	6178
2026-01-08 13:37:16.09	24.75	7.39	-39.4	-40.6	20.7	0.00e+00	0	32	0	120586240	52	6133
2026-01-08 13:37:16.95	24.80	7.45	-39.2	-40.4	21.0	0.00e+00	0	32	0	121634816	52	5974
2026-01-08 13:37:18.11	24.88	7.54	-39.2	-40.4	20.9	0.00e+00	0	32	0	124780544	52	5988
2026-01-08 13:37:18.97	24.93	7.60	-39.2	-40.4	20.9	0.00e+00	0	32	0	125829120	52	6020
2026-01-08 13:37:20.13	25.01	7.68	-39.2	-40.3	20.9	0.00e+00	0	32	0	127926272	52	5950
2026-01-08 13:37:20.99	25.06	7.74	-39.2	-40.4	20.9	0.00e+00	0	32	0	130023424	52	5998
2026-01-08 13:37:22.15	25.14	7.83	-39.1	-40.3	21.1	0.00e+00	0	32	0	132120576	52	5927
2026-01-08 13:37:23.01	25.19	7.89	-39.2	-40.4	20.9	0.00e+00	0	32	0	133169152	52	6004
2026-01-08 13:37:24.16	25.27	7.98	-39.2	-40.4	20.9	0.00e+00	0	32	0	135266304	52	6022
2026-01-08 13:37:25.03	25.33	8.04	-39.1	-40.3	21.0	0.00e+00	0	32	0	137363456	52	5959
2026-01-08 13:37:26.18	25.40	8.12	-39.1	-40.2	21.1	0.00e+00	0	32	0	139460608	52	5875
2026-01-08 13:37:27.05	25.46	8.19	-39.2	-40.4	21.1	0.00e+00	0	32	0	141557760	52	5981
2026-01-08 13:37:28.20	25.54	8.27	-39.2	-40.4	20.9	0.00e+00	0	32	0	143654912	52	6022
2026-01-08 13:37:29.06	25.59	8.34	-39.1	-40.3	21.0	0.00e+00	0	32	0	144703488	52	5933
2026-01-08 13:37:30.22	25.67	8.42	-39.2	-40.4	21.0	0.00e+00	0	32	0	146800640	52	6022
2026-01-08 13:37:31.08	25.73	8.49	-39.4	-40.6	20.8	0.00e+00	0	32	0	148897792	52	6169
2026-01-08 13:37:32.23	25.81	8.57	-39.2	-40.4	21.1	0.00e+00	0	32	0	150994944	52	5970
2026-01-08 13:37:33.10	25.87	8.64	-39.2	-40.4	21.0	0.00e+00	0	32	0	152043520	52	6020
2026-01-08 13:37:34.25	25.95	8.73	-39.1	-40.3	21.1	0.00e+00	0	32	0	154140672	52	5943
2026-01-08 13:37:35.12	26.01	8.79	-39.1	-40.2	21.1	0.00e+00	0	32	0	156237824	52	5891
2026-01-08 13:37:36.27	26.09	8.88	-39.1	-40.3	21.2	0.00e+00	0	32	0	158334976	52	5899
2026-01-08 13:37:37.14	26.15	8.94	-39.0	-40.2	21.2	0.00e+00	0	32	0	160432128	52	5831
2026-01-08 13:37:38.29	26.23	9.03	-39.3	-40.5	20.9	0.00e+00	0	32	0	162529280	52	6098
2026-01-08 13:37:39.16	26.29	9.10	-39.0	-40.2	21.3	0.00e+00	0	32	0	163577856	52	5843
2026-01-08 13:37:40.31	26.37	9.19	-39.0	-40.2	21.3	0.00e+00	0	32	0	165675008	52	5881
2026-01-08 13:37:41.18	26.43	9.25	-39.0	-40.1	21.3	0.00e+00	0	32	0	167772160	52	5828
2026-01-08 13:37:42.33	26.51	9.34	-39.0	-40.2	21.3	0.00e+00	0	32	0	169869312	52	5865
2026-01-08 13:37:43.19	26.57	9.41	-39.0	-40.2	21.2	0.00e+00	0	32	0	170917888	52	5852
2026-01-08 13:37:44.35	26.66	9.50	-38.8	-40.0	21.5	0.00e+00	0	32	0	173015040	52	5697
2026-01-08 13:37:45.21	26.72	9.56	-38.9	-40.0	21.5	0.00e+00	0	32	0	175112192	52	5743
2026-01-08 13:37:46.37	26.80	9.65	-38.9	-40.1	21.3	0.00e+00	0	32	0	177209344	50	6467
2026-01-08 13:37:47.23	26.87	9.72	-38.8	-40.0	21.5	0.00e+00	0	33	0	179306496	50	6401
2026-01-08 13:37:48.39	26.95	9.81	-38.8	-39.9	21.5	0.00e+00	0	32	0	181403648	50	6365
2026-01-08 13:37:49.25	27.02	9.88	-38.8	-39.9	21.5	0.00e+00	0	32	0	182452224	50	6371
2026-01-08 13:37:50.41	27.10	9.97	-38.6	-39.8	21.6	0.00e+00	0	32	0	184549376	50	6248
2026-01-08 13:37:51.27	27.17	10.04	-38.7	-39.8	21.6	0.00e+00	0	32	0	186646528	50	6313
2026-01-08 13:37:52.42	27.25	10.13	-38.5	-39.6	21.7	0.00e+00	0	32	0	188743680	50	6172
2026-01-08 13:37:53.28	27.32	10.20	-38.5	-39.6	21.7	0.00e+00	0	33	0	189792256	50	6125
2026-01-08 13:37:54.44	27.40	10.29	-38.5	-39.6	21.7	0.00e+00	0	32	0	191889408	50	6133
2026-01-08 13:37:55.30	27.47	10.36	-38.6	-39.7	21.7	0.00e+00	0	32	0	193986560	50	6213
2026-01-08 13:37:56.46	27.56	10.45	-38.4	-39.5	21.9	0.00e+00	0	32	0	196083712	50	6071
2026-01-08 13:37:57.32	27.62	10.52	-38.3	-39.3	22.0	0.00e+00	0	32	0	198180864	50	5952
2026-01-08 13:37:58.47	27.71	10.61	-38.3	-39.3	21.9	0.00e+00	0	32	0	200278016	50	5959
2026-01-08 13:37:59.34	27.78	10.68	-38.2	-39.2	22.1	0.00e+00	0	32	0	201326592	50	5887
2026-01-08 13:38:00.49	27.87	10.77	-38.2	-39.2	22.1	0.00e+00	0	32	0	203423744	50	5857
2026-01-08 13:38:01.36	27.94	10.84	-38.1	-39.1	22.2	0.00e+00	0	32	0	205520896	50	5800
2026-01-08 13:38:02.51	28.03	10.94	-38.1	-39.1	22.2	0.00e+00	0	32	0	207618048	50	5789
2026-01-08 13:38:03.38	28.10	11.01	-38.0	-39.0	22.2	0.00e+00	0	32	0	208666624	50	5754
2026-01-08 13:38:04.53	28.19	11.10	-37.9	-38.9	22.4	0.00e+00	0	32	0	211812352	50	5683
2026-01-08 13:38:05.40	28.26	11.17	-37.9	-38.9	22.4	0.00e+00	0	32	0	212860928	48	6345
2026-01-08 13:38:06.55	28.35	11.27	-37.8	-38.8	22.4	0.00e+00	0	32	0	214958080	48	6272
2026-01-08 13:38:07.41	28.42	11.34	-37.8	-38.8	22.5	0.00e+00	0	32	0	217055232	48	6272
2026-01-08 13:38:08.57	28.52	11.43	-37.9	-38.9	22.4	0.00e+00	0	32	0	219152384	48	6331
2026-01-08 13:38:09.43	28.59	11.50	-37.8	-38.8	22.3	0.00e+00	0	32	0	220200960	48	6302
2026-01-08 13:38:10.58	28.68	11.60	-37.7	-38.7	22.5	0.00e+00	0	32	0	222298112	48	6183
2026-01-08 13:38:11.45	28.75	11.67	-37.6	-38.6	22.7	0.00e+00	0	32	0	224395264	48	6105
2026-01-08 13:38:12.60	28.85	11.77	-37.7	-38.7	22.6	0.00e+00	0	32	0	226492416	48	6232
2026-01-08 13:38:13.47	28.92	11.84	-37.7	-38.7	22.5	0.00e+00	0	32	0	228589568	48	6232
2026-01-08 13:38:14.62	29.02	11.94	-37.8	-38.8	22.5	0.00e+00	0	32	0	230686720	48	6275
2026-01-08 13:38:15.49	29.09	12.01	-37.9	-39.0	22.3	0.00e+00	0	32	0	231735296	48	6408
2026-01-08 13:38:16.64	29.19	12.11	-37.8	-38.8	22.4	0.00e+00	0	32	0	233832448	48	6303
2026-01-08 13:38:17.50	29.27	12.18	-37.9	-38.9	22.4	0.00e+00	0	32	0	235929600	48	6372
2026-01-08 13:38:18.66	29.37	12.28	-37.8	-38.8	22.5	0.00e+00	0	32	0	238026752	48	6260
2026-01-08 13:38:19.52	29.44	12.35	-37.9	-38.9	22.3	0.00e+00	0	32	0	239075328	48	6364
2026-01-08 13:38:20.67	29.54	12.45	-37.7	-38.7	22.6	0.00e+00	0	32	0	241172480	48	6204
2026-01-08 13:38:21.54	29.62	12.52	-37.6	-38.5	22.8	0.00e+00	0	32	0	243269632	48	6102
2026-01-08 13:38:22.69	29.72	12.62	-38.0	-39.1	22.3	0.00e+00	0	32	0	245366784	48	6475
2026-01-08 13:38:23.56	29.79	12.70	-37.5	-38.5	22.8	0.00e+00	0	32	0	247463936	48	6078
2026-01-08 13:38:24.71	29.90	12.80	-37.5	-38.4	22.8	0.00e+00	0	32	0	249561088	48	6023
2026-01-08 13:38:25.58	29.97	12.87	-37.7	-38.6	22.7	0.00e+00	0	32	0	250609664	48	6168
2026-01-08 13:38:26.73	30.08	12.97	-37.5	-38.5	22.8	0.00e+00	0	32	0	252706816	48	6045
2026-01-08 13:38:27.60	30.16	13.05	-37.4	-38.3	22.9	0.00e+00	0	32	0	254803968	48	5955
2026-01-08 13:38:28.75	30.26	13.15	-37.4	-38.4	22.9	0.00e+00	0	32	0	256901120	48	6003
2026-01-08 13:38:29.62	30.34	13.22	-37.5	-38.5	22.8	0.00e+00	0	32	0	257949696	48	6082
2026-01-08 13:38:30.77	30.45	13.32	-37.4	-38.3	22.9	0.00e+00	0	32	0	260046848	48	5963
2026-01-08 13:38:31.63	30.53	13.40	-37.5	-38.5	22.8	0.00e+00	0	33	0	262144000	48	6052
2026-01-08 13:38:32.79	30.63	13.50	-37.6	-38.6	22.7	0.00e+00	0	32	0	264241152	48	6136
2026-01-08 13:38:33.65	30.71	13.58	-37.6	-38.6	22.7	0.00e+00	0	32	0	266338304	48	6111
2026-01-08 13:38:34.80	30.82	13.68	-37.5	-38.5	22.8	0.00e+00	0	32	0	268435456	48	6054
2026-01-08 13:38:35.67	30.90	13.76	-37.6	-38.5	22.8	0.00e+00	0	32	0	269484032	48	6096
2026-01-08 13:38:36.82	31.01	13.86	-37.7	-38.7	22.7	0.00e+00	0	33	0	271581184	48	6192
2026-01-08 13:38:37.68	31.10	13.94	-38.0	-39.0	22.3	0.00e+00	0	32	0	273678336	48	6463
2026-01-08 13:38:38.84	31.21	14.04	-37.5	-38.4	22.8	0.00e+00	0	32	0	275775488	48	6024
2026-01-08 13:38:39.71	31.29	14.12	-37.5	-38.5	22.9	0.00e+00	0	33	0	276824064	48	6051
2026-01-08 13:38:40.86	31.40	14.23	-37.6	-38.6	22.7	0.00e+00	0	33	0	279969792	48	6126
2026-01-08 13:38:41.72	31.49	14.30	-37.7	-38.7	22.7	0.00e+00	0	32	0	281018368	48	6198
2026-01-08 13:38:42.87	31.60	14.41	-37.7	-38.7	22.7	0.00e+00	0	33	0	283115520	48	6181
2026-01-08 13:38:43.74	31.69	14.49	-37.7	-38.7	22.7	0.00e+00	0	33	0	285212672	48	6235
2026-01-08 13:38:44.89	31.80	14.59	-37.8	-38.8	22.7	0.00e+00	0	33	0	287309824	48	6249
2026-01-08 13:38:45.75	31.89	14.67	-37.4	-38.3	22.9	0.00e+00	0	32	0	288358400	48	5939
2026-01-08 13:38:46.90	32.01	14.78	-37.6	-38.5	22.8	0.00e+00	0	32	0	290455552	48	6088
2026-01-08 13:38:47.77	32.09	14.86	-37.8	-38.8	22.6	0.00e+00	0	32	0	292552704	48	6267
2026-01-08 13:38:48.92	32.21	14.96	-37.5	-38.5	22.9	0.00e+00	0	32	0	294649856	48	6056
2026-01-08 13:38:49.79	32.30	15.05	-37.7	-38.7	22.6	0.00e+00	0	32	0	296747008	48	6216
2026-01-08 13:38:50.94	32.42	15.15	-37.9	-38.9	22.5	0.00e+00	0	32	0	298844160	48	6351
2026-01-08 13:38:51.81	32.51	15.23	-37.7	-38.7	22.7	0.00e+00	0	33	0	299892736	48	6199
2026-01-08 13:38:52.96	32.63	15.34	-37.8	-38.8	22.5	0.00e+00	0	33	0	301989888	48	6315
2026-01-08 13:38:53.83	32.72	15.42	-37.8	-38.8	22.6	0.00e+00	0	33	0	304087040	48	6300
2026-01-08 13:38:54.98	32.84	15.53	-37.8	-38.8	22.7	0.00e+00	0	32	0	306184192	48	6294
2026-01-08 13:38:55.84	32.94	15.61	-37.8	-38.8	22.6	0.00e+00	0	32	0	307232768	48	6306
2026-01-08 13:38:57.00	33.06	15.72	-38.1	-39.2	22.2	0.00e+00	0	32	0	309329920	48	6579
2026-01-08 13:38:57.86	33.15	15.80	-37.7	-38.7	22.7	0.00e+00	0	32	0	311427072	48	6228
2026-01-08 13:38:59.02	33.28	15.92	-38.0	-39.0	22.4	0.00e+00	0	33	0	313524224	48	6460
2026-01-08 13:38:59.88	33.37	16.00	-37.8	-38.8	22.6	0.00e+00	0	33	0	314572800	48	6269
2026-01-08 13:39:01.03	33.50	16.11	-37.8	-38.8	22.6	0.00e+00	0	33	0	317718528	48	6262
2026-01-08 13:39:01.90	33.60	16.19	-37.8	-38.8	22.5	0.00e+00	0	32	0	318767104	48	6308
2026-01-08 13:39:03.05	33.72	16.30	-37.5	-38.4	22.6	0.00e+00	0	33	0	320864256	48	6032
2026-01-08 13:39:03.92	33.82	16.39	-37.7	-38.7	22.6	0.00e+00	0	32	0	322961408	48	6222
2026-01-08 13:39:05.07	33.95	16.50	-37.7	-38.7	22.6	0.00e+00	0	33	0	325058560	48	6193
2026-01-08 13:39:05.94	34.05	16.58	-37.7	-38.7	22.7	0.00e+00	0	33	0	326107136	48	6228
2026-01-08 13:39:07.09	34.18	16.70	-37.6	-38.6	22.8	0.00e+00	0	32	0	328204288	48	6146
2026-01-08 13:39:07.95	34.28	16.78	-37.6	-38.6	22.8	0.00e+00	0	32	0	330301440	48	6127
2026-01-08 13:39:09.10	34.41	16.89	-37.6	-38.6	22.9	0.00e+00	0	33	0	332398592	48	6107
2026-01-08 13:39:09.97	34.51	16.98	-37.3	-38.2	23.0	0.00e+00	0	32	0	334495744	48	5869
2026-01-08 13:39:11.12	34.65	17.09	-37.6	-38.6	22.8	0.00e+00	0	32	0	336592896	48	6108
2026-01-08 13:39:11.99	34.75	17.18	-37.6	-38.6	22.8	0.00e+00	0	33	0	337641472	48	6149
2026-01-08 13:39:13.14	34.89	17.29	-37.6	-38.6	22.7	0.00e+00	0	32	0	339738624	48	6124
2026-01-08 13:39:14.01	34.99	17.38	-37.5	-38.5	22.9	0.00e+00	0	32	0	341835776	48	6063
2026-01-08 13:39:15.16	35.13	17.50	-37.4	-38.4	22.8	0.00e+00	0	32	0	343932928	48	5973
2026-01-08 13:39:16.02	35.23	17.58	-37.5	-38.5	22.8	0.00e+00	0	32	0	344981504	48	6083
2026-01-08 13:39:17.17	35.37	17.70	-37.7	-38.7	22.7	0.00e+00	0	33	0	347078656	48	6186
2026-01-08 13:39:18.04	35.48	17.79	-37.7	-38.7	22.7	0.00e+00	0	33	0	349175808	48	6179
2026-01-08 13:39:19.19	35.62	17.90	-37.7	-38.7	22.7	0.00e+00	0	33	0	351272960	48	6221
2026-01-08 13:39:20.06	35.73	17.99	-37.8	-38.9	22.6	0.00e+00	0	32	0	353370112	48	6320
2026-01-08 13:39:21.21	35.87	18.11	-38.0	-39.0	22.5	0.00e+00	0	33	0	355467264	48	6411
2026-01-08 13:39:22.08	35.98	18.20	-37.9	-38.9	22.6	0.00e+00	0	33	0	356515840	48	6378
2026-01-08 13:39:23.23	36.13	18.31	-38.4	-39.5	22.1	0.00e+00	0	33	0	358612992	48	6783
2026-01-08 13:39:24.09	36.24	18.40	-38.2	-39.3	22.2	0.00e+00	0	33	0	360710144	48	6665
2026-01-08 13:39:25.25	36.39	18.52	-38.0	-39.1	22.4	0.00e+00	0	33	0	362807296	48	6473
2026-01-08 13:39:26.11	36.50	18.61	-38.1	-39.2	22.3	0.00e+00	0	32	0	363855872	48	6546
2026-01-08 13:39:27.27	36.65	18.73	-38.0	-39.0	22.5	0.00e+00	0	32	0	365953024	48	6419
2026-01-08 13:39:28.13	36.76	18.82	-37.9	-38.9	22.6	0.00e+00	0	32	0	368050176	48	6334
2026-01-08 13:39:29.29	36.91	18.94	-37.8	-38.8	22.6	0.00e+00	0	32	0	370147328	48	6301
2026-01-08 13:39:30.15	37.03	19.03	-37.8	-38.8	22.7	0.00e+00	0	32	0	372244480	48	6284
2026-01-08 13:39:31.30	37.18	19.15	-37.9	-38.8	22.7	0.00e+00	0	33	0	374341632	48	6295
2026-01-08 13:39:32.17	37.30	19.24	-37.7	-38.6	22.8	0.00e+00	0	32	0	375390208	48	6163
2026-01-08 13:39:33.32	37.45	19.37	-37.8	-38.8	22.7	0.00e+00	0	33	0	377487360	48	6280
2026-01-08 13:39:34.19	37.57	19.46	-37.8	-38.8	22.7	0.00e+00	0	33	0	379584512	48	6271
2026-01-08 13:39:35.34	37.73	19.58	-37.9	-38.9	22.6	0.00e+00	0	33	0	381681664	48	6326
2026-01-08 13:39:36.20	37.85	19.67	-37.7	-38.6	22.8	0.00e+00	0	33	0	382730240	48	6142
2026-01-08 13:39:37.35	38.01	19.79	-37.9	-38.8	22.7	0.00e+00	0	33	0	385875968	48	6304
2026-01-08 13:39:38.22	38.13	19.89	-38.0	-39.0	22.5	0.00e+00	0	32	0	386924544	48	6446
2026-01-08 13:39:39.37	38.29	20.01	-37.9	-38.9	22.7	0.00e+00	0	32	0	389021696	48	6329
2026-01-08 13:39:40.24	38.41	20.10	-37.7	-38.6	22.8	0.00e+00	0	32	0	391118848	48	6171
2026-01-08 13:39:41.39	38.58	20.23	-37.8	-38.8	22.8	0.00e+00	0	32	0	393216000	48	6280
2026-01-08 13:39:42.26	38.70	20.32	-37.7	-38.7	22.8	0.00e+00	0	33	0	394264576	48	6197
2026-01-08 13:39:43.41	38.87	20.45	-38.0	-39.0	22.6	0.00e+00	0	32	0	396361728	48	6416
2026-01-08 13:39:44.27	38.99	20.54	-38.1	-39.1	22.6	0.00e+00	0	32	0	398458880	48	6511
2026-01-08 13:39:45.43	39.16	20.67	-38.2	-39.2	22.4	0.00e+00	0	32	0	400556032	48	6583
2026-01-08 13:39:46.29	39.29	20.76	-37.9	-38.8	22.7	0.00e+00	0	32	0	402653184	48	6312
2026-01-08 13:39:47.45	39.46	20.89	-37.9	-38.9	22.7	0.00e+00	0	32	0	404750336	48	6329
2026-01-08 13:39:48.31	39.59	20.98	-38.2	-39.2	22.4	0.00e+00	0	32	0	405798912	48	6599
2026-01-08 13:39:49.47	39.77	21.11	-38.0	-39.0	22.6	0.00e+00	0	32	0	407896064	48	6436
2026-01-08 13:39:50.33	39.90	21.21	-38.0	-39.0	22.6	0.00e+00	0	32	0	409993216	48	6403
2026-01-08 13:39:51.48	40.07	21.33	-37.8	-38.8	22.7	0.00e+00	0	32	0	412090368	48	6261
2026-01-08 13:39:52.34	40.21	21.43	-37.6	-38.5	23.0	0.00e+00	0	32	0	413138944	48	6096
2026-01-08 13:39:53.50	40.39	21.56	-37.8	-38.7	22.8	0.00e+00	0	32	0	415236096	48	6212
2026-01-08 13:39:54.36	40.52	21.65	-38.0	-39.0	22.7	0.00e+00	0	32	0	417333248	48	6417
2026-01-08 13:39:55.52	40.70	21.78	-37.7	-38.7	22.5	0.00e+00	0	32	0	419430400	48	6176
2026-01-08 13:39:56.38	40.84	21.88	-37.5	-38.4	22.7	0.00e+00	0	32	0	421527552	48	5990
2026-01-08 13:39:57.54	41.02	22.01	-37.3	-38.2	23.0	0.00e+00	0	32	0	423624704	48	5893
2026-01-08 13:39:58.40	41.16	22.11	-37.6	-38.5	23.0	0.00e+00	0	32	0	424673280	48	6061
2026-01-08 13:39:59.55	41.35	22.24	-37.5	-38.4	23.1	0.00e+00	0	32	0	426770432	48	6008
2026-01-08 13:40:00.42	41.49	22.34	-37.7	-38.6	22.8	0.00e+00	0	32	0	428867584	48	6151
2026-01-08 13:40:01.57	41.68	22.47	-37.6	-38.5	23.0	0.00e+00	0	33	0	430964736	48	6094
2026-01-08 13:40:02.43	41.82	22.57	-37.6	-38.5	22.8	0.00e+00	0	33	0	432013312	48	6090
2026-01-08 13:40:03.59	42.01	22.70	-37.8	-38.7	22.8	0.00e+00	0	32	0	434110464	48	6240
2026-01-08 13:40:04.45	42.16	22.80	-37.8	-38.8	22.9	0.00e+00	0	32	0	436207616	48	6251
2026-01-08 13:40:05.61	42.35	22.93	-37.9	-38.9	22.8	0.00e+00	0	32	0	438304768	48	6335
2026-01-08 13:40:06.47	42.50	23.03	-37.6	-38.6	22.9	0.00e+00	0	33	0	440401920	48	6119
2026-01-08 13:40:07.63	42.70	23.16	-37.4	-38.3	23.0	0.00e+00	0	32	0	442499072	48	5937
2026-01-08 13:40:08.49	42.85	23.26	-37.1	-37.9	23.4	0.00e+00	0	33	0	443547648	48	5694
2026-01-08 13:40:09.64	43.05	23.40	-37.3	-38.2	23.3	0.00e+00	0	33	0	445644800	48	5844
2026-01-08 13:40:10.51	43.20	23.50	-37.0	-37.9	23.4	0.00e+00	0	33	0	447741952	48	5631
2026-01-08 13:40:11.66	43.40	23.63	-37.0	-37.9	23.4	0.00e+00	0	32	0	449839104	48	5650
2026-01-08 13:40:12.52	43.56	23.73	-36.9	-37.7	23.6	0.00e+00	0	33	0	450887680	48	5561
2026-01-08 13:40:13.68	43.76	23.87	-37.0	-37.8	23.5	0.00e+00	0	33	0	452984832	48	5630
2026-01-08 13:40:14.54	43.92	23.97	-37.1	-38.0	23.3	0.00e+00	0	33	0	455081984	48	5738
2026-01-08 13:40:15.70	44.13	24.10	-37.5	-38.4	23.1	0.00e+00	0	32	0	457179136	48	6016
2026-01-08 13:40:16.56	44.29	24.21	-37.8	-38.8	22.8	0.00e+00	0	32	0	459276288	48	6246
2026-01-08 13:40:17.71	44.50	24.34	-37.8	-38.8	22.7	0.00e+00	0	32	0	461373440	48	6291
2026-01-08 13:40:18.58	44.66	24.44	-38.3	-39.3	22.5	0.00e+00	0	33	0	462422016	48	6642
2026-01-08 13:40:19.73	44.88	24.58	-38.0	-39.0	22.6	0.00e+00	0	33	0	464519168	48	6392
2026-01-08 13:40:20.60	45.04	24.68	-37.8	-38.7	22.9	0.00e+00	0	33	0	466616320	48	6222
2026-01-08 13:40:21.75	45.26	24.82	-37.7	-38.6	23.0	0.00e+00	0	32	0	468713472	48	6156
2026-01-08 13:40:22.61	45.42	24.92	-37.5	-38.4	23.2	0.00e+00	0	33	0	469762048	48	6003
2026-01-08 13:40:23.77	45.65	25.06	-36.9	-37.7	23.7	0.00e+00	0	33	0	472907776	48	5548
2026-01-08 13:40:24.63	45.81	25.16	-36.7	-37.6	23.8	0.00e+00	0	33	0	473956352	46	6120
2026-01-08 13:40:25.79	46.04	25.30	-36.8	-37.7	23.7	0.00e+00	0	33	0	476053504	46	6210
2026-01-08 13:40:26.65	46.21	25.41	-36.8	-37.7	23.7	0.00e+00	0	33	0	478150656	46	6176
2026-01-08 13:40:27.80	46.44	25.54	-36.8	-37.6	23.7	0.00e+00	0	33	0	480247808	46	6164
2026-01-08 13:40:28.67	46.61	25.65	-36.7	-37.5	23.7	0.00e+00	0	33	0	481296384	46	6080
2026-01-08 13:40:29.83	46.85	25.79	-37.0	-37.8	23.4	0.00e+00	0	33	0	483393536	46	6303
2026-01-08 13:40:30.69	47.02	25.89	-36.8	-37.7	23.6	0.00e+00	0	33	0	485490688	46	6177
2026-01-08 13:40:31.84	47.26	26.03	-36.9	-37.8	23.5	0.00e+00	0	33	0	487587840	46	6287
2026-01-08 13:40:32.71	47.44	26.14	-36.8	-37.7	23.4	0.00e+00	0	33	0	489684992	46	6192
2026-01-08 13:40:33.86	47.68	26.27	-36.9	-37.8	23.5	0.00e+00	0	33	0	491782144	46	6280
2026-01-08 13:40:34.73	47.86	26.38	-37.0	-37.8	23.6	0.00e+00	0	33	0	492830720	46	6310
2026-01-08 13:40:35.88	48.10	26.52	-36.8	-37.7	23.5	0.00e+00	0	32	0	494927872	46	6219
2026-01-08 13:40:36.75	48.29	26.63	-36.8	-37.7	23.6	0.00e+00	0	32	0	497025024	46	6214
2026-01-08 13:40:37.90	48.53	26.77	-36.9	-37.7	23.7	0.00e+00	0	32	0	499122176	46	6239
2026-01-08 13:40:38.76	48.72	26.87	-36.7	-37.5	23.7	0.00e+00	0	32	0	500170752	46	6102
2026-01-08 13:40:39.91	48.97	27.01	-36.9	-37.8	23.6	0.00e+00	0	32	0	502267904	46	6307
2026-01-08 13:40:40.78	49.16	27.12	-36.9	-37.8	23.6	0.00e+00	0	33	0	504365056	46	6282
2026-01-08 13:40:41.93	49.41	27.26	-36.9	-37.8	23.7	0.00e+00	0	33	0	506462208	46	6286
2026-01-08 13:40:42.80	49.61	27.36	-36.9	-37.8	23.5	0.00e+00	0	33	0	508559360	46	6271
2026-01-08 13:40:43.95	49.86	27.50	-36.8	-37.7	23.7	0.00e+00	0	33	0	510656512	46	6212
2026-01-08 13:40:44.82	50.06	27.61	-36.5	-37.3	23.9	0.00e+00	0	32	0	511705088	46	5964
2026-01-08 13:40:45.97	50.32	27.75	-36.5	-37.3	24.0	0.00e+00	0	33	0	513802240	46	5926
2026-01-08 13:40:46.83	50.52	27.86	-36.6	-37.4	23.8	0.00e+00	0	33	0	515899392	46	6031
2026-01-08 13:40:47.98	50.79	28.00	-36.4	-37.2	24.0	0.00e+00	0	33	0	517996544	46	5852
2026-01-08 13:40:48.85	50.99	28.11	-36.5	-37.4	23.9	0.00e+00	0	33	0	519045120	46	5972
2026-01-08 13:40:50.00	51.26	28.25	-36.9	-37.8	23.8	0.00e+00	0	33	0	521142272	46	6253
2026-01-08 13:40:50.87	51.46	28.35	-36.8	-37.6	23.8	0.00e+00	0	33	0	523239424	46	6149
2026-01-08 13:40:52.03	51.74	28.50	-37.1	-38.0	23.5	0.00e+00	0	33	0	525336576	46	6416
2026-01-08 13:40:52.89	51.95	28.60	-36.9	-37.8	23.6	0.00e+00	0	33	0	527433728	46	6271
2026-01-08 13:40:54.05	52.23	28.74	-37.0	-37.8	23.6	0.00e+00	0	33	0	529530880	46	6313
2026-01-08 13:40:54.91	52.44	28.85	-37.2	-38.1	23.4	0.00e+00	0	33	0	530579456	46	6504
2026-01-08 13:40:56.07	52.72	28.99	-37.3	-38.2	23.2	0.00e+00	0	33	0	532676608	46	6549
2026-01-08 13:40:56.93	52.93	29.10	-37.6	-38.6	23.2	0.00e+00	0	33	0	534773760	46	6851
2026-01-08 13:40:58.08	53.22	29.24	-38.0	-38.9	22.7	0.00e+00	0	33	0	536870912	48	6390
2026-01-08 13:40:58.95	53.44	29.35	-38.0	-38.9	22.7	0.00e+00	0	33	0	537919488	48	6378
2026-01-08 13:41:00.10	53.73	29.49	-38.0	-39.0	22.6	0.00e+00	0	33	0	541065216	48	6394
2026-01-08 13:41:00.97	53.95	29.59	-38.1	-39.1	22.6	0.00e+00	0	33	0	542113792	48	6497
2026-01-08 13:41:02.12	54.25	29.74	-38.0	-39.0	22.6	0.00e+00	0	33	0	544210944	48	6403
2026-01-08 13:41:02.99	54.47	29.84	-38.4	-39.4	22.5	0.00e+00	0	33	0	546308096	48	6756
2026-01-08 13:41:04.14	54.77	29.98	-38.5	-39.5	22.3	0.00e+00	0	33	0	548405248	50	6101
2026-01-08 13:41:05.00	55.00	30.09	-38.9	-40.0	21.8	0.00e+00	0	33	0	549453824	50	6435
2026-01-08 13:41:06.16	55.31	30.23	-38.9	-40.0	22.0	0.00e+00	0	33	0	551550976	50	6411
2026-01-08 13:41:07.02	55.53	30.34	-38.8	-39.9	21.9	0.00e+00	0	33	0	553648128	50	6354
2026-01-08 13:41:08.18	55.85	30.48	-39.0	-40.1	21.9	0.00e+00	0	33	0	555745280	50	6472
2026-01-08 13:41:09.04	56.08	30.58	-39.0	-40.1	21.9	0.00e+00	0	33	0	557842432	50	6493
2026-01-08 13:41:10.20	56.40	30.72	-39.8	-41.0	21.1	0.00e+00	0	33	0	559939584	52	6408
2026-01-08 13:41:11.06	56.63	30.83	-40.2	-41.5	20.4	0.00e+00	0	33	0	560988160	52	6780
2026-01-08 13:41:12.22	56.95	30.97	-40.3	-41.6	20.6	0.00e+00	0	33	0	563085312	52	6886
2026-01-08 13:41:13.08	57.19	31.07	-40.6	-41.9	20.2	0.00e+00	0	33	0	565182464	52	7160
2026-01-08 13:41:14.24	57.52	31.21	-41.2	-42.7	19.5	0.00e+00	0	33	0	567279616	54	6974
2026-01-08 13:41:15.10	57.76	31.32	-41.2	-42.6	19.6	0.00e+00	0	33	0	568328192	54	6904
2026-01-08 13:41:16.26	58.09	31.45	-41.0	-42.4	19.8	0.00e+00	0	33	0	570425344	54	6768
2026-01-08 13:41:17.12	58.34	31.56	-41.3	-42.8	19.5	0.00e+00	0	33	0	572522496	54	7051
2026-01-08 13:41:18.28	58.68	31.70	-41.3	-42.8	19.4	0.00e+00	0	33	0	574619648	54	7068
2026-01-08 13:41:19.14	58.93	31.80	-40.9	-42.2	20.0	0.00e+00	0	33	0	576716800	54	6597
2026-01-08 13:41:20.29	59.27	31.94	-40.8	-42.2	20.1	0.00e+00	0	33	0	578813952	54	6552
2026-01-08 13:41:21.16	59.52	32.04	-41.1	-42.5	19.6	0.00e+00	0	33	0	579862528	54	6785
2026-01-08 13:41:22.31	59.87	32.18	-41.5	-43.1	19.2	0.00e+00	0	33	0	581959680	54	7284
2026-01-08 13:41:23.17	60.12	32.28	-41.3	-42.8	19.4	0.00e+00	0	33	0	584056832	54	7076
2026-01-08 13:41:24.33	60.47	32.41	-41.5	-43.0	19.2	0.00e+00	0	33	0	586153984	54	7231
2026-01-08 13:41:25.19	60.74	32.51	-41.7	-43.2	19.1	0.00e+00	0	33	0	587202560	56	6584
2026-01-08 13:41:26.35	61.09	32.65	-41.0	-42.3	19.9	0.00e+00	0	33	0	589299712	56	5955
2026-01-08 13:41:27.21	61.36	32.75	-41.0	-42.3	19.9	0.00e+00	0	33	0	591396864	56	5955
2026-01-08 13:41:28.37	61.72	32.88	-41.1	-42.5	19.7	0.00e+00	0	33	0	593494016	56	6071
2026-01-08 13:41:29.23	61.99	32.98	-41.5	-43.0	19.6	0.00e+00	0	33	0	595591168	56	6455
2026-01-08 13:41:30.39	62.35	33.12	-41.8	-43.3	19.0	0.00e+00	0	33	0	597688320	56	6667
2026-01-08 13:41:31.25	62.63	33.22	-42.2	-43.9	18.5	0.00e+00	0	33	0	598736896	56	7125
2026-01-08 13:41:32.41	63.00	33.35	-42.4	-44.2	18.4	0.00e+00	0	33	0	600834048	56	7341
2026-01-08 13:41:33.27	63.28	33.44	-42.6	-44.4	18.3	0.00e+00	0	33	0	602931200	58	6722
2026-01-08 13:41:34.42	63.65	33.57	-42.4	-44.1	18.3	0.00e+00	0	33	0	605028352	58	6504
2026-01-08 13:41:35.29	63.93	33.67	-42.3	-44.0	18.5	0.00e+00	0	33	0	606076928	58	6448
2026-01-08 13:41:36.44	64.31	33.80	-41.7	-43.2	18.9	0.00e+00	0	33	0	609222656	56	6570
2026-01-08 13:41:37.30	64.60	33.90	-41.2	-42.6	19.6	0.00e+00	0	33	0	610271232	56	6157
2026-01-08 13:41:38.46	64.98	34.02	-41.2	-42.6	19.8	0.00e+00	0	33	0	612368384	56	6161
2026-01-08 13:41:39.33	65.28	34.12	-41.1	-42.4	19.8	0.00e+00	0	33	0	614465536	56	6017
2026-01-08 13:41:40.48	65.66	34.24	-40.9	-42.3	20.0	0.00e+00	0	33	0	616562688	56	5913
2026-01-08 13:41:41.35	65.96	34.34	-41.1	-42.5	19.5	0.00e+00	0	33	0	617611264	56	6062
2026-01-08 13:41:42.50	66.35	34.46	-42.0	-43.6	18.9	0.00e+00	0	33	0	619708416	56	6860
2026-01-08 13:41:43.37	66.65	34.55	-42.2	-43.9	18.4	0.00e+00	0	33	0	621805568	56	7157
2026-01-08 13:41:44.52	67.05	34.68	-42.7	-44.6	17.7	0.00e+00	0	33	0	623902720	58	6897
2026-01-08 13:41:45.38	67.35	34.77	-41.8	-43.4	18.9	0.00e+00	0	33	0	624951296	58	5985
2026-01-08 13:41:46.53	67.76	34.89	-41.0	-42.4	20.2	0.00e+00	0	33	0	627048448	56	6012
2026-01-08 13:41:47.40	68.07	34.98	-39.9	-41.0	21.2	0.00e+00	0	33	0	629145600	54	5759
2026-01-08 13:41:48.55	68.47	35.09	-38.7	-39.7	22.2	0.00e+00	0	33	0	631242752	50	6239
2026-01-08 13:41:49.42	68.79	35.18	-38.6	-39.6	22.3	0.00e+00	0	33	0	633339904	50	6172
2026-01-08 13:41:50.57	69.20	35.30	-39.2	-40.3	21.6	0.00e+00	0	33	0	635437056	50	6621
2026-01-08 13:41:51.44	69.52	35.38	-40.1	-41.4	20.6	0.00e+00	0	33	0	636485632	52	6698
2026-01-08 13:41:52.59	69.94	35.50	-40.8	-42.2	20.1	0.00e+00	0	33	0	638582784	54	6562
2026-01-08 13:41:53.46	70.26	35.58	-40.3	-41.6	20.6	0.00e+00	0	33	0	640679936	54	6119
2026-01-08 13:41:54.61	70.68	35.69	-39.7	-40.8	21.4	0.00e+00	0	33	0	642777088	54	5620
2026-01-08 13:41:55.47	71.00	35.78	-38.7	-39.7	22.1	0.00e+00	0	33	0	643825664	52	5515
2026-01-08 13:41:56.63	71.43	35.89	-37.9	-38.8	22.9	0.00e+00	0	33	0	646971392	50	5627
2026-01-08 13:41:57.49	71.76	35.97	-37.8	-38.8	22.8	0.00e+00	0	33	0	648019968	48	6272
2026-01-08 13:41:58.65	72.19	36.07	-38.0	-38.9	22.7	0.00e+00	0	33	0	650117120	48	6390
2026-01-08 13:41:59.51	72.52	36.15	-37.9	-38.9	22.9	0.00e+00	0	33	0	652214272	48	6324
2026-01-08 13:42:00.66	72.96	36.26	-38.2	-39.2	22.5	0.00e+00	0	33	0	654311424	48	6545
2026-01-08 13:42:01.53	73.29	36.33	-38.7	-39.7	22.2	0.00e+00	0	33	0	655360000	48	6969
2026-01-08 13:42:02.68	73.74	36.43	-38.8	-39.8	22.3	0.00e+00	0	33	0	657457152	50	6263
2026-01-08 13:42:03.55	74.08	36.51	-38.2	-39.2	22.6	0.00e+00	0	33	0	659554304	50	5832
2026-01-08 13:42:04.70	74.53	36.61	-38.0	-39.0	22.7	0.00e+00	0	33	0	661651456	50	5728
2026-01-08 13:42:05.56	74.86	36.68	-37.3	-38.2	23.4	0.00e+00	0	33	0	663748608	48	5867
2026-01-08 13:42:06.72	75.32	36.78	-36.7	-37.5	23.1	0.00e+00	0	33	0	665845760	46	6088
2026-01-08 13:42:07.58	75.66	36.85	-36.7	-37.5	23.9	0.00e+00	0	33	0	666894336	46	6075
2026-01-08 13:42:08.74	76.12	36.94	-37.1	-38.0	23.4	0.00e+00	0	33	0	668991488	46	6458
2026-01-08 13:42:09.60	76.47	37.01	-38.1	-39.1	22.6	0.00e+00	0	33	0	671088640	48	6517
2026-01-08 13:42:10.76	76.93	37.10	-38.2	-39.2	22.5	0.00e+00	0	33	0	673185792	48	6560
2026-01-08 13:42:11.62	77.28	37.16	-38.3	-39.3	22.4	0.00e+00	0	33	0	674234368	48	6652
2026-01-08 13:42:12.77	77.75	37.25	-38.0	-38.9	22.8	0.00e+00	0	33	0	676331520	48	6388
2026-01-08 13:42:13.64	78.10	37.31	-38.2	-39.1	22.6	0.00e+00	0	33	0	678428672	48	6523
2026-01-08 13:42:14.79	78.58	37.40	-38.6	-39.6	22.2	0.00e+00	0	33	0	680525824	48	6886
2026-01-08 13:42:15.66	78.93	37.46	-38.8	-39.9	22.1	0.00e+00	0	33	0	682622976	50	6322
2026-01-08 13:42:16.81	79.41	37.54	-38.4	-39.4	22.3	0.00e+00	0	33	0	684720128	50	6020
2026-01-08 13:42:17.67	79.77	37.59	-38.0	-39.0	22.9	0.00e+00	0	33	0	685768704	50	5699
2026-01-08 13:42:18.82	80.25	37.67	-37.1	-38.0	23.5	0.00e+00	0	33	0	687865856	48	5709
2026-01-08 13:42:19.69	80.61	37.73	-37.0	-37.8	23.6	0.00e+00	0	33	0	689963008	48	5617
2026-01-08 13:42:20.84	81.09	37.80	-37.4	-38.3	23.2	0.00e+00	0	33	0	692060160	48	5945
2026-01-08 13:42:21.71	81.46	37.85	-37.6	-38.5	22.9	0.00e+00	0	33	0	693108736	48	6074
2026-01-08 13:42:22.86	81.95	37.92	-38.0	-38.9	22.7	0.00e+00	0	33	0	695205888	48	6386
2026-01-08 13:42:23.72	82.31	37.97	-38.2	-39.2	22.5	0.00e+00	0	33	0	697303040	48	6591
2026-01-08 13:42:24.88	82.81	38.03	-38.6	-39.7	22.2	0.00e+00	0	33	0	699400192	48	6937
2026-01-08 13:42:25.74	83.17	38.08	-38.9	-39.9	22.2	0.00e+00	0	33	0	701497344	50	6374
2026-01-08 13:42:26.89	83.67	38.14	-39.1	-40.2	21.7	0.00e+00	0	33	0	703594496	50	6613
2026-01-08 13:42:27.76	84.04	38.19	-39.1	-40.2	21.8	0.00e+00	0	33	0	704643072	50	6578
2026-01-08 13:42:28.91	84.54	38.24	-38.9	-40.0	22.0	0.00e+00	0	33	0	706740224	50	6395
2026-01-08 13:42:29.78	84.91	38.28	-37.7	-38.7	22.9	0.00e+00	0	33	0	708837376	50	5527
2026-01-08 13:42:30.93	85.41	38.34	-37.4	-38.3	23.2	0.00e+00	0	33	0	710934528	48	5939
2026-01-08 13:42:31.80	85.79	38.38	-37.1	-38.0	23.5	0.00e+00	0	33	0	711983104	48	5700
2026-01-08 13:42:32.95	86.30	38.42	-37.4	-38.3	23.2	0.00e+00	0	33	0	715128832	48	5924
2026-01-08 13:42:33.82	86.68	38.46	-38.0	-39.0	22.7	0.00e+00	0	33	0	716177408	48	6464
2026-01-08 13:42:34.97	87.18	38.50	-38.4	-39.4	22.4	0.00e+00	0	33	0	718274560	48	6729
2026-01-08 13:42:35.84	87.56	38.54	-38.6	-39.7	22.3	0.00e+00	0	33	0	720371712	48	6931
2026-01-08 13:42:36.99	88.07	38.58	-39.5	-40.7	21.2	0.00e+00	0	33	0	722468864	50	6976
2026-01-08 13:42:37.86	88.46	38.61	-39.7	-40.9	21.2	0.00e+00	0	33	0	723517440	50	7107
2026-01-08 13:42:39.01	88.97	38.64	-39.5	-40.7	21.3	0.00e+00	0	33	0	725614592	52	6200
2026-01-08 13:42:39.88	89.35	38.67	-39.1	-40.1	21.7	0.00e+00	0	33	0	727711744	52	5812
2026-01-08 13:42:41.03	89.86	38.70	-38.9	-39.9	21.9	0.00e+00	0	33	0	729808896	52	5684
2026-01-08 13:42:41.90	90.25	38.72	-38.9	-39.9	22.0	0.00e+00	0	33	0	731906048	52	5676
2026-01-08 13:42:43.05	90.76	38.75	-38.9	-40.0	21.9	0.00e+00	0	33	0	734003200	50	6445
2026-01-08 13:42:43.92	91.15	38.77	-38.9	-40.0	22.0	0.00e+00	0	33	0	735051776	50	6393
2026-01-08 13:42:45.07	91.66	38.79	-38.8	-39.8	22.0	0.00e+00	0	32	0	737148928	50	6272
2026-01-08 13:42:45.93	92.05	38.81	-39.1	-40.2	21.7	0.00e+00	0	33	0	739246080	50	6593
2026-01-08 13:42:47.09	92.57	38.82	-40.9	-42.3	19.9	0.00e+00	0	33	0	741343232	52	7494
2026-01-08 13:42:47.95	92.96	38.84	-42.4	-44.2	18.3	0.00e+00	0	33	0	742391808	56	7376
2026-01-08 13:42:49.10	93.47	38.85	-42.2	-44.0	18.3	0.00e+00	0	33	0	744488960	58	6430
2026-01-08 13:42:49.96	93.86	38.86	-41.2	-42.7	19.7	0.00e+00	0	33	0	746586112	56	6200
2026-01-08 13:42:51.12	94.38	38.87	-39.8	-41.0	21.2	0.00e+00	0	33	0	748683264	54	5717
2026-01-08 13:42:51.98	94.77	38.87	-39.2	-40.3	21.8	0.00e+00	0	33	0	750780416	52	5901
2026-01-08 13:42:53.13	95.28	38.88	-38.9	-40.0	22.1	0.00e+00	0	33	0	752877568	50	6403
2026-01-08 13:42:54.00	95.67	38.88	-38.3	-39.3	22.6	0.00e+00	0	33	0	753926144	50	5940
2026-01-08 13:42:55.16	96.20	38.88	-37.9	-38.8	22.8	0.00e+00	0	33	0	756023296	50	5616
2026-01-08 13:42:56.02	96.58	38.88	-37.3	-38.3	23.3	0.00e+00	0	33	0	758120448	48	5903
2026-01-08 13:42:57.18	97.11	38.88	-37.7	-38.7	23.0	0.00e+00	0	33	0	760217600	48	6200
2026-01-08 13:42:58.04	97.49	38.87	-37.8	-38.7	22.9	0.00e+00	0	32	0	761266176	48	6214
2026-01-08 13:42:59.19	98.01	38.86	-37.8	-38.8	22.9	0.00e+00	0	33	0	763363328	48	6249
2026-01-08 13:43:00.06	98.40	38.86	-37.6	-38.5	23.1	0.00e+00	0	33	0	765460480	48	6054
2026-01-08 13:43:01.21	98.92	38.84	-37.1	-38.0	23.4	0.00e+00	0	33	0	767557632	48	5716
2026-01-08 13:43:02.07	99.30	38.83	-37.5	-38.4	23.3	0.00e+00	0	33	0	769654784	48	5979
2026-01-08 13:43:03.22	99.82	38.81	-38.1	-39.1	22.6	0.00e+00	0	33	0	771751936	48	6474
2026-01-08 13:43:04.09	100.21	38.80	-38.1	-39.1	22.5	0.00e+00	0	33	0	772800512	48	6488
2026-01-08 13:43:05.24	100.72	38.78	-37.9	-38.9	22.1	0.00e+00	0	33	0	774897664	48	6348
2026-01-08 13:43:06.11	101.11	38.76	-37.8	-38.8	22.9	0.00e+00	0	33	0	776994816	48	6256
2026-01-08 13:43:07.26	101.62	38.73	-38.0	-38.9	22.8	0.00e+00	0	33	0	779091968	48	6376
2026-01-08 13:43:08.12	102.01	38.71	-37.4	-38.3	23.3	0.00e+00	0	33	0	780140544	48	5951
2026-01-08 13:43:09.28	102.52	38.68	-37.6	-38.5	23.1	0.00e+00	0	32	0	782237696	48	6071
2026-01-08 13:43:10.14	102.91	38.65	-37.7	-38.7	23.1	0.00e+00	0	32	0	784334848	48	6179
2026-01-08 13:43:11.30	103.42	38.62	-38.3	-39.3	22.5	0.00e+00	0	33	0	786432000	48	6634
2026-01-08 13:43:12.16	103.80	38.59	-38.7	-39.7	22.0	0.00e+00	0	33	0	788529152	48	6990
2026-01-08 13:43:13.31	104.31	38.55	-38.7	-39.7	22.1	0.00e+00	0	33	0	790626304	50	6197
2026-01-08 13:43:14.18	104.69	38.52	-38.0	-39.0	22.6	0.00e+00	0	33	0	791674880	50	5733
2026-01-08 13:43:15.33	105.20	38.48	-38.0	-39.0	22.8	0.00e+00	0	32	0	793772032	50	5738
2026-01-08 13:43:16.19	105.58	38.44	-37.5	-38.4	23.1	0.00e+00	0	33	0	795869184	48	5989
2026-01-08 13:43:17.34	106.08	38.39	-37.2	-38.1	23.4	0.00e+00	0	33	0	797966336	48	5809
2026-01-08 13:43:18.21	106.46	38.36	-37.1	-38.0	23.5	0.00e+00	0	32	0	799014912	48	5716
2026-01-08 13:43:19.37	106.96	38.30	-37.1	-38.0	23.4	0.00e+00	0	32	0	802160640	48	5755
2026-01-08 13:43:20.23	107.34	38.26	-36.7	-37.6	23.8	0.00e+00	0	32	0	803209216	46	6146
2026-01-08 13:43:21.38	107.84	38.21	-37.5	-38.5	22.8	0.00e+00	0	33	0	805306368	46	6794
2026-01-08 13:43:22.25	108.21	38.16	-38.6	-39.6	22.2	0.00e+00	0	32	0	807403520	48	6913
2026-01-08 13:43:23.40	108.71	38.10	-39.5	-40.7	21.4	0.00e+00	0	33	0	809500672	50	6963
2026-01-08 13:43:24.26	109.07	38.06	-38.6	-39.7	22.4	0.00e+00	0	33	0	810549248	50	6245
2026-01-08 13:43:25.42	109.57	37.99	-37.4	-38.3	23.3	0.00e+00	0	33	0	812646400	48	5963
2026-01-08 13:43:26.28	109.94	37.94	-36.4	-37.2	23.9	0.00e+00	0	33	0	814743552	46	5892
2026-01-08 13:43:27.44	110.43	37.88	-37.4	-38.4	23.1	0.00e+00	0	33	0	816840704	46	6722
2026-01-08 13:43:28.30	110.79	37.82	-38.0	-38.9	22.8	0.00e+00	0	33	0	818937856	48	6387
2026-01-08 13:43:29.45	111.28	37.75	-37.7	-38.6	23.2	0.00e+00	0	33	0	821035008	48	6143
2026-01-08 13:43:30.32	111.64	37.70	-36.5	-37.3	24.0	0.00e+00	0	32	0	822083584	46	5919
2026-01-08 13:43:31.47	112.12	37.62	-36.6	-37.4	23.8	0.00e+00	0	33	0	824180736	46	5996
2026-01-08 13:43:32.34	112.49	37.56	-36.9	-37.8	23.7	0.00e+00	0	33	0	826277888	46	6248
2026-01-08 13:43:33.49	112.96	37.48	-38.2	-39.2	22.6	0.00e+00	0	33	0	828375040	48	6553
2026-01-08 13:43:34.36	113.32	37.42	-38.9	-40.1	21.7	0.00e+00	0	32	0	829423616	50	6476
2026-01-08 13:43:35.51	113.80	37.34	-38.9	-40.0	22.1	0.00e+00	0	33	0	831520768	50	6437
2026-01-08 13:43:36.37	114.15	37.28	-37.8	-38.8	23.0	0.00e+00	0	33	0	833617920	50	5574
2026-01-08 13:43:37.53	114.62	37.19	-37.1	-38.0	23.5	0.00e+00	0	33	0	835715072	48	5702
2026-01-08 13:43:38.40	114.97	37.13	-36.6	-37.4	24.0	0.00e+00	0	33	0	837812224	46	6032
2026-01-08 13:43:39.55	115.44	37.04	-37.2	-38.1	23.5	0.00e+00	0	33	0	839909376	46	6491
2026-01-08 13:43:40.41	115.78	36.97	-37.0	-37.8	23.8	0.00e+00	0	33	0	840957952	46	6315
2026-01-08 13:43:41.57	116.25	36.88	-35.6	-36.4	24.7	0.00e+00	0	33	0	843055104	46	5338
2026-01-08 13:43:42.43	116.59	36.81	-34.5	-35.2	25.3	0.00e+00	0	33	0	845152256	44	5247
2026-01-08 13:43:43.58	117.05	36.71	-34.4	-35.1	25.4	0.00e+00	0	33	0	847249408	42	5775
2026-01-08 13:43:44.45	117.39	36.64	-35.4	-36.1	24.8	0.00e+00	0	33	0	848297984	42	6528
2026-01-08 13:43:45.60	117.84	36.54	-36.7	-37.5	23.8	0.00e+00	0	33	0	850395136	44	6821
2026-01-08 13:43:46.47	118.18	36.47	-37.3	-38.2	23.4	0.00e+00	0	33	0	852492288	46	6573
2026-01-08 13:43:47.62	118.62	36.37	-36.7	-37.6	23.9	0.00e+00	0	33	0	854589440	46	6124
2026-01-08 13:43:48.49	118.96	36.29	-36.0	-36.9	24.5	0.00e+00	0	33	0	856686592	46	5634
2026-01-08 13:43:49.64	119.40	36.19	-35.4	-36.2	24.9	0.00e+00	0	33	0	858783744	44	5876
2026-01-08 13:43:50.50	119.73	36.11	-35.5	-36.2	24.8	0.00e+00	0	33	0	859832320	44	5892
2026-01-08 13:43:51.66	120.17	36.00	-35.4	-36.2	24.8	0.00e+00	0	33	0	861929472	44	5848
2026-01-08 13:43:52.52	120.49	35.92	-34.9	-35.7	25.2	0.00e+00	0	33	0	864026624	44	5538
2026-01-08 13:43:53.68	120.93	35.81	-34.5	-35.3	25.4	0.00e+00	0	33	0	866123776	42	5907
2026-01-08 13:43:54.54	121.25	35.73	-34.4	-35.1	25.3	0.00e+00	0	33	0	867172352	42	5827
2026-01-08 13:43:55.70	121.68	35.62	-35.4	-36.2	24.9	0.00e+00	0	33	0	870318080	42	6592
2026-01-08 13:43:56.56	122.00	35.53	-36.1	-36.9	24.3	0.00e+00	0	32	0	871366656	44	6322
2026-01-08 13:43:57.72	122.42	35.42	-37.3	-38.2	23.4	0.00e+00	0	32	0	873463808	46	6545
2026-01-08 13:43:58.58	122.74	35.33	-37.3	-38.1	23.0	0.00e+00	0	33	0	875560960	46	6534
2026-01-08 13:43:59.73	123.15	35.22	-37.1	-37.9	23.6	0.00e+00	0	33	0	877658112	46	6390
2026-01-08 13:44:00.60	123.47	35.13	-37.1	-38.0	23.2	0.00e+00	0	33	0	878706688	46	6403
2026-01-08 13:44:01.75	123.88	35.01	-37.4	-38.3	23.4	0.00e+00	0	33	0	880803840	46	6648
2026-01-08 13:44:02.61	124.18	34.92	-38.1	-39.0	22.9	0.00e+00	0	33	0	882900992	48	6438
2026-01-08 13:44:03.77	124.59	34.80	-38.9	-39.9	22.0	0.00e+00	0	33	0	884998144	50	6355
2026-01-08 13:44:04.63	124.89	34.71	-38.6	-39.6	22.1	0.00e+00	0	33	0	886046720	50	6138
2026-01-08 13:44:05.79	125.30	34.59	-38.0	-39.0	22.8	0.00e+00	0	33	0	888143872	50	5732
2026-01-08 13:44:06.65	125.60	34.49	-37.9	-38.8	22.8	0.00e+00	0	33	0	890241024	50	5612
2026-01-08 13:44:07.81	126.00	34.37	-38.7	-39.7	22.0	0.00e+00	0	33	0	892338176	50	6178
2026-01-08 13:44:08.67	126.29	34.28	-39.2	-40.3	21.6	0.00e+00	0	33	0	894435328	50	6668
2026-01-08 13:44:09.82	126.68	34.15	-40.5	-41.8	20.1	0.00e+00	0	33	0	896532480	52	7040
2026-01-08 13:44:10.69	126.98	34.06	-40.9	-42.2	20.0	0.00e+00	0	33	0	897581056	54	6593
2026-01-08 13:44:11.84	127.36	33.93	-40.4	-41.6	20.7	0.00e+00	0	33	0	899678208	54	6115
2026-01-08 13:44:12.71	127.65	33.83	-40.1	-41.2	20.9	0.00e+00	0	33	0	901775360	54	5888
2026-01-08 13:44:13.86	128.03	33.70	-40.2	-41.4	20.6	0.00e+00	0	33	0	903872512	54	6016
2026-01-08 13:44:14.73	128.32	33.61	-41.0	-42.3	19.9	0.00e+00	0	33	0	904921088	54	6686
2026-01-08 13:44:15.88	128.69	33.48	-42.3	-44.0	18.3	0.00e+00	0	33	0	908066816	56	7209
2026-01-08 13:44:16.75	128.97	33.38	-42.8	-44.7	17.7	0.00e+00	0	33	0	909115392	56	7835
2026-01-08 13:44:17.90	129.34	33.25	-41.9	-43.5	18.9	0.00e+00	0	33	0	911212544	58	6103
2026-01-08 13:44:18.77	129.62	33.15	-41.5	-43.1	19.5	0.00e+00	0	33	0	913309696	56	6478
2026-01-08 13:44:19.92	129.99	33.01	-40.2	-41.4	20.6	0.00e+00	0	33	0	915406848	54	6008
2026-01-08 13:44:20.78	130.26	32.91	-40.4	-41.6	20.6	0.00e+00	0	33	0	916455424	54	6136
2026-01-08 13:44:21.93	130.62	32.78	-41.4	-42.9	19.3	0.00e+00	0	33	0	918552576	54	7110
2026-01-08 13:44:22.80	130.89	32.68	-42.6	-44.4	18.0	0.00e+00	0	33	0	920649728	56	7574
2026-01-08 13:44:23.95	131.24	32.54	-43.2	-45.3	17.1	0.00e+00	0	33	0	922746880	58	7503
2026-01-08 13:44:24.82	131.51	32.44	-43.0	-45.1	17.3	0.00e+00	0	33	0	924844032	58	7269
2026-01-08 13:44:25.97	131.86	32.31	-43.0	-45.0	17.4	0.00e+00	0	33	0	926941184	58	7229
2026-01-08 13:44:26.83	132.12	32.20	-42.6	-44.4	18.2	0.00e+00	0	33	0	927989760	58	6739
2026-01-08 13:44:27.98	132.46	32.07	-42.4	-44.1	18.2	0.00e+00	0	33	0	930086912	58	6535
2026-01-08 13:44:28.85	132.72	31.96	-42.1	-43.9	18.4	0.00e+00	0	33	0	932184064	58	6360
2026-01-08 13:44:30.00	133.06	31.83	-41.7	-43.2	19.1	0.00e+00	0	33	0	934281216	58	5891
2026-01-08 13:44:30.87	133.32	31.72	-40.5	-41.8	20.5	0.00e+00	0	33	0	935329792	54	6263
2026-01-08 13:44:32.02	133.65	31.58	-39.3	-40.4	21.7	0.00e+00	0	33	0	937426944	52	6012
2026-01-08 13:44:32.89	133.90	31.48	-38.8	-39.8	22.3	0.00e+00	0	33	0	939524096	52	5576
2026-01-08 13:44:34.04	134.23	31.34	-38.9	-39.9	21.9	0.00e+00	0	33	0	941621248	50	6354
2026-01-08 13:44:34.91	134.48	31.24	-39.8	-41.0	21.1	0.00e+00	0	33	0	943718400	50	7220
2026-01-08 13:44:36.06	134.81	31.10	-40.4	-41.8	20.5	0.00e+00	0	33	0	945815552	52	7012
2026-01-08 13:44:36.92	135.05	30.99	-40.4	-41.8	20.4	0.00e+00	0	33	0	946864128	52	7040
2026-01-08 13:44:38.08	135.37	30.85	-39.7	-40.9	21.2	0.00e+00	0	33	0	948961280	52	6340
2026-01-08 13:44:38.94	135.61	30.75	-39.0	-40.1	21.9	0.00e+00	0	33	0	951058432	52	5799
2026-01-08 13:44:40.10	135.93	30.60	-38.9	-40.0	22.0	0.00e+00	0	33	0	953155584	52	5706
2026-01-08 13:44:40.96	136.16	30.50	-39.0	-40.1	21.8	0.00e+00	0	33	0	954204160	50	6473
2026-01-08 13:44:42.11	136.47	30.36	-39.9	-41.1	21.0	0.00e+00	0	33	0	956301312	52	6492
2026-01-08 13:44:42.98	136.70	30.25	-40.0	-41.2	20.9	0.00e+00	0	33	0	958398464	52	6594
2026-01-08 13:44:44.13	137.01	30.11	-39.3	-40.4	21.6	0.00e+00	0	33	0	960495616	52	6019
2026-01-08 13:44:45.00	137.24	30.00	-37.9	-38.9	22.7	0.00e+00	0	33	0	962592768	50	5651
2026-01-08 13:44:46.15	137.54	29.86	-36.8	-37.7	23.7	0.00e+00	0	33	0	964689920	48	5531
2026-01-08 13:44:47.02	137.77	29.75	-36.6	-37.4	24.0	0.00e+00	0	33	0	965738496	46	6028
2026-01-08 13:44:48.17	138.06	29.61	-37.3	-38.2	23.4	0.00e+00	0	33	0	967835648	46	6587
2026-01-08 13:44:49.03	138.29	29.51	-37.8	-38.7	22.9	0.00e+00	0	33	0	969932800	46	6984
2026-01-08 13:44:50.18	138.58	29.36	-38.9	-40.0	21.8	0.00e+00	0	33	0	972029952	50	6418
2026-01-08 13:44:51.05	138.80	29.26	-38.8	-39.9	21.8	0.00e+00	0	33	0	973078528	50	6335
2026-01-08 13:44:52.21	139.09	29.11	-38.0	-39.0	22.8	0.00e+00	0	33	0	976224256	50	5713
2026-01-08 13:44:53.07	139.30	29.01	-37.1	-38.0	23.5	0.00e+00	0	33	0	977272832	48	5709
2026-01-08 13:44:54.22	139.59	28.87	-36.5	-37.3	24.0	0.00e+00	0	33	0	979369984	46	5945
2026-01-08 13:44:55.09	139.80	28.76	-36.2	-37.0	24.2	0.00e+00	0	33	0	981467136	46	5749
2026-01-08 13:44:56.24	140.08	28.62	-36.7	-37.5	23.8	0.00e+00	0	33	0	983564288	46	6100
2026-01-08 13:44:57.10	140.29	28.51	-37.4	-38.3	23.3	0.00e+00	0	33	0	984612864	46	6682
2026-01-08 13:44:58.26	140.56	28.37	-37.6	-38.6	23.0	0.00e+00	0	33	0	986710016	48	6125
2026-01-08 13:44:59.12	140.77	28.26	-37.5	-38.5	23.0	0.00e+00	0	33	0	988807168	48	6042
2026-01-08 13:45:00.27	141.04	28.12	-36.6	-37.5	23.8	0.00e+00	0	33	0	990904320	46	6084
2026-01-08 13:45:01.14	141.24	28.01	-36.3	-37.2	23.9	0.00e+00	0	33	0	991952896	46	5865
2026-01-08 13:45:02.29	141.51	27.87	-35.9	-36.7	24.4	0.00e+00	0	33	0	995098624	46	5530
2026-01-08 13:45:03.15	141.71	27.76	-35.1	-35.9	24.9	0.00e+00	0	33	0	996147200	44	5648
2026-01-08 13:45:04.30	141.97	27.62	-35.3	-36.1	24.7	0.00e+00	0	33	0	998244352	44	5797
2026-01-08 13:45:05.17	142.17	27.51	-35.6	-36.3	24.6	0.00e+00	0	33	0	1000341504	44	5952
2026-01-08 13:45:06.32	142.43	27.37	-35.9	-36.7	24.4	0.00e+00	0	33	0	1002438656	44	6243
2026-01-08 13:45:07.19	142.62	27.26	-36.1	-37.0	24.1	0.00e+00	0	33	0	1003487232	44	6410
2026-01-08 13:45:08.34	142.88	27.12	-36.1	-36.9	24.2	0.00e+00	0	33	0	1005584384	44	6380
2026-01-08 13:45:09.21	143.07	27.02	-35.3	-36.1	24.9	0.00e+00	0	33	0	1007681536	44	5795
2026-01-08 13:45:10.36	143.32	26.87	-34.7	-35.5	25.3	0.00e+00	0	33	0	1009778688	42	6040
2026-01-08 13:45:11.22	143.51	26.77	-34.5	-35.2	25.3	0.00e+00	0	33	0	1011875840	42	5883
2026-01-08 13:45:12.38	143.76	26.63	-34.4	-35.1	25.5	0.00e+00	0	33	0	1013972992	42	5825
2026-01-08 13:45:13.24	143.94	26.52	-34.6	-35.3	25.3	0.00e+00	0	33	0	1015021568	42	5948
2026-01-08 13:45:14.39	144.19	26.38	-35.5	-36.3	24.7	0.00e+00	0	33	0	1017118720	42	6677
2026-01-08 13:45:15.26	144.37	26.28	-36.0	-36.8	24.2	0.00e+00	0	33	0	1019215872	44	6314
2026-01-08 13:45:16.41	144.61	26.14	-36.3	-37.2	24.0	0.00e+00	0	33	0	1021313024	44	6598
2026-01-08 13:45:17.28	144.79	26.03	-36.2	-37.0	24.2	0.00e+00	0	33	0	1022361600	44	6460
2026-01-08 13:45:18.43	145.03	25.89	-35.6	-36.4	24.4	0.00e+00	0	33	0	1024458752	44	6028
2026-01-08 13:45:19.30	145.20	25.78	-35.1	-35.9	24.9	0.00e+00	0	33	0	1026555904	44	5673
2026-01-08 13:45:20.45	145.44	25.64	-34.7	-35.4	25.3	0.00e+00	0	33	0	1028653056	42	6025
2026-01-08 13:45:21.31	145.61	25.54	-34.8	-35.6	25.3	0.00e+00	0	33	0	1030750208	42	6112
2026-01-08 13:45:22.46	145.84	25.40	-34.7	-35.4	25.2	0.00e+00	0	33	0	1032847360	42	6030
2026-01-08 13:45:23.33	146.01	25.30	-34.9	-35.6	25.2	0.00e+00	0	33	0	1033895936	42	6152
2026-01-08 13:45:24.48	146.24	25.16	-35.2	-36.0	24.8	0.00e+00	0	33	0	1035993088	42	6420
2026-01-08 13:45:25.34	146.41	25.05	-35.6	-36.4	24.6	0.00e+00	0	33	0	1038090240	42	6715
2026-01-08 13:45:26.50	146.63	24.92	-35.7	-36.5	24.5	0.00e+00	0	33	0	1040187392	42	6786
2026-01-08 13:45:27.36	146.80	24.81	-35.4	-36.2	24.7	0.00e+00	0	33	0	1041235968	42	6577
2026-01-08 13:45:28.52	147.02	24.67	-35.0	-35.8	25.1	0.00e+00	0	33	0	1043333120	42	6279
2026-01-08 13:45:29.38	147.18	24.57	-34.9	-35.6	25.0	0.00e+00	0	33	0	1045430272	42	6148
2026-01-08 13:45:30.53	147.40	24.43	-34.4	-35.1	25.4	0.00e+00	0	33	0	1047527424	42	5814
2026-01-08 13:45:31.39	147.56	24.33	-34.2	-34.9	25.3	0.00e+00	0	33	0	1049624576	42	5639
2026-01-08 13:45:32.55	147.77	24.19	-34.1	-34.9	25.6	0.00e+00	0	33	0	1051721728	42	5632
2026-01-08 13:45:33.41	147.93	24.09	-34.4	-35.1	25.3	0.00e+00	0	33	0	1052770304	42	5784
2026-01-08 13:45:34.56	148.14	23.96	-34.7	-35.4	24.5	0.00e+00	0	33	0	1054867456	42	6032
2026-01-08 13:45:35.43	148.30	23.85	-34.9	-35.7	24.3	0.00e+00	0	33	0	1056964608	42	6176
2026-01-08 13:45:36.58	148.51	23.72	-35.1	-35.8	24.7	0.00e+00	0	33	0	1059061760	42	6309
2026-01-08 13:45:37.45	148.66	23.62	-35.3	-36.1	24.7	0.00e+00	0	33	0	1060110336	42	6467
2026-01-08 13:45:38.60	148.86	23.48	-35.4	-36.2	24.6	0.00e+00	0	33	0	1063256064	42	6553
2026-01-08 13:45:39.47	149.02	23.38	-35.4	-36.2	24.9	0.00e+00	0	33	0	1064304640	42	6568
2026-01-08 13:45:40.62	149.22	23.25	-35.5	-36.3	24.6	0.00e+00	0	33	0	1066401792	42	6671
2026-01-08 13:45:41.48	149.37	23.15	-35.5	-36.3	24.5	0.00e+00	0	33	0	1068498944	42	6652
2026-01-08 13:45:42.64	149.57	23.01	-35.7	-36.5	24.5	0.00e+00	0	33	0	1070596096	44	6103
2026-01-08 13:45:43.50	149.71	22.91	-35.9	-36.7	24.3	0.00e+00	0	33	0	1071644672	44	6226
2026-01-08 13:45:44.66	149.91	22.78	-35.7	-36.5	24.4	0.00e+00	0	33	0	1073741824	44	6088
2026-01-08 13:45:45.52	150.06	22.68	-35.8	-36.6	24.3	0.00e+00	0	33	0	1075838976	44	6144
2026-01-08 13:45:46.68	150.25	22.54	-35.6	-36.4	24.6	0.00e+00	0	33	0	1077936128	44	5995
2026-01-08 13:45:47.54	150.39	22.45	-35.2	-36.0	24.8	0.00e+00	0	33	0	1080033280	44	5715
2026-01-08 13:45:48.70	150.58	22.31	-35.2	-36.0	24.7	0.00e+00	0	33	0	1082130432	44	5730
2026-01-08 13:45:49.56	150.72	22.21	-35.2	-36.0	24.8	0.00e+00	0	33	0	1083179008	44	5718
2026-01-08 13:45:50.72	150.91	22.08	-35.4	-36.1	24.6	0.00e+00	0	33	0	1085276160	44	5816
2026-01-08 13:45:51.58	151.05	21.98	-35.5	-36.3	24.6	0.00e+00	0	33	0	1087373312	44	5936
2026-01-08 13:45:52.74	151.24	21.85	-35.4	-36.2	24.8	0.00e+00	0	33	0	1089470464	44	5858
2026-01-08 13:45:53.60	151.37	21.76	-35.9	-36.7	24.2	0.00e+00	0	33	0	1090519040	44	6197
2026-01-08 13:45:54.75	151.56	21.63	-36.0	-36.8	24.1	0.00e+00	0	33	0	1092616192	44	6283
2026-01-08 13:45:55.62	151.69	21.53	-35.9	-36.8	24.2	0.00e+00	0	33	0	1094713344	44	6255
2026-01-08 13:45:56.77	151.87	21.40	-36.0	-36.8	24.3	0.00e+00	0	33	0	1096810496	44	6313
2026-01-08 13:45:57.63	152.00	21.30	-35.7	-36.5	24.4	0.00e+00	0	33	0	1097859072	44	6060
2026-01-08 13:45:58.79	152.18	21.17	-35.7	-36.5	24.3	0.00e+00	0	33	0	1101004800	44	6070
2026-01-08 13:45:59.65	152.31	21.08	-35.7	-36.4	24.5	0.00e+00	0	33	0	1102053376	44	6021
2026-01-08 13:46:00.81	152.49	20.95	-35.7	-36.5	24.4	0.00e+00	0	33	0	1104150528	44	6048
2026-01-08 13:46:01.68	152.62	20.85	-35.9	-36.7	24.2	0.00e+00	0	33	0	1106247680	44	6234
2026-01-08 13:46:02.83	152.79	20.73	-36.1	-36.9	24.0	0.00e+00	0	33	0	1108344832	44	6355
2026-01-08 13:46:03.69	152.92	20.63	-36.6	-37.5	23.7	0.00e+00	0	33	0	1109393408	44	6809
2026-01-08 13:46:04.84	153.09	20.50	-37.2	-38.1	23.3	0.00e+00	0	33	0	1111490560	46	6480
2026-01-08 13:46:05.71	153.22	20.41	-37.5	-38.4	23.0	0.00e+00	0	33	0	1113587712	46	6730
2026-01-08 13:46:06.86	153.38	20.28	-38.0	-38.9	22.6	0.00e+00	0	33	0	1115684864	48	6382
2026-01-08 13:46:07.73	153.51	20.19	-38.1	-39.2	22.4	0.00e+00	0	33	0	1117782016	48	6551
2026-01-08 13:46:08.88	153.67	20.06	-37.8	-38.8	22.7	0.00e+00	0	33	0	1119879168	48	6302
2026-01-08 13:46:09.75	153.80	19.97	-37.9	-38.9	22.5	0.00e+00	0	33	0	1120927744	48	6380
2026-01-08 13:46:10.90	153.96	19.85	-37.5	-38.5	22.8	0.00e+00	0	32	0	1123024896	48	6066
2026-01-08 13:46:11.77	154.08	19.75	-37.8	-38.8	22.7	0.00e+00	0	33	0	1125122048	48	6249
2026-01-08 13:46:12.92	154.24	19.63	-37.2	-38.1	23.2	0.00e+00	0	33	0	1127219200	48	5782
2026-01-08 13:46:13.79	154.36	19.53	-37.2	-38.1	23.1	0.00e+00	0	33	0	1128267776	48	5828
2026-01-08 13:46:14.94	154.52	19.41	-37.6	-38.5	22.8	0.00e+00	0	33	0	1130364928	48	6101
2026-01-08 13:46:15.80	154.64	19.32	-37.8	-38.8	22.4	0.00e+00	0	33	0	1132462080	48	6281
2026-01-08 13:46:16.96	154.79	19.20	-38.2	-39.2	22.1	0.00e+00	0	33	0	1134559232	48	6610
2026-01-08 13:46:17.82	154.91	19.11	-38.4	-39.5	21.9	0.00e+00	0	33	0	1136656384	48	6814
2026-01-08 13:46:18.98	155.06	18.98	-38.7	-39.9	21.5	0.00e+00	0	33	0	1138753536	50	6324
2026-01-08 13:46:19.85	155.18	18.89	-39.0	-40.1	21.3	0.00e+00	0	33	0	1139802112	50	6523
2026-01-08 13:46:21.00	155.33	18.77	-39.1	-40.3	21.0	0.00e+00	0	33	0	1141899264	50	6635
2026-01-08 13:46:21.86	155.44	18.68	-39.1	-40.3	21.1	0.00e+00	0	33	0	1143996416	50	6626
2026-01-08 13:46:23.02	155.59	18.56	-38.9	-40.1	21.1	0.00e+00	0	33	0	1146093568	50	6515
2026-01-08 13:46:23.88	155.71	18.47	-38.9	-40.1	21.1	0.00e+00	0	33	0	1147142144	50	6465
2026-01-08 13:46:25.04	155.85	18.35	-38.7	-39.9	21.3	0.00e+00	0	33	0	1149239296	50	6355
2026-01-08 13:46:25.90	155.96	18.26	-38.0	-39.1	22.1	0.00e+00	0	33	0	1151336448	50	5774
2026-01-08 13:46:27.06	156.11	18.14	-37.6	-38.6	22.5	0.00e+00	0	33	0	1153433600	48	6131
2026-01-08 13:46:27.92	156.22	18.05	-37.4	-38.3	22.9	0.00e+00	0	33	0	1155530752	48	5945
2026-01-08 13:46:29.07	156.36	17.94	-37.2	-38.2	23.0	0.00e+00	0	33	0	1157627904	48	5837
2026-01-08 13:46:29.94	156.47	17.85	-37.4	-38.4	22.8	0.00e+00	0	33	0	1158676480	48	5974
2026-01-08 13:46:31.09	156.61	17.73	-37.2	-38.2	23.1	0.00e+00	0	33	0	1160773632	48	5829
2026-01-08 13:46:31.96	156.72	17.64	-37.3	-38.2	23.1	0.00e+00	0	33	0	1162870784	48	5891
2026-01-08 13:46:33.11	156.86	17.52	-37.2	-38.1	23.1	0.00e+00	0	33	0	1164967936	48	5805
2026-01-08 13:46:33.98	156.96	17.44	-37.1	-38.1	23.2	0.00e+00	0	33	0	1166016512	48	5770
2026-01-08 13:46:35.13	157.10	17.32	-37.4	-38.3	23.0	0.00e+00	0	33	0	1169162240	48	5954
2026-01-08 13:46:35.99	157.21	17.23	-37.3	-38.2	23.0	0.00e+00	0	33	0	1170210816	48	5887
2026-01-08 13:46:37.15	157.34	17.12	-37.5	-38.5	22.8	0.00e+00	0	33	0	1172307968	48	6051
2026-01-08 13:46:38.01	157.44	17.03	-37.5	-38.4	22.9	0.00e+00	0	33	0	1174405120	48	6027
2026-01-08 13:46:39.16	157.58	16.92	-37.2	-38.1	23.1	0.00e+00	0	33	0	1176502272	48	5828
2026-01-08 13:46:40.03	157.68	16.83	-37.1	-38.0	23.2	0.00e+00	0	33	0	1177550848	48	5747
2026-01-08 13:46:41.18	157.81	16.72	-36.7	-37.5	23.7	0.00e+00	0	33	0	1179648000	48	5434
2026-01-08 13:46:42.05	157.91	16.63	-36.6	-37.5	23.7	0.00e+00	0	33	0	1181745152	46	6064
2026-01-08 13:46:43.20	158.04	16.52	-36.7	-37.6	23.5	0.00e+00	0	33	0	1183842304	46	6168
2026-01-08 13:46:44.07	158.14	16.43	-36.3	-37.2	23.8	0.00e+00	0	33	0	1185939456	46	5829
2026-01-08 13:46:45.22	158.27	16.32	-36.6	-37.5	23.6	0.00e+00	0	33	0	1188036608	46	6065
2026-01-08 13:46:46.09	158.37	16.24	-36.8	-37.7	23.4	0.00e+00	0	33	0	1189085184	46	6174
2026-01-08 13:46:47.24	158.50	16.12	-36.5	-37.4	23.7	0.00e+00	0	33	0	1191182336	46	5965
2026-01-08 13:46:48.10	158.59	16.04	-36.8	-37.7	23.4	0.00e+00	0	33	0	1193279488	46	6228
2026-01-08 13:46:49.26	158.72	15.93	-36.8	-37.6	23.5	0.00e+00	0	33	0	1195376640	46	6173
2026-01-08 13:46:50.13	158.82	15.84	-37.0	-37.9	23.3	0.00e+00	0	33	0	1196425216	46	6372
2026-01-08 13:46:51.28	158.94	15.73	-37.5	-38.4	22.9	0.00e+00	0	33	0	1198522368	46	6732
2026-01-08 13:46:52.14	159.03	15.65	-37.4	-38.3	23.0	0.00e+00	0	33	0	1200619520	46	6667
2026-01-08 13:46:53.29	159.16	15.54	-37.7	-38.7	22.7	0.00e+00	0	33	0	1202716672	46	6971
2026-01-08 13:46:54.16	159.25	15.46	-37.9	-38.9	22.5	0.00e+00	0	33	0	1204813824	48	6320
2026-01-08 13:46:55.32	159.37	15.35	-37.7	-38.7	22.7	0.00e+00	0	33	0	1206910976	48	6191
2026-01-08 13:46:56.18	159.46	15.27	-38.1	-39.1	22.4	0.00e+00	0	33	0	1207959552	48	6495
2026-01-08 13:46:57.33	159.58	15.16	-37.8	-38.8	22.5	0.00e+00	0	33	0	1210056704	48	6288
2026-01-08 13:46:58.20	159.67	15.08	-37.8	-38.8	22.6	0.00e+00	0	33	0	1212153856	48	6269
2026-01-08 13:46:59.35	159.79	14.97	-38.0	-38.9	22.5	0.00e+00	0	33	0	1214251008	48	6389
2026-01-08 13:47:00.22	159.88	14.89	-37.5	-38.5	22.8	0.00e+00	0	33	0	1215299584	48	6046
