passes_logs/2026/01/08/R4.6S_Anadyr/R4.6S_Anadyr__20260108_235129_NOAA_20_JPSS-1_rec.log

#Pass ID: 20260108_235129_NOAA 20 (JPSS-1)
#Satellite: NOAA 20 (JPSS-1)
#Configuration: NOAA 20
#almurnet v.1.7.20251203
#Start time: 2026-01-08 23:51:30

#Version: 2.2.20231116
#Station: R4.6S_Anadyr
#Location: 177.4865 lon 64.73178 lat
#TLE: 1 43013U 17073A   26008.28148939  .00000118  00000+0  77102-4 0  9999
#TLE: 2 43013  98.7631 309.2920 0001742  49.0100 311.1227 14.19534407421787

#Time	Az	El	Level	Level2	SNR	BER	BlckErr	Temp	State	Recorded	gain1	gain2
2026-01-08 23:51:30.47	147.37	0.08	-48.3	-63.2	3.5	1.51e+00	0	31	0	0	60	52149
2026-01-08 23:51:31.47	147.36	0.14	-48.3	-63.5	3.6	1.51e+00	0	32	104	0	60	54188
2026-01-08 23:51:32.49	147.35	0.20	-48.3	-63.5	3.6	1.51e+00	0	32	104	0	60	54140
2026-01-08 23:51:33.50	147.35	0.26	-48.3	-63.6	3.6	1.51e+00	0	32	104	0	60	54581
2026-01-08 23:51:34.51	147.34	0.33	-48.3	-63.5	3.6	1.51e+00	0	32	104	0	60	54227
2026-01-08 23:51:35.52	147.33	0.39	-48.4	-63.6	3.6	1.51e+00	0	32	104	0	60	54752
2026-01-08 23:51:36.53	147.32	0.45	-48.5	-63.6	3.6	1.51e+00	0	32	104	0	60	54914
2026-01-08 23:51:37.53	147.32	0.51	-48.4	-63.6	3.6	1.51e+00	0	32	104	0	60	54854
2026-01-08 23:51:38.54	147.31	0.57	-48.4	-63.6	3.6	1.51e+00	0	32	104	0	60	54921
2026-01-08 23:51:39.55	147.30	0.63	-48.3	-63.5	3.6	1.51e+00	0	32	104	0	60	54129
2026-01-08 23:51:40.56	147.30	0.69	-48.2	-63.4	3.6	1.51e+00	0	32	104	0	60	53521
2026-01-08 23:51:41.57	147.29	0.76	-48.0	-63.3	3.5	1.51e+00	0	32	104	0	60	52792
2026-01-08 23:51:42.59	147.28	0.82	-47.9	-63.1	3.6	1.51e+00	0	32	104	0	60	51594
2026-01-08 23:51:43.60	147.27	0.88	-47.8	-62.9	3.6	1.51e+00	0	32	104	0	60	50511
2026-01-08 23:51:44.60	147.27	0.94	-47.6	-62.8	3.6	1.51e+00	0	32	104	0	60	49659
2026-01-08 23:51:45.61	147.26	1.01	-47.3	-62.4	3.6	1.51e+00	0	32	104	0	60	47901
2026-01-08 23:51:46.62	147.25	1.07	-46.6	-61.8	3.6	1.51e+00	0	32	104	0	60	44221
2026-01-08 23:51:47.63	147.25	1.13	-46.4	-61.6	3.6	1.51e+00	0	33	104	0	60	43529
2026-01-08 23:51:48.64	147.24	1.19	-46.4	-61.6	3.6	1.51e+00	0	32	104	0	60	43533
2026-01-08 23:51:49.65	147.23	1.26	-46.4	-61.6	3.6	1.51e+00	0	33	104	0	60	43357
2026-01-08 23:51:50.66	147.22	1.32	-46.4	-61.6	3.6	1.51e+00	0	33	104	0	60	43487
2026-01-08 23:51:51.67	147.22	1.38	-46.4	-61.5	3.6	1.51e+00	0	32	104	0	60	43075
2026-01-08 23:51:52.68	147.21	1.45	-46.4	-61.5	3.6	1.51e+00	0	33	104	0	60	42920
2026-01-08 23:51:53.69	147.20	1.51	-46.4	-61.4	3.6	1.51e+00	0	33	104	0	60	42534
2026-01-08 23:51:54.70	147.19	1.58	-46.4	-61.4	3.6	1.51e+00	0	33	104	0	60	42707
2026-01-08 23:51:55.71	147.18	1.64	-46.4	-61.4	3.6	1.51e+00	0	33	104	0	60	42355
2026-01-08 23:51:56.72	147.18	1.70	-46.4	-61.4	3.6	1.51e+00	0	33	104	0	60	42265
2026-01-08 23:51:57.73	147.17	1.77	-46.4	-61.3	3.6	1.51e+00	0	33	104	0	60	42161
2026-01-08 23:51:58.74	147.16	1.83	-46.4	-61.4	3.6	1.51e+00	0	33	104	0	60	42268
2026-01-08 23:51:59.75	147.15	1.90	-46.4	-61.4	3.6	1.51e+00	0	32	104	0	60	42243
2026-01-08 23:52:00.76	147.15	1.96	-46.4	-61.4	3.6	1.51e+00	0	33	104	0	60	42461
2026-01-08 23:52:01.77	147.14	2.03	-46.4	-61.4	3.6	1.51e+00	0	33	104	0	60	42675
2026-01-08 23:52:02.78	147.13	2.09	-46.4	-61.4	3.6	1.51e+00	0	33	104	0	60	42495
2026-01-08 23:52:03.79	147.12	2.16	-46.4	-61.4	3.6	1.51e+00	0	33	104	0	60	42698
2026-01-08 23:52:04.80	147.11	2.22	-46.4	-61.5	3.6	1.51e+00	0	33	104	0	60	42767
2026-01-08 23:52:05.81	147.10	2.29	-46.4	-61.5	3.6	1.51e+00	0	33	104	0	60	42834
2026-01-08 23:52:06.82	147.10	2.35	-46.4	-61.5	3.6	1.51e+00	0	33	104	0	60	42882
2026-01-08 23:52:07.83	147.09	2.42	-46.4	-61.5	3.6	1.51e+00	0	33	104	0	60	43145
2026-01-08 23:52:08.84	147.08	2.48	-46.4	-61.5	3.6	1.51e+00	0	33	104	0	60	42753
2026-01-08 23:52:09.85	147.07	2.55	-46.4	-61.5	3.6	1.51e+00	0	33	104	0	60	42938
2026-01-08 23:52:10.86	147.06	2.62	-46.4	-61.5	3.6	1.51e+00	0	33	104	0	60	42929
2026-01-08 23:52:11.87	147.05	2.68	-46.4	-61.5	3.6	1.51e+00	0	33	104	0	60	43086
2026-01-08 23:52:12.88	147.05	2.75	-46.4	-61.6	3.5	1.51e+00	0	33	104	0	60	43226
2026-01-08 23:52:13.89	147.04	2.82	-46.4	-61.6	3.6	1.51e+00	0	33	104	0	60	43540
2026-01-08 23:52:14.90	147.03	2.88	-46.4	-61.5	3.6	1.51e+00	0	33	104	0	60	43074
2026-01-08 23:52:15.91	147.02	2.95	-46.4	-61.2	3.6	1.51e+00	0	33	104	0	60	41449
2026-01-08 23:52:16.91	147.01	3.02	-46.4	-60.3	3.6	1.51e+00	0	33	104	0	60	37606
2026-01-08 23:52:17.92	147.00	3.08	-46.3	-58.6	3.9	1.49e+00	0	33	104	0	60	30595
2026-01-08 23:52:18.93	146.99	3.15	-46.1	-55.5	4.5	1.14e+00	90	33	0	0	60	21446
2026-01-08 23:52:19.94	146.98	3.22	-45.9	-53.7	5.9	5.44e-01	37	33	0	2097152	60	17582
2026-01-08 23:52:20.95	146.98	3.29	-45.5	-52.1	7.8	1.18e-01	90	33	0	4194304	60	14607
2026-01-08 23:52:21.96	146.97	3.35	-45.1	-50.7	9.5	3.07e-02	90	33	0	6291456	60	12341
2026-01-08 23:52:22.97	146.96	3.42	-44.7	-49.4	11.0	6.77e-03	92	33	0	8388608	60	10613
2026-01-08 23:52:23.98	146.95	3.49	-44.2	-48.2	12.3	3.29e-04	92	33	0	9437184	60	9280
2026-01-08 23:52:24.99	146.94	3.56	-43.8	-47.3	13.2	8.85e-05	61	33	0	11534336	60	8416
2026-01-08 23:52:26.00	146.93	3.63	-43.5	-46.9	13.7	1.06e-05	92	33	0	13631488	60	7955
2026-01-08 23:52:27.01	146.92	3.70	-43.3	-46.4	14.1	3.00e-06	0	33	0	15728640	60	7555
2026-01-08 23:52:28.02	146.91	3.76	-43.2	-46.2	14.3	1.50e-06	91	33	0	17825792	60	7399
2026-01-08 23:52:29.03	146.90	3.83	-46.6	-61.0	3.6	1.07e+00	0	33	104	18874368	60	40550
2026-01-08 23:52:30.04	146.89	3.90	-41.0	-42.9	17.2	1.33e+00	91	33	104	18874368	56	6318
2026-01-08 23:52:31.05	146.88	3.97	-46.2	-61.2	3.6	7.71e-01	0	33	104	18874368	60	41574
2026-01-08 23:52:32.05	146.87	4.04	-46.0	-53.3	8.1	4.92e-02	90	33	0	18874368	60	16688
2026-01-08 23:52:33.06	146.86	4.11	-45.7	-53.3	6.7	1.50e-06	91	33	0	20971520	60	16787
2026-01-08 23:52:34.07	146.85	4.18	-41.9	-44.0	16.6	0.00e+00	19	33	0	22020096	58	6445
2026-01-08 23:52:35.08	146.84	4.25	-41.3	-43.2	17.7	0.00e+00	92	33	0	24117248	56	6599
2026-01-08 23:52:36.09	146.83	4.32	-41.0	-42.7	18.2	0.00e+00	92	33	0	26214400	56	6235
2026-01-08 23:52:37.10	146.82	4.39	-40.5	-42.1	18.8	0.00e+00	92	33	0	28311552	54	6483
2026-01-08 23:52:38.10	146.81	4.46	-40.5	-42.1	18.7	0.00e+00	92	33	0	30408704	54	6508
2026-01-08 23:52:39.11	146.80	4.53	-40.5	-42.1	18.8	0.00e+00	92	33	0	31457280	54	6524
2026-01-08 23:52:40.12	146.79	4.60	-40.3	-41.9	19.1	0.00e+00	92	33	0	33554432	54	6332
2026-01-08 23:52:41.13	146.78	4.68	-40.4	-42.0	18.8	0.00e+00	54	33	0	35651584	54	6460
2026-01-08 23:52:42.14	146.77	4.75	-40.2	-41.7	19.2	0.00e+00	92	33	0	37748736	54	6229
2026-01-08 23:52:43.15	146.76	4.82	-40.0	-41.5	19.4	0.00e+00	0	33	0	39845888	54	6083
2026-01-08 23:52:44.16	146.75	4.89	-40.1	-41.6	19.4	0.00e+00	90	33	0	40894464	54	6106
2026-01-08 23:52:45.17	146.74	4.96	-39.9	-41.3	19.7	0.00e+00	91	33	0	42991616	54	5931
2026-01-08 23:52:46.18	146.73	5.04	-39.8	-41.3	19.7	0.00e+00	90	33	0	45088768	54	5910
2026-01-08 23:52:47.19	146.72	5.11	-39.7	-41.1	19.9	0.00e+00	92	33	0	47185920	52	6539
2026-01-08 23:52:48.20	146.71	5.18	-39.9	-41.4	19.8	0.00e+00	91	33	0	49283072	52	6695
2026-01-08 23:52:49.21	146.70	5.25	-39.7	-41.1	20.0	0.00e+00	91	33	0	50331648	52	6519
2026-01-08 23:52:50.22	146.69	5.33	-39.7	-41.1	19.9	0.00e+00	0	33	0	52428800	52	6533
2026-01-08 23:52:51.23	146.68	5.40	-39.7	-41.1	20.0	0.00e+00	90	33	0	54525952	52	6531
2026-01-08 23:52:52.24	146.67	5.47	-39.8	-41.1	20.0	0.00e+00	92	33	0	56623104	52	6527
2026-01-08 23:52:53.25	146.65	5.55	-39.5	-40.8	20.3	0.00e+00	92	33	0	58720256	52	6284
2026-01-08 23:52:54.26	146.64	5.62	-39.5	-40.8	20.3	0.00e+00	92	33	0	59768832	52	6305
2026-01-08 23:52:55.27	146.63	5.69	-39.5	-40.9	20.3	0.00e+00	92	33	0	61865984	52	6331
2026-01-08 23:52:56.28	146.62	5.77	-39.5	-40.8	20.3	0.00e+00	92	33	0	63963136	52	6314
2026-01-08 23:52:57.29	146.61	5.84	-39.5	-40.8	20.3	0.00e+00	0	33	0	66060288	52	6289
2026-01-08 23:52:58.30	146.60	5.92	-39.5	-40.8	20.4	0.00e+00	92	33	0	68157440	52	6307
2026-01-08 23:52:59.31	146.59	5.99	-39.4	-40.7	20.5	0.00e+00	48	33	0	69206016	52	6201
2026-01-08 23:53:00.32	146.58	6.07	-39.4	-40.7	20.4	0.00e+00	92	33	0	71303168	52	6207
2026-01-08 23:53:01.32	146.56	6.14	-39.3	-40.6	20.7	0.00e+00	92	33	0	73400320	52	6111
2026-01-08 23:53:02.33	146.55	6.22	-39.4	-40.8	20.5	0.00e+00	92	33	0	75497472	52	6266
2026-01-08 23:53:03.34	146.54	6.29	-39.3	-40.6	20.7	0.00e+00	92	33	0	77594624	52	6126
2026-01-08 23:53:04.35	146.53	6.37	-39.3	-40.7	20.6	0.00e+00	92	33	0	78643200	52	6193
2026-01-08 23:53:05.36	146.52	6.45	-39.3	-40.6	20.7	0.00e+00	92	33	0	80740352	52	6127
2026-01-08 23:53:06.37	146.50	6.52	-39.4	-40.7	20.5	0.00e+00	0	33	0	82837504	52	6213
2026-01-08 23:53:07.38	146.49	6.60	-39.5	-40.8	20.5	0.00e+00	92	33	0	84934656	52	6287
2026-01-08 23:53:08.39	146.48	6.68	-39.2	-40.5	20.8	0.00e+00	92	33	0	87031808	52	6095
2026-01-08 23:53:09.40	146.47	6.75	-39.1	-40.4	20.9	0.00e+00	90	33	0	89128960	52	5981
2026-01-08 23:53:10.41	146.46	6.83	-39.2	-40.5	20.8	0.00e+00	90	33	0	90177536	52	6040
2026-01-08 23:53:11.41	146.44	6.91	-39.0	-40.3	21.0	0.00e+00	92	33	0	92274688	52	5919
2026-01-08 23:53:12.42	146.43	6.99	-39.2	-40.4	21.0	0.00e+00	92	33	0	94371840	52	5987
2026-01-08 23:53:13.43	146.42	7.06	-39.2	-40.4	21.0	0.00e+00	0	33	0	96468992	52	5982
2026-01-08 23:53:14.44	146.41	7.14	-39.2	-40.4	20.9	0.00e+00	90	33	0	98566144	52	6003
2026-01-08 23:53:15.45	146.39	7.22	-39.0	-40.1	21.1	0.00e+00	92	33	0	99614720	52	5828
2026-01-08 23:53:16.46	146.38	7.30	-38.8	-40.0	21.3	0.00e+00	92	33	0	101711872	52	5732
2026-01-08 23:53:17.47	146.37	7.38	-38.9	-40.1	21.2	0.00e+00	92	33	0	103809024	52	5785
2026-01-08 23:53:18.48	146.35	7.46	-38.9	-40.1	21.3	0.00e+00	92	33	0	105906176	52	5766
2026-01-08 23:53:19.49	146.34	7.54	-38.8	-40.0	21.3	0.00e+00	92	33	0	108003328	52	5721
2026-01-08 23:53:20.50	146.33	7.62	-38.8	-40.0	21.4	0.00e+00	48	33	0	109051904	52	5696
2026-01-08 23:53:21.51	146.32	7.70	-38.7	-39.9	21.5	0.00e+00	92	33	0	111149056	50	6323
2026-01-08 23:53:22.52	146.30	7.78	-38.8	-40.0	21.4	0.00e+00	2	33	0	113246208	50	6409
2026-01-08 23:53:23.52	146.29	7.86	-38.7	-39.8	21.5	0.00e+00	90	33	0	115343360	50	6256
2026-01-08 23:53:24.53	146.27	7.94	-38.8	-39.9	21.5	0.00e+00	92	33	0	117440512	50	6350
2026-01-08 23:53:25.54	146.26	8.02	-38.8	-39.9	21.5	0.00e+00	92	33	0	118489088	50	6372
2026-01-08 23:53:26.55	146.25	8.10	-38.9	-40.1	21.4	0.00e+00	92	33	0	120586240	50	6481
2026-01-08 23:53:27.56	146.23	8.18	-38.6	-39.7	21.6	0.00e+00	92	33	0	122683392	50	6243
2026-01-08 23:53:28.57	146.22	8.26	-38.8	-39.9	21.4	0.00e+00	92	33	0	124780544	50	6379
2026-01-08 23:53:29.58	146.21	8.35	-38.8	-40.0	21.4	0.00e+00	44	33	0	126877696	50	6398
2026-01-08 23:53:30.59	146.19	8.43	-38.7	-39.8	21.6	0.00e+00	92	33	0	127926272	50	6302
2026-01-08 23:53:31.60	146.18	8.51	-38.5	-39.6	21.7	0.00e+00	92	33	0	130023424	50	6125
2026-01-08 23:53:32.61	146.16	8.59	-38.4	-39.5	21.9	0.00e+00	92	33	0	132120576	50	6043
2026-01-08 23:53:33.62	146.15	8.68	-38.5	-39.6	21.8	0.00e+00	90	33	0	134217728	50	6117
2026-01-08 23:53:34.63	146.13	8.76	-38.5	-39.5	21.9	0.00e+00	92	33	0	136314880	50	6087
2026-01-08 23:53:35.64	146.12	8.84	-38.4	-39.4	22.0	0.00e+00	92	33	0	137363456	50	6022
2026-01-08 23:53:36.64	146.11	8.93	-38.3	-39.3	22.2	0.00e+00	5	33	0	139460608	50	5934
2026-01-08 23:53:37.65	146.09	9.01	-38.2	-39.3	22.1	0.00e+00	91	33	0	141557760	50	5907
2026-01-08 23:53:38.66	146.08	9.10	-38.3	-39.3	22.1	0.00e+00	91	33	0	143654912	50	5959
2026-01-08 23:53:39.67	146.06	9.18	-38.4	-39.4	21.9	0.00e+00	91	33	0	145752064	50	6026
2026-01-08 23:53:40.68	146.05	9.27	-38.3	-39.4	22.0	0.00e+00	92	33	0	146800640	50	5968
2026-01-08 23:53:41.69	146.03	9.35	-38.3	-39.3	22.1	0.00e+00	92	33	0	148897792	50	5962
2026-01-08 23:53:42.70	146.01	9.44	-38.2	-39.3	22.2	0.00e+00	91	33	0	150994944	50	5911
2026-01-08 23:53:43.71	146.00	9.52	-38.3	-39.4	22.0	0.00e+00	57	33	0	153092096	50	6000
2026-01-08 23:53:44.72	145.98	9.61	-38.3	-39.4	22.0	0.00e+00	92	33	0	155189248	50	5982
2026-01-08 23:53:45.72	145.97	9.69	-38.4	-39.4	22.1	0.00e+00	52	33	0	156237824	50	6016
2026-01-08 23:53:46.73	145.95	9.78	-38.2	-39.3	22.2	0.00e+00	92	33	0	158334976	50	5903
2026-01-08 23:53:47.74	145.94	9.87	-38.2	-39.2	22.3	0.00e+00	92	33	0	160432128	50	5879
2026-01-08 23:53:48.75	145.92	9.96	-38.1	-39.1	22.3	0.00e+00	92	33	0	162529280	50	5784
2026-01-08 23:53:49.76	145.90	10.04	-38.1	-39.2	22.3	0.00e+00	92	33	0	164626432	50	5829
2026-01-08 23:53:50.77	145.89	10.13	-37.9	-38.9	22.5	0.00e+00	92	33	0	165675008	50	5678
2026-01-08 23:53:51.78	145.87	10.22	-37.8	-38.8	22.6	0.00e+00	90	33	0	167772160	50	5623
2026-01-08 23:53:52.79	145.86	10.31	-37.9	-38.9	22.6	0.00e+00	61	33	0	169869312	50	5680
2026-01-08 23:53:53.80	145.84	10.40	-37.6	-38.6	22.8	0.00e+00	91	33	0	171966464	48	6133
2026-01-08 23:53:54.81	145.82	10.49	-37.8	-38.8	22.7	0.00e+00	92	33	0	174063616	48	6248
2026-01-08 23:53:55.82	145.81	10.58	-37.6	-38.6	22.8	0.00e+00	92	33	0	175112192	48	6137
2026-01-08 23:53:56.83	145.79	10.67	-37.6	-38.6	22.8	0.00e+00	92	33	0	177209344	48	6136
2026-01-08 23:53:57.84	145.77	10.76	-37.6	-38.5	22.9	0.00e+00	16	33	0	179306496	48	6097
2026-01-08 23:53:58.84	145.75	10.85	-37.6	-38.6	22.9	0.00e+00	92	33	0	181403648	48	6110
2026-01-08 23:53:59.85	145.74	10.94	-37.6	-38.6	22.9	0.00e+00	0	33	0	183500800	48	6137
2026-01-08 23:54:00.86	145.72	11.03	-37.5	-38.5	22.9	0.00e+00	92	33	0	185597952	48	6051
2026-01-08 23:54:01.87	145.70	11.12	-37.5	-38.5	22.9	0.00e+00	92	33	0	186646528	48	6074
2026-01-08 23:54:02.88	145.68	11.21	-37.6	-38.6	22.9	0.00e+00	90	33	0	188743680	48	6144
2026-01-08 23:54:03.89	145.67	11.31	-37.5	-38.5	22.9	0.00e+00	92	33	0	190840832	48	6063
2026-01-08 23:54:04.90	145.65	11.40	-37.6	-38.5	22.9	0.00e+00	92	33	0	192937984	48	6091
2026-01-08 23:54:05.91	145.63	11.49	-37.4	-38.4	23.0	0.00e+00	92	33	0	195035136	48	5971
2026-01-08 23:54:06.92	145.61	11.59	-37.4	-38.4	23.0	0.00e+00	58	33	0	196083712	48	5981
2026-01-08 23:54:07.92	145.59	11.68	-37.4	-38.3	23.0	0.00e+00	92	33	0	198180864	48	5958
2026-01-08 23:54:08.93	145.58	11.77	-37.3	-38.3	23.1	0.00e+00	92	33	0	200278016	48	5903
2026-01-08 23:54:09.94	145.56	11.87	-37.2	-38.2	23.2	0.00e+00	90	33	0	202375168	48	5847
2026-01-08 23:54:10.95	145.54	11.96	-37.4	-38.3	23.2	0.00e+00	92	33	0	204472320	48	5928
2026-01-08 23:54:11.95	145.52	12.06	-37.2	-38.1	23.3	0.00e+00	92	33	0	205520896	48	5808
2026-01-08 23:54:12.96	145.50	12.15	-37.1	-38.0	23.4	0.00e+00	92	33	0	207618048	48	5721
2026-01-08 23:54:13.97	145.48	12.25	-37.0	-37.9	23.5	0.00e+00	92	33	0	209715200	48	5667
2026-01-08 23:54:14.98	145.46	12.34	-37.1	-38.0	23.4	0.00e+00	90	33	0	211812352	48	5705
2026-01-08 23:54:15.98	145.44	12.44	-37.0	-37.9	23.5	0.00e+00	44	33	0	213909504	48	5674
2026-01-08 23:54:16.99	145.42	12.54	-36.9	-37.8	23.6	0.00e+00	92	33	0	214958080	48	5576
2026-01-08 23:54:18.00	145.40	12.63	-37.0	-37.9	23.5	0.00e+00	92	33	0	217055232	48	5642
2026-01-08 23:54:19.01	145.38	12.73	-37.1	-38.0	23.5	0.00e+00	92	33	0	219152384	48	5717
2026-01-08 23:54:20.02	145.36	12.83	-36.9	-37.8	23.6	0.00e+00	90	33	0	221249536	48	5590
2026-01-08 23:54:21.03	145.34	12.93	-36.9	-37.8	23.6	0.00e+00	92	33	0	223346688	48	5620
2026-01-08 23:54:22.04	145.32	13.03	-37.0	-37.9	23.5	0.00e+00	90	33	0	224395264	48	5648
2026-01-08 23:54:23.05	145.30	13.13	-37.0	-37.9	23.6	0.00e+00	7	33	0	226492416	48	5643
2026-01-08 23:54:24.06	145.28	13.23	-36.9	-37.8	23.6	0.00e+00	92	33	0	228589568	48	5580
2026-01-08 23:54:25.07	145.26	13.33	-36.9	-37.8	23.6	0.00e+00	92	33	0	230686720	48	5576
2026-01-08 23:54:26.08	145.24	13.43	-36.8	-37.7	23.7	0.00e+00	90	33	0	232783872	48	5512
2026-01-08 23:54:27.08	145.22	13.53	-36.8	-37.7	23.8	0.00e+00	92	33	0	233832448	48	5524
2026-01-08 23:54:28.09	145.20	13.63	-36.8	-37.7	23.8	0.00e+00	52	33	0	235929600	46	6190
2026-01-08 23:54:29.11	145.17	13.73	-36.8	-37.6	23.8	0.00e+00	92	33	0	238026752	46	6166
2026-01-08 23:54:30.12	145.15	13.84	-36.6	-37.4	24.0	0.00e+00	53	33	0	240123904	46	6022
2026-01-08 23:54:31.12	145.13	13.94	-36.5	-37.4	24.0	0.00e+00	92	33	0	242221056	46	6003
2026-01-08 23:54:32.13	145.11	14.04	-36.5	-37.4	24.0	0.00e+00	48	33	0	243269632	46	6000
2026-01-08 23:54:33.14	145.09	14.14	-36.5	-37.4	24.1	0.00e+00	92	33	0	245366784	46	5995
2026-01-08 23:54:34.15	145.06	14.25	-36.6	-37.5	24.0	0.00e+00	90	33	0	247463936	46	6062
2026-01-08 23:54:35.16	145.04	14.35	-36.4	-37.3	24.3	0.00e+00	59	33	0	249561088	46	5907
2026-01-08 23:54:36.16	145.02	14.46	-36.4	-37.2	24.2	0.00e+00	91	33	0	251658240	46	5860
2026-01-08 23:54:37.17	145.00	14.56	-36.4	-37.2	24.2	0.00e+00	20	33	0	252706816	46	5878
2026-01-08 23:54:38.18	144.97	14.67	-36.4	-37.2	24.2	0.00e+00	92	33	0	254803968	46	5892
2026-01-08 23:54:39.19	144.95	14.77	-36.4	-37.2	24.3	0.00e+00	24	33	0	256901120	46	5891
2026-01-08 23:54:40.20	144.93	14.88	-36.4	-37.2	24.3	0.00e+00	92	33	0	258998272	46	5878
2026-01-08 23:54:41.21	144.90	14.99	-36.3	-37.1	24.3	0.00e+00	91	33	0	261095424	46	5820
2026-01-08 23:54:42.22	144.88	15.10	-36.2	-37.1	24.3	0.00e+00	92	33	0	262144000	46	5784
2026-01-08 23:54:43.22	144.85	15.20	-36.2	-37.1	24.4	0.00e+00	92	33	0	264241152	46	5782
2026-01-08 23:54:44.23	144.83	15.31	-36.2	-37.1	24.4	0.00e+00	0	33	0	266338304	46	5772
2026-01-08 23:54:45.24	144.80	15.42	-36.1	-37.0	24.5	0.00e+00	92	33	0	268435456	46	5708
2026-01-08 23:54:46.25	144.78	15.53	-36.2	-37.1	24.4	0.00e+00	2	33	0	270532608	46	5762
2026-01-08 23:54:47.26	144.75	15.64	-36.1	-36.9	24.5	0.00e+00	92	33	0	271581184	46	5668
2026-01-08 23:54:48.27	144.73	15.75	-36.2	-37.0	24.5	0.00e+00	79	33	0	273678336	46	5722
2026-01-08 23:54:49.28	144.70	15.86	-36.0	-36.9	24.6	0.00e+00	92	33	0	275775488	46	5634
2026-01-08 23:54:50.28	144.68	15.97	-36.1	-36.9	24.6	0.00e+00	92	33	0	277872640	46	5648
2026-01-08 23:54:51.29	144.65	16.08	-36.1	-36.9	24.5	0.00e+00	0	33	0	279969792	46	5690
2026-01-08 23:54:52.30	144.63	16.20	-36.0	-36.8	24.6	0.00e+00	92	33	0	282066944	46	5576
2026-01-08 23:54:53.31	144.60	16.31	-35.9	-36.7	24.7	0.00e+00	54	33	0	283115520	46	5563
2026-01-08 23:54:54.32	144.57	16.42	-36.0	-36.8	24.7	0.00e+00	92	33	0	285212672	46	5596
2026-01-08 23:54:55.32	144.55	16.54	-36.0	-36.8	24.7	0.00e+00	0	33	0	287309824	46	5589
2026-01-08 23:54:56.33	144.52	16.65	-36.0	-36.8	24.6	0.00e+00	92	33	0	289406976	46	5622
2026-01-08 23:54:57.34	144.49	16.77	-35.9	-36.8	24.7	0.00e+00	92	33	0	291504128	46	5574
2026-01-08 23:54:58.35	144.47	16.88	-35.9	-36.7	24.7	0.00e+00	92	33	0	292552704	46	5522
2026-01-08 23:54:59.35	144.44	17.00	-35.9	-36.8	24.7	0.00e+00	91	33	0	294649856	46	5576
2026-01-08 23:55:00.36	144.41	17.11	-35.9	-36.7	24.9	0.00e+00	52	33	0	296747008	46	5525
2026-01-08 23:55:01.37	144.38	17.23	-35.9	-36.7	24.8	0.00e+00	90	33	0	298844160	46	5539
2026-01-08 23:55:02.38	144.35	17.35	-35.7	-36.5	24.9	0.00e+00	35	33	0	300941312	44	6096
2026-01-08 23:55:03.39	144.33	17.47	-35.6	-36.4	24.9	0.00e+00	91	33	0	301989888	44	6028
2026-01-08 23:55:04.40	144.30	17.59	-35.6	-36.4	25.0	0.00e+00	92	33	0	304087040	44	6018
2026-01-08 23:55:05.41	144.27	17.71	-35.7	-36.5	24.9	0.00e+00	92	33	0	306184192	44	6034
2026-01-08 23:55:06.42	144.24	17.83	-35.7	-36.5	24.9	0.00e+00	92	33	0	308281344	44	6041
2026-01-08 23:55:07.43	144.21	17.95	-35.6	-36.4	25.1	0.00e+00	12	33	0	310378496	44	5986
2026-01-08 23:55:08.44	144.18	18.07	-35.7	-36.5	24.9	0.00e+00	91	33	0	311427072	44	6044
2026-01-08 23:55:09.45	144.15	18.19	-35.6	-36.4	25.1	0.00e+00	0	33	0	313524224	44	5995
2026-01-08 23:55:10.46	144.12	18.31	-35.6	-36.4	25.0	0.00e+00	92	33	0	315621376	44	6001
2026-01-08 23:55:11.47	144.09	18.44	-35.7	-36.4	24.9	0.00e+00	10	33	0	317718528	44	6031
2026-01-08 23:55:12.48	144.06	18.56	-35.5	-36.3	25.1	0.00e+00	92	33	0	319815680	44	5927
2026-01-08 23:55:13.49	144.03	18.69	-35.5	-36.3	25.1	0.00e+00	90	33	0	320864256	44	5946
2026-01-08 23:55:14.50	143.99	18.81	-35.4	-36.2	25.2	0.00e+00	60	33	0	322961408	44	5877
2026-01-08 23:55:15.51	143.96	18.94	-35.5	-36.3	25.0	0.00e+00	92	33	0	325058560	44	5937
2026-01-08 23:55:16.52	143.93	19.06	-35.3	-36.1	25.3	0.00e+00	0	33	0	327155712	44	5776
2026-01-08 23:55:17.53	143.90	19.19	-35.5	-36.3	25.1	0.00e+00	92	33	0	329252864	44	5914
2026-01-08 23:55:18.54	143.87	19.32	-35.4	-36.2	25.2	0.00e+00	36	33	0	330301440	44	5852
2026-01-08 23:55:19.55	143.83	19.45	-35.3	-36.1	25.3	0.00e+00	92	33	0	332398592	44	5792
2026-01-08 23:55:20.56	143.80	19.58	-35.3	-36.1	25.3	0.00e+00	92	33	0	334495744	44	5772
2026-01-08 23:55:21.57	143.77	19.70	-35.3	-36.0	25.4	0.00e+00	92	33	0	336592896	44	5734
2026-01-08 23:55:22.58	143.73	19.84	-35.2	-36.0	25.4	0.00e+00	92	33	0	338690048	44	5710
2026-01-08 23:55:23.58	143.70	19.96	-35.3	-36.0	25.4	0.00e+00	31	33	0	339738624	44	5744
2026-01-08 23:55:24.59	143.66	20.10	-35.2	-36.0	25.4	0.00e+00	92	33	0	341835776	44	5704
2026-01-08 23:55:25.60	143.63	20.23	-35.2	-36.0	25.4	0.00e+00	12	33	0	343932928	44	5737
2026-01-08 23:55:26.61	143.59	20.36	-35.2	-35.9	25.4	0.00e+00	92	33	0	346030080	44	5682
2026-01-08 23:55:27.62	143.56	20.50	-35.1	-35.9	25.5	0.00e+00	92	33	0	348127232	44	5640
2026-01-08 23:55:28.63	143.52	20.63	-35.0	-35.8	25.6	0.00e+00	92	33	0	350224384	44	5588
2026-01-08 23:55:29.64	143.49	20.76	-35.0	-35.8	25.6	0.00e+00	90	33	0	351272960	44	5577
2026-01-08 23:55:30.65	143.45	20.90	-35.1	-35.8	25.6	0.00e+00	13	33	0	353370112	44	5615
2026-01-08 23:55:31.66	143.41	21.04	-35.1	-35.9	25.5	0.00e+00	92	33	0	355467264	44	5634
2026-01-08 23:55:32.67	143.37	21.17	-35.1	-35.8	25.6	0.00e+00	0	33	0	357564416	44	5603
2026-01-08 23:55:33.67	143.34	21.31	-35.1	-35.9	25.4	0.00e+00	91	33	0	358612992	44	5665
2026-01-08 23:55:34.68	143.30	21.45	-35.1	-35.8	25.5	0.00e+00	26	33	0	360710144	44	5630
2026-01-08 23:55:35.69	143.26	21.59	-35.0	-35.7	25.6	0.00e+00	91	33	0	362807296	44	5554
2026-01-08 23:55:36.70	143.22	21.73	-35.2	-35.9	25.5	0.00e+00	92	33	0	364904448	44	5686
2026-01-08 23:55:37.71	143.18	21.87	-35.1	-35.9	25.5	0.00e+00	92	33	0	367001600	44	5642
2026-01-08 23:55:38.72	143.14	22.01	-35.1	-35.8	25.4	0.00e+00	90	33	0	368050176	44	5628
2026-01-08 23:55:39.73	143.10	22.15	-35.2	-36.0	25.3	0.00e+00	0	33	0	370147328	44	5724
2026-01-08 23:55:40.74	143.06	22.30	-35.2	-35.9	25.5	0.00e+00	90	33	0	372244480	44	5672
2026-01-08 23:55:41.75	143.02	22.44	-35.1	-35.9	25.5	0.00e+00	0	33	0	374341632	44	5651
2026-01-08 23:55:42.76	142.98	22.59	-35.1	-35.9	25.5	0.00e+00	92	33	0	376438784	44	5645
2026-01-08 23:55:43.77	142.94	22.73	-35.2	-36.0	25.5	0.00e+00	92	33	0	378535936	44	5696
2026-01-08 23:55:44.78	142.90	22.88	-35.0	-35.8	25.6	0.00e+00	92	33	0	379584512	44	5598
2026-01-08 23:55:45.79	142.86	23.03	-35.2	-35.9	25.6	0.00e+00	92	33	0	381681664	44	5688
2026-01-08 23:55:46.79	142.81	23.17	-35.1	-35.9	25.6	0.00e+00	0	33	0	383778816	44	5633
2026-01-08 23:55:47.80	142.77	23.32	-35.2	-35.9	25.5	0.00e+00	92	33	0	385875968	44	5665
2026-01-08 23:55:48.81	142.73	23.47	-35.1	-35.9	25.6	0.00e+00	0	33	0	387973120	44	5647
2026-01-08 23:55:49.82	142.68	23.62	-35.1	-35.8	25.6	0.00e+00	92	33	0	389021696	44	5626
2026-01-08 23:55:50.83	142.64	23.77	-35.2	-36.0	25.5	0.00e+00	92	33	0	391118848	44	5711
2026-01-08 23:55:51.84	142.59	23.93	-35.3	-36.1	25.4	0.00e+00	90	33	0	393216000	44	5781
2026-01-08 23:55:52.85	142.55	24.08	-35.3	-36.0	25.4	0.00e+00	90	33	0	395313152	44	5753
2026-01-08 23:55:53.86	142.50	24.23	-35.3	-36.1	25.4	0.00e+00	68	33	0	397410304	44	5803
2026-01-08 23:55:54.87	142.45	24.39	-35.5	-36.3	25.3	0.00e+00	92	33	0	398458880	44	5905
2026-01-08 23:55:55.88	142.41	24.55	-35.4	-36.2	25.2	0.00e+00	0	33	0	400556032	44	5887
2026-01-08 23:55:56.89	142.36	24.70	-35.6	-36.4	25.2	0.00e+00	90	33	0	402653184	44	5982
2026-01-08 23:55:57.90	142.31	24.86	-35.6	-36.4	25.1	0.00e+00	57	33	0	404750336	44	6003
2026-01-08 23:55:58.91	142.26	25.02	-35.9	-36.7	24.9	0.00e+00	90	33	0	406847488	44	6200
2026-01-08 23:55:59.92	142.21	25.18	-35.9	-36.7	24.9	0.00e+00	92	33	0	407896064	44	6220
2026-01-08 23:56:00.92	142.16	25.34	-36.0	-36.8	24.8	0.00e+00	92	33	0	409993216	44	6283
2026-01-08 23:56:01.93	142.11	25.50	-36.2	-37.0	24.6	0.00e+00	92	33	0	412090368	44	6413
2026-01-08 23:56:02.94	142.06	25.66	-36.2	-37.0	24.7	0.00e+00	8	33	0	414187520	44	6423
2026-01-08 23:56:03.96	142.01	25.83	-36.3	-37.1	24.6	0.00e+00	92	33	0	416284672	44	6504
2026-01-08 23:56:04.96	141.96	25.99	-36.4	-37.3	24.5	0.00e+00	60	33	0	417333248	44	6634
2026-01-08 23:56:05.97	141.91	26.15	-36.5	-37.3	24.3	0.00e+00	92	33	0	419430400	44	6685
2026-01-08 23:56:06.98	141.86	26.32	-36.8	-37.6	24.2	0.00e+00	91	33	0	421527552	44	6912
2026-01-08 23:56:07.99	141.80	26.49	-36.8	-37.6	24.2	0.00e+00	91	33	0	423624704	46	6149
2026-01-08 23:56:09.00	141.75	26.66	-36.8	-37.7	24.2	0.00e+00	91	33	0	425721856	46	6201
2026-01-08 23:56:10.01	141.69	26.83	-36.8	-37.6	24.1	0.00e+00	31	33	0	426770432	46	6155
2026-01-08 23:56:11.02	141.64	27.00	-36.8	-37.7	24.1	0.00e+00	92	33	0	428867584	46	6194
2026-01-08 23:56:12.03	141.58	27.17	-37.0	-37.8	24.0	0.00e+00	20	33	0	430964736	46	6313
2026-01-08 23:56:13.04	141.53	27.34	-37.1	-38.0	23.8	0.00e+00	92	33	0	433061888	46	6404
2026-01-08 23:56:14.05	141.47	27.51	-37.0	-37.9	23.9	0.00e+00	90	33	0	435159040	46	6331
2026-01-08 23:56:15.06	141.41	27.69	-37.2	-38.0	23.8	0.00e+00	92	33	0	436207616	46	6462
2026-01-08 23:56:16.06	141.35	27.86	-37.2	-38.1	23.7	0.00e+00	92	33	0	438304768	46	6521
2026-01-08 23:56:17.07	141.29	28.04	-37.4	-38.3	23.3	0.00e+00	92	33	0	440401920	46	6635
2026-01-08 23:56:18.08	141.23	28.22	-37.5	-38.4	23.5	0.00e+00	92	33	0	442499072	46	6722
2026-01-08 23:56:19.09	141.17	28.40	-37.7	-38.6	23.3	0.00e+00	0	33	0	444596224	46	6881
2026-01-08 23:56:20.10	141.11	28.58	-37.8	-38.7	23.2	0.00e+00	92	33	0	446693376	48	6239
2026-01-08 23:56:21.11	141.05	28.76	-37.9	-38.9	23.1	0.00e+00	63	33	0	447741952	48	6320
2026-01-08 23:56:22.12	140.99	28.94	-38.1	-39.1	22.9	0.00e+00	92	33	0	449839104	48	6502
2026-01-08 23:56:23.13	140.92	29.13	-38.3	-39.3	22.7	0.00e+00	92	33	0	451936256	48	6667
2026-01-08 23:56:24.14	140.86	29.31	-38.4	-39.4	22.6	0.00e+00	90	33	0	454033408	48	6731
2026-01-08 23:56:25.15	140.79	29.50	-38.6	-39.6	22.4	0.00e+00	92	33	0	456130560	48	6884
2026-01-08 23:56:26.16	140.73	29.68	-38.8	-39.8	22.3	0.00e+00	0	33	0	457179136	50	6265
2026-01-08 23:56:27.17	140.66	29.87	-38.9	-39.9	22.2	0.00e+00	93	33	0	459276288	50	6355
2026-01-08 23:56:28.18	140.59	30.06	-38.9	-39.9	22.2	0.00e+00	49	33	0	461373440	50	6375
2026-01-08 23:56:29.19	140.52	30.25	-39.0	-40.1	22.0	0.00e+00	90	33	0	463470592	50	6507
2026-01-08 23:56:30.20	140.45	30.44	-39.1	-40.1	22.0	0.00e+00	92	33	0	465567744	50	6530
2026-01-08 23:56:31.20	140.38	30.64	-39.0	-40.1	22.0	0.00e+00	92	33	0	466616320	50	6516
2026-01-08 23:56:32.21	140.31	30.83	-39.2	-40.3	21.9	0.00e+00	90	33	0	468713472	50	6619
2026-01-08 23:56:33.23	140.24	31.03	-39.3	-40.4	21.7	0.00e+00	63	33	0	470810624	50	6726
2026-01-08 23:56:34.24	140.17	31.22	-39.3	-40.4	21.6	0.00e+00	90	33	0	472907776	50	6767
2026-01-08 23:56:35.24	140.09	31.42	-39.4	-40.6	21.6	0.00e+00	0	33	0	475004928	50	6855
2026-01-08 23:56:36.25	140.02	31.62	-39.6	-40.8	21.4	0.00e+00	91	33	0	476053504	50	7011
2026-01-08 23:56:37.26	139.94	31.82	-39.8	-41.0	21.2	0.00e+00	76	33	0	478150656	52	6411
2026-01-08 23:56:38.27	139.87	32.02	-39.9	-41.1	21.2	0.00e+00	92	33	0	480247808	52	6470
2026-01-08 23:56:39.28	139.79	32.23	-40.0	-41.2	21.1	0.00e+00	92	33	0	482344960	52	6556
2026-01-08 23:56:40.29	139.71	32.43	-40.0	-41.2	21.0	0.00e+00	67	33	0	484442112	52	6547
2026-01-08 23:56:41.30	139.63	32.64	-39.9	-41.1	21.1	0.00e+00	92	33	0	485490688	52	6473
2026-01-08 23:56:42.30	139.55	32.84	-39.9	-41.1	21.2	0.00e+00	7	33	0	487587840	52	6513
2026-01-08 23:56:43.31	139.47	33.05	-39.8	-41.0	21.1	0.00e+00	92	33	0	489684992	52	6395
2026-01-08 23:56:44.32	139.39	33.26	-40.1	-41.4	20.8	0.00e+00	0	33	0	491782144	52	6707
2026-01-08 23:56:45.33	139.30	33.47	-40.3	-41.5	20.7	0.00e+00	92	33	0	493879296	52	6822
2026-01-08 23:56:46.34	139.22	33.69	-40.3	-41.6	20.7	0.00e+00	92	33	0	494927872	52	6864
2026-01-08 23:56:47.35	139.13	33.90	-40.3	-41.6	20.6	0.00e+00	90	33	0	497025024	52	6861
2026-01-08 23:56:48.36	139.04	34.12	-40.4	-41.7	20.7	0.00e+00	92	33	0	499122176	52	6944
2026-01-08 23:56:49.37	138.95	34.34	-40.2	-41.5	20.8	0.00e+00	24	33	0	501219328	52	6775
2026-01-08 23:56:50.38	138.86	34.55	-40.3	-41.5	20.7	0.00e+00	92	33	0	503316480	52	6848
2026-01-08 23:56:51.39	138.77	34.77	-40.2	-41.5	20.8	0.00e+00	0	33	0	504365056	52	6783
2026-01-08 23:56:52.40	138.68	35.00	-40.0	-41.2	21.0	0.00e+00	92	33	0	506462208	52	6611
2026-01-08 23:56:53.40	138.59	35.22	-40.1	-41.3	21.0	0.00e+00	92	33	0	508559360	52	6659
2026-01-08 23:56:54.41	138.49	35.44	-39.8	-40.9	21.4	0.00e+00	92	33	0	510656512	52	6381
2026-01-08 23:56:55.42	138.39	35.67	-39.8	-40.9	21.3	0.00e+00	93	33	0	512753664	52	6357
2026-01-08 23:56:56.43	138.30	35.90	-39.5	-40.6	21.7	0.00e+00	92	33	0	513802240	52	6159
2026-01-08 23:56:57.44	138.20	36.12	-39.4	-40.5	21.7	0.00e+00	92	33	0	515899392	52	6101
2026-01-08 23:56:58.44	138.10	36.35	-39.3	-40.3	21.8	0.00e+00	0	33	0	517996544	52	5961
2026-01-08 23:56:59.45	137.99	36.59	-39.2	-40.3	21.9	0.00e+00	92	33	0	520093696	52	5931
2026-01-08 23:57:00.45	137.89	36.82	-39.3	-40.4	21.8	0.00e+00	71	33	0	522190848	52	5972
2026-01-08 23:57:01.46	137.78	37.05	-39.4	-40.5	21.8	0.00e+00	92	33	0	523239424	52	6053
2026-01-08 23:57:02.47	137.68	37.29	-39.4	-40.5	21.7	0.00e+00	90	33	0	525336576	52	6066
2026-01-08 23:57:03.48	137.57	37.53	-39.4	-40.5	21.7	0.00e+00	92	33	0	527433728	52	6085
2026-01-08 23:57:04.49	137.46	37.77	-39.6	-40.7	21.4	0.00e+00	92	33	0	529530880	52	6240
2026-01-08 23:57:05.49	137.35	38.01	-39.7	-40.8	21.4	0.00e+00	12	33	0	531628032	52	6272
2026-01-08 23:57:06.50	137.23	38.25	-39.6	-40.8	21.5	0.00e+00	92	33	0	533725184	52	6248
2026-01-08 23:57:07.51	137.12	38.50	-40.0	-41.1	21.2	0.00e+00	0	33	0	534773760	52	6519
2026-01-08 23:57:08.51	137.00	38.74	-40.2	-41.4	20.8	0.00e+00	92	33	0	536870912	52	6767
2026-01-08 23:57:09.52	136.88	38.99	-40.3	-41.5	20.8	0.00e+00	90	33	0	538968064	52	6806
2026-01-08 23:57:10.53	136.76	39.24	-40.5	-41.7	20.6	0.00e+00	92	33	0	541065216	52	7000
2026-01-08 23:57:11.54	136.64	39.49	-40.3	-41.5	20.8	0.00e+00	91	33	0	543162368	52	6848
2026-01-08 23:57:12.55	136.51	39.74	-40.2	-41.4	20.8	0.00e+00	92	33	0	544210944	52	6742
2026-01-08 23:57:13.56	136.39	40.00	-40.0	-41.2	21.2	0.00e+00	92	33	0	546308096	52	6567
2026-01-08 23:57:14.57	136.26	40.25	-39.8	-40.9	21.4	0.00e+00	58	33	0	548405248	52	6358
2026-01-08 23:57:15.58	136.13	40.51	-39.8	-40.9	21.3	0.00e+00	90	33	0	550502400	52	6362
2026-01-08 23:57:16.59	135.99	40.77	-40.0	-41.2	21.2	0.00e+00	92	33	0	552599552	52	6541
2026-01-08 23:57:17.60	135.86	41.03	-39.9	-41.0	21.2	0.00e+00	92	33	0	553648128	52	6437
2026-01-08 23:57:18.61	135.72	41.30	-39.9	-41.0	21.3	0.00e+00	92	33	0	555745280	52	6430
2026-01-08 23:57:19.62	135.58	41.56	-39.7	-40.8	21.5	0.00e+00	92	33	0	557842432	52	6307
2026-01-08 23:57:20.63	135.44	41.83	-39.6	-40.7	21.5	0.00e+00	92	33	0	559939584	52	6192
2026-01-08 23:57:21.64	135.29	42.10	-39.6	-40.7	21.6	0.00e+00	0	33	0	562036736	52	6241
2026-01-08 23:57:22.64	135.15	42.36	-39.8	-41.0	21.2	0.00e+00	93	33	0	563085312	52	6417
2026-01-08 23:57:23.65	135.00	42.64	-39.7	-40.8	21.5	0.00e+00	0	33	0	565182464	52	6256
2026-01-08 23:57:24.66	134.84	42.91	-39.4	-40.5	21.7	0.00e+00	92	33	0	567279616	52	6053
2026-01-08 23:57:25.67	134.69	43.19	-39.3	-40.4	21.9	0.00e+00	92	33	0	569376768	52	5984
2026-01-08 23:57:26.68	134.53	43.46	-39.2	-40.3	21.8	0.00e+00	92	33	0	571473920	52	5942
2026-01-08 23:57:27.69	134.37	43.74	-39.4	-40.5	21.7	0.00e+00	91	33	0	572522496	52	6097
2026-01-08 23:57:28.70	134.21	44.02	-39.1	-40.2	22.0	0.00e+00	91	33	0	574619648	52	5867
2026-01-08 23:57:29.71	134.04	44.31	-38.9	-40.0	22.3	0.00e+00	92	33	0	576716800	52	5703
2026-01-08 23:57:30.72	133.87	44.59	-38.7	-39.6	22.6	0.00e+00	0	32	0	578813952	50	6170
2026-01-08 23:57:31.73	133.70	44.88	-38.6	-39.6	22.6	0.00e+00	92	33	0	580911104	50	6105
2026-01-08 23:57:32.74	133.52	45.16	-38.4	-39.4	22.8	0.00e+00	92	33	0	581959680	50	5976
2026-01-08 23:57:33.75	133.34	45.45	-38.3	-39.3	22.8	0.00e+00	92	33	0	584056832	50	5932
2026-01-08 23:57:34.75	133.16	45.74	-38.4	-39.4	22.7	0.00e+00	92	33	0	586153984	50	6005
2026-01-08 23:57:35.76	132.98	46.04	-38.2	-39.2	22.9	0.00e+00	92	33	0	588251136	50	5849
2026-01-08 23:57:36.77	132.79	46.33	-38.3	-39.3	22.8	0.00e+00	90	33	0	590348288	50	5936
2026-01-08 23:57:37.78	132.59	46.63	-38.3	-39.2	22.7	0.00e+00	8	33	0	591396864	50	5880
2026-01-08 23:57:38.79	132.39	46.93	-38.5	-39.5	22.6	0.00e+00	92	33	0	593494016	50	6076
2026-01-08 23:57:39.80	132.19	47.23	-38.1	-39.1	23.0	0.00e+00	92	33	0	595591168	50	5766
2026-01-08 23:57:40.81	131.99	47.53	-38.2	-39.2	22.8	0.00e+00	91	33	0	597688320	50	5867
2026-01-08 23:57:41.82	131.78	47.83	-38.2	-39.2	22.8	0.00e+00	90	33	0	599785472	50	5856
2026-01-08 23:57:42.83	131.57	48.14	-38.1	-39.1	23.0	0.00e+00	92	33	0	600834048	50	5779
2026-01-08 23:57:43.84	131.35	48.44	-38.3	-39.3	22.9	0.00e+00	92	32	0	602931200	50	5921
2026-01-08 23:57:44.85	131.13	48.75	-38.0	-38.9	23.1	0.00e+00	8	32	0	605028352	50	5680
2026-01-08 23:57:45.86	130.90	49.06	-38.1	-39.1	23.0	0.00e+00	92	33	0	607125504	50	5769
2026-01-08 23:57:46.86	130.67	49.37	-38.0	-38.9	23.1	0.00e+00	11	32	0	609222656	50	5679
2026-01-08 23:57:47.87	130.44	49.69	-38.1	-39.1	23.1	0.00e+00	92	33	0	610271232	50	5781
2026-01-08 23:57:48.88	130.19	50.00	-37.6	-38.5	23.5	0.00e+00	91	33	0	612368384	48	6064
2026-01-08 23:57:49.89	129.95	50.32	-37.5	-38.4	23.6	0.00e+00	92	33	0	614465536	48	5986
2026-01-08 23:57:50.89	129.70	50.63	-37.1	-38.0	24.0	0.00e+00	92	32	0	616562688	48	5716
2026-01-08 23:57:51.90	129.44	50.95	-36.6	-37.5	24.4	0.00e+00	81	32	0	618659840	46	6068
2026-01-08 23:57:52.91	129.18	51.28	-36.4	-37.2	24.5	0.00e+00	92	33	0	619708416	46	5845
2026-01-08 23:57:53.92	128.91	51.60	-36.3	-37.1	24.6	0.00e+00	0	33	0	621805568	46	5783
2026-01-08 23:57:54.93	128.64	51.92	-35.6	-36.3	25.2	0.00e+00	92	32	0	623902720	44	5962
2026-01-08 23:57:55.94	128.36	52.25	-35.8	-36.6	25.1	0.00e+00	92	32	0	625999872	44	6129
2026-01-08 23:57:56.95	128.07	52.58	-36.1	-36.9	24.9	0.00e+00	92	32	0	628097024	44	6336
2026-01-08 23:57:57.96	127.78	52.91	-36.2	-37.0	24.8	0.00e+00	92	32	0	630194176	44	6440
2026-01-08 23:57:58.97	127.48	53.24	-36.2	-37.1	24.8	0.00e+00	92	32	0	631242752	44	6473
2026-01-08 23:57:59.98	127.17	53.57	-36.3	-37.1	24.8	0.00e+00	92	32	0	633339904	44	6474
2026-01-08 23:58:00.99	126.86	53.90	-35.8	-36.6	24.9	0.00e+00	0	33	0	635437056	44	6127
2026-01-08 23:58:02.00	126.53	54.24	-36.0	-36.8	24.9	0.00e+00	92	32	0	637534208	44	6284
2026-01-08 23:58:03.01	126.21	54.57	-36.5	-37.3	24.5	0.00e+00	50	32	0	639631360	44	6640
2026-01-08 23:58:04.02	125.87	54.91	-36.7	-37.5	24.3	0.00e+00	92	32	0	640679936	44	6828
2026-01-08 23:58:05.03	125.52	55.25	-36.8	-37.6	24.2	0.00e+00	92	32	0	642777088	46	6160
2026-01-08 23:58:06.04	125.17	55.59	-36.7	-37.5	24.3	0.00e+00	92	32	0	644874240	46	6055
2026-01-08 23:58:07.05	124.81	55.93	-37.0	-37.9	23.9	0.00e+00	91	32	0	646971392	46	6352
2026-01-08 23:58:08.06	124.43	56.27	-37.8	-38.7	23.3	0.00e+00	0	32	0	649068544	46	6977
2026-01-08 23:58:09.07	124.05	56.61	-38.4	-39.4	22.6	0.00e+00	92	33	0	650117120	48	6732
2026-01-08 23:58:10.08	123.66	56.95	-38.9	-40.0	22.2	0.00e+00	0	33	0	652214272	50	6423
2026-01-08 23:58:11.09	123.26	57.30	-39.7	-40.9	21.2	0.00e+00	92	32	0	654311424	50	7141
2026-01-08 23:58:12.09	122.86	57.64	-40.6	-41.9	20.4	0.00e+00	92	33	0	656408576	52	7115
2026-01-08 23:58:13.10	122.43	57.98	-40.4	-41.7	20.7	0.00e+00	92	33	0	658505728	52	6967
2026-01-08 23:58:14.11	122.00	58.33	-40.4	-41.7	20.7	0.00e+00	92	32	0	659554304	52	6969
2026-01-08 23:58:15.12	121.56	58.67	-40.0	-41.1	21.1	0.00e+00	57	32	0	661651456	52	6526
2026-01-08 23:58:16.13	121.10	59.02	-39.6	-40.8	21.4	0.00e+00	92	33	0	663748608	52	6271
2026-01-08 23:58:17.14	120.64	59.37	-38.9	-39.9	22.3	0.00e+00	42	32	0	665845760	52	5656
2026-01-08 23:58:18.15	120.15	59.71	-38.6	-39.6	22.6	0.00e+00	92	32	0	667942912	50	6150
2026-01-08 23:58:19.16	119.66	60.06	-38.3	-39.2	22.8	0.00e+00	92	32	0	668991488	50	5888
2026-01-08 23:58:20.17	119.15	60.41	-37.6	-38.5	23.5	0.00e+00	92	32	0	671088640	48	6055
2026-01-08 23:58:21.18	118.63	60.75	-37.3	-38.2	23.7	0.00e+00	92	32	0	673185792	48	5847
2026-01-08 23:58:22.19	118.10	61.10	-37.3	-38.2	23.6	0.00e+00	7	32	0	675282944	48	5888
2026-01-08 23:58:23.20	117.55	61.44	-37.2	-38.1	23.9	0.00e+00	90	32	0	677380096	48	5824
2026-01-08 23:58:24.20	116.98	61.79	-36.9	-37.8	24.2	0.00e+00	0	32	0	678428672	48	5600
2026-01-08 23:58:25.21	116.40	62.13	-36.5	-37.3	24.5	0.00e+00	90	32	0	680525824	46	5925
2026-01-08 23:58:26.22	115.80	62.47	-36.2	-37.0	24.8	0.00e+00	65	32	0	682622976	46	5728
2026-01-08 23:58:27.23	115.19	62.82	-35.8	-36.6	25.1	0.00e+00	90	32	0	684720128	46	5472
2026-01-08 23:58:28.24	114.55	63.16	-36.2	-37.0	24.7	0.00e+00	92	32	0	686817280	46	5743
2026-01-08 23:58:29.25	113.90	63.50	-36.2	-37.0	24.7	0.00e+00	90	32	0	687865856	46	5752
2026-01-08 23:58:30.26	113.23	63.83	-36.6	-37.4	24.4	0.00e+00	92	32	0	689963008	46	6006
2026-01-08 23:58:31.27	112.54	64.17	-36.8	-37.7	24.2	0.00e+00	0	32	0	692060160	46	6190
2026-01-08 23:58:32.28	111.82	64.51	-37.2	-38.0	23.9	0.00e+00	92	32	0	694157312	46	6454
2026-01-08 23:58:33.29	111.09	64.84	-37.8	-38.7	22.7	0.00e+00	0	32	0	696254464	48	6216
2026-01-08 23:58:34.30	110.33	65.17	-37.9	-38.9	23.1	0.00e+00	92	32	0	698351616	48	6318
2026-01-08 23:58:35.31	109.56	65.49	-38.0	-38.9	23.0	0.00e+00	92	32	0	699400192	48	6378
2026-01-08 23:58:36.31	108.76	65.82	-38.1	-39.1	22.8	0.00e+00	81	32	0	701497344	48	6503
2026-01-08 23:58:37.33	107.93	66.14	-38.8	-39.8	22.3	0.00e+00	91	32	0	703594496	50	6293
2026-01-08 23:58:38.33	107.09	66.45	-39.1	-40.1	22.0	0.00e+00	62	32	0	705691648	50	6535
2026-01-08 23:58:39.34	106.21	66.77	-39.0	-40.1	22.0	0.00e+00	92	32	0	707788800	50	6479
2026-01-08 23:58:40.35	105.31	67.08	-39.7	-40.8	21.4	0.00e+00	54	32	0	708837376	50	7056
2026-01-08 23:58:41.36	104.38	67.38	-39.9	-41.1	21.0	0.00e+00	92	32	0	710934528	52	6485
2026-01-08 23:58:42.37	103.42	67.69	-39.9	-41.0	21.2	0.00e+00	74	32	0	713031680	52	6453
2026-01-08 23:58:43.38	102.44	67.98	-39.1	-40.2	22.0	0.00e+00	92	32	0	715128832	52	5849
2026-01-08 23:58:44.39	101.43	68.27	-39.4	-40.6	21.6	0.00e+00	90	32	0	717225984	52	6109
2026-01-08 23:58:45.40	100.38	68.56	-39.3	-40.4	21.9	0.00e+00	90	32	0	718274560	52	6031
2026-01-08 23:58:46.41	99.31	68.84	-39.1	-40.2	22.0	0.00e+00	90	32	0	720371712	52	5829
2026-01-08 23:58:47.42	98.20	69.11	-38.9	-40.0	21.9	0.00e+00	29	32	0	722468864	52	5727
2026-01-08 23:58:48.43	97.07	69.38	-38.7	-39.8	22.3	0.00e+00	90	32	0	724566016	52	5583
2026-01-08 23:58:49.44	95.90	69.64	-38.5	-39.5	22.5	0.00e+00	83	32	0	726663168	50	6091
2026-01-08 23:58:50.44	94.71	69.89	-37.6	-38.5	23.4	0.00e+00	92	32	0	727711744	50	5418
2026-01-08 23:58:51.45	93.48	70.13	-37.9	-38.8	23.1	0.00e+00	92	32	0	729808896	48	6292
2026-01-08 23:58:52.46	92.22	70.37	-37.4	-38.2	23.7	0.00e+00	0	32	0	731906048	48	5893
2026-01-08 23:58:53.47	90.92	70.60	-37.2	-38.0	23.8	0.00e+00	92	32	0	734003200	48	5748
2026-01-08 23:58:54.48	89.60	70.81	-37.4	-38.3	23.6	0.00e+00	57	32	0	736100352	48	5903
2026-01-08 23:58:55.49	88.24	71.02	-37.3	-38.2	23.8	0.00e+00	92	32	0	737148928	48	5877
2026-01-08 23:58:56.50	86.85	71.22	-37.1	-38.0	24.0	0.00e+00	0	32	0	739246080	48	5712
2026-01-08 23:58:57.51	85.42	71.41	-37.1	-38.0	23.8	0.00e+00	90	32	0	741343232	48	5737
2026-01-08 23:58:58.52	83.97	71.59	-37.2	-38.0	23.8	0.00e+00	92	32	0	743440384	48	5751
2026-01-08 23:58:59.53	82.49	71.75	-36.7	-37.6	24.2	0.00e+00	0	32	0	745537536	46	6118
2026-01-08 23:59:00.54	80.98	71.91	-37.1	-38.0	23.8	0.00e+00	92	32	0	746586112	46	6395
2026-01-08 23:59:01.55	79.44	72.05	-37.8	-38.7	23.2	0.00e+00	21	32	0	748683264	46	6968
2026-01-08 23:59:02.56	77.88	72.18	-37.8	-38.8	23.1	0.00e+00	92	32	0	750780416	48	6256
2026-01-08 23:59:03.57	76.30	72.30	-38.3	-39.3	22.8	0.00e+00	21	32	0	752877568	48	6656
2026-01-08 23:59:04.57	74.71	72.41	-38.3	-39.4	22.7	0.00e+00	90	32	0	754974720	48	6703
2026-01-08 23:59:05.58	73.09	72.50	-38.3	-39.3	22.7	0.00e+00	91	32	0	756023296	48	6636
2026-01-08 23:59:06.59	71.45	72.58	-39.4	-40.5	21.7	0.00e+00	21	32	0	758120448	50	6826
2026-01-08 23:59:07.60	69.79	72.64	-39.4	-40.5	21.6	0.00e+00	92	32	0	760217600	50	6846
2026-01-08 23:59:08.61	68.12	72.69	-38.7	-39.7	22.5	0.00e+00	8	32	0	762314752	50	6184
2026-01-08 23:59:09.62	66.45	72.73	-38.4	-39.3	22.6	0.00e+00	92	32	0	764411904	50	5946
2026-01-08 23:59:10.63	64.77	72.75	-38.5	-39.5	22.6	0.00e+00	6	32	0	766509056	50	6059
2026-01-08 23:59:11.64	63.08	72.76	-38.3	-39.3	22.7	0.00e+00	92	32	0	767557632	50	5946
2026-01-08 23:59:12.65	61.40	72.76	-38.3	-39.3	22.8	0.00e+00	80	32	0	769654784	50	5922
2026-01-08 23:59:13.66	59.71	72.74	-37.7	-38.7	23.0	0.00e+00	0	32	0	771751936	50	5507
2026-01-08 23:59:14.67	58.04	72.70	-37.5	-38.4	23.4	0.00e+00	92	32	0	773849088	48	5975
2026-01-08 23:59:15.68	56.37	72.65	-38.0	-39.0	23.2	0.00e+00	0	32	0	774897664	48	6402
2026-01-08 23:59:16.69	54.71	72.59	-37.8	-38.8	23.2	0.00e+00	92	32	0	776994816	48	6255
2026-01-08 23:59:17.69	53.08	72.52	-37.8	-38.7	23.4	0.00e+00	59	32	0	779091968	48	6180
2026-01-08 23:59:18.70	51.45	72.43	-37.4	-38.3	23.8	0.00e+00	92	32	0	781189120	48	5899
2026-01-08 23:59:19.71	49.85	72.33	-37.0	-37.8	24.0	0.00e+00	0	32	0	783286272	48	5605
2026-01-08 23:59:20.72	48.26	72.21	-36.9	-37.7	24.2	0.00e+00	92	32	0	784334848	46	6209
2026-01-08 23:59:21.73	46.69	72.08	-36.6	-37.4	24.4	0.00e+00	92	32	0	786432000	46	6009
2026-01-08 23:59:22.74	45.15	71.94	-36.3	-37.1	24.7	0.00e+00	30	32	0	788529152	46	5805
2026-01-08 23:59:23.75	43.64	71.79	-36.9	-37.7	24.0	0.00e+00	92	32	0	790626304	46	6244
2026-01-08 23:59:24.76	42.15	71.63	-37.4	-38.3	23.6	0.00e+00	29	32	0	792723456	46	6656
2026-01-08 23:59:25.77	40.69	71.45	-37.7	-38.6	23.3	0.00e+00	92	32	0	794820608	48	6156
2026-01-08 23:59:26.78	39.26	71.27	-37.7	-38.7	23.3	0.00e+00	58	32	0	795869184	48	6176
2026-01-08 23:59:27.78	37.88	71.07	-37.7	-38.6	23.2	0.00e+00	92	32	0	797966336	48	6159
2026-01-08 23:59:28.79	36.51	70.87	-38.2	-39.2	22.7	0.00e+00	92	32	0	800063488	48	6546
2026-01-08 23:59:29.80	35.18	70.65	-39.1	-40.1	21.9	0.00e+00	21	32	0	802160640	50	6531
2026-01-08 23:59:30.81	33.88	70.43	-38.9	-39.9	22.2	0.00e+00	92	32	0	804257792	50	6348
2026-01-08 23:59:31.82	32.61	70.19	-38.9	-39.9	22.2	0.00e+00	0	32	0	805306368	50	6383
2026-01-08 23:59:32.83	31.37	69.95	-39.2	-40.3	21.9	0.00e+00	92	32	0	807403520	50	6619
2026-01-08 23:59:33.84	30.16	69.70	-39.1	-40.2	21.7	0.00e+00	0	32	0	809500672	50	6575
2026-01-08 23:59:34.85	28.99	69.44	-39.3	-40.4	21.6	0.00e+00	90	32	0	811597824	50	6750
2026-01-08 23:59:35.86	27.85	69.18	-39.5	-40.6	21.7	0.00e+00	0	32	0	813694976	50	6863
2026-01-08 23:59:36.87	26.74	68.91	-39.6	-40.7	21.4	0.00e+00	92	32	0	814743552	50	6955
2026-01-08 23:59:37.88	25.66	68.63	-39.8	-41.0	21.1	0.00e+00	92	32	0	816840704	50	7198
2026-01-08 23:59:38.89	24.61	68.34	-40.4	-41.7	20.6	0.00e+00	0	32	0	818937856	52	6975
2026-01-08 23:59:39.89	23.60	68.06	-40.3	-41.6	20.6	0.00e+00	92	32	0	821035008	52	6880
2026-01-08 23:59:40.90	22.61	67.76	-40.9	-42.3	20.0	0.00e+00	64	32	0	823132160	54	6653
2026-01-08 23:59:41.91	21.64	67.46	-40.0	-41.2	21.0	0.00e+00	92	32	0	824180736	54	5886
2026-01-08 23:59:42.92	20.71	67.16	-39.0	-40.1	22.0	0.00e+00	0	32	0	826277888	52	5780
2026-01-08 23:59:43.93	19.80	66.85	-38.8	-39.9	22.3	0.00e+00	92	32	0	828375040	52	5652
2026-01-08 23:59:44.94	18.92	66.54	-38.6	-39.6	22.4	0.00e+00	92	32	0	830472192	50	6144
2026-01-08 23:59:45.94	18.08	66.23	-38.4	-39.4	22.5	0.00e+00	17	32	0	832569344	50	6005
2026-01-08 23:59:46.95	17.24	65.91	-38.2	-39.2	23.0	0.00e+00	90	32	0	833617920	50	5836
2026-01-08 23:59:47.96	16.44	65.58	-37.0	-37.9	24.1	0.00e+00	18	32	0	835715072	48	5655
2026-01-08 23:59:48.97	15.66	65.26	-36.3	-37.1	24.7	0.00e+00	92	32	0	837812224	46	5768
2026-01-08 23:59:49.98	14.90	64.93	-35.7	-36.5	25.0	0.00e+00	16	32	0	839909376	44	6059
2026-01-08 23:59:50.99	14.16	64.60	-35.4	-36.2	25.3	0.00e+00	90	32	0	842006528	44	5860
2026-01-08 23:59:52.00	13.44	64.26	-35.1	-35.9	25.6	0.00e+00	29	32	0	843055104	44	5652
2026-01-08 23:59:53.01	12.74	63.93	-34.8	-35.5	26.0	0.00e+00	92	32	0	845152256	44	5431
2026-01-08 23:59:54.02	12.07	63.59	-34.7	-35.4	25.9	0.00e+00	92	32	0	847249408	42	6015
2026-01-08 23:59:55.02	11.42	63.26	-34.8	-35.5	25.9	0.00e+00	0	32	0	849346560	42	6084
2026-01-08 23:59:56.03	10.78	62.92	-34.6	-35.3	26.1	0.00e+00	92	32	0	851443712	42	5917
2026-01-08 23:59:57.04	10.16	62.58	-34.8	-35.5	25.6	0.00e+00	2	32	0	852492288	42	6087
2026-01-08 23:59:58.05	9.56	62.23	-35.1	-35.9	25.6	0.00e+00	92	32	0	854589440	42	6339
2026-01-08 23:59:59.06	8.97	61.89	-35.1	-35.8	25.6	0.00e+00	0	32	0	856686592	42	6315
2026-01-09 00:00:00.07	8.40	61.55	-35.4	-36.2	25.5	0.00e+00	92	32	0	858783744	42	6556
2026-01-09 00:00:01.08	7.85	61.20	-35.8	-36.6	24.9	0.00e+00	92	33	0	860880896	44	6160
2026-01-09 00:00:02.09	7.31	60.86	-36.3	-37.1	24.6	0.00e+00	0	33	0	862978048	44	6502
2026-01-09 00:00:03.10	6.78	60.51	-37.1	-37.9	23.8	0.00e+00	90	32	0	864026624	46	6351
2026-01-09 00:00:04.11	6.27	60.17	-38.3	-39.3	22.7	0.00e+00	65	32	0	866123776	48	6646
2026-01-09 00:00:05.12	5.78	59.82	-38.7	-39.8	22.3	0.00e+00	92	32	0	868220928	50	6262
2026-01-09 00:00:06.13	5.29	59.48	-38.5	-39.6	22.5	0.00e+00	0	32	0	870318080	50	6109
2026-01-09 00:00:07.14	4.82	59.13	-39.0	-40.1	22.1	0.00e+00	92	32	0	872415232	50	6487
2026-01-09 00:00:08.14	4.37	58.79	-39.3	-40.4	21.9	0.00e+00	92	32	0	873463808	50	6714
2026-01-09 00:00:09.15	3.92	58.44	-39.6	-40.7	21.4	0.00e+00	65	32	0	875560960	50	6971
2026-01-09 00:00:10.16	3.49	58.10	-40.2	-41.5	20.7	0.00e+00	92	32	0	877658112	52	6771
2026-01-09 00:00:11.17	3.07	57.75	-40.7	-42.0	20.3	0.00e+00	0	32	0	879755264	54	6417
2026-01-09 00:00:12.18	2.65	57.41	-40.1	-41.4	20.9	0.00e+00	90	32	0	880803840	54	5973
2026-01-09 00:00:13.19	2.25	57.07	-39.2	-40.3	22.0	0.00e+00	18	32	0	882900992	52	5921
2026-01-09 00:00:14.20	1.86	56.73	-38.7	-39.7	22.5	0.00e+00	92	32	0	884998144	50	6242
2026-01-09 00:00:15.20	1.48	56.39	-38.2	-39.2	22.9	0.00e+00	29	32	0	887095296	50	5844
2026-01-09 00:00:16.21	1.10	56.05	-38.1	-39.1	22.8	0.00e+00	82	32	0	889192448	50	5811
2026-01-09 00:00:17.22	0.74	55.71	-37.6	-38.5	23.3	0.00e+00	92	32	0	891289600	48	6091
2026-01-09 00:00:18.23	0.39	55.37	-36.7	-37.5	24.3	0.00e+00	0	32	0	892338176	46	6091
2026-01-09 00:00:19.24	0.04	55.03	-36.5	-37.3	24.5	0.00e+00	92	32	0	894435328	46	5951
2026-01-09 00:00:20.25	359.70	54.70	-36.4	-37.2	24.6	0.00e+00	0	32	0	896532480	46	5889
2026-01-09 00:00:21.26	359.37	54.36	-36.2	-37.1	24.5	0.00e+00	92	32	0	898629632	46	5777
2026-01-09 00:00:22.27	359.05	54.03	-36.3	-37.1	24.7	0.00e+00	0	32	0	900726784	46	5803
2026-01-09 00:00:23.28	358.73	53.69	-36.2	-37.1	24.6	0.00e+00	92	32	0	901775360	46	5763
2026-01-09 00:00:24.29	358.42	53.36	-36.6	-37.5	24.3	0.00e+00	92	32	0	903872512	46	6037
2026-01-09 00:00:25.30	358.12	53.03	-36.5	-37.4	24.4	0.00e+00	0	32	0	905969664	46	5985
2026-01-09 00:00:26.30	357.83	52.71	-36.4	-37.3	24.6	0.00e+00	90	32	0	908066816	46	5912
2026-01-09 00:00:27.31	357.54	52.38	-36.2	-37.0	24.8	0.00e+00	0	32	0	910163968	46	5714
2026-01-09 00:00:28.32	357.26	52.05	-36.2	-37.0	24.7	0.00e+00	90	32	0	911212544	46	5726
2026-01-09 00:00:29.33	356.98	51.73	-36.4	-37.2	24.5	0.00e+00	38	32	0	913309696	46	5845
2026-01-09 00:00:30.34	356.71	51.41	-36.8	-37.6	24.2	0.00e+00	92	32	0	915406848	46	6153
2026-01-09 00:00:31.35	356.45	51.09	-37.5	-38.4	23.5	0.00e+00	92	32	0	917504000	46	6730
2026-01-09 00:00:32.36	356.19	50.77	-38.0	-39.0	23.0	0.00e+00	18	32	0	919601152	48	6431
2026-01-09 00:00:33.37	355.94	50.45	-38.8	-39.8	22.3	0.00e+00	90	32	0	920649728	48	7062
2026-01-09 00:00:34.38	355.69	50.13	-38.8	-39.9	22.2	0.00e+00	0	32	0	922746880	50	6347
2026-01-09 00:00:35.39	355.45	49.82	-38.6	-39.7	22.4	0.00e+00	92	32	0	924844032	50	6183
2026-01-09 00:00:36.39	355.22	49.51	-38.5	-39.5	22.5	0.00e+00	20	32	0	926941184	50	6070
2026-01-09 00:00:37.41	354.98	49.19	-38.6	-39.6	22.4	0.00e+00	92	32	0	929038336	50	6172
2026-01-09 00:00:38.41	354.76	48.89	-39.2	-40.3	21.8	0.00e+00	24	32	0	930086912	50	6658
2026-01-09 00:00:39.42	354.53	48.58	-39.5	-40.6	21.6	0.00e+00	18	32	0	932184064	50	6899
2026-01-09 00:00:40.44	354.31	48.27	-39.3	-40.4	21.8	0.00e+00	92	32	0	934281216	50	6715
2026-01-09 00:00:41.44	354.10	47.97	-39.2	-40.3	21.9	0.00e+00	0	32	0	936378368	50	6657
2026-01-09 00:00:42.45	353.89	47.66	-39.1	-40.2	22.0	0.00e+00	92	32	0	938475520	50	6561
2026-01-09 00:00:43.46	353.69	47.36	-38.8	-39.8	22.4	0.00e+00	0	32	0	939524096	50	6280
2026-01-09 00:00:44.47	353.48	47.06	-38.5	-39.5	22.6	0.00e+00	92	32	0	941621248	50	6049
2026-01-09 00:00:45.48	353.29	46.76	-38.5	-39.6	22.6	0.00e+00	0	32	0	943718400	50	6112
2026-01-09 00:00:46.49	353.09	46.47	-38.3	-39.3	22.8	0.00e+00	90	32	0	945815552	50	5941
2026-01-09 00:00:47.50	352.90	46.17	-38.5	-39.5	22.5	0.00e+00	92	32	0	947912704	50	6063
2026-01-09 00:00:48.50	352.72	45.88	-38.3	-39.3	22.8	0.00e+00	0	32	0	948961280	50	5906
2026-01-09 00:00:49.51	352.53	45.59	-38.5	-39.5	22.6	0.00e+00	92	32	0	951058432	50	6067
2026-01-09 00:00:50.52	352.35	45.30	-38.7	-39.8	22.3	0.00e+00	0	32	0	953155584	50	6258
2026-01-09 00:00:51.53	352.18	45.02	-38.9	-39.9	22.1	0.00e+00	91	32	0	955252736	50	6379
2026-01-09 00:00:52.54	352.00	44.73	-38.7	-39.8	22.2	0.00e+00	57	32	0	957349888	50	6260
2026-01-09 00:00:53.55	351.83	44.45	-38.7	-39.7	22.4	0.00e+00	92	32	0	959447040	50	6200
2026-01-09 00:00:54.56	351.67	44.16	-38.6	-39.7	22.5	0.00e+00	91	33	0	960495616	50	6186
2026-01-09 00:00:55.57	351.50	43.88	-38.7	-39.8	22.4	0.00e+00	62	32	0	962592768	50	6265
2026-01-09 00:00:56.58	351.34	43.61	-39.2	-40.3	21.8	0.00e+00	91	32	0	964689920	50	6690
2026-01-09 00:00:57.59	351.18	43.33	-39.6	-40.8	21.4	0.00e+00	7	32	0	966787072	50	7060
2026-01-09 00:00:58.60	351.03	43.05	-39.9	-41.1	21.1	0.00e+00	92	32	0	968884224	52	6533
2026-01-09 00:00:59.60	350.88	42.78	-40.0	-41.2	21.1	0.00e+00	7	32	0	969932800	52	6560
2026-01-09 00:01:00.61	350.73	42.51	-40.0	-41.2	21.1	0.00e+00	91	32	0	972029952	52	6572
2026-01-09 00:01:01.62	350.58	42.24	-39.7	-40.9	21.3	0.00e+00	42	32	0	974127104	52	6373
2026-01-09 00:01:02.63	350.43	41.97	-39.8	-41.0	21.3	0.00e+00	6	32	0	976224256	52	6463
2026-01-09 00:01:03.64	350.29	41.71	-39.8	-41.0	21.3	0.00e+00	96	32	0	978321408	52	6402
2026-01-09 00:01:04.65	350.15	41.44	-39.8	-41.0	21.2	0.00e+00	7	32	0	979369984	52	6407
2026-01-09 00:01:05.66	350.01	41.18	-39.7	-40.8	21.4	0.00e+00	92	32	0	981467136	52	6316
2026-01-09 00:01:06.67	349.88	40.92	-39.9	-41.0	21.2	0.00e+00	0	32	0	983564288	52	6456
2026-01-09 00:01:07.67	349.74	40.66	-39.7	-40.9	21.3	0.00e+00	92	32	0	985661440	52	6357
2026-01-09 00:01:08.69	349.61	40.40	-40.0	-41.1	21.2	0.00e+00	0	32	0	987758592	52	6538
2026-01-09 00:01:09.70	349.48	40.14	-39.9	-41.0	21.3	0.00e+00	28	32	0	988807168	52	6462
2026-01-09 00:01:10.70	349.36	39.89	-39.8	-40.9	21.3	0.00e+00	92	32	0	990904320	52	6389
2026-01-09 00:01:11.71	349.23	39.64	-39.8	-40.9	21.3	0.00e+00	62	32	0	993001472	52	6387
2026-01-09 00:01:12.72	349.11	39.39	-39.8	-40.9	21.2	0.00e+00	90	32	0	995098624	52	6382
2026-01-09 00:01:13.73	348.99	39.14	-39.6	-40.7	21.5	0.00e+00	20	32	0	997195776	52	6223
2026-01-09 00:01:14.74	348.87	38.89	-39.3	-40.4	21.8	0.00e+00	92	32	0	998244352	52	5966
2026-01-09 00:01:15.75	348.75	38.65	-39.0	-40.1	22.2	0.00e+00	61	32	0	1000341504	52	5792
2026-01-09 00:01:16.76	348.63	38.40	-38.9	-40.0	22.2	0.00e+00	56	32	0	1002438656	52	5712
2026-01-09 00:01:17.77	348.52	38.16	-38.8	-39.8	22.4	0.00e+00	92	32	0	1004535808	50	6277
2026-01-09 00:01:18.78	348.41	37.92	-38.8	-39.9	22.4	0.00e+00	61	32	0	1006632960	50	6324
2026-01-09 00:01:19.78	348.30	37.68	-38.6	-39.6	22.5	0.00e+00	90	32	0	1007681536	50	6167
2026-01-09 00:01:20.79	348.19	37.44	-38.4	-39.4	22.7	0.00e+00	20	32	0	1009778688	50	6025
2026-01-09 00:01:21.80	348.08	37.20	-38.3	-39.3	22.8	0.00e+00	92	32	0	1011875840	50	5912
2026-01-09 00:01:22.81	347.98	36.97	-38.4	-39.4	22.6	0.00e+00	21	32	0	1013972992	50	6000
2026-01-09 00:01:23.82	347.87	36.74	-38.6	-39.6	22.4	0.00e+00	92	33	0	1016070144	50	6150
2026-01-09 00:01:24.83	347.77	36.50	-38.7	-39.7	22.5	0.00e+00	70	32	0	1017118720	50	6210
2026-01-09 00:01:25.84	347.67	36.27	-38.8	-39.8	22.3	0.00e+00	0	32	0	1019215872	50	6295
2026-01-09 00:01:26.85	347.57	36.04	-38.8	-39.9	22.2	0.00e+00	92	32	0	1021313024	50	6345
2026-01-09 00:01:27.86	347.47	35.82	-38.9	-40.0	22.2	0.00e+00	0	33	0	1023410176	50	6423
2026-01-09 00:01:28.86	347.38	35.59	-39.1	-40.1	22.0	0.00e+00	92	32	0	1025507328	50	6534
2026-01-09 00:01:29.87	347.28	35.37	-39.1	-40.2	21.9	0.00e+00	0	32	0	1026555904	50	6587
2026-01-09 00:01:30.88	347.19	35.15	-39.3	-40.5	21.7	0.00e+00	68	33	0	1028653056	50	6794
2026-01-09 00:01:31.89	347.09	34.93	-39.6	-40.7	21.4	0.00e+00	0	32	0	1030750208	50	6997
2026-01-09 00:01:32.90	347.00	34.71	-39.6	-40.8	21.4	0.00e+00	0	32	0	1032847360	50	7027
2026-01-09 00:01:33.91	346.91	34.49	-39.6	-40.7	21.5	0.00e+00	90	32	0	1034944512	50	6994
2026-01-09 00:01:34.92	346.82	34.27	-39.5	-40.6	21.5	0.00e+00	60	33	0	1035993088	50	6924
2026-01-09 00:01:35.93	346.74	34.05	-39.3	-40.4	21.7	0.00e+00	91	33	0	1038090240	50	6747
2026-01-09 00:01:36.94	346.65	33.84	-39.3	-40.4	21.7	0.00e+00	21	32	0	1040187392	50	6751
2026-01-09 00:01:37.95	346.56	33.63	-39.2	-40.3	21.8	0.00e+00	20	32	0	1042284544	50	6631
2026-01-09 00:01:38.96	346.48	33.42	-39.4	-40.5	21.6	0.00e+00	5	32	0	1044381696	50	6842
2026-01-09 00:01:39.97	346.40	33.21	-39.5	-40.7	21.5	0.00e+00	62	32	0	1045430272	50	6955
2026-01-09 00:01:40.98	346.32	33.00	-39.7	-40.9	21.4	0.00e+00	91	32	0	1047527424	52	6350
2026-01-09 00:01:41.99	346.24	32.79	-39.6	-40.7	21.3	0.00e+00	0	32	0	1049624576	52	6245
2026-01-09 00:01:43.00	346.16	32.58	-39.7	-40.8	21.3	0.00e+00	90	33	0	1051721728	52	6298
2026-01-09 00:01:44.01	346.08	32.38	-39.7	-40.9	21.2	0.00e+00	20	32	0	1053818880	52	6372
2026-01-09 00:01:45.01	346.00	32.18	-39.9	-41.1	21.1	0.00e+00	2	32	0	1054867456	52	6516
2026-01-09 00:01:46.02	345.92	31.98	-40.1	-41.4	20.8	0.00e+00	23	32	0	1056964608	52	6713
2026-01-09 00:01:47.03	345.85	31.78	-40.3	-41.6	20.6	0.00e+00	0	32	0	1059061760	52	6881
2026-01-09 00:01:48.04	345.77	31.58	-40.6	-41.9	20.3	0.00e+00	36	33	0	1061158912	52	7161
2026-01-09 00:01:49.05	345.70	31.38	-40.6	-41.9	20.3	0.00e+00	0	32	0	1063256064	52	7164
2026-01-09 00:01:50.06	345.63	31.18	-40.7	-42.0	20.2	0.00e+00	90	32	0	1065353216	54	6424
2026-01-09 00:01:51.07	345.55	30.99	-40.6	-41.9	20.3	0.00e+00	0	32	0	1066401792	54	6362
2026-01-09 00:01:52.08	345.48	30.79	-40.5	-41.8	20.4	0.00e+00	92	33	0	1068498944	54	6300
2026-01-09 00:01:53.09	345.41	30.60	-40.5	-41.8	20.4	0.00e+00	0	32	0	1070596096	54	6317
2026-01-09 00:01:54.10	345.34	30.41	-40.4	-41.7	20.5	0.00e+00	0	33	0	1072693248	54	6208
2026-01-09 00:01:55.11	345.28	30.22	-40.4	-41.6	20.6	0.00e+00	0	33	0	1074790400	54	6165
2026-01-09 00:01:56.12	345.21	30.03	-40.4	-41.6	20.6	0.00e+00	0	32	0	1075838976	54	6173
2026-01-09 00:01:57.13	345.14	29.84	-40.1	-41.3	20.8	0.00e+00	90	32	0	1077936128	54	5955
2026-01-09 00:01:58.14	345.08	29.65	-39.7	-40.9	21.3	0.00e+00	60	32	0	1080033280	52	6329
2026-01-09 00:01:59.15	345.01	29.47	-39.6	-40.7	21.4	0.00e+00	90	32	0	1082130432	52	6223
2026-01-09 00:02:00.16	344.95	29.28	-39.5	-40.6	21.4	0.00e+00	61	32	0	1084227584	52	6159
2026-01-09 00:02:01.17	344.88	29.10	-39.7	-40.8	21.3	0.00e+00	61	32	0	1085276160	52	6313
2026-01-09 00:02:02.18	344.82	28.92	-39.6	-40.8	21.4	0.00e+00	2	32	0	1087373312	52	6275
2026-01-09 00:02:03.19	344.76	28.74	-39.7	-40.8	21.3	0.00e+00	0	32	0	1089470464	52	6293
2026-01-09 00:02:04.19	344.70	28.56	-39.6	-40.8	21.3	0.00e+00	92	33	0	1091567616	52	6248
2026-01-09 00:02:05.20	344.64	28.38	-39.6	-40.8	21.3	0.00e+00	22	33	0	1093664768	52	6255
2026-01-09 00:02:06.21	344.58	28.20	-39.5	-40.6	21.5	0.00e+00	92	32	0	1094713344	52	6162
2026-01-09 00:02:07.22	344.52	28.02	-39.3	-40.4	21.7	0.00e+00	22	33	0	1096810496	52	5991
2026-01-09 00:02:08.23	344.46	27.85	-39.2	-40.3	21.8	0.00e+00	12	32	0	1098907648	52	5938
2026-01-09 00:02:09.24	344.40	27.67	-39.1	-40.2	21.8	0.00e+00	0	33	0	1101004800	52	5891
2026-01-09 00:02:10.25	344.35	27.50	-38.9	-39.9	22.2	0.00e+00	2	32	0	1103101952	52	5672
2026-01-09 00:02:11.26	344.29	27.33	-38.7	-39.8	22.1	0.00e+00	24	33	0	1104150528	50	6265
2026-01-09 00:02:12.27	344.23	27.16	-38.6	-39.6	22.4	0.00e+00	0	33	0	1106247680	50	6137
2026-01-09 00:02:13.28	344.18	26.99	-38.2	-39.2	22.8	0.00e+00	92	33	0	1108344832	50	5838
2026-01-09 00:02:14.29	344.12	26.82	-38.3	-39.3	22.7	0.00e+00	58	33	0	1110441984	50	5956
2026-01-09 00:02:15.30	344.07	26.65	-38.2	-39.2	22.7	0.00e+00	92	32	0	1112539136	50	5847
2026-01-09 00:02:16.30	344.02	26.48	-38.3	-39.3	22.6	0.00e+00	58	32	0	1113587712	50	5948
2026-01-09 00:02:17.31	343.97	26.32	-38.3	-39.3	22.6	0.00e+00	0	32	0	1115684864	50	5945
2026-01-09 00:02:18.32	343.91	26.15	-38.2	-39.2	22.7	0.00e+00	0	32	0	1117782016	50	5868
2026-01-09 00:02:19.33	343.86	25.99	-38.3	-39.3	22.7	0.00e+00	0	32	0	1119879168	50	5952
2026-01-09 00:02:20.34	343.81	25.83	-38.4	-39.5	22.5	0.00e+00	92	33	0	1121976320	50	6035
2026-01-09 00:02:21.35	343.76	25.66	-38.3	-39.3	22.6	0.00e+00	59	33	0	1123024896	50	5960
2026-01-09 00:02:22.36	343.71	25.50	-38.5	-39.6	22.4	0.00e+00	92	33	0	1125122048	50	6119
2026-01-09 00:02:23.37	343.66	25.34	-38.4	-39.4	22.5	0.00e+00	57	33	0	1127219200	50	6013
2026-01-09 00:02:24.38	343.61	25.18	-38.2	-39.3	22.7	0.00e+00	6	32	0	1129316352	50	5903
2026-01-09 00:02:25.39	343.56	25.02	-38.2	-39.2	22.7	0.00e+00	25	32	0	1131413504	50	5888
2026-01-09 00:02:26.39	343.52	24.87	-38.2	-39.2	22.8	0.00e+00	5	32	0	1133510656	50	5880
2026-01-09 00:02:27.40	343.47	24.71	-37.9	-38.9	23.0	0.00e+00	48	33	0	1134559232	50	5656
2026-01-09 00:02:28.41	343.42	24.55	-38.0	-39.0	22.9	0.00e+00	25	33	0	1136656384	50	5749
2026-01-09 00:02:29.42	343.38	24.40	-37.8	-38.8	23.0	0.00e+00	92	32	0	1138753536	50	5592
2026-01-09 00:02:30.43	343.33	24.25	-37.7	-38.7	23.2	0.00e+00	6	33	0	1140850688	48	6198
2026-01-09 00:02:31.44	343.29	24.09	-37.6	-38.6	23.3	0.00e+00	26	32	0	1142947840	48	6104
2026-01-09 00:02:32.45	343.24	23.94	-37.4	-38.3	23.5	0.00e+00	6	32	0	1143996416	48	5940
2026-01-09 00:02:33.46	343.20	23.79	-37.4	-38.3	23.5	0.00e+00	0	32	0	1146093568	48	5939
2026-01-09 00:02:34.47	343.15	23.64	-37.2	-38.1	23.6	0.00e+00	0	32	0	1148190720	48	5816
2026-01-09 00:02:35.48	343.11	23.49	-37.2	-38.1	23.6	0.00e+00	0	32	0	1150287872	48	5814
2026-01-09 00:02:36.49	343.07	23.34	-37.3	-38.2	23.6	0.00e+00	91	32	0	1152385024	48	5839
2026-01-09 00:02:37.49	343.03	23.19	-37.2	-38.1	23.5	0.00e+00	58	32	0	1153433600	48	5786
2026-01-09 00:02:38.50	342.98	23.05	-37.3	-38.2	23.5	0.00e+00	92	32	0	1155530752	48	5869
2026-01-09 00:02:39.52	342.94	22.90	-37.4	-38.2	23.5	0.00e+00	57	32	0	1157627904	48	5893
2026-01-09 00:02:40.52	342.90	22.75	-37.4	-38.3	23.5	0.00e+00	0	32	0	1159725056	48	5921
2026-01-09 00:02:41.53	342.86	22.61	-37.5	-38.4	23.4	0.00e+00	4	32	0	1161822208	48	6017
2026-01-09 00:02:42.54	342.82	22.47	-37.5	-38.5	23.3	0.00e+00	37	32	0	1162870784	48	6043
2026-01-09 00:02:43.55	342.78	22.32	-37.6	-38.5	23.3	0.00e+00	92	32	0	1164967936	48	6063
2026-01-09 00:02:44.55	342.74	22.18	-37.6	-38.5	23.2	0.00e+00	27	33	0	1167065088	48	6087
2026-01-09 00:02:45.56	342.70	22.04	-37.7	-38.7	23.1	0.00e+00	92	32	0	1169162240	48	6207
2026-01-09 00:02:46.57	342.66	21.90	-37.6	-38.5	22.9	0.00e+00	57	32	0	1171259392	48	6097
2026-01-09 00:02:47.58	342.62	21.76	-37.7	-38.6	23.0	0.00e+00	28	32	0	1172307968	48	6151
2026-01-09 00:02:48.59	342.59	21.62	-37.7	-38.7	23.0	0.00e+00	5	32	0	1174405120	48	6179
2026-01-09 00:02:49.60	342.55	21.48	-37.8	-38.7	23.0	0.00e+00	6	32	0	1176502272	48	6244
2026-01-09 00:02:50.61	342.51	21.34	-37.8	-38.8	23.0	0.00e+00	25	32	0	1178599424	48	6268
2026-01-09 00:02:51.62	342.47	21.21	-37.9	-38.9	23.0	0.00e+00	31	32	0	1180696576	48	6323
2026-01-09 00:02:52.63	342.44	21.07	-38.0	-39.0	22.9	0.00e+00	92	32	0	1181745152	48	6414
2026-01-09 00:02:53.64	342.40	20.93	-38.0	-39.0	22.8	0.00e+00	0	32	0	1183842304	48	6395
2026-01-09 00:02:54.65	342.37	20.80	-38.1	-39.1	22.7	0.00e+00	44	32	0	1185939456	48	6487
2026-01-09 00:02:55.65	342.33	20.67	-38.2	-39.2	22.7	0.00e+00	6	32	0	1188036608	48	6567
2026-01-09 00:02:56.66	342.30	20.53	-38.3	-39.3	22.5	0.00e+00	6	32	0	1190133760	48	6625
2026-01-09 00:02:57.67	342.26	20.40	-38.4	-39.4	22.4	0.00e+00	0	32	0	1191182336	48	6733
2026-01-09 00:02:58.68	342.23	20.27	-38.4	-39.4	22.4	0.00e+00	0	32	0	1193279488	48	6755
2026-01-09 00:02:59.69	342.19	20.14	-38.4	-39.5	22.3	0.00e+00	92	32	0	1195376640	48	6789
