passes_logs/2026/01/08/R4.6S_Anadyr/R4.6S_Anadyr__20260108_185555_NOAA_20_JPSS-1_rec.log

#Pass ID: 20260108_185555_NOAA 20 (JPSS-1)
#Satellite: NOAA 20 (JPSS-1)
#Configuration: NOAA 20
#almurnet v.1.7.20251203
#Start time: 2026-01-08 18:55:56

#Version: 2.2.20231116
#Station: R4.6S_Anadyr
#Location: 177.4865 lon 64.73178 lat
#TLE: 1 43013U 17073A   26008.28148939  .00000118  00000+0  77102-4 0  9999
#TLE: 2 43013  98.7631 309.2920 0001742  49.0100 311.1227 14.19534407421787

#Time	Az	El	Level	Level2	SNR	BER	BlckErr	Temp	State	Recorded	gain1	gain2
2026-01-08 18:55:56.54	46.33	0.07	-48.4	-63.3	3.5	1.51e+00	0	30	0	0	60	52869
2026-01-08 18:55:57.55	46.26	0.12	-48.4	-63.6	3.6	1.51e+00	0	31	104	0	60	54679
2026-01-08 18:55:58.56	46.18	0.17	-48.4	-63.6	3.6	1.51e+00	0	31	104	0	60	54748
2026-01-08 18:55:59.56	46.11	0.22	-48.5	-63.6	3.6	1.51e+00	0	30	104	0	60	54807
2026-01-08 18:56:00.57	46.03	0.27	-48.5	-63.6	3.6	1.51e+00	0	31	104	0	60	54750
2026-01-08 18:56:01.58	45.96	0.31	-48.5	-63.7	3.6	1.51e+00	0	31	104	0	60	55270
2026-01-08 18:56:02.59	45.88	0.36	-48.6	-63.7	3.6	1.51e+00	0	31	104	0	60	55553
2026-01-08 18:56:03.60	45.80	0.41	-48.5	-63.7	3.6	1.51e+00	0	31	104	0	60	55192
2026-01-08 18:56:04.61	45.73	0.46	-48.5	-63.6	3.6	1.51e+00	0	31	104	0	60	54954
2026-01-08 18:56:05.62	45.65	0.51	-48.4	-63.5	3.6	1.51e+00	0	31	104	0	60	54384
2026-01-08 18:56:06.63	45.57	0.56	-48.4	-63.6	3.6	1.51e+00	0	31	104	0	60	54602
2026-01-08 18:56:07.64	45.50	0.61	-48.4	-63.5	3.6	1.51e+00	0	31	104	0	60	54065
2026-01-08 18:56:08.65	45.42	0.66	-48.3	-63.5	3.6	1.51e+00	0	31	104	0	60	54018
2026-01-08 18:56:09.66	45.34	0.71	-48.2	-63.4	3.6	1.51e+00	0	31	104	0	60	53386
2026-01-08 18:56:10.67	45.26	0.76	-48.0	-63.2	3.6	1.51e+00	0	31	104	0	60	52183
2026-01-08 18:56:11.67	45.18	0.81	-47.8	-63.0	3.6	1.51e+00	0	31	104	0	60	50998
2026-01-08 18:56:12.68	45.10	0.86	-47.4	-62.6	3.6	1.51e+00	0	31	104	0	60	48688
2026-01-08 18:56:13.69	45.02	0.91	-46.9	-62.0	3.6	1.51e+00	0	31	104	0	60	45711
2026-01-08 18:56:14.70	44.95	0.96	-46.8	-62.0	3.6	1.51e+00	0	31	104	0	60	45350
2026-01-08 18:56:15.71	44.87	1.01	-46.8	-62.0	3.6	1.51e+00	0	31	104	0	60	45329
2026-01-08 18:56:16.72	44.79	1.06	-46.8	-61.9	3.6	1.51e+00	0	31	104	0	60	45186
2026-01-08 18:56:17.73	44.71	1.11	-46.8	-61.9	3.6	1.51e+00	0	31	104	0	60	44982
2026-01-08 18:56:18.74	44.62	1.16	-46.8	-61.9	3.6	1.51e+00	0	31	104	0	60	45093
2026-01-08 18:56:19.75	44.54	1.21	-46.8	-61.9	3.6	1.51e+00	0	31	104	0	60	45223
2026-01-08 18:56:20.76	44.46	1.26	-46.8	-62.0	3.6	1.51e+00	0	31	104	0	60	45278
2026-01-08 18:56:21.77	44.38	1.31	-46.8	-62.0	3.6	1.51e+00	0	31	104	0	60	45398
2026-01-08 18:56:22.78	44.30	1.36	-46.8	-61.9	3.6	1.51e+00	0	31	104	0	60	45107
2026-01-08 18:56:23.79	44.22	1.41	-46.8	-61.9	3.6	1.51e+00	0	31	104	0	60	45097
2026-01-08 18:56:24.80	44.13	1.46	-46.8	-62.0	3.6	1.51e+00	0	31	104	0	60	45423
2026-01-08 18:56:25.81	44.05	1.51	-46.8	-62.0	3.6	1.51e+00	0	31	104	0	60	45278
2026-01-08 18:56:26.82	43.97	1.56	-46.8	-62.0	3.6	1.51e+00	0	31	104	0	60	45322
2026-01-08 18:56:27.83	43.89	1.61	-46.8	-61.9	3.6	1.51e+00	0	31	104	0	60	44926
2026-01-08 18:56:28.84	43.80	1.66	-46.8	-61.9	3.6	1.51e+00	0	31	104	0	60	44984
2026-01-08 18:56:29.85	43.72	1.71	-46.8	-61.9	3.6	1.51e+00	0	31	104	0	60	45059
2026-01-08 18:56:30.86	43.63	1.76	-46.8	-61.9	3.6	1.51e+00	0	31	104	0	60	45128
2026-01-08 18:56:31.87	43.55	1.81	-46.8	-61.9	3.6	1.51e+00	0	31	104	0	60	45017
2026-01-08 18:56:32.88	43.47	1.86	-46.8	-61.9	3.6	1.51e+00	0	31	104	0	60	44885
2026-01-08 18:56:33.89	43.38	1.91	-46.8	-61.9	3.6	1.51e+00	0	31	104	0	60	44879
2026-01-08 18:56:34.90	43.30	1.96	-46.8	-61.8	3.6	1.51e+00	0	31	104	0	60	44709
2026-01-08 18:56:35.91	43.21	2.02	-46.8	-61.9	3.6	1.51e+00	0	31	104	0	60	44831
2026-01-08 18:56:36.92	43.12	2.07	-46.8	-61.8	3.6	1.51e+00	0	31	104	0	60	44247
2026-01-08 18:56:37.92	43.04	2.12	-46.7	-61.7	3.6	1.51e+00	0	31	104	0	60	43810
2026-01-08 18:56:38.93	42.95	2.17	-46.8	-61.6	3.6	1.51e+00	0	31	104	0	60	43645
2026-01-08 18:56:39.94	42.86	2.22	-46.8	-61.7	3.6	1.51e+00	0	31	104	0	60	44075
2026-01-08 18:56:40.96	42.78	2.27	-46.8	-61.8	3.6	1.51e+00	0	31	104	0	60	44566
2026-01-08 18:56:41.97	42.69	2.32	-46.8	-61.9	3.6	1.51e+00	0	31	104	0	60	45057
2026-01-08 18:56:42.97	42.60	2.37	-46.8	-61.8	3.6	1.51e+00	0	31	104	0	60	44716
2026-01-08 18:56:43.99	42.51	2.42	-46.8	-61.8	3.5	1.51e+00	0	31	104	0	60	44304
2026-01-08 18:56:44.99	42.43	2.47	-46.8	-61.8	3.6	1.51e+00	0	31	104	0	60	44338
2026-01-08 18:56:46.00	42.34	2.52	-46.8	-61.9	3.6	1.51e+00	0	31	104	0	60	44962
2026-01-08 18:56:47.01	42.25	2.57	-46.8	-61.8	3.6	1.51e+00	0	31	104	0	60	44577
2026-01-08 18:56:48.02	42.16	2.62	-46.7	-61.5	3.6	1.51e+00	0	32	104	0	60	42878
2026-01-08 18:56:49.03	42.07	2.67	-46.7	-61.0	3.6	1.51e+00	0	31	104	0	60	40643
2026-01-08 18:56:50.04	41.98	2.73	-46.7	-61.1	3.6	1.51e+00	0	32	104	0	60	41113
2026-01-08 18:56:51.05	41.89	2.78	-46.7	-61.6	3.6	1.51e+00	0	31	104	0	60	43428
2026-01-08 18:56:52.06	41.80	2.83	-46.7	-61.2	3.6	1.51e+00	0	31	104	0	60	41729
2026-01-08 18:56:53.07	41.71	2.88	-46.6	-58.7	3.7	1.46e+00	0	31	104	0	60	30984
2026-01-08 18:56:54.08	41.62	2.93	-46.2	-54.4	6.1	5.56e-01	0	31	0	0	60	18911
2026-01-08 18:56:55.09	41.52	2.98	-45.7	-51.6	8.8	1.03e-01	0	31	0	2097152	60	13683
2026-01-08 18:56:56.10	41.43	3.03	-45.2	-50.2	10.2	1.47e-02	0	31	0	4194304	60	11643
2026-01-08 18:56:57.11	41.34	3.08	-46.5	-54.6	5.9	3.14e-01	0	31	0	5242880	60	19428
2026-01-08 18:56:58.12	41.25	3.13	-43.6	-46.5	15.0	2.24e-03	0	31	0	7340032	60	7598
2026-01-08 18:56:59.13	41.15	3.19	-46.6	-61.4	3.6	6.25e-01	0	31	104	8388608	60	42460
2026-01-08 18:57:00.13	41.06	3.24	-46.8	-60.0	3.7	1.51e+00	0	31	104	8388608	60	36137
2026-01-08 18:57:01.14	40.97	3.29	-45.3	-50.8	9.9	5.60e-01	0	31	104	8388608	60	12566
2026-01-08 18:57:02.15	40.87	3.34	-44.9	-49.2	11.5	2.01e-03	0	31	0	9437184	60	10482
2026-01-08 18:57:03.16	40.78	3.39	-45.1	-49.9	11.3	2.31e-03	0	31	0	11534336	60	11312
2026-01-08 18:57:04.17	40.69	3.44	-45.1	-49.9	10.5	1.57e-03	0	31	0	12582912	60	11314
2026-01-08 18:57:05.18	40.59	3.49	-45.1	-49.9	10.5	1.69e-03	0	31	0	14680064	60	11271
2026-01-08 18:57:06.19	40.50	3.54	-45.0	-49.6	10.8	2.79e-03	0	31	0	16777216	60	10930
2026-01-08 18:57:07.19	40.40	3.59	-45.2	-49.9	10.2	5.82e-03	0	31	0	18874368	60	11292
2026-01-08 18:57:08.20	40.30	3.65	-45.2	-50.1	10.6	2.53e-03	0	31	0	20971520	60	11608
2026-01-08 18:57:09.21	40.21	3.70	-45.0	-49.4	11.7	6.44e-04	0	31	0	22020096	60	10669
2026-01-08 18:57:10.23	40.11	3.75	-43.8	-46.9	14.4	8.30e-06	0	31	0	24117248	60	8000
2026-01-08 18:57:11.23	40.01	3.80	-42.7	-45.1	16.2	0.00e+00	0	31	0	26214400	60	6506
2026-01-08 18:57:12.24	39.92	3.85	-42.0	-44.1	17.0	0.00e+00	0	32	0	28311552	58	6498
2026-01-08 18:57:13.25	39.82	3.90	-41.7	-43.5	17.6	0.00e+00	0	31	0	30408704	56	6848
2026-01-08 18:57:14.26	39.72	3.95	-41.7	-43.6	17.5	0.00e+00	0	31	0	32505856	56	6911
2026-01-08 18:57:15.27	39.62	4.01	-41.7	-43.6	17.6	0.00e+00	0	32	0	33554432	56	6903
2026-01-08 18:57:16.28	39.52	4.06	-41.8	-43.8	17.6	0.00e+00	0	32	0	35651584	56	7016
2026-01-08 18:57:17.29	39.42	4.11	-41.7	-43.6	17.6	0.00e+00	0	31	0	37748736	56	6902
2026-01-08 18:57:18.30	39.32	4.16	-41.7	-43.5	17.8	0.00e+00	0	32	0	39845888	56	6805
2026-01-08 18:57:19.31	39.22	4.21	-41.6	-43.4	17.9	0.00e+00	0	32	0	41943040	56	6765
2026-01-08 18:57:20.32	39.12	4.26	-41.7	-43.6	17.7	0.00e+00	0	31	0	42991616	56	6879
2026-01-08 18:57:21.32	39.02	4.31	-41.8	-43.6	17.7	0.00e+00	0	31	0	45088768	56	6921
2026-01-08 18:57:22.33	38.92	4.37	-41.8	-43.7	17.6	0.00e+00	0	31	0	47185920	56	6967
2026-01-08 18:57:23.34	38.82	4.42	-41.6	-43.5	17.8	0.00e+00	0	31	0	49283072	56	6770
2026-01-08 18:57:24.35	38.72	4.47	-41.6	-43.5	17.9	0.00e+00	0	32	0	51380224	56	6773
2026-01-08 18:57:25.36	38.62	4.52	-41.5	-43.3	18.0	0.00e+00	0	32	0	52428800	56	6656
2026-01-08 18:57:26.37	38.52	4.57	-41.5	-43.3	18.1	0.00e+00	0	31	0	54525952	56	6649
2026-01-08 18:57:27.38	38.41	4.62	-41.5	-43.3	18.1	0.00e+00	0	31	0	56623104	56	6630
2026-01-08 18:57:28.39	38.31	4.68	-41.7	-43.5	17.9	0.00e+00	0	31	0	58720256	56	6818
2026-01-08 18:57:29.40	38.21	4.73	-41.6	-43.4	17.8	0.00e+00	0	32	0	60817408	56	6768
2026-01-08 18:57:30.41	38.10	4.78	-41.8	-43.7	17.7	0.00e+00	0	32	0	61865984	56	6933
2026-01-08 18:57:31.41	38.00	4.83	-41.4	-43.1	18.2	0.00e+00	0	31	0	63963136	56	6497
2026-01-08 18:57:32.43	37.89	4.88	-41.3	-43.0	18.4	0.00e+00	0	32	0	66060288	56	6461
2026-01-08 18:57:33.43	37.79	4.93	-41.2	-42.9	18.4	0.00e+00	0	31	0	68157440	56	6374
2026-01-08 18:57:34.44	37.68	4.99	-41.2	-42.9	18.6	0.00e+00	0	31	0	70254592	56	6344
2026-01-08 18:57:35.45	37.58	5.04	-41.2	-42.8	18.6	0.00e+00	0	32	0	71303168	56	6312
2026-01-08 18:57:36.46	37.47	5.09	-41.0	-42.7	18.7	0.00e+00	0	32	0	73400320	56	6189
2026-01-08 18:57:37.47	37.36	5.14	-41.1	-42.7	18.8	0.00e+00	0	31	0	75497472	56	6191
2026-01-08 18:57:38.48	37.26	5.19	-41.0	-42.6	18.8	0.00e+00	0	32	0	77594624	56	6128
2026-01-08 18:57:39.49	37.15	5.25	-41.0	-42.7	18.7	0.00e+00	0	32	0	79691776	56	6185
2026-01-08 18:57:40.50	37.04	5.30	-40.8	-42.4	19.0	0.00e+00	0	31	0	80740352	56	5974
2026-01-08 18:57:41.50	36.93	5.35	-40.8	-42.4	19.1	0.00e+00	0	31	0	82837504	56	5992
2026-01-08 18:57:42.51	36.83	5.40	-40.8	-42.3	19.1	0.00e+00	0	31	0	84934656	56	5955
2026-01-08 18:57:43.52	36.72	5.45	-40.8	-42.3	19.1	0.00e+00	0	32	0	87031808	56	5960
2026-01-08 18:57:44.53	36.61	5.50	-40.8	-42.3	18.9	0.00e+00	0	32	0	89128960	56	5959
2026-01-08 18:57:45.55	36.50	5.56	-40.7	-42.2	19.2	0.00e+00	0	32	0	90177536	54	6560
2026-01-08 18:57:46.56	36.39	5.61	-40.7	-42.2	19.0	0.00e+00	0	32	0	92274688	54	6567
2026-01-08 18:57:47.56	36.28	5.66	-40.7	-42.2	19.1	0.00e+00	0	32	0	94371840	54	6546
2026-01-08 18:57:48.57	36.16	5.71	-40.7	-42.2	19.1	0.00e+00	0	31	0	96468992	54	6581
2026-01-08 18:57:49.58	36.05	5.76	-40.5	-42.0	19.4	0.00e+00	0	32	0	98566144	54	6436
2026-01-08 18:57:50.59	35.94	5.81	-40.5	-41.9	19.4	0.00e+00	0	32	0	99614720	54	6367
2026-01-08 18:57:51.60	35.83	5.87	-40.4	-41.9	19.6	0.00e+00	0	32	0	101711872	54	6342
2026-01-08 18:57:52.61	35.72	5.92	-40.6	-42.1	19.4	0.00e+00	0	31	0	103809024	54	6520
2026-01-08 18:57:53.62	35.60	5.97	-40.7	-42.2	19.3	0.00e+00	0	32	0	105906176	54	6573
2026-01-08 18:57:54.63	35.49	6.02	-40.6	-42.1	19.4	0.00e+00	0	31	0	108003328	54	6492
2026-01-08 18:57:55.64	35.38	6.07	-40.3	-41.8	19.7	0.00e+00	0	32	0	109051904	54	6258
2026-01-08 18:57:56.65	35.26	6.13	-40.3	-41.7	19.7	0.00e+00	0	31	0	111149056	54	6226
2026-01-08 18:57:57.66	35.15	6.18	-40.3	-41.7	19.7	0.00e+00	0	32	0	113246208	54	6191
2026-01-08 18:57:58.67	35.03	6.23	-40.2	-41.5	19.9	0.00e+00	0	32	0	115343360	54	6098
2026-01-08 18:57:59.67	34.92	6.28	-40.3	-41.7	19.8	0.00e+00	0	32	0	117440512	54	6230
2026-01-08 18:58:00.68	34.80	6.33	-40.1	-41.5	20.0	0.00e+00	0	32	0	119537664	54	6056
2026-01-08 18:58:01.69	34.68	6.38	-40.1	-41.5	20.0	0.00e+00	0	32	0	120586240	54	6053
2026-01-08 18:58:02.70	34.57	6.44	-40.1	-41.5	20.0	0.00e+00	0	32	0	122683392	54	6056
2026-01-08 18:58:03.71	34.45	6.49	-40.1	-41.5	20.1	0.00e+00	0	32	0	124780544	54	6034
2026-01-08 18:58:04.72	34.33	6.54	-40.1	-41.5	20.0	0.00e+00	0	32	0	126877696	54	6067
2026-01-08 18:58:05.73	34.21	6.59	-40.2	-41.6	19.9	0.00e+00	0	32	0	128974848	54	6121
2026-01-08 18:58:06.74	34.10	6.64	-40.3	-41.7	19.8	0.00e+00	0	31	0	130023424	54	6232
2026-01-08 18:58:07.75	33.98	6.69	-40.3	-41.6	19.9	0.00e+00	0	32	0	132120576	54	6171
2026-01-08 18:58:08.76	33.86	6.75	-40.2	-41.6	19.9	0.00e+00	0	32	0	134217728	54	6150
2026-01-08 18:58:09.77	33.74	6.80	-40.3	-41.6	19.9	0.00e+00	0	32	0	136314880	54	6163
2026-01-08 18:58:10.78	33.62	6.85	-40.2	-41.6	20.0	0.00e+00	0	32	0	138412032	54	6114
2026-01-08 18:58:11.79	33.50	6.90	-40.3	-41.6	19.9	0.00e+00	0	32	0	139460608	54	6158
2026-01-08 18:58:12.80	33.37	6.95	-40.2	-41.6	19.9	0.00e+00	0	32	0	141557760	54	6148
2026-01-08 18:58:13.81	33.25	7.00	-40.3	-41.6	19.8	0.00e+00	0	32	0	143654912	54	6159
2026-01-08 18:58:14.82	33.13	7.06	-40.3	-41.7	19.9	0.00e+00	0	32	0	145752064	54	6187
2026-01-08 18:58:15.82	33.01	7.11	-40.3	-41.7	19.9	0.00e+00	0	32	0	147849216	54	6174
2026-01-08 18:58:16.83	32.89	7.16	-40.2	-41.5	20.0	0.00e+00	0	32	0	148897792	54	6088
2026-01-08 18:58:17.84	32.76	7.21	-40.3	-41.6	20.0	0.00e+00	0	31	0	150994944	54	6158
2026-01-08 18:58:18.85	32.64	7.26	-40.1	-41.4	20.3	0.00e+00	0	32	0	153092096	54	5994
2026-01-08 18:58:19.86	32.51	7.31	-40.0	-41.3	20.2	0.00e+00	0	32	0	155189248	54	5944
2026-01-08 18:58:20.87	32.39	7.36	-40.0	-41.4	20.2	0.00e+00	0	32	0	157286400	54	5975
2026-01-08 18:58:21.88	32.26	7.42	-40.2	-41.5	20.2	0.00e+00	0	32	0	158334976	54	6075
2026-01-08 18:58:22.89	32.14	7.47	-40.2	-41.5	20.1	0.00e+00	0	32	0	160432128	54	6073
2026-01-08 18:58:23.90	32.01	7.52	-40.0	-41.3	20.2	0.00e+00	0	32	0	162529280	54	5923
2026-01-08 18:58:24.91	31.88	7.57	-40.0	-41.3	20.3	0.00e+00	0	31	0	164626432	54	5961
2026-01-08 18:58:25.92	31.76	7.62	-39.8	-41.1	20.4	0.00e+00	0	32	0	166723584	54	5804
2026-01-08 18:58:26.93	31.63	7.67	-40.0	-41.3	20.2	0.00e+00	0	32	0	167772160	54	5923
2026-01-08 18:58:27.94	31.50	7.72	-39.9	-41.2	20.4	0.00e+00	0	32	0	169869312	54	5843
2026-01-08 18:58:28.95	31.37	7.78	-40.1	-41.4	20.3	0.00e+00	0	32	0	171966464	54	6000
2026-01-08 18:58:29.96	31.24	7.83	-39.9	-41.1	20.5	0.00e+00	0	32	0	174063616	54	5820
2026-01-08 18:58:30.96	31.12	7.88	-39.9	-41.2	20.4	0.00e+00	0	32	0	176160768	54	5879
2026-01-08 18:58:31.97	30.99	7.93	-39.9	-41.2	20.5	0.00e+00	0	32	0	177209344	54	5842
2026-01-08 18:58:32.98	30.86	7.98	-39.8	-41.1	20.5	0.00e+00	0	32	0	179306496	54	5776
2026-01-08 18:58:33.99	30.73	8.03	-39.9	-41.1	20.5	0.00e+00	0	32	0	181403648	54	5827
2026-01-08 18:58:35.00	30.59	8.08	-39.8	-41.0	20.6	0.00e+00	0	32	0	183500800	52	6431
2026-01-08 18:58:36.01	30.46	8.13	-39.9	-41.2	20.5	0.00e+00	0	32	0	185597952	52	6554
2026-01-08 18:58:37.02	30.33	8.18	-39.7	-41.0	20.7	0.00e+00	0	32	0	187695104	52	6424
2026-01-08 18:58:38.03	30.20	8.23	-39.8	-41.1	20.5	0.00e+00	0	32	0	188743680	52	6516
2026-01-08 18:58:39.04	30.06	8.29	-39.7	-41.0	20.7	0.00e+00	0	32	0	190840832	52	6407
2026-01-08 18:58:40.05	29.93	8.34	-39.9	-41.2	20.6	0.00e+00	0	32	0	192937984	52	6550
2026-01-08 18:58:41.05	29.80	8.39	-39.7	-41.0	20.7	0.00e+00	0	32	0	195035136	52	6429
2026-01-08 18:58:42.06	29.66	8.44	-39.8	-41.1	20.6	0.00e+00	0	32	0	197132288	52	6468
2026-01-08 18:58:43.07	29.53	8.49	-39.8	-41.0	20.6	0.00e+00	0	32	0	198180864	52	6440
2026-01-08 18:58:44.08	29.39	8.54	-39.8	-41.0	20.8	0.00e+00	0	32	0	200278016	52	6437
2026-01-08 18:58:45.09	29.26	8.59	-39.6	-40.8	20.9	0.00e+00	0	32	0	202375168	52	6289
2026-01-08 18:58:46.10	29.12	8.64	-39.6	-40.8	20.9	0.00e+00	0	32	0	204472320	52	6263
2026-01-08 18:58:47.11	28.98	8.69	-39.5	-40.7	21.0	0.00e+00	0	32	0	206569472	52	6231
2026-01-08 18:58:48.12	28.85	8.74	-39.5	-40.8	21.0	0.00e+00	0	32	0	207618048	52	6249
2026-01-08 18:58:49.13	28.71	8.79	-39.6	-40.8	20.9	0.00e+00	0	32	0	209715200	52	6313
2026-01-08 18:58:50.14	28.57	8.84	-39.5	-40.7	21.0	0.00e+00	0	32	0	211812352	52	6236
2026-01-08 18:58:51.14	28.43	8.89	-39.6	-40.8	21.0	0.00e+00	0	32	0	213909504	52	6247
2026-01-08 18:58:52.16	28.29	8.94	-39.5	-40.6	21.1	0.00e+00	0	32	0	216006656	52	6167
2026-01-08 18:58:53.17	28.15	8.99	-39.5	-40.7	21.0	0.00e+00	0	32	0	217055232	52	6220
2026-01-08 18:58:54.18	28.01	9.04	-39.4	-40.6	21.1	0.00e+00	0	32	0	219152384	52	6164
2026-01-08 18:58:55.18	27.87	9.09	-39.5	-40.7	21.0	0.00e+00	0	32	0	221249536	52	6235
2026-01-08 18:58:56.19	27.73	9.14	-39.5	-40.7	20.9	0.00e+00	0	32	0	223346688	52	6232
2026-01-08 18:58:57.21	27.59	9.19	-39.5	-40.7	21.1	0.00e+00	0	32	0	225443840	52	6187
2026-01-08 18:58:58.22	27.44	9.24	-39.5	-40.7	21.0	0.00e+00	0	32	0	226492416	52	6218
2026-01-08 18:58:59.23	27.30	9.29	-39.5	-40.7	21.0	0.00e+00	0	32	0	228589568	52	6198
2026-01-08 18:59:00.23	27.16	9.34	-39.5	-40.7	21.0	0.00e+00	0	32	0	230686720	52	6205
2026-01-08 18:59:01.25	27.01	9.39	-39.6	-40.8	20.9	0.00e+00	0	32	0	232783872	52	6290
2026-01-08 18:59:02.26	26.87	9.44	-39.6	-40.8	20.9	0.00e+00	0	32	0	234881024	52	6257
2026-01-08 18:59:03.27	26.72	9.49	-39.6	-40.9	20.9	0.00e+00	0	32	0	235929600	52	6320
2026-01-08 18:59:04.28	26.58	9.54	-39.6	-40.9	20.9	0.00e+00	0	32	0	238026752	52	6325
2026-01-08 18:59:05.29	26.43	9.59	-39.6	-40.8	21.0	0.00e+00	0	32	0	240123904	52	6265
2026-01-08 18:59:06.30	26.29	9.63	-39.5	-40.8	21.0	0.00e+00	0	32	0	242221056	52	6249
2026-01-08 18:59:07.30	26.14	9.68	-39.7	-40.9	21.0	0.00e+00	0	32	0	244318208	52	6349
2026-01-08 18:59:08.31	25.99	9.73	-39.5	-40.7	21.0	0.00e+00	0	32	0	245366784	52	6201
2026-01-08 18:59:09.32	25.85	9.78	-39.6	-40.8	20.9	0.00e+00	0	32	0	247463936	52	6267
2026-01-08 18:59:10.33	25.70	9.83	-39.5	-40.7	21.0	0.00e+00	0	32	0	249561088	52	6209
2026-01-08 18:59:11.34	25.55	9.88	-39.5	-40.7	21.1	0.00e+00	0	32	0	251658240	52	6210
2026-01-08 18:59:12.35	25.40	9.93	-39.4	-40.6	21.2	0.00e+00	0	32	0	253755392	52	6107
2026-01-08 18:59:13.36	25.25	9.98	-39.3	-40.5	21.3	0.00e+00	0	32	0	255852544	52	6068
2026-01-08 18:59:14.37	25.10	10.02	-39.4	-40.5	21.1	0.00e+00	0	32	0	256901120	52	6099
2026-01-08 18:59:15.38	24.95	10.07	-39.1	-40.3	21.5	0.00e+00	0	32	0	258998272	52	5907
2026-01-08 18:59:16.39	24.80	10.12	-39.0	-40.1	21.6	0.00e+00	0	32	0	261095424	52	5804
2026-01-08 18:59:17.40	24.64	10.17	-38.9	-40.0	21.8	0.00e+00	0	32	0	263192576	52	5747
2026-01-08 18:59:18.41	24.49	10.22	-38.9	-40.0	21.7	0.00e+00	0	32	0	265289728	52	5728
2026-01-08 18:59:19.41	24.34	10.26	-38.9	-40.0	21.6	0.00e+00	0	32	0	266338304	52	5750
2026-01-08 18:59:20.42	24.19	10.31	-38.8	-39.9	21.7	0.00e+00	0	32	0	268435456	52	5664
2026-01-08 18:59:21.43	24.03	10.36	-38.8	-39.9	21.9	0.00e+00	0	32	0	270532608	52	5672
2026-01-08 18:59:22.44	23.88	10.41	-38.9	-40.0	21.8	0.00e+00	0	32	0	272629760	52	5707
2026-01-08 18:59:23.45	23.72	10.45	-38.7	-39.8	22.0	0.00e+00	0	32	0	273678336	50	6261
2026-01-08 18:59:24.46	23.57	10.50	-38.4	-39.5	22.2	0.00e+00	0	32	0	275775488	50	6062
2026-01-08 18:59:25.47	23.41	10.55	-38.5	-39.5	22.1	0.00e+00	0	32	0	277872640	50	6091
2026-01-08 18:59:26.48	23.25	10.60	-38.3	-39.3	22.3	0.00e+00	0	32	0	279969792	50	5943
2026-01-08 18:59:27.48	23.10	10.64	-38.3	-39.3	22.4	0.00e+00	0	32	0	282066944	50	5920
2026-01-08 18:59:28.49	22.94	10.69	-38.3	-39.3	22.4	0.00e+00	0	32	0	284164096	50	5951
2026-01-08 18:59:29.50	22.78	10.74	-38.1	-39.1	22.6	0.00e+00	0	32	0	285212672	50	5816
2026-01-08 18:59:30.51	22.62	10.78	-38.1	-39.1	22.6	0.00e+00	0	32	0	287309824	50	5817
2026-01-08 18:59:31.52	22.47	10.83	-38.1	-39.1	22.5	0.00e+00	0	32	0	289406976	50	5824
2026-01-08 18:59:32.53	22.31	10.88	-38.0	-39.0	22.6	0.00e+00	0	32	0	291504128	50	5738
2026-01-08 18:59:33.54	22.15	10.92	-38.0	-39.0	22.6	0.00e+00	0	32	0	293601280	50	5753
2026-01-08 18:59:34.55	21.98	10.97	-38.1	-39.1	22.6	0.00e+00	0	32	0	294649856	50	5767
2026-01-08 18:59:35.56	21.82	11.01	-38.1	-39.2	22.5	0.00e+00	0	32	0	296747008	50	5836
2026-01-08 18:59:36.57	21.66	11.06	-38.0	-39.0	22.6	0.00e+00	0	32	0	298844160	50	5740
2026-01-08 18:59:37.57	21.50	11.10	-38.0	-39.0	22.6	0.00e+00	0	32	0	300941312	50	5738
2026-01-08 18:59:38.58	21.34	11.15	-37.9	-38.9	22.8	0.00e+00	0	32	0	303038464	50	5656
2026-01-08 18:59:39.59	21.18	11.20	-38.0	-39.0	22.6	0.00e+00	0	32	0	304087040	50	5740
2026-01-08 18:59:40.60	21.01	11.24	-37.9	-38.9	22.8	0.00e+00	0	32	0	306184192	50	5641
2026-01-08 18:59:41.61	20.85	11.29	-37.9	-38.9	22.8	0.00e+00	0	32	0	308281344	50	5632
2026-01-08 18:59:42.62	20.68	11.33	-37.8	-38.8	23.0	0.00e+00	0	32	0	310378496	50	5569
2026-01-08 18:59:43.63	20.52	11.38	-37.9	-38.8	22.8	0.00e+00	0	32	0	312475648	48	6312
2026-01-08 18:59:44.64	20.35	11.42	-37.7	-38.7	23.0	0.00e+00	0	32	0	313524224	48	6183
2026-01-08 18:59:45.65	20.19	11.46	-37.8	-38.8	22.9	0.00e+00	0	32	0	315621376	48	6254
2026-01-08 18:59:46.66	20.02	11.51	-37.6	-38.5	23.2	0.00e+00	0	32	0	317718528	48	6068
2026-01-08 18:59:47.66	19.85	11.55	-37.6	-38.6	23.1	0.00e+00	0	32	0	319815680	48	6126
2026-01-08 18:59:48.67	19.68	11.60	-37.5	-38.5	23.2	0.00e+00	0	32	0	321912832	48	6036
2026-01-08 18:59:49.69	19.51	11.64	-37.5	-38.5	23.1	0.00e+00	0	32	0	322961408	48	6048
2026-01-08 18:59:50.70	19.35	11.68	-37.5	-38.5	23.2	0.00e+00	0	32	0	325058560	48	6052
2026-01-08 18:59:51.70	19.18	11.73	-37.4	-38.3	23.3	0.00e+00	0	32	0	327155712	48	5960
2026-01-08 18:59:52.71	19.01	11.77	-37.5	-38.4	23.1	0.00e+00	0	32	0	329252864	48	6007
2026-01-08 18:59:53.72	18.84	11.81	-37.3	-38.2	23.3	0.00e+00	0	32	0	331350016	48	5860
2026-01-08 18:59:54.73	18.67	11.86	-37.2	-38.1	23.2	0.00e+00	0	32	0	332398592	48	5773
2026-01-08 18:59:55.74	18.50	11.90	-37.0	-37.9	23.7	0.00e+00	0	32	0	334495744	48	5662
2026-01-08 18:59:56.75	18.32	11.94	-37.1	-37.9	23.6	0.00e+00	0	32	0	336592896	48	5687
2026-01-08 18:59:57.76	18.15	11.99	-37.0	-37.9	23.7	0.00e+00	0	32	0	338690048	48	5647
2026-01-08 18:59:58.76	17.98	12.03	-37.1	-38.0	23.6	0.00e+00	0	32	0	340787200	48	5738
2026-01-08 18:59:59.77	17.81	12.07	-37.1	-38.0	23.6	0.00e+00	0	32	0	341835776	48	5744
2026-01-08 19:00:00.78	17.63	12.11	-37.0	-37.9	23.7	0.00e+00	0	32	0	343932928	48	5675
2026-01-08 19:00:01.79	17.46	12.15	-37.2	-38.1	23.5	0.00e+00	0	32	0	346030080	48	5797
2026-01-08 19:00:02.80	17.28	12.19	-37.0	-37.9	23.7	0.00e+00	0	32	0	348127232	48	5673
2026-01-08 19:00:03.80	17.11	12.24	-37.1	-38.1	23.6	0.00e+00	0	32	0	350224384	48	5762
2026-01-08 19:00:04.81	16.93	12.28	-37.2	-38.1	23.5	0.00e+00	0	32	0	352321536	48	5820
2026-01-08 19:00:05.82	16.76	12.32	-37.4	-38.3	23.4	0.00e+00	0	32	0	353370112	48	5911
2026-01-08 19:00:06.83	16.58	12.36	-37.6	-38.5	23.1	0.00e+00	0	32	0	355467264	48	6092
2026-01-08 19:00:07.83	16.40	12.40	-37.5	-38.4	23.3	0.00e+00	0	32	0	357564416	48	5998
2026-01-08 19:00:08.84	16.23	12.44	-37.4	-38.3	23.3	0.00e+00	0	32	0	359661568	48	5909
2026-01-08 19:00:09.85	16.05	12.48	-37.4	-38.2	23.4	0.00e+00	0	32	0	361758720	48	5896
2026-01-08 19:00:10.86	15.87	12.52	-37.3	-38.2	23.4	0.00e+00	0	32	0	362807296	48	5876
2026-01-08 19:00:11.88	15.69	12.56	-37.4	-38.3	23.4	0.00e+00	0	32	0	364904448	48	5941
2026-01-08 19:00:12.89	15.51	12.60	-37.5	-38.4	23.2	0.00e+00	0	32	0	367001600	48	6007
2026-01-08 19:00:13.89	15.33	12.64	-37.7	-38.6	23.1	0.00e+00	0	32	0	369098752	48	6160
2026-01-08 19:00:14.90	15.15	12.68	-37.7	-38.6	23.1	0.00e+00	0	32	0	371195904	48	6162
2026-01-08 19:00:15.91	14.97	12.72	-37.6	-38.5	23.1	0.00e+00	0	32	0	372244480	48	6102
2026-01-08 19:00:16.93	14.78	12.75	-37.6	-38.5	23.2	0.00e+00	0	32	0	374341632	48	6099
2026-01-08 19:00:17.94	14.60	12.79	-37.6	-38.6	23.1	0.00e+00	0	32	0	376438784	48	6142
2026-01-08 19:00:18.95	14.42	12.83	-37.7	-38.7	23.0	0.00e+00	0	32	0	378535936	48	6200
2026-01-08 19:00:19.96	14.24	12.87	-37.7	-38.6	23.1	0.00e+00	0	32	0	380633088	48	6146
2026-01-08 19:00:20.97	14.05	12.91	-37.8	-38.8	22.9	0.00e+00	0	32	0	381681664	48	6250
2026-01-08 19:00:21.98	13.87	12.94	-37.6	-38.6	23.1	0.00e+00	0	32	0	383778816	48	6120
2026-01-08 19:00:22.98	13.68	12.98	-37.5	-38.4	23.3	0.00e+00	0	32	0	385875968	48	5992
2026-01-08 19:00:23.99	13.50	13.02	-37.5	-38.4	23.2	0.00e+00	0	32	0	387973120	48	5984
2026-01-08 19:00:25.00	13.31	13.06	-37.5	-38.5	23.0	0.00e+00	0	32	0	390070272	48	6036
2026-01-08 19:00:26.01	13.13	13.09	-37.6	-38.5	23.1	0.00e+00	0	32	0	391118848	48	6071
2026-01-08 19:00:27.02	12.94	13.13	-37.5	-38.4	23.4	0.00e+00	0	32	0	393216000	48	5978
2026-01-08 19:00:28.03	12.75	13.16	-37.6	-38.5	23.2	0.00e+00	0	32	0	395313152	48	6069
2026-01-08 19:00:29.04	12.57	13.20	-37.5	-38.4	23.3	0.00e+00	0	32	0	397410304	48	6020
2026-01-08 19:00:30.05	12.38	13.24	-37.6	-38.6	23.2	0.00e+00	0	32	0	399507456	48	6115
2026-01-08 19:00:31.06	12.19	13.27	-37.4	-38.4	23.3	0.00e+00	0	32	0	400556032	48	5976
2026-01-08 19:00:32.07	12.00	13.31	-37.3	-38.2	23.5	0.00e+00	0	32	0	402653184	48	5844
2026-01-08 19:00:33.08	11.81	13.34	-37.3	-38.2	23.4	0.00e+00	0	32	0	404750336	48	5887
2026-01-08 19:00:34.09	11.62	13.37	-37.3	-38.2	23.5	0.00e+00	0	32	0	406847488	48	5860
2026-01-08 19:00:35.09	11.43	13.41	-37.3	-38.2	23.4	0.00e+00	0	32	0	408944640	48	5885
2026-01-08 19:00:36.10	11.24	13.44	-37.3	-38.2	23.4	0.00e+00	0	32	0	409993216	48	5883
2026-01-08 19:00:37.11	11.05	13.48	-37.3	-38.2	23.4	0.00e+00	0	32	0	412090368	48	5892
2026-01-08 19:00:38.12	10.86	13.51	-37.4	-38.3	22.7	0.00e+00	0	32	0	414187520	48	5961
2026-01-08 19:00:39.13	10.67	13.54	-37.4	-38.3	23.0	0.00e+00	0	32	0	416284672	48	5928
2026-01-08 19:00:40.14	10.48	13.58	-37.2	-38.1	23.5	0.00e+00	0	32	0	418381824	48	5824
2026-01-08 19:00:41.15	10.28	13.61	-37.3	-38.2	23.4	0.00e+00	0	32	0	419430400	48	5875
2026-01-08 19:00:42.16	10.09	13.64	-37.3	-38.2	23.5	0.00e+00	0	32	0	421527552	48	5844
2026-01-08 19:00:43.17	9.90	13.67	-37.5	-38.4	23.3	0.00e+00	0	32	0	423624704	48	5980
2026-01-08 19:00:44.18	9.70	13.70	-37.3	-38.2	23.4	0.00e+00	0	32	0	425721856	48	5895
2026-01-08 19:00:45.19	9.51	13.74	-37.4	-38.3	23.4	0.00e+00	0	32	0	427819008	48	5956
2026-01-08 19:00:46.20	9.31	13.77	-37.2	-38.1	23.6	0.00e+00	0	32	0	428867584	48	5818
2026-01-08 19:00:47.21	9.12	13.80	-37.3	-38.2	23.5	0.00e+00	0	32	0	430964736	48	5848
2026-01-08 19:00:48.22	8.92	13.83	-37.1	-38.0	23.6	0.00e+00	0	32	0	433061888	48	5746
2026-01-08 19:00:49.23	8.72	13.86	-37.3	-38.2	23.5	0.00e+00	0	32	0	435159040	48	5854
2026-01-08 19:00:50.23	8.53	13.89	-37.2	-38.1	23.5	0.00e+00	0	32	0	437256192	48	5827
2026-01-08 19:00:51.24	8.33	13.92	-37.2	-38.1	23.5	0.00e+00	0	32	0	438304768	48	5813
2026-01-08 19:00:52.25	8.14	13.95	-37.2	-38.1	23.4	0.00e+00	0	32	0	440401920	48	5822
2026-01-08 19:00:53.26	7.94	13.98	-37.0	-37.9	23.7	0.00e+00	0	32	0	442499072	48	5680
2026-01-08 19:00:54.27	7.74	14.01	-37.0	-37.9	23.8	0.00e+00	0	32	0	444596224	48	5636
2026-01-08 19:00:55.28	7.54	14.03	-37.1	-38.0	23.6	0.00e+00	0	32	0	446693376	48	5728
2026-01-08 19:00:56.29	7.34	14.06	-37.1	-38.0	23.7	0.00e+00	0	32	0	448790528	48	5710
2026-01-08 19:00:57.30	7.14	14.09	-37.2	-38.1	23.6	0.00e+00	0	32	0	449839104	48	5803
2026-01-08 19:00:58.31	6.94	14.12	-37.2	-38.1	23.5	0.00e+00	0	32	0	451936256	48	5817
2026-01-08 19:00:59.32	6.74	14.15	-37.1	-38.0	23.6	0.00e+00	0	32	0	454033408	48	5729
2026-01-08 19:01:00.33	6.54	14.17	-37.2	-38.1	23.5	0.00e+00	0	32	0	456130560	48	5809
2026-01-08 19:01:01.34	6.34	14.20	-37.0	-37.9	23.8	0.00e+00	0	32	0	458227712	48	5658
2026-01-08 19:01:02.35	6.14	14.22	-37.0	-37.9	23.8	0.00e+00	0	32	0	459276288	48	5640
2026-01-08 19:01:03.36	5.94	14.25	-37.0	-37.9	23.7	0.00e+00	0	32	0	461373440	48	5654
2026-01-08 19:01:04.36	5.74	14.28	-37.1	-38.0	23.5	0.00e+00	0	32	0	463470592	48	5742
2026-01-08 19:01:05.37	5.54	14.30	-37.2	-38.1	23.6	0.00e+00	0	32	0	465567744	48	5803
2026-01-08 19:01:06.38	5.33	14.33	-37.3	-38.2	23.5	0.00e+00	0	32	0	467664896	48	5871
2026-01-08 19:01:07.39	5.13	14.35	-37.3	-38.2	23.5	0.00e+00	0	32	0	468713472	48	5893
2026-01-08 19:01:08.40	4.93	14.38	-37.4	-38.3	23.4	0.00e+00	0	32	0	470810624	48	5956
2026-01-08 19:01:09.41	4.72	14.40	-37.3	-38.2	23.6	0.00e+00	0	32	0	472907776	48	5880
2026-01-08 19:01:10.42	4.52	14.42	-37.3	-38.2	23.6	0.00e+00	0	32	0	475004928	48	5842
2026-01-08 19:01:11.43	4.31	14.45	-37.3	-38.2	23.6	0.00e+00	0	32	0	477102080	48	5852
2026-01-08 19:01:12.44	4.11	14.47	-37.3	-38.2	23.5	0.00e+00	0	32	0	478150656	48	5856
2026-01-08 19:01:13.45	3.91	14.49	-37.4	-38.3	23.4	0.00e+00	0	32	0	480247808	48	5929
2026-01-08 19:01:14.46	3.70	14.51	-37.5	-38.4	23.3	0.00e+00	0	32	0	482344960	48	6002
2026-01-08 19:01:15.47	3.49	14.54	-37.5	-38.4	23.2	0.00e+00	0	32	0	484442112	48	6021
2026-01-08 19:01:16.48	3.29	14.56	-37.5	-38.4	23.3	0.00e+00	0	32	0	486539264	48	6004
2026-01-08 19:01:17.49	3.08	14.58	-37.6	-38.5	23.2	0.00e+00	0	32	0	487587840	48	6072
2026-01-08 19:01:18.50	2.88	14.60	-37.5	-38.4	23.3	0.00e+00	0	32	0	489684992	48	6029
2026-01-08 19:01:19.51	2.67	14.62	-37.6	-38.5	23.3	0.00e+00	0	32	0	491782144	48	6088
2026-01-08 19:01:20.51	2.46	14.64	-37.7	-38.7	23.2	0.00e+00	0	32	0	493879296	48	6200
2026-01-08 19:01:21.52	2.26	14.66	-37.9	-38.8	23.0	0.00e+00	0	32	0	495976448	48	6301
2026-01-08 19:01:22.53	2.05	14.68	-38.0	-39.0	22.9	0.00e+00	0	32	0	497025024	48	6418
2026-01-08 19:01:23.54	1.84	14.70	-38.2	-39.2	22.8	0.00e+00	0	32	0	499122176	48	6577
2026-01-08 19:01:24.55	1.63	14.72	-38.3	-39.2	22.7	0.00e+00	0	32	0	501219328	48	6604
2026-01-08 19:01:25.56	1.43	14.73	-37.9	-38.8	23.0	0.00e+00	0	32	0	503316480	48	6303
2026-01-08 19:01:26.57	1.22	14.75	-37.9	-38.9	23.0	0.00e+00	0	32	0	505413632	48	6340
2026-01-08 19:01:27.58	1.01	14.77	-37.6	-38.6	23.3	0.00e+00	0	32	0	506462208	48	6111
2026-01-08 19:01:28.59	0.80	14.79	-37.4	-38.3	23.4	0.00e+00	0	32	0	508559360	48	5960
2026-01-08 19:01:29.60	0.59	14.80	-37.6	-38.5	23.2	0.00e+00	0	32	0	510656512	48	6064
2026-01-08 19:01:30.60	0.38	14.82	-37.6	-38.6	23.2	0.00e+00	0	32	0	512753664	48	6109
2026-01-08 19:01:31.62	0.17	14.84	-37.6	-38.5	23.3	0.00e+00	0	32	0	514850816	48	6052
2026-01-08 19:01:32.62	359.96	14.85	-37.6	-38.6	23.2	0.00e+00	0	32	0	516947968	48	6113
2026-01-08 19:01:33.63	359.75	14.87	-37.4	-38.3	23.5	0.00e+00	0	32	0	517996544	48	5907
2026-01-08 19:01:34.64	359.54	14.88	-37.5	-38.4	23.4	0.00e+00	0	32	0	520093696	48	6007
2026-01-08 19:01:35.65	359.33	14.90	-37.4	-38.3	23.5	0.00e+00	0	32	0	522190848	48	5941
2026-01-08 19:01:36.66	359.12	14.91	-37.4	-38.3	23.5	0.00e+00	0	32	0	524288000	48	5908
2026-01-08 19:01:37.67	358.91	14.93	-37.4	-38.3	23.5	0.00e+00	0	32	0	526385152	48	5916
2026-01-08 19:01:38.68	358.70	14.94	-37.5	-38.4	23.4	0.00e+00	0	32	0	527433728	48	5983
2026-01-08 19:01:39.69	358.48	14.95	-37.5	-38.4	23.3	0.00e+00	0	32	0	529530880	48	6027
2026-01-08 19:01:40.70	358.27	14.96	-37.5	-38.4	23.3	0.00e+00	0	32	0	531628032	48	6029
2026-01-08 19:01:41.70	358.06	14.98	-37.6	-38.6	23.2	0.00e+00	0	32	0	533725184	48	6120
2026-01-08 19:01:42.71	357.85	14.99	-37.4	-38.3	23.4	0.00e+00	0	32	0	535822336	48	5960
2026-01-08 19:01:43.72	357.64	15.00	-37.4	-38.3	23.4	0.00e+00	0	32	0	536870912	48	5952
2026-01-08 19:01:44.73	357.43	15.01	-37.4	-38.3	23.4	0.00e+00	0	32	0	538968064	48	5964
2026-01-08 19:01:45.74	357.21	15.02	-37.4	-38.4	23.4	0.00e+00	0	32	0	541065216	48	5969
2026-01-08 19:01:46.75	357.00	15.03	-37.5	-38.4	23.3	0.00e+00	0	32	0	543162368	48	6022
2026-01-08 19:01:47.76	356.79	15.04	-37.5	-38.4	23.3	0.00e+00	0	32	0	545259520	48	6031
2026-01-08 19:01:48.77	356.58	15.05	-37.6	-38.5	23.3	0.00e+00	0	32	0	546308096	48	6061
2026-01-08 19:01:49.78	356.36	15.06	-37.7	-38.7	23.1	0.00e+00	0	32	0	548405248	48	6187
2026-01-08 19:01:50.79	356.15	15.07	-37.6	-38.5	23.3	0.00e+00	0	32	0	550502400	48	6058
2026-01-08 19:01:51.80	355.94	15.08	-37.5	-38.4	23.3	0.00e+00	0	32	0	552599552	48	6029
2026-01-08 19:01:52.81	355.72	15.09	-37.4	-38.4	23.4	0.00e+00	0	32	0	554696704	48	5966
2026-01-08 19:01:53.82	355.51	15.09	-37.5	-38.4	23.3	0.00e+00	0	32	0	555745280	48	5980
2026-01-08 19:01:54.83	355.30	15.10	-37.5	-38.5	23.3	0.00e+00	0	32	0	557842432	48	6046
2026-01-08 19:01:55.84	355.08	15.11	-37.4	-38.4	23.4	0.00e+00	0	32	0	559939584	48	5981
2026-01-08 19:01:56.85	354.87	15.11	-37.6	-38.6	23.2	0.00e+00	0	32	0	562036736	48	6125
2026-01-08 19:01:57.86	354.65	15.12	-37.7	-38.6	23.2	0.00e+00	0	32	0	564133888	48	6128
2026-01-08 19:01:58.87	354.44	15.12	-37.7	-38.7	23.1	0.00e+00	0	32	0	565182464	48	6189
2026-01-08 19:01:59.87	354.23	15.13	-37.5	-38.5	23.3	0.00e+00	0	32	0	567279616	48	6038
2026-01-08 19:02:00.88	354.01	15.13	-37.5	-38.4	23.5	0.00e+00	0	32	0	569376768	48	5980
2026-01-08 19:02:01.89	353.80	15.14	-37.4	-38.3	23.4	0.00e+00	0	32	0	571473920	48	5952
2026-01-08 19:02:02.90	353.58	15.14	-37.4	-38.3	23.4	0.00e+00	0	32	0	573571072	48	5952
2026-01-08 19:02:03.91	353.37	15.15	-37.5	-38.5	23.5	0.00e+00	0	32	0	574619648	48	6052
2026-01-08 19:02:04.91	353.16	15.15	-37.5	-38.5	23.2	0.00e+00	0	32	0	576716800	48	6035
2026-01-08 19:02:05.93	352.94	15.15	-37.7	-38.6	23.2	0.00e+00	0	32	0	578813952	48	6172
2026-01-08 19:02:06.93	352.73	15.15	-37.6	-38.5	23.3	0.00e+00	0	32	0	580911104	48	6095
2026-01-08 19:02:07.94	352.51	15.16	-37.6	-38.5	23.2	0.00e+00	0	32	0	583008256	48	6097
2026-01-08 19:02:08.95	352.30	15.16	-37.5	-38.4	23.4	0.00e+00	0	32	0	584056832	48	6003
2026-01-08 19:02:09.96	352.08	15.16	-37.5	-38.4	23.3	0.00e+00	0	32	0	586153984	48	6004
2026-01-08 19:02:10.97	351.87	15.16	-37.7	-38.6	23.2	0.00e+00	0	32	0	588251136	48	6134
2026-01-08 19:02:11.98	351.66	15.16	-37.5	-38.4	23.4	0.00e+00	0	32	0	590348288	48	6026
2026-01-08 19:02:12.99	351.44	15.16	-37.6	-38.5	23.3	0.00e+00	0	32	0	592445440	48	6097
2026-01-08 19:02:13.99	351.23	15.16	-37.6	-38.5	23.3	0.00e+00	0	32	0	593494016	48	6072
2026-01-08 19:02:15.00	351.01	15.16	-37.5	-38.4	23.4	0.00e+00	0	32	0	595591168	48	6023
2026-01-08 19:02:16.01	350.80	15.16	-37.5	-38.4	23.4	0.00e+00	0	32	0	597688320	48	6015
2026-01-08 19:02:17.02	350.58	15.16	-37.3	-38.2	23.5	0.00e+00	0	32	0	599785472	48	5878
2026-01-08 19:02:18.03	350.37	15.15	-37.3	-38.2	22.9	0.00e+00	0	32	0	601882624	48	5878
2026-01-08 19:02:19.04	350.16	15.15	-37.3	-38.3	23.5	0.00e+00	0	32	0	602931200	48	5899
2026-01-08 19:02:20.05	349.94	15.15	-37.4	-38.3	23.4	0.00e+00	0	32	0	605028352	48	5899
2026-01-08 19:02:21.06	349.73	15.14	-37.5	-38.4	23.3	0.00e+00	0	32	0	607125504	48	6001
2026-01-08 19:02:22.07	349.51	15.14	-37.5	-38.4	23.3	0.00e+00	0	32	0	609222656	48	6006
2026-01-08 19:02:23.08	349.30	15.14	-37.4	-38.3	23.4	0.00e+00	0	32	0	611319808	48	5961
2026-01-08 19:02:24.09	349.08	15.13	-37.5	-38.4	23.3	0.00e+00	0	32	0	613416960	48	6019
2026-01-08 19:02:25.10	348.87	15.13	-37.7	-38.6	23.2	0.00e+00	0	32	0	614465536	48	6147
2026-01-08 19:02:26.11	348.66	15.12	-37.5	-38.4	23.3	0.00e+00	0	32	0	616562688	48	6030
2026-01-08 19:02:27.11	348.44	15.12	-37.6	-38.5	23.3	0.00e+00	0	32	0	618659840	48	6073
2026-01-08 19:02:28.12	348.23	15.11	-37.7	-38.6	23.2	0.00e+00	0	32	0	620756992	48	6167
2026-01-08 19:02:29.13	348.02	15.10	-37.9	-38.8	23.1	0.00e+00	0	32	0	622854144	48	6311
2026-01-08 19:02:30.14	347.80	15.10	-38.0	-39.0	22.9	0.00e+00	0	32	0	623902720	48	6405
2026-01-08 19:02:31.15	347.59	15.09	-37.9	-38.9	22.8	0.00e+00	0	32	0	625999872	48	6370
2026-01-08 19:02:32.15	347.38	15.08	-37.9	-38.9	22.9	0.00e+00	0	32	0	628097024	48	6362
2026-01-08 19:02:33.16	347.16	15.07	-37.9	-38.9	23.0	0.00e+00	0	32	0	630194176	48	6348
2026-01-08 19:02:34.17	346.95	15.06	-38.0	-38.9	22.9	0.00e+00	0	32	0	632291328	48	6367
2026-01-08 19:02:35.18	346.74	15.06	-37.8	-38.7	23.1	0.00e+00	0	32	0	633339904	48	6214
2026-01-08 19:02:36.19	346.52	15.05	-37.7	-38.6	23.2	0.00e+00	0	32	0	635437056	48	6158
2026-01-08 19:02:37.20	346.31	15.04	-37.6	-38.6	23.2	0.00e+00	0	32	0	637534208	48	6111
2026-01-08 19:02:38.21	346.10	15.03	-37.5	-38.5	23.3	0.00e+00	0	32	0	639631360	48	6037
2026-01-08 19:02:39.22	345.89	15.02	-37.4	-38.4	23.4	0.00e+00	0	32	0	641728512	48	5977
2026-01-08 19:02:40.23	345.67	15.00	-37.5	-38.4	23.3	0.00e+00	0	32	0	642777088	48	6032
2026-01-08 19:02:41.24	345.46	14.99	-37.6	-38.6	23.0	0.00e+00	0	32	0	644874240	48	6107
2026-01-08 19:02:42.25	345.25	14.98	-37.7	-38.7	23.1	0.00e+00	0	32	0	646971392	48	6182
2026-01-08 19:02:43.26	345.04	14.97	-37.8	-38.8	23.0	0.00e+00	0	32	0	649068544	48	6295
2026-01-08 19:02:44.27	344.82	14.96	-37.9	-38.9	22.9	0.00e+00	0	32	0	651165696	48	6333
2026-01-08 19:02:45.28	344.61	14.94	-37.9	-38.9	22.9	0.00e+00	0	32	0	652214272	48	6363
2026-01-08 19:02:46.29	344.40	14.93	-38.0	-38.9	22.9	0.00e+00	0	32	0	654311424	48	6373
2026-01-08 19:02:47.29	344.19	14.92	-37.9	-38.9	22.8	0.00e+00	0	32	0	656408576	48	6347
2026-01-08 19:02:48.31	343.98	14.90	-37.9	-38.9	23.0	0.00e+00	0	32	0	658505728	48	6329
2026-01-08 19:02:49.32	343.77	14.89	-37.6	-38.5	23.2	0.00e+00	0	32	0	660602880	48	6085
2026-01-08 19:02:50.32	343.56	14.87	-37.5	-38.4	23.3	0.00e+00	0	32	0	661651456	48	5985
2026-01-08 19:02:51.33	343.35	14.86	-37.5	-38.4	23.4	0.00e+00	0	32	0	663748608	48	6009
2026-01-08 19:02:52.34	343.14	14.84	-37.5	-38.5	23.4	0.00e+00	0	32	0	665845760	48	6046
2026-01-08 19:02:53.35	342.93	14.83	-37.5	-38.4	23.2	0.00e+00	0	32	0	667942912	48	6028
2026-01-08 19:02:54.36	342.72	14.81	-37.5	-38.5	23.3	0.00e+00	0	32	0	670040064	48	6043
2026-01-08 19:02:55.37	342.51	14.80	-37.7	-38.6	23.2	0.00e+00	0	32	0	671088640	48	6141
2026-01-08 19:02:56.38	342.30	14.78	-37.5	-38.4	23.3	0.00e+00	0	32	0	673185792	48	6029
2026-01-08 19:02:57.38	342.09	14.76	-37.5	-38.5	23.3	0.00e+00	0	32	0	675282944	48	6043
2026-01-08 19:02:58.39	341.88	14.74	-37.4	-38.4	23.4	0.00e+00	0	32	0	677380096	48	5983
2026-01-08 19:02:59.40	341.68	14.73	-37.4	-38.3	23.4	0.00e+00	0	32	0	679477248	48	5944
2026-01-08 19:03:00.41	341.47	14.71	-37.2	-38.1	23.6	0.00e+00	0	32	0	681574400	48	5821
2026-01-08 19:03:01.42	341.26	14.69	-37.2	-38.1	23.5	0.00e+00	0	32	0	682622976	48	5823
2026-01-08 19:03:02.43	341.05	14.67	-37.2	-38.0	23.6	0.00e+00	0	32	0	684720128	48	5758
2026-01-08 19:03:03.44	340.84	14.65	-37.3	-38.2	23.4	0.00e+00	0	32	0	686817280	48	5870
2026-01-08 19:03:04.45	340.64	14.63	-37.4	-38.3	23.5	0.00e+00	0	32	0	688914432	48	5936
2026-01-08 19:03:05.46	340.43	14.61	-37.4	-38.3	23.3	0.00e+00	0	32	0	691011584	48	5924
2026-01-08 19:03:06.46	340.23	14.59	-37.5	-38.4	23.3	0.00e+00	0	32	0	692060160	48	6026
2026-01-08 19:03:07.47	340.02	14.57	-37.6	-38.5	23.2	0.00e+00	0	32	0	694157312	48	6098
2026-01-08 19:03:08.48	339.81	14.55	-37.5	-38.4	23.3	0.00e+00	0	32	0	696254464	48	6000
2026-01-08 19:03:09.49	339.61	14.52	-37.5	-38.4	23.4	0.00e+00	0	32	0	698351616	48	6015
2026-01-08 19:03:10.50	339.40	14.50	-37.4	-38.3	23.4	0.00e+00	0	32	0	699400192	48	5960
2026-01-08 19:03:11.51	339.20	14.48	-37.5	-38.4	23.4	0.00e+00	0	32	0	701497344	48	5999
2026-01-08 19:03:12.52	338.99	14.46	-37.3	-38.3	23.4	0.00e+00	0	32	0	703594496	48	5897
2026-01-08 19:03:13.53	338.79	14.43	-37.4	-38.3	23.5	0.00e+00	0	32	0	705691648	48	5913
2026-01-08 19:03:14.54	338.58	14.41	-37.3	-38.2	23.5	0.00e+00	0	32	0	707788800	48	5887
2026-01-08 19:03:15.55	338.38	14.39	-37.4	-38.3	23.5	0.00e+00	0	32	0	709885952	48	5921
2026-01-08 19:03:16.56	338.18	14.36	-37.4	-38.3	23.4	0.00e+00	0	32	0	710934528	48	5947
2026-01-08 19:03:17.57	337.97	14.34	-37.5	-38.4	23.3	0.00e+00	0	32	0	713031680	48	6006
2026-01-08 19:03:18.58	337.77	14.31	-37.6	-38.5	23.3	0.00e+00	0	32	0	715128832	48	6065
2026-01-08 19:03:19.59	337.57	14.29	-37.6	-38.5	23.1	0.00e+00	0	32	0	717225984	48	6103
2026-01-08 19:03:20.60	337.37	14.26	-37.7	-38.6	23.1	0.00e+00	0	32	0	719323136	48	6140
2026-01-08 19:03:21.60	337.17	14.24	-37.8	-38.7	23.0	0.00e+00	0	32	0	720371712	48	6245
2026-01-08 19:03:22.61	336.96	14.21	-37.8	-38.7	23.1	0.00e+00	0	32	0	722468864	48	6231
2026-01-08 19:03:23.62	336.76	14.18	-37.7	-38.7	23.1	0.00e+00	0	32	0	724566016	48	6190
2026-01-08 19:03:24.63	336.56	14.16	-37.8	-38.7	23.0	0.00e+00	0	32	0	726663168	48	6243
2026-01-08 19:03:25.63	336.36	14.13	-37.8	-38.8	23.0	0.00e+00	0	32	0	728760320	48	6249
2026-01-08 19:03:26.64	336.16	14.10	-37.9	-38.9	22.9	0.00e+00	0	32	0	729808896	48	6329
2026-01-08 19:03:27.65	335.96	14.08	-37.9	-38.9	22.8	0.00e+00	0	32	0	731906048	48	6350
2026-01-08 19:03:28.66	335.77	14.05	-38.0	-39.0	22.8	0.00e+00	0	32	0	734003200	48	6409
2026-01-08 19:03:29.67	335.57	14.02	-37.9	-38.9	22.9	0.00e+00	0	32	0	736100352	48	6343
2026-01-08 19:03:30.68	335.37	13.99	-38.1	-39.1	22.7	0.00e+00	0	32	0	738197504	48	6475
2026-01-08 19:03:31.69	335.17	13.96	-37.9	-38.9	22.9	0.00e+00	0	32	0	739246080	48	6325
2026-01-08 19:03:32.70	334.97	13.93	-38.1	-39.1	22.6	0.00e+00	0	32	0	741343232	48	6466
2026-01-08 19:03:33.71	334.78	13.90	-38.0	-39.0	22.8	0.00e+00	0	32	0	743440384	48	6426
2026-01-08 19:03:34.72	334.58	13.87	-38.0	-38.9	22.9	0.00e+00	0	32	0	745537536	48	6378
2026-01-08 19:03:35.72	334.38	13.84	-38.0	-39.0	22.8	0.00e+00	0	32	0	747634688	48	6427
2026-01-08 19:03:36.73	334.19	13.81	-38.1	-39.1	22.7	0.00e+00	0	32	0	748683264	48	6533
2026-01-08 19:03:37.74	333.99	13.78	-37.9	-38.9	22.9	0.00e+00	0	32	0	750780416	48	6320
2026-01-08 19:03:38.75	333.80	13.75	-38.0	-39.0	22.9	0.00e+00	0	32	0	752877568	48	6397
2026-01-08 19:03:39.76	333.60	13.72	-37.7	-38.6	23.2	0.00e+00	0	32	0	754974720	48	6151
2026-01-08 19:03:40.77	333.41	13.69	-37.6	-38.5	23.2	0.00e+00	0	32	0	757071872	48	6066
2026-01-08 19:03:41.78	333.21	13.66	-37.8	-38.7	23.0	0.00e+00	0	32	0	758120448	48	6205
2026-01-08 19:03:42.79	333.02	13.62	-37.5	-38.4	23.3	0.00e+00	0	32	0	760217600	48	6021
2026-01-08 19:03:43.80	332.83	13.59	-37.7	-38.6	23.0	0.00e+00	0	32	0	762314752	48	6150
2026-01-08 19:03:44.81	332.63	13.56	-37.4	-38.4	23.0	0.00e+00	0	32	0	764411904	48	5971
2026-01-08 19:03:45.81	332.44	13.53	-37.5	-38.5	23.2	0.00e+00	0	32	0	766509056	48	6034
2026-01-08 19:03:46.83	332.25	13.49	-37.6	-38.5	23.2	0.00e+00	0	32	0	767557632	48	6063
2026-01-08 19:03:47.83	332.06	13.46	-37.6	-38.5	23.0	0.00e+00	0	32	0	769654784	48	6103
2026-01-08 19:03:48.84	331.87	13.43	-37.6	-38.6	23.0	0.00e+00	0	32	0	771751936	48	6118
2026-01-08 19:03:49.85	331.68	13.39	-37.5	-38.4	23.2	0.00e+00	0	32	0	773849088	48	6033
2026-01-08 19:03:50.86	331.49	13.36	-37.6	-38.5	23.2	0.00e+00	0	32	0	775946240	48	6053
2026-01-08 19:03:51.87	331.30	13.32	-37.7	-38.6	23.2	0.00e+00	0	32	0	778043392	48	6142
2026-01-08 19:03:52.88	331.11	13.29	-37.6	-38.6	23.2	0.00e+00	0	32	0	779091968	48	6115
2026-01-08 19:03:53.89	330.92	13.25	-37.5	-38.4	23.3	0.00e+00	0	32	0	781189120	48	6007
2026-01-08 19:03:54.90	330.73	13.22	-37.4	-38.4	23.4	0.00e+00	0	32	0	783286272	48	5978
2026-01-08 19:03:55.91	330.55	13.18	-37.5	-38.4	23.3	0.00e+00	0	32	0	785383424	48	5996
2026-01-08 19:03:56.92	330.36	13.15	-37.5	-38.4	23.3	0.00e+00	0	32	0	787480576	48	5993
2026-01-08 19:03:57.93	330.17	13.11	-37.6	-38.5	23.2	0.00e+00	0	32	0	788529152	48	6056
2026-01-08 19:03:58.94	329.98	13.07	-37.6	-38.5	23.1	0.00e+00	0	32	0	790626304	48	6095
2026-01-08 19:03:59.95	329.80	13.04	-37.5	-38.4	23.3	0.00e+00	0	32	0	792723456	48	6011
2026-01-08 19:04:00.96	329.61	13.00	-37.6	-38.5	23.2	0.00e+00	0	32	0	794820608	48	6092
2026-01-08 19:04:01.97	329.43	12.96	-37.5	-38.4	23.1	0.00e+00	0	32	0	796917760	48	6020
2026-01-08 19:04:02.98	329.24	12.93	-37.5	-38.4	23.2	0.00e+00	0	32	0	797966336	48	6001
2026-01-08 19:04:03.99	329.06	12.89	-37.5	-38.4	23.2	0.00e+00	0	32	0	800063488	48	5987
2026-01-08 19:04:05.00	328.88	12.85	-37.5	-38.4	23.3	0.00e+00	0	32	0	802160640	48	5999
2026-01-08 19:04:06.01	328.69	12.81	-37.6	-38.5	23.3	0.00e+00	0	32	0	804257792	48	6063
2026-01-08 19:04:07.02	328.51	12.77	-37.5	-38.4	23.4	0.00e+00	0	32	0	806354944	48	6015
2026-01-08 19:04:08.03	328.33	12.73	-37.2	-38.1	23.6	0.00e+00	0	32	0	807403520	48	5811
2026-01-08 19:04:09.04	328.15	12.70	-37.3	-38.2	23.4	0.00e+00	0	32	0	809500672	48	5895
2026-01-08 19:04:10.04	327.97	12.66	-37.5	-38.4	23.4	0.00e+00	0	32	0	811597824	48	5979
2026-01-08 19:04:11.05	327.79	12.62	-37.3	-38.2	23.6	0.00e+00	0	32	0	813694976	48	5840
2026-01-08 19:04:12.06	327.61	12.58	-37.5	-38.4	23.4	0.00e+00	0	32	0	815792128	48	5977
2026-01-08 19:04:13.07	327.43	12.54	-37.3	-38.2	23.4	0.00e+00	0	32	0	816840704	48	5878
2026-01-08 19:04:14.08	327.25	12.50	-37.5	-38.4	23.3	0.00e+00	0	32	0	818937856	48	6006
2026-01-08 19:04:15.09	327.07	12.46	-37.3	-38.2	23.5	0.00e+00	0	32	0	821035008	48	5856
2026-01-08 19:04:16.10	326.89	12.42	-37.5	-38.4	23.3	0.00e+00	0	31	0	823132160	48	5989
2026-01-08 19:04:17.11	326.71	12.38	-37.4	-38.3	23.3	0.00e+00	0	32	0	825229312	48	5948
2026-01-08 19:04:18.12	326.54	12.34	-37.5	-38.5	23.2	0.00e+00	0	32	0	826277888	48	6041
2026-01-08 19:04:19.12	326.36	12.30	-37.7	-38.6	23.1	0.00e+00	0	32	0	828375040	48	6134
2026-01-08 19:04:20.13	326.18	12.26	-37.8	-38.7	23.1	0.00e+00	0	32	0	830472192	48	6220
2026-01-08 19:04:21.14	326.01	12.21	-37.8	-38.8	22.9	0.00e+00	0	32	0	832569344	48	6270
2026-01-08 19:04:22.15	325.83	12.17	-38.0	-39.0	22.7	0.00e+00	0	32	0	834666496	48	6410
2026-01-08 19:04:23.16	325.66	12.13	-38.1	-39.1	22.7	0.00e+00	0	32	0	835715072	48	6497
2026-01-08 19:04:24.17	325.48	12.09	-38.3	-39.3	22.6	0.00e+00	0	32	0	837812224	48	6650
2026-01-08 19:04:25.18	325.31	12.05	-38.2	-39.2	22.6	0.00e+00	0	32	0	839909376	48	6608
2026-01-08 19:04:26.19	325.14	12.01	-38.4	-39.5	22.3	0.00e+00	0	31	0	842006528	48	6777
2026-01-08 19:04:27.19	324.97	11.96	-38.3	-39.3	22.5	0.00e+00	0	32	0	844103680	48	6639
2026-01-08 19:04:28.21	324.79	11.92	-38.3	-39.3	22.5	0.00e+00	0	32	0	846200832	48	6659
2026-01-08 19:04:29.22	324.62	11.88	-38.4	-39.4	22.4	0.00e+00	0	32	0	847249408	48	6742
2026-01-08 19:04:30.23	324.45	11.84	-38.4	-39.4	22.3	0.00e+00	0	32	0	849346560	48	6764
2026-01-08 19:04:31.24	324.28	11.79	-38.5	-39.5	22.4	0.00e+00	0	32	0	851443712	48	6795
2026-01-08 19:04:32.24	324.11	11.75	-38.6	-39.6	22.2	0.00e+00	0	31	0	853540864	48	6900
2026-01-08 19:04:33.25	323.94	11.71	-38.6	-39.6	22.2	0.00e+00	0	32	0	855638016	48	6922
2026-01-08 19:04:34.26	323.77	11.66	-38.7	-39.8	22.0	0.00e+00	0	31	0	856686592	48	7049
2026-01-08 19:04:35.27	323.60	11.62	-38.8	-39.9	21.9	0.00e+00	0	31	0	858783744	50	6347
2026-01-08 19:04:36.28	323.43	11.57	-38.8	-39.9	21.9	0.00e+00	0	31	0	860880896	50	6318
2026-01-08 19:04:37.29	323.27	11.53	-39.0	-40.1	21.8	0.00e+00	0	32	0	862978048	50	6487
2026-01-08 19:04:38.30	323.10	11.49	-39.0	-40.1	21.7	0.00e+00	0	32	0	864026624	50	6520
2026-01-08 19:04:39.31	322.93	11.44	-39.2	-40.3	21.6	0.00e+00	0	32	0	866123776	50	6627
2026-01-08 19:04:40.32	322.77	11.40	-39.2	-40.3	21.5	0.00e+00	0	32	0	868220928	50	6685
2026-01-08 19:04:41.33	322.60	11.35	-39.3	-40.5	21.4	0.00e+00	0	32	0	870318080	50	6775
2026-01-08 19:04:42.34	322.44	11.31	-39.4	-40.6	21.3	0.00e+00	0	32	0	872415232	50	6880
2026-01-08 19:04:43.34	322.27	11.26	-39.5	-40.6	21.3	0.00e+00	0	32	0	874512384	50	6915
2026-01-08 19:04:44.35	322.11	11.22	-39.5	-40.6	21.3	0.00e+00	0	32	0	875560960	50	6894
2026-01-08 19:04:45.36	321.94	11.17	-39.6	-40.8	21.2	0.00e+00	0	32	0	877658112	50	7016
2026-01-08 19:04:46.37	321.78	11.13	-39.6	-40.8	21.1	0.00e+00	0	32	0	879755264	50	7068
2026-01-08 19:04:47.38	321.62	11.08	-39.6	-40.8	21.1	0.00e+00	0	32	0	881852416	50	7029
2026-01-08 19:04:48.39	321.46	11.04	-39.5	-40.7	21.2	0.00e+00	0	32	0	883949568	50	6969
2026-01-08 19:04:49.40	321.30	10.99	-39.5	-40.6	21.1	0.00e+00	0	32	0	884998144	50	6916
2026-01-08 19:04:50.41	321.13	10.94	-39.6	-40.8	21.0	0.00e+00	0	32	0	887095296	50	7054
2026-01-08 19:04:51.42	320.97	10.90	-39.7	-40.9	21.0	0.00e+00	0	32	0	889192448	50	7095
2026-01-08 19:04:52.43	320.81	10.85	-39.7	-40.9	20.9	0.00e+00	0	32	0	891289600	50	7160
2026-01-08 19:04:53.44	320.65	10.80	-39.9	-41.1	20.7	0.00e+00	0	32	0	893386752	52	6524
2026-01-08 19:04:54.45	320.50	10.76	-40.0	-41.2	20.7	0.00e+00	0	32	0	894435328	52	6587
2026-01-08 19:04:55.46	320.34	10.71	-40.2	-41.5	20.4	0.00e+00	0	32	0	896532480	52	6812
2026-01-08 19:04:56.47	320.18	10.66	-40.2	-41.5	20.5	0.00e+00	0	32	0	898629632	52	6820
2026-01-08 19:04:57.48	320.02	10.62	-40.3	-41.6	20.4	0.00e+00	0	32	0	900726784	52	6865
2026-01-08 19:04:58.48	319.87	10.57	-40.4	-41.7	20.2	0.00e+00	0	32	0	902823936	52	6992
2026-01-08 19:04:59.49	319.71	10.52	-40.2	-41.5	20.5	0.00e+00	0	32	0	903872512	52	6778
2026-01-08 19:05:00.50	319.55	10.48	-40.2	-41.5	20.4	0.00e+00	0	32	0	905969664	52	6816
2026-01-08 19:05:01.51	319.40	10.43	-40.1	-41.4	20.5	0.00e+00	0	32	0	908066816	52	6702
2026-01-08 19:05:02.52	319.24	10.38	-40.0	-41.2	20.7	0.00e+00	0	32	0	910163968	52	6605
2026-01-08 19:05:03.53	319.09	10.33	-40.0	-41.3	20.6	0.00e+00	0	32	0	912261120	52	6638
2026-01-08 19:05:04.53	318.94	10.29	-40.2	-41.4	20.5	0.00e+00	0	32	0	913309696	52	6748
2026-01-08 19:05:05.54	318.78	10.24	-40.2	-41.5	20.4	0.00e+00	0	32	0	915406848	52	6827
2026-01-08 19:05:06.55	318.63	10.19	-40.3	-41.6	20.4	0.00e+00	0	32	0	917504000	52	6881
2026-01-08 19:05:07.56	318.48	10.14	-40.4	-41.7	20.1	0.00e+00	0	32	0	919601152	52	6969
2026-01-08 19:05:08.57	318.33	10.10	-40.4	-41.7	20.2	0.00e+00	0	32	0	921698304	52	6948
2026-01-08 19:05:09.57	318.18	10.05	-40.4	-41.8	20.1	0.00e+00	0	32	0	922746880	52	7043
2026-01-08 19:05:10.59	318.03	10.00	-40.5	-41.8	20.1	0.00e+00	0	32	0	924844032	52	7063
2026-01-08 19:05:11.60	317.87	9.95	-40.5	-41.9	20.0	0.00e+00	0	32	0	926941184	52	7137
2026-01-08 19:05:12.60	317.73	9.90	-40.5	-41.9	20.0	0.00e+00	0	32	0	929038336	52	7111
2026-01-08 19:05:13.62	317.58	9.85	-40.6	-42.0	19.9	0.00e+00	0	32	0	931135488	52	7220
2026-01-08 19:05:14.62	317.43	9.80	-40.6	-42.0	20.0	0.00e+00	0	32	0	932184064	52	7217
2026-01-08 19:05:15.63	317.28	9.76	-40.6	-41.9	20.0	0.00e+00	0	32	0	934281216	52	7169
2026-01-08 19:05:16.64	317.13	9.71	-40.7	-42.1	19.9	0.00e+00	0	31	0	936378368	52	7279
2026-01-08 19:05:17.65	316.99	9.66	-40.4	-41.7	20.2	0.00e+00	0	32	0	938475520	52	6985
2026-01-08 19:05:18.66	316.84	9.61	-40.4	-41.7	20.2	0.00e+00	0	32	0	940572672	52	6992
2026-01-08 19:05:19.67	316.69	9.56	-40.4	-41.8	20.1	0.00e+00	0	32	0	942669824	52	7009
2026-01-08 19:05:20.68	316.55	9.51	-40.5	-41.9	20.0	0.00e+00	0	32	0	943718400	52	7130
2026-01-08 19:05:21.69	316.40	9.46	-40.6	-42.0	19.8	0.00e+00	0	32	0	945815552	52	7237
2026-01-08 19:05:22.70	316.26	9.41	-40.5	-41.8	20.1	0.00e+00	0	32	0	947912704	52	7086
2026-01-08 19:05:23.71	316.11	9.36	-40.4	-41.8	20.2	0.00e+00	0	32	0	950009856	52	7017
2026-01-08 19:05:24.72	315.97	9.31	-40.4	-41.7	20.2	0.00e+00	0	32	0	952107008	52	6976
2026-01-08 19:05:25.72	315.83	9.26	-40.5	-41.9	20.0	0.00e+00	0	32	0	953155584	52	7106
2026-01-08 19:05:26.73	315.68	9.21	-40.1	-41.4	20.4	0.00e+00	0	32	0	955252736	52	6762
2026-01-08 19:05:27.74	315.54	9.16	-40.2	-41.4	20.3	0.00e+00	0	32	0	957349888	52	6764
2026-01-08 19:05:28.75	315.40	9.11	-40.2	-41.5	20.4	0.00e+00	0	32	0	959447040	52	6808
2026-01-08 19:05:29.76	315.26	9.06	-40.0	-41.2	20.6	0.00e+00	0	32	0	961544192	52	6590
2026-01-08 19:05:30.77	315.12	9.01	-39.9	-41.2	20.6	0.00e+00	0	32	0	962592768	52	6561
2026-01-08 19:05:31.78	314.98	8.96	-40.0	-41.2	20.6	0.00e+00	0	32	0	964689920	52	6594
2026-01-08 19:05:32.79	314.84	8.91	-39.9	-41.2	20.6	0.00e+00	0	32	0	966787072	52	6575
2026-01-08 19:05:33.80	314.70	8.86	-39.9	-41.1	20.7	0.00e+00	0	32	0	968884224	52	6511
2026-01-08 19:05:34.81	314.56	8.81	-39.9	-41.1	20.7	0.00e+00	0	32	0	970981376	52	6534
2026-01-08 19:05:35.82	314.42	8.76	-39.9	-41.2	20.7	0.00e+00	0	32	0	972029952	52	6555
2026-01-08 19:05:36.83	314.28	8.71	-39.9	-41.2	20.8	0.00e+00	0	32	0	974127104	52	6545
2026-01-08 19:05:37.84	314.15	8.66	-39.8	-41.0	20.8	0.00e+00	0	32	0	976224256	52	6440
2026-01-08 19:05:38.84	314.01	8.61	-39.8	-41.0	20.8	0.00e+00	0	32	0	978321408	52	6455
2026-01-08 19:05:39.85	313.87	8.56	-39.7	-40.9	20.9	0.00e+00	0	32	0	980418560	52	6370
2026-01-08 19:05:40.86	313.74	8.51	-39.8	-41.1	20.8	0.00e+00	0	32	0	981467136	52	6480
2026-01-08 19:05:41.86	313.60	8.46	-39.7	-40.9	20.9	0.00e+00	0	32	0	983564288	52	6325
2026-01-08 19:05:42.87	313.47	8.41	-39.5	-40.7	21.1	0.00e+00	0	32	0	985661440	52	6189
2026-01-08 19:05:43.88	313.33	8.36	-39.6	-40.8	21.0	0.00e+00	0	32	0	987758592	52	6248
2026-01-08 19:05:44.89	313.20	8.31	-39.7	-40.9	20.9	0.00e+00	0	32	0	989855744	52	6366
2026-01-08 19:05:45.90	313.07	8.26	-39.6	-40.8	21.0	0.00e+00	0	32	0	990904320	52	6298
2026-01-08 19:05:46.91	312.93	8.21	-39.5	-40.7	21.1	0.00e+00	0	32	0	993001472	52	6175
2026-01-08 19:05:47.92	312.80	8.16	-39.4	-40.6	21.1	0.00e+00	0	32	0	995098624	52	6131
2026-01-08 19:05:48.93	312.67	8.11	-39.5	-40.7	21.0	0.00e+00	0	32	0	997195776	52	6177
2026-01-08 19:05:49.94	312.54	8.06	-39.2	-40.4	21.3	0.00e+00	0	32	0	999292928	52	5991
2026-01-08 19:05:50.95	312.41	8.00	-39.3	-40.5	21.3	0.00e+00	0	32	0	1000341504	52	6036
2026-01-08 19:05:51.95	312.28	7.95	-39.1	-40.3	21.4	0.00e+00	0	32	0	1002438656	52	5920
2026-01-08 19:05:52.97	312.15	7.90	-38.9	-40.0	21.7	0.00e+00	0	32	0	1004535808	52	5703
2026-01-08 19:05:53.98	312.02	7.85	-38.8	-39.9	21.8	0.00e+00	0	32	0	1006632960	52	5669
2026-01-08 19:05:54.98	311.89	7.80	-38.9	-40.0	21.7	0.00e+00	0	32	0	1008730112	52	5726
2026-01-08 19:05:55.99	311.76	7.75	-38.9	-40.1	21.7	0.00e+00	0	32	0	1009778688	52	5768
2026-01-08 19:05:57.00	311.63	7.70	-38.7	-39.8	21.8	0.00e+00	0	32	0	1011875840	52	5620
2026-01-08 19:05:58.01	311.50	7.65	-38.9	-40.1	21.6	0.00e+00	0	32	0	1013972992	50	6470
2026-01-08 19:05:59.02	311.38	7.60	-38.7	-39.7	21.9	0.00e+00	0	32	0	1016070144	50	6228
2026-01-08 19:06:00.03	311.25	7.54	-38.6	-39.7	21.9	0.00e+00	0	32	0	1018167296	50	6204
2026-01-08 19:06:01.04	311.12	7.49	-38.7	-39.8	21.9	0.00e+00	0	32	0	1019215872	50	6251
2026-01-08 19:06:02.05	311.00	7.44	-38.5	-39.6	22.0	0.00e+00	0	32	0	1021313024	50	6120
2026-01-08 19:06:03.06	310.87	7.39	-38.7	-39.7	21.9	0.00e+00	0	32	0	1023410176	50	6230
2026-01-08 19:06:04.07	310.74	7.34	-38.8	-39.9	21.7	0.00e+00	0	32	0	1025507328	50	6359
2026-01-08 19:06:05.08	310.62	7.29	-38.7	-39.7	21.8	0.00e+00	0	32	0	1027604480	50	6232
2026-01-08 19:06:06.09	310.50	7.24	-38.6	-39.6	21.9	0.00e+00	0	32	0	1028653056	50	6156
2026-01-08 19:06:07.10	310.37	7.18	-38.4	-39.4	22.0	0.00e+00	0	32	0	1030750208	50	6033
2026-01-08 19:06:08.10	310.25	7.13	-38.4	-39.4	22.1	0.00e+00	0	32	0	1032847360	50	6020
2026-01-08 19:06:09.11	310.13	7.08	-38.4	-39.4	22.2	0.00e+00	0	32	0	1034944512	50	6006
2026-01-08 19:06:10.12	310.00	7.03	-38.4	-39.5	22.0	0.00e+00	0	32	0	1037041664	50	6047
2026-01-08 19:06:11.13	309.88	6.98	-38.4	-39.4	22.1	0.00e+00	0	32	0	1039138816	50	5997
2026-01-08 19:06:12.14	309.76	6.93	-38.1	-39.1	22.3	0.00e+00	0	32	0	1040187392	50	5824
2026-01-08 19:06:13.15	309.64	6.88	-38.1	-39.1	22.1	0.00e+00	0	32	0	1042284544	50	5824
2026-01-08 19:06:14.15	309.52	6.82	-38.3	-39.3	21.7	0.00e+00	0	32	0	1044381696	50	5921
2026-01-08 19:06:15.17	309.40	6.77	-38.1	-39.2	22.1	0.00e+00	0	32	0	1046478848	50	5833
2026-01-08 19:06:16.18	309.28	6.72	-38.2	-39.2	22.3	0.00e+00	0	32	0	1048576000	50	5864
2026-01-08 19:06:17.18	309.16	6.67	-38.2	-39.2	22.2	0.00e+00	0	32	0	1049624576	50	5883
2026-01-08 19:06:18.20	309.04	6.62	-38.3	-39.4	22.1	0.00e+00	0	32	0	1051721728	50	5996
2026-01-08 19:06:19.21	308.92	6.56	-38.3	-39.4	22.1	0.00e+00	0	32	0	1053818880	50	5997
2026-01-08 19:06:20.21	308.80	6.51	-38.5	-39.6	21.9	0.00e+00	0	32	0	1055916032	50	6121
2026-01-08 19:06:21.22	308.69	6.46	-38.4	-39.5	22.0	0.00e+00	0	32	0	1058013184	50	6052
2026-01-08 19:06:22.23	308.57	6.41	-38.5	-39.5	22.0	0.00e+00	0	32	0	1059061760	50	6080
2026-01-08 19:06:23.24	308.45	6.36	-38.5	-39.6	21.9	0.00e+00	0	32	0	1061158912	50	6136
2026-01-08 19:06:24.25	308.34	6.31	-38.5	-39.6	21.9	0.00e+00	0	31	0	1063256064	50	6137
2026-01-08 19:06:25.26	308.22	6.25	-38.6	-39.7	21.7	0.00e+00	0	32	0	1065353216	50	6187
2026-01-08 19:06:26.27	308.11	6.20	-38.7	-39.8	21.7	0.00e+00	0	32	0	1067450368	50	6260
2026-01-08 19:06:27.27	307.99	6.15	-38.5	-39.6	21.8	0.00e+00	0	32	0	1068498944	50	6166
2026-01-08 19:06:28.28	307.88	6.10	-38.5	-39.6	21.8	0.00e+00	0	32	0	1070596096	50	6159
2026-01-08 19:06:29.29	307.76	6.05	-38.6	-39.7	21.8	0.00e+00	0	32	0	1072693248	50	6205
2026-01-08 19:06:30.30	307.65	6.00	-38.5	-39.5	21.9	0.00e+00	0	32	0	1074790400	50	6102
2026-01-08 19:06:31.31	307.53	5.94	-38.4	-39.5	21.9	0.00e+00	0	32	0	1076887552	50	6079
2026-01-08 19:06:32.32	307.42	5.89	-38.6	-39.7	21.8	0.00e+00	0	32	0	1077936128	50	6216
2026-01-08 19:06:33.33	307.31	5.84	-38.5	-39.6	21.9	0.00e+00	0	32	0	1080033280	50	6132
2026-01-08 19:06:34.34	307.20	5.79	-38.6	-39.7	21.7	0.00e+00	0	31	0	1082130432	50	6244
2026-01-08 19:06:35.35	307.08	5.74	-38.5	-39.6	21.7	0.00e+00	0	32	0	1084227584	50	6130
2026-01-08 19:06:36.36	306.97	5.69	-38.6	-39.7	21.7	0.00e+00	0	32	0	1086324736	50	6220
2026-01-08 19:06:37.37	306.86	5.63	-38.8	-39.9	21.4	0.00e+00	0	32	0	1087373312	50	6376
2026-01-08 19:06:38.38	306.75	5.58	-39.0	-40.2	21.3	0.00e+00	0	32	0	1089470464	50	6548
2026-01-08 19:06:39.39	306.64	5.53	-38.8	-40.0	21.4	0.00e+00	0	32	0	1091567616	50	6410
2026-01-08 19:06:40.40	306.53	5.48	-38.9	-40.0	21.4	0.00e+00	0	32	0	1093664768	50	6454
2026-01-08 19:06:41.41	306.42	5.43	-39.0	-40.1	21.3	0.00e+00	0	32	0	1095761920	50	6519
2026-01-08 19:06:42.42	306.31	5.37	-38.9	-40.0	21.4	0.00e+00	0	32	0	1096810496	50	6448
2026-01-08 19:06:43.43	306.20	5.32	-39.1	-40.3	21.1	0.00e+00	0	32	0	1098907648	50	6634
2026-01-08 19:06:44.44	306.10	5.27	-38.8	-40.0	21.4	0.00e+00	0	32	0	1101004800	50	6420
2026-01-08 19:06:45.45	305.99	5.22	-38.8	-40.0	21.3	0.00e+00	0	31	0	1103101952	50	6400
2026-01-08 19:06:46.46	305.88	5.17	-38.9	-40.0	21.2	0.00e+00	0	32	0	1105199104	50	6454
2026-01-08 19:06:47.47	305.77	5.12	-39.0	-40.1	21.2	0.00e+00	0	32	0	1107296256	50	6519
2026-01-08 19:06:48.48	305.67	5.06	-38.9	-40.0	21.3	0.00e+00	0	32	0	1108344832	50	6441
2026-01-08 19:06:49.49	305.56	5.01	-38.9	-40.0	21.3	0.00e+00	0	32	0	1110441984	50	6447
2026-01-08 19:06:50.50	305.46	4.96	-38.8	-40.0	21.3	0.00e+00	0	32	0	1112539136	50	6420
2026-01-08 19:06:51.51	305.35	4.91	-38.7	-39.8	21.5	0.00e+00	0	32	0	1114636288	50	6266
2026-01-08 19:06:52.51	305.25	4.86	-38.9	-40.0	21.3	0.00e+00	0	32	0	1116733440	50	6436
2026-01-08 19:06:53.52	305.14	4.81	-38.8	-40.0	21.4	0.00e+00	0	32	0	1117782016	50	6405
2026-01-08 19:06:54.53	305.04	4.75	-39.0	-40.1	21.2	0.00e+00	0	32	0	1119879168	50	6519
2026-01-08 19:06:55.54	304.93	4.70	-39.0	-40.1	21.1	0.00e+00	0	32	0	1121976320	50	6533
2026-01-08 19:06:56.55	304.83	4.65	-39.1	-40.3	21.0	0.00e+00	0	32	0	1124073472	50	6654
2026-01-08 19:06:57.56	304.73	4.60	-39.3	-40.5	20.7	0.00e+00	0	32	0	1126170624	50	6831
2026-01-08 19:06:58.57	304.62	4.55	-39.4	-40.7	20.6	0.00e+00	0	32	0	1127219200	50	6940
2026-01-08 19:06:59.58	304.52	4.49	-39.4	-40.6	20.7	0.00e+00	0	31	0	1129316352	50	6887
2026-01-08 19:07:00.59	304.42	4.44	-39.5	-40.7	20.5	0.00e+00	0	31	0	1131413504	50	6980
2026-01-08 19:07:01.60	304.32	4.39	-39.5	-40.8	20.5	0.00e+00	0	32	0	1133510656	50	7035
2026-01-08 19:07:02.61	304.22	4.34	-39.6	-40.9	20.3	0.00e+00	0	32	0	1135607808	50	7110
2026-01-08 19:07:03.62	304.11	4.29	-39.7	-41.1	20.2	0.00e+00	0	32	0	1136656384	52	6473
2026-01-08 19:07:04.63	304.01	4.24	-39.8	-41.1	20.1	0.00e+00	0	32	0	1138753536	52	6528
2026-01-08 19:07:05.64	303.91	4.19	-39.7	-41.0	20.2	0.00e+00	0	32	0	1140850688	52	6428
2026-01-08 19:07:06.64	303.81	4.13	-39.8	-41.1	20.1	0.00e+00	0	32	0	1142947840	52	6519
2026-01-08 19:07:07.65	303.72	4.08	-39.8	-41.1	20.1	0.00e+00	0	32	0	1145044992	52	6520
2026-01-08 19:07:08.66	303.62	4.03	-39.8	-41.1	20.1	0.00e+00	0	32	0	1146093568	52	6524
2026-01-08 19:07:09.67	303.52	3.98	-39.8	-41.1	20.1	0.00e+00	0	32	0	1148190720	52	6492
2026-01-08 19:07:10.67	303.42	3.93	-39.8	-41.1	20.0	0.00e+00	0	32	0	1150287872	52	6535
2026-01-08 19:07:11.68	303.32	3.88	-40.0	-41.4	19.7	0.00e+00	0	32	0	1152385024	52	6720
2026-01-08 19:07:12.69	303.22	3.83	-39.8	-41.2	19.9	0.00e+00	0	32	0	1154482176	52	6540
2026-01-08 19:07:13.70	303.13	3.77	-40.0	-41.4	19.8	0.00e+00	0	32	0	1155530752	52	6703
2026-01-08 19:07:14.71	303.03	3.72	-40.2	-41.6	19.6	0.00e+00	0	32	0	1157627904	52	6914
2026-01-08 19:07:15.72	302.93	3.67	-40.3	-41.7	19.4	0.00e+00	0	32	0	1159725056	52	6982
2026-01-08 19:07:16.73	302.84	3.62	-40.0	-41.4	19.7	0.00e+00	0	32	0	1161822208	52	6766
2026-01-08 19:07:17.74	302.74	3.57	-40.1	-41.5	19.6	0.00e+00	0	32	0	1163919360	52	6847
2026-01-08 19:07:18.75	302.64	3.52	-40.1	-41.6	19.5	0.00e+00	0	32	0	1164967936	52	6876
2026-01-08 19:07:19.76	302.55	3.47	-40.2	-41.7	19.4	0.00e+00	0	32	0	1167065088	52	6958
2026-01-08 19:07:20.77	302.45	3.41	-40.3	-41.8	19.3	0.00e+00	0	32	0	1169162240	52	7081
2026-01-08 19:07:21.78	302.36	3.36	-40.4	-41.9	19.2	0.00e+00	0	32	0	1171259392	52	7133
2026-01-08 19:07:22.79	302.27	3.31	-40.4	-42.0	19.1	0.00e+00	0	32	0	1173356544	52	7193
2026-01-08 19:07:23.80	302.17	3.26	-40.6	-42.1	18.9	0.00e+00	0	32	0	1174405120	52	7308
2026-01-08 19:07:24.81	302.08	3.21	-40.7	-42.3	18.8	0.00e+00	0	32	0	1176502272	52	7467
2026-01-08 19:07:25.82	301.98	3.16	-40.7	-42.4	18.2	0.00e+00	0	32	0	1178599424	52	7518
2026-01-08 19:07:26.83	301.89	3.11	-40.7	-42.3	18.8	0.00e+00	0	32	0	1180696576	54	6646
2026-01-08 19:07:27.84	301.80	3.06	-40.7	-42.3	18.7	0.00e+00	0	32	0	1182793728	54	6626
2026-01-08 19:07:28.85	301.71	3.01	-47.4	-62.5	3.6	7.60e-01	0	32	104	1183842304	60	48274
2026-01-08 19:07:29.86	301.62	2.95	-48.0	-63.1	3.6	1.51e+00	0	32	104	1183842304	60	51723
2026-01-08 19:07:30.87	301.52	2.90	-48.2	-63.4	3.6	1.51e+00	0	32	104	1183842304	60	53242
2026-01-08 19:07:31.88	301.43	2.85	-48.4	-63.6	3.6	1.51e+00	0	32	104	1183842304	60	54432
2026-01-08 19:07:32.89	301.34	2.80	-48.4	-63.6	3.6	1.51e+00	0	32	104	1183842304	60	54894
2026-01-08 19:07:33.90	301.25	2.75	-48.5	-63.7	3.6	1.51e+00	0	32	104	1183842304	60	55138
2026-01-08 19:07:34.91	301.16	2.70	-48.5	-63.7	3.6	1.51e+00	0	32	104	1183842304	60	55495
2026-01-08 19:07:35.91	301.07	2.65	-48.5	-63.7	3.6	1.51e+00	0	32	104	1183842304	60	55576
2026-01-08 19:07:36.92	300.98	2.60	-48.5	-63.7	3.6	1.51e+00	0	32	104	1183842304	60	55367
