passes_logs/2026/01/08/R4.6S_Anadyr/R4.6S_Anadyr__20260108_074102_FENGYUN_3E_rec.log

#Pass ID: 20260108_074102_FENGYUN 3E
#Satellite: FENGYUN 3E
#Configuration: FENGYUN 3E
#almurnet v.1.7.20251203
#Start time: 2026-01-08 07:41:03

#Version: 2.2.20231116
#Station: R4.6S_Anadyr
#Location: 177.4865 lon 64.73178 lat
#TLE: 1 49008U 21062A   26007.95891030 -.00000304  00000+0 -12253-3 0  9996
#TLE: 2 49008  98.7481  13.1693 0001696 152.0823 208.0445 14.19883474233848

#Time	Az	El	Level	Level2	SNR	BER	BlckErr	Temp	State	Recorded	gain1	gain2
2026-01-08 07:41:03.28	242.72	0.02	-48.7	-59.4	3.5	8.45e-01	0	30	0	0	60	33843
2026-01-08 07:41:04.29	242.82	0.06	-48.2	-59.5	3.6	8.45e-01	0	32	104	0	60	34028
2026-01-08 07:41:05.30	242.92	0.10	-48.4	-59.6	3.6	8.45e-01	0	32	104	0	60	34715
2026-01-08 07:41:06.31	243.01	0.14	-48.3	-59.6	3.6	8.44e-01	0	32	104	0	60	34583
2026-01-08 07:41:07.32	243.11	0.18	-48.3	-59.5	3.6	8.45e-01	0	32	104	0	60	34297
2026-01-08 07:41:08.33	243.21	0.22	-48.2	-59.5	3.6	8.45e-01	0	32	104	0	60	34150
2026-01-08 07:41:09.34	243.30	0.26	-48.1	-59.6	3.6	8.45e-01	0	32	104	0	60	34327
2026-01-08 07:41:10.35	243.40	0.30	-48.1	-59.6	3.6	8.45e-01	0	32	104	0	60	34454
2026-01-08 07:41:11.36	243.50	0.34	-48.1	-59.6	3.6	8.46e-01	0	32	104	0	60	34656
2026-01-08 07:41:12.37	243.60	0.38	-48.4	-59.6	3.6	8.46e-01	0	32	104	0	60	34707
2026-01-08 07:41:13.38	243.69	0.42	-48.4	-59.6	3.6	8.45e-01	0	32	104	0	60	34624
2026-01-08 07:41:14.39	243.79	0.46	-48.5	-59.6	3.6	8.45e-01	0	32	104	0	60	34498
2026-01-08 07:41:15.40	243.89	0.51	-48.4	-59.6	3.6	8.46e-01	0	32	104	0	60	34496
2026-01-08 07:41:16.41	243.99	0.55	-48.3	-59.5	3.6	8.45e-01	0	32	104	0	60	34046
2026-01-08 07:41:17.42	244.09	0.59	-48.3	-59.5	3.6	8.45e-01	0	32	104	0	60	33976
2026-01-08 07:41:18.43	244.19	0.63	-48.1	-59.3	3.6	8.44e-01	0	32	104	0	60	33324
2026-01-08 07:41:19.44	244.29	0.67	-47.8	-59.0	3.6	8.45e-01	0	32	104	0	60	32213
2026-01-08 07:41:20.45	244.39	0.71	-47.2	-58.3	3.6	8.46e-01	0	32	104	0	60	29641
2026-01-08 07:41:21.46	244.49	0.75	-46.8	-58.0	3.6	8.46e-01	0	32	104	0	60	28566
2026-01-08 07:41:22.47	244.59	0.79	-46.8	-57.9	3.6	8.46e-01	0	32	104	0	60	28540
2026-01-08 07:41:23.48	244.69	0.83	-46.8	-57.9	3.6	8.46e-01	0	32	104	0	60	28540
2026-01-08 07:41:24.49	244.79	0.87	-46.8	-57.9	3.6	8.45e-01	0	32	104	0	60	28396
2026-01-08 07:41:25.50	244.89	0.91	-46.8	-57.9	3.6	8.45e-01	0	32	104	0	60	28372
2026-01-08 07:41:26.50	244.99	0.95	-46.8	-57.9	3.6	8.46e-01	0	32	104	0	60	28379
2026-01-08 07:41:27.51	245.10	0.99	-46.8	-57.9	3.6	8.45e-01	0	32	104	0	60	28462
2026-01-08 07:41:28.52	245.20	1.03	-46.8	-57.9	3.6	8.45e-01	0	32	104	0	60	28387
2026-01-08 07:41:29.53	245.30	1.07	-46.8	-57.9	3.6	8.46e-01	0	32	104	0	60	28441
2026-01-08 07:41:30.54	245.40	1.11	-46.8	-57.9	3.6	8.45e-01	0	32	104	0	60	28326
2026-01-08 07:41:31.55	245.51	1.16	-46.8	-57.9	3.6	8.44e-01	0	32	104	0	60	28475
2026-01-08 07:41:32.56	245.61	1.20	-46.8	-57.9	3.6	8.47e-01	0	32	104	0	60	28484
2026-01-08 07:41:33.57	245.71	1.24	-46.8	-57.9	3.6	8.46e-01	0	32	104	0	60	28260
2026-01-08 07:41:34.58	245.82	1.28	-46.8	-57.9	3.6	8.45e-01	0	32	104	0	60	28379
2026-01-08 07:41:35.59	245.92	1.32	-46.8	-57.9	3.6	8.46e-01	0	32	104	0	60	28446
2026-01-08 07:41:36.60	246.02	1.36	-46.8	-57.9	3.6	8.45e-01	0	33	104	0	60	28226
2026-01-08 07:41:37.61	246.13	1.40	-46.8	-57.8	3.6	8.45e-01	0	32	104	0	60	28130
2026-01-08 07:41:38.62	246.23	1.44	-46.8	-57.9	3.6	8.44e-01	0	32	104	0	60	28266
2026-01-08 07:41:39.63	246.34	1.48	-46.8	-57.9	3.6	8.46e-01	0	32	104	0	60	28254
2026-01-08 07:41:40.64	246.44	1.52	-46.8	-57.9	3.6	8.45e-01	0	33	104	0	60	28266
2026-01-08 07:41:41.65	246.55	1.56	-46.8	-57.8	3.6	8.45e-01	0	32	104	0	60	28068
2026-01-08 07:41:42.66	246.66	1.60	-46.8	-57.9	3.6	8.45e-01	0	33	104	0	60	28247
2026-01-08 07:41:43.67	246.76	1.64	-46.8	-57.9	3.6	8.45e-01	0	32	104	0	60	28507
2026-01-08 07:41:44.68	246.87	1.68	-46.8	-57.9	3.6	8.46e-01	0	33	104	0	60	28327
2026-01-08 07:41:45.68	246.97	1.72	-46.8	-57.9	3.6	8.45e-01	0	33	104	0	60	28285
2026-01-08 07:41:46.69	247.08	1.76	-46.8	-57.9	3.6	8.46e-01	0	33	104	0	60	28537
2026-01-08 07:41:47.70	247.19	1.80	-46.8	-57.9	3.6	8.46e-01	0	33	104	0	60	28451
2026-01-08 07:41:48.71	247.30	1.84	-46.8	-57.8	3.6	8.45e-01	0	32	104	0	60	28169
2026-01-08 07:41:49.72	247.40	1.88	-46.8	-57.8	3.6	8.44e-01	0	33	104	0	60	28181
2026-01-08 07:41:50.73	247.51	1.92	-46.8	-57.7	3.6	8.45e-01	0	33	104	0	60	27784
2026-01-08 07:41:51.74	247.62	1.96	-46.8	-57.8	3.6	8.46e-01	0	33	104	0	60	28202
2026-01-08 07:41:52.75	247.73	2.00	-46.8	-57.8	3.6	8.45e-01	0	33	104	0	60	28098
2026-01-08 07:41:53.76	247.84	2.04	-46.8	-57.9	3.6	8.46e-01	0	33	104	0	60	28412
2026-01-08 07:41:54.77	247.95	2.08	-46.8	-57.9	3.6	8.45e-01	0	33	104	0	60	28398
2026-01-08 07:41:55.78	248.06	2.12	-46.8	-57.9	3.6	8.44e-01	0	33	104	0	60	28364
2026-01-08 07:41:56.79	248.17	2.16	-46.8	-57.9	3.6	8.46e-01	0	33	104	0	60	28304
2026-01-08 07:41:57.80	248.28	2.20	-46.8	-57.9	3.6	8.45e-01	0	33	104	0	60	28364
2026-01-08 07:41:58.81	248.39	2.24	-46.8	-57.8	3.6	8.46e-01	0	33	104	0	60	28059
2026-01-08 07:41:59.82	248.50	2.28	-46.8	-57.7	3.6	8.45e-01	0	33	104	0	60	27854
2026-01-08 07:42:00.83	248.61	2.32	-46.8	-57.7	3.6	8.46e-01	0	33	104	0	60	27836
2026-01-08 07:42:01.83	248.72	2.36	-46.8	-57.8	3.6	8.45e-01	0	33	104	0	60	28201
2026-01-08 07:42:02.85	248.83	2.40	-46.8	-57.8	3.6	8.45e-01	0	33	104	0	60	28092
2026-01-08 07:42:03.85	248.94	2.44	-46.8	-57.7	3.6	8.45e-01	0	33	104	0	60	27786
2026-01-08 07:42:04.86	249.05	2.48	-46.8	-57.5	3.6	8.46e-01	0	33	104	0	60	27234
2026-01-08 07:42:05.87	249.17	2.52	-46.7	-57.3	3.6	8.46e-01	0	33	104	0	60	26615
2026-01-08 07:42:06.89	249.28	2.56	-46.8	-57.7	3.6	8.45e-01	0	33	104	0	60	27800
2026-01-08 07:42:07.89	249.39	2.60	-46.8	-57.8	3.6	8.45e-01	0	33	104	0	60	28174
2026-01-08 07:42:08.90	249.50	2.64	-46.7	-57.1	3.6	8.45e-01	0	33	104	0	60	25985
2026-01-08 07:42:09.91	249.62	2.68	-46.6	-56.2	3.6	8.45e-01	0	33	104	0	60	23349
2026-01-08 07:42:10.92	249.73	2.72	-46.6	-55.9	3.6	8.45e-01	0	33	104	0	60	22664
2026-01-08 07:42:11.93	249.85	2.76	-46.7	-57.4	3.6	8.44e-01	0	33	104	0	60	26692
2026-01-08 07:42:12.94	249.96	2.80	-46.7	-57.1	3.6	8.46e-01	0	33	104	0	60	25745
2026-01-08 07:42:13.95	250.08	2.84	-45.8	-51.8	5.6	7.48e-01	0	33	104	0	60	14019
2026-01-08 07:42:14.97	250.19	2.88	-43.8	-46.5	10.1	1.98e-02	0	33	0	4194304	60	7663
2026-01-08 07:42:15.97	250.31	2.92	-41.6	-43.4	13.3	1.43e-04	0	33	0	11534336	58	5968
2026-01-08 07:42:16.99	250.42	2.96	-40.3	-41.7	14.8	0.00e+00	0	33	0	18874368	54	6214
2026-01-08 07:42:17.99	250.54	2.99	-39.9	-41.2	15.2	0.00e+00	0	33	0	25165824	54	5896
2026-01-08 07:42:19.01	250.65	3.03	-40.3	-41.8	14.6	0.00e+00	0	33	0	33554432	54	6262
2026-01-08 07:42:20.01	250.77	3.07	-37.1	-38.0	18.2	0.00e+00	0	33	0	40894464	46	6441
2026-01-08 07:42:21.03	250.89	3.11	-46.2	-54.6	3.7	8.78e-01	0	33	104	45088768	60	19470
2026-01-08 07:42:22.03	251.00	3.15	-35.5	-36.5	19.5	0.00e+00	0	33	104	45088768	42	6798
2026-01-08 07:42:23.05	251.12	3.19	-40.1	-41.6	15.4	0.00e+00	0	33	0	52428800	52	6864
2026-01-08 07:42:24.05	251.24	3.23	-41.2	-43.0	13.2	0.00e+00	0	33	0	58720256	52	8081
2026-01-08 07:42:25.06	251.36	3.27	-35.9	-36.9	19.3	0.00e+00	0	33	0	66060288	46	5679
2026-01-08 07:42:26.07	251.48	3.31	-35.5	-36.4	19.6	0.00e+00	0	33	0	73400320	44	6009
2026-01-08 07:42:27.08	251.59	3.35	-35.0	-36.0	20.0	0.00e+00	0	33	0	80740352	44	5708
2026-01-08 07:42:28.09	251.71	3.39	-35.1	-36.0	20.0	0.00e+00	0	33	0	88080384	44	5754
2026-01-08 07:42:29.10	251.83	3.42	-34.7	-35.7	20.2	0.00e+00	0	33	0	95420416	44	5523
2026-01-08 07:42:30.11	251.95	3.46	-34.7	-35.6	20.4	0.00e+00	0	33	0	102760448	42	6128
2026-01-08 07:42:31.13	252.07	3.50	-34.7	-35.7	20.2	0.00e+00	0	33	0	110100480	42	6186
2026-01-08 07:42:32.13	252.19	3.54	-34.6	-35.5	20.4	0.00e+00	0	33	0	117440512	42	6083
2026-01-08 07:42:33.14	252.31	3.58	-34.6	-35.6	20.4	0.00e+00	0	33	0	124780544	42	6121
2026-01-08 07:42:34.15	252.43	3.62	-34.7	-35.6	20.3	0.00e+00	0	33	0	132120576	42	6170
2026-01-08 07:42:35.16	252.55	3.66	-34.3	-35.2	20.6	0.00e+00	0	33	0	139460608	42	5874
2026-01-08 07:42:36.16	252.67	3.69	-34.3	-35.2	20.6	0.00e+00	0	33	0	146800640	42	5896
2026-01-08 07:42:37.17	252.80	3.73	-34.3	-35.2	20.7	0.00e+00	0	33	0	154140672	42	5848
2026-01-08 07:42:38.18	252.92	3.77	-34.4	-35.3	20.6	0.00e+00	0	33	0	161480704	42	5962
2026-01-08 07:42:39.19	253.04	3.81	-34.3	-35.2	20.7	0.00e+00	0	33	0	167772160	42	5888
2026-01-08 07:42:40.20	253.16	3.85	-34.3	-35.2	20.7	0.00e+00	0	33	0	176160768	42	5855
2026-01-08 07:42:41.21	253.28	3.89	-34.4	-35.3	20.7	0.00e+00	0	33	0	183500800	42	5925
2026-01-08 07:42:42.22	253.41	3.92	-34.4	-35.4	20.7	0.00e+00	0	33	0	189792256	42	5972
2026-01-08 07:42:43.23	253.53	3.96	-34.3	-35.2	20.7	0.00e+00	0	33	0	197132288	42	5888
2026-01-08 07:42:44.24	253.66	4.00	-34.2	-35.1	20.8	0.00e+00	0	33	0	204472320	42	5817
2026-01-08 07:42:45.25	253.78	4.04	-34.4	-35.3	20.6	0.00e+00	0	33	0	211812352	42	5952
2026-01-08 07:42:46.26	253.90	4.08	-34.4	-35.3	20.6	0.00e+00	0	33	0	219152384	42	5951
2026-01-08 07:42:47.27	254.03	4.12	-34.5	-35.4	20.5	0.00e+00	0	33	0	226492416	42	6017
2026-01-08 07:42:48.28	254.15	4.15	-34.5	-35.4	20.5	0.00e+00	0	33	0	233832448	42	6018
2026-01-08 07:42:49.29	254.28	4.19	-34.5	-35.4	20.6	0.00e+00	0	33	0	241172480	42	6015
2026-01-08 07:42:50.30	254.40	4.23	-34.2	-35.1	20.8	0.00e+00	0	33	0	248512512	42	5792
2026-01-08 07:42:51.31	254.53	4.27	-34.2	-35.2	20.7	0.00e+00	0	33	0	255852544	42	5829
2026-01-08 07:42:52.32	254.66	4.30	-34.3	-35.2	20.7	0.00e+00	0	33	0	263192576	42	5869
2026-01-08 07:42:53.33	254.78	4.34	-34.4	-35.3	20.7	0.00e+00	0	33	0	270532608	42	5946
2026-01-08 07:42:54.34	254.91	4.38	-34.3	-35.3	20.7	0.00e+00	0	33	0	277872640	42	5899
2026-01-08 07:42:55.35	255.04	4.42	-34.1	-35.0	21.0	0.00e+00	0	33	0	285212672	42	5710
2026-01-08 07:42:56.36	255.16	4.45	-34.1	-35.0	20.9	0.00e+00	0	33	0	292552704	42	5746
2026-01-08 07:42:57.37	255.29	4.49	-34.0	-34.9	21.0	0.00e+00	0	33	0	299892736	42	5653
2026-01-08 07:42:58.38	255.42	4.53	-33.9	-34.8	21.1	0.00e+00	0	33	0	307232768	42	5571
2026-01-08 07:42:59.39	255.55	4.57	-33.9	-34.8	21.1	0.00e+00	0	33	0	313524224	42	5588
2026-01-08 07:43:00.40	255.68	4.60	-34.1	-35.0	20.9	0.00e+00	0	33	0	321912832	42	5728
2026-01-08 07:43:01.41	255.81	4.64	-34.0	-34.9	20.9	0.00e+00	0	33	0	329252864	42	5662
2026-01-08 07:43:02.42	255.94	4.68	-34.1	-35.0	20.8	0.00e+00	0	33	0	335544320	42	5711
2026-01-08 07:43:03.43	256.07	4.71	-34.1	-35.0	20.9	0.00e+00	0	33	0	342884352	42	5700
2026-01-08 07:43:04.44	256.20	4.75	-34.0	-34.9	20.9	0.00e+00	0	33	0	350224384	42	5644
2026-01-08 07:43:05.45	256.33	4.79	-34.0	-34.9	20.9	0.00e+00	0	33	0	357564416	42	5683
2026-01-08 07:43:06.46	256.46	4.82	-34.0	-34.9	20.9	0.00e+00	0	33	0	364904448	42	5668
2026-01-08 07:43:07.47	256.59	4.86	-34.0	-34.9	20.9	0.00e+00	0	33	0	372244480	42	5695
2026-01-08 07:43:08.48	256.72	4.90	-34.0	-34.9	20.9	0.00e+00	0	33	0	379584512	42	5637
2026-01-08 07:43:09.49	256.85	4.93	-34.2	-35.1	20.8	0.00e+00	0	33	0	386924544	42	5785
2026-01-08 07:43:10.50	256.98	4.97	-34.0	-34.9	21.0	0.00e+00	0	33	0	394264576	42	5636
2026-01-08 07:43:11.51	257.11	5.01	-33.9	-34.7	21.1	0.00e+00	0	33	0	401604608	42	5564
2026-01-08 07:43:12.52	257.25	5.04	-34.0	-34.9	21.0	0.00e+00	0	33	0	408944640	42	5668
2026-01-08 07:43:13.52	257.38	5.08	-34.0	-34.9	21.1	0.00e+00	0	33	0	416284672	42	5667
2026-01-08 07:43:14.53	257.51	5.12	-33.9	-34.8	21.1	0.00e+00	0	33	0	423624704	42	5582
2026-01-08 07:43:15.55	257.65	5.15	-34.1	-35.0	21.0	0.00e+00	0	33	0	430964736	42	5721
2026-01-08 07:43:16.56	257.78	5.19	-33.9	-34.8	21.2	0.00e+00	0	33	0	438304768	42	5584
2026-01-08 07:43:17.57	257.91	5.22	-33.7	-34.6	21.3	0.00e+00	0	33	0	445644800	40	6133
2026-01-08 07:43:18.58	258.05	5.26	-33.7	-34.6	21.3	0.00e+00	0	33	0	452984832	40	6142
2026-01-08 07:43:19.59	258.18	5.30	-33.7	-34.6	21.4	0.00e+00	0	33	0	460324864	40	6143
2026-01-08 07:43:20.60	258.32	5.33	-33.7	-34.5	21.4	0.00e+00	0	33	0	467664896	40	6091
2026-01-08 07:43:21.60	258.45	5.37	-33.6	-34.5	21.4	0.00e+00	0	33	0	475004928	40	6070
2026-01-08 07:43:22.61	258.59	5.40	-33.7	-34.5	21.4	0.00e+00	0	33	0	482344960	40	6077
2026-01-08 07:43:23.62	258.72	5.44	-33.6	-34.4	21.4	0.00e+00	0	33	0	488636416	40	6033
2026-01-08 07:43:24.63	258.86	5.47	-33.6	-34.5	21.5	0.00e+00	0	33	0	495976448	40	6049
2026-01-08 07:43:25.64	259.00	5.51	-33.6	-34.5	21.5	0.00e+00	0	33	0	503316480	40	6068
2026-01-08 07:43:26.65	259.13	5.54	-33.5	-34.4	21.6	0.00e+00	0	33	0	510656512	40	5977
2026-01-08 07:43:27.66	259.27	5.58	-33.5	-34.3	21.6	0.00e+00	0	33	0	517996544	40	5963
2026-01-08 07:43:28.67	259.41	5.61	-33.5	-34.4	21.6	0.00e+00	0	33	0	525336576	40	5982
2026-01-08 07:43:29.68	259.55	5.65	-33.5	-34.3	21.6	0.00e+00	0	33	0	532676608	40	5934
2026-01-08 07:43:30.69	259.69	5.68	-33.7	-34.5	21.5	0.00e+00	0	33	0	540016640	40	6079
2026-01-08 07:43:31.70	259.82	5.72	-33.5	-34.4	21.5	0.00e+00	0	33	0	547356672	40	6004
2026-01-08 07:43:32.71	259.96	5.75	-33.6	-34.4	21.5	0.00e+00	0	33	0	554696704	40	6009
2026-01-08 07:43:33.72	260.10	5.79	-33.6	-34.5	21.5	0.00e+00	0	33	0	562036736	40	6040
2026-01-08 07:43:34.73	260.24	5.82	-33.5	-34.3	21.5	0.00e+00	0	33	0	569376768	40	5957
2026-01-08 07:43:35.74	260.38	5.85	-33.6	-34.4	21.5	0.00e+00	0	33	0	576716800	40	6026
2026-01-08 07:43:36.75	260.52	5.89	-33.6	-34.5	21.6	0.00e+00	0	33	0	584056832	40	6079
2026-01-08 07:43:37.76	260.66	5.92	-33.6	-34.4	21.6	0.00e+00	0	33	0	591396864	40	6018
2026-01-08 07:43:38.77	260.80	5.96	-33.5	-34.3	21.7	0.00e+00	0	33	0	598736896	40	5950
2026-01-08 07:43:39.78	260.94	5.99	-33.6	-34.5	21.6	0.00e+00	0	33	0	606076928	40	6062
2026-01-08 07:43:40.79	261.08	6.02	-33.3	-34.2	21.7	0.00e+00	0	33	0	612368384	40	5850
2026-01-08 07:43:41.79	261.23	6.06	-33.4	-34.3	21.8	0.00e+00	0	33	0	619708416	40	5927
2026-01-08 07:43:42.80	261.37	6.09	-33.3	-34.1	21.8	0.00e+00	0	33	0	628097024	40	5809
2026-01-08 07:43:43.82	261.51	6.13	-33.2	-34.1	21.8	0.00e+00	0	33	0	634388480	40	5769
2026-01-08 07:43:44.83	261.65	6.16	-33.3	-34.2	21.8	0.00e+00	0	33	0	641728512	40	5834
2026-01-08 07:43:45.84	261.80	6.19	-33.2	-34.1	21.8	0.00e+00	0	33	0	649068544	40	5769
2026-01-08 07:43:46.84	261.94	6.23	-33.3	-34.2	21.7	0.00e+00	0	33	0	656408576	40	5834
2026-01-08 07:43:47.85	262.08	6.26	-33.2	-34.0	21.9	0.00e+00	0	33	0	663748608	40	5728
2026-01-08 07:43:48.86	262.23	6.29	-33.1	-34.0	21.9	0.00e+00	0	33	0	671088640	40	5704
2026-01-08 07:43:49.87	262.37	6.32	-33.1	-33.9	21.8	0.00e+00	0	33	0	678428672	40	5687
2026-01-08 07:43:50.88	262.51	6.36	-33.2	-34.1	21.8	0.00e+00	0	33	0	685768704	40	5777
2026-01-08 07:43:51.89	262.66	6.39	-33.2	-34.0	21.8	0.00e+00	0	33	0	693108736	40	5747
2026-01-08 07:43:52.90	262.80	6.42	-33.2	-34.1	21.8	0.00e+00	0	33	0	700448768	40	5766
2026-01-08 07:43:53.91	262.95	6.45	-33.3	-34.1	21.8	0.00e+00	0	33	0	707788800	40	5801
2026-01-08 07:43:54.92	263.10	6.49	-33.2	-34.0	21.7	0.00e+00	0	33	0	715128832	40	5741
2026-01-08 07:43:55.93	263.24	6.52	-33.3	-34.1	21.7	0.00e+00	0	33	0	722468864	40	5823
2026-01-08 07:43:56.94	263.39	6.55	-33.2	-34.1	21.6	0.00e+00	0	33	0	729808896	40	5788
2026-01-08 07:43:57.95	263.53	6.58	-33.1	-34.0	21.7	0.00e+00	0	33	0	737148928	40	5716
2026-01-08 07:43:58.96	263.68	6.61	-33.1	-34.0	21.7	0.00e+00	0	33	0	744488960	40	5704
2026-01-08 07:43:59.97	263.83	6.65	-33.0	-33.9	21.8	0.00e+00	0	33	0	751828992	40	5655
2026-01-08 07:44:00.98	263.98	6.68	-32.9	-33.7	21.8	0.00e+00	0	33	0	759169024	40	5566
2026-01-08 07:44:01.99	264.12	6.71	-33.0	-33.8	21.8	0.00e+00	0	33	0	765460480	40	5613
2026-01-08 07:44:03.00	264.27	6.74	-32.9	-33.7	21.9	0.00e+00	0	33	0	773849088	40	5544
2026-01-08 07:44:04.01	264.42	6.77	-32.9	-33.8	21.9	0.00e+00	0	33	0	781189120	40	5583
2026-01-08 07:44:05.02	264.57	6.80	-40.6	-41.5	19.7	1.23e-03	0	33	0	787480576	46	9578
2026-01-08 07:44:06.02	264.72	6.83	-35.4	-36.3	21.7	1.10e-06	0	33	0	794820608	40	7475
2026-01-08 07:44:07.03	264.87	6.86	-33.4	-34.2	21.8	0.00e+00	0	33	0	802160640	40	5872
2026-01-08 07:44:08.05	265.02	6.90	-33.5	-34.4	21.8	0.00e+00	0	33	0	809500672	40	6009
2026-01-08 07:44:09.06	265.17	6.93	-33.2	-34.0	21.7	0.00e+00	0	33	0	816840704	40	5752
2026-01-08 07:44:10.06	265.32	6.96	-33.1	-34.0	21.7	0.00e+00	0	33	0	824180736	40	5717
2026-01-08 07:44:11.07	265.47	6.99	-33.2	-34.1	21.8	0.00e+00	0	33	0	831520768	40	5790
2026-01-08 07:44:12.08	265.62	7.02	-33.2	-34.0	21.6	0.00e+00	0	33	0	838860800	40	5760
2026-01-08 07:44:13.09	265.77	7.05	-33.3	-34.1	21.6	0.00e+00	0	33	0	845152256	40	5823
2026-01-08 07:44:14.10	265.92	7.08	-33.2	-34.1	21.7	0.00e+00	0	33	0	853540864	40	5774
2026-01-08 07:44:15.11	266.07	7.11	-33.4	-34.2	21.6	0.00e+00	0	33	0	860880896	40	5880
2026-01-08 07:44:16.12	266.23	7.14	-33.1	-34.0	21.8	0.00e+00	0	33	0	867172352	40	5727
2026-01-08 07:44:17.13	266.38	7.17	-33.0	-33.9	21.9	0.00e+00	0	33	0	874512384	40	5632
2026-01-08 07:44:18.14	266.53	7.20	-32.9	-33.7	22.0	0.00e+00	0	33	0	881852416	40	5564
2026-01-08 07:44:19.15	266.68	7.23	-33.0	-33.8	22.0	0.00e+00	0	33	0	889192448	40	5618
2026-01-08 07:44:20.16	266.84	7.25	-32.9	-33.7	22.0	0.00e+00	0	33	0	896532480	40	5564
2026-01-08 07:44:21.17	266.99	7.28	-32.8	-33.7	22.1	0.00e+00	0	33	0	903872512	40	5512
2026-01-08 07:44:22.18	267.14	7.31	-32.9	-33.7	22.1	0.00e+00	0	33	0	911212544	38	6228
2026-01-08 07:44:23.19	267.30	7.34	-32.9	-33.7	22.0	0.00e+00	0	33	0	918552576	38	6235
2026-01-08 07:44:24.20	267.45	7.37	-32.8	-33.6	22.2	0.00e+00	0	33	0	925892608	38	6126
2026-01-08 07:44:25.21	267.61	7.40	-32.8	-33.6	22.1	0.00e+00	0	33	0	933232640	38	6151
2026-01-08 07:44:26.22	267.76	7.43	-32.8	-33.7	22.1	0.00e+00	0	33	0	940572672	38	6184
2026-01-08 07:44:27.23	267.92	7.45	-33.0	-33.8	22.1	0.00e+00	0	33	0	947912704	38	6317
2026-01-08 07:44:28.23	268.07	7.48	-33.0	-33.8	22.0	0.00e+00	0	33	0	955252736	38	6308
2026-01-08 07:44:29.24	268.23	7.51	-33.0	-33.8	22.0	0.00e+00	0	33	0	962592768	38	6279
2026-01-08 07:44:30.26	268.39	7.54	-32.6	-33.5	22.2	0.00e+00	0	33	0	969932800	38	6046
2026-01-08 07:44:31.26	268.54	7.56	-32.7	-33.5	22.2	0.00e+00	0	33	0	977272832	38	6076
2026-01-08 07:44:32.27	268.70	7.59	-32.5	-33.3	22.3	0.00e+00	0	33	0	984612864	38	5925
2026-01-08 07:44:33.28	268.86	7.62	-32.4	-33.2	22.5	0.00e+00	0	33	0	990904320	38	5868
2026-01-08 07:44:34.29	269.01	7.65	-32.5	-33.3	22.4	0.00e+00	0	33	0	998244352	38	5904
2026-01-08 07:44:35.30	269.17	7.67	-32.3	-33.1	22.5	0.00e+00	0	33	0	1006632960	38	5810
2026-01-08 07:44:36.31	269.33	7.70	-32.3	-33.1	22.6	0.00e+00	0	33	0	1012924416	38	5793
2026-01-08 07:44:37.32	269.49	7.73	-32.3	-33.1	22.5	0.00e+00	0	33	0	1020264448	38	5804
2026-01-08 07:44:38.33	269.64	7.75	-32.3	-33.1	22.6	0.00e+00	0	33	0	1027604480	38	5791
2026-01-08 07:44:39.34	269.80	7.78	-32.5	-33.3	22.5	0.00e+00	0	33	0	1034944512	38	5912
2026-01-08 07:44:40.35	269.96	7.81	-32.4	-33.2	22.4	0.00e+00	0	33	0	1042284544	38	5889
2026-01-08 07:44:41.36	270.12	7.83	-32.5	-33.3	22.4	0.00e+00	0	33	0	1049624576	38	5961
2026-01-08 07:44:42.36	270.28	7.86	-32.7	-33.5	22.3	0.00e+00	0	33	0	1056964608	38	6060
2026-01-08 07:44:43.38	270.44	7.88	-32.7	-33.6	22.2	0.00e+00	0	33	0	1064304640	38	6111
2026-01-08 07:44:44.38	270.60	7.91	-32.8	-33.7	22.1	0.00e+00	0	33	0	1071644672	38	6176
2026-01-08 07:44:45.39	270.76	7.93	-32.6	-33.5	22.1	0.00e+00	0	33	0	1078984704	38	6048
2026-01-08 07:44:46.40	270.92	7.96	-32.7	-33.6	22.0	0.00e+00	0	33	0	1086324736	38	6124
2026-01-08 07:44:47.41	271.08	7.98	-32.7	-33.5	22.1	0.00e+00	0	33	0	1093664768	38	6070
2026-01-08 07:44:48.42	271.24	8.01	-32.7	-33.5	22.1	0.00e+00	0	33	0	1101004800	38	6063
2026-01-08 07:44:49.43	271.40	8.03	-32.5	-33.3	22.2	0.00e+00	0	33	0	1108344832	38	5934
2026-01-08 07:44:50.44	271.57	8.06	-32.4	-33.3	22.3	0.00e+00	0	33	0	1115684864	38	5914
2026-01-08 07:44:51.45	271.73	8.08	-32.4	-33.2	22.3	0.00e+00	0	33	0	1123024896	38	5885
2026-01-08 07:44:52.46	271.89	8.11	-32.6	-33.4	22.2	0.00e+00	0	33	0	1130364928	38	6018
2026-01-08 07:44:53.47	272.05	8.13	-32.5	-33.3	22.2	0.00e+00	0	33	0	1137704960	38	5919
2026-01-08 07:44:54.48	272.22	8.15	-32.5	-33.3	22.3	0.00e+00	0	33	0	1143996416	38	5957
2026-01-08 07:44:55.49	272.38	8.18	-32.6	-33.4	22.2	0.00e+00	0	33	0	1151336448	38	6007
2026-01-08 07:44:56.50	272.54	8.20	-32.6	-33.5	22.2	0.00e+00	0	33	0	1159725056	38	6052
2026-01-08 07:44:57.51	272.70	8.22	-32.6	-33.4	22.1	0.00e+00	0	33	0	1166016512	38	6021
2026-01-08 07:44:58.52	272.87	8.25	-32.6	-33.4	22.1	0.00e+00	0	33	0	1173356544	38	6011
2026-01-08 07:44:59.52	273.03	8.27	-32.6	-33.5	22.1	0.00e+00	0	33	0	1180696576	38	6044
2026-01-08 07:45:00.53	273.19	8.29	-32.6	-33.4	22.1	0.00e+00	0	33	0	1188036608	38	6022
2026-01-08 07:45:01.54	273.36	8.31	-32.6	-33.4	22.0	0.00e+00	0	33	0	1195376640	38	6017
2026-01-08 07:45:02.55	273.52	8.34	-32.6	-33.4	22.1	0.00e+00	0	33	0	1202716672	38	6015
2026-01-08 07:45:03.56	273.69	8.36	-32.6	-33.4	22.0	0.00e+00	0	33	0	1210056704	38	6012
2026-01-08 07:45:04.57	273.85	8.38	-32.4	-33.2	22.3	0.00e+00	0	33	0	1217396736	38	5894
2026-01-08 07:45:05.58	274.02	8.40	-32.5	-33.3	22.2	0.00e+00	0	33	0	1224736768	38	5957
2026-01-08 07:45:06.59	274.19	8.42	-32.4	-33.3	22.4	0.00e+00	0	33	0	1232076800	38	5903
2026-01-08 07:45:07.60	274.35	8.45	-32.5	-33.4	22.4	0.00e+00	0	33	0	1239416832	38	5972
2026-01-08 07:45:08.61	274.52	8.47	-32.6	-33.4	22.3	0.00e+00	0	33	0	1246756864	38	6025
2026-01-08 07:45:09.62	274.68	8.49	-32.6	-33.4	22.3	0.00e+00	0	33	0	1254096896	38	6004
2026-01-08 07:45:10.63	274.85	8.51	-32.5	-33.3	22.3	0.00e+00	0	33	0	1261436928	38	5947
2026-01-08 07:45:11.64	275.02	8.53	-32.7	-33.5	22.3	0.00e+00	0	33	0	1267728384	38	6081
2026-01-08 07:45:12.64	275.18	8.55	-32.5	-33.4	22.2	0.00e+00	0	33	0	1275068416	38	5987
2026-01-08 07:45:13.65	275.35	8.57	-32.6	-33.4	22.2	0.00e+00	0	33	0	1283457024	38	6013
2026-01-08 07:45:14.66	275.52	8.59	-32.5	-33.3	22.2	0.00e+00	0	33	0	1289748480	38	5958
2026-01-08 07:45:15.67	275.68	8.61	-32.5	-33.4	22.2	0.00e+00	0	34	0	1297088512	38	5975
2026-01-08 07:45:16.68	275.85	8.63	-32.2	-33.1	22.3	0.00e+00	0	33	0	1304428544	38	5779
2026-01-08 07:45:17.69	276.02	8.65	-32.3	-33.1	22.4	0.00e+00	0	33	0	1311768576	38	5800
2026-01-08 07:45:18.70	276.19	8.67	-32.3	-33.1	22.4	0.00e+00	0	33	0	1319108608	38	5768
2026-01-08 07:45:19.71	276.36	8.69	-32.0	-32.8	22.6	0.00e+00	0	33	0	1326448640	38	5613
2026-01-08 07:45:20.72	276.53	8.71	-32.2	-33.0	22.6	0.00e+00	0	33	0	1333788672	38	5728
2026-01-08 07:45:21.73	276.70	8.72	-32.1	-32.9	22.6	0.00e+00	0	33	0	1341128704	38	5667
2026-01-08 07:45:22.74	276.86	8.74	-32.1	-32.9	22.5	0.00e+00	0	33	0	1348468736	38	5677
2026-01-08 07:45:23.75	277.03	8.76	-32.3	-33.1	22.5	0.00e+00	0	33	0	1355808768	38	5780
2026-01-08 07:45:24.76	277.20	8.78	-32.2	-33.0	22.5	0.00e+00	0	33	0	1363148800	38	5714
2026-01-08 07:45:25.77	277.37	8.80	-32.2	-33.0	22.5	0.00e+00	0	33	0	1370488832	38	5738
2026-01-08 07:45:26.78	277.54	8.82	-32.3	-33.1	22.4	0.00e+00	0	33	0	1377828864	38	5820
2026-01-08 07:45:27.79	277.71	8.83	-32.3	-33.1	22.4	0.00e+00	0	33	0	1385168896	38	5808
2026-01-08 07:45:28.80	277.88	8.85	-32.3	-33.1	22.4	0.00e+00	0	33	0	1392508928	38	5817
2026-01-08 07:45:29.81	278.05	8.87	-32.2	-33.1	22.6	0.00e+00	0	33	0	1399848960	38	5771
2026-01-08 07:45:30.82	278.23	8.88	-32.1	-32.9	22.5	0.00e+00	0	33	0	1407188992	38	5680
2026-01-08 07:45:31.83	278.40	8.90	-32.2	-33.0	22.4	0.00e+00	0	33	0	1414529024	38	5718
2026-01-08 07:45:32.84	278.57	8.92	-32.1	-32.9	22.5	0.00e+00	0	33	0	1420820480	38	5687
2026-01-08 07:45:33.85	278.74	8.93	-32.2	-33.0	22.4	0.00e+00	0	33	0	1429209088	38	5738
2026-01-08 07:45:34.86	278.91	8.95	-32.3	-33.1	22.4	0.00e+00	0	33	0	1436549120	38	5793
2026-01-08 07:45:35.87	279.08	8.97	-32.3	-33.1	22.4	0.00e+00	0	33	0	1442840576	38	5793
2026-01-08 07:45:36.88	279.25	8.98	-32.1	-32.9	22.5	0.00e+00	0	33	0	1450180608	38	5662
2026-01-08 07:45:37.89	279.43	9.00	-32.2	-33.1	22.4	0.00e+00	0	33	0	1457520640	38	5762
2026-01-08 07:45:38.90	279.60	9.01	-32.1	-33.0	22.5	0.00e+00	0	33	0	1464860672	38	5704
2026-01-08 07:45:39.91	279.77	9.03	-32.0	-32.8	22.5	0.00e+00	0	33	0	1472200704	38	5612
2026-01-08 07:45:40.92	279.94	9.04	-32.0	-32.9	22.5	0.00e+00	0	33	0	1479540736	38	5634
2026-01-08 07:45:41.93	280.12	9.06	-32.0	-32.8	22.6	0.00e+00	0	33	0	1486880768	38	5604
2026-01-08 07:45:42.94	280.29	9.07	-32.0	-32.8	22.6	0.00e+00	0	33	0	1494220800	38	5583
2026-01-08 07:45:43.95	280.46	9.08	-32.0	-32.8	22.7	0.00e+00	0	33	0	1501560832	38	5578
2026-01-08 07:45:44.96	280.63	9.10	-32.0	-32.8	22.7	0.00e+00	0	33	0	1508900864	38	5613
2026-01-08 07:45:45.97	280.81	9.11	-32.0	-32.8	22.7	0.00e+00	0	33	0	1516240896	38	5615
2026-01-08 07:45:46.98	280.98	9.12	-31.9	-32.7	22.8	0.00e+00	0	33	0	1523580928	38	5537
2026-01-08 07:45:47.99	281.15	9.14	-31.9	-32.7	22.8	0.00e+00	0	33	0	1530920960	38	5547
2026-01-08 07:45:49.00	281.33	9.15	-31.9	-32.7	22.8	0.00e+00	0	34	0	1538260992	38	5558
2026-01-08 07:45:50.01	281.50	9.16	-31.9	-32.7	22.8	0.00e+00	0	33	0	1545601024	38	5526
2026-01-08 07:45:51.02	281.68	9.18	-31.9	-32.7	22.7	0.00e+00	0	33	0	1552941056	38	5547
2026-01-08 07:45:52.03	281.85	9.19	-31.9	-32.7	22.7	0.00e+00	0	33	0	1560281088	38	5551
2026-01-08 07:45:53.04	282.02	9.20	-32.1	-32.9	22.6	0.00e+00	0	33	0	1566572544	38	5639
2026-01-08 07:45:54.05	282.20	9.21	-32.0	-32.8	22.6	0.00e+00	0	33	0	1574961152	38	5622
2026-01-08 07:45:55.06	282.37	9.22	-31.9	-32.7	22.6	0.00e+00	0	33	0	1582301184	38	5566
2026-01-08 07:45:56.07	282.55	9.24	-32.1	-32.9	22.5	0.00e+00	0	34	0	1588592640	38	5669
2026-01-08 07:45:57.08	282.72	9.25	-32.1	-32.9	22.5	0.00e+00	0	33	0	1595932672	38	5678
2026-01-08 07:45:58.09	282.90	9.26	-31.9	-32.7	22.6	0.00e+00	0	33	0	1603272704	38	5538
2026-01-08 07:45:59.10	283.07	9.27	-31.9	-32.7	22.6	0.00e+00	0	33	0	1610612736	38	5562
2026-01-08 07:46:00.10	283.25	9.28	-31.9	-32.7	22.7	0.00e+00	0	33	0	1617952768	38	5532
2026-01-08 07:46:01.11	283.42	9.29	-32.0	-32.8	22.7	0.00e+00	0	33	0	1625292800	38	5590
2026-01-08 07:46:02.12	283.60	9.30	-31.9	-32.6	22.8	0.00e+00	0	33	0	1632632832	38	5498
2026-01-08 07:46:03.13	283.77	9.31	-32.0	-32.8	22.7	0.00e+00	0	34	0	1639972864	38	5591
2026-01-08 07:46:04.14	283.95	9.32	-32.1	-32.9	22.7	0.00e+00	0	33	0	1647312896	38	5635
2026-01-08 07:46:05.15	284.13	9.33	-32.0	-32.8	22.7	0.00e+00	0	34	0	1654652928	38	5603
2026-01-08 07:46:06.16	284.30	9.34	-31.9	-32.7	22.7	0.00e+00	0	33	0	1661992960	38	5546
2026-01-08 07:46:07.17	284.48	9.35	-32.0	-32.8	22.7	0.00e+00	0	34	0	1669332992	38	5578
2026-01-08 07:46:08.18	284.65	9.35	-32.2	-33.0	22.5	0.00e+00	0	34	0	1676673024	38	5725
2026-01-08 07:46:09.19	284.83	9.36	-32.0	-32.8	22.5	0.00e+00	0	34	0	1684013056	38	5619
2026-01-08 07:46:10.20	285.01	9.37	-32.1	-32.9	22.5	0.00e+00	0	33	0	1691353088	38	5661
2026-01-08 07:46:11.21	285.18	9.38	-31.9	-32.8	22.5	0.00e+00	0	33	0	1698693120	38	5569
2026-01-08 07:46:12.22	285.36	9.39	-31.9	-32.7	22.6	0.00e+00	0	34	0	1706033152	38	5553
2026-01-08 07:46:13.23	285.54	9.39	-31.9	-32.8	22.6	0.00e+00	0	34	0	1713373184	38	5573
2026-01-08 07:46:14.24	285.71	9.40	-32.0	-32.8	22.6	0.00e+00	0	33	0	1719664640	38	5595
2026-01-08 07:46:15.25	285.89	9.41	-32.0	-32.8	22.6	0.00e+00	0	33	0	1728053248	38	5584
2026-01-08 07:46:16.26	286.07	9.42	-31.9	-32.8	22.6	0.00e+00	0	33	0	1735393280	38	5572
2026-01-08 07:46:17.26	286.24	9.42	-32.1	-32.9	22.5	0.00e+00	0	34	0	1741684736	38	5694
2026-01-08 07:46:18.28	286.42	9.43	-32.0	-32.8	22.5	0.00e+00	0	34	0	1749024768	38	5622
2026-01-08 07:46:19.29	286.60	9.43	-32.2	-33.0	22.4	0.00e+00	0	33	0	1756364800	38	5722
2026-01-08 07:46:20.30	286.77	9.44	-32.0	-32.9	22.5	0.00e+00	0	34	0	1763704832	38	5636
2026-01-08 07:46:21.30	286.95	9.45	-32.1	-33.0	22.4	0.00e+00	0	33	0	1771044864	38	5722
2026-01-08 07:46:22.31	287.13	9.45	-32.1	-32.9	22.4	0.00e+00	0	34	0	1778384896	38	5672
2026-01-08 07:46:23.32	287.30	9.46	-32.4	-33.2	22.3	0.00e+00	0	33	0	1785724928	38	5887
2026-01-08 07:46:24.33	287.48	9.46	-32.1	-33.0	22.4	0.00e+00	0	34	0	1793064960	38	5705
2026-01-08 07:46:25.34	287.66	9.47	-32.2	-33.1	22.3	0.00e+00	0	34	0	1800404992	38	5781
2026-01-08 07:46:26.35	287.84	9.47	-32.2	-33.0	22.3	0.00e+00	0	33	0	1807745024	38	5745
2026-01-08 07:46:27.36	288.01	9.47	-32.4	-33.2	22.2	0.00e+00	0	33	0	1815085056	38	5878
2026-01-08 07:46:28.37	288.19	9.48	-32.5	-33.4	22.1	0.00e+00	0	34	0	1822425088	38	5985
2026-01-08 07:46:29.38	288.37	9.48	-32.6	-33.4	22.1	0.00e+00	0	34	0	1829765120	38	6027
2026-01-08 07:46:30.39	288.55	9.49	-32.5	-33.4	22.1	0.00e+00	0	34	0	1837105152	38	5982
2026-01-08 07:46:31.40	288.72	9.49	-32.4	-33.2	22.2	0.00e+00	0	34	0	1844445184	38	5883
2026-01-08 07:46:32.41	288.90	9.49	-32.5	-33.3	22.2	0.00e+00	0	33	0	1851785216	38	5941
2026-01-08 07:46:33.42	289.08	9.49	-32.2	-33.1	22.4	0.00e+00	0	33	0	1859125248	38	5770
2026-01-08 07:46:34.43	289.26	9.50	-32.2	-33.0	22.4	0.00e+00	0	34	0	1865416704	38	5737
2026-01-08 07:46:35.44	289.43	9.50	-32.2	-33.1	22.4	0.00e+00	0	34	0	1872756736	38	5774
2026-01-08 07:46:36.45	289.61	9.50	-31.9	-32.8	22.5	0.00e+00	0	33	0	1881145344	38	5577
2026-01-08 07:46:37.46	289.79	9.50	-31.9	-32.7	22.6	0.00e+00	0	34	0	1887436800	38	5566
2026-01-08 07:46:38.47	289.97	9.50	-31.9	-32.7	22.6	0.00e+00	0	33	0	1894776832	38	5530
2026-01-08 07:46:39.48	290.15	9.51	-31.9	-32.7	22.6	0.00e+00	0	34	0	1902116864	38	5509
2026-01-08 07:46:40.49	290.32	9.51	-31.8	-32.6	22.7	0.00e+00	0	33	0	1909456896	38	5483
2026-01-08 07:46:41.49	290.50	9.51	-31.8	-32.6	22.7	0.00e+00	0	33	0	1916796928	38	5461
2026-01-08 07:46:42.51	290.68	9.51	-31.9	-32.7	22.7	0.00e+00	0	34	0	1924136960	38	5515
2026-01-08 07:46:43.51	290.86	9.51	-31.9	-32.7	22.7	0.00e+00	0	33	0	1931476992	38	5521
2026-01-08 07:46:44.53	291.03	9.51	-31.9	-32.7	22.6	0.00e+00	0	33	0	1938817024	38	5556
2026-01-08 07:46:45.53	291.21	9.51	-31.9	-32.7	22.7	0.00e+00	0	33	0	1946157056	38	5516
2026-01-08 07:46:46.55	291.39	9.51	-32.0	-32.8	22.6	0.00e+00	0	33	0	1953497088	38	5608
2026-01-08 07:46:47.56	291.57	9.51	-32.0	-32.8	22.6	0.00e+00	0	33	0	1960837120	38	5606
2026-01-08 07:46:48.56	291.74	9.51	-31.8	-32.6	22.8	0.00e+00	0	33	0	1968177152	38	5487
2026-01-08 07:46:49.57	291.92	9.51	-32.1	-32.9	22.4	0.00e+00	0	33	0	1975517184	38	5648
2026-01-08 07:46:50.58	292.10	9.51	-31.9	-32.7	22.5	0.00e+00	0	33	0	1982857216	38	5565
2026-01-08 07:46:51.59	292.28	9.50	-32.0	-32.8	22.5	0.00e+00	0	33	0	1990197248	38	5597
2026-01-08 07:46:52.60	292.46	9.50	-32.0	-32.8	22.5	0.00e+00	0	33	0	1997537280	38	5578
2026-01-08 07:46:53.61	292.63	9.50	-32.0	-32.8	22.5	0.00e+00	0	33	0	2004877312	38	5628
2026-01-08 07:46:54.62	292.81	9.50	-32.0	-32.8	22.4	0.00e+00	0	33	0	2012217344	38	5613
2026-01-08 07:46:55.63	292.99	9.49	-32.0	-32.8	22.4	0.00e+00	0	33	0	2018508800	38	5575
2026-01-08 07:46:56.64	293.17	9.49	-31.9	-32.7	22.5	0.00e+00	0	33	0	2025848832	38	5557
2026-01-08 07:46:57.65	293.34	9.49	-31.9	-32.7	22.6	0.00e+00	0	33	0	2034237440	38	5524
2026-01-08 07:46:58.66	293.52	9.49	-31.8	-32.6	22.5	0.00e+00	0	33	0	2040528896	38	5470
2026-01-08 07:46:59.66	293.70	9.48	-31.8	-32.6	22.5	0.00e+00	0	34	0	2047868928	36	6135
2026-01-08 07:47:00.67	293.88	9.48	-31.8	-32.7	22.5	0.00e+00	0	33	0	2055208960	36	6186
2026-01-08 07:47:01.69	294.05	9.47	-31.9	-32.7	22.5	0.00e+00	0	33	0	2062548992	36	6243
2026-01-08 07:47:02.70	294.23	9.47	-31.8	-32.6	22.5	0.00e+00	0	33	0	2069889024	36	6169
2026-01-08 07:47:03.71	294.41	9.47	-31.8	-32.6	22.5	0.00e+00	0	33	0	2077229056	36	6167
2026-01-08 07:47:04.72	294.59	9.46	-31.9	-32.8	22.5	0.00e+00	0	33	0	2084569088	36	6246
2026-01-08 07:47:05.73	294.76	9.46	-31.9	-32.8	22.5	0.00e+00	0	34	0	2091909120	36	6246
2026-01-08 07:47:06.74	294.94	9.45	-31.9	-32.7	22.4	0.00e+00	0	33	0	2099249152	36	6234
2026-01-08 07:47:07.75	295.12	9.45	-32.0	-32.8	22.4	0.00e+00	0	34	0	2106589184	36	6275
2026-01-08 07:47:08.75	295.29	9.44	-32.1	-32.9	22.2	0.00e+00	0	34	0	2113929216	36	6348
2026-01-08 07:47:09.76	295.47	9.43	-32.0	-32.8	22.2	0.00e+00	0	34	0	2121269248	36	6295
2026-01-08 07:47:10.77	295.65	9.43	-32.1	-32.9	22.3	0.00e+00	0	34	0	2128609280	36	6362
2026-01-08 07:47:11.78	295.82	9.42	-32.2	-33.1	22.2	0.00e+00	0	34	0	2135949312	36	6467
2026-01-08 07:47:12.79	296.00	9.42	-32.0	-32.9	22.4	0.00e+00	0	33	0	2143289344	36	6319
2026-01-08 07:47:13.80	296.18	9.41	-32.1	-33.0	22.2	0.00e+00	0	34	0	2150629376	36	6404
2026-01-08 07:47:14.82	296.36	9.40	-32.0	-32.9	22.3	0.00e+00	0	34	0	2157969408	36	6344
2026-01-08 07:47:15.82	296.53	9.39	-31.9	-32.7	22.5	0.00e+00	0	34	0	2165309440	36	6234
2026-01-08 07:47:16.83	296.71	9.39	-31.9	-32.7	22.5	0.00e+00	0	34	0	2171600896	36	6245
2026-01-08 07:47:17.84	296.88	9.38	-32.0	-32.8	22.4	0.00e+00	0	34	0	2178940928	36	6301
2026-01-08 07:47:18.86	297.06	9.37	-32.0	-32.9	22.4	0.00e+00	0	34	0	2187329536	36	6335
2026-01-08 07:47:19.87	297.24	9.36	-31.9	-32.8	22.4	0.00e+00	0	34	0	2193620992	36	6247
2026-01-08 07:47:20.88	297.41	9.36	-32.0	-32.9	22.4	0.00e+00	0	34	0	2200961024	36	6319
2026-01-08 07:47:21.88	297.59	9.35	-32.1	-33.0	22.3	0.00e+00	0	34	0	2208301056	36	6391
2026-01-08 07:47:22.89	297.76	9.34	-32.1	-33.0	22.2	0.00e+00	0	34	0	2215641088	36	6392
2026-01-08 07:47:23.90	297.94	9.33	-32.2	-33.0	22.3	0.00e+00	0	34	0	2222981120	36	6446
2026-01-08 07:47:24.91	298.11	9.32	-32.3	-33.1	22.3	0.00e+00	0	34	0	2230321152	36	6508
2026-01-08 07:47:25.92	298.29	9.31	-32.2	-33.0	22.4	0.00e+00	0	34	0	2237661184	36	6459
2026-01-08 07:47:26.93	298.47	9.30	-32.2	-33.0	22.5	0.00e+00	0	34	0	2245001216	36	6417
2026-01-08 07:47:27.94	298.64	9.29	-32.2	-33.0	22.5	0.00e+00	0	34	0	2252341248	36	6416
2026-01-08 07:47:28.95	298.82	9.28	-32.0	-32.8	22.6	0.00e+00	0	34	0	2259681280	36	6299
2026-01-08 07:47:29.95	298.99	9.27	-32.0	-32.8	22.7	0.00e+00	0	34	0	2267021312	36	6252
2026-01-08 07:47:30.97	299.17	9.26	-31.8	-32.6	22.7	0.00e+00	0	34	0	2274361344	36	6163
2026-01-08 07:47:31.98	299.34	9.25	-31.8	-32.7	22.8	0.00e+00	0	34	0	2281701376	36	6186
2026-01-08 07:47:32.99	299.52	9.24	-31.9	-32.7	22.7	0.00e+00	0	34	0	2289041408	36	6199
2026-01-08 07:47:34.00	299.69	9.23	-31.9	-32.8	22.6	0.00e+00	0	34	0	2296381440	36	6249
2026-01-08 07:47:35.01	299.86	9.21	-31.9	-32.7	22.6	0.00e+00	0	34	0	2303721472	36	6208
2026-01-08 07:47:36.01	300.04	9.20	-32.0	-32.8	22.6	0.00e+00	0	34	0	2311061504	36	6275
2026-01-08 07:47:37.02	300.21	9.19	-31.9	-32.7	22.7	0.00e+00	0	34	0	2317352960	36	6222
2026-01-08 07:47:38.03	300.38	9.18	-32.0	-32.8	22.6	0.00e+00	0	34	0	2324692992	36	6303
2026-01-08 07:47:39.04	300.56	9.17	-32.0	-32.8	22.5	0.00e+00	0	34	0	2332033024	36	6309
2026-01-08 07:47:40.05	300.73	9.15	-32.0	-32.8	22.6	0.00e+00	0	34	0	2339373056	36	6288
2026-01-08 07:47:41.06	300.91	9.14	-32.0	-32.8	22.5	0.00e+00	0	34	0	2346713088	36	6310
2026-01-08 07:47:42.07	301.08	9.13	-32.1	-32.9	22.5	0.00e+00	0	34	0	2354053120	36	6348
2026-01-08 07:47:43.08	301.25	9.11	-32.3	-33.1	22.5	0.00e+00	0	34	0	2361393152	36	6483
2026-01-08 07:47:44.09	301.42	9.10	-32.1	-32.9	22.5	0.00e+00	0	34	0	2368733184	36	6379
2026-01-08 07:47:45.10	301.60	9.09	-32.1	-32.9	22.5	0.00e+00	0	34	0	2376073216	36	6346
2026-01-08 07:47:46.11	301.77	9.07	-32.0	-32.8	22.6	0.00e+00	0	34	0	2383413248	36	6288
2026-01-08 07:47:47.12	301.94	9.06	-32.1	-32.9	22.6	0.00e+00	0	34	0	2390753280	36	6341
2026-01-08 07:47:48.13	302.12	9.04	-32.0	-32.8	22.6	0.00e+00	0	34	0	2398093312	36	6292
2026-01-08 07:47:49.15	302.29	9.03	-32.2	-33.0	22.4	0.00e+00	0	34	0	2405433344	36	6411
2026-01-08 07:47:50.16	302.46	9.01	-32.1	-33.0	22.4	0.00e+00	0	34	0	2412773376	36	6409
2026-01-08 07:47:51.17	302.63	9.00	-32.3	-33.2	22.3	0.00e+00	0	34	0	2420113408	36	6557
2026-01-08 07:47:52.17	302.80	8.98	-32.4	-33.2	22.2	0.00e+00	0	34	0	2427453440	36	6592
2026-01-08 07:47:53.18	302.97	8.97	-32.5	-33.3	22.2	0.00e+00	0	33	0	2434793472	36	6667
2026-01-08 07:47:54.19	303.15	8.95	-32.3	-33.2	22.2	0.00e+00	0	33	0	2442133504	36	6577
2026-01-08 07:47:55.20	303.32	8.94	-32.5	-33.4	22.1	0.00e+00	0	33	0	2449473536	36	6731
2026-01-08 07:47:56.21	303.49	8.92	-32.7	-33.5	22.0	0.00e+00	0	34	0	2456813568	36	6829
2026-01-08 07:47:57.22	303.66	8.90	-32.9	-33.6	24.2	0.00e+00	0	34	0	2464153600	38	6123
2026-01-08 07:47:58.24	303.83	8.89	-32.7	-33.4	24.1	0.00e+00	0	34	0	2470445056	38	5970
2026-01-08 07:47:59.25	304.00	8.87	-32.7	-33.4	24.3	0.00e+00	0	34	0	2478833664	38	5999
2026-01-08 07:48:00.25	304.17	8.85	-32.6	-33.3	24.4	0.00e+00	0	34	0	2486173696	38	5900
2026-01-08 07:48:01.27	304.34	8.84	-32.6	-33.3	24.4	0.00e+00	0	34	0	2492465152	38	5924
2026-01-08 07:48:02.28	304.51	8.82	-32.5	-33.1	24.3	0.00e+00	0	34	0	2499805184	38	5815
2026-01-08 07:48:03.28	304.68	8.80	-32.5	-33.1	24.5	0.00e+00	0	34	0	2507145216	38	5798
2026-01-08 07:48:04.29	304.85	8.78	-32.4	-33.1	24.5	0.00e+00	0	34	0	2514485248	38	5784
2026-01-08 07:48:05.30	305.02	8.77	-32.4	-33.0	24.5	0.00e+00	0	34	0	2521825280	38	5761
2026-01-08 07:48:06.32	305.19	8.75	-32.5	-33.1	24.5	0.00e+00	0	34	0	2529165312	38	5818
2026-01-08 07:48:07.33	305.36	8.73	-32.5	-33.1	24.5	0.00e+00	0	34	0	2536505344	38	5804
2026-01-08 07:48:08.33	305.52	8.71	-32.3	-32.9	24.6	0.00e+00	0	34	0	2543845376	38	5685
2026-01-08 07:48:09.34	305.69	8.69	-32.4	-33.0	24.5	0.00e+00	0	34	0	2551185408	38	5725
2026-01-08 07:48:10.35	305.86	8.67	-32.4	-33.0	24.5	0.00e+00	0	34	0	2558525440	38	5745
2026-01-08 07:48:11.36	306.03	8.65	-32.4	-33.0	24.5	0.00e+00	0	34	0	2565865472	38	5740
2026-01-08 07:48:12.37	306.20	8.63	-32.4	-33.0	24.5	0.00e+00	0	33	0	2573205504	38	5722
2026-01-08 07:48:13.38	306.36	8.61	-32.4	-33.0	24.5	0.00e+00	0	34	0	2580545536	38	5755
2026-01-08 07:48:14.39	306.53	8.59	-32.4	-33.1	24.5	0.00e+00	0	34	0	2587885568	38	5763
2026-01-08 07:48:15.40	306.70	8.57	-32.5	-33.1	24.4	0.00e+00	0	34	0	2595225600	38	5794
2026-01-08 07:48:16.41	306.87	8.55	-32.5	-33.1	24.5	0.00e+00	0	34	0	2602565632	38	5828
2026-01-08 07:48:17.42	307.03	8.53	-32.5	-33.2	24.3	0.00e+00	0	34	0	2609905664	38	5844
2026-01-08 07:48:18.43	307.20	8.51	-32.6	-33.2	24.4	0.00e+00	0	34	0	2616197120	38	5886
2026-01-08 07:48:19.44	307.36	8.49	-32.7	-33.3	24.2	0.00e+00	0	34	0	2623537152	38	5952
2026-01-08 07:48:20.45	307.53	8.47	-32.7	-33.4	24.3	0.00e+00	0	34	0	2631925760	38	5970
2026-01-08 07:48:21.46	307.70	8.45	-32.5	-33.2	24.4	0.00e+00	0	34	0	2638217216	38	5836
2026-01-08 07:48:22.47	307.86	8.43	-32.6	-33.3	24.3	0.00e+00	0	34	0	2645557248	38	5903
2026-01-08 07:48:23.48	308.03	8.41	-32.5	-33.2	24.3	0.00e+00	0	34	0	2652897280	38	5837
2026-01-08 07:48:24.49	308.19	8.39	-32.5	-33.1	24.4	0.00e+00	0	34	0	2660237312	38	5824
2026-01-08 07:48:25.50	308.36	8.36	-32.6	-33.2	24.4	0.00e+00	0	34	0	2667577344	38	5873
2026-01-08 07:48:26.51	308.52	8.34	-32.5	-33.2	24.4	0.00e+00	0	34	0	2674917376	38	5855
2026-01-08 07:48:27.51	308.68	8.32	-32.7	-33.4	24.2	0.00e+00	0	34	0	2682257408	38	5975
2026-01-08 07:48:28.52	308.85	8.30	-32.8	-33.4	24.2	0.00e+00	0	34	0	2689597440	38	6004
2026-01-08 07:48:29.53	309.01	8.28	-32.9	-33.5	24.1	0.00e+00	0	34	0	2696937472	38	6075
2026-01-08 07:48:30.54	309.18	8.25	-32.8	-33.4	24.1	0.00e+00	0	34	0	2704277504	38	6032
2026-01-08 07:48:31.55	309.34	8.23	-32.8	-33.5	24.1	0.00e+00	0	34	0	2711617536	38	6068
2026-01-08 07:48:32.56	309.50	8.21	-32.9	-33.6	24.0	0.00e+00	0	34	0	2718957568	38	6105
2026-01-08 07:48:33.57	309.66	8.18	-32.9	-33.6	23.9	0.00e+00	0	34	0	2726297600	38	6127
2026-01-08 07:48:34.58	309.83	8.16	-33.0	-33.7	23.9	0.00e+00	0	33	0	2733637632	38	6201
2026-01-08 07:48:35.59	309.99	8.14	-33.0	-33.7	23.9	0.00e+00	0	34	0	2740977664	38	6211
2026-01-08 07:48:36.60	310.15	8.11	-33.2	-33.8	23.7	0.00e+00	0	34	0	2748317696	38	6296
2026-01-08 07:48:37.61	310.31	8.09	-33.1	-33.7	23.9	0.00e+00	0	34	0	2755657728	38	6217
2026-01-08 07:48:38.62	310.47	8.06	-33.0	-33.6	23.9	0.00e+00	0	34	0	2762997760	38	6165
2026-01-08 07:48:39.63	310.64	8.04	-33.0	-33.6	23.9	0.00e+00	0	34	0	2769289216	38	6150
2026-01-08 07:48:40.64	310.80	8.02	-32.9	-33.5	24.0	0.00e+00	0	34	0	2776629248	38	6073
2026-01-08 07:48:41.65	310.96	7.99	-32.9	-33.5	24.1	0.00e+00	0	34	0	2785017856	38	6074
2026-01-08 07:48:42.66	311.12	7.97	-32.7	-33.4	24.1	0.00e+00	0	34	0	2791309312	38	5981
2026-01-08 07:48:43.67	311.28	7.94	-32.8	-33.4	24.1	0.00e+00	0	34	0	2798649344	38	6013
2026-01-08 07:48:44.68	311.44	7.92	-32.6	-33.2	24.3	0.00e+00	0	34	0	2805989376	38	5894
2026-01-08 07:48:45.69	311.60	7.89	-32.7	-33.3	24.2	0.00e+00	0	34	0	2813329408	38	5955
2026-01-08 07:48:46.69	311.75	7.87	-32.6	-33.3	24.3	0.00e+00	0	34	0	2820669440	38	5913
2026-01-08 07:48:47.70	311.91	7.84	-32.5	-33.2	24.3	0.00e+00	0	34	0	2828009472	38	5831
2026-01-08 07:48:48.71	312.07	7.81	-32.6	-33.3	24.3	0.00e+00	0	33	0	2835349504	38	5928
2026-01-08 07:48:49.72	312.23	7.79	-32.6	-33.3	24.1	0.00e+00	0	34	0	2842689536	38	5907
2026-01-08 07:48:50.73	312.39	7.76	-32.8	-33.4	24.1	0.00e+00	0	34	0	2850029568	38	6024
2026-01-08 07:48:51.74	312.55	7.74	-32.7	-33.3	24.1	0.00e+00	0	34	0	2857369600	38	5957
2026-01-08 07:48:52.75	312.71	7.71	-32.7	-33.4	24.1	0.00e+00	0	34	0	2864709632	38	5991
2026-01-08 07:48:53.76	312.86	7.68	-32.8	-33.5	24.0	0.00e+00	0	34	0	2872049664	38	6066
2026-01-08 07:48:54.77	313.02	7.66	-32.8	-33.5	24.1	0.00e+00	0	34	0	2879389696	38	6064
2026-01-08 07:48:55.78	313.18	7.63	-32.9	-33.5	24.0	0.00e+00	0	34	0	2886729728	38	6057
2026-01-08 07:48:56.79	313.33	7.60	-33.0	-33.6	23.9	0.00e+00	0	34	0	2893021184	38	6164
2026-01-08 07:48:57.80	313.49	7.58	-33.0	-33.6	23.9	0.00e+00	0	34	0	2901409792	38	6147
2026-01-08 07:48:58.81	313.65	7.55	-32.9	-33.6	23.8	0.00e+00	0	34	0	2908749824	38	6127
2026-01-08 07:48:59.82	313.80	7.52	-33.0	-33.7	23.8	0.00e+00	0	34	0	2915041280	38	6174
2026-01-08 07:49:00.83	313.96	7.49	-33.0	-33.6	23.9	0.00e+00	0	34	0	2922381312	38	6162
2026-01-08 07:49:01.84	314.11	7.47	-33.1	-33.7	23.8	0.00e+00	0	34	0	2929721344	38	6226
2026-01-08 07:49:02.85	314.27	7.44	-33.2	-33.8	23.7	0.00e+00	0	34	0	2937061376	38	6314
2026-01-08 07:49:03.85	314.42	7.41	-33.1	-33.7	23.7	0.00e+00	0	34	0	2944401408	38	6238
2026-01-08 07:49:04.86	314.57	7.38	-33.1	-33.8	23.7	0.00e+00	0	34	0	2951741440	38	6253
2026-01-08 07:49:05.87	314.73	7.35	-33.1	-33.8	23.6	0.00e+00	0	34	0	2959081472	38	6270
2026-01-08 07:49:06.88	314.88	7.32	-33.2	-33.9	23.6	0.00e+00	0	34	0	2966421504	38	6359
2026-01-08 07:49:07.89	315.04	7.30	-33.1	-33.7	23.7	0.00e+00	0	34	0	2973761536	38	6243
2026-01-08 07:49:08.90	315.19	7.27	-33.1	-33.8	23.8	0.00e+00	0	34	0	2981101568	38	6275
2026-01-08 07:49:09.91	315.34	7.24	-33.2	-33.9	23.6	0.00e+00	0	34	0	2988441600	38	6364
2026-01-08 07:49:10.92	315.49	7.21	-33.1	-33.8	23.8	0.00e+00	0	34	0	2995781632	38	6266
2026-01-08 07:49:11.93	315.65	7.18	-33.2	-33.8	23.6	0.00e+00	0	34	0	3003121664	38	6296
2026-01-08 07:49:12.94	315.80	7.15	-33.1	-33.8	23.7	0.00e+00	0	34	0	3010461696	38	6273
2026-01-08 07:49:13.95	315.95	7.12	-33.2	-33.9	23.7	0.00e+00	0	34	0	3017801728	38	6365
2026-01-08 07:49:14.96	316.10	7.09	-33.0	-33.6	23.7	0.00e+00	0	34	0	3025141760	38	6163
2026-01-08 07:49:15.97	316.25	7.06	-33.0	-33.6	23.8	0.00e+00	0	34	0	3032481792	38	6171
2026-01-08 07:49:16.98	316.40	7.03	-33.0	-33.6	23.9	0.00e+00	0	34	0	3039821824	38	6141
2026-01-08 07:49:17.99	316.55	7.00	-32.9	-33.5	23.9	0.00e+00	0	34	0	3046113280	38	6074
2026-01-08 07:49:19.00	316.70	6.97	-33.0	-33.6	23.8	0.00e+00	0	34	0	3054501888	38	6170
2026-01-08 07:49:20.01	316.85	6.94	-33.0	-33.7	23.9	0.00e+00	0	33	0	3061841920	38	6207
2026-01-08 07:49:21.01	317.00	6.91	-32.9	-33.6	23.8	0.00e+00	0	34	0	3068133376	38	6133
2026-01-08 07:49:22.02	317.15	6.88	-33.1	-33.7	23.7	0.00e+00	0	33	0	3075473408	38	6230
2026-01-08 07:49:23.03	317.30	6.85	-33.2	-33.8	23.6	0.00e+00	0	33	0	3082813440	38	6315
2026-01-08 07:49:24.04	317.45	6.82	-33.2	-33.9	23.6	0.00e+00	0	33	0	3090153472	38	6322
2026-01-08 07:49:25.05	317.60	6.79	-33.3	-33.9	23.4	0.00e+00	0	33	0	3097493504	38	6380
2026-01-08 07:49:26.06	317.75	6.76	-33.6	-34.2	23.3	0.00e+00	0	34	0	3104833536	38	6591
2026-01-08 07:49:27.08	317.89	6.73	-33.3	-34.0	23.4	0.00e+00	0	34	0	3112173568	38	6392
2026-01-08 07:49:28.08	318.04	6.70	-33.5	-34.1	23.5	0.00e+00	0	34	0	3119513600	38	6519
2026-01-08 07:49:29.09	318.19	6.66	-33.5	-34.1	23.4	0.00e+00	0	34	0	3126853632	38	6527
2026-01-08 07:49:30.10	318.33	6.63	-33.6	-34.3	23.3	0.00e+00	0	34	0	3134193664	38	6636
2026-01-08 07:49:31.11	318.48	6.60	-33.6	-34.2	23.1	0.00e+00	0	34	0	3141533696	38	6602
2026-01-08 07:49:32.12	318.63	6.57	-33.6	-34.3	23.2	0.00e+00	0	34	0	3148873728	38	6648
2026-01-08 07:49:33.13	318.77	6.54	-33.5	-34.1	23.4	0.00e+00	0	34	0	3156213760	38	6528
2026-01-08 07:49:34.14	318.92	6.51	-33.7	-34.4	23.2	0.00e+00	0	34	0	3163553792	38	6699
2026-01-08 07:49:35.15	319.06	6.47	-33.5	-34.1	23.3	0.00e+00	0	34	0	3170893824	38	6525
2026-01-08 07:49:36.16	319.21	6.44	-33.4	-34.0	23.4	0.00e+00	0	34	0	3178233856	38	6455
2026-01-08 07:49:37.17	319.35	6.41	-33.3	-34.0	23.4	0.00e+00	0	34	0	3185573888	38	6430
2026-01-08 07:49:38.18	319.50	6.38	-33.3	-34.0	23.4	0.00e+00	0	33	0	3191865344	38	6399
2026-01-08 07:49:39.19	319.64	6.34	-33.3	-33.9	23.5	0.00e+00	0	33	0	3199205376	38	6379
2026-01-08 07:49:40.20	319.79	6.31	-33.2	-33.9	23.5	0.00e+00	0	34	0	3207593984	38	6328
2026-01-08 07:49:41.21	319.93	6.28	-33.1	-33.8	23.4	0.00e+00	0	34	0	3213885440	38	6279
2026-01-08 07:49:42.22	320.07	6.25	-33.3	-33.9	23.4	0.00e+00	0	34	0	3221225472	38	6374
2026-01-08 07:49:43.23	320.22	6.21	-33.4	-34.1	23.4	0.00e+00	0	33	0	3228565504	38	6489
2026-01-08 07:49:44.24	320.36	6.18	-33.3	-34.0	23.3	0.00e+00	0	34	0	3235905536	38	6412
2026-01-08 07:49:45.25	320.50	6.15	-33.4	-34.1	23.4	0.00e+00	0	34	0	3243245568	38	6491
2026-01-08 07:49:46.26	320.64	6.11	-33.3	-34.0	23.3	0.00e+00	0	34	0	3250585600	38	6410
2026-01-08 07:49:47.27	320.78	6.08	-33.5	-34.1	23.2	0.00e+00	0	34	0	3257925632	38	6518
2026-01-08 07:49:48.28	320.92	6.05	-33.6	-34.3	23.1	0.00e+00	0	34	0	3265265664	38	6658
2026-01-08 07:49:49.29	321.07	6.01	-33.5	-34.2	23.2	0.00e+00	0	33	0	3272605696	38	6555
2026-01-08 07:49:50.30	321.21	5.98	-33.8	-34.4	23.0	0.00e+00	0	34	0	3279945728	38	6760
2026-01-08 07:49:51.31	321.35	5.95	-33.6	-34.3	23.0	0.00e+00	0	33	0	3287285760	40	5949
2026-01-08 07:49:52.32	321.49	5.91	-33.6	-34.3	23.0	0.00e+00	0	34	0	3294625792	40	5941
2026-01-08 07:49:53.33	321.63	5.88	-33.6	-34.3	22.9	0.00e+00	0	34	0	3301965824	40	5928
2026-01-08 07:49:54.35	321.77	5.84	-33.7	-34.4	22.8	0.00e+00	0	34	0	3309305856	40	6019
2026-01-08 07:49:55.35	321.90	5.81	-33.8	-34.5	22.9	0.00e+00	0	34	0	3316645888	40	6056
2026-01-08 07:49:56.36	322.04	5.78	-33.8	-34.4	22.9	0.00e+00	0	34	0	3323985920	40	6030
2026-01-08 07:49:57.37	322.18	5.74	-33.9	-34.5	22.7	0.00e+00	0	34	0	3331325952	40	6097
2026-01-08 07:49:58.38	322.32	5.71	-33.9	-34.6	22.7	0.00e+00	0	34	0	3338665984	40	6128
2026-01-08 07:49:59.40	322.46	5.67	-33.8	-34.5	22.8	0.00e+00	0	34	0	3346006016	40	6071
2026-01-08 07:50:00.41	322.60	5.64	-33.8	-34.5	22.7	0.00e+00	0	34	0	3353346048	40	6095
2026-01-08 07:50:01.42	322.73	5.60	-33.9	-34.6	22.7	0.00e+00	0	34	0	3360686080	40	6104
2026-01-08 07:50:02.42	322.87	5.57	-34.0	-34.8	22.5	0.00e+00	0	34	0	3366977536	40	6246
2026-01-08 07:50:03.44	323.01	5.53	-34.0	-34.7	22.6	0.00e+00	0	34	0	3374317568	40	6237
2026-01-08 07:50:04.45	323.14	5.50	-34.0	-34.7	22.6	0.00e+00	0	34	0	3382706176	40	6220
2026-01-08 07:50:05.46	323.28	5.46	-34.0	-34.7	22.7	0.00e+00	0	34	0	3388997632	40	6190
2026-01-08 07:50:06.46	323.41	5.43	-34.0	-34.7	22.7	0.00e+00	0	34	0	3396337664	40	6198
2026-01-08 07:50:07.47	323.55	5.39	-34.1	-34.8	22.5	0.00e+00	0	34	0	3403677696	40	6264
2026-01-08 07:50:08.49	323.68	5.36	-33.9	-34.6	22.7	0.00e+00	0	34	0	3411017728	40	6146
2026-01-08 07:50:09.50	323.82	5.32	-33.9	-34.6	22.7	0.00e+00	0	34	0	3418357760	40	6143
2026-01-08 07:50:10.51	323.95	5.29	-34.0	-34.7	22.5	0.00e+00	0	34	0	3425697792	40	6239
2026-01-08 07:50:11.52	324.09	5.25	-34.1	-34.8	22.4	0.00e+00	0	33	0	3433037824	40	6316
2026-01-08 07:50:12.53	324.22	5.22	-34.1	-34.9	22.4	0.00e+00	0	34	0	3440377856	40	6327
2026-01-08 07:50:13.54	324.36	5.18	-34.1	-34.9	22.4	0.00e+00	0	34	0	3447717888	40	6329
2026-01-08 07:50:14.55	324.49	5.15	-34.1	-34.8	22.4	0.00e+00	0	34	0	3455057920	40	6314
2026-01-08 07:50:15.56	324.62	5.11	-34.3	-35.0	22.2	0.00e+00	0	34	0	3462397952	40	6414
2026-01-08 07:50:16.57	324.75	5.07	-33.9	-34.6	22.6	0.00e+00	0	34	0	3469737984	40	6147
2026-01-08 07:50:17.58	324.89	5.04	-34.0	-34.7	22.6	0.00e+00	0	34	0	3477078016	40	6198
2026-01-08 07:50:18.59	325.02	5.00	-34.1	-34.8	22.4	0.00e+00	0	34	0	3484418048	40	6297
2026-01-08 07:50:19.60	325.15	4.97	-33.8	-34.5	22.6	0.00e+00	0	34	0	3491758080	40	6087
2026-01-08 07:50:20.61	325.28	4.93	-33.9	-34.6	22.6	0.00e+00	0	34	0	3499098112	40	6127
2026-01-08 07:50:21.62	325.41	4.89	-33.9	-34.6	22.6	0.00e+00	0	34	0	3506438144	40	6107
2026-01-08 07:50:22.63	325.54	4.86	-33.9	-34.6	22.5	0.00e+00	0	34	0	3512729600	40	6156
2026-01-08 07:50:23.64	325.67	4.82	-33.9	-34.6	22.5	0.00e+00	0	34	0	3520069632	40	6169
2026-01-08 07:50:24.65	325.80	4.78	-33.9	-34.6	22.5	0.00e+00	0	34	0	3528458240	40	6162
2026-01-08 07:50:25.66	325.93	4.75	-34.2	-34.9	22.3	0.00e+00	0	34	0	3534749696	40	6337
2026-01-08 07:50:26.67	326.06	4.71	-34.2	-34.9	22.2	0.00e+00	0	34	0	3542089728	40	6351
2026-01-08 07:50:27.68	326.19	4.67	-34.2	-34.9	22.2	0.00e+00	0	34	0	3549429760	40	6381
2026-01-08 07:50:28.69	326.32	4.64	-34.3	-35.0	22.1	0.00e+00	0	34	0	3556769792	40	6462
2026-01-08 07:50:29.70	326.45	4.60	-34.3	-35.0	22.1	0.00e+00	0	34	0	3564109824	40	6418
2026-01-08 07:50:30.71	326.58	4.56	-34.4	-35.1	22.0	0.00e+00	0	34	0	3571449856	40	6518
2026-01-08 07:50:31.72	326.70	4.53	-34.4	-35.1	22.0	0.00e+00	0	34	0	3578789888	40	6511
2026-01-08 07:50:32.73	326.83	4.49	-34.4	-35.1	22.1	0.00e+00	0	34	0	3586129920	40	6494
2026-01-08 07:50:33.74	326.96	4.45	-34.5	-35.3	21.9	0.00e+00	0	34	0	3593469952	40	6633
2026-01-08 07:50:34.75	327.08	4.42	-34.4	-35.1	22.0	0.00e+00	0	34	0	3600809984	40	6512
2026-01-08 07:50:35.76	327.21	4.38	-34.4	-35.2	22.0	0.00e+00	0	34	0	3608150016	40	6545
2026-01-08 07:50:36.77	327.34	4.34	-34.4	-35.1	21.9	0.00e+00	0	34	0	3615490048	40	6525
2026-01-08 07:50:37.78	327.46	4.30	-34.5	-35.2	21.9	0.00e+00	0	34	0	3622830080	40	6573
2026-01-08 07:50:38.79	327.59	4.27	-34.4	-35.2	21.9	0.00e+00	0	34	0	3630170112	40	6549
2026-01-08 07:50:39.80	327.71	4.23	-34.2	-34.9	22.1	0.00e+00	0	34	0	3637510144	40	6377
2026-01-08 07:50:40.81	327.84	4.19	-34.2	-34.9	22.1	0.00e+00	0	34	0	3644850176	40	6363
2026-01-08 07:50:41.82	327.96	4.15	-34.1	-34.8	22.2	0.00e+00	0	34	0	3652190208	40	6283
2026-01-08 07:50:42.83	328.09	4.12	-34.2	-34.9	22.0	0.00e+00	0	34	0	3659530240	40	6365
2026-01-08 07:50:43.84	328.21	4.08	-34.3	-35.0	22.2	0.00e+00	0	34	0	3665821696	40	6417
2026-01-08 07:50:44.85	328.34	4.04	-34.0	-34.7	22.3	0.00e+00	0	34	0	3674210304	40	6201
2026-01-08 07:50:45.86	328.46	4.00	-34.0	-34.7	22.3	0.00e+00	0	34	0	3681550336	40	6204
2026-01-08 07:50:46.87	328.58	3.97	-33.9	-34.7	22.3	0.00e+00	0	34	0	3687841792	40	6174
2026-01-08 07:50:47.88	328.71	3.93	-33.9	-34.6	22.4	0.00e+00	0	34	0	3695181824	40	6125
2026-01-08 07:50:48.89	328.83	3.89	-33.9	-34.6	22.1	0.00e+00	0	34	0	3702521856	40	6157
2026-01-08 07:50:49.90	328.95	3.85	-33.9	-34.6	22.2	0.00e+00	0	34	0	3709861888	40	6141
2026-01-08 07:50:50.91	329.07	3.81	-34.0	-34.7	22.0	0.00e+00	0	34	0	3717201920	40	6242
2026-01-08 07:50:51.92	329.19	3.78	-33.9	-34.6	22.2	0.00e+00	0	34	0	3724541952	40	6136
2026-01-08 07:50:52.93	329.32	3.74	-34.1	-34.8	22.0	0.00e+00	0	34	0	3731881984	40	6268
2026-01-08 07:50:53.94	329.44	3.70	-34.3	-35.0	21.7	0.00e+00	0	34	0	3739222016	40	6428
2026-01-08 07:50:54.95	329.56	3.66	-34.4	-35.2	21.5	0.00e+00	0	34	0	3746562048	40	6555
2026-01-08 07:50:55.96	329.68	3.62	-34.5	-35.2	21.5	0.00e+00	0	34	0	3753902080	40	6592
2026-01-08 07:50:56.96	329.80	3.59	-34.7	-35.4	21.2	0.00e+00	0	34	0	3761242112	40	6762
2026-01-08 07:50:57.97	329.92	3.55	-34.9	-35.7	20.9	0.00e+00	0	34	0	3768582144	42	6203
2026-01-08 07:50:58.98	330.04	3.51	-35.0	-35.8	20.7	0.00e+00	0	34	0	3775922176	42	6264
2026-01-08 07:50:59.99	330.16	3.47	-35.3	-36.1	20.3	0.00e+00	0	34	0	3783262208	42	6498
2026-01-08 07:51:01.00	330.27	3.43	-35.5	-36.3	20.0	0.00e+00	0	34	0	3790602240	42	6668
2026-01-08 07:51:02.02	330.39	3.39	-35.9	-36.7	19.6	0.00e+00	0	34	0	3797942272	42	6991
2026-01-08 07:51:03.03	330.51	3.35	-36.1	-37.1	19.0	0.00e+00	0	34	0	3805282304	44	6467
2026-01-08 07:51:04.04	330.63	3.32	-36.5	-37.4	18.4	0.00e+00	0	34	0	3811573760	44	6763
2026-01-08 07:51:05.05	330.75	3.28	-37.1	-38.2	17.5	0.00e+00	0	34	0	3819962368	46	6540
2026-01-08 07:51:06.06	330.87	3.24	-37.5	-38.6	16.9	0.00e+00	0	34	0	3827302400	46	6878
2026-01-08 07:51:07.07	330.98	3.20	-37.8	-39.1	16.1	0.00e+00	0	34	0	3833593856	48	6478
2026-01-08 07:51:08.08	331.10	3.16	-38.6	-40.1	14.8	0.00e+00	0	34	0	3840933888	48	7269
2026-01-08 07:51:09.09	331.22	3.12	-39.1	-40.7	13.7	1.10e-06	0	34	0	3848273920	50	6958
2026-01-08 07:51:10.10	331.33	3.08	-39.6	-41.5	12.6	4.23e-05	0	34	0	3855613952	50	7632
2026-01-08 07:51:11.11	331.45	3.04	-40.4	-42.8	11.2	7.68e-04	0	34	0	3862953984	52	7919
2026-01-08 07:51:12.12	331.56	3.01	-40.9	-43.7	9.2	7.17e-03	0	34	0	3870294016	54	7821
2026-01-08 07:51:13.13	331.68	2.97	-47.1	-58.3	3.6	8.44e-01	0	34	104	3873439744	60	29768
2026-01-08 07:51:14.14	331.79	2.93	-47.6	-58.8	3.6	8.45e-01	0	34	104	3873439744	60	31487
2026-01-08 07:51:15.15	331.91	2.89	-48.0	-59.1	3.6	8.44e-01	0	34	104	3873439744	60	32729
2026-01-08 07:51:16.16	332.02	2.85	-48.1	-59.3	3.6	8.45e-01	0	34	104	3873439744	60	33363
2026-01-08 07:51:17.17	332.14	2.81	-48.1	-59.5	3.6	8.45e-01	0	34	104	3873439744	60	33939
2026-01-08 07:51:18.18	332.25	2.77	-48.0	-59.5	3.6	8.46e-01	0	34	104	3873439744	60	34307
2026-01-08 07:51:19.19	332.37	2.73	-48.4	-59.6	3.6	8.45e-01	0	34	104	3873439744	60	34428
2026-01-08 07:51:20.20	332.48	2.69	-48.4	-59.7	3.6	8.47e-01	0	34	104	3873439744	60	34807
2026-01-08 07:51:21.21	332.59	2.65	-48.3	-59.6	3.6	8.46e-01	0	34	104	3873439744	60	34586
2026-01-08 07:51:22.22	332.71	2.61	-48.4	-59.6	3.6	8.45e-01	0	34	104	3873439744	60	34685
2026-01-08 07:51:23.23	332.82	2.58	-48.2	-59.6	3.6	8.44e-01	0	34	104	3873439744	60	34415
2026-01-08 07:51:24.24	332.93	2.54	-48.2	-59.5	3.6	8.45e-01	0	34	104	3873439744	60	34029
2026-01-08 07:51:25.25	333.04	2.50	-48.4	-59.6	3.6	8.46e-01	0	34	104	3873439744	60	34568
2026-01-08 07:51:26.26	333.15	2.46	-48.3	-59.6	3.6	8.45e-01	0	34	104	3873439744	60	34473
2026-01-08 07:51:27.27	333.27	2.42	-48.3	-59.6	3.6	8.45e-01	0	34	104	3873439744	60	34483
2026-01-08 07:51:28.28	333.38	2.38	-48.3	-59.5	3.6	8.46e-01	0	34	104	3873439744	60	34206
2026-01-08 07:51:29.29	333.49	2.34	-48.4	-59.7	3.6	8.44e-01	0	34	104	3873439744	60	34722
2026-01-08 07:51:30.29	333.60	2.30	-48.4	-59.6	3.6	8.45e-01	0	34	104	3873439744	60	34575
2026-01-08 07:51:31.31	333.71	2.26	-48.4	-59.6	3.6	8.46e-01	0	34	104	3873439744	60	34430
2026-01-08 07:51:32.32	333.82	2.22	-48.4	-59.6	3.6	8.45e-01	0	34	104	3873439744	60	34601
2026-01-08 07:51:33.33	333.93	2.18	-48.4	-59.5	3.5	8.45e-01	0	34	104	3873439744	60	34310
2026-01-08 07:51:34.34	334.04	2.14	-48.3	-59.6	3.6	8.45e-01	0	34	104	3873439744	60	34412
2026-01-08 07:51:35.34	334.15	2.10	-48.3	-59.5	3.6	8.45e-01	0	34	104	3873439744	60	34300
2026-01-08 07:51:36.35	334.25	2.06	-48.3	-59.5	3.6	8.45e-01	0	34	104	3873439744	60	34307
2026-01-08 07:51:37.36	334.36	2.02	-48.3	-59.6	3.6	8.45e-01	0	34	104	3873439744	60	34409
2026-01-08 07:51:38.37	334.47	1.98	-48.3	-59.6	3.6	8.45e-01	0	34	104	3873439744	60	34372
2026-01-08 07:51:39.38	334.58	1.94	-48.3	-59.5	3.6	8.46e-01	0	34	104	3873439744	60	34258
2026-01-08 07:51:40.39	334.69	1.90	-48.3	-59.5	3.5	8.45e-01	0	34	104	3873439744	60	34163
2026-01-08 07:51:41.40	334.79	1.86	-48.3	-59.5	3.6	8.45e-01	0	34	104	3873439744	60	34246
2026-01-08 07:51:42.41	334.90	1.82	-48.3	-59.5	3.6	8.45e-01	0	34	104	3873439744	60	34183
2026-01-08 07:51:43.42	335.01	1.78	-48.3	-59.6	3.6	8.43e-01	0	34	104	3873439744	60	34336
2026-01-08 07:51:44.43	335.11	1.74	-48.3	-59.5	3.6	8.45e-01	0	34	104	3873439744	60	34178
2026-01-08 07:51:45.43	335.22	1.70	-48.3	-59.5	3.6	8.45e-01	0	34	104	3873439744	60	34154
2026-01-08 07:51:46.44	335.33	1.66	-48.3	-59.5	3.6	8.45e-01	0	34	104	3873439744	60	34301
2026-01-08 07:51:47.45	335.43	1.62	-48.3	-59.5	3.6	8.45e-01	0	34	104	3873439744	60	34162
2026-01-08 07:51:48.46	335.54	1.59	-48.3	-59.6	3.6	8.46e-01	0	34	104	3873439744	60	34330
2026-01-08 07:51:49.47	335.64	1.55	-48.3	-59.5	3.6	8.46e-01	0	34	104	3873439744	60	34205
2026-01-08 07:51:50.48	335.75	1.51	-48.3	-59.5	3.6	8.45e-01	0	34	104	3873439744	60	34238
2026-01-08 07:51:51.49	335.85	1.47	-48.3	-59.5	3.6	8.46e-01	0	34	104	3873439744	60	34177
2026-01-08 07:51:52.50	335.96	1.43	-48.3	-59.5	3.6	8.45e-01	0	34	104	3873439744	60	34119
2026-01-08 07:51:53.51	336.06	1.39	-48.3	-59.5	3.6	8.44e-01	0	34	104	3873439744	60	34070
2026-01-08 07:51:54.52	336.17	1.35	-48.3	-59.5	3.6	8.46e-01	0	34	104	3873439744	60	34250
2026-01-08 07:51:55.53	336.27	1.31	-48.3	-59.5	3.6	8.45e-01	0	34	104	3873439744	60	34026
2026-01-08 07:51:56.54	336.37	1.26	-48.3	-59.5	3.6	8.45e-01	0	34	104	3873439744	60	34051
2026-01-08 07:51:57.55	336.48	1.22	-48.3	-59.5	3.6	8.45e-01	0	34	104	3873439744	60	34130
2026-01-08 07:51:58.56	336.58	1.18	-48.3	-59.5	3.6	8.46e-01	0	34	104	3873439744	60	34237
2026-01-08 07:51:59.57	336.68	1.14	-48.3	-59.5	3.6	8.46e-01	0	34	104	3873439744	60	34093
2026-01-08 07:52:00.58	336.78	1.10	-48.3	-59.5	3.6	8.45e-01	0	34	104	3873439744	60	34151
2026-01-08 07:52:01.59	336.89	1.06	-48.3	-59.5	3.6	8.47e-01	0	34	104	3873439744	60	34107
2026-01-08 07:52:02.60	336.99	1.02	-48.3	-59.5	3.6	8.45e-01	0	34	104	3873439744	60	33964
2026-01-08 07:52:03.61	337.09	0.98	-48.3	-59.5	3.6	8.46e-01	0	34	104	3873439744	60	33999
2026-01-08 07:52:04.62	337.19	0.94	-48.3	-59.5	3.6	8.47e-01	0	34	104	3873439744	60	34073
2026-01-08 07:52:05.63	337.29	0.90	-48.3	-59.5	3.6	8.45e-01	0	34	104	3873439744	60	34191
2026-01-08 07:52:06.64	337.39	0.86	-48.3	-59.5	3.6	8.44e-01	0	34	104	3873439744	60	34080
2026-01-08 07:52:07.65	337.49	0.82	-48.3	-59.5	3.6	8.45e-01	0	34	104	3873439744	60	34029
2026-01-08 07:52:08.66	337.59	0.78	-48.3	-59.4	3.6	8.45e-01	0	34	104	3873439744	60	33910
2026-01-08 07:52:09.67	337.69	0.74	-48.3	-59.5	3.6	8.45e-01	0	34	104	3873439744	60	34226
2026-01-08 07:52:10.68	337.79	0.70	-48.3	-59.5	3.6	8.45e-01	0	34	104	3873439744	60	34096
2026-01-08 07:52:11.69	337.89	0.66	-48.3	-59.5	3.6	8.44e-01	0	34	104	3873439744	60	34232
2026-01-08 07:52:12.70	337.99	0.62	-48.3	-59.5	3.6	8.45e-01	0	34	104	3873439744	60	34126
2026-01-08 07:52:13.71	338.09	0.58	-48.3	-59.5	3.6	8.46e-01	0	34	104	3873439744	60	33978
2026-01-08 07:52:14.72	338.19	0.54	-48.3	-59.5	3.6	8.45e-01	0	34	104	3873439744	60	33973
2026-01-08 07:52:15.73	338.29	0.50	-48.3	-59.5	3.6	8.46e-01	0	34	104	3873439744	60	34137
2026-01-08 07:52:16.74	338.39	0.46	-48.3	-59.5	3.6	8.44e-01	0	34	104	3873439744	60	34088
2026-01-08 07:52:17.75	338.49	0.42	-48.3	-59.4	3.6	8.45e-01	0	34	104	3873439744	60	33874
2026-01-08 07:52:18.76	338.58	0.38	-48.3	-59.5	3.6	8.45e-01	0	34	104	3873439744	60	33974
2026-01-08 07:52:19.77	338.68	0.34	-48.3	-59.5	3.6	8.44e-01	0	34	104	3873439744	60	34127
2026-01-08 07:52:20.78	338.78	0.30	-48.3	-59.5	3.6	8.45e-01	0	34	104	3873439744	60	34221
2026-01-08 07:52:21.79	338.87	0.26	-48.3	-59.5	3.6	8.46e-01	0	34	104	3873439744	60	34165
2026-01-08 07:52:22.80	338.97	0.22	-48.3	-59.5	3.6	8.45e-01	0	34	104	3873439744	60	34133
2026-01-08 07:52:23.81	339.07	0.18	-48.3	-59.4	3.6	8.45e-01	0	34	104	3873439744	60	33897
2026-01-08 07:52:24.82	339.16	0.14	-48.3	-59.5	3.6	8.45e-01	0	34	104	3873439744	60	34110
2026-01-08 07:52:25.83	339.26	0.10	-48.3	-59.5	3.6	8.46e-01	0	34	104	3873439744	60	34259
2026-01-08 07:52:26.84	339.36	0.06	-48.3	-59.5	3.6	8.46e-01	0	34	104	3873439744	60	34224
2026-01-08 07:52:27.84	339.45	0.02	-48.3	-59.5	3.6	8.46e-01	0	34	104	3873439744	60	34085

#Closed at: 2026-01-08 07:52:28
#Recorded file [3873 MB]: D:/lorett/data/35029_260108_194103.dat