passes_logs/2026/01/08/R4.6S_Anadyr/R4.6S_Anadyr__20260108_112528_NOAA_21_JPSS-2_rec.log

#Pass ID: 20260108_112528_NOAA 21 (JPSS-2)
#Satellite: NOAA 21 (JPSS-2)
#Configuration: NOAA-21
#almurnet v.1.7.20251203
#Start time: 2026-01-08 11:25:32

#Version: 2.2.20231116
#Station: R4.6S_Anadyr
#Location: 177.4865 lon 64.73178 lat
#TLE: 1 54234U 22150A   26007.89369592  .00000099  00000+0  67922-4 0  9991
#TLE: 2 54234  98.7493 308.8796 0000921 330.6018  29.5106 14.19533030163804

#Time	Az	El	Level	Level2	SNR	BER	BlckErr	Temp	State	Recorded	gain1	gain2
2026-01-08 11:25:32.75	21.43	0.15	-48.7	-50.1	3.4	0.00e+00	0	32	0	0	60	39194
2026-01-08 11:25:33.76	21.53	0.18	-48.6	-61.4	3.5	1.52e+00	0	34	104	0	60	41337
2026-01-08 11:25:34.77	21.63	0.22	-48.6	-61.5	3.5	1.52e+00	0	34	104	0	60	41497
2026-01-08 11:25:35.78	21.73	0.26	-48.6	-61.5	3.6	1.52e+00	0	34	104	0	60	41541
2026-01-08 11:25:36.79	21.83	0.30	-48.6	-61.4	3.5	1.52e+00	0	34	104	0	60	41181
2026-01-08 11:25:37.80	21.93	0.34	-48.6	-61.4	3.5	1.52e+00	0	34	104	0	60	41354
2026-01-08 11:25:38.81	22.03	0.37	-48.5	-61.3	3.5	1.52e+00	0	34	104	0	60	40863
2026-01-08 11:25:39.82	22.13	0.41	-48.4	-61.2	3.5	1.51e+00	0	34	104	0	60	40494
2026-01-08 11:25:40.83	22.24	0.45	-48.4	-61.2	3.5	1.51e+00	0	34	104	0	60	40426
2026-01-08 11:25:41.83	22.34	0.49	-48.3	-61.1	3.5	1.52e+00	0	34	104	0	60	39763
2026-01-08 11:25:42.84	22.44	0.52	-48.2	-61.0	3.5	1.52e+00	0	34	104	0	60	39319
2026-01-08 11:25:43.85	22.54	0.56	-48.0	-60.8	3.5	1.52e+00	0	34	104	0	60	38440
2026-01-08 11:25:44.86	22.65	0.60	-47.7	-60.6	3.5	1.52e+00	0	34	104	0	60	37427
2026-01-08 11:25:45.87	22.75	0.64	-47.2	-60.1	3.5	1.52e+00	0	34	104	0	60	35463
2026-01-08 11:25:46.88	22.86	0.68	-47.0	-59.7	3.5	1.52e+00	0	34	104	0	60	33995
2026-01-08 11:25:47.89	22.96	0.71	-47.0	-59.7	3.5	1.52e+00	0	34	104	0	60	34037
2026-01-08 11:25:48.90	23.06	0.75	-47.0	-59.8	3.5	1.51e+00	0	34	104	0	60	34148
2026-01-08 11:25:49.91	23.17	0.79	-47.0	-59.7	3.5	1.52e+00	0	34	104	0	60	34051
2026-01-08 11:25:50.92	23.27	0.83	-46.9	-59.8	3.5	1.52e+00	0	34	104	0	60	34154
2026-01-08 11:25:51.93	23.38	0.86	-47.0	-59.8	3.5	1.51e+00	0	34	104	0	60	34247
2026-01-08 11:25:52.94	23.48	0.90	-47.0	-59.8	3.5	1.52e+00	0	34	104	0	60	34191
2026-01-08 11:25:53.95	23.59	0.94	-47.0	-59.8	3.5	1.51e+00	0	34	104	0	60	34137
2026-01-08 11:25:54.96	23.69	0.98	-47.0	-59.8	3.5	1.52e+00	0	34	104	0	60	34171
2026-01-08 11:25:55.97	23.80	1.01	-46.9	-59.7	3.5	1.52e+00	0	34	104	0	60	34095
2026-01-08 11:25:56.98	23.91	1.05	-47.0	-59.8	3.5	1.52e+00	0	34	104	0	60	34264
2026-01-08 11:25:57.99	24.01	1.09	-47.0	-59.7	3.5	1.52e+00	0	34	104	0	60	34101
2026-01-08 11:25:59.00	24.12	1.12	-46.9	-59.8	3.5	1.52e+00	0	34	104	0	60	34123
2026-01-08 11:26:00.02	24.23	1.16	-46.9	-59.8	3.5	1.52e+00	0	34	104	0	60	34262
2026-01-08 11:26:01.02	24.34	1.20	-47.0	-59.7	3.5	1.52e+00	0	34	104	0	60	34102
2026-01-08 11:26:02.03	24.44	1.24	-46.9	-59.7	3.5	1.52e+00	0	34	104	0	60	34033
2026-01-08 11:26:03.04	24.55	1.27	-46.9	-59.7	3.5	1.52e+00	0	34	104	0	60	34080
2026-01-08 11:26:04.05	24.66	1.31	-46.9	-59.7	3.5	1.52e+00	0	34	104	0	60	33920
2026-01-08 11:26:05.06	24.77	1.35	-47.0	-59.7	3.5	1.52e+00	0	34	104	0	60	33891
2026-01-08 11:26:06.07	24.88	1.39	-46.9	-59.7	3.5	1.52e+00	0	34	104	0	60	33912
2026-01-08 11:26:07.08	24.98	1.42	-46.9	-59.8	3.5	1.52e+00	0	35	104	0	60	34158
2026-01-08 11:26:08.09	25.09	1.46	-46.9	-59.8	3.5	1.52e+00	0	35	104	0	60	34127
2026-01-08 11:26:09.10	25.20	1.50	-46.9	-59.8	3.5	1.52e+00	0	34	104	0	60	34118
2026-01-08 11:26:10.11	25.31	1.53	-46.9	-59.7	3.5	1.52e+00	0	34	104	0	60	34078
2026-01-08 11:26:11.11	25.42	1.57	-46.9	-59.7	3.5	1.52e+00	0	34	104	0	60	34069
2026-01-08 11:26:12.12	25.53	1.61	-46.9	-59.7	3.5	1.52e+00	0	34	104	0	60	34014
2026-01-08 11:26:13.13	25.64	1.64	-46.9	-59.8	3.5	1.52e+00	0	35	104	0	60	34128
2026-01-08 11:26:14.14	25.75	1.68	-46.9	-59.8	3.5	1.52e+00	0	34	104	0	60	34197
2026-01-08 11:26:15.15	25.86	1.72	-46.9	-59.7	3.5	1.52e+00	0	35	104	0	60	34072
2026-01-08 11:26:16.16	25.98	1.75	-46.9	-59.7	3.5	1.51e+00	0	35	104	0	60	33991
2026-01-08 11:26:17.17	26.09	1.79	-46.9	-59.7	3.5	1.52e+00	0	35	104	0	60	33921
2026-01-08 11:26:18.18	26.20	1.83	-46.9	-59.8	3.5	1.52e+00	0	35	104	0	60	34186
2026-01-08 11:26:19.19	26.31	1.86	-46.9	-59.8	3.5	1.52e+00	0	35	104	0	60	34204
2026-01-08 11:26:20.20	26.42	1.90	-46.9	-59.7	3.5	1.51e+00	0	35	104	0	60	33862
2026-01-08 11:26:21.21	26.54	1.94	-46.9	-59.7	3.5	1.52e+00	0	35	104	0	60	33852
2026-01-08 11:26:22.22	26.65	1.97	-46.9	-59.7	3.5	1.51e+00	0	35	104	0	60	33860
2026-01-08 11:26:23.23	26.76	2.01	-46.9	-59.7	3.5	1.52e+00	0	35	104	0	60	33891
2026-01-08 11:26:24.24	26.87	2.05	-46.9	-59.7	3.5	1.51e+00	0	35	104	0	60	33880
2026-01-08 11:26:25.25	26.99	2.08	-46.9	-59.7	3.5	1.51e+00	0	35	104	0	60	33883
2026-01-08 11:26:26.26	27.10	2.12	-46.9	-59.7	3.5	1.52e+00	0	35	104	0	60	33741
2026-01-08 11:26:27.27	27.22	2.16	-46.9	-59.7	3.5	1.51e+00	0	35	104	0	60	33951
2026-01-08 11:26:28.28	27.33	2.19	-46.9	-59.7	3.5	1.51e+00	0	35	104	0	60	34101
2026-01-08 11:26:29.29	27.45	2.23	-46.9	-59.7	3.5	1.52e+00	0	35	104	0	60	34015
2026-01-08 11:26:30.30	27.56	2.26	-46.9	-59.8	3.5	1.51e+00	0	35	104	0	60	34175
2026-01-08 11:26:31.31	27.68	2.30	-46.9	-59.7	3.5	1.52e+00	0	35	104	0	60	33998
2026-01-08 11:26:32.32	27.79	2.34	-46.9	-59.7	3.5	1.52e+00	0	35	104	0	60	33812
2026-01-08 11:26:33.33	27.91	2.37	-46.9	-59.6	3.5	1.52e+00	0	35	104	0	60	33616
2026-01-08 11:26:34.34	28.02	2.41	-46.9	-59.6	3.5	1.52e+00	0	35	104	0	60	33411
2026-01-08 11:26:35.35	28.14	2.44	-46.9	-59.7	3.5	1.52e+00	0	35	104	0	60	33809
2026-01-08 11:26:36.36	28.26	2.48	-46.9	-59.7	3.5	1.51e+00	0	35	104	0	60	33758
2026-01-08 11:26:37.37	28.37	2.52	-46.9	-59.7	3.5	1.52e+00	0	35	104	0	60	33713
2026-01-08 11:26:38.38	28.49	2.55	-46.9	-59.7	3.5	1.52e+00	0	35	104	0	60	33840
2026-01-08 11:26:39.38	28.61	2.59	-46.9	-59.6	3.5	1.52e+00	0	35	104	0	60	33476
2026-01-08 11:26:40.39	28.72	2.62	-46.9	-59.1	3.5	1.52e+00	0	35	104	0	60	31718
2026-01-08 11:26:41.40	28.84	2.66	-46.8	-58.6	3.5	1.52e+00	0	35	104	0	60	29953
2026-01-08 11:26:42.41	28.96	2.69	-46.9	-58.9	3.5	1.52e+00	0	35	104	0	60	30787
2026-01-08 11:26:43.42	29.08	2.73	-46.9	-59.1	3.5	1.52e+00	0	35	104	0	60	31751
2026-01-08 11:26:44.43	29.20	2.77	-46.3	-54.4	3.9	1.50e+00	0	35	104	0	60	18418
2026-01-08 11:26:45.44	29.32	2.80	-44.5	-48.5	10.8	4.03e-02	0	35	0	0	60	9336
2026-01-08 11:26:46.45	29.44	2.84	-42.4	-44.7	14.4	3.43e-05	0	35	0	3145728	58	6780
2026-01-08 11:26:47.46	29.55	2.87	-40.5	-42.3	16.9	0.00e+00	0	35	0	6291456	54	6434
2026-01-08 11:26:48.47	29.67	2.91	-39.5	-41.0	17.9	0.00e+00	0	35	0	9437184	52	6212
2026-01-08 11:26:49.49	29.80	2.94	-39.1	-40.6	18.3	0.00e+00	0	35	0	12582912	52	5940
2026-01-08 11:26:50.50	29.92	2.98	-40.1	-41.7	17.2	0.00e+00	0	35	0	15728640	52	6777
2026-01-08 11:26:51.51	30.04	3.01	-41.7	-43.8	15.0	0.00e+00	0	35	0	18874368	54	7669
2026-01-08 11:26:52.52	30.16	3.05	-40.4	-42.1	16.2	1.52e-05	0	35	0	22020096	52	7099
2026-01-08 11:26:53.52	30.28	3.08	-38.3	-39.9	16.8	4.27e-05	0	35	104	23068672	52	5501
2026-01-08 11:26:54.53	30.40	3.12	-42.9	-46.0	5.0	1.51e+00	0	35	104	23068672	60	6977
2026-01-08 11:26:55.54	30.52	3.15	-40.4	-42.4	17.3	1.47e-04	0	35	104	23068672	56	5832
2026-01-08 11:26:56.55	30.64	3.19	-41.7	-43.8	13.1	0.00e+00	0	35	0	25165824	50	9676
2026-01-08 11:26:57.56	30.77	3.22	-43.9	-47.4	5.0	1.48e+00	0	35	104	26214400	60	8274
2026-01-08 11:26:58.57	30.89	3.26	-39.5	-41.3	17.6	0.00e+00	0	35	104	26214400	52	6444
2026-01-08 11:26:59.59	31.01	3.29	-38.9	-40.3	18.8	0.00e+00	0	35	0	28311552	52	5731
2026-01-08 11:27:00.60	31.14	3.33	-38.4	-39.7	19.4	0.00e+00	0	35	0	31457280	50	6037
2026-01-08 11:27:01.61	31.26	3.36	-38.4	-39.6	19.4	0.00e+00	0	35	0	34603008	50	5994
2026-01-08 11:27:02.62	31.38	3.40	-38.2	-39.5	19.5	0.00e+00	0	35	0	37748736	50	5878
2026-01-08 11:27:03.62	31.51	3.43	-38.0	-39.3	19.7	0.00e+00	0	35	0	40894464	50	5758
2026-01-08 11:27:04.63	31.63	3.46	-38.0	-39.2	19.8	0.00e+00	0	35	0	44040192	50	5693
2026-01-08 11:27:05.64	31.75	3.50	-38.1	-39.3	19.7	0.00e+00	0	35	0	47185920	50	5772
2026-01-08 11:27:06.65	31.88	3.53	-38.2	-39.5	19.6	0.00e+00	0	35	0	50331648	50	5876
2026-01-08 11:27:07.66	32.00	3.57	-38.2	-39.5	19.5	0.00e+00	0	35	0	53477376	50	5883
2026-01-08 11:27:08.67	32.13	3.60	-38.2	-39.5	19.6	0.00e+00	0	35	0	56623104	50	5903
2026-01-08 11:27:09.68	32.26	3.64	-38.0	-39.3	19.7	0.00e+00	0	35	0	59768832	50	5755
2026-01-08 11:27:10.69	32.38	3.67	-38.0	-39.3	19.7	0.00e+00	0	35	0	62914560	50	5754
2026-01-08 11:27:11.70	32.51	3.70	-38.1	-39.3	19.7	0.00e+00	0	35	0	66060288	50	5763
2026-01-08 11:27:12.70	32.63	3.74	-37.7	-38.9	20.0	0.00e+00	0	35	0	69206016	48	6167
2026-01-08 11:27:13.72	32.76	3.77	-37.7	-39.0	20.0	0.00e+00	0	35	0	72351744	48	6209
2026-01-08 11:27:14.73	32.89	3.80	-37.6	-38.8	20.2	0.00e+00	0	35	0	75497472	48	6093
2026-01-08 11:27:15.73	33.01	3.84	-37.4	-38.6	20.4	0.00e+00	0	35	0	78643200	48	5968
2026-01-08 11:27:16.75	33.14	3.87	-37.5	-38.6	20.3	0.00e+00	0	35	0	81788928	48	5979
2026-01-08 11:27:17.76	33.27	3.91	-37.4	-38.6	20.4	0.00e+00	0	35	0	84934656	48	5947
2026-01-08 11:27:18.76	33.40	3.94	-37.4	-38.5	20.4	0.00e+00	0	35	0	88080384	48	5893
2026-01-08 11:27:19.77	33.53	3.97	-37.3	-38.4	20.6	0.00e+00	0	35	0	91226112	48	5853
2026-01-08 11:27:20.79	33.66	4.01	-37.4	-38.5	20.5	0.00e+00	0	35	0	94371840	48	5907
2026-01-08 11:27:21.79	33.78	4.04	-37.4	-38.6	20.4	0.00e+00	0	35	0	97517568	48	5952
2026-01-08 11:27:22.80	33.91	4.07	-37.6	-38.8	20.3	0.00e+00	0	35	0	100663296	48	6068
2026-01-08 11:27:23.81	34.04	4.10	-37.5	-38.7	20.5	0.00e+00	0	35	0	103809024	48	6025
2026-01-08 11:27:24.82	34.17	4.14	-37.4	-38.6	20.5	0.00e+00	0	35	0	106954752	48	5976
2026-01-08 11:27:25.82	34.30	4.17	-37.5	-38.7	20.4	0.00e+00	0	35	0	110100480	48	6007
2026-01-08 11:27:26.83	34.43	4.20	-37.6	-38.8	20.3	0.00e+00	0	35	0	113246208	48	6074
2026-01-08 11:27:27.84	34.56	4.24	-37.7	-38.9	20.2	0.00e+00	0	35	0	116391936	48	6197
2026-01-08 11:27:28.84	34.69	4.27	-37.7	-38.9	20.2	0.00e+00	0	35	0	119537664	48	6135
2026-01-08 11:27:29.86	34.82	4.30	-37.8	-39.0	20.1	0.00e+00	0	35	0	122683392	48	6236
2026-01-08 11:27:30.86	34.95	4.33	-37.5	-38.6	20.4	0.00e+00	0	35	0	125829120	48	5979
2026-01-08 11:27:31.87	35.09	4.37	-37.5	-38.7	20.3	0.00e+00	0	35	0	130023424	48	6027
2026-01-08 11:27:32.88	35.22	4.40	-37.4	-38.6	20.5	0.00e+00	0	35	0	133169152	48	5934
2026-01-08 11:27:33.89	35.35	4.43	-37.4	-38.6	20.5	0.00e+00	0	35	0	135266304	48	5948
2026-01-08 11:27:34.90	35.48	4.46	-37.4	-38.5	20.5	0.00e+00	0	35	0	138412032	48	5906
2026-01-08 11:27:35.91	35.62	4.49	-37.3	-38.4	20.6	0.00e+00	0	35	0	141557760	48	5830
2026-01-08 11:27:36.92	35.75	4.53	-37.3	-38.4	20.6	0.00e+00	0	35	0	144703488	48	5830
2026-01-08 11:27:37.93	35.88	4.56	-37.1	-38.2	20.8	0.00e+00	0	35	0	148897792	48	5722
2026-01-08 11:27:38.93	36.02	4.59	-37.1	-38.2	20.8	0.00e+00	0	35	0	152043520	48	5702
2026-01-08 11:27:39.94	36.15	4.62	-37.1	-38.3	20.8	0.00e+00	0	35	0	155189248	48	5732
2026-01-08 11:27:40.95	36.28	4.65	-37.3	-38.5	20.7	0.00e+00	0	35	0	158334976	48	5869
2026-01-08 11:27:41.96	36.42	4.68	-37.2	-38.4	20.8	0.00e+00	0	35	0	160432128	48	5796
2026-01-08 11:27:42.97	36.55	4.72	-37.2	-38.3	20.8	0.00e+00	0	35	0	164626432	48	5740
2026-01-08 11:27:43.98	36.69	4.75	-37.2	-38.3	20.8	0.00e+00	0	35	0	167772160	48	5787
2026-01-08 11:27:44.99	36.82	4.78	-37.2	-38.3	20.8	0.00e+00	0	35	0	170917888	48	5775
2026-01-08 11:27:46.00	36.96	4.81	-37.4	-38.6	20.5	0.00e+00	0	35	0	174063616	48	5932
2026-01-08 11:27:47.01	37.10	4.84	-37.3	-38.5	20.6	0.00e+00	0	35	0	177209344	48	5871
2026-01-08 11:27:48.02	37.23	4.87	-37.3	-38.4	20.6	0.00e+00	0	35	0	180355072	48	5841
2026-01-08 11:27:49.03	37.37	4.90	-37.2	-38.3	20.9	0.00e+00	0	35	0	183500800	48	5749
2026-01-08 11:27:50.03	37.50	4.93	-37.2	-38.3	20.8	0.00e+00	0	35	0	186646528	48	5753
2026-01-08 11:27:51.04	37.64	4.96	-37.3	-38.4	20.6	0.00e+00	0	35	0	189792256	48	5837
2026-01-08 11:27:52.05	37.78	4.99	-37.3	-38.4	20.7	0.00e+00	0	35	0	192937984	48	5843
2026-01-08 11:27:53.06	37.92	5.02	-37.4	-38.5	20.6	0.00e+00	0	35	0	196083712	48	5897
2026-01-08 11:27:54.07	38.05	5.05	-37.1	-38.3	20.9	0.00e+00	0	35	0	199229440	48	5731
2026-01-08 11:27:55.08	38.19	5.09	-37.1	-38.2	21.0	0.00e+00	0	35	0	202375168	48	5704
2026-01-08 11:27:56.09	38.33	5.12	-37.2	-38.3	20.9	0.00e+00	0	35	0	205520896	48	5756
2026-01-08 11:27:57.09	38.47	5.14	-37.0	-38.2	21.1	0.00e+00	0	35	0	208666624	48	5671
2026-01-08 11:27:58.10	38.61	5.17	-37.0	-38.1	21.1	0.00e+00	0	35	0	211812352	48	5649
2026-01-08 11:27:59.11	38.75	5.20	-37.0	-38.1	21.1	0.00e+00	0	35	0	214958080	48	5635
2026-01-08 11:28:00.12	38.89	5.23	-37.0	-38.1	21.1	0.00e+00	0	35	0	218103808	48	5625
2026-01-08 11:28:01.13	39.03	5.26	-36.9	-38.0	21.2	0.00e+00	0	35	0	221249536	48	5569
2026-01-08 11:28:02.14	39.17	5.29	-36.9	-38.0	21.1	0.00e+00	0	35	0	224395264	48	5567
2026-01-08 11:28:03.15	39.31	5.32	-37.0	-38.1	21.0	0.00e+00	0	35	0	227540992	48	5648
2026-01-08 11:28:04.16	39.45	5.35	-36.8	-37.9	21.2	0.00e+00	0	35	0	230686720	48	5494
2026-01-08 11:28:05.17	39.59	5.38	-36.8	-37.9	21.3	0.00e+00	0	35	0	233832448	46	6159
2026-01-08 11:28:06.18	39.73	5.41	-36.9	-38.0	21.2	0.00e+00	0	35	0	236978176	46	6214
2026-01-08 11:28:07.19	39.87	5.44	-37.0	-38.1	21.1	0.00e+00	0	35	0	240123904	46	6289
2026-01-08 11:28:08.20	40.01	5.47	-37.1	-38.2	21.1	0.00e+00	0	35	0	243269632	46	6396
2026-01-08 11:28:09.21	40.16	5.50	-37.1	-38.2	21.0	0.00e+00	0	35	0	246415360	46	6381
2026-01-08 11:28:10.22	40.30	5.53	-37.1	-38.2	21.0	0.00e+00	0	35	0	249561088	46	6393
2026-01-08 11:28:11.23	40.44	5.55	-37.0	-38.1	21.1	0.00e+00	0	35	0	252706816	46	6332
2026-01-08 11:28:12.23	40.58	5.58	-37.0	-38.2	21.0	0.00e+00	0	35	0	255852544	46	6356
2026-01-08 11:28:13.24	40.73	5.61	-36.9	-38.1	21.1	0.00e+00	0	35	0	258998272	46	6278
2026-01-08 11:28:14.25	40.87	5.64	-37.1	-38.2	21.0	0.00e+00	0	35	0	262144000	46	6418
2026-01-08 11:28:15.26	41.01	5.67	-36.9	-38.0	21.2	0.00e+00	0	35	0	265289728	46	6219
2026-01-08 11:28:16.27	41.16	5.70	-36.9	-38.0	21.2	0.00e+00	0	35	0	268435456	46	6240
2026-01-08 11:28:17.28	41.30	5.72	-36.9	-38.0	21.2	0.00e+00	0	35	0	271581184	46	6263
2026-01-08 11:28:18.29	41.45	5.75	-37.0	-38.1	21.1	0.00e+00	0	35	0	274726912	46	6295
2026-01-08 11:28:19.30	41.59	5.78	-37.0	-38.2	21.1	0.00e+00	0	35	0	277872640	46	6351
2026-01-08 11:28:20.31	41.73	5.81	-36.9	-38.0	21.1	0.00e+00	0	35	0	281018368	46	6272
2026-01-08 11:28:21.32	41.88	5.83	-36.9	-38.0	21.2	0.00e+00	0	35	0	284164096	46	6258
2026-01-08 11:28:22.33	42.03	5.86	-36.9	-38.1	21.2	0.00e+00	0	35	0	287309824	46	6288
2026-01-08 11:28:23.34	42.17	5.89	-37.0	-38.1	21.1	0.00e+00	0	35	0	290455552	46	6299
2026-01-08 11:28:24.35	42.32	5.91	-37.0	-38.1	21.1	0.00e+00	0	35	0	293601280	46	6291
2026-01-08 11:28:25.36	42.46	5.94	-36.9	-38.0	21.2	0.00e+00	0	35	0	296747008	46	6273
2026-01-08 11:28:26.37	42.61	5.97	-36.9	-38.0	21.2	0.00e+00	0	35	0	299892736	46	6231
2026-01-08 11:28:27.38	42.76	6.00	-36.7	-37.8	21.4	0.00e+00	0	35	0	303038464	46	6102
2026-01-08 11:28:28.38	42.90	6.02	-36.8	-37.9	21.4	0.00e+00	0	35	0	306184192	46	6158
2026-01-08 11:28:29.39	43.05	6.05	-36.7	-37.8	21.5	0.00e+00	0	35	0	309329920	46	6104
2026-01-08 11:28:30.40	43.20	6.07	-36.6	-37.7	21.5	0.00e+00	0	35	0	312475648	46	6031
2026-01-08 11:28:31.41	43.35	6.10	-36.8	-37.8	21.5	0.00e+00	0	35	0	315621376	46	6127
2026-01-08 11:28:32.42	43.49	6.13	-36.5	-37.6	21.6	0.00e+00	0	35	0	318767104	46	5962
2026-01-08 11:28:33.43	43.64	6.15	-36.6	-37.7	21.6	0.00e+00	0	35	0	321912832	46	6026
2026-01-08 11:28:34.44	43.79	6.18	-36.5	-37.5	21.6	0.00e+00	0	35	0	325058560	46	5904
2026-01-08 11:28:35.45	43.94	6.20	-36.5	-37.5	21.7	0.00e+00	0	35	0	328204288	46	5907
2026-01-08 11:28:36.46	44.09	6.23	-36.5	-37.6	21.6	0.00e+00	0	35	0	331350016	46	5935
2026-01-08 11:28:37.47	44.24	6.25	-36.5	-37.6	21.7	0.00e+00	0	35	0	334495744	46	5932
2026-01-08 11:28:38.48	44.39	6.28	-36.6	-37.7	21.6	0.00e+00	0	35	0	337641472	46	6010
2026-01-08 11:28:39.49	44.54	6.30	-36.6	-37.6	21.6	0.00e+00	0	35	0	340787200	46	5981
2026-01-08 11:28:40.50	44.69	6.33	-36.4	-37.5	21.8	0.00e+00	0	35	0	343932928	46	5865
2026-01-08 11:28:41.51	44.84	6.35	-36.6	-37.7	21.5	0.00e+00	0	35	0	347078656	46	6037
2026-01-08 11:28:42.52	44.99	6.38	-36.5	-37.6	21.5	0.00e+00	0	35	0	350224384	46	5959
2026-01-08 11:28:43.53	45.14	6.40	-36.6	-37.6	21.5	0.00e+00	0	35	0	353370112	46	5986
2026-01-08 11:28:44.54	45.29	6.43	-36.7	-37.8	21.4	0.00e+00	0	35	0	356515840	46	6074
2026-01-08 11:28:45.55	45.44	6.45	-36.8	-37.9	21.3	0.00e+00	0	35	0	359661568	46	6181
2026-01-08 11:28:46.55	45.59	6.47	-36.5	-37.6	21.7	0.00e+00	0	35	0	362807296	46	5945
2026-01-08 11:28:47.56	45.74	6.50	-36.5	-37.5	21.6	0.00e+00	0	35	0	365953024	46	5910
2026-01-08 11:28:48.57	45.90	6.52	-36.6	-37.7	21.6	0.00e+00	0	35	0	369098752	46	5997
2026-01-08 11:28:49.58	46.05	6.55	-36.5	-37.5	21.7	0.00e+00	0	35	0	372244480	46	5892
2026-01-08 11:28:50.59	46.20	6.57	-36.6	-37.7	21.6	0.00e+00	0	35	0	375390208	46	5997
2026-01-08 11:28:51.60	46.35	6.59	-36.4	-37.5	21.7	0.00e+00	0	35	0	378535936	46	5860
2026-01-08 11:28:52.61	46.51	6.62	-36.5	-37.6	21.6	0.00e+00	0	35	0	381681664	46	5963
2026-01-08 11:28:53.62	46.66	6.64	-36.4	-37.4	21.7	0.00e+00	0	35	0	384827392	46	5849
2026-01-08 11:28:54.63	46.81	6.66	-36.4	-37.5	21.8	0.00e+00	0	35	0	387973120	46	5866
2026-01-08 11:28:55.64	46.97	6.68	-36.3	-37.4	21.8	0.00e+00	0	35	0	391118848	46	5816
2026-01-08 11:28:56.65	47.12	6.71	-36.5	-37.5	21.8	0.00e+00	0	35	0	394264576	46	5896
2026-01-08 11:28:57.66	47.28	6.73	-36.5	-37.6	21.7	0.00e+00	0	35	0	397410304	46	5938
2026-01-08 11:28:58.67	47.43	6.75	-36.6	-37.6	21.7	0.00e+00	0	35	0	400556032	46	5977
2026-01-08 11:28:59.68	47.58	6.77	-36.5	-37.5	21.7	0.00e+00	0	35	0	403701760	46	5921
2026-01-08 11:29:00.69	47.74	6.80	-36.4	-37.5	21.8	0.00e+00	0	35	0	406847488	46	5886
2026-01-08 11:29:01.70	47.89	6.82	-36.3	-37.4	21.8	0.00e+00	0	35	0	409993216	46	5815
2026-01-08 11:29:02.71	48.05	6.84	-36.4	-37.4	21.8	0.00e+00	0	35	0	413138944	46	5856
2026-01-08 11:29:03.72	48.21	6.86	-36.4	-37.4	21.8	0.00e+00	0	35	0	416284672	46	5851
2026-01-08 11:29:04.73	48.36	6.88	-36.4	-37.5	21.8	0.00e+00	0	35	0	419430400	46	5873
2026-01-08 11:29:05.74	48.52	6.90	-36.4	-37.4	21.8	0.00e+00	0	35	0	422576128	46	5827
2026-01-08 11:29:06.75	48.67	6.92	-36.5	-37.6	21.7	0.00e+00	0	35	0	425721856	46	5928
2026-01-08 11:29:07.76	48.83	6.94	-36.5	-37.5	21.7	0.00e+00	0	35	0	428867584	46	5913
2026-01-08 11:29:08.77	48.99	6.96	-36.5	-37.6	21.6	0.00e+00	0	35	0	432013312	46	5940
2026-01-08 11:29:09.78	49.14	6.99	-36.6	-37.6	21.6	0.00e+00	0	35	0	435159040	46	5989
2026-01-08 11:29:10.79	49.30	7.01	-36.5	-37.6	21.7	0.00e+00	0	35	0	438304768	46	5969
2026-01-08 11:29:11.80	49.46	7.03	-36.4	-37.4	21.8	0.00e+00	0	35	0	441450496	46	5830
2026-01-08 11:29:12.81	49.62	7.05	-36.4	-37.4	21.8	0.00e+00	0	35	0	444596224	46	5856
2026-01-08 11:29:13.82	49.77	7.07	-36.4	-37.5	21.8	0.00e+00	0	35	0	447741952	46	5900
2026-01-08 11:29:14.83	49.93	7.09	-36.4	-37.4	21.9	0.00e+00	0	35	0	450887680	46	5831
2026-01-08 11:29:15.84	50.09	7.10	-36.2	-37.2	22.0	0.00e+00	0	35	0	454033408	46	5685
2026-01-08 11:29:16.85	50.25	7.12	-36.2	-37.2	22.0	0.00e+00	0	35	0	457179136	46	5698
2026-01-08 11:29:17.86	50.41	7.14	-36.1	-37.1	22.1	0.00e+00	0	35	0	460324864	46	5658
2026-01-08 11:29:18.87	50.57	7.16	-36.2	-37.2	22.0	0.00e+00	0	35	0	463470592	46	5725
2026-01-08 11:29:19.88	50.72	7.18	-36.2	-37.2	22.0	0.00e+00	0	35	0	466616320	46	5702
2026-01-08 11:29:20.89	50.88	7.20	-36.3	-37.3	21.9	0.00e+00	0	35	0	469762048	46	5785
2026-01-08 11:29:21.90	51.04	7.22	-36.4	-37.4	21.9	0.00e+00	0	35	0	472907776	46	5826
2026-01-08 11:29:22.91	51.20	7.24	-36.3	-37.4	21.9	0.00e+00	0	35	0	476053504	46	5792
2026-01-08 11:29:23.92	51.36	7.25	-36.4	-37.5	21.8	0.00e+00	0	35	0	479199232	46	5864
2026-01-08 11:29:24.93	51.52	7.27	-36.4	-37.5	21.8	0.00e+00	0	35	0	482344960	46	5896
2026-01-08 11:29:25.94	51.68	7.29	-36.5	-37.6	21.7	0.00e+00	0	35	0	485490688	46	5952
2026-01-08 11:29:26.94	51.84	7.31	-36.7	-37.7	21.6	0.00e+00	0	35	0	488636416	46	6049
2026-01-08 11:29:27.96	52.00	7.32	-36.6	-37.7	21.6	0.00e+00	0	35	0	491782144	46	6039
2026-01-08 11:29:28.96	52.16	7.34	-36.7	-37.7	21.5	0.00e+00	0	35	0	494927872	46	6063
2026-01-08 11:29:29.97	52.32	7.36	-36.7	-37.8	21.6	0.00e+00	0	35	0	498073600	46	6120
2026-01-08 11:29:30.98	52.48	7.38	-36.6	-37.6	21.6	0.00e+00	0	35	0	501219328	46	5978
2026-01-08 11:29:31.99	52.65	7.39	-36.6	-37.7	21.6	0.00e+00	0	35	0	504365056	46	6009
2026-01-08 11:29:33.00	52.81	7.41	-36.3	-37.3	21.9	0.00e+00	0	35	0	507510784	46	5776
2026-01-08 11:29:34.01	52.97	7.43	-36.3	-37.3	21.9	0.00e+00	0	35	0	510656512	46	5775
2026-01-08 11:29:35.02	53.13	7.44	-36.3	-37.4	21.9	0.00e+00	0	35	0	514850816	46	5815
2026-01-08 11:29:36.03	53.29	7.46	-36.2	-37.2	22.0	0.00e+00	0	35	0	517996544	46	5710
2026-01-08 11:29:37.04	53.45	7.47	-36.3	-37.3	21.9	0.00e+00	0	35	0	521142272	46	5768
2026-01-08 11:29:38.05	53.62	7.49	-36.2	-37.2	22.0	0.00e+00	0	35	0	523239424	46	5705
2026-01-08 11:29:39.06	53.78	7.50	-36.2	-37.2	22.0	0.00e+00	0	35	0	526385152	46	5705
2026-01-08 11:29:40.07	53.94	7.52	-36.2	-37.2	21.9	0.00e+00	0	35	0	530579456	46	5722
2026-01-08 11:29:41.08	54.10	7.53	-36.2	-37.2	22.0	0.00e+00	0	35	0	533725184	46	5724
2026-01-08 11:29:42.09	54.27	7.55	-36.3	-37.3	22.0	0.00e+00	0	35	0	536870912	46	5755
2026-01-08 11:29:43.10	54.43	7.56	-36.5	-37.5	21.7	0.00e+00	0	35	0	540016640	46	5894
2026-01-08 11:29:44.11	54.59	7.58	-36.4	-37.4	21.8	0.00e+00	0	35	0	543162368	46	5816
2026-01-08 11:29:45.11	54.76	7.59	-36.5	-37.6	21.8	0.00e+00	0	35	0	546308096	46	5952
2026-01-08 11:29:46.12	54.92	7.61	-36.3	-37.3	21.9	0.00e+00	0	35	0	549453824	46	5785
2026-01-08 11:29:47.13	55.08	7.62	-36.2	-37.3	21.9	0.00e+00	0	35	0	552599552	46	5737
2026-01-08 11:29:48.14	55.25	7.63	-36.3	-37.3	22.0	0.00e+00	0	35	0	555745280	46	5773
2026-01-08 11:29:49.15	55.41	7.65	-36.4	-37.4	21.8	0.00e+00	0	35	0	558891008	46	5836
2026-01-08 11:29:50.16	55.57	7.66	-36.5	-37.5	21.7	0.00e+00	0	35	0	562036736	46	5913
2026-01-08 11:29:51.17	55.74	7.67	-36.6	-37.7	21.6	0.00e+00	0	35	0	565182464	46	6023
2026-01-08 11:29:52.17	55.90	7.69	-36.4	-37.5	21.8	0.00e+00	0	35	0	568328192	46	5875
2026-01-08 11:29:53.18	56.07	7.70	-36.4	-37.4	21.9	0.00e+00	0	35	0	571473920	46	5857
2026-01-08 11:29:54.19	56.23	7.71	-36.2	-37.3	21.9	0.00e+00	0	35	0	574619648	46	5741
2026-01-08 11:29:55.20	56.40	7.72	-36.2	-37.2	22.0	0.00e+00	0	35	0	577765376	46	5701
2026-01-08 11:29:56.21	56.56	7.74	-36.1	-37.2	22.1	0.00e+00	0	35	0	580911104	46	5674
2026-01-08 11:29:57.22	56.73	7.75	-36.1	-37.2	22.1	0.00e+00	0	35	0	584056832	46	5670
2026-01-08 11:29:58.23	56.89	7.76	-36.0	-37.1	22.2	0.00e+00	0	35	0	587202560	46	5605
2026-01-08 11:29:59.24	57.06	7.77	-36.0	-37.0	22.2	0.00e+00	0	35	0	590348288	46	5581
2026-01-08 11:30:00.25	57.22	7.78	-36.1	-37.2	22.1	0.00e+00	0	35	0	593494016	46	5676
2026-01-08 11:30:01.26	57.39	7.79	-36.1	-37.2	22.1	0.00e+00	0	35	0	596639744	46	5675
2026-01-08 11:30:02.26	57.55	7.81	-36.1	-37.1	22.1	0.00e+00	0	35	0	599785472	46	5656
2026-01-08 11:30:03.27	57.72	7.82	-36.2	-37.2	22.0	0.00e+00	0	35	0	602931200	46	5716
2026-01-08 11:30:04.28	57.88	7.83	-36.3	-37.3	21.9	0.00e+00	0	35	0	606076928	46	5771
2026-01-08 11:30:05.29	58.05	7.84	-36.4	-37.4	21.9	0.00e+00	0	35	0	609222656	46	5836
2026-01-08 11:30:06.30	58.22	7.85	-36.3	-37.3	22.0	0.00e+00	0	35	0	612368384	46	5737
2026-01-08 11:30:07.31	58.38	7.86	-36.2	-37.2	22.1	0.00e+00	0	35	0	615514112	46	5713
2026-01-08 11:30:08.32	58.55	7.87	-36.2	-37.2	22.1	0.00e+00	0	35	0	618659840	46	5684
2026-01-08 11:30:09.33	58.72	7.88	-36.1	-37.1	22.1	0.00e+00	0	35	0	621805568	46	5630
2026-01-08 11:30:10.34	58.88	7.89	-36.2	-37.3	22.0	0.00e+00	0	35	0	624951296	46	5743
2026-01-08 11:30:11.35	59.05	7.90	-36.1	-37.2	22.1	0.00e+00	0	35	0	628097024	46	5672
2026-01-08 11:30:12.35	59.22	7.90	-36.2	-37.2	22.0	0.00e+00	0	35	0	631242752	46	5718
2026-01-08 11:30:13.36	59.38	7.91	-36.2	-37.2	22.0	0.00e+00	0	35	0	634388480	46	5705
2026-01-08 11:30:14.37	59.55	7.92	-36.4	-37.4	21.9	0.00e+00	0	35	0	637534208	46	5830
2026-01-08 11:30:15.38	59.72	7.93	-36.2	-37.3	21.9	0.00e+00	0	35	0	640679936	46	5753
2026-01-08 11:30:16.39	59.88	7.94	-36.3	-37.3	22.0	0.00e+00	0	35	0	643825664	46	5757
2026-01-08 11:30:17.40	60.05	7.95	-36.2	-37.3	22.0	0.00e+00	0	35	0	646971392	46	5752
2026-01-08 11:30:18.41	60.22	7.95	-36.3	-37.4	21.9	0.00e+00	0	35	0	650117120	46	5813
2026-01-08 11:30:19.42	60.39	7.96	-36.3	-37.4	21.9	0.00e+00	0	35	0	653262848	46	5809
2026-01-08 11:30:20.43	60.55	7.97	-36.2	-37.2	22.1	0.00e+00	0	35	0	656408576	46	5691
2026-01-08 11:30:21.43	60.72	7.98	-36.1	-37.2	22.1	0.00e+00	0	35	0	659554304	46	5661
2026-01-08 11:30:22.44	60.89	7.98	-36.0	-37.0	22.1	0.00e+00	0	35	0	662700032	46	5592
2026-01-08 11:30:23.45	61.06	7.99	-36.1	-37.1	22.1	0.00e+00	0	35	0	665845760	46	5638
2026-01-08 11:30:24.46	61.22	8.00	-36.1	-37.2	22.0	0.00e+00	0	35	0	668991488	46	5663
2026-01-08 11:30:25.47	61.39	8.00	-36.2	-37.2	22.0	0.00e+00	0	35	0	672137216	46	5712
2026-01-08 11:30:26.48	61.56	8.01	-36.1	-37.2	22.0	0.00e+00	0	35	0	675282944	46	5683
2026-01-08 11:30:27.49	61.73	8.01	-36.2	-37.2	22.0	0.00e+00	0	35	0	678428672	46	5699
2026-01-08 11:30:28.50	61.90	8.02	-36.2	-37.2	22.0	0.00e+00	0	35	0	681574400	46	5711
2026-01-08 11:30:29.51	62.07	8.03	-36.1	-37.1	22.1	0.00e+00	0	35	0	684720128	46	5651
2026-01-08 11:30:30.52	62.23	8.03	-36.1	-37.2	22.1	0.00e+00	0	35	0	687865856	46	5661
2026-01-08 11:30:31.53	62.40	8.04	-36.1	-37.1	22.1	0.00e+00	0	35	0	691011584	46	5657
2026-01-08 11:30:32.54	62.57	8.04	-36.1	-37.2	22.0	0.00e+00	0	35	0	694157312	46	5675
2026-01-08 11:30:33.55	62.74	8.04	-36.1	-37.1	22.1	0.00e+00	0	35	0	697303040	46	5639
2026-01-08 11:30:34.55	62.91	8.05	-36.1	-37.1	22.2	0.00e+00	0	35	0	700448768	46	5631
2026-01-08 11:30:35.56	63.08	8.05	-36.0	-37.1	22.2	0.00e+00	0	35	0	703594496	46	5599
2026-01-08 11:30:36.57	63.24	8.06	-36.0	-37.0	22.1	0.00e+00	0	35	0	706740224	46	5560
2026-01-08 11:30:37.58	63.41	8.06	-36.0	-37.0	22.2	0.00e+00	0	35	0	709885952	46	5558
2026-01-08 11:30:38.59	63.58	8.06	-36.1	-37.1	22.0	0.00e+00	0	35	0	713031680	46	5644
2026-01-08 11:30:39.60	63.75	8.07	-36.3	-37.3	22.0	0.00e+00	0	35	0	716177408	46	5776
2026-01-08 11:30:40.61	63.92	8.07	-36.2	-37.2	22.1	0.00e+00	0	35	0	719323136	46	5684
2026-01-08 11:30:41.62	64.09	8.07	-36.3	-37.3	21.9	0.00e+00	0	35	0	722468864	46	5786
2026-01-08 11:30:42.63	64.26	8.08	-36.1	-37.2	22.1	0.00e+00	0	35	0	725614592	46	5676
2026-01-08 11:30:43.63	64.42	8.08	-36.1	-37.2	22.1	0.00e+00	0	35	0	728760320	46	5671
2026-01-08 11:30:44.65	64.60	8.08	-36.1	-37.1	22.2	0.00e+00	0	35	0	731906048	46	5623
2026-01-08 11:30:45.65	64.76	8.08	-36.0	-37.1	22.1	0.00e+00	0	35	0	735051776	46	5611
2026-01-08 11:30:46.66	64.93	8.09	-36.2	-37.2	22.0	0.00e+00	0	35	0	738197504	46	5684
2026-01-08 11:30:47.67	65.10	8.09	-36.1	-37.1	22.0	0.00e+00	0	35	0	741343232	46	5638
2026-01-08 11:30:48.68	65.27	8.09	-36.3	-37.4	21.9	0.00e+00	0	35	0	744488960	46	5799
2026-01-08 11:30:49.69	65.44	8.09	-36.1	-37.2	22.0	0.00e+00	0	35	0	747634688	46	5675
2026-01-08 11:30:50.70	65.61	8.09	-36.2	-37.2	22.0	0.00e+00	0	35	0	750780416	46	5720
2026-01-08 11:30:51.71	65.78	8.09	-36.1	-37.1	22.1	0.00e+00	0	35	0	753926144	46	5619
2026-01-08 11:30:52.72	65.95	8.09	-36.0	-37.1	22.1	0.00e+00	0	35	0	757071872	46	5611
2026-01-08 11:30:53.73	66.12	8.09	-36.1	-37.1	22.1	0.00e+00	0	35	0	760217600	46	5624
2026-01-08 11:30:54.74	66.28	8.09	-36.0	-37.0	22.2	0.00e+00	0	35	0	763363328	46	5561
2026-01-08 11:30:55.75	66.45	8.09	-35.9	-37.0	22.3	0.00e+00	0	35	0	766509056	46	5535
2026-01-08 11:30:56.76	66.62	8.09	-35.9	-36.9	22.2	0.00e+00	0	35	0	769654784	46	5511
2026-01-08 11:30:57.77	66.79	8.09	-35.9	-36.9	22.2	0.00e+00	0	35	0	772800512	46	5512
2026-01-08 11:30:58.78	66.96	8.09	-35.9	-36.9	22.3	0.00e+00	0	35	0	775946240	46	5487
2026-01-08 11:30:59.79	67.13	8.09	-35.9	-36.9	22.3	0.00e+00	0	35	0	779091968	46	5523
2026-01-08 11:31:00.80	67.30	8.09	-35.9	-36.9	22.3	0.00e+00	0	35	0	782237696	46	5510
2026-01-08 11:31:01.81	67.47	8.09	-35.9	-36.9	22.3	0.00e+00	0	35	0	785383424	46	5517
2026-01-08 11:31:02.82	67.64	8.09	-35.9	-36.9	22.2	0.00e+00	0	35	0	788529152	46	5484
2026-01-08 11:31:03.83	67.81	8.08	-35.8	-36.8	22.3	0.00e+00	0	35	0	791674880	46	5456
2026-01-08 11:31:04.84	67.98	8.08	-36.0	-37.0	22.2	0.00e+00	0	35	0	794820608	46	5588
2026-01-08 11:31:05.85	68.15	8.08	-36.0	-37.1	22.2	0.00e+00	0	35	0	797966336	46	5602
2026-01-08 11:31:06.86	68.32	8.08	-35.8	-36.8	22.3	0.00e+00	0	35	0	801112064	46	5427
2026-01-08 11:31:07.87	68.48	8.08	-35.9	-36.9	22.2	0.00e+00	0	35	0	804257792	46	5518
2026-01-08 11:31:08.88	68.65	8.07	-35.8	-36.8	22.3	0.00e+00	0	35	0	807403520	46	5467
2026-01-08 11:31:09.89	68.82	8.07	-35.8	-36.8	22.4	0.00e+00	0	35	0	810549248	46	5455
2026-01-08 11:31:10.89	68.99	8.07	-35.9	-36.9	22.2	0.00e+00	0	35	0	813694976	46	5526
2026-01-08 11:31:11.90	69.16	8.06	-35.9	-36.9	22.3	0.00e+00	0	35	0	816840704	46	5499
2026-01-08 11:31:12.91	69.33	8.06	-35.9	-36.9	22.3	0.00e+00	0	35	0	819986432	46	5488
2026-01-08 11:31:13.92	69.50	8.06	-35.9	-36.8	22.4	0.00e+00	0	35	0	823132160	46	5462
2026-01-08 11:31:14.93	69.66	8.05	-35.7	-36.7	22.5	0.00e+00	0	35	0	826277888	46	5389
2026-01-08 11:31:15.94	69.83	8.05	-35.7	-36.7	22.5	0.00e+00	0	35	0	829423616	44	6034
2026-01-08 11:31:16.95	70.00	8.04	-35.7	-36.7	22.5	0.00e+00	0	35	0	832569344	44	5999
2026-01-08 11:31:17.96	70.17	8.04	-35.6	-36.6	22.5	0.00e+00	0	35	0	835715072	44	5957
2026-01-08 11:31:18.97	70.34	8.03	-35.8	-36.8	22.4	0.00e+00	0	35	0	838860800	44	6080
2026-01-08 11:31:19.98	70.51	8.03	-35.7	-36.7	22.4	0.00e+00	0	35	0	842006528	44	6024
2026-01-08 11:31:20.99	70.68	8.02	-35.8	-36.8	22.4	0.00e+00	0	35	0	845152256	44	6078
2026-01-08 11:31:22.00	70.85	8.02	-35.8	-36.8	22.4	0.00e+00	0	35	0	848297984	44	6089
2026-01-08 11:31:23.01	71.01	8.01	-35.9	-36.9	22.3	0.00e+00	0	35	0	851443712	44	6168
2026-01-08 11:31:24.02	71.18	8.00	-35.9	-36.9	22.3	0.00e+00	0	35	0	854589440	44	6150
2026-01-08 11:31:25.03	71.35	8.00	-35.8	-36.8	22.5	0.00e+00	0	35	0	857735168	44	6081
2026-01-08 11:31:26.04	71.52	7.99	-35.7	-36.7	22.4	0.00e+00	0	35	0	860880896	44	6055
2026-01-08 11:31:27.05	71.69	7.99	-35.7	-36.7	22.4	0.00e+00	0	35	0	864026624	44	6048
2026-01-08 11:31:28.06	71.85	7.98	-35.7	-36.7	22.4	0.00e+00	0	35	0	867172352	44	6044
2026-01-08 11:31:29.06	72.02	7.97	-35.8	-36.8	22.3	0.00e+00	0	35	0	870318080	44	6091
2026-01-08 11:31:30.08	72.19	7.96	-35.9	-36.9	22.3	0.00e+00	0	35	0	873463808	44	6149
2026-01-08 11:31:31.09	72.36	7.96	-35.8	-36.9	22.3	0.00e+00	0	35	0	876609536	44	6140
2026-01-08 11:31:32.10	72.53	7.95	-36.0	-37.0	22.3	0.00e+00	0	35	0	879755264	44	6213
2026-01-08 11:31:33.10	72.69	7.94	-36.1	-37.1	22.2	0.00e+00	0	35	0	882900992	44	6292
2026-01-08 11:31:34.11	72.86	7.93	-36.0	-37.0	22.1	0.00e+00	0	35	0	886046720	44	6243
2026-01-08 11:31:35.12	73.03	7.93	-36.0	-37.0	22.2	0.00e+00	0	35	0	889192448	44	6267
2026-01-08 11:31:36.13	73.19	7.92	-36.0	-37.0	22.2	0.00e+00	0	35	0	892338176	44	6253
2026-01-08 11:31:37.14	73.36	7.91	-35.9	-36.9	22.3	0.00e+00	0	35	0	895483904	44	6168
2026-01-08 11:31:38.14	73.53	7.90	-35.9	-37.0	22.2	0.00e+00	0	35	0	898629632	44	6222
2026-01-08 11:31:39.15	73.69	7.89	-35.9	-36.9	22.2	0.00e+00	0	35	0	901775360	44	6196
2026-01-08 11:31:40.16	73.86	7.88	-36.1	-37.1	22.1	0.00e+00	0	35	0	904921088	44	6329
2026-01-08 11:31:41.17	74.03	7.87	-36.1	-37.1	22.2	0.00e+00	0	35	0	908066816	44	6327
2026-01-08 11:31:42.17	74.19	7.86	-36.1	-37.2	22.0	0.00e+00	0	35	0	911212544	44	6379
2026-01-08 11:31:43.18	74.36	7.85	-36.2	-37.3	22.0	0.00e+00	0	35	0	914358272	44	6429
2026-01-08 11:31:44.19	74.53	7.84	-36.3	-37.3	21.9	0.00e+00	0	35	0	917504000	44	6462
2026-01-08 11:31:45.20	74.69	7.83	-36.4	-37.4	21.7	0.00e+00	0	35	0	920649728	44	6558
2026-01-08 11:31:46.21	74.86	7.82	-36.3	-37.4	21.8	0.00e+00	0	35	0	923795456	44	6501
2026-01-08 11:31:47.22	75.03	7.81	-36.5	-37.6	21.6	0.00e+00	0	35	0	927989760	44	6652
2026-01-08 11:31:48.23	75.19	7.80	-36.3	-37.4	21.8	0.00e+00	0	35	0	931135488	44	6536
2026-01-08 11:31:49.24	75.36	7.79	-36.2	-37.2	21.9	0.00e+00	0	35	0	933232640	44	6420
2026-01-08 11:31:50.25	75.52	7.78	-36.2	-37.2	21.9	0.00e+00	0	35	0	936378368	44	6415
2026-01-08 11:31:51.25	75.69	7.77	-36.2	-37.3	21.8	0.00e+00	0	35	0	939524096	44	6452
2026-01-08 11:31:52.26	75.85	7.75	-36.2	-37.3	21.9	0.00e+00	0	35	0	942669824	44	6460
2026-01-08 11:31:53.27	76.02	7.74	-36.4	-37.5	21.8	0.00e+00	0	35	0	946864128	44	6590
2026-01-08 11:31:54.28	76.18	7.73	-36.3	-37.4	21.8	0.00e+00	0	35	0	950009856	44	6521
2026-01-08 11:31:55.29	76.35	7.72	-36.5	-37.5	21.8	0.00e+00	0	35	0	953155584	44	6637
2026-01-08 11:31:56.30	76.52	7.70	-36.4	-37.4	21.8	0.00e+00	0	35	0	956301312	44	6538
2026-01-08 11:31:57.31	76.68	7.69	-36.5	-37.6	21.6	0.00e+00	0	35	0	958398464	44	6659
2026-01-08 11:31:58.32	76.85	7.68	-36.4	-37.5	21.7	0.00e+00	0	35	0	962592768	44	6595
2026-01-08 11:31:59.33	77.01	7.67	-36.5	-37.5	21.6	0.00e+00	0	35	0	965738496	44	6642
2026-01-08 11:32:00.34	77.17	7.65	-36.4	-37.5	21.7	0.00e+00	0	35	0	968884224	44	6583
2026-01-08 11:32:01.35	77.34	7.64	-36.4	-37.5	21.7	0.00e+00	0	35	0	972029952	44	6597
2026-01-08 11:32:02.36	77.50	7.63	-36.3	-37.4	21.7	0.00e+00	0	35	0	975175680	44	6512
2026-01-08 11:32:03.37	77.67	7.61	-36.5	-37.5	21.6	0.00e+00	0	35	0	978321408	44	6641
2026-01-08 11:32:04.38	77.83	7.60	-36.4	-37.4	21.6	0.00e+00	0	35	0	981467136	44	6562
2026-01-08 11:32:05.39	78.00	7.58	-36.5	-37.6	21.6	0.00e+00	0	35	0	984612864	44	6658
2026-01-08 11:32:06.40	78.16	7.57	-36.4	-37.5	21.6	0.00e+00	0	35	0	987758592	44	6597
2026-01-08 11:32:07.41	78.32	7.55	-36.3	-37.4	21.7	0.00e+00	0	35	0	990904320	44	6542
2026-01-08 11:32:08.42	78.49	7.54	-36.3	-37.4	21.7	0.00e+00	0	35	0	994050048	44	6535
2026-01-08 11:32:09.42	78.65	7.52	-36.3	-37.3	21.8	0.00e+00	0	35	0	997195776	44	6483
2026-01-08 11:32:10.43	78.81	7.51	-36.3	-37.4	21.7	0.00e+00	0	35	0	1000341504	44	6512
2026-01-08 11:32:11.44	78.97	7.49	-36.3	-37.4	21.6	0.00e+00	0	35	0	1003487232	44	6560
2026-01-08 11:32:12.45	79.14	7.48	-36.3	-37.4	21.7	0.00e+00	0	35	0	1006632960	44	6534
2026-01-08 11:32:13.46	79.30	7.46	-36.3	-37.4	21.6	0.00e+00	0	35	0	1009778688	44	6530
2026-01-08 11:32:14.47	79.46	7.45	-36.2	-37.3	21.7	0.00e+00	0	35	0	1012924416	44	6472
2026-01-08 11:32:15.48	79.62	7.43	-36.2	-37.3	21.7	0.00e+00	0	35	0	1016070144	44	6496
2026-01-08 11:32:16.49	79.79	7.41	-36.2	-37.3	21.8	0.00e+00	0	35	0	1019215872	44	6452
2026-01-08 11:32:17.50	79.95	7.40	-36.2	-37.3	21.8	0.00e+00	0	35	0	1022361600	44	6474
2026-01-08 11:32:18.51	80.11	7.38	-36.2	-37.3	21.8	0.00e+00	0	35	0	1025507328	44	6465
2026-01-08 11:32:19.52	80.27	7.36	-36.2	-37.3	21.9	0.00e+00	0	35	0	1028653056	44	6467
2026-01-08 11:32:20.53	80.43	7.35	-36.3	-37.3	21.8	0.00e+00	0	35	0	1031798784	44	6495
2026-01-08 11:32:21.54	80.59	7.33	-36.2	-37.3	21.8	0.00e+00	0	35	0	1034944512	44	6477
2026-01-08 11:32:22.55	80.75	7.31	-36.1	-37.2	21.9	0.00e+00	0	35	0	1038090240	44	6406
2026-01-08 11:32:23.56	80.91	7.30	-36.2	-37.3	21.8	0.00e+00	0	35	0	1041235968	44	6477
2026-01-08 11:32:24.57	81.08	7.28	-36.2	-37.3	21.8	0.00e+00	0	35	0	1044381696	44	6494
2026-01-08 11:32:25.58	81.24	7.26	-36.0	-37.1	22.0	0.00e+00	0	35	0	1047527424	44	6335
2026-01-08 11:32:26.59	81.40	7.24	-36.1	-37.1	21.9	0.00e+00	0	35	0	1050673152	44	6343
2026-01-08 11:32:27.60	81.56	7.22	-36.0	-37.1	22.0	0.00e+00	0	35	0	1053818880	44	6311
2026-01-08 11:32:28.61	81.72	7.20	-36.0	-37.1	22.0	0.00e+00	0	35	0	1056964608	44	6325
2026-01-08 11:32:29.61	81.87	7.19	-36.2	-37.2	21.9	0.00e+00	0	35	0	1060110336	44	6402
2026-01-08 11:32:30.62	82.03	7.17	-36.1	-37.2	21.9	0.00e+00	0	35	0	1063256064	44	6360
2026-01-08 11:32:31.63	82.19	7.15	-36.1	-37.2	22.0	0.00e+00	0	35	0	1066401792	44	6356
2026-01-08 11:32:32.64	82.35	7.13	-35.9	-37.0	22.1	0.00e+00	0	35	0	1069547520	44	6237
2026-01-08 11:32:33.65	82.51	7.11	-35.9	-37.0	22.1	0.00e+00	0	35	0	1072693248	44	6227
2026-01-08 11:32:34.66	82.67	7.09	-36.0	-37.1	22.0	0.00e+00	0	35	0	1075838976	44	6316
2026-01-08 11:32:35.67	82.83	7.07	-36.0	-37.1	22.0	0.00e+00	0	35	0	1078984704	44	6282
2026-01-08 11:32:36.68	82.99	7.05	-36.1	-37.2	22.0	0.00e+00	0	35	0	1082130432	44	6351
2026-01-08 11:32:37.69	83.14	7.03	-36.0	-37.1	22.0	0.00e+00	0	35	0	1085276160	44	6298
2026-01-08 11:32:38.70	83.30	7.01	-36.0	-37.1	22.0	0.00e+00	0	35	0	1088421888	44	6308
2026-01-08 11:32:39.71	83.46	6.99	-36.0	-37.1	22.0	0.00e+00	0	35	0	1091567616	44	6288
2026-01-08 11:32:40.72	83.62	6.97	-36.0	-37.1	22.0	0.00e+00	0	35	0	1094713344	44	6300
2026-01-08 11:32:41.73	83.77	6.95	-36.0	-37.0	22.1	0.00e+00	0	35	0	1097859072	44	6255
2026-01-08 11:32:42.74	83.93	6.93	-35.9	-37.0	22.2	0.00e+00	0	35	0	1101004800	44	6214
2026-01-08 11:32:43.75	84.09	6.91	-36.0	-37.1	22.0	0.00e+00	0	35	0	1104150528	44	6297
2026-01-08 11:32:44.76	84.24	6.89	-36.0	-37.0	22.0	0.00e+00	0	35	0	1107296256	44	6268
2026-01-08 11:32:45.76	84.40	6.86	-36.1	-37.2	22.1	0.00e+00	0	35	0	1110441984	44	6370
2026-01-08 11:32:46.77	84.56	6.84	-35.9	-37.0	22.1	0.00e+00	0	35	0	1113587712	44	6225
2026-01-08 11:32:47.78	84.71	6.82	-35.8	-36.9	22.1	0.00e+00	0	35	0	1116733440	44	6151
2026-01-08 11:32:48.80	84.87	6.80	-35.9	-37.0	22.1	0.00e+00	0	35	0	1119879168	44	6229
2026-01-08 11:32:49.81	85.02	6.78	-36.1	-37.2	21.9	0.00e+00	0	35	0	1123024896	44	6367
2026-01-08 11:32:50.82	85.18	6.76	-36.0	-37.1	22.0	0.00e+00	0	35	0	1126170624	44	6320
2026-01-08 11:32:51.83	85.33	6.73	-36.3	-37.3	21.8	0.00e+00	0	35	0	1129316352	44	6473
2026-01-08 11:32:52.84	85.49	6.71	-36.1	-37.2	21.9	0.00e+00	0	35	0	1132462080	44	6353
2026-01-08 11:32:53.84	85.64	6.69	-36.2	-37.2	21.9	0.00e+00	0	35	0	1135607808	44	6381
2026-01-08 11:32:54.85	85.80	6.67	-36.2	-37.2	21.8	0.00e+00	0	35	0	1138753536	44	6390
2026-01-08 11:32:55.86	85.95	6.64	-36.2	-37.2	21.7	0.00e+00	0	36	0	1141899264	44	6419
2026-01-08 11:32:56.87	86.10	6.62	-36.3	-37.4	21.6	0.00e+00	0	35	0	1145044992	44	6535
2026-01-08 11:32:57.87	86.26	6.60	-36.3	-37.3	21.7	0.00e+00	0	35	0	1148190720	44	6471
2026-01-08 11:32:58.88	86.41	6.57	-36.2	-37.3	21.7	0.00e+00	0	35	0	1151336448	44	6455
2026-01-08 11:32:59.89	86.56	6.55	-36.2	-37.3	21.7	0.00e+00	0	35	0	1154482176	44	6468
2026-01-08 11:33:00.90	86.72	6.53	-36.2	-37.3	21.8	0.00e+00	0	35	0	1157627904	44	6463
2026-01-08 11:33:01.91	86.87	6.50	-36.2	-37.3	21.8	0.00e+00	0	35	0	1160773632	44	6443
2026-01-08 11:33:02.92	87.02	6.48	-36.2	-37.3	21.7	0.00e+00	0	36	0	1163919360	44	6443
2026-01-08 11:33:03.93	87.17	6.45	-36.1	-37.1	21.9	0.00e+00	0	35	0	1167065088	44	6309
2026-01-08 11:33:04.94	87.33	6.43	-36.2	-37.3	21.8	0.00e+00	0	35	0	1170210816	44	6440
2026-01-08 11:33:05.95	87.48	6.41	-36.1	-37.1	21.9	0.00e+00	0	36	0	1173356544	44	6329
2026-01-08 11:33:06.96	87.63	6.38	-36.1	-37.2	21.9	0.00e+00	0	35	0	1176502272	44	6355
2026-01-08 11:33:07.97	87.78	6.36	-36.2	-37.2	21.8	0.00e+00	0	36	0	1179648000	44	6387
2026-01-08 11:33:08.98	87.93	6.33	-36.3	-37.4	21.6	0.00e+00	0	35	0	1182793728	44	6523
2026-01-08 11:33:09.99	88.08	6.31	-36.4	-37.5	21.5	0.00e+00	0	35	0	1185939456	44	6596
2026-01-08 11:33:11.00	88.23	6.28	-36.3	-37.4	21.5	0.00e+00	0	35	0	1189085184	44	6544
2026-01-08 11:33:12.01	88.38	6.26	-36.4	-37.5	21.4	0.00e+00	0	36	0	1192230912	44	6621
2026-01-08 11:33:13.02	88.53	6.23	-36.4	-37.5	21.5	0.00e+00	0	35	0	1195376640	44	6606
2026-01-08 11:33:14.03	88.68	6.21	-36.6	-37.6	21.4	0.00e+00	0	35	0	1198522368	44	6722
2026-01-08 11:33:15.03	88.83	6.18	-36.5	-37.6	21.3	0.00e+00	0	35	0	1201668096	44	6696
2026-01-08 11:33:16.04	88.98	6.15	-36.4	-37.5	21.4	0.00e+00	0	35	0	1204813824	44	6636
2026-01-08 11:33:17.05	89.13	6.13	-36.4	-37.5	21.4	0.00e+00	0	35	0	1207959552	44	6624
2026-01-08 11:33:18.06	89.28	6.10	-36.5	-37.6	21.5	0.00e+00	0	35	0	1211105280	44	6658
2026-01-08 11:33:19.07	89.43	6.08	-36.3	-37.4	21.5	0.00e+00	0	35	0	1214251008	44	6546
2026-01-08 11:33:20.08	89.57	6.05	-36.3	-37.4	21.6	0.00e+00	0	35	0	1217396736	44	6548
2026-01-08 11:33:21.09	89.72	6.02	-36.2	-37.2	21.8	0.00e+00	0	35	0	1220542464	44	6406
2026-01-08 11:33:22.10	89.87	6.00	-36.1	-37.2	21.8	0.00e+00	0	35	0	1223688192	44	6363
2026-01-08 11:33:23.11	90.02	5.97	-36.1	-37.1	21.7	0.00e+00	0	35	0	1226833920	44	6348
2026-01-08 11:33:24.12	90.16	5.94	-36.2	-37.2	21.7	0.00e+00	0	35	0	1229979648	44	6409
2026-01-08 11:33:25.13	90.31	5.92	-36.1	-37.2	21.8	0.00e+00	0	35	0	1233125376	44	6356
2026-01-08 11:33:26.15	90.46	5.89	-36.3	-37.3	21.6	0.00e+00	0	35	0	1236271104	44	6475
2026-01-08 11:33:27.15	90.60	5.86	-36.2	-37.2	21.7	0.00e+00	0	35	0	1239416832	44	6409
2026-01-08 11:33:28.16	90.75	5.83	-36.3	-37.4	21.6	0.00e+00	0	35	0	1242562560	44	6500
2026-01-08 11:33:29.17	90.90	5.81	-36.3	-37.4	21.5	0.00e+00	0	35	0	1245708288	44	6501
2026-01-08 11:33:30.18	91.04	5.78	-36.4	-37.5	21.5	0.00e+00	0	35	0	1248854016	44	6624
2026-01-08 11:33:31.19	91.19	5.75	-36.5	-37.6	21.5	0.00e+00	0	35	0	1251999744	44	6663
2026-01-08 11:33:32.20	91.33	5.72	-36.6	-37.7	21.4	0.00e+00	0	35	0	1255145472	44	6779
2026-01-08 11:33:33.21	91.48	5.69	-36.7	-37.8	21.2	0.00e+00	0	35	0	1258291200	44	6862
2026-01-08 11:33:34.22	91.62	5.67	-36.9	-38.1	21.0	0.00e+00	0	36	0	1261436928	46	6282
2026-01-08 11:33:35.23	91.77	5.64	-36.8	-37.9	21.2	0.00e+00	0	35	0	1264582656	46	6149
2026-01-08 11:33:36.23	91.91	5.61	-36.8	-37.9	21.1	0.00e+00	0	35	0	1267728384	46	6188
2026-01-08 11:33:37.24	92.05	5.58	-36.9	-38.1	21.1	0.00e+00	0	35	0	1270874112	46	6287
2026-01-08 11:33:38.25	92.20	5.55	-36.8	-37.9	21.1	0.00e+00	0	35	0	1274019840	46	6190
2026-01-08 11:33:39.26	92.34	5.52	-36.8	-37.9	21.2	0.00e+00	0	35	0	1277165568	46	6165
2026-01-08 11:33:40.27	92.48	5.50	-36.6	-37.7	21.3	0.00e+00	0	35	0	1280311296	46	6060
2026-01-08 11:33:41.28	92.63	5.47	-36.6	-37.7	21.4	0.00e+00	0	35	0	1283457024	46	6021
2026-01-08 11:33:42.29	92.77	5.44	-36.6	-37.7	21.3	0.00e+00	0	35	0	1286602752	46	6013
2026-01-08 11:33:43.29	92.91	5.41	-36.5	-37.6	21.5	0.00e+00	0	35	0	1289748480	46	5930
2026-01-08 11:33:44.30	93.05	5.38	-36.5	-37.6	21.4	0.00e+00	0	35	0	1292894208	46	5969
2026-01-08 11:33:45.31	93.19	5.35	-36.6	-37.7	21.4	0.00e+00	0	35	0	1296039936	46	6003
2026-01-08 11:33:46.33	93.33	5.32	-36.7	-37.8	21.3	0.00e+00	0	35	0	1299185664	46	6099
2026-01-08 11:33:47.34	93.48	5.29	-36.4	-37.6	21.5	0.00e+00	0	35	0	1302331392	46	5927
2026-01-08 11:33:48.35	93.62	5.26	-36.5	-37.6	21.3	0.00e+00	0	35	0	1305477120	46	5993
2026-01-08 11:33:49.36	93.76	5.23	-36.8	-38.0	21.1	0.00e+00	0	35	0	1308622848	46	6218
2026-01-08 11:33:50.37	93.90	5.20	-36.9	-38.1	21.1	0.00e+00	0	35	0	1311768576	46	6294
2026-01-08 11:33:51.37	94.04	5.17	-36.9	-38.1	21.0	0.00e+00	0	35	0	1315962880	46	6297
2026-01-08 11:33:52.38	94.18	5.14	-36.8	-38.0	21.0	0.00e+00	0	35	0	1319108608	46	6217
2026-01-08 11:33:53.39	94.32	5.11	-36.9	-38.1	20.9	0.00e+00	0	35	0	1321205760	46	6299
2026-01-08 11:33:54.40	94.45	5.08	-37.0	-38.2	20.7	0.00e+00	0	35	0	1324351488	46	6403
2026-01-08 11:33:55.41	94.59	5.05	-37.0	-38.3	20.7	0.00e+00	0	35	0	1327497216	46	6471
2026-01-08 11:33:56.42	94.73	5.02	-37.0	-38.3	20.8	0.00e+00	0	35	0	1331691520	46	6434
2026-01-08 11:33:57.43	94.87	4.99	-36.9	-38.2	20.9	0.00e+00	0	35	0	1334837248	46	6382
2026-01-08 11:33:58.44	95.01	4.96	-37.1	-38.3	20.7	0.00e+00	0	35	0	1337982976	46	6454
2026-01-08 11:33:59.45	95.15	4.93	-37.0	-38.2	20.8	0.00e+00	0	35	0	1341128704	46	6380
2026-01-08 11:34:00.46	95.28	4.90	-37.0	-38.1	20.9	0.00e+00	0	35	0	1343225856	46	6348
2026-01-08 11:34:01.47	95.42	4.86	-36.8	-38.0	21.0	0.00e+00	0	35	0	1347420160	46	6238
2026-01-08 11:34:02.48	95.56	4.83	-36.9	-38.1	20.9	0.00e+00	0	35	0	1350565888	46	6302
2026-01-08 11:34:03.49	95.69	4.80	-36.9	-38.1	20.9	0.00e+00	0	35	0	1353711616	46	6327
2026-01-08 11:34:04.50	95.83	4.77	-36.9	-38.0	20.9	0.00e+00	0	35	0	1356857344	46	6266
2026-01-08 11:34:05.51	95.97	4.74	-36.9	-38.0	20.9	0.00e+00	0	35	0	1360003072	46	6277
2026-01-08 11:34:06.52	96.10	4.71	-36.8	-38.0	21.0	0.00e+00	0	35	0	1363148800	46	6212
2026-01-08 11:34:07.53	96.24	4.68	-36.8	-38.0	21.0	0.00e+00	0	35	0	1366294528	46	6219
2026-01-08 11:34:08.54	96.37	4.64	-36.8	-38.0	21.0	0.00e+00	0	35	0	1369440256	46	6210
2026-01-08 11:34:09.55	96.51	4.61	-36.9	-38.0	20.9	0.00e+00	0	35	0	1372585984	46	6271
2026-01-08 11:34:10.56	96.64	4.58	-36.9	-38.1	20.9	0.00e+00	0	35	0	1375731712	46	6300
2026-01-08 11:34:11.57	96.78	4.55	-37.0	-38.1	20.7	0.00e+00	0	35	0	1378877440	46	6333
2026-01-08 11:34:12.58	96.91	4.52	-37.1	-38.3	20.7	0.00e+00	0	35	0	1382023168	46	6461
2026-01-08 11:34:13.58	97.04	4.48	-37.5	-38.7	20.3	0.00e+00	0	35	0	1385168896	46	6771
2026-01-08 11:34:14.59	97.18	4.45	-37.5	-38.7	20.2	0.00e+00	0	35	0	1388314624	46	6778
2026-01-08 11:34:15.60	97.31	4.42	-37.5	-38.6	20.3	0.00e+00	0	35	0	1391460352	46	6712
2026-01-08 11:34:16.61	97.44	4.39	-37.3	-38.5	20.5	0.00e+00	0	35	0	1394606080	46	6596
2026-01-08 11:34:17.62	97.58	4.35	-37.2	-38.5	20.4	0.00e+00	0	35	0	1397751808	46	6588
2026-01-08 11:34:18.63	97.71	4.32	-37.2	-38.4	20.4	0.00e+00	0	35	0	1400897536	46	6569
2026-01-08 11:34:19.64	97.84	4.29	-37.2	-38.4	20.4	0.00e+00	0	35	0	1404043264	46	6543
2026-01-08 11:34:20.65	97.97	4.26	-37.2	-38.4	20.4	0.00e+00	0	35	0	1407188992	46	6554
2026-01-08 11:34:21.66	98.10	4.22	-37.4	-38.6	20.3	0.00e+00	0	35	0	1410334720	46	6686
2026-01-08 11:34:22.66	98.23	4.19	-37.3	-38.5	20.3	0.00e+00	0	35	0	1413480448	46	6641
2026-01-08 11:34:23.67	98.36	4.16	-37.4	-38.6	20.2	0.00e+00	0	35	0	1416626176	46	6724
2026-01-08 11:34:24.69	98.50	4.12	-37.1	-38.4	20.3	0.00e+00	0	35	0	1419771904	46	6568
2026-01-08 11:34:25.69	98.63	4.09	-36.9	-38.3	20.4	0.00e+00	0	35	0	1422917632	46	6447
2026-01-08 11:34:26.70	98.76	4.06	-37.0	-38.4	20.3	0.00e+00	0	35	0	1426063360	46	6517
2026-01-08 11:34:27.71	98.89	4.02	-36.8	-38.1	20.5	0.00e+00	0	36	0	1429209088	46	6346
2026-01-08 11:34:28.72	99.02	3.99	-37.1	-38.4	20.2	0.00e+00	0	35	0	1432354816	46	6573
2026-01-08 11:34:29.73	99.14	3.96	-37.1	-38.4	20.2	0.00e+00	0	35	0	1435500544	46	6538
2026-01-08 11:34:30.74	99.27	3.92	-37.1	-38.4	20.2	0.00e+00	0	36	0	1438646272	46	6540
2026-01-08 11:34:31.75	99.40	3.89	-37.1	-38.4	20.3	0.00e+00	0	35	0	1441792000	46	6550
2026-01-08 11:34:32.76	99.53	3.86	-36.9	-38.3	20.3	0.00e+00	0	35	0	1444937728	46	6464
2026-01-08 11:34:33.77	99.66	3.82	-36.8	-38.1	20.4	0.00e+00	0	35	0	1448083456	46	6333
2026-01-08 11:34:34.78	99.79	3.79	-36.9	-38.2	20.3	0.00e+00	0	35	0	1451229184	46	6401
2026-01-08 11:34:35.79	99.91	3.75	-37.1	-38.4	20.2	0.00e+00	0	35	0	1454374912	46	6513
2026-01-08 11:34:36.80	100.04	3.72	-37.1	-38.3	20.2	0.00e+00	0	35	0	1457520640	46	6472
2026-01-08 11:34:37.81	100.17	3.69	-37.1	-38.3	20.1	0.00e+00	0	35	0	1460666368	46	6469
2026-01-08 11:34:38.82	100.30	3.65	-37.3	-38.5	19.9	0.00e+00	0	35	0	1463812096	46	6643
2026-01-08 11:34:39.83	100.42	3.62	-37.4	-38.7	19.9	0.00e+00	0	35	0	1466957824	46	6731
2026-01-08 11:34:40.84	100.55	3.58	-37.5	-38.8	19.8	0.00e+00	0	35	0	1470103552	46	6829
2026-01-08 11:34:41.85	100.67	3.55	-37.6	-39.0	19.7	0.00e+00	0	36	0	1473249280	46	6966
2026-01-08 11:34:42.86	100.80	3.51	-37.4	-38.6	20.1	0.00e+00	0	35	0	1476395008	46	6705
2026-01-08 11:34:43.87	100.93	3.48	-37.6	-38.8	20.0	0.00e+00	0	35	0	1479540736	46	6847
2026-01-08 11:34:44.88	101.05	3.45	-37.4	-38.7	20.0	0.00e+00	0	35	0	1482686464	46	6747
2026-01-08 11:34:45.89	101.18	3.41	-37.2	-38.5	20.0	0.00e+00	0	35	0	1485832192	46	6649
2026-01-08 11:34:46.90	101.30	3.38	-37.2	-38.7	19.9	0.00e+00	0	35	0	1488977920	46	6738
2026-01-08 11:34:47.91	101.42	3.34	-37.2	-38.6	19.9	0.00e+00	0	35	0	1492123648	46	6688
2026-01-08 11:34:48.92	101.55	3.31	-37.6	-39.0	19.6	0.00e+00	0	35	0	1495269376	46	7034
2026-01-08 11:34:49.93	101.67	3.27	-37.6	-39.0	19.6	0.00e+00	0	35	0	1498415104	46	6969
2026-01-08 11:34:50.94	101.79	3.24	-37.3	-38.5	20.1	0.00e+00	0	36	0	1501560832	46	6611
2026-01-08 11:34:51.95	101.92	3.20	-37.1	-38.3	20.2	0.00e+00	0	35	0	1504706560	46	6475
2026-01-08 11:34:52.96	102.04	3.17	-37.6	-38.9	19.6	0.00e+00	0	35	0	1507852288	46	6904
2026-01-08 11:34:53.97	102.16	3.13	-37.4	-38.7	19.8	0.00e+00	0	35	0	1510998016	46	6751
2026-01-08 11:34:54.98	102.29	3.10	-37.3	-38.5	19.9	0.00e+00	0	35	0	1514143744	46	6648
2026-01-08 11:34:55.99	102.41	3.06	-37.6	-38.9	19.6	0.00e+00	0	36	0	1517289472	46	6923
2026-01-08 11:34:57.00	102.53	3.03	-37.7	-39.0	19.4	0.00e+00	0	35	0	1520435200	46	7012
2026-01-08 11:34:58.01	102.65	2.99	-47.2	-60.3	3.5	1.52e+00	0	36	104	1521483776	60	36257
2026-01-08 11:34:59.02	102.77	2.95	-48.0	-60.8	3.5	1.52e+00	0	35	104	1521483776	60	38560
2026-01-08 11:35:00.03	102.89	2.92	-48.2	-61.1	3.5	1.52e+00	0	35	104	1521483776	60	39674
2026-01-08 11:35:01.04	103.01	2.88	-48.3	-61.2	3.5	1.52e+00	0	36	104	1521483776	60	40206
2026-01-08 11:35:02.06	103.13	2.85	-48.4	-61.2	3.5	1.52e+00	0	36	104	1521483776	60	40437
2026-01-08 11:35:03.07	103.25	2.81	-48.4	-61.3	3.5	1.52e+00	0	36	104	1521483776	60	40670
2026-01-08 11:35:04.07	103.37	2.78	-48.5	-61.3	3.5	1.52e+00	0	36	104	1521483776	60	40753
2026-01-08 11:35:05.08	103.49	2.74	-48.5	-61.3	3.5	1.52e+00	0	36	104	1521483776	60	40987
2026-01-08 11:35:06.10	103.61	2.70	-48.4	-61.4	3.5	1.52e+00	0	36	104	1521483776	60	41080
2026-01-08 11:35:07.11	103.73	2.67	-48.5	-61.4	3.5	1.52e+00	0	36	104	1521483776	60	41160
2026-01-08 11:35:08.12	103.85	2.63	-48.5	-61.4	3.5	1.52e+00	0	35	104	1521483776	60	41166
2026-01-08 11:35:09.13	103.97	2.60	-48.5	-61.3	3.5	1.52e+00	0	36	104	1521483776	60	40981
2026-01-08 11:35:10.14	104.09	2.56	-48.3	-61.4	3.5	1.52e+00	0	35	104	1521483776	60	41176
2026-01-08 11:35:11.15	104.20	2.52	-48.5	-61.3	3.5	1.52e+00	0	35	104	1521483776	60	40895
2026-01-08 11:35:12.16	104.32	2.49	-48.5	-61.3	3.5	1.51e+00	0	35	104	1521483776	60	40805
2026-01-08 11:35:13.16	104.44	2.45	-48.5	-61.3	3.5	1.52e+00	0	36	104	1521483776	60	40805
2026-01-08 11:35:14.17	104.56	2.42	-48.5	-61.3	3.5	1.52e+00	0	36	104	1521483776	60	40904
2026-01-08 11:35:15.18	104.67	2.38	-48.5	-61.3	3.5	1.52e+00	0	36	104	1521483776	60	40634
2026-01-08 11:35:16.19	104.79	2.34	-48.5	-61.3	3.5	1.52e+00	0	36	104	1521483776	60	40826
2026-01-08 11:35:17.20	104.90	2.31	-48.5	-61.3	3.5	1.52e+00	0	36	104	1521483776	60	40753
2026-01-08 11:35:18.21	105.02	2.27	-48.5	-61.3	3.5	1.51e+00	0	36	104	1521483776	60	40751
2026-01-08 11:35:19.22	105.14	2.23	-48.4	-61.3	3.5	1.52e+00	0	36	104	1521483776	60	40744
2026-01-08 11:35:20.23	105.25	2.20	-48.5	-61.3	3.5	1.52e+00	0	36	104	1521483776	60	40711
2026-01-08 11:35:21.24	105.37	2.16	-48.5	-61.3	3.5	1.52e+00	0	36	104	1521483776	60	40767
2026-01-08 11:35:22.25	105.48	2.12	-48.5	-61.3	3.5	1.52e+00	0	35	104	1521483776	60	40736
2026-01-08 11:35:23.26	105.60	2.09	-48.4	-61.3	3.5	1.52e+00	0	36	104	1521483776	60	40691
2026-01-08 11:35:24.27	105.71	2.05	-48.4	-61.3	3.5	1.52e+00	0	36	104	1521483776	60	40720
2026-01-08 11:35:25.28	105.82	2.01	-48.5	-61.3	3.5	1.52e+00	0	36	104	1521483776	60	40674
2026-01-08 11:35:26.29	105.94	1.98	-48.5	-61.3	3.5	1.52e+00	0	36	104	1521483776	60	40595
2026-01-08 11:35:27.29	106.05	1.94	-48.4	-61.2	3.5	1.52e+00	0	36	104	1521483776	60	40530
2026-01-08 11:35:28.30	106.16	1.90	-48.4	-61.2	3.5	1.52e+00	0	36	104	1521483776	60	40511
2026-01-08 11:35:29.31	106.28	1.87	-48.4	-61.3	3.5	1.52e+00	0	36	104	1521483776	60	40601
2026-01-08 11:35:30.33	106.39	1.83	-48.4	-61.3	3.5	1.52e+00	0	36	104	1521483776	60	40702
2026-01-08 11:35:31.31	106.50	1.79	-48.4	-61.3	3.5	1.52e+00	0	36	104	1521483776	60	40673
2026-01-08 11:35:32.32	106.61	1.76	-48.4	-61.3	3.5	1.52e+00	0	35	104	1521483776	60	40688
2026-01-08 11:35:33.33	106.72	1.72	-48.4	-61.3	3.5	1.52e+00	0	36	104	1521483776	60	40655
2026-01-08 11:35:34.34	106.83	1.68	-48.4	-61.3	3.5	1.52e+00	0	36	104	1521483776	60	40630
2026-01-08 11:35:35.35	106.95	1.64	-48.4	-61.3	3.5	1.52e+00	0	36	104	1521483776	60	40677
2026-01-08 11:35:36.36	107.06	1.61	-48.4	-61.3	3.5	1.52e+00	0	36	104	1521483776	60	40690
2026-01-08 11:35:37.37	107.17	1.57	-48.4	-61.3	3.5	1.52e+00	0	36	104	1521483776	60	40596
2026-01-08 11:35:38.38	107.28	1.53	-48.4	-61.3	3.5	1.52e+00	0	36	104	1521483776	60	40654
2026-01-08 11:35:39.39	107.39	1.50	-48.4	-61.3	3.5	1.52e+00	0	36	104	1521483776	60	40688
2026-01-08 11:35:40.40	107.50	1.46	-48.4	-61.2	3.5	1.51e+00	0	36	104	1521483776	60	40517
2026-01-08 11:35:41.41	107.61	1.42	-48.4	-61.2	3.5	1.52e+00	0	36	104	1521483776	60	40525
2026-01-08 11:35:42.42	107.72	1.38	-48.4	-61.2	3.5	1.52e+00	0	36	104	1521483776	60	40473
2026-01-08 11:35:43.42	107.83	1.35	-48.4	-61.3	3.5	1.52e+00	0	36	104	1521483776	60	40675
2026-01-08 11:35:44.43	107.93	1.31	-48.4	-61.3	3.5	1.52e+00	0	36	104	1521483776	60	40623
2026-01-08 11:35:45.45	108.04	1.27	-48.4	-61.3	3.5	1.52e+00	0	36	104	1521483776	60	40566
2026-01-08 11:35:46.46	108.15	1.23	-48.4	-61.3	3.5	1.52e+00	0	36	104	1521483776	60	40634
2026-01-08 11:35:47.46	108.26	1.20	-48.4	-61.3	3.5	1.52e+00	0	36	104	1521483776	60	40579
2026-01-08 11:35:48.48	108.37	1.16	-47.7	-61.2	3.5	1.52e+00	0	36	104	1521483776	60	40525
2026-01-08 11:35:49.49	108.48	1.12	-48.2	-61.2	3.5	1.52e+00	0	36	104	1521483776	60	40426
2026-01-08 11:35:50.50	108.58	1.08	-48.2	-61.3	3.5	1.52e+00	0	36	104	1521483776	60	40629
2026-01-08 11:35:51.50	108.69	1.05	-47.5	-61.1	3.6	1.52e+00	0	35	104	1521483776	60	40007
2026-01-08 11:35:52.52	108.80	1.01	-48.3	-61.2	3.5	1.52e+00	0	36	104	1521483776	60	40274
2026-01-08 11:35:53.53	108.90	0.97	-48.4	-61.3	3.5	1.52e+00	0	36	104	1521483776	60	40603
2026-01-08 11:35:54.54	109.01	0.93	-48.4	-61.2	3.5	1.52e+00	0	36	104	1521483776	60	40477
2026-01-08 11:35:55.54	109.12	0.89	-48.4	-61.3	3.5	1.52e+00	0	36	104	1521483776	60	40630
2026-01-08 11:35:56.55	109.22	0.86	-48.4	-61.2	3.5	1.52e+00	0	36	104	1521483776	60	40528
2026-01-08 11:35:57.56	109.33	0.82	-48.4	-61.3	3.5	1.52e+00	0	36	104	1521483776	60	40548
2026-01-08 11:35:58.57	109.43	0.78	-48.4	-61.2	3.5	1.51e+00	0	36	104	1521483776	60	40294
2026-01-08 11:35:59.57	109.54	0.74	-48.4	-61.2	3.5	1.52e+00	0	36	104	1521483776	60	40396
2026-01-08 11:36:00.58	109.64	0.70	-48.4	-61.3	3.5	1.52e+00	0	36	104	1521483776	60	40568
2026-01-08 11:36:01.59	109.75	0.67	-48.4	-61.3	3.5	1.52e+00	0	36	104	1521483776	60	40652
2026-01-08 11:36:02.60	109.85	0.63	-48.4	-61.3	3.5	1.52e+00	0	36	104	1521483776	60	40545
2026-01-08 11:36:03.62	109.96	0.59	-48.4	-61.2	3.5	1.51e+00	0	36	104	1521483776	60	40430
2026-01-08 11:36:04.63	110.06	0.55	-48.4	-61.3	3.5	1.52e+00	0	36	104	1521483776	60	40621
2026-01-08 11:36:05.64	110.16	0.51	-48.4	-61.3	3.5	1.52e+00	0	36	104	1521483776	60	40719
2026-01-08 11:36:06.65	110.27	0.48	-48.4	-61.3	3.5	1.52e+00	0	36	104	1521483776	60	40619
2026-01-08 11:36:07.65	110.37	0.44	-48.4	-61.3	3.5	1.52e+00	0	36	104	1521483776	60	40607
2026-01-08 11:36:08.66	110.47	0.40	-48.4	-61.3	3.5	1.52e+00	0	36	104	1521483776	60	40816
2026-01-08 11:36:09.67	110.57	0.36	-48.4	-61.3	3.5	1.52e+00	0	36	104	1521483776	60	40607
2026-01-08 11:36:10.68	110.68	0.32	-48.4	-61.2	3.5	1.52e+00	0	36	104	1521483776	60	40527
2026-01-08 11:36:11.69	110.78	0.29	-48.4	-61.2	3.5	1.52e+00	0	36	104	1521483776	60	40388
2026-01-08 11:36:12.70	110.88	0.25	-48.4	-61.3	3.5	1.52e+00	0	36	104	1521483776	60	40712
2026-01-08 11:36:13.71	110.98	0.21	-48.4	-61.3	3.5	1.52e+00	0	36	104	1521483776	60	40629
2026-01-08 11:36:14.72	111.08	0.17	-48.4	-61.3	3.5	1.52e+00	0	36	104	1521483776	60	40657
2026-01-08 11:36:15.73	111.18	0.13	-48.4	-61.2	3.5	1.52e+00	0	36	104	1521483776	60	40505
2026-01-08 11:36:16.74	111.28	0.09	-48.4	-61.3	3.5	1.51e+00	0	36	104	1521483776	60	40663
2026-01-08 11:36:17.75	111.38	0.06	-48.4	-61.2	3.5	1.52e+00	0	36	104	1521483776	60	40417
2026-01-08 11:36:18.76	111.48	0.02	-48.4	-61.3	3.5	1.52e+00	0	36	104	1521483776	60	40552
2026-01-08 11:36:19.77	111.58	-0.02	-48.4	-61.3	3.5	1.52e+00	0	36	104	1521483776	60	40660

#Closed at: 2026-01-08 11:36:20
#Recorded file [1521 MB]: D:/lorett/data/35029_260108_232532.dat