passes_logs/2026/01/08/R4.6S_Anadyr/R4.6S_Anadyr__20260108_180155_FENGYUN_3E_rec.log

#Pass ID: 20260108_180155_FENGYUN 3E
#Satellite: FENGYUN 3E
#Configuration: FENGYUN 3E
#almurnet v.1.7.20251203
#Start time: 2026-01-08 18:01:56

#Version: 2.2.20231116
#Station: R4.6S_Anadyr
#Location: 177.4865 lon 64.73178 lat
#TLE: 1 49008U 21062A   26008.31124991 -.00000020  00000+0  11209-4 0  9997
#TLE: 2 49008  98.7482  13.5177 0001702 150.1462 209.9812 14.19884205233892

#Time	Az	El	Level	Level2	SNR	BER	BlckErr	Temp	State	Recorded	gain1	gain2
2026-01-08 18:01:56.01	19.05	0.04	-48.7	-66.5	3.5	3.02e+01	0	29	0	0	60	81402
2026-01-08 18:01:57.01	19.08	0.10	-48.3	-59.6	3.6	8.45e-01	0	30	104	0	60	34470
2026-01-08 18:01:58.02	19.12	0.15	-48.4	-59.5	3.5	8.44e-01	0	30	104	0	60	34318
2026-01-08 18:01:59.03	19.15	0.21	-48.3	-59.6	3.6	8.45e-01	0	30	104	0	60	34542
2026-01-08 18:02:00.04	19.18	0.27	-48.3	-59.6	3.6	8.45e-01	0	30	104	0	60	34621
2026-01-08 18:02:01.05	19.22	0.33	-48.5	-59.7	3.6	8.44e-01	0	31	104	0	60	34935
2026-01-08 18:02:02.06	19.25	0.39	-48.4	-59.7	3.6	8.45e-01	0	30	104	0	60	34774
2026-01-08 18:02:03.07	19.28	0.45	-48.4	-59.7	3.6	8.45e-01	0	31	104	0	60	34723
2026-01-08 18:02:04.08	19.32	0.51	-48.3	-59.6	3.6	8.45e-01	0	31	104	0	60	34526
2026-01-08 18:02:05.09	19.35	0.57	-48.2	-59.5	3.6	8.44e-01	0	31	104	0	60	34115
2026-01-08 18:02:06.10	19.39	0.63	-48.2	-59.4	3.6	8.46e-01	0	31	104	0	60	33814
2026-01-08 18:02:07.11	19.42	0.68	-48.0	-59.4	3.6	8.46e-01	0	31	104	0	60	33566
2026-01-08 18:02:08.12	19.46	0.74	-47.7	-59.1	3.6	8.45e-01	0	31	104	0	60	32480
2026-01-08 18:02:09.13	19.49	0.80	-47.7	-58.9	3.6	8.46e-01	0	31	104	0	60	31903
2026-01-08 18:02:10.14	19.53	0.86	-47.5	-58.7	3.6	8.47e-01	0	31	104	0	60	31077
2026-01-08 18:02:11.15	19.56	0.92	-47.2	-58.3	3.6	8.44e-01	0	31	104	0	60	29785
2026-01-08 18:02:12.16	19.60	0.98	-46.8	-58.0	3.6	8.45e-01	0	31	104	0	60	28802
2026-01-08 18:02:13.17	19.63	1.04	-46.8	-58.0	3.6	8.45e-01	0	31	104	0	60	28780
2026-01-08 18:02:14.18	19.67	1.10	-46.8	-58.0	3.6	8.46e-01	0	31	104	0	60	28834
2026-01-08 18:02:15.19	19.70	1.16	-46.8	-58.0	3.6	8.45e-01	0	31	104	0	60	28841
2026-01-08 18:02:16.20	19.74	1.22	-46.8	-58.0	3.6	8.45e-01	0	31	104	0	60	28603
2026-01-08 18:02:17.21	19.77	1.28	-46.8	-58.0	3.6	8.45e-01	0	31	104	0	60	28601
2026-01-08 18:02:18.21	19.81	1.34	-46.8	-57.9	3.6	8.45e-01	0	31	104	0	60	28422
2026-01-08 18:02:19.23	19.85	1.41	-46.8	-57.8	3.6	8.45e-01	0	31	104	0	60	28167
2026-01-08 18:02:20.23	19.88	1.47	-46.8	-57.9	3.6	8.44e-01	0	31	104	0	60	28221
2026-01-08 18:02:21.24	19.92	1.53	-46.8	-57.8	3.6	8.45e-01	0	31	104	0	60	28206
2026-01-08 18:02:22.25	19.95	1.59	-46.8	-57.8	3.6	8.45e-01	0	31	104	0	60	28067
2026-01-08 18:02:23.26	19.99	1.65	-46.8	-57.8	3.6	8.45e-01	0	31	104	0	60	28164
2026-01-08 18:02:24.27	20.03	1.71	-46.8	-57.9	3.6	8.43e-01	0	31	104	0	60	28516
2026-01-08 18:02:25.28	20.06	1.77	-46.8	-58.0	3.6	8.46e-01	0	31	104	0	60	28704
2026-01-08 18:02:26.29	20.10	1.83	-46.8	-58.0	3.6	8.45e-01	0	31	104	0	60	28554
2026-01-08 18:02:27.29	20.14	1.89	-46.8	-57.9	3.6	8.45e-01	0	31	104	0	60	28468
2026-01-08 18:02:28.30	20.17	1.96	-46.8	-58.0	3.6	8.46e-01	0	31	104	0	60	28589
2026-01-08 18:02:29.31	20.21	2.02	-46.8	-58.0	3.6	8.45e-01	0	31	104	0	60	28845
2026-01-08 18:02:30.32	20.25	2.08	-46.8	-58.0	3.6	8.44e-01	0	31	104	0	60	28777
2026-01-08 18:02:31.33	20.29	2.14	-46.8	-57.7	3.6	8.45e-01	0	31	104	0	60	27824
2026-01-08 18:02:32.34	20.32	2.20	-46.7	-56.9	3.6	8.45e-01	0	31	104	0	60	25345
2026-01-08 18:02:33.35	20.36	2.27	-46.6	-56.2	3.6	8.44e-01	0	31	104	0	60	23299
2026-01-08 18:02:34.36	20.40	2.33	-46.5	-55.5	3.7	8.44e-01	0	31	104	0	60	21653
2026-01-08 18:02:35.37	20.44	2.39	-46.5	-55.1	3.8	8.42e-01	0	31	104	0	60	20573
2026-01-08 18:02:36.38	20.48	2.46	-46.6	-55.9	3.7	8.44e-01	0	31	104	0	60	22461
2026-01-08 18:02:37.39	20.52	2.52	-46.7	-57.1	3.6	8.44e-01	0	31	104	0	60	25784
2026-01-08 18:02:38.40	20.55	2.58	-46.6	-56.7	3.6	8.44e-01	0	31	104	0	60	24585
2026-01-08 18:02:39.41	20.59	2.64	-46.1	-53.1	4.0	8.38e-01	0	31	104	0	60	16402
2026-01-08 18:02:40.42	20.63	2.71	-44.4	-47.7	9.0	4.20e-02	0	31	0	1048576	60	8731
2026-01-08 18:02:41.43	20.67	2.77	-42.5	-44.5	12.4	4.81e-04	0	31	0	8388608	58	6829
2026-01-08 18:02:42.44	20.71	2.84	-40.4	-41.8	15.3	0.00e+00	0	31	0	15728640	54	6297
2026-01-08 18:02:43.45	20.75	2.90	-38.6	-39.7	17.4	0.00e+00	0	31	0	23068672	52	5545
2026-01-08 18:02:44.46	20.79	2.96	-37.1	-38.0	19.2	0.00e+00	0	31	0	30408704	48	5704
2026-01-08 18:02:45.47	20.83	3.03	-35.9	-36.7	20.3	0.00e+00	0	31	0	37748736	46	5520
2026-01-08 18:02:46.48	20.87	3.09	-35.1	-35.8	21.2	0.00e+00	0	31	0	45088768	44	5615
2026-01-08 18:02:47.49	20.91	3.16	-34.7	-35.4	21.7	0.00e+00	0	31	0	52428800	42	6023
2026-01-08 18:02:48.50	20.95	3.22	-34.7	-35.5	21.5	0.00e+00	0	31	0	59768832	42	6051
2026-01-08 18:02:49.51	20.99	3.28	-35.1	-35.9	21.1	0.00e+00	0	31	0	67108864	42	6338
2026-01-08 18:02:50.52	21.03	3.35	-35.7	-36.5	20.4	0.00e+00	0	31	0	74448896	44	6097
2026-01-08 18:02:51.53	21.07	3.41	-36.6	-37.5	19.5	0.00e+00	0	31	0	81788928	44	6823
2026-01-08 18:02:52.54	21.11	3.48	-38.0	-39.0	17.7	0.00e+00	0	31	0	89128960	48	6425
2026-01-08 18:02:53.55	21.15	3.54	-39.8	-41.1	15.5	0.00e+00	0	31	0	96468992	50	7310
2026-01-08 18:02:54.56	21.19	3.61	-37.7	-38.6	19.2	0.00e+00	0	31	0	102760448	50	5462
2026-01-08 18:02:55.57	21.23	3.68	-39.5	-40.8	12.9	0.00e+00	0	31	0	110100480	46	8839
2026-01-08 18:02:56.57	21.27	3.74	-40.3	-41.6	15.0	1.00e-02	0	31	0	115343360	54	6124
2026-01-08 18:02:57.58	21.32	3.81	-40.4	-41.7	15.6	2.83e-03	0	31	0	122683392	56	5548
2026-01-08 18:02:58.59	21.36	3.87	-45.3	-49.9	4.8	4.77e-02	0	31	0	130023424	56	14144
2026-01-08 18:02:59.60	21.40	3.94	-43.2	-45.6	12.5	7.39e-01	0	31	104	130023424	60	6885
2026-01-08 18:03:00.61	21.44	4.00	-38.4	-39.4	17.8	0.00e+00	0	31	0	136314880	50	5983
2026-01-08 18:03:01.62	21.48	4.07	-38.5	-39.5	18.2	0.00e+00	0	31	0	143654912	50	6077
2026-01-08 18:03:02.63	21.53	4.14	-38.1	-39.1	18.8	0.00e+00	0	31	0	150994944	48	6474
2026-01-08 18:03:03.64	21.57	4.20	-37.7	-38.6	18.8	0.00e+00	0	31	0	158334976	48	6161
2026-01-08 18:03:04.65	21.61	4.27	-37.5	-38.4	18.9	0.00e+00	0	31	0	164626432	48	6005
2026-01-08 18:03:05.66	21.65	4.34	-36.4	-37.3	20.1	0.00e+00	0	31	0	171966464	46	5899
2026-01-08 18:03:06.67	21.70	4.40	-35.5	-36.3	21.0	0.00e+00	0	31	0	180355072	44	5929
2026-01-08 18:03:07.68	21.74	4.47	-35.0	-35.7	21.4	0.00e+00	0	31	0	186646528	44	5538
2026-01-08 18:03:08.69	21.78	4.54	-34.5	-35.2	22.1	0.00e+00	0	31	0	193986560	42	5833
2026-01-08 18:03:09.70	21.83	4.61	-34.2	-34.9	22.3	0.00e+00	0	31	0	201326592	42	5651
2026-01-08 18:03:10.71	21.87	4.67	-34.0	-34.7	22.5	0.00e+00	0	31	0	208666624	42	5561
2026-01-08 18:03:11.72	21.91	4.74	-34.0	-34.7	22.6	0.00e+00	0	31	0	216006656	40	6189
2026-01-08 18:03:12.73	21.96	4.81	-33.7	-34.4	22.8	0.00e+00	0	31	0	223346688	40	5987
2026-01-08 18:03:13.74	22.00	4.88	-33.6	-34.3	22.9	0.00e+00	0	31	0	230686720	40	5937
2026-01-08 18:03:14.75	22.05	4.95	-33.6	-34.3	22.9	0.00e+00	0	31	0	238026752	40	5926
2026-01-08 18:03:15.76	22.09	5.02	-33.5	-34.2	23.1	0.00e+00	0	31	0	245366784	40	5835
2026-01-08 18:03:16.77	22.14	5.09	-33.3	-34.0	23.2	0.00e+00	0	32	0	252706816	40	5731
2026-01-08 18:03:17.78	22.18	5.15	-33.4	-34.1	23.1	0.00e+00	0	31	0	260046848	40	5766
2026-01-08 18:03:18.79	22.23	5.22	-33.4	-34.1	23.1	0.00e+00	0	31	0	267386880	40	5791
2026-01-08 18:03:19.80	22.27	5.29	-33.5	-34.2	23.1	0.00e+00	0	31	0	274726912	40	5842
2026-01-08 18:03:20.81	22.32	5.36	-33.4	-34.1	23.2	0.00e+00	0	31	0	282066944	40	5803
2026-01-08 18:03:21.82	22.36	5.43	-33.7	-34.4	22.9	0.00e+00	0	32	0	289406976	40	5984
2026-01-08 18:03:22.83	22.41	5.50	-33.6	-34.3	23.1	0.00e+00	0	31	0	296747008	40	5905
2026-01-08 18:03:23.83	22.46	5.57	-33.4	-34.1	23.3	0.00e+00	0	32	0	304087040	40	5788
2026-01-08 18:03:24.84	22.50	5.64	-33.4	-34.0	23.4	0.00e+00	0	32	0	311427072	40	5755
2026-01-08 18:03:25.85	22.55	5.71	-33.2	-33.9	23.3	0.00e+00	0	31	0	317718528	40	5653
2026-01-08 18:03:26.86	22.60	5.78	-33.4	-34.1	23.2	0.00e+00	0	32	0	325058560	40	5812
2026-01-08 18:03:27.87	22.64	5.85	-33.3	-33.9	23.4	0.00e+00	0	32	0	332398592	40	5671
2026-01-08 18:03:28.88	22.69	5.92	-33.2	-33.9	23.4	0.00e+00	0	32	0	339738624	40	5664
2026-01-08 18:03:29.89	22.74	5.99	-33.3	-34.0	23.4	0.00e+00	0	32	0	347078656	40	5702
2026-01-08 18:03:30.90	22.78	6.07	-33.2	-33.9	23.4	0.00e+00	0	32	0	354418688	40	5665
2026-01-08 18:03:31.91	22.83	6.14	-32.9	-33.6	23.7	0.00e+00	0	32	0	361758720	40	5452
2026-01-08 18:03:32.92	22.88	6.21	-33.2	-33.8	23.5	0.00e+00	0	32	0	369098752	40	5615
2026-01-08 18:03:33.93	22.93	6.28	-33.1	-33.8	23.6	0.00e+00	0	32	0	376438784	40	5578
2026-01-08 18:03:34.93	22.98	6.35	-33.2	-33.8	23.5	0.00e+00	0	32	0	383778816	40	5626
2026-01-08 18:03:35.94	23.03	6.42	-33.2	-33.8	23.4	0.00e+00	0	32	0	391118848	40	5627
2026-01-08 18:03:36.96	23.07	6.50	-33.2	-33.9	23.5	0.00e+00	0	32	0	398458880	40	5643
2026-01-08 18:03:37.96	23.12	6.57	-33.1	-33.8	23.7	0.00e+00	0	32	0	405798912	38	6280
2026-01-08 18:03:38.97	23.17	6.64	-33.1	-33.8	23.6	0.00e+00	0	32	0	413138944	38	6272
2026-01-08 18:03:39.98	23.22	6.71	-33.1	-33.7	23.7	0.00e+00	0	32	0	420478976	38	6229
2026-01-08 18:03:40.99	23.27	6.79	-33.0	-33.7	23.7	0.00e+00	0	32	0	427819008	38	6199
2026-01-08 18:03:42.00	23.32	6.86	-33.0	-33.6	23.7	0.00e+00	0	32	0	435159040	38	6142
2026-01-08 18:03:43.01	23.37	6.93	-33.1	-33.8	23.7	0.00e+00	0	32	0	441450496	38	6258
2026-01-08 18:03:44.02	23.42	7.01	-33.1	-33.8	23.6	0.00e+00	0	32	0	449839104	38	6255
2026-01-08 18:03:45.03	23.47	7.08	-33.2	-33.8	23.7	0.00e+00	0	32	0	457179136	38	6303
2026-01-08 18:03:46.04	23.52	7.15	-33.1	-33.8	23.7	0.00e+00	0	32	0	463470592	38	6267
2026-01-08 18:03:47.05	23.58	7.23	-33.1	-33.8	23.7	0.00e+00	0	32	0	470810624	38	6259
2026-01-08 18:03:48.06	23.63	7.30	-33.2	-33.8	23.8	0.00e+00	0	32	0	478150656	38	6313
2026-01-08 18:03:49.07	23.68	7.38	-33.2	-33.8	23.6	0.00e+00	0	32	0	485490688	38	6309
2026-01-08 18:03:50.07	23.73	7.45	-33.0	-33.6	23.8	0.00e+00	0	32	0	492830720	38	6153
2026-01-08 18:03:51.09	23.78	7.53	-33.2	-33.9	23.6	0.00e+00	0	32	0	500170752	38	6348
2026-01-08 18:03:52.10	23.84	7.60	-32.9	-33.5	24.0	0.00e+00	0	32	0	507510784	38	6062
2026-01-08 18:03:53.11	23.89	7.68	-32.6	-33.3	24.2	0.00e+00	0	32	0	514850816	38	5916
2026-01-08 18:03:54.11	23.94	7.75	-32.8	-33.5	24.0	0.00e+00	0	32	0	522190848	38	6064
2026-01-08 18:03:55.12	23.99	7.83	-32.8	-33.5	23.9	0.00e+00	0	32	0	529530880	38	6061
2026-01-08 18:03:56.13	24.05	7.91	-32.8	-33.5	24.0	0.00e+00	0	32	0	536870912	38	6057
2026-01-08 18:03:57.14	24.10	7.98	-32.8	-33.5	24.1	0.00e+00	0	32	0	544210944	38	6045
2026-01-08 18:03:58.15	24.15	8.06	-32.9	-33.5	24.0	0.00e+00	0	32	0	551550976	38	6067
2026-01-08 18:03:59.16	24.21	8.13	-32.9	-33.5	23.9	0.00e+00	0	32	0	558891008	38	6079
2026-01-08 18:04:00.17	24.26	8.21	-33.0	-33.6	23.9	0.00e+00	0	32	0	566231040	38	6165
2026-01-08 18:04:01.18	24.32	8.29	-32.8	-33.5	24.0	0.00e+00	0	32	0	573571072	38	6034
2026-01-08 18:04:02.19	24.37	8.37	-32.8	-33.5	24.2	0.00e+00	0	32	0	580911104	38	6071
2026-01-08 18:04:03.20	24.43	8.44	-32.6	-33.3	24.3	0.00e+00	0	32	0	588251136	38	5920
2026-01-08 18:04:04.21	24.48	8.52	-32.7	-33.4	24.2	0.00e+00	0	32	0	594542592	38	5980
2026-01-08 18:04:05.22	24.54	8.60	-32.8	-33.5	24.1	0.00e+00	0	32	0	601882624	38	6037
2026-01-08 18:04:06.23	24.60	8.68	-32.7	-33.4	24.2	0.00e+00	0	32	0	610271232	38	5979
2026-01-08 18:04:07.24	24.65	8.76	-32.5	-33.2	24.5	0.00e+00	0	32	0	616562688	38	5837
2026-01-08 18:04:08.25	24.71	8.83	-32.6	-33.3	24.4	0.00e+00	0	32	0	623902720	38	5898
2026-01-08 18:04:09.25	24.76	8.91	-32.4	-33.1	24.4	0.00e+00	0	32	0	631242752	38	5787
2026-01-08 18:04:10.26	24.82	8.99	-32.5	-33.2	24.4	0.00e+00	0	32	0	638582784	38	5857
2026-01-08 18:04:11.27	24.88	9.07	-32.6	-33.2	24.4	0.00e+00	0	32	0	645922816	38	5894
2026-01-08 18:04:12.28	24.94	9.15	-32.5	-33.2	24.4	0.00e+00	0	32	0	653262848	38	5851
2026-01-08 18:04:13.29	24.99	9.23	-32.6	-33.2	24.4	0.00e+00	0	32	0	660602880	38	5881
2026-01-08 18:04:14.29	25.05	9.31	-32.5	-33.1	24.4	0.00e+00	0	32	0	667942912	38	5797
2026-01-08 18:04:15.31	25.11	9.39	-32.4	-33.0	24.6	0.00e+00	0	32	0	675282944	38	5753
2026-01-08 18:04:16.32	25.17	9.47	-32.4	-33.1	24.5	0.00e+00	0	32	0	682622976	38	5769
2026-01-08 18:04:17.33	25.23	9.55	-32.4	-33.0	24.6	0.00e+00	0	32	0	689963008	38	5747
2026-01-08 18:04:18.34	25.29	9.63	-32.5	-33.2	24.5	0.00e+00	0	32	0	697303040	38	5861
2026-01-08 18:04:19.35	25.35	9.71	-32.4	-33.0	24.6	0.00e+00	0	32	0	704643072	38	5731
2026-01-08 18:04:20.36	25.41	9.80	-32.2	-32.9	24.6	0.00e+00	0	32	0	711983104	38	5647
2026-01-08 18:04:21.37	25.47	9.88	-32.3	-33.0	24.6	0.00e+00	0	32	0	718274560	38	5699
2026-01-08 18:04:22.38	25.53	9.96	-32.4	-33.0	24.6	0.00e+00	0	32	0	726663168	38	5730
2026-01-08 18:04:23.38	25.59	10.04	-32.2	-32.9	24.7	0.00e+00	0	32	0	734003200	38	5654
2026-01-08 18:04:24.39	25.65	10.12	-32.4	-33.1	24.5	0.00e+00	0	32	0	740294656	38	5768
2026-01-08 18:04:25.40	25.71	10.21	-32.3	-33.0	24.6	0.00e+00	0	32	0	747634688	38	5700
2026-01-08 18:04:26.41	25.78	10.29	-32.2	-32.8	24.8	0.00e+00	0	32	0	754974720	38	5598
2026-01-08 18:04:27.42	25.84	10.37	-32.2	-32.8	24.8	0.00e+00	0	32	0	762314752	38	5604
2026-01-08 18:04:28.43	25.90	10.46	-32.3	-33.0	24.8	0.00e+00	0	32	0	769654784	38	5707
2026-01-08 18:04:29.44	25.96	10.54	-32.1	-32.8	24.8	0.00e+00	0	32	0	776994816	38	5576
2026-01-08 18:04:30.45	26.03	10.62	-32.2	-32.8	24.8	0.00e+00	0	32	0	784334848	36	6287
2026-01-08 18:04:31.46	26.09	10.71	-32.2	-32.8	24.8	0.00e+00	0	32	0	791674880	36	6280
2026-01-08 18:04:32.47	26.16	10.79	-32.1	-32.7	24.9	0.00e+00	0	32	0	799014912	36	6206
2026-01-08 18:04:33.48	26.22	10.88	-32.0	-32.6	24.9	0.00e+00	0	32	0	806354944	36	6155
2026-01-08 18:04:34.48	26.28	10.96	-31.8	-32.4	25.1	0.00e+00	0	32	0	813694976	36	6029
2026-01-08 18:04:35.49	26.35	11.05	-31.8	-32.4	25.2	0.00e+00	0	32	0	821035008	36	6031
2026-01-08 18:04:36.50	26.41	11.13	-31.9	-32.5	25.1	0.00e+00	0	32	0	828375040	36	6075
2026-01-08 18:04:37.51	26.48	11.22	-31.7	-32.3	25.2	0.00e+00	0	32	0	835715072	36	5962
2026-01-08 18:04:38.51	26.55	11.30	-31.7	-32.3	25.3	0.00e+00	0	32	0	843055104	36	5962
2026-01-08 18:04:39.52	26.61	11.39	-31.5	-32.1	25.3	0.00e+00	0	32	0	850395136	36	5823
2026-01-08 18:04:40.53	26.68	11.48	-31.7	-32.3	25.3	0.00e+00	0	32	0	857735168	36	5939
2026-01-08 18:04:41.54	26.75	11.56	-31.6	-32.2	25.3	0.00e+00	0	32	0	865075200	36	5893
2026-01-08 18:04:42.55	26.81	11.65	-31.6	-32.2	25.4	0.00e+00	0	32	0	871366656	36	5877
2026-01-08 18:04:43.56	26.88	11.74	-31.4	-32.0	25.5	0.00e+00	0	32	0	878706688	36	5752
2026-01-08 18:04:44.57	26.95	11.83	-31.3	-32.0	25.5	0.00e+00	0	32	0	886046720	36	5698
2026-01-08 18:04:45.58	27.02	11.92	-31.1	-31.7	25.8	0.00e+00	0	32	0	893386752	36	5515
2026-01-08 18:04:46.59	27.09	12.00	-31.4	-32.1	25.5	0.00e+00	0	32	0	900726784	36	5765
2026-01-08 18:04:47.59	27.16	12.09	-31.4	-32.0	25.6	0.00e+00	0	32	0	908066816	36	5708
2026-01-08 18:04:48.60	27.23	12.18	-31.3	-31.9	25.7	0.00e+00	0	32	0	915406848	36	5639
2026-01-08 18:04:49.61	27.30	12.27	-31.3	-31.9	25.6	0.00e+00	0	32	0	922746880	36	5665
2026-01-08 18:04:50.62	27.37	12.36	-30.9	-31.5	26.0	0.00e+00	0	32	0	930086912	36	5415
2026-01-08 18:04:51.63	27.44	12.45	-31.3	-31.9	25.6	0.00e+00	0	32	0	937426944	36	5652
2026-01-08 18:04:52.64	27.51	12.54	-31.3	-31.9	25.7	0.00e+00	0	32	0	944766976	36	5662
2026-01-08 18:04:53.65	27.58	12.63	-31.3	-31.9	25.6	0.00e+00	0	32	0	952107008	36	5694
2026-01-08 18:04:54.65	27.65	12.72	-31.3	-31.9	25.7	0.00e+00	0	32	0	959447040	36	5670
2026-01-08 18:04:55.66	27.73	12.81	-31.2	-31.8	25.9	0.00e+00	0	32	0	966787072	36	5614
2026-01-08 18:04:56.67	27.80	12.90	-31.5	-32.1	25.6	0.00e+00	0	32	0	974127104	36	5795
2026-01-08 18:04:57.68	27.87	12.99	-31.4	-32.0	25.5	0.00e+00	0	32	0	981467136	36	5758
2026-01-08 18:04:58.69	27.95	13.09	-31.2	-31.8	25.8	0.00e+00	0	32	0	988807168	36	5604
2026-01-08 18:04:59.70	28.02	13.18	-31.2	-31.8	25.7	0.00e+00	0	32	0	995098624	36	5592
2026-01-08 18:05:00.71	28.10	13.27	-31.2	-31.8	25.8	0.00e+00	0	32	0	1002438656	36	5581
2026-01-08 18:05:01.72	28.17	13.36	-31.2	-31.8	25.8	0.00e+00	0	32	0	1010827264	36	5622
2026-01-08 18:05:02.73	28.25	13.46	-31.2	-31.8	25.8	0.00e+00	0	32	0	1017118720	36	5585
2026-01-08 18:05:03.74	28.32	13.55	-31.2	-31.8	25.8	0.00e+00	0	32	0	1024458752	36	5618
2026-01-08 18:05:04.75	28.40	13.64	-31.1	-31.8	25.9	0.00e+00	0	32	0	1031798784	36	5567
2026-01-08 18:05:05.76	28.48	13.74	-31.0	-31.6	26.0	0.00e+00	0	32	0	1039138816	36	5502
2026-01-08 18:05:06.77	28.56	13.83	-31.1	-31.7	26.0	0.00e+00	0	32	0	1046478848	36	5520
2026-01-08 18:05:07.78	28.63	13.93	-31.1	-31.7	25.9	0.00e+00	0	32	0	1053818880	36	5536
2026-01-08 18:05:08.79	28.71	14.02	-31.2	-31.8	25.8	0.00e+00	0	32	0	1061158912	36	5591
2026-01-08 18:05:09.80	28.79	14.12	-31.3	-31.9	25.7	0.00e+00	0	32	0	1068498944	36	5643
2026-01-08 18:05:10.81	28.87	14.21	-31.3	-32.0	25.6	0.00e+00	0	32	0	1075838976	36	5698
2026-01-08 18:05:11.82	28.95	14.31	-31.0	-31.6	25.6	0.00e+00	0	32	0	1083179008	36	5480
2026-01-08 18:05:12.83	29.03	14.41	-31.3	-31.9	25.8	0.00e+00	0	32	0	1090519040	36	5678
2026-01-08 18:05:13.83	29.11	14.50	-31.2	-31.8	25.8	0.00e+00	0	32	0	1097859072	36	5584
2026-01-08 18:05:14.84	29.19	14.60	-31.2	-31.8	25.9	0.00e+00	0	32	0	1105199104	36	5580
2026-01-08 18:05:15.85	29.27	14.70	-31.2	-31.8	25.8	0.00e+00	0	32	0	1112539136	36	5620
2026-01-08 18:05:16.85	29.36	14.79	-30.9	-31.6	25.7	0.00e+00	0	32	0	1119879168	36	5446
2026-01-08 18:05:17.86	29.44	14.89	-31.0	-31.6	26.1	0.00e+00	0	32	0	1126170624	36	5462
2026-01-08 18:05:18.87	29.52	14.99	-31.1	-31.7	26.0	0.00e+00	0	32	0	1134559232	36	5514
2026-01-08 18:05:19.88	29.61	15.09	-30.9	-31.5	26.1	0.00e+00	0	32	0	1141899264	36	5412
2026-01-08 18:05:20.89	29.69	15.19	-30.8	-31.4	26.0	0.00e+00	0	32	0	1148190720	34	6006
2026-01-08 18:05:21.90	29.78	15.29	-30.7	-31.3	26.2	0.00e+00	0	32	0	1155530752	34	5956
2026-01-08 18:05:22.91	29.86	15.39	-30.6	-31.2	26.3	0.00e+00	0	32	0	1162870784	34	5889
2026-01-08 18:05:23.92	29.95	15.49	-30.6	-31.2	26.3	0.00e+00	0	32	0	1170210816	34	5865
2026-01-08 18:05:24.93	30.04	15.59	-30.7	-31.3	26.3	0.00e+00	0	32	0	1177550848	34	5937
2026-01-08 18:05:25.94	30.12	15.69	-30.4	-31.0	26.5	0.00e+00	0	32	0	1184890880	34	5746
2026-01-08 18:05:26.95	30.21	15.79	-30.5	-31.1	26.5	0.00e+00	0	32	0	1192230912	34	5797
2026-01-08 18:05:27.96	30.30	15.89	-30.4	-31.0	26.6	0.00e+00	0	32	0	1199570944	34	5709
2026-01-08 18:05:28.97	30.39	15.99	-30.4	-31.0	26.5	0.00e+00	0	32	0	1206910976	34	5704
2026-01-08 18:05:29.98	30.48	16.10	-30.6	-31.2	26.3	0.00e+00	0	32	0	1214251008	34	5879
2026-01-08 18:05:30.99	30.57	16.20	-30.4	-31.0	26.5	0.00e+00	0	32	0	1221591040	34	5738
2026-01-08 18:05:32.00	30.66	16.30	-30.3	-30.9	26.7	0.00e+00	0	32	0	1228931072	34	5673
2026-01-08 18:05:33.01	30.75	16.41	-30.3	-30.9	26.5	0.00e+00	0	32	0	1236271104	34	5677
2026-01-08 18:05:34.02	30.84	16.51	-30.4	-31.0	26.5	0.00e+00	0	32	0	1243611136	34	5759
2026-01-08 18:05:35.02	30.93	16.61	-30.1	-30.7	26.8	0.00e+00	0	32	0	1250951168	34	5541
2026-01-08 18:05:36.03	31.03	16.72	-30.1	-30.7	26.8	0.00e+00	0	32	0	1258291200	34	5527
2026-01-08 18:05:37.04	31.12	16.82	-30.1	-30.7	26.7	0.00e+00	0	32	0	1265631232	34	5517
2026-01-08 18:05:38.05	31.21	16.93	-29.8	-30.4	26.7	0.00e+00	0	32	0	1271922688	34	5322
2026-01-08 18:05:39.06	31.31	17.03	-30.0	-30.6	26.9	0.00e+00	0	32	0	1279262720	34	5499
2026-01-08 18:05:40.07	31.41	17.14	-30.1	-30.7	26.8	0.00e+00	0	32	0	1287651328	34	5540
2026-01-08 18:05:41.08	31.50	17.25	-30.1	-30.7	26.9	0.00e+00	0	32	0	1293942784	34	5525
2026-01-08 18:05:42.09	31.60	17.35	-30.0	-30.6	26.9	0.00e+00	0	32	0	1301282816	34	5471
2026-01-08 18:05:43.10	31.70	17.46	-29.5	-30.1	27.2	0.00e+00	0	32	0	1308622848	32	5795
2026-01-08 18:05:44.11	31.79	17.57	-29.9	-30.5	26.9	0.00e+00	0	32	0	1315962880	32	6088
2026-01-08 18:05:45.12	31.89	17.68	-29.9	-30.5	27.0	0.00e+00	0	32	0	1323302912	32	6042
2026-01-08 18:05:46.13	31.99	17.79	-29.9	-30.5	27.0	0.00e+00	0	32	0	1330642944	32	6065
2026-01-08 18:05:47.14	32.09	17.90	-29.9	-30.5	27.0	0.00e+00	0	32	0	1337982976	32	6058
2026-01-08 18:05:48.14	32.19	18.00	-29.9	-30.5	27.1	0.00e+00	0	32	0	1345323008	32	6058
2026-01-08 18:05:49.16	32.30	18.11	-29.8	-30.4	27.1	0.00e+00	0	32	0	1352663040	32	6019
2026-01-08 18:05:50.17	32.40	18.22	-29.7	-30.3	27.2	0.00e+00	0	32	0	1360003072	32	5949
2026-01-08 18:05:51.17	32.50	18.33	-29.8	-30.4	27.1	0.00e+00	0	32	0	1367343104	32	5988
2026-01-08 18:05:52.18	32.60	18.45	-29.7	-30.3	27.2	0.00e+00	0	32	0	1374683136	32	5919
2026-01-08 18:05:53.19	32.71	18.56	-29.7	-30.2	27.2	0.00e+00	0	32	0	1382023168	32	5895
2026-01-08 18:05:54.20	32.81	18.67	-29.6	-30.2	27.3	0.00e+00	0	32	0	1389363200	32	5866
2026-01-08 18:05:55.21	32.92	18.78	-29.7	-30.3	27.2	0.00e+00	0	32	0	1396703232	32	5901
2026-01-08 18:05:56.22	33.03	18.89	-29.7	-30.2	27.2	0.00e+00	0	32	0	1402994688	32	5894
2026-01-08 18:05:57.23	33.13	19.01	-29.7	-30.2	27.3	0.00e+00	0	32	0	1411383296	32	5896
2026-01-08 18:05:58.24	33.24	19.12	-29.6	-30.2	27.3	0.00e+00	0	32	0	1418723328	32	5854
2026-01-08 18:05:59.25	33.35	19.23	-29.6	-30.2	27.3	0.00e+00	0	32	0	1425014784	32	5830
2026-01-08 18:06:00.26	33.46	19.35	-29.5	-30.1	27.3	0.00e+00	0	32	0	1432354816	32	5788
2026-01-08 18:06:01.27	33.57	19.46	-29.4	-30.0	27.4	0.00e+00	0	32	0	1439694848	32	5743
2026-01-08 18:06:02.28	33.68	19.58	-29.5	-30.0	27.3	0.00e+00	0	32	0	1447034880	32	5755
2026-01-08 18:06:03.29	33.80	19.70	-29.3	-29.9	27.4	0.00e+00	0	32	0	1454374912	32	5687
2026-01-08 18:06:04.29	33.91	19.81	-29.5	-30.0	27.6	0.00e+00	0	32	0	1461714944	32	5749
2026-01-08 18:06:05.30	34.02	19.93	-29.3	-29.9	27.5	0.00e+00	0	32	0	1469054976	32	5657
2026-01-08 18:06:06.32	34.14	20.05	-29.3	-29.9	27.5	0.00e+00	0	32	0	1476395008	32	5643
2026-01-08 18:06:07.33	34.25	20.16	-29.3	-29.9	27.4	0.00e+00	0	32	0	1483735040	32	5676
2026-01-08 18:06:08.34	34.37	20.28	-29.3	-29.9	27.5	0.00e+00	0	32	0	1491075072	32	5659
2026-01-08 18:06:09.34	34.49	20.40	-29.4	-30.0	27.3	0.00e+00	0	32	0	1498415104	32	5743
2026-01-08 18:06:10.35	34.61	20.52	-29.5	-30.1	27.3	0.00e+00	0	32	0	1505755136	32	5804
2026-01-08 18:06:11.37	34.73	20.64	-29.5	-30.1	27.3	0.00e+00	0	32	0	1513095168	32	5763
2026-01-08 18:06:12.37	34.84	20.76	-29.6	-30.2	27.3	0.00e+00	0	32	0	1520435200	32	5832
2026-01-08 18:06:13.38	34.97	20.88	-29.7	-30.3	27.2	0.00e+00	0	32	0	1527775232	32	5923
2026-01-08 18:06:14.39	35.09	21.00	-29.7	-30.2	27.0	0.00e+00	0	32	0	1535115264	32	5894
2026-01-08 18:06:15.40	35.21	21.12	-29.9	-30.4	27.0	0.00e+00	0	32	0	1542455296	32	6027
2026-01-08 18:06:16.41	35.33	21.24	-29.9	-30.4	27.2	0.00e+00	0	32	0	1549795328	32	6030
2026-01-08 18:06:17.42	35.46	21.36	-29.5	-30.0	27.4	0.00e+00	0	32	0	1556086784	32	5759
2026-01-08 18:06:18.43	35.58	21.48	-29.5	-30.1	27.4	0.00e+00	0	32	0	1564475392	32	5774
2026-01-08 18:06:19.44	35.71	21.61	-29.5	-30.1	27.4	0.00e+00	0	32	0	1571815424	32	5778
2026-01-08 18:06:20.45	35.84	21.73	-29.5	-30.1	27.4	0.00e+00	0	32	0	1578106880	32	5762
2026-01-08 18:06:21.46	35.97	21.86	-29.4	-30.0	27.5	0.00e+00	0	32	0	1585446912	32	5705
2026-01-08 18:06:22.47	36.10	21.98	-29.6	-30.2	27.3	0.00e+00	0	32	0	1592786944	32	5867
2026-01-08 18:06:23.48	36.23	22.10	-29.3	-29.9	27.5	0.00e+00	0	32	0	1600126976	32	5652
2026-01-08 18:06:24.48	36.36	22.23	-29.2	-29.8	27.5	0.00e+00	0	32	0	1607467008	32	5601
2026-01-08 18:06:25.49	36.49	22.35	-29.2	-29.8	27.6	0.00e+00	0	32	0	1614807040	32	5590
2026-01-08 18:06:26.50	36.62	22.48	-29.2	-29.8	27.6	0.00e+00	0	32	0	1622147072	32	5590
2026-01-08 18:06:27.51	36.76	22.61	-29.2	-29.8	27.6	0.00e+00	0	32	0	1629487104	32	5576
2026-01-08 18:06:28.52	36.89	22.73	-29.2	-29.8	27.7	0.00e+00	0	32	0	1636827136	32	5594
2026-01-08 18:06:29.53	37.03	22.86	-29.1	-29.7	27.6	0.00e+00	0	32	0	1644167168	32	5547
2026-01-08 18:06:30.54	37.17	22.99	-29.1	-29.7	27.7	0.00e+00	0	32	0	1651507200	32	5558
2026-01-08 18:06:31.55	37.31	23.12	-29.1	-29.7	27.7	0.00e+00	0	32	0	1658847232	32	5535
2026-01-08 18:06:32.56	37.45	23.25	-29.0	-29.6	27.7	0.00e+00	0	32	0	1666187264	32	5480
2026-01-08 18:06:33.57	37.59	23.38	-29.1	-29.6	27.6	0.00e+00	0	32	0	1673527296	32	5487
2026-01-08 18:06:34.58	37.73	23.51	-29.2	-29.7	27.7	0.00e+00	0	32	0	1680867328	32	5565
2026-01-08 18:06:35.59	37.87	23.64	-28.8	-29.4	28.0	0.00e+00	0	32	0	1688207360	32	5332
2026-01-08 18:06:36.60	38.02	23.77	-29.0	-29.6	27.7	0.00e+00	0	32	0	1695547392	32	5468
2026-01-08 18:06:37.61	38.16	23.90	-29.2	-29.8	27.6	0.00e+00	0	32	0	1701838848	32	5591
2026-01-08 18:06:38.62	38.31	24.03	-29.1	-29.6	27.7	0.00e+00	0	32	0	1710227456	32	5494
2026-01-08 18:06:39.63	38.46	24.17	-29.1	-29.7	27.8	0.00e+00	0	32	0	1717567488	32	5536
2026-01-08 18:06:40.64	38.61	24.30	-29.2	-29.8	27.7	0.00e+00	0	32	0	1723858944	32	5608
2026-01-08 18:06:41.65	38.76	24.43	-29.3	-29.8	27.7	0.00e+00	0	32	0	1731198976	32	5621
2026-01-08 18:06:42.66	38.91	24.57	-29.2	-29.8	27.6	0.00e+00	0	32	0	1738539008	32	5620
2026-01-08 18:06:43.67	39.06	24.70	-29.3	-29.9	27.6	0.00e+00	0	32	0	1745879040	32	5680
2026-01-08 18:06:44.68	39.22	24.84	-29.1	-29.7	27.7	0.00e+00	0	32	0	1753219072	32	5536
2026-01-08 18:06:45.69	39.38	24.97	-29.2	-29.8	27.7	0.00e+00	0	32	0	1760559104	32	5580
2026-01-08 18:06:46.70	39.53	25.11	-29.2	-29.8	27.7	0.00e+00	0	32	0	1767899136	32	5573
2026-01-08 18:06:47.71	39.69	25.24	-29.2	-29.8	27.6	0.00e+00	0	32	0	1775239168	32	5611
2026-01-08 18:06:48.72	39.85	25.38	-29.2	-29.8	27.7	0.00e+00	0	32	0	1782579200	32	5575
2026-01-08 18:06:49.73	40.01	25.52	-29.3	-29.9	27.7	0.00e+00	0	32	0	1789919232	32	5640
2026-01-08 18:06:50.74	40.17	25.66	-29.2	-29.8	27.6	0.00e+00	0	32	0	1797259264	32	5616
2026-01-08 18:06:51.75	40.34	25.80	-29.3	-29.9	27.5	0.00e+00	0	32	0	1804599296	32	5662
2026-01-08 18:06:52.76	40.50	25.93	-29.1	-29.6	27.8	0.00e+00	0	32	0	1811939328	32	5498
2026-01-08 18:06:53.77	40.67	26.07	-29.1	-29.6	27.8	0.00e+00	0	32	0	1819279360	32	5493
2026-01-08 18:06:54.77	40.84	26.21	-28.9	-29.5	27.9	0.00e+00	0	32	0	1826619392	32	5411
2026-01-08 18:06:55.78	41.01	26.35	-28.8	-29.4	28.0	0.00e+00	0	32	0	1833959424	32	5359
2026-01-08 18:06:56.79	41.18	26.49	-28.8	-29.4	27.9	0.00e+00	0	32	0	1841299456	30	5997
2026-01-08 18:06:57.80	41.35	26.63	-28.9	-29.5	27.8	0.00e+00	0	32	0	1848639488	30	6054
2026-01-08 18:06:58.81	41.52	26.78	-28.7	-29.3	28.1	0.00e+00	0	32	0	1854930944	30	5940
2026-01-08 18:06:59.82	41.70	26.92	-28.7	-29.3	28.1	0.00e+00	0	32	0	1863319552	30	5907
2026-01-08 18:07:00.83	41.88	27.06	-28.5	-29.1	28.3	0.00e+00	0	32	0	1870659584	30	5782
2026-01-08 18:07:01.84	42.05	27.20	-28.3	-28.9	28.4	0.00e+00	0	32	0	1876951040	30	5632
2026-01-08 18:07:02.85	42.23	27.35	-28.2	-28.8	28.4	0.00e+00	0	32	0	1884291072	30	5580
2026-01-08 18:07:03.86	42.42	27.49	-28.3	-28.9	28.3	0.00e+00	0	32	0	1891631104	30	5666
2026-01-08 18:07:04.87	42.60	27.64	-28.3	-28.8	28.4	0.00e+00	0	32	0	1898971136	30	5630
2026-01-08 18:07:05.87	42.78	27.78	-28.3	-28.9	28.4	0.00e+00	0	32	0	1906311168	30	5665
2026-01-08 18:07:06.88	42.97	27.93	-28.3	-28.8	28.4	0.00e+00	0	32	0	1913651200	30	5612
2026-01-08 18:07:07.89	43.16	28.07	-28.3	-28.9	28.4	0.00e+00	0	32	0	1920991232	30	5669
2026-01-08 18:07:08.90	43.35	28.22	-28.3	-28.9	28.3	0.00e+00	0	32	0	1928331264	30	5675
2026-01-08 18:07:09.91	43.54	28.37	-28.4	-29.0	28.3	0.00e+00	0	32	0	1935671296	30	5716
2026-01-08 18:07:10.92	43.73	28.51	-28.4	-29.0	28.2	0.00e+00	0	32	0	1943011328	30	5740
2026-01-08 18:07:11.93	43.93	28.66	-28.4	-29.0	28.2	0.00e+00	0	32	0	1950351360	30	5738
2026-01-08 18:07:12.94	44.12	28.81	-28.6	-29.2	28.1	0.00e+00	0	32	0	1957691392	30	5859
2026-01-08 18:07:13.95	44.32	28.96	-28.6	-29.2	28.2	0.00e+00	0	32	0	1965031424	30	5860
2026-01-08 18:07:14.96	44.52	29.11	-28.7	-29.2	28.0	0.00e+00	0	32	0	1972371456	30	5887
2026-01-08 18:07:15.97	44.73	29.26	-28.7	-29.3	28.0	0.00e+00	0	32	0	1978662912	30	5951
2026-01-08 18:07:16.98	44.93	29.41	-28.9	-29.5	28.0	0.00e+00	0	32	0	1987051520	30	6052
2026-01-08 18:07:17.98	45.13	29.55	-28.7	-29.2	27.9	0.00e+00	0	32	0	1994391552	30	5895
2026-01-08 18:07:19.00	45.34	29.71	-28.8	-29.4	28.0	0.00e+00	0	32	0	2000683008	30	5966
2026-01-08 18:07:20.00	45.55	29.86	-28.8	-29.4	28.0	0.00e+00	0	32	0	2008023040	30	5988
2026-01-08 18:07:21.01	45.76	30.01	-29.0	-29.6	28.0	0.00e+00	0	33	0	2015363072	30	6134
2026-01-08 18:07:22.02	45.98	30.16	-28.9	-29.5	27.8	0.00e+00	0	33	0	2022703104	30	6068
2026-01-08 18:07:23.02	46.19	30.31	-29.0	-29.5	27.8	0.00e+00	0	32	0	2030043136	30	6098
2026-01-08 18:07:24.03	46.41	30.46	-29.1	-29.7	27.8	0.00e+00	0	33	0	2037383168	30	6222
2026-01-08 18:07:25.04	46.63	30.62	-29.1	-29.6	27.7	0.00e+00	0	33	0	2044723200	30	6165
2026-01-08 18:07:26.05	46.85	30.77	-28.8	-29.3	28.1	0.00e+00	0	33	0	2052063232	30	5950
2026-01-08 18:07:27.06	47.07	30.92	-28.7	-29.3	28.1	0.00e+00	0	32	0	2059403264	30	5915
2026-01-08 18:07:28.07	47.30	31.08	-28.8	-29.3	28.2	0.00e+00	0	32	0	2066743296	30	5950
2026-01-08 18:07:29.08	47.53	31.23	-28.5	-29.1	28.3	0.00e+00	0	33	0	2074083328	30	5784
2026-01-08 18:07:30.09	47.76	31.39	-28.5	-29.1	28.2	0.00e+00	0	32	0	2081423360	30	5769
2026-01-08 18:07:31.10	47.99	31.54	-28.5	-29.1	28.3	0.00e+00	0	33	0	2088763392	30	5796
2026-01-08 18:07:32.11	48.23	31.70	-28.5	-29.1	28.3	0.00e+00	0	33	0	2096103424	30	5777
2026-01-08 18:07:33.12	48.46	31.85	-28.4	-29.0	28.3	0.00e+00	0	33	0	2103443456	30	5734
2026-01-08 18:07:34.13	48.70	32.01	-28.6	-29.1	28.1	0.00e+00	0	33	0	2110783488	30	5826
2026-01-08 18:07:35.13	48.94	32.16	-28.5	-29.1	28.3	0.00e+00	0	33	0	2118123520	30	5800
2026-01-08 18:07:36.14	49.18	32.32	-28.4	-28.9	28.4	0.00e+00	0	33	0	2125463552	30	5680
2026-01-08 18:07:37.15	49.43	32.48	-28.5	-29.1	28.2	0.00e+00	0	32	0	2131755008	30	5782
2026-01-08 18:07:38.16	49.68	32.63	-28.3	-28.9	28.4	0.00e+00	0	33	0	2139095040	30	5657
2026-01-08 18:07:39.17	49.93	32.79	-28.3	-28.9	28.4	0.00e+00	0	33	0	2146435072	30	5632
2026-01-08 18:07:40.18	50.18	32.95	-28.2	-28.8	28.5	0.00e+00	0	33	0	2153775104	30	5593
2026-01-08 18:07:41.19	50.44	33.11	-28.2	-28.8	28.4	0.00e+00	0	33	0	2161115136	30	5600
2026-01-08 18:07:42.20	50.69	33.26	-28.2	-28.8	28.4	0.00e+00	0	33	0	2168455168	30	5605
2026-01-08 18:07:43.21	50.95	33.42	-28.4	-29.0	28.3	0.00e+00	0	33	0	2175795200	30	5737
2026-01-08 18:07:44.22	51.22	33.58	-28.3	-28.9	28.3	0.00e+00	0	32	0	2183135232	30	5664
2026-01-08 18:07:45.23	51.48	33.74	-28.3	-28.9	28.4	0.00e+00	0	33	0	2190475264	30	5652
2026-01-08 18:07:46.23	51.75	33.90	-28.4	-28.9	28.3	0.00e+00	0	33	0	2197815296	30	5691
2026-01-08 18:07:47.24	52.02	34.06	-28.4	-29.0	28.3	0.00e+00	0	33	0	2205155328	30	5731
2026-01-08 18:07:48.25	52.29	34.22	-28.3	-28.9	28.4	0.00e+00	0	33	0	2212495360	30	5648
2026-01-08 18:07:49.26	52.57	34.37	-28.4	-29.0	28.5	0.00e+00	0	33	0	2219835392	30	5745
2026-01-08 18:07:50.27	52.85	34.53	-28.4	-29.0	28.3	0.00e+00	0	33	0	2227175424	30	5716
2026-01-08 18:07:51.28	53.13	34.69	-28.7	-29.2	28.0	0.00e+00	0	33	0	2234515456	30	5885
2026-01-08 18:07:52.29	53.41	34.85	-28.6	-29.1	28.2	0.00e+00	0	33	0	2241855488	30	5825
2026-01-08 18:07:53.30	53.70	35.01	-28.4	-29.0	28.2	0.00e+00	0	32	0	2249195520	30	5714
2026-01-08 18:07:54.31	53.99	35.17	-28.5	-29.0	28.1	0.00e+00	0	33	0	2255486976	30	5754
2026-01-08 18:07:55.32	54.28	35.33	-28.5	-29.1	28.1	0.00e+00	0	32	0	2262827008	30	5772
2026-01-08 18:07:56.33	54.57	35.49	-28.3	-28.9	28.4	0.00e+00	0	33	0	2271215616	30	5645
2026-01-08 18:07:57.33	54.87	35.65	-28.3	-28.8	28.3	0.00e+00	0	32	0	2277507072	30	5630
2026-01-08 18:07:58.34	55.17	35.81	-28.3	-28.9	28.3	0.00e+00	0	33	0	2284847104	30	5656
2026-01-08 18:07:59.35	55.47	35.97	-28.3	-28.9	28.3	0.00e+00	0	33	0	2292187136	30	5653
2026-01-08 18:08:00.36	55.78	36.12	-28.2	-28.8	28.4	0.00e+00	0	33	0	2299527168	30	5596
2026-01-08 18:08:01.37	56.09	36.28	-28.4	-29.0	28.3	0.00e+00	0	33	0	2306867200	30	5735
2026-01-08 18:08:02.38	56.40	36.44	-28.5	-29.0	28.3	0.00e+00	0	33	0	2314207232	30	5757
2026-01-08 18:08:03.39	56.72	36.60	-28.4	-29.0	28.4	0.00e+00	0	33	0	2321547264	30	5698
2026-01-08 18:08:04.40	57.04	36.76	-28.3	-28.9	28.3	0.00e+00	0	33	0	2328887296	30	5667
2026-01-08 18:08:05.41	57.36	36.92	-28.3	-28.9	28.5	0.00e+00	0	33	0	2336227328	30	5639
2026-01-08 18:08:06.42	57.68	37.08	-28.3	-28.9	28.4	0.00e+00	0	33	0	2343567360	30	5675
2026-01-08 18:08:07.43	58.01	37.23	-28.5	-29.0	28.3	0.00e+00	0	33	0	2350907392	30	5756
2026-01-08 18:08:08.43	58.34	37.39	-28.4	-29.0	28.3	0.00e+00	0	33	0	2358247424	30	5729
2026-01-08 18:08:09.44	58.67	37.55	-28.4	-28.9	28.5	0.00e+00	0	33	0	2365587456	30	5695
2026-01-08 18:08:10.45	59.01	37.70	-28.2	-28.8	28.5	0.00e+00	0	33	0	2372927488	30	5598
2026-01-08 18:08:11.46	59.35	37.86	-28.4	-28.9	28.4	0.00e+00	0	32	0	2380267520	30	5687
2026-01-08 18:08:12.47	59.69	38.02	-28.4	-29.0	28.3	0.00e+00	0	33	0	2387607552	30	5707
2026-01-08 18:08:13.48	60.04	38.17	-28.6	-29.2	28.2	0.00e+00	0	33	0	2394947584	30	5832
2026-01-08 18:08:14.48	60.39	38.33	-28.7	-29.2	28.2	0.00e+00	0	33	0	2402287616	30	5886
2026-01-08 18:08:15.50	60.74	38.48	-28.9	-29.4	28.1	0.00e+00	0	33	0	2408579072	30	6021
2026-01-08 18:08:16.51	61.10	38.64	-28.8	-29.3	28.1	0.00e+00	0	33	0	2415919104	30	5949
2026-01-08 18:08:17.52	61.46	38.79	-28.8	-29.4	28.0	0.00e+00	0	33	0	2423259136	30	6012
2026-01-08 18:08:18.53	61.82	38.95	-28.7	-29.3	28.1	0.00e+00	0	33	0	2430599168	30	5931
2026-01-08 18:08:19.53	62.19	39.10	-28.9	-29.4	28.2	0.00e+00	0	33	0	2437939200	30	6013
2026-01-08 18:08:20.55	62.56	39.25	-29.1	-29.7	28.0	0.00e+00	0	32	0	2445279232	30	6201
2026-01-08 18:08:21.55	62.93	39.40	-28.8	-29.4	28.2	0.00e+00	0	33	0	2452619264	30	6005
2026-01-08 18:08:22.56	63.31	39.55	-28.9	-29.5	28.1	0.00e+00	0	32	0	2459959296	30	6040
2026-01-08 18:08:23.57	63.69	39.70	-29.0	-29.5	28.0	0.00e+00	0	33	0	2467299328	30	6098
2026-01-08 18:08:24.58	64.07	39.85	-29.0	-29.5	28.0	0.00e+00	0	33	0	2474639360	30	6089
2026-01-08 18:08:25.59	64.46	40.00	-28.9	-29.5	28.1	0.00e+00	0	33	0	2481979392	30	6037
2026-01-08 18:08:26.60	64.85	40.15	-28.8	-29.4	28.1	0.00e+00	0	33	0	2489319424	30	5975
2026-01-08 18:08:27.61	65.25	40.29	-28.5	-29.1	28.2	0.00e+00	0	33	0	2496659456	30	5803
2026-01-08 18:08:28.61	65.64	40.44	-28.6	-29.2	28.2	0.00e+00	0	33	0	2503999488	30	5847
2026-01-08 18:08:29.62	66.04	40.58	-28.3	-28.9	28.3	0.00e+00	0	33	0	2511339520	30	5665
2026-01-08 18:08:30.63	66.45	40.73	-28.5	-29.1	28.2	0.00e+00	0	33	0	2518679552	30	5768
2026-01-08 18:08:31.64	66.86	40.87	-28.5	-29.1	28.2	0.00e+00	0	33	0	2526019584	30	5797
2026-01-08 18:08:32.65	67.27	41.01	-28.5	-29.0	28.4	0.00e+00	0	33	0	2533359616	30	5756
2026-01-08 18:08:33.66	67.69	41.15	-28.5	-29.1	28.3	0.00e+00	0	33	0	2539651072	30	5775
2026-01-08 18:08:34.67	68.11	41.29	-28.7	-29.3	28.2	0.00e+00	0	33	0	2546991104	30	5900
2026-01-08 18:08:35.68	68.53	41.43	-28.6	-29.2	28.3	0.00e+00	0	33	0	2554331136	30	5864
2026-01-08 18:08:36.69	68.96	41.57	-28.5	-29.0	28.3	0.00e+00	0	33	0	2561671168	30	5761
2026-01-08 18:08:37.70	69.39	41.70	-28.5	-29.1	28.3	0.00e+00	0	33	0	2569011200	30	5813
2026-01-08 18:08:38.70	69.82	41.84	-28.5	-29.0	28.2	0.00e+00	0	33	0	2576351232	30	5744
2026-01-08 18:08:39.71	70.26	41.97	-28.4	-28.9	28.3	0.00e+00	0	33	0	2583691264	30	5672
2026-01-08 18:08:40.72	70.70	42.10	-28.6	-29.2	28.2	0.00e+00	0	33	0	2591031296	30	5845
2026-01-08 18:08:41.73	71.14	42.23	-28.6	-29.2	28.2	0.00e+00	0	33	0	2598371328	30	5859
2026-01-08 18:08:42.74	71.59	42.36	-28.7	-29.2	28.1	0.00e+00	0	33	0	2605711360	30	5880
2026-01-08 18:08:43.75	72.04	42.49	-28.7	-29.3	28.1	0.00e+00	0	33	0	2613051392	30	5946
2026-01-08 18:08:44.76	72.50	42.62	-28.7	-29.2	28.3	0.00e+00	0	33	0	2620391424	30	5881
2026-01-08 18:08:45.77	72.96	42.74	-28.6	-29.1	28.2	0.00e+00	0	33	0	2627731456	30	5813
2026-01-08 18:08:46.78	73.42	42.87	-28.7	-29.3	28.2	0.00e+00	0	33	0	2635071488	30	5904
2026-01-08 18:08:47.79	73.89	42.99	-28.9	-29.5	28.1	0.00e+00	0	33	0	2642411520	30	6059
2026-01-08 18:08:48.80	74.36	43.11	-29.1	-29.6	27.8	0.00e+00	0	33	0	2649751552	30	6155
2026-01-08 18:08:49.81	74.83	43.23	-29.2	-29.8	27.7	0.00e+00	0	33	0	2657091584	30	6301
2026-01-08 18:08:50.82	75.31	43.34	-29.3	-29.9	27.7	0.00e+00	0	33	0	2664431616	30	6356
2026-01-08 18:08:51.83	75.79	43.46	-29.3	-29.9	27.5	0.00e+00	0	33	0	2671771648	30	6366
2026-01-08 18:08:52.84	76.27	43.57	-29.1	-29.7	27.9	0.00e+00	0	33	0	2679111680	30	6207
2026-01-08 18:08:53.85	76.76	43.68	-28.8	-29.4	28.2	0.00e+00	0	33	0	2685403136	30	5987
2026-01-08 18:08:54.86	77.25	43.79	-28.8	-29.3	28.1	0.00e+00	0	33	0	2692743168	30	5944
2026-01-08 18:08:55.87	77.74	43.90	-29.0	-29.5	27.9	0.00e+00	0	33	0	2701131776	30	6093
2026-01-08 18:08:56.89	78.24	44.00	-29.1	-29.6	27.8	0.00e+00	0	33	0	2707423232	30	6167
2026-01-08 18:08:57.90	78.74	44.10	-29.3	-29.9	27.6	0.00e+00	0	33	0	2714763264	30	6345
2026-01-08 18:08:58.90	79.24	44.20	-29.2	-29.8	27.6	0.00e+00	0	33	0	2722103296	30	6267
2026-01-08 18:08:59.91	79.75	44.30	-29.2	-29.8	27.7	0.00e+00	0	33	0	2729443328	30	6271
2026-01-08 18:09:00.92	80.26	44.40	-29.3	-29.9	27.7	0.00e+00	0	33	0	2736783360	30	6321
2026-01-08 18:09:01.93	80.77	44.49	-29.1	-29.7	27.8	0.00e+00	0	33	0	2744123392	30	6218
2026-01-08 18:09:02.94	81.28	44.59	-29.1	-29.7	27.7	0.00e+00	0	33	0	2751463424	30	6222
2026-01-08 18:09:03.95	81.80	44.67	-29.2	-29.8	27.7	0.00e+00	0	33	0	2758803456	30	6279
2026-01-08 18:09:04.96	82.32	44.76	-29.2	-29.8	27.7	0.00e+00	0	33	0	2766143488	30	6290
2026-01-08 18:09:05.97	82.85	44.85	-29.3	-29.9	27.8	0.00e+00	0	33	0	2773483520	30	6352
2026-01-08 18:09:06.98	83.38	44.93	-29.0	-29.6	27.9	0.00e+00	0	33	0	2780823552	30	6141
2026-01-08 18:09:07.99	83.90	45.01	-29.2	-29.8	27.8	0.00e+00	0	33	0	2788163584	30	6247
2026-01-08 18:09:09.00	84.44	45.09	-29.2	-29.7	28.0	0.00e+00	0	33	0	2795503616	30	6231
2026-01-08 18:09:10.01	84.97	45.16	-29.1	-29.7	27.8	0.00e+00	0	33	0	2802843648	30	6205
2026-01-08 18:09:11.01	85.50	45.23	-29.2	-29.7	27.8	0.00e+00	0	33	0	2810183680	30	6244
2026-01-08 18:09:12.02	86.04	45.30	-29.0	-29.6	27.9	0.00e+00	0	33	0	2817523712	30	6145
2026-01-08 18:09:13.03	86.58	45.37	-29.0	-29.5	27.9	0.00e+00	0	33	0	2824863744	30	6075
2026-01-08 18:09:14.04	87.13	45.43	-29.0	-29.6	27.9	0.00e+00	0	33	0	2832203776	30	6156
2026-01-08 18:09:15.05	87.67	45.49	-29.1	-29.7	27.9	0.00e+00	0	33	0	2838495232	30	6211
2026-01-08 18:09:16.06	88.22	45.55	-29.0	-29.6	27.9	0.00e+00	0	33	0	2845835264	30	6125
2026-01-08 18:09:17.07	88.77	45.61	-29.1	-29.7	27.9	0.00e+00	0	33	0	2853175296	30	6186
2026-01-08 18:09:18.08	89.33	45.66	-29.1	-29.6	27.6	0.00e+00	0	33	0	2860515328	30	6172
2026-01-08 18:09:19.09	89.88	45.71	-29.1	-29.7	27.9	0.00e+00	0	33	0	2867855360	30	6175
2026-01-08 18:09:20.09	90.43	45.76	-29.1	-29.7	27.8	0.00e+00	0	33	0	2875195392	30	6180
2026-01-08 18:09:21.10	90.99	45.81	-29.1	-29.6	27.8	0.00e+00	0	33	0	2882535424	30	6160
2026-01-08 18:09:22.11	91.55	45.85	-29.2	-29.8	27.8	0.00e+00	0	33	0	2889875456	30	6260
2026-01-08 18:09:23.12	92.11	45.89	-29.3	-29.9	27.7	0.00e+00	0	33	0	2897215488	30	6343
2026-01-08 18:09:24.13	92.67	45.92	-29.4	-29.9	27.6	0.00e+00	0	33	0	2904555520	30	6377
2026-01-08 18:09:25.14	93.23	45.96	-29.6	-30.2	27.4	0.00e+00	0	33	0	2911895552	30	6571
2026-01-08 18:09:26.15	93.79	45.99	-29.5	-30.1	27.4	0.00e+00	0	33	0	2919235584	30	6502
2026-01-08 18:09:27.16	94.36	46.01	-29.3	-29.9	27.7	0.00e+00	0	33	0	2926575616	30	6355
2026-01-08 18:09:28.17	94.93	46.04	-29.1	-29.7	27.8	0.00e+00	0	33	0	2933915648	30	6183
2026-01-08 18:09:29.18	95.49	46.06	-29.0	-29.6	27.9	0.00e+00	0	33	0	2941255680	30	6159
2026-01-08 18:09:30.19	96.06	46.08	-29.2	-29.8	27.8	0.00e+00	0	33	0	2948595712	30	6253
2026-01-08 18:09:31.20	96.63	46.09	-29.3	-29.9	27.6	0.00e+00	0	33	0	2955935744	30	6349
2026-01-08 18:09:32.21	97.20	46.10	-29.5	-30.1	27.6	0.00e+00	0	33	0	2962227200	30	6502
2026-01-08 18:09:33.22	97.77	46.11	-29.4	-30.0	27.6	0.00e+00	0	33	0	2969567232	30	6396
2026-01-08 18:09:34.23	98.34	46.12	-29.2	-29.8	27.8	0.00e+00	0	33	0	2977955840	30	6256
2026-01-08 18:09:35.24	98.91	46.12	-29.1	-29.7	27.8	0.00e+00	0	33	0	2984247296	30	6191
2026-01-08 18:09:36.25	99.47	46.12	-29.2	-29.8	27.8	0.00e+00	0	33	0	2991587328	30	6285
2026-01-08 18:09:37.26	100.04	46.12	-29.3	-29.9	27.7	0.00e+00	0	33	0	2998927360	30	6355
2026-01-08 18:09:38.27	100.61	46.11	-29.5	-30.1	27.5	0.00e+00	0	33	0	3006267392	30	6485
2026-01-08 18:09:39.28	101.18	46.11	-29.6	-30.2	27.4	0.00e+00	0	33	0	3013607424	30	6599
2026-01-08 18:09:40.29	101.75	46.09	-29.4	-30.0	27.5	0.00e+00	0	33	0	3020947456	32	5734
2026-01-08 18:09:41.29	102.31	46.08	-29.4	-29.9	27.7	0.00e+00	0	33	0	3028287488	32	5676
2026-01-08 18:09:42.31	102.89	46.06	-28.9	-29.5	28.0	0.00e+00	0	33	0	3035627520	32	5378
2026-01-08 18:09:43.32	103.46	46.04	-28.7	-29.3	28.1	0.00e+00	0	33	0	3042967552	30	5912
2026-01-08 18:09:44.32	104.02	46.02	-28.9	-29.4	27.9	0.00e+00	0	33	0	3050307584	30	6025
2026-01-08 18:09:45.33	104.58	45.99	-29.2	-29.8	27.7	0.00e+00	0	33	0	3057647616	30	6251
2026-01-08 18:09:46.34	105.15	45.96	-29.2	-29.8	27.5	0.00e+00	0	33	0	3064987648	30	6303
2026-01-08 18:09:47.35	105.71	45.93	-29.2	-29.8	27.7	0.00e+00	0	33	0	3072327680	30	6293
2026-01-08 18:09:48.36	106.27	45.89	-29.2	-29.7	27.6	0.00e+00	0	33	0	3079667712	30	6237
2026-01-08 18:09:49.37	106.83	45.85	-28.9	-29.5	27.2	0.00e+00	0	33	0	3087007744	30	6040
2026-01-08 18:09:50.38	107.39	45.81	-29.0	-29.6	27.7	0.00e+00	0	33	0	3094347776	30	6143
2026-01-08 18:09:51.39	107.95	45.76	-28.9	-29.5	27.8	0.00e+00	0	33	0	3101687808	30	6038
2026-01-08 18:09:52.40	108.51	45.72	-29.1	-29.6	27.8	0.00e+00	0	33	0	3109027840	30	6165
2026-01-08 18:09:53.41	109.06	45.67	-29.3	-29.9	27.5	0.00e+00	0	33	0	3115319296	30	6336
2026-01-08 18:09:54.42	109.61	45.61	-29.6	-30.2	27.5	0.00e+00	0	33	0	3122659328	30	6581
2026-01-08 18:09:55.42	110.16	45.56	-29.4	-30.0	27.6	0.00e+00	0	33	0	3131047936	30	6429
2026-01-08 18:09:56.43	110.71	45.50	-29.5	-30.1	27.5	0.00e+00	0	33	0	3137339392	30	6488
2026-01-08 18:09:57.44	111.25	45.44	-29.3	-29.9	27.7	0.00e+00	0	33	0	3144679424	30	6331
2026-01-08 18:09:58.45	111.80	45.37	-29.2	-29.8	27.7	0.00e+00	0	33	0	3152019456	30	6266
2026-01-08 18:09:59.46	112.34	45.31	-29.3	-29.9	27.7	0.00e+00	0	33	0	3159359488	30	6327
2026-01-08 18:10:00.47	112.88	45.24	-29.7	-30.3	27.3	0.00e+00	0	33	0	3166699520	30	6656
2026-01-08 18:10:01.48	113.42	45.16	-29.6	-30.2	27.4	0.00e+00	0	33	0	3174039552	32	5870
2026-01-08 18:10:02.49	113.96	45.09	-29.4	-30.0	27.6	0.00e+00	0	33	0	3181379584	32	5701
2026-01-08 18:10:03.50	114.49	45.01	-29.4	-30.0	27.7	0.00e+00	0	33	0	3188719616	32	5734
2026-01-08 18:10:04.50	115.01	44.93	-29.0	-29.6	27.9	0.00e+00	0	33	0	3196059648	32	5460
2026-01-08 18:10:05.51	115.54	44.85	-29.0	-29.6	28.0	0.00e+00	0	33	0	3203399680	32	5470
2026-01-08 18:10:06.52	116.07	44.77	-29.2	-29.7	27.8	0.00e+00	0	33	0	3210739712	32	5563
2026-01-08 18:10:07.53	116.59	44.68	-29.1	-29.7	27.9	0.00e+00	0	33	0	3218079744	32	5549
2026-01-08 18:10:08.54	117.11	44.59	-29.3	-29.9	27.7	0.00e+00	0	33	0	3225419776	32	5636
2026-01-08 18:10:09.54	117.62	44.50	-29.3	-29.8	27.8	0.00e+00	0	33	0	3232759808	32	5617
2026-01-08 18:10:10.55	118.13	44.40	-29.2	-29.8	27.8	0.00e+00	0	33	0	3239051264	32	5603
2026-01-08 18:10:11.56	118.64	44.31	-29.1	-29.7	27.8	0.00e+00	0	33	0	3246391296	32	5519
2026-01-08 18:10:12.57	119.15	44.21	-29.1	-29.6	27.9	0.00e+00	0	33	0	3253731328	32	5492
2026-01-08 18:10:13.58	119.66	44.11	-29.1	-29.7	27.8	0.00e+00	0	33	0	3261071360	32	5504
2026-01-08 18:10:14.59	120.16	44.01	-29.4	-30.0	27.6	0.00e+00	0	33	0	3268411392	32	5702
2026-01-08 18:10:15.60	120.66	43.90	-29.3	-29.9	27.7	0.00e+00	0	33	0	3275751424	32	5675
2026-01-08 18:10:16.61	121.15	43.79	-29.3	-29.9	27.6	0.00e+00	0	33	0	3283091456	32	5632
2026-01-08 18:10:17.61	121.64	43.69	-29.0	-29.6	28.0	0.00e+00	0	33	0	3290431488	32	5463
2026-01-08 18:10:18.62	122.13	43.58	-28.7	-29.2	28.2	0.00e+00	0	33	0	3297771520	30	5876
2026-01-08 18:10:19.63	122.61	43.46	-28.6	-29.2	28.2	0.00e+00	0	33	0	3305111552	30	5838
2026-01-08 18:10:20.64	123.09	43.35	-28.7	-29.3	28.2	0.00e+00	0	33	0	3312451584	30	5916
2026-01-08 18:10:21.65	123.57	43.23	-28.9	-29.5	28.0	0.00e+00	0	33	0	3319791616	30	6087
2026-01-08 18:10:22.66	124.04	43.11	-29.0	-29.5	27.9	0.00e+00	0	33	0	3327131648	30	6082
2026-01-08 18:10:23.67	124.52	42.99	-29.0	-29.6	27.9	0.00e+00	0	33	0	3334471680	30	6139
2026-01-08 18:10:24.68	124.98	42.87	-29.0	-29.6	27.7	0.00e+00	0	33	0	3341811712	30	6131
2026-01-08 18:10:25.69	125.45	42.75	-29.2	-29.7	27.8	0.00e+00	0	33	0	3349151744	30	6237
2026-01-08 18:10:26.69	125.90	42.62	-29.0	-29.6	27.7	0.00e+00	0	33	0	3356491776	30	6146
2026-01-08 18:10:27.70	126.36	42.50	-28.9	-29.5	28.0	0.00e+00	0	33	0	3363831808	30	6064
2026-01-08 18:10:28.71	126.81	42.37	-28.8	-29.4	28.1	0.00e+00	0	33	0	3370123264	30	6012
2026-01-08 18:10:29.72	127.26	42.24	-28.9	-29.5	27.9	0.00e+00	0	33	0	3378511872	30	6065
2026-01-08 18:10:30.73	127.71	42.11	-29.1	-29.7	27.9	0.00e+00	0	33	0	3385851904	30	6219
2026-01-08 18:10:31.74	128.15	41.98	-29.1	-29.6	27.8	0.00e+00	0	33	0	3392143360	30	6173
2026-01-08 18:10:32.75	128.59	41.84	-29.1	-29.6	27.8	0.00e+00	0	33	0	3399483392	30	6158
2026-01-08 18:10:33.76	129.03	41.71	-29.0	-29.5	28.0	0.00e+00	0	33	0	3406823424	30	6088
2026-01-08 18:10:34.77	129.46	41.57	-29.0	-29.6	27.9	0.00e+00	0	33	0	3414163456	30	6114
2026-01-08 18:10:35.78	129.89	41.43	-28.8	-29.4	28.0	0.00e+00	0	33	0	3421503488	30	5992
2026-01-08 18:10:36.79	130.31	41.29	-28.8	-29.4	28.1	0.00e+00	0	33	0	3428843520	30	5992
2026-01-08 18:10:37.80	130.73	41.15	-28.7	-29.2	28.1	0.00e+00	0	33	0	3436183552	30	5880
2026-01-08 18:10:38.81	131.15	41.01	-28.7	-29.3	28.2	0.00e+00	0	33	0	3443523584	30	5898
2026-01-08 18:10:39.81	131.56	40.87	-28.6	-29.2	28.2	0.00e+00	0	33	0	3450863616	30	5860
2026-01-08 18:10:40.82	131.97	40.73	-28.8	-29.3	28.2	0.00e+00	0	33	0	3458203648	30	5937
2026-01-08 18:10:41.83	132.38	40.58	-28.7	-29.2	28.2	0.00e+00	0	33	0	3465543680	30	5880
2026-01-08 18:10:42.84	132.78	40.44	-28.6	-29.1	28.1	0.00e+00	0	33	0	3472883712	30	5809
2026-01-08 18:10:43.85	133.18	40.29	-28.6	-29.2	28.3	0.00e+00	0	33	0	3480223744	30	5830
2026-01-08 18:10:44.86	133.58	40.14	-28.6	-29.2	28.3	0.00e+00	0	33	0	3487563776	30	5853
2026-01-08 18:10:45.87	133.97	39.99	-28.6	-29.2	28.2	0.00e+00	0	33	0	3494903808	30	5875
2026-01-08 18:10:46.88	134.36	39.84	-28.6	-29.2	28.2	0.00e+00	0	33	0	3502243840	30	5884
2026-01-08 18:10:47.89	134.75	39.69	-28.8	-29.4	27.9	0.00e+00	0	33	0	3509583872	30	6009
2026-01-08 18:10:48.90	135.13	39.54	-29.0	-29.6	27.9	0.00e+00	0	33	0	3515875328	30	6163
2026-01-08 18:10:49.91	135.51	39.39	-29.2	-29.8	27.7	0.00e+00	0	33	0	3523215360	30	6261
2026-01-08 18:10:50.92	135.88	39.24	-29.2	-29.8	27.7	0.00e+00	0	33	0	3531603968	30	6247
2026-01-08 18:10:51.93	136.25	39.09	-29.1	-29.7	28.0	0.00e+00	0	33	0	3537895424	30	6183
2026-01-08 18:10:52.94	136.62	38.93	-28.7	-29.3	27.6	0.00e+00	0	33	0	3545235456	30	5911
2026-01-08 18:10:53.95	136.99	38.78	-28.6	-29.1	28.3	0.00e+00	0	33	0	3552575488	30	5811
2026-01-08 18:10:54.96	137.35	38.63	-28.5	-29.1	28.3	0.00e+00	0	33	0	3559915520	30	5774
2026-01-08 18:10:55.97	137.71	38.47	-28.4	-28.9	28.3	0.00e+00	0	33	0	3567255552	30	5693
2026-01-08 18:10:56.98	138.06	38.31	-28.4	-28.9	28.4	0.00e+00	0	33	0	3574595584	30	5684
2026-01-08 18:10:57.99	138.41	38.16	-28.4	-29.0	28.3	0.00e+00	0	33	0	3581935616	30	5740
2026-01-08 18:10:58.99	138.76	38.00	-28.6	-29.2	28.2	0.00e+00	0	33	0	3589275648	30	5847
2026-01-08 18:11:00.00	139.10	37.85	-28.7	-29.2	28.1	0.00e+00	0	33	0	3596615680	30	5878
2026-01-08 18:11:01.01	139.44	37.69	-28.6	-29.2	28.2	0.00e+00	0	33	0	3603955712	30	5876
2026-01-08 18:11:02.02	139.78	37.53	-28.6	-29.2	28.3	0.00e+00	0	33	0	3611295744	30	5845
2026-01-08 18:11:03.03	140.12	37.37	-28.6	-29.1	28.3	0.00e+00	0	33	0	3618635776	30	5823
2026-01-08 18:11:04.04	140.45	37.21	-28.4	-28.9	28.2	0.00e+00	0	33	0	3625975808	30	5693
2026-01-08 18:11:05.05	140.78	37.06	-28.3	-28.8	28.5	0.00e+00	0	33	0	3633315840	30	5615
2026-01-08 18:11:06.06	141.10	36.90	-28.4	-28.9	28.5	0.00e+00	0	33	0	3640655872	30	5684
2026-01-08 18:11:07.07	141.43	36.74	-28.1	-28.7	28.5	0.00e+00	0	33	0	3646947328	30	5511
2026-01-08 18:11:08.08	141.75	36.58	-28.2	-28.8	28.5	0.00e+00	0	33	0	3655335936	30	5583
2026-01-08 18:11:09.09	142.06	36.42	-28.3	-28.8	28.5	0.00e+00	0	33	0	3662675968	30	5630
2026-01-08 18:11:10.09	142.37	36.26	-28.4	-29.0	28.3	0.00e+00	0	33	0	3668967424	30	5723
2026-01-08 18:11:11.10	142.68	36.10	-28.5	-29.1	28.2	0.00e+00	0	33	0	3676307456	30	5803
2026-01-08 18:11:12.11	142.99	35.94	-28.7	-29.2	28.1	0.00e+00	0	33	0	3683647488	30	5885
2026-01-08 18:11:13.12	143.30	35.78	-28.9	-29.5	28.0	0.00e+00	0	33	0	3690987520	30	6061
2026-01-08 18:11:14.13	143.60	35.62	-28.9	-29.4	27.0	0.00e+00	0	33	0	3698327552	30	6026
2026-01-08 18:11:15.14	143.90	35.46	-28.9	-29.5	28.0	0.00e+00	0	33	0	3705667584	30	6058
2026-01-08 18:11:16.15	144.19	35.30	-28.9	-29.5	28.0	0.00e+00	0	33	0	3713007616	30	6067
2026-01-08 18:11:17.16	144.48	35.14	-28.7	-29.2	28.1	0.00e+00	0	33	0	3720347648	30	5887
2026-01-08 18:11:18.17	144.77	34.98	-28.5	-29.1	28.2	0.00e+00	0	33	0	3727687680	30	5786
2026-01-08 18:11:19.18	145.06	34.82	-28.5	-29.0	28.4	0.00e+00	0	33	0	3735027712	30	5736
2026-01-08 18:11:20.19	145.35	34.66	-28.3	-28.8	28.5	0.00e+00	0	33	0	3742367744	30	5616
2026-01-08 18:11:21.20	145.63	34.50	-28.2	-28.8	28.4	0.00e+00	0	33	0	3749707776	30	5575
2026-01-08 18:11:22.21	145.91	34.34	-28.2	-28.7	28.5	0.00e+00	0	33	0	3757047808	30	5559
2026-01-08 18:11:23.22	146.18	34.18	-28.2	-28.8	28.5	0.00e+00	0	33	0	3764387840	30	5573
2026-01-08 18:11:24.23	146.46	34.02	-28.1	-28.7	28.5	0.00e+00	0	33	0	3771727872	30	5526
2026-01-08 18:11:25.24	146.73	33.86	-28.1	-28.7	28.3	0.00e+00	0	33	0	3779067904	30	5546
2026-01-08 18:11:26.25	147.00	33.70	-28.3	-28.8	28.4	0.00e+00	0	33	0	3786407936	30	5623
2026-01-08 18:11:27.26	147.26	33.54	-28.5	-29.1	28.3	0.00e+00	0	33	0	3792699392	30	5764
2026-01-08 18:11:28.27	147.53	33.38	-28.5	-29.1	28.2	0.00e+00	0	33	0	3800039424	30	5776
2026-01-08 18:11:29.28	147.79	33.22	-28.6	-29.1	28.2	0.00e+00	0	33	0	3808428032	30	5816
2026-01-08 18:11:30.29	148.05	33.06	-28.6	-29.2	28.1	0.00e+00	0	33	0	3814719488	30	5876
2026-01-08 18:11:31.29	148.30	32.91	-28.7	-29.3	28.1	0.00e+00	0	33	0	3822059520	30	5927
2026-01-08 18:11:32.30	148.56	32.75	-28.5	-29.1	28.3	0.00e+00	0	33	0	3829399552	30	5799
2026-01-08 18:11:33.31	148.81	32.59	-28.5	-29.1	28.3	0.00e+00	0	33	0	3836739584	30	5797
2026-01-08 18:11:34.32	149.06	32.43	-28.5	-29.0	28.2	0.00e+00	0	33	0	3844079616	30	5753
2026-01-08 18:11:35.33	149.30	32.27	-28.4	-29.0	28.3	0.00e+00	0	33	0	3851419648	30	5728
2026-01-08 18:11:36.35	149.55	32.11	-28.4	-28.9	28.3	0.00e+00	0	33	0	3858759680	30	5680
2026-01-08 18:11:37.36	149.79	31.96	-28.4	-28.9	28.2	0.00e+00	0	33	0	3866099712	30	5681
2026-01-08 18:11:38.36	150.03	31.80	-28.3	-28.9	28.5	0.00e+00	0	33	0	3873439744	30	5635
2026-01-08 18:11:39.37	150.27	31.64	-28.2	-28.8	28.4	0.00e+00	0	33	0	3880779776	30	5607
2026-01-08 18:11:40.38	150.50	31.49	-28.4	-28.9	28.2	0.00e+00	0	33	0	3888119808	30	5680
2026-01-08 18:11:41.39	150.73	31.33	-28.2	-28.7	28.4	0.00e+00	0	33	0	3895459840	30	5563
2026-01-08 18:11:42.40	150.96	31.18	-28.3	-28.8	28.4	0.00e+00	0	33	0	3902799872	30	5624
2026-01-08 18:11:43.41	151.19	31.02	-28.2	-28.8	28.5	0.00e+00	0	33	0	3910139904	30	5593
2026-01-08 18:11:44.42	151.42	30.87	-28.3	-28.8	28.4	0.00e+00	0	33	0	3917479936	30	5620
2026-01-08 18:11:45.43	151.64	30.71	-28.3	-28.9	28.3	0.00e+00	0	33	0	3924819968	30	5653
2026-01-08 18:11:46.44	151.87	30.56	-28.5	-29.1	28.1	0.00e+00	0	33	0	3932160000	30	5762
2026-01-08 18:11:47.45	152.09	30.40	-28.6	-29.1	27.9	0.00e+00	0	33	0	3939500032	30	5815
2026-01-08 18:11:48.45	152.30	30.25	-28.7	-29.3	27.9	0.00e+00	0	33	0	3945791488	30	5920
2026-01-08 18:11:49.46	152.52	30.10	-28.9	-29.5	27.9	0.00e+00	0	33	0	3953131520	30	6036
2026-01-08 18:11:50.47	152.73	29.94	-29.1	-29.7	27.7	0.00e+00	0	33	0	3961520128	30	6207
2026-01-08 18:11:51.48	152.94	29.79	-29.0	-29.6	27.9	0.00e+00	0	33	0	3967811584	30	6110
2026-01-08 18:11:52.49	153.15	29.64	-29.1	-29.6	27.8	0.00e+00	0	33	0	3975151616	30	6163
2026-01-08 18:11:53.50	153.36	29.49	-28.9	-29.4	27.9	0.00e+00	0	33	0	3982491648	30	6018
2026-01-08 18:11:54.51	153.57	29.34	-28.7	-29.3	28.1	0.00e+00	0	33	0	3989831680	30	5932
2026-01-08 18:11:55.52	153.77	29.19	-28.9	-29.5	27.9	0.00e+00	0	33	0	3997171712	30	6043
2026-01-08 18:11:56.53	153.98	29.04	-28.5	-29.1	28.2	0.00e+00	0	33	0	4004511744	30	5786
2026-01-08 18:11:57.54	154.18	28.89	-28.5	-29.0	28.2	0.00e+00	0	33	0	4011851776	30	5748
2026-01-08 18:11:58.55	154.38	28.74	-28.5	-29.1	27.9	0.00e+00	0	33	0	4019191808	30	5800
2026-01-08 18:11:59.56	154.57	28.59	-28.5	-29.0	28.1	0.00e+00	0	33	0	4026531840	30	5752
2026-01-08 18:12:00.57	154.77	28.44	-28.6	-29.2	28.1	0.00e+00	0	33	0	4033871872	30	5836
2026-01-08 18:12:01.58	154.96	28.29	-28.6	-29.1	27.9	0.00e+00	0	33	0	4041211904	30	5819
2026-01-08 18:12:02.59	155.16	28.14	-28.7	-29.2	27.6	0.00e+00	0	33	0	4048551936	30	5893
2026-01-08 18:12:03.60	155.35	28.00	-28.7	-29.3	27.9	0.00e+00	0	33	0	4055891968	30	5916
2026-01-08 18:12:04.61	155.53	27.85	-28.6	-29.2	27.8	0.00e+00	0	33	0	4063232000	30	5873
2026-01-08 18:12:05.61	155.72	27.70	-28.6	-29.2	27.1	0.00e+00	0	33	0	4069523456	30	5872
2026-01-08 18:12:06.63	155.91	27.56	-28.8	-29.4	27.8	0.00e+00	0	33	0	4077912064	30	5993
2026-01-08 18:12:07.64	156.09	27.41	-28.9	-29.5	27.8	0.00e+00	0	33	0	4085252096	30	6068
2026-01-08 18:12:08.65	156.27	27.27	-28.9	-29.5	27.4	0.00e+00	0	33	0	4091543552	30	6056
2026-01-08 18:12:09.66	156.45	27.12	-28.8	-29.4	27.8	0.00e+00	0	33	0	4098883584	30	5999
2026-01-08 18:12:10.66	156.63	26.98	-29.0	-29.6	27.6	0.00e+00	0	33	0	4106223616	30	6151
2026-01-08 18:12:11.67	156.81	26.84	-29.0	-29.6	27.5	0.00e+00	0	33	0	4113563648	30	6160
2026-01-08 18:12:12.68	156.98	26.69	-28.9	-29.5	27.7	0.00e+00	0	33	0	4120903680	30	6079
2026-01-08 18:12:13.69	157.16	26.55	-29.1	-29.7	27.5	0.00e+00	0	33	0	4128243712	30	6195
2026-01-08 18:12:14.70	157.33	26.41	-28.9	-29.5	27.5	0.00e+00	0	33	0	4135583744	30	6063
2026-01-08 18:12:15.71	157.50	26.27	-28.8	-29.4	27.8	0.00e+00	0	33	0	4142923776	30	6018
2026-01-08 18:12:16.72	157.67	26.13	-28.9	-29.5	27.8	0.00e+00	0	33	0	4150263808	30	6064
2026-01-08 18:12:17.73	157.84	25.98	-28.8	-29.4	27.9	0.00e+00	0	33	0	4157603840	30	5970
2026-01-08 18:12:18.74	158.00	25.84	-28.7	-29.3	27.8	0.00e+00	0	33	0	4164943872	30	5936
2026-01-08 18:12:19.75	158.17	25.70	-28.8	-29.4	27.9	0.00e+00	0	33	0	4172283904	30	5995
2026-01-08 18:12:20.76	158.33	25.57	-28.8	-29.3	27.9	0.00e+00	0	33	0	4179623936	30	5955
2026-01-08 18:12:21.77	158.50	25.43	-28.8	-29.4	27.9	0.00e+00	0	33	0	4186963968	30	6008
2026-01-08 18:12:22.78	158.66	25.29	-28.8	-29.4	27.8	0.00e+00	0	33	0	4194304000	30	6016
2026-01-08 18:12:23.79	158.82	25.15	-28.8	-29.4	27.8	0.00e+00	0	33	0	4201644032	30	5993
2026-01-08 18:12:24.80	158.98	25.01	-28.9	-29.5	27.8	0.00e+00	0	33	0	4208984064	30	6083
2026-01-08 18:12:25.81	159.13	24.88	-28.9	-29.5	27.8	0.00e+00	0	33	0	4216324096	30	6051
2026-01-08 18:12:26.82	159.29	24.74	-29.0	-29.5	27.8	0.00e+00	0	33	0	4222615552	30	6100
2026-01-08 18:12:27.83	159.44	24.60	-29.0	-29.5	27.8	0.00e+00	0	33	0	4231004160	30	6100
2026-01-08 18:12:28.84	159.60	24.47	-29.0	-29.6	27.7	0.00e+00	0	33	0	4238344192	30	6146
2026-01-08 18:12:29.85	159.75	24.33	-29.0	-29.6	27.9	0.00e+00	0	33	0	4244635648	30	6137
2026-01-08 18:12:30.86	159.90	24.20	-29.0	-29.6	27.8	0.00e+00	0	33	0	4251975680	30	6134
2026-01-08 18:12:31.87	160.05	24.07	-28.9	-29.5	27.9	0.00e+00	0	33	0	4259315712	30	6048
2026-01-08 18:12:32.88	160.20	23.93	-29.0	-29.6	27.7	0.00e+00	0	33	0	4266655744	30	6136
2026-01-08 18:12:33.89	160.34	23.80	-29.0	-29.6	27.8	0.00e+00	0	33	0	4273995776	30	6112
2026-01-08 18:12:34.90	160.49	23.67	-29.0	-29.6	27.8	0.00e+00	0	33	0	4281335808	30	6140
2026-01-08 18:12:35.90	160.63	23.54	-28.9	-29.5	27.8	0.00e+00	0	33	0	4288675840	30	6048
2026-01-08 18:12:36.91	160.78	23.41	-28.9	-29.5	27.9	0.00e+00	0	33	0	4296015872	30	6063
2026-01-08 18:12:37.92	160.92	23.27	-28.9	-29.5	27.8	0.00e+00	0	34	0	4303355904	30	6056
2026-01-08 18:12:38.93	161.06	23.14	-29.0	-29.5	27.8	0.00e+00	0	33	0	4310695936	30	6086
2026-01-08 18:12:39.94	161.20	23.01	-28.9	-29.5	27.8	0.00e+00	0	33	0	4318035968	30	6048
2026-01-08 18:12:40.95	161.34	22.88	-29.0	-29.5	27.8	0.00e+00	0	33	0	4325376000	30	6093
2026-01-08 18:12:41.96	161.48	22.76	-29.0	-29.5	27.7	0.00e+00	0	33	0	4332716032	30	6092
2026-01-08 18:12:42.97	161.61	22.63	-28.9	-29.5	27.7	0.00e+00	0	34	0	4340056064	30	6072
2026-01-08 18:12:43.98	161.75	22.50	-29.1	-29.6	27.7	0.00e+00	0	34	0	4347396096	30	6160
2026-01-08 18:12:44.99	161.88	22.37	-29.0	-29.6	27.7	0.00e+00	0	34	0	4354736128	30	6138
2026-01-08 18:12:46.00	162.02	22.24	-29.1	-29.7	27.6	0.00e+00	0	34	0	4362076160	30	6180
2026-01-08 18:12:47.01	162.15	22.12	-29.0	-29.6	27.8	0.00e+00	0	33	0	4368367616	30	6127
2026-01-08 18:12:48.02	162.28	21.99	-29.1	-29.6	27.8	0.00e+00	0	33	0	4376756224	30	6165
2026-01-08 18:12:49.03	162.41	21.87	-29.1	-29.6	27.7	0.00e+00	0	33	0	4384096256	30	6167
2026-01-08 18:12:50.04	162.54	21.74	-29.2	-29.7	27.7	0.00e+00	0	34	0	4390387712	30	6238
2026-01-08 18:12:51.05	162.67	21.62	-29.2	-29.8	27.7	0.00e+00	0	34	0	4397727744	30	6263
2026-01-08 18:12:52.06	162.80	21.49	-29.3	-29.9	27.5	0.00e+00	0	33	0	4405067776	30	6339
2026-01-08 18:12:53.07	162.92	21.37	-29.3	-29.8	27.6	0.00e+00	0	34	0	4412407808	30	6307
2026-01-08 18:12:54.07	163.05	21.25	-29.4	-30.0	27.4	0.00e+00	0	34	0	4419747840	30	6412
2026-01-08 18:12:55.08	163.17	21.12	-29.4	-30.0	27.5	0.00e+00	0	34	0	4427087872	30	6429
2026-01-08 18:12:56.09	163.30	21.00	-29.5	-30.0	27.3	0.00e+00	0	34	0	4434427904	30	6455
2026-01-08 18:12:57.10	163.42	20.88	-29.5	-30.0	27.4	0.00e+00	0	33	0	4441767936	30	6459
2026-01-08 18:12:58.11	163.54	20.76	-29.5	-30.1	27.3	0.00e+00	0	33	0	4449107968	30	6508
2026-01-08 18:12:59.12	163.66	20.64	-29.6	-30.2	27.2	0.00e+00	0	34	0	4456448000	30	6560
2026-01-08 18:13:00.13	163.78	20.52	-29.5	-30.1	27.3	0.00e+00	0	33	0	4463788032	30	6490
2026-01-08 18:13:01.14	163.90	20.40	-29.6	-30.1	27.4	0.00e+00	0	34	0	4471128064	30	6518
2026-01-08 18:13:02.15	164.02	20.28	-29.6	-30.2	27.3	0.00e+00	0	33	0	4478468096	30	6583
2026-01-08 18:13:03.16	164.14	20.16	-29.5	-30.1	27.3	0.00e+00	0	34	0	4485808128	30	6500
2026-01-08 18:13:04.17	164.25	20.04	-29.7	-30.3	27.2	0.00e+00	0	34	0	4493148160	30	6636
2026-01-08 18:13:05.18	164.37	19.92	-29.6	-30.2	27.3	0.00e+00	0	33	0	4500488192	30	6553
2026-01-08 18:13:06.19	164.48	19.80	-29.7	-30.2	27.2	0.00e+00	0	33	0	4507828224	32	5892
2026-01-08 18:13:07.20	164.60	19.69	-29.6	-30.2	27.2	0.00e+00	0	34	0	4515168256	32	5870
2026-01-08 18:13:08.21	164.71	19.57	-29.6	-30.2	27.2	0.00e+00	0	34	0	4521459712	32	5879
2026-01-08 18:13:09.21	164.82	19.45	-29.6	-30.2	27.3	0.00e+00	0	33	0	4528799744	32	5856
2026-01-08 18:13:10.22	164.93	19.34	-29.8	-30.4	27.1	0.00e+00	0	34	0	4537188352	32	6004
2026-01-08 18:13:11.23	165.04	19.22	-29.7	-30.3	27.3	0.00e+00	0	34	0	4543479808	32	5920
2026-01-08 18:13:12.24	165.15	19.11	-29.7	-30.3	27.1	0.00e+00	0	33	0	4550819840	32	5951
2026-01-08 18:13:13.25	165.26	18.99	-29.8	-30.4	27.1	0.00e+00	0	33	0	4558159872	32	6007
2026-01-08 18:13:14.26	165.37	18.88	-29.6	-30.2	27.2	0.00e+00	0	33	0	4565499904	32	5867
2026-01-08 18:13:15.27	165.48	18.76	-29.6	-30.2	27.3	0.00e+00	0	33	0	4572839936	32	5867
2026-01-08 18:13:16.28	165.58	18.65	-29.7	-30.2	27.2	0.00e+00	0	34	0	4580179968	32	5882
2026-01-08 18:13:17.29	165.69	18.54	-29.7	-30.3	27.2	0.00e+00	0	34	0	4587520000	32	5901
2026-01-08 18:13:18.30	165.79	18.43	-29.7	-30.3	27.2	0.00e+00	0	33	0	4594860032	32	5934
2026-01-08 18:13:19.31	165.90	18.31	-29.7	-30.3	27.2	0.00e+00	0	33	0	4602200064	32	5951
2026-01-08 18:13:20.31	166.00	18.20	-29.8	-30.4	27.1	0.00e+00	0	34	0	4609540096	32	5990
2026-01-08 18:13:21.32	166.10	18.09	-29.8	-30.4	27.1	0.00e+00	0	34	0	4616880128	32	5966
2026-01-08 18:13:22.33	166.20	17.98	-29.9	-30.4	27.1	0.00e+00	0	34	0	4624220160	32	6032
2026-01-08 18:13:23.34	166.31	17.87	-29.8	-30.4	27.0	0.00e+00	0	33	0	4631560192	32	5999
2026-01-08 18:13:24.35	166.41	17.76	-30.0	-30.6	27.0	0.00e+00	0	34	0	4638900224	32	6112
2026-01-08 18:13:25.36	166.51	17.65	-29.8	-30.4	26.9	0.00e+00	0	34	0	4646240256	32	6021
2026-01-08 18:13:26.37	166.61	17.54	-29.9	-30.5	26.9	0.00e+00	0	33	0	4653580288	32	6067
2026-01-08 18:13:27.38	166.71	17.43	-29.9	-30.5	26.9	0.00e+00	0	33	0	4660920320	32	6095
2026-01-08 18:13:28.39	166.80	17.32	-30.0	-30.6	26.8	0.00e+00	0	34	0	4667211776	32	6110
2026-01-08 18:13:29.40	166.90	17.22	-30.1	-30.6	26.8	0.00e+00	0	33	0	4674551808	32	6168
