passes_logs/2026/01/08/R4.6S_Anadyr/R4.6S_Anadyr__20260108_194220_FENGYUN_3E_rec.log

#Pass ID: 20260108_194220_FENGYUN 3E
#Satellite: FENGYUN 3E
#Configuration: FENGYUN 3E
#almurnet v.1.7.20251203
#Start time: 2026-01-08 19:42:23

#Version: 2.2.20231116
#Station: R4.6S_Anadyr
#Location: 177.4865 lon 64.73178 lat
#TLE: 1 49008U 21062A   26008.31124991 -.00000020  00000+0  11209-4 0  9997
#TLE: 2 49008  98.7482  13.5177 0001702 150.1462 209.9812 14.19884205233892

#Time	Az	El	Level	Level2	SNR	BER	BlckErr	Temp	State	Recorded	gain1	gain2
2026-01-08 19:42:23.12	22.20	0.18	-47.9	-57.7	3.4	8.40e-01	0	32	0	0	60	27836
2026-01-08 19:42:24.12	22.19	0.24	-48.0	-59.3	3.6	8.45e-01	0	32	104	0	60	33238
2026-01-08 19:42:25.13	22.17	0.30	-48.0	-59.3	3.6	8.45e-01	0	32	104	0	60	33193
2026-01-08 19:42:26.14	22.15	0.36	-48.1	-59.3	3.6	8.46e-01	0	32	104	0	60	33324
2026-01-08 19:42:27.15	22.14	0.42	-48.1	-59.3	3.6	8.46e-01	0	32	104	0	60	33253
2026-01-08 19:42:28.16	22.12	0.48	-48.1	-59.3	3.6	8.44e-01	0	32	104	0	60	33374
2026-01-08 19:42:29.17	22.11	0.54	-47.9	-59.3	3.6	8.45e-01	0	32	104	0	60	33261
2026-01-08 19:42:30.18	22.09	0.61	-47.9	-59.1	3.6	8.45e-01	0	32	104	0	60	32571
2026-01-08 19:42:31.19	22.08	0.67	-47.8	-59.0	3.6	8.46e-01	0	32	104	0	60	32219
2026-01-08 19:42:32.20	22.06	0.73	-47.7	-58.9	3.6	8.46e-01	0	32	104	0	60	31954
2026-01-08 19:42:33.21	22.04	0.79	-47.5	-58.7	3.6	8.46e-01	0	32	104	0	60	31118
2026-01-08 19:42:34.22	22.03	0.85	-47.3	-58.6	3.6	8.45e-01	0	32	104	0	60	30607
2026-01-08 19:42:35.23	22.01	0.91	-47.1	-58.3	3.6	8.45e-01	0	32	104	0	60	29645
2026-01-08 19:42:36.24	22.00	0.97	-46.7	-57.9	3.6	8.45e-01	0	32	104	0	60	28372
2026-01-08 19:42:37.25	21.98	1.04	-46.5	-57.6	3.6	8.45e-01	0	32	104	0	60	27447
2026-01-08 19:42:38.26	21.96	1.10	-46.5	-57.6	3.5	8.46e-01	0	32	104	0	60	27444
2026-01-08 19:42:39.26	21.95	1.16	-46.5	-57.6	3.6	8.46e-01	0	33	104	0	60	27547
2026-01-08 19:42:40.28	21.93	1.22	-46.4	-57.6	3.6	8.45e-01	0	32	104	0	60	27438
2026-01-08 19:42:41.28	21.91	1.28	-46.4	-57.5	3.6	8.45e-01	0	32	104	0	60	27100
2026-01-08 19:42:42.29	21.90	1.35	-46.4	-57.4	3.6	8.46e-01	0	32	104	0	60	26688
2026-01-08 19:42:43.30	21.88	1.41	-46.4	-57.2	3.6	8.44e-01	0	33	104	0	60	26160
2026-01-08 19:42:44.31	21.86	1.47	-46.4	-57.1	3.6	8.45e-01	0	32	104	0	60	25779
2026-01-08 19:42:45.32	21.85	1.53	-46.4	-56.9	3.6	8.45e-01	0	33	104	0	60	25235
2026-01-08 19:42:46.33	21.83	1.60	-46.3	-56.7	3.6	8.45e-01	0	33	104	0	60	24782
2026-01-08 19:42:47.34	21.81	1.66	-46.3	-56.9	3.6	8.45e-01	0	33	104	0	60	25166
2026-01-08 19:42:48.35	21.79	1.72	-46.4	-57.0	3.6	8.45e-01	0	33	104	0	60	25661
2026-01-08 19:42:49.36	21.78	1.79	-46.4	-57.2	3.6	8.46e-01	0	33	104	0	60	26059
2026-01-08 19:42:50.37	21.76	1.85	-46.4	-57.4	3.6	8.44e-01	0	33	104	0	60	26791
2026-01-08 19:42:51.38	21.74	1.91	-46.4	-57.6	3.6	8.45e-01	0	33	104	0	60	27385
2026-01-08 19:42:52.39	21.72	1.98	-46.4	-57.6	3.6	8.45e-01	0	33	104	0	60	27559
2026-01-08 19:42:53.40	21.71	2.04	-46.4	-57.6	3.6	8.46e-01	0	33	104	0	60	27448
2026-01-08 19:42:54.41	21.69	2.10	-46.4	-57.5	3.6	8.45e-01	0	33	104	0	60	27088
2026-01-08 19:42:55.42	21.67	2.17	-46.4	-57.2	3.6	8.46e-01	0	33	104	0	60	26256
2026-01-08 19:42:56.43	21.65	2.23	-46.4	-57.0	3.6	8.45e-01	0	33	104	0	60	25628
2026-01-08 19:42:57.44	21.63	2.30	-46.3	-56.7	3.6	8.46e-01	0	33	104	0	60	24854
2026-01-08 19:42:58.45	21.62	2.36	-46.3	-56.3	3.6	8.46e-01	0	33	104	0	60	23560
2026-01-08 19:42:59.46	21.60	2.43	-46.2	-55.9	3.6	8.45e-01	0	33	104	0	60	22483
2026-01-08 19:43:00.47	21.58	2.49	-46.2	-55.6	3.6	8.45e-01	0	33	104	0	60	21662
2026-01-08 19:43:01.48	21.56	2.56	-46.2	-55.3	3.6	8.45e-01	0	33	104	0	60	20993
2026-01-08 19:43:02.49	21.54	2.62	-46.2	-55.3	3.7	8.43e-01	0	33	104	0	60	20943
2026-01-08 19:43:03.50	21.52	2.69	-46.2	-55.6	3.6	8.44e-01	0	33	104	0	60	21667
2026-01-08 19:43:04.51	21.50	2.75	-46.3	-56.3	3.6	8.45e-01	0	33	104	0	60	23664
2026-01-08 19:43:05.52	21.49	2.82	-46.2	-56.0	3.5	8.45e-01	0	33	104	0	60	22733
2026-01-08 19:43:06.53	21.47	2.88	-45.9	-54.0	4.1	8.43e-01	0	33	104	0	60	18069
2026-01-08 19:43:07.54	21.45	2.95	-45.4	-50.2	5.5	7.30e-01	0	33	0	0	60	11698
2026-01-08 19:43:08.55	21.43	3.02	-44.5	-48.1	7.8	1.17e-01	0	33	0	6291456	60	9133
2026-01-08 19:43:09.56	21.41	3.08	-43.4	-46.1	10.2	8.02e-03	0	33	0	13631488	60	7265
2026-01-08 19:43:10.57	21.39	3.15	-42.2	-44.3	12.1	6.35e-04	0	33	0	20971520	58	6668
2026-01-08 19:43:11.58	21.37	3.22	-41.4	-43.1	13.6	2.28e-05	0	33	0	28311552	56	6537
2026-01-08 19:43:12.59	21.35	3.28	-40.3	-41.8	14.9	0.00e+00	0	33	0	35651584	54	6316
2026-01-08 19:43:13.59	21.33	3.35	-39.5	-40.8	15.8	0.00e+00	0	33	0	42991616	52	6311
2026-01-08 19:43:14.60	21.31	3.42	-39.3	-40.5	16.1	0.00e+00	0	33	0	50331648	52	6078
2026-01-08 19:43:15.61	21.29	3.48	-39.5	-40.8	15.8	0.00e+00	0	33	0	57671680	52	6290
2026-01-08 19:43:16.62	21.27	3.55	-39.5	-40.8	15.8	0.00e+00	0	33	0	65011712	52	6279
2026-01-08 19:43:17.63	21.25	3.62	-40.5	-42.1	14.5	0.00e+00	0	33	0	72351744	52	7278
2026-01-08 19:43:18.64	21.23	3.68	-45.5	-50.9	3.6	3.01e-01	0	33	0	78643200	60	12740
2026-01-08 19:43:19.65	21.21	3.75	-45.0	-49.7	5.1	8.35e-01	0	33	104	78643200	60	11070
2026-01-08 19:43:20.66	21.19	3.82	-43.2	-46.0	4.8	0.00e+00	0	33	0	78643200	52	11465
2026-01-08 19:43:21.67	21.17	3.89	-36.7	-37.5	6.2	8.17e-01	0	33	104	78643200	54	3826
2026-01-08 19:43:22.68	21.15	3.96	-46.2	-55.0	3.5	0.00e+00	0	33	0	78643200	60	20300
2026-01-08 19:43:23.69	21.13	4.03	-35.3	-36.0	19.7	2.67e-03	0	33	104	78643200	48	4554
2026-01-08 19:43:24.70	21.10	4.09	-33.4	-33.9	22.6	0.00e+00	0	33	0	84934656	40	5689
2026-01-08 19:43:25.71	21.08	4.16	-33.5	-34.1	22.6	0.00e+00	0	33	0	92274688	40	5770
2026-01-08 19:43:26.72	21.06	4.23	-33.5	-34.1	22.5	0.00e+00	0	33	0	99614720	40	5798
2026-01-08 19:43:27.72	21.04	4.30	-33.4	-34.0	22.6	0.00e+00	0	33	0	106954752	40	5719
2026-01-08 19:43:28.73	21.02	4.37	-33.3	-33.9	22.7	0.00e+00	0	33	0	114294784	40	5656
2026-01-08 19:43:29.74	21.00	4.44	-33.2	-33.8	22.8	0.00e+00	0	33	0	121634816	40	5592
2026-01-08 19:43:30.75	20.97	4.51	-33.3	-33.9	22.8	0.00e+00	0	33	0	128974848	40	5644
2026-01-08 19:43:31.76	20.95	4.58	-33.3	-33.9	22.7	0.00e+00	0	33	0	135266304	40	5634
2026-01-08 19:43:32.77	20.93	4.65	-33.3	-33.9	22.8	0.00e+00	0	33	0	142606336	40	5674
2026-01-08 19:43:33.78	20.91	4.72	-33.2	-33.7	22.8	0.00e+00	0	33	0	150994944	40	5564
2026-01-08 19:43:34.79	20.89	4.79	-33.0	-33.6	23.1	0.00e+00	0	33	0	157286400	40	5470
2026-01-08 19:43:35.80	20.86	4.86	-33.0	-33.6	23.1	0.00e+00	0	33	0	164626432	40	5480
2026-01-08 19:43:36.81	20.84	4.93	-33.2	-33.8	23.0	0.00e+00	0	33	0	171966464	40	5577
2026-01-08 19:43:37.81	20.82	5.00	-33.2	-33.8	23.0	0.00e+00	0	33	0	179306496	40	5603
2026-01-08 19:43:38.83	20.80	5.07	-33.1	-33.6	23.0	0.00e+00	0	33	0	186646528	40	5495
2026-01-08 19:43:39.83	20.77	5.14	-33.0	-33.6	23.1	0.00e+00	0	33	0	193986560	40	5447
2026-01-08 19:43:40.84	20.75	5.22	-33.0	-33.5	23.1	0.00e+00	0	33	0	201326592	40	5429
2026-01-08 19:43:41.85	20.73	5.29	-33.0	-33.6	23.1	0.00e+00	0	33	0	208666624	40	5448
2026-01-08 19:43:42.86	20.70	5.36	-32.9	-33.5	23.2	0.00e+00	0	33	0	216006656	40	5397
2026-01-08 19:43:43.87	20.68	5.43	-33.0	-33.6	23.1	0.00e+00	0	33	0	223346688	40	5481
2026-01-08 19:43:44.88	20.66	5.50	-32.8	-33.4	23.3	0.00e+00	0	33	0	230686720	40	5343
2026-01-08 19:43:45.88	20.63	5.57	-32.9	-33.5	23.3	0.00e+00	0	33	0	238026752	40	5390
2026-01-08 19:43:46.89	20.61	5.65	-32.8	-33.4	23.4	0.00e+00	0	33	0	245366784	38	5983
2026-01-08 19:43:47.90	20.58	5.72	-32.8	-33.4	23.4	0.00e+00	0	33	0	252706816	38	6004
2026-01-08 19:43:48.91	20.56	5.79	-32.8	-33.3	23.4	0.00e+00	0	33	0	258998272	38	5964
2026-01-08 19:43:49.92	20.54	5.87	-32.7	-33.2	23.6	0.00e+00	0	33	0	266338304	38	5885
2026-01-08 19:43:50.93	20.51	5.94	-32.8	-33.4	23.4	0.00e+00	0	33	0	274726912	38	5974
2026-01-08 19:43:51.94	20.49	6.01	-32.7	-33.3	23.6	0.00e+00	0	33	0	281018368	38	5905
2026-01-08 19:43:52.95	20.46	6.09	-32.7	-33.2	23.5	0.00e+00	0	33	0	288358400	38	5896
2026-01-08 19:43:53.96	20.44	6.16	-32.8	-33.3	23.6	0.00e+00	0	33	0	295698432	38	5933
2026-01-08 19:43:54.97	20.41	6.24	-32.7	-33.2	23.6	0.00e+00	0	33	0	303038464	38	5867
2026-01-08 19:43:55.98	20.39	6.31	-32.6	-33.2	23.6	0.00e+00	0	33	0	310378496	38	5847
2026-01-08 19:43:56.99	20.36	6.38	-32.7	-33.3	23.6	0.00e+00	0	33	0	317718528	38	5904
2026-01-08 19:43:58.00	20.34	6.46	-32.7	-33.2	23.6	0.00e+00	0	33	0	325058560	38	5892
2026-01-08 19:43:59.01	20.31	6.53	-32.8	-33.3	23.6	0.00e+00	0	33	0	332398592	38	5936
2026-01-08 19:44:00.02	20.28	6.61	-32.7	-33.3	23.6	0.00e+00	0	33	0	339738624	38	5915
2026-01-08 19:44:01.03	20.26	6.69	-32.8	-33.4	23.5	0.00e+00	0	33	0	347078656	38	5981
2026-01-08 19:44:02.04	20.23	6.76	-32.9	-33.5	23.4	0.00e+00	0	33	0	354418688	38	6039
2026-01-08 19:44:03.05	20.21	6.84	-32.6	-33.2	23.7	0.00e+00	0	33	0	361758720	38	5840
2026-01-08 19:44:04.06	20.18	6.91	-32.8	-33.4	23.6	0.00e+00	0	33	0	369098752	38	5966
2026-01-08 19:44:05.07	20.15	6.99	-32.4	-32.9	24.0	0.00e+00	0	33	0	376438784	38	5695
2026-01-08 19:44:06.08	20.12	7.07	-32.4	-33.0	24.0	0.00e+00	0	33	0	383778816	38	5703
2026-01-08 19:44:07.09	20.10	7.14	-32.7	-33.2	23.7	0.00e+00	0	33	0	391118848	38	5862
2026-01-08 19:44:08.09	20.07	7.22	-32.5	-33.0	23.9	0.00e+00	0	33	0	398458880	38	5751
2026-01-08 19:44:09.10	20.04	7.30	-32.3	-32.9	24.0	0.00e+00	0	33	0	405798912	38	5650
2026-01-08 19:44:10.11	20.02	7.37	-32.3	-32.9	24.0	0.00e+00	0	33	0	412090368	38	5634
2026-01-08 19:44:11.12	19.99	7.45	-32.4	-32.9	24.0	0.00e+00	0	33	0	419430400	38	5693
2026-01-08 19:44:12.13	19.96	7.53	-32.4	-32.9	23.9	0.00e+00	0	33	0	427819008	38	5691
2026-01-08 19:44:13.14	19.93	7.61	-32.5	-33.0	24.0	0.00e+00	0	33	0	434110464	38	5747
2026-01-08 19:44:14.15	19.90	7.69	-32.5	-33.0	24.0	0.00e+00	0	33	0	441450496	38	5729
2026-01-08 19:44:15.16	19.88	7.77	-32.5	-33.0	23.8	0.00e+00	0	33	0	448790528	38	5723
2026-01-08 19:44:16.17	19.85	7.84	-32.3	-32.8	24.1	0.00e+00	0	33	0	456130560	38	5605
2026-01-08 19:44:17.18	19.82	7.92	-32.4	-33.0	24.0	0.00e+00	0	33	0	463470592	38	5723
2026-01-08 19:44:18.19	19.79	8.00	-32.3	-32.8	24.1	0.00e+00	0	33	0	470810624	38	5616
2026-01-08 19:44:19.19	19.76	8.08	-32.2	-32.8	24.2	0.00e+00	0	33	0	478150656	38	5586
2026-01-08 19:44:20.21	19.73	8.16	-32.3	-32.8	24.1	0.00e+00	0	33	0	485490688	38	5607
2026-01-08 19:44:21.21	19.70	8.24	-32.3	-32.8	24.1	0.00e+00	0	33	0	492830720	38	5622
2026-01-08 19:44:22.22	19.67	8.32	-32.2	-32.8	24.2	0.00e+00	0	33	0	500170752	38	5584
2026-01-08 19:44:23.23	19.64	8.40	-32.3	-32.8	24.1	0.00e+00	0	33	0	507510784	38	5608
2026-01-08 19:44:24.24	19.61	8.48	-32.3	-32.9	24.2	0.00e+00	0	33	0	514850816	38	5648
2026-01-08 19:44:25.25	19.58	8.56	-32.1	-32.7	24.3	0.00e+00	0	33	0	522190848	38	5515
2026-01-08 19:44:26.26	19.55	8.65	-32.2	-32.7	24.3	0.00e+00	0	33	0	529530880	38	5525
2026-01-08 19:44:27.27	19.52	8.73	-32.3	-32.8	24.2	0.00e+00	0	33	0	536870912	38	5623
2026-01-08 19:44:28.28	19.49	8.81	-32.1	-32.6	24.3	0.00e+00	0	33	0	544210944	38	5476
2026-01-08 19:44:29.30	19.46	8.89	-32.0	-32.5	24.4	0.00e+00	0	33	0	551550976	38	5417
2026-01-08 19:44:30.30	19.43	8.97	-32.1	-32.7	24.3	0.00e+00	0	33	0	558891008	38	5514
2026-01-08 19:44:31.31	19.40	9.06	-32.0	-32.5	24.5	0.00e+00	0	33	0	565182464	38	5434
2026-01-08 19:44:32.32	19.37	9.14	-32.0	-32.5	24.5	0.00e+00	0	33	0	572522496	38	5427
2026-01-08 19:44:33.33	19.33	9.22	-32.0	-32.5	24.6	0.00e+00	0	33	0	580911104	38	5410
2026-01-08 19:44:34.34	19.30	9.31	-31.9	-32.5	24.6	0.00e+00	0	33	0	587202560	38	5380
2026-01-08 19:44:35.35	19.27	9.39	-31.8	-32.4	24.6	0.00e+00	0	33	0	594542592	38	5326
2026-01-08 19:44:36.36	19.24	9.47	-31.8	-32.4	24.6	0.00e+00	0	33	0	601882624	38	5318
2026-01-08 19:44:37.37	19.20	9.56	-31.8	-32.4	24.6	0.00e+00	0	33	0	609222656	38	5334
2026-01-08 19:44:38.39	19.17	9.64	-31.8	-32.3	24.7	0.00e+00	0	33	0	616562688	36	5937
2026-01-08 19:44:39.39	19.14	9.73	-31.8	-32.3	24.6	0.00e+00	0	33	0	623902720	36	5956
2026-01-08 19:44:40.40	19.11	9.81	-31.8	-32.3	24.7	0.00e+00	0	33	0	631242752	36	5938
2026-01-08 19:44:41.41	19.07	9.90	-31.6	-32.1	24.9	0.00e+00	0	33	0	638582784	36	5806
2026-01-08 19:44:42.42	19.04	9.98	-31.5	-32.1	25.0	0.00e+00	0	33	0	645922816	36	5766
2026-01-08 19:44:43.43	19.00	10.07	-31.6	-32.1	24.8	0.00e+00	0	33	0	653262848	36	5799
2026-01-08 19:44:44.44	18.97	10.16	-31.4	-31.9	25.0	0.00e+00	0	33	0	660602880	36	5649
2026-01-08 19:44:45.45	18.94	10.24	-31.6	-32.1	25.0	0.00e+00	0	33	0	667942912	36	5796
2026-01-08 19:44:46.45	18.90	10.33	-31.5	-32.1	25.1	0.00e+00	0	33	0	675282944	36	5772
2026-01-08 19:44:47.46	18.87	10.41	-31.3	-31.8	25.2	0.00e+00	0	33	0	682622976	36	5616
2026-01-08 19:44:48.47	18.83	10.50	-31.2	-31.7	25.3	0.00e+00	0	33	0	688914432	36	5565
2026-01-08 19:44:49.48	18.80	10.59	-31.2	-31.7	25.3	0.00e+00	0	33	0	697303040	36	5516
2026-01-08 19:44:50.49	18.76	10.68	-31.2	-31.7	25.3	0.00e+00	0	33	0	704643072	36	5540
2026-01-08 19:44:51.50	18.73	10.77	-31.3	-31.8	25.2	0.00e+00	0	33	0	710934528	36	5568
2026-01-08 19:44:52.51	18.69	10.85	-31.3	-31.8	25.3	0.00e+00	0	33	0	718274560	36	5595
2026-01-08 19:44:53.52	18.65	10.94	-31.2	-31.7	25.3	0.00e+00	0	33	0	725614592	36	5518
2026-01-08 19:44:54.53	18.62	11.03	-31.2	-31.8	25.3	0.00e+00	0	33	0	732954624	36	5568
2026-01-08 19:44:55.54	18.58	11.12	-31.1	-31.6	25.4	0.00e+00	0	33	0	740294656	36	5472
2026-01-08 19:44:56.55	18.54	11.21	-31.2	-31.7	25.3	0.00e+00	0	33	0	747634688	36	5531
2026-01-08 19:44:57.56	18.51	11.30	-31.0	-31.5	25.6	0.00e+00	0	33	0	754974720	36	5389
2026-01-08 19:44:58.57	18.47	11.39	-31.1	-31.6	25.4	0.00e+00	0	33	0	762314752	36	5477
2026-01-08 19:44:59.58	18.43	11.48	-31.0	-31.5	25.5	0.00e+00	0	33	0	769654784	36	5396
2026-01-08 19:45:00.59	18.39	11.58	-30.8	-31.3	25.6	0.00e+00	0	33	0	776994816	36	5305
2026-01-08 19:45:01.60	18.35	11.67	-31.0	-31.5	25.6	0.00e+00	0	33	0	784334848	36	5436
2026-01-08 19:45:02.61	18.32	11.76	-30.8	-31.3	25.8	0.00e+00	0	33	0	791674880	36	5303
2026-01-08 19:45:03.62	18.28	11.85	-30.8	-31.3	25.6	0.00e+00	0	33	0	799014912	34	5947
2026-01-08 19:45:04.63	18.24	11.94	-30.9	-31.4	25.6	0.00e+00	0	33	0	806354944	34	6016
2026-01-08 19:45:05.64	18.20	12.04	-30.7	-31.2	25.8	0.00e+00	0	33	0	813694976	34	5886
2026-01-08 19:45:06.65	18.16	12.13	-30.6	-31.1	25.9	0.00e+00	0	33	0	821035008	34	5789
2026-01-08 19:45:07.66	18.12	12.22	-30.8	-31.3	25.6	0.00e+00	0	33	0	828375040	34	5943
2026-01-08 19:45:08.67	18.08	12.32	-30.7	-31.2	25.8	0.00e+00	0	33	0	835715072	34	5893
2026-01-08 19:45:09.68	18.04	12.41	-30.6	-31.1	25.9	0.00e+00	0	33	0	843055104	34	5824
2026-01-08 19:45:10.69	18.00	12.51	-30.6	-31.1	25.9	0.00e+00	0	33	0	850395136	34	5800
2026-01-08 19:45:11.70	17.96	12.60	-30.6	-31.1	25.9	0.00e+00	0	33	0	857735168	34	5764
2026-01-08 19:45:12.71	17.91	12.70	-30.5	-31.0	25.9	0.00e+00	0	33	0	864026624	34	5732
2026-01-08 19:45:13.72	17.87	12.79	-30.8	-31.3	25.7	0.00e+00	0	33	0	871366656	34	5910
2026-01-08 19:45:14.73	17.83	12.89	-30.3	-30.8	26.2	0.00e+00	0	33	0	879755264	34	5595
2026-01-08 19:45:15.74	17.79	12.98	-30.4	-30.9	26.1	0.00e+00	0	33	0	886046720	34	5657
2026-01-08 19:45:16.75	17.75	13.08	-30.5	-31.0	26.0	0.00e+00	0	33	0	893386752	34	5697
2026-01-08 19:45:17.76	17.70	13.18	-30.4	-30.9	26.0	0.00e+00	0	33	0	900726784	34	5673
2026-01-08 19:45:18.77	17.66	13.27	-30.6	-31.1	25.9	0.00e+00	0	33	0	908066816	34	5784
2026-01-08 19:45:19.78	17.62	13.37	-30.3	-30.8	26.2	0.00e+00	0	33	0	915406848	34	5587
2026-01-08 19:45:20.79	17.57	13.47	-30.3	-30.8	26.2	0.00e+00	0	33	0	922746880	34	5591
2026-01-08 19:45:21.80	17.53	13.57	-30.4	-30.9	26.1	0.00e+00	0	33	0	930086912	34	5690
2026-01-08 19:45:22.81	17.48	13.67	-30.4	-30.9	26.1	0.00e+00	0	33	0	937426944	34	5656
2026-01-08 19:45:23.82	17.44	13.77	-30.2	-30.7	26.2	0.00e+00	0	33	0	944766976	34	5560
2026-01-08 19:45:24.83	17.39	13.87	-30.3	-30.8	26.2	0.00e+00	0	33	0	952107008	34	5587
2026-01-08 19:45:25.84	17.35	13.97	-30.4	-30.9	26.1	0.00e+00	0	33	0	959447040	34	5654
2026-01-08 19:45:26.85	17.30	14.07	-30.6	-31.1	26.0	0.00e+00	0	33	0	966787072	34	5764
2026-01-08 19:45:27.86	17.26	14.17	-30.2	-30.7	26.3	0.00e+00	0	33	0	974127104	34	5542
2026-01-08 19:45:28.88	17.21	14.27	-30.2	-30.7	26.3	0.00e+00	0	33	0	981467136	34	5538
2026-01-08 19:45:29.89	17.16	14.37	-30.1	-30.6	26.4	0.00e+00	0	33	0	988807168	34	5460
2026-01-08 19:45:30.89	17.12	14.47	-30.1	-30.6	26.3	0.00e+00	0	33	0	996147200	34	5487
2026-01-08 19:45:31.90	17.07	14.58	-30.1	-30.6	26.4	0.00e+00	0	33	0	1003487232	34	5478
2026-01-08 19:45:32.91	17.02	14.68	-30.1	-30.6	26.3	0.00e+00	0	33	0	1009778688	34	5483
2026-01-08 19:45:33.92	16.97	14.78	-30.3	-30.8	26.3	0.00e+00	0	33	0	1017118720	34	5594
2026-01-08 19:45:34.93	16.92	14.89	-30.3	-30.8	26.3	0.00e+00	0	33	0	1025507328	34	5577
2026-01-08 19:45:35.94	16.87	14.99	-30.0	-30.5	26.5	0.00e+00	0	33	0	1031798784	34	5387
2026-01-08 19:45:36.95	16.83	15.09	-30.1	-30.6	26.4	0.00e+00	0	33	0	1039138816	34	5475
2026-01-08 19:45:37.96	16.78	15.20	-30.2	-30.7	26.3	0.00e+00	0	33	0	1046478848	34	5537
2026-01-08 19:45:38.97	16.73	15.31	-30.1	-30.6	26.4	0.00e+00	0	33	0	1053818880	34	5488
2026-01-08 19:45:39.98	16.68	15.41	-30.1	-30.6	26.4	0.00e+00	0	33	0	1061158912	34	5487
2026-01-08 19:45:40.99	16.62	15.52	-29.9	-30.4	26.5	0.00e+00	0	33	0	1068498944	34	5369
2026-01-08 19:45:42.00	16.57	15.62	-30.2	-30.7	26.3	0.00e+00	0	33	0	1075838976	34	5552
2026-01-08 19:45:43.01	16.52	15.73	-30.1	-30.6	26.4	0.00e+00	0	33	0	1083179008	34	5496
2026-01-08 19:45:44.02	16.47	15.84	-30.1	-30.6	26.4	0.00e+00	0	33	0	1090519040	34	5479
2026-01-08 19:45:45.03	16.42	15.95	-29.9	-30.4	26.6	0.00e+00	0	33	0	1097859072	34	5344
2026-01-08 19:45:46.04	16.36	16.06	-30.0	-30.5	26.5	0.00e+00	0	33	0	1105199104	34	5381
2026-01-08 19:45:47.05	16.31	16.17	-30.0	-30.4	26.6	0.00e+00	0	33	0	1112539136	34	5371
2026-01-08 19:45:48.05	16.26	16.27	-30.1	-30.6	26.5	0.00e+00	0	33	0	1119879168	34	5481
2026-01-08 19:45:49.06	16.20	16.38	-30.1	-30.6	26.5	0.00e+00	0	33	0	1127219200	34	5471
2026-01-08 19:45:50.07	16.15	16.49	-29.8	-30.3	26.7	0.00e+00	0	33	0	1134559232	32	5906
2026-01-08 19:45:51.08	16.09	16.60	-29.8	-30.2	26.8	0.00e+00	0	33	0	1141899264	32	5885
2026-01-08 19:45:52.09	16.04	16.72	-29.8	-30.3	26.7	0.00e+00	0	33	0	1149239296	32	5945
2026-01-08 19:45:53.10	15.98	16.83	-29.7	-30.1	26.9	0.00e+00	0	33	0	1156579328	32	5818
2026-01-08 19:45:54.11	15.93	16.94	-29.6	-30.0	26.8	0.00e+00	0	33	0	1162870784	32	5758
2026-01-08 19:45:55.12	15.87	17.05	-29.6	-30.1	26.9	0.00e+00	0	33	0	1170210816	32	5801
2026-01-08 19:45:56.13	15.81	17.17	-29.6	-30.1	26.9	0.00e+00	0	33	0	1178599424	32	5815
2026-01-08 19:45:57.14	15.75	17.28	-29.3	-29.7	27.1	0.00e+00	0	33	0	1184890880	32	5551
2026-01-08 19:45:58.15	15.70	17.39	-29.3	-29.8	27.1	0.00e+00	0	33	0	1192230912	32	5583
2026-01-08 19:45:59.15	15.64	17.51	-29.4	-29.9	27.1	0.00e+00	0	33	0	1199570944	32	5643
2026-01-08 19:46:00.16	15.58	17.62	-29.4	-29.8	27.0	0.00e+00	0	33	0	1206910976	32	5626
2026-01-08 19:46:01.17	15.52	17.74	-29.3	-29.8	27.1	0.00e+00	0	33	0	1214251008	32	5599
2026-01-08 19:46:02.18	15.46	17.86	-29.2	-29.7	27.3	0.00e+00	0	33	0	1221591040	32	5512
2026-01-08 19:46:03.19	15.40	17.97	-29.3	-29.7	27.2	0.00e+00	0	33	0	1228931072	32	5547
2026-01-08 19:46:04.20	15.34	18.09	-29.2	-29.6	27.2	0.00e+00	0	33	0	1236271104	32	5500
2026-01-08 19:46:05.21	15.28	18.21	-29.3	-29.8	27.2	0.00e+00	0	33	0	1243611136	32	5576
2026-01-08 19:46:06.21	15.21	18.33	-29.3	-29.8	27.1	0.00e+00	0	33	0	1250951168	32	5588
2026-01-08 19:46:07.23	15.15	18.45	-29.2	-29.7	27.2	0.00e+00	0	33	0	1258291200	32	5539
2026-01-08 19:46:08.23	15.09	18.56	-29.4	-29.8	27.1	0.00e+00	0	33	0	1265631232	32	5627
2026-01-08 19:46:09.24	15.03	18.68	-29.4	-29.8	27.0	0.00e+00	0	33	0	1272971264	32	5627
2026-01-08 19:46:10.25	14.96	18.80	-29.5	-29.9	27.1	0.00e+00	0	33	0	1280311296	32	5686
2026-01-08 19:46:11.26	14.90	18.93	-29.8	-30.2	26.8	0.00e+00	0	33	0	1286602752	32	5888
2026-01-08 19:46:12.27	14.83	19.05	-29.2	-29.7	27.3	0.00e+00	0	33	0	1293942784	32	5529
2026-01-08 19:46:13.28	14.77	19.17	-29.3	-29.8	27.1	0.00e+00	0	33	0	1302331392	32	5567
2026-01-08 19:46:14.29	14.70	19.29	-29.7	-30.2	27.0	0.00e+00	0	33	0	1308622848	32	5842
2026-01-08 19:46:15.30	14.63	19.42	-29.4	-29.9	27.1	0.00e+00	0	33	0	1315962880	32	5657
2026-01-08 19:46:16.31	14.56	19.54	-29.2	-29.6	27.2	0.00e+00	0	33	0	1323302912	32	5490
2026-01-08 19:46:17.32	14.50	19.67	-29.3	-29.8	27.2	0.00e+00	0	33	0	1330642944	32	5584
2026-01-08 19:46:18.32	14.43	19.79	-29.2	-29.7	27.2	0.00e+00	0	33	0	1337982976	32	5515
2026-01-08 19:46:19.33	14.36	19.91	-29.2	-29.7	27.3	0.00e+00	0	33	0	1345323008	32	5531
2026-01-08 19:46:20.34	14.29	20.04	-29.3	-29.7	27.3	0.00e+00	0	33	0	1352663040	32	5553
2026-01-08 19:46:21.35	14.22	20.17	-29.3	-29.8	27.1	0.00e+00	0	33	0	1360003072	32	5619
2026-01-08 19:46:22.36	14.15	20.30	-29.1	-29.6	27.3	0.00e+00	0	33	0	1367343104	32	5476
2026-01-08 19:46:23.37	14.08	20.42	-29.3	-29.8	27.2	0.00e+00	0	33	0	1374683136	32	5581
2026-01-08 19:46:24.38	14.00	20.55	-29.3	-29.8	27.3	0.00e+00	0	33	0	1382023168	32	5567
2026-01-08 19:46:25.39	13.93	20.68	-29.3	-29.8	27.2	0.00e+00	0	33	0	1389363200	32	5606
2026-01-08 19:46:26.40	13.86	20.81	-29.2	-29.7	27.3	0.00e+00	0	33	0	1396703232	32	5533
2026-01-08 19:46:27.41	13.78	20.94	-29.3	-29.7	27.3	0.00e+00	0	33	0	1404043264	32	5553
2026-01-08 19:46:28.42	13.71	21.07	-29.1	-29.6	27.4	0.00e+00	0	33	0	1411383296	32	5441
2026-01-08 19:46:29.43	13.63	21.21	-29.3	-29.8	27.4	0.00e+00	0	33	0	1418723328	32	5577
2026-01-08 19:46:30.44	13.55	21.34	-29.1	-29.6	27.4	0.00e+00	0	33	0	1426063360	32	5452
2026-01-08 19:46:31.45	13.48	21.47	-29.1	-29.6	27.3	0.00e+00	0	33	0	1433403392	32	5463
2026-01-08 19:46:32.46	13.40	21.61	-28.8	-29.3	27.6	0.00e+00	0	33	0	1439694848	32	5292
2026-01-08 19:46:33.47	13.32	21.74	-28.9	-29.3	27.6	0.00e+00	0	33	0	1447034880	32	5299
2026-01-08 19:46:34.48	13.24	21.87	-28.7	-29.2	27.6	0.00e+00	0	33	0	1454374912	30	5871
2026-01-08 19:46:35.48	13.16	22.01	-28.7	-29.2	27.7	0.00e+00	0	33	0	1461714944	30	5849
2026-01-08 19:46:36.49	13.08	22.15	-28.6	-29.1	27.8	0.00e+00	0	33	0	1469054976	30	5766
2026-01-08 19:46:37.50	13.00	22.28	-28.7	-29.2	27.7	0.00e+00	0	33	0	1476395008	30	5835
2026-01-08 19:46:38.51	12.92	22.42	-28.7	-29.2	27.7	0.00e+00	0	33	0	1483735040	30	5878
2026-01-08 19:46:39.52	12.84	22.56	-28.6	-29.0	27.8	0.00e+00	0	33	0	1491075072	30	5747
2026-01-08 19:46:40.53	12.75	22.70	-28.5	-28.9	27.9	0.00e+00	0	33	0	1498415104	30	5672
2026-01-08 19:46:41.54	12.67	22.84	-28.4	-28.9	27.9	0.00e+00	0	33	0	1505755136	30	5651
2026-01-08 19:46:42.55	12.58	22.98	-28.4	-28.9	28.0	0.00e+00	0	33	0	1513095168	30	5647
2026-01-08 19:46:43.56	12.50	23.12	-28.5	-28.9	27.9	0.00e+00	0	33	0	1520435200	30	5679
2026-01-08 19:46:44.57	12.41	23.26	-28.5	-28.9	27.9	0.00e+00	0	33	0	1527775232	30	5682
2026-01-08 19:46:45.58	12.32	23.40	-28.4	-28.8	27.9	0.00e+00	0	33	0	1535115264	30	5611
2026-01-08 19:46:46.59	12.23	23.55	-28.3	-28.8	28.0	0.00e+00	0	33	0	1542455296	30	5597
2026-01-08 19:46:47.60	12.14	23.69	-28.3	-28.8	28.1	0.00e+00	0	33	0	1549795328	30	5593
2026-01-08 19:46:48.61	12.05	23.84	-28.4	-28.9	28.0	0.00e+00	0	33	0	1557135360	30	5640
2026-01-08 19:46:49.62	11.96	23.98	-28.2	-28.6	28.2	0.00e+00	0	33	0	1564475392	30	5484
2026-01-08 19:46:50.63	11.87	24.13	-28.1	-28.6	28.2	0.00e+00	0	33	0	1571815424	30	5448
2026-01-08 19:46:51.64	11.78	24.28	-28.1	-28.5	28.2	0.00e+00	0	33	0	1579155456	30	5425
2026-01-08 19:46:52.65	11.68	24.42	-28.2	-28.7	28.0	0.00e+00	0	33	0	1586495488	30	5522
2026-01-08 19:46:53.66	11.59	24.57	-28.2	-28.7	28.1	0.00e+00	0	33	0	1592786944	30	5508
2026-01-08 19:46:54.66	11.49	24.72	-28.3	-28.8	28.0	0.00e+00	0	33	0	1600126976	30	5571
2026-01-08 19:46:55.67	11.40	24.87	-28.2	-28.7	28.0	0.00e+00	0	33	0	1607467008	30	5536
2026-01-08 19:46:56.69	11.30	25.02	-28.2	-28.7	28.1	0.00e+00	0	33	0	1614807040	30	5535
2026-01-08 19:46:57.70	11.20	25.17	-28.3	-28.7	28.1	0.00e+00	0	33	0	1622147072	30	5562
2026-01-08 19:46:58.70	11.10	25.32	-28.2	-28.7	28.2	0.00e+00	0	33	0	1629487104	30	5521
2026-01-08 19:46:59.71	11.00	25.48	-28.2	-28.7	28.1	0.00e+00	0	33	0	1636827136	30	5507
2026-01-08 19:47:00.72	10.90	25.63	-28.2	-28.7	28.0	0.00e+00	0	33	0	1644167168	30	5532
2026-01-08 19:47:01.73	10.80	25.79	-28.3	-28.7	28.2	0.00e+00	0	33	0	1651507200	30	5551
2026-01-08 19:47:02.74	10.69	25.94	-28.1	-28.6	28.2	0.00e+00	0	33	0	1658847232	30	5466
2026-01-08 19:47:03.75	10.59	26.10	-28.2	-28.7	28.2	0.00e+00	0	33	0	1666187264	30	5526
2026-01-08 19:47:04.76	10.48	26.26	-28.1	-28.6	28.2	0.00e+00	0	33	0	1673527296	30	5443
2026-01-08 19:47:05.77	10.37	26.41	-28.1	-28.6	28.2	0.00e+00	0	33	0	1680867328	30	5478
2026-01-08 19:47:06.78	10.27	26.57	-28.3	-28.8	28.1	0.00e+00	0	33	0	1688207360	30	5592
2026-01-08 19:47:07.79	10.16	26.73	-28.2	-28.7	28.2	0.00e+00	0	33	0	1695547392	30	5532
2026-01-08 19:47:08.80	10.05	26.89	-28.3	-28.8	28.1	0.00e+00	0	33	0	1702887424	30	5579
2026-01-08 19:47:09.81	9.94	27.05	-28.2	-28.7	28.2	0.00e+00	0	33	0	1710227456	30	5535
2026-01-08 19:47:10.82	9.82	27.22	-28.2	-28.6	28.2	0.00e+00	0	33	0	1716518912	30	5493
2026-01-08 19:47:11.83	9.71	27.38	-28.2	-28.7	28.3	0.00e+00	0	33	0	1724907520	30	5507
2026-01-08 19:47:12.84	9.59	27.54	-28.1	-28.6	28.3	0.00e+00	0	33	0	1732247552	30	5467
2026-01-08 19:47:13.85	9.48	27.71	-28.2	-28.7	28.2	0.00e+00	0	33	0	1738539008	30	5535
2026-01-08 19:47:14.86	9.36	27.87	-28.5	-28.9	28.1	0.00e+00	0	33	0	1745879040	30	5673
2026-01-08 19:47:15.87	9.24	28.04	-28.5	-28.9	28.0	0.00e+00	0	33	0	1753219072	30	5689
2026-01-08 19:47:16.88	9.12	28.21	-28.5	-28.9	27.9	0.00e+00	0	33	0	1760559104	30	5680
2026-01-08 19:47:17.89	9.00	28.37	-28.4	-28.9	28.1	0.00e+00	0	33	0	1767899136	30	5671
2026-01-08 19:47:18.90	8.88	28.54	-28.3	-28.8	28.2	0.00e+00	0	33	0	1775239168	30	5587
2026-01-08 19:47:19.91	8.75	28.71	-28.3	-28.8	28.1	0.00e+00	0	33	0	1782579200	30	5591
2026-01-08 19:47:20.92	8.63	28.88	-28.5	-28.9	28.0	0.00e+00	0	33	0	1789919232	30	5672
2026-01-08 19:47:21.93	8.50	29.05	-28.7	-29.2	27.9	0.00e+00	0	33	0	1797259264	30	5847
2026-01-08 19:47:22.94	8.37	29.23	-28.3	-28.8	28.2	0.00e+00	0	33	0	1804599296	30	5573
2026-01-08 19:47:23.95	8.24	29.40	-28.3	-28.8	28.1	0.00e+00	0	33	0	1811939328	30	5576
2026-01-08 19:47:24.96	8.11	29.57	-28.4	-28.8	28.1	0.00e+00	0	33	0	1819279360	30	5628
2026-01-08 19:47:25.97	7.98	29.75	-28.2	-28.6	28.1	0.00e+00	0	33	0	1826619392	30	5493
2026-01-08 19:47:26.98	7.85	29.93	-28.0	-28.5	28.3	0.00e+00	0	33	0	1833959424	28	6068
2026-01-08 19:47:27.99	7.71	30.10	-27.9	-28.3	28.4	0.00e+00	0	33	0	1841299456	28	5958
2026-01-08 19:47:29.00	7.57	30.28	-27.9	-28.4	28.4	0.00e+00	0	33	0	1848639488	28	5967
2026-01-08 19:47:30.01	7.43	30.46	-27.7	-28.1	28.6	0.00e+00	0	33	0	1855979520	28	5804
2026-01-08 19:47:31.01	7.29	30.64	-27.6	-28.1	28.6	0.00e+00	0	33	0	1863319552	28	5767
2026-01-08 19:47:32.02	7.15	30.82	-27.4	-27.8	28.8	0.00e+00	0	33	0	1869611008	28	5620
2026-01-08 19:47:33.03	7.01	31.00	-27.5	-28.0	28.7	0.00e+00	0	33	0	1877999616	28	5725
2026-01-08 19:47:34.04	6.86	31.18	-27.5	-28.0	28.6	0.00e+00	0	33	0	1885339648	28	5714
2026-01-08 19:47:35.05	6.72	31.37	-27.6	-28.0	28.5	0.00e+00	0	33	0	1891631104	28	5758
2026-01-08 19:47:36.06	6.57	31.55	-27.5	-27.9	28.7	0.00e+00	0	33	0	1898971136	28	5684
2026-01-08 19:47:37.07	6.42	31.74	-27.6	-28.1	28.6	0.00e+00	0	33	0	1906311168	28	5762
2026-01-08 19:47:38.08	6.27	31.92	-27.7	-28.1	28.5	0.00e+00	0	33	0	1913651200	28	5828
2026-01-08 19:47:39.09	6.11	32.11	-27.8	-28.3	28.6	0.00e+00	0	33	0	1920991232	28	5897
2026-01-08 19:47:40.09	5.96	32.30	-27.8	-28.2	28.5	0.00e+00	0	33	0	1928331264	28	5878
2026-01-08 19:47:41.10	5.80	32.48	-27.9	-28.3	28.4	0.00e+00	0	33	0	1935671296	28	5956
2026-01-08 19:47:42.11	5.64	32.67	-27.8	-28.2	28.4	0.00e+00	0	33	0	1943011328	28	5894
2026-01-08 19:47:43.12	5.48	32.87	-27.9	-28.4	28.4	0.00e+00	0	33	0	1950351360	28	5977
2026-01-08 19:47:44.13	5.32	33.06	-27.8	-28.3	28.5	0.00e+00	0	33	0	1957691392	28	5929
2026-01-08 19:47:45.14	5.15	33.25	-28.0	-28.4	28.4	0.00e+00	0	33	0	1965031424	28	6030
2026-01-08 19:47:46.15	4.98	33.44	-27.8	-28.3	28.5	0.00e+00	0	33	0	1972371456	28	5910
2026-01-08 19:47:47.16	4.81	33.64	-27.8	-28.3	28.5	0.00e+00	0	33	0	1979711488	28	5898
2026-01-08 19:47:48.17	4.64	33.83	-27.9	-28.4	28.6	0.00e+00	0	33	0	1987051520	28	5967
2026-01-08 19:47:49.18	4.47	34.03	-27.7	-28.2	28.5	0.00e+00	0	33	0	1993342976	28	5856
2026-01-08 19:47:50.19	4.29	34.23	-27.8	-28.2	28.5	0.00e+00	0	33	0	2001731584	28	5866
2026-01-08 19:47:51.20	4.12	34.43	-27.9	-28.3	28.5	0.00e+00	0	33	0	2009071616	28	5951
2026-01-08 19:47:52.21	3.94	34.63	-27.9	-28.3	28.5	0.00e+00	0	33	0	2015363072	28	5963
2026-01-08 19:47:53.22	3.75	34.83	-27.9	-28.3	28.4	0.00e+00	0	33	0	2022703104	28	5948
2026-01-08 19:47:54.22	3.57	35.03	-27.9	-28.4	28.4	0.00e+00	0	33	0	2030043136	28	5979
2026-01-08 19:47:55.23	3.38	35.23	-27.9	-28.4	28.4	0.00e+00	0	33	0	2037383168	28	5979
2026-01-08 19:47:56.25	3.19	35.44	-28.0	-28.5	28.2	0.00e+00	0	33	0	2044723200	28	6036
2026-01-08 19:47:57.26	3.00	35.64	-28.0	-28.5	28.2	0.00e+00	0	33	0	2052063232	28	6059
2026-01-08 19:47:58.26	2.81	35.84	-27.6	-28.0	28.5	0.00e+00	0	33	0	2059403264	28	5745
2026-01-08 19:47:59.27	2.61	36.05	-27.9	-28.3	28.4	0.00e+00	0	33	0	2066743296	28	5952
2026-01-08 19:48:00.29	2.41	36.26	-27.9	-28.4	28.4	0.00e+00	0	33	0	2074083328	28	5977
2026-01-08 19:48:01.30	2.21	36.47	-27.7	-28.1	28.6	0.00e+00	0	33	0	2081423360	28	5824
2026-01-08 19:48:02.31	2.00	36.68	-27.8	-28.3	28.5	0.00e+00	0	33	0	2088763392	28	5932
2026-01-08 19:48:03.32	1.80	36.89	-27.7	-28.1	28.5	0.00e+00	0	33	0	2096103424	28	5802
2026-01-08 19:48:04.33	1.58	37.10	-27.6	-28.0	28.6	0.00e+00	0	33	0	2103443456	28	5754
2026-01-08 19:48:05.34	1.37	37.31	-27.5	-28.0	28.7	0.00e+00	0	33	0	2110783488	28	5719
2026-01-08 19:48:06.35	1.16	37.52	-27.6	-28.1	28.6	0.00e+00	0	33	0	2118123520	28	5767
2026-01-08 19:48:07.36	0.94	37.73	-27.7	-28.1	28.6	0.00e+00	0	33	0	2125463552	28	5808
2026-01-08 19:48:08.36	0.72	37.95	-28.0	-28.5	28.2	0.00e+00	0	33	0	2132803584	28	6068
2026-01-08 19:48:09.37	0.49	38.16	-27.9	-28.4	28.4	0.00e+00	0	33	0	2140143616	28	5969
2026-01-08 19:48:10.38	0.27	38.38	-27.9	-28.3	28.3	0.00e+00	0	33	0	2147483648	28	5963
2026-01-08 19:48:11.39	0.04	38.59	-28.0	-28.5	28.3	0.00e+00	0	33	0	2154823680	28	6039
2026-01-08 19:48:12.40	359.80	38.81	-28.1	-28.6	28.3	0.00e+00	0	33	0	2162163712	28	6107
2026-01-08 19:48:13.41	359.56	39.03	-28.1	-28.5	28.2	0.00e+00	0	33	0	2168455168	28	6098
2026-01-08 19:48:14.42	359.32	39.25	-28.2	-28.6	28.3	0.00e+00	0	33	0	2175795200	28	6152
2026-01-08 19:48:15.43	359.08	39.47	-28.0	-28.5	28.4	0.00e+00	0	33	0	2183135232	28	6077
2026-01-08 19:48:16.44	358.83	39.69	-28.0	-28.5	28.4	0.00e+00	0	33	0	2190475264	28	6039
2026-01-08 19:48:17.45	358.58	39.91	-28.0	-28.5	28.3	0.00e+00	0	33	0	2197815296	28	6064
2026-01-08 19:48:18.46	358.33	40.14	-28.2	-28.7	28.1	0.00e+00	0	33	0	2205155328	28	6207
2026-01-08 19:48:19.46	358.07	40.36	-28.3	-28.7	28.2	0.00e+00	0	33	0	2212495360	30	5544
2026-01-08 19:48:20.47	357.81	40.58	-28.4	-28.8	28.2	0.00e+00	0	33	0	2219835392	30	5625
2026-01-08 19:48:21.48	357.55	40.81	-28.5	-28.9	28.1	0.00e+00	0	33	0	2227175424	30	5673
2026-01-08 19:48:22.49	357.28	41.03	-28.7	-29.2	27.8	0.00e+00	0	33	0	2234515456	30	5845
2026-01-08 19:48:23.50	357.01	41.26	-28.8	-29.3	27.7	0.00e+00	0	33	0	2241855488	30	5900
2026-01-08 19:48:24.51	356.73	41.49	-28.7	-29.1	27.8	0.00e+00	0	33	0	2249195520	30	5826
2026-01-08 19:48:25.52	356.45	41.71	-28.4	-28.9	28.1	0.00e+00	0	33	0	2256535552	30	5639
2026-01-08 19:48:26.53	356.17	41.94	-28.2	-28.6	28.2	0.00e+00	0	33	0	2263875584	30	5500
2026-01-08 19:48:27.54	355.88	42.17	-28.2	-28.7	28.1	0.00e+00	0	33	0	2271215616	30	5529
2026-01-08 19:48:28.55	355.59	42.40	-28.1	-28.5	28.3	0.00e+00	0	33	0	2278555648	30	5437
2026-01-08 19:48:29.56	355.29	42.63	-28.0	-28.5	28.2	0.00e+00	0	33	0	2285895680	28	6047
2026-01-08 19:48:30.57	354.99	42.86	-27.9	-28.3	28.5	0.00e+00	0	33	0	2292187136	28	5962
2026-01-08 19:48:31.58	354.68	43.09	-27.5	-27.9	28.7	0.00e+00	0	33	0	2299527168	28	5661
2026-01-08 19:48:32.59	354.37	43.32	-27.4	-27.8	28.9	0.00e+00	0	33	0	2307915776	28	5629
2026-01-08 19:48:33.60	354.06	43.55	-27.4	-27.8	28.4	0.00e+00	0	33	0	2314207232	28	5615
2026-01-08 19:48:34.60	353.74	43.78	-27.2	-27.6	28.8	0.00e+00	0	33	0	2321547264	28	5476
2026-01-08 19:48:35.61	353.42	44.02	-27.8	-28.3	28.4	0.00e+00	0	33	0	2328887296	28	5899
2026-01-08 19:48:36.62	353.09	44.25	-27.9	-28.4	28.3	0.00e+00	0	33	0	2336227328	28	5971
2026-01-08 19:48:37.63	352.75	44.48	-28.3	-28.8	28.1	0.00e+00	0	33	0	2343567360	28	6271
2026-01-08 19:48:38.64	352.42	44.72	-28.5	-28.9	27.9	0.00e+00	0	33	0	2350907392	28	6383
2026-01-08 19:48:39.65	352.07	44.95	-28.8	-29.2	27.8	0.00e+00	0	33	0	2358247424	30	5890
2026-01-08 19:48:40.66	351.72	45.19	-28.9	-29.3	28.0	0.00e+00	0	33	0	2365587456	30	5953
2026-01-08 19:48:41.67	351.37	45.42	-28.5	-29.0	27.9	0.00e+00	0	33	0	2372927488	30	5734
2026-01-08 19:48:42.68	351.01	45.65	-28.3	-28.8	28.1	0.00e+00	0	33	0	2380267520	30	5569
2026-01-08 19:48:43.68	350.65	45.89	-28.3	-28.7	28.2	0.00e+00	0	33	0	2387607552	30	5555
2026-01-08 19:48:44.69	350.28	46.12	-28.0	-28.4	28.3	0.00e+00	0	33	0	2394947584	30	5371
2026-01-08 19:48:45.70	349.90	46.36	-28.2	-28.7	28.1	0.00e+00	0	33	0	2402287616	30	5513
2026-01-08 19:48:46.71	349.52	46.59	-28.3	-28.8	28.1	0.00e+00	0	33	0	2409627648	30	5586
2026-01-08 19:48:47.73	349.13	46.83	-28.6	-29.1	27.9	0.00e+00	0	33	0	2416967680	30	5792
2026-01-08 19:48:48.73	348.74	47.06	-29.1	-29.6	27.7	0.00e+00	0	33	0	2424307712	30	6106
2026-01-08 19:48:49.74	348.34	47.29	-29.2	-29.7	27.4	0.00e+00	0	33	0	2431647744	30	6218
2026-01-08 19:48:50.75	347.93	47.53	-29.6	-30.0	27.0	0.00e+00	0	33	0	2438987776	30	6454
2026-01-08 19:48:51.76	347.52	47.76	-29.6	-30.1	27.0	0.00e+00	0	33	0	2445279232	32	5774
2026-01-08 19:48:52.77	347.10	47.99	-29.9	-30.4	26.9	0.00e+00	0	33	0	2452619264	32	6003
2026-01-08 19:48:53.78	346.68	48.23	-29.9	-30.4	27.0	0.00e+00	0	33	0	2461007872	32	5992
2026-01-08 19:48:54.79	346.25	48.46	-29.7	-30.1	26.9	0.00e+00	0	33	0	2467299328	32	5818
2026-01-08 19:48:55.80	345.81	48.69	-29.7	-30.1	27.1	0.00e+00	0	33	0	2474639360	32	5824
2026-01-08 19:48:56.81	345.37	48.92	-29.7	-30.2	27.0	0.00e+00	0	33	0	2481979392	32	5886
2026-01-08 19:48:57.82	344.92	49.15	-29.8	-30.3	27.1	0.00e+00	0	33	0	2489319424	32	5904
2026-01-08 19:48:58.83	344.46	49.38	-29.8	-30.3	27.0	0.00e+00	0	33	0	2496659456	32	5921
2026-01-08 19:48:59.84	343.99	49.61	-29.9	-30.4	26.9	0.00e+00	0	33	0	2503999488	32	6015
2026-01-08 19:49:00.85	343.52	49.84	-30.0	-30.4	26.9	0.00e+00	0	33	0	2511339520	32	6032
2026-01-08 19:49:01.86	343.04	50.06	-30.0	-30.4	26.8	0.00e+00	0	33	0	2518679552	32	6027
2026-01-08 19:49:02.87	342.56	50.29	-29.8	-30.3	27.0	0.00e+00	0	33	0	2526019584	32	5902
2026-01-08 19:49:03.88	342.06	50.52	-29.8	-30.2	27.1	0.00e+00	0	33	0	2533359616	32	5896
2026-01-08 19:49:04.89	341.56	50.74	-29.5	-30.0	27.0	0.00e+00	0	33	0	2540699648	32	5741
2026-01-08 19:49:05.90	341.05	50.96	-29.2	-29.6	27.6	0.00e+00	0	33	0	2548039680	32	5476
2026-01-08 19:49:06.91	340.54	51.18	-29.3	-29.8	27.4	0.00e+00	0	33	0	2555379712	32	5591
2026-01-08 19:49:07.92	340.01	51.40	-29.6	-30.1	27.2	0.00e+00	0	33	0	2562719744	32	5767
2026-01-08 19:49:08.92	339.49	51.62	-29.7	-30.1	27.1	0.00e+00	0	33	0	2569011200	32	5823
2026-01-08 19:49:09.93	338.95	51.83	-29.6	-30.0	27.2	0.00e+00	0	33	0	2577399808	32	5761
2026-01-08 19:49:10.94	338.40	52.05	-29.7	-30.1	27.0	0.00e+00	0	33	0	2584739840	32	5820
2026-01-08 19:49:11.95	337.84	52.26	-29.6	-30.1	27.3	0.00e+00	0	33	0	2591031296	32	5789
2026-01-08 19:49:12.96	337.28	52.47	-29.5	-30.0	27.3	0.00e+00	0	33	0	2598371328	32	5715
2026-01-08 19:49:13.97	336.71	52.68	-29.5	-30.0	27.3	0.00e+00	0	33	0	2605711360	32	5734
2026-01-08 19:49:14.98	336.13	52.89	-29.6	-30.1	27.1	0.00e+00	0	33	0	2613051392	32	5815
2026-01-08 19:49:15.99	335.54	53.09	-30.2	-30.7	26.6	0.00e+00	0	33	0	2620391424	32	6186
2026-01-08 19:49:17.00	334.94	53.29	-29.8	-30.3	27.0	0.00e+00	0	33	0	2627731456	32	5904
2026-01-08 19:49:18.01	334.34	53.49	-30.0	-30.5	26.8	0.00e+00	0	33	0	2635071488	32	6048
2026-01-08 19:49:19.02	333.73	53.69	-29.9	-30.3	26.9	0.00e+00	0	33	0	2642411520	32	5964
2026-01-08 19:49:20.03	333.10	53.89	-29.6	-30.1	27.2	0.00e+00	0	33	0	2649751552	32	5800
2026-01-08 19:49:21.04	332.47	54.08	-29.5	-30.0	27.3	0.00e+00	0	33	0	2657091584	32	5705
2026-01-08 19:49:22.05	331.84	54.27	-29.2	-29.7	27.4	0.00e+00	0	33	0	2664431616	32	5532
2026-01-08 19:49:23.06	331.19	54.45	-29.2	-29.6	27.5	0.00e+00	0	33	0	2671771648	32	5496
2026-01-08 19:49:24.06	330.54	54.63	-29.4	-29.9	27.3	0.00e+00	0	33	0	2679111680	32	5631
2026-01-08 19:49:25.07	329.88	54.81	-29.5	-29.9	27.2	0.00e+00	0	33	0	2686451712	32	5680
2026-01-08 19:49:26.08	329.21	54.99	-29.6	-30.1	27.0	0.00e+00	0	33	0	2693791744	32	5774
2026-01-08 19:49:27.09	328.52	55.16	-30.0	-30.4	26.9	0.00e+00	0	33	0	2701131776	32	6016
2026-01-08 19:49:28.10	327.84	55.33	-30.0	-30.5	26.9	0.00e+00	0	33	0	2708471808	32	6037
2026-01-08 19:49:29.11	327.14	55.50	-29.6	-30.1	27.2	0.00e+00	0	33	0	2715811840	32	5787
2026-01-08 19:49:30.12	326.43	55.66	-29.5	-30.0	27.2	0.00e+00	0	33	0	2722103296	32	5722
2026-01-08 19:49:31.13	325.72	55.82	-29.4	-29.9	27.2	0.00e+00	0	33	0	2730491904	32	5655
2026-01-08 19:49:32.14	325.00	55.97	-29.1	-29.6	27.4	0.00e+00	0	33	0	2737831936	32	5484
2026-01-08 19:49:33.15	324.27	56.12	-29.2	-29.7	27.3	0.00e+00	0	33	0	2744123392	32	5551
2026-01-08 19:49:34.16	323.53	56.27	-29.5	-29.9	27.2	0.00e+00	0	33	0	2751463424	32	5682
2026-01-08 19:49:35.17	322.79	56.41	-29.5	-30.0	27.1	0.00e+00	0	33	0	2758803456	32	5736
2026-01-08 19:49:36.18	322.03	56.55	-29.4	-29.9	27.2	0.00e+00	0	33	0	2766143488	32	5691
2026-01-08 19:49:37.19	321.27	56.68	-29.9	-30.4	27.0	0.00e+00	0	33	0	2773483520	32	6008
2026-01-08 19:49:38.20	320.51	56.81	-30.0	-30.5	26.7	0.00e+00	0	33	0	2780823552	32	6091
2026-01-08 19:49:39.21	319.73	56.94	-29.5	-30.0	27.1	0.00e+00	0	33	0	2788163584	32	5715
2026-01-08 19:49:40.22	318.95	57.05	-29.5	-30.0	27.2	0.00e+00	0	33	0	2795503616	32	5704
2026-01-08 19:49:41.23	318.16	57.17	-29.0	-29.5	27.4	0.00e+00	0	33	0	2802843648	32	5384
2026-01-08 19:49:42.24	317.37	57.28	-29.4	-29.9	27.2	0.00e+00	0	33	0	2810183680	32	5669
2026-01-08 19:49:43.25	316.57	57.38	-29.5	-30.0	27.2	0.00e+00	0	33	0	2817523712	32	5704
2026-01-08 19:49:44.26	315.76	57.48	-29.6	-30.1	27.0	0.00e+00	0	33	0	2824863744	32	5800
2026-01-08 19:49:45.26	314.95	57.57	-29.8	-30.3	27.0	0.00e+00	0	33	0	2832203776	32	5904
2026-01-08 19:49:46.27	314.14	57.66	-29.7	-30.1	27.1	0.00e+00	0	33	0	2839543808	32	5827
2026-01-08 19:49:47.28	313.31	57.74	-29.3	-29.7	27.4	0.00e+00	0	33	0	2846883840	32	5566
2026-01-08 19:49:48.29	312.48	57.82	-29.2	-29.7	27.5	0.00e+00	0	33	0	2854223872	32	5504
2026-01-08 19:49:49.30	311.65	57.89	-29.4	-29.9	27.3	0.00e+00	0	33	0	2861563904	32	5649
2026-01-08 19:49:50.31	310.81	57.96	-29.4	-29.8	27.3	0.00e+00	0	33	0	2868903936	32	5613
2026-01-08 19:49:51.32	309.97	58.02	-29.5	-30.0	27.1	0.00e+00	0	33	0	2875195392	32	5705
2026-01-08 19:49:52.33	309.13	58.07	-29.9	-30.4	26.9	0.00e+00	0	33	0	2883584000	32	5990
2026-01-08 19:49:53.34	308.28	58.12	-30.0	-30.5	26.8	0.00e+00	0	33	0	2889875456	32	6073
2026-01-08 19:49:54.35	307.43	58.16	-30.0	-30.5	26.7	0.00e+00	0	33	0	2897215488	32	6068
2026-01-08 19:49:55.36	306.57	58.20	-30.0	-30.5	26.8	0.00e+00	0	33	0	2904555520	32	6095
2026-01-08 19:49:56.37	305.72	58.23	-30.1	-30.6	26.7	0.00e+00	0	33	0	2911895552	32	6120
2026-01-08 19:49:57.37	304.87	58.25	-29.6	-30.1	27.1	0.00e+00	0	33	0	2919235584	32	5772
2026-01-08 19:49:58.38	304.01	58.27	-29.8	-30.3	27.0	0.00e+00	0	33	0	2926575616	32	5900
2026-01-08 19:49:59.39	303.15	58.29	-30.1	-30.6	26.6	0.00e+00	0	33	0	2933915648	32	6121
2026-01-08 19:50:00.40	302.29	58.29	-30.5	-31.0	26.4	0.00e+00	0	33	0	2941255680	32	6458
2026-01-08 19:50:01.41	301.43	58.29	-30.2	-30.7	26.5	0.00e+00	0	33	0	2948595712	32	6231
2026-01-08 19:50:02.42	300.57	58.29	-29.8	-30.3	27.0	0.00e+00	0	33	0	2955935744	32	5903
2026-01-08 19:50:03.43	299.71	58.28	-29.6	-30.0	27.2	0.00e+00	0	33	0	2963275776	32	5727
2026-01-08 19:50:04.44	298.85	58.26	-29.3	-29.8	27.2	0.00e+00	0	33	0	2970615808	32	5582
2026-01-08 19:50:05.45	297.99	58.23	-29.5	-30.0	27.2	0.00e+00	0	33	0	2977955840	32	5747
2026-01-08 19:50:06.46	297.13	58.20	-29.5	-30.0	27.2	0.00e+00	0	33	0	2985295872	32	5738
2026-01-08 19:50:07.47	296.28	58.17	-29.6	-30.0	27.1	0.00e+00	0	33	0	2992635904	32	5747
2026-01-08 19:50:08.48	295.43	58.13	-29.8	-30.3	26.9	0.00e+00	0	33	0	2999975936	32	5907
2026-01-08 19:50:09.49	294.58	58.08	-29.6	-30.1	27.0	0.00e+00	0	33	0	3007315968	32	5777
2026-01-08 19:50:10.50	293.73	58.03	-29.5	-30.0	27.0	0.00e+00	0	33	0	3014656000	32	5733
2026-01-08 19:50:11.51	292.89	57.97	-29.5	-30.0	26.8	0.00e+00	0	33	0	3020947456	32	5720
2026-01-08 19:50:12.52	292.05	57.90	-29.7	-30.1	26.7	0.00e+00	0	33	0	3028287488	32	5819
2026-01-08 19:50:13.53	291.22	57.83	-29.8	-30.3	26.8	0.00e+00	0	33	0	3036676096	32	5938
2026-01-08 19:50:14.54	290.39	57.76	-29.9	-30.4	26.7	0.00e+00	0	33	0	3042967552	32	5982
2026-01-08 19:50:15.55	289.56	57.67	-29.9	-30.4	26.7	0.00e+00	0	33	0	3050307584	32	6004
2026-01-08 19:50:16.56	288.74	57.59	-29.9	-30.4	26.9	0.00e+00	0	33	0	3057647616	32	5967
2026-01-08 19:50:17.56	287.94	57.49	-29.8	-30.2	27.0	0.00e+00	0	33	0	3064987648	32	5896
2026-01-08 19:50:18.58	287.12	57.40	-29.8	-30.2	26.9	0.00e+00	0	33	0	3072327680	32	5893
2026-01-08 19:50:19.58	286.32	57.29	-29.8	-30.3	27.0	0.00e+00	0	33	0	3079667712	32	5902
2026-01-08 19:50:20.59	285.53	57.19	-29.9	-30.4	26.9	0.00e+00	0	33	0	3087007744	32	5965
2026-01-08 19:50:21.60	284.74	57.07	-29.9	-30.4	27.0	0.00e+00	0	33	0	3094347776	32	5968
2026-01-08 19:50:22.61	283.95	56.95	-29.8	-30.3	27.1	0.00e+00	0	33	0	3101687808	32	5932
2026-01-08 19:50:23.62	283.18	56.83	-29.4	-29.9	27.3	0.00e+00	0	33	0	3109027840	32	5675
2026-01-08 19:50:24.63	282.41	56.70	-29.1	-29.6	27.5	0.00e+00	0	33	0	3116367872	32	5462
2026-01-08 19:50:25.64	281.65	56.57	-29.2	-29.6	27.4	0.00e+00	0	33	0	3123707904	32	5497
2026-01-08 19:50:26.65	280.89	56.43	-29.2	-29.7	27.4	0.00e+00	0	33	0	3131047936	32	5504
2026-01-08 19:50:27.65	280.15	56.29	-29.4	-29.9	27.3	0.00e+00	0	33	0	3138387968	32	5639
2026-01-08 19:50:28.67	279.40	56.15	-29.3	-29.8	27.3	0.00e+00	0	33	0	3145728000	32	5579
2026-01-08 19:50:29.68	278.67	56.00	-29.3	-29.7	27.2	0.00e+00	0	33	0	3152019456	32	5560
2026-01-08 19:50:30.68	277.96	55.84	-29.4	-29.9	27.3	0.00e+00	0	33	0	3160408064	32	5672
2026-01-08 19:50:31.70	277.23	55.68	-29.4	-29.9	27.2	0.00e+00	0	33	0	3167748096	32	5656
2026-01-08 19:50:32.71	276.53	55.52	-29.3	-29.8	27.3	0.00e+00	0	33	0	3174039552	32	5608
2026-01-08 19:50:33.72	275.83	55.35	-29.3	-29.8	27.2	0.00e+00	0	33	0	3181379584	32	5598
2026-01-08 19:50:34.73	275.14	55.19	-29.1	-29.5	27.5	0.00e+00	0	33	0	3188719616	32	5413
2026-01-08 19:50:35.74	274.45	55.01	-29.3	-29.8	27.4	0.00e+00	0	33	0	3196059648	32	5571
2026-01-08 19:50:36.75	273.78	54.84	-29.1	-29.6	27.6	0.00e+00	0	33	0	3203399680	32	5469
2026-01-08 19:50:37.76	273.11	54.66	-29.2	-29.7	27.4	0.00e+00	0	33	0	3210739712	32	5538
2026-01-08 19:50:38.77	272.46	54.47	-29.5	-29.9	27.2	0.00e+00	0	33	0	3218079744	32	5683
2026-01-08 19:50:39.78	271.81	54.29	-29.6	-30.1	26.8	0.00e+00	0	33	0	3225419776	32	5813
2026-01-08 19:50:40.78	271.17	54.10	-29.4	-29.9	27.2	0.00e+00	0	33	0	3232759808	32	5655
2026-01-08 19:50:41.79	270.54	53.91	-29.2	-29.7	26.3	0.00e+00	0	33	0	3240099840	32	5513
2026-01-08 19:50:42.80	269.92	53.71	-29.3	-29.8	27.2	0.00e+00	0	33	0	3247439872	32	5599
2026-01-08 19:50:43.81	269.30	53.52	-29.6	-30.0	27.2	0.00e+00	0	33	0	3254779904	32	5760
2026-01-08 19:50:44.82	268.69	53.32	-29.7	-30.2	27.0	0.00e+00	0	33	0	3262119936	32	5866
2026-01-08 19:50:45.83	268.09	53.11	-29.7	-30.2	27.0	0.00e+00	0	33	0	3269459968	32	5838
2026-01-08 19:50:46.83	267.51	52.91	-29.9	-30.4	27.0	0.00e+00	0	33	0	3276800000	32	6029
2026-01-08 19:50:47.84	266.93	52.70	-29.5	-30.0	27.2	0.00e+00	0	33	0	3284140032	32	5719
2026-01-08 19:50:48.85	266.35	52.50	-29.6	-30.1	27.0	0.00e+00	0	33	0	3291480064	32	5780
2026-01-08 19:50:49.86	265.79	52.28	-29.4	-29.8	27.4	0.00e+00	0	33	0	3297771520	32	5617
2026-01-08 19:50:50.87	265.23	52.07	-29.5	-30.0	27.1	0.00e+00	0	33	0	3305111552	32	5706
2026-01-08 19:50:51.88	264.68	51.86	-29.5	-30.0	27.2	0.00e+00	0	33	0	3313500160	32	5720
2026-01-08 19:50:52.89	264.14	51.64	-29.3	-29.8	27.3	0.00e+00	0	33	0	3319791616	32	5609
2026-01-08 19:50:53.90	263.61	51.42	-29.2	-29.7	27.5	0.00e+00	0	33	0	3327131648	32	5512
2026-01-08 19:50:54.91	263.08	51.20	-29.0	-29.5	27.6	0.00e+00	0	33	0	3334471680	32	5400
2026-01-08 19:50:55.92	262.56	50.98	-29.1	-29.6	27.5	0.00e+00	0	33	0	3341811712	32	5477
2026-01-08 19:50:56.93	262.05	50.76	-29.3	-29.7	27.5	0.00e+00	0	33	0	3349151744	32	5554
2026-01-08 19:50:57.94	261.55	50.53	-29.2	-29.7	27.4	0.00e+00	0	33	0	3356491776	32	5512
2026-01-08 19:50:58.95	261.05	50.31	-29.3	-29.7	27.4	0.00e+00	0	33	0	3363831808	32	5559
2026-01-08 19:50:59.96	260.56	50.08	-29.2	-29.6	27.5	0.00e+00	0	33	0	3371171840	32	5489
2026-01-08 19:51:00.97	260.08	49.85	-29.1	-29.6	27.6	0.00e+00	0	33	0	3378511872	32	5453
2026-01-08 19:51:01.98	259.61	49.63	-29.2	-29.7	27.5	0.00e+00	0	33	0	3385851904	32	5539
2026-01-08 19:51:02.98	259.15	49.40	-29.3	-29.8	27.1	0.00e+00	0	33	0	3393191936	32	5580
2026-01-08 19:51:03.99	258.69	49.17	-29.6	-30.1	27.1	0.00e+00	0	33	0	3400531968	32	5762
2026-01-08 19:51:05.01	258.23	48.94	-29.5	-30.0	27.2	0.00e+00	0	33	0	3407872000	32	5724
2026-01-08 19:51:06.01	257.79	48.71	-29.5	-30.0	27.2	0.00e+00	0	33	0	3415212032	32	5729
2026-01-08 19:51:07.02	257.35	48.47	-29.3	-29.8	27.4	0.00e+00	0	33	0	3422552064	32	5568
2026-01-08 19:51:08.03	256.91	48.24	-29.1	-29.6	27.5	0.00e+00	0	33	0	3429892096	32	5456
2026-01-08 19:51:09.04	256.49	48.01	-29.3	-29.7	27.4	0.00e+00	0	33	0	3437232128	32	5562
2026-01-08 19:51:10.05	256.07	47.77	-29.2	-29.7	27.5	0.00e+00	0	33	0	3444572160	32	5511
2026-01-08 19:51:11.06	255.66	47.54	-29.1	-29.5	27.6	0.00e+00	0	33	0	3450863616	32	5427
2026-01-08 19:51:12.07	255.25	47.30	-29.0	-29.5	27.7	0.00e+00	0	33	0	3458203648	30	6038
2026-01-08 19:51:13.08	254.85	47.07	-29.2	-29.6	27.4	0.00e+00	0	33	0	3466592256	30	6156
2026-01-08 19:51:14.09	254.45	46.83	-29.6	-30.1	27.2	0.00e+00	0	33	0	3472883712	30	6503
2026-01-08 19:51:15.10	254.06	46.60	-29.4	-29.9	27.4	0.00e+00	0	33	0	3480223744	30	6338
2026-01-08 19:51:16.11	253.68	46.36	-29.3	-29.7	27.2	0.00e+00	0	33	0	3487563776	30	6239
2026-01-08 19:51:17.12	253.30	46.13	-29.1	-29.6	27.6	0.00e+00	0	33	0	3494903808	30	6134
2026-01-08 19:51:18.12	252.93	45.90	-28.8	-29.3	27.8	0.00e+00	0	33	0	3502243840	30	5912
2026-01-08 19:51:19.14	252.56	45.66	-28.2	-28.6	28.3	0.00e+00	0	33	0	3509583872	30	5480
2026-01-08 19:51:20.14	252.20	45.43	-28.3	-28.7	28.1	0.00e+00	0	33	0	3516923904	30	5547
2026-01-08 19:51:21.15	251.85	45.19	-28.4	-28.9	28.0	0.00e+00	0	33	0	3524263936	30	5641
2026-01-08 19:51:22.16	251.50	44.95	-28.2	-28.7	28.2	0.00e+00	0	33	0	3531603968	30	5516
2026-01-08 19:51:23.17	251.15	44.72	-28.4	-28.8	28.1	0.00e+00	0	33	0	3538944000	30	5601
2026-01-08 19:51:24.18	250.81	44.49	-28.0	-28.4	28.4	0.00e+00	0	33	0	3546284032	30	5370
2026-01-08 19:51:25.19	250.48	44.25	-28.2	-28.7	28.3	0.00e+00	0	33	0	3553624064	30	5515
2026-01-08 19:51:26.20	250.15	44.02	-28.4	-28.8	28.1	0.00e+00	0	33	0	3560964096	30	5608
2026-01-08 19:51:27.21	249.82	43.78	-28.3	-28.7	28.1	0.00e+00	0	33	0	3568304128	30	5548
2026-01-08 19:51:28.22	249.50	43.55	-28.3	-28.8	28.2	0.00e+00	0	33	0	3574595584	30	5577
2026-01-08 19:51:29.23	249.18	43.32	-28.4	-28.9	28.1	0.00e+00	0	33	0	3582984192	30	5673
2026-01-08 19:51:30.24	248.87	43.09	-28.4	-28.9	28.1	0.00e+00	0	33	0	3590324224	30	5671
2026-01-08 19:51:31.24	248.57	42.86	-28.4	-28.8	28.2	0.00e+00	0	33	0	3596615680	30	5609
2026-01-08 19:51:32.25	248.27	42.62	-28.3	-28.8	28.1	0.00e+00	0	33	0	3603955712	30	5618
2026-01-08 19:51:33.26	247.97	42.39	-28.3	-28.7	28.2	0.00e+00	0	33	0	3611295744	30	5556
2026-01-08 19:51:34.27	247.67	42.16	-28.3	-28.8	28.0	0.00e+00	0	33	0	3618635776	30	5592
2026-01-08 19:51:35.28	247.38	41.93	-28.4	-28.9	28.1	0.00e+00	0	33	0	3625975808	30	5667
2026-01-08 19:51:36.29	247.10	41.70	-28.5	-28.9	28.1	0.00e+00	0	33	0	3633315840	30	5691
2026-01-08 19:51:37.30	246.82	41.48	-28.5	-29.0	27.4	0.00e+00	0	33	0	3640655872	30	5736
2026-01-08 19:51:38.31	246.54	41.25	-28.4	-28.9	28.1	0.00e+00	0	33	0	3647995904	30	5653
2026-01-08 19:51:39.32	246.27	41.02	-28.4	-28.9	28.1	0.00e+00	0	33	0	3655335936	30	5637
2026-01-08 19:51:40.33	246.00	40.79	-28.1	-28.6	28.2	0.00e+00	0	33	0	3662675968	30	5465
2026-01-08 19:51:41.34	245.73	40.57	-28.2	-28.7	28.2	0.00e+00	0	33	0	3670016000	30	5510
2026-01-08 19:51:42.35	245.47	40.34	-28.2	-28.7	28.2	0.00e+00	0	33	0	3677356032	30	5515
2026-01-08 19:51:43.35	245.21	40.12	-28.3	-28.8	28.2	0.00e+00	0	33	0	3684696064	30	5591
2026-01-08 19:51:44.36	244.96	39.90	-28.4	-28.9	28.1	0.00e+00	0	33	0	3692036096	30	5644
2026-01-08 19:51:45.37	244.70	39.67	-28.6	-29.0	27.9	0.00e+00	0	33	0	3699376128	30	5757
2026-01-08 19:51:46.38	244.46	39.45	-28.5	-29.0	28.0	0.00e+00	0	33	0	3706716160	30	5715
2026-01-08 19:51:47.39	244.21	39.23	-28.4	-28.8	27.9	0.00e+00	0	33	0	3714056192	30	5622
2026-01-08 19:51:48.40	243.97	39.01	-28.0	-28.4	28.2	0.00e+00	0	33	0	3721396224	30	5372
2026-01-08 19:51:49.41	243.73	38.79	-27.9	-28.3	28.5	0.00e+00	0	33	0	3727687680	30	5290
2026-01-08 19:51:50.42	243.50	38.57	-27.9	-28.4	28.5	0.00e+00	0	33	0	3735027712	30	5335
2026-01-08 19:51:51.43	243.27	38.35	-27.9	-28.4	28.4	0.00e+00	0	33	0	3743416320	30	5334
2026-01-08 19:51:52.44	243.04	38.14	-28.1	-28.5	28.4	0.00e+00	0	33	0	3749707776	30	5427
2026-01-08 19:51:53.45	242.81	37.92	-28.2	-28.6	28.3	0.00e+00	0	33	0	3757047808	30	5490
2026-01-08 19:51:54.46	242.59	37.71	-28.2	-28.6	28.2	0.00e+00	0	33	0	3764387840	30	5491
2026-01-08 19:51:55.46	242.37	37.49	-28.1	-28.6	28.3	0.00e+00	0	33	0	3771727872	30	5451
2026-01-08 19:51:56.48	242.15	37.28	-28.1	-28.5	28.4	0.00e+00	0	33	0	3779067904	30	5417
2026-01-08 19:51:57.48	241.94	37.07	-28.1	-28.5	28.2	0.00e+00	0	33	0	3786407936	30	5425
2026-01-08 19:51:58.49	241.73	36.86	-28.1	-28.6	28.1	0.00e+00	0	33	0	3793747968	30	5482
2026-01-08 19:51:59.51	241.52	36.64	-28.2	-28.7	28.2	0.00e+00	0	33	0	3801088000	30	5515
2026-01-08 19:52:00.52	241.31	36.43	-28.3	-28.7	28.2	0.00e+00	0	33	0	3808428032	30	5549
2026-01-08 19:52:01.53	241.11	36.22	-28.3	-28.8	27.7	0.00e+00	0	33	0	3815768064	30	5575
2026-01-08 19:52:02.54	240.91	36.02	-28.2	-28.7	28.1	0.00e+00	0	33	0	3823108096	30	5536
2026-01-08 19:52:03.55	240.71	35.81	-28.1	-28.5	27.8	0.00e+00	0	33	0	3830448128	30	5414
2026-01-08 19:52:04.56	240.52	35.60	-27.8	-28.3	28.4	0.00e+00	0	33	0	3837788160	30	5272
2026-01-08 19:52:05.57	240.32	35.40	-27.9	-28.3	28.4	0.00e+00	0	33	0	3845128192	30	5307
2026-01-08 19:52:06.58	240.13	35.19	-27.7	-28.1	28.4	0.00e+00	0	33	0	3851419648	28	5801
2026-01-08 19:52:07.58	239.95	34.99	-27.6	-28.0	28.4	0.00e+00	0	33	0	3859808256	28	5739
2026-01-08 19:52:08.59	239.76	34.79	-27.7	-28.1	28.3	0.00e+00	0	33	0	3867148288	28	5827
2026-01-08 19:52:09.60	239.58	34.59	-27.7	-28.1	28.2	0.00e+00	0	33	0	3873439744	28	5827
2026-01-08 19:52:10.62	239.40	34.39	-27.8	-28.3	28.4	0.00e+00	0	33	0	3880779776	28	5903
2026-01-08 19:52:11.62	239.22	34.19	-27.7	-28.2	28.1	0.00e+00	0	33	0	3888119808	28	5855
2026-01-08 19:52:12.63	239.04	33.99	-27.8	-28.3	28.4	0.00e+00	0	33	0	3895459840	28	5907
2026-01-08 19:52:13.64	238.87	33.79	-27.9	-28.3	28.1	0.00e+00	0	33	0	3902799872	28	5935
2026-01-08 19:52:14.65	238.69	33.60	-27.6	-28.1	28.4	0.00e+00	0	33	0	3910139904	28	5787
2026-01-08 19:52:15.66	238.52	33.40	-27.7	-28.1	28.4	0.00e+00	0	33	0	3917479936	28	5804
2026-01-08 19:52:16.67	238.36	33.20	-27.8	-28.2	28.2	0.00e+00	0	33	0	3924819968	28	5867
2026-01-08 19:52:17.68	238.19	33.01	-27.8	-28.3	28.2	0.00e+00	0	33	0	3932160000	28	5900
2026-01-08 19:52:18.69	238.03	32.82	-28.0	-28.5	27.8	0.00e+00	0	33	0	3939500032	28	6036
2026-01-08 19:52:19.70	237.86	32.63	-28.1	-28.5	28.0	0.00e+00	0	33	0	3946840064	28	6093
2026-01-08 19:52:20.71	237.70	32.44	-28.2	-28.7	28.1	0.00e+00	0	33	0	3954180096	28	6179
2026-01-08 19:52:21.72	237.55	32.25	-28.2	-28.6	28.2	0.00e+00	0	33	0	3961520128	28	6143
2026-01-08 19:52:22.73	237.39	32.06	-28.1	-28.6	28.1	0.00e+00	0	33	0	3968860160	28	6143
2026-01-08 19:52:23.74	237.23	31.87	-28.1	-28.6	28.2	0.00e+00	0	33	0	3976200192	28	6104
2026-01-08 19:52:24.75	237.08	31.68	-28.0	-28.5	28.3	0.00e+00	0	33	0	3983540224	28	6066
2026-01-08 19:52:25.76	236.93	31.50	-28.0	-28.4	28.4	0.00e+00	0	33	0	3990880256	28	6018
2026-01-08 19:52:26.77	236.78	31.31	-28.1	-28.6	28.3	0.00e+00	0	33	0	3998220288	28	6138
2026-01-08 19:52:27.79	236.63	31.12	-28.1	-28.5	28.3	0.00e+00	0	33	0	4005560320	28	6088
2026-01-08 19:52:28.80	236.49	30.94	-28.0	-28.5	27.8	0.00e+00	0	33	0	4012900352	28	6065
2026-01-08 19:52:29.81	236.34	30.76	-28.1	-28.6	28.1	0.00e+00	0	33	0	4020240384	28	6138
2026-01-08 19:52:30.82	236.20	30.58	-28.2	-28.6	28.2	0.00e+00	0	33	0	4026531840	28	6156
2026-01-08 19:52:31.83	236.06	30.40	-28.0	-28.4	28.2	0.00e+00	0	33	0	4033871872	28	6033
2026-01-08 19:52:32.83	235.92	30.22	-27.9	-28.4	28.1	0.00e+00	0	33	0	4042260480	28	5984
2026-01-08 19:52:33.84	235.78	30.04	-27.8	-28.3	28.4	0.00e+00	0	33	0	4048551936	28	5897
2026-01-08 19:52:34.85	235.65	29.86	-27.9	-28.3	28.4	0.00e+00	0	33	0	4055891968	28	5951
2026-01-08 19:52:35.86	235.51	29.69	-27.8	-28.3	28.3	0.00e+00	0	33	0	4063232000	28	5926
2026-01-08 19:52:36.87	235.38	29.51	-27.9	-28.3	28.3	0.00e+00	0	33	0	4070572032	28	5936
2026-01-08 19:52:37.88	235.25	29.33	-27.9	-28.4	28.3	0.00e+00	0	33	0	4077912064	28	5966
2026-01-08 19:52:38.89	235.12	29.16	-28.0	-28.4	28.3	0.00e+00	0	33	0	4085252096	28	6021
2026-01-08 19:52:39.90	234.99	28.99	-28.0	-28.4	28.2	0.00e+00	0	33	0	4092592128	28	6007
2026-01-08 19:52:40.91	234.86	28.82	-28.1	-28.6	28.2	0.00e+00	0	33	0	4099932160	28	6115
2026-01-08 19:52:41.92	234.73	28.64	-28.1	-28.6	28.2	0.00e+00	0	33	0	4107272192	28	6119
2026-01-08 19:52:42.93	234.61	28.47	-28.1	-28.6	28.1	0.00e+00	0	33	0	4114612224	28	6136
2026-01-08 19:52:43.94	234.49	28.30	-28.1	-28.6	28.2	0.00e+00	0	33	0	4121952256	28	6106
2026-01-08 19:52:44.94	234.36	28.14	-28.2	-28.7	28.2	0.00e+00	0	33	0	4129292288	28	6181
2026-01-08 19:52:45.96	234.24	27.97	-28.1	-28.5	28.2	0.00e+00	0	33	0	4136632320	28	6095
2026-01-08 19:52:46.96	234.12	27.80	-28.0	-28.6	24.3	0.00e+00	0	33	0	4143972352	28	6173
2026-01-08 19:52:47.97	234.01	27.64	-28.0	-28.6	24.3	0.00e+00	0	33	0	4150263808	28	6162
2026-01-08 19:52:48.99	233.89	27.47	-28.0	-28.6	24.1	0.00e+00	0	33	0	4158652416	28	6131
2026-01-08 19:52:49.99	233.77	27.31	-28.0	-28.7	24.1	0.00e+00	0	33	0	4165992448	28	6197
2026-01-08 19:52:51.01	233.66	27.14	-28.2	-28.8	23.9	0.00e+00	0	33	0	4172283904	28	6283
2026-01-08 19:52:52.02	233.54	26.98	-28.1	-28.8	23.9	0.00e+00	0	33	0	4179623936	28	6272
2026-01-08 19:52:53.03	233.43	26.82	-28.2	-28.9	23.9	0.00e+00	0	33	0	4188012544	28	6324
2026-01-08 19:52:54.04	233.32	26.65	-28.2	-28.8	23.8	0.00e+00	0	33	0	4194304000	28	6310
2026-01-08 19:52:55.04	233.21	26.50	-28.2	-28.8	23.8	0.00e+00	0	33	0	4201644032	28	6293
2026-01-08 19:52:56.05	233.10	26.34	-28.2	-28.8	23.8	0.00e+00	0	33	0	4208984064	28	6297
2026-01-08 19:52:57.06	233.00	26.18	-28.1	-28.7	23.9	0.00e+00	0	33	0	4216324096	28	6226
2026-01-08 19:52:58.07	232.89	26.02	-28.0	-28.7	23.9	0.00e+00	0	33	0	4223664128	28	6201
2026-01-08 19:52:59.08	232.78	25.86	-28.1	-28.7	24.0	0.00e+00	0	33	0	4231004160	28	6217
2026-01-08 19:53:00.09	232.68	25.71	-28.0	-28.7	23.8	0.00e+00	0	33	0	4238344192	28	6174
2026-01-08 19:53:01.10	232.58	25.55	-27.9	-28.6	24.2	0.00e+00	0	33	0	4245684224	28	6104
2026-01-08 19:53:02.11	232.47	25.40	-27.9	-28.6	24.1	0.00e+00	0	33	0	4253024256	28	6123
2026-01-08 19:53:03.12	232.37	25.24	-28.1	-28.7	24.2	0.00e+00	0	33	0	4260364288	28	6220
2026-01-08 19:53:04.13	232.27	25.09	-27.8	-28.5	24.3	0.00e+00	0	33	0	4267704320	28	6047
2026-01-08 19:53:05.14	232.17	24.94	-27.8	-28.4	24.3	0.00e+00	0	33	0	4275044352	28	6030
2026-01-08 19:53:06.15	232.07	24.79	-27.9	-28.5	24.4	0.00e+00	0	33	0	4282384384	28	6067
2026-01-08 19:53:07.16	231.98	24.64	-27.8	-28.4	24.3	0.00e+00	0	33	0	4289724416	28	6033
2026-01-08 19:53:08.17	231.88	24.49	-27.9	-28.6	24.3	0.00e+00	0	33	0	4297064448	28	6113
2026-01-08 19:53:09.18	231.79	24.34	-28.0	-28.6	24.3	0.00e+00	0	33	0	4303355904	28	6155
2026-01-08 19:53:10.19	231.69	24.19	-28.0	-28.7	24.2	0.00e+00	0	33	0	4311744512	28	6193
2026-01-08 19:53:11.20	231.60	24.04	-28.0	-28.7	24.1	0.00e+00	0	33	0	4319084544	28	6184
2026-01-08 19:53:12.21	231.50	23.89	-28.1	-28.8	24.0	0.00e+00	0	33	0	4325376000	28	6263
2026-01-08 19:53:13.22	231.41	23.75	-28.2	-28.8	24.1	0.00e+00	0	33	0	4332716032	28	6315
2026-01-08 19:53:14.23	231.32	23.60	-28.2	-28.9	23.9	0.00e+00	0	33	0	4340056064	28	6318
2026-01-08 19:53:15.24	231.23	23.46	-28.3	-29.0	23.8	0.00e+00	0	33	0	4347396096	28	6405
2026-01-08 19:53:16.24	231.14	23.32	-28.3	-29.0	23.8	0.00e+00	0	33	0	4354736128	28	6419
2026-01-08 19:53:17.25	231.06	23.17	-28.5	-29.1	23.7	0.00e+00	0	33	0	4362076160	28	6531
2026-01-08 19:53:18.26	230.97	23.03	-28.4	-29.1	23.7	0.00e+00	0	33	0	4369416192	28	6509
2026-01-08 19:53:19.27	230.88	22.89	-28.6	-29.3	23.6	0.00e+00	0	33	0	4376756224	28	6629
2026-01-08 19:53:20.28	230.79	22.75	-28.6	-29.3	23.6	0.00e+00	0	33	0	4384096256	28	6633
2026-01-08 19:53:21.29	230.71	22.61	-28.5	-29.2	23.6	0.00e+00	0	33	0	4391436288	28	6584
2026-01-08 19:53:22.30	230.63	22.47	-28.7	-29.4	23.5	0.00e+00	0	33	0	4398776320	28	6720
2026-01-08 19:53:23.31	230.54	22.33	-28.6	-29.3	23.5	0.00e+00	0	33	0	4406116352	28	6658
2026-01-08 19:53:24.32	230.46	22.19	-28.6	-29.3	23.6	0.00e+00	0	33	0	4413456384	28	6647
2026-01-08 19:53:25.33	230.38	22.05	-28.5	-29.2	23.5	0.00e+00	0	33	0	4420796416	28	6599
2026-01-08 19:53:26.34	230.30	21.92	-28.8	-29.4	23.5	0.00e+00	0	33	0	4428136448	28	6754
2026-01-08 19:53:27.35	230.22	21.78	-28.6	-29.3	23.6	0.00e+00	0	33	0	4435476480	30	5942
2026-01-08 19:53:28.36	230.14	21.64	-28.6	-29.3	23.7	0.00e+00	0	33	0	4442816512	30	5900
2026-01-08 19:53:29.37	230.06	21.51	-28.8	-29.5	23.5	0.00e+00	0	33	0	4449107968	30	6051
2026-01-08 19:53:30.38	229.98	21.37	-28.6	-29.3	23.7	0.00e+00	0	33	0	4456448000	30	5907
2026-01-08 19:53:31.39	229.90	21.24	-28.7	-29.4	23.5	0.00e+00	0	33	0	4464836608	30	5971
2026-01-08 19:53:32.40	229.82	21.11	-28.5	-29.2	23.7	0.00e+00	0	33	0	4471128064	30	5868
2026-01-08 19:53:33.41	229.75	20.98	-28.7	-29.4	23.7	0.00e+00	0	33	0	4478468096	30	5965
2026-01-08 19:53:34.41	229.67	20.84	-28.7	-29.3	23.7	0.00e+00	0	33	0	4485808128	30	5950
2026-01-08 19:53:35.42	229.60	20.71	-28.6	-29.2	23.7	0.00e+00	0	33	0	4493148160	30	5894
2026-01-08 19:53:36.43	229.52	20.58	-28.7	-29.3	23.7	0.00e+00	0	33	0	4500488192	30	5943
2026-01-08 19:53:37.44	229.45	20.45	-28.7	-29.3	23.7	0.00e+00	0	33	0	4507828224	30	5948
2026-01-08 19:53:38.45	229.38	20.32	-28.7	-29.3	23.8	0.00e+00	0	33	0	4515168256	30	5963
2026-01-08 19:53:39.46	229.30	20.20	-28.8	-29.4	23.7	0.00e+00	0	33	0	4522508288	30	6032
2026-01-08 19:53:40.47	229.23	20.07	-28.8	-29.5	23.7	0.00e+00	0	33	0	4529848320	30	6036
2026-01-08 19:53:41.47	229.16	19.94	-28.8	-29.5	23.6	0.00e+00	0	33	0	4537188352	30	6072
2026-01-08 19:53:42.48	229.09	19.81	-28.9	-29.5	23.7	0.00e+00	0	33	0	4544528384	30	6091
2026-01-08 19:53:43.50	229.02	19.69	-29.0	-29.7	23.6	0.00e+00	0	33	0	4551868416	30	6198
2026-01-08 19:53:44.50	228.95	19.56	-28.9	-29.6	23.6	0.00e+00	0	33	0	4559208448	30	6129
2026-01-08 19:53:45.51	228.88	19.44	-29.1	-29.7	23.5	0.00e+00	0	33	0	4566548480	30	6237
2026-01-08 19:53:46.52	228.81	19.31	-29.2	-29.9	23.5	0.00e+00	0	33	0	4573888512	30	6345
2026-01-08 19:53:47.53	228.75	19.19	-29.2	-29.8	23.5	0.00e+00	0	33	0	4581228544	30	6292
2026-01-08 19:53:48.54	228.68	19.07	-29.3	-30.0	23.4	0.00e+00	0	33	0	4588568576	30	6396
2026-01-08 19:53:49.55	228.61	18.94	-29.3	-30.0	23.4	0.00e+00	0	32	0	4595908608	30	6433
2026-01-08 19:53:50.56	228.55	18.82	-29.5	-30.1	23.3	0.00e+00	0	33	0	4602200064	30	6531
2026-01-08 19:53:51.57	228.48	18.70	-29.5	-30.2	23.3	0.00e+00	0	33	0	4609540096	30	6542
2026-01-08 19:53:52.57	228.42	18.58	-29.6	-30.3	23.2	0.00e+00	0	33	0	4616880128	30	6624
2026-01-08 19:53:53.58	228.35	18.46	-29.7	-30.3	23.3	0.00e+00	0	33	0	4624220160	32	5958
2026-01-08 19:53:54.59	228.29	18.34	-29.9	-30.5	23.2	0.00e+00	0	33	0	4631560192	32	6098
2026-01-08 19:53:55.60	228.23	18.22	-29.7	-30.4	23.3	0.00e+00	0	33	0	4638900224	32	5995
2026-01-08 19:53:56.61	228.16	18.10	-29.8	-30.5	23.3	0.00e+00	0	33	0	4646240256	32	6065
