passes_logs/2026/01/08/R4.6S_Anadyr/R4.6S_Anadyr__20260108_130541_NOAA_21_JPSS-2_rec.log

#Pass ID: 20260108_130541_NOAA 21 (JPSS-2)
#Satellite: NOAA 21 (JPSS-2)
#Configuration: NOAA-21
#almurnet v.1.7.20251203
#Start time: 2026-01-08 13:05:44

#Version: 2.2.20231116
#Station: R4.6S_Anadyr
#Location: 177.4865 lon 64.73178 lat
#TLE: 1 54234U 22150A   26007.89369592  .00000099  00000+0  67922-4 0  9991
#TLE: 2 54234  98.7493 308.8796 0000921 330.6018  29.5106 14.19533030163804

#Time	Az	El	Level	Level2	SNR	BER	BlckErr	Temp	State	Recorded	gain1	gain2
2026-01-08 13:05:44.87	18.83	0.18	-48.5	-59.9	3.3	1.54e+00	0	31	0	0	60	34627
2026-01-08 13:05:45.87	18.88	0.24	-48.6	-61.4	3.5	1.52e+00	0	32	104	0	60	41357
2026-01-08 13:05:46.88	18.94	0.29	-48.5	-61.4	3.5	1.52e+00	0	32	104	0	60	41186
2026-01-08 13:05:47.89	18.99	0.35	-48.6	-61.5	3.5	1.52e+00	0	32	104	0	60	41707
2026-01-08 13:05:48.90	19.04	0.40	-48.6	-61.5	3.5	1.52e+00	0	32	104	0	60	41641
2026-01-08 13:05:49.91	19.10	0.46	-48.6	-61.4	3.5	1.52e+00	0	32	104	0	60	41448
2026-01-08 13:05:50.92	19.15	0.51	-48.5	-61.4	3.5	1.52e+00	0	32	104	0	60	41024
2026-01-08 13:05:51.93	19.21	0.57	-48.5	-61.3	3.5	1.52e+00	0	32	104	0	60	40905
2026-01-08 13:05:52.94	19.26	0.63	-48.3	-61.1	3.5	1.51e+00	0	32	104	0	60	39978
2026-01-08 13:05:53.95	19.32	0.68	-48.2	-61.0	3.5	1.52e+00	0	32	104	0	60	39309
2026-01-08 13:05:54.96	19.37	0.74	-47.9	-60.8	3.5	1.52e+00	0	32	104	0	60	38666
2026-01-08 13:05:55.97	19.43	0.79	-47.8	-60.6	3.5	1.52e+00	0	32	104	0	60	37746
2026-01-08 13:05:56.98	19.48	0.85	-47.6	-60.4	3.5	1.52e+00	0	32	104	0	60	36620
2026-01-08 13:05:57.98	19.54	0.91	-47.1	-59.9	3.5	1.52e+00	0	32	104	0	60	34601
2026-01-08 13:05:58.99	19.59	0.96	-47.0	-59.8	3.5	1.52e+00	0	32	104	0	60	34105
2026-01-08 13:06:00.01	19.65	1.02	-47.0	-59.8	3.5	1.52e+00	0	32	104	0	60	34236
2026-01-08 13:06:01.01	19.71	1.07	-47.0	-59.7	3.5	1.52e+00	0	32	104	0	60	34088
2026-01-08 13:06:02.02	19.76	1.13	-47.0	-59.8	3.5	1.52e+00	0	32	104	0	60	34300
2026-01-08 13:06:03.03	19.82	1.19	-47.0	-59.8	3.5	1.52e+00	0	32	104	0	60	34277
2026-01-08 13:06:04.04	19.88	1.24	-47.0	-59.8	3.5	1.52e+00	0	32	104	0	60	34211
2026-01-08 13:06:05.05	19.93	1.30	-47.0	-59.8	3.5	1.52e+00	0	32	104	0	60	34298
2026-01-08 13:06:06.06	19.99	1.36	-47.0	-59.8	3.5	1.52e+00	0	32	104	0	60	34314
2026-01-08 13:06:07.07	20.05	1.42	-47.0	-59.8	3.5	1.52e+00	0	32	104	0	60	34272
2026-01-08 13:06:08.08	20.11	1.47	-47.0	-59.8	3.5	1.52e+00	0	32	104	0	60	34166
2026-01-08 13:06:09.09	20.16	1.53	-47.0	-59.8	3.5	1.52e+00	0	32	104	0	60	34117
2026-01-08 13:06:10.10	20.22	1.59	-47.0	-59.8	3.5	1.52e+00	0	32	104	0	60	34115
2026-01-08 13:06:11.11	20.28	1.64	-47.0	-59.6	3.5	1.52e+00	0	32	104	0	60	33656
2026-01-08 13:06:12.12	20.34	1.70	-47.0	-59.6	3.5	1.52e+00	0	32	104	0	60	33569
2026-01-08 13:06:13.13	20.40	1.76	-47.0	-59.6	3.5	1.52e+00	0	32	104	0	60	33614
2026-01-08 13:06:14.14	20.46	1.82	-47.0	-59.7	3.5	1.51e+00	0	32	104	0	60	33720
2026-01-08 13:06:15.15	20.51	1.87	-47.0	-59.7	3.5	1.51e+00	0	32	104	0	60	33969
2026-01-08 13:06:16.16	20.57	1.93	-47.0	-59.8	3.5	1.52e+00	0	32	104	0	60	34182
2026-01-08 13:06:17.17	20.63	1.99	-47.0	-59.8	3.5	1.52e+00	0	32	104	0	60	34229
2026-01-08 13:06:18.18	20.69	2.05	-47.0	-59.7	3.5	1.51e+00	0	32	104	0	60	34016
2026-01-08 13:06:19.19	20.75	2.11	-47.0	-59.8	3.5	1.52e+00	0	32	104	0	60	34144
2026-01-08 13:06:20.20	20.81	2.16	-47.0	-59.7	3.5	1.52e+00	0	32	104	0	60	33826
2026-01-08 13:06:21.21	20.87	2.22	-46.9	-59.5	3.5	1.51e+00	0	32	104	0	60	33182
2026-01-08 13:06:22.22	20.93	2.28	-46.9	-59.0	3.5	1.52e+00	0	32	104	0	60	31102
2026-01-08 13:06:23.23	21.00	2.34	-46.9	-58.6	3.5	1.51e+00	0	32	104	0	60	29708
2026-01-08 13:06:24.24	21.06	2.40	-46.9	-58.5	3.5	1.51e+00	0	32	104	0	60	29607
2026-01-08 13:06:25.24	21.12	2.46	-46.9	-59.0	3.5	1.51e+00	0	32	104	0	60	31230
2026-01-08 13:06:26.26	21.18	2.52	-46.9	-59.3	3.5	1.52e+00	0	32	104	0	60	32336
2026-01-08 13:06:27.27	21.24	2.57	-46.7	-57.1	3.6	1.51e+00	0	32	104	0	60	25097
2026-01-08 13:06:28.28	21.30	2.63	-46.1	-53.3	6.4	4.02e-01	122	32	104	0	60	16281
2026-01-08 13:06:29.29	21.36	2.69	-44.6	-48.4	10.5	1.17e-02	123	32	0	2097152	60	9205
2026-01-08 13:06:30.29	21.43	2.75	-43.0	-45.6	13.5	2.04e-04	123	32	0	5242880	60	6712
2026-01-08 13:06:31.30	21.49	2.81	-41.2	-43.1	16.1	0.00e+00	123	32	0	8388608	56	6329
2026-01-08 13:06:32.31	21.55	2.87	-39.8	-41.4	17.6	0.00e+00	122	32	0	11534336	54	5838
2026-01-08 13:06:33.32	21.62	2.93	-38.7	-40.0	18.9	0.00e+00	122	32	0	14680064	52	5572
2026-01-08 13:06:34.33	21.68	2.99	-38.2	-39.5	19.4	0.00e+00	120	32	0	17825792	50	5861
2026-01-08 13:06:35.34	21.74	3.05	-38.0	-39.2	19.6	0.00e+00	122	32	0	20971520	50	5710
2026-01-08 13:06:36.35	21.81	3.11	-38.0	-39.3	19.4	0.00e+00	123	32	0	24117248	50	5756
2026-01-08 13:06:37.36	21.87	3.17	-38.7	-40.1	18.7	0.00e+00	122	32	0	27262976	50	6282
2026-01-08 13:06:38.37	21.93	3.23	-39.9	-41.4	17.3	0.00e+00	120	32	0	30408704	50	7369
2026-01-08 13:06:39.38	22.00	3.29	-41.4	-43.4	15.5	0.00e+00	123	32	0	33554432	54	7335
2026-01-08 13:06:40.39	22.06	3.35	-43.0	-45.6	13.5	7.60e-06	123	32	0	36700160	58	7495
2026-01-08 13:06:41.40	22.13	3.41	-39.7	-41.3	17.7	0.00e+00	120	32	0	39845888	52	6446
2026-01-08 13:06:42.41	22.19	3.47	-46.8	-58.3	3.5	1.51e+00	0	32	104	40894464	60	28757
2026-01-08 13:06:43.42	22.26	3.53	-45.9	-52.1	8.8	1.08e-01	122	32	104	40894464	60	14171
2026-01-08 13:06:44.43	22.33	3.59	-42.8	-45.2	14.8	3.80e-06	122	32	0	41943040	60	6354
2026-01-08 13:06:45.43	22.39	3.65	-47.0	-58.5	3.5	1.51e+00	0	32	104	44040192	60	29525
2026-01-08 13:06:46.44	22.46	3.71	-42.3	-44.5	14.8	3.00e-06	122	32	0	45088768	58	6620
2026-01-08 13:06:47.45	22.52	3.77	-42.7	-45.0	14.1	0.00e+00	122	32	0	48234496	58	7001
2026-01-08 13:06:48.46	22.59	3.83	-43.0	-45.6	13.9	3.00e-06	123	33	0	51380224	58	7462
2026-01-08 13:06:49.47	22.66	3.89	-42.6	-45.0	14.3	7.00e-07	123	32	0	54525952	58	6995
2026-01-08 13:06:50.48	22.72	3.96	-40.9	-42.6	16.7	0.00e+00	122	33	0	57671680	56	5954
2026-01-08 13:06:51.49	22.79	4.02	-39.6	-41.0	18.3	0.00e+00	123	33	0	60817408	52	6262
2026-01-08 13:06:52.50	22.86	4.08	-38.7	-40.0	19.2	0.00e+00	121	32	0	63963136	52	5571
2026-01-08 13:06:53.51	22.93	4.14	-38.3	-39.6	19.5	0.00e+00	120	33	0	67108864	50	5979
2026-01-08 13:06:54.52	23.00	4.20	-37.9	-39.2	19.9	0.00e+00	122	33	0	70254592	50	5681
2026-01-08 13:06:55.52	23.06	4.26	-37.4	-38.5	20.5	0.00e+00	123	33	0	73400320	48	5923
2026-01-08 13:06:56.53	23.13	4.33	-37.2	-38.3	20.7	0.00e+00	120	33	0	76546048	48	5778
2026-01-08 13:06:57.54	23.20	4.39	-37.3	-38.5	20.5	0.00e+00	122	33	0	79691776	48	5865
2026-01-08 13:06:58.55	23.27	4.45	-37.3	-38.4	20.6	0.00e+00	120	33	0	82837504	48	5853
2026-01-08 13:06:59.56	23.34	4.51	-37.1	-38.2	20.8	0.00e+00	123	32	0	85983232	48	5706
2026-01-08 13:07:00.57	23.41	4.57	-37.2	-38.3	20.8	0.00e+00	123	33	0	89128960	48	5769
2026-01-08 13:07:01.57	23.48	4.64	-37.1	-38.3	20.8	0.00e+00	122	32	0	92274688	48	5734
2026-01-08 13:07:02.58	23.55	4.70	-37.0	-38.1	20.9	0.00e+00	123	32	0	95420416	48	5619
2026-01-08 13:07:03.59	23.62	4.76	-36.9	-38.0	21.0	0.00e+00	123	33	0	98566144	48	5584
2026-01-08 13:07:04.60	23.69	4.82	-37.1	-38.2	20.8	0.00e+00	120	33	0	101711872	48	5695
2026-01-08 13:07:05.61	23.76	4.89	-36.9	-38.0	21.0	0.00e+00	122	33	0	104857600	48	5565
2026-01-08 13:07:06.62	23.84	4.95	-36.7	-37.8	21.2	0.00e+00	122	32	0	108003328	46	6091
2026-01-08 13:07:07.63	23.91	5.01	-36.7	-37.8	21.2	0.00e+00	123	33	0	111149056	46	6108
2026-01-08 13:07:08.64	23.98	5.08	-36.7	-37.8	21.2	0.00e+00	122	33	0	114294784	46	6090
2026-01-08 13:07:09.65	24.05	5.14	-36.7	-37.8	21.2	0.00e+00	123	33	0	117440512	46	6122
2026-01-08 13:07:10.66	24.13	5.20	-36.7	-37.7	21.3	0.00e+00	123	32	0	120586240	46	6059
2026-01-08 13:07:11.67	24.20	5.27	-36.6	-37.7	21.3	0.00e+00	120	33	0	123731968	46	6006
2026-01-08 13:07:12.68	24.27	5.33	-36.7	-37.8	21.3	0.00e+00	120	33	0	126877696	46	6066
2026-01-08 13:07:13.69	24.35	5.39	-36.6	-37.7	21.4	0.00e+00	123	33	0	130023424	46	6052
2026-01-08 13:07:14.70	24.42	5.46	-36.5	-37.6	21.5	0.00e+00	123	33	0	133169152	46	5946
2026-01-08 13:07:15.71	24.49	5.52	-36.6	-37.6	21.4	0.00e+00	123	33	0	136314880	46	5982
2026-01-08 13:07:16.72	24.57	5.59	-36.6	-37.7	21.5	0.00e+00	122	33	0	139460608	46	6003
2026-01-08 13:07:17.73	24.64	5.65	-36.6	-37.7	21.4	0.00e+00	123	33	0	142606336	46	6021
2026-01-08 13:07:18.74	24.72	5.72	-36.6	-37.7	21.5	0.00e+00	122	33	0	145752064	46	6014
2026-01-08 13:07:19.75	24.79	5.78	-36.5	-37.6	21.5	0.00e+00	122	33	0	148897792	46	5955
2026-01-08 13:07:20.75	24.87	5.84	-36.6	-37.6	21.4	0.00e+00	120	33	0	152043520	46	5994
2026-01-08 13:07:21.76	24.95	5.91	-36.8	-37.9	21.2	0.00e+00	123	32	0	155189248	46	6137
2026-01-08 13:07:22.77	25.02	5.97	-36.8	-37.9	21.3	0.00e+00	121	33	0	158334976	46	6142
2026-01-08 13:07:23.78	25.10	6.04	-36.8	-37.9	21.3	0.00e+00	123	33	0	161480704	46	6145
2026-01-08 13:07:24.79	25.18	6.10	-36.6	-37.7	21.5	0.00e+00	122	33	0	164626432	46	6031
2026-01-08 13:07:25.80	25.25	6.17	-36.6	-37.7	21.4	0.00e+00	121	33	0	167772160	46	6024
2026-01-08 13:07:26.80	25.33	6.23	-36.7	-37.9	21.3	0.00e+00	122	33	0	170917888	46	6135
2026-01-08 13:07:27.81	25.41	6.30	-36.6	-37.7	21.5	0.00e+00	123	33	0	174063616	46	6036
2026-01-08 13:07:28.82	25.49	6.37	-36.7	-37.8	21.4	0.00e+00	123	33	0	177209344	46	6122
2026-01-08 13:07:29.83	25.57	6.43	-36.7	-37.8	21.3	0.00e+00	123	33	0	180355072	46	6132
2026-01-08 13:07:30.84	25.65	6.50	-36.7	-37.8	21.4	0.00e+00	122	33	0	183500800	46	6079
2026-01-08 13:07:31.85	25.73	6.56	-36.6	-37.7	21.4	0.00e+00	122	33	0	186646528	46	6024
2026-01-08 13:07:32.86	25.80	6.63	-36.6	-37.7	21.5	0.00e+00	122	33	0	189792256	46	6043
2026-01-08 13:07:33.86	25.88	6.70	-36.6	-37.6	21.5	0.00e+00	122	33	0	192937984	46	5991
2026-01-08 13:07:34.87	25.96	6.76	-36.6	-37.7	21.5	0.00e+00	123	33	0	196083712	46	6016
2026-01-08 13:07:35.88	26.05	6.83	-36.6	-37.7	21.5	0.00e+00	122	33	0	199229440	46	6018
2026-01-08 13:07:36.89	26.13	6.89	-36.5	-37.6	21.6	0.00e+00	120	33	0	202375168	46	5956
2026-01-08 13:07:37.90	26.21	6.96	-36.6	-37.7	21.5	0.00e+00	121	33	0	205520896	46	6062
2026-01-08 13:07:38.91	26.29	7.03	-36.5	-37.6	21.6	0.00e+00	123	33	0	208666624	46	5971
2026-01-08 13:07:39.92	26.37	7.10	-36.4	-37.5	21.8	0.00e+00	123	33	0	211812352	46	5878
2026-01-08 13:07:40.93	26.45	7.16	-36.4	-37.4	21.8	0.00e+00	120	33	0	214958080	46	5848
2026-01-08 13:07:41.94	26.54	7.23	-36.3	-37.4	21.8	0.00e+00	123	33	0	218103808	46	5821
2026-01-08 13:07:42.95	26.62	7.30	-36.6	-37.6	21.6	0.00e+00	120	33	0	221249536	46	5985
2026-01-08 13:07:43.96	26.70	7.37	-36.5	-37.5	21.7	0.00e+00	123	32	0	224395264	46	5922
2026-01-08 13:07:44.97	26.79	7.43	-36.3	-37.4	21.8	0.00e+00	120	33	0	227540992	46	5831
2026-01-08 13:07:45.98	26.87	7.50	-36.2	-37.3	21.9	0.00e+00	120	33	0	230686720	46	5738
2026-01-08 13:07:46.99	26.96	7.57	-36.4	-37.4	21.9	0.00e+00	122	33	0	233832448	46	5849
2026-01-08 13:07:48.00	27.04	7.64	-36.2	-37.2	22.0	0.00e+00	123	33	0	236978176	46	5715
2026-01-08 13:07:49.01	27.13	7.71	-36.2	-37.3	21.9	0.00e+00	123	33	0	240123904	46	5726
2026-01-08 13:07:50.02	27.21	7.77	-36.2	-37.3	21.9	0.00e+00	123	33	0	243269632	46	5745
2026-01-08 13:07:51.03	27.30	7.84	-36.2	-37.2	22.0	0.00e+00	122	33	0	246415360	46	5694
2026-01-08 13:07:52.04	27.39	7.91	-36.1	-37.2	22.1	0.00e+00	123	33	0	249561088	46	5691
2026-01-08 13:07:53.05	27.47	7.98	-36.2	-37.3	22.0	0.00e+00	123	33	0	252706816	46	5737
2026-01-08 13:07:54.05	27.56	8.05	-36.1	-37.2	22.1	0.00e+00	122	33	0	255852544	46	5680
2026-01-08 13:07:55.06	27.65	8.12	-36.0	-37.0	22.2	0.00e+00	120	33	0	258998272	46	5590
2026-01-08 13:07:56.07	27.74	8.19	-35.9	-36.9	22.2	0.00e+00	122	33	0	262144000	46	5527
2026-01-08 13:07:57.08	27.83	8.26	-35.9	-37.0	22.2	0.00e+00	123	33	0	265289728	46	5539
2026-01-08 13:07:58.09	27.91	8.32	-35.9	-36.9	22.3	0.00e+00	120	33	0	268435456	46	5490
2026-01-08 13:07:59.10	28.00	8.39	-35.7	-36.7	22.4	0.00e+00	116	33	0	271581184	44	6051
2026-01-08 13:08:00.11	28.09	8.46	-35.7	-36.7	22.5	0.00e+00	122	33	0	274726912	44	6036
2026-01-08 13:08:01.12	28.18	8.53	-35.5	-36.5	22.6	0.00e+00	123	33	0	277872640	44	5906
2026-01-08 13:08:02.13	28.27	8.60	-35.6	-36.6	22.5	0.00e+00	123	33	0	281018368	44	5957
2026-01-08 13:08:03.14	28.37	8.67	-35.8	-36.8	22.4	0.00e+00	120	33	0	285212672	44	6076
2026-01-08 13:08:04.15	28.46	8.74	-35.6	-36.6	22.7	0.00e+00	123	33	0	287309824	44	5930
2026-01-08 13:08:05.15	28.55	8.81	-35.6	-36.6	22.7	0.00e+00	121	33	0	290455552	44	5951
2026-01-08 13:08:06.16	28.64	8.88	-35.4	-36.4	22.9	0.00e+00	123	33	0	293601280	44	5800
2026-01-08 13:08:07.17	28.73	8.96	-35.3	-36.3	22.9	0.00e+00	122	33	0	296747008	44	5768
2026-01-08 13:08:08.18	28.83	9.03	-35.3	-36.3	22.9	0.00e+00	122	33	0	299892736	44	5735
2026-01-08 13:08:09.19	28.92	9.10	-35.3	-36.3	22.9	0.00e+00	123	33	0	304087040	44	5760
2026-01-08 13:08:10.19	29.01	9.17	-35.3	-36.3	22.9	0.00e+00	122	33	0	307232768	44	5764
2026-01-08 13:08:11.20	29.11	9.24	-35.2	-36.2	23.0	0.00e+00	122	33	0	310378496	44	5675
2026-01-08 13:08:12.21	29.20	9.31	-35.3	-36.2	23.0	0.00e+00	123	33	0	312475648	44	5707
2026-01-08 13:08:13.22	29.30	9.38	-35.3	-36.3	23.0	0.00e+00	123	33	0	315621376	44	5730
2026-01-08 13:08:14.23	29.39	9.45	-35.2	-36.1	23.1	0.00e+00	121	33	0	319815680	44	5640
2026-01-08 13:08:15.24	29.49	9.52	-35.2	-36.2	23.0	0.00e+00	123	33	0	322961408	44	5673
2026-01-08 13:08:16.25	29.59	9.60	-35.3	-36.2	23.1	0.00e+00	123	33	0	326107136	44	5719
2026-01-08 13:08:17.26	29.68	9.67	-35.1	-36.0	23.2	0.00e+00	122	33	0	329252864	44	5572
2026-01-08 13:08:18.26	29.78	9.74	-35.1	-36.1	23.0	0.00e+00	123	33	0	332398592	44	5612
2026-01-08 13:08:19.27	29.88	9.81	-35.1	-36.0	23.2	0.00e+00	123	33	0	334495744	44	5588
2026-01-08 13:08:20.28	29.98	9.89	-35.1	-36.0	23.1	0.00e+00	122	33	0	338690048	44	5590
2026-01-08 13:08:21.29	30.08	9.96	-34.9	-35.9	23.2	0.00e+00	123	33	0	341835776	44	5494
2026-01-08 13:08:22.30	30.17	10.03	-34.8	-35.8	23.4	0.00e+00	123	33	0	344981504	44	5415
2026-01-08 13:08:23.31	30.27	10.10	-35.1	-36.0	23.2	0.00e+00	123	33	0	348127232	44	5572
2026-01-08 13:08:24.32	30.38	10.18	-34.8	-35.7	23.4	0.00e+00	123	33	0	351272960	44	5404
2026-01-08 13:08:25.33	30.48	10.25	-34.8	-35.7	23.5	0.00e+00	120	33	0	354418688	42	6030
2026-01-08 13:08:26.34	30.58	10.32	-34.8	-35.8	23.5	0.00e+00	123	33	0	357564416	42	6081
2026-01-08 13:08:27.35	30.68	10.40	-34.8	-35.7	23.5	0.00e+00	123	33	0	360710144	42	6012
2026-01-08 13:08:28.35	30.78	10.47	-34.8	-35.8	23.4	0.00e+00	123	33	0	363855872	42	6096
2026-01-08 13:08:29.36	30.88	10.54	-34.7	-35.7	23.5	0.00e+00	123	33	0	367001600	42	6020
2026-01-08 13:08:30.37	30.99	10.62	-34.8	-35.7	23.5	0.00e+00	122	33	0	370147328	42	6040
2026-01-08 13:08:31.38	31.09	10.69	-34.7	-35.7	23.6	0.00e+00	123	33	0	373293056	42	6011
2026-01-08 13:08:32.39	31.19	10.77	-34.7	-35.7	23.5	0.00e+00	123	33	0	376438784	42	6009
2026-01-08 13:08:33.40	31.30	10.84	-34.7	-35.6	23.6	0.00e+00	123	33	0	379584512	42	5960
2026-01-08 13:08:34.41	31.40	10.91	-34.8	-35.8	23.5	0.00e+00	123	33	0	382730240	42	6070
2026-01-08 13:08:35.42	31.51	10.99	-34.6	-35.5	23.6	0.00e+00	122	33	0	385875968	42	5919
2026-01-08 13:08:36.43	31.62	11.06	-34.7	-35.6	23.5	0.00e+00	122	33	0	389021696	42	5986
2026-01-08 13:08:37.44	31.72	11.14	-34.7	-35.6	23.6	0.00e+00	120	33	0	392167424	42	5958
2026-01-08 13:08:38.45	31.83	11.21	-34.6	-35.6	23.6	0.00e+00	123	33	0	395313152	42	5944
2026-01-08 13:08:39.46	31.94	11.29	-34.6	-35.5	23.6	0.00e+00	120	33	0	398458880	42	5912
2026-01-08 13:08:40.46	32.05	11.36	-34.5	-35.5	23.7	0.00e+00	123	33	0	401604608	42	5860
2026-01-08 13:08:41.47	32.16	11.44	-34.6	-35.5	23.7	0.00e+00	123	33	0	404750336	42	5877
2026-01-08 13:08:42.48	32.26	11.52	-34.6	-35.5	23.7	0.00e+00	123	33	0	407896064	42	5889
2026-01-08 13:08:43.49	32.37	11.59	-34.4	-35.4	23.7	0.00e+00	122	33	0	411041792	42	5802
2026-01-08 13:08:44.50	32.49	11.67	-34.5	-35.4	23.7	0.00e+00	120	33	0	414187520	42	5826
2026-01-08 13:08:45.51	32.60	11.74	-34.3	-35.2	23.9	0.00e+00	122	33	0	417333248	42	5722
2026-01-08 13:08:46.52	32.71	11.82	-34.3	-35.3	23.9	0.00e+00	120	33	0	420478976	42	5736
2026-01-08 13:08:47.53	32.82	11.90	-34.4	-35.3	23.9	0.00e+00	123	33	0	423624704	42	5740
2026-01-08 13:08:48.54	32.93	11.97	-34.3	-35.2	23.9	0.00e+00	123	33	0	426770432	42	5679
2026-01-08 13:08:49.55	33.05	12.05	-34.3	-35.2	23.9	0.00e+00	122	33	0	429916160	42	5700
2026-01-08 13:08:50.56	33.16	12.13	-34.3	-35.2	23.9	0.00e+00	122	33	0	433061888	42	5674
2026-01-08 13:08:51.57	33.27	12.20	-34.2	-35.1	23.9	0.00e+00	122	33	0	436207616	42	5655
2026-01-08 13:08:52.58	33.39	12.28	-34.2	-35.1	24.0	0.00e+00	123	33	0	439353344	42	5625
2026-01-08 13:08:53.59	33.51	12.36	-34.4	-35.3	23.8	0.00e+00	123	33	0	442499072	42	5754
2026-01-08 13:08:54.59	33.62	12.43	-34.2	-35.1	24.0	0.00e+00	123	33	0	445644800	42	5626
2026-01-08 13:08:55.60	33.74	12.51	-34.1	-35.0	24.0	0.00e+00	123	33	0	448790528	42	5579
2026-01-08 13:08:56.61	33.85	12.59	-34.1	-35.0	24.0	0.00e+00	123	33	0	451936256	42	5586
2026-01-08 13:08:57.62	33.97	12.67	-34.3	-35.2	23.8	0.00e+00	122	33	0	455081984	42	5687
2026-01-08 13:08:58.63	34.09	12.74	-34.1	-35.0	23.9	0.00e+00	120	33	0	458227712	42	5592
2026-01-08 13:08:59.64	34.21	12.82	-34.3	-35.2	23.9	0.00e+00	123	33	0	461373440	42	5681
2026-01-08 13:09:00.65	34.33	12.90	-34.5	-35.4	23.8	0.00e+00	123	33	0	464519168	42	5812
2026-01-08 13:09:01.66	34.45	12.98	-34.2	-35.2	23.9	0.00e+00	122	33	0	467664896	42	5667
2026-01-08 13:09:02.67	34.57	13.06	-34.2	-35.1	24.0	0.00e+00	120	33	0	470810624	42	5614
2026-01-08 13:09:03.68	34.69	13.14	-34.2	-35.1	23.9	0.00e+00	123	33	0	473956352	42	5659
2026-01-08 13:09:04.69	34.82	13.22	-34.2	-35.1	24.0	0.00e+00	122	33	0	477102080	42	5619
2026-01-08 13:09:05.70	34.94	13.29	-34.1	-35.1	24.0	0.00e+00	122	33	0	480247808	42	5598
2026-01-08 13:09:06.71	35.06	13.37	-34.2	-35.2	23.9	0.00e+00	123	33	0	483393536	42	5664
2026-01-08 13:09:07.72	35.19	13.45	-34.3	-35.2	23.9	0.00e+00	123	33	0	486539264	42	5707
2026-01-08 13:09:08.73	35.31	13.53	-34.4	-35.3	23.9	0.00e+00	120	33	0	489684992	42	5773
2026-01-08 13:09:09.73	35.44	13.61	-34.5	-35.4	23.7	0.00e+00	121	33	0	492830720	42	5824
2026-01-08 13:09:10.75	35.56	13.69	-34.5	-35.4	23.8	0.00e+00	123	33	0	495976448	42	5836
2026-01-08 13:09:11.76	35.69	13.77	-34.4	-35.3	23.8	0.00e+00	123	33	0	499122176	42	5783
2026-01-08 13:09:12.76	35.82	13.85	-34.4	-35.3	23.8	0.00e+00	122	33	0	502267904	42	5768
2026-01-08 13:09:13.77	35.94	13.93	-34.3	-35.3	23.8	0.00e+00	123	33	0	505413632	42	5748
2026-01-08 13:09:14.78	36.07	14.01	-34.5	-35.4	23.8	0.00e+00	120	33	0	508559360	42	5835
2026-01-08 13:09:15.79	36.20	14.09	-34.5	-35.4	23.9	0.00e+00	122	33	0	511705088	42	5833
2026-01-08 13:09:16.80	36.33	14.17	-34.6	-35.5	23.8	0.00e+00	123	33	0	514850816	42	5884
2026-01-08 13:09:17.81	36.46	14.25	-34.6	-35.5	23.8	0.00e+00	122	33	0	517996544	42	5888
2026-01-08 13:09:18.82	36.59	14.33	-34.6	-35.5	23.9	0.00e+00	122	33	0	521142272	42	5887
2026-01-08 13:09:19.83	36.73	14.41	-34.5	-35.4	23.9	0.00e+00	122	33	0	524288000	42	5840
2026-01-08 13:09:20.84	36.86	14.49	-34.5	-35.5	23.8	0.00e+00	123	33	0	527433728	42	5869
2026-01-08 13:09:21.85	36.99	14.58	-34.6	-35.6	23.7	0.00e+00	123	33	0	530579456	42	5944
2026-01-08 13:09:22.86	37.13	14.66	-34.8	-35.7	23.6	0.00e+00	123	33	0	533725184	42	6042
2026-01-08 13:09:23.87	37.26	14.74	-34.6	-35.5	23.8	0.00e+00	122	33	0	536870912	42	5877
2026-01-08 13:09:24.88	37.40	14.82	-34.8	-35.7	23.7	0.00e+00	122	33	0	540016640	42	6030
2026-01-08 13:09:25.89	37.53	14.90	-34.5	-35.4	23.9	0.00e+00	120	33	0	543162368	42	5850
2026-01-08 13:09:26.89	37.67	14.98	-34.5	-35.5	23.9	0.00e+00	120	33	0	546308096	42	5873
2026-01-08 13:09:27.90	37.81	15.06	-34.6	-35.6	23.7	0.00e+00	123	33	0	549453824	42	5954
2026-01-08 13:09:28.91	37.95	15.15	-34.6	-35.6	23.8	0.00e+00	122	33	0	552599552	42	5929
2026-01-08 13:09:29.92	38.08	15.23	-34.5	-35.4	23.9	0.00e+00	123	33	0	555745280	42	5851
2026-01-08 13:09:30.93	38.22	15.31	-34.6	-35.6	23.8	0.00e+00	123	33	0	558891008	42	5937
2026-01-08 13:09:31.94	38.37	15.39	-34.5	-35.4	23.8	0.00e+00	120	33	0	562036736	42	5837
2026-01-08 13:09:32.95	38.51	15.48	-34.7	-35.6	23.7	0.00e+00	123	33	0	565182464	42	5967
2026-01-08 13:09:33.96	38.65	15.56	-34.5	-35.5	23.9	0.00e+00	123	33	0	568328192	42	5863
2026-01-08 13:09:34.97	38.79	15.64	-34.6	-35.5	23.9	0.00e+00	123	33	0	571473920	42	5886
2026-01-08 13:09:35.98	38.94	15.72	-34.5	-35.4	23.9	0.00e+00	120	33	0	574619648	42	5852
2026-01-08 13:09:36.99	39.08	15.81	-34.6	-35.6	23.8	0.00e+00	123	33	0	577765376	42	5940
2026-01-08 13:09:38.00	39.23	15.89	-34.6	-35.6	23.8	0.00e+00	120	33	0	580911104	42	5928
2026-01-08 13:09:39.01	39.37	15.97	-34.6	-35.5	23.7	0.00e+00	123	33	0	584056832	42	5907
2026-01-08 13:09:40.02	39.52	16.06	-34.5	-35.5	23.9	0.00e+00	122	33	0	587202560	42	5868
2026-01-08 13:09:41.03	39.67	16.14	-34.7	-35.6	23.7	0.00e+00	122	33	0	590348288	42	5954
2026-01-08 13:09:42.04	39.82	16.22	-34.7	-35.6	23.7	0.00e+00	122	33	0	593494016	42	5965
2026-01-08 13:09:43.05	39.96	16.31	-34.8	-35.8	23.6	0.00e+00	122	33	0	596639744	42	6075
2026-01-08 13:09:44.05	40.11	16.39	-34.8	-35.7	23.6	0.00e+00	123	33	0	599785472	42	6014
2026-01-08 13:09:45.06	40.26	16.47	-34.6	-35.5	23.8	0.00e+00	123	33	0	602931200	42	5921
2026-01-08 13:09:46.07	40.42	16.56	-34.6	-35.5	23.7	0.00e+00	122	33	0	606076928	42	5911
2026-01-08 13:09:47.08	40.57	16.64	-34.7	-35.7	23.7	0.00e+00	120	33	0	609222656	42	5996
2026-01-08 13:09:48.08	40.72	16.73	-34.8	-35.7	23.6	0.00e+00	122	33	0	612368384	42	6050
2026-01-08 13:09:49.09	40.87	16.81	-34.8	-35.7	23.5	0.00e+00	123	33	0	615514112	42	6064
2026-01-08 13:09:50.10	41.03	16.89	-35.0	-35.9	23.4	0.00e+00	122	33	0	618659840	42	6179
2026-01-08 13:09:51.11	41.19	16.98	-35.0	-36.0	23.4	0.00e+00	123	33	0	621805568	42	6224
2026-01-08 13:09:52.12	41.34	17.06	-34.9	-35.8	23.5	0.00e+00	122	33	0	624951296	42	6097
2026-01-08 13:09:53.12	41.50	17.15	-35.0	-35.9	23.4	0.00e+00	122	33	0	628097024	42	6180
2026-01-08 13:09:54.13	41.66	17.23	-35.0	-35.9	23.4	0.00e+00	123	33	0	631242752	42	6171
2026-01-08 13:09:55.14	41.82	17.32	-35.1	-36.0	23.4	0.00e+00	122	33	0	634388480	42	6256
2026-01-08 13:09:56.15	41.98	17.40	-35.1	-36.1	23.3	0.00e+00	122	33	0	637534208	42	6321
2026-01-08 13:09:57.16	42.14	17.49	-35.1	-36.0	23.4	0.00e+00	120	33	0	640679936	42	6239
2026-01-08 13:09:58.17	42.30	17.57	-35.0	-36.0	23.5	0.00e+00	122	33	0	643825664	42	6212
2026-01-08 13:09:59.18	42.46	17.66	-35.0	-35.9	23.6	0.00e+00	122	33	0	646971392	42	6192
2026-01-08 13:10:00.18	42.62	17.74	-35.1	-36.0	23.5	0.00e+00	122	33	0	650117120	42	6254
2026-01-08 13:10:01.20	42.79	17.83	-35.1	-36.1	23.5	0.00e+00	123	33	0	653262848	42	6286
2026-01-08 13:10:02.21	42.96	17.91	-35.1	-36.0	23.5	0.00e+00	123	33	0	656408576	42	6241
2026-01-08 13:10:03.22	43.12	18.00	-34.9	-35.8	23.6	0.00e+00	122	33	0	659554304	42	6098
2026-01-08 13:10:04.23	43.29	18.08	-34.9	-35.8	23.6	0.00e+00	122	33	0	662700032	42	6098
2026-01-08 13:10:05.24	43.46	18.17	-34.9	-35.8	23.6	0.00e+00	122	33	0	665845760	42	6129
2026-01-08 13:10:06.25	43.63	18.25	-35.0	-35.9	23.5	0.00e+00	122	33	0	668991488	42	6177
2026-01-08 13:10:07.26	43.80	18.34	-34.9	-35.9	23.6	0.00e+00	123	33	0	672137216	42	6149
2026-01-08 13:10:08.27	43.97	18.43	-34.6	-35.5	23.8	0.00e+00	122	33	0	675282944	42	5899
2026-01-08 13:10:09.28	44.14	18.51	-34.6	-35.5	23.8	0.00e+00	123	33	0	678428672	42	5920
2026-01-08 13:10:10.29	44.31	18.60	-34.6	-35.5	23.9	0.00e+00	120	33	0	681574400	42	5894
2026-01-08 13:10:11.30	44.49	18.68	-34.6	-35.5	23.8	0.00e+00	123	33	0	684720128	42	5909
2026-01-08 13:10:12.31	44.66	18.77	-34.5	-35.5	23.9	0.00e+00	123	33	0	687865856	42	5860
2026-01-08 13:10:13.31	44.84	18.85	-34.4	-35.4	23.9	0.00e+00	123	33	0	691011584	42	5794
2026-01-08 13:10:14.33	45.01	18.94	-34.3	-35.2	24.0	0.00e+00	120	33	0	694157312	42	5705
2026-01-08 13:10:15.34	45.19	19.03	-34.4	-35.3	24.0	0.00e+00	122	33	0	698351616	42	5770
2026-01-08 13:10:16.35	45.37	19.11	-34.2	-35.1	24.1	0.00e+00	123	33	0	700448768	42	5637
2026-01-08 13:10:17.36	45.55	19.20	-34.3	-35.2	24.0	0.00e+00	123	33	0	703594496	42	5679
2026-01-08 13:10:18.37	45.73	19.29	-34.1	-35.0	24.2	0.00e+00	123	33	0	706740224	42	5553
2026-01-08 13:10:19.38	45.91	19.37	-34.0	-34.9	24.2	0.00e+00	122	33	0	709885952	42	5524
2026-01-08 13:10:20.39	46.10	19.46	-34.0	-35.0	24.1	0.00e+00	123	33	0	714080256	42	5534
2026-01-08 13:10:21.40	46.28	19.54	-33.8	-34.7	24.3	0.00e+00	122	33	0	717225984	42	5394
2026-01-08 13:10:22.41	46.46	19.63	-33.9	-34.8	24.2	0.00e+00	122	33	0	720371712	42	5421
2026-01-08 13:10:23.42	46.65	19.72	-33.9	-34.8	24.3	0.00e+00	123	33	0	723517440	42	5442
2026-01-08 13:10:24.43	46.84	19.80	-34.0	-34.9	24.2	0.00e+00	122	33	0	725614592	42	5485
2026-01-08 13:10:25.44	47.02	19.89	-34.1	-35.0	24.1	0.00e+00	121	33	0	729808896	42	5576
2026-01-08 13:10:26.45	47.21	19.98	-34.1	-35.0	24.1	0.00e+00	123	33	0	732954624	42	5570
2026-01-08 13:10:27.46	47.40	20.06	-33.9	-34.8	24.3	0.00e+00	123	33	0	736100352	42	5454
2026-01-08 13:10:28.47	47.59	20.15	-34.0	-34.9	24.2	0.00e+00	123	33	0	739246080	42	5495
2026-01-08 13:10:29.48	47.79	20.24	-33.8	-34.7	24.4	0.00e+00	122	33	0	742391808	42	5374
2026-01-08 13:10:30.49	47.98	20.32	-33.7	-34.6	24.6	0.00e+00	123	33	0	745537536	40	5949
2026-01-08 13:10:31.49	48.17	20.41	-33.7	-34.6	24.5	0.00e+00	120	33	0	748683264	40	5928
2026-01-08 13:10:32.50	48.37	20.49	-33.7	-34.6	24.5	0.00e+00	122	33	0	751828992	40	5961
2026-01-08 13:10:33.51	48.56	20.58	-33.8	-34.7	24.4	0.00e+00	122	33	0	754974720	40	5997
2026-01-08 13:10:34.52	48.76	20.67	-33.6	-34.5	24.5	0.00e+00	123	33	0	758120448	40	5908
2026-01-08 13:10:35.53	48.96	20.75	-33.7	-34.6	24.5	0.00e+00	123	33	0	761266176	40	5951
2026-01-08 13:10:36.54	49.16	20.84	-33.5	-34.4	24.5	0.00e+00	122	33	0	764411904	40	5826
2026-01-08 13:10:37.55	49.36	20.92	-33.5	-34.3	24.6	0.00e+00	123	33	0	767557632	40	5777
2026-01-08 13:10:38.56	49.56	21.01	-33.3	-34.2	24.7	0.00e+00	123	33	0	770703360	40	5702
2026-01-08 13:10:39.57	49.76	21.10	-33.2	-34.1	24.8	0.00e+00	120	33	0	773849088	40	5616
2026-01-08 13:10:40.58	49.97	21.18	-33.1	-34.0	25.0	0.00e+00	120	33	0	776994816	40	5553
2026-01-08 13:10:41.59	50.17	21.27	-32.9	-33.7	25.0	0.00e+00	122	33	0	780140544	40	5387
2026-01-08 13:10:42.60	50.38	21.35	-32.7	-33.6	25.1	0.00e+00	123	33	0	783286272	40	5293
2026-01-08 13:10:43.60	50.58	21.44	-32.7	-33.6	25.2	0.00e+00	123	33	0	786432000	38	5944
2026-01-08 13:10:44.61	50.79	21.52	-32.8	-33.7	25.1	0.00e+00	122	33	0	789577728	38	5996
2026-01-08 13:10:45.62	51.00	21.61	-33.0	-33.8	25.0	0.00e+00	123	33	0	792723456	38	6114
2026-01-08 13:10:46.63	51.21	21.69	-32.9	-33.8	25.0	0.00e+00	123	33	0	795869184	38	6070
2026-01-08 13:10:47.64	51.42	21.78	-32.9	-33.7	25.1	0.00e+00	123	33	0	799014912	38	6053
2026-01-08 13:10:48.65	51.64	21.86	-33.0	-33.8	25.1	0.00e+00	122	33	0	802160640	38	6127
2026-01-08 13:10:49.66	51.85	21.95	-32.8	-33.7	25.2	0.00e+00	123	33	0	805306368	38	6025
2026-01-08 13:10:50.67	52.06	22.03	-32.9	-33.8	25.2	0.00e+00	123	33	0	808452096	38	6094
2026-01-08 13:10:51.68	52.28	22.12	-32.7	-33.6	25.4	0.00e+00	120	33	0	811597824	38	5928
2026-01-08 13:10:52.68	52.50	22.20	-32.5	-33.4	25.4	0.00e+00	123	33	0	814743552	38	5793
2026-01-08 13:10:53.69	52.71	22.29	-32.5	-33.4	25.5	0.00e+00	122	33	0	817889280	38	5794
2026-01-08 13:10:54.71	52.94	22.37	-32.5	-33.3	25.5	0.00e+00	123	33	0	821035008	38	5783
2026-01-08 13:10:55.72	53.16	22.46	-32.5	-33.4	25.5	0.00e+00	122	33	0	824180736	38	5808
2026-01-08 13:10:56.73	53.38	22.54	-32.7	-33.5	25.3	0.00e+00	123	33	0	827326464	38	5917
2026-01-08 13:10:57.74	53.60	22.62	-32.6	-33.4	25.4	0.00e+00	123	33	0	830472192	38	5825
2026-01-08 13:10:58.75	53.83	22.71	-32.6	-33.5	25.4	0.00e+00	123	33	0	833617920	38	5864
2026-01-08 13:10:59.76	54.05	22.79	-32.7	-33.5	25.4	0.00e+00	122	33	0	836763648	38	5908
2026-01-08 13:11:00.77	54.28	22.88	-32.7	-33.6	25.3	0.00e+00	122	33	0	839909376	38	5950
2026-01-08 13:11:01.78	54.51	22.96	-32.7	-33.5	25.3	0.00e+00	122	33	0	843055104	38	5922
2026-01-08 13:11:02.78	54.73	23.04	-32.7	-33.5	25.2	0.00e+00	123	33	0	846200832	38	5907
2026-01-08 13:11:03.79	54.96	23.12	-32.7	-33.6	25.3	0.00e+00	123	33	0	849346560	38	5957
2026-01-08 13:11:04.80	55.20	23.21	-32.8	-33.7	25.2	0.00e+00	122	33	0	852492288	38	6018
2026-01-08 13:11:05.81	55.43	23.29	-32.8	-33.7	25.3	0.00e+00	122	33	0	855638016	38	6011
2026-01-08 13:11:06.82	55.66	23.37	-32.8	-33.7	25.3	0.00e+00	123	33	0	858783744	38	5999
2026-01-08 13:11:07.83	55.90	23.45	-32.9	-33.8	25.2	0.00e+00	123	33	0	861929472	38	6065
2026-01-08 13:11:08.84	56.13	23.54	-33.0	-33.9	25.2	0.00e+00	122	33	0	865075200	38	6163
2026-01-08 13:11:09.85	56.37	23.62	-33.1	-34.0	25.0	0.00e+00	123	33	0	868220928	38	6218
2026-01-08 13:11:10.86	56.61	23.70	-33.0	-33.9	25.1	0.00e+00	123	33	0	871366656	38	6153
2026-01-08 13:11:11.87	56.85	23.78	-33.1	-34.0	25.0	0.00e+00	120	33	0	874512384	38	6253
2026-01-08 13:11:12.88	57.09	23.86	-33.0	-33.9	25.0	0.00e+00	123	33	0	877658112	38	6148
2026-01-08 13:11:13.89	57.34	23.94	-33.0	-33.9	24.9	0.00e+00	123	33	0	880803840	38	6136
2026-01-08 13:11:14.90	57.58	24.02	-33.0	-33.9	25.0	0.00e+00	120	33	0	883949568	38	6160
2026-01-08 13:11:15.91	57.82	24.10	-33.1	-34.0	24.9	0.00e+00	122	33	0	887095296	38	6215
2026-01-08 13:11:16.91	58.07	24.18	-33.0	-33.9	25.0	0.00e+00	122	33	0	890241024	38	6188
2026-01-08 13:11:17.92	58.31	24.26	-33.1	-34.0	24.9	0.00e+00	120	33	0	893386752	38	6242
2026-01-08 13:11:18.94	58.57	24.34	-33.3	-34.1	24.8	0.00e+00	122	33	0	896532480	38	6347
2026-01-08 13:11:19.94	58.81	24.42	-33.1	-34.0	24.9	0.00e+00	120	33	0	899678208	38	6256
2026-01-08 13:11:20.95	59.06	24.50	-33.2	-34.0	24.9	0.00e+00	120	33	0	902823936	38	6272
2026-01-08 13:11:21.96	59.32	24.57	-33.1	-34.0	25.0	0.00e+00	123	33	0	905969664	38	6238
2026-01-08 13:11:22.97	59.57	24.65	-33.2	-34.1	24.9	0.00e+00	122	33	0	909115392	38	6318
2026-01-08 13:11:23.98	59.82	24.73	-33.4	-34.2	24.8	0.00e+00	123	33	0	912261120	38	6417
2026-01-08 13:11:24.99	60.08	24.81	-33.6	-34.5	24.6	0.00e+00	123	33	0	915406848	38	6584
2026-01-08 13:11:26.00	60.34	24.88	-33.7	-34.6	24.4	0.00e+00	122	33	0	918552576	38	6695
2026-01-08 13:11:27.00	60.59	24.96	-33.9	-34.8	24.2	0.00e+00	123	33	0	921698304	40	6123
2026-01-08 13:11:28.02	60.86	25.03	-33.9	-34.9	24.2	0.00e+00	121	33	0	924844032	40	6144
2026-01-08 13:11:29.03	61.12	25.11	-33.9	-34.8	24.2	0.00e+00	123	33	0	927989760	40	6106
2026-01-08 13:11:30.04	61.38	25.19	-34.0	-34.9	24.2	0.00e+00	122	33	0	931135488	40	6194
2026-01-08 13:11:31.05	61.64	25.26	-33.7	-34.5	24.5	0.00e+00	122	33	0	934281216	40	5923
2026-01-08 13:11:32.05	61.90	25.33	-33.7	-34.6	24.6	0.00e+00	123	33	0	937426944	40	5949
2026-01-08 13:11:33.06	62.17	25.41	-33.5	-34.4	24.6	0.00e+00	122	33	0	940572672	40	5828
2026-01-08 13:11:34.07	62.44	25.48	-33.5	-34.4	24.6	0.00e+00	120	33	0	943718400	40	5835
2026-01-08 13:11:35.08	62.71	25.55	-33.4	-34.3	24.6	0.00e+00	123	33	0	946864128	40	5729
2026-01-08 13:11:36.09	62.97	25.63	-33.4	-34.3	24.6	0.00e+00	120	33	0	950009856	40	5760
2026-01-08 13:11:37.10	63.25	25.70	-33.4	-34.3	24.6	0.00e+00	122	33	0	953155584	40	5769
2026-01-08 13:11:38.11	63.52	25.77	-33.6	-34.5	24.6	0.00e+00	123	33	0	956301312	40	5871
2026-01-08 13:11:39.12	63.79	25.84	-33.5	-34.4	24.6	0.00e+00	123	33	0	959447040	40	5810
2026-01-08 13:11:40.13	64.06	25.91	-33.6	-34.5	24.7	0.00e+00	123	33	0	962592768	40	5859
2026-01-08 13:11:41.14	64.34	25.98	-33.3	-34.2	24.8	0.00e+00	122	33	0	965738496	40	5681
2026-01-08 13:11:42.15	64.62	26.05	-33.1	-34.0	24.9	0.00e+00	120	33	0	968884224	40	5559
2026-01-08 13:11:43.16	64.89	26.12	-33.1	-34.0	24.9	0.00e+00	122	33	0	972029952	40	5533
2026-01-08 13:11:44.16	65.17	26.19	-33.1	-33.9	25.0	0.00e+00	123	33	0	975175680	40	5505
2026-01-08 13:11:45.18	65.45	26.26	-33.2	-34.1	24.9	0.00e+00	123	33	0	978321408	40	5595
2026-01-08 13:11:46.19	65.74	26.33	-33.3	-34.2	24.7	0.00e+00	123	33	0	981467136	40	5693
2026-01-08 13:11:47.19	66.02	26.39	-33.4	-34.3	24.8	0.00e+00	123	33	0	984612864	40	5755
2026-01-08 13:11:48.20	66.30	26.46	-33.5	-34.4	24.8	0.00e+00	123	33	0	987758592	40	5831
2026-01-08 13:11:49.21	66.58	26.52	-33.5	-34.4	24.8	0.00e+00	123	33	0	990904320	40	5804
2026-01-08 13:11:50.22	66.87	26.59	-33.4	-34.3	24.8	0.00e+00	123	33	0	994050048	40	5750
2026-01-08 13:11:51.23	67.16	26.65	-33.4	-34.3	24.9	0.00e+00	122	33	0	997195776	40	5726
2026-01-08 13:11:52.24	67.45	26.72	-33.2	-34.0	24.9	0.00e+00	122	33	0	1000341504	40	5588
2026-01-08 13:11:53.25	67.74	26.78	-33.0	-33.9	25.0	0.00e+00	120	33	0	1003487232	40	5501
2026-01-08 13:11:54.25	68.02	26.84	-33.1	-34.0	24.7	0.00e+00	123	33	0	1006632960	40	5572
2026-01-08 13:11:55.26	68.31	26.91	-33.3	-34.1	24.7	0.00e+00	120	33	0	1009778688	40	5655
2026-01-08 13:11:56.27	68.61	26.97	-33.3	-34.2	24.8	0.00e+00	123	33	0	1012924416	40	5699
2026-01-08 13:11:57.28	68.90	27.03	-33.3	-34.2	24.9	0.00e+00	123	33	0	1016070144	40	5686
2026-01-08 13:11:58.29	69.20	27.09	-33.3	-34.1	24.9	0.00e+00	123	33	0	1019215872	40	5641
2026-01-08 13:11:59.30	69.49	27.15	-33.1	-34.0	24.9	0.00e+00	122	33	0	1022361600	40	5576
2026-01-08 13:12:00.31	69.79	27.21	-33.1	-34.0	24.9	0.00e+00	120	33	0	1025507328	40	5535
2026-01-08 13:12:01.32	70.09	27.27	-33.2	-34.1	24.9	0.00e+00	122	33	0	1028653056	40	5618
2026-01-08 13:12:02.33	70.39	27.32	-33.3	-34.2	24.8	0.00e+00	122	33	0	1031798784	40	5684
2026-01-08 13:12:03.34	70.69	27.38	-33.4	-34.3	24.7	0.00e+00	123	33	0	1034944512	40	5769
2026-01-08 13:12:04.35	70.99	27.44	-33.5	-34.4	24.7	0.00e+00	123	33	0	1038090240	40	5797
2026-01-08 13:12:05.36	71.29	27.49	-33.5	-34.4	24.7	0.00e+00	121	33	0	1041235968	40	5851
2026-01-08 13:12:06.37	71.60	27.55	-33.4	-34.3	24.7	0.00e+00	123	33	0	1044381696	40	5746
2026-01-08 13:12:07.38	71.90	27.60	-33.4	-34.2	24.9	0.00e+00	122	33	0	1047527424	40	5720
2026-01-08 13:12:08.39	72.21	27.65	-33.3	-34.2	24.8	0.00e+00	122	33	0	1050673152	40	5700
2026-01-08 13:12:09.40	72.51	27.71	-33.4	-34.3	24.7	0.00e+00	122	33	0	1053818880	40	5775
2026-01-08 13:12:10.41	72.82	27.76	-33.4	-34.3	24.7	0.00e+00	123	33	0	1056964608	40	5767
2026-01-08 13:12:11.42	73.13	27.81	-33.5	-34.4	24.7	0.00e+00	123	33	0	1060110336	40	5800
2026-01-08 13:12:12.43	73.44	27.86	-33.6	-34.5	24.7	0.00e+00	120	33	0	1063256064	40	5894
2026-01-08 13:12:13.44	73.75	27.91	-33.5	-34.4	24.7	0.00e+00	123	33	0	1066401792	40	5808
2026-01-08 13:12:14.45	74.06	27.96	-33.5	-34.4	24.6	0.00e+00	123	33	0	1069547520	40	5852
2026-01-08 13:12:15.45	74.37	28.00	-33.5	-34.4	24.6	0.00e+00	122	33	0	1072693248	40	5843
2026-01-08 13:12:16.46	74.68	28.05	-33.6	-34.4	24.5	0.00e+00	122	33	0	1075838976	40	5844
2026-01-08 13:12:17.47	75.00	28.10	-33.5	-34.4	24.6	0.00e+00	122	33	0	1078984704	40	5810
2026-01-08 13:12:18.48	75.31	28.14	-33.5	-34.4	24.6	0.00e+00	122	33	0	1083179008	40	5827
2026-01-08 13:12:19.49	75.63	28.19	-33.4	-34.3	24.9	0.00e+00	127	33	0	1086324736	40	5746
2026-01-08 13:12:20.50	75.95	28.23	-33.3	-34.2	24.8	0.00e+00	122	33	0	1088421888	40	5681
2026-01-08 13:12:21.51	76.26	28.27	-33.3	-34.2	25.0	0.00e+00	123	33	0	1091567616	40	5670
2026-01-08 13:12:22.52	76.58	28.31	-33.3	-34.1	24.9	0.00e+00	123	33	0	1094713344	40	5644
2026-01-08 13:12:23.53	76.90	28.35	-33.4	-34.3	24.9	0.00e+00	123	33	0	1097859072	40	5745
2026-01-08 13:12:24.54	77.22	28.39	-33.5	-34.3	24.7	0.00e+00	123	33	0	1102053376	40	5785
2026-01-08 13:12:25.55	77.54	28.43	-33.5	-34.4	24.7	0.00e+00	123	33	0	1105199104	40	5832
2026-01-08 13:12:26.56	77.86	28.47	-33.5	-34.4	24.7	0.00e+00	122	33	0	1108344832	40	5844
2026-01-08 13:12:27.57	78.19	28.51	-33.5	-34.3	24.7	0.00e+00	123	33	0	1110441984	40	5774
2026-01-08 13:12:28.58	78.51	28.55	-33.5	-34.3	24.7	0.00e+00	122	33	0	1113587712	40	5775
2026-01-08 13:12:29.59	78.83	28.58	-33.5	-34.4	24.7	0.00e+00	120	33	0	1117782016	40	5817
2026-01-08 13:12:30.60	79.16	28.62	-33.6	-34.5	24.6	0.00e+00	123	33	0	1120927744	40	5881
2026-01-08 13:12:31.61	79.48	28.65	-33.6	-34.5	24.7	0.00e+00	122	33	0	1124073472	40	5896
2026-01-08 13:12:32.62	79.81	28.68	-33.7	-34.6	24.6	0.00e+00	124	33	0	1127219200	40	5964
2026-01-08 13:12:33.63	80.14	28.71	-33.8	-34.6	24.6	0.00e+00	122	33	0	1130364928	40	5974
2026-01-08 13:12:34.64	80.46	28.74	-33.6	-34.5	24.6	0.00e+00	120	33	0	1133510656	40	5860
2026-01-08 13:12:35.65	80.79	28.77	-33.6	-34.5	24.6	0.00e+00	122	33	0	1136656384	40	5907
2026-01-08 13:12:36.66	81.12	28.80	-33.6	-34.5	24.5	0.00e+00	123	33	0	1139802112	40	5907
2026-01-08 13:12:37.67	81.45	28.83	-33.7	-34.6	24.5	0.00e+00	122	33	0	1142947840	40	5980
2026-01-08 13:12:38.68	81.78	28.86	-33.7	-34.6	24.6	0.00e+00	122	33	0	1146093568	40	5929
2026-01-08 13:12:39.69	82.11	28.88	-33.8	-34.6	24.6	0.00e+00	122	33	0	1149239296	40	5994
2026-01-08 13:12:40.69	82.44	28.91	-33.5	-34.4	24.8	0.00e+00	123	33	0	1152385024	40	5801
2026-01-08 13:12:41.70	82.77	28.93	-33.5	-34.4	24.8	0.00e+00	122	33	0	1155530752	40	5796
2026-01-08 13:12:42.71	83.10	28.95	-33.3	-34.2	24.8	0.00e+00	122	33	0	1158676480	40	5691
2026-01-08 13:12:43.72	83.43	28.98	-33.5	-34.4	24.6	0.00e+00	120	33	0	1161822208	40	5833
2026-01-08 13:12:44.73	83.76	29.00	-33.6	-34.4	24.5	0.00e+00	123	33	0	1164967936	40	5852
2026-01-08 13:12:45.74	84.10	29.02	-33.7	-34.6	24.6	0.00e+00	122	33	0	1168113664	40	5965
2026-01-08 13:12:46.75	84.43	29.04	-33.5	-34.4	24.7	0.00e+00	120	33	0	1171259392	40	5799
2026-01-08 13:12:47.76	84.76	29.05	-33.4	-34.2	24.8	0.00e+00	122	33	0	1174405120	40	5720
2026-01-08 13:12:48.77	85.10	29.07	-33.3	-34.1	24.8	0.00e+00	122	33	0	1177550848	40	5637
2026-01-08 13:12:49.78	85.43	29.09	-33.3	-34.2	24.8	0.00e+00	123	33	0	1180696576	40	5667
2026-01-08 13:12:50.79	85.77	29.10	-33.3	-34.2	24.7	0.00e+00	123	33	0	1183842304	40	5696
2026-01-08 13:12:51.80	86.10	29.11	-33.5	-34.4	24.6	0.00e+00	123	33	0	1186988032	40	5799
2026-01-08 13:12:52.80	86.43	29.13	-33.5	-34.4	24.7	0.00e+00	123	33	0	1190133760	40	5846
2026-01-08 13:12:53.81	86.77	29.14	-33.4	-34.3	24.7	0.00e+00	120	33	0	1193279488	40	5768
2026-01-08 13:12:54.82	87.10	29.15	-33.4	-34.3	24.8	0.00e+00	123	33	0	1196425216	40	5772
2026-01-08 13:12:55.83	87.44	29.16	-33.5	-34.3	24.7	0.00e+00	122	33	0	1199570944	40	5769
2026-01-08 13:12:56.84	87.78	29.17	-33.6	-34.5	24.5	0.00e+00	123	33	0	1202716672	40	5862
2026-01-08 13:12:57.85	88.11	29.17	-33.5	-34.4	24.6	0.00e+00	122	33	0	1205862400	40	5807
2026-01-08 13:12:58.86	88.45	29.18	-33.4	-34.4	24.7	0.00e+00	120	33	0	1209008128	40	5792
2026-01-08 13:12:59.87	88.79	29.19	-33.2	-34.1	24.9	0.00e+00	122	33	0	1212153856	40	5614
2026-01-08 13:13:00.88	89.12	29.19	-33.2	-34.1	24.8	0.00e+00	127	33	0	1215299584	40	5603
2026-01-08 13:13:01.89	89.46	29.19	-33.2	-34.1	24.7	0.00e+00	123	33	0	1218445312	40	5651
2026-01-08 13:13:02.90	89.80	29.19	-33.4	-34.3	24.6	0.00e+00	120	33	0	1221591040	40	5734
2026-01-08 13:13:03.91	90.13	29.20	-33.6	-34.5	24.6	0.00e+00	122	33	0	1224736768	40	5886
2026-01-08 13:13:04.92	90.47	29.20	-33.7	-34.5	24.6	0.00e+00	123	33	0	1227882496	40	5924
2026-01-08 13:13:05.93	90.81	29.19	-33.6	-34.5	24.7	0.00e+00	123	33	0	1231028224	40	5879
2026-01-08 13:13:06.94	91.14	29.19	-33.6	-34.5	24.7	0.00e+00	122	33	0	1234173952	40	5883
2026-01-08 13:13:07.95	91.48	29.19	-33.6	-34.5	24.6	0.00e+00	123	33	0	1237319680	40	5880
2026-01-08 13:13:08.96	91.82	29.18	-33.6	-34.5	24.6	0.00e+00	123	33	0	1240465408	40	5916
2026-01-08 13:13:09.97	92.15	29.18	-33.7	-34.6	24.6	0.00e+00	123	33	0	1243611136	40	5931
2026-01-08 13:13:10.98	92.49	29.17	-33.6	-34.5	24.6	0.00e+00	123	33	0	1246756864	40	5899
2026-01-08 13:13:11.98	92.82	29.17	-33.7	-34.6	24.5	0.00e+00	122	33	0	1249902592	40	5942
2026-01-08 13:13:13.00	93.16	29.16	-33.6	-34.5	24.6	0.00e+00	123	33	0	1253048320	40	5913
2026-01-08 13:13:14.00	93.50	29.15	-33.7	-34.6	24.5	0.00e+00	121	33	0	1256194048	40	5970
2026-01-08 13:13:15.02	93.84	29.14	-33.8	-34.7	24.6	0.00e+00	123	33	0	1259339776	40	6029
2026-01-08 13:13:16.03	94.17	29.13	-33.6	-34.5	24.7	0.00e+00	123	33	0	1262485504	40	5893
2026-01-08 13:13:17.04	94.51	29.11	-33.6	-34.5	24.6	0.00e+00	123	33	0	1265631232	40	5894
2026-01-08 13:13:18.04	94.84	29.10	-33.7	-34.6	24.6	0.00e+00	122	33	0	1268776960	40	5936
2026-01-08 13:13:19.05	95.17	29.08	-33.8	-34.7	24.6	0.00e+00	122	33	0	1271922688	40	6014
2026-01-08 13:13:20.06	95.51	29.07	-33.6	-34.5	24.7	0.00e+00	123	33	0	1275068416	40	5895
2026-01-08 13:13:21.07	95.84	29.05	-33.6	-34.5	24.7	0.00e+00	122	33	0	1278214144	40	5910
2026-01-08 13:13:22.08	96.18	29.03	-33.6	-34.5	24.7	0.00e+00	123	33	0	1281359872	40	5905
2026-01-08 13:13:23.09	96.51	29.02	-33.5	-34.4	24.8	0.00e+00	122	33	0	1284505600	40	5839
2026-01-08 13:13:24.10	96.84	29.00	-33.7	-34.6	24.6	0.00e+00	122	33	0	1287651328	40	5936
2026-01-08 13:13:25.11	97.18	28.97	-33.7	-34.6	24.6	0.00e+00	122	33	0	1290797056	40	5993
2026-01-08 13:13:26.12	97.51	28.95	-33.7	-34.6	24.6	0.00e+00	122	33	0	1293942784	40	5968
2026-01-08 13:13:27.13	97.84	28.93	-33.7	-34.6	24.7	0.00e+00	122	33	0	1297088512	40	5940
2026-01-08 13:13:28.14	98.17	28.91	-33.6	-34.5	24.7	0.00e+00	122	33	0	1300234240	40	5899
2026-01-08 13:13:29.15	98.50	28.88	-33.8	-34.7	24.5	0.00e+00	123	33	0	1303379968	40	6044
2026-01-08 13:13:30.16	98.83	28.85	-33.8	-34.7	24.5	0.00e+00	123	33	0	1306525696	40	5998
2026-01-08 13:13:31.17	99.16	28.83	-33.8	-34.7	24.5	0.00e+00	123	33	0	1309671424	40	5999
2026-01-08 13:13:32.17	99.49	28.80	-33.6	-34.5	24.7	0.00e+00	123	33	0	1312817152	40	5890
2026-01-08 13:13:33.18	99.82	28.77	-33.7	-34.6	24.6	0.00e+00	122	33	0	1315962880	40	5953
2026-01-08 13:13:34.19	100.15	28.74	-33.8	-34.7	24.6	0.00e+00	123	33	0	1319108608	40	6058
2026-01-08 13:13:35.20	100.47	28.71	-33.7	-34.6	24.5	0.00e+00	122	33	0	1322254336	40	5980
2026-01-08 13:13:36.21	100.80	28.68	-33.8	-34.7	24.4	0.00e+00	123	33	0	1325400064	40	6020
2026-01-08 13:13:37.22	101.13	28.65	-33.6	-34.5	24.5	0.00e+00	123	33	0	1328545792	40	5924
2026-01-08 13:13:38.24	101.46	28.61	-33.6	-34.5	24.6	0.00e+00	122	33	0	1331691520	40	5886
2026-01-08 13:13:39.25	101.78	28.58	-33.6	-34.4	24.6	0.00e+00	123	33	0	1334837248	40	5848
2026-01-08 13:13:40.25	102.10	28.54	-33.3	-34.2	24.7	0.00e+00	123	33	0	1337982976	40	5686
2026-01-08 13:13:41.27	102.43	28.51	-33.2	-34.1	24.7	0.00e+00	122	33	0	1341128704	40	5629
2026-01-08 13:13:42.28	102.75	28.47	-33.3	-34.2	24.6	0.00e+00	123	33	0	1344274432	40	5688
2026-01-08 13:13:43.28	103.07	28.43	-33.4	-34.3	24.4	0.00e+00	121	33	0	1347420160	40	5786
2026-01-08 13:13:44.29	103.39	28.39	-33.7	-34.6	24.3	0.00e+00	122	33	0	1350565888	40	5955
2026-01-08 13:13:45.30	103.71	28.35	-33.6	-34.5	24.3	0.00e+00	120	33	0	1353711616	40	5875
2026-01-08 13:13:46.31	104.03	28.31	-33.6	-34.5	24.3	0.00e+00	123	33	0	1356857344	40	5907
2026-01-08 13:13:47.32	104.35	28.27	-33.4	-34.3	24.4	0.00e+00	123	33	0	1360003072	40	5755
2026-01-08 13:13:48.34	104.67	28.22	-33.5	-34.4	24.2	0.00e+00	123	33	0	1363148800	40	5845
2026-01-08 13:13:49.35	104.99	28.18	-33.4	-34.3	24.3	0.00e+00	123	33	0	1366294528	40	5784
2026-01-08 13:13:50.36	105.31	28.14	-33.6	-34.4	24.3	0.00e+00	123	33	0	1369440256	40	5856
2026-01-08 13:13:51.37	105.62	28.09	-33.5	-34.4	24.5	0.00e+00	123	33	0	1372585984	40	5801
2026-01-08 13:13:52.38	105.94	28.04	-33.4	-34.3	24.5	0.00e+00	122	33	0	1375731712	40	5755
2026-01-08 13:13:53.39	106.25	28.00	-33.3	-34.2	24.5	0.00e+00	123	33	0	1378877440	40	5712
2026-01-08 13:13:54.39	106.56	27.95	-33.4	-34.3	24.6	0.00e+00	120	33	0	1382023168	40	5784
2026-01-08 13:13:55.40	106.87	27.90	-33.3	-34.2	24.7	0.00e+00	122	33	0	1385168896	40	5681
2026-01-08 13:13:56.41	107.19	27.85	-33.4	-34.3	24.6	0.00e+00	123	33	0	1388314624	40	5739
2026-01-08 13:13:57.42	107.50	27.80	-33.4	-34.3	24.7	0.00e+00	123	33	0	1391460352	40	5749
2026-01-08 13:13:58.43	107.81	27.75	-33.5	-34.4	24.6	0.00e+00	124	33	0	1394606080	40	5843
2026-01-08 13:13:59.44	108.11	27.70	-33.2	-34.1	24.9	0.00e+00	121	33	0	1397751808	40	5608
2026-01-08 13:14:00.45	108.42	27.65	-33.2	-34.0	25.0	0.00e+00	123	33	0	1400897536	40	5592
2026-01-08 13:14:01.46	108.73	27.59	-33.2	-34.1	24.9	0.00e+00	122	33	0	1404043264	40	5600
2026-01-08 13:14:02.47	109.03	27.54	-33.2	-34.1	24.9	0.00e+00	123	33	0	1407188992	40	5624
2026-01-08 13:14:03.48	109.34	27.48	-33.3	-34.2	24.8	0.00e+00	120	33	0	1410334720	40	5669
2026-01-08 13:14:04.49	109.64	27.43	-33.3	-34.2	24.9	0.00e+00	122	33	0	1413480448	40	5693
2026-01-08 13:14:05.49	109.94	27.37	-33.3	-34.1	24.8	0.00e+00	122	33	0	1416626176	40	5641
2026-01-08 13:14:06.50	110.24	27.31	-33.3	-34.2	24.8	0.00e+00	123	33	0	1419771904	40	5668
2026-01-08 13:14:07.51	110.54	27.26	-33.2	-34.1	24.9	0.00e+00	122	33	0	1422917632	40	5605
2026-01-08 13:14:08.52	110.84	27.20	-33.0	-33.9	25.1	0.00e+00	123	33	0	1426063360	40	5487
2026-01-08 13:14:09.53	111.14	27.14	-33.2	-34.0	24.9	0.00e+00	122	33	0	1429209088	40	5581
2026-01-08 13:14:10.54	111.44	27.08	-33.1	-33.9	25.1	0.00e+00	123	33	0	1432354816	40	5512
2026-01-08 13:14:11.55	111.73	27.02	-33.1	-34.0	25.1	0.00e+00	123	33	0	1435500544	40	5555
2026-01-08 13:14:12.56	112.03	26.96	-33.3	-34.1	24.9	0.00e+00	123	33	0	1438646272	40	5643
2026-01-08 13:14:13.57	112.32	26.90	-33.2	-34.1	25.0	0.00e+00	123	33	0	1441792000	40	5607
2026-01-08 13:14:14.58	112.61	26.83	-33.3	-34.1	24.8	0.00e+00	120	33	0	1445986304	40	5646
2026-01-08 13:14:15.59	112.90	26.77	-33.4	-34.2	24.8	0.00e+00	122	33	0	1449132032	40	5711
2026-01-08 13:14:16.60	113.19	26.71	-33.1	-34.0	24.9	0.00e+00	123	33	0	1451229184	40	5560
2026-01-08 13:14:17.61	113.48	26.64	-33.2	-34.0	24.9	0.00e+00	121	33	0	1454374912	40	5580
2026-01-08 13:14:18.62	113.77	26.58	-33.1	-34.0	24.9	0.00e+00	123	33	0	1457520640	40	5559
2026-01-08 13:14:19.63	114.06	26.51	-33.1	-33.9	25.0	0.00e+00	121	33	0	1461714944	40	5525
2026-01-08 13:14:20.64	114.34	26.44	-33.2	-34.1	25.0	0.00e+00	120	33	0	1464860672	40	5614
2026-01-08 13:14:21.65	114.63	26.38	-33.1	-34.0	25.0	0.00e+00	122	33	0	1468006400	40	5565
2026-01-08 13:14:22.66	114.91	26.31	-33.3	-34.2	24.9	0.00e+00	122	33	0	1471152128	40	5680
2026-01-08 13:14:23.67	115.19	26.24	-33.7	-34.5	24.6	0.00e+00	122	33	0	1474297856	40	5912
2026-01-08 13:14:24.68	115.47	26.17	-33.5	-34.4	24.7	0.00e+00	123	33	0	1476395008	40	5807
2026-01-08 13:14:25.69	115.75	26.10	-33.4	-34.2	24.8	0.00e+00	122	33	0	1480589312	40	5712
2026-01-08 13:14:26.70	116.03	26.04	-33.4	-34.3	24.6	0.00e+00	123	33	0	1483735040	40	5740
2026-01-08 13:14:27.70	116.31	25.97	-33.5	-34.4	24.4	0.00e+00	123	33	0	1486880768	40	5819
2026-01-08 13:14:28.71	116.58	25.90	-33.6	-34.5	24.3	0.00e+00	122	33	0	1490026496	40	5898
2026-01-08 13:14:29.73	116.86	25.82	-33.5	-34.4	24.5	0.00e+00	123	33	0	1493172224	40	5828
2026-01-08 13:14:30.74	117.13	25.75	-33.3	-34.2	24.7	0.00e+00	123	33	0	1496317952	40	5683
2026-01-08 13:14:31.75	117.41	25.68	-33.3	-34.2	24.8	0.00e+00	123	33	0	1499463680	40	5669
2026-01-08 13:14:32.76	117.68	25.61	-33.1	-34.0	25.0	0.00e+00	122	33	0	1502609408	40	5569
2026-01-08 13:14:33.76	117.95	25.54	-33.2	-34.0	25.0	0.00e+00	122	33	0	1505755136	40	5593
2026-01-08 13:14:34.78	118.22	25.46	-33.2	-34.1	24.9	0.00e+00	123	33	0	1508900864	40	5601
2026-01-08 13:14:35.79	118.49	25.39	-33.4	-34.3	24.8	0.00e+00	123	33	0	1512046592	40	5734
2026-01-08 13:14:36.79	118.75	25.31	-33.4	-34.3	24.7	0.00e+00	123	33	0	1515192320	40	5750
2026-01-08 13:14:37.80	119.01	25.24	-33.4	-34.2	24.7	0.00e+00	120	33	0	1518338048	40	5724
2026-01-08 13:14:38.81	119.28	25.16	-33.5	-34.4	24.6	0.00e+00	122	33	0	1521483776	40	5813
2026-01-08 13:14:39.82	119.54	25.09	-33.5	-34.4	24.6	0.00e+00	121	33	0	1524629504	40	5813
2026-01-08 13:14:40.83	119.80	25.01	-33.4	-34.3	24.8	0.00e+00	122	33	0	1527775232	40	5748
2026-01-08 13:14:41.84	120.06	24.94	-33.1	-34.0	24.9	0.00e+00	123	33	0	1530920960	40	5563
2026-01-08 13:14:42.85	120.32	24.86	-33.1	-33.9	25.0	0.00e+00	120	33	0	1534066688	40	5516
2026-01-08 13:14:43.86	120.58	24.78	-32.8	-33.7	25.2	0.00e+00	122	33	0	1537212416	40	5367
2026-01-08 13:14:44.87	120.84	24.70	-32.7	-33.5	25.3	0.00e+00	120	33	0	1540358144	38	5924
2026-01-08 13:14:45.88	121.09	24.63	-32.7	-33.6	25.3	0.00e+00	122	33	0	1543503872	38	5940
2026-01-08 13:14:46.89	121.35	24.55	-32.8	-33.7	25.1	0.00e+00	123	33	0	1546649600	38	6025
2026-01-08 13:14:47.90	121.60	24.47	-33.0	-33.8	25.0	0.00e+00	122	33	0	1549795328	38	6116
2026-01-08 13:14:48.91	121.85	24.39	-33.0	-33.9	24.9	0.00e+00	122	33	0	1552941056	38	6190
2026-01-08 13:14:49.92	122.10	24.31	-33.2	-34.0	25.0	0.00e+00	123	33	0	1556086784	38	6277
2026-01-08 13:14:50.93	122.35	24.23	-33.2	-34.1	25.0	0.00e+00	123	33	0	1559232512	38	6292
2026-01-08 13:14:51.94	122.60	24.15	-33.0	-33.9	25.1	0.00e+00	120	33	0	1562378240	38	6162
2026-01-08 13:14:52.95	122.85	24.07	-33.2	-34.1	25.0	0.00e+00	123	33	0	1565523968	38	6330
2026-01-08 13:14:53.95	123.09	23.99	-33.2	-34.1	24.8	0.00e+00	123	33	0	1568669696	38	6303
2026-01-08 13:14:54.96	123.33	23.91	-33.2	-34.1	24.8	0.00e+00	122	33	0	1571815424	38	6334
2026-01-08 13:14:55.97	123.58	23.83	-33.3	-34.2	24.8	0.00e+00	123	33	0	1574961152	38	6405
2026-01-08 13:14:56.98	123.82	23.75	-33.3	-34.2	24.7	0.00e+00	122	33	0	1578106880	38	6395
2026-01-08 13:14:57.99	124.06	23.67	-33.2	-34.1	24.8	0.00e+00	122	33	0	1581252608	38	6327
2026-01-08 13:14:59.00	124.30	23.58	-33.3	-34.2	24.8	0.00e+00	122	33	0	1584398336	38	6360
2026-01-08 13:15:00.01	124.54	23.50	-33.3	-34.2	24.8	0.00e+00	123	33	0	1587544064	38	6392
2026-01-08 13:15:01.02	124.78	23.42	-33.3	-34.2	24.8	0.00e+00	123	33	0	1590689792	38	6401
2026-01-08 13:15:02.03	125.01	23.34	-33.3	-34.2	24.8	0.00e+00	120	33	0	1593835520	38	6385
2026-01-08 13:15:03.04	125.25	23.25	-33.4	-34.3	24.8	0.00e+00	122	33	0	1596981248	38	6433
2026-01-08 13:15:04.05	125.48	23.17	-33.3	-34.1	24.9	0.00e+00	120	33	0	1600126976	38	6344
2026-01-08 13:15:05.06	125.71	23.09	-33.3	-34.2	24.9	0.00e+00	123	33	0	1603272704	38	6356
2026-01-08 13:15:06.06	125.94	23.01	-33.1	-33.9	25.0	0.00e+00	122	33	0	1606418432	38	6194
2026-01-08 13:15:07.07	126.17	22.92	-33.2	-34.1	24.9	0.00e+00	120	33	0	1609564160	38	6325
2026-01-08 13:15:08.08	126.40	22.84	-33.1	-33.9	25.0	0.00e+00	122	33	0	1612709888	38	6196
2026-01-08 13:15:09.09	126.63	22.75	-33.0	-33.9	25.0	0.00e+00	123	33	0	1615855616	38	6179
2026-01-08 13:15:10.10	126.85	22.67	-33.1	-34.0	24.9	0.00e+00	123	33	0	1619001344	38	6216
2026-01-08 13:15:11.11	127.08	22.59	-33.1	-33.9	25.0	0.00e+00	123	33	0	1622147072	38	6194
2026-01-08 13:15:12.12	127.30	22.50	-33.2	-34.1	24.9	0.00e+00	120	33	0	1625292800	38	6324
2026-01-08 13:15:13.13	127.52	22.42	-32.9	-33.8	25.0	0.00e+00	122	33	0	1628438528	38	6085
2026-01-08 13:15:14.14	127.75	22.33	-32.9	-33.8	25.1	0.00e+00	123	33	0	1631584256	38	6093
2026-01-08 13:15:15.14	127.96	22.25	-33.1	-34.0	24.9	0.00e+00	122	33	0	1634729984	38	6229
2026-01-08 13:15:16.15	128.18	22.16	-32.9	-33.7	25.2	0.00e+00	120	33	0	1637875712	38	6038
2026-01-08 13:15:17.16	128.40	22.08	-33.0	-33.8	25.1	0.00e+00	123	33	0	1641021440	38	6132
2026-01-08 13:15:18.17	128.62	21.99	-32.9	-33.7	25.1	0.00e+00	122	33	0	1644167168	38	6052
2026-01-08 13:15:19.18	128.83	21.91	-33.0	-33.9	25.0	0.00e+00	122	33	0	1647312896	38	6136
2026-01-08 13:15:20.19	129.05	21.82	-33.1	-34.0	24.9	0.00e+00	120	33	0	1650458624	38	6237
2026-01-08 13:15:21.20	129.26	21.73	-33.2	-34.0	24.8	0.00e+00	123	34	0	1653604352	38	6263
2026-01-08 13:15:22.21	129.47	21.65	-33.3	-34.2	24.8	0.00e+00	123	33	0	1656750080	38	6382
2026-01-08 13:15:23.22	129.68	21.56	-33.4	-34.3	24.7	0.00e+00	123	33	0	1659895808	38	6469
2026-01-08 13:15:24.23	129.89	21.48	-33.5	-34.4	24.6	0.00e+00	120	33	0	1663041536	38	6524
2026-01-08 13:15:25.24	130.10	21.39	-33.4	-34.2	24.6	0.00e+00	122	33	0	1666187264	38	6417
2026-01-08 13:15:26.25	130.31	21.30	-33.3	-34.2	24.7	0.00e+00	122	33	0	1669332992	38	6386
2026-01-08 13:15:27.26	130.52	21.22	-33.3	-34.2	24.7	0.00e+00	120	33	0	1672478720	38	6365
2026-01-08 13:15:28.27	130.72	21.13	-33.3	-34.2	24.6	0.00e+00	123	33	0	1675624448	38	6400
2026-01-08 13:15:29.28	130.93	21.05	-33.2	-34.1	24.7	0.00e+00	120	33	0	1678770176	38	6308
2026-01-08 13:15:30.28	131.13	20.96	-33.3	-34.2	24.7	0.00e+00	123	33	0	1681915904	38	6360
2026-01-08 13:15:31.29	131.33	20.87	-33.2	-34.1	24.7	0.00e+00	120	33	0	1685061632	38	6303
2026-01-08 13:15:32.30	131.53	20.79	-33.3	-34.2	24.7	0.00e+00	123	33	0	1688207360	38	6352
2026-01-08 13:15:33.31	131.73	20.70	-33.3	-34.2	24.6	0.00e+00	127	33	0	1691353088	38	6382
2026-01-08 13:15:34.31	131.93	20.61	-33.3	-34.1	24.6	0.00e+00	123	33	0	1694498816	38	6350
2026-01-08 13:15:35.33	132.13	20.53	-33.3	-34.2	24.6	0.00e+00	120	33	0	1697644544	38	6371
2026-01-08 13:15:36.34	132.32	20.44	-33.4	-34.3	24.5	0.00e+00	122	34	0	1700790272	38	6458
2026-01-08 13:15:37.34	132.52	20.35	-33.5	-34.4	24.6	0.00e+00	123	33	0	1703936000	38	6525
2026-01-08 13:15:38.35	132.71	20.27	-33.5	-34.4	24.6	0.00e+00	123	33	0	1707081728	38	6527
2026-01-08 13:15:39.36	132.91	20.18	-33.5	-34.4	24.6	0.00e+00	120	33	0	1710227456	38	6554
2026-01-08 13:15:40.37	133.10	20.09	-33.5	-34.4	24.6	0.00e+00	123	33	0	1713373184	38	6554
2026-01-08 13:15:41.38	133.29	20.01	-33.5	-34.4	24.7	0.00e+00	123	33	0	1716518912	38	6545
2026-01-08 13:15:42.39	133.48	19.92	-33.5	-34.4	24.6	0.00e+00	120	33	0	1719664640	38	6527
2026-01-08 13:15:43.40	133.67	19.83	-33.4	-34.3	24.7	0.00e+00	123	33	0	1722810368	38	6438
2026-01-08 13:15:44.41	133.86	19.75	-33.5	-34.4	24.5	0.00e+00	123	33	0	1725956096	38	6515
2026-01-08 13:15:45.42	134.05	19.66	-33.5	-34.4	24.6	0.00e+00	123	33	0	1729101824	38	6558
2026-01-08 13:15:46.43	134.23	19.57	-33.6	-34.4	24.6	0.00e+00	123	33	0	1732247552	38	6573
2026-01-08 13:15:47.44	134.42	19.48	-33.5	-34.4	24.5	0.00e+00	122	33	0	1735393280	38	6564
2026-01-08 13:15:48.45	134.60	19.40	-33.5	-34.4	24.5	0.00e+00	120	33	0	1738539008	38	6532
2026-01-08 13:15:49.46	134.78	19.31	-33.6	-34.5	24.4	0.00e+00	122	33	0	1741684736	38	6620
2026-01-08 13:15:50.47	134.97	19.22	-33.7	-34.6	24.4	0.00e+00	120	33	0	1744830464	38	6674
2026-01-08 13:15:51.48	135.15	19.14	-33.9	-34.8	24.3	0.00e+00	123	33	0	1747976192	40	6107
2026-01-08 13:15:52.49	135.33	19.05	-33.8	-34.8	24.3	0.00e+00	122	33	0	1751121920	40	6071
2026-01-08 13:15:53.49	135.50	18.96	-34.0	-34.9	24.2	0.00e+00	123	33	0	1754267648	40	6180
2026-01-08 13:15:54.50	135.68	18.88	-33.9	-34.9	24.2	0.00e+00	123	33	0	1757413376	40	6152
2026-01-08 13:15:55.51	135.86	18.79	-33.8	-34.8	24.2	0.00e+00	120	33	0	1760559104	40	6076
2026-01-08 13:15:56.52	136.04	18.70	-33.9	-34.8	24.2	0.00e+00	123	33	0	1763704832	40	6120
2026-01-08 13:15:57.53	136.21	18.62	-33.9	-34.8	24.1	0.00e+00	120	33	0	1766850560	40	6123
2026-01-08 13:15:58.54	136.39	18.53	-33.9	-34.8	24.2	0.00e+00	122	33	0	1769996288	40	6087
2026-01-08 13:15:59.55	136.56	18.44	-33.9	-34.8	24.1	0.00e+00	122	33	0	1773142016	40	6103
2026-01-08 13:16:00.56	136.73	18.36	-33.9	-34.8	24.1	0.00e+00	123	33	0	1776287744	40	6108
2026-01-08 13:16:01.57	136.90	18.27	-33.7	-34.7	24.1	0.00e+00	120	33	0	1779433472	40	5996
2026-01-08 13:16:02.58	137.07	18.19	-33.8	-34.8	24.0	0.00e+00	122	33	0	1782579200	40	6071
2026-01-08 13:16:03.59	137.24	18.10	-33.7	-34.7	24.2	0.00e+00	123	33	0	1785724928	40	6001
2026-01-08 13:16:04.60	137.41	18.01	-33.7	-34.6	24.2	0.00e+00	123	33	0	1788870656	40	5965
2026-01-08 13:16:05.61	137.58	17.93	-33.7	-34.6	24.3	0.00e+00	122	33	0	1792016384	40	5977
2026-01-08 13:16:06.62	137.75	17.84	-33.8	-34.7	24.2	0.00e+00	123	33	0	1795162112	40	6055
2026-01-08 13:16:07.63	137.91	17.75	-33.7	-34.6	24.4	0.00e+00	122	33	0	1798307840	40	5933
2026-01-08 13:16:08.64	138.08	17.67	-33.6	-34.5	24.4	0.00e+00	123	33	0	1801453568	40	5899
2026-01-08 13:16:09.65	138.24	17.58	-33.4	-34.3	24.5	0.00e+00	122	33	0	1804599296	40	5753
2026-01-08 13:16:10.66	138.40	17.50	-33.6	-34.5	24.4	0.00e+00	122	33	0	1807745024	40	5879
2026-01-08 13:16:11.67	138.57	17.41	-33.5	-34.4	24.5	0.00e+00	122	33	0	1810890752	40	5817
2026-01-08 13:16:12.68	138.73	17.33	-33.5	-34.4	24.4	0.00e+00	122	33	0	1814036480	40	5795
2026-01-08 13:16:13.69	138.89	17.24	-33.5	-34.3	24.5	0.00e+00	123	33	0	1817182208	40	5773
2026-01-08 13:16:14.70	139.05	17.15	-33.5	-34.3	24.6	0.00e+00	121	33	0	1820327936	40	5776
2026-01-08 13:16:15.71	139.21	17.07	-33.4	-34.3	24.5	0.00e+00	123	33	0	1823473664	40	5769
2026-01-08 13:16:16.72	139.36	16.98	-33.5	-34.3	24.5	0.00e+00	120	33	0	1826619392	40	5785
2026-01-08 13:16:17.73	139.52	16.90	-33.5	-34.4	24.4	0.00e+00	120	33	0	1829765120	40	5851
2026-01-08 13:16:18.74	139.68	16.81	-33.7	-34.6	24.3	0.00e+00	123	33	0	1833959424	40	5932
2026-01-08 13:16:19.75	139.83	16.73	-33.8	-34.7	24.2	0.00e+00	122	33	0	1837105152	40	6011
2026-01-08 13:16:20.76	139.99	16.64	-33.8	-34.7	24.2	0.00e+00	122	33	0	1839202304	40	6048
2026-01-08 13:16:21.77	140.14	16.56	-34.0	-34.9	24.1	0.00e+00	122	33	0	1842348032	40	6171
2026-01-08 13:16:22.78	140.29	16.47	-33.8	-34.7	24.2	0.00e+00	123	33	0	1845493760	40	6014
2026-01-08 13:16:23.79	140.44	16.39	-33.7	-34.6	24.4	0.00e+00	122	33	0	1849688064	40	5962
2026-01-08 13:16:24.80	140.59	16.31	-33.8	-34.7	24.3	0.00e+00	123	33	0	1852833792	40	5997
2026-01-08 13:16:25.81	140.75	16.22	-33.7	-34.6	24.4	0.00e+00	123	33	0	1855979520	40	5928
2026-01-08 13:16:26.82	140.89	16.14	-33.8	-34.7	24.3	0.00e+00	122	33	0	1859125248	40	6019
2026-01-08 13:16:27.83	141.04	16.05	-33.7	-34.6	24.3	0.00e+00	123	33	0	1861222400	40	5960
2026-01-08 13:16:28.84	141.19	15.97	-33.8	-34.7	24.3	0.00e+00	122	33	0	1865416704	40	6047
2026-01-08 13:16:29.85	141.34	15.88	-33.7	-34.6	24.3	0.00e+00	123	33	0	1868562432	40	5977
2026-01-08 13:16:30.86	141.48	15.80	-33.7	-34.6	24.2	0.00e+00	123	33	0	1871708160	40	5973
2026-01-08 13:16:31.87	141.63	15.72	-33.8	-34.6	24.3	0.00e+00	120	33	0	1874853888	40	5992
2026-01-08 13:16:32.87	141.77	15.63	-33.8	-34.7	24.1	0.00e+00	123	33	0	1877999616	40	6043
2026-01-08 13:16:33.88	141.92	15.55	-34.0	-34.9	24.0	0.00e+00	122	33	0	1881145344	40	6168
2026-01-08 13:16:34.89	142.06	15.47	-34.1	-35.0	23.9	0.00e+00	123	33	0	1884291072	40	6241
2026-01-08 13:16:35.90	142.20	15.38	-34.2	-35.1	23.9	0.00e+00	123	33	0	1887436800	40	6302
2026-01-08 13:16:36.91	142.34	15.30	-34.3	-35.2	23.8	0.00e+00	123	33	0	1890582528	40	6387
2026-01-08 13:16:37.92	142.48	15.22	-34.4	-35.3	23.7	0.00e+00	122	33	0	1893728256	40	6469
2026-01-08 13:16:38.93	142.62	15.14	-34.4	-35.3	23.8	0.00e+00	123	33	0	1896873984	40	6464
2026-01-08 13:16:39.94	142.76	15.05	-34.5	-35.4	23.6	0.00e+00	122	33	0	1900019712	40	6550
2026-01-08 13:16:40.95	142.90	14.97	-34.4	-35.4	23.7	0.00e+00	123	33	0	1903165440	40	6506
2026-01-08 13:16:41.96	143.04	14.89	-34.4	-35.4	23.6	0.00e+00	123	33	0	1906311168	40	6509
2026-01-08 13:16:42.97	143.18	14.80	-34.4	-35.4	23.7	0.00e+00	118	33	0	1909456896	40	6513
2026-01-08 13:16:43.98	143.31	14.72	-34.6	-35.5	23.5	0.00e+00	123	33	0	1912602624	40	6607
2026-01-08 13:16:44.98	143.45	14.64	-34.7	-35.6	23.4	0.00e+00	123	33	0	1915748352	40	6710
2026-01-08 13:16:45.99	143.58	14.56	-34.8	-35.7	23.4	0.00e+00	123	33	0	1918894080	42	6034
2026-01-08 13:16:47.00	143.72	14.48	-34.7	-35.6	23.5	0.00e+00	123	33	0	1922039808	42	5964
2026-01-08 13:16:48.01	143.85	14.40	-34.7	-35.7	23.5	0.00e+00	122	33	0	1925185536	42	6009
2026-01-08 13:16:49.02	143.98	14.31	-34.7	-35.6	23.5	0.00e+00	123	33	0	1928331264	42	5956
2026-01-08 13:16:50.03	144.12	14.23	-34.7	-35.6	23.6	0.00e+00	122	33	0	1931476992	42	5962
2026-01-08 13:16:51.04	144.25	14.15	-34.7	-35.7	23.5	0.00e+00	122	33	0	1934622720	42	6002
2026-01-08 13:16:52.05	144.38	14.07	-34.8	-35.7	23.5	0.00e+00	123	33	0	1937768448	42	6047
2026-01-08 13:16:53.06	144.51	13.99	-34.7	-35.6	23.5	0.00e+00	123	33	0	1940914176	42	5980
2026-01-08 13:16:54.07	144.64	13.91	-34.7	-35.6	23.5	0.00e+00	122	33	0	1944059904	42	5959
2026-01-08 13:16:55.08	144.77	13.83	-34.5	-35.5	23.6	0.00e+00	123	33	0	1947205632	42	5862
2026-01-08 13:16:56.09	144.89	13.75	-34.6	-35.5	23.4	0.00e+00	123	33	0	1950351360	42	5924
2026-01-08 13:16:57.10	145.02	13.67	-34.7	-35.7	23.3	0.00e+00	123	33	0	1953497088	42	6022
2026-01-08 13:16:58.11	145.15	13.59	-34.8	-35.7	23.3	0.00e+00	122	33	0	1956642816	42	6049
2026-01-08 13:16:59.12	145.27	13.51	-34.8	-35.8	23.3	0.00e+00	123	33	0	1959788544	42	6076
2026-01-08 13:17:00.13	145.40	13.43	-34.9	-35.9	23.1	0.00e+00	122	33	0	1962934272	42	6174
2026-01-08 13:17:01.14	145.52	13.35	-35.0	-35.9	23.1	0.00e+00	123	33	0	1966080000	42	6184
2026-01-08 13:17:02.15	145.65	13.27	-35.1	-36.0	23.1	0.00e+00	121	33	0	1969225728	42	6267
2026-01-08 13:17:03.15	145.77	13.19	-34.9	-35.9	23.3	0.00e+00	122	33	0	1972371456	42	6142
2026-01-08 13:17:04.16	145.89	13.11	-35.0	-35.9	23.2	0.00e+00	122	33	0	1975517184	42	6199
2026-01-08 13:17:05.17	146.02	13.03	-34.8	-35.7	23.4	0.00e+00	123	34	0	1978662912	42	6062
2026-01-08 13:17:06.18	146.14	12.95	-34.9	-35.8	23.3	0.00e+00	123	33	0	1981808640	42	6102
