passes_logs/2026/01/08/R4.6S_Anadyr/R4.6S_Anadyr__20260108_033539_NOAA_20_JPSS-1_rec.log

#Pass ID: 20260108_033539_NOAA 20 (JPSS-1)
#Satellite: NOAA 20 (JPSS-1)
#Configuration: NOAA 20
#almurnet v.1.7.20251203
#Start time: 2026-01-08 03:35:40

#Version: 2.2.20231116
#Station: R4.6S_Anadyr
#Location: 177.4865 lon 64.73178 lat
#TLE: 1 43013U 17073A   26005.46207808  .00000128  00000+0  81791-4 0  9997
#TLE: 2 43013  98.7627 306.5027 0001826  53.0458 307.0885 14.19533487421381

#Time	Az	El	Level	Level2	SNR	BER	BlckErr	Temp	State	Recorded	gain1	gain2
2026-01-08 03:35:40.46	248.91	0.06	-48.9	-63.8	3.5	1.51e+00	0	34	0	0	60	56200
2026-01-08 03:35:41.46	249.01	0.09	-48.9	-64.1	3.6	1.51e+00	0	36	104	0	60	58150
2026-01-08 03:35:42.47	249.11	0.13	-49.1	-64.3	3.6	1.51e+00	0	36	104	0	60	59162
2026-01-08 03:35:43.48	249.21	0.17	-49.0	-64.2	3.6	1.51e+00	0	36	104	0	60	58542
2026-01-08 03:35:44.49	249.31	0.21	-48.9	-64.2	3.6	1.51e+00	0	36	104	0	60	58522
2026-01-08 03:35:45.50	249.41	0.25	-48.9	-64.2	3.6	1.51e+00	0	36	104	0	60	58287
2026-01-08 03:35:46.51	249.51	0.28	-48.8	-64.2	3.6	1.51e+00	0	36	104	0	60	58484
2026-01-08 03:35:47.52	249.62	0.32	-48.9	-64.2	3.5	1.51e+00	0	36	104	0	60	58826
2026-01-08 03:35:48.53	249.72	0.36	-49.1	-64.3	3.6	1.51e+00	0	36	104	0	60	59297
2026-01-08 03:35:49.54	249.82	0.40	-49.1	-64.3	3.6	1.51e+00	0	36	104	0	60	59287
2026-01-08 03:35:50.55	249.93	0.44	-49.2	-64.3	3.6	1.51e+00	0	36	104	0	60	59564
2026-01-08 03:35:51.56	250.03	0.48	-49.1	-64.3	3.6	1.51e+00	0	36	104	0	60	59358
2026-01-08 03:35:52.57	250.13	0.51	-49.1	-64.2	3.6	1.51e+00	0	36	104	0	60	58697
2026-01-08 03:35:53.58	250.24	0.55	-49.0	-64.2	3.6	1.51e+00	0	36	104	0	60	58753
2026-01-08 03:35:54.59	250.34	0.59	-48.9	-64.1	3.6	1.51e+00	0	36	104	0	60	58082
2026-01-08 03:35:55.60	250.45	0.63	-48.8	-63.9	3.6	1.51e+00	0	36	104	0	60	56931
2026-01-08 03:35:56.61	250.55	0.66	-48.4	-63.6	3.6	1.51e+00	0	36	104	0	60	54651
2026-01-08 03:35:57.62	250.66	0.70	-47.6	-62.8	3.6	1.51e+00	0	36	104	0	60	49683
2026-01-08 03:35:58.63	250.76	0.74	-47.5	-62.6	3.6	1.51e+00	0	36	104	0	60	48730
2026-01-08 03:35:59.64	250.87	0.78	-47.5	-62.6	3.6	1.51e+00	0	36	104	0	60	48892
2026-01-08 03:36:00.65	250.97	0.82	-47.5	-62.7	3.6	1.51e+00	0	36	104	0	60	49079
2026-01-08 03:36:01.66	251.08	0.85	-47.5	-62.6	3.6	1.51e+00	0	36	104	0	60	49000
2026-01-08 03:36:02.67	251.18	0.89	-47.5	-62.6	3.6	1.51e+00	0	36	104	0	60	49025
2026-01-08 03:36:03.68	251.29	0.93	-47.5	-62.6	3.6	1.51e+00	0	36	104	0	60	48901
2026-01-08 03:36:04.69	251.40	0.97	-47.5	-62.6	3.6	1.51e+00	0	36	104	0	60	48949
2026-01-08 03:36:05.70	251.50	1.00	-47.5	-62.6	3.6	1.51e+00	0	36	104	0	60	48843
2026-01-08 03:36:06.71	251.61	1.04	-47.5	-62.6	3.6	1.51e+00	0	36	104	0	60	48955
2026-01-08 03:36:07.72	251.72	1.08	-47.5	-62.6	3.6	1.51e+00	0	36	104	0	60	48716
2026-01-08 03:36:08.73	251.83	1.12	-47.5	-62.6	3.6	1.51e+00	0	36	104	0	60	48988
2026-01-08 03:36:09.74	251.94	1.15	-47.5	-62.7	3.6	1.51e+00	0	36	104	0	60	49099
2026-01-08 03:36:10.75	252.04	1.19	-47.5	-62.7	3.6	1.51e+00	0	36	104	0	60	49127
2026-01-08 03:36:11.76	252.15	1.23	-47.5	-62.7	3.6	1.51e+00	0	36	104	0	60	49178
2026-01-08 03:36:12.77	252.26	1.27	-47.5	-62.6	3.6	1.51e+00	0	36	104	0	60	48843
2026-01-08 03:36:13.78	252.37	1.30	-47.5	-62.6	3.6	1.51e+00	0	36	104	0	60	49035
2026-01-08 03:36:14.79	252.48	1.34	-47.5	-62.6	3.6	1.51e+00	0	36	104	0	60	48872
2026-01-08 03:36:15.80	252.59	1.38	-47.5	-62.6	3.6	1.51e+00	0	36	104	0	60	48689
2026-01-08 03:36:16.81	252.70	1.42	-47.5	-62.5	3.6	1.51e+00	0	36	104	0	60	48395
2026-01-08 03:36:17.82	252.81	1.45	-47.5	-62.6	3.6	1.51e+00	0	36	104	0	60	48870
2026-01-08 03:36:18.83	252.92	1.49	-47.5	-62.6	3.6	1.51e+00	0	37	104	0	60	48852
2026-01-08 03:36:19.84	253.03	1.53	-47.5	-62.6	3.6	1.51e+00	0	37	104	0	60	48856
2026-01-08 03:36:20.85	253.14	1.56	-47.5	-62.6	3.6	1.51e+00	0	36	104	0	60	48902
2026-01-08 03:36:21.86	253.25	1.60	-47.5	-62.6	3.6	1.51e+00	0	37	104	0	60	48666
2026-01-08 03:36:22.87	253.36	1.64	-47.5	-62.6	3.6	1.51e+00	0	37	104	0	60	48787
2026-01-08 03:36:23.88	253.48	1.68	-47.5	-62.6	3.6	1.51e+00	0	37	104	0	60	48848
2026-01-08 03:36:24.89	253.59	1.71	-47.5	-62.6	3.6	1.51e+00	0	37	104	0	60	48778
2026-01-08 03:36:25.90	253.70	1.75	-47.5	-62.6	3.6	1.51e+00	0	37	104	0	60	48593
2026-01-08 03:36:26.91	253.81	1.79	-47.5	-62.6	3.6	1.51e+00	0	37	104	0	60	48694
2026-01-08 03:36:27.92	253.93	1.82	-47.5	-62.6	3.6	1.51e+00	0	37	104	0	60	48908
2026-01-08 03:36:28.93	254.04	1.86	-47.5	-62.6	3.6	1.51e+00	0	37	104	0	60	49020
2026-01-08 03:36:29.94	254.15	1.90	-47.5	-62.6	3.6	1.51e+00	0	37	104	0	60	48953
2026-01-08 03:36:30.95	254.27	1.93	-47.5	-62.6	3.6	1.51e+00	0	37	104	0	60	48899
2026-01-08 03:36:31.96	254.38	1.97	-47.5	-62.6	3.6	1.51e+00	0	37	104	0	60	48561
2026-01-08 03:36:32.97	254.49	2.01	-47.5	-62.5	3.6	1.51e+00	0	37	104	0	60	48447
2026-01-08 03:36:33.98	254.61	2.04	-47.5	-62.6	3.6	1.51e+00	0	37	104	0	60	48906
2026-01-08 03:36:34.99	254.72	2.08	-47.5	-62.6	3.6	1.51e+00	0	37	104	0	60	48777
2026-01-08 03:36:36.00	254.84	2.12	-47.5	-62.6	3.6	1.51e+00	0	37	104	0	60	48677
2026-01-08 03:36:37.01	254.95	2.15	-47.5	-62.6	3.6	1.51e+00	0	37	104	0	60	48579
2026-01-08 03:36:38.02	255.07	2.19	-47.5	-62.6	3.6	1.51e+00	0	37	104	0	60	48981
2026-01-08 03:36:39.03	255.18	2.23	-47.5	-62.6	3.6	1.51e+00	0	37	104	0	60	48857
2026-01-08 03:36:40.04	255.30	2.26	-47.5	-62.6	3.6	1.51e+00	0	37	104	0	60	48784
2026-01-08 03:36:41.05	255.42	2.30	-47.5	-62.6	3.6	1.51e+00	0	37	104	0	60	48786
2026-01-08 03:36:42.06	255.53	2.33	-47.5	-62.6	3.6	1.51e+00	0	37	104	0	60	48486
2026-01-08 03:36:43.07	255.65	2.37	-47.5	-62.5	3.6	1.51e+00	0	37	104	0	60	48467
2026-01-08 03:36:44.08	255.77	2.41	-47.5	-62.5	3.6	1.51e+00	0	37	104	0	60	48346
2026-01-08 03:36:45.09	255.88	2.44	-47.5	-62.6	3.6	1.51e+00	0	37	104	0	60	48529
2026-01-08 03:36:46.10	256.00	2.48	-47.5	-62.6	3.6	1.51e+00	0	37	104	0	60	48881
2026-01-08 03:36:47.11	256.12	2.52	-47.5	-62.5	3.6	1.51e+00	0	37	104	0	60	48153
2026-01-08 03:36:48.12	256.24	2.55	-47.5	-62.3	3.6	1.51e+00	0	37	104	0	60	46910
2026-01-08 03:36:49.13	256.36	2.59	-47.4	-62.2	3.6	1.51e+00	0	37	104	0	60	46786
2026-01-08 03:36:50.14	256.48	2.62	-47.5	-62.5	3.6	1.51e+00	0	37	104	0	60	48438
2026-01-08 03:36:51.15	256.60	2.66	-47.4	-62.0	3.6	1.51e+00	0	37	104	0	60	45561
2026-01-08 03:36:52.16	256.71	2.69	-47.4	-61.3	3.6	1.51e+00	0	37	104	0	60	41789
2026-01-08 03:36:53.17	256.83	2.73	-47.4	-61.7	3.6	1.51e+00	0	37	104	0	60	43900
2026-01-08 03:36:54.18	256.95	2.77	-47.5	-62.6	3.6	1.51e+00	0	37	104	0	60	48884
2026-01-08 03:36:55.19	257.07	2.80	-47.3	-59.2	4.0	1.51e+00	0	37	104	0	60	32890
2026-01-08 03:36:56.20	257.19	2.84	-46.6	-53.4	7.5	2.43e-01	92	37	0	0	60	16912
2026-01-08 03:36:57.21	257.32	2.87	-45.6	-50.0	11.4	6.09e-03	90	37	0	2097152	60	11457
2026-01-08 03:36:58.22	257.44	2.91	-44.6	-47.9	13.7	7.01e-05	2	37	0	4194304	60	8964
2026-01-08 03:36:59.23	257.56	2.94	-44.2	-47.3	14.3	2.20e-06	90	37	0	5242880	60	8338
2026-01-08 03:37:00.24	257.68	2.98	-44.5	-47.7	13.8	7.00e-07	0	37	0	7340032	60	8789
2026-01-08 03:37:01.25	257.80	3.01	-43.0	-45.1	19.1	1.83e-05	90	37	0	9437184	60	6502
2026-01-08 03:37:02.26	257.92	3.05	-48.0	-63.1	3.6	1.37e+00	0	37	104	9437184	60	51570
2026-01-08 03:37:03.27	258.05	3.08	-47.3	-60.3	3.8	1.49e+00	0	37	104	9437184	60	37314
2026-01-08 03:37:04.28	258.17	3.12	-41.5	-43.2	18.7	0.00e+00	92	37	0	10485760	56	6559
2026-01-08 03:37:05.29	258.29	3.15	-40.7	-42.1	19.6	0.00e+00	62	37	0	12582912	56	5794
2026-01-08 03:37:06.30	258.41	3.19	-46.2	-51.4	12.2	2.89e-02	90	37	0	14680064	60	13400
2026-01-08 03:37:07.31	258.54	3.22	-40.6	-42.1	19.6	0.00e+00	0	37	0	15728640	54	6465
2026-01-08 03:37:08.32	258.66	3.26	-40.7	-42.1	19.6	0.00e+00	92	37	0	17825792	54	6520
2026-01-08 03:37:09.33	258.79	3.29	-40.7	-42.2	19.5	0.00e+00	71	37	0	19922944	54	6587
2026-01-08 03:37:10.34	258.91	3.33	-40.7	-42.1	19.6	0.00e+00	92	37	0	22020096	54	6525
2026-01-08 03:37:11.34	259.03	3.36	-40.6	-42.0	19.7	0.00e+00	91	37	0	24117248	54	6432
2026-01-08 03:37:12.35	259.16	3.40	-40.0	-41.3	20.4	0.00e+00	90	37	0	25165824	54	5955
2026-01-08 03:37:13.36	259.28	3.43	-40.2	-41.5	20.2	0.00e+00	91	37	0	27262976	54	6079
2026-01-08 03:37:14.37	259.41	3.47	-40.5	-41.9	19.9	0.00e+00	12	37	0	29360128	54	6355
2026-01-08 03:37:15.38	259.54	3.50	-40.3	-41.7	20.1	0.00e+00	91	37	0	31457280	54	6195
2026-01-08 03:37:16.39	259.66	3.53	-40.2	-41.6	20.1	0.00e+00	68	37	0	33554432	54	6110
2026-01-08 03:37:17.40	259.79	3.57	-40.2	-41.5	20.2	0.00e+00	90	37	0	34603008	54	6044
2026-01-08 03:37:18.41	259.91	3.60	-40.2	-41.6	20.2	0.00e+00	91	37	0	36700160	54	6109
2026-01-08 03:37:19.42	260.04	3.64	-40.1	-41.4	20.3	0.00e+00	92	37	0	38797312	54	6026
2026-01-08 03:37:20.43	260.17	3.67	-40.4	-41.7	20.0	0.00e+00	91	37	0	40894464	54	6220
2026-01-08 03:37:21.44	260.30	3.70	-40.4	-41.8	20.0	0.00e+00	90	37	0	42991616	54	6281
2026-01-08 03:37:22.45	260.42	3.74	-40.3	-41.6	20.1	0.00e+00	92	37	0	44040192	54	6154
2026-01-08 03:37:23.46	260.55	3.77	-40.4	-41.8	20.0	0.00e+00	0	37	0	46137344	54	6281
2026-01-08 03:37:24.47	260.68	3.81	-40.5	-41.8	20.0	0.00e+00	92	37	0	48234496	54	6311
2026-01-08 03:37:25.48	260.81	3.84	-40.6	-42.0	19.9	0.00e+00	92	37	0	50331648	54	6405
2026-01-08 03:37:26.49	260.94	3.87	-40.6	-42.0	19.8	0.00e+00	91	37	0	52428800	54	6408
2026-01-08 03:37:27.50	261.07	3.91	-40.3	-41.7	20.2	0.00e+00	92	37	0	53477376	54	6176
2026-01-08 03:37:28.51	261.20	3.94	-40.5	-41.8	20.0	0.00e+00	92	37	0	55574528	54	6304
2026-01-08 03:37:29.51	261.32	3.97	-40.8	-42.2	19.7	0.00e+00	92	37	0	57671680	54	6563
2026-01-08 03:37:30.52	261.45	4.01	-40.7	-42.1	19.8	0.00e+00	32	37	0	59768832	54	6484
2026-01-08 03:37:31.53	261.59	4.04	-40.8	-42.2	19.7	0.00e+00	92	37	0	61865984	54	6559
2026-01-08 03:37:32.54	261.72	4.07	-40.7	-42.1	19.7	0.00e+00	37	37	0	62914560	54	6536
2026-01-08 03:37:33.55	261.85	4.10	-40.7	-42.1	19.9	0.00e+00	91	37	0	65011712	54	6470
2026-01-08 03:37:34.56	261.98	4.14	-40.5	-41.9	20.0	0.00e+00	91	37	0	67108864	54	6360
2026-01-08 03:37:35.57	262.11	4.17	-40.6	-42.0	19.8	0.00e+00	91	37	0	69206016	54	6440
2026-01-08 03:37:36.58	262.24	4.20	-40.6	-42.0	19.8	0.00e+00	91	37	0	71303168	54	6464
2026-01-08 03:37:37.59	262.37	4.24	-40.6	-41.9	20.0	0.00e+00	5	37	0	73400320	54	6380
2026-01-08 03:37:38.60	262.51	4.27	-40.6	-42.0	19.9	0.00e+00	92	37	0	74448896	54	6415
2026-01-08 03:37:39.61	262.64	4.30	-40.7	-42.1	19.9	0.00e+00	0	37	0	76546048	54	6486
2026-01-08 03:37:40.62	262.77	4.33	-40.7	-42.1	19.9	0.00e+00	91	37	0	78643200	54	6474
2026-01-08 03:37:41.63	262.90	4.37	-40.7	-42.1	19.8	0.00e+00	91	37	0	80740352	54	6473
2026-01-08 03:37:42.64	263.04	4.40	-40.5	-41.8	20.1	0.00e+00	91	37	0	82837504	54	6285
2026-01-08 03:37:43.65	263.17	4.43	-40.6	-42.0	19.9	0.00e+00	92	37	0	83886080	54	6424
2026-01-08 03:37:44.66	263.30	4.46	-40.5	-41.9	19.7	0.00e+00	91	37	0	85983232	54	6344
2026-01-08 03:37:45.67	263.44	4.49	-40.4	-41.7	20.2	0.00e+00	92	37	0	88080384	54	6220
2026-01-08 03:37:46.68	263.57	4.53	-40.4	-41.8	20.1	0.00e+00	0	37	0	90177536	54	6260
2026-01-08 03:37:47.69	263.71	4.56	-40.5	-41.9	20.2	0.00e+00	92	37	0	92274688	54	6319
2026-01-08 03:37:48.70	263.84	4.59	-40.5	-41.9	20.1	0.00e+00	90	37	0	93323264	54	6348
2026-01-08 03:37:49.71	263.98	4.62	-40.4	-41.7	20.3	0.00e+00	91	37	0	95420416	54	6217
2026-01-08 03:37:50.72	264.11	4.65	-40.3	-41.6	20.3	0.00e+00	91	37	0	97517568	54	6131
2026-01-08 03:37:51.73	264.25	4.68	-40.4	-41.7	20.2	0.00e+00	91	37	0	99614720	54	6206
2026-01-08 03:37:52.74	264.39	4.71	-40.5	-41.8	20.4	0.00e+00	91	37	0	101711872	54	6269
2026-01-08 03:37:53.75	264.52	4.75	-40.6	-41.9	20.2	9.16e-02	55	37	0	102760448	58	5043
2026-01-08 03:37:54.76	264.66	4.78	-40.5	-41.8	20.1	0.00e+00	92	37	0	104857600	54	6267
2026-01-08 03:37:55.77	264.80	4.81	-40.4	-41.7	20.5	0.00e+00	91	37	0	106954752	54	6195
2026-01-08 03:37:56.78	264.93	4.84	-40.3	-41.5	20.5	0.00e+00	91	37	0	109051904	54	6095
2026-01-08 03:37:57.79	265.07	4.87	-40.2	-41.5	20.4	0.00e+00	90	37	0	111149056	54	6072
2026-01-08 03:37:58.80	265.21	4.90	-40.4	-41.7	20.4	0.00e+00	92	37	0	112197632	54	6181
2026-01-08 03:37:59.81	265.35	4.93	-40.4	-41.7	20.3	0.00e+00	91	37	0	114294784	54	6188
2026-01-08 03:38:00.82	265.49	4.96	-40.1	-41.4	20.6	0.00e+00	0	37	0	116391936	54	6011
2026-01-08 03:38:01.83	265.62	4.99	-40.2	-41.5	20.5	0.00e+00	90	37	0	118489088	54	6061
2026-01-08 03:38:02.84	265.76	5.02	-40.1	-41.3	20.6	0.00e+00	0	37	0	120586240	54	5964
2026-01-08 03:38:03.85	265.90	5.05	-40.0	-41.3	20.7	0.00e+00	90	37	0	121634816	54	5917
2026-01-08 03:38:04.86	266.04	5.08	-40.0	-41.3	20.7	0.00e+00	92	37	0	123731968	54	5909
2026-01-08 03:38:05.87	266.18	5.11	-40.0	-41.3	20.7	0.00e+00	92	37	0	125829120	54	5919
2026-01-08 03:38:06.88	266.32	5.14	-40.1	-41.3	20.7	0.00e+00	90	37	0	127926272	54	5938
2026-01-08 03:38:07.89	266.46	5.17	-40.1	-41.4	20.6	0.00e+00	38	37	0	130023424	54	5980
2026-01-08 03:38:08.90	266.60	5.20	-40.0	-41.2	20.8	0.00e+00	90	37	0	131072000	54	5881
2026-01-08 03:38:09.91	266.74	5.23	-40.0	-41.3	20.8	0.00e+00	0	37	0	133169152	54	5907
2026-01-08 03:38:10.92	266.88	5.26	-40.1	-41.3	20.7	0.00e+00	91	37	0	135266304	54	5937
2026-01-08 03:38:11.93	267.03	5.29	-40.2	-41.5	20.5	0.00e+00	92	37	0	137363456	54	6078
2026-01-08 03:38:12.94	267.17	5.32	-40.4	-41.6	20.4	0.00e+00	92	37	0	139460608	54	6168
2026-01-08 03:38:13.94	267.31	5.35	-40.3	-41.6	20.4	0.00e+00	91	37	0	141557760	54	6125
2026-01-08 03:38:14.95	267.45	5.38	-40.4	-41.7	20.3	0.00e+00	90	37	0	142606336	54	6213
2026-01-08 03:38:15.97	267.59	5.41	-40.4	-41.7	20.4	0.00e+00	92	37	0	144703488	54	6203
2026-01-08 03:38:16.97	267.74	5.44	-40.4	-41.7	20.4	0.00e+00	0	37	0	146800640	54	6239
2026-01-08 03:38:17.98	267.88	5.46	-40.4	-41.7	20.4	0.00e+00	92	37	0	148897792	54	6186
2026-01-08 03:38:18.99	268.02	5.49	-40.4	-41.6	20.5	0.00e+00	22	37	0	150994944	54	6170
2026-01-08 03:38:20.00	268.17	5.52	-40.4	-41.7	20.4	0.00e+00	92	37	0	152043520	54	6215
2026-01-08 03:38:21.01	268.31	5.55	-40.2	-41.5	20.6	0.00e+00	92	37	0	154140672	54	6037
2026-01-08 03:38:22.02	268.45	5.58	-40.3	-41.6	20.4	0.00e+00	92	37	0	156237824	54	6136
2026-01-08 03:38:23.03	268.60	5.61	-40.3	-41.6	20.5	0.00e+00	90	37	0	158334976	54	6152
2026-01-08 03:38:24.04	268.74	5.63	-40.4	-41.7	20.4	0.00e+00	92	37	0	160432128	54	6215
2026-01-08 03:38:25.05	268.89	5.66	-40.4	-41.7	20.3	0.00e+00	89	37	0	161480704	54	6235
2026-01-08 03:38:26.06	269.03	5.69	-40.4	-41.6	20.4	0.00e+00	0	37	0	163577856	54	6170
2026-01-08 03:38:27.07	269.18	5.72	-40.4	-41.7	20.5	0.00e+00	92	37	0	165675008	54	6202
2026-01-08 03:38:28.08	269.32	5.74	-40.4	-41.7	20.4	0.00e+00	92	37	0	167772160	54	6225
2026-01-08 03:38:29.09	269.47	5.77	-40.5	-41.8	20.3	0.00e+00	92	37	0	169869312	54	6284
2026-01-08 03:38:30.10	269.62	5.80	-40.4	-41.7	20.4	0.00e+00	92	37	0	170917888	54	6203
2026-01-08 03:38:31.11	269.76	5.83	-40.5	-41.9	20.2	0.00e+00	37	37	0	173015040	54	6327
2026-01-08 03:38:32.12	269.91	5.85	-40.6	-42.0	20.1	0.00e+00	92	37	0	175112192	54	6401
2026-01-08 03:38:33.12	270.06	5.88	-40.5	-41.8	20.3	0.00e+00	75	37	0	177209344	54	6308
2026-01-08 03:38:34.14	270.20	5.91	-40.6	-41.9	20.1	0.00e+00	92	37	0	179306496	54	6376
2026-01-08 03:38:35.14	270.35	5.93	-40.7	-42.0	20.1	0.00e+00	92	37	0	180355072	54	6444
2026-01-08 03:38:36.16	270.50	5.96	-40.6	-41.9	20.2	0.00e+00	92	37	0	182452224	54	6362
2026-01-08 03:38:37.16	270.65	5.98	-40.7	-42.1	20.0	0.00e+00	92	37	0	184549376	54	6487
2026-01-08 03:38:38.17	270.79	6.01	-40.7	-42.1	20.1	0.00e+00	17	37	0	186646528	54	6475
2026-01-08 03:38:39.18	270.94	6.04	-40.9	-42.4	19.9	0.00e+00	92	37	0	188743680	54	6699
2026-01-08 03:38:40.19	271.09	6.06	-40.8	-42.2	20.0	0.00e+00	40	37	0	189792256	54	6547
2026-01-08 03:38:41.20	271.24	6.09	-40.8	-42.2	20.0	0.00e+00	92	37	0	191889408	54	6585
2026-01-08 03:38:42.21	271.39	6.11	-40.8	-42.2	20.0	0.00e+00	39	37	0	193986560	54	6579
2026-01-08 03:38:43.22	271.54	6.14	-40.9	-42.2	19.9	0.00e+00	90	37	0	196083712	54	6609
2026-01-08 03:38:44.23	271.69	6.17	-40.9	-42.2	19.9	0.00e+00	92	37	0	198180864	54	6610
2026-01-08 03:38:45.24	271.84	6.19	-40.9	-42.3	19.9	0.00e+00	91	37	0	199229440	54	6677
2026-01-08 03:38:46.25	271.99	6.22	-40.9	-42.3	19.9	0.00e+00	90	37	0	201326592	54	6637
2026-01-08 03:38:47.26	272.14	6.24	-41.0	-42.4	19.7	0.00e+00	0	37	0	203423744	54	6717
2026-01-08 03:38:48.26	272.29	6.26	-40.8	-42.2	19.9	0.00e+00	90	37	0	205520896	54	6564
2026-01-08 03:38:49.27	272.44	6.29	-40.8	-42.1	20.0	0.00e+00	34	37	0	207618048	54	6507
2026-01-08 03:38:50.28	272.59	6.31	-40.7	-42.1	20.1	0.00e+00	92	37	0	209715200	54	6485
2026-01-08 03:38:51.29	272.74	6.34	-40.7	-42.1	20.1	0.00e+00	90	37	0	210763776	54	6497
2026-01-08 03:38:52.30	272.90	6.36	-40.7	-42.1	20.1	0.00e+00	92	37	0	212860928	54	6492
2026-01-08 03:38:53.31	273.05	6.39	-40.7	-42.1	20.1	0.00e+00	90	37	0	214958080	54	6480
2026-01-08 03:38:54.32	273.20	6.41	-40.5	-41.8	20.4	0.00e+00	46	37	0	217055232	54	6305
2026-01-08 03:38:55.33	273.35	6.43	-40.5	-41.8	20.4	0.00e+00	92	37	0	219152384	54	6304
2026-01-08 03:38:56.34	273.50	6.46	-40.5	-41.8	20.4	0.00e+00	60	37	0	220200960	54	6280
2026-01-08 03:38:57.35	273.66	6.48	-40.6	-41.9	20.3	0.00e+00	92	37	0	222298112	54	6335
2026-01-08 03:38:58.36	273.81	6.50	-40.7	-42.0	20.1	0.00e+00	74	37	0	224395264	54	6425
2026-01-08 03:38:59.36	273.96	6.53	-40.8	-42.2	20.1	0.00e+00	92	37	0	226492416	54	6584
2026-01-08 03:39:00.37	274.12	6.55	-40.8	-42.1	20.1	0.00e+00	92	37	0	228589568	54	6508
2026-01-08 03:39:01.38	274.27	6.57	-40.8	-42.2	20.0	0.00e+00	90	37	0	229638144	54	6556
2026-01-08 03:39:02.39	274.42	6.60	-40.9	-42.2	20.0	0.00e+00	92	37	0	231735296	54	6611
2026-01-08 03:39:03.40	274.58	6.62	-40.8	-42.1	20.1	0.00e+00	11	37	0	233832448	54	6539
2026-01-08 03:39:04.41	274.73	6.64	-40.7	-42.0	20.2	0.00e+00	92	37	0	235929600	54	6428
2026-01-08 03:39:05.42	274.89	6.66	-40.8	-42.1	20.1	0.00e+00	77	37	0	238026752	54	6515
2026-01-08 03:39:06.43	275.04	6.69	-40.8	-42.2	20.0	0.00e+00	92	37	0	239075328	54	6544
2026-01-08 03:39:07.44	275.20	6.71	-40.8	-42.1	20.0	0.00e+00	92	37	0	241172480	54	6532
2026-01-08 03:39:08.45	275.35	6.73	-40.8	-42.1	20.1	0.00e+00	90	37	0	243269632	54	6521
2026-01-08 03:39:09.46	275.51	6.75	-40.8	-42.1	20.1	0.00e+00	92	37	0	245366784	54	6523
2026-01-08 03:39:10.47	275.67	6.77	-40.6	-41.9	20.2	0.00e+00	0	37	0	247463936	54	6369
2026-01-08 03:39:11.48	275.82	6.79	-40.6	-41.9	20.3	0.00e+00	92	37	0	248512512	54	6338
2026-01-08 03:39:12.49	275.98	6.81	-40.5	-41.8	20.4	0.00e+00	0	37	0	250609664	54	6282
2026-01-08 03:39:13.50	276.13	6.84	-40.4	-41.7	20.5	0.00e+00	92	37	0	252706816	54	6205
2026-01-08 03:39:14.51	276.29	6.86	-40.4	-41.6	20.5	0.00e+00	90	37	0	254803968	54	6171
2026-01-08 03:39:15.52	276.45	6.88	-40.5	-41.7	20.5	0.00e+00	32	37	0	256901120	54	6237
2026-01-08 03:39:16.52	276.60	6.90	-40.5	-41.7	20.4	0.00e+00	92	37	0	257949696	54	6242
2026-01-08 03:39:17.53	276.76	6.92	-40.5	-41.8	20.4	0.00e+00	52	37	0	260046848	54	6252
2026-01-08 03:39:18.54	276.92	6.94	-40.6	-41.9	20.3	0.00e+00	92	37	0	262144000	54	6384
2026-01-08 03:39:19.55	277.08	6.96	-40.6	-41.9	20.4	0.00e+00	51	37	0	264241152	54	6343
2026-01-08 03:39:20.56	277.23	6.98	-40.7	-42.0	20.2	0.00e+00	92	37	0	266338304	54	6447
2026-01-08 03:39:21.57	277.39	7.00	-40.7	-42.1	20.1	0.00e+00	92	37	0	267386880	54	6476
2026-01-08 03:39:22.58	277.55	7.02	-40.8	-42.2	20.1	0.00e+00	89	37	0	269484032	54	6573
2026-01-08 03:39:23.59	277.71	7.04	-40.8	-42.1	20.1	0.00e+00	92	37	0	271581184	54	6513
2026-01-08 03:39:24.60	277.87	7.05	-40.7	-42.0	20.2	0.00e+00	74	37	0	273678336	54	6425
2026-01-08 03:39:25.61	278.03	7.07	-40.7	-42.1	20.1	0.00e+00	92	37	0	275775488	54	6468
2026-01-08 03:39:26.62	278.19	7.09	-40.8	-42.1	20.0	0.00e+00	11	37	0	276824064	54	6535
2026-01-08 03:39:27.63	278.35	7.11	-40.7	-42.0	20.3	0.00e+00	92	37	0	278921216	54	6417
2026-01-08 03:39:28.64	278.51	7.13	-40.6	-41.9	20.3	0.00e+00	15	37	0	281018368	54	6357
2026-01-08 03:39:29.65	278.67	7.15	-40.8	-42.1	20.1	0.00e+00	92	37	0	283115520	54	6535
2026-01-08 03:39:30.66	278.83	7.17	-40.6	-41.9	20.3	0.00e+00	92	37	0	285212672	54	6345
2026-01-08 03:39:31.67	278.99	7.18	-40.7	-42.0	20.2	0.00e+00	38	37	0	287309824	54	6457
2026-01-08 03:39:32.68	279.15	7.20	-40.7	-42.0	20.2	0.00e+00	92	37	0	288358400	54	6415
2026-01-08 03:39:33.68	279.31	7.22	-40.8	-42.1	20.2	0.00e+00	0	37	0	290455552	54	6495
2026-01-08 03:39:34.69	279.47	7.24	-40.8	-42.2	20.1	0.00e+00	92	37	0	292552704	54	6556
2026-01-08 03:39:35.70	279.63	7.25	-40.9	-42.2	20.1	0.00e+00	0	37	0	294649856	54	6573
2026-01-08 03:39:36.71	279.79	7.27	-40.7	-42.1	20.2	0.00e+00	92	37	0	295698432	54	6477
2026-01-08 03:39:37.72	279.95	7.29	-40.8	-42.2	20.1	0.00e+00	92	37	0	297795584	54	6552
2026-01-08 03:39:38.73	280.11	7.30	-40.9	-42.3	20.0	0.00e+00	53	37	0	299892736	54	6622
2026-01-08 03:39:39.74	280.27	7.32	-40.8	-42.1	20.1	0.00e+00	92	37	0	301989888	54	6515
2026-01-08 03:39:40.75	280.43	7.34	-40.8	-42.1	20.2	0.00e+00	32	37	0	304087040	54	6512
2026-01-08 03:39:41.76	280.60	7.35	-40.9	-42.3	20.1	0.00e+00	92	37	0	306184192	54	6632
2026-01-08 03:39:42.77	280.76	7.37	-40.9	-42.3	20.0	0.00e+00	0	37	0	307232768	54	6639
2026-01-08 03:39:43.78	280.92	7.38	-41.0	-42.3	20.0	0.00e+00	90	37	0	309329920	54	6667
2026-01-08 03:39:44.79	281.08	7.40	-40.9	-42.2	20.0	0.00e+00	92	37	0	311427072	54	6588
2026-01-08 03:39:45.80	281.25	7.42	-40.9	-42.2	20.1	0.00e+00	92	37	0	313524224	54	6577
2026-01-08 03:39:46.81	281.41	7.43	-40.9	-42.3	20.0	0.00e+00	92	37	0	315621376	54	6666
2026-01-08 03:39:47.82	281.57	7.45	-41.0	-42.4	20.0	0.00e+00	2	37	0	316669952	54	6698
2026-01-08 03:39:48.83	281.74	7.46	-40.9	-42.2	20.0	0.00e+00	92	37	0	318767104	54	6604
2026-01-08 03:39:49.83	281.90	7.48	-41.0	-42.3	20.0	0.00e+00	0	37	0	320864256	54	6673
2026-01-08 03:39:50.84	282.06	7.49	-41.0	-42.4	19.9	0.00e+00	92	37	0	322961408	54	6696
2026-01-08 03:39:51.85	282.22	7.50	-40.7	-42.1	20.2	0.00e+00	2	37	0	325058560	54	6465
2026-01-08 03:39:52.86	282.39	7.52	-40.8	-42.1	20.1	0.00e+00	92	37	0	326107136	54	6493
2026-01-08 03:39:53.87	282.55	7.53	-40.7	-42.0	20.3	0.00e+00	92	37	0	328204288	54	6427
2026-01-08 03:39:54.88	282.72	7.55	-40.7	-42.0	20.2	0.00e+00	12	37	0	330301440	54	6456
2026-01-08 03:39:55.89	282.88	7.56	-40.7	-42.0	20.3	0.00e+00	92	37	0	332398592	54	6428
2026-01-08 03:39:56.90	283.04	7.57	-40.7	-42.0	20.3	0.00e+00	40	37	0	334495744	54	6420
2026-01-08 03:39:57.91	283.21	7.59	-40.8	-42.1	20.2	0.00e+00	92	37	0	335544320	54	6493
2026-01-08 03:39:58.92	283.37	7.60	-40.7	-42.0	20.3	0.00e+00	23	37	0	337641472	54	6435
2026-01-08 03:39:59.93	283.54	7.61	-40.7	-42.1	20.3	0.00e+00	92	37	0	339738624	54	6473
2026-01-08 03:40:00.94	283.70	7.62	-40.8	-42.1	20.2	0.00e+00	90	37	0	341835776	54	6500
2026-01-08 03:40:01.95	283.87	7.64	-40.9	-42.3	20.0	0.00e+00	92	37	0	343932928	54	6643
2026-01-08 03:40:02.96	284.03	7.65	-40.8	-42.1	20.2	0.00e+00	90	37	0	344981504	54	6525
2026-01-08 03:40:03.97	284.20	7.66	-40.6	-41.9	20.4	0.00e+00	53	37	0	347078656	54	6384
2026-01-08 03:40:04.98	284.36	7.67	-40.7	-42.0	20.3	0.00e+00	92	37	0	349175808	54	6445
2026-01-08 03:40:05.99	284.53	7.68	-40.8	-42.1	20.2	0.00e+00	7	37	0	351272960	54	6503
2026-01-08 03:40:07.00	284.70	7.69	-40.7	-42.0	20.3	0.00e+00	92	37	0	353370112	54	6452
2026-01-08 03:40:08.01	284.86	7.71	-40.6	-41.9	20.4	0.00e+00	92	37	0	354418688	54	6366
2026-01-08 03:40:09.02	285.03	7.72	-40.6	-41.8	20.4	0.00e+00	92	37	0	356515840	54	6311
2026-01-08 03:40:10.02	285.19	7.73	-40.5	-41.8	20.4	0.00e+00	91	37	0	358612992	54	6294
2026-01-08 03:40:11.03	285.36	7.74	-40.5	-41.8	20.6	0.00e+00	0	37	0	360710144	54	6261
2026-01-08 03:40:12.04	285.52	7.75	-40.6	-41.9	20.4	0.00e+00	92	37	0	362807296	54	6328
2026-01-08 03:40:13.05	285.69	7.76	-40.7	-42.0	20.3	0.00e+00	0	37	0	363855872	54	6430
2026-01-08 03:40:14.07	285.86	7.77	-40.8	-42.1	20.2	0.00e+00	92	37	0	365953024	54	6514
2026-01-08 03:40:15.08	286.02	7.78	-40.7	-42.1	20.3	0.00e+00	71	37	0	368050176	54	6480
2026-01-08 03:40:16.08	286.19	7.79	-40.9	-42.2	20.1	0.00e+00	91	37	0	370147328	54	6584
2026-01-08 03:40:17.09	286.36	7.80	-40.9	-42.2	20.1	0.00e+00	92	37	0	372244480	54	6576
2026-01-08 03:40:18.10	286.52	7.81	-40.9	-42.3	20.0	0.00e+00	0	37	0	374341632	54	6619
2026-01-08 03:40:19.11	286.69	7.81	-41.0	-42.4	19.9	0.00e+00	92	37	0	375390208	54	6722
2026-01-08 03:40:20.12	286.86	7.82	-40.9	-42.3	20.0	0.00e+00	42	37	0	377487360	54	6642
2026-01-08 03:40:21.13	287.02	7.83	-41.0	-42.4	20.0	0.00e+00	92	37	0	379584512	54	6711
2026-01-08 03:40:22.14	287.19	7.84	-41.1	-42.5	19.9	0.00e+00	34	37	0	381681664	54	6771
2026-01-08 03:40:23.15	287.36	7.85	-41.1	-42.5	19.9	0.00e+00	91	37	0	383778816	54	6790
2026-01-08 03:40:24.16	287.53	7.86	-41.2	-42.6	19.7	0.00e+00	90	37	0	384827392	54	6872
2026-01-08 03:40:25.17	287.69	7.86	-41.2	-42.7	19.7	0.00e+00	91	37	0	386924544	54	6950
2026-01-08 03:40:26.17	287.86	7.87	-41.3	-42.7	19.6	0.00e+00	91	37	0	389021696	54	6989
2026-01-08 03:40:27.18	288.03	7.88	-41.3	-42.7	19.7	0.00e+00	0	37	0	391118848	54	6987
2026-01-08 03:40:28.19	288.19	7.89	-41.4	-42.9	19.4	0.00e+00	90	37	0	393216000	54	7136
2026-01-08 03:40:29.21	288.36	7.89	-41.5	-42.9	19.5	0.00e+00	3	37	0	394264576	54	7163
2026-01-08 03:40:30.21	288.53	7.90	-41.3	-42.7	19.7	0.00e+00	91	37	0	396361728	54	6951
2026-01-08 03:40:31.22	288.70	7.91	-41.2	-42.6	19.7	0.00e+00	92	37	0	398458880	54	6912
2026-01-08 03:40:32.23	288.87	7.91	-41.1	-42.5	19.8	0.00e+00	90	37	0	400556032	54	6808
2026-01-08 03:40:33.24	289.03	7.92	-41.2	-42.6	19.7	0.00e+00	91	37	0	402653184	54	6880
2026-01-08 03:40:34.25	289.20	7.92	-41.1	-42.5	19.8	0.00e+00	2	37	0	403701760	54	6814
2026-01-08 03:40:35.26	289.37	7.93	-41.1	-42.5	19.7	0.00e+00	92	37	0	405798912	54	6846
2026-01-08 03:40:36.27	289.54	7.93	-41.2	-42.6	19.8	0.00e+00	32	37	0	407896064	54	6860
2026-01-08 03:40:37.28	289.71	7.94	-41.3	-42.7	19.7	0.00e+00	92	37	0	409993216	54	6938
2026-01-08 03:40:38.29	289.88	7.94	-41.4	-42.9	19.5	0.00e+00	32	37	0	412090368	54	7138
2026-01-08 03:40:39.30	290.04	7.95	-41.6	-43.1	19.3	0.00e+00	92	37	0	413138944	54	7292
2026-01-08 03:40:40.31	290.21	7.95	-41.6	-43.1	19.3	0.00e+00	96	37	0	415236096	54	7334
2026-01-08 03:40:41.32	290.38	7.96	-41.7	-43.2	19.2	0.00e+00	56	37	0	417333248	54	7400
2026-01-08 03:40:42.33	290.55	7.96	-41.9	-43.4	19.1	0.00e+00	91	37	0	419430400	56	6765
2026-01-08 03:40:43.34	290.72	7.97	-41.9	-43.4	19.0	0.00e+00	7	37	0	421527552	56	6769
2026-01-08 03:40:44.35	290.89	7.97	-42.0	-43.6	19.0	0.00e+00	91	37	0	422576128	56	6899
2026-01-08 03:40:45.36	291.06	7.97	-41.9	-43.4	19.0	0.00e+00	68	37	0	424673280	56	6736
2026-01-08 03:40:46.37	291.22	7.98	-41.7	-43.2	19.2	0.00e+00	90	37	0	426770432	56	6605
2026-01-08 03:40:47.38	291.39	7.98	-41.7	-43.2	19.3	0.00e+00	91	37	0	428867584	56	6613
2026-01-08 03:40:48.39	291.56	7.98	-41.6	-43.1	19.3	0.00e+00	91	37	0	430964736	56	6529
2026-01-08 03:40:49.40	291.73	7.99	-41.5	-43.0	19.4	0.00e+00	92	37	0	432013312	56	6443
2026-01-08 03:40:50.40	291.90	7.99	-41.5	-42.9	19.5	0.00e+00	12	37	0	434110464	56	6378
2026-01-08 03:40:51.41	292.07	7.99	-41.3	-42.7	19.7	0.00e+00	91	37	0	436207616	56	6208
2026-01-08 03:40:52.42	292.24	7.99	-41.3	-42.8	19.9	0.00e+00	0	37	0	438304768	56	6260
2026-01-08 03:40:53.43	292.40	7.99	-41.3	-42.7	19.7	0.00e+00	92	37	0	440401920	56	6222
2026-01-08 03:40:54.44	292.57	8.00	-41.1	-42.4	20.1	0.00e+00	92	37	0	442499072	56	6029
2026-01-08 03:40:55.45	292.74	8.00	-41.1	-42.5	20.0	0.00e+00	92	37	0	443547648	56	6071
2026-01-08 03:40:56.46	292.91	8.00	-41.2	-42.6	19.9	0.00e+00	91	37	0	445644800	56	6109
2026-01-08 03:40:57.47	293.08	8.00	-40.9	-42.3	20.1	0.00e+00	7	37	0	447741952	56	5898
2026-01-08 03:40:58.48	293.25	8.00	-41.1	-42.4	20.1	0.00e+00	92	37	0	449839104	56	6008
2026-01-08 03:40:59.49	293.42	8.00	-41.1	-42.4	20.1	0.00e+00	0	37	0	451936256	56	6024
2026-01-08 03:41:00.50	293.59	8.00	-41.1	-42.4	19.9	0.00e+00	91	37	0	452984832	56	6015
2026-01-08 03:41:01.50	293.75	8.00	-41.1	-42.5	20.0	0.00e+00	0	37	0	455081984	56	6087
2026-01-08 03:41:02.52	293.93	8.00	-41.2	-42.5	20.0	0.00e+00	91	37	0	457179136	56	6093
2026-01-08 03:41:03.52	294.09	8.00	-41.2	-42.5	19.8	0.00e+00	92	37	0	459276288	56	6094
2026-01-08 03:41:04.53	294.26	8.00	-41.2	-42.5	20.0	0.00e+00	39	37	0	461373440	56	6097
2026-01-08 03:41:05.54	294.43	8.00	-41.0	-42.4	20.0	0.00e+00	92	37	0	462422016	56	6007
2026-01-08 03:41:06.55	294.60	8.00	-40.9	-42.2	20.0	0.00e+00	39	37	0	464519168	56	5879
2026-01-08 03:41:07.56	294.77	8.00	-40.8	-42.1	20.4	0.00e+00	91	37	0	466616320	54	6506
2026-01-08 03:41:08.57	294.94	8.00	-40.7	-42.0	20.2	0.00e+00	0	37	0	468713472	54	6442
2026-01-08 03:41:09.58	295.11	7.99	-40.6	-41.9	20.4	0.00e+00	92	37	0	470810624	54	6365
2026-01-08 03:41:10.59	295.27	7.99	-40.5	-41.8	20.6	0.00e+00	92	37	0	471859200	54	6263
2026-01-08 03:41:11.60	295.44	7.99	-40.6	-41.9	20.5	0.00e+00	90	37	0	473956352	54	6361
2026-01-08 03:41:12.61	295.61	7.99	-40.3	-41.5	20.8	0.00e+00	92	37	0	476053504	54	6097
2026-01-08 03:41:13.61	295.78	7.99	-40.3	-41.5	20.8	0.00e+00	13	37	0	478150656	54	6080
2026-01-08 03:41:14.63	295.95	7.98	-40.3	-41.5	20.8	0.00e+00	92	37	0	480247808	54	6076
2026-01-08 03:41:15.64	296.12	7.98	-40.2	-41.4	20.9	0.00e+00	0	37	0	481296384	54	5974
2026-01-08 03:41:16.65	296.29	7.98	-40.2	-41.4	20.9	0.00e+00	92	37	0	483393536	54	6019
2026-01-08 03:41:17.65	296.45	7.97	-40.1	-41.3	20.9	0.00e+00	92	37	0	485490688	54	5924
2026-01-08 03:41:18.66	296.62	7.97	-40.2	-41.4	20.8	0.00e+00	92	37	0	487587840	54	6024
2026-01-08 03:41:19.67	296.79	7.97	-40.3	-41.5	20.9	0.00e+00	92	37	0	489684992	54	6100
2026-01-08 03:41:20.68	296.96	7.96	-40.3	-41.5	20.7	0.00e+00	0	37	0	490733568	54	6049
2026-01-08 03:41:21.69	297.13	7.96	-40.4	-41.7	20.8	0.00e+00	92	37	0	492830720	54	6187
2026-01-08 03:41:22.70	297.30	7.95	-40.3	-41.5	20.8	0.00e+00	34	37	0	494927872	54	6092
2026-01-08 03:41:23.71	297.47	7.95	-40.1	-41.3	21.1	0.00e+00	92	37	0	497025024	54	5948
2026-01-08 03:41:24.72	297.63	7.95	-40.1	-41.3	21.1	0.00e+00	18	37	0	499122176	54	5899
2026-01-08 03:41:25.73	297.80	7.94	-40.0	-41.2	21.2	0.00e+00	92	37	0	500170752	54	5854
2026-01-08 03:41:26.74	297.97	7.94	-39.9	-41.1	21.3	0.00e+00	90	37	0	502267904	54	5791
2026-01-08 03:41:27.75	298.14	7.93	-39.7	-40.9	21.3	0.00e+00	43	37	0	504365056	54	5641
2026-01-08 03:41:28.76	298.31	7.92	-39.9	-41.0	21.2	0.00e+00	92	37	0	506462208	52	6440
2026-01-08 03:41:29.77	298.47	7.92	-39.8	-40.9	21.3	0.00e+00	0	37	0	508559360	52	6368
2026-01-08 03:41:30.78	298.64	7.91	-39.9	-41.1	21.2	0.00e+00	90	37	0	510656512	52	6480
2026-01-08 03:41:31.78	298.81	7.91	-39.9	-41.1	21.2	0.00e+00	0	37	0	511705088	52	6480
2026-01-08 03:41:32.80	298.98	7.90	-39.9	-41.1	21.2	0.00e+00	92	37	0	513802240	52	6477
2026-01-08 03:41:33.80	299.14	7.89	-39.9	-41.1	21.3	0.00e+00	92	37	0	515899392	52	6509
2026-01-08 03:41:34.82	299.31	7.89	-40.0	-41.2	21.2	0.00e+00	42	37	0	517996544	52	6588
2026-01-08 03:41:35.83	299.48	7.88	-40.0	-41.1	21.2	0.00e+00	92	37	0	520093696	52	6525
2026-01-08 03:41:36.84	299.65	7.87	-39.9	-41.1	21.3	0.00e+00	0	37	0	521142272	52	6466
2026-01-08 03:41:37.84	299.81	7.86	-39.8	-41.0	21.2	0.00e+00	92	37	0	523239424	52	6444
2026-01-08 03:41:38.85	299.98	7.86	-39.9	-41.1	21.3	0.00e+00	0	37	0	525336576	52	6497
2026-01-08 03:41:39.86	300.15	7.85	-39.8	-40.9	21.3	0.00e+00	92	37	0	527433728	52	6374
2026-01-08 03:41:40.87	300.32	7.84	-39.7	-40.8	21.4	0.00e+00	92	37	0	529530880	52	6281
2026-01-08 03:41:41.88	300.48	7.83	-39.6	-40.7	21.5	0.00e+00	39	37	0	530579456	52	6231
2026-01-08 03:41:42.89	300.65	7.82	-39.8	-41.0	21.3	0.00e+00	92	37	0	532676608	52	6427
2026-01-08 03:41:43.90	300.82	7.82	-39.8	-41.0	21.4	0.00e+00	38	37	0	534773760	52	6411
2026-01-08 03:41:44.92	300.98	7.81	-39.6	-40.7	21.5	0.00e+00	92	37	0	536870912	52	6244
2026-01-08 03:41:45.93	301.15	7.80	-39.7	-40.8	21.5	0.00e+00	38	37	0	538968064	52	6296
2026-01-08 03:41:46.93	301.32	7.79	-39.6	-40.7	21.6	0.00e+00	95	37	0	540016640	52	6231
2026-01-08 03:41:47.94	301.48	7.78	-39.6	-40.7	21.6	0.00e+00	3	37	0	542113792	52	6223
2026-01-08 03:41:48.95	301.65	7.77	-39.7	-40.9	21.4	0.00e+00	92	37	0	544210944	52	6327
2026-01-08 03:41:49.96	301.81	7.76	-39.9	-41.0	21.4	0.00e+00	92	37	0	546308096	52	6449
2026-01-08 03:41:50.98	301.98	7.75	-39.8	-41.0	21.3	0.00e+00	42	37	0	548405248	52	6420
2026-01-08 03:41:51.98	302.15	7.74	-39.9	-41.1	21.2	0.00e+00	92	37	0	549453824	52	6467
2026-01-08 03:41:52.99	302.31	7.73	-39.9	-41.1	21.2	0.00e+00	2	37	0	551550976	52	6480
2026-01-08 03:41:54.00	302.48	7.72	-39.9	-41.0	21.2	0.00e+00	92	37	0	553648128	52	6453
2026-01-08 03:41:55.01	302.64	7.71	-39.8	-41.0	21.3	0.00e+00	0	37	0	555745280	52	6432
2026-01-08 03:41:56.02	302.81	7.70	-39.8	-41.0	21.3	0.00e+00	0	37	0	557842432	52	6391
2026-01-08 03:41:57.03	302.97	7.68	-39.7	-40.8	21.4	0.00e+00	90	37	0	558891008	52	6310
2026-01-08 03:41:58.04	303.14	7.67	-39.7	-40.9	21.4	0.00e+00	0	37	0	560988160	52	6339
2026-01-08 03:41:59.05	303.31	7.66	-39.8	-40.9	21.4	0.00e+00	92	37	0	563085312	52	6364
2026-01-08 03:42:00.06	303.47	7.65	-39.9	-41.1	21.3	0.00e+00	0	37	0	565182464	52	6482
2026-01-08 03:42:01.07	303.63	7.64	-39.8	-40.9	21.4	0.00e+00	90	37	0	567279616	52	6353
2026-01-08 03:42:02.08	303.80	7.63	-39.7	-40.9	21.4	0.00e+00	0	37	0	568328192	52	6343
2026-01-08 03:42:03.09	303.96	7.61	-39.7	-40.9	21.3	0.00e+00	0	37	0	570425344	52	6351
2026-01-08 03:42:04.10	304.13	7.60	-39.9	-41.1	21.1	0.00e+00	2	37	0	572522496	52	6468
2026-01-08 03:42:05.11	304.29	7.59	-39.9	-41.1	21.1	0.00e+00	0	37	0	574619648	52	6511
2026-01-08 03:42:06.12	304.46	7.57	-39.9	-41.1	21.2	0.00e+00	92	37	0	576716800	52	6466
2026-01-08 03:42:07.13	304.62	7.56	-40.0	-41.2	21.1	0.00e+00	43	37	0	578813952	52	6553
2026-01-08 03:42:08.14	304.78	7.55	-39.9	-41.1	21.2	0.00e+00	90	37	0	579862528	52	6475
2026-01-08 03:42:09.15	304.95	7.53	-40.0	-41.1	21.2	0.00e+00	44	37	0	581959680	52	6524
2026-01-08 03:42:10.16	305.11	7.52	-40.0	-41.2	21.0	0.00e+00	92	37	0	584056832	52	6607
2026-01-08 03:42:11.17	305.28	7.51	-39.9	-41.1	21.2	0.00e+00	39	37	0	586153984	52	6494
2026-01-08 03:42:12.18	305.44	7.49	-40.0	-41.2	21.1	0.00e+00	2	37	0	588251136	52	6553
2026-01-08 03:42:13.19	305.60	7.48	-40.0	-41.2	21.1	0.00e+00	92	37	0	589299712	52	6559
2026-01-08 03:42:14.20	305.76	7.46	-40.1	-41.3	20.9	0.00e+00	42	37	0	591396864	52	6639
2026-01-08 03:42:15.21	305.93	7.45	-40.0	-41.2	21.0	0.00e+00	92	37	0	593494016	52	6556
2026-01-08 03:42:16.22	306.09	7.43	-40.0	-41.2	20.9	0.00e+00	0	37	0	595591168	52	6569
2026-01-08 03:42:17.23	306.25	7.42	-40.0	-41.3	20.9	0.00e+00	92	37	0	597688320	52	6621
2026-01-08 03:42:18.23	306.41	7.40	-40.0	-41.2	21.1	0.00e+00	0	37	0	598736896	52	6561
2026-01-08 03:42:19.24	306.58	7.39	-39.8	-41.0	21.0	0.00e+00	0	37	0	600834048	52	6438
2026-01-08 03:42:20.25	306.74	7.37	-39.9	-41.0	21.1	0.00e+00	92	37	0	602931200	52	6448
2026-01-08 03:42:21.26	306.90	7.36	-39.8	-40.9	21.3	0.00e+00	0	37	0	605028352	52	6351
2026-01-08 03:42:22.27	307.06	7.34	-39.8	-40.9	21.3	0.00e+00	92	37	0	607125504	52	6372
2026-01-08 03:42:23.28	307.22	7.32	-39.8	-41.0	21.3	0.00e+00	0	37	0	608174080	52	6403
2026-01-08 03:42:24.29	307.38	7.31	-39.6	-40.8	21.5	0.00e+00	92	37	0	610271232	52	6258
2026-01-08 03:42:25.30	307.54	7.29	-39.6	-40.8	21.5	0.00e+00	0	37	0	612368384	52	6257
2026-01-08 03:42:26.31	307.70	7.27	-39.8	-40.9	21.4	0.00e+00	2	37	0	614465536	52	6369
2026-01-08 03:42:27.32	307.87	7.26	-40.0	-41.2	21.3	0.00e+00	38	37	0	616562688	52	6595
2026-01-08 03:42:28.33	308.03	7.24	-39.9	-41.1	21.1	0.00e+00	44	37	0	617611264	52	6511
2026-01-08 03:42:29.34	308.19	7.22	-40.1	-41.3	21.1	0.00e+00	92	37	0	619708416	52	6621
2026-01-08 03:42:30.35	308.35	7.21	-40.1	-41.3	20.9	0.00e+00	45	37	0	621805568	52	6672
2026-01-08 03:42:31.35	308.50	7.19	-40.1	-41.3	20.9	0.00e+00	92	37	0	623902720	52	6666
2026-01-08 03:42:32.36	308.66	7.17	-40.3	-41.6	20.9	0.00e+00	37	37	0	625999872	52	6860
2026-01-08 03:42:33.37	308.82	7.15	-40.2	-41.4	20.8	0.00e+00	92	37	0	627048448	52	6736
2026-01-08 03:42:34.38	308.98	7.13	-40.2	-41.5	20.8	0.00e+00	24	37	0	629145600	52	6785
2026-01-08 03:42:35.39	309.14	7.12	-40.2	-41.5	20.9	0.00e+00	5	37	0	631242752	52	6783
2026-01-08 03:42:36.40	309.30	7.10	-40.2	-41.4	20.8	0.00e+00	92	37	0	633339904	52	6718
2026-01-08 03:42:37.40	309.46	7.08	-40.1	-41.3	21.0	0.00e+00	6	37	0	635437056	52	6621
2026-01-08 03:42:38.41	309.62	7.06	-40.0	-41.1	21.0	0.00e+00	92	37	0	636485632	52	6537
2026-01-08 03:42:39.42	309.78	7.04	-39.8	-41.0	21.2	0.00e+00	5	37	0	638582784	52	6443
2026-01-08 03:42:40.43	309.93	7.02	-40.0	-41.2	21.1	0.00e+00	92	37	0	640679936	52	6555
2026-01-08 03:42:41.44	310.09	7.00	-39.8	-41.0	21.2	0.00e+00	0	37	0	642777088	52	6404
2026-01-08 03:42:42.45	310.25	6.98	-39.7	-40.8	21.5	0.00e+00	0	37	0	644874240	52	6288
2026-01-08 03:42:43.46	310.41	6.96	-39.5	-40.7	21.5	0.00e+00	92	37	0	645922816	52	6178
2026-01-08 03:42:44.47	310.56	6.94	-39.6	-40.7	21.5	0.00e+00	36	37	0	648019968	52	6205
2026-01-08 03:42:45.48	310.72	6.92	-39.5	-40.7	21.5	0.00e+00	92	37	0	650117120	52	6194
2026-01-08 03:42:46.48	310.88	6.90	-39.4	-40.5	21.6	0.00e+00	36	37	0	652214272	52	6073
2026-01-08 03:42:47.49	311.03	6.88	-39.5	-40.6	21.5	0.00e+00	92	37	0	654311424	52	6161
2026-01-08 03:42:48.50	311.19	6.86	-39.4	-40.5	21.7	0.00e+00	37	37	0	655360000	52	6053
2026-01-08 03:42:49.51	311.35	6.84	-39.3	-40.4	21.7	0.00e+00	84	37	0	657457152	52	6018
2026-01-08 03:42:50.52	311.50	6.82	-39.3	-40.4	21.6	0.00e+00	43	37	0	659554304	52	6030
2026-01-08 03:42:51.53	311.66	6.80	-39.4	-40.5	21.8	0.00e+00	34	37	0	661651456	52	6058
2026-01-08 03:42:52.54	311.81	6.78	-39.2	-40.3	21.8	0.00e+00	91	37	0	663748608	52	5947
2026-01-08 03:42:53.55	311.97	6.76	-39.2	-40.2	21.9	0.00e+00	37	37	0	664797184	52	5893
2026-01-08 03:42:54.56	312.13	6.74	-39.3	-40.4	21.7	0.00e+00	91	37	0	666894336	52	5997
2026-01-08 03:42:55.57	312.28	6.72	-39.3	-40.4	21.7	0.00e+00	5	37	0	668991488	52	6007
2026-01-08 03:42:56.58	312.43	6.69	-39.4	-40.5	21.6	0.00e+00	92	37	0	671088640	52	6085
2026-01-08 03:42:57.59	312.59	6.67	-39.5	-40.7	21.5	0.00e+00	0	37	0	673185792	52	6189
2026-01-08 03:42:58.60	312.74	6.65	-39.6	-40.8	21.3	0.00e+00	49	37	0	675282944	52	6267
2026-01-08 03:42:59.61	312.90	6.63	-39.7	-40.9	21.2	0.00e+00	92	37	0	676331520	52	6352
2026-01-08 03:43:00.62	313.05	6.60	-39.7	-40.8	21.3	0.00e+00	6	37	0	678428672	52	6292
2026-01-08 03:43:01.62	313.20	6.58	-39.7	-40.9	21.3	0.00e+00	90	37	0	680525824	52	6365
2026-01-08 03:43:02.63	313.36	6.56	-39.7	-40.8	21.3	0.00e+00	0	37	0	682622976	52	6312
2026-01-08 03:43:03.64	313.51	6.54	-39.8	-41.0	21.2	0.00e+00	92	37	0	684720128	52	6420
2026-01-08 03:43:04.65	313.66	6.51	-39.8	-41.0	21.1	0.00e+00	0	37	0	685768704	52	6450
2026-01-08 03:43:05.66	313.82	6.49	-39.6	-40.8	21.4	0.00e+00	18	37	0	687865856	52	6286
2026-01-08 03:43:06.67	313.97	6.47	-39.8	-41.0	21.2	0.00e+00	92	37	0	689963008	52	6443
2026-01-08 03:43:07.68	314.12	6.44	-39.7	-40.9	21.2	0.00e+00	0	37	0	692060160	52	6343
2026-01-08 03:43:08.69	314.27	6.42	-39.8	-41.0	21.2	0.00e+00	92	37	0	694157312	52	6433
2026-01-08 03:43:09.70	314.42	6.40	-39.8	-41.0	21.2	0.00e+00	37	37	0	695205888	52	6411
2026-01-08 03:43:10.71	314.58	6.37	-39.7	-40.8	21.3	0.00e+00	92	37	0	697303040	52	6296
2026-01-08 03:43:11.72	314.73	6.35	-39.5	-40.7	21.3	0.00e+00	37	37	0	699400192	52	6202
2026-01-08 03:43:12.73	314.88	6.32	-39.5	-40.6	21.5	0.00e+00	92	37	0	701497344	52	6127
2026-01-08 03:43:13.74	315.03	6.30	-39.5	-40.6	21.5	0.00e+00	37	37	0	703594496	52	6130
2026-01-08 03:43:14.75	315.18	6.28	-39.4	-40.6	21.5	0.00e+00	38	37	0	704643072	52	6112
2026-01-08 03:43:15.76	315.33	6.25	-39.4	-40.5	21.6	0.00e+00	91	37	0	706740224	52	6059
2026-01-08 03:43:16.77	315.48	6.23	-39.2	-40.3	21.8	0.00e+00	2	37	0	708837376	52	5911
2026-01-08 03:43:17.78	315.63	6.20	-39.3	-40.4	21.7	0.00e+00	90	37	0	710934528	52	6007
2026-01-08 03:43:18.78	315.78	6.18	-39.4	-40.5	21.5	0.00e+00	2	37	0	713031680	52	6086
2026-01-08 03:43:19.79	315.93	6.15	-39.5	-40.7	21.3	0.00e+00	92	37	0	714080256	52	6184
2026-01-08 03:43:20.80	316.08	6.13	-39.7	-40.8	21.4	0.00e+00	50	37	0	716177408	52	6307
2026-01-08 03:43:21.81	316.22	6.10	-39.8	-41.0	21.1	0.00e+00	44	37	0	718274560	52	6429
2026-01-08 03:43:22.82	316.37	6.08	-40.1	-41.3	20.8	0.00e+00	92	37	0	720371712	52	6667
2026-01-08 03:43:23.83	316.52	6.05	-40.2	-41.5	20.7	1.50e-06	2	37	0	722468864	52	6774
2026-01-08 03:43:24.84	316.67	6.02	-40.2	-41.5	20.6	0.00e+00	92	37	0	723517440	52	6804
2026-01-08 03:43:25.85	316.82	6.00	-40.3	-41.6	20.6	0.00e+00	0	37	0	725614592	52	6878
2026-01-08 03:43:26.86	316.96	5.97	-40.5	-41.8	20.3	7.00e-07	92	37	0	727711744	52	7030
2026-01-08 03:43:27.87	317.11	5.95	-40.6	-41.9	20.2	0.00e+00	0	37	0	729808896	52	7150
2026-01-08 03:43:28.88	317.26	5.92	-40.5	-41.9	20.3	0.00e+00	36	37	0	731906048	52	7091
2026-01-08 03:43:29.89	317.41	5.89	-40.4	-41.7	20.4	0.00e+00	92	37	0	732954624	52	6976
2026-01-08 03:43:30.90	317.55	5.87	-40.4	-41.7	20.4	0.00e+00	4	37	0	735051776	52	6952
2026-01-08 03:43:31.91	317.70	5.84	-40.3	-41.5	20.6	0.00e+00	92	37	0	737148928	52	6847
2026-01-08 03:43:32.92	317.84	5.81	-40.1	-41.3	20.8	0.00e+00	0	37	0	739246080	52	6691
2026-01-08 03:43:33.93	317.99	5.79	-40.2	-41.4	20.6	0.00e+00	36	37	0	741343232	52	6743
2026-01-08 03:43:34.94	318.14	5.76	-40.1	-41.3	20.7	0.00e+00	46	37	0	743440384	52	6659
2026-01-08 03:43:35.94	318.28	5.73	-40.1	-41.3	20.8	0.00e+00	36	37	0	744488960	52	6652
2026-01-08 03:43:36.95	318.42	5.70	-40.1	-41.3	20.8	0.00e+00	19	37	0	746586112	52	6657
2026-01-08 03:43:37.96	318.57	5.68	-40.0	-41.3	20.7	0.00e+00	46	37	0	748683264	52	6628
2026-01-08 03:43:38.97	318.71	5.65	-40.1	-41.4	20.6	0.00e+00	92	37	0	750780416	52	6716
2026-01-08 03:43:39.97	318.86	5.62	-40.2	-41.4	20.6	0.00e+00	2	37	0	752877568	52	6765
2026-01-08 03:43:40.98	319.00	5.59	-40.3	-41.6	20.5	0.00e+00	92	37	0	753926144	52	6868
2026-01-08 03:43:41.99	319.14	5.57	-40.2	-41.5	20.6	0.00e+00	46	37	0	756023296	52	6798
2026-01-08 03:43:43.00	319.29	5.54	-40.2	-41.5	20.5	0.00e+00	2	37	0	758120448	52	6824
2026-01-08 03:43:44.01	319.43	5.51	-40.4	-41.7	20.2	0.00e+00	0	37	0	760217600	52	6943
2026-01-08 03:43:45.02	319.57	5.48	-40.4	-41.8	20.2	0.00e+00	2	37	0	762314752	52	7008
2026-01-08 03:43:46.03	319.71	5.45	-40.6	-41.9	20.0	0.00e+00	92	37	0	763363328	52	7164
2026-01-08 03:43:47.04	319.86	5.43	-40.8	-42.2	20.0	0.00e+00	0	37	0	765460480	54	6586
2026-01-08 03:43:48.05	320.00	5.40	-41.1	-42.5	19.4	0.00e+00	92	37	0	767557632	54	6836
2026-01-08 03:43:49.06	320.14	5.37	-41.2	-42.7	19.3	0.00e+00	0	37	0	769654784	54	6985
2026-01-08 03:43:50.07	320.28	5.34	-41.4	-43.0	19.0	0.00e+00	0	37	0	771751936	54	7181
2026-01-08 03:43:51.08	320.42	5.31	-41.8	-43.4	18.8	0.00e+00	0	37	0	772800512	54	7595
2026-01-08 03:43:52.09	320.56	5.28	-42.0	-43.7	18.3	0.00e+00	38	37	0	774897664	56	6963
2026-01-08 03:43:53.09	320.70	5.25	-42.1	-43.8	18.2	0.00e+00	92	37	0	776994816	56	7056
2026-01-08 03:43:54.10	320.84	5.22	-42.3	-44.1	18.2	0.00e+00	0	37	0	779091968	56	7286
2026-01-08 03:43:55.11	320.98	5.19	-42.2	-44.0	18.3	0.00e+00	92	37	0	781189120	56	7186
2026-01-08 03:43:56.12	321.12	5.16	-42.2	-43.9	18.1	0.00e+00	37	37	0	782237696	56	7139
2026-01-08 03:43:57.13	321.26	5.13	-42.1	-43.8	18.2	0.00e+00	36	37	0	784334848	56	7085
2026-01-08 03:43:58.14	321.40	5.10	-42.0	-43.7	18.5	0.00e+00	46	37	0	786432000	56	7005
2026-01-08 03:43:59.15	321.54	5.07	-42.1	-43.8	18.2	0.00e+00	44	37	0	788529152	56	7088
2026-01-08 03:44:00.16	321.68	5.04	-41.9	-43.6	18.4	0.00e+00	2	37	0	790626304	56	6870
2026-01-08 03:44:01.17	321.82	5.01	-41.9	-43.5	18.5	0.00e+00	45	37	0	791674880	56	6835
2026-01-08 03:44:02.18	321.96	4.98	-41.9	-43.6	18.6	0.00e+00	92	37	0	793772032	56	6859
2026-01-08 03:44:03.18	322.09	4.95	-41.8	-43.4	18.7	0.00e+00	2	37	0	795869184	56	6747
2026-01-08 03:44:04.20	322.23	4.92	-41.6	-43.2	18.8	0.00e+00	92	37	0	797966336	56	6611
2026-01-08 03:44:05.20	322.37	4.89	-41.5	-43.1	19.1	0.00e+00	44	37	0	800063488	56	6506
2026-01-08 03:44:06.22	322.51	4.86	-41.5	-43.1	19.1	0.00e+00	0	37	0	801112064	56	6470
2026-01-08 03:44:07.23	322.64	4.83	-41.4	-42.9	19.1	0.00e+00	0	37	0	803209216	56	6345
2026-01-08 03:44:08.24	322.78	4.80	-41.4	-43.0	19.2	0.00e+00	0	37	0	805306368	56	6421
2026-01-08 03:44:09.25	322.92	4.77	-41.4	-43.0	19.2	0.00e+00	92	37	0	807403520	56	6399
2026-01-08 03:44:10.26	323.05	4.74	-41.4	-42.9	19.0	0.00e+00	0	37	0	809500672	56	6383
2026-01-08 03:44:11.26	323.19	4.71	-41.6	-43.2	18.8	0.00e+00	66	37	0	810549248	56	6603
2026-01-08 03:44:12.27	323.32	4.68	-41.7	-43.3	18.5	0.00e+00	0	37	0	812646400	56	6656
2026-01-08 03:44:13.28	323.46	4.65	-41.9	-43.6	18.5	0.00e+00	0	37	0	814743552	56	6896
2026-01-08 03:44:14.29	323.59	4.62	-42.3	-44.1	18.0	0.00e+00	0	37	0	816840704	56	7279
2026-01-08 03:44:15.30	323.73	4.58	-42.4	-44.2	17.5	0.00e+00	0	37	0	818937856	56	7397
2026-01-08 03:44:16.31	323.86	4.55	-43.0	-45.2	17.0	0.00e+00	92	37	0	819986432	58	7340
2026-01-08 03:44:17.32	323.99	4.52	-43.1	-45.2	16.6	0.00e+00	48	37	0	822083584	58	7405
2026-01-08 03:44:18.33	324.13	4.49	-43.0	-45.2	16.9	0.00e+00	92	37	0	824180736	58	7356
2026-01-08 03:44:19.34	324.26	4.46	-43.2	-45.5	16.3	0.00e+00	0	37	0	826277888	58	7611
2026-01-08 03:44:20.35	324.40	4.43	-43.2	-45.5	16.6	0.00e+00	35	37	0	828375040	58	7615
2026-01-08 03:44:21.36	324.53	4.39	-43.3	-45.6	16.5	0.00e+00	45	37	0	829423616	58	7688
2026-01-08 03:44:22.37	324.66	4.36	-43.2	-45.4	16.3	0.00e+00	47	37	0	831520768	58	7523
2026-01-08 03:44:23.38	324.79	4.33	-43.3	-45.5	16.7	0.00e+00	16	37	0	833617920	58	7614
2026-01-08 03:44:24.39	324.92	4.30	-43.2	-45.4	16.5	0.00e+00	7	37	0	835715072	58	7546
2026-01-08 03:44:25.40	325.06	4.27	-43.2	-45.4	16.5	0.00e+00	92	37	0	837812224	58	7563
2026-01-08 03:44:26.41	325.19	4.23	-43.3	-45.5	16.5	0.00e+00	6	37	0	839909376	58	7671
2026-01-08 03:44:27.42	325.32	4.20	-43.1	-45.3	16.6	0.00e+00	5	37	0	840957952	58	7504
2026-01-08 03:44:28.43	325.45	4.17	-43.1	-45.4	16.3	0.00e+00	7	37	0	843055104	58	7511
2026-01-08 03:44:29.44	325.58	4.14	-43.1	-45.3	16.5	0.00e+00	0	37	0	845152256	58	7460
2026-01-08 03:44:30.44	325.71	4.10	-43.1	-45.3	16.4	0.00e+00	0	37	0	847249408	58	7445
2026-01-08 03:44:31.45	325.84	4.07	-42.8	-44.9	17.0	0.00e+00	5	37	0	849346560	58	7129
2026-01-08 03:44:32.46	325.97	4.04	-42.7	-44.7	17.1	0.00e+00	91	37	0	850395136	58	6971
2026-01-08 03:44:33.47	326.10	4.01	-42.7	-44.7	17.2	0.00e+00	6	38	0	852492288	58	6998
2026-01-08 03:44:34.48	326.23	3.97	-42.5	-44.5	17.2	0.00e+00	68	37	0	854589440	58	6820
2026-01-08 03:44:35.49	326.36	3.94	-42.4	-44.3	17.3	0.00e+00	0	37	0	856686592	58	6648
2026-01-08 03:44:36.50	326.49	3.91	-42.5	-44.5	17.3	0.00e+00	33	37	0	858783744	58	6824
2026-01-08 03:44:37.51	326.62	3.87	-42.4	-44.3	17.5	0.00e+00	0	37	0	859832320	58	6655
2026-01-08 03:44:38.52	326.74	3.84	-42.3	-44.3	17.3	0.00e+00	34	37	0	861929472	58	6629
2026-01-08 03:44:39.52	326.87	3.81	-42.3	-44.2	17.3	0.00e+00	90	37	0	864026624	58	6613
2026-01-08 03:44:40.53	327.00	3.77	-42.5	-44.5	17.2	0.00e+00	51	37	0	866123776	58	6809
2026-01-08 03:44:41.55	327.13	3.74	-42.7	-44.8	17.2	0.00e+00	92	37	0	868220928	58	7054
2026-01-08 03:44:42.55	327.25	3.71	-42.5	-44.5	17.3	0.00e+00	54	37	0	869269504	58	6798
2026-01-08 03:44:43.56	327.38	3.67	-42.6	-44.6	17.2	0.00e+00	53	37	0	871366656	58	6909
2026-01-08 03:44:44.57	327.50	3.64	-42.3	-44.3	17.4	0.00e+00	4	37	0	873463808	58	6640
2026-01-08 03:44:45.58	327.63	3.61	-42.2	-44.1	17.6	0.00e+00	7	37	0	875560960	58	6513
2026-01-08 03:44:46.59	327.76	3.57	-42.3	-44.2	17.4	0.00e+00	17	37	0	877658112	58	6611
2026-01-08 03:44:47.60	327.88	3.54	-42.2	-44.1	17.4	0.00e+00	7	37	0	878706688	58	6517
2026-01-08 03:44:48.61	328.01	3.50	-42.1	-44.1	17.7	0.00e+00	92	37	0	880803840	58	6470
2026-01-08 03:44:49.62	328.13	3.47	-42.1	-44.0	17.6	0.00e+00	7	37	0	882900992	58	6427
2026-01-08 03:44:50.63	328.26	3.44	-42.1	-44.1	17.5	0.00e+00	0	37	0	884998144	58	6499
2026-01-08 03:44:51.64	328.38	3.40	-42.1	-44.1	17.3	0.00e+00	0	37	0	887095296	58	6475
2026-01-08 03:44:52.65	328.51	3.37	-42.1	-44.1	17.3	0.00e+00	0	37	0	888143872	58	6474
2026-01-08 03:44:53.66	328.63	3.33	-42.3	-44.4	16.8	0.00e+00	0	37	0	890241024	58	6752
2026-01-08 03:44:54.67	328.75	3.30	-42.7	-45.0	16.5	0.00e+00	0	37	0	892338176	58	7182
2026-01-08 03:44:55.68	328.88	3.26	-42.7	-45.1	16.0	0.00e+00	90	37	0	894435328	58	7318
2026-01-08 03:44:56.68	329.00	3.23	-42.9	-45.5	15.5	0.00e+00	35	37	0	896532480	58	7627
2026-01-08 03:44:57.69	329.12	3.20	-43.2	-45.8	15.2	0.00e+00	92	37	0	897581056	58	7953
2026-01-08 03:44:58.70	329.25	3.16	-43.3	-46.2	14.6	0.00e+00	0	37	0	899678208	58	8290
2026-01-08 03:44:59.71	329.37	3.13	-43.4	-46.4	14.2	0.00e+00	35	37	0	901775360	58	8519
2026-01-08 03:45:00.72	329.49	3.09	-43.4	-46.7	13.7	6.80e-06	34	37	0	903872512	58	8741
2026-01-08 03:45:01.73	329.61	3.06	-43.4	-46.9	13.0	1.22e-05	36	37	0	905969664	58	8969
2026-01-08 03:45:02.74	329.73	3.02	-43.4	-46.8	13.2	2.44e-05	38	37	0	908066816	58	8906
2026-01-08 03:45:03.75	329.85	2.99	-47.7	-62.8	3.6	4.52e-01	0	37	104	909115392	60	50039
2026-01-08 03:45:04.77	329.98	2.95	-48.3	-63.5	3.6	1.51e+00	0	37	104	909115392	60	53809
2026-01-08 03:45:05.78	330.10	2.92	-48.6	-63.8	3.6	1.51e+00	0	37	104	909115392	60	55679
2026-01-08 03:45:06.78	330.22	2.88	-48.8	-64.0	3.6	1.51e+00	0	37	104	909115392	60	57005
2026-01-08 03:45:07.80	330.34	2.85	-48.9	-64.1	3.6	1.51e+00	0	38	104	909115392	60	57890
2026-01-08 03:45:08.80	330.46	2.81	-49.0	-64.2	3.6	1.51e+00	0	37	104	909115392	60	58612
2026-01-08 03:45:09.81	330.58	2.78	-49.0	-64.2	3.6	1.51e+00	0	37	104	909115392	60	58869
2026-01-08 03:45:10.82	330.69	2.74	-49.1	-64.2	3.6	1.51e+00	0	37	104	909115392	60	58938
2026-01-08 03:45:11.83	330.81	2.71	-49.1	-64.2	3.6	1.51e+00	0	37	104	909115392	60	58654
2026-01-08 03:45:12.84	330.93	2.67	-49.0	-64.3	3.6	1.51e+00	0	37	104	909115392	60	59037
2026-01-08 03:45:13.85	331.05	2.64	-49.0	-64.2	3.6	1.51e+00	0	37	104	909115392	60	58732
2026-01-08 03:45:14.87	331.17	2.60	-49.0	-64.2	3.6	1.51e+00	0	37	104	909115392	60	58595
2026-01-08 03:45:15.88	331.29	2.56	-49.1	-64.3	3.6	1.51e+00	0	38	104	909115392	60	59185
2026-01-08 03:45:16.89	331.41	2.53	-49.0	-64.2	3.6	1.51e+00	0	37	104	909115392	60	58745
2026-01-08 03:45:17.90	331.52	2.49	-48.9	-64.2	3.6	1.51e+00	0	37	104	909115392	60	58871
2026-01-08 03:45:18.91	331.64	2.46	-49.0	-64.2	3.6	1.51e+00	0	37	104	909115392	60	58458
2026-01-08 03:45:19.91	331.76	2.42	-49.2	-64.4	3.6	1.51e+00	0	37	104	909115392	60	60045
2026-01-08 03:45:20.93	331.87	2.39	-49.0	-64.2	3.6	1.51e+00	0	37	104	909115392	60	58798
2026-01-08 03:45:21.93	331.99	2.35	-49.0	-64.2	3.6	1.51e+00	0	37	104	909115392	60	58731
2026-01-08 03:45:22.95	332.11	2.31	-49.0	-64.2	3.6	1.51e+00	0	37	104	909115392	60	58774
2026-01-08 03:45:23.96	332.22	2.28	-49.0	-64.2	3.6	1.51e+00	0	37	104	909115392	60	58618
2026-01-08 03:45:24.96	332.34	2.24	-49.0	-64.1	3.6	1.51e+00	0	37	104	909115392	60	58198
2026-01-08 03:45:25.98	332.45	2.21	-49.0	-64.2	3.6	1.51e+00	0	37	104	909115392	60	58445
2026-01-08 03:45:26.99	332.57	2.17	-49.0	-64.2	3.6	1.51e+00	0	37	104	909115392	60	58653
2026-01-08 03:45:28.00	332.68	2.13	-49.0	-64.2	3.6	1.51e+00	0	37	104	909115392	60	58940
2026-01-08 03:45:29.01	332.80	2.10	-49.0	-64.2	3.6	1.51e+00	0	37	104	909115392	60	58467
2026-01-08 03:45:30.02	332.91	2.06	-49.0	-64.2	3.6	1.51e+00	0	37	104	909115392	60	58510
2026-01-08 03:45:31.03	333.02	2.03	-49.0	-64.2	3.6	1.51e+00	0	37	104	909115392	60	58611
2026-01-08 03:45:32.03	333.14	1.99	-49.0	-64.2	3.6	1.51e+00	0	37	104	909115392	60	58553
2026-01-08 03:45:33.05	333.25	1.95	-49.0	-64.2	3.6	1.51e+00	0	37	104	909115392	60	58843
2026-01-08 03:45:34.05	333.36	1.92	-49.0	-64.2	3.6	1.51e+00	0	37	104	909115392	60	58471
2026-01-08 03:45:35.06	333.48	1.88	-49.0	-64.1	3.6	1.51e+00	0	37	104	909115392	60	58256
2026-01-08 03:45:36.07	333.59	1.84	-49.0	-64.2	3.6	1.51e+00	0	37	104	909115392	60	58359
2026-01-08 03:45:37.08	333.70	1.81	-49.0	-64.2	3.6	1.51e+00	0	37	104	909115392	60	58295
2026-01-08 03:45:38.09	333.81	1.77	-49.0	-64.2	3.6	1.51e+00	0	37	104	909115392	60	58392
2026-01-08 03:45:39.10	333.93	1.73	-49.0	-64.2	3.6	1.51e+00	0	37	104	909115392	60	58603
2026-01-08 03:45:40.11	334.04	1.70	-49.0	-64.2	3.6	1.51e+00	0	37	104	909115392	60	58379
2026-01-08 03:45:41.12	334.15	1.66	-48.9	-64.2	3.6	1.51e+00	0	37	104	909115392	60	58509
2026-01-08 03:45:42.13	334.26	1.62	-48.9	-64.1	3.6	1.51e+00	0	37	104	909115392	60	58248
2026-01-08 03:45:43.14	334.37	1.59	-49.0	-64.1	3.6	1.51e+00	0	37	104	909115392	60	58237
2026-01-08 03:45:44.15	334.48	1.55	-48.9	-64.1	3.6	1.51e+00	0	37	104	909115392	60	58165
2026-01-08 03:45:45.16	334.59	1.51	-48.9	-64.1	3.6	1.51e+00	0	37	104	909115392	60	58216
2026-01-08 03:45:46.17	334.70	1.48	-49.0	-64.2	3.6	1.51e+00	0	37	104	909115392	60	58437
2026-01-08 03:45:47.18	334.81	1.44	-48.9	-64.2	3.6	1.51e+00	0	37	104	909115392	60	58348
2026-01-08 03:45:48.19	334.92	1.40	-48.9	-64.1	3.6	1.51e+00	0	37	104	909115392	60	58185
2026-01-08 03:45:49.20	335.03	1.37	-48.9	-64.1	3.6	1.51e+00	0	37	104	909115392	60	58261
2026-01-08 03:45:50.21	335.14	1.33	-48.9	-64.2	3.6	1.51e+00	0	37	104	909115392	60	58294
2026-01-08 03:45:51.22	335.25	1.29	-48.9	-64.1	3.6	1.51e+00	0	37	104	909115392	60	58075
2026-01-08 03:45:52.23	335.35	1.26	-48.9	-64.1	3.6	1.51e+00	0	37	104	909115392	60	58199
2026-01-08 03:45:53.24	335.46	1.22	-48.9	-64.1	3.6	1.51e+00	0	37	104	909115392	60	58136
2026-01-08 03:45:54.25	335.57	1.18	-48.9	-64.1	3.6	1.51e+00	0	37	104	909115392	60	58118
2026-01-08 03:45:55.26	335.68	1.14	-48.9	-64.1	3.6	1.51e+00	0	37	104	909115392	60	58170
2026-01-08 03:45:56.27	335.79	1.11	-48.9	-64.1	3.6	1.51e+00	0	37	104	909115392	60	58021
2026-01-08 03:45:57.28	335.89	1.07	-48.9	-64.2	3.6	1.51e+00	0	37	104	909115392	60	58290
2026-01-08 03:45:58.29	336.00	1.03	-48.9	-64.1	3.6	1.51e+00	0	37	104	909115392	60	58079
2026-01-08 03:45:59.30	336.11	1.00	-48.9	-64.2	3.6	1.51e+00	0	37	104	909115392	60	58424
2026-01-08 03:46:00.31	336.21	0.96	-48.9	-64.1	3.6	1.51e+00	0	37	104	909115392	60	58011
2026-01-08 03:46:01.32	336.32	0.92	-48.9	-64.1	3.6	1.51e+00	0	37	104	909115392	60	58243
2026-01-08 03:46:02.33	336.42	0.88	-48.9	-64.1	3.6	1.51e+00	0	37	104	909115392	60	58132
2026-01-08 03:46:03.33	336.53	0.85	-48.9	-64.1	3.6	1.51e+00	0	37	104	909115392	60	58117
2026-01-08 03:46:04.34	336.63	0.81	-48.9	-64.1	3.6	1.51e+00	0	37	104	909115392	60	58254
2026-01-08 03:46:05.35	336.74	0.77	-48.9	-64.1	3.6	1.51e+00	0	37	104	909115392	60	57926
2026-01-08 03:46:06.36	336.84	0.74	-48.9	-64.1	3.6	1.51e+00	0	37	104	909115392	60	57888
2026-01-08 03:46:07.37	336.95	0.70	-48.9	-64.1	3.6	1.51e+00	0	37	104	909115392	60	58084
2026-01-08 03:46:08.38	337.05	0.66	-48.9	-64.1	3.6	1.51e+00	0	37	104	909115392	60	58166
2026-01-08 03:46:09.39	337.16	0.62	-48.9	-64.1	3.6	1.51e+00	0	37	104	909115392	60	57955
2026-01-08 03:46:10.40	337.26	0.59	-48.9	-64.1	3.6	1.51e+00	0	37	104	909115392	60	58054
2026-01-08 03:46:11.40	337.36	0.55	-48.9	-64.2	3.6	1.51e+00	0	37	104	909115392	60	58368
2026-01-08 03:46:12.41	337.47	0.51	-48.9	-64.1	3.6	1.51e+00	0	37	104	909115392	60	58171
2026-01-08 03:46:13.42	337.57	0.47	-48.9	-64.1	3.6	1.51e+00	0	37	104	909115392	60	58156
2026-01-08 03:46:14.43	337.67	0.44	-48.9	-64.1	3.6	1.51e+00	0	37	104	909115392	60	58096
2026-01-08 03:46:15.44	337.78	0.40	-48.9	-64.1	3.6	1.51e+00	0	37	104	909115392	60	58077
2026-01-08 03:46:16.45	337.88	0.36	-48.9	-64.2	3.6	1.51e+00	0	37	104	909115392	60	58468
2026-01-08 03:46:17.46	337.98	0.32	-48.9	-64.1	3.6	1.51e+00	0	37	104	909115392	60	58071
2026-01-08 03:46:18.47	338.08	0.28	-48.9	-64.1	3.6	1.51e+00	0	37	104	909115392	60	58089
2026-01-08 03:46:19.48	338.18	0.25	-48.9	-64.1	3.6	1.51e+00	0	37	104	909115392	60	57898
2026-01-08 03:46:20.49	338.29	0.21	-48.9	-64.2	3.6	1.51e+00	0	37	104	909115392	60	58343
2026-01-08 03:46:21.50	338.39	0.17	-48.9	-64.1	3.6	1.51e+00	0	37	104	909115392	60	58083
2026-01-08 03:46:22.51	338.49	0.13	-48.9	-64.1	3.6	1.51e+00	0	37	104	909115392	60	58154
2026-01-08 03:46:23.52	338.59	0.10	-48.9	-64.1	3.6	1.51e+00	0	37	104	909115392	60	58099
2026-01-08 03:46:24.53	338.69	0.06	-48.9	-64.1	3.6	1.51e+00	0	37	104	909115392	60	58251
2026-01-08 03:46:25.54	338.79	0.02	-48.9	-64.1	3.6	1.51e+00	0	37	104	909115392	60	58012

#Closed at: 2026-01-08 03:46:26
#Recorded file [909 MB]: D:/lorett/data/35029_260108_153540.dat