passes_logs/2026/01/08/R4.6S_Anadyr/R4.6S_Anadyr__20260108_215210_SUOMI_NPP_rec.log

#Pass ID: 20260108_215210_SUOMI NPP
#Satellite: SUOMI NPP
#Configuration: NPP
#almurnet v.1.7.20251203
#Start time: 2026-01-08 21:52:13

#Version: 2.2.20231116
#Station: R4.6S_Anadyr
#Location: 177.4865 lon 64.73178 lat
#TLE: 1 37849U 11061A   26008.05542337  .00000108  00000+0  71976-4 0  9997
#TLE: 2 37849  98.7805 310.1641 0002540  75.6410 284.5048 14.19523335735721

#Time	Az	El	Level	Level2	SNR	BER	BlckErr	Temp	State	Recorded	gain1	gain2
2026-01-08 21:52:13.48	98.35	0.16	-48.1	-61.9	3.3	1.54e+00	0	31	0	0	60	45147
2026-01-08 21:52:14.48	98.30	0.21	-48.1	-63.4	3.6	1.51e+00	0	31	104	0	60	53282
2026-01-08 21:52:15.49	98.24	0.27	-48.1	-63.4	3.6	1.51e+00	0	31	104	0	60	53208
2026-01-08 21:52:16.51	98.18	0.32	-48.1	-63.4	3.6	1.51e+00	0	32	104	0	60	53403
2026-01-08 21:52:17.51	98.13	0.38	-48.2	-63.4	3.6	1.51e+00	0	32	104	0	60	53353
2026-01-08 21:52:18.52	98.07	0.43	-48.2	-63.5	3.6	1.51e+00	0	32	104	0	60	53776
2026-01-08 21:52:19.53	98.01	0.49	-48.1	-63.4	3.6	1.51e+00	0	32	104	0	60	53283
2026-01-08 21:52:20.54	97.96	0.54	-48.1	-63.4	3.6	1.51e+00	0	32	104	0	60	53169
2026-01-08 21:52:21.55	97.90	0.60	-48.2	-63.4	3.6	1.51e+00	0	32	104	0	60	53398
2026-01-08 21:52:22.56	97.84	0.65	-48.0	-63.3	3.6	1.51e+00	0	32	104	0	60	52994
2026-01-08 21:52:23.57	97.78	0.71	-48.0	-63.2	3.6	1.51e+00	0	32	104	0	60	52531
2026-01-08 21:52:24.58	97.73	0.77	-47.8	-63.1	3.6	1.51e+00	0	32	104	0	60	51751
2026-01-08 21:52:25.59	97.67	0.82	-47.5	-62.9	3.6	1.51e+00	0	32	104	0	60	50500
2026-01-08 21:52:26.60	97.61	0.88	-47.2	-62.6	3.6	1.51e+00	0	32	104	0	60	48869
2026-01-08 21:52:27.61	97.55	0.93	-46.5	-61.7	3.6	1.51e+00	0	32	104	0	60	43752
2026-01-08 21:52:28.62	97.49	0.99	-46.4	-61.6	3.6	1.51e+00	0	32	104	0	60	43596
2026-01-08 21:52:29.63	97.43	1.05	-46.4	-61.6	3.6	1.51e+00	0	32	104	0	60	43450
2026-01-08 21:52:30.64	97.37	1.10	-46.4	-61.5	3.6	1.51e+00	0	32	104	0	60	43153
2026-01-08 21:52:31.65	97.31	1.16	-46.4	-61.5	3.6	1.51e+00	0	32	104	0	60	43170
2026-01-08 21:52:32.66	97.25	1.22	-46.4	-61.5	3.6	1.51e+00	0	32	104	0	60	42717
2026-01-08 21:52:33.67	97.19	1.27	-46.3	-61.5	3.6	1.51e+00	0	32	104	0	60	43039
2026-01-08 21:52:34.68	97.13	1.33	-46.4	-61.6	3.6	1.51e+00	0	32	104	0	60	43219
2026-01-08 21:52:35.69	97.07	1.38	-46.4	-61.5	3.6	1.51e+00	0	32	104	0	60	42944
2026-01-08 21:52:36.70	97.01	1.44	-46.4	-61.6	3.6	1.51e+00	0	32	104	0	60	43419
2026-01-08 21:52:37.70	96.95	1.50	-46.3	-61.5	3.6	1.51e+00	0	32	104	0	60	43107
2026-01-08 21:52:38.72	96.89	1.56	-46.3	-61.6	3.6	1.51e+00	0	32	104	0	60	43393
2026-01-08 21:52:39.72	96.83	1.61	-46.3	-61.5	3.6	1.51e+00	0	32	104	0	60	43059
2026-01-08 21:52:40.73	96.77	1.67	-46.4	-61.6	3.6	1.51e+00	0	32	104	0	60	43388
2026-01-08 21:52:41.74	96.71	1.73	-46.3	-61.5	3.6	1.51e+00	0	32	104	0	60	43180
2026-01-08 21:52:42.75	96.64	1.78	-46.4	-61.6	3.6	1.51e+00	0	32	104	0	60	43676
2026-01-08 21:52:43.76	96.58	1.84	-46.4	-61.6	3.6	1.51e+00	0	32	104	0	60	43446
2026-01-08 21:52:44.77	96.52	1.90	-46.3	-61.6	3.6	1.51e+00	0	32	104	0	60	43537
2026-01-08 21:52:45.78	96.45	1.96	-46.3	-61.6	3.6	1.51e+00	0	32	104	0	60	43299
2026-01-08 21:52:46.79	96.39	2.01	-46.3	-61.4	3.6	1.51e+00	0	32	104	0	60	42366
2026-01-08 21:52:47.80	96.33	2.07	-46.3	-61.4	3.6	1.51e+00	0	32	104	0	60	42309
2026-01-08 21:52:48.81	96.26	2.13	-46.3	-61.4	3.6	1.51e+00	0	32	104	0	60	42391
2026-01-08 21:52:49.82	96.20	2.19	-46.3	-61.5	3.6	1.51e+00	0	32	104	0	60	42834
2026-01-08 21:52:50.83	96.13	2.24	-46.3	-61.5	3.6	1.51e+00	0	32	104	0	60	43024
2026-01-08 21:52:51.84	96.07	2.30	-46.3	-61.6	3.6	1.51e+00	0	32	104	0	60	43564
2026-01-08 21:52:52.85	96.01	2.36	-46.3	-61.5	3.6	1.51e+00	0	32	104	0	60	43131
2026-01-08 21:52:53.86	95.94	2.42	-46.3	-61.5	3.6	1.51e+00	0	32	104	0	60	43041
2026-01-08 21:52:54.87	95.87	2.48	-46.3	-61.5	3.6	1.51e+00	0	32	104	0	60	43200
2026-01-08 21:52:55.88	95.81	2.53	-46.3	-61.6	3.6	1.51e+00	0	32	104	0	60	43271
2026-01-08 21:52:56.89	95.74	2.59	-46.4	-61.5	3.6	1.51e+00	0	32	104	0	60	43091
2026-01-08 21:52:57.90	95.68	2.65	-46.4	-61.3	3.6	1.51e+00	0	32	104	0	60	42135
2026-01-08 21:52:58.91	95.61	2.71	-46.3	-61.0	3.6	1.51e+00	0	32	104	0	60	40593
2026-01-08 21:52:59.92	95.54	2.77	-46.3	-60.8	3.6	1.51e+00	0	32	104	0	60	39832
2026-01-08 21:53:00.93	95.48	2.83	-46.3	-61.2	3.6	1.51e+00	0	32	104	0	60	41423
2026-01-08 21:53:01.93	95.41	2.89	-46.3	-61.5	3.6	1.51e+00	0	32	104	0	60	42875
2026-01-08 21:53:02.95	95.34	2.95	-46.3	-60.3	3.6	1.51e+00	0	32	104	0	60	37366
2026-01-08 21:53:03.96	95.27	3.00	-46.1	-56.8	4.6	1.38e+00	92	32	104	0	60	24918
2026-01-08 21:53:04.97	95.20	3.06	-45.6	-52.6	7.1	4.40e-01	0	32	0	1048576	60	15502
2026-01-08 21:53:05.98	95.14	3.12	-44.9	-50.2	10.0	1.90e-02	92	32	0	3145728	60	11644
2026-01-08 21:53:06.99	95.07	3.18	-44.2	-48.3	12.2	7.44e-04	0	32	0	4194304	60	9369
2026-01-08 21:53:08.00	95.00	3.24	-43.6	-47.1	13.3	4.50e-05	0	32	0	6291456	60	8206
2026-01-08 21:53:09.01	94.93	3.30	-45.0	-50.2	10.0	1.19e-04	92	32	0	8388608	60	11740
2026-01-08 21:53:10.01	94.86	3.36	-46.3	-60.5	3.6	1.10e+00	0	32	104	9437184	60	38133
2026-01-08 21:53:11.02	94.79	3.42	-44.5	-49.7	9.6	1.30e+00	13	32	104	9437184	60	11054
2026-01-08 21:53:12.03	94.72	3.48	-41.8	-44.1	16.1	1.20e-04	0	32	0	9437184	56	7336
2026-01-08 21:53:13.03	94.65	3.54	-45.9	-60.2	3.6	1.11e+00	0	32	104	10485760	60	36997
2026-01-08 21:53:14.04	94.58	3.60	-43.5	-46.9	13.5	1.29e+00	0	32	104	10485760	60	7969
2026-01-08 21:53:15.05	94.51	3.66	-43.6	-47.0	13.9	2.20e-06	8	32	0	10485760	60	8124
2026-01-08 21:53:16.06	94.44	3.72	-43.3	-46.5	14.2	7.60e-06	92	32	0	12582912	60	7638
2026-01-08 21:53:17.07	94.36	3.78	-43.5	-46.8	13.6	9.90e-06	0	32	0	14680064	60	7908
2026-01-08 21:53:18.08	94.29	3.84	-43.5	-46.9	13.5	1.06e-05	51	32	0	16777216	60	7969
2026-01-08 21:53:19.09	94.22	3.90	-43.7	-47.2	13.3	2.28e-05	0	32	0	17825792	60	8256
2026-01-08 21:53:20.09	94.15	3.96	-44.3	-48.5	12.2	4.27e-05	92	32	0	19922944	60	9599
2026-01-08 21:53:21.10	94.07	4.02	-44.1	-48.0	12.2	1.55e-04	0	32	0	22020096	60	9131
2026-01-08 21:53:22.11	94.00	4.08	-44.6	-48.9	11.6	5.22e-04	88	32	0	24117248	60	10092
2026-01-08 21:53:23.11	93.93	4.14	-44.4	-48.3	12.1	2.23e-04	90	32	0	26214400	60	9433
2026-01-08 21:53:24.12	93.85	4.20	-44.5	-48.6	12.4	4.88e-05	0	32	0	27262976	60	9677
2026-01-08 21:53:25.13	93.78	4.26	-44.3	-48.2	12.5	1.57e-04	86	32	0	29360128	60	9280
2026-01-08 21:53:26.14	93.71	4.32	-44.5	-48.6	12.0	1.62e-04	0	32	0	31457280	60	9781
2026-01-08 21:53:27.16	93.63	4.38	-44.4	-48.4	12.0	2.92e-04	90	32	0	33554432	60	9495
2026-01-08 21:53:28.16	93.56	4.44	-44.4	-48.5	12.3	1.25e-04	0	32	0	35651584	60	9567
2026-01-08 21:53:29.17	93.48	4.51	-43.8	-47.2	13.7	1.52e-05	92	32	0	36700160	60	8256
2026-01-08 21:53:30.18	93.40	4.57	-42.3	-44.8	16.4	0.00e+00	69	32	0	38797312	58	7033
2026-01-08 21:53:31.19	93.33	4.63	-41.9	-44.1	16.9	0.00e+00	0	33	0	40894464	56	7332
2026-01-08 21:53:32.20	93.25	4.69	-41.5	-43.5	17.4	0.00e+00	57	32	0	42991616	56	6772
2026-01-08 21:53:33.21	93.17	4.75	-41.3	-43.3	17.6	0.00e+00	0	32	0	45088768	56	6623
2026-01-08 21:53:34.21	93.10	4.81	-41.2	-43.1	17.7	0.00e+00	87	32	0	47185920	56	6519
2026-01-08 21:53:35.22	93.02	4.87	-40.6	-42.3	18.6	0.00e+00	0	32	0	48234496	54	6635
2026-01-08 21:53:36.23	92.94	4.94	-40.5	-42.1	18.8	0.00e+00	92	32	0	50331648	54	6495
2026-01-08 21:53:37.24	92.86	5.00	-40.4	-42.0	18.9	0.00e+00	42	32	0	52428800	54	6392
2026-01-08 21:53:38.25	92.78	5.06	-39.7	-41.1	19.8	0.00e+00	0	32	0	54525952	54	5812
2026-01-08 21:53:39.26	92.71	5.12	-39.8	-41.2	19.6	0.00e+00	92	32	0	56623104	52	6567
2026-01-08 21:53:40.27	92.63	5.19	-39.9	-41.3	19.6	0.00e+00	0	32	0	57671680	52	6650
2026-01-08 21:53:41.28	92.55	5.25	-39.8	-41.2	19.6	0.00e+00	82	32	0	59768832	52	6575
2026-01-08 21:53:42.29	92.47	5.31	-39.7	-41.0	19.9	0.00e+00	0	32	0	61865984	52	6448
2026-01-08 21:53:43.29	92.39	5.37	-39.9	-41.3	19.6	0.00e+00	91	32	0	63963136	52	6634
2026-01-08 21:53:44.30	92.31	5.43	-39.7	-41.0	19.8	0.00e+00	49	32	0	66060288	52	6461
2026-01-08 21:53:45.31	92.23	5.50	-39.7	-41.1	19.7	0.00e+00	0	32	0	67108864	52	6512
2026-01-08 21:53:46.33	92.14	5.56	-39.7	-41.1	19.8	0.00e+00	92	32	0	69206016	52	6471
2026-01-08 21:53:47.33	92.06	5.62	-39.8	-41.3	19.6	0.00e+00	0	32	0	71303168	52	6621
2026-01-08 21:53:48.35	91.98	5.69	-39.8	-41.3	19.8	0.00e+00	73	32	0	73400320	52	6618
2026-01-08 21:53:49.35	91.90	5.75	-39.6	-41.1	19.9	0.00e+00	0	32	0	75497472	52	6471
2026-01-08 21:53:50.36	91.81	5.81	-39.7	-41.1	19.8	0.00e+00	91	32	0	76546048	52	6521
2026-01-08 21:53:51.37	91.73	5.88	-39.6	-40.9	20.0	0.00e+00	0	33	0	78643200	52	6387
2026-01-08 21:53:52.38	91.65	5.94	-39.8	-41.2	19.8	0.00e+00	92	32	0	80740352	52	6564
2026-01-08 21:53:53.39	91.56	6.00	-39.9	-41.3	19.6	0.00e+00	91	32	0	82837504	52	6666
2026-01-08 21:53:54.40	91.48	6.07	-39.9	-41.4	19.6	0.00e+00	0	32	0	84934656	52	6702
2026-01-08 21:53:55.41	91.39	6.13	-40.0	-41.4	19.5	0.00e+00	91	32	0	85983232	52	6748
2026-01-08 21:53:56.42	91.31	6.19	-40.0	-41.5	19.5	0.00e+00	0	32	0	88080384	52	6823
2026-01-08 21:53:57.43	91.22	6.26	-40.2	-41.8	19.3	0.00e+00	92	32	0	90177536	52	7017
2026-01-08 21:53:58.44	91.14	6.32	-40.0	-41.5	19.5	0.00e+00	9	33	0	92274688	52	6839
2026-01-08 21:53:59.45	91.05	6.39	-40.1	-41.7	19.4	0.00e+00	91	32	0	94371840	52	7007
2026-01-08 21:54:00.46	90.96	6.45	-40.1	-41.7	19.3	0.00e+00	91	33	0	95420416	52	6984
2026-01-08 21:54:01.47	90.88	6.51	-40.1	-41.7	19.2	0.00e+00	0	33	0	97517568	52	6985
2026-01-08 21:54:02.48	90.79	6.58	-40.2	-41.9	19.2	0.00e+00	90	33	0	99614720	52	7149
2026-01-08 21:54:03.49	90.70	6.64	-40.3	-42.0	19.0	0.00e+00	0	33	0	101711872	52	7211
2026-01-08 21:54:04.49	90.61	6.71	-40.1	-41.7	19.3	0.00e+00	91	32	0	103809024	52	6960
2026-01-08 21:54:05.50	90.52	6.77	-40.2	-41.8	19.3	0.00e+00	0	32	0	104857600	52	7086
2026-01-08 21:54:06.51	90.44	6.84	-39.8	-41.3	19.6	0.00e+00	92	33	0	106954752	52	6670
2026-01-08 21:54:07.52	90.35	6.90	-40.0	-41.4	19.6	0.00e+00	92	33	0	109051904	52	6752
2026-01-08 21:54:08.53	90.26	6.97	-39.9	-41.4	19.5	0.00e+00	92	33	0	111149056	52	6701
2026-01-08 21:54:09.54	90.17	7.03	-39.9	-41.3	19.7	0.00e+00	91	32	0	113246208	52	6633
2026-01-08 21:54:10.55	90.07	7.10	-40.0	-41.4	19.7	0.00e+00	0	33	0	115343360	52	6718
2026-01-08 21:54:11.56	89.98	7.16	-39.9	-41.3	19.8	0.00e+00	85	33	0	116391936	52	6687
2026-01-08 21:54:12.57	89.89	7.23	-39.9	-41.3	19.8	0.00e+00	0	33	0	118489088	52	6655
2026-01-08 21:54:13.58	89.80	7.29	-39.7	-41.0	20.1	0.00e+00	92	32	0	120586240	52	6425
2026-01-08 21:54:14.59	89.71	7.36	-39.7	-41.1	20.0	0.00e+00	0	33	0	122683392	52	6482
2026-01-08 21:54:15.60	89.61	7.42	-39.5	-40.9	20.2	0.00e+00	29	33	0	124780544	52	6327
2026-01-08 21:54:16.61	89.52	7.49	-39.5	-40.8	20.2	0.00e+00	91	32	0	125829120	52	6281
2026-01-08 21:54:17.61	89.43	7.55	-39.5	-40.8	20.2	0.00e+00	0	33	0	127926272	52	6299
2026-01-08 21:54:18.62	89.33	7.62	-39.5	-40.8	20.2	0.00e+00	79	33	0	130023424	52	6301
2026-01-08 21:54:19.63	89.24	7.69	-39.5	-40.9	20.1	0.00e+00	0	33	0	132120576	52	6321
2026-01-08 21:54:20.64	89.14	7.75	-39.7	-41.1	20.1	0.00e+00	92	33	0	134217728	52	6509
2026-01-08 21:54:21.65	89.05	7.82	-39.8	-41.1	19.9	0.00e+00	0	33	0	135266304	52	6537
2026-01-08 21:54:22.66	88.95	7.89	-39.7	-41.1	20.1	0.00e+00	92	33	0	137363456	52	6512
2026-01-08 21:54:23.67	88.85	7.95	-39.5	-40.8	20.3	0.00e+00	92	33	0	139460608	52	6264
2026-01-08 21:54:24.68	88.76	8.02	-39.0	-40.2	20.8	0.00e+00	0	33	0	141557760	52	5874
2026-01-08 21:54:25.69	88.66	8.08	-38.8	-40.0	20.9	0.00e+00	73	33	0	143654912	50	6407
2026-01-08 21:54:26.70	88.56	8.15	-38.6	-39.7	21.2	0.00e+00	0	33	0	144703488	50	6225
2026-01-08 21:54:27.71	88.46	8.22	-38.5	-39.6	21.3	0.00e+00	90	33	0	146800640	50	6172
2026-01-08 21:54:28.72	88.37	8.28	-38.7	-39.8	21.1	0.00e+00	0	33	0	148897792	50	6280
2026-01-08 21:54:29.73	88.27	8.35	-38.7	-39.9	21.1	0.00e+00	92	33	0	150994944	50	6348
2026-01-08 21:54:30.74	88.17	8.42	-39.0	-40.2	20.9	0.00e+00	92	33	0	153092096	50	6547
2026-01-08 21:54:31.75	88.07	8.49	-39.0	-40.2	20.8	0.00e+00	0	33	0	154140672	50	6613
2026-01-08 21:54:32.76	87.97	8.55	-39.0	-40.2	20.8	0.00e+00	40	33	0	156237824	50	6549
2026-01-08 21:54:33.77	87.86	8.62	-39.0	-40.2	20.9	0.00e+00	0	33	0	158334976	50	6579
2026-01-08 21:54:34.78	87.76	8.69	-38.7	-39.9	21.1	0.00e+00	84	33	0	160432128	50	6342
2026-01-08 21:54:35.79	87.66	8.76	-38.5	-39.6	21.4	0.00e+00	0	33	0	162529280	50	6158
2026-01-08 21:54:36.80	87.56	8.82	-38.5	-39.6	21.3	0.00e+00	90	33	0	163577856	50	6173
2026-01-08 21:54:37.81	87.45	8.89	-38.8	-39.9	21.1	0.00e+00	90	33	0	165675008	50	6353
2026-01-08 21:54:38.82	87.35	8.96	-38.7	-39.9	21.0	0.00e+00	0	33	0	167772160	50	6321
2026-01-08 21:54:39.82	87.25	9.03	-39.2	-40.4	20.8	0.00e+00	38	33	0	169869312	50	6736
2026-01-08 21:54:40.83	87.14	9.09	-39.1	-40.3	20.9	0.00e+00	0	33	0	171966464	50	6636
2026-01-08 21:54:41.84	87.04	9.16	-39.2	-40.4	20.8	0.00e+00	79	33	0	173015040	50	6733
2026-01-08 21:54:42.85	86.93	9.23	-39.4	-40.7	20.5	0.00e+00	0	33	0	175112192	50	6996
2026-01-08 21:54:43.86	86.83	9.30	-39.7	-41.1	20.1	0.00e+00	92	33	0	177209344	50	7285
2026-01-08 21:54:44.87	86.72	9.37	-39.5	-40.8	20.3	0.00e+00	74	33	0	179306496	52	6298
2026-01-08 21:54:45.88	86.61	9.44	-39.8	-41.2	20.2	0.00e+00	0	33	0	181403648	52	6551
2026-01-08 21:54:46.89	86.50	9.50	-39.7	-41.0	20.1	0.00e+00	91	33	0	183500800	52	6429
2026-01-08 21:54:47.90	86.40	9.57	-39.5	-40.8	20.4	0.00e+00	0	33	0	184549376	52	6304
2026-01-08 21:54:48.91	86.29	9.64	-39.2	-40.4	20.8	0.00e+00	74	33	0	186646528	52	6000
2026-01-08 21:54:49.92	86.18	9.71	-39.4	-40.7	20.5	0.00e+00	0	33	0	188743680	52	6230
2026-01-08 21:54:50.93	86.07	9.78	-39.5	-40.8	20.3	0.00e+00	92	33	0	190840832	52	6291
2026-01-08 21:54:51.94	85.96	9.85	-39.4	-40.7	20.4	0.00e+00	76	33	0	192937984	52	6232
2026-01-08 21:54:52.95	85.85	9.92	-39.7	-41.1	20.2	0.00e+00	77	33	0	193986560	52	6478
2026-01-08 21:54:53.96	85.74	9.99	-39.4	-40.7	20.6	0.00e+00	92	33	0	196083712	52	6196
2026-01-08 21:54:54.96	85.63	10.05	-39.3	-40.5	20.7	0.00e+00	0	33	0	198180864	52	6081
2026-01-08 21:54:55.97	85.51	10.12	-39.1	-40.2	20.9	0.00e+00	92	33	0	200278016	52	5891
2026-01-08 21:54:56.98	85.40	10.19	-38.9	-40.0	21.1	0.00e+00	0	33	0	201326592	52	5751
2026-01-08 21:54:57.99	85.29	10.26	-39.1	-40.3	20.9	0.00e+00	88	33	0	203423744	52	5920
2026-01-08 21:54:59.00	85.17	10.33	-39.2	-40.5	20.8	0.00e+00	0	33	0	205520896	52	6040
2026-01-08 21:55:00.00	85.06	10.40	-39.2	-40.5	20.8	0.00e+00	92	33	0	207618048	52	6048
2026-01-08 21:55:01.01	84.94	10.47	-39.6	-40.9	20.4	0.00e+00	90	33	0	209715200	52	6355
2026-01-08 21:55:02.02	84.83	10.54	-39.1	-40.3	20.9	0.00e+00	0	33	0	211812352	52	5923
2026-01-08 21:55:03.03	84.71	10.61	-38.8	-40.0	21.2	0.00e+00	92	33	0	212860928	52	5715
2026-01-08 21:55:04.04	84.59	10.68	-38.7	-39.9	21.2	0.00e+00	0	33	0	214958080	50	6337
2026-01-08 21:55:05.05	84.48	10.75	-38.7	-39.9	21.3	0.00e+00	92	33	0	217055232	50	6330
2026-01-08 21:55:06.06	84.36	10.82	-38.5	-39.6	21.4	0.00e+00	0	33	0	219152384	50	6126
2026-01-08 21:55:07.07	84.24	10.89	-38.7	-39.9	21.2	0.00e+00	92	33	0	221249536	50	6319
2026-01-08 21:55:08.08	84.12	10.96	-38.8	-40.0	21.0	0.00e+00	92	33	0	222298112	50	6418
2026-01-08 21:55:09.08	84.00	11.03	-39.0	-40.1	21.0	0.00e+00	0	33	0	224395264	50	6537
2026-01-08 21:55:10.09	83.88	11.10	-39.0	-40.2	21.0	0.00e+00	90	33	0	226492416	50	6543
2026-01-08 21:55:11.10	83.76	11.17	-38.8	-40.0	21.2	0.00e+00	0	33	0	228589568	50	6409
2026-01-08 21:55:12.11	83.64	11.24	-38.7	-39.9	21.1	0.00e+00	92	33	0	230686720	50	6347
2026-01-08 21:55:13.12	83.52	11.31	-38.5	-39.7	21.4	0.00e+00	0	33	0	231735296	50	6197
2026-01-08 21:55:14.13	83.39	11.39	-38.8	-39.9	21.2	0.00e+00	90	33	0	233832448	50	6380
2026-01-08 21:55:15.13	83.27	11.46	-39.0	-40.2	20.9	0.00e+00	92	33	0	235929600	50	6548
2026-01-08 21:55:16.14	83.15	11.53	-38.3	-39.4	21.2	0.00e+00	41	33	0	238026752	50	5988
2026-01-08 21:55:17.15	83.02	11.60	-38.5	-39.6	21.6	0.00e+00	92	33	0	240123904	50	6130
2026-01-08 21:55:18.16	82.90	11.67	-38.3	-39.4	21.5	0.00e+00	32	33	0	241172480	50	5978
2026-01-08 21:55:19.16	82.77	11.74	-38.1	-39.1	21.8	0.00e+00	92	33	0	243269632	50	5822
2026-01-08 21:55:20.17	82.65	11.81	-38.1	-39.1	21.9	0.00e+00	0	33	0	245366784	50	5804
2026-01-08 21:55:21.18	82.52	11.88	-38.2	-39.2	21.9	0.00e+00	92	33	0	247463936	50	5889
2026-01-08 21:55:22.19	82.39	11.95	-38.1	-39.2	21.8	0.00e+00	73	33	0	249561088	50	5846
2026-01-08 21:55:23.19	82.27	12.02	-38.2	-39.2	21.8	0.00e+00	90	33	0	250609664	50	5894
2026-01-08 21:55:24.20	82.14	12.10	-38.0	-39.1	21.9	0.00e+00	87	33	0	252706816	50	5796
2026-01-08 21:55:25.21	82.01	12.17	-38.0	-39.1	22.0	0.00e+00	0	33	0	254803968	50	5780
2026-01-08 21:55:26.22	81.88	12.24	-38.2	-39.3	21.9	0.00e+00	92	33	0	256901120	50	5954
2026-01-08 21:55:27.23	81.75	12.31	-37.8	-38.8	22.2	0.00e+00	29	33	0	258998272	50	5629
2026-01-08 21:55:28.23	81.61	12.38	-37.8	-38.8	22.2	0.00e+00	92	33	0	260046848	50	5572
2026-01-08 21:55:29.24	81.48	12.45	-37.9	-38.9	22.1	0.00e+00	76	33	0	262144000	48	6329
2026-01-08 21:55:30.25	81.35	12.52	-37.6	-38.6	22.3	0.00e+00	92	33	0	264241152	48	6140
2026-01-08 21:55:31.26	81.22	12.60	-37.6	-38.6	22.4	0.00e+00	92	33	0	266338304	48	6110
2026-01-08 21:55:32.27	81.08	12.67	-37.8	-38.8	22.2	0.00e+00	0	33	0	268435456	48	6283
2026-01-08 21:55:33.28	80.95	12.74	-37.7	-38.7	22.3	0.00e+00	40	33	0	269484032	48	6243
2026-01-08 21:55:34.29	80.81	12.81	-37.7	-38.7	22.3	0.00e+00	0	33	0	271581184	48	6187
2026-01-08 21:55:35.30	80.68	12.88	-37.7	-38.7	22.3	0.00e+00	91	33	0	273678336	48	6197
2026-01-08 21:55:36.30	80.54	12.96	-37.7	-38.7	22.4	0.00e+00	0	33	0	275775488	48	6207
2026-01-08 21:55:37.32	80.40	13.03	-37.7	-38.7	22.3	0.00e+00	90	33	0	277872640	48	6211
2026-01-08 21:55:38.33	80.26	13.10	-37.8	-38.9	22.1	0.00e+00	92	33	0	278921216	48	6327
2026-01-08 21:55:39.34	80.12	13.17	-37.8	-38.8	22.2	0.00e+00	0	33	0	281018368	48	6296
2026-01-08 21:55:40.35	79.98	13.25	-37.8	-38.8	22.1	0.00e+00	77	33	0	283115520	48	6285
2026-01-08 21:55:41.36	79.84	13.32	-37.7	-38.8	22.1	0.00e+00	0	33	0	285212672	48	6259
2026-01-08 21:55:42.37	79.70	13.39	-38.0	-39.1	22.0	0.00e+00	92	33	0	287309824	48	6465
2026-01-08 21:55:43.37	79.56	13.46	-38.0	-39.1	22.0	0.00e+00	0	33	0	288358400	48	6525
2026-01-08 21:55:44.38	79.42	13.54	-38.0	-39.1	22.1	0.00e+00	92	33	0	290455552	48	6501
2026-01-08 21:55:45.39	79.28	13.61	-37.9	-38.9	22.2	0.00e+00	90	33	0	292552704	48	6371
2026-01-08 21:55:46.40	79.13	13.68	-38.0	-39.0	22.2	0.00e+00	0	33	0	294649856	48	6431
2026-01-08 21:55:47.41	78.99	13.75	-38.1	-39.1	22.1	0.00e+00	92	33	0	296747008	48	6523
2026-01-08 21:55:48.41	78.84	13.83	-38.1	-39.2	22.0	0.00e+00	0	33	0	297795584	48	6582
2026-01-08 21:55:49.42	78.70	13.90	-38.2	-39.3	21.9	0.00e+00	92	33	0	299892736	48	6638
2026-01-08 21:55:50.43	78.55	13.97	-38.4	-39.5	21.7	0.00e+00	0	33	0	301989888	48	6795
2026-01-08 21:55:51.44	78.40	14.04	-38.6	-39.8	21.5	0.00e+00	92	33	0	304087040	48	7012
2026-01-08 21:55:52.45	78.25	14.12	-38.4	-39.5	21.6	0.00e+00	71	33	0	306184192	48	6819
2026-01-08 21:55:53.46	78.11	14.19	-38.6	-39.7	21.6	0.00e+00	52	33	0	308281344	48	6959
2026-01-08 21:55:54.48	77.95	14.26	-38.5	-39.6	21.6	0.00e+00	92	33	0	309329920	48	6870
2026-01-08 21:55:55.48	77.81	14.34	-38.3	-39.3	21.9	0.00e+00	0	33	0	311427072	48	6667
2026-01-08 21:55:56.49	77.65	14.41	-38.2	-39.2	21.9	0.00e+00	92	33	0	313524224	48	6592
2026-01-08 21:55:57.50	77.50	14.48	-38.1	-39.1	22.0	0.00e+00	0	33	0	315621376	48	6502
2026-01-08 21:55:58.51	77.35	14.55	-38.2	-39.2	21.9	0.00e+00	90	33	0	317718528	48	6577
2026-01-08 21:55:59.52	77.20	14.63	-38.2	-39.3	21.8	0.00e+00	0	33	0	318767104	48	6652
2026-01-08 21:56:00.51	77.04	14.70	-38.1	-39.2	21.9	0.00e+00	92	33	0	320864256	48	6563
2026-01-08 21:56:01.52	76.89	14.77	-38.0	-39.1	22.1	0.00e+00	92	33	0	322961408	48	6466
2026-01-08 21:56:02.53	76.73	14.84	-37.9	-38.9	21.7	0.00e+00	0	33	0	325058560	48	6331
2026-01-08 21:56:03.54	76.58	14.92	-37.7	-38.7	22.4	0.00e+00	92	33	0	327155712	48	6212
2026-01-08 21:56:04.55	76.42	14.99	-38.0	-39.0	22.1	0.00e+00	7	33	0	328204288	48	6449
2026-01-08 21:56:05.56	76.26	15.06	-38.5	-39.6	21.6	0.00e+00	78	33	0	330301440	48	6892
2026-01-08 21:56:06.57	76.10	15.14	-38.7	-39.8	21.5	0.00e+00	9	33	0	332398592	48	7042
2026-01-08 21:56:07.58	75.94	15.21	-38.7	-39.8	21.3	0.00e+00	92	33	0	334495744	48	7072
2026-01-08 21:56:08.59	75.78	15.28	-38.8	-40.0	21.4	0.00e+00	92	33	0	336592896	50	6395
2026-01-08 21:56:09.59	75.62	15.35	-38.9	-40.1	21.3	0.00e+00	0	33	0	337641472	50	6473
2026-01-08 21:56:10.60	75.46	15.43	-38.7	-39.9	21.5	0.00e+00	56	33	0	339738624	50	6354
2026-01-08 21:56:11.61	75.30	15.50	-38.8	-39.9	21.4	0.00e+00	0	33	0	341835776	50	6371
2026-01-08 21:56:12.62	75.13	15.57	-38.6	-39.7	21.6	0.00e+00	92	33	0	343932928	50	6237
2026-01-08 21:56:13.63	74.97	15.65	-38.6	-39.7	21.6	0.00e+00	0	33	0	346030080	50	6215
2026-01-08 21:56:14.64	74.80	15.72	-38.6	-39.6	21.7	0.00e+00	92	33	0	347078656	50	6173
2026-01-08 21:56:15.65	74.64	15.79	-38.4	-39.4	21.9	0.00e+00	92	33	0	349175808	50	6016
2026-01-08 21:56:16.66	74.47	15.86	-38.2	-39.2	22.0	0.00e+00	0	33	0	351272960	50	5876
2026-01-08 21:56:17.66	74.30	15.94	-38.5	-39.6	21.7	0.00e+00	74	33	0	353370112	50	6141
2026-01-08 21:56:18.67	74.14	16.01	-38.3	-39.4	22.1	0.00e+00	0	33	0	355467264	50	5968
2026-01-08 21:56:19.68	73.97	16.08	-38.4	-39.5	21.8	0.00e+00	92	33	0	356515840	50	6064
2026-01-08 21:56:20.69	73.80	16.15	-38.3	-39.4	21.8	0.00e+00	0	33	0	358612992	50	5987
2026-01-08 21:56:21.70	73.62	16.23	-38.4	-39.5	21.8	0.00e+00	92	33	0	360710144	50	6037
2026-01-08 21:56:22.71	73.45	16.30	-38.8	-39.9	21.4	0.00e+00	73	33	0	362807296	50	6357
2026-01-08 21:56:23.72	73.28	16.37	-38.6	-39.7	21.6	0.00e+00	0	33	0	364904448	50	6187
2026-01-08 21:56:24.73	73.11	16.44	-38.5	-39.6	21.7	0.00e+00	75	33	0	365953024	50	6137
2026-01-08 21:56:25.74	72.93	16.52	-38.3	-39.3	22.0	0.00e+00	0	33	0	368050176	50	5937
2026-01-08 21:56:26.75	72.76	16.59	-38.0	-39.0	22.2	0.00e+00	84	33	0	370147328	50	5698
2026-01-08 21:56:27.76	72.58	16.66	-38.0	-39.0	22.2	0.00e+00	0	33	0	372244480	50	5755
2026-01-08 21:56:28.77	72.40	16.73	-37.9	-38.9	22.4	0.00e+00	92	33	0	374341632	50	5663
2026-01-08 21:56:29.78	72.22	16.81	-38.0	-39.0	22.2	0.00e+00	0	33	0	375390208	48	6432
2026-01-08 21:56:30.78	72.05	16.88	-38.1	-39.1	22.1	0.00e+00	0	33	0	377487360	48	6482
2026-01-08 21:56:31.80	71.87	16.95	-38.4	-39.5	21.8	0.00e+00	66	33	0	379584512	48	6770
2026-01-08 21:56:32.80	71.69	17.02	-38.4	-39.4	21.8	0.00e+00	0	33	0	381681664	48	6738
2026-01-08 21:56:33.81	71.51	17.09	-38.3	-39.3	22.0	0.00e+00	76	33	0	383778816	48	6662
2026-01-08 21:56:34.82	71.32	17.16	-38.3	-39.4	21.9	0.00e+00	0	33	0	384827392	48	6727
2026-01-08 21:56:35.83	71.14	17.24	-38.5	-39.6	21.7	0.00e+00	92	33	0	386924544	48	6872
2026-01-08 21:56:36.84	70.96	17.31	-38.5	-39.6	21.6	0.00e+00	0	33	0	389021696	48	6882
2026-01-08 21:56:37.85	70.77	17.38	-38.6	-39.8	21.6	0.00e+00	0	33	0	391118848	50	6262
2026-01-08 21:56:38.85	70.59	17.45	-38.8	-40.0	21.4	0.00e+00	92	33	0	393216000	50	6393
2026-01-08 21:56:39.86	70.40	17.52	-38.6	-39.7	21.6	0.00e+00	0	33	0	394264576	50	6194
2026-01-08 21:56:40.87	70.21	17.59	-38.2	-39.2	21.9	0.00e+00	37	33	0	396361728	50	5857
2026-01-08 21:56:41.88	70.02	17.66	-37.8	-38.8	22.4	0.00e+00	0	33	0	398458880	50	5592
2026-01-08 21:56:42.89	69.83	17.73	-37.7	-38.7	22.5	0.00e+00	92	33	0	400556032	48	6192
2026-01-08 21:56:43.90	69.64	17.81	-37.7	-38.7	22.5	0.00e+00	0	33	0	402653184	48	6178
2026-01-08 21:56:44.91	69.45	17.88	-37.7	-38.6	22.5	0.00e+00	12	33	0	404750336	48	6168
2026-01-08 21:56:45.92	69.26	17.95	-37.6	-38.5	22.6	0.00e+00	92	33	0	405798912	48	6088
2026-01-08 21:56:46.93	69.07	18.02	-37.4	-38.4	22.8	0.00e+00	0	33	0	407896064	48	5983
2026-01-08 21:56:47.93	68.88	18.09	-37.5	-38.4	22.7	0.00e+00	29	33	0	409993216	48	6026
2026-01-08 21:56:48.94	68.68	18.16	-37.4	-38.4	22.8	0.00e+00	0	33	0	412090368	48	5983
2026-01-08 21:56:49.95	68.48	18.23	-37.3	-38.2	22.8	0.00e+00	79	33	0	414187520	48	5893
2026-01-08 21:56:50.96	68.29	18.30	-37.4	-38.4	22.6	0.00e+00	0	33	0	415236096	48	5984
2026-01-08 21:56:51.97	68.09	18.37	-37.4	-38.4	22.7	0.00e+00	92	33	0	417333248	48	5998
2026-01-08 21:56:52.98	67.89	18.44	-37.4	-38.4	22.7	0.00e+00	78	33	0	419430400	48	6015
2026-01-08 21:56:53.99	67.69	18.50	-37.3	-38.3	22.9	0.00e+00	0	33	0	421527552	48	5904
2026-01-08 21:56:55.00	67.49	18.57	-37.1	-38.0	23.1	0.00e+00	2	33	0	423624704	48	5740
2026-01-08 21:56:56.01	67.29	18.64	-36.6	-37.6	23.4	0.00e+00	0	33	0	424673280	46	6114
2026-01-08 21:56:57.02	67.09	18.71	-36.7	-37.6	23.5	0.00e+00	87	33	0	426770432	46	6156
2026-01-08 21:56:58.02	66.89	18.78	-36.4	-37.3	23.6	0.00e+00	0	33	0	428867584	46	5953
2026-01-08 21:56:59.03	66.68	18.85	-36.1	-37.0	23.8	0.00e+00	92	33	0	430964736	46	5705
2026-01-08 21:57:00.04	66.48	18.92	-36.3	-37.2	23.5	0.00e+00	0	33	0	433061888	46	5858
2026-01-08 21:57:01.05	66.27	18.98	-36.6	-37.6	23.5	0.00e+00	0	33	0	434110464	46	6120
2026-01-08 21:57:02.06	66.07	19.05	-36.7	-37.6	23.4	0.00e+00	60	33	0	436207616	46	6166
2026-01-08 21:57:03.07	65.86	19.12	-36.7	-37.7	23.2	0.00e+00	0	33	0	438304768	46	6180
2026-01-08 21:57:04.08	65.65	19.19	-36.4	-37.3	23.5	0.00e+00	46	33	0	440401920	46	5933
2026-01-08 21:57:05.09	65.44	19.25	-36.4	-37.3	23.7	0.00e+00	0	33	0	442499072	46	5903
2026-01-08 21:57:06.10	65.23	19.32	-36.2	-37.1	23.7	0.00e+00	51	33	0	443547648	46	5771
2026-01-08 21:57:07.11	65.02	19.39	-36.1	-37.0	23.8	0.00e+00	25	33	0	445644800	46	5735
2026-01-08 21:57:08.11	64.81	19.45	-36.2	-37.1	23.7	0.00e+00	0	33	0	447741952	46	5793
2026-01-08 21:57:09.12	64.59	19.52	-36.1	-37.0	23.8	0.00e+00	67	33	0	449839104	46	5719
2026-01-08 21:57:10.13	64.38	19.59	-36.1	-36.9	24.0	0.00e+00	0	33	0	451936256	46	5664
2026-01-08 21:57:11.14	64.16	19.65	-35.9	-36.8	23.9	0.00e+00	91	33	0	452984832	46	5571
2026-01-08 21:57:12.15	63.95	19.72	-36.0	-36.9	23.9	0.00e+00	0	33	0	455081984	46	5669
2026-01-08 21:57:13.16	63.73	19.78	-36.1	-37.1	23.8	0.00e+00	92	33	0	457179136	46	5762
2026-01-08 21:57:14.17	63.51	19.85	-36.0	-36.9	24.0	0.00e+00	0	33	0	459276288	46	5675
2026-01-08 21:57:15.18	63.29	19.91	-36.1	-37.0	23.9	0.00e+00	42	33	0	461373440	46	5740
2026-01-08 21:57:16.19	63.07	19.98	-36.3	-37.2	23.8	0.00e+00	92	33	0	462422016	46	5847
2026-01-08 21:57:17.20	62.85	20.04	-36.3	-37.2	23.7	0.00e+00	0	33	0	464519168	46	5839
2026-01-08 21:57:18.21	62.63	20.11	-36.3	-37.2	23.8	0.00e+00	92	33	0	466616320	46	5871
2026-01-08 21:57:19.21	62.41	20.17	-36.1	-37.0	23.6	0.00e+00	0	33	0	468713472	46	5743
2026-01-08 21:57:20.22	62.19	20.23	-35.8	-36.7	24.0	0.00e+00	90	33	0	470810624	46	5535
2026-01-08 21:57:21.23	61.96	20.30	-35.9	-36.8	24.2	0.00e+00	0	33	0	471859200	46	5572
2026-01-08 21:57:22.24	61.74	20.36	-35.7	-36.5	24.2	0.00e+00	50	33	0	473956352	44	6094
2026-01-08 21:57:23.25	61.51	20.42	-35.5	-36.4	24.2	0.00e+00	92	33	0	476053504	44	6001
2026-01-08 21:57:24.26	61.28	20.48	-35.7	-36.6	24.2	0.00e+00	0	33	0	478150656	44	6113
2026-01-08 21:57:25.27	61.06	20.54	-35.8	-36.7	24.0	0.00e+00	73	33	0	480247808	44	6195
2026-01-08 21:57:26.28	60.83	20.61	-35.6	-36.5	24.2	0.00e+00	0	33	0	481296384	44	6071
2026-01-08 21:57:27.29	60.60	20.67	-35.5	-36.4	24.4	0.00e+00	92	33	0	483393536	44	5994
2026-01-08 21:57:28.30	60.37	20.73	-35.6	-36.4	24.4	0.00e+00	0	33	0	485490688	44	5993
2026-01-08 21:57:29.30	60.14	20.79	-35.7	-36.5	24.3	0.00e+00	79	33	0	487587840	44	6058
2026-01-08 21:57:30.31	59.90	20.85	-35.8	-36.6	24.0	0.00e+00	83	33	0	489684992	44	6166
2026-01-08 21:57:31.32	59.67	20.91	-35.6	-36.5	23.6	0.00e+00	0	33	0	490733568	44	6060
2026-01-08 21:57:32.33	59.44	20.97	-35.7	-36.6	24.1	0.00e+00	6	33	0	492830720	44	6104
2026-01-08 21:57:33.34	59.20	21.03	-35.5	-36.3	24.3	0.00e+00	0	33	0	494927872	44	5947
2026-01-08 21:57:34.35	58.96	21.08	-35.6	-36.5	24.2	0.00e+00	84	33	0	497025024	44	6054
2026-01-08 21:57:35.36	58.73	21.14	-35.6	-36.5	24.3	0.00e+00	0	33	0	499122176	44	6050
2026-01-08 21:57:36.37	58.49	21.20	-35.5	-36.3	24.4	0.00e+00	92	33	0	501219328	44	5956
2026-01-08 21:57:37.38	58.25	21.26	-35.5	-36.4	24.3	0.00e+00	80	33	0	502267904	44	5983
2026-01-08 21:57:38.39	58.01	21.31	-35.5	-36.3	24.4	0.00e+00	0	33	0	504365056	44	5934
2026-01-08 21:57:39.40	57.77	21.37	-35.5	-36.3	24.3	0.00e+00	6	33	0	506462208	44	5923
2026-01-08 21:57:40.41	57.53	21.43	-35.6	-36.4	24.3	0.00e+00	0	33	0	508559360	44	6007
2026-01-08 21:57:41.41	57.29	21.48	-35.3	-36.1	24.5	0.00e+00	79	33	0	510656512	44	5811
2026-01-08 21:57:42.42	57.04	21.54	-35.1	-35.9	24.5	0.00e+00	0	33	0	511705088	44	5651
2026-01-08 21:57:43.43	56.80	21.59	-35.3	-36.1	24.4	0.00e+00	91	33	0	513802240	44	5790
2026-01-08 21:57:44.44	56.55	21.65	-35.4	-36.2	24.4	0.00e+00	0	33	0	515899392	44	5870
2026-01-08 21:57:45.45	56.31	21.70	-35.3	-36.1	24.5	0.00e+00	0	33	0	517996544	44	5816
2026-01-08 21:57:46.46	56.06	21.75	-35.4	-36.2	24.4	0.00e+00	92	33	0	520093696	44	5855
2026-01-08 21:57:47.47	55.81	21.81	-35.4	-36.2	24.5	0.00e+00	0	33	0	521142272	44	5879
2026-01-08 21:57:48.48	55.56	21.86	-35.6	-36.5	24.2	0.00e+00	73	33	0	523239424	44	6046
2026-01-08 21:57:49.49	55.31	21.91	-35.7	-36.6	24.2	0.00e+00	0	33	0	525336576	44	6121
2026-01-08 21:57:50.50	55.06	21.96	-35.6	-36.4	24.3	0.00e+00	92	33	0	527433728	44	6024
2026-01-08 21:57:51.50	54.81	22.01	-35.2	-36.0	24.6	0.00e+00	0	33	0	529530880	44	5754
2026-01-08 21:57:52.51	54.56	22.07	-35.3	-36.1	24.4	0.00e+00	0	33	0	530579456	44	5805
2026-01-08 21:57:53.52	54.31	22.12	-35.2	-36.0	24.4	0.00e+00	73	33	0	532676608	44	5728
2026-01-08 21:57:54.53	54.05	22.17	-35.4	-36.2	24.4	0.00e+00	0	33	0	534773760	44	5881
2026-01-08 21:57:55.54	53.80	22.21	-35.4	-36.2	24.4	0.00e+00	76	33	0	536870912	44	5837
2026-01-08 21:57:56.55	53.55	22.26	-35.4	-36.2	24.3	0.00e+00	0	33	0	538968064	44	5879
2026-01-08 21:57:57.56	53.29	22.31	-35.5	-36.4	24.4	0.00e+00	92	33	0	540016640	44	5971
2026-01-08 21:57:58.57	53.03	22.36	-35.3	-36.2	24.4	0.00e+00	0	33	0	542113792	44	5832
2026-01-08 21:57:59.58	52.77	22.41	-35.1	-35.9	24.6	0.00e+00	79	33	0	544210944	44	5683
2026-01-08 21:58:00.59	52.52	22.45	-35.4	-36.2	24.4	0.00e+00	91	33	0	546308096	44	5884
2026-01-08 21:58:01.60	52.26	22.50	-35.2	-36.0	24.6	0.00e+00	0	33	0	548405248	44	5753
2026-01-08 21:58:02.61	52.00	22.54	-35.1	-35.9	24.7	0.00e+00	31	33	0	549453824	44	5675
2026-01-08 21:58:03.61	51.74	22.59	-35.2	-36.0	24.3	0.00e+00	0	33	0	551550976	44	5744
2026-01-08 21:58:04.62	51.48	22.63	-35.1	-35.9	24.6	0.00e+00	90	33	0	553648128	44	5683
2026-01-08 21:58:05.63	51.21	22.68	-35.3	-36.1	24.4	0.00e+00	0	33	0	555745280	44	5784
2026-01-08 21:58:06.64	50.95	22.72	-35.0	-35.8	24.6	0.00e+00	83	33	0	557842432	44	5621
2026-01-08 21:58:07.65	50.69	22.76	-35.2	-36.0	24.7	0.00e+00	0	33	0	558891008	44	5718
2026-01-08 21:58:08.66	50.42	22.81	-34.9	-35.7	24.8	0.00e+00	0	33	0	560988160	44	5532
2026-01-08 21:58:09.67	50.16	22.85	-35.1	-35.9	24.6	0.00e+00	73	33	0	563085312	44	5657
2026-01-08 21:58:10.67	49.89	22.89	-35.5	-36.3	24.4	0.00e+00	0	33	0	565182464	44	5946
2026-01-08 21:58:11.68	49.63	22.93	-35.6	-36.4	24.3	0.00e+00	90	33	0	567279616	44	6004
2026-01-08 21:58:12.69	49.36	22.97	-35.8	-36.6	24.2	0.00e+00	0	33	0	569376768	44	6173
2026-01-08 21:58:13.70	49.09	23.01	-36.0	-36.9	24.0	0.00e+00	76	33	0	570425344	44	6335
2026-01-08 21:58:14.71	48.82	23.04	-36.2	-37.0	23.6	0.00e+00	0	33	0	572522496	44	6461
2026-01-08 21:58:15.72	48.56	23.08	-36.4	-37.3	23.6	0.00e+00	0	33	0	574619648	44	6639
2026-01-08 21:58:16.73	48.29	23.12	-37.2	-38.1	23.0	0.00e+00	71	33	0	576716800	46	6533
2026-01-08 21:58:17.73	48.02	23.16	-37.6	-38.6	22.6	0.00e+00	0	33	0	577765376	46	6884
2026-01-08 21:58:18.74	47.75	23.19	-37.8	-38.8	22.5	0.00e+00	89	33	0	579862528	48	6286
2026-01-08 21:58:19.75	47.47	23.23	-37.6	-38.6	22.7	0.00e+00	0	33	0	581959680	48	6129
2026-01-08 21:58:20.76	47.20	23.26	-37.3	-38.3	23.0	0.00e+00	85	33	0	584056832	48	5899
2026-01-08 21:58:21.77	46.93	23.30	-37.4	-38.3	22.9	0.00e+00	0	33	0	586153984	48	5950
2026-01-08 21:58:22.78	46.66	23.33	-37.5	-38.5	22.9	0.00e+00	0	33	0	587202560	48	6075
2026-01-08 21:58:23.79	46.38	23.36	-37.2	-38.2	23.0	0.00e+00	72	33	0	589299712	48	5837
2026-01-08 21:58:24.80	46.11	23.39	-37.1	-38.1	23.0	0.00e+00	0	33	0	591396864	48	5763
2026-01-08 21:58:25.81	45.83	23.43	-36.8	-37.6	23.5	0.00e+00	92	33	0	593494016	46	6173
2026-01-08 21:58:26.82	45.56	23.46	-36.5	-37.4	23.6	0.00e+00	0	33	0	595591168	46	6012
2026-01-08 21:58:27.82	45.28	23.49	-36.6	-37.5	23.5	0.00e+00	85	33	0	597688320	46	6041
2026-01-08 21:58:28.83	45.00	23.51	-36.7	-37.6	23.4	0.00e+00	0	33	0	598736896	46	6173
2026-01-08 21:58:29.84	44.73	23.54	-36.6	-37.5	23.5	0.00e+00	0	33	0	600834048	46	6034
2026-01-08 21:58:30.85	44.45	23.57	-36.7	-37.6	23.4	0.00e+00	84	33	0	602931200	46	6117
2026-01-08 21:58:31.86	44.17	23.60	-36.6	-37.5	23.6	0.00e+00	0	33	0	605028352	46	6099
2026-01-08 21:58:32.87	43.89	23.62	-36.6	-37.5	23.4	0.00e+00	0	33	0	607125504	46	6098
2026-01-08 21:58:33.88	43.61	23.65	-37.0	-37.9	23.2	0.00e+00	0	33	0	608174080	46	6366
2026-01-08 21:58:34.89	43.33	23.68	-37.4	-38.4	22.9	0.00e+00	91	33	0	610271232	46	6722
2026-01-08 21:58:35.90	43.05	23.70	-37.4	-38.3	23.0	0.00e+00	0	33	0	612368384	46	6655
2026-01-08 21:58:36.91	42.77	23.72	-37.6	-38.5	22.9	0.00e+00	73	33	0	614465536	46	6848
2026-01-08 21:58:37.92	42.49	23.75	-37.1	-38.0	23.1	0.00e+00	77	33	0	616562688	46	6463
2026-01-08 21:58:38.93	42.21	23.77	-37.3	-38.2	22.9	0.00e+00	0	33	0	617611264	46	6547
2026-01-08 21:58:39.94	41.93	23.79	-37.3	-38.3	22.9	0.00e+00	65	33	0	619708416	46	6626
2026-01-08 21:58:40.95	41.64	23.81	-37.7	-38.7	22.6	0.00e+00	0	33	0	621805568	46	6960
2026-01-08 21:58:41.95	41.37	23.83	-37.7	-38.7	22.6	0.00e+00	75	33	0	623902720	48	6207
2026-01-08 21:58:42.96	41.08	23.85	-37.5	-38.5	22.8	0.00e+00	0	33	0	625999872	48	6054
2026-01-08 21:58:43.97	40.80	23.87	-37.6	-38.6	22.7	0.00e+00	71	33	0	627048448	48	6153
2026-01-08 21:58:44.98	40.52	23.89	-37.7	-38.7	22.6	0.00e+00	80	33	0	629145600	48	6179
2026-01-08 21:58:45.99	40.23	23.90	-37.7	-38.7	22.6	0.00e+00	0	33	0	631242752	48	6228
2026-01-08 21:58:47.00	39.95	23.92	-37.3	-38.3	23.0	0.00e+00	74	33	0	633339904	48	5899
2026-01-08 21:58:48.01	39.66	23.93	-37.3	-38.3	23.0	0.00e+00	0	33	0	635437056	48	5911
2026-01-08 21:58:49.02	39.38	23.95	-37.6	-38.6	22.7	0.00e+00	66	33	0	636485632	48	6117
2026-01-08 21:58:50.03	39.09	23.96	-37.9	-38.9	22.5	0.00e+00	0	33	0	638582784	48	6324
2026-01-08 21:58:51.04	38.81	23.98	-38.3	-39.4	22.0	0.00e+00	92	33	0	640679936	48	6745
2026-01-08 21:58:52.05	38.52	23.99	-38.4	-39.5	21.9	0.00e+00	0	33	0	642777088	48	6772
2026-01-08 21:58:53.05	38.24	24.00	-38.4	-39.5	21.9	0.00e+00	0	33	0	644874240	48	6818
2026-01-08 21:58:54.06	37.95	24.01	-38.5	-39.6	21.8	0.00e+00	88	33	0	645922816	48	6863
2026-01-08 21:58:55.07	37.67	24.02	-38.1	-39.1	22.4	0.00e+00	0	33	0	648019968	48	6534
2026-01-08 21:58:56.08	37.38	24.03	-38.0	-39.0	22.5	0.00e+00	41	33	0	650117120	48	6438
2026-01-08 21:58:57.09	37.09	24.04	-37.6	-38.5	22.8	0.00e+00	0	33	0	652214272	48	6083
2026-01-08 21:58:58.10	36.81	24.05	-37.5	-38.5	22.8	0.00e+00	92	33	0	654311424	48	6047
2026-01-08 21:58:59.11	36.52	24.05	-37.3	-38.2	23.0	0.00e+00	0	33	0	655360000	48	5894
2026-01-08 21:59:00.12	36.23	24.06	-36.6	-37.5	23.6	0.00e+00	0	33	0	657457152	46	6071
2026-01-08 21:59:01.13	35.95	24.07	-36.4	-37.2	23.7	0.00e+00	46	33	0	659554304	46	5896
2026-01-08 21:59:02.14	35.66	24.07	-36.6	-37.5	23.5	0.00e+00	0	33	0	661651456	46	6054
2026-01-08 21:59:03.15	35.37	24.07	-37.1	-38.0	23.3	0.00e+00	69	33	0	663748608	46	6425
2026-01-08 21:59:04.16	35.08	24.08	-37.4	-38.3	22.9	0.00e+00	0	33	0	665845760	46	6660
2026-01-08 21:59:05.17	34.80	24.08	-37.6	-38.5	22.7	0.00e+00	91	34	0	666894336	48	6088
2026-01-08 21:59:06.18	34.51	24.08	-37.7	-38.7	22.6	0.00e+00	0	33	0	668991488	48	6219
2026-01-08 21:59:07.19	34.22	24.08	-37.2	-38.1	23.1	0.00e+00	91	33	0	671088640	48	5792
2026-01-08 21:59:08.19	33.94	24.08	-37.0	-37.9	23.3	0.00e+00	73	33	0	673185792	48	5655
2026-01-08 21:59:09.20	33.65	24.08	-36.9	-37.8	23.4	0.00e+00	0	33	0	675282944	48	5588
2026-01-08 21:59:10.21	33.36	24.08	-36.9	-37.8	23.4	0.00e+00	92	34	0	676331520	46	6264
2026-01-08 21:59:11.22	33.08	24.08	-37.1	-38.0	23.2	0.00e+00	33	33	0	678428672	46	6411
2026-01-08 21:59:12.23	32.79	24.07	-37.1	-38.0	23.2	0.00e+00	0	33	0	680525824	46	6444
2026-01-08 21:59:13.24	32.50	24.07	-36.7	-37.6	23.5	0.00e+00	0	33	0	682622976	46	6126
2026-01-08 21:59:14.25	32.22	24.07	-36.4	-37.2	23.9	0.00e+00	0	33	0	684720128	46	5878
2026-01-08 21:59:15.26	31.93	24.06	-36.3	-37.1	23.7	0.00e+00	30	33	0	685768704	46	5824
2026-01-08 21:59:16.27	31.64	24.05	-36.4	-37.3	23.6	0.00e+00	0	33	0	687865856	46	5924
2026-01-08 21:59:17.28	31.35	24.05	-36.7	-37.6	23.4	0.00e+00	92	33	0	689963008	46	6108
2026-01-08 21:59:18.28	31.07	24.04	-36.6	-37.5	23.4	0.00e+00	0	33	0	692060160	46	6063
2026-01-08 21:59:19.30	30.78	24.03	-36.4	-37.3	23.7	0.00e+00	0	34	0	694157312	46	5910
2026-01-08 21:59:20.30	30.50	24.02	-36.2	-37.0	23.4	0.00e+00	0	33	0	695205888	46	5754
2026-01-08 21:59:21.31	30.21	24.01	-36.1	-37.0	23.7	0.00e+00	0	33	0	697303040	46	5701
2026-01-08 21:59:22.32	29.93	24.00	-36.0	-36.9	23.9	0.00e+00	73	33	0	699400192	46	5675
2026-01-08 21:59:23.33	29.64	23.99	-36.3	-37.2	23.5	0.00e+00	0	34	0	701497344	46	5882
2026-01-08 21:59:24.33	29.36	23.98	-36.3	-37.2	23.7	0.00e+00	78	33	0	703594496	46	5839
2026-01-08 21:59:25.34	29.07	23.96	-36.4	-37.3	23.7	0.00e+00	0	33	0	704643072	46	5906
2026-01-08 21:59:26.35	28.79	23.95	-36.1	-37.0	23.9	0.00e+00	0	33	0	706740224	46	5732
2026-01-08 21:59:27.36	28.50	23.94	-35.6	-36.4	24.4	0.00e+00	0	33	0	708837376	44	5981
2026-01-08 21:59:28.36	28.22	23.92	-35.7	-36.5	24.3	0.00e+00	0	33	0	710934528	44	6074
2026-01-08 21:59:29.37	27.94	23.90	-35.6	-36.5	24.2	0.00e+00	25	33	0	713031680	44	6058
2026-01-08 21:59:30.38	27.65	23.89	-35.7	-36.6	24.1	0.00e+00	0	33	0	714080256	44	6133
2026-01-08 21:59:31.39	27.37	23.87	-35.3	-36.1	24.6	0.00e+00	84	34	0	716177408	44	5784
2026-01-08 21:59:32.40	27.09	23.85	-34.7	-35.5	24.8	0.00e+00	0	33	0	718274560	42	6044
2026-01-08 21:59:33.41	26.80	23.83	-34.7	-35.5	25.0	0.00e+00	90	33	0	720371712	42	6039
2026-01-08 21:59:34.41	26.52	23.81	-34.5	-35.2	25.1	0.00e+00	0	33	0	722468864	42	5892
2026-01-08 21:59:35.43	26.24	23.79	-34.6	-35.3	25.0	0.00e+00	0	33	0	723517440	42	5938
2026-01-08 21:59:36.44	25.96	23.77	-34.5	-35.3	25.1	0.00e+00	0	33	0	725614592	42	5916
2026-01-08 21:59:37.45	25.68	23.75	-34.6	-35.3	25.1	0.00e+00	0	34	0	727711744	42	5959
2026-01-08 21:59:38.46	25.40	23.73	-35.0	-35.8	24.8	0.00e+00	11	33	0	729808896	42	6247
2026-01-08 21:59:39.46	25.12	23.70	-35.0	-35.8	24.5	0.00e+00	0	33	0	731906048	42	6276
2026-01-08 21:59:40.48	24.84	23.68	-35.0	-35.7	24.7	0.00e+00	91	33	0	732954624	42	6240
2026-01-08 21:59:41.49	24.56	23.65	-35.2	-36.0	24.5	0.00e+00	0	33	0	735051776	42	6408
2026-01-08 21:59:42.50	24.28	23.63	-35.6	-36.5	24.2	0.00e+00	0	33	0	737148928	42	6775
2026-01-08 21:59:43.50	24.00	23.60	-35.6	-36.5	24.3	0.00e+00	0	33	0	739246080	42	6783
2026-01-08 21:59:44.51	23.72	23.57	-35.6	-36.4	24.2	0.00e+00	0	33	0	741343232	42	6718
2026-01-08 21:59:45.52	23.44	23.55	-35.6	-36.5	24.2	0.00e+00	17	33	0	742391808	42	6771
2026-01-08 21:59:46.53	23.17	23.52	-35.6	-36.5	24.2	0.00e+00	0	33	0	744488960	42	6791
2026-01-08 21:59:47.54	22.89	23.49	-35.4	-36.2	24.5	0.00e+00	56	33	0	746586112	42	6574
2026-01-08 21:59:48.55	22.61	23.46	-35.1	-35.9	24.6	0.00e+00	0	33	0	748683264	42	6358
2026-01-08 21:59:49.56	22.34	23.43	-34.9	-35.7	24.6	0.00e+00	0	33	0	750780416	42	6196
2026-01-08 21:59:50.57	22.06	23.40	-35.3	-36.1	24.5	0.00e+00	0	33	0	751828992	42	6511
2026-01-08 21:59:51.57	21.79	23.36	-35.9	-36.7	23.9	0.00e+00	0	33	0	753926144	44	6235
2026-01-08 21:59:52.58	21.52	23.33	-36.2	-37.1	23.8	0.00e+00	0	33	0	756023296	44	6493
2026-01-08 21:59:53.59	21.25	23.30	-36.2	-37.1	23.8	0.00e+00	0	33	0	758120448	44	6504
2026-01-08 21:59:54.60	20.97	23.27	-36.0	-36.9	24.1	0.00e+00	87	33	0	760217600	44	6323
2026-01-08 21:59:55.61	20.70	23.23	-35.6	-36.4	24.3	0.00e+00	0	34	0	762314752	44	5972
2026-01-08 21:59:56.62	20.43	23.20	-35.6	-36.4	24.2	0.00e+00	0	34	0	763363328	44	6012
2026-01-08 21:59:57.63	20.16	23.16	-35.7	-36.5	24.1	0.00e+00	0	33	0	765460480	44	6100
2026-01-08 21:59:58.64	19.89	23.12	-36.0	-36.8	23.9	0.00e+00	0	33	0	767557632	44	6299
2026-01-08 21:59:59.65	19.62	23.09	-36.3	-37.2	23.6	0.00e+00	75	33	0	769654784	44	6584
2026-01-08 22:00:00.66	19.35	23.05	-36.1	-37.0	23.8	0.00e+00	0	33	0	771751936	44	6422
2026-01-08 22:00:01.67	19.08	23.01	-36.4	-37.3	23.6	0.00e+00	72	33	0	772800512	44	6632
2026-01-08 22:00:02.68	18.81	22.97	-36.8	-37.7	23.3	0.00e+00	0	33	0	774897664	46	6181
2026-01-08 22:00:03.68	18.55	22.93	-36.9	-37.8	23.2	0.00e+00	89	33	0	776994816	46	6306
2026-01-08 22:00:04.69	18.28	22.89	-37.0	-37.9	23.2	0.00e+00	0	33	0	779091968	46	6376
2026-01-08 22:00:05.70	18.02	22.85	-37.1	-38.1	23.1	0.00e+00	0	33	0	781189120	46	6467
2026-01-08 22:00:06.71	17.75	22.81	-37.4	-38.4	22.7	0.00e+00	0	33	0	782237696	46	6698
2026-01-08 22:00:07.72	17.49	22.77	-37.3	-38.3	22.9	0.00e+00	0	34	0	784334848	46	6628
2026-01-08 22:00:08.73	17.22	22.72	-37.7	-38.7	22.5	0.00e+00	78	33	0	786432000	46	6967
2026-01-08 22:00:09.74	16.96	22.68	-37.6	-38.7	22.6	0.00e+00	0	33	0	788529152	48	6184
2026-01-08 22:00:10.75	16.70	22.64	-37.5	-38.5	22.6	0.00e+00	90	34	0	790626304	48	6100
2026-01-08 22:00:11.76	16.44	22.59	-37.5	-38.4	22.8	0.00e+00	0	34	0	791674880	48	6022
2026-01-08 22:00:12.77	16.18	22.55	-37.0	-37.9	23.1	0.00e+00	0	33	0	793772032	48	5692
2026-01-08 22:00:13.77	15.92	22.50	-37.1	-38.1	23.0	0.00e+00	0	33	0	795869184	48	5767
2026-01-08 22:00:14.78	15.66	22.46	-37.0	-38.0	23.1	0.00e+00	0	34	0	797966336	48	5696
2026-01-08 22:00:15.79	15.40	22.41	-37.3	-38.3	22.8	0.00e+00	13	33	0	800063488	48	5908
2026-01-08 22:00:16.80	15.15	22.36	-37.4	-38.4	22.7	0.00e+00	0	33	0	801112064	48	6023
2026-01-08 22:00:17.80	14.89	22.32	-37.7	-38.7	22.5	0.00e+00	88	33	0	803209216	48	6223
2026-01-08 22:00:18.81	14.64	22.27	-37.8	-38.8	22.4	0.00e+00	0	33	0	805306368	48	6317
2026-01-08 22:00:19.82	14.38	22.22	-37.6	-38.6	22.7	0.00e+00	0	34	0	807403520	48	6149
2026-01-08 22:00:20.83	14.13	22.17	-37.1	-38.1	23.0	0.00e+00	0	34	0	809500672	48	5786
2026-01-08 22:00:21.84	13.88	22.12	-37.0	-37.9	23.1	0.00e+00	0	33	0	810549248	48	5682
2026-01-08 22:00:22.84	13.63	22.07	-37.0	-37.9	23.2	0.00e+00	0	34	0	812646400	48	5637
2026-01-08 22:00:23.85	13.37	22.02	-37.0	-38.0	23.2	0.00e+00	0	34	0	814743552	48	5702
2026-01-08 22:00:24.87	13.12	21.97	-37.0	-38.0	23.1	7.00e-07	77	34	0	816840704	48	5721
2026-01-08 22:00:25.88	12.87	21.92	-37.1	-38.1	23.1	0.00e+00	0	34	0	818937856	48	5764
2026-01-08 22:00:26.88	12.62	21.87	-37.0	-38.0	23.1	0.00e+00	0	34	0	819986432	48	5709
2026-01-08 22:00:27.89	12.38	21.81	-36.9	-37.9	23.2	0.00e+00	0	34	0	822083584	48	5631
2026-01-08 22:00:28.90	12.13	21.76	-37.2	-38.1	23.0	0.00e+00	0	34	0	824180736	48	5806
2026-01-08 22:00:29.91	11.88	21.71	-37.4	-38.4	22.7	0.00e+00	33	34	0	826277888	48	5968
2026-01-08 22:00:30.92	11.64	21.65	-37.8	-38.9	22.2	0.00e+00	0	33	0	828375040	48	6324
2026-01-08 22:00:31.93	11.39	21.60	-37.9	-38.9	22.4	0.00e+00	92	33	0	829423616	48	6379
2026-01-08 22:00:32.94	11.15	21.55	-38.1	-39.2	22.0	0.00e+00	0	34	0	831520768	48	6568
2026-01-08 22:00:33.95	10.90	21.49	-37.6	-38.6	22.4	0.00e+00	0	34	0	833617920	48	6121
2026-01-08 22:00:34.96	10.66	21.43	-37.5	-38.5	22.7	0.00e+00	0	34	0	835715072	48	6103
2026-01-08 22:00:35.97	10.42	21.38	-37.3	-38.3	22.8	0.00e+00	0	33	0	837812224	48	5952
2026-01-08 22:00:36.98	10.18	21.32	-37.5	-38.5	22.5	0.00e+00	0	33	0	838860800	48	6048
2026-01-08 22:00:37.98	9.94	21.27	-37.5	-38.6	22.7	0.00e+00	0	34	0	840957952	48	6114
2026-01-08 22:00:38.99	9.70	21.21	-37.7	-38.8	22.5	0.00e+00	78	33	0	843055104	48	6260
2026-01-08 22:00:40.01	9.46	21.15	-38.0	-39.1	22.0	0.00e+00	0	33	0	845152256	48	6535
2026-01-08 22:00:41.01	9.23	21.09	-38.8	-40.0	21.4	0.00e+00	92	34	0	847249408	48	7216
2026-01-08 22:00:42.02	8.99	21.03	-39.0	-40.3	20.9	0.00e+00	0	34	0	848297984	50	6670
2026-01-08 22:00:43.03	8.76	20.98	-39.1	-40.4	21.1	0.00e+00	0	34	0	850395136	50	6724
2026-01-08 22:00:44.04	8.52	20.92	-38.9	-40.2	21.3	0.00e+00	0	34	0	852492288	50	6550
2026-01-08 22:00:45.05	8.29	20.86	-38.4	-39.5	21.6	0.00e+00	0	33	0	854589440	50	6071
2026-01-08 22:00:46.06	8.06	20.80	-37.7	-38.8	22.5	0.00e+00	46	34	0	856686592	50	5579
2026-01-08 22:00:47.07	7.83	20.74	-37.1	-38.1	23.0	0.00e+00	0	34	0	858783744	48	5800
2026-01-08 22:00:48.08	7.60	20.68	-37.0	-37.9	23.2	0.00e+00	39	34	0	859832320	48	5683
2026-01-08 22:00:49.09	7.37	20.62	-36.8	-37.7	23.3	0.00e+00	0	33	0	861929472	46	6220
2026-01-08 22:00:50.09	7.14	20.55	-36.6	-37.6	23.4	0.00e+00	0	33	0	864026624	46	6140
2026-01-08 22:00:51.10	6.91	20.49	-36.6	-37.5	23.3	0.00e+00	0	34	0	866123776	46	6098
2026-01-08 22:00:52.11	6.69	20.43	-36.6	-37.6	23.4	0.00e+00	0	34	0	868220928	46	6124
2026-01-08 22:00:53.12	6.46	20.37	-36.7	-37.6	23.4	0.00e+00	46	33	0	869269504	46	6160
2026-01-08 22:00:54.13	6.24	20.31	-36.8	-37.8	23.3	0.00e+00	0	34	0	871366656	46	6247
2026-01-08 22:00:55.14	6.01	20.24	-36.4	-37.3	23.7	0.00e+00	43	33	0	873463808	46	5914
2026-01-08 22:00:56.15	5.79	20.18	-36.2	-37.1	23.8	0.00e+00	0	34	0	875560960	46	5788
2026-01-08 22:00:57.16	5.57	20.12	-36.0	-36.8	24.0	0.00e+00	0	34	0	877658112	46	5607
2026-01-08 22:00:58.17	5.35	20.05	-35.8	-36.7	24.1	0.00e+00	0	34	0	878706688	46	5505
2026-01-08 22:00:59.18	5.12	19.99	-35.6	-36.5	24.2	0.00e+00	0	34	0	880803840	44	6051
2026-01-08 22:01:00.19	4.91	19.92	-35.6	-36.4	24.2	0.00e+00	76	34	0	882900992	44	5994
2026-01-08 22:01:01.20	4.69	19.86	-35.6	-36.4	24.3	0.00e+00	0	34	0	884998144	44	5978
2026-01-08 22:01:02.21	4.47	19.80	-35.0	-35.8	24.7	0.00e+00	92	34	0	887095296	44	5616
2026-01-08 22:01:03.21	4.26	19.73	-35.2	-36.0	24.6	0.00e+00	0	34	0	888143872	44	5720
2026-01-08 22:01:04.22	4.04	19.67	-35.3	-36.1	24.4	0.00e+00	14	34	0	890241024	44	5799
2026-01-08 22:01:05.23	3.82	19.60	-35.9	-36.7	24.0	0.00e+00	0	34	0	892338176	44	6237
2026-01-08 22:01:06.24	3.61	19.53	-36.1	-37.0	23.8	0.00e+00	0	34	0	894435328	44	6392
2026-01-08 22:01:07.25	3.40	19.47	-36.3	-37.2	23.5	0.00e+00	0	34	0	896532480	44	6586
2026-01-08 22:01:08.26	3.19	19.40	-36.9	-37.9	23.1	0.00e+00	0	34	0	897581056	46	6343
2026-01-08 22:01:09.27	2.98	19.33	-37.0	-38.0	23.0	0.00e+00	64	34	0	899678208	46	6425
2026-01-08 22:01:10.28	2.77	19.27	-37.0	-38.0	23.0	0.00e+00	0	34	0	901775360	46	6400
2026-01-08 22:01:11.29	2.56	19.20	-37.0	-38.0	23.0	0.00e+00	91	34	0	903872512	46	6416
2026-01-08 22:01:12.29	2.35	19.13	-37.0	-38.0	23.1	0.00e+00	0	34	0	905969664	46	6406
2026-01-08 22:01:13.30	2.14	19.07	-37.0	-38.0	23.1	0.00e+00	0	33	0	907018240	46	6405
2026-01-08 22:01:14.31	1.94	19.00	-37.1	-38.1	23.1	0.00e+00	0	34	0	909115392	46	6495
2026-01-08 22:01:15.32	1.73	18.93	-36.6	-37.6	23.4	0.00e+00	0	34	0	911212544	46	6127
2026-01-08 22:01:16.33	1.53	18.86	-36.6	-37.5	23.5	0.00e+00	76	33	0	913309696	46	6087
2026-01-08 22:01:17.34	1.32	18.79	-36.5	-37.5	23.4	0.00e+00	0	34	0	915406848	46	6040
2026-01-08 22:01:18.35	1.12	18.73	-36.4	-37.4	23.6	0.00e+00	90	34	0	916455424	46	5979
2026-01-08 22:01:19.36	0.92	18.66	-36.3	-37.2	23.7	0.00e+00	0	34	0	918552576	46	5895
2026-01-08 22:01:20.37	0.72	18.59	-36.1	-36.9	23.6	0.00e+00	0	34	0	920649728	46	5684
2026-01-08 22:01:21.37	0.52	18.52	-35.7	-36.6	24.0	0.00e+00	0	34	0	922746880	44	6138
2026-01-08 22:01:22.38	0.32	18.45	-35.8	-36.6	24.1	0.00e+00	0	34	0	924844032	44	6134
2026-01-08 22:01:23.39	0.12	18.38	-35.9	-36.8	23.9	0.00e+00	77	34	0	926941184	44	6271
2026-01-08 22:01:24.40	359.93	18.31	-36.1	-36.9	23.6	0.00e+00	0	33	0	927989760	44	6375
2026-01-08 22:01:25.41	359.73	18.24	-36.5	-37.4	23.4	0.00e+00	85	34	0	930086912	44	6736
2026-01-08 22:01:26.42	359.54	18.17	-36.8	-37.8	23.2	0.00e+00	0	34	0	932184064	46	6265
2026-01-08 22:01:27.43	359.34	18.10	-37.0	-37.9	23.1	0.00e+00	0	34	0	934281216	46	6360
2026-01-08 22:01:28.44	359.15	18.03	-36.8	-37.7	23.2	0.00e+00	0	34	0	935329792	46	6241
2026-01-08 22:01:29.45	358.96	17.96	-36.7	-37.6	23.4	0.00e+00	0	34	0	937426944	46	6120
2026-01-08 22:01:30.46	358.76	17.89	-36.3	-37.1	23.6	0.00e+00	69	34	0	939524096	46	5828
2026-01-08 22:01:31.47	358.57	17.82	-36.4	-37.3	23.6	0.00e+00	0	34	0	941621248	46	5924
2026-01-08 22:01:32.47	358.38	17.75	-36.5	-37.4	23.5	0.00e+00	73	34	0	943718400	46	5984
2026-01-08 22:01:33.48	358.20	17.68	-36.6	-37.6	23.2	0.00e+00	0	34	0	944766976	46	6111
2026-01-08 22:01:34.49	358.01	17.61	-36.9	-37.9	23.1	0.00e+00	0	34	0	946864128	46	6320
2026-01-08 22:01:35.50	357.82	17.54	-37.0	-37.9	23.0	0.00e+00	0	34	0	948961280	46	6380
2026-01-08 22:01:36.51	357.63	17.47	-36.7	-37.7	23.3	0.00e+00	0	34	0	951058432	46	6207
2026-01-08 22:01:37.52	357.45	17.40	-36.6	-37.6	23.3	0.00e+00	0	34	0	953155584	46	6121
2026-01-08 22:01:38.53	357.27	17.33	-36.4	-37.4	23.5	0.00e+00	0	34	0	955252736	46	5966
2026-01-08 22:01:39.53	357.08	17.26	-36.3	-37.3	23.5	0.00e+00	92	34	0	956301312	46	5904
2026-01-08 22:01:40.54	356.90	17.18	-36.3	-37.2	23.5	0.00e+00	0	34	0	958398464	46	5890
2026-01-08 22:01:41.55	356.72	17.11	-36.2	-37.1	23.6	0.00e+00	5	34	0	960495616	46	5798
2026-01-08 22:01:42.56	356.54	17.04	-36.2	-37.1	23.7	0.00e+00	0	34	0	962592768	46	5820
2026-01-08 22:01:43.57	356.36	16.97	-35.9	-36.8	23.8	0.00e+00	0	34	0	964689920	46	5594
2026-01-08 22:01:44.58	356.18	16.90	-35.9	-36.8	23.9	0.00e+00	0	34	0	965738496	46	5571
2026-01-08 22:01:45.59	356.00	16.83	-36.1	-37.0	23.7	0.00e+00	0	34	0	967835648	46	5710
2026-01-08 22:01:46.60	355.82	16.75	-35.9	-36.8	23.9	0.00e+00	71	34	0	969932800	46	5606
2026-01-08 22:01:47.60	355.65	16.68	-36.3	-37.2	23.7	0.00e+00	0	34	0	972029952	46	5863
2026-01-08 22:01:48.61	355.47	16.61	-36.4	-37.4	23.4	0.00e+00	71	34	0	974127104	46	5965
2026-01-08 22:01:49.62	355.30	16.54	-36.5	-37.5	23.5	0.00e+00	0	34	0	975175680	46	6045
2026-01-08 22:01:50.63	355.12	16.47	-36.3	-37.2	23.6	0.00e+00	0	34	0	977272832	46	5851
2026-01-08 22:01:51.64	354.95	16.39	-36.2	-37.1	23.4	0.00e+00	0	34	0	979369984	46	5796
2026-01-08 22:01:52.65	354.78	16.32	-36.0	-36.9	23.7	0.00e+00	0	34	0	981467136	46	5669
2026-01-08 22:01:53.66	354.61	16.25	-35.3	-36.1	24.3	0.00e+00	71	34	0	983564288	44	5825
2026-01-08 22:01:54.67	354.44	16.18	-35.2	-36.0	24.4	0.00e+00	0	34	0	984612864	44	5759
2026-01-08 22:01:55.68	354.27	16.10	-35.3	-36.1	24.2	0.00e+00	69	34	0	986710016	44	5786
2026-01-08 22:01:56.69	354.10	16.03	-35.3	-36.1	24.3	0.00e+00	0	34	0	988807168	44	5821
2026-01-08 22:01:57.70	353.93	15.96	-35.4	-36.2	24.3	0.00e+00	0	34	0	990904320	44	5858
2026-01-08 22:01:58.71	353.76	15.89	-35.6	-36.5	24.1	0.00e+00	0	34	0	993001472	44	6045
2026-01-08 22:01:59.72	353.60	15.81	-35.5	-36.4	24.2	0.00e+00	33	34	0	994050048	44	5972
2026-01-08 22:02:00.73	353.43	15.74	-35.6	-36.5	24.1	0.00e+00	75	34	0	996147200	44	6038
2026-01-08 22:02:01.74	353.26	15.67	-35.6	-36.5	24.1	0.00e+00	0	34	0	998244352	44	6055
2026-01-08 22:02:02.75	353.10	15.60	-35.8	-36.7	23.9	0.00e+00	90	34	0	1000341504	44	6204
2026-01-08 22:02:03.75	352.94	15.52	-36.0	-36.9	23.8	0.00e+00	0	34	0	1002438656	44	6380
2026-01-08 22:02:04.76	352.78	15.45	-36.0	-36.9	23.9	0.00e+00	0	34	0	1003487232	44	6345
2026-01-08 22:02:05.77	352.61	15.38	-36.1	-36.9	23.8	0.00e+00	0	34	0	1005584384	44	6376
2026-01-08 22:02:06.78	352.45	15.31	-35.9	-36.8	24.0	0.00e+00	0	34	0	1007681536	44	6260
2026-01-08 22:02:07.79	352.29	15.23	-35.8	-36.6	24.1	0.00e+00	0	34	0	1009778688	44	6137
2026-01-08 22:02:08.80	352.13	15.16	-35.5	-36.3	24.3	0.00e+00	0	34	0	1011875840	44	5940
2026-01-08 22:02:09.81	351.98	15.09	-35.3	-36.1	24.4	0.00e+00	71	34	0	1012924416	44	5803
2026-01-08 22:02:10.82	351.82	15.02	-35.1	-35.9	24.5	0.00e+00	0	34	0	1015021568	44	5639
2026-01-08 22:02:11.83	351.66	14.94	-35.3	-36.1	24.4	0.00e+00	83	34	0	1017118720	44	5790
2026-01-08 22:02:12.83	351.51	14.87	-35.5	-36.4	24.2	0.00e+00	0	34	0	1019215872	44	5966
2026-01-08 22:02:13.85	351.35	14.80	-35.9	-36.8	23.8	0.00e+00	0	34	0	1021313024	44	6262
2026-01-08 22:02:14.85	351.20	14.72	-36.5	-37.4	23.4	0.00e+00	0	34	0	1023410176	44	6738
2026-01-08 22:02:15.86	351.04	14.65	-36.8	-37.8	23.2	0.00e+00	0	34	0	1024458752	46	6266
2026-01-08 22:02:16.87	350.89	14.58	-37.1	-38.0	23.0	0.00e+00	72	34	0	1026555904	46	6451
2026-01-08 22:02:17.88	350.74	14.51	-37.3	-38.2	22.8	0.00e+00	0	33	0	1028653056	46	6604
2026-01-08 22:02:18.89	350.59	14.43	-37.5	-38.5	22.6	0.00e+00	33	34	0	1030750208	46	6776
2026-01-08 22:02:19.90	350.44	14.36	-37.3	-38.3	22.8	0.00e+00	0	34	0	1032847360	46	6665
2026-01-08 22:02:20.91	350.29	14.29	-37.2	-38.2	22.8	0.00e+00	0	33	0	1033895936	46	6572
2026-01-08 22:02:21.92	350.14	14.22	-36.7	-37.6	23.3	0.00e+00	0	34	0	1035993088	46	6170
2026-01-08 22:02:22.93	349.99	14.14	-36.2	-37.1	23.6	0.00e+00	0	34	0	1038090240	46	5816
2026-01-08 22:02:23.93	349.84	14.07	-36.3	-37.2	23.6	0.00e+00	24	34	0	1040187392	46	5876
2026-01-08 22:02:24.94	349.70	14.00	-36.0	-36.9	23.7	0.00e+00	0	34	0	1042284544	46	5661
2026-01-08 22:02:25.95	349.55	13.93	-36.2	-37.1	23.6	0.00e+00	71	34	0	1043333120	46	5802
2026-01-08 22:02:26.96	349.40	13.85	-35.9	-36.8	23.9	0.00e+00	0	34	0	1045430272	46	5591
2026-01-08 22:02:27.97	349.26	13.78	-35.9	-36.8	23.8	0.00e+00	0	34	0	1047527424	46	5597
2026-01-08 22:02:28.98	349.11	13.71	-35.6	-36.4	24.0	0.00e+00	0	34	0	1049624576	46	5352
2026-01-08 22:02:29.99	348.97	13.64	-35.9	-36.7	23.6	0.00e+00	0	34	0	1051721728	44	6227
2026-01-08 22:02:31.00	348.83	13.56	-35.9	-36.8	23.2	0.00e+00	8	34	0	1052770304	44	6262
2026-01-08 22:02:32.01	348.69	13.49	-35.9	-36.8	23.7	0.00e+00	0	34	0	1054867456	44	6249
2026-01-08 22:02:33.02	348.55	13.42	-36.4	-37.3	23.3	0.00e+00	71	34	0	1056964608	44	6638
2026-01-08 22:02:34.03	348.41	13.35	-36.8	-37.7	23.0	0.00e+00	0	34	0	1059061760	44	6988
2026-01-08 22:02:35.03	348.27	13.28	-37.2	-38.2	22.6	0.00e+00	0	34	0	1061158912	46	6571
2026-01-08 22:02:36.04	348.13	13.20	-37.4	-38.4	22.1	0.00e+00	0	34	0	1062207488	46	6740
2026-01-08 22:02:37.05	347.99	13.13	-37.7	-38.7	21.9	0.00e+00	0	34	0	1064304640	46	6995
2026-01-08 22:02:38.06	347.85	13.06	-37.6	-38.6	22.4	0.00e+00	44	34	0	1066401792	48	6159
2026-01-08 22:02:39.07	347.71	12.99	-37.3	-38.4	22.6	0.00e+00	0	34	0	1068498944	48	5972
2026-01-08 22:02:40.08	347.58	12.91	-37.2	-38.2	22.7	0.00e+00	90	34	0	1070596096	48	5846
2026-01-08 22:02:41.09	347.44	12.84	-36.9	-37.9	23.0	0.00e+00	0	34	0	1071644672	48	5642
2026-01-08 22:02:42.10	347.31	12.77	-36.7	-37.7	23.0	0.00e+00	0	34	0	1073741824	46	6204
2026-01-08 22:02:43.11	347.17	12.70	-36.4	-37.3	23.3	0.00e+00	0	34	0	1075838976	46	5963
2026-01-08 22:02:44.12	347.04	12.63	-36.4	-37.3	23.3	0.00e+00	0	34	0	1077936128	46	5935
2026-01-08 22:02:45.13	346.91	12.56	-36.5	-37.4	23.5	0.00e+00	0	34	0	1080033280	46	5990
2026-01-08 22:02:46.13	346.78	12.48	-36.5	-37.5	23.3	0.00e+00	30	34	0	1081081856	46	6059
2026-01-08 22:02:47.14	346.64	12.41	-36.7	-37.6	23.1	0.00e+00	92	34	0	1083179008	46	6166
2026-01-08 22:02:48.15	346.51	12.34	-36.7	-37.6	23.2	0.00e+00	0	34	0	1085276160	46	6155
2026-01-08 22:02:49.16	346.38	12.27	-36.8	-37.8	23.0	0.00e+00	78	34	0	1087373312	46	6287
2026-01-08 22:02:50.17	346.25	12.20	-36.7	-37.6	23.1	0.00e+00	0	34	0	1089470464	46	6160
2026-01-08 22:02:51.18	346.12	12.13	-36.8	-37.7	23.1	0.00e+00	0	33	0	1090519040	46	6206
2026-01-08 22:02:52.19	346.00	12.06	-36.6	-37.6	23.3	0.00e+00	0	34	0	1092616192	46	6107
2026-01-08 22:02:53.20	345.87	11.98	-36.8	-37.7	23.1	0.00e+00	0	34	0	1094713344	46	6201
2026-01-08 22:02:54.21	345.74	11.91	-36.8	-37.7	23.1	0.00e+00	92	34	0	1096810496	46	6199
2026-01-08 22:02:55.22	345.61	11.84	-36.8	-37.7	23.0	0.00e+00	0	34	0	1098907648	46	6210
2026-01-08 22:02:56.23	345.49	11.77	-37.1	-38.0	22.8	0.00e+00	92	34	0	1099956224	46	6429
2026-01-08 22:02:57.24	345.36	11.70	-37.1	-38.0	22.8	0.00e+00	0	34	0	1102053376	46	6449
2026-01-08 22:02:58.24	345.24	11.63	-37.2	-38.2	22.6	0.00e+00	0	34	0	1104150528	46	6599
2026-01-08 22:02:59.25	345.11	11.56	-37.4	-38.5	22.4	0.00e+00	0	34	0	1106247680	46	6779
2026-01-08 22:03:00.26	344.99	11.49	-37.5	-38.6	22.3	0.00e+00	0	34	0	1108344832	46	6882
2026-01-08 22:03:01.27	344.87	11.42	-37.4	-38.4	22.5	0.00e+00	72	34	0	1109393408	46	6752
2026-01-08 22:03:02.28	344.75	11.35	-37.7	-38.7	22.1	0.00e+00	0	34	0	1111490560	46	6997
2026-01-08 22:03:03.29	344.62	11.28	-37.5	-38.6	22.3	0.00e+00	91	34	0	1113587712	46	6881
2026-01-08 22:03:04.30	344.50	11.21	-37.4	-38.5	22.3	0.00e+00	0	34	0	1115684864	46	6798
2026-01-08 22:03:05.31	344.38	11.14	-37.7	-38.7	22.2	0.00e+00	0	34	0	1117782016	46	6980
2026-01-08 22:03:06.32	344.26	11.07	-37.4	-38.5	22.4	0.00e+00	0	34	0	1118830592	46	6785
2026-01-08 22:03:07.33	344.14	10.99	-37.6	-38.6	22.2	0.00e+00	0	33	0	1120927744	46	6914
2026-01-08 22:03:08.34	344.03	10.92	-37.7	-38.8	22.1	0.00e+00	0	34	0	1123024896	46	7056
2026-01-08 22:03:09.35	343.91	10.85	-38.1	-39.3	21.7	0.00e+00	0	34	0	1125122048	48	6634
2026-01-08 22:03:10.35	343.79	10.79	-38.1	-39.2	21.7	0.00e+00	73	34	0	1127219200	48	6610
2026-01-08 22:03:11.36	343.67	10.72	-38.3	-39.4	21.5	0.00e+00	0	34	0	1129316352	48	6763
2026-01-08 22:03:12.37	343.56	10.65	-38.5	-39.8	21.3	0.00e+00	0	34	0	1130364928	48	7012
2026-01-08 22:03:13.38	343.44	10.58	-38.4	-39.6	21.5	0.00e+00	0	34	0	1132462080	48	6861
2026-01-08 22:03:14.39	343.33	10.51	-38.5	-39.7	21.4	0.00e+00	0	34	0	1134559232	48	6942
2026-01-08 22:03:15.40	343.21	10.44	-38.5	-39.7	21.4	0.00e+00	0	33	0	1136656384	48	6938
2026-01-08 22:03:16.40	343.10	10.37	-38.2	-39.3	21.8	0.00e+00	0	34	0	1138753536	48	6631
2026-01-08 22:03:17.41	342.99	10.30	-37.9	-39.0	22.0	0.00e+00	91	34	0	1139802112	48	6396
2026-01-08 22:03:18.42	342.87	10.23	-37.8	-38.9	22.0	0.00e+00	0	34	0	1141899264	48	6362
2026-01-08 22:03:19.43	342.76	10.16	-37.6	-38.6	22.2	0.00e+00	77	34	0	1143996416	48	6137
2026-01-08 22:03:20.44	342.65	10.09	-37.5	-38.6	22.3	0.00e+00	0	34	0	1146093568	48	6109
2026-01-08 22:03:21.45	342.54	10.02	-37.5	-38.6	22.3	0.00e+00	0	34	0	1148190720	48	6116
2026-01-08 22:03:22.46	342.43	9.95	-37.4	-38.4	22.5	0.00e+00	57	34	0	1149239296	48	6012
2026-01-08 22:03:23.47	342.32	9.88	-37.4	-38.4	22.3	0.00e+00	0	34	0	1151336448	48	6011
2026-01-08 22:03:24.48	342.21	9.81	-37.6	-38.7	22.1	0.00e+00	34	34	0	1153433600	48	6200
2026-01-08 22:03:25.48	342.10	9.75	-37.6	-38.6	22.2	0.00e+00	0	34	0	1155530752	48	6171
2026-01-08 22:03:26.49	341.99	9.68	-38.0	-39.1	21.9	0.00e+00	81	34	0	1157627904	48	6483
2026-01-08 22:03:27.50	341.88	9.61	-38.0	-39.0	21.8	0.00e+00	0	34	0	1158676480	48	6464
2026-01-08 22:03:28.51	341.77	9.54	-38.2	-39.3	21.7	0.00e+00	0	34	0	1160773632	48	6642
2026-01-08 22:03:29.52	341.67	9.47	-38.1	-39.3	21.7	0.00e+00	0	34	0	1162870784	48	6629
2026-01-08 22:03:30.53	341.56	9.40	-38.4	-39.5	21.4	0.00e+00	0	34	0	1164967936	48	6848
2026-01-08 22:03:31.54	341.45	9.34	-38.3	-39.5	21.4	0.00e+00	65	34	0	1167065088	48	6806
2026-01-08 22:03:32.55	341.35	9.27	-38.3	-39.4	21.5	0.00e+00	0	34	0	1168113664	48	6766
2026-01-08 22:03:33.56	341.24	9.20	-38.2	-39.3	21.6	0.00e+00	85	34	0	1170210816	48	6686
2026-01-08 22:03:34.57	341.14	9.13	-38.3	-39.4	21.6	0.00e+00	0	34	0	1172307968	48	6740
2026-01-08 22:03:35.58	341.04	9.06	-38.4	-39.6	21.4	0.00e+00	0	34	0	1174405120	48	6876
2026-01-08 22:03:36.59	340.93	9.00	-38.0	-39.2	21.6	0.00e+00	0	34	0	1176502272	48	6546
2026-01-08 22:03:37.60	340.83	8.93	-38.1	-39.2	21.7	0.00e+00	0	34	0	1177550848	48	6577
2026-01-08 22:03:38.61	340.73	8.86	-38.1	-39.2	21.6	0.00e+00	7	34	0	1179648000	48	6559
2026-01-08 22:03:39.62	340.62	8.79	-38.1	-39.2	21.7	0.00e+00	0	34	0	1181745152	48	6553
2026-01-08 22:03:40.63	340.52	8.73	-38.0	-39.1	21.8	0.00e+00	67	34	0	1183842304	48	6471
2026-01-08 22:03:41.64	340.42	8.66	-38.0	-39.1	21.8	0.00e+00	0	34	0	1185939456	48	6478
2026-01-08 22:03:42.65	340.32	8.59	-38.3	-39.4	21.5	0.00e+00	0	34	0	1186988032	48	6732
2026-01-08 22:03:43.65	340.22	8.53	-38.3	-39.5	21.4	0.00e+00	0	34	0	1189085184	48	6798
2026-01-08 22:03:44.66	340.12	8.46	-38.4	-39.6	21.2	0.00e+00	0	34	0	1191182336	48	6892
2026-01-08 22:03:45.67	340.02	8.39	-38.4	-39.6	21.2	0.00e+00	68	34	0	1193279488	48	6901
2026-01-08 22:03:46.68	339.92	8.32	-38.4	-39.6	21.2	0.00e+00	0	34	0	1195376640	48	6888
2026-01-08 22:03:47.69	339.83	8.26	-38.6	-39.8	21.1	0.00e+00	59	34	0	1197473792	48	7071
2026-01-08 22:03:48.70	339.73	8.19	-38.9	-40.1	20.8	0.00e+00	0	34	0	1198522368	50	6533
2026-01-08 22:03:49.71	339.63	8.12	-39.2	-40.5	20.5	0.00e+00	36	34	0	1200619520	50	6818
2026-01-08 22:03:50.72	339.53	8.06	-39.2	-40.5	20.4	0.00e+00	0	34	0	1202716672	50	6796
2026-01-08 22:03:51.73	339.44	7.99	-39.5	-40.9	20.1	0.00e+00	0	34	0	1204813824	50	7127
