passes_logs/2026/01/08/R4.6S_Anadyr/R4.6S_Anadyr__20260108_191047_AQUA_rec.log

#Pass ID: 20260108_191047_AQUA
#Satellite: AQUA
#Configuration: AQUA
#almurnet v.1.7.20251203
#Start time: 2026-01-08 19:10:49

#Version: 2.2.20231116
#Station: R4.6S_Anadyr
#Location: 177.4865 lon 64.73178 lat
#TLE: 1 27424U 02022A   26004.96787593  .00001598  00000+0  32997-3 0  9996
#TLE: 2 27424  98.4069 331.2279 0002002  90.2377   0.6092 14.61798176259425

#Time	Az	El	Level	Level2	SNR	BER	BlckErr	Temp	State	Recorded	gain1	gain2
2026-01-08 19:10:49.60	28.46	0.12	-48.4	-63.3	3.5	1.51e+00	0	29	0	0	60	52617
2026-01-08 19:10:50.61	28.38	0.17	-48.7	-66.7	3.5	3.02e+01	0	31	104	0	60	82957
2026-01-08 19:10:51.62	28.31	0.22	-48.8	-66.6	3.5	3.02e+01	0	31	104	0	60	82374
2026-01-08 19:10:52.63	28.23	0.28	-48.8	-66.7	3.5	3.02e+01	0	31	104	0	60	82994
2026-01-08 19:10:53.64	28.16	0.33	-48.8	-66.7	3.5	3.02e+01	0	31	104	0	60	83144
2026-01-08 19:10:54.65	28.08	0.38	-48.8	-66.7	3.5	3.02e+01	0	31	104	0	60	82758
2026-01-08 19:10:55.66	28.01	0.44	-48.9	-66.7	3.5	3.02e+01	0	31	104	0	60	83430
2026-01-08 19:10:56.67	27.93	0.49	-48.8	-66.7	3.5	3.02e+01	0	31	104	0	60	83423
2026-01-08 19:10:57.68	27.85	0.54	-48.8	-66.7	3.5	3.02e+01	0	31	104	0	60	82841
2026-01-08 19:10:58.69	27.77	0.60	-48.7	-66.6	3.5	3.02e+01	0	31	104	0	60	82200
2026-01-08 19:10:59.70	27.70	0.65	-48.6	-66.5	3.5	3.02e+01	0	31	104	0	60	81439
2026-01-08 19:11:00.71	27.62	0.70	-48.5	-66.5	3.5	3.02e+01	0	31	104	0	60	80883
2026-01-08 19:11:01.72	27.54	0.76	-48.4	-66.3	3.5	3.02e+01	0	31	104	0	60	79162
2026-01-08 19:11:02.73	27.46	0.81	-48.1	-66.1	3.5	3.02e+01	0	31	104	0	60	77462
2026-01-08 19:11:03.74	27.38	0.87	-48.1	-65.9	3.5	3.02e+01	0	31	104	0	60	75855
2026-01-08 19:11:04.75	27.30	0.92	-47.8	-65.7	3.5	3.02e+01	0	31	104	0	60	74196
2026-01-08 19:11:05.75	27.22	0.97	-47.3	-65.2	3.5	3.02e+01	0	31	104	0	60	70392
2026-01-08 19:11:06.76	27.14	1.03	-47.2	-65.1	3.5	3.02e+01	0	31	104	0	60	69261
2026-01-08 19:11:07.77	27.06	1.08	-47.2	-65.1	3.5	3.02e+01	0	31	104	0	60	69212
2026-01-08 19:11:08.78	26.98	1.14	-47.2	-65.0	3.5	3.02e+01	0	31	104	0	60	68768
2026-01-08 19:11:09.79	26.90	1.19	-47.2	-65.1	3.5	3.02e+01	0	31	104	0	60	68909
2026-01-08 19:11:10.80	26.82	1.25	-47.2	-65.1	3.5	3.02e+01	0	31	104	0	60	68851
2026-01-08 19:11:11.81	26.74	1.30	-47.2	-65.1	3.5	3.02e+01	0	31	104	0	60	69050
2026-01-08 19:11:12.82	26.66	1.35	-47.2	-65.1	3.5	3.02e+01	0	31	104	0	60	68864
2026-01-08 19:11:13.83	26.57	1.41	-47.2	-65.0	3.5	3.02e+01	0	31	104	0	60	68796
2026-01-08 19:11:14.84	26.49	1.46	-47.2	-65.1	3.5	3.02e+01	0	31	104	0	60	69089
2026-01-08 19:11:15.85	26.41	1.52	-47.2	-65.0	3.5	3.02e+01	0	31	104	0	60	68547
2026-01-08 19:11:16.86	26.32	1.57	-47.2	-65.0	3.5	3.02e+01	0	31	104	0	60	68454
2026-01-08 19:11:17.86	26.24	1.63	-47.2	-65.1	3.5	3.02e+01	0	31	104	0	60	68852
2026-01-08 19:11:18.87	26.16	1.68	-47.2	-65.0	3.5	3.02e+01	0	31	104	0	60	68688
2026-01-08 19:11:19.88	26.07	1.74	-47.2	-65.0	3.5	3.02e+01	0	31	104	0	60	68807
2026-01-08 19:11:20.89	25.99	1.79	-47.1	-65.0	3.5	3.02e+01	0	31	104	0	60	68503
2026-01-08 19:11:21.91	25.90	1.85	-47.1	-65.0	3.5	3.02e+01	0	31	104	0	60	68313
2026-01-08 19:11:22.91	25.82	1.90	-47.1	-65.0	3.5	3.02e+01	0	31	104	0	60	68625
2026-01-08 19:11:23.92	25.73	1.96	-47.2	-65.0	3.5	3.02e+01	0	31	104	0	60	68272
2026-01-08 19:11:24.93	25.64	2.01	-47.1	-65.1	3.5	3.02e+01	0	31	104	0	60	68877
2026-01-08 19:11:25.94	25.56	2.07	-47.2	-65.1	3.5	3.02e+01	0	31	104	0	60	68979
2026-01-08 19:11:26.95	25.47	2.12	-47.2	-65.0	3.6	3.02e+01	0	31	104	0	60	68229
2026-01-08 19:11:27.96	25.38	2.18	-47.1	-65.0	3.5	3.02e+01	0	31	104	0	60	68379
2026-01-08 19:11:28.97	25.29	2.23	-47.1	-64.9	3.5	3.02e+01	0	31	104	0	60	67806
2026-01-08 19:11:29.99	25.21	2.29	-47.1	-64.9	3.5	3.02e+01	0	31	104	0	60	67467
2026-01-08 19:11:30.99	25.12	2.35	-47.1	-64.7	3.5	3.02e+01	0	31	104	0	60	66207
2026-01-08 19:11:32.00	25.03	2.40	-47.1	-64.7	3.5	3.02e+01	0	31	104	0	60	66414
2026-01-08 19:11:33.01	24.94	2.46	-47.1	-65.0	3.5	3.02e+01	0	31	104	0	60	68290
2026-01-08 19:11:34.02	24.85	2.51	-47.1	-65.1	3.5	3.02e+01	0	31	104	0	60	68843
2026-01-08 19:11:35.03	24.76	2.57	-47.1	-65.0	3.5	3.02e+01	0	31	104	0	60	68773
2026-01-08 19:11:36.04	24.67	2.62	-47.1	-64.9	3.5	3.02e+01	0	31	104	0	60	67637
2026-01-08 19:11:37.05	24.58	2.68	-47.1	-64.9	3.5	3.02e+01	0	31	104	0	60	67483
2026-01-08 19:11:38.06	24.49	2.74	-47.1	-64.9	3.5	3.02e+01	0	31	104	0	60	67879
2026-01-08 19:11:39.07	24.39	2.79	-47.1	-64.8	3.5	3.02e+01	0	31	104	0	60	67188
2026-01-08 19:11:40.08	24.30	2.85	-47.0	-64.4	3.5	3.02e+01	0	31	104	0	60	64100
2026-01-08 19:11:41.09	24.21	2.90	-47.0	-64.1	3.5	3.02e+01	0	31	104	0	60	61595
2026-01-08 19:11:42.10	24.12	2.96	-47.0	-64.4	3.5	3.02e+01	0	31	104	0	60	63558
2026-01-08 19:11:43.11	24.02	3.02	-47.1	-64.8	3.5	3.02e+01	0	31	104	0	60	66537
2026-01-08 19:11:44.12	23.93	3.07	-46.8	-63.2	3.5	3.02e+01	0	31	104	0	60	55570
2026-01-08 19:11:45.13	23.84	3.13	-46.0	-60.3	3.5	3.02e+01	0	31	104	0	60	40039
2026-01-08 19:11:46.13	23.74	3.19	-45.0	-58.1	3.5	3.02e+01	0	31	104	0	60	30958
2026-01-08 19:11:47.14	23.65	3.24	-44.1	-56.4	3.5	3.02e+01	0	31	104	0	60	25292
2026-01-08 19:11:48.15	23.55	3.30	-46.1	-60.6	3.5	3.02e+01	0	31	104	0	60	41123
2026-01-08 19:11:49.16	23.46	3.36	-39.9	-50.7	3.5	3.02e+01	0	31	104	0	56	16555
2026-01-08 19:11:50.17	23.36	3.41	-47.0	-64.7	3.5	3.02e+01	0	31	104	0	60	65837
2026-01-08 19:11:51.18	23.26	3.47	-46.5	-61.6	3.6	3.02e+01	0	31	104	0	60	46039
2026-01-08 19:11:52.18	23.17	3.53	-41.1	-52.1	3.5	3.02e+01	0	31	104	0	56	19509
2026-01-08 19:11:53.19	23.07	3.58	-39.7	-50.5	3.5	3.02e+01	0	31	104	0	54	18156
2026-01-08 19:11:54.20	22.97	3.64	-39.7	-50.4	3.5	3.02e+01	0	31	104	0	54	18097
2026-01-08 19:11:55.21	22.87	3.70	-39.4	-50.1	3.5	3.02e+01	0	31	104	0	54	17472
2026-01-08 19:11:56.22	22.77	3.75	-38.2	-48.7	3.5	3.02e+01	0	31	104	0	52	16570
2026-01-08 19:11:57.22	22.67	3.81	-37.5	-47.9	3.5	3.02e+01	0	31	104	0	50	17091
2026-01-08 19:11:58.23	22.58	3.87	-43.9	-56.1	3.5	3.02e+01	0	31	104	0	60	24522
2026-01-08 19:11:59.24	22.47	3.92	-47.2	-64.2	3.5	3.02e+01	0	31	104	0	60	62456
2026-01-08 19:12:00.25	22.37	3.98	-41.2	-52.1	3.5	3.02e+01	0	31	104	0	60	15552
2026-01-08 19:12:01.26	22.27	4.04	-47.2	-64.7	3.5	3.02e+01	0	31	104	0	60	66164
2026-01-08 19:12:02.27	22.17	4.10	-43.9	-55.9	3.5	3.02e+01	0	31	104	0	60	23872
2026-01-08 19:12:03.28	22.07	4.15	-42.5	-53.8	3.5	3.02e+01	0	31	104	0	60	18854
2026-01-08 19:12:04.29	21.97	4.21	-41.4	-52.4	3.6	3.02e+01	0	31	104	0	58	18079
2026-01-08 19:12:05.30	21.86	4.27	-41.4	-52.4	3.5	3.02e+01	0	31	104	0	58	18065
2026-01-08 19:12:06.30	21.76	4.33	-47.0	-63.3	3.5	3.02e+01	0	31	104	0	60	56057
2026-01-08 19:12:07.31	21.66	4.38	-38.5	-49.0	3.5	3.02e+01	0	31	104	0	52	17129
2026-01-08 19:12:08.32	21.55	4.44	-47.3	-65.0	3.5	3.02e+01	0	31	104	0	60	68235
2026-01-08 19:12:09.33	21.45	4.50	-43.3	-54.9	3.6	3.02e+01	0	31	104	0	60	21510
2026-01-08 19:12:10.34	21.34	4.56	-39.5	-50.1	3.6	3.02e+01	0	31	104	0	54	17472
2026-01-08 19:12:11.35	21.24	4.62	-38.7	-49.3	3.5	3.02e+01	0	31	104	0	52	17869
2026-01-08 19:12:12.36	21.13	4.67	-38.6	-49.2	3.5	3.02e+01	0	31	104	0	52	17601
2026-01-08 19:12:13.37	21.03	4.73	-37.9	-48.4	3.5	3.02e+01	0	31	104	0	52	16029
2026-01-08 19:12:14.38	20.92	4.79	-37.5	-47.9	3.6	3.02e+01	0	31	104	0	50	16903
2026-01-08 19:12:15.39	20.81	4.85	-37.7	-48.1	3.5	3.02e+01	0	31	104	0	48	19509
2026-01-08 19:12:16.39	20.70	4.91	-41.6	-52.7	3.5	3.02e+01	0	31	104	0	60	16582
2026-01-08 19:12:17.40	20.60	4.96	-45.2	-58.0	3.6	3.02e+01	0	31	104	0	60	30742
2026-01-08 19:12:18.41	20.49	5.02	-38.5	-49.1	3.5	3.02e+01	0	31	104	0	50	19423
2026-01-08 19:12:19.42	20.38	5.08	-47.5	-65.2	3.5	3.02e+01	0	31	104	0	60	70263
2026-01-08 19:12:20.43	20.27	5.14	-38.4	-48.9	3.5	3.02e+01	0	31	104	0	52	16900
2026-01-08 19:12:21.44	20.16	5.20	-38.2	-48.7	3.5	3.02e+01	0	31	104	0	52	16515
2026-01-08 19:12:22.45	20.04	5.26	-37.4	-47.8	3.5	3.02e+01	0	31	104	0	50	16747
2026-01-08 19:12:23.46	19.93	5.31	-37.5	-47.8	3.6	3.02e+01	0	31	104	0	50	16884
2026-01-08 19:12:24.47	19.82	5.37	-42.0	-53.2	3.5	3.02e+01	0	31	104	0	60	17650
2026-01-08 19:12:25.47	19.71	5.43	-39.0	-49.5	3.2	3.02e+01	0	31	104	0	52	18255
2026-01-08 19:12:26.48	19.60	5.49	-47.4	-64.8	3.5	3.02e+01	0	31	104	0	60	67066
2026-01-08 19:12:27.49	19.48	5.55	-43.5	-55.1	3.6	3.02e+01	0	31	104	0	60	21887
2026-01-08 19:12:28.50	19.37	5.61	-42.3	-53.5	3.5	3.02e+01	0	31	104	0	58	20546
2026-01-08 19:12:29.51	19.25	5.67	-41.6	-52.6	3.5	3.02e+01	0	31	104	0	58	18445
2026-01-08 19:12:30.52	19.14	5.72	-41.5	-52.5	3.5	3.02e+01	0	31	104	0	58	18158
2026-01-08 19:12:31.53	19.02	5.78	-41.4	-52.3	3.5	3.02e+01	0	31	104	0	58	17779
2026-01-08 19:12:32.54	18.91	5.84	-40.3	-51.0	3.5	3.02e+01	0	31	104	0	56	17156
2026-01-08 19:12:33.55	18.79	5.90	-40.7	-51.5	3.5	3.02e+01	0	31	104	0	54	20465
2026-01-08 19:12:34.56	18.67	5.96	-43.1	-54.6	3.6	3.02e+01	0	31	104	0	56	25926
2026-01-08 19:12:35.57	18.56	6.02	-42.1	-53.3	3.6	3.02e+01	0	31	104	0	60	17823
2026-01-08 19:12:36.58	18.44	6.08	-44.6	-56.8	3.4	3.02e+01	0	31	104	0	54	37413
2026-01-08 19:12:37.59	18.32	6.14	-46.7	-61.6	3.6	3.02e+01	0	31	104	0	60	46530
2026-01-08 19:12:38.60	18.20	6.20	-41.2	-52.1	3.5	3.02e+01	0	31	104	0	56	19421
2026-01-08 19:12:39.60	18.08	6.26	-39.7	-50.3	3.5	3.02e+01	0	31	104	0	56	15917
2026-01-08 19:12:40.61	17.96	6.31	-38.6	-49.0	3.6	3.02e+01	0	31	104	0	52	17289
2026-01-08 19:12:41.62	17.84	6.37	-43.2	-54.8	3.5	3.02e+01	0	31	104	0	56	26695
2026-01-08 19:12:42.63	17.72	6.43	-43.1	-54.6	3.5	3.02e+01	0	31	104	0	60	20745
2026-01-08 19:12:43.64	17.60	6.49	-45.8	-59.0	3.5	3.02e+01	0	31	104	0	56	43212
2026-01-08 19:12:44.65	17.47	6.55	-47.3	-63.4	3.5	3.02e+01	0	31	104	0	60	56926
2026-01-08 19:12:45.66	17.35	6.61	-37.7	-48.1	3.6	3.02e+01	0	32	104	0	52	15507
2026-01-08 19:12:46.67	17.23	6.67	-37.6	-48.0	3.5	3.02e+01	0	31	104	0	50	17167
2026-01-08 19:12:47.67	17.10	6.73	-36.9	-47.2	3.4	3.02e+01	0	31	104	0	50	15670
2026-01-08 19:12:48.68	16.98	6.79	-36.4	-46.6	3.5	3.02e+01	0	31	104	0	48	16476
2026-01-08 19:12:49.69	16.85	6.85	-36.3	-46.6	3.5	3.02e+01	0	31	104	0	48	16419
2026-01-08 19:12:50.70	16.73	6.91	-37.8	-48.2	3.5	3.02e+01	0	31	104	0	48	19738
2026-01-08 19:12:51.71	16.60	6.97	-41.3	-52.2	3.5	3.02e+01	0	31	104	0	54	22208
2026-01-08 19:12:52.72	16.47	7.03	-46.8	-61.7	3.5	3.02e+01	0	32	104	0	60	46611
2026-01-08 19:12:53.73	16.34	7.09	-43.5	-55.1	3.5	3.02e+01	0	32	104	0	60	21950
2026-01-08 19:12:54.73	16.22	7.15	-47.6	-64.6	3.5	3.02e+01	0	31	104	0	60	65687
2026-01-08 19:12:55.75	16.09	7.21	-45.7	-58.8	3.5	3.02e+01	0	32	104	0	60	33683
2026-01-08 19:12:56.75	15.96	7.27	-43.9	-55.7	3.5	3.02e+01	0	31	104	0	60	23441
2026-01-08 19:12:57.77	15.83	7.33	-43.8	-55.5	3.5	3.02e+01	0	31	104	0	60	22886
2026-01-08 19:12:58.77	15.70	7.39	-43.4	-54.8	3.5	3.02e+01	0	31	104	0	60	21184
2026-01-08 19:12:59.78	15.57	7.44	-46.9	-61.6	3.5	3.02e+01	0	31	104	0	60	46401
2026-01-08 19:13:00.79	15.43	7.50	-47.8	-65.7	3.5	3.02e+01	0	32	104	0	60	74045
2026-01-08 19:13:01.80	15.30	7.56	-41.1	-52.0	3.5	3.02e+01	0	31	104	0	56	19333
2026-01-08 19:13:02.81	15.17	7.62	-36.5	-46.8	3.5	3.02e+01	0	31	104	0	46	18936
2026-01-08 19:13:03.81	15.04	7.68	-47.7	-65.2	3.5	3.02e+01	0	32	104	0	60	69725
2026-01-08 19:13:04.82	14.90	7.74	-38.6	-49.1	3.6	3.02e+01	0	32	104	0	56	13834
2026-01-08 19:13:05.83	14.77	7.80	-36.9	-47.3	3.5	3.02e+01	0	31	104	0	48	17699
2026-01-08 19:13:06.84	14.63	7.86	-36.1	-46.4	3.6	3.02e+01	0	32	104	0	48	16072
2026-01-08 19:13:07.85	14.49	7.92	-36.2	-46.4	3.5	3.02e+01	0	31	104	0	48	16129
2026-01-08 19:13:08.86	14.36	7.98	-44.8	-57.1	3.5	3.02e+01	0	32	104	0	60	27539
2026-01-08 19:13:09.87	14.22	8.04	-41.1	-51.8	3.6	3.02e+01	0	32	104	0	54	21267
2026-01-08 19:13:10.88	14.08	8.10	-47.9	-65.5	3.5	3.02e+01	0	31	104	0	60	72775
2026-01-08 19:13:11.88	13.94	8.16	-40.0	-50.6	3.5	3.02e+01	0	32	104	0	56	16442
2026-01-08 19:13:12.89	13.80	8.22	-47.7	-64.7	3.5	3.02e+01	0	32	104	0	60	66327
2026-01-08 19:13:13.90	13.66	8.28	-38.4	-48.9	3.5	3.02e+01	0	32	104	0	52	16922
2026-01-08 19:13:14.91	13.52	8.34	-37.5	-47.9	3.5	3.02e+01	0	32	104	0	50	16901
2026-01-08 19:13:15.92	13.38	8.40	-37.5	-47.8	3.5	3.02e+01	0	31	104	0	50	16790
2026-01-08 19:13:16.93	13.24	8.46	-36.5	-46.8	3.5	3.02e+01	0	32	104	0	48	16861
2026-01-08 19:13:17.94	13.10	8.52	-46.6	-61.0	3.5	3.02e+01	0	32	104	0	60	43035
2026-01-08 19:13:18.95	12.95	8.58	-40.3	-51.0	3.5	3.02e+01	0	32	104	0	56	17146
2026-01-08 19:13:19.96	12.81	8.64	-47.7	-64.6	3.5	3.02e+01	0	32	104	0	60	65198
2026-01-08 19:13:20.97	12.66	8.70	-48.0	-65.7	3.5	3.02e+01	0	32	104	0	60	74522
2026-01-08 19:13:21.97	12.52	8.76	-40.8	-51.6	3.5	3.02e+01	0	31	104	0	54	20628
2026-01-08 19:13:22.99	12.37	8.82	-40.7	-51.6	3.5	3.02e+01	0	32	104	0	56	18333
2026-01-08 19:13:23.99	12.23	8.88	-41.1	-52.0	3.5	3.02e+01	0	32	104	0	56	19372
2026-01-08 19:13:25.00	12.08	8.94	-41.4	-52.2	3.5	3.02e+01	0	31	104	0	56	19841
2026-01-08 19:13:26.01	11.93	9.00	-40.9	-51.7	3.5	3.02e+01	0	32	104	0	56	18629
2026-01-08 19:13:27.02	11.78	9.06	-40.0	-50.6	3.5	3.02e+01	0	31	104	0	56	16461
2026-01-08 19:13:28.03	11.63	9.12	-42.4	-53.7	3.5	3.02e+01	0	32	104	0	58	20873
2026-01-08 19:13:29.03	11.49	9.18	-48.0	-65.8	3.5	3.02e+01	0	32	104	0	60	75329
2026-01-08 19:13:30.04	11.34	9.24	-39.4	-50.0	3.5	3.02e+01	0	32	104	0	54	17241
2026-01-08 19:13:31.05	11.18	9.30	-47.7	-64.6	3.5	3.02e+01	0	32	104	0	60	65162
2026-01-08 19:13:32.06	11.03	9.36	-37.7	-48.1	3.6	3.02e+01	0	31	104	0	52	15506
2026-01-08 19:13:33.07	10.88	9.42	-37.3	-47.6	3.5	3.02e+01	0	32	104	0	50	16453
2026-01-08 19:13:34.08	10.73	9.48	-37.3	-47.6	3.5	3.02e+01	0	31	104	0	50	16406
2026-01-08 19:13:35.09	10.57	9.54	-37.1	-47.5	3.5	3.02e+01	0	31	104	0	50	16172
2026-01-08 19:13:36.10	10.42	9.60	-47.9	-65.1	3.5	3.02e+01	0	31	104	0	60	69200
2026-01-08 19:13:37.11	10.26	9.66	-38.9	-49.4	3.5	3.02e+01	0	32	104	0	54	16119
2026-01-08 19:13:38.12	10.11	9.72	-47.7	-64.4	3.6	3.02e+01	0	31	104	0	60	63536
2026-01-08 19:13:39.13	9.95	9.78	-47.2	-62.1	3.5	3.02e+01	0	32	104	0	60	49273
2026-01-08 19:13:40.14	9.79	9.84	-37.9	-48.3	3.5	3.02e+01	0	31	104	0	48	19877
2026-01-08 19:13:41.15	9.63	9.90	-36.7	-46.9	3.5	3.02e+01	0	32	104	0	48	17066
2026-01-08 19:13:42.15	9.47	9.96	-36.2	-46.5	3.5	3.02e+01	0	31	104	0	48	16222
2026-01-08 19:13:43.17	9.31	10.02	-35.5	-45.7	3.5	3.02e+01	0	31	104	0	46	16659
2026-01-08 19:13:44.18	9.15	10.08	-35.4	-45.6	3.5	3.02e+01	0	32	104	0	46	16501
2026-01-08 19:13:45.18	8.99	10.14	-36.2	-46.5	3.5	3.02e+01	0	32	104	0	46	18182
2026-01-08 19:13:46.19	8.83	10.19	-38.2	-48.6	3.5	3.02e+01	0	32	104	0	52	16427
2026-01-08 19:13:47.20	8.67	10.25	-47.7	-64.0	3.5	3.02e+01	0	32	104	0	60	60803
2026-01-08 19:13:48.21	8.50	10.31	-47.7	-63.7	3.5	3.02e+01	0	32	104	0	60	59236
2026-01-08 19:13:49.22	8.34	10.37	-41.6	-52.5	3.5	3.02e+01	0	32	104	0	58	18239
2026-01-08 19:13:50.23	8.18	10.43	-39.9	-50.4	3.5	3.02e+01	0	32	104	0	54	18047
2026-01-08 19:13:51.24	8.01	10.49	-40.2	-50.8	3.5	3.02e+01	0	32	104	0	54	18928
2026-01-08 19:13:52.25	7.84	10.55	-41.2	-52.0	3.6	3.02e+01	0	32	104	0	54	21657
2026-01-08 19:13:53.26	7.68	10.61	-41.8	-52.8	3.5	3.02e+01	0	32	104	0	56	21041
2026-01-08 19:13:54.27	7.51	10.67	-43.2	-54.5	3.5	3.02e+01	0	32	104	0	60	20356
2026-01-08 19:13:55.28	7.34	10.73	-41.1	-51.9	3.5	3.02e+01	0	32	104	0	58	16964
2026-01-08 19:13:56.29	7.17	10.79	-46.9	-61.4	3.5	3.02e+01	0	32	104	0	60	44970
2026-01-08 19:13:57.29	7.00	10.84	-36.4	-46.7	3.5	3.02e+01	0	32	104	0	48	16581
2026-01-08 19:13:58.30	6.83	10.90	-47.6	-63.9	3.5	3.02e+01	0	32	104	0	60	60378
2026-01-08 19:13:59.31	6.66	10.96	-36.9	-47.2	3.5	3.02e+01	0	32	104	0	48	17608
2026-01-08 19:14:00.32	6.49	11.02	-37.0	-47.3	3.5	3.02e+01	0	31	104	0	48	17842
2026-01-08 19:14:01.33	6.31	11.08	-37.0	-47.2	3.5	3.02e+01	0	32	104	0	48	17691
2026-01-08 19:14:02.34	6.14	11.14	-38.0	-48.4	3.5	3.02e+01	0	32	104	0	48	20142
2026-01-08 19:14:03.35	5.97	11.19	-46.4	-60.0	3.5	3.02e+01	0	32	104	0	60	38474
2026-01-08 19:14:04.35	5.79	11.25	-36.4	-46.7	3.5	3.02e+01	0	32	104	0	48	16554
2026-01-08 19:14:05.36	5.62	11.31	-47.9	-64.9	3.5	3.02e+01	0	32	104	0	60	67485
2026-01-08 19:14:06.38	5.44	11.37	-39.8	-50.4	3.4	3.02e+01	0	32	104	0	60	12752
2026-01-08 19:14:07.38	5.26	11.42	-37.7	-48.1	3.5	3.02e+01	0	32	104	0	50	17346
2026-01-08 19:14:08.39	5.08	11.48	-36.4	-46.7	3.5	3.02e+01	0	32	104	0	48	16582
2026-01-08 19:14:09.40	4.90	11.54	-36.6	-46.9	3.5	3.02e+01	0	32	104	0	48	17003
2026-01-08 19:14:10.41	4.72	11.60	-35.8	-46.1	3.5	3.02e+01	0	32	104	0	46	17370
2026-01-08 19:14:11.42	4.54	11.65	-35.6	-45.9	3.5	3.02e+01	0	32	104	0	46	16925
2026-01-08 19:14:12.43	4.36	11.71	-37.3	-47.6	3.5	3.02e+01	0	32	104	0	46	20723
2026-01-08 19:14:13.44	4.18	11.77	-40.0	-50.6	3.5	3.02e+01	0	32	104	0	56	16411
2026-01-08 19:14:14.45	4.00	11.83	-43.7	-55.3	3.5	3.02e+01	0	32	104	0	60	22508
2026-01-08 19:14:15.45	3.81	11.88	-39.5	-50.1	3.5	3.02e+01	0	32	104	0	50	21868
2026-01-08 19:14:16.46	3.63	11.94	-47.9	-64.7	3.5	3.02e+01	0	32	104	0	60	66359
2026-01-08 19:14:17.47	3.44	11.99	-42.0	-52.9	3.5	3.02e+01	0	32	104	0	58	19092
2026-01-08 19:14:18.48	3.26	12.05	-41.5	-52.3	3.5	3.02e+01	0	32	104	0	58	17867
2026-01-08 19:14:19.49	3.07	12.11	-41.5	-52.3	3.5	3.02e+01	0	32	104	0	58	17747
2026-01-08 19:14:20.50	2.88	12.16	-45.8	-58.6	3.5	3.02e+01	0	32	104	0	60	32618
2026-01-08 19:14:21.51	2.69	12.22	-48.2	-66.0	3.5	3.02e+01	0	32	104	0	60	76369
2026-01-08 19:14:22.52	2.51	12.28	-41.5	-52.3	3.6	3.02e+01	0	32	104	0	60	15918
2026-01-08 19:14:23.53	2.32	12.33	-37.1	-47.5	3.6	3.02e+01	0	32	104	0	52	14387
2026-01-08 19:14:24.54	2.12	12.39	-39.1	-49.5	3.4	3.02e+01	0	32	104	0	46	25830
2026-01-08 19:14:25.55	1.93	12.44	-47.4	-62.7	3.5	3.02e+01	0	32	104	0	60	52554
2026-01-08 19:14:26.55	1.74	12.50	-36.5	-46.8	3.5	3.02e+01	0	32	104	0	48	16794
2026-01-08 19:14:27.56	1.55	12.55	-36.2	-46.4	3.5	3.02e+01	0	32	104	0	46	17989
2026-01-08 19:14:28.57	1.36	12.61	-36.0	-46.3	3.5	3.02e+01	0	32	104	0	46	17720
2026-01-08 19:14:29.58	1.16	12.66	-39.2	-49.7	3.5	3.02e+01	0	32	104	0	46	26378
2026-01-08 19:14:30.59	0.96	12.72	-36.2	-46.4	3.5	3.02e+01	0	32	104	0	46	17942
2026-01-08 19:14:31.59	0.77	12.77	-42.5	-53.6	3.6	3.02e+01	0	32	104	0	56	23233
2026-01-08 19:14:32.60	0.57	12.82	-37.9	-48.3	3.3	3.02e+01	0	32	104	0	54	14200
2026-01-08 19:14:33.62	0.37	12.88	-46.7	-60.5	3.4	3.02e+01	0	32	104	0	56	51114
2026-01-08 19:14:34.63	0.17	12.93	-41.9	-52.8	3.5	3.02e+01	0	32	104	0	60	16712
2026-01-08 19:14:35.63	359.98	12.99	-35.7	-46.0	3.5	3.02e+01	0	32	104	0	46	17119
2026-01-08 19:14:36.64	359.78	13.04	-35.5	-45.8	3.6	3.02e+01	0	32	104	0	46	16740
2026-01-08 19:14:37.65	359.58	13.09	-35.7	-45.8	3.5	3.02e+01	0	32	104	0	46	16880
2026-01-08 19:14:38.66	359.37	13.15	-45.3	-57.8	3.5	3.02e+01	0	32	104	0	58	33544
2026-01-08 19:14:39.67	359.17	13.20	-37.8	-48.2	3.5	3.02e+01	0	32	104	0	52	15668
2026-01-08 19:14:40.68	358.97	13.25	-47.5	-62.7	3.5	3.02e+01	0	32	104	0	58	59193
2026-01-08 19:14:41.69	358.76	13.30	-47.8	-64.0	3.5	3.02e+01	0	32	104	0	60	61070
2026-01-08 19:14:42.70	358.56	13.36	-39.5	-50.0	3.5	3.02e+01	0	32	104	0	54	17287
2026-01-08 19:14:43.71	358.35	13.41	-40.7	-51.4	3.5	3.02e+01	0	32	104	0	56	18011
2026-01-08 19:14:44.72	358.15	13.46	-40.4	-51.0	3.5	3.02e+01	0	32	104	0	56	17209
2026-01-08 19:14:45.73	357.94	13.51	-40.9	-51.6	3.5	3.02e+01	0	32	104	0	56	18379
2026-01-08 19:14:46.73	357.73	13.56	-41.7	-52.6	3.5	3.02e+01	0	32	104	0	56	20590
2026-01-08 19:14:47.74	357.52	13.61	-40.0	-50.5	3.5	3.02e+01	0	32	104	0	54	18274
2026-01-08 19:14:48.75	357.31	13.66	-41.3	-52.0	3.4	3.02e+01	0	32	104	0	54	21742
2026-01-08 19:14:49.76	357.10	13.71	-43.1	-54.4	3.5	3.02e+01	0	32	104	0	56	25469
2026-01-08 19:14:50.77	356.89	13.76	-39.0	-49.4	3.5	3.02e+01	0	32	104	0	52	18097
2026-01-08 19:14:51.78	356.68	13.81	-48.1	-65.3	3.5	3.02e+01	0	32	104	0	60	70755
2026-01-08 19:14:52.79	356.47	13.86	-38.6	-49.1	3.6	3.02e+01	0	32	104	0	54	15422
2026-01-08 19:14:53.80	356.25	13.91	-37.0	-47.3	3.5	3.02e+01	0	32	104	0	48	17761
2026-01-08 19:14:54.81	356.04	13.96	-36.5	-46.8	3.5	3.02e+01	0	32	104	0	48	16802
2026-01-08 19:14:55.82	355.82	14.01	-35.8	-46.1	3.5	3.02e+01	0	32	104	0	46	17351
2026-01-08 19:14:56.83	355.61	14.06	-42.1	-53.1	3.5	3.02e+01	0	32	104	0	56	21979
2026-01-08 19:14:57.84	355.39	14.11	-38.3	-48.6	3.5	3.02e+01	0	32	104	0	52	16440
2026-01-08 19:14:58.85	355.17	14.16	-48.0	-65.0	3.5	3.02e+01	0	32	104	0	60	68452
2026-01-08 19:14:59.86	354.95	14.21	-44.0	-55.8	3.5	3.02e+01	0	32	104	0	60	23629
2026-01-08 19:15:00.87	354.73	14.25	-40.0	-50.6	3.4	3.02e+01	0	32	104	0	52	20632
2026-01-08 19:15:01.88	354.51	14.30	-35.8	-46.0	3.5	3.02e+01	0	32	104	0	48	15369
2026-01-08 19:15:02.89	354.29	14.35	-35.5	-45.7	3.5	3.02e+01	0	32	104	0	46	16523
2026-01-08 19:15:03.90	354.07	14.39	-35.4	-45.6	3.5	3.02e+01	0	32	104	0	46	16491
2026-01-08 19:15:04.91	353.85	14.44	-35.4	-45.5	3.5	3.02e+01	0	32	104	0	46	16321
2026-01-08 19:15:05.91	353.63	14.49	-38.7	-49.3	3.5	3.02e+01	0	32	104	0	50	19890
2026-01-08 19:15:06.92	353.41	14.53	-37.8	-48.1	3.5	3.02e+01	0	32	104	0	50	17457
2026-01-08 19:15:07.93	353.18	14.58	-48.1	-65.1	3.5	3.02e+01	0	32	104	0	60	69280
2026-01-08 19:15:08.94	352.96	14.62	-45.2	-57.6	3.5	3.02e+01	0	32	104	0	60	29129
2026-01-08 19:15:09.95	352.73	14.67	-44.6	-56.4	3.5	3.02e+01	0	32	104	0	60	25554
2026-01-08 19:15:10.96	352.50	14.71	-40.4	-51.0	3.5	3.02e+01	0	32	104	0	56	17158
2026-01-08 19:15:11.97	352.28	14.76	-38.9	-49.4	3.6	3.02e+01	0	32	104	0	54	16024
2026-01-08 19:15:12.98	352.05	14.80	-37.5	-47.9	3.5	3.02e+01	0	32	104	0	50	16916
2026-01-08 19:15:13.99	351.82	14.84	-36.8	-47.1	3.5	3.02e+01	0	32	104	0	48	17470
2026-01-08 19:15:15.00	351.59	14.89	-35.6	-45.8	3.6	3.02e+01	0	32	104	0	46	16802
2026-01-08 19:15:16.01	351.36	14.93	-45.7	-58.4	3.5	3.02e+01	0	32	104	0	60	31938
2026-01-08 19:15:17.02	351.13	14.97	-44.9	-57.1	3.5	3.02e+01	0	32	104	0	60	27513
2026-01-08 19:15:18.02	350.90	15.01	-38.7	-49.1	3.5	3.02e+01	0	32	104	0	50	19403
2026-01-08 19:15:19.03	350.67	15.05	-48.1	-65.2	3.5	3.02e+01	0	32	104	0	60	70411
2026-01-08 19:15:20.04	350.44	15.09	-36.2	-46.4	3.5	3.02e+01	0	32	104	0	48	15991
2026-01-08 19:15:21.05	350.20	15.14	-35.7	-45.9	3.5	3.02e+01	0	32	104	0	46	17058
2026-01-08 19:15:22.06	349.97	15.18	-35.6	-45.8	3.5	3.02e+01	0	32	104	0	46	16837
2026-01-08 19:15:23.07	349.73	15.22	-35.4	-45.6	3.5	3.02e+01	0	32	104	0	46	16361
2026-01-08 19:15:24.08	349.50	15.26	-47.3	-62.0	3.5	3.02e+01	0	32	104	0	60	48679
2026-01-08 19:15:25.09	349.26	15.30	-37.3	-47.6	3.3	3.02e+01	0	32	104	0	52	14645
2026-01-08 19:15:26.09	349.03	15.33	-48.2	-65.4	3.5	3.02e+01	0	32	104	0	60	71894
2026-01-08 19:15:27.10	348.79	15.37	-42.2	-53.2	3.6	3.02e+01	0	32	104	0	58	19850
2026-01-08 19:15:28.11	348.55	15.41	-43.1	-54.5	3.5	3.02e+01	0	32	104	0	58	22866
2026-01-08 19:15:29.12	348.31	15.45	-37.8	-48.2	3.5	3.02e+01	0	32	104	0	50	17651
2026-01-08 19:15:30.14	348.07	15.49	-37.5	-47.8	3.5	3.02e+01	0	32	104	0	50	16769
2026-01-08 19:15:31.15	347.83	15.52	-37.4	-47.7	3.5	3.02e+01	0	32	104	0	50	16580
2026-01-08 19:15:32.15	347.59	15.56	-36.7	-47.0	3.5	3.02e+01	0	32	104	0	48	17157
2026-01-08 19:15:33.16	347.35	15.59	-36.0	-46.3	3.5	3.02e+01	0	32	104	0	46	17771
2026-01-08 19:15:34.17	347.11	15.63	-37.2	-47.5	3.5	3.02e+01	0	32	104	0	50	16180
2026-01-08 19:15:35.18	346.86	15.66	-48.2	-65.6	3.5	3.02e+01	0	32	104	0	60	73002
2026-01-08 19:15:36.19	346.62	15.70	-41.8	-52.7	3.5	3.02e+01	0	32	104	0	60	16634
2026-01-08 19:15:37.20	346.38	15.73	-45.7	-58.3	3.5	3.02e+01	0	32	104	0	60	31730
2026-01-08 19:15:38.21	346.13	15.77	-38.2	-48.6	3.5	3.02e+01	0	32	104	0	52	16396
2026-01-08 19:15:39.22	345.89	15.80	-37.5	-47.8	3.6	3.02e+01	0	32	104	0	50	16880
2026-01-08 19:15:40.23	345.64	15.83	-37.7	-48.0	3.5	3.02e+01	0	32	104	0	50	17236
2026-01-08 19:15:41.24	345.39	15.87	-37.4	-47.7	3.5	3.02e+01	0	32	104	0	50	16679
2026-01-08 19:15:42.25	345.15	15.90	-41.9	-52.8	3.6	3.02e+01	0	32	104	0	60	16832
2026-01-08 19:15:43.25	344.90	15.93	-37.0	-47.2	3.5	3.02e+01	0	32	104	0	50	15763
2026-01-08 19:15:44.27	344.65	15.96	-48.3	-65.9	3.5	3.02e+01	0	32	104	0	60	75621
2026-01-08 19:15:45.28	344.40	15.99	-39.3	-49.7	3.5	3.02e+01	0	32	104	0	56	14884
2026-01-08 19:15:46.28	344.15	16.02	-45.0	-57.3	3.5	3.02e+01	0	32	104	0	60	28119
2026-01-08 19:15:47.29	343.91	16.05	-38.0	-48.4	3.5	3.02e+01	0	32	104	0	52	16008
2026-01-08 19:15:48.29	343.66	16.08	-37.4	-47.7	3.5	3.02e+01	0	32	104	0	50	16640
2026-01-08 19:15:49.30	343.41	16.11	-36.2	-46.5	3.5	3.02e+01	0	32	104	0	48	16214
2026-01-08 19:15:50.31	343.16	16.14	-35.5	-45.7	3.5	3.02e+01	0	32	104	0	46	16673
2026-01-08 19:15:51.32	342.90	16.16	-37.0	-47.2	3.5	3.02e+01	0	32	104	0	50	15746
2026-01-08 19:15:52.33	342.65	16.19	-35.6	-45.8	3.5	3.02e+01	0	32	104	0	48	14972
2026-01-08 19:15:53.34	342.40	16.22	-48.2	-65.3	3.5	3.02e+01	0	32	104	0	60	71121
2026-01-08 19:15:54.35	342.14	16.24	-38.2	-48.6	3.5	3.02e+01	0	32	104	0	54	14657
2026-01-08 19:15:55.36	341.89	16.27	-44.5	-56.5	3.5	3.02e+01	0	32	104	0	60	25869
2026-01-08 19:15:56.36	341.64	16.29	-37.9	-48.3	3.5	3.02e+01	0	32	104	0	52	15837
2026-01-08 19:15:57.38	341.38	16.32	-36.8	-47.1	3.6	3.02e+01	0	32	104	0	48	17321
2026-01-08 19:15:58.39	341.13	16.34	-36.3	-46.5	3.6	3.02e+01	0	32	104	0	48	16161
2026-01-08 19:15:59.40	340.87	16.37	-35.4	-45.5	3.4	3.02e+01	0	32	104	0	46	16203
2026-01-08 19:16:00.41	340.62	16.39	-36.6	-38.2	24.0	3.02e+01	1	32	104	0	50	5549
2026-01-08 19:16:01.42	340.36	16.41	-35.3	-36.6	28.1	3.02e+01	0	32	0	524288	44	6532
2026-01-08 19:16:02.42	340.10	16.43	-46.4	-52.1	14.4	3.02e+01	3	32	104	1048576	60	15460
2026-01-08 19:16:03.43	339.85	16.45	-36.6	-37.9	27.0	3.02e+01	0	32	0	1572864	50	5387
2026-01-08 19:16:04.44	339.59	16.48	-42.1	-44.2	22.0	3.02e+01	0	32	0	3670016	60	6242
2026-01-08 19:16:05.45	339.33	16.50	-37.3	-38.7	26.7	3.02e+01	0	32	0	5767168	50	5867
2026-01-08 19:16:06.46	339.07	16.52	-37.0	-38.3	27.1	3.02e+01	0	32	0	7340032	50	5655
2026-01-08 19:16:07.47	338.81	16.54	-36.3	-37.6	27.8	3.02e+01	0	32	0	9437184	48	5804
2026-01-08 19:16:08.48	338.56	16.55	-36.0	-37.3	28.0	3.02e+01	0	32	0	11010048	48	5621
2026-01-08 19:16:09.49	338.30	16.57	-36.2	-37.5	27.9	3.02e+01	0	32	0	13107200	46	6452
2026-01-08 19:16:10.49	338.04	16.59	-35.9	-37.2	27.9	3.02e+01	0	32	0	15204352	46	6261
2026-01-08 19:16:11.50	337.78	16.61	-36.2	-37.5	27.9	3.02e+01	0	32	0	16777216	46	6488
2026-01-08 19:16:12.51	337.52	16.62	-36.4	-37.7	27.8	3.02e+01	0	32	0	18874368	46	6615
2026-01-08 19:16:13.52	337.26	16.64	-36.1	-37.4	27.8	3.02e+01	0	32	0	20971520	46	6351
2026-01-08 19:16:14.53	337.00	16.65	-35.9	-37.2	28.0	3.02e+01	0	32	0	22544384	46	6260
2026-01-08 19:16:15.54	336.74	16.67	-36.0	-37.3	28.4	3.02e+01	0	32	0	24641536	46	6304
2026-01-08 19:16:16.55	336.47	16.68	-35.8	-37.0	28.4	3.02e+01	0	32	0	26214400	46	6119
2026-01-08 19:16:17.56	336.21	16.70	-35.1	-36.3	28.9	3.02e+01	0	32	0	28311552	46	5646
2026-01-08 19:16:18.57	335.95	16.71	-35.1	-36.3	28.9	3.02e+01	0	32	0	30408704	46	5629
2026-01-08 19:16:19.58	335.69	16.72	-35.3	-36.5	28.7	3.02e+01	0	32	0	31981568	46	5759
2026-01-08 19:16:20.59	335.43	16.73	-35.0	-36.3	29.0	3.02e+01	0	32	0	34078720	46	5601
2026-01-08 19:16:21.59	335.17	16.74	-35.1	-36.3	28.9	3.02e+01	0	32	0	35651584	46	5639
2026-01-08 19:16:22.60	334.90	16.76	-35.0	-36.2	29.1	3.02e+01	0	32	0	37748736	44	6227
2026-01-08 19:16:23.61	334.64	16.77	-34.9	-36.2	29.0	3.02e+01	0	32	0	39321600	44	6212
2026-01-08 19:16:24.62	334.38	16.78	-35.0	-36.2	29.0	3.02e+01	0	32	0	41418752	44	6272
2026-01-08 19:16:25.63	334.11	16.78	-35.1	-36.3	28.9	3.02e+01	0	32	0	43515904	44	6344
2026-01-08 19:16:26.64	333.85	16.79	-35.1	-36.3	28.8	3.02e+01	0	32	0	45088768	44	6343
2026-01-08 19:16:27.65	333.58	16.80	-35.2	-36.4	28.8	3.02e+01	0	32	0	47185920	44	6409
2026-01-08 19:16:28.66	333.32	16.81	-34.9	-36.2	29.0	3.02e+01	0	32	0	49283072	44	6214
2026-01-08 19:16:29.67	333.06	16.81	-35.0	-36.2	29.0	3.02e+01	0	32	0	50855936	44	6220
2026-01-08 19:16:30.68	332.79	16.82	-35.1	-36.3	28.9	3.02e+01	0	32	0	52953088	44	6336
2026-01-08 19:16:31.69	332.53	16.83	-35.2	-36.4	28.8	3.02e+01	0	32	0	54525952	44	6392
2026-01-08 19:16:32.70	332.26	16.83	-35.0	-36.2	29.0	3.02e+01	0	32	0	56623104	44	6249
2026-01-08 19:16:33.71	332.00	16.83	-35.1	-36.3	28.9	3.02e+01	0	32	0	58720256	44	6337
2026-01-08 19:16:34.71	331.74	16.84	-35.1	-36.3	28.8	3.02e+01	0	32	0	60293120	44	6346
2026-01-08 19:16:35.72	331.47	16.84	-35.1	-36.3	28.9	3.02e+01	0	32	0	62390272	44	6305
2026-01-08 19:16:36.73	331.21	16.84	-35.0	-36.3	28.9	3.02e+01	0	32	0	63963136	44	6294
2026-01-08 19:16:37.74	330.94	16.85	-35.0	-36.2	28.9	3.02e+01	0	32	0	66060288	44	6266
2026-01-08 19:16:38.75	330.68	16.85	-35.0	-36.2	29.0	3.02e+01	0	32	0	68157440	44	6232
2026-01-08 19:16:39.75	330.42	16.85	-35.1	-36.4	28.8	3.02e+01	0	32	0	69730304	44	6373
2026-01-08 19:16:40.76	330.15	16.85	-35.1	-36.3	28.9	3.02e+01	0	32	0	71827456	44	6335
2026-01-08 19:16:41.77	329.89	16.85	-35.1	-36.4	28.8	3.02e+01	0	32	0	73924608	44	6370
2026-01-08 19:16:42.78	329.62	16.85	-35.1	-36.3	28.9	3.02e+01	0	32	0	75497472	44	6321
2026-01-08 19:16:43.79	329.36	16.84	-35.0	-36.3	28.9	3.02e+01	0	32	0	77594624	44	6289
2026-01-08 19:16:44.80	329.09	16.84	-34.9	-36.1	29.0	3.02e+01	0	32	0	79167488	44	6202
2026-01-08 19:16:45.81	328.83	16.84	-35.0	-36.2	29.0	3.02e+01	0	32	0	81264640	44	6264
2026-01-08 19:16:46.82	328.56	16.84	-35.2	-36.5	28.8	3.02e+01	0	32	0	83361792	44	6425
2026-01-08 19:16:47.83	328.30	16.83	-35.3	-36.6	28.7	3.02e+01	0	32	0	84934656	44	6531
2026-01-08 19:16:48.84	328.03	16.83	-35.4	-36.6	28.5	3.02e+01	0	32	0	87031808	44	6553
2026-01-08 19:16:49.85	327.77	16.82	-35.4	-36.6	28.7	3.02e+01	0	32	0	88604672	44	6561
2026-01-08 19:16:50.85	327.51	16.82	-35.1	-36.3	28.9	3.02e+01	0	32	0	90701824	44	6332
2026-01-08 19:16:51.86	327.24	16.81	-34.8	-36.1	29.2	3.02e+01	0	32	0	92274688	44	6137
2026-01-08 19:16:52.88	326.98	16.80	-35.1	-36.3	28.8	3.02e+01	0	32	0	94371840	44	6323
2026-01-08 19:16:53.88	326.71	16.80	-35.2	-36.5	28.7	3.02e+01	0	32	0	96468992	44	6451
2026-01-08 19:16:54.89	326.45	16.79	-34.9	-36.1	29.1	3.02e+01	0	32	0	98041856	44	6139
2026-01-08 19:16:55.90	326.19	16.78	-35.2	-36.5	28.7	3.02e+01	0	32	0	100139008	44	6454
2026-01-08 19:16:56.91	325.92	16.77	-35.1	-36.3	28.8	3.02e+01	0	32	0	102236160	44	6312
2026-01-08 19:16:57.92	325.66	16.76	-35.0	-36.2	29.0	3.02e+01	0	32	0	103809024	44	6225
2026-01-08 19:16:58.93	325.40	16.75	-35.0	-36.3	28.9	3.02e+01	0	32	0	105906176	44	6301
2026-01-08 19:16:59.94	325.13	16.74	-34.8	-36.0	29.2	3.02e+01	0	32	0	107479040	44	6065
2026-01-08 19:17:00.94	324.87	16.73	-35.3	-36.5	28.7	3.02e+01	0	32	0	109576192	44	6466
2026-01-08 19:17:01.95	324.61	16.71	-35.2	-36.5	28.7	3.02e+01	0	32	0	111673344	44	6450
2026-01-08 19:17:02.96	324.35	16.70	-35.2	-36.4	28.9	3.02e+01	0	32	0	113246208	44	6404
2026-01-08 19:17:03.97	324.09	16.69	-35.6	-36.9	28.3	3.02e+01	0	32	0	115343360	44	6755
2026-01-08 19:17:04.98	323.83	16.67	-34.8	-36.0	29.1	3.02e+01	0	32	0	117440512	44	6116
2026-01-08 19:17:05.99	323.56	16.66	-35.2	-36.4	28.7	3.02e+01	0	32	0	119013376	44	6399
2026-01-08 19:17:07.00	323.30	16.64	-35.1	-36.3	28.9	3.02e+01	0	32	0	121110528	44	6322
2026-01-08 19:17:08.01	323.04	16.63	-34.6	-35.8	29.3	3.02e+01	0	32	0	122683392	44	5959
2026-01-08 19:17:09.02	322.78	16.61	-35.4	-36.6	28.6	3.02e+01	0	32	0	124780544	44	6553
2026-01-08 19:17:10.03	322.52	16.60	-35.1	-36.3	28.9	3.02e+01	0	32	0	126877696	44	6299
2026-01-08 19:17:11.03	322.26	16.58	-34.9	-36.1	29.0	3.02e+01	0	32	0	128450560	44	6164
2026-01-08 19:17:12.04	322.00	16.56	-35.3	-36.6	28.6	3.02e+01	0	32	0	130547712	44	6537
2026-01-08 19:17:13.05	321.74	16.54	-34.8	-36.0	29.0	3.02e+01	0	32	0	132120576	44	6120
2026-01-08 19:17:14.06	321.48	16.52	-35.1	-36.3	28.9	3.02e+01	0	32	0	134217728	44	6298
2026-01-08 19:17:15.07	321.23	16.50	-35.5	-36.8	28.4	3.02e+01	0	32	0	136314880	44	6700
2026-01-08 19:17:16.08	320.97	16.48	-35.2	-36.4	28.7	3.02e+01	0	32	0	137887744	44	6387
2026-01-08 19:17:17.09	320.71	16.46	-36.0	-37.3	28.0	3.02e+01	0	32	0	139984896	46	6338
2026-01-08 19:17:18.10	320.45	16.44	-36.1	-37.4	27.9	3.02e+01	0	32	0	141557760	46	6399
2026-01-08 19:17:19.11	320.19	16.42	-36.3	-37.6	27.7	3.02e+01	0	32	0	143654912	46	6510
2026-01-08 19:17:20.12	319.94	16.40	-36.5	-37.8	27.6	3.02e+01	0	32	0	145752064	46	6661
2026-01-08 19:17:21.13	319.68	16.37	-35.7	-37.0	28.4	3.02e+01	0	32	0	147324928	46	6088
2026-01-08 19:17:22.13	319.43	16.35	-35.1	-36.3	28.9	3.02e+01	0	32	0	149422080	46	5654
2026-01-08 19:17:23.15	319.17	16.33	-35.2	-36.4	28.8	3.02e+01	0	32	0	150994944	46	5677
2026-01-08 19:17:24.16	318.91	16.30	-36.1	-37.4	28.0	3.02e+01	0	32	0	153092096	46	6402
2026-01-08 19:17:25.16	318.66	16.28	-36.1	-37.3	28.1	3.02e+01	0	32	0	155189248	46	6341
2026-01-08 19:17:26.18	318.41	16.25	-36.0	-37.3	28.2	3.02e+01	0	32	0	156762112	46	6288
2026-01-08 19:17:27.18	318.15	16.23	-35.8	-37.1	28.1	3.02e+01	0	32	0	158859264	46	6186
2026-01-08 19:17:28.19	317.90	16.20	-35.2	-36.4	28.8	3.02e+01	0	32	0	160432128	46	5709
2026-01-08 19:17:29.20	317.65	16.17	-35.2	-36.4	28.8	3.02e+01	0	32	0	162529280	46	5674
2026-01-08 19:17:30.21	317.40	16.15	-35.1	-36.3	28.9	3.02e+01	0	32	0	164626432	46	5620
2026-01-08 19:17:31.22	317.14	16.12	-35.6	-36.8	28.4	3.02e+01	0	32	0	166199296	44	6722
2026-01-08 19:17:32.23	316.89	16.09	-34.9	-36.1	28.9	3.02e+01	0	32	0	168296448	44	6174
2026-01-08 19:17:33.23	316.64	16.06	-36.0	-37.3	28.0	3.02e+01	0	32	0	170393600	46	6287
2026-01-08 19:17:34.24	316.39	16.03	-35.7	-36.9	28.3	3.02e+01	0	32	0	171966464	46	6057
2026-01-08 19:17:35.25	316.14	16.00	-35.9	-37.2	28.2	3.02e+01	0	32	0	174063616	46	6242
2026-01-08 19:17:36.26	315.90	15.97	-35.2	-36.4	28.8	3.02e+01	0	32	0	175636480	46	5681
2026-01-08 19:17:37.27	315.65	15.94	-35.5	-36.8	28.4	3.02e+01	0	32	0	177733632	46	5930
2026-01-08 19:17:38.27	315.40	15.91	-34.8	-36.0	29.1	3.02e+01	0	32	0	179830784	44	6067
2026-01-08 19:17:39.28	315.15	15.88	-35.4	-36.6	28.6	3.02e+01	0	32	0	181403648	44	6573
2026-01-08 19:17:40.29	314.91	15.85	-34.4	-35.6	29.4	3.02e+01	0	32	0	183500800	44	5805
2026-01-08 19:17:41.30	314.66	15.81	-36.1	-37.4	27.7	3.02e+01	0	32	0	185073664	46	6416
2026-01-08 19:17:42.31	314.41	15.78	-34.7	-35.8	29.1	3.02e+01	0	32	0	187170816	44	5984
2026-01-08 19:17:43.32	314.17	15.75	-35.9	-37.2	28.0	3.02e+01	0	32	0	189267968	46	6254
2026-01-08 19:17:44.33	313.92	15.71	-34.6	-35.8	29.3	3.02e+01	0	32	0	190840832	44	5965
2026-01-08 19:17:45.34	313.68	15.68	-35.3	-36.5	28.7	3.02e+01	0	32	0	192937984	44	6492
2026-01-08 19:17:46.35	313.44	15.64	-34.6	-35.7	29.3	3.02e+01	0	32	0	194510848	44	5925
2026-01-08 19:17:47.36	313.19	15.61	-36.3	-37.7	27.7	3.02e+01	0	32	0	196608000	46	6577
2026-01-08 19:17:48.37	312.95	15.57	-34.8	-36.0	29.1	3.02e+01	0	32	0	198705152	44	6094
2026-01-08 19:17:49.38	312.71	15.53	-36.5	-37.9	27.5	3.02e+01	0	32	0	200278016	46	6760
2026-01-08 19:17:50.39	312.47	15.50	-34.4	-35.6	29.3	3.02e+01	0	32	0	202375168	44	5820
2026-01-08 19:17:51.40	312.23	15.46	-35.9	-37.2	27.9	3.02e+01	0	32	0	203948032	44	7037
2026-01-08 19:17:52.41	311.99	15.42	-34.6	-35.8	29.3	3.02e+01	0	32	0	206045184	44	5957
2026-01-08 19:17:53.41	311.75	15.39	-35.0	-36.2	28.9	3.02e+01	0	32	0	208142336	44	6256
2026-01-08 19:17:54.42	311.51	15.35	-35.3	-36.6	28.5	3.02e+01	0	32	0	209715200	44	6505
2026-01-08 19:17:55.43	311.28	15.31	-34.6	-35.8	29.0	3.02e+01	0	32	0	211812352	44	5946
2026-01-08 19:17:56.44	311.04	15.27	-35.9	-37.2	27.5	3.02e+01	0	32	0	213909504	46	6246
2026-01-08 19:17:57.45	310.80	15.23	-34.3	-35.4	29.1	3.02e+01	0	32	0	215482368	44	5699
2026-01-08 19:17:58.46	310.57	15.19	-35.7	-37.0	27.9	3.02e+01	0	32	0	217579520	44	6858
2026-01-08 19:17:59.47	310.33	15.15	-35.1	-36.3	28.7	3.02e+01	0	32	0	219152384	44	6306
2026-01-08 19:18:00.48	310.10	15.11	-36.0	-37.3	27.9	3.02e+01	0	32	0	221249536	46	6313
2026-01-08 19:18:01.49	309.86	15.07	-35.3	-36.5	28.6	3.02e+01	0	32	0	223346688	46	5781
2026-01-08 19:18:02.49	309.63	15.03	-36.1	-37.4	27.9	3.02e+01	0	32	0	224919552	46	6367
2026-01-08 19:18:03.50	309.40	14.98	-35.9	-37.1	28.0	3.02e+01	0	32	0	227016704	46	6190
2026-01-08 19:18:04.51	309.17	14.94	-35.9	-37.1	28.1	3.02e+01	0	32	0	228589568	46	6203
2026-01-08 19:18:05.52	308.94	14.90	-36.1	-37.4	27.7	3.02e+01	0	32	0	230686720	46	6411
2026-01-08 19:18:06.53	308.71	14.86	-35.9	-37.2	28.0	3.02e+01	0	32	0	232783872	46	6236
2026-01-08 19:18:07.54	308.48	14.81	-35.5	-36.8	28.6	3.02e+01	0	32	0	234356736	46	5931
2026-01-08 19:18:08.55	308.25	14.77	-35.4	-36.6	28.6	3.02e+01	0	32	0	236453888	46	5852
2026-01-08 19:18:09.56	308.02	14.73	-34.9	-36.1	29.0	3.02e+01	0	32	0	238026752	44	6182
2026-01-08 19:18:10.57	307.80	14.68	-35.6	-36.9	28.2	3.02e+01	0	32	0	240123904	44	6730
2026-01-08 19:18:11.58	307.57	14.64	-35.0	-36.1	28.9	3.02e+01	0	32	0	242221056	44	6203
2026-01-08 19:18:12.59	307.34	14.59	-35.7	-37.0	28.1	3.02e+01	0	32	0	243793920	44	6870
2026-01-08 19:18:13.60	307.12	14.55	-35.3	-36.5	28.7	3.02e+01	0	32	0	245891072	44	6459
2026-01-08 19:18:14.61	306.89	14.50	-35.5	-36.8	28.5	3.02e+01	0	32	0	247463936	44	6674
2026-01-08 19:18:15.62	306.67	14.45	-35.9	-37.2	28.0	3.02e+01	0	32	0	249561088	44	7001
2026-01-08 19:18:16.63	306.45	14.41	-35.6	-36.9	28.5	3.02e+01	0	32	0	251658240	46	5995
2026-01-08 19:18:17.63	306.23	14.36	-36.1	-37.4	28.0	3.02e+01	0	32	0	253231104	46	6371
2026-01-08 19:18:18.64	306.01	14.31	-35.1	-36.3	28.8	3.02e+01	0	32	0	255328256	46	5622
2026-01-08 19:18:19.65	305.79	14.27	-35.2	-36.5	28.8	3.02e+01	0	32	0	256901120	44	6433
2026-01-08 19:18:20.66	305.57	14.22	-35.2	-36.5	28.7	3.02e+01	0	32	0	258998272	44	6465
2026-01-08 19:18:21.67	305.35	14.17	-35.3	-36.6	28.7	3.02e+01	0	32	0	261095424	44	6514
2026-01-08 19:18:22.68	305.13	14.12	-35.3	-36.5	28.7	3.02e+01	0	32	0	262668288	44	6469
2026-01-08 19:18:23.69	304.91	14.08	-35.1	-36.3	28.8	3.02e+01	0	32	0	264765440	44	6320
2026-01-08 19:18:24.70	304.69	14.03	-35.3	-36.5	28.7	3.02e+01	0	32	0	266862592	44	6482
2026-01-08 19:18:25.71	304.48	13.98	-35.5	-36.7	28.5	3.02e+01	0	32	0	268435456	44	6633
2026-01-08 19:18:26.72	304.26	13.93	-35.0	-36.2	28.9	3.02e+01	0	32	0	270532608	44	6249
2026-01-08 19:18:27.73	304.05	13.88	-35.3	-36.5	28.6	3.02e+01	0	32	0	272105472	44	6495
2026-01-08 19:18:28.74	303.83	13.83	-35.8	-37.1	28.1	3.02e+01	0	32	0	274202624	44	6899
2026-01-08 19:18:29.74	303.62	13.78	-35.7	-36.9	28.2	3.02e+01	0	32	0	276299776	44	6787
2026-01-08 19:18:30.75	303.41	13.73	-36.3	-37.6	27.8	3.02e+01	0	32	0	277872640	46	6532
2026-01-08 19:18:31.76	303.20	13.68	-35.2	-36.4	28.8	3.02e+01	0	32	0	279969792	46	5682
2026-01-08 19:18:32.77	302.99	13.63	-35.3	-36.6	28.6	3.02e+01	0	32	0	282066944	46	5808
2026-01-08 19:18:33.78	302.78	13.58	-35.3	-36.5	28.6	3.02e+01	0	32	0	283639808	46	5756
2026-01-08 19:18:34.79	302.57	13.53	-35.2	-36.4	28.8	3.02e+01	0	32	0	285736960	46	5713
2026-01-08 19:18:35.80	302.36	13.47	-35.4	-36.7	28.5	3.02e+01	0	32	0	287309824	46	5901
2026-01-08 19:18:36.81	302.15	13.42	-34.8	-36.0	29.1	3.02e+01	0	32	0	289406976	44	6084
2026-01-08 19:18:37.82	301.95	13.37	-35.7	-37.0	28.2	3.02e+01	0	32	0	291504128	44	6816
2026-01-08 19:18:38.83	301.74	13.32	-35.4	-36.7	28.2	3.02e+01	0	32	0	293076992	46	5885
2026-01-08 19:18:39.84	301.54	13.27	-34.9	-36.0	29.0	3.02e+01	0	32	0	295174144	44	6131
2026-01-08 19:18:40.85	301.33	13.21	-35.9	-37.3	28.0	3.02e+01	0	32	0	296747008	44	7063
2026-01-08 19:18:41.86	301.13	13.16	-34.9	-36.1	28.9	3.02e+01	0	32	0	298844160	46	5492
2026-01-08 19:18:42.87	300.93	13.11	-35.2	-36.4	28.6	3.02e+01	0	32	0	300941312	44	6418
2026-01-08 19:18:43.88	300.72	13.05	-35.5	-36.8	28.2	3.02e+01	0	32	0	302514176	44	6655
2026-01-08 19:18:44.89	300.52	13.00	-34.8	-36.0	29.0	3.02e+01	0	32	0	304611328	44	6081
2026-01-08 19:18:45.89	300.32	12.95	-35.9	-37.2	28.0	3.02e+01	0	32	0	306184192	44	7001
2026-01-08 19:18:46.91	300.12	12.89	-35.7	-36.9	28.1	3.02e+01	0	32	0	308281344	46	6055
2026-01-08 19:18:47.91	299.93	12.84	-35.0	-36.2	28.9	3.02e+01	0	32	0	310378496	46	5590
2026-01-08 19:18:48.92	299.73	12.79	-35.7	-37.0	28.3	3.02e+01	0	32	0	311951360	46	6118
2026-01-08 19:18:49.93	299.53	12.73	-35.2	-36.4	28.7	3.02e+01	0	32	0	314048512	46	5679
2026-01-08 19:18:50.94	299.33	12.68	-35.1	-36.3	28.8	3.02e+01	0	32	0	315621376	46	5609
2026-01-08 19:18:51.95	299.14	12.62	-35.7	-37.0	28.4	3.02e+01	0	32	0	317718528	46	6096
2026-01-08 19:18:52.96	298.94	12.57	-35.6	-36.9	28.2	3.02e+01	0	32	0	319815680	46	6031
2026-01-08 19:18:53.97	298.75	12.51	-35.5	-36.8	28.4	3.02e+01	0	32	0	321388544	46	5960
2026-01-08 19:18:54.98	298.56	12.46	-35.8	-37.1	28.0	3.02e+01	0	32	0	323485696	46	6162
2026-01-08 19:18:55.99	298.36	12.40	-34.9	-36.1	28.8	3.02e+01	0	32	0	325058560	44	6176
2026-01-08 19:18:57.00	298.17	12.34	-35.2	-36.5	28.6	3.02e+01	0	32	0	327155712	44	6444
2026-01-08 19:18:58.01	297.98	12.29	-35.8	-37.1	28.1	3.02e+01	0	32	0	329252864	44	6936
2026-01-08 19:18:59.02	297.79	12.23	-35.6	-36.9	28.1	3.02e+01	0	32	0	330825728	44	6738
2026-01-08 19:19:00.03	297.60	12.18	-35.5	-36.7	28.5	3.02e+01	0	32	0	332922880	44	6608
2026-01-08 19:19:01.04	297.41	12.12	-35.6	-36.9	28.2	3.02e+01	0	32	0	335020032	44	6743
2026-01-08 19:19:02.05	297.23	12.06	-35.5	-36.8	28.2	3.02e+01	0	32	0	336592896	44	6688
2026-01-08 19:19:03.06	297.04	12.01	-35.5	-36.8	28.4	3.02e+01	0	32	0	338690048	44	6674
2026-01-08 19:19:04.07	296.85	11.95	-35.8	-37.1	28.1	3.02e+01	0	32	0	340262912	44	6890
2026-01-08 19:19:05.07	296.67	11.89	-35.7	-37.0	28.3	3.02e+01	0	32	0	342360064	46	6100
2026-01-08 19:19:06.08	296.48	11.84	-35.4	-36.6	28.5	3.02e+01	0	32	0	344457216	46	5844
2026-01-08 19:19:07.09	296.30	11.78	-35.5	-36.8	28.4	3.02e+01	0	32	0	346030080	46	5954
2026-01-08 19:19:08.10	296.12	11.72	-35.8	-37.1	28.1	3.02e+01	0	32	0	348127232	46	6138
2026-01-08 19:19:09.11	295.93	11.67	-35.4	-36.7	28.5	3.02e+01	0	32	0	349700096	46	5861
2026-01-08 19:19:10.12	295.75	11.61	-35.4	-36.6	28.5	3.02e+01	0	32	0	351797248	46	5831
2026-01-08 19:19:11.13	295.57	11.55	-35.5	-36.8	28.4	3.02e+01	0	32	0	353894400	46	5927
2026-01-08 19:19:12.14	295.39	11.49	-35.4	-36.6	28.4	3.02e+01	0	32	0	355467264	46	5847
2026-01-08 19:19:13.15	295.21	11.44	-35.6	-36.8	28.3	3.02e+01	0	32	0	357564416	46	5965
2026-01-08 19:19:14.15	295.04	11.38	-35.5	-36.8	28.4	3.02e+01	0	32	0	359137280	46	5939
2026-01-08 19:19:15.17	294.86	11.32	-35.7	-37.0	28.1	3.02e+01	0	32	0	361234432	46	6098
2026-01-08 19:19:16.17	294.68	11.26	-35.5	-36.8	28.3	3.02e+01	0	32	0	363331584	46	5952
2026-01-08 19:19:17.18	294.51	11.21	-35.4	-36.6	28.5	3.02e+01	0	32	0	364904448	46	5844
2026-01-08 19:19:18.19	294.33	11.15	-35.6	-36.9	28.3	3.02e+01	0	32	0	367001600	46	6008
2026-01-08 19:19:19.20	294.16	11.09	-35.6	-36.9	28.2	3.02e+01	0	32	0	368574464	46	6040
2026-01-08 19:19:20.21	293.98	11.03	-35.4	-36.7	28.4	3.02e+01	0	32	0	370671616	46	5869
2026-01-08 19:19:21.22	293.81	10.97	-35.6	-36.9	28.3	3.02e+01	0	32	0	372768768	46	6008
2026-01-08 19:19:22.23	293.64	10.91	-35.5	-36.8	28.3	3.02e+01	0	32	0	374341632	46	5966
2026-01-08 19:19:23.24	293.46	10.85	-35.7	-36.9	28.1	3.02e+01	0	32	0	376438784	46	6054
2026-01-08 19:19:24.25	293.29	10.80	-35.4	-36.7	28.4	3.02e+01	0	32	0	378535936	46	5875
2026-01-08 19:19:25.26	293.12	10.74	-35.5	-36.8	28.4	3.02e+01	0	32	0	380108800	46	5953
2026-01-08 19:19:26.27	292.95	10.68	-35.7	-37.0	28.1	3.02e+01	0	32	0	382205952	46	6078
2026-01-08 19:19:27.27	292.79	10.62	-35.7	-37.0	28.1	3.02e+01	0	32	0	383778816	46	6094
2026-01-08 19:19:28.28	292.62	10.56	-35.7	-37.0	28.1	3.02e+01	0	32	0	385875968	46	6100
2026-01-08 19:19:29.29	292.45	10.50	-35.8	-37.0	28.1	3.02e+01	0	32	0	387973120	46	6115
2026-01-08 19:19:30.30	292.28	10.44	-35.7	-37.0	28.1	3.02e+01	0	32	0	389545984	46	6088
2026-01-08 19:19:31.31	292.12	10.38	-35.8	-37.0	28.1	3.02e+01	0	32	0	391643136	46	6131
2026-01-08 19:19:32.32	291.95	10.32	-35.9	-37.2	27.9	3.02e+01	0	32	0	393216000	46	6265
2026-01-08 19:19:33.33	291.79	10.26	-35.8	-37.1	27.9	3.02e+01	0	32	0	395313152	46	6205
2026-01-08 19:19:34.34	291.63	10.21	-35.8	-37.1	27.9	3.02e+01	0	32	0	397410304	46	6192
2026-01-08 19:19:35.35	291.46	10.15	-35.7	-36.9	28.1	3.02e+01	0	32	0	398983168	46	6064
2026-01-08 19:19:36.35	291.30	10.09	-35.5	-36.7	28.3	3.02e+01	0	32	0	401080320	46	5896
2026-01-08 19:19:37.36	291.14	10.03	-35.4	-36.7	28.4	3.02e+01	0	32	0	402653184	46	5863
2026-01-08 19:19:38.37	290.98	9.97	-35.6	-36.8	28.2	3.02e+01	0	32	0	404750336	46	5972
2026-01-08 19:19:39.38	290.82	9.91	-35.8	-37.1	28.0	3.02e+01	0	32	0	406847488	46	6153
2026-01-08 19:19:40.39	290.66	9.85	-35.9	-37.2	27.8	3.02e+01	0	32	0	408420352	46	6244
2026-01-08 19:19:41.40	290.50	9.79	-36.0	-37.3	27.8	3.02e+01	0	32	0	410517504	46	6314
2026-01-08 19:19:42.41	290.35	9.73	-35.9	-37.2	27.9	3.02e+01	0	32	0	412090368	46	6245
2026-01-08 19:19:43.41	290.19	9.67	-35.8	-37.1	28.0	3.02e+01	0	32	0	414187520	46	6135
2026-01-08 19:19:44.42	290.03	9.61	-35.8	-37.1	28.0	3.02e+01	0	32	0	416284672	46	6175
2026-01-08 19:19:45.43	289.88	9.55	-35.9	-37.2	27.8	3.02e+01	0	32	0	417857536	46	6247
2026-01-08 19:19:46.44	289.72	9.49	-35.8	-37.1	27.9	3.02e+01	0	32	0	419954688	46	6145
2026-01-08 19:19:47.45	289.57	9.43	-35.9	-37.2	27.9	3.02e+01	0	32	0	421527552	46	6211
2026-01-08 19:19:48.46	289.41	9.37	-35.9	-37.2	27.8	3.02e+01	0	32	0	423624704	46	6234
2026-01-08 19:19:49.46	289.26	9.31	-35.8	-37.0	28.0	3.02e+01	0	32	0	425721856	46	6127
2026-01-08 19:19:50.47	289.11	9.25	-35.9	-37.2	27.9	3.02e+01	0	32	0	427294720	46	6215
2026-01-08 19:19:51.48	288.96	9.19	-35.9	-37.2	27.9	3.02e+01	0	32	0	429391872	46	6248
2026-01-08 19:19:52.49	288.81	9.13	-36.0	-37.3	27.7	3.02e+01	0	32	0	431489024	46	6347
2026-01-08 19:19:53.50	288.66	9.07	-35.9	-37.2	27.8	3.02e+01	0	32	0	433061888	46	6236
2026-01-08 19:19:54.50	288.51	9.01	-36.0	-37.2	27.7	3.02e+01	0	32	0	435159040	46	6275
2026-01-08 19:19:55.51	288.36	8.95	-35.9	-37.2	27.8	3.02e+01	0	32	0	436731904	46	6258
2026-01-08 19:19:56.52	288.21	8.89	-36.0	-37.3	27.7	3.02e+01	0	32	0	438829056	46	6332
2026-01-08 19:19:57.53	288.07	8.83	-36.1	-37.4	27.6	3.02e+01	0	32	0	440926208	46	6387
2026-01-08 19:19:58.54	287.92	8.77	-36.1	-37.4	27.5	3.02e+01	0	32	0	442499072	46	6386
2026-01-08 19:19:59.55	287.77	8.71	-36.1	-37.4	27.6	3.02e+01	0	32	0	444596224	46	6383
2026-01-08 19:20:00.56	287.63	8.65	-36.2	-37.5	27.5	3.02e+01	0	32	0	446169088	46	6452
2026-01-08 19:20:01.57	287.48	8.59	-36.1	-37.4	27.5	3.02e+01	0	32	0	448266240	46	6401
2026-01-08 19:20:02.58	287.34	8.53	-36.2	-37.5	27.4	3.02e+01	0	32	0	450363392	46	6437
2026-01-08 19:20:03.58	287.20	8.47	-36.1	-37.4	27.5	3.02e+01	0	32	0	451936256	46	6383
2026-01-08 19:20:04.59	287.05	8.41	-36.1	-37.4	27.6	3.02e+01	0	32	0	454033408	46	6396
2026-01-08 19:20:05.60	286.91	8.35	-36.2	-37.5	27.5	3.02e+01	0	32	0	455606272	46	6468
2026-01-08 19:20:06.61	286.77	8.29	-36.1	-37.4	27.6	3.02e+01	0	32	0	457703424	46	6380
2026-01-08 19:20:07.62	286.63	8.23	-36.2	-37.5	27.4	3.02e+01	0	32	0	459800576	46	6494
2026-01-08 19:20:08.63	286.49	8.17	-36.2	-37.6	27.4	3.02e+01	0	32	0	461373440	46	6515
2026-01-08 19:20:09.64	286.35	8.11	-36.4	-37.7	27.2	3.02e+01	0	32	0	463470592	46	6603
2026-01-08 19:20:10.65	286.21	8.05	-36.4	-37.7	27.2	3.02e+01	0	32	0	465043456	46	6615
2026-01-08 19:20:11.66	286.07	7.99	-36.4	-37.8	27.1	3.02e+01	0	32	0	467140608	46	6677
2026-01-08 19:20:12.67	285.93	7.93	-36.2	-37.5	27.4	3.02e+01	0	32	0	469237760	46	6494
2026-01-08 19:20:13.68	285.80	7.87	-36.2	-37.5	27.5	3.02e+01	0	32	0	470810624	46	6442
2026-01-08 19:20:14.69	285.66	7.81	-36.3	-37.6	27.3	3.02e+01	0	32	0	472907776	46	6540
2026-01-08 19:20:15.70	285.52	7.75	-36.3	-37.6	27.3	3.02e+01	0	32	0	475004928	46	6553
2026-01-08 19:20:16.70	285.39	7.69	-36.4	-37.7	27.1	3.02e+01	0	32	0	476577792	46	6646
2026-01-08 19:20:17.71	285.26	7.63	-36.6	-38.0	26.9	3.02e+01	0	32	0	478674944	46	6851
2026-01-08 19:20:18.72	285.12	7.57	-36.4	-37.8	27.1	3.02e+01	0	32	0	480247808	46	6681
2026-01-08 19:20:19.73	284.99	7.51	-36.4	-37.8	27.1	3.02e+01	0	32	0	482344960	46	6668
2026-01-08 19:20:20.74	284.86	7.45	-36.4	-37.8	27.1	3.02e+01	0	32	0	484442112	46	6663
2026-01-08 19:20:21.75	284.72	7.39	-36.5	-37.8	27.1	3.02e+01	0	33	0	486014976	46	6699
2026-01-08 19:20:22.76	284.59	7.33	-36.5	-37.9	27.0	3.02e+01	0	33	0	488112128	46	6732
2026-01-08 19:20:23.77	284.46	7.27	-36.5	-37.9	27.0	3.02e+01	0	32	0	489684992	46	6757
2026-01-08 19:20:24.78	284.33	7.21	-36.5	-37.9	27.0	3.02e+01	0	33	0	491782144	46	6756
2026-01-08 19:20:25.79	284.20	7.15	-36.6	-38.0	26.9	3.02e+01	0	32	0	493879296	46	6823
2026-01-08 19:20:26.80	284.07	7.09	-36.7	-38.1	26.8	3.02e+01	0	32	0	495452160	46	6925
2026-01-08 19:20:27.80	283.94	7.03	-36.5	-37.9	27.0	3.02e+01	0	32	0	497549312	46	6739
2026-01-08 19:20:28.81	283.82	6.97	-36.7	-38.0	26.8	3.02e+01	0	32	0	499646464	46	6855
2026-01-08 19:20:29.82	283.69	6.91	-36.7	-38.0	26.8	3.02e+01	0	33	0	501219328	46	6872
2026-01-08 19:20:30.83	283.56	6.85	-36.6	-37.9	26.9	3.02e+01	0	32	0	503316480	46	6801
2026-01-08 19:20:31.84	283.44	6.79	-36.7	-38.0	26.8	3.02e+01	0	32	0	504889344	46	6877
2026-01-08 19:20:32.85	283.31	6.73	-36.6	-37.9	27.0	3.02e+01	0	32	0	506986496	46	6772
2026-01-08 19:20:33.86	283.18	6.67	-36.7	-38.1	26.7	3.02e+01	0	32	0	508559360	46	6927
2026-01-08 19:20:34.87	283.06	6.61	-36.7	-38.1	26.7	3.02e+01	0	32	0	510656512	46	6937
2026-01-08 19:20:35.88	282.94	6.55	-36.8	-38.2	26.6	3.02e+01	0	32	0	512753664	46	7028
2026-01-08 19:20:36.89	282.81	6.49	-36.8	-38.2	26.6	3.02e+01	0	32	0	514326528	46	7004
2026-01-08 19:20:37.90	282.69	6.44	-36.8	-38.2	26.6	3.02e+01	0	32	0	516423680	48	6237
2026-01-08 19:20:38.91	282.57	6.38	-36.9	-38.3	26.5	3.02e+01	0	32	0	517996544	48	6295
2026-01-08 19:20:39.92	282.44	6.32	-36.9	-38.3	26.5	3.02e+01	0	32	0	520093696	48	6287
2026-01-08 19:20:40.93	282.32	6.26	-36.7	-38.0	26.7	3.02e+01	0	32	0	522190848	48	6129
2026-01-08 19:20:41.94	282.20	6.20	-36.8	-38.2	26.6	3.02e+01	0	32	0	523763712	48	6213
2026-01-08 19:20:42.95	282.08	6.14	-36.8	-38.2	26.6	3.02e+01	0	32	0	525860864	48	6229
2026-01-08 19:20:43.95	281.96	6.08	-36.8	-38.2	26.5	3.02e+01	0	32	0	527958016	48	6212
2026-01-08 19:20:44.96	281.85	6.02	-36.9	-38.4	26.4	3.02e+01	0	32	0	529530880	48	6351
2026-01-08 19:20:45.97	281.73	5.96	-37.0	-38.4	26.3	3.02e+01	0	32	0	531628032	48	6395
2026-01-08 19:20:46.98	281.61	5.90	-37.0	-38.4	26.3	3.02e+01	0	32	0	533200896	48	6369
2026-01-08 19:20:47.99	281.49	5.84	-36.8	-38.2	26.5	3.02e+01	0	32	0	535298048	48	6227
2026-01-08 19:20:49.00	281.37	5.78	-36.8	-38.2	26.5	3.02e+01	0	32	0	537395200	48	6221
2026-01-08 19:20:50.01	281.26	5.72	-36.9	-38.3	26.4	3.02e+01	0	32	0	538968064	48	6302
2026-01-08 19:20:51.02	281.14	5.67	-36.9	-38.3	26.3	3.02e+01	0	32	0	541065216	48	6344
2026-01-08 19:20:52.03	281.03	5.61	-36.9	-38.2	26.4	3.02e+01	0	32	0	542638080	48	6276
2026-01-08 19:20:53.04	280.91	5.55	-36.9	-38.3	26.4	3.02e+01	0	32	0	544735232	48	6339
2026-01-08 19:20:54.05	280.80	5.49	-36.9	-38.3	26.4	3.02e+01	0	32	0	546832384	48	6319
2026-01-08 19:20:55.06	280.68	5.43	-37.0	-38.4	26.2	3.02e+01	0	33	0	548405248	48	6413
2026-01-08 19:20:56.06	280.57	5.37	-37.0	-38.4	26.2	3.02e+01	0	32	0	550502400	48	6390
2026-01-08 19:20:57.07	280.46	5.31	-37.1	-38.5	26.1	3.02e+01	0	32	0	552599552	48	6469
2026-01-08 19:20:58.08	280.35	5.26	-37.2	-38.6	26.0	3.02e+01	0	32	0	554172416	48	6543
2026-01-08 19:20:59.09	280.23	5.20	-37.1	-38.5	26.1	3.02e+01	0	32	0	556269568	48	6471
2026-01-08 19:21:00.10	280.12	5.14	-37.1	-38.6	26.0	3.02e+01	0	32	0	557842432	48	6521
2026-01-08 19:21:01.11	280.01	5.08	-37.2	-38.6	26.0	3.02e+01	0	32	0	559939584	48	6534
2026-01-08 19:21:02.11	279.90	5.02	-37.1	-38.5	26.1	3.02e+01	0	32	0	561512448	48	6444
2026-01-08 19:21:03.12	279.79	4.96	-37.0	-38.4	26.1	3.02e+01	0	32	0	563609600	48	6417
2026-01-08 19:21:04.13	279.68	4.90	-37.0	-38.4	26.1	3.02e+01	0	33	0	565706752	48	6401
2026-01-08 19:21:05.14	279.58	4.85	-36.9	-38.3	26.2	3.02e+01	0	33	0	567279616	48	6313
2026-01-08 19:21:06.15	279.47	4.79	-37.1	-38.5	26.0	3.02e+01	0	32	0	569376768	48	6440
2026-01-08 19:21:07.16	279.36	4.73	-37.1	-38.6	26.1	3.02e+01	0	32	0	570949632	48	6506
2026-01-08 19:21:08.17	279.25	4.67	-37.3	-38.7	25.8	3.02e+01	0	32	0	573046784	48	6621
2026-01-08 19:21:09.18	279.14	4.61	-37.3	-38.8	25.7	3.02e+01	0	33	0	575143936	48	6700
2026-01-08 19:21:10.19	279.04	4.56	-37.3	-38.8	25.8	3.02e+01	0	32	0	576716800	48	6653
2026-01-08 19:21:11.20	278.93	4.50	-37.5	-39.0	25.5	3.02e+01	0	32	0	578813952	48	6830
2026-01-08 19:21:12.21	278.83	4.44	-37.4	-38.9	25.6	3.02e+01	0	32	0	580911104	48	6780
2026-01-08 19:21:13.22	278.72	4.38	-37.4	-38.8	25.6	3.02e+01	0	32	0	582483968	48	6717
2026-01-08 19:21:14.23	278.62	4.32	-37.4	-38.9	25.7	3.02e+01	0	33	0	584581120	48	6759
2026-01-08 19:21:15.24	278.51	4.27	-37.4	-38.9	25.6	3.02e+01	0	32	0	586153984	48	6746
2026-01-08 19:21:16.24	278.41	4.21	-37.3	-38.7	25.7	3.02e+01	0	32	0	588251136	48	6646
2026-01-08 19:21:17.25	278.31	4.15	-37.5	-39.0	25.5	3.02e+01	0	33	0	590348288	48	6812
2026-01-08 19:21:18.26	278.20	4.09	-37.5	-39.0	25.5	3.02e+01	0	32	0	591921152	48	6807
2026-01-08 19:21:19.27	278.10	4.04	-37.3	-38.8	25.6	3.02e+01	0	32	0	594018304	48	6669
2026-01-08 19:21:20.28	278.00	3.98	-37.3	-38.8	25.6	3.02e+01	0	33	0	596115456	48	6661
2026-01-08 19:21:21.29	277.90	3.92	-37.5	-39.0	25.5	3.02e+01	0	32	0	597688320	48	6844
2026-01-08 19:21:22.30	277.80	3.86	-37.6	-39.1	25.4	3.02e+01	0	32	0	599785472	48	6920
2026-01-08 19:21:23.31	277.70	3.81	-37.5	-39.0	25.3	3.02e+01	0	32	0	601358336	48	6850
2026-01-08 19:21:24.32	277.60	3.75	-37.5	-39.0	25.3	3.02e+01	0	32	0	603455488	48	6869
2026-01-08 19:21:25.33	277.50	3.69	-37.6	-39.1	25.2	3.02e+01	0	33	0	605552640	48	6951
2026-01-08 19:21:26.33	277.40	3.64	-37.7	-39.3	25.0	3.02e+01	0	32	0	607125504	48	7060
2026-01-08 19:21:27.34	277.30	3.58	-37.8	-39.3	25.0	3.02e+01	0	33	0	609222656	48	7085
2026-01-08 19:21:28.35	277.20	3.52	-37.8	-39.3	25.0	3.02e+01	0	33	0	610795520	48	7125
2026-01-08 19:21:29.36	277.11	3.46	-37.8	-39.3	25.0	3.02e+01	0	32	0	612892672	48	7100
2026-01-08 19:21:30.37	277.01	3.41	-37.8	-39.3	25.0	3.02e+01	0	32	0	614989824	48	7087
2026-01-08 19:21:31.37	276.91	3.35	-37.9	-39.5	24.9	3.02e+01	0	32	0	616562688	50	6448
2026-01-08 19:21:32.38	276.81	3.29	-37.9	-39.4	24.9	3.02e+01	0	33	0	618659840	50	6400
2026-01-08 19:21:33.39	276.72	3.24	-37.7	-39.3	25.0	3.02e+01	0	32	0	620232704	50	6315
2026-01-08 19:21:34.40	276.62	3.18	-37.7	-39.2	25.0	3.02e+01	0	33	0	622329856	50	6246
2026-01-08 19:21:35.41	276.53	3.12	-37.7	-39.3	24.9	3.02e+01	0	32	0	624427008	50	6305
2026-01-08 19:21:36.42	276.43	3.07	-37.4	-38.9	25.2	3.02e+01	0	33	0	625999872	50	6062
2026-01-08 19:21:37.43	276.34	3.01	-43.5	-47.0	3.9	3.02e+01	23	32	0	628097024	50	15348
2026-01-08 19:21:38.43	276.25	2.96	-47.9	-65.6	3.5	3.02e+01	0	33	104	628097024	60	73570
2026-01-08 19:21:39.44	276.15	2.90	-48.3	-66.1	3.5	3.02e+01	0	33	104	628097024	60	77955
2026-01-08 19:21:40.46	276.06	2.84	-48.4	-66.3	3.5	3.02e+01	0	33	104	628097024	60	79399
2026-01-08 19:21:41.46	275.97	2.79	-48.5	-66.3	3.5	3.02e+01	0	33	104	628097024	60	79788
2026-01-08 19:21:42.48	275.87	2.73	-48.6	-66.4	3.5	3.02e+01	0	33	104	628097024	60	80659
2026-01-08 19:21:43.48	275.78	2.67	-48.6	-66.5	3.5	3.02e+01	0	33	104	628097024	60	81059
2026-01-08 19:21:44.49	275.69	2.62	-48.7	-66.5	3.5	3.02e+01	0	33	104	628097024	60	81380
2026-01-08 19:21:45.50	275.60	2.56	-48.7	-66.5	3.5	3.02e+01	0	33	104	628097024	60	81420
2026-01-08 19:21:46.51	275.51	2.51	-48.6	-66.5	3.5	3.02e+01	0	33	104	628097024	60	81334
2026-01-08 19:21:47.52	275.42	2.45	-48.5	-66.5	3.5	3.02e+01	0	33	104	628097024	60	81087
2026-01-08 19:21:48.53	275.33	2.39	-48.4	-66.5	3.5	3.02e+01	0	33	104	628097024	60	80934
2026-01-08 19:21:49.54	275.24	2.34	-48.5	-66.4	3.5	3.02e+01	0	33	104	628097024	60	80284
2026-01-08 19:21:50.55	275.15	2.28	-48.5	-66.4	3.5	3.02e+01	0	33	104	628097024	60	80665
2026-01-08 19:21:51.56	275.06	2.23	-48.3	-66.3	3.5	3.02e+01	0	33	104	628097024	60	79573
2026-01-08 19:21:52.57	274.97	2.17	-48.5	-66.3	3.5	3.02e+01	0	33	104	628097024	60	79841
2026-01-08 19:21:53.58	274.88	2.12	-48.4	-66.4	3.5	3.02e+01	0	33	104	628097024	60	80022
2026-01-08 19:21:54.59	274.79	2.06	-48.7	-66.5	3.5	3.02e+01	0	33	104	628097024	60	81739
2026-01-08 19:21:55.60	274.71	2.01	-48.5	-66.4	3.5	3.02e+01	0	33	104	628097024	60	80499
2026-01-08 19:21:56.61	274.62	1.95	-48.5	-66.4	3.5	3.02e+01	0	33	104	628097024	60	80232
2026-01-08 19:21:57.62	274.53	1.90	-48.5	-66.3	3.5	3.02e+01	0	33	104	628097024	60	79814
2026-01-08 19:21:58.63	274.45	1.84	-48.5	-66.4	3.5	3.02e+01	0	33	104	628097024	60	80186
2026-01-08 19:21:59.63	274.36	1.79	-48.5	-66.4	3.5	3.02e+01	0	33	104	628097024	60	80253
2026-01-08 19:22:00.64	274.27	1.73	-48.5	-66.3	3.5	3.02e+01	0	33	104	628097024	60	79826
2026-01-08 19:22:01.65	274.19	1.68	-48.5	-66.3	3.5	3.02e+01	0	33	104	628097024	60	79830
2026-01-08 19:22:02.66	274.10	1.62	-48.5	-66.3	3.5	3.02e+01	0	33	104	628097024	60	79657
2026-01-08 19:22:03.67	274.02	1.57	-48.5	-66.4	3.5	3.02e+01	0	33	104	628097024	60	80128
2026-01-08 19:22:04.68	273.94	1.51	-48.5	-66.3	3.5	3.02e+01	0	33	104	628097024	60	79692
2026-01-08 19:22:05.69	273.85	1.46	-48.5	-66.3	3.5	3.02e+01	0	33	104	628097024	60	79409
2026-01-08 19:22:06.70	273.77	1.40	-48.5	-66.4	3.5	3.02e+01	0	33	104	628097024	60	80029
2026-01-08 19:22:07.71	273.68	1.35	-48.5	-66.4	3.5	3.02e+01	0	33	104	628097024	60	80018
2026-01-08 19:22:08.72	273.60	1.29	-48.5	-66.3	3.5	3.02e+01	0	33	104	628097024	60	79673
2026-01-08 19:22:09.73	273.52	1.24	-48.4	-66.2	3.5	3.02e+01	0	33	104	628097024	60	78990
2026-01-08 19:22:10.74	273.44	1.18	-48.4	-66.3	3.5	3.02e+01	0	33	104	628097024	60	79612
2026-01-08 19:22:11.75	273.36	1.13	-48.5	-66.3	3.5	3.02e+01	0	33	104	628097024	60	79541
2026-01-08 19:22:12.76	273.27	1.07	-48.4	-66.3	3.5	3.02e+01	0	33	104	628097024	60	79680
2026-01-08 19:22:13.77	273.19	1.02	-48.4	-66.3	3.5	3.02e+01	0	33	104	628097024	60	79230
2026-01-08 19:22:14.78	273.11	0.97	-48.4	-66.3	3.5	3.02e+01	0	33	104	628097024	60	79165
2026-01-08 19:22:15.79	273.03	0.91	-48.4	-66.3	3.5	3.02e+01	0	33	104	628097024	60	79608
2026-01-08 19:22:16.80	272.95	0.86	-48.5	-66.3	3.5	3.02e+01	0	33	104	628097024	60	79607
2026-01-08 19:22:17.81	272.87	0.80	-48.4	-66.2	3.5	3.02e+01	0	33	104	628097024	60	79027
2026-01-08 19:22:18.82	272.79	0.75	-48.4	-66.3	3.5	3.02e+01	0	33	104	628097024	60	79173
2026-01-08 19:22:19.83	272.71	0.69	-48.4	-66.3	3.5	3.02e+01	0	33	104	628097024	60	79746
2026-01-08 19:22:20.84	272.63	0.64	-48.4	-66.3	3.5	3.02e+01	0	33	104	628097024	60	79525
2026-01-08 19:22:21.85	272.56	0.59	-48.4	-66.2	3.6	3.02e+01	0	33	104	628097024	60	78892
2026-01-08 19:22:22.86	272.48	0.53	-48.4	-66.3	3.5	3.02e+01	0	33	104	628097024	60	79486
2026-01-08 19:22:23.87	272.40	0.48	-48.4	-66.3	3.5	3.02e+01	0	33	104	628097024	60	79518
2026-01-08 19:22:24.87	272.32	0.43	-48.4	-66.2	3.5	3.02e+01	0	33	104	628097024	60	78880
2026-01-08 19:22:25.88	272.25	0.37	-48.4	-66.3	3.5	3.02e+01	0	33	104	628097024	60	79249
2026-01-08 19:22:26.89	272.17	0.32	-48.4	-66.3	3.5	3.02e+01	0	33	104	628097024	60	79117
2026-01-08 19:22:27.90	272.09	0.27	-48.4	-66.3	3.5	3.02e+01	0	33	104	628097024	60	79061
2026-01-08 19:22:28.91	272.02	0.21	-48.4	-66.3	3.5	3.02e+01	0	33	104	628097024	60	79626
2026-01-08 19:22:29.92	271.94	0.16	-48.4	-66.3	3.5	3.02e+01	0	33	104	628097024	60	79527
2026-01-08 19:22:30.93	271.86	0.11	-48.4	-66.3	3.5	3.02e+01	0	33	104	628097024	60	79270
2026-01-08 19:22:31.94	271.79	0.05	-48.4	-66.2	3.5	3.02e+01	0	33	104	628097024	60	78903
2026-01-08 19:22:32.95	271.71	-0.00	-48.4	-66.3	3.5	3.02e+01	0	33	104	628097024	60	79426
2026-01-08 19:22:33.96	271.64	-0.05	-48.4	-66.3	3.5	3.02e+01	0	33	104	628097024	60	79175

#Closed at: 2026-01-08 19:22:34
#Recorded file [628 MB]: D:/lorett/data/35029_260109_071049.dat