passes_logs/2026/01/08/R4.6S_Anadyr/R4.6S_Anadyr__20260108_023006_FENGYUN_3D_rec.log

#Pass ID: 20260108_023006_FENGYUN 3D
#Satellite: FENGYUN 3D
#Configuration: FENGYUN 3D
#almurnet v.1.7.20251203
#Start time: 2026-01-08 02:30:09

#Version: 2.2.20231116
#Station: R4.6S_Anadyr
#Location: 177.4865 lon 64.73178 lat
#TLE: 1 43010U 17072A   26005.48915933 -.00000051  00000+0 -21983-5 0  9995
#TLE: 2 43010  98.9919 337.1582 0002001 124.6377 235.4988 14.19691925421909

#Time	Az	El	Level	Level2	SNR	BER	BlckErr	Temp	State	Recorded	gain1	gain2
2026-01-08 02:30:09.80	162.54	0.19	-48.9	-59.6	3.3	8.39e-01	0	36	0	0	60	34423
2026-01-08 02:30:10.81	162.55	0.25	-48.9	-61.0	3.6	8.45e-01	0	36	104	0	60	40761
2026-01-08 02:30:11.82	162.57	0.31	-49.0	-61.0	3.6	8.46e-01	0	36	104	0	60	40780
2026-01-08 02:30:12.83	162.58	0.37	-49.0	-61.1	3.6	8.46e-01	0	36	104	0	60	40843
2026-01-08 02:30:13.84	162.59	0.43	-49.0	-61.1	3.6	8.45e-01	0	37	104	0	60	41168
2026-01-08 02:30:14.85	162.60	0.49	-49.0	-61.1	3.5	8.44e-01	0	36	104	0	60	41043
2026-01-08 02:30:15.86	162.61	0.55	-49.0	-61.0	3.6	8.45e-01	0	37	104	0	60	40785
2026-01-08 02:30:16.87	162.63	0.62	-48.9	-61.0	3.6	8.45e-01	0	37	104	0	60	40328
2026-01-08 02:30:17.88	162.64	0.68	-48.8	-60.8	3.6	8.45e-01	0	37	104	0	60	39861
2026-01-08 02:30:18.89	162.65	0.74	-48.6	-60.8	3.6	8.44e-01	0	37	104	0	60	39546
2026-01-08 02:30:19.90	162.66	0.80	-48.5	-60.6	3.6	8.45e-01	0	37	104	0	60	38558
2026-01-08 02:30:20.91	162.67	0.86	-47.2	-59.3	3.6	8.45e-01	0	37	104	0	60	33472
2026-01-08 02:30:21.92	162.69	0.93	-47.8	-59.9	3.6	8.45e-01	0	37	104	0	60	35911
2026-01-08 02:30:22.93	162.70	0.99	-47.5	-59.6	3.6	8.46e-01	0	37	104	0	60	34558
2026-01-08 02:30:23.94	162.71	1.05	-47.5	-59.6	3.6	8.45e-01	0	37	104	0	60	34607
2026-01-08 02:30:24.95	162.72	1.11	-47.5	-59.6	3.5	8.45e-01	0	37	104	0	60	34616
2026-01-08 02:30:25.96	162.73	1.18	-47.5	-59.6	3.6	8.44e-01	0	37	104	0	60	34529
2026-01-08 02:30:26.97	162.75	1.24	-47.5	-59.6	3.6	8.46e-01	0	37	104	0	60	34390
2026-01-08 02:30:27.98	162.76	1.30	-47.5	-59.4	3.6	8.45e-01	0	37	104	0	60	33814
2026-01-08 02:30:28.99	162.77	1.36	-47.5	-59.3	3.6	8.46e-01	0	37	104	0	60	33186
2026-01-08 02:30:30.00	162.78	1.43	-47.5	-59.1	3.6	8.46e-01	0	37	104	0	60	32459
2026-01-08 02:30:31.01	162.80	1.49	-47.5	-58.9	3.6	8.45e-01	0	37	104	0	60	31830
2026-01-08 02:30:32.02	162.81	1.56	-47.5	-58.8	3.6	8.45e-01	0	37	104	0	60	31448
2026-01-08 02:30:33.03	162.82	1.62	-47.4	-58.7	3.6	8.45e-01	0	37	104	0	60	31067
2026-01-08 02:30:34.04	162.83	1.68	-47.5	-59.0	3.6	8.47e-01	0	37	104	0	60	32031
2026-01-08 02:30:35.05	162.85	1.75	-47.5	-59.1	3.5	8.46e-01	0	37	104	0	60	32427
2026-01-08 02:30:36.06	162.86	1.81	-47.5	-59.3	3.6	8.46e-01	0	37	104	0	60	33223
2026-01-08 02:30:37.07	162.87	1.88	-47.5	-59.5	3.6	8.45e-01	0	37	104	0	60	33980
2026-01-08 02:30:38.08	162.89	1.94	-47.5	-59.5	3.6	8.45e-01	0	37	104	0	60	34314
2026-01-08 02:30:39.09	162.90	2.00	-47.5	-59.6	3.6	8.46e-01	0	37	104	0	60	34454
2026-01-08 02:30:40.10	162.91	2.07	-47.5	-59.6	3.6	8.46e-01	0	37	104	0	60	34593
2026-01-08 02:30:41.11	162.92	2.13	-47.5	-59.5	3.6	8.45e-01	0	37	104	0	60	34059
2026-01-08 02:30:42.12	162.94	2.20	-47.5	-59.4	3.6	8.46e-01	0	37	104	0	60	33869
2026-01-08 02:30:43.13	162.95	2.26	-47.5	-59.1	3.6	8.46e-01	0	37	104	0	60	32554
2026-01-08 02:30:44.14	162.96	2.33	-47.4	-58.6	3.6	8.46e-01	0	37	104	0	60	30696
2026-01-08 02:30:45.14	162.98	2.39	-47.4	-57.9	3.6	8.45e-01	0	37	104	0	60	28407
2026-01-08 02:30:46.15	162.99	2.46	-47.3	-57.1	3.6	8.43e-01	0	37	104	0	60	25900
2026-01-08 02:30:47.16	163.00	2.53	-47.2	-56.6	3.6	8.41e-01	0	37	104	0	60	24364
2026-01-08 02:30:48.17	163.02	2.59	-47.2	-55.4	3.7	8.38e-01	0	37	0	0	60	21225
2026-01-08 02:30:49.18	163.03	2.66	-47.2	-56.8	3.8	8.43e-01	0	37	104	0	60	25048
2026-01-08 02:30:50.20	163.04	2.72	-47.2	-56.8	3.8	8.43e-01	0	37	104	0	60	25026
2026-01-08 02:30:51.20	163.06	2.79	-47.0	-55.1	4.4	8.40e-01	0	37	104	0	60	20444
2026-01-08 02:30:52.21	163.07	2.86	-46.3	-51.0	6.5	3.26e-01	0	37	0	1048576	60	12860
2026-01-08 02:30:53.23	163.08	2.92	-45.0	-48.3	9.9	3.72e-02	0	37	0	7340032	60	9451
2026-01-08 02:30:54.24	163.10	2.99	-43.5	-45.8	12.8	1.11e-03	0	37	0	12582912	60	7040
2026-01-08 02:30:55.25	163.11	3.06	-41.8	-43.5	15.1	1.10e-06	0	37	0	18874368	58	6089
2026-01-08 02:30:56.26	163.12	3.13	-40.2	-41.4	17.2	0.00e+00	0	37	0	24117248	54	6015
2026-01-08 02:30:57.27	163.14	3.19	-38.8	-39.9	18.8	0.00e+00	0	37	0	30408704	52	5668
2026-01-08 02:30:58.28	163.15	3.26	-37.7	-38.7	20.0	0.00e+00	0	37	0	35651584	50	5519
2026-01-08 02:30:59.29	163.16	3.33	-36.8	-37.7	20.7	0.00e+00	0	37	0	40894464	48	5544
2026-01-08 02:31:00.29	163.18	3.40	-36.4	-37.2	21.4	0.00e+00	0	37	0	47185920	46	5893
2026-01-08 02:31:01.30	163.19	3.46	-36.0	-36.8	21.7	0.00e+00	0	37	0	52428800	46	5609
2026-01-08 02:31:02.31	163.21	3.53	-36.2	-37.0	21.5	0.00e+00	0	37	0	58720256	46	5755
2026-01-08 02:31:03.32	163.22	3.60	-36.3	-37.2	21.3	0.00e+00	0	37	0	63963136	46	5831
2026-01-08 02:31:04.33	163.23	3.67	-37.0	-37.9	20.5	0.00e+00	0	37	0	70254592	46	6380
2026-01-08 02:31:05.35	163.25	3.74	-37.4	-38.3	20.2	0.00e+00	0	37	0	75497472	46	6639
2026-01-08 02:31:06.35	163.26	3.81	-37.4	-38.3	20.5	0.00e+00	0	37	0	80740352	52	4719
2026-01-08 02:31:07.36	163.28	3.88	-38.2	-39.2	19.5	0.00e+00	0	37	0	87031808	52	5221
2026-01-08 02:31:08.37	163.29	3.94	-42.6	-44.4	15.0	5.11e-03	0	37	0	92274688	60	6024
2026-01-08 02:31:09.38	163.30	4.01	-37.4	-38.4	20.7	0.00e+00	0	37	0	98566144	50	5336
2026-01-08 02:31:10.39	163.32	4.08	-47.1	-55.4	4.4	8.42e-01	0	37	104	100663296	60	21399
2026-01-08 02:31:11.40	163.33	4.15	-40.7	-42.1	16.9	0.00e+00	0	37	0	102760448	54	6489
2026-01-08 02:31:12.41	163.35	4.22	-38.6	-39.6	19.0	0.00e+00	0	37	0	108003328	52	5486
2026-01-08 02:31:13.42	163.36	4.29	-37.5	-38.4	20.3	0.00e+00	0	37	0	114294784	48	6026
2026-01-08 02:31:14.43	163.38	4.36	-37.1	-38.0	20.7	0.00e+00	0	37	0	119537664	48	5713
2026-01-08 02:31:15.44	163.39	4.43	-36.9	-37.8	20.9	0.00e+00	0	37	0	125829120	48	5575
2026-01-08 02:31:16.45	163.40	4.50	-36.3	-37.1	21.0	0.00e+00	0	37	0	131072000	46	5826
2026-01-08 02:31:17.46	163.42	4.58	-36.8	-37.6	21.4	0.00e+00	0	37	0	136314880	46	6157
2026-01-08 02:31:18.47	163.43	4.65	-36.9	-37.8	21.1	0.00e+00	0	37	0	142606336	46	6248
2026-01-08 02:31:19.47	163.45	4.72	-36.9	-37.8	20.9	0.00e+00	0	37	0	147849216	46	6279
2026-01-08 02:31:20.49	163.46	4.79	-36.2	-37.0	21.6	0.00e+00	0	37	0	154140672	46	5747
2026-01-08 02:31:21.50	163.48	4.86	-36.3	-37.1	21.5	0.00e+00	0	37	0	159383552	46	5811
2026-01-08 02:31:22.51	163.49	4.93	-36.6	-37.4	21.4	0.00e+00	0	37	0	164626432	46	6012
2026-01-08 02:31:23.52	163.51	5.00	-36.4	-37.3	21.4	0.00e+00	0	37	0	170917888	46	5913
2026-01-08 02:31:24.53	163.52	5.08	-36.8	-37.7	21.0	0.00e+00	0	37	0	176160768	46	6216
2026-01-08 02:31:25.54	163.54	5.15	-37.4	-38.3	20.9	0.00e+00	0	37	0	182452224	46	6632
2026-01-08 02:31:26.55	163.55	5.22	-36.5	-37.4	20.9	0.00e+00	0	37	0	187695104	46	5966
2026-01-08 02:31:27.56	163.57	5.29	-37.0	-37.9	21.2	0.00e+00	0	37	0	192937984	46	6338
2026-01-08 02:31:28.56	163.58	5.37	-37.4	-38.3	20.8	0.00e+00	0	37	0	199229440	46	6689
2026-01-08 02:31:29.57	163.60	5.44	-36.9	-37.8	20.9	0.00e+00	0	37	0	204472320	46	6284
2026-01-08 02:31:30.58	163.62	5.51	-36.4	-37.2	21.5	0.00e+00	0	37	0	210763776	46	5887
2026-01-08 02:31:31.59	163.63	5.59	-36.4	-37.2	21.5	0.00e+00	0	37	0	216006656	46	5831
2026-01-08 02:31:32.60	163.65	5.66	-36.3	-37.1	21.9	0.00e+00	0	37	0	222298112	46	5772
2026-01-08 02:31:33.61	163.66	5.74	-36.1	-36.9	21.9	0.00e+00	0	37	0	227540992	46	5670
2026-01-08 02:31:34.62	163.68	5.81	-35.6	-36.4	22.3	0.00e+00	0	37	0	233832448	44	6008
2026-01-08 02:31:35.63	163.69	5.88	-35.3	-36.1	22.9	0.00e+00	0	37	0	239075328	44	5801
2026-01-08 02:31:36.64	163.71	5.96	-35.2	-35.9	22.8	0.00e+00	0	37	0	244318208	44	5681
2026-01-08 02:31:37.65	163.73	6.03	-35.2	-36.0	22.6	0.00e+00	0	37	0	250609664	44	5731
2026-01-08 02:31:38.66	163.74	6.11	-35.1	-35.8	22.7	0.00e+00	0	37	0	255852544	44	5619
2026-01-08 02:31:39.67	163.76	6.18	-35.1	-35.9	22.8	0.00e+00	0	37	0	262144000	44	5647
2026-01-08 02:31:40.68	163.77	6.26	-35.7	-36.5	22.5	0.00e+00	0	37	0	267386880	44	6076
2026-01-08 02:31:41.69	163.79	6.34	-35.3	-36.0	22.8	0.00e+00	0	37	0	272629760	44	5754
2026-01-08 02:31:42.70	163.81	6.41	-35.3	-36.1	22.7	0.00e+00	0	37	0	278921216	44	5783
2026-01-08 02:31:43.71	163.82	6.49	-35.3	-36.1	22.8	0.00e+00	0	37	0	284164096	44	5774
2026-01-08 02:31:44.72	163.84	6.56	-35.6	-36.4	22.6	0.00e+00	0	37	0	290455552	44	5987
2026-01-08 02:31:45.73	163.85	6.64	-35.4	-36.2	22.4	0.00e+00	0	37	0	295698432	44	5880
2026-01-08 02:31:46.74	163.87	6.72	-35.7	-36.5	22.7	0.00e+00	0	37	0	300941312	44	6082
2026-01-08 02:31:47.75	163.89	6.79	-35.3	-36.0	22.8	0.00e+00	0	37	0	307232768	44	5758
2026-01-08 02:31:48.75	163.90	6.87	-35.4	-36.1	22.8	0.00e+00	0	37	0	312475648	44	5810
2026-01-08 02:31:49.76	163.92	6.95	-35.4	-36.1	22.5	0.00e+00	0	37	0	318767104	44	5801
2026-01-08 02:31:50.77	163.94	7.03	-35.9	-36.7	22.3	0.00e+00	0	37	0	324009984	44	6199
2026-01-08 02:31:51.78	163.95	7.10	-36.0	-36.8	22.0	0.00e+00	0	37	0	330301440	44	6304
2026-01-08 02:31:52.79	163.97	7.18	-35.8	-36.6	22.2	0.00e+00	0	37	0	335544320	44	6131
2026-01-08 02:31:53.80	163.99	7.26	-35.7	-36.5	22.7	0.00e+00	0	37	0	340787200	44	6037
2026-01-08 02:31:54.81	164.01	7.34	-35.3	-36.0	22.9	0.00e+00	0	37	0	347078656	44	5720
2026-01-08 02:31:55.82	164.02	7.42	-35.4	-36.2	22.8	0.00e+00	0	37	0	352321536	44	5844
2026-01-08 02:31:56.83	164.04	7.50	-35.1	-35.8	23.1	0.00e+00	0	37	0	358612992	44	5610
2026-01-08 02:31:57.84	164.06	7.58	-34.9	-35.6	23.4	0.00e+00	0	37	0	363855872	44	5469
2026-01-08 02:31:58.85	164.07	7.66	-34.8	-35.6	23.5	0.00e+00	0	37	0	369098752	42	6117
2026-01-08 02:31:59.86	164.09	7.74	-34.5	-35.2	23.7	0.00e+00	0	37	0	375390208	42	5885
2026-01-08 02:32:00.87	164.11	7.82	-34.3	-35.0	23.9	0.00e+00	0	37	0	380633088	42	5726
2026-01-08 02:32:01.88	164.13	7.90	-34.3	-35.0	24.0	0.00e+00	0	37	0	386924544	42	5734
2026-01-08 02:32:02.89	164.14	7.98	-34.2	-34.9	24.0	0.00e+00	0	37	0	392167424	42	5691
2026-01-08 02:32:03.90	164.16	8.06	-34.2	-35.0	24.0	0.00e+00	0	37	0	397410304	42	5699
2026-01-08 02:32:04.90	164.18	8.14	-34.2	-34.9	24.0	0.00e+00	0	37	0	403701760	42	5692
2026-01-08 02:32:05.91	164.20	8.22	-34.3	-35.1	23.9	0.00e+00	0	37	0	408944640	42	5776
2026-01-08 02:32:06.92	164.22	8.30	-34.2	-34.9	24.0	0.00e+00	0	37	0	415236096	42	5684
2026-01-08 02:32:07.93	164.23	8.39	-34.1	-34.8	24.1	0.00e+00	0	37	0	420478976	42	5624
2026-01-08 02:32:08.94	164.25	8.47	-34.2	-34.9	24.0	0.00e+00	0	37	0	426770432	42	5672
2026-01-08 02:32:09.95	164.27	8.55	-34.3	-35.0	24.0	0.00e+00	0	37	0	432013312	42	5727
2026-01-08 02:32:10.96	164.29	8.63	-34.1	-34.8	24.1	0.00e+00	0	37	0	437256192	42	5583
2026-01-08 02:32:11.97	164.31	8.72	-34.1	-34.8	24.2	0.00e+00	0	37	0	443547648	42	5609
2026-01-08 02:32:12.97	164.33	8.80	-34.1	-34.8	24.1	0.00e+00	0	37	0	448790528	42	5612
2026-01-08 02:32:13.98	164.34	8.88	-34.1	-34.8	24.2	0.00e+00	0	37	0	455081984	42	5618
2026-01-08 02:32:14.99	164.36	8.97	-34.1	-34.8	24.3	0.00e+00	0	37	0	460324864	42	5599
2026-01-08 02:32:16.00	164.38	9.05	-34.0	-34.7	24.3	0.00e+00	0	37	0	465567744	42	5547
2026-01-08 02:32:17.01	164.40	9.14	-34.1	-34.8	24.2	0.00e+00	0	37	0	471859200	42	5595
2026-01-08 02:32:18.02	164.42	9.22	-34.0	-34.7	24.3	0.00e+00	0	37	0	477102080	42	5552
2026-01-08 02:32:19.03	164.44	9.30	-34.0	-34.7	24.3	0.00e+00	0	37	0	483393536	42	5534
2026-01-08 02:32:20.04	164.46	9.39	-33.9	-34.6	24.4	0.00e+00	0	37	0	488636416	42	5471
2026-01-08 02:32:21.05	164.48	9.48	-34.0	-34.7	24.4	0.00e+00	0	37	0	493879296	42	5533
2026-01-08 02:32:22.06	164.50	9.56	-33.8	-34.5	24.5	0.00e+00	0	37	0	500170752	42	5435
2026-01-08 02:32:23.07	164.52	9.65	-33.8	-34.5	24.5	0.00e+00	0	37	0	505413632	42	5437
2026-01-08 02:32:24.08	164.53	9.73	-34.0	-34.7	24.4	0.00e+00	0	37	0	511705088	42	5548
2026-01-08 02:32:25.09	164.55	9.82	-33.8	-34.5	24.5	0.00e+00	0	37	0	516947968	42	5397
2026-01-08 02:32:26.10	164.57	9.91	-33.8	-34.5	24.5	0.00e+00	0	37	0	523239424	42	5432
2026-01-08 02:32:27.11	164.59	10.00	-33.8	-34.5	24.5	0.00e+00	0	37	0	528482304	42	5394
2026-01-08 02:32:28.12	164.61	10.08	-33.6	-34.3	24.7	0.00e+00	0	37	0	534773760	40	5937
2026-01-08 02:32:29.13	164.63	10.17	-33.6	-34.3	24.7	0.00e+00	0	37	0	540016640	40	5934
2026-01-08 02:32:30.14	164.65	10.26	-33.6	-34.2	24.7	0.00e+00	0	38	0	545259520	40	5890
2026-01-08 02:32:31.15	164.67	10.35	-33.6	-34.3	24.7	0.00e+00	0	37	0	551550976	40	5949
2026-01-08 02:32:32.16	164.69	10.44	-33.7	-34.4	24.7	0.00e+00	0	38	0	556793856	40	5967
2026-01-08 02:32:33.17	164.71	10.53	-33.7	-34.4	24.6	0.00e+00	0	37	0	563085312	40	5992
2026-01-08 02:32:34.18	164.74	10.62	-33.7	-34.4	24.7	0.00e+00	0	37	0	568328192	40	5996
2026-01-08 02:32:35.19	164.76	10.71	-33.5	-34.2	24.8	0.00e+00	0	37	0	573571072	40	5885
2026-01-08 02:32:36.19	164.78	10.80	-33.5	-34.2	24.8	0.00e+00	0	38	0	579862528	40	5877
2026-01-08 02:32:37.20	164.80	10.89	-33.7	-34.4	24.7	0.00e+00	0	37	0	585105408	40	6012
2026-01-08 02:32:38.21	164.82	10.98	-33.5	-34.2	24.8	0.00e+00	0	37	0	590348288	40	5894
2026-01-08 02:32:39.22	164.84	11.07	-33.6	-34.3	24.8	0.00e+00	0	37	0	596639744	40	5926
2026-01-08 02:32:40.23	164.86	11.16	-33.5	-34.2	24.8	0.00e+00	0	37	0	601882624	40	5889
2026-01-08 02:32:41.24	164.88	11.25	-33.6	-34.3	24.8	0.00e+00	0	37	0	608174080	40	5915
2026-01-08 02:32:42.25	164.90	11.35	-33.5	-34.1	24.8	0.00e+00	0	37	0	613416960	40	5823
2026-01-08 02:32:43.26	164.92	11.44	-33.5	-34.2	24.8	0.00e+00	0	37	0	619708416	40	5863
2026-01-08 02:32:44.27	164.95	11.53	-33.6	-34.3	24.7	0.00e+00	0	37	0	624951296	40	5919
2026-01-08 02:32:45.28	164.97	11.63	-33.5	-34.2	24.9	0.00e+00	0	37	0	631242752	40	5884
2026-01-08 02:32:46.29	164.99	11.72	-33.6	-34.3	24.8	0.00e+00	0	37	0	636485632	40	5929
2026-01-08 02:32:47.30	165.01	11.81	-33.5	-34.2	24.5	0.00e+00	0	38	0	641728512	40	5895
2026-01-08 02:32:48.31	165.03	11.91	-33.5	-34.2	24.9	0.00e+00	0	38	0	648019968	40	5873
2026-01-08 02:32:49.32	165.06	12.00	-33.5	-34.2	24.8	0.00e+00	0	37	0	653262848	40	5847
2026-01-08 02:32:50.33	165.08	12.10	-33.4	-34.1	25.0	0.00e+00	0	37	0	659554304	40	5770
2026-01-08 02:32:51.34	165.10	12.19	-33.4	-34.1	24.9	0.00e+00	0	38	0	664797184	40	5785
2026-01-08 02:32:52.35	165.12	12.29	-33.4	-34.1	25.0	0.00e+00	0	38	0	670040064	40	5777
2026-01-08 02:32:53.36	165.15	12.39	-33.3	-34.0	25.1	0.00e+00	0	38	0	676331520	40	5710
2026-01-08 02:32:54.37	165.17	12.48	-33.4	-34.1	25.0	0.00e+00	0	37	0	681574400	40	5770
2026-01-08 02:32:55.37	165.19	12.58	-33.2	-33.9	25.1	0.00e+00	0	38	0	687865856	40	5663
2026-01-08 02:32:56.38	165.21	12.68	-33.2	-33.9	25.0	0.00e+00	0	38	0	693108736	40	5668
2026-01-08 02:32:57.39	165.24	12.77	-33.2	-33.9	25.1	0.00e+00	0	37	0	698351616	40	5667
2026-01-08 02:32:58.40	165.26	12.87	-33.1	-33.7	25.3	0.00e+00	0	38	0	704643072	40	5563
2026-01-08 02:32:59.41	165.28	12.97	-33.0	-33.6	25.4	0.00e+00	0	38	0	709885952	40	5498
2026-01-08 02:33:00.42	165.31	13.07	-32.9	-33.6	25.5	0.00e+00	0	38	0	716177408	40	5450
2026-01-08 02:33:01.43	165.33	13.17	-33.1	-33.8	25.2	0.00e+00	0	38	0	721420288	40	5571
2026-01-08 02:33:02.44	165.36	13.27	-33.1	-33.8	25.2	0.00e+00	0	38	0	727711744	40	5589
2026-01-08 02:33:03.45	165.38	13.37	-32.8	-33.6	25.5	0.00e+00	0	38	0	732954624	40	5440
2026-01-08 02:33:04.45	165.40	13.47	-32.8	-33.5	25.5	0.00e+00	0	38	0	738197504	40	5384
2026-01-08 02:33:05.46	165.43	13.57	-32.8	-33.5	25.6	0.00e+00	0	38	0	744488960	38	6056
2026-01-08 02:33:06.47	165.45	13.67	-32.8	-33.4	25.6	0.00e+00	0	37	0	749731840	38	6010
2026-01-08 02:33:07.48	165.48	13.77	-32.5	-33.2	25.9	0.00e+00	0	38	0	756023296	38	5868
2026-01-08 02:33:08.49	165.50	13.88	-32.6	-33.3	25.8	0.00e+00	0	38	0	761266176	38	5902
2026-01-08 02:33:09.50	165.53	13.98	-32.4	-33.1	25.9	0.00e+00	0	38	0	766509056	38	5787
2026-01-08 02:33:10.51	165.55	14.08	-32.4	-33.1	25.9	0.00e+00	0	37	0	772800512	38	5787
2026-01-08 02:33:11.52	165.58	14.19	-32.5	-33.1	25.9	0.00e+00	0	37	0	778043392	38	5828
2026-01-08 02:33:12.53	165.60	14.29	-32.5	-33.1	25.9	0.00e+00	0	38	0	784334848	38	5809
2026-01-08 02:33:13.54	165.63	14.39	-32.3	-32.9	26.1	0.00e+00	0	38	0	789577728	38	5668
2026-01-08 02:33:14.55	165.65	14.50	-32.3	-32.9	26.1	0.00e+00	0	37	0	794820608	38	5681
2026-01-08 02:33:15.56	165.68	14.61	-32.2	-32.9	26.1	0.00e+00	0	37	0	801112064	38	5642
2026-01-08 02:33:16.57	165.71	14.71	-32.2	-32.9	25.9	0.00e+00	0	38	0	806354944	38	5652
2026-01-08 02:33:17.58	165.73	14.82	-32.2	-32.9	25.9	0.00e+00	0	38	0	812646400	38	5664
2026-01-08 02:33:18.59	165.76	14.92	-32.1	-32.8	26.1	0.00e+00	0	38	0	817889280	38	5592
2026-01-08 02:33:19.60	165.78	15.03	-32.2	-32.8	26.1	0.00e+00	0	38	0	824180736	38	5606
2026-01-08 02:33:20.61	165.81	15.14	-32.1	-32.7	26.3	0.00e+00	0	37	0	829423616	38	5540
2026-01-08 02:33:21.62	165.84	15.25	-32.0	-32.7	26.4	0.00e+00	0	38	0	835715072	38	5531
2026-01-08 02:33:22.63	165.86	15.36	-32.1	-32.8	26.2	0.00e+00	0	38	0	840957952	38	5571
2026-01-08 02:33:23.64	165.89	15.47	-32.0	-32.6	26.4	0.00e+00	0	38	0	846200832	38	5476
2026-01-08 02:33:24.65	165.92	15.58	-31.9	-32.6	26.4	0.00e+00	0	38	0	852492288	38	5459
2026-01-08 02:33:25.66	165.95	15.69	-31.9	-32.6	26.5	0.00e+00	0	38	0	857735168	38	5451
2026-01-08 02:33:26.67	165.97	15.80	-31.8	-32.4	26.5	0.00e+00	0	38	0	864026624	38	5359
2026-01-08 02:33:27.68	166.00	15.91	-31.7	-32.4	26.4	0.00e+00	0	37	0	869269504	38	5342
2026-01-08 02:33:28.69	166.03	16.02	-31.8	-32.4	26.6	0.00e+00	0	37	0	874512384	36	6003
2026-01-08 02:33:29.70	166.06	16.13	-31.7	-32.4	26.6	0.00e+00	0	37	0	880803840	36	5993
2026-01-08 02:33:30.71	166.09	16.24	-31.7	-32.3	26.6	0.00e+00	0	37	0	886046720	36	5956
2026-01-08 02:33:31.72	166.11	16.36	-31.7	-32.4	26.5	0.00e+00	0	37	0	892338176	36	5977
2026-01-08 02:33:32.73	166.14	16.47	-31.7	-32.4	26.6	0.00e+00	0	38	0	897581056	36	5970
2026-01-08 02:33:33.74	166.17	16.59	-31.7	-32.4	26.7	0.00e+00	0	38	0	902823936	36	5972
2026-01-08 02:33:34.75	166.20	16.70	-31.5	-32.2	26.8	0.00e+00	0	38	0	909115392	36	5844
2026-01-08 02:33:35.76	166.23	16.82	-31.6	-32.2	26.6	0.00e+00	0	38	0	914358272	36	5879
2026-01-08 02:33:36.77	166.26	16.93	-31.5	-32.1	26.9	0.00e+00	0	38	0	920649728	36	5792
2026-01-08 02:33:37.78	166.29	17.05	-31.6	-32.2	26.7	0.00e+00	0	38	0	925892608	36	5868
2026-01-08 02:33:38.79	166.32	17.17	-31.4	-32.1	26.8	0.00e+00	0	38	0	932184064	36	5779
2026-01-08 02:33:39.80	166.35	17.28	-31.6	-32.2	26.8	0.00e+00	0	38	0	937426944	36	5862
2026-01-08 02:33:40.80	166.38	17.40	-31.5	-32.2	26.8	0.00e+00	0	38	0	942669824	36	5843
2026-01-08 02:33:41.81	166.41	17.52	-31.4	-32.0	26.9	0.00e+00	0	38	0	948961280	36	5756
2026-01-08 02:33:42.82	166.44	17.64	-31.5	-32.1	26.7	0.00e+00	0	38	0	954204160	36	5794
2026-01-08 02:33:43.83	166.47	17.76	-31.4	-32.1	26.9	0.00e+00	0	38	0	960495616	36	5772
2026-01-08 02:33:44.84	166.50	17.88	-31.4	-32.0	26.9	0.00e+00	0	38	0	965738496	36	5755
2026-01-08 02:33:45.85	166.54	18.00	-31.3	-31.9	27.0	0.00e+00	0	38	0	970981376	36	5682
2026-01-08 02:33:46.86	166.57	18.12	-31.3	-31.9	27.0	0.00e+00	0	38	0	977272832	36	5672
2026-01-08 02:33:47.87	166.60	18.24	-31.4	-32.0	27.0	0.00e+00	0	37	0	982515712	36	5720
2026-01-08 02:33:48.88	166.63	18.37	-31.2	-31.9	27.0	0.00e+00	0	38	0	988807168	36	5643
2026-01-08 02:33:49.89	166.66	18.49	-31.3	-31.9	27.1	0.00e+00	0	37	0	994050048	36	5685
2026-01-08 02:33:50.90	166.70	18.61	-31.2	-31.8	27.1	0.00e+00	0	37	0	999292928	36	5615
2026-01-08 02:33:51.91	166.73	18.74	-31.2	-31.9	27.0	0.00e+00	0	37	0	1005584384	36	5641
2026-01-08 02:33:52.92	166.76	18.86	-31.2	-31.9	27.1	0.00e+00	0	37	0	1010827264	36	5652
2026-01-08 02:33:53.93	166.80	18.99	-31.2	-31.8	27.2	0.00e+00	0	37	0	1017118720	36	5626
2026-01-08 02:33:54.94	166.83	19.12	-31.0	-31.7	27.2	0.00e+00	0	37	0	1022361600	36	5523
2026-01-08 02:33:55.95	166.86	19.24	-31.1	-31.7	27.2	0.00e+00	0	38	0	1028653056	36	5561
2026-01-08 02:33:56.96	166.90	19.37	-31.0	-31.6	27.3	0.00e+00	0	38	0	1033895936	36	5476
2026-01-08 02:33:57.97	166.93	19.50	-31.0	-31.6	27.3	0.00e+00	0	37	0	1040187392	36	5483
2026-01-08 02:33:58.98	166.97	19.63	-31.0	-31.7	27.2	0.00e+00	0	37	0	1045430272	36	5527
2026-01-08 02:33:59.99	167.00	19.76	-30.9	-31.5	27.4	0.00e+00	0	37	0	1050673152	36	5419
2026-01-08 02:34:01.00	167.04	19.89	-31.0	-31.7	27.2	0.00e+00	0	37	0	1056964608	36	5519
2026-01-08 02:34:02.00	167.07	20.02	-30.8	-31.5	27.3	0.00e+00	0	38	0	1062207488	36	5410
2026-01-08 02:34:03.01	167.11	20.15	-30.7	-31.3	27.6	0.00e+00	0	38	0	1067450368	34	5939
2026-01-08 02:34:04.02	167.14	20.28	-30.7	-31.3	27.4	0.00e+00	0	38	0	1073741824	34	5962
2026-01-08 02:34:05.03	167.18	20.42	-30.5	-31.1	27.7	0.00e+00	0	37	0	1078984704	34	5828
2026-01-08 02:34:06.04	167.21	20.55	-30.4	-31.0	27.7	0.00e+00	0	38	0	1085276160	34	5749
2026-01-08 02:34:07.05	167.25	20.68	-30.4	-31.0	27.8	0.00e+00	0	38	0	1090519040	34	5746
2026-01-08 02:34:08.06	167.29	20.82	-30.4	-31.1	27.8	0.00e+00	0	37	0	1095761920	34	5784
2026-01-08 02:34:09.07	167.33	20.96	-30.3	-30.9	27.9	0.00e+00	0	37	0	1102053376	34	5676
2026-01-08 02:34:10.08	167.36	21.09	-30.3	-30.9	27.8	0.00e+00	0	38	0	1107296256	34	5691
2026-01-08 02:34:11.09	167.40	21.23	-30.4	-31.0	27.8	0.00e+00	0	38	0	1113587712	34	5718
2026-01-08 02:34:12.10	167.44	21.37	-30.4	-31.0	27.8	0.00e+00	0	38	0	1118830592	34	5739
2026-01-08 02:34:13.11	167.48	21.51	-30.3	-31.0	27.9	0.00e+00	0	38	0	1125122048	34	5702
2026-01-08 02:34:14.12	167.52	21.65	-30.3	-31.0	27.8	0.00e+00	0	38	0	1130364928	34	5697
2026-01-08 02:34:15.13	167.56	21.79	-30.3	-30.9	27.9	0.00e+00	0	38	0	1136656384	34	5672
2026-01-08 02:34:16.14	167.60	21.93	-30.3	-30.9	27.8	0.00e+00	0	38	0	1141899264	34	5687
2026-01-08 02:34:17.15	167.64	22.07	-30.3	-31.0	27.8	0.00e+00	0	38	0	1147142144	34	5700
2026-01-08 02:34:18.16	167.68	22.21	-30.4	-31.0	27.9	0.00e+00	0	38	0	1153433600	34	5708
2026-01-08 02:34:19.17	167.72	22.36	-30.5	-31.1	27.7	0.00e+00	0	37	0	1158676480	34	5808
2026-01-08 02:34:20.18	167.76	22.50	-30.4	-31.0	27.7	0.00e+00	0	37	0	1164967936	34	5740
2026-01-08 02:34:21.19	167.80	22.65	-30.4	-31.0	27.8	0.00e+00	0	37	0	1170210816	34	5737
2026-01-08 02:34:22.20	167.84	22.79	-30.4	-31.0	27.8	0.00e+00	0	38	0	1175453696	34	5737
2026-01-08 02:34:23.21	167.88	22.94	-30.4	-31.1	27.8	0.00e+00	0	38	0	1181745152	34	5783
2026-01-08 02:34:24.22	167.93	23.09	-30.5	-31.1	27.7	0.00e+00	0	38	0	1186988032	34	5794
2026-01-08 02:34:25.23	167.97	23.24	-30.3	-30.9	27.8	0.00e+00	0	38	0	1193279488	34	5684
2026-01-08 02:34:26.24	168.01	23.39	-30.3	-30.9	27.9	0.00e+00	0	38	0	1198522368	34	5654
2026-01-08 02:34:27.25	168.05	23.54	-30.2	-30.9	28.0	0.00e+00	0	38	0	1203765248	34	5641
2026-01-08 02:34:28.26	168.10	23.69	-30.1	-30.7	28.0	0.00e+00	0	38	0	1210056704	34	5531
2026-01-08 02:34:29.27	168.14	23.84	-30.0	-30.6	28.1	0.00e+00	0	38	0	1215299584	34	5498
2026-01-08 02:34:30.28	168.19	23.99	-30.0	-30.6	28.1	0.00e+00	0	38	0	1221591040	34	5489
2026-01-08 02:34:31.29	168.23	24.15	-29.9	-30.5	28.2	0.00e+00	0	38	0	1226833920	34	5410
2026-01-08 02:34:32.30	168.28	24.30	-29.9	-30.6	28.2	0.00e+00	0	38	0	1233125376	34	5451
2026-01-08 02:34:33.31	168.32	24.46	-29.8	-30.4	28.3	0.00e+00	0	38	0	1238368256	34	5366
2026-01-08 02:34:34.32	168.37	24.61	-29.8	-30.4	28.2	0.00e+00	0	38	0	1244659712	34	5375
2026-01-08 02:34:35.33	168.42	24.77	-29.8	-30.5	28.2	0.00e+00	0	38	0	1249902592	34	5395
2026-01-08 02:34:36.34	168.46	24.93	-30.0	-30.6	28.1	0.00e+00	0	38	0	1255145472	34	5494
2026-01-08 02:34:37.35	168.51	25.09	-29.8	-30.5	28.3	0.00e+00	0	38	0	1261436928	34	5381
2026-01-08 02:34:38.36	168.56	25.25	-29.9	-30.6	28.1	0.00e+00	0	38	0	1266679808	34	5453
2026-01-08 02:34:39.37	168.61	25.41	-29.9	-30.5	28.2	0.00e+00	0	38	0	1272971264	34	5428
2026-01-08 02:34:40.38	168.66	25.57	-30.1	-30.7	28.2	0.00e+00	0	38	0	1278214144	34	5526
2026-01-08 02:34:41.39	168.71	25.74	-29.8	-30.4	28.2	0.00e+00	0	38	0	1283457024	34	5352
2026-01-08 02:34:42.40	168.76	25.90	-29.8	-30.4	28.3	0.00e+00	0	38	0	1289748480	34	5352
2026-01-08 02:34:43.41	168.81	26.07	-29.7	-30.3	28.3	0.00e+00	0	38	0	1294991360	32	5964
2026-01-08 02:34:44.42	168.86	26.23	-29.8	-30.4	28.3	0.00e+00	0	38	0	1301282816	32	6008
2026-01-08 02:34:45.43	168.91	26.40	-29.7	-30.3	28.3	0.00e+00	0	38	0	1306525696	32	5940
2026-01-08 02:34:46.44	168.96	26.57	-29.7	-30.3	28.3	0.00e+00	0	38	0	1311768576	32	5956
2026-01-08 02:34:47.45	169.01	26.74	-29.7	-30.4	28.3	0.00e+00	0	38	0	1318060032	32	5983
2026-01-08 02:34:48.46	169.06	26.91	-29.9	-30.5	28.1	0.00e+00	0	38	0	1323302912	32	6071
2026-01-08 02:34:49.47	169.12	27.08	-29.9	-30.5	28.2	0.00e+00	0	38	0	1329594368	32	6060
2026-01-08 02:34:50.48	169.17	27.25	-29.9	-30.5	28.2	0.00e+00	0	38	0	1334837248	32	6103
2026-01-08 02:34:51.48	169.23	27.42	-30.0	-30.6	28.1	0.00e+00	0	38	0	1341128704	32	6167
2026-01-08 02:34:52.49	169.28	27.60	-30.0	-30.7	28.1	0.00e+00	0	38	0	1346371584	32	6194
2026-01-08 02:34:53.51	169.34	27.77	-29.9	-30.5	28.2	0.00e+00	0	38	0	1351614464	32	6096
2026-01-08 02:34:54.51	169.39	27.95	-30.0	-30.7	28.0	0.00e+00	0	38	0	1357905920	32	6177
2026-01-08 02:34:55.53	169.45	28.13	-30.1	-30.7	28.1	0.00e+00	0	38	0	1363148800	32	6179
2026-01-08 02:34:56.53	169.51	28.31	-29.7	-30.4	28.3	0.00e+00	0	38	0	1369440256	32	5965
2026-01-08 02:34:57.55	169.57	28.49	-29.7	-30.3	28.3	0.00e+00	0	38	0	1374683136	32	5907
2026-01-08 02:34:58.56	169.62	28.67	-29.7	-30.3	28.4	0.00e+00	0	38	0	1379926016	32	5915
2026-01-08 02:34:59.56	169.68	28.85	-29.7	-30.3	28.3	0.00e+00	0	38	0	1386217472	32	5958
2026-01-08 02:35:00.58	169.74	29.03	-29.6	-30.2	28.4	0.00e+00	0	38	0	1391460352	32	5876
2026-01-08 02:35:01.58	169.80	29.22	-29.5	-30.1	28.4	0.00e+00	0	38	0	1397751808	32	5820
2026-01-08 02:35:02.59	169.86	29.40	-29.5	-30.2	28.4	0.00e+00	0	38	0	1402994688	32	5835
2026-01-08 02:35:03.61	169.93	29.59	-29.6	-30.2	28.5	0.00e+00	0	38	0	1408237568	32	5866
2026-01-08 02:35:04.62	169.99	29.78	-29.7	-30.4	28.3	0.00e+00	0	38	0	1414529024	32	5981
2026-01-08 02:35:05.63	170.05	29.97	-29.7	-30.4	28.3	0.00e+00	0	38	0	1419771904	32	5985
2026-01-08 02:35:06.64	170.12	30.16	-29.8	-30.5	28.2	0.00e+00	0	38	0	1426063360	32	6039
2026-01-08 02:35:07.65	170.18	30.35	-29.8	-30.5	28.3	0.00e+00	0	38	0	1431306240	32	6039
2026-01-08 02:35:08.66	170.25	30.55	-29.7	-30.3	28.4	0.00e+00	0	38	0	1437597696	32	5941
2026-01-08 02:35:09.67	170.31	30.74	-29.5	-30.2	28.4	0.00e+00	0	38	0	1442840576	32	5852
2026-01-08 02:35:10.68	170.38	30.94	-29.6	-30.2	28.4	0.00e+00	0	38	0	1449132032	32	5830
2026-01-08 02:35:11.68	170.44	31.13	-29.4	-30.0	28.6	0.00e+00	0	37	0	1454374912	32	5736
2026-01-08 02:35:12.69	170.51	31.33	-29.2	-29.8	28.6	0.00e+00	0	37	0	1459617792	32	5616
2026-01-08 02:35:13.71	170.58	31.53	-29.0	-29.6	28.9	0.00e+00	0	38	0	1465909248	32	5453
2026-01-08 02:35:14.72	170.65	31.73	-29.0	-29.6	28.9	0.00e+00	0	38	0	1471152128	32	5471
2026-01-08 02:35:15.73	170.72	31.94	-29.2	-29.8	28.8	0.00e+00	0	38	0	1477443584	32	5575
2026-01-08 02:35:16.74	170.80	32.14	-29.4	-30.0	28.6	0.00e+00	0	38	0	1482686464	32	5725
2026-01-08 02:35:17.75	170.87	32.34	-29.5	-30.1	28.6	0.00e+00	0	38	0	1487929344	32	5824
2026-01-08 02:35:18.76	170.94	32.55	-29.6	-30.2	28.5	0.00e+00	0	38	0	1494220800	32	5894
2026-01-08 02:35:19.77	171.02	32.76	-29.7	-30.4	28.3	0.00e+00	0	38	0	1499463680	32	5980
2026-01-08 02:35:20.78	171.09	32.97	-29.6	-30.2	28.5	0.00e+00	0	38	0	1505755136	32	5863
2026-01-08 02:35:21.79	171.17	33.18	-29.5	-30.2	28.4	0.00e+00	0	38	0	1510998016	32	5831
2026-01-08 02:35:22.80	171.24	33.39	-29.4	-30.0	28.6	0.00e+00	0	38	0	1516240896	32	5750
2026-01-08 02:35:23.81	171.32	33.60	-29.5	-30.1	28.6	0.00e+00	0	38	0	1522532352	32	5788
2026-01-08 02:35:24.82	171.40	33.82	-29.1	-29.7	28.8	0.00e+00	0	38	0	1527775232	32	5550
2026-01-08 02:35:25.83	171.48	34.03	-29.1	-29.6	28.8	0.00e+00	0	38	0	1534066688	32	5500
2026-01-08 02:35:26.84	171.56	34.25	-28.8	-29.4	29.0	0.00e+00	0	38	0	1539309568	32	5345
2026-01-08 02:35:27.85	171.64	34.47	-28.8	-29.3	29.1	0.00e+00	0	38	0	1545601024	30	5961
2026-01-08 02:35:28.86	171.73	34.69	-28.8	-29.5	28.9	0.00e+00	0	38	0	1550843904	30	6035
2026-01-08 02:35:29.82	171.81	34.90	-29.0	-29.6	28.9	0.00e+00	0	38	0	1557135360	30	6148
2026-01-08 02:35:30.83	171.89	35.13	-29.1	-29.7	28.8	0.00e+00	0	38	0	1562378240	30	6176
2026-01-08 02:35:31.84	171.98	35.35	-29.2	-29.8	28.9	0.00e+00	0	38	0	1567621120	30	6266
2026-01-08 02:35:32.86	172.07	35.58	-29.3	-29.9	28.6	0.00e+00	0	38	0	1573912576	30	6352
2026-01-08 02:35:33.87	172.15	35.81	-29.2	-29.8	28.8	0.00e+00	0	38	0	1579155456	30	6277
2026-01-08 02:35:34.88	172.24	36.04	-29.4	-30.0	28.7	0.00e+00	0	38	0	1585446912	30	6415
2026-01-08 02:35:35.89	172.34	36.27	-29.4	-30.0	28.7	0.00e+00	0	38	0	1590689792	30	6424
2026-01-08 02:35:36.90	172.43	36.51	-29.3	-29.9	28.7	0.00e+00	0	38	0	1595932672	30	6368
2026-01-08 02:35:37.91	172.52	36.74	-29.0	-29.6	28.9	0.00e+00	0	38	0	1602224128	30	6154
2026-01-08 02:35:38.92	172.62	36.98	-29.0	-29.6	28.9	0.00e+00	0	38	0	1607467008	30	6121
2026-01-08 02:35:39.93	172.71	37.21	-28.9	-29.5	29.0	0.00e+00	0	38	0	1613758464	30	6056
2026-01-08 02:35:40.94	172.81	37.45	-28.8	-29.3	29.1	0.00e+00	0	38	0	1619001344	30	5960
2026-01-08 02:35:41.95	172.91	37.70	-28.8	-29.4	29.1	0.00e+00	0	38	0	1624244224	30	6010
2026-01-08 02:35:42.96	173.01	37.94	-29.0	-29.6	29.0	0.00e+00	0	38	0	1630535680	30	6106
2026-01-08 02:35:43.97	173.11	38.18	-29.0	-29.6	29.0	0.00e+00	0	38	0	1635778560	30	6136
2026-01-08 02:35:44.98	173.21	38.43	-29.1	-29.7	28.9	0.00e+00	0	38	0	1642070016	30	6183
2026-01-08 02:35:45.99	173.32	38.68	-29.0	-29.6	29.0	0.00e+00	0	38	0	1647312896	30	6168
2026-01-08 02:35:47.00	173.43	38.93	-29.0	-29.6	28.9	0.00e+00	0	38	0	1653604352	30	6150
2026-01-08 02:35:48.01	173.53	39.18	-29.1	-29.7	28.9	0.00e+00	0	38	0	1658847232	30	6244
2026-01-08 02:35:49.02	173.64	39.43	-29.3	-29.9	28.7	0.00e+00	0	38	0	1665138688	30	6361
2026-01-08 02:35:50.03	173.75	39.69	-29.2	-29.8	28.8	0.00e+00	0	38	0	1670381568	30	6259
2026-01-08 02:35:51.04	173.87	39.94	-29.1	-29.7	28.8	0.00e+00	0	38	0	1675624448	30	6229
2026-01-08 02:35:52.05	173.98	40.20	-29.1	-29.7	28.8	0.00e+00	0	38	0	1681915904	30	6235
2026-01-08 02:35:53.06	174.10	40.46	-29.3	-29.9	28.7	0.00e+00	0	38	0	1687158784	30	6355
2026-01-08 02:35:54.07	174.22	40.72	-29.3	-29.9	28.7	0.00e+00	0	38	0	1692401664	30	6376
2026-01-08 02:35:55.08	174.34	40.99	-29.4	-30.0	28.6	0.00e+00	0	38	0	1698693120	30	6415
2026-01-08 02:35:56.09	174.46	41.25	-29.6	-30.2	28.5	0.00e+00	0	38	0	1703936000	30	6603
2026-01-08 02:35:57.10	174.58	41.52	-29.4	-30.0	28.6	0.00e+00	0	38	0	1710227456	30	6457
2026-01-08 02:35:58.10	174.71	41.79	-29.5	-30.1	28.6	0.00e+00	0	38	0	1715470336	30	6486
2026-01-08 02:35:59.11	174.84	42.06	-29.5	-30.1	28.6	0.00e+00	0	38	0	1720713216	30	6520
2026-01-08 02:36:00.12	174.97	42.33	-29.4	-30.0	28.7	0.00e+00	0	38	0	1727004672	30	6433
2026-01-08 02:36:01.13	175.10	42.61	-29.4	-30.0	28.6	0.00e+00	0	38	0	1732247552	30	6461
2026-01-08 02:36:02.15	175.24	42.89	-29.4	-30.0	28.7	0.00e+00	0	38	0	1738539008	30	6407
2026-01-08 02:36:03.15	175.37	43.16	-29.5	-30.1	28.5	0.00e+00	0	38	0	1743781888	30	6507
2026-01-08 02:36:04.16	175.51	43.44	-29.7	-30.3	28.4	0.00e+00	0	38	0	1750073344	30	6674
2026-01-08 02:36:05.17	175.65	43.72	-29.8	-30.4	28.4	0.00e+00	0	38	0	1755316224	32	5988
2026-01-08 02:36:06.19	175.80	44.01	-29.9	-30.5	28.3	0.00e+00	0	38	0	1761607680	32	6076
2026-01-08 02:36:07.19	175.94	44.29	-29.8	-30.5	28.3	0.00e+00	0	38	0	1766850560	32	6056
2026-01-08 02:36:08.20	176.09	44.58	-29.7	-30.3	28.5	0.00e+00	0	38	0	1772093440	32	5954
2026-01-08 02:36:09.21	176.24	44.87	-29.7	-30.4	28.4	0.00e+00	0	38	0	1778384896	32	5976
2026-01-08 02:36:10.22	176.40	45.16	-29.6	-30.3	28.5	0.00e+00	0	38	0	1783627776	32	5923
2026-01-08 02:36:11.23	176.56	45.46	-29.6	-30.2	28.4	0.00e+00	0	38	0	1789919232	32	5878
2026-01-08 02:36:12.24	176.72	45.75	-29.5	-30.1	28.5	0.00e+00	0	38	0	1795162112	32	5828
2026-01-08 02:36:13.25	176.88	46.05	-29.5	-30.2	28.5	0.00e+00	0	38	0	1800404992	32	5838
2026-01-08 02:36:14.26	177.04	46.35	-29.4	-30.0	28.7	0.00e+00	0	38	0	1806696448	32	5735
2026-01-08 02:36:15.27	177.21	46.65	-29.6	-30.2	28.4	0.00e+00	0	38	0	1811939328	32	5887
2026-01-08 02:36:16.28	177.39	46.96	-29.7	-30.3	28.4	0.00e+00	0	38	0	1818230784	32	5935
2026-01-08 02:36:17.29	177.56	47.26	-29.8	-30.4	28.3	0.00e+00	0	38	0	1823473664	32	5997
2026-01-08 02:36:18.30	177.74	47.57	-29.8	-30.5	28.3	0.00e+00	0	38	0	1828716544	32	6039
2026-01-08 02:36:19.31	177.93	47.88	-29.7	-30.3	28.4	0.00e+00	0	38	0	1835008000	32	5951
2026-01-08 02:36:20.32	178.11	48.19	-29.3	-29.9	28.7	0.00e+00	0	38	0	1840250880	32	5671
2026-01-08 02:36:21.33	178.30	48.50	-29.4	-30.0	28.6	0.00e+00	0	38	0	1846542336	32	5696
2026-01-08 02:36:22.34	178.50	48.82	-29.6	-30.2	28.5	0.00e+00	0	38	0	1851785216	32	5869
2026-01-08 02:36:23.35	178.69	49.13	-29.8	-30.4	28.4	0.00e+00	0	38	0	1858076672	32	6021
2026-01-08 02:36:24.36	178.90	49.45	-29.9	-30.5	28.3	0.00e+00	0	38	0	1863319552	32	6059
2026-01-08 02:36:25.37	179.10	49.77	-30.1	-30.7	28.1	0.00e+00	0	38	0	1869611008	32	6211
2026-01-08 02:36:26.38	179.31	50.10	-30.3	-30.9	28.1	0.00e+00	0	38	0	1874853888	32	6360
2026-01-08 02:36:27.39	179.53	50.42	-30.2	-30.9	28.0	0.00e+00	0	38	0	1880096768	32	6343
2026-01-08 02:36:28.39	179.74	50.74	-30.1	-30.8	28.1	0.00e+00	0	38	0	1886388224	32	6246
2026-01-08 02:36:29.40	179.97	51.07	-30.2	-30.8	28.1	0.00e+00	0	38	0	1891631104	32	6282
2026-01-08 02:36:30.41	180.20	51.40	-30.3	-30.9	28.0	0.00e+00	0	38	0	1896873984	32	6359
2026-01-08 02:36:31.42	180.43	51.73	-30.3	-30.9	28.1	0.00e+00	0	38	0	1903165440	32	6367
2026-01-08 02:36:32.43	180.67	52.07	-30.3	-30.9	28.0	0.00e+00	0	38	0	1908408320	32	6385
2026-01-08 02:36:33.44	180.92	52.40	-30.4	-31.1	27.8	0.00e+00	0	38	0	1914699776	32	6508
2026-01-08 02:36:34.45	181.17	52.74	-30.7	-31.3	27.7	0.00e+00	0	38	0	1919942656	32	6664
2026-01-08 02:36:35.46	181.42	53.08	-30.8	-31.5	27.6	0.00e+00	0	38	0	1925185536	34	6038
2026-01-08 02:36:36.47	181.68	53.42	-30.8	-31.4	27.7	0.00e+00	0	38	0	1931476992	34	6003
2026-01-08 02:36:37.48	181.95	53.76	-30.4	-31.0	27.9	0.00e+00	0	38	0	1936719872	34	5751
2026-01-08 02:36:38.49	182.23	54.11	-30.5	-31.1	27.9	0.00e+00	0	38	0	1943011328	34	5788
2026-01-08 02:36:39.50	182.51	54.45	-30.8	-31.4	27.6	0.00e+00	0	38	0	1948254208	34	6024
2026-01-08 02:36:40.51	182.79	54.80	-31.0	-31.6	27.4	0.00e+00	0	38	0	1954545664	34	6139
2026-01-08 02:36:41.52	183.09	55.15	-30.8	-31.4	27.6	0.00e+00	0	38	0	1959788544	34	6011
2026-01-08 02:36:42.53	183.39	55.50	-30.6	-31.2	27.6	0.00e+00	0	38	0	1966080000	34	5873
2026-01-08 02:36:43.54	183.70	55.85	-30.7	-31.3	27.5	0.00e+00	0	38	0	1971322880	34	5953
2026-01-08 02:36:44.55	184.02	56.20	-30.5	-31.1	27.8	0.00e+00	0	38	0	1976565760	34	5804
2026-01-08 02:36:45.56	184.34	56.56	-30.6	-31.2	27.8	0.00e+00	0	38	0	1982857216	34	5880
2026-01-08 02:36:46.56	184.67	56.91	-30.7	-31.3	27.7	0.00e+00	0	38	0	1988100096	34	5927
2026-01-08 02:36:47.57	185.02	57.27	-30.4	-31.0	27.9	0.00e+00	0	38	0	1994391552	34	5734
2026-01-08 02:36:48.58	185.37	57.63	-30.2	-30.8	28.0	0.00e+00	0	38	0	1999634432	34	5611
2026-01-08 02:36:49.60	185.73	57.99	-30.0	-30.5	28.2	0.00e+00	0	38	0	2004877312	34	5439
2026-01-08 02:36:50.61	186.10	58.35	-29.8	-30.4	28.3	0.00e+00	0	38	0	2011168768	32	5993
2026-01-08 02:36:51.61	186.48	58.71	-30.0	-30.6	28.0	0.00e+00	0	38	0	2016411648	32	6115
2026-01-08 02:36:52.62	186.87	59.08	-30.0	-30.6	28.2	0.00e+00	0	38	0	2022703104	32	6120
2026-01-08 02:36:53.63	187.27	59.44	-30.0	-30.6	28.0	0.00e+00	0	38	0	2027945984	32	6168
2026-01-08 02:36:54.65	187.69	59.81	-29.6	-30.2	28.4	0.00e+00	0	38	0	2033188864	32	5867
2026-01-08 02:36:55.65	188.11	60.17	-29.7	-30.3	28.5	0.00e+00	0	38	0	2039480320	32	5944
2026-01-08 02:36:56.66	188.55	60.54	-29.5	-30.1	28.6	0.00e+00	0	38	0	2044723200	32	5822
2026-01-08 02:36:57.67	188.99	60.91	-29.5	-30.1	28.6	0.00e+00	0	38	0	2051014656	32	5811
2026-01-08 02:36:58.68	189.46	61.27	-29.2	-29.8	28.8	0.00e+00	0	38	0	2056257536	32	5618
2026-01-08 02:36:59.70	189.94	61.64	-29.0	-29.7	28.9	0.00e+00	0	38	0	2062548992	32	5508
2026-01-08 02:37:00.71	190.43	62.01	-29.3	-30.0	28.7	0.00e+00	0	38	0	2067791872	32	5703
2026-01-08 02:37:01.72	190.94	62.38	-29.5	-30.1	28.6	0.00e+00	0	38	0	2073034752	32	5787
2026-01-08 02:37:02.73	191.46	62.75	-29.0	-29.6	28.8	0.00e+00	0	38	0	2079326208	32	5502
2026-01-08 02:37:03.74	191.99	63.12	-29.0	-29.6	29.0	0.00e+00	0	38	0	2084569088	32	5471
2026-01-08 02:37:04.75	192.55	63.49	-28.9	-29.6	28.9	0.00e+00	0	38	0	2090860544	32	5441
2026-01-08 02:37:05.75	193.11	63.85	-28.7	-29.3	29.1	0.00e+00	0	38	0	2096103424	30	5919
2026-01-08 02:37:06.76	193.70	64.22	-28.7	-29.3	29.2	0.00e+00	0	38	0	2101346304	30	5914
2026-01-08 02:37:07.77	194.31	64.59	-29.5	-30.1	28.6	0.00e+00	0	38	0	2107637760	30	6531
2026-01-08 02:37:08.78	194.94	64.95	-29.6	-30.2	28.6	0.00e+00	0	38	0	2112880640	30	6591
2026-01-08 02:37:09.79	195.59	65.32	-29.2	-29.9	28.8	0.00e+00	0	38	0	2119172096	30	6334
2026-01-08 02:37:10.80	196.26	65.68	-29.3	-29.9	28.7	0.00e+00	0	38	0	2124414976	30	6367
2026-01-08 02:37:11.81	196.95	66.04	-29.0	-29.6	28.9	0.00e+00	0	38	0	2129657856	30	6139
2026-01-08 02:37:12.82	197.67	66.41	-29.0	-29.7	28.7	0.00e+00	0	38	0	2135949312	30	6190
2026-01-08 02:37:13.83	198.41	66.76	-29.1	-29.7	28.8	0.00e+00	0	38	0	2141192192	30	6199
2026-01-08 02:37:14.84	199.17	67.12	-28.9	-29.5	28.9	0.00e+00	0	38	0	2147483648	30	6085
2026-01-08 02:37:15.85	199.97	67.48	-28.9	-29.5	28.9	0.00e+00	0	38	0	2152726528	30	6054
2026-01-08 02:37:16.86	200.79	67.83	-29.3	-29.9	28.7	0.00e+00	0	38	0	2159017984	30	6368
2026-01-08 02:37:17.87	201.63	68.18	-28.8	-29.4	29.1	0.00e+00	0	38	0	2164260864	30	5988
2026-01-08 02:37:18.88	202.51	68.52	-28.8	-29.4	29.0	0.00e+00	0	38	0	2170552320	30	6007
2026-01-08 02:37:19.89	203.42	68.87	-29.0	-29.6	28.9	0.00e+00	0	38	0	2175795200	30	6134
2026-01-08 02:37:20.90	204.36	69.21	-28.6	-29.2	29.1	0.00e+00	0	38	0	2181038080	30	5847
2026-01-08 02:37:21.91	205.33	69.54	-28.5	-29.0	29.3	0.00e+00	0	38	0	2187329536	30	5735
2026-01-08 02:37:22.92	206.34	69.87	-29.0	-29.7	28.8	0.00e+00	0	38	0	2192572416	30	6177
2026-01-08 02:37:23.93	207.38	70.20	-28.9	-29.5	29.0	0.00e+00	0	38	0	2198863872	30	6058
2026-01-08 02:37:24.94	208.46	70.52	-28.7	-29.3	29.0	0.00e+00	0	38	0	2204106752	30	5933
2026-01-08 02:37:25.95	209.58	70.83	-28.7	-29.3	29.2	0.00e+00	0	38	0	2209349632	30	5914
2026-01-08 02:37:26.96	210.74	71.14	-28.5	-29.2	29.2	0.00e+00	0	38	0	2215641088	30	5839
2026-01-08 02:37:27.96	211.93	71.44	-28.3	-28.9	29.3	0.00e+00	0	38	0	2220883968	30	5681
2026-01-08 02:37:28.98	213.18	71.74	-28.0	-28.6	29.6	0.00e+00	0	38	0	2227175424	30	5448
2026-01-08 02:37:29.99	214.46	72.02	-27.9	-28.6	29.6	0.00e+00	0	38	0	2232418304	30	5440
2026-01-08 02:37:31.00	215.78	72.30	-28.0	-28.6	29.6	0.00e+00	0	38	0	2237661184	30	5453
2026-01-08 02:37:32.01	217.15	72.57	-28.1	-28.7	29.4	0.00e+00	0	38	0	2243952640	30	5546
2026-01-08 02:37:33.02	218.57	72.83	-28.1	-28.7	29.6	0.00e+00	0	38	0	2249195520	30	5518
2026-01-08 02:37:34.03	220.02	73.09	-28.2	-28.8	29.5	0.00e+00	0	38	0	2255486976	30	5602
2026-01-08 02:37:35.04	221.53	73.33	-28.2	-28.8	29.4	0.00e+00	0	38	0	2260729856	30	5630
2026-01-08 02:37:36.05	223.08	73.56	-27.9	-28.6	29.5	0.00e+00	0	38	0	2267021312	30	5446
2026-01-08 02:37:37.06	224.67	73.78	-28.0	-28.6	29.6	0.00e+00	0	38	0	2272264192	30	5462
2026-01-08 02:37:38.07	226.31	73.99	-28.2	-28.8	29.4	0.00e+00	0	38	0	2278555648	30	5595
2026-01-08 02:37:39.08	227.99	74.18	-27.9	-28.5	29.7	0.00e+00	0	38	0	2283798528	30	5417
2026-01-08 02:37:40.09	229.71	74.37	-28.1	-28.8	29.5	0.00e+00	0	38	0	2289041408	30	5576
2026-01-08 02:37:41.10	231.48	74.53	-27.8	-28.4	29.7	0.00e+00	0	38	0	2295332864	30	5362
2026-01-08 02:37:42.11	233.28	74.69	-27.9	-28.6	29.6	0.00e+00	0	38	0	2300575744	30	5449
2026-01-08 02:37:43.12	235.12	74.83	-27.8	-28.4	29.6	0.00e+00	0	38	0	2305818624	28	6026
2026-01-08 02:37:44.13	236.99	74.95	-28.2	-28.8	29.3	0.00e+00	0	38	0	2312110080	28	6256
2026-01-08 02:37:45.14	238.90	75.06	-28.2	-28.8	29.4	0.00e+00	0	38	0	2317352960	28	6313
2026-01-08 02:37:46.15	240.83	75.16	-27.9	-28.5	29.6	0.00e+00	0	38	0	2323644416	28	6074
2026-01-08 02:37:47.16	242.78	75.23	-28.1	-28.7	29.5	0.00e+00	0	38	0	2328887296	28	6238
2026-01-08 02:37:48.17	244.76	75.29	-28.1	-28.7	29.4	0.00e+00	0	38	0	2334130176	28	6211
2026-01-08 02:37:49.18	246.74	75.34	-27.9	-28.4	29.6	0.00e+00	0	38	0	2340421632	28	6014
2026-01-08 02:37:50.19	248.74	75.37	-27.8	-28.4	29.6	0.00e+00	0	38	0	2345664512	28	5982
2026-01-08 02:37:51.20	250.74	75.37	-27.8	-28.4	29.7	0.00e+00	0	38	0	2351955968	28	5984
2026-01-08 02:37:52.21	252.74	75.37	-27.8	-28.4	29.5	0.00e+00	0	38	0	2357198848	28	6013
2026-01-08 02:37:53.22	254.74	75.34	-27.8	-28.5	29.6	0.00e+00	0	38	0	2363490304	28	6047
2026-01-08 02:37:54.23	256.73	75.30	-27.8	-28.4	29.6	0.00e+00	0	38	0	2368733184	28	6025
2026-01-08 02:37:55.24	258.70	75.24	-27.8	-28.4	29.5	0.00e+00	0	38	0	2375024640	28	5998
2026-01-08 02:37:56.25	260.66	75.17	-27.7	-28.3	29.3	0.00e+00	0	38	0	2380267520	28	5956
2026-01-08 02:37:57.26	262.59	75.08	-27.8	-28.3	29.0	0.00e+00	0	38	0	2385510400	28	5964
2026-01-08 02:37:58.27	264.50	74.97	-27.7	-28.3	29.4	0.00e+00	0	38	0	2391801856	28	5958
2026-01-08 02:37:59.27	266.36	74.85	-27.8	-28.4	29.6	0.00e+00	0	38	0	2397044736	28	5979
2026-01-08 02:38:00.29	268.22	74.71	-27.7	-28.3	29.6	0.00e+00	0	38	0	2403336192	28	5913
2026-01-08 02:38:01.30	270.03	74.55	-27.8	-28.4	29.6	0.00e+00	0	38	0	2408579072	28	5989
2026-01-08 02:38:02.30	271.78	74.39	-28.1	-28.7	29.4	0.00e+00	0	38	0	2413821952	28	6219
2026-01-08 02:38:03.32	273.52	74.21	-27.7	-28.3	29.7	0.00e+00	0	38	0	2420113408	28	5959
2026-01-08 02:38:04.33	275.21	74.01	-27.6	-28.2	29.7	0.00e+00	0	38	0	2425356288	28	5895
2026-01-08 02:38:05.33	276.84	73.81	-27.7	-28.3	29.7	0.00e+00	0	38	0	2431647744	28	5952
2026-01-08 02:38:06.34	278.43	73.59	-27.8	-28.5	29.6	0.00e+00	0	38	0	2436890624	28	6055
2026-01-08 02:38:07.35	279.99	73.36	-27.8	-28.4	29.5	0.00e+00	0	38	0	2442133504	28	5972
2026-01-08 02:38:08.36	281.50	73.12	-28.0	-28.6	29.6	0.00e+00	0	38	0	2448424960	28	6105
2026-01-08 02:38:09.37	282.96	72.87	-28.1	-28.6	29.4	0.00e+00	0	38	0	2453667840	28	6167
2026-01-08 02:38:10.38	284.38	72.61	-28.1	-28.7	29.4	0.00e+00	0	38	0	2459959296	28	6230
2026-01-08 02:38:11.39	285.75	72.34	-28.1	-28.7	29.4	0.00e+00	0	38	0	2465202176	28	6175
2026-01-08 02:38:12.40	287.08	72.06	-28.5	-29.1	29.1	0.00e+00	0	38	0	2471493632	28	6515
2026-01-08 02:38:13.41	288.37	71.78	-28.5	-29.1	29.1	0.00e+00	0	38	0	2476736512	28	6482
2026-01-08 02:38:14.42	289.61	71.48	-28.4	-29.0	29.2	0.00e+00	0	38	0	2483027968	28	6409
2026-01-08 02:38:15.43	290.81	71.18	-28.4	-29.1	29.2	0.00e+00	0	38	0	2488270848	28	6502
2026-01-08 02:38:16.44	291.97	70.87	-28.7	-29.4	29.1	0.00e+00	0	38	0	2493513728	28	6711
2026-01-08 02:38:17.45	293.10	70.56	-28.5	-29.1	29.3	0.00e+00	0	38	0	2499805184	30	5764
2026-01-08 02:38:18.45	294.17	70.25	-28.6	-29.2	29.0	0.00e+00	0	38	0	2505048064	30	5894
2026-01-08 02:38:19.46	295.22	69.92	-28.6	-29.1	29.1	0.00e+00	0	38	0	2510290944	30	5794
2026-01-08 02:38:20.47	296.23	69.59	-28.4	-29.1	29.3	0.00e+00	0	38	0	2516582400	30	5771
2026-01-08 02:38:21.48	297.21	69.26	-28.6	-29.3	29.0	0.00e+00	0	38	0	2521825280	30	5936
2026-01-08 02:38:22.48	298.14	68.92	-28.5	-29.0	29.2	0.00e+00	0	38	0	2528116736	30	5760
2026-01-08 02:38:23.49	299.06	68.58	-28.4	-29.0	29.2	0.00e+00	0	38	0	2533359616	30	5720
2026-01-08 02:38:24.50	299.94	68.24	-28.8	-29.5	28.9	0.00e+00	0	38	0	2538602496	30	6045
2026-01-08 02:38:25.51	300.79	67.89	-29.2	-29.9	28.6	0.00e+00	0	38	0	2544893952	30	6378
2026-01-08 02:38:26.52	301.61	67.54	-29.2	-29.8	28.7	0.00e+00	0	38	0	2550136832	30	6304
2026-01-08 02:38:27.53	302.41	67.19	-29.0	-29.5	28.9	0.00e+00	0	38	0	2556428288	30	6067
2026-01-08 02:38:28.54	303.18	66.83	-28.8	-29.3	28.9	0.00e+00	0	38	0	2561671168	30	5950
2026-01-08 02:38:29.55	303.92	66.47	-28.8	-29.3	29.1	0.00e+00	0	38	0	2567962624	30	5955
2026-01-08 02:38:30.56	304.64	66.11	-28.8	-29.4	28.8	0.00e+00	0	38	0	2573205504	30	5997
2026-01-08 02:38:31.57	305.34	65.75	-28.8	-29.4	28.9	0.00e+00	0	38	0	2579496960	30	5990
2026-01-08 02:38:32.58	306.01	65.39	-28.9	-29.5	28.9	0.00e+00	0	38	0	2584739840	30	6069
2026-01-08 02:38:33.59	306.66	65.02	-29.2	-29.7	28.8	0.00e+00	0	38	0	2589982720	30	6243
2026-01-08 02:38:34.60	307.29	64.66	-29.0	-29.5	28.9	0.00e+00	0	38	0	2596274176	30	6083
2026-01-08 02:38:35.61	307.90	64.29	-29.0	-29.6	28.9	0.00e+00	0	38	0	2601517056	30	6130
2026-01-08 02:38:36.62	308.49	63.92	-29.1	-29.6	28.8	0.00e+00	0	38	0	2606759936	30	6146
2026-01-08 02:38:37.62	309.06	63.56	-28.9	-29.5	29.0	0.00e+00	0	38	0	2613051392	30	6049
2026-01-08 02:38:38.64	309.62	63.19	-28.8	-29.5	28.9	0.00e+00	0	38	0	2618294272	30	6049
2026-01-08 02:38:39.65	310.16	62.82	-29.1	-29.6	28.7	0.00e+00	0	38	0	2624585728	30	6137
2026-01-08 02:38:40.66	310.69	62.45	-29.1	-29.8	28.7	0.00e+00	0	38	0	2629828608	30	6258
2026-01-08 02:38:41.67	311.20	62.09	-29.2	-29.7	28.7	0.00e+00	0	38	0	2635071488	30	6230
2026-01-08 02:38:42.68	311.69	61.72	-29.4	-30.0	28.5	0.00e+00	0	38	0	2641362944	30	6392
2026-01-08 02:38:43.69	312.17	61.35	-29.4	-30.0	28.5	0.00e+00	0	38	0	2646605824	30	6413
2026-01-08 02:38:44.70	312.63	60.98	-29.4	-30.1	28.4	0.00e+00	0	38	0	2652897280	30	6472
2026-01-08 02:38:45.71	313.08	60.62	-29.7	-30.4	28.4	0.00e+00	0	38	0	2658140160	30	6725
2026-01-08 02:38:46.72	313.52	60.25	-30.0	-30.7	28.2	0.00e+00	0	38	0	2664431616	32	6180
2026-01-08 02:38:47.72	313.94	59.89	-29.9	-30.5	28.1	0.00e+00	0	38	0	2669674496	32	6064
2026-01-08 02:38:48.73	314.36	59.53	-29.8	-30.3	28.2	0.00e+00	0	38	0	2675965952	32	5927
2026-01-08 02:38:49.75	314.76	59.16	-30.0	-30.5	28.2	0.00e+00	0	38	0	2681208832	32	6091
2026-01-08 02:38:50.75	315.15	58.80	-29.9	-30.6	28.1	0.00e+00	0	38	0	2686451712	32	6151
2026-01-08 02:38:51.76	315.54	58.44	-29.8	-30.3	28.3	0.00e+00	0	38	0	2692743168	32	5945
2026-01-08 02:38:52.77	315.91	58.08	-30.0	-30.6	28.1	0.00e+00	0	38	0	2697986048	32	6172
2026-01-08 02:38:53.78	316.27	57.72	-30.1	-30.9	27.9	0.00e+00	0	38	0	2704277504	32	6321
2026-01-08 02:38:54.79	316.62	57.36	-30.3	-30.8	27.9	0.00e+00	0	38	0	2709520384	32	6311
2026-01-08 02:38:55.80	316.97	57.00	-30.4	-31.1	27.8	0.00e+00	0	38	0	2714763264	32	6510
2026-01-08 02:38:56.81	317.30	56.65	-30.5	-31.2	27.7	0.00e+00	0	38	0	2721054720	32	6585
2026-01-08 02:38:57.82	317.63	56.29	-30.6	-31.3	27.5	0.00e+00	0	38	0	2726297600	32	6640
2026-01-08 02:38:58.83	317.95	55.94	-30.4	-31.1	27.7	0.00e+00	0	38	0	2732589056	32	6515
2026-01-08 02:38:59.84	318.26	55.59	-30.5	-31.2	27.8	0.00e+00	0	38	0	2737831936	32	6548
2026-01-08 02:39:00.85	318.56	55.24	-30.8	-31.4	27.4	0.00e+00	0	38	0	2743074816	32	6707
2026-01-08 02:39:01.86	318.85	54.89	-31.0	-31.5	27.4	0.00e+00	0	38	0	2749366272	34	6101
2026-01-08 02:39:02.87	319.14	54.54	-30.8	-31.5	27.4	0.00e+00	0	38	0	2754609152	34	6089
2026-01-08 02:39:03.88	319.43	54.20	-30.7	-31.4	27.5	0.00e+00	0	38	0	2760900608	34	6009
2026-01-08 02:39:04.89	319.70	53.86	-30.5	-31.1	27.5	0.00e+00	0	38	0	2766143488	34	5790
2026-01-08 02:39:05.90	319.97	53.51	-30.5	-31.0	27.5	0.00e+00	0	38	0	2772434944	34	5746
2026-01-08 02:39:06.91	320.23	53.17	-30.2	-30.9	27.8	0.00e+00	0	38	0	2777677824	34	5690
2026-01-08 02:39:07.92	320.49	52.84	-30.3	-31.0	27.7	0.00e+00	0	38	0	2783969280	34	5739
2026-01-08 02:39:08.93	320.74	52.50	-30.3	-30.8	27.7	0.00e+00	0	38	0	2789212160	34	5614
2026-01-08 02:39:09.94	320.99	52.16	-30.1	-30.7	27.9	0.00e+00	0	38	0	2794455040	34	5518
2026-01-08 02:39:10.95	321.23	51.83	-30.1	-30.6	28.0	0.00e+00	0	38	0	2800746496	34	5478
2026-01-08 02:39:11.96	321.46	51.50	-30.1	-30.8	28.1	0.00e+00	0	38	0	2805989376	34	5598
2026-01-08 02:39:12.97	321.69	51.17	-30.1	-30.8	28.1	0.00e+00	0	38	0	2812280832	34	5601
2026-01-08 02:39:13.98	321.92	50.84	-30.2	-30.7	27.9	0.00e+00	0	38	0	2817523712	34	5546
2026-01-08 02:39:14.99	322.14	50.52	-29.9	-30.5	28.2	0.00e+00	0	38	0	2822766592	34	5412
2026-01-08 02:39:16.00	322.35	50.19	-29.6	-30.2	28.4	0.00e+00	0	38	0	2829058048	32	5844
2026-01-08 02:39:17.00	322.56	49.88	-29.4	-30.0	28.6	0.00e+00	0	38	0	2834300928	32	5750
2026-01-08 02:39:18.02	322.77	49.55	-29.3	-29.8	28.7	0.00e+00	0	38	0	2839543808	32	5620
2026-01-08 02:39:19.02	322.97	49.24	-29.5	-30.0	28.6	0.00e+00	0	38	0	2845835264	32	5727
2026-01-08 02:39:20.03	323.17	48.92	-29.5	-30.0	28.5	0.00e+00	0	38	0	2851078144	32	5761
2026-01-08 02:39:21.04	323.36	48.61	-29.4	-30.0	28.5	0.00e+00	0	38	0	2857369600	32	5726
2026-01-08 02:39:22.05	323.55	48.29	-29.5	-30.1	28.5	0.00e+00	0	38	0	2862612480	32	5793
2026-01-08 02:39:23.06	323.74	47.98	-29.4	-30.0	28.5	0.00e+00	0	38	0	2868903936	32	5704
2026-01-08 02:39:24.07	323.93	47.68	-29.2	-29.9	28.7	0.00e+00	0	38	0	2874146816	32	5672
2026-01-08 02:39:25.08	324.11	47.37	-29.4	-29.9	28.6	0.00e+00	0	38	0	2880438272	32	5672
2026-01-08 02:39:26.09	324.28	47.06	-29.3	-29.8	28.7	0.00e+00	0	38	0	2885681152	32	5598
2026-01-08 02:39:27.10	324.45	46.76	-29.4	-29.9	28.6	0.00e+00	0	38	0	2890924032	32	5656
2026-01-08 02:39:28.11	324.62	46.46	-29.4	-30.1	28.6	0.00e+00	0	38	0	2897215488	32	5791
2026-01-08 02:39:29.12	324.79	46.16	-29.5	-30.2	28.5	0.00e+00	0	38	0	2902458368	32	5869
2026-01-08 02:39:30.13	324.96	45.86	-29.6	-30.1	28.5	0.00e+00	0	38	0	2908749824	32	5793
2026-01-08 02:39:31.14	325.12	45.57	-29.6	-30.2	28.4	0.00e+00	0	38	0	2913992704	32	5847
2026-01-08 02:39:32.15	325.27	45.28	-29.8	-30.3	28.2	0.00e+00	0	38	0	2919235584	32	5956
2026-01-08 02:39:33.16	325.43	44.98	-29.9	-30.4	28.3	0.00e+00	0	38	0	2925527040	32	6009
2026-01-08 02:39:34.17	325.58	44.70	-29.9	-30.4	28.2	0.00e+00	0	38	0	2930769920	32	6014
2026-01-08 02:39:35.18	325.73	44.41	-30.0	-30.5	28.2	0.00e+00	0	38	0	2937061376	32	6081
2026-01-08 02:39:36.19	325.88	44.12	-29.9	-30.5	28.2	0.00e+00	0	38	0	2942304256	32	6069
2026-01-08 02:39:37.19	326.02	43.84	-29.8	-30.4	28.2	0.00e+00	0	38	0	2947547136	32	5985
2026-01-08 02:39:38.20	326.16	43.56	-29.8	-30.4	28.3	0.00e+00	0	38	0	2953838592	32	5966
2026-01-08 02:39:39.21	326.30	43.28	-29.6	-30.2	28.4	0.00e+00	0	38	0	2959081472	32	5853
2026-01-08 02:39:40.22	326.44	43.00	-29.7	-30.2	28.5	0.00e+00	0	38	0	2965372928	32	5871
2026-01-08 02:39:41.23	326.58	42.73	-29.3	-29.9	28.7	0.00e+00	0	38	0	2970615808	32	5653
2026-01-08 02:39:42.24	326.71	42.45	-29.2	-29.8	28.7	0.00e+00	0	38	0	2976907264	32	5574
2026-01-08 02:39:43.25	326.84	42.18	-29.1	-29.7	28.7	0.00e+00	0	38	0	2982150144	32	5532
2026-01-08 02:39:44.26	326.97	41.91	-29.1	-29.6	28.7	0.00e+00	0	38	0	2987393024	32	5502
2026-01-08 02:39:45.27	327.10	41.64	-29.0	-29.6	28.8	0.00e+00	0	38	0	2993684480	32	5459
2026-01-08 02:39:46.28	327.22	41.37	-29.0	-29.5	28.8	0.00e+00	0	38	0	2998927360	32	5420
2026-01-08 02:39:47.29	327.34	41.11	-28.8	-29.5	29.0	0.00e+00	0	38	0	3005218816	32	5421
2026-01-08 02:39:48.30	327.46	40.84	-28.8	-29.4	28.9	0.00e+00	0	38	0	3010461696	32	5316
2026-01-08 02:39:49.31	327.58	40.58	-28.8	-29.4	29.0	0.00e+00	0	38	0	3015704576	30	5968
2026-01-08 02:39:50.32	327.70	40.32	-28.7	-29.4	29.1	0.00e+00	0	38	0	3021996032	30	5978
2026-01-08 02:39:51.33	327.82	40.07	-28.9	-29.4	28.9	0.00e+00	0	38	0	3027238912	30	5994
2026-01-08 02:39:52.34	327.93	39.81	-28.7	-29.3	29.1	0.00e+00	0	38	0	3033530368	30	5900
2026-01-08 02:39:53.35	328.04	39.55	-28.8	-29.5	29.0	0.00e+00	0	38	0	3038773248	30	6044
2026-01-08 02:39:54.36	328.15	39.30	-28.9	-29.6	28.9	0.00e+00	0	38	0	3044016128	30	6146
2026-01-08 02:39:55.37	328.26	39.05	-29.0	-29.7	28.9	0.00e+00	0	38	0	3050307584	30	6186
2026-01-08 02:39:56.38	328.37	38.80	-29.3	-29.8	28.7	0.00e+00	0	38	0	3055550464	30	6281
2026-01-08 02:39:57.39	328.47	38.55	-29.3	-30.0	28.7	0.00e+00	0	38	0	3061841920	30	6418
2026-01-08 02:39:58.40	328.58	38.31	-29.3	-30.0	28.7	0.00e+00	0	38	0	3067084800	30	6421
2026-01-08 02:39:59.41	328.68	38.06	-29.4	-30.2	28.5	0.00e+00	0	38	0	3073376256	30	6551
2026-01-08 02:40:00.42	328.78	37.82	-29.5	-30.2	28.4	0.00e+00	0	38	0	3078619136	30	6612
2026-01-08 02:40:01.43	328.88	37.58	-29.6	-30.3	28.4	0.00e+00	0	38	0	3084910592	30	6617
2026-01-08 02:40:02.44	328.98	37.34	-29.3	-29.8	28.6	0.00e+00	0	38	0	3090153472	30	6291
2026-01-08 02:40:03.45	329.07	37.10	-29.2	-29.7	28.7	0.00e+00	0	38	0	3095396352	30	6211
2026-01-08 02:40:04.46	329.17	36.87	-29.3	-29.9	28.7	0.00e+00	0	38	0	3101687808	30	6352
2026-01-08 02:40:05.47	329.26	36.63	-29.2	-29.8	28.7	0.00e+00	0	38	0	3106930688	30	6311
2026-01-08 02:40:06.48	329.35	36.40	-29.2	-29.8	28.7	0.00e+00	0	38	0	3113222144	30	6249
2026-01-08 02:40:07.49	329.45	36.17	-29.3	-30.0	28.7	0.00e+00	0	38	0	3118465024	30	6406
2026-01-08 02:40:08.50	329.54	35.94	-29.1	-29.8	28.7	0.00e+00	0	38	0	3123707904	30	6301
2026-01-08 02:40:09.51	329.63	35.71	-29.2	-29.9	28.7	0.00e+00	0	38	0	3129999360	30	6335
2026-01-08 02:40:10.52	329.71	35.49	-29.2	-29.9	28.7	0.00e+00	0	38	0	3135242240	30	6350
2026-01-08 02:40:11.53	329.80	35.26	-29.1	-29.7	28.8	0.00e+00	0	38	0	3141533696	30	6180
2026-01-08 02:40:12.54	329.89	35.04	-29.1	-29.6	28.7	0.00e+00	0	38	0	3146776576	30	6147
2026-01-08 02:40:13.55	329.97	34.82	-29.0	-29.6	28.8	0.00e+00	0	38	0	3152019456	30	6127
2026-01-08 02:40:14.56	330.05	34.60	-29.1	-29.7	28.7	0.00e+00	0	38	0	3158310912	30	6178
2026-01-08 02:40:15.57	330.14	34.38	-29.1	-29.8	28.8	0.00e+00	0	38	0	3163553792	30	6270
2026-01-08 02:40:16.58	330.22	34.16	-29.2	-29.9	28.7	0.00e+00	0	38	0	3169845248	30	6322
2026-01-08 02:40:17.59	330.30	33.94	-29.0	-29.7	28.8	0.00e+00	0	38	0	3175088128	30	6197
2026-01-08 02:40:18.60	330.38	33.73	-29.1	-29.7	28.8	0.00e+00	0	38	0	3181379584	30	6243
2026-01-08 02:40:19.61	330.46	33.52	-29.2	-29.9	28.7	0.00e+00	0	38	0	3186622464	30	6325
2026-01-08 02:40:20.62	330.53	33.31	-29.4	-30.1	28.5	0.00e+00	0	38	0	3192913920	30	6483
2026-01-08 02:40:21.63	330.61	33.09	-29.4	-30.1	28.6	0.00e+00	0	38	0	3198156800	30	6472
2026-01-08 02:40:22.64	330.69	32.89	-29.5	-30.2	28.5	0.00e+00	0	38	0	3203399680	30	6545
2026-01-08 02:40:23.65	330.76	32.68	-29.6	-30.3	28.5	0.00e+00	0	38	0	3209691136	30	6655
2026-01-08 02:40:24.66	330.83	32.47	-29.6	-30.2	28.3	0.00e+00	0	38	0	3214934016	30	6562
2026-01-08 02:40:25.67	330.91	32.27	-29.7	-30.2	28.3	0.00e+00	0	38	0	3221225472	32	5889
2026-01-08 02:40:26.68	330.98	32.06	-29.7	-30.2	28.3	0.00e+00	0	38	0	3226468352	32	5895
2026-01-08 02:40:27.69	331.05	31.86	-29.7	-30.2	28.3	0.00e+00	0	38	0	3231711232	32	5886
2026-01-08 02:40:28.70	331.12	31.66	-29.8	-30.3	28.3	0.00e+00	0	38	0	3238002688	32	5962
2026-01-08 02:40:29.71	331.19	31.46	-29.7	-30.2	28.3	0.00e+00	0	38	0	3243245568	32	5879
2026-01-08 02:40:30.72	331.26	31.26	-29.7	-30.2	28.3	0.00e+00	0	38	0	3249537024	32	5884
2026-01-08 02:40:31.73	331.33	31.07	-29.6	-30.1	28.3	0.00e+00	0	38	0	3254779904	32	5826
2026-01-08 02:40:32.74	331.39	30.87	-29.5	-30.0	28.4	0.00e+00	0	38	0	3260022784	32	5728
2026-01-08 02:40:33.75	331.46	30.68	-29.6	-30.1	28.3	0.00e+00	0	38	0	3266314240	32	5807
2026-01-08 02:40:34.76	331.53	30.49	-29.7	-30.2	28.4	0.00e+00	0	38	0	3271557120	32	5860
2026-01-08 02:40:35.77	331.59	30.29	-29.4	-29.9	28.5	0.00e+00	0	38	0	3277848576	32	5662
2026-01-08 02:40:36.78	331.66	30.10	-29.4	-30.0	28.4	0.00e+00	0	38	0	3283091456	32	5709
2026-01-08 02:40:37.79	331.72	29.91	-29.4	-29.9	28.5	0.00e+00	0	38	0	3289382912	32	5668
2026-01-08 02:40:38.80	331.78	29.73	-29.6	-30.1	28.4	0.00e+00	0	38	0	3294625792	32	5789
2026-01-08 02:40:39.80	331.84	29.54	-29.5	-30.0	28.5	0.00e+00	0	38	0	3299868672	32	5723
2026-01-08 02:40:40.81	331.91	29.36	-29.5	-30.1	28.4	0.00e+00	0	38	0	3306160128	32	5788
2026-01-08 02:40:41.82	331.97	29.17	-29.3	-30.0	28.5	0.00e+00	0	38	0	3311403008	32	5744
2026-01-08 02:40:42.83	332.03	28.99	-29.5	-30.0	28.4	0.00e+00	0	38	0	3317694464	32	5730
2026-01-08 02:40:43.84	332.09	28.81	-29.4	-29.9	28.5	0.00e+00	0	38	0	3322937344	32	5692
2026-01-08 02:40:44.85	332.14	28.63	-29.3	-29.8	28.6	0.00e+00	0	38	0	3328180224	32	5629
2026-01-08 02:40:45.86	332.20	28.45	-29.4	-29.9	28.5	0.00e+00	0	38	0	3334471680	32	5678
2026-01-08 02:40:46.87	332.26	28.27	-29.4	-29.9	28.5	0.00e+00	0	38	0	3339714560	32	5692
2026-01-08 02:40:47.88	332.32	28.09	-29.4	-29.9	28.5	0.00e+00	0	38	0	3346006016	32	5681
2026-01-08 02:40:48.89	332.37	27.91	-29.4	-30.0	28.5	0.00e+00	0	38	0	3351248896	32	5704
2026-01-08 02:40:49.90	332.43	27.74	-29.4	-29.9	28.5	0.00e+00	0	38	0	3356491776	32	5673
2026-01-08 02:40:50.91	332.49	27.56	-29.4	-30.0	28.5	0.00e+00	0	38	0	3362783232	32	5705
2026-01-08 02:40:51.92	332.54	27.39	-29.4	-30.0	28.4	0.00e+00	0	38	0	3368026112	32	5729
2026-01-08 02:40:52.93	332.60	27.22	-29.5	-30.1	28.4	0.00e+00	0	38	0	3374317568	32	5764
2026-01-08 02:40:53.94	332.65	27.05	-29.7	-30.2	28.3	0.00e+00	0	38	0	3379560448	32	5872
2026-01-08 02:40:54.95	332.70	26.88	-29.6	-30.1	28.3	0.00e+00	0	38	0	3385851904	32	5812
2026-01-08 02:40:55.96	332.76	26.71	-29.7	-30.3	28.2	0.00e+00	0	38	0	3391094784	32	5929
2026-01-08 02:40:56.96	332.81	26.54	-29.8	-30.4	28.2	0.00e+00	0	38	0	3396337664	32	5965
2026-01-08 02:40:57.97	332.86	26.38	-29.9	-30.4	28.1	0.00e+00	0	38	0	3402629120	32	6028
2026-01-08 02:40:58.98	332.91	26.21	-30.0	-30.7	28.0	0.00e+00	0	38	0	3407872000	32	6215
2026-01-08 02:40:59.99	332.96	26.05	-30.0	-30.7	27.9	0.00e+00	0	38	0	3414163456	32	6240
2026-01-08 02:41:01.00	333.01	25.88	-30.2	-30.9	27.8	0.00e+00	0	38	0	3419406336	32	6379
2026-01-08 02:41:02.02	333.06	25.72	-30.0	-30.7	28.0	0.00e+00	0	38	0	3424649216	32	6238
2026-01-08 02:41:03.02	333.11	25.56	-30.2	-30.8	27.8	0.00e+00	0	38	0	3430940672	32	6256
2026-01-08 02:41:04.03	333.16	25.40	-30.2	-30.8	27.9	0.00e+00	0	38	0	3436183552	32	6255
2026-01-08 02:41:05.05	333.21	25.23	-30.2	-30.8	27.9	0.00e+00	0	38	0	3442475008	32	6280
2026-01-08 02:41:06.05	333.26	25.08	-30.3	-30.8	27.8	0.00e+00	0	38	0	3447717888	32	6298
2026-01-08 02:41:07.06	333.30	24.92	-30.4	-31.1	27.8	0.00e+00	0	38	0	3452960768	32	6535
2026-01-08 02:41:08.07	333.35	24.76	-30.3	-31.1	27.7	0.00e+00	0	38	0	3459252224	32	6465
2026-01-08 02:41:09.08	333.40	24.61	-30.2	-30.9	27.9	0.00e+00	0	38	0	3464495104	32	6352
2026-01-08 02:41:10.09	333.44	24.45	-30.3	-31.0	27.8	0.00e+00	0	38	0	3470786560	32	6434
2026-01-08 02:41:11.10	333.49	24.30	-30.3	-31.0	27.8	0.00e+00	0	38	0	3476029440	32	6404
2026-01-08 02:41:12.11	333.54	24.14	-30.3	-31.0	27.8	0.00e+00	0	38	0	3482320896	32	6413
2026-01-08 02:41:13.12	333.58	23.99	-30.4	-30.9	27.7	0.00e+00	0	38	0	3487563776	32	6374
2026-01-08 02:41:14.13	333.63	23.84	-30.5	-31.0	27.6	0.00e+00	0	38	0	3493855232	32	6429
2026-01-08 02:41:15.14	333.67	23.69	-30.5	-31.1	27.6	0.00e+00	0	38	0	3499098112	32	6475
2026-01-08 02:41:16.15	333.71	23.54	-30.3	-30.8	27.8	0.00e+00	0	38	0	3504340992	32	6296
2026-01-08 02:41:17.16	333.76	23.39	-30.2	-30.8	27.8	0.00e+00	0	38	0	3510632448	32	6273
2026-01-08 02:41:18.17	333.80	23.24	-30.3	-30.8	27.8	0.00e+00	0	38	0	3515875328	32	6292
2026-01-08 02:41:19.18	333.84	23.09	-30.3	-30.8	27.7	0.00e+00	0	38	0	3522166784	32	6290
2026-01-08 02:41:20.19	333.89	22.94	-30.2	-30.8	27.8	0.00e+00	0	38	0	3527409664	32	6256
2026-01-08 02:41:21.20	333.93	22.80	-30.4	-31.1	27.7	0.00e+00	0	38	0	3532652544	32	6476
2026-01-08 02:41:22.20	333.97	22.66	-30.3	-31.0	27.7	0.00e+00	0	38	0	3538944000	32	6408
2026-01-08 02:41:23.21	334.01	22.51	-30.1	-30.8	27.9	0.00e+00	0	38	0	3544186880	32	6306
2026-01-08 02:41:24.22	334.05	22.37	-30.2	-30.9	27.8	0.00e+00	0	38	0	3550478336	32	6379
2026-01-08 02:41:25.23	334.09	22.22	-30.3	-30.9	27.7	0.00e+00	0	38	0	3555721216	32	6319
2026-01-08 02:41:26.24	334.13	22.08	-30.3	-30.9	27.7	0.00e+00	0	38	0	3560964096	32	6322
2026-01-08 02:41:27.26	334.17	21.94	-30.3	-30.8	27.7	0.00e+00	0	38	0	3567255552	32	6290
2026-01-08 02:41:28.26	334.21	21.80	-30.3	-30.9	27.7	0.00e+00	0	38	0	3572498432	32	6335
2026-01-08 02:41:29.27	334.25	21.66	-30.5	-31.0	27.7	0.00e+00	0	38	0	3578789888	32	6457
2026-01-08 02:41:30.29	334.29	21.52	-30.5	-31.0	27.6	0.00e+00	0	38	0	3584032768	32	6440
2026-01-08 02:41:31.30	334.33	21.38	-30.5	-31.0	27.7	0.00e+00	0	38	0	3590324224	32	6450
2026-01-08 02:41:32.31	334.37	21.25	-30.6	-31.2	27.4	0.00e+00	0	38	0	3595567104	32	6582
2026-01-08 02:41:33.31	334.41	21.11	-30.6	-31.1	27.5	0.00e+00	0	38	0	3600809984	32	6509
2026-01-08 02:41:34.32	334.45	20.98	-30.6	-31.2	27.5	0.00e+00	0	38	0	3607101440	32	6555
2026-01-08 02:41:35.34	334.48	20.84	-30.7	-31.2	27.5	0.00e+00	0	38	0	3612344320	32	6587
2026-01-08 02:41:36.35	334.52	20.70	-30.7	-31.4	27.5	0.00e+00	0	38	0	3618635776	34	6012
2026-01-08 02:41:37.36	334.56	20.57	-30.8	-31.5	27.1	0.00e+00	0	38	0	3623878656	34	6098
2026-01-08 02:41:38.36	334.59	20.44	-30.8	-31.5	26.7	0.00e+00	0	38	0	3629121536	34	6051
