passes_logs/2026/01/08/R4.6S_Anadyr/R4.6S_Anadyr__20260108_203417_NOAA_20_JPSS-1_rec.log

#Pass ID: 20260108_203417_NOAA 20 (JPSS-1)
#Satellite: NOAA 20 (JPSS-1)
#Configuration: NOAA 20
#almurnet v.1.7.20251203
#Start time: 2026-01-08 20:34:18

#Version: 2.2.20231116
#Station: R4.6S_Anadyr
#Location: 177.4865 lon 64.73178 lat
#TLE: 1 43013U 17073A   26008.28148939  .00000118  00000+0  77102-4 0  9999
#TLE: 2 43013  98.7631 309.2920 0001742  49.0100 311.1227 14.19534407421787

#Time	Az	El	Level	Level2	SNR	BER	BlckErr	Temp	State	Recorded	gain1	gain2
2026-01-08 20:34:18.11	72.64	0.06	-48.4	-63.3	3.5	1.51e+00	0	30	0	0	60	52719
2026-01-08 20:34:19.11	72.56	0.11	-48.4	-63.6	3.6	1.51e+00	0	31	104	0	60	54718
2026-01-08 20:34:20.12	72.49	0.16	-48.4	-63.6	3.6	1.51e+00	0	31	104	0	60	54633
2026-01-08 20:34:21.13	72.42	0.21	-48.4	-63.6	3.6	1.51e+00	0	31	104	0	60	54752
2026-01-08 20:34:22.14	72.35	0.26	-48.3	-63.6	3.6	1.51e+00	0	31	104	0	60	54743
2026-01-08 20:34:23.15	72.27	0.31	-48.5	-63.7	3.6	1.51e+00	0	32	104	0	60	55036
2026-01-08 20:34:24.16	72.20	0.36	-48.5	-63.6	3.6	1.51e+00	0	32	104	0	60	54975
2026-01-08 20:34:25.17	72.13	0.41	-48.5	-63.7	3.6	1.51e+00	0	32	104	0	60	55254
2026-01-08 20:34:26.18	72.05	0.46	-48.5	-63.7	3.6	1.51e+00	0	32	104	0	60	55198
2026-01-08 20:34:27.19	71.98	0.51	-48.5	-63.6	3.6	1.51e+00	0	32	104	0	60	54830
2026-01-08 20:34:28.20	71.91	0.56	-48.3	-63.7	3.6	1.51e+00	0	32	104	0	60	55128
2026-01-08 20:34:29.21	71.83	0.61	-48.2	-63.6	3.6	1.51e+00	0	32	104	0	60	54811
2026-01-08 20:34:30.22	71.76	0.66	-48.3	-63.5	3.6	1.51e+00	0	32	104	0	60	53842
2026-01-08 20:34:31.23	71.68	0.72	-47.8	-63.4	3.6	1.51e+00	0	32	104	0	60	53344
2026-01-08 20:34:32.23	71.61	0.77	-48.0	-63.2	3.6	1.51e+00	0	32	104	0	60	52446
2026-01-08 20:34:33.24	71.53	0.82	-47.7	-63.0	3.6	1.51e+00	0	32	104	0	60	50798
2026-01-08 20:34:34.25	71.46	0.87	-47.2	-62.4	3.6	1.51e+00	0	32	104	0	60	47769
2026-01-08 20:34:35.26	71.38	0.92	-46.7	-61.9	3.6	1.51e+00	0	32	104	0	60	45005
2026-01-08 20:34:36.27	71.31	0.97	-46.7	-61.9	3.6	1.51e+00	0	32	104	0	60	44965
2026-01-08 20:34:37.28	71.23	1.02	-46.7	-61.9	3.6	1.51e+00	0	32	104	0	60	44956
2026-01-08 20:34:38.29	71.15	1.07	-46.7	-61.9	3.6	1.51e+00	0	32	104	0	60	45063
2026-01-08 20:34:39.30	71.08	1.12	-46.7	-61.9	3.6	1.51e+00	0	32	104	0	60	44865
2026-01-08 20:34:40.31	71.00	1.18	-46.7	-61.9	3.6	1.51e+00	0	32	104	0	60	44846
2026-01-08 20:34:41.32	70.92	1.23	-46.7	-61.9	3.6	1.51e+00	0	32	104	0	60	44974
2026-01-08 20:34:42.33	70.84	1.28	-46.7	-61.9	3.6	1.51e+00	0	32	104	0	60	44913
2026-01-08 20:34:43.34	70.76	1.33	-46.7	-61.9	3.6	1.51e+00	0	32	104	0	60	45051
2026-01-08 20:34:44.35	70.69	1.38	-46.7	-61.9	3.6	1.51e+00	0	32	104	0	60	44984
2026-01-08 20:34:45.36	70.61	1.43	-46.7	-61.8	3.6	1.51e+00	0	32	104	0	60	44554
2026-01-08 20:34:46.37	70.53	1.48	-46.7	-61.8	3.6	1.51e+00	0	32	104	0	60	44688
2026-01-08 20:34:47.38	70.45	1.54	-46.7	-61.8	3.6	1.51e+00	0	32	104	0	60	44577
2026-01-08 20:34:48.39	70.37	1.59	-46.7	-61.8	3.6	1.51e+00	0	32	104	0	60	44686
2026-01-08 20:34:49.39	70.29	1.64	-46.7	-61.9	3.6	1.51e+00	0	32	104	0	60	44823
2026-01-08 20:34:50.40	70.21	1.69	-46.7	-61.8	3.6	1.51e+00	0	32	104	0	60	44652
2026-01-08 20:34:51.41	70.13	1.74	-46.7	-61.8	3.6	1.51e+00	0	32	104	0	60	44493
2026-01-08 20:34:52.42	70.05	1.79	-46.7	-61.8	3.6	1.51e+00	0	32	104	0	60	44720
2026-01-08 20:34:53.43	69.97	1.85	-46.7	-61.7	3.6	1.51e+00	0	32	104	0	60	44177
2026-01-08 20:34:54.44	69.89	1.90	-46.7	-61.8	3.6	1.51e+00	0	32	104	0	60	44594
2026-01-08 20:34:55.45	69.81	1.95	-46.7	-61.7	3.6	1.51e+00	0	32	104	0	60	44178
2026-01-08 20:34:56.46	69.72	2.00	-46.7	-61.6	3.6	1.51e+00	0	32	104	0	60	43306
2026-01-08 20:34:57.47	69.64	2.05	-46.7	-61.6	3.6	1.51e+00	0	32	104	0	60	43305
2026-01-08 20:34:58.48	69.56	2.11	-46.7	-61.6	3.6	1.51e+00	0	32	104	0	60	43239
2026-01-08 20:34:59.49	69.48	2.16	-46.7	-61.6	3.6	1.51e+00	0	32	104	0	60	43273
2026-01-08 20:35:00.50	69.39	2.21	-46.7	-61.7	3.6	1.51e+00	0	32	104	0	60	44069
2026-01-08 20:35:01.51	69.31	2.26	-46.7	-61.8	3.6	1.51e+00	0	32	104	0	60	44346
2026-01-08 20:35:02.52	69.23	2.31	-46.7	-61.8	3.6	1.51e+00	0	32	104	0	60	44419
2026-01-08 20:35:03.53	69.14	2.37	-46.7	-61.7	3.6	1.51e+00	0	32	104	0	60	44167
2026-01-08 20:35:04.54	69.06	2.42	-46.7	-61.7	3.6	1.51e+00	0	32	104	0	60	44198
2026-01-08 20:35:05.54	68.97	2.47	-46.6	-61.8	3.6	1.51e+00	0	32	104	0	60	44314
2026-01-08 20:35:06.55	68.89	2.52	-46.7	-61.8	3.6	1.51e+00	0	32	104	0	60	44439
2026-01-08 20:35:07.56	68.80	2.58	-46.6	-61.5	3.6	1.51e+00	0	32	104	0	60	42738
2026-01-08 20:35:08.57	68.72	2.63	-46.6	-61.0	3.6	1.51e+00	0	32	104	0	60	40433
2026-01-08 20:35:09.58	68.63	2.68	-46.6	-60.8	3.6	1.51e+00	0	32	104	0	60	39656
2026-01-08 20:35:10.59	68.55	2.73	-46.6	-61.5	3.6	1.51e+00	0	32	104	0	60	42717
2026-01-08 20:35:11.60	68.46	2.79	-46.6	-61.4	3.6	1.51e+00	0	32	104	0	60	42492
2026-01-08 20:35:12.61	68.37	2.84	-46.5	-58.6	3.7	1.51e+00	0	32	104	0	60	30776
2026-01-08 20:35:13.62	68.28	2.89	-46.1	-54.8	6.1	5.28e-01	0	32	104	0	60	19838
2026-01-08 20:35:14.63	68.20	2.94	-45.6	-51.6	8.8	1.10e-01	0	32	0	1048576	60	13755
2026-01-08 20:35:15.64	68.11	3.00	-44.8	-49.2	11.4	8.15e-03	0	32	0	3145728	60	10484
2026-01-08 20:35:16.65	68.02	3.05	-45.2	-50.2	9.6	1.68e-03	0	32	0	5242880	60	11750
2026-01-08 20:35:17.66	67.93	3.10	-43.7	-46.8	14.1	1.23e-02	0	32	0	7340032	60	7870
2026-01-08 20:35:18.67	67.84	3.15	-46.6	-59.8	3.6	4.50e-06	0	32	104	8388608	60	35273
2026-01-08 20:35:19.68	67.75	3.21	-46.5	-57.4	3.8	1.50e+00	0	32	104	8388608	60	26864
2026-01-08 20:35:20.69	67.67	3.26	-41.9	-44.0	16.9	3.30e-01	0	32	0	8388608	56	7215
2026-01-08 20:35:21.70	67.58	3.31	-42.6	-45.0	15.9	0.00e+00	0	32	0	10485760	58	7199
2026-01-08 20:35:22.71	67.49	3.37	-42.1	-44.3	16.7	0.00e+00	0	32	0	11534336	58	6617
2026-01-08 20:35:23.72	67.39	3.42	-41.8	-43.8	17.2	0.00e+00	0	32	0	13631488	56	7062
2026-01-08 20:35:24.73	67.30	3.47	-41.6	-43.6	17.5	0.00e+00	0	32	0	15728640	56	6881
2026-01-08 20:35:25.74	67.21	3.53	-41.6	-43.5	17.6	0.00e+00	0	32	0	17825792	56	6801
2026-01-08 20:35:26.75	67.12	3.58	-41.5	-43.5	17.6	0.00e+00	0	32	0	19922944	56	6778
2026-01-08 20:35:27.76	67.03	3.63	-41.6	-43.6	17.6	0.00e+00	0	32	0	20971520	56	6870
2026-01-08 20:35:28.76	66.94	3.68	-41.7	-43.6	17.5	0.00e+00	0	32	0	23068672	56	6896
2026-01-08 20:35:29.77	66.85	3.74	-41.5	-43.4	17.8	0.00e+00	0	32	0	25165824	56	6711
2026-01-08 20:35:30.78	66.75	3.79	-41.5	-43.3	17.7	0.00e+00	0	32	0	27262976	56	6676
2026-01-08 20:35:31.79	66.66	3.84	-41.5	-43.3	17.8	0.00e+00	0	32	0	29360128	56	6692
2026-01-08 20:35:33.09	66.54	3.91	-41.5	-43.3	17.7	0.00e+00	0	32	0	30408704	56	6685
2026-01-08 20:35:33.82	66.47	3.95	-41.6	-43.5	17.6	0.00e+00	0	32	0	32505856	56	6772
2026-01-08 20:35:35.11	66.35	4.02	-41.4	-43.2	18.0	0.00e+00	0	32	0	34603008	56	6544
2026-01-08 20:35:35.84	66.28	4.06	-41.6	-43.5	17.6	0.00e+00	0	32	0	35651584	56	6810
2026-01-08 20:35:37.13	66.16	4.13	-41.5	-43.3	17.8	0.00e+00	0	32	0	38797312	56	6673
2026-01-08 20:35:37.85	66.09	4.17	-41.6	-43.4	17.8	0.00e+00	0	32	0	39845888	56	6742
2026-01-08 20:35:39.15	65.97	4.23	-41.8	-43.7	17.4	0.00e+00	0	32	0	41943040	56	7007
2026-01-08 20:35:39.87	65.90	4.27	-41.6	-43.5	17.7	0.00e+00	0	32	0	44040192	56	6812
2026-01-08 20:35:41.17	65.78	4.34	-41.6	-43.4	17.7	0.00e+00	0	32	0	46137344	56	6767
2026-01-08 20:35:41.89	65.71	4.38	-41.7	-43.6	17.6	0.00e+00	0	32	0	47185920	56	6873
2026-01-08 20:35:43.19	65.58	4.45	-41.7	-43.6	17.7	0.00e+00	0	32	0	49283072	56	6866
2026-01-08 20:35:43.91	65.51	4.49	-41.6	-43.5	17.8	0.00e+00	0	32	0	51380224	56	6776
2026-01-08 20:35:45.21	65.39	4.56	-41.5	-43.3	18.0	0.00e+00	0	32	0	53477376	56	6692
2026-01-08 20:35:45.93	65.32	4.59	-41.6	-43.4	17.9	0.00e+00	0	32	0	54525952	56	6739
2026-01-08 20:35:47.23	65.19	4.66	-41.5	-43.2	18.0	0.00e+00	0	32	0	57671680	56	6611
2026-01-08 20:35:47.95	65.12	4.70	-41.5	-43.3	17.9	0.00e+00	0	32	0	58720256	56	6686
2026-01-08 20:35:49.25	64.99	4.77	-41.4	-43.2	18.1	0.00e+00	0	32	0	60817408	56	6562
2026-01-08 20:35:49.97	64.92	4.81	-41.4	-43.1	18.1	0.00e+00	0	32	0	62914560	56	6531
2026-01-08 20:35:51.26	64.79	4.88	-41.3	-43.0	18.3	0.00e+00	0	32	0	65011712	56	6417
2026-01-08 20:35:51.99	64.72	4.92	-41.4	-43.1	18.1	0.00e+00	0	32	0	66060288	56	6525
2026-01-08 20:35:53.28	64.59	4.99	-41.3	-43.1	18.3	0.00e+00	0	32	0	68157440	56	6490
2026-01-08 20:35:54.00	64.52	5.02	-41.3	-43.0	18.3	0.00e+00	0	32	0	70254592	56	6404
2026-01-08 20:35:55.30	64.39	5.09	-41.4	-43.1	18.1	0.00e+00	0	32	0	72351744	56	6525
2026-01-08 20:35:56.02	64.31	5.13	-41.5	-43.3	18.1	0.00e+00	0	33	0	73400320	56	6641
2026-01-08 20:35:57.32	64.18	5.20	-41.2	-42.9	18.4	0.00e+00	0	32	0	76546048	56	6389
2026-01-08 20:35:58.04	64.11	5.24	-41.3	-43.0	18.4	0.00e+00	0	32	0	77594624	56	6440
2026-01-08 20:35:59.34	63.98	5.31	-41.2	-42.9	18.4	0.00e+00	0	32	0	79691776	56	6387
2026-01-08 20:36:00.06	63.90	5.35	-41.2	-42.8	18.5	0.00e+00	0	32	0	81788928	56	6311
2026-01-08 20:36:01.36	63.77	5.42	-41.1	-42.8	18.6	0.00e+00	0	32	0	83886080	56	6289
2026-01-08 20:36:02.08	63.69	5.46	-41.1	-42.7	18.7	0.00e+00	0	32	0	84934656	56	6211
2026-01-08 20:36:03.38	63.56	5.53	-41.0	-42.6	18.8	0.00e+00	0	32	0	88080384	56	6129
2026-01-08 20:36:04.10	63.48	5.57	-41.0	-42.6	18.8	0.00e+00	0	32	0	89128960	56	6137
2026-01-08 20:36:05.40	63.35	5.63	-41.1	-42.8	18.6	0.00e+00	0	32	0	91226112	56	6279
2026-01-08 20:36:06.12	63.27	5.67	-41.2	-42.9	18.5	0.00e+00	0	32	0	92274688	56	6339
2026-01-08 20:36:07.41	63.14	5.74	-40.9	-42.5	18.9	0.00e+00	0	32	0	95420416	56	6086
2026-01-08 20:36:08.13	63.06	5.78	-40.8	-42.4	19.0	0.00e+00	0	32	0	96468992	56	5978
2026-01-08 20:36:09.43	62.92	5.85	-40.8	-42.3	19.1	0.00e+00	0	32	0	98566144	56	5916
2026-01-08 20:36:10.15	62.84	5.89	-40.6	-42.1	19.3	0.00e+00	0	32	0	100663296	54	6527
2026-01-08 20:36:11.45	62.70	5.96	-40.6	-42.0	19.3	0.00e+00	0	32	0	102760448	54	6462
2026-01-08 20:36:12.17	62.63	6.00	-40.4	-41.9	19.5	0.00e+00	0	32	0	103809024	54	6338
2026-01-08 20:36:13.47	62.49	6.07	-40.4	-41.8	19.5	0.00e+00	0	32	0	106954752	54	6300
2026-01-08 20:36:14.19	62.41	6.11	-40.4	-41.9	19.5	0.00e+00	0	33	0	108003328	54	6348
2026-01-08 20:36:15.49	62.27	6.18	-40.4	-41.9	19.5	0.00e+00	0	32	0	110100480	54	6348
2026-01-08 20:36:16.21	62.19	6.22	-40.4	-41.9	19.5	0.00e+00	0	32	0	111149056	54	6370
2026-01-08 20:36:17.51	62.05	6.29	-40.2	-41.7	19.7	0.00e+00	0	32	0	114294784	54	6180
2026-01-08 20:36:18.23	61.97	6.32	-40.3	-41.7	19.6	0.00e+00	0	32	0	115343360	54	6243
2026-01-08 20:36:19.53	61.82	6.39	-40.3	-41.7	19.7	0.00e+00	0	32	0	117440512	54	6204
2026-01-08 20:36:20.25	61.74	6.43	-40.3	-41.7	19.7	0.00e+00	0	32	0	119537664	54	6203
2026-01-08 20:36:21.55	61.60	6.50	-40.2	-41.6	19.7	0.00e+00	0	32	0	121634816	54	6165
2026-01-08 20:36:22.27	61.52	6.54	-40.3	-41.8	19.6	0.00e+00	0	32	0	122683392	54	6256
2026-01-08 20:36:23.57	61.37	6.61	-40.2	-41.6	19.8	0.00e+00	0	32	0	125829120	54	6134
2026-01-08 20:36:24.29	61.29	6.65	-40.2	-41.6	19.7	0.00e+00	0	32	0	126877696	54	6161
2026-01-08 20:36:25.58	61.15	6.72	-40.2	-41.7	19.8	0.00e+00	0	32	0	128974848	54	6177
2026-01-08 20:36:26.30	61.06	6.76	-40.2	-41.6	19.8	0.00e+00	0	32	0	130023424	54	6167
2026-01-08 20:36:27.60	60.92	6.83	-40.4	-41.8	19.2	0.00e+00	0	32	0	133169152	54	6292
2026-01-08 20:36:28.32	60.83	6.87	-40.4	-41.9	19.6	0.00e+00	0	32	0	134217728	54	6318
2026-01-08 20:36:29.62	60.69	6.94	-40.0	-41.4	20.0	0.00e+00	0	32	0	136314880	54	6014
2026-01-08 20:36:30.34	60.60	6.98	-40.1	-41.5	19.9	0.00e+00	0	32	0	138412032	54	6083
2026-01-08 20:36:31.64	60.45	7.05	-40.1	-41.4	20.0	0.00e+00	0	32	0	140509184	54	6026
2026-01-08 20:36:32.36	60.37	7.09	-40.1	-41.4	20.0	0.00e+00	0	32	0	141557760	54	6002
2026-01-08 20:36:33.65	60.22	7.16	-40.0	-41.3	20.1	0.00e+00	0	32	0	144703488	54	5917
2026-01-08 20:36:34.38	60.13	7.20	-39.8	-41.1	20.3	0.00e+00	0	32	0	145752064	54	5797
2026-01-08 20:36:35.67	59.98	7.27	-39.9	-41.2	20.3	0.00e+00	0	32	0	147849216	54	5845
2026-01-08 20:36:36.40	59.90	7.30	-39.8	-41.1	20.3	0.00e+00	0	32	0	149946368	54	5787
2026-01-08 20:36:37.69	59.74	7.37	-39.8	-41.1	20.3	0.00e+00	0	32	0	152043520	54	5802
2026-01-08 20:36:38.41	59.66	7.41	-39.8	-41.1	20.4	0.00e+00	0	32	0	153092096	54	5783
2026-01-08 20:36:39.71	59.50	7.48	-39.8	-41.1	20.4	0.00e+00	0	32	0	155189248	52	6506
2026-01-08 20:36:40.43	59.42	7.52	-39.8	-41.1	20.4	0.00e+00	0	32	0	157286400	52	6523
2026-01-08 20:36:41.72	59.26	7.59	-40.0	-41.3	20.2	0.00e+00	0	32	0	159383552	52	6666
2026-01-08 20:36:42.45	59.17	7.63	-39.9	-41.2	20.4	0.00e+00	0	32	0	160432128	52	6548
2026-01-08 20:36:43.74	59.02	7.70	-39.8	-41.0	20.6	0.00e+00	0	32	0	163577856	52	6454
2026-01-08 20:36:44.47	58.93	7.74	-39.8	-41.1	20.4	0.00e+00	0	32	0	164626432	52	6510
2026-01-08 20:36:45.76	58.77	7.81	-39.7	-41.0	20.6	0.00e+00	0	32	0	166723584	52	6439
2026-01-08 20:36:46.48	58.68	7.85	-39.8	-41.1	20.5	0.00e+00	0	33	0	168820736	52	6495
2026-01-08 20:36:47.78	58.52	7.92	-39.9	-41.2	20.3	0.00e+00	0	32	0	170917888	52	6578
2026-01-08 20:36:48.50	58.43	7.96	-39.9	-41.2	20.4	0.00e+00	0	32	0	171966464	52	6563
2026-01-08 20:36:49.80	58.27	8.03	-39.9	-41.2	20.2	0.00e+00	0	32	0	175112192	52	6602
2026-01-08 20:36:50.52	58.18	8.07	-39.8	-41.1	20.5	0.00e+00	0	32	0	176160768	52	6516
2026-01-08 20:36:51.82	58.02	8.14	-39.9	-41.2	20.4	0.00e+00	0	32	0	178257920	52	6551
2026-01-08 20:36:52.54	57.93	8.18	-39.8	-41.1	20.5	0.00e+00	0	32	0	179306496	52	6496
2026-01-08 20:36:53.84	57.77	8.25	-39.6	-40.8	20.7	0.00e+00	0	32	0	182452224	52	6296
2026-01-08 20:36:54.56	57.68	8.28	-39.7	-40.9	20.6	0.00e+00	0	32	0	183500800	52	6376
2026-01-08 20:36:55.86	57.51	8.35	-39.7	-41.0	20.6	0.00e+00	0	32	0	185597952	52	6419
2026-01-08 20:36:56.58	57.42	8.39	-39.6	-40.8	20.7	0.00e+00	0	32	0	187695104	52	6316
2026-01-08 20:36:57.88	57.25	8.46	-39.5	-40.7	21.0	0.00e+00	0	32	0	189792256	52	6192
2026-01-08 20:36:58.60	57.16	8.50	-39.4	-40.7	20.9	0.00e+00	0	32	0	190840832	52	6176
2026-01-08 20:36:59.89	57.00	8.57	-39.5	-40.8	20.8	0.00e+00	0	32	0	193986560	52	6261
2026-01-08 20:37:00.62	56.90	8.61	-39.5	-40.7	20.9	0.00e+00	0	32	0	195035136	52	6207
2026-01-08 20:37:01.91	56.73	8.68	-39.5	-40.8	20.8	0.00e+00	0	32	0	197132288	52	6254
2026-01-08 20:37:02.63	56.64	8.72	-39.6	-40.8	20.8	0.00e+00	0	32	0	198180864	52	6266
2026-01-08 20:37:03.93	56.47	8.79	-39.5	-40.7	21.0	0.00e+00	0	32	0	201326592	52	6184
2026-01-08 20:37:04.65	56.38	8.83	-39.6	-40.8	20.8	0.00e+00	0	32	0	202375168	52	6291
2026-01-08 20:37:05.95	56.21	8.89	-39.5	-40.7	20.9	0.00e+00	0	32	0	204472320	52	6208
2026-01-08 20:37:06.67	56.11	8.93	-39.6	-40.8	20.8	0.00e+00	0	32	0	206569472	52	6292
2026-01-08 20:37:07.97	55.94	9.00	-39.6	-40.8	20.8	0.00e+00	0	32	0	208666624	52	6271
2026-01-08 20:37:08.69	55.84	9.04	-39.6	-40.8	20.8	0.00e+00	0	32	0	209715200	52	6315
2026-01-08 20:37:09.98	55.67	9.11	-39.6	-40.8	20.8	0.00e+00	0	32	0	212860928	52	6286
2026-01-08 20:37:10.70	55.57	9.15	-39.5	-40.7	20.9	0.00e+00	0	32	0	213909504	52	6229
2026-01-08 20:37:12.00	55.40	9.22	-39.4	-40.6	21.0	0.00e+00	0	32	0	216006656	52	6158
2026-01-08 20:37:12.72	55.30	9.26	-39.5	-40.7	20.9	0.00e+00	0	32	0	218103808	52	6224
2026-01-08 20:37:14.02	55.12	9.33	-39.5	-40.8	20.8	0.00e+00	0	32	0	220200960	52	6251
2026-01-08 20:37:14.74	55.03	9.36	-39.5	-40.7	20.9	0.00e+00	0	32	0	221249536	52	6225
2026-01-08 20:37:16.04	54.85	9.43	-39.5	-40.7	20.9	0.00e+00	0	32	0	223346688	52	6235
2026-01-08 20:37:16.76	54.75	9.47	-39.5	-40.8	20.8	0.00e+00	0	32	0	225443840	52	6246
2026-01-08 20:37:18.05	54.57	9.54	-39.6	-40.8	20.9	0.00e+00	0	32	0	227540992	52	6294
2026-01-08 20:37:18.77	54.47	9.58	-39.5	-40.8	20.8	0.00e+00	0	32	0	228589568	52	6254
2026-01-08 20:37:20.07	54.29	9.65	-39.5	-40.8	20.9	0.00e+00	0	32	0	231735296	52	6254
2026-01-08 20:37:20.79	54.19	9.68	-39.5	-40.8	20.9	0.00e+00	0	33	0	232783872	52	6254
2026-01-08 20:37:22.09	54.01	9.75	-39.5	-40.7	20.9	0.00e+00	0	32	0	234881024	52	6206
2026-01-08 20:37:22.81	53.91	9.79	-39.5	-40.7	20.9	0.00e+00	0	32	0	236978176	52	6236
2026-01-08 20:37:24.11	53.73	9.86	-39.4	-40.5	21.1	0.00e+00	0	32	0	239075328	52	6092
2026-01-08 20:37:24.83	53.62	9.90	-39.3	-40.5	21.1	0.00e+00	0	32	0	240123904	52	6068
2026-01-08 20:37:26.13	53.44	9.97	-39.4	-40.6	21.0	0.00e+00	0	32	0	243269632	52	6162
2026-01-08 20:37:26.85	53.34	10.00	-39.4	-40.6	21.0	0.00e+00	0	32	0	244318208	52	6148
2026-01-08 20:37:28.14	53.15	10.07	-39.6	-40.8	21.0	0.00e+00	0	33	0	246415360	52	6264
2026-01-08 20:37:28.86	53.05	10.11	-39.4	-40.6	21.1	0.00e+00	0	32	0	247463936	52	6151
2026-01-08 20:37:30.16	52.86	10.18	-39.5	-40.7	21.0	0.00e+00	0	32	0	250609664	52	6187
2026-01-08 20:37:30.89	52.76	10.22	-39.5	-40.7	20.9	0.00e+00	0	33	0	251658240	52	6234
2026-01-08 20:37:32.18	52.57	10.28	-39.4	-40.6	21.1	0.00e+00	0	33	0	253755392	52	6139
2026-01-08 20:37:32.91	52.46	10.32	-39.6	-40.8	20.9	0.00e+00	0	32	0	255852544	52	6280
2026-01-08 20:37:34.20	52.28	10.39	-39.4	-40.6	21.1	0.00e+00	0	32	0	257949696	52	6146
2026-01-08 20:37:34.92	52.17	10.43	-39.5	-40.7	21.0	0.00e+00	0	33	0	258998272	52	6191
2026-01-08 20:37:36.22	51.98	10.49	-39.5	-40.8	20.9	0.00e+00	0	32	0	262144000	52	6248
2026-01-08 20:37:36.94	51.87	10.53	-39.4	-40.6	21.0	0.00e+00	0	33	0	263192576	52	6154
2026-01-08 20:37:38.24	51.68	10.60	-39.5	-40.7	21.0	0.00e+00	0	32	0	265289728	52	6221
2026-01-08 20:37:38.96	51.57	10.64	-39.5	-40.6	21.0	0.00e+00	0	32	0	266338304	52	6168
2026-01-08 20:37:40.26	51.38	10.70	-39.4	-40.6	21.1	0.00e+00	0	32	0	269484032	52	6164
2026-01-08 20:37:40.98	51.27	10.74	-39.3	-40.5	21.2	0.00e+00	0	32	0	270532608	52	6076
2026-01-08 20:37:42.27	51.08	10.81	-39.4	-40.6	21.2	0.00e+00	0	33	0	272629760	52	6123
2026-01-08 20:37:43.00	50.97	10.84	-39.2	-40.4	21.3	0.00e+00	0	32	0	274726912	52	5989
2026-01-08 20:37:44.30	50.77	10.91	-39.0	-40.2	21.5	0.00e+00	0	32	0	276824064	52	5843
2026-01-08 20:37:45.02	50.66	10.95	-39.0	-40.1	21.5	0.00e+00	0	32	0	277872640	52	5819
2026-01-08 20:37:46.31	50.46	11.01	-38.9	-40.0	21.7	0.00e+00	0	32	0	281018368	52	5731
2026-01-08 20:37:47.03	50.35	11.05	-39.0	-40.1	21.6	0.00e+00	0	32	0	282066944	52	5795
2026-01-08 20:37:48.33	50.15	11.12	-38.9	-40.0	21.7	0.00e+00	0	32	0	284164096	52	5725
2026-01-08 20:37:49.05	50.04	11.15	-38.7	-39.8	21.8	0.00e+00	0	32	0	285212672	52	5618
2026-01-08 20:37:50.35	49.84	11.22	-38.6	-39.6	22.0	0.00e+00	0	32	0	288358400	50	6169
2026-01-08 20:37:51.07	49.73	11.26	-38.6	-39.6	22.0	0.00e+00	0	32	0	289406976	50	6159
2026-01-08 20:37:52.37	49.53	11.32	-38.5	-39.6	22.1	0.00e+00	0	32	0	291504128	50	6129
2026-01-08 20:37:53.09	49.41	11.36	-38.5	-39.6	22.1	0.00e+00	0	33	0	293601280	50	6106
2026-01-08 20:37:54.39	49.21	11.42	-38.4	-39.4	22.2	0.00e+00	0	32	0	295698432	50	6023
2026-01-08 20:37:55.11	49.10	11.46	-38.4	-39.5	22.2	0.00e+00	0	33	0	296747008	50	6048
2026-01-08 20:37:56.41	48.89	11.52	-38.2	-39.2	22.3	0.00e+00	0	32	0	299892736	50	5880
2026-01-08 20:37:57.13	48.78	11.56	-38.2	-39.2	22.4	0.00e+00	0	32	0	300941312	50	5856
2026-01-08 20:37:58.43	48.57	11.62	-38.1	-39.1	22.6	0.00e+00	0	32	0	303038464	50	5818
2026-01-08 20:37:59.15	48.46	11.66	-37.8	-38.8	22.8	0.00e+00	0	33	0	305135616	50	5591
2026-01-08 20:38:00.45	48.25	11.73	-37.8	-38.7	22.8	0.00e+00	0	32	0	307232768	50	5565
2026-01-08 20:38:01.17	48.13	11.76	-37.7	-38.6	22.9	0.00e+00	0	32	0	308281344	48	6170
2026-01-08 20:38:02.47	47.92	11.83	-37.7	-38.7	22.9	0.00e+00	0	32	0	311427072	48	6213
2026-01-08 20:38:03.19	47.80	11.86	-37.7	-38.7	22.9	0.00e+00	0	33	0	312475648	48	6177
2026-01-08 20:38:04.49	47.59	11.92	-37.7	-38.6	22.9	0.00e+00	0	33	0	314572800	48	6151
2026-01-08 20:38:05.21	47.48	11.96	-37.6	-38.6	23.0	0.00e+00	0	33	0	315621376	48	6137
2026-01-08 20:38:06.51	47.26	12.02	-37.7	-38.7	22.9	0.00e+00	0	33	0	318767104	48	6187
2026-01-08 20:38:07.23	47.15	12.06	-37.7	-38.7	23.0	0.00e+00	0	33	0	319815680	48	6179
2026-01-08 20:38:08.52	46.93	12.12	-37.8	-38.8	22.8	0.00e+00	0	33	0	321912832	48	6261
2026-01-08 20:38:09.24	46.81	12.16	-37.6	-38.6	23.0	0.00e+00	0	32	0	324009984	48	6137
2026-01-08 20:38:10.54	46.60	12.22	-37.7	-38.7	22.9	0.00e+00	0	33	0	326107136	48	6186
2026-01-08 20:38:11.26	46.48	12.25	-37.7	-38.7	22.9	0.00e+00	0	32	0	327155712	48	6222
2026-01-08 20:38:12.56	46.26	12.32	-37.7	-38.7	22.9	0.00e+00	0	33	0	329252864	48	6180
2026-01-08 20:38:13.28	46.14	12.35	-37.6	-38.5	23.1	0.00e+00	0	32	0	331350016	48	6076
2026-01-08 20:38:14.58	45.92	12.41	-37.4	-38.4	23.3	0.00e+00	0	33	0	333447168	48	5972
2026-01-08 20:38:15.30	45.80	12.45	-37.4	-38.4	23.2	0.00e+00	0	33	0	334495744	48	5974
2026-01-08 20:38:16.60	45.58	12.51	-37.4	-38.4	23.2	0.00e+00	0	32	0	337641472	48	5988
2026-01-08 20:38:17.32	45.46	12.54	-37.3	-38.2	23.3	0.00e+00	0	32	0	338690048	48	5854
2026-01-08 20:38:18.62	45.24	12.60	-37.3	-38.2	23.4	0.00e+00	0	32	0	340787200	48	5867
2026-01-08 20:38:19.34	45.11	12.64	-37.4	-38.3	23.3	0.00e+00	0	32	0	342884352	48	5942
2026-01-08 20:38:20.63	44.89	12.70	-37.2	-38.1	23.4	0.00e+00	0	32	0	344981504	48	5789
2026-01-08 20:38:21.36	44.77	12.73	-37.1	-38.0	23.5	0.00e+00	0	32	0	346030080	48	5754
2026-01-08 20:38:22.65	44.54	12.79	-37.3	-38.2	23.5	0.00e+00	0	32	0	349175808	48	5851
2026-01-08 20:38:23.37	44.42	12.83	-37.1	-38.0	23.5	0.00e+00	0	32	0	350224384	48	5751
2026-01-08 20:38:24.67	44.19	12.89	-36.9	-37.8	23.7	0.00e+00	0	32	0	352321536	48	5599
2026-01-08 20:38:25.39	44.07	12.92	-36.9	-37.8	23.7	0.00e+00	0	32	0	353370112	48	5607
2026-01-08 20:38:26.69	43.84	12.98	-36.9	-37.8	23.7	0.00e+00	0	32	0	356515840	48	5619
2026-01-08 20:38:27.41	43.72	13.01	-36.8	-37.7	23.9	0.00e+00	0	32	0	357564416	48	5509
2026-01-08 20:38:28.71	43.49	13.07	-36.9	-37.8	23.6	0.00e+00	0	32	0	359661568	48	5567
2026-01-08 20:38:29.43	43.36	13.10	-37.0	-37.9	23.6	0.00e+00	0	32	0	361758720	48	5636
2026-01-08 20:38:30.73	43.13	13.16	-36.8	-37.7	23.7	0.00e+00	0	32	0	363855872	46	6215
2026-01-08 20:38:31.45	43.00	13.19	-36.8	-37.7	23.8	0.00e+00	0	32	0	364904448	46	6223
2026-01-08 20:38:32.75	42.77	13.25	-36.9	-37.8	23.7	0.00e+00	0	32	0	368050176	46	6292
2026-01-08 20:38:33.47	42.64	13.28	-36.8	-37.7	23.9	0.00e+00	0	32	0	369098752	46	6222
2026-01-08 20:38:34.76	42.41	13.34	-37.0	-37.9	23.7	0.00e+00	0	32	0	371195904	46	6369
2026-01-08 20:38:35.48	42.28	13.37	-37.0	-37.9	23.7	0.00e+00	0	32	0	373293056	46	6356
2026-01-08 20:38:36.78	42.05	13.43	-37.0	-37.9	23.7	0.00e+00	0	32	0	375390208	46	6333
2026-01-08 20:38:37.50	41.92	13.46	-37.1	-38.0	23.5	0.00e+00	0	32	0	376438784	46	6438
2026-01-08 20:38:38.80	41.68	13.52	-37.3	-38.2	23.4	0.00e+00	0	32	0	378535936	46	6607
2026-01-08 20:38:39.52	41.55	13.55	-37.2	-38.1	23.5	0.00e+00	0	32	0	380633088	46	6527
2026-01-08 20:38:40.82	41.31	13.60	-37.3	-38.2	23.3	0.00e+00	0	32	0	382730240	46	6586
2026-01-08 20:38:41.54	41.18	13.63	-37.3	-38.3	23.4	0.00e+00	0	32	0	383778816	46	6626
2026-01-08 20:38:42.84	40.94	13.69	-37.2	-38.1	23.5	0.00e+00	0	32	0	386924544	46	6529
2026-01-08 20:38:43.56	40.81	13.72	-37.3	-38.2	23.3	0.00e+00	0	32	0	387973120	46	6596
2026-01-08 20:38:44.86	40.57	13.78	-37.3	-38.2	23.2	0.00e+00	0	32	0	390070272	46	6593
2026-01-08 20:38:45.58	40.44	13.81	-37.3	-38.2	23.4	0.00e+00	0	32	0	392167424	46	6611
2026-01-08 20:38:46.88	40.20	13.86	-37.3	-38.2	23.4	0.00e+00	0	33	0	394264576	46	6552
2026-01-08 20:38:47.60	40.06	13.89	-37.4	-38.3	23.4	0.00e+00	0	32	0	395313152	46	6682
2026-01-08 20:38:48.90	39.82	13.94	-37.3	-38.2	23.4	0.00e+00	0	32	0	397410304	46	6612
2026-01-08 20:38:49.62	39.68	13.97	-37.3	-38.2	23.4	0.00e+00	0	33	0	399507456	46	6589
2026-01-08 20:38:50.92	39.44	14.03	-37.4	-38.3	23.4	0.00e+00	0	33	0	401604608	46	6687
2026-01-08 20:38:51.64	39.30	14.05	-37.3	-38.2	23.5	0.00e+00	0	32	0	402653184	46	6555
2026-01-08 20:38:52.93	39.06	14.11	-37.2	-38.1	23.5	0.00e+00	0	33	0	405798912	46	6528
2026-01-08 20:38:53.65	38.92	14.14	-37.2	-38.1	23.5	0.00e+00	0	32	0	406847488	46	6525
2026-01-08 20:38:54.95	38.68	14.19	-37.2	-38.1	23.6	0.00e+00	0	33	0	408944640	46	6492
2026-01-08 20:38:55.67	38.54	14.22	-37.1	-38.0	23.6	0.00e+00	0	32	0	411041792	46	6412
2026-01-08 20:38:56.97	38.29	14.27	-37.0	-37.9	23.7	0.00e+00	0	32	0	413138944	46	6355
2026-01-08 20:38:57.69	38.16	14.29	-37.0	-37.9	23.6	0.00e+00	0	32	0	414187520	46	6346
2026-01-08 20:38:58.99	37.91	14.34	-37.2	-38.1	23.5	0.00e+00	0	32	0	417333248	46	6485
2026-01-08 20:38:59.71	37.77	14.37	-37.1	-38.0	23.5	0.00e+00	0	33	0	418381824	46	6450
2026-01-08 20:39:01.01	37.52	14.42	-37.0	-37.9	23.6	0.00e+00	0	32	0	420478976	46	6359
2026-01-08 20:39:01.73	37.38	14.45	-37.0	-37.9	23.6	0.00e+00	0	33	0	421527552	46	6383
2026-01-08 20:39:03.03	37.12	14.50	-36.9	-37.8	23.8	0.00e+00	0	32	0	424673280	46	6279
2026-01-08 20:39:03.75	36.98	14.52	-37.0	-37.9	23.7	0.00e+00	0	32	0	425721856	46	6377
2026-01-08 20:39:05.04	36.73	14.57	-37.0	-37.8	23.8	0.00e+00	0	32	0	427819008	46	6317
2026-01-08 20:39:05.77	36.59	14.60	-36.9	-37.8	23.8	0.00e+00	0	32	0	429916160	46	6276
2026-01-08 20:39:07.06	36.34	14.65	-37.0	-37.9	23.7	0.00e+00	0	32	0	432013312	46	6384
2026-01-08 20:39:07.79	36.19	14.67	-36.8	-37.7	23.8	0.00e+00	0	32	0	433061888	46	6193
2026-01-08 20:39:09.08	35.94	14.72	-36.9	-37.7	23.8	0.00e+00	0	32	0	436207616	46	6238
2026-01-08 20:39:09.80	35.80	14.75	-36.8	-37.7	23.9	0.00e+00	0	32	0	437256192	46	6194
2026-01-08 20:39:11.10	35.54	14.79	-36.9	-37.8	23.6	0.00e+00	0	32	0	439353344	46	6283
2026-01-08 20:39:11.82	35.40	14.82	-37.0	-37.9	23.0	0.00e+00	0	32	0	441450496	46	6331
2026-01-08 20:39:13.12	35.14	14.86	-36.8	-37.6	23.7	0.00e+00	0	32	0	443547648	46	6165
2026-01-08 20:39:13.84	35.00	14.89	-36.7	-37.6	23.9	0.00e+00	0	32	0	444596224	46	6140
2026-01-08 20:39:15.13	34.74	14.93	-36.5	-37.4	24.1	0.00e+00	0	32	0	446693376	46	5999
2026-01-08 20:39:15.85	34.59	14.95	-36.6	-37.5	24.1	0.00e+00	0	32	0	448790528	46	6050
2026-01-08 20:39:17.15	34.33	15.00	-36.5	-37.3	24.2	0.00e+00	0	32	0	450887680	46	5930
2026-01-08 20:39:17.87	34.19	15.02	-36.6	-37.5	23.9	0.00e+00	0	32	0	451936256	46	6072
2026-01-08 20:39:19.17	33.93	15.07	-36.6	-37.4	24.0	0.00e+00	0	33	0	455081984	46	6033
2026-01-08 20:39:19.89	33.78	15.09	-36.7	-37.5	24.1	0.00e+00	0	33	0	456130560	46	6083
2026-01-08 20:39:21.19	33.52	15.13	-36.5	-37.4	24.2	0.00e+00	0	32	0	458227712	46	5978
2026-01-08 20:39:21.91	33.37	15.15	-36.6	-37.5	24.1	0.00e+00	0	32	0	460324864	46	6055
2026-01-08 20:39:23.20	33.11	15.19	-36.7	-37.6	24.0	0.00e+00	0	32	0	462422016	46	6120
2026-01-08 20:39:23.93	32.96	15.22	-36.7	-37.6	23.9	0.00e+00	0	32	0	463470592	46	6123
2026-01-08 20:39:25.22	32.70	15.26	-37.1	-38.1	23.5	0.00e+00	0	32	0	465567744	46	6467
2026-01-08 20:39:25.94	32.55	15.28	-37.3	-38.2	23.6	0.00e+00	0	32	0	467664896	46	6577
2026-01-08 20:39:27.23	32.29	15.32	-37.0	-37.9	23.7	0.00e+00	0	32	0	469762048	46	6327
2026-01-08 20:39:27.96	32.14	15.34	-36.8	-37.6	23.9	0.00e+00	0	32	0	470810624	46	6172
2026-01-08 20:39:29.25	31.87	15.38	-36.8	-37.7	23.9	0.00e+00	0	32	0	473956352	46	6216
2026-01-08 20:39:29.97	31.72	15.40	-36.8	-37.6	23.9	0.00e+00	0	32	0	475004928	46	6157
2026-01-08 20:39:31.27	31.45	15.44	-37.0	-37.8	23.8	0.00e+00	0	32	0	477102080	46	6312
2026-01-08 20:39:32.00	31.30	15.46	-36.9	-37.7	23.9	0.00e+00	0	32	0	479199232	46	6233
2026-01-08 20:39:33.29	31.03	15.49	-37.0	-37.8	23.8	0.00e+00	0	32	0	481296384	46	6302
2026-01-08 20:39:34.01	30.88	15.51	-36.9	-37.8	23.8	0.00e+00	0	32	0	482344960	46	6279
2026-01-08 20:39:35.31	30.61	15.55	-37.0	-37.9	23.8	0.00e+00	0	32	0	485490688	46	6318
2026-01-08 20:39:36.03	30.46	15.57	-36.9	-37.8	23.8	0.00e+00	0	32	0	486539264	46	6290
2026-01-08 20:39:37.33	30.19	15.61	-37.0	-37.9	23.4	0.00e+00	0	32	0	488636416	46	6338
2026-01-08 20:39:38.05	30.04	15.62	-36.9	-37.8	23.6	0.00e+00	0	32	0	489684992	46	6278
2026-01-08 20:39:39.35	29.77	15.66	-36.9	-37.8	23.8	0.00e+00	0	32	0	492830720	46	6268
2026-01-08 20:39:40.07	29.62	15.68	-37.0	-37.9	23.7	0.00e+00	0	32	0	493879296	46	6323
2026-01-08 20:39:41.37	29.34	15.71	-37.0	-37.8	23.8	0.00e+00	0	32	0	495976448	46	6314
2026-01-08 20:39:42.09	29.19	15.73	-36.8	-37.7	23.9	0.00e+00	0	32	0	498073600	46	6198
2026-01-08 20:39:43.39	28.92	15.76	-36.9	-37.8	23.8	0.00e+00	0	32	0	500170752	46	6275
2026-01-08 20:39:44.11	28.76	15.78	-36.9	-37.8	23.9	0.00e+00	0	32	0	501219328	46	6284
2026-01-08 20:39:45.41	28.49	15.81	-37.1	-38.0	23.6	0.00e+00	0	32	0	504365056	46	6451
2026-01-08 20:39:46.13	28.33	15.83	-37.2	-38.1	23.6	0.00e+00	0	32	0	505413632	46	6536
2026-01-08 20:39:47.43	28.06	15.86	-37.4	-38.4	23.3	0.00e+00	0	32	0	507510784	46	6702
2026-01-08 20:39:48.15	27.90	15.87	-37.4	-38.3	23.4	0.00e+00	0	32	0	508559360	46	6673
2026-01-08 20:39:49.45	27.63	15.90	-37.4	-38.3	23.3	0.00e+00	0	32	0	511705088	46	6660
2026-01-08 20:39:50.17	27.47	15.92	-37.5	-38.4	23.2	0.00e+00	0	32	0	512753664	46	6728
2026-01-08 20:39:51.46	27.20	15.94	-37.5	-38.4	23.3	0.00e+00	0	32	0	514850816	46	6758
2026-01-08 20:39:52.18	27.04	15.96	-37.6	-38.5	23.1	0.00e+00	0	32	0	516947968	46	6840
2026-01-08 20:39:53.48	26.76	15.99	-37.6	-38.5	23.2	0.00e+00	0	32	0	519045120	46	6832
2026-01-08 20:39:54.20	26.61	16.00	-37.6	-38.5	23.2	0.00e+00	0	32	0	520093696	46	6847
2026-01-08 20:39:55.50	26.33	16.03	-37.4	-38.4	23.3	0.00e+00	0	32	0	523239424	46	6709
2026-01-08 20:39:56.22	26.17	16.04	-37.4	-38.3	23.5	0.00e+00	0	32	0	524288000	46	6663
2026-01-08 20:39:57.52	25.89	16.07	-37.4	-38.3	23.4	0.00e+00	0	32	0	526385152	46	6654
2026-01-08 20:39:58.24	25.74	16.08	-37.2	-38.1	23.6	0.00e+00	0	32	0	528482304	46	6485
2026-01-08 20:39:59.54	25.46	16.10	-37.2	-38.1	23.6	0.00e+00	0	32	0	530579456	46	6476
2026-01-08 20:40:00.26	25.30	16.12	-37.1	-38.0	23.6	0.00e+00	0	32	0	531628032	46	6451
2026-01-08 20:40:01.56	25.02	16.14	-37.1	-38.0	23.4	0.00e+00	0	32	0	533725184	46	6440
2026-01-08 20:40:02.28	24.86	16.15	-37.1	-38.0	23.6	0.00e+00	0	32	0	535822336	46	6423
2026-01-08 20:40:03.58	24.58	16.17	-37.1	-38.0	23.7	0.00e+00	0	32	0	537919488	46	6410
2026-01-08 20:40:04.29	24.43	16.19	-37.0	-37.8	23.8	0.00e+00	0	32	0	538968064	46	6298
2026-01-08 20:40:05.59	24.14	16.21	-37.2	-38.1	23.6	0.00e+00	0	32	0	542113792	46	6479
2026-01-08 20:40:06.31	23.99	16.22	-37.4	-38.3	23.4	0.00e+00	0	32	0	543162368	46	6637
2026-01-08 20:40:07.61	23.70	16.24	-37.4	-38.3	23.3	0.00e+00	0	32	0	545259520	46	6683
2026-01-08 20:40:08.33	23.54	16.25	-37.5	-38.4	23.3	0.00e+00	0	32	0	547356672	46	6725
2026-01-08 20:40:09.62	23.26	16.27	-37.5	-38.4	23.3	0.00e+00	0	32	0	549453824	46	6730
2026-01-08 20:40:10.34	23.11	16.28	-37.4	-38.3	23.4	0.00e+00	0	32	0	550502400	46	6676
2026-01-08 20:40:11.64	22.82	16.29	-37.3	-38.2	23.4	0.00e+00	0	32	0	552599552	46	6553
2026-01-08 20:40:12.36	22.66	16.30	-37.3	-38.2	23.5	0.00e+00	0	32	0	554696704	46	6551
2026-01-08 20:40:13.66	22.38	16.32	-37.4	-38.3	23.3	0.00e+00	0	32	0	556793856	46	6665
2026-01-08 20:40:14.38	22.22	16.33	-37.5	-38.4	23.2	0.00e+00	0	32	0	557842432	46	6756
2026-01-08 20:40:15.68	21.93	16.34	-37.5	-38.5	23.3	0.00e+00	0	32	0	560988160	46	6792
2026-01-08 20:40:16.40	21.77	16.35	-37.5	-38.4	23.2	0.00e+00	0	32	0	562036736	46	6752
2026-01-08 20:40:17.70	21.49	16.37	-37.4	-38.3	23.4	0.00e+00	0	32	0	564133888	46	6667
2026-01-08 20:40:18.42	21.33	16.37	-37.4	-38.4	23.3	0.00e+00	0	32	0	566231040	46	6699
2026-01-08 20:40:19.71	21.05	16.39	-37.5	-38.4	23.3	0.00e+00	0	32	0	568328192	46	6760
2026-01-08 20:40:20.43	20.89	16.39	-37.6	-38.5	23.2	0.00e+00	0	32	0	569376768	46	6807
2026-01-08 20:40:21.73	20.60	16.40	-37.6	-38.5	23.2	0.00e+00	0	32	0	572522496	46	6811
2026-01-08 20:40:22.45	20.44	16.41	-37.6	-38.5	23.2	0.00e+00	0	32	0	573571072	46	6831
2026-01-08 20:40:23.75	20.15	16.42	-37.7	-38.7	23.1	0.00e+00	0	32	0	575668224	46	6938
2026-01-08 20:40:24.47	19.99	16.43	-37.6	-38.5	23.1	0.00e+00	0	32	0	576716800	46	6826
2026-01-08 20:40:25.77	19.71	16.44	-37.6	-38.6	23.2	0.00e+00	0	32	0	579862528	46	6852
2026-01-08 20:40:26.49	19.55	16.44	-37.4	-38.4	23.3	0.00e+00	0	32	0	580911104	46	6712
2026-01-08 20:40:27.79	19.26	16.45	-37.5	-38.5	23.2	0.00e+00	0	32	0	583008256	46	6796
2026-01-08 20:40:28.51	19.10	16.46	-37.6	-38.6	23.2	0.00e+00	0	32	0	585105408	46	6880
2026-01-08 20:40:29.81	18.81	16.46	-37.6	-38.5	23.2	0.00e+00	0	32	0	587202560	46	6821
2026-01-08 20:40:30.53	18.65	16.47	-37.4	-38.4	23.4	0.00e+00	0	32	0	588251136	46	6711
2026-01-08 20:40:31.82	18.36	16.47	-37.4	-38.3	23.4	0.00e+00	0	32	0	591396864	46	6669
2026-01-08 20:40:32.54	18.21	16.48	-37.4	-38.3	23.5	0.00e+00	0	32	0	592445440	46	6623
2026-01-08 20:40:33.84	17.92	16.48	-37.3	-38.2	23.5	0.00e+00	0	32	0	594542592	46	6596
2026-01-08 20:40:34.56	17.76	16.48	-37.4	-38.4	23.4	0.00e+00	0	32	0	595591168	46	6696
2026-01-08 20:40:35.85	17.47	16.49	-37.4	-38.3	23.3	0.00e+00	0	32	0	598736896	46	6668
2026-01-08 20:40:36.58	17.31	16.49	-37.3	-38.3	23.5	0.00e+00	0	32	0	599785472	46	6620
2026-01-08 20:40:37.87	17.02	16.49	-37.7	-38.6	23.1	0.00e+00	0	32	0	601882624	46	6923
2026-01-08 20:40:38.59	16.86	16.49	-37.6	-38.6	23.1	0.00e+00	0	32	0	603979776	46	6872
2026-01-08 20:40:39.89	16.57	16.49	-37.8	-38.7	23.0	0.00e+00	0	32	0	606076928	48	6220
2026-01-08 20:40:40.61	16.41	16.50	-37.7	-38.7	23.0	0.00e+00	0	32	0	607125504	48	6201
2026-01-08 20:40:41.91	16.12	16.50	-37.7	-38.6	23.2	0.00e+00	0	32	0	610271232	48	6138
2026-01-08 20:40:42.63	15.96	16.50	-37.8	-38.7	23.0	0.00e+00	0	32	0	611319808	48	6227
2026-01-08 20:40:43.93	15.67	16.49	-37.5	-38.5	23.2	0.00e+00	0	32	0	613416960	48	6042
2026-01-08 20:40:44.65	15.51	16.49	-37.5	-38.4	23.3	0.00e+00	0	32	0	614465536	48	6013
2026-01-08 20:40:45.95	15.23	16.49	-37.3	-38.2	23.4	0.00e+00	0	32	0	617611264	48	5869
2026-01-08 20:40:46.67	15.07	16.49	-37.3	-38.2	23.3	0.00e+00	0	32	0	618659840	48	5863
2026-01-08 20:40:47.97	14.78	16.49	-37.4	-38.3	23.3	0.00e+00	0	32	0	620756992	48	5913
2026-01-08 20:40:48.69	14.62	16.49	-37.5	-38.5	23.2	0.00e+00	0	32	0	622854144	48	6045
2026-01-08 20:40:49.98	14.33	16.48	-37.5	-38.4	23.2	0.00e+00	0	32	0	624951296	48	6023
2026-01-08 20:40:50.70	14.17	16.48	-37.5	-38.4	23.2	0.00e+00	0	32	0	625999872	48	6023
2026-01-08 20:40:52.00	13.88	16.47	-37.4	-38.3	23.3	0.00e+00	0	32	0	629145600	48	5951
2026-01-08 20:40:52.72	13.72	16.47	-37.4	-38.3	23.3	0.00e+00	0	32	0	630194176	48	5944
2026-01-08 20:40:54.01	13.44	16.46	-37.5	-38.4	23.3	0.00e+00	0	32	0	632291328	48	6009
2026-01-08 20:40:54.73	13.28	16.46	-37.6	-38.5	23.3	0.00e+00	0	32	0	634388480	48	6061
2026-01-08 20:40:56.03	12.99	16.45	-37.7	-38.6	23.1	0.00e+00	0	32	0	636485632	48	6141
2026-01-08 20:40:56.75	12.83	16.45	-37.6	-38.6	23.2	0.00e+00	0	32	0	637534208	48	6117
2026-01-08 20:40:58.05	12.54	16.44	-37.6	-38.6	23.1	0.00e+00	0	32	0	639631360	48	6132
2026-01-08 20:40:58.77	12.38	16.43	-37.6	-38.6	23.1	0.00e+00	0	32	0	641728512	48	6121
2026-01-08 20:41:00.07	12.10	16.42	-37.5	-38.4	23.3	0.00e+00	0	32	0	643825664	48	5988
2026-01-08 20:41:00.79	11.94	16.42	-37.4	-38.3	23.4	0.00e+00	0	32	0	644874240	48	5937
2026-01-08 20:41:02.09	11.65	16.41	-37.1	-38.0	23.6	0.00e+00	0	32	0	648019968	48	5755
2026-01-08 20:41:02.81	11.49	16.40	-37.1	-38.0	23.6	0.00e+00	0	32	0	649068544	48	5717
2026-01-08 20:41:04.10	11.20	16.39	-37.0	-37.9	23.8	0.00e+00	0	32	0	651165696	48	5636
2026-01-08 20:41:04.83	11.04	16.38	-37.0	-37.8	23.8	0.00e+00	0	32	0	653262848	48	5629
2026-01-08 20:41:06.12	10.76	16.37	-37.1	-38.0	23.6	0.00e+00	0	32	0	655360000	48	5740
2026-01-08 20:41:06.85	10.60	16.36	-37.2	-38.1	23.6	0.00e+00	0	32	0	656408576	48	5790
2026-01-08 20:41:08.14	10.31	16.35	-37.3	-38.2	23.5	0.00e+00	0	32	0	658505728	48	5869
2026-01-08 20:41:08.86	10.16	16.34	-37.4	-38.3	23.3	0.00e+00	0	32	0	660602880	48	5946
2026-01-08 20:41:10.16	9.87	16.32	-37.3	-38.2	23.2	0.00e+00	0	32	0	662700032	48	5871
2026-01-08 20:41:10.87	9.72	16.31	-37.3	-38.2	23.4	0.00e+00	0	32	0	663748608	48	5854
2026-01-08 20:41:12.17	9.43	16.30	-37.3	-38.2	23.5	0.00e+00	0	32	0	666894336	48	5850
2026-01-08 20:41:12.90	9.27	16.29	-37.0	-37.9	23.7	0.00e+00	0	32	0	667942912	48	5634
2026-01-08 20:41:14.19	8.99	16.27	-36.9	-37.7	23.8	0.00e+00	0	32	0	670040064	48	5557
2026-01-08 20:41:14.92	8.83	16.26	-36.7	-37.6	24.1	0.00e+00	0	32	0	672137216	46	6129
2026-01-08 20:41:16.21	8.55	16.24	-36.8	-37.7	23.9	0.00e+00	0	32	0	674234368	46	6231
2026-01-08 20:41:16.93	8.39	16.23	-36.8	-37.7	23.9	0.00e+00	0	32	0	675282944	46	6227
2026-01-08 20:41:18.23	8.11	16.21	-36.8	-37.7	24.0	0.00e+00	0	32	0	678428672	46	6225
2026-01-08 20:41:18.95	7.95	16.20	-36.8	-37.7	23.9	0.00e+00	0	32	0	679477248	46	6221
2026-01-08 20:41:20.25	7.67	16.18	-36.9	-37.8	23.9	0.00e+00	0	32	0	681574400	46	6266
2026-01-08 20:41:20.97	7.51	16.17	-36.8	-37.7	23.9	0.00e+00	0	32	0	682622976	46	6221
2026-01-08 20:41:22.27	7.23	16.15	-36.8	-37.7	23.9	0.00e+00	0	32	0	685768704	46	6207
2026-01-08 20:41:22.99	7.07	16.13	-36.6	-37.4	24.1	0.00e+00	0	32	0	686817280	46	6031
2026-01-08 20:41:24.29	6.79	16.11	-36.6	-37.5	24.1	0.00e+00	0	32	0	688914432	46	6040
2026-01-08 20:41:25.01	6.63	16.10	-36.7	-37.6	24.0	0.00e+00	0	32	0	691011584	46	6149
2026-01-08 20:41:26.31	6.35	16.07	-36.4	-37.3	24.2	0.00e+00	0	32	0	693108736	46	5920
2026-01-08 20:41:27.03	6.20	16.06	-36.3	-37.2	24.4	0.00e+00	0	32	0	694157312	46	5840
2026-01-08 20:41:28.33	5.92	16.03	-36.5	-37.3	24.2	0.00e+00	0	32	0	697303040	46	5955
2026-01-08 20:41:29.05	5.76	16.02	-36.6	-37.4	24.2	0.00e+00	0	32	0	698351616	46	6030
2026-01-08 20:41:30.35	5.48	15.99	-36.8	-37.6	23.9	0.00e+00	0	32	0	700448768	46	6159
2026-01-08 20:41:31.07	5.33	15.98	-36.9	-37.7	23.9	0.00e+00	0	32	0	702545920	46	6235
2026-01-08 20:41:32.37	5.05	15.95	-36.9	-37.8	23.8	0.00e+00	0	32	0	704643072	46	6304
2026-01-08 20:41:33.09	4.90	15.94	-37.0	-37.9	23.7	0.00e+00	0	32	0	705691648	46	6318
2026-01-08 20:41:34.38	4.62	15.91	-36.9	-37.8	23.8	0.00e+00	0	32	0	707788800	46	6258
2026-01-08 20:41:35.10	4.47	15.89	-37.0	-37.9	23.7	0.00e+00	0	32	0	709885952	46	6342
2026-01-08 20:41:36.40	4.19	15.86	-36.8	-37.7	23.9	0.00e+00	0	32	0	711983104	46	6203
2026-01-08 20:41:37.12	4.04	15.85	-36.9	-37.8	23.8	0.00e+00	0	32	0	713031680	46	6280
2026-01-08 20:41:38.42	3.76	15.82	-36.9	-37.8	23.9	0.00e+00	0	32	0	716177408	46	6259
2026-01-08 20:41:39.14	3.61	15.80	-36.8	-37.6	23.9	0.00e+00	0	32	0	717225984	46	6159
2026-01-08 20:41:40.44	3.33	15.77	-36.8	-37.7	23.9	0.00e+00	0	32	0	719323136	46	6208
2026-01-08 20:41:41.16	3.18	15.75	-36.8	-37.7	24.0	0.00e+00	0	32	0	721420288	46	6180
2026-01-08 20:41:42.46	2.91	15.72	-36.9	-37.8	23.9	0.00e+00	0	32	0	723517440	46	6260
2026-01-08 20:41:43.18	2.75	15.70	-36.9	-37.7	23.9	0.00e+00	0	32	0	724566016	46	6240
2026-01-08 20:41:44.48	2.48	15.67	-37.1	-38.0	23.7	0.00e+00	0	32	0	726663168	46	6400
2026-01-08 20:41:45.20	2.33	15.65	-37.2	-38.1	23.6	0.00e+00	0	32	0	728760320	46	6488
2026-01-08 20:41:46.50	2.06	15.61	-37.3	-38.2	23.5	0.00e+00	0	32	0	730857472	46	6564
2026-01-08 20:41:47.22	1.91	15.60	-37.3	-38.3	23.5	0.00e+00	0	32	0	731906048	46	6619
2026-01-08 20:41:48.52	1.63	15.56	-37.4	-38.4	23.4	0.00e+00	0	32	0	735051776	46	6697
2026-01-08 20:41:49.24	1.48	15.54	-37.6	-38.5	23.3	0.00e+00	0	32	0	736100352	46	6796
2026-01-08 20:41:50.54	1.21	15.50	-37.5	-38.5	23.3	0.00e+00	0	32	0	738197504	46	6780
2026-01-08 20:41:51.26	1.06	15.48	-37.5	-38.5	23.3	0.00e+00	0	32	0	740294656	46	6770
2026-01-08 20:41:52.56	0.80	15.45	-37.5	-38.4	23.3	0.00e+00	0	32	0	742391808	46	6755
2026-01-08 20:41:53.28	0.65	15.43	-37.7	-38.7	23.2	0.00e+00	0	32	0	743440384	46	6934
2026-01-08 20:41:54.58	0.38	15.39	-37.4	-38.3	23.4	0.00e+00	0	32	0	746586112	46	6646
2026-01-08 20:41:55.30	0.23	15.37	-37.4	-38.3	23.3	0.00e+00	0	32	0	747634688	46	6674
2026-01-08 20:41:56.59	359.96	15.33	-37.4	-38.4	23.3	0.00e+00	0	32	0	749731840	46	6706
2026-01-08 20:41:57.31	359.82	15.31	-37.4	-38.3	23.4	0.00e+00	0	32	0	750780416	46	6641
2026-01-08 20:41:58.61	359.55	15.27	-37.4	-38.4	23.4	0.00e+00	0	32	0	753926144	46	6701
2026-01-08 20:41:59.33	359.40	15.25	-37.3	-38.2	23.5	0.00e+00	0	32	0	754974720	46	6613
2026-01-08 20:42:00.63	359.14	15.21	-37.3	-38.2	23.5	0.00e+00	0	32	0	757071872	46	6572
2026-01-08 20:42:01.35	358.99	15.18	-37.3	-38.2	23.5	0.00e+00	0	32	0	759169024	46	6586
2026-01-08 20:42:02.65	358.73	15.14	-37.3	-38.2	23.4	0.00e+00	0	32	0	761266176	46	6611
2026-01-08 20:42:03.37	358.58	15.12	-37.2	-38.2	23.5	0.00e+00	0	32	0	762314752	46	6541
2026-01-08 20:42:04.67	358.32	15.08	-37.2	-38.1	23.5	0.00e+00	0	32	0	765460480	46	6523
2026-01-08 20:42:05.39	358.17	15.05	-37.0	-37.9	23.7	0.00e+00	0	32	0	766509056	46	6350
2026-01-08 20:42:06.69	357.91	15.01	-37.1	-37.9	23.7	0.00e+00	0	32	0	768606208	46	6389
2026-01-08 20:42:07.42	357.77	14.99	-37.1	-38.0	23.6	0.00e+00	0	32	0	770703360	46	6434
2026-01-08 20:42:08.71	357.51	14.94	-37.1	-38.0	23.7	0.00e+00	0	32	0	772800512	46	6433
2026-01-08 20:42:09.43	357.36	14.92	-37.1	-38.0	23.5	0.00e+00	0	32	0	773849088	46	6449
2026-01-08 20:42:10.73	357.11	14.87	-37.2	-38.1	23.4	0.00e+00	0	32	0	775946240	46	6468
2026-01-08 20:42:11.45	356.96	14.85	-37.1	-38.0	23.3	0.00e+00	0	32	0	778043392	46	6430
2026-01-08 20:42:12.75	356.70	14.80	-37.1	-38.0	23.6	0.00e+00	0	32	0	780140544	46	6448
2026-01-08 20:42:13.47	356.56	14.78	-37.2	-38.2	23.4	0.00e+00	0	32	0	781189120	46	6545
2026-01-08 20:42:14.77	356.31	14.73	-37.1	-38.0	23.6	0.00e+00	0	32	0	784334848	46	6407
2026-01-08 20:42:15.49	356.16	14.71	-37.0	-37.9	23.6	0.00e+00	0	32	0	785383424	46	6332
2026-01-08 20:42:16.79	355.91	14.66	-37.0	-37.9	23.6	0.00e+00	0	32	0	787480576	46	6382
2026-01-08 20:42:17.51	355.77	14.63	-37.0	-37.9	23.7	0.00e+00	0	32	0	789577728	46	6368
2026-01-08 20:42:18.81	355.51	14.59	-37.2	-38.1	23.5	0.00e+00	0	32	0	791674880	46	6528
2026-01-08 20:42:19.53	355.37	14.56	-37.1	-38.0	23.6	0.00e+00	0	32	0	792723456	46	6399
2026-01-08 20:42:20.83	355.12	14.51	-37.3	-38.2	23.5	0.00e+00	0	32	0	794820608	46	6552
2026-01-08 20:42:21.55	354.98	14.48	-37.1	-38.0	23.6	0.00e+00	0	32	0	796917760	46	6391
2026-01-08 20:42:22.85	354.73	14.43	-37.0	-37.9	23.7	0.00e+00	0	32	0	799014912	46	6325
2026-01-08 20:42:23.57	354.59	14.41	-37.1	-38.0	23.6	0.00e+00	0	32	0	800063488	46	6395
2026-01-08 20:42:24.86	354.34	14.36	-37.1	-38.0	23.3	0.00e+00	0	32	0	803209216	46	6403
2026-01-08 20:42:25.58	354.20	14.33	-37.0	-37.9	23.7	0.00e+00	0	32	0	804257792	46	6337
2026-01-08 20:42:26.88	353.95	14.28	-37.0	-37.9	23.6	0.00e+00	0	32	0	806354944	46	6371
2026-01-08 20:42:27.60	353.82	14.25	-37.1	-38.0	23.5	0.00e+00	0	32	0	808452096	46	6436
2026-01-08 20:42:28.90	353.57	14.20	-37.3	-38.2	23.4	0.00e+00	0	32	0	810549248	46	6613
2026-01-08 20:42:29.62	353.43	14.17	-37.3	-38.2	23.4	0.00e+00	0	32	0	811597824	46	6580
2026-01-08 20:42:30.92	353.19	14.12	-37.4	-38.3	23.4	0.00e+00	0	32	0	814743552	46	6630
2026-01-08 20:42:31.64	353.05	14.09	-37.4	-38.3	23.4	0.00e+00	0	32	0	815792128	46	6674
2026-01-08 20:42:32.94	352.81	14.04	-37.5	-38.5	23.3	0.00e+00	0	32	0	817889280	46	6773
2026-01-08 20:42:33.66	352.67	14.01	-37.4	-38.3	23.4	0.00e+00	0	32	0	818937856	46	6660
2026-01-08 20:42:34.96	352.43	13.96	-37.3	-38.2	23.5	0.00e+00	0	32	0	822083584	46	6577
2026-01-08 20:42:35.68	352.29	13.93	-37.3	-38.2	23.5	0.00e+00	0	32	0	823132160	46	6554
2026-01-08 20:42:36.97	352.05	13.87	-37.2	-38.1	23.5	0.00e+00	0	32	0	825229312	46	6495
2026-01-08 20:42:37.69	351.92	13.84	-37.3	-38.2	23.5	0.00e+00	0	32	0	827326464	46	6544
2026-01-08 20:42:38.99	351.68	13.79	-37.3	-38.2	23.4	0.00e+00	0	32	0	829423616	46	6609
2026-01-08 20:42:39.71	351.55	13.76	-37.3	-38.2	23.4	0.00e+00	0	32	0	830472192	46	6585
2026-01-08 20:42:41.01	351.31	13.71	-37.5	-38.4	23.2	0.00e+00	0	32	0	833617920	46	6767
2026-01-08 20:42:41.73	351.17	13.68	-37.6	-38.5	23.1	0.00e+00	0	32	0	834666496	46	6810
2026-01-08 20:42:43.03	350.94	13.62	-37.6	-38.6	23.1	0.00e+00	0	32	0	836763648	46	6875
2026-01-08 20:42:43.75	350.81	13.59	-37.7	-38.7	23.0	0.00e+00	0	32	0	837812224	48	6201
2026-01-08 20:42:45.05	350.57	13.53	-37.8	-38.7	22.9	0.00e+00	0	32	0	840957952	48	6228
2026-01-08 20:42:45.77	350.44	13.50	-37.9	-38.8	22.8	0.00e+00	0	32	0	842006528	48	6317
2026-01-08 20:42:47.07	350.20	13.45	-37.8	-38.8	22.8	0.00e+00	0	32	0	844103680	48	6263
2026-01-08 20:42:47.79	350.07	13.41	-37.8	-38.8	22.8	0.00e+00	0	32	0	846200832	48	6280
2026-01-08 20:42:49.09	349.84	13.36	-37.8	-38.8	22.8	0.00e+00	0	32	0	848297984	48	6306
2026-01-08 20:42:49.81	349.71	13.33	-38.0	-38.9	22.7	0.00e+00	0	32	0	849346560	48	6382
2026-01-08 20:42:51.10	349.48	13.27	-38.1	-39.1	22.5	0.00e+00	0	32	0	852492288	48	6477
2026-01-08 20:42:51.83	349.35	13.24	-38.1	-39.1	22.5	0.00e+00	0	32	0	853540864	48	6532
2026-01-08 20:42:53.12	349.12	13.18	-38.1	-39.1	22.5	0.00e+00	0	32	0	855638016	48	6519
2026-01-08 20:42:53.84	348.99	13.15	-38.3	-39.3	22.3	0.00e+00	0	32	0	857735168	48	6660
2026-01-08 20:42:55.14	348.76	13.09	-38.2	-39.2	22.4	0.00e+00	0	32	0	859832320	48	6612
2026-01-08 20:42:55.86	348.64	13.05	-38.3	-39.3	22.3	0.00e+00	0	32	0	860880896	48	6637
2026-01-08 20:42:57.16	348.41	13.00	-38.4	-39.5	22.2	0.00e+00	0	32	0	862978048	48	6775
2026-01-08 20:42:57.88	348.28	12.96	-38.5	-39.5	22.0	0.00e+00	0	32	0	865075200	48	6843
2026-01-08 20:42:59.18	348.06	12.90	-38.6	-39.7	22.0	0.00e+00	0	32	0	867172352	48	6980
2026-01-08 20:42:59.90	347.93	12.87	-38.7	-39.8	21.9	0.00e+00	0	32	0	868220928	48	7047
2026-01-08 20:43:01.20	347.71	12.81	-38.8	-39.9	21.8	0.00e+00	0	32	0	871366656	50	6369
2026-01-08 20:43:01.92	347.58	12.78	-38.9	-40.0	21.7	0.00e+00	0	32	0	872415232	50	6399
2026-01-08 20:43:03.22	347.36	12.72	-39.1	-40.2	21.6	0.00e+00	0	32	0	874512384	50	6590
2026-01-08 20:43:03.94	347.24	12.68	-39.0	-40.1	21.6	0.00e+00	0	32	0	876609536	50	6482
2026-01-08 20:43:05.24	347.01	12.62	-39.1	-40.2	21.4	0.00e+00	0	32	0	878706688	50	6587
2026-01-08 20:43:05.96	346.89	12.59	-39.0	-40.1	21.6	0.00e+00	0	32	0	879755264	50	6518
2026-01-08 20:43:07.25	346.67	12.53	-39.2	-40.3	21.4	0.00e+00	0	32	0	881852416	50	6656
2026-01-08 20:43:07.97	346.55	12.49	-39.1	-40.2	21.5	0.00e+00	0	32	0	883949568	50	6568
2026-01-08 20:43:09.27	346.33	12.43	-38.9	-40.0	21.5	0.00e+00	0	32	0	886046720	50	6416
2026-01-08 20:43:09.99	346.21	12.40	-39.0	-40.1	21.6	0.00e+00	0	32	0	887095296	50	6488
2026-01-08 20:43:11.29	345.99	12.34	-39.0	-40.1	21.5	0.00e+00	0	32	0	890241024	50	6494
2026-01-08 20:43:12.01	345.87	12.30	-39.1	-40.3	21.4	0.00e+00	0	32	0	891289600	50	6651
2026-01-08 20:43:13.31	345.66	12.24	-39.3	-40.4	21.1	0.00e+00	0	32	0	893386752	50	6765
2026-01-08 20:43:14.03	345.54	12.20	-39.4	-40.6	20.9	0.00e+00	0	32	0	895483904	50	6913
2026-01-08 20:43:15.33	345.32	12.14	-39.6	-40.9	20.8	0.00e+00	0	32	0	897581056	50	7102
2026-01-08 20:43:16.05	345.20	12.11	-39.6	-40.9	20.9	0.00e+00	0	32	0	898629632	50	7113
2026-01-08 20:43:17.35	344.99	12.04	-39.6	-40.8	20.9	0.00e+00	0	32	0	901775360	50	7019
2026-01-08 20:43:18.07	344.87	12.01	-39.7	-41.0	20.7	0.00e+00	0	32	0	902823936	50	7182
2026-01-08 20:43:19.36	344.66	11.94	-39.6	-40.8	20.9	0.00e+00	0	32	0	904921088	50	7046
2026-01-08 20:43:20.08	344.54	11.91	-39.5	-40.8	20.9	0.00e+00	0	32	0	905969664	50	7017
2026-01-08 20:43:21.38	344.33	11.85	-39.6	-40.8	20.9	0.00e+00	0	32	0	909115392	50	7031
2026-01-08 20:43:22.10	344.22	11.81	-39.6	-40.8	20.8	0.00e+00	0	32	0	910163968	50	7073
2026-01-08 20:43:23.40	344.01	11.75	-39.8	-41.0	20.8	0.00e+00	0	32	0	912261120	52	6456
2026-01-08 20:43:24.12	343.89	11.71	-39.8	-41.1	20.5	0.00e+00	0	32	0	914358272	52	6500
2026-01-08 20:43:25.42	343.69	11.65	-39.9	-41.1	20.6	0.00e+00	0	32	0	916455424	52	6528
2026-01-08 20:43:26.14	343.57	11.61	-39.9	-41.2	20.5	0.00e+00	0	32	0	917504000	52	6596
2026-01-08 20:43:27.44	343.37	11.55	-39.8	-41.1	20.7	0.00e+00	0	32	0	920649728	52	6477
2026-01-08 20:43:28.16	343.25	11.51	-39.9	-41.2	20.5	0.00e+00	0	32	0	921698304	52	6573
2026-01-08 20:43:29.45	343.05	11.44	-39.9	-41.2	20.6	0.00e+00	0	32	0	923795456	52	6558
2026-01-08 20:43:30.17	342.94	11.41	-40.1	-41.4	20.3	0.00e+00	0	32	0	924844032	52	6716
2026-01-08 20:43:31.47	342.73	11.34	-39.9	-41.1	20.6	0.00e+00	0	32	0	927989760	52	6513
2026-01-08 20:43:32.19	342.62	11.31	-39.9	-41.1	20.6	0.00e+00	0	32	0	929038336	52	6536
2026-01-08 20:43:33.49	342.42	11.24	-39.8	-41.0	20.7	0.00e+00	0	32	0	931135488	52	6430
2026-01-08 20:43:34.21	342.31	11.20	-39.8	-41.0	20.7	0.00e+00	0	32	0	933232640	52	6445
2026-01-08 20:43:35.50	342.11	11.14	-39.8	-41.0	20.7	0.00e+00	0	32	0	935329792	52	6456
2026-01-08 20:43:36.23	342.00	11.10	-39.8	-41.1	20.7	0.00e+00	0	32	0	936378368	52	6504
2026-01-08 20:43:37.53	341.80	11.04	-39.8	-41.0	20.7	0.00e+00	0	32	0	939524096	52	6451
2026-01-08 20:43:38.25	341.69	11.00	-39.9	-41.1	20.7	0.00e+00	0	32	0	940572672	52	6539
2026-01-08 20:43:39.55	341.49	10.93	-39.9	-41.1	20.6	0.00e+00	0	32	0	942669824	52	6524
2026-01-08 20:43:40.27	341.38	10.90	-39.9	-41.2	20.5	0.00e+00	0	32	0	944766976	52	6572
2026-01-08 20:43:41.56	341.18	10.83	-39.9	-41.2	20.5	0.00e+00	0	32	0	946864128	52	6547
2026-01-08 20:43:42.28	341.08	10.79	-40.1	-41.4	20.4	0.00e+00	0	32	0	947912704	52	6753
2026-01-08 20:43:43.58	340.88	10.73	-39.6	-40.9	20.8	0.00e+00	0	32	0	950009856	52	6319
2026-01-08 20:43:44.30	340.77	10.69	-39.7	-41.0	20.6	0.00e+00	0	32	0	952107008	52	6414
2026-01-08 20:43:45.60	340.58	10.62	-39.4	-40.6	21.0	0.00e+00	0	32	0	954204160	52	6147
2026-01-08 20:43:46.32	340.47	10.58	-39.5	-40.8	20.9	0.00e+00	0	32	0	955252736	52	6267
2026-01-08 20:43:47.62	340.28	10.52	-39.4	-40.6	21.0	0.00e+00	0	32	0	958398464	52	6152
2026-01-08 20:43:48.34	340.18	10.48	-39.4	-40.6	20.9	0.00e+00	0	32	0	959447040	52	6109
2026-01-08 20:43:49.64	339.99	10.41	-39.4	-40.6	21.0	0.00e+00	0	32	0	961544192	52	6132
2026-01-08 20:43:50.36	339.88	10.38	-39.3	-40.5	21.1	0.00e+00	0	32	0	963641344	52	6073
2026-01-08 20:43:51.66	339.69	10.31	-39.2	-40.4	21.2	0.00e+00	0	32	0	965738496	52	6024
2026-01-08 20:43:52.38	339.59	10.27	-39.2	-40.4	21.2	0.00e+00	0	32	0	966787072	52	5995
2026-01-08 20:43:53.68	339.40	10.20	-39.1	-40.3	21.3	0.00e+00	0	32	0	969932800	52	5929
2026-01-08 20:43:54.40	339.30	10.16	-39.1	-40.2	21.3	0.00e+00	0	32	0	970981376	52	5881
2026-01-08 20:43:55.70	339.11	10.10	-39.0	-40.1	21.4	0.00e+00	0	32	0	973078528	52	5817
2026-01-08 20:43:56.42	339.01	10.06	-39.0	-40.2	21.4	0.00e+00	0	32	0	974127104	52	5859
2026-01-08 20:43:57.71	338.82	9.99	-38.8	-40.0	21.6	0.00e+00	0	32	0	977272832	52	5697
2026-01-08 20:43:58.43	338.72	9.95	-38.8	-39.9	21.6	0.00e+00	0	32	0	978321408	52	5662
2026-01-08 20:43:59.73	338.54	9.89	-38.8	-40.0	21.6	0.00e+00	0	32	0	980418560	52	5703
2026-01-08 20:44:00.45	338.44	9.85	-38.6	-39.7	21.7	0.00e+00	0	32	0	982515712	50	6238
2026-01-08 20:44:01.75	338.25	9.78	-38.8	-39.9	21.7	0.00e+00	0	32	0	984612864	50	6334
2026-01-08 20:44:02.47	338.15	9.74	-38.7	-39.9	21.7	0.00e+00	0	32	0	985661440	50	6341
2026-01-08 20:44:03.77	337.97	9.67	-38.5	-39.6	21.8	0.00e+00	0	32	0	988807168	50	6154
2026-01-08 20:44:04.49	337.87	9.63	-38.4	-39.5	21.9	0.00e+00	0	32	0	989855744	50	6079
2026-01-08 20:44:05.78	337.69	9.57	-38.5	-39.6	22.0	0.00e+00	0	32	0	991952896	50	6116
2026-01-08 20:44:06.51	337.59	9.53	-38.3	-39.4	22.1	0.00e+00	0	32	0	993001472	50	5969
2026-01-08 20:44:07.80	337.42	9.46	-38.3	-39.4	22.0	0.00e+00	0	32	0	996147200	50	5978
2026-01-08 20:44:08.53	337.32	9.42	-38.4	-39.5	22.0	0.00e+00	0	32	0	997195776	50	6050
2026-01-08 20:44:09.82	337.14	9.35	-38.3	-39.4	22.0	0.00e+00	0	32	0	999292928	50	6008
2026-01-08 20:44:10.55	337.04	9.31	-38.2	-39.3	22.2	0.00e+00	0	32	0	1001390080	50	5897
2026-01-08 20:44:11.84	336.87	9.24	-38.1	-39.2	22.2	0.00e+00	0	32	0	1003487232	50	5858
2026-01-08 20:44:12.56	336.77	9.21	-38.1	-39.1	22.3	0.00e+00	0	32	0	1004535808	50	5800
2026-01-08 20:44:13.86	336.60	9.14	-38.1	-39.1	22.3	0.00e+00	0	32	0	1007681536	50	5788
2026-01-08 20:44:14.58	336.50	9.10	-38.1	-39.1	22.3	0.00e+00	0	32	0	1008730112	50	5827
2026-01-08 20:44:15.88	336.33	9.03	-37.8	-38.8	22.6	0.00e+00	0	32	0	1010827264	50	5629
2026-01-08 20:44:16.60	336.23	8.99	-37.8	-38.8	22.5	0.00e+00	0	32	0	1011875840	50	5617
2026-01-08 20:44:17.90	336.06	8.92	-37.8	-38.8	22.5	0.00e+00	0	32	0	1015021568	50	5587
2026-01-08 20:44:18.62	335.97	8.88	-37.8	-38.8	22.5	0.00e+00	0	32	0	1016070144	50	5623
2026-01-08 20:44:19.92	335.80	8.81	-37.8	-38.9	22.5	0.00e+00	0	32	0	1018167296	48	6322
2026-01-08 20:44:20.64	335.70	8.77	-37.8	-38.8	22.5	0.00e+00	0	32	0	1020264448	48	6277
2026-01-08 20:44:21.93	335.53	8.71	-37.6	-38.6	22.7	0.00e+00	0	32	0	1022361600	48	6111
2026-01-08 20:44:22.66	335.44	8.67	-37.5	-38.5	22.8	0.00e+00	0	32	0	1023410176	48	6040
2026-01-08 20:44:23.95	335.27	8.60	-37.6	-38.6	22.7	0.00e+00	0	32	0	1026555904	48	6128
2026-01-08 20:44:24.68	335.18	8.56	-37.4	-38.4	22.9	0.00e+00	0	32	0	1027604480	48	5984
2026-01-08 20:44:25.97	335.01	8.49	-37.5	-38.4	22.8	0.00e+00	0	32	0	1029701632	48	6017
2026-01-08 20:44:26.69	334.92	8.45	-37.5	-38.5	22.8	0.00e+00	0	32	0	1031798784	48	6055
2026-01-08 20:44:27.99	334.76	8.38	-37.4	-38.4	22.8	0.00e+00	0	32	0	1033895936	48	5976
2026-01-08 20:44:28.71	334.66	8.34	-37.4	-38.4	22.8	0.00e+00	0	32	0	1034944512	48	6001
2026-01-08 20:44:30.01	334.50	8.27	-37.6	-38.6	22.6	0.00e+00	0	32	0	1037041664	48	6109
2026-01-08 20:44:30.73	334.41	8.23	-37.5	-38.5	22.8	0.00e+00	0	32	0	1039138816	48	6071
2026-01-08 20:44:32.03	334.25	8.16	-37.5	-38.5	22.7	0.00e+00	0	32	0	1041235968	48	6082
2026-01-08 20:44:32.75	334.16	8.13	-37.6	-38.6	22.6	0.00e+00	0	32	0	1042284544	48	6120
2026-01-08 20:44:34.05	334.00	8.06	-37.7	-38.7	22.6	0.00e+00	0	32	0	1045430272	48	6181
2026-01-08 20:44:34.77	333.91	8.02	-37.6	-38.6	22.6	0.00e+00	0	32	0	1046478848	48	6167
2026-01-08 20:44:36.07	333.75	7.95	-37.7	-38.7	22.5	0.00e+00	0	32	0	1048576000	48	6233
2026-01-08 20:44:36.79	333.66	7.91	-37.7	-38.8	22.6	0.00e+00	0	32	0	1050673152	48	6251
2026-01-08 20:44:38.09	333.50	7.84	-37.9	-38.9	22.3	0.00e+00	0	32	0	1052770304	48	6368
2026-01-08 20:44:38.81	333.41	7.80	-37.7	-38.7	22.4	0.00e+00	0	32	0	1053818880	48	6244
2026-01-08 20:44:40.11	333.25	7.73	-37.7	-38.7	22.5	0.00e+00	0	32	0	1055916032	48	6242
2026-01-08 20:44:40.82	333.17	7.69	-37.8	-38.8	22.4	0.00e+00	0	32	0	1058013184	48	6300
2026-01-08 20:44:42.12	333.01	7.62	-37.9	-39.0	22.3	0.00e+00	0	32	0	1060110336	48	6408
2026-01-08 20:44:42.85	332.92	7.58	-37.9	-38.9	22.4	0.00e+00	0	32	0	1061158912	48	6359
2026-01-08 20:44:44.14	332.77	7.51	-37.8	-38.8	22.5	0.00e+00	0	32	0	1064304640	48	6311
2026-01-08 20:44:44.86	332.68	7.47	-37.8	-38.9	22.4	0.00e+00	0	32	0	1065353216	48	6321
2026-01-08 20:44:46.16	332.53	7.40	-37.9	-39.0	22.3	0.00e+00	0	32	0	1067450368	48	6406
2026-01-08 20:44:46.88	332.44	7.36	-37.9	-39.0	22.2	0.00e+00	0	32	0	1069547520	48	6408
2026-01-08 20:44:48.18	332.29	7.29	-38.1	-39.1	22.1	0.00e+00	0	32	0	1071644672	48	6517
2026-01-08 20:44:48.90	332.21	7.26	-38.1	-39.2	22.0	0.00e+00	0	32	0	1072693248	48	6542
2026-01-08 20:44:50.20	332.05	7.19	-38.2	-39.3	21.9	0.00e+00	0	32	0	1075838976	48	6658
2026-01-08 20:44:50.92	331.97	7.15	-38.2	-39.3	22.0	0.00e+00	0	32	0	1076887552	48	6655
2026-01-08 20:44:52.22	331.82	7.08	-38.2	-39.3	22.0	0.00e+00	0	32	0	1078984704	48	6652
2026-01-08 20:44:52.94	331.74	7.04	-38.2	-39.3	21.9	0.00e+00	0	32	0	1080033280	48	6669
2026-01-08 20:44:54.24	331.59	6.97	-38.2	-39.3	21.9	0.00e+00	0	32	0	1083179008	48	6661
2026-01-08 20:44:54.96	331.50	6.93	-38.2	-39.3	21.9	0.00e+00	0	32	0	1084227584	48	6664
2026-01-08 20:44:56.26	331.36	6.86	-38.2	-39.3	21.9	0.00e+00	0	32	0	1086324736	48	6680
2026-01-08 20:44:56.98	331.27	6.82	-38.3	-39.3	21.9	0.00e+00	0	32	0	1088421888	48	6684
2026-01-08 20:44:58.28	331.13	6.75	-38.2	-39.3	21.9	0.00e+00	0	32	0	1090519040	48	6672
2026-01-08 20:44:59.00	331.05	6.71	-38.2	-39.3	21.9	0.00e+00	0	32	0	1091567616	48	6674
2026-01-08 20:45:00.29	330.90	6.64	-38.1	-39.1	22.1	0.00e+00	0	32	0	1094713344	48	6526
2026-01-08 20:45:01.02	330.82	6.60	-38.2	-39.2	22.0	0.00e+00	0	32	0	1095761920	48	6601
2026-01-08 20:45:02.31	330.67	6.53	-38.1	-39.2	22.0	0.00e+00	0	32	0	1097859072	48	6549
2026-01-08 20:45:03.03	330.59	6.49	-38.3	-39.3	21.8	0.00e+00	0	32	0	1099956224	48	6683
2026-01-08 20:45:04.33	330.45	6.42	-38.5	-39.6	21.7	0.00e+00	0	32	0	1102053376	48	6868
2026-01-08 20:45:05.05	330.37	6.39	-38.2	-39.3	21.9	0.00e+00	0	32	0	1103101952	48	6677
2026-01-08 20:45:06.35	330.23	6.32	-38.4	-39.5	21.7	0.00e+00	0	32	0	1105199104	48	6787
2026-01-08 20:45:07.07	330.15	6.28	-38.4	-39.5	21.7	0.00e+00	0	32	0	1107296256	48	6813
2026-01-08 20:45:08.36	330.01	6.21	-38.4	-39.5	21.6	0.00e+00	0	32	0	1109393408	48	6796
2026-01-08 20:45:09.09	329.93	6.17	-38.5	-39.6	21.6	0.00e+00	0	32	0	1110441984	48	6896
2026-01-08 20:45:10.38	329.79	6.10	-38.6	-39.8	21.3	0.00e+00	0	32	0	1113587712	48	7025
2026-01-08 20:45:11.10	329.71	6.06	-38.5	-39.7	21.5	0.00e+00	0	32	0	1114636288	48	6947
2026-01-08 20:45:12.39	329.57	5.99	-38.8	-39.9	21.3	0.00e+00	0	32	0	1116733440	50	6385
2026-01-08 20:45:13.12	329.50	5.95	-38.8	-40.0	21.2	0.00e+00	0	32	0	1118830592	50	6394
2026-01-08 20:45:14.41	329.36	5.88	-38.9	-40.1	21.0	0.00e+00	0	32	0	1120927744	50	6517
2026-01-08 20:45:15.13	329.28	5.84	-38.9	-40.1	21.0	0.00e+00	0	32	0	1121976320	50	6495
2026-01-08 20:45:16.43	329.14	5.77	-39.0	-40.2	21.0	0.00e+00	0	32	0	1124073472	50	6596
2026-01-08 20:45:17.15	329.07	5.74	-39.0	-40.2	21.0	0.00e+00	0	32	0	1126170624	50	6553
2026-01-08 20:45:18.44	328.93	5.67	-39.2	-40.4	20.8	0.00e+00	0	32	0	1128267776	50	6720
2026-01-08 20:45:19.16	328.86	5.63	-39.1	-40.3	20.8	0.00e+00	0	32	0	1129316352	50	6678
2026-01-08 20:45:20.46	328.72	5.56	-39.1	-40.3	20.8	0.00e+00	0	32	0	1132462080	50	6658
2026-01-08 20:45:21.18	328.65	5.52	-39.1	-40.3	20.9	0.00e+00	0	32	0	1133510656	50	6630
2026-01-08 20:45:22.48	328.51	5.45	-39.1	-40.4	20.8	0.00e+00	0	32	0	1135607808	50	6714
2026-01-08 20:45:23.20	328.44	5.41	-39.3	-40.6	20.7	0.00e+00	0	32	0	1137704960	50	6859
2026-01-08 20:45:24.49	328.31	5.34	-39.3	-40.6	20.5	0.00e+00	0	32	0	1139802112	50	6883
2026-01-08 20:45:25.22	328.23	5.30	-39.4	-40.7	20.5	0.00e+00	0	32	0	1140850688	50	6961
2026-01-08 20:45:26.51	328.10	5.23	-39.5	-40.7	20.3	0.00e+00	0	32	0	1143996416	50	7003
2026-01-08 20:45:27.24	328.03	5.20	-39.4	-40.7	20.4	0.00e+00	0	32	0	1145044992	50	6974
2026-01-08 20:45:28.53	327.90	5.13	-39.5	-40.9	20.3	0.00e+00	0	32	0	1147142144	50	7089
2026-01-08 20:45:29.26	327.82	5.09	-39.6	-41.0	20.2	0.00e+00	0	32	0	1148190720	50	7172
2026-01-08 20:45:30.56	327.69	5.02	-39.6	-40.9	20.2	0.00e+00	0	32	0	1151336448	50	7117
2026-01-08 20:45:31.28	327.62	4.98	-39.7	-41.1	20.0	0.00e+00	0	32	0	1152385024	50	7274
2026-01-08 20:45:32.57	327.49	4.91	-39.8	-41.2	19.9	0.00e+00	0	32	0	1154482176	52	6571
2026-01-08 20:45:33.29	327.42	4.87	-39.7	-41.1	20.0	0.00e+00	0	32	0	1156579328	52	6479
2026-01-08 20:45:34.59	327.29	4.80	-39.9	-41.3	19.9	0.00e+00	0	32	0	1158676480	52	6660
2026-01-08 20:45:35.31	327.22	4.77	-39.9	-41.3	19.9	0.00e+00	0	32	0	1159725056	52	6616
2026-01-08 20:45:36.61	327.09	4.70	-39.9	-41.3	19.7	0.00e+00	0	32	0	1162870784	52	6679
2026-01-08 20:45:37.33	327.02	4.66	-39.8	-41.2	19.9	0.00e+00	0	32	0	1163919360	52	6586
2026-01-08 20:45:38.63	326.90	4.59	-39.9	-41.3	19.8	0.00e+00	0	32	0	1166016512	52	6630
2026-01-08 20:45:39.35	326.83	4.55	-39.9	-41.2	19.9	0.00e+00	0	32	0	1167065088	52	6612
2026-01-08 20:45:40.65	326.70	4.48	-39.9	-41.3	19.9	0.00e+00	0	32	0	1170210816	52	6641
2026-01-08 20:45:41.37	326.63	4.44	-39.9	-41.4	19.7	0.00e+00	0	32	0	1171259392	52	6693
2026-01-08 20:45:42.67	326.51	4.37	-40.1	-41.5	19.5	0.00e+00	0	32	0	1173356544	52	6838
2026-01-08 20:45:43.39	326.44	4.34	-40.2	-41.7	19.4	0.00e+00	0	32	0	1175453696	52	6937
2026-01-08 20:45:44.69	326.32	4.27	-40.0	-41.5	19.6	0.00e+00	0	32	0	1177550848	52	6788
2026-01-08 20:45:45.41	326.25	4.23	-40.2	-41.6	19.4	0.00e+00	0	32	0	1178599424	52	6911
2026-01-08 20:45:46.70	326.13	4.16	-40.3	-41.8	19.3	0.00e+00	0	32	0	1181745152	52	7038
2026-01-08 20:45:47.42	326.06	4.12	-40.3	-41.8	19.3	0.00e+00	0	32	0	1182793728	52	7049
2026-01-08 20:45:48.72	325.94	4.05	-40.2	-41.8	19.3	0.00e+00	0	32	0	1184890880	52	7012
2026-01-08 20:45:49.44	325.87	4.02	-40.4	-42.0	19.0	0.00e+00	0	32	0	1185939456	52	7182
2026-01-08 20:45:50.74	325.75	3.95	-40.4	-41.9	19.1	0.00e+00	0	32	0	1189085184	52	7160
2026-01-08 20:45:51.46	325.68	3.91	-40.3	-41.9	19.0	0.00e+00	0	32	0	1190133760	52	7127
2026-01-08 20:45:52.76	325.56	3.84	-40.5	-42.1	18.9	0.00e+00	0	32	0	1192230912	52	7267
2026-01-08 20:45:53.48	325.50	3.80	-40.5	-42.1	18.9	0.00e+00	0	32	0	1194328064	52	7257
2026-01-08 20:45:54.78	325.38	3.73	-40.4	-42.0	19.0	0.00e+00	0	32	0	1196425216	52	7189
2026-01-08 20:45:55.50	325.31	3.70	-40.5	-42.2	18.8	0.00e+00	0	32	0	1197473792	52	7342
2026-01-08 20:45:56.80	325.19	3.63	-40.6	-42.2	18.7	0.00e+00	0	32	0	1200619520	52	7390
2026-01-08 20:45:57.52	325.13	3.59	-40.7	-42.3	18.6	0.00e+00	0	32	0	1201668096	52	7460
2026-01-08 20:45:58.81	325.01	3.52	-40.7	-42.3	18.5	0.00e+00	0	32	0	1203765248	54	6675
2026-01-08 20:45:59.53	324.95	3.48	-40.8	-42.5	18.4	0.00e+00	0	32	0	1205862400	54	6771
