passes_logs/2026/01/08/R4.6S_Anadyr/R4.6S_Anadyr__20260108_161554_FENGYUN_3D_rec.log

#Pass ID: 20260108_161554_FENGYUN 3D
#Satellite: FENGYUN 3D
#Configuration: FENGYUN 3D
#almurnet v.1.7.20251203
#Start time: 2026-01-08 16:15:56

#Version: 2.2.20231116
#Station: R4.6S_Anadyr
#Location: 177.4865 lon 64.73178 lat
#TLE: 1 43010U 17072A   26008.23776554  .00000457  00000+0  23766-3 0  9992
#TLE: 2 43010  98.9934 339.9493 0002110 120.0616 240.0769 14.19695192422296

#Time	Az	El	Level	Level2	SNR	BER	BlckErr	Temp	State	Recorded	gain1	gain2
2026-01-08 16:15:56.51	20.15	0.12	-48.7	-66.5	3.5	3.02e+01	0	29	0	0	60	80977
2026-01-08 16:15:57.52	20.17	0.18	-48.4	-60.5	3.6	8.45e-01	0	30	104	0	60	38258
2026-01-08 16:15:58.53	20.19	0.24	-48.4	-60.5	3.6	8.44e-01	0	30	104	0	60	38309
2026-01-08 16:15:59.54	20.21	0.30	-48.4	-60.5	3.6	8.44e-01	0	30	104	0	60	38397
2026-01-08 16:16:00.55	20.24	0.36	-48.4	-60.5	3.6	8.46e-01	0	30	104	0	60	38464
2026-01-08 16:16:01.56	20.26	0.42	-48.4	-60.6	3.6	8.45e-01	0	30	104	0	60	38676
2026-01-08 16:16:02.57	20.28	0.48	-48.5	-60.6	3.6	8.45e-01	0	30	104	0	60	38592
2026-01-08 16:16:03.58	20.30	0.54	-48.4	-60.5	3.6	8.46e-01	0	30	104	0	60	38440
2026-01-08 16:16:04.58	20.32	0.60	-48.4	-60.6	3.6	8.46e-01	0	30	104	0	60	38536
2026-01-08 16:16:05.59	20.34	0.66	-48.4	-60.5	3.6	8.45e-01	0	30	104	0	60	38306
2026-01-08 16:16:06.61	20.36	0.72	-48.3	-60.4	3.6	8.45e-01	0	31	104	0	60	37835
2026-01-08 16:16:07.61	20.38	0.78	-48.2	-60.3	3.6	8.45e-01	0	30	104	0	60	37202
2026-01-08 16:16:08.62	20.40	0.84	-48.0	-60.1	3.6	8.45e-01	0	31	104	0	60	36682
2026-01-08 16:16:09.63	20.42	0.90	-47.8	-59.9	3.6	8.45e-01	0	31	104	0	60	35800
2026-01-08 16:16:10.64	20.45	0.96	-47.7	-59.7	3.6	8.46e-01	0	31	104	0	60	34801
2026-01-08 16:16:11.65	20.47	1.02	-47.4	-59.4	3.6	8.45e-01	0	31	104	0	60	33803
2026-01-08 16:16:12.67	20.49	1.09	-47.0	-59.0	3.6	8.46e-01	0	31	104	0	60	32197
2026-01-08 16:16:13.67	20.51	1.15	-47.0	-59.0	3.6	8.44e-01	0	31	104	0	60	32126
2026-01-08 16:16:14.68	20.53	1.21	-47.0	-59.0	3.6	8.45e-01	0	31	104	0	60	32212
2026-01-08 16:16:15.69	20.55	1.27	-46.9	-59.0	3.6	8.44e-01	0	31	104	0	60	32076
2026-01-08 16:16:16.70	20.58	1.33	-46.9	-58.9	3.6	8.46e-01	0	31	104	0	60	31773
2026-01-08 16:16:17.71	20.60	1.40	-46.9	-58.9	3.6	8.45e-01	0	31	104	0	60	31802
2026-01-08 16:16:18.72	20.62	1.46	-46.9	-58.8	3.6	8.46e-01	0	31	104	0	60	31610
2026-01-08 16:16:19.73	20.64	1.52	-46.9	-58.8	3.6	8.46e-01	0	31	104	0	60	31546
2026-01-08 16:16:20.74	20.66	1.58	-46.9	-58.8	3.6	8.44e-01	0	31	104	0	60	31509
2026-01-08 16:16:21.75	20.69	1.65	-46.9	-58.9	3.6	8.45e-01	0	31	104	0	60	31895
2026-01-08 16:16:22.76	20.71	1.71	-46.9	-59.0	3.6	8.45e-01	0	31	104	0	60	32134
2026-01-08 16:16:23.76	20.73	1.77	-46.9	-59.0	3.6	8.46e-01	0	31	104	0	60	32233
2026-01-08 16:16:24.78	20.75	1.84	-46.9	-59.0	3.6	8.46e-01	0	31	104	0	60	32080
2026-01-08 16:16:25.78	20.78	1.90	-46.9	-58.9	3.6	8.45e-01	0	31	104	0	60	31972
2026-01-08 16:16:26.79	20.80	1.96	-46.9	-59.0	3.6	8.45e-01	0	31	104	0	60	32102
2026-01-08 16:16:27.80	20.82	2.02	-46.9	-59.0	3.6	8.45e-01	0	31	104	0	60	32341
2026-01-08 16:16:28.81	20.84	2.09	-46.9	-59.0	3.6	8.46e-01	0	31	104	0	60	32265
2026-01-08 16:16:29.82	20.87	2.15	-46.9	-58.9	3.6	8.46e-01	0	31	104	0	60	31700
2026-01-08 16:16:30.83	20.89	2.22	-46.9	-58.2	3.6	8.44e-01	0	31	104	0	60	29493
2026-01-08 16:16:31.84	20.91	2.28	-46.8	-57.5	3.6	8.45e-01	0	31	104	0	60	27020
2026-01-08 16:16:32.85	20.94	2.34	-46.7	-56.5	3.7	8.44e-01	0	31	104	0	60	24092
2026-01-08 16:16:33.86	20.96	2.41	-46.6	-54.8	3.7	8.42e-01	0	31	0	0	60	19880
2026-01-08 16:16:34.87	20.98	2.47	-46.6	-55.5	4.0	8.38e-01	0	31	104	0	60	21412
2026-01-08 16:16:35.88	21.00	2.54	-46.6	-55.6	3.7	8.34e-01	0	31	104	0	60	21679
2026-01-08 16:16:36.88	21.03	2.60	-46.6	-54.5	3.7	8.38e-01	0	31	0	0	60	19288
2026-01-08 16:16:37.90	21.05	2.67	-46.6	-55.5	4.0	8.39e-01	0	31	104	0	60	21440
2026-01-08 16:16:38.91	21.08	2.73	-46.1	-51.7	5.2	7.62e-01	0	31	0	0	60	13860
2026-01-08 16:16:39.92	21.10	2.80	-45.2	-49.2	8.4	1.33e-01	0	31	0	4194304	60	10381
2026-01-08 16:16:40.93	21.12	2.86	-43.7	-46.4	11.7	7.71e-03	0	31	0	10485760	60	7580
2026-01-08 16:16:41.94	21.15	2.93	-41.9	-43.8	14.2	2.74e-05	0	31	0	15728640	58	6303
2026-01-08 16:16:42.94	21.17	2.99	-40.4	-41.9	16.2	0.00e+00	0	31	0	22020096	54	6320
2026-01-08 16:16:43.95	21.19	3.06	-39.1	-40.3	17.8	0.00e+00	0	31	0	27262976	52	5921
2026-01-08 16:16:44.96	21.22	3.13	-37.9	-39.0	19.1	0.00e+00	0	31	0	32505856	50	5737
2026-01-08 16:16:45.97	21.24	3.19	-37.0	-37.9	20.0	0.00e+00	0	31	0	38797312	48	5657
2026-01-08 16:16:46.98	21.27	3.26	-36.5	-37.4	20.4	0.00e+00	0	31	0	44040192	46	6033
2026-01-08 16:16:47.99	21.29	3.32	-36.2	-37.1	20.8	0.00e+00	0	31	0	50331648	46	5813
2026-01-08 16:16:49.00	21.31	3.39	-36.4	-37.3	20.6	0.00e+00	0	31	0	55574528	46	5927
2026-01-08 16:16:50.01	21.34	3.46	-36.7	-37.7	20.2	0.00e+00	0	31	0	60817408	46	6202
2026-01-08 16:16:51.02	21.36	3.53	-37.4	-38.4	19.5	0.00e+00	0	31	0	67108864	46	6725
2026-01-08 16:16:52.03	21.39	3.59	-38.4	-39.5	18.5	0.00e+00	0	31	0	72351744	48	6789
2026-01-08 16:16:53.04	21.41	3.66	-39.7	-41.0	16.8	0.00e+00	0	31	0	78643200	50	7232
2026-01-08 16:16:54.04	21.44	3.73	-41.3	-43.0	14.6	0.00e+00	0	31	0	83886080	54	7171
2026-01-08 16:16:55.05	21.46	3.79	-41.3	-43.0	14.7	0.00e+00	0	31	0	90177536	54	7212
2026-01-08 16:16:56.07	21.49	3.86	-36.7	-37.7	20.3	0.00e+00	0	31	0	95420416	44	6951
2026-01-08 16:16:57.07	21.51	3.93	-46.7	-57.4	3.6	8.37e-01	0	31	104	98566144	60	26881
2026-01-08 16:16:58.08	21.54	4.00	-39.6	-40.9	16.6	3.52e-01	0	31	104	98566144	52	6388
2026-01-08 16:16:59.09	21.56	4.07	-46.1	-51.8	5.7	3.82e-02	0	31	0	100663296	60	14122
2026-01-08 16:17:00.10	21.59	4.13	-38.7	-39.8	18.3	0.00e+00	0	31	0	105906176	52	5580
2026-01-08 16:17:01.11	21.61	4.20	-39.0	-40.1	18.2	0.00e+00	0	31	0	112197632	50	6535
2026-01-08 16:17:02.12	21.64	4.27	-38.4	-39.5	18.7	0.00e+00	0	31	0	117440512	50	6080
2026-01-08 16:17:03.13	21.67	4.34	-38.1	-39.1	19.1	0.00e+00	0	31	0	123731968	50	5811
2026-01-08 16:17:04.14	21.69	4.41	-37.4	-38.4	19.8	0.00e+00	0	31	0	128974848	48	5987
2026-01-08 16:17:05.15	21.72	4.48	-36.9	-37.8	20.4	0.00e+00	0	31	0	135266304	48	5600
2026-01-08 16:17:06.16	21.74	4.55	-35.9	-36.7	21.6	0.00e+00	0	31	0	140509184	46	5528
2026-01-08 16:17:07.17	21.77	4.62	-35.2	-36.0	22.1	0.00e+00	0	31	0	145752064	44	5710
2026-01-08 16:17:08.18	21.80	4.69	-35.2	-36.0	22.2	0.00e+00	0	31	0	152043520	44	5726
2026-01-08 16:17:09.19	21.82	4.76	-34.7	-35.5	22.6	0.00e+00	0	31	0	157286400	44	5408
2026-01-08 16:17:10.20	21.85	4.83	-34.8	-35.6	22.5	0.00e+00	0	31	0	163577856	42	6109
2026-01-08 16:17:11.21	21.87	4.90	-34.8	-35.6	22.5	0.00e+00	0	31	0	168820736	42	6155
2026-01-08 16:17:12.22	21.90	4.97	-34.7	-35.5	22.6	0.00e+00	0	31	0	174063616	42	6072
2026-01-08 16:17:13.23	21.93	5.04	-34.9	-35.7	22.5	0.00e+00	0	31	0	180355072	42	6224
2026-01-08 16:17:14.24	21.96	5.11	-34.6	-35.4	22.8	0.00e+00	0	31	0	185597952	42	5984
2026-01-08 16:17:15.25	21.98	5.18	-34.8	-35.6	22.7	0.00e+00	0	31	0	191889408	42	6115
2026-01-08 16:17:16.26	22.01	5.25	-34.6	-35.4	22.9	0.00e+00	0	31	0	197132288	42	5984
2026-01-08 16:17:17.27	22.04	5.33	-34.4	-35.1	23.0	0.00e+00	0	31	0	202375168	42	5803
2026-01-08 16:17:18.27	22.06	5.40	-34.3	-35.1	23.1	0.00e+00	0	31	0	208666624	42	5791
2026-01-08 16:17:19.28	22.09	5.47	-34.4	-35.2	23.0	0.00e+00	0	31	0	213909504	42	5858
2026-01-08 16:17:20.29	22.12	5.54	-34.4	-35.2	23.1	0.00e+00	0	31	0	220200960	42	5860
2026-01-08 16:17:21.30	22.15	5.61	-34.4	-35.2	23.1	0.00e+00	0	31	0	225443840	42	5862
2026-01-08 16:17:22.31	22.17	5.68	-34.5	-35.3	23.0	0.00e+00	0	31	0	231735296	42	5900
2026-01-08 16:17:23.32	22.20	5.76	-34.3	-35.0	23.3	0.00e+00	0	31	0	236978176	42	5737
2026-01-08 16:17:24.33	22.23	5.83	-34.1	-34.8	23.4	0.00e+00	0	31	0	243269632	42	5623
2026-01-08 16:17:25.34	22.26	5.90	-34.1	-34.9	23.4	0.00e+00	0	31	0	248512512	42	5652
2026-01-08 16:17:26.35	22.29	5.98	-34.1	-34.8	23.4	0.00e+00	0	31	0	253755392	42	5598
2026-01-08 16:17:27.36	22.31	6.05	-34.0	-34.8	23.5	0.00e+00	0	31	0	260046848	42	5582
2026-01-08 16:17:28.37	22.34	6.12	-34.1	-34.8	23.4	0.00e+00	0	31	0	265289728	42	5591
2026-01-08 16:17:29.38	22.37	6.20	-34.0	-34.7	23.5	0.00e+00	0	31	0	270532608	42	5540
2026-01-08 16:17:30.39	22.40	6.27	-33.9	-34.6	23.6	0.00e+00	0	31	0	276824064	42	5502
2026-01-08 16:17:31.40	22.43	6.35	-34.0	-34.7	23.5	0.00e+00	0	31	0	282066944	42	5554
2026-01-08 16:17:32.41	22.46	6.42	-33.9	-34.6	23.6	0.00e+00	0	31	0	288358400	42	5479
2026-01-08 16:17:33.42	22.49	6.50	-33.9	-34.6	23.6	0.00e+00	0	31	0	293601280	42	5489
2026-01-08 16:17:34.42	22.52	6.57	-33.9	-34.6	23.6	0.00e+00	0	31	0	298844160	42	5491
2026-01-08 16:17:35.43	22.54	6.64	-34.0	-34.7	23.6	0.00e+00	0	31	0	305135616	42	5551
2026-01-08 16:17:36.45	22.57	6.72	-33.9	-34.6	23.7	0.00e+00	0	31	0	310378496	42	5474
2026-01-08 16:17:37.46	22.60	6.80	-33.8	-34.5	23.8	0.00e+00	0	31	0	316669952	40	6053
2026-01-08 16:17:38.46	22.63	6.87	-33.8	-34.6	23.7	0.00e+00	0	31	0	321912832	40	6125
2026-01-08 16:17:39.48	22.66	6.95	-33.7	-34.4	23.8	0.00e+00	0	31	0	328204288	40	6029
2026-01-08 16:17:40.48	22.69	7.02	-33.7	-34.4	23.9	0.00e+00	0	31	0	333447168	40	6006
2026-01-08 16:17:41.50	22.72	7.10	-33.8	-34.5	23.8	0.00e+00	0	31	0	339738624	40	6058
2026-01-08 16:17:42.51	22.75	7.18	-33.9	-34.6	23.8	0.00e+00	0	31	0	344981504	40	6139
2026-01-08 16:17:43.51	22.78	7.25	-33.8	-34.5	23.8	0.00e+00	0	31	0	350224384	40	6099
2026-01-08 16:17:44.52	22.81	7.33	-33.7	-34.4	24.0	0.00e+00	0	31	0	356515840	40	5976
2026-01-08 16:17:45.53	22.84	7.41	-33.6	-34.3	24.0	0.00e+00	0	31	0	361758720	40	5958
2026-01-08 16:17:46.54	22.88	7.49	-33.5	-34.2	24.0	0.00e+00	0	31	0	368050176	40	5875
2026-01-08 16:17:47.55	22.91	7.56	-33.4	-34.1	24.1	0.00e+00	0	31	0	373293056	40	5826
2026-01-08 16:17:48.56	22.94	7.64	-33.5	-34.2	24.1	0.00e+00	0	31	0	378535936	40	5871
2026-01-08 16:17:49.57	22.97	7.72	-33.5	-34.2	24.1	0.00e+00	0	31	0	384827392	40	5848
2026-01-08 16:17:50.58	23.00	7.80	-33.4	-34.1	24.2	0.00e+00	0	31	0	390070272	40	5809
2026-01-08 16:17:51.59	23.03	7.88	-33.4	-34.1	24.2	0.00e+00	0	31	0	396361728	40	5768
2026-01-08 16:17:52.59	23.06	7.96	-33.5	-34.3	24.1	0.00e+00	0	31	0	401604608	40	5913
2026-01-08 16:17:53.60	23.09	8.03	-33.6	-34.3	24.1	0.00e+00	0	31	0	406847488	40	5920
2026-01-08 16:17:54.61	23.13	8.11	-33.3	-34.0	24.3	0.00e+00	0	31	0	413138944	40	5723
2026-01-08 16:17:55.62	23.16	8.19	-33.3	-34.0	24.4	0.00e+00	0	31	0	418381824	40	5734
2026-01-08 16:17:56.63	23.19	8.27	-33.2	-33.9	24.4	0.00e+00	0	31	0	424673280	40	5693
2026-01-08 16:17:57.64	23.22	8.35	-33.1	-33.8	24.5	0.00e+00	0	31	0	429916160	40	5623
2026-01-08 16:17:58.65	23.26	8.43	-33.2	-33.9	24.5	0.00e+00	0	31	0	436207616	40	5643
2026-01-08 16:17:59.66	23.29	8.52	-33.1	-33.8	24.5	0.00e+00	0	31	0	441450496	40	5616
2026-01-08 16:18:00.67	23.32	8.60	-33.2	-33.8	24.5	0.00e+00	0	31	0	446693376	40	5626
2026-01-08 16:18:01.68	23.35	8.68	-33.1	-33.8	24.6	0.00e+00	0	31	0	452984832	40	5582
2026-01-08 16:18:02.69	23.39	8.76	-33.3	-34.0	24.4	0.00e+00	0	31	0	458227712	40	5718
2026-01-08 16:18:03.70	23.42	8.84	-33.1	-33.8	24.6	0.00e+00	0	31	0	464519168	40	5588
2026-01-08 16:18:04.71	23.45	8.92	-32.9	-33.6	24.7	0.00e+00	0	31	0	469762048	40	5499
2026-01-08 16:18:05.72	23.49	9.00	-32.8	-33.5	24.7	0.00e+00	0	31	0	475004928	40	5406
2026-01-08 16:18:06.73	23.52	9.09	-32.9	-33.6	24.9	0.00e+00	0	31	0	481296384	40	5453
2026-01-08 16:18:07.74	23.55	9.17	-32.8	-33.5	24.9	0.00e+00	0	31	0	486539264	40	5388
2026-01-08 16:18:08.75	23.59	9.25	-32.8	-33.5	24.9	0.00e+00	0	31	0	492830720	40	5386
2026-01-08 16:18:09.75	23.62	9.34	-32.7	-33.4	25.0	0.00e+00	0	31	0	498073600	38	5996
2026-01-08 16:18:10.76	23.66	9.42	-32.8	-33.5	25.0	0.00e+00	0	31	0	503316480	38	6038
2026-01-08 16:18:11.77	23.69	9.50	-32.7	-33.4	25.0	0.00e+00	0	31	0	509607936	38	6007
2026-01-08 16:18:12.78	23.73	9.59	-32.8	-33.5	25.0	0.00e+00	0	31	0	514850816	38	6047
2026-01-08 16:18:13.79	23.76	9.67	-32.8	-33.4	25.0	0.00e+00	0	31	0	521142272	38	6022
2026-01-08 16:18:14.80	23.80	9.76	-32.7	-33.4	25.0	0.00e+00	0	31	0	526385152	38	5976
2026-01-08 16:18:15.81	23.83	9.84	-32.7	-33.4	25.1	0.00e+00	0	31	0	532676608	38	5980
2026-01-08 16:18:16.82	23.87	9.93	-32.7	-33.4	25.0	0.00e+00	0	31	0	537919488	38	5966
2026-01-08 16:18:17.83	23.90	10.01	-32.7	-33.4	25.0	0.00e+00	0	31	0	544210944	38	5994
2026-01-08 16:18:18.84	23.94	10.10	-32.8	-33.4	25.0	0.00e+00	0	31	0	549453824	38	6027
2026-01-08 16:18:19.85	23.98	10.18	-32.6	-33.3	25.1	0.00e+00	0	31	0	554696704	38	5958
2026-01-08 16:18:20.86	24.01	10.27	-32.8	-33.5	24.9	0.00e+00	0	31	0	560988160	38	6062
2026-01-08 16:18:21.87	24.05	10.36	-32.8	-33.5	25.0	0.00e+00	0	31	0	566231040	38	6090
2026-01-08 16:18:22.88	24.08	10.45	-32.7	-33.4	25.0	0.00e+00	0	31	0	572522496	38	5966
2026-01-08 16:18:23.89	24.12	10.53	-32.7	-33.4	25.0	0.00e+00	0	31	0	577765376	38	6007
2026-01-08 16:18:24.90	24.16	10.62	-32.7	-33.4	25.1	0.00e+00	0	31	0	583008256	38	5981
2026-01-08 16:18:25.91	24.20	10.71	-32.8	-33.5	24.8	0.00e+00	0	31	0	589299712	38	6036
2026-01-08 16:18:26.91	24.23	10.80	-32.7	-33.4	25.0	0.00e+00	0	31	0	594542592	38	5977
2026-01-08 16:18:27.92	24.27	10.88	-32.8	-33.5	24.8	0.00e+00	0	31	0	599785472	38	6068
2026-01-08 16:18:28.93	24.31	10.97	-32.8	-33.5	24.9	0.00e+00	0	31	0	606076928	38	6042
2026-01-08 16:18:29.94	24.35	11.06	-32.7	-33.4	25.1	0.00e+00	0	31	0	611319808	38	6008
2026-01-08 16:18:30.95	24.38	11.15	-32.7	-33.4	25.0	0.00e+00	0	31	0	617611264	38	5992
2026-01-08 16:18:31.96	24.42	11.24	-32.7	-33.3	25.1	0.00e+00	0	31	0	622854144	38	5951
2026-01-08 16:18:32.97	24.46	11.33	-32.6	-33.3	25.1	0.00e+00	0	31	0	629145600	38	5943
2026-01-08 16:18:33.98	24.50	11.42	-32.7	-33.4	25.1	0.00e+00	0	31	0	634388480	38	5996
2026-01-08 16:18:34.99	24.54	11.51	-32.6	-33.3	25.2	0.00e+00	0	31	0	640679936	38	5907
2026-01-08 16:18:36.00	24.58	11.60	-32.7	-33.4	25.0	0.00e+00	0	31	0	645922816	38	5993
2026-01-08 16:18:37.01	24.62	11.70	-32.6	-33.2	25.2	0.00e+00	0	31	0	651165696	38	5883
2026-01-08 16:18:38.02	24.66	11.79	-32.6	-33.2	25.2	0.00e+00	0	31	0	657457152	38	5855
2026-01-08 16:18:39.03	24.70	11.88	-32.7	-33.3	25.1	0.00e+00	0	31	0	662700032	38	5952
2026-01-08 16:18:40.03	24.74	11.97	-32.6	-33.2	25.2	0.00e+00	0	31	0	668991488	38	5882
2026-01-08 16:18:41.05	24.78	12.07	-32.5	-33.2	25.3	0.00e+00	0	31	0	674234368	38	5852
2026-01-08 16:18:42.05	24.82	12.16	-32.7	-33.4	25.1	0.00e+00	0	31	0	679477248	38	5987
2026-01-08 16:18:43.06	24.86	12.25	-32.7	-33.4	25.1	0.00e+00	0	31	0	685768704	38	5965
2026-01-08 16:18:44.07	24.90	12.35	-32.5	-33.1	25.4	0.00e+00	0	31	0	691011584	38	5824
2026-01-08 16:18:45.08	24.94	12.44	-32.5	-33.1	25.4	0.00e+00	0	31	0	697303040	38	5806
2026-01-08 16:18:46.09	24.98	12.53	-32.4	-33.1	25.3	0.00e+00	0	31	0	702545920	38	5792
2026-01-08 16:18:47.10	25.02	12.63	-32.3	-32.9	25.5	0.00e+00	0	31	0	707788800	38	5690
2026-01-08 16:18:48.11	25.07	12.72	-32.3	-32.9	25.5	0.00e+00	0	31	0	714080256	38	5691
2026-01-08 16:18:49.11	25.11	12.82	-32.2	-32.9	25.6	0.00e+00	0	31	0	719323136	38	5661
2026-01-08 16:18:50.12	25.15	12.92	-32.1	-32.8	25.6	0.00e+00	0	31	0	725614592	38	5603
2026-01-08 16:18:51.13	25.19	13.01	-32.0	-32.7	25.8	0.00e+00	0	31	0	730857472	38	5525
2026-01-08 16:18:52.14	25.24	13.11	-32.0	-32.6	25.8	0.00e+00	0	31	0	737148928	38	5501
2026-01-08 16:18:53.15	25.28	13.21	-31.9	-32.6	25.8	0.00e+00	0	31	0	742391808	38	5454
2026-01-08 16:18:54.16	25.32	13.30	-31.9	-32.6	25.9	0.00e+00	0	31	0	747634688	38	5457
2026-01-08 16:18:55.17	25.37	13.40	-32.0	-32.6	25.8	0.00e+00	0	31	0	753926144	38	5473
2026-01-08 16:18:56.18	25.41	13.50	-32.0	-32.6	25.8	0.00e+00	0	31	0	759169024	38	5469
2026-01-08 16:18:57.19	25.46	13.60	-31.8	-32.4	26.0	0.00e+00	0	31	0	765460480	38	5364
2026-01-08 16:18:58.20	25.50	13.70	-31.8	-32.5	25.9	0.00e+00	0	31	0	770703360	38	5388
2026-01-08 16:18:59.21	25.55	13.80	-31.9	-32.5	25.9	0.00e+00	0	31	0	775946240	38	5439
2026-01-08 16:19:00.22	25.59	13.90	-31.9	-32.6	25.9	0.00e+00	0	31	0	782237696	38	5445
2026-01-08 16:19:01.23	25.64	14.00	-31.9	-32.5	26.0	0.00e+00	0	31	0	787480576	38	5412
2026-01-08 16:19:02.24	25.68	14.10	-31.8	-32.5	25.9	0.00e+00	0	31	0	793772032	36	6042
2026-01-08 16:19:03.25	25.73	14.20	-31.8	-32.4	26.1	0.00e+00	0	31	0	799014912	36	6002
2026-01-08 16:19:04.26	25.77	14.30	-31.8	-32.4	26.1	0.00e+00	0	31	0	804257792	36	6030
2026-01-08 16:19:05.27	25.82	14.40	-31.7	-32.4	26.1	0.00e+00	0	31	0	810549248	36	5979
2026-01-08 16:19:06.27	25.87	14.50	-31.9	-32.5	25.9	0.00e+00	0	31	0	815792128	36	6085
2026-01-08 16:19:07.28	25.91	14.61	-31.8	-32.4	26.0	0.00e+00	0	31	0	822083584	36	6032
2026-01-08 16:19:08.29	25.96	14.71	-32.0	-32.6	25.8	0.00e+00	0	31	0	827326464	36	6165
2026-01-08 16:19:09.30	26.01	14.81	-31.7	-32.3	26.0	0.00e+00	0	32	0	833617920	36	5941
2026-01-08 16:19:10.30	26.06	14.92	-31.8	-32.5	26.0	0.00e+00	0	31	0	838860800	36	6058
2026-01-08 16:19:11.31	26.10	15.02	-31.6	-32.2	26.2	0.00e+00	0	31	0	844103680	36	5894
2026-01-08 16:19:12.32	26.15	15.12	-31.7	-32.3	26.1	0.00e+00	0	31	0	850395136	36	5933
2026-01-08 16:19:13.33	26.20	15.23	-31.6	-32.2	26.3	0.00e+00	0	31	0	855638016	36	5875
2026-01-08 16:19:14.34	26.25	15.34	-31.6	-32.2	26.2	0.00e+00	0	31	0	861929472	36	5883
2026-01-08 16:19:15.35	26.30	15.44	-31.6	-32.3	26.2	0.00e+00	0	31	0	867172352	36	5902
2026-01-08 16:19:16.36	26.35	15.55	-31.7	-32.4	26.2	0.00e+00	0	31	0	872415232	36	5971
2026-01-08 16:19:17.37	26.40	15.66	-31.8	-32.4	26.2	0.00e+00	0	31	0	878706688	36	6000
2026-01-08 16:19:18.38	26.45	15.76	-31.7	-32.4	26.2	0.00e+00	0	31	0	883949568	36	5976
2026-01-08 16:19:19.39	26.50	15.87	-31.3	-31.9	26.5	0.00e+00	0	31	0	890241024	36	5684
2026-01-08 16:19:20.40	26.55	15.98	-31.2	-31.9	26.5	0.00e+00	0	31	0	895483904	36	5635
2026-01-08 16:19:21.41	26.60	16.09	-31.2	-31.8	26.6	0.00e+00	0	31	0	900726784	36	5597
2026-01-08 16:19:22.42	26.66	16.20	-31.3	-32.0	26.6	0.00e+00	0	32	0	907018240	36	5710
2026-01-08 16:19:23.43	26.71	16.31	-31.1	-31.7	26.7	0.00e+00	0	31	0	912261120	36	5556
2026-01-08 16:19:24.44	26.76	16.42	-30.9	-31.6	26.8	0.00e+00	0	31	0	918552576	36	5463
2026-01-08 16:19:25.45	26.81	16.53	-30.9	-31.6	26.8	0.00e+00	0	31	0	923795456	36	5457
2026-01-08 16:19:26.46	26.87	16.64	-31.0	-31.6	26.8	0.00e+00	0	31	0	930086912	36	5453
2026-01-08 16:19:27.47	26.92	16.75	-30.8	-31.4	27.0	0.00e+00	0	31	0	935329792	36	5363
2026-01-08 16:19:28.48	26.97	16.87	-30.7	-31.3	27.1	0.00e+00	0	32	0	940572672	34	5912
2026-01-08 16:19:29.49	27.03	16.98	-30.8	-31.4	26.9	0.00e+00	0	31	0	946864128	34	6010
2026-01-08 16:19:30.49	27.08	17.09	-30.7	-31.3	27.1	0.00e+00	0	31	0	952107008	34	5898
2026-01-08 16:19:31.50	27.14	17.20	-30.6	-31.2	27.1	0.00e+00	0	31	0	958398464	34	5861
2026-01-08 16:19:32.51	27.19	17.32	-30.7	-31.3	27.0	0.00e+00	0	32	0	963641344	34	5956
2026-01-08 16:19:33.52	27.25	17.43	-30.8	-31.4	27.0	0.00e+00	0	32	0	968884224	34	5999
2026-01-08 16:19:34.53	27.31	17.55	-30.8	-31.4	27.0	0.00e+00	0	31	0	975175680	34	5994
2026-01-08 16:19:35.54	27.36	17.66	-30.9	-31.5	26.9	0.00e+00	0	32	0	980418560	34	6060
2026-01-08 16:19:36.55	27.42	17.78	-30.9	-31.5	26.9	0.00e+00	0	32	0	986710016	34	6058
2026-01-08 16:19:37.56	27.48	17.90	-31.0	-31.6	26.8	0.00e+00	0	31	0	991952896	34	6123
2026-01-08 16:19:38.57	27.54	18.02	-30.8	-31.4	27.0	0.00e+00	0	31	0	997195776	34	5997
2026-01-08 16:19:39.59	27.59	18.13	-30.6	-31.2	27.1	0.00e+00	0	32	0	1003487232	34	5869
2026-01-08 16:19:40.59	27.65	18.25	-30.5	-31.1	27.2	0.00e+00	0	32	0	1008730112	34	5794
2026-01-08 16:19:41.60	27.71	18.37	-30.5	-31.1	27.2	0.00e+00	0	31	0	1015021568	34	5799
2026-01-08 16:19:42.61	27.77	18.49	-30.5	-31.1	27.2	0.00e+00	0	31	0	1020264448	34	5792
2026-01-08 16:19:43.62	27.83	18.61	-30.4	-31.0	27.3	0.00e+00	0	31	0	1026555904	34	5732
2026-01-08 16:19:44.63	27.89	18.73	-30.5	-31.1	27.3	0.00e+00	0	31	0	1031798784	34	5808
2026-01-08 16:19:45.64	27.95	18.85	-30.3	-30.9	27.3	0.00e+00	0	32	0	1038090240	34	5677
2026-01-08 16:19:46.65	28.01	18.98	-30.2	-30.8	27.5	0.00e+00	0	31	0	1043333120	34	5618
2026-01-08 16:19:47.66	28.08	19.10	-30.2	-30.8	27.4	0.00e+00	0	31	0	1048576000	34	5604
2026-01-08 16:19:48.67	28.14	19.22	-30.1	-30.7	27.5	0.00e+00	0	31	0	1054867456	34	5560
2026-01-08 16:19:49.69	28.20	19.35	-30.3	-30.8	27.4	0.00e+00	0	31	0	1060110336	34	5621
2026-01-08 16:19:50.69	28.26	19.47	-30.3	-30.9	27.4	0.00e+00	0	31	0	1066401792	34	5650
2026-01-08 16:19:51.71	28.33	19.60	-30.3	-30.9	27.3	0.00e+00	0	32	0	1071644672	34	5674
2026-01-08 16:19:52.71	28.39	19.72	-30.2	-30.8	27.5	0.00e+00	0	32	0	1076887552	34	5614
2026-01-08 16:19:53.73	28.46	19.85	-30.2	-30.9	27.4	0.00e+00	0	32	0	1083179008	34	5633
2026-01-08 16:19:54.73	28.52	19.97	-30.2	-30.9	27.4	0.00e+00	0	32	0	1088421888	34	5638
2026-01-08 16:19:55.74	28.59	20.10	-30.3	-31.0	27.3	0.00e+00	0	31	0	1094713344	34	5698
2026-01-08 16:19:56.75	28.65	20.23	-30.3	-31.0	27.3	0.00e+00	0	32	0	1099956224	34	5711
2026-01-08 16:19:57.76	28.72	20.36	-30.3	-30.9	27.4	0.00e+00	0	32	0	1105199104	34	5686
2026-01-08 16:19:58.77	28.79	20.49	-30.3	-30.9	27.5	0.00e+00	0	31	0	1111490560	34	5660
2026-01-08 16:19:59.78	28.86	20.62	-30.3	-30.9	27.4	0.00e+00	0	31	0	1116733440	34	5678
2026-01-08 16:20:00.79	28.92	20.75	-30.3	-30.9	27.4	0.00e+00	0	31	0	1123024896	34	5690
2026-01-08 16:20:01.80	28.99	20.88	-30.2	-30.8	27.5	0.00e+00	0	31	0	1128267776	34	5612
2026-01-08 16:20:02.81	29.06	21.01	-30.3	-30.9	27.4	0.00e+00	0	31	0	1134559232	34	5683
2026-01-08 16:20:03.82	29.13	21.14	-30.2	-30.8	27.5	0.00e+00	0	31	0	1139802112	34	5616
2026-01-08 16:20:04.83	29.20	21.27	-30.4	-31.0	27.3	0.00e+00	0	31	0	1146093568	34	5722
2026-01-08 16:20:05.84	29.27	21.41	-30.2	-30.8	27.5	0.00e+00	0	31	0	1151336448	34	5619
2026-01-08 16:20:06.85	29.35	21.54	-30.3	-30.9	27.3	0.00e+00	0	31	0	1156579328	34	5650
2026-01-08 16:20:07.86	29.42	21.68	-30.3	-30.9	27.4	0.00e+00	0	31	0	1162870784	34	5671
2026-01-08 16:20:08.86	29.49	21.81	-30.4	-31.0	27.4	0.00e+00	0	31	0	1168113664	34	5728
2026-01-08 16:20:09.87	29.56	21.95	-30.2	-30.8	27.5	0.00e+00	0	31	0	1173356544	34	5603
2026-01-08 16:20:10.88	29.64	22.09	-30.1	-30.7	27.6	0.00e+00	0	31	0	1179648000	34	5527
2026-01-08 16:20:11.89	29.71	22.22	-30.2	-30.9	27.5	0.00e+00	0	31	0	1184890880	34	5639
2026-01-08 16:20:12.90	29.79	22.36	-30.0	-30.6	27.7	0.00e+00	0	31	0	1191182336	34	5460
2026-01-08 16:20:13.91	29.86	22.50	-30.2	-30.8	27.5	0.00e+00	0	31	0	1196425216	34	5579
2026-01-08 16:20:14.91	29.94	22.64	-30.0	-30.6	27.7	0.00e+00	0	32	0	1201668096	34	5451
2026-01-08 16:20:15.92	30.02	22.78	-29.7	-30.4	27.9	0.00e+00	0	31	0	1207959552	34	5324
2026-01-08 16:20:16.93	30.09	22.92	-29.6	-30.2	28.0	0.00e+00	0	31	0	1213202432	32	5852
2026-01-08 16:20:17.94	30.17	23.06	-29.6	-30.2	28.0	0.00e+00	0	31	0	1219493888	32	5846
2026-01-08 16:20:18.95	30.25	23.21	-29.7	-30.3	27.9	0.00e+00	0	32	0	1224736768	32	5930
2026-01-08 16:20:19.96	30.33	23.35	-29.6	-30.2	28.0	0.00e+00	0	31	0	1231028224	32	5831
2026-01-08 16:20:20.97	30.41	23.50	-29.6	-30.2	28.0	0.00e+00	0	31	0	1236271104	32	5880
2026-01-08 16:20:21.98	30.49	23.64	-29.5	-30.1	28.1	0.00e+00	0	31	0	1242562560	32	5794
2026-01-08 16:20:22.99	30.58	23.79	-29.4	-30.0	28.2	0.00e+00	0	31	0	1247805440	32	5739
2026-01-08 16:20:24.00	30.66	23.93	-29.4	-30.0	28.1	0.00e+00	0	31	0	1253048320	32	5723
2026-01-08 16:20:25.01	30.74	24.08	-29.5	-30.1	28.1	0.00e+00	0	31	0	1259339776	32	5763
2026-01-08 16:20:26.02	30.83	24.23	-29.5	-30.1	28.0	0.00e+00	0	31	0	1264582656	32	5800
2026-01-08 16:20:27.02	30.91	24.38	-29.6	-30.2	28.1	0.00e+00	0	31	0	1269825536	32	5851
2026-01-08 16:20:28.03	31.00	24.53	-29.6	-30.2	28.0	0.00e+00	0	31	0	1276116992	32	5858
2026-01-08 16:20:29.04	31.08	24.68	-29.6	-30.2	28.0	0.00e+00	0	32	0	1281359872	32	5865
2026-01-08 16:20:30.05	31.17	24.83	-29.6	-30.2	28.1	0.00e+00	0	32	0	1287651328	32	5851
2026-01-08 16:20:31.06	31.26	24.98	-29.5	-30.1	28.0	0.00e+00	0	32	0	1292894208	32	5764
2026-01-08 16:20:32.07	31.35	25.14	-29.5	-30.0	28.1	0.00e+00	0	31	0	1298137088	32	5760
2026-01-08 16:20:33.08	31.44	25.29	-29.2	-29.8	28.3	0.00e+00	0	31	0	1304428544	32	5593
2026-01-08 16:20:34.09	31.53	25.44	-29.3	-29.9	28.3	0.00e+00	0	31	0	1309671424	32	5653
2026-01-08 16:20:35.10	31.62	25.60	-29.2	-29.8	28.3	0.00e+00	0	31	0	1315962880	32	5605
2026-01-08 16:20:36.11	31.71	25.76	-29.1	-29.7	28.3	0.00e+00	0	31	0	1321205760	32	5564
2026-01-08 16:20:37.12	31.81	25.91	-29.2	-29.8	28.2	0.00e+00	0	31	0	1327497216	32	5575
2026-01-08 16:20:38.13	31.90	26.07	-29.3	-29.9	28.3	0.00e+00	0	31	0	1332740096	32	5658
2026-01-08 16:20:39.13	32.00	26.23	-29.5	-30.1	28.1	0.00e+00	0	31	0	1339031552	32	5776
2026-01-08 16:20:40.15	32.09	26.39	-29.4	-30.0	28.1	0.00e+00	0	32	0	1344274432	32	5726
2026-01-08 16:20:41.16	32.19	26.55	-29.5	-30.1	28.0	0.00e+00	0	31	0	1349517312	32	5800
2026-01-08 16:20:42.17	32.29	26.71	-29.5	-30.1	28.1	0.00e+00	0	31	0	1355808768	32	5790
2026-01-08 16:20:43.18	32.39	26.88	-29.6	-30.2	28.0	0.00e+00	0	31	0	1361051648	32	5837
2026-01-08 16:20:44.19	32.49	27.04	-29.5	-30.1	28.1	0.00e+00	0	31	0	1367343104	32	5791
2026-01-08 16:20:45.20	32.59	27.20	-29.3	-29.9	28.1	0.00e+00	0	31	0	1372585984	32	5662
2026-01-08 16:20:46.21	32.69	27.37	-29.3	-29.9	28.2	0.00e+00	0	31	0	1377828864	32	5684
2026-01-08 16:20:47.22	32.79	27.54	-29.3	-29.9	28.2	0.00e+00	0	31	0	1384120320	32	5647
2026-01-08 16:20:48.23	32.89	27.70	-29.1	-29.7	28.4	0.00e+00	0	31	0	1389363200	32	5556
2026-01-08 16:20:49.24	33.00	27.87	-29.2	-29.8	28.3	0.00e+00	0	31	0	1395654656	32	5596
2026-01-08 16:20:50.25	33.11	28.04	-29.3	-29.9	28.3	0.00e+00	0	31	0	1400897536	32	5638
2026-01-08 16:20:51.26	33.21	28.21	-29.2	-29.8	28.4	0.00e+00	0	31	0	1406140416	32	5567
2026-01-08 16:20:52.27	33.32	28.38	-29.2	-29.8	28.4	0.00e+00	0	31	0	1412431872	32	5625
2026-01-08 16:20:53.27	33.43	28.55	-29.4	-30.0	28.2	0.00e+00	0	31	0	1417674752	32	5744
2026-01-08 16:20:54.28	33.54	28.72	-29.5	-30.1	28.1	0.00e+00	0	31	0	1423966208	32	5786
2026-01-08 16:20:55.29	33.65	28.90	-29.1	-29.7	28.4	0.00e+00	0	31	0	1429209088	32	5552
2026-01-08 16:20:56.30	33.76	29.07	-29.0	-29.6	28.5	0.00e+00	0	31	0	1435500544	32	5464
2026-01-08 16:20:57.31	33.88	29.25	-29.0	-29.5	28.5	0.00e+00	0	31	0	1440743424	32	5423
2026-01-08 16:20:58.32	33.99	29.43	-29.0	-29.6	28.5	0.00e+00	0	31	0	1445986304	32	5473
2026-01-08 16:20:59.33	34.11	29.60	-29.0	-29.6	28.5	0.00e+00	0	31	0	1452277760	32	5484
2026-01-08 16:21:00.34	34.23	29.78	-28.9	-29.5	28.6	0.00e+00	0	31	0	1457520640	32	5408
2026-01-08 16:21:01.35	34.35	29.96	-29.0	-29.6	28.5	0.00e+00	0	31	0	1463812096	32	5452
2026-01-08 16:21:02.36	34.47	30.14	-29.0	-29.6	28.4	0.00e+00	0	31	0	1469054976	32	5455
2026-01-08 16:21:03.37	34.59	30.32	-29.1	-29.7	28.5	0.00e+00	0	31	0	1474297856	32	5521
2026-01-08 16:21:04.38	34.71	30.51	-29.1	-29.7	28.3	0.00e+00	0	31	0	1480589312	32	5547
2026-01-08 16:21:05.39	34.83	30.69	-29.1	-29.7	28.4	0.00e+00	0	32	0	1485832192	32	5538
2026-01-08 16:21:06.39	34.96	30.87	-28.9	-29.5	28.5	0.00e+00	0	31	0	1492123648	32	5423
2026-01-08 16:21:07.40	35.08	31.06	-29.1	-29.7	28.4	0.00e+00	0	31	0	1497366528	32	5523
2026-01-08 16:21:08.41	35.21	31.25	-28.9	-29.5	28.6	0.00e+00	0	31	0	1502609408	32	5436
2026-01-08 16:21:09.42	35.34	31.44	-29.1	-29.7	28.4	0.00e+00	0	32	0	1508900864	32	5512
2026-01-08 16:21:10.43	35.47	31.62	-29.2	-29.8	28.3	0.00e+00	0	32	0	1514143744	32	5568
2026-01-08 16:21:11.44	35.61	31.81	-29.3	-29.9	28.3	0.00e+00	0	32	0	1520435200	32	5668
2026-01-08 16:21:12.45	35.74	32.01	-29.3	-29.8	28.3	0.00e+00	0	32	0	1525678080	32	5628
2026-01-08 16:21:13.45	35.87	32.20	-29.2	-29.8	28.3	0.00e+00	0	31	0	1531969536	32	5603
2026-01-08 16:21:14.47	36.01	32.39	-29.1	-29.7	28.4	0.00e+00	0	32	0	1537212416	32	5542
2026-01-08 16:21:15.48	36.15	32.59	-29.1	-29.7	28.4	0.00e+00	0	31	0	1542455296	32	5527
2026-01-08 16:21:16.49	36.29	32.78	-28.9	-29.5	28.5	0.00e+00	0	31	0	1548746752	32	5420
2026-01-08 16:21:17.49	36.43	32.98	-29.0	-29.6	28.5	0.00e+00	0	31	0	1553989632	32	5450
2026-01-08 16:21:18.50	36.58	33.17	-29.1	-29.7	28.5	0.00e+00	0	31	0	1560281088	32	5518
2026-01-08 16:21:19.51	36.72	33.37	-29.2	-29.8	28.4	0.00e+00	0	31	0	1565523968	32	5577
2026-01-08 16:21:20.52	36.87	33.57	-29.1	-29.7	28.4	0.00e+00	0	31	0	1570766848	32	5513
2026-01-08 16:21:21.53	37.02	33.77	-29.2	-29.8	28.3	0.00e+00	0	31	0	1577058304	32	5627
2026-01-08 16:21:22.54	37.17	33.98	-28.9	-29.5	28.5	0.00e+00	0	32	0	1582301184	32	5435
2026-01-08 16:21:23.55	37.32	34.18	-28.7	-29.3	28.7	0.00e+00	0	31	0	1588592640	30	5959
2026-01-08 16:21:24.56	37.48	34.38	-28.8	-29.4	28.7	0.00e+00	0	32	0	1593835520	30	5983
2026-01-08 16:21:25.57	37.63	34.59	-28.7	-29.3	28.7	0.00e+00	0	32	0	1599078400	30	5947
2026-01-08 16:21:26.57	37.79	34.80	-28.8	-29.4	28.6	0.00e+00	0	32	0	1605369856	30	5988
2026-01-08 16:21:27.58	37.95	35.00	-29.0	-29.6	28.5	0.00e+00	0	31	0	1610612736	30	6122
2026-01-08 16:21:28.59	38.11	35.21	-28.9	-29.5	28.6	0.00e+00	0	32	0	1616904192	30	6075
2026-01-08 16:21:29.60	38.28	35.42	-29.0	-29.6	28.5	0.00e+00	0	32	0	1622147072	30	6170
2026-01-08 16:21:30.61	38.44	35.63	-28.7	-29.3	28.7	0.00e+00	0	32	0	1628438528	30	5936
2026-01-08 16:21:31.62	38.61	35.85	-28.7	-29.3	28.7	0.00e+00	0	31	0	1633681408	30	5943
2026-01-08 16:21:32.63	38.78	36.06	-28.6	-29.3	28.8	0.00e+00	0	31	0	1639972864	30	5916
2026-01-08 16:21:33.64	38.96	36.28	-28.6	-29.2	28.8	0.00e+00	0	31	0	1645215744	30	5848
2026-01-08 16:21:34.65	39.13	36.49	-28.6	-29.2	28.9	0.00e+00	0	32	0	1650458624	30	5851
2026-01-08 16:21:35.66	39.31	36.71	-28.5	-29.1	28.8	0.00e+00	0	31	0	1656750080	30	5782
2026-01-08 16:21:36.67	39.49	36.93	-28.6	-29.2	28.8	0.00e+00	0	31	0	1661992960	30	5833
2026-01-08 16:21:37.68	39.67	37.15	-28.4	-29.0	28.9	0.00e+00	0	32	0	1668284416	30	5754
2026-01-08 16:21:38.69	39.86	37.37	-28.3	-28.9	29.0	0.00e+00	0	32	0	1673527296	30	5684
2026-01-08 16:21:39.70	40.04	37.59	-28.3	-28.9	29.0	0.00e+00	0	32	0	1678770176	30	5695
2026-01-08 16:21:40.71	40.23	37.81	-28.4	-29.0	28.9	0.00e+00	0	32	0	1685061632	30	5723
2026-01-08 16:21:41.71	40.42	38.03	-28.5	-29.1	28.8	0.00e+00	0	32	0	1690304512	30	5808
2026-01-08 16:21:42.72	40.62	38.26	-28.6	-29.2	28.9	0.00e+00	0	32	0	1695547392	30	5842
2026-01-08 16:21:43.73	40.82	38.49	-28.7	-29.3	28.7	0.00e+00	0	31	0	1701838848	30	5955
2026-01-08 16:21:44.75	41.02	38.72	-28.8	-29.4	28.7	0.00e+00	0	31	0	1707081728	30	5985
2026-01-08 16:21:45.75	41.22	38.94	-28.8	-29.4	28.6	0.00e+00	0	31	0	1713373184	30	5978
2026-01-08 16:21:46.76	41.42	39.17	-28.9	-29.5	28.5	0.00e+00	0	31	0	1718616064	30	6092
2026-01-08 16:21:47.77	41.63	39.40	-29.0	-29.6	28.4	0.00e+00	0	31	0	1724907520	30	6128
2026-01-08 16:21:48.78	41.84	39.63	-28.9	-29.5	28.6	0.00e+00	0	32	0	1730150400	30	6092
2026-01-08 16:21:49.79	42.06	39.87	-28.8	-29.4	28.6	0.00e+00	0	31	0	1736441856	30	6030
2026-01-08 16:21:50.80	42.28	40.10	-28.7	-29.3	28.8	0.00e+00	0	31	0	1741684736	30	5948
2026-01-08 16:21:51.81	42.50	40.34	-28.7	-29.2	28.7	0.00e+00	0	31	0	1746927616	30	5884
2026-01-08 16:21:52.82	42.72	40.57	-28.8	-29.4	28.6	0.00e+00	0	31	0	1753219072	30	6015
2026-01-08 16:21:53.83	42.95	40.81	-28.9	-29.4	28.7	0.00e+00	0	31	0	1758461952	30	6016
2026-01-08 16:21:54.84	43.18	41.05	-29.0	-29.6	28.5	0.00e+00	0	31	0	1764753408	30	6171
2026-01-08 16:21:55.85	43.41	41.29	-28.9	-29.5	28.6	0.00e+00	0	31	0	1769996288	30	6076
2026-01-08 16:21:56.86	43.65	41.53	-29.0	-29.6	28.5	0.00e+00	0	32	0	1775239168	30	6147
2026-01-08 16:21:57.87	43.89	41.77	-29.0	-29.6	28.5	0.00e+00	0	31	0	1781530624	30	6148
2026-01-08 16:21:58.88	44.13	42.02	-29.1	-29.7	28.4	0.00e+00	0	32	0	1786773504	30	6238
2026-01-08 16:21:59.89	44.38	42.26	-29.1	-29.7	28.5	0.00e+00	0	31	0	1793064960	30	6174
2026-01-08 16:22:00.90	44.63	42.51	-29.1	-29.7	28.5	0.00e+00	0	31	0	1798307840	30	6196
2026-01-08 16:22:01.91	44.89	42.75	-29.1	-29.6	28.5	0.00e+00	0	31	0	1803550720	30	6168
2026-01-08 16:22:02.92	45.15	43.00	-29.3	-29.9	28.3	0.00e+00	0	31	0	1809842176	30	6356
2026-01-08 16:22:03.93	45.41	43.25	-29.0	-29.6	28.5	0.00e+00	0	31	0	1815085056	30	6158
2026-01-08 16:22:04.93	45.68	43.50	-29.0	-29.5	28.6	0.00e+00	0	31	0	1821376512	30	6100
2026-01-08 16:22:05.94	45.95	43.75	-28.9	-29.6	28.6	0.00e+00	0	31	0	1826619392	30	6121
2026-01-08 16:22:06.95	46.22	44.00	-29.1	-29.7	28.5	0.00e+00	0	31	0	1832910848	30	6186
2026-01-08 16:22:07.96	46.50	44.25	-29.4	-30.0	28.3	0.00e+00	0	31	0	1838153728	30	6402
2026-01-08 16:22:08.97	46.79	44.50	-29.4	-30.0	28.2	0.00e+00	0	31	0	1843396608	30	6413
2026-01-08 16:22:09.98	47.08	44.76	-29.2	-29.8	28.4	0.00e+00	0	31	0	1849688064	30	6271
2026-01-08 16:22:11.00	47.37	45.01	-29.2	-29.8	28.5	0.00e+00	0	31	0	1854930944	30	6246
2026-01-08 16:22:12.01	47.67	45.27	-29.1	-29.8	28.5	0.00e+00	0	31	0	1861222400	30	6255
2026-01-08 16:22:13.01	47.97	45.52	-29.2	-29.8	28.4	0.00e+00	0	32	0	1866465280	30	6293
2026-01-08 16:22:14.02	48.28	45.78	-29.3	-29.9	28.4	0.00e+00	0	31	0	1871708160	30	6328
2026-01-08 16:22:15.03	48.59	46.04	-29.3	-29.9	28.3	0.00e+00	0	31	0	1877999616	30	6376
2026-01-08 16:22:16.04	48.91	46.30	-29.2	-29.8	28.5	0.00e+00	0	31	0	1883242496	30	6253
2026-01-08 16:22:17.05	49.23	46.56	-29.1	-29.7	28.6	0.00e+00	0	31	0	1889533952	30	6201
2026-01-08 16:22:18.06	49.56	46.82	-28.9	-29.5	28.7	0.00e+00	0	31	0	1894776832	30	6063
2026-01-08 16:22:19.07	49.90	47.08	-29.0	-29.7	28.4	0.00e+00	0	31	0	1900019712	30	6184
2026-01-08 16:22:20.08	50.23	47.34	-28.9	-29.5	28.7	0.00e+00	0	31	0	1906311168	30	6100
2026-01-08 16:22:21.09	50.58	47.60	-29.0	-29.5	28.6	0.00e+00	0	32	0	1911554048	30	6099
2026-01-08 16:22:22.10	50.93	47.86	-29.0	-29.6	28.5	0.00e+00	0	32	0	1917845504	30	6149
2026-01-08 16:22:23.11	51.29	48.12	-29.2	-29.8	28.4	0.00e+00	0	31	0	1923088384	30	6303
2026-01-08 16:22:24.11	51.65	48.38	-29.1	-29.7	28.5	0.00e+00	0	31	0	1929379840	30	6189
2026-01-08 16:22:25.13	52.02	48.65	-29.3	-29.8	28.4	0.00e+00	0	32	0	1934622720	30	6287
2026-01-08 16:22:26.13	52.39	48.91	-29.0	-29.6	28.6	0.00e+00	0	31	0	1940914176	30	6107
2026-01-08 16:22:27.15	52.78	49.18	-29.3	-29.9	28.4	0.00e+00	0	31	0	1946157056	30	6377
2026-01-08 16:22:28.15	53.16	49.44	-29.5	-30.1	28.2	0.00e+00	0	32	0	1951399936	30	6496
2026-01-08 16:22:29.16	53.56	49.70	-29.5	-30.1	28.2	0.00e+00	0	31	0	1957691392	30	6480
2026-01-08 16:22:30.18	53.96	49.97	-29.6	-30.1	28.1	0.00e+00	0	31	0	1962934272	30	6534
2026-01-08 16:22:31.18	54.37	50.23	-29.6	-30.2	28.0	0.00e+00	0	31	0	1969225728	30	6556
2026-01-08 16:22:32.19	54.78	50.50	-29.7	-30.3	28.0	0.00e+00	0	32	0	1974468608	30	6671
2026-01-08 16:22:33.20	55.21	50.76	-29.4	-30.0	28.2	0.00e+00	0	31	0	1979711488	32	5725
2026-01-08 16:22:34.21	55.64	51.03	-29.5	-30.1	28.1	0.00e+00	0	31	0	1986002944	32	5767
2026-01-08 16:22:35.22	56.07	51.29	-29.1	-29.7	28.4	0.00e+00	0	31	0	1991245824	32	5548
2026-01-08 16:22:36.23	56.52	51.55	-29.5	-30.1	28.0	0.00e+00	0	31	0	1997537280	32	5790
2026-01-08 16:22:37.24	56.97	51.82	-29.8	-30.5	27.9	0.00e+00	0	31	0	2002780160	32	6041
2026-01-08 16:22:38.25	57.44	52.08	-29.7	-30.3	27.9	0.00e+00	0	31	0	2008023040	32	5939
2026-01-08 16:22:39.26	57.91	52.34	-29.6	-30.3	28.0	0.00e+00	0	31	0	2014314496	32	5920
2026-01-08 16:22:40.27	58.38	52.61	-29.8	-30.4	27.8	0.00e+00	0	31	0	2019557376	32	6014
2026-01-08 16:22:41.28	58.87	52.87	-29.7	-30.3	27.9	0.00e+00	0	32	0	2025848832	32	5935
2026-01-08 16:22:42.29	59.37	53.13	-29.6	-30.2	28.1	0.00e+00	0	31	0	2031091712	32	5873
2026-01-08 16:22:43.30	59.87	53.39	-29.5	-30.1	28.2	0.00e+00	0	31	0	2037383168	32	5787
2026-01-08 16:22:44.31	60.39	53.65	-29.7	-30.2	27.9	0.00e+00	0	31	0	2042626048	32	5888
2026-01-08 16:22:45.32	60.91	53.91	-30.0	-30.6	27.8	0.00e+00	0	31	0	2047868928	32	6172
2026-01-08 16:22:46.33	61.44	54.16	-30.1	-30.7	27.7	0.00e+00	0	32	0	2054160384	32	6240
2026-01-08 16:22:47.34	61.98	54.42	-30.0	-30.6	27.9	0.00e+00	0	31	0	2059403264	32	6152
2026-01-08 16:22:48.35	62.53	54.67	-29.6	-30.2	28.0	0.00e+00	0	31	0	2065694720	32	5883
2026-01-08 16:22:49.36	63.09	54.93	-29.8	-30.3	27.9	0.00e+00	0	32	0	2070937600	32	5960
2026-01-08 16:22:50.37	63.67	55.18	-30.0	-30.5	27.8	0.00e+00	0	31	0	2076180480	32	6094
2026-01-08 16:22:51.38	64.25	55.43	-30.3	-30.9	27.5	0.00e+00	0	31	0	2082471936	32	6387
2026-01-08 16:22:52.38	64.83	55.67	-30.4	-31.1	27.5	0.00e+00	0	31	0	2087714816	32	6493
2026-01-08 16:22:53.40	65.44	55.92	-30.3	-30.9	27.6	0.00e+00	0	31	0	2094006272	32	6388
2026-01-08 16:22:54.40	66.05	56.17	-29.7	-30.3	27.9	0.00e+00	0	32	0	2099249152	32	5930
2026-01-08 16:22:55.41	66.67	56.41	-29.6	-30.2	28.1	0.00e+00	0	32	0	2104492032	32	5834
2026-01-08 16:22:56.42	67.30	56.65	-30.0	-30.6	27.8	0.00e+00	0	32	0	2110783488	32	6109
2026-01-08 16:22:57.43	67.95	56.89	-30.1	-30.7	27.8	0.00e+00	0	32	0	2116026368	32	6197
2026-01-08 16:22:58.44	68.60	57.12	-29.9	-30.5	27.9	0.00e+00	0	32	0	2122317824	32	6051
2026-01-08 16:22:59.45	69.27	57.35	-30.0	-30.6	27.8	0.00e+00	0	32	0	2127560704	32	6115
2026-01-08 16:23:00.46	69.95	57.58	-29.6	-30.2	28.1	0.00e+00	0	31	0	2133852160	32	5882
2026-01-08 16:23:01.47	70.64	57.81	-29.7	-30.3	28.1	0.00e+00	0	31	0	2139095040	32	5913
2026-01-08 16:23:02.48	71.34	58.04	-29.5	-30.1	28.1	0.00e+00	0	32	0	2144337920	32	5814
2026-01-08 16:23:03.49	72.06	58.26	-29.9	-30.5	27.9	0.00e+00	0	32	0	2150629376	32	6078
2026-01-08 16:23:04.49	72.78	58.47	-29.8	-30.4	27.9	0.00e+00	0	32	0	2155872256	32	6002
2026-01-08 16:23:05.51	73.52	58.69	-29.5	-30.1	28.1	0.00e+00	0	32	0	2162163712	32	5787
2026-01-08 16:23:06.51	74.26	58.90	-29.3	-29.8	28.3	0.00e+00	0	32	0	2167406592	32	5628
2026-01-08 16:23:07.53	75.03	59.10	-29.0	-29.6	28.5	0.00e+00	0	32	0	2172649472	32	5459
2026-01-08 16:23:08.54	75.80	59.31	-29.2	-29.9	28.3	0.00e+00	0	31	0	2178940928	32	5632
2026-01-08 16:23:09.55	76.59	59.51	-29.4	-30.0	28.2	0.00e+00	0	32	0	2184183808	32	5701
2026-01-08 16:23:10.56	77.38	59.70	-29.4	-30.0	28.3	0.00e+00	0	32	0	2190475264	32	5696
2026-01-08 16:23:11.57	78.19	59.89	-29.1	-29.7	28.5	0.00e+00	0	31	0	2195718144	32	5547
2026-01-08 16:23:12.58	79.01	60.08	-29.2	-29.7	28.4	0.00e+00	0	32	0	2200961024	32	5546
2026-01-08 16:23:13.59	79.85	60.26	-29.1	-29.7	28.4	0.00e+00	0	32	0	2207252480	32	5507
2026-01-08 16:23:14.60	80.69	60.43	-29.1	-29.7	28.4	0.00e+00	0	31	0	2212495360	32	5511
2026-01-08 16:23:15.61	81.54	60.60	-29.1	-29.7	28.4	0.00e+00	0	32	0	2218786816	32	5550
2026-01-08 16:23:16.62	82.41	60.77	-28.9	-29.4	28.6	0.00e+00	0	31	0	2224029696	32	5374
2026-01-08 16:23:17.63	83.29	60.93	-28.5	-29.1	28.8	0.00e+00	0	31	0	2230321152	30	5782
2026-01-08 16:23:18.64	84.18	61.08	-28.8	-29.4	28.6	0.00e+00	0	32	0	2235564032	30	5968
2026-01-08 16:23:19.65	85.08	61.23	-29.2	-29.7	28.4	0.00e+00	0	31	0	2241855488	30	6231
2026-01-08 16:23:20.66	85.99	61.37	-29.1	-29.8	28.4	0.00e+00	0	32	0	2247098368	30	6252
2026-01-08 16:23:21.67	86.91	61.51	-29.0	-29.6	28.4	0.00e+00	0	32	0	2252341248	30	6152
2026-01-08 16:23:22.68	87.84	61.64	-28.8	-29.4	28.7	0.00e+00	0	31	0	2258632704	30	6001
2026-01-08 16:23:23.69	88.78	61.77	-29.0	-29.5	28.5	0.00e+00	0	31	0	2263875584	30	6101
2026-01-08 16:23:24.70	89.73	61.88	-28.9	-29.5	28.6	0.00e+00	0	31	0	2270167040	30	6073
2026-01-08 16:23:25.71	90.69	62.00	-28.8	-29.4	28.6	0.00e+00	0	32	0	2275409920	30	5994
2026-01-08 16:23:26.71	91.64	62.10	-28.7	-29.3	28.8	0.00e+00	0	32	0	2280652800	30	5898
2026-01-08 16:23:27.72	92.62	62.20	-28.7	-29.4	28.6	0.00e+00	0	32	0	2286944256	30	5972
2026-01-08 16:23:28.73	93.60	62.29	-28.6	-29.2	28.8	0.00e+00	0	31	0	2292187136	30	5836
2026-01-08 16:23:29.74	94.59	62.37	-28.6	-29.2	28.8	0.00e+00	0	32	0	2298478592	30	5896
2026-01-08 16:23:30.75	95.59	62.45	-28.9	-29.5	28.6	0.00e+00	0	32	0	2303721472	30	6079
2026-01-08 16:23:31.75	96.58	62.52	-28.8	-29.4	28.6	0.00e+00	0	32	0	2308964352	30	6023
2026-01-08 16:23:32.76	97.59	62.58	-28.9	-29.5	28.6	0.00e+00	0	31	0	2315255808	30	6076
2026-01-08 16:23:33.77	98.60	62.64	-28.8	-29.4	28.7	0.00e+00	0	32	0	2320498688	30	5979
2026-01-08 16:23:34.78	99.62	62.69	-28.7	-29.3	28.7	0.00e+00	0	32	0	2326790144	30	5947
2026-01-08 16:23:35.79	100.64	62.73	-28.8	-29.3	28.6	0.00e+00	0	32	0	2332033024	30	5962
2026-01-08 16:23:36.80	101.66	62.76	-28.5	-29.0	28.9	0.00e+00	0	32	0	2338324480	30	5749
2026-01-08 16:23:37.81	102.69	62.79	-28.9	-29.5	28.7	0.00e+00	0	32	0	2343567360	30	6042
2026-01-08 16:23:38.82	103.71	62.80	-28.5	-29.1	28.9	0.00e+00	0	32	0	2348810240	30	5817
2026-01-08 16:23:39.83	104.74	62.81	-28.5	-29.1	28.8	0.00e+00	0	31	0	2355101696	30	5813
2026-01-08 16:23:40.83	105.76	62.82	-28.6	-29.2	28.8	0.00e+00	0	31	0	2360344576	30	5883
2026-01-08 16:23:41.84	106.79	62.81	-28.8	-29.4	28.6	0.00e+00	0	31	0	2366636032	30	5998
2026-01-08 16:23:42.85	107.82	62.80	-29.0	-29.6	28.5	0.00e+00	0	31	0	2371878912	30	6169
2026-01-08 16:23:43.86	108.85	62.78	-28.8	-29.3	28.7	0.00e+00	0	31	0	2377121792	30	5945
2026-01-08 16:23:44.87	109.88	62.75	-28.6	-29.2	28.8	0.00e+00	0	31	0	2383413248	30	5837
2026-01-08 16:23:45.88	110.90	62.72	-28.8	-29.3	28.5	0.00e+00	0	31	0	2388656128	30	5932
2026-01-08 16:23:46.89	111.92	62.67	-28.6	-29.2	28.4	0.00e+00	0	31	0	2394947584	30	5850
2026-01-08 16:23:47.90	112.94	62.62	-28.6	-29.3	28.6	0.00e+00	0	31	0	2400190464	30	5899
2026-01-08 16:23:48.91	113.95	62.56	-28.7	-29.3	28.6	0.00e+00	0	31	0	2405433344	30	5906
2026-01-08 16:23:49.92	114.95	62.50	-28.9	-29.5	28.5	0.00e+00	0	31	0	2411724800	30	6066
2026-01-08 16:23:50.92	115.94	62.43	-28.9	-29.5	28.5	0.00e+00	0	31	0	2416967680	30	6050
2026-01-08 16:23:51.93	116.94	62.35	-28.7	-29.4	28.7	0.00e+00	0	31	0	2423259136	30	5967
2026-01-08 16:23:52.94	117.93	62.26	-28.6	-29.3	28.8	0.00e+00	0	32	0	2428502016	30	5902
2026-01-08 16:23:53.95	118.91	62.17	-28.8	-29.4	28.7	0.00e+00	0	31	0	2434793472	30	6027
2026-01-08 16:23:54.96	119.88	62.06	-29.0	-29.6	28.5	0.00e+00	0	31	0	2440036352	30	6106
2026-01-08 16:23:55.97	120.84	61.96	-28.8	-29.3	28.6	0.00e+00	0	32	0	2445279232	30	5949
2026-01-08 16:23:56.98	121.80	61.84	-28.5	-29.1	28.9	0.00e+00	0	32	0	2451570688	30	5810
2026-01-08 16:23:57.99	122.75	61.72	-29.0	-29.5	28.4	0.00e+00	0	31	0	2456813568	30	6103
2026-01-08 16:23:59.00	123.68	61.60	-29.2	-29.8	28.3	0.00e+00	0	31	0	2463105024	30	6306
2026-01-08 16:24:00.01	124.61	61.46	-28.9	-29.6	28.6	0.00e+00	0	31	0	2468347904	30	6111
2026-01-08 16:24:01.02	125.53	61.32	-29.0	-29.5	28.6	0.00e+00	0	32	0	2473590784	30	6059
2026-01-08 16:24:02.03	126.44	61.18	-29.0	-29.5	28.6	0.00e+00	0	31	0	2479882240	30	6083
2026-01-08 16:24:03.04	127.33	61.03	-28.9	-29.6	28.5	0.00e+00	0	31	0	2485125120	30	6136
2026-01-08 16:24:04.05	128.22	60.87	-28.8	-29.4	28.7	0.00e+00	0	32	0	2491416576	30	6032
2026-01-08 16:24:05.06	129.09	60.71	-28.8	-29.4	28.6	0.00e+00	0	32	0	2496659456	30	6006
2026-01-08 16:24:06.07	129.96	60.54	-28.9	-29.5	28.6	0.00e+00	0	31	0	2501902336	30	6071
2026-01-08 16:24:07.07	130.80	60.37	-28.9	-29.5	28.6	0.00e+00	0	32	0	2508193792	30	6073
2026-01-08 16:24:08.08	131.64	60.19	-28.9	-29.6	28.5	0.00e+00	0	31	0	2513436672	30	6111
2026-01-08 16:24:09.09	132.47	60.01	-29.2	-29.8	28.4	0.00e+00	0	31	0	2519728128	30	6272
2026-01-08 16:24:10.10	133.29	59.82	-29.5	-30.0	28.2	0.00e+00	0	31	0	2524971008	30	6460
2026-01-08 16:24:11.11	134.09	59.63	-29.4	-30.0	28.2	0.00e+00	0	31	0	2531262464	30	6439
2026-01-08 16:24:12.12	134.89	59.43	-29.3	-30.0	28.2	0.00e+00	0	31	0	2536505344	30	6438
2026-01-08 16:24:13.13	135.67	59.23	-29.4	-30.1	28.2	0.00e+00	0	31	0	2542796800	30	6479
2026-01-08 16:24:14.14	136.44	59.03	-29.6	-30.3	28.1	0.00e+00	0	32	0	2548039680	30	6634
2026-01-08 16:24:15.15	137.20	58.82	-29.5	-30.0	28.2	0.00e+00	0	31	0	2553282560	30	6439
2026-01-08 16:24:16.16	137.94	58.61	-29.5	-30.0	28.2	0.00e+00	0	31	0	2559574016	30	6445
2026-01-08 16:24:17.17	138.68	58.39	-29.7	-30.4	28.1	0.00e+00	0	31	0	2564816896	30	6736
2026-01-08 16:24:18.18	139.40	58.17	-29.8	-30.4	28.0	0.00e+00	0	31	0	2571108352	30	6719
2026-01-08 16:24:19.19	140.11	57.95	-29.6	-30.1	28.2	0.00e+00	0	32	0	2576351232	32	5775
2026-01-08 16:24:20.20	140.81	57.72	-29.6	-30.2	28.2	0.00e+00	0	31	0	2581594112	32	5856
2026-01-08 16:24:21.21	141.50	57.49	-29.2	-29.8	28.4	0.00e+00	0	31	0	2587885568	32	5611
2026-01-08 16:24:22.22	142.17	57.26	-29.4	-30.1	28.2	0.00e+00	0	31	0	2593128448	32	5803
2026-01-08 16:24:23.22	142.83	57.03	-29.7	-30.4	28.1	0.00e+00	0	31	0	2598371328	32	5983
2026-01-08 16:24:24.23	143.48	56.79	-29.8	-30.4	28.0	0.00e+00	0	31	0	2604662784	32	6024
2026-01-08 16:24:25.24	144.12	56.55	-29.7	-30.3	28.1	0.00e+00	0	31	0	2609905664	32	5963
2026-01-08 16:24:26.25	144.76	56.31	-29.8	-30.4	28.0	0.00e+00	0	31	0	2616197120	32	6014
2026-01-08 16:24:27.26	145.38	56.07	-30.1	-30.7	27.6	0.00e+00	0	31	0	2621440000	32	6216
2026-01-08 16:24:28.27	145.99	55.82	-30.2	-30.8	27.7	0.00e+00	0	32	0	2627731456	32	6274
2026-01-08 16:24:29.28	146.59	55.58	-30.1	-30.8	27.7	0.00e+00	0	32	0	2632974336	32	6281
2026-01-08 16:24:30.29	147.17	55.33	-30.2	-30.7	27.7	0.00e+00	0	31	0	2639265792	32	6221
2026-01-08 16:24:31.30	147.75	55.07	-30.3	-31.0	27.5	0.00e+00	0	31	0	2644508672	32	6411
2026-01-08 16:24:32.30	148.32	54.82	-30.4	-31.1	27.5	0.00e+00	0	31	0	2649751552	32	6486
2026-01-08 16:24:33.31	148.87	54.57	-30.3	-31.0	27.5	0.00e+00	0	32	0	2656043008	32	6439
2026-01-08 16:24:34.33	149.43	54.31	-30.0	-30.5	27.8	0.00e+00	0	31	0	2661285888	32	6079
2026-01-08 16:24:35.34	149.97	54.05	-30.1	-30.8	27.7	0.00e+00	0	31	0	2667577344	32	6258
2026-01-08 16:24:36.34	150.49	53.80	-30.2	-30.7	27.6	0.00e+00	0	31	0	2672820224	32	6244
2026-01-08 16:24:37.35	151.01	53.54	-30.2	-30.7	27.6	0.00e+00	0	31	0	2678063104	32	6231
2026-01-08 16:24:38.36	151.52	53.28	-30.0	-30.7	27.7	0.00e+00	0	32	0	2684354560	32	6177
2026-01-08 16:24:39.37	152.02	53.02	-29.9	-30.5	27.9	0.00e+00	0	31	0	2689597440	32	6094
2026-01-08 16:24:40.38	152.52	52.76	-30.1	-30.8	27.7	0.00e+00	0	32	0	2695888896	32	6272
2026-01-08 16:24:41.39	153.00	52.49	-30.1	-30.8	27.7	0.00e+00	0	32	0	2701131776	32	6274
2026-01-08 16:24:42.40	153.48	52.23	-30.1	-30.7	27.7	0.00e+00	0	31	0	2706374656	32	6242
2026-01-08 16:24:43.41	153.95	51.97	-29.7	-30.4	28.1	0.00e+00	0	32	0	2712666112	32	5987
2026-01-08 16:24:44.42	154.41	51.70	-29.5	-30.0	28.1	0.00e+00	0	31	0	2717908992	32	5733
2026-01-08 16:24:45.43	154.86	51.44	-29.4	-30.0	28.2	0.00e+00	0	31	0	2724200448	32	5744
2026-01-08 16:24:46.44	155.30	51.17	-29.5	-30.1	28.2	0.00e+00	0	31	0	2729443328	32	5824
2026-01-08 16:24:47.45	155.74	50.91	-29.6	-30.2	28.1	0.00e+00	0	32	0	2735734784	32	5893
2026-01-08 16:24:48.45	156.16	50.64	-29.6	-30.3	28.1	0.00e+00	0	32	0	2740977664	32	5925
2026-01-08 16:24:49.47	156.59	50.37	-29.6	-30.3	28.1	0.00e+00	0	32	0	2746220544	32	5923
2026-01-08 16:24:50.48	157.00	50.11	-29.4	-30.1	28.2	0.00e+00	0	31	0	2752512000	32	5793
2026-01-08 16:24:51.49	157.41	49.84	-29.4	-30.0	28.2	0.00e+00	0	31	0	2757754880	32	5700
2026-01-08 16:24:52.50	157.81	49.58	-29.6	-30.2	28.0	0.00e+00	0	31	0	2764046336	32	5856
2026-01-08 16:24:53.51	158.20	49.31	-29.5	-30.2	28.0	0.00e+00	0	31	0	2769289216	32	5848
2026-01-08 16:24:54.52	158.59	49.05	-29.1	-29.8	28.3	0.00e+00	0	31	0	2774532096	32	5616
2026-01-08 16:24:55.53	158.97	48.78	-29.2	-29.8	28.4	0.00e+00	0	31	0	2780823552	32	5627
2026-01-08 16:24:56.54	159.34	48.52	-28.8	-29.3	28.7	0.00e+00	0	31	0	2786066432	32	5295
2026-01-08 16:24:57.54	159.71	48.26	-28.8	-29.5	28.6	0.00e+00	0	32	0	2792357888	32	5388
2026-01-08 16:24:58.55	160.07	47.99	-29.0	-29.5	28.4	0.00e+00	0	31	0	2797600768	32	5422
2026-01-08 16:24:59.56	160.42	47.73	-29.2	-29.7	28.4	0.00e+00	0	31	0	2802843648	32	5565
2026-01-08 16:25:00.57	160.77	47.47	-29.2	-29.7	28.3	0.00e+00	0	31	0	2809135104	32	5546
2026-01-08 16:25:01.58	161.12	47.20	-29.3	-30.0	27.9	0.00e+00	0	31	0	2814377984	32	5699
2026-01-08 16:25:02.59	161.45	46.94	-29.3	-29.8	28.1	0.00e+00	0	31	0	2820669440	32	5595
2026-01-08 16:25:03.60	161.79	46.68	-29.0	-29.6	28.3	0.00e+00	0	31	0	2825912320	32	5455
2026-01-08 16:25:04.61	162.11	46.42	-29.0	-29.7	28.3	0.00e+00	0	31	0	2832203776	32	5542
2026-01-08 16:25:05.62	162.43	46.16	-28.9	-29.6	28.3	0.00e+00	0	31	0	2837446656	32	5469
2026-01-08 16:25:06.63	162.75	45.90	-29.1	-29.6	28.2	0.00e+00	0	31	0	2843738112	32	5495
2026-01-08 16:25:07.64	163.06	45.64	-29.1	-29.8	28.3	0.00e+00	0	31	0	2848980992	32	5580
2026-01-08 16:25:08.65	163.37	45.38	-29.0	-29.7	28.4	0.00e+00	0	32	0	2854223872	32	5544
2026-01-08 16:25:09.66	163.67	45.13	-29.0	-29.7	28.5	0.00e+00	0	32	0	2860515328	32	5517
2026-01-08 16:25:10.67	163.97	44.87	-28.9	-29.5	28.5	0.00e+00	0	32	0	2865758208	32	5423
2026-01-08 16:25:11.68	164.26	44.61	-28.6	-29.2	28.8	0.00e+00	0	31	0	2872049664	30	5893
2026-01-08 16:25:12.69	164.55	44.36	-28.7	-29.2	28.8	0.00e+00	0	32	0	2877292544	30	5842
2026-01-08 16:25:13.70	164.83	44.11	-28.8	-29.3	28.7	0.00e+00	0	32	0	2882535424	30	5918
2026-01-08 16:25:14.71	165.11	43.85	-29.0	-29.5	28.5	0.00e+00	0	31	0	2888826880	30	6092
2026-01-08 16:25:15.72	165.38	43.60	-29.2	-29.9	28.4	0.00e+00	0	32	0	2894069760	30	6339
2026-01-08 16:25:16.73	165.65	43.35	-29.2	-29.7	28.4	0.00e+00	0	31	0	2899312640	30	6214
2026-01-08 16:25:17.73	165.92	43.10	-29.0	-29.6	28.5	0.00e+00	0	31	0	2905604096	30	6126
2026-01-08 16:25:18.74	166.18	42.85	-28.9	-29.5	28.5	0.00e+00	0	32	0	2910846976	30	6097
2026-01-08 16:25:19.75	166.44	42.61	-28.8	-29.4	28.7	0.00e+00	0	31	0	2917138432	30	6017
2026-01-08 16:25:20.76	166.69	42.36	-28.8	-29.3	28.6	0.00e+00	0	31	0	2922381312	30	5964
2026-01-08 16:25:21.77	166.94	42.11	-28.8	-29.4	28.8	0.00e+00	0	31	0	2928672768	30	6002
2026-01-08 16:25:22.78	167.19	41.87	-28.9	-29.4	28.6	0.00e+00	0	32	0	2933915648	30	5993
2026-01-08 16:25:23.79	167.43	41.62	-29.0	-29.5	28.4	0.00e+00	0	31	0	2940207104	30	6084
2026-01-08 16:25:24.80	167.67	41.38	-28.9	-29.5	28.5	0.00e+00	0	31	0	2945449984	30	6063
2026-01-08 16:25:25.81	167.91	41.14	-29.0	-29.5	28.5	0.00e+00	0	31	0	2950692864	30	6101
2026-01-08 16:25:26.82	168.14	40.90	-28.8	-29.4	28.6	0.00e+00	0	32	0	2956984320	30	6033
2026-01-08 16:25:27.83	168.37	40.66	-28.7	-29.3	28.7	0.00e+00	0	32	0	2962227200	30	5898
2026-01-08 16:25:28.84	168.59	40.42	-28.4	-29.0	28.9	0.00e+00	0	32	0	2968518656	30	5709
2026-01-08 16:25:29.85	168.82	40.18	-28.4	-28.9	28.9	0.00e+00	0	31	0	2973761536	30	5659
2026-01-08 16:25:30.86	169.04	39.95	-28.4	-29.0	28.8	0.00e+00	0	32	0	2979004416	30	5761
2026-01-08 16:25:31.87	169.25	39.71	-28.6	-29.1	28.6	0.00e+00	0	31	0	2985295872	30	5797
2026-01-08 16:25:32.88	169.47	39.48	-28.7	-29.2	28.8	0.00e+00	0	31	0	2990538752	30	5851
2026-01-08 16:25:33.89	169.68	39.25	-28.7	-29.3	28.7	0.00e+00	0	31	0	2996830208	30	5901
2026-01-08 16:25:34.90	169.88	39.02	-28.8	-29.5	28.6	0.00e+00	0	32	0	3002073088	30	6052
2026-01-08 16:25:35.91	170.09	38.78	-28.7	-29.3	28.7	0.00e+00	0	31	0	3007315968	30	5913
2026-01-08 16:25:36.92	170.29	38.56	-28.8	-29.4	28.7	0.00e+00	0	32	0	3013607424	30	5966
2026-01-08 16:25:37.93	170.49	38.33	-28.7	-29.2	28.6	0.00e+00	0	31	0	3018850304	30	5878
2026-01-08 16:25:38.94	170.69	38.10	-28.6	-29.3	28.8	0.00e+00	0	31	0	3025141760	30	5900
2026-01-08 16:25:39.95	170.88	37.87	-28.5	-29.1	28.8	0.00e+00	0	32	0	3030384640	30	5826
2026-01-08 16:25:40.96	171.07	37.65	-28.4	-29.0	28.9	0.00e+00	0	31	0	3036676096	30	5723
2026-01-08 16:25:41.97	171.26	37.43	-28.4	-29.1	28.8	0.00e+00	0	32	0	3041918976	30	5763
2026-01-08 16:25:42.98	171.45	37.20	-28.3	-28.9	29.0	0.00e+00	0	32	0	3047161856	30	5691
2026-01-08 16:25:43.99	171.63	36.98	-28.3	-29.0	28.9	0.00e+00	0	31	0	3053453312	30	5712
2026-01-08 16:25:45.00	171.81	36.76	-28.2	-28.9	29.0	0.00e+00	0	31	0	3058696192	30	5665
2026-01-08 16:25:46.01	171.99	36.54	-28.3	-29.0	28.9	0.00e+00	0	31	0	3064987648	30	5722
2026-01-08 16:25:47.02	172.17	36.33	-28.4	-29.1	29.0	0.00e+00	0	32	0	3070230528	30	5800
2026-01-08 16:25:48.03	172.34	36.11	-28.3	-29.0	29.0	0.00e+00	0	32	0	3075473408	30	5703
2026-01-08 16:25:49.04	172.51	35.89	-28.3	-28.9	28.8	0.00e+00	0	32	0	3081764864	30	5686
2026-01-08 16:25:50.05	172.68	35.68	-28.3	-29.0	28.9	0.00e+00	0	32	0	3087007744	30	5708
2026-01-08 16:25:51.06	172.85	35.47	-28.4	-29.1	28.9	0.00e+00	0	32	0	3093299200	30	5795
2026-01-08 16:25:52.07	173.02	35.26	-28.6	-29.3	28.7	0.00e+00	0	31	0	3098542080	30	5918
2026-01-08 16:25:53.08	173.18	35.04	-28.5	-29.1	28.8	0.00e+00	0	31	0	3103784960	30	5824
2026-01-08 16:25:54.09	173.34	34.84	-28.6	-29.1	28.8	0.00e+00	0	32	0	3110076416	30	5793
2026-01-08 16:25:55.09	173.50	34.63	-28.4	-28.9	28.9	0.00e+00	0	31	0	3115319296	30	5675
2026-01-08 16:25:56.10	173.66	34.42	-28.6	-29.1	28.8	0.00e+00	0	31	0	3121610752	30	5811
2026-01-08 16:25:57.11	173.81	34.22	-28.7	-29.2	28.7	0.00e+00	0	31	0	3126853632	30	5847
2026-01-08 16:25:58.12	173.97	34.01	-28.5	-29.0	28.8	0.00e+00	0	31	0	3133145088	30	5760
2026-01-08 16:25:59.13	174.12	33.81	-28.6	-29.1	28.8	0.00e+00	0	31	0	3138387968	30	5812
2026-01-08 16:26:00.14	174.27	33.60	-28.6	-29.1	28.7	0.00e+00	0	32	0	3144679424	30	5827
2026-01-08 16:26:01.15	174.42	33.40	-28.7	-29.3	28.7	0.00e+00	0	32	0	3149922304	30	5907
2026-01-08 16:26:02.16	174.56	33.20	-28.8	-29.3	28.7	0.00e+00	0	31	0	3155165184	30	5933
2026-01-08 16:26:03.17	174.71	33.00	-28.8	-29.4	28.6	0.00e+00	0	31	0	3161456640	30	5972
2026-01-08 16:26:04.18	174.85	32.80	-28.9	-29.4	28.6	0.00e+00	0	31	0	3166699520	30	5996
2026-01-08 16:26:05.19	174.99	32.61	-28.9	-29.4	28.5	0.00e+00	0	32	0	3172990976	30	5988
2026-01-08 16:26:06.19	175.13	32.41	-28.7	-29.2	28.7	0.00e+00	0	31	0	3178233856	30	5874
2026-01-08 16:26:07.20	175.27	32.22	-28.7	-29.3	28.7	0.00e+00	0	32	0	3183476736	30	5897
2026-01-08 16:26:08.22	175.41	32.02	-28.7	-29.2	28.7	0.00e+00	0	32	0	3189768192	30	5859
2026-01-08 16:26:09.22	175.54	31.83	-28.8	-29.3	28.6	0.00e+00	0	31	0	3195011072	30	5944
2026-01-08 16:26:10.23	175.67	31.64	-28.7	-29.3	28.6	0.00e+00	0	32	0	3201302528	30	5907
2026-01-08 16:26:11.24	175.81	31.45	-28.7	-29.4	28.7	0.00e+00	0	32	0	3206545408	30	5994
2026-01-08 16:26:12.25	175.94	31.26	-28.9	-29.6	28.5	0.00e+00	0	32	0	3211788288	30	6106
2026-01-08 16:26:13.26	176.07	31.07	-28.9	-29.6	28.4	0.00e+00	0	31	0	3218079744	30	6116
2026-01-08 16:26:14.27	176.19	30.88	-29.0	-29.6	28.5	0.00e+00	0	32	0	3223322624	30	6169
2026-01-08 16:26:15.28	176.32	30.70	-29.0	-29.7	28.4	0.00e+00	0	31	0	3229614080	30	6211
2026-01-08 16:26:16.29	176.44	30.51	-29.1	-29.8	28.3	0.00e+00	0	32	0	3234856960	30	6304
2026-01-08 16:26:17.30	176.57	30.33	-29.1	-29.8	28.4	0.00e+00	0	31	0	3241148416	30	6258
2026-01-08 16:26:18.31	176.69	30.14	-29.1	-29.8	28.4	0.00e+00	0	32	0	3246391296	30	6262
2026-01-08 16:26:19.32	176.81	29.96	-29.0	-29.7	28.3	0.00e+00	0	32	0	3251634176	30	6208
2026-01-08 16:26:20.32	176.93	29.78	-29.1	-29.8	28.3	0.00e+00	0	32	0	3257925632	30	6279
2026-01-08 16:26:21.33	177.05	29.60	-29.1	-29.6	28.4	0.00e+00	0	32	0	3263168512	30	6162
2026-01-08 16:26:22.34	177.16	29.42	-28.9	-29.4	28.5	0.00e+00	0	32	0	3269459968	30	5997
2026-01-08 16:26:23.35	177.28	29.25	-28.9	-29.5	28.5	0.00e+00	0	32	0	3274702848	30	6089
2026-01-08 16:26:24.36	177.39	29.07	-28.9	-29.6	28.4	0.00e+00	0	31	0	3279945728	30	6130
2026-01-08 16:26:25.37	177.51	28.89	-28.8	-29.3	28.5	0.00e+00	0	32	0	3286237184	30	5957
2026-01-08 16:26:26.38	177.62	28.72	-28.9	-29.4	28.6	0.00e+00	0	32	0	3291480064	30	5992
2026-01-08 16:26:27.39	177.73	28.54	-29.0	-29.5	28.5	0.00e+00	0	32	0	3297771520	30	6075
2026-01-08 16:26:28.40	177.84	28.37	-29.0	-29.5	28.4	0.00e+00	0	32	0	3303014400	30	6093
2026-01-08 16:26:29.41	177.95	28.20	-29.0	-29.6	28.4	0.00e+00	0	32	0	3308257280	30	6123
2026-01-08 16:26:30.42	178.05	28.03	-29.1	-29.6	28.5	0.00e+00	0	32	0	3314548736	30	6136
2026-01-08 16:26:31.43	178.16	27.86	-29.2	-29.7	28.4	0.00e+00	0	32	0	3319791616	30	6214
2026-01-08 16:26:32.44	178.27	27.69	-29.1	-29.6	28.4	0.00e+00	0	31	0	3326083072	30	6165
2026-01-08 16:26:33.45	178.37	27.52	-29.1	-29.6	28.3	0.00e+00	0	31	0	3331325952	30	6173
2026-01-08 16:26:34.46	178.47	27.35	-29.2	-29.7	28.3	0.00e+00	0	32	0	3337617408	30	6221
2026-01-08 16:26:35.47	178.58	27.18	-28.9	-29.4	28.5	0.00e+00	0	31	0	3342860288	30	6010
2026-01-08 16:26:36.48	178.68	27.02	-28.8	-29.5	28.6	0.00e+00	0	32	0	3349151744	30	6043
2026-01-08 16:26:37.49	178.78	26.85	-28.8	-29.5	28.5	0.00e+00	0	31	0	3354394624	30	6058
2026-01-08 16:26:38.50	178.88	26.69	-28.8	-29.3	28.6	0.00e+00	0	31	0	3359637504	30	5935
2026-01-08 16:26:39.51	178.97	26.53	-28.7	-29.2	28.6	0.00e+00	0	32	0	3365928960	30	5867
2026-01-08 16:26:40.52	179.07	26.37	-28.7	-29.2	28.7	0.00e+00	0	31	0	3371171840	30	5869
2026-01-08 16:26:41.53	179.17	26.20	-28.7	-29.2	28.6	0.00e+00	0	31	0	3377463296	30	5852
2026-01-08 16:26:42.54	179.26	26.04	-28.8	-29.3	28.5	0.00e+00	0	32	0	3382706176	30	5957
2026-01-08 16:26:43.55	179.36	25.88	-28.7	-29.2	28.6	0.00e+00	0	32	0	3387949056	30	5878
2026-01-08 16:26:44.56	179.45	25.73	-28.8	-29.3	28.6	0.00e+00	0	32	0	3394240512	30	5909
2026-01-08 16:26:45.57	179.54	25.57	-28.8	-29.3	28.5	0.00e+00	0	32	0	3399483392	30	5956
2026-01-08 16:26:46.58	179.64	25.41	-28.9	-29.4	28.5	0.00e+00	0	31	0	3404726272	30	5988
2026-01-08 16:26:47.59	179.73	25.26	-29.1	-29.6	28.3	0.00e+00	0	31	0	3411017728	30	6130
2026-01-08 16:26:48.60	179.82	25.10	-29.0	-29.5	28.5	0.00e+00	0	32	0	3416260608	30	6068
2026-01-08 16:26:49.61	179.91	24.95	-29.2	-29.8	28.3	0.00e+00	0	32	0	3422552064	30	6247
2026-01-08 16:26:50.62	179.99	24.79	-29.1	-29.6	28.4	0.00e+00	0	32	0	3427794944	30	6123
2026-01-08 16:26:51.62	180.08	24.64	-29.3	-29.8	28.1	0.00e+00	0	32	0	3434086400	30	6274
2026-01-08 16:26:52.63	180.17	24.49	-29.1	-29.7	28.2	0.00e+00	0	32	0	3439329280	30	6184
2026-01-08 16:26:53.64	180.25	24.34	-29.3	-29.9	28.1	0.00e+00	0	32	0	3445620736	30	6359
2026-01-08 16:26:54.65	180.34	24.19	-29.3	-30.0	28.2	0.00e+00	0	32	0	3450863616	30	6400
2026-01-08 16:26:55.66	180.42	24.04	-29.5	-30.2	27.9	0.00e+00	0	32	0	3456106496	30	6585
2026-01-08 16:26:56.67	180.51	23.89	-29.4	-30.1	28.1	0.00e+00	0	32	0	3462397952	30	6503
2026-01-08 16:26:57.68	180.59	23.74	-29.6	-30.2	27.9	0.00e+00	0	32	0	3467640832	30	6612
2026-01-08 16:26:58.69	180.67	23.60	-29.5	-30.1	28.0	0.00e+00	0	31	0	3473932288	30	6534
2026-01-08 16:26:59.70	180.75	23.45	-29.6	-30.3	28.0	0.00e+00	0	31	0	3479175168	30	6632
2026-01-08 16:27:00.71	180.83	23.30	-29.6	-30.3	27.9	0.00e+00	0	32	0	3484418048	30	6646
2026-01-08 16:27:01.72	180.91	23.16	-29.7	-30.4	27.9	0.00e+00	0	32	0	3490709504	30	6733
2026-01-08 16:27:02.73	180.99	23.02	-29.7	-30.4	27.8	0.00e+00	0	32	0	3495952384	32	5982
2026-01-08 16:27:03.74	181.07	22.87	-29.6	-30.3	27.9	0.00e+00	0	32	0	3502243840	32	5947
2026-01-08 16:27:04.75	181.15	22.73	-29.7	-30.4	27.9	0.00e+00	0	32	0	3507486720	32	5982
2026-01-08 16:27:05.76	181.23	22.59	-29.8	-30.4	27.7	0.00e+00	0	31	0	3512729600	32	6028
2026-01-08 16:27:06.77	181.30	22.45	-29.7	-30.4	27.8	0.00e+00	0	31	0	3519021056	32	6023
2026-01-08 16:27:07.78	181.38	22.31	-29.7	-30.4	27.9	0.00e+00	0	31	0	3524263936	32	6019
2026-01-08 16:27:08.79	181.45	22.17	-29.8	-30.5	27.8	0.00e+00	0	31	0	3530555392	32	6035
2026-01-08 16:27:09.80	181.53	22.03	-29.7	-30.4	27.7	0.00e+00	0	32	0	3535798272	32	6028
2026-01-08 16:27:10.81	181.60	21.89	-29.7	-30.4	27.8	0.00e+00	0	31	0	3542089728	32	5992
2026-01-08 16:27:11.82	181.68	21.75	-29.9	-30.4	27.7	0.00e+00	0	31	0	3547332608	32	6012
2026-01-08 16:27:12.83	181.75	21.62	-29.8	-30.5	27.7	0.00e+00	0	31	0	3552575488	32	6065
2026-01-08 16:27:13.83	181.82	21.48	-29.8	-30.5	27.7	0.00e+00	0	31	0	3558866944	32	6067
2026-01-08 16:27:14.85	181.89	21.35	-29.9	-30.6	27.6	0.00e+00	0	32	0	3564109824	32	6125
2026-01-08 16:27:15.86	181.96	21.21	-29.9	-30.5	27.6	0.00e+00	0	31	0	3570401280	32	6044
2026-01-08 16:27:16.86	182.03	21.08	-29.8	-30.5	27.7	0.00e+00	0	31	0	3575644160	32	6061
2026-01-08 16:27:17.87	182.10	20.94	-30.0	-30.5	27.6	0.00e+00	0	32	0	3580887040	32	6078
2026-01-08 16:27:18.88	182.17	20.81	-29.9	-30.5	27.6	0.00e+00	0	32	0	3587178496	32	6073
2026-01-08 16:27:19.89	182.24	20.68	-30.0	-30.7	27.5	0.00e+00	0	32	0	3592421376	32	6212
2026-01-08 16:27:20.90	182.31	20.55	-30.2	-30.9	27.6	0.00e+00	0	32	0	3598712832	32	6318
2026-01-08 16:27:21.91	182.38	20.42	-30.2	-30.9	27.4	0.00e+00	0	32	0	3603955712	32	6326
2026-01-08 16:27:22.92	182.45	20.29	-30.1	-30.7	27.5	0.00e+00	0	32	0	3609198592	32	6178
2026-01-08 16:27:23.93	182.51	20.16	-30.2	-30.7	27.5	0.00e+00	0	32	0	3615490048	32	6214
2026-01-08 16:27:24.94	182.58	20.03	-30.3	-31.0	27.4	0.00e+00	0	32	0	3620732928	32	6439
2026-01-08 16:27:25.95	182.64	19.90	-30.4	-30.9	27.3	0.00e+00	0	32	0	3627024384	32	6372
2026-01-08 16:27:26.96	182.71	19.77	-30.4	-30.9	27.3	0.00e+00	0	32	0	3632267264	32	6373
2026-01-08 16:27:27.97	182.77	19.65	-30.5	-31.0	27.2	0.00e+00	0	32	0	3638558720	32	6448
2026-01-08 16:27:28.98	182.84	19.52	-30.4	-30.9	27.3	0.00e+00	0	32	0	3643801600	32	6348
2026-01-08 16:27:29.99	182.90	19.39	-30.4	-31.1	27.2	0.00e+00	0	32	0	3649044480	32	6508
2026-01-08 16:27:31.00	182.96	19.27	-30.5	-31.2	27.2	0.00e+00	0	32	0	3655335936	32	6583
