passes_logs/2026/01/08/R4.6S_Anadyr/R4.6S_Anadyr__20260108_183531_SUOMI_NPP_rec.log

#Pass ID: 20260108_183531_SUOMI NPP
#Satellite: SUOMI NPP
#Configuration: NPP
#almurnet v.1.7.20251203
#Start time: 2026-01-08 18:35:34

#Version: 2.2.20231116
#Station: R4.6S_Anadyr
#Location: 177.4865 lon 64.73178 lat
#TLE: 1 37849U 11061A   26008.05542337  .00000108  00000+0  71976-4 0  9997
#TLE: 2 37849  98.7805 310.1641 0002540  75.6410 284.5048 14.19523335735721

#Time	Az	El	Level	Level2	SNR	BER	BlckErr	Temp	State	Recorded	gain1	gain2
2026-01-08 18:35:34.08	41.45	0.13	-48.4	-59.1	3.4	8.46e-01	0	30	0	0	60	32411
2026-01-08 18:35:35.09	41.38	0.18	-48.5	-63.7	3.6	1.51e+00	0	31	104	0	60	55317
2026-01-08 18:35:36.10	41.31	0.23	-48.5	-63.7	3.6	1.51e+00	0	31	104	0	60	55624
2026-01-08 18:35:37.11	41.23	0.28	-48.5	-63.7	3.6	1.51e+00	0	31	104	0	60	55567
2026-01-08 18:35:38.11	41.16	0.33	-48.6	-63.7	3.6	1.51e+00	0	31	104	0	60	55631
2026-01-08 18:35:39.12	41.09	0.38	-48.6	-63.8	3.6	1.51e+00	0	31	104	0	60	55818
2026-01-08 18:35:40.13	41.01	0.43	-48.7	-63.8	3.6	1.51e+00	0	31	104	0	60	56186
2026-01-08 18:35:41.14	40.94	0.48	-48.6	-63.8	3.6	1.51e+00	0	31	104	0	60	55926
2026-01-08 18:35:42.16	40.86	0.53	-48.6	-63.8	3.6	1.51e+00	0	31	104	0	60	55914
2026-01-08 18:35:43.16	40.79	0.58	-48.5	-63.7	3.6	1.51e+00	0	31	104	0	60	55517
2026-01-08 18:35:44.17	40.71	0.63	-48.5	-63.7	3.6	1.51e+00	0	31	104	0	60	55171
2026-01-08 18:35:45.18	40.64	0.68	-48.5	-63.6	3.6	1.51e+00	0	32	104	0	60	54719
2026-01-08 18:35:46.19	40.56	0.73	-48.4	-63.6	3.6	1.51e+00	0	32	104	0	60	54633
2026-01-08 18:35:47.20	40.49	0.78	-48.3	-63.5	3.6	1.51e+00	0	32	104	0	60	54271
2026-01-08 18:35:48.21	40.41	0.83	-48.2	-63.4	3.6	1.51e+00	0	32	104	0	60	53213
2026-01-08 18:35:49.22	40.34	0.88	-48.0	-63.1	3.6	1.51e+00	0	32	104	0	60	51744
2026-01-08 18:35:50.23	40.26	0.93	-47.7	-62.9	3.6	1.51e+00	0	32	104	0	60	50450
2026-01-08 18:35:51.24	40.18	0.98	-47.1	-62.3	3.6	1.51e+00	0	32	104	0	60	46978
2026-01-08 18:35:52.25	40.10	1.04	-46.9	-62.1	3.6	1.51e+00	0	32	104	0	60	45931
2026-01-08 18:35:53.26	40.03	1.09	-46.9	-62.0	3.6	1.51e+00	0	32	104	0	60	45690
2026-01-08 18:35:54.27	39.95	1.14	-46.9	-62.1	3.5	1.51e+00	0	32	104	0	60	45824
2026-01-08 18:35:55.28	39.87	1.19	-46.9	-62.0	3.6	1.51e+00	0	32	104	0	60	45651
2026-01-08 18:35:56.29	39.79	1.24	-46.9	-62.1	3.6	1.51e+00	0	32	104	0	60	45941
2026-01-08 18:35:57.30	39.72	1.29	-46.9	-62.1	3.6	1.51e+00	0	32	104	0	60	45872
2026-01-08 18:35:58.31	39.64	1.34	-46.9	-62.1	3.6	1.51e+00	0	32	104	0	60	45898
2026-01-08 18:35:59.32	39.56	1.39	-46.9	-62.1	3.6	1.51e+00	0	32	104	0	60	45865
2026-01-08 18:36:00.32	39.48	1.44	-46.9	-62.1	3.6	1.51e+00	0	32	104	0	60	45839
2026-01-08 18:36:01.33	39.40	1.50	-46.9	-62.1	3.6	1.51e+00	0	32	104	0	60	45919
2026-01-08 18:36:02.34	39.32	1.55	-46.9	-62.0	3.6	1.51e+00	0	32	104	0	60	45754
2026-01-08 18:36:03.35	39.24	1.60	-46.9	-62.0	3.6	1.51e+00	0	32	104	0	60	45719
2026-01-08 18:36:04.36	39.16	1.65	-46.9	-62.0	3.6	1.51e+00	0	32	104	0	60	45415
2026-01-08 18:36:05.37	39.08	1.70	-46.9	-62.0	3.6	1.51e+00	0	32	104	0	60	45636
2026-01-08 18:36:06.38	39.00	1.75	-46.9	-62.0	3.6	1.51e+00	0	32	104	0	60	45689
2026-01-08 18:36:07.39	38.92	1.80	-46.9	-62.0	3.6	1.51e+00	0	32	104	0	60	45741
2026-01-08 18:36:08.40	38.83	1.85	-46.9	-62.1	3.6	1.51e+00	0	32	104	0	60	45917
2026-01-08 18:36:09.41	38.75	1.91	-46.9	-62.0	3.6	1.51e+00	0	32	104	0	60	45512
2026-01-08 18:36:10.43	38.67	1.96	-46.9	-62.0	3.6	1.51e+00	0	32	104	0	60	45612
2026-01-08 18:36:11.43	38.59	2.01	-46.9	-61.9	3.6	1.51e+00	0	32	104	0	60	45017
2026-01-08 18:36:12.45	38.50	2.06	-46.9	-61.8	3.6	1.51e+00	0	32	104	0	60	44518
2026-01-08 18:36:13.46	38.42	2.11	-46.9	-61.7	3.6	1.51e+00	0	32	104	0	60	44102
2026-01-08 18:36:14.46	38.34	2.16	-46.9	-61.7	3.6	1.51e+00	0	32	104	0	60	43806
2026-01-08 18:36:15.48	38.25	2.22	-46.9	-61.7	3.6	1.51e+00	0	32	104	0	60	43909
2026-01-08 18:36:16.49	38.17	2.27	-46.9	-61.9	3.6	1.51e+00	0	32	104	0	60	45113
2026-01-08 18:36:17.49	38.09	2.32	-46.9	-62.0	3.6	1.51e+00	0	32	104	0	60	45602
2026-01-08 18:36:18.50	38.00	2.37	-46.9	-62.0	3.6	1.51e+00	0	32	104	0	60	45676
2026-01-08 18:36:19.51	37.92	2.42	-46.9	-61.9	3.6	1.51e+00	0	32	104	0	60	45115
2026-01-08 18:36:20.52	37.83	2.48	-46.9	-61.9	3.6	1.51e+00	0	32	104	0	60	44763
2026-01-08 18:36:21.53	37.74	2.53	-46.9	-61.9	3.6	1.51e+00	0	32	104	0	60	45216
2026-01-08 18:36:22.54	37.66	2.58	-46.9	-62.0	3.6	1.51e+00	0	32	104	0	60	45460
2026-01-08 18:36:23.55	37.57	2.63	-46.9	-61.7	3.6	1.51e+00	0	32	104	0	60	43727
2026-01-08 18:36:24.56	37.49	2.68	-46.8	-61.0	3.6	1.51e+00	0	32	104	0	60	40588
2026-01-08 18:36:25.57	37.40	2.74	-46.8	-60.8	3.6	1.51e+00	0	32	104	0	60	39442
2026-01-08 18:36:26.58	37.31	2.79	-46.8	-61.4	3.6	1.51e+00	0	32	104	0	60	42601
2026-01-08 18:36:27.59	37.22	2.84	-46.9	-61.7	3.6	1.51e+00	0	32	104	0	60	43989
2026-01-08 18:36:28.59	37.14	2.89	-46.8	-59.5	3.7	1.51e+00	0	32	104	0	60	33989
2026-01-08 18:36:29.60	37.05	2.94	-46.4	-55.7	5.7	7.01e-01	0	32	104	0	60	21990
2026-01-08 18:36:30.61	36.96	3.00	-45.9	-52.3	8.1	1.61e-01	0	32	0	1048576	60	14974
2026-01-08 18:36:31.62	36.87	3.05	-45.5	-50.9	9.7	2.71e-02	0	32	0	3145728	60	12693
2026-01-08 18:36:32.63	36.78	3.10	-46.7	-56.4	3.5	1.89e-01	20	32	0	5242880	60	23866
2026-01-08 18:36:33.64	36.69	3.15	-47.0	-61.9	3.6	1.51e+00	0	32	104	5242880	60	44934
2026-01-08 18:36:34.65	36.60	3.21	-45.0	-49.7	5.5	1.50e+00	0	32	104	5242880	60	11074
2026-01-08 18:36:35.66	36.51	3.26	-41.4	-43.2	17.8	1.31e-04	0	32	0	5242880	56	6589
2026-01-08 18:36:36.67	36.42	3.31	-46.8	-61.2	3.6	1.88e-03	15	32	104	7340032	60	41327
2026-01-08 18:36:37.68	36.33	3.36	-44.5	-48.5	5.8	1.51e+00	0	32	104	7340032	60	9587
2026-01-08 18:36:38.69	36.24	3.42	-41.9	-43.9	17.1	9.82e-02	0	32	0	7340032	58	6334
2026-01-08 18:36:39.70	36.15	3.47	-42.2	-44.4	16.9	0.00e+00	0	32	0	9437184	58	6707
2026-01-08 18:36:40.71	36.06	3.52	-42.0	-44.1	17.0	0.00e+00	0	32	0	10485760	58	6465
2026-01-08 18:36:41.72	35.96	3.57	-41.6	-43.5	17.6	0.00e+00	0	32	0	12582912	56	6818
2026-01-08 18:36:42.72	35.87	3.63	-41.4	-43.2	17.8	0.00e+00	0	32	0	14680064	56	6576
2026-01-08 18:36:43.73	35.78	3.68	-41.4	-43.3	17.8	0.00e+00	0	32	0	16777216	56	6616
2026-01-08 18:36:44.74	35.69	3.73	-41.3	-43.1	18.0	0.00e+00	0	32	0	18874368	56	6478
2026-01-08 18:36:45.75	35.59	3.79	-41.2	-42.9	18.3	0.00e+00	0	32	0	19922944	56	6335
2026-01-08 18:36:46.76	35.50	3.84	-41.2	-42.9	18.2	0.00e+00	0	32	0	22020096	56	6342
2026-01-08 18:36:47.77	35.41	3.89	-41.1	-42.8	18.4	0.00e+00	0	32	0	24117248	56	6290
2026-01-08 18:36:48.78	35.31	3.94	-41.0	-42.6	18.7	0.00e+00	0	32	0	26214400	56	6125
2026-01-08 18:36:49.79	35.22	4.00	-41.0	-42.6	18.5	0.00e+00	0	32	0	28311552	56	6172
2026-01-08 18:36:50.80	35.12	4.05	-40.9	-42.5	18.6	0.00e+00	0	32	0	29360128	56	6088
2026-01-08 18:36:51.81	35.02	4.10	-41.1	-42.8	18.4	0.00e+00	0	32	0	31457280	56	6252
2026-01-08 18:36:52.82	34.93	4.16	-41.0	-42.7	18.4	0.00e+00	0	32	0	33554432	56	6196
2026-01-08 18:36:53.83	34.83	4.21	-41.0	-42.7	18.5	0.00e+00	0	33	0	35651584	56	6179
2026-01-08 18:36:54.84	34.74	4.26	-41.1	-42.7	18.6	0.00e+00	0	32	0	37748736	56	6200
2026-01-08 18:36:55.85	34.64	4.31	-41.0	-42.6	18.6	0.00e+00	0	32	0	38797312	56	6128
2026-01-08 18:36:56.85	34.54	4.37	-41.0	-42.7	18.5	0.00e+00	0	32	0	40894464	56	6179
2026-01-08 18:36:57.86	34.44	4.42	-41.1	-42.7	18.5	0.00e+00	0	32	0	42991616	56	6223
2026-01-08 18:36:58.87	34.35	4.47	-41.0	-42.7	18.6	0.00e+00	0	32	0	45088768	56	6178
2026-01-08 18:36:59.88	34.25	4.53	-41.1	-42.8	18.4	0.00e+00	0	32	0	47185920	56	6263
2026-01-08 18:37:00.89	34.15	4.58	-41.3	-43.1	18.2	0.00e+00	0	32	0	48234496	56	6491
2026-01-08 18:37:01.90	34.05	4.63	-41.3	-43.0	18.2	0.00e+00	0	32	0	50331648	56	6433
2026-01-08 18:37:02.91	33.95	4.69	-41.1	-42.8	18.2	0.00e+00	0	32	0	52428800	56	6288
2026-01-08 18:37:03.92	33.85	4.74	-41.3	-43.0	18.2	0.00e+00	0	32	0	54525952	56	6461
2026-01-08 18:37:04.93	33.75	4.79	-41.3	-43.0	18.1	0.00e+00	0	32	0	56623104	56	6446
2026-01-08 18:37:05.94	33.65	4.85	-41.2	-42.9	18.4	0.00e+00	0	32	0	57671680	56	6336
2026-01-08 18:37:06.95	33.55	4.90	-41.2	-42.9	18.4	0.00e+00	0	32	0	59768832	56	6385
2026-01-08 18:37:07.95	33.45	4.95	-41.4	-43.1	18.3	0.00e+00	0	32	0	61865984	56	6518
2026-01-08 18:37:08.96	33.34	5.01	-41.5	-43.3	18.1	0.00e+00	0	32	0	63963136	56	6620
2026-01-08 18:37:09.97	33.24	5.06	-41.5	-43.2	18.2	0.00e+00	0	32	0	66060288	56	6602
2026-01-08 18:37:10.98	33.14	5.11	-41.4	-43.2	18.1	0.00e+00	0	32	0	67108864	56	6587
2026-01-08 18:37:11.99	33.03	5.17	-41.6	-43.4	18.1	0.00e+00	0	32	0	69206016	56	6696
2026-01-08 18:37:13.00	32.93	5.22	-41.4	-43.1	18.2	0.00e+00	0	32	0	71303168	56	6526
2026-01-08 18:37:14.01	32.83	5.27	-41.5	-43.3	18.1	0.00e+00	0	32	0	73400320	56	6687
2026-01-08 18:37:15.02	32.72	5.33	-41.3	-43.1	18.3	0.00e+00	0	32	0	75497472	56	6507
2026-01-08 18:37:16.03	32.62	5.38	-41.3	-43.0	18.4	0.00e+00	0	32	0	77594624	56	6415
2026-01-08 18:37:17.04	32.51	5.43	-41.2	-42.9	18.5	0.00e+00	0	32	0	78643200	56	6378
2026-01-08 18:37:18.05	32.41	5.49	-40.9	-42.5	18.9	0.00e+00	0	32	0	80740352	56	6041
2026-01-08 18:37:19.05	32.30	5.54	-40.9	-42.5	18.9	0.00e+00	0	32	0	82837504	56	6073
2026-01-08 18:37:20.06	32.20	5.59	-41.0	-42.6	18.8	0.00e+00	0	32	0	84934656	56	6112
2026-01-08 18:37:21.07	32.09	5.65	-40.9	-42.5	18.9	0.00e+00	0	32	0	87031808	56	6093
2026-01-08 18:37:22.08	31.98	5.70	-40.9	-42.5	18.7	0.00e+00	0	32	0	88080384	56	6102
2026-01-08 18:37:23.09	31.87	5.75	-41.0	-42.7	18.7	0.00e+00	0	32	0	90177536	56	6176
2026-01-08 18:37:24.10	31.77	5.81	-41.1	-42.7	18.7	0.00e+00	0	32	0	92274688	56	6225
2026-01-08 18:37:25.11	31.66	5.86	-41.1	-42.8	18.5	0.00e+00	0	32	0	94371840	56	6284
2026-01-08 18:37:26.12	31.55	5.92	-41.1	-42.8	18.6	0.00e+00	0	32	0	96468992	56	6271
2026-01-08 18:37:27.13	31.44	5.97	-40.7	-42.3	19.2	0.00e+00	0	32	0	97517568	56	5909
2026-01-08 18:37:28.14	31.33	6.02	-40.6	-42.1	19.2	0.00e+00	0	32	0	99614720	54	6482
2026-01-08 18:37:29.15	31.22	6.08	-40.5	-42.1	19.2	0.00e+00	0	32	0	101711872	54	6473
2026-01-08 18:37:30.16	31.11	6.13	-40.6	-42.2	19.1	0.00e+00	0	32	0	103809024	54	6550
2026-01-08 18:37:31.16	31.00	6.18	-40.6	-42.1	19.3	0.00e+00	0	32	0	105906176	54	6503
2026-01-08 18:37:32.18	30.89	6.24	-40.7	-42.2	19.2	0.00e+00	0	32	0	106954752	54	6570
2026-01-08 18:37:33.18	30.78	6.29	-40.8	-42.4	19.1	0.00e+00	0	32	0	109051904	54	6704
2026-01-08 18:37:34.19	30.66	6.35	-40.7	-42.2	19.2	0.00e+00	0	32	0	111149056	54	6601
2026-01-08 18:37:35.20	30.55	6.40	-40.6	-42.1	19.0	0.00e+00	0	32	0	113246208	54	6521
2026-01-08 18:37:36.21	30.44	6.45	-40.9	-42.5	18.9	0.00e+00	0	32	0	115343360	54	6816
2026-01-08 18:37:37.22	30.33	6.51	-40.7	-42.3	19.1	0.00e+00	0	32	0	116391936	54	6665
2026-01-08 18:37:38.23	30.21	6.56	-40.8	-42.4	19.0	0.00e+00	0	32	0	118489088	54	6720
2026-01-08 18:37:39.24	30.10	6.61	-40.9	-42.4	19.1	0.00e+00	0	32	0	120586240	54	6768
2026-01-08 18:37:40.25	29.98	6.67	-40.4	-41.9	19.6	0.00e+00	0	32	0	122683392	54	6362
2026-01-08 18:37:41.26	29.87	6.72	-40.6	-42.1	19.3	0.00e+00	0	32	0	124780544	54	6507
2026-01-08 18:37:42.27	29.75	6.78	-40.6	-42.1	19.3	0.00e+00	0	32	0	125829120	54	6512
2026-01-08 18:37:43.28	29.64	6.83	-40.7	-42.3	19.1	0.00e+00	0	32	0	127926272	54	6664
2026-01-08 18:37:44.29	29.52	6.88	-40.9	-42.5	18.9	0.00e+00	0	32	0	130023424	54	6843
2026-01-08 18:37:45.30	29.40	6.94	-40.8	-42.4	19.0	0.00e+00	0	32	0	132120576	54	6761
2026-01-08 18:37:46.31	29.28	6.99	-40.9	-42.6	18.9	0.00e+00	0	32	0	134217728	54	6864
2026-01-08 18:37:47.32	29.17	7.04	-40.8	-42.3	19.1	0.00e+00	0	32	0	135266304	54	6682
2026-01-08 18:37:48.33	29.05	7.10	-40.7	-42.3	19.1	0.00e+00	0	32	0	137363456	54	6650
2026-01-08 18:37:49.34	28.93	7.15	-40.5	-42.1	19.4	0.00e+00	0	32	0	139460608	54	6468
2026-01-08 18:37:50.35	28.81	7.21	-40.3	-41.7	19.7	0.00e+00	0	32	0	141557760	54	6193
2026-01-08 18:37:51.36	28.69	7.26	-40.1	-41.5	20.0	0.00e+00	0	32	0	143654912	54	6036
2026-01-08 18:37:52.37	28.57	7.31	-40.0	-41.3	20.1	0.00e+00	0	32	0	145752064	54	5958
2026-01-08 18:37:53.38	28.45	7.37	-40.0	-41.4	20.0	0.00e+00	0	32	0	146800640	54	5995
2026-01-08 18:37:54.39	28.33	7.42	-40.0	-41.3	20.2	0.00e+00	0	32	0	148897792	54	5933
2026-01-08 18:37:55.40	28.21	7.47	-39.9	-41.3	20.1	0.00e+00	0	32	0	150994944	54	5899
2026-01-08 18:37:56.41	28.09	7.53	-39.9	-41.2	20.1	0.00e+00	0	32	0	153092096	54	5890
2026-01-08 18:37:57.42	27.96	7.58	-39.8	-41.1	20.4	0.00e+00	0	32	0	155189248	52	6535
2026-01-08 18:37:58.42	27.84	7.64	-39.9	-41.2	20.2	0.00e+00	0	32	0	156237824	52	6593
2026-01-08 18:37:59.43	27.72	7.69	-39.6	-40.9	20.6	0.00e+00	0	32	0	158334976	52	6348
2026-01-08 18:38:00.44	27.59	7.74	-39.7	-41.0	20.4	0.00e+00	0	32	0	160432128	52	6397
2026-01-08 18:38:01.45	27.47	7.80	-39.6	-40.8	20.3	0.00e+00	0	32	0	162529280	52	6311
2026-01-08 18:38:02.46	27.35	7.85	-39.7	-41.0	19.9	0.00e+00	0	32	0	164626432	52	6449
2026-01-08 18:38:03.47	27.22	7.90	-39.7	-41.0	20.2	0.00e+00	0	32	0	165675008	52	6413
2026-01-08 18:38:04.48	27.09	7.96	-39.8	-41.1	20.3	0.00e+00	0	32	0	167772160	52	6488
2026-01-08 18:38:05.48	26.97	8.01	-39.9	-41.2	20.4	0.00e+00	0	32	0	169869312	52	6558
2026-01-08 18:38:06.49	26.84	8.06	-39.7	-41.0	20.5	0.00e+00	0	32	0	171966464	52	6447
2026-01-08 18:38:07.50	26.72	8.12	-39.5	-40.7	20.6	0.00e+00	0	32	0	174063616	52	6228
2026-01-08 18:38:08.51	26.59	8.17	-39.6	-40.8	20.6	0.00e+00	0	32	0	175112192	52	6310
2026-01-08 18:38:09.52	26.46	8.22	-39.9	-41.2	20.3	0.00e+00	0	32	0	177209344	52	6562
2026-01-08 18:38:10.53	26.33	8.28	-39.7	-41.0	20.3	0.00e+00	0	32	0	179306496	52	6449
2026-01-08 18:38:11.54	26.20	8.33	-40.2	-41.6	20.0	0.00e+00	0	32	0	181403648	52	6858
2026-01-08 18:38:12.55	26.07	8.38	-40.3	-41.7	19.9	0.00e+00	0	32	0	183500800	52	6942
2026-01-08 18:38:13.56	25.94	8.44	-40.4	-41.9	19.8	0.00e+00	0	32	0	184549376	52	7092
2026-01-08 18:38:14.57	25.81	8.49	-40.4	-41.8	19.7	0.00e+00	0	32	0	186646528	52	7024
2026-01-08 18:38:15.58	25.68	8.54	-40.2	-41.5	20.0	0.00e+00	0	33	0	188743680	52	6819
2026-01-08 18:38:16.59	25.55	8.60	-40.1	-41.4	20.1	0.00e+00	0	32	0	190840832	52	6744
2026-01-08 18:38:17.60	25.42	8.65	-40.0	-41.3	20.3	0.00e+00	0	32	0	192937984	52	6649
2026-01-08 18:38:18.61	25.29	8.70	-40.0	-41.3	20.1	0.00e+00	0	32	0	193986560	52	6641
2026-01-08 18:38:19.62	25.15	8.76	-40.0	-41.3	20.2	0.00e+00	0	33	0	196083712	52	6646
2026-01-08 18:38:20.63	25.02	8.81	-39.9	-41.3	20.2	0.00e+00	0	32	0	198180864	52	6616
2026-01-08 18:38:21.64	24.88	8.86	-39.9	-41.2	20.4	0.00e+00	0	32	0	200278016	52	6615
2026-01-08 18:38:22.64	24.75	8.92	-40.1	-41.4	20.1	0.00e+00	0	32	0	202375168	52	6711
2026-01-08 18:38:23.65	24.62	8.97	-40.0	-41.3	20.2	0.00e+00	0	32	0	203423744	52	6649
2026-01-08 18:38:24.66	24.48	9.02	-39.9	-41.2	20.3	0.00e+00	0	32	0	205520896	52	6589
2026-01-08 18:38:25.67	24.35	9.08	-39.9	-41.2	20.2	0.00e+00	0	32	0	207618048	52	6591
2026-01-08 18:38:26.68	24.21	9.13	-40.0	-41.3	20.2	0.00e+00	0	32	0	209715200	52	6658
2026-01-08 18:38:27.69	24.07	9.18	-39.9	-41.2	20.3	0.00e+00	0	32	0	211812352	52	6573
2026-01-08 18:38:28.70	23.93	9.23	-39.7	-41.0	20.6	0.00e+00	0	32	0	213909504	52	6393
2026-01-08 18:38:29.71	23.80	9.29	-39.7	-40.9	20.6	0.00e+00	0	32	0	214958080	52	6371
2026-01-08 18:38:30.71	23.66	9.34	-39.6	-40.9	20.6	0.00e+00	0	32	0	217055232	52	6331
2026-01-08 18:38:31.72	23.52	9.39	-39.6	-40.9	20.7	0.00e+00	0	32	0	219152384	52	6349
2026-01-08 18:38:32.73	23.38	9.44	-39.8	-41.0	20.5	0.00e+00	0	32	0	221249536	52	6460
2026-01-08 18:38:33.74	23.24	9.50	-39.9	-41.2	20.4	0.00e+00	0	32	0	222298112	52	6573
2026-01-08 18:38:34.75	23.10	9.55	-39.8	-41.0	20.5	0.00e+00	0	32	0	224395264	52	6449
2026-01-08 18:38:35.76	22.96	9.60	-39.9	-41.2	20.3	0.00e+00	0	32	0	226492416	52	6574
2026-01-08 18:38:36.77	22.82	9.65	-39.4	-40.6	20.8	0.00e+00	0	32	0	228589568	52	6141
2026-01-08 18:38:37.78	22.67	9.71	-39.4	-40.6	20.7	0.00e+00	0	32	0	230686720	52	6160
2026-01-08 18:38:38.79	22.53	9.76	-39.5	-40.8	20.8	0.00e+00	0	32	0	231735296	52	6255
2026-01-08 18:38:39.79	22.39	9.81	-39.5	-40.8	20.8	0.00e+00	0	32	0	233832448	52	6248
2026-01-08 18:38:40.80	22.25	9.86	-39.8	-41.1	20.4	0.00e+00	0	32	0	235929600	52	6533
2026-01-08 18:38:41.81	22.10	9.92	-40.0	-41.3	20.3	0.00e+00	0	33	0	238026752	52	6663
2026-01-08 18:38:42.82	21.96	9.97	-40.1	-41.5	20.1	0.00e+00	0	32	0	240123904	52	6820
2026-01-08 18:38:43.83	21.81	10.02	-40.1	-41.5	20.0	0.00e+00	0	32	0	242221056	52	6814
2026-01-08 18:38:44.84	21.67	10.07	-40.2	-41.6	20.1	0.00e+00	0	32	0	243269632	52	6851
2026-01-08 18:38:45.85	21.52	10.12	-40.1	-41.4	20.2	0.00e+00	0	32	0	245366784	52	6760
2026-01-08 18:38:46.85	21.37	10.17	-39.9	-41.2	20.3	0.00e+00	0	32	0	247463936	52	6575
2026-01-08 18:38:47.86	21.23	10.23	-39.9	-41.3	20.3	0.00e+00	0	32	0	249561088	52	6618
2026-01-08 18:38:48.87	21.08	10.28	-40.1	-41.5	20.1	0.00e+00	0	32	0	251658240	52	6815
2026-01-08 18:38:49.88	20.93	10.33	-40.1	-41.5	20.1	0.00e+00	0	32	0	252706816	52	6817
2026-01-08 18:38:50.89	20.78	10.38	-40.2	-41.6	20.0	0.00e+00	0	32	0	254803968	52	6878
2026-01-08 18:38:51.89	20.63	10.43	-40.1	-41.5	20.1	0.00e+00	0	32	0	256901120	52	6801
2026-01-08 18:38:52.90	20.48	10.48	-40.1	-41.4	20.3	0.00e+00	0	32	0	258998272	52	6707
2026-01-08 18:38:53.91	20.33	10.53	-39.8	-41.1	20.6	0.00e+00	0	32	0	261095424	52	6521
2026-01-08 18:38:54.92	20.18	10.58	-39.7	-40.9	20.6	0.00e+00	0	32	0	262144000	52	6372
2026-01-08 18:38:55.93	20.03	10.64	-39.4	-40.6	21.0	0.00e+00	0	32	0	264241152	52	6151
2026-01-08 18:38:56.94	19.88	10.69	-39.5	-40.7	20.8	0.00e+00	0	32	0	266338304	52	6199
2026-01-08 18:38:57.95	19.73	10.74	-39.4	-40.6	21.0	0.00e+00	0	32	0	268435456	52	6164
2026-01-08 18:38:58.96	19.57	10.79	-39.1	-40.3	21.1	0.00e+00	0	32	0	270532608	52	5933
2026-01-08 18:38:59.97	19.42	10.84	-39.2	-40.4	21.1	0.00e+00	0	32	0	271581184	52	5989
2026-01-08 18:39:00.98	19.26	10.89	-39.2	-40.4	21.2	0.00e+00	0	32	0	273678336	52	5988
2026-01-08 18:39:01.98	19.11	10.94	-38.9	-40.0	21.4	0.00e+00	0	32	0	275775488	52	5739
2026-01-08 18:39:02.99	18.95	10.99	-38.7	-39.9	21.6	0.00e+00	0	32	0	277872640	52	5644
2026-01-08 18:39:04.00	18.80	11.04	-38.6	-39.7	21.7	0.00e+00	0	33	0	279969792	50	6244
2026-01-08 18:39:05.01	18.64	11.09	-38.5	-39.6	21.7	0.00e+00	0	32	0	281018368	50	6120
2026-01-08 18:39:06.02	18.49	11.14	-38.6	-39.7	21.3	0.00e+00	0	32	0	283115520	50	6219
2026-01-08 18:39:07.03	18.33	11.19	-38.6	-39.7	21.6	0.00e+00	0	32	0	285212672	50	6227
2026-01-08 18:39:08.04	18.17	11.24	-38.6	-39.8	21.7	0.00e+00	0	32	0	287309824	50	6249
2026-01-08 18:39:09.05	18.01	11.29	-38.4	-39.5	21.8	0.00e+00	0	32	0	289406976	50	6064
2026-01-08 18:39:10.06	17.85	11.34	-38.3	-39.4	21.9	0.00e+00	0	32	0	290455552	50	5983
2026-01-08 18:39:11.07	17.69	11.39	-37.9	-38.9	22.3	0.00e+00	0	32	0	292552704	50	5666
2026-01-08 18:39:12.08	17.53	11.44	-37.9	-38.9	22.4	0.00e+00	0	32	0	294649856	50	5691
2026-01-08 18:39:13.09	17.37	11.49	-37.6	-38.6	22.6	0.00e+00	0	32	0	296747008	48	6132
2026-01-08 18:39:14.10	17.21	11.54	-37.6	-38.6	22.5	0.00e+00	0	32	0	298844160	48	6132
2026-01-08 18:39:15.11	17.05	11.59	-37.7	-38.6	22.5	0.00e+00	0	32	0	299892736	48	6169
2026-01-08 18:39:16.12	16.88	11.63	-37.8	-38.8	22.4	0.00e+00	0	32	0	301989888	48	6304
2026-01-08 18:39:17.12	16.72	11.68	-37.9	-38.9	22.4	0.00e+00	0	32	0	304087040	48	6380
2026-01-08 18:39:18.13	16.56	11.73	-38.1	-39.1	22.3	0.00e+00	0	32	0	306184192	48	6510
2026-01-08 18:39:19.14	16.39	11.78	-37.9	-39.0	22.1	0.00e+00	0	32	0	308281344	48	6408
2026-01-08 18:39:20.15	16.23	11.83	-38.2	-39.3	22.1	0.00e+00	0	32	0	310378496	48	6619
2026-01-08 18:39:21.16	16.06	11.88	-38.1	-39.1	22.2	0.00e+00	0	33	0	311427072	48	6522
2026-01-08 18:39:22.17	15.90	11.92	-38.1	-39.1	22.2	0.00e+00	0	32	0	313524224	48	6519
2026-01-08 18:39:23.18	15.73	11.97	-38.0	-39.1	22.2	0.00e+00	0	33	0	315621376	48	6487
2026-01-08 18:39:24.19	15.56	12.02	-38.0	-39.0	22.1	0.00e+00	0	32	0	317718528	48	6447
2026-01-08 18:39:25.20	15.40	12.07	-38.0	-39.0	22.3	0.00e+00	0	32	0	319815680	48	6454
2026-01-08 18:39:26.21	15.23	12.11	-37.9	-38.9	22.4	0.00e+00	0	32	0	320864256	48	6376
2026-01-08 18:39:27.22	15.06	12.16	-37.8	-38.9	22.4	0.00e+00	0	32	0	322961408	48	6335
2026-01-08 18:39:28.23	14.89	12.21	-37.7	-38.7	22.6	0.00e+00	0	33	0	325058560	48	6217
2026-01-08 18:39:29.24	14.72	12.26	-37.7	-38.7	22.5	0.00e+00	0	32	0	327155712	48	6210
2026-01-08 18:39:30.25	14.55	12.30	-37.6	-38.5	22.6	0.00e+00	0	32	0	329252864	48	6092
2026-01-08 18:39:31.26	14.38	12.35	-37.6	-38.6	22.6	0.00e+00	0	32	0	330301440	48	6149
2026-01-08 18:39:32.26	14.21	12.40	-37.9	-38.9	22.5	0.00e+00	0	32	0	332398592	48	6327
2026-01-08 18:39:33.27	14.04	12.44	-37.8	-38.8	22.6	0.00e+00	0	32	0	334495744	48	6268
2026-01-08 18:39:34.28	13.87	12.49	-37.4	-38.4	22.9	0.00e+00	0	33	0	336592896	48	6003
2026-01-08 18:39:35.29	13.69	12.53	-37.5	-38.5	22.7	0.00e+00	0	32	0	338690048	48	6058
2026-01-08 18:39:36.30	13.52	12.58	-37.6	-38.5	22.7	0.00e+00	0	32	0	339738624	48	6092
2026-01-08 18:39:37.31	13.35	12.63	-37.8	-38.8	22.5	0.00e+00	0	33	0	341835776	48	6272
2026-01-08 18:39:38.32	13.17	12.67	-37.8	-38.8	22.5	0.00e+00	0	32	0	343932928	48	6307
2026-01-08 18:39:39.33	13.00	12.72	-37.9	-38.9	22.4	0.00e+00	0	32	0	346030080	48	6385
2026-01-08 18:39:40.33	12.82	12.76	-38.0	-39.0	22.3	0.00e+00	0	33	0	348127232	48	6464
2026-01-08 18:39:41.34	12.64	12.81	-38.0	-39.0	22.4	0.00e+00	0	32	0	349175808	48	6431
2026-01-08 18:39:42.35	12.47	12.85	-37.6	-38.6	22.8	0.00e+00	0	32	0	351272960	48	6131
2026-01-08 18:39:43.36	12.29	12.90	-37.2	-38.1	23.1	0.00e+00	0	32	0	353370112	48	5828
2026-01-08 18:39:44.37	12.11	12.94	-36.9	-37.8	23.4	0.00e+00	0	32	0	355467264	48	5574
2026-01-08 18:39:45.38	11.93	12.98	-36.8	-37.6	23.4	0.00e+00	0	32	0	357564416	48	5494
2026-01-08 18:39:46.39	11.75	13.03	-36.8	-37.7	23.5	0.00e+00	0	32	0	358612992	46	6186
2026-01-08 18:39:47.40	11.58	13.07	-36.8	-37.7	23.5	0.00e+00	0	32	0	360710144	46	6180
2026-01-08 18:39:48.41	11.40	13.12	-36.8	-37.7	23.4	0.00e+00	0	32	0	362807296	46	6208
2026-01-08 18:39:49.42	11.21	13.16	-36.7	-37.6	23.5	0.00e+00	0	32	0	364904448	46	6134
2026-01-08 18:39:50.42	11.03	13.20	-36.9	-37.8	23.5	0.00e+00	0	32	0	367001600	46	6262
2026-01-08 18:39:51.43	10.85	13.24	-36.7	-37.6	23.5	0.00e+00	0	32	0	368050176	46	6172
2026-01-08 18:39:52.44	10.67	13.29	-36.7	-37.6	23.5	0.00e+00	0	32	0	370147328	46	6129
2026-01-08 18:39:53.45	10.49	13.33	-37.0	-37.9	23.2	0.00e+00	0	33	0	372244480	46	6376
2026-01-08 18:39:54.46	10.30	13.37	-37.3	-38.2	22.8	0.00e+00	0	32	0	374341632	46	6588
2026-01-08 18:39:55.47	10.12	13.41	-37.5	-38.5	22.6	0.00e+00	0	32	0	376438784	46	6814
2026-01-08 18:39:56.48	9.94	13.46	-37.8	-38.9	22.6	0.00e+00	0	33	0	377487360	48	6332
2026-01-08 18:39:57.49	9.75	13.50	-38.1	-39.1	22.3	0.00e+00	0	33	0	379584512	48	6533
2026-01-08 18:39:58.50	9.57	13.54	-38.0	-39.1	22.3	0.00e+00	0	33	0	381681664	48	6477
2026-01-08 18:39:59.51	9.38	13.58	-37.7	-38.7	22.6	0.00e+00	0	33	0	383778816	48	6212
2026-01-08 18:40:00.51	9.20	13.62	-37.8	-38.8	22.5	0.00e+00	0	32	0	385875968	48	6288
2026-01-08 18:40:01.52	9.01	13.66	-37.5	-38.4	22.9	0.00e+00	0	33	0	386924544	48	6008
2026-01-08 18:40:02.53	8.82	13.70	-37.7	-38.7	22.7	0.00e+00	0	33	0	389021696	48	6237
2026-01-08 18:40:03.54	8.63	13.74	-37.6	-38.6	22.8	0.00e+00	0	33	0	391118848	48	6160
2026-01-08 18:40:04.55	8.44	13.78	-37.8	-38.8	22.6	0.00e+00	0	33	0	393216000	48	6268
2026-01-08 18:40:05.56	8.25	13.82	-37.9	-39.0	22.3	0.00e+00	0	33	0	395313152	48	6394
2026-01-08 18:40:06.57	8.06	13.86	-38.1	-39.1	22.3	0.00e+00	0	33	0	396361728	48	6508
2026-01-08 18:40:07.58	7.87	13.90	-38.0	-39.0	22.5	0.00e+00	0	33	0	398458880	48	6430
2026-01-08 18:40:08.59	7.68	13.94	-37.8	-38.8	22.5	0.00e+00	0	32	0	400556032	48	6296
2026-01-08 18:40:09.59	7.49	13.98	-37.8	-38.9	22.4	0.00e+00	0	32	0	402653184	48	6343
2026-01-08 18:40:10.60	7.30	14.02	-37.9	-38.9	22.6	0.00e+00	0	32	0	404750336	48	6357
2026-01-08 18:40:11.61	7.11	14.05	-37.9	-38.9	22.6	0.00e+00	0	33	0	406847488	48	6352
2026-01-08 18:40:12.62	6.92	14.09	-37.8	-38.8	22.6	0.00e+00	0	32	0	407896064	48	6279
2026-01-08 18:40:13.63	6.73	14.13	-37.4	-38.4	23.1	0.00e+00	0	32	0	409993216	48	5971
2026-01-08 18:40:14.64	6.53	14.17	-37.3	-38.3	22.9	0.00e+00	0	32	0	412090368	48	5918
2026-01-08 18:40:15.65	6.34	14.20	-37.4	-38.3	23.0	0.00e+00	0	32	0	414187520	48	5930
2026-01-08 18:40:16.66	6.14	14.24	-37.0	-37.9	23.3	0.00e+00	0	33	0	416284672	48	5689
2026-01-08 18:40:17.67	5.95	14.28	-37.1	-38.0	23.2	0.00e+00	0	32	0	417333248	48	5749
2026-01-08 18:40:18.68	5.75	14.31	-37.3	-38.3	23.0	0.00e+00	0	32	0	419430400	48	5903
2026-01-08 18:40:19.69	5.56	14.35	-37.4	-38.4	22.9	0.00e+00	0	32	0	421527552	48	5993
2026-01-08 18:40:20.70	5.36	14.39	-37.6	-38.6	22.8	0.00e+00	0	32	0	423624704	48	6125
2026-01-08 18:40:21.71	5.16	14.42	-37.4	-38.3	23.0	0.00e+00	0	32	0	425721856	48	5950
2026-01-08 18:40:22.72	4.96	14.46	-37.2	-38.1	22.9	0.00e+00	0	33	0	426770432	48	5790
2026-01-08 18:40:23.72	4.77	14.49	-36.9	-37.8	23.3	0.00e+00	0	32	0	428867584	48	5622
2026-01-08 18:40:24.73	4.57	14.53	-37.0	-37.9	23.3	0.00e+00	0	32	0	430964736	48	5646
2026-01-08 18:40:25.74	4.37	14.56	-37.2	-38.2	23.1	0.00e+00	0	32	0	433061888	48	5853
2026-01-08 18:40:26.75	4.17	14.59	-37.6	-38.6	22.7	0.00e+00	0	33	0	435159040	48	6153
2026-01-08 18:40:27.76	3.97	14.63	-37.8	-38.8	22.5	0.00e+00	0	33	0	436207616	48	6316
2026-01-08 18:40:28.77	3.77	14.66	-37.7	-38.7	22.7	0.00e+00	0	33	0	438304768	48	6185
2026-01-08 18:40:29.78	3.57	14.69	-37.5	-38.5	22.9	0.00e+00	0	32	0	440401920	48	6087
2026-01-08 18:40:30.79	3.37	14.73	-37.5	-38.6	22.8	0.00e+00	0	32	0	442499072	48	6107
2026-01-08 18:40:31.80	3.17	14.76	-37.2	-38.2	23.2	0.00e+00	0	32	0	444596224	48	5837
2026-01-08 18:40:32.81	2.96	14.79	-37.1	-38.1	23.1	0.00e+00	0	32	0	445644800	48	5766
2026-01-08 18:40:33.82	2.76	14.82	-37.0	-37.9	23.3	0.00e+00	0	33	0	447741952	48	5667
2026-01-08 18:40:34.83	2.56	14.86	-36.8	-37.7	23.4	0.00e+00	0	32	0	449839104	48	5562
2026-01-08 18:40:35.83	2.36	14.89	-36.8	-37.7	22.7	0.00e+00	0	32	0	451936256	48	5539
2026-01-08 18:40:36.84	2.15	14.92	-36.7	-37.6	23.3	0.00e+00	0	32	0	454033408	46	6154
2026-01-08 18:40:37.85	1.95	14.95	-36.6	-37.4	23.8	0.00e+00	0	32	0	455081984	46	5999
2026-01-08 18:40:38.86	1.74	14.98	-36.5	-37.3	23.8	0.00e+00	0	32	0	457179136	46	5960
2026-01-08 18:40:39.87	1.54	15.01	-36.3	-37.1	23.9	0.00e+00	0	32	0	459276288	46	5820
2026-01-08 18:40:40.88	1.33	15.04	-36.4	-37.2	23.9	0.00e+00	0	32	0	461373440	46	5870
2026-01-08 18:40:41.89	1.13	15.07	-36.4	-37.3	23.8	0.00e+00	0	32	0	463470592	46	5931
2026-01-08 18:40:42.90	0.92	15.10	-36.8	-37.7	23.7	0.00e+00	0	32	0	464519168	46	6195
2026-01-08 18:40:43.91	0.71	15.12	-36.9	-37.8	23.4	0.00e+00	0	32	0	466616320	46	6295
2026-01-08 18:40:44.92	0.51	15.15	-36.8	-37.7	23.5	0.00e+00	0	32	0	468713472	46	6177
2026-01-08 18:40:45.93	0.30	15.18	-36.8	-37.7	23.5	0.00e+00	0	32	0	470810624	46	6192
2026-01-08 18:40:46.93	0.09	15.21	-36.8	-37.7	23.6	0.00e+00	0	32	0	472907776	46	6209
2026-01-08 18:40:47.94	359.89	15.23	-36.5	-37.3	23.8	0.00e+00	0	32	0	473956352	46	5935
2026-01-08 18:40:48.95	359.68	15.26	-36.6	-37.5	23.4	0.00e+00	0	32	0	476053504	46	6060
2026-01-08 18:40:49.96	359.47	15.29	-36.7	-37.6	23.5	0.00e+00	0	32	0	478150656	46	6122
2026-01-08 18:40:50.97	359.26	15.31	-37.1	-38.0	23.2	0.00e+00	0	32	0	480247808	46	6416
2026-01-08 18:40:51.98	359.05	15.34	-37.2	-38.1	23.1	0.00e+00	0	32	0	482344960	46	6531
2026-01-08 18:40:52.99	358.84	15.37	-37.5	-38.4	22.9	0.00e+00	0	32	0	483393536	46	6763
2026-01-08 18:40:54.00	358.63	15.39	-37.5	-38.4	22.9	0.00e+00	0	32	0	485490688	46	6763
2026-01-08 18:40:55.01	358.42	15.42	-37.5	-38.5	22.8	0.00e+00	0	32	0	487587840	46	6820
2026-01-08 18:40:56.01	358.21	15.44	-37.5	-38.5	22.9	0.00e+00	0	32	0	489684992	46	6781
2026-01-08 18:40:57.02	358.00	15.46	-37.4	-38.3	23.0	0.00e+00	0	32	0	491782144	46	6683
2026-01-08 18:40:58.03	357.78	15.49	-37.5	-38.5	22.9	0.00e+00	0	33	0	492830720	46	6810
2026-01-08 18:40:59.04	357.57	15.51	-37.6	-38.6	22.2	0.00e+00	0	32	0	494927872	46	6864
2026-01-08 18:41:00.05	357.36	15.53	-37.8	-38.8	22.6	0.00e+00	0	32	0	497025024	48	6265
2026-01-08 18:41:01.06	357.15	15.55	-37.8	-38.8	22.7	0.00e+00	0	32	0	499122176	48	6259
2026-01-08 18:41:02.07	356.93	15.58	-37.9	-39.0	22.5	0.00e+00	0	32	0	501219328	48	6393
2026-01-08 18:41:03.08	356.72	15.60	-37.6	-38.5	22.8	0.00e+00	0	32	0	503316480	48	6092
2026-01-08 18:41:04.09	356.50	15.62	-37.6	-38.6	22.8	0.00e+00	0	32	0	504365056	48	6118
2026-01-08 18:41:05.10	356.29	15.64	-37.3	-38.2	23.1	0.00e+00	0	33	0	506462208	48	5887
2026-01-08 18:41:06.11	356.08	15.66	-37.0	-37.9	23.2	0.00e+00	0	32	0	508559360	48	5668
2026-01-08 18:41:07.12	355.86	15.68	-37.1	-38.0	23.2	0.00e+00	0	32	0	510656512	48	5722
2026-01-08 18:41:08.12	355.65	15.70	-37.2	-38.2	23.1	0.00e+00	0	32	0	512753664	48	5832
2026-01-08 18:41:09.13	355.43	15.72	-37.4	-38.3	23.0	0.00e+00	0	33	0	513802240	48	5934
2026-01-08 18:41:10.14	355.22	15.74	-37.3	-38.3	23.1	0.00e+00	0	33	0	515899392	48	5920
2026-01-08 18:41:11.15	355.00	15.76	-36.9	-37.8	23.4	0.00e+00	0	32	0	517996544	48	5613
2026-01-08 18:41:12.16	354.78	15.78	-36.6	-37.5	23.5	0.00e+00	0	32	0	520093696	46	6083
2026-01-08 18:41:13.17	354.57	15.79	-36.5	-37.4	23.7	0.00e+00	0	32	0	522190848	46	5975
2026-01-08 18:41:14.18	354.35	15.81	-36.5	-37.3	23.8	0.00e+00	0	32	0	523239424	46	5950
2026-01-08 18:41:15.19	354.13	15.83	-36.6	-37.5	23.7	0.00e+00	0	33	0	525336576	46	6043
2026-01-08 18:41:16.20	353.92	15.84	-36.6	-37.5	23.6	0.00e+00	0	32	0	527433728	46	6051
2026-01-08 18:41:17.21	353.70	15.86	-36.8	-37.6	23.5	0.00e+00	0	32	0	529530880	46	6166
2026-01-08 18:41:18.22	353.48	15.88	-37.1	-38.0	23.3	0.00e+00	0	32	0	531628032	46	6415
2026-01-08 18:41:19.22	353.27	15.89	-36.9	-37.8	23.5	0.00e+00	0	32	0	532676608	46	6284
2026-01-08 18:41:20.23	353.05	15.91	-36.9	-37.7	23.5	0.00e+00	0	33	0	534773760	46	6239
2026-01-08 18:41:21.24	352.83	15.92	-37.0	-38.0	23.4	0.00e+00	0	32	0	536870912	46	6391
2026-01-08 18:41:22.25	352.61	15.93	-37.1	-38.0	23.2	0.00e+00	0	32	0	538968064	46	6443
2026-01-08 18:41:23.26	352.39	15.95	-37.2	-38.1	23.2	0.00e+00	0	32	0	541065216	46	6503
2026-01-08 18:41:24.27	352.17	15.96	-37.2	-38.2	23.1	0.00e+00	0	32	0	542113792	46	6552
2026-01-08 18:41:25.27	351.96	15.97	-37.5	-38.5	23.0	0.00e+00	0	32	0	544210944	46	6793
2026-01-08 18:41:26.28	351.74	15.99	-37.5	-38.5	22.9	0.00e+00	0	32	0	546308096	46	6779
2026-01-08 18:41:27.29	351.52	16.00	-37.8	-38.8	22.6	0.00e+00	0	33	0	548405248	48	6257
2026-01-08 18:41:28.30	351.30	16.01	-37.8	-38.8	22.7	0.00e+00	0	33	0	550502400	48	6311
2026-01-08 18:41:29.31	351.08	16.02	-37.8	-38.8	22.6	0.00e+00	0	33	0	551550976	48	6287
2026-01-08 18:41:30.32	350.86	16.03	-37.8	-38.8	22.6	0.00e+00	0	32	0	553648128	48	6267
2026-01-08 18:41:31.33	350.64	16.04	-37.9	-38.9	22.5	0.00e+00	0	32	0	555745280	48	6381
2026-01-08 18:41:32.34	350.42	16.05	-37.8	-38.9	22.6	0.00e+00	0	32	0	557842432	48	6326
2026-01-08 18:41:33.35	350.20	16.06	-37.8	-38.8	22.6	0.00e+00	0	33	0	559939584	48	6254
2026-01-08 18:41:34.36	349.98	16.07	-37.7	-38.7	22.7	0.00e+00	0	32	0	560988160	48	6210
2026-01-08 18:41:35.37	349.75	16.08	-37.7	-38.7	22.8	0.00e+00	0	33	0	563085312	48	6205
2026-01-08 18:41:36.38	349.53	16.09	-37.8	-38.8	22.5	0.00e+00	0	33	0	565182464	48	6260
2026-01-08 18:41:37.39	349.31	16.09	-37.6	-38.6	22.8	0.00e+00	0	32	0	567279616	48	6111
2026-01-08 18:41:38.40	349.09	16.10	-37.6	-38.5	22.8	0.00e+00	0	32	0	569376768	48	6095
2026-01-08 18:41:39.40	348.87	16.11	-37.6	-38.6	22.8	0.00e+00	0	32	0	571473920	48	6116
2026-01-08 18:41:40.41	348.65	16.12	-37.5	-38.5	22.9	0.00e+00	0	33	0	572522496	48	6050
2026-01-08 18:41:41.42	348.43	16.12	-37.4	-38.3	23.0	0.00e+00	0	32	0	574619648	48	5948
2026-01-08 18:41:42.43	348.21	16.13	-37.3	-38.2	23.1	0.00e+00	0	32	0	576716800	48	5865
2026-01-08 18:41:43.44	347.99	16.13	-37.2	-38.1	23.1	0.00e+00	0	33	0	578813952	48	5786
2026-01-08 18:41:44.45	347.76	16.14	-37.1	-38.1	23.1	0.00e+00	0	32	0	580911104	48	5766
2026-01-08 18:41:45.46	347.54	16.14	-37.3	-38.2	23.1	0.00e+00	0	33	0	581959680	48	5876
2026-01-08 18:41:46.47	347.32	16.14	-37.1	-38.0	23.1	0.00e+00	0	32	0	584056832	48	5752
2026-01-08 18:41:47.48	347.10	16.15	-37.2	-38.1	23.1	0.00e+00	0	32	0	586153984	48	5807
2026-01-08 18:41:48.49	346.88	16.15	-37.2	-38.2	23.2	0.00e+00	0	32	0	588251136	48	5861
2026-01-08 18:41:49.50	346.65	16.15	-37.5	-38.5	22.9	0.00e+00	0	32	0	590348288	48	6045
2026-01-08 18:41:50.51	346.43	16.16	-37.6	-38.6	22.7	0.00e+00	0	32	0	591396864	48	6167
2026-01-08 18:41:51.52	346.21	16.16	-37.6	-38.6	22.8	0.00e+00	0	32	0	593494016	48	6131
2026-01-08 18:41:52.53	345.99	16.16	-37.7	-38.7	22.6	0.00e+00	0	32	0	595591168	48	6191
2026-01-08 18:41:53.54	345.77	16.16	-37.7	-38.7	22.7	0.00e+00	0	32	0	597688320	48	6235
2026-01-08 18:41:54.55	345.54	16.16	-37.8	-38.8	22.6	0.00e+00	0	32	0	599785472	48	6287
2026-01-08 18:41:55.56	345.32	16.16	-38.0	-39.0	22.5	0.00e+00	0	32	0	600834048	48	6426
2026-01-08 18:41:56.57	345.10	16.16	-37.9	-38.9	22.5	0.00e+00	0	32	0	602931200	48	6343
2026-01-08 18:41:57.58	344.88	16.16	-38.1	-39.1	22.4	0.00e+00	0	32	0	605028352	48	6495
2026-01-08 18:41:58.59	344.66	16.16	-38.1	-39.1	22.3	0.00e+00	0	32	0	607125504	48	6496
2026-01-08 18:41:59.60	344.43	16.15	-37.6	-38.6	22.7	0.00e+00	0	32	0	609222656	48	6120
2026-01-08 18:42:00.61	344.21	16.15	-37.3	-38.2	23.0	0.00e+00	0	32	0	610271232	48	5886
2026-01-08 18:42:01.62	343.99	16.15	-37.2	-38.1	23.2	0.00e+00	0	32	0	612368384	48	5800
2026-01-08 18:42:02.63	343.77	16.15	-37.0	-37.9	23.3	0.00e+00	0	33	0	614465536	48	5689
2026-01-08 18:42:03.64	343.55	16.14	-37.0	-37.9	23.4	0.00e+00	0	32	0	616562688	48	5658
2026-01-08 18:42:04.65	343.32	16.14	-36.9	-37.8	23.4	0.00e+00	0	33	0	618659840	48	5604
2026-01-08 18:42:05.66	343.10	16.13	-37.1	-38.0	23.3	0.00e+00	0	33	0	619708416	48	5743
2026-01-08 18:42:06.67	342.88	16.13	-37.2	-38.1	23.1	0.00e+00	0	33	0	621805568	48	5810
2026-01-08 18:42:07.68	342.66	16.12	-37.3	-38.2	23.1	0.00e+00	0	32	0	623902720	48	5896
2026-01-08 18:42:08.69	342.44	16.12	-37.3	-38.3	23.0	0.00e+00	0	33	0	625999872	48	5902
2026-01-08 18:42:09.70	342.22	16.11	-37.5	-38.4	22.8	0.00e+00	0	32	0	628097024	48	6030
2026-01-08 18:42:10.71	342.00	16.11	-37.7	-38.7	21.8	0.00e+00	0	32	0	629145600	48	6194
2026-01-08 18:42:11.72	341.77	16.10	-37.9	-39.0	22.3	0.00e+00	0	32	0	631242752	48	6392
2026-01-08 18:42:12.73	341.55	16.09	-38.1	-39.1	22.4	0.00e+00	0	32	0	633339904	48	6503
2026-01-08 18:42:13.74	341.33	16.08	-38.2	-39.3	22.1	0.00e+00	0	32	0	635437056	48	6629
2026-01-08 18:42:14.75	341.11	16.07	-38.3	-39.4	22.2	0.00e+00	0	32	0	637534208	48	6734
2026-01-08 18:42:15.76	340.89	16.07	-38.3	-39.4	22.1	0.00e+00	0	32	0	639631360	48	6713
2026-01-08 18:42:16.77	340.67	16.06	-37.9	-38.9	22.5	0.00e+00	0	32	0	640679936	48	6356
2026-01-08 18:42:17.78	340.45	16.05	-38.0	-39.0	22.4	0.00e+00	0	32	0	642777088	48	6419
2026-01-08 18:42:18.78	340.23	16.04	-37.4	-38.4	22.9	0.00e+00	0	32	0	644874240	48	6001
2026-01-08 18:42:19.80	340.01	16.03	-37.3	-38.3	23.0	0.00e+00	0	32	0	646971392	48	5920
2026-01-08 18:42:20.81	339.79	16.02	-37.3	-38.2	23.1	0.00e+00	0	32	0	649068544	48	5894
2026-01-08 18:42:21.82	339.57	16.00	-37.3	-38.3	23.0	0.00e+00	0	32	0	650117120	48	5913
2026-01-08 18:42:22.82	339.35	15.99	-37.2	-38.1	23.1	0.00e+00	0	32	0	652214272	48	5808
2026-01-08 18:42:23.83	339.13	15.98	-37.1	-38.1	23.1	0.00e+00	0	32	0	654311424	48	5775
2026-01-08 18:42:24.84	338.91	15.97	-37.3	-38.3	23.1	0.00e+00	0	32	0	656408576	48	5902
2026-01-08 18:42:25.85	338.69	15.95	-37.3	-38.3	23.0	0.00e+00	0	32	0	658505728	48	5937
2026-01-08 18:42:26.87	338.47	15.94	-37.5	-38.4	22.9	0.00e+00	0	32	0	659554304	48	6016
2026-01-08 18:42:27.88	338.25	15.93	-37.5	-38.5	22.8	0.00e+00	0	32	0	661651456	48	6064
2026-01-08 18:42:28.88	338.04	15.91	-37.5	-38.5	22.8	0.00e+00	0	32	0	663748608	48	6094
2026-01-08 18:42:29.90	337.82	15.90	-37.4	-38.4	22.8	0.00e+00	0	32	0	665845760	48	6023
2026-01-08 18:42:30.90	337.60	15.88	-37.3	-38.2	23.2	0.00e+00	0	32	0	667942912	48	5878
2026-01-08 18:42:31.91	337.38	15.87	-36.8	-37.7	23.5	0.00e+00	0	32	0	668991488	48	5548
2026-01-08 18:42:32.92	337.16	15.85	-36.7	-37.6	23.6	0.00e+00	0	32	0	671088640	46	6119
2026-01-08 18:42:33.93	336.95	15.83	-36.3	-37.1	23.6	0.00e+00	0	32	0	673185792	46	5827
2026-01-08 18:42:34.94	336.73	15.82	-36.4	-37.3	23.7	0.00e+00	0	33	0	675282944	46	5909
2026-01-08 18:42:35.95	336.51	15.80	-36.3	-37.2	23.9	0.00e+00	0	32	0	677380096	46	5851
2026-01-08 18:42:36.96	336.30	15.78	-36.5	-37.3	23.6	0.00e+00	0	32	0	678428672	46	5951
2026-01-08 18:42:37.97	336.08	15.77	-36.8	-37.7	23.6	0.00e+00	0	32	0	680525824	46	6180
2026-01-08 18:42:38.98	335.86	15.75	-36.8	-37.7	23.4	0.00e+00	0	32	0	682622976	46	6234
2026-01-08 18:42:39.99	335.65	15.73	-37.0	-37.9	23.3	0.00e+00	0	32	0	684720128	46	6372
2026-01-08 18:42:41.00	335.43	15.71	-37.0	-37.9	23.4	0.00e+00	0	32	0	686817280	46	6343
2026-01-08 18:42:42.01	335.22	15.69	-37.2	-38.1	23.2	0.00e+00	0	32	0	687865856	46	6516
2026-01-08 18:42:43.02	335.00	15.67	-37.2	-38.1	23.1	0.00e+00	0	32	0	689963008	46	6519
2026-01-08 18:42:44.03	334.79	15.65	-37.2	-38.2	23.1	0.00e+00	0	32	0	692060160	46	6562
2026-01-08 18:42:45.04	334.57	15.63	-37.4	-38.4	22.9	0.00e+00	0	32	0	694157312	46	6701
2026-01-08 18:42:46.05	334.36	15.61	-37.3	-38.3	23.0	0.00e+00	0	32	0	696254464	46	6621
2026-01-08 18:42:47.06	334.14	15.59	-37.3	-38.2	23.0	0.00e+00	0	32	0	697303040	46	6584
2026-01-08 18:42:48.06	333.93	15.56	-37.6	-38.6	22.7	0.00e+00	0	32	0	699400192	46	6902
2026-01-08 18:42:49.07	333.72	15.54	-37.3	-38.2	23.0	0.00e+00	0	32	0	701497344	46	6592
2026-01-08 18:42:50.08	333.51	15.52	-37.4	-38.4	22.8	0.00e+00	0	32	0	703594496	46	6740
2026-01-08 18:42:51.09	333.29	15.50	-37.4	-38.4	22.9	0.00e+00	0	33	0	705691648	46	6693
2026-01-08 18:42:52.10	333.08	15.47	-37.4	-38.4	22.8	0.00e+00	0	32	0	707788800	46	6735
2026-01-08 18:42:53.11	332.87	15.45	-37.5	-38.5	22.8	0.00e+00	0	32	0	708837376	46	6820
2026-01-08 18:42:54.12	332.66	15.43	-37.5	-38.4	22.9	0.00e+00	0	32	0	710934528	46	6763
2026-01-08 18:42:55.13	332.45	15.40	-37.2	-38.2	23.1	0.00e+00	0	32	0	713031680	46	6554
2026-01-08 18:42:56.14	332.24	15.38	-37.0	-37.9	23.3	0.00e+00	0	32	0	715128832	46	6354
2026-01-08 18:42:57.15	332.03	15.35	-37.0	-37.9	23.3	0.00e+00	0	33	0	717225984	46	6341
2026-01-08 18:42:58.16	331.82	15.33	-37.0	-37.9	23.3	0.00e+00	0	32	0	718274560	46	6355
2026-01-08 18:42:59.17	331.61	15.30	-36.9	-37.8	23.3	0.00e+00	0	32	0	720371712	46	6291
2026-01-08 18:43:00.18	331.40	15.27	-37.0	-37.9	23.3	0.00e+00	0	32	0	722468864	46	6366
2026-01-08 18:43:01.18	331.19	15.25	-37.1	-38.0	23.2	0.00e+00	0	32	0	724566016	46	6438
2026-01-08 18:43:02.19	330.98	15.22	-37.0	-37.9	23.3	0.00e+00	0	32	0	726663168	46	6345
2026-01-08 18:43:03.20	330.77	15.19	-36.9	-37.8	23.4	0.00e+00	0	32	0	727711744	46	6259
2026-01-08 18:43:04.21	330.56	15.16	-36.8	-37.6	23.5	0.00e+00	0	32	0	729808896	46	6160
2026-01-08 18:43:05.22	330.36	15.14	-36.9	-37.7	23.5	0.00e+00	0	32	0	731906048	46	6230
2026-01-08 18:43:06.23	330.15	15.11	-36.9	-37.7	23.5	0.00e+00	0	32	0	734003200	46	6241
2026-01-08 18:43:07.24	329.94	15.08	-37.3	-38.2	23.0	0.00e+00	0	32	0	736100352	46	6581
2026-01-08 18:43:08.25	329.74	15.05	-37.4	-38.3	23.1	0.00e+00	0	32	0	737148928	46	6653
2026-01-08 18:43:09.26	329.53	15.02	-37.1	-38.1	23.3	0.00e+00	0	32	0	739246080	46	6467
2026-01-08 18:43:10.27	329.33	14.99	-37.3	-38.2	23.0	0.00e+00	0	32	0	741343232	46	6614
2026-01-08 18:43:11.28	329.12	14.96	-37.2	-38.1	23.1	0.00e+00	0	32	0	743440384	46	6517
2026-01-08 18:43:12.29	328.92	14.93	-37.5	-38.4	23.0	0.00e+00	0	32	0	745537536	46	6741
2026-01-08 18:43:13.30	328.71	14.90	-37.3	-38.2	23.1	0.00e+00	0	32	0	746586112	46	6586
2026-01-08 18:43:14.30	328.51	14.87	-37.6	-38.6	22.8	0.00e+00	0	32	0	748683264	46	6902
2026-01-08 18:43:15.31	328.31	14.84	-37.3	-38.3	23.1	0.00e+00	0	32	0	750780416	46	6631
2026-01-08 18:43:16.32	328.10	14.81	-37.5	-38.5	22.9	0.00e+00	0	32	0	752877568	46	6789
2026-01-08 18:43:17.33	327.90	14.77	-37.6	-38.5	22.8	0.00e+00	0	32	0	754974720	46	6840
2026-01-08 18:43:18.34	327.70	14.74	-37.9	-38.9	22.7	0.00e+00	0	32	0	756023296	48	6344
2026-01-08 18:43:19.34	327.50	14.71	-37.9	-38.9	22.6	0.00e+00	0	32	0	758120448	48	6359
2026-01-08 18:43:20.35	327.30	14.68	-38.0	-39.0	22.4	0.00e+00	0	32	0	760217600	48	6410
2026-01-08 18:43:21.36	327.10	14.64	-37.9	-38.9	22.6	0.00e+00	0	32	0	762314752	48	6380
2026-01-08 18:43:22.37	326.90	14.61	-37.9	-38.9	22.5	0.00e+00	0	32	0	764411904	48	6367
2026-01-08 18:43:23.38	326.70	14.58	-38.0	-39.0	22.5	0.00e+00	0	32	0	765460480	48	6415
2026-01-08 18:43:24.39	326.50	14.54	-37.8	-38.8	22.7	0.00e+00	0	32	0	767557632	48	6268
2026-01-08 18:43:25.40	326.30	14.51	-37.8	-38.8	22.6	0.00e+00	0	32	0	769654784	48	6257
2026-01-08 18:43:26.41	326.10	14.47	-37.7	-38.7	22.7	0.00e+00	0	33	0	771751936	48	6192
2026-01-08 18:43:27.41	325.90	14.44	-37.7	-38.7	22.5	0.00e+00	0	32	0	773849088	48	6198
2026-01-08 18:43:28.42	325.71	14.40	-37.7	-38.7	22.8	0.00e+00	0	32	0	774897664	48	6222
2026-01-08 18:43:29.43	325.51	14.37	-37.6	-38.5	22.9	0.00e+00	0	32	0	776994816	48	6090
2026-01-08 18:43:30.44	325.31	14.33	-37.5	-38.5	22.8	0.00e+00	0	32	0	779091968	48	6071
2026-01-08 18:43:31.45	325.12	14.29	-37.7	-38.7	22.7	0.00e+00	0	32	0	781189120	48	6185
2026-01-08 18:43:32.46	324.92	14.26	-37.4	-38.3	22.9	0.00e+00	0	33	0	783286272	48	5944
2026-01-08 18:43:33.47	324.73	14.22	-37.4	-38.3	23.1	0.00e+00	0	32	0	784334848	48	5933
2026-01-08 18:43:34.48	324.53	14.18	-37.1	-38.0	23.2	0.00e+00	0	32	0	786432000	48	5732
2026-01-08 18:43:35.49	324.34	14.15	-37.0	-37.9	23.3	0.00e+00	0	32	0	788529152	48	5643
2026-01-08 18:43:36.50	324.15	14.11	-36.8	-37.6	23.3	0.00e+00	0	32	0	790626304	46	6168
2026-01-08 18:43:37.51	323.95	14.07	-36.8	-37.7	23.4	0.00e+00	0	32	0	792723456	46	6194
2026-01-08 18:43:38.52	323.76	14.03	-37.0	-37.9	23.3	0.00e+00	0	32	0	793772032	46	6333
2026-01-08 18:43:39.52	323.57	13.99	-37.2	-38.1	23.0	0.00e+00	0	32	0	795869184	46	6519
2026-01-08 18:43:40.53	323.38	13.96	-37.5	-38.4	22.8	0.00e+00	0	32	0	797966336	46	6755
2026-01-08 18:43:41.54	323.19	13.92	-37.7	-38.6	22.7	0.00e+00	0	32	0	800063488	46	6908
2026-01-08 18:43:42.55	323.00	13.88	-37.6	-38.5	22.8	0.00e+00	0	32	0	802160640	46	6831
2026-01-08 18:43:43.56	322.81	13.84	-37.3	-38.3	23.0	0.00e+00	0	32	0	804257792	46	6647
2026-01-08 18:43:44.57	322.62	13.80	-37.3	-38.3	23.0	0.00e+00	0	32	0	805306368	46	6645
2026-01-08 18:43:45.58	322.43	13.76	-37.6	-38.6	22.7	0.00e+00	0	32	0	807403520	46	6908
2026-01-08 18:43:46.59	322.24	13.72	-37.8	-38.8	22.6	0.00e+00	0	32	0	809500672	48	6272
2026-01-08 18:43:47.60	322.05	13.68	-38.1	-39.2	22.3	0.00e+00	0	32	0	811597824	48	6597
2026-01-08 18:43:48.61	321.86	13.64	-38.2	-39.3	22.1	0.00e+00	0	32	0	813694976	48	6652
2026-01-08 18:43:49.62	321.68	13.60	-38.4	-39.5	22.1	0.00e+00	0	32	0	814743552	48	6787
2026-01-08 18:43:50.62	321.49	13.56	-38.7	-39.8	21.8	0.00e+00	0	32	0	816840704	48	7052
2026-01-08 18:43:51.63	321.31	13.51	-38.3	-39.3	22.2	0.00e+00	0	32	0	818937856	48	6664
2026-01-08 18:43:52.64	321.12	13.47	-38.3	-39.4	22.1	0.00e+00	0	32	0	821035008	48	6722
2026-01-08 18:43:53.65	320.94	13.43	-38.3	-39.4	22.1	0.00e+00	0	32	0	823132160	48	6721
2026-01-08 18:43:54.66	320.75	13.39	-37.9	-38.9	22.2	0.00e+00	0	32	0	824180736	48	6379
2026-01-08 18:43:55.67	320.57	13.35	-37.8	-38.8	22.5	0.00e+00	0	32	0	826277888	48	6287
2026-01-08 18:43:56.68	320.38	13.30	-37.8	-38.8	22.6	0.00e+00	0	32	0	828375040	48	6310
2026-01-08 18:43:57.69	320.20	13.26	-37.9	-39.0	22.5	0.00e+00	0	32	0	830472192	48	6395
2026-01-08 18:43:58.70	320.02	13.22	-37.8	-38.8	22.5	0.00e+00	0	32	0	832569344	48	6307
2026-01-08 18:43:59.71	319.84	13.18	-38.1	-39.2	22.4	0.00e+00	0	32	0	833617920	48	6560
2026-01-08 18:44:00.72	319.66	13.13	-37.9	-38.9	22.5	0.00e+00	0	32	0	835715072	48	6384
2026-01-08 18:44:01.73	319.48	13.09	-38.1	-39.2	22.3	0.00e+00	0	33	0	837812224	48	6564
2026-01-08 18:44:02.74	319.30	13.05	-38.1	-39.2	22.3	0.00e+00	0	32	0	839909376	48	6558
2026-01-08 18:44:03.75	319.12	13.00	-37.9	-39.0	22.4	0.00e+00	0	32	0	842006528	48	6403
2026-01-08 18:44:04.76	318.94	12.96	-38.2	-39.2	22.3	0.00e+00	0	32	0	843055104	48	6573
2026-01-08 18:44:05.77	318.76	12.91	-38.0	-39.1	22.4	0.00e+00	0	32	0	845152256	48	6475
2026-01-08 18:44:06.78	318.58	12.87	-38.2	-39.2	22.2	0.00e+00	0	32	0	847249408	48	6596
2026-01-08 18:44:07.79	318.40	12.82	-38.2	-39.2	22.2	0.00e+00	0	32	0	849346560	48	6572
2026-01-08 18:44:08.80	318.23	12.78	-38.5	-39.5	22.0	0.00e+00	0	32	0	851443712	48	6826
2026-01-08 18:44:09.81	318.05	12.73	-38.3	-39.4	22.1	0.00e+00	0	32	0	852492288	48	6714
2026-01-08 18:44:10.82	317.88	12.69	-38.3	-39.3	22.2	0.00e+00	0	32	0	854589440	48	6663
2026-01-08 18:44:11.83	317.70	12.64	-38.2	-39.2	22.2	0.00e+00	0	32	0	856686592	48	6595
2026-01-08 18:44:12.83	317.53	12.60	-37.8	-38.8	22.6	0.00e+00	0	32	0	858783744	48	6279
2026-01-08 18:44:13.84	317.35	12.55	-37.7	-38.6	22.7	0.00e+00	0	32	0	860880896	48	6170
2026-01-08 18:44:14.85	317.18	12.51	-37.7	-38.6	22.7	0.00e+00	0	32	0	861929472	48	6165
2026-01-08 18:44:15.86	317.01	12.46	-37.6	-38.5	22.8	0.00e+00	0	32	0	864026624	48	6082
2026-01-08 18:44:16.87	316.83	12.41	-37.6	-38.5	22.8	0.00e+00	0	32	0	866123776	48	6101
2026-01-08 18:44:17.88	316.66	12.37	-37.5	-38.4	22.9	0.00e+00	0	32	0	868220928	48	6024
2026-01-08 18:44:18.89	316.49	12.32	-37.7	-38.6	22.7	0.00e+00	0	32	0	870318080	48	6163
2026-01-08 18:44:19.90	316.32	12.27	-38.2	-39.2	22.3	0.00e+00	0	32	0	872415232	48	6607
2026-01-08 18:44:20.91	316.15	12.23	-38.1	-39.1	22.3	0.00e+00	0	32	0	873463808	48	6503
2026-01-08 18:44:21.92	315.98	12.18	-38.7	-39.8	21.7	0.00e+00	0	32	0	875560960	48	7039
2026-01-08 18:44:22.93	315.81	12.13	-38.8	-39.9	21.7	0.00e+00	0	32	0	877658112	50	6362
2026-01-08 18:44:23.94	315.64	12.09	-38.7	-39.8	21.7	0.00e+00	0	32	0	879755264	50	6293
2026-01-08 18:44:24.95	315.48	12.04	-38.9	-40.1	21.7	0.00e+00	0	32	0	881852416	50	6475
2026-01-08 18:44:25.96	315.31	11.99	-38.7	-39.8	21.7	0.00e+00	0	32	0	882900992	50	6280
2026-01-08 18:44:26.96	315.14	11.94	-38.6	-39.6	21.9	0.00e+00	0	32	0	884998144	50	6172
2026-01-08 18:44:27.97	314.98	11.89	-38.5	-39.6	22.0	0.00e+00	0	33	0	887095296	50	6127
2026-01-08 18:44:28.98	314.81	11.85	-38.5	-39.6	22.0	0.00e+00	0	32	0	889192448	50	6115
2026-01-08 18:44:29.99	314.65	11.80	-38.1	-39.1	22.4	0.00e+00	0	33	0	890241024	50	5773
2026-01-08 18:44:31.00	314.48	11.75	-38.4	-39.4	22.1	0.00e+00	0	33	0	892338176	50	5997
2026-01-08 18:44:32.01	314.32	11.70	-38.6	-39.7	21.8	0.00e+00	0	33	0	894435328	50	6182
2026-01-08 18:44:33.02	314.15	11.65	-39.1	-40.2	21.5	0.00e+00	0	32	0	896532480	50	6600
2026-01-08 18:44:34.03	313.99	11.60	-39.5	-40.8	20.8	0.00e+00	0	32	0	898629632	50	7022
2026-01-08 18:44:35.04	313.83	11.55	-40.2	-41.6	20.1	0.00e+00	0	33	0	900726784	52	6878
2026-01-08 18:44:36.05	313.67	11.51	-41.1	-42.7	19.0	0.00e+00	0	32	0	901775360	54	6944
2026-01-08 18:44:37.06	313.50	11.46	-41.4	-43.1	18.8	0.00e+00	0	32	0	903872512	54	7303
2026-01-08 18:44:38.07	313.34	11.41	-42.0	-43.9	18.2	0.00e+00	0	33	0	905969664	56	7149
2026-01-08 18:44:39.08	313.18	11.36	-42.2	-44.2	17.8	0.00e+00	0	33	0	908066816	56	7345
2026-01-08 18:44:40.09	313.02	11.31	-42.1	-44.1	18.0	0.00e+00	0	33	0	910163968	56	7259
2026-01-08 18:44:41.10	312.86	11.26	-41.4	-43.0	18.9	0.00e+00	0	32	0	911212544	56	6453
2026-01-08 18:44:42.11	312.71	11.21	-41.1	-42.7	19.0	0.00e+00	0	33	0	913309696	56	6224
2026-01-08 18:44:43.11	312.55	11.16	-41.3	-42.9	19.0	0.00e+00	0	32	0	915406848	56	6368
2026-01-08 18:44:44.12	312.39	11.11	-41.0	-42.5	19.5	0.00e+00	0	33	0	917504000	56	6066
2026-01-08 18:44:45.13	312.23	11.06	-40.9	-42.5	19.3	0.00e+00	0	32	0	919601152	54	6784
2026-01-08 18:44:46.14	312.08	11.01	-40.6	-42.0	19.8	0.00e+00	0	32	0	920649728	54	6438
2026-01-08 18:44:47.15	311.92	10.96	-40.6	-42.0	19.9	0.00e+00	0	32	0	922746880	54	6418
2026-01-08 18:44:48.16	311.77	10.91	-40.2	-41.6	20.1	0.00e+00	0	32	0	924844032	54	6126
2026-01-08 18:44:49.17	311.61	10.86	-40.1	-41.4	20.3	0.00e+00	0	33	0	926941184	54	6007
2026-01-08 18:44:50.18	311.46	10.81	-39.7	-40.9	20.8	0.00e+00	0	32	0	929038336	54	5687
2026-01-08 18:44:51.18	311.31	10.76	-39.6	-40.7	20.9	0.00e+00	0	32	0	930086912	52	6240
2026-01-08 18:44:52.19	311.15	10.71	-39.4	-40.6	21.0	0.00e+00	0	33	0	932184064	52	6122
2026-01-08 18:44:53.20	311.00	10.65	-39.4	-40.6	21.1	0.00e+00	0	32	0	934281216	52	6116
2026-01-08 18:44:54.21	310.85	10.60	-39.5	-40.7	20.9	0.00e+00	0	32	0	936378368	52	6191
2026-01-08 18:44:55.22	310.70	10.55	-39.3	-40.5	21.1	0.00e+00	0	32	0	938475520	52	6058
2026-01-08 18:44:56.22	310.55	10.50	-39.4	-40.5	21.1	0.00e+00	0	32	0	939524096	52	6101
2026-01-08 18:44:57.23	310.40	10.45	-39.4	-40.5	21.0	0.00e+00	0	33	0	941621248	52	6090
2026-01-08 18:44:58.25	310.24	10.40	-39.5	-40.7	21.0	0.00e+00	0	32	0	943718400	52	6224
2026-01-08 18:44:59.26	310.09	10.35	-39.6	-40.8	20.8	0.00e+00	0	32	0	945815552	52	6286
2026-01-08 18:45:00.27	309.95	10.30	-39.3	-40.5	21.2	0.00e+00	0	32	0	947912704	52	6056
2026-01-08 18:45:01.28	309.80	10.24	-39.3	-40.5	21.1	0.00e+00	0	32	0	948961280	52	6040
2026-01-08 18:45:02.29	309.65	10.19	-39.2	-40.3	21.2	0.00e+00	0	32	0	951058432	52	5925
2026-01-08 18:45:03.30	309.50	10.14	-38.9	-40.0	21.5	0.00e+00	0	32	0	953155584	52	5719
2026-01-08 18:45:04.30	309.36	10.09	-38.8	-39.9	21.6	0.00e+00	0	32	0	955252736	52	5674
2026-01-08 18:45:05.31	309.21	10.04	-38.8	-39.9	21.6	0.00e+00	0	33	0	957349888	50	6344
2026-01-08 18:45:06.32	309.06	9.99	-38.6	-39.6	21.9	0.00e+00	0	32	0	958398464	50	6149
2026-01-08 18:45:07.33	308.92	9.93	-38.4	-39.5	21.9	0.00e+00	0	32	0	960495616	50	6049
2026-01-08 18:45:08.34	308.77	9.88	-38.5	-39.5	21.9	0.00e+00	0	32	0	962592768	50	6079
2026-01-08 18:45:09.35	308.63	9.83	-38.4	-39.5	22.0	0.00e+00	0	32	0	964689920	50	6037
2026-01-08 18:45:10.36	308.49	9.78	-38.6	-39.7	21.9	0.00e+00	0	32	0	966787072	50	6181
2026-01-08 18:45:11.37	308.34	9.72	-38.6	-39.7	21.8	0.00e+00	0	33	0	968884224	50	6197
2026-01-08 18:45:12.38	308.20	9.67	-38.7	-39.7	21.7	0.00e+00	0	32	0	969932800	50	6232
2026-01-08 18:45:13.39	308.06	9.62	-38.7	-39.8	21.7	0.00e+00	0	33	0	972029952	50	6256
2026-01-08 18:45:14.40	307.92	9.57	-38.8	-39.9	21.6	0.00e+00	0	32	0	974127104	50	6356
2026-01-08 18:45:15.41	307.78	9.52	-39.0	-40.1	21.4	0.00e+00	0	32	0	976224256	50	6503
2026-01-08 18:45:16.42	307.64	9.46	-39.0	-40.1	21.3	7.00e-07	0	32	0	978321408	50	6537
2026-01-08 18:45:17.42	307.50	9.41	-39.2	-40.3	21.1	0.00e+00	0	33	0	979369984	50	6655
2026-01-08 18:45:18.43	307.36	9.36	-39.1	-40.3	21.1	0.00e+00	0	33	0	981467136	50	6627
2026-01-08 18:45:19.44	307.22	9.30	-39.2	-40.3	21.2	0.00e+00	0	32	0	983564288	50	6643
2026-01-08 18:45:20.45	307.08	9.25	-39.2	-40.3	21.2	0.00e+00	0	33	0	985661440	50	6691
2026-01-08 18:45:21.46	306.94	9.20	-39.2	-40.3	21.2	0.00e+00	0	32	0	987758592	50	6684
2026-01-08 18:45:22.47	306.81	9.15	-39.2	-40.4	21.1	0.00e+00	0	32	0	988807168	50	6707
2026-01-08 18:45:23.48	306.67	9.09	-39.3	-40.4	21.1	0.00e+00	0	32	0	990904320	50	6745
2026-01-08 18:45:24.49	306.53	9.04	-39.0	-40.1	21.4	0.00e+00	0	32	0	993001472	50	6482
2026-01-08 18:45:25.50	306.40	8.99	-38.8	-39.9	21.5	0.00e+00	0	32	0	995098624	50	6375
2026-01-08 18:45:26.51	306.26	8.93	-38.9	-40.1	21.4	0.00e+00	0	33	0	997195776	50	6480
2026-01-08 18:45:27.52	306.13	8.88	-38.8	-39.9	21.5	0.00e+00	0	32	0	998244352	50	6388
2026-01-08 18:45:28.53	305.99	8.83	-38.7	-39.8	21.6	0.00e+00	0	32	0	1000341504	50	6280
2026-01-08 18:45:29.54	305.86	8.77	-38.6	-39.7	21.7	0.00e+00	0	32	0	1002438656	50	6199
2026-01-08 18:45:30.55	305.72	8.72	-38.3	-39.4	21.9	0.00e+00	0	32	0	1004535808	50	6011
2026-01-08 18:45:31.56	305.59	8.67	-38.3	-39.3	22.0	0.00e+00	0	32	0	1006632960	50	5927
2026-01-08 18:45:32.57	305.46	8.62	-38.0	-39.0	22.3	0.00e+00	0	32	0	1007681536	50	5715
2026-01-08 18:45:33.58	305.33	8.56	-37.7	-38.6	22.5	0.00e+00	0	32	0	1009778688	48	6164
2026-01-08 18:45:34.59	305.20	8.51	-37.6	-38.6	22.6	0.00e+00	0	32	0	1011875840	48	6115
2026-01-08 18:45:35.60	305.06	8.46	-37.6	-38.6	22.6	0.00e+00	0	33	0	1013972992	48	6124
2026-01-08 18:45:36.61	304.93	8.40	-37.7	-38.7	22.6	0.00e+00	0	32	0	1016070144	48	6179
2026-01-08 18:45:37.62	304.80	8.35	-37.5	-38.4	22.7	0.00e+00	0	32	0	1017118720	48	6012
2026-01-08 18:45:38.63	304.67	8.29	-37.7	-38.7	22.5	0.00e+00	0	32	0	1019215872	48	6214
2026-01-08 18:45:39.64	304.55	8.24	-37.8	-38.8	22.5	0.00e+00	0	32	0	1021313024	48	6271
2026-01-08 18:45:40.65	304.42	8.19	-37.6	-38.6	22.6	0.00e+00	0	32	0	1023410176	48	6105
2026-01-08 18:45:41.66	304.29	8.13	-37.8	-38.8	22.3	1.50e-06	0	32	0	1025507328	48	6280
2026-01-08 18:45:42.67	304.16	8.08	-37.8	-38.8	22.4	0.00e+00	0	32	0	1026555904	48	6256
2026-01-08 18:45:43.68	304.03	8.03	-37.7	-38.7	22.5	0.00e+00	0	32	0	1028653056	48	6178
2026-01-08 18:45:44.69	303.91	7.97	-37.7	-38.6	22.6	0.00e+00	0	32	0	1030750208	48	6163
2026-01-08 18:45:45.70	303.78	7.92	-37.6	-38.6	22.5	0.00e+00	0	32	0	1032847360	48	6134
2026-01-08 18:45:46.71	303.66	7.87	-37.4	-38.4	22.7	0.00e+00	0	32	0	1034944512	48	5983
2026-01-08 18:45:47.72	303.53	7.81	-37.4	-38.4	22.7	0.00e+00	0	32	0	1037041664	48	5975
2026-01-08 18:45:48.72	303.41	7.76	-37.4	-38.4	22.7	0.00e+00	0	32	0	1038090240	48	5975
2026-01-08 18:45:49.73	303.28	7.71	-37.2	-38.2	22.8	0.00e+00	0	32	0	1040187392	48	5843
2026-01-08 18:45:50.74	303.16	7.65	-37.4	-38.3	22.7	0.00e+00	0	32	0	1042284544	48	5955
2026-01-08 18:45:51.76	303.03	7.60	-37.3	-38.3	22.7	0.00e+00	0	32	0	1044381696	48	5908
2026-01-08 18:45:52.76	302.91	7.54	-37.6	-38.6	22.5	0.00e+00	0	32	0	1046478848	48	6135
2026-01-08 18:45:53.77	302.79	7.49	-37.8	-38.8	22.4	0.00e+00	0	32	0	1047527424	48	6286
2026-01-08 18:45:54.78	302.67	7.44	-38.1	-39.2	22.1	0.00e+00	0	32	0	1049624576	48	6564
2026-01-08 18:45:55.79	302.55	7.38	-37.8	-38.9	22.3	0.00e+00	0	32	0	1051721728	48	6328
2026-01-08 18:45:56.80	302.43	7.33	-37.9	-39.0	22.0	0.00e+00	0	32	0	1053818880	48	6411
2026-01-08 18:45:57.82	302.30	7.27	-38.2	-39.3	21.9	0.00e+00	0	32	0	1055916032	48	6654
2026-01-08 18:45:58.82	302.19	7.22	-38.2	-39.3	21.9	0.00e+00	0	32	0	1056964608	48	6666
2026-01-08 18:45:59.83	302.07	7.17	-38.5	-39.6	21.6	0.00e+00	0	33	0	1059061760	48	6915
2026-01-08 18:46:00.84	301.95	7.11	-38.5	-39.6	21.7	0.00e+00	0	32	0	1061158912	48	6859
2026-01-08 18:46:01.85	301.83	7.06	-38.5	-39.7	21.6	0.00e+00	0	32	0	1063256064	48	6930
2026-01-08 18:46:02.86	301.71	7.01	-38.6	-39.8	21.5	0.00e+00	0	32	0	1065353216	48	7020
2026-01-08 18:46:03.87	301.59	6.95	-38.8	-39.9	21.5	0.00e+00	0	32	0	1066401792	50	6378
2026-01-08 18:46:04.88	301.47	6.90	-38.8	-40.0	21.3	0.00e+00	0	32	0	1068498944	50	6414
2026-01-08 18:46:05.89	301.36	6.84	-39.0	-40.2	21.1	0.00e+00	0	32	0	1070596096	50	6586
2026-01-08 18:46:06.90	301.24	6.79	-38.9	-40.0	21.3	0.00e+00	0	32	0	1072693248	50	6435
2026-01-08 18:46:07.90	301.13	6.74	-38.6	-39.7	21.3	0.00e+00	0	32	0	1074790400	50	6207
2026-01-08 18:46:08.91	301.01	6.68	-38.8	-40.0	21.3	0.00e+00	0	32	0	1075838976	50	6415
2026-01-08 18:46:09.92	300.90	6.63	-38.9	-40.1	21.3	0.00e+00	0	32	0	1077936128	50	6465
2026-01-08 18:46:10.93	300.78	6.58	-38.9	-40.0	21.2	0.00e+00	0	32	0	1080033280	50	6452
2026-01-08 18:46:11.94	300.67	6.52	-38.9	-40.0	21.2	0.00e+00	0	32	0	1082130432	50	6423
2026-01-08 18:46:12.95	300.55	6.47	-38.8	-39.9	21.2	0.00e+00	0	32	0	1084227584	50	6354
2026-01-08 18:46:13.96	300.44	6.41	-38.8	-40.0	20.9	0.00e+00	0	32	0	1085276160	50	6411
2026-01-08 18:46:14.96	300.33	6.36	-38.7	-39.8	20.9	0.00e+00	0	32	0	1087373312	50	6317
2026-01-08 18:46:15.98	300.21	6.31	-38.7	-39.8	21.2	0.00e+00	0	32	0	1089470464	50	6300
2026-01-08 18:46:16.99	300.10	6.25	-38.5	-39.6	21.6	0.00e+00	0	32	0	1091567616	50	6139
2026-01-08 18:46:17.99	299.99	6.20	-38.3	-39.4	21.8	0.00e+00	0	32	0	1093664768	50	5978
2026-01-08 18:46:19.00	299.88	6.15	-38.4	-39.5	21.7	0.00e+00	0	32	0	1094713344	50	6039
2026-01-08 18:46:20.01	299.77	6.09	-38.3	-39.3	21.7	0.00e+00	0	32	0	1096810496	50	5949
2026-01-08 18:46:21.02	299.66	6.04	-38.2	-39.3	21.8	0.00e+00	0	32	0	1098907648	50	5926
2026-01-08 18:46:22.03	299.55	5.99	-38.3	-39.3	21.6	0.00e+00	0	32	0	1101004800	50	5955
2026-01-08 18:46:23.04	299.44	5.93	-38.3	-39.3	21.8	0.00e+00	0	32	0	1103101952	50	5952
2026-01-08 18:46:24.05	299.33	5.88	-38.3	-39.4	21.6	0.00e+00	0	32	0	1105199104	50	5991
2026-01-08 18:46:25.05	299.22	5.82	-38.7	-39.8	21.3	0.00e+00	0	32	0	1106247680	50	6280
2026-01-08 18:46:26.06	299.11	5.77	-38.5	-39.6	21.4	0.00e+00	0	32	0	1108344832	50	6173
2026-01-08 18:46:27.07	299.01	5.72	-38.8	-39.9	21.3	0.00e+00	0	32	0	1110441984	50	6367
2026-01-08 18:46:28.08	298.90	5.66	-39.0	-40.2	21.0	0.00e+00	0	32	0	1112539136	50	6599
2026-01-08 18:46:29.09	298.79	5.61	-39.0	-40.2	21.0	0.00e+00	0	32	0	1113587712	50	6540
2026-01-08 18:46:30.10	298.68	5.56	-39.2	-40.4	20.7	0.00e+00	0	32	0	1115684864	50	6769
2026-01-08 18:46:31.11	298.58	5.50	-39.3	-40.5	20.7	0.00e+00	0	32	0	1117782016	50	6820
2026-01-08 18:46:32.12	298.47	5.45	-39.3	-40.5	20.7	0.00e+00	0	32	0	1119879168	50	6820
2026-01-08 18:46:33.13	298.37	5.40	-39.5	-40.7	20.5	0.00e+00	0	32	0	1121976320	50	6982
2026-01-08 18:46:34.13	298.26	5.34	-39.3	-40.5	20.7	0.00e+00	0	32	0	1123024896	50	6800
2026-01-08 18:46:35.14	298.16	5.29	-39.2	-40.4	20.8	0.00e+00	0	32	0	1125122048	50	6738
2026-01-08 18:46:36.15	298.05	5.24	-39.0	-40.2	21.0	0.00e+00	0	32	0	1127219200	50	6603
2026-01-08 18:46:37.16	297.95	5.18	-39.0	-40.2	21.0	0.00e+00	0	32	0	1129316352	50	6560
2026-01-08 18:46:38.17	297.84	5.13	-38.5	-39.6	21.4	0.00e+00	0	32	0	1131413504	50	6154
2026-01-08 18:46:39.18	297.74	5.07	-38.6	-39.8	21.2	0.00e+00	0	32	0	1133510656	50	6253
2026-01-08 18:46:40.19	297.64	5.02	-38.7	-39.9	21.2	0.00e+00	0	32	0	1134559232	50	6327
2026-01-08 18:46:41.20	297.54	4.97	-38.3	-39.4	21.6	0.00e+00	0	32	0	1136656384	50	5966
2026-01-08 18:46:42.21	297.43	4.91	-38.4	-39.5	21.5	0.00e+00	0	32	0	1138753536	50	6039
2026-01-08 18:46:43.22	297.33	4.86	-38.2	-39.3	21.6	0.00e+00	0	32	0	1140850688	50	5939
2026-01-08 18:46:44.23	297.23	4.81	-38.3	-39.4	21.5	0.00e+00	0	32	0	1142947840	50	6007
2026-01-08 18:46:45.24	297.13	4.75	-38.4	-39.5	21.4	0.00e+00	0	32	0	1143996416	50	6077
2026-01-08 18:46:46.25	297.03	4.70	-38.5	-39.6	21.3	0.00e+00	0	32	0	1146093568	50	6128
2026-01-08 18:46:47.26	296.93	4.65	-38.6	-39.7	21.1	0.00e+00	0	32	0	1148190720	50	6239
2026-01-08 18:46:48.26	296.83	4.60	-38.8	-40.0	21.0	0.00e+00	0	32	0	1150287872	50	6418
2026-01-08 18:46:49.27	296.73	4.54	-38.8	-40.0	21.0	0.00e+00	0	32	0	1152385024	50	6393
2026-01-08 18:46:50.28	296.63	4.49	-38.8	-40.0	21.0	0.00e+00	0	32	0	1153433600	50	6430
2026-01-08 18:46:51.29	296.53	4.44	-39.2	-40.4	20.6	0.00e+00	0	32	0	1155530752	50	6733
2026-01-08 18:46:52.30	296.44	4.38	-39.3	-40.5	20.4	0.00e+00	0	32	0	1157627904	50	6842
2026-01-08 18:46:53.31	296.34	4.33	-39.3	-40.6	20.5	0.00e+00	0	32	0	1159725056	50	6871
2026-01-08 18:46:54.31	296.24	4.28	-39.4	-40.7	20.3	0.00e+00	0	32	0	1161822208	50	6928
2026-01-08 18:46:55.33	296.14	4.22	-39.7	-41.0	20.1	0.00e+00	0	32	0	1162870784	50	7225
2026-01-08 18:46:56.34	296.05	4.17	-39.8	-41.1	19.9	0.00e+00	0	32	0	1164967936	52	6523
2026-01-08 18:46:57.35	295.95	4.12	-39.9	-41.3	19.8	0.00e+00	0	32	0	1167065088	52	6662
2026-01-08 18:46:58.36	295.85	4.06	-40.2	-41.6	19.5	0.00e+00	0	32	0	1169162240	52	6902
2026-01-08 18:46:59.37	295.76	4.01	-40.3	-41.8	19.3	0.00e+00	0	32	0	1171259392	52	7057
2026-01-08 18:47:00.38	295.66	3.96	-40.3	-41.7	19.4	0.00e+00	0	32	0	1172307968	52	6998
2026-01-08 18:47:01.38	295.57	3.91	-40.6	-42.1	19.0	0.00e+00	0	32	0	1174405120	52	7286
2026-01-08 18:47:02.39	295.47	3.85	-40.6	-42.2	19.0	0.00e+00	0	32	0	1176502272	52	7338
2026-01-08 18:47:03.40	295.38	3.80	-40.3	-41.7	19.2	0.00e+00	0	32	0	1178599424	52	6978
2026-01-08 18:47:04.41	295.28	3.75	-40.3	-41.8	19.3	0.00e+00	0	32	0	1180696576	52	7059
2026-01-08 18:47:05.42	295.19	3.69	-40.4	-41.9	19.2	0.00e+00	0	32	0	1181745152	52	7115
2026-01-08 18:47:06.42	295.10	3.64	-40.5	-42.1	19.0	0.00e+00	0	32	0	1183842304	52	7256
2026-01-08 18:47:07.44	295.00	3.59	-40.3	-41.8	19.2	0.00e+00	0	32	0	1185939456	52	7050
2026-01-08 18:47:08.45	294.91	3.54	-40.3	-41.7	19.3	0.00e+00	0	32	0	1188036608	52	6989
2026-01-08 18:47:09.46	294.82	3.48	-40.0	-41.4	19.5	0.00e+00	0	32	0	1190133760	52	6700
2026-01-08 18:47:10.46	294.73	3.43	-40.1	-41.6	19.4	0.00e+00	0	32	0	1191182336	52	6863
2026-01-08 18:47:11.47	294.64	3.38	-40.2	-41.6	19.4	0.00e+00	0	32	0	1193279488	52	6880
2026-01-08 18:47:12.48	294.55	3.33	-40.3	-41.8	19.1	0.00e+00	0	32	0	1195376640	52	7011
2026-01-08 18:47:13.49	294.46	3.27	-40.4	-41.9	19.0	0.00e+00	0	32	0	1197473792	52	7115
2026-01-08 18:47:14.50	294.36	3.22	-40.4	-41.9	19.1	0.00e+00	0	32	0	1199570944	52	7118
