passes_logs/2026/01/08/R4.6S_Anadyr/R4.6S_Anadyr__20260108_222248_AQUA_rec.log

#Pass ID: 20260108_222248_AQUA
#Satellite: AQUA
#Configuration: AQUA
#almurnet v.1.7.20251203
#Start time: 2026-01-08 22:22:53

#Version: 2.2.20231116
#Station: R4.6S_Anadyr
#Location: 177.4865 lon 64.73178 lat
#TLE: 1 27424U 02022A   26004.96787593  .00001598  00000+0  32997-3 0  9996
#TLE: 2 27424  98.4069 331.2279 0002002  90.2377   0.6092 14.61798176259425

#Time	Az	El	Level	Level2	SNR	BER	BlckErr	Temp	State	Recorded	gain1	gain2
2026-01-08 22:22:53.51	70.02	0.25	-48.3	-49.8	5.7	0.00e+00	0	35	0	0	60	37890
2026-01-08 22:22:54.52	69.93	0.30	-48.6	-66.4	3.5	7.66e-01	0	36	104	0	60	80626
2026-01-08 22:22:55.53	69.84	0.35	-48.6	-66.4	3.5	7.66e-01	0	36	104	0	60	80421
2026-01-08 22:22:56.54	69.75	0.40	-48.6	-66.5	3.5	7.66e-01	0	36	104	0	60	81024
2026-01-08 22:22:57.55	69.66	0.45	-48.6	-66.5	3.5	7.66e-01	0	36	104	0	60	80889
2026-01-08 22:22:58.56	69.57	0.50	-48.6	-66.5	3.5	7.66e-01	0	36	104	0	60	81100
2026-01-08 22:22:59.57	69.48	0.55	-48.6	-66.5	3.5	7.66e-01	0	37	104	0	60	80992
2026-01-08 22:23:00.58	69.39	0.60	-48.4	-66.5	3.5	7.66e-01	0	36	104	0	60	80991
2026-01-08 22:23:01.59	69.30	0.65	-48.3	-66.5	3.5	7.66e-01	0	36	104	0	60	81235
2026-01-08 22:23:02.60	69.21	0.70	-48.3	-66.4	3.5	7.66e-01	0	36	104	0	60	80025
2026-01-08 22:23:03.61	69.12	0.75	-48.1	-66.2	3.5	7.66e-01	0	36	104	0	60	78926
2026-01-08 22:23:04.62	69.02	0.80	-47.7	-66.1	3.4	7.66e-01	0	36	104	0	60	78053
2026-01-08 22:23:05.64	68.93	0.85	-47.3	-65.9	3.5	7.66e-01	0	36	104	0	60	76177
2026-01-08 22:23:06.64	68.84	0.90	-44.1	-65.5	3.5	7.66e-01	0	36	104	0	58	81565
2026-01-08 22:23:07.65	68.74	0.95	-41.6	-64.9	3.5	7.66e-01	0	36	104	0	60	67501
2026-01-08 22:23:08.66	68.65	1.00	-43.8	-64.8	3.5	7.66e-01	0	36	104	0	60	66801
2026-01-08 22:23:09.67	68.55	1.05	-43.8	-64.7	3.5	7.66e-01	0	36	104	0	60	66427
2026-01-08 22:23:10.68	68.46	1.10	-43.8	-64.8	3.5	7.66e-01	0	36	104	0	60	66513
2026-01-08 22:23:11.69	68.36	1.15	-43.7	-64.7	3.5	7.66e-01	0	36	104	0	60	66092
2026-01-08 22:23:12.70	68.27	1.20	-43.7	-64.7	3.5	7.66e-01	0	36	104	0	60	66423
2026-01-08 22:23:13.71	68.17	1.25	-43.7	-64.7	3.5	7.66e-01	0	36	104	0	60	66384
2026-01-08 22:23:14.72	68.08	1.30	-43.6	-64.7	3.5	7.66e-01	0	36	104	0	60	66101
2026-01-08 22:23:15.73	67.98	1.35	-43.7	-64.7	3.5	7.66e-01	0	37	104	0	60	66128
2026-01-08 22:23:16.74	67.88	1.40	-43.7	-64.7	3.5	7.66e-01	0	36	104	0	60	66203
2026-01-08 22:23:17.75	67.79	1.45	-43.6	-64.7	3.5	7.66e-01	0	36	104	0	60	65972
2026-01-08 22:23:18.76	67.69	1.50	-43.7	-64.7	3.5	7.66e-01	0	36	104	0	60	66255
2026-01-08 22:23:19.77	67.59	1.55	-43.7	-64.7	3.5	7.66e-01	0	36	104	0	60	66107
2026-01-08 22:23:20.78	67.49	1.60	-43.6	-64.7	3.5	7.66e-01	0	36	104	0	60	65891
2026-01-08 22:23:21.78	67.40	1.65	-43.6	-64.7	3.5	7.66e-01	0	36	104	0	60	65857
2026-01-08 22:23:22.79	67.30	1.70	-43.5	-64.7	3.5	7.66e-01	0	36	104	0	60	66116
2026-01-08 22:23:23.80	67.20	1.75	-43.6	-64.6	3.5	7.66e-01	0	36	104	0	60	65722
2026-01-08 22:23:24.81	67.10	1.80	-43.6	-64.7	3.5	7.66e-01	0	36	104	0	60	66074
2026-01-08 22:23:25.82	67.00	1.85	-43.5	-64.7	3.5	7.66e-01	0	36	104	0	60	66177
2026-01-08 22:23:26.83	66.90	1.90	-43.6	-64.7	3.5	7.66e-01	0	36	104	0	60	65974
2026-01-08 22:23:27.84	66.79	1.95	-43.6	-64.6	3.5	7.66e-01	0	36	104	0	60	65676
2026-01-08 22:23:28.85	66.69	2.01	-43.7	-64.7	3.5	7.66e-01	0	36	104	0	60	66038
2026-01-08 22:23:29.86	66.59	2.06	-43.6	-64.7	3.5	7.66e-01	0	36	104	0	60	65842
2026-01-08 22:23:30.87	66.49	2.11	-43.6	-64.7	3.5	7.66e-01	0	36	104	0	60	66103
2026-01-08 22:23:31.88	66.39	2.16	-43.6	-64.6	3.5	7.66e-01	0	36	104	0	60	65488
2026-01-08 22:23:32.89	66.28	2.21	-43.6	-64.5	3.5	7.66e-01	0	36	104	0	60	64530
2026-01-08 22:23:33.90	66.18	2.26	-43.6	-64.4	3.5	7.66e-01	0	36	104	0	60	63749
2026-01-08 22:23:34.91	66.08	2.31	-43.6	-64.4	3.5	7.66e-01	0	36	104	0	60	63742
2026-01-08 22:23:35.92	65.97	2.36	-43.5	-64.5	3.5	7.66e-01	0	36	104	0	60	64326
2026-01-08 22:23:36.93	65.87	2.41	-43.5	-64.7	3.5	7.66e-01	0	36	104	0	60	65842
2026-01-08 22:23:37.94	65.76	2.46	-43.5	-64.7	3.5	7.66e-01	0	36	104	0	60	65897
2026-01-08 22:23:38.95	65.66	2.51	-43.6	-64.5	3.5	7.66e-01	0	36	104	0	60	64736
2026-01-08 22:23:39.96	65.55	2.56	-43.6	-64.5	3.5	7.66e-01	0	36	104	0	60	64611
2026-01-08 22:23:40.97	65.44	2.61	-43.6	-64.6	3.5	7.66e-01	0	36	104	0	60	65035
2026-01-08 22:23:41.98	65.34	2.66	-43.5	-64.5	3.5	7.66e-01	0	36	104	0	60	64604
2026-01-08 22:23:42.99	65.23	2.71	-43.5	-63.9	3.5	7.66e-01	0	36	104	0	60	60280
2026-01-08 22:23:44.00	65.12	2.76	-43.4	-63.7	3.5	7.66e-01	0	36	104	0	60	58744
2026-01-08 22:23:45.01	65.02	2.82	-43.6	-64.1	3.5	7.66e-01	0	36	104	0	60	61993
2026-01-08 22:23:46.02	64.91	2.87	-43.6	-63.9	3.5	7.66e-01	0	36	104	0	60	60143
2026-01-08 22:23:47.02	64.80	2.92	-43.1	-60.4	3.5	7.66e-01	0	36	104	0	60	40344
2026-01-08 22:23:48.03	64.69	2.97	-42.2	-56.6	3.5	7.66e-01	0	36	104	0	60	25930
2026-01-08 22:23:49.04	64.58	3.02	-40.9	-53.9	3.4	7.66e-01	0	36	104	0	58	21323
2026-01-08 22:23:50.05	64.47	3.07	-40.5	-64.5	3.5	7.66e-01	0	36	104	0	56	81376
2026-01-08 22:23:51.06	64.36	3.12	-40.4	-53.3	3.5	7.66e-01	0	36	104	0	56	22374
2026-01-08 22:23:52.07	64.25	3.17	-41.5	-64.2	3.5	7.66e-01	0	36	104	0	60	62578
2026-01-08 22:23:53.08	64.14	3.22	-42.3	-64.4	3.5	7.66e-01	0	36	104	0	60	63716
2026-01-08 22:23:54.09	64.03	3.27	-38.7	-53.4	3.5	7.66e-01	0	36	104	0	52	28620
2026-01-08 22:23:55.10	63.91	3.32	-38.8	-51.8	3.5	7.66e-01	0	36	104	0	52	23859
2026-01-08 22:23:56.11	63.80	3.37	-39.2	-50.3	3.5	7.66e-01	0	36	104	0	52	20010
2026-01-08 22:23:57.11	63.69	3.42	-36.8	-48.6	3.5	7.66e-01	0	36	104	0	50	18345
2026-01-08 22:23:58.12	63.58	3.47	-35.9	-47.9	3.6	7.66e-01	0	36	104	0	46	21406
2026-01-08 22:23:59.13	63.46	3.53	-36.9	-47.6	3.5	7.66e-01	0	36	104	0	48	18464
2026-01-08 22:24:00.14	63.35	3.58	-40.4	-53.7	3.5	7.66e-01	0	36	104	0	54	26415
2026-01-08 22:24:01.15	63.23	3.63	-43.6	-64.6	3.5	7.66e-01	0	36	104	0	60	65123
2026-01-08 22:24:02.16	63.12	3.68	-40.6	-52.3	3.5	7.66e-01	0	36	104	0	56	20047
2026-01-08 22:24:03.17	63.00	3.73	-42.3	-64.3	3.5	7.66e-01	0	36	104	0	60	62876
2026-01-08 22:24:04.18	62.89	3.78	-40.1	-51.7	3.5	7.66e-01	0	36	104	0	56	18716
2026-01-08 22:24:05.19	62.77	3.83	-38.9	-50.9	3.5	7.66e-01	0	36	104	0	54	19121
2026-01-08 22:24:06.20	62.65	3.88	-38.4	-50.7	3.5	7.66e-01	0	36	104	0	52	20965
2026-01-08 22:24:07.21	62.53	3.93	-38.2	-50.1	3.5	7.66e-01	0	36	104	0	52	19419
2026-01-08 22:24:08.22	62.42	3.98	-39.5	-52.2	3.5	7.66e-01	0	36	104	0	52	24954
2026-01-08 22:24:09.23	62.30	4.03	-39.0	-51.7	3.6	7.66e-01	0	36	104	0	52	23541
2026-01-08 22:24:10.24	62.18	4.09	-45.2	-63.6	3.5	7.66e-01	0	36	104	0	60	58503
2026-01-08 22:24:11.25	62.06	4.14	-39.2	-50.5	3.5	7.66e-01	0	36	104	0	56	16223
2026-01-08 22:24:12.26	61.94	4.19	-43.5	-64.5	3.5	7.66e-01	0	36	104	0	60	64744
2026-01-08 22:24:13.27	61.82	4.24	-40.0	-51.3	3.5	7.66e-01	0	36	104	0	56	17825
2026-01-08 22:24:14.28	61.70	4.29	-38.8	-49.9	3.5	7.66e-01	0	36	104	0	52	19101
2026-01-08 22:24:15.29	61.58	4.34	-38.3	-49.1	3.5	7.66e-01	0	36	104	0	52	17484
2026-01-08 22:24:16.30	61.46	4.39	-37.6	-48.3	3.5	7.66e-01	0	36	104	0	50	17705
2026-01-08 22:24:17.30	61.33	4.44	-42.1	-54.1	3.6	7.66e-01	0	36	104	0	58	21969
2026-01-08 22:24:18.31	61.21	4.49	-39.5	-50.4	3.5	7.66e-01	0	36	104	0	58	14285
2026-01-08 22:24:19.32	61.09	4.54	-41.4	-64.7	3.5	7.66e-01	0	36	104	0	56	83421
2026-01-08 22:24:20.33	60.96	4.59	-41.5	-61.2	3.6	7.66e-01	0	36	104	0	58	49557
2026-01-08 22:24:21.34	60.84	4.64	-39.7	-51.2	3.5	7.66e-01	0	36	104	0	52	22219
2026-01-08 22:24:22.34	60.72	4.70	-40.0	-50.8	3.5	7.66e-01	0	36	104	0	52	21129
2026-01-08 22:24:23.34	60.59	4.75	-39.2	-50.3	3.6	7.66e-01	0	36	104	0	54	17831
2026-01-08 22:24:24.35	60.47	4.80	-38.2	-50.0	3.5	7.66e-01	0	36	104	0	52	19284
2026-01-08 22:24:25.36	60.34	4.85	-37.6	-49.8	3.5	7.66e-01	0	36	104	0	50	21184
2026-01-08 22:24:26.37	60.22	4.90	-37.6	-49.4	3.5	7.66e-01	0	36	104	0	50	20313
2026-01-08 22:24:27.38	60.09	4.95	-38.4	-50.0	3.5	7.66e-01	0	36	104	0	50	21689
2026-01-08 22:24:28.39	59.96	5.00	-40.2	-59.5	3.5	7.66e-01	0	36	104	0	56	45620
2026-01-08 22:24:29.40	59.83	5.05	-36.7	-48.7	3.4	7.66e-01	0	36	104	0	50	18577
2026-01-08 22:24:30.41	59.70	5.10	-45.2	-64.4	3.5	7.66e-01	0	36	104	0	60	64008
2026-01-08 22:24:31.41	59.58	5.15	-38.0	-50.8	3.5	7.66e-01	0	36	104	0	50	23741
2026-01-08 22:24:32.42	59.45	5.20	-37.5	-50.0	3.5	7.66e-01	0	36	104	0	50	21733
2026-01-08 22:24:33.43	59.32	5.25	-37.2	-49.2	3.5	7.66e-01	0	36	104	0	50	19726
2026-01-08 22:24:34.42	59.19	5.30	-36.8	-48.1	3.5	7.66e-01	0	36	104	0	50	17418
2026-01-08 22:24:35.40	59.06	5.35	-36.4	-46.8	3.5	7.66e-01	0	36	104	0	48	16757
2026-01-08 22:24:36.38	58.93	5.40	-38.6	-49.6	3.6	7.66e-01	0	36	104	0	50	20684
2026-01-08 22:24:37.36	58.81	5.45	-43.2	-60.9	3.5	7.66e-01	0	36	104	0	60	42852
2026-01-08 22:24:38.33	58.68	5.50	-38.2	-49.2	3.5	7.66e-01	0	36	104	0	52	17647
2026-01-08 22:24:39.31	58.55	5.55	-46.7	-64.8	3.5	7.66e-01	0	36	104	0	60	67171
2026-01-08 22:24:40.29	58.42	5.60	-38.9	-50.5	3.5	7.66e-01	0	36	104	0	52	20332
2026-01-08 22:24:41.27	58.29	5.65	-38.2	-49.7	3.5	7.66e-01	0	36	104	0	52	18666
2026-01-08 22:24:42.25	58.16	5.69	-37.6	-49.1	3.5	7.66e-01	0	36	104	0	50	19614
2026-01-08 22:24:43.22	58.03	5.74	-37.3	-48.8	3.5	7.66e-01	0	36	104	0	50	18865
2026-01-08 22:24:44.20	57.90	5.79	-37.1	-47.5	3.5	7.66e-01	0	36	104	0	48	18282
2026-01-08 22:24:45.18	57.77	5.84	-38.2	-50.0	3.5	7.66e-01	0	36	104	0	50	21628
2026-01-08 22:24:46.16	57.63	5.89	-46.3	-65.1	3.5	7.66e-01	0	36	104	0	60	69152
2026-01-08 22:24:47.14	57.50	5.94	-41.6	-54.0	3.6	7.66e-01	0	36	104	0	56	24307
2026-01-08 22:24:48.11	57.37	5.99	-45.9	-64.7	3.5	7.66e-01	0	36	104	0	60	66451
2026-01-08 22:24:49.09	57.23	6.04	-39.2	-50.1	3.5	7.66e-01	0	36	104	0	54	17448
2026-01-08 22:24:50.06	57.10	6.08	-39.0	-49.8	3.5	7.66e-01	0	36	104	0	52	18817
2026-01-08 22:24:51.03	56.97	6.13	-37.8	-48.5	3.5	7.66e-01	0	36	104	0	50	18265
2026-01-08 22:24:52.01	56.83	6.18	-37.1	-47.9	3.5	7.66e-01	0	36	104	0	50	16993
2026-01-08 22:24:52.98	56.70	6.23	-40.1	-51.4	3.5	7.66e-01	0	36	104	0	52	22745
2026-01-08 22:24:53.96	56.56	6.28	-38.3	-49.2	3.5	7.66e-01	0	36	104	0	50	19634
2026-01-08 22:24:54.94	56.42	6.33	-46.9	-64.8	3.5	7.66e-01	0	36	104	0	60	66879
2026-01-08 22:24:55.91	56.29	6.37	-42.1	-53.7	3.5	7.66e-01	0	36	104	0	60	18586
2026-01-08 22:24:56.89	56.15	6.42	-46.7	-65.2	3.5	7.66e-01	0	36	104	0	60	69707
2026-01-08 22:24:57.87	56.01	6.47	-40.4	-51.2	3.5	7.66e-01	0	36	104	0	58	15712
2026-01-08 22:24:58.84	55.87	6.52	-38.8	-49.4	3.5	7.66e-01	0	36	104	0	54	15976
2026-01-08 22:24:59.81	55.74	6.57	-38.6	-49.2	3.6	7.66e-01	0	36	104	0	52	17615
2026-01-08 22:25:00.79	55.60	6.61	-37.8	-48.2	3.5	7.66e-01	0	36	104	0	50	17692
2026-01-08 22:25:01.76	55.46	6.66	-41.4	-53.2	3.5	7.66e-01	0	36	104	0	54	24727
2026-01-08 22:25:02.74	55.32	6.71	-42.5	-55.7	3.5	7.66e-01	0	36	104	0	60	23470
2026-01-08 22:25:03.72	55.17	6.76	-45.1	-58.2	3.5	7.66e-01	0	36	104	0	56	39382
2026-01-08 22:25:04.69	55.03	6.80	-46.5	-64.7	3.5	7.66e-01	0	36	104	0	60	66012
2026-01-08 22:25:05.68	54.89	6.85	-41.2	-52.5	3.5	7.66e-01	0	36	104	0	60	16170
2026-01-08 22:25:06.66	54.75	6.90	-41.9	-53.2	3.5	7.66e-01	0	36	104	0	60	17690
2026-01-08 22:25:07.63	54.60	6.95	-40.6	-51.8	3.5	7.66e-01	0	36	104	0	56	18863
2026-01-08 22:25:08.61	54.46	7.00	-38.6	-49.3	3.5	7.66e-01	0	36	104	0	52	17807
2026-01-08 22:25:09.58	54.32	7.04	-37.0	-47.5	3.5	7.66e-01	0	36	104	0	50	16145
2026-01-08 22:25:10.57	54.17	7.09	-36.0	-46.3	3.5	7.66e-01	0	36	104	0	48	15912
2026-01-08 22:25:11.54	54.03	7.14	-36.3	-46.6	3.5	7.66e-01	0	36	104	0	48	16408
2026-01-08 22:25:12.52	53.88	7.19	-39.2	-49.8	3.5	7.66e-01	0	36	104	0	52	18785
2026-01-08 22:25:13.49	53.73	7.23	-44.3	-56.7	3.5	7.66e-01	0	36	104	0	60	26236
2026-01-08 22:25:14.47	53.59	7.28	-37.6	-48.1	3.6	7.66e-01	0	36	104	0	52	15493
2026-01-08 22:25:15.45	53.44	7.33	-46.8	-63.4	3.5	7.66e-01	0	36	104	0	60	57032
2026-01-08 22:25:16.42	53.29	7.37	-38.7	-49.2	3.5	7.66e-01	0	36	104	0	52	17561
2026-01-08 22:25:17.40	53.14	7.42	-39.0	-49.5	3.5	7.66e-01	0	36	104	0	52	18307
2026-01-08 22:25:18.38	52.99	7.47	-38.5	-49.1	3.5	7.66e-01	0	36	104	0	52	17380
2026-01-08 22:25:19.35	52.85	7.52	-37.7	-48.3	3.5	7.66e-01	0	36	104	0	50	17861
2026-01-08 22:25:20.33	52.70	7.56	-43.7	-56.0	3.5	7.66e-01	0	36	104	0	60	24367
2026-01-08 22:25:21.31	52.54	7.61	-40.2	-51.0	3.5	7.66e-01	0	36	104	0	60	13657
2026-01-08 22:25:22.29	52.39	7.66	-46.8	-65.2	3.5	7.66e-01	0	36	104	0	60	70402
2026-01-08 22:25:23.27	52.24	7.70	-46.2	-62.0	3.5	7.66e-01	0	36	104	0	60	48193
2026-01-08 22:25:24.24	52.09	7.75	-38.0	-48.7	3.6	7.66e-01	0	36	104	0	48	20812
2026-01-08 22:25:25.22	51.94	7.80	-37.0	-47.5	3.5	7.66e-01	0	36	104	0	50	16143
2026-01-08 22:25:26.20	51.78	7.84	-37.1	-47.5	3.5	7.66e-01	0	36	104	0	48	18258
2026-01-08 22:25:27.17	51.63	7.89	-37.3	-47.7	3.5	7.66e-01	0	36	104	0	48	18655
2026-01-08 22:25:28.15	51.48	7.93	-37.5	-47.9	3.5	7.66e-01	0	36	104	0	48	19062
2026-01-08 22:25:29.13	51.32	7.98	-42.7	-54.2	3.5	7.66e-01	0	36	104	0	58	22023
2026-01-08 22:25:30.11	51.16	8.03	-38.4	-49.0	3.5	7.66e-01	0	36	104	0	52	17195
2026-01-08 22:25:31.08	51.01	8.07	-47.6	-65.1	3.5	7.66e-01	0	36	104	0	60	69276
2026-01-08 22:25:32.06	50.85	8.12	-43.1	-54.8	3.6	7.66e-01	0	36	104	0	60	21266
2026-01-08 22:25:33.03	50.70	8.16	-47.0	-65.0	3.5	7.66e-01	0	36	104	0	60	68742
2026-01-08 22:25:34.01	50.54	8.21	-39.2	-49.7	3.6	7.66e-01	0	36	104	0	54	16694
2026-01-08 22:25:34.98	50.38	8.25	-38.2	-48.7	3.6	7.66e-01	0	36	104	0	52	16520
2026-01-08 22:25:35.96	50.22	8.30	-37.8	-48.2	3.5	7.66e-01	0	36	104	0	50	17605
2026-01-08 22:25:36.93	50.06	8.34	-37.1	-47.4	3.5	7.66e-01	0	36	104	0	50	16045
2026-01-08 22:25:37.91	49.90	8.39	-37.9	-48.4	3.5	7.66e-01	0	36	104	0	48	20121
2026-01-08 22:25:38.89	49.74	8.43	-37.2	-47.5	3.5	7.66e-01	0	36	104	0	46	20431
2026-01-08 22:25:39.86	49.58	8.48	-46.4	-63.7	3.5	7.66e-01	0	36	104	0	60	58666
2026-01-08 22:25:40.84	49.42	8.52	-40.5	-51.2	3.5	7.66e-01	0	36	104	0	56	17671
2026-01-08 22:25:41.81	49.26	8.57	-46.0	-60.5	3.5	7.66e-01	0	36	104	0	60	40571
2026-01-08 22:25:42.79	49.10	8.61	-39.0	-49.6	3.5	7.66e-01	0	36	104	0	56	14662
2026-01-08 22:25:43.76	48.94	8.66	-36.6	-46.9	3.5	7.66e-01	0	36	104	0	48	17074
2026-01-08 22:25:44.75	48.77	8.70	-36.3	-46.7	3.5	7.66e-01	0	36	104	0	48	16582
2026-01-08 22:25:45.72	48.61	8.75	-36.2	-46.5	3.5	7.66e-01	0	36	104	0	46	18232
2026-01-08 22:25:46.70	48.44	8.79	-37.2	-47.6	3.5	7.66e-01	0	36	104	0	46	20667
2026-01-08 22:25:47.67	48.28	8.83	-35.4	-45.6	3.5	7.66e-01	0	36	104	0	46	16413
2026-01-08 22:25:48.65	48.11	8.88	-40.9	-51.9	3.5	7.66e-01	0	36	104	0	50	26803
2026-01-08 22:25:49.63	47.95	8.92	-43.6	-55.3	3.5	7.66e-01	0	36	104	0	60	22301
2026-01-08 22:25:50.61	47.78	8.96	-41.2	-52.2	3.5	7.66e-01	0	36	104	0	50	27921
2026-01-08 22:25:51.58	47.61	9.01	-43.5	-55.2	3.6	7.66e-01	0	36	104	0	60	22175
2026-01-08 22:25:52.56	47.44	9.05	-38.4	-48.9	3.5	7.66e-01	0	36	104	0	52	16929
2026-01-08 22:25:53.54	47.27	9.09	-37.4	-47.8	3.5	7.66e-01	0	36	104	0	50	16796
2026-01-08 22:25:54.52	47.11	9.14	-36.7	-46.9	3.6	7.66e-01	0	36	104	0	48	17060
2026-01-08 22:25:55.51	46.93	9.18	-35.6	-45.8	3.5	7.66e-01	0	36	104	0	46	16883
2026-01-08 22:25:56.48	46.76	9.22	-35.5	-45.7	3.6	7.66e-01	0	36	104	0	48	14853
2026-01-08 22:25:57.46	46.59	9.27	-37.1	-47.4	3.5	7.66e-01	0	36	104	0	48	18070
2026-01-08 22:25:58.44	46.42	9.31	-43.8	-55.7	3.5	7.66e-01	0	36	104	0	60	23556
2026-01-08 22:25:59.41	46.25	9.35	-36.3	-46.6	3.5	7.66e-01	0	36	104	0	50	14668
2026-01-08 22:26:00.39	46.08	9.39	-47.3	-63.7	3.5	7.66e-01	0	36	104	0	60	58966
2026-01-08 22:26:01.36	45.91	9.43	-36.3	-46.7	3.5	7.66e-01	0	36	104	0	48	16563
2026-01-08 22:26:02.34	45.73	9.48	-35.7	-46.0	3.5	7.66e-01	0	36	104	0	46	17199
2026-01-08 22:26:03.32	45.56	9.52	-35.5	-45.7	3.5	7.66e-01	0	36	104	0	46	16696
2026-01-08 22:26:04.30	45.38	9.56	-35.2	-45.4	3.5	7.66e-01	0	36	104	0	46	16050
2026-01-08 22:26:05.27	45.21	9.60	-39.0	-49.5	3.5	7.66e-01	0	36	104	0	56	14526
2026-01-08 22:26:06.25	45.03	9.64	-37.3	-47.7	3.5	7.66e-01	0	36	104	0	48	18654
2026-01-08 22:26:07.23	44.86	9.68	-46.7	-65.0	3.5	7.66e-01	0	36	104	0	60	68425
2026-01-08 22:26:08.21	44.68	9.72	-41.0	-51.9	3.5	7.66e-01	0	36	104	0	60	15179
2026-01-08 22:26:09.18	44.50	9.76	-47.6	-65.4	3.5	7.66e-01	0	36	104	0	60	71727
2026-01-08 22:26:10.16	44.33	9.80	-38.2	-48.8	3.5	7.66e-01	0	36	104	0	52	16736
2026-01-08 22:26:11.14	44.15	9.85	-37.6	-48.1	3.5	7.66e-01	0	36	104	0	50	17328
2026-01-08 22:26:12.11	43.97	9.89	-36.9	-47.3	3.5	7.66e-01	0	36	104	0	50	15842
2026-01-08 22:26:13.09	43.79	9.93	-36.1	-46.5	3.5	7.66e-01	0	36	104	0	48	16151
2026-01-08 22:26:14.07	43.61	9.96	-42.8	-54.1	3.5	7.66e-01	0	36	104	0	58	21958
2026-01-08 22:26:15.04	43.43	10.00	-37.3	-47.7	3.5	7.66e-01	0	36	104	0	46	20881
2026-01-08 22:26:16.02	43.25	10.04	-47.6	-65.3	3.5	7.66e-01	0	36	104	0	60	70804
2026-01-08 22:26:17.00	43.07	10.08	-41.0	-51.8	3.5	7.66e-01	0	36	104	0	56	18929
2026-01-08 22:26:17.97	42.89	10.12	-47.6	-65.0	3.5	7.66e-01	0	36	104	0	60	68150
2026-01-08 22:26:18.95	42.70	10.16	-36.8	-47.2	3.6	7.66e-01	0	36	104	0	48	17513
2026-01-08 22:26:19.93	42.52	10.20	-35.8	-46.0	3.5	7.66e-01	0	36	104	0	46	17241
2026-01-08 22:26:20.91	42.33	10.24	-35.8	-46.0	3.5	7.66e-01	0	36	104	0	46	17207
2026-01-08 22:26:21.88	42.15	10.28	-36.1	-46.3	3.5	7.66e-01	0	36	104	0	46	17846
2026-01-08 22:26:22.86	41.97	10.31	-40.8	-51.7	3.5	7.66e-01	0	36	104	0	52	23442
2026-01-08 22:26:23.84	41.78	10.35	-35.6	-45.9	3.6	7.66e-01	0	36	104	0	46	16909
2026-01-08 22:26:24.82	41.59	10.39	-46.4	-61.5	3.5	7.66e-01	0	36	104	0	60	45672
2026-01-08 22:26:25.79	41.41	10.43	-42.8	-54.2	3.5	7.66e-01	0	36	104	0	60	19769
2026-01-08 22:26:26.77	41.22	10.46	-44.7	-57.4	3.5	7.66e-01	0	36	104	0	54	40439
2026-01-08 22:26:27.75	41.03	10.50	-44.9	-57.5	3.5	7.66e-01	0	36	104	0	60	28721
2026-01-08 22:26:28.72	40.85	10.54	-41.3	-52.2	3.5	7.66e-01	0	36	104	0	58	17537
2026-01-08 22:26:29.70	40.66	10.57	-41.5	-52.5	3.5	7.66e-01	0	36	104	0	58	18283
2026-01-08 22:26:30.68	40.47	10.61	-41.9	-52.9	3.5	7.66e-01	0	36	104	0	58	18967
2026-01-08 22:26:31.66	40.28	10.65	-47.3	-63.5	3.5	7.66e-01	0	36	104	0	60	57319
2026-01-08 22:26:32.64	40.09	10.68	-47.4	-65.2	3.5	7.66e-01	0	36	104	0	60	69721
2026-01-08 22:26:33.62	39.90	10.72	-39.5	-50.1	3.6	7.66e-01	0	36	104	0	60	12294
2026-01-08 22:26:34.59	39.71	10.75	-45.1	-59.4	3.5	7.66e-01	0	36	104	0	60	35855
2026-01-08 22:26:35.57	39.52	10.79	-39.0	-49.6	3.6	7.66e-01	0	36	104	0	60	11591
2026-01-08 22:26:36.55	39.33	10.82	-36.0	-46.3	3.5	7.66e-01	0	36	104	0	46	17781
2026-01-08 22:26:37.52	39.13	10.86	-35.9	-46.1	3.5	7.66e-01	0	36	104	0	46	17451
2026-01-08 22:26:38.50	38.94	10.89	-35.6	-45.9	3.6	7.66e-01	0	36	104	0	46	16974
2026-01-08 22:26:39.48	38.75	10.93	-35.8	-46.0	3.5	7.66e-01	0	36	104	0	46	17251
2026-01-08 22:26:40.46	38.55	10.96	-35.7	-45.9	3.5	7.66e-01	0	36	104	0	46	17081
2026-01-08 22:26:41.43	38.36	10.99	-35.5	-45.7	3.5	7.66e-01	0	36	104	0	48	14863
2026-01-08 22:26:42.41	38.16	11.03	-36.4	-46.7	3.5	7.66e-01	0	36	104	0	48	16702
2026-01-08 22:26:43.38	37.97	11.06	-46.7	-61.7	3.5	7.66e-01	0	36	104	0	60	47065
2026-01-08 22:26:44.36	37.77	11.09	-39.3	-49.8	3.5	7.66e-01	0	36	104	0	56	15043
2026-01-08 22:26:45.34	37.58	11.13	-47.7	-65.5	3.5	7.66e-01	0	36	104	0	60	72681
2026-01-08 22:26:46.31	37.38	11.16	-42.2	-53.5	3.5	7.66e-01	0	36	104	0	58	20400
2026-01-08 22:26:47.29	37.18	11.19	-42.5	-53.8	3.5	7.66e-01	0	36	104	0	58	21106
2026-01-08 22:26:48.26	36.99	11.22	-42.7	-54.0	3.5	7.66e-01	0	36	104	0	60	19384
2026-01-08 22:26:49.24	36.79	11.25	-42.6	-53.9	3.5	7.66e-01	0	36	104	0	60	19076
2026-01-08 22:26:50.22	36.59	11.28	-38.6	-49.1	3.5	7.66e-01	0	36	104	0	52	17393
2026-01-08 22:26:51.20	36.39	11.32	-47.8	-65.6	3.5	7.66e-01	0	36	104	0	60	73492
2026-01-08 22:26:52.17	36.19	11.35	-43.6	-55.3	3.5	7.66e-01	0	36	104	0	60	22421
2026-01-08 22:26:53.15	35.99	11.38	-47.7	-65.3	3.5	7.66e-01	0	36	104	0	60	70946
2026-01-08 22:26:54.13	35.79	11.41	-36.2	-46.6	3.5	7.66e-01	0	36	104	0	46	18339
2026-01-08 22:26:55.10	35.59	11.44	-35.8	-46.0	3.5	7.66e-01	0	36	104	0	46	17223
2026-01-08 22:26:56.08	35.39	11.47	-35.7	-46.0	3.5	7.66e-01	0	36	104	0	46	17141
2026-01-08 22:26:57.06	35.19	11.50	-35.4	-45.7	3.5	7.66e-01	0	36	104	0	46	16537
2026-01-08 22:26:58.04	34.99	11.53	-35.4	-45.6	3.5	7.66e-01	0	36	104	0	46	16497
2026-01-08 22:26:59.02	34.78	11.55	-35.3	-45.5	3.5	7.66e-01	0	36	104	0	44	18201
2026-01-08 22:27:00.00	34.58	11.58	-36.9	-47.3	3.5	7.66e-01	0	36	104	0	46	19858
2026-01-08 22:27:00.97	34.38	11.61	-47.7	-65.5	3.5	7.66e-01	0	36	104	0	60	72106
2026-01-08 22:27:01.95	34.17	11.64	-40.6	-51.4	3.5	7.66e-01	0	36	104	0	54	20145
2026-01-08 22:27:02.93	33.97	11.67	-47.7	-65.0	3.5	7.66e-01	0	36	104	0	60	68825
2026-01-08 22:27:03.90	33.76	11.69	-41.0	-51.8	3.5	7.66e-01	0	36	104	0	60	14991
2026-01-08 22:27:04.88	33.56	11.72	-40.6	-51.3	3.5	7.66e-01	0	36	104	0	54	20044
2026-01-08 22:27:05.85	33.36	11.75	-41.4	-52.3	3.5	7.66e-01	0	36	104	0	56	19976
2026-01-08 22:27:06.83	33.15	11.77	-42.0	-52.9	3.5	7.66e-01	0	36	104	0	56	21505
2026-01-08 22:27:07.81	32.94	11.80	-47.6	-65.3	3.5	7.66e-01	0	36	104	0	60	70802
2026-01-08 22:27:08.78	32.74	11.83	-47.5	-65.1	3.5	7.66e-01	0	36	104	0	60	69217
2026-01-08 22:27:09.76	32.53	11.85	-38.8	-49.4	3.5	7.66e-01	0	36	104	0	50	20181
2026-01-08 22:27:10.74	32.32	11.88	-47.3	-64.4	3.5	7.66e-01	0	36	104	0	60	63928
2026-01-08 22:27:11.72	32.11	11.90	-37.1	-47.6	3.6	7.66e-01	0	36	104	0	54	12991
2026-01-08 22:27:12.69	31.91	11.93	-35.9	-46.2	3.6	7.66e-01	0	36	104	0	46	17595
2026-01-08 22:27:13.67	31.70	11.95	-35.9	-46.2	3.4	7.66e-01	0	36	104	0	46	17546
2026-01-08 22:27:14.65	31.49	11.97	-35.3	-45.5	3.6	7.66e-01	0	36	104	0	46	16319
2026-01-08 22:27:15.62	31.28	12.00	-35.1	-45.2	3.6	7.66e-01	0	36	104	0	46	15709
2026-01-08 22:27:16.60	31.07	12.02	-34.3	-35.8	24.6	7.66e-01	0	35	104	0	44	5957
2026-01-08 22:27:17.58	30.86	12.04	-34.7	-35.9	28.5	7.66e-01	0	36	0	1048576	44	6063
2026-01-08 22:27:18.56	30.65	12.07	-39.2	-41.0	23.3	7.66e-01	0	36	0	2621440	46	9646
2026-01-08 22:27:19.54	30.44	12.09	-41.3	-44.0	4.7	7.66e-01	0	36	104	3145728	60	6078
2026-01-08 22:27:20.52	30.22	12.11	-34.9	-36.5	24.0	7.66e-01	0	35	104	3145728	46	5736
2026-01-08 22:27:21.50	30.01	12.13	-45.7	-51.0	17.1	7.66e-01	0	35	104	3145728	60	13593
2026-01-08 22:27:22.48	29.80	12.15	-36.1	-37.4	27.6	7.66e-01	0	36	0	4194304	46	6422
2026-01-08 22:27:23.46	29.59	12.17	-36.0	-37.3	27.4	7.66e-01	0	36	0	5767168	46	6308
2026-01-08 22:27:24.43	29.38	12.19	-36.1	-37.5	27.2	7.66e-01	0	35	0	7864320	46	6466
2026-01-08 22:27:25.41	29.16	12.21	-36.7	-38.1	26.9	7.66e-01	0	36	0	9437184	46	6909
2026-01-08 22:27:26.39	28.95	12.23	-36.5	-37.9	27.1	7.66e-01	0	35	0	11534336	46	6731
2026-01-08 22:27:27.37	28.74	12.25	-36.7	-38.1	26.7	7.66e-01	0	36	0	13107200	46	6936
2026-01-08 22:27:28.35	28.52	12.27	-36.9	-38.3	26.7	7.66e-01	0	36	0	14680064	48	6299
2026-01-08 22:27:29.33	28.31	12.29	-36.9	-38.3	26.7	7.66e-01	0	36	0	16777216	48	6303
2026-01-08 22:27:30.31	28.09	12.31	-35.5	-36.8	28.0	7.66e-01	0	35	0	18350080	46	5970
2026-01-08 22:27:31.28	27.88	12.33	-34.6	-35.9	28.9	7.66e-01	0	36	0	20447232	44	6011
2026-01-08 22:27:32.26	27.66	12.35	-34.4	-35.7	29.0	7.66e-01	0	35	0	22020096	44	5861
2026-01-08 22:27:33.24	27.45	12.36	-34.5	-35.8	28.9	7.66e-01	0	35	0	24117248	44	5948
2026-01-08 22:27:34.21	27.23	12.38	-34.5	-35.7	28.9	7.66e-01	0	35	0	25690112	44	5925
2026-01-08 22:27:35.19	27.02	12.40	-34.4	-35.6	29.0	7.66e-01	0	35	0	27787264	44	5855
2026-01-08 22:27:36.17	26.80	12.41	-34.4	-35.7	29.0	7.66e-01	0	35	0	29360128	44	5871
2026-01-08 22:27:37.15	26.58	12.43	-34.5	-35.8	28.9	7.66e-01	0	35	0	31457280	44	5946
2026-01-08 22:27:38.12	26.37	12.44	-34.4	-35.6	29.0	7.66e-01	0	35	0	33030144	44	5826
2026-01-08 22:27:39.10	26.15	12.46	-34.5	-35.7	28.9	7.66e-01	0	35	0	35127296	44	5919
2026-01-08 22:27:40.07	25.94	12.47	-34.5	-35.7	28.9	7.66e-01	0	35	0	36700160	44	5901
2026-01-08 22:27:41.05	25.72	12.49	-34.4	-35.6	29.0	7.66e-01	0	35	0	38797312	44	5854
2026-01-08 22:27:42.03	25.50	12.50	-34.4	-35.7	29.0	7.66e-01	0	35	0	40370176	44	5860
2026-01-08 22:27:43.01	25.28	12.52	-34.6	-35.9	28.8	7.66e-01	0	36	0	42467328	44	6027
2026-01-08 22:27:43.99	25.06	12.53	-34.5	-35.8	28.9	7.66e-01	0	35	0	44040192	44	5931
2026-01-08 22:27:44.96	24.85	12.54	-34.4	-35.6	29.0	7.66e-01	0	35	0	46137344	44	5840
2026-01-08 22:27:45.94	24.63	12.55	-34.4	-35.6	29.0	7.66e-01	0	36	0	47710208	44	5829
2026-01-08 22:27:46.92	24.41	12.57	-34.6	-35.8	28.9	7.66e-01	0	35	0	49807360	44	5971
2026-01-08 22:27:47.90	24.19	12.58	-34.5	-35.7	29.0	7.66e-01	0	35	0	51380224	44	5908
2026-01-08 22:27:48.87	23.97	12.59	-34.4	-35.6	29.0	7.66e-01	0	35	0	53477376	44	5843
2026-01-08 22:27:49.85	23.76	12.60	-34.5	-35.7	28.9	7.66e-01	0	36	0	55050240	44	5922
2026-01-08 22:27:50.83	23.54	12.61	-34.4	-35.7	29.0	7.66e-01	0	35	0	57147392	44	5878
2026-01-08 22:27:51.81	23.32	12.62	-34.5	-35.7	28.9	7.66e-01	0	35	0	58720256	44	5893
2026-01-08 22:27:52.79	23.10	12.63	-34.5	-35.7	28.9	7.66e-01	0	35	0	60817408	44	5900
2026-01-08 22:27:53.76	22.88	12.64	-34.5	-35.7	29.0	7.66e-01	0	35	0	62390272	44	5905
2026-01-08 22:27:54.74	22.66	12.65	-34.4	-35.6	29.0	7.66e-01	0	35	0	64487424	44	5841
2026-01-08 22:27:55.72	22.44	12.66	-34.5	-35.7	28.9	7.66e-01	0	35	0	66060288	44	5889
2026-01-08 22:27:56.69	22.22	12.67	-34.6	-35.9	28.8	7.66e-01	0	35	0	68157440	44	6002
2026-01-08 22:27:57.67	22.00	12.67	-34.4	-35.6	29.0	7.66e-01	0	35	0	69730304	44	5848
2026-01-08 22:27:58.64	21.78	12.68	-34.5	-35.7	29.0	7.66e-01	0	35	0	71827456	44	5874
2026-01-08 22:27:59.62	21.56	12.69	-34.5	-35.7	28.9	7.66e-01	0	35	0	73400320	44	5916
2026-01-08 22:28:00.60	21.34	12.70	-34.4	-35.6	29.0	7.66e-01	0	35	0	75497472	44	5840
2026-01-08 22:28:01.58	21.12	12.70	-34.4	-35.6	29.0	7.66e-01	0	35	0	77070336	44	5851
2026-01-08 22:28:02.55	20.90	12.71	-34.4	-35.6	29.1	7.66e-01	0	35	0	79167488	44	5823
2026-01-08 22:28:03.53	20.68	12.71	-34.5	-35.8	29.0	7.66e-01	0	35	0	80740352	44	5930
2026-01-08 22:28:04.51	20.45	12.72	-34.4	-35.7	29.0	7.66e-01	0	35	0	82837504	44	5877
2026-01-08 22:28:05.49	20.23	12.72	-34.5	-35.7	28.9	7.66e-01	0	35	0	84410368	44	5922
2026-01-08 22:28:06.46	20.01	12.73	-34.5	-35.7	29.0	7.66e-01	0	35	0	86507520	44	5876
2026-01-08 22:28:07.44	19.79	12.73	-34.6	-35.8	28.8	7.66e-01	0	35	0	88080384	44	5991
2026-01-08 22:28:08.42	19.57	12.73	-34.5	-35.7	29.0	7.66e-01	0	35	0	90177536	44	5879
2026-01-08 22:28:09.39	19.35	12.74	-34.6	-35.9	28.8	7.66e-01	0	35	0	91750400	44	6010
2026-01-08 22:28:10.37	19.13	12.74	-34.5	-35.7	28.9	7.66e-01	0	35	0	93847552	44	5890
2026-01-08 22:28:11.34	18.91	12.74	-34.4	-35.7	29.0	7.66e-01	0	35	0	95420416	44	5862
2026-01-08 22:28:12.32	18.69	12.75	-34.4	-35.6	29.0	7.66e-01	0	35	0	97517568	44	5858
2026-01-08 22:28:13.30	18.46	12.75	-34.3	-35.5	29.0	7.66e-01	0	35	0	99090432	44	5782
2026-01-08 22:28:14.28	18.24	12.75	-34.3	-35.5	29.1	7.66e-01	0	35	0	101187584	44	5768
2026-01-08 22:28:15.25	18.02	12.75	-34.3	-35.6	29.1	7.66e-01	0	35	0	102760448	44	5800
2026-01-08 22:28:16.24	17.80	12.75	-34.5	-35.8	28.9	7.66e-01	0	35	0	104857600	44	5934
2026-01-08 22:28:17.22	17.58	12.75	-34.5	-35.8	28.9	7.66e-01	0	35	0	106430464	44	5938
2026-01-08 22:28:18.20	17.35	12.75	-34.4	-35.7	29.0	7.66e-01	0	35	0	108527616	44	5874
2026-01-08 22:28:19.18	17.13	12.75	-34.6	-35.8	28.9	7.66e-01	0	35	0	110100480	44	5963
2026-01-08 22:28:20.16	16.91	12.75	-34.4	-35.6	29.1	7.66e-01	0	35	0	112197632	44	5817
2026-01-08 22:28:21.14	16.69	12.74	-34.4	-35.7	29.0	7.66e-01	0	35	0	113770496	44	5866
2026-01-08 22:28:22.12	16.47	12.74	-34.5	-35.7	28.9	7.66e-01	0	35	0	115867648	44	5911
2026-01-08 22:28:23.10	16.25	12.74	-34.5	-35.7	28.9	7.66e-01	0	35	0	117440512	44	5899
2026-01-08 22:28:24.08	16.02	12.74	-34.5	-35.7	28.9	7.66e-01	0	35	0	119537664	44	5900
2026-01-08 22:28:25.06	15.80	12.73	-34.4	-35.7	29.0	7.66e-01	0	35	0	121110528	44	5875
2026-01-08 22:28:26.03	15.58	12.73	-34.4	-35.6	29.0	7.66e-01	0	35	0	123207680	44	5848
2026-01-08 22:28:27.01	15.36	12.73	-34.5	-35.7	29.0	7.66e-01	0	35	0	124780544	44	5926
2026-01-08 22:28:27.99	15.14	12.72	-34.4	-35.6	29.0	7.66e-01	0	35	0	126877696	44	5853
2026-01-08 22:28:28.96	14.92	12.72	-34.5	-35.7	29.0	7.66e-01	0	35	0	128450560	44	5921
2026-01-08 22:28:29.94	14.70	12.71	-34.4	-35.6	29.0	7.66e-01	0	35	0	130547712	44	5850
2026-01-08 22:28:30.92	14.48	12.71	-34.4	-35.6	29.1	7.66e-01	0	35	0	132120576	44	5832
2026-01-08 22:28:31.90	14.26	12.70	-34.5	-35.7	29.0	7.66e-01	0	35	0	134217728	44	5878
2026-01-08 22:28:32.87	14.04	12.69	-34.5	-35.7	28.9	7.66e-01	0	35	0	135790592	44	5895
2026-01-08 22:28:33.85	13.82	12.69	-34.5	-35.8	29.0	7.66e-01	0	35	0	137887744	44	5933
2026-01-08 22:28:34.82	13.60	12.68	-34.6	-35.8	28.8	7.66e-01	0	35	0	139460608	44	5993
2026-01-08 22:28:35.80	13.38	12.67	-34.5	-35.7	28.9	7.66e-01	0	35	0	141557760	44	5894
2026-01-08 22:28:36.78	13.16	12.67	-34.5	-35.7	28.9	7.66e-01	0	35	0	143130624	44	5924
2026-01-08 22:28:37.76	12.94	12.66	-34.4	-35.6	29.0	7.66e-01	0	35	0	145227776	44	5825
2026-01-08 22:28:38.74	12.71	12.65	-34.4	-35.6	29.0	7.66e-01	0	35	0	146800640	44	5831
2026-01-08 22:28:39.71	12.50	12.64	-34.5	-35.7	28.9	7.66e-01	0	35	0	148897792	44	5910
2026-01-08 22:28:40.69	12.28	12.63	-34.4	-35.7	29.0	7.66e-01	0	35	0	150470656	44	5869
2026-01-08 22:28:41.67	12.06	12.62	-34.5	-35.8	28.9	7.66e-01	0	35	0	152567808	44	5927
2026-01-08 22:28:42.65	11.84	12.61	-34.4	-35.6	29.0	7.66e-01	0	35	0	154140672	44	5839
2026-01-08 22:28:43.62	11.62	12.60	-34.5	-35.7	29.0	7.66e-01	0	35	0	156237824	44	5910
2026-01-08 22:28:44.60	11.40	12.59	-34.4	-35.6	29.0	7.66e-01	0	35	0	157810688	44	5846
2026-01-08 22:28:45.58	11.18	12.58	-34.5	-35.7	28.9	7.66e-01	0	35	0	159907840	44	5912
2026-01-08 22:28:46.56	10.96	12.56	-34.5	-35.7	28.9	7.66e-01	0	35	0	161480704	44	5922
2026-01-08 22:28:47.54	10.74	12.55	-34.7	-35.9	28.8	7.66e-01	0	35	0	163577856	44	6035
2026-01-08 22:28:48.52	10.52	12.54	-34.7	-35.9	28.7	7.66e-01	0	35	0	165150720	44	6047
2026-01-08 22:28:49.49	10.31	12.53	-34.6	-35.8	28.9	7.66e-01	0	35	0	167247872	44	5951
2026-01-08 22:28:50.47	10.09	12.51	-34.6	-35.9	28.8	7.66e-01	0	35	0	168820736	44	6001
2026-01-08 22:28:51.45	9.87	12.50	-34.5	-35.7	29.0	7.66e-01	0	35	0	170917888	44	5917
2026-01-08 22:28:52.43	9.65	12.49	-34.7	-35.9	28.8	7.66e-01	0	35	0	172490752	44	6032
2026-01-08 22:28:53.41	9.44	12.47	-34.6	-35.9	28.8	7.66e-01	0	35	0	174587904	44	6006
2026-01-08 22:28:54.38	9.22	12.46	-34.6	-35.8	28.9	7.66e-01	0	35	0	176160768	44	5967
2026-01-08 22:28:55.35	9.01	12.44	-34.4	-35.7	29.0	7.66e-01	0	35	0	178257920	44	5865
2026-01-08 22:28:56.33	8.79	12.43	-34.5	-35.7	28.9	7.66e-01	0	35	0	179830784	44	5902
2026-01-08 22:28:57.31	8.57	12.41	-34.5	-35.8	28.9	7.66e-01	0	35	0	181927936	44	5935
2026-01-08 22:28:58.29	8.36	12.39	-34.4	-35.7	28.9	7.66e-01	0	35	0	183500800	44	5860
2026-01-08 22:28:59.26	8.14	12.38	-34.4	-35.6	29.0	7.66e-01	0	35	0	185597952	44	5852
2026-01-08 22:29:00.25	7.92	12.36	-34.6	-35.8	28.8	7.66e-01	0	35	0	187170816	44	5972
2026-01-08 22:29:01.22	7.71	12.34	-34.5	-35.8	28.9	7.66e-01	0	35	0	189267968	44	5929
2026-01-08 22:29:02.20	7.50	12.33	-34.6	-35.8	28.9	7.66e-01	0	35	0	190840832	44	5961
2026-01-08 22:29:03.18	7.28	12.31	-34.6	-35.8	28.8	7.66e-01	0	35	0	192937984	44	5979
2026-01-08 22:29:04.16	7.07	12.29	-34.6	-35.8	28.9	7.66e-01	0	35	0	194510848	44	5959
2026-01-08 22:29:05.14	6.85	12.27	-34.6	-35.9	28.9	7.66e-01	0	35	0	196608000	44	6003
2026-01-08 22:29:06.12	6.64	12.25	-34.6	-35.8	28.8	7.66e-01	0	35	0	198180864	44	5982
2026-01-08 22:29:07.10	6.42	12.23	-34.5	-35.8	28.9	7.66e-01	0	35	0	200278016	44	5939
2026-01-08 22:29:08.08	6.21	12.21	-34.8	-36.1	28.6	7.66e-01	0	35	0	201850880	44	6149
2026-01-08 22:29:09.06	6.00	12.19	-34.7	-35.9	28.7	7.66e-01	0	35	0	203948032	44	6046
2026-01-08 22:29:10.03	5.79	12.17	-34.7	-35.9	28.7	7.66e-01	0	35	0	205520896	44	6053
2026-01-08 22:29:11.01	5.57	12.15	-34.7	-35.9	28.8	7.66e-01	0	35	0	207618048	44	6024
2026-01-08 22:29:11.99	5.36	12.13	-34.6	-35.8	28.8	7.66e-01	0	35	0	209190912	44	5959
2026-01-08 22:29:12.97	5.15	12.11	-34.8	-36.0	28.7	7.66e-01	0	35	0	211288064	44	6121
2026-01-08 22:29:13.94	4.94	12.09	-34.7	-35.9	28.8	7.66e-01	0	35	0	212860928	44	6021
2026-01-08 22:29:14.92	4.73	12.06	-34.6	-35.8	28.9	7.66e-01	0	35	0	214958080	44	5954
2026-01-08 22:29:15.89	4.52	12.04	-34.6	-35.9	28.8	7.66e-01	0	35	0	216530944	44	6002
2026-01-08 22:29:16.87	4.31	12.02	-34.6	-35.8	28.8	7.66e-01	0	35	0	218628096	44	5976
2026-01-08 22:29:17.84	4.10	11.99	-34.6	-35.8	28.9	7.66e-01	0	35	0	220200960	44	5983
2026-01-08 22:29:18.82	3.89	11.97	-34.6	-35.8	28.9	7.66e-01	0	35	0	221773824	44	5987
2026-01-08 22:29:19.81	3.68	11.95	-34.6	-35.8	28.9	7.66e-01	0	35	0	223870976	44	5981
2026-01-08 22:29:20.78	3.48	11.92	-34.6	-35.8	28.8	7.66e-01	0	35	0	225968128	44	5982
2026-01-08 22:29:21.76	3.27	11.90	-34.5	-35.8	28.9	7.66e-01	0	35	0	227540992	44	5928
2026-01-08 22:29:22.74	3.06	11.87	-34.6	-35.8	28.8	7.66e-01	0	35	0	229638144	44	5988
2026-01-08 22:29:23.71	2.85	11.85	-34.5	-35.7	28.9	7.66e-01	0	35	0	231211008	44	5921
2026-01-08 22:29:24.69	2.65	11.82	-34.6	-35.8	28.8	7.66e-01	0	35	0	233308160	44	5970
2026-01-08 22:29:25.67	2.44	11.80	-34.5	-35.8	28.9	7.66e-01	0	35	0	234881024	44	5934
2026-01-08 22:29:26.65	2.23	11.77	-34.6	-35.8	28.8	7.66e-01	0	35	0	236978176	44	5993
2026-01-08 22:29:27.62	2.03	11.75	-34.7	-36.0	28.7	7.66e-01	0	35	0	238551040	44	6085
2026-01-08 22:29:28.60	1.82	11.72	-34.7	-36.0	28.7	7.66e-01	0	35	0	240648192	44	6092
2026-01-08 22:29:29.58	1.62	11.69	-34.6	-35.8	28.8	7.66e-01	0	35	0	242221056	44	5983
2026-01-08 22:29:30.56	1.41	11.66	-34.5	-35.8	28.9	7.66e-01	0	35	0	244318208	44	5927
2026-01-08 22:29:31.54	1.21	11.64	-34.5	-35.7	28.9	7.66e-01	0	35	0	245891072	44	5895
2026-01-08 22:29:32.52	1.00	11.61	-34.7	-35.9	28.8	7.66e-01	0	35	0	247463936	44	6022
2026-01-08 22:29:33.50	0.80	11.58	-34.8	-36.0	28.6	7.66e-01	0	35	0	249561088	44	6133
2026-01-08 22:29:34.48	0.60	11.55	-35.0	-36.3	28.5	7.66e-01	0	35	0	251658240	44	6281
2026-01-08 22:29:35.46	0.39	11.52	-34.8	-36.1	28.7	7.66e-01	0	35	0	253231104	44	6138
2026-01-08 22:29:36.44	0.19	11.49	-34.7	-35.9	28.8	7.66e-01	0	35	0	255328256	44	6058
2026-01-08 22:29:37.41	359.99	11.46	-34.7	-35.9	28.8	7.66e-01	0	35	0	256901120	44	6042
2026-01-08 22:29:38.39	359.79	11.43	-34.8	-36.0	28.7	7.66e-01	0	35	0	258998272	44	6110
2026-01-08 22:29:39.37	359.59	11.40	-34.7	-35.9	28.7	7.66e-01	0	35	0	260571136	44	6044
2026-01-08 22:29:40.35	359.39	11.37	-34.7	-35.9	28.8	7.66e-01	0	35	0	262668288	44	6019
2026-01-08 22:29:41.32	359.19	11.34	-34.5	-35.8	28.9	7.66e-01	0	35	0	264241152	44	5947
2026-01-08 22:29:42.30	358.99	11.31	-34.7	-35.9	28.7	7.66e-01	0	35	0	266338304	44	6026
2026-01-08 22:29:43.27	358.79	11.28	-34.7	-35.9	28.7	7.66e-01	0	35	0	267911168	44	6064
2026-01-08 22:29:44.25	358.59	11.25	-34.9	-36.1	28.5	7.66e-01	0	35	0	270008320	44	6176
2026-01-08 22:29:45.22	358.40	11.22	-34.9	-36.1	28.6	7.66e-01	0	35	0	271581184	44	6171
2026-01-08 22:29:46.20	358.20	11.19	-35.1	-36.3	28.5	7.66e-01	0	35	0	273154048	44	6328
2026-01-08 22:29:47.18	358.00	11.16	-35.2	-36.5	28.3	7.66e-01	0	35	0	275251200	44	6455
2026-01-08 22:29:48.16	357.81	11.12	-35.3	-36.5	28.3	7.66e-01	0	35	0	276824064	44	6484
2026-01-08 22:29:49.13	357.61	11.09	-35.3	-36.6	28.3	7.66e-01	0	35	0	278921216	44	6524
2026-01-08 22:29:50.11	357.42	11.06	-35.2	-36.5	28.2	7.66e-01	0	35	0	280494080	44	6448
2026-01-08 22:29:51.09	357.22	11.02	-34.9	-36.1	28.5	7.66e-01	0	35	0	282591232	44	6175
2026-01-08 22:29:52.06	357.03	10.99	-34.9	-36.2	28.5	7.66e-01	0	35	0	284164096	44	6216
2026-01-08 22:29:53.04	356.83	10.96	-34.7	-35.9	28.7	7.66e-01	0	35	0	286261248	44	6057
2026-01-08 22:29:54.02	356.64	10.92	-34.9	-36.2	28.5	7.66e-01	0	35	0	287834112	44	6224
2026-01-08 22:29:54.99	356.45	10.89	-34.9	-36.1	28.5	7.66e-01	0	35	0	289931264	44	6175
2026-01-08 22:29:55.97	356.25	10.85	-34.9	-36.1	28.4	7.66e-01	0	35	0	291504128	44	6169
2026-01-08 22:29:56.94	356.06	10.82	-35.2	-36.5	28.2	7.66e-01	0	35	0	293601280	44	6481
2026-01-08 22:29:57.92	355.87	10.79	-35.2	-36.5	28.2	7.66e-01	0	35	0	295174144	44	6445
2026-01-08 22:29:58.90	355.68	10.75	-35.9	-37.3	27.5	7.66e-01	0	35	0	297271296	44	7063
2026-01-08 22:29:59.88	355.49	10.71	-34.9	-36.1	28.6	7.66e-01	0	35	0	298844160	46	5507
2026-01-08 22:30:00.85	355.30	10.68	-35.3	-36.6	28.1	7.66e-01	0	35	0	300941312	44	6535
2026-01-08 22:30:01.82	355.11	10.64	-34.3	-35.6	29.0	7.66e-01	0	35	0	302514176	44	5800
2026-01-08 22:30:02.80	354.92	10.61	-35.3	-36.6	28.0	7.66e-01	0	35	0	304611328	44	6549
2026-01-08 22:30:03.77	354.74	10.57	-34.5	-35.7	28.8	7.66e-01	0	35	0	306184192	44	5900
2026-01-08 22:30:04.75	354.55	10.54	-35.6	-36.9	27.7	7.66e-01	0	35	0	308281344	44	6768
2026-01-08 22:30:05.72	354.36	10.50	-34.9	-36.2	28.4	7.66e-01	0	35	0	309854208	44	6213
2026-01-08 22:30:06.70	354.17	10.46	-35.6	-36.9	27.7	7.66e-01	0	35	0	311951360	44	6785
2026-01-08 22:30:07.67	353.99	10.43	-34.7	-35.9	28.5	7.66e-01	0	35	0	313524224	44	6025
2026-01-08 22:30:08.65	353.80	10.39	-35.7	-37.0	27.5	7.66e-01	0	35	0	315621376	44	6862
2026-01-08 22:30:09.63	353.62	10.35	-35.4	-36.7	27.9	7.66e-01	0	35	0	317194240	44	6587
2026-01-08 22:30:10.61	353.43	10.31	-36.6	-38.0	26.7	7.66e-01	0	35	0	319291392	46	6827
2026-01-08 22:30:11.59	353.25	10.27	-36.5	-37.9	27.0	7.66e-01	0	35	0	320864256	46	6728
2026-01-08 22:30:12.57	353.06	10.24	-37.8	-39.3	25.6	7.66e-01	0	35	0	322961408	48	7050
2026-01-08 22:30:13.54	352.88	10.20	-37.4	-38.8	25.9	7.66e-01	0	35	0	324534272	48	6682
2026-01-08 22:30:14.52	352.70	10.16	-38.3	-39.9	25.1	7.66e-01	0	35	0	326631424	50	6739
2026-01-08 22:30:15.50	352.51	10.12	-37.1	-38.4	26.1	7.66e-01	0	35	0	328204288	48	6421
2026-01-08 22:30:16.47	352.33	10.08	-37.3	-38.8	26.3	7.66e-01	0	35	0	330301440	50	5933
2026-01-08 22:30:17.45	352.15	10.04	-36.0	-37.3	27.3	7.66e-01	0	35	0	331874304	46	6330
2026-01-08 22:30:18.42	351.97	10.00	-36.7	-38.1	26.6	7.66e-01	0	35	0	333971456	46	6914
2026-01-08 22:30:19.40	351.79	9.96	-36.4	-37.7	26.9	7.66e-01	0	35	0	335544320	46	6602
2026-01-08 22:30:20.38	351.61	9.92	-36.6	-38.0	26.7	7.66e-01	0	35	0	337641472	48	6082
2026-01-08 22:30:21.36	351.43	9.88	-36.0	-37.3	27.4	7.66e-01	0	35	0	339214336	46	6334
2026-01-08 22:30:22.33	351.26	9.84	-36.3	-37.6	27.0	7.66e-01	0	35	0	341311488	46	6537
2026-01-08 22:30:23.31	351.08	9.80	-36.6	-37.9	26.9	7.66e-01	0	35	0	342884352	46	6777
2026-01-08 22:30:24.28	350.90	9.76	-36.4	-37.8	26.8	7.66e-01	0	35	0	344981504	48	5934
2026-01-08 22:30:25.26	350.72	9.72	-37.1	-38.5	26.4	7.66e-01	0	35	0	346554368	48	6481
2026-01-08 22:30:26.24	350.55	9.68	-36.5	-37.9	26.8	7.66e-01	0	35	0	348651520	48	5999
2026-01-08 22:30:27.22	350.37	9.64	-36.6	-38.0	26.8	7.66e-01	0	35	0	350224384	48	6124
2026-01-08 22:30:28.20	350.19	9.60	-36.7	-38.1	26.7	7.66e-01	0	35	0	352321536	48	6162
2026-01-08 22:30:29.17	350.02	9.56	-36.3	-37.6	27.1	7.66e-01	0	35	0	353894400	48	5851
2026-01-08 22:30:30.15	349.85	9.52	-36.1	-37.5	27.3	7.66e-01	0	35	0	355991552	46	6425
2026-01-08 22:30:31.12	349.67	9.48	-36.1	-37.4	27.2	7.66e-01	0	35	0	357564416	46	6370
2026-01-08 22:30:32.10	349.50	9.43	-36.2	-37.5	27.3	7.66e-01	0	35	0	359661568	46	6481
2026-01-08 22:30:33.07	349.33	9.39	-35.5	-36.8	27.9	7.66e-01	0	35	0	361234432	46	5960
2026-01-08 22:30:34.05	349.16	9.35	-35.5	-36.8	27.8	7.66e-01	0	35	0	363331584	46	5962
2026-01-08 22:30:35.03	348.99	9.31	-35.4	-36.6	28.0	7.66e-01	0	35	0	364904448	46	5843
2026-01-08 22:30:36.00	348.82	9.27	-35.6	-36.9	27.7	7.66e-01	0	35	0	367001600	46	6032
2026-01-08 22:30:36.98	348.64	9.22	-35.4	-36.7	27.9	7.66e-01	0	35	0	368574464	46	5901
2026-01-08 22:30:37.96	348.47	9.18	-35.5	-36.7	27.8	7.66e-01	0	35	0	370671616	46	5924
2026-01-08 22:30:38.94	348.30	9.14	-35.6	-36.9	27.8	7.66e-01	0	35	0	372244480	46	6007
2026-01-08 22:30:39.92	348.14	9.09	-35.6	-36.9	27.8	7.66e-01	0	35	0	374341632	46	6037
2026-01-08 22:30:40.90	347.97	9.05	-35.4	-36.6	28.0	7.66e-01	0	35	0	375914496	46	5844
2026-01-08 22:30:41.87	347.80	9.01	-35.4	-36.7	27.9	7.66e-01	0	35	0	377487360	46	5892
2026-01-08 22:30:42.85	347.63	8.97	-35.7	-37.1	27.6	7.66e-01	0	35	0	379584512	46	6144
2026-01-08 22:30:43.83	347.47	8.92	-35.5	-36.8	27.9	7.66e-01	0	35	0	381681664	46	5980
2026-01-08 22:30:44.81	347.30	8.88	-35.5	-36.8	27.7	7.66e-01	0	35	0	383254528	46	5955
2026-01-08 22:30:45.79	347.13	8.83	-35.6	-36.9	27.6	7.66e-01	0	35	0	385351680	46	5995
2026-01-08 22:30:46.77	346.97	8.79	-35.6	-36.9	27.5	7.66e-01	0	35	0	386924544	46	6031
2026-01-08 22:30:47.74	346.81	8.75	-36.0	-37.3	27.3	7.66e-01	0	35	0	389021696	46	6315
2026-01-08 22:30:48.72	346.64	8.70	-36.0	-37.4	27.2	7.66e-01	0	35	0	390594560	46	6364
2026-01-08 22:30:49.70	346.48	8.66	-36.4	-37.7	26.9	7.66e-01	0	35	0	392691712	46	6629
2026-01-08 22:30:50.67	346.32	8.61	-36.2	-37.5	27.2	7.66e-01	0	35	0	394264576	46	6477
2026-01-08 22:30:51.65	346.15	8.57	-36.4	-37.8	26.8	7.66e-01	0	35	0	396361728	46	6677
2026-01-08 22:30:52.63	345.99	8.52	-36.4	-37.7	26.8	7.66e-01	0	35	0	397934592	46	6607
2026-01-08 22:30:53.61	345.83	8.48	-36.7	-38.1	26.9	7.66e-01	0	35	0	400031744	46	6903
2026-01-08 22:30:54.59	345.67	8.43	-36.0	-37.3	27.1	7.66e-01	0	35	0	401604608	46	6320
2026-01-08 22:30:55.56	345.51	8.39	-36.3	-37.7	26.7	7.66e-01	0	35	0	403177472	46	6604
2026-01-08 22:30:56.54	345.35	8.34	-36.4	-37.8	26.6	7.66e-01	0	35	0	405274624	46	6661
2026-01-08 22:30:57.52	345.19	8.30	-37.7	-39.2	25.5	7.66e-01	0	35	0	406847488	48	7008
2026-01-08 22:30:58.49	345.03	8.25	-36.4	-37.7	26.9	7.66e-01	0	35	0	408944640	48	5897
2026-01-08 22:30:59.47	344.88	8.21	-37.7	-39.3	25.4	7.66e-01	0	35	0	410517504	48	7048
2026-01-08 22:31:00.45	344.72	8.16	-36.2	-37.5	27.1	7.66e-01	0	35	0	412614656	48	5765
2026-01-08 22:31:01.42	344.56	8.12	-36.9	-38.3	26.4	7.66e-01	0	35	0	414187520	48	6335
2026-01-08 22:31:02.40	344.41	8.07	-35.6	-36.9	27.6	7.66e-01	0	35	0	416284672	46	6038
2026-01-08 22:31:03.38	344.25	8.03	-36.3	-37.7	26.8	7.66e-01	0	35	0	418381824	46	6635
2026-01-08 22:31:04.35	344.10	7.98	-35.5	-36.8	27.7	7.66e-01	0	35	0	419954688	46	5950
2026-01-08 22:31:05.33	343.94	7.93	-36.6	-38.1	26.6	7.66e-01	0	35	0	422051840	46	6906
2026-01-08 22:31:06.31	343.79	7.89	-36.2	-37.5	27.0	7.66e-01	0	35	0	423624704	46	6431
2026-01-08 22:31:07.29	343.63	7.84	-36.5	-37.9	26.6	7.66e-01	0	35	0	425721856	46	6756
2026-01-08 22:31:08.27	343.48	7.80	-36.3	-37.6	26.9	7.66e-01	0	35	0	427294720	48	5839
2026-01-08 22:31:09.25	343.33	7.75	-35.7	-37.0	27.5	7.66e-01	0	35	0	428867584	46	6096
2026-01-08 22:31:10.23	343.18	7.70	-36.1	-37.5	27.1	7.66e-01	0	35	0	430964736	46	6459
2026-01-08 22:31:11.21	343.02	7.66	-36.0	-37.4	27.2	7.66e-01	0	35	0	432537600	46	6357
2026-01-08 22:31:12.19	342.87	7.61	-36.1	-37.4	27.1	7.66e-01	0	35	0	434634752	46	6404
2026-01-08 22:31:13.16	342.72	7.56	-36.1	-37.5	27.0	7.66e-01	0	35	0	436207616	46	6455
2026-01-08 22:31:14.14	342.57	7.52	-36.6	-38.1	26.3	7.66e-01	0	35	0	438304768	46	6929
2026-01-08 22:31:15.12	342.42	7.47	-36.3	-37.6	27.0	7.66e-01	0	35	0	439877632	46	6513
2026-01-08 22:31:16.09	342.28	7.42	-36.9	-38.4	26.2	7.66e-01	0	35	0	441974784	46	7163
2026-01-08 22:31:17.07	342.13	7.38	-36.3	-37.7	26.5	7.66e-01	0	35	0	443547648	48	5868
2026-01-08 22:31:18.05	341.98	7.33	-36.0	-37.3	27.0	7.66e-01	0	35	0	445644800	46	6347
2026-01-08 22:31:19.02	341.83	7.28	-36.8	-38.3	26.2	7.66e-01	0	35	0	447217664	46	7044
2026-01-08 22:31:20.00	341.69	7.23	-36.1	-37.4	27.1	7.66e-01	0	35	0	449314816	46	6375
2026-01-08 22:31:20.98	341.54	7.19	-36.4	-37.8	26.8	7.66e-01	0	35	0	451411968	46	6665
2026-01-08 22:31:21.95	341.40	7.14	-36.4	-37.8	26.8	7.66e-01	0	35	0	452984832	46	6673
2026-01-08 22:31:22.93	341.25	7.09	-36.3	-37.6	26.8	7.66e-01	0	35	0	454557696	46	6568
2026-01-08 22:31:23.91	341.11	7.04	-36.1	-37.4	27.0	7.66e-01	0	35	0	456654848	46	6419
2026-01-08 22:31:24.88	340.96	7.00	-36.4	-37.8	26.8	7.66e-01	0	35	0	458227712	46	6670
2026-01-08 22:31:25.86	340.82	6.95	-36.4	-37.8	26.7	7.66e-01	0	35	0	460324864	46	6694
2026-01-08 22:31:26.83	340.68	6.90	-36.4	-37.8	26.7	7.66e-01	0	35	0	461897728	46	6665
2026-01-08 22:31:27.81	340.54	6.85	-36.9	-38.4	26.2	7.66e-01	0	35	0	463994880	46	7127
2026-01-08 22:31:28.79	340.39	6.81	-37.1	-38.6	26.0	7.66e-01	0	35	0	465567744	48	6519
2026-01-08 22:31:29.77	340.25	6.76	-36.4	-37.8	26.6	7.66e-01	0	35	0	467664896	48	5953
2026-01-08 22:31:30.74	340.11	6.71	-36.4	-37.8	26.7	7.66e-01	0	35	0	469237760	48	5953
2026-01-08 22:31:31.72	339.97	6.66	-36.4	-37.8	26.6	7.66e-01	0	35	0	471334912	48	5965
2026-01-08 22:31:32.70	339.83	6.62	-36.1	-37.5	26.9	7.66e-01	0	35	0	472907776	48	5742
2026-01-08 22:31:33.68	339.69	6.57	-35.9	-37.2	27.2	7.66e-01	0	35	0	475004928	46	6270
2026-01-08 22:31:34.65	339.55	6.52	-36.6	-38.0	26.4	7.66e-01	0	35	0	476577792	46	6880
2026-01-08 22:31:35.63	339.42	6.47	-36.4	-37.7	26.6	7.66e-01	0	35	0	478674944	46	6648
2026-01-08 22:31:36.61	339.28	6.42	-36.2	-37.5	26.8	7.66e-01	0	35	0	480247808	46	6461
2026-01-08 22:31:37.58	339.14	6.37	-36.8	-38.3	26.0	7.66e-01	0	35	0	482344960	46	7099
2026-01-08 22:31:38.56	339.00	6.33	-37.1	-38.6	25.6	7.66e-01	0	35	0	483917824	48	6537
2026-01-08 22:31:39.54	338.87	6.28	-36.7	-38.0	26.3	7.66e-01	0	35	0	486014976	48	6119
2026-01-08 22:31:40.52	338.73	6.23	-37.0	-38.4	25.7	7.66e-01	0	35	0	487587840	48	6415
2026-01-08 22:31:41.49	338.60	6.18	-36.6	-38.1	26.2	7.66e-01	0	35	0	489684992	48	6152
2026-01-08 22:31:42.47	338.46	6.13	-35.8	-37.0	27.2	7.66e-01	0	35	0	491257856	46	6134
2026-01-08 22:31:43.45	338.33	6.08	-36.2	-37.6	26.8	7.66e-01	0	35	0	493355008	46	6540
2026-01-08 22:31:44.43	338.19	6.04	-36.5	-38.0	26.3	7.66e-01	0	35	0	494927872	46	6826
2026-01-08 22:31:45.40	338.06	5.99	-36.3	-37.7	26.7	7.66e-01	0	35	0	497025024	46	6574
2026-01-08 22:31:46.38	337.93	5.94	-36.5	-37.9	26.4	7.66e-01	0	35	0	498597888	46	6778
2026-01-08 22:31:47.36	337.80	5.89	-37.0	-38.5	25.8	7.66e-01	0	35	0	500695040	46	7238
2026-01-08 22:31:48.34	337.66	5.84	-37.3	-38.7	25.7	7.66e-01	0	35	0	502267904	48	6643
2026-01-08 22:31:49.32	337.53	5.79	-36.6	-38.0	26.1	7.66e-01	0	35	0	504365056	48	6107
2026-01-08 22:31:50.29	337.40	5.74	-37.2	-38.7	25.3	7.66e-01	0	35	0	505937920	48	6610
2026-01-08 22:31:51.27	337.27	5.70	-37.6	-39.1	24.9	7.66e-01	0	35	0	508035072	48	6946
2026-01-08 22:31:52.25	337.14	5.65	-37.3	-38.8	24.9	7.66e-01	0	35	0	509607936	48	6688
2026-01-08 22:31:53.23	337.01	5.60	-37.7	-39.4	24.1	7.66e-01	0	35	0	511705088	48	7141
2026-01-08 22:31:54.21	336.88	5.55	-38.2	-40.0	23.5	7.66e-01	0	35	0	513277952	50	6841
2026-01-08 22:31:55.19	336.76	5.50	-38.3	-40.1	23.3	7.66e-01	0	35	0	515375104	50	6898
2026-01-08 22:31:56.16	336.63	5.45	-38.7	-40.6	22.6	7.66e-01	0	35	0	516947968	50	7313
2026-01-08 22:31:57.14	336.50	5.40	-39.1	-41.1	21.9	7.66e-01	0	35	0	519045120	52	6935
2026-01-08 22:31:58.12	336.37	5.35	-39.2	-41.2	21.8	7.66e-01	0	35	0	520617984	52	7020
2026-01-08 22:31:59.10	336.25	5.30	-39.9	-42.3	20.6	7.66e-01	0	35	0	522715136	52	7935
2026-01-08 22:32:00.08	336.12	5.26	-40.4	-43.0	19.6	7.66e-01	0	35	0	524288000	54	7695
2026-01-08 22:32:01.05	336.00	5.21	-40.5	-43.2	19.4	7.66e-01	0	35	0	526385152	54	7883
2026-01-08 22:32:02.03	335.87	5.16	-41.0	-44.1	18.2	7.66e-01	0	35	0	527958016	54	8732
2026-01-08 22:32:03.01	335.75	5.11	-41.6	-45.3	16.8	7.66e-01	0	35	0	530055168	56	8905
2026-01-08 22:32:03.98	335.62	5.06	-41.7	-45.7	16.0	7.66e-01	0	35	0	531628032	56	9361
2026-01-08 22:32:04.96	335.50	5.01	-41.8	-46.2	15.4	7.66e-01	0	35	0	533725184	56	9919
2026-01-08 22:32:05.93	335.38	4.96	-42.2	-47.7	13.5	7.66e-01	0	35	0	535298048	58	10513
2026-01-08 22:32:06.91	335.25	4.91	-42.5	-48.9	12.0	7.66e-01	0	35	0	537395200	58	12025
2026-01-08 22:32:07.88	335.13	4.86	-42.6	-49.7	11.0	7.66e-01	0	35	0	538968064	58	13155
2026-01-08 22:32:08.87	335.01	4.81	-42.6	-50.2	10.2	7.66e-01	0	35	0	541065216	58	13994
2026-01-08 22:32:09.84	334.89	4.77	-42.8	-51.6	8.3	7.66e-01	9	35	0	542638080	58	16455
2026-01-08 22:32:10.82	334.77	4.72	-43.1	-52.8	7.0	7.66e-01	92	35	0	544735232	60	16769
2026-01-08 22:32:11.79	334.65	4.67	-43.0	-52.3	7.5	7.66e-01	88	35	0	546308096	60	15896
2026-01-08 22:32:12.77	334.53	4.62	-43.0	-52.2	7.8	7.66e-01	63	35	0	548405248	60	15592
2026-01-08 22:32:13.75	334.41	4.57	-43.1	-53.0	6.7	7.66e-01	93	35	0	549978112	60	17134
2026-01-08 22:32:14.72	334.29	4.52	-43.2	-53.1	6.7	7.66e-01	93	35	0	552075264	60	17400
2026-01-08 22:32:15.70	334.17	4.47	-43.2	-53.2	6.5	7.66e-01	90	35	0	553648128	60	17631
2026-01-08 22:32:16.67	334.05	4.42	-43.1	-53.2	6.6	7.66e-01	91	35	0	555745280	60	17583
2026-01-08 22:32:17.65	333.94	4.37	-43.1	-53.5	6.2	7.66e-01	93	35	0	557318144	60	18148
2026-01-08 22:32:18.63	333.82	4.32	-43.2	-53.9	5.8	7.66e-01	91	35	0	558891008	60	18966
2026-01-08 22:32:19.60	333.70	4.27	-43.2	-53.0	6.8	7.66e-01	91	35	0	560463872	60	17261
2026-01-08 22:32:20.59	333.59	4.22	-43.2	-52.8	7.3	7.66e-01	91	35	0	562561024	60	16738
2026-01-08 22:32:21.56	333.47	4.18	-43.3	-53.2	6.8	7.66e-01	92	35	0	564133888	60	17557
2026-01-08 22:32:22.54	333.35	4.13	-43.3	-53.1	7.0	7.66e-01	93	35	0	566231040	60	17341
2026-01-08 22:32:23.51	333.24	4.08	-43.3	-52.7	7.5	7.66e-01	91	35	0	567803904	60	16585
2026-01-08 22:32:24.49	333.13	4.03	-43.2	-51.6	9.0	7.66e-01	1	35	0	569901056	60	14624
2026-01-08 22:32:25.47	333.01	3.98	-43.3	-51.6	9.0	7.66e-01	0	35	0	571473920	60	14675
2026-01-08 22:32:26.45	332.90	3.93	-43.2	-50.2	10.9	7.66e-01	0	35	0	573571072	60	12513
2026-01-08 22:32:27.42	332.78	3.88	-43.0	-48.9	12.7	7.66e-01	0	35	0	575143936	60	10721
2026-01-08 22:32:28.40	332.67	3.83	-43.1	-48.6	13.4	7.66e-01	0	35	0	577241088	60	10350
2026-01-08 22:32:29.37	332.56	3.78	-43.1	-48.7	13.3	7.66e-01	0	35	0	578813952	60	10458
2026-01-08 22:32:30.35	332.45	3.73	-42.8	-48.0	14.0	7.66e-01	0	35	0	580911104	60	9664
2026-01-08 22:32:31.33	332.34	3.68	-42.4	-47.2	14.7	7.66e-01	0	35	0	582483968	60	8774
2026-01-08 22:32:32.30	332.23	3.63	-42.5	-47.4	14.4	7.66e-01	0	35	0	584581120	60	9008
2026-01-08 22:32:33.28	332.11	3.59	-42.5	-47.3	14.6	7.66e-01	0	35	0	586153984	60	8963
2026-01-08 22:32:34.25	332.00	3.54	-42.2	-46.6	15.4	7.66e-01	0	35	0	588251136	60	8220
2026-01-08 22:32:35.23	331.89	3.49	-41.8	-45.7	16.3	7.66e-01	0	35	0	589824000	58	8331
2026-01-08 22:32:36.21	331.79	3.44	-41.3	-44.7	17.4	7.66e-01	0	35	0	591921152	58	7430
2026-01-08 22:32:37.18	331.68	3.39	-41.2	-44.6	17.5	7.66e-01	0	35	0	593494016	58	7345
2026-01-08 22:32:38.16	331.57	3.34	-41.4	-44.9	17.2	7.66e-01	0	35	0	595591168	58	7630
2026-01-08 22:32:39.14	331.46	3.29	-41.4	-44.8	17.6	7.66e-01	0	35	0	597164032	58	7503
2026-01-08 22:32:40.11	331.35	3.24	-41.1	-44.1	18.7	7.66e-01	0	35	0	599261184	58	6896
2026-01-08 22:32:41.09	331.24	3.19	-41.1	-44.0	18.8	7.66e-01	0	35	0	600834048	58	6850
2026-01-08 22:32:42.07	331.14	3.14	-41.2	-44.1	18.8	7.66e-01	0	35	0	602931200	56	7784
2026-01-08 22:32:43.05	331.03	3.09	-41.0	-44.1	18.6	7.66e-01	0	35	0	604504064	56	7726
2026-01-08 22:32:44.02	330.92	3.05	-41.1	-44.0	18.7	7.66e-01	0	35	0	606076928	56	7690
2026-01-08 22:32:45.00	330.82	3.00	-47.3	-65.1	3.5	7.66e-01	0	35	104	607125504	60	69590
2026-01-08 22:32:45.97	330.71	2.95	-47.8	-65.7	3.5	7.66e-01	0	35	104	607125504	60	74092
2026-01-08 22:32:46.95	330.61	2.90	-48.0	-65.9	3.5	7.66e-01	0	35	104	607125504	60	76147
2026-01-08 22:32:47.93	330.50	2.85	-48.2	-66.1	3.5	7.66e-01	0	35	104	607125504	60	77558
2026-01-08 22:32:48.90	330.40	2.80	-48.2	-66.2	3.5	7.66e-01	0	35	104	607125504	60	78590
2026-01-08 22:32:49.88	330.30	2.75	-47.7	-66.3	3.5	7.66e-01	0	35	104	607125504	60	79182
2026-01-08 22:32:50.87	330.19	2.70	-48.3	-66.4	3.5	7.66e-01	0	35	104	607125504	60	80056
2026-01-08 22:32:51.85	330.09	2.65	-48.3	-66.4	3.5	7.66e-01	0	35	104	607125504	60	80417
2026-01-08 22:32:52.83	329.99	2.60	-48.2	-66.5	3.5	7.66e-01	0	35	104	607125504	60	80896
2026-01-08 22:32:53.81	329.88	2.55	-48.2	-66.4	3.5	7.66e-01	0	35	104	607125504	60	80415
2026-01-08 22:32:54.79	329.78	2.51	-48.5	-66.4	3.5	7.66e-01	0	35	104	607125504	60	80766
2026-01-08 22:32:55.77	329.68	2.46	-48.3	-66.4	3.5	7.66e-01	0	35	104	607125504	60	79972
2026-01-08 22:32:56.75	329.58	2.41	-48.4	-66.3	3.5	7.66e-01	0	35	104	607125504	60	79899
2026-01-08 22:32:57.73	329.48	2.36	-48.3	-66.3	3.5	7.66e-01	0	35	104	607125504	60	79663
2026-01-08 22:32:58.71	329.38	2.31	-48.4	-66.3	3.5	7.66e-01	0	35	104	607125504	60	79167
2026-01-08 22:32:59.69	329.28	2.26	-47.5	-66.3	3.5	7.66e-01	0	35	104	607125504	60	79540
2026-01-08 22:33:00.67	329.18	2.21	-48.6	-66.5	3.5	7.66e-01	0	35	104	607125504	60	81720
2026-01-08 22:33:01.64	329.08	2.16	-48.6	-66.4	3.5	7.66e-01	0	35	104	607125504	60	80467
2026-01-08 22:33:02.62	328.98	2.11	-48.5	-66.4	3.5	7.66e-01	0	35	104	607125504	60	80211
2026-01-08 22:33:03.59	328.88	2.07	-48.5	-66.3	3.5	7.66e-01	0	35	104	607125504	60	79663
2026-01-08 22:33:04.57	328.78	2.02	-48.5	-66.3	3.5	7.66e-01	0	35	104	607125504	60	79636
2026-01-08 22:33:05.55	328.68	1.97	-48.5	-66.4	3.5	7.66e-01	0	35	104	607125504	60	80062
2026-01-08 22:33:06.52	328.59	1.92	-48.5	-66.3	3.5	7.66e-01	0	35	104	607125504	60	79673
2026-01-08 22:33:07.49	328.49	1.87	-48.5	-66.3	3.5	7.66e-01	0	35	104	607125504	60	79334
2026-01-08 22:33:08.47	328.39	1.82	-48.5	-66.3	3.5	7.66e-01	0	35	104	607125504	60	79685
2026-01-08 22:33:09.45	328.30	1.77	-48.5	-66.3	3.5	7.66e-01	0	35	104	607125504	60	79912
2026-01-08 22:33:10.42	328.20	1.72	-48.5	-66.3	3.5	7.66e-01	0	35	104	607125504	60	79535
2026-01-08 22:33:11.40	328.11	1.68	-48.5	-66.3	3.5	7.66e-01	0	35	104	607125504	60	79700
2026-01-08 22:33:12.38	328.01	1.63	-48.4	-66.3	3.5	7.66e-01	0	35	104	607125504	60	79661
2026-01-08 22:33:13.35	327.92	1.58	-48.5	-66.3	3.5	7.66e-01	0	35	104	607125504	60	79374
2026-01-08 22:33:14.33	327.82	1.53	-48.4	-66.3	3.5	7.66e-01	0	35	104	607125504	60	79562
2026-01-08 22:33:15.31	327.73	1.48	-48.4	-66.2	3.6	7.66e-01	0	35	104	607125504	60	79013
2026-01-08 22:33:16.29	327.63	1.43	-48.4	-66.3	3.5	7.66e-01	0	35	104	607125504	60	79350
2026-01-08 22:33:17.27	327.54	1.38	-48.4	-66.3	3.5	7.66e-01	0	35	104	607125504	60	79469
2026-01-08 22:33:18.24	327.45	1.34	-48.5	-66.3	3.5	7.66e-01	0	35	104	607125504	60	79547
2026-01-08 22:33:19.22	327.35	1.29	-48.4	-66.3	3.5	7.66e-01	0	35	104	607125504	60	79424
2026-01-08 22:33:20.20	327.26	1.24	-48.4	-66.3	3.5	7.66e-01	0	35	104	607125504	60	79123
2026-01-08 22:33:21.18	327.17	1.19	-48.4	-66.3	3.5	7.66e-01	0	35	104	607125504	60	79465
2026-01-08 22:33:22.16	327.08	1.14	-48.4	-66.3	3.5	7.66e-01	0	35	104	607125504	60	79085
2026-01-08 22:33:23.14	326.98	1.09	-48.5	-66.3	3.5	7.66e-01	0	35	104	607125504	60	79692
2026-01-08 22:33:24.11	326.89	1.05	-48.4	-66.3	3.5	7.66e-01	0	35	104	607125504	60	79474
2026-01-08 22:33:25.09	326.80	1.00	-48.4	-66.2	3.5	7.66e-01	0	35	104	607125504	60	78676
2026-01-08 22:33:26.07	326.71	0.95	-48.4	-66.2	3.5	7.66e-01	0	35	104	607125504	60	78943
2026-01-08 22:33:27.05	326.62	0.90	-48.4	-66.2	3.5	7.66e-01	0	35	104	607125504	60	79007
2026-01-08 22:33:28.02	326.53	0.85	-48.4	-66.2	3.5	7.66e-01	0	35	104	607125504	60	78932
2026-01-08 22:33:29.00	326.44	0.80	-48.4	-66.3	3.5	7.66e-01	0	35	104	607125504	60	79051
2026-01-08 22:33:29.98	326.35	0.76	-48.4	-66.2	3.5	7.66e-01	0	35	104	607125504	60	78865
2026-01-08 22:33:30.95	326.27	0.71	-48.4	-66.2	3.5	7.66e-01	0	35	104	607125504	60	78980
2026-01-08 22:33:31.93	326.18	0.66	-48.4	-66.3	3.5	7.66e-01	0	35	104	607125504	60	79219
2026-01-08 22:33:32.91	326.09	0.61	-48.4	-66.3	3.5	7.66e-01	0	35	104	607125504	60	79522
2026-01-08 22:33:33.89	326.00	0.56	-48.5	-66.3	3.5	7.66e-01	0	35	104	607125504	60	79256
2026-01-08 22:33:34.87	325.91	0.52	-48.4	-66.3	3.5	7.66e-01	0	35	104	607125504	60	79063
2026-01-08 22:33:35.84	325.83	0.47	-48.4	-66.2	3.5	7.66e-01	0	35	104	607125504	60	78976
2026-01-08 22:33:36.82	325.74	0.42	-48.4	-66.3	3.5	7.66e-01	0	35	104	607125504	60	79160
2026-01-08 22:33:37.80	325.65	0.37	-48.4	-66.3	3.5	7.66e-01	0	35	104	607125504	60	79231
2026-01-08 22:33:38.78	325.57	0.32	-48.4	-66.2	3.5	7.66e-01	0	35	104	607125504	60	78949
2026-01-08 22:33:39.75	325.48	0.28	-48.4	-66.2	3.5	7.66e-01	0	35	104	607125504	60	78918
2026-01-08 22:33:40.73	325.40	0.23	-48.4	-66.3	3.5	7.66e-01	0	35	104	607125504	60	79200
2026-01-08 22:33:41.70	325.31	0.18	-48.4	-66.2	3.5	7.66e-01	0	35	104	607125504	60	78592
2026-01-08 22:33:42.68	325.23	0.13	-48.4	-66.3	3.5	7.66e-01	0	35	104	607125504	60	79099
2026-01-08 22:33:43.66	325.14	0.08	-48.4	-66.3	3.5	7.66e-01	0	35	104	607125504	60	79491
2026-01-08 22:33:44.64	325.06	0.04	-48.4	-66.2	3.5	7.66e-01	0	35	104	607125504	60	78903
2026-01-08 22:33:45.61	324.97	-0.01	-48.4	-66.2	3.5	7.66e-01	0	35	104	607125504	60	78445
2026-01-08 22:33:46.59	324.89	-0.06	-48.4	-66.2	3.5	7.66e-01	0	35	104	607125504	60	78683

#Closed at: 2026-01-08 22:33:46
#Recorded file [607 MB]: D:/lorett/data/35029_260109_102253.dat