passes_logs/2026/01/08/R4.6S_Anadyr/R4.6S_Anadyr__20260108_090933_TY-39_rec.log

#Pass ID: 20260108_090933_TY-39
#Satellite: TY-39
#Configuration: TY-39
#almurnet v.1.7.20251203
#Start time: 2026-01-08 09:09:38

#Version: 2.2.20231116
#Station: R4.6S_Anadyr
#Location: 177.4865 lon 64.73178 lat
#TLE: 1 51832U 22019J   26005.60812338  .00003126  00000-0  14986-3 0  9990
#TLE: 2 51832  97.3660  72.5273 0010440  80.2600 279.9813 15.19590096213104

#Time	Az	El	Level	Level2	SNR	BER	BlckErr	Temp	State	Recorded	gain1	gain2
2026-01-08 09:09:38.28	169.16	0.29	-48.3	-58.9	3.5	8.46e-01	0	30	0	0	60	31860
2026-01-08 09:09:39.29	169.18	0.35	-48.9	-51.3	3.6	0.00e+00	0	32	104	0	60	45084
2026-01-08 09:09:40.30	169.20	0.42	-48.9	-51.3	3.6	0.00e+00	0	32	104	0	60	44941
2026-01-08 09:09:41.31	169.22	0.48	-48.9	-51.3	3.6	0.00e+00	0	32	104	0	60	45102
2026-01-08 09:09:42.32	169.24	0.55	-48.8	-51.3	3.6	0.00e+00	0	32	104	0	60	44893
2026-01-08 09:09:43.33	169.26	0.62	-48.7	-51.2	3.6	0.00e+00	0	32	104	0	60	44577
2026-01-08 09:09:44.34	169.28	0.68	-48.7	-51.2	3.6	0.00e+00	0	32	104	0	60	44371
2026-01-08 09:09:45.35	169.30	0.75	-48.6	-51.0	3.6	0.00e+00	0	32	104	0	60	43620
2026-01-08 09:09:46.36	169.32	0.82	-48.2	-50.7	3.6	0.00e+00	0	32	104	0	60	41858
2026-01-08 09:09:47.37	169.34	0.88	-48.4	-50.9	3.6	0.00e+00	0	32	104	0	60	42868
2026-01-08 09:09:48.38	169.36	0.95	-48.2	-50.7	3.6	0.00e+00	0	32	104	0	60	41886
2026-01-08 09:09:49.39	169.39	1.02	-47.9	-50.4	3.6	0.00e+00	0	32	104	0	60	40435
2026-01-08 09:09:50.40	169.41	1.08	-47.5	-50.0	3.6	0.00e+00	0	32	104	0	60	38787
2026-01-08 09:09:51.41	169.43	1.15	-47.5	-50.0	3.6	0.00e+00	0	32	104	0	60	38787
2026-01-08 09:09:52.42	169.45	1.22	-47.5	-50.0	3.6	0.00e+00	0	32	104	0	60	38766
2026-01-08 09:09:53.43	169.47	1.29	-47.5	-50.0	3.6	0.00e+00	0	32	104	0	60	38630
2026-01-08 09:09:54.44	169.49	1.36	-47.5	-50.0	3.6	0.00e+00	0	32	104	0	60	38776
2026-01-08 09:09:55.45	169.51	1.42	-47.5	-50.0	3.6	0.00e+00	0	32	104	0	60	38670
2026-01-08 09:09:56.46	169.53	1.49	-47.5	-50.0	3.6	0.00e+00	0	32	104	0	60	38835
2026-01-08 09:09:57.47	169.55	1.56	-47.5	-50.0	3.6	0.00e+00	0	32	104	0	60	38611
2026-01-08 09:09:58.48	169.57	1.63	-47.5	-50.0	3.6	0.00e+00	0	33	104	0	60	38794
2026-01-08 09:09:59.49	169.60	1.70	-47.5	-50.0	3.6	0.00e+00	0	33	104	0	60	38696
2026-01-08 09:10:00.50	169.62	1.77	-47.5	-50.0	3.6	0.00e+00	0	32	104	0	60	38606
2026-01-08 09:10:01.51	169.64	1.84	-47.5	-50.0	3.6	0.00e+00	0	33	104	0	60	38674
2026-01-08 09:10:02.52	169.66	1.91	-47.5	-50.0	3.6	0.00e+00	0	33	104	0	60	38835
2026-01-08 09:10:03.53	169.68	1.98	-47.5	-49.9	3.6	0.00e+00	0	33	104	0	60	38500
2026-01-08 09:10:04.54	169.71	2.05	-47.5	-50.0	3.6	0.00e+00	0	33	104	0	60	38719
2026-01-08 09:10:05.55	169.73	2.12	-47.5	-50.0	3.6	0.00e+00	0	33	104	0	60	38880
2026-01-08 09:10:06.56	169.75	2.19	-47.5	-50.0	3.6	0.00e+00	0	33	104	0	60	38777
2026-01-08 09:10:07.57	169.77	2.26	-47.5	-50.0	3.6	0.00e+00	0	33	104	0	60	38532
2026-01-08 09:10:08.58	169.80	2.33	-47.5	-50.0	3.6	0.00e+00	0	33	104	0	60	38709
2026-01-08 09:10:09.59	169.82	2.41	-47.5	-50.0	3.6	0.00e+00	0	33	104	0	60	38808
2026-01-08 09:10:10.59	169.84	2.48	-47.5	-50.0	3.6	0.00e+00	0	33	104	0	60	38526
2026-01-08 09:10:11.60	169.86	2.55	-47.5	-50.0	3.6	0.00e+00	0	33	104	0	60	38567
2026-01-08 09:10:12.61	169.89	2.62	-47.5	-50.0	3.6	0.00e+00	0	33	104	0	60	38799
2026-01-08 09:10:13.62	169.91	2.69	-47.5	-50.0	3.6	0.00e+00	0	33	104	0	60	38685
2026-01-08 09:10:14.63	169.93	2.77	-47.5	-50.0	3.6	0.00e+00	0	33	104	0	60	38845
2026-01-08 09:10:15.64	169.96	2.84	-47.5	-50.0	3.6	0.00e+00	0	33	104	0	60	38900
2026-01-08 09:10:16.65	169.98	2.91	-47.5	-50.0	3.6	0.00e+00	0	33	104	0	60	38661
2026-01-08 09:10:17.66	170.01	2.99	-47.5	-50.0	3.6	0.00e+00	0	33	104	0	60	38705
2026-01-08 09:10:18.67	170.03	3.06	-47.5	-50.0	3.6	0.00e+00	0	33	104	0	60	38663
2026-01-08 09:10:19.68	170.05	3.14	-47.5	-50.0	3.6	0.00e+00	0	33	104	0	60	38631
2026-01-08 09:10:20.69	170.08	3.21	-47.5	-49.9	3.6	0.00e+00	0	33	104	0	60	38506
2026-01-08 09:10:21.70	170.10	3.28	-47.5	-50.0	3.6	0.00e+00	0	33	104	0	60	38592
2026-01-08 09:10:22.71	170.13	3.36	-47.5	-50.0	3.6	0.00e+00	0	33	104	0	60	38753
2026-01-08 09:10:23.72	170.15	3.43	-47.5	-50.0	3.6	0.00e+00	0	33	104	0	60	38613
2026-01-08 09:10:24.72	170.18	3.51	-47.5	-50.0	3.6	0.00e+00	0	33	104	0	60	38684
2026-01-08 09:10:25.73	170.20	3.59	-47.5	-50.0	3.6	0.00e+00	0	33	104	0	60	38724
2026-01-08 09:10:26.74	170.23	3.66	-47.5	-50.0	3.6	0.00e+00	0	33	104	0	60	38704
2026-01-08 09:10:27.75	170.25	3.74	-47.5	-50.0	3.6	0.00e+00	0	33	104	0	60	38641
2026-01-08 09:10:28.77	170.28	3.81	-47.5	-50.0	3.6	0.00e+00	0	33	104	0	60	38531
2026-01-08 09:10:29.77	170.30	3.89	-47.5	-50.0	3.6	0.00e+00	0	33	104	0	60	38643
2026-01-08 09:10:30.79	170.33	3.97	-47.5	-50.0	3.6	0.00e+00	0	33	104	0	60	38718
2026-01-08 09:10:31.80	170.35	4.05	-47.5	-50.0	3.6	0.00e+00	0	33	104	0	60	38699
2026-01-08 09:10:32.81	170.38	4.12	-47.6	-50.1	3.6	0.00e+00	0	33	104	0	60	38970
2026-01-08 09:10:33.81	170.40	4.20	-47.7	-50.2	3.6	0.00e+00	0	33	104	0	60	39612
2026-01-08 09:10:34.82	170.43	4.28	-47.6	-50.1	3.6	0.00e+00	0	33	104	0	60	38992
2026-01-08 09:10:35.83	170.46	4.36	-47.6	-50.2	3.6	0.00e+00	0	33	104	0	60	39497
2026-01-08 09:10:36.84	170.48	4.44	-47.7	-50.1	3.6	0.00e+00	0	33	104	0	60	39217
2026-01-08 09:10:37.85	170.51	4.52	-36.1	-36.5	9.4	5.36e-03	0	33	104	0	46	18337
2026-01-08 09:10:38.86	170.54	4.60	-44.2	-44.5	3.6	5.53e-02	1772	34	0	50331648	56	25877
2026-01-08 09:10:39.86	170.56	4.67	-34.8	-35.1	12.1	2.49e-02	0	34	0	58720256	44	17571
2026-01-08 09:10:40.88	170.59	4.76	-40.3	-40.6	6.3	4.37e-04	0	34	0	134217728	48	26073
2026-01-08 09:10:41.89	170.62	4.84	-30.7	-31.1	14.8	4.70e-02	0	34	0	201326592	38	15623
2026-01-08 09:10:42.90	170.65	4.92	-30.1	-30.5	14.8	0.00e+00	0	34	0	285212672	36	16350
2026-01-08 09:10:43.91	170.67	5.00	-30.0	-30.4	15.1	0.00e+00	0	34	0	352321536	36	16166
2026-01-08 09:10:44.92	170.70	5.08	-29.9	-30.3	15.1	0.00e+00	0	34	0	427819008	36	16035
2026-01-08 09:10:45.92	170.73	5.16	-29.3	-29.8	15.3	0.00e+00	0	34	0	503316480	34	16833
2026-01-08 09:10:46.93	170.76	5.24	-29.4	-29.9	15.3	0.00e+00	0	34	0	578813952	34	17101
2026-01-08 09:10:47.94	170.79	5.33	-29.5	-30.0	15.2	0.00e+00	0	34	0	654311424	34	17242
2026-01-08 09:10:48.95	170.81	5.41	-28.9	-29.3	15.6	0.00e+00	0	34	0	738197504	34	16004
2026-01-08 09:10:49.96	170.84	5.49	-28.8	-29.2	15.6	0.00e+00	0	34	0	813694976	32	17721
2026-01-08 09:10:50.97	170.87	5.57	-28.8	-29.2	15.6	0.00e+00	0	34	0	880803840	32	17767
2026-01-08 09:10:51.98	170.90	5.66	-28.6	-29.1	15.6	0.00e+00	0	34	0	956301312	32	17465
2026-01-08 09:10:52.99	170.93	5.74	-28.6	-29.1	15.7	0.00e+00	0	34	0	1031798784	32	17455
2026-01-08 09:10:54.00	170.96	5.83	-28.6	-29.0	15.6	0.00e+00	0	34	0	1115684864	32	17350
2026-01-08 09:10:55.01	170.99	5.91	-28.6	-29.0	15.6	0.00e+00	0	34	0	1191182336	32	17301
2026-01-08 09:10:56.02	171.02	6.00	-28.6	-29.0	15.7	0.00e+00	0	34	0	1266679808	32	17289
2026-01-08 09:10:57.03	171.05	6.08	-28.5	-28.9	15.7	0.00e+00	0	34	0	1342177280	32	17130
2026-01-08 09:10:58.04	171.08	6.17	-28.5	-29.0	15.7	0.00e+00	0	34	0	1417674752	32	17256
2026-01-08 09:10:59.05	171.11	6.26	-28.5	-28.9	15.7	0.00e+00	0	34	0	1493172224	32	17103
2026-01-08 09:11:00.05	171.14	6.34	-28.5	-28.9	15.7	0.00e+00	0	34	0	1568669696	32	17194
2026-01-08 09:11:01.06	171.17	6.43	-28.4	-28.9	15.8	0.00e+00	0	34	0	1644167168	32	17071
2026-01-08 09:11:02.07	171.20	6.52	-28.4	-28.8	15.8	0.00e+00	0	34	0	1719664640	32	16911
2026-01-08 09:11:03.08	171.23	6.60	-28.6	-29.0	15.7	0.00e+00	0	34	0	1795162112	32	17359
2026-01-08 09:11:04.09	171.27	6.69	-28.2	-28.7	15.8	0.00e+00	0	34	0	1870659584	32	16672
2026-01-08 09:11:05.10	171.30	6.78	-28.3	-28.7	15.8	0.00e+00	0	34	0	1946157056	32	16793
2026-01-08 09:11:06.11	171.33	6.87	-28.1	-28.6	15.8	0.00e+00	0	34	0	2021654528	32	16433
2026-01-08 09:11:07.12	171.36	6.96	-28.2	-28.7	15.8	0.00e+00	0	34	0	2097152000	32	16669
2026-01-08 09:11:08.13	171.39	7.05	-28.1	-28.6	15.9	0.00e+00	0	34	0	2172649472	32	16430
2026-01-08 09:11:09.14	171.43	7.14	-28.0	-28.5	15.9	0.00e+00	0	34	0	2248146944	32	16270
2026-01-08 09:11:10.15	171.46	7.23	-28.1	-28.5	15.9	0.00e+00	0	34	0	2323644416	32	16390
2026-01-08 09:11:11.16	171.49	7.32	-28.1	-28.6	15.8	0.00e+00	0	34	0	2399141888	32	16494
2026-01-08 09:11:12.16	171.52	7.41	-27.9	-28.3	15.9	0.00e+00	0	34	0	2474639360	32	16025
2026-01-08 09:11:13.18	171.56	7.51	-28.0	-28.4	15.9	0.00e+00	0	34	0	2550136832	32	16158
2026-01-08 09:11:14.19	171.59	7.60	-27.9	-28.3	16.0	0.00e+00	0	34	0	2625634304	32	15967
2026-01-08 09:11:15.19	171.63	7.69	-27.9	-28.4	15.9	0.00e+00	0	35	0	2701131776	32	16078
2026-01-08 09:11:16.21	171.66	7.79	-27.8	-28.3	16.0	0.00e+00	0	34	0	2776629248	32	15936
2026-01-08 09:11:17.21	171.69	7.88	-27.8	-28.2	16.0	0.00e+00	0	34	0	2852126720	30	17697
2026-01-08 09:11:18.22	171.73	7.97	-27.8	-28.2	16.0	0.00e+00	0	34	0	2927624192	30	17742
2026-01-08 09:11:19.23	171.76	8.07	-27.7	-28.2	16.0	0.00e+00	0	34	0	3003121664	30	17689
2026-01-08 09:11:20.24	171.80	8.16	-27.9	-28.3	16.0	0.00e+00	0	34	0	3078619136	30	17928
2026-01-08 09:11:21.24	171.84	8.26	-27.9	-28.3	16.0	0.00e+00	0	34	0	3154116608	30	17961
2026-01-08 09:11:22.25	171.87	8.36	-27.8	-28.3	16.0	0.00e+00	0	34	0	3229614080	30	17864
2026-01-08 09:11:23.26	171.91	8.45	-27.5	-27.9	16.1	0.00e+00	0	35	0	3305111552	30	17198
2026-01-08 09:11:24.27	171.94	8.55	-27.6	-28.1	16.0	0.00e+00	0	35	0	3380609024	30	17498
2026-01-08 09:11:25.28	171.98	8.65	-27.5	-27.9	16.1	0.00e+00	0	35	0	3456106496	30	17089
2026-01-08 09:11:26.29	172.02	8.75	-27.4	-27.9	16.1	0.00e+00	0	35	0	3531603968	30	17030
2026-01-08 09:11:27.30	172.05	8.85	-27.5	-27.9	16.1	0.00e+00	0	35	0	3607101440	30	17121
2026-01-08 09:11:28.30	172.09	8.94	-27.5	-28.0	16.1	0.00e+00	0	35	0	3682598912	30	17243
2026-01-08 09:11:29.32	172.13	9.04	-27.5	-28.0	16.1	0.00e+00	0	35	0	3758096384	30	17225
2026-01-08 09:11:30.32	172.17	9.14	-27.3	-27.8	16.1	0.00e+00	0	35	0	3833593856	30	16831
2026-01-08 09:11:31.33	172.20	9.24	-27.2	-27.7	16.1	0.00e+00	0	35	0	3909091328	30	16654
2026-01-08 09:11:32.34	172.24	9.35	-27.3	-27.7	16.2	0.00e+00	0	35	0	3984588800	30	16762
2026-01-08 09:11:33.35	172.28	9.45	-27.1	-27.6	16.2	0.00e+00	0	35	0	4068474880	30	16462
2026-01-08 09:11:34.36	172.32	9.55	-27.3	-27.7	16.1	0.00e+00	0	35	0	4143972352	30	16792
2026-01-08 09:11:35.37	172.36	9.65	-27.1	-27.6	16.3	0.00e+00	0	35	0	4211081216	30	16441
2026-01-08 09:11:36.38	172.40	9.76	-27.0	-27.5	16.2	0.00e+00	0	35	0	4286578688	30	16357
2026-01-08 09:11:37.39	172.44	9.86	-27.0	-27.5	16.2	0.00e+00	0	35	0	4362076160	30	16338
2026-01-08 09:11:38.40	172.48	9.97	-26.9	-27.4	16.2	0.00e+00	0	35	0	4445962240	30	16176
2026-01-08 09:11:39.41	172.52	10.07	-27.0	-27.4	16.2	0.00e+00	0	35	0	4521459712	30	16199
2026-01-08 09:11:40.42	172.56	10.18	-26.9	-27.4	16.3	0.00e+00	0	35	0	4596957184	30	16057
2026-01-08 09:11:41.43	172.60	10.29	-26.8	-27.3	16.3	0.00e+00	0	35	0	4672454656	30	15936
2026-01-08 09:11:42.44	172.65	10.39	-26.9	-27.4	16.2	0.00e+00	0	35	0	4739563520	30	16138
2026-01-08 09:11:43.45	172.69	10.50	-26.8	-27.3	16.3	0.00e+00	0	35	0	4823449600	30	15895
2026-01-08 09:11:44.46	172.73	10.61	-26.7	-27.2	16.4	0.00e+00	0	35	0	4898947072	28	17635
2026-01-08 09:11:45.47	172.77	10.72	-26.7	-27.2	16.2	0.00e+00	0	35	0	4974444544	28	17636
2026-01-08 09:11:46.48	172.82	10.83	-26.6	-27.1	16.4	0.00e+00	0	35	0	5049942016	28	17512
2026-01-08 09:11:47.48	172.86	10.94	-26.7	-27.1	16.3	0.00e+00	0	35	0	5125439488	28	17597
2026-01-08 09:11:48.49	172.90	11.05	-26.5	-27.0	16.4	0.00e+00	0	35	0	5200936960	28	17257
2026-01-08 09:11:49.50	172.95	11.16	-26.7	-27.1	16.3	0.00e+00	0	35	0	5276434432	28	17588
2026-01-08 09:11:50.51	172.99	11.27	-26.6	-27.0	16.3	0.00e+00	0	35	0	5351931904	28	17370
2026-01-08 09:11:51.52	173.04	11.39	-26.5	-27.0	16.4	0.00e+00	0	35	0	5427429376	28	17323
2026-01-08 09:11:52.53	173.08	11.50	-26.5	-27.0	16.3	0.00e+00	0	35	0	5502926848	28	17244
2026-01-08 09:11:53.53	173.13	11.61	-26.4	-26.8	16.4	0.00e+00	0	35	0	5578424320	28	16968
2026-01-08 09:11:54.54	173.18	11.73	-26.4	-26.9	16.3	0.00e+00	0	35	0	5653921792	28	17074
2026-01-08 09:11:55.55	173.22	11.84	-26.3	-26.8	16.4	0.00e+00	0	35	0	5729419264	28	16838
2026-01-08 09:11:56.56	173.27	11.96	-26.3	-26.8	16.4	0.00e+00	0	35	0	5804916736	28	16891
2026-01-08 09:11:57.57	173.32	12.08	-26.3	-26.7	16.4	0.00e+00	0	35	0	5880414208	28	16792
2026-01-08 09:11:58.58	173.37	12.20	-26.1	-26.6	16.4	0.00e+00	0	35	0	5955911680	28	16543
2026-01-08 09:11:59.59	173.41	12.31	-26.2	-26.7	16.4	0.00e+00	0	35	0	6031409152	28	16619
2026-01-08 09:12:00.60	173.46	12.43	-26.1	-26.5	16.5	0.00e+00	0	35	0	6106906624	28	16406
2026-01-08 09:12:01.61	173.51	12.55	-26.1	-26.5	16.4	0.00e+00	0	35	0	6182404096	28	16404
2026-01-08 09:12:02.62	173.56	12.68	-26.0	-26.5	16.5	0.00e+00	0	35	0	6257901568	28	16242
2026-01-08 09:12:03.63	173.61	12.80	-26.1	-26.6	16.4	0.00e+00	0	35	0	6333399040	28	16449
2026-01-08 09:12:04.64	173.66	12.92	-26.1	-26.6	16.5	0.00e+00	0	35	0	6408896512	28	16518
2026-01-08 09:12:05.64	173.71	13.04	-25.9	-26.4	16.5	0.00e+00	0	35	0	6484393984	28	16104
2026-01-08 09:12:06.65	173.76	13.17	-25.9	-26.4	16.5	0.00e+00	0	35	0	6559891456	28	16095
2026-01-08 09:12:07.66	173.82	13.29	-25.8	-26.3	16.4	0.00e+00	0	35	0	6635388928	28	15972
2026-01-08 09:12:08.67	173.87	13.42	-26.0	-26.5	16.4	0.00e+00	0	35	0	6710886400	28	16261
2026-01-08 09:12:09.68	173.92	13.54	-25.8	-26.2	16.5	0.00e+00	0	35	0	6786383872	26	17755
2026-01-08 09:12:10.69	173.98	13.67	-25.8	-26.2	16.4	0.00e+00	0	35	0	6861881344	26	17804
2026-01-08 09:12:11.70	174.03	13.80	-25.7	-26.1	16.6	0.00e+00	0	35	0	6937378816	26	17546
2026-01-08 09:12:12.71	174.08	13.93	-25.6	-26.1	16.6	0.00e+00	0	35	0	7012876288	26	17411
2026-01-08 09:12:13.72	174.14	14.06	-25.7	-26.2	16.5	0.00e+00	0	35	0	7088373760	26	17666
2026-01-08 09:12:14.73	174.20	14.19	-25.7	-26.2	16.5	0.00e+00	0	35	0	7163871232	26	17651
2026-01-08 09:12:15.74	174.25	14.32	-25.7	-26.2	16.5	0.00e+00	0	35	0	7239368704	26	17671
2026-01-08 09:12:16.75	174.31	14.46	-25.7	-26.2	16.5	0.00e+00	0	35	0	7323254784	26	17646
2026-01-08 09:12:17.76	174.37	14.59	-25.4	-25.9	16.6	0.00e+00	0	35	0	7398752256	26	17108
2026-01-08 09:12:18.76	174.42	14.72	-25.6	-26.0	16.6	0.00e+00	0	35	0	7474249728	26	17367
2026-01-08 09:12:19.77	174.48	14.86	-25.4	-25.9	16.6	0.00e+00	0	35	0	7541358592	26	17114
2026-01-08 09:12:20.78	174.54	15.00	-25.4	-25.9	16.6	0.00e+00	0	35	0	7616856064	26	17076
2026-01-08 09:12:21.79	174.60	15.13	-25.3	-25.7	16.6	0.00e+00	0	35	0	7692353536	26	16785
2026-01-08 09:12:22.80	174.66	15.27	-25.3	-25.7	16.6	0.00e+00	0	35	0	7776239616	26	16779
2026-01-08 09:12:23.80	174.72	15.41	-25.2	-25.7	16.6	0.00e+00	0	35	0	7851737088	26	16653
2026-01-08 09:12:24.81	174.78	15.55	-25.2	-25.6	16.7	0.00e+00	0	35	0	7927234560	26	16557
2026-01-08 09:12:25.82	174.85	15.69	-25.4	-25.8	16.6	0.00e+00	0	35	0	8002732032	26	16967
2026-01-08 09:12:26.83	174.91	15.84	-25.1	-25.6	16.6	0.00e+00	0	35	0	8069840896	26	16438
2026-01-08 09:12:27.84	174.97	15.98	-25.0	-25.5	16.7	0.00e+00	0	35	0	8145338368	26	16285
2026-01-08 09:12:28.85	175.04	16.12	-25.0	-25.4	16.6	0.00e+00	0	35	0	8229224448	26	16230
2026-01-08 09:12:29.86	175.10	16.27	-25.0	-25.4	16.7	0.00e+00	0	35	0	8304721920	26	16192
2026-01-08 09:12:30.87	175.17	16.42	-24.9	-25.4	16.7	0.00e+00	0	35	0	8380219392	26	16119
2026-01-08 09:12:31.88	175.23	16.57	-24.9	-25.4	16.7	0.00e+00	0	35	0	8455716864	26	16110
2026-01-08 09:12:32.89	175.30	16.72	-24.9	-25.3	16.6	0.00e+00	0	35	0	8531214336	26	16037
2026-01-08 09:12:33.90	175.37	16.87	-24.8	-25.2	16.7	0.00e+00	0	35	0	8606711808	26	15829
2026-01-08 09:12:34.91	175.44	17.02	-24.7	-25.2	16.7	0.00e+00	0	35	0	8682209280	24	17694
2026-01-08 09:12:35.92	175.51	17.17	-24.8	-25.3	16.7	0.00e+00	0	35	0	8757706752	24	17919
2026-01-08 09:12:36.93	175.58	17.33	-24.6	-25.1	16.8	0.00e+00	0	35	0	8833204224	24	17421
2026-01-08 09:12:37.94	175.65	17.48	-24.8	-25.2	16.7	0.00e+00	0	35	0	8908701696	24	17784
2026-01-08 09:12:38.95	175.72	17.64	-24.6	-25.1	16.7	0.00e+00	0	35	0	8984199168	24	17428
2026-01-08 09:12:39.96	175.79	17.80	-24.6	-25.1	16.8	0.00e+00	0	35	0	9059696640	24	17471
2026-01-08 09:12:40.97	175.87	17.96	-24.5	-24.9	16.8	0.00e+00	0	35	0	9135194112	24	17164
2026-01-08 09:12:41.98	175.94	18.12	-24.5	-24.9	16.7	0.00e+00	0	35	0	9210691584	24	17184
2026-01-08 09:12:42.99	176.01	18.28	-24.4	-24.8	16.8	0.00e+00	0	35	0	9286189056	24	16969
2026-01-08 09:12:44.00	176.09	18.44	-24.4	-24.9	16.8	0.00e+00	0	35	0	9361686528	24	17039
2026-01-08 09:12:45.01	176.17	18.60	-24.6	-25.0	16.8	0.00e+00	0	35	0	9437184000	24	17329
2026-01-08 09:12:46.02	176.25	18.77	-24.3	-24.8	16.8	0.00e+00	0	35	0	9512681472	24	16827
2026-01-08 09:12:47.03	176.32	18.94	-24.4	-24.8	16.8	0.00e+00	0	35	0	9588178944	24	16982
2026-01-08 09:12:48.04	176.40	19.11	-24.2	-24.7	16.9	0.00e+00	0	35	0	9663676416	24	16623
2026-01-08 09:12:49.05	176.49	19.28	-24.1	-24.5	16.8	0.00e+00	0	35	0	9739173888	24	16416
2026-01-08 09:12:50.06	176.57	19.45	-24.1	-24.5	16.8	0.00e+00	0	35	0	9814671360	24	16338
2026-01-08 09:12:51.07	176.65	19.62	-24.2	-24.6	16.8	0.00e+00	0	35	0	9890168832	24	16584
2026-01-08 09:12:52.08	176.73	19.80	-24.0	-24.5	16.8	0.00e+00	0	35	0	9965666304	24	16280
2026-01-08 09:12:53.09	176.82	19.97	-23.9	-24.4	16.8	0.00e+00	0	35	0	10041163776	24	16057
2026-01-08 09:12:54.10	176.90	20.15	-23.9	-24.4	16.8	0.00e+00	0	35	0	10125049856	24	16081
2026-01-08 09:12:55.11	176.99	20.33	-23.9	-24.3	16.9	0.00e+00	0	35	0	10200547328	24	16018
2026-01-08 09:12:56.12	177.08	20.51	-23.8	-24.3	16.8	0.00e+00	0	35	0	10267656192	24	15944
2026-01-08 09:12:57.13	177.17	20.69	-23.8	-24.3	16.9	0.00e+00	0	35	0	10343153664	24	15919
2026-01-08 09:12:58.14	177.26	20.87	-23.8	-24.2	16.9	0.00e+00	0	35	0	10418651136	22	17716
2026-01-08 09:12:59.15	177.35	21.06	-23.7	-24.1	16.9	0.00e+00	0	35	0	10502537216	22	17586
2026-01-08 09:13:00.16	177.44	21.25	-23.6	-24.1	16.9	0.00e+00	0	35	0	10578034688	22	17408
2026-01-08 09:13:01.17	177.54	21.44	-23.5	-24.0	16.9	0.00e+00	0	35	0	10653532160	22	17276
2026-01-08 09:13:02.18	177.63	21.63	-23.6	-24.0	16.9	0.00e+00	0	35	0	10729029632	22	17383
2026-01-08 09:13:03.19	177.73	21.82	-23.4	-23.9	17.0	0.00e+00	0	35	0	10796138496	22	17131
2026-01-08 09:13:04.20	177.83	22.01	-23.5	-23.9	16.9	0.00e+00	0	35	0	10880024576	22	17157
2026-01-08 09:13:05.21	177.93	22.21	-23.3	-23.8	17.0	0.00e+00	0	35	0	10955522048	22	16880
2026-01-08 09:13:06.22	178.03	22.40	-23.4	-23.9	16.9	0.00e+00	0	35	0	11031019520	22	17136
2026-01-08 09:13:07.23	178.13	22.60	-23.4	-23.8	16.9	0.00e+00	0	35	0	11106516992	22	16960
2026-01-08 09:13:08.24	178.23	22.81	-23.3	-23.8	16.9	0.00e+00	0	35	0	11182014464	22	16885
2026-01-08 09:13:09.25	178.34	23.01	-23.2	-23.6	17.0	0.00e+00	0	35	0	11257511936	22	16610
2026-01-08 09:13:10.26	178.44	23.21	-23.2	-23.6	17.0	0.00e+00	0	35	0	11333009408	22	16545
2026-01-08 09:13:11.27	178.55	23.42	-23.2	-23.7	17.0	0.00e+00	0	35	0	11408506880	22	16628
2026-01-08 09:13:12.28	178.66	23.63	-23.1	-23.6	16.9	0.00e+00	0	35	0	11484004352	22	16442
2026-01-08 09:13:13.29	178.77	23.84	-23.1	-23.5	17.0	0.00e+00	0	35	0	11559501824	22	16387
2026-01-08 09:13:14.30	178.89	24.05	-23.0	-23.4	17.0	0.00e+00	0	35	0	11634999296	22	16175
2026-01-08 09:13:15.31	179.00	24.27	-22.9	-23.3	16.9	0.00e+00	0	36	0	11710496768	22	16029
2026-01-08 09:13:16.32	179.12	24.48	-22.8	-23.3	16.9	0.00e+00	0	35	0	11785994240	22	15946
2026-01-08 09:13:17.33	179.23	24.70	-22.8	-23.3	16.9	0.00e+00	0	35	0	11861491712	22	15939
2026-01-08 09:13:18.34	179.35	24.93	-22.9	-23.3	17.0	0.00e+00	0	35	0	11936989184	22	15979
2026-01-08 09:13:19.35	179.47	25.15	-22.8	-23.3	17.0	0.00e+00	0	35	0	12012486656	22	15879
2026-01-08 09:13:20.36	179.60	25.37	-22.6	-23.1	17.0	0.00e+00	0	35	0	12087984128	20	17421
2026-01-08 09:13:21.37	179.72	25.60	-22.6	-23.0	17.0	0.00e+00	0	35	0	12163481600	20	17391
2026-01-08 09:13:22.38	179.85	25.83	-22.5	-22.9	17.1	0.00e+00	0	35	0	12238979072	20	17177
2026-01-08 09:13:23.39	179.98	26.06	-22.5	-23.0	17.0	0.00e+00	0	35	0	12314476544	20	17255
2026-01-08 09:13:24.40	180.11	26.30	-22.5	-23.0	17.0	0.00e+00	0	35	0	12389974016	20	17218
2026-01-08 09:13:25.41	180.24	26.54	-22.5	-23.0	17.0	0.00e+00	0	35	0	12465471488	20	17203
2026-01-08 09:13:26.41	180.38	26.77	-22.3	-22.8	17.1	0.00e+00	0	35	0	12540968960	20	16815
2026-01-08 09:13:27.42	180.52	27.02	-22.3	-22.8	17.0	0.00e+00	0	35	0	12616466432	20	16894
2026-01-08 09:13:28.43	180.66	27.26	-22.3	-22.8	17.0	0.00e+00	0	35	0	12691963904	20	16864
2026-01-08 09:13:29.44	180.80	27.51	-22.1	-22.5	17.0	0.00e+00	0	35	0	12767461376	20	16407
2026-01-08 09:13:30.45	180.94	27.76	-22.1	-22.6	17.0	0.00e+00	0	35	0	12851347456	20	16502
2026-01-08 09:13:31.45	181.09	28.01	-22.1	-22.5	17.0	0.00e+00	0	35	0	12926844928	20	16404
2026-01-08 09:13:32.46	181.24	28.26	-22.0	-22.4	17.1	0.00e+00	0	35	0	12993953792	20	16190
2026-01-08 09:13:33.47	181.39	28.52	-21.9	-22.4	17.0	0.00e+00	0	35	0	13069451264	20	16140
2026-01-08 09:13:34.48	181.54	28.78	-22.0	-22.5	17.1	0.00e+00	0	35	0	13144948736	20	16333
2026-01-08 09:13:35.48	181.70	29.04	-22.0	-22.4	17.0	0.00e+00	0	35	0	13220446208	20	16161
2026-01-08 09:13:36.49	181.86	29.30	-21.8	-22.2	17.1	0.00e+00	0	35	0	13295943680	20	15831
2026-01-08 09:13:37.50	182.02	29.57	-21.8	-22.2	17.1	0.00e+00	0	35	0	13379829760	20	15845
2026-01-08 09:13:38.51	182.19	29.84	-21.6	-22.0	17.1	0.00e+00	0	35	0	13455327232	18	17397
2026-01-08 09:13:39.52	182.36	30.11	-21.6	-22.0	17.1	0.00e+00	0	36	0	13522436096	18	17355
2026-01-08 09:13:40.53	182.53	30.39	-21.6	-22.1	17.1	0.00e+00	0	35	0	13597933568	18	17468
2026-01-08 09:13:41.54	182.70	30.67	-21.6	-22.0	17.1	0.00e+00	0	36	0	13673431040	18	17302
2026-01-08 09:13:42.55	182.88	30.95	-21.4	-21.9	17.1	0.00e+00	0	35	0	13757317120	18	17070
2026-01-08 09:13:43.56	183.06	31.24	-21.4	-21.9	17.1	0.00e+00	0	35	0	13832814592	18	17055
2026-01-08 09:13:44.57	183.25	31.53	-21.3	-21.8	17.1	0.00e+00	0	35	0	13908312064	18	16888
2026-01-08 09:13:45.58	183.44	31.82	-21.3	-21.8	17.1	0.00e+00	0	36	0	13983809536	18	16815
2026-01-08 09:13:46.59	183.63	32.11	-21.3	-21.8	17.2	0.00e+00	0	36	0	14059307008	18	16874
2026-01-08 09:13:47.60	183.82	32.41	-21.1	-21.6	17.1	0.00e+00	0	36	0	14134804480	18	16482
2026-01-08 09:13:48.61	184.02	32.71	-21.2	-21.6	17.1	0.00e+00	0	35	0	14210301952	18	16557
2026-01-08 09:13:49.62	184.23	33.02	-21.0	-21.4	17.2	0.00e+00	0	35	0	14285799424	18	16201
2026-01-08 09:13:50.63	184.43	33.32	-21.0	-21.4	17.1	0.00e+00	0	36	0	14361296896	18	16170
2026-01-08 09:13:51.64	184.65	33.63	-20.9	-21.4	17.2	0.00e+00	0	36	0	14436794368	18	16122
2026-01-08 09:13:52.65	184.86	33.95	-21.1	-21.5	17.2	0.00e+00	0	35	0	14512291840	18	16360
2026-01-08 09:13:53.65	185.08	34.26	-21.0	-21.5	17.2	0.00e+00	0	35	0	14587789312	18	16290
2026-01-08 09:13:54.66	185.31	34.58	-20.7	-21.2	17.1	0.00e+00	0	35	0	14663286784	16	17665
2026-01-08 09:13:55.67	185.54	34.91	-20.7	-21.2	17.1	0.00e+00	0	36	0	14738784256	16	17673
2026-01-08 09:13:56.68	185.77	35.23	-20.6	-21.1	17.2	0.00e+00	0	35	0	14814281728	16	17503
2026-01-08 09:13:57.68	186.01	35.56	-20.5	-20.9	17.2	0.00e+00	0	36	0	14889779200	16	17192
2026-01-08 09:13:58.69	186.25	35.90	-20.6	-21.0	17.2	0.00e+00	0	36	0	14965276672	16	17344
2026-01-08 09:13:59.70	186.50	36.23	-20.6	-21.1	17.2	0.00e+00	0	36	0	15040774144	16	17477
2026-01-08 09:14:00.71	186.76	36.57	-20.3	-20.8	17.2	0.00e+00	0	35	0	15116271616	16	16880
2026-01-08 09:14:01.72	187.02	36.92	-20.4	-20.8	17.2	0.00e+00	0	36	0	15191769088	16	16973
2026-01-08 09:14:02.73	187.28	37.27	-20.2	-20.7	17.2	0.00e+00	0	36	0	15267266560	16	16720
2026-01-08 09:14:03.74	187.56	37.62	-20.3	-20.8	17.1	0.00e+00	0	36	0	15342764032	16	16858
2026-01-08 09:14:04.75	187.84	37.97	-20.1	-20.6	17.2	0.00e+00	0	36	0	15418261504	16	16462
2026-01-08 09:14:05.76	188.12	38.33	-20.1	-20.6	17.3	0.00e+00	0	36	0	15493758976	16	16521
2026-01-08 09:14:06.77	188.41	38.70	-20.0	-20.5	17.2	0.00e+00	0	36	0	15569256448	16	16256
2026-01-08 09:14:07.78	188.71	39.06	-20.1	-20.5	17.2	0.00e+00	0	36	0	15644753920	16	16416
2026-01-08 09:14:08.79	189.02	39.43	-20.1	-20.6	17.2	0.00e+00	0	36	0	15720251392	16	16477
2026-01-08 09:14:09.80	189.33	39.81	-19.8	-20.3	17.2	0.00e+00	0	36	0	15795748864	16	15940
2026-01-08 09:14:10.81	189.65	40.19	-19.8	-20.3	17.2	0.00e+00	0	36	0	15871246336	16	15972
2026-01-08 09:14:11.82	189.98	40.57	-19.8	-20.2	17.2	0.00e+00	0	36	0	15946743808	16	15859
2026-01-08 09:14:12.83	190.32	40.95	-19.7	-20.1	17.2	0.00e+00	0	36	0	16022241280	14	17569
2026-01-08 09:14:13.84	190.66	41.34	-19.6	-20.0	17.3	0.00e+00	0	36	0	16097738752	14	17370
2026-01-08 09:14:14.85	191.02	41.73	-19.6	-20.1	17.2	0.00e+00	0	36	0	16181624832	14	17412
2026-01-08 09:14:15.86	191.38	42.13	-19.5	-19.9	17.2	0.00e+00	0	36	0	16248733696	14	17200
2026-01-08 09:14:16.87	191.75	42.53	-19.5	-20.0	17.2	0.00e+00	0	36	0	16324231168	14	17236
2026-01-08 09:14:17.88	192.13	42.93	-19.5	-20.0	17.2	0.00e+00	0	36	0	16399728640	14	17290
2026-01-08 09:14:18.89	192.52	43.34	-19.5	-20.0	17.3	0.00e+00	0	36	0	16475226112	14	17212
2026-01-08 09:14:19.90	192.93	43.75	-19.3	-19.7	17.3	0.00e+00	0	36	0	16559112192	14	16766
2026-01-08 09:14:20.92	193.34	44.16	-19.3	-19.7	17.2	0.00e+00	0	36	0	16634609664	14	16755
2026-01-08 09:14:21.92	193.76	44.57	-19.2	-19.7	17.2	0.00e+00	0	36	0	16710107136	14	16746
2026-01-08 09:14:22.93	194.20	44.99	-19.2	-19.6	17.3	0.00e+00	0	36	0	16785604608	14	16564
2026-01-08 09:14:23.94	194.65	45.42	-19.0	-19.5	17.3	0.00e+00	0	36	0	16852713472	14	16279
2026-01-08 09:14:24.95	195.11	45.84	-19.1	-19.5	17.2	0.00e+00	0	36	0	16936599552	14	16363
2026-01-08 09:14:25.96	195.58	46.27	-18.9	-19.4	17.2	0.00e+00	0	36	0	17012097024	14	16118
2026-01-08 09:14:26.97	196.07	46.70	-19.1	-19.5	17.2	0.00e+00	0	36	0	17087594496	14	16390
2026-01-08 09:14:27.98	196.57	47.14	-18.9	-19.3	17.3	0.00e+00	0	36	0	17163091968	14	15971
2026-01-08 09:14:28.99	197.08	47.58	-18.8	-19.3	17.3	0.00e+00	0	36	0	17238589440	14	15971
2026-01-08 09:14:30.00	197.61	48.02	-18.8	-19.2	17.3	0.00e+00	0	36	0	17314086912	12	17719
2026-01-08 09:14:31.01	198.16	48.46	-18.8	-19.2	17.3	0.00e+00	0	36	0	17389584384	12	17729
2026-01-08 09:14:32.02	198.72	48.90	-18.6	-19.1	17.3	0.00e+00	0	36	0	17465081856	12	17513
2026-01-08 09:14:33.03	199.30	49.35	-18.7	-19.1	17.4	0.00e+00	0	36	0	17540579328	12	17568
2026-01-08 09:14:34.04	199.89	49.80	-18.6	-19.1	17.3	0.00e+00	0	35	0	17616076800	12	17409
2026-01-08 09:14:35.05	200.51	50.25	-18.4	-18.9	17.2	0.00e+00	0	36	0	17691574272	12	17106
2026-01-08 09:14:36.06	201.14	50.70	-18.5	-19.0	17.3	0.00e+00	0	36	0	17767071744	12	17260
2026-01-08 09:14:37.07	201.79	51.16	-18.4	-18.9	17.3	0.00e+00	0	36	0	17842569216	12	17105
2026-01-08 09:14:38.08	202.47	51.61	-18.4	-18.9	17.2	0.00e+00	0	36	0	17918066688	12	17034
2026-01-08 09:14:39.08	203.15	52.06	-18.3	-18.7	17.3	0.00e+00	0	36	0	17993564160	12	16764
2026-01-08 09:14:40.09	203.87	52.51	-18.3	-18.7	17.2	0.00e+00	0	36	0	18069061632	12	16806
2026-01-08 09:14:41.10	204.61	52.97	-18.2	-18.7	17.3	0.00e+00	0	36	0	18144559104	12	16657
2026-01-08 09:14:42.11	205.37	53.42	-18.3	-18.7	17.3	0.00e+00	0	36	0	18220056576	12	16741
2026-01-08 09:14:43.12	206.16	53.88	-18.1	-18.6	17.3	0.00e+00	0	36	0	18295554048	12	16457
2026-01-08 09:14:44.13	206.97	54.33	-18.1	-18.6	17.3	0.00e+00	0	36	0	18371051520	12	16513
2026-01-08 09:14:45.14	207.81	54.78	-18.1	-18.6	17.3	0.00e+00	0	36	0	18446548992	12	16449
2026-01-08 09:14:46.15	208.67	55.23	-18.0	-18.5	17.3	0.00e+00	0	36	0	18522046464	12	16247
2026-01-08 09:14:47.16	209.57	55.68	-18.0	-18.5	17.3	0.00e+00	0	36	0	18597543936	12	16351
2026-01-08 09:14:48.17	210.49	56.13	-17.9	-18.4	17.3	0.00e+00	0	36	0	18673041408	12	16143
2026-01-08 09:14:49.18	211.45	56.57	-17.9	-18.4	17.4	0.00e+00	0	36	0	18748538880	12	16140
2026-01-08 09:14:50.19	212.43	57.00	-17.9	-18.4	17.3	0.00e+00	0	36	0	18824036352	12	16095
2026-01-08 09:14:51.19	213.44	57.43	-18.0	-18.4	17.2	0.00e+00	0	36	0	18907922432	12	16194
2026-01-08 09:14:52.21	214.50	57.86	-17.9	-18.4	17.3	0.00e+00	0	36	0	18975031296	12	16159
2026-01-08 09:14:53.22	215.58	58.29	-17.9	-18.3	17.3	0.00e+00	0	36	0	19050528768	12	15973
2026-01-08 09:14:54.23	216.70	58.70	-17.8	-18.2	17.2	0.00e+00	0	36	0	19126026240	12	15839
2026-01-08 09:14:55.24	217.85	59.11	-17.7	-18.2	17.3	0.00e+00	0	36	0	19201523712	10	17751
2026-01-08 09:14:56.24	219.03	59.51	-17.7	-18.2	17.3	0.00e+00	0	36	0	19277021184	10	17684
2026-01-08 09:14:57.25	220.26	59.90	-17.7	-18.1	17.3	0.00e+00	0	36	0	19360907264	10	17564
2026-01-08 09:14:58.26	221.53	60.28	-17.5	-18.0	17.3	0.00e+00	0	36	0	19436404736	10	17312
2026-01-08 09:14:59.27	222.83	60.65	-17.5	-18.0	17.3	0.00e+00	0	36	0	19503513600	10	17297
2026-01-08 09:15:00.28	224.17	61.01	-17.5	-17.9	17.3	0.00e+00	0	36	0	19579011072	10	17179
2026-01-08 09:15:01.29	225.55	61.36	-17.5	-17.9	17.3	0.00e+00	0	36	0	19654508544	10	17130
2026-01-08 09:15:02.30	226.97	61.70	-17.5	-17.9	17.3	0.00e+00	0	36	0	19738394624	10	17142
2026-01-08 09:15:03.31	228.43	62.02	-17.5	-17.9	17.3	0.00e+00	0	36	0	19813892096	10	17189
2026-01-08 09:15:04.32	229.93	62.33	-17.5	-18.0	17.2	0.00e+00	0	36	0	19889389568	10	17212
2026-01-08 09:15:05.33	231.47	62.63	-17.5	-17.9	17.4	0.00e+00	0	36	0	19964887040	10	17179
2026-01-08 09:15:06.34	233.04	62.90	-17.5	-18.0	17.3	0.00e+00	0	36	0	20040384512	10	17270
2026-01-08 09:15:07.35	234.65	63.17	-17.4	-17.9	17.3	0.00e+00	0	36	0	20115881984	10	17057
2026-01-08 09:15:08.36	236.29	63.41	-17.4	-17.9	17.3	0.00e+00	0	36	0	20191379456	10	17056
2026-01-08 09:15:09.37	237.96	63.63	-17.3	-17.8	17.3	0.00e+00	0	36	0	20266876928	10	16918
2026-01-08 09:15:10.38	239.67	63.84	-17.3	-17.8	17.3	0.00e+00	0	36	0	20342374400	10	16907
2026-01-08 09:15:11.39	241.41	64.02	-17.5	-17.9	17.3	0.00e+00	0	36	0	20417871872	10	17121
2026-01-08 09:15:12.39	243.15	64.18	-17.3	-17.7	17.3	0.00e+00	0	36	0	20493369344	10	16766
2026-01-08 09:15:13.40	244.94	64.32	-17.4	-17.9	17.3	0.00e+00	0	36	0	20568866816	10	17057
2026-01-08 09:15:14.41	246.74	64.45	-17.4	-17.9	17.4	0.00e+00	0	36	0	20644364288	10	17039
2026-01-08 09:15:15.43	248.58	64.54	-17.2	-17.7	17.3	0.00e+00	0	36	0	20719861760	10	16721
2026-01-08 09:15:16.43	250.40	64.62	-17.3	-17.8	17.4	0.00e+00	0	36	0	20795359232	10	16884
2026-01-08 09:15:17.44	252.25	64.67	-17.3	-17.8	17.2	0.00e+00	0	36	0	20870856704	10	16824
2026-01-08 09:15:18.45	254.10	64.70	-17.2	-17.7	17.3	0.00e+00	0	36	0	20946354176	10	16702
2026-01-08 09:15:19.46	255.96	64.70	-17.2	-17.7	17.3	0.00e+00	0	36	0	21021851648	10	16737
2026-01-08 09:15:20.47	257.82	64.68	-17.3	-17.8	17.3	0.00e+00	0	36	0	21097349120	10	16916
2026-01-08 09:15:21.48	259.67	64.64	-17.4	-17.8	17.2	0.00e+00	0	36	0	21172846592	10	16984
2026-01-08 09:15:22.49	261.51	64.58	-17.3	-17.8	17.2	0.00e+00	0	36	0	21248344064	10	16876
2026-01-08 09:15:23.50	263.34	64.49	-17.3	-17.8	17.3	0.00e+00	0	36	0	21323841536	10	16881
2026-01-08 09:15:24.51	265.15	64.38	-17.3	-17.8	17.3	0.00e+00	0	36	0	21399339008	10	16846
2026-01-08 09:15:25.52	266.94	64.25	-17.3	-17.8	17.3	0.00e+00	0	36	0	21474836480	10	16904
2026-01-08 09:15:26.52	268.70	64.09	-17.4	-17.9	17.3	0.00e+00	0	36	0	21550333952	10	17081
2026-01-08 09:15:27.53	270.44	63.92	-17.3	-17.8	17.3	0.00e+00	0	36	0	21625831424	10	16893
2026-01-08 09:15:28.54	272.16	63.72	-17.4	-17.9	17.3	0.00e+00	0	36	0	21701328896	10	17021
2026-01-08 09:15:29.55	273.85	63.51	-17.4	-17.8	17.3	0.00e+00	0	36	0	21776826368	10	16935
2026-01-08 09:15:30.56	275.51	63.27	-17.3	-17.8	17.4	0.00e+00	0	36	0	21852323840	10	16863
2026-01-08 09:15:31.57	277.13	63.02	-17.4	-17.9	17.3	0.00e+00	0	36	0	21927821312	10	17121
2026-01-08 09:15:32.58	278.71	62.75	-17.5	-17.9	17.3	0.00e+00	0	36	0	22003318784	10	17163
2026-01-08 09:15:33.59	280.26	62.46	-17.4	-17.9	17.3	0.00e+00	0	36	0	22078816256	10	17131
2026-01-08 09:15:34.60	281.78	62.16	-17.5	-18.0	17.3	0.00e+00	0	36	0	22162702336	10	17203
2026-01-08 09:15:35.61	283.25	61.84	-17.4	-17.9	17.3	0.00e+00	0	36	0	22229811200	10	17073
2026-01-08 09:15:36.62	284.68	61.51	-17.5	-17.9	17.3	0.00e+00	0	36	0	22305308672	10	17176
2026-01-08 09:15:37.63	286.08	61.17	-17.5	-17.9	17.3	0.00e+00	0	36	0	22380806144	10	17171
2026-01-08 09:15:38.63	287.42	60.82	-17.6	-18.1	17.3	0.00e+00	0	36	0	22456303616	10	17442
2026-01-08 09:15:39.64	288.74	60.45	-17.6	-18.1	17.4	0.00e+00	0	36	0	22531801088	10	17444
2026-01-08 09:15:40.65	290.02	60.07	-17.7	-18.2	17.3	0.00e+00	0	36	0	22615687168	10	17694
2026-01-08 09:15:41.66	291.27	59.69	-17.6	-18.1	17.3	0.00e+00	0	36	0	22691184640	10	17474
2026-01-08 09:15:42.67	292.47	59.29	-17.7	-18.2	17.3	0.00e+00	0	36	0	22766682112	10	17691
2026-01-08 09:15:43.68	293.64	58.89	-17.7	-18.2	17.3	0.00e+00	0	36	0	22833790976	10	17661
2026-01-08 09:15:44.69	294.77	58.48	-17.8	-18.2	17.3	0.00e+00	0	36	0	22909288448	10	17755
2026-01-08 09:15:45.70	295.87	58.06	-17.8	-18.3	17.3	0.00e+00	0	36	0	22993174528	10	17832
2026-01-08 09:15:46.71	296.93	57.63	-17.8	-18.3	17.3	0.00e+00	0	36	0	23068672000	10	17845
2026-01-08 09:15:47.72	297.96	57.20	-17.9	-18.3	17.3	0.00e+00	0	36	0	23144169472	10	17978
2026-01-08 09:15:48.72	298.95	56.77	-17.9	-18.3	17.3	0.00e+00	0	36	0	23219666944	10	17937
2026-01-08 09:15:49.73	299.92	56.34	-17.9	-18.3	17.3	0.00e+00	0	36	0	23295164416	10	18007
2026-01-08 09:15:50.74	300.85	55.89	-17.9	-18.4	17.3	0.00e+00	0	36	0	23362273280	10	18105
2026-01-08 09:15:51.75	301.76	55.45	-18.0	-18.4	17.3	0.00e+00	0	36	0	23446159360	10	18215
2026-01-08 09:15:52.76	302.63	55.00	-18.1	-18.5	17.2	0.00e+00	0	36	0	23521656832	10	18379
2026-01-08 09:15:53.77	303.48	54.55	-18.1	-18.5	17.3	0.00e+00	0	36	0	23597154304	10	18313
2026-01-08 09:15:54.78	304.31	54.10	-18.2	-18.7	17.3	0.00e+00	0	36	0	23672651776	10	18657
2026-01-08 09:15:55.78	305.10	53.65	-18.1	-18.6	17.3	0.00e+00	0	36	0	23748149248	10	18540
2026-01-08 09:15:56.79	305.87	53.20	-18.3	-18.7	17.3	0.00e+00	0	36	0	23823646720	10	18819
2026-01-08 09:15:57.80	306.62	52.75	-18.3	-18.7	17.3	0.00e+00	0	36	0	23899144192	10	18821
2026-01-08 09:15:58.81	307.34	52.29	-18.4	-18.9	17.3	0.00e+00	0	36	0	23974641664	10	19112
2026-01-08 09:15:59.82	308.04	51.84	-18.4	-18.9	17.3	0.00e+00	0	36	0	24050139136	10	19211
2026-01-08 09:16:00.83	308.73	51.39	-18.4	-18.9	17.2	0.00e+00	0	36	0	24125636608	10	19183
2026-01-08 09:16:01.84	309.39	50.93	-18.6	-19.0	17.3	0.00e+00	0	36	0	24201134080	10	19481
2026-01-08 09:16:02.85	310.03	50.48	-18.6	-19.1	17.2	0.00e+00	0	36	0	24276631552	10	19535
2026-01-08 09:16:03.86	310.65	50.03	-18.5	-19.0	17.3	0.00e+00	0	36	0	24352129024	10	19377
2026-01-08 09:16:04.87	311.25	49.59	-18.6	-19.1	17.3	0.00e+00	0	36	0	24427626496	10	19631
2026-01-08 09:16:05.88	311.84	49.14	-18.7	-19.1	17.3	0.00e+00	0	36	0	24503123968	10	19699
2026-01-08 09:16:06.89	312.41	48.70	-18.7	-19.1	17.2	0.00e+00	0	36	0	24578621440	10	19714
2026-01-08 09:16:07.89	312.95	48.26	-18.8	-19.3	17.2	0.00e+00	0	36	0	24654118912	12	17893
2026-01-08 09:16:08.90	313.49	47.82	-18.9	-19.3	17.3	0.00e+00	0	36	0	24729616384	12	17997
2026-01-08 09:16:09.91	314.01	47.38	-18.9	-19.3	17.2	0.00e+00	0	36	0	24805113856	12	17939
2026-01-08 09:16:10.92	314.52	46.95	-19.0	-19.5	17.2	0.00e+00	0	36	0	24880611328	12	18296
2026-01-08 09:16:11.93	315.01	46.52	-19.0	-19.4	17.3	0.00e+00	0	36	0	24956108800	12	18154
2026-01-08 09:16:12.94	315.49	46.09	-19.1	-19.5	17.3	0.00e+00	0	36	0	25031606272	12	18414
2026-01-08 09:16:13.95	315.95	45.66	-19.1	-19.6	17.3	0.00e+00	0	36	0	25107103744	12	18497
2026-01-08 09:16:14.96	316.40	45.24	-19.2	-19.7	17.3	0.00e+00	0	36	0	25182601216	12	18728
2026-01-08 09:16:15.97	316.84	44.82	-19.2	-19.7	17.2	0.00e+00	0	36	0	25258098688	12	18764
2026-01-08 09:16:16.98	317.27	44.40	-19.3	-19.7	17.3	0.00e+00	0	36	0	25333596160	12	18853
2026-01-08 09:16:17.99	317.69	43.99	-19.4	-19.8	17.3	0.00e+00	0	36	0	25409093632	12	19046
2026-01-08 09:16:19.00	318.10	43.58	-19.4	-19.8	17.3	0.00e+00	0	36	0	25492979712	12	19001
2026-01-08 09:16:20.01	318.49	43.17	-19.5	-20.0	17.2	0.00e+00	0	36	0	25560088576	12	19327
2026-01-08 09:16:21.02	318.88	42.77	-19.5	-20.0	17.2	0.00e+00	0	36	0	25635586048	12	19372
2026-01-08 09:16:22.03	319.26	42.37	-19.5	-20.0	17.3	0.00e+00	0	36	0	25711083520	12	19367
2026-01-08 09:16:23.03	319.62	41.98	-19.6	-20.1	17.2	0.00e+00	0	36	0	25786580992	12	19596
2026-01-08 09:16:24.04	319.98	41.59	-19.7	-20.2	17.2	0.00e+00	0	36	0	25870467072	14	17654
2026-01-08 09:16:25.06	320.33	41.19	-19.8	-20.2	17.2	0.00e+00	0	36	0	25945964544	14	17762
2026-01-08 09:16:26.06	320.66	40.81	-19.8	-20.3	17.2	0.00e+00	0	36	0	26021462016	14	17889
2026-01-08 09:16:27.07	321.00	40.43	-19.8	-20.3	17.2	0.00e+00	0	36	0	26088570880	14	17870
2026-01-08 09:16:28.08	321.32	40.05	-19.9	-20.4	17.2	0.00e+00	0	36	0	26164068352	14	18015
2026-01-08 09:16:29.08	321.63	39.68	-19.9	-20.4	17.2	0.00e+00	0	36	0	26239565824	14	18125
2026-01-08 09:16:30.09	321.94	39.31	-20.1	-20.6	17.2	0.00e+00	0	36	0	26323451904	14	18483
2026-01-08 09:16:31.10	322.25	38.95	-20.1	-20.6	17.2	0.00e+00	0	36	0	26398949376	14	18486
2026-01-08 09:16:32.11	322.54	38.58	-20.1	-20.6	17.2	0.00e+00	0	36	0	26474446848	14	18498
2026-01-08 09:16:33.12	322.83	38.22	-20.2	-20.7	17.2	0.00e+00	0	36	0	26549944320	14	18684
2026-01-08 09:16:34.13	323.11	37.87	-20.2	-20.7	17.2	0.00e+00	0	36	0	26625441792	14	18700
2026-01-08 09:16:35.14	323.39	37.51	-20.3	-20.8	17.1	0.00e+00	0	36	0	26692550656	14	18881
2026-01-08 09:16:36.15	323.66	37.17	-20.3	-20.8	17.2	0.00e+00	0	36	0	26776436736	14	18961
2026-01-08 09:16:37.16	323.92	36.82	-20.5	-21.0	17.2	0.00e+00	0	36	0	26851934208	14	19320
2026-01-08 09:16:38.17	324.18	36.48	-20.5	-21.0	17.2	0.00e+00	0	36	0	26927431680	14	19372
2026-01-08 09:16:39.18	324.43	36.14	-20.6	-21.1	17.2	0.00e+00	0	36	0	27002929152	14	19550
2026-01-08 09:16:40.19	324.68	35.81	-20.6	-21.0	17.2	0.00e+00	0	36	0	27078426624	14	19515
2026-01-08 09:16:41.20	324.92	35.47	-20.6	-21.1	17.2	0.00e+00	0	36	0	27153924096	14	19565
2026-01-08 09:16:42.21	325.15	35.15	-20.7	-21.2	17.2	0.00e+00	0	36	0	27229421568	16	17611
2026-01-08 09:16:43.22	325.39	34.82	-20.8	-21.3	17.3	0.00e+00	0	36	0	27304919040	16	17860
2026-01-08 09:16:44.22	325.61	34.50	-20.8	-21.3	17.2	0.00e+00	0	36	0	27380416512	16	17869
2026-01-08 09:16:45.23	325.83	34.19	-20.9	-21.3	17.2	0.00e+00	0	36	0	27455913984	16	17977
2026-01-08 09:16:46.24	326.05	33.87	-20.9	-21.4	17.2	0.00e+00	0	36	0	27531411456	16	18147
2026-01-08 09:16:47.25	326.27	33.56	-21.0	-21.4	17.1	0.00e+00	0	36	0	27606908928	16	18197
2026-01-08 09:16:48.26	326.47	33.25	-21.1	-21.6	17.2	0.00e+00	0	36	0	27682406400	16	18451
2026-01-08 09:16:49.27	326.68	32.95	-21.1	-21.5	17.1	0.00e+00	0	36	0	27757903872	16	18402
2026-01-08 09:16:50.28	326.88	32.65	-21.2	-21.6	17.2	0.00e+00	0	36	0	27833401344	16	18609
2026-01-08 09:16:51.28	327.08	32.35	-21.2	-21.7	17.1	0.00e+00	0	36	0	27908898816	16	18713
2026-01-08 09:16:52.29	327.27	32.06	-21.3	-21.8	17.2	0.00e+00	0	36	0	27984396288	16	18904
2026-01-08 09:16:53.30	327.46	31.77	-21.4	-21.9	17.1	0.00e+00	0	36	0	28059893760	16	19106
2026-01-08 09:16:54.31	327.65	31.48	-21.4	-21.9	17.1	0.00e+00	0	36	0	28135391232	16	19090
2026-01-08 09:16:55.32	327.83	31.19	-21.5	-21.9	17.1	0.00e+00	0	36	0	28210888704	16	19268
2026-01-08 09:16:56.33	328.01	30.91	-21.5	-21.9	17.1	0.00e+00	0	36	0	28286386176	16	19300
2026-01-08 09:16:57.34	328.19	30.63	-21.5	-22.0	17.1	0.00e+00	0	36	0	28361883648	16	19398
2026-01-08 09:16:58.35	328.36	30.35	-21.6	-22.1	17.1	0.00e+00	0	36	0	28437381120	16	19555
2026-01-08 09:16:59.36	328.53	30.08	-21.7	-22.2	17.2	0.00e+00	0	36	0	28512878592	16	19753
2026-01-08 09:17:00.37	328.70	29.81	-21.8	-22.2	17.1	0.00e+00	0	36	0	28588376064	18	17794
2026-01-08 09:17:01.38	328.86	29.54	-21.8	-22.3	17.2	0.00e+00	0	36	0	28663873536	18	17825
2026-01-08 09:17:02.39	329.02	29.27	-21.9	-22.3	17.1	0.00e+00	0	36	0	28739371008	18	17976
2026-01-08 09:17:03.40	329.18	29.01	-21.9	-22.3	17.1	0.00e+00	0	36	0	28814868480	18	18010
2026-01-08 09:17:04.41	329.34	28.75	-22.0	-22.4	17.1	0.00e+00	0	36	0	28890365952	18	18216
2026-01-08 09:17:05.42	329.49	28.49	-22.0	-22.5	17.1	0.00e+00	0	36	0	28965863424	18	18224
2026-01-08 09:17:06.43	329.64	28.24	-22.0	-22.5	17.0	0.00e+00	0	36	0	29041360896	18	18328
2026-01-08 09:17:07.44	329.79	27.98	-22.1	-22.5	17.1	0.00e+00	0	36	0	29116858368	18	18403
2026-01-08 09:17:08.45	329.94	27.74	-22.2	-22.7	17.0	0.00e+00	0	36	0	29200744448	18	18681
2026-01-08 09:17:09.46	330.08	27.49	-22.2	-22.7	17.1	0.00e+00	0	36	0	29276241920	18	18774
2026-01-08 09:17:10.47	330.22	27.24	-22.3	-22.7	17.1	0.00e+00	0	36	0	29351739392	18	18834
2026-01-08 09:17:11.48	330.36	27.00	-22.4	-22.8	17.0	0.00e+00	0	36	0	29418848256	18	19066
2026-01-08 09:17:12.48	330.50	26.76	-22.3	-22.8	17.0	0.00e+00	0	36	0	29494345728	18	18955
2026-01-08 09:17:13.49	330.63	26.53	-22.4	-22.9	17.0	0.00e+00	0	36	0	29569843200	18	19156
2026-01-08 09:17:14.50	330.76	26.29	-22.5	-23.0	17.1	0.00e+00	0	36	0	29653729280	18	19440
2026-01-08 09:17:15.51	330.89	26.06	-22.6	-23.0	17.1	0.00e+00	0	36	0	29729226752	18	19480
2026-01-08 09:17:16.52	331.02	25.83	-22.6	-23.1	17.1	0.00e+00	0	36	0	29804724224	18	19672
2026-01-08 09:17:17.53	331.15	25.60	-22.7	-23.1	17.0	0.00e+00	0	36	0	29880221696	18	19722
2026-01-08 09:17:18.54	331.27	25.37	-22.7	-23.2	17.0	0.00e+00	0	36	0	29947330560	18	19824
2026-01-08 09:17:19.55	331.39	25.15	-22.7	-23.2	17.0	0.00e+00	0	36	0	30031216640	18	19830
2026-01-08 09:17:20.56	331.51	24.93	-22.8	-23.3	17.0	0.00e+00	0	36	0	30106714112	20	17887
2026-01-08 09:17:21.56	331.63	24.71	-22.9	-23.4	17.0	0.00e+00	0	36	0	30182211584	20	18125
2026-01-08 09:17:22.58	331.75	24.49	-22.9	-23.4	17.0	0.00e+00	0	36	0	30257709056	20	18036
2026-01-08 09:17:23.58	331.86	24.28	-23.0	-23.5	17.0	0.00e+00	0	36	0	30333206528	20	18274
2026-01-08 09:17:24.59	331.98	24.07	-23.0	-23.5	17.0	0.00e+00	0	36	0	30408704000	20	18285
2026-01-08 09:17:25.61	332.09	23.85	-23.1	-23.6	17.0	0.00e+00	0	36	0	30484201472	20	18440
2026-01-08 09:17:26.61	332.20	23.65	-23.1	-23.6	17.0	0.00e+00	0	36	0	30559698944	20	18506
2026-01-08 09:17:27.62	332.31	23.44	-23.2	-23.6	17.0	0.00e+00	0	36	0	30635196416	20	18638
2026-01-08 09:17:28.63	332.42	23.23	-23.2	-23.7	17.0	0.00e+00	0	36	0	30710693888	20	18712
2026-01-08 09:17:29.64	332.52	23.03	-23.3	-23.8	17.0	0.00e+00	0	36	0	30786191360	20	19006
2026-01-08 09:17:30.65	332.63	22.83	-23.3	-23.8	16.9	0.00e+00	0	36	0	30861688832	20	18865
2026-01-08 09:17:31.66	332.73	22.63	-23.4	-23.9	16.9	0.00e+00	0	36	0	30937186304	20	19142
2026-01-08 09:17:32.67	332.83	22.43	-23.4	-23.9	16.9	0.00e+00	0	36	0	31012683776	20	19149
2026-01-08 09:17:33.68	332.93	22.24	-23.5	-24.0	16.9	0.00e+00	0	36	0	31088181248	20	19354
2026-01-08 09:17:34.69	333.03	22.04	-23.5	-24.0	16.9	0.00e+00	0	36	0	31163678720	20	19343
2026-01-08 09:17:35.70	333.13	21.85	-23.6	-24.1	16.9	0.00e+00	0	36	0	31239176192	20	19580
2026-01-08 09:17:36.71	333.22	21.66	-23.7	-24.1	16.9	0.00e+00	0	36	0	31314673664	20	19699
2026-01-08 09:17:37.72	333.32	21.47	-23.7	-24.2	16.9	0.00e+00	0	36	0	31390171136	22	17659
2026-01-08 09:17:38.73	333.41	21.28	-23.8	-24.3	16.9	0.00e+00	0	36	0	31465668608	22	17850
2026-01-08 09:17:39.74	333.51	21.10	-23.8	-24.2	16.9	0.00e+00	0	36	0	31541166080	22	17779
2026-01-08 09:17:40.75	333.60	20.91	-23.8	-24.3	16.9	0.00e+00	0	36	0	31616663552	22	17969
2026-01-08 09:17:41.76	333.69	20.73	-23.8	-24.3	16.9	0.00e+00	0	36	0	31692161024	22	17922
2026-01-08 09:17:42.77	333.78	20.55	-23.9	-24.4	16.9	0.00e+00	0	36	0	31767658496	22	18040
2026-01-08 09:17:43.78	333.86	20.37	-24.0	-24.4	16.6	0.00e+00	0	36	0	31843155968	22	18210
2026-01-08 09:17:44.79	333.95	20.19	-24.0	-24.4	16.2	0.00e+00	0	36	0	31918653440	22	18124
2026-01-08 09:17:45.79	334.04	20.02	-24.1	-24.6	16.4	0.00e+00	0	36	0	32002539520	22	18558
2026-01-08 09:17:46.80	334.12	19.84	-24.1	-24.6	16.6	0.00e+00	0	36	0	32069648384	22	18517
2026-01-08 09:17:47.81	334.20	19.67	-24.1	-24.6	16.8	0.00e+00	0	36	0	32145145856	22	18590
2026-01-08 09:17:48.82	334.29	19.50	-24.2	-24.7	16.8	0.00e+00	0	36	0	32220643328	22	18795
2026-01-08 09:17:49.83	334.37	19.33	-24.3	-24.8	16.8	0.00e+00	0	36	0	32296140800	22	18898
2026-01-08 09:17:50.84	334.45	19.16	-24.3	-24.7	16.8	0.00e+00	0	36	0	32371638272	22	18850
2026-01-08 09:17:51.84	334.53	18.99	-24.3	-24.8	16.8	0.00e+00	0	36	0	32447135744	22	18990
2026-01-08 09:17:52.85	334.61	18.83	-24.4	-24.9	16.8	0.00e+00	0	36	0	32531021824	22	19176
2026-01-08 09:17:53.86	334.68	18.66	-24.5	-25.0	16.8	0.00e+00	0	36	0	32606519296	22	19462
2026-01-08 09:17:54.87	334.76	18.50	-24.5	-24.9	16.8	0.00e+00	0	36	0	32673628160	22	19233
2026-01-08 09:17:55.88	334.84	18.34	-24.6	-25.0	16.8	0.00e+00	0	36	0	32749125632	22	19449
2026-01-08 09:17:56.89	334.91	18.18	-24.6	-25.1	16.7	0.00e+00	0	36	0	32824623104	22	19622
2026-01-08 09:17:57.90	334.99	18.02	-24.6	-25.1	16.7	0.00e+00	0	36	0	32908509184	22	19556
2026-01-08 09:17:58.91	335.06	17.86	-24.7	-25.2	16.8	0.00e+00	0	36	0	32984006656	22	19847
2026-01-08 09:17:59.92	335.13	17.70	-24.7	-25.2	16.8	0.00e+00	0	36	0	33059504128	24	17683
2026-01-08 09:18:00.93	335.20	17.55	-24.9	-25.4	16.7	0.00e+00	0	36	0	33135001600	24	18040
2026-01-08 09:18:01.94	335.27	17.39	-24.9	-25.4	16.7	0.00e+00	0	36	0	33202110464	24	18090
2026-01-08 09:18:02.95	335.34	17.24	-24.9	-25.4	16.7	0.00e+00	0	36	0	33285996544	24	18055
2026-01-08 09:18:03.96	335.41	17.09	-24.9	-25.4	16.7	0.00e+00	0	36	0	33361494016	24	18020
2026-01-08 09:18:04.96	335.48	16.94	-24.9	-25.4	16.7	0.00e+00	0	36	0	33436991488	24	18056
2026-01-08 09:18:05.97	335.55	16.79	-25.1	-25.6	16.7	0.00e+00	0	36	0	33512488960	24	18490
2026-01-08 09:18:06.98	335.62	16.64	-25.0	-25.5	16.7	0.00e+00	0	36	0	33587986432	24	18355
2026-01-08 09:18:07.99	335.68	16.49	-25.1	-25.6	16.7	0.00e+00	0	36	0	33663483904	24	18534
2026-01-08 09:18:09.00	335.75	16.35	-25.1	-25.5	16.7	0.00e+00	0	36	0	33738981376	24	18393
2026-01-08 09:18:10.01	335.81	16.20	-25.2	-25.6	16.7	0.00e+00	0	36	0	33814478848	24	18618
2026-01-08 09:18:11.02	335.88	16.06	-25.3	-25.7	16.7	0.00e+00	0	36	0	33889976320	24	18822
2026-01-08 09:18:12.03	335.94	15.91	-25.3	-25.7	16.7	0.00e+00	0	36	0	33965473792	24	18808
2026-01-08 09:18:13.04	336.01	15.77	-25.4	-25.8	16.6	0.00e+00	0	36	0	34040971264	24	19028
2026-01-08 09:18:14.05	336.07	15.63	-25.3	-25.8	16.7	0.00e+00	0	36	0	34116468736	24	19004
2026-01-08 09:18:15.06	336.13	15.49	-25.4	-25.8	16.7	0.00e+00	0	36	0	34191966208	24	19077
2026-01-08 09:18:16.07	336.19	15.35	-25.5	-25.9	16.6	0.00e+00	0	36	0	34267463680	24	19261
2026-01-08 09:18:17.08	336.25	15.21	-25.4	-25.9	16.7	0.00e+00	0	36	0	34342961152	24	19206
2026-01-08 09:18:18.09	336.31	15.08	-25.5	-26.0	16.6	0.00e+00	0	36	0	34418458624	24	19455
2026-01-08 09:18:19.10	336.37	14.94	-25.6	-26.1	16.6	0.00e+00	0	36	0	34493956096	24	19602
2026-01-08 09:18:20.11	336.43	14.81	-25.7	-26.2	16.6	0.00e+00	0	36	0	34569453568	26	17686
2026-01-08 09:18:21.12	336.49	14.67	-25.7	-26.1	16.6	0.00e+00	0	36	0	34644951040	26	17593
2026-01-08 09:18:22.12	336.54	14.54	-25.7	-26.2	16.6	0.00e+00	0	36	0	34720448512	26	17638
2026-01-08 09:18:23.13	336.60	14.41	-25.8	-26.2	16.6	0.00e+00	0	36	0	34795945984	26	17767
2026-01-08 09:18:24.14	336.66	14.28	-25.8	-26.2	16.5	0.00e+00	0	36	0	34871443456	26	17781
2026-01-08 09:18:25.15	336.71	14.15	-25.8	-26.3	16.5	0.00e+00	0	36	0	34946940928	26	17877
2026-01-08 09:18:26.16	336.77	14.02	-25.9	-26.4	16.6	0.00e+00	0	36	0	35022438400	26	18059
2026-01-08 09:18:27.17	336.82	13.89	-25.9	-26.4	16.5	0.00e+00	0	36	0	35097935872	26	18029
2026-01-08 09:18:28.18	336.88	13.76	-25.9	-26.4	16.6	0.00e+00	0	36	0	35173433344	26	18049
2026-01-08 09:18:29.19	336.93	13.63	-26.0	-26.5	16.5	0.00e+00	0	36	0	35248930816	26	18319
2026-01-08 09:18:30.20	336.98	13.51	-26.0	-26.5	16.5	0.00e+00	0	36	0	35332816896	26	18305
2026-01-08 09:18:31.21	337.04	13.38	-26.1	-26.6	16.5	0.00e+00	0	36	0	35399925760	26	18458
2026-01-08 09:18:32.22	337.09	13.26	-26.2	-26.6	16.5	0.00e+00	0	36	0	35475423232	26	18624
2026-01-08 09:18:33.22	337.14	13.14	-26.1	-26.6	16.4	0.00e+00	0	36	0	35550920704	26	18539
2026-01-08 09:18:34.23	337.19	13.01	-26.3	-26.8	16.3	0.00e+00	0	36	0	35626418176	26	18863
2026-01-08 09:18:35.24	337.24	12.89	-48.0	-50.4	3.6	0.00e+00	0	36	104	35693527040	26	287403
2026-01-08 09:18:36.25	337.29	12.77	-48.0	-50.5	3.6	0.00e+00	0	36	104	35693527040	60	41113
2026-01-08 09:18:37.26	337.34	12.65	-48.0	-50.5	3.6	0.00e+00	0	36	104	35693527040	60	41186
2026-01-08 09:18:38.26	337.39	12.53	-47.9	-50.5	3.6	0.00e+00	0	36	104	35693527040	60	41080
2026-01-08 09:18:39.28	337.44	12.41	-48.1	-50.6	3.6	0.00e+00	0	36	104	35693527040	60	41701
2026-01-08 09:18:40.28	337.49	12.29	-48.0	-50.5	3.6	0.00e+00	0	36	104	35693527040	60	41075
2026-01-08 09:18:41.29	337.54	12.18	-48.1	-50.7	3.6	0.00e+00	0	36	104	35693527040	60	41852
2026-01-08 09:18:42.30	337.59	12.06	-48.0	-50.5	3.6	0.00e+00	0	36	104	35693527040	60	41232
2026-01-08 09:18:43.31	337.63	11.94	-48.1	-50.6	3.6	0.00e+00	0	36	104	35693527040	60	41732
2026-01-08 09:18:44.32	337.68	11.83	-48.1	-50.6	3.6	0.00e+00	0	36	104	35693527040	60	41559
2026-01-08 09:18:45.33	337.73	11.71	-48.2	-50.7	3.6	0.00e+00	0	36	104	35693527040	60	42164
2026-01-08 09:18:46.34	337.77	11.60	-48.1	-50.6	3.6	0.00e+00	0	36	104	35693527040	60	41719
2026-01-08 09:18:47.35	337.82	11.49	-48.1	-50.7	3.6	0.00e+00	0	36	104	35693527040	60	41967
2026-01-08 09:18:48.36	337.87	11.38	-48.1	-50.6	3.6	0.00e+00	0	36	104	35693527040	60	41569
2026-01-08 09:18:49.37	337.91	11.26	-48.1	-50.6	3.6	0.00e+00	0	36	104	35693527040	60	41596
2026-01-08 09:18:50.38	337.95	11.15	-48.1	-50.6	3.5	0.00e+00	0	35	104	35693527040	60	41526
2026-01-08 09:18:51.39	338.00	11.04	-48.1	-50.6	3.6	0.00e+00	0	36	104	35693527040	60	41541
2026-01-08 09:18:52.40	338.04	10.93	-48.1	-50.6	3.6	0.00e+00	0	36	104	35693527040	60	41624
2026-01-08 09:18:53.41	338.09	10.82	-48.1	-50.6	3.6	0.00e+00	0	36	104	35693527040	60	41399
2026-01-08 09:18:54.42	338.13	10.71	-48.1	-50.6	3.6	0.00e+00	0	36	104	35693527040	60	41303
2026-01-08 09:18:55.43	338.17	10.61	-48.1	-50.6	3.6	0.00e+00	0	35	104	35693527040	60	41509
2026-01-08 09:18:56.44	338.22	10.50	-48.1	-50.6	3.6	0.00e+00	0	35	104	35693527040	60	41510
2026-01-08 09:18:57.45	338.26	10.39	-48.1	-50.6	3.6	0.00e+00	0	36	104	35693527040	60	41314
2026-01-08 09:18:58.46	338.30	10.29	-48.1	-50.6	3.6	0.00e+00	0	36	104	35693527040	60	41509
2026-01-08 09:18:59.47	338.34	10.18	-47.9	-50.5	3.6	0.00e+00	0	35	104	35693527040	60	40844
2026-01-08 09:19:00.48	338.38	10.08	-48.0	-50.5	3.6	0.00e+00	0	36	104	35693527040	60	41065
2026-01-08 09:19:01.49	338.42	9.97	-48.1	-50.6	3.6	0.00e+00	0	36	104	35693527040	60	41487
2026-01-08 09:19:02.50	338.46	9.87	-47.9	-50.4	3.6	0.00e+00	0	35	104	35693527040	60	40569
2026-01-08 09:19:03.51	338.50	9.76	-48.0	-50.6	3.6	0.00e+00	0	36	104	35693527040	60	41281
2026-01-08 09:19:04.52	338.54	9.66	-48.0	-50.5	3.6	0.00e+00	0	36	104	35693527040	60	41187
2026-01-08 09:19:05.52	338.58	9.56	-47.9	-50.4	3.6	0.00e+00	0	36	104	35693527040	60	40614
2026-01-08 09:19:06.53	338.62	9.46	-48.0	-50.5	3.6	0.00e+00	0	36	104	35693527040	60	41138
2026-01-08 09:19:07.54	338.66	9.36	-48.0	-50.5	3.6	0.00e+00	0	36	104	35693527040	60	41120
2026-01-08 09:19:08.55	338.70	9.26	-48.0	-50.6	3.6	0.00e+00	0	35	104	35693527040	60	41370
2026-01-08 09:19:09.56	338.74	9.16	-48.0	-50.5	3.6	0.00e+00	0	36	104	35693527040	60	41252
2026-01-08 09:19:10.57	338.78	9.06	-48.0	-50.6	3.6	0.00e+00	0	36	104	35693527040	60	41331
2026-01-08 09:19:11.58	338.81	8.96	-48.0	-50.6	3.6	0.00e+00	0	35	104	35693527040	60	41345
2026-01-08 09:19:12.59	338.85	8.86	-48.1	-50.6	3.6	0.00e+00	0	36	104	35693527040	60	41321
2026-01-08 09:19:13.60	338.89	8.76	-48.0	-50.5	3.6	0.00e+00	0	35	104	35693527040	60	41077
2026-01-08 09:19:14.61	338.93	8.67	-48.0	-50.5	3.6	0.00e+00	0	36	104	35693527040	60	41062
2026-01-08 09:19:15.62	338.96	8.57	-48.0	-50.5	3.6	0.00e+00	0	36	104	35693527040	60	41056
2026-01-08 09:19:16.63	339.00	8.47	-48.0	-50.5	3.6	0.00e+00	0	36	104	35693527040	60	41209
2026-01-08 09:19:17.63	339.04	8.38	-48.0	-50.5	3.6	0.00e+00	0	36	104	35693527040	60	41085
2026-01-08 09:19:18.64	339.07	8.28	-48.0	-50.5	3.6	0.00e+00	0	36	104	35693527040	60	41133
2026-01-08 09:19:19.65	339.11	8.19	-48.0	-50.5	3.6	0.00e+00	0	36	104	35693527040	60	40891
2026-01-08 09:19:20.66	339.14	8.09	-48.0	-50.5	3.6	0.00e+00	0	36	104	35693527040	60	41028
2026-01-08 09:19:21.67	339.18	8.00	-48.0	-50.5	3.6	0.00e+00	0	36	104	35693527040	60	40811
2026-01-08 09:19:22.68	339.21	7.90	-48.0	-50.5	3.6	0.00e+00	0	36	104	35693527040	60	41060
2026-01-08 09:19:23.69	339.25	7.81	-47.9	-50.4	3.6	0.00e+00	0	35	104	35693527040	60	40683
2026-01-08 09:19:24.70	339.28	7.72	-47.9	-50.4	3.6	0.00e+00	0	35	104	35693527040	60	40482
2026-01-08 09:19:25.71	339.32	7.63	-47.9	-50.4	3.6	0.00e+00	0	35	104	35693527040	60	40692
2026-01-08 09:19:26.71	339.35	7.54	-47.9	-50.4	3.6	0.00e+00	0	35	104	35693527040	60	40473
2026-01-08 09:19:27.72	339.38	7.44	-47.8	-50.4	3.6	0.00e+00	0	35	104	35693527040	60	40362
2026-01-08 09:19:28.73	339.42	7.35	-47.9	-50.4	3.6	0.00e+00	0	35	104	35693527040	60	40566
2026-01-08 09:19:29.74	339.45	7.26	-47.9	-50.4	3.6	0.00e+00	0	35	104	35693527040	60	40332
2026-01-08 09:19:30.75	339.48	7.17	-47.9	-50.4	3.6	0.00e+00	0	35	104	35693527040	60	40612
2026-01-08 09:19:31.76	339.52	7.08	-47.8	-50.2	3.6	0.00e+00	0	35	104	35693527040	60	39830
2026-01-08 09:19:32.77	339.55	6.99	-47.9	-50.3	3.6	0.00e+00	0	36	104	35693527040	60	40138
2026-01-08 09:19:33.78	339.58	6.91	-47.8	-50.3	3.6	0.00e+00	0	35	104	35693527040	60	40043
2026-01-08 09:19:34.79	339.61	6.82	-47.8	-50.3	3.6	0.00e+00	0	36	104	35693527040	60	40256
2026-01-08 09:19:35.80	339.65	6.73	-47.7	-50.2	3.6	0.00e+00	0	35	104	35693527040	60	39579
2026-01-08 09:19:36.81	339.68	6.64	-47.8	-50.3	3.6	0.00e+00	0	35	104	35693527040	60	40130
2026-01-08 09:19:37.82	339.71	6.55	-47.7	-50.2	3.6	0.00e+00	0	35	104	35693527040	60	39790
2026-01-08 09:19:38.83	339.74	6.47	-47.7	-50.3	3.6	0.00e+00	0	36	104	35693527040	60	39966
2026-01-08 09:19:39.84	339.77	6.38	-47.4	-49.9	3.6	0.00e+00	0	35	104	35693527040	60	38069
2026-01-08 09:19:40.84	339.80	6.30	-47.8	-50.3	3.6	0.00e+00	0	35	104	35693527040	60	39866
2026-01-08 09:19:41.85	339.83	6.21	-47.5	-50.0	3.6	0.00e+00	0	35	104	35693527040	60	38851
2026-01-08 09:19:42.86	339.86	6.12	-47.6	-50.1	3.6	0.00e+00	0	35	104	35693527040	60	39160
2026-01-08 09:19:43.87	339.89	6.04	-46.8	-49.3	3.6	0.00e+00	0	35	104	35693527040	60	35558
2026-01-08 09:19:44.87	339.92	5.96	-47.7	-50.2	3.6	0.00e+00	0	35	104	35693527040	60	39483
2026-01-08 09:19:45.88	339.95	5.87	-46.0	-48.5	3.6	0.00e+00	0	36	104	35693527040	60	32775
2026-01-08 09:19:46.89	339.98	5.79	-46.5	-48.9	3.6	0.00e+00	0	36	104	35693527040	60	34278
2026-01-08 09:19:47.90	340.01	5.70	-45.3	-47.8	3.6	0.00e+00	0	35	104	35693527040	60	30154
2026-01-08 09:19:48.91	340.04	5.62	-45.0	-47.5	3.6	0.00e+00	0	35	104	35693527040	60	28986
2026-01-08 09:19:49.92	340.07	5.54	-44.7	-47.2	3.6	0.00e+00	0	35	104	35693527040	60	27957
2026-01-08 09:19:50.93	340.10	5.46	-44.4	-46.9	3.6	0.00e+00	0	35	104	35693527040	60	27237
2026-01-08 09:19:51.94	340.13	5.37	-44.0	-46.5	3.6	0.00e+00	0	35	104	35693527040	60	26029
2026-01-08 09:19:52.95	340.16	5.29	-45.4	-47.8	3.6	0.00e+00	0	35	104	35693527040	60	30230
2026-01-08 09:19:53.95	340.19	5.21	-46.3	-48.8	3.6	0.00e+00	0	35	104	35693527040	60	33802
2026-01-08 09:19:54.96	340.22	5.13	-44.4	-46.9	3.6	0.00e+00	0	35	104	35693527040	60	27028
2026-01-08 09:19:55.97	340.25	5.05	-46.3	-48.8	3.6	0.00e+00	0	35	104	35693527040	60	33692
2026-01-08 09:19:56.98	340.27	4.97	-44.3	-46.7	3.5	0.00e+00	0	36	104	35693527040	60	26625
2026-01-08 09:19:57.99	340.30	4.89	-44.2	-46.7	3.6	0.00e+00	0	35	104	35693527040	60	26473
2026-01-08 09:19:59.00	340.33	4.81	-44.1	-46.6	3.6	0.00e+00	0	35	104	35693527040	60	26284
2026-01-08 09:20:00.01	340.36	4.73	-44.1	-46.6	3.6	0.00e+00	0	35	104	35693527040	60	26121
2026-01-08 09:20:01.02	340.38	4.65	-44.1	-46.5	3.6	0.00e+00	0	35	104	35693527040	60	25894
2026-01-08 09:20:02.03	340.41	4.57	-44.3	-46.8	3.6	0.00e+00	0	36	104	35693527040	60	26769
2026-01-08 09:20:03.04	340.44	4.49	-45.3	-47.8	3.6	0.00e+00	0	35	104	35693527040	60	30095
2026-01-08 09:20:04.04	340.47	4.41	-44.2	-46.7	3.6	0.00e+00	0	35	104	35693527040	60	26566
2026-01-08 09:20:05.05	340.49	4.34	-44.4	-46.9	3.6	0.00e+00	0	35	104	35693527040	60	27006
2026-01-08 09:20:06.06	340.52	4.26	-44.2	-46.7	3.6	0.00e+00	0	35	104	35693527040	60	26490
2026-01-08 09:20:07.07	340.55	4.18	-44.2	-46.7	3.6	0.00e+00	0	35	104	35693527040	60	26431
2026-01-08 09:20:08.08	340.57	4.10	-44.1	-46.6	3.6	0.00e+00	0	35	104	35693527040	60	26297
2026-01-08 09:20:09.09	340.60	4.03	-44.1	-46.6	3.6	0.00e+00	0	35	104	35693527040	60	26274
2026-01-08 09:20:10.10	340.62	3.95	-44.2	-46.6	3.6	0.00e+00	0	35	104	35693527040	60	26300
2026-01-08 09:20:11.11	340.65	3.87	-44.0	-46.5	3.6	0.00e+00	0	35	104	35693527040	60	25969
2026-01-08 09:20:12.12	340.68	3.80	-44.3	-46.8	3.6	0.00e+00	0	35	104	35693527040	60	26773
2026-01-08 09:20:13.12	340.70	3.72	-44.1	-46.6	3.6	0.00e+00	0	35	104	35693527040	60	26217
2026-01-08 09:20:14.13	340.73	3.65	-44.2	-46.7	3.6	0.00e+00	0	35	104	35693527040	60	26634
2026-01-08 09:20:15.14	340.75	3.57	-44.1	-46.6	3.6	0.00e+00	0	35	104	35693527040	60	26041
2026-01-08 09:20:16.15	340.78	3.50	-44.3	-46.8	3.6	0.00e+00	0	35	104	35693527040	60	26664
2026-01-08 09:20:17.16	340.80	3.42	-44.2	-46.6	3.6	0.00e+00	0	35	104	35693527040	60	26326
2026-01-08 09:20:18.17	340.83	3.35	-44.2	-46.7	3.6	0.00e+00	0	35	104	35693527040	60	26516
2026-01-08 09:20:19.18	340.85	3.28	-44.1	-46.6	3.6	0.00e+00	0	35	104	35693527040	60	26119
2026-01-08 09:20:20.19	340.88	3.20	-44.3	-46.7	3.6	0.00e+00	0	35	104	35693527040	60	26513
2026-01-08 09:20:21.20	340.90	3.13	-44.2	-46.6	3.5	0.00e+00	0	35	104	35693527040	60	26179
2026-01-08 09:20:22.21	340.93	3.05	-44.1	-46.6	3.6	0.00e+00	0	35	104	35693527040	60	26155
2026-01-08 09:20:23.22	340.95	2.98	-46.5	-49.0	3.6	0.00e+00	0	35	104	35693527040	60	34612
2026-01-08 09:20:24.23	340.98	2.91	-48.1	-50.6	3.6	0.00e+00	0	35	104	35693527040	60	41484
2026-01-08 09:20:25.24	341.00	2.84	-48.4	-50.9	3.6	0.00e+00	0	35	104	35693527040	60	42864
2026-01-08 09:20:26.25	341.02	2.76	-48.6	-51.1	3.6	0.00e+00	0	35	104	35693527040	60	43904
2026-01-08 09:20:27.26	341.05	2.69	-48.7	-51.3	3.6	0.00e+00	0	35	104	35693527040	60	44729
2026-01-08 09:20:28.27	341.07	2.62	-48.8	-51.3	3.6	0.00e+00	0	35	104	35693527040	60	44762
2026-01-08 09:20:29.28	341.09	2.55	-48.8	-51.3	3.6	0.00e+00	0	35	104	35693527040	60	45095
2026-01-08 09:20:30.29	341.12	2.48	-48.8	-51.3	3.5	0.00e+00	0	35	104	35693527040	60	44842
2026-01-08 09:20:31.30	341.14	2.41	-48.9	-51.4	3.6	0.00e+00	0	35	104	35693527040	60	45309
2026-01-08 09:20:32.31	341.17	2.33	-48.5	-51.1	3.6	0.00e+00	0	35	104	35693527040	60	43716
2026-01-08 09:20:33.32	341.19	2.26	-48.7	-51.2	3.6	0.00e+00	0	35	104	35693527040	60	44547
2026-01-08 09:20:34.33	341.21	2.19	-48.8	-51.3	3.6	0.00e+00	0	35	104	35693527040	60	44878
2026-01-08 09:20:35.34	341.23	2.12	-48.8	-51.3	3.6	0.00e+00	0	35	104	35693527040	60	44751
2026-01-08 09:20:36.35	341.26	2.05	-48.7	-51.2	3.6	0.00e+00	0	35	104	35693527040	60	44589
2026-01-08 09:20:37.36	341.28	1.98	-49.0	-51.5	3.6	0.00e+00	0	35	104	35693527040	60	45779
2026-01-08 09:20:38.37	341.30	1.91	-48.9	-51.4	3.6	0.00e+00	0	35	104	35693527040	60	45398
2026-01-08 09:20:39.38	341.32	1.84	-48.8	-51.3	3.6	0.00e+00	0	35	104	35693527040	60	45159
2026-01-08 09:20:40.39	341.35	1.78	-48.8	-51.3	3.6	0.00e+00	0	35	104	35693527040	60	45134
2026-01-08 09:20:41.40	341.37	1.71	-48.8	-51.3	3.6	0.00e+00	0	35	104	35693527040	60	45106
2026-01-08 09:20:42.40	341.39	1.64	-48.8	-51.3	3.6	0.00e+00	0	35	104	35693527040	60	45030
2026-01-08 09:20:43.41	341.41	1.57	-48.8	-51.3	3.6	0.00e+00	0	35	104	35693527040	60	45053
2026-01-08 09:20:44.42	341.44	1.50	-48.8	-51.3	3.6	0.00e+00	0	35	104	35693527040	60	44757
2026-01-08 09:20:45.43	341.46	1.43	-48.8	-51.3	3.6	0.00e+00	0	35	104	35693527040	60	44862
2026-01-08 09:20:46.44	341.48	1.37	-48.8	-51.3	3.6	0.00e+00	0	35	104	35693527040	60	44944
2026-01-08 09:20:47.45	341.50	1.30	-48.8	-51.3	3.6	0.00e+00	0	35	104	35693527040	60	44993
2026-01-08 09:20:48.46	341.52	1.23	-48.8	-51.3	3.6	0.00e+00	0	35	104	35693527040	60	44986
2026-01-08 09:20:49.47	341.54	1.16	-48.8	-51.2	3.6	0.00e+00	0	35	104	35693527040	60	44523
2026-01-08 09:20:50.47	341.57	1.10	-48.8	-51.3	3.6	0.00e+00	0	35	104	35693527040	60	44754
2026-01-08 09:20:51.48	341.59	1.03	-48.8	-51.3	3.6	0.00e+00	0	35	104	35693527040	60	44901
2026-01-08 09:20:52.49	341.61	0.96	-48.8	-51.3	3.6	0.00e+00	0	35	104	35693527040	60	44776
2026-01-08 09:20:53.50	341.63	0.90	-48.8	-51.3	3.6	0.00e+00	0	35	104	35693527040	60	44967
