passes_logs/2026/01/08/R4.6S_Anadyr/R4.6S_Anadyr__20260108_201406_SUOMI_NPP_rec.log

#Pass ID: 20260108_201406_SUOMI NPP
#Satellite: SUOMI NPP
#Configuration: NPP
#almurnet v.1.7.20251203
#Start time: 2026-01-08 20:14:08

#Version: 2.2.20231116
#Station: R4.6S_Anadyr
#Location: 177.4865 lon 64.73178 lat
#TLE: 1 37849U 11061A   26008.05542337  .00000108  00000+0  71976-4 0  9997
#TLE: 2 37849  98.7805 310.1641 0002540  75.6410 284.5048 14.19523335735721

#Time	Az	El	Level	Level2	SNR	BER	BlckErr	Temp	State	Recorded	gain1	gain2
2026-01-08 20:14:08.24	65.01	0.10	-48.0	-58.7	3.5	8.45e-01	0	31	0	0	60	31151
2026-01-08 20:14:09.24	64.94	0.14	-48.4	-63.6	3.6	1.51e+00	0	32	104	0	60	54558
2026-01-08 20:14:10.25	64.86	0.19	-48.5	-63.6	3.6	1.51e+00	0	32	104	0	60	54984
2026-01-08 20:14:11.26	64.79	0.24	-48.4	-63.7	3.6	1.51e+00	0	32	104	0	60	55478
2026-01-08 20:14:12.28	64.71	0.29	-48.5	-63.7	3.6	1.51e+00	0	32	104	0	60	55260
2026-01-08 20:14:13.29	64.63	0.34	-48.6	-63.8	3.6	1.51e+00	0	32	104	0	60	55823
2026-01-08 20:14:14.30	64.56	0.39	-48.5	-63.7	3.6	1.51e+00	0	32	104	0	60	55297
2026-01-08 20:14:15.30	64.48	0.44	-48.5	-63.8	3.6	1.51e+00	0	32	104	0	60	55689
2026-01-08 20:14:16.31	64.41	0.49	-48.5	-63.7	3.6	1.51e+00	0	32	104	0	60	55472
2026-01-08 20:14:17.32	64.33	0.54	-48.5	-63.7	3.6	1.51e+00	0	32	104	0	60	55539
2026-01-08 20:14:18.33	64.25	0.59	-48.5	-63.7	3.6	1.51e+00	0	32	104	0	60	55180
2026-01-08 20:14:19.34	64.18	0.64	-48.5	-63.6	3.6	1.51e+00	0	32	104	0	60	54931
2026-01-08 20:14:20.35	64.10	0.69	-48.3	-63.5	3.6	1.51e+00	0	32	104	0	60	54235
2026-01-08 20:14:21.36	64.02	0.74	-48.2	-63.4	3.6	1.51e+00	0	32	104	0	60	53595
2026-01-08 20:14:22.37	63.94	0.79	-48.1	-63.2	3.6	1.51e+00	0	32	104	0	60	52409
2026-01-08 20:14:23.38	63.86	0.84	-47.8	-63.0	3.6	1.51e+00	0	32	104	0	60	50996
2026-01-08 20:14:24.39	63.78	0.89	-47.1	-62.3	3.6	1.51e+00	0	32	104	0	60	47306
2026-01-08 20:14:25.40	63.71	0.94	-46.8	-62.0	3.6	1.51e+00	0	32	104	0	60	45570
2026-01-08 20:14:26.42	63.63	0.99	-46.8	-62.0	3.6	1.51e+00	0	32	104	0	60	45708
2026-01-08 20:14:27.42	63.55	1.04	-46.8	-62.0	3.6	1.51e+00	0	32	104	0	60	45396
2026-01-08 20:14:28.44	63.47	1.09	-46.8	-62.0	3.6	1.51e+00	0	32	104	0	60	45528
2026-01-08 20:14:29.45	63.39	1.14	-46.8	-62.0	3.6	1.51e+00	0	32	104	0	60	45432
2026-01-08 20:14:30.46	63.30	1.19	-46.8	-62.0	3.6	1.51e+00	0	32	104	0	60	45388
2026-01-08 20:14:31.47	63.22	1.24	-46.8	-62.0	3.6	1.51e+00	0	32	104	0	60	45366
2026-01-08 20:14:32.47	63.14	1.29	-46.8	-62.0	3.6	1.51e+00	0	32	104	0	60	45696
2026-01-08 20:14:33.48	63.06	1.34	-46.8	-62.0	3.6	1.51e+00	0	32	104	0	60	45644
2026-01-08 20:14:34.49	62.98	1.39	-46.8	-62.0	3.6	1.51e+00	0	32	104	0	60	45555
2026-01-08 20:14:35.50	62.90	1.45	-46.8	-62.0	3.6	1.51e+00	0	32	104	0	60	45716
2026-01-08 20:14:36.51	62.82	1.50	-46.8	-62.0	3.6	1.51e+00	0	32	104	0	60	45577
2026-01-08 20:14:37.52	62.73	1.55	-46.8	-62.0	3.6	1.51e+00	0	32	104	0	60	45311
2026-01-08 20:14:38.53	62.65	1.60	-46.8	-62.0	3.6	1.51e+00	0	32	104	0	60	45256
2026-01-08 20:14:39.54	62.57	1.65	-46.8	-62.0	3.6	1.51e+00	0	32	104	0	60	45536
2026-01-08 20:14:40.55	62.49	1.70	-46.8	-61.9	3.6	1.51e+00	0	33	104	0	60	45206
2026-01-08 20:14:41.56	62.40	1.75	-46.8	-62.0	3.6	1.51e+00	0	32	104	0	60	45309
2026-01-08 20:14:42.57	62.32	1.80	-46.8	-61.9	3.6	1.51e+00	0	33	104	0	60	45213
2026-01-08 20:14:43.58	62.23	1.85	-46.8	-62.0	3.6	1.51e+00	0	32	104	0	60	45474
2026-01-08 20:14:44.59	62.15	1.90	-46.8	-61.9	3.6	1.51e+00	0	32	104	0	60	45126
2026-01-08 20:14:45.60	62.06	1.95	-46.8	-61.9	3.6	1.51e+00	0	33	104	0	60	45142
2026-01-08 20:14:46.61	61.98	2.00	-46.8	-61.9	3.6	1.51e+00	0	33	104	0	60	44727
2026-01-08 20:14:47.62	61.89	2.05	-46.8	-61.8	3.6	1.51e+00	0	33	104	0	60	44575
2026-01-08 20:14:48.62	61.81	2.10	-46.8	-61.7	3.6	1.51e+00	0	33	104	0	60	43847
2026-01-08 20:14:49.63	61.72	2.15	-46.8	-61.6	3.6	1.51e+00	0	32	104	0	60	43578
2026-01-08 20:14:50.64	61.64	2.21	-46.8	-61.8	3.6	1.51e+00	0	33	104	0	60	44312
2026-01-08 20:14:51.65	61.55	2.26	-46.8	-61.9	3.6	1.51e+00	0	33	104	0	60	44992
2026-01-08 20:14:52.66	61.46	2.31	-46.8	-62.0	3.6	1.51e+00	0	33	104	0	60	45484
2026-01-08 20:14:53.67	61.38	2.36	-46.8	-62.0	3.6	1.51e+00	0	33	104	0	60	45361
2026-01-08 20:14:54.68	61.29	2.41	-46.8	-61.9	3.6	1.51e+00	0	33	104	0	60	45210
2026-01-08 20:14:55.69	61.20	2.46	-46.8	-61.8	3.6	1.51e+00	0	33	104	0	60	44638
2026-01-08 20:14:56.71	61.11	2.51	-46.8	-62.0	3.6	1.51e+00	0	33	104	0	60	45488
2026-01-08 20:14:57.71	61.02	2.56	-46.8	-62.0	3.6	1.51e+00	0	33	104	0	60	45279
2026-01-08 20:14:58.72	60.93	2.61	-46.8	-61.6	3.6	1.51e+00	0	33	104	0	60	43465
2026-01-08 20:14:59.73	60.84	2.67	-46.8	-60.9	3.6	1.51e+00	0	33	104	0	60	40323
2026-01-08 20:15:00.74	60.76	2.72	-46.8	-61.0	3.6	1.51e+00	0	33	104	0	60	40344
2026-01-08 20:15:01.75	60.67	2.77	-46.8	-61.4	3.6	1.51e+00	0	33	104	0	60	42622
2026-01-08 20:15:02.76	60.58	2.82	-46.8	-61.4	3.6	1.51e+00	0	33	104	0	60	42559
2026-01-08 20:15:03.77	60.48	2.87	-46.6	-58.2	3.8	1.50e+00	0	33	104	0	60	29319
2026-01-08 20:15:04.78	60.39	2.92	-46.2	-54.6	6.3	5.62e-01	0	33	0	0	60	19455
2026-01-08 20:15:05.79	60.30	2.97	-45.7	-51.4	9.1	9.18e-02	0	33	0	2097152	60	13499
2026-01-08 20:15:06.80	60.21	3.02	-44.9	-49.4	11.4	8.09e-03	0	33	0	3145728	60	10669
2026-01-08 20:15:07.81	60.12	3.08	-47.0	-61.6	3.6	5.38e-01	0	33	104	5242880	60	43670
2026-01-08 20:15:08.81	60.03	3.13	-44.7	-48.7	12.5	1.49e+00	0	33	104	5242880	60	9835
2026-01-08 20:15:09.82	59.94	3.18	-46.7	-61.7	3.6	3.80e-06	0	33	104	5242880	60	43734
2026-01-08 20:15:10.83	59.84	3.23	-46.8	-59.3	3.6	1.50e+00	0	33	104	5242880	60	33415
2026-01-08 20:15:11.84	59.75	3.28	-42.6	-45.0	15.7	1.06e-01	0	33	0	5242880	58	7234
2026-01-08 20:15:12.85	59.66	3.33	-42.3	-44.6	16.4	0.00e+00	0	33	0	7340032	58	6864
2026-01-08 20:15:13.86	59.56	3.38	-42.1	-44.2	16.6	0.00e+00	0	33	0	9437184	58	6608
2026-01-08 20:15:14.87	59.47	3.44	-42.1	-44.3	17.0	0.00e+00	0	33	0	10485760	58	6659
2026-01-08 20:15:15.88	59.37	3.49	-42.2	-44.4	16.6	0.00e+00	0	33	0	12582912	58	6696
2026-01-08 20:15:16.89	59.28	3.54	-41.8	-43.8	17.1	0.00e+00	0	33	0	14680064	58	6251
2026-01-08 20:15:17.90	59.18	3.59	-41.9	-44.0	17.0	0.00e+00	0	33	0	16777216	58	6420
2026-01-08 20:15:18.91	59.09	3.64	-41.9	-43.9	17.3	0.00e+00	0	33	0	18874368	56	7111
2026-01-08 20:15:19.92	58.99	3.69	-41.5	-43.4	17.7	0.00e+00	0	33	0	19922944	56	6749
2026-01-08 20:15:20.93	58.90	3.75	-41.8	-43.8	17.3	0.00e+00	0	33	0	22020096	56	7014
2026-01-08 20:15:21.94	58.80	3.80	-41.9	-43.8	17.2	0.00e+00	0	33	0	24117248	56	7081
2026-01-08 20:15:22.94	58.70	3.85	-42.0	-44.1	17.1	0.00e+00	0	33	0	26214400	56	7268
2026-01-08 20:15:23.95	58.61	3.90	-42.0	-44.0	17.0	0.00e+00	0	33	0	28311552	56	7220
2026-01-08 20:15:24.96	58.51	3.95	-41.9	-43.9	17.3	0.00e+00	0	33	0	29360128	56	7126
2026-01-08 20:15:25.97	58.41	4.00	-41.8	-43.8	17.3	0.00e+00	0	33	0	31457280	56	7058
2026-01-08 20:15:26.98	58.31	4.06	-41.7	-43.7	17.5	0.00e+00	0	33	0	33554432	56	6933
2026-01-08 20:15:27.99	58.21	4.11	-41.4	-43.2	18.0	0.00e+00	0	33	0	35651584	56	6589
2026-01-08 20:15:29.00	58.11	4.16	-41.8	-43.7	17.4	0.00e+00	0	33	0	37748736	56	6974
2026-01-08 20:15:30.01	58.02	4.21	-41.4	-43.2	17.9	0.00e+00	0	33	0	38797312	56	6569
2026-01-08 20:15:31.02	57.92	4.26	-41.4	-43.1	18.1	0.00e+00	0	33	0	40894464	56	6532
2026-01-08 20:15:32.03	57.82	4.32	-41.4	-43.2	18.0	0.00e+00	0	33	0	42991616	56	6559
2026-01-08 20:15:33.04	57.71	4.37	-41.5	-43.3	18.0	0.00e+00	0	33	0	45088768	56	6623
2026-01-08 20:15:34.05	57.61	4.42	-41.4	-43.2	18.0	0.00e+00	0	33	0	47185920	56	6581
2026-01-08 20:15:35.06	57.51	4.47	-41.3	-43.1	18.3	0.00e+00	0	33	0	48234496	56	6478
2026-01-08 20:15:36.07	57.41	4.52	-41.2	-42.9	18.3	0.00e+00	0	33	0	50331648	56	6390
2026-01-08 20:15:37.07	57.31	4.58	-41.3	-43.0	18.2	0.00e+00	0	33	0	52428800	56	6438
2026-01-08 20:15:38.08	57.21	4.63	-41.2	-42.9	18.3	0.00e+00	0	33	0	54525952	56	6383
2026-01-08 20:15:39.09	57.10	4.68	-41.4	-43.1	18.1	0.00e+00	0	33	0	56623104	56	6534
2026-01-08 20:15:40.10	57.00	4.73	-41.4	-43.2	18.1	0.00e+00	0	33	0	58720256	56	6553
2026-01-08 20:15:41.11	56.90	4.78	-41.4	-43.2	18.1	0.00e+00	0	33	0	59768832	56	6564
2026-01-08 20:15:42.12	56.79	4.84	-41.2	-42.9	18.4	0.00e+00	0	33	0	61865984	56	6357
2026-01-08 20:15:43.13	56.69	4.89	-41.2	-43.0	18.4	0.00e+00	0	33	0	63963136	56	6399
2026-01-08 20:15:44.14	56.58	4.94	-41.1	-42.8	18.5	0.00e+00	0	33	0	66060288	56	6258
2026-01-08 20:15:45.15	56.48	4.99	-41.0	-42.6	18.8	0.00e+00	0	33	0	67108864	56	6160
2026-01-08 20:15:46.16	56.37	5.05	-41.2	-42.9	18.2	0.00e+00	0	33	0	69206016	56	6381
2026-01-08 20:15:47.17	56.27	5.10	-41.2	-42.9	18.4	0.00e+00	0	33	0	71303168	56	6366
2026-01-08 20:15:48.18	56.16	5.15	-41.0	-42.7	18.6	0.00e+00	0	33	0	73400320	56	6212
2026-01-08 20:15:49.19	56.06	5.20	-41.2	-42.9	18.4	0.00e+00	0	33	0	75497472	56	6340
2026-01-08 20:15:50.20	55.95	5.25	-41.2	-43.0	18.4	0.00e+00	0	33	0	76546048	56	6393
2026-01-08 20:15:51.20	55.84	5.31	-41.2	-42.9	18.4	0.00e+00	0	33	0	78643200	56	6381
2026-01-08 20:15:52.21	55.73	5.36	-41.3	-43.0	18.3	0.00e+00	0	33	0	80740352	56	6429
2026-01-08 20:15:53.23	55.62	5.41	-41.2	-42.9	18.5	0.00e+00	0	33	0	82837504	56	6347
2026-01-08 20:15:54.24	55.52	5.46	-41.1	-42.8	18.4	0.00e+00	0	33	0	84934656	56	6246
2026-01-08 20:15:55.24	55.41	5.51	-41.2	-42.9	18.6	0.00e+00	0	33	0	87031808	56	6332
2026-01-08 20:15:56.25	55.30	5.57	-41.1	-42.8	18.6	0.00e+00	0	33	0	88080384	56	6260
2026-01-08 20:15:57.26	55.19	5.62	-41.4	-43.1	18.3	0.00e+00	0	33	0	90177536	56	6507
2026-01-08 20:15:58.27	55.08	5.67	-41.5	-43.3	18.2	0.00e+00	0	33	0	92274688	56	6631
2026-01-08 20:15:59.27	54.97	5.72	-41.2	-42.9	18.5	0.00e+00	0	33	0	94371840	56	6346
2026-01-08 20:16:00.28	54.86	5.78	-41.3	-43.0	18.4	0.00e+00	0	33	0	96468992	56	6415
2026-01-08 20:16:01.29	54.75	5.83	-41.1	-42.8	18.6	0.00e+00	0	33	0	97517568	56	6264
2026-01-08 20:16:02.30	54.63	5.88	-41.2	-42.9	18.6	0.00e+00	0	33	0	99614720	56	6387
2026-01-08 20:16:03.31	54.52	5.93	-41.1	-42.7	18.8	0.00e+00	0	33	0	101711872	56	6193
2026-01-08 20:16:04.32	54.41	5.98	-41.0	-42.6	18.8	0.00e+00	0	33	0	103809024	56	6159
2026-01-08 20:16:05.33	54.30	6.04	-41.0	-42.6	18.9	0.00e+00	0	33	0	105906176	56	6123
2026-01-08 20:16:06.34	54.18	6.09	-40.5	-41.9	19.4	0.00e+00	0	33	0	106954752	54	6368
2026-01-08 20:16:07.35	54.07	6.14	-40.5	-41.9	19.4	0.00e+00	0	33	0	109051904	54	6375
2026-01-08 20:16:08.36	53.95	6.19	-40.3	-41.7	19.7	0.00e+00	0	33	0	111149056	54	6224
2026-01-08 20:16:09.37	53.84	6.25	-40.1	-41.5	19.7	0.00e+00	0	33	0	113246208	54	6081
2026-01-08 20:16:10.37	53.73	6.30	-40.2	-41.5	19.8	0.00e+00	0	33	0	115343360	54	6098
2026-01-08 20:16:11.38	53.61	6.35	-40.1	-41.5	19.8	0.00e+00	0	33	0	116391936	54	6049
2026-01-08 20:16:12.39	53.49	6.40	-39.9	-41.3	20.1	0.00e+00	0	33	0	118489088	54	5913
2026-01-08 20:16:13.40	53.38	6.45	-40.1	-41.5	19.8	0.00e+00	0	33	0	120586240	54	6078
2026-01-08 20:16:14.41	53.26	6.51	-39.9	-41.2	20.0	0.00e+00	0	33	0	122683392	54	5881
2026-01-08 20:16:15.42	53.14	6.56	-40.1	-41.4	20.1	0.00e+00	0	33	0	124780544	54	5988
2026-01-08 20:16:16.43	53.03	6.61	-40.0	-41.4	20.0	0.00e+00	0	33	0	125829120	54	5965
2026-01-08 20:16:17.44	52.91	6.66	-39.7	-41.0	20.4	0.00e+00	0	33	0	127926272	54	5727
2026-01-08 20:16:18.45	52.79	6.72	-39.7	-41.0	20.4	0.00e+00	0	33	0	130023424	52	6418
2026-01-08 20:16:19.46	52.67	6.77	-39.8	-41.0	20.3	0.00e+00	0	33	0	132120576	52	6446
2026-01-08 20:16:20.47	52.55	6.82	-39.9	-41.2	20.2	0.00e+00	0	33	0	134217728	52	6572
2026-01-08 20:16:21.48	52.43	6.87	-39.8	-41.1	20.3	0.00e+00	0	33	0	135266304	52	6525
2026-01-08 20:16:22.49	52.31	6.92	-39.9	-41.2	20.3	0.00e+00	0	33	0	137363456	52	6552
2026-01-08 20:16:23.50	52.19	6.98	-39.9	-41.2	20.3	0.00e+00	0	33	0	139460608	52	6543
2026-01-08 20:16:24.51	52.07	7.03	-39.9	-41.2	20.1	0.00e+00	0	33	0	141557760	52	6568
2026-01-08 20:16:25.51	51.95	7.08	-40.1	-41.4	19.7	0.00e+00	0	33	0	143654912	52	6729
2026-01-08 20:16:26.53	51.82	7.13	-40.0	-41.3	20.1	0.00e+00	0	33	0	144703488	52	6676
2026-01-08 20:16:27.54	51.70	7.19	-39.9	-41.2	20.1	0.00e+00	0	33	0	146800640	52	6548
2026-01-08 20:16:28.55	51.58	7.24	-39.8	-41.1	20.3	0.00e+00	0	33	0	148897792	52	6502
2026-01-08 20:16:29.55	51.46	7.29	-40.0	-41.3	20.2	0.00e+00	0	33	0	150994944	52	6661
2026-01-08 20:16:30.56	51.33	7.34	-40.0	-41.3	20.1	0.00e+00	0	33	0	153092096	52	6647
2026-01-08 20:16:31.57	51.21	7.39	-40.0	-41.4	20.1	0.00e+00	0	33	0	155189248	52	6699
2026-01-08 20:16:32.57	51.08	7.44	-40.2	-41.5	20.0	0.00e+00	0	33	0	156237824	52	6813
2026-01-08 20:16:33.58	50.96	7.50	-40.2	-41.6	19.9	0.00e+00	0	33	0	158334976	52	6874
2026-01-08 20:16:34.59	50.83	7.55	-40.1	-41.5	20.0	0.00e+00	0	33	0	160432128	52	6791
2026-01-08 20:16:35.60	50.71	7.60	-40.1	-41.4	20.1	0.00e+00	0	33	0	162529280	52	6750
2026-01-08 20:16:36.61	50.58	7.65	-40.0	-41.4	20.1	0.00e+00	0	33	0	164626432	52	6701
2026-01-08 20:16:37.61	50.45	7.70	-40.1	-41.5	20.0	0.00e+00	0	33	0	165675008	52	6780
2026-01-08 20:16:38.62	50.33	7.76	-40.1	-41.4	20.0	0.00e+00	0	33	0	167772160	52	6747
2026-01-08 20:16:39.63	50.20	7.81	-40.2	-41.6	19.9	0.00e+00	0	33	0	169869312	52	6905
2026-01-08 20:16:40.64	50.07	7.86	-40.3	-41.7	19.8	0.00e+00	0	33	0	171966464	52	7007
2026-01-08 20:16:41.65	49.94	7.91	-40.3	-41.7	19.8	0.00e+00	0	33	0	174063616	52	6950
2026-01-08 20:16:42.66	49.81	7.96	-40.2	-41.6	20.0	0.00e+00	0	33	0	175112192	52	6849
2026-01-08 20:16:43.67	49.68	8.01	-40.1	-41.5	20.0	0.00e+00	0	33	0	177209344	52	6774
2026-01-08 20:16:44.68	49.55	8.07	-40.2	-41.5	20.1	0.00e+00	0	33	0	179306496	52	6807
2026-01-08 20:16:45.69	49.42	8.12	-40.0	-41.3	20.2	0.00e+00	0	33	0	181403648	52	6670
2026-01-08 20:16:46.70	49.29	8.17	-39.9	-41.2	20.3	0.00e+00	0	33	0	183500800	52	6575
2026-01-08 20:16:47.71	49.16	8.22	-40.0	-41.3	20.3	0.00e+00	0	33	0	184549376	52	6649
2026-01-08 20:16:48.72	49.02	8.27	-39.9	-41.2	20.3	0.00e+00	0	33	0	186646528	52	6590
2026-01-08 20:16:49.73	48.89	8.32	-39.9	-41.2	20.2	0.00e+00	0	33	0	188743680	52	6586
2026-01-08 20:16:50.73	48.76	8.37	-39.9	-41.2	20.3	0.00e+00	0	33	0	190840832	52	6576
2026-01-08 20:16:51.74	48.63	8.43	-39.7	-41.0	20.5	0.00e+00	0	33	0	192937984	52	6422
2026-01-08 20:16:52.75	48.49	8.48	-39.6	-40.8	20.6	0.00e+00	0	33	0	193986560	52	6303
2026-01-08 20:16:53.76	48.36	8.53	-39.6	-40.9	20.6	0.00e+00	0	33	0	196083712	52	6319
2026-01-08 20:16:54.77	48.22	8.58	-39.8	-41.0	20.5	0.00e+00	0	33	0	198180864	52	6443
2026-01-08 20:16:55.78	48.09	8.63	-39.8	-41.0	20.5	0.00e+00	0	33	0	200278016	52	6435
2026-01-08 20:16:56.79	47.95	8.68	-39.7	-41.0	20.6	0.00e+00	0	33	0	202375168	52	6432
2026-01-08 20:16:57.81	47.81	8.73	-39.6	-40.9	20.7	0.00e+00	0	33	0	203423744	52	6325
2026-01-08 20:16:58.81	47.68	8.78	-39.6	-40.8	20.6	0.00e+00	0	33	0	205520896	52	6295
2026-01-08 20:16:59.83	47.54	8.84	-39.7	-40.9	20.6	0.00e+00	0	33	0	207618048	52	6377
2026-01-08 20:17:00.83	47.40	8.89	-39.9	-41.2	20.2	0.00e+00	0	33	0	209715200	52	6592
2026-01-08 20:17:01.84	47.26	8.94	-40.1	-41.5	20.1	0.00e+00	0	33	0	211812352	52	6772
2026-01-08 20:17:02.85	47.12	8.99	-40.1	-41.5	20.1	0.00e+00	0	33	0	212860928	52	6782
2026-01-08 20:17:03.86	46.98	9.04	-40.2	-41.5	20.1	0.00e+00	0	33	0	214958080	52	6843
2026-01-08 20:17:04.87	46.84	9.09	-40.3	-41.7	19.9	0.00e+00	0	33	0	217055232	52	6932
2026-01-08 20:17:05.88	46.70	9.14	-40.4	-41.8	19.7	0.00e+00	0	33	0	219152384	52	7047
2026-01-08 20:17:06.89	46.56	9.19	-40.3	-41.7	19.9	0.00e+00	0	33	0	221249536	52	6953
2026-01-08 20:17:07.90	46.42	9.24	-40.2	-41.6	20.0	0.00e+00	0	33	0	223346688	52	6886
2026-01-08 20:17:08.91	46.28	9.29	-40.5	-41.9	19.8	0.00e+00	0	33	0	224395264	52	7123
2026-01-08 20:17:09.92	46.13	9.34	-40.4	-41.8	19.8	0.00e+00	0	33	0	226492416	52	7037
2026-01-08 20:17:10.93	45.99	9.39	-40.1	-41.5	20.1	0.00e+00	0	33	0	228589568	52	6792
2026-01-08 20:17:11.94	45.85	9.44	-40.0	-41.3	20.2	0.00e+00	0	33	0	230686720	52	6656
2026-01-08 20:17:12.95	45.70	9.49	-40.0	-41.3	20.2	0.00e+00	0	33	0	232783872	52	6691
2026-01-08 20:17:13.96	45.56	9.54	-40.0	-41.3	20.3	0.00e+00	0	33	0	233832448	52	6636
2026-01-08 20:17:14.97	45.41	9.59	-39.9	-41.1	20.4	0.00e+00	0	33	0	235929600	52	6521
2026-01-08 20:17:15.98	45.27	9.64	-39.7	-41.0	20.6	0.00e+00	0	33	0	238026752	52	6400
2026-01-08 20:17:16.99	45.12	9.69	-39.5	-40.7	20.8	0.00e+00	0	33	0	240123904	52	6232
2026-01-08 20:17:17.99	44.98	9.74	-39.4	-40.6	21.0	0.00e+00	0	33	0	241172480	52	6112
2026-01-08 20:17:19.00	44.83	9.79	-39.3	-40.4	21.1	0.00e+00	0	33	0	243269632	52	6019
2026-01-08 20:17:20.01	44.68	9.84	-39.1	-40.2	21.1	0.00e+00	0	33	0	245366784	52	5893
2026-01-08 20:17:21.02	44.53	9.89	-39.0	-40.2	21.2	0.00e+00	0	34	0	247463936	52	5847
2026-01-08 20:17:22.03	44.38	9.94	-39.1	-40.3	21.1	0.00e+00	0	33	0	249561088	52	5902
2026-01-08 20:17:23.04	44.23	9.99	-38.8	-39.9	21.4	0.00e+00	0	33	0	251658240	52	5686
2026-01-08 20:17:24.05	44.08	10.04	-38.7	-39.8	21.5	0.00e+00	0	33	0	252706816	50	6314
2026-01-08 20:17:25.06	43.93	10.09	-38.6	-39.7	21.6	0.00e+00	0	33	0	254803968	50	6226
2026-01-08 20:17:26.07	43.78	10.14	-38.7	-39.8	21.5	0.00e+00	0	33	0	256901120	50	6282
2026-01-08 20:17:27.08	43.63	10.18	-38.6	-39.7	21.7	0.00e+00	0	33	0	258998272	50	6201
2026-01-08 20:17:28.09	43.48	10.23	-38.4	-39.5	21.7	0.00e+00	0	33	0	261095424	50	6081
2026-01-08 20:17:29.10	43.33	10.28	-38.3	-39.4	21.9	0.00e+00	0	33	0	262144000	50	6019
2026-01-08 20:17:30.11	43.18	10.33	-38.2	-39.2	21.9	0.00e+00	0	33	0	264241152	50	5879
2026-01-08 20:17:31.12	43.02	10.38	-38.0	-39.0	22.2	0.00e+00	0	33	0	266338304	50	5719
2026-01-08 20:17:32.12	42.87	10.43	-38.1	-39.1	22.0	0.00e+00	0	33	0	268435456	50	5780
2026-01-08 20:17:33.13	42.72	10.48	-38.0	-39.0	22.1	0.00e+00	0	33	0	270532608	50	5703
2026-01-08 20:17:34.14	42.56	10.52	-38.2	-39.3	22.0	0.00e+00	0	33	0	271581184	50	5909
2026-01-08 20:17:35.14	42.41	10.57	-38.1	-39.1	22.0	0.00e+00	0	33	0	273678336	50	5822
2026-01-08 20:17:36.15	42.25	10.62	-38.2	-39.2	22.1	0.00e+00	0	33	0	275775488	50	5868
2026-01-08 20:17:37.16	42.09	10.67	-37.9	-39.0	22.3	0.00e+00	0	33	0	277872640	50	5711
2026-01-08 20:17:38.17	41.94	10.71	-38.2	-39.2	22.1	0.00e+00	0	33	0	279969792	50	5895
2026-01-08 20:17:39.18	41.78	10.76	-38.1	-39.1	22.1	0.00e+00	0	33	0	281018368	50	5824
2026-01-08 20:17:40.19	41.62	10.81	-38.2	-39.3	22.0	0.00e+00	0	34	0	283115520	50	5909
2026-01-08 20:17:41.20	41.46	10.86	-38.6	-39.7	21.6	0.00e+00	0	33	0	285212672	50	6225
2026-01-08 20:17:42.21	41.30	10.90	-38.6	-39.7	21.7	0.00e+00	0	33	0	287309824	50	6218
2026-01-08 20:17:43.21	41.15	10.95	-38.5	-39.6	21.7	0.00e+00	0	34	0	289406976	50	6128
2026-01-08 20:17:44.23	40.98	11.00	-38.4	-39.5	21.7	0.00e+00	0	33	0	290455552	50	6049
2026-01-08 20:17:45.23	40.83	11.05	-38.3	-39.4	22.0	0.00e+00	0	33	0	292552704	50	5987
2026-01-08 20:17:46.25	40.66	11.09	-38.1	-39.1	22.1	0.00e+00	0	33	0	294649856	50	5797
2026-01-08 20:17:47.25	40.50	11.14	-37.9	-38.9	22.4	0.00e+00	0	34	0	296747008	50	5651
2026-01-08 20:17:48.26	40.34	11.19	-37.8	-38.8	22.3	0.00e+00	0	33	0	298844160	50	5620
2026-01-08 20:17:49.27	40.18	11.23	-37.9	-38.9	22.2	0.00e+00	0	33	0	299892736	50	5657
2026-01-08 20:17:50.28	40.01	11.28	-37.7	-38.7	22.6	0.00e+00	0	34	0	301989888	48	6216
2026-01-08 20:17:51.29	39.85	11.32	-37.6	-38.6	22.5	0.00e+00	0	34	0	304087040	48	6109
2026-01-08 20:17:52.30	39.69	11.37	-37.3	-38.3	22.8	0.00e+00	0	34	0	306184192	48	5906
2026-01-08 20:17:53.31	39.52	11.42	-37.1	-38.1	23.0	0.00e+00	0	34	0	308281344	48	5774
2026-01-08 20:17:54.32	39.36	11.46	-37.1	-38.1	23.1	0.00e+00	0	34	0	309329920	48	5770
2026-01-08 20:17:55.33	39.19	11.51	-37.2	-38.1	22.9	0.00e+00	0	33	0	311427072	48	5826
2026-01-08 20:17:56.34	39.02	11.55	-37.3	-38.2	22.8	0.00e+00	0	34	0	313524224	48	5869
2026-01-08 20:17:57.35	38.86	11.60	-37.3	-38.3	22.7	0.00e+00	0	33	0	315621376	48	5940
2026-01-08 20:17:58.36	38.69	11.64	-37.4	-38.3	22.8	0.00e+00	0	33	0	317718528	48	5960
2026-01-08 20:17:59.37	38.52	11.69	-37.5	-38.5	22.7	0.00e+00	0	34	0	319815680	48	6045
2026-01-08 20:18:00.38	38.35	11.73	-37.5	-38.4	22.7	0.00e+00	0	34	0	320864256	48	6026
2026-01-08 20:18:01.39	38.18	11.78	-37.5	-38.5	22.8	0.00e+00	0	34	0	322961408	48	6051
2026-01-08 20:18:02.39	38.02	11.82	-37.4	-38.4	22.9	0.00e+00	0	34	0	325058560	48	6000
2026-01-08 20:18:03.40	37.85	11.86	-37.2	-38.1	22.9	0.00e+00	0	34	0	327155712	48	5817
2026-01-08 20:18:04.41	37.68	11.91	-37.1	-38.1	23.0	0.00e+00	0	33	0	329252864	48	5791
2026-01-08 20:18:05.42	37.50	11.95	-37.1	-38.1	23.0	0.00e+00	0	34	0	330301440	48	5782
2026-01-08 20:18:06.43	37.33	12.00	-37.0	-37.9	23.1	0.00e+00	0	34	0	332398592	48	5666
2026-01-08 20:18:07.43	37.16	12.04	-36.7	-37.5	23.5	0.00e+00	0	33	0	334495744	46	6103
2026-01-08 20:18:08.44	36.99	12.08	-36.5	-37.4	23.5	0.00e+00	0	33	0	336592896	46	6006
2026-01-08 20:18:09.45	36.82	12.13	-36.6	-37.5	23.5	0.00e+00	0	33	0	338690048	46	6059
2026-01-08 20:18:10.46	36.64	12.17	-36.5	-37.4	23.6	0.00e+00	0	33	0	339738624	46	6013
2026-01-08 20:18:11.47	36.47	12.21	-36.9	-37.8	23.3	0.00e+00	0	34	0	341835776	46	6288
2026-01-08 20:18:12.48	36.29	12.25	-37.1	-38.0	23.1	0.00e+00	0	33	0	343932928	46	6445
2026-01-08 20:18:13.49	36.12	12.30	-37.1	-38.0	23.0	0.00e+00	0	34	0	346030080	46	6429
2026-01-08 20:18:14.50	35.94	12.34	-37.3	-38.3	22.9	0.00e+00	0	33	0	348127232	46	6671
2026-01-08 20:18:15.51	35.77	12.38	-37.3	-38.2	23.0	0.00e+00	0	34	0	349175808	46	6595
2026-01-08 20:18:16.52	35.59	12.42	-37.6	-38.6	22.6	0.00e+00	0	34	0	351272960	46	6880
2026-01-08 20:18:17.52	35.42	12.46	-37.8	-38.8	22.5	0.00e+00	0	34	0	353370112	48	6283
2026-01-08 20:18:18.53	35.24	12.51	-37.7	-38.7	22.6	0.00e+00	0	34	0	355467264	48	6234
2026-01-08 20:18:19.54	35.06	12.55	-37.7	-38.7	22.5	0.00e+00	0	34	0	357564416	48	6239
2026-01-08 20:18:20.55	34.88	12.59	-37.7	-38.7	22.4	0.00e+00	0	34	0	358612992	48	6186
2026-01-08 20:18:21.56	34.70	12.63	-37.6	-38.5	22.2	0.00e+00	0	33	0	360710144	48	6095
2026-01-08 20:18:22.57	34.52	12.67	-37.6	-38.6	22.6	0.00e+00	0	34	0	362807296	48	6144
2026-01-08 20:18:23.58	34.34	12.71	-37.6	-38.6	22.7	0.00e+00	0	34	0	364904448	48	6124
2026-01-08 20:18:24.59	34.16	12.75	-37.7	-38.7	22.6	0.00e+00	0	33	0	367001600	48	6207
2026-01-08 20:18:25.59	33.98	12.79	-37.7	-38.7	22.7	0.00e+00	0	34	0	368050176	48	6180
2026-01-08 20:18:26.60	33.80	12.83	-37.9	-39.0	22.4	0.00e+00	0	33	0	370147328	48	6411
2026-01-08 20:18:27.61	33.62	12.87	-37.9	-38.9	22.4	0.00e+00	0	33	0	372244480	48	6384
2026-01-08 20:18:28.62	33.43	12.91	-38.1	-39.1	22.2	0.00e+00	0	33	0	374341632	48	6532
2026-01-08 20:18:29.63	33.25	12.95	-38.3	-39.4	22.0	0.00e+00	0	34	0	376438784	48	6721
2026-01-08 20:18:30.64	33.07	12.99	-38.0	-39.1	22.3	0.00e+00	0	33	0	377487360	48	6474
2026-01-08 20:18:31.65	32.88	13.03	-37.9	-39.0	22.3	0.00e+00	0	33	0	379584512	48	6428
2026-01-08 20:18:32.66	32.70	13.06	-37.7	-38.7	22.5	0.00e+00	0	34	0	381681664	48	6222
2026-01-08 20:18:33.67	32.51	13.10	-37.6	-38.6	22.7	0.00e+00	0	34	0	383778816	48	6118
2026-01-08 20:18:34.68	32.33	13.14	-37.2	-38.1	23.1	0.00e+00	0	34	0	385875968	48	5816
2026-01-08 20:18:35.69	32.14	13.18	-37.2	-38.1	22.9	0.00e+00	0	34	0	386924544	48	5815
2026-01-08 20:18:36.70	31.96	13.22	-37.1	-38.0	23.1	0.00e+00	0	34	0	389021696	48	5751
2026-01-08 20:18:37.71	31.77	13.25	-37.0	-37.9	23.2	0.00e+00	0	34	0	391118848	48	5671
2026-01-08 20:18:38.72	31.58	13.29	-37.2	-38.1	23.0	0.00e+00	0	34	0	393216000	48	5809
2026-01-08 20:18:39.73	31.39	13.33	-37.2	-38.1	23.1	0.00e+00	0	34	0	395313152	48	5820
2026-01-08 20:18:40.74	31.20	13.36	-37.2	-38.2	23.1	0.00e+00	0	33	0	396361728	48	5839
2026-01-08 20:18:41.75	31.02	13.40	-37.3	-38.3	22.9	0.00e+00	0	33	0	398458880	48	5899
2026-01-08 20:18:42.76	30.83	13.44	-37.5	-38.5	22.8	0.00e+00	0	34	0	400556032	48	6054
2026-01-08 20:18:43.77	30.64	13.47	-37.3	-38.3	22.9	0.00e+00	0	33	0	402653184	48	5915
2026-01-08 20:18:44.78	30.45	13.51	-37.2	-38.1	23.0	0.00e+00	0	34	0	404750336	48	5817
2026-01-08 20:18:45.79	30.25	13.54	-37.2	-38.1	23.1	0.00e+00	0	34	0	405798912	48	5818
2026-01-08 20:18:46.79	30.07	13.58	-37.0	-38.0	23.2	0.00e+00	0	34	0	407896064	48	5710
2026-01-08 20:18:47.80	29.87	13.61	-37.1	-38.0	23.2	0.00e+00	0	34	0	409993216	48	5753
2026-01-08 20:18:48.81	29.68	13.65	-37.0	-38.0	23.1	0.00e+00	0	34	0	412090368	48	5713
2026-01-08 20:18:49.82	29.49	13.68	-37.3	-38.2	22.7	0.00e+00	0	34	0	414187520	48	5872
2026-01-08 20:18:50.83	29.30	13.71	-37.5	-38.5	22.7	0.00e+00	0	34	0	416284672	48	6057
2026-01-08 20:18:51.84	29.10	13.75	-37.8	-38.8	22.4	0.00e+00	0	33	0	417333248	48	6282
2026-01-08 20:18:52.85	28.91	13.78	-37.9	-39.0	22.4	0.00e+00	0	34	0	419430400	48	6416
2026-01-08 20:18:53.86	28.71	13.81	-38.0	-39.0	22.3	0.00e+00	0	33	0	421527552	48	6450
2026-01-08 20:18:54.87	28.52	13.85	-37.9	-39.0	22.5	0.00e+00	0	34	0	423624704	48	6410
2026-01-08 20:18:55.87	28.33	13.88	-37.6	-38.7	22.7	0.00e+00	0	34	0	425721856	48	6183
2026-01-08 20:18:56.88	28.13	13.91	-37.6	-38.7	22.5	0.00e+00	0	34	0	426770432	48	6178
2026-01-08 20:18:57.90	27.93	13.94	-37.6	-38.6	22.7	0.00e+00	0	34	0	428867584	48	6126
2026-01-08 20:18:58.91	27.74	13.97	-37.3	-38.3	23.0	0.00e+00	0	34	0	430964736	48	5935
2026-01-08 20:18:59.91	27.54	14.00	-36.9	-37.8	23.3	0.00e+00	0	34	0	433061888	48	5609
2026-01-08 20:19:00.92	27.34	14.04	-36.9	-37.8	23.3	0.00e+00	0	34	0	435159040	46	6313
2026-01-08 20:19:01.93	27.14	14.07	-36.3	-37.1	23.8	0.00e+00	0	34	0	436207616	46	5814
2026-01-08 20:19:02.94	26.95	14.10	-36.4	-37.3	23.4	0.00e+00	0	34	0	438304768	46	5901
2026-01-08 20:19:03.95	26.75	14.13	-36.4	-37.3	23.4	0.00e+00	0	34	0	440401920	46	5923
2026-01-08 20:19:04.96	26.55	14.16	-36.6	-37.4	23.5	0.00e+00	0	34	0	442499072	46	6030
2026-01-08 20:19:05.97	26.35	14.19	-36.7	-37.6	23.5	0.00e+00	0	34	0	444596224	46	6118
2026-01-08 20:19:06.98	26.15	14.21	-36.8	-37.7	23.3	0.00e+00	0	34	0	445644800	46	6220
2026-01-08 20:19:07.99	25.95	14.24	-36.7	-37.6	23.4	0.00e+00	0	34	0	447741952	46	6105
2026-01-08 20:19:09.00	25.75	14.27	-36.6	-37.4	23.7	0.00e+00	0	34	0	449839104	46	6023
2026-01-08 20:19:10.01	25.55	14.30	-36.8	-37.7	23.4	0.00e+00	0	34	0	451936256	46	6230
2026-01-08 20:19:11.01	25.35	14.33	-36.8	-37.7	23.4	0.00e+00	0	34	0	454033408	46	6188
2026-01-08 20:19:12.03	25.14	14.36	-36.5	-37.4	23.7	0.00e+00	0	34	0	455081984	46	5979
2026-01-08 20:19:13.03	24.94	14.38	-36.6	-37.5	23.6	0.00e+00	0	34	0	457179136	46	6044
2026-01-08 20:19:14.04	24.74	14.41	-36.8	-37.6	23.4	0.00e+00	0	34	0	459276288	46	6161
2026-01-08 20:19:15.05	24.54	14.44	-36.8	-37.7	23.4	0.00e+00	0	34	0	461373440	46	6180
2026-01-08 20:19:16.06	24.34	14.46	-36.9	-37.8	23.1	0.00e+00	0	34	0	463470592	46	6260
2026-01-08 20:19:17.07	24.13	14.49	-37.2	-38.1	23.0	0.00e+00	0	34	0	464519168	46	6525
2026-01-08 20:19:18.08	23.93	14.51	-37.5	-38.4	22.8	0.00e+00	0	34	0	466616320	46	6766
2026-01-08 20:19:19.09	23.72	14.54	-37.8	-38.8	22.5	0.00e+00	0	34	0	468713472	46	7031
2026-01-08 20:19:20.10	23.52	14.56	-37.9	-38.9	22.4	0.00e+00	0	34	0	470810624	48	6384
2026-01-08 20:19:21.11	23.31	14.59	-37.8	-38.8	22.5	0.00e+00	0	34	0	472907776	48	6302
2026-01-08 20:19:22.12	23.11	14.61	-37.8	-38.8	22.5	0.00e+00	0	34	0	473956352	48	6294
2026-01-08 20:19:23.13	22.90	14.64	-37.9	-38.9	22.4	0.00e+00	0	34	0	476053504	48	6363
2026-01-08 20:19:24.14	22.70	14.66	-37.6	-38.6	22.7	0.00e+00	0	34	0	478150656	48	6139
2026-01-08 20:19:25.15	22.49	14.68	-37.6	-38.6	22.6	0.00e+00	0	34	0	480247808	48	6123
2026-01-08 20:19:26.16	22.28	14.71	-37.8	-38.8	22.5	0.00e+00	0	34	0	482344960	48	6311
2026-01-08 20:19:27.17	22.08	14.73	-37.9	-38.9	22.4	0.00e+00	0	34	0	484442112	48	6356
2026-01-08 20:19:28.18	21.87	14.75	-38.0	-39.0	22.3	0.00e+00	0	34	0	485490688	48	6430
2026-01-08 20:19:29.19	21.66	14.77	-38.0	-39.0	22.1	0.00e+00	0	34	0	487587840	48	6439
2026-01-08 20:19:30.20	21.45	14.79	-37.7	-38.7	22.6	0.00e+00	0	34	0	489684992	48	6216
2026-01-08 20:19:31.21	21.25	14.81	-37.6	-38.6	22.7	0.00e+00	0	34	0	491782144	48	6105
2026-01-08 20:19:32.22	21.04	14.84	-37.4	-38.3	22.8	0.00e+00	0	34	0	493879296	48	5940
2026-01-08 20:19:33.23	20.83	14.86	-37.6	-38.5	22.7	0.00e+00	0	34	0	494927872	48	6097
2026-01-08 20:19:34.24	20.62	14.88	-37.5	-38.4	22.8	0.00e+00	0	34	0	497025024	48	6023
2026-01-08 20:19:35.25	20.41	14.89	-37.6	-38.5	22.8	0.00e+00	0	34	0	499122176	48	6086
2026-01-08 20:19:36.26	20.20	14.91	-37.3	-38.2	23.0	0.00e+00	0	34	0	501219328	48	5868
2026-01-08 20:19:37.26	19.99	14.93	-37.0	-37.9	23.2	0.00e+00	0	34	0	503316480	48	5695
2026-01-08 20:19:38.27	19.78	14.95	-36.9	-37.8	23.4	0.00e+00	0	34	0	504365056	48	5575
2026-01-08 20:19:39.28	19.57	14.97	-36.8	-37.7	23.5	0.00e+00	0	34	0	506462208	46	6175
2026-01-08 20:19:40.29	19.36	14.99	-36.6	-37.5	23.6	0.00e+00	0	34	0	508559360	46	6061
2026-01-08 20:19:41.30	19.15	15.00	-36.6	-37.5	23.4	0.00e+00	0	34	0	510656512	46	6065
2026-01-08 20:19:42.31	18.94	15.02	-37.1	-37.9	23.3	0.00e+00	0	34	0	512753664	46	6387
2026-01-08 20:19:43.32	18.73	15.04	-37.0	-38.0	23.3	0.00e+00	0	34	0	513802240	46	6396
2026-01-08 20:19:44.33	18.52	15.05	-37.1	-38.0	23.1	0.00e+00	0	34	0	515899392	46	6463
2026-01-08 20:19:45.34	18.30	15.07	-37.2	-38.2	23.1	0.00e+00	0	34	0	517996544	46	6543
2026-01-08 20:19:46.35	18.09	15.09	-37.3	-38.2	23.1	0.00e+00	0	34	0	520093696	46	6568
2026-01-08 20:19:47.36	17.88	15.10	-37.3	-38.2	23.1	0.00e+00	0	34	0	522190848	46	6598
2026-01-08 20:19:48.37	17.67	15.11	-37.3	-38.3	22.9	0.00e+00	0	34	0	523239424	46	6637
2026-01-08 20:19:49.38	17.45	15.13	-37.6	-38.6	22.8	0.00e+00	0	34	0	525336576	46	6859
2026-01-08 20:19:50.39	17.24	15.14	-37.5	-38.5	22.8	0.00e+00	0	34	0	527433728	46	6816
2026-01-08 20:19:51.39	17.03	15.16	-37.6	-38.6	22.7	0.00e+00	0	34	0	529530880	46	6859
2026-01-08 20:19:52.40	16.82	15.17	-37.6	-38.5	22.7	0.00e+00	0	34	0	531628032	46	6831
2026-01-08 20:19:53.41	16.60	15.18	-37.5	-38.5	22.6	0.00e+00	0	34	0	532676608	48	6041
2026-01-08 20:19:54.42	16.39	15.19	-37.4	-38.4	22.8	0.00e+00	0	34	0	534773760	48	6008
2026-01-08 20:19:55.43	16.18	15.21	-37.6	-38.6	22.7	0.00e+00	0	34	0	536870912	48	6113
2026-01-08 20:19:56.44	15.96	15.22	-37.7	-38.6	22.6	0.00e+00	0	34	0	538968064	48	6170
2026-01-08 20:19:57.45	15.75	15.23	-37.8	-38.8	22.5	0.00e+00	0	34	0	541065216	48	6300
2026-01-08 20:19:58.46	15.53	15.24	-37.9	-39.0	22.4	0.00e+00	0	34	0	542113792	48	6406
2026-01-08 20:19:59.47	15.32	15.25	-37.9	-38.9	22.4	0.00e+00	0	34	0	544210944	48	6356
2026-01-08 20:20:00.48	15.10	15.26	-37.8	-38.8	22.6	0.00e+00	0	34	0	546308096	48	6264
2026-01-08 20:20:01.49	14.89	15.27	-37.7	-38.7	22.7	0.00e+00	0	34	0	548405248	48	6192
2026-01-08 20:20:02.50	14.67	15.28	-37.4	-38.4	22.8	0.00e+00	0	34	0	550502400	48	5966
2026-01-08 20:20:03.51	14.46	15.29	-37.3	-38.3	23.0	0.00e+00	0	34	0	552599552	48	5919
2026-01-08 20:20:04.52	14.24	15.30	-37.3	-38.2	23.0	0.00e+00	0	34	0	553648128	48	5895
2026-01-08 20:20:05.53	14.03	15.30	-37.4	-38.3	22.9	0.00e+00	0	34	0	555745280	48	5933
2026-01-08 20:20:06.54	13.81	15.31	-37.5	-38.4	22.8	0.00e+00	0	34	0	557842432	48	6025
2026-01-08 20:20:07.54	13.60	15.32	-37.6	-38.5	22.8	0.00e+00	0	34	0	559939584	48	6097
2026-01-08 20:20:08.55	13.38	15.32	-37.4	-38.4	22.9	0.00e+00	0	34	0	562036736	48	5971
2026-01-08 20:20:09.56	13.17	15.33	-37.4	-38.4	23.0	0.00e+00	0	34	0	563085312	48	6019
2026-01-08 20:20:10.57	12.95	15.34	-37.2	-38.2	23.1	0.00e+00	0	34	0	565182464	48	5859
2026-01-08 20:20:11.58	12.74	15.34	-37.3	-38.2	23.0	0.00e+00	0	34	0	567279616	48	5880
2026-01-08 20:20:12.58	12.52	15.35	-37.1	-38.0	23.1	0.00e+00	0	34	0	569376768	48	5720
2026-01-08 20:20:13.59	12.31	15.35	-37.2	-38.1	23.1	0.00e+00	0	34	0	570425344	48	5794
2026-01-08 20:20:14.60	12.09	15.36	-37.2	-38.1	23.1	0.00e+00	0	34	0	572522496	48	5793
2026-01-08 20:20:15.61	11.87	15.36	-37.3	-38.3	23.0	0.00e+00	0	34	0	574619648	48	5928
2026-01-08 20:20:16.62	11.66	15.36	-37.6	-38.6	22.7	0.00e+00	0	34	0	576716800	48	6163
2026-01-08 20:20:17.63	11.44	15.37	-37.8	-38.8	22.5	0.00e+00	0	34	0	578813952	48	6263
2026-01-08 20:20:18.63	11.23	15.37	-37.9	-39.0	22.3	0.00e+00	0	34	0	580911104	48	6413
2026-01-08 20:20:19.64	11.01	15.37	-37.9	-39.0	22.5	0.00e+00	0	34	0	581959680	48	6391
2026-01-08 20:20:20.65	10.80	15.37	-37.7	-38.7	22.7	0.00e+00	0	34	0	584056832	48	6178
2026-01-08 20:20:21.66	10.58	15.37	-37.5	-38.5	22.8	0.00e+00	0	34	0	586153984	48	6038
2026-01-08 20:20:22.67	10.36	15.37	-37.5	-38.4	22.9	0.00e+00	0	34	0	588251136	48	6001
2026-01-08 20:20:23.68	10.15	15.37	-37.3	-38.2	23.0	0.00e+00	0	34	0	590348288	48	5861
2026-01-08 20:20:24.69	9.93	15.38	-37.1	-38.0	23.1	0.00e+00	0	34	0	591396864	48	5760
2026-01-08 20:20:25.70	9.71	15.37	-37.0	-37.9	23.2	0.00e+00	0	34	0	593494016	48	5683
2026-01-08 20:20:26.71	9.50	15.37	-36.9	-37.8	23.2	0.00e+00	0	34	0	595591168	48	5608
2026-01-08 20:20:27.72	9.28	15.37	-36.8	-37.7	23.4	0.00e+00	0	34	0	597688320	48	5557
2026-01-08 20:20:28.73	9.06	15.37	-37.0	-37.9	23.3	0.00e+00	0	34	0	599785472	48	5691
2026-01-08 20:20:29.74	8.85	15.37	-37.0	-37.9	23.2	0.00e+00	0	34	0	600834048	48	5674
2026-01-08 20:20:30.75	8.63	15.37	-37.0	-38.0	23.2	0.00e+00	0	34	0	602931200	48	5696
2026-01-08 20:20:31.76	8.42	15.36	-37.1	-38.0	23.1	0.00e+00	0	34	0	605028352	48	5747
2026-01-08 20:20:32.76	8.20	15.36	-37.1	-38.0	23.1	0.00e+00	0	34	0	607125504	48	5740
2026-01-08 20:20:33.77	7.99	15.36	-37.2	-38.1	23.1	0.00e+00	0	34	0	609222656	48	5787
2026-01-08 20:20:34.78	7.77	15.35	-37.4	-38.4	22.9	0.00e+00	0	34	0	610271232	48	5985
2026-01-08 20:20:35.79	7.55	15.35	-37.7	-38.7	22.6	0.00e+00	0	34	0	612368384	48	6238
2026-01-08 20:20:36.80	7.34	15.34	-37.9	-39.0	22.4	0.00e+00	0	34	0	614465536	48	6392
2026-01-08 20:20:37.81	7.12	15.34	-38.0	-39.0	22.4	0.00e+00	0	34	0	616562688	48	6408
2026-01-08 20:20:38.82	6.91	15.33	-38.1	-39.1	22.3	0.00e+00	0	34	0	618659840	48	6537
2026-01-08 20:20:39.82	6.69	15.33	-38.2	-39.2	21.9	0.00e+00	0	34	0	619708416	48	6586
2026-01-08 20:20:40.83	6.48	15.32	-38.2	-39.3	21.8	0.00e+00	0	34	0	621805568	48	6618
2026-01-08 20:20:41.84	6.26	15.31	-38.1	-39.1	22.2	0.00e+00	0	34	0	623902720	48	6502
2026-01-08 20:20:42.85	6.05	15.31	-38.0	-39.0	22.3	0.00e+00	0	34	0	625999872	48	6458
2026-01-08 20:20:43.86	5.83	15.30	-37.9	-38.9	22.3	0.00e+00	0	34	0	628097024	48	6353
2026-01-08 20:20:44.87	5.62	15.29	-37.8	-38.8	22.5	0.00e+00	0	34	0	629145600	48	6316
2026-01-08 20:20:45.88	5.40	15.28	-37.7	-38.7	22.6	0.00e+00	0	34	0	631242752	48	6229
2026-01-08 20:20:46.88	5.19	15.27	-37.6	-38.6	22.7	0.00e+00	0	34	0	633339904	48	6130
2026-01-08 20:20:47.89	4.97	15.26	-37.5	-38.5	22.9	0.00e+00	0	34	0	635437056	48	6060
2026-01-08 20:20:48.90	4.76	15.25	-37.5	-38.5	22.9	0.00e+00	0	34	0	637534208	48	6047
2026-01-08 20:20:49.91	4.54	15.24	-37.4	-38.3	22.9	0.00e+00	0	34	0	638582784	48	5964
2026-01-08 20:20:50.92	4.33	15.23	-37.2	-38.1	23.2	0.00e+00	0	34	0	640679936	48	5803
2026-01-08 20:20:51.93	4.11	15.22	-37.2	-38.1	23.1	0.00e+00	0	34	0	642777088	48	5807
2026-01-08 20:20:52.94	3.90	15.21	-36.9	-37.8	23.3	0.00e+00	0	34	0	644874240	48	5619
2026-01-08 20:20:53.95	3.69	15.20	-37.3	-38.2	23.0	0.00e+00	0	34	0	646971392	48	5882
2026-01-08 20:20:54.96	3.47	15.19	-37.4	-38.3	22.8	0.00e+00	0	34	0	649068544	48	5962
2026-01-08 20:20:55.96	3.26	15.18	-37.6	-38.5	22.8	0.00e+00	0	34	0	650117120	48	6093
2026-01-08 20:20:56.97	3.05	15.16	-37.5	-38.5	22.8	0.00e+00	0	34	0	652214272	48	6084
2026-01-08 20:20:57.98	2.83	15.15	-37.4	-38.4	22.9	0.00e+00	0	34	0	654311424	48	5965
2026-01-08 20:20:58.99	2.62	15.14	-37.2	-38.1	23.1	0.00e+00	0	34	0	656408576	48	5799
2026-01-08 20:21:00.01	2.41	15.12	-37.0	-37.9	23.3	0.00e+00	0	34	0	658505728	48	5693
2026-01-08 20:21:01.02	2.19	15.11	-36.8	-37.7	23.6	0.00e+00	0	34	0	659554304	48	5523
2026-01-08 20:21:02.03	1.98	15.09	-36.7	-37.6	23.6	0.00e+00	0	34	0	661651456	46	6107
2026-01-08 20:21:03.03	1.77	15.08	-36.6	-37.5	23.6	0.00e+00	0	34	0	663748608	46	6072
2026-01-08 20:21:04.04	1.56	15.06	-36.8	-37.7	23.4	0.00e+00	0	34	0	665845760	46	6228
2026-01-08 20:21:05.05	1.35	15.05	-36.9	-37.8	23.3	0.00e+00	0	34	0	667942912	46	6312
2026-01-08 20:21:06.06	1.14	15.03	-37.0	-38.0	23.3	0.00e+00	0	34	0	668991488	46	6395
2026-01-08 20:21:07.07	0.93	15.01	-37.2	-38.1	23.0	0.00e+00	0	34	0	671088640	46	6504
2026-01-08 20:21:08.08	0.71	15.00	-37.0	-37.9	23.3	0.00e+00	0	34	0	673185792	46	6354
2026-01-08 20:21:09.09	0.50	14.98	-37.1	-38.1	23.2	0.00e+00	0	34	0	675282944	46	6478
2026-01-08 20:21:10.10	0.29	14.96	-37.3	-38.3	23.0	0.00e+00	0	34	0	677380096	46	6631
2026-01-08 20:21:11.11	0.08	14.94	-37.5	-38.5	22.9	0.00e+00	0	34	0	678428672	46	6792
2026-01-08 20:21:12.12	359.87	14.92	-37.5	-38.5	22.8	0.00e+00	0	34	0	680525824	46	6816
2026-01-08 20:21:13.13	359.66	14.90	-37.5	-38.5	22.8	0.00e+00	0	34	0	682622976	46	6826
2026-01-08 20:21:14.13	359.46	14.89	-37.6	-38.6	22.7	0.00e+00	0	34	0	684720128	46	6888
2026-01-08 20:21:15.15	359.25	14.87	-37.8	-38.8	22.6	0.00e+00	0	34	0	686817280	48	6267
2026-01-08 20:21:16.15	359.04	14.85	-37.8	-38.8	22.4	0.00e+00	0	34	0	687865856	48	6275
2026-01-08 20:21:17.16	358.83	14.83	-37.9	-39.0	22.4	0.00e+00	0	34	0	689963008	48	6393
2026-01-08 20:21:18.17	358.62	14.80	-38.0	-39.0	22.4	0.00e+00	0	34	0	692060160	48	6436
2026-01-08 20:21:19.18	358.41	14.78	-37.8	-38.9	22.5	0.00e+00	0	34	0	694157312	48	6348
2026-01-08 20:21:20.19	358.21	14.76	-37.5	-38.5	22.7	0.00e+00	0	34	0	696254464	48	6088
2026-01-08 20:21:21.19	358.00	14.74	-37.6	-38.6	22.6	0.00e+00	0	34	0	697303040	48	6138
2026-01-08 20:21:22.20	357.79	14.72	-37.2	-38.2	23.2	0.00e+00	0	34	0	699400192	48	5864
2026-01-08 20:21:23.21	357.59	14.70	-36.9	-37.8	23.4	0.00e+00	0	34	0	701497344	46	6269
2026-01-08 20:21:24.22	357.38	14.67	-36.8	-37.7	23.5	0.00e+00	0	34	0	703594496	46	6231
2026-01-08 20:21:25.23	357.17	14.65	-36.7	-37.5	23.5	0.00e+00	0	34	0	705691648	46	6090
2026-01-08 20:21:26.23	356.97	14.63	-36.7	-37.6	23.5	0.00e+00	0	34	0	706740224	46	6116
2026-01-08 20:21:27.24	356.76	14.60	-36.8	-37.7	23.4	0.00e+00	0	34	0	708837376	46	6208
2026-01-08 20:21:28.25	356.56	14.58	-36.9	-37.8	23.3	0.00e+00	0	34	0	710934528	46	6307
2026-01-08 20:21:29.26	356.36	14.55	-36.8	-37.6	23.4	0.00e+00	0	34	0	713031680	46	6158
2026-01-08 20:21:30.27	356.15	14.53	-37.2	-38.1	23.1	0.00e+00	0	34	0	715128832	46	6503
2026-01-08 20:21:31.28	355.95	14.50	-36.6	-37.5	23.6	0.00e+00	0	34	0	716177408	46	6057
2026-01-08 20:21:32.29	355.74	14.48	-36.8	-37.6	23.4	0.00e+00	0	34	0	718274560	46	6171
2026-01-08 20:21:33.30	355.54	14.45	-36.7	-37.6	23.5	0.00e+00	0	34	0	720371712	46	6140
2026-01-08 20:21:34.31	355.34	14.42	-37.0	-37.9	23.2	0.00e+00	0	34	0	722468864	46	6380
2026-01-08 20:21:35.32	355.13	14.40	-37.1	-38.1	23.2	0.00e+00	0	34	0	724566016	46	6475
2026-01-08 20:21:36.33	354.93	14.37	-37.2	-38.1	23.0	0.00e+00	0	34	0	725614592	46	6514
2026-01-08 20:21:37.33	354.73	14.34	-37.4	-38.4	22.9	0.00e+00	0	34	0	727711744	46	6730
2026-01-08 20:21:38.35	354.53	14.32	-37.3	-38.3	23.0	0.00e+00	0	34	0	729808896	46	6643
2026-01-08 20:21:39.35	354.33	14.29	-37.4	-38.3	23.0	0.00e+00	0	34	0	731906048	46	6659
2026-01-08 20:21:40.36	354.13	14.26	-37.6	-38.6	22.7	0.00e+00	0	34	0	734003200	46	6873
2026-01-08 20:21:41.37	353.93	14.23	-37.7	-38.7	22.6	0.00e+00	0	34	0	735051776	46	6942
2026-01-08 20:21:42.38	353.73	14.20	-37.5	-38.5	22.8	0.00e+00	0	34	0	737148928	46	6798
2026-01-08 20:21:43.39	353.53	14.17	-37.4	-38.4	22.9	0.00e+00	0	34	0	739246080	46	6719
2026-01-08 20:21:44.40	353.33	14.14	-37.7	-38.7	22.7	0.00e+00	0	34	0	741343232	46	6960
2026-01-08 20:21:45.41	353.13	14.11	-37.6	-38.6	22.7	0.00e+00	0	34	0	743440384	48	6167
2026-01-08 20:21:46.42	352.93	14.08	-37.7	-38.7	22.6	0.00e+00	0	34	0	745537536	48	6219
2026-01-08 20:21:47.43	352.73	14.05	-38.0	-39.0	22.4	0.00e+00	0	34	0	746586112	48	6460
2026-01-08 20:21:48.44	352.54	14.02	-37.9	-39.0	22.5	0.00e+00	0	34	0	748683264	48	6396
2026-01-08 20:21:49.45	352.34	13.99	-37.9	-38.9	22.6	0.00e+00	0	34	0	750780416	48	6342
2026-01-08 20:21:50.46	352.14	13.96	-37.9	-38.9	22.6	0.00e+00	0	34	0	752877568	48	6332
2026-01-08 20:21:51.47	351.95	13.93	-37.6	-38.6	22.9	0.00e+00	0	34	0	754974720	48	6138
2026-01-08 20:21:52.48	351.75	13.90	-37.5	-38.4	22.9	0.00e+00	0	34	0	756023296	48	6024
2026-01-08 20:21:53.49	351.56	13.86	-37.4	-38.4	23.0	0.00e+00	0	34	0	758120448	48	5988
2026-01-08 20:21:54.50	351.36	13.83	-37.5	-38.5	22.8	0.00e+00	0	34	0	760217600	48	6035
2026-01-08 20:21:55.51	351.17	13.80	-37.6	-38.6	22.8	0.00e+00	0	34	0	762314752	48	6117
2026-01-08 20:21:56.52	350.97	13.76	-37.5	-38.5	22.8	0.00e+00	0	34	0	764411904	48	6036
2026-01-08 20:21:57.53	350.78	13.73	-37.5	-38.5	22.7	0.00e+00	0	34	0	765460480	48	6038
2026-01-08 20:21:58.54	350.59	13.70	-37.4	-38.4	22.9	0.00e+00	0	34	0	767557632	48	5988
2026-01-08 20:21:59.55	350.39	13.66	-37.3	-38.2	22.9	0.00e+00	0	34	0	769654784	48	5880
2026-01-08 20:22:00.56	350.20	13.63	-37.3	-38.2	23.1	0.00e+00	0	34	0	771751936	48	5880
2026-01-08 20:22:01.56	350.01	13.60	-37.1	-38.0	23.2	0.00e+00	0	34	0	773849088	48	5754
2026-01-08 20:22:02.57	349.82	13.56	-36.8	-37.7	23.4	0.00e+00	0	34	0	774897664	48	5537
2026-01-08 20:22:03.58	349.63	13.53	-36.8	-37.7	23.5	0.00e+00	0	34	0	776994816	48	5543
2026-01-08 20:22:04.59	349.44	13.49	-36.7	-37.6	23.5	0.00e+00	0	34	0	779091968	46	6119
2026-01-08 20:22:05.60	349.25	13.45	-36.5	-37.4	23.6	0.00e+00	0	34	0	781189120	46	5999
2026-01-08 20:22:06.61	349.06	13.42	-36.5	-37.4	23.6	0.00e+00	0	34	0	783286272	46	5972
2026-01-08 20:22:07.61	348.87	13.38	-36.5	-37.3	23.7	0.00e+00	0	34	0	784334848	46	5952
2026-01-08 20:22:08.62	348.68	13.35	-36.9	-37.8	23.0	0.00e+00	0	34	0	786432000	46	6271
2026-01-08 20:22:09.63	348.49	13.31	-37.2	-38.1	23.0	0.00e+00	0	34	0	788529152	46	6496
2026-01-08 20:22:10.64	348.31	13.27	-37.3	-38.3	23.0	0.00e+00	0	34	0	790626304	46	6642
2026-01-08 20:22:11.65	348.12	13.24	-37.4	-38.3	22.8	0.00e+00	0	34	0	792723456	46	6688
2026-01-08 20:22:12.66	347.93	13.20	-37.4	-38.4	22.7	0.00e+00	0	34	0	793772032	46	6705
2026-01-08 20:22:13.67	347.75	13.16	-37.4	-38.4	22.8	0.00e+00	0	34	0	795869184	46	6731
2026-01-08 20:22:14.68	347.56	13.12	-37.6	-38.6	22.6	0.00e+00	0	34	0	797966336	46	6880
2026-01-08 20:22:15.69	347.38	13.09	-38.0	-39.1	22.3	0.00e+00	0	34	0	800063488	48	6468
2026-01-08 20:22:16.70	347.19	13.05	-38.0	-39.1	22.3	0.00e+00	0	34	0	802160640	48	6483
2026-01-08 20:22:17.70	347.01	13.01	-38.1	-39.2	22.2	0.00e+00	0	34	0	803209216	48	6592
2026-01-08 20:22:18.71	346.82	12.97	-38.2	-39.3	22.1	0.00e+00	0	34	0	805306368	48	6654
2026-01-08 20:22:19.72	346.64	12.93	-38.3	-39.4	22.0	0.00e+00	0	34	0	807403520	48	6755
2026-01-08 20:22:20.73	346.46	12.89	-38.4	-39.5	21.9	0.00e+00	0	34	0	809500672	48	6798
2026-01-08 20:22:21.74	346.28	12.85	-38.0	-39.1	22.2	0.00e+00	0	34	0	811597824	48	6481
2026-01-08 20:22:22.75	346.09	12.81	-38.0	-39.0	22.2	0.00e+00	0	34	0	813694976	48	6453
2026-01-08 20:22:23.76	345.91	12.77	-37.8	-38.8	22.3	0.00e+00	0	34	0	814743552	48	6309
2026-01-08 20:22:24.77	345.73	12.73	-38.2	-39.2	22.1	0.00e+00	0	34	0	816840704	48	6593
2026-01-08 20:22:25.78	345.55	12.69	-38.1	-39.1	22.2	0.00e+00	0	34	0	818937856	48	6497
2026-01-08 20:22:26.79	345.37	12.65	-38.3	-39.4	21.9	0.00e+00	0	34	0	821035008	48	6728
2026-01-08 20:22:27.80	345.19	12.61	-38.1	-39.1	22.1	0.00e+00	0	34	0	822083584	48	6532
2026-01-08 20:22:28.81	345.01	12.57	-38.3	-39.3	22.1	0.00e+00	0	34	0	824180736	48	6676
2026-01-08 20:22:29.82	344.84	12.53	-38.4	-39.5	22.1	0.00e+00	0	34	0	826277888	48	6791
2026-01-08 20:22:30.83	344.66	12.49	-38.2	-39.3	22.0	0.00e+00	0	34	0	828375040	48	6633
2026-01-08 20:22:31.84	344.48	12.45	-38.3	-39.3	22.1	0.00e+00	0	34	0	830472192	48	6679
2026-01-08 20:22:32.85	344.30	12.41	-38.1	-39.1	22.3	0.00e+00	0	34	0	831520768	48	6523
2026-01-08 20:22:33.86	344.13	12.36	-38.1	-39.2	22.2	0.00e+00	0	34	0	833617920	48	6560
2026-01-08 20:22:34.87	343.95	12.32	-38.2	-39.2	22.2	0.00e+00	0	34	0	835715072	48	6586
2026-01-08 20:22:35.88	343.78	12.28	-38.3	-39.3	22.0	0.00e+00	0	34	0	837812224	48	6646
2026-01-08 20:22:36.88	343.60	12.24	-38.2	-39.2	22.2	0.00e+00	0	34	0	839909376	48	6563
2026-01-08 20:22:37.89	343.43	12.19	-38.3	-39.3	22.0	0.00e+00	0	34	0	842006528	48	6684
2026-01-08 20:22:38.90	343.26	12.15	-38.5	-39.6	21.8	0.00e+00	0	34	0	843055104	48	6889
2026-01-08 20:22:39.91	343.08	12.11	-38.3	-39.4	21.8	0.00e+00	0	34	0	845152256	48	6727
2026-01-08 20:22:40.92	342.91	12.06	-38.2	-39.2	22.1	0.00e+00	0	34	0	847249408	48	6556
2026-01-08 20:22:41.93	342.74	12.02	-38.2	-39.2	22.3	0.00e+00	0	34	0	849346560	48	6566
2026-01-08 20:22:42.94	342.57	11.98	-37.9	-38.8	22.4	0.00e+00	0	34	0	851443712	48	6311
2026-01-08 20:22:43.95	342.39	11.93	-37.7	-38.7	22.5	0.00e+00	0	34	0	852492288	48	6222
2026-01-08 20:22:44.96	342.22	11.89	-37.9	-38.9	22.5	0.00e+00	0	34	0	854589440	48	6383
2026-01-08 20:22:45.96	342.06	11.85	-37.8	-38.8	22.5	0.00e+00	0	34	0	856686592	48	6263
2026-01-08 20:22:46.97	341.89	11.80	-38.0	-39.0	22.5	0.00e+00	0	34	0	858783744	48	6409
2026-01-08 20:22:47.98	341.72	11.76	-38.2	-39.2	22.2	0.00e+00	0	34	0	860880896	48	6562
2026-01-08 20:22:48.99	341.55	11.71	-38.5	-39.6	21.7	0.00e+00	0	34	0	861929472	48	6892
2026-01-08 20:22:50.00	341.38	11.67	-38.9	-40.1	21.4	0.00e+00	0	34	0	864026624	50	6506
2026-01-08 20:22:51.01	341.21	11.62	-39.1	-40.2	21.3	0.00e+00	0	34	0	866123776	50	6614
2026-01-08 20:22:52.02	341.05	11.58	-39.3	-40.5	21.0	0.00e+00	0	34	0	868220928	50	6842
2026-01-08 20:22:53.03	340.88	11.53	-39.3	-40.5	21.1	0.00e+00	0	34	0	870318080	50	6793
2026-01-08 20:22:54.04	340.71	11.49	-39.3	-40.5	21.0	0.00e+00	0	34	0	871366656	50	6847
2026-01-08 20:22:55.05	340.55	11.44	-39.1	-40.3	21.2	0.00e+00	0	34	0	873463808	50	6665
2026-01-08 20:22:56.06	340.38	11.40	-39.2	-40.4	21.2	0.00e+00	0	34	0	875560960	50	6712
2026-01-08 20:22:57.07	340.22	11.35	-38.6	-39.7	21.8	0.00e+00	0	34	0	877658112	50	6177
2026-01-08 20:22:58.08	340.06	11.30	-38.5	-39.6	21.8	0.00e+00	0	34	0	879755264	50	6163
2026-01-08 20:22:59.09	339.89	11.26	-38.7	-39.8	21.6	0.00e+00	0	34	0	880803840	50	6316
2026-01-08 20:23:00.10	339.73	11.21	-38.5	-39.6	21.7	0.00e+00	0	34	0	882900992	50	6133
2026-01-08 20:23:01.10	339.57	11.17	-39.2	-40.4	21.2	0.00e+00	0	34	0	884998144	50	6700
2026-01-08 20:23:02.11	339.41	11.12	-39.4	-40.7	20.8	0.00e+00	0	34	0	887095296	50	6970
2026-01-08 20:23:03.12	339.25	11.07	-40.0	-41.3	20.3	0.00e+00	0	34	0	889192448	52	6670
2026-01-08 20:23:04.13	339.08	11.03	-40.4	-41.9	19.7	0.00e+00	0	34	0	890241024	52	7105
2026-01-08 20:23:05.14	338.92	10.98	-41.0	-42.6	18.9	0.00e+00	0	34	0	892338176	54	6894
2026-01-08 20:23:06.15	338.76	10.93	-41.4	-43.2	18.7	0.00e+00	0	34	0	894435328	54	7340
2026-01-08 20:23:07.16	338.61	10.89	-41.5	-43.4	18.4	0.00e+00	0	34	0	896532480	54	7527
2026-01-08 20:23:08.17	338.45	10.84	-41.6	-43.4	18.4	0.00e+00	0	34	0	898629632	54	7548
2026-01-08 20:23:09.18	338.29	10.79	-41.4	-43.2	18.6	0.00e+00	0	34	0	899678208	54	7354
2026-01-08 20:23:10.19	338.13	10.74	-41.1	-42.8	18.9	0.00e+00	0	34	0	901775360	54	7033
2026-01-08 20:23:11.20	337.97	10.70	-40.9	-42.5	19.2	0.00e+00	0	34	0	903872512	54	6839
2026-01-08 20:23:12.21	337.82	10.65	-40.9	-42.5	19.3	0.00e+00	0	34	0	905969664	54	6778
2026-01-08 20:23:13.22	337.66	10.60	-40.9	-42.5	19.2	0.00e+00	0	34	0	908066816	54	6806
2026-01-08 20:23:14.23	337.51	10.55	-40.9	-42.5	19.3	0.00e+00	0	34	0	910163968	54	6825
2026-01-08 20:23:15.24	337.35	10.50	-40.7	-42.2	19.4	0.00e+00	0	34	0	911212544	54	6597
2026-01-08 20:23:16.25	337.20	10.46	-40.7	-42.2	19.4	0.00e+00	0	34	0	913309696	54	6569
2026-01-08 20:23:17.25	337.04	10.41	-40.2	-41.6	19.9	0.00e+00	0	34	0	915406848	54	6152
2026-01-08 20:23:18.26	336.89	10.36	-40.2	-41.6	19.8	0.00e+00	0	34	0	917504000	54	6166
2026-01-08 20:23:19.27	336.74	10.31	-39.9	-41.3	20.4	0.00e+00	0	34	0	919601152	54	5914
2026-01-08 20:23:20.28	336.59	10.26	-39.9	-41.2	20.4	0.00e+00	0	34	0	920649728	52	6562
2026-01-08 20:23:21.29	336.43	10.21	-39.9	-41.2	20.3	0.00e+00	0	34	0	922746880	52	6578
2026-01-08 20:23:22.30	336.28	10.16	-39.6	-40.8	20.7	0.00e+00	0	34	0	924844032	52	6315
2026-01-08 20:23:23.31	336.13	10.12	-39.8	-41.0	20.5	0.00e+00	0	34	0	926941184	52	6463
2026-01-08 20:23:24.32	335.98	10.07	-39.7	-41.0	20.4	0.00e+00	0	34	0	929038336	52	6438
2026-01-08 20:23:25.33	335.83	10.02	-39.8	-41.1	20.5	0.00e+00	0	34	0	930086912	52	6492
2026-01-08 20:23:26.34	335.68	9.97	-39.8	-41.1	20.4	0.00e+00	0	34	0	932184064	52	6504
2026-01-08 20:23:27.35	335.53	9.92	-39.8	-41.1	20.6	0.00e+00	0	34	0	934281216	52	6468
2026-01-08 20:23:28.36	335.39	9.87	-39.6	-40.9	20.6	0.00e+00	0	34	0	936378368	52	6319
2026-01-08 20:23:29.37	335.24	9.82	-39.5	-40.7	20.8	0.00e+00	0	34	0	938475520	52	6228
2026-01-08 20:23:30.38	335.09	9.77	-39.5	-40.7	20.8	0.00e+00	0	34	0	939524096	52	6201
2026-01-08 20:23:31.39	334.94	9.72	-39.2	-40.4	21.0	0.00e+00	0	34	0	941621248	52	6009
2026-01-08 20:23:32.40	334.80	9.67	-39.1	-40.3	21.1	0.00e+00	0	34	0	943718400	52	5929
2026-01-08 20:23:33.41	334.65	9.62	-39.0	-40.2	21.2	0.00e+00	0	34	0	945815552	52	5843
2026-01-08 20:23:34.41	334.51	9.57	-39.0	-40.2	21.2	0.00e+00	0	34	0	947912704	52	5844
2026-01-08 20:23:35.42	334.36	9.52	-38.9	-40.0	21.4	0.00e+00	0	34	0	948961280	52	5750
2026-01-08 20:23:36.43	334.22	9.47	-39.0	-40.2	21.2	0.00e+00	0	34	0	951058432	52	5830
2026-01-08 20:23:37.44	334.08	9.42	-39.1	-40.3	21.2	0.00e+00	0	34	0	953155584	52	5916
2026-01-08 20:23:38.45	333.93	9.37	-39.1	-40.3	21.0	0.00e+00	0	34	0	955252736	52	5905
2026-01-08 20:23:39.46	333.79	9.32	-39.2	-40.4	21.1	0.00e+00	0	34	0	957349888	52	5977
2026-01-08 20:23:40.47	333.65	9.27	-39.2	-40.4	21.0	0.00e+00	0	34	0	958398464	52	5983
2026-01-08 20:23:41.48	333.51	9.22	-39.2	-40.4	21.0	0.00e+00	0	34	0	960495616	52	6012
2026-01-08 20:23:42.49	333.36	9.17	-39.4	-40.6	20.9	0.00e+00	0	34	0	962592768	52	6147
2026-01-08 20:23:43.50	333.22	9.12	-39.4	-40.7	20.7	0.00e+00	0	34	0	964689920	52	6204
2026-01-08 20:23:44.51	333.08	9.07	-39.5	-40.7	20.7	0.00e+00	0	34	0	966787072	52	6236
2026-01-08 20:23:45.52	332.94	9.02	-39.6	-40.9	20.6	0.00e+00	0	34	0	967835648	52	6338
2026-01-08 20:23:46.53	332.80	8.97	-39.6	-40.9	20.5	0.00e+00	0	34	0	969932800	52	6357
2026-01-08 20:23:47.53	332.67	8.92	-39.7	-41.0	20.5	0.00e+00	0	34	0	972029952	52	6444
2026-01-08 20:23:48.54	332.53	8.87	-39.7	-41.0	20.5	0.00e+00	0	34	0	974127104	52	6400
2026-01-08 20:23:49.55	332.39	8.82	-39.6	-40.8	20.6	0.00e+00	0	34	0	976224256	52	6289
2026-01-08 20:23:50.56	332.25	8.76	-39.5	-40.7	20.7	0.00e+00	0	34	0	978321408	52	6221
2026-01-08 20:23:51.57	332.12	8.71	-39.3	-40.5	20.8	0.00e+00	0	34	0	979369984	52	6074
2026-01-08 20:23:52.58	331.98	8.66	-39.2	-40.4	20.8	0.00e+00	0	34	0	981467136	52	6017
2026-01-08 20:23:53.59	331.85	8.61	-39.3	-40.5	20.9	0.00e+00	0	34	0	983564288	52	6069
2026-01-08 20:23:54.60	331.71	8.56	-39.3	-40.5	21.0	0.00e+00	0	34	0	985661440	52	6056
2026-01-08 20:23:55.61	331.58	8.51	-39.3	-40.5	20.9	0.00e+00	0	34	0	987758592	52	6050
2026-01-08 20:23:56.62	331.44	8.46	-39.2	-40.4	21.0	0.00e+00	0	34	0	988807168	52	5989
2026-01-08 20:23:57.63	331.31	8.41	-39.0	-40.2	21.1	0.00e+00	0	34	0	990904320	52	5875
2026-01-08 20:23:58.63	331.17	8.36	-39.1	-40.3	21.1	0.00e+00	0	34	0	993001472	52	5923
2026-01-08 20:23:59.64	331.04	8.30	-38.8	-40.0	21.4	0.00e+00	0	34	0	995098624	52	5715
2026-01-08 20:24:00.65	330.91	8.25	-38.6	-39.7	21.6	0.00e+00	0	34	0	997195776	50	6195
2026-01-08 20:24:01.66	330.78	8.20	-38.6	-39.7	21.6	0.00e+00	0	34	0	998244352	50	6207
2026-01-08 20:24:02.67	330.65	8.15	-38.1	-39.2	22.1	0.00e+00	0	34	0	1000341504	50	5849
2026-01-08 20:24:03.68	330.52	8.10	-37.9	-38.9	22.3	0.00e+00	0	34	0	1002438656	50	5654
2026-01-08 20:24:04.69	330.38	8.05	-37.8	-38.9	22.3	0.00e+00	0	34	0	1004535808	50	5634
2026-01-08 20:24:05.69	330.26	8.00	-37.8	-38.8	22.3	0.00e+00	0	34	0	1006632960	50	5615
2026-01-08 20:24:06.70	330.13	7.94	-37.7	-38.7	22.3	0.00e+00	0	34	0	1007681536	48	6229
2026-01-08 20:24:07.71	330.00	7.89	-37.8	-38.8	22.3	0.00e+00	0	34	0	1009778688	48	6266
2026-01-08 20:24:08.72	329.87	7.84	-37.9	-38.9	22.2	0.00e+00	0	34	0	1011875840	48	6370
2026-01-08 20:24:09.73	329.74	7.79	-38.0	-39.1	22.0	0.00e+00	0	34	0	1013972992	48	6493
2026-01-08 20:24:10.74	329.61	7.74	-38.3	-39.4	21.8	0.00e+00	0	34	0	1016070144	48	6699
2026-01-08 20:24:11.75	329.49	7.69	-38.2	-39.2	21.9	0.00e+00	0	34	0	1017118720	48	6605
2026-01-08 20:24:12.75	329.36	7.63	-38.1	-39.2	21.9	0.00e+00	0	34	0	1019215872	48	6587
2026-01-08 20:24:13.77	329.23	7.58	-38.1	-39.2	21.9	0.00e+00	0	34	0	1021313024	48	6585
2026-01-08 20:24:14.77	329.11	7.53	-38.0	-39.1	22.0	0.00e+00	0	34	0	1023410176	48	6491
2026-01-08 20:24:15.78	328.98	7.48	-38.0	-39.0	22.1	0.00e+00	0	34	0	1025507328	48	6449
2026-01-08 20:24:16.79	328.86	7.43	-37.9	-38.9	22.2	0.00e+00	0	34	0	1026555904	48	6353
2026-01-08 20:24:17.80	328.73	7.37	-37.8	-38.9	22.2	0.00e+00	0	34	0	1028653056	48	6320
2026-01-08 20:24:18.81	328.61	7.32	-37.9	-39.0	22.0	0.00e+00	0	34	0	1030750208	48	6401
2026-01-08 20:24:19.82	328.49	7.27	-37.9	-38.9	22.0	0.00e+00	0	34	0	1032847360	48	6388
2026-01-08 20:24:20.83	328.36	7.22	-38.2	-39.3	21.9	0.00e+00	0	34	0	1034944512	48	6653
2026-01-08 20:24:21.84	328.24	7.17	-38.4	-39.5	21.6	0.00e+00	0	34	0	1035993088	48	6825
2026-01-08 20:24:22.85	328.12	7.11	-38.5	-39.7	21.4	0.00e+00	0	34	0	1038090240	48	6931
2026-01-08 20:24:23.86	328.00	7.06	-38.3	-39.4	21.8	0.00e+00	0	34	0	1040187392	48	6706
2026-01-08 20:24:24.87	327.87	7.01	-38.3	-39.4	21.7	0.00e+00	0	34	0	1042284544	48	6765
2026-01-08 20:24:25.88	327.75	6.96	-38.4	-39.5	21.6	0.00e+00	0	34	0	1044381696	48	6836
2026-01-08 20:24:26.88	327.63	6.91	-38.6	-39.7	21.4	0.00e+00	0	34	0	1045430272	48	6997
2026-01-08 20:24:27.89	327.51	6.85	-38.6	-39.7	21.5	0.00e+00	0	34	0	1047527424	48	6967
2026-01-08 20:24:28.90	327.40	6.80	-38.7	-39.9	21.3	0.00e+00	0	34	0	1049624576	48	7144
2026-01-08 20:24:29.91	327.28	6.75	-38.8	-39.9	21.3	0.00e+00	0	34	0	1051721728	50	6366
2026-01-08 20:24:30.92	327.16	6.70	-38.6	-39.7	21.4	0.00e+00	0	34	0	1053818880	50	6215
2026-01-08 20:24:31.93	327.04	6.65	-38.9	-40.0	21.2	0.00e+00	0	34	0	1054867456	50	6449
2026-01-08 20:24:32.94	326.92	6.59	-38.8	-39.9	21.3	0.00e+00	0	34	0	1056964608	50	6362
2026-01-08 20:24:33.95	326.80	6.54	-38.9	-40.1	21.1	0.00e+00	0	34	0	1059061760	50	6499
2026-01-08 20:24:34.96	326.69	6.49	-38.8	-39.9	21.2	0.00e+00	0	34	0	1061158912	50	6363
2026-01-08 20:24:35.96	326.57	6.44	-39.0	-40.2	21.0	0.00e+00	0	34	0	1063256064	50	6575
2026-01-08 20:24:36.97	326.46	6.39	-39.0	-40.2	21.1	0.00e+00	0	34	0	1064304640	50	6541
2026-01-08 20:24:37.98	326.34	6.33	-38.9	-40.1	21.0	0.00e+00	0	34	0	1066401792	50	6502
2026-01-08 20:24:38.99	326.23	6.28	-39.0	-40.2	20.9	0.00e+00	0	34	0	1068498944	50	6554
2026-01-08 20:24:40.00	326.11	6.23	-38.7	-39.9	21.2	0.00e+00	0	34	0	1070596096	50	6343
2026-01-08 20:24:41.01	326.00	6.18	-38.7	-39.8	21.3	0.00e+00	0	34	0	1072693248	50	6292
2026-01-08 20:24:42.02	325.88	6.12	-38.7	-39.9	21.0	0.00e+00	0	34	0	1073741824	50	6344
2026-01-08 20:24:43.03	325.77	6.07	-38.6	-39.8	21.3	0.00e+00	0	34	0	1075838976	50	6261
2026-01-08 20:24:44.04	325.66	6.02	-38.6	-39.7	21.3	0.00e+00	0	34	0	1077936128	50	6206
2026-01-08 20:24:45.05	325.54	5.97	-38.5	-39.6	21.4	0.00e+00	0	34	0	1080033280	50	6167
2026-01-08 20:24:46.06	325.43	5.92	-38.4	-39.6	21.4	0.00e+00	0	34	0	1082130432	50	6105
2026-01-08 20:24:47.07	325.32	5.86	-38.3	-39.4	21.5	0.00e+00	0	34	0	1084227584	50	6009
2026-01-08 20:24:48.08	325.21	5.81	-38.5	-39.7	21.3	0.00e+00	0	34	0	1085276160	50	6182
2026-01-08 20:24:49.09	325.10	5.76	-38.2	-39.3	21.2	0.00e+00	0	34	0	1087373312	50	5938
2026-01-08 20:24:50.10	324.99	5.71	-38.2	-39.3	21.2	0.00e+00	0	34	0	1089470464	50	5940
2026-01-08 20:24:51.11	324.88	5.65	-38.3	-39.4	21.5	0.00e+00	0	34	0	1091567616	50	5968
2026-01-08 20:24:52.12	324.77	5.60	-38.3	-39.4	21.6	0.00e+00	0	34	0	1093664768	50	5970
2026-01-08 20:24:53.12	324.66	5.55	-38.3	-39.4	21.5	0.00e+00	0	34	0	1094713344	50	6031
2026-01-08 20:24:54.13	324.55	5.50	-38.4	-39.5	21.5	0.00e+00	0	34	0	1096810496	50	6085
2026-01-08 20:24:55.14	324.44	5.45	-38.4	-39.6	21.4	0.00e+00	0	34	0	1098907648	50	6111
2026-01-08 20:24:56.15	324.33	5.39	-38.6	-39.8	21.2	0.00e+00	0	34	0	1101004800	50	6269
2026-01-08 20:24:57.16	324.22	5.34	-38.9	-40.1	20.9	0.00e+00	0	34	0	1103101952	50	6498
2026-01-08 20:24:58.17	324.12	5.29	-39.1	-40.3	20.9	0.00e+00	0	34	0	1104150528	50	6671
2026-01-08 20:24:59.18	324.01	5.24	-39.2	-40.5	20.6	0.00e+00	0	34	0	1106247680	50	6797
2026-01-08 20:25:00.18	323.90	5.19	-39.4	-40.7	20.3	0.00e+00	0	34	0	1108344832	50	6988
2026-01-08 20:25:01.19	323.80	5.13	-39.5	-40.8	20.3	0.00e+00	0	34	0	1110441984	50	7016
2026-01-08 20:25:02.21	323.69	5.08	-39.6	-40.9	20.2	0.00e+00	0	34	0	1112539136	50	7162
2026-01-08 20:25:03.22	323.58	5.03	-39.6	-40.9	20.2	0.00e+00	0	34	0	1113587712	52	6365
2026-01-08 20:25:04.22	323.48	4.98	-39.7	-41.0	20.1	0.00e+00	0	34	0	1115684864	52	6407
2026-01-08 20:25:05.23	323.38	4.92	-39.4	-40.7	20.4	0.00e+00	0	34	0	1117782016	52	6187
2026-01-08 20:25:06.24	323.27	4.87	-39.2	-40.5	20.5	0.00e+00	0	34	0	1119879168	52	6059
2026-01-08 20:25:07.25	323.17	4.82	-39.1	-40.4	20.6	0.00e+00	0	34	0	1121976320	52	5984
2026-01-08 20:25:08.26	323.06	4.77	-39.1	-40.3	20.8	0.00e+00	0	34	0	1123024896	52	5928
2026-01-08 20:25:09.27	322.96	4.72	-39.0	-40.2	20.7	0.00e+00	0	34	0	1125122048	52	5851
2026-01-08 20:25:10.28	322.86	4.66	-39.0	-40.2	20.7	0.00e+00	0	34	0	1127219200	52	5871
2026-01-08 20:25:11.29	322.76	4.61	-38.5	-39.7	21.3	0.00e+00	0	34	0	1129316352	50	6183
2026-01-08 20:25:12.30	322.65	4.56	-38.5	-39.6	21.3	0.00e+00	0	34	0	1131413504	50	6168
2026-01-08 20:25:13.31	322.55	4.51	-38.4	-39.5	21.3	0.00e+00	0	34	0	1132462080	50	6087
2026-01-08 20:25:14.32	322.45	4.46	-38.4	-39.5	21.3	0.00e+00	0	34	0	1134559232	50	6074
2026-01-08 20:25:15.33	322.35	4.40	-38.4	-39.5	21.4	0.00e+00	0	34	0	1136656384	50	6063
2026-01-08 20:25:16.34	322.25	4.35	-38.4	-39.6	21.3	0.00e+00	0	34	0	1138753536	50	6114
2026-01-08 20:25:17.35	322.15	4.30	-38.4	-39.5	21.4	0.00e+00	0	34	0	1140850688	50	6075
2026-01-08 20:25:18.36	322.05	4.25	-38.7	-39.9	21.0	0.00e+00	0	34	0	1141899264	50	6334
2026-01-08 20:25:19.37	321.95	4.20	-38.7	-39.9	21.0	0.00e+00	0	34	0	1143996416	50	6368
2026-01-08 20:25:20.37	321.85	4.14	-38.7	-39.9	20.9	0.00e+00	0	34	0	1146093568	50	6322
2026-01-08 20:25:21.38	321.75	4.09	-38.9	-40.1	20.8	0.00e+00	0	34	0	1148190720	50	6487
2026-01-08 20:25:22.39	321.66	4.04	-38.9	-40.1	20.7	0.00e+00	0	34	0	1150287872	50	6525
2026-01-08 20:25:23.40	321.56	3.99	-39.3	-40.6	20.3	0.00e+00	0	34	0	1152385024	50	6911
2026-01-08 20:25:24.41	321.46	3.94	-39.5	-40.8	20.1	0.00e+00	0	34	0	1153433600	50	7062
2026-01-08 20:25:25.42	321.36	3.89	-39.8	-41.1	19.7	0.00e+00	0	34	0	1155530752	50	7315
2026-01-08 20:25:26.43	321.27	3.83	-39.8	-41.2	19.7	0.00e+00	0	34	0	1157627904	52	6594
2026-01-08 20:25:27.44	321.17	3.78	-39.9	-41.3	19.7	0.00e+00	0	34	0	1159725056	52	6686
2026-01-08 20:25:28.45	321.07	3.73	-40.3	-41.8	19.0	0.00e+00	0	34	0	1161822208	52	7052
2026-01-08 20:25:29.46	320.98	3.68	-40.3	-41.8	19.1	0.00e+00	0	34	0	1162870784	52	7017
2026-01-08 20:25:30.47	320.88	3.63	-40.5	-42.1	19.0	0.00e+00	0	34	0	1164967936	52	7296
2026-01-08 20:25:31.47	320.79	3.58	-40.4	-41.9	19.0	0.00e+00	0	34	0	1167065088	52	7170
2026-01-08 20:25:32.48	320.69	3.52	-40.5	-42.0	18.9	0.00e+00	0	34	0	1169162240	52	7227
2026-01-08 20:25:33.49	320.60	3.47	-40.5	-42.1	18.9	0.00e+00	0	34	0	1170210816	52	7301
2026-01-08 20:25:34.50	320.50	3.42	-40.2	-41.7	19.2	0.00e+00	0	34	0	1172307968	52	6974
2026-01-08 20:25:35.51	320.41	3.37	-40.5	-42.1	18.9	0.00e+00	0	34	0	1174405120	52	7287
2026-01-08 20:25:36.52	320.32	3.32	-40.2	-41.7	19.2	0.00e+00	0	34	0	1176502272	52	6975
2026-01-08 20:25:37.53	320.22	3.27	-40.3	-41.9	19.0	0.00e+00	0	34	0	1178599424	52	7091
2026-01-08 20:25:38.54	320.13	3.21	-40.4	-42.0	18.9	0.00e+00	0	34	0	1180696576	52	7195
2026-01-08 20:25:39.55	320.04	3.16	-40.3	-41.9	18.9	0.00e+00	0	34	0	1181745152	52	7093
2026-01-08 20:25:40.56	319.95	3.11	-40.3	-41.8	19.0	0.00e+00	0	34	0	1183842304	52	7038
2026-01-08 20:25:41.56	319.86	3.06	-40.2	-41.7	19.1	0.00e+00	0	34	0	1185939456	52	6996
2026-01-08 20:25:42.57	319.76	3.01	-47.1	-61.7	3.6	0.00e+00	0	34	104	1188036608	60	44202
2026-01-08 20:25:43.58	319.67	2.96	-47.8	-62.9	3.6	1.51e+00	0	34	104	1188036608	60	50677
2026-01-08 20:25:44.59	319.58	2.91	-48.1	-63.3	3.6	1.51e+00	0	34	104	1188036608	60	52794
2026-01-08 20:25:45.60	319.49	2.86	-48.3	-63.5	3.6	1.51e+00	0	34	104	1188036608	60	53823
2026-01-08 20:25:46.60	319.40	2.80	-48.4	-63.6	3.6	1.51e+00	0	34	104	1188036608	60	55008
2026-01-08 20:25:47.61	319.31	2.75	-48.5	-63.7	3.6	1.51e+00	0	34	104	1188036608	60	55140
2026-01-08 20:25:48.62	319.22	2.70	-48.6	-63.7	3.6	1.51e+00	0	34	104	1188036608	60	55226
2026-01-08 20:25:49.63	319.13	2.65	-48.6	-63.8	3.6	1.51e+00	0	34	104	1188036608	60	55770
